passes_logs/2026/01/22/R4.6S_Anadyr/R4.6S_Anadyr__20260122_175407_NOAA_20_JPSS-1_rec.log

#Pass ID: 20260122_175407_NOAA 20 (JPSS-1)
#Satellite: NOAA 20 (JPSS-1)
#Configuration: NOAA 20
#almurnet v.1.7.20251203
#Start time: 2026-01-22 17:54:10

#Version: 2.2.20231116
#Station: R4.6S_Anadyr
#Location: 177.4865 lon 64.73178 lat
#TLE: 1 43013U 17073A   26021.46221703  .00000173  00000+0  10299-3 0  9999
#TLE: 2 43013  98.7644 322.3335 0001238  29.7597 330.3649 14.19538314423652

#Time	Az	El	Level	Level2	SNR	BER	BlckErr	Temp	State	Recorded	gain1	gain2
2026-01-22 17:54:10.70	35.38	0.18	-52.2	-65.9	3.3	1.54e+00	0	40	0	0	60	71445
2026-01-22 17:54:11.70	35.32	0.23	-52.1	-67.4	3.6	1.51e+00	0	40	104	0	60	84305
2026-01-22 17:54:12.71	35.25	0.28	-51.8	-67.0	3.6	1.51e+00	0	40	104	0	60	80551
2026-01-22 17:54:13.72	35.18	0.33	-51.7	-66.9	3.6	1.51e+00	0	40	104	0	60	80018
2026-01-22 17:54:14.73	35.12	0.39	-51.5	-66.7	3.6	1.51e+00	0	40	104	0	60	78177
2026-01-22 17:54:15.75	35.05	0.44	-51.5	-66.7	3.6	1.51e+00	0	40	104	0	60	78409
2026-01-22 17:54:16.76	34.98	0.49	-51.4	-66.6	3.6	1.51e+00	0	40	104	0	60	77031
2026-01-22 17:54:17.77	34.91	0.54	-51.4	-66.6	3.6	1.51e+00	0	40	104	0	60	77162
2026-01-22 17:54:18.78	34.84	0.60	-51.4	-66.6	3.6	1.51e+00	0	40	104	0	60	76958
2026-01-22 17:54:19.79	34.78	0.65	-51.2	-66.5	3.6	1.51e+00	0	40	104	0	60	76262
2026-01-22 17:54:20.80	34.71	0.70	-51.2	-66.4	3.6	1.51e+00	0	40	104	0	60	75274
2026-01-22 17:54:21.81	34.64	0.75	-51.1	-66.4	3.6	1.51e+00	0	40	104	0	60	75171
2026-01-22 17:54:22.82	34.57	0.81	-51.0	-66.2	3.6	1.51e+00	0	40	104	0	60	74150
2026-01-22 17:54:23.83	34.50	0.86	-51.0	-66.2	3.6	1.51e+00	0	40	104	0	60	73723
2026-01-22 17:54:24.84	34.43	0.91	-51.0	-66.1	3.6	1.51e+00	0	40	104	0	60	73331
2026-01-22 17:54:25.85	34.36	0.97	-50.9	-66.1	3.6	1.51e+00	0	40	104	0	60	72908
2026-01-22 17:54:26.86	34.29	1.02	-50.8	-66.0	3.6	1.51e+00	0	40	104	0	60	72155
2026-01-22 17:54:27.87	34.22	1.07	-50.7	-65.9	3.6	1.51e+00	0	40	104	0	60	71567
2026-01-22 17:54:28.87	34.15	1.12	-50.6	-65.8	3.6	1.51e+00	0	40	104	0	60	70295
2026-01-22 17:54:29.88	34.08	1.18	-50.5	-65.7	3.6	1.51e+00	0	40	104	0	60	69673
2026-01-22 17:54:30.89	34.01	1.23	-50.3	-65.5	3.6	1.51e+00	0	40	104	0	60	67894
2026-01-22 17:54:31.90	33.94	1.28	-50.0	-65.2	3.6	1.51e+00	0	40	104	0	60	65472
2026-01-22 17:54:32.91	33.87	1.34	-49.6	-64.8	3.6	1.51e+00	0	40	104	0	60	62839
2026-01-22 17:54:33.92	33.79	1.39	-49.7	-64.8	3.6	1.51e+00	0	40	104	0	60	63023
2026-01-22 17:54:34.93	33.72	1.44	-49.6	-64.8	3.6	1.51e+00	0	40	104	0	60	62873
2026-01-22 17:54:35.94	33.65	1.50	-49.6	-64.8	3.6	1.51e+00	0	40	104	0	60	62871
2026-01-22 17:54:36.96	33.58	1.55	-49.6	-64.8	3.6	1.51e+00	0	40	104	0	60	62535
2026-01-22 17:54:37.97	33.50	1.60	-49.6	-64.8	3.6	1.51e+00	0	40	104	0	60	62487
2026-01-22 17:54:38.98	33.43	1.66	-49.6	-64.8	3.6	1.51e+00	0	40	104	0	60	62715
2026-01-22 17:54:39.99	33.36	1.71	-49.6	-64.8	3.6	1.51e+00	0	40	104	0	60	62685
2026-01-22 17:54:41.00	33.28	1.77	-49.6	-64.8	3.6	1.51e+00	0	40	104	0	60	62860
2026-01-22 17:54:42.01	33.21	1.82	-49.6	-64.9	3.6	1.51e+00	0	40	104	0	60	63354
2026-01-22 17:54:43.02	33.13	1.87	-49.6	-64.8	3.6	1.51e+00	0	40	104	0	60	63157
2026-01-22 17:54:44.03	33.06	1.93	-49.6	-64.8	3.6	1.51e+00	0	40	104	0	60	62778
2026-01-22 17:54:45.04	32.98	1.98	-49.6	-64.7	3.6	1.51e+00	0	40	104	0	60	62149
2026-01-22 17:54:46.05	32.91	2.04	-49.6	-64.7	3.6	1.51e+00	0	40	104	0	60	61891
2026-01-22 17:54:47.06	32.83	2.09	-49.6	-64.6	3.6	1.51e+00	0	40	104	0	60	61087
2026-01-22 17:54:48.07	32.76	2.14	-49.6	-64.4	3.6	1.51e+00	0	40	104	0	60	60012
2026-01-22 17:54:49.08	32.68	2.20	-49.6	-64.5	3.6	1.51e+00	0	40	104	0	60	60641
2026-01-22 17:54:50.09	32.60	2.25	-49.6	-64.6	3.6	1.51e+00	0	41	104	0	60	61520
2026-01-22 17:54:51.10	32.53	2.31	-49.6	-64.7	3.6	1.51e+00	0	40	104	0	60	62091
2026-01-22 17:54:52.11	32.45	2.36	-49.6	-64.8	3.6	1.51e+00	0	40	104	0	60	62648
2026-01-22 17:54:53.12	32.37	2.41	-49.6	-64.8	3.6	1.51e+00	0	40	104	0	60	62853
2026-01-22 17:54:54.13	32.30	2.47	-49.6	-64.7	3.6	1.51e+00	0	40	104	0	60	62366
2026-01-22 17:54:55.14	32.22	2.52	-49.6	-64.7	3.6	1.51e+00	0	40	104	0	60	61934
2026-01-22 17:54:56.15	32.14	2.58	-49.6	-64.8	3.6	1.51e+00	0	41	104	0	60	62656
2026-01-22 17:54:57.16	32.06	2.63	-49.6	-64.7	3.6	1.51e+00	0	40	104	0	60	61943
2026-01-22 17:54:58.17	31.98	2.69	-49.6	-64.4	3.6	1.51e+00	0	41	104	0	60	60101
2026-01-22 17:54:59.18	31.90	2.74	-49.5	-63.9	3.6	1.51e+00	0	41	104	0	60	56947
2026-01-22 17:55:00.19	31.82	2.80	-49.5	-63.6	3.6	1.51e+00	0	41	104	0	60	54483
2026-01-22 17:55:01.20	31.74	2.85	-49.5	-63.9	3.6	1.51e+00	0	40	104	0	60	56608
2026-01-22 17:55:02.21	31.66	2.91	-49.6	-64.4	3.6	1.51e+00	0	41	104	0	60	60160
2026-01-22 17:55:03.22	31.58	2.96	-49.5	-63.9	3.6	1.51e+00	0	41	104	0	60	56646
2026-01-22 17:55:04.23	31.50	3.02	-49.4	-60.9	4.2	1.46e+00	0	41	104	0	60	40099
2026-01-22 17:55:05.23	31.42	3.07	-49.2	-57.9	4.9	7.04e-01	92	41	0	1048576	60	28400
2026-01-22 17:55:06.25	31.34	3.13	-49.5	-63.4	3.6	1.49e+00	0	40	104	1048576	60	53491
2026-01-22 17:55:07.25	31.26	3.18	-49.6	-64.3	3.5	1.51e+00	0	40	104	1048576	60	59216
2026-01-22 17:55:08.26	31.18	3.24	-48.0	-53.4	11.0	7.53e-02	2	41	104	1048576	60	16941
2026-01-22 17:55:09.27	31.09	3.29	-44.7	-46.8	17.1	0.00e+00	0	41	0	2097152	60	7912
2026-01-22 17:55:10.28	31.01	3.35	-49.5	-64.2	3.6	1.06e+00	0	40	104	3145728	60	58411
2026-01-22 17:55:11.29	30.93	3.40	-45.0	-47.2	16.3	1.94e-01	0	41	104	3145728	60	8247
2026-01-22 17:55:12.30	30.85	3.46	-44.9	-47.1	16.9	0.00e+00	91	41	0	4194304	60	8157
2026-01-22 17:55:13.31	30.76	3.51	-44.7	-46.8	17.5	0.00e+00	0	41	0	6291456	60	7892
2026-01-22 17:55:14.32	30.68	3.57	-44.6	-46.6	17.2	0.00e+00	11	41	0	7340032	60	7732
2026-01-22 17:55:15.33	30.59	3.62	-44.7	-46.8	17.2	0.00e+00	0	40	0	9437184	60	7886
2026-01-22 17:55:16.34	30.51	3.68	-44.3	-46.2	17.7	0.00e+00	0	41	0	11534336	60	7398
2026-01-22 17:55:17.35	30.42	3.74	-44.4	-46.3	17.8	0.00e+00	0	41	0	13631488	60	7451
2026-01-22 17:55:18.36	30.34	3.79	-44.4	-46.3	17.8	0.00e+00	0	41	0	15728640	60	7492
2026-01-22 17:55:19.37	30.25	3.85	-44.3	-46.1	18.0	0.00e+00	91	41	0	17825792	60	7321
2026-01-22 17:55:20.38	30.17	3.90	-44.6	-46.6	17.5	0.00e+00	81	41	0	18874368	60	7715
2026-01-22 17:55:21.39	30.08	3.96	-44.7	-46.6	17.5	0.00e+00	92	41	0	20971520	60	7767
2026-01-22 17:55:22.39	30.00	4.01	-44.5	-46.4	17.7	0.00e+00	0	41	0	23068672	60	7595
2026-01-22 17:55:23.40	29.91	4.07	-44.8	-46.9	17.4	0.00e+00	0	41	0	25165824	60	7965
2026-01-22 17:55:24.41	29.82	4.13	-44.6	-46.6	17.4	0.00e+00	81	41	0	27262976	60	7705
2026-01-22 17:55:25.42	29.73	4.18	-44.5	-46.4	17.6	0.00e+00	81	41	0	28311552	60	7572
2026-01-22 17:55:26.43	29.65	4.24	-44.6	-46.5	17.7	0.00e+00	92	41	0	30408704	60	7658
2026-01-22 17:55:27.44	29.56	4.30	-44.3	-46.1	18.1	0.00e+00	0	41	0	32505856	60	7289
2026-01-22 17:55:28.45	29.47	4.35	-44.7	-46.7	17.5	0.00e+00	92	41	0	34603008	60	7782
2026-01-22 17:55:29.45	29.38	4.41	-44.6	-46.5	17.7	0.00e+00	81	41	0	35651584	60	7637
2026-01-22 17:55:30.46	29.29	4.46	-44.7	-46.7	17.6	0.00e+00	0	41	0	37748736	60	7814
2026-01-22 17:55:31.47	29.20	4.52	-44.5	-46.4	17.9	0.00e+00	5	41	0	39845888	60	7510
2026-01-22 17:55:32.48	29.11	4.58	-44.2	-46.0	18.3	0.00e+00	6	41	0	41943040	60	7226
2026-01-22 17:55:33.49	29.02	4.63	-44.2	-45.9	18.2	0.00e+00	0	41	0	44040192	60	7164
2026-01-22 17:55:34.50	28.93	4.69	-44.2	-46.0	18.1	0.00e+00	0	41	0	46137344	60	7220
2026-01-22 17:55:35.51	28.84	4.75	-44.3	-46.2	18.2	0.00e+00	92	41	0	47185920	60	7343
2026-01-22 17:55:36.52	28.75	4.80	-44.0	-45.8	18.4	0.00e+00	0	41	0	49283072	60	7009
2026-01-22 17:55:37.53	28.65	4.86	-43.9	-45.5	18.7	0.00e+00	7	41	0	51380224	60	6811
2026-01-22 17:55:38.54	28.56	4.92	-44.2	-45.9	18.4	0.00e+00	6	41	0	53477376	60	7134
2026-01-22 17:55:39.55	28.47	4.97	-44.2	-45.9	18.3	0.00e+00	0	41	0	55574528	60	7134
2026-01-22 17:55:40.56	28.38	5.03	-44.4	-46.3	18.1	0.00e+00	0	41	0	56623104	60	7424
2026-01-22 17:55:41.57	28.28	5.09	-44.0	-45.7	18.6	0.00e+00	86	41	0	58720256	60	6971
2026-01-22 17:55:42.58	28.19	5.14	-44.0	-45.7	18.6	0.00e+00	92	41	0	60817408	60	6981
2026-01-22 17:55:43.59	28.09	5.20	-43.8	-45.4	18.9	0.00e+00	0	41	0	62914560	60	6765
2026-01-22 17:55:44.60	28.00	5.26	-44.1	-45.8	18.5	0.00e+00	92	41	0	65011712	60	7059
2026-01-22 17:55:45.61	27.90	5.32	-43.9	-45.5	18.8	0.00e+00	0	41	0	66060288	60	6831
2026-01-22 17:55:46.61	27.81	5.37	-44.1	-45.8	18.6	0.00e+00	86	41	0	68157440	60	7040
2026-01-22 17:55:47.62	27.71	5.43	-44.2	-46.0	18.4	0.00e+00	3	41	0	70254592	60	7172
2026-01-22 17:55:48.63	27.62	5.49	-44.2	-45.9	18.6	0.00e+00	0	41	0	72351744	60	7146
2026-01-22 17:55:49.64	27.52	5.54	-44.1	-45.8	18.5	0.00e+00	75	41	0	74448896	60	7074
2026-01-22 17:55:50.65	27.42	5.60	-44.1	-45.8	18.6	0.00e+00	5	41	0	75497472	60	7057
2026-01-22 17:55:51.66	27.33	5.66	-43.8	-45.4	18.9	0.00e+00	92	41	0	77594624	60	6748
2026-01-22 17:55:52.67	27.23	5.72	-44.2	-45.9	18.6	0.00e+00	1	41	0	79691776	60	7093
2026-01-22 17:55:53.68	27.13	5.77	-44.3	-46.1	18.3	0.00e+00	0	41	0	81788928	60	7294
2026-01-22 17:55:54.69	27.03	5.83	-44.2	-45.9	18.6	0.00e+00	1	41	0	83886080	60	7158
2026-01-22 17:55:55.70	26.93	5.89	-44.0	-45.7	18.7	0.00e+00	1	41	0	84934656	60	6965
2026-01-22 17:55:56.71	26.83	5.95	-44.1	-45.8	18.6	0.00e+00	0	41	0	87031808	60	7061
2026-01-22 17:55:57.72	26.73	6.00	-44.3	-46.0	18.4	0.00e+00	6	41	0	89128960	60	7216
2026-01-22 17:55:58.73	26.63	6.06	-44.4	-46.2	18.3	0.00e+00	91	41	0	91226112	60	7371
2026-01-22 17:55:59.74	26.53	6.12	-44.5	-46.3	18.2	0.00e+00	6	41	0	93323264	60	7443
2026-01-22 17:56:00.75	26.43	6.18	-44.1	-45.8	18.7	0.00e+00	90	41	0	94371840	60	7032
2026-01-22 17:56:01.76	26.33	6.24	-44.1	-45.8	18.5	0.00e+00	0	41	0	96468992	60	7059
2026-01-22 17:56:02.77	26.23	6.29	-44.4	-46.2	18.3	0.00e+00	81	41	0	98566144	60	7338
2026-01-22 17:56:03.77	26.13	6.35	-44.4	-46.1	18.5	0.00e+00	0	41	0	100663296	60	7310
2026-01-22 17:56:04.78	26.02	6.41	-44.2	-45.9	18.6	0.00e+00	0	41	0	102760448	60	7097
2026-01-22 17:56:05.79	25.92	6.47	-44.4	-46.1	18.4	0.00e+00	90	41	0	103809024	60	7285
2026-01-22 17:56:06.80	25.82	6.52	-44.2	-45.9	18.6	0.00e+00	82	41	0	105906176	60	7148
2026-01-22 17:56:07.81	25.71	6.58	-44.1	-45.7	18.7	0.00e+00	90	41	0	108003328	60	7001
2026-01-22 17:56:08.82	25.61	6.64	-44.3	-46.0	18.5	0.00e+00	0	41	0	110100480	60	7178
2026-01-22 17:56:09.83	25.50	6.70	-44.2	-45.9	18.5	0.00e+00	0	41	0	112197632	60	7153
2026-01-22 17:56:10.84	25.40	6.76	-44.1	-45.7	18.7	0.00e+00	0	41	0	114294784	60	7006
2026-01-22 17:56:11.85	25.29	6.82	-44.2	-45.8	18.5	0.00e+00	0	41	0	115343360	60	7083
2026-01-22 17:56:12.86	25.19	6.87	-44.2	-45.8	18.7	0.00e+00	92	41	0	117440512	60	7088
2026-01-22 17:56:13.87	25.08	6.93	-44.1	-45.7	18.8	0.00e+00	0	41	0	119537664	60	6986
2026-01-22 17:56:14.88	24.97	6.99	-43.9	-45.5	19.0	0.00e+00	92	41	0	121634816	60	6798
2026-01-22 17:56:15.89	24.87	7.05	-43.9	-45.5	19.1	0.00e+00	0	41	0	123731968	60	6787
2026-01-22 17:56:16.90	24.76	7.11	-44.1	-45.7	18.8	0.00e+00	90	41	0	124780544	60	6980
2026-01-22 17:56:17.91	24.65	7.17	-44.0	-45.6	18.9	0.00e+00	0	41	0	126877696	60	6915
2026-01-22 17:56:18.92	24.54	7.22	-44.0	-45.6	18.9	0.00e+00	0	41	0	128974848	60	6911
2026-01-22 17:56:19.93	24.43	7.28	-43.9	-45.5	19.1	0.00e+00	0	41	0	131072000	60	6820
2026-01-22 17:56:20.94	24.32	7.34	-44.1	-45.7	18.8	0.00e+00	0	41	0	133169152	60	6985
2026-01-22 17:56:21.94	24.21	7.40	-43.9	-45.5	19.1	0.00e+00	92	41	0	134217728	60	6779
2026-01-22 17:56:22.95	24.10	7.46	-43.8	-45.3	19.2	0.00e+00	0	41	0	136314880	60	6678
2026-01-22 17:56:23.96	23.99	7.52	-43.8	-45.4	19.2	0.00e+00	90	41	0	138412032	60	6735
2026-01-22 17:56:24.97	23.88	7.58	-43.9	-45.5	19.1	0.00e+00	0	41	0	140509184	60	6785
2026-01-22 17:56:25.97	23.77	7.63	-43.9	-45.5	19.1	0.00e+00	82	41	0	142606336	60	6823
2026-01-22 17:56:26.99	23.66	7.69	-44.2	-45.8	18.7	0.00e+00	0	41	0	143654912	60	7062
2026-01-22 17:56:28.00	23.54	7.75	-44.3	-46.0	18.8	0.00e+00	0	41	0	145752064	60	7193
2026-01-22 17:56:29.01	23.43	7.81	-44.1	-45.7	18.8	0.00e+00	91	41	0	147849216	60	6941
2026-01-22 17:56:30.01	23.32	7.87	-43.7	-45.3	19.3	0.00e+00	81	41	0	149946368	60	6633
2026-01-22 17:56:31.02	23.20	7.93	-43.9	-45.5	19.0	0.00e+00	92	41	0	152043520	60	6822
2026-01-22 17:56:32.03	23.09	7.99	-43.9	-45.5	19.1	0.00e+00	81	41	0	153092096	60	6824
2026-01-22 17:56:33.04	22.97	8.05	-43.9	-45.5	19.1	0.00e+00	82	41	0	155189248	60	6782
2026-01-22 17:56:34.05	22.86	8.10	-43.9	-45.4	19.3	0.00e+00	0	41	0	157286400	60	6751
2026-01-22 17:56:35.06	22.74	8.16	-43.7	-45.2	19.4	0.00e+00	2	41	0	159383552	60	6606
2026-01-22 17:56:36.07	22.62	8.22	-43.6	-45.1	19.5	0.00e+00	92	41	0	161480704	60	6510
2026-01-22 17:56:37.08	22.51	8.28	-43.5	-45.0	19.6	0.00e+00	0	41	0	162529280	60	6431
2026-01-22 17:56:38.09	22.39	8.34	-43.6	-45.1	19.5	0.00e+00	92	41	0	164626432	60	6510
2026-01-22 17:56:39.09	22.27	8.40	-43.6	-45.1	19.5	0.00e+00	2	41	0	166723584	60	6485
2026-01-22 17:56:40.11	22.15	8.46	-43.5	-44.9	19.6	0.00e+00	90	41	0	168820736	60	6385
2026-01-22 17:56:41.11	22.03	8.52	-43.5	-44.9	19.7	0.00e+00	0	41	0	170917888	60	6387
2026-01-22 17:56:42.12	21.91	8.58	-43.4	-44.8	19.3	0.00e+00	0	41	0	171966464	60	6281
2026-01-22 17:56:43.13	21.79	8.64	-43.4	-44.8	19.8	0.00e+00	0	41	0	174063616	60	6253
2026-01-22 17:56:44.14	21.67	8.69	-43.3	-44.7	19.9	0.00e+00	0	41	0	176160768	60	6200
2026-01-22 17:56:45.15	21.55	8.75	-43.2	-44.6	20.1	0.00e+00	92	41	0	178257920	60	6107
2026-01-22 17:56:46.16	21.43	8.81	-43.2	-44.6	20.0	0.00e+00	0	41	0	180355072	60	6163
2026-01-22 17:56:47.17	21.31	8.87	-43.0	-44.4	20.3	0.00e+00	92	41	0	182452224	60	5981
2026-01-22 17:56:48.18	21.18	8.93	-43.0	-44.4	20.3	0.00e+00	0	41	0	183500800	60	5979
2026-01-22 17:56:49.18	21.06	8.99	-43.0	-44.3	20.4	0.00e+00	0	41	0	185597952	60	5936
2026-01-22 17:56:50.19	20.94	9.05	-43.0	-44.3	20.4	0.00e+00	2	41	0	187695104	60	5963
2026-01-22 17:56:51.20	20.81	9.11	-43.0	-44.3	20.4	0.00e+00	0	41	0	189792256	60	5950
2026-01-22 17:56:52.21	20.69	9.17	-43.0	-44.3	20.4	0.00e+00	92	41	0	191889408	60	5938
2026-01-22 17:56:53.22	20.56	9.23	-42.9	-44.3	20.4	0.00e+00	82	41	0	192937984	60	5908
2026-01-22 17:56:54.23	20.44	9.29	-43.0	-44.3	20.4	0.00e+00	92	41	0	195035136	60	5935
2026-01-22 17:56:55.24	20.31	9.35	-43.0	-44.3	20.4	0.00e+00	81	41	0	197132288	60	5956
2026-01-22 17:56:56.25	20.18	9.41	-42.9	-44.2	20.5	0.00e+00	82	41	0	199229440	60	5876
2026-01-22 17:56:57.25	20.06	9.46	-42.9	-44.2	20.6	0.00e+00	82	41	0	200278016	60	5843
2026-01-22 17:56:58.26	19.93	9.52	-42.9	-44.2	20.5	0.00e+00	0	41	0	202375168	60	5887
2026-01-22 17:56:59.27	19.80	9.58	-43.0	-44.3	20.4	0.00e+00	0	41	0	204472320	60	5929
2026-01-22 17:57:00.28	19.67	9.64	-43.0	-44.3	20.5	0.00e+00	2	41	0	206569472	60	5924
2026-01-22 17:57:01.29	19.54	9.70	-43.0	-44.3	20.4	0.00e+00	92	41	0	208666624	60	5918
2026-01-22 17:57:02.30	19.41	9.76	-42.7	-44.0	20.7	0.00e+00	0	41	0	210763776	58	6421
2026-01-22 17:57:03.31	19.28	9.82	-42.7	-43.9	20.7	0.00e+00	4	41	0	211812352	58	6365
2026-01-22 17:57:04.32	19.15	9.88	-42.6	-43.8	20.8	0.00e+00	0	41	0	213909504	58	6284
2026-01-22 17:57:05.33	19.02	9.94	-42.6	-43.8	20.8	0.00e+00	0	41	0	216006656	58	6298
2026-01-22 17:57:06.34	18.89	10.00	-42.6	-43.9	20.7	0.00e+00	0	41	0	218103808	58	6334
2026-01-22 17:57:07.35	18.75	10.06	-42.5	-43.7	20.8	0.00e+00	0	41	0	220200960	58	6233
2026-01-22 17:57:08.36	18.62	10.12	-42.7	-43.9	20.6	0.00e+00	92	41	0	221249536	58	6384
2026-01-22 17:57:09.37	18.49	10.18	-42.7	-43.9	20.7	0.00e+00	0	41	0	223346688	58	6377
2026-01-22 17:57:10.38	18.35	10.23	-42.5	-43.8	20.8	0.00e+00	92	41	0	225443840	58	6271
2026-01-22 17:57:11.39	18.22	10.29	-42.7	-44.0	20.7	0.00e+00	82	41	0	227540992	58	6394
2026-01-22 17:57:12.40	18.08	10.35	-42.8	-44.1	20.5	0.00e+00	81	41	0	229638144	58	6501
2026-01-22 17:57:13.40	17.95	10.41	-42.8	-44.1	20.5	0.00e+00	81	41	0	230686720	58	6507
2026-01-22 17:57:14.41	17.81	10.47	-42.8	-44.0	20.6	0.00e+00	0	41	0	232783872	58	6462
2026-01-22 17:57:15.42	17.67	10.53	-42.7	-44.0	20.6	0.00e+00	92	41	0	234881024	58	6403
2026-01-22 17:57:16.43	17.53	10.59	-42.8	-44.1	20.6	0.00e+00	0	41	0	236978176	58	6468
2026-01-22 17:57:17.44	17.40	10.65	-42.7	-43.9	20.8	0.00e+00	92	41	0	239075328	58	6372
2026-01-22 17:57:18.45	17.26	10.71	-42.6	-43.9	20.7	0.00e+00	0	41	0	240123904	58	6338
2026-01-22 17:57:19.46	17.12	10.77	-42.7	-44.0	20.6	0.00e+00	10	41	0	242221056	58	6427
2026-01-22 17:57:20.47	16.98	10.83	-42.9	-44.2	20.5	0.00e+00	0	41	0	244318208	58	6586
2026-01-22 17:57:21.48	16.84	10.88	-42.6	-43.8	20.9	0.00e+00	6	41	0	246415360	58	6290
2026-01-22 17:57:22.49	16.69	10.94	-42.6	-43.9	20.8	0.00e+00	0	41	0	248512512	58	6327
2026-01-22 17:57:23.50	16.55	11.00	-42.5	-43.8	20.8	0.00e+00	5	41	0	249561088	58	6273
2026-01-22 17:57:24.51	16.41	11.06	-42.5	-43.7	21.0	0.00e+00	92	41	0	251658240	58	6232
2026-01-22 17:57:25.52	16.27	11.12	-42.6	-43.9	20.8	0.00e+00	0	41	0	253755392	58	6339
2026-01-22 17:57:26.53	16.12	11.18	-42.7	-44.0	20.7	0.00e+00	0	41	0	255852544	58	6436
2026-01-22 17:57:27.54	15.98	11.24	-42.8	-44.1	20.6	0.00e+00	0	41	0	257949696	58	6515
2026-01-22 17:57:28.55	15.83	11.30	-42.7	-44.0	20.7	0.00e+00	0	41	0	258998272	58	6395
2026-01-22 17:57:29.56	15.69	11.36	-42.9	-44.2	20.6	0.00e+00	5	41	0	261095424	58	6568
2026-01-22 17:57:30.57	15.54	11.41	-42.5	-43.7	21.0	0.00e+00	0	41	0	263192576	58	6215
2026-01-22 17:57:31.58	15.40	11.47	-42.7	-43.9	20.8	0.00e+00	92	41	0	265289728	58	6357
2026-01-22 17:57:32.59	15.25	11.53	-42.6	-43.9	20.9	0.00e+00	86	41	0	267386880	58	6331
2026-01-22 17:57:33.59	15.10	11.59	-42.6	-43.8	20.8	0.00e+00	92	41	0	268435456	58	6315
2026-01-22 17:57:34.60	14.95	11.65	-42.5	-43.8	20.9	0.00e+00	87	41	0	270532608	58	6259
2026-01-22 17:57:35.61	14.80	11.71	-42.5	-43.7	21.0	0.00e+00	0	41	0	272629760	58	6184
2026-01-22 17:57:36.62	14.65	11.76	-42.5	-43.7	21.1	0.00e+00	85	41	0	274726912	58	6241
2026-01-22 17:57:37.63	14.50	11.82	-42.5	-43.7	21.0	0.00e+00	4	41	0	276824064	58	6231
2026-01-22 17:57:38.64	14.35	11.88	-42.5	-43.7	21.0	0.00e+00	95	41	0	278921216	58	6206
2026-01-22 17:57:39.65	14.20	11.94	-42.7	-44.0	20.7	0.00e+00	87	41	0	279969792	58	6441
2026-01-22 17:57:40.66	14.05	12.00	-42.6	-43.9	20.8	0.00e+00	92	41	0	282066944	58	6319
2026-01-22 17:57:41.67	13.90	12.06	-42.7	-44.0	20.7	0.00e+00	6	41	0	284164096	58	6443
2026-01-22 17:57:42.68	13.74	12.11	-42.8	-44.1	20.8	0.00e+00	57	41	0	286261248	58	6468
2026-01-22 17:57:43.69	13.59	12.17	-42.8	-44.1	20.6	0.00e+00	6	41	0	288358400	58	6511
2026-01-22 17:57:44.70	13.44	12.23	-43.0	-44.3	20.5	0.00e+00	3	41	0	289406976	58	6640
2026-01-22 17:57:45.71	13.28	12.29	-42.9	-44.1	20.6	0.00e+00	0	41	0	291504128	58	6536
2026-01-22 17:57:46.72	13.12	12.35	-42.8	-44.1	20.6	0.00e+00	6	41	0	293601280	58	6475
2026-01-22 17:57:47.73	12.97	12.40	-42.8	-44.1	20.6	0.00e+00	90	41	0	295698432	58	6506
2026-01-22 17:57:48.74	12.81	12.46	-42.8	-44.1	20.5	0.00e+00	6	41	0	297795584	58	6492
2026-01-22 17:57:49.75	12.65	12.52	-42.9	-44.1	20.6	0.00e+00	92	41	0	298844160	58	6535
2026-01-22 17:57:50.76	12.49	12.58	-42.6	-43.9	20.9	0.00e+00	7	41	0	300941312	58	6326
2026-01-22 17:57:51.77	12.34	12.63	-42.6	-43.8	20.9	0.00e+00	81	41	0	303038464	58	6301
2026-01-22 17:57:52.78	12.18	12.69	-42.6	-43.8	21.0	0.00e+00	0	41	0	305135616	58	6275
2026-01-22 17:57:53.79	12.02	12.75	-42.6	-43.8	20.9	0.00e+00	0	41	0	307232768	58	6301
2026-01-22 17:57:54.79	11.86	12.80	-42.7	-43.9	20.8	0.00e+00	92	41	0	308281344	58	6379
2026-01-22 17:57:55.80	11.69	12.86	-42.7	-43.9	20.9	0.00e+00	80	41	0	310378496	58	6356
2026-01-22 17:57:56.81	11.53	12.92	-42.8	-44.0	20.7	0.00e+00	92	41	0	312475648	58	6451
2026-01-22 17:57:57.82	11.37	12.97	-42.7	-44.0	20.8	0.00e+00	0	41	0	314572800	58	6401
2026-01-22 17:57:58.83	11.21	13.03	-42.7	-44.0	20.8	0.00e+00	82	41	0	316669952	58	6414
2026-01-22 17:57:59.84	11.04	13.09	-42.6	-43.9	20.9	0.00e+00	81	41	0	317718528	58	6323
2026-01-22 17:58:00.85	10.88	13.14	-42.5	-43.7	21.0	0.00e+00	80	41	0	319815680	58	6245
2026-01-22 17:58:01.86	10.71	13.20	-42.4	-43.7	21.1	0.00e+00	0	41	0	321912832	58	6188
2026-01-22 17:58:02.87	10.55	13.26	-42.5	-43.7	21.1	0.00e+00	2	41	0	324009984	58	6198
2026-01-22 17:58:03.88	10.38	13.31	-42.4	-43.6	21.1	0.00e+00	90	41	0	326107136	58	6161
2026-01-22 17:58:04.89	10.21	13.37	-42.4	-43.6	21.3	0.00e+00	0	41	0	327155712	58	6107
2026-01-22 17:58:05.90	10.04	13.43	-42.4	-43.6	21.2	0.00e+00	0	41	0	329252864	58	6129
2026-01-22 17:58:06.91	9.88	13.48	-42.1	-43.3	21.3	0.00e+00	0	41	0	331350016	58	5912
2026-01-22 17:58:07.91	9.71	13.54	-42.3	-43.5	21.3	0.00e+00	0	41	0	333447168	58	6075
2026-01-22 17:58:08.92	9.54	13.59	-42.3	-43.5	21.3	0.00e+00	0	41	0	335544320	58	6071
2026-01-22 17:58:09.94	9.37	13.65	-41.9	-43.0	21.7	0.00e+00	0	41	0	336592896	58	5742
2026-01-22 17:58:10.94	9.20	13.70	-42.0	-43.1	21.6	0.00e+00	92	41	0	338690048	58	5798
2026-01-22 17:58:11.95	9.02	13.76	-41.7	-42.8	21.8	0.00e+00	2	41	0	340787200	58	5614
2026-01-22 17:58:12.96	8.85	13.81	-41.6	-42.7	22.0	0.00e+00	92	41	0	342884352	56	6219
2026-01-22 17:58:13.98	8.68	13.87	-41.5	-42.6	22.2	0.00e+00	81	41	0	344981504	56	6146
2026-01-22 17:58:14.98	8.51	13.92	-41.6	-42.6	22.1	0.00e+00	0	41	0	347078656	56	6146
2026-01-22 17:58:16.00	8.33	13.98	-41.6	-42.7	21.9	0.00e+00	1	41	0	348127232	56	6232
2026-01-22 17:58:17.01	8.15	14.03	-41.8	-42.8	22.0	0.00e+00	0	41	0	350224384	56	6315
2026-01-22 17:58:18.02	7.98	14.09	-41.5	-42.5	22.2	0.00e+00	92	41	0	352321536	56	6100
2026-01-22 17:58:19.03	7.80	14.14	-41.4	-42.4	22.3	0.00e+00	3	41	0	354418688	56	6033
2026-01-22 17:58:20.03	7.63	14.20	-41.3	-42.4	22.3	0.00e+00	90	41	0	356515840	56	5965
2026-01-22 17:58:21.04	7.45	14.25	-41.2	-42.2	22.5	0.00e+00	81	41	0	357564416	56	5890
2026-01-22 17:58:22.06	7.27	14.30	-41.3	-42.3	22.5	0.00e+00	81	41	0	359661568	56	5940
2026-01-22 17:58:23.07	7.09	14.36	-41.2	-42.3	22.4	0.00e+00	1	41	0	361758720	56	5902
2026-01-22 17:58:24.07	6.91	14.41	-41.2	-42.2	22.6	0.00e+00	0	41	0	363855872	56	5847
2026-01-22 17:58:25.08	6.73	14.46	-41.1	-42.2	22.6	0.00e+00	92	41	0	365953024	56	5833
2026-01-22 17:58:26.09	6.55	14.52	-41.0	-41.9	22.8	0.00e+00	2	41	0	367001600	56	5693
2026-01-22 17:58:27.10	6.37	14.57	-41.1	-42.1	22.7	0.00e+00	92	41	0	369098752	56	5785
2026-01-22 17:58:28.11	6.19	14.62	-41.1	-42.1	22.7	0.00e+00	0	41	0	371195904	56	5772
2026-01-22 17:58:29.12	6.00	14.68	-40.9	-41.9	22.8	0.00e+00	69	41	0	373293056	56	5690
2026-01-22 17:58:30.13	5.82	14.73	-41.1	-42.1	22.8	0.00e+00	0	41	0	375390208	56	5784
2026-01-22 17:58:31.13	5.64	14.78	-40.9	-41.9	22.9	0.00e+00	2	41	0	376438784	56	5677
2026-01-22 17:58:32.14	5.45	14.83	-40.9	-41.9	22.9	0.00e+00	0	41	0	378535936	56	5643
2026-01-22 17:58:33.15	5.27	14.88	-40.9	-41.9	22.9	0.00e+00	0	41	0	380633088	56	5632
2026-01-22 17:58:34.16	5.08	14.93	-40.7	-41.7	23.0	0.00e+00	92	41	0	382730240	54	6191
2026-01-22 17:58:35.17	4.89	14.99	-40.5	-41.5	23.3	0.00e+00	0	41	0	384827392	54	6046
2026-01-22 17:58:36.18	4.71	15.04	-40.3	-41.2	23.4	0.00e+00	92	41	0	385875968	54	5842
2026-01-22 17:58:37.19	4.52	15.09	-40.3	-41.2	23.3	0.00e+00	81	41	0	387973120	54	5859
2026-01-22 17:58:38.20	4.33	15.14	-40.3	-41.2	22.7	0.00e+00	0	41	0	390070272	54	5888
2026-01-22 17:58:39.21	4.14	15.19	-40.3	-41.2	23.3	0.00e+00	1	41	0	392167424	54	5860
2026-01-22 17:58:40.22	3.95	15.24	-40.2	-41.1	23.5	0.00e+00	0	41	0	394264576	54	5807
2026-01-22 17:58:41.23	3.76	15.29	-40.2	-41.1	23.5	0.00e+00	92	41	0	395313152	54	5807
2026-01-22 17:58:42.24	3.57	15.34	-40.2	-41.2	23.5	0.00e+00	2	41	0	397410304	54	5857
2026-01-22 17:58:43.25	3.37	15.39	-40.1	-41.0	23.6	0.00e+00	0	41	0	399507456	54	5720
2026-01-22 17:58:44.26	3.18	15.44	-40.2	-41.1	23.5	0.00e+00	0	41	0	401604608	54	5791
2026-01-22 17:58:45.27	2.99	15.49	-40.1	-41.0	23.6	0.00e+00	0	41	0	403701760	54	5722
2026-01-22 17:58:46.28	2.79	15.54	-40.1	-41.0	23.6	0.00e+00	2	41	0	404750336	54	5743
2026-01-22 17:58:47.29	2.60	15.59	-40.1	-41.0	23.7	0.00e+00	0	41	0	406847488	54	5697
2026-01-22 17:58:48.30	2.40	15.64	-40.0	-40.9	23.6	0.00e+00	82	41	0	408944640	54	5679
2026-01-22 17:58:49.31	2.21	15.68	-40.1	-41.1	23.6	0.00e+00	0	41	0	411041792	54	5771
2026-01-22 17:58:50.32	2.01	15.73	-40.3	-41.2	23.4	0.00e+00	91	41	0	413138944	54	5853
2026-01-22 17:58:51.33	1.81	15.78	-40.1	-41.0	23.6	0.00e+00	0	41	0	415236096	54	5756
2026-01-22 17:58:52.34	1.62	15.83	-40.2	-41.1	23.4	0.00e+00	0	41	0	416284672	54	5823
2026-01-22 17:58:53.35	1.42	15.87	-40.3	-41.2	23.4	0.00e+00	0	41	0	418381824	54	5874
2026-01-22 17:58:54.36	1.22	15.92	-40.4	-41.3	23.4	0.00e+00	0	41	0	420478976	54	5946
2026-01-22 17:58:55.37	1.02	15.97	-40.5	-41.4	23.2	0.00e+00	0	41	0	422576128	54	6014
2026-01-22 17:58:56.38	0.82	16.02	-40.5	-41.4	23.3	0.00e+00	81	41	0	424673280	54	6013
2026-01-22 17:58:57.38	0.62	16.06	-40.5	-41.4	23.2	0.00e+00	90	41	0	425721856	54	6021
2026-01-22 17:58:58.39	0.42	16.11	-40.5	-41.5	23.2	0.00e+00	0	41	0	427819008	54	6042
2026-01-22 17:58:59.40	0.21	16.15	-40.5	-41.5	23.2	0.00e+00	0	41	0	429916160	54	6056
2026-01-22 17:59:00.41	0.01	16.20	-40.6	-41.5	23.1	0.00e+00	81	41	0	432013312	54	6069
2026-01-22 17:59:01.42	359.81	16.24	-40.6	-41.5	23.1	0.00e+00	0	41	0	434110464	54	6086
2026-01-22 17:59:02.43	359.60	16.29	-40.5	-41.5	23.2	0.00e+00	81	41	0	435159040	54	6062
2026-01-22 17:59:03.44	359.40	16.33	-40.6	-41.6	23.2	0.00e+00	0	41	0	437256192	54	6106
2026-01-22 17:59:04.45	359.19	16.38	-40.5	-41.4	23.3	0.00e+00	92	41	0	439353344	54	6007
2026-01-22 17:59:05.46	358.99	16.42	-40.4	-41.3	23.0	0.00e+00	5	41	0	441450496	54	5945
2026-01-22 17:59:06.47	358.78	16.46	-40.4	-41.4	23.2	0.00e+00	92	41	0	443547648	54	5974
2026-01-22 17:59:07.48	358.57	16.51	-40.2	-41.2	23.4	0.00e+00	5	41	0	444596224	54	5848
2026-01-22 17:59:08.49	358.37	16.55	-40.5	-41.5	23.2	0.00e+00	0	41	0	446693376	54	6036
2026-01-22 17:59:09.50	358.16	16.59	-40.4	-41.3	23.3	0.00e+00	0	41	0	448790528	54	5956
2026-01-22 17:59:10.51	357.95	16.64	-40.3	-41.2	23.4	0.00e+00	6	41	0	450887680	54	5888
2026-01-22 17:59:11.52	357.74	16.68	-40.1	-41.0	23.5	0.00e+00	92	41	0	452984832	54	5760
2026-01-22 17:59:12.53	357.53	16.72	-40.2	-41.1	23.5	0.00e+00	0	41	0	454033408	54	5778
2026-01-22 17:59:13.54	357.32	16.76	-39.9	-40.8	23.7	0.00e+00	92	41	0	456130560	54	5619
2026-01-22 17:59:14.55	357.11	16.80	-39.9	-40.8	23.7	0.00e+00	6	41	0	458227712	54	5576
2026-01-22 17:59:15.56	356.89	16.84	-39.9	-40.8	23.8	0.00e+00	6	41	0	460324864	54	5623
2026-01-22 17:59:16.57	356.68	16.88	-39.9	-40.7	23.8	0.00e+00	85	41	0	462422016	54	5557
2026-01-22 17:59:17.58	356.47	16.92	-39.8	-40.7	23.6	0.00e+00	0	41	0	463470592	52	6198
2026-01-22 17:59:18.58	356.26	16.96	-39.9	-40.8	23.0	0.00e+00	0	42	0	465567744	52	6276
2026-01-22 17:59:19.59	356.04	17.00	-39.7	-40.5	23.9	0.00e+00	0	41	0	467664896	52	6097
2026-01-22 17:59:20.60	355.83	17.04	-39.9	-40.8	23.7	0.00e+00	90	41	0	469762048	52	6260
2026-01-22 17:59:21.61	355.61	17.08	-39.8	-40.7	23.8	0.00e+00	4	41	0	471859200	52	6220
2026-01-22 17:59:22.62	355.40	17.12	-39.9	-40.8	23.8	0.00e+00	9	41	0	472907776	52	6255
2026-01-22 17:59:23.63	355.18	17.16	-39.9	-40.8	23.8	0.00e+00	1	41	0	475004928	52	6280
2026-01-22 17:59:24.64	354.96	17.20	-40.0	-40.9	23.7	0.00e+00	0	41	0	477102080	52	6352
2026-01-22 17:59:25.65	354.74	17.23	-39.9	-40.8	23.8	0.00e+00	86	41	0	479199232	52	6298
2026-01-22 17:59:26.66	354.53	17.27	-39.9	-40.8	23.8	0.00e+00	85	41	0	481296384	52	6254
2026-01-22 17:59:27.67	354.31	17.31	-39.9	-40.7	23.8	0.00e+00	92	41	0	483393536	52	6242
2026-01-22 17:59:28.68	354.09	17.34	-39.9	-40.8	23.8	0.00e+00	0	41	0	484442112	52	6264
2026-01-22 17:59:29.69	353.87	17.38	-39.9	-40.8	23.7	0.00e+00	92	41	0	486539264	52	6278
2026-01-22 17:59:30.70	353.65	17.41	-40.0	-40.9	23.6	0.00e+00	6	41	0	488636416	52	6353
2026-01-22 17:59:31.71	353.43	17.45	-40.0	-41.0	23.7	0.00e+00	6	41	0	490733568	52	6399
2026-01-22 17:59:32.72	353.20	17.48	-39.9	-40.9	23.7	0.00e+00	0	41	0	492830720	52	6329
2026-01-22 17:59:33.72	352.98	17.52	-39.8	-40.7	23.8	0.00e+00	7	41	0	493879296	52	6179
2026-01-22 17:59:34.73	352.76	17.55	-39.9	-40.8	23.9	0.00e+00	69	41	0	495976448	52	6274
2026-01-22 17:59:35.75	352.54	17.58	-39.6	-40.5	24.0	0.00e+00	5	41	0	498073600	52	6082
2026-01-22 17:59:36.75	352.32	17.62	-39.6	-40.5	24.0	0.00e+00	92	41	0	500170752	52	6083
2026-01-22 17:59:37.76	352.09	17.65	-39.8	-40.7	23.9	0.00e+00	81	41	0	502267904	52	6182
2026-01-22 17:59:38.78	351.87	17.68	-39.8	-40.7	23.9	0.00e+00	0	41	0	503316480	52	6215
2026-01-22 17:59:39.78	351.64	17.71	-39.8	-40.7	23.9	0.00e+00	81	41	0	505413632	52	6237
2026-01-22 17:59:40.79	351.42	17.75	-40.0	-40.9	23.6	0.00e+00	81	41	0	507510784	52	6352
2026-01-22 17:59:41.80	351.19	17.78	-39.8	-40.7	23.8	0.00e+00	0	41	0	509607936	52	6192
2026-01-22 17:59:42.81	350.97	17.81	-39.9	-40.8	23.6	0.00e+00	0	41	0	511705088	52	6270
2026-01-22 17:59:43.82	350.74	17.84	-40.0	-40.9	23.7	0.00e+00	92	41	0	512753664	52	6371
2026-01-22 17:59:44.83	350.51	17.87	-40.1	-41.0	23.6	0.00e+00	80	41	0	514850816	52	6412
2026-01-22 17:59:45.84	350.28	17.90	-40.2	-41.1	23.5	0.00e+00	85	41	0	516947968	52	6531
2026-01-22 17:59:46.85	350.06	17.93	-40.2	-41.1	23.6	0.00e+00	81	41	0	519045120	52	6487
2026-01-22 17:59:47.86	349.83	17.95	-39.9	-40.8	23.8	0.00e+00	81	41	0	521142272	52	6310
2026-01-22 17:59:48.87	349.60	17.98	-39.9	-40.8	23.9	0.00e+00	0	41	0	522190848	52	6256
2026-01-22 17:59:49.88	349.37	18.01	-39.7	-40.6	24.0	0.00e+00	0	41	0	524288000	52	6155
2026-01-22 17:59:50.89	349.14	18.04	-39.7	-40.6	24.0	0.00e+00	92	41	0	526385152	52	6150
2026-01-22 17:59:51.90	348.91	18.06	-40.0	-40.8	23.8	0.00e+00	0	41	0	528482304	52	6315
2026-01-22 17:59:52.91	348.68	18.09	-40.1	-41.0	23.7	0.00e+00	92	41	0	530579456	52	6423
2026-01-22 17:59:53.92	348.45	18.12	-40.2	-41.1	23.6	0.00e+00	0	41	0	531628032	52	6466
2026-01-22 17:59:54.93	348.22	18.14	-40.1	-41.0	23.7	0.00e+00	0	41	0	533725184	52	6460
2026-01-22 17:59:55.94	347.98	18.17	-40.1	-41.0	23.7	0.00e+00	0	41	0	535822336	52	6406
2026-01-22 17:59:56.95	347.75	18.19	-40.1	-41.0	23.6	0.00e+00	0	41	0	537919488	52	6403
2026-01-22 17:59:57.96	347.52	18.21	-40.1	-41.0	23.6	0.00e+00	31	41	0	540016640	52	6428
2026-01-22 17:59:58.97	347.29	18.24	-40.4	-41.3	23.4	0.00e+00	0	41	0	541065216	52	6645
2026-01-22 17:59:59.97	347.05	18.26	-40.6	-41.5	23.1	0.00e+00	92	41	0	543162368	52	6839
2026-01-22 18:00:00.98	346.82	18.28	-40.6	-41.5	23.1	0.00e+00	81	41	0	545259520	52	6845
2026-01-22 18:00:01.99	346.59	18.30	-40.7	-41.7	23.0	0.00e+00	79	41	0	547356672	54	6211
2026-01-22 18:00:03.00	346.35	18.33	-40.8	-41.8	22.9	0.00e+00	0	41	0	549453824	54	6250
2026-01-22 18:00:04.01	346.12	18.35	-40.8	-41.7	22.9	0.00e+00	0	41	0	550502400	54	6245
2026-01-22 18:00:05.02	345.88	18.37	-40.8	-41.7	22.9	0.00e+00	0	41	0	552599552	54	6232
2026-01-22 18:00:06.03	345.65	18.39	-40.7	-41.7	23.0	0.00e+00	81	41	0	554696704	54	6175
2026-01-22 18:00:07.04	345.41	18.41	-40.7	-41.7	23.0	0.00e+00	92	41	0	556793856	54	6205
2026-01-22 18:00:08.05	345.18	18.43	-40.8	-41.7	23.0	0.00e+00	82	42	0	558891008	54	6235
2026-01-22 18:00:09.06	344.94	18.44	-40.8	-41.8	23.0	0.00e+00	92	42	0	559939584	54	6269
2026-01-22 18:00:10.07	344.70	18.46	-40.8	-41.8	22.9	0.00e+00	0	41	0	562036736	54	6281
2026-01-22 18:00:11.08	344.47	18.48	-41.0	-42.0	22.7	0.00e+00	0	41	0	564133888	54	6452
2026-01-22 18:00:12.08	344.23	18.50	-40.8	-41.7	22.9	0.00e+00	0	41	0	566231040	54	6243
2026-01-22 18:00:13.10	343.99	18.51	-40.8	-41.7	23.0	0.00e+00	0	41	0	568328192	54	6216
2026-01-22 18:00:14.10	343.76	18.53	-40.8	-41.7	22.9	0.00e+00	92	41	0	569376768	54	6243
2026-01-22 18:00:15.11	343.52	18.55	-40.8	-41.8	23.0	0.00e+00	0	41	0	571473920	54	6266
2026-01-22 18:00:16.12	343.28	18.56	-40.9	-41.8	22.8	0.00e+00	92	41	0	573571072	54	6298
2026-01-22 18:00:17.13	343.04	18.58	-41.1	-42.1	22.6	0.00e+00	2	42	0	575668224	54	6466
2026-01-22 18:00:18.14	342.80	18.59	-41.3	-42.3	22.4	0.00e+00	0	42	0	577765376	54	6661
2026-01-22 18:00:19.15	342.56	18.60	-41.5	-42.6	22.3	0.00e+00	0	42	0	579862528	54	6865
2026-01-22 18:00:20.16	342.32	18.62	-41.4	-42.4	22.4	0.00e+00	0	42	0	580911104	54	6731
2026-01-22 18:00:21.17	342.09	18.63	-41.3	-42.4	22.4	0.00e+00	91	41	0	583008256	54	6703
2026-01-22 18:00:22.18	341.85	18.64	-41.3	-42.3	22.5	0.00e+00	79	42	0	585105408	54	6666
2026-01-22 18:00:23.19	341.61	18.65	-41.3	-42.4	22.4	0.00e+00	92	41	0	587202560	54	6714
2026-01-22 18:00:24.20	341.37	18.66	-41.4	-42.4	22.4	0.00e+00	1	41	0	589299712	54	6728
2026-01-22 18:00:25.21	341.13	18.67	-41.4	-42.4	22.4	0.00e+00	12	42	0	590348288	54	6721
2026-01-22 18:00:26.22	340.89	18.68	-41.3	-42.4	22.3	0.00e+00	0	42	0	592445440	54	6711
2026-01-22 18:00:27.23	340.65	18.69	-41.3	-42.4	22.5	0.00e+00	0	41	0	594542592	54	6702
2026-01-22 18:00:28.24	340.41	18.70	-41.1	-42.1	22.6	0.00e+00	72	41	0	596639744	54	6510
2026-01-22 18:00:29.25	340.17	18.71	-41.2	-42.3	22.6	0.00e+00	0	41	0	598736896	54	6623
2026-01-22 18:00:30.25	339.93	18.72	-41.2	-42.2	22.5	0.00e+00	90	41	0	599785472	54	6603
2026-01-22 18:00:31.27	339.68	18.73	-41.0	-42.0	22.7	0.00e+00	2	41	0	601882624	54	6441
2026-01-22 18:00:32.27	339.44	18.73	-41.0	-42.1	22.7	0.00e+00	78	41	0	603979776	54	6491
2026-01-22 18:00:33.29	339.20	18.74	-41.0	-42.0	22.7	0.00e+00	2	41	0	606076928	54	6460
2026-01-22 18:00:34.29	338.96	18.75	-41.2	-42.2	22.6	0.00e+00	0	42	0	608174080	54	6600
2026-01-22 18:00:35.30	338.72	18.75	-41.2	-42.2	22.6	0.00e+00	0	41	0	609222656	54	6598
2026-01-22 18:00:36.31	338.48	18.76	-41.3	-42.4	22.4	0.00e+00	0	41	0	611319808	54	6703
2026-01-22 18:00:37.32	338.24	18.76	-41.2	-42.2	22.5	0.00e+00	92	41	0	613416960	54	6600
2026-01-22 18:00:38.33	338.00	18.76	-41.2	-42.3	22.5	0.00e+00	0	42	0	615514112	54	6622
2026-01-22 18:00:39.34	337.76	18.77	-41.1	-42.2	22.3	0.00e+00	92	41	0	617611264	54	6581
2026-01-22 18:00:40.35	337.51	18.77	-41.3	-42.3	22.5	0.00e+00	0	42	0	618659840	54	6682
2026-01-22 18:00:41.36	337.27	18.77	-41.0	-42.0	22.7	0.00e+00	0	42	0	620756992	54	6448
2026-01-22 18:00:42.37	337.03	18.77	-40.9	-42.0	22.7	0.00e+00	2	42	0	622854144	54	6391
2026-01-22 18:00:43.38	336.79	18.78	-41.0	-42.0	22.6	0.00e+00	0	41	0	624951296	54	6457
2026-01-22 18:00:44.39	336.55	18.78	-41.1	-42.1	22.6	0.00e+00	91	41	0	627048448	54	6531
2026-01-22 18:00:45.40	336.31	18.78	-41.2	-42.2	22.5	0.00e+00	0	41	0	628097024	54	6591
2026-01-22 18:00:46.41	336.06	18.78	-41.4	-42.5	22.4	0.00e+00	92	41	0	630194176	54	6776
2026-01-22 18:00:47.41	335.82	18.77	-41.5	-42.6	22.1	0.00e+00	81	41	0	632291328	54	6857
2026-01-22 18:00:48.42	335.58	18.77	-41.5	-42.5	22.0	0.00e+00	92	41	0	634388480	54	6839
2026-01-22 18:00:49.43	335.34	18.77	-41.3	-42.4	22.4	0.00e+00	0	41	0	636485632	54	6725
2026-01-22 18:00:50.44	335.10	18.77	-41.2	-42.2	22.4	0.00e+00	0	41	0	637534208	54	6582
2026-01-22 18:00:51.45	334.86	18.76	-41.3	-42.3	22.5	0.00e+00	0	42	0	639631360	54	6678
2026-01-22 18:00:52.46	334.62	18.76	-40.8	-41.8	23.0	0.00e+00	6	42	0	641728512	54	6247
2026-01-22 18:00:53.47	334.37	18.76	-40.8	-41.8	23.0	0.00e+00	90	42	0	643825664	54	6251
2026-01-22 18:00:54.48	334.13	18.75	-40.7	-41.7	23.0	0.00e+00	0	42	0	645922816	54	6211
2026-01-22 18:00:55.49	333.89	18.75	-40.8	-41.8	22.9	0.00e+00	90	42	0	648019968	54	6279
2026-01-22 18:00:56.50	333.65	18.74	-40.9	-41.9	23.0	0.00e+00	7	41	0	649068544	54	6347
2026-01-22 18:00:57.51	333.41	18.73	-40.8	-41.8	23.1	0.00e+00	0	41	0	651165696	54	6249
2026-01-22 18:00:58.52	333.17	18.73	-40.8	-41.8	23.0	0.00e+00	5	41	0	653262848	54	6293
2026-01-22 18:00:59.53	332.93	18.72	-40.7	-41.7	23.1	0.00e+00	5	42	0	655360000	54	6213
2026-01-22 18:01:00.54	332.69	18.71	-40.8	-41.7	23.0	0.00e+00	92	41	0	657457152	54	6225
2026-01-22 18:01:01.55	332.45	18.70	-40.9	-41.8	23.0	0.00e+00	6	41	0	658505728	54	6314
2026-01-22 18:01:02.55	332.21	18.70	-40.6	-41.5	23.2	0.00e+00	92	41	0	660602880	54	6077
2026-01-22 18:01:03.56	331.97	18.69	-40.6	-41.6	23.2	0.00e+00	88	41	0	662700032	54	6117
2026-01-22 18:01:04.57	331.73	18.68	-40.5	-41.4	23.4	0.00e+00	86	42	0	664797184	54	6013
2026-01-22 18:01:05.58	331.49	18.67	-40.5	-41.5	23.3	0.00e+00	6	41	0	666894336	54	6042
2026-01-22 18:01:06.59	331.25	18.65	-40.5	-41.4	23.4	0.00e+00	86	41	0	667942912	54	6032
2026-01-22 18:01:07.60	331.01	18.64	-40.4	-41.4	23.4	0.00e+00	0	42	0	670040064	54	5968
2026-01-22 18:01:08.61	330.77	18.63	-40.5	-41.5	23.3	0.00e+00	0	41	0	672137216	54	6048
2026-01-22 18:01:09.62	330.53	18.62	-40.4	-41.4	23.4	0.00e+00	88	41	0	674234368	54	5973
2026-01-22 18:01:10.63	330.29	18.61	-40.3	-41.2	23.5	0.00e+00	88	41	0	676331520	54	5895
2026-01-22 18:01:11.63	330.05	18.59	-40.3	-41.2	23.6	0.00e+00	71	41	0	677380096	54	5860
2026-01-22 18:01:12.64	329.81	18.58	-40.1	-41.0	23.7	0.00e+00	85	42	0	679477248	54	5731
2026-01-22 18:01:13.65	329.58	18.56	-40.1	-41.0	23.8	0.00e+00	0	42	0	681574400	54	5723
2026-01-22 18:01:14.66	329.34	18.55	-40.1	-41.0	23.7	0.00e+00	0	42	0	683671552	54	5721
2026-01-22 18:01:15.67	329.10	18.53	-39.9	-40.8	24.0	0.00e+00	2	42	0	685768704	54	5567
2026-01-22 18:01:16.68	328.86	18.52	-39.8	-40.7	23.9	0.00e+00	92	41	0	686817280	54	5535
2026-01-22 18:01:17.69	328.62	18.50	-39.9	-40.8	23.9	0.00e+00	6	41	0	688914432	54	5607
2026-01-22 18:01:18.70	328.39	18.48	-39.9	-40.7	23.9	0.00e+00	92	42	0	691011584	54	5556
2026-01-22 18:01:19.71	328.15	18.47	-39.9	-40.8	23.9	0.00e+00	0	42	0	693108736	54	5583
2026-01-22 18:01:20.72	327.91	18.45	-40.0	-40.8	23.9	0.00e+00	6	42	0	695205888	54	5620
2026-01-22 18:01:21.73	327.68	18.43	-39.9	-40.7	24.0	0.00e+00	7	42	0	696254464	54	5559
2026-01-22 18:01:22.74	327.44	18.41	-39.9	-40.8	23.9	0.00e+00	6	42	0	698351616	54	5611
2026-01-22 18:01:23.75	327.20	18.39	-39.8	-40.6	24.1	0.00e+00	92	41	0	700448768	52	6157
2026-01-22 18:01:24.76	326.97	18.37	-39.8	-40.7	24.0	0.00e+00	0	42	0	702545920	52	6176
2026-01-22 18:01:25.77	326.73	18.35	-39.7	-40.5	24.0	0.00e+00	92	42	0	704643072	52	6100
2026-01-22 18:01:26.77	326.50	18.33	-39.7	-40.5	24.2	0.00e+00	0	42	0	705691648	52	6085
2026-01-22 18:01:27.78	326.27	18.31	-39.4	-40.3	24.4	0.00e+00	5	41	0	707788800	52	5897
2026-01-22 18:01:28.79	326.03	18.29	-39.5	-40.3	24.4	0.00e+00	81	42	0	709885952	52	5925
2026-01-22 18:01:29.80	325.80	18.26	-39.5	-40.3	24.3	0.00e+00	0	42	0	711983104	52	5955
2026-01-22 18:01:30.81	325.56	18.24	-39.6	-40.5	24.2	0.00e+00	0	42	0	714080256	52	6072
2026-01-22 18:01:31.82	325.33	18.22	-39.8	-40.6	23.9	0.00e+00	81	42	0	716177408	52	6151
2026-01-22 18:01:32.83	325.10	18.19	-39.9	-40.8	23.9	0.00e+00	92	42	0	717225984	52	6260
2026-01-22 18:01:33.84	324.87	18.17	-39.8	-40.7	23.9	0.00e+00	81	42	0	719323136	52	6203
2026-01-22 18:01:34.85	324.63	18.14	-39.9	-40.8	24.0	0.00e+00	92	41	0	721420288	52	6292
2026-01-22 18:01:35.86	324.40	18.12	-40.0	-40.9	23.8	0.00e+00	0	42	0	723517440	52	6333
2026-01-22 18:01:36.87	324.17	18.09	-40.0	-40.9	23.8	0.00e+00	0	42	0	725614592	52	6365
2026-01-22 18:01:37.87	323.94	18.07	-40.1	-40.9	23.8	0.00e+00	0	42	0	726663168	52	6381
2026-01-22 18:01:38.88	323.71	18.04	-40.2	-41.1	23.7	0.00e+00	0	42	0	728760320	52	6525
2026-01-22 18:01:39.89	323.48	18.01	-40.1	-41.0	23.7	0.00e+00	92	42	0	730857472	52	6429
2026-01-22 18:01:40.90	323.25	17.99	-40.3	-41.2	23.6	0.00e+00	2	42	0	732954624	52	6581
2026-01-22 18:01:41.91	323.02	17.96	-40.3	-41.3	23.5	0.00e+00	92	42	0	735051776	52	6620
2026-01-22 18:01:42.92	322.79	17.93	-40.5	-41.4	23.4	0.00e+00	0	42	0	736100352	52	6760
2026-01-22 18:01:43.93	322.57	17.90	-40.4	-41.3	23.5	0.00e+00	0	42	0	738197504	52	6663
2026-01-22 18:01:44.94	322.34	17.87	-40.5	-41.4	23.4	0.00e+00	0	42	0	740294656	52	6745
2026-01-22 18:01:45.95	322.11	17.84	-40.4	-41.3	23.5	0.00e+00	0	42	0	742391808	52	6669
2026-01-22 18:01:46.96	321.88	17.81	-40.4	-41.3	23.4	0.00e+00	0	42	0	744488960	52	6687
2026-01-22 18:01:47.97	321.66	17.78	-40.4	-41.3	23.5	0.00e+00	0	42	0	745537536	52	6682
2026-01-22 18:01:48.97	321.43	17.75	-40.5	-41.4	23.4	0.00e+00	92	42	0	747634688	52	6754
2026-01-22 18:01:49.98	321.21	17.72	-40.7	-41.6	23.2	0.00e+00	82	42	0	749731840	52	6912
2026-01-22 18:01:50.99	320.98	17.69	-40.8	-41.8	23.2	0.00e+00	83	42	0	751828992	54	6248
2026-01-22 18:01:52.00	320.76	17.65	-41.0	-41.9	22.9	0.00e+00	0	41	0	753926144	54	6389
2026-01-22 18:01:53.01	320.53	17.62	-41.0	-42.0	22.9	0.00e+00	0	42	0	754974720	54	6456
2026-01-22 18:01:54.01	320.31	17.59	-41.0	-42.0	22.8	0.00e+00	72	42	0	757071872	54	6441
2026-01-22 18:01:55.02	320.09	17.56	-41.1	-42.1	22.7	0.00e+00	3	42	0	759169024	54	6496
2026-01-22 18:01:56.03	319.87	17.52	-41.0	-41.9	22.8	0.00e+00	92	42	0	761266176	54	6378
2026-01-22 18:01:57.04	319.64	17.49	-41.0	-42.0	22.8	0.00e+00	81	42	0	763363328	54	6446
2026-01-22 18:01:58.05	319.42	17.45	-41.2	-42.3	22.6	0.00e+00	92	42	0	764411904	54	6621
2026-01-22 18:01:59.06	319.20	17.42	-41.4	-42.4	22.5	0.00e+00	0	42	0	766509056	54	6750
2026-01-22 18:02:00.07	318.98	17.38	-41.3	-42.3	22.6	0.00e+00	0	42	0	768606208	54	6657
2026-01-22 18:02:01.08	318.76	17.35	-41.3	-42.3	22.5	0.00e+00	0	42	0	770703360	54	6686
2026-01-22 18:02:02.09	318.54	17.31	-41.3	-42.4	22.6	0.00e+00	0	42	0	772800512	54	6693
2026-01-22 18:02:03.09	318.32	17.27	-41.2	-42.2	22.6	0.00e+00	91	42	0	773849088	54	6592
2026-01-22 18:02:04.10	318.10	17.24	-41.2	-42.2	22.8	0.00e+00	2	42	0	775946240	54	6583
2026-01-22 18:02:05.11	317.89	17.20	-41.0	-42.0	22.8	0.00e+00	90	42	0	778043392	54	6438
2026-01-22 18:02:06.12	317.67	17.16	-40.9	-41.9	23.0	0.00e+00	0	42	0	780140544	54	6328
2026-01-22 18:02:07.13	317.45	17.12	-41.1	-42.0	22.9	0.00e+00	0	42	0	782237696	54	6456
2026-01-22 18:02:08.14	317.23	17.09	-41.0	-42.0	22.8	0.00e+00	0	42	0	783286272	54	6396
2026-01-22 18:02:09.15	317.02	17.05	-40.8	-41.8	23.0	0.00e+00	2	42	0	785383424	54	6279
2026-01-22 18:02:10.16	316.80	17.01	-40.7	-41.6	23.1	0.00e+00	0	42	0	787480576	54	6168
2026-01-22 18:02:11.17	316.59	16.97	-40.7	-41.6	23.2	0.00e+00	0	42	0	789577728	54	6158
2026-01-22 18:02:12.18	316.37	16.93	-40.8	-41.7	23.1	0.00e+00	92	42	0	791674880	54	6207
2026-01-22 18:02:13.18	316.16	16.89	-40.8	-41.8	23.0	0.00e+00	82	42	0	792723456	54	6258
2026-01-22 18:02:14.19	315.95	16.85	-40.9	-41.8	23.1	0.00e+00	92	42	0	794820608	54	6294
2026-01-22 18:02:15.20	315.74	16.81	-40.9	-41.8	23.0	0.00e+00	82	42	0	796917760	54	6312
2026-01-22 18:02:16.21	315.53	16.77	-40.8	-41.8	23.0	0.00e+00	0	42	0	799014912	54	6263
2026-01-22 18:02:17.22	315.31	16.73	-40.7	-41.7	23.1	0.00e+00	0	42	0	801112064	54	6181
2026-01-22 18:02:18.23	315.10	16.68	-40.7	-41.6	23.1	0.00e+00	0	42	0	802160640	54	6170
2026-01-22 18:02:19.24	314.89	16.64	-40.7	-41.7	23.1	0.00e+00	90	42	0	804257792	54	6195
2026-01-22 18:02:20.25	314.68	16.60	-40.9	-41.8	22.9	0.00e+00	0	42	0	806354944	54	6305
2026-01-22 18:02:21.26	314.48	16.56	-40.8	-41.7	23.1	0.00e+00	90	42	0	808452096	54	6224
2026-01-22 18:02:22.27	314.27	16.51	-40.8	-41.7	22.9	0.00e+00	0	42	0	810549248	54	6232
2026-01-22 18:02:23.28	314.06	16.47	-40.8	-41.8	23.0	0.00e+00	0	42	0	812646400	54	6253
2026-01-22 18:02:24.29	313.85	16.43	-40.7	-41.7	23.2	0.00e+00	0	42	0	813694976	54	6193
2026-01-22 18:02:25.29	313.65	16.38	-40.7	-41.7	23.2	0.00e+00	2	42	0	815792128	54	6178
2026-01-22 18:02:26.30	313.44	16.34	-40.7	-41.6	23.1	0.00e+00	61	41	0	817889280	54	6158
2026-01-22 18:02:27.31	313.24	16.29	-40.9	-41.9	22.9	0.00e+00	0	42	0	819986432	54	6359
2026-01-22 18:02:28.32	313.03	16.25	-41.0	-42.0	22.8	0.00e+00	92	41	0	822083584	54	6405
2026-01-22 18:02:29.33	312.83	16.20	-41.1	-42.1	22.8	0.00e+00	0	41	0	823132160	54	6468
2026-01-22 18:02:30.34	312.63	16.16	-41.1	-42.1	22.6	0.00e+00	0	41	0	825229312	54	6500
2026-01-22 18:02:31.35	312.42	16.11	-41.3	-42.3	22.5	0.00e+00	2	42	0	827326464	54	6656
2026-01-22 18:02:32.36	312.22	16.07	-41.2	-42.2	22.6	0.00e+00	0	41	0	829423616	54	6577
2026-01-22 18:02:33.37	312.02	16.02	-41.3	-42.3	22.5	0.00e+00	0	41	0	831520768	54	6634
2026-01-22 18:02:34.38	311.82	15.97	-41.3	-42.3	22.5	0.00e+00	0	41	0	832569344	54	6690
2026-01-22 18:02:35.39	311.62	15.93	-41.2	-42.3	22.6	0.00e+00	92	41	0	834666496	54	6616
2026-01-22 18:02:36.40	311.42	15.88	-41.2	-42.2	22.6	0.00e+00	0	41	0	836763648	54	6591
2026-01-22 18:02:37.41	311.22	15.83	-41.1	-42.1	22.7	0.00e+00	92	41	0	838860800	54	6519
2026-01-22 18:02:38.42	311.02	15.78	-41.1	-42.1	22.7	0.00e+00	81	41	0	840957952	54	6518
2026-01-22 18:02:39.43	310.82	15.74	-41.3	-42.3	22.5	0.00e+00	81	41	0	842006528	54	6640
2026-01-22 18:02:40.44	310.63	15.69	-41.4	-42.5	22.4	0.00e+00	13	41	0	844103680	54	6772
2026-01-22 18:02:41.45	310.43	15.64	-41.5	-42.6	22.3	0.00e+00	0	42	0	846200832	54	6874
2026-01-22 18:02:42.45	310.24	15.59	-41.6	-42.6	22.2	0.00e+00	90	41	0	848297984	54	6892
2026-01-22 18:02:43.46	310.04	15.54	-41.7	-42.8	22.1	0.00e+00	0	41	0	850395136	54	7063
2026-01-22 18:02:44.47	309.85	15.49	-41.9	-42.9	22.1	0.00e+00	89	42	0	851443712	56	6370
2026-01-22 18:02:45.48	309.65	15.45	-41.7	-42.7	22.2	0.00e+00	0	41	0	853540864	56	6237
2026-01-22 18:02:46.49	309.46	15.40	-41.5	-42.6	22.4	0.00e+00	6	41	0	855638016	56	6104
2026-01-22 18:02:47.50	309.27	15.35	-41.6	-42.7	22.5	0.00e+00	0	41	0	857735168	56	6193
2026-01-22 18:02:48.51	309.07	15.30	-41.6	-42.7	22.3	0.00e+00	0	41	0	859832320	56	6191
2026-01-22 18:02:49.52	308.88	15.25	-41.5	-42.6	22.3	0.00e+00	90	41	0	860880896	56	6111
2026-01-22 18:02:50.53	308.69	15.20	-41.5	-42.6	22.4	0.00e+00	9	41	0	862978048	56	6112
2026-01-22 18:02:51.54	308.50	15.14	-41.6	-42.6	22.4	0.00e+00	92	42	0	865075200	56	6149
2026-01-22 18:02:52.55	308.31	15.09	-41.7	-42.7	22.2	0.00e+00	5	41	0	867172352	56	6217
2026-01-22 18:02:53.56	308.12	15.04	-41.7	-42.8	22.2	0.00e+00	72	41	0	869269504	56	6248
2026-01-22 18:02:54.57	307.94	14.99	-41.7	-42.8	22.2	0.00e+00	0	41	0	870318080	56	6286
2026-01-22 18:02:55.58	307.75	14.94	-41.8	-42.9	22.0	0.00e+00	84	41	0	872415232	56	6364
2026-01-22 18:02:56.59	307.56	14.89	-41.9	-43.0	21.9	0.00e+00	88	41	0	874512384	56	6423
2026-01-22 18:02:57.60	307.38	14.84	-41.9	-43.0	22.0	0.00e+00	0	42	0	876609536	56	6453
2026-01-22 18:02:58.60	307.19	14.78	-42.0	-43.1	21.8	0.00e+00	90	41	0	878706688	56	6511
2026-01-22 18:02:59.61	307.01	14.73	-42.0	-43.1	21.8	0.00e+00	86	41	0	880803840	56	6480
2026-01-22 18:03:00.62	306.82	14.68	-42.1	-43.2	21.6	0.00e+00	92	41	0	881852416	56	6590
2026-01-22 18:03:01.63	306.64	14.63	-42.0	-43.1	21.8	0.00e+00	0	41	0	883949568	56	6534
2026-01-22 18:03:02.64	306.46	14.57	-42.2	-43.3	21.7	0.00e+00	0	41	0	886046720	56	6653
2026-01-22 18:03:03.65	306.28	14.52	-42.2	-43.3	21.6	0.00e+00	85	41	0	888143872	56	6664
2026-01-22 18:03:04.66	306.09	14.47	-42.1	-43.2	21.6	0.00e+00	0	41	0	889192448	56	6605
2026-01-22 18:03:05.67	305.91	14.42	-42.2	-43.3	21.7	0.00e+00	92	41	0	891289600	56	6638
2026-01-22 18:03:06.68	305.73	14.36	-42.0	-43.1	21.9	0.00e+00	6	41	0	893386752	56	6526
2026-01-22 18:03:07.69	305.55	14.31	-41.9	-43.0	22.0	0.00e+00	92	41	0	895483904	56	6409
2026-01-22 18:03:08.70	305.37	14.25	-41.9	-43.0	22.0	0.00e+00	6	41	0	897581056	56	6408
2026-01-22 18:03:09.71	305.20	14.20	-41.8	-42.9	22.1	0.00e+00	7	41	0	898629632	56	6360
2026-01-22 18:03:10.72	305.02	14.15	-41.8	-42.9	22.1	0.00e+00	5	41	0	900726784	56	6358
2026-01-22 18:03:11.72	304.84	14.09	-42.0	-43.1	21.8	0.00e+00	0	41	0	902823936	56	6492
2026-01-22 18:03:12.73	304.67	14.04	-42.2	-43.3	21.7	0.00e+00	92	41	0	904921088	56	6636
2026-01-22 18:03:13.75	304.49	13.98	-42.4	-43.6	21.4	0.00e+00	0	41	0	907018240	56	6889
2026-01-22 18:03:14.76	304.32	13.93	-42.6	-43.8	21.0	0.00e+00	92	41	0	909115392	56	7084
2026-01-22 18:03:15.76	304.14	13.87	-42.6	-43.9	21.1	0.00e+00	0	41	0	910163968	58	6318
2026-01-22 18:03:16.77	303.97	13.82	-42.7	-43.9	21.1	0.00e+00	81	41	0	912261120	58	6348
2026-01-22 18:03:17.78	303.80	13.76	-42.6	-43.8	21.1	0.00e+00	81	41	0	914358272	58	6314
2026-01-22 18:03:18.79	303.62	13.71	-42.6	-43.8	21.2	0.00e+00	0	41	0	916455424	58	6311
2026-01-22 18:03:19.80	303.45	13.65	-42.6	-43.8	21.1	0.00e+00	0	41	0	918552576	58	6311
2026-01-22 18:03:20.81	303.28	13.60	-42.6	-43.8	21.2	0.00e+00	0	41	0	919601152	58	6251
2026-01-22 18:03:21.81	303.11	13.54	-42.7	-43.9	21.0	0.00e+00	92	41	0	921698304	58	6358
2026-01-22 18:03:22.82	302.94	13.49	-42.6	-43.8	21.1	0.00e+00	0	41	0	923795456	58	6299
2026-01-22 18:03:23.83	302.77	13.43	-42.7	-43.9	21.1	0.00e+00	92	41	0	925892608	58	6336
2026-01-22 18:03:24.84	302.61	13.37	-42.7	-43.9	21.0	0.00e+00	0	41	0	927989760	58	6333
2026-01-22 18:03:25.85	302.44	13.32	-42.7	-44.0	21.0	0.00e+00	0	41	0	929038336	58	6405
2026-01-22 18:03:26.86	302.27	13.26	-42.7	-43.9	21.1	0.00e+00	83	41	0	931135488	58	6331
2026-01-22 18:03:27.87	302.10	13.21	-42.6	-43.9	21.1	0.00e+00	0	41	0	933232640	58	6319
2026-01-22 18:03:28.88	301.94	13.15	-42.6	-43.8	21.2	0.00e+00	92	41	0	935329792	58	6262
2026-01-22 18:03:29.89	301.77	13.09	-42.5	-43.7	21.2	0.00e+00	0	41	0	937426944	58	6223
2026-01-22 18:03:30.90	301.61	13.04	-42.6	-43.8	21.1	0.00e+00	92	41	0	938475520	58	6264
2026-01-22 18:03:31.91	301.44	12.98	-42.6	-43.7	21.2	0.00e+00	0	41	0	940572672	58	6243
2026-01-22 18:03:32.92	301.28	12.92	-42.5	-43.7	21.2	0.00e+00	0	41	0	942669824	58	6224
2026-01-22 18:03:33.93	301.12	12.87	-42.4	-43.6	21.3	0.00e+00	0	41	0	944766976	58	6117
2026-01-22 18:03:34.94	300.96	12.81	-42.5	-43.7	21.2	0.00e+00	2	41	0	946864128	58	6205
2026-01-22 18:03:35.95	300.80	12.75	-42.5	-43.7	21.2	0.00e+00	92	41	0	947912704	58	6174
2026-01-22 18:03:36.95	300.64	12.69	-42.5	-43.7	21.2	0.00e+00	0	41	0	950009856	58	6216
2026-01-22 18:03:37.96	300.48	12.64	-42.6	-43.8	21.1	0.00e+00	92	41	0	952107008	58	6310
2026-01-22 18:03:38.97	300.32	12.58	-42.7	-43.9	21.1	0.00e+00	4	41	0	954204160	58	6346
2026-01-22 18:03:39.98	300.16	12.52	-42.6	-43.8	21.1	0.00e+00	82	41	0	956301312	58	6280
2026-01-22 18:03:40.99	300.00	12.46	-42.6	-43.8	21.1	0.00e+00	81	41	0	957349888	58	6301
2026-01-22 18:03:42.00	299.84	12.41	-42.4	-43.6	21.2	0.00e+00	0	41	0	959447040	58	6159
2026-01-22 18:03:43.01	299.69	12.35	-42.3	-43.5	21.4	0.00e+00	0	41	0	961544192	58	6083
2026-01-22 18:03:44.02	299.53	12.29	-42.3	-43.4	21.5	0.00e+00	82	41	0	963641344	58	6015
2026-01-22 18:03:45.03	299.37	12.23	-42.3	-43.4	21.4	0.00e+00	92	41	0	965738496	58	6009
2026-01-22 18:03:46.04	299.22	12.18	-42.2	-43.4	21.4	0.00e+00	82	41	0	966787072	58	5988
2026-01-22 18:03:47.05	299.06	12.12	-42.1	-43.2	21.6	0.00e+00	90	41	0	968884224	58	5871
2026-01-22 18:03:48.06	298.91	12.06	-42.1	-43.3	21.6	0.00e+00	81	41	0	970981376	58	5901
2026-01-22 18:03:49.07	298.76	12.00	-42.1	-43.2	21.6	0.00e+00	0	41	0	973078528	58	5893
2026-01-22 18:03:50.08	298.60	11.94	-41.9	-43.0	21.8	0.00e+00	0	41	0	975175680	58	5751
2026-01-22 18:03:51.08	298.45	11.89	-42.0	-43.1	21.7	0.00e+00	0	41	0	977272832	58	5784
2026-01-22 18:03:52.09	298.30	11.83	-41.8	-42.9	21.9	0.00e+00	92	41	0	978321408	58	5670
2026-01-22 18:03:53.10	298.15	11.77	-41.9	-42.9	21.8	0.00e+00	2	41	0	980418560	56	6387
2026-01-22 18:03:54.11	298.00	11.71	-41.8	-42.9	22.0	0.00e+00	90	41	0	982515712	56	6362
2026-01-22 18:03:55.12	297.85	11.65	-41.8	-42.9	21.9	0.00e+00	0	41	0	984612864	56	6350
2026-01-22 18:03:56.13	297.70	11.59	-41.8	-42.9	22.0	0.00e+00	0	41	0	986710016	56	6341
2026-01-22 18:03:57.14	297.55	11.53	-41.9	-43.0	21.8	0.00e+00	0	41	0	987758592	56	6458
2026-01-22 18:03:58.15	297.41	11.48	-41.9	-42.9	21.8	0.00e+00	0	41	0	989855744	56	6390
2026-01-22 18:03:59.16	297.26	11.42	-41.9	-43.0	21.8	0.00e+00	53	41	0	991952896	56	6442
2026-01-22 18:04:00.17	297.11	11.36	-41.8	-42.9	21.9	0.00e+00	0	41	0	994050048	56	6331
2026-01-22 18:04:01.18	296.97	11.30	-41.8	-42.9	21.9	0.00e+00	91	41	0	996147200	56	6333
2026-01-22 18:04:02.19	296.82	11.24	-41.6	-42.6	22.0	0.00e+00	2	41	0	997195776	56	6173
2026-01-22 18:04:03.20	296.68	11.18	-41.5	-42.6	22.2	0.00e+00	24	41	0	999292928	56	6111
2026-01-22 18:04:04.21	296.53	11.12	-41.6	-42.6	22.2	0.00e+00	81	41	0	1001390080	56	6143
2026-01-22 18:04:05.22	296.39	11.06	-41.5	-42.5	22.3	0.00e+00	0	41	0	1003487232	56	6079
2026-01-22 18:04:06.23	296.25	11.00	-41.3	-42.3	22.4	0.00e+00	58	41	0	1005584384	56	5940
2026-01-22 18:04:07.24	296.10	10.95	-41.2	-42.2	22.6	0.00e+00	0	41	0	1006632960	56	5863
2026-01-22 18:04:08.25	295.96	10.89	-41.2	-42.2	22.6	0.00e+00	90	41	0	1008730112	56	5831
2026-01-22 18:04:09.26	295.82	10.83	-41.2	-42.2	22.5	0.00e+00	0	41	0	1010827264	56	5894
2026-01-22 18:04:10.27	295.68	10.77	-41.3	-42.3	22.4	0.00e+00	92	41	0	1012924416	56	5937
2026-01-22 18:04:11.27	295.54	10.71	-41.3	-42.3	22.3	0.00e+00	0	41	0	1015021568	56	5941
2026-01-22 18:04:12.28	295.40	10.65	-41.1	-42.1	22.3	0.00e+00	0	41	0	1016070144	56	5814
2026-01-22 18:04:13.29	295.26	10.59	-41.1	-42.1	22.3	0.00e+00	0	41	0	1018167296	56	5796
2026-01-22 18:04:14.30	295.12	10.53	-41.2	-42.2	22.4	0.00e+00	0	41	0	1020264448	56	5889
2026-01-22 18:04:15.31	294.99	10.47	-41.3	-42.3	22.4	0.00e+00	92	41	0	1022361600	56	5927
2026-01-22 18:04:16.32	294.85	10.41	-41.3	-42.4	22.3	0.00e+00	0	41	0	1024458752	56	5986
2026-01-22 18:04:17.33	294.71	10.35	-41.1	-42.1	22.6	0.00e+00	92	41	0	1025507328	56	5819
2026-01-22 18:04:18.34	294.58	10.30	-40.9	-41.8	22.2	0.00e+00	0	41	0	1027604480	56	5624
2026-01-22 18:04:19.35	294.44	10.24	-40.8	-41.8	22.6	0.00e+00	0	41	0	1029701632	56	5611
2026-01-22 18:04:20.36	294.30	10.18	-41.0	-42.0	22.6	0.00e+00	80	41	0	1031798784	56	5746
2026-01-22 18:04:21.37	294.17	10.12	-40.7	-41.7	22.9	0.00e+00	0	41	0	1033895936	56	5508
2026-01-22 18:04:22.38	294.04	10.06	-40.5	-41.4	23.0	0.00e+00	13	41	0	1034944512	54	6024
2026-01-22 18:04:23.39	293.90	10.00	-40.6	-41.5	22.9	0.00e+00	81	41	0	1037041664	54	6082
2026-01-22 18:04:24.40	293.77	9.94	-40.5	-41.5	23.0	0.00e+00	92	41	0	1039138816	54	6064
2026-01-22 18:04:25.41	293.64	9.88	-40.6	-41.6	22.9	0.00e+00	81	41	0	1041235968	54	6112
2026-01-22 18:04:26.42	293.51	9.82	-40.8	-41.8	22.8	0.00e+00	0	41	0	1043333120	54	6251
2026-01-22 18:04:27.42	293.38	9.76	-41.0	-42.0	22.6	0.00e+00	0	41	0	1045430272	54	6446
2026-01-22 18:04:28.43	293.25	9.70	-40.8	-41.8	22.7	0.00e+00	0	41	0	1046478848	54	6275
2026-01-22 18:04:29.44	293.12	9.64	-41.0	-42.0	22.6	0.00e+00	27	41	0	1048576000	54	6428
2026-01-22 18:04:30.45	292.99	9.58	-41.3	-42.4	22.2	0.00e+00	81	41	0	1050673152	54	6703
2026-01-22 18:04:31.46	292.86	9.52	-41.1	-42.1	22.3	0.00e+00	92	41	0	1052770304	54	6528
2026-01-22 18:04:32.47	292.73	9.46	-41.3	-42.3	22.5	0.00e+00	0	41	0	1054867456	54	6666
2026-01-22 18:04:33.49	292.60	9.40	-41.1	-42.2	22.4	0.00e+00	92	41	0	1055916032	54	6558
2026-01-22 18:04:34.49	292.47	9.35	-41.1	-42.2	22.4	0.00e+00	6	41	0	1058013184	54	6555
2026-01-22 18:04:35.50	292.35	9.29	-40.8	-41.8	22.6	0.00e+00	5	41	0	1060110336	54	6289
2026-01-22 18:04:36.50	292.22	9.23	-41.0	-42.0	22.4	0.00e+00	6	41	0	1062207488	54	6403
2026-01-22 18:04:37.51	292.10	9.17	-40.9	-41.9	22.6	0.00e+00	6	41	0	1064304640	54	6367
2026-01-22 18:04:38.52	291.97	9.11	-41.1	-42.1	22.4	0.00e+00	92	41	0	1065353216	54	6529
2026-01-22 18:04:39.53	291.85	9.05	-41.3	-42.3	22.2	0.00e+00	0	41	0	1067450368	54	6677
2026-01-22 18:04:40.54	291.72	8.99	-41.2	-42.3	22.2	0.00e+00	92	41	0	1069547520	54	6651
2026-01-22 18:04:41.55	291.60	8.93	-41.5	-42.6	21.9	0.00e+00	0	41	0	1071644672	54	6887
2026-01-22 18:04:42.56	291.47	8.87	-41.5	-42.6	21.9	0.00e+00	7	41	0	1073741824	54	6900
2026-01-22 18:04:43.57	291.35	8.81	-41.6	-42.7	21.9	0.00e+00	77	41	0	1074790400	54	6969
2026-01-22 18:04:44.58	291.23	8.75	-41.9	-43.0	21.6	0.00e+00	0	41	0	1076887552	56	6431
2026-01-22 18:04:45.59	291.11	8.69	-41.7	-42.8	21.7	0.00e+00	80	41	0	1078984704	56	6276
2026-01-22 18:04:46.60	290.99	8.64	-41.6	-42.7	21.9	0.00e+00	0	41	0	1081081856	56	6181
2026-01-22 18:04:47.61	290.87	8.58	-41.5	-42.6	22.0	0.00e+00	92	41	0	1083179008	56	6140
2026-01-22 18:04:48.62	290.75	8.52	-41.7	-42.9	21.8	0.00e+00	6	41	0	1084227584	56	6329
2026-01-22 18:04:49.63	290.63	8.46	-41.6	-42.6	21.9	0.00e+00	0	41	0	1086324736	56	6173
2026-01-22 18:04:50.64	290.51	8.40	-41.5	-42.6	22.0	0.00e+00	79	41	0	1088421888	56	6131
2026-01-22 18:04:51.65	290.39	8.34	-41.2	-42.2	22.3	0.00e+00	82	41	0	1090519040	56	5892
2026-01-22 18:04:52.66	290.27	8.28	-41.2	-42.3	22.2	0.00e+00	17	41	0	1092616192	56	5907
2026-01-22 18:04:53.67	290.15	8.22	-41.1	-42.2	22.3	0.00e+00	6	41	0	1093664768	56	5842
2026-01-22 18:04:54.68	290.03	8.16	-41.1	-42.1	22.3	0.00e+00	92	41	0	1095761920	56	5813
2026-01-22 18:04:55.69	289.92	8.10	-41.2	-42.2	22.3	0.00e+00	5	41	0	1097859072	56	5892
2026-01-22 18:04:56.69	289.80	8.04	-41.3	-42.3	22.1	0.00e+00	92	41	0	1099956224	56	5962
2026-01-22 18:04:57.71	289.69	7.98	-41.2	-42.3	22.2	0.00e+00	0	41	0	1102053376	56	5920
2026-01-22 18:04:58.72	289.57	7.93	-41.3	-42.3	22.2	0.00e+00	0	41	0	1103101952	56	5928
2026-01-22 18:04:59.73	289.46	7.87	-41.4	-42.4	22.1	0.00e+00	5	41	0	1105199104	56	6009
2026-01-22 18:05:00.74	289.34	7.81	-41.4	-42.5	22.0	0.00e+00	7	41	0	1107296256	56	6082
2026-01-22 18:05:01.74	289.23	7.75	-41.5	-42.5	22.0	0.00e+00	92	41	0	1109393408	56	6087
2026-01-22 18:05:02.75	289.11	7.69	-41.6	-42.7	21.8	0.00e+00	6	41	0	1111490560	56	6188
2026-01-22 18:05:03.76	289.00	7.63	-41.7	-42.9	21.6	0.00e+00	92	41	0	1113587712	56	6321
2026-01-22 18:05:04.77	288.89	7.57	-41.8	-42.9	21.6	0.00e+00	81	41	0	1114636288	56	6386
2026-01-22 18:05:05.78	288.78	7.51	-41.7	-42.9	21.6	0.00e+00	0	41	0	1116733440	56	6329
2026-01-22 18:05:06.79	288.67	7.46	-41.8	-42.9	21.5	0.00e+00	81	41	0	1118830592	56	6383
2026-01-22 18:05:07.80	288.55	7.40	-41.9	-43.1	21.4	0.00e+00	81	41	0	1120927744	56	6505
2026-01-22 18:05:08.81	288.44	7.34	-41.9	-43.1	21.4	0.00e+00	80	41	0	1123024896	56	6471
2026-01-22 18:05:09.82	288.33	7.28	-42.1	-43.3	21.2	0.00e+00	81	41	0	1124073472	56	6679
2026-01-22 18:05:10.83	288.22	7.22	-42.2	-43.3	21.1	0.00e+00	92	41	0	1126170624	56	6685
2026-01-22 18:05:11.84	288.11	7.16	-42.3	-43.5	20.9	0.00e+00	0	41	0	1128267776	56	6829
2026-01-22 18:05:12.85	288.01	7.10	-42.2	-43.4	21.2	0.00e+00	76	41	0	1130364928	56	6717
2026-01-22 18:05:13.86	287.90	7.05	-42.2	-43.4	21.2	0.00e+00	80	41	0	1131413504	56	6716
2026-01-22 18:05:14.87	287.79	6.99	-42.1	-43.3	21.2	0.00e+00	0	41	0	1133510656	56	6640
2026-01-22 18:05:15.88	287.68	6.93	-42.2	-43.4	21.1	0.00e+00	0	41	0	1135607808	56	6708
2026-01-22 18:05:16.89	287.57	6.87	-42.1	-43.3	21.2	0.00e+00	2	41	0	1137704960	56	6649
2026-01-22 18:05:17.90	287.47	6.81	-42.3	-43.5	21.0	0.00e+00	92	41	0	1139802112	56	6838
2026-01-22 18:05:18.91	287.36	6.75	-42.5	-43.7	20.7	0.00e+00	8	41	0	1141899264	56	7004
2026-01-22 18:05:19.92	287.26	6.69	-42.5	-43.7	20.7	0.00e+00	92	41	0	1142947840	56	6970
2026-01-22 18:05:20.93	287.15	6.64	-42.7	-44.0	20.6	0.00e+00	0	41	0	1145044992	56	7184
2026-01-22 18:05:21.94	287.05	6.58	-42.9	-44.2	20.2	0.00e+00	0	41	0	1147142144	56	7360
2026-01-22 18:05:22.95	286.94	6.52	-42.6	-43.8	20.7	0.00e+00	0	41	0	1149239296	58	6313
2026-01-22 18:05:23.95	286.84	6.46	-42.6	-43.9	20.5	0.00e+00	0	41	0	1151336448	58	6352
2026-01-22 18:05:24.96	286.73	6.40	-42.5	-43.8	20.5	0.00e+00	91	41	0	1152385024	58	6299
2026-01-22 18:05:25.97	286.63	6.35	-42.8	-44.2	20.2	0.00e+00	0	41	0	1154482176	58	6555
2026-01-22 18:05:26.98	286.53	6.29	-43.1	-44.5	20.0	0.00e+00	92	41	0	1156579328	58	6787
2026-01-22 18:05:27.99	286.43	6.23	-43.2	-44.6	19.9	0.00e+00	82	41	0	1158676480	58	6914
2026-01-22 18:05:29.00	286.32	6.17	-43.1	-44.5	20.0	0.00e+00	82	41	0	1160773632	58	6780
2026-01-22 18:05:30.01	286.22	6.11	-42.9	-44.3	20.0	0.00e+00	81	41	0	1161822208	58	6677
2026-01-22 18:05:31.02	286.12	6.06	-43.2	-44.6	19.9	0.00e+00	0	41	0	1163919360	58	6864
2026-01-22 18:05:32.03	286.02	6.00	-42.8	-44.2	20.2	0.00e+00	49	41	0	1166016512	58	6550
2026-01-22 18:05:33.04	285.92	5.94	-43.0	-44.4	20.0	0.00e+00	82	41	0	1168113664	58	6758
2026-01-22 18:05:34.05	285.82	5.88	-43.2	-44.6	19.8	0.00e+00	90	41	0	1170210816	58	6887
2026-01-22 18:05:35.06	285.72	5.83	-43.2	-44.6	19.8	0.00e+00	82	41	0	1171259392	58	6903
2026-01-22 18:05:36.06	285.62	5.77	-43.5	-45.0	19.3	0.00e+00	90	41	0	1173356544	58	7214
2026-01-22 18:05:37.07	285.52	5.71	-43.5	-45.0	19.5	0.00e+00	4	41	0	1175453696	58	7241
2026-01-22 18:05:38.08	285.43	5.65	-43.4	-44.9	19.4	0.00e+00	0	41	0	1177550848	58	7128
2026-01-22 18:05:39.09	285.33	5.60	-43.4	-44.9	19.6	0.00e+00	0	41	0	1179648000	58	7148
2026-01-22 18:05:40.09	285.23	5.54	-43.2	-44.7	19.6	0.00e+00	2	41	0	1180696576	58	6956
2026-01-22 18:05:41.11	285.13	5.48	-43.2	-44.7	19.7	0.00e+00	92	41	0	1182793728	58	6962
2026-01-22 18:05:42.11	285.04	5.42	-43.0	-44.4	19.7	0.00e+00	0	41	0	1184890880	58	6751
2026-01-22 18:05:43.12	284.94	5.37	-43.3	-44.7	19.5	0.00e+00	92	41	0	1186988032	58	6992
2026-01-22 18:05:44.14	284.84	5.31	-43.4	-44.9	19.5	0.00e+00	0	41	0	1189085184	58	7147
2026-01-22 18:05:45.15	284.75	5.25	-43.2	-44.7	19.5	0.00e+00	0	41	0	1190133760	58	6933
2026-01-22 18:05:46.15	284.66	5.20	-43.4	-44.9	19.5	0.00e+00	0	41	0	1192230912	58	7095
2026-01-22 18:05:47.16	284.56	5.14	-43.1	-44.5	19.7	0.00e+00	0	41	0	1194328064	58	6831
