passes_logs/2026/01/22/R4.6S_Anadyr/R4.6S_Anadyr__20260122_023022_NOAA_20_JPSS-1_rec.log

#Pass ID: 20260122_023022_NOAA 20 (JPSS-1)
#Satellite: NOAA 20 (JPSS-1)
#Configuration: NOAA 20
#almurnet v.1.7.20251203
#Start time: 2026-01-22 02:30:24

#Version: 2.2.20231116
#Station: R4.6S_Anadyr
#Location: 177.4865 lon 64.73178 lat
#TLE: 1 43013U 17073A   26020.82785136  .00000155  00000+0  94366-4 0  9991
#TLE: 2 43013  98.7643 321.7058 0001260  30.3785 329.7464 14.19537992423566

#Time	Az	El	Level	Level2	SNR	BER	BlckErr	Temp	State	Recorded	gain1	gain2
2026-01-22 02:30:24.13	216.19	0.08	-51.4	-66.4	3.5	1.51e+00	0	39	0	0	60	75721
2026-01-22 02:30:25.14	216.27	0.13	-51.9	-67.1	3.6	1.51e+00	0	40	104	0	60	81980
2026-01-22 02:30:26.15	216.34	0.18	-52.3	-67.6	3.6	1.51e+00	0	40	104	0	60	86879
2026-01-22 02:30:27.16	216.41	0.24	-52.1	-67.3	3.6	1.51e+00	0	40	104	0	60	84120
2026-01-22 02:30:28.17	216.48	0.29	-52.2	-67.5	3.6	1.51e+00	0	40	104	0	60	85514
2026-01-22 02:30:29.18	216.56	0.34	-51.8	-67.1	3.6	1.51e+00	0	40	104	0	60	82168
2026-01-22 02:30:30.19	216.63	0.39	-52.5	-67.7	3.6	1.51e+00	0	40	104	0	60	88109
2026-01-22 02:30:31.20	216.70	0.44	-52.4	-67.7	3.6	1.51e+00	0	40	104	0	60	87245
2026-01-22 02:30:32.21	216.78	0.49	-51.8	-67.0	3.6	1.51e+00	0	40	104	0	60	81213
2026-01-22 02:30:33.22	216.85	0.54	-51.6	-66.8	3.6	1.51e+00	0	40	104	0	60	79525
2026-01-22 02:30:34.23	216.92	0.59	-51.3	-66.6	3.6	1.51e+00	0	40	104	0	60	77366
2026-01-22 02:30:35.24	217.00	0.64	-51.3	-66.6	3.6	1.51e+00	0	40	104	0	60	77085
2026-01-22 02:30:36.25	217.07	0.69	-51.6	-66.8	3.6	1.51e+00	0	40	104	0	60	79241
2026-01-22 02:30:37.26	217.15	0.75	-51.5	-66.8	3.6	1.51e+00	0	40	104	0	60	78773
2026-01-22 02:30:38.27	217.22	0.80	-51.3	-66.6	3.6	1.51e+00	0	40	104	0	60	77602
2026-01-22 02:30:39.28	217.30	0.85	-51.5	-66.8	3.6	1.51e+00	0	40	104	0	60	79285
2026-01-22 02:30:40.29	217.37	0.90	-51.3	-66.6	3.6	1.51e+00	0	40	104	0	60	76938
2026-01-22 02:30:41.30	217.45	0.95	-51.2	-66.5	3.6	1.51e+00	0	40	104	0	60	75963
2026-01-22 02:30:42.31	217.53	1.00	-51.2	-66.4	3.6	1.51e+00	0	40	104	0	60	75125
2026-01-22 02:30:43.32	217.60	1.06	-51.2	-66.4	3.6	1.51e+00	0	40	104	0	60	75464
2026-01-22 02:30:44.33	217.68	1.11	-51.2	-66.4	3.5	1.51e+00	0	40	104	0	60	75427
2026-01-22 02:30:45.34	217.76	1.16	-51.4	-66.6	3.6	1.51e+00	0	40	104	0	60	77262
2026-01-22 02:30:46.35	217.83	1.21	-51.3	-66.5	3.6	1.51e+00	0	41	104	0	60	76699
2026-01-22 02:30:47.36	217.91	1.26	-51.2	-66.4	3.6	1.51e+00	0	41	104	0	60	75182
2026-01-22 02:30:48.37	217.99	1.31	-51.0	-66.2	3.6	1.51e+00	0	40	104	0	60	74178
2026-01-22 02:30:49.38	218.07	1.37	-50.4	-65.6	3.6	1.51e+00	0	41	104	0	60	68677
2026-01-22 02:30:50.39	218.15	1.42	-49.8	-65.0	3.6	1.51e+00	0	41	104	0	60	64026
2026-01-22 02:30:51.40	218.22	1.47	-49.7	-64.8	3.6	1.51e+00	0	41	104	0	60	62749
2026-01-22 02:30:52.41	218.30	1.52	-49.9	-65.0	3.6	1.51e+00	0	41	104	0	60	64365
2026-01-22 02:30:53.42	218.38	1.57	-50.1	-65.3	3.6	1.51e+00	0	40	104	0	60	66493
2026-01-22 02:30:54.43	218.46	1.63	-50.1	-65.3	3.6	1.51e+00	0	41	104	0	60	66345
2026-01-22 02:30:55.44	218.54	1.68	-49.8	-65.0	3.6	1.51e+00	0	41	104	0	60	63948
2026-01-22 02:30:56.45	218.62	1.73	-49.8	-64.9	3.6	1.51e+00	0	41	104	0	60	63794
2026-01-22 02:30:57.46	218.70	1.78	-49.6	-64.7	3.6	1.51e+00	0	41	104	0	60	62307
2026-01-22 02:30:58.47	218.78	1.84	-49.6	-64.8	3.6	1.51e+00	0	40	104	0	60	62876
2026-01-22 02:30:59.48	218.86	1.89	-50.0	-65.1	3.6	1.51e+00	0	41	104	0	60	65281
2026-01-22 02:31:00.49	218.94	1.94	-50.1	-65.2	3.6	1.51e+00	0	40	104	0	60	66068
2026-01-22 02:31:01.50	219.02	1.99	-49.9	-65.0	3.6	1.51e+00	0	41	104	0	60	64412
2026-01-22 02:31:02.51	219.10	2.05	-49.8	-64.9	3.6	1.51e+00	0	40	104	0	60	63734
2026-01-22 02:31:03.52	219.19	2.10	-49.9	-64.9	3.6	1.51e+00	0	41	104	0	60	63487
2026-01-22 02:31:04.54	219.27	2.15	-49.7	-64.8	3.6	1.51e+00	0	41	104	0	60	62882
2026-01-22 02:31:05.54	219.35	2.20	-49.7	-64.8	3.6	1.51e+00	0	41	104	0	60	62458
2026-01-22 02:31:06.55	219.43	2.26	-49.6	-64.8	3.6	1.51e+00	0	41	104	0	60	62524
2026-01-22 02:31:07.56	219.51	2.31	-49.6	-64.8	3.6	1.51e+00	0	41	104	0	60	62998
2026-01-22 02:31:08.57	219.60	2.36	-49.7	-64.8	3.6	1.51e+00	0	41	104	0	60	62839
2026-01-22 02:31:09.58	219.68	2.42	-49.6	-64.5	3.6	1.51e+00	0	41	104	0	60	60392
2026-01-22 02:31:10.59	219.76	2.47	-49.6	-64.1	3.6	1.51e+00	0	41	104	0	60	58211
2026-01-22 02:31:11.60	219.85	2.52	-49.6	-63.6	3.6	1.51e+00	0	41	104	0	60	54701
2026-01-22 02:31:12.62	219.93	2.58	-49.5	-63.0	3.6	1.51e+00	0	40	104	0	60	50902
2026-01-22 02:31:13.63	220.02	2.63	-49.5	-63.2	3.6	1.51e+00	0	41	104	0	60	52267
2026-01-22 02:31:14.64	220.10	2.68	-49.4	-62.9	3.6	1.51e+00	0	41	104	0	60	50720
2026-01-22 02:31:15.65	220.19	2.74	-49.5	-62.9	3.6	1.51e+00	0	41	104	0	60	50644
2026-01-22 02:31:16.66	220.27	2.79	-49.3	-60.7	4.2	1.49e+00	2	41	104	0	60	39141
2026-01-22 02:31:17.67	220.36	2.84	-49.0	-57.1	5.6	7.89e-01	10	41	0	0	60	25838
2026-01-22 02:31:18.68	220.45	2.90	-48.6	-54.9	8.0	8.23e-02	92	41	0	2097152	60	20118
2026-01-22 02:31:19.69	220.53	2.95	-48.5	-54.6	8.4	3.78e-02	92	41	0	4194304	60	19308
2026-01-22 02:31:20.70	220.62	3.00	-48.7	-55.0	8.4	5.15e-02	90	41	0	6291456	60	20219
2026-01-22 02:31:21.71	220.71	3.06	-48.0	-52.6	11.1	1.80e-02	92	40	0	8388608	60	15455
2026-01-22 02:31:22.72	220.79	3.11	-50.0	-63.8	3.6	1.16e-01	0	41	104	9437184	60	55743
2026-01-22 02:31:23.73	220.88	3.16	-48.1	-53.6	4.5	1.51e+00	29	41	104	9437184	60	17352
2026-01-22 02:31:24.75	220.97	3.22	-45.7	-48.2	16.5	1.51e+00	67	41	104	9437184	60	9313
2026-01-22 02:31:25.76	221.06	3.27	-48.3	-53.3	9.1	9.00e-05	92	41	0	9437184	60	16780
2026-01-22 02:31:26.76	221.14	3.33	-44.8	-46.8	16.5	1.49e-02	9	41	0	11534336	60	7934
2026-01-22 02:31:27.78	221.23	3.38	-45.0	-47.2	16.8	0.00e+00	92	41	0	13631488	60	8252
2026-01-22 02:31:28.78	221.32	3.43	-45.0	-47.2	16.7	0.00e+00	90	41	0	15728640	60	8328
2026-01-22 02:31:29.79	221.41	3.49	-45.0	-47.2	16.8	0.00e+00	91	41	0	16777216	60	8248
2026-01-22 02:31:30.81	221.50	3.54	-45.0	-47.1	16.9	0.00e+00	91	41	0	18874368	60	8218
2026-01-22 02:31:31.82	221.59	3.60	-45.5	-47.9	16.3	0.00e+00	28	41	0	20971520	60	8961
2026-01-22 02:31:32.83	221.68	3.65	-45.4	-47.5	17.1	0.00e+00	92	41	0	23068672	60	8570
2026-01-22 02:31:33.84	221.77	3.71	-45.5	-47.7	16.7	0.00e+00	62	41	0	25165824	60	8745
2026-01-22 02:31:34.84	221.86	3.76	-45.2	-47.3	17.0	0.00e+00	92	41	0	26214400	60	8422
2026-01-22 02:31:35.85	221.95	3.81	-45.0	-47.0	17.3	0.00e+00	92	41	0	28311552	60	8110
2026-01-22 02:31:36.86	222.05	3.87	-45.3	-47.5	16.9	0.00e+00	92	41	0	30408704	60	8556
2026-01-22 02:31:37.87	222.14	3.92	-45.6	-47.9	16.4	0.00e+00	92	41	0	32505856	60	8946
2026-01-22 02:31:38.89	222.23	3.98	-45.4	-47.7	16.5	0.00e+00	90	40	0	34603008	60	8752
2026-01-22 02:31:39.89	222.32	4.03	-45.1	-47.3	16.7	0.00e+00	92	41	0	35651584	60	8360
2026-01-22 02:31:40.91	222.42	4.09	-45.2	-47.4	16.7	0.00e+00	0	41	0	37748736	60	8441
2026-01-22 02:31:41.92	222.51	4.14	-45.3	-47.5	16.5	0.00e+00	92	41	0	39845888	60	8552
2026-01-22 02:31:42.92	222.60	4.20	-45.6	-47.9	16.4	0.00e+00	92	41	0	41943040	60	9002
2026-01-22 02:31:43.93	222.70	4.25	-45.3	-47.6	16.8	0.00e+00	90	40	0	44040192	60	8622
2026-01-22 02:31:44.94	222.79	4.31	-45.2	-47.4	17.0	0.00e+00	92	41	0	46137344	60	8445
2026-01-22 02:31:45.95	222.88	4.36	-45.4	-47.6	16.8	0.00e+00	92	41	0	47185920	60	8628
2026-01-22 02:31:46.96	222.98	4.41	-45.4	-47.6	16.8	0.00e+00	92	41	0	49283072	60	8663
2026-01-22 02:31:47.97	223.07	4.47	-45.7	-48.0	16.5	0.00e+00	2	41	0	51380224	60	9036
2026-01-22 02:31:48.98	223.17	4.52	-45.5	-47.7	16.6	0.00e+00	92	41	0	53477376	60	8789
2026-01-22 02:31:49.99	223.27	4.58	-45.5	-47.7	16.7	0.00e+00	0	40	0	54525952	60	8802
2026-01-22 02:31:51.00	223.36	4.64	-45.7	-47.9	16.8	0.00e+00	91	41	0	56623104	60	8946
2026-01-22 02:31:52.01	223.46	4.69	-45.9	-48.2	16.2	0.00e+00	92	41	0	58720256	60	9325
2026-01-22 02:31:53.02	223.56	4.75	-45.7	-48.0	16.4	0.00e+00	91	41	0	60817408	60	9047
2026-01-22 02:31:54.03	223.65	4.80	-45.7	-48.1	16.2	0.00e+00	91	41	0	62914560	60	9173
2026-01-22 02:31:55.04	223.75	4.86	-45.7	-48.1	16.1	0.00e+00	4	41	0	63963136	60	9173
2026-01-22 02:31:56.05	223.85	4.91	-45.4	-47.7	16.5	0.00e+00	90	41	0	66060288	60	8750
2026-01-22 02:31:57.06	223.95	4.97	-45.5	-47.8	16.4	0.00e+00	0	40	0	68157440	60	8868
2026-01-22 02:31:58.06	224.04	5.02	-45.7	-48.0	16.3	0.00e+00	92	40	0	70254592	60	9106
2026-01-22 02:31:59.08	224.14	5.08	-45.3	-47.4	16.9	0.00e+00	91	40	0	72351744	60	8507
2026-01-22 02:32:00.09	224.24	5.13	-45.9	-48.3	16.2	0.00e+00	92	40	0	74448896	60	9350
2026-01-22 02:32:01.10	224.34	5.19	-46.1	-48.5	16.1	0.00e+00	92	40	0	75497472	60	9649
2026-01-22 02:32:02.11	224.44	5.24	-46.2	-48.6	16.0	0.00e+00	92	40	0	77594624	60	9759
2026-01-22 02:32:03.11	224.54	5.30	-46.0	-48.4	16.2	0.00e+00	90	40	0	79691776	60	9463
2026-01-22 02:32:04.12	224.64	5.36	-46.1	-48.4	16.5	0.00e+00	0	41	0	81788928	60	9498
2026-01-22 02:32:05.13	224.75	5.41	-46.1	-48.4	16.3	0.00e+00	92	41	0	83886080	60	9500
2026-01-22 02:32:06.14	224.85	5.47	-46.2	-48.7	15.9	0.00e+00	92	41	0	84934656	60	9814
2026-01-22 02:32:07.15	224.95	5.52	-46.2	-48.7	15.8	0.00e+00	92	40	0	87031808	60	9821
2026-01-22 02:32:08.16	225.05	5.58	-46.1	-48.5	16.0	0.00e+00	90	41	0	89128960	60	9672
2026-01-22 02:32:09.17	225.15	5.63	-45.8	-48.2	16.1	0.00e+00	92	40	0	91226112	60	9339
2026-01-22 02:32:10.18	225.26	5.69	-45.7	-48.1	16.3	0.00e+00	92	41	0	93323264	60	9166
2026-01-22 02:32:11.19	225.36	5.75	-45.8	-48.3	15.9	0.00e+00	6	41	0	94371840	60	9382
2026-01-22 02:32:12.20	225.46	5.80	-46.1	-48.6	16.1	0.00e+00	90	40	0	96468992	60	9695
2026-01-22 02:32:13.21	225.57	5.86	-45.9	-48.3	16.2	0.00e+00	16	41	0	98566144	60	9366
2026-01-22 02:32:14.22	225.67	5.91	-46.1	-48.6	15.9	0.00e+00	92	41	0	100663296	60	9707
2026-01-22 02:32:15.23	225.78	5.97	-46.1	-48.6	15.9	0.00e+00	92	41	0	102760448	60	9686
2026-01-22 02:32:16.24	225.88	6.03	-45.9	-48.2	16.2	0.00e+00	92	41	0	103809024	60	9324
2026-01-22 02:32:17.25	225.99	6.08	-46.1	-48.6	15.8	0.00e+00	90	40	0	105906176	60	9719
2026-01-22 02:32:18.25	226.10	6.14	-46.0	-48.4	16.2	0.00e+00	8	41	0	108003328	60	9516
2026-01-22 02:32:19.26	226.20	6.20	-46.0	-48.4	16.1	0.00e+00	92	41	0	110100480	60	9506
2026-01-22 02:32:20.27	226.31	6.25	-46.5	-49.0	15.7	0.00e+00	63	41	0	112197632	60	10233
2026-01-22 02:32:21.28	226.42	6.31	-46.6	-49.1	15.6	0.00e+00	92	41	0	113246208	60	10337
2026-01-22 02:32:22.30	226.53	6.37	-46.5	-49.1	15.8	0.00e+00	92	41	0	115343360	60	10277
2026-01-22 02:32:23.30	226.63	6.42	-46.6	-49.1	15.7	0.00e+00	92	41	0	117440512	60	10283
2026-01-22 02:32:24.32	226.74	6.48	-46.7	-49.3	15.4	0.00e+00	89	41	0	119537664	60	10561
2026-01-22 02:32:25.33	226.85	6.53	-46.6	-49.2	15.5	0.00e+00	91	41	0	121634816	60	10422
2026-01-22 02:32:26.33	226.96	6.59	-46.4	-48.9	15.6	0.00e+00	91	41	0	122683392	60	10110
2026-01-22 02:32:27.34	227.07	6.65	-46.3	-48.9	15.7	0.00e+00	7	40	0	124780544	60	10028
2026-01-22 02:32:28.36	227.18	6.70	-46.3	-48.8	15.8	0.00e+00	91	40	0	126877696	60	9963
2026-01-22 02:32:29.37	227.29	6.76	-46.6	-49.2	15.6	0.00e+00	84	40	0	128974848	60	10424
2026-01-22 02:32:30.38	227.40	6.82	-46.7	-49.2	15.8	0.00e+00	90	41	0	131072000	60	10432
2026-01-22 02:32:31.38	227.51	6.87	-46.8	-49.3	15.7	0.00e+00	92	41	0	132120576	60	10512
2026-01-22 02:32:32.39	227.62	6.93	-46.9	-49.5	15.6	0.00e+00	90	40	0	134217728	60	10808
2026-01-22 02:32:33.40	227.74	6.99	-47.2	-49.8	15.5	0.00e+00	92	41	0	136314880	60	11139
2026-01-22 02:32:34.41	227.85	7.05	-47.0	-49.6	15.5	0.00e+00	0	41	0	138412032	60	10931
2026-01-22 02:32:35.42	227.96	7.10	-46.6	-49.1	15.7	0.00e+00	90	40	0	140509184	60	10328
2026-01-22 02:32:36.43	228.08	7.16	-46.6	-49.1	15.7	0.00e+00	26	41	0	142606336	60	10300
2026-01-22 02:32:37.44	228.19	7.22	-46.6	-49.0	15.9	0.00e+00	92	41	0	143654912	60	10208
2026-01-22 02:32:38.45	228.31	7.27	-46.8	-49.3	15.7	0.00e+00	92	41	0	145752064	60	10533
2026-01-22 02:32:39.46	228.42	7.33	-46.7	-49.3	15.7	0.00e+00	92	40	0	147849216	60	10508
2026-01-22 02:32:40.47	228.54	7.39	-46.8	-49.4	15.6	0.00e+00	90	41	0	149946368	60	10636
2026-01-22 02:32:41.48	228.65	7.44	-47.0	-49.6	15.4	0.00e+00	92	41	0	152043520	60	10962
2026-01-22 02:32:42.49	228.77	7.50	-46.8	-49.4	15.5	0.00e+00	90	40	0	153092096	60	10697
2026-01-22 02:32:43.50	228.88	7.56	-46.5	-49.0	15.6	0.00e+00	14	41	0	155189248	60	10223
2026-01-22 02:32:44.51	229.00	7.62	-46.4	-49.0	15.7	0.00e+00	90	41	0	157286400	60	10144
2026-01-22 02:32:45.52	229.12	7.67	-46.7	-49.3	15.5	0.00e+00	87	41	0	159383552	60	10596
2026-01-22 02:32:46.52	229.24	7.73	-46.8	-49.5	15.5	0.00e+00	92	41	0	161480704	60	10765
2026-01-22 02:32:47.53	229.35	7.79	-46.8	-49.5	15.5	0.00e+00	90	40	0	162529280	60	10746
2026-01-22 02:32:48.54	229.47	7.84	-46.7	-49.3	15.5	0.00e+00	92	41	0	164626432	60	10581
2026-01-22 02:32:49.55	229.59	7.90	-46.6	-49.1	15.8	0.00e+00	92	41	0	166723584	60	10323
2026-01-22 02:32:50.56	229.71	7.96	-46.5	-49.1	15.6	0.00e+00	4	41	0	168820736	60	10276
2026-01-22 02:32:51.57	229.83	8.02	-46.9	-49.6	15.5	0.00e+00	92	41	0	170917888	60	10859
2026-01-22 02:32:52.58	229.95	8.07	-47.0	-49.7	15.5	0.00e+00	13	41	0	171966464	60	11020
2026-01-22 02:32:53.59	230.07	8.13	-47.1	-49.6	15.6	0.00e+00	92	40	0	174063616	60	10929
2026-01-22 02:32:54.60	230.19	8.19	-46.9	-49.4	15.7	0.00e+00	92	41	0	176160768	60	10706
2026-01-22 02:32:55.61	230.32	8.25	-46.9	-49.5	15.6	0.00e+00	92	41	0	178257920	60	10779
2026-01-22 02:32:56.62	230.44	8.30	-46.8	-49.4	15.6	0.00e+00	92	41	0	180355072	60	10703
2026-01-22 02:32:57.63	230.56	8.36	-46.9	-49.6	15.6	0.00e+00	0	41	0	181403648	60	10855
2026-01-22 02:32:58.64	230.69	8.42	-46.9	-49.5	15.5	0.00e+00	92	40	0	183500800	60	10745
2026-01-22 02:32:59.65	230.81	8.48	-46.9	-49.4	15.8	0.00e+00	77	41	0	185597952	60	10691
2026-01-22 02:33:00.66	230.93	8.53	-47.2	-49.9	15.4	0.00e+00	92	41	0	187695104	60	11272
2026-01-22 02:33:01.67	231.06	8.59	-47.0	-49.6	15.5	7.00e-07	90	41	0	189792256	60	10906
2026-01-22 02:33:02.68	231.18	8.65	-47.1	-49.6	15.8	0.00e+00	91	41	0	190840832	60	10899
2026-01-22 02:33:03.69	231.31	8.71	-46.7	-49.1	16.1	0.00e+00	92	41	0	192937984	60	10361
2026-01-22 02:33:04.69	231.44	8.76	-46.6	-49.0	16.0	0.00e+00	91	41	0	195035136	60	10243
2026-01-22 02:33:05.70	231.56	8.82	-46.4	-48.9	16.1	0.00e+00	92	41	0	197132288	60	10015
2026-01-22 02:33:06.71	231.69	8.88	-46.3	-48.6	16.3	0.00e+00	5	41	0	199229440	60	9741
2026-01-22 02:33:07.72	231.82	8.94	-46.2	-48.6	16.2	0.00e+00	92	41	0	200278016	60	9684
2026-01-22 02:33:08.73	231.95	9.00	-46.2	-48.5	16.3	0.00e+00	92	41	0	202375168	60	9652
2026-01-22 02:33:09.73	232.07	9.05	-46.2	-48.5	16.4	0.00e+00	94	41	0	204472320	60	9658
2026-01-22 02:33:10.74	232.20	9.11	-46.3	-48.6	16.4	0.00e+00	92	41	0	206569472	60	9707
2026-01-22 02:33:11.75	232.33	9.17	-46.3	-48.6	16.3	0.00e+00	92	41	0	208666624	60	9693
2026-01-22 02:33:12.76	232.46	9.23	-46.4	-48.7	16.4	0.00e+00	92	41	0	210763776	60	9860
2026-01-22 02:33:13.77	232.59	9.28	-46.5	-48.8	16.2	0.00e+00	33	41	0	211812352	60	10000
2026-01-22 02:33:14.78	232.72	9.34	-46.4	-48.7	16.6	0.00e+00	92	41	0	213909504	60	9870
2026-01-22 02:33:15.79	232.86	9.40	-46.3	-48.5	16.5	0.00e+00	12	41	0	216006656	60	9645
2026-01-22 02:33:16.80	232.99	9.46	-46.1	-48.4	16.6	0.00e+00	92	41	0	218103808	60	9479
2026-01-22 02:33:17.81	233.12	9.51	-46.2	-48.5	16.4	0.00e+00	92	41	0	220200960	60	9673
2026-01-22 02:33:18.82	233.25	9.57	-46.0	-48.1	16.8	0.00e+00	92	41	0	221249536	60	9226
2026-01-22 02:33:19.83	233.39	9.63	-46.1	-48.3	16.6	0.00e+00	92	41	0	223346688	60	9420
2026-01-22 02:33:20.84	233.52	9.69	-45.8	-48.0	16.8	0.00e+00	91	41	0	225443840	60	9115
2026-01-22 02:33:21.85	233.66	9.75	-45.7	-47.9	16.9	0.00e+00	90	41	0	227540992	60	8942
2026-01-22 02:33:22.86	233.79	9.80	-45.7	-47.9	16.9	0.00e+00	0	41	0	229638144	60	8927
2026-01-22 02:33:23.87	233.93	9.86	-46.1	-48.3	16.5	0.00e+00	92	41	0	230686720	60	9437
2026-01-22 02:33:24.88	234.06	9.92	-45.9	-48.1	16.8	0.00e+00	92	41	0	232783872	60	9163
2026-01-22 02:33:25.89	234.20	9.98	-46.4	-48.6	16.8	0.00e+00	92	41	0	234881024	60	9741
2026-01-22 02:33:26.90	234.34	10.03	-46.4	-48.6	16.7	0.00e+00	92	41	0	236978176	60	9721
2026-01-22 02:33:27.91	234.47	10.09	-46.4	-48.6	16.8	0.00e+00	92	41	0	239075328	60	9778
2026-01-22 02:33:28.92	234.61	10.15	-46.2	-48.4	16.9	0.00e+00	92	41	0	240123904	60	9477
2026-01-22 02:33:29.93	234.75	10.21	-46.1	-48.2	17.1	0.00e+00	0	41	0	242221056	60	9252
2026-01-22 02:33:30.94	234.89	10.26	-46.0	-48.1	17.2	0.00e+00	91	41	0	244318208	60	9180
2026-01-22 02:33:31.95	235.03	10.32	-45.9	-48.0	17.3	0.00e+00	90	41	0	246415360	60	9033
2026-01-22 02:33:32.96	235.17	10.38	-45.8	-47.8	17.4	0.00e+00	92	41	0	248512512	60	8897
2026-01-22 02:33:33.96	235.31	10.44	-45.7	-47.7	17.4	0.00e+00	92	41	0	249561088	60	8811
2026-01-22 02:33:34.97	235.45	10.49	-45.7	-47.6	17.6	0.00e+00	92	41	0	251658240	60	8707
2026-01-22 02:33:35.98	235.59	10.55	-45.8	-47.8	17.6	0.00e+00	92	41	0	253755392	60	8869
2026-01-22 02:33:37.00	235.74	10.61	-45.5	-47.5	17.6	0.00e+00	51	41	0	255852544	60	8547
2026-01-22 02:33:38.01	235.88	10.67	-45.6	-47.5	17.9	0.00e+00	90	41	0	257949696	60	8527
2026-01-22 02:33:39.02	236.03	10.73	-45.5	-47.3	18.1	0.00e+00	92	41	0	258998272	60	8357
2026-01-22 02:33:40.03	236.17	10.78	-45.5	-47.3	18.0	0.00e+00	92	41	0	261095424	60	8399
2026-01-22 02:33:41.04	236.31	10.84	-45.7	-47.6	17.9	0.00e+00	91	41	0	263192576	60	8696
2026-01-22 02:33:42.05	236.46	10.90	-45.5	-47.3	18.2	0.00e+00	90	41	0	265289728	60	8403
2026-01-22 02:33:43.05	236.60	10.95	-45.5	-47.3	17.9	0.00e+00	91	41	0	267386880	60	8423
2026-01-22 02:33:44.06	236.75	11.01	-45.4	-47.2	18.2	0.00e+00	91	41	0	268435456	60	8271
2026-01-22 02:33:45.07	236.90	11.07	-45.2	-46.9	18.5	0.00e+00	92	41	0	270532608	60	7972
2026-01-22 02:33:46.08	237.05	11.13	-45.1	-46.8	18.4	0.00e+00	64	41	0	272629760	60	7911
2026-01-22 02:33:47.09	237.19	11.18	-45.1	-46.8	18.4	0.00e+00	92	41	0	274726912	60	7897
2026-01-22 02:33:48.10	237.34	11.24	-44.9	-46.6	18.8	0.00e+00	92	41	0	276824064	60	7692
2026-01-22 02:33:49.11	237.49	11.30	-45.0	-46.6	18.9	0.00e+00	92	41	0	278921216	60	7694
2026-01-22 02:33:50.12	237.64	11.36	-44.9	-46.5	18.9	0.00e+00	90	41	0	279969792	60	7679
2026-01-22 02:33:51.13	237.79	11.41	-44.7	-46.3	19.1	0.00e+00	90	41	0	282066944	60	7443
2026-01-22 02:33:52.14	237.94	11.47	-44.4	-45.9	19.3	0.00e+00	92	41	0	284164096	60	7119
2026-01-22 02:33:53.15	238.09	11.53	-44.2	-45.7	19.4	0.00e+00	0	41	0	286261248	60	6983
2026-01-22 02:33:54.15	238.24	11.58	-44.1	-45.6	19.6	0.00e+00	92	41	0	288358400	60	6894
2026-01-22 02:33:55.16	238.40	11.64	-44.1	-45.5	19.6	0.00e+00	90	41	0	289406976	60	6831
2026-01-22 02:33:56.17	238.55	11.70	-43.9	-45.3	19.7	0.00e+00	92	41	0	291504128	60	6666
2026-01-22 02:33:57.19	238.71	11.76	-43.9	-45.3	19.8	0.00e+00	90	41	0	293601280	60	6676
2026-01-22 02:33:58.20	238.86	11.81	-43.8	-45.2	19.9	0.00e+00	92	41	0	295698432	60	6557
2026-01-22 02:33:59.20	239.01	11.87	-43.6	-44.9	20.0	0.00e+00	92	41	0	297795584	60	6380
2026-01-22 02:34:00.21	239.17	11.92	-43.5	-44.9	19.9	0.00e+00	28	41	0	298844160	60	6347
2026-01-22 02:34:01.22	239.33	11.98	-43.4	-44.8	20.2	0.00e+00	92	41	0	300941312	60	6274
2026-01-22 02:34:02.23	239.48	12.04	-43.3	-44.7	20.2	0.00e+00	0	41	0	303038464	60	6206
2026-01-22 02:34:03.24	239.64	12.09	-43.2	-44.6	20.4	0.00e+00	92	41	0	305135616	60	6122
2026-01-22 02:34:04.25	239.80	12.15	-43.2	-44.5	20.5	0.00e+00	92	41	0	307232768	60	6081
2026-01-22 02:34:05.26	239.96	12.21	-43.3	-44.6	20.6	0.00e+00	92	41	0	308281344	60	6154
2026-01-22 02:34:06.27	240.11	12.26	-43.2	-44.4	20.9	0.00e+00	92	41	0	310378496	60	6001
2026-01-22 02:34:07.28	240.27	12.32	-43.4	-44.6	20.8	0.00e+00	90	41	0	312475648	60	6154
2026-01-22 02:34:08.29	240.43	12.38	-43.1	-44.3	21.0	0.00e+00	92	41	0	314572800	60	5922
2026-01-22 02:34:09.30	240.59	12.43	-43.0	-44.2	21.1	0.00e+00	0	41	0	316669952	60	5836
2026-01-22 02:34:10.31	240.76	12.49	-42.9	-44.2	21.1	0.00e+00	92	41	0	317718528	60	5829
2026-01-22 02:34:11.32	240.92	12.54	-42.9	-44.1	21.2	0.00e+00	90	41	0	319815680	60	5804
2026-01-22 02:34:12.33	241.08	12.60	-43.0	-44.2	21.1	0.00e+00	92	41	0	321912832	60	5884
2026-01-22 02:34:13.34	241.24	12.66	-42.7	-43.9	21.2	0.00e+00	90	41	0	324009984	60	5676
2026-01-22 02:34:14.35	241.41	12.71	-42.3	-43.5	21.7	0.00e+00	92	41	0	326107136	58	6038
2026-01-22 02:34:15.36	241.57	12.77	-42.4	-43.5	21.7	0.00e+00	90	41	0	327155712	58	6049
2026-01-22 02:34:16.37	241.74	12.82	-42.3	-43.4	21.8	0.00e+00	19	41	0	329252864	58	6011
2026-01-22 02:34:17.37	241.90	12.88	-42.3	-43.4	21.7	0.00e+00	92	41	0	331350016	58	5975
2026-01-22 02:34:18.38	242.07	12.93	-42.0	-43.1	21.9	0.00e+00	89	41	0	333447168	58	5803
2026-01-22 02:34:19.39	242.23	12.99	-41.6	-42.7	22.4	0.00e+00	92	41	0	335544320	56	6188
2026-01-22 02:34:20.40	242.40	13.04	-41.6	-42.7	22.4	0.00e+00	92	41	0	336592896	56	6192
2026-01-22 02:34:21.41	242.57	13.10	-41.4	-42.4	22.5	0.00e+00	90	41	0	338690048	56	6016
2026-01-22 02:34:22.43	242.74	13.15	-41.4	-42.4	22.6	0.00e+00	92	41	0	340787200	56	5990
2026-01-22 02:34:23.44	242.91	13.21	-41.4	-42.4	22.7	0.00e+00	92	41	0	342884352	56	6011
2026-01-22 02:34:24.45	243.08	13.26	-41.5	-42.5	22.6	0.00e+00	90	41	0	344981504	56	6057
2026-01-22 02:34:25.46	243.25	13.32	-41.6	-42.6	22.6	0.00e+00	92	41	0	347078656	56	6164
2026-01-22 02:34:26.47	243.42	13.37	-41.5	-42.5	22.8	0.00e+00	92	41	0	348127232	56	6085
2026-01-22 02:34:27.48	243.59	13.43	-41.5	-42.5	22.8	0.00e+00	92	41	0	350224384	56	6088
2026-01-22 02:34:28.48	243.76	13.48	-41.5	-42.5	22.9	0.00e+00	92	41	0	352321536	56	6064
2026-01-22 02:34:29.49	243.93	13.54	-41.4	-42.4	22.8	0.00e+00	91	41	0	354418688	56	6019
2026-01-22 02:34:30.50	244.11	13.59	-41.4	-42.4	22.9	0.00e+00	92	41	0	356515840	56	5978
2026-01-22 02:34:31.51	244.28	13.64	-41.1	-42.1	23.2	0.00e+00	92	41	0	357564416	56	5797
2026-01-22 02:34:32.52	244.46	13.70	-41.0	-42.0	23.2	0.00e+00	11	41	0	359661568	56	5719
2026-01-22 02:34:33.53	244.63	13.75	-40.8	-41.7	23.5	0.00e+00	91	41	0	361758720	56	5551
2026-01-22 02:34:34.54	244.81	13.81	-40.8	-41.7	23.4	0.00e+00	91	41	0	363855872	56	5560
2026-01-22 02:34:35.55	244.98	13.86	-40.8	-41.7	23.2	0.00e+00	91	41	0	365953024	56	5543
2026-01-22 02:34:36.56	245.16	13.91	-40.7	-41.6	23.3	0.00e+00	91	41	0	367001600	56	5498
2026-01-22 02:34:37.57	245.34	13.97	-40.8	-41.7	23.3	0.00e+00	92	41	0	369098752	54	6210
2026-01-22 02:34:38.58	245.52	14.02	-40.7	-41.6	23.4	0.00e+00	91	41	0	371195904	54	6171
2026-01-22 02:34:39.59	245.70	14.07	-40.6	-41.5	23.4	0.00e+00	30	41	0	373293056	54	6079
2026-01-22 02:34:40.60	245.88	14.12	-40.8	-41.7	23.5	0.00e+00	92	41	0	375390208	54	6192
2026-01-22 02:34:41.61	246.06	14.18	-41.1	-42.0	23.1	0.00e+00	92	41	0	376438784	54	6460
2026-01-22 02:34:42.62	246.24	14.23	-41.0	-41.9	23.2	0.00e+00	91	41	0	378535936	54	6359
2026-01-22 02:34:43.63	246.42	14.28	-40.8	-41.7	23.4	0.00e+00	92	41	0	380633088	54	6219
2026-01-22 02:34:44.64	246.60	14.33	-40.7	-41.6	23.3	0.00e+00	91	41	0	382730240	54	6170
2026-01-22 02:34:45.66	246.78	14.39	-40.6	-41.6	23.4	0.00e+00	92	41	0	384827392	54	6120
2026-01-22 02:34:46.66	246.97	14.44	-40.5	-41.4	23.4	0.00e+00	52	41	0	385875968	54	6010
2026-01-22 02:34:47.67	247.15	14.49	-40.6	-41.5	23.4	0.00e+00	90	41	0	387973120	54	6054
2026-01-22 02:34:48.68	247.33	14.54	-40.5	-41.4	23.5	0.00e+00	89	41	0	390070272	54	5993
2026-01-22 02:34:49.69	247.52	14.59	-40.4	-41.3	23.5	0.00e+00	92	41	0	392167424	54	5908
2026-01-22 02:34:50.70	247.71	14.64	-40.6	-41.5	23.2	0.00e+00	92	41	0	394264576	54	6080
2026-01-22 02:34:51.71	247.89	14.70	-40.8	-41.8	23.2	0.00e+00	90	41	0	395313152	54	6254
2026-01-22 02:34:52.72	248.08	14.75	-40.8	-41.8	23.3	0.00e+00	90	41	0	397410304	54	6256
2026-01-22 02:34:53.73	248.27	14.80	-41.0	-42.0	22.5	0.00e+00	44	41	0	399507456	54	6404
2026-01-22 02:34:54.74	248.45	14.85	-41.1	-42.1	22.9	0.00e+00	92	41	0	401604608	54	6471
2026-01-22 02:34:55.75	248.64	14.90	-41.2	-42.2	22.8	0.00e+00	10	41	0	403701760	54	6558
2026-01-22 02:34:56.76	248.83	14.95	-40.9	-41.9	23.0	0.00e+00	92	41	0	404750336	54	6356
2026-01-22 02:34:57.77	249.02	15.00	-41.0	-42.0	22.9	0.00e+00	90	41	0	406847488	54	6405
2026-01-22 02:34:58.78	249.21	15.05	-41.0	-41.9	22.9	0.00e+00	92	41	0	408944640	54	6383
2026-01-22 02:34:59.79	249.41	15.10	-40.8	-41.8	23.0	0.00e+00	92	41	0	411041792	54	6272
2026-01-22 02:35:00.80	249.60	15.15	-40.9	-41.9	23.0	0.00e+00	92	41	0	413138944	54	6326
2026-01-22 02:35:01.81	249.79	15.20	-40.9	-41.9	22.9	0.00e+00	92	41	0	415236096	54	6353
2026-01-22 02:35:02.82	249.98	15.24	-41.1	-42.1	22.7	0.00e+00	27	41	0	416284672	54	6483
2026-01-22 02:35:03.83	250.18	15.29	-41.2	-42.2	22.5	0.00e+00	92	41	0	418381824	54	6595
2026-01-22 02:35:04.84	250.37	15.34	-41.3	-42.3	22.6	0.00e+00	92	41	0	420478976	54	6647
2026-01-22 02:35:05.85	250.57	15.39	-41.4	-42.4	22.5	0.00e+00	92	41	0	422576128	54	6748
2026-01-22 02:35:06.86	250.76	15.44	-42.0	-43.1	22.2	0.00e+00	92	41	0	424673280	56	6469
2026-01-22 02:35:07.87	250.96	15.49	-42.0	-43.1	22.2	0.00e+00	7	41	0	425721856	56	6468
2026-01-22 02:35:08.88	251.16	15.53	-41.9	-43.0	22.3	0.00e+00	92	41	0	427819008	56	6414
2026-01-22 02:35:09.89	251.35	15.58	-42.0	-43.0	22.1	0.00e+00	8	41	0	429916160	56	6444
2026-01-22 02:35:10.90	251.55	15.63	-41.9	-42.9	22.3	0.00e+00	92	41	0	432013312	56	6375
2026-01-22 02:35:11.91	251.75	15.68	-41.9	-42.9	22.2	0.00e+00	1	41	0	434110464	56	6358
2026-01-22 02:35:12.92	251.95	15.72	-41.9	-42.9	22.1	0.00e+00	92	41	0	435159040	56	6368
2026-01-22 02:35:13.93	252.15	15.77	-42.0	-43.0	22.1	0.00e+00	92	41	0	437256192	56	6439
2026-01-22 02:35:14.94	252.35	15.82	-41.9	-43.0	22.1	0.00e+00	92	41	0	439353344	56	6403
2026-01-22 02:35:15.95	252.55	15.86	-42.1	-43.2	21.9	0.00e+00	92	41	0	441450496	56	6552
2026-01-22 02:35:16.96	252.75	15.91	-42.4	-43.5	21.9	0.00e+00	0	41	0	443547648	56	6807
2026-01-22 02:35:17.97	252.95	15.95	-42.3	-43.4	21.8	0.00e+00	92	41	0	444596224	56	6760
2026-01-22 02:35:18.98	253.16	16.00	-42.4	-43.5	21.7	0.00e+00	0	41	0	446693376	56	6792
2026-01-22 02:35:19.99	253.36	16.04	-42.3	-43.4	21.7	0.00e+00	92	41	0	448790528	56	6751
2026-01-22 02:35:21.00	253.56	16.09	-42.4	-43.5	21.6	0.00e+00	92	41	0	450887680	56	6812
2026-01-22 02:35:22.01	253.77	16.13	-42.3	-43.4	21.7	0.00e+00	92	41	0	452984832	56	6708
2026-01-22 02:35:23.02	253.97	16.18	-42.1	-43.2	21.8	0.00e+00	92	41	0	454033408	56	6606
2026-01-22 02:35:24.02	254.18	16.22	-42.3	-43.4	21.5	0.00e+00	48	41	0	456130560	56	6709
2026-01-22 02:35:25.03	254.38	16.26	-42.3	-43.4	21.8	0.00e+00	92	41	0	458227712	56	6743
2026-01-22 02:35:26.04	254.59	16.31	-42.3	-43.4	21.7	0.00e+00	0	41	0	460324864	56	6749
2026-01-22 02:35:27.05	254.80	16.35	-42.4	-43.5	21.5	0.00e+00	92	41	0	462422016	56	6837
2026-01-22 02:35:28.06	255.01	16.39	-42.5	-43.7	21.4	0.00e+00	92	41	0	463470592	56	6965
2026-01-22 02:35:29.07	255.22	16.44	-42.7	-43.9	21.2	0.00e+00	92	41	0	465567744	56	7096
2026-01-22 02:35:30.08	255.42	16.48	-42.7	-43.9	21.1	0.00e+00	92	41	0	467664896	58	6347
2026-01-22 02:35:31.09	255.63	16.52	-42.8	-44.0	21.2	0.00e+00	3	41	0	469762048	58	6444
2026-01-22 02:35:32.10	255.85	16.56	-42.9	-44.1	21.0	0.00e+00	92	41	0	471859200	58	6487
2026-01-22 02:35:33.11	256.06	16.60	-42.7	-43.8	21.3	0.00e+00	7	41	0	472907776	58	6299
2026-01-22 02:35:34.12	256.27	16.65	-42.6	-43.7	21.3	0.00e+00	92	41	0	475004928	58	6223
2026-01-22 02:35:35.13	256.48	16.69	-42.6	-43.7	21.4	0.00e+00	16	41	0	477102080	58	6221
2026-01-22 02:35:36.14	256.69	16.73	-42.6	-43.7	21.3	0.00e+00	92	41	0	479199232	58	6221
2026-01-22 02:35:37.15	256.91	16.77	-42.5	-43.6	21.6	0.00e+00	90	41	0	481296384	58	6149
2026-01-22 02:35:38.16	257.12	16.81	-42.2	-43.3	21.7	0.00e+00	92	41	0	483393536	58	5961
2026-01-22 02:35:39.17	257.33	16.85	-42.1	-43.2	22.0	0.00e+00	92	41	0	484442112	58	5853
2026-01-22 02:35:40.17	257.55	16.89	-42.1	-43.2	21.8	0.00e+00	0	41	0	486539264	58	5873
2026-01-22 02:35:41.18	257.76	16.92	-42.3	-43.4	21.6	0.00e+00	92	41	0	488636416	58	5996
2026-01-22 02:35:42.19	257.98	16.96	-42.2	-43.3	21.7	0.00e+00	0	41	0	490733568	58	5951
2026-01-22 02:35:43.20	258.19	17.00	-42.2	-43.3	21.7	0.00e+00	92	41	0	492830720	58	5942
2026-01-22 02:35:44.21	258.41	17.04	-42.2	-43.3	21.7	0.00e+00	92	41	0	493879296	58	5949
2026-01-22 02:35:45.22	258.63	17.08	-42.2	-43.3	21.8	0.00e+00	92	41	0	495976448	58	5903
2026-01-22 02:35:46.23	258.85	17.11	-42.1	-43.2	21.9	0.00e+00	91	41	0	498073600	58	5860
2026-01-22 02:35:47.24	259.07	17.15	-42.0	-43.1	22.0	0.00e+00	0	41	0	500170752	58	5811
2026-01-22 02:35:48.24	259.28	17.19	-41.9	-42.9	22.3	0.00e+00	92	41	0	502267904	58	5681
2026-01-22 02:35:49.25	259.50	17.22	-41.8	-42.8	22.4	0.00e+00	46	41	0	503316480	56	6289
2026-01-22 02:35:50.26	259.72	17.26	-41.9	-42.9	22.4	0.00e+00	91	41	0	505413632	56	6341
2026-01-22 02:35:51.27	259.94	17.30	-41.7	-42.8	22.4	0.00e+00	10	41	0	507510784	56	6258
2026-01-22 02:35:52.28	260.16	17.33	-41.5	-42.5	22.6	0.00e+00	92	41	0	509607936	56	6066
2026-01-22 02:35:53.29	260.38	17.37	-42.1	-43.2	21.9	0.00e+00	91	41	0	511705088	56	6546
2026-01-22 02:35:54.30	260.61	17.40	-41.9	-42.9	22.2	0.00e+00	0	41	0	512753664	56	6365
2026-01-22 02:35:55.31	260.83	17.43	-41.5	-42.5	22.6	0.00e+00	91	41	0	514850816	56	6103
2026-01-22 02:35:56.32	261.05	17.47	-41.6	-42.6	22.4	0.00e+00	0	41	0	516947968	56	6168
2026-01-22 02:35:57.33	261.28	17.50	-41.4	-42.4	22.6	0.00e+00	92	41	0	519045120	56	6003
2026-01-22 02:35:58.34	261.50	17.53	-41.4	-42.4	22.6	0.00e+00	11	41	0	521142272	56	6028
2026-01-22 02:35:59.35	261.72	17.57	-41.4	-42.4	22.7	0.00e+00	92	41	0	522190848	56	6019
2026-01-22 02:36:00.36	261.95	17.60	-41.1	-42.0	22.9	0.00e+00	92	41	0	524288000	56	5756
2026-01-22 02:36:01.37	262.17	17.63	-41.3	-42.3	22.8	0.00e+00	90	41	0	526385152	56	5898
2026-01-22 02:36:02.37	262.40	17.66	-41.5	-42.5	22.6	0.00e+00	92	41	0	528482304	56	6067
2026-01-22 02:36:03.39	262.63	17.69	-41.6	-42.6	22.4	0.00e+00	3	41	0	530579456	56	6138
2026-01-22 02:36:04.39	262.85	17.72	-41.6	-42.6	22.6	0.00e+00	92	41	0	531628032	56	6137
2026-01-22 02:36:05.40	263.08	17.75	-41.8	-42.8	22.4	0.00e+00	0	41	0	533725184	56	6284
2026-01-22 02:36:06.41	263.31	17.78	-41.9	-42.9	22.2	0.00e+00	92	41	0	535822336	56	6387
2026-01-22 02:36:07.42	263.53	17.81	-42.1	-43.1	22.3	0.00e+00	90	41	0	537919488	56	6509
2026-01-22 02:36:08.43	263.76	17.84	-42.2	-43.2	22.1	0.00e+00	92	41	0	540016640	56	6602
2026-01-22 02:36:09.44	263.99	17.87	-41.9	-42.9	22.3	0.00e+00	90	41	0	541065216	56	6370
2026-01-22 02:36:10.45	264.22	17.90	-42.0	-43.1	22.2	0.00e+00	12	41	0	543162368	56	6467
2026-01-22 02:36:11.46	264.45	17.93	-41.9	-43.0	22.3	0.00e+00	90	41	0	545259520	56	6400
2026-01-22 02:36:12.47	264.68	17.96	-41.8	-42.8	22.4	0.00e+00	60	41	0	547356672	56	6267
2026-01-22 02:36:13.48	264.91	17.98	-42.0	-43.1	22.4	0.00e+00	92	41	0	549453824	56	6468
2026-01-22 02:36:14.49	265.14	18.01	-42.3	-43.3	22.1	0.00e+00	18	41	0	550502400	56	6675
2026-01-22 02:36:15.50	265.37	18.04	-42.0	-43.0	22.3	0.00e+00	92	41	0	552599552	56	6419
2026-01-22 02:36:16.51	265.61	18.06	-42.0	-43.0	22.2	0.00e+00	92	41	0	554696704	56	6422
2026-01-22 02:36:17.52	265.84	18.09	-42.1	-43.1	22.2	0.00e+00	92	41	0	556793856	56	6517
2026-01-22 02:36:18.53	266.07	18.11	-41.7	-42.6	22.6	0.00e+00	90	41	0	558891008	56	6173
2026-01-22 02:36:19.53	266.30	18.14	-41.6	-42.6	22.6	0.00e+00	0	41	0	559939584	56	6121
2026-01-22 02:36:20.54	266.53	18.16	-41.6	-42.6	22.6	0.00e+00	92	41	0	562036736	56	6143
2026-01-22 02:36:21.55	266.77	18.18	-41.6	-42.6	22.6	0.00e+00	5	41	0	564133888	56	6111
2026-01-22 02:36:22.56	267.00	18.21	-41.7	-42.7	22.4	0.00e+00	90	41	0	566231040	56	6233
2026-01-22 02:36:23.57	267.24	18.23	-41.7	-42.7	22.3	0.00e+00	92	41	0	568328192	56	6235
2026-01-22 02:36:24.58	267.47	18.25	-41.9	-42.9	22.5	0.00e+00	92	41	0	569376768	56	6380
2026-01-22 02:36:25.59	267.70	18.27	-42.1	-43.1	22.2	0.00e+00	92	41	0	571473920	56	6516
2026-01-22 02:36:26.59	267.94	18.30	-42.2	-43.2	22.2	0.00e+00	33	41	0	573571072	56	6588
2026-01-22 02:36:27.60	268.17	18.32	-42.0	-43.1	22.2	0.00e+00	92	41	0	575668224	56	6491
2026-01-22 02:36:28.61	268.41	18.34	-42.0	-43.0	22.3	0.00e+00	18	41	0	577765376	56	6434
2026-01-22 02:36:29.62	268.65	18.36	-41.9	-42.9	22.4	0.00e+00	92	41	0	579862528	56	6384
2026-01-22 02:36:30.63	268.88	18.38	-42.0	-43.0	22.3	0.00e+00	71	41	0	580911104	56	6435
2026-01-22 02:36:31.64	269.12	18.40	-41.8	-42.8	22.4	0.00e+00	92	41	0	583008256	56	6296
2026-01-22 02:36:32.65	269.36	18.41	-42.0	-43.1	22.2	0.00e+00	92	41	0	585105408	56	6479
2026-01-22 02:36:33.66	269.59	18.43	-41.6	-42.6	22.5	0.00e+00	7	41	0	587202560	56	6132
2026-01-22 02:36:34.67	269.83	18.45	-41.7	-42.7	22.4	0.00e+00	92	41	0	589299712	56	6206
2026-01-22 02:36:35.68	270.07	18.47	-41.6	-42.6	22.6	0.00e+00	63	41	0	590348288	56	6114
2026-01-22 02:36:36.69	270.31	18.49	-41.4	-42.4	22.7	0.00e+00	90	41	0	592445440	56	6011
2026-01-22 02:36:37.70	270.54	18.50	-41.4	-42.4	22.7	0.00e+00	92	41	0	594542592	56	5984
2026-01-22 02:36:38.71	270.78	18.52	-41.6	-42.6	22.6	0.00e+00	92	41	0	596639744	56	6111
2026-01-22 02:36:39.72	271.02	18.53	-41.3	-42.3	22.7	0.00e+00	92	41	0	598736896	56	5944
2026-01-22 02:36:40.73	271.26	18.55	-41.4	-42.4	22.7	0.00e+00	81	41	0	599785472	56	5982
2026-01-22 02:36:41.73	271.50	18.56	-41.5	-42.5	22.6	0.00e+00	92	41	0	601882624	56	6070
2026-01-22 02:36:42.74	271.74	18.58	-41.8	-42.9	22.2	0.00e+00	0	41	0	603979776	56	6337
2026-01-22 02:36:43.76	271.98	18.59	-42.0	-43.0	22.2	0.00e+00	92	41	0	606076928	56	6428
2026-01-22 02:36:44.77	272.22	18.60	-41.9	-43.0	22.3	0.00e+00	0	41	0	608174080	56	6406
2026-01-22 02:36:45.77	272.46	18.62	-41.9	-43.0	22.2	0.00e+00	92	41	0	609222656	56	6426
2026-01-22 02:36:46.78	272.70	18.63	-41.9	-43.0	22.2	0.00e+00	92	41	0	611319808	56	6417
2026-01-22 02:36:47.80	272.94	18.64	-42.0	-43.0	22.1	0.00e+00	92	41	0	613416960	56	6457
2026-01-22 02:36:48.80	273.18	18.65	-41.8	-42.9	22.2	0.00e+00	92	41	0	615514112	56	6341
2026-01-22 02:36:49.82	273.42	18.66	-42.0	-43.1	22.1	0.00e+00	60	41	0	617611264	56	6500
2026-01-22 02:36:50.83	273.66	18.67	-42.1	-43.1	22.0	0.00e+00	92	41	0	618659840	56	6536
2026-01-22 02:36:51.84	273.90	18.68	-42.0	-43.1	22.1	0.00e+00	0	41	0	620756992	56	6494
2026-01-22 02:36:52.85	274.14	18.69	-42.2	-43.3	22.1	0.00e+00	92	41	0	622854144	56	6645
2026-01-22 02:36:53.86	274.39	18.70	-42.2	-43.2	22.1	0.00e+00	90	41	0	624951296	56	6605
2026-01-22 02:36:54.87	274.63	18.71	-42.2	-43.2	22.1	0.00e+00	92	41	0	627048448	56	6609
2026-01-22 02:36:55.88	274.87	18.72	-42.3	-43.4	21.8	0.00e+00	92	41	0	628097024	56	6748
2026-01-22 02:36:56.89	275.11	18.72	-42.4	-43.6	21.7	0.00e+00	7	41	0	630194176	56	6849
2026-01-22 02:36:57.90	275.35	18.73	-42.5	-43.6	21.7	0.00e+00	92	41	0	632291328	56	6893
2026-01-22 02:36:58.91	275.59	18.74	-42.4	-43.5	21.7	0.00e+00	0	41	0	634388480	56	6833
2026-01-22 02:36:59.92	275.84	18.74	-42.0	-43.0	22.1	0.00e+00	92	41	0	636485632	56	6462
2026-01-22 02:37:00.93	276.08	18.75	-41.9	-43.0	22.1	0.00e+00	79	41	0	637534208	56	6398
2026-01-22 02:37:01.94	276.32	18.75	-41.9	-43.0	22.2	0.00e+00	92	41	0	639631360	56	6395
2026-01-22 02:37:02.95	276.56	18.76	-41.7	-42.7	22.3	0.00e+00	92	41	0	641728512	56	6231
2026-01-22 02:37:03.96	276.80	18.76	-42.1	-43.2	22.1	0.00e+00	11	41	0	643825664	56	6561
2026-01-22 02:37:04.97	277.05	18.76	-42.3	-43.4	21.9	0.00e+00	92	41	0	645922816	56	6700
2026-01-22 02:37:05.98	277.29	18.77	-42.5	-43.6	21.6	0.00e+00	34	41	0	648019968	56	6874
2026-01-22 02:37:06.99	277.53	18.77	-42.6	-43.8	21.5	0.00e+00	90	41	0	649068544	56	7028
2026-01-22 02:37:08.00	277.77	18.77	-42.7	-43.9	21.4	0.00e+00	0	41	0	651165696	58	6326
2026-01-22 02:37:09.01	278.02	18.77	-42.4	-43.5	21.8	0.00e+00	92	41	0	653262848	58	6085
2026-01-22 02:37:10.02	278.26	18.77	-42.3	-43.4	21.9	0.00e+00	92	41	0	655360000	58	5993
2026-01-22 02:37:11.03	278.50	18.77	-42.3	-43.4	21.9	0.00e+00	92	41	0	657457152	58	6033
2026-01-22 02:37:12.04	278.74	18.77	-42.2	-43.3	21.9	0.00e+00	92	41	0	658505728	58	5904
2026-01-22 02:37:13.04	278.98	18.77	-42.2	-43.3	21.4	0.00e+00	54	41	0	660602880	58	5901
2026-01-22 02:37:14.05	279.23	18.77	-42.1	-43.2	21.9	0.00e+00	92	41	0	662700032	58	5865
2026-01-22 02:37:15.06	279.47	18.77	-42.3	-43.4	21.6	0.00e+00	0	41	0	664797184	58	6029
2026-01-22 02:37:16.07	279.71	18.77	-42.1	-43.2	21.8	0.00e+00	92	41	0	666894336	58	5876
2026-01-22 02:37:17.08	279.95	18.76	-42.2	-43.3	21.7	0.00e+00	90	41	0	667942912	58	5928
2026-01-22 02:37:18.09	280.19	18.76	-42.2	-43.3	21.8	0.00e+00	92	41	0	670040064	58	5899
2026-01-22 02:37:19.10	280.44	18.76	-42.1	-43.2	21.8	0.00e+00	92	41	0	672137216	58	5865
2026-01-22 02:37:20.11	280.68	18.75	-42.1	-43.2	21.9	0.00e+00	7	41	0	674234368	58	5858
2026-01-22 02:37:21.12	280.92	18.75	-42.3	-43.4	21.8	0.00e+00	92	41	0	676331520	58	5966
2026-01-22 02:37:22.13	281.16	18.74	-42.4	-43.5	21.8	0.00e+00	0	41	0	677380096	58	6095
2026-01-22 02:37:23.14	281.40	18.74	-42.3	-43.4	21.9	0.00e+00	92	41	0	679477248	58	5992
2026-01-22 02:37:24.15	281.65	18.73	-42.3	-43.4	21.8	0.00e+00	80	41	0	681574400	58	5987
2026-01-22 02:37:25.15	281.89	18.72	-42.3	-43.4	21.8	0.00e+00	92	41	0	683671552	58	6002
2026-01-22 02:37:26.16	282.13	18.72	-42.0	-43.1	22.1	0.00e+00	92	41	0	685768704	58	5801
2026-01-22 02:37:27.17	282.37	18.71	-42.1	-43.2	22.0	0.00e+00	28	41	0	686817280	58	5845
2026-01-22 02:37:28.18	282.61	18.70	-41.9	-42.9	22.4	0.00e+00	90	41	0	688914432	58	5693
2026-01-22 02:37:29.19	282.85	18.69	-42.5	-43.6	21.8	0.00e+00	33	41	0	691011584	58	6125
2026-01-22 02:37:30.20	283.09	18.68	-42.2	-43.3	22.0	0.00e+00	92	41	0	693108736	58	5928
2026-01-22 02:37:31.21	283.33	18.67	-42.1	-43.2	22.0	0.00e+00	0	41	0	695205888	58	5865
2026-01-22 02:37:32.22	283.57	18.66	-41.8	-42.8	22.4	0.00e+00	92	41	0	696254464	58	5584
2026-01-22 02:37:33.23	283.81	18.65	-41.9	-42.9	22.2	0.00e+00	92	41	0	698351616	56	6361
2026-01-22 02:37:34.24	284.05	18.64	-41.7	-42.7	22.4	0.00e+00	63	41	0	700448768	56	6244
2026-01-22 02:37:35.25	284.29	18.63	-41.9	-42.9	22.3	0.00e+00	92	41	0	702545920	56	6343
2026-01-22 02:37:36.26	284.53	18.62	-41.9	-43.0	22.1	0.00e+00	0	41	0	704643072	56	6408
2026-01-22 02:37:37.27	284.77	18.60	-41.9	-43.0	22.2	0.00e+00	92	41	0	705691648	56	6416
2026-01-22 02:37:38.28	285.01	18.59	-42.1	-43.1	22.2	0.00e+00	0	41	0	707788800	56	6508
2026-01-22 02:37:39.29	285.25	18.58	-42.2	-43.2	22.1	0.00e+00	92	41	0	709885952	56	6596
2026-01-22 02:37:40.29	285.49	18.56	-42.1	-43.2	22.1	0.00e+00	91	41	0	711983104	56	6583
2026-01-22 02:37:41.30	285.73	18.55	-42.1	-43.2	22.0	0.00e+00	91	41	0	714080256	56	6540
2026-01-22 02:37:42.31	285.97	18.54	-42.2	-43.2	22.0	0.00e+00	91	41	0	716177408	56	6607
2026-01-22 02:37:43.32	286.21	18.52	-42.3	-43.4	21.9	0.00e+00	0	41	0	717225984	56	6740
2026-01-22 02:37:44.33	286.44	18.50	-42.2	-43.3	22.0	0.00e+00	92	41	0	719323136	56	6642
2026-01-22 02:37:45.34	286.68	18.49	-42.1	-43.1	22.0	0.00e+00	0	41	0	721420288	56	6522
2026-01-22 02:37:46.35	286.92	18.47	-41.7	-42.7	22.5	0.00e+00	92	41	0	723517440	56	6193
2026-01-22 02:37:47.36	287.16	18.45	-41.7	-42.7	22.4	0.00e+00	28	41	0	725614592	56	6191
2026-01-22 02:37:48.37	287.40	18.44	-41.6	-42.6	22.5	0.00e+00	91	41	0	726663168	56	6117
2026-01-22 02:37:49.38	287.63	18.42	-41.2	-42.1	22.9	0.00e+00	92	41	0	728760320	56	5805
2026-01-22 02:37:50.39	287.87	18.40	-41.2	-42.2	22.8	0.00e+00	26	41	0	730857472	56	5861
2026-01-22 02:37:51.40	288.11	18.38	-41.3	-42.3	22.7	0.00e+00	91	41	0	732954624	56	5959
2026-01-22 02:37:52.41	288.34	18.36	-41.7	-42.7	22.3	0.00e+00	58	41	0	735051776	56	6200
2026-01-22 02:37:53.43	288.58	18.34	-41.8	-42.8	22.2	0.00e+00	91	41	0	736100352	56	6278
2026-01-22 02:37:54.43	288.81	18.32	-41.7	-42.7	22.4	0.00e+00	16	41	0	738197504	56	6218
2026-01-22 02:37:55.44	289.05	18.30	-41.7	-42.7	22.4	0.00e+00	37	41	0	740294656	56	6235
2026-01-22 02:37:56.45	289.28	18.28	-41.5	-42.6	22.5	0.00e+00	91	41	0	742391808	56	6110
2026-01-22 02:37:57.47	289.52	18.26	-41.4	-42.4	22.7	0.00e+00	59	41	0	744488960	56	5999
2026-01-22 02:37:58.47	289.75	18.23	-41.5	-42.5	22.6	0.00e+00	92	41	0	745537536	56	6044
2026-01-22 02:37:59.48	289.98	18.21	-41.4	-42.4	22.4	0.00e+00	5	41	0	747634688	56	5967
2026-01-22 02:38:00.49	290.22	18.19	-41.3	-42.3	22.7	0.00e+00	92	41	0	749731840	56	5914
2026-01-22 02:38:01.50	290.45	18.16	-41.1	-42.1	23.0	0.00e+00	0	41	0	751828992	56	5762
2026-01-22 02:38:02.51	290.68	18.14	-41.0	-41.9	23.0	0.00e+00	92	41	0	753926144	56	5682
2026-01-22 02:38:03.52	290.92	18.12	-40.9	-41.8	23.2	0.00e+00	91	41	0	754974720	56	5602
2026-01-22 02:38:04.53	291.15	18.09	-40.6	-41.6	23.3	0.00e+00	92	41	0	757071872	54	6113
2026-01-22 02:38:05.54	291.38	18.07	-40.7	-41.6	23.3	0.00e+00	90	41	0	759169024	54	6147
2026-01-22 02:38:06.55	291.61	18.04	-40.6	-41.6	23.2	0.00e+00	0	41	0	761266176	54	6122
2026-01-22 02:38:07.56	291.84	18.01	-40.8	-41.7	23.2	0.00e+00	92	41	0	763363328	54	6207
2026-01-22 02:38:08.57	292.07	17.99	-40.7	-41.7	23.3	0.00e+00	33	41	0	764411904	54	6182
2026-01-22 02:38:09.58	292.30	17.96	-40.5	-41.4	23.4	0.00e+00	92	41	0	766509056	54	5991
2026-01-22 02:38:10.59	292.53	17.93	-40.4	-41.3	23.5	0.00e+00	92	41	0	768606208	54	5941
2026-01-22 02:38:11.59	292.76	17.91	-40.3	-41.2	23.5	0.00e+00	32	41	0	770703360	54	5863
2026-01-22 02:38:12.60	292.99	17.88	-40.4	-41.3	23.5	0.00e+00	92	41	0	772800512	54	5910
2026-01-22 02:38:13.61	293.22	17.85	-40.6	-41.5	23.4	0.00e+00	34	41	0	773849088	54	6081
2026-01-22 02:38:14.62	293.44	17.82	-40.8	-41.8	23.1	0.00e+00	92	41	0	775946240	54	6274
2026-01-22 02:38:15.63	293.67	17.79	-40.8	-41.8	23.2	0.00e+00	27	41	0	778043392	54	6271
2026-01-22 02:38:16.64	293.90	17.76	-41.0	-42.0	22.9	0.00e+00	92	41	0	780140544	54	6429
2026-01-22 02:38:17.65	294.12	17.73	-41.1	-42.1	23.0	0.00e+00	0	41	0	782237696	54	6509
2026-01-22 02:38:18.66	294.35	17.70	-41.0	-42.0	23.0	0.00e+00	92	41	0	784334848	54	6400
2026-01-22 02:38:19.67	294.58	17.67	-40.9	-41.9	23.0	0.00e+00	92	41	0	785383424	54	6340
2026-01-22 02:38:20.68	294.80	17.64	-40.8	-41.8	23.0	0.00e+00	92	41	0	787480576	54	6259
2026-01-22 02:38:21.69	295.03	17.61	-40.8	-41.7	23.2	0.00e+00	91	41	0	789577728	54	6229
2026-01-22 02:38:22.70	295.25	17.57	-40.5	-41.5	23.5	0.00e+00	0	41	0	791674880	54	6035
2026-01-22 02:38:23.71	295.47	17.54	-40.5	-41.4	23.5	0.00e+00	92	41	0	793772032	54	5980
2026-01-22 02:38:24.72	295.70	17.51	-40.3	-41.2	23.6	0.00e+00	12	41	0	794820608	54	5892
2026-01-22 02:38:25.73	295.92	17.48	-40.2	-41.1	23.7	0.00e+00	92	41	0	796917760	54	5801
2026-01-22 02:38:26.74	296.14	17.44	-39.9	-40.8	24.0	0.00e+00	92	41	0	799014912	54	5586
2026-01-22 02:38:27.75	296.37	17.41	-40.0	-40.9	23.9	0.00e+00	0	41	0	801112064	54	5671
2026-01-22 02:38:28.76	296.59	17.37	-39.7	-40.6	24.2	0.00e+00	90	41	0	803209216	52	6131
2026-01-22 02:38:29.76	296.81	17.34	-39.7	-40.5	24.2	0.00e+00	0	41	0	804257792	52	6090
2026-01-22 02:38:30.77	297.03	17.31	-39.7	-40.5	24.2	0.00e+00	91	41	0	806354944	52	6068
2026-01-22 02:38:31.78	297.25	17.27	-39.7	-40.6	24.1	0.00e+00	26	41	0	808452096	52	6140
2026-01-22 02:38:32.80	297.47	17.23	-39.7	-40.6	24.1	0.00e+00	92	41	0	810549248	52	6119
2026-01-22 02:38:33.81	297.69	17.20	-39.7	-40.6	24.1	0.00e+00	32	41	0	812646400	52	6120
2026-01-22 02:38:34.82	297.90	17.16	-39.8	-40.7	24.0	0.00e+00	59	41	0	813694976	52	6201
2026-01-22 02:38:35.83	298.12	17.12	-39.9	-40.8	23.9	0.00e+00	92	41	0	815792128	52	6261
2026-01-22 02:38:36.84	298.34	17.09	-40.2	-41.1	23.4	0.00e+00	2	41	0	817889280	52	6470
2026-01-22 02:38:37.85	298.56	17.05	-39.7	-40.6	24.1	0.00e+00	92	41	0	819986432	52	6142
2026-01-22 02:38:38.85	298.77	17.01	-39.8	-40.7	24.0	0.00e+00	2	41	0	822083584	52	6215
2026-01-22 02:38:39.86	298.99	16.97	-39.7	-40.5	24.1	0.00e+00	92	41	0	823132160	52	6099
2026-01-22 02:38:40.87	299.20	16.94	-39.6	-40.5	24.0	0.00e+00	0	41	0	825229312	52	6060
2026-01-22 02:38:41.88	299.42	16.90	-39.5	-40.3	24.3	0.00e+00	92	41	0	827326464	52	5919
2026-01-22 02:38:42.89	299.63	16.86	-39.6	-40.4	24.2	0.00e+00	92	41	0	829423616	52	6014
2026-01-22 02:38:43.90	299.84	16.82	-39.4	-40.3	24.3	0.00e+00	2	41	0	831520768	52	5905
2026-01-22 02:38:44.91	300.06	16.78	-39.4	-40.2	24.3	0.00e+00	92	41	0	832569344	52	5884
2026-01-22 02:38:45.92	300.27	16.74	-39.2	-40.0	24.6	0.00e+00	0	41	0	834666496	52	5731
2026-01-22 02:38:46.93	300.48	16.70	-39.4	-40.3	24.3	0.00e+00	92	41	0	836763648	52	5900
2026-01-22 02:38:47.94	300.69	16.66	-39.7	-40.5	24.2	0.00e+00	0	41	0	838860800	52	6100
2026-01-22 02:38:48.95	300.90	16.62	-39.7	-40.6	24.1	0.00e+00	92	41	0	840957952	52	6106
2026-01-22 02:38:49.96	301.11	16.58	-39.9	-40.7	23.9	0.00e+00	92	41	0	842006528	52	6226
2026-01-22 02:38:50.97	301.32	16.54	-40.0	-40.9	23.7	0.00e+00	4	41	0	844103680	52	6362
2026-01-22 02:38:51.98	301.53	16.49	-40.5	-41.4	23.4	0.00e+00	92	41	0	846200832	52	6751
2026-01-22 02:38:52.98	301.74	16.45	-40.4	-41.3	23.5	0.00e+00	27	41	0	848297984	52	6678
2026-01-22 02:38:53.99	301.95	16.41	-40.2	-41.1	23.6	0.00e+00	92	41	0	850395136	52	6526
2026-01-22 02:38:55.00	302.16	16.37	-40.3	-41.2	23.6	0.00e+00	27	41	0	852492288	52	6595
2026-01-22 02:38:56.01	302.36	16.32	-40.3	-41.2	23.5	0.00e+00	92	41	0	853540864	52	6563
2026-01-22 02:38:57.02	302.57	16.28	-40.5	-41.5	23.4	0.00e+00	0	41	0	855638016	52	6785
2026-01-22 02:38:58.03	302.77	16.24	-40.8	-41.7	23.2	0.00e+00	92	41	0	857735168	52	6994
2026-01-22 02:38:59.04	302.98	16.19	-40.8	-41.7	23.3	0.00e+00	92	41	0	859832320	54	6227
2026-01-22 02:39:00.05	303.18	16.15	-40.6	-41.6	23.3	0.00e+00	50	41	0	861929472	54	6110
2026-01-22 02:39:01.06	303.39	16.11	-40.5	-41.4	23.5	0.00e+00	92	41	0	862978048	54	5981
2026-01-22 02:39:02.07	303.59	16.06	-40.6	-41.5	23.5	0.00e+00	48	41	0	865075200	54	6052
2026-01-22 02:39:03.08	303.79	16.02	-40.3	-41.2	23.6	0.00e+00	92	41	0	867172352	54	5875
2026-01-22 02:39:04.09	304.00	15.97	-40.0	-40.9	23.8	0.00e+00	0	41	0	869269504	54	5675
2026-01-22 02:39:05.10	304.20	15.93	-40.2	-41.1	23.8	0.00e+00	92	41	0	871366656	54	5815
2026-01-22 02:39:06.11	304.40	15.88	-40.5	-41.4	23.5	0.00e+00	92	41	0	872415232	54	5986
2026-01-22 02:39:07.12	304.60	15.84	-40.6	-41.5	23.4	0.00e+00	0	41	0	874512384	54	6073
2026-01-22 02:39:08.13	304.80	15.79	-40.9	-41.9	23.0	0.00e+00	92	41	0	876609536	54	6343
2026-01-22 02:39:09.14	305.00	15.74	-41.2	-42.2	22.8	0.00e+00	0	41	0	878706688	54	6549
2026-01-22 02:39:10.15	305.20	15.70	-41.5	-42.5	22.6	0.00e+00	92	41	0	880803840	54	6789
2026-01-22 02:39:11.16	305.39	15.65	-41.7	-42.7	22.5	0.00e+00	0	41	0	881852416	54	7007
2026-01-22 02:39:12.17	305.59	15.60	-41.7	-42.7	22.5	0.00e+00	92	41	0	883949568	56	6182
2026-01-22 02:39:13.18	305.79	15.56	-42.0	-43.1	22.2	0.00e+00	92	41	0	886046720	56	6470
2026-01-22 02:39:14.19	305.98	15.51	-41.8	-42.9	22.3	0.00e+00	0	41	0	888143872	56	6330
2026-01-22 02:39:15.20	306.18	15.46	-41.9	-43.0	22.1	0.00e+00	90	41	0	890241024	56	6391
2026-01-22 02:39:16.20	306.37	15.41	-42.0	-43.1	22.0	0.00e+00	49	41	0	891289600	56	6517
2026-01-22 02:39:17.21	306.57	15.37	-41.8	-42.9	22.1	0.00e+00	91	41	0	893386752	56	6344
2026-01-22 02:39:18.22	306.76	15.32	-41.8	-42.8	22.2	0.00e+00	46	41	0	895483904	56	6289
2026-01-22 02:39:19.23	306.95	15.27	-41.8	-42.8	22.2	0.00e+00	92	41	0	897581056	56	6315
2026-01-22 02:39:20.24	307.15	15.22	-41.8	-42.8	22.1	0.00e+00	0	41	0	899678208	56	6304
2026-01-22 02:39:21.25	307.34	15.17	-41.7	-42.7	22.4	0.00e+00	69	41	0	900726784	56	6222
2026-01-22 02:39:22.26	307.53	15.12	-41.5	-42.5	22.5	0.00e+00	91	41	0	902823936	56	6078
2026-01-22 02:39:23.27	307.72	15.07	-41.4	-42.5	22.4	0.00e+00	0	41	0	904921088	56	6042
2026-01-22 02:39:24.28	307.91	15.02	-41.5	-42.5	22.5	0.00e+00	91	41	0	907018240	56	6069
2026-01-22 02:39:25.29	308.10	14.97	-41.7	-42.8	22.3	0.00e+00	0	41	0	909115392	56	6255
2026-01-22 02:39:26.30	308.29	14.93	-41.9	-43.0	22.2	0.00e+00	92	41	0	910163968	56	6419
2026-01-22 02:39:27.31	308.48	14.88	-41.9	-43.0	22.1	0.00e+00	0	41	0	912261120	56	6428
2026-01-22 02:39:28.32	308.66	14.82	-42.3	-43.4	21.6	0.00e+00	19	41	0	914358272	56	6738
2026-01-22 02:39:29.33	308.85	14.77	-42.6	-43.8	21.5	0.00e+00	92	41	0	916455424	56	7017
2026-01-22 02:39:30.34	309.04	14.72	-42.4	-43.6	21.5	0.00e+00	2	41	0	918552576	56	6860
2026-01-22 02:39:31.35	309.22	14.67	-42.3	-43.4	21.8	0.00e+00	92	41	0	920649728	56	6693
2026-01-22 02:39:32.35	309.41	14.62	-42.5	-43.6	21.5	0.00e+00	30	41	0	921698304	56	6882
2026-01-22 02:39:33.36	309.59	14.57	-42.3	-43.4	21.6	0.00e+00	92	41	0	923795456	56	6706
2026-01-22 02:39:34.37	309.77	14.52	-42.4	-43.5	21.6	0.00e+00	10	41	0	925892608	56	6838
2026-01-22 02:39:35.38	309.96	14.47	-43.1	-44.4	20.8	0.00e+00	92	41	0	927989760	58	6709
2026-01-22 02:39:36.39	310.14	14.42	-42.5	-43.7	21.6	0.00e+00	90	41	0	930086912	58	6179
2026-01-22 02:39:37.40	310.32	14.37	-42.5	-43.7	21.5	0.00e+00	50	41	0	931135488	58	6193
2026-01-22 02:39:38.41	310.50	14.32	-42.6	-43.8	21.4	0.00e+00	92	41	0	933232640	58	6298
2026-01-22 02:39:39.42	310.68	14.26	-42.2	-43.3	21.7	0.00e+00	0	41	0	935329792	58	5901
2026-01-22 02:39:40.43	310.86	14.21	-42.2	-43.3	21.9	0.00e+00	90	41	0	937426944	58	5915
2026-01-22 02:39:41.44	311.04	14.16	-42.1	-43.2	21.8	0.00e+00	48	41	0	939524096	58	5889
2026-01-22 02:39:42.45	311.22	14.11	-42.3	-43.4	21.7	0.00e+00	90	41	0	940572672	58	5980
2026-01-22 02:39:43.46	311.40	14.05	-42.2	-43.3	21.8	0.00e+00	16	41	0	942669824	58	5914
2026-01-22 02:39:44.47	311.58	14.00	-42.4	-43.6	21.6	0.00e+00	5	41	0	944766976	58	6105
2026-01-22 02:39:45.48	311.76	13.95	-42.4	-43.6	21.5	0.00e+00	91	41	0	946864128	58	6132
2026-01-22 02:39:46.49	311.93	13.90	-42.6	-43.8	21.3	0.00e+00	0	41	0	948961280	58	6295
2026-01-22 02:39:47.50	312.11	13.84	-42.5	-43.6	21.4	0.00e+00	92	41	0	950009856	58	6151
2026-01-22 02:39:48.51	312.28	13.79	-42.4	-43.5	21.6	0.00e+00	6	41	0	952107008	58	6081
2026-01-22 02:39:49.52	312.46	13.74	-42.0	-43.1	22.0	0.00e+00	92	41	0	954204160	58	5768
2026-01-22 02:39:50.53	312.63	13.68	-41.8	-42.9	22.2	0.00e+00	0	41	0	956301312	58	5663
2026-01-22 02:39:51.54	312.81	13.63	-41.3	-42.4	22.5	0.00e+00	31	41	0	958398464	56	5970
2026-01-22 02:39:52.55	312.98	13.58	-41.1	-42.1	22.8	0.00e+00	92	41	0	959447040	56	5768
2026-01-22 02:39:53.55	313.15	13.52	-41.2	-42.2	22.7	0.00e+00	0	41	0	961544192	56	5843
2026-01-22 02:39:54.56	313.32	13.47	-41.3	-42.3	22.6	0.00e+00	92	41	0	963641344	56	5903
2026-01-22 02:39:55.57	313.49	13.41	-41.2	-42.2	22.7	0.00e+00	0	41	0	965738496	56	5850
2026-01-22 02:39:56.58	313.66	13.36	-41.3	-42.3	22.6	0.00e+00	92	41	0	967835648	56	5951
2026-01-22 02:39:57.59	313.83	13.31	-41.5	-42.5	22.3	0.00e+00	62	41	0	968884224	56	6060
2026-01-22 02:39:58.61	314.00	13.25	-41.5	-42.5	22.3	0.00e+00	75	41	0	970981376	56	6047
2026-01-22 02:39:59.61	314.17	13.20	-41.6	-42.6	22.2	0.00e+00	92	41	0	973078528	56	6171
2026-01-22 02:40:00.62	314.34	13.14	-41.7	-42.7	22.1	0.00e+00	31	41	0	975175680	56	6226
2026-01-22 02:40:01.63	314.50	13.09	-41.8	-42.9	22.0	0.00e+00	92	41	0	977272832	56	6348
2026-01-22 02:40:02.64	314.67	13.03	-41.8	-42.9	22.0	0.00e+00	6	41	0	978321408	56	6336
2026-01-22 02:40:03.65	314.84	12.98	-42.1	-43.2	21.7	0.00e+00	91	41	0	980418560	56	6560
2026-01-22 02:40:04.66	315.00	12.92	-42.4	-43.5	21.4	0.00e+00	55	41	0	982515712	56	6817
2026-01-22 02:40:05.67	315.17	12.87	-42.4	-43.5	21.4	0.00e+00	92	41	0	984612864	56	6844
2026-01-22 02:40:06.68	315.33	12.81	-42.4	-43.5	21.4	0.00e+00	11	41	0	986710016	56	6827
2026-01-22 02:40:07.69	315.50	12.76	-42.0	-43.2	21.8	0.00e+00	0	41	0	988807168	56	6550
2026-01-22 02:40:08.70	315.66	12.70	-41.9	-42.9	22.0	0.00e+00	91	41	0	989855744	56	6387
2026-01-22 02:40:09.71	315.82	12.65	-41.8	-42.9	22.1	0.00e+00	7	41	0	991952896	56	6343
2026-01-22 02:40:10.72	315.98	12.59	-41.5	-42.5	22.3	0.00e+00	92	41	0	994050048	56	6098
2026-01-22 02:40:11.73	316.15	12.54	-41.3	-42.3	22.4	0.00e+00	7	41	0	996147200	56	5962
2026-01-22 02:40:12.74	316.31	12.48	-41.2	-42.2	22.7	0.00e+00	92	41	0	998244352	56	5876
2026-01-22 02:40:13.75	316.47	12.43	-40.9	-41.8	23.0	0.00e+00	0	41	0	999292928	56	5617
2026-01-22 02:40:14.76	316.63	12.37	-41.1	-42.1	22.7	0.00e+00	30	41	0	1001390080	56	5778
2026-01-22 02:40:15.77	316.79	12.32	-41.1	-42.1	22.7	0.00e+00	92	41	0	1003487232	56	5772
2026-01-22 02:40:16.78	316.94	12.26	-40.6	-41.6	23.1	0.00e+00	31	41	0	1005584384	54	6108
2026-01-22 02:40:17.79	317.10	12.20	-40.9	-41.8	22.9	0.00e+00	90	41	0	1007681536	54	6313
2026-01-22 02:40:18.80	317.26	12.15	-41.0	-41.9	22.8	0.00e+00	50	41	0	1008730112	54	6390
2026-01-22 02:40:19.81	317.42	12.09	-41.3	-42.3	22.5	0.00e+00	92	41	0	1010827264	54	6651
2026-01-22 02:40:20.82	317.57	12.04	-41.2	-42.2	22.6	0.00e+00	31	41	0	1012924416	54	6596
2026-01-22 02:40:21.83	317.73	11.98	-41.2	-42.2	22.7	0.00e+00	92	41	0	1015021568	54	6564
2026-01-22 02:40:22.84	317.88	11.92	-41.1	-42.1	22.6	0.00e+00	92	41	0	1017118720	54	6528
2026-01-22 02:40:23.85	318.04	11.87	-41.2	-42.2	22.6	0.00e+00	2	41	0	1018167296	54	6569
2026-01-22 02:40:24.86	318.19	11.81	-41.0	-41.9	22.8	0.00e+00	92	41	0	1020264448	54	6379
2026-01-22 02:40:25.87	318.34	11.75	-41.2	-42.2	22.7	0.00e+00	0	41	0	1022361600	54	6556
2026-01-22 02:40:26.88	318.50	11.70	-41.2	-42.2	22.6	0.00e+00	92	41	0	1024458752	54	6550
2026-01-22 02:40:27.88	318.65	11.64	-41.1	-42.1	22.7	0.00e+00	0	41	0	1026555904	54	6508
2026-01-22 02:40:28.90	318.80	11.58	-41.3	-42.3	22.5	0.00e+00	90	41	0	1027604480	54	6658
2026-01-22 02:40:29.91	318.95	11.53	-41.4	-42.4	22.4	0.00e+00	92	41	0	1029701632	54	6752
2026-01-22 02:40:30.92	319.10	11.47	-41.4	-42.4	22.3	0.00e+00	0	41	0	1031798784	54	6736
2026-01-22 02:40:31.93	319.25	11.42	-41.3	-42.4	22.3	0.00e+00	91	41	0	1033895936	54	6713
2026-01-22 02:40:32.94	319.40	11.36	-41.3	-42.3	22.5	0.00e+00	0	41	0	1035993088	54	6631
2026-01-22 02:40:33.95	319.55	11.30	-41.1	-42.1	22.6	0.00e+00	91	41	0	1037041664	54	6496
2026-01-22 02:40:34.96	319.70	11.25	-40.7	-41.7	23.0	0.00e+00	0	41	0	1039138816	54	6195
2026-01-22 02:40:35.97	319.85	11.19	-41.0	-41.9	22.9	0.00e+00	90	41	0	1041235968	54	6379
2026-01-22 02:40:36.98	319.99	11.13	-40.9	-41.9	22.8	0.00e+00	0	41	0	1043333120	54	6326
2026-01-22 02:40:37.99	320.14	11.07	-40.8	-41.8	22.9	0.00e+00	51	41	0	1045430272	54	6248
2026-01-22 02:40:39.00	320.29	11.02	-40.9	-41.9	22.8	0.00e+00	92	41	0	1046478848	54	6340
2026-01-22 02:40:40.01	320.43	10.96	-41.0	-42.0	22.7	0.00e+00	30	41	0	1048576000	54	6434
2026-01-22 02:40:41.02	320.58	10.90	-41.1	-42.1	22.6	0.00e+00	92	41	0	1050673152	54	6517
2026-01-22 02:40:42.03	320.72	10.85	-41.5	-42.5	22.3	0.00e+00	53	41	0	1052770304	54	6814
2026-01-22 02:40:43.04	320.86	10.79	-41.3	-42.4	22.4	0.00e+00	92	41	0	1054867456	54	6701
2026-01-22 02:40:44.05	321.01	10.73	-41.3	-42.4	22.4	0.00e+00	0	41	0	1056964608	54	6712
2026-01-22 02:40:45.06	321.15	10.68	-41.4	-42.5	22.3	0.00e+00	92	41	0	1058013184	54	6798
2026-01-22 02:40:46.07	321.29	10.62	-41.3	-42.3	22.4	0.00e+00	92	41	0	1060110336	54	6680
2026-01-22 02:40:47.08	321.43	10.56	-41.3	-42.4	22.5	0.00e+00	0	41	0	1062207488	54	6702
2026-01-22 02:40:48.09	321.58	10.50	-41.6	-42.6	22.0	0.00e+00	92	41	0	1064304640	54	6897
2026-01-22 02:40:49.10	321.72	10.45	-41.2	-42.2	22.7	0.00e+00	0	41	0	1066401792	56	5870
2026-01-22 02:40:50.11	321.86	10.39	-41.4	-42.4	22.6	0.00e+00	92	41	0	1067450368	56	5997
2026-01-22 02:40:51.12	322.00	10.33	-41.5	-42.5	22.3	0.00e+00	0	41	0	1069547520	56	6083
2026-01-22 02:40:52.13	322.14	10.28	-41.4	-42.4	22.5	0.00e+00	68	41	0	1071644672	56	6009
2026-01-22 02:40:53.14	322.27	10.22	-41.5	-42.5	22.4	0.00e+00	0	41	0	1073741824	56	6056
2026-01-22 02:40:54.15	322.41	10.16	-41.5	-42.6	22.3	0.00e+00	31	41	0	1075838976	56	6130
2026-01-22 02:40:55.16	322.55	10.10	-42.0	-43.1	21.9	0.00e+00	92	41	0	1076887552	56	6518
2026-01-22 02:40:56.17	322.69	10.05	-42.2	-43.3	21.7	0.00e+00	0	41	0	1078984704	56	6674
2026-01-22 02:40:57.18	322.82	9.99	-42.3	-43.5	21.5	0.00e+00	92	41	0	1081081856	56	6782
2026-01-22 02:40:58.19	322.96	9.93	-42.5	-43.7	21.2	0.00e+00	0	41	0	1083179008	56	6974
2026-01-22 02:40:59.20	323.09	9.88	-42.0	-43.1	21.9	0.00e+00	0	41	0	1085276160	56	6483
2026-01-22 02:41:00.21	323.23	9.82	-41.7	-42.7	22.2	0.00e+00	0	41	0	1086324736	56	6221
2026-01-22 02:41:01.21	323.36	9.76	-41.7	-42.8	22.1	0.00e+00	31	41	0	1088421888	56	6259
2026-01-22 02:41:02.22	323.50	9.71	-41.3	-42.3	22.6	0.00e+00	92	41	0	1090519040	56	5932
2026-01-22 02:41:03.23	323.63	9.65	-41.4	-42.4	21.9	0.00e+00	52	41	0	1092616192	56	6032
2026-01-22 02:41:04.24	323.76	9.59	-41.6	-42.6	22.4	0.00e+00	92	41	0	1094713344	56	6173
2026-01-22 02:41:05.25	323.89	9.53	-41.7	-42.7	22.1	0.00e+00	52	41	0	1095761920	56	6211
2026-01-22 02:41:06.26	324.03	9.48	-41.5	-42.5	22.5	0.00e+00	0	41	0	1097859072	56	6064
2026-01-22 02:41:07.27	324.16	9.42	-41.6	-42.7	22.3	0.00e+00	0	41	0	1099956224	56	6187
2026-01-22 02:41:08.28	324.29	9.36	-41.5	-42.6	22.3	0.00e+00	51	41	0	1102053376	56	6120
2026-01-22 02:41:09.29	324.42	9.30	-42.2	-43.3	21.6	0.00e+00	92	41	0	1104150528	56	6658
2026-01-22 02:41:10.30	324.55	9.25	-42.5	-43.6	21.2	0.00e+00	0	41	0	1105199104	56	6922
2026-01-22 02:41:11.31	324.68	9.19	-42.3	-43.4	21.5	0.00e+00	92	41	0	1107296256	58	5998
2026-01-22 02:41:12.32	324.81	9.13	-42.5	-43.6	21.4	0.00e+00	0	41	0	1109393408	58	6168
2026-01-22 02:41:13.32	324.94	9.08	-42.1	-43.2	21.7	0.00e+00	30	41	0	1111490560	58	5894
2026-01-22 02:41:14.33	325.06	9.02	-42.0	-43.2	21.7	0.00e+00	2	41	0	1113587712	58	5839
2026-01-22 02:41:15.34	325.19	8.96	-42.0	-43.1	21.7	0.00e+00	0	41	0	1114636288	58	5819
2026-01-22 02:41:16.35	325.32	8.91	-42.2	-43.3	21.5	0.00e+00	0	41	0	1116733440	58	5962
2026-01-22 02:41:17.36	325.44	8.85	-42.0	-43.2	21.8	0.00e+00	29	41	0	1118830592	58	5830
2026-01-22 02:41:18.37	325.57	8.79	-42.2	-43.3	21.6	0.00e+00	91	41	0	1120927744	58	5938
2026-01-22 02:41:19.38	325.70	8.73	-42.3	-43.4	21.5	0.00e+00	0	41	0	1123024896	58	6005
2026-01-22 02:41:20.39	325.82	8.68	-42.5	-43.7	21.2	0.00e+00	92	41	0	1125122048	58	6176
2026-01-22 02:41:21.40	325.95	8.62	-42.5	-43.7	21.1	0.00e+00	55	41	0	1126170624	58	6220
2026-01-22 02:41:22.40	326.07	8.56	-42.6	-43.8	21.0	0.00e+00	0	41	0	1128267776	58	6292
2026-01-22 02:41:23.41	326.19	8.51	-42.7	-43.9	21.0	0.00e+00	0	41	0	1130364928	58	6351
2026-01-22 02:41:24.42	326.32	8.45	-42.9	-44.2	20.9	0.00e+00	53	41	0	1132462080	58	6541
2026-01-22 02:41:25.43	326.44	8.39	-42.6	-43.8	20.9	0.00e+00	92	41	0	1133510656	58	6307
2026-01-22 02:41:26.44	326.56	8.34	-42.8	-44.0	20.8	0.00e+00	54	41	0	1135607808	58	6449
2026-01-22 02:41:27.45	326.68	8.28	-43.3	-44.7	20.4	0.00e+00	92	41	0	1137704960	58	6956
2026-01-22 02:41:28.46	326.80	8.22	-42.5	-43.7	21.2	0.00e+00	53	41	0	1139802112	58	6213
2026-01-22 02:41:29.47	326.93	8.16	-42.3	-43.5	21.4	0.00e+00	5	41	0	1141899264	58	6041
2026-01-22 02:41:30.48	327.05	8.11	-42.8	-44.0	20.9	0.00e+00	6	41	0	1142947840	58	6429
2026-01-22 02:41:31.49	327.17	8.05	-42.7	-43.9	21.0	0.00e+00	5	41	0	1145044992	58	6334
2026-01-22 02:41:32.50	327.29	7.99	-42.8	-44.0	20.9	0.00e+00	92	41	0	1147142144	58	6448
2026-01-22 02:41:33.51	327.40	7.94	-42.9	-44.1	20.7	0.00e+00	0	41	0	1149239296	58	6521
2026-01-22 02:41:34.52	327.52	7.88	-43.0	-44.3	20.5	0.00e+00	90	41	0	1151336448	58	6634
2026-01-22 02:41:35.53	327.64	7.82	-42.6	-43.8	21.0	0.00e+00	0	41	0	1153433600	58	6298
2026-01-22 02:41:36.54	327.76	7.77	-42.8	-44.1	20.7	0.00e+00	27	41	0	1154482176	58	6476
2026-01-22 02:41:37.55	327.88	7.71	-42.9	-44.2	20.6	0.00e+00	0	41	0	1156579328	58	6580
2026-01-22 02:41:38.56	327.99	7.65	-42.9	-44.2	20.7	0.00e+00	0	41	0	1158676480	58	6544
2026-01-22 02:41:39.57	328.11	7.60	-43.2	-44.6	20.3	0.00e+00	0	41	0	1160773632	58	6850
2026-01-22 02:41:40.58	328.23	7.54	-43.0	-44.4	20.5	0.00e+00	26	41	0	1162870784	58	6705
2026-01-22 02:41:41.59	328.34	7.48	-43.2	-44.5	20.2	0.00e+00	91	41	0	1163919360	58	6803
2026-01-22 02:41:42.60	328.46	7.43	-42.9	-44.1	20.5	0.00e+00	60	41	0	1166016512	58	6534
2026-01-22 02:41:43.61	328.57	7.37	-42.8	-44.1	20.7	0.00e+00	92	41	0	1168113664	58	6479
2026-01-22 02:41:44.62	328.69	7.31	-43.1	-44.3	20.7	0.00e+00	58	41	0	1170210816	58	6672
2026-01-22 02:41:45.63	328.80	7.26	-43.0	-44.3	20.6	0.00e+00	0	41	0	1172307968	58	6626
2026-01-22 02:41:46.64	328.91	7.20	-42.8	-44.0	20.7	0.00e+00	77	41	0	1173356544	58	6462
2026-01-22 02:41:47.65	329.03	7.14	-43.1	-44.4	20.3	0.00e+00	5	41	0	1175453696	58	6759
2026-01-22 02:41:48.66	329.14	7.09	-42.9	-44.2	20.4	0.00e+00	92	41	0	1177550848	58	6577
2026-01-22 02:41:49.67	329.25	7.03	-43.0	-44.3	20.5	0.00e+00	6	41	0	1179648000	58	6660
2026-01-22 02:41:50.68	329.36	6.98	-43.9	-45.3	19.6	0.00e+00	92	41	0	1181745152	60	6668
2026-01-22 02:41:51.68	329.47	6.92	-43.1	-44.5	20.4	0.00e+00	6	41	0	1182793728	60	6039
2026-01-22 02:41:52.69	329.59	6.86	-43.1	-44.4	20.4	0.00e+00	6	41	0	1184890880	60	6021
2026-01-22 02:41:53.70	329.70	6.81	-43.4	-44.8	20.2	0.00e+00	6	41	0	1186988032	60	6268
