passes_logs/2026/01/22/R4.6S_Anadyr/R4.6S_Anadyr__20260122_191255_SUOMI_NPP_rec.log

#Pass ID: 20260122_191255_SUOMI NPP
#Satellite: SUOMI NPP
#Configuration: NPP
#almurnet v.1.7.20251203
#Start time: 2026-01-22 19:12:55

#Version: 2.2.20231116
#Station: R4.6S_Anadyr
#Location: 177.4865 lon 64.73178 lat
#TLE: 1 37849U 11061A   26021.51818991  .00000201  00000+0  11636-3 0  9995
#TLE: 2 37849  98.7819 323.5108 0002300  52.3548 307.7836 14.19527793737637

#Time	Az	El	Level	Level2	SNR	BER	BlckErr	Temp	State	Recorded	gain1	gain2
2026-01-22 19:12:55.78	49.08	0.04	-51.2	-62.8	3.5	8.46e-01	0	38	0	0	60	49703
2026-01-22 19:12:56.78	49.00	0.09	-51.3	-66.5	3.6	1.51e+00	0	40	104	0	60	76570
2026-01-22 19:12:57.79	48.93	0.14	-51.2	-66.4	3.6	1.51e+00	0	40	104	0	60	75319
2026-01-22 19:12:58.80	48.85	0.19	-51.2	-66.4	3.6	1.51e+00	0	40	104	0	60	75684
2026-01-22 19:12:59.81	48.77	0.24	-51.2	-66.4	3.6	1.51e+00	0	40	104	0	60	75639
2026-01-22 19:13:00.82	48.70	0.28	-51.2	-66.5	3.6	1.51e+00	0	40	104	0	60	76045
2026-01-22 19:13:01.83	48.62	0.33	-51.2	-66.4	3.6	1.51e+00	0	40	104	0	60	75272
2026-01-22 19:13:02.84	48.54	0.38	-51.2	-66.4	3.6	1.51e+00	0	40	104	0	60	75102
2026-01-22 19:13:03.85	48.47	0.43	-51.1	-66.4	3.6	1.51e+00	0	40	104	0	60	75436
2026-01-22 19:13:04.86	48.39	0.48	-51.2	-66.4	3.6	1.51e+00	0	40	104	0	60	75207
2026-01-22 19:13:05.87	48.31	0.53	-51.1	-66.3	3.6	1.51e+00	0	40	104	0	60	74820
2026-01-22 19:13:06.88	48.23	0.58	-51.1	-66.3	3.6	1.51e+00	0	40	104	0	60	74272
2026-01-22 19:13:07.89	48.15	0.63	-51.0	-66.3	3.6	1.51e+00	0	40	104	0	60	74512
2026-01-22 19:13:08.90	48.07	0.68	-51.0	-66.3	3.6	1.51e+00	0	40	104	0	60	74472
2026-01-22 19:13:09.91	48.00	0.73	-50.9	-66.2	3.6	1.51e+00	0	40	104	0	60	74119
2026-01-22 19:13:10.92	47.92	0.78	-51.0	-66.2	3.6	1.51e+00	0	40	104	0	60	74022
2026-01-22 19:13:11.93	47.84	0.83	-51.0	-66.2	3.6	1.51e+00	0	40	104	0	60	73528
2026-01-22 19:13:12.94	47.76	0.88	-50.9	-66.2	3.6	1.51e+00	0	40	104	0	60	73459
2026-01-22 19:13:13.95	47.68	0.93	-50.9	-66.1	3.6	1.51e+00	0	40	104	0	60	72733
2026-01-22 19:13:14.96	47.60	0.98	-50.8	-66.1	3.6	1.51e+00	0	40	104	0	60	72548
2026-01-22 19:13:15.97	47.52	1.03	-50.8	-66.0	3.6	1.51e+00	0	40	104	0	60	72432
2026-01-22 19:13:16.98	47.43	1.08	-50.7	-65.9	3.6	1.51e+00	0	40	104	0	60	71459
2026-01-22 19:13:17.98	47.35	1.13	-50.6	-65.9	3.5	1.51e+00	0	40	104	0	60	70955
2026-01-22 19:13:18.99	47.27	1.18	-50.5	-65.7	3.6	1.51e+00	0	40	104	0	60	69418
2026-01-22 19:13:20.00	47.19	1.23	-50.2	-65.5	3.6	1.51e+00	0	40	104	0	60	67749
2026-01-22 19:13:21.01	47.11	1.27	-50.0	-65.2	3.6	1.51e+00	0	40	104	0	60	65666
2026-01-22 19:13:22.02	47.03	1.32	-49.5	-64.7	3.6	1.51e+00	0	40	104	0	60	61961
2026-01-22 19:13:23.03	46.94	1.37	-49.5	-64.6	3.6	1.51e+00	0	40	104	0	60	61691
2026-01-22 19:13:24.04	46.86	1.42	-49.5	-64.7	3.6	1.51e+00	0	40	104	0	60	62166
2026-01-22 19:13:25.05	46.78	1.47	-49.5	-64.7	3.6	1.51e+00	0	40	104	0	60	62260
2026-01-22 19:13:26.06	46.69	1.52	-49.5	-64.7	3.6	1.51e+00	0	40	104	0	60	61823
2026-01-22 19:13:27.07	46.61	1.57	-49.5	-64.6	3.6	1.51e+00	0	40	104	0	60	61658
2026-01-22 19:13:28.08	46.53	1.62	-49.5	-64.7	3.6	1.51e+00	0	41	104	0	60	61926
2026-01-22 19:13:29.09	46.44	1.67	-49.5	-64.6	3.6	1.51e+00	0	40	104	0	60	61721
2026-01-22 19:13:30.10	46.36	1.72	-49.5	-64.7	3.6	1.51e+00	0	40	104	0	60	61864
2026-01-22 19:13:31.11	46.27	1.77	-49.5	-64.6	3.6	1.51e+00	0	40	104	0	60	61727
2026-01-22 19:13:32.11	46.19	1.82	-49.5	-64.6	3.6	1.51e+00	0	40	104	0	60	61708
2026-01-22 19:13:33.12	46.10	1.87	-49.5	-64.7	3.6	1.51e+00	0	41	104	0	60	61848
2026-01-22 19:13:34.13	46.02	1.92	-49.5	-64.6	3.6	1.51e+00	0	41	104	0	60	61546
2026-01-22 19:13:35.14	45.93	1.98	-49.5	-64.7	3.6	1.51e+00	0	41	104	0	60	62011
2026-01-22 19:13:36.15	45.84	2.03	-49.5	-64.6	3.6	1.51e+00	0	40	104	0	60	61591
2026-01-22 19:13:37.16	45.76	2.08	-49.5	-64.6	3.6	1.51e+00	0	41	104	0	60	61560
2026-01-22 19:13:38.17	45.67	2.13	-49.5	-64.5	3.6	1.51e+00	0	41	104	0	60	61013
2026-01-22 19:13:39.18	45.58	2.18	-49.5	-64.5	3.6	1.51e+00	0	41	104	0	60	60340
2026-01-22 19:13:40.19	45.49	2.23	-49.5	-64.3	3.6	1.51e+00	0	41	104	0	60	59613
2026-01-22 19:13:41.20	45.41	2.28	-49.4	-64.3	3.6	1.51e+00	0	41	104	0	60	59238
2026-01-22 19:13:42.21	45.32	2.33	-49.5	-64.5	3.6	1.51e+00	0	41	104	0	60	60574
2026-01-22 19:13:43.21	45.23	2.38	-49.5	-64.6	3.6	1.51e+00	0	41	104	0	60	61094
2026-01-22 19:13:44.23	45.14	2.43	-49.5	-64.7	3.6	1.51e+00	0	41	104	0	60	61998
2026-01-22 19:13:45.23	45.05	2.48	-49.4	-64.6	3.6	1.51e+00	0	41	104	0	60	61197
2026-01-22 19:13:46.24	44.96	2.53	-49.5	-64.6	3.6	1.51e+00	0	41	104	0	60	61190
2026-01-22 19:13:47.25	44.87	2.58	-49.5	-64.6	3.6	1.51e+00	0	41	104	0	60	61104
2026-01-22 19:13:48.26	44.78	2.63	-49.5	-64.7	3.6	1.51e+00	0	41	104	0	60	61832
2026-01-22 19:13:49.27	44.69	2.68	-49.5	-64.5	3.6	1.51e+00	0	41	104	0	60	60927
2026-01-22 19:13:50.28	44.60	2.73	-49.4	-64.2	3.6	1.51e+00	0	41	104	0	60	58289
2026-01-22 19:13:51.29	44.51	2.78	-49.4	-63.6	3.6	1.51e+00	0	41	104	0	60	54738
2026-01-22 19:13:52.30	44.42	2.83	-49.4	-63.6	3.6	1.51e+00	0	41	104	0	60	54841
2026-01-22 19:13:53.31	44.32	2.88	-49.5	-64.3	3.6	1.51e+00	0	41	104	0	60	59164
2026-01-22 19:13:54.32	44.23	2.93	-49.4	-63.8	3.6	1.51e+00	0	41	104	0	60	55916
2026-01-22 19:13:55.34	44.14	2.99	-49.2	-60.4	4.5	1.50e+00	92	41	104	0	60	37950
2026-01-22 19:13:56.35	44.05	3.04	-49.2	-58.7	4.0	3.20e-01	4	41	0	1048576	60	31129
2026-01-22 19:13:57.35	43.95	3.09	-49.7	-64.2	3.6	1.51e+00	0	41	104	1048576	60	58687
2026-01-22 19:13:58.36	43.86	3.14	-48.0	-53.5	5.3	1.50e+00	0	41	104	1048576	60	17182
2026-01-22 19:13:59.37	43.77	3.19	-49.4	-63.8	3.6	1.50e+00	0	41	104	1048576	60	56210
2026-01-22 19:14:00.38	43.67	3.24	-49.5	-63.1	3.6	1.51e+00	0	41	104	1048576	60	51903
2026-01-22 19:14:01.39	43.58	3.29	-47.1	-51.1	12.3	1.26e+00	70	41	104	1048576	60	12959
2026-01-22 19:14:02.40	43.48	3.34	-47.2	-51.1	12.0	2.89e-04	92	41	0	2097152	60	12914
2026-01-22 19:14:03.41	43.39	3.39	-46.7	-50.1	13.8	1.11e-04	0	41	0	4194304	60	11508
2026-01-22 19:14:04.42	43.29	3.44	-46.7	-50.0	13.2	5.30e-06	25	41	0	5242880	60	11486
2026-01-22 19:14:05.43	43.20	3.49	-46.7	-50.0	14.1	2.82e-05	0	41	0	7340032	60	11463
2026-01-22 19:14:06.43	43.10	3.54	-46.2	-49.2	14.3	7.00e-07	91	41	0	9437184	60	10465
2026-01-22 19:14:07.45	43.00	3.60	-46.3	-49.4	14.5	2.20e-06	0	41	0	11534336	60	10617
2026-01-22 19:14:08.46	42.91	3.65	-45.8	-48.5	15.0	0.00e+00	80	41	0	13631488	60	9640
2026-01-22 19:14:09.46	42.81	3.70	-45.9	-48.6	15.3	0.00e+00	90	41	0	14680064	60	9729
2026-01-22 19:14:10.47	42.71	3.75	-45.7	-48.4	15.2	0.00e+00	0	41	0	16777216	60	9464
2026-01-22 19:14:11.48	42.61	3.80	-46.0	-48.9	14.9	0.00e+00	74	41	0	18874368	60	10033
2026-01-22 19:14:12.49	42.52	3.85	-45.1	-47.3	16.5	0.00e+00	0	41	0	20971520	60	8416
2026-01-22 19:14:13.51	42.42	3.90	-45.1	-47.5	16.5	0.00e+00	55	41	0	23068672	60	8541
2026-01-22 19:14:14.51	42.32	3.95	-45.3	-47.6	16.2	0.00e+00	0	41	0	24117248	60	8714
2026-01-22 19:14:15.53	42.22	4.00	-44.8	-47.0	16.8	0.00e+00	92	41	0	26214400	60	8138
2026-01-22 19:14:16.54	42.12	4.06	-44.6	-46.7	17.1	0.00e+00	0	41	0	28311552	60	7789
2026-01-22 19:14:17.54	42.02	4.11	-44.1	-45.9	18.0	0.00e+00	0	41	0	30408704	60	7144
2026-01-22 19:14:18.55	41.92	4.16	-44.6	-46.6	17.3	0.00e+00	69	41	0	32505856	60	7739
2026-01-22 19:14:19.56	41.82	4.21	-44.4	-46.4	17.4	0.00e+00	0	41	0	33554432	60	7535
2026-01-22 19:14:20.57	41.72	4.26	-44.5	-46.4	17.4	0.00e+00	92	41	0	35651584	60	7589
2026-01-22 19:14:21.58	41.61	4.31	-44.6	-46.6	17.3	0.00e+00	0	41	0	37748736	60	7725
2026-01-22 19:14:22.59	41.51	4.36	-44.6	-46.6	17.3	0.00e+00	90	41	0	39845888	60	7747
2026-01-22 19:14:23.60	41.41	4.41	-44.5	-46.5	17.6	0.00e+00	44	41	0	41943040	60	7613
2026-01-22 19:14:24.61	41.31	4.46	-44.3	-46.3	17.6	0.00e+00	0	41	0	42991616	60	7439
2026-01-22 19:14:25.62	41.20	4.52	-44.5	-46.4	17.5	0.00e+00	91	41	0	45088768	60	7590
2026-01-22 19:14:26.63	41.10	4.57	-44.4	-46.4	17.6	0.00e+00	0	41	0	47185920	60	7553
2026-01-22 19:14:27.64	41.00	4.62	-44.5	-46.5	17.5	0.00e+00	38	41	0	49283072	60	7611
2026-01-22 19:14:28.65	40.89	4.67	-44.7	-46.8	17.1	0.00e+00	0	41	0	51380224	60	7933
2026-01-22 19:14:29.66	40.79	4.72	-44.9	-47.0	17.0	0.00e+00	90	41	0	52428800	60	8084
2026-01-22 19:14:30.67	40.68	4.77	-44.2	-46.1	17.9	0.00e+00	0	41	0	54525952	60	7280
2026-01-22 19:14:31.68	40.58	4.82	-44.6	-46.6	17.5	0.00e+00	14	41	0	56623104	60	7733
2026-01-22 19:14:32.69	40.47	4.87	-44.3	-46.2	17.8	0.00e+00	91	41	0	58720256	60	7403
2026-01-22 19:14:33.70	40.36	4.93	-44.4	-46.3	17.7	0.00e+00	0	41	0	60817408	60	7493
2026-01-22 19:14:34.71	40.26	4.98	-44.3	-46.2	17.7	0.00e+00	64	41	0	61865984	60	7422
2026-01-22 19:14:35.72	40.15	5.03	-44.4	-46.3	17.6	0.00e+00	0	41	0	63963136	60	7487
2026-01-22 19:14:36.72	40.04	5.08	-44.3	-46.2	17.8	0.00e+00	90	41	0	66060288	60	7352
2026-01-22 19:14:37.73	39.94	5.13	-44.3	-46.1	17.9	0.00e+00	0	41	0	68157440	60	7330
2026-01-22 19:14:38.74	39.83	5.18	-44.4	-46.3	17.9	0.00e+00	52	41	0	70254592	60	7444
2026-01-22 19:14:39.75	39.72	5.23	-44.2	-46.1	17.9	0.00e+00	92	41	0	72351744	60	7294
2026-01-22 19:14:40.76	39.61	5.28	-44.5	-46.4	17.7	0.00e+00	0	41	0	73400320	60	7545
2026-01-22 19:14:41.77	39.50	5.34	-44.3	-46.2	17.9	0.00e+00	39	41	0	75497472	60	7409
2026-01-22 19:14:42.78	39.39	5.39	-44.3	-46.1	17.9	0.00e+00	0	41	0	77594624	60	7335
2026-01-22 19:14:43.79	39.28	5.44	-44.4	-46.3	17.8	0.00e+00	72	41	0	79691776	60	7485
2026-01-22 19:14:44.80	39.17	5.49	-44.0	-45.8	18.3	0.00e+00	0	41	0	81788928	60	7045
2026-01-22 19:14:45.81	39.06	5.54	-44.1	-46.0	18.2	0.00e+00	92	41	0	82837504	60	7197
2026-01-22 19:14:46.82	38.95	5.59	-44.2	-46.1	17.9	0.00e+00	0	41	0	84934656	60	7297
2026-01-22 19:14:47.82	38.84	5.64	-44.1	-45.9	18.1	0.00e+00	0	41	0	87031808	60	7109
2026-01-22 19:14:48.83	38.73	5.70	-43.8	-45.5	18.7	0.00e+00	42	41	0	89128960	60	6793
2026-01-22 19:14:49.84	38.61	5.75	-43.9	-45.7	18.3	0.00e+00	0	41	0	91226112	60	6932
2026-01-22 19:14:50.85	38.50	5.80	-44.0	-45.8	18.3	0.00e+00	92	41	0	92274688	60	7020
2026-01-22 19:14:51.86	38.39	5.85	-44.0	-45.7	18.3	0.00e+00	0	41	0	94371840	60	7007
2026-01-22 19:14:52.87	38.27	5.90	-43.8	-45.4	18.5	0.00e+00	92	41	0	96468992	60	6768
2026-01-22 19:14:53.88	38.16	5.95	-43.8	-45.5	18.6	0.00e+00	0	41	0	98566144	60	6784
2026-01-22 19:14:54.89	38.05	6.00	-43.6	-45.3	19.0	0.00e+00	0	41	0	100663296	60	6624
2026-01-22 19:14:55.90	37.93	6.05	-43.5	-45.1	18.9	0.00e+00	62	41	0	101711872	60	6478
2026-01-22 19:14:56.91	37.82	6.11	-43.6	-45.2	18.9	0.00e+00	0	41	0	103809024	60	6587
2026-01-22 19:14:57.92	37.70	6.16	-43.2	-44.8	19.3	0.00e+00	69	41	0	105906176	60	6249
2026-01-22 19:14:58.93	37.58	6.21	-43.2	-44.7	19.3	0.00e+00	0	41	0	108003328	60	6207
2026-01-22 19:14:59.94	37.47	6.26	-43.1	-44.5	19.4	0.00e+00	63	41	0	110100480	60	6103
2026-01-22 19:15:00.93	37.35	6.31	-43.3	-44.8	19.2	0.00e+00	0	41	0	111149056	60	6260
2026-01-22 19:15:01.94	37.24	6.36	-43.1	-44.5	19.3	0.00e+00	0	41	0	113246208	60	6093
2026-01-22 19:15:02.95	37.12	6.41	-43.3	-44.9	19.3	0.00e+00	90	41	0	115343360	60	6342
2026-01-22 19:15:03.96	37.00	6.46	-43.0	-44.4	19.3	0.00e+00	0	41	0	117440512	60	6013
2026-01-22 19:15:04.97	36.88	6.52	-43.1	-44.5	19.6	0.00e+00	44	41	0	119537664	60	6087
2026-01-22 19:15:05.98	36.76	6.57	-42.8	-44.2	19.8	0.00e+00	0	41	0	120586240	60	5883
2026-01-22 19:15:06.99	36.64	6.62	-42.8	-44.2	19.7	0.00e+00	89	41	0	122683392	58	6588
2026-01-22 19:15:08.00	36.52	6.67	-42.9	-44.3	19.7	0.00e+00	0	41	0	124780544	58	6664
2026-01-22 19:15:09.01	36.40	6.72	-43.0	-44.4	19.7	0.00e+00	0	41	0	126877696	58	6736
2026-01-22 19:15:10.02	36.28	6.77	-42.8	-44.2	19.8	0.00e+00	91	41	0	128974848	58	6602
2026-01-22 19:15:11.03	36.16	6.82	-42.8	-44.2	19.8	0.00e+00	0	41	0	130023424	58	6592
2026-01-22 19:15:12.04	36.04	6.87	-42.9	-44.4	19.7	0.00e+00	92	41	0	132120576	58	6709
2026-01-22 19:15:13.05	35.91	6.92	-42.9	-44.4	19.5	0.00e+00	0	41	0	134217728	58	6718
2026-01-22 19:15:14.06	35.79	6.98	-43.2	-44.7	19.5	0.00e+00	0	41	0	136314880	58	6953
2026-01-22 19:15:15.07	35.67	7.03	-43.1	-44.6	19.4	0.00e+00	0	41	0	138412032	58	6904
2026-01-22 19:15:16.08	35.55	7.08	-43.1	-44.6	19.5	0.00e+00	0	41	0	139460608	58	6874
2026-01-22 19:15:17.09	35.42	7.13	-43.1	-44.6	19.6	0.00e+00	83	41	0	141557760	58	6867
2026-01-22 19:15:18.10	35.30	7.18	-43.2	-44.7	19.3	0.00e+00	0	41	0	143654912	58	6950
2026-01-22 19:15:19.11	35.17	7.23	-43.4	-44.9	19.2	0.00e+00	92	41	0	145752064	58	7162
2026-01-22 19:15:20.12	35.05	7.28	-43.3	-44.9	19.1	0.00e+00	30	41	0	147849216	58	7107
2026-01-22 19:15:21.13	34.92	7.33	-43.7	-45.4	18.7	0.00e+00	32	41	0	148897792	58	7512
2026-01-22 19:15:22.14	34.79	7.38	-43.4	-45.0	19.2	0.00e+00	0	41	0	150994944	58	7188
2026-01-22 19:15:23.15	34.67	7.43	-43.2	-44.7	19.3	0.00e+00	32	41	0	153092096	58	7000
2026-01-22 19:15:24.16	34.54	7.48	-43.4	-44.9	19.2	0.00e+00	41	41	0	155189248	58	7164
2026-01-22 19:15:25.17	34.41	7.53	-43.2	-44.7	19.4	0.00e+00	0	41	0	157286400	58	6981
2026-01-22 19:15:26.18	34.29	7.59	-43.3	-44.9	19.1	0.00e+00	92	41	0	158334976	58	7098
2026-01-22 19:15:27.19	34.16	7.64	-43.5	-45.1	19.1	0.00e+00	0	41	0	160432128	58	7316
2026-01-22 19:15:28.20	34.03	7.69	-43.1	-44.6	19.5	0.00e+00	61	41	0	162529280	58	6906
2026-01-22 19:15:29.21	33.90	7.74	-43.4	-44.9	19.2	0.00e+00	0	41	0	164626432	58	7155
2026-01-22 19:15:30.22	33.77	7.79	-43.4	-45.0	19.2	0.00e+00	0	41	0	166723584	58	7180
2026-01-22 19:15:31.23	33.64	7.84	-43.3	-44.9	19.3	0.00e+00	0	41	0	168820736	58	7094
2026-01-22 19:15:32.24	33.51	7.89	-43.2	-44.6	19.5	0.00e+00	0	41	0	169869312	58	6924
2026-01-22 19:15:33.25	33.38	7.94	-43.0	-44.4	19.6	0.00e+00	62	41	0	171966464	58	6744
2026-01-22 19:15:34.26	33.24	7.99	-42.9	-44.3	19.8	0.00e+00	0	41	0	174063616	58	6691
2026-01-22 19:15:35.27	33.11	8.04	-42.8	-44.2	19.9	0.00e+00	92	41	0	176160768	58	6563
2026-01-22 19:15:36.28	32.98	8.09	-43.0	-44.5	19.7	0.00e+00	0	41	0	178257920	58	6785
2026-01-22 19:15:37.29	32.85	8.14	-43.2	-44.6	19.5	0.00e+00	0	41	0	179306496	58	6895
2026-01-22 19:15:38.30	32.71	8.19	-43.0	-44.4	19.7	0.00e+00	44	41	0	181403648	58	6767
2026-01-22 19:15:39.31	32.58	8.24	-42.7	-44.0	20.0	0.00e+00	0	41	0	183500800	58	6460
2026-01-22 19:15:40.32	32.44	8.29	-42.7	-44.1	20.0	0.00e+00	42	41	0	185597952	58	6507
2026-01-22 19:15:41.33	32.31	8.34	-42.7	-44.1	20.0	0.00e+00	0	41	0	187695104	58	6494
2026-01-22 19:15:42.34	32.17	8.39	-42.7	-44.1	20.0	0.00e+00	92	41	0	188743680	58	6507
2026-01-22 19:15:43.35	32.04	8.44	-42.6	-43.9	20.1	0.00e+00	0	41	0	190840832	58	6356
2026-01-22 19:15:44.35	31.90	8.49	-42.8	-44.2	19.9	0.00e+00	0	41	0	192937984	58	6575
2026-01-22 19:15:45.36	31.77	8.54	-42.9	-44.3	19.9	0.00e+00	0	41	0	195035136	58	6625
2026-01-22 19:15:46.37	31.63	8.59	-43.2	-44.7	19.4	0.00e+00	0	41	0	197132288	58	6992
2026-01-22 19:15:47.38	31.49	8.64	-43.3	-44.8	19.3	0.00e+00	46	41	0	198180864	58	7057
2026-01-22 19:15:48.39	31.35	8.69	-43.2	-44.7	19.5	0.00e+00	0	41	0	200278016	58	7007
2026-01-22 19:15:49.40	31.21	8.74	-43.5	-45.0	19.2	0.00e+00	55	41	0	202375168	58	7240
2026-01-22 19:15:50.41	31.07	8.79	-43.4	-45.0	19.3	0.00e+00	0	41	0	204472320	58	7182
2026-01-22 19:15:51.42	30.93	8.84	-43.8	-45.4	18.8	0.00e+00	0	41	0	206569472	60	6749
2026-01-22 19:15:52.43	30.79	8.89	-43.6	-45.2	19.2	0.00e+00	0	41	0	207618048	60	6566
2026-01-22 19:15:53.45	30.65	8.94	-43.3	-44.8	19.5	0.00e+00	0	41	0	209715200	60	6303
2026-01-22 19:15:54.46	30.51	8.99	-43.5	-45.0	19.4	0.00e+00	34	41	0	211812352	60	6451
2026-01-22 19:15:55.47	30.37	9.04	-43.3	-44.8	19.4	0.00e+00	0	41	0	213909504	60	6256
2026-01-22 19:15:56.48	30.23	9.08	-43.3	-44.8	19.5	0.00e+00	75	41	0	216006656	60	6300
2026-01-22 19:15:57.49	30.08	9.13	-43.1	-44.6	19.7	0.00e+00	0	41	0	217055232	60	6130
2026-01-22 19:15:58.50	29.94	9.18	-43.1	-44.6	19.7	0.00e+00	0	41	0	219152384	60	6106
2026-01-22 19:15:59.51	29.80	9.23	-42.9	-44.3	19.8	0.00e+00	0	41	0	221249536	60	5956
2026-01-22 19:16:00.51	29.65	9.28	-43.0	-44.4	19.8	0.00e+00	0	41	0	223346688	60	5984
2026-01-22 19:16:01.52	29.51	9.33	-43.0	-44.4	19.8	0.00e+00	0	41	0	225443840	60	6028
2026-01-22 19:16:02.53	29.36	9.38	-42.6	-44.0	20.2	0.00e+00	0	41	0	226492416	58	6424
2026-01-22 19:16:03.54	29.22	9.43	-42.5	-43.8	20.2	0.00e+00	75	41	0	228589568	58	6276
2026-01-22 19:16:04.55	29.07	9.47	-42.5	-43.8	20.4	0.00e+00	6	41	0	230686720	58	6304
2026-01-22 19:16:05.56	28.93	9.52	-42.1	-43.3	20.9	0.00e+00	39	41	0	232783872	58	5924
2026-01-22 19:16:06.57	28.78	9.57	-42.1	-43.4	20.7	0.00e+00	0	41	0	234881024	58	6003
2026-01-22 19:16:07.58	28.63	9.62	-42.0	-43.3	20.9	0.00e+00	0	41	0	236978176	58	5929
2026-01-22 19:16:08.59	28.48	9.67	-42.1	-43.4	20.8	0.00e+00	0	41	0	238026752	58	5977
2026-01-22 19:16:09.60	28.33	9.71	-42.2	-43.5	20.6	0.00e+00	0	41	0	240123904	58	6038
2026-01-22 19:16:10.61	28.18	9.76	-42.3	-43.7	20.4	0.00e+00	92	41	0	242221056	58	6175
2026-01-22 19:16:11.61	28.04	9.81	-42.2	-43.5	20.4	0.00e+00	0	41	0	244318208	58	6053
2026-01-22 19:16:12.63	27.88	9.86	-41.9	-43.2	20.9	0.00e+00	60	41	0	246415360	58	5841
2026-01-22 19:16:13.64	27.73	9.91	-41.9	-43.1	21.0	0.00e+00	0	41	0	247463936	58	5816
2026-01-22 19:16:14.64	27.58	9.95	-41.9	-43.1	20.9	0.00e+00	0	41	0	249561088	56	6518
2026-01-22 19:16:15.65	27.43	10.00	-41.8	-43.0	21.1	0.00e+00	0	41	0	251658240	56	6411
2026-01-22 19:16:16.66	27.28	10.05	-41.9	-43.1	21.0	0.00e+00	0	41	0	253755392	56	6518
2026-01-22 19:16:17.67	27.13	10.09	-41.3	-42.5	21.6	0.00e+00	46	41	0	255852544	56	6050
2026-01-22 19:16:18.68	26.97	10.14	-41.3	-42.4	21.6	0.00e+00	0	41	0	256901120	56	5997
2026-01-22 19:16:19.69	26.82	10.19	-41.2	-42.3	21.7	0.00e+00	75	41	0	258998272	56	5900
2026-01-22 19:16:20.70	26.67	10.24	-41.3	-42.4	21.7	0.00e+00	0	41	0	261095424	56	5968
2026-01-22 19:16:21.71	26.51	10.28	-41.1	-42.2	21.9	0.00e+00	0	41	0	263192576	56	5877
2026-01-22 19:16:22.72	26.36	10.33	-41.4	-42.5	21.5	0.00e+00	0	41	0	265289728	56	6063
2026-01-22 19:16:23.73	26.20	10.38	-41.3	-42.5	21.5	0.00e+00	0	41	0	266338304	56	6037
2026-01-22 19:16:24.74	26.05	10.42	-41.5	-42.7	21.4	0.00e+00	41	41	0	268435456	56	6189
2026-01-22 19:16:25.75	25.89	10.47	-41.6	-42.8	21.3	0.00e+00	0	41	0	270532608	56	6284
2026-01-22 19:16:26.77	25.73	10.51	-41.5	-42.7	21.4	0.00e+00	79	41	0	272629760	56	6221
2026-01-22 19:16:27.78	25.57	10.56	-41.5	-42.7	21.4	0.00e+00	0	41	0	274726912	56	6238
2026-01-22 19:16:28.79	25.41	10.61	-41.5	-42.7	21.3	0.00e+00	0	41	0	275775488	56	6185
2026-01-22 19:16:29.79	25.26	10.65	-41.5	-42.7	21.1	0.00e+00	0	41	0	277872640	56	6211
2026-01-22 19:16:30.80	25.10	10.70	-41.3	-42.5	21.5	0.00e+00	0	41	0	279969792	56	6066
2026-01-22 19:16:31.81	24.94	10.74	-41.4	-42.6	21.5	0.00e+00	44	41	0	282066944	56	6136
2026-01-22 19:16:32.83	24.78	10.79	-41.3	-42.5	21.6	0.00e+00	0	41	0	284164096	56	6042
2026-01-22 19:16:33.84	24.62	10.83	-41.4	-42.5	21.6	0.00e+00	90	41	0	285212672	56	6071
2026-01-22 19:16:34.84	24.46	10.88	-41.0	-42.1	21.9	0.00e+00	0	41	0	287309824	56	5768
2026-01-22 19:16:35.85	24.29	10.92	-40.7	-41.8	22.2	0.00e+00	0	41	0	289406976	54	6262
2026-01-22 19:16:36.86	24.13	10.97	-40.4	-41.4	22.3	0.00e+00	0	41	0	291504128	54	6026
2026-01-22 19:16:37.87	23.97	11.01	-40.6	-41.6	22.2	0.00e+00	0	41	0	293601280	54	6137
2026-01-22 19:16:38.88	23.81	11.06	-40.6	-41.6	22.3	0.00e+00	45	41	0	294649856	54	6116
2026-01-22 19:16:39.89	23.64	11.10	-40.5	-41.5	22.3	0.00e+00	0	41	0	296747008	54	6052
2026-01-22 19:16:40.90	23.48	11.15	-40.4	-41.4	22.4	0.00e+00	68	41	0	298844160	54	6019
2026-01-22 19:16:41.91	23.31	11.19	-40.6	-41.6	22.3	0.00e+00	0	41	0	300941312	54	6123
2026-01-22 19:16:42.92	23.15	11.23	-40.6	-41.7	22.2	0.00e+00	0	41	0	303038464	54	6177
2026-01-22 19:16:43.93	22.98	11.28	-40.4	-41.4	22.5	0.00e+00	0	41	0	305135616	54	5989
2026-01-22 19:16:44.94	22.82	11.32	-40.6	-41.6	22.3	0.00e+00	0	41	0	306184192	54	6168
2026-01-22 19:16:45.95	22.65	11.37	-40.7	-41.7	22.2	0.00e+00	45	41	0	308281344	54	6211
2026-01-22 19:16:46.95	22.48	11.41	-41.0	-42.0	21.8	0.00e+00	0	41	0	310378496	54	6464
2026-01-22 19:16:47.97	22.31	11.45	-41.0	-42.1	21.8	0.00e+00	92	41	0	312475648	54	6512
2026-01-22 19:16:48.98	22.15	11.50	-41.0	-42.1	21.9	0.00e+00	0	41	0	314572800	54	6520
2026-01-22 19:16:49.99	21.98	11.54	-40.6	-41.7	22.2	0.00e+00	79	41	0	315621376	54	6189
2026-01-22 19:16:51.00	21.81	11.58	-40.4	-41.4	22.4	0.00e+00	0	41	0	317718528	54	5973
2026-01-22 19:16:52.01	21.64	11.62	-40.3	-41.3	22.5	0.00e+00	0	41	0	319815680	54	5951
2026-01-22 19:16:53.02	21.47	11.67	-40.0	-41.0	22.9	0.00e+00	14	41	0	321912832	54	5725
2026-01-22 19:16:54.03	21.30	11.71	-39.9	-40.9	22.9	0.00e+00	0	41	0	324009984	54	5654
2026-01-22 19:16:55.04	21.12	11.75	-39.9	-40.8	22.9	0.00e+00	27	41	0	325058560	54	5620
2026-01-22 19:16:56.05	20.95	11.79	-40.1	-41.0	22.9	0.00e+00	0	41	0	327155712	54	5758
2026-01-22 19:16:57.06	20.78	11.83	-40.0	-40.9	22.8	0.00e+00	33	41	0	329252864	54	5689
2026-01-22 19:16:58.07	20.61	11.87	-40.2	-41.2	22.7	0.00e+00	0	41	0	331350016	54	5836
2026-01-22 19:16:59.08	20.43	11.92	-40.0	-40.9	22.8	0.00e+00	0	41	0	333447168	54	5685
2026-01-22 19:17:00.09	20.26	11.96	-40.4	-41.4	22.5	0.00e+00	0	41	0	334495744	54	5995
2026-01-22 19:17:01.09	20.09	12.00	-40.4	-41.4	22.5	0.00e+00	0	41	0	336592896	54	6007
2026-01-22 19:17:02.10	19.91	12.04	-40.8	-41.9	22.1	0.00e+00	40	41	0	338690048	54	6332
2026-01-22 19:17:03.12	19.74	12.08	-41.0	-42.1	21.9	0.00e+00	0	41	0	340787200	54	6476
2026-01-22 19:17:04.13	19.56	12.12	-40.9	-42.0	22.1	0.00e+00	90	41	0	342884352	54	6405
2026-01-22 19:17:05.13	19.39	12.16	-41.0	-42.1	22.0	0.00e+00	0	41	0	343932928	54	6495
2026-01-22 19:17:06.15	19.21	12.20	-40.9	-42.0	22.1	0.00e+00	0	42	0	346030080	54	6425
2026-01-22 19:17:07.16	19.03	12.24	-40.9	-41.9	22.1	0.00e+00	0	41	0	348127232	54	6386
2026-01-22 19:17:08.17	18.85	12.28	-40.9	-42.0	22.0	0.00e+00	0	41	0	350224384	54	6403
2026-01-22 19:17:09.18	18.68	12.32	-41.0	-42.1	22.0	0.00e+00	45	41	0	352321536	54	6508
2026-01-22 19:17:10.19	18.50	12.36	-40.8	-41.8	22.1	0.00e+00	0	42	0	353370112	54	6281
2026-01-22 19:17:11.20	18.32	12.40	-40.9	-41.9	22.1	0.00e+00	56	41	0	355467264	54	6362
2026-01-22 19:17:12.21	18.14	12.43	-41.0	-42.1	22.0	0.00e+00	0	41	0	357564416	54	6483
2026-01-22 19:17:13.22	17.96	12.47	-41.0	-42.1	22.0	0.00e+00	14	41	0	359661568	54	6490
2026-01-22 19:17:14.22	17.78	12.51	-41.0	-42.0	22.0	0.00e+00	0	41	0	361758720	54	6454
2026-01-22 19:17:15.23	17.60	12.55	-41.2	-42.4	21.7	0.00e+00	0	41	0	362807296	54	6714
2026-01-22 19:17:16.25	17.41	12.59	-41.3	-42.4	21.5	0.00e+00	45	41	0	364904448	54	6737
2026-01-22 19:17:17.26	17.23	12.62	-41.5	-42.7	21.4	0.00e+00	0	41	0	367001600	54	6952
2026-01-22 19:17:18.27	17.05	12.66	-41.3	-42.4	21.5	0.00e+00	64	41	0	369098752	54	6738
2026-01-22 19:17:19.28	16.87	12.70	-41.0	-42.1	22.0	0.00e+00	0	41	0	371195904	54	6468
2026-01-22 19:17:20.29	16.68	12.73	-40.6	-41.6	22.4	0.00e+00	92	41	0	372244480	54	6137
2026-01-22 19:17:21.30	16.50	12.77	-40.4	-41.5	22.4	0.00e+00	0	41	0	374341632	54	6043
2026-01-22 19:17:22.31	16.32	12.81	-40.4	-41.4	22.5	0.00e+00	0	41	0	376438784	54	6031
2026-01-22 19:17:23.32	16.13	12.84	-40.7	-41.7	22.3	0.00e+00	0	41	0	378535936	54	6232
2026-01-22 19:17:24.33	15.95	12.88	-40.6	-41.6	22.4	0.00e+00	0	41	0	380633088	54	6136
2026-01-22 19:17:25.34	15.76	12.92	-40.5	-41.5	22.4	0.00e+00	44	41	0	382730240	54	6075
2026-01-22 19:17:26.35	15.57	12.95	-40.5	-41.5	22.4	0.00e+00	0	41	0	383778816	54	6101
2026-01-22 19:17:27.36	15.39	12.99	-40.5	-41.5	22.4	0.00e+00	28	41	0	385875968	54	6071
2026-01-22 19:17:28.37	15.20	13.02	-40.6	-41.6	22.2	0.00e+00	0	41	0	387973120	54	6159
2026-01-22 19:17:29.37	15.02	13.05	-40.6	-41.6	22.3	0.00e+00	0	41	0	390070272	54	6170
2026-01-22 19:17:30.38	14.83	13.09	-40.7	-41.8	22.2	0.00e+00	0	42	0	392167424	54	6263
2026-01-22 19:17:31.39	14.64	13.12	-40.6	-41.6	22.3	0.00e+00	0	41	0	393216000	54	6154
2026-01-22 19:17:32.40	14.45	13.16	-40.4	-41.4	22.6	0.00e+00	65	42	0	395313152	54	5987
2026-01-22 19:17:33.41	14.26	13.19	-40.3	-41.2	22.7	0.00e+00	0	41	0	397410304	54	5890
2026-01-22 19:17:34.42	14.07	13.22	-40.3	-41.3	22.6	0.00e+00	89	41	0	399507456	54	5897
2026-01-22 19:17:35.43	13.88	13.26	-40.3	-41.3	22.7	0.00e+00	0	41	0	401604608	54	5947
2026-01-22 19:17:36.44	13.69	13.29	-40.6	-41.6	22.4	0.00e+00	0	41	0	402653184	54	6140
2026-01-22 19:17:37.45	13.50	13.32	-40.8	-41.8	22.2	0.00e+00	0	42	0	404750336	54	6314
2026-01-22 19:17:38.46	13.31	13.35	-40.9	-42.0	22.0	0.00e+00	0	41	0	406847488	54	6455
2026-01-22 19:17:39.47	13.12	13.39	-41.2	-42.4	21.7	0.00e+00	39	41	0	408944640	54	6710
2026-01-22 19:17:40.48	12.92	13.42	-41.3	-42.5	21.6	0.00e+00	0	42	0	411041792	54	6826
2026-01-22 19:17:41.49	12.73	13.45	-41.2	-42.3	21.7	0.00e+00	90	42	0	412090368	54	6685
2026-01-22 19:17:42.50	12.54	13.48	-41.2	-42.3	21.8	0.00e+00	0	42	0	414187520	54	6664
2026-01-22 19:17:43.51	12.35	13.51	-41.0	-42.1	22.0	0.00e+00	0	42	0	416284672	54	6496
2026-01-22 19:17:44.52	12.15	13.54	-41.0	-42.0	21.9	0.00e+00	0	42	0	418381824	54	6448
2026-01-22 19:17:45.53	11.96	13.57	-40.6	-41.6	21.8	0.00e+00	0	42	0	420478976	54	6171
2026-01-22 19:17:46.55	11.76	13.60	-40.5	-41.5	22.4	0.00e+00	41	42	0	422576128	54	6047
2026-01-22 19:17:47.56	11.57	13.63	-40.1	-41.1	22.9	0.00e+00	0	41	0	423624704	54	5798
2026-01-22 19:17:48.56	11.37	13.66	-39.9	-40.9	22.9	0.00e+00	92	42	0	425721856	54	5660
2026-01-22 19:17:49.57	11.18	13.69	-39.8	-40.7	23.0	0.00e+00	0	42	0	427819008	54	5548
2026-01-22 19:17:50.58	10.98	13.72	-39.7	-40.6	23.1	0.00e+00	0	42	0	429916160	52	6172
2026-01-22 19:17:51.59	10.78	13.75	-40.1	-41.0	22.8	0.00e+00	0	42	0	430964736	52	6450
2026-01-22 19:17:52.59	10.59	13.78	-40.2	-41.1	22.7	0.00e+00	0	42	0	433061888	52	6523
2026-01-22 19:17:53.61	10.39	13.80	-40.3	-41.2	22.6	0.00e+00	0	41	0	435159040	52	6610
2026-01-22 19:17:54.62	10.19	13.83	-40.2	-41.2	22.7	0.00e+00	0	42	0	437256192	52	6577
2026-01-22 19:17:55.63	9.99	13.86	-40.0	-41.0	22.8	0.00e+00	75	42	0	439353344	52	6427
2026-01-22 19:17:56.64	9.79	13.89	-39.8	-40.7	23.1	0.00e+00	0	42	0	440401920	52	6232
2026-01-22 19:17:57.64	9.60	13.91	-39.6	-40.5	23.2	0.00e+00	20	41	0	442499072	52	6094
2026-01-22 19:17:58.65	9.40	13.94	-39.8	-40.7	22.9	0.00e+00	0	42	0	444596224	52	6216
2026-01-22 19:17:59.67	9.20	13.96	-39.6	-40.5	23.2	0.00e+00	0	41	0	446693376	52	6087
2026-01-22 19:18:00.67	9.00	13.99	-39.9	-40.8	23.1	0.00e+00	25	41	0	448790528	52	6308
2026-01-22 19:18:01.69	8.80	14.02	-39.8	-40.7	23.1	0.00e+00	0	41	0	450887680	52	6219
2026-01-22 19:18:02.70	8.60	14.04	-39.9	-40.8	23.0	0.00e+00	92	42	0	451936256	52	6300
2026-01-22 19:18:03.71	8.40	14.07	-40.1	-41.0	22.9	0.00e+00	0	41	0	454033408	52	6446
2026-01-22 19:18:04.72	8.19	14.09	-40.2	-41.2	22.7	0.00e+00	41	41	0	456130560	52	6587
2026-01-22 19:18:05.73	7.99	14.11	-40.5	-41.5	22.4	0.00e+00	0	41	0	458227712	52	6842
2026-01-22 19:18:06.74	7.79	14.14	-40.6	-41.6	22.4	0.00e+00	0	41	0	460324864	52	6868
2026-01-22 19:18:07.74	7.59	14.16	-40.7	-41.8	22.2	0.00e+00	0	42	0	461373440	54	6251
2026-01-22 19:18:08.75	7.39	14.18	-40.8	-41.8	22.2	0.00e+00	0	41	0	463470592	54	6308
2026-01-22 19:18:09.76	7.19	14.21	-40.9	-41.9	22.1	0.00e+00	44	41	0	465567744	54	6364
2026-01-22 19:18:10.78	6.98	14.23	-41.0	-42.1	22.1	0.00e+00	0	42	0	467664896	54	6476
2026-01-22 19:18:11.78	6.78	14.25	-40.9	-42.0	21.9	0.00e+00	92	41	0	469762048	54	6428
2026-01-22 19:18:12.79	6.57	14.27	-41.0	-42.0	22.0	0.00e+00	0	42	0	470810624	54	6462
2026-01-22 19:18:13.80	6.37	14.29	-40.9	-42.0	22.0	0.00e+00	0	42	0	472907776	54	6441
2026-01-22 19:18:14.81	6.17	14.31	-41.2	-42.3	21.7	0.00e+00	0	41	0	475004928	54	6651
2026-01-22 19:18:15.82	5.96	14.34	-41.1	-42.2	21.9	0.00e+00	0	41	0	477102080	54	6601
2026-01-22 19:18:16.83	5.76	14.36	-41.3	-42.4	21.7	0.00e+00	30	41	0	479199232	54	6758
2026-01-22 19:18:17.84	5.55	14.38	-41.2	-42.3	21.8	0.00e+00	0	41	0	480247808	54	6668
2026-01-22 19:18:18.85	5.35	14.40	-41.4	-42.5	21.7	0.00e+00	51	41	0	482344960	54	6807
2026-01-22 19:18:19.86	5.14	14.41	-41.1	-42.2	21.9	0.00e+00	0	41	0	484442112	54	6597
2026-01-22 19:18:20.87	4.93	14.43	-40.9	-42.0	22.0	0.00e+00	0	41	0	486539264	54	6414
2026-01-22 19:18:21.88	4.73	14.45	-41.2	-42.2	21.8	0.00e+00	0	41	0	488636416	54	6607
2026-01-22 19:18:22.89	4.52	14.47	-40.9	-42.0	22.0	0.00e+00	0	41	0	490733568	54	6422
2026-01-22 19:18:23.90	4.31	14.49	-40.7	-41.7	22.2	0.00e+00	47	41	0	491782144	54	6225
2026-01-22 19:18:24.91	4.11	14.51	-40.6	-41.6	22.4	0.00e+00	0	41	0	493879296	54	6162
2026-01-22 19:18:25.92	3.90	14.52	-40.5	-41.5	22.5	0.00e+00	74	41	0	495976448	54	6097
2026-01-22 19:18:26.93	3.69	14.54	-40.5	-41.5	22.5	0.00e+00	0	41	0	498073600	54	6064
2026-01-22 19:18:27.94	3.48	14.56	-40.1	-41.0	22.8	0.00e+00	0	41	0	500170752	54	5756
2026-01-22 19:18:28.95	3.28	14.57	-40.0	-41.0	22.9	0.00e+00	0	41	0	501219328	54	5703
2026-01-22 19:18:29.96	3.07	14.59	-40.1	-41.1	22.9	0.00e+00	0	41	0	503316480	54	5771
2026-01-22 19:18:30.97	2.86	14.60	-40.2	-41.2	22.7	0.00e+00	18	41	0	505413632	54	5843
2026-01-22 19:18:31.98	2.65	14.62	-40.6	-41.6	22.4	0.00e+00	0	41	0	507510784	54	6136
2026-01-22 19:18:32.99	2.44	14.63	-40.7	-41.7	22.4	0.00e+00	44	41	0	509607936	54	6211
2026-01-22 19:18:34.00	2.23	14.65	-40.6	-41.6	22.5	0.00e+00	0	41	0	510656512	54	6127
2026-01-22 19:18:35.01	2.02	14.66	-40.5	-41.6	22.5	0.00e+00	0	41	0	512753664	54	6104
2026-01-22 19:18:36.02	1.81	14.67	-40.5	-41.5	22.4	0.00e+00	0	41	0	514850816	54	6103
2026-01-22 19:18:37.03	1.60	14.69	-40.6	-41.6	22.4	0.00e+00	0	41	0	516947968	54	6135
2026-01-22 19:18:38.04	1.39	14.70	-40.2	-41.2	22.7	0.00e+00	15	41	0	519045120	54	5877
2026-01-22 19:18:39.04	1.19	14.71	-40.1	-41.1	22.8	0.00e+00	0	41	0	520093696	54	5800
2026-01-22 19:18:40.05	0.98	14.72	-40.2	-41.2	22.8	0.00e+00	90	41	0	522190848	54	5860
2026-01-22 19:18:41.06	0.77	14.73	-40.3	-41.3	22.6	0.00e+00	0	41	0	524288000	54	5918
2026-01-22 19:18:42.07	0.55	14.75	-40.3	-41.3	22.7	0.00e+00	81	41	0	526385152	54	5956
2026-01-22 19:18:43.08	0.34	14.76	-40.6	-41.7	22.4	0.00e+00	0	41	0	528482304	54	6179
2026-01-22 19:18:44.09	0.13	14.77	-40.6	-41.6	22.4	0.00e+00	0	41	0	529530880	54	6171
2026-01-22 19:18:45.10	359.92	14.78	-40.5	-41.5	22.5	0.00e+00	25	41	0	531628032	54	6103
2026-01-22 19:18:46.11	359.71	14.79	-40.7	-41.8	22.3	0.00e+00	0	41	0	533725184	54	6262
2026-01-22 19:18:47.12	359.50	14.80	-40.6	-41.7	22.3	0.00e+00	45	41	0	535822336	54	6200
2026-01-22 19:18:48.13	359.29	14.80	-40.7	-41.7	22.3	0.00e+00	0	41	0	537919488	54	6231
2026-01-22 19:18:49.14	359.08	14.81	-40.8	-41.9	22.2	0.00e+00	92	41	0	538968064	54	6340
2026-01-22 19:18:50.15	358.86	14.82	-40.8	-41.9	22.2	0.00e+00	0	41	0	541065216	54	6351
2026-01-22 19:18:51.16	358.65	14.83	-40.8	-41.9	22.2	0.00e+00	0	41	0	543162368	54	6324
2026-01-22 19:18:52.17	358.44	14.84	-40.7	-41.8	22.2	0.00e+00	0	41	0	545259520	54	6275
2026-01-22 19:18:53.18	358.23	14.84	-40.6	-41.6	22.4	0.00e+00	0	41	0	547356672	54	6143
2026-01-22 19:18:54.19	358.02	14.85	-40.3	-41.3	22.5	0.00e+00	44	41	0	548405248	54	5954
2026-01-22 19:18:55.20	357.80	14.85	-40.4	-41.4	22.6	0.00e+00	0	41	0	550502400	54	6031
2026-01-22 19:18:56.21	357.59	14.86	-40.4	-41.4	22.5	0.00e+00	92	41	0	552599552	54	5985
2026-01-22 19:18:57.22	357.38	14.87	-40.5	-41.5	22.5	0.00e+00	0	41	0	554696704	54	6072
2026-01-22 19:18:58.23	357.17	14.87	-40.6	-41.6	22.4	0.00e+00	0	41	0	556793856	54	6141
2026-01-22 19:18:59.24	356.96	14.88	-40.4	-41.4	22.5	0.00e+00	0	41	0	558891008	54	6027
2026-01-22 19:19:00.25	356.74	14.88	-40.6	-41.6	22.4	0.00e+00	0	41	0	559939584	54	6124
2026-01-22 19:19:01.26	356.53	14.88	-40.4	-41.4	22.5	0.00e+00	36	41	0	562036736	54	6032
2026-01-22 19:19:02.27	356.32	14.89	-40.6	-41.7	22.3	0.00e+00	0	41	0	564133888	54	6184
2026-01-22 19:19:03.28	356.10	14.89	-40.4	-41.4	22.5	0.00e+00	92	41	0	566231040	54	5985
2026-01-22 19:19:04.29	355.89	14.89	-40.5	-41.5	22.4	0.00e+00	0	41	0	568328192	54	6081
2026-01-22 19:19:05.30	355.68	14.89	-40.6	-41.6	22.4	0.00e+00	0	41	0	569376768	54	6149
2026-01-22 19:19:06.31	355.47	14.90	-40.7	-41.8	22.2	0.00e+00	0	41	0	571473920	54	6266
2026-01-22 19:19:07.32	355.25	14.90	-40.8	-41.9	22.2	0.00e+00	0	41	0	573571072	54	6385
2026-01-22 19:19:08.33	355.04	14.90	-40.8	-42.0	22.0	0.00e+00	0	41	0	575668224	54	6395
2026-01-22 19:19:09.34	354.83	14.90	-40.8	-41.9	22.1	0.00e+00	0	41	0	577765376	54	6375
2026-01-22 19:19:10.35	354.62	14.90	-40.7	-41.7	22.2	0.00e+00	92	41	0	578813952	54	6235
2026-01-22 19:19:11.36	354.40	14.90	-40.8	-41.8	22.2	0.00e+00	0	41	0	580911104	54	6281
2026-01-22 19:19:12.37	354.19	14.90	-40.1	-41.1	22.7	0.00e+00	86	41	0	583008256	54	5786
2026-01-22 19:19:13.38	353.98	14.90	-40.0	-40.9	22.9	0.00e+00	0	41	0	585105408	54	5663
2026-01-22 19:19:14.39	353.76	14.89	-39.9	-40.8	23.1	0.00e+00	0	41	0	587202560	54	5599
2026-01-22 19:19:15.40	353.55	14.89	-39.9	-40.8	23.0	0.00e+00	0	41	0	588251136	54	5613
2026-01-22 19:19:16.41	353.34	14.89	-40.0	-40.9	22.8	0.00e+00	0	41	0	590348288	54	5691
2026-01-22 19:19:17.42	353.13	14.89	-40.1	-41.1	22.7	0.00e+00	90	41	0	592445440	54	5819
2026-01-22 19:19:18.43	352.91	14.89	-40.4	-41.4	22.5	0.00e+00	0	41	0	594542592	54	6028
2026-01-22 19:19:19.44	352.70	14.88	-40.6	-41.6	22.4	0.00e+00	92	41	0	596639744	54	6173
2026-01-22 19:19:20.45	352.49	14.88	-40.8	-41.9	22.1	0.00e+00	0	41	0	597688320	54	6376
2026-01-22 19:19:21.46	352.28	14.87	-41.2	-42.3	21.8	0.00e+00	0	41	0	599785472	54	6683
2026-01-22 19:19:22.47	352.06	14.87	-41.0	-42.1	21.9	0.00e+00	0	41	0	601882624	54	6530
2026-01-22 19:19:23.48	351.85	14.86	-40.9	-42.0	22.0	0.00e+00	0	41	0	603979776	54	6443
2026-01-22 19:19:24.49	351.64	14.86	-40.8	-41.8	22.1	0.00e+00	42	41	0	606076928	54	6310
2026-01-22 19:19:25.50	351.43	14.85	-40.8	-41.9	22.2	0.00e+00	0	41	0	607125504	54	6342
2026-01-22 19:19:26.51	351.21	14.85	-41.0	-42.0	22.0	0.00e+00	92	41	0	609222656	54	6460
2026-01-22 19:19:27.53	351.00	14.84	-41.0	-42.1	21.7	0.00e+00	0	41	0	611319808	54	6483
2026-01-22 19:19:28.53	350.79	14.83	-41.2	-42.3	21.8	0.00e+00	0	41	0	613416960	54	6676
2026-01-22 19:19:29.54	350.58	14.83	-41.5	-42.6	21.6	0.00e+00	0	41	0	615514112	54	6903
2026-01-22 19:19:30.56	350.36	14.82	-41.6	-42.8	21.4	0.00e+00	0	41	0	616562688	54	7036
2026-01-22 19:19:31.57	350.15	14.81	-41.4	-42.5	21.6	0.00e+00	54	41	0	618659840	54	6835
2026-01-22 19:19:32.58	349.94	14.80	-41.1	-42.2	21.9	0.00e+00	0	41	0	620756992	54	6591
2026-01-22 19:19:33.59	349.73	14.79	-41.1	-42.2	21.8	0.00e+00	92	41	0	622854144	54	6559
2026-01-22 19:19:34.60	349.52	14.78	-40.7	-41.8	22.2	0.00e+00	0	41	0	624951296	54	6265
2026-01-22 19:19:35.61	349.31	14.77	-40.9	-41.9	22.1	0.00e+00	0	41	0	627048448	54	6383
2026-01-22 19:19:36.62	349.10	14.76	-40.8	-41.8	22.2	0.00e+00	0	41	0	628097024	54	6307
2026-01-22 19:19:37.63	348.89	14.75	-40.5	-41.5	22.4	0.00e+00	0	41	0	630194176	54	6089
2026-01-22 19:19:38.64	348.67	14.74	-40.4	-41.4	22.7	0.00e+00	60	41	0	632291328	54	6026
2026-01-22 19:19:39.65	348.46	14.73	-40.3	-41.3	22.6	0.00e+00	0	41	0	634388480	54	5941
2026-01-22 19:19:40.66	348.25	14.72	-40.5	-41.5	22.6	0.00e+00	78	41	0	636485632	54	6048
2026-01-22 19:19:41.67	348.04	14.71	-40.5	-41.5	22.6	0.00e+00	0	41	0	637534208	54	6048
2026-01-22 19:19:42.68	347.83	14.69	-40.5	-41.6	22.4	0.00e+00	0	41	0	639631360	54	6119
2026-01-22 19:19:43.69	347.62	14.68	-40.8	-41.8	22.2	0.00e+00	0	41	0	641728512	54	6315
2026-01-22 19:19:44.70	347.41	14.67	-40.7	-41.7	22.3	0.00e+00	0	41	0	643825664	54	6243
2026-01-22 19:19:45.71	347.20	14.66	-40.6	-41.7	22.3	0.00e+00	10	41	0	645922816	54	6197
2026-01-22 19:19:46.72	347.00	14.64	-40.5	-41.5	22.4	0.00e+00	0	41	0	646971392	54	6074
2026-01-22 19:19:47.73	346.79	14.63	-40.1	-41.1	22.8	0.00e+00	66	41	0	649068544	54	5794
2026-01-22 19:19:48.74	346.58	14.61	-39.8	-40.8	22.9	0.00e+00	0	41	0	651165696	54	5593
2026-01-22 19:19:49.75	346.37	14.60	-39.7	-40.7	23.1	0.00e+00	0	41	0	653262848	52	6182
2026-01-22 19:19:50.76	346.16	14.58	-39.8	-40.7	23.0	0.00e+00	0	41	0	655360000	52	6235
2026-01-22 19:19:51.77	345.95	14.57	-39.9	-40.9	22.9	0.00e+00	0	41	0	656408576	52	6331
2026-01-22 19:19:52.78	345.74	14.55	-40.1	-41.2	22.7	0.00e+00	0	41	0	658505728	52	6543
2026-01-22 19:19:53.79	345.54	14.53	-40.1	-41.1	22.8	0.00e+00	0	41	0	660602880	52	6492
2026-01-22 19:19:54.80	345.33	14.52	-40.1	-41.1	22.9	0.00e+00	73	41	0	662700032	52	6491
2026-01-22 19:19:55.81	345.12	14.50	-40.1	-41.2	22.8	0.00e+00	0	41	0	664797184	52	6540
2026-01-22 19:19:56.82	344.91	14.48	-40.2	-41.3	22.9	0.00e+00	92	41	0	665845760	52	6616
2026-01-22 19:19:57.83	344.71	14.46	-40.2	-41.3	22.5	0.00e+00	0	41	0	667942912	52	6620
2026-01-22 19:19:58.84	344.50	14.45	-40.4	-41.5	22.5	0.00e+00	0	41	0	670040064	52	6807
2026-01-22 19:19:59.85	344.30	14.43	-40.5	-41.6	22.5	0.00e+00	0	41	0	672137216	52	6867
2026-01-22 19:20:00.86	344.09	14.41	-40.7	-41.8	22.0	0.00e+00	0	41	0	674234368	54	6260
2026-01-22 19:20:01.87	343.88	14.39	-40.7	-41.8	22.1	0.00e+00	92	41	0	675282944	54	6287
2026-01-22 19:20:02.88	343.68	14.37	-40.8	-41.9	22.1	0.00e+00	0	41	0	677380096	54	6339
2026-01-22 19:20:03.89	343.47	14.35	-40.9	-42.0	22.0	0.00e+00	90	41	0	679477248	54	6432
2026-01-22 19:20:04.90	343.27	14.33	-41.0	-42.1	22.0	0.00e+00	0	41	0	681574400	54	6491
2026-01-22 19:20:05.91	343.06	14.31	-40.8	-41.9	22.1	0.00e+00	0	41	0	683671552	54	6388
2026-01-22 19:20:06.92	342.86	14.29	-40.8	-41.9	22.2	0.00e+00	0	41	0	684720128	54	6339
2026-01-22 19:20:07.93	342.66	14.26	-40.8	-41.9	22.2	0.00e+00	0	41	0	686817280	54	6354
2026-01-22 19:20:08.94	342.45	14.24	-40.7	-41.8	22.2	0.00e+00	82	41	0	688914432	54	6311
2026-01-22 19:20:09.95	342.25	14.22	-40.6	-41.7	22.3	0.00e+00	0	41	0	691011584	54	6204
2026-01-22 19:20:10.96	342.04	14.20	-40.3	-41.3	22.5	0.00e+00	92	41	0	693108736	54	5959
2026-01-22 19:20:11.97	341.84	14.18	-40.1	-41.2	22.7	0.00e+00	0	41	0	695205888	54	5856
2026-01-22 19:20:12.98	341.64	14.15	-39.9	-40.9	22.8	0.00e+00	0	41	0	696254464	54	5663
2026-01-22 19:20:13.99	341.44	14.13	-40.1	-41.1	22.6	0.00e+00	0	41	0	698351616	54	5819
2026-01-22 19:20:15.00	341.24	14.11	-40.1	-41.2	22.7	0.00e+00	0	41	0	700448768	54	5840
2026-01-22 19:20:16.01	341.03	14.08	-40.2	-41.2	22.6	0.00e+00	28	41	0	702545920	54	5868
2026-01-22 19:20:17.02	340.83	14.06	-40.2	-41.3	22.6	0.00e+00	0	41	0	704643072	54	5897
2026-01-22 19:20:18.03	340.63	14.03	-40.0	-41.0	22.8	0.00e+00	27	41	0	705691648	54	5743
2026-01-22 19:20:19.04	340.43	14.01	-40.2	-41.3	22.8	0.00e+00	0	41	0	707788800	54	5902
2026-01-22 19:20:20.05	340.23	13.98	-40.2	-41.2	22.8	0.00e+00	0	41	0	709885952	54	5855
2026-01-22 19:20:21.06	340.03	13.96	-40.2	-41.2	22.8	0.00e+00	0	41	0	711983104	54	5890
2026-01-22 19:20:22.07	339.83	13.93	-40.1	-41.1	22.8	0.00e+00	0	41	0	714080256	54	5824
2026-01-22 19:20:23.08	339.63	13.90	-40.4	-41.4	22.5	0.00e+00	46	41	0	715128832	54	6029
2026-01-22 19:20:24.09	339.43	13.88	-40.5	-41.6	22.4	0.00e+00	0	41	0	717225984	54	6127
2026-01-22 19:20:25.10	339.24	13.85	-40.9	-42.0	22.1	0.00e+00	90	41	0	719323136	54	6420
2026-01-22 19:20:26.11	339.04	13.82	-41.0	-42.1	22.1	0.00e+00	0	41	0	721420288	54	6529
2026-01-22 19:20:27.11	338.84	13.79	-40.8	-41.9	22.2	0.00e+00	76	41	0	723517440	54	6373
2026-01-22 19:20:28.12	338.65	13.77	-40.9	-42.0	22.1	0.00e+00	30	41	0	724566016	54	6415
2026-01-22 19:20:29.13	338.45	13.74	-40.8	-41.9	22.2	0.00e+00	0	41	0	726663168	54	6326
2026-01-22 19:20:30.14	338.25	13.71	-40.8	-41.9	22.1	0.00e+00	42	41	0	728760320	54	6340
2026-01-22 19:20:31.15	338.06	13.68	-40.7	-41.9	22.2	0.00e+00	0	41	0	730857472	54	6320
2026-01-22 19:20:32.16	337.86	13.65	-40.8	-42.0	22.1	0.00e+00	92	41	0	732954624	54	6400
2026-01-22 19:20:33.17	337.67	13.62	-40.6	-41.7	22.3	0.00e+00	0	41	0	734003200	54	6236
2026-01-22 19:20:34.18	337.47	13.59	-40.9	-42.0	22.0	0.00e+00	92	41	0	736100352	54	6445
2026-01-22 19:20:35.19	337.28	13.56	-40.9	-42.0	22.1	0.00e+00	0	41	0	738197504	54	6412
2026-01-22 19:20:36.20	337.08	13.53	-40.8	-41.9	22.1	0.00e+00	0	41	0	740294656	54	6386
2026-01-22 19:20:37.21	336.89	13.50	-40.8	-41.9	22.2	0.00e+00	0	41	0	742391808	54	6343
2026-01-22 19:20:38.22	336.69	13.47	-40.9	-42.0	22.1	0.00e+00	0	41	0	743440384	54	6440
2026-01-22 19:20:39.22	336.50	13.44	-40.8	-41.9	22.2	0.00e+00	34	41	0	745537536	54	6354
2026-01-22 19:20:40.23	336.31	13.41	-40.7	-41.8	22.2	0.00e+00	0	41	0	747634688	54	6295
2026-01-22 19:20:41.24	336.12	13.38	-40.6	-41.7	22.2	0.00e+00	92	41	0	749731840	54	6205
2026-01-22 19:20:42.26	335.93	13.34	-40.4	-41.5	22.5	0.00e+00	0	41	0	751828992	54	6039
2026-01-22 19:20:43.26	335.74	13.31	-40.5	-41.5	22.5	0.00e+00	0	41	0	752877568	54	6051
2026-01-22 19:20:44.27	335.55	13.28	-40.7	-41.7	22.4	0.00e+00	0	41	0	754974720	54	6213
2026-01-22 19:20:45.28	335.36	13.25	-40.6	-41.7	22.3	0.00e+00	0	41	0	757071872	54	6191
2026-01-22 19:20:46.29	335.17	13.21	-40.9	-41.9	22.3	0.00e+00	42	41	0	759169024	54	6366
2026-01-22 19:20:47.30	334.98	13.18	-40.5	-41.6	22.3	0.00e+00	0	41	0	761266176	54	6104
2026-01-22 19:20:48.31	334.79	13.15	-40.6	-41.6	22.4	0.00e+00	60	41	0	763363328	54	6151
2026-01-22 19:20:49.32	334.60	13.11	-40.4	-41.4	22.6	0.00e+00	0	41	0	764411904	54	5973
2026-01-22 19:20:50.33	334.41	13.08	-40.4	-41.5	22.6	0.00e+00	0	41	0	766509056	54	6036
2026-01-22 19:20:51.34	334.22	13.04	-40.1	-41.1	22.7	0.00e+00	0	41	0	768606208	54	5790
2026-01-22 19:20:52.35	334.03	13.01	-40.0	-40.9	22.8	0.00e+00	0	41	0	770703360	54	5687
2026-01-22 19:20:53.36	333.85	12.97	-39.8	-40.7	22.8	0.00e+00	45	41	0	772800512	54	5530
2026-01-22 19:20:54.37	333.66	12.94	-39.8	-40.7	22.9	0.00e+00	0	41	0	773849088	52	6234
2026-01-22 19:20:55.38	333.48	12.90	-39.6	-40.5	23.2	0.00e+00	64	41	0	775946240	52	6086
2026-01-22 19:20:56.39	333.29	12.87	-39.7	-40.6	23.2	0.00e+00	0	41	0	778043392	52	6144
2026-01-22 19:20:57.40	333.10	12.83	-39.9	-40.8	22.8	0.00e+00	0	41	0	780140544	52	6278
2026-01-22 19:20:58.41	332.92	12.80	-39.8	-40.8	23.0	0.00e+00	0	41	0	782237696	52	6271
2026-01-22 19:20:59.42	332.74	12.76	-40.2	-41.1	22.8	0.00e+00	0	41	0	783286272	52	6532
2026-01-22 19:21:00.43	332.55	12.72	-40.3	-41.2	22.7	0.00e+00	0	41	0	785383424	52	6595
2026-01-22 19:21:01.43	332.37	12.69	-40.5	-41.5	22.5	0.00e+00	0	41	0	787480576	52	6828
2026-01-22 19:21:02.44	332.19	12.65	-40.4	-41.4	22.7	0.00e+00	87	41	0	789577728	52	6721
2026-01-22 19:21:03.45	332.01	12.61	-40.6	-41.6	22.3	0.00e+00	0	41	0	791674880	52	6924
2026-01-22 19:21:04.46	331.82	12.57	-40.7	-41.7	22.2	0.00e+00	49	41	0	792723456	54	6208
2026-01-22 19:21:05.47	331.64	12.54	-40.9	-41.9	22.1	0.00e+00	0	41	0	794820608	54	6371
2026-01-22 19:21:06.48	331.46	12.50	-41.2	-42.3	21.9	0.00e+00	0	41	0	796917760	54	6639
2026-01-22 19:21:07.49	331.28	12.46	-41.2	-42.3	21.7	0.00e+00	0	41	0	799014912	54	6634
2026-01-22 19:21:08.49	331.10	12.42	-41.4	-42.6	21.5	0.00e+00	0	41	0	801112064	54	6859
2026-01-22 19:21:09.51	330.92	12.38	-41.4	-42.5	21.4	0.00e+00	92	41	0	802160640	54	6800
2026-01-22 19:21:10.52	330.74	12.34	-41.4	-42.5	21.7	0.00e+00	0	41	0	804257792	54	6788
2026-01-22 19:21:11.53	330.57	12.30	-41.3	-42.4	21.9	0.00e+00	86	41	0	806354944	54	6700
2026-01-22 19:21:12.53	330.39	12.27	-41.1	-42.2	21.8	0.00e+00	0	41	0	808452096	54	6577
2026-01-22 19:21:13.54	330.21	12.23	-41.4	-42.5	21.6	0.00e+00	0	41	0	810549248	54	6828
2026-01-22 19:21:14.55	330.03	12.19	-41.2	-42.3	21.8	0.00e+00	0	41	0	811597824	54	6624
2026-01-22 19:21:15.56	329.86	12.15	-41.3	-42.3	21.8	0.00e+00	0	41	0	813694976	54	6690
2026-01-22 19:21:16.57	329.68	12.11	-41.1	-42.2	21.9	0.00e+00	85	41	0	815792128	54	6559
2026-01-22 19:21:17.58	329.51	12.07	-41.3	-42.3	21.8	0.00e+00	0	41	0	817889280	54	6675
2026-01-22 19:21:18.59	329.33	12.03	-41.3	-42.4	21.8	0.00e+00	90	41	0	819986432	54	6709
2026-01-22 19:21:19.60	329.16	11.98	-41.6	-42.8	21.5	0.00e+00	0	41	0	821035008	54	7019
2026-01-22 19:21:20.61	328.98	11.94	-41.6	-42.7	21.5	0.00e+00	0	41	0	823132160	54	6953
2026-01-22 19:21:21.62	328.81	11.90	-41.4	-42.5	21.6	0.00e+00	0	41	0	825229312	54	6833
2026-01-22 19:21:22.63	328.64	11.86	-41.5	-42.6	21.7	0.00e+00	0	41	0	827326464	54	6903
2026-01-22 19:21:23.64	328.46	11.82	-41.5	-42.6	21.5	0.00e+00	41	41	0	829423616	54	6911
2026-01-22 19:21:24.65	328.29	11.78	-41.5	-42.6	21.6	0.00e+00	0	41	0	831520768	54	6870
2026-01-22 19:21:25.66	328.12	11.74	-41.6	-42.7	21.6	0.00e+00	91	41	0	832569344	54	6928
2026-01-22 19:21:26.67	327.95	11.69	-41.5	-42.6	21.5	0.00e+00	0	41	0	834666496	54	6925
2026-01-22 19:21:27.68	327.78	11.65	-41.8	-42.9	21.3	0.00e+00	0	41	0	836763648	56	6339
2026-01-22 19:21:28.68	327.61	11.61	-42.2	-43.3	21.1	0.00e+00	0	41	0	838860800	56	6682
2026-01-22 19:21:29.70	327.44	11.57	-42.1	-43.3	21.1	0.00e+00	0	41	0	840957952	56	6636
2026-01-22 19:21:30.70	327.27	11.53	-42.1	-43.2	21.2	0.00e+00	30	41	0	842006528	56	6580
2026-01-22 19:21:31.71	327.10	11.48	-41.7	-42.8	21.4	0.00e+00	0	41	0	844103680	56	6301
2026-01-22 19:21:32.72	326.93	11.44	-41.6	-42.7	21.6	0.00e+00	87	41	0	846200832	56	6174
2026-01-22 19:21:33.73	326.77	11.40	-41.4	-42.5	21.8	0.00e+00	0	41	0	848297984	56	6040
2026-01-22 19:21:34.74	326.60	11.35	-41.4	-42.4	21.8	0.00e+00	0	41	0	850395136	56	6030
2026-01-22 19:21:35.75	326.43	11.31	-41.5	-42.6	21.7	0.00e+00	0	41	0	851443712	56	6120
2026-01-22 19:21:36.76	326.27	11.27	-41.3	-42.4	21.9	0.00e+00	0	41	0	853540864	56	5992
2026-01-22 19:21:37.77	326.10	11.22	-41.3	-42.4	21.8	0.00e+00	42	41	0	855638016	56	5976
2026-01-22 19:21:38.78	325.94	11.18	-41.5	-42.6	21.6	0.00e+00	0	41	0	857735168	56	6153
2026-01-22 19:21:39.80	325.77	11.13	-42.1	-43.3	21.1	0.00e+00	84	41	0	859832320	56	6623
2026-01-22 19:21:40.81	325.61	11.09	-42.5	-43.8	20.7	0.00e+00	0	41	0	860880896	56	7036
2026-01-22 19:21:41.82	325.44	11.04	-42.6	-43.9	20.4	0.00e+00	87	41	0	862978048	56	7135
2026-01-22 19:21:42.83	325.28	11.00	-43.0	-44.4	20.0	0.00e+00	0	41	0	865075200	58	6703
2026-01-22 19:21:43.84	325.12	10.95	-42.7	-44.0	20.3	0.00e+00	0	41	0	867172352	58	6442
2026-01-22 19:21:44.85	324.95	10.91	-43.0	-44.3	20.1	0.00e+00	25	41	0	869269504	58	6675
2026-01-22 19:21:45.86	324.79	10.86	-42.5	-43.8	20.6	0.00e+00	0	41	0	870318080	58	6288
2026-01-22 19:21:46.87	324.63	10.82	-42.4	-43.7	20.6	0.00e+00	92	41	0	872415232	58	6198
2026-01-22 19:21:47.88	324.47	10.77	-42.2	-43.4	20.9	0.00e+00	0	41	0	874512384	58	6015
2026-01-22 19:21:48.89	324.31	10.73	-42.1	-43.3	21.0	0.00e+00	17	41	0	876609536	58	5947
2026-01-22 19:21:49.90	324.15	10.68	-41.8	-42.9	21.3	0.00e+00	0	41	0	878706688	58	5691
2026-01-22 19:21:50.91	323.99	10.64	-41.8	-42.9	21.3	0.00e+00	0	41	0	879755264	56	6384
2026-01-22 19:21:51.93	323.83	10.59	-42.4	-43.7	20.8	0.00e+00	0	41	0	881852416	56	6930
2026-01-22 19:21:52.94	323.67	10.55	-42.4	-43.6	20.7	0.00e+00	0	41	0	883949568	56	6879
2026-01-22 19:21:53.95	323.52	10.50	-43.1	-44.4	19.9	0.00e+00	92	41	0	886046720	58	6755
2026-01-22 19:21:54.96	323.36	10.45	-43.7	-45.2	19.3	0.00e+00	33	41	0	888143872	58	7366
2026-01-22 19:21:55.97	323.20	10.41	-44.0	-45.6	18.8	0.00e+00	90	41	0	889192448	60	6875
2026-01-22 19:21:56.98	323.05	10.36	-44.2	-45.9	18.5	0.00e+00	0	41	0	891289600	60	7118
2026-01-22 19:21:57.98	322.89	10.31	-44.7	-46.5	18.0	0.00e+00	0	41	0	893386752	60	7632
2026-01-22 19:21:59.00	322.74	10.27	-44.9	-46.7	17.9	0.00e+00	0	41	0	895483904	60	7843
2026-01-22 19:22:00.01	322.58	10.22	-44.9	-46.8	17.9	0.00e+00	0	41	0	897581056	60	7874
2026-01-22 19:22:01.02	322.43	10.17	-44.3	-46.0	18.6	0.00e+00	47	41	0	899678208	60	7213
2026-01-22 19:22:02.03	322.27	10.13	-44.2	-45.9	18.7	0.00e+00	0	41	0	900726784	60	7128
2026-01-22 19:22:03.04	322.12	10.08	-43.9	-45.5	19.1	0.00e+00	92	41	0	902823936	60	6831
2026-01-22 19:22:04.05	321.97	10.03	-43.6	-45.1	19.4	0.00e+00	0	41	0	904921088	60	6519
2026-01-22 19:22:05.06	321.82	9.98	-43.7	-45.3	19.3	0.00e+00	0	41	0	907018240	60	6628
2026-01-22 19:22:06.07	321.66	9.94	-43.8	-45.4	19.2	0.00e+00	0	41	0	909115392	60	6706
2026-01-22 19:22:07.08	321.51	9.89	-43.4	-44.9	19.6	0.00e+00	0	41	0	910163968	60	6340
2026-01-22 19:22:08.09	321.36	9.84	-43.5	-44.9	19.6	0.00e+00	84	41	0	912261120	60	6361
2026-01-22 19:22:09.10	321.21	9.79	-43.4	-44.9	19.7	0.00e+00	0	41	0	914358272	60	6332
2026-01-22 19:22:10.11	321.06	9.75	-43.3	-44.7	19.8	0.00e+00	90	41	0	916455424	60	6195
2026-01-22 19:22:11.12	320.91	9.70	-43.0	-44.3	20.1	0.00e+00	0	41	0	918552576	60	5942
2026-01-22 19:22:12.13	320.77	9.65	-43.0	-44.4	20.0	0.00e+00	30	41	0	919601152	60	5984
2026-01-22 19:22:13.13	320.62	9.60	-42.7	-44.0	20.4	0.00e+00	0	41	0	921698304	58	6399
2026-01-22 19:22:14.14	320.47	9.55	-42.7	-44.0	20.3	0.00e+00	0	41	0	923795456	58	6441
2026-01-22 19:22:15.15	320.33	9.51	-42.8	-44.1	20.3	0.00e+00	54	41	0	925892608	58	6480
2026-01-22 19:22:16.16	320.18	9.46	-42.8	-44.1	20.3	0.00e+00	0	41	0	927989760	58	6475
2026-01-22 19:22:17.17	320.03	9.41	-42.9	-44.2	20.2	0.00e+00	92	41	0	929038336	58	6560
2026-01-22 19:22:18.18	319.89	9.36	-42.8	-44.0	20.3	0.00e+00	0	41	0	931135488	58	6462
2026-01-22 19:22:19.19	319.74	9.31	-42.7	-43.9	20.5	0.00e+00	88	41	0	933232640	58	6379
2026-01-22 19:22:20.20	319.60	9.26	-42.7	-44.0	20.4	0.00e+00	0	41	0	935329792	58	6405
2026-01-22 19:22:21.21	319.45	9.22	-42.5	-43.8	20.4	0.00e+00	0	41	0	937426944	58	6283
2026-01-22 19:22:22.22	319.31	9.17	-42.4	-43.6	20.7	0.00e+00	43	41	0	938475520	58	6169
2026-01-22 19:22:23.23	319.17	9.12	-42.3	-43.5	20.7	0.00e+00	0	41	0	940572672	58	6074
2026-01-22 19:22:24.24	319.02	9.07	-42.3	-43.5	20.8	0.00e+00	96	41	0	942669824	58	6056
2026-01-22 19:22:25.25	318.88	9.02	-42.3	-43.5	20.8	0.00e+00	0	41	0	944766976	58	6043
2026-01-22 19:22:26.26	318.74	8.97	-42.1	-43.2	21.0	0.00e+00	54	41	0	946864128	58	5895
2026-01-22 19:22:27.27	318.60	8.92	-42.0	-43.2	21.1	0.00e+00	0	41	0	947912704	58	5842
2026-01-22 19:22:28.28	318.46	8.87	-41.9	-43.1	21.1	0.00e+00	33	41	0	950009856	58	5792
2026-01-22 19:22:29.29	318.32	8.82	-41.9	-43.0	21.1	0.00e+00	41	41	0	952107008	58	5745
2026-01-22 19:22:30.30	318.18	8.77	-41.9	-43.0	21.2	0.00e+00	0	41	0	954204160	58	5753
2026-01-22 19:22:31.31	318.04	8.72	-41.8	-43.0	21.1	0.00e+00	53	41	0	956301312	58	5741
2026-01-22 19:22:32.32	317.90	8.67	-42.1	-43.4	20.9	0.00e+00	0	41	0	957349888	58	5978
2026-01-22 19:22:33.33	317.76	8.62	-42.4	-43.7	20.6	0.00e+00	90	41	0	959447040	58	6211
2026-01-22 19:22:34.34	317.63	8.57	-42.4	-43.7	20.5	0.00e+00	0	41	0	961544192	58	6214
2026-01-22 19:22:35.35	317.49	8.52	-42.5	-43.8	20.6	0.00e+00	0	41	0	963641344	58	6263
2026-01-22 19:22:36.36	317.35	8.47	-42.6	-43.8	20.5	0.00e+00	0	41	0	965738496	58	6305
2026-01-22 19:22:37.37	317.21	8.42	-42.8	-44.2	20.0	0.00e+00	0	41	0	967835648	58	6568
2026-01-22 19:22:38.38	317.08	8.37	-42.6	-43.9	20.3	0.00e+00	41	41	0	968884224	58	6384
2026-01-22 19:22:39.39	316.94	8.32	-42.9	-44.2	20.0	0.00e+00	0	41	0	970981376	58	6596
2026-01-22 19:22:40.41	316.81	8.27	-43.0	-44.4	20.0	0.00e+00	78	41	0	973078528	58	6718
2026-01-22 19:22:41.42	316.67	8.22	-42.5	-43.8	20.4	0.00e+00	0	41	0	975175680	58	6309
2026-01-22 19:22:42.43	316.54	8.17	-42.4	-43.7	20.5	0.00e+00	0	41	0	977272832	58	6208
2026-01-22 19:22:43.44	316.41	8.12	-42.5	-43.8	20.4	0.00e+00	0	41	0	978321408	58	6275
2026-01-22 19:22:44.45	316.27	8.07	-42.5	-43.7	20.5	0.00e+00	0	41	0	980418560	58	6239
2026-01-22 19:22:45.46	316.14	8.02	-42.3	-43.5	20.8	0.00e+00	28	41	0	982515712	58	6083
2026-01-22 19:22:46.46	316.01	7.97	-42.4	-43.7	20.6	0.00e+00	0	41	0	984612864	58	6214
2026-01-22 19:22:47.47	315.88	7.92	-42.2	-43.5	20.6	0.00e+00	90	41	0	986710016	58	6035
2026-01-22 19:22:48.48	315.75	7.87	-42.3	-43.5	20.6	0.00e+00	0	41	0	987758592	58	6090
2026-01-22 19:22:49.49	315.62	7.82	-42.2	-43.5	20.7	0.00e+00	0	41	0	989855744	58	6040
2026-01-22 19:22:50.50	315.49	7.77	-42.0	-43.3	21.0	0.00e+00	0	41	0	991952896	58	5912
2026-01-22 19:22:51.51	315.36	7.72	-42.2	-43.4	20.8	0.00e+00	0	41	0	994050048	58	6014
2026-01-22 19:22:52.52	315.23	7.67	-41.9	-43.1	21.0	0.00e+00	0	41	0	996147200	58	5821
2026-01-22 19:22:53.53	315.10	7.62	-41.7	-42.9	21.3	0.00e+00	0	41	0	997195776	56	6341
2026-01-22 19:22:54.54	314.97	7.57	-41.7	-42.8	21.3	0.00e+00	83	41	0	999292928	56	6306
2026-01-22 19:22:55.55	314.84	7.52	-41.3	-42.4	21.7	0.00e+00	0	41	0	1001390080	56	6011
2026-01-22 19:22:56.56	314.71	7.47	-41.0	-42.0	22.0	0.00e+00	0	41	0	1003487232	56	5753
2026-01-22 19:22:57.57	314.59	7.42	-41.0	-42.1	21.9	0.00e+00	0	41	0	1005584384	56	5781
2026-01-22 19:22:58.58	314.46	7.37	-40.9	-41.9	22.0	0.00e+00	0	41	0	1006632960	56	5688
2026-01-22 19:22:59.59	314.33	7.32	-41.0	-42.1	21.8	0.00e+00	38	41	0	1008730112	56	5793
2026-01-22 19:23:00.60	314.21	7.26	-41.1	-42.1	21.9	0.00e+00	0	41	0	1010827264	56	5808
2026-01-22 19:23:01.61	314.08	7.21	-41.3	-42.4	21.8	0.00e+00	45	41	0	1012924416	56	5972
2026-01-22 19:23:02.62	313.96	7.16	-41.3	-42.4	21.6	0.00e+00	0	41	0	1015021568	56	5979
2026-01-22 19:23:03.62	313.84	7.11	-41.4	-42.5	21.6	0.00e+00	92	41	0	1016070144	56	6059
2026-01-22 19:23:04.63	313.71	7.06	-41.3	-42.5	21.6	0.00e+00	0	41	0	1018167296	56	6049
2026-01-22 19:23:05.64	313.59	7.01	-41.3	-42.4	21.7	0.00e+00	0	41	0	1020264448	56	5998
2026-01-22 19:23:06.65	313.47	6.96	-41.2	-42.3	21.7	0.00e+00	0	41	0	1022361600	56	5929
2026-01-22 19:23:07.66	313.34	6.91	-41.5	-42.6	21.3	0.00e+00	0	41	0	1024458752	56	6167
2026-01-22 19:23:08.67	313.22	6.86	-41.4	-42.6	21.5	0.00e+00	87	41	0	1025507328	56	6116
2026-01-22 19:23:09.68	313.10	6.81	-41.2	-42.3	21.7	0.00e+00	0	41	0	1027604480	56	5904
2026-01-22 19:23:10.69	312.98	6.76	-41.2	-42.3	21.6	0.00e+00	72	41	0	1029701632	56	5947
2026-01-22 19:23:11.70	312.86	6.70	-41.1	-42.1	21.8	0.00e+00	0	41	0	1031798784	56	5821
2026-01-22 19:23:12.71	312.74	6.65	-41.2	-42.3	21.8	0.00e+00	0	41	0	1033895936	56	5903
2026-01-22 19:23:13.72	312.62	6.60	-41.4	-42.5	21.5	0.00e+00	0	41	0	1035993088	56	6047
2026-01-22 19:23:14.73	312.50	6.55	-41.2	-42.3	21.6	0.00e+00	0	41	0	1037041664	56	5954
2026-01-22 19:23:15.74	312.38	6.50	-41.6	-42.8	21.1	0.00e+00	35	41	0	1039138816	56	6272
2026-01-22 19:23:16.75	312.26	6.45	-42.0	-43.3	20.9	0.00e+00	0	41	0	1041235968	56	6621
2026-01-22 19:23:17.76	312.14	6.40	-41.9	-43.1	20.8	0.00e+00	92	41	0	1043333120	56	6525
2026-01-22 19:23:18.77	312.02	6.35	-42.1	-43.3	20.7	0.00e+00	0	41	0	1045430272	56	6692
2026-01-22 19:23:19.77	311.91	6.30	-42.3	-43.6	20.5	0.00e+00	0	41	0	1046478848	56	6908
2026-01-22 19:23:20.78	311.79	6.24	-42.4	-43.7	20.5	0.00e+00	0	41	0	1048576000	56	6985
2026-01-22 19:23:21.79	311.67	6.19	-42.5	-43.8	20.3	0.00e+00	0	41	0	1050673152	56	7042
2026-01-22 19:23:22.80	311.56	6.14	-42.3	-43.6	20.4	0.00e+00	18	41	0	1052770304	56	6920
2026-01-22 19:23:23.81	311.44	6.09	-42.4	-43.8	20.4	0.00e+00	0	41	0	1054867456	56	7008
2026-01-22 19:23:24.82	311.33	6.04	-42.2	-43.5	20.5	0.00e+00	92	41	0	1055916032	56	6829
2026-01-22 19:23:25.83	311.21	5.99	-42.4	-43.8	20.1	0.00e+00	0	41	0	1058013184	56	7016
2026-01-22 19:23:26.84	311.10	5.94	-42.2	-43.4	20.3	0.00e+00	0	41	0	1060110336	56	6767
2026-01-22 19:23:27.85	310.98	5.88	-42.5	-43.8	20.1	0.00e+00	0	41	0	1062207488	56	7078
2026-01-22 19:23:28.86	310.87	5.83	-42.4	-43.7	20.3	0.00e+00	0	41	0	1064304640	56	6959
2026-01-22 19:23:29.87	310.76	5.78	-42.5	-43.9	20.2	0.00e+00	41	41	0	1065353216	56	7115
2026-01-22 19:23:30.88	310.64	5.73	-42.5	-43.8	20.3	0.00e+00	0	41	0	1067450368	56	7052
2026-01-22 19:23:31.89	310.53	5.68	-42.6	-44.0	20.0	0.00e+00	73	41	0	1069547520	58	6413
2026-01-22 19:23:32.90	310.42	5.63	-42.8	-44.1	20.0	0.00e+00	0	41	0	1071644672	58	6530
2026-01-22 19:23:33.91	310.31	5.58	-42.6	-43.9	19.8	0.00e+00	0	41	0	1073741824	58	6370
2026-01-22 19:23:34.92	310.20	5.53	-42.3	-43.6	20.0	0.00e+00	0	41	0	1074790400	58	6106
2026-01-22 19:23:35.93	310.09	5.47	-42.3	-43.6	20.2	0.00e+00	0	41	0	1076887552	58	6141
2026-01-22 19:23:36.94	309.98	5.42	-42.2	-43.5	20.3	0.00e+00	33	41	0	1078984704	58	6091
2026-01-22 19:23:37.95	309.87	5.37	-42.3	-43.7	20.3	0.00e+00	0	41	0	1081081856	58	6178
2026-01-22 19:23:38.96	309.76	5.32	-42.4	-43.7	20.3	0.00e+00	38	41	0	1083179008	58	6209
2026-01-22 19:23:39.97	309.65	5.27	-41.9	-43.2	20.8	0.00e+00	0	41	0	1084227584	58	5856
2026-01-22 19:23:40.98	309.54	5.22	-42.2	-43.5	20.6	0.00e+00	77	41	0	1086324736	58	6052
2026-01-22 19:23:41.98	309.43	5.17	-42.0	-43.2	20.8	0.00e+00	0	41	0	1088421888	58	5854
2026-01-22 19:23:42.99	309.32	5.12	-41.7	-42.9	20.9	0.00e+00	0	41	0	1090519040	56	6332
2026-01-22 19:23:44.00	309.22	5.06	-42.1	-43.3	20.6	0.00e+00	0	41	0	1092616192	56	6687
2026-01-22 19:23:45.01	309.11	5.01	-41.8	-43.1	20.8	0.00e+00	0	41	0	1093664768	56	6465
2026-01-22 19:23:46.02	309.00	4.96	-41.9	-43.1	20.8	0.00e+00	39	41	0	1095761920	56	6505
2026-01-22 19:23:47.03	308.89	4.91	-41.6	-42.8	21.0	0.00e+00	0	41	0	1097859072	56	6305
2026-01-22 19:23:48.04	308.79	4.86	-41.7	-42.9	20.9	0.00e+00	92	41	0	1099956224	56	6377
2026-01-22 19:23:49.05	308.68	4.81	-41.8	-43.1	20.7	0.00e+00	0	41	0	1102053376	56	6479
2026-01-22 19:23:50.06	308.58	4.76	-42.0	-43.3	20.5	0.00e+00	0	41	0	1104150528	56	6663
2026-01-22 19:23:51.07	308.47	4.70	-42.0	-43.3	20.6	0.00e+00	0	41	0	1105199104	56	6640
2026-01-22 19:23:52.09	308.37	4.65	-42.0	-43.3	20.5	0.00e+00	0	41	0	1107296256	56	6637
2026-01-22 19:23:53.10	308.26	4.60	-42.4	-43.8	19.9	0.00e+00	34	41	0	1109393408	56	7048
2026-01-22 19:23:54.11	308.16	4.55	-42.5	-43.9	20.1	0.00e+00	0	41	0	1111490560	56	7135
2026-01-22 19:23:55.12	308.06	4.50	-42.4	-43.8	20.0	0.00e+00	92	41	0	1113587712	56	7058
2026-01-22 19:23:56.13	307.95	4.45	-42.9	-44.4	19.5	0.00e+00	0	41	0	1114636288	58	6743
2026-01-22 19:23:57.14	307.85	4.40	-43.1	-44.6	19.3	0.00e+00	0	41	0	1116733440	58	6872
2026-01-22 19:23:58.15	307.75	4.35	-42.6	-44.0	19.7	0.00e+00	0	41	0	1118830592	58	6463
2026-01-22 19:23:59.16	307.65	4.29	-42.9	-44.3	19.5	0.00e+00	29	41	0	1120927744	58	6688
2026-01-22 19:24:00.16	307.55	4.24	-42.8	-44.2	19.7	0.00e+00	28	41	0	1123024896	58	6575
2026-01-22 19:24:01.17	307.44	4.19	-42.3	-43.6	20.1	0.00e+00	0	41	0	1124073472	58	6155
2026-01-22 19:24:02.18	307.34	4.14	-42.0	-43.3	20.4	0.00e+00	91	41	0	1126170624	58	5919
2026-01-22 19:24:03.19	307.24	4.09	-42.3	-43.6	20.2	0.00e+00	0	41	0	1128267776	58	6123
2026-01-22 19:24:04.20	307.14	4.04	-41.9	-43.1	20.5	0.00e+00	22	41	0	1130364928	56	6539
2026-01-22 19:24:05.21	307.04	3.99	-42.1	-43.4	20.2	0.00e+00	0	41	0	1132462080	56	6744
2026-01-22 19:24:06.22	306.94	3.94	-41.7	-42.9	20.9	0.00e+00	0	41	0	1133510656	56	6332
2026-01-22 19:24:07.23	306.84	3.89	-41.6	-42.7	20.9	0.00e+00	40	41	0	1135607808	56	6242
2026-01-22 19:24:08.24	306.75	3.83	-41.9	-43.1	20.4	0.00e+00	0	41	0	1137704960	56	6530
2026-01-22 19:24:09.25	306.65	3.78	-41.4	-42.5	21.0	0.00e+00	90	41	0	1139802112	56	6092
2026-01-22 19:24:10.26	306.55	3.73	-41.6	-42.9	20.5	0.00e+00	0	41	0	1141899264	56	6333
2026-01-22 19:24:11.27	306.45	3.68	-42.1	-43.4	20.1	0.00e+00	32	41	0	1142947840	56	6724
2026-01-22 19:24:12.28	306.35	3.63	-42.3	-43.6	20.0	0.00e+00	0	41	0	1145044992	56	6925
2026-01-22 19:24:13.29	306.26	3.58	-42.3	-43.6	20.1	0.00e+00	0	41	0	1147142144	58	6164
2026-01-22 19:24:14.30	306.16	3.53	-42.2	-43.5	20.1	0.00e+00	41	41	0	1149239296	56	6819
2026-01-22 19:24:15.31	306.07	3.48	-42.3	-43.6	20.1	0.00e+00	0	41	0	1151336448	56	6904
2026-01-22 19:24:16.32	305.97	3.43	-42.9	-44.4	19.2	0.00e+00	92	41	0	1152385024	56	7580
2026-01-22 19:24:17.33	305.87	3.38	-42.1	-43.4	20.2	0.00e+00	0	41	0	1154482176	58	5981
2026-01-22 19:24:18.34	305.78	3.32	-42.6	-44.0	19.5	0.00e+00	77	41	0	1156579328	58	6452
2026-01-22 19:24:19.35	305.68	3.27	-42.5	-44.0	19.5	0.00e+00	0	41	0	1158676480	58	6392
2026-01-22 19:24:20.36	305.59	3.22	-43.2	-44.8	18.9	0.00e+00	0	41	0	1160773632	58	7047
2026-01-22 19:24:21.37	305.49	3.17	-43.2	-44.8	18.8	0.00e+00	0	41	0	1161822208	58	7049
2026-01-22 19:24:22.38	305.40	3.12	-43.5	-45.1	18.6	0.00e+00	0	41	0	1163919360	58	7299
2026-01-22 19:24:23.39	305.31	3.07	-43.8	-45.6	18.0	0.00e+00	31	41	0	1166016512	60	6870
2026-01-22 19:24:24.40	305.21	3.02	-47.8	-52.6	3.5	1.21e-01	11	41	0	1168113664	60	15412
2026-01-22 19:24:25.41	305.12	2.97	-50.2	-65.4	3.6	1.51e+00	0	41	104	1168113664	60	67613
2026-01-22 19:24:26.42	305.03	2.92	-50.5	-65.7	3.6	1.51e+00	0	41	104	1168113664	60	69611
2026-01-22 19:24:27.43	304.94	2.87	-50.7	-65.9	3.6	1.51e+00	0	41	104	1168113664	60	71199
2026-01-22 19:24:28.44	304.85	2.82	-50.8	-66.1	3.6	1.51e+00	0	41	104	1168113664	60	72694
2026-01-22 19:24:29.45	304.75	2.77	-50.9	-66.1	3.6	1.51e+00	0	41	104	1168113664	60	73373
2026-01-22 19:24:30.46	304.66	2.72	-50.9	-66.2	3.6	1.51e+00	0	41	104	1168113664	60	73616
2026-01-22 19:24:31.47	304.57	2.67	-51.0	-66.2	3.6	1.51e+00	0	41	104	1168113664	60	73611
2026-01-22 19:24:32.48	304.48	2.61	-51.0	-66.2	3.6	1.51e+00	0	41	104	1168113664	60	74150
2026-01-22 19:24:33.49	304.39	2.56	-51.0	-66.3	3.6	1.51e+00	0	41	104	1168113664	60	74487
2026-01-22 19:24:34.50	304.30	2.51	-51.1	-66.3	3.6	1.51e+00	0	41	104	1168113664	60	74437
