passes_logs/2026/01/22/R4.6S_Anadyr/R4.6S_Anadyr__20260122_030548_FENGYUN_3D_rec.log

#Pass ID: 20260122_030548_FENGYUN 3D
#Satellite: FENGYUN 3D
#Configuration: FENGYUN 3D
#almurnet v.1.7.20251203
#Start time: 2026-01-22 03:05:51

#Version: 2.2.20231116
#Station: R4.6S_Anadyr
#Location: 177.4865 lon 64.73178 lat
#TLE: 1 43010U 17072A   26020.92362722 -.00000077  00000+0 -14488-4 0  9992
#TLE: 2 43010  98.9946 352.8312 0002486  99.3651 260.7806 14.19696535424099

#Time	Az	El	Level	Level2	SNR	BER	BlckErr	Temp	State	Recorded	gain1	gain2
2026-01-22 03:05:51.26	176.94	0.14	-51.8	-66.7	3.5	1.51e+00	0	38	0	0	60	78536
2026-01-22 03:05:52.26	176.96	0.20	-52.9	-65.1	3.6	8.45e-01	0	39	104	0	60	65251
2026-01-22 03:05:53.27	176.99	0.26	-52.9	-65.1	3.6	8.46e-01	0	39	104	0	60	64789
2026-01-22 03:05:54.28	177.02	0.32	-53.1	-65.3	3.6	8.46e-01	0	39	104	0	60	66187
2026-01-22 03:05:55.29	177.05	0.38	-52.2	-64.4	3.6	8.46e-01	0	39	104	0	60	60310
2026-01-22 03:05:56.30	177.08	0.44	-51.8	-64.0	3.6	8.45e-01	0	39	104	0	60	57097
2026-01-22 03:05:57.31	177.11	0.50	-52.2	-64.3	3.6	8.44e-01	0	40	104	0	60	59547
2026-01-22 03:05:58.32	177.14	0.56	-51.9	-64.1	3.6	8.45e-01	0	40	104	0	60	58099
2026-01-22 03:05:59.33	177.17	0.62	-51.9	-64.1	3.6	8.46e-01	0	40	104	0	60	57807
2026-01-22 03:06:00.34	177.20	0.68	-52.5	-64.7	3.6	8.45e-01	0	40	104	0	60	61913
2026-01-22 03:06:01.35	177.23	0.74	-52.3	-64.5	3.6	8.44e-01	0	40	104	0	60	60483
2026-01-22 03:06:02.36	177.26	0.80	-52.5	-64.6	3.6	8.44e-01	0	40	104	0	60	61717
2026-01-22 03:06:03.37	177.29	0.86	-52.4	-64.5	3.6	8.45e-01	0	40	104	0	60	60907
2026-01-22 03:06:04.38	177.32	0.92	-52.0	-64.2	3.6	8.45e-01	0	40	104	0	60	58806
2026-01-22 03:06:05.39	177.35	0.98	-51.9	-64.1	3.6	8.44e-01	0	40	104	0	60	57843
2026-01-22 03:06:06.40	177.38	1.05	-51.8	-63.9	3.6	8.45e-01	0	40	104	0	60	56926
2026-01-22 03:06:07.41	177.41	1.11	-51.4	-63.5	3.6	8.45e-01	0	40	104	0	60	53903
2026-01-22 03:06:08.42	177.44	1.17	-51.1	-63.3	3.6	8.45e-01	0	40	104	0	60	52941
2026-01-22 03:06:09.43	177.47	1.23	-50.9	-63.1	3.6	8.45e-01	0	40	104	0	60	51718
2026-01-22 03:06:10.44	177.50	1.29	-51.0	-63.1	3.6	8.45e-01	0	40	104	0	60	51580
2026-01-22 03:06:11.45	177.53	1.35	-50.8	-63.0	3.6	8.46e-01	0	40	104	0	60	50926
2026-01-22 03:06:12.46	177.56	1.42	-50.7	-62.8	3.6	8.45e-01	0	40	104	0	60	49888
2026-01-22 03:06:13.47	177.60	1.48	-50.6	-62.7	3.5	8.45e-01	0	40	104	0	60	49496
2026-01-22 03:06:14.48	177.63	1.54	-50.4	-62.6	3.6	8.45e-01	0	40	104	0	60	48507
2026-01-22 03:06:15.49	177.66	1.60	-50.1	-62.2	3.6	8.45e-01	0	40	104	0	60	46710
2026-01-22 03:06:16.50	177.69	1.66	-50.0	-62.1	3.6	8.45e-01	0	40	104	0	60	46180
2026-01-22 03:06:17.51	177.72	1.73	-50.2	-62.3	3.6	8.46e-01	0	40	104	0	60	47235
2026-01-22 03:06:18.52	177.75	1.79	-50.1	-62.3	3.6	8.45e-01	0	40	104	0	60	46864
2026-01-22 03:06:19.53	177.79	1.85	-50.1	-62.1	3.6	8.45e-01	0	40	104	0	60	46173
2026-01-22 03:06:20.55	177.82	1.92	-50.2	-62.2	3.6	8.45e-01	0	40	104	0	60	46760
2026-01-22 03:06:21.56	177.85	1.98	-50.1	-62.1	3.6	8.45e-01	0	40	104	0	60	46089
2026-01-22 03:06:22.57	177.88	2.04	-50.0	-61.9	3.6	8.46e-01	0	40	104	0	60	45129
2026-01-22 03:06:23.58	177.91	2.11	-50.0	-62.0	3.6	8.45e-01	0	40	104	0	60	45464
2026-01-22 03:06:24.59	177.95	2.17	-50.2	-62.2	3.6	8.45e-01	0	40	104	0	60	46737
2026-01-22 03:06:25.60	177.98	2.23	-49.9	-61.9	3.6	8.46e-01	0	40	104	0	60	45004
2026-01-22 03:06:26.60	178.01	2.30	-50.0	-62.0	3.6	8.45e-01	0	40	104	0	60	45456
2026-01-22 03:06:27.61	178.04	2.36	-50.1	-62.1	3.6	8.46e-01	0	40	104	0	60	45806
2026-01-22 03:06:28.62	178.08	2.42	-50.2	-62.3	3.6	8.44e-01	0	40	104	0	60	46943
2026-01-22 03:06:29.63	178.11	2.49	-50.3	-62.2	3.6	8.45e-01	0	40	104	0	60	46340
2026-01-22 03:06:30.64	178.14	2.55	-50.1	-62.2	3.6	8.44e-01	0	40	104	0	60	46378
2026-01-22 03:06:31.65	178.18	2.62	-50.1	-62.2	3.6	8.46e-01	0	40	104	0	60	46776
2026-01-22 03:06:32.66	178.21	2.68	-50.0	-62.1	3.6	8.46e-01	0	40	104	0	60	45884
2026-01-22 03:06:33.67	178.24	2.75	-49.9	-61.0	3.6	8.46e-01	0	40	104	0	60	40517
2026-01-22 03:06:34.68	178.28	2.81	-49.7	-59.7	3.6	8.43e-01	0	40	104	0	60	34810
2026-01-22 03:06:35.69	178.31	2.88	-49.5	-59.0	3.9	8.43e-01	0	40	104	0	60	32031
2026-01-22 03:06:36.71	178.35	2.94	-49.5	-59.1	3.8	8.43e-01	0	40	104	0	60	32710
2026-01-22 03:06:37.72	178.38	3.01	-49.5	-59.2	3.7	8.42e-01	0	40	104	0	60	33093
2026-01-22 03:06:38.73	178.42	3.07	-49.7	-60.8	3.6	8.44e-01	0	40	104	0	60	39675
2026-01-22 03:06:39.74	178.45	3.14	-49.6	-60.5	3.6	8.46e-01	0	40	104	0	60	38496
2026-01-22 03:06:40.75	178.48	3.20	-49.0	-56.1	5.3	8.20e-01	0	40	104	0	60	23110
2026-01-22 03:06:41.76	178.52	3.27	-47.3	-50.7	9.8	6.55e-02	0	40	0	3145728	60	12454
2026-01-22 03:06:42.77	178.55	3.34	-45.5	-47.8	12.9	6.28e-04	0	40	0	8388608	60	8822
2026-01-22 03:06:43.78	178.59	3.40	-42.9	-44.3	16.6	0.00e+00	0	40	0	14680064	60	5911
2026-01-22 03:06:44.79	178.62	3.47	-43.7	-45.2	16.1	0.00e+00	0	40	0	19922944	60	6569
2026-01-22 03:06:45.80	178.66	3.54	-41.2	-42.3	18.8	0.00e+00	0	40	0	26214400	56	5949
2026-01-22 03:06:46.81	178.70	3.60	-39.8	-40.8	20.3	0.00e+00	0	40	0	31457280	54	5577
2026-01-22 03:06:47.82	178.73	3.67	-39.9	-40.8	20.1	0.00e+00	0	40	0	37748736	52	6311
2026-01-22 03:06:48.83	178.77	3.74	-39.2	-40.1	21.0	0.00e+00	0	40	0	42991616	52	5769
2026-01-22 03:06:49.84	178.80	3.80	-40.3	-41.3	19.8	0.00e+00	0	40	0	48234496	52	6677
2026-01-22 03:06:50.85	178.84	3.87	-47.2	-50.3	8.6	6.80e-06	0	40	0	54525952	60	11810
2026-01-22 03:06:51.86	178.88	3.94	-41.0	-42.1	18.1	0.00e+00	0	40	0	59768832	52	7294
2026-01-22 03:06:52.87	178.91	4.01	-49.6	-55.8	3.6	1.49e-01	0	40	0	65011712	60	22334
2026-01-22 03:06:53.88	178.95	4.07	-40.8	-41.8	17.1	1.10e-06	0	40	104	65011712	50	7926
2026-01-22 03:06:54.89	178.98	4.14	-39.9	-40.7	20.9	0.00e+00	0	40	0	69206016	54	5566
2026-01-22 03:06:55.90	179.02	4.21	-38.9	-39.8	21.3	0.00e+00	0	40	0	75497472	52	5600
2026-01-22 03:06:56.91	179.06	4.28	-38.6	-39.4	21.8	0.00e+00	0	40	0	80740352	50	6007
2026-01-22 03:06:57.92	179.10	4.35	-39.6	-40.5	20.8	0.00e+00	0	40	0	87031808	50	6792
2026-01-22 03:06:58.93	179.13	4.41	-39.7	-40.6	20.6	0.00e+00	0	40	0	92274688	50	6865
2026-01-22 03:06:59.94	179.17	4.48	-39.5	-40.3	21.0	0.00e+00	0	40	0	97517568	52	5963
2026-01-22 03:07:00.95	179.21	4.55	-38.8	-39.7	21.5	0.00e+00	0	40	0	103809024	52	5529
2026-01-22 03:07:01.96	179.25	4.62	-39.0	-39.9	21.1	0.00e+00	0	40	0	109051904	50	6362
2026-01-22 03:07:02.97	179.28	4.69	-38.6	-39.4	21.8	0.00e+00	0	40	0	115343360	50	6023
2026-01-22 03:07:03.99	179.32	4.76	-38.6	-39.4	21.5	0.00e+00	0	40	0	120586240	50	6001
2026-01-22 03:07:05.00	179.36	4.83	-38.5	-39.4	21.5	0.00e+00	0	40	0	125829120	50	5980
2026-01-22 03:07:06.01	179.40	4.90	-38.5	-39.3	21.8	0.00e+00	0	40	0	132120576	50	5942
2026-01-22 03:07:07.02	179.44	4.97	-38.0	-38.8	22.2	0.00e+00	0	40	0	137363456	50	5583
2026-01-22 03:07:08.03	179.48	5.04	-38.0	-38.8	22.1	0.00e+00	0	40	0	143654912	50	5588
2026-01-22 03:07:09.04	179.52	5.11	-37.9	-38.7	22.2	0.00e+00	0	40	0	148897792	50	5548
2026-01-22 03:07:10.05	179.56	5.18	-37.9	-38.7	22.4	0.00e+00	0	40	0	154140672	50	5554
2026-01-22 03:07:11.06	179.59	5.25	-38.2	-39.0	22.2	0.00e+00	0	40	0	160432128	50	5729
2026-01-22 03:07:12.07	179.63	5.32	-37.6	-38.4	22.6	0.00e+00	0	40	0	165675008	48	5978
2026-01-22 03:07:13.08	179.67	5.39	-37.7	-38.5	22.6	0.00e+00	0	40	0	171966464	48	6091
2026-01-22 03:07:14.09	179.71	5.46	-37.7	-38.4	22.6	0.00e+00	0	40	0	177209344	48	6027
2026-01-22 03:07:15.10	179.75	5.54	-37.3	-38.0	23.0	0.00e+00	0	40	0	183500800	48	5756
2026-01-22 03:07:16.11	179.79	5.61	-37.5	-38.3	22.9	0.00e+00	0	40	0	188743680	48	5922
2026-01-22 03:07:17.12	179.83	5.68	-37.5	-38.3	23.0	0.00e+00	0	40	0	195035136	48	5919
2026-01-22 03:07:18.13	179.87	5.75	-37.4	-38.1	23.1	0.00e+00	0	40	0	200278016	48	5809
2026-01-22 03:07:19.14	179.92	5.82	-37.4	-38.1	23.0	0.00e+00	0	40	0	205520896	48	5808
2026-01-22 03:07:20.15	179.96	5.90	-37.6	-38.3	22.9	0.00e+00	0	40	0	211812352	48	5957
2026-01-22 03:07:21.16	180.00	5.97	-37.4	-38.2	23.1	0.00e+00	0	40	0	217055232	48	5831
2026-01-22 03:07:22.17	180.04	6.04	-37.5	-38.2	23.1	0.00e+00	0	40	0	222298112	48	5886
2026-01-22 03:07:23.18	180.08	6.11	-37.3	-38.1	23.2	0.00e+00	0	40	0	228589568	48	5780
2026-01-22 03:07:24.19	180.12	6.19	-37.1	-37.9	23.4	0.00e+00	0	40	0	233832448	48	5648
2026-01-22 03:07:25.20	180.16	6.26	-37.3	-38.0	23.3	0.00e+00	0	40	0	240123904	48	5760
2026-01-22 03:07:26.21	180.21	6.33	-37.4	-38.2	23.2	0.00e+00	0	40	0	245366784	48	5835
2026-01-22 03:07:27.21	180.25	6.41	-37.2	-38.0	23.3	0.00e+00	0	40	0	250609664	48	5705
2026-01-22 03:07:28.23	180.29	6.48	-37.5	-38.3	23.0	0.00e+00	0	40	0	256901120	48	5934
2026-01-22 03:07:29.24	180.33	6.56	-37.3	-38.0	23.3	0.00e+00	0	40	0	262144000	48	5727
2026-01-22 03:07:30.25	180.38	6.63	-37.3	-38.0	23.2	0.00e+00	0	40	0	268435456	48	5739
2026-01-22 03:07:31.26	180.42	6.70	-37.8	-38.5	22.8	0.00e+00	0	40	0	273678336	48	6096
2026-01-22 03:07:32.27	180.46	6.78	-37.5	-38.3	22.9	0.00e+00	0	40	0	279969792	48	5942
2026-01-22 03:07:33.28	180.51	6.85	-36.9	-37.6	23.5	0.00e+00	0	40	0	285212672	48	5481
2026-01-22 03:07:34.29	180.55	6.93	-37.1	-37.9	23.4	0.00e+00	0	40	0	291504128	48	5652
2026-01-22 03:07:35.30	180.59	7.00	-37.0	-37.7	23.5	0.00e+00	0	40	0	296747008	48	5543
2026-01-22 03:07:36.31	180.64	7.08	-37.4	-38.2	23.1	0.00e+00	0	40	0	301989888	48	5852
2026-01-22 03:07:37.32	180.68	7.16	-37.2	-37.9	23.3	0.00e+00	0	40	0	308281344	48	5684
2026-01-22 03:07:38.33	180.73	7.23	-37.5	-38.2	23.2	0.00e+00	0	40	0	313524224	48	5895
2026-01-22 03:07:39.34	180.77	7.31	-37.2	-38.0	23.2	0.00e+00	0	40	0	319815680	48	5713
2026-01-22 03:07:40.35	180.82	7.38	-37.5	-38.2	23.0	0.00e+00	0	40	0	325058560	48	5895
2026-01-22 03:07:41.36	180.86	7.46	-37.1	-37.9	23.4	0.00e+00	0	40	0	330301440	48	5640
2026-01-22 03:07:42.37	180.91	7.54	-37.1	-37.9	23.4	0.00e+00	0	40	0	336592896	48	5640
2026-01-22 03:07:43.38	180.95	7.61	-37.2	-37.9	23.2	0.00e+00	0	40	0	341835776	48	5680
2026-01-22 03:07:44.39	181.00	7.69	-37.1	-37.8	23.2	0.00e+00	0	40	0	348127232	48	5610
2026-01-22 03:07:45.40	181.05	7.77	-37.1	-37.9	23.2	0.00e+00	0	40	0	353370112	48	5671
2026-01-22 03:07:46.41	181.09	7.85	-37.2	-37.9	23.3	0.00e+00	0	40	0	358612992	48	5680
2026-01-22 03:07:47.42	181.14	7.92	-37.1	-37.9	23.3	0.00e+00	0	40	0	364904448	48	5637
2026-01-22 03:07:48.43	181.18	8.00	-37.0	-37.8	23.4	0.00e+00	0	41	0	370147328	48	5581
2026-01-22 03:07:49.44	181.23	8.08	-36.9	-37.7	23.5	0.00e+00	0	41	0	376438784	48	5504
2026-01-22 03:07:50.45	181.28	8.16	-36.8	-37.5	23.6	0.00e+00	0	41	0	381681664	46	6068
2026-01-22 03:07:51.46	181.33	8.24	-36.8	-37.5	23.7	0.00e+00	0	40	0	387973120	46	6074
2026-01-22 03:07:52.47	181.37	8.32	-36.7	-37.4	23.8	0.00e+00	0	41	0	393216000	46	5993
2026-01-22 03:07:53.48	181.42	8.40	-36.5	-37.2	23.9	0.00e+00	0	41	0	399507456	46	5885
2026-01-22 03:07:54.48	181.47	8.48	-36.6	-37.3	23.8	0.00e+00	0	41	0	404750336	46	5948
2026-01-22 03:07:55.49	181.52	8.56	-36.5	-37.2	23.9	0.00e+00	0	41	0	409993216	46	5896
2026-01-22 03:07:56.51	181.57	8.64	-36.5	-37.2	23.8	0.00e+00	0	40	0	416284672	46	5879
2026-01-22 03:07:57.52	181.62	8.72	-36.5	-37.3	23.9	0.00e+00	0	41	0	421527552	46	5900
2026-01-22 03:07:58.53	181.67	8.80	-36.5	-37.2	23.8	0.00e+00	0	41	0	427819008	46	5859
2026-01-22 03:07:59.54	181.72	8.88	-36.3	-37.1	24.0	0.00e+00	0	41	0	433061888	46	5772
2026-01-22 03:08:00.55	181.76	8.96	-36.4	-37.1	24.0	0.00e+00	0	41	0	438304768	46	5828
2026-01-22 03:08:01.56	181.81	9.04	-36.2	-37.0	24.2	0.00e+00	0	41	0	444596224	46	5698
2026-01-22 03:08:02.57	181.87	9.12	-36.2	-36.9	24.2	0.00e+00	0	41	0	449839104	46	5662
2026-01-22 03:08:03.58	181.92	9.20	-36.3	-37.0	24.1	0.00e+00	0	41	0	456130560	46	5740
2026-01-22 03:08:04.59	181.97	9.29	-36.2	-36.9	24.2	0.00e+00	0	41	0	461373440	46	5672
2026-01-22 03:08:05.60	182.02	9.37	-36.2	-36.9	24.4	0.00e+00	0	41	0	466616320	46	5687
2026-01-22 03:08:06.61	182.07	9.45	-36.3	-37.0	24.3	0.00e+00	0	41	0	472907776	46	5743
2026-01-22 03:08:07.62	182.12	9.53	-36.0	-36.7	24.5	0.00e+00	0	41	0	478150656	46	5544
2026-01-22 03:08:08.63	182.17	9.62	-36.1	-36.8	24.4	0.00e+00	0	41	0	484442112	46	5574
2026-01-22 03:08:09.63	182.22	9.70	-36.1	-36.8	24.3	0.00e+00	0	41	0	489684992	46	5597
2026-01-22 03:08:10.64	182.28	9.78	-36.1	-36.8	24.4	0.00e+00	0	41	0	495976448	46	5609
2026-01-22 03:08:11.65	182.33	9.87	-36.0	-36.7	24.5	0.00e+00	0	41	0	501219328	46	5523
2026-01-22 03:08:12.66	182.38	9.95	-36.1	-36.8	24.5	0.00e+00	0	41	0	506462208	46	5568
2026-01-22 03:08:13.67	182.43	10.03	-36.0	-36.7	24.5	0.00e+00	0	41	0	512753664	46	5504
2026-01-22 03:08:14.69	182.49	10.12	-36.1	-36.8	24.5	0.00e+00	0	41	0	517996544	46	5615
2026-01-22 03:08:15.70	182.54	10.20	-36.1	-36.8	24.6	0.00e+00	0	41	0	524288000	46	5626
2026-01-22 03:08:16.71	182.60	10.29	-36.0	-36.7	24.6	0.00e+00	0	41	0	529530880	46	5523
2026-01-22 03:08:17.71	182.65	10.37	-36.2	-36.9	24.5	0.00e+00	0	41	0	534773760	46	5658
2026-01-22 03:08:18.73	182.71	10.46	-36.1	-36.8	24.5	0.00e+00	0	41	0	541065216	46	5620
2026-01-22 03:08:19.74	182.76	10.55	-36.1	-36.9	24.5	0.00e+00	0	41	0	546308096	46	5632
2026-01-22 03:08:20.75	182.82	10.63	-35.9	-36.6	24.6	0.00e+00	0	41	0	552599552	46	5490
2026-01-22 03:08:21.76	182.87	10.72	-35.9	-36.6	24.6	0.00e+00	0	41	0	557842432	46	5472
2026-01-22 03:08:22.77	182.93	10.81	-35.9	-36.6	24.6	0.00e+00	0	41	0	563085312	46	5475
2026-01-22 03:08:23.78	182.98	10.89	-36.0	-36.7	24.5	0.00e+00	0	41	0	569376768	46	5531
2026-01-22 03:08:24.79	183.04	10.98	-36.0	-36.7	24.6	0.00e+00	0	41	0	574619648	46	5523
2026-01-22 03:08:25.80	183.10	11.07	-36.1	-36.8	24.4	0.00e+00	0	41	0	580911104	46	5591
2026-01-22 03:08:26.81	183.15	11.16	-35.9	-36.6	24.6	0.00e+00	0	41	0	586153984	46	5476
2026-01-22 03:08:27.82	183.21	11.25	-35.9	-36.6	24.5	0.00e+00	0	41	0	592445440	46	5483
2026-01-22 03:08:28.83	183.27	11.33	-36.1	-36.8	24.6	0.00e+00	0	41	0	597688320	46	5583
2026-01-22 03:08:29.84	183.33	11.42	-36.0	-36.7	24.7	0.00e+00	0	41	0	603979776	46	5524
2026-01-22 03:08:30.85	183.39	11.51	-35.9	-36.7	24.7	0.00e+00	0	41	0	609222656	46	5513
2026-01-22 03:08:31.86	183.45	11.60	-35.9	-36.6	24.7	0.00e+00	0	41	0	614465536	46	5467
2026-01-22 03:08:32.87	183.50	11.69	-36.0	-36.7	24.7	0.00e+00	0	41	0	620756992	46	5530
2026-01-22 03:08:33.88	183.56	11.78	-36.3	-37.0	24.5	0.00e+00	0	41	0	625999872	46	5706
2026-01-22 03:08:34.89	183.62	11.87	-35.7	-36.4	24.8	0.00e+00	0	41	0	632291328	44	5973
2026-01-22 03:08:35.90	183.68	11.96	-35.8	-36.5	24.7	0.00e+00	0	41	0	637534208	44	6046
2026-01-22 03:08:36.91	183.74	12.05	-35.7	-36.4	24.8	0.00e+00	0	41	0	642777088	44	6021
2026-01-22 03:08:37.92	183.81	12.14	-35.8	-36.5	24.7	0.00e+00	0	41	0	649068544	44	6034
2026-01-22 03:08:38.93	183.87	12.24	-35.6	-36.3	24.8	0.00e+00	0	41	0	654311424	44	5944
2026-01-22 03:08:39.94	183.93	12.33	-35.6	-36.3	24.9	0.00e+00	0	41	0	660602880	44	5929
2026-01-22 03:08:40.95	183.99	12.42	-35.6	-36.3	25.0	0.00e+00	0	41	0	665845760	44	5906
2026-01-22 03:08:41.96	184.05	12.51	-35.5	-36.2	25.1	0.00e+00	0	41	0	671088640	44	5850
2026-01-22 03:08:42.97	184.12	12.61	-35.4	-36.1	25.1	0.00e+00	0	41	0	677380096	44	5804
2026-01-22 03:08:43.98	184.18	12.70	-35.5	-36.1	25.1	0.00e+00	0	41	0	682622976	44	5804
2026-01-22 03:08:44.99	184.24	12.79	-35.5	-36.2	25.1	0.00e+00	0	41	0	688914432	44	5871
2026-01-22 03:08:46.00	184.31	12.89	-35.4	-36.1	25.1	0.00e+00	0	41	0	694157312	44	5791
2026-01-22 03:08:47.02	184.37	12.98	-35.5	-36.2	25.1	0.00e+00	0	41	0	700448768	44	5829
2026-01-22 03:08:48.03	184.44	13.08	-35.6	-36.3	25.0	0.00e+00	0	41	0	705691648	44	5899
2026-01-22 03:08:49.04	184.50	13.17	-35.4	-36.1	25.2	0.00e+00	0	41	0	711983104	44	5789
2026-01-22 03:08:50.04	184.57	13.27	-35.6	-36.3	25.1	0.00e+00	0	41	0	717225984	44	5921
2026-01-22 03:08:51.05	184.63	13.36	-35.5	-36.2	25.1	0.00e+00	0	41	0	722468864	44	5868
2026-01-22 03:08:52.07	184.70	13.46	-35.4	-36.1	25.1	0.00e+00	0	41	0	728760320	44	5786
2026-01-22 03:08:53.07	184.76	13.55	-35.4	-36.1	25.1	0.00e+00	0	41	0	734003200	44	5770
2026-01-22 03:08:54.08	184.83	13.65	-35.4	-36.1	25.1	0.00e+00	0	41	0	740294656	44	5784
2026-01-22 03:08:55.09	184.90	13.75	-35.4	-36.1	25.2	0.00e+00	0	41	0	745537536	44	5779
2026-01-22 03:08:56.10	184.97	13.84	-35.3	-36.0	25.3	0.00e+00	0	41	0	750780416	44	5733
2026-01-22 03:08:57.11	185.03	13.94	-35.4	-36.1	25.1	0.00e+00	0	41	0	757071872	44	5800
2026-01-22 03:08:58.12	185.10	14.04	-35.1	-35.8	25.4	0.00e+00	0	41	0	762314752	44	5615
2026-01-22 03:08:59.13	185.17	14.14	-35.1	-35.8	25.4	0.00e+00	0	41	0	768606208	44	5596
2026-01-22 03:09:00.14	185.24	14.24	-35.0	-35.7	25.5	0.00e+00	0	41	0	773849088	44	5525
2026-01-22 03:09:01.15	185.31	14.34	-35.2	-35.9	25.4	0.00e+00	0	41	0	779091968	44	5652
2026-01-22 03:09:02.16	185.38	14.44	-34.8	-35.4	25.6	0.00e+00	0	41	0	785383424	44	5377
2026-01-22 03:09:03.17	185.45	14.54	-34.9	-35.5	25.6	0.00e+00	0	41	0	790626304	44	5424
2026-01-22 03:09:04.19	185.53	14.64	-34.8	-35.5	25.7	0.00e+00	0	41	0	796917760	44	5378
2026-01-22 03:09:05.20	185.60	14.74	-34.8	-35.5	25.7	0.00e+00	0	41	0	802160640	42	6077
2026-01-22 03:09:06.21	185.67	14.84	-34.8	-35.5	25.7	0.00e+00	0	41	0	808452096	42	6070
2026-01-22 03:09:07.22	185.74	14.94	-34.9	-35.5	25.6	0.00e+00	0	41	0	813694976	42	6079
2026-01-22 03:09:08.23	185.82	15.04	-34.8	-35.5	25.7	0.00e+00	0	41	0	819986432	42	6052
2026-01-22 03:09:09.24	185.89	15.14	-34.8	-35.5	25.7	0.00e+00	0	41	0	825229312	42	6034
2026-01-22 03:09:10.25	185.96	15.25	-34.9	-35.6	25.7	0.00e+00	0	41	0	830472192	42	6111
2026-01-22 03:09:11.26	186.04	15.35	-34.7	-35.4	25.8	0.00e+00	0	41	0	836763648	42	6002
2026-01-22 03:09:12.27	186.11	15.45	-34.8	-35.5	25.7	0.00e+00	0	41	0	842006528	42	6044
2026-01-22 03:09:13.28	186.19	15.56	-34.7	-35.4	25.8	0.00e+00	0	41	0	848297984	42	5980
2026-01-22 03:09:14.29	186.26	15.66	-34.7	-35.4	25.7	0.00e+00	0	41	0	853540864	42	5993
2026-01-22 03:09:15.30	186.34	15.77	-34.7	-35.4	25.9	0.00e+00	0	41	0	858783744	42	6013
2026-01-22 03:09:16.31	186.42	15.87	-34.7	-35.4	25.9	0.00e+00	0	41	0	865075200	42	5992
2026-01-22 03:09:17.32	186.50	15.98	-34.7	-35.3	25.9	0.00e+00	0	41	0	870318080	42	5945
2026-01-22 03:09:18.33	186.57	16.08	-34.5	-35.1	26.0	0.00e+00	0	41	0	876609536	42	5828
2026-01-22 03:09:19.34	186.65	16.19	-34.5	-35.2	26.0	0.00e+00	0	41	0	881852416	42	5843
2026-01-22 03:09:20.35	186.73	16.30	-34.4	-35.1	26.0	0.00e+00	0	41	0	887095296	42	5778
2026-01-22 03:09:21.36	186.81	16.40	-34.5	-35.2	26.1	0.00e+00	0	41	0	893386752	42	5833
2026-01-22 03:09:22.37	186.89	16.51	-34.5	-35.2	26.1	0.00e+00	0	41	0	898629632	42	5829
2026-01-22 03:09:23.38	186.97	16.62	-34.4	-35.0	26.1	0.00e+00	0	41	0	904921088	42	5750
2026-01-22 03:09:24.39	187.06	16.73	-34.5	-35.2	26.0	0.00e+00	0	41	0	910163968	42	5860
2026-01-22 03:09:25.40	187.14	16.84	-34.6	-35.2	26.0	0.00e+00	0	41	0	916455424	42	5873
2026-01-22 03:09:26.41	187.22	16.94	-34.6	-35.2	26.1	0.00e+00	0	41	0	921698304	42	5872
2026-01-22 03:09:27.42	187.30	17.05	-34.4	-35.1	26.2	0.00e+00	0	41	0	927989760	42	5769
2026-01-22 03:09:28.43	187.39	17.16	-34.4	-35.1	26.3	0.00e+00	0	41	0	933232640	42	5776
2026-01-22 03:09:29.44	187.47	17.27	-34.4	-35.0	26.2	0.00e+00	0	41	0	938475520	42	5735
2026-01-22 03:09:30.45	187.56	17.39	-34.2	-34.9	26.3	0.00e+00	0	41	0	944766976	42	5655
2026-01-22 03:09:31.46	187.64	17.50	-34.1	-34.7	26.5	0.00e+00	0	41	0	950009856	42	5561
2026-01-22 03:09:32.47	187.73	17.61	-34.0	-34.6	26.5	0.00e+00	0	41	0	956301312	42	5490
2026-01-22 03:09:33.48	187.81	17.72	-34.1	-34.7	26.4	0.00e+00	0	41	0	961544192	42	5565
2026-01-22 03:09:34.49	187.90	17.83	-33.9	-34.6	26.6	0.00e+00	0	41	0	966787072	42	5449
2026-01-22 03:09:35.50	187.99	17.95	-34.0	-34.6	26.6	0.00e+00	0	41	0	973078528	42	5465
2026-01-22 03:09:36.51	188.08	18.06	-33.7	-34.4	26.8	0.00e+00	0	41	0	978321408	40	5983
2026-01-22 03:09:37.52	188.17	18.17	-33.6	-34.3	26.9	0.00e+00	0	41	0	983564288	40	5935
2026-01-22 03:09:38.52	188.26	18.29	-33.9	-34.5	26.6	0.00e+00	0	41	0	989855744	40	6094
2026-01-22 03:09:39.53	188.35	18.40	-33.7	-34.3	26.8	0.00e+00	0	41	0	995098624	40	5951
2026-01-22 03:09:40.54	188.44	18.52	-33.8	-34.5	26.7	0.00e+00	0	41	0	1001390080	40	6062
2026-01-22 03:09:41.55	188.53	18.63	-33.7	-34.3	26.8	0.00e+00	0	41	0	1006632960	40	5945
2026-01-22 03:09:42.56	188.62	18.75	-33.9	-34.6	26.6	0.00e+00	0	41	0	1012924416	40	6116
2026-01-22 03:09:43.57	188.72	18.87	-34.0	-34.6	26.5	0.00e+00	0	41	0	1018167296	40	6150
2026-01-22 03:09:44.58	188.81	18.99	-34.2	-34.9	26.4	0.00e+00	0	41	0	1024458752	40	6350
2026-01-22 03:09:45.59	188.90	19.10	-34.2	-34.8	26.5	0.00e+00	0	41	0	1029701632	40	6299
2026-01-22 03:09:46.60	189.00	19.22	-34.2	-34.9	26.5	0.00e+00	0	41	0	1034944512	40	6333
2026-01-22 03:09:47.61	189.10	19.34	-33.9	-34.5	26.7	0.00e+00	0	41	0	1041235968	40	6078
2026-01-22 03:09:48.62	189.19	19.46	-33.8	-34.5	26.7	0.00e+00	0	41	0	1046478848	40	6045
2026-01-22 03:09:49.63	189.29	19.58	-33.8	-34.5	26.7	0.00e+00	0	41	0	1052770304	40	6064
2026-01-22 03:09:50.64	189.39	19.70	-34.0	-34.6	26.6	0.00e+00	0	41	0	1058013184	40	6145
2026-01-22 03:09:51.65	189.49	19.82	-33.9	-34.5	26.7	0.00e+00	0	41	0	1063256064	40	6079
2026-01-22 03:09:52.66	189.59	19.94	-33.7	-34.3	26.9	0.00e+00	0	41	0	1069547520	40	5964
2026-01-22 03:09:53.67	189.69	20.07	-33.7	-34.3	26.8	0.00e+00	0	41	0	1074790400	40	5938
2026-01-22 03:09:54.68	189.79	20.19	-33.7	-34.3	26.8	0.00e+00	0	41	0	1081081856	40	5933
2026-01-22 03:09:55.69	189.89	20.31	-33.6	-34.2	26.8	0.00e+00	0	41	0	1086324736	40	5893
2026-01-22 03:09:56.70	189.99	20.43	-33.5	-34.1	26.9	0.00e+00	0	41	0	1091567616	40	5797
2026-01-22 03:09:57.71	190.10	20.56	-33.6	-34.2	27.0	0.00e+00	0	41	0	1097859072	40	5865
2026-01-22 03:09:58.72	190.20	20.68	-33.3	-34.0	27.1	0.00e+00	0	41	0	1103101952	40	5715
2026-01-22 03:09:59.73	190.31	20.81	-33.4	-34.1	26.9	0.00e+00	0	41	0	1109393408	40	5779
2026-01-22 03:10:00.70	190.41	20.93	-33.5	-34.2	27.1	0.00e+00	0	41	0	1114636288	40	5839
2026-01-22 03:10:01.71	190.51	21.06	-33.3	-33.9	27.1	0.00e+00	0	41	0	1119879168	40	5694
2026-01-22 03:10:02.72	190.62	21.18	-33.8	-34.4	26.9	0.00e+00	0	41	0	1126170624	40	6013
2026-01-22 03:10:03.73	190.73	21.31	-33.5	-34.1	27.0	0.00e+00	0	41	0	1131413504	40	5820
2026-01-22 03:10:04.74	190.84	21.44	-33.4	-34.0	27.2	0.00e+00	0	41	0	1137704960	40	5741
2026-01-22 03:10:05.75	190.95	21.57	-33.6	-34.2	27.1	0.00e+00	0	41	0	1142947840	40	5871
2026-01-22 03:10:06.76	191.06	21.69	-33.3	-33.9	27.2	0.00e+00	0	41	0	1148190720	40	5681
2026-01-22 03:10:07.77	191.17	21.82	-33.3	-34.0	27.3	0.00e+00	0	41	0	1154482176	40	5700
2026-01-22 03:10:08.78	191.29	21.95	-33.4	-34.0	27.3	0.00e+00	0	41	0	1159725056	40	5735
2026-01-22 03:10:09.79	191.40	22.08	-33.3	-34.0	27.4	0.00e+00	0	41	0	1166016512	40	5722
2026-01-22 03:10:10.80	191.52	22.22	-33.4	-34.1	27.3	0.00e+00	0	41	0	1171259392	40	5777
2026-01-22 03:10:11.81	191.63	22.35	-33.4	-34.0	27.3	0.00e+00	0	41	0	1176502272	40	5722
2026-01-22 03:10:12.82	191.75	22.48	-33.4	-34.1	27.2	0.00e+00	0	41	0	1182793728	40	5762
2026-01-22 03:10:13.84	191.87	22.61	-33.4	-34.0	27.2	0.00e+00	0	41	0	1188036608	40	5735
2026-01-22 03:10:14.85	191.99	22.75	-33.5	-34.1	27.1	0.00e+00	0	41	0	1194328064	40	5816
2026-01-22 03:10:15.85	192.10	22.88	-33.4	-34.1	27.2	0.00e+00	0	41	0	1199570944	40	5778
2026-01-22 03:10:16.86	192.22	23.01	-33.2	-33.8	27.4	0.00e+00	0	41	0	1205862400	40	5620
2026-01-22 03:10:17.87	192.35	23.15	-33.1	-33.8	27.4	0.00e+00	0	41	0	1211105280	40	5576
2026-01-22 03:10:18.88	192.47	23.28	-33.0	-33.7	27.5	0.00e+00	0	41	0	1217396736	40	5511
2026-01-22 03:10:19.90	192.59	23.42	-33.1	-33.8	27.4	0.00e+00	0	41	0	1222639616	40	5596
2026-01-22 03:10:20.91	192.72	23.56	-33.1	-33.8	27.4	0.00e+00	0	41	0	1227882496	40	5584
2026-01-22 03:10:21.92	192.84	23.70	-32.8	-33.5	27.6	0.00e+00	0	41	0	1234173952	40	5383
2026-01-22 03:10:22.93	192.97	23.83	-32.9	-33.5	27.5	0.00e+00	0	41	0	1239416832	40	5425
2026-01-22 03:10:23.94	193.10	23.97	-32.8	-33.4	27.6	0.00e+00	0	41	0	1245708288	40	5363
2026-01-22 03:10:24.95	193.23	24.11	-32.7	-33.4	27.6	0.00e+00	0	41	0	1250951168	38	5982
2026-01-22 03:10:25.96	193.36	24.25	-32.7	-33.3	27.7	0.00e+00	0	41	0	1256194048	38	5925
2026-01-22 03:10:26.97	193.49	24.39	-32.9	-33.5	27.6	0.00e+00	0	41	0	1262485504	38	6050
2026-01-22 03:10:27.98	193.62	24.53	-33.1	-33.7	27.4	0.00e+00	0	41	0	1267728384	38	6226
2026-01-22 03:10:28.99	193.76	24.68	-33.0	-33.7	27.6	0.00e+00	0	41	0	1274019840	38	6178
2026-01-22 03:10:30.00	193.89	24.82	-32.7	-33.4	27.7	0.00e+00	0	41	0	1279262720	38	5980
2026-01-22 03:10:31.01	194.03	24.96	-32.8	-33.4	27.7	0.00e+00	0	41	0	1284505600	38	5976
2026-01-22 03:10:32.02	194.16	25.10	-32.7	-33.4	27.7	0.00e+00	0	41	0	1290797056	38	5987
2026-01-22 03:10:33.03	194.30	25.25	-32.8	-33.5	27.7	0.00e+00	0	41	0	1296039936	38	6040
2026-01-22 03:10:34.04	194.44	25.39	-33.0	-33.6	27.6	0.00e+00	0	41	0	1302331392	38	6147
2026-01-22 03:10:35.05	194.58	25.54	-32.9	-33.5	27.6	0.00e+00	0	41	0	1307574272	38	6103
2026-01-22 03:10:36.06	194.72	25.69	-33.0	-33.7	27.6	0.00e+00	0	41	0	1313865728	38	6185
2026-01-22 03:10:37.07	194.87	25.83	-32.8	-33.4	27.7	0.00e+00	0	41	0	1319108608	38	5991
2026-01-22 03:10:38.08	195.01	25.98	-32.7	-33.3	27.7	0.00e+00	0	41	0	1325400064	38	5920
2026-01-22 03:10:39.09	195.16	26.13	-32.7	-33.4	27.9	0.00e+00	0	41	0	1330642944	38	5973
2026-01-22 03:10:40.10	195.30	26.28	-32.7	-33.4	27.7	0.00e+00	0	41	0	1335885824	38	5973
2026-01-22 03:10:41.11	195.45	26.42	-32.6	-33.2	27.8	0.00e+00	0	41	0	1342177280	38	5880
2026-01-22 03:10:42.12	195.60	26.57	-32.7	-33.3	27.7	0.00e+00	0	41	0	1347420160	38	5939
2026-01-22 03:10:43.13	195.75	26.72	-32.7	-33.3	27.9	0.00e+00	0	41	0	1353711616	38	5922
2026-01-22 03:10:44.14	195.91	26.88	-32.6	-33.2	27.8	0.00e+00	0	41	0	1358954496	38	5865
2026-01-22 03:10:45.15	196.06	27.03	-32.6	-33.2	27.9	0.00e+00	0	41	0	1364197376	38	5865
2026-01-22 03:10:46.16	196.22	27.18	-32.6	-33.2	27.8	0.00e+00	0	41	0	1370488832	38	5880
2026-01-22 03:10:47.17	196.37	27.33	-32.7	-33.3	27.7	0.00e+00	0	41	0	1375731712	38	5927
2026-01-22 03:10:48.18	196.53	27.49	-32.6	-33.2	27.8	0.00e+00	0	41	0	1382023168	38	5873
2026-01-22 03:10:49.19	196.69	27.64	-32.5	-33.1	27.9	0.00e+00	0	41	0	1387266048	38	5819
2026-01-22 03:10:50.20	196.85	27.79	-32.3	-33.0	28.0	0.00e+00	0	41	0	1392508928	38	5704
2026-01-22 03:10:51.21	197.02	27.95	-32.3	-32.9	28.0	0.00e+00	0	41	0	1398800384	38	5660
2026-01-22 03:10:52.23	197.18	28.11	-32.4	-33.1	28.0	0.00e+00	0	41	0	1404043264	38	5781
2026-01-22 03:10:53.24	197.35	28.26	-32.4	-33.1	28.0	0.00e+00	0	41	0	1410334720	38	5765
2026-01-22 03:10:54.25	197.52	28.42	-32.6	-33.3	27.9	0.00e+00	0	41	0	1415577600	38	5906
2026-01-22 03:10:55.26	197.69	28.58	-32.7	-33.3	27.9	0.00e+00	0	41	0	1421869056	38	5932
2026-01-22 03:10:56.27	197.86	28.74	-32.4	-33.0	28.0	0.00e+00	0	41	0	1427111936	38	5752
2026-01-22 03:10:57.28	198.03	28.90	-32.5	-33.1	28.0	0.00e+00	0	41	0	1433403392	38	5800
2026-01-22 03:10:58.29	198.21	29.06	-32.5	-33.1	27.9	0.00e+00	0	41	0	1438646272	38	5823
2026-01-22 03:10:59.29	198.38	29.22	-32.6	-33.2	28.0	0.00e+00	0	41	0	1443889152	38	5890
2026-01-22 03:11:00.30	198.56	29.38	-32.6	-33.3	27.9	0.00e+00	0	41	0	1450180608	38	5912
2026-01-22 03:11:01.31	198.74	29.54	-32.6	-33.2	27.8	0.00e+00	0	41	0	1455423488	38	5890
2026-01-22 03:11:02.32	198.92	29.70	-32.5	-33.2	27.9	0.00e+00	0	41	0	1461714944	38	5848
2026-01-22 03:11:03.33	199.10	29.87	-32.5	-33.1	27.9	0.00e+00	0	41	0	1466957824	38	5811
2026-01-22 03:11:04.34	199.29	30.03	-32.6	-33.2	27.9	0.00e+00	0	41	0	1472200704	38	5884
2026-01-22 03:11:05.35	199.47	30.19	-32.6	-33.2	27.9	0.00e+00	0	41	0	1478492160	38	5845
2026-01-22 03:11:06.36	199.66	30.36	-32.4	-33.0	28.0	0.00e+00	0	41	0	1483735040	38	5747
2026-01-22 03:11:07.37	199.85	30.52	-32.5	-33.2	27.9	0.00e+00	0	41	0	1490026496	38	5832
2026-01-22 03:11:08.38	200.04	30.69	-32.4	-33.0	28.1	0.00e+00	0	41	0	1495269376	38	5754
2026-01-22 03:11:09.39	200.24	30.86	-32.7	-33.3	28.1	0.00e+00	0	41	0	1500512256	38	5919
2026-01-22 03:11:10.40	200.44	31.02	-32.7	-33.3	28.1	0.00e+00	0	41	0	1506803712	38	5911
2026-01-22 03:11:11.42	200.64	31.19	-32.6	-33.2	28.0	0.00e+00	0	41	0	1512046592	38	5884
2026-01-22 03:11:12.43	200.84	31.36	-32.5	-33.1	28.0	0.00e+00	0	41	0	1518338048	38	5822
2026-01-22 03:11:13.44	201.04	31.53	-32.5	-33.2	28.1	0.00e+00	0	41	0	1523580928	38	5838
2026-01-22 03:11:14.45	201.24	31.70	-32.7	-33.3	27.9	0.00e+00	0	41	0	1529872384	38	5933
2026-01-22 03:11:15.46	201.45	31.87	-32.5	-33.1	28.0	0.00e+00	0	41	0	1535115264	38	5806
2026-01-22 03:11:16.47	201.66	32.04	-32.6	-33.2	28.0	0.00e+00	0	41	0	1541406720	38	5872
2026-01-22 03:11:17.48	201.87	32.21	-32.2	-32.8	28.3	0.00e+00	0	41	0	1546649600	38	5601
2026-01-22 03:11:18.49	202.08	32.39	-32.3	-32.9	28.1	0.00e+00	0	41	0	1551892480	38	5672
2026-01-22 03:11:19.50	202.30	32.56	-32.2	-32.9	28.1	0.00e+00	0	41	0	1558183936	38	5638
2026-01-22 03:11:20.51	202.51	32.73	-32.3	-33.0	28.1	0.00e+00	0	41	0	1563426816	38	5709
2026-01-22 03:11:21.52	202.73	32.91	-32.4	-33.0	28.1	0.00e+00	0	41	0	1569718272	38	5706
2026-01-22 03:11:22.53	202.96	33.08	-32.6	-33.2	27.9	0.00e+00	0	41	0	1574961152	38	5869
2026-01-22 03:11:23.54	203.18	33.25	-32.5	-33.1	28.1	0.00e+00	0	41	0	1580204032	38	5824
2026-01-22 03:11:24.55	203.41	33.43	-32.4	-33.1	28.2	0.00e+00	0	41	0	1586495488	38	5764
2026-01-22 03:11:25.56	203.64	33.61	-32.3	-32.9	28.2	0.00e+00	0	41	0	1591738368	38	5685
2026-01-22 03:11:26.57	203.87	33.78	-32.3	-32.9	28.2	0.00e+00	0	41	0	1596981248	38	5672
2026-01-22 03:11:27.57	204.10	33.96	-32.4	-33.1	28.2	0.00e+00	0	41	0	1603272704	38	5768
2026-01-22 03:11:28.58	204.34	34.13	-32.5	-33.2	28.1	0.00e+00	0	41	0	1608515584	38	5835
2026-01-22 03:11:29.59	204.58	34.31	-32.5	-33.1	28.1	0.00e+00	0	41	0	1614807040	38	5812
2026-01-22 03:11:30.60	204.82	34.49	-32.3	-32.9	28.3	0.00e+00	0	41	0	1620049920	38	5658
2026-01-22 03:11:31.61	205.06	34.67	-32.2	-32.8	28.3	0.00e+00	0	41	0	1626341376	38	5606
2026-01-22 03:11:32.62	205.31	34.85	-32.1	-32.7	28.5	0.00e+00	0	41	0	1631584256	38	5525
2026-01-22 03:11:33.63	205.56	35.03	-32.0	-32.6	28.5	0.00e+00	0	41	0	1637875712	38	5495
2026-01-22 03:11:34.65	205.81	35.21	-32.0	-32.6	28.4	0.00e+00	0	41	0	1643118592	38	5440
2026-01-22 03:11:35.66	206.07	35.39	-32.1	-32.7	28.2	0.00e+00	0	41	0	1648361472	38	5555
2026-01-22 03:11:36.67	206.33	35.57	-32.3	-32.9	28.3	0.00e+00	0	41	0	1654652928	38	5663
2026-01-22 03:11:37.68	206.59	35.75	-32.3	-32.9	28.3	0.00e+00	0	41	0	1659895808	38	5681
2026-01-22 03:11:38.69	206.85	35.93	-32.2	-32.8	28.4	0.00e+00	0	41	0	1666187264	38	5575
2026-01-22 03:11:39.70	207.12	36.12	-32.1	-32.7	28.5	0.00e+00	0	41	0	1671430144	38	5535
2026-01-22 03:11:40.71	207.39	36.30	-32.1	-32.7	28.5	0.00e+00	0	41	0	1676673024	38	5555
2026-01-22 03:11:41.71	207.66	36.48	-32.1	-32.7	28.5	0.00e+00	0	41	0	1682964480	38	5525
2026-01-22 03:11:42.73	207.94	36.66	-32.0	-32.7	28.5	0.00e+00	0	41	0	1688207360	38	5505
2026-01-22 03:11:43.74	208.21	36.85	-32.2	-32.8	28.4	0.00e+00	0	41	0	1694498816	38	5590
2026-01-22 03:11:44.75	208.50	37.03	-32.3	-32.9	28.3	0.00e+00	0	41	0	1699741696	38	5694
2026-01-22 03:11:45.76	208.78	37.22	-32.5	-33.1	28.3	0.00e+00	0	41	0	1704984576	38	5819
2026-01-22 03:11:46.77	209.07	37.40	-32.3	-33.0	28.2	0.00e+00	0	41	0	1711276032	38	5727
2026-01-22 03:11:47.78	209.36	37.58	-32.2	-32.8	28.4	0.00e+00	0	41	0	1716518912	38	5610
2026-01-22 03:11:48.79	209.65	37.77	-32.0	-32.6	28.6	0.00e+00	0	41	0	1722810368	38	5473
2026-01-22 03:11:49.80	209.95	37.95	-32.0	-32.6	28.6	0.00e+00	0	41	0	1728053248	38	5458
2026-01-22 03:11:50.81	210.25	38.14	-32.0	-32.6	28.4	0.00e+00	0	41	0	1734344704	38	5455
2026-01-22 03:11:51.82	210.56	38.32	-31.9	-32.5	28.5	0.00e+00	0	41	0	1739587584	38	5405
2026-01-22 03:11:52.83	210.87	38.51	-32.0	-32.6	28.4	0.00e+00	0	41	0	1745879040	38	5448
2026-01-22 03:11:53.84	211.18	38.69	-32.0	-32.6	28.4	0.00e+00	0	41	0	1751121920	38	5469
2026-01-22 03:11:54.85	211.49	38.88	-32.1	-32.7	28.4	0.00e+00	0	41	0	1756364800	38	5532
2026-01-22 03:11:55.86	211.81	39.06	-32.2	-32.8	28.3	0.00e+00	0	41	0	1762656256	38	5601
2026-01-22 03:11:56.87	212.13	39.25	-32.3	-32.9	28.2	0.00e+00	0	41	0	1767899136	38	5645
2026-01-22 03:11:57.88	212.46	39.43	-32.1	-32.8	28.4	0.00e+00	0	41	0	1774190592	38	5575
2026-01-22 03:11:58.89	212.79	39.62	-32.3	-33.0	28.1	0.00e+00	0	41	0	1779433472	38	5699
2026-01-22 03:11:59.91	213.12	39.81	-32.1	-32.7	28.4	0.00e+00	0	41	0	1784676352	38	5552
2026-01-22 03:12:00.91	213.46	39.99	-32.2	-32.8	28.3	0.00e+00	0	41	0	1790967808	38	5594
2026-01-22 03:12:01.91	213.79	40.17	-32.2	-32.9	28.3	0.00e+00	0	41	0	1796210688	38	5651
2026-01-22 03:12:02.92	214.14	40.36	-32.4	-32.9	28.2	0.00e+00	0	41	0	1802502144	38	5692
2026-01-22 03:12:03.94	214.49	40.54	-32.7	-33.3	28.2	0.00e+00	0	41	0	1807745024	38	5930
2026-01-22 03:12:04.94	214.84	40.73	-32.6	-33.2	28.1	0.00e+00	0	41	0	1812987904	38	5870
2026-01-22 03:12:05.95	215.20	40.91	-32.5	-33.2	28.0	0.00e+00	0	41	0	1819279360	38	5837
2026-01-22 03:12:06.97	215.56	41.10	-32.9	-33.5	28.0	0.00e+00	0	41	0	1824522240	38	6083
2026-01-22 03:12:07.98	215.92	41.28	-32.6	-33.2	28.0	0.00e+00	0	41	0	1830813696	38	5889
2026-01-22 03:12:08.99	216.29	41.46	-32.4	-33.0	28.4	0.00e+00	0	41	0	1836056576	38	5742
2026-01-22 03:12:09.99	216.66	41.65	-32.5	-33.1	28.4	0.00e+00	0	41	0	1842348032	38	5821
2026-01-22 03:12:11.00	217.04	41.83	-32.5	-33.1	28.2	0.00e+00	0	41	0	1847590912	38	5818
2026-01-22 03:12:12.01	217.42	42.01	-32.3	-32.9	28.4	0.00e+00	0	41	0	1852833792	38	5639
2026-01-22 03:12:13.02	217.80	42.19	-32.6	-33.2	28.0	0.00e+00	0	41	0	1859125248	38	5875
2026-01-22 03:12:14.04	218.20	42.37	-32.9	-33.6	28.0	0.00e+00	0	41	0	1864368128	38	6133
2026-01-22 03:12:15.05	218.59	42.55	-32.8	-33.4	27.8	0.00e+00	0	41	0	1870659584	38	5986
2026-01-22 03:12:16.06	218.99	42.73	-32.6	-33.3	28.0	0.00e+00	0	41	0	1875902464	38	5903
2026-01-22 03:12:17.07	219.39	42.91	-32.7	-33.4	28.2	0.00e+00	0	41	0	1882193920	38	5990
2026-01-22 03:12:18.08	219.80	43.09	-32.4	-33.0	28.2	0.00e+00	0	41	0	1887436800	38	5759
2026-01-22 03:12:19.09	220.21	43.27	-32.5	-33.1	28.2	0.00e+00	0	41	0	1892679680	38	5799
2026-01-22 03:12:20.10	220.62	43.45	-32.2	-32.8	28.3	0.00e+00	0	41	0	1898971136	38	5601
2026-01-22 03:12:21.11	221.05	43.62	-32.2	-32.8	28.3	0.00e+00	0	41	0	1904214016	38	5625
2026-01-22 03:12:22.12	221.47	43.80	-32.4	-33.0	28.1	0.00e+00	0	41	0	1910505472	38	5733
2026-01-22 03:12:23.13	221.90	43.97	-32.5	-33.2	28.0	0.00e+00	0	41	0	1915748352	38	5842
2026-01-22 03:12:24.14	222.33	44.14	-33.0	-33.7	27.8	0.00e+00	0	41	0	1920991232	38	6176
2026-01-22 03:12:25.15	222.77	44.32	-33.4	-34.0	27.8	0.00e+00	0	41	0	1927282688	38	6450
2026-01-22 03:12:26.16	223.22	44.49	-33.1	-33.7	28.0	0.00e+00	0	41	0	1932525568	38	6200
2026-01-22 03:12:27.17	223.67	44.66	-33.2	-33.8	28.2	0.00e+00	0	41	0	1938817024	38	6290
2026-01-22 03:12:28.18	224.12	44.83	-32.8	-33.4	28.2	0.00e+00	0	41	0	1944059904	38	5979
2026-01-22 03:12:29.19	224.58	44.99	-33.1	-33.7	27.9	0.00e+00	0	41	0	1950351360	38	6223
2026-01-22 03:12:30.20	225.04	45.16	-33.4	-34.0	27.8	0.00e+00	0	41	0	1955594240	38	6423
2026-01-22 03:12:31.21	225.51	45.32	-33.5	-34.2	27.5	0.00e+00	0	41	0	1960837120	38	6591
2026-01-22 03:12:32.22	225.98	45.49	-33.2	-33.9	27.5	0.00e+00	0	41	0	1967128576	38	6336
2026-01-22 03:12:33.23	226.46	45.65	-33.3	-33.9	27.6	0.00e+00	0	41	0	1972371456	38	6379
2026-01-22 03:12:34.24	226.94	45.81	-32.9	-33.5	28.0	0.00e+00	0	41	0	1978662912	38	6089
2026-01-22 03:12:35.25	227.42	45.97	-32.9	-33.5	28.1	0.00e+00	0	41	0	1983905792	38	6071
2026-01-22 03:12:36.26	227.92	46.13	-32.7	-33.3	28.3	0.00e+00	0	41	0	1989148672	38	5959
2026-01-22 03:12:37.27	228.41	46.28	-33.0	-33.7	28.0	0.00e+00	0	41	0	1995440128	38	6184
2026-01-22 03:12:38.28	228.91	46.43	-33.1	-33.8	27.9	0.00e+00	0	41	0	2000683008	38	6248
2026-01-22 03:12:39.29	229.42	46.59	-33.1	-33.7	27.9	0.00e+00	0	41	0	2006974464	38	6188
2026-01-22 03:12:40.30	229.93	46.74	-33.3	-33.9	27.9	0.00e+00	0	41	0	2012217344	38	6384
2026-01-22 03:12:41.31	230.45	46.88	-33.4	-34.0	27.7	0.00e+00	0	41	0	2017460224	38	6436
2026-01-22 03:12:42.32	230.97	47.03	-33.6	-34.2	27.7	0.00e+00	0	41	0	2023751680	38	6591
2026-01-22 03:12:43.33	231.49	47.17	-33.1	-33.7	28.0	0.00e+00	0	41	0	2028994560	40	5560
2026-01-22 03:12:44.34	232.02	47.32	-33.2	-33.8	28.1	0.00e+00	0	41	0	2035286016	40	5620
2026-01-22 03:12:45.35	232.56	47.46	-33.1	-33.7	27.9	0.00e+00	0	41	0	2040528896	40	5537
2026-01-22 03:12:46.36	233.10	47.59	-33.1	-33.8	27.9	0.00e+00	0	41	0	2046820352	40	5595
2026-01-22 03:12:47.37	233.64	47.73	-33.0	-33.6	28.1	0.00e+00	0	41	0	2052063232	40	5492
2026-01-22 03:12:48.38	234.19	47.86	-32.5	-33.1	28.4	0.00e+00	0	41	0	2058354688	38	5827
2026-01-22 03:12:49.39	234.74	47.99	-32.7	-33.3	28.1	0.00e+00	0	41	0	2063597568	38	5923
2026-01-22 03:12:50.40	235.30	48.12	-32.8	-33.4	27.9	0.00e+00	0	41	0	2068840448	38	6031
2026-01-22 03:12:51.41	235.86	48.25	-33.1	-33.7	27.7	0.00e+00	0	41	0	2075131904	38	6201
2026-01-22 03:12:52.42	236.43	48.37	-33.5	-34.1	27.8	0.00e+00	0	41	0	2080374784	38	6518
2026-01-22 03:12:53.43	237.00	48.49	-33.8	-34.4	27.5	0.00e+00	0	41	0	2086666240	40	6027
2026-01-22 03:12:54.44	237.58	48.61	-33.8	-34.4	27.5	0.00e+00	0	41	0	2091909120	40	5984
2026-01-22 03:12:55.45	238.16	48.72	-33.4	-34.0	27.7	0.00e+00	0	41	0	2097152000	40	5733
2026-01-22 03:12:56.46	238.74	48.83	-33.0	-33.6	27.9	0.00e+00	0	41	0	2103443456	40	5478
2026-01-22 03:12:57.47	239.33	48.94	-33.2	-33.8	27.9	0.00e+00	0	41	0	2108686336	40	5596
2026-01-22 03:12:58.48	239.93	49.05	-32.8	-33.4	27.9	0.00e+00	0	41	0	2114977792	40	5376
2026-01-22 03:12:59.49	240.52	49.15	-33.0	-33.6	28.0	0.00e+00	0	41	0	2120220672	38	6128
2026-01-22 03:13:00.50	241.12	49.25	-33.0	-33.6	28.0	0.00e+00	0	41	0	2125463552	38	6156
2026-01-22 03:13:01.51	241.73	49.35	-33.1	-33.8	27.8	0.00e+00	0	41	0	2131755008	38	6250
2026-01-22 03:13:02.52	242.34	49.44	-33.3	-33.9	27.7	0.00e+00	0	41	0	2136997888	38	6380
2026-01-22 03:13:03.53	242.95	49.53	-32.7	-33.3	28.1	0.00e+00	0	41	0	2143289344	38	5927
2026-01-22 03:13:04.54	243.56	49.62	-32.8	-33.4	28.1	0.00e+00	0	41	0	2148532224	38	6018
2026-01-22 03:13:05.55	244.18	49.70	-33.7	-34.3	27.7	0.00e+00	0	41	0	2154823680	40	5918
2026-01-22 03:13:06.56	244.80	49.79	-34.3	-34.9	27.1	0.00e+00	0	41	0	2160066560	42	5657
2026-01-22 03:13:07.57	245.43	49.86	-33.5	-34.2	27.7	0.00e+00	0	41	0	2166358016	40	5837
2026-01-22 03:13:08.58	246.06	49.94	-33.8	-34.5	27.6	0.00e+00	0	41	0	2171600896	40	6050
2026-01-22 03:13:09.59	246.69	50.01	-33.6	-34.3	27.7	0.00e+00	0	41	0	2176843776	40	5902
2026-01-22 03:13:10.60	247.32	50.07	-33.1	-33.7	27.8	0.00e+00	0	41	0	2183135232	40	5533
2026-01-22 03:13:11.61	247.96	50.14	-33.4	-34.0	28.0	0.00e+00	0	41	0	2188378112	40	5731
2026-01-22 03:13:12.62	248.60	50.20	-33.6	-34.2	28.0	0.00e+00	0	41	0	2194669568	40	5876
2026-01-22 03:13:13.63	249.24	50.25	-33.4	-34.0	28.2	0.00e+00	0	41	0	2199912448	40	5701
2026-01-22 03:13:14.64	249.89	50.30	-33.1	-33.6	28.1	0.00e+00	0	41	0	2205155328	40	5497
2026-01-22 03:13:15.65	250.53	50.35	-33.0	-33.6	28.1	0.00e+00	0	41	0	2211446784	40	5483
2026-01-22 03:13:16.66	251.18	50.40	-32.7	-33.3	28.2	0.00e+00	0	41	0	2216689664	38	5952
2026-01-22 03:13:17.67	251.83	50.44	-33.0	-33.5	28.3	0.00e+00	0	41	0	2222981120	38	6103
2026-01-22 03:13:18.68	252.48	50.48	-33.2	-33.8	28.1	0.00e+00	0	41	0	2228224000	38	6285
2026-01-22 03:13:19.69	253.14	50.51	-33.6	-34.2	28.0	0.00e+00	0	41	0	2233466880	40	5837
2026-01-22 03:13:20.71	253.80	50.54	-33.6	-34.2	27.9	0.00e+00	0	41	0	2239758336	40	5852
2026-01-22 03:13:21.72	254.45	50.57	-33.9	-34.5	27.8	0.00e+00	0	41	0	2245001216	40	6098
2026-01-22 03:13:22.73	255.11	50.59	-33.9	-34.5	27.6	0.00e+00	0	41	0	2251292672	40	6095
2026-01-22 03:13:23.74	255.77	50.60	-33.7	-34.3	28.0	0.00e+00	0	41	0	2256535552	40	5919
2026-01-22 03:13:24.75	256.43	50.62	-33.0	-33.6	28.0	0.00e+00	0	41	0	2262827008	40	5487
2026-01-22 03:13:25.76	257.08	50.63	-33.0	-33.6	28.2	0.00e+00	0	41	0	2268069888	40	5486
2026-01-22 03:13:26.77	257.74	50.64	-33.3	-34.0	28.1	0.00e+00	0	41	0	2274361344	40	5704
2026-01-22 03:13:27.78	258.40	50.64	-33.3	-33.9	28.0	0.00e+00	0	41	0	2279604224	40	5675
2026-01-22 03:13:28.79	259.06	50.64	-33.3	-33.9	28.0	0.00e+00	0	41	0	2284847104	40	5692
2026-01-22 03:13:29.80	259.72	50.63	-33.4	-34.0	27.9	0.00e+00	0	41	0	2291138560	40	5745
2026-01-22 03:13:30.81	260.38	50.62	-33.1	-33.7	28.0	0.00e+00	0	41	0	2296381440	40	5549
2026-01-22 03:13:31.82	261.04	50.61	-33.1	-33.7	28.1	0.00e+00	0	41	0	2302672896	40	5552
2026-01-22 03:13:32.83	261.70	50.59	-33.3	-34.0	27.9	0.00e+00	0	41	0	2307915776	40	5740
2026-01-22 03:13:33.84	262.35	50.57	-33.5	-34.2	27.8	0.00e+00	0	41	0	2313158656	40	5851
2026-01-22 03:13:34.85	263.01	50.54	-33.5	-34.2	27.6	0.00e+00	0	41	0	2319450112	40	5857
2026-01-22 03:13:35.86	263.66	50.51	-33.1	-33.7	28.0	0.00e+00	0	41	0	2324692992	40	5557
2026-01-22 03:13:36.87	264.32	50.48	-32.9	-33.5	28.2	0.00e+00	0	41	0	2330984448	40	5423
2026-01-22 03:13:37.88	264.97	50.45	-32.8	-33.4	28.1	0.00e+00	0	41	0	2336227328	40	5361
2026-01-22 03:13:38.90	265.62	50.40	-33.1	-33.7	28.0	0.00e+00	0	41	0	2341470208	40	5562
2026-01-22 03:13:39.91	266.27	50.36	-33.5	-34.1	27.8	0.00e+00	0	41	0	2347761664	40	5769
2026-01-22 03:13:40.92	266.92	50.31	-33.4	-34.0	27.8	0.00e+00	0	41	0	2353004544	40	5745
2026-01-22 03:13:41.93	267.56	50.26	-33.3	-33.9	27.8	0.00e+00	0	41	0	2359296000	40	5678
2026-01-22 03:13:42.94	268.20	50.21	-33.0	-33.7	28.0	0.00e+00	0	41	0	2364538880	40	5521
2026-01-22 03:13:43.95	268.84	50.15	-32.7	-33.3	28.2	0.00e+00	0	41	0	2370830336	38	5940
2026-01-22 03:13:44.96	269.48	50.08	-32.9	-33.6	28.0	0.00e+00	0	41	0	2376073216	38	6134
2026-01-22 03:13:45.97	270.11	50.02	-33.4	-34.0	27.8	0.00e+00	0	41	0	2382364672	38	6449
2026-01-22 03:13:46.98	270.75	49.95	-33.4	-34.0	28.0	0.00e+00	0	41	0	2387607552	40	5728
2026-01-22 03:13:47.99	271.37	49.87	-33.7	-34.3	27.8	0.00e+00	0	41	0	2392850432	40	5907
2026-01-22 03:13:49.00	272.00	49.80	-33.6	-34.2	27.9	0.00e+00	0	41	0	2399141888	40	5864
2026-01-22 03:13:50.01	272.62	49.72	-33.3	-33.9	28.0	0.00e+00	0	41	0	2404384768	40	5679
2026-01-22 03:13:51.02	273.24	49.63	-33.2	-33.8	27.8	0.00e+00	0	41	0	2410676224	40	5602
2026-01-22 03:13:52.03	273.86	49.55	-33.0	-33.6	28.2	0.00e+00	0	41	0	2415919104	40	5454
2026-01-22 03:13:53.04	274.47	49.46	-32.9	-33.6	28.2	0.00e+00	0	41	0	2421161984	40	5463
2026-01-22 03:13:54.05	275.08	49.36	-32.9	-33.5	28.0	0.00e+00	0	41	0	2427453440	40	5385
2026-01-22 03:13:55.06	275.68	49.27	-33.2	-33.9	28.3	0.00e+00	0	41	0	2432696320	40	5641
2026-01-22 03:13:56.07	276.28	49.17	-33.5	-34.1	28.0	0.00e+00	0	41	0	2438987776	40	5821
2026-01-22 03:13:57.09	276.88	49.07	-33.6	-34.2	27.8	0.00e+00	0	41	0	2444230656	40	5876
2026-01-22 03:13:58.09	277.47	48.96	-33.8	-34.5	27.6	0.00e+00	0	41	0	2449473536	40	6060
2026-01-22 03:13:59.10	278.06	48.85	-33.9	-34.6	27.5	0.00e+00	0	41	0	2455764992	40	6107
2026-01-22 03:14:00.12	278.65	48.74	-33.7	-34.4	27.7	0.00e+00	0	41	0	2461007872	40	5984
2026-01-22 03:14:01.12	279.22	48.63	-33.7	-34.4	27.6	0.00e+00	0	41	0	2467299328	40	5989
2026-01-22 03:14:02.13	279.80	48.51	-33.7	-34.3	27.7	0.00e+00	0	41	0	2472542208	40	5959
2026-01-22 03:14:03.15	280.38	48.39	-33.9	-34.6	27.2	0.00e+00	0	41	0	2478833664	40	6148
2026-01-22 03:14:04.16	280.94	48.27	-34.6	-35.3	27.0	0.00e+00	0	41	0	2484076544	42	5935
2026-01-22 03:14:05.17	281.51	48.14	-34.3	-34.9	27.3	0.00e+00	0	41	0	2489319424	42	5645
2026-01-22 03:14:06.18	282.06	48.02	-33.4	-33.9	28.0	0.00e+00	0	41	0	2495610880	40	5693
2026-01-22 03:14:07.19	282.62	47.89	-33.0	-33.5	28.1	0.00e+00	0	41	0	2500853760	40	5433
2026-01-22 03:14:08.20	283.17	47.75	-33.0	-33.5	27.9	0.00e+00	0	41	0	2507145216	40	5434
2026-01-22 03:14:09.20	283.70	47.62	-33.4	-34.0	27.8	0.00e+00	0	41	0	2512388096	40	5703
2026-01-22 03:14:10.21	284.24	47.48	-33.8	-34.5	27.4	0.00e+00	0	41	0	2517630976	40	6072
2026-01-22 03:14:11.22	284.78	47.34	-33.7	-34.3	27.5	0.00e+00	0	41	0	2523922432	40	5920
2026-01-22 03:14:12.23	285.31	47.20	-33.5	-34.2	27.7	0.00e+00	0	41	0	2529165312	40	5834
2026-01-22 03:14:13.24	285.83	47.06	-33.0	-33.6	28.1	0.00e+00	0	41	0	2535456768	40	5459
2026-01-22 03:14:14.25	286.35	46.91	-33.0	-33.7	28.1	0.00e+00	0	41	0	2540699648	40	5544
2026-01-22 03:14:15.27	286.87	46.77	-33.3	-34.0	28.1	0.00e+00	0	41	0	2545942528	40	5736
2026-01-22 03:14:16.28	287.39	46.62	-33.2	-33.8	28.0	0.00e+00	0	41	0	2552233984	40	5612
2026-01-22 03:14:17.29	287.89	46.46	-32.9	-33.5	28.1	0.00e+00	0	41	0	2557476864	40	5427
2026-01-22 03:14:18.30	288.39	46.31	-33.0	-33.6	28.0	0.00e+00	0	41	0	2563768320	40	5463
2026-01-22 03:14:19.31	288.89	46.16	-33.0	-33.6	28.0	0.00e+00	0	41	0	2569011200	40	5489
2026-01-22 03:14:20.32	289.38	46.00	-33.0	-33.6	27.8	0.00e+00	0	41	0	2575302656	40	5480
2026-01-22 03:14:21.33	289.87	45.84	-33.1	-33.7	27.7	0.00e+00	0	41	0	2580545536	40	5505
2026-01-22 03:14:22.34	290.35	45.68	-33.0	-33.6	27.7	0.00e+00	0	41	0	2586836992	40	5464
2026-01-22 03:14:23.35	290.82	45.52	-33.1	-33.6	27.7	0.00e+00	0	41	0	2592079872	40	5475
2026-01-22 03:14:24.36	291.30	45.36	-33.1	-33.8	27.7	0.00e+00	0	41	0	2597322752	40	5592
2026-01-22 03:14:25.37	291.76	45.20	-33.2	-33.8	27.6	0.00e+00	0	41	0	2603614208	40	5616
2026-01-22 03:14:26.38	292.23	45.03	-33.0	-33.5	27.8	0.00e+00	0	41	0	2608857088	40	5427
2026-01-22 03:14:27.39	292.68	44.86	-32.7	-33.4	27.9	0.00e+00	0	41	0	2615148544	38	6032
2026-01-22 03:14:28.40	293.14	44.70	-32.6	-33.2	28.1	0.00e+00	0	41	0	2620391424	38	5871
2026-01-22 03:14:29.41	293.59	44.53	-32.7	-33.4	28.0	0.00e+00	0	41	0	2625634304	38	5970
2026-01-22 03:14:30.42	294.03	44.36	-32.9	-33.6	28.0	0.00e+00	0	41	0	2631925760	38	6151
2026-01-22 03:14:31.43	294.47	44.19	-33.2	-33.9	27.7	0.00e+00	0	41	0	2637168640	38	6335
2026-01-22 03:14:32.44	294.90	44.01	-33.2	-33.8	27.7	0.00e+00	0	41	0	2643460096	38	6302
2026-01-22 03:14:33.46	295.34	43.84	-33.0	-33.7	27.8	0.00e+00	0	41	0	2648702976	38	6175
2026-01-22 03:14:34.47	295.76	43.66	-33.0	-33.7	27.8	0.00e+00	0	41	0	2653945856	38	6191
2026-01-22 03:14:35.48	296.18	43.49	-32.8	-33.4	27.9	0.00e+00	0	41	0	2660237312	38	5968
2026-01-22 03:14:36.49	296.60	43.31	-32.8	-33.4	27.9	0.00e+00	0	41	0	2665480192	38	5982
2026-01-22 03:14:37.49	297.00	43.14	-32.8	-33.5	28.0	0.00e+00	0	41	0	2671771648	38	6055
2026-01-22 03:14:38.50	297.41	42.96	-33.0	-33.7	27.8	0.00e+00	0	41	0	2677014528	38	6208
2026-01-22 03:14:39.52	297.82	42.78	-32.8	-33.5	27.7	0.00e+00	0	41	0	2683305984	38	6085
2026-01-22 03:14:40.53	298.21	42.60	-32.7	-33.3	27.9	0.00e+00	0	41	0	2688548864	38	5962
2026-01-22 03:14:41.54	298.61	42.42	-32.5	-33.2	28.2	0.00e+00	0	41	0	2694840320	38	5843
2026-01-22 03:14:42.55	299.00	42.24	-32.5	-33.0	28.2	0.00e+00	0	41	0	2700083200	38	5753
2026-01-22 03:14:43.56	299.38	42.06	-32.6	-33.3	28.0	0.00e+00	0	41	0	2705326080	38	5905
2026-01-22 03:14:44.57	299.76	41.88	-32.8	-33.3	27.9	0.00e+00	0	41	0	2711617536	38	5962
2026-01-22 03:14:45.58	300.14	41.70	-32.8	-33.5	27.8	0.00e+00	0	41	0	2716860416	38	6040
2026-01-22 03:14:46.59	300.51	41.52	-32.8	-33.4	27.8	0.00e+00	0	41	0	2723151872	38	5981
2026-01-22 03:14:47.60	300.88	41.33	-32.9	-33.6	27.7	0.00e+00	0	41	0	2728394752	38	6118
2026-01-22 03:14:48.61	301.24	41.15	-32.9	-33.6	28.0	0.00e+00	0	41	0	2733637632	38	6134
2026-01-22 03:14:49.62	301.60	40.97	-32.8	-33.5	28.0	0.00e+00	0	41	0	2739929088	38	6039
2026-01-22 03:14:50.63	301.96	40.78	-32.7	-33.3	28.1	0.00e+00	0	41	0	2745171968	38	5918
2026-01-22 03:14:51.64	302.31	40.60	-32.7	-33.3	28.1	0.00e+00	0	41	0	2751463424	38	5915
2026-01-22 03:14:52.65	302.66	40.42	-32.8	-33.4	28.0	0.00e+00	0	41	0	2756706304	38	6025
2026-01-22 03:14:53.66	303.01	40.23	-32.6	-33.2	28.0	0.00e+00	0	41	0	2761949184	38	5880
2026-01-22 03:14:54.67	303.35	40.05	-32.4	-33.0	28.0	0.00e+00	0	41	0	2768240640	38	5735
2026-01-22 03:14:55.68	303.68	39.86	-32.6	-33.3	28.1	0.00e+00	0	41	0	2773483520	38	5926
2026-01-22 03:14:56.69	304.02	39.68	-32.2	-32.8	27.7	0.00e+00	0	41	0	2779774976	38	5569
2026-01-22 03:14:57.70	304.34	39.50	-32.1	-32.8	28.1	0.00e+00	0	41	0	2785017856	38	5616
2026-01-22 03:14:58.71	304.67	39.31	-32.3	-32.8	28.0	0.00e+00	0	41	0	2791309312	38	5624
2026-01-22 03:14:59.72	304.99	39.13	-32.3	-32.9	27.8	0.00e+00	0	41	0	2796552192	38	5688
2026-01-22 03:15:00.74	305.31	38.94	-32.3	-32.9	28.3	0.00e+00	0	41	0	2802843648	38	5694
2026-01-22 03:15:01.75	305.63	38.76	-32.3	-32.9	28.1	0.00e+00	0	41	0	2808086528	38	5637
2026-01-22 03:15:02.76	305.94	38.57	-32.3	-32.9	28.2	0.00e+00	0	41	0	2813329408	38	5668
2026-01-22 03:15:03.77	306.25	38.39	-32.7	-33.2	28.0	0.00e+00	0	41	0	2819620864	38	5876
2026-01-22 03:15:04.78	306.55	38.20	-32.5	-33.2	28.0	0.00e+00	0	41	0	2824863744	38	5851
2026-01-22 03:15:05.79	306.85	38.02	-32.4	-33.1	28.1	0.00e+00	0	41	0	2831155200	38	5784
2026-01-22 03:15:06.80	307.15	37.83	-32.4	-32.9	28.1	0.00e+00	0	41	0	2836398080	38	5675
2026-01-22 03:15:07.81	307.44	37.65	-32.2	-32.9	28.3	0.00e+00	0	41	0	2841640960	38	5674
2026-01-22 03:15:08.82	307.74	37.47	-32.2	-32.9	28.3	0.00e+00	0	41	0	2847932416	38	5666
2026-01-22 03:15:09.83	308.02	37.28	-32.3	-33.0	28.2	0.00e+00	0	41	0	2853175296	38	5704
2026-01-22 03:15:10.84	308.31	37.10	-32.2	-32.7	28.4	0.00e+00	0	41	0	2859466752	38	5540
2026-01-22 03:15:11.85	308.59	36.92	-32.2	-32.9	28.4	0.00e+00	0	41	0	2864709632	38	5656
2026-01-22 03:15:12.86	308.87	36.74	-32.3	-33.0	28.4	0.00e+00	0	41	0	2869952512	38	5698
2026-01-22 03:15:13.87	309.14	36.55	-32.3	-32.8	28.3	0.00e+00	0	41	0	2876243968	38	5594
2026-01-22 03:15:14.88	309.42	36.37	-32.4	-33.0	28.2	0.00e+00	0	41	0	2881486848	38	5713
2026-01-22 03:15:15.89	309.69	36.19	-32.5	-33.2	28.1	0.00e+00	0	41	0	2887778304	38	5891
2026-01-22 03:15:16.90	309.95	36.01	-32.7	-33.3	28.0	0.00e+00	0	41	0	2893021184	38	5906
2026-01-22 03:15:17.91	310.22	35.83	-32.4	-33.0	28.2	0.00e+00	0	41	0	2899312640	38	5706
2026-01-22 03:15:18.92	310.48	35.65	-32.4	-33.0	28.1	0.00e+00	0	41	0	2904555520	38	5710
2026-01-22 03:15:19.93	310.74	35.47	-32.5	-33.1	28.1	0.00e+00	0	41	0	2910846976	38	5769
2026-01-22 03:15:20.94	310.99	35.29	-32.5	-33.0	28.2	0.00e+00	0	41	0	2916089856	38	5748
2026-01-22 03:15:21.95	311.24	35.11	-32.4	-33.0	28.3	0.00e+00	0	41	0	2921332736	38	5704
2026-01-22 03:15:22.96	311.49	34.93	-32.2	-32.7	28.3	0.00e+00	0	41	0	2927624192	38	5565
2026-01-22 03:15:23.97	311.74	34.75	-32.1	-32.7	28.4	0.00e+00	0	41	0	2932867072	38	5526
2026-01-22 03:15:24.98	311.98	34.57	-32.2	-32.7	28.4	0.00e+00	0	41	0	2939158528	38	5556
2026-01-22 03:15:25.99	312.23	34.39	-32.1	-32.8	28.4	0.00e+00	0	41	0	2944401408	38	5605
2026-01-22 03:15:27.00	312.47	34.22	-32.3	-32.8	28.3	0.00e+00	0	41	0	2949644288	38	5627
2026-01-22 03:15:28.00	312.70	34.04	-32.4	-33.1	28.3	0.00e+00	0	41	0	2955935744	38	5779
2026-01-22 03:15:29.02	312.94	33.87	-32.5	-33.1	28.2	0.00e+00	0	41	0	2961178624	38	5791
2026-01-22 03:15:30.03	313.17	33.69	-32.4	-33.0	28.2	0.00e+00	0	41	0	2967470080	38	5723
2026-01-22 03:15:31.04	313.40	33.51	-32.5	-33.1	28.1	0.00e+00	0	41	0	2972712960	38	5785
2026-01-22 03:15:32.05	313.62	33.34	-32.4	-33.1	28.1	0.00e+00	0	41	0	2977955840	38	5773
2026-01-22 03:15:33.06	313.85	33.17	-32.4	-32.9	28.1	0.00e+00	0	41	0	2984247296	38	5668
2026-01-22 03:15:34.07	314.07	32.99	-32.5	-33.1	28.0	0.00e+00	0	41	0	2989490176	38	5776
2026-01-22 03:15:35.08	314.29	32.82	-32.5	-33.0	28.0	0.00e+00	0	41	0	2995781632	38	5734
2026-01-22 03:15:36.09	314.51	32.65	-32.7	-33.2	28.0	0.00e+00	0	41	0	3001024512	38	5871
2026-01-22 03:15:37.10	314.72	32.47	-32.6	-33.2	28.0	0.00e+00	0	41	0	3007315968	38	5861
2026-01-22 03:15:38.11	314.94	32.30	-32.7	-33.3	27.9	0.00e+00	0	41	0	3012558848	38	5964
2026-01-22 03:15:39.12	315.15	32.13	-32.7	-33.4	28.0	0.00e+00	0	41	0	3018850304	38	5977
2026-01-22 03:15:40.13	315.36	31.96	-32.8	-33.3	27.8	0.00e+00	0	41	0	3024093184	38	5951
2026-01-22 03:15:41.14	315.56	31.79	-32.6	-33.2	28.0	0.00e+00	0	41	0	3029336064	38	5856
2026-01-22 03:15:42.15	315.77	31.62	-32.6	-33.3	28.0	0.00e+00	0	41	0	3035627520	38	5908
2026-01-22 03:15:43.16	315.97	31.46	-32.5	-33.1	27.9	0.00e+00	0	41	0	3040870400	38	5791
2026-01-22 03:15:44.17	316.17	31.29	-32.6	-33.2	28.0	0.00e+00	0	41	0	3047161856	38	5836
2026-01-22 03:15:45.18	316.37	31.12	-32.5	-33.2	28.0	0.00e+00	0	41	0	3052404736	38	5861
2026-01-22 03:15:46.19	316.57	30.95	-32.6	-33.2	28.0	0.00e+00	0	41	0	3057647616	38	5832
2026-01-22 03:15:47.20	316.76	30.79	-32.6	-33.1	28.0	0.00e+00	0	41	0	3063939072	38	5826
2026-01-22 03:15:48.21	316.95	30.62	-32.7	-33.2	28.0	0.00e+00	0	41	0	3069181952	38	5891
2026-01-22 03:15:49.21	317.14	30.46	-32.7	-33.3	27.9	0.00e+00	0	41	0	3074424832	38	5930
2026-01-22 03:15:50.23	317.33	30.29	-32.8	-33.5	27.9	0.00e+00	0	41	0	3080716288	38	6052
2026-01-22 03:15:51.23	317.52	30.13	-32.8	-33.4	27.8	0.00e+00	0	41	0	3085959168	38	5980
2026-01-22 03:15:52.24	317.70	29.97	-33.0	-33.6	27.6	0.00e+00	0	41	0	3092250624	38	6133
2026-01-22 03:15:53.25	317.89	29.81	-33.0	-33.6	27.6	0.00e+00	0	41	0	3097493504	38	6117
2026-01-22 03:15:54.27	318.07	29.64	-32.8	-33.5	27.8	0.00e+00	0	41	0	3103784960	38	6103
2026-01-22 03:15:55.28	318.25	29.48	-33.0	-33.6	27.6	0.00e+00	0	41	0	3109027840	38	6119
2026-01-22 03:15:56.29	318.43	29.32	-32.8	-33.4	27.8	0.00e+00	0	41	0	3115319296	38	5965
2026-01-22 03:15:57.29	318.60	29.16	-32.8	-33.4	27.9	0.00e+00	0	41	0	3120562176	38	5979
2026-01-22 03:15:58.30	318.78	29.00	-32.8	-33.4	27.8	0.00e+00	0	41	0	3125805056	38	5967
2026-01-22 03:15:59.32	318.95	28.84	-32.7	-33.3	27.7	0.00e+00	0	41	0	3132096512	38	5913
2026-01-22 03:16:00.33	319.12	28.69	-32.7	-33.2	27.8	0.00e+00	0	41	0	3137339392	38	5868
2026-01-22 03:16:01.34	319.29	28.53	-32.6	-33.2	27.9	0.00e+00	0	41	0	3143630848	38	5839
2026-01-22 03:16:02.35	319.46	28.37	-32.8	-33.3	27.9	0.00e+00	0	41	0	3148873728	38	5951
2026-01-22 03:16:03.36	319.63	28.22	-32.7	-33.4	27.9	0.00e+00	0	41	0	3154116608	38	6000
2026-01-22 03:16:04.37	319.79	28.06	-32.7	-33.4	28.0	0.00e+00	0	41	0	3160408064	38	5970
2026-01-22 03:16:05.38	319.96	27.90	-32.8	-33.5	27.9	0.00e+00	0	41	0	3165650944	38	6046
2026-01-22 03:16:06.39	320.12	27.75	-32.7	-33.2	28.0	0.00e+00	0	41	0	3171942400	38	5871
2026-01-22 03:16:07.40	320.28	27.60	-32.7	-33.2	28.0	0.00e+00	0	41	0	3177185280	38	5890
2026-01-22 03:16:08.41	320.44	27.44	-32.9	-33.6	27.9	0.00e+00	0	41	0	3182428160	38	6163
2026-01-22 03:16:09.42	320.59	27.29	-32.8	-33.3	27.9	0.00e+00	0	41	0	3188719616	38	5945
2026-01-22 03:16:10.43	320.75	27.14	-32.8	-33.5	27.9	0.00e+00	0	42	0	3193962496	38	6070
2026-01-22 03:16:11.43	320.90	26.99	-32.9	-33.6	27.7	0.00e+00	0	41	0	3200253952	38	6172
2026-01-22 03:16:12.44	321.06	26.84	-33.0	-33.5	27.6	0.00e+00	0	41	0	3205496832	38	6099
2026-01-22 03:16:13.45	321.21	26.69	-33.0	-33.7	27.6	0.00e+00	0	41	0	3211788288	38	6203
2026-01-22 03:16:14.47	321.36	26.54	-33.0	-33.5	27.6	0.00e+00	0	41	0	3217031168	38	6102
2026-01-22 03:16:15.48	321.51	26.39	-33.0	-33.6	27.6	0.00e+00	0	41	0	3223322624	38	6106
2026-01-22 03:16:16.49	321.66	26.24	-33.0	-33.7	27.6	0.00e+00	0	41	0	3228565504	38	6212
2026-01-22 03:16:17.50	321.80	26.10	-33.0	-33.6	27.6	0.00e+00	0	41	0	3233808384	38	6112
2026-01-22 03:16:18.51	321.95	25.95	-33.0	-33.7	27.6	0.00e+00	0	41	0	3240099840	38	6223
2026-01-22 03:16:19.52	322.09	25.80	-32.9	-33.5	27.6	0.00e+00	0	41	0	3245342720	38	6051
2026-01-22 03:16:20.53	322.23	25.66	-32.9	-33.6	27.5	0.00e+00	0	41	0	3251634176	38	6164
2026-01-22 03:16:21.54	322.37	25.51	-32.8	-33.4	27.6	0.00e+00	0	41	0	3256877056	38	5993
2026-01-22 03:16:22.55	322.51	25.37	-33.0	-33.5	27.5	0.00e+00	0	41	0	3262119936	38	6085
2026-01-22 03:16:23.56	322.65	25.23	-33.1	-33.8	27.5	0.00e+00	0	41	0	3268411392	38	6268
2026-01-22 03:16:24.57	322.79	25.08	-33.3	-34.0	27.3	0.00e+00	0	41	0	3273654272	38	6457
2026-01-22 03:16:25.58	322.93	24.94	-33.8	-34.4	27.2	0.00e+00	0	41	0	3279945728	40	5976
2026-01-22 03:16:26.59	323.06	24.80	-33.6	-34.2	27.3	0.00e+00	0	41	0	3285188608	40	5836
2026-01-22 03:16:27.60	323.20	24.66	-34.0	-34.5	27.2	0.00e+00	0	41	0	3290431488	40	6064
2026-01-22 03:16:28.61	323.33	24.52	-33.6	-34.2	27.2	0.00e+00	0	42	0	3296722944	40	5837
2026-01-22 03:16:29.62	323.46	24.38	-33.5	-34.1	27.3	0.00e+00	0	42	0	3301965824	40	5769
2026-01-22 03:16:30.63	323.59	24.24	-33.6	-34.2	27.2	0.00e+00	0	42	0	3308257280	40	5833
2026-01-22 03:16:31.64	323.72	24.10	-33.2	-34.0	27.4	0.00e+00	0	41	0	3313500160	40	5703
2026-01-22 03:16:32.65	323.85	23.96	-33.5	-34.3	27.3	0.00e+00	0	41	0	3319791616	40	5904
2026-01-22 03:16:33.66	323.98	23.82	-33.6	-34.3	27.3	0.00e+00	0	41	0	3325034496	40	5927
2026-01-22 03:16:34.67	324.10	23.69	-33.4	-34.0	27.4	0.00e+00	0	41	0	3331325952	40	5737
2026-01-22 03:16:35.68	324.23	23.55	-33.7	-34.4	27.2	0.00e+00	0	41	0	3336568832	40	6020
2026-01-22 03:16:36.70	324.35	23.41	-33.6	-34.3	27.2	0.00e+00	0	41	0	3341811712	40	5923
2026-01-22 03:16:37.70	324.47	23.28	-33.9	-34.6	27.1	0.00e+00	0	41	0	3348103168	40	6120
2026-01-22 03:16:38.71	324.60	23.14	-34.2	-34.9	26.8	0.00e+00	0	41	0	3353346048	40	6332
2026-01-22 03:16:39.72	324.72	23.01	-34.2	-34.8	26.7	0.00e+00	0	41	0	3359637504	40	6271
2026-01-22 03:16:40.73	324.84	22.88	-33.8	-34.6	27.0	0.00e+00	0	42	0	3364880384	40	6105
2026-01-22 03:16:41.75	324.96	22.74	-33.9	-34.7	26.8	0.00e+00	0	42	0	3370123264	40	6192
2026-01-22 03:16:42.75	325.07	22.61	-33.9	-34.7	26.8	0.00e+00	0	41	0	3376414720	40	6175
2026-01-22 03:16:43.77	325.19	22.48	-33.9	-34.7	26.7	0.00e+00	0	41	0	3381657600	40	6182
2026-01-22 03:16:44.78	325.31	22.35	-33.7	-34.4	26.9	0.00e+00	0	41	0	3387949056	40	5973
2026-01-22 03:16:45.79	325.42	22.22	-33.8	-34.4	26.8	0.00e+00	0	41	0	3393191936	40	6008
2026-01-22 03:16:46.80	325.54	22.09	-33.8	-34.4	26.8	0.00e+00	0	41	0	3398434816	40	6006
2026-01-22 03:16:47.81	325.65	21.96	-34.0	-34.6	26.7	0.00e+00	0	42	0	3404726272	40	6138
2026-01-22 03:16:48.82	325.76	21.83	-34.1	-34.8	26.6	0.00e+00	0	41	0	3409969152	40	6309
2026-01-22 03:16:49.83	325.87	21.70	-33.8	-34.6	26.8	0.00e+00	0	42	0	3416260608	40	6109
2026-01-22 03:16:50.84	325.99	21.57	-34.0	-34.6	26.7	0.00e+00	0	41	0	3421503488	40	6110
2026-01-22 03:16:51.85	326.10	21.44	-33.9	-34.5	26.8	0.00e+00	0	41	0	3427794944	40	6040
2026-01-22 03:16:52.86	326.20	21.32	-34.0	-34.6	26.7	0.00e+00	0	41	0	3433037824	40	6145
2026-01-22 03:16:53.87	326.31	21.19	-34.2	-34.8	26.4	0.00e+00	0	41	0	3439329280	40	6292
2026-01-22 03:16:54.88	326.42	21.07	-34.3	-34.9	26.7	0.00e+00	0	41	0	3444572160	40	6325
2026-01-22 03:16:55.89	326.53	20.94	-34.3	-34.8	26.6	0.00e+00	0	41	0	3449815040	40	6294
2026-01-22 03:16:56.90	326.63	20.82	-34.4	-34.9	26.6	0.00e+00	0	42	0	3456106496	40	6383
2026-01-22 03:16:57.91	326.74	20.69	-34.2	-34.8	26.7	0.00e+00	0	41	0	3461349376	40	6286
2026-01-22 03:16:58.92	326.84	20.57	-34.2	-34.8	26.6	0.00e+00	0	41	0	3467640832	40	6267
2026-01-22 03:16:59.93	326.94	20.44	-34.2	-34.8	26.7	0.00e+00	0	42	0	3472883712	40	6251
2026-01-22 03:17:00.94	327.05	20.32	-34.2	-34.8	26.6	0.00e+00	0	41	0	3478126592	40	6253
2026-01-22 03:17:01.95	327.15	20.20	-34.4	-35.0	26.4	0.00e+00	0	42	0	3484418048	40	6400
2026-01-22 03:17:02.96	327.25	20.08	-34.4	-35.1	26.4	0.00e+00	0	41	0	3489660928	40	6485
2026-01-22 03:17:03.97	327.35	19.96	-34.2	-35.0	26.5	0.00e+00	0	42	0	3495952384	40	6412
2026-01-22 03:17:04.98	327.45	19.84	-34.2	-34.8	26.5	0.00e+00	0	41	0	3501195264	40	6248
2026-01-22 03:17:05.99	327.55	19.72	-34.3	-34.8	26.4	0.00e+00	0	42	0	3506438144	40	6314
2026-01-22 03:17:07.00	327.64	19.60	-34.3	-35.0	26.4	0.00e+00	0	41	0	3512729600	40	6417
2026-01-22 03:17:08.01	327.74	19.48	-34.2	-34.8	26.4	0.00e+00	0	41	0	3517972480	40	6258
2026-01-22 03:17:09.02	327.84	19.36	-34.4	-34.9	26.4	0.00e+00	0	42	0	3524263936	40	6375
2026-01-22 03:17:10.03	327.93	19.24	-34.4	-35.1	26.4	0.00e+00	0	41	0	3529506816	40	6493
2026-01-22 03:17:11.04	328.03	19.12	-34.6	-35.2	26.2	0.00e+00	0	42	0	3535798272	40	6574
2026-01-22 03:17:12.05	328.12	19.01	-34.6	-35.3	26.2	0.00e+00	0	42	0	3541041152	40	6662
2026-01-22 03:17:13.06	328.22	18.89	-34.5	-35.2	26.2	0.00e+00	0	42	0	3546284032	40	6560
2026-01-22 03:17:14.07	328.31	18.77	-34.5	-35.2	26.2	0.00e+00	0	42	0	3552575488	40	6596
2026-01-22 03:17:15.08	328.40	18.66	-34.6	-35.3	26.2	0.00e+00	0	42	0	3557818368	40	6651
2026-01-22 03:17:16.09	328.49	18.54	-34.7	-35.3	26.0	0.00e+00	0	42	0	3564109824	42	5943
2026-01-22 03:17:17.10	328.59	18.43	-34.8	-35.3	25.9	0.00e+00	0	42	0	3569352704	42	5960
2026-01-22 03:17:18.11	328.68	18.32	-34.7	-35.4	26.0	0.00e+00	0	41	0	3574595584	42	6032
2026-01-22 03:17:19.13	328.77	18.20	-34.9	-35.6	25.9	0.00e+00	0	42	0	3580887040	42	6170
2026-01-22 03:17:20.14	328.86	18.09	-34.7	-35.3	26.0	0.00e+00	0	42	0	3586129920	42	5932
2026-01-22 03:17:21.15	328.94	17.97	-34.8	-35.4	25.8	0.00e+00	0	41	0	3592421376	42	6008
