passes_logs/2026/01/22/R4.6S_Anadyr/R4.6S_Anadyr__20260122_225350_TY-42_rec.log

#Pass ID: 20260122_225350_TY-42
#Satellite: TY-42
#Configuration: TY-42_900M
#almurnet v.1.7.20251203
#Start time: 2026-01-22 22:54:23

#Version: 2.2.20231116
#Station: R4.6S_Anadyr
#Location: 177.4865 lon 64.73178 lat
#TLE: 1 64048U 25103A   26022.68086806  .00008008  00000-0  38191-3 0 09998
#TLE: 2 64048 097.4120 097.9538 0001839 092.0767 308.1526 15.19160957 37986

#Time	Az	El	Level	Level2	SNR	BER	BlckErr	Temp	State	Recorded	gain1	gain2
2026-01-22 22:54:23.41	20.01	2.15	-51.0	-65.9	3.5	1.51e+00	0	39	0	0	60	71687
2026-01-22 22:54:24.42	20.05	2.22	-50.3	-52.7	6.1	0.00e+00	0	40	104	0	60	52718
2026-01-22 22:54:25.43	20.09	2.29	-50.3	-52.7	6.1	0.00e+00	0	41	104	0	60	52740
2026-01-22 22:54:26.44	20.13	2.36	-50.3	-52.7	6.1	0.00e+00	0	40	104	0	60	53025
2026-01-22 22:54:27.45	20.18	2.43	-50.3	-52.7	6.1	0.00e+00	0	41	104	0	60	52765
2026-01-22 22:54:28.46	20.22	2.50	-50.3	-52.7	6.1	0.00e+00	0	41	104	0	60	52891
2026-01-22 22:54:29.47	20.26	2.57	-50.3	-52.7	6.1	0.00e+00	0	41	104	0	60	53048
2026-01-22 22:54:30.48	20.30	2.64	-50.3	-52.7	6.1	0.00e+00	0	41	104	0	60	53028
2026-01-22 22:54:31.49	20.34	2.71	-50.3	-52.7	6.1	0.00e+00	0	41	104	0	60	53060
2026-01-22 22:54:32.50	20.38	2.78	-50.3	-52.7	6.1	0.00e+00	0	41	104	0	60	52972
2026-01-22 22:54:33.51	20.43	2.85	-50.2	-52.7	6.1	0.00e+00	0	41	104	0	60	53071
2026-01-22 22:54:34.52	20.47	2.92	-50.3	-52.7	6.1	0.00e+00	0	41	104	0	60	52986
2026-01-22 22:54:35.53	20.51	2.99	-50.2	-52.7	6.1	0.00e+00	0	41	104	0	60	52741
2026-01-22 22:54:36.54	20.56	3.07	-50.3	-52.7	6.1	0.00e+00	0	41	104	0	60	53043
2026-01-22 22:54:37.55	20.60	3.14	-50.3	-52.7	6.1	0.00e+00	0	41	104	0	60	52766
2026-01-22 22:54:38.56	20.64	3.21	-50.3	-52.7	6.1	0.00e+00	0	41	104	0	60	53051
2026-01-22 22:54:39.57	20.69	3.28	-50.3	-52.7	6.1	0.00e+00	0	41	104	0	60	52784
2026-01-22 22:54:40.58	20.73	3.35	-50.3	-52.8	6.1	0.00e+00	0	41	104	0	60	53159
2026-01-22 22:54:41.59	20.78	3.43	-50.3	-52.7	6.1	0.00e+00	0	41	104	0	60	52802
2026-01-22 22:54:42.60	20.82	3.50	-50.2	-52.7	6.1	0.00e+00	0	41	104	0	60	52893
2026-01-22 22:54:43.61	20.87	3.57	-50.2	-52.7	6.1	0.00e+00	0	41	104	0	60	52952
2026-01-22 22:54:44.62	20.91	3.65	-50.2	-52.7	6.1	0.00e+00	0	41	104	0	60	53053
2026-01-22 22:54:45.63	20.96	3.72	-50.2	-52.7	6.1	0.00e+00	0	41	104	0	60	52850
2026-01-22 22:54:46.64	21.00	3.80	-50.2	-52.7	6.1	0.00e+00	0	41	104	0	60	52836
2026-01-22 22:54:47.65	21.05	3.87	-50.3	-52.7	6.1	0.00e+00	0	41	104	0	60	52970
2026-01-22 22:54:48.66	21.10	3.94	-50.2	-52.7	6.1	0.00e+00	0	41	104	0	60	53011
2026-01-22 22:54:49.67	21.14	4.02	-50.2	-52.7	6.1	0.00e+00	0	41	104	0	60	52874
2026-01-22 22:54:50.68	21.19	4.09	-50.2	-52.7	6.1	0.00e+00	0	42	104	0	60	52616
2026-01-22 22:54:51.69	21.24	4.17	-50.3	-52.8	6.1	0.00e+00	0	41	104	0	60	53417
2026-01-22 22:54:52.70	21.28	4.24	-50.3	-52.8	6.1	0.00e+00	0	41	104	0	60	53375
2026-01-22 22:54:53.71	21.33	4.32	-50.3	-52.8	6.1	0.00e+00	0	41	104	0	60	53407
2026-01-22 22:54:54.72	21.38	4.40	-50.3	-52.8	6.1	0.00e+00	0	42	104	0	60	53620
2026-01-22 22:54:55.73	21.43	4.47	-50.3	-52.8	6.1	0.00e+00	0	41	104	0	60	53342
2026-01-22 22:54:56.74	21.48	4.55	-50.3	-52.8	6.1	0.00e+00	0	42	104	0	60	53161
2026-01-22 22:54:57.75	21.52	4.63	-50.4	-52.8	6.1	0.00e+00	0	42	104	0	60	53473
2026-01-22 22:54:58.76	21.57	4.70	-50.4	-52.8	6.1	0.00e+00	0	42	104	0	60	53751
2026-01-22 22:54:59.77	21.62	4.78	-50.3	-52.8	6.1	0.00e+00	0	42	104	0	60	53381
2026-01-22 22:55:00.78	21.67	4.86	-50.3	-52.8	6.1	0.00e+00	0	42	104	0	60	53424
2026-01-22 22:55:01.78	21.72	4.94	-50.5	-52.9	6.1	0.00e+00	0	42	104	0	60	54380
2026-01-22 22:55:02.79	21.77	5.02	-50.5	-53.0	6.1	0.00e+00	0	42	104	0	60	54433
2026-01-22 22:55:03.80	21.82	5.09	-50.3	-52.8	6.1	0.00e+00	0	42	104	0	60	53268
2026-01-22 22:55:04.81	21.87	5.17	-50.4	-52.9	6.1	0.00e+00	0	42	104	0	60	53865
2026-01-22 22:55:05.82	21.93	5.25	-50.4	-52.9	6.1	0.00e+00	0	42	104	0	60	53878
2026-01-22 22:55:06.83	21.98	5.33	-50.5	-53.0	6.1	0.00e+00	0	42	104	0	60	54604
2026-01-22 22:55:07.84	22.03	5.41	-50.4	-52.9	6.1	0.00e+00	0	42	104	0	60	53881
2026-01-22 22:55:08.85	22.08	5.49	-50.3	-52.8	6.1	0.00e+00	0	42	104	0	60	53612
2026-01-22 22:55:09.85	22.13	5.57	-50.5	-53.0	6.1	0.00e+00	0	42	104	0	60	54540
2026-01-22 22:55:10.86	22.19	5.65	-50.6	-53.0	6.1	0.00e+00	0	42	104	0	60	54733
2026-01-22 22:55:11.87	22.24	5.73	-48.5	-50.1	6.2	0.00e+00	0	42	104	0	60	39157
2026-01-22 22:55:12.88	22.29	5.82	-49.5	-51.5	6.1	0.00e+00	0	42	104	0	60	45948
2026-01-22 22:55:13.89	22.35	5.90	-49.5	-51.6	6.1	0.00e+00	0	42	104	0	60	46399
2026-01-22 22:55:14.90	22.40	5.98	-47.5	-48.8	6.7	0.00e+00	0	42	104	0	60	33661
2026-01-22 22:55:15.91	22.46	6.06	-43.5	-44.1	8.7	0.00e+00	0	42	104	0	60	19749
2026-01-22 22:55:16.92	22.51	6.15	-34.3	-34.7	12.5	0.00e+00	1078	42	104	0	44	16625
2026-01-22 22:55:17.93	22.57	6.23	-33.9	-34.3	14.4	0.00e+00	0	42	0	75497472	44	16019
2026-01-22 22:55:18.94	22.62	6.31	-48.9	-50.7	6.2	2.81e-02	0	42	104	142606336	60	41780
2026-01-22 22:55:19.95	22.68	6.40	-35.2	-35.5	11.2	0.00e+00	0	42	104	142606336	46	16319
2026-01-22 22:55:20.96	22.73	6.48	-50.2	-52.4	6.1	0.00e+00	0	42	104	142606336	60	51195
2026-01-22 22:55:21.97	22.79	6.56	-32.6	-32.9	11.5	0.00e+00	0	42	104	142606336	42	15302
2026-01-22 22:55:22.98	22.85	6.65	-32.0	-32.4	15.2	0.00e+00	0	42	0	150994944	40	16236
2026-01-22 22:55:23.99	22.91	6.73	-31.6	-32.1	15.4	0.00e+00	0	42	0	268435456	40	15510
2026-01-22 22:55:25.00	22.96	6.82	-30.6	-31.0	15.7	0.00e+00	0	42	0	377487360	38	15395
2026-01-22 22:55:26.01	23.02	6.91	-30.2	-30.6	15.8	1.33e-02	0	42	0	486539264	36	16463
2026-01-22 22:55:27.02	23.08	6.99	-30.4	-30.8	15.8	1.33e-02	0	42	0	603979776	36	16873
2026-01-22 22:55:28.03	23.14	7.08	-29.9	-30.3	15.9	8.34e-04	0	42	0	721420288	36	15915
2026-01-22 22:55:29.04	23.20	7.17	-29.8	-30.2	15.9	8.34e-04	0	42	0	830472192	36	15790
2026-01-22 22:55:30.05	23.26	7.25	-29.7	-30.1	15.9	4.69e-04	0	43	0	947912704	34	17424
2026-01-22 22:55:31.06	23.32	7.34	-29.8	-30.2	15.9	4.69e-04	0	42	0	1056964608	34	17763
2026-01-22 22:55:32.07	23.38	7.43	-29.8	-30.3	15.9	3.87e-04	0	42	0	1174405120	34	17810
2026-01-22 22:55:33.08	23.44	7.52	-29.7	-30.1	15.9	3.87e-04	0	42	0	1291845632	34	17467
2026-01-22 22:55:34.09	23.51	7.61	-29.6	-30.0	16.0	3.92e-04	0	43	0	1400897536	34	17342
2026-01-22 22:55:35.09	23.57	7.70	-29.9	-30.3	15.9	3.92e-04	0	43	0	1509949440	34	18008
2026-01-22 22:55:36.10	23.63	7.79	-29.6	-30.0	16.0	3.92e-04	0	43	0	1627389952	34	17382
2026-01-22 22:55:37.11	23.69	7.88	-29.9	-30.3	15.9	3.32e-04	0	43	0	1736441856	34	17823
2026-01-22 22:55:38.12	23.76	7.97	-30.1	-30.5	16.0	3.32e-04	0	43	0	1853882368	34	18331
2026-01-22 22:55:39.13	23.82	8.06	-30.2	-30.6	15.8	3.43e-04	0	43	0	1971322880	34	18542
2026-01-22 22:55:40.14	23.88	8.15	-29.6	-30.0	16.0	3.43e-04	0	43	0	2080374784	34	17236
2026-01-22 22:55:41.15	23.95	8.24	-29.4	-29.8	16.1	3.43e-04	0	43	0	2197815296	34	16962
2026-01-22 22:55:42.16	24.01	8.33	-29.2	-29.5	16.1	2.72e-04	0	43	0	2306867200	34	16421
2026-01-22 22:55:43.17	24.08	8.43	-29.2	-29.6	16.2	2.72e-04	0	42	0	2415919104	34	16540
2026-01-22 22:55:44.18	24.15	8.52	-29.2	-29.5	16.1	1.52e-04	0	43	0	2541748224	34	16407
2026-01-22 22:55:45.19	24.21	8.61	-29.3	-29.6	16.1	1.52e-04	0	43	0	2650800128	34	16587
2026-01-22 22:55:46.20	24.28	8.71	-29.1	-29.5	16.2	1.80e-04	0	43	0	2759852032	34	16361
2026-01-22 22:55:47.21	24.35	8.80	-28.9	-29.2	16.2	1.58e-04	0	43	0	2877292544	34	15842
2026-01-22 22:55:48.21	24.42	8.89	-28.9	-29.3	16.2	1.58e-04	0	43	0	2986344448	34	15918
2026-01-22 22:55:49.22	24.49	8.99	-28.9	-29.3	16.2	9.80e-05	0	43	0	3103784960	34	16026
2026-01-22 22:55:50.23	24.55	9.08	-28.9	-29.3	16.2	9.80e-05	0	43	0	3221225472	34	16006
2026-01-22 22:55:51.24	24.62	9.18	-28.8	-29.2	16.2	9.80e-05	0	43	0	3330277376	34	15708
2026-01-22 22:55:52.25	24.69	9.28	-28.8	-29.2	16.2	1.20e-04	0	43	0	3439329280	32	17637
2026-01-22 22:55:53.26	24.77	9.37	-28.8	-29.2	16.2	1.20e-04	0	43	0	3556769792	32	17696
2026-01-22 22:55:54.27	24.84	9.47	-28.7	-29.1	16.2	9.26e-05	0	43	0	3665821696	32	17556
2026-01-22 22:55:55.28	24.91	9.57	-28.9	-29.3	16.2	9.26e-05	0	43	0	3783262208	32	17826
2026-01-22 22:55:56.29	24.98	9.67	-28.8	-29.2	16.2	9.26e-05	0	43	0	3900702720	32	17698
2026-01-22 22:55:57.30	25.06	9.77	-28.4	-28.8	16.3	9.80e-05	0	43	0	4009754624	32	16844
2026-01-22 22:55:58.31	25.13	9.87	-28.5	-28.8	16.3	9.80e-05	0	43	0	4127195136	32	16998
2026-01-22 22:55:59.32	25.20	9.97	-28.4	-28.8	16.3	4.90e-05	0	43	0	4236247040	32	16941
2026-01-22 22:56:00.33	25.28	10.07	-28.6	-29.0	16.4	3.81e-05	0	43	0	4353687552	32	17234
2026-01-22 22:56:01.34	25.35	10.17	-28.3	-28.6	16.4	3.81e-05	0	43	0	4471128064	32	16614
2026-01-22 22:56:02.35	25.43	10.27	-28.4	-28.7	16.4	3.81e-05	0	43	0	4580179968	32	16808
2026-01-22 22:56:03.36	25.51	10.37	-28.1	-28.5	16.3	1.63e-05	0	43	0	4689231872	32	16298
2026-01-22 22:56:04.37	25.58	10.48	-28.1	-28.5	16.4	1.63e-05	0	43	0	4806672384	32	16363
2026-01-22 22:56:05.38	25.66	10.58	-28.1	-28.5	16.4	1.63e-05	0	43	0	4924112896	32	16337
2026-01-22 22:56:06.38	25.74	10.68	-28.2	-28.6	16.3	3.26e-05	0	43	0	5033164800	32	16547
2026-01-22 22:56:07.39	25.82	10.79	-28.2	-28.5	16.4	3.26e-05	0	43	0	5150605312	32	16410
2026-01-22 22:56:08.40	25.90	10.89	-28.3	-28.6	16.4	5.44e-05	0	43	0	5259657216	32	16601
2026-01-22 22:56:09.41	25.98	11.00	-28.1	-28.5	16.4	5.44e-05	0	43	0	5368709120	32	16370
2026-01-22 22:56:10.42	26.06	11.10	-27.7	-28.1	16.5	1.63e-05	0	43	0	5486149632	32	15678
2026-01-22 22:56:11.43	26.14	11.21	-27.7	-28.1	16.6	1.63e-05	0	43	0	5603590144	30	17503
2026-01-22 22:56:12.44	26.23	11.31	-27.8	-28.2	16.5	2.17e-05	0	43	0	5712642048	30	17636
2026-01-22 22:56:13.45	26.31	11.42	-27.9	-28.3	16.5	2.17e-05	0	43	0	5830082560	30	17833
2026-01-22 22:56:14.46	26.39	11.53	-27.6	-28.0	16.6	1.08e-05	0	43	0	5939134464	30	17283
2026-01-22 22:56:15.47	26.48	11.64	-27.8	-28.2	16.5	1.08e-05	0	43	0	6056574976	30	17613
2026-01-22 22:56:16.48	26.56	11.75	-27.7	-28.1	16.5	1.08e-05	0	43	0	6174015488	30	17487
2026-01-22 22:56:17.49	26.65	11.86	-27.6	-28.0	16.5	1.08e-05	0	43	0	6283067392	30	17285
2026-01-22 22:56:18.49	26.73	11.97	-27.7	-28.1	16.5	1.63e-05	0	43	0	6400507904	30	17443
2026-01-22 22:56:19.51	26.82	12.08	-27.4	-27.8	16.5	1.63e-05	0	43	0	6509559808	30	16877
2026-01-22 22:56:20.52	26.91	12.19	-27.6	-28.0	16.4	1.63e-05	0	43	0	6618611712	30	17373
2026-01-22 22:56:21.53	27.00	12.30	-27.4	-27.8	16.5	5.40e-06	0	43	0	6736052224	30	16881
2026-01-22 22:56:22.53	27.09	12.42	-27.5	-27.8	16.6	5.40e-06	0	43	0	6853492736	30	16980
2026-01-22 22:56:23.54	27.18	12.53	-27.2	-27.6	16.6	1.63e-05	0	43	0	6962544640	30	16513
2026-01-22 22:56:24.55	27.27	12.64	-27.3	-27.7	16.7	1.63e-05	0	43	0	7079985152	30	16774
2026-01-22 22:56:25.56	27.36	12.76	-27.2	-27.6	16.7	1.63e-05	0	43	0	7189037056	30	16510
2026-01-22 22:56:26.57	27.46	12.87	-27.3	-27.7	16.6	1.08e-05	0	43	0	7298088960	30	16619
2026-01-22 22:56:27.58	27.55	12.99	-27.1	-27.5	16.7	1.08e-05	0	43	0	7423918080	30	16390
2026-01-22 22:56:28.59	27.65	13.11	-26.9	-27.3	16.7	1.08e-05	0	43	0	7532969984	30	15902
2026-01-22 22:56:29.60	27.74	13.23	-26.9	-27.3	16.7	0.00e+00	0	43	0	7642021888	30	15937
2026-01-22 22:56:30.61	27.84	13.34	-26.8	-27.2	16.7	0.00e+00	0	43	0	7759462400	30	15780
2026-01-22 22:56:31.62	27.94	13.46	-26.7	-27.1	16.7	0.00e+00	0	43	0	7868514304	28	17601
2026-01-22 22:56:32.63	28.04	13.58	-26.7	-27.2	16.7	0.00e+00	0	43	0	7985954816	28	17622
2026-01-22 22:56:33.64	28.13	13.70	-26.6	-27.0	16.7	0.00e+00	0	43	0	8103395328	28	17251
2026-01-22 22:56:34.65	28.23	13.82	-26.5	-26.9	16.8	0.00e+00	0	43	0	8212447232	28	17164
2026-01-22 22:56:35.65	28.33	13.94	-26.5	-26.9	16.7	0.00e+00	0	43	0	8329887744	28	17128
2026-01-22 22:56:36.66	28.44	14.07	-26.5	-26.9	16.8	5.40e-06	0	43	0	8438939648	28	17091
2026-01-22 22:56:37.67	28.54	14.19	-26.2	-26.6	16.8	5.40e-06	0	43	0	8547991552	28	16557
2026-01-22 22:56:38.68	28.64	14.31	-26.3	-26.7	16.8	0.00e+00	0	43	0	8665432064	28	16667
2026-01-22 22:56:39.69	28.75	14.44	-26.2	-26.6	16.8	0.00e+00	0	43	0	8782872576	28	16508
2026-01-22 22:56:40.70	28.86	14.57	-26.1	-26.5	16.8	0.00e+00	0	43	0	8891924480	28	16368
2026-01-22 22:56:41.71	28.96	14.69	-26.1	-26.5	16.8	0.00e+00	0	43	0	9009364992	28	16422
2026-01-22 22:56:42.72	29.07	14.82	-26.1	-26.5	16.8	0.00e+00	0	43	0	9118416896	28	16328
2026-01-22 22:56:43.73	29.18	14.95	-26.1	-26.5	16.8	5.40e-06	0	43	0	9235857408	28	16298
2026-01-22 22:56:44.74	29.29	15.08	-25.9	-26.3	16.8	5.40e-06	0	43	0	9353297920	28	16032
2026-01-22 22:56:45.75	29.40	15.20	-26.0	-26.4	16.8	0.00e+00	0	43	0	9462349824	28	16157
2026-01-22 22:56:46.76	29.51	15.33	-26.1	-26.5	16.8	0.00e+00	0	43	0	9571401728	28	16281
2026-01-22 22:56:47.77	29.63	15.47	-25.9	-26.3	16.9	0.00e+00	0	43	0	9688842240	28	15977
2026-01-22 22:56:48.78	29.74	15.60	-26.0	-26.4	16.9	0.00e+00	0	43	0	9806282752	28	16177
2026-01-22 22:56:49.79	29.86	15.73	-25.9	-26.3	16.9	0.00e+00	0	43	0	9915334656	28	15932
2026-01-22 22:56:50.80	29.97	15.86	-25.9	-26.3	16.8	0.00e+00	0	43	0	10032775168	28	16019
2026-01-22 22:56:51.81	30.09	16.00	-26.0	-26.4	16.8	0.00e+00	0	43	0	10141827072	28	16128
2026-01-22 22:56:52.82	30.21	16.13	-25.8	-26.2	16.9	0.00e+00	0	43	0	10259267584	28	15774
2026-01-22 22:56:53.83	30.33	16.27	-25.8	-26.2	16.9	0.00e+00	0	43	0	10376708096	28	15714
2026-01-22 22:56:54.84	30.46	16.41	-25.8	-26.2	16.9	0.00e+00	0	43	0	10485760000	26	17725
2026-01-22 22:56:55.85	30.58	16.55	-25.7	-26.1	16.9	0.00e+00	0	43	0	10594811904	26	17527
2026-01-22 22:56:56.86	30.70	16.68	-25.7	-26.1	17.0	0.00e+00	0	43	0	10712252416	26	17587
2026-01-22 22:56:57.87	30.83	16.82	-25.6	-26.0	17.0	0.00e+00	0	43	0	10821304320	26	17245
2026-01-22 22:56:58.88	30.96	16.96	-25.8	-26.2	17.0	0.00e+00	0	43	0	10938744832	26	17625
2026-01-22 22:56:59.89	31.08	17.11	-25.5	-25.9	17.0	0.00e+00	0	43	0	11056185344	26	17095
2026-01-22 22:57:00.90	31.21	17.25	-25.4	-25.8	17.0	0.00e+00	0	43	0	11165237248	26	16904
2026-01-22 22:57:01.91	31.34	17.39	-25.4	-25.8	17.1	0.00e+00	0	43	0	11282677760	26	16852
2026-01-22 22:57:02.92	31.48	17.54	-25.3	-25.7	17.1	0.00e+00	0	43	0	11391729664	26	16763
2026-01-22 22:57:03.93	31.61	17.68	-25.3	-25.7	17.1	0.00e+00	0	43	0	11509170176	26	16720
2026-01-22 22:57:04.94	31.75	17.83	-25.3	-25.7	17.1	0.00e+00	0	43	0	11618222080	26	16710
2026-01-22 22:57:05.95	31.88	17.98	-25.1	-25.5	17.1	0.00e+00	0	43	0	11735662592	26	16309
2026-01-22 22:57:06.96	32.02	18.12	-25.1	-25.5	17.1	0.00e+00	0	43	0	11844714496	26	16263
2026-01-22 22:57:07.97	32.16	18.27	-25.0	-25.5	17.2	0.00e+00	0	43	0	11962155008	26	16246
2026-01-22 22:57:08.98	32.30	18.42	-25.0	-25.4	17.1	0.00e+00	0	43	0	12079595520	26	16227
2026-01-22 22:57:09.99	32.45	18.58	-24.9	-25.3	17.1	0.00e+00	0	43	0	12188647424	26	15911
2026-01-22 22:57:11.00	32.59	18.73	-25.0	-25.4	17.1	0.00e+00	0	43	0	12306087936	26	16152
2026-01-22 22:57:12.01	32.74	18.88	-24.8	-25.2	17.1	0.00e+00	0	43	0	12415139840	26	15792
2026-01-22 22:57:13.02	32.89	19.04	-24.9	-25.3	17.2	0.00e+00	0	43	0	12524191744	24	17868
2026-01-22 22:57:14.03	33.04	19.19	-24.6	-25.0	17.2	0.00e+00	0	43	0	12650020864	24	17391
2026-01-22 22:57:15.04	33.19	19.35	-24.6	-25.0	17.2	0.00e+00	0	43	0	12759072768	24	17323
2026-01-22 22:57:16.05	33.34	19.51	-24.5	-24.9	17.2	0.00e+00	0	43	0	12868124672	24	17147
2026-01-22 22:57:17.06	33.50	19.67	-24.5	-24.9	17.2	0.00e+00	0	44	0	12985565184	24	17197
2026-01-22 22:57:18.07	33.65	19.83	-24.3	-24.7	17.2	0.00e+00	0	44	0	13094617088	24	16750
2026-01-22 22:57:19.08	33.81	19.99	-24.5	-24.9	17.2	0.00e+00	0	43	0	13212057600	24	17060
2026-01-22 22:57:20.09	33.97	20.15	-24.2	-24.6	17.2	0.00e+00	0	43	0	13329498112	24	16440
2026-01-22 22:57:21.10	34.13	20.31	-24.3	-24.7	17.2	0.00e+00	0	43	0	13438550016	24	16655
2026-01-22 22:57:22.10	34.30	20.47	-24.0	-24.4	17.3	0.00e+00	0	43	0	13547601920	24	16136
2026-01-22 22:57:23.11	34.46	20.64	-24.1	-24.5	17.2	0.00e+00	0	43	0	13665042432	24	16370
2026-01-22 22:57:24.12	34.63	20.81	-23.9	-24.3	17.2	0.00e+00	0	43	0	13774094336	24	16015
2026-01-22 22:57:25.13	34.80	20.98	-23.9	-24.4	17.2	0.00e+00	0	43	0	13891534848	24	16064
2026-01-22 22:57:26.14	34.97	21.14	-24.0	-24.4	17.2	0.00e+00	0	44	0	14008975360	24	16142
2026-01-22 22:57:27.15	35.15	21.31	-23.8	-24.2	17.2	0.00e+00	0	43	0	14118027264	24	15733
2026-01-22 22:57:28.16	35.32	21.49	-23.9	-24.3	17.2	0.00e+00	0	43	0	14235467776	24	15918
2026-01-22 22:57:29.17	35.50	21.66	-23.7	-24.2	17.2	0.00e+00	0	43	0	14344519680	24	15691
2026-01-22 22:57:30.18	35.68	21.83	-23.7	-24.2	17.2	0.00e+00	0	43	0	14461960192	22	17612
2026-01-22 22:57:31.19	35.87	22.01	-23.8	-24.2	17.2	0.00e+00	0	43	0	14579400704	22	17775
2026-01-22 22:57:32.20	36.05	22.18	-23.7	-24.1	17.2	0.00e+00	0	43	0	14688452608	22	17498
2026-01-22 22:57:33.21	36.24	22.36	-23.6	-24.1	17.2	0.00e+00	0	43	0	14797504512	22	17414
2026-01-22 22:57:34.22	36.43	22.54	-23.6	-24.0	17.3	0.00e+00	0	44	0	14914945024	22	17278
2026-01-22 22:57:35.23	36.62	22.72	-23.5	-23.9	17.3	0.00e+00	0	43	0	15032385536	22	17162
2026-01-22 22:57:36.24	36.82	22.90	-23.3	-23.8	17.3	0.00e+00	0	44	0	15141437440	22	16818
2026-01-22 22:57:37.25	37.01	23.09	-23.1	-23.6	17.3	0.00e+00	0	43	0	15258877952	22	16441
2026-01-22 22:57:38.26	37.21	23.27	-23.2	-23.7	17.3	0.00e+00	0	43	0	15367929856	22	16637
2026-01-22 22:57:39.27	37.42	23.45	-23.1	-23.6	17.3	0.00e+00	0	44	0	15485370368	22	16454
2026-01-22 22:57:40.28	37.62	23.64	-23.2	-23.6	17.3	0.00e+00	0	43	0	15602810880	22	16483
2026-01-22 22:57:41.29	37.83	23.83	-23.2	-23.6	17.3	0.00e+00	0	43	0	15711862784	22	16503
2026-01-22 22:57:42.30	38.04	24.02	-23.1	-23.5	17.3	0.00e+00	0	44	0	15820914688	22	16352
2026-01-22 22:57:43.31	38.26	24.21	-23.1	-23.5	17.3	0.00e+00	0	43	0	15938355200	22	16371
2026-01-22 22:57:44.32	38.47	24.40	-22.8	-23.3	17.3	0.00e+00	0	43	0	16047407104	22	15877
2026-01-22 22:57:45.33	38.69	24.59	-22.7	-23.1	17.3	0.00e+00	0	44	0	16164847616	20	17550
2026-01-22 22:57:46.34	38.91	24.79	-22.7	-23.1	17.3	0.00e+00	0	44	0	16282288128	20	17486
2026-01-22 22:57:47.34	39.14	24.98	-22.9	-23.3	17.3	0.00e+00	0	44	0	16391340032	20	17880
2026-01-22 22:57:48.35	39.37	25.18	-22.5	-22.9	17.4	0.00e+00	0	43	0	16508780544	20	17074
2026-01-22 22:57:49.37	39.60	25.38	-22.5	-22.9	17.3	0.00e+00	0	44	0	16617832448	20	17178
2026-01-22 22:57:50.37	39.83	25.58	-22.4	-22.8	17.3	0.00e+00	0	44	0	16735272960	20	16942
2026-01-22 22:57:51.38	40.07	25.78	-22.4	-22.8	17.4	0.00e+00	0	44	0	16844324864	20	16972
2026-01-22 22:57:52.39	40.31	25.98	-22.3	-22.8	17.3	0.00e+00	0	44	0	16961765376	20	16851
2026-01-22 22:57:53.40	40.56	26.19	-22.3	-22.8	17.3	0.00e+00	0	44	0	17070817280	20	16810
2026-01-22 22:57:54.41	40.80	26.39	-22.2	-22.6	17.4	0.00e+00	0	44	0	17188257792	20	16543
2026-01-22 22:57:55.42	41.05	26.60	-22.3	-22.7	17.3	0.00e+00	0	43	0	17297309696	20	16706
2026-01-22 22:57:56.43	41.31	26.81	-22.1	-22.5	17.4	0.00e+00	0	44	0	17414750208	20	16340
2026-01-22 22:57:57.44	41.57	27.02	-22.1	-22.5	17.4	0.00e+00	0	44	0	17532190720	20	16293
2026-01-22 22:57:58.45	41.83	27.23	-21.9	-22.3	17.4	0.00e+00	0	44	0	17641242624	20	15956
2026-01-22 22:57:59.46	42.10	27.44	-21.8	-22.3	17.4	0.00e+00	0	44	0	17750294528	20	15896
2026-01-22 22:58:00.47	42.37	27.66	-21.7	-22.2	17.3	0.00e+00	0	44	0	17867735040	18	17616
2026-01-22 22:58:01.48	42.64	27.87	-21.7	-22.1	17.4	0.00e+00	0	44	0	17985175552	18	17529
2026-01-22 22:58:02.49	42.92	28.09	-21.6	-22.1	17.3	0.00e+00	0	44	0	18094227456	18	17407
2026-01-22 22:58:03.50	43.20	28.31	-21.4	-21.8	17.4	0.00e+00	0	44	0	18211667968	18	17004
2026-01-22 22:58:04.51	43.49	28.53	-21.5	-21.9	17.4	0.00e+00	0	44	0	18320719872	18	17140
2026-01-22 22:58:05.52	43.78	28.75	-21.5	-21.9	17.4	0.00e+00	0	44	0	18438160384	18	17069
2026-01-22 22:58:06.53	44.07	28.97	-21.2	-21.6	17.4	0.00e+00	0	44	0	18555600896	18	16587
2026-01-22 22:58:07.54	44.37	29.19	-21.3	-21.7	17.4	0.00e+00	0	44	0	18664652800	18	16696
2026-01-22 22:58:08.55	44.68	29.42	-21.1	-21.5	17.4	0.00e+00	0	44	0	18773704704	18	16340
2026-01-22 22:58:09.55	44.98	29.64	-21.0	-21.4	17.4	0.00e+00	0	44	0	18891145216	18	16232
2026-01-22 22:58:10.56	45.30	29.87	-21.0	-21.4	17.4	0.00e+00	0	44	0	19000197120	18	16167
2026-01-22 22:58:11.57	45.61	30.10	-20.9	-21.3	17.4	0.00e+00	0	44	0	19117637632	18	16035
2026-01-22 22:58:12.58	45.94	30.33	-20.7	-21.1	17.4	0.00e+00	0	44	0	19235078144	18	15666
2026-01-22 22:58:13.59	46.26	30.56	-20.8	-21.2	17.5	0.00e+00	0	44	0	19344130048	16	17696
2026-01-22 22:58:14.60	46.60	30.79	-20.5	-20.9	17.4	0.00e+00	0	44	0	19461570560	16	17149
2026-01-22 22:58:15.61	46.93	31.03	-20.5	-20.9	17.5	0.00e+00	0	44	0	19570622464	16	17105
2026-01-22 22:58:16.62	47.28	31.26	-51.3	-53.8	6.1	0.00e+00	0	44	104	19662897152	60	59807
2026-01-22 22:58:17.63	47.63	31.50	-50.7	-53.3	6.1	0.00e+00	0	44	104	19662897152	60	56603
2026-01-22 22:58:18.64	47.98	31.73	-50.6	-53.3	6.1	0.00e+00	0	44	104	19662897152	60	56628
2026-01-22 22:58:19.65	48.34	31.97	-51.3	-53.8	6.1	0.00e+00	0	44	104	19662897152	60	60186
2026-01-22 22:58:20.66	48.70	32.21	-51.4	-53.9	6.1	0.00e+00	0	44	104	19662897152	60	60749
2026-01-22 22:58:21.67	49.08	32.45	-51.5	-54.0	6.1	0.00e+00	0	44	104	19662897152	60	61105
2026-01-22 22:58:22.68	49.45	32.69	-51.4	-53.9	6.1	0.00e+00	0	43	104	19662897152	60	60802
2026-01-22 22:58:23.69	49.83	32.94	-51.3	-53.8	6.1	0.00e+00	0	43	104	19662897152	60	60038
2026-01-22 22:58:24.70	50.22	33.18	-49.9	-52.6	6.1	0.00e+00	0	43	104	19662897152	60	52277
2026-01-22 22:58:25.71	50.62	33.42	-50.2	-52.9	6.1	0.00e+00	0	44	104	19662897152	60	53830
2026-01-22 22:58:26.71	51.02	33.67	-50.1	-52.8	6.1	0.00e+00	0	44	104	19662897152	60	53347
2026-01-22 22:58:27.72	51.42	33.91	-51.4	-53.9	6.1	0.00e+00	0	43	104	19662897152	60	60450
2026-01-22 22:58:28.73	51.84	34.16	-51.2	-53.7	6.1	0.00e+00	0	43	104	19662897152	60	59527
2026-01-22 22:58:29.74	52.26	34.41	-51.3	-53.8	6.1	0.00e+00	0	43	104	19662897152	60	59947
2026-01-22 22:58:30.75	52.69	34.66	-51.4	-53.9	6.0	0.00e+00	0	43	104	19662897152	60	60416
2026-01-22 22:58:31.76	53.12	34.90	-51.1	-53.6	6.1	0.00e+00	0	43	104	19662897152	60	58506
2026-01-22 22:58:32.77	53.56	35.15	-49.8	-52.5	6.1	0.00e+00	0	43	104	19662897152	60	51835
2026-01-22 22:58:33.78	54.01	35.40	-50.3	-53.0	6.1	0.00e+00	0	44	104	19662897152	60	54517
2026-01-22 22:58:34.79	54.47	35.65	-49.7	-52.4	6.1	0.00e+00	0	43	104	19662897152	60	51132
2026-01-22 22:58:35.80	54.93	35.90	-50.4	-53.1	6.1	0.00e+00	0	43	104	19662897152	60	55294
2026-01-22 22:58:36.81	55.40	36.16	-51.3	-53.8	6.1	0.00e+00	0	43	104	19662897152	60	60046
2026-01-22 22:58:37.82	55.88	36.41	-51.4	-53.9	6.1	0.00e+00	0	43	104	19662897152	60	60716
2026-01-22 22:58:38.83	56.37	36.66	-51.4	-53.9	6.1	0.00e+00	0	43	104	19662897152	60	60662
2026-01-22 22:58:39.84	56.86	36.91	-51.4	-53.9	6.1	0.00e+00	0	43	104	19662897152	60	60500
2026-01-22 22:58:40.85	57.37	37.16	-51.4	-53.9	6.1	0.00e+00	0	43	104	19662897152	60	60537
2026-01-22 22:58:41.85	57.87	37.41	-51.5	-54.0	6.1	0.00e+00	0	43	104	19662897152	60	61307
2026-01-22 22:58:42.86	58.39	37.66	-51.5	-54.0	6.1	0.00e+00	0	43	104	19662897152	60	61091
2026-01-22 22:58:43.87	58.92	37.91	-51.4	-53.9	6.1	0.00e+00	0	43	104	19662897152	60	60900
2026-01-22 22:58:44.88	59.45	38.16	-51.5	-54.0	6.1	0.00e+00	0	43	104	19662897152	60	61302
2026-01-22 22:58:45.89	60.00	38.41	-51.5	-53.9	6.1	0.00e+00	0	43	104	19662897152	60	61012
2026-01-22 22:58:46.90	60.55	38.66	-51.4	-53.9	6.1	0.00e+00	0	43	104	19662897152	60	60926
2026-01-22 22:58:47.91	61.11	38.91	-51.5	-53.9	6.1	0.00e+00	0	43	104	19662897152	60	60993
2026-01-22 22:58:48.92	61.69	39.15	-51.4	-53.9	6.1	0.00e+00	0	43	104	19662897152	60	60943
2026-01-22 22:58:49.93	62.27	39.40	-51.4	-53.9	6.1	0.00e+00	0	43	104	19662897152	60	60473
2026-01-22 22:58:50.93	62.85	39.64	-51.5	-54.0	6.1	0.00e+00	0	43	104	19662897152	60	61390
2026-01-22 22:58:51.94	63.45	39.88	-51.5	-54.0	6.1	0.00e+00	0	43	104	19662897152	60	61185
2026-01-22 22:58:52.95	64.06	40.12	-51.5	-54.0	6.1	0.00e+00	0	43	104	19662897152	60	61103
2026-01-22 22:58:53.96	64.67	40.37	-51.4	-53.9	6.1	0.00e+00	0	43	104	19662897152	60	60957
2026-01-22 22:58:54.97	65.30	40.60	-51.5	-54.0	6.1	0.00e+00	0	43	104	19662897152	60	61342
2026-01-22 22:58:55.98	65.94	40.84	-51.5	-54.0	6.1	0.00e+00	0	43	104	19662897152	60	61081
2026-01-22 22:58:56.99	66.58	41.07	-51.5	-53.9	6.1	0.00e+00	0	43	104	19662897152	60	61032
2026-01-22 22:58:58.00	67.24	41.31	-51.5	-54.0	6.1	0.00e+00	0	43	104	19662897152	60	61609
2026-01-22 22:58:59.01	67.90	41.54	-51.5	-54.0	6.1	0.00e+00	0	43	104	19662897152	60	61290
2026-01-22 22:59:00.02	68.58	41.76	-51.5	-54.0	6.1	0.00e+00	0	43	104	19662897152	60	61061
2026-01-22 22:59:01.02	69.26	41.99	-51.5	-54.0	6.1	0.00e+00	0	43	104	19662897152	60	61396
2026-01-22 22:59:02.03	69.95	42.21	-51.4	-53.9	6.1	0.00e+00	0	43	104	19662897152	60	60664
2026-01-22 22:59:03.04	70.66	42.43	-51.5	-54.0	6.1	0.00e+00	0	43	104	19662897152	60	61307
2026-01-22 22:59:04.05	71.38	42.64	-51.5	-54.0	6.1	0.00e+00	0	43	104	19662897152	60	61608
2026-01-22 22:59:05.06	72.10	42.85	-51.5	-54.0	6.1	0.00e+00	0	43	104	19662897152	60	61254
2026-01-22 22:59:06.07	72.84	43.06	-51.4	-53.9	6.1	0.00e+00	0	43	104	19662897152	60	60804
2026-01-22 22:59:07.08	73.58	43.27	-51.5	-54.0	6.1	0.00e+00	0	43	104	19662897152	60	61206
2026-01-22 22:59:08.09	74.33	43.47	-51.4	-53.9	6.1	0.00e+00	0	43	104	19662897152	60	60453
2026-01-22 22:59:09.10	75.10	43.66	-51.5	-53.9	6.1	0.00e+00	0	43	104	19662897152	60	60944
2026-01-22 22:59:10.10	75.87	43.85	-51.5	-53.9	6.1	0.00e+00	0	43	104	19662897152	60	60829
2026-01-22 22:59:11.11	76.65	44.04	-51.5	-54.0	6.1	0.00e+00	0	43	104	19662897152	60	61369
2026-01-22 22:59:12.12	77.44	44.22	-51.4	-53.9	6.1	0.00e+00	0	43	104	19662897152	60	60484
2026-01-22 22:59:13.13	78.24	44.40	-51.2	-53.7	6.1	0.00e+00	0	43	104	19662897152	60	59592
2026-01-22 22:59:14.14	79.06	44.57	-51.4	-53.9	6.1	0.00e+00	0	43	104	19662897152	60	60938
2026-01-22 22:59:15.15	79.88	44.74	-51.4	-53.9	6.1	0.00e+00	0	43	104	19662897152	60	60625
2026-01-22 22:59:16.16	80.71	44.90	-51.5	-53.9	6.1	0.00e+00	0	43	104	19662897152	60	60986
2026-01-22 22:59:17.17	81.54	45.06	-51.5	-54.0	6.0	0.00e+00	0	43	104	19662897152	60	61426
2026-01-22 22:59:18.18	82.39	45.21	-51.5	-54.0	6.1	0.00e+00	0	43	104	19662897152	60	61267
2026-01-22 22:59:19.19	83.24	45.35	-51.3	-53.8	6.1	0.00e+00	0	43	104	19662897152	60	60041
2026-01-22 22:59:20.20	84.11	45.49	-51.3	-53.8	6.1	0.00e+00	0	43	104	19662897152	60	59926
2026-01-22 22:59:21.21	84.98	45.62	-51.4	-53.9	6.1	0.00e+00	0	43	104	19662897152	60	60684
2026-01-22 22:59:22.22	85.85	45.75	-51.5	-53.9	6.1	0.00e+00	0	43	104	19662897152	60	61020
2026-01-22 22:59:23.23	86.74	45.87	-51.5	-54.0	6.1	0.00e+00	0	43	104	19662897152	60	61103
2026-01-22 22:59:24.24	87.63	45.98	-51.5	-54.0	6.1	0.00e+00	0	43	104	19662897152	60	61211
2026-01-22 22:59:25.25	88.53	46.08	-51.5	-54.0	6.1	0.00e+00	0	43	104	19662897152	60	61179
2026-01-22 22:59:26.26	89.43	46.18	-51.4	-53.9	6.1	0.00e+00	0	43	104	19662897152	60	60929
2026-01-22 22:59:27.27	90.34	46.27	-51.4	-53.9	6.1	0.00e+00	0	43	104	19662897152	60	60406
2026-01-22 22:59:28.28	91.25	46.35	-51.4	-53.9	6.1	0.00e+00	0	43	104	19662897152	60	60782
2026-01-22 22:59:29.29	92.17	46.43	-51.5	-53.9	6.1	0.00e+00	0	43	104	19662897152	60	60939
2026-01-22 22:59:30.30	93.09	46.49	-51.5	-54.0	6.1	0.00e+00	0	43	104	19662897152	60	61341
2026-01-22 22:59:31.31	94.02	46.55	-51.5	-54.0	6.1	0.00e+00	0	43	104	19662897152	60	61400
2026-01-22 22:59:32.32	94.95	46.60	-51.5	-54.0	6.1	0.00e+00	0	43	104	19662897152	60	61283
2026-01-22 22:59:33.33	95.88	46.65	-51.5	-54.0	6.1	0.00e+00	0	43	104	19662897152	60	61392
2026-01-22 22:59:34.33	96.81	46.68	-51.5	-54.0	6.1	0.00e+00	0	43	104	19662897152	60	61135
2026-01-22 22:59:35.35	97.76	46.71	-51.2	-53.8	6.1	0.00e+00	0	43	104	19662897152	60	59688
2026-01-22 22:59:36.36	98.70	46.73	-51.2	-53.8	6.1	0.00e+00	0	43	104	19662897152	60	60068
2026-01-22 22:59:37.37	99.64	46.74	-51.5	-53.9	6.1	0.00e+00	0	43	104	19662897152	60	60818
2026-01-22 22:59:38.38	100.58	46.75	-51.5	-54.0	6.1	0.00e+00	0	43	104	19662897152	60	61111
2026-01-22 22:59:39.39	101.52	46.74	-51.3	-53.9	6.1	0.00e+00	0	43	104	19662897152	60	60417
2026-01-22 22:59:40.39	102.45	46.73	-51.3	-53.8	6.1	0.00e+00	0	43	104	19662897152	60	60050
2026-01-22 22:59:41.40	103.39	46.71	-51.4	-53.9	6.1	0.00e+00	0	43	104	19662897152	60	60567
2026-01-22 22:59:42.41	104.33	46.68	-51.5	-54.0	6.1	0.00e+00	0	44	104	19662897152	60	61242
2026-01-22 22:59:43.42	105.26	46.65	-51.5	-54.0	6.1	0.00e+00	0	43	104	19662897152	60	61140
2026-01-22 22:59:44.43	106.20	46.60	-51.5	-54.0	6.1	0.00e+00	0	43	104	19662897152	60	61086
2026-01-22 22:59:45.44	107.13	46.55	-51.3	-53.9	6.1	0.00e+00	0	43	104	19662897152	60	60460
2026-01-22 22:59:46.45	108.05	46.49	-51.5	-53.9	6.0	0.00e+00	0	43	104	19662897152	60	60853
2026-01-22 22:59:47.47	108.99	46.42	-51.3	-53.7	6.1	0.00e+00	0	43	104	19662897152	60	59634
2026-01-22 22:59:48.47	109.90	46.34	-51.3	-53.8	6.1	0.00e+00	0	43	104	19662897152	60	60319
2026-01-22 22:59:49.48	110.81	46.26	-51.5	-54.0	6.1	0.00e+00	0	43	104	19662897152	60	61316
2026-01-22 22:59:50.49	111.72	46.17	-51.4	-54.0	6.1	0.00e+00	0	43	104	19662897152	60	61055
2026-01-22 22:59:51.50	112.62	46.07	-51.5	-54.0	6.1	0.00e+00	0	43	104	19662897152	60	61395
2026-01-22 22:59:52.51	113.52	45.97	-51.4	-53.9	6.1	0.00e+00	0	43	104	19662897152	60	60462
2026-01-22 22:59:53.52	114.41	45.85	-51.4	-53.8	6.1	0.00e+00	0	43	104	19662897152	60	60245
2026-01-22 22:59:54.52	115.29	45.74	-51.5	-54.0	6.1	0.00e+00	0	43	104	19662897152	60	61175
2026-01-22 22:59:55.54	116.17	45.61	-51.5	-53.9	6.1	0.00e+00	0	44	104	19662897152	60	60924
2026-01-22 22:59:56.55	117.04	45.48	-51.5	-54.0	6.1	0.00e+00	0	43	104	19662897152	60	61083
2026-01-22 22:59:57.55	117.90	45.34	-51.5	-54.0	6.1	0.00e+00	0	43	104	19662897152	60	61232
2026-01-22 22:59:58.56	118.75	45.20	-51.5	-54.0	6.1	0.00e+00	0	43	104	19662897152	60	61188
2026-01-22 22:59:59.58	119.61	45.04	-51.5	-54.0	6.1	0.00e+00	0	43	104	19662897152	60	61439
2026-01-22 23:00:00.58	120.44	44.89	-51.5	-54.0	6.1	0.00e+00	0	44	104	19662897152	60	61326
2026-01-22 23:00:01.59	121.27	44.72	-51.5	-54.0	6.1	0.00e+00	0	43	104	19662897152	60	61067
2026-01-22 23:00:02.61	122.10	44.55	-51.5	-54.0	6.1	0.00e+00	0	43	104	19662897152	60	61260
2026-01-22 23:00:03.62	122.91	44.38	-51.5	-54.0	6.1	0.00e+00	0	44	104	19662897152	60	61155
2026-01-22 23:00:04.63	123.71	44.20	-51.4	-53.9	6.1	0.00e+00	0	43	104	19662897152	60	60752
2026-01-22 23:00:05.64	124.51	44.02	-51.5	-53.9	6.1	0.00e+00	0	43	104	19662897152	60	60931
2026-01-22 23:00:06.65	125.29	43.83	-51.5	-54.0	6.1	0.00e+00	0	43	104	19662897152	60	61232
2026-01-22 23:00:07.66	126.07	43.64	-51.5	-54.0	6.1	0.00e+00	0	43	104	19662897152	60	61228
2026-01-22 23:00:08.67	126.83	43.44	-51.5	-54.0	6.1	0.00e+00	0	43	104	19662897152	60	61334
2026-01-22 23:00:09.68	127.59	43.24	-51.4	-53.9	6.1	0.00e+00	0	43	104	19662897152	60	60697
2026-01-22 23:00:10.69	128.33	43.03	-51.5	-54.0	6.0	0.00e+00	0	43	104	19662897152	60	61348
2026-01-22 23:00:11.69	129.06	42.83	-51.5	-54.0	6.1	0.00e+00	0	43	104	19662897152	60	61605
2026-01-22 23:00:12.70	129.79	42.61	-51.5	-53.9	6.1	0.00e+00	0	43	104	19662897152	60	60919
2026-01-22 23:00:13.71	130.50	42.40	-51.5	-54.0	6.1	0.00e+00	0	43	104	19662897152	60	61258
2026-01-22 23:00:14.72	131.21	42.18	-51.4	-53.9	6.1	0.00e+00	0	43	104	19662897152	60	60419
2026-01-22 23:00:15.73	131.90	41.95	-51.4	-53.9	6.1	0.00e+00	0	43	104	19662897152	60	60649
2026-01-22 23:00:16.74	132.59	41.73	-51.5	-53.9	6.1	0.00e+00	0	43	104	19662897152	60	60924
2026-01-22 23:00:17.75	133.27	41.50	-51.5	-53.9	6.0	0.00e+00	0	43	104	19662897152	60	60993
2026-01-22 23:00:18.76	133.93	41.27	-51.5	-53.9	6.1	0.00e+00	0	43	104	19662897152	60	60901
2026-01-22 23:00:19.77	134.59	41.03	-51.5	-54.0	6.1	0.00e+00	0	43	104	19662897152	60	61183
2026-01-22 23:00:20.78	135.24	40.80	-51.5	-53.9	6.1	0.00e+00	0	43	104	19662897152	60	60665
2026-01-22 23:00:21.79	135.87	40.56	-51.5	-54.0	6.1	0.00e+00	0	43	104	19662897152	60	61234
2026-01-22 23:00:22.79	136.50	40.32	-51.5	-54.0	6.1	0.00e+00	0	43	104	19662897152	60	61101
2026-01-22 23:00:23.80	137.11	40.08	-51.5	-54.0	6.1	0.00e+00	0	43	104	19662897152	60	61182
2026-01-22 23:00:24.81	137.72	39.84	-51.5	-53.9	6.1	0.00e+00	0	43	104	19662897152	60	60811
2026-01-22 23:00:25.82	138.32	39.60	-51.4	-53.9	6.1	0.00e+00	0	43	104	19662897152	60	60874
2026-01-22 23:00:26.83	138.91	39.35	-51.5	-53.9	6.1	0.00e+00	0	43	104	19662897152	60	60786
2026-01-22 23:00:27.84	139.49	39.10	-51.4	-53.8	6.1	0.00e+00	0	43	104	19662897152	60	60156
2026-01-22 23:00:28.85	140.06	38.85	-51.5	-54.0	6.1	0.00e+00	0	43	104	19662897152	60	61144
2026-01-22 23:00:29.86	140.63	38.61	-51.5	-53.9	6.1	0.00e+00	0	43	104	19662897152	60	60867
2026-01-22 23:00:30.87	141.18	38.36	-51.5	-54.0	6.1	0.00e+00	0	43	104	19662897152	60	61055
2026-01-22 23:00:31.88	141.73	38.11	-51.5	-54.0	6.1	0.00e+00	0	43	104	19662897152	60	61067
2026-01-22 23:00:32.89	142.26	37.85	-51.5	-54.0	6.1	0.00e+00	0	43	104	19662897152	60	61036
2026-01-22 23:00:33.90	142.79	37.60	-51.5	-54.0	6.1	0.00e+00	0	44	104	19662897152	60	61033
2026-01-22 23:00:34.90	143.30	37.35	-51.4	-53.9	6.1	0.00e+00	0	43	104	19662897152	60	60641
2026-01-22 23:00:35.91	143.82	37.10	-51.5	-53.9	6.1	0.00e+00	0	43	104	19662897152	60	60541
2026-01-22 23:00:36.93	144.32	36.85	-51.4	-53.9	6.1	0.00e+00	0	43	104	19662897152	60	60693
2026-01-22 23:00:37.94	144.82	36.59	-51.4	-53.9	6.1	0.00e+00	0	43	104	19662897152	60	61001
2026-01-22 23:00:38.94	145.30	36.34	-51.4	-53.9	6.1	0.00e+00	0	43	104	19662897152	60	60969
2026-01-22 23:00:39.95	145.78	36.09	-51.4	-53.9	6.1	0.00e+00	0	43	104	19662897152	60	60687
2026-01-22 23:00:40.96	146.25	35.84	-51.4	-53.9	6.1	0.00e+00	0	43	104	19662897152	60	60714
2026-01-22 23:00:41.97	146.71	35.59	-51.5	-54.0	6.1	0.00e+00	0	43	104	19662897152	60	61080
2026-01-22 23:00:42.98	147.17	35.34	-51.4	-53.9	6.1	0.00e+00	0	43	104	19662897152	60	60583
2026-01-22 23:00:43.99	147.62	35.08	-51.4	-53.9	6.1	0.00e+00	0	43	104	19662897152	60	60727
2026-01-22 23:00:45.00	148.06	34.83	-51.4	-53.9	6.1	0.00e+00	0	44	104	19662897152	60	60475
2026-01-22 23:00:46.01	148.50	34.58	-51.4	-53.9	6.1	0.00e+00	0	44	104	19662897152	60	60512
2026-01-22 23:00:47.02	148.93	34.33	-51.4	-53.9	6.1	0.00e+00	0	43	104	19662897152	60	60382
2026-01-22 23:00:48.02	149.34	34.09	-51.4	-53.9	6.1	0.00e+00	0	43	104	19662897152	60	60579
2026-01-22 23:00:49.03	149.76	33.84	-51.4	-53.9	6.1	0.00e+00	0	44	104	19662897152	60	60565
2026-01-22 23:00:50.04	150.17	33.59	-51.4	-53.9	6.1	0.00e+00	0	43	104	19662897152	60	60516
2026-01-22 23:00:51.05	150.57	33.35	-51.4	-53.9	6.1	0.00e+00	0	43	104	19662897152	60	60942
2026-01-22 23:00:52.07	150.97	33.10	-51.4	-53.9	6.1	0.00e+00	0	44	104	19662897152	60	60519
2026-01-22 23:00:53.07	151.35	32.86	-51.4	-53.8	6.1	0.00e+00	0	44	104	19662897152	60	60309
2026-01-22 23:00:54.08	151.73	32.61	-51.4	-53.8	6.1	0.00e+00	0	43	104	19662897152	60	60318
2026-01-22 23:00:55.09	152.11	32.37	-51.4	-53.9	6.1	0.00e+00	0	43	104	19662897152	60	60427
2026-01-22 23:00:56.10	152.48	32.13	-51.4	-53.9	6.1	0.00e+00	0	44	104	19662897152	60	60404
2026-01-22 23:00:57.11	152.85	31.89	-51.4	-53.9	6.1	0.00e+00	0	44	104	19662897152	60	60597
2026-01-22 23:00:58.12	153.21	31.65	-51.4	-53.8	6.1	0.00e+00	0	43	104	19662897152	60	60282
2026-01-22 23:00:59.13	153.56	31.41	-51.4	-53.9	6.1	0.00e+00	0	44	104	19662897152	60	60587
2026-01-22 23:01:00.14	153.91	31.17	-51.4	-53.9	6.1	0.00e+00	0	43	104	19662897152	60	60543
2026-01-22 23:01:01.15	154.25	30.94	-51.4	-53.8	6.1	0.00e+00	0	44	104	19662897152	60	60318
2026-01-22 23:01:02.16	154.59	30.70	-51.4	-53.9	6.1	0.00e+00	0	43	104	19662897152	60	60352
2026-01-22 23:01:03.17	154.92	30.47	-51.3	-53.8	6.1	0.00e+00	0	43	104	19662897152	60	60087
2026-01-22 23:01:04.18	155.25	30.24	-51.4	-53.9	6.1	0.00e+00	0	43	104	19662897152	60	60589
2026-01-22 23:01:05.19	155.57	30.00	-51.3	-53.8	6.1	0.00e+00	0	43	104	19662897152	60	59938
2026-01-22 23:01:06.20	155.89	29.78	-51.4	-53.9	6.1	0.00e+00	0	43	104	19662897152	60	60487
2026-01-22 23:01:07.20	156.20	29.55	-51.4	-53.9	6.1	0.00e+00	0	43	104	19662897152	60	60359
2026-01-22 23:01:08.21	156.51	29.32	-51.4	-53.9	6.1	0.00e+00	0	43	104	19662897152	60	60380
2026-01-22 23:01:09.22	156.82	29.10	-51.3	-53.8	6.0	0.00e+00	0	43	104	19662897152	60	59960
2026-01-22 23:01:10.23	157.11	28.87	-51.4	-53.9	6.1	0.00e+00	0	43	104	19662897152	60	60461
2026-01-22 23:01:11.24	157.41	28.65	-51.4	-53.9	6.1	0.00e+00	0	43	104	19662897152	60	60357
2026-01-22 23:01:12.25	157.70	28.43	-51.3	-53.8	6.1	0.00e+00	0	43	104	19662897152	60	60213
2026-01-22 23:01:13.26	157.99	28.21	-51.3	-53.8	6.1	0.00e+00	0	43	104	19662897152	60	60108
2026-01-22 23:01:14.27	158.27	27.99	-51.4	-53.8	6.1	0.00e+00	0	43	104	19662897152	60	60221
2026-01-22 23:01:15.28	158.55	27.77	-51.4	-53.9	6.1	0.00e+00	0	43	104	19662897152	60	60487
2026-01-22 23:01:16.29	158.82	27.55	-51.4	-53.8	6.1	0.00e+00	0	43	104	19662897152	60	60025
2026-01-22 23:01:17.30	159.09	27.34	-51.4	-53.8	6.1	0.00e+00	0	43	104	19662897152	60	60016
2026-01-22 23:01:18.31	159.36	27.12	-51.3	-53.8	6.1	0.00e+00	0	43	104	19662897152	60	60315
2026-01-22 23:01:19.32	159.62	26.91	-51.3	-53.8	6.1	0.00e+00	0	43	104	19662897152	60	60147
2026-01-22 23:01:20.33	159.88	26.70	-51.4	-53.8	6.1	0.00e+00	0	43	104	19662897152	60	60068
2026-01-22 23:01:21.34	160.13	26.49	-51.3	-53.8	6.1	0.00e+00	0	43	104	19662897152	60	59698
2026-01-22 23:01:22.35	160.39	26.28	-51.4	-53.8	6.1	0.00e+00	0	43	104	19662897152	60	60151
2026-01-22 23:01:23.36	160.63	26.08	-51.3	-53.8	6.1	0.00e+00	0	43	104	19662897152	60	59995
2026-01-22 23:01:24.37	160.88	25.87	-51.3	-53.8	6.1	0.00e+00	0	43	104	19662897152	60	60140
2026-01-22 23:01:25.38	161.12	25.67	-51.3	-53.8	6.1	0.00e+00	0	43	104	19662897152	60	60094
2026-01-22 23:01:26.39	161.36	25.47	-51.3	-53.8	6.1	0.00e+00	0	43	104	19662897152	60	59812
2026-01-22 23:01:27.40	161.59	25.27	-51.3	-53.8	6.1	0.00e+00	0	43	104	19662897152	60	59654
2026-01-22 23:01:28.40	161.82	25.07	-51.3	-53.8	6.1	0.00e+00	0	43	104	19662897152	60	59847
2026-01-22 23:01:29.41	162.05	24.87	-51.3	-53.7	6.1	0.00e+00	0	43	104	19662897152	60	59340
2026-01-22 23:01:30.42	162.28	24.67	-51.3	-53.8	6.1	0.00e+00	0	43	104	19662897152	60	60006
2026-01-22 23:01:31.43	162.50	24.48	-51.3	-53.7	6.1	0.00e+00	0	43	104	19662897152	60	59558
2026-01-22 23:01:32.44	162.72	24.28	-51.3	-53.8	6.1	0.00e+00	0	43	104	19662897152	60	60044
2026-01-22 23:01:33.45	162.93	24.09	-51.3	-53.7	6.1	0.00e+00	0	43	104	19662897152	60	59643
2026-01-22 23:01:34.46	163.15	23.90	-51.2	-53.7	6.1	0.00e+00	0	43	104	19662897152	60	59040
2026-01-22 23:01:35.46	163.36	23.71	-51.2	-53.7	6.1	0.00e+00	0	43	104	19662897152	60	59528
2026-01-22 23:01:36.47	163.56	23.52	-51.3	-53.8	6.1	0.00e+00	0	43	104	19662897152	60	59767
2026-01-22 23:01:37.48	163.77	23.34	-51.2	-53.7	6.1	0.00e+00	0	44	104	19662897152	60	59041
2026-01-22 23:01:38.49	163.97	23.15	-51.3	-53.8	6.1	0.00e+00	0	44	104	19662897152	60	59886
2026-01-22 23:01:39.50	164.17	22.96	-51.3	-53.7	6.1	0.00e+00	0	43	104	19662897152	60	59563
2026-01-22 23:01:40.51	164.37	22.78	-51.2	-53.7	6.1	0.00e+00	0	43	104	19662897152	60	59274
2026-01-22 23:01:41.52	164.56	22.60	-51.3	-53.7	6.1	0.00e+00	0	44	104	19662897152	60	59366
2026-01-22 23:01:42.52	164.75	22.42	-51.2	-53.7	6.1	0.00e+00	0	44	104	19662897152	60	59240
2026-01-22 23:01:43.53	164.94	22.24	-51.2	-53.7	6.1	0.00e+00	0	44	104	19662897152	60	59115
2026-01-22 23:01:44.54	165.13	22.06	-51.3	-53.7	6.1	0.00e+00	0	43	104	19662897152	60	59566
2026-01-22 23:01:45.55	165.32	21.88	-51.2	-53.7	6.1	0.00e+00	0	43	104	19662897152	60	59040
2026-01-22 23:01:46.56	165.50	21.71	-51.2	-53.7	6.1	0.00e+00	0	43	104	19662897152	60	59385
2026-01-22 23:01:47.57	165.68	21.53	-51.2	-53.7	6.1	0.00e+00	0	44	104	19662897152	60	59523
2026-01-22 23:01:48.58	165.86	21.36	-51.2	-53.7	6.1	0.00e+00	0	44	104	19662897152	60	59030
2026-01-22 23:01:49.59	166.04	21.19	-51.2	-53.7	6.1	0.00e+00	0	44	104	19662897152	60	59216
2026-01-22 23:01:50.60	166.21	21.02	-51.2	-53.7	6.1	0.00e+00	0	44	104	19662897152	60	59456
2026-01-22 23:01:51.61	166.38	20.85	-51.2	-53.7	6.1	0.00e+00	0	44	104	19662897152	60	59204
2026-01-22 23:01:52.62	166.55	20.68	-51.2	-53.7	6.1	0.00e+00	0	43	104	19662897152	60	59313
2026-01-22 23:01:53.63	166.72	20.51	-51.2	-53.7	6.1	0.00e+00	0	44	104	19662897152	60	59055
2026-01-22 23:01:54.64	166.89	20.34	-51.2	-53.7	6.1	0.00e+00	0	44	104	19662897152	60	59181
2026-01-22 23:01:55.64	167.05	20.18	-51.2	-53.7	6.1	0.00e+00	0	44	104	19662897152	60	58998
2026-01-22 23:01:56.66	167.21	20.02	-51.2	-53.7	6.1	0.00e+00	0	44	104	19662897152	60	59001
2026-01-22 23:01:57.67	167.37	19.85	-51.2	-53.7	6.1	0.00e+00	0	43	104	19662897152	60	59139
2026-01-22 23:01:58.67	167.53	19.69	-51.2	-53.7	6.1	0.00e+00	0	44	104	19662897152	60	59207
2026-01-22 23:01:59.68	167.69	19.53	-51.2	-53.6	6.1	0.00e+00	0	43	104	19662897152	60	58933
2026-01-22 23:02:00.69	167.84	19.37	-51.1	-53.6	6.1	0.00e+00	0	43	104	19662897152	60	58508
2026-01-22 23:02:01.70	167.99	19.21	-51.2	-53.7	6.1	0.00e+00	0	43	104	19662897152	60	58993
2026-01-22 23:02:02.72	168.15	19.06	-51.2	-53.6	6.1	0.00e+00	0	43	104	19662897152	60	58847
2026-01-22 23:02:03.72	168.29	18.90	-51.2	-53.7	6.1	0.00e+00	0	44	104	19662897152	60	59124
2026-01-22 23:02:04.73	168.44	18.75	-51.2	-53.7	6.1	0.00e+00	0	43	104	19662897152	60	58977
2026-01-22 23:02:05.74	168.59	18.59	-51.1	-53.6	6.1	0.00e+00	0	44	104	19662897152	60	58598
2026-01-22 23:02:06.75	168.73	18.44	-51.1	-53.6	6.1	0.00e+00	0	43	104	19662897152	60	58700
2026-01-22 23:02:07.76	168.88	18.29	-51.1	-53.6	6.1	0.00e+00	0	44	104	19662897152	60	58768
2026-01-22 23:02:08.77	169.02	18.14	-51.1	-53.7	6.1	0.00e+00	0	43	104	19662897152	60	59075
2026-01-22 23:02:09.78	169.16	17.99	-51.1	-53.6	6.1	0.00e+00	0	43	104	19662897152	60	58527
2026-01-22 23:02:10.79	169.29	17.84	-51.2	-53.7	6.1	0.00e+00	0	43	104	19662897152	60	58977
2026-01-22 23:02:11.80	169.43	17.69	-51.1	-53.6	6.1	0.00e+00	0	43	104	19662897152	60	58369
2026-01-22 23:02:12.81	169.57	17.54	-51.1	-53.6	6.1	0.00e+00	0	44	104	19662897152	60	58737
2026-01-22 23:02:13.82	169.70	17.40	-51.1	-53.6	6.1	0.00e+00	0	43	104	19662897152	60	58658
2026-01-22 23:02:14.82	169.83	17.25	-51.1	-53.6	6.1	0.00e+00	0	43	104	19662897152	60	58673
2026-01-22 23:02:15.83	169.96	17.11	-51.1	-53.6	6.1	0.00e+00	0	44	104	19662897152	60	58907
2026-01-22 23:02:16.84	170.09	16.97	-51.1	-53.5	6.1	0.00e+00	0	44	104	19662897152	60	58180
2026-01-22 23:02:17.85	170.22	16.82	-51.1	-53.6	6.1	0.00e+00	0	43	104	19662897152	60	58707
2026-01-22 23:02:18.86	170.35	16.68	-51.1	-53.6	6.1	0.00e+00	0	44	104	19662897152	60	58593
2026-01-22 23:02:19.87	170.47	16.54	-51.1	-53.6	6.1	0.00e+00	0	44	104	19662897152	60	58603
2026-01-22 23:02:20.88	170.60	16.40	-51.1	-53.6	6.1	0.00e+00	0	44	104	19662897152	60	58444
2026-01-22 23:02:21.89	170.72	16.26	-51.1	-53.6	6.1	0.00e+00	0	44	104	19662897152	60	58683
2026-01-22 23:02:22.91	170.84	16.13	-51.1	-53.6	6.1	0.00e+00	0	44	104	19662897152	60	58326
2026-01-22 23:02:23.91	170.96	15.99	-51.1	-53.6	6.1	0.00e+00	0	44	104	19662897152	60	58290
2026-01-22 23:02:24.92	171.08	15.85	-51.1	-53.5	6.1	0.00e+00	0	44	104	19662897152	60	58128
2026-01-22 23:02:25.93	171.20	15.72	-51.1	-53.6	6.1	0.00e+00	0	44	104	19662897152	60	58472
2026-01-22 23:02:26.94	171.31	15.59	-51.1	-53.5	6.1	0.00e+00	0	44	104	19662897152	60	58224
2026-01-22 23:02:27.95	171.43	15.45	-51.1	-53.6	6.1	0.00e+00	0	44	104	19662897152	60	58587
2026-01-22 23:02:28.96	171.54	15.32	-51.1	-53.5	6.1	0.00e+00	0	44	104	19662897152	60	57973
2026-01-22 23:02:29.97	171.66	15.19	-51.1	-53.6	6.1	0.00e+00	0	44	104	19662897152	60	58421
2026-01-22 23:02:30.98	171.77	15.06	-51.0	-53.5	6.1	0.00e+00	0	44	104	19662897152	60	57682
2026-01-22 23:02:31.99	171.88	14.93	-51.1	-53.6	6.1	0.00e+00	0	44	104	19662897152	60	58355
2026-01-22 23:02:33.00	171.99	14.80	-51.0	-53.5	6.1	0.00e+00	0	44	104	19662897152	60	57945
2026-01-22 23:02:34.01	172.10	14.67	-51.1	-53.5	6.1	0.00e+00	0	44	104	19662897152	60	58121
2026-01-22 23:02:35.02	172.21	14.54	-50.9	-53.4	6.1	0.00e+00	0	44	104	19662897152	60	57572
2026-01-22 23:02:36.03	172.31	14.42	-51.0	-53.5	6.1	0.00e+00	0	44	104	19662897152	60	57991
2026-01-22 23:02:37.04	172.42	14.29	-51.0	-53.4	6.1	0.00e+00	0	44	104	19662897152	60	57553
2026-01-22 23:02:38.05	172.52	14.16	-51.0	-53.5	6.1	0.00e+00	0	44	104	19662897152	60	57849
2026-01-22 23:02:39.06	172.63	14.04	-51.0	-53.4	6.1	0.00e+00	0	44	104	19662897152	60	57469
2026-01-22 23:02:40.07	172.73	13.92	-51.0	-53.5	6.1	0.00e+00	0	44	104	19662897152	60	57915
2026-01-22 23:02:41.08	172.83	13.79	-51.0	-53.4	6.1	0.00e+00	0	44	104	19662897152	60	57609
2026-01-22 23:02:42.08	172.93	13.67	-50.9	-53.4	6.1	0.00e+00	0	44	104	19662897152	60	57539
2026-01-22 23:02:43.09	173.03	13.55	-51.0	-53.5	6.1	0.00e+00	0	44	104	19662897152	60	57622
2026-01-22 23:02:44.10	173.13	13.43	-50.9	-53.4	6.1	0.00e+00	0	44	104	19662897152	60	57127
2026-01-22 23:02:45.11	173.23	13.31	-50.9	-53.4	6.1	0.00e+00	0	44	104	19662897152	60	57368
2026-01-22 23:02:46.12	173.33	13.19	-51.0	-53.5	6.1	0.00e+00	0	44	104	19662897152	60	57815
2026-01-22 23:02:47.13	173.42	13.07	-51.0	-53.4	6.1	0.00e+00	0	44	104	19662897152	60	57534
2026-01-22 23:02:48.14	173.52	12.95	-50.9	-53.4	6.1	0.00e+00	0	44	104	19662897152	60	57266
2026-01-22 23:02:49.15	173.61	12.84	-50.9	-53.4	6.1	0.00e+00	0	44	104	19662897152	60	57094
2026-01-22 23:02:50.16	173.71	12.72	-51.0	-53.5	6.1	0.00e+00	0	44	104	19662897152	60	57740
2026-01-22 23:02:51.17	173.80	12.60	-51.0	-53.4	6.1	0.00e+00	0	44	104	19662897152	60	57402
2026-01-22 23:02:52.18	173.89	12.49	-50.9	-53.4	6.1	0.00e+00	0	44	104	19662897152	60	57029
2026-01-22 23:02:53.19	173.98	12.37	-50.9	-53.4	6.1	0.00e+00	0	44	104	19662897152	60	57284
2026-01-22 23:02:54.20	174.07	12.26	-50.9	-53.4	6.1	0.00e+00	0	44	104	19662897152	60	57595
2026-01-22 23:02:55.21	174.16	12.15	-50.9	-53.4	6.1	0.00e+00	0	44	104	19662897152	60	57075
2026-01-22 23:02:56.21	174.25	12.03	-51.0	-53.4	6.1	0.00e+00	0	44	104	19662897152	60	57450
2026-01-22 23:02:57.23	174.34	11.92	-50.9	-53.4	6.1	0.00e+00	0	44	104	19662897152	60	57229
2026-01-22 23:02:58.23	174.42	11.81	-50.8	-53.3	6.1	0.00e+00	0	44	104	19662897152	60	56861
2026-01-22 23:02:59.24	174.51	11.70	-50.9	-53.4	6.1	0.00e+00	0	44	104	19662897152	60	57163
2026-01-22 23:03:00.25	174.60	11.59	-50.9	-53.4	6.1	0.00e+00	0	44	104	19662897152	60	56970
2026-01-22 23:03:01.26	174.68	11.48	-50.9	-53.4	6.1	0.00e+00	0	44	104	19662897152	60	57550
2026-01-22 23:03:02.27	174.77	11.37	-50.9	-53.4	6.1	0.00e+00	0	44	104	19662897152	60	57029
2026-01-22 23:03:03.28	174.85	11.26	-50.8	-53.3	6.1	0.00e+00	0	44	104	19662897152	60	56819
2026-01-22 23:03:04.29	174.93	11.15	-50.9	-53.4	6.1	0.00e+00	0	44	104	19662897152	60	57171
2026-01-22 23:03:05.30	175.01	11.05	-50.8	-53.3	6.1	0.00e+00	0	44	104	19662897152	60	56762
2026-01-22 23:03:06.31	175.10	10.94	-50.9	-53.3	6.1	0.00e+00	0	44	104	19662897152	60	56958
2026-01-22 23:03:07.32	175.18	10.83	-50.8	-53.3	6.1	0.00e+00	0	44	104	19662897152	60	56426
2026-01-22 23:03:08.33	175.26	10.73	-50.8	-53.3	6.1	0.00e+00	0	44	104	19662897152	60	56755
2026-01-22 23:03:09.34	175.34	10.62	-50.8	-53.3	6.1	0.00e+00	0	44	104	19662897152	60	56882
2026-01-22 23:03:10.35	175.42	10.52	-50.9	-53.3	6.1	0.00e+00	0	44	104	19662897152	60	56854
2026-01-22 23:03:11.35	175.49	10.42	-50.8	-53.2	6.1	0.00e+00	0	44	104	19662897152	60	56107
2026-01-22 23:03:12.37	175.57	10.31	-50.9	-53.3	6.1	0.00e+00	0	44	104	19662897152	60	56841
2026-01-22 23:03:13.38	175.65	10.21	-50.8	-53.3	6.1	0.00e+00	0	44	104	19662897152	60	56627
2026-01-22 23:03:14.39	175.72	10.11	-50.7	-53.2	6.1	0.00e+00	0	44	104	19662897152	60	55989
2026-01-22 23:03:15.39	175.80	10.01	-50.7	-53.2	6.1	0.00e+00	0	44	104	19662897152	60	56173
2026-01-22 23:03:16.40	175.87	9.90	-50.8	-53.3	6.0	0.00e+00	0	44	104	19662897152	60	56387
2026-01-22 23:03:17.42	175.95	9.80	-50.7	-53.2	6.1	0.00e+00	0	44	104	19662897152	60	55789
2026-01-22 23:03:18.43	176.02	9.70	-50.7	-53.2	6.1	0.00e+00	0	44	104	19662897152	60	55693
2026-01-22 23:03:19.44	176.10	9.60	-50.7	-53.2	6.1	0.00e+00	0	44	104	19662897152	60	55681
2026-01-22 23:03:20.45	176.17	9.50	-50.8	-53.2	6.1	0.00e+00	0	44	104	19662897152	60	56047
2026-01-22 23:03:21.46	176.24	9.40	-50.7	-53.2	6.1	0.00e+00	0	44	104	19662897152	60	55834
2026-01-22 23:03:22.47	176.31	9.31	-50.6	-53.1	6.1	0.00e+00	0	44	104	19662897152	60	55425
2026-01-22 23:03:23.48	176.38	9.21	-50.7	-53.2	6.1	0.00e+00	0	44	104	19662897152	60	56097
2026-01-22 23:03:24.49	176.45	9.11	-50.6	-53.2	6.1	0.00e+00	0	44	104	19662897152	60	55746
2026-01-22 23:03:25.50	176.52	9.01	-50.6	-53.1	6.1	0.00e+00	0	44	104	19662897152	60	55640
2026-01-22 23:03:26.50	176.59	8.92	-50.7	-53.3	6.1	0.00e+00	0	44	104	19662897152	60	56355
2026-01-22 23:03:27.52	176.66	8.82	-50.7	-53.2	6.1	0.00e+00	0	44	104	19662897152	60	56102
2026-01-22 23:03:28.52	176.73	8.73	-50.7	-53.2	6.1	0.00e+00	0	44	104	19662897152	60	55789
2026-01-22 23:03:29.53	176.80	8.63	-50.7	-53.2	6.1	0.00e+00	0	44	104	19662897152	60	56141
2026-01-22 23:03:30.54	176.86	8.54	-50.7	-53.2	6.1	0.00e+00	0	44	104	19662897152	60	56075
2026-01-22 23:03:31.55	176.93	8.44	-50.7	-53.2	6.1	0.00e+00	0	44	104	19662897152	60	55825
2026-01-22 23:03:32.56	177.00	8.35	-50.7	-53.2	6.1	0.00e+00	0	44	104	19662897152	60	55996
2026-01-22 23:03:33.57	177.06	8.26	-50.7	-53.2	6.1	0.00e+00	0	44	104	19662897152	60	55706
2026-01-22 23:03:34.57	177.13	8.16	-50.7	-53.2	6.1	0.00e+00	0	44	104	19662897152	60	55832
2026-01-22 23:03:35.58	177.19	8.07	-50.6	-53.1	6.1	0.00e+00	0	44	104	19662897152	60	55604
2026-01-22 23:03:36.59	177.26	7.98	-50.7	-53.1	6.1	0.00e+00	0	44	104	19662897152	60	55576
2026-01-22 23:03:37.60	177.32	7.89	-50.7	-53.2	6.1	0.00e+00	0	44	104	19662897152	60	55839
2026-01-22 23:03:38.61	177.38	7.80	-50.6	-53.1	6.1	0.00e+00	0	44	104	19662897152	60	55620
2026-01-22 23:03:39.62	177.45	7.71	-50.6	-53.1	6.1	0.00e+00	0	44	104	19662897152	60	55353
2026-01-22 23:03:40.63	177.51	7.62	-50.6	-53.1	6.1	0.00e+00	0	44	104	19662897152	60	55462
2026-01-22 23:03:41.64	177.57	7.53	-50.7	-53.1	6.1	0.00e+00	0	44	104	19662897152	60	55527
2026-01-22 23:03:42.65	177.63	7.44	-50.6	-53.1	6.1	0.00e+00	0	44	104	19662897152	60	55534
2026-01-22 23:03:43.66	177.69	7.35	-50.5	-53.0	6.1	0.00e+00	0	44	104	19662897152	60	54823
2026-01-22 23:03:44.67	177.75	7.26	-50.6	-53.1	6.1	0.00e+00	0	44	104	19662897152	60	55158
2026-01-22 23:03:45.68	177.81	7.17	-50.7	-53.1	6.1	0.00e+00	0	44	104	19662897152	60	55590
2026-01-22 23:03:46.69	177.87	7.08	-50.6	-53.1	6.1	0.00e+00	0	44	104	19662897152	60	55206
2026-01-22 23:03:47.70	177.93	6.99	-50.6	-53.1	6.1	0.00e+00	0	44	104	19662897152	60	55269
2026-01-22 23:03:48.71	177.99	6.91	-50.6	-53.1	6.1	0.00e+00	0	44	104	19662897152	60	55443
2026-01-22 23:03:49.71	178.05	6.82	-50.6	-53.1	6.1	0.00e+00	0	44	104	19662897152	60	55341
2026-01-22 23:03:50.72	178.11	6.73	-50.5	-53.0	6.1	0.00e+00	0	44	104	19662897152	60	54870
2026-01-22 23:03:51.73	178.17	6.65	-50.6	-53.1	6.1	0.00e+00	0	44	104	19662897152	60	55537
2026-01-22 23:03:52.74	178.22	6.56	-50.4	-52.9	6.1	0.00e+00	0	44	104	19662897152	60	54213
2026-01-22 23:03:53.75	178.28	6.48	-50.5	-53.0	6.1	0.00e+00	0	44	104	19662897152	60	54894
2026-01-22 23:03:54.76	178.34	6.39	-50.6	-53.1	6.1	0.00e+00	0	44	104	19662897152	60	55463
2026-01-22 23:03:55.77	178.39	6.31	-50.6	-53.1	6.1	0.00e+00	0	44	104	19662897152	60	55346
2026-01-22 23:03:56.78	178.45	6.22	-50.5	-53.0	6.1	0.00e+00	0	44	104	19662897152	60	54725
2026-01-22 23:03:57.79	178.51	6.14	-50.6	-53.1	6.1	0.00e+00	0	44	104	19662897152	60	55116
2026-01-22 23:03:58.80	178.56	6.05	-50.5	-53.0	6.1	0.00e+00	0	44	104	19662897152	60	54745
2026-01-22 23:03:59.81	178.62	5.97	-50.6	-53.1	6.1	0.00e+00	0	44	104	19662897152	60	55529
2026-01-22 23:04:00.82	178.67	5.89	-50.6	-53.0	6.1	0.00e+00	0	44	104	19662897152	60	54986
2026-01-22 23:04:01.82	178.72	5.81	-50.5	-53.0	6.1	0.00e+00	0	44	104	19662897152	60	54593
2026-01-22 23:04:02.83	178.78	5.72	-50.3	-52.9	6.1	0.00e+00	0	44	104	19662897152	60	53792
2026-01-22 23:04:03.84	178.83	5.64	-50.6	-53.1	6.1	0.00e+00	0	44	104	19662897152	60	55276
2026-01-22 23:04:04.85	178.88	5.56	-50.4	-52.9	6.1	0.00e+00	0	44	104	19662897152	60	54365
2026-01-22 23:04:05.86	178.94	5.48	-50.4	-53.0	6.1	0.00e+00	0	44	104	19662897152	60	54438
2026-01-22 23:04:06.87	178.99	5.40	-50.3	-52.9	6.1	0.00e+00	0	44	104	19662897152	60	53871
2026-01-22 23:04:07.88	179.04	5.32	-50.5	-53.0	6.1	0.00e+00	0	44	104	19662897152	60	54458
2026-01-22 23:04:08.89	179.09	5.24	-50.2	-52.7	6.1	0.00e+00	0	44	104	19662897152	60	52924
2026-01-22 23:04:09.90	179.14	5.16	-50.2	-52.8	6.1	0.00e+00	0	44	104	19662897152	60	53282
2026-01-22 23:04:10.91	179.19	5.08	-50.4	-52.8	6.1	0.00e+00	0	44	104	19662897152	60	53633
2026-01-22 23:04:11.92	179.24	5.00	-50.4	-52.9	6.1	0.00e+00	0	44	104	19662897152	60	54198
2026-01-22 23:04:12.93	179.29	4.92	-50.4	-52.9	6.1	0.00e+00	0	44	104	19662897152	60	54155
2026-01-22 23:04:13.94	179.34	4.84	-50.4	-52.9	6.1	0.00e+00	0	44	104	19662897152	60	53888
2026-01-22 23:04:14.95	179.39	4.76	-50.5	-53.0	6.1	0.00e+00	0	44	104	19662897152	60	54468
2026-01-22 23:04:15.96	179.44	4.68	-50.3	-52.8	6.1	0.00e+00	0	44	104	19662897152	60	53617
2026-01-22 23:04:16.97	179.49	4.60	-50.4	-52.9	6.1	0.00e+00	0	44	104	19662897152	60	54126
2026-01-22 23:04:17.98	179.54	4.53	-50.5	-53.0	6.1	0.00e+00	0	44	104	19662897152	60	54892
2026-01-22 23:04:18.99	179.59	4.45	-50.4	-53.0	6.1	0.00e+00	0	44	104	19662897152	60	54409
2026-01-22 23:04:20.00	179.64	4.37	-50.3	-52.8	6.1	0.00e+00	0	44	104	19662897152	60	53692
2026-01-22 23:04:21.00	179.69	4.29	-50.5	-53.0	6.1	0.00e+00	0	44	104	19662897152	60	54680
2026-01-22 23:04:22.01	179.73	4.22	-50.6	-53.1	6.1	0.00e+00	0	44	104	19662897152	60	55029
2026-01-22 23:04:23.02	179.78	4.14	-50.4	-52.9	6.1	0.00e+00	0	44	104	19662897152	60	53885
2026-01-22 23:04:24.03	179.83	4.07	-50.5	-53.0	6.1	0.00e+00	0	44	104	19662897152	60	54828
2026-01-22 23:04:25.04	179.87	3.99	-50.3	-52.8	6.1	0.00e+00	0	44	104	19662897152	60	53606
2026-01-22 23:04:26.05	179.92	3.91	-50.5	-53.0	6.1	0.00e+00	0	44	104	19662897152	60	54660
2026-01-22 23:04:27.06	179.97	3.84	-50.1	-52.6	6.1	0.00e+00	0	44	104	19662897152	60	52085
2026-01-22 23:04:28.07	180.01	3.76	-50.5	-52.9	6.1	0.00e+00	0	44	104	19662897152	60	54392
2026-01-22 23:04:29.08	180.06	3.69	-50.3	-52.8	6.1	0.00e+00	0	44	104	19662897152	60	53439
2026-01-22 23:04:30.09	180.10	3.61	-50.2	-52.8	6.1	0.00e+00	0	44	104	19662897152	60	53537
2026-01-22 23:04:31.10	180.15	3.54	-50.1	-52.6	6.1	0.00e+00	0	44	104	19662897152	60	52239
2026-01-22 23:04:32.11	180.19	3.47	-50.4	-52.9	6.1	0.00e+00	0	44	104	19662897152	60	54294
2026-01-22 23:04:33.12	180.24	3.39	-49.9	-52.5	6.1	0.00e+00	0	44	104	19662897152	60	51644
2026-01-22 23:04:34.13	180.28	3.32	-50.2	-52.8	6.1	0.00e+00	0	44	104	19662897152	60	53364
2026-01-22 23:04:35.14	180.33	3.25	-50.0	-52.5	6.1	0.00e+00	0	44	104	19662897152	60	51720
2026-01-22 23:04:36.15	180.37	3.17	-50.4	-52.9	6.1	0.00e+00	0	44	104	19662897152	60	53938
2026-01-22 23:04:37.15	180.41	3.10	-50.1	-52.6	6.1	0.00e+00	0	44	104	19662897152	60	52334
2026-01-22 23:04:38.16	180.46	3.03	-50.0	-52.5	6.0	0.00e+00	0	44	104	19662897152	60	51759
2026-01-22 23:04:39.17	180.50	2.96	-50.3	-52.8	6.1	0.00e+00	0	44	104	19662897152	60	53442
2026-01-22 23:04:40.18	180.54	2.88	-50.8	-53.3	6.1	0.00e+00	0	44	104	19662897152	60	56313
2026-01-22 23:04:41.19	180.58	2.81	-50.5	-53.1	6.1	0.00e+00	0	44	104	19662897152	60	55128
2026-01-22 23:04:42.20	180.63	2.74	-50.7	-53.3	6.1	0.00e+00	0	44	104	19662897152	60	56808
2026-01-22 23:04:43.21	180.67	2.67	-51.1	-53.7	6.1	0.00e+00	0	44	104	19662897152	60	58977
2026-01-22 23:04:44.22	180.71	2.60	-51.1	-53.6	6.1	0.00e+00	0	44	104	19662897152	60	58300
2026-01-22 23:04:45.23	180.75	2.53	-51.4	-53.8	6.1	0.00e+00	0	44	104	19662897152	60	60051
2026-01-22 23:04:46.24	180.79	2.46	-51.2	-53.7	6.1	0.00e+00	0	44	104	19662897152	60	59125
2026-01-22 23:04:47.25	180.83	2.39	-51.2	-53.8	6.1	0.00e+00	0	44	104	19662897152	60	59703
2026-01-22 23:04:48.26	180.87	2.32	-51.3	-53.8	6.1	0.00e+00	0	44	104	19662897152	60	60204
2026-01-22 23:04:49.27	180.91	2.25	-51.1	-53.6	6.1	0.00e+00	0	44	104	19662897152	60	58657
2026-01-22 23:04:50.29	180.96	2.17	-51.2	-53.7	6.1	0.00e+00	0	44	104	19662897152	60	59529
2026-01-22 23:04:51.30	181.00	2.11	-51.5	-54.0	6.1	0.00e+00	0	44	104	19662897152	60	61256
2026-01-22 23:04:52.31	181.04	2.04	-51.4	-53.9	6.1	0.00e+00	0	44	104	19662897152	60	60664
2026-01-22 23:04:53.32	181.08	1.97	-51.5	-54.0	6.1	0.00e+00	0	44	104	19662897152	60	61454
2026-01-22 23:04:54.33	181.12	1.90	-51.4	-53.9	6.1	0.00e+00	0	44	104	19662897152	60	60750
2026-01-22 23:04:55.34	181.15	1.83	-51.5	-54.0	6.1	0.00e+00	0	44	104	19662897152	60	61415
2026-01-22 23:04:56.35	181.19	1.76	-51.5	-54.0	6.1	0.00e+00	0	44	104	19662897152	60	61037
2026-01-22 23:04:57.36	181.23	1.69	-51.5	-53.9	6.1	0.00e+00	0	44	104	19662897152	60	60936
2026-01-22 23:04:58.36	181.27	1.62	-51.5	-53.9	6.1	0.00e+00	0	44	104	19662897152	60	60777
2026-01-22 23:04:59.38	181.31	1.56	-51.5	-54.0	6.1	0.00e+00	0	44	104	19662897152	60	61329
2026-01-22 23:05:00.39	181.35	1.49	-51.4	-53.9	6.1	0.00e+00	0	44	104	19662897152	60	60860
2026-01-22 23:05:01.40	181.39	1.42	-51.5	-54.0	6.1	0.00e+00	0	44	104	19662897152	60	61236
2026-01-22 23:05:02.41	181.42	1.35	-51.6	-54.1	6.1	0.00e+00	0	44	104	19662897152	60	61857
2026-01-22 23:05:03.42	181.46	1.29	-51.6	-54.1	6.1	0.00e+00	0	44	104	19662897152	60	61796
2026-01-22 23:05:04.43	181.50	1.22	-51.5	-54.0	6.1	0.00e+00	0	44	104	19662897152	60	61332
2026-01-22 23:05:05.44	181.54	1.15	-51.5	-54.0	6.1	0.00e+00	0	44	104	19662897152	60	61572
2026-01-22 23:05:06.45	181.57	1.09	-51.6	-54.0	6.1	0.00e+00	0	44	104	19662897152	60	61421
2026-01-22 23:05:07.46	181.61	1.02	-51.6	-54.0	6.1	0.00e+00	0	44	104	19662897152	60	61586
2026-01-22 23:05:08.47	181.65	0.95	-51.5	-54.0	6.1	0.00e+00	0	44	104	19662897152	60	61253
2026-01-22 23:05:09.48	181.68	0.89	-51.5	-54.0	6.1	0.00e+00	0	44	104	19662897152	60	61234
2026-01-22 23:05:10.49	181.72	0.82	-51.5	-54.0	6.1	0.00e+00	0	44	104	19662897152	60	61120
2026-01-22 23:05:11.50	181.76	0.76	-51.5	-54.0	6.1	0.00e+00	0	44	104	19662897152	60	61406
2026-01-22 23:05:12.51	181.79	0.69	-51.5	-54.0	6.1	0.00e+00	0	44	104	19662897152	60	61291
2026-01-22 23:05:13.52	181.83	0.63	-51.5	-54.0	6.1	0.00e+00	0	44	104	19662897152	60	61495
2026-01-22 23:05:14.53	181.86	0.56	-51.5	-54.0	6.1	0.00e+00	0	44	104	19662897152	60	61384
2026-01-22 23:05:15.54	181.90	0.50	-51.5	-54.0	6.1	0.00e+00	0	44	104	19662897152	60	61525
2026-01-22 23:05:16.54	181.93	0.43	-51.5	-54.0	6.1	0.00e+00	0	44	104	19662897152	60	61472
2026-01-22 23:05:17.55	181.97	0.37	-51.5	-54.1	6.1	0.00e+00	0	44	104	19662897152	60	61786
2026-01-22 23:05:18.56	182.00	0.30	-51.5	-54.0	6.1	0.00e+00	0	44	104	19662897152	60	61501
2026-01-22 23:05:19.57	182.04	0.24	-51.5	-54.0	6.1	0.00e+00	0	44	104	19662897152	60	61290
2026-01-22 23:05:20.58	182.07	0.17	-51.5	-54.0	6.1	0.00e+00	0	44	104	19662897152	60	61369
2026-01-22 23:05:21.59	182.11	0.11	-51.5	-54.0	6.1	0.00e+00	0	44	104	19662897152	60	61520
2026-01-22 23:05:22.60	182.14	0.05	-51.5	-54.1	6.1	0.00e+00	0	44	104	19662897152	60	61744
2026-01-22 23:05:23.61	182.18	-0.02	-51.5	-54.0	6.1	0.00e+00	0	44	104	19662897152	60	61466

#Closed at: 2026-01-22 23:05:24
#Recorded file [19662 MB]: D:/lorett/data/35029_260123_105423.dat