passes_logs/2026/01/22/R4.6S_Anadyr/R4.6S_Anadyr__20260122_155342_SUOMI_NPP_rec.log

#Pass ID: 20260122_155342_SUOMI NPP
#Satellite: SUOMI NPP
#Configuration: NPP
#almurnet v.1.7.20251203
#Start time: 2026-01-22 15:53:45

#Version: 2.2.20231116
#Station: R4.6S_Anadyr
#Location: 177.4865 lon 64.73178 lat
#TLE: 1 37849U 11061A   26021.51818991  .00000201  00000+0  11636-3 0  9995
#TLE: 2 37849  98.7819 323.5108 0002300  52.3548 307.7836 14.19527793737637

#Time	Az	El	Level	Level2	SNR	BER	BlckErr	Temp	State	Recorded	gain1	gain2
2026-01-22 15:53:45.26	23.54	0.16	-51.5	-64.0	3.5	1.52e+00	0	39	0	0	60	55637
2026-01-22 15:53:46.27	23.51	0.22	-52.5	-67.7	3.6	1.51e+00	0	40	104	0	60	87812
2026-01-22 15:53:47.28	23.49	0.28	-52.2	-67.4	3.6	1.51e+00	0	40	104	0	60	85096
2026-01-22 15:53:48.29	23.46	0.34	-52.3	-67.5	3.6	1.51e+00	0	40	104	0	60	85913
2026-01-22 15:53:49.30	23.44	0.40	-51.8	-67.0	3.6	1.51e+00	0	40	104	0	60	81020
2026-01-22 15:53:50.31	23.41	0.46	-52.1	-67.4	3.6	1.51e+00	0	40	104	0	60	84948
2026-01-22 15:53:51.32	23.39	0.52	-51.9	-67.2	3.6	1.51e+00	0	40	104	0	60	82732
2026-01-22 15:53:52.33	23.36	0.58	-51.6	-66.8	3.6	1.51e+00	0	40	104	0	60	78866
2026-01-22 15:53:53.34	23.33	0.64	-51.9	-67.1	3.6	1.51e+00	0	40	104	0	60	82108
2026-01-22 15:53:54.35	23.31	0.70	-52.0	-67.2	3.6	1.51e+00	0	40	104	0	60	82579
2026-01-22 15:53:55.36	23.28	0.76	-51.6	-66.9	3.6	1.51e+00	0	40	104	0	60	80016
2026-01-22 15:53:56.37	23.25	0.82	-51.4	-66.7	3.6	1.51e+00	0	40	104	0	60	77767
2026-01-22 15:53:57.38	23.23	0.88	-51.3	-66.6	3.6	1.51e+00	0	40	104	0	60	76845
2026-01-22 15:53:58.39	23.20	0.94	-51.1	-66.4	3.6	1.51e+00	0	40	104	0	60	75377
2026-01-22 15:53:59.40	23.17	1.00	-51.2	-66.4	3.6	1.51e+00	0	40	104	0	60	75168
2026-01-22 15:54:00.41	23.15	1.06	-51.0	-66.3	3.6	1.51e+00	0	40	104	0	60	74461
2026-01-22 15:54:01.42	23.12	1.12	-51.0	-66.2	3.6	1.51e+00	0	40	104	0	60	73579
2026-01-22 15:54:02.43	23.09	1.18	-50.9	-66.1	3.6	1.51e+00	0	40	104	0	60	73005
2026-01-22 15:54:03.44	23.06	1.24	-50.8	-66.0	3.6	1.51e+00	0	40	104	0	60	71939
2026-01-22 15:54:04.45	23.04	1.31	-50.7	-65.9	3.6	1.51e+00	0	40	104	0	60	71400
2026-01-22 15:54:05.46	23.01	1.37	-50.5	-65.7	3.6	1.51e+00	0	40	104	0	60	69841
2026-01-22 15:54:06.47	22.98	1.43	-50.4	-65.6	3.6	1.51e+00	0	40	104	0	60	69078
2026-01-22 15:54:07.48	22.95	1.49	-50.3	-65.5	3.6	1.51e+00	0	40	104	0	60	67930
2026-01-22 15:54:08.49	22.93	1.55	-50.1	-65.2	3.6	1.51e+00	0	40	104	0	60	65823
2026-01-22 15:54:09.50	22.90	1.62	-49.8	-64.9	3.6	1.51e+00	0	40	104	0	60	63472
2026-01-22 15:54:10.51	22.87	1.68	-49.7	-64.8	3.6	1.51e+00	0	40	104	0	60	63131
2026-01-22 15:54:11.52	22.84	1.74	-49.7	-64.9	3.6	1.51e+00	0	40	104	0	60	63396
2026-01-22 15:54:12.53	22.81	1.80	-49.7	-64.9	3.6	1.51e+00	0	40	104	0	60	63677
2026-01-22 15:54:13.54	22.78	1.87	-49.7	-64.8	3.6	1.51e+00	0	40	104	0	60	62912
2026-01-22 15:54:14.55	22.75	1.93	-49.7	-64.7	3.6	1.51e+00	0	40	104	0	60	62433
2026-01-22 15:54:15.56	22.73	1.99	-49.6	-64.6	3.6	1.51e+00	0	40	104	0	60	61464
2026-01-22 15:54:16.57	22.70	2.05	-49.7	-64.6	3.6	1.51e+00	0	40	104	0	60	61306
2026-01-22 15:54:17.58	22.67	2.12	-49.7	-64.3	3.6	1.51e+00	0	40	104	0	60	59500
2026-01-22 15:54:18.59	22.64	2.18	-49.7	-64.3	3.6	1.51e+00	0	40	104	0	60	59464
2026-01-22 15:54:19.60	22.61	2.24	-49.7	-64.6	3.6	1.51e+00	0	40	104	0	60	61630
2026-01-22 15:54:20.61	22.58	2.31	-49.7	-64.6	3.6	1.51e+00	0	40	104	0	60	61293
2026-01-22 15:54:21.62	22.55	2.37	-49.6	-64.8	3.6	1.51e+00	0	40	104	0	60	62542
2026-01-22 15:54:22.63	22.52	2.43	-49.6	-64.8	3.6	1.51e+00	0	40	104	0	60	63061
2026-01-22 15:54:23.64	22.49	2.50	-49.7	-64.9	3.6	1.51e+00	0	40	104	0	60	63332
2026-01-22 15:54:24.65	22.46	2.56	-49.6	-64.8	3.6	1.51e+00	0	40	104	0	60	62536
2026-01-22 15:54:25.66	22.43	2.63	-49.7	-64.7	3.5	1.51e+00	0	40	104	0	60	62295
2026-01-22 15:54:26.67	22.40	2.69	-49.7	-64.6	3.6	1.51e+00	0	40	104	0	60	61491
2026-01-22 15:54:27.67	22.37	2.76	-49.6	-64.5	3.6	1.51e+00	0	40	104	0	60	60427
2026-01-22 15:54:28.68	22.33	2.82	-49.6	-64.2	3.6	1.51e+00	0	41	104	0	60	58395
2026-01-22 15:54:29.69	22.30	2.88	-49.6	-63.9	3.6	1.51e+00	0	41	104	0	60	56532
2026-01-22 15:54:30.70	22.27	2.95	-49.6	-63.8	3.6	1.51e+00	0	41	104	0	60	56130
2026-01-22 15:54:31.71	22.24	3.01	-49.6	-63.4	3.6	1.51e+00	0	40	104	0	60	53595
2026-01-22 15:54:32.72	22.21	3.08	-49.6	-63.4	3.6	1.51e+00	0	41	104	0	60	53518
2026-01-22 15:54:33.73	22.18	3.15	-49.6	-63.7	3.6	1.51e+00	0	40	104	0	60	55072
2026-01-22 15:54:34.74	22.15	3.21	-49.6	-64.3	3.6	1.51e+00	0	41	104	0	60	59343
2026-01-22 15:54:35.75	22.11	3.28	-49.6	-64.6	3.6	1.51e+00	0	41	104	0	60	61552
2026-01-22 15:54:36.76	22.08	3.34	-49.6	-64.5	3.6	1.51e+00	0	41	104	0	60	60577
2026-01-22 15:54:37.77	22.05	3.41	-49.5	-63.2	3.6	1.51e+00	0	41	104	0	60	51961
2026-01-22 15:54:38.78	22.02	3.47	-49.5	-62.6	3.6	1.51e+00	0	41	104	0	60	48519
2026-01-22 15:54:39.79	21.98	3.54	-49.4	-60.3	4.4	1.32e+00	0	41	104	0	60	37313
2026-01-22 15:54:40.80	21.95	3.61	-49.1	-57.0	5.8	5.45e-01	66	41	0	1048576	60	25486
2026-01-22 15:54:41.81	21.92	3.67	-49.0	-56.2	6.7	2.72e-01	0	41	0	3145728	60	23404
2026-01-22 15:54:42.82	21.88	3.74	-48.8	-55.7	7.1	1.76e-01	0	41	0	5242880	60	22086
2026-01-22 15:54:43.83	21.85	3.81	-49.6	-63.9	3.6	1.51e+00	0	41	104	6291456	60	56505
2026-01-22 15:54:44.84	21.82	3.87	-49.7	-64.1	3.6	1.51e+00	0	41	104	6291456	60	57931
2026-01-22 15:54:45.85	21.78	3.94	-49.5	-62.6	3.6	1.18e+00	54	41	104	6291456	60	48684
2026-01-22 15:54:46.86	21.75	4.01	-42.4	-43.8	6.1	1.50e+00	0	41	104	6291456	60	5578
2026-01-22 15:54:47.87	21.72	4.08	-49.6	-63.1	3.6	5.48e-01	0	41	104	6291456	60	51859
2026-01-22 15:54:48.88	21.68	4.14	-44.2	-46.0	17.7	1.50e+00	2	41	104	6291456	60	7228
2026-01-22 15:54:49.89	21.65	4.21	-42.1	-43.5	20.3	0.00e+00	0	41	0	6291456	58	6040
2026-01-22 15:54:50.89	21.61	4.28	-42.4	-43.8	19.8	0.00e+00	0	41	0	8388608	58	6300
2026-01-22 15:54:51.90	21.58	4.35	-41.9	-43.1	20.4	0.00e+00	0	41	0	10485760	58	5824
2026-01-22 15:54:52.91	21.54	4.42	-42.1	-43.4	20.4	0.00e+00	82	41	0	12582912	56	6736
2026-01-22 15:54:53.92	21.51	4.48	-41.7	-43.0	20.8	0.00e+00	0	41	0	13631488	56	6421
2026-01-22 15:54:54.93	21.47	4.55	-41.2	-42.4	21.2	0.00e+00	92	41	0	15728640	56	5997
2026-01-22 15:54:55.94	21.44	4.62	-41.9	-43.2	20.4	0.00e+00	0	41	0	17825792	56	6598
2026-01-22 15:54:56.95	21.40	4.69	-41.9	-43.1	20.6	0.00e+00	33	41	0	19922944	56	6508
2026-01-22 15:54:57.95	21.36	4.76	-41.9	-43.1	20.7	0.00e+00	0	41	0	22020096	56	6531
2026-01-22 15:54:58.96	21.33	4.83	-41.6	-42.8	20.7	0.00e+00	0	41	0	23068672	56	6272
2026-01-22 15:54:59.97	21.29	4.90	-42.4	-43.7	20.1	0.00e+00	81	41	0	25165824	56	6989
2026-01-22 15:55:00.98	21.26	4.97	-41.8	-43.0	20.8	0.00e+00	0	41	0	27262976	56	6428
2026-01-22 15:55:01.99	21.22	5.04	-42.2	-43.5	20.4	0.00e+00	82	41	0	29360128	56	6803
2026-01-22 15:55:03.00	21.18	5.11	-41.9	-43.1	20.7	0.00e+00	0	41	0	31457280	56	6514
2026-01-22 15:55:04.01	21.14	5.18	-42.0	-43.3	20.5	0.00e+00	0	41	0	32505856	56	6636
2026-01-22 15:55:05.02	21.11	5.25	-41.4	-42.6	21.0	0.00e+00	0	41	0	34603008	56	6125
2026-01-22 15:55:06.03	21.07	5.32	-42.2	-43.5	20.3	0.00e+00	0	41	0	36700160	56	6810
2026-01-22 15:55:07.04	21.03	5.39	-42.2	-43.5	20.2	0.00e+00	65	41	0	38797312	56	6830
2026-01-22 15:55:08.05	20.99	5.46	-42.1	-43.4	20.4	0.00e+00	0	41	0	40894464	56	6725
2026-01-22 15:55:09.06	20.96	5.53	-41.9	-43.1	20.6	0.00e+00	79	41	0	41943040	56	6477
2026-01-22 15:55:10.07	20.92	5.60	-42.1	-43.4	20.2	0.00e+00	0	41	0	44040192	56	6752
2026-01-22 15:55:11.07	20.88	5.67	-41.9	-43.1	20.5	0.00e+00	0	41	0	46137344	56	6511
2026-01-22 15:55:12.08	20.84	5.74	-41.6	-42.8	20.7	0.00e+00	0	41	0	48234496	56	6313
2026-01-22 15:55:13.09	20.80	5.81	-41.5	-42.7	20.8	0.00e+00	0	41	0	50331648	56	6228
2026-01-22 15:55:14.10	20.76	5.89	-41.9	-43.2	20.6	0.00e+00	56	41	0	51380224	56	6555
2026-01-22 15:55:15.11	20.72	5.96	-41.6	-42.8	20.7	0.00e+00	0	41	0	53477376	56	6298
2026-01-22 15:55:16.12	20.68	6.03	-41.6	-42.8	21.1	0.00e+00	50	41	0	55574528	56	6300
2026-01-22 15:55:17.13	20.64	6.10	-41.9	-43.1	20.8	0.00e+00	0	41	0	57671680	56	6515
2026-01-22 15:55:18.14	20.60	6.18	-41.8	-43.0	20.9	0.00e+00	42	41	0	59768832	56	6438
2026-01-22 15:55:19.15	20.56	6.25	-41.9	-43.1	20.9	0.00e+00	0	41	0	60817408	56	6496
2026-01-22 15:55:20.16	20.52	6.32	-42.0	-43.2	20.7	0.00e+00	0	41	0	62914560	56	6608
2026-01-22 15:55:21.16	20.48	6.39	-41.9	-43.1	20.9	0.00e+00	0	41	0	65011712	56	6489
2026-01-22 15:55:22.17	20.44	6.47	-41.9	-43.1	21.0	0.00e+00	0	41	0	67108864	56	6504
2026-01-22 15:55:23.18	20.40	6.54	-41.5	-42.6	21.3	0.00e+00	76	41	0	69206016	56	6160
2026-01-22 15:55:24.19	20.36	6.61	-41.7	-42.9	21.1	0.00e+00	0	41	0	71303168	56	6346
2026-01-22 15:55:25.20	20.32	6.69	-41.5	-42.7	21.3	0.00e+00	90	41	0	72351744	56	6195
2026-01-22 15:55:26.21	20.28	6.76	-41.8	-43.0	21.0	0.00e+00	33	41	0	74448896	56	6461
2026-01-22 15:55:27.22	20.23	6.84	-41.7	-42.9	21.1	0.00e+00	0	41	0	76546048	56	6380
2026-01-22 15:55:28.23	20.19	6.91	-41.7	-42.9	21.0	0.00e+00	0	41	0	78643200	56	6322
2026-01-22 15:55:29.24	20.15	6.99	-41.6	-42.8	21.2	0.00e+00	33	41	0	80740352	56	6311
2026-01-22 15:55:30.25	20.11	7.06	-41.6	-42.8	21.2	0.00e+00	80	41	0	81788928	56	6273
2026-01-22 15:55:31.25	20.06	7.14	-41.9	-43.1	21.0	0.00e+00	0	41	0	83886080	56	6500
2026-01-22 15:55:32.26	20.02	7.21	-42.1	-43.3	20.7	0.00e+00	90	41	0	85983232	56	6674
2026-01-22 15:55:33.27	19.98	7.29	-41.7	-42.8	21.2	0.00e+00	0	41	0	88080384	56	6312
2026-01-22 15:55:34.28	19.93	7.36	-41.4	-42.6	21.4	0.00e+00	0	41	0	90177536	56	6148
2026-01-22 15:55:35.29	19.89	7.44	-41.8	-43.0	21.0	0.00e+00	0	41	0	91226112	56	6405
2026-01-22 15:55:36.30	19.84	7.51	-41.6	-42.7	21.3	0.00e+00	0	41	0	93323264	56	6239
2026-01-22 15:55:37.31	19.80	7.59	-41.7	-42.8	21.3	0.00e+00	65	41	0	95420416	56	6312
2026-01-22 15:55:38.32	19.76	7.67	-41.5	-42.6	21.5	0.00e+00	0	41	0	97517568	56	6170
2026-01-22 15:55:39.33	19.71	7.74	-41.6	-42.8	21.3	0.00e+00	92	41	0	99614720	56	6287
2026-01-22 15:55:40.34	19.66	7.82	-41.4	-42.5	21.5	0.00e+00	0	41	0	100663296	56	6084
2026-01-22 15:55:41.35	19.62	7.90	-41.7	-42.9	21.1	0.00e+00	0	41	0	102760448	56	6356
2026-01-22 15:55:42.35	19.57	7.98	-41.5	-42.6	21.4	0.00e+00	0	41	0	104857600	56	6167
2026-01-22 15:55:43.36	19.53	8.05	-41.6	-42.8	21.3	0.00e+00	0	41	0	106954752	56	6248
2026-01-22 15:55:44.37	19.48	8.13	-41.6	-42.8	21.4	0.00e+00	9	41	0	109051904	56	6268
2026-01-22 15:55:45.38	19.43	8.21	-41.4	-42.5	21.5	0.00e+00	0	41	0	110100480	56	6096
2026-01-22 15:55:46.39	19.39	8.29	-41.2	-42.3	21.7	0.00e+00	86	41	0	112197632	56	5915
2026-01-22 15:55:47.40	19.34	8.37	-41.3	-42.4	21.7	0.00e+00	0	41	0	114294784	56	6022
2026-01-22 15:55:48.41	19.29	8.45	-41.0	-42.1	21.9	0.00e+00	91	41	0	116391936	56	5814
2026-01-22 15:55:49.42	19.25	8.52	-41.2	-42.3	21.7	0.00e+00	0	41	0	118489088	56	5950
2026-01-22 15:55:50.43	19.20	8.60	-41.1	-42.2	21.8	0.00e+00	0	41	0	119537664	56	5848
2026-01-22 15:55:51.44	19.15	8.68	-41.2	-42.3	22.0	0.00e+00	0	41	0	121634816	56	5897
2026-01-22 15:55:52.45	19.10	8.76	-41.0	-42.1	21.9	0.00e+00	0	41	0	123731968	56	5800
2026-01-22 15:55:53.46	19.05	8.84	-41.2	-42.2	21.9	0.00e+00	83	41	0	125829120	56	5892
2026-01-22 15:55:54.47	19.00	8.92	-41.1	-42.2	21.9	0.00e+00	0	41	0	127926272	56	5880
2026-01-22 15:55:55.48	18.95	9.00	-41.3	-42.5	21.7	0.00e+00	92	41	0	128974848	56	6037
2026-01-22 15:55:56.49	18.90	9.08	-41.1	-42.1	22.0	0.00e+00	0	41	0	131072000	56	5815
2026-01-22 15:55:57.49	18.85	9.16	-40.9	-41.9	22.1	0.00e+00	0	41	0	133169152	56	5675
2026-01-22 15:55:58.50	18.80	9.25	-41.1	-42.2	21.9	0.00e+00	0	41	0	135266304	56	5848
2026-01-22 15:55:59.51	18.75	9.33	-40.9	-42.0	22.2	0.00e+00	0	41	0	137363456	56	5700
2026-01-22 15:56:00.52	18.70	9.41	-41.0	-42.1	22.1	0.00e+00	77	41	0	138412032	56	5768
2026-01-22 15:56:01.53	18.65	9.49	-40.9	-41.9	22.2	0.00e+00	0	41	0	140509184	56	5670
2026-01-22 15:56:02.54	18.60	9.57	-40.9	-42.0	22.1	0.00e+00	78	41	0	142606336	56	5707
2026-01-22 15:56:03.55	18.55	9.65	-40.8	-41.8	22.2	0.00e+00	0	41	0	144703488	56	5594
2026-01-22 15:56:04.56	18.49	9.74	-40.5	-41.5	22.4	0.00e+00	0	41	0	146800640	54	6100
2026-01-22 15:56:05.57	18.44	9.82	-40.6	-41.6	22.4	0.00e+00	0	41	0	147849216	54	6137
2026-01-22 15:56:06.57	18.39	9.90	-40.7	-41.7	22.3	0.00e+00	0	41	0	149946368	54	6221
2026-01-22 15:56:07.58	18.34	9.99	-40.6	-41.6	22.3	0.00e+00	0	41	0	152043520	54	6172
2026-01-22 15:56:08.59	18.28	10.07	-40.8	-41.8	22.2	0.00e+00	0	41	0	154140672	54	6308
2026-01-22 15:56:09.60	18.23	10.15	-40.8	-41.9	22.2	0.00e+00	80	41	0	156237824	54	6350
2026-01-22 15:56:10.61	18.17	10.24	-40.8	-41.9	22.1	0.00e+00	0	41	0	157286400	54	6323
2026-01-22 15:56:11.62	18.12	10.32	-40.6	-41.6	22.3	0.00e+00	0	41	0	159383552	54	6168
2026-01-22 15:56:12.63	18.07	10.41	-40.6	-41.7	22.4	0.00e+00	0	41	0	161480704	54	6174
2026-01-22 15:56:13.64	18.01	10.49	-40.9	-41.9	22.1	0.00e+00	0	41	0	163577856	54	6369
2026-01-22 15:56:14.65	17.95	10.58	-40.5	-41.6	22.4	0.00e+00	65	41	0	165675008	54	6117
2026-01-22 15:56:15.66	17.90	10.66	-40.7	-41.8	22.1	0.00e+00	0	41	0	167772160	54	6264
2026-01-22 15:56:16.67	17.84	10.75	-40.6	-41.7	22.3	0.00e+00	76	41	0	168820736	54	6185
2026-01-22 15:56:17.68	17.79	10.83	-40.6	-41.6	22.3	0.00e+00	0	41	0	170917888	54	6157
2026-01-22 15:56:18.69	17.73	10.92	-40.7	-41.7	22.3	0.00e+00	0	41	0	173015040	54	6204
2026-01-22 15:56:19.70	17.67	11.01	-40.5	-41.5	22.5	0.00e+00	0	41	0	175112192	54	6087
2026-01-22 15:56:20.71	17.61	11.09	-40.4	-41.4	22.5	0.00e+00	0	41	0	177209344	54	6019
2026-01-22 15:56:21.72	17.56	11.18	-40.3	-41.3	22.5	0.00e+00	0	41	0	178257920	54	5949
2026-01-22 15:56:22.73	17.50	11.27	-40.5	-41.5	22.6	0.00e+00	0	41	0	180355072	54	6051
2026-01-22 15:56:23.74	17.44	11.36	-40.6	-41.7	22.4	0.00e+00	84	41	0	182452224	54	6188
2026-01-22 15:56:24.75	17.38	11.44	-40.7	-41.7	22.2	0.00e+00	0	41	0	184549376	54	6190
2026-01-22 15:56:25.76	17.32	11.53	-40.4	-41.4	22.7	0.00e+00	18	41	0	186646528	54	6005
2026-01-22 15:56:26.77	17.26	11.62	-40.4	-41.4	22.6	0.00e+00	0	41	0	187695104	54	5976
2026-01-22 15:56:27.77	17.20	11.71	-40.6	-41.6	22.4	0.00e+00	0	41	0	189792256	54	6138
2026-01-22 15:56:28.79	17.14	11.80	-40.8	-41.9	22.2	0.00e+00	49	41	0	191889408	54	6318
2026-01-22 15:56:29.79	17.08	11.89	-41.1	-42.2	21.9	0.00e+00	0	41	0	193986560	54	6548
2026-01-22 15:56:30.80	17.02	11.98	-40.8	-41.9	22.2	0.00e+00	80	41	0	196083712	54	6349
2026-01-22 15:56:31.81	16.96	12.07	-40.8	-41.8	22.2	0.00e+00	0	41	0	197132288	54	6290
2026-01-22 15:56:32.82	16.89	12.16	-40.7	-41.8	22.3	0.00e+00	83	41	0	199229440	54	6254
2026-01-22 15:56:33.83	16.83	12.25	-40.7	-41.7	22.3	0.00e+00	0	41	0	201326592	54	6219
2026-01-22 15:56:34.84	16.77	12.34	-40.5	-41.5	22.5	0.00e+00	0	41	0	203423744	54	6043
2026-01-22 15:56:35.85	16.70	12.43	-40.6	-41.6	22.3	0.00e+00	0	41	0	205520896	54	6142
2026-01-22 15:56:36.86	16.64	12.52	-40.7	-41.7	22.3	0.00e+00	0	41	0	206569472	54	6232
2026-01-22 15:56:37.87	16.58	12.61	-40.9	-41.9	22.1	0.00e+00	6	41	0	208666624	54	6360
2026-01-22 15:56:38.87	16.51	12.70	-41.0	-42.0	22.2	0.00e+00	0	41	0	210763776	54	6420
2026-01-22 15:56:39.88	16.45	12.80	-40.8	-41.9	22.1	0.00e+00	45	41	0	212860928	54	6350
2026-01-22 15:56:40.89	16.38	12.89	-41.0	-42.0	22.2	0.00e+00	0	41	0	214958080	54	6440
2026-01-22 15:56:41.90	16.31	12.98	-40.8	-41.8	22.3	0.00e+00	0	41	0	216006656	54	6266
2026-01-22 15:56:42.91	16.25	13.07	-40.7	-41.7	22.4	0.00e+00	0	41	0	218103808	54	6242
2026-01-22 15:56:43.92	16.18	13.17	-40.6	-41.7	22.5	0.00e+00	0	41	0	220200960	54	6176
2026-01-22 15:56:44.93	16.11	13.26	-40.6	-41.7	22.4	0.00e+00	84	41	0	222298112	54	6176
2026-01-22 15:56:45.94	16.05	13.36	-40.5	-41.5	22.6	0.00e+00	0	41	0	224395264	54	6101
2026-01-22 15:56:46.95	15.98	13.45	-40.8	-41.9	22.4	0.00e+00	59	41	0	225443840	54	6329
2026-01-22 15:56:47.96	15.91	13.55	-40.4	-41.4	22.7	0.00e+00	0	41	0	227540992	54	5976
2026-01-22 15:56:48.97	15.84	13.64	-40.3	-41.2	22.8	0.00e+00	0	41	0	229638144	54	5887
2026-01-22 15:56:49.98	15.77	13.74	-40.4	-41.3	22.7	0.00e+00	0	41	0	231735296	54	5962
2026-01-22 15:56:50.99	15.70	13.83	-40.4	-41.5	22.5	0.00e+00	0	41	0	233832448	54	6036
2026-01-22 15:56:52.00	15.63	13.93	-40.4	-41.4	22.7	0.00e+00	0	41	0	235929600	54	5968
2026-01-22 15:56:53.01	15.56	14.03	-40.6	-41.6	22.6	0.00e+00	0	41	0	236978176	54	6131
2026-01-22 15:56:54.02	15.49	14.12	-40.5	-41.5	22.6	0.00e+00	84	41	0	239075328	54	6082
2026-01-22 15:56:55.02	15.41	14.22	-40.4	-41.4	22.7	0.00e+00	0	41	0	241172480	54	6004
2026-01-22 15:56:56.03	15.34	14.32	-40.5	-41.5	22.5	0.00e+00	0	41	0	243269632	54	6087
2026-01-22 15:56:57.04	15.27	14.41	-40.6	-41.6	22.7	0.00e+00	0	41	0	245366784	54	6155
2026-01-22 15:56:58.05	15.19	14.51	-40.5	-41.5	22.6	0.00e+00	0	41	0	246415360	54	6064
2026-01-22 15:56:59.06	15.12	14.61	-40.6	-41.7	22.4	0.00e+00	0	41	0	248512512	54	6180
2026-01-22 15:57:00.07	15.05	14.71	-40.9	-42.0	22.3	0.00e+00	0	41	0	250609664	54	6409
2026-01-22 15:57:01.08	14.97	14.81	-40.8	-41.9	22.6	0.00e+00	62	41	0	252706816	54	6333
2026-01-22 15:57:02.09	14.89	14.91	-40.4	-41.4	22.7	0.00e+00	0	41	0	254803968	54	5986
2026-01-22 15:57:03.10	14.82	15.01	-40.4	-41.4	22.7	0.00e+00	92	41	0	255852544	54	6028
2026-01-22 15:57:04.11	14.74	15.11	-40.4	-41.4	22.5	0.00e+00	0	41	0	257949696	54	6004
2026-01-22 15:57:05.12	14.66	15.21	-40.4	-41.4	22.8	0.00e+00	0	41	0	260046848	54	5965
2026-01-22 15:57:06.13	14.59	15.31	-40.5	-41.5	22.7	0.00e+00	0	41	0	262144000	54	6042
2026-01-22 15:57:07.14	14.51	15.41	-40.3	-41.3	22.8	0.00e+00	0	41	0	264241152	54	5939
2026-01-22 15:57:08.15	14.43	15.51	-40.3	-41.3	22.9	0.00e+00	54	41	0	265289728	54	5907
2026-01-22 15:57:09.16	14.35	15.62	-40.2	-41.1	22.9	0.00e+00	0	41	0	267386880	54	5823
2026-01-22 15:57:10.16	14.27	15.72	-40.6	-41.6	22.5	0.00e+00	56	41	0	269484032	54	6145
2026-01-22 15:57:11.17	14.19	15.82	-40.5	-41.6	22.6	0.00e+00	0	41	0	271581184	54	6104
2026-01-22 15:57:12.18	14.11	15.92	-40.5	-41.5	22.6	0.00e+00	0	41	0	273678336	54	6055
2026-01-22 15:57:13.19	14.02	16.03	-40.6	-41.6	22.6	0.00e+00	33	41	0	274726912	54	6139
2026-01-22 15:57:14.20	13.94	16.13	-40.6	-41.7	22.5	0.00e+00	0	41	0	276824064	54	6193
2026-01-22 15:57:15.21	13.86	16.24	-40.7	-41.7	22.5	0.00e+00	86	41	0	278921216	54	6233
2026-01-22 15:57:16.22	13.78	16.34	-40.9	-42.0	22.3	0.00e+00	0	41	0	281018368	54	6396
2026-01-22 15:57:17.23	13.69	16.45	-41.0	-42.1	22.1	0.00e+00	92	41	0	283115520	54	6498
2026-01-22 15:57:18.24	13.61	16.55	-41.5	-42.6	21.9	0.00e+00	0	41	0	284164096	54	6910
2026-01-22 15:57:19.25	13.52	16.66	-40.7	-41.7	22.5	0.00e+00	0	41	0	286261248	54	6215
2026-01-22 15:57:20.26	13.43	16.77	-40.7	-41.8	22.5	0.00e+00	0	41	0	288358400	54	6263
2026-01-22 15:57:21.27	13.35	16.87	-40.7	-41.7	22.6	0.00e+00	0	41	0	290455552	54	6212
2026-01-22 15:57:22.27	13.26	16.98	-40.7	-41.7	22.6	0.00e+00	65	41	0	292552704	54	6183
2026-01-22 15:57:23.28	13.17	17.09	-40.6	-41.6	22.7	0.00e+00	0	41	0	293601280	54	6115
2026-01-22 15:57:24.29	13.08	17.19	-40.5	-41.4	22.7	0.00e+00	87	41	0	295698432	54	6024
2026-01-22 15:57:25.30	12.99	17.30	-40.3	-41.3	22.8	0.00e+00	0	41	0	297795584	54	5912
2026-01-22 15:57:26.31	12.90	17.41	-40.5	-41.5	22.7	0.00e+00	55	41	0	299892736	54	6053
2026-01-22 15:57:27.32	12.81	17.52	-40.3	-41.3	22.9	0.00e+00	0	41	0	301989888	54	5917
2026-01-22 15:57:28.33	12.72	17.63	-40.5	-41.5	22.8	0.00e+00	0	41	0	304087040	54	6056
2026-01-22 15:57:29.34	12.63	17.74	-40.2	-41.1	22.9	0.00e+00	41	41	0	305135616	54	5820
2026-01-22 15:57:30.35	12.54	17.85	-40.4	-41.4	22.8	0.00e+00	0	41	0	307232768	54	5975
2026-01-22 15:57:31.36	12.44	17.96	-40.5	-41.5	22.7	0.00e+00	76	41	0	309329920	54	6045
2026-01-22 15:57:32.37	12.35	18.07	-40.2	-41.2	23.0	0.00e+00	0	41	0	311427072	54	5835
2026-01-22 15:57:33.38	12.25	18.18	-40.2	-41.1	22.9	0.00e+00	86	41	0	313524224	54	5796
2026-01-22 15:57:34.39	12.16	18.30	-40.8	-41.8	22.6	0.00e+00	0	41	0	314572800	54	6287
2026-01-22 15:57:35.40	12.06	18.41	-40.7	-41.7	22.6	0.00e+00	0	41	0	316669952	54	6220
2026-01-22 15:57:36.41	11.96	18.52	-40.5	-41.5	22.8	0.00e+00	17	41	0	318767104	54	6052
2026-01-22 15:57:37.42	11.86	18.64	-40.4	-41.4	22.8	0.00e+00	0	41	0	320864256	54	5973
2026-01-22 15:57:38.42	11.77	18.75	-40.7	-41.7	22.9	0.00e+00	84	41	0	321912832	54	6175
2026-01-22 15:57:39.43	11.67	18.86	-40.6	-41.6	22.9	0.00e+00	0	41	0	324009984	54	6134
2026-01-22 15:57:40.44	11.57	18.98	-40.3	-41.2	22.9	0.00e+00	88	41	0	326107136	54	5865
2026-01-22 15:57:41.45	11.47	19.09	-40.4	-41.3	22.8	0.00e+00	0	41	0	328204288	54	5960
2026-01-22 15:57:42.46	11.36	19.21	-40.2	-41.1	23.1	0.00e+00	0	41	0	330301440	54	5817
2026-01-22 15:57:43.47	11.26	19.32	-40.2	-41.2	23.0	0.00e+00	0	41	0	332398592	54	5835
2026-01-22 15:57:44.48	11.16	19.44	-40.3	-41.2	23.0	0.00e+00	0	41	0	333447168	54	5863
2026-01-22 15:57:45.49	11.05	19.56	-40.3	-41.3	22.9	0.00e+00	77	41	0	335544320	54	5912
2026-01-22 15:57:46.50	10.95	19.68	-40.3	-41.2	22.9	0.00e+00	0	41	0	337641472	54	5887
2026-01-22 15:57:47.51	10.84	19.79	-40.7	-41.7	22.6	0.00e+00	81	41	0	339738624	54	6207
2026-01-22 15:57:48.52	10.73	19.91	-40.8	-41.8	22.5	0.00e+00	0	41	0	341835776	54	6285
2026-01-22 15:57:49.53	10.63	20.03	-40.9	-42.0	22.4	0.00e+00	0	41	0	342884352	54	6413
2026-01-22 15:57:50.54	10.52	20.15	-41.1	-42.2	22.2	0.00e+00	0	41	0	344981504	54	6544
2026-01-22 15:57:51.55	10.41	20.27	-41.2	-42.3	22.3	0.00e+00	0	41	0	347078656	54	6656
2026-01-22 15:57:52.56	10.30	20.39	-41.2	-42.3	22.2	0.00e+00	25	41	0	349175808	54	6629
2026-01-22 15:57:53.57	10.19	20.51	-41.4	-42.4	22.0	0.00e+00	0	41	0	351272960	54	6766
2026-01-22 15:57:54.58	10.07	20.63	-41.1	-42.1	22.2	0.00e+00	40	41	0	352321536	54	6495
2026-01-22 15:57:55.58	9.96	20.75	-41.3	-42.3	22.0	0.00e+00	0	41	0	354418688	54	6690
2026-01-22 15:57:56.59	9.85	20.87	-41.3	-42.4	21.9	0.00e+00	0	41	0	356515840	54	6696
2026-01-22 15:57:57.60	9.73	21.00	-41.3	-42.4	21.9	0.00e+00	0	41	0	358612992	54	6722
2026-01-22 15:57:58.61	9.62	21.12	-41.1	-42.2	22.1	0.00e+00	0	41	0	360710144	54	6581
2026-01-22 15:57:59.62	9.50	21.24	-41.1	-42.1	22.1	0.00e+00	0	41	0	361758720	54	6521
2026-01-22 15:58:00.63	9.38	21.37	-40.9	-41.9	22.4	0.00e+00	0	41	0	363855872	54	6350
2026-01-22 15:58:01.64	9.26	21.49	-40.8	-41.8	22.5	0.00e+00	74	41	0	365953024	54	6298
2026-01-22 15:58:02.64	9.14	21.61	-41.0	-42.0	22.4	0.00e+00	0	41	0	368050176	54	6424
2026-01-22 15:58:03.65	9.02	21.74	-41.3	-42.4	22.1	0.00e+00	49	41	0	370147328	54	6695
2026-01-22 15:58:04.66	8.90	21.87	-40.9	-41.9	22.5	0.00e+00	0	41	0	371195904	54	6336
2026-01-22 15:58:05.67	8.78	21.99	-41.2	-42.3	22.2	0.00e+00	0	41	0	373293056	54	6644
2026-01-22 15:58:06.68	8.66	22.12	-41.1	-42.2	22.3	0.00e+00	73	41	0	375390208	54	6540
2026-01-22 15:58:07.69	8.53	22.25	-41.1	-42.1	22.4	0.00e+00	0	41	0	377487360	54	6480
2026-01-22 15:58:08.70	8.40	22.37	-41.4	-42.5	22.0	0.00e+00	82	41	0	379584512	54	6799
2026-01-22 15:58:09.71	8.28	22.50	-41.7	-42.8	21.8	0.00e+00	0	41	0	380633088	54	7023
2026-01-22 15:58:10.72	8.15	22.63	-41.7	-42.7	21.9	0.00e+00	67	41	0	382730240	56	6242
2026-01-22 15:58:11.73	8.02	22.76	-41.6	-42.6	22.0	0.00e+00	0	41	0	384827392	56	6166
2026-01-22 15:58:12.74	7.89	22.89	-41.4	-42.5	22.3	0.00e+00	0	41	0	386924544	56	6064
2026-01-22 15:58:13.75	7.76	23.02	-41.5	-42.5	22.0	0.00e+00	0	41	0	389021696	56	6082
2026-01-22 15:58:14.76	7.62	23.15	-41.6	-42.7	22.0	0.00e+00	0	41	0	390070272	56	6179
2026-01-22 15:58:15.77	7.49	23.28	-41.4	-42.5	22.1	0.00e+00	89	41	0	392167424	56	6063
2026-01-22 15:58:16.78	7.36	23.41	-41.4	-42.5	22.2	0.00e+00	0	41	0	394264576	56	6047
2026-01-22 15:58:17.79	7.22	23.55	-41.5	-42.6	22.1	0.00e+00	86	41	0	396361728	56	6128
2026-01-22 15:58:18.80	7.08	23.68	-41.4	-42.5	22.2	0.00e+00	0	41	0	398458880	56	6083
2026-01-22 15:58:19.81	6.94	23.81	-41.5	-42.6	22.0	0.00e+00	0	41	0	400556032	56	6167
2026-01-22 15:58:20.82	6.80	23.95	-41.6	-42.7	22.1	0.00e+00	0	41	0	401604608	56	6192
2026-01-22 15:58:21.83	6.66	24.08	-41.7	-42.8	21.8	0.00e+00	0	41	0	403701760	56	6307
2026-01-22 15:58:22.84	6.52	24.21	-41.5	-42.6	21.9	0.00e+00	84	41	0	405798912	56	6115
2026-01-22 15:58:23.85	6.38	24.35	-41.8	-42.9	21.8	0.00e+00	0	41	0	407896064	56	6378
2026-01-22 15:58:24.86	6.23	24.48	-41.7	-42.8	21.8	0.00e+00	87	41	0	409993216	56	6270
2026-01-22 15:58:25.87	6.09	24.62	-41.7	-42.9	21.9	0.00e+00	0	41	0	411041792	56	6323
2026-01-22 15:58:26.88	5.94	24.76	-41.7	-42.8	21.8	0.00e+00	0	41	0	413138944	56	6284
2026-01-22 15:58:27.88	5.79	24.89	-41.9	-43.1	21.7	0.00e+00	0	41	0	415236096	56	6488
2026-01-22 15:58:28.89	5.64	25.03	-41.7	-42.8	21.5	0.00e+00	0	41	0	417333248	56	6314
2026-01-22 15:58:29.90	5.49	25.17	-41.6	-42.7	21.9	0.00e+00	81	41	0	419430400	56	6240
2026-01-22 15:58:30.91	5.34	25.31	-41.8	-42.9	21.7	0.00e+00	0	41	0	420478976	56	6347
2026-01-22 15:58:31.92	5.19	25.45	-42.0	-43.2	21.6	0.00e+00	89	41	0	422576128	56	6540
2026-01-22 15:58:32.93	5.03	25.59	-41.7	-42.8	21.8	0.00e+00	0	41	0	424673280	56	6288
2026-01-22 15:58:33.94	4.87	25.73	-41.4	-42.5	22.0	0.00e+00	0	41	0	426770432	56	6066
2026-01-22 15:58:34.95	4.71	25.87	-41.3	-42.4	22.3	0.00e+00	0	41	0	428867584	56	5972
2026-01-22 15:58:35.96	4.55	26.01	-41.5	-42.6	22.2	0.00e+00	0	41	0	429916160	56	6123
2026-01-22 15:58:36.97	4.39	26.15	-41.4	-42.4	22.0	0.00e+00	0	41	0	432013312	56	5982
2026-01-22 15:58:37.98	4.23	26.29	-41.3	-42.4	22.2	0.00e+00	0	41	0	434110464	56	5969
2026-01-22 15:58:38.99	4.07	26.44	-41.6	-42.7	22.0	0.00e+00	75	41	0	436207616	56	6177
2026-01-22 15:58:40.00	3.90	26.58	-42.1	-43.2	21.4	0.00e+00	0	41	0	438304768	56	6612
2026-01-22 15:58:41.01	3.73	26.72	-42.0	-43.1	21.2	0.00e+00	0	41	0	439353344	56	6475
2026-01-22 15:58:42.02	3.57	26.87	-42.3	-43.4	21.2	0.00e+00	0	41	0	441450496	56	6734
2026-01-22 15:58:43.03	3.40	27.01	-42.3	-43.4	21.3	0.00e+00	0	41	0	443547648	56	6738
2026-01-22 15:58:44.04	3.22	27.16	-42.1	-43.2	21.7	0.00e+00	9	41	0	445644800	56	6596
2026-01-22 15:58:45.05	3.05	27.30	-42.2	-43.3	21.5	0.00e+00	0	41	0	447741952	56	6665
2026-01-22 15:58:46.06	2.87	27.45	-41.5	-42.6	22.0	0.00e+00	86	41	0	448790528	56	6133
2026-01-22 15:58:47.07	2.70	27.59	-41.7	-42.8	21.8	0.00e+00	0	41	0	450887680	56	6254
2026-01-22 15:58:48.08	2.52	27.74	-41.5	-42.5	22.1	0.00e+00	92	41	0	452984832	56	6095
2026-01-22 15:58:49.09	2.34	27.89	-41.9	-43.0	21.8	0.00e+00	0	41	0	455081984	56	6405
2026-01-22 15:58:50.10	2.16	28.04	-42.0	-43.2	21.1	0.00e+00	0	41	0	457179136	56	6546
2026-01-22 15:58:51.11	1.97	28.18	-41.8	-43.0	21.6	0.00e+00	0	41	0	458227712	56	6409
2026-01-22 15:58:52.11	1.79	28.33	-41.7	-42.8	22.0	0.00e+00	0	41	0	460324864	56	6296
2026-01-22 15:58:53.13	1.60	28.48	-41.6	-42.7	22.1	0.00e+00	73	41	0	462422016	56	6232
2026-01-22 15:58:54.13	1.42	28.63	-41.3	-42.4	22.1	0.00e+00	1	41	0	464519168	56	5981
2026-01-22 15:58:55.15	1.22	28.78	-41.3	-42.3	22.2	0.00e+00	96	41	0	466616320	56	5944
2026-01-22 15:58:56.16	1.03	28.93	-41.2	-42.3	22.2	0.00e+00	0	41	0	468713472	56	5919
2026-01-22 15:58:57.16	0.84	29.08	-41.4	-42.4	22.2	0.00e+00	0	41	0	469762048	56	6021
2026-01-22 15:58:58.17	0.64	29.23	-41.3	-42.3	22.2	0.00e+00	0	41	0	471859200	56	5952
2026-01-22 15:58:59.19	0.44	29.39	-41.2	-42.3	22.4	0.00e+00	0	41	0	473956352	56	5907
2026-01-22 15:59:00.19	0.24	29.54	-41.4	-42.4	22.1	0.00e+00	3	41	0	476053504	56	6033
2026-01-22 15:59:01.20	0.04	29.69	-41.6	-42.7	22.0	0.00e+00	0	41	0	478150656	56	6203
2026-01-22 15:59:02.21	359.84	29.85	-42.0	-43.1	21.5	0.00e+00	90	41	0	479199232	56	6538
2026-01-22 15:59:03.23	359.63	30.00	-42.3	-43.5	21.3	0.00e+00	0	41	0	481296384	56	6844
2026-01-22 15:59:04.24	359.42	30.15	-42.2	-43.3	21.3	0.00e+00	0	41	0	483393536	56	6674
2026-01-22 15:59:05.25	359.21	30.31	-42.4	-43.5	21.1	0.00e+00	0	41	0	485490688	56	6839
2026-01-22 15:59:06.26	359.00	30.46	-42.3	-43.4	21.1	0.00e+00	0	41	0	487587840	56	6733
2026-01-22 15:59:07.27	358.79	30.62	-42.5	-43.7	21.3	0.00e+00	4	41	0	488636416	56	6990
2026-01-22 15:59:08.28	358.57	30.77	-42.5	-43.7	21.0	0.00e+00	0	41	0	490733568	56	6959
2026-01-22 15:59:09.29	358.35	30.93	-42.8	-44.0	20.8	0.00e+00	77	42	0	492830720	58	6451
2026-01-22 15:59:10.30	358.13	31.09	-42.5	-43.8	21.0	0.00e+00	0	41	0	494927872	58	6252
2026-01-22 15:59:11.31	357.91	31.24	-42.4	-43.5	20.8	0.00e+00	0	41	0	497025024	58	6086
2026-01-22 15:59:12.32	357.68	31.40	-42.4	-43.6	21.1	0.00e+00	0	41	0	498073600	58	6119
2026-01-22 15:59:13.33	357.46	31.56	-42.8	-44.0	20.9	0.00e+00	0	41	0	500170752	58	6417
2026-01-22 15:59:14.34	357.23	31.72	-43.4	-44.7	20.1	0.00e+00	0	41	0	502267904	58	6982
2026-01-22 15:59:15.35	357.00	31.87	-43.5	-44.9	19.9	0.00e+00	0	41	0	504365056	58	7119
2026-01-22 15:59:16.36	356.76	32.03	-43.5	-44.9	20.2	0.00e+00	86	41	0	506462208	60	6328
2026-01-22 15:59:17.37	356.53	32.19	-43.6	-45.1	19.8	0.00e+00	0	41	0	507510784	60	6493
2026-01-22 15:59:18.38	356.29	32.35	-43.6	-45.0	20.2	0.00e+00	0	41	0	509607936	60	6438
2026-01-22 15:59:19.39	356.05	32.51	-43.0	-44.3	20.7	0.00e+00	0	42	0	511705088	60	5934
2026-01-22 15:59:20.40	355.80	32.67	-42.3	-43.4	21.4	0.00e+00	0	41	0	513802240	58	6029
2026-01-22 15:59:21.40	355.56	32.83	-42.1	-43.2	21.4	0.00e+00	0	41	0	515899392	58	5890
2026-01-22 15:59:22.41	355.31	32.99	-42.1	-43.2	21.9	0.00e+00	0	41	0	516947968	58	5895
2026-01-22 15:59:23.42	355.06	33.15	-42.2	-43.3	21.5	0.00e+00	0	41	0	519045120	56	6643
2026-01-22 15:59:24.43	354.81	33.31	-42.6	-43.8	21.1	0.00e+00	0	41	0	521142272	56	7009
2026-01-22 15:59:25.44	354.55	33.47	-42.8	-44.1	20.8	0.00e+00	27	41	0	523239424	58	6473
2026-01-22 15:59:26.45	354.30	33.63	-42.9	-44.2	20.6	0.00e+00	0	41	0	525336576	58	6549
2026-01-22 15:59:27.46	354.03	33.79	-43.2	-44.5	20.5	0.00e+00	0	41	0	526385152	58	6833
2026-01-22 15:59:28.47	353.77	33.95	-43.0	-44.3	20.6	0.00e+00	0	41	0	528482304	58	6633
2026-01-22 15:59:29.48	353.51	34.11	-42.9	-44.2	20.7	0.00e+00	0	41	0	530579456	58	6595
2026-01-22 15:59:30.49	353.24	34.27	-42.4	-43.6	21.2	0.00e+00	0	41	0	532676608	58	6120
2026-01-22 15:59:31.50	352.97	34.43	-43.1	-44.3	20.6	0.00e+00	0	41	0	534773760	58	6682
2026-01-22 15:59:32.51	352.69	34.60	-43.0	-44.3	20.5	0.00e+00	84	41	0	536870912	58	6631
2026-01-22 15:59:33.52	352.41	34.76	-43.7	-45.1	20.0	0.00e+00	0	41	0	537919488	58	7320
2026-01-22 15:59:34.53	352.13	34.92	-44.2	-45.8	19.5	0.00e+00	0	42	0	540016640	60	7047
2026-01-22 15:59:35.54	351.85	35.08	-44.4	-46.0	19.0	0.00e+00	0	41	0	542113792	60	7237
2026-01-22 15:59:36.55	351.57	35.24	-45.1	-46.9	18.3	0.00e+00	0	41	0	544210944	60	8023
2026-01-22 15:59:37.56	351.28	35.40	-45.0	-46.8	18.3	0.00e+00	81	41	0	546308096	60	7943
2026-01-22 15:59:38.57	350.99	35.57	-44.6	-46.4	18.7	0.00e+00	0	41	0	547356672	60	7527
2026-01-22 15:59:39.58	350.69	35.73	-44.5	-46.2	19.0	0.00e+00	85	42	0	549453824	60	7394
2026-01-22 15:59:40.59	350.40	35.89	-43.5	-44.9	20.2	0.00e+00	0	42	0	551550976	60	6342
2026-01-22 15:59:41.60	350.10	36.05	-42.8	-44.0	20.9	0.00e+00	0	41	0	553648128	58	6460
2026-01-22 15:59:42.61	349.79	36.21	-42.1	-43.2	21.6	0.00e+00	0	42	0	555745280	58	5873
2026-01-22 15:59:43.61	349.49	36.37	-41.8	-42.9	21.9	0.00e+00	0	41	0	556793856	56	6372
2026-01-22 15:59:44.62	349.18	36.53	-41.7	-42.8	21.9	0.00e+00	81	41	0	558891008	56	6284
2026-01-22 15:59:45.63	348.87	36.70	-41.8	-42.9	21.8	0.00e+00	0	41	0	560988160	56	6387
2026-01-22 15:59:46.64	348.55	36.86	-42.0	-43.2	21.7	0.00e+00	75	42	0	563085312	56	6561
2026-01-22 15:59:47.65	348.23	37.02	-42.1	-43.2	21.5	0.00e+00	0	41	0	565182464	56	6585
2026-01-22 15:59:48.66	347.91	37.18	-42.2	-43.4	21.4	0.00e+00	17	42	0	566231040	56	6722
2026-01-22 15:59:49.67	347.59	37.34	-42.3	-43.5	21.4	0.00e+00	0	41	0	568328192	56	6785
2026-01-22 15:59:50.68	347.26	37.50	-42.4	-43.6	21.3	0.00e+00	0	41	0	570425344	56	6921
2026-01-22 15:59:51.69	346.93	37.66	-42.6	-43.9	21.0	0.00e+00	73	41	0	572522496	56	7111
2026-01-22 15:59:52.70	346.59	37.82	-43.0	-44.4	20.4	0.00e+00	0	41	0	574619648	58	6740
2026-01-22 15:59:53.71	346.25	37.97	-42.7	-44.0	20.9	0.00e+00	83	41	0	575668224	58	6424
2026-01-22 15:59:54.72	345.91	38.13	-43.3	-44.7	20.3	0.00e+00	0	41	0	577765376	58	6985
2026-01-22 15:59:55.73	345.57	38.29	-43.4	-44.8	20.1	0.00e+00	57	41	0	579862528	58	7081
2026-01-22 15:59:56.74	345.22	38.45	-43.9	-45.4	19.6	0.00e+00	0	41	0	581959680	58	7575
2026-01-22 15:59:57.75	344.87	38.61	-43.9	-45.4	19.6	0.00e+00	0	41	0	584056832	60	6757
2026-01-22 15:59:58.76	344.51	38.76	-43.7	-45.2	20.0	0.00e+00	0	41	0	585105408	60	6558
2026-01-22 15:59:59.77	344.15	38.92	-43.0	-44.3	20.8	0.00e+00	0	41	0	587202560	60	5929
2026-01-22 16:00:00.77	343.79	39.07	-42.2	-43.4	21.9	0.00e+00	86	41	0	589299712	58	5975
2026-01-22 16:00:01.78	343.43	39.23	-41.4	-42.4	22.3	0.00e+00	0	42	0	591396864	56	6014
2026-01-22 16:00:02.79	343.06	39.38	-42.1	-43.2	21.7	0.00e+00	85	42	0	593494016	56	6566
2026-01-22 16:00:03.80	342.69	39.53	-42.9	-44.1	20.7	0.00e+00	0	42	0	594542592	58	6538
2026-01-22 16:00:04.81	342.31	39.69	-44.1	-45.7	19.2	0.00e+00	0	42	0	596639744	60	6976
2026-01-22 16:00:05.82	341.93	39.84	-45.2	-47.1	17.9	0.00e+00	0	41	0	598736896	60	8189
2026-01-22 16:00:06.83	341.55	39.99	-44.4	-46.0	19.1	0.00e+00	0	42	0	600834048	60	7224
2026-01-22 16:00:07.84	341.16	40.14	-43.5	-44.9	20.2	0.00e+00	27	41	0	602931200	60	6345
2026-01-22 16:00:08.85	340.77	40.29	-42.1	-43.3	21.5	0.00e+00	0	42	0	605028352	58	5921
2026-01-22 16:00:09.86	340.38	40.44	-41.5	-42.5	22.2	0.00e+00	80	42	0	606076928	56	6044
2026-01-22 16:00:10.87	339.98	40.59	-41.5	-42.5	22.1	0.00e+00	0	42	0	608174080	56	6054
2026-01-22 16:00:11.88	339.58	40.73	-41.6	-42.6	21.9	0.00e+00	0	42	0	610271232	56	6127
2026-01-22 16:00:12.89	339.17	40.88	-42.4	-43.5	21.1	0.00e+00	0	42	0	612368384	56	6823
2026-01-22 16:00:13.90	338.76	41.02	-42.4	-43.7	21.1	0.00e+00	0	42	0	614465536	58	6189
2026-01-22 16:00:14.91	338.35	41.17	-42.4	-43.6	21.3	0.00e+00	91	42	0	615514112	58	6158
2026-01-22 16:00:15.92	337.94	41.31	-42.0	-43.2	21.6	0.00e+00	0	42	0	617611264	58	5891
2026-01-22 16:00:16.93	337.52	41.45	-41.7	-42.8	21.9	0.00e+00	87	42	0	619708416	58	5616
2026-01-22 16:00:17.94	337.09	41.59	-41.1	-42.1	22.5	0.00e+00	0	42	0	621805568	56	5809
2026-01-22 16:00:18.94	336.67	41.73	-41.4	-42.5	22.1	0.00e+00	0	42	0	623902720	56	6060
2026-01-22 16:00:19.95	336.24	41.86	-41.7	-42.8	22.0	0.00e+00	0	42	0	624951296	56	6313
2026-01-22 16:00:20.96	335.80	42.00	-41.3	-42.4	22.4	0.00e+00	0	41	0	627048448	56	5983
2026-01-22 16:00:21.97	335.37	42.13	-40.6	-41.6	22.9	0.00e+00	57	42	0	629145600	54	6135
2026-01-22 16:00:22.98	334.92	42.27	-40.1	-41.0	23.3	0.00e+00	0	42	0	631242752	54	5719
2026-01-22 16:00:23.99	334.48	42.40	-40.2	-41.1	23.2	0.00e+00	89	42	0	633339904	54	5825
2026-01-22 16:00:25.00	334.03	42.53	-40.1	-41.0	23.4	0.00e+00	0	42	0	634388480	54	5748
2026-01-22 16:00:26.01	333.58	42.66	-40.7	-41.6	22.7	0.00e+00	36	42	0	636485632	54	6153
2026-01-22 16:00:27.02	333.12	42.78	-41.3	-42.3	22.2	0.00e+00	0	42	0	638582784	54	6683
2026-01-22 16:00:28.02	332.66	42.91	-41.9	-43.1	21.7	0.00e+00	0	42	0	640679936	56	6481
2026-01-22 16:00:29.03	332.20	43.03	-42.1	-43.2	21.9	0.00e+00	48	42	0	642777088	56	6607
2026-01-22 16:00:30.04	331.73	43.15	-41.6	-42.7	22.1	0.00e+00	0	42	0	643825664	56	6207
2026-01-22 16:00:31.05	331.26	43.27	-40.2	-41.1	23.4	0.00e+00	65	42	0	645922816	54	5779
2026-01-22 16:00:32.06	330.79	43.39	-39.8	-40.7	23.6	0.00e+00	0	42	0	648019968	54	5530
2026-01-22 16:00:33.07	330.31	43.51	-40.2	-41.1	23.0	0.00e+00	91	42	0	650117120	54	5797
2026-01-22 16:00:34.08	329.83	43.62	-40.6	-41.6	22.9	0.00e+00	0	41	0	652214272	54	6108
2026-01-22 16:00:35.09	329.34	43.74	-40.1	-41.0	23.3	0.00e+00	0	42	0	653262848	54	5757
2026-01-22 16:00:36.10	328.85	43.85	-39.4	-40.2	23.9	0.00e+00	0	42	0	655360000	52	5872
2026-01-22 16:00:37.11	328.36	43.96	-39.4	-40.2	24.0	0.00e+00	0	41	0	657457152	52	5856
2026-01-22 16:00:38.12	327.87	44.06	-39.9	-40.8	23.4	0.00e+00	70	42	0	659554304	52	6302
2026-01-22 16:00:39.13	327.37	44.17	-40.9	-41.9	22.7	0.00e+00	0	41	0	661651456	54	6371
2026-01-22 16:00:40.14	326.87	44.27	-41.3	-42.4	22.2	0.00e+00	67	41	0	662700032	54	6761
2026-01-22 16:00:41.15	326.36	44.37	-42.1	-43.3	21.4	0.00e+00	0	42	0	664797184	56	6633
2026-01-22 16:00:42.16	325.85	44.47	-42.7	-44.0	20.9	0.00e+00	0	42	0	666894336	56	7207
2026-01-22 16:00:43.16	325.35	44.56	-43.3	-44.7	20.0	0.00e+00	0	42	0	668991488	58	7003
2026-01-22 16:00:44.18	324.83	44.66	-43.7	-45.2	19.8	0.00e+00	0	42	0	671088640	60	6545
2026-01-22 16:00:45.19	324.31	44.75	-43.6	-45.1	19.8	0.00e+00	15	42	0	673185792	60	6477
2026-01-22 16:00:46.20	323.79	44.84	-44.0	-45.6	19.6	0.00e+00	30	42	0	674234368	60	6893
2026-01-22 16:00:47.21	323.27	44.92	-43.3	-44.8	20.2	0.00e+00	92	41	0	676331520	60	6257
2026-01-22 16:00:48.22	322.74	45.00	-42.1	-43.2	21.6	0.00e+00	0	42	0	678428672	58	5895
2026-01-22 16:00:49.23	322.21	45.09	-41.4	-42.4	22.3	0.00e+00	0	42	0	680525824	56	6014
2026-01-22 16:00:50.24	321.68	45.16	-40.3	-41.2	23.0	0.00e+00	0	42	0	682622976	54	5833
2026-01-22 16:00:51.25	321.15	45.24	-40.6	-41.5	23.0	0.00e+00	33	42	0	683671552	54	6063
2026-01-22 16:00:52.26	320.61	45.31	-41.0	-41.9	22.6	0.00e+00	88	42	0	685768704	54	6389
2026-01-22 16:00:53.27	320.07	45.38	-41.5	-42.5	21.9	0.00e+00	0	42	0	687865856	54	6825
2026-01-22 16:00:54.28	319.53	45.45	-41.0	-41.9	22.6	0.00e+00	91	42	0	689963008	54	6385
2026-01-22 16:00:55.29	318.98	45.52	-40.8	-41.7	22.8	0.00e+00	0	42	0	692060160	54	6227
2026-01-22 16:00:56.30	318.44	45.58	-41.7	-42.7	22.0	0.00e+00	0	42	0	693108736	54	6990
2026-01-22 16:00:57.31	317.89	45.64	-43.3	-44.7	20.0	0.00e+00	0	42	0	695205888	58	6984
2026-01-22 16:00:58.32	317.34	45.69	-44.3	-45.9	19.1	0.00e+00	0	42	0	697303040	60	7166
2026-01-22 16:00:59.33	316.79	45.75	-43.8	-45.3	20.0	0.00e+00	65	42	0	699400192	60	6647
2026-01-22 16:01:00.34	316.23	45.80	-42.7	-44.0	21.3	0.00e+00	0	42	0	701497344	58	6395
2026-01-22 16:01:01.35	315.68	45.85	-42.0	-43.0	21.8	0.00e+00	89	42	0	702545920	58	5748
2026-01-22 16:01:02.36	315.12	45.89	-41.5	-42.5	22.2	0.00e+00	0	42	0	704643072	56	6051
2026-01-22 16:01:03.37	314.56	45.93	-41.8	-42.9	21.8	0.00e+00	0	42	0	706740224	56	6355
2026-01-22 16:01:04.38	314.00	45.97	-42.4	-43.5	21.4	0.00e+00	0	42	0	708837376	56	6837
2026-01-22 16:01:05.39	313.44	46.01	-42.1	-43.3	21.6	0.00e+00	0	42	0	710934528	56	6617
2026-01-22 16:01:06.39	312.88	46.04	-42.1	-43.2	21.7	0.00e+00	0	42	0	711983104	56	6572
2026-01-22 16:01:07.40	312.32	46.07	-42.3	-43.4	21.5	0.00e+00	0	42	0	714080256	56	6726
2026-01-22 16:01:08.41	311.75	46.10	-42.9	-44.1	21.0	0.00e+00	21	42	0	716177408	56	7327
2026-01-22 16:01:09.42	311.19	46.12	-43.4	-44.7	20.3	0.00e+00	0	42	0	718274560	58	6993
2026-01-22 16:01:10.43	310.62	46.14	-43.5	-45.0	20.2	0.00e+00	91	42	0	720371712	58	7172
2026-01-22 16:01:11.44	310.05	46.16	-43.5	-44.9	20.3	0.00e+00	0	42	0	721420288	58	7149
2026-01-22 16:01:12.45	309.49	46.17	-43.3	-44.7	20.4	0.00e+00	0	42	0	723517440	60	6210
2026-01-22 16:01:13.46	308.92	46.19	-42.4	-43.6	21.4	0.00e+00	0	42	0	725614592	58	6110
2026-01-22 16:01:14.47	308.35	46.19	-42.1	-43.3	21.7	0.00e+00	0	42	0	727711744	58	5905
2026-01-22 16:01:15.48	307.78	46.20	-42.6	-43.8	21.2	0.00e+00	22	42	0	729808896	56	7044
2026-01-22 16:01:16.49	307.21	46.20	-42.2	-43.3	21.6	0.00e+00	0	42	0	730857472	56	6684
2026-01-22 16:01:17.50	306.64	46.20	-42.0	-43.1	21.8	0.00e+00	84	42	0	732954624	56	6520
2026-01-22 16:01:18.51	306.07	46.20	-42.2	-43.3	21.7	0.00e+00	0	42	0	735051776	56	6668
2026-01-22 16:01:19.52	305.50	46.19	-42.2	-43.4	21.5	0.00e+00	0	42	0	737148928	56	6698
2026-01-22 16:01:20.52	304.94	46.18	-42.4	-43.5	21.5	0.00e+00	0	42	0	739246080	56	6799
2026-01-22 16:01:21.53	304.37	46.17	-41.2	-42.2	22.6	0.00e+00	0	42	0	741343232	56	5866
2026-01-22 16:01:22.54	303.80	46.15	-40.1	-40.9	23.4	0.00e+00	65	42	0	742391808	54	5691
2026-01-22 16:01:23.55	303.24	46.13	-40.1	-40.9	23.1	0.00e+00	0	42	0	744488960	54	5689
2026-01-22 16:01:24.56	302.67	46.11	-41.4	-42.4	22.2	0.00e+00	84	42	0	746586112	54	6706
2026-01-22 16:01:25.57	302.10	46.08	-42.4	-43.6	21.5	0.00e+00	0	42	0	748683264	56	6880
2026-01-22 16:01:26.58	301.54	46.05	-43.6	-45.0	20.0	0.00e+00	0	42	0	750780416	58	7188
2026-01-22 16:01:27.59	300.98	46.02	-43.3	-44.6	20.6	0.00e+00	0	42	0	751828992	60	6104
2026-01-22 16:01:28.60	300.41	45.98	-43.0	-44.2	20.8	0.00e+00	0	42	0	753926144	60	5877
2026-01-22 16:01:29.60	299.86	45.95	-42.4	-43.5	21.4	0.00e+00	73	42	0	756023296	58	6078
2026-01-22 16:01:30.61	299.30	45.91	-42.9	-44.0	20.9	0.00e+00	0	42	0	758120448	58	6457
2026-01-22 16:01:31.62	298.74	45.86	-42.6	-43.8	21.2	0.00e+00	87	42	0	759169024	58	6290
2026-01-22 16:01:32.63	298.18	45.82	-43.0	-44.2	20.7	0.00e+00	0	42	0	761266176	58	6604
2026-01-22 16:01:33.64	297.63	45.77	-43.5	-44.9	20.1	0.00e+00	0	42	0	763363328	58	7149
2026-01-22 16:01:34.65	297.08	45.71	-44.6	-46.2	18.8	0.00e+00	0	42	0	765460480	60	7422
2026-01-22 16:01:35.65	296.53	45.66	-44.5	-46.1	19.5	0.00e+00	0	42	0	767557632	60	7332
2026-01-22 16:01:36.66	295.98	45.60	-44.5	-46.2	19.0	0.00e+00	0	42	0	769654784	60	7339
2026-01-22 16:01:37.67	295.43	45.54	-44.1	-45.6	19.6	0.00e+00	0	42	0	770703360	60	6912
2026-01-22 16:01:38.68	294.89	45.47	-43.5	-44.8	20.6	0.00e+00	74	42	0	772800512	60	6282
2026-01-22 16:01:39.69	294.35	45.41	-42.1	-43.2	21.5	0.00e+00	0	41	0	774897664	58	5842
2026-01-22 16:01:40.70	293.81	45.34	-42.0	-43.0	22.0	0.00e+00	90	42	0	776994816	56	6462
2026-01-22 16:01:41.71	293.27	45.27	-42.7	-43.9	21.2	0.00e+00	0	42	0	779091968	58	6343
2026-01-22 16:01:42.72	292.73	45.19	-43.6	-44.9	20.3	0.00e+00	0	42	0	780140544	58	7103
2026-01-22 16:01:43.73	292.20	45.11	-43.4	-44.6	20.6	0.00e+00	0	42	0	782237696	60	6131
2026-01-22 16:01:44.74	291.67	45.03	-41.8	-42.9	21.9	0.00e+00	0	42	0	784334848	58	5634
2026-01-22 16:01:45.75	291.14	44.95	-40.9	-41.8	22.9	0.00e+00	92	42	0	786432000	56	5596
2026-01-22 16:01:46.76	290.62	44.87	-41.4	-42.5	22.4	0.00e+00	0	42	0	788529152	54	6773
2026-01-22 16:01:47.77	290.09	44.78	-41.0	-41.9	22.8	0.00e+00	91	42	0	789577728	54	6369
2026-01-22 16:01:48.77	289.58	44.69	-41.5	-42.6	22.3	0.00e+00	0	42	0	791674880	54	6849
2026-01-22 16:01:49.79	289.06	44.60	-41.4	-42.4	22.3	0.00e+00	0	42	0	793772032	54	6750
2026-01-22 16:01:50.79	288.55	44.50	-42.0	-43.0	21.8	0.00e+00	0	42	0	795869184	56	6454
2026-01-22 16:01:51.80	288.04	44.41	-42.2	-43.4	21.6	0.00e+00	0	42	0	797966336	56	6707
2026-01-22 16:01:52.81	287.53	44.31	-42.7	-44.0	21.1	0.00e+00	0	42	0	799014912	58	6393
2026-01-22 16:01:53.82	287.03	44.20	-42.4	-43.6	21.4	0.00e+00	0	42	0	801112064	58	6136
2026-01-22 16:01:54.83	286.53	44.10	-42.2	-43.3	21.8	0.00e+00	90	42	0	803209216	58	5937
2026-01-22 16:01:55.84	286.03	43.99	-41.9	-43.0	21.8	0.00e+00	0	42	0	805306368	56	6406
2026-01-22 16:01:56.85	285.54	43.89	-42.2	-43.4	22.1	0.00e+00	0	42	0	807403520	56	6709
2026-01-22 16:01:57.86	285.05	43.78	-41.4	-42.4	22.4	0.00e+00	0	42	0	808452096	56	6011
2026-01-22 16:01:58.87	284.56	43.66	-40.6	-41.5	23.0	0.00e+00	0	42	0	810549248	54	6092
2026-01-22 16:01:59.88	284.08	43.55	-40.2	-41.1	23.3	0.00e+00	0	42	0	812646400	54	5810
2026-01-22 16:02:00.89	283.60	43.43	-40.0	-40.9	23.5	0.00e+00	0	42	0	814743552	54	5678
2026-01-22 16:02:01.89	283.13	43.32	-40.6	-41.6	22.8	0.00e+00	92	42	0	816840704	54	6135
2026-01-22 16:02:02.90	282.65	43.20	-41.3	-42.4	22.1	0.00e+00	0	42	0	817889280	54	6740
2026-01-22 16:02:03.91	282.18	43.08	-42.1	-43.3	21.5	0.00e+00	0	42	0	819986432	56	6625
2026-01-22 16:02:04.92	281.72	42.95	-41.7	-42.8	22.6	0.00e+00	0	42	0	822083584	56	6296
2026-01-22 16:02:05.93	281.26	42.83	-40.5	-41.5	23.1	0.00e+00	0	42	0	824180736	54	6050
2026-01-22 16:02:06.94	280.80	42.70	-39.8	-40.6	23.7	0.00e+00	57	42	0	826277888	52	6137
2026-01-22 16:02:07.95	280.34	42.57	-39.9	-40.8	23.5	0.00e+00	0	42	0	827326464	52	6261
2026-01-22 16:02:08.96	279.89	42.44	-40.6	-41.5	23.0	0.00e+00	89	42	0	829423616	52	6834
2026-01-22 16:02:09.97	279.44	42.31	-39.9	-40.8	23.4	0.00e+00	0	42	0	831520768	54	5589
2026-01-22 16:02:10.98	279.00	42.18	-39.6	-40.4	23.9	0.00e+00	0	42	0	833617920	52	6027
2026-01-22 16:02:11.99	278.56	42.04	-39.0	-39.8	24.0	0.00e+00	0	42	0	835715072	52	5602
2026-01-22 16:02:13.00	278.12	41.91	-39.5	-40.4	23.9	0.00e+00	0	42	0	837812224	52	5971
2026-01-22 16:02:14.01	277.69	41.77	-38.9	-39.8	24.2	0.00e+00	57	42	0	838860800	52	5568
2026-01-22 16:02:15.02	277.26	41.63	-38.3	-39.1	24.9	0.00e+00	0	42	0	840957952	50	5763
2026-01-22 16:02:16.03	276.83	41.49	-37.6	-38.4	25.2	0.00e+00	89	42	0	843055104	48	5967
2026-01-22 16:02:17.04	276.41	41.35	-37.4	-38.1	25.4	0.00e+00	0	42	0	845152256	48	5823
2026-01-22 16:02:18.05	275.99	41.21	-37.4	-38.1	25.2	0.00e+00	92	42	0	847249408	48	5782
2026-01-22 16:02:19.06	275.58	41.07	-37.6	-38.3	25.2	0.00e+00	0	42	0	848297984	48	5928
2026-01-22 16:02:20.07	275.17	40.92	-37.6	-38.4	25.1	0.00e+00	0	42	0	850395136	48	5987
2026-01-22 16:02:21.07	274.76	40.78	-38.3	-39.1	24.7	0.00e+00	0	42	0	852492288	48	6484
2026-01-22 16:02:22.08	274.36	40.63	-38.2	-39.0	24.8	0.00e+00	0	42	0	854589440	48	6399
2026-01-22 16:02:23.09	273.96	40.48	-38.3	-39.1	24.7	0.00e+00	70	42	0	856686592	48	6494
2026-01-22 16:02:24.10	273.57	40.34	-38.4	-39.2	24.7	0.00e+00	0	42	0	857735168	48	6563
2026-01-22 16:02:25.11	273.17	40.19	-38.8	-39.7	24.3	0.00e+00	73	42	0	859832320	50	6175
2026-01-22 16:02:26.12	272.78	40.04	-39.0	-39.8	24.3	0.00e+00	0	42	0	861929472	50	6303
2026-01-22 16:02:27.13	272.40	39.88	-39.0	-39.8	24.3	0.00e+00	0	42	0	864026624	50	6300
2026-01-22 16:02:28.14	272.02	39.73	-39.7	-40.5	23.7	0.00e+00	1	42	0	866123776	50	6832
2026-01-22 16:02:29.15	271.64	39.58	-40.5	-41.5	23.1	0.00e+00	0	42	0	867172352	52	6806
2026-01-22 16:02:30.16	271.26	39.43	-40.7	-41.7	22.9	0.00e+00	0	42	0	869269504	52	6942
2026-01-22 16:02:31.17	270.89	39.27	-40.3	-41.2	23.3	0.00e+00	0	42	0	871366656	54	5834
2026-01-22 16:02:32.18	270.53	39.12	-39.8	-40.6	23.8	0.00e+00	90	42	0	873463808	52	6150
2026-01-22 16:02:33.19	270.16	38.96	-39.8	-40.6	23.7	0.00e+00	0	42	0	875560960	52	6166
2026-01-22 16:02:34.20	269.80	38.81	-40.1	-41.0	23.4	0.00e+00	0	41	0	876609536	52	6453
2026-01-22 16:02:35.21	269.44	38.65	-40.1	-41.0	23.5	0.00e+00	0	42	0	878706688	52	6429
2026-01-22 16:02:36.22	269.09	38.49	-39.9	-40.8	23.4	0.00e+00	0	42	0	880803840	52	6263
2026-01-22 16:02:37.23	268.74	38.33	-40.4	-41.4	23.0	0.00e+00	0	42	0	882900992	52	6747
2026-01-22 16:02:38.25	268.39	38.17	-41.3	-42.3	22.3	0.00e+00	0	42	0	884998144	54	6692
2026-01-22 16:02:39.26	268.05	38.01	-41.4	-42.5	22.1	0.00e+00	91	42	0	886046720	54	6811
2026-01-22 16:02:40.26	267.71	37.86	-40.4	-41.3	23.1	0.00e+00	0	42	0	888143872	54	5959
2026-01-22 16:02:41.27	267.37	37.70	-40.5	-41.5	23.2	0.00e+00	0	42	0	890241024	54	6069
2026-01-22 16:02:42.28	267.04	37.54	-40.1	-41.0	23.3	0.00e+00	0	42	0	892338176	54	5745
2026-01-22 16:02:43.29	266.71	37.38	-40.3	-41.2	23.3	0.00e+00	0	42	0	894435328	54	5875
2026-01-22 16:02:44.30	266.38	37.22	-40.1	-41.0	23.4	0.00e+00	0	42	0	895483904	54	5731
2026-01-22 16:02:45.31	266.06	37.06	-39.8	-40.6	23.6	0.00e+00	0	42	0	897581056	52	6156
2026-01-22 16:02:46.32	265.74	36.90	-39.7	-40.5	23.7	0.00e+00	59	42	0	899678208	52	6071
2026-01-22 16:02:47.33	265.42	36.73	-40.1	-41.0	23.6	0.00e+00	0	42	0	901775360	52	6428
2026-01-22 16:02:48.34	265.11	36.57	-40.6	-41.5	22.7	0.00e+00	41	42	0	903872512	52	6824
2026-01-22 16:02:49.35	264.80	36.41	-41.0	-42.0	22.6	0.00e+00	0	42	0	905969664	54	6397
2026-01-22 16:02:50.35	264.49	36.25	-41.3	-42.3	22.0	0.00e+00	0	42	0	907018240	54	6667
2026-01-22 16:02:51.36	264.19	36.09	-42.2	-43.2	21.6	0.00e+00	0	42	0	909115392	56	6607
2026-01-22 16:02:52.37	263.88	35.93	-42.8	-43.9	20.8	0.00e+00	0	42	0	911212544	56	7160
2026-01-22 16:02:53.38	263.58	35.77	-42.8	-44.0	20.9	0.00e+00	87	42	0	913309696	58	6415
2026-01-22 16:02:54.39	263.29	35.60	-42.2	-43.2	21.6	0.00e+00	0	42	0	915406848	58	5896
2026-01-22 16:02:55.40	263.00	35.44	-41.7	-42.7	22.1	0.00e+00	84	42	0	916455424	56	6227
2026-01-22 16:02:56.41	262.71	35.28	-41.7	-42.7	21.8	0.00e+00	0	42	0	918552576	56	6228
2026-01-22 16:02:57.42	262.42	35.12	-42.5	-43.7	21.3	0.00e+00	0	42	0	920649728	56	6949
2026-01-22 16:02:58.43	262.13	34.95	-43.3	-44.6	20.4	0.00e+00	0	42	0	922746880	58	6924
2026-01-22 16:02:59.44	261.85	34.79	-43.0	-44.2	20.7	0.00e+00	0	42	0	924844032	58	6610
2026-01-22 16:03:00.45	261.57	34.63	-43.2	-44.5	20.5	0.00e+00	83	41	0	925892608	58	6800
2026-01-22 16:03:01.46	261.30	34.47	-43.6	-45.0	19.8	0.00e+00	0	42	0	927989760	58	7250
2026-01-22 16:03:02.47	261.02	34.31	-44.5	-46.1	19.1	0.00e+00	92	41	0	930086912	60	7323
2026-01-22 16:03:03.48	260.75	34.14	-44.8	-46.5	18.4	0.00e+00	0	42	0	932184064	60	7650
2026-01-22 16:03:04.49	260.49	33.98	-44.6	-46.2	19.1	0.00e+00	0	42	0	934281216	60	7379
2026-01-22 16:03:05.50	260.22	33.82	-44.1	-45.5	19.6	0.00e+00	0	42	0	935329792	60	6826
2026-01-22 16:03:06.50	259.96	33.66	-44.2	-45.6	19.9	0.00e+00	0	42	0	937426944	60	6923
2026-01-22 16:03:07.52	259.70	33.50	-43.7	-45.1	19.8	0.00e+00	0	42	0	939524096	60	6518
2026-01-22 16:03:08.52	259.44	33.34	-44.6	-46.3	18.9	0.00e+00	0	41	0	941621248	60	7443
2026-01-22 16:03:09.53	259.19	33.18	-45.5	-47.4	17.5	0.00e+00	78	41	0	943718400	60	8460
2026-01-22 16:03:10.54	258.94	33.02	-45.8	-47.7	17.5	0.00e+00	0	41	0	944766976	60	8753
2026-01-22 16:03:11.55	258.69	32.86	-45.1	-46.8	18.2	0.00e+00	0	41	0	946864128	60	7887
2026-01-22 16:03:12.56	258.44	32.70	-44.7	-46.2	19.2	0.00e+00	0	41	0	948961280	60	7398
2026-01-22 16:03:13.57	258.20	32.54	-44.0	-45.5	19.2	0.00e+00	0	41	0	951058432	60	6785
2026-01-22 16:03:14.58	257.95	32.38	-44.5	-46.1	19.4	0.00e+00	83	42	0	953155584	60	7297
2026-01-22 16:03:15.59	257.71	32.22	-43.7	-45.1	20.1	0.00e+00	0	42	0	954204160	60	6495
2026-01-22 16:03:16.60	257.48	32.06	-43.5	-44.8	20.3	0.00e+00	90	41	0	956301312	60	6300
2026-01-22 16:03:17.61	257.24	31.90	-43.2	-44.5	20.6	0.00e+00	0	42	0	958398464	60	6051
2026-01-22 16:03:18.62	257.01	31.74	-43.2	-44.5	20.6	0.00e+00	38	42	0	960495616	60	6060
2026-01-22 16:03:19.63	256.78	31.58	-42.4	-43.5	21.3	0.00e+00	0	42	0	962592768	58	6039
2026-01-22 16:03:20.64	256.55	31.42	-42.5	-43.6	21.3	0.00e+00	0	42	0	963641344	58	6153
2026-01-22 16:03:21.64	256.32	31.27	-42.0	-43.1	21.7	0.00e+00	0	42	0	965738496	58	5778
2026-01-22 16:03:22.65	256.10	31.11	-41.9	-42.9	21.8	0.00e+00	0	41	0	967835648	58	5678
2026-01-22 16:03:23.66	255.88	30.95	-41.6	-42.6	22.0	0.00e+00	81	42	0	969932800	56	6156
2026-01-22 16:03:24.67	255.66	30.80	-41.4	-42.5	22.2	0.00e+00	0	41	0	972029952	56	6055
2026-01-22 16:03:25.68	255.44	30.64	-42.2	-43.4	21.4	0.00e+00	0	41	0	974127104	56	6705
2026-01-22 16:03:26.69	255.23	30.48	-42.7	-43.9	20.9	0.00e+00	0	41	0	975175680	58	6354
2026-01-22 16:03:27.70	255.01	30.33	-42.8	-44.0	20.6	0.00e+00	0	41	0	977272832	58	6425
2026-01-22 16:03:28.71	254.80	30.17	-43.0	-44.2	20.7	0.00e+00	17	41	0	979369984	58	6595
2026-01-22 16:03:29.72	254.59	30.02	-42.6	-43.8	21.2	0.00e+00	0	42	0	981467136	58	6272
2026-01-22 16:03:30.72	254.39	29.87	-42.1	-43.2	21.4	0.00e+00	78	41	0	982515712	58	5856
2026-01-22 16:03:31.73	254.18	29.71	-42.3	-43.4	21.3	0.00e+00	0	41	0	984612864	58	6011
2026-01-22 16:03:32.74	253.98	29.56	-41.9	-43.0	21.7	0.00e+00	82	41	0	986710016	58	5756
2026-01-22 16:03:33.75	253.78	29.41	-42.3	-43.4	21.5	0.00e+00	0	41	0	988807168	58	6009
2026-01-22 16:03:34.76	253.58	29.25	-42.2	-43.3	21.6	0.00e+00	0	41	0	990904320	58	5933
2026-01-22 16:03:35.77	253.38	29.10	-42.0	-43.1	21.7	0.00e+00	0	41	0	991952896	58	5769
2026-01-22 16:03:36.78	253.19	28.95	-42.1	-43.3	21.5	0.00e+00	0	41	0	994050048	58	5910
2026-01-22 16:03:37.79	252.99	28.80	-42.1	-43.3	21.6	0.00e+00	82	41	0	996147200	58	5900
2026-01-22 16:03:38.80	252.80	28.65	-41.9	-42.9	21.9	0.00e+00	0	41	0	998244352	56	6381
2026-01-22 16:03:39.81	252.61	28.50	-42.2	-43.4	21.6	0.00e+00	45	41	0	1000341504	56	6708
2026-01-22 16:03:40.81	252.42	28.35	-42.0	-43.1	21.7	0.00e+00	0	41	0	1002438656	56	6495
2026-01-22 16:03:41.82	252.24	28.20	-42.3	-43.5	21.3	0.00e+00	0	41	0	1003487232	56	6805
2026-01-22 16:03:42.83	252.05	28.05	-42.1	-43.1	21.8	0.00e+00	0	41	0	1005584384	56	6539
2026-01-22 16:03:43.84	251.87	27.90	-42.2	-43.4	21.4	0.00e+00	0	41	0	1007681536	56	6706
2026-01-22 16:03:44.85	251.69	27.75	-42.1	-43.2	21.8	0.00e+00	0	41	0	1009778688	56	6558
2026-01-22 16:03:45.86	251.51	27.61	-42.1	-43.2	21.6	0.00e+00	0	41	0	1011875840	56	6610
2026-01-22 16:03:46.87	251.33	27.46	-42.0	-43.1	21.8	0.00e+00	70	41	0	1012924416	56	6477
2026-01-22 16:03:47.88	251.15	27.31	-41.8	-42.9	21.9	0.00e+00	0	41	0	1015021568	56	6371
2026-01-22 16:03:48.89	250.98	27.17	-41.6	-42.6	22.1	0.00e+00	0	41	0	1017118720	56	6161
2026-01-22 16:03:49.89	250.81	27.02	-41.7	-42.7	22.2	0.00e+00	0	41	0	1019215872	56	6242
2026-01-22 16:03:50.90	250.64	26.88	-42.0	-43.1	21.6	0.00e+00	0	41	0	1021313024	56	6480
2026-01-22 16:03:51.91	250.47	26.73	-41.7	-42.7	22.3	0.00e+00	73	41	0	1022361600	56	6245
2026-01-22 16:03:52.92	250.30	26.59	-41.8	-42.9	21.9	0.00e+00	0	41	0	1024458752	56	6372
2026-01-22 16:03:53.93	250.13	26.44	-42.1	-43.2	21.6	0.00e+00	85	41	0	1026555904	56	6586
2026-01-22 16:03:54.94	249.97	26.30	-42.7	-43.9	21.1	0.00e+00	0	41	0	1028653056	58	6355
2026-01-22 16:03:55.95	249.80	26.16	-42.4	-43.6	21.2	0.00e+00	0	41	0	1030750208	58	6145
2026-01-22 16:03:56.96	249.64	26.02	-43.0	-44.2	20.7	0.00e+00	0	41	0	1031798784	58	6608
2026-01-22 16:03:57.98	249.48	25.87	-42.2	-43.4	21.5	0.00e+00	0	41	0	1033895936	58	5999
2026-01-22 16:03:59.00	249.32	25.73	-41.9	-43.1	21.8	0.00e+00	65	41	0	1035993088	58	5767
2026-01-22 16:04:00.01	249.16	25.59	-41.5	-42.6	22.1	0.00e+00	0	41	0	1038090240	56	6128
2026-01-22 16:04:01.02	249.00	25.45	-40.9	-41.8	22.8	0.00e+00	85	41	0	1040187392	56	5630
2026-01-22 16:04:02.02	248.85	25.31	-40.8	-41.7	22.8	0.00e+00	0	41	0	1041235968	54	6223
2026-01-22 16:04:03.03	248.69	25.17	-40.5	-41.4	23.0	0.00e+00	3	41	0	1043333120	54	6016
2026-01-22 16:04:04.04	248.54	25.03	-40.6	-41.6	22.8	0.00e+00	0	41	0	1045430272	54	6118
2026-01-22 16:04:05.05	248.39	24.89	-40.9	-41.9	22.6	0.00e+00	0	41	0	1047527424	54	6347
2026-01-22 16:04:06.06	248.24	24.76	-41.3	-42.4	22.2	0.00e+00	0	41	0	1049624576	54	6704
2026-01-22 16:04:07.07	248.09	24.62	-41.6	-42.6	22.0	0.00e+00	0	41	0	1050673152	54	6925
2026-01-22 16:04:08.08	247.95	24.48	-42.2	-43.4	21.5	0.00e+00	54	41	0	1052770304	56	6708
2026-01-22 16:04:09.09	247.80	24.35	-42.1	-43.3	21.5	0.00e+00	0	41	0	1054867456	56	6631
2026-01-22 16:04:10.10	247.66	24.21	-41.9	-43.0	21.7	0.00e+00	68	41	0	1056964608	56	6415
2026-01-22 16:04:11.11	247.51	24.08	-41.8	-42.8	21.9	0.00e+00	0	41	0	1059061760	56	6315
2026-01-22 16:04:12.12	247.37	23.94	-42.1	-43.2	21.6	0.00e+00	0	41	0	1060110336	56	6572
2026-01-22 16:04:13.13	247.23	23.81	-42.3	-43.4	21.5	0.00e+00	0	41	0	1062207488	56	6734
2026-01-22 16:04:14.14	247.09	23.67	-42.6	-43.8	21.1	0.00e+00	0	41	0	1064304640	56	7057
2026-01-22 16:04:15.15	246.95	23.54	-43.0	-44.2	20.9	0.00e+00	21	41	0	1066401792	58	6602
2026-01-22 16:04:16.15	246.82	23.41	-42.9	-44.2	20.9	0.00e+00	0	41	0	1068498944	58	6577
2026-01-22 16:04:17.16	246.68	23.28	-43.6	-44.9	20.1	0.00e+00	92	41	0	1070596096	58	7156
2026-01-22 16:04:18.17	246.55	23.14	-43.3	-44.6	20.3	0.00e+00	0	41	0	1071644672	58	6852
2026-01-22 16:04:19.18	246.41	23.01	-43.2	-44.5	20.8	0.00e+00	0	41	0	1073741824	58	6781
2026-01-22 16:04:20.19	246.28	22.88	-42.4	-43.6	21.2	0.00e+00	0	41	0	1075838976	58	6140
2026-01-22 16:04:21.20	246.15	22.75	-41.9	-42.9	21.8	0.00e+00	0	41	0	1077936128	58	5669
2026-01-22 16:04:22.21	246.02	22.62	-41.7	-42.7	22.0	0.00e+00	0	41	0	1080033280	56	6202
2026-01-22 16:04:23.22	245.89	22.49	-41.2	-42.2	22.4	0.00e+00	0	41	0	1081081856	56	5834
2026-01-22 16:04:24.23	245.76	22.36	-41.1	-42.1	22.5	0.00e+00	92	41	0	1083179008	56	5809
2026-01-22 16:04:25.23	245.64	22.24	-41.0	-42.0	22.7	0.00e+00	0	41	0	1085276160	56	5713
2026-01-22 16:04:26.24	245.51	22.11	-41.0	-41.9	22.6	0.00e+00	0	41	0	1087373312	56	5690
2026-01-22 16:04:27.26	245.38	21.98	-40.7	-41.7	22.6	0.00e+00	0	41	0	1089470464	54	6197
2026-01-22 16:04:28.26	245.26	21.85	-40.6	-41.5	22.8	0.00e+00	33	41	0	1090519040	54	6089
2026-01-22 16:04:29.27	245.14	21.73	-40.8	-41.8	22.8	0.00e+00	0	41	0	1092616192	54	6272
2026-01-22 16:04:30.28	245.02	21.60	-40.7	-41.6	22.7	0.00e+00	0	41	0	1094713344	54	6148
2026-01-22 16:04:31.29	244.89	21.48	-40.6	-41.6	22.8	0.00e+00	91	41	0	1096810496	54	6141
2026-01-22 16:04:32.30	244.78	21.35	-40.8	-41.8	22.7	0.00e+00	0	41	0	1098907648	54	6252
2026-01-22 16:04:33.31	244.66	21.23	-41.1	-42.2	22.3	0.00e+00	92	41	0	1099956224	54	6541
2026-01-22 16:04:34.32	244.54	21.10	-41.3	-42.4	22.1	0.00e+00	0	41	0	1102053376	54	6710
2026-01-22 16:04:35.33	244.42	20.98	-41.3	-42.3	22.3	0.00e+00	0	41	0	1104150528	54	6645
2026-01-22 16:04:36.34	244.31	20.86	-41.3	-42.3	22.3	0.00e+00	0	41	0	1106247680	54	6661
2026-01-22 16:04:37.34	244.19	20.74	-41.2	-42.3	22.2	0.00e+00	0	41	0	1108344832	54	6616
2026-01-22 16:04:38.35	244.08	20.61	-41.6	-42.7	21.9	0.00e+00	92	41	0	1109393408	54	6931
2026-01-22 16:04:39.36	243.96	20.49	-41.2	-42.2	22.3	0.00e+00	0	41	0	1111490560	54	6595
2026-01-22 16:04:40.37	243.85	20.37	-41.2	-42.2	22.3	0.00e+00	92	41	0	1113587712	54	6550
2026-01-22 16:04:41.38	243.74	20.25	-41.0	-42.0	22.5	0.00e+00	0	41	0	1115684864	54	6440
2026-01-22 16:04:42.39	243.63	20.13	-40.8	-41.8	22.7	0.00e+00	0	41	0	1117782016	54	6295
2026-01-22 16:04:43.40	243.52	20.01	-41.1	-42.1	22.5	0.00e+00	0	41	0	1118830592	54	6519
2026-01-22 16:04:44.41	243.41	19.89	-41.2	-42.3	22.3	0.00e+00	0	41	0	1120927744	54	6617
2026-01-22 16:04:45.42	243.30	19.77	-41.4	-42.4	22.2	0.00e+00	11	41	0	1123024896	54	6763
2026-01-22 16:04:46.43	243.20	19.65	-41.5	-42.5	21.9	0.00e+00	0	41	0	1125122048	54	6847
2026-01-22 16:04:47.44	243.09	19.54	-42.2	-43.3	21.5	0.00e+00	81	41	0	1127219200	56	6665
2026-01-22 16:04:48.45	242.99	19.42	-42.6	-43.8	20.9	0.00e+00	0	41	0	1128267776	56	7085
2026-01-22 16:04:49.45	242.88	19.30	-42.8	-44.0	20.8	0.00e+00	0	41	0	1130364928	58	6449
2026-01-22 16:04:50.46	242.78	19.19	-43.1	-44.4	20.4	0.00e+00	0	41	0	1132462080	58	6755
2026-01-22 16:04:51.47	242.68	19.07	-43.1	-44.5	20.3	0.00e+00	0	41	0	1134559232	58	6777
2026-01-22 16:04:52.48	242.57	18.96	-43.0	-44.4	20.5	0.00e+00	11	41	0	1136656384	58	6695
2026-01-22 16:04:53.49	242.47	18.84	-42.9	-44.2	20.5	0.00e+00	0	41	0	1137704960	58	6568
2026-01-22 16:04:54.50	242.37	18.73	-42.9	-44.2	20.7	0.00e+00	79	41	0	1139802112	58	6542
2026-01-22 16:04:55.51	242.27	18.61	-43.0	-44.3	20.3	0.00e+00	0	41	0	1141899264	58	6629
2026-01-22 16:04:56.52	242.17	18.50	-43.1	-44.4	20.4	0.00e+00	0	41	0	1143996416	58	6745
2026-01-22 16:04:57.53	242.07	18.38	-42.8	-44.1	20.6	0.00e+00	0	41	0	1146093568	58	6509
2026-01-22 16:04:58.54	241.98	18.27	-42.7	-44.0	20.8	0.00e+00	0	41	0	1148190720	58	6395
2026-01-22 16:04:59.55	241.88	18.16	-42.4	-43.6	21.0	0.00e+00	0	41	0	1149239296	58	6143
2026-01-22 16:05:00.56	241.78	18.05	-42.8	-44.1	20.9	0.00e+00	0	41	0	1151336448	58	6491
2026-01-22 16:05:01.56	241.69	17.93	-42.3	-43.5	21.2	0.00e+00	65	41	0	1153433600	58	6087
2026-01-22 16:05:02.58	241.59	17.82	-42.3	-43.4	21.3	0.00e+00	0	41	0	1155530752	58	6021
2026-01-22 16:05:03.59	241.50	17.71	-42.1	-43.2	21.4	0.00e+00	0	41	0	1157627904	58	5889
2026-01-22 16:05:04.60	241.41	17.60	-41.8	-42.9	21.8	0.00e+00	0	41	0	1158676480	58	5690
2026-01-22 16:05:05.60	241.32	17.49	-41.8	-42.8	21.8	0.00e+00	0	41	0	1160773632	56	6316
2026-01-22 16:05:06.61	241.22	17.38	-41.7	-42.8	21.9	0.00e+00	57	41	0	1162870784	56	6263
2026-01-22 16:05:07.62	241.13	17.27	-41.5	-42.6	22.0	0.00e+00	0	41	0	1164967936	56	6121
2026-01-22 16:05:08.63	241.04	17.16	-41.3	-42.4	22.1	0.00e+00	91	41	0	1167065088	56	5981
2026-01-22 16:05:09.64	240.95	17.06	-41.5	-42.5	22.0	0.00e+00	0	41	0	1168113664	56	6079
2026-01-22 16:05:10.65	240.86	16.95	-41.5	-42.6	22.0	0.00e+00	44	41	0	1170210816	56	6139
2026-01-22 16:05:11.66	240.78	16.84	-41.8	-42.9	21.8	0.00e+00	0	41	0	1172307968	56	6327
2026-01-22 16:05:12.67	240.69	16.73	-42.0	-43.1	21.4	0.00e+00	0	41	0	1174405120	56	6514
2026-01-22 16:05:13.68	240.60	16.63	-42.0	-43.2	21.5	0.00e+00	0	41	0	1176502272	56	6561
2026-01-22 16:05:14.69	240.51	16.52	-42.3	-43.5	21.2	0.00e+00	0	41	0	1177550848	56	6775
2026-01-22 16:05:15.70	240.43	16.41	-42.7	-44.0	21.0	0.00e+00	78	41	0	1179648000	56	7199
2026-01-22 16:05:16.71	240.34	16.31	-42.7	-44.0	20.9	0.00e+00	0	41	0	1181745152	56	7174
2026-01-22 16:05:17.72	240.26	16.20	-42.5	-43.8	21.1	0.00e+00	92	41	0	1183842304	56	7008
2026-01-22 16:05:18.73	240.18	16.10	-42.7	-44.0	21.0	0.00e+00	0	41	0	1185939456	58	6416
2026-01-22 16:05:19.74	240.09	15.99	-42.3	-43.5	21.3	0.00e+00	0	41	0	1186988032	58	6067
2026-01-22 16:05:20.75	240.01	15.89	-42.1	-43.2	21.5	0.00e+00	0	41	0	1189085184	58	5882
2026-01-22 16:05:21.76	239.93	15.79	-42.2	-43.4	21.3	0.00e+00	0	41	0	1191182336	58	6001
