passes_logs/2026/01/22/R4.6S_Anadyr/R4.6S_Anadyr__20260122_161416_NOAA_20_JPSS-1_rec.log

#Pass ID: 20260122_161416_NOAA 20 (JPSS-1)
#Satellite: NOAA 20 (JPSS-1)
#Configuration: NOAA 20
#almurnet v.1.7.20251203
#Start time: 2026-01-22 16:14:19

#Version: 2.2.20231116
#Station: R4.6S_Anadyr
#Location: 177.4865 lon 64.73178 lat
#TLE: 1 43013U 17073A   26021.46221703  .00000173  00000+0  10299-3 0  9999
#TLE: 2 43013  98.7644 322.3335 0001238  29.7597 330.3649 14.19538314423652

#Time	Az	El	Level	Level2	SNR	BER	BlckErr	Temp	State	Recorded	gain1	gain2
2026-01-22 16:14:19.84	25.11	0.19	-52.2	-66.0	3.3	1.54e+00	0	40	0	0	60	72489
2026-01-22 16:14:20.85	25.07	0.25	-51.7	-66.9	3.6	1.51e+00	0	40	104	0	60	80420
2026-01-22 16:14:21.85	25.04	0.30	-51.5	-66.7	3.6	1.51e+00	0	40	104	0	60	78455
2026-01-22 16:14:22.87	25.00	0.36	-51.3	-66.6	3.6	1.51e+00	0	40	104	0	60	77138
2026-01-22 16:14:23.87	24.97	0.42	-51.5	-66.7	3.6	1.51e+00	0	40	104	0	60	78143
2026-01-22 16:14:24.89	24.93	0.48	-51.4	-66.7	3.6	1.51e+00	0	40	104	0	60	77963
2026-01-22 16:14:25.90	24.89	0.54	-51.3	-66.6	3.6	1.51e+00	0	40	104	0	60	77127
2026-01-22 16:14:26.91	24.86	0.60	-51.3	-66.5	3.6	1.51e+00	0	40	104	0	60	76508
2026-01-22 16:14:27.91	24.82	0.66	-51.2	-66.5	3.6	1.51e+00	0	40	104	0	60	76058
2026-01-22 16:14:28.92	24.78	0.72	-51.1	-66.4	3.6	1.51e+00	0	40	104	0	60	75377
2026-01-22 16:14:29.93	24.75	0.78	-51.1	-66.3	3.6	1.51e+00	0	41	104	0	60	74862
2026-01-22 16:14:30.94	24.71	0.84	-51.1	-66.3	3.6	1.51e+00	0	40	104	0	60	74413
2026-01-22 16:14:31.95	24.67	0.89	-51.0	-66.2	3.6	1.51e+00	0	40	104	0	60	73667
2026-01-22 16:14:32.96	24.63	0.95	-50.9	-66.0	3.6	1.51e+00	0	40	104	0	60	72526
2026-01-22 16:14:33.97	24.60	1.01	-50.8	-66.0	3.6	1.51e+00	0	40	104	0	60	71917
2026-01-22 16:14:34.98	24.56	1.07	-50.6	-65.9	3.6	1.51e+00	0	40	104	0	60	71002
2026-01-22 16:14:35.99	24.52	1.13	-50.5	-65.8	3.6	1.51e+00	0	41	104	0	60	70607
2026-01-22 16:14:37.00	24.48	1.19	-50.4	-65.7	3.6	1.51e+00	0	41	104	0	60	69596
2026-01-22 16:14:38.01	24.44	1.25	-50.3	-65.5	3.6	1.51e+00	0	41	104	0	60	68316
2026-01-22 16:14:39.02	24.40	1.31	-50.2	-65.4	3.6	1.51e+00	0	41	104	0	60	67345
2026-01-22 16:14:40.03	24.37	1.37	-50.0	-65.1	3.6	1.51e+00	0	41	104	0	60	65396
2026-01-22 16:14:41.04	24.33	1.43	-49.7	-64.8	3.6	1.51e+00	0	41	104	0	60	63164
2026-01-22 16:14:42.04	24.29	1.49	-49.6	-64.8	3.6	1.51e+00	0	41	104	0	60	62626
2026-01-22 16:14:43.06	24.25	1.56	-49.6	-64.8	3.6	1.51e+00	0	41	104	0	60	62754
2026-01-22 16:14:44.07	24.21	1.62	-49.6	-64.8	3.6	1.51e+00	0	41	104	0	60	62875
2026-01-22 16:14:45.08	24.17	1.68	-49.6	-64.8	3.6	1.51e+00	0	41	104	0	60	62741
2026-01-22 16:14:46.09	24.13	1.74	-49.6	-64.8	3.6	1.51e+00	0	41	104	0	60	62739
2026-01-22 16:14:47.10	24.09	1.80	-49.6	-64.8	3.6	1.51e+00	0	41	104	0	60	63159
2026-01-22 16:14:48.11	24.05	1.86	-49.6	-64.8	3.6	1.51e+00	0	41	104	0	60	63004
2026-01-22 16:14:49.11	24.01	1.92	-49.6	-64.7	3.6	1.51e+00	0	41	104	0	60	62094
2026-01-22 16:14:50.13	23.97	1.98	-49.6	-64.6	3.6	1.51e+00	0	41	104	0	60	61661
2026-01-22 16:14:51.14	23.93	2.05	-49.6	-64.6	3.6	1.51e+00	0	41	104	0	60	61069
2026-01-22 16:14:52.14	23.89	2.11	-49.6	-64.6	3.6	1.51e+00	0	41	104	0	60	61281
2026-01-22 16:14:53.16	23.85	2.17	-49.6	-64.4	3.6	1.51e+00	0	41	104	0	60	59946
2026-01-22 16:14:54.17	23.80	2.23	-49.6	-64.5	3.6	1.51e+00	0	41	104	0	60	60775
2026-01-22 16:14:55.17	23.76	2.29	-49.6	-64.7	3.6	1.51e+00	0	41	104	0	60	61746
2026-01-22 16:14:56.18	23.72	2.35	-49.6	-64.8	3.6	1.51e+00	0	41	104	0	60	62464
2026-01-22 16:14:57.19	23.68	2.42	-49.6	-64.8	3.6	1.51e+00	0	41	104	0	60	63029
2026-01-22 16:14:58.21	23.64	2.48	-49.6	-64.8	3.6	1.51e+00	0	41	104	0	60	63055
2026-01-22 16:14:59.22	23.60	2.54	-49.6	-64.8	3.6	1.51e+00	0	41	104	0	60	63075
2026-01-22 16:15:00.23	23.55	2.60	-49.6	-64.7	3.6	1.51e+00	0	41	104	0	60	62417
2026-01-22 16:15:01.24	23.51	2.67	-49.6	-64.8	3.6	1.51e+00	0	41	104	0	60	63002
2026-01-22 16:15:02.24	23.47	2.73	-49.6	-64.7	3.5	1.51e+00	0	41	104	0	60	61971
2026-01-22 16:15:03.25	23.42	2.79	-49.6	-64.6	3.6	1.51e+00	0	41	104	0	60	61291
2026-01-22 16:15:04.27	23.38	2.86	-49.6	-64.4	3.6	1.51e+00	0	41	104	0	60	60329
2026-01-22 16:15:05.28	23.34	2.92	-49.6	-64.4	3.6	1.51e+00	0	41	104	0	60	59670
2026-01-22 16:15:06.28	23.29	2.98	-49.6	-64.0	3.6	1.51e+00	0	41	104	0	60	56989
2026-01-22 16:15:07.29	23.25	3.05	-49.6	-64.1	3.6	1.51e+00	0	41	104	0	60	58176
2026-01-22 16:15:08.30	23.21	3.11	-49.7	-64.2	3.6	1.51e+00	0	41	104	0	60	58952
2026-01-22 16:15:09.31	23.16	3.17	-49.7	-64.5	3.6	1.51e+00	0	41	104	0	60	60432
2026-01-22 16:15:10.33	23.12	3.24	-49.7	-64.6	3.6	1.51e+00	0	41	104	0	60	61550
2026-01-22 16:15:11.34	23.07	3.30	-49.7	-64.5	3.6	1.51e+00	0	41	104	0	60	60544
2026-01-22 16:15:12.35	23.03	3.37	-49.6	-62.8	3.6	1.51e+00	0	41	104	0	60	50126
2026-01-22 16:15:13.36	22.98	3.43	-49.4	-60.9	4.2	1.43e+00	54	41	104	0	60	40304
2026-01-22 16:15:14.36	22.94	3.49	-49.3	-58.7	4.4	7.90e-01	0	41	0	1048576	60	31280
2026-01-22 16:15:15.38	22.89	3.56	-49.5	-60.4	3.6	8.03e-01	45	41	0	2097152	60	37886
2026-01-22 16:15:16.39	22.85	3.62	-49.6	-63.6	3.9	1.51e+00	0	41	104	2097152	60	54469
2026-01-22 16:15:17.40	22.80	3.69	-45.8	-48.4	13.9	0.00e+00	53	41	0	2097152	60	9542
2026-01-22 16:15:18.41	22.75	3.75	-49.6	-63.4	3.6	1.51e+00	0	41	104	2097152	60	53723
2026-01-22 16:15:19.42	22.71	3.82	-48.8	-55.8	5.4	1.50e+00	0	41	104	2097152	60	22378
2026-01-22 16:15:20.42	22.66	3.88	-47.4	-51.5	12.6	1.98e-04	28	41	0	2097152	60	13627
2026-01-22 16:15:21.43	22.61	3.95	-46.3	-49.2	14.7	2.20e-06	53	41	0	3145728	60	10430
2026-01-22 16:15:22.44	22.57	4.02	-46.2	-49.0	14.8	0.00e+00	0	41	0	5242880	60	10245
2026-01-22 16:15:23.45	22.52	4.08	-45.9	-48.5	15.5	0.00e+00	11	41	0	7340032	60	9598
2026-01-22 16:15:24.46	22.47	4.15	-45.8	-48.4	15.6	0.00e+00	6	41	0	9437184	60	9459
2026-01-22 16:15:25.47	22.42	4.21	-45.8	-48.4	15.8	0.00e+00	90	41	0	11534336	60	9460
2026-01-22 16:15:26.48	22.38	4.28	-45.9	-48.5	15.5	0.00e+00	7	41	0	12582912	60	9612
2026-01-22 16:15:27.49	22.33	4.34	-45.5	-47.8	16.5	0.00e+00	92	41	0	14680064	60	8909
2026-01-22 16:15:28.50	22.28	4.41	-45.1	-47.3	16.6	0.00e+00	22	41	0	16777216	60	8399
2026-01-22 16:15:29.51	22.23	4.48	-45.4	-47.8	16.4	0.00e+00	0	41	0	18874368	60	8838
2026-01-22 16:15:30.52	22.18	4.54	-45.3	-47.6	16.2	0.00e+00	0	41	0	20971520	60	8632
2026-01-22 16:15:31.53	22.13	4.61	-45.5	-47.9	16.0	0.00e+00	0	41	0	22020096	60	8933
2026-01-22 16:15:32.54	22.08	4.68	-45.0	-47.2	17.0	0.00e+00	92	41	0	24117248	60	8256
2026-01-22 16:15:33.54	22.03	4.74	-44.7	-46.7	17.6	0.00e+00	0	41	0	26214400	60	7781
2026-01-22 16:15:34.55	21.98	4.81	-43.9	-45.6	18.3	0.00e+00	92	41	0	28311552	60	6891
2026-01-22 16:15:35.56	21.93	4.88	-44.1	-45.8	18.4	0.00e+00	0	41	0	30408704	60	7054
2026-01-22 16:15:36.57	21.88	4.95	-43.8	-45.5	18.8	0.00e+00	0	41	0	31457280	60	6787
2026-01-22 16:15:37.58	21.83	5.01	-44.1	-45.9	18.3	0.00e+00	0	41	0	33554432	60	7138
2026-01-22 16:15:38.59	21.78	5.08	-43.7	-45.3	18.8	0.00e+00	58	41	0	35651584	60	6668
2026-01-22 16:15:39.60	21.73	5.15	-43.5	-45.1	19.1	0.00e+00	92	41	0	37748736	60	6521
2026-01-22 16:15:40.61	21.68	5.22	-43.6	-45.2	19.0	0.00e+00	30	41	0	39845888	60	6576
2026-01-22 16:15:41.62	21.63	5.29	-43.5	-45.1	19.2	0.00e+00	92	41	0	40894464	60	6485
2026-01-22 16:15:42.63	21.57	5.36	-43.4	-44.9	19.3	0.00e+00	29	41	0	42991616	60	6333
2026-01-22 16:15:43.64	21.52	5.42	-43.3	-44.7	19.6	0.00e+00	53	41	0	45088768	60	6238
2026-01-22 16:15:44.64	21.47	5.49	-43.0	-44.5	19.9	0.00e+00	33	41	0	47185920	60	6048
2026-01-22 16:15:45.65	21.42	5.56	-43.1	-44.6	19.7	0.00e+00	5	41	0	49283072	60	6120
2026-01-22 16:15:46.66	21.36	5.63	-43.0	-44.5	19.8	0.00e+00	84	41	0	50331648	60	6061
2026-01-22 16:15:47.67	21.31	5.70	-43.3	-44.8	19.5	0.00e+00	7	41	0	52428800	60	6272
2026-01-22 16:15:48.68	21.26	5.77	-43.0	-44.5	19.7	0.00e+00	92	41	0	54525952	60	6058
2026-01-22 16:15:49.68	21.20	5.84	-43.1	-44.6	19.8	0.00e+00	6	41	0	56623104	60	6112
2026-01-22 16:15:50.69	21.15	5.91	-43.0	-44.4	19.9	0.00e+00	91	41	0	58720256	60	5975
2026-01-22 16:15:51.70	21.09	5.98	-42.9	-44.2	20.1	0.00e+00	7	41	0	59768832	60	5888
2026-01-22 16:15:52.71	21.04	6.05	-42.7	-44.1	20.2	0.00e+00	6	41	0	61865984	58	6501
2026-01-22 16:15:53.72	20.98	6.12	-42.9	-44.3	19.9	0.00e+00	0	41	0	63963136	58	6659
2026-01-22 16:15:54.73	20.93	6.19	-42.8	-44.2	20.1	0.00e+00	0	41	0	66060288	58	6545
2026-01-22 16:15:55.74	20.87	6.26	-42.8	-44.2	20.0	0.00e+00	92	41	0	68157440	58	6562
2026-01-22 16:15:56.75	20.82	6.33	-42.9	-44.2	20.0	0.00e+00	0	41	0	69206016	58	6607
2026-01-22 16:15:57.76	20.76	6.40	-42.7	-44.0	20.2	0.00e+00	90	41	0	71303168	58	6420
2026-01-22 16:15:58.77	20.70	6.47	-42.6	-43.9	20.4	0.00e+00	60	41	0	73400320	58	6331
2026-01-22 16:15:59.78	20.65	6.54	-42.7	-44.1	20.2	0.00e+00	0	41	0	75497472	58	6500
2026-01-22 16:16:00.79	20.59	6.61	-42.6	-43.9	20.3	0.00e+00	0	41	0	77594624	58	6374
2026-01-22 16:16:01.80	20.53	6.68	-42.6	-43.9	20.4	0.00e+00	0	41	0	78643200	58	6382
2026-01-22 16:16:02.81	20.47	6.76	-42.6	-43.9	20.5	0.00e+00	91	41	0	80740352	58	6378
2026-01-22 16:16:03.82	20.42	6.83	-42.5	-43.8	20.5	0.00e+00	22	41	0	82837504	58	6294
2026-01-22 16:16:04.83	20.36	6.90	-42.6	-43.9	20.3	0.00e+00	92	41	0	84934656	58	6352
2026-01-22 16:16:05.84	20.30	6.97	-42.5	-43.8	20.5	0.00e+00	20	41	0	87031808	58	6267
2026-01-22 16:16:06.85	20.24	7.04	-42.8	-44.1	20.4	0.00e+00	34	41	0	89128960	58	6527
2026-01-22 16:16:07.86	20.18	7.12	-42.4	-43.7	20.7	0.00e+00	21	41	0	90177536	58	6179
2026-01-22 16:16:08.87	20.12	7.19	-42.5	-43.8	20.5	0.00e+00	21	41	0	92274688	58	6302
2026-01-22 16:16:09.88	20.06	7.26	-42.5	-43.8	20.5	0.00e+00	56	41	0	94371840	58	6303
2026-01-22 16:16:10.88	20.00	7.33	-42.8	-44.2	20.2	0.00e+00	0	41	0	96468992	58	6577
2026-01-22 16:16:11.90	19.94	7.41	-42.8	-44.1	20.3	0.00e+00	92	41	0	98566144	58	6501
2026-01-22 16:16:12.90	19.88	7.48	-42.9	-44.3	20.1	0.00e+00	21	41	0	99614720	58	6629
2026-01-22 16:16:13.91	19.82	7.55	-42.8	-44.1	20.3	0.00e+00	33	41	0	101711872	58	6500
2026-01-22 16:16:14.92	19.76	7.63	-42.4	-43.7	20.7	0.00e+00	0	41	0	103809024	58	6221
2026-01-22 16:16:15.93	19.70	7.70	-42.2	-43.5	20.8	0.00e+00	0	41	0	105906176	58	6050
2026-01-22 16:16:16.94	19.63	7.78	-42.3	-43.5	20.7	0.00e+00	0	41	0	108003328	58	6079
2026-01-22 16:16:17.95	19.57	7.85	-42.3	-43.5	20.8	0.00e+00	2	41	0	109051904	58	6071
2026-01-22 16:16:18.96	19.51	7.93	-42.2	-43.5	20.8	0.00e+00	92	41	0	111149056	58	6039
2026-01-22 16:16:19.97	19.45	8.00	-42.3	-43.5	20.9	0.00e+00	0	41	0	113246208	58	6091
2026-01-22 16:16:20.98	19.38	8.07	-42.4	-43.7	20.8	0.00e+00	92	41	0	115343360	58	6184
2026-01-22 16:16:21.99	19.32	8.15	-42.6	-43.9	20.4	0.00e+00	54	41	0	117440512	58	6348
2026-01-22 16:16:23.00	19.25	8.23	-42.2	-43.4	21.0	0.00e+00	60	41	0	118489088	58	6000
2026-01-22 16:16:24.00	19.19	8.30	-42.1	-43.3	21.1	0.00e+00	0	41	0	120586240	58	5915
2026-01-22 16:16:25.01	19.13	8.38	-42.0	-43.2	21.2	0.00e+00	21	41	0	122683392	58	5852
2026-01-22 16:16:26.02	19.06	8.45	-41.9	-43.1	21.2	0.00e+00	60	41	0	124780544	58	5812
2026-01-22 16:16:27.03	18.99	8.53	-41.9	-43.1	21.2	0.00e+00	0	41	0	126877696	58	5812
2026-01-22 16:16:28.04	18.93	8.60	-41.8	-43.0	21.4	0.00e+00	91	41	0	127926272	58	5723
2026-01-22 16:16:29.05	18.86	8.68	-41.9	-43.0	21.4	0.00e+00	62	41	0	130023424	58	5751
2026-01-22 16:16:30.06	18.79	8.76	-41.9	-43.1	21.3	0.00e+00	0	41	0	132120576	58	5779
2026-01-22 16:16:31.07	18.73	8.83	-41.8	-43.0	21.4	0.00e+00	19	41	0	134217728	58	5717
2026-01-22 16:16:32.08	18.66	8.91	-41.8	-42.9	21.5	0.00e+00	19	41	0	136314880	58	5680
2026-01-22 16:16:33.09	18.59	8.99	-41.9	-43.0	21.4	0.00e+00	0	41	0	137363456	56	6455
2026-01-22 16:16:34.10	18.52	9.06	-41.7	-42.8	21.6	0.00e+00	19	41	0	139460608	56	6298
2026-01-22 16:16:35.11	18.46	9.14	-41.7	-42.9	21.5	0.00e+00	92	41	0	141557760	56	6330
2026-01-22 16:16:36.12	18.39	9.22	-41.8	-42.9	21.6	0.00e+00	0	41	0	143654912	56	6348
2026-01-22 16:16:37.13	18.32	9.30	-41.7	-42.8	21.6	0.00e+00	18	41	0	145752064	56	6306
2026-01-22 16:16:38.14	18.25	9.38	-41.7	-42.8	21.6	0.00e+00	0	41	0	146800640	56	6297
2026-01-22 16:16:39.15	18.18	9.45	-41.7	-42.8	21.7	0.00e+00	0	41	0	148897792	56	6298
2026-01-22 16:16:40.16	18.11	9.53	-41.8	-42.9	21.7	0.00e+00	0	41	0	150994944	56	6338
2026-01-22 16:16:41.17	18.04	9.61	-41.7	-42.8	21.6	0.00e+00	62	41	0	153092096	56	6315
2026-01-22 16:16:42.17	17.96	9.69	-41.7	-42.9	21.6	0.00e+00	90	41	0	155189248	56	6329
2026-01-22 16:16:43.18	17.89	9.77	-42.1	-43.3	21.4	0.00e+00	0	41	0	157286400	56	6649
2026-01-22 16:16:44.19	17.82	9.85	-42.1	-43.3	21.2	0.00e+00	92	41	0	158334976	56	6656
2026-01-22 16:16:45.20	17.75	9.93	-42.2	-43.4	21.1	0.00e+00	57	41	0	160432128	56	6694
2026-01-22 16:16:46.21	17.67	10.01	-42.2	-43.4	21.2	0.00e+00	55	41	0	162529280	56	6732
2026-01-22 16:16:47.22	17.60	10.09	-42.0	-43.2	21.2	0.00e+00	55	41	0	164626432	56	6566
2026-01-22 16:16:48.23	17.53	10.17	-42.2	-43.4	21.2	0.00e+00	57	41	0	166723584	56	6708
2026-01-22 16:16:49.24	17.45	10.25	-42.3	-43.5	21.0	0.00e+00	0	41	0	167772160	56	6806
2026-01-22 16:16:50.25	17.38	10.33	-42.1	-43.3	21.2	0.00e+00	2	41	0	169869312	56	6660
2026-01-22 16:16:51.26	17.30	10.41	-42.3	-43.6	21.0	0.00e+00	92	41	0	171966464	56	6860
2026-01-22 16:16:52.27	17.23	10.49	-42.2	-43.4	21.1	0.00e+00	0	41	0	174063616	56	6746
2026-01-22 16:16:53.28	17.15	10.57	-42.3	-43.5	21.4	0.00e+00	2	41	0	176160768	56	6772
2026-01-22 16:16:54.29	17.07	10.65	-42.0	-43.2	21.3	0.00e+00	17	41	0	177209344	56	6587
2026-01-22 16:16:55.29	17.00	10.73	-42.0	-43.2	21.5	0.00e+00	2	41	0	179306496	56	6583
2026-01-22 16:16:56.30	16.92	10.82	-41.9	-43.0	21.5	0.00e+00	0	41	0	181403648	56	6434
2026-01-22 16:16:57.31	16.84	10.90	-42.1	-43.3	21.5	0.00e+00	2	41	0	183500800	56	6636
2026-01-22 16:16:58.32	16.76	10.98	-42.3	-43.4	21.3	0.00e+00	91	41	0	185597952	56	6768
2026-01-22 16:16:59.33	16.69	11.06	-42.1	-43.3	21.3	0.00e+00	0	41	0	186646528	56	6640
2026-01-22 16:17:00.34	16.61	11.15	-42.2	-43.4	21.2	0.00e+00	92	41	0	188743680	56	6757
2026-01-22 16:17:01.35	16.53	11.23	-41.9	-43.0	21.6	0.00e+00	0	41	0	190840832	56	6410
2026-01-22 16:17:02.36	16.45	11.31	-41.8	-43.0	21.7	0.00e+00	0	41	0	192937984	56	6398
2026-01-22 16:17:03.37	16.37	11.40	-41.7	-42.8	21.8	0.00e+00	0	41	0	195035136	56	6288
2026-01-22 16:17:04.38	16.28	11.48	-41.7	-42.8	21.8	0.00e+00	62	41	0	196083712	56	6296
2026-01-22 16:17:05.39	16.20	11.56	-41.8	-42.9	21.8	0.00e+00	92	41	0	198180864	56	6348
2026-01-22 16:17:06.40	16.12	11.65	-41.8	-42.9	21.8	0.00e+00	0	41	0	200278016	56	6326
2026-01-22 16:17:07.40	16.04	11.73	-41.7	-42.8	21.8	0.00e+00	92	41	0	202375168	56	6274
2026-01-22 16:17:08.41	15.96	11.82	-41.7	-42.8	21.8	0.00e+00	21	41	0	204472320	56	6260
2026-01-22 16:17:09.42	15.87	11.90	-41.6	-42.7	21.8	0.00e+00	61	41	0	205520896	56	6228
2026-01-22 16:17:10.43	15.79	11.99	-41.7	-42.8	21.7	0.00e+00	60	41	0	207618048	56	6267
2026-01-22 16:17:11.44	15.70	12.07	-41.6	-42.7	21.8	0.00e+00	21	41	0	209715200	56	6197
2026-01-22 16:17:12.45	15.62	12.16	-41.6	-42.7	21.9	0.00e+00	50	41	0	211812352	56	6181
2026-01-22 16:17:13.46	15.53	12.24	-41.6	-42.6	21.8	0.00e+00	25	41	0	213909504	56	6171
2026-01-22 16:17:14.47	15.45	12.33	-41.6	-42.6	22.0	0.00e+00	92	41	0	214958080	56	6162
2026-01-22 16:17:15.48	15.36	12.41	-41.5	-42.6	22.0	0.00e+00	0	41	0	217055232	56	6111
2026-01-22 16:17:16.49	15.27	12.50	-41.5	-42.6	22.1	0.00e+00	88	41	0	219152384	56	6115
2026-01-22 16:17:17.50	15.18	12.59	-41.5	-42.6	22.1	0.00e+00	23	41	0	221249536	56	6104
2026-01-22 16:17:18.51	15.10	12.68	-41.5	-42.6	22.0	0.00e+00	0	41	0	223346688	56	6109
2026-01-22 16:17:19.52	15.01	12.76	-41.6	-42.7	21.9	0.00e+00	0	41	0	225443840	56	6233
2026-01-22 16:17:20.53	14.92	12.85	-41.3	-42.4	22.2	0.00e+00	6	41	0	226492416	56	5987
2026-01-22 16:17:21.54	14.83	12.94	-41.6	-42.7	22.0	0.00e+00	92	41	0	228589568	56	6210
2026-01-22 16:17:22.55	14.74	13.03	-41.5	-42.5	22.0	0.00e+00	0	41	0	230686720	56	6098
2026-01-22 16:17:23.56	14.65	13.11	-41.6	-42.7	21.9	0.00e+00	59	41	0	232783872	56	6236
2026-01-22 16:17:24.57	14.55	13.20	-41.6	-42.7	21.8	0.00e+00	0	41	0	234881024	56	6224
2026-01-22 16:17:25.58	14.46	13.29	-41.6	-42.7	21.9	0.00e+00	0	41	0	235929600	56	6225
2026-01-22 16:17:26.59	14.37	13.38	-41.5	-42.6	22.0	0.00e+00	0	41	0	238026752	56	6155
2026-01-22 16:17:27.60	14.27	13.47	-41.5	-42.6	22.0	0.00e+00	0	41	0	240123904	56	6151
2026-01-22 16:17:28.61	14.18	13.56	-41.4	-42.4	22.1	0.00e+00	92	41	0	242221056	56	6012
2026-01-22 16:17:29.62	14.09	13.65	-41.4	-42.4	22.2	0.00e+00	6	41	0	244318208	56	6004
2026-01-22 16:17:30.63	13.99	13.74	-41.5	-42.6	22.1	0.00e+00	92	41	0	245366784	56	6144
2026-01-22 16:17:31.64	13.90	13.83	-41.6	-42.6	22.0	0.00e+00	61	41	0	247463936	56	6158
2026-01-22 16:17:32.65	13.80	13.92	-41.6	-42.7	22.0	0.00e+00	24	41	0	249561088	56	6230
2026-01-22 16:17:33.66	13.70	14.01	-41.6	-42.7	21.9	0.00e+00	5	41	0	251658240	56	6241
2026-01-22 16:17:34.67	13.60	14.10	-41.6	-42.6	22.0	0.00e+00	6	41	0	253755392	56	6161
2026-01-22 16:17:35.68	13.51	14.19	-41.5	-42.6	22.0	0.00e+00	90	41	0	254803968	56	6120
2026-01-22 16:17:36.69	13.41	14.28	-41.6	-42.6	22.0	0.00e+00	25	41	0	256901120	56	6172
2026-01-22 16:17:37.70	13.31	14.37	-41.7	-42.7	21.9	0.00e+00	90	41	0	258998272	56	6245
2026-01-22 16:17:38.71	13.21	14.47	-41.2	-42.3	22.4	0.00e+00	6	41	0	261095424	56	5921
2026-01-22 16:17:39.72	13.11	14.56	-41.3	-42.4	22.3	0.00e+00	6	41	0	263192576	56	5985
2026-01-22 16:17:40.73	13.00	14.65	-41.4	-42.4	22.3	0.00e+00	0	41	0	264241152	56	6004
2026-01-22 16:17:41.74	12.90	14.74	-41.3	-42.4	22.3	0.00e+00	7	41	0	266338304	56	5979
2026-01-22 16:17:42.75	12.80	14.84	-41.3	-42.4	22.3	0.00e+00	6	41	0	268435456	56	5979
2026-01-22 16:17:43.76	12.70	14.93	-41.3	-42.4	22.3	0.00e+00	0	41	0	270532608	56	5975
2026-01-22 16:17:44.77	12.59	15.02	-41.2	-42.2	22.5	0.00e+00	91	41	0	272629760	56	5867
2026-01-22 16:17:45.78	12.49	15.12	-41.2	-42.2	22.5	0.00e+00	0	41	0	273678336	56	5852
2026-01-22 16:17:46.78	12.38	15.21	-41.0	-42.0	22.6	0.00e+00	85	41	0	275775488	56	5757
2026-01-22 16:17:47.80	12.28	15.31	-41.1	-42.1	22.5	0.00e+00	0	41	0	277872640	56	5801
2026-01-22 16:17:48.80	12.17	15.40	-41.0	-42.0	22.6	0.00e+00	0	41	0	279969792	56	5742
2026-01-22 16:17:49.81	12.06	15.49	-41.0	-42.0	22.5	0.00e+00	23	41	0	282066944	56	5751
2026-01-22 16:17:50.82	11.95	15.59	-41.1	-42.1	22.4	0.00e+00	63	41	0	283115520	56	5772
2026-01-22 16:17:51.84	11.84	15.69	-41.0	-42.0	22.6	0.00e+00	90	41	0	285212672	56	5736
2026-01-22 16:17:52.85	11.73	15.78	-40.9	-41.9	22.7	0.00e+00	21	41	0	287309824	56	5664
2026-01-22 16:17:53.86	11.62	15.88	-41.0	-42.0	22.6	0.00e+00	92	41	0	289406976	56	5725
2026-01-22 16:17:54.87	11.51	15.97	-41.1	-42.1	22.5	0.00e+00	0	41	0	291504128	56	5791
2026-01-22 16:17:55.88	11.40	16.07	-41.4	-42.4	22.3	0.00e+00	19	41	0	293601280	56	6023
2026-01-22 16:17:56.89	11.29	16.17	-41.2	-42.2	22.4	0.00e+00	18	41	0	294649856	56	5886
2026-01-22 16:17:57.90	11.17	16.26	-41.0	-42.0	22.6	0.00e+00	0	41	0	296747008	56	5748
2026-01-22 16:17:58.91	11.06	16.36	-41.2	-42.3	22.5	0.00e+00	92	41	0	298844160	56	5899
2026-01-22 16:17:59.92	10.94	16.46	-41.1	-42.1	22.6	0.00e+00	0	41	0	300941312	56	5817
2026-01-22 16:18:00.93	10.83	16.56	-41.2	-42.2	22.4	0.00e+00	92	41	0	303038464	56	5854
2026-01-22 16:18:01.94	10.71	16.65	-41.4	-42.5	22.4	0.00e+00	0	41	0	304087040	56	6048
2026-01-22 16:18:02.95	10.59	16.75	-41.4	-42.5	22.4	0.00e+00	92	41	0	306184192	56	6060
2026-01-22 16:18:03.96	10.48	16.85	-41.5	-42.5	22.3	0.00e+00	0	41	0	308281344	56	6096
2026-01-22 16:18:04.97	10.36	16.95	-41.5	-42.5	22.1	0.00e+00	0	41	0	310378496	56	6073
2026-01-22 16:18:05.98	10.24	17.05	-41.6	-42.7	22.1	0.00e+00	0	41	0	312475648	56	6211
2026-01-22 16:18:06.99	10.12	17.15	-41.4	-42.5	22.2	0.00e+00	0	41	0	313524224	56	6066
2026-01-22 16:18:08.00	10.00	17.25	-41.3	-42.4	22.4	0.00e+00	90	41	0	315621376	56	5981
2026-01-22 16:18:09.01	9.87	17.35	-41.2	-42.2	22.6	0.00e+00	23	41	0	317718528	56	5840
2026-01-22 16:18:10.02	9.75	17.45	-41.0	-42.0	22.7	0.00e+00	81	41	0	319815680	56	5746
2026-01-22 16:18:11.03	9.63	17.55	-41.2	-42.3	22.5	0.00e+00	5	41	0	321912832	56	5915
2026-01-22 16:18:12.04	9.50	17.65	-41.0	-42.0	22.7	0.00e+00	63	41	0	322961408	56	5729
2026-01-22 16:18:13.05	9.38	17.75	-41.0	-42.0	22.7	0.00e+00	17	41	0	325058560	56	5737
2026-01-22 16:18:14.06	9.25	17.85	-41.1	-42.1	22.7	0.00e+00	0	41	0	327155712	56	5779
2026-01-22 16:18:15.07	9.12	17.95	-40.8	-41.8	22.9	0.00e+00	92	41	0	329252864	56	5590
2026-01-22 16:18:16.08	9.00	18.05	-40.8	-41.7	22.9	0.00e+00	23	41	0	331350016	56	5558
2026-01-22 16:18:17.08	8.87	18.16	-40.9	-41.9	22.9	0.00e+00	92	41	0	332398592	56	5648
2026-01-22 16:18:18.09	8.74	18.26	-40.8	-41.8	22.7	0.00e+00	16	41	0	334495744	54	6294
2026-01-22 16:18:19.10	8.61	18.36	-40.9	-41.9	22.4	0.00e+00	0	41	0	336592896	54	6345
2026-01-22 16:18:20.11	8.47	18.46	-40.9	-41.9	22.6	0.00e+00	0	41	0	338690048	54	6376
2026-01-22 16:18:21.12	8.34	18.57	-40.9	-41.9	22.9	0.00e+00	0	41	0	340787200	54	6323
2026-01-22 16:18:22.13	8.21	18.67	-41.1	-42.1	22.8	0.00e+00	0	41	0	341835776	54	6474
2026-01-22 16:18:23.14	8.07	18.77	-41.0	-42.0	22.7	0.00e+00	0	41	0	343932928	54	6412
2026-01-22 16:18:24.15	7.94	18.88	-40.8	-41.8	22.8	0.00e+00	91	41	0	346030080	54	6290
2026-01-22 16:18:25.16	7.80	18.98	-41.0	-42.0	22.8	0.00e+00	0	41	0	348127232	54	6406
2026-01-22 16:18:26.17	7.66	19.09	-41.1	-42.1	22.7	0.00e+00	16	41	0	350224384	54	6494
2026-01-22 16:18:27.18	7.53	19.19	-41.0	-42.0	22.8	0.00e+00	2	41	0	351272960	54	6398
2026-01-22 16:18:28.18	7.39	19.29	-41.0	-42.0	22.7	0.00e+00	0	41	0	353370112	54	6404
2026-01-22 16:18:29.19	7.25	19.40	-41.1	-42.1	22.6	0.00e+00	0	41	0	355467264	54	6539
2026-01-22 16:18:30.20	7.11	19.51	-41.1	-42.1	22.7	0.00e+00	66	41	0	357564416	54	6503
2026-01-22 16:18:31.21	6.96	19.61	-41.1	-42.1	22.7	0.00e+00	92	41	0	359661568	54	6501
2026-01-22 16:18:32.22	6.82	19.72	-41.2	-42.2	22.6	0.00e+00	21	41	0	361758720	54	6597
2026-01-22 16:18:33.23	6.68	19.82	-41.2	-42.2	22.6	0.00e+00	92	41	0	362807296	54	6586
2026-01-22 16:18:34.24	6.53	19.93	-41.3	-42.3	22.5	0.00e+00	0	41	0	364904448	54	6642
2026-01-22 16:18:35.25	6.38	20.04	-41.4	-42.4	22.4	0.00e+00	0	41	0	367001600	54	6721
2026-01-22 16:18:36.26	6.24	20.14	-41.3	-42.3	22.4	0.00e+00	16	41	0	369098752	54	6691
2026-01-22 16:18:37.27	6.09	20.25	-41.5	-42.6	22.3	0.00e+00	0	41	0	371195904	54	6875
2026-01-22 16:18:38.28	5.94	20.36	-41.5	-42.5	22.3	0.00e+00	92	41	0	372244480	54	6817
2026-01-22 16:18:39.28	5.79	20.47	-41.5	-42.6	22.3	0.00e+00	2	41	0	374341632	54	6851
2026-01-22 16:18:40.29	5.64	20.57	-41.5	-42.6	22.2	0.00e+00	92	41	0	376438784	54	6865
2026-01-22 16:18:41.30	5.48	20.68	-41.7	-42.7	22.0	0.00e+00	0	41	0	378535936	54	7006
2026-01-22 16:18:42.31	5.33	20.79	-42.0	-43.2	21.8	0.00e+00	0	41	0	380633088	56	6542
2026-01-22 16:18:43.32	5.18	20.90	-41.7	-42.8	22.2	0.00e+00	0	41	0	381681664	56	6251
2026-01-22 16:18:44.33	5.02	21.01	-41.5	-42.6	22.2	0.00e+00	2	41	0	383778816	56	6109
2026-01-22 16:18:45.34	4.86	21.12	-41.6	-42.7	22.2	0.00e+00	42	41	0	385875968	56	6223
2026-01-22 16:18:46.35	4.70	21.23	-41.6	-42.7	22.2	0.00e+00	0	41	0	387973120	56	6226
2026-01-22 16:18:47.36	4.54	21.34	-41.7	-42.7	22.2	0.00e+00	92	41	0	390070272	56	6225
2026-01-22 16:18:48.36	4.38	21.45	-41.6	-42.7	22.2	0.00e+00	0	41	0	391118848	56	6198
2026-01-22 16:18:49.37	4.22	21.56	-41.7	-42.8	22.1	0.00e+00	11	41	0	393216000	56	6272
2026-01-22 16:18:50.37	4.06	21.67	-41.5	-42.5	22.4	0.00e+00	0	41	0	395313152	56	6091
2026-01-22 16:18:51.38	3.90	21.78	-41.4	-42.4	22.5	0.00e+00	0	41	0	397410304	56	6007
2026-01-22 16:18:52.39	3.73	21.89	-41.4	-42.4	22.4	0.00e+00	0	41	0	399507456	56	6028
2026-01-22 16:18:53.40	3.56	22.00	-41.3	-42.4	22.5	0.00e+00	0	41	0	400556032	56	5980
2026-01-22 16:18:54.41	3.40	22.11	-41.3	-42.3	22.6	0.00e+00	90	41	0	402653184	56	5911
2026-01-22 16:18:55.42	3.23	22.22	-41.2	-42.2	22.7	0.00e+00	23	41	0	404750336	56	5886
2026-01-22 16:18:56.43	3.06	22.33	-41.2	-42.3	22.5	0.00e+00	92	41	0	406847488	56	5913
2026-01-22 16:18:57.44	2.89	22.45	-41.4	-42.4	22.6	0.00e+00	23	41	0	408944640	56	6013
2026-01-22 16:18:58.45	2.71	22.56	-41.3	-42.3	22.5	0.00e+00	0	41	0	409993216	56	5941
2026-01-22 16:18:59.46	2.54	22.67	-41.0	-42.0	22.6	0.00e+00	0	41	0	412090368	56	5741
2026-01-22 16:19:00.47	2.36	22.78	-41.0	-41.9	22.1	0.00e+00	6	41	0	414187520	56	5676
2026-01-22 16:19:01.48	2.19	22.90	-41.0	-41.9	22.9	0.00e+00	60	41	0	416284672	56	5690
2026-01-22 16:19:02.48	2.01	23.01	-41.1	-42.1	22.7	0.00e+00	6	41	0	418381824	56	5763
2026-01-22 16:19:03.49	1.83	23.12	-40.9	-41.9	22.9	0.00e+00	92	41	0	419430400	56	5658
2026-01-22 16:19:04.50	1.65	23.23	-40.9	-41.9	22.9	0.00e+00	6	41	0	421527552	56	5674
2026-01-22 16:19:05.51	1.47	23.35	-41.1	-42.1	22.8	0.00e+00	6	41	0	423624704	56	5786
2026-01-22 16:19:06.52	1.28	23.46	-41.0	-42.0	22.9	0.00e+00	0	41	0	425721856	56	5708
2026-01-22 16:19:07.53	1.10	23.58	-41.1	-42.1	22.8	0.00e+00	5	41	0	427819008	56	5826
2026-01-22 16:19:08.54	0.91	23.69	-41.1	-42.1	22.7	0.00e+00	15	41	0	428867584	56	5803
2026-01-22 16:19:09.55	0.73	23.80	-41.2	-42.2	22.7	0.00e+00	0	41	0	430964736	56	5858
2026-01-22 16:19:10.56	0.54	23.92	-41.2	-42.2	22.7	0.00e+00	92	41	0	433061888	56	5893
2026-01-22 16:19:11.57	0.35	24.03	-41.2	-42.2	22.6	0.00e+00	60	41	0	435159040	56	5883
2026-01-22 16:19:12.58	0.15	24.15	-41.4	-42.4	22.5	0.00e+00	87	41	0	437256192	56	5991
2026-01-22 16:19:13.59	359.96	24.26	-41.3	-42.3	22.7	0.00e+00	0	41	0	438304768	56	5914
2026-01-22 16:19:14.59	359.77	24.38	-41.2	-42.2	22.6	0.00e+00	65	41	0	440401920	56	5895
2026-01-22 16:19:15.60	359.57	24.49	-41.3	-42.3	22.6	0.00e+00	0	41	0	442499072	56	5931
2026-01-22 16:19:16.61	359.37	24.61	-41.3	-42.3	22.4	0.00e+00	22	41	0	444596224	56	5950
2026-01-22 16:19:17.62	359.18	24.72	-41.2	-42.2	22.5	0.00e+00	92	41	0	446693376	56	5890
2026-01-22 16:19:18.63	358.97	24.84	-41.2	-42.2	22.7	0.00e+00	64	41	0	447741952	56	5882
2026-01-22 16:19:19.64	358.77	24.96	-41.4	-42.4	22.5	0.00e+00	92	41	0	449839104	56	5992
2026-01-22 16:19:20.65	358.57	25.07	-41.5	-42.5	22.4	0.00e+00	25	41	0	451936256	56	6068
2026-01-22 16:19:21.66	358.36	25.19	-41.5	-42.6	22.4	0.00e+00	0	41	0	454033408	56	6113
2026-01-22 16:19:22.67	358.16	25.30	-41.7	-42.8	22.2	0.00e+00	5	41	0	456130560	56	6249
2026-01-22 16:19:23.68	357.95	25.42	-41.9	-43.0	22.0	0.00e+00	6	41	0	458227712	56	6416
2026-01-22 16:19:24.69	357.74	25.54	-42.2	-43.3	21.6	0.00e+00	39	41	0	459276288	56	6669
2026-01-22 16:19:25.70	357.53	25.65	-42.5	-43.6	21.5	0.00e+00	6	41	0	461373440	56	6912
2026-01-22 16:19:26.71	357.32	25.77	-42.8	-44.0	21.2	0.00e+00	92	41	0	463470592	56	7208
2026-01-22 16:19:27.72	357.10	25.88	-42.6	-43.8	21.1	0.00e+00	6	41	0	465567744	58	6311
2026-01-22 16:19:28.73	356.88	26.00	-42.9	-44.1	20.9	0.00e+00	91	41	0	467664896	58	6522
2026-01-22 16:19:29.74	356.67	26.12	-42.8	-44.1	21.0	0.00e+00	0	41	0	468713472	58	6496
2026-01-22 16:19:30.75	356.45	26.23	-42.8	-44.0	21.1	0.00e+00	6	41	0	470810624	58	6427
2026-01-22 16:19:31.76	356.23	26.35	-42.7	-43.9	21.1	0.00e+00	65	41	0	472907776	58	6337
2026-01-22 16:19:32.77	356.00	26.47	-42.7	-43.9	21.1	0.00e+00	65	41	0	475004928	58	6347
2026-01-22 16:19:33.78	355.78	26.58	-42.7	-43.9	21.0	0.00e+00	92	41	0	477102080	58	6388
2026-01-22 16:19:34.79	355.55	26.70	-43.0	-44.2	20.9	0.00e+00	0	41	0	478150656	58	6607
2026-01-22 16:19:35.80	355.33	26.82	-43.0	-44.2	20.9	0.00e+00	92	41	0	480247808	58	6593
2026-01-22 16:19:36.81	355.10	26.93	-42.9	-44.2	20.9	0.00e+00	19	41	0	482344960	58	6587
2026-01-22 16:19:37.82	354.87	27.05	-42.9	-44.2	20.8	0.00e+00	61	41	0	484442112	58	6544
2026-01-22 16:19:38.83	354.63	27.17	-42.5	-43.7	21.3	0.00e+00	52	41	0	486539264	58	6226
2026-01-22 16:19:39.84	354.40	27.29	-42.5	-43.7	21.3	0.00e+00	14	41	0	487587840	58	6228
2026-01-22 16:19:40.84	354.16	27.40	-42.6	-43.8	21.3	0.00e+00	92	41	0	489684992	58	6261
2026-01-22 16:19:41.85	353.93	27.52	-42.5	-43.7	21.4	0.00e+00	67	41	0	491782144	58	6184
2026-01-22 16:19:42.86	353.69	27.63	-42.5	-43.7	21.2	0.00e+00	92	41	0	493879296	58	6237
2026-01-22 16:19:43.87	353.44	27.75	-42.6	-43.8	21.1	0.00e+00	20	41	0	495976448	58	6288
2026-01-22 16:19:44.88	353.20	27.87	-42.8	-44.0	21.0	0.00e+00	20	41	0	497025024	58	6444
2026-01-22 16:19:45.89	352.96	27.98	-42.9	-44.2	20.9	0.00e+00	0	41	0	499122176	58	6575
2026-01-22 16:19:46.90	352.71	28.10	-43.0	-44.2	20.8	0.00e+00	0	41	0	501219328	58	6604
2026-01-22 16:19:47.91	352.46	28.21	-42.8	-44.0	21.1	0.00e+00	90	41	0	503316480	58	6433
2026-01-22 16:19:48.92	352.21	28.33	-42.8	-44.0	21.1	0.00e+00	0	41	0	505413632	58	6431
2026-01-22 16:19:49.93	351.96	28.45	-42.7	-43.9	21.1	0.00e+00	88	41	0	506462208	58	6328
2026-01-22 16:19:50.94	351.70	28.56	-42.8	-44.0	21.1	0.00e+00	0	41	0	508559360	58	6436
2026-01-22 16:19:51.95	351.45	28.68	-42.6	-43.8	21.4	0.00e+00	92	41	0	510656512	58	6250
2026-01-22 16:19:52.96	351.19	28.79	-42.6	-43.8	21.3	0.00e+00	0	41	0	512753664	58	6247
2026-01-22 16:19:53.96	350.93	28.91	-42.7	-43.9	21.2	0.00e+00	65	41	0	514850816	58	6335
2026-01-22 16:19:54.98	350.67	29.02	-42.7	-43.9	21.2	0.00e+00	0	41	0	515899392	58	6372
2026-01-22 16:19:55.98	350.41	29.14	-42.8	-44.0	20.9	0.00e+00	67	41	0	517996544	58	6422
2026-01-22 16:19:56.99	350.14	29.25	-42.7	-43.9	21.2	0.00e+00	92	41	0	520093696	58	6350
2026-01-22 16:19:58.00	349.87	29.37	-42.6	-43.8	21.4	0.00e+00	67	41	0	522190848	58	6256
2026-01-22 16:19:59.01	349.60	29.48	-42.7	-43.9	21.2	0.00e+00	87	41	0	524288000	58	6331
2026-01-22 16:20:00.02	349.33	29.59	-42.5	-43.7	21.4	0.00e+00	19	41	0	526385152	58	6198
2026-01-22 16:20:01.03	349.06	29.71	-42.5	-43.6	21.4	0.00e+00	61	41	0	527433728	58	6170
2026-01-22 16:20:02.04	348.78	29.82	-42.6	-43.8	21.3	0.00e+00	62	41	0	529530880	58	6306
2026-01-22 16:20:03.05	348.51	29.93	-42.9	-44.2	21.0	0.00e+00	0	41	0	531628032	58	6550
2026-01-22 16:20:04.06	348.23	30.05	-42.6	-43.8	21.3	0.00e+00	92	41	0	533725184	58	6286
2026-01-22 16:20:05.07	347.95	30.16	-42.5	-43.7	21.4	0.00e+00	2	41	0	535822336	58	6177
2026-01-22 16:20:06.08	347.66	30.27	-42.3	-43.4	21.7	0.00e+00	92	41	0	536870912	58	6000
2026-01-22 16:20:07.09	347.38	30.38	-42.2	-43.3	21.7	0.00e+00	2	41	0	538968064	58	5933
2026-01-22 16:20:08.10	347.09	30.49	-42.2	-43.3	21.7	0.00e+00	23	41	0	541065216	58	5944
2026-01-22 16:20:09.11	346.80	30.60	-42.4	-43.5	21.6	0.00e+00	21	41	0	543162368	58	6103
2026-01-22 16:20:10.12	346.51	30.71	-42.8	-44.0	21.2	0.00e+00	0	41	0	545259520	58	6454
2026-01-22 16:20:11.13	346.22	30.82	-43.2	-44.5	20.6	0.00e+00	92	41	0	546308096	58	6783
2026-01-22 16:20:12.14	345.92	30.93	-43.5	-44.9	20.3	0.00e+00	0	41	0	548405248	58	7102
2026-01-22 16:20:13.15	345.62	31.04	-43.8	-45.2	19.9	0.00e+00	90	41	0	550502400	60	6607
2026-01-22 16:20:14.15	345.33	31.15	-43.9	-45.3	19.9	0.00e+00	0	41	0	552599552	60	6686
2026-01-22 16:20:15.16	345.03	31.26	-44.0	-45.4	19.9	0.00e+00	29	41	0	554696704	60	6768
2026-01-22 16:20:16.17	344.72	31.37	-44.1	-45.6	19.6	0.00e+00	62	41	0	555745280	60	6856
2026-01-22 16:20:17.18	344.42	31.47	-44.4	-46.0	19.3	0.00e+00	61	41	0	557842432	60	7200
2026-01-22 16:20:18.19	344.11	31.58	-44.7	-46.3	18.9	0.00e+00	0	41	0	559939584	60	7457
2026-01-22 16:20:19.20	343.80	31.69	-44.9	-46.6	18.6	0.00e+00	0	41	0	562036736	60	7719
2026-01-22 16:20:20.21	343.49	31.79	-44.9	-46.6	18.7	0.00e+00	92	41	0	564133888	60	7698
2026-01-22 16:20:21.22	343.18	31.90	-44.9	-46.5	18.7	0.00e+00	15	41	0	565182464	60	7616
2026-01-22 16:20:22.23	342.86	32.00	-45.0	-46.6	18.8	0.00e+00	74	41	0	567279616	60	7741
2026-01-22 16:20:23.24	342.54	32.10	-45.2	-46.9	18.4	0.00e+00	66	41	0	569376768	60	8037
2026-01-22 16:20:24.25	342.22	32.21	-45.4	-47.2	18.0	0.00e+00	62	41	0	571473920	60	8316
2026-01-22 16:20:25.26	341.90	32.31	-45.6	-47.5	17.9	0.00e+00	21	41	0	573571072	60	8540
2026-01-22 16:20:26.27	341.58	32.41	-45.7	-47.6	17.7	0.00e+00	2	41	0	574619648	60	8633
2026-01-22 16:20:27.27	341.26	32.51	-45.6	-47.5	17.8	0.00e+00	90	41	0	576716800	60	8556
2026-01-22 16:20:28.28	340.93	32.61	-45.8	-47.7	17.7	0.00e+00	13	41	0	578813952	60	8776
2026-01-22 16:20:29.29	340.60	32.71	-46.0	-48.0	17.4	0.00e+00	91	41	0	580911104	60	9072
2026-01-22 16:20:30.30	340.27	32.81	-46.3	-48.5	16.9	0.00e+00	13	41	0	583008256	60	9623
2026-01-22 16:20:31.31	339.93	32.91	-46.4	-48.6	16.7	0.00e+00	2	41	0	584056832	60	9710
2026-01-22 16:20:32.32	339.60	33.00	-46.5	-48.8	16.5	0.00e+00	0	41	0	586153984	60	9991
2026-01-22 16:20:33.33	339.26	33.10	-46.5	-48.8	16.5	0.00e+00	0	41	0	588251136	60	9964
2026-01-22 16:20:34.34	338.92	33.19	-46.5	-48.9	16.5	0.00e+00	61	41	0	590348288	60	10021
2026-01-22 16:20:35.35	338.58	33.29	-46.7	-49.0	16.3	0.00e+00	0	41	0	592445440	60	10242
2026-01-22 16:20:36.36	338.23	33.38	-46.5	-48.8	16.5	0.00e+00	91	41	0	594542592	60	9995
2026-01-22 16:20:37.37	337.89	33.48	-46.1	-48.2	17.1	0.00e+00	67	41	0	595591168	60	9337
2026-01-22 16:20:38.38	337.54	33.57	-45.7	-47.6	17.7	0.00e+00	65	41	0	597688320	60	8680
2026-01-22 16:20:39.38	337.19	33.66	-45.3	-47.1	18.2	0.00e+00	0	41	0	599785472	60	8193
2026-01-22 16:20:40.39	336.84	33.75	-44.7	-46.2	19.0	0.00e+00	65	41	0	601882624	60	7401
2026-01-22 16:20:41.41	336.48	33.84	-44.3	-45.8	19.6	0.00e+00	0	41	0	602931200	60	7016
2026-01-22 16:20:42.42	336.13	33.93	-44.3	-45.8	19.5	0.00e+00	0	41	0	605028352	60	7069
2026-01-22 16:20:43.42	335.77	34.01	-44.2	-45.6	19.7	0.00e+00	92	41	0	607125504	60	6923
2026-01-22 16:20:44.44	335.41	34.10	-44.2	-45.7	19.8	0.00e+00	16	41	0	609222656	60	6928
2026-01-22 16:20:45.44	335.05	34.18	-44.2	-45.6	19.6	0.00e+00	90	41	0	611319808	60	6891
2026-01-22 16:20:46.46	334.69	34.27	-43.8	-45.1	20.1	0.00e+00	14	41	0	613416960	60	6508
2026-01-22 16:20:47.47	334.32	34.35	-44.1	-45.5	20.0	0.00e+00	14	41	0	614465536	60	6800
2026-01-22 16:20:48.48	333.95	34.43	-43.8	-45.2	20.2	0.00e+00	14	41	0	616562688	60	6589
2026-01-22 16:20:49.49	333.58	34.51	-43.5	-44.9	20.4	0.00e+00	16	41	0	618659840	60	6337
2026-01-22 16:20:50.50	333.21	34.59	-43.5	-44.8	20.5	0.00e+00	92	41	0	620756992	60	6306
2026-01-22 16:20:51.51	332.84	34.67	-42.8	-44.0	21.1	0.00e+00	0	41	0	622854144	60	5739
2026-01-22 16:20:52.52	332.47	34.75	-42.2	-43.4	21.8	0.00e+00	90	41	0	623902720	58	5979
2026-01-22 16:20:53.53	332.09	34.82	-42.2	-43.3	21.8	0.00e+00	5	41	0	625999872	58	5921
2026-01-22 16:20:54.54	331.71	34.90	-42.4	-43.6	21.5	0.00e+00	0	41	0	628097024	58	6134
2026-01-22 16:20:55.55	331.33	34.97	-42.5	-43.6	21.6	0.00e+00	0	41	0	630194176	58	6143
2026-01-22 16:20:56.55	330.95	35.04	-41.9	-43.0	22.1	0.00e+00	0	41	0	632291328	58	5737
2026-01-22 16:20:57.56	330.57	35.11	-42.0	-43.1	22.0	0.00e+00	82	41	0	633339904	58	5777
2026-01-22 16:20:58.57	330.19	35.18	-41.8	-42.8	22.2	0.00e+00	67	41	0	635437056	58	5626
2026-01-22 16:20:59.58	329.80	35.25	-42.0	-43.1	22.0	0.00e+00	92	41	0	637534208	56	6476
2026-01-22 16:21:00.59	329.41	35.32	-41.9	-43.0	22.1	0.00e+00	0	41	0	639631360	56	6405
2026-01-22 16:21:01.60	329.02	35.38	-41.7	-42.8	22.3	0.00e+00	92	41	0	641728512	56	6283
2026-01-22 16:21:02.61	328.63	35.45	-41.7	-42.7	22.5	0.00e+00	67	41	0	642777088	56	6207
2026-01-22 16:21:03.62	328.24	35.51	-41.6	-42.6	22.4	0.00e+00	66	41	0	644874240	56	6170
2026-01-22 16:21:04.63	327.84	35.57	-41.5	-42.6	22.5	0.00e+00	0	41	0	646971392	56	6112
2026-01-22 16:21:05.64	327.45	35.63	-41.5	-42.5	22.6	0.00e+00	0	41	0	649068544	56	6094
2026-01-22 16:21:06.64	327.05	35.69	-41.5	-42.6	22.6	0.00e+00	92	41	0	651165696	56	6126
2026-01-22 16:21:07.65	326.66	35.74	-41.3	-42.3	22.8	0.00e+00	23	41	0	652214272	56	5952
2026-01-22 16:21:08.66	326.26	35.80	-41.0	-42.0	23.1	0.00e+00	92	41	0	654311424	56	5738
2026-01-22 16:21:09.67	325.85	35.85	-40.7	-41.6	23.3	0.00e+00	7	41	0	656408576	56	5493
2026-01-22 16:21:10.68	325.45	35.90	-40.6	-41.5	23.4	0.00e+00	18	41	0	658505728	54	6089
2026-01-22 16:21:11.69	325.05	35.95	-40.5	-41.4	23.5	0.00e+00	20	41	0	660602880	54	6024
2026-01-22 16:21:12.70	324.64	36.00	-40.5	-41.4	23.5	0.00e+00	17	41	0	661651456	54	6012
2026-01-22 16:21:13.71	324.24	36.05	-40.3	-41.2	23.6	0.00e+00	73	41	0	663748608	54	5865
2026-01-22 16:21:14.72	323.83	36.10	-40.1	-41.0	23.8	0.00e+00	6	41	0	665845760	54	5743
2026-01-22 16:21:15.73	323.42	36.14	-39.8	-40.6	24.2	0.00e+00	90	41	0	667942912	52	6138
2026-01-22 16:21:16.74	323.01	36.18	-39.7	-40.5	24.3	0.00e+00	7	41	0	670040064	52	6077
2026-01-22 16:21:17.75	322.60	36.23	-39.6	-40.5	24.3	0.00e+00	16	41	0	671088640	52	6058
2026-01-22 16:21:18.76	322.19	36.27	-39.8	-40.7	24.1	0.00e+00	63	41	0	673185792	52	6208
2026-01-22 16:21:19.77	321.77	36.30	-40.0	-40.9	23.9	0.00e+00	62	41	0	675282944	52	6351
2026-01-22 16:21:20.78	321.36	36.34	-40.1	-40.9	23.9	0.00e+00	63	41	0	677380096	52	6390
2026-01-22 16:21:21.79	320.95	36.37	-40.1	-41.0	23.8	0.00e+00	61	41	0	679477248	52	6432
2026-01-22 16:21:22.80	320.53	36.41	-40.1	-41.0	23.9	0.00e+00	90	41	0	681574400	52	6439
2026-01-22 16:21:23.81	320.11	36.44	-40.1	-41.1	23.8	0.00e+00	68	41	0	682622976	52	6465
2026-01-22 16:21:24.82	319.70	36.47	-40.1	-41.0	23.9	0.00e+00	39	41	0	684720128	52	6462
2026-01-22 16:21:25.83	319.28	36.50	-40.0	-40.8	24.1	0.00e+00	13	41	0	686817280	52	6316
2026-01-22 16:21:26.84	318.86	36.52	-40.0	-40.9	24.1	0.00e+00	16	41	0	688914432	52	6352
2026-01-22 16:21:27.85	318.44	36.55	-39.4	-40.2	24.6	0.00e+00	37	41	0	691011584	52	5887
2026-01-22 16:21:28.86	318.02	36.57	-39.5	-40.3	24.4	0.00e+00	0	41	0	692060160	52	5924
2026-01-22 16:21:29.87	317.60	36.59	-39.3	-40.1	24.6	0.00e+00	92	41	0	694157312	52	5812
2026-01-22 16:21:30.88	317.18	36.61	-39.6	-40.4	24.3	0.00e+00	2	41	0	696254464	52	6022
2026-01-22 16:21:31.89	316.76	36.63	-40.0	-40.8	24.0	0.00e+00	90	41	0	698351616	52	6312
2026-01-22 16:21:32.89	316.34	36.64	-40.2	-41.1	23.9	0.00e+00	15	41	0	700448768	52	6484
2026-01-22 16:21:33.90	315.92	36.65	-40.3	-41.2	23.8	0.00e+00	0	41	0	701497344	52	6594
2026-01-22 16:21:34.92	315.49	36.67	-40.4	-41.3	23.6	0.00e+00	2	41	0	703594496	52	6637
2026-01-22 16:21:35.92	315.07	36.68	-40.6	-41.5	23.4	0.00e+00	0	41	0	705691648	52	6811
2026-01-22 16:21:36.93	314.65	36.69	-40.7	-41.6	23.4	0.00e+00	92	41	0	707788800	52	6915
2026-01-22 16:21:37.94	314.22	36.69	-40.8	-41.8	23.1	0.00e+00	0	41	0	709885952	54	6249
2026-01-22 16:21:38.95	313.80	36.70	-41.0	-42.0	22.9	0.00e+00	92	41	0	710934528	54	6411
2026-01-22 16:21:39.96	313.38	36.70	-41.2	-42.2	22.7	0.00e+00	68	41	0	713031680	54	6576
2026-01-22 16:21:40.97	312.95	36.70	-41.4	-42.4	22.7	0.00e+00	24	41	0	715128832	54	6721
2026-01-22 16:21:41.98	312.53	36.70	-41.4	-42.4	22.6	0.00e+00	0	41	0	717225984	54	6732
2026-01-22 16:21:42.99	312.10	36.70	-41.3	-42.3	22.7	0.00e+00	66	41	0	719323136	54	6637
2026-01-22 16:21:44.00	311.68	36.69	-41.3	-42.3	22.7	0.00e+00	0	41	0	720371712	54	6652
2026-01-22 16:21:45.01	311.26	36.69	-41.3	-42.3	22.6	0.00e+00	20	41	0	722468864	54	6669
2026-01-22 16:21:46.02	310.83	36.68	-41.3	-42.3	22.7	0.00e+00	92	41	0	724566016	54	6647
2026-01-22 16:21:47.03	310.41	36.67	-41.4	-42.4	22.7	0.00e+00	0	41	0	726663168	54	6703
2026-01-22 16:21:48.04	309.99	36.66	-41.2	-42.1	22.8	0.00e+00	92	41	0	728760320	54	6524
2026-01-22 16:21:49.05	309.56	36.65	-41.3	-42.3	22.7	0.00e+00	19	41	0	729808896	54	6684
2026-01-22 16:21:50.06	309.14	36.63	-41.4	-42.4	22.5	0.00e+00	0	41	0	731906048	54	6715
2026-01-22 16:21:51.07	308.72	36.62	-41.4	-42.4	22.6	0.00e+00	29	41	0	734003200	54	6732
2026-01-22 16:21:52.08	308.30	36.60	-41.7	-42.7	22.3	0.00e+00	0	41	0	736100352	54	7005
2026-01-22 16:21:53.09	307.88	36.58	-41.9	-43.0	22.1	0.00e+00	92	41	0	738197504	56	6431
2026-01-22 16:21:54.10	307.46	36.56	-42.1	-43.1	22.1	0.00e+00	13	41	0	739246080	56	6535
2026-01-22 16:21:55.11	307.04	36.53	-42.1	-43.1	22.1	0.00e+00	0	41	0	741343232	56	6538
2026-01-22 16:21:56.12	306.62	36.51	-41.9	-42.9	22.3	0.00e+00	0	41	0	743440384	56	6355
2026-01-22 16:21:57.13	306.20	36.48	-41.9	-43.0	22.2	0.00e+00	2	41	0	745537536	56	6392
2026-01-22 16:21:58.14	305.78	36.45	-41.9	-42.9	22.1	0.00e+00	0	41	0	747634688	56	6377
2026-01-22 16:21:59.15	305.36	36.42	-42.1	-43.2	22.0	0.00e+00	0	41	0	749731840	56	6596
2026-01-22 16:22:00.16	304.95	36.39	-42.2	-43.3	21.8	0.00e+00	91	41	0	750780416	56	6679
2026-01-22 16:22:01.17	304.53	36.36	-42.3	-43.3	21.9	0.00e+00	0	41	0	752877568	56	6686
2026-01-22 16:22:02.18	304.12	36.32	-42.5	-43.6	21.5	0.00e+00	91	41	0	754974720	56	6894
2026-01-22 16:22:03.19	303.70	36.28	-43.0	-44.2	21.1	0.00e+00	0	41	0	757071872	58	6571
2026-01-22 16:22:04.20	303.29	36.24	-43.0	-44.3	21.0	0.00e+00	43	41	0	759169024	58	6635
2026-01-22 16:22:05.21	302.88	36.20	-43.0	-44.2	21.0	0.00e+00	67	41	0	760217600	58	6584
2026-01-22 16:22:06.22	302.47	36.16	-42.9	-44.1	21.1	0.00e+00	13	41	0	762314752	58	6513
2026-01-22 16:22:07.23	302.06	36.12	-42.8	-44.0	21.3	0.00e+00	0	41	0	764411904	58	6449
2026-01-22 16:22:08.24	301.65	36.07	-42.5	-43.6	21.5	0.00e+00	12	41	0	766509056	58	6159
2026-01-22 16:22:09.24	301.25	36.03	-42.4	-43.6	21.6	0.00e+00	92	41	0	768606208	58	6118
2026-01-22 16:22:10.25	300.84	35.98	-42.4	-43.5	21.7	0.00e+00	0	41	0	769654784	58	6051
2026-01-22 16:22:11.26	300.44	35.93	-42.6	-43.7	21.5	0.00e+00	0	41	0	771751936	58	6241
2026-01-22 16:22:12.27	300.03	35.88	-42.8	-44.0	21.1	0.00e+00	15	41	0	773849088	58	6417
2026-01-22 16:22:13.28	299.63	35.82	-42.9	-44.1	21.1	0.00e+00	14	41	0	775946240	58	6510
2026-01-22 16:22:14.29	299.23	35.77	-42.9	-44.1	21.1	0.00e+00	0	41	0	778043392	58	6468
2026-01-22 16:22:15.30	298.83	35.71	-42.9	-44.1	21.1	0.00e+00	19	41	0	779091968	58	6521
2026-01-22 16:22:16.31	298.43	35.66	-42.8	-44.0	21.1	0.00e+00	91	41	0	781189120	58	6441
2026-01-22 16:22:17.32	298.03	35.60	-43.1	-44.3	21.0	0.00e+00	2	41	0	783286272	58	6643
2026-01-22 16:22:18.33	297.64	35.54	-43.0	-44.2	21.1	0.00e+00	67	41	0	785383424	58	6597
2026-01-22 16:22:19.34	297.25	35.47	-43.0	-44.2	21.1	0.00e+00	0	41	0	787480576	58	6580
2026-01-22 16:22:20.35	296.85	35.41	-43.0	-44.3	21.0	0.00e+00	0	41	0	788529152	58	6617
2026-01-22 16:22:21.36	296.46	35.35	-42.9	-44.1	21.1	0.00e+00	0	41	0	790626304	58	6511
2026-01-22 16:22:22.37	296.07	35.28	-42.8	-44.0	21.4	0.00e+00	64	41	0	792723456	58	6396
2026-01-22 16:22:23.38	295.68	35.21	-42.5	-43.6	21.5	0.00e+00	90	41	0	794820608	58	6150
2026-01-22 16:22:24.39	295.30	35.14	-42.3	-43.4	21.8	0.00e+00	66	41	0	796917760	58	5987
2026-01-22 16:22:25.40	294.91	35.07	-42.1	-43.2	22.0	0.00e+00	92	41	0	797966336	58	5836
2026-01-22 16:22:26.40	294.53	35.00	-41.8	-42.8	22.4	0.00e+00	0	41	0	800063488	58	5607
2026-01-22 16:22:27.41	294.15	34.93	-41.7	-42.8	22.3	0.00e+00	0	41	0	802160640	56	6256
2026-01-22 16:22:28.42	293.77	34.86	-41.8	-42.8	22.4	0.00e+00	14	41	0	804257792	56	6279
2026-01-22 16:22:29.44	293.39	34.78	-41.9	-42.9	22.3	0.00e+00	16	41	0	806354944	56	6376
2026-01-22 16:22:30.44	293.02	34.70	-41.9	-42.9	22.2	0.00e+00	0	41	0	807403520	56	6371
2026-01-22 16:22:31.45	292.65	34.63	-41.8	-42.9	22.3	0.00e+00	16	41	0	809500672	56	6335
2026-01-22 16:22:32.46	292.27	34.55	-41.9	-43.0	22.2	0.00e+00	92	41	0	811597824	56	6407
2026-01-22 16:22:33.47	291.90	34.47	-41.6	-42.6	22.5	0.00e+00	5	41	0	813694976	56	6157
2026-01-22 16:22:34.48	291.53	34.39	-41.6	-42.6	22.5	0.00e+00	50	41	0	815792128	56	6139
2026-01-22 16:22:35.49	291.17	34.30	-41.4	-42.4	22.5	0.00e+00	8	41	0	816840704	56	6015
2026-01-22 16:22:36.50	290.80	34.22	-41.7	-42.7	22.5	0.00e+00	16	41	0	818937856	56	6208
2026-01-22 16:22:37.51	290.44	34.14	-41.6	-42.6	22.3	0.00e+00	5	41	0	821035008	56	6158
2026-01-22 16:22:38.52	290.08	34.05	-41.7	-42.7	22.4	0.00e+00	6	41	0	823132160	56	6238
2026-01-22 16:22:39.53	289.72	33.96	-41.9	-42.9	22.1	0.00e+00	90	41	0	825229312	56	6368
2026-01-22 16:22:40.54	289.36	33.88	-42.1	-43.2	21.9	0.00e+00	0	41	0	827326464	56	6612
2026-01-22 16:22:41.55	289.01	33.79	-42.3	-43.5	21.7	0.00e+00	90	41	0	828375040	56	6784
2026-01-22 16:22:42.56	288.65	33.70	-42.4	-43.6	21.6	0.00e+00	66	41	0	830472192	56	6849
2026-01-22 16:22:43.57	288.30	33.61	-42.3	-43.5	21.8	0.00e+00	59	41	0	832569344	56	6772
2026-01-22 16:22:44.58	287.95	33.51	-42.3	-43.4	21.8	0.00e+00	49	41	0	834666496	56	6707
2026-01-22 16:22:45.59	287.60	33.42	-42.2	-43.3	21.9	0.00e+00	60	41	0	836763648	56	6640
2026-01-22 16:22:46.60	287.26	33.33	-42.2	-43.3	21.9	0.00e+00	92	41	0	837812224	56	6651
2026-01-22 16:22:47.61	286.92	33.23	-42.5	-43.6	21.7	0.00e+00	28	41	0	839909376	56	6884
2026-01-22 16:22:48.62	286.57	33.14	-42.9	-44.1	21.1	0.00e+00	92	41	0	842006528	58	6514
2026-01-22 16:22:49.63	286.23	33.04	-43.1	-44.4	20.8	0.00e+00	5	41	0	844103680	58	6738
2026-01-22 16:22:50.64	285.90	32.95	-43.4	-44.6	20.7	0.00e+00	61	41	0	846200832	58	6926
2026-01-22 16:22:51.65	285.56	32.85	-43.3	-44.5	20.8	0.00e+00	60	41	0	847249408	58	6833
2026-01-22 16:22:52.66	285.23	32.75	-43.3	-44.6	20.8	0.00e+00	6	41	0	849346560	58	6865
2026-01-22 16:22:53.67	284.90	32.65	-42.8	-44.0	21.2	0.00e+00	39	41	0	851443712	58	6447
2026-01-22 16:22:54.67	284.57	32.55	-42.8	-44.0	21.2	0.00e+00	20	41	0	853540864	58	6415
2026-01-22 16:22:55.68	284.24	32.45	-42.6	-43.8	21.4	0.00e+00	92	41	0	855638016	58	6278
2026-01-22 16:22:56.69	283.92	32.35	-42.6	-43.8	21.5	0.00e+00	19	41	0	856686592	58	6277
2026-01-22 16:22:57.70	283.59	32.25	-42.8	-44.0	21.3	0.00e+00	73	41	0	858783744	58	6439
2026-01-22 16:22:58.71	283.27	32.14	-43.1	-44.4	20.9	0.00e+00	7	41	0	860880896	58	6709
2026-01-22 16:22:59.72	282.95	32.04	-43.4	-44.7	20.6	0.00e+00	7	41	0	862978048	58	7007
2026-01-22 16:23:00.73	282.64	31.94	-43.2	-44.5	20.8	0.00e+00	6	41	0	865075200	58	6808
2026-01-22 16:23:01.74	282.32	31.83	-43.1	-44.4	20.7	0.00e+00	7	41	0	866123776	58	6703
2026-01-22 16:23:02.75	282.01	31.73	-43.0	-44.2	21.0	0.00e+00	90	41	0	868220928	58	6592
2026-01-22 16:23:03.76	281.70	31.62	-42.9	-44.1	21.1	0.00e+00	67	41	0	870318080	58	6467
2026-01-22 16:23:04.77	281.39	31.51	-42.9	-44.1	21.1	0.00e+00	92	41	0	872415232	58	6510
2026-01-22 16:23:05.78	281.08	31.41	-42.8	-44.1	21.3	0.00e+00	65	41	0	874512384	58	6465
2026-01-22 16:23:06.79	280.78	31.30	-42.8	-44.0	21.2	0.00e+00	0	41	0	875560960	58	6395
2026-01-22 16:23:07.80	280.47	31.19	-42.8	-44.0	21.2	0.00e+00	0	41	0	877658112	58	6455
2026-01-22 16:23:08.81	280.17	31.08	-43.0	-44.2	21.0	0.00e+00	65	41	0	879755264	58	6605
2026-01-22 16:23:09.82	279.87	30.97	-43.0	-44.2	21.0	0.00e+00	92	41	0	881852416	58	6555
2026-01-22 16:23:10.83	279.58	30.86	-43.0	-44.3	21.0	0.00e+00	16	41	0	883949568	58	6633
2026-01-22 16:23:11.84	279.28	30.75	-42.9	-44.1	21.1	0.00e+00	92	41	0	884998144	58	6523
2026-01-22 16:23:12.84	278.99	30.64	-43.0	-44.2	20.9	0.00e+00	15	41	0	887095296	58	6577
2026-01-22 16:23:13.86	278.70	30.53	-43.0	-44.2	20.9	0.00e+00	21	41	0	889192448	58	6591
2026-01-22 16:23:14.87	278.41	30.42	-43.0	-44.2	20.9	0.00e+00	19	41	0	891289600	58	6572
2026-01-22 16:23:15.88	278.12	30.31	-43.3	-44.5	20.8	0.00e+00	2	41	0	893386752	58	6825
2026-01-22 16:23:16.89	277.84	30.20	-43.4	-44.7	20.3	0.00e+00	62	41	0	895483904	58	6937
2026-01-22 16:23:17.90	277.55	30.08	-43.4	-44.6	20.8	0.00e+00	0	41	0	896532480	58	6916
2026-01-22 16:23:18.90	277.28	29.97	-43.0	-44.2	21.1	0.00e+00	90	41	0	898629632	58	6592
2026-01-22 16:23:19.92	276.99	29.86	-42.8	-44.0	21.4	0.00e+00	0	41	0	900726784	58	6420
2026-01-22 16:23:20.92	276.72	29.75	-42.8	-44.0	21.2	0.00e+00	92	41	0	902823936	58	6408
2026-01-22 16:23:21.93	276.45	29.63	-42.9	-44.1	21.0	0.00e+00	0	41	0	904921088	58	6492
2026-01-22 16:23:22.94	276.17	29.52	-42.9	-44.1	21.1	0.00e+00	0	41	0	905969664	58	6509
2026-01-22 16:23:23.95	275.90	29.40	-42.6	-43.8	21.4	0.00e+00	0	41	0	908066816	58	6269
2026-01-22 16:23:24.96	275.63	29.29	-42.6	-43.7	21.5	0.00e+00	0	41	0	910163968	58	6225
2026-01-22 16:23:25.97	275.37	29.18	-42.5	-43.6	21.5	0.00e+00	92	41	0	912261120	58	6145
2026-01-22 16:23:26.98	275.10	29.06	-42.4	-43.5	21.7	0.00e+00	0	41	0	914358272	58	6055
2026-01-22 16:23:27.99	274.84	28.94	-42.1	-43.1	22.0	0.00e+00	91	41	0	915406848	58	5825
2026-01-22 16:23:29.00	274.57	28.83	-41.9	-43.0	22.1	0.00e+00	65	41	0	917504000	58	5720
2026-01-22 16:23:30.01	274.32	28.71	-41.9	-43.0	22.1	0.00e+00	64	41	0	919601152	58	5744
2026-01-22 16:23:31.02	274.06	28.60	-41.8	-42.9	22.3	0.00e+00	0	41	0	921698304	58	5656
2026-01-22 16:23:32.03	273.80	28.48	-41.9	-43.0	22.1	0.00e+00	65	41	0	923795456	56	6392
2026-01-22 16:23:33.04	273.55	28.37	-41.6	-42.7	22.5	0.00e+00	63	41	0	924844032	56	6186
2026-01-22 16:23:34.04	273.30	28.25	-41.3	-42.3	22.7	0.00e+00	16	41	0	926941184	56	5929
2026-01-22 16:23:35.05	273.05	28.13	-41.4	-42.4	22.6	0.00e+00	92	41	0	929038336	56	6017
2026-01-22 16:23:36.06	272.80	28.02	-41.3	-42.2	22.7	0.00e+00	0	41	0	931135488	56	5887
2026-01-22 16:23:37.07	272.55	27.90	-41.2	-42.2	22.9	0.00e+00	0	41	0	933232640	56	5877
2026-01-22 16:23:38.08	272.31	27.78	-41.1	-42.0	23.0	0.00e+00	0	41	0	934281216	56	5743
2026-01-22 16:23:39.09	272.06	27.67	-40.9	-41.8	23.2	0.00e+00	0	41	0	936378368	56	5619
2026-01-22 16:23:40.10	271.82	27.55	-40.8	-41.8	23.4	0.00e+00	41	41	0	938475520	56	5594
2026-01-22 16:23:41.11	271.58	27.43	-40.3	-41.2	23.7	0.00e+00	0	41	0	940572672	54	5858
2026-01-22 16:23:42.12	271.35	27.32	-40.3	-41.2	23.6	0.00e+00	92	41	0	942669824	54	5880
2026-01-22 16:23:43.13	271.11	27.20	-40.4	-41.3	23.6	0.00e+00	0	41	0	943718400	54	5956
2026-01-22 16:23:44.14	270.88	27.08	-40.2	-41.1	23.7	0.00e+00	92	41	0	945815552	54	5798
2026-01-22 16:23:45.15	270.64	26.97	-40.1	-41.0	23.9	0.00e+00	0	41	0	947912704	54	5699
2026-01-22 16:23:46.16	270.41	26.85	-40.0	-40.8	24.0	0.00e+00	0	41	0	950009856	54	5616
2026-01-22 16:23:47.17	270.18	26.73	-39.9	-40.8	24.1	0.00e+00	0	41	0	952107008	54	5609
2026-01-22 16:23:48.18	269.96	26.62	-40.0	-40.8	24.0	0.00e+00	0	41	0	953155584	54	5628
2026-01-22 16:23:49.19	269.73	26.50	-40.1	-41.0	23.9	0.00e+00	90	41	0	955252736	54	5696
2026-01-22 16:23:50.20	269.51	26.38	-39.9	-40.8	24.0	0.00e+00	59	41	0	957349888	54	5589
2026-01-22 16:23:51.21	269.28	26.26	-40.0	-40.9	23.9	0.00e+00	92	41	0	959447040	54	5642
2026-01-22 16:23:52.22	269.06	26.15	-39.9	-40.7	24.0	0.00e+00	66	41	0	961544192	54	5558
2026-01-22 16:23:53.23	268.84	26.03	-39.8	-40.7	24.1	0.00e+00	17	41	0	963641344	54	5523
2026-01-22 16:23:54.24	268.63	25.91	-39.7	-40.6	24.2	0.00e+00	0	41	0	964689920	52	6124
2026-01-22 16:23:55.25	268.41	25.80	-39.7	-40.6	24.3	0.00e+00	0	41	0	966787072	52	6128
2026-01-22 16:23:56.26	268.20	25.68	-39.7	-40.6	24.1	0.00e+00	92	41	0	968884224	52	6115
2026-01-22 16:23:57.27	267.98	25.56	-39.6	-40.4	24.3	0.00e+00	16	41	0	970981376	52	6003
2026-01-22 16:23:58.28	267.77	25.45	-39.8	-40.6	24.2	0.00e+00	92	41	0	973078528	52	6142
2026-01-22 16:23:59.29	267.56	25.33	-39.6	-40.5	23.6	0.00e+00	15	41	0	974127104	52	6035
2026-01-22 16:24:00.30	267.35	25.21	-39.8	-40.6	24.2	0.00e+00	92	41	0	976224256	52	6167
2026-01-22 16:24:01.31	267.15	25.10	-39.8	-40.7	24.1	0.00e+00	0	41	0	978321408	52	6215
2026-01-22 16:24:02.32	266.94	24.98	-39.6	-40.4	23.8	0.00e+00	0	41	0	980418560	52	6006
2026-01-22 16:24:03.33	266.74	24.86	-39.7	-40.5	23.9	0.00e+00	25	41	0	982515712	52	6071
2026-01-22 16:24:04.34	266.54	24.75	-39.8	-40.7	24.0	0.00e+00	0	41	0	983564288	52	6187
2026-01-22 16:24:05.35	266.34	24.63	-40.0	-40.9	24.0	0.00e+00	90	41	0	985661440	52	6325
2026-01-22 16:24:06.36	266.14	24.52	-39.8	-40.7	23.9	0.00e+00	63	41	0	987758592	52	6213
2026-01-22 16:24:07.37	265.94	24.40	-40.0	-40.9	24.0	0.00e+00	92	41	0	989855744	52	6332
2026-01-22 16:24:08.37	265.75	24.29	-40.0	-40.9	23.8	0.00e+00	0	41	0	991952896	52	6380
2026-01-22 16:24:09.39	265.55	24.17	-40.0	-40.9	24.0	0.00e+00	62	41	0	993001472	52	6351
2026-01-22 16:24:10.39	265.36	24.06	-40.1	-41.0	23.8	0.00e+00	0	41	0	995098624	52	6445
2026-01-22 16:24:11.40	265.17	23.94	-40.0	-40.9	23.9	0.00e+00	0	41	0	997195776	52	6385
2026-01-22 16:24:12.41	264.98	23.83	-40.1	-41.0	23.8	0.00e+00	92	41	0	999292928	52	6398
2026-01-22 16:24:13.42	264.79	23.71	-40.1	-41.0	23.7	0.00e+00	19	41	0	1001390080	52	6403
2026-01-22 16:24:14.43	264.60	23.60	-40.2	-41.1	23.8	0.00e+00	92	41	0	1002438656	52	6493
2026-01-22 16:24:15.44	264.41	23.48	-40.3	-41.2	23.7	0.00e+00	57	41	0	1004535808	52	6545
2026-01-22 16:24:16.45	264.23	23.37	-40.3	-41.2	23.6	0.00e+00	23	41	0	1006632960	52	6612
2026-01-22 16:24:17.46	264.05	23.25	-40.4	-41.3	23.5	0.00e+00	24	41	0	1008730112	52	6682
2026-01-22 16:24:18.47	263.86	23.14	-40.3	-41.2	23.6	0.00e+00	6	41	0	1010827264	52	6558
2026-01-22 16:24:19.48	263.68	23.03	-40.3	-41.3	23.6	0.00e+00	53	41	0	1011875840	52	6622
2026-01-22 16:24:20.49	263.50	22.91	-40.5	-41.4	23.5	0.00e+00	6	41	0	1013972992	52	6728
2026-01-22 16:24:21.50	263.33	22.80	-40.4	-41.3	23.6	0.00e+00	90	41	0	1016070144	52	6640
2026-01-22 16:24:22.51	263.15	22.69	-40.4	-41.3	23.5	0.00e+00	6	41	0	1018167296	52	6626
2026-01-22 16:24:23.52	262.97	22.57	-40.4	-41.3	23.6	0.00e+00	0	41	0	1020264448	52	6647
2026-01-22 16:24:24.53	262.80	22.46	-40.4	-41.3	23.6	0.00e+00	0	41	0	1021313024	52	6627
2026-01-22 16:24:25.53	262.63	22.35	-40.5	-41.4	23.4	0.00e+00	7	41	0	1023410176	52	6716
2026-01-22 16:24:26.54	262.46	22.24	-40.5	-41.4	23.5	0.00e+00	6	41	0	1025507328	52	6699
2026-01-22 16:24:27.55	262.29	22.12	-40.4	-41.3	23.5	0.00e+00	0	41	0	1027604480	52	6646
2026-01-22 16:24:28.56	262.12	22.01	-40.5	-41.4	23.4	0.00e+00	92	41	0	1029701632	52	6716
2026-01-22 16:24:29.57	261.95	21.90	-40.6	-41.5	23.3	0.00e+00	0	41	0	1031798784	52	6828
2026-01-22 16:24:30.58	261.78	21.79	-40.6	-41.5	23.1	0.00e+00	92	41	0	1032847360	52	6846
2026-01-22 16:24:31.59	261.62	21.68	-40.5	-41.4	23.4	0.00e+00	63	41	0	1034944512	52	6754
2026-01-22 16:24:32.60	261.45	21.57	-40.6	-41.5	23.3	0.00e+00	0	41	0	1037041664	52	6827
2026-01-22 16:24:33.61	261.29	21.46	-40.6	-41.5	23.3	0.00e+00	0	41	0	1039138816	54	6075
2026-01-22 16:24:34.62	261.13	21.35	-40.6	-41.5	23.3	0.00e+00	62	41	0	1041235968	54	6094
2026-01-22 16:24:35.63	260.97	21.24	-40.7	-41.6	23.1	0.00e+00	92	41	0	1042284544	54	6148
2026-01-22 16:24:36.64	260.81	21.13	-40.8	-41.7	23.1	0.00e+00	62	41	0	1044381696	54	6210
2026-01-22 16:24:37.65	260.65	21.02	-40.7	-41.7	23.1	0.00e+00	92	41	0	1046478848	54	6203
2026-01-22 16:24:38.66	260.49	20.91	-40.7	-41.7	23.2	0.00e+00	23	41	0	1048576000	54	6179
2026-01-22 16:24:39.67	260.33	20.80	-40.9	-41.9	23.0	0.00e+00	8	41	0	1050673152	54	6343
2026-01-22 16:24:40.68	260.18	20.69	-40.9	-41.9	22.9	0.00e+00	5	41	0	1051721728	54	6320
2026-01-22 16:24:41.69	260.02	20.58	-41.2	-42.2	22.8	0.00e+00	7	41	0	1053818880	54	6581
2026-01-22 16:24:42.70	259.87	20.47	-41.2	-42.2	22.7	0.00e+00	29	41	0	1055916032	54	6550
2026-01-22 16:24:43.71	259.72	20.36	-41.2	-42.2	22.8	0.00e+00	0	41	0	1058013184	54	6576
2026-01-22 16:24:44.72	259.57	20.25	-41.1	-42.1	22.7	0.00e+00	92	41	0	1060110336	54	6515
2026-01-22 16:24:45.73	259.42	20.15	-41.2	-42.2	22.7	0.00e+00	0	41	0	1061158912	54	6592
2026-01-22 16:24:46.74	259.27	20.04	-41.2	-42.2	22.6	0.00e+00	58	41	0	1063256064	54	6588
2026-01-22 16:24:47.75	259.12	19.93	-41.4	-42.4	22.5	0.00e+00	7	41	0	1065353216	54	6744
2026-01-22 16:24:48.76	258.98	19.83	-41.2	-42.2	22.6	0.00e+00	0	41	0	1067450368	54	6600
2026-01-22 16:24:49.77	258.83	19.72	-41.4	-42.4	22.5	0.00e+00	57	41	0	1069547520	54	6713
2026-01-22 16:24:50.78	258.69	19.61	-41.4	-42.4	22.4	0.00e+00	58	41	0	1070596096	54	6733
2026-01-22 16:24:51.79	258.54	19.51	-41.3	-42.4	22.5	0.00e+00	90	41	0	1072693248	54	6699
2026-01-22 16:24:52.80	258.40	19.40	-41.3	-42.3	22.6	0.00e+00	0	41	0	1074790400	54	6648
2026-01-22 16:24:53.80	258.26	19.30	-41.4	-42.4	22.4	0.00e+00	90	41	0	1076887552	54	6707
2026-01-22 16:24:54.81	258.12	19.19	-41.3	-42.3	22.6	0.00e+00	64	41	0	1078984704	54	6632
2026-01-22 16:24:55.82	257.98	19.08	-41.3	-42.3	22.5	0.00e+00	62	41	0	1080033280	54	6644
2026-01-22 16:24:56.83	257.84	18.98	-41.3	-42.3	22.5	0.00e+00	58	41	0	1082130432	54	6684
2026-01-22 16:24:57.84	257.71	18.88	-41.4	-42.4	22.5	0.00e+00	20	41	0	1084227584	54	6711
2026-01-22 16:24:58.85	257.57	18.77	-41.3	-42.3	22.4	0.00e+00	92	41	0	1086324736	54	6684
2026-01-22 16:24:59.86	257.43	18.67	-41.3	-42.3	22.5	0.00e+00	0	41	0	1088421888	54	6649
2026-01-22 16:25:00.87	257.30	18.56	-41.4	-42.4	22.4	0.00e+00	91	41	0	1089470464	54	6762
2026-01-22 16:25:01.88	257.17	18.46	-41.4	-42.4	22.4	0.00e+00	0	41	0	1091567616	54	6738
2026-01-22 16:25:02.89	257.03	18.36	-41.6	-42.6	22.3	0.00e+00	4	41	0	1093664768	54	6913
2026-01-22 16:25:03.90	256.90	18.25	-41.4	-42.4	22.3	0.00e+00	2	41	0	1095761920	54	6763
2026-01-22 16:25:04.91	256.77	18.15	-41.5	-42.5	22.3	0.00e+00	18	41	0	1097859072	54	6802
2026-01-22 16:25:05.92	256.64	18.05	-41.5	-42.6	22.3	0.00e+00	92	41	0	1099956224	54	6853
2026-01-22 16:25:06.93	256.51	17.95	-41.7	-42.7	22.1	0.00e+00	0	41	0	1101004800	54	7001
2026-01-22 16:25:07.94	256.38	17.84	-41.9	-43.0	21.9	0.00e+00	90	41	0	1103101952	56	6446
2026-01-22 16:25:08.95	256.25	17.74	-42.1	-43.2	21.7	0.00e+00	0	41	0	1105199104	56	6567
2026-01-22 16:25:09.96	256.13	17.64	-42.0	-43.1	21.9	0.00e+00	62	41	0	1107296256	56	6477
2026-01-22 16:25:10.97	256.00	17.54	-42.1	-43.3	21.7	0.00e+00	62	41	0	1109393408	56	6633
2026-01-22 16:25:11.97	255.88	17.44	-42.1	-43.2	21.7	0.00e+00	60	41	0	1110441984	56	6598
2026-01-22 16:25:12.98	255.75	17.34	-42.2	-43.4	21.6	0.00e+00	0	41	0	1112539136	56	6704
2026-01-22 16:25:13.99	255.63	17.24	-42.1	-43.2	21.7	0.00e+00	0	41	0	1114636288	56	6598
2026-01-22 16:25:15.00	255.51	17.14	-42.2	-43.3	21.6	0.00e+00	92	41	0	1116733440	56	6682
2026-01-22 16:25:16.01	255.39	17.04	-42.0	-43.1	21.9	0.00e+00	25	41	0	1118830592	56	6496
2026-01-22 16:25:17.02	255.27	16.94	-42.2	-43.4	21.6	0.00e+00	92	41	0	1119879168	56	6708
2026-01-22 16:25:18.03	255.15	16.84	-42.2	-43.3	21.6	0.00e+00	57	41	0	1121976320	56	6638
2026-01-22 16:25:19.04	255.03	16.74	-42.1	-43.3	21.6	0.00e+00	55	41	0	1124073472	56	6629
2026-01-22 16:25:20.05	254.91	16.64	-41.9	-43.0	21.9	0.00e+00	24	41	0	1126170624	56	6418
2026-01-22 16:25:21.06	254.79	16.54	-41.9	-43.0	21.9	0.00e+00	2	41	0	1128267776	56	6395
2026-01-22 16:25:22.07	254.68	16.45	-41.9	-43.0	21.9	0.00e+00	91	41	0	1129316352	56	6458
2026-01-22 16:25:23.08	254.56	16.35	-41.8	-42.9	22.0	0.00e+00	0	41	0	1131413504	56	6375
2026-01-22 16:25:24.09	254.44	16.25	-41.8	-42.9	22.0	0.00e+00	92	41	0	1133510656	56	6327
2026-01-22 16:25:25.10	254.33	16.15	-41.6	-42.7	22.2	0.00e+00	2	41	0	1135607808	56	6178
2026-01-22 16:25:26.11	254.22	16.06	-41.7	-42.8	22.1	0.00e+00	0	41	0	1137704960	56	6260
2026-01-22 16:25:27.11	254.10	15.96	-41.7	-42.8	22.1	0.00e+00	0	41	0	1138753536	56	6282
2026-01-22 16:25:28.12	253.99	15.86	-41.7	-42.8	22.1	0.00e+00	0	41	0	1140850688	56	6278
2026-01-22 16:25:29.13	253.88	15.77	-41.7	-42.8	22.1	0.00e+00	91	41	0	1142947840	56	6288
2026-01-22 16:25:30.14	253.77	15.67	-41.8	-42.8	22.1	0.00e+00	0	41	0	1145044992	56	6314
2026-01-22 16:25:31.15	253.66	15.58	-42.0	-43.1	21.8	0.00e+00	91	41	0	1147142144	56	6476
2026-01-22 16:25:32.16	253.55	15.48	-42.0	-43.1	21.7	0.00e+00	0	41	0	1148190720	56	6530
2026-01-22 16:25:33.17	253.44	15.39	-42.0	-43.1	21.8	0.00e+00	61	41	0	1150287872	56	6474
2026-01-22 16:25:34.18	253.33	15.29	-42.0	-43.1	21.8	0.00e+00	0	41	0	1152385024	56	6477
2026-01-22 16:25:35.19	253.23	15.20	-42.1	-43.2	21.6	0.00e+00	61	41	0	1154482176	56	6612
2026-01-22 16:25:36.20	253.12	15.10	-42.1	-43.2	21.8	0.00e+00	0	41	0	1156579328	56	6576
2026-01-22 16:25:37.21	253.02	15.01	-42.0	-43.1	21.8	0.00e+00	62	41	0	1157627904	56	6476
2026-01-22 16:25:38.22	252.91	14.91	-42.0	-43.1	21.8	0.00e+00	92	41	0	1159725056	56	6475
2026-01-22 16:25:39.23	252.81	14.82	-41.9	-43.0	21.9	0.00e+00	0	41	0	1161822208	56	6428
2026-01-22 16:25:40.24	252.70	14.73	-41.9	-43.0	21.8	0.00e+00	92	41	0	1163919360	56	6453
2026-01-22 16:25:41.25	252.60	14.63	-42.0	-43.1	21.7	0.00e+00	61	41	0	1166016512	56	6507
2026-01-22 16:25:42.26	252.50	14.54	-42.1	-43.3	21.7	0.00e+00	0	41	0	1168113664	56	6642
2026-01-22 16:25:43.27	252.39	14.45	-42.1	-43.2	21.7	0.00e+00	0	41	0	1169162240	56	6564
2026-01-22 16:25:44.28	252.29	14.36	-42.2	-43.3	21.6	0.00e+00	0	41	0	1171259392	56	6671
2026-01-22 16:25:45.29	252.19	14.26	-42.2	-43.4	21.5	0.00e+00	92	41	0	1173356544	56	6695
2026-01-22 16:25:46.29	252.09	14.17	-42.2	-43.4	21.5	0.00e+00	0	41	0	1175453696	56	6720
2026-01-22 16:25:47.30	252.00	14.08	-42.1	-43.2	21.6	0.00e+00	92	41	0	1176502272	56	6596
2026-01-22 16:25:48.31	251.90	13.99	-42.1	-43.3	21.6	0.00e+00	0	41	0	1178599424	56	6623
2026-01-22 16:25:49.32	251.80	13.90	-42.2	-43.3	21.6	0.00e+00	27	41	0	1180696576	56	6692
2026-01-22 16:25:50.33	251.70	13.81	-42.1	-43.2	21.6	0.00e+00	0	41	0	1182793728	56	6580
2026-01-22 16:25:51.34	251.60	13.72	-42.1	-43.2	21.6	0.00e+00	0	41	0	1184890880	56	6581
2026-01-22 16:25:52.35	251.51	13.63	-42.1	-43.3	21.6	0.00e+00	12	41	0	1185939456	56	6629
2026-01-22 16:25:53.36	251.41	13.54	-41.9	-43.0	21.8	0.00e+00	58	41	0	1188036608	56	6403
2026-01-22 16:25:54.37	251.32	13.45	-42.0	-43.1	21.7	0.00e+00	92	41	0	1190133760	56	6506
