passes_logs/2026/01/22/R4.6S_Anadyr/R4.6S_Anadyr__20260122_201124_FENGYUN_3D_rec.log

#Pass ID: 20260122_201124_FENGYUN 3D
#Satellite: FENGYUN 3D
#Configuration: FENGYUN 3D
#almurnet v.1.7.20251203
#Start time: 2026-01-22 20:11:26

#Version: 2.2.20231116
#Station: R4.6S_Anadyr
#Location: 177.4865 lon 64.73178 lat
#TLE: 1 43010U 17072A   26021.48744220  .00000253  00000+0  14133-3 0  9991
#TLE: 2 43010  98.9948 353.4037 0002485  97.2578 262.8880 14.19697766424177

#Time	Az	El	Level	Level2	SNR	BER	BlckErr	Temp	State	Recorded	gain1	gain2
2026-01-22 20:11:26.85	37.92	0.11	-51.8	-69.5	3.5	3.02e+01	0	39	0	0	60	114579
2026-01-22 20:11:27.85	37.85	0.17	-51.4	-63.5	3.6	8.46e-01	0	40	104	0	60	54290
2026-01-22 20:11:28.87	37.79	0.22	-51.4	-63.6	3.6	8.45e-01	0	40	104	0	60	54632
2026-01-22 20:11:29.88	37.72	0.27	-51.5	-63.6	3.6	8.45e-01	0	40	104	0	60	54751
2026-01-22 20:11:30.89	37.65	0.32	-51.4	-63.6	3.6	8.46e-01	0	40	104	0	60	54421
2026-01-22 20:11:31.90	37.58	0.37	-51.4	-63.5	3.6	8.44e-01	0	40	104	0	60	54246
2026-01-22 20:11:32.91	37.51	0.42	-51.4	-63.5	3.6	8.45e-01	0	40	104	0	60	53891
2026-01-22 20:11:33.92	37.44	0.48	-51.3	-63.5	3.6	8.45e-01	0	40	104	0	60	54067
2026-01-22 20:11:34.93	37.37	0.53	-51.3	-63.5	3.6	8.44e-01	0	40	104	0	60	54088
2026-01-22 20:11:35.94	37.30	0.58	-51.3	-63.4	3.6	8.45e-01	0	40	104	0	60	53562
2026-01-22 20:11:36.95	37.23	0.63	-51.2	-63.4	3.7	8.45e-01	0	40	104	0	60	53596
2026-01-22 20:11:37.96	37.16	0.69	-51.3	-63.4	3.6	8.46e-01	0	40	104	0	60	53506
2026-01-22 20:11:38.97	37.09	0.74	-51.2	-63.4	3.6	8.45e-01	0	40	104	0	60	53177
2026-01-22 20:11:39.98	37.02	0.79	-51.2	-63.3	3.6	8.46e-01	0	40	104	0	60	53124
2026-01-22 20:11:40.99	36.95	0.84	-51.2	-63.3	3.6	8.45e-01	0	40	104	0	60	52793
2026-01-22 20:11:42.00	36.88	0.89	-51.1	-63.2	3.6	8.46e-01	0	40	104	0	60	52375
2026-01-22 20:11:43.01	36.81	0.95	-51.0	-63.2	3.6	8.46e-01	0	40	104	0	60	52228
2026-01-22 20:11:44.02	36.74	1.00	-51.0	-63.2	3.6	8.45e-01	0	40	104	0	60	51992
2026-01-22 20:11:45.03	36.66	1.05	-50.9	-63.1	3.6	8.45e-01	0	40	104	0	60	51425
2026-01-22 20:11:46.04	36.59	1.10	-50.9	-63.0	3.6	8.44e-01	0	40	104	0	60	51007
2026-01-22 20:11:47.05	36.52	1.16	-50.8	-62.9	3.6	8.47e-01	0	40	104	0	60	50653
2026-01-22 20:11:48.06	36.45	1.21	-50.7	-62.8	3.6	8.44e-01	0	40	104	0	60	50001
2026-01-22 20:11:49.07	36.37	1.26	-50.6	-62.7	3.6	8.45e-01	0	40	104	0	60	49509
2026-01-22 20:11:50.08	36.30	1.32	-50.5	-62.6	3.6	8.46e-01	0	40	104	0	60	48601
2026-01-22 20:11:51.09	36.23	1.37	-50.3	-62.4	3.6	8.46e-01	0	40	104	0	60	47551
2026-01-22 20:11:52.10	36.15	1.42	-50.0	-62.1	3.6	8.45e-01	0	40	104	0	60	45915
2026-01-22 20:11:53.11	36.08	1.47	-49.7	-61.8	3.6	8.46e-01	0	40	104	0	60	44339
2026-01-22 20:11:54.12	36.00	1.53	-49.7	-61.8	3.6	8.44e-01	0	40	104	0	60	44598
2026-01-22 20:11:55.13	35.93	1.58	-49.7	-61.7	3.6	8.45e-01	0	40	104	0	60	44201
2026-01-22 20:11:56.14	35.85	1.63	-49.7	-61.7	3.6	8.45e-01	0	40	104	0	60	44060
2026-01-22 20:11:57.15	35.78	1.69	-49.7	-61.6	3.6	8.45e-01	0	40	104	0	60	43557
2026-01-22 20:11:58.16	35.70	1.74	-49.7	-61.6	3.6	8.46e-01	0	40	104	0	60	43679
2026-01-22 20:11:59.17	35.63	1.79	-49.6	-61.6	3.6	8.47e-01	0	40	104	0	60	43541
2026-01-22 20:12:00.18	35.55	1.85	-49.7	-61.7	3.6	8.44e-01	0	40	104	0	60	44141
2026-01-22 20:12:01.19	35.47	1.90	-49.7	-61.8	3.6	8.45e-01	0	40	104	0	60	44224
2026-01-22 20:12:02.20	35.40	1.95	-49.7	-61.8	3.6	8.45e-01	0	40	104	0	60	44288
2026-01-22 20:12:03.21	35.32	2.01	-49.7	-61.8	3.6	8.45e-01	0	40	104	0	60	44315
2026-01-22 20:12:04.22	35.24	2.06	-49.7	-61.8	3.6	8.45e-01	0	40	104	0	60	44340
2026-01-22 20:12:05.23	35.17	2.11	-49.7	-61.7	3.6	8.44e-01	0	40	104	0	60	43979
2026-01-22 20:12:06.24	35.09	2.17	-49.6	-61.5	3.6	8.46e-01	0	40	104	0	60	42825
2026-01-22 20:12:07.25	35.01	2.22	-49.6	-61.3	3.6	8.45e-01	0	40	104	0	60	41797
2026-01-22 20:12:08.26	34.93	2.27	-49.6	-61.1	3.6	8.45e-01	0	40	104	0	60	40956
2026-01-22 20:12:09.27	34.85	2.33	-49.6	-61.0	3.6	8.45e-01	0	40	104	0	60	40495
2026-01-22 20:12:10.28	34.77	2.38	-49.6	-61.3	3.6	8.46e-01	0	41	104	0	60	42067
2026-01-22 20:12:11.29	34.69	2.44	-49.6	-61.6	3.6	8.45e-01	0	40	104	0	60	43399
2026-01-22 20:12:12.30	34.61	2.49	-49.7	-61.8	3.6	8.45e-01	0	40	104	0	60	44572
2026-01-22 20:12:13.31	34.53	2.54	-49.7	-61.7	3.6	8.45e-01	0	41	104	0	60	44194
2026-01-22 20:12:14.33	34.45	2.60	-49.6	-61.6	3.6	8.45e-01	0	41	104	0	60	43349
2026-01-22 20:12:15.34	34.37	2.65	-49.7	-61.6	3.6	8.45e-01	0	41	104	0	60	43240
2026-01-22 20:12:16.35	34.29	2.71	-49.7	-61.8	3.6	8.45e-01	0	41	104	0	60	44465
2026-01-22 20:12:17.36	34.21	2.76	-49.7	-61.7	3.6	8.45e-01	0	41	104	0	60	43816
2026-01-22 20:12:18.37	34.13	2.81	-49.6	-60.8	3.6	8.45e-01	0	41	104	0	60	39521
2026-01-22 20:12:19.38	34.05	2.87	-49.5	-60.1	3.6	8.44e-01	0	41	104	0	60	36462
2026-01-22 20:12:20.39	33.96	2.92	-49.5	-60.0	3.6	8.44e-01	0	41	104	0	60	36122
2026-01-22 20:12:21.40	33.88	2.98	-49.5	-60.4	3.6	8.45e-01	0	41	104	0	60	37935
2026-01-22 20:12:22.41	33.80	3.03	-49.6	-61.0	3.6	8.46e-01	0	41	104	0	60	40420
2026-01-22 20:12:23.42	33.72	3.09	-49.3	-58.8	3.7	8.45e-01	0	41	104	0	60	31513
2026-01-22 20:12:24.43	33.63	3.14	-48.4	-53.8	6.5	4.19e-01	0	41	0	0	60	17633
2026-01-22 20:12:25.44	33.55	3.20	-48.3	-53.1	4.8	7.57e-02	0	41	0	6291456	60	16281
2026-01-22 20:12:26.45	33.46	3.25	-49.8	-60.7	3.6	8.44e-01	0	41	104	6291456	60	39355
2026-01-22 20:12:27.46	33.38	3.30	-49.3	-57.9	5.0	8.45e-01	0	41	104	6291456	60	28423
2026-01-22 20:12:28.47	33.30	3.36	-41.7	-42.9	19.4	8.00e-06	0	41	0	6291456	60	5024
2026-01-22 20:12:29.48	33.21	3.41	-42.6	-44.1	10.6	0.00e+00	0	41	0	12582912	52	9135
2026-01-22 20:12:30.49	33.12	3.47	-49.5	-60.8	4.3	8.46e-01	0	41	104	12582912	60	39548
2026-01-22 20:12:31.50	33.04	3.52	-41.3	-42.4	17.7	0.00e+00	0	41	104	12582912	56	6020
2026-01-22 20:12:32.51	32.95	3.58	-41.6	-42.7	18.2	0.00e+00	0	41	0	17825792	56	6222
2026-01-22 20:12:33.52	32.87	3.63	-41.1	-42.1	18.7	0.00e+00	0	41	0	23068672	56	5822
2026-01-22 20:12:34.53	32.78	3.69	-40.6	-41.6	19.3	0.00e+00	0	41	0	28311552	54	6133
2026-01-22 20:12:35.54	32.69	3.74	-41.4	-42.5	18.3	0.00e+00	0	41	0	34603008	54	6822
2026-01-22 20:12:36.55	32.60	3.80	-41.7	-42.9	18.0	0.00e+00	0	41	0	39845888	54	7126
2026-01-22 20:12:37.56	32.52	3.85	-41.9	-43.1	18.1	0.00e+00	0	41	0	46137344	56	6519
2026-01-22 20:12:38.57	32.43	3.91	-41.6	-42.8	18.0	0.00e+00	0	41	0	51380224	56	6273
2026-01-22 20:12:39.58	32.34	3.96	-41.2	-42.3	18.7	0.00e+00	0	41	0	57671680	56	5943
2026-01-22 20:12:40.59	32.25	4.02	-40.7	-41.7	19.3	0.00e+00	0	41	0	62914560	54	6212
2026-01-22 20:12:41.60	32.16	4.08	-39.8	-40.8	20.0	0.00e+00	0	41	0	68157440	54	5605
2026-01-22 20:12:42.61	32.07	4.13	-39.7	-40.6	20.5	0.00e+00	0	41	0	74448896	52	6136
2026-01-22 20:12:43.63	31.98	4.19	-39.4	-40.3	20.4	0.00e+00	0	41	0	79691776	52	5964
2026-01-22 20:12:44.64	31.89	4.24	-39.1	-40.0	21.2	0.00e+00	0	41	0	85983232	52	5742
2026-01-22 20:12:45.65	31.80	4.30	-39.3	-40.2	20.8	0.00e+00	0	41	0	91226112	52	5860
2026-01-22 20:12:46.66	31.71	4.35	-39.2	-40.1	21.0	0.00e+00	0	41	0	97517568	52	5816
2026-01-22 20:12:47.67	31.62	4.41	-38.6	-39.5	21.5	0.00e+00	0	41	0	102760448	50	6052
2026-01-22 20:12:48.68	31.53	4.46	-39.0	-39.9	21.2	0.00e+00	0	41	0	108003328	50	6344
2026-01-22 20:12:49.69	31.43	4.52	-38.8	-39.7	21.3	0.00e+00	0	41	0	114294784	50	6186
2026-01-22 20:12:50.70	31.34	4.58	-38.7	-39.6	21.4	0.00e+00	0	41	0	119537664	50	6122
2026-01-22 20:12:51.71	31.25	4.63	-38.4	-39.2	21.8	0.00e+00	0	41	0	125829120	50	5862
2026-01-22 20:12:52.72	31.16	4.69	-38.7	-39.6	21.5	0.00e+00	0	41	0	131072000	50	6123
2026-01-22 20:12:53.74	31.06	4.74	-38.3	-39.1	21.9	0.00e+00	0	41	0	136314880	50	5804
2026-01-22 20:12:54.75	30.97	4.80	-38.9	-39.7	21.3	0.00e+00	0	41	0	142606336	50	6219
2026-01-22 20:12:55.76	30.87	4.86	-38.8	-39.7	21.6	0.00e+00	0	41	0	147849216	50	6178
2026-01-22 20:12:56.77	30.78	4.91	-39.0	-39.8	21.3	0.00e+00	0	41	0	154140672	50	6270
2026-01-22 20:12:57.78	30.68	4.97	-38.6	-39.4	21.7	0.00e+00	0	41	0	159383552	50	5995
2026-01-22 20:12:58.79	30.59	5.02	-38.6	-39.4	21.7	0.00e+00	0	41	0	165675008	50	6009
2026-01-22 20:12:59.80	30.49	5.08	-38.4	-39.3	21.9	0.00e+00	0	41	0	170917888	50	5903
2026-01-22 20:13:00.81	30.40	5.14	-38.3	-39.1	22.1	0.00e+00	0	41	0	176160768	50	5800
2026-01-22 20:13:01.82	30.30	5.19	-38.4	-39.3	21.8	0.00e+00	0	41	0	182452224	50	5901
2026-01-22 20:13:02.83	30.20	5.25	-38.1	-38.9	22.1	0.00e+00	0	41	0	187695104	50	5670
2026-01-22 20:13:03.84	30.10	5.31	-38.1	-38.9	22.2	0.00e+00	0	41	0	193986560	50	5661
2026-01-22 20:13:04.85	30.01	5.36	-38.0	-38.7	22.4	0.00e+00	0	41	0	199229440	50	5563
2026-01-22 20:13:05.86	29.91	5.42	-37.9	-38.8	22.4	0.00e+00	0	41	0	205520896	50	5571
2026-01-22 20:13:06.87	29.81	5.47	-37.9	-38.7	22.4	0.00e+00	0	41	0	210763776	50	5557
2026-01-22 20:13:07.88	29.71	5.53	-38.3	-39.1	22.0	0.00e+00	0	41	0	216006656	50	5801
2026-01-22 20:13:08.89	29.61	5.59	-38.1	-38.9	22.2	0.00e+00	0	41	0	222298112	50	5695
2026-01-22 20:13:09.90	29.51	5.64	-38.3	-39.1	22.0	0.00e+00	0	41	0	227540992	50	5778
2026-01-22 20:13:10.91	29.41	5.70	-38.1	-38.9	22.3	0.00e+00	0	41	0	233832448	50	5651
2026-01-22 20:13:11.93	29.31	5.76	-37.9	-38.7	22.4	0.00e+00	0	41	0	239075328	50	5546
2026-01-22 20:13:12.94	29.21	5.81	-38.0	-38.8	22.3	0.00e+00	0	41	0	244318208	50	5624
2026-01-22 20:13:13.95	29.11	5.87	-38.3	-39.1	22.0	0.00e+00	0	41	0	250609664	50	5781
2026-01-22 20:13:14.96	29.01	5.93	-38.1	-38.9	22.3	0.00e+00	0	41	0	255852544	50	5633
2026-01-22 20:13:15.97	28.90	5.98	-38.2	-39.0	22.2	0.00e+00	0	41	0	262144000	50	5757
2026-01-22 20:13:16.98	28.80	6.04	-38.2	-39.0	22.2	0.00e+00	0	41	0	267386880	50	5718
2026-01-22 20:13:17.99	28.70	6.10	-38.1	-38.9	22.2	0.00e+00	0	41	0	273678336	50	5676
2026-01-22 20:13:19.00	28.59	6.16	-38.2	-39.0	22.2	0.00e+00	0	41	0	278921216	50	5734
2026-01-22 20:13:20.01	28.49	6.21	-38.2	-39.0	22.1	0.00e+00	0	41	0	284164096	50	5750
2026-01-22 20:13:21.02	28.39	6.27	-38.2	-39.0	22.2	0.00e+00	0	41	0	290455552	50	5716
2026-01-22 20:13:22.03	28.28	6.33	-38.1	-38.9	22.4	0.00e+00	0	41	0	295698432	50	5649
2026-01-22 20:13:23.04	28.18	6.38	-38.2	-39.0	22.2	0.00e+00	0	41	0	301989888	50	5736
2026-01-22 20:13:24.05	28.07	6.44	-38.1	-38.9	22.4	0.00e+00	0	41	0	307232768	50	5675
2026-01-22 20:13:25.06	27.97	6.50	-38.1	-38.9	22.3	0.00e+00	0	41	0	312475648	50	5669
2026-01-22 20:13:26.07	27.86	6.55	-38.5	-39.3	22.1	0.00e+00	0	41	0	318767104	50	5930
2026-01-22 20:13:27.08	27.75	6.61	-38.0	-38.8	22.4	0.00e+00	0	41	0	324009984	50	5587
2026-01-22 20:13:28.09	27.64	6.67	-37.9	-38.7	22.6	0.00e+00	0	41	0	330301440	50	5507
2026-01-22 20:13:29.10	27.54	6.73	-37.8	-38.6	22.6	0.00e+00	0	41	0	335544320	50	5471
2026-01-22 20:13:30.11	27.43	6.78	-38.1	-38.9	22.4	0.00e+00	0	41	0	341835776	48	6350
2026-01-22 20:13:31.12	27.32	6.84	-37.8	-38.6	22.6	0.00e+00	0	41	0	347078656	48	6147
2026-01-22 20:13:32.13	27.21	6.90	-37.9	-38.7	22.6	0.00e+00	0	41	0	352321536	48	6211
2026-01-22 20:13:33.14	27.10	6.96	-37.7	-38.5	22.8	0.00e+00	0	41	0	358612992	48	6065
2026-01-22 20:13:34.15	26.99	7.01	-37.7	-38.5	22.8	0.00e+00	0	41	0	363855872	48	6075
2026-01-22 20:13:35.16	26.88	7.07	-37.6	-38.3	22.8	0.00e+00	0	41	0	370147328	48	5960
2026-01-22 20:13:36.17	26.77	7.13	-37.7	-38.5	22.7	0.00e+00	0	41	0	375390208	48	6047
2026-01-22 20:13:37.18	26.66	7.19	-37.8	-38.6	22.7	0.00e+00	0	41	0	381681664	48	6115
2026-01-22 20:13:38.19	26.55	7.24	-37.3	-38.0	23.3	0.00e+00	0	41	0	386924544	48	5738
2026-01-22 20:13:39.20	26.44	7.30	-37.4	-38.2	23.1	0.00e+00	0	41	0	392167424	48	5829
2026-01-22 20:13:40.21	26.32	7.36	-37.3	-38.0	23.3	0.00e+00	0	41	0	398458880	48	5733
2026-01-22 20:13:41.22	26.21	7.42	-37.3	-38.0	23.2	0.00e+00	0	41	0	403701760	48	5758
2026-01-22 20:13:42.23	26.10	7.47	-37.3	-38.0	23.2	0.00e+00	0	41	0	409993216	48	5748
2026-01-22 20:13:43.24	25.98	7.53	-37.3	-38.0	23.3	0.00e+00	0	41	0	415236096	48	5758
2026-01-22 20:13:44.25	25.87	7.59	-37.2	-37.9	23.3	0.00e+00	0	41	0	420478976	48	5664
2026-01-22 20:13:45.26	25.75	7.65	-37.2	-37.9	23.3	0.00e+00	0	41	0	426770432	48	5681
2026-01-22 20:13:46.27	25.64	7.70	-37.0	-37.7	23.5	0.00e+00	0	41	0	432013312	48	5564
2026-01-22 20:13:47.28	25.52	7.76	-37.2	-38.0	23.3	0.00e+00	0	41	0	438304768	48	5707
2026-01-22 20:13:48.29	25.40	7.82	-37.1	-37.8	23.4	0.00e+00	0	41	0	443547648	48	5606
2026-01-22 20:13:49.30	25.29	7.88	-37.3	-38.0	23.2	0.00e+00	0	41	0	448790528	48	5747
2026-01-22 20:13:50.31	25.17	7.93	-37.2	-38.0	23.3	0.00e+00	0	41	0	455081984	48	5700
2026-01-22 20:13:51.32	25.05	7.99	-37.3	-38.1	23.2	0.00e+00	0	41	0	460324864	48	5773
2026-01-22 20:13:52.33	24.93	8.05	-37.2	-38.0	23.3	0.00e+00	0	41	0	466616320	48	5707
2026-01-22 20:13:53.34	24.82	8.11	-37.2	-38.0	23.5	0.00e+00	0	41	0	471859200	48	5701
2026-01-22 20:13:54.35	24.70	8.17	-37.2	-37.9	23.4	0.00e+00	0	41	0	478150656	48	5692
2026-01-22 20:13:55.36	24.58	8.22	-37.1	-37.9	23.5	0.00e+00	0	41	0	483393536	48	5642
2026-01-22 20:13:56.37	24.46	8.28	-37.1	-37.9	23.5	0.00e+00	0	41	0	489684992	48	5648
2026-01-22 20:13:57.38	24.34	8.34	-37.1	-37.8	23.5	0.00e+00	0	41	0	494927872	48	5627
2026-01-22 20:13:58.39	24.21	8.40	-37.0	-37.7	23.6	0.00e+00	0	41	0	500170752	48	5547
2026-01-22 20:13:59.40	24.09	8.45	-37.1	-37.9	23.5	0.00e+00	0	41	0	506462208	48	5666
2026-01-22 20:14:00.42	23.97	8.51	-37.2	-37.9	23.4	0.00e+00	0	41	0	511705088	48	5652
2026-01-22 20:14:01.42	23.85	8.57	-37.1	-37.9	23.5	0.00e+00	0	41	0	517996544	48	5634
2026-01-22 20:14:02.43	23.72	8.63	-37.0	-37.7	23.5	0.00e+00	0	41	0	523239424	48	5564
2026-01-22 20:14:03.45	23.60	8.69	-37.0	-37.7	23.6	0.00e+00	0	41	0	528482304	48	5551
2026-01-22 20:14:04.46	23.48	8.74	-37.0	-37.7	23.7	0.00e+00	0	41	0	534773760	48	5539
2026-01-22 20:14:05.47	23.35	8.80	-37.0	-37.8	23.6	0.00e+00	0	41	0	540016640	48	5593
2026-01-22 20:14:06.48	23.23	8.86	-37.0	-37.7	23.6	0.00e+00	0	41	0	546308096	48	5556
2026-01-22 20:14:07.49	23.10	8.92	-37.1	-37.8	23.6	0.00e+00	0	41	0	551550976	48	5624
2026-01-22 20:14:08.50	22.97	8.98	-36.8	-37.6	23.8	0.00e+00	0	41	0	556793856	48	5458
2026-01-22 20:14:09.51	22.85	9.03	-36.9	-37.6	23.8	0.00e+00	0	41	0	563085312	48	5458
2026-01-22 20:14:10.52	22.72	9.09	-36.9	-37.6	23.8	0.00e+00	0	41	0	568328192	48	5474
2026-01-22 20:14:11.53	22.59	9.15	-37.0	-37.7	23.7	0.00e+00	0	41	0	574619648	48	5536
2026-01-22 20:14:12.54	22.46	9.21	-36.9	-37.6	23.7	0.00e+00	0	41	0	579862528	48	5477
2026-01-22 20:14:13.55	22.33	9.27	-36.9	-37.6	23.7	0.00e+00	0	41	0	586153984	48	5450
2026-01-22 20:14:14.56	22.20	9.32	-37.1	-37.8	23.6	0.00e+00	0	41	0	591396864	48	5611
2026-01-22 20:14:15.58	22.07	9.38	-37.1	-37.9	23.6	0.00e+00	0	41	0	597688320	48	5665
2026-01-22 20:14:16.59	21.94	9.44	-36.7	-37.5	23.9	0.00e+00	0	41	0	602931200	48	5393
2026-01-22 20:14:17.60	21.81	9.50	-36.8	-37.5	24.0	0.00e+00	0	41	0	608174080	46	6055
2026-01-22 20:14:18.61	21.68	9.55	-36.9	-37.6	23.9	0.00e+00	0	41	0	614465536	46	6124
2026-01-22 20:14:19.62	21.55	9.61	-36.8	-37.5	23.9	0.00e+00	0	41	0	619708416	46	6083
2026-01-22 20:14:20.63	21.42	9.67	-36.4	-37.1	24.2	0.00e+00	0	41	0	625999872	46	5818
2026-01-22 20:14:21.64	21.28	9.73	-36.5	-37.2	24.1	0.00e+00	0	41	0	631242752	46	5862
2026-01-22 20:14:22.65	21.15	9.79	-36.5	-37.2	24.2	0.00e+00	0	41	0	636485632	46	5843
2026-01-22 20:14:23.66	21.01	9.84	-36.2	-36.9	24.5	0.00e+00	0	41	0	642777088	46	5650
2026-01-22 20:14:24.67	20.88	9.90	-36.2	-36.9	24.4	0.00e+00	0	41	0	648019968	46	5687
2026-01-22 20:14:25.68	20.74	9.96	-36.4	-37.0	24.4	0.00e+00	0	41	0	654311424	46	5761
2026-01-22 20:14:26.69	20.61	10.02	-36.3	-37.0	24.4	0.00e+00	0	41	0	659554304	46	5749
2026-01-22 20:14:27.70	20.47	10.07	-36.5	-37.2	24.2	0.00e+00	0	41	0	664797184	46	5883
2026-01-22 20:14:28.71	20.34	10.13	-36.8	-37.6	23.8	0.00e+00	0	41	0	671088640	46	6135
2026-01-22 20:14:29.72	20.20	10.19	-36.6	-37.3	24.2	0.00e+00	0	41	0	676331520	46	5964
2026-01-22 20:14:30.73	20.06	10.25	-36.5	-37.2	24.2	0.00e+00	0	41	0	682622976	46	5859
2026-01-22 20:14:31.74	19.92	10.30	-36.5	-37.3	24.2	0.00e+00	0	41	0	687865856	46	5906
2026-01-22 20:14:32.75	19.78	10.36	-36.5	-37.2	24.1	0.00e+00	0	41	0	694157312	46	5896
2026-01-22 20:14:33.77	19.64	10.42	-36.6	-37.3	24.0	0.00e+00	0	41	0	699400192	46	5943
2026-01-22 20:14:34.78	19.50	10.48	-36.7	-37.5	24.0	0.00e+00	0	41	0	705691648	46	6034
2026-01-22 20:14:35.79	19.36	10.54	-36.6	-37.4	24.1	0.00e+00	0	41	0	710934528	46	5989
2026-01-22 20:14:36.80	19.22	10.59	-36.6	-37.3	24.0	0.00e+00	0	41	0	716177408	46	5963
2026-01-22 20:14:37.81	19.08	10.65	-36.5	-37.2	24.1	0.00e+00	0	41	0	722468864	46	5878
2026-01-22 20:14:38.82	18.93	10.71	-36.5	-37.3	24.1	0.00e+00	0	41	0	727711744	46	5930
2026-01-22 20:14:39.83	18.79	10.76	-36.6	-37.3	24.1	0.00e+00	0	41	0	734003200	46	5922
2026-01-22 20:14:40.84	18.65	10.82	-36.4	-37.2	24.2	0.00e+00	0	41	0	739246080	46	5842
2026-01-22 20:14:41.85	18.50	10.88	-36.3	-37.0	24.3	0.00e+00	0	41	0	744488960	46	5739
2026-01-22 20:14:42.86	18.36	10.94	-36.3	-37.0	24.3	0.00e+00	0	41	0	750780416	46	5741
2026-01-22 20:14:43.87	18.21	10.99	-36.4	-37.2	24.3	0.00e+00	0	41	0	756023296	46	5844
2026-01-22 20:14:44.88	18.07	11.05	-36.4	-37.1	24.2	0.00e+00	0	41	0	762314752	46	5800
2026-01-22 20:14:45.89	17.92	11.11	-36.4	-37.2	24.3	0.00e+00	0	41	0	767557632	46	5833
2026-01-22 20:14:46.90	17.77	11.16	-36.4	-37.1	24.3	0.00e+00	0	41	0	772800512	46	5826
2026-01-22 20:14:47.91	17.62	11.22	-36.4	-37.1	24.4	0.00e+00	0	41	0	779091968	46	5795
2026-01-22 20:14:48.92	17.48	11.28	-36.3	-37.0	24.4	0.00e+00	0	41	0	784334848	46	5745
2026-01-22 20:14:49.93	17.33	11.33	-36.1	-36.8	24.6	0.00e+00	0	41	0	790626304	46	5601
2026-01-22 20:14:50.94	17.18	11.39	-36.2	-36.9	24.5	0.00e+00	0	41	0	795869184	46	5668
2026-01-22 20:14:51.95	17.03	11.45	-36.0	-36.7	24.6	0.00e+00	0	41	0	802160640	46	5536
2026-01-22 20:14:52.96	16.88	11.50	-35.9	-36.6	24.7	0.00e+00	0	41	0	807403520	46	5495
2026-01-22 20:14:53.97	16.72	11.56	-36.0	-36.7	24.7	0.00e+00	0	41	0	813694976	46	5512
2026-01-22 20:14:54.98	16.57	11.62	-36.1	-36.7	24.7	0.00e+00	0	41	0	818937856	46	5555
2026-01-22 20:14:55.99	16.42	11.67	-35.9	-36.6	24.8	0.00e+00	0	41	0	824180736	46	5488
2026-01-22 20:14:57.00	16.27	11.73	-35.9	-36.6	24.7	0.00e+00	0	41	0	830472192	46	5495
2026-01-22 20:14:58.01	16.11	11.79	-36.0	-36.7	24.7	0.00e+00	0	41	0	835715072	46	5539
2026-01-22 20:14:59.02	15.96	11.84	-36.0	-36.7	24.6	0.00e+00	0	41	0	842006528	46	5536
2026-01-22 20:15:00.03	15.80	11.90	-36.1	-36.8	24.6	0.00e+00	0	41	0	847249408	46	5581
2026-01-22 20:15:01.02	15.65	11.95	-36.1	-36.8	24.6	0.00e+00	0	41	0	852492288	46	5611
2026-01-22 20:15:02.03	15.50	12.01	-35.9	-36.6	24.8	0.00e+00	0	41	0	858783744	46	5469
2026-01-22 20:15:03.04	15.34	12.07	-36.1	-36.8	24.7	0.00e+00	0	41	0	864026624	46	5581
2026-01-22 20:15:04.05	15.18	12.12	-35.8	-36.5	24.9	0.00e+00	0	41	0	869269504	46	5420
2026-01-22 20:15:05.05	15.02	12.18	-35.8	-36.5	24.8	0.00e+00	0	41	0	875560960	46	5435
2026-01-22 20:15:06.06	14.87	12.23	-35.9	-36.6	24.8	0.00e+00	0	41	0	880803840	46	5498
2026-01-22 20:15:07.07	14.71	12.29	-35.9	-36.6	24.7	0.00e+00	0	41	0	887095296	46	5498
2026-01-22 20:15:08.08	14.55	12.34	-35.8	-36.6	24.9	0.00e+00	0	41	0	892338176	46	5442
2026-01-22 20:15:09.09	14.39	12.40	-35.9	-36.6	24.9	0.00e+00	0	41	0	898629632	46	5456
2026-01-22 20:15:10.10	14.23	12.45	-35.8	-36.5	24.9	0.00e+00	0	41	0	903872512	46	5395
2026-01-22 20:15:11.11	14.06	12.51	-35.8	-36.5	24.9	0.00e+00	0	41	0	910163968	46	5385
2026-01-22 20:15:12.12	13.90	12.56	-35.7	-36.4	25.0	0.00e+00	0	41	0	915406848	44	5990
2026-01-22 20:15:13.13	13.74	12.62	-35.7	-36.4	25.0	0.00e+00	0	41	0	920649728	44	5992
2026-01-22 20:15:14.14	13.58	12.67	-35.6	-36.3	25.1	0.00e+00	0	41	0	926941184	44	5957
2026-01-22 20:15:15.15	13.41	12.73	-35.8	-36.5	24.9	0.00e+00	0	41	0	932184064	44	6074
2026-01-22 20:15:16.17	13.25	12.78	-35.8	-36.5	24.8	0.00e+00	0	41	0	938475520	44	6070
2026-01-22 20:15:17.18	13.08	12.84	-35.9	-36.6	24.8	0.00e+00	0	41	0	943718400	44	6141
2026-01-22 20:15:18.19	12.91	12.89	-35.9	-36.6	24.8	0.00e+00	0	41	0	948961280	44	6157
2026-01-22 20:15:19.20	12.75	12.95	-35.9	-36.6	24.7	0.00e+00	0	41	0	955252736	44	6171
2026-01-22 20:15:20.21	12.58	13.00	-35.8	-36.5	24.9	0.00e+00	0	41	0	960495616	44	6057
2026-01-22 20:15:21.22	12.41	13.05	-35.7	-36.4	25.0	0.00e+00	0	41	0	966787072	44	6012
2026-01-22 20:15:22.23	12.24	13.11	-35.5	-36.2	25.2	0.00e+00	0	41	0	972029952	44	5839
2026-01-22 20:15:23.24	12.07	13.16	-35.5	-36.2	25.2	0.00e+00	0	41	0	977272832	44	5871
2026-01-22 20:15:24.25	11.90	13.21	-35.4	-36.1	25.2	0.00e+00	0	41	0	983564288	44	5790
2026-01-22 20:15:25.26	11.73	13.27	-35.5	-36.2	25.2	0.00e+00	0	41	0	988807168	44	5852
2026-01-22 20:15:26.27	11.56	13.32	-35.3	-36.0	25.2	0.00e+00	0	41	0	995098624	44	5746
2026-01-22 20:15:27.28	11.39	13.37	-35.5	-36.2	25.1	0.00e+00	0	41	0	1000341504	44	5845
2026-01-22 20:15:28.29	11.22	13.43	-35.3	-35.9	25.5	0.00e+00	0	41	0	1006632960	44	5687
2026-01-22 20:15:29.30	11.05	13.48	-35.1	-35.8	25.5	0.00e+00	0	41	0	1011875840	44	5606
2026-01-22 20:15:30.31	10.87	13.53	-35.4	-36.1	25.4	0.00e+00	0	41	0	1018167296	44	5764
2026-01-22 20:15:31.32	10.70	13.59	-35.3	-36.0	25.2	0.00e+00	0	41	0	1023410176	44	5745
2026-01-22 20:15:32.33	10.52	13.64	-35.6	-36.2	25.2	0.00e+00	0	41	0	1028653056	44	5892
2026-01-22 20:15:33.34	10.35	13.69	-35.4	-36.0	25.2	0.00e+00	0	41	0	1034944512	44	5761
2026-01-22 20:15:34.35	10.17	13.74	-35.4	-36.0	25.4	0.00e+00	0	41	0	1040187392	44	5757
2026-01-22 20:15:35.36	10.00	13.80	-35.2	-35.9	25.4	0.00e+00	0	41	0	1046478848	44	5643
2026-01-22 20:15:36.37	9.82	13.85	-35.2	-35.9	25.4	0.00e+00	0	41	0	1051721728	44	5640
2026-01-22 20:15:37.38	9.64	13.90	-35.1	-35.8	25.5	0.00e+00	0	41	0	1056964608	44	5597
2026-01-22 20:15:38.39	9.46	13.95	-35.3	-35.9	25.3	0.00e+00	0	41	0	1063256064	44	5690
2026-01-22 20:15:39.40	9.28	14.00	-35.2	-35.9	25.4	0.00e+00	0	41	0	1068498944	44	5667
2026-01-22 20:15:40.41	9.10	14.05	-35.4	-36.1	25.2	0.00e+00	0	41	0	1074790400	44	5828
2026-01-22 20:15:41.42	8.92	14.10	-35.5	-36.1	25.2	0.00e+00	0	41	0	1080033280	44	5806
2026-01-22 20:15:42.44	8.74	14.15	-35.6	-36.3	25.1	0.00e+00	0	41	0	1085276160	44	5956
2026-01-22 20:15:43.45	8.56	14.21	-35.6	-36.2	25.1	0.00e+00	0	41	0	1091567616	44	5887
2026-01-22 20:15:44.46	8.38	14.26	-35.5	-36.2	25.2	0.00e+00	0	41	0	1096810496	44	5843
2026-01-22 20:15:45.47	8.19	14.31	-35.2	-35.9	25.4	0.00e+00	0	41	0	1103101952	44	5687
2026-01-22 20:15:46.48	8.01	14.36	-35.1	-35.8	25.5	0.00e+00	0	41	0	1108344832	44	5619
2026-01-22 20:15:47.49	7.82	14.41	-35.2	-35.8	25.5	0.00e+00	0	41	0	1114636288	44	5615
2026-01-22 20:15:48.50	7.64	14.46	-35.2	-35.9	25.4	0.00e+00	0	41	0	1119879168	44	5661
2026-01-22 20:15:49.51	7.45	14.51	-35.2	-35.9	25.4	0.00e+00	0	41	0	1126170624	44	5664
2026-01-22 20:15:50.52	7.27	14.55	-35.3	-36.0	25.4	0.00e+00	0	41	0	1131413504	44	5744
2026-01-22 20:15:51.53	7.08	14.60	-35.3	-36.0	25.4	0.00e+00	0	41	0	1136656384	44	5733
2026-01-22 20:15:52.54	6.89	14.65	-35.3	-36.0	25.3	0.00e+00	0	41	0	1142947840	44	5712
2026-01-22 20:15:53.55	6.71	14.70	-35.1	-35.7	25.7	0.00e+00	0	41	0	1148190720	44	5543
2026-01-22 20:15:54.56	6.52	14.75	-35.1	-35.8	25.6	0.00e+00	0	41	0	1154482176	44	5583
2026-01-22 20:15:55.57	6.33	14.80	-34.9	-35.6	25.7	0.00e+00	0	41	0	1159725056	44	5479
2026-01-22 20:15:56.58	6.14	14.85	-35.0	-35.7	25.7	0.00e+00	0	41	0	1164967936	44	5527
2026-01-22 20:15:57.59	5.95	14.89	-35.0	-35.6	25.7	0.00e+00	0	41	0	1171259392	44	5496
2026-01-22 20:15:58.60	5.76	14.94	-35.0	-35.7	25.7	0.00e+00	0	41	0	1176502272	44	5523
2026-01-22 20:15:59.62	5.56	14.99	-35.1	-35.8	25.6	0.00e+00	0	41	0	1182793728	44	5604
2026-01-22 20:16:00.63	5.37	15.04	-35.1	-35.7	25.7	0.00e+00	0	41	0	1188036608	44	5555
2026-01-22 20:16:01.64	5.18	15.08	-35.2	-35.8	25.5	0.00e+00	0	41	0	1193279488	44	5621
2026-01-22 20:16:02.65	4.98	15.13	-35.0	-35.7	25.7	0.00e+00	0	41	0	1199570944	44	5532
2026-01-22 20:16:03.66	4.79	15.18	-35.1	-35.7	25.6	0.00e+00	0	41	0	1204813824	44	5564
2026-01-22 20:16:04.67	4.59	15.22	-35.1	-35.9	25.6	0.00e+00	0	41	0	1211105280	44	5644
2026-01-22 20:16:05.68	4.40	15.27	-35.1	-35.8	25.6	0.00e+00	0	41	0	1216348160	44	5591
2026-01-22 20:16:06.69	4.20	15.31	-35.2	-35.8	25.6	0.00e+00	0	41	0	1222639616	44	5625
2026-01-22 20:16:07.70	4.01	15.36	-35.0	-35.7	25.7	0.00e+00	0	41	0	1227882496	44	5526
2026-01-22 20:16:08.71	3.81	15.40	-35.0	-35.7	25.7	0.00e+00	0	41	0	1234173952	44	5520
2026-01-22 20:16:09.72	3.61	15.45	-35.1	-35.8	25.6	0.00e+00	0	41	0	1239416832	44	5574
2026-01-22 20:16:10.73	3.41	15.49	-35.0	-35.7	25.7	0.00e+00	0	41	0	1244659712	44	5526
2026-01-22 20:16:11.74	3.21	15.54	-35.0	-35.7	25.8	0.00e+00	0	41	0	1250951168	44	5516
2026-01-22 20:16:12.75	3.01	15.58	-35.1	-35.8	25.6	0.00e+00	0	41	0	1256194048	44	5576
2026-01-22 20:16:13.76	2.81	15.62	-35.0	-35.6	25.8	0.00e+00	0	41	0	1262485504	44	5478
2026-01-22 20:16:14.77	2.61	15.67	-34.8	-35.5	26.0	0.00e+00	0	41	0	1267728384	42	6044
2026-01-22 20:16:15.78	2.41	15.71	-34.8	-35.5	26.0	0.00e+00	0	41	0	1272971264	42	6045
2026-01-22 20:16:16.79	2.21	15.75	-34.7	-35.4	26.1	0.00e+00	0	41	0	1279262720	42	5987
2026-01-22 20:16:17.80	2.01	15.80	-34.7	-35.3	26.0	0.00e+00	0	41	0	1284505600	42	5953
2026-01-22 20:16:18.81	1.80	15.84	-34.6	-35.3	26.1	0.00e+00	0	41	0	1290797056	42	5938
2026-01-22 20:16:19.82	1.60	15.88	-34.8	-35.5	26.0	0.00e+00	0	41	0	1296039936	42	6044
2026-01-22 20:16:20.83	1.40	15.92	-34.5	-35.2	26.1	0.00e+00	0	41	0	1301282816	42	5851
2026-01-22 20:16:21.84	1.19	15.96	-34.5	-35.2	26.2	0.00e+00	0	41	0	1307574272	42	5847
2026-01-22 20:16:22.86	0.98	16.01	-34.5	-35.2	26.1	0.00e+00	0	41	0	1312817152	42	5851
2026-01-22 20:16:23.87	0.78	16.05	-34.5	-35.2	26.1	0.00e+00	0	41	0	1319108608	42	5836
2026-01-22 20:16:24.88	0.57	16.09	-34.4	-35.1	26.2	0.00e+00	0	41	0	1324351488	42	5772
2026-01-22 20:16:25.89	0.36	16.13	-34.4	-35.1	26.2	0.00e+00	0	41	0	1330642944	42	5777
2026-01-22 20:16:26.89	0.16	16.17	-34.4	-35.0	26.4	0.00e+00	0	41	0	1335885824	42	5741
2026-01-22 20:16:27.91	359.95	16.21	-34.3	-35.0	26.4	0.00e+00	0	41	0	1341128704	42	5709
2026-01-22 20:16:28.92	359.74	16.25	-34.4	-35.0	26.3	0.00e+00	0	41	0	1347420160	42	5755
2026-01-22 20:16:29.92	359.53	16.28	-34.4	-35.0	26.3	0.00e+00	0	41	0	1352663040	42	5760
2026-01-22 20:16:30.94	359.32	16.32	-34.3	-34.9	26.4	0.00e+00	0	41	0	1358954496	42	5676
2026-01-22 20:16:31.94	359.11	16.36	-34.3	-34.9	26.4	0.00e+00	0	41	0	1364197376	42	5671
2026-01-22 20:16:32.95	358.90	16.40	-34.2	-34.9	26.5	0.00e+00	0	41	0	1369440256	42	5642
2026-01-22 20:16:33.97	358.69	16.44	-34.3	-35.0	26.4	0.00e+00	0	41	0	1375731712	42	5713
2026-01-22 20:16:34.98	358.47	16.47	-34.3	-34.9	26.3	0.00e+00	0	41	0	1380974592	42	5673
2026-01-22 20:16:35.98	358.26	16.51	-34.3	-35.0	26.4	0.00e+00	0	41	0	1387266048	42	5735
2026-01-22 20:16:36.99	358.05	16.55	-34.4	-35.0	26.3	0.00e+00	0	41	0	1392508928	42	5759
2026-01-22 20:16:38.00	357.84	16.58	-34.3	-35.0	26.4	0.00e+00	0	41	0	1397751808	42	5730
2026-01-22 20:16:39.01	357.62	16.62	-34.1	-34.8	26.5	0.00e+00	0	41	0	1404043264	42	5586
2026-01-22 20:16:40.02	357.41	16.65	-33.9	-34.5	26.7	0.00e+00	0	41	0	1409286144	42	5412
2026-01-22 20:16:41.03	357.19	16.69	-33.9	-34.5	26.7	0.00e+00	0	41	0	1415577600	42	5412
2026-01-22 20:16:42.04	356.98	16.72	-33.9	-34.5	26.7	0.00e+00	0	41	0	1420820480	42	5385
2026-01-22 20:16:43.05	356.76	16.76	-33.9	-34.5	26.7	0.00e+00	0	41	0	1427111936	42	5437
2026-01-22 20:16:44.06	356.54	16.79	-33.9	-34.6	26.6	0.00e+00	0	41	0	1432354816	42	5446
2026-01-22 20:16:45.07	356.33	16.83	-34.0	-34.7	26.6	0.00e+00	0	41	0	1438646272	42	5531
2026-01-22 20:16:46.08	356.11	16.86	-34.0	-34.7	26.6	0.00e+00	0	41	0	1443889152	42	5511
2026-01-22 20:16:47.09	355.89	16.89	-34.1	-34.7	26.5	0.00e+00	0	41	0	1449132032	42	5553
2026-01-22 20:16:48.11	355.67	16.93	-34.2	-34.8	26.4	0.00e+00	0	41	0	1455423488	42	5610
2026-01-22 20:16:49.12	355.45	16.96	-34.2	-34.9	26.4	0.00e+00	0	41	0	1460666368	42	5638
2026-01-22 20:16:50.12	355.23	16.99	-34.3	-35.0	26.3	0.00e+00	0	41	0	1466957824	42	5707
2026-01-22 20:16:51.14	355.01	17.02	-34.4	-35.1	26.2	0.00e+00	0	41	0	1472200704	42	5765
2026-01-22 20:16:52.15	354.79	17.05	-34.4	-35.1	26.3	0.00e+00	0	41	0	1477443584	42	5762
2026-01-22 20:16:53.16	354.57	17.08	-34.4	-35.1	26.2	0.00e+00	0	41	0	1483735040	42	5770
2026-01-22 20:16:54.17	354.35	17.11	-34.4	-35.1	26.2	0.00e+00	0	41	0	1488977920	42	5775
2026-01-22 20:16:55.18	354.12	17.14	-34.5	-35.1	26.2	0.00e+00	0	41	0	1495269376	42	5819
2026-01-22 20:16:56.19	353.90	17.17	-34.5	-35.2	26.1	0.00e+00	0	41	0	1500512256	42	5857
2026-01-22 20:16:57.20	353.68	17.20	-34.5	-35.1	26.2	0.00e+00	0	42	0	1505755136	42	5808
2026-01-22 20:16:58.21	353.45	17.23	-34.3	-34.9	26.4	0.00e+00	0	42	0	1512046592	42	5687
2026-01-22 20:16:59.22	353.23	17.26	-34.2	-34.9	26.4	0.00e+00	0	41	0	1517289472	42	5671
2026-01-22 20:17:00.23	353.01	17.28	-34.3	-34.9	26.4	0.00e+00	0	42	0	1523580928	42	5661
2026-01-22 20:17:01.24	352.78	17.31	-34.5	-35.1	26.2	0.00e+00	0	41	0	1528823808	42	5817
2026-01-22 20:17:02.25	352.56	17.34	-34.5	-35.2	26.2	0.00e+00	0	41	0	1535115264	42	5868
2026-01-22 20:17:03.26	352.33	17.36	-34.7	-35.4	26.0	0.00e+00	0	41	0	1540358144	42	5985
2026-01-22 20:17:04.26	352.11	17.39	-34.8	-35.5	26.0	0.00e+00	0	41	0	1546649600	42	6080
2026-01-22 20:17:05.28	351.88	17.42	-34.4	-35.1	26.3	0.00e+00	0	42	0	1551892480	42	5807
2026-01-22 20:17:06.29	351.65	17.44	-34.3	-35.0	26.3	0.00e+00	0	41	0	1557135360	42	5752
2026-01-22 20:17:07.30	351.43	17.47	-34.3	-34.9	26.4	0.00e+00	0	41	0	1563426816	42	5681
2026-01-22 20:17:08.31	351.20	17.49	-34.2	-34.9	26.4	0.00e+00	0	41	0	1568669696	42	5636
2026-01-22 20:17:09.32	350.97	17.51	-34.3	-34.9	26.4	0.00e+00	0	41	0	1574961152	42	5685
2026-01-22 20:17:10.32	350.75	17.54	-34.5	-35.1	26.3	0.00e+00	0	41	0	1580204032	42	5825
2026-01-22 20:17:11.33	350.52	17.56	-34.2	-34.9	26.5	0.00e+00	0	41	0	1585446912	42	5641
2026-01-22 20:17:12.34	350.29	17.58	-34.2	-34.8	26.5	0.00e+00	0	41	0	1591738368	42	5604
2026-01-22 20:17:13.35	350.06	17.60	-34.2	-34.8	26.6	0.00e+00	0	42	0	1596981248	42	5624
2026-01-22 20:17:14.36	349.83	17.63	-34.0	-34.6	26.6	0.00e+00	0	41	0	1603272704	42	5494
2026-01-22 20:17:15.37	349.60	17.65	-34.1	-34.8	26.6	0.00e+00	0	41	0	1608515584	42	5577
2026-01-22 20:17:16.38	349.37	17.67	-34.0	-34.7	26.6	0.00e+00	0	41	0	1613758464	42	5550
2026-01-22 20:17:17.39	349.14	17.69	-33.9	-34.6	26.8	0.00e+00	0	42	0	1620049920	42	5468
2026-01-22 20:17:18.40	348.91	17.71	-34.0	-34.7	26.6	0.00e+00	0	42	0	1625292800	42	5518
2026-01-22 20:17:19.41	348.68	17.73	-33.9	-34.6	26.7	0.00e+00	0	41	0	1631584256	42	5441
2026-01-22 20:17:20.42	348.45	17.75	-34.0	-34.6	26.6	0.00e+00	0	41	0	1636827136	42	5499
2026-01-22 20:17:21.43	348.22	17.76	-33.9	-34.5	26.7	0.00e+00	0	41	0	1643118592	42	5426
2026-01-22 20:17:22.45	347.98	17.78	-34.0	-34.7	26.6	0.00e+00	0	41	0	1648361472	42	5531
2026-01-22 20:17:23.46	347.75	17.80	-33.9	-34.6	26.7	0.00e+00	0	41	0	1653604352	42	5487
2026-01-22 20:17:24.47	347.52	17.82	-34.0	-34.7	26.6	0.00e+00	0	41	0	1659895808	42	5525
2026-01-22 20:17:25.48	347.28	17.83	-34.0	-34.7	26.6	0.00e+00	0	41	0	1665138688	42	5526
2026-01-22 20:17:26.49	347.05	17.85	-34.0	-34.7	26.6	0.00e+00	0	41	0	1671430144	42	5513
2026-01-22 20:17:27.50	346.82	17.86	-33.9	-34.5	26.7	0.00e+00	0	41	0	1676673024	42	5416
2026-01-22 20:17:28.51	346.58	17.88	-33.9	-34.6	26.7	0.00e+00	0	41	0	1682964480	42	5473
2026-01-22 20:17:29.52	346.35	17.89	-33.8	-34.5	26.8	0.00e+00	0	41	0	1688207360	42	5384
2026-01-22 20:17:30.53	346.12	17.91	-33.8	-34.4	26.8	0.00e+00	0	41	0	1693450240	42	5354
2026-01-22 20:17:31.54	345.88	17.92	-33.9	-34.6	26.7	0.00e+00	0	41	0	1699741696	42	5447
2026-01-22 20:17:32.55	345.65	17.93	-33.9	-34.5	26.7	0.00e+00	0	42	0	1704984576	42	5421
2026-01-22 20:17:33.56	345.41	17.95	-34.0	-34.6	26.7	0.00e+00	0	42	0	1711276032	42	5483
2026-01-22 20:17:34.57	345.18	17.96	-34.0	-34.6	26.7	0.00e+00	0	42	0	1716518912	42	5480
2026-01-22 20:17:35.58	344.94	17.97	-33.9	-34.5	26.8	0.00e+00	0	42	0	1721761792	42	5413
2026-01-22 20:17:36.59	344.71	17.98	-33.9	-34.6	26.8	0.00e+00	0	42	0	1728053248	42	5441
2026-01-22 20:17:37.60	344.47	17.99	-34.0	-34.6	26.6	0.00e+00	0	41	0	1733296128	42	5491
2026-01-22 20:17:38.61	344.24	18.00	-34.1	-34.8	26.6	0.00e+00	0	42	0	1739587584	42	5582
2026-01-22 20:17:39.62	344.00	18.01	-34.1	-34.8	26.5	0.00e+00	0	41	0	1744830464	42	5609
2026-01-22 20:17:40.63	343.77	18.02	-34.2	-34.8	26.5	0.00e+00	0	41	0	1751121920	42	5606
2026-01-22 20:17:41.64	343.53	18.03	-34.2	-34.9	26.5	0.00e+00	0	41	0	1756364800	42	5633
2026-01-22 20:17:42.65	343.30	18.04	-34.1	-34.7	26.5	0.00e+00	0	41	0	1761607680	42	5521
2026-01-22 20:17:43.66	343.06	18.05	-33.9	-34.6	26.7	0.00e+00	0	42	0	1767899136	42	5442
2026-01-22 20:17:44.67	342.82	18.05	-34.0	-34.6	26.6	0.00e+00	0	42	0	1773142016	42	5486
2026-01-22 20:17:45.68	342.59	18.06	-33.8	-34.4	26.8	0.00e+00	0	42	0	1779433472	42	5341
2026-01-22 20:17:46.69	342.35	18.06	-33.9	-34.6	26.8	0.00e+00	0	42	0	1784676352	42	5469
2026-01-22 20:17:47.70	342.11	18.07	-33.8	-34.4	26.8	0.00e+00	0	42	0	1789919232	42	5364
2026-01-22 20:17:48.71	341.88	18.08	-33.7	-34.4	26.9	0.00e+00	0	42	0	1796210688	40	5971
2026-01-22 20:17:49.72	341.64	18.08	-33.6	-34.3	26.9	0.00e+00	0	42	0	1801453568	40	5928
2026-01-22 20:17:50.73	341.40	18.08	-33.7	-34.4	26.9	0.00e+00	0	42	0	1807745024	40	5975
2026-01-22 20:17:51.74	341.17	18.09	-33.7	-34.3	26.9	0.00e+00	0	42	0	1812987904	40	5938
2026-01-22 20:17:52.75	340.93	18.09	-33.5	-34.1	27.0	0.00e+00	0	42	0	1818230784	40	5792
2026-01-22 20:17:53.76	340.69	18.09	-33.6	-34.2	27.0	0.00e+00	0	42	0	1824522240	40	5885
2026-01-22 20:17:54.77	340.46	18.10	-33.5	-34.1	27.0	0.00e+00	0	42	0	1829765120	40	5807
2026-01-22 20:17:55.79	340.22	18.10	-33.7	-34.3	26.8	0.00e+00	0	42	0	1836056576	40	5939
2026-01-22 20:17:56.80	339.98	18.10	-33.7	-34.4	26.9	0.00e+00	0	42	0	1841299456	40	5969
2026-01-22 20:17:57.81	339.74	18.10	-33.8	-34.4	26.8	0.00e+00	0	42	0	1847590912	40	6030
2026-01-22 20:17:58.82	339.51	18.10	-33.8	-34.5	26.8	0.00e+00	0	42	0	1852833792	40	6039
2026-01-22 20:17:59.83	339.27	18.10	-33.8	-34.5	26.8	0.00e+00	0	42	0	1859125248	40	6051
2026-01-22 20:18:00.84	339.03	18.10	-33.9	-34.5	26.7	0.00e+00	0	42	0	1864368128	40	6072
2026-01-22 20:18:01.85	338.80	18.10	-34.0	-34.7	26.6	0.00e+00	0	42	0	1869611008	40	6197
2026-01-22 20:18:02.86	338.56	18.09	-34.1	-34.7	26.5	0.00e+00	0	42	0	1875902464	40	6230
2026-01-22 20:18:03.87	338.32	18.09	-34.0	-34.7	26.5	0.00e+00	0	42	0	1881145344	40	6210
2026-01-22 20:18:04.88	338.08	18.09	-34.2	-34.8	26.4	0.00e+00	0	41	0	1887436800	40	6285
2026-01-22 20:18:05.89	337.85	18.08	-34.1	-34.8	26.4	0.00e+00	0	42	0	1892679680	40	6284
2026-01-22 20:18:06.90	337.61	18.08	-34.2	-34.9	26.3	0.00e+00	0	41	0	1897922560	40	6353
2026-01-22 20:18:07.91	337.37	18.08	-34.2	-34.8	26.4	0.00e+00	0	42	0	1904214016	40	6285
2026-01-22 20:18:08.92	337.14	18.07	-34.2	-34.9	26.4	0.00e+00	0	42	0	1909456896	40	6336
2026-01-22 20:18:09.93	336.90	18.07	-34.1	-34.7	26.4	0.00e+00	0	42	0	1915748352	40	6243
2026-01-22 20:18:10.94	336.66	18.06	-34.0	-34.7	26.3	0.00e+00	0	42	0	1920991232	40	6221
2026-01-22 20:18:11.95	336.43	18.05	-34.0	-34.7	26.4	0.00e+00	0	42	0	1926234112	40	6197
2026-01-22 20:18:12.96	336.19	18.05	-34.0	-34.6	26.5	0.00e+00	0	42	0	1932525568	40	6171
2026-01-22 20:18:13.97	335.96	18.04	-33.9	-34.5	26.5	0.00e+00	0	42	0	1937768448	40	6088
2026-01-22 20:18:14.98	335.72	18.03	-33.8	-34.4	26.7	0.00e+00	0	42	0	1944059904	40	6010
2026-01-22 20:18:15.99	335.48	18.02	-33.7	-34.3	26.8	0.00e+00	0	42	0	1949302784	40	5936
2026-01-22 20:18:17.00	335.25	18.01	-33.6	-34.2	26.9	0.00e+00	0	42	0	1955594240	40	5892
2026-01-22 20:18:18.01	335.01	18.00	-33.6	-34.3	26.9	0.00e+00	0	42	0	1960837120	40	5927
2026-01-22 20:18:19.02	334.78	17.99	-33.9	-34.5	26.7	0.00e+00	0	42	0	1967128576	40	6099
2026-01-22 20:18:20.03	334.54	17.98	-33.8	-34.6	26.7	0.00e+00	0	42	0	1972371456	40	6104
2026-01-22 20:18:21.04	334.31	17.97	-33.8	-34.5	26.7	0.00e+00	0	41	0	1977614336	40	6048
2026-01-22 20:18:22.05	334.07	17.96	-33.8	-34.5	26.8	0.00e+00	0	42	0	1983905792	40	6055
2026-01-22 20:18:23.07	333.83	17.95	-33.7	-34.4	26.9	0.00e+00	0	41	0	1989148672	40	6004
2026-01-22 20:18:24.07	333.60	17.94	-33.9	-34.5	26.8	0.00e+00	0	41	0	1995440128	40	6062
2026-01-22 20:18:25.09	333.37	17.92	-33.7	-34.3	26.8	0.00e+00	0	42	0	2000683008	40	5951
2026-01-22 20:18:26.10	333.13	17.91	-33.8	-34.4	26.7	0.00e+00	0	42	0	2005925888	40	6007
2026-01-22 20:18:27.11	332.90	17.90	-33.9	-34.5	26.7	0.00e+00	0	42	0	2012217344	40	6099
2026-01-22 20:18:28.12	332.66	17.88	-34.0	-34.6	26.7	0.00e+00	0	42	0	2017460224	40	6146
2026-01-22 20:18:29.13	332.43	17.87	-34.1	-34.7	26.5	0.00e+00	0	41	0	2023751680	40	6244
2026-01-22 20:18:30.14	332.20	17.85	-34.2	-34.8	26.5	0.00e+00	0	42	0	2028994560	40	6311
2026-01-22 20:18:31.15	331.96	17.83	-34.2	-34.9	26.4	0.00e+00	0	42	0	2034237440	40	6324
2026-01-22 20:18:32.16	331.73	17.82	-34.2	-34.8	26.5	0.00e+00	0	42	0	2040528896	40	6286
2026-01-22 20:18:33.17	331.50	17.80	-34.3	-34.9	26.4	0.00e+00	0	42	0	2045771776	40	6341
2026-01-22 20:18:34.18	331.27	17.78	-34.2	-34.8	26.5	0.00e+00	0	42	0	2052063232	40	6302
2026-01-22 20:18:35.19	331.03	17.77	-34.2	-34.8	26.5	0.00e+00	0	42	0	2057306112	40	6294
2026-01-22 20:18:36.20	330.80	17.75	-34.2	-34.9	26.6	0.00e+00	0	41	0	2063597568	40	6319
2026-01-22 20:18:37.21	330.57	17.73	-34.2	-34.9	26.5	0.00e+00	0	42	0	2068840448	40	6355
2026-01-22 20:18:38.22	330.34	17.71	-34.1	-34.7	26.6	0.00e+00	0	42	0	2075131904	40	6232
2026-01-22 20:18:39.22	330.11	17.69	-34.1	-34.7	26.5	0.00e+00	0	42	0	2080374784	40	6228
2026-01-22 20:18:40.23	329.88	17.67	-34.2	-34.8	26.6	0.00e+00	0	42	0	2085617664	40	6280
2026-01-22 20:18:41.25	329.65	17.65	-34.1	-34.8	26.5	0.00e+00	0	42	0	2091909120	40	6288
2026-01-22 20:18:42.26	329.42	17.63	-34.2	-34.9	26.4	0.00e+00	0	42	0	2097152000	40	6346
2026-01-22 20:18:43.26	329.19	17.61	-34.4	-35.1	26.3	0.00e+00	0	42	0	2103443456	40	6466
2026-01-22 20:18:44.27	328.96	17.59	-34.4	-35.1	26.4	0.00e+00	0	42	0	2108686336	40	6489
2026-01-22 20:18:45.28	328.73	17.56	-34.3	-35.0	26.4	0.00e+00	0	42	0	2113929216	40	6430
2026-01-22 20:18:46.29	328.50	17.54	-34.3	-34.9	26.4	0.00e+00	0	42	0	2120220672	40	6382
2026-01-22 20:18:47.30	328.28	17.52	-34.3	-34.9	26.4	0.00e+00	0	42	0	2125463552	40	6362
2026-01-22 20:18:48.31	328.05	17.49	-34.3	-35.0	26.4	0.00e+00	0	42	0	2131755008	40	6459
2026-01-22 20:18:49.32	327.82	17.47	-34.4	-35.1	26.4	0.00e+00	0	42	0	2136997888	40	6491
2026-01-22 20:18:50.33	327.59	17.44	-34.4	-35.0	26.3	0.00e+00	0	42	0	2142240768	40	6409
2026-01-22 20:18:51.34	327.37	17.42	-34.3	-35.0	26.3	0.00e+00	0	42	0	2148532224	40	6394
2026-01-22 20:18:52.35	327.14	17.39	-34.3	-35.0	26.4	0.00e+00	0	42	0	2153775104	40	6415
2026-01-22 20:18:53.36	326.91	17.37	-34.4	-35.1	26.3	0.00e+00	0	42	0	2160066560	40	6472
2026-01-22 20:18:54.37	326.69	17.34	-34.4	-35.1	26.3	0.00e+00	0	42	0	2165309440	40	6513
2026-01-22 20:18:55.38	326.46	17.32	-34.6	-35.2	26.2	0.00e+00	0	42	0	2171600896	40	6567
2026-01-22 20:18:56.39	326.24	17.29	-34.5	-35.2	26.2	0.00e+00	0	42	0	2176843776	40	6556
2026-01-22 20:18:57.40	326.01	17.26	-34.6	-35.2	26.2	0.00e+00	0	42	0	2182086656	40	6590
2026-01-22 20:18:58.41	325.79	17.23	-34.6	-35.2	26.2	0.00e+00	0	42	0	2188378112	40	6573
2026-01-22 20:18:59.42	325.57	17.20	-34.5	-35.1	26.3	0.00e+00	0	42	0	2193620992	40	6488
2026-01-22 20:19:00.43	325.34	17.18	-34.6	-35.2	26.3	0.00e+00	0	42	0	2199912448	40	6611
2026-01-22 20:19:01.44	325.12	17.15	-34.5	-35.1	26.3	0.00e+00	0	42	0	2205155328	40	6513
2026-01-22 20:19:02.45	324.90	17.12	-34.6	-35.2	26.2	0.00e+00	0	42	0	2210398208	40	6576
2026-01-22 20:19:03.46	324.68	17.09	-34.2	-35.0	26.4	0.00e+00	0	42	0	2216689664	40	6398
2026-01-22 20:19:04.47	324.45	17.06	-34.3	-35.0	26.5	0.00e+00	0	42	0	2221932544	40	6442
2026-01-22 20:19:05.48	324.23	17.02	-34.3	-34.9	26.5	0.00e+00	0	42	0	2228224000	40	6332
2026-01-22 20:19:06.49	324.01	16.99	-34.4	-35.0	26.3	0.00e+00	0	42	0	2233466880	40	6441
2026-01-22 20:19:07.50	323.79	16.96	-34.2	-34.9	26.5	0.00e+00	0	42	0	2238709760	40	6355
2026-01-22 20:19:08.51	323.57	16.93	-34.1	-34.7	26.5	0.00e+00	0	42	0	2245001216	40	6244
2026-01-22 20:19:09.52	323.35	16.90	-34.3	-35.0	26.4	0.00e+00	0	42	0	2250244096	40	6448
2026-01-22 20:19:10.53	323.14	16.86	-34.5	-35.2	26.3	0.00e+00	0	42	0	2256535552	40	6589
2026-01-22 20:19:11.54	322.92	16.83	-34.5	-35.1	26.2	0.00e+00	0	41	0	2261778432	40	6504
2026-01-22 20:19:12.56	322.70	16.80	-34.6	-35.2	26.1	0.00e+00	0	42	0	2268069888	40	6595
2026-01-22 20:19:13.57	322.48	16.76	-34.6	-35.3	26.2	0.00e+00	0	42	0	2273312768	40	6631
2026-01-22 20:19:14.58	322.26	16.73	-34.6	-35.2	26.2	0.00e+00	0	42	0	2279604224	40	6608
2026-01-22 20:19:15.59	322.05	16.69	-34.6	-35.2	26.2	0.00e+00	0	42	0	2284847104	40	6560
2026-01-22 20:19:16.60	321.83	16.66	-34.5	-35.2	26.1	0.00e+00	0	42	0	2290089984	40	6559
2026-01-22 20:19:17.61	321.62	16.62	-34.7	-35.4	26.1	0.00e+00	0	42	0	2296381440	42	5984
2026-01-22 20:19:18.62	321.40	16.59	-34.7	-35.4	26.1	0.00e+00	0	42	0	2301624320	42	6017
2026-01-22 20:19:19.63	321.19	16.55	-34.5	-35.2	26.2	0.00e+00	0	41	0	2307915776	42	5876
2026-01-22 20:19:20.64	320.97	16.52	-34.5	-35.1	26.3	0.00e+00	0	42	0	2313158656	42	5824
2026-01-22 20:19:21.65	320.76	16.48	-34.4	-35.0	26.3	0.00e+00	0	41	0	2318401536	42	5722
2026-01-22 20:19:22.66	320.55	16.44	-34.4	-35.1	26.3	0.00e+00	0	42	0	2324692992	42	5780
2026-01-22 20:19:23.67	320.34	16.40	-34.2	-34.7	26.5	0.00e+00	0	42	0	2329935872	42	5555
2026-01-22 20:19:24.68	320.13	16.37	-34.3	-34.9	26.4	0.00e+00	0	42	0	2336227328	42	5673
2026-01-22 20:19:25.69	319.91	16.33	-34.5	-35.2	26.3	0.00e+00	0	42	0	2341470208	42	5881
2026-01-22 20:19:26.70	319.70	16.29	-34.6	-35.2	26.3	0.00e+00	0	42	0	2346713088	42	5882
2026-01-22 20:19:27.71	319.49	16.25	-34.6	-35.3	26.2	0.00e+00	0	41	0	2353004544	42	5907
2026-01-22 20:19:28.73	319.28	16.21	-34.6	-35.3	26.2	0.00e+00	0	41	0	2358247424	42	5943
2026-01-22 20:19:29.73	319.08	16.17	-34.7	-35.4	26.1	0.00e+00	0	42	0	2364538880	42	6001
2026-01-22 20:19:30.75	318.87	16.13	-34.8	-35.4	25.9	0.00e+00	0	42	0	2369781760	42	6028
2026-01-22 20:19:31.76	318.66	16.09	-34.8	-35.5	25.9	0.00e+00	0	41	0	2376073216	42	6058
2026-01-22 20:19:32.77	318.45	16.05	-35.0	-35.7	25.8	0.00e+00	0	42	0	2381316096	42	6243
2026-01-22 20:19:33.77	318.25	16.01	-34.9	-35.6	26.0	0.00e+00	0	41	0	2387607552	42	6107
2026-01-22 20:19:34.78	318.04	15.97	-34.9	-35.5	26.0	0.00e+00	0	42	0	2392850432	42	6086
2026-01-22 20:19:35.79	317.84	15.93	-34.8	-35.5	26.0	0.00e+00	0	42	0	2398093312	42	6069
2026-01-22 20:19:36.80	317.63	15.89	-34.9	-35.5	25.9	0.00e+00	0	42	0	2404384768	42	6100
2026-01-22 20:19:37.81	317.43	15.84	-34.8	-35.4	26.0	0.00e+00	0	42	0	2409627648	42	6023
2026-01-22 20:19:38.82	317.22	15.80	-34.9	-35.5	25.9	0.00e+00	0	42	0	2415919104	42	6102
2026-01-22 20:19:39.83	317.02	15.76	-35.0	-35.6	25.9	0.00e+00	0	42	0	2421161984	42	6109
2026-01-22 20:19:40.84	316.82	15.72	-34.9	-35.5	26.0	0.00e+00	0	42	0	2426404864	42	6038
2026-01-22 20:19:41.85	316.62	15.67	-34.9	-35.5	26.0	0.00e+00	0	42	0	2432696320	42	6046
2026-01-22 20:19:42.86	316.42	15.63	-34.8	-35.4	26.0	0.00e+00	0	42	0	2437939200	42	5993
2026-01-22 20:19:43.87	316.21	15.59	-34.8	-35.5	26.0	0.00e+00	0	42	0	2444230656	42	6045
2026-01-22 20:19:44.89	316.01	15.54	-34.9	-35.7	25.8	0.00e+00	0	42	0	2449473536	42	6177
2026-01-22 20:19:45.90	315.81	15.50	-34.9	-35.5	26.0	0.00e+00	0	42	0	2454716416	42	6067
2026-01-22 20:19:46.90	315.62	15.45	-34.9	-35.6	25.9	0.00e+00	0	42	0	2461007872	42	6127
2026-01-22 20:19:47.91	315.42	15.41	-34.9	-35.5	25.9	0.00e+00	0	42	0	2466250752	42	6095
2026-01-22 20:19:48.92	315.22	15.36	-34.9	-35.6	25.9	0.00e+00	0	42	0	2472542208	42	6111
2026-01-22 20:19:49.93	315.02	15.32	-34.9	-35.5	25.9	0.00e+00	0	42	0	2477785088	42	6102
2026-01-22 20:19:50.94	314.83	15.27	-34.9	-35.6	25.8	0.00e+00	0	42	0	2484076544	42	6132
2026-01-22 20:19:51.95	314.63	15.23	-34.9	-35.7	25.8	0.00e+00	0	42	0	2489319424	42	6181
2026-01-22 20:19:52.96	314.44	15.18	-35.0	-35.6	25.8	0.00e+00	0	42	0	2495610880	42	6173
2026-01-22 20:19:53.97	314.24	15.13	-34.9	-35.6	25.9	0.00e+00	0	42	0	2500853760	42	6126
2026-01-22 20:19:54.99	314.05	15.09	-34.8	-35.4	26.0	0.00e+00	0	42	0	2506096640	42	6026
2026-01-22 20:19:56.00	313.85	15.04	-34.9	-35.6	25.9	0.00e+00	0	42	0	2512388096	42	6107
2026-01-22 20:19:57.01	313.66	14.99	-34.9	-35.7	25.9	0.00e+00	0	42	0	2517630976	42	6175
2026-01-22 20:19:58.02	313.47	14.95	-35.1	-35.7	25.8	0.00e+00	0	42	0	2523922432	42	6223
2026-01-22 20:19:59.02	313.28	14.90	-35.1	-35.7	25.7	0.00e+00	0	42	0	2529165312	42	6220
2026-01-22 20:20:00.03	313.09	14.85	-35.2	-35.9	25.6	0.00e+00	0	42	0	2534408192	42	6328
2026-01-22 20:20:01.04	312.90	14.80	-35.1	-35.8	25.7	0.00e+00	0	42	0	2540699648	42	6280
2026-01-22 20:20:02.05	312.71	14.75	-35.3	-36.0	25.5	0.00e+00	0	42	0	2545942528	42	6437
2026-01-22 20:20:03.06	312.52	14.71	-35.1	-35.8	25.7	0.00e+00	0	42	0	2552233984	42	6279
2026-01-22 20:20:04.07	312.33	14.66	-34.9	-35.6	25.9	0.00e+00	0	42	0	2557476864	42	6142
2026-01-22 20:20:05.08	312.14	14.61	-35.1	-35.7	25.7	0.00e+00	0	42	0	2562719744	42	6183
2026-01-22 20:20:06.09	311.95	14.56	-35.2	-35.9	25.6	0.00e+00	0	42	0	2569011200	42	6355
2026-01-22 20:20:07.10	311.77	14.51	-35.3	-35.9	25.5	0.00e+00	0	42	0	2574254080	42	6366
2026-01-22 20:20:08.11	311.58	14.46	-35.3	-35.9	25.5	0.00e+00	0	42	0	2580545536	42	6370
2026-01-22 20:20:09.12	311.40	14.41	-35.3	-36.0	25.5	0.00e+00	0	42	0	2585788416	42	6393
2026-01-22 20:20:10.13	311.21	14.36	-35.3	-36.0	25.5	0.00e+00	0	42	0	2592079872	42	6453
2026-01-22 20:20:11.14	311.03	14.31	-35.4	-36.1	25.5	0.00e+00	0	42	0	2597322752	42	6491
2026-01-22 20:20:12.15	310.84	14.26	-35.3	-36.0	25.5	0.00e+00	0	42	0	2602565632	42	6436
2026-01-22 20:20:13.16	310.66	14.21	-35.3	-36.1	25.6	0.00e+00	0	42	0	2608857088	42	6467
2026-01-22 20:20:14.17	310.48	14.16	-35.3	-36.0	25.5	0.00e+00	0	42	0	2614099968	42	6420
2026-01-22 20:20:15.18	310.30	14.11	-35.3	-36.0	25.5	0.00e+00	0	42	0	2620391424	42	6425
2026-01-22 20:20:16.19	310.12	14.06	-35.3	-36.0	25.5	0.00e+00	0	42	0	2625634304	42	6427
2026-01-22 20:20:17.20	309.94	14.01	-35.3	-36.0	25.5	0.00e+00	0	42	0	2630877184	42	6437
2026-01-22 20:20:18.21	309.76	13.96	-35.3	-36.1	25.5	0.00e+00	0	42	0	2637168640	42	6465
2026-01-22 20:20:19.22	309.58	13.90	-35.5	-36.1	25.4	0.00e+00	0	42	0	2642411520	42	6490
2026-01-22 20:20:20.23	309.40	13.85	-35.5	-36.2	25.4	0.00e+00	0	42	0	2648702976	42	6550
2026-01-22 20:20:21.24	309.22	13.80	-35.7	-36.3	25.2	0.00e+00	0	42	0	2653945856	42	6645
2026-01-22 20:20:22.25	309.04	13.75	-35.9	-36.5	24.9	0.00e+00	0	42	0	2659188736	44	6083
2026-01-22 20:20:23.26	308.87	13.70	-35.7	-36.4	25.1	0.00e+00	0	42	0	2665480192	44	5986
2026-01-22 20:20:24.27	308.69	13.64	-35.7	-36.3	25.1	0.00e+00	0	42	0	2670723072	44	5959
2026-01-22 20:20:25.28	308.52	13.59	-35.6	-36.3	25.1	0.00e+00	0	42	0	2677014528	44	5958
2026-01-22 20:20:26.29	308.34	13.54	-35.6	-36.2	25.2	0.00e+00	0	42	0	2682257408	44	5857
2026-01-22 20:20:27.31	308.17	13.49	-35.7	-36.3	25.1	0.00e+00	0	42	0	2688548864	44	5912
2026-01-22 20:20:28.32	307.99	13.43	-35.6	-36.3	25.2	0.00e+00	0	42	0	2693791744	44	5950
2026-01-22 20:20:29.33	307.82	13.38	-35.6	-36.3	25.1	0.00e+00	0	42	0	2700083200	44	5932
2026-01-22 20:20:30.34	307.65	13.33	-35.6	-36.4	25.2	0.00e+00	0	42	0	2705326080	44	6001
2026-01-22 20:20:31.35	307.48	13.27	-35.7	-36.5	25.1	0.00e+00	0	42	0	2710568960	44	6046
2026-01-22 20:20:32.36	307.31	13.22	-35.5	-36.1	25.2	0.00e+00	0	42	0	2716860416	44	5810
2026-01-22 20:20:33.36	307.14	13.17	-35.3	-36.0	25.5	0.00e+00	0	42	0	2722103296	44	5706
2026-01-22 20:20:34.37	306.97	13.11	-35.3	-35.9	25.4	0.00e+00	0	42	0	2728394752	44	5644
2026-01-22 20:20:35.38	306.80	13.06	-35.2	-35.9	25.4	0.00e+00	0	42	0	2733637632	44	5651
2026-01-22 20:20:36.40	306.63	13.00	-35.3	-35.9	25.4	0.00e+00	0	42	0	2738880512	44	5652
2026-01-22 20:20:37.40	306.46	12.95	-35.3	-36.1	25.4	0.00e+00	0	42	0	2745171968	44	5791
2026-01-22 20:20:38.41	306.30	12.90	-35.5	-36.2	25.2	0.00e+00	0	42	0	2750414848	44	5856
2026-01-22 20:20:39.42	306.13	12.84	-35.6	-36.2	25.1	0.00e+00	0	42	0	2756706304	44	5883
2026-01-22 20:20:40.43	305.96	12.79	-35.6	-36.2	25.1	0.00e+00	0	42	0	2761949184	44	5878
2026-01-22 20:20:41.45	305.80	12.73	-35.6	-36.3	25.0	0.00e+00	0	42	0	2767192064	44	5963
2026-01-22 20:20:42.45	305.63	12.68	-35.4	-36.2	25.2	0.00e+00	0	42	0	2773483520	44	5862
2026-01-22 20:20:43.46	305.47	12.62	-35.4	-36.2	25.1	0.00e+00	0	42	0	2778726400	44	5847
2026-01-22 20:20:44.47	305.31	12.57	-35.4	-36.1	25.2	0.00e+00	0	42	0	2785017856	44	5822
2026-01-22 20:20:45.48	305.14	12.51	-35.5	-36.1	25.1	0.00e+00	0	42	0	2790260736	44	5796
2026-01-22 20:20:46.50	304.98	12.46	-35.5	-36.1	25.2	0.00e+00	0	42	0	2796552192	44	5817
2026-01-22 20:20:47.51	304.82	12.40	-35.6	-36.2	24.8	0.00e+00	0	42	0	2801795072	44	5856
2026-01-22 20:20:48.52	304.66	12.35	-35.8	-36.5	24.8	0.00e+00	0	42	0	2808086528	44	6064
2026-01-22 20:20:49.53	304.50	12.29	-35.9	-36.6	24.7	0.00e+00	0	42	0	2813329408	44	6115
2026-01-22 20:20:50.54	304.34	12.24	-35.8	-36.6	24.9	0.00e+00	0	42	0	2818572288	44	6132
2026-01-22 20:20:51.55	304.18	12.18	-35.8	-36.6	24.8	0.00e+00	0	42	0	2824863744	44	6140
2026-01-22 20:20:52.56	304.02	12.12	-35.9	-36.6	24.8	0.00e+00	0	42	0	2830106624	44	6137
2026-01-22 20:20:53.57	303.86	12.07	-36.0	-36.8	24.5	0.00e+00	0	42	0	2836398080	44	6260
2026-01-22 20:20:54.58	303.70	12.01	-35.9	-36.7	24.8	0.00e+00	0	42	0	2841640960	44	6212
2026-01-22 20:20:55.59	303.55	11.96	-35.9	-36.7	24.8	0.00e+00	0	42	0	2846883840	44	6180
2026-01-22 20:20:56.60	303.39	11.90	-36.1	-36.9	24.6	0.00e+00	0	42	0	2853175296	44	6364
2026-01-22 20:20:57.61	303.24	11.84	-36.2	-37.0	24.6	0.00e+00	0	42	0	2858418176	44	6413
2026-01-22 20:20:58.62	303.08	11.79	-36.4	-37.0	24.4	0.00e+00	0	42	0	2864709632	44	6442
2026-01-22 20:20:59.63	302.93	11.73	-36.2	-36.8	24.6	0.00e+00	0	42	0	2869952512	44	6293
2026-01-22 20:21:00.64	302.77	11.68	-36.1	-36.8	24.7	0.00e+00	0	42	0	2875195392	44	6251
2026-01-22 20:21:01.65	302.62	11.62	-36.1	-36.8	24.6	0.00e+00	0	42	0	2881486848	44	6258
2026-01-22 20:21:02.66	302.47	11.56	-36.1	-36.8	24.7	0.00e+00	0	42	0	2886729728	44	6262
2026-01-22 20:21:03.67	302.32	11.51	-36.2	-36.8	24.5	0.00e+00	0	42	0	2893021184	44	6294
2026-01-22 20:21:04.68	302.17	11.45	-36.5	-37.2	24.2	0.00e+00	0	42	0	2898264064	44	6540
2026-01-22 20:21:05.69	302.01	11.39	-37.0	-37.6	23.9	0.00e+00	0	42	0	2904555520	46	6167
2026-01-22 20:21:06.70	301.86	11.34	-36.8	-37.5	24.2	0.00e+00	0	42	0	2909798400	46	6102
2026-01-22 20:21:07.71	301.72	11.28	-36.7	-37.4	24.1	0.00e+00	0	42	0	2915041280	46	5995
2026-01-22 20:21:08.72	301.57	11.22	-36.9	-37.6	23.8	0.00e+00	0	42	0	2921332736	46	6133
2026-01-22 20:21:09.73	301.42	11.16	-36.7	-37.4	24.1	0.00e+00	0	42	0	2926575616	46	5969
2026-01-22 20:21:10.74	301.27	11.11	-36.4	-37.0	24.3	0.00e+00	0	42	0	2932867072	46	5753
2026-01-22 20:21:11.75	301.12	11.05	-36.5	-37.1	24.3	0.00e+00	0	42	0	2938109952	46	5804
2026-01-22 20:21:12.76	300.98	10.99	-36.5	-37.2	24.2	0.00e+00	0	42	0	2944401408	46	5852
2026-01-22 20:21:13.77	300.83	10.94	-36.4	-37.2	24.2	0.00e+00	0	42	0	2949644288	46	5856
2026-01-22 20:21:14.78	300.69	10.88	-36.5	-37.1	24.2	0.00e+00	0	42	0	2954887168	46	5824
2026-01-22 20:21:15.79	300.54	10.82	-37.0	-37.6	23.9	0.00e+00	0	42	0	2961178624	46	6141
2026-01-22 20:21:16.80	300.40	10.76	-36.8	-37.6	23.9	0.00e+00	0	42	0	2966421504	46	6159
2026-01-22 20:21:17.81	300.25	10.71	-37.4	-38.2	23.4	0.00e+00	0	42	0	2972712960	46	6603
2026-01-22 20:21:18.82	300.11	10.65	-37.3	-38.1	23.3	0.00e+00	0	42	0	2977955840	46	6485
2026-01-22 20:21:19.83	299.97	10.59	-37.4	-38.1	23.2	0.00e+00	0	42	0	2983198720	46	6498
2026-01-22 20:21:20.85	299.82	10.53	-36.9	-37.6	23.7	0.00e+00	0	42	0	2989490176	46	6166
2026-01-22 20:21:21.86	299.68	10.48	-36.7	-37.5	24.1	0.00e+00	0	42	0	2994733056	46	6043
2026-01-22 20:21:22.87	299.54	10.42	-36.7	-37.5	24.0	0.00e+00	0	42	0	3001024512	46	6086
2026-01-22 20:21:23.88	299.40	10.36	-36.6	-37.2	24.0	0.00e+00	0	42	0	3006267392	46	5888
2026-01-22 20:21:24.88	299.26	10.31	-36.7	-37.3	24.0	0.00e+00	0	42	0	3012558848	46	5949
2026-01-22 20:21:25.89	299.12	10.25	-36.9	-37.5	23.8	0.00e+00	0	42	0	3017801728	46	6094
2026-01-22 20:21:26.90	298.99	10.19	-36.9	-37.7	23.7	0.00e+00	0	42	0	3023044608	46	6230
2026-01-22 20:21:27.91	298.85	10.13	-37.2	-37.9	23.6	0.00e+00	0	42	0	3029336064	46	6384
2026-01-22 20:21:28.92	298.71	10.07	-36.8	-37.5	23.9	0.00e+00	0	42	0	3034578944	46	6050
2026-01-22 20:21:29.93	298.57	10.02	-36.8	-37.6	23.7	0.00e+00	0	42	0	3040870400	46	6150
2026-01-22 20:21:30.94	298.44	9.96	-37.1	-37.8	23.8	0.00e+00	0	42	0	3046113280	46	6287
2026-01-22 20:21:31.95	298.30	9.90	-37.1	-37.9	23.5	0.00e+00	0	42	0	3051356160	46	6323
2026-01-22 20:21:32.96	298.17	9.84	-37.3	-38.0	23.4	0.00e+00	0	42	0	3057647616	46	6435
2026-01-22 20:21:33.97	298.03	9.79	-37.2	-38.0	23.5	0.00e+00	0	42	0	3062890496	46	6446
2026-01-22 20:21:34.98	297.90	9.73	-36.9	-37.5	23.7	0.00e+00	0	42	0	3069181952	46	6085
2026-01-22 20:21:35.99	297.76	9.67	-37.0	-37.8	23.7	0.00e+00	0	42	0	3074424832	46	6287
2026-01-22 20:21:37.00	297.63	9.61	-37.1	-37.9	23.7	0.00e+00	0	42	0	3079667712	46	6364
2026-01-22 20:21:38.01	297.50	9.55	-37.0	-37.8	23.8	0.00e+00	0	42	0	3085959168	46	6249
2026-01-22 20:21:39.02	297.37	9.50	-36.6	-37.2	24.1	0.00e+00	0	42	0	3091202048	46	5865
2026-01-22 20:21:40.03	297.23	9.44	-36.9	-37.6	23.8	0.00e+00	0	42	0	3097493504	46	6156
2026-01-22 20:21:41.04	297.10	9.38	-37.0	-37.8	23.8	0.00e+00	0	42	0	3102736384	46	6250
2026-01-22 20:21:42.05	296.97	9.32	-36.8	-37.6	23.8	0.00e+00	0	42	0	3109027840	46	6131
2026-01-22 20:21:43.06	296.84	9.26	-36.8	-37.4	23.9	0.00e+00	0	42	0	3114270720	46	5997
2026-01-22 20:21:44.07	296.71	9.21	-36.6	-37.2	24.0	0.00e+00	0	42	0	3120562176	46	5895
2026-01-22 20:21:45.08	296.59	9.15	-36.7	-37.5	23.9	0.00e+00	0	42	0	3125805056	46	6098
2026-01-22 20:21:46.09	296.46	9.09	-36.9	-37.7	23.8	0.00e+00	0	42	0	3131047936	46	6200
2026-01-22 20:21:47.11	296.33	9.03	-36.8	-37.5	23.8	0.00e+00	0	42	0	3137339392	46	6048
2026-01-22 20:21:48.12	296.20	8.97	-36.9	-37.7	23.8	0.00e+00	0	42	0	3142582272	46	6217
2026-01-22 20:21:49.12	296.07	8.92	-36.9	-37.8	23.6	0.00e+00	0	42	0	3148873728	46	6246
2026-01-22 20:21:50.14	295.95	8.86	-37.1	-37.8	23.5	0.00e+00	0	42	0	3154116608	46	6307
2026-01-22 20:21:51.15	295.82	8.80	-37.1	-37.8	23.5	0.00e+00	0	42	0	3159359488	46	6292
2026-01-22 20:21:52.16	295.70	8.74	-37.0	-37.8	23.7	0.00e+00	0	42	0	3165650944	46	6254
2026-01-22 20:21:53.17	295.57	8.68	-36.9	-37.7	23.7	0.00e+00	0	42	0	3170893824	46	6180
2026-01-22 20:21:54.18	295.45	8.63	-37.0	-37.7	23.6	0.00e+00	0	42	0	3177185280	46	6228
2026-01-22 20:21:55.19	295.32	8.57	-37.1	-37.9	23.5	0.00e+00	0	42	0	3182428160	46	6349
2026-01-22 20:21:56.20	295.20	8.51	-37.2	-38.0	23.4	0.00e+00	0	42	0	3187671040	46	6420
2026-01-22 20:21:57.21	295.08	8.45	-37.2	-38.0	23.4	0.00e+00	0	42	0	3193962496	46	6414
2026-01-22 20:21:58.22	294.96	8.39	-37.2	-38.0	23.5	0.00e+00	0	42	0	3199205376	46	6407
2026-01-22 20:21:59.23	294.83	8.34	-37.2	-37.9	23.4	0.00e+00	0	42	0	3205496832	46	6348
2026-01-22 20:22:00.24	294.71	8.28	-37.5	-38.3	23.1	0.00e+00	0	42	0	3210739712	46	6664
2026-01-22 20:22:01.25	294.59	8.22	-37.4	-38.2	23.2	0.00e+00	0	42	0	3217031168	46	6559
2026-01-22 20:22:02.26	294.47	8.16	-37.6	-38.5	23.0	0.00e+00	0	42	0	3222274048	48	6044
2026-01-22 20:22:03.27	294.35	8.11	-37.6	-38.4	23.0	0.00e+00	0	42	0	3228565504	48	6013
2026-01-22 20:22:04.28	294.23	8.05	-37.3	-38.0	23.2	0.00e+00	0	42	0	3233808384	48	5713
2026-01-22 20:22:05.29	294.11	7.99	-37.5	-38.3	23.1	0.00e+00	0	42	0	3239051264	48	5942
2026-01-22 20:22:06.30	294.00	7.93	-37.5	-38.2	23.1	0.00e+00	0	42	0	3245342720	48	5849
2026-01-22 20:22:07.31	293.88	7.87	-37.4	-38.1	23.1	0.00e+00	0	42	0	3250585600	48	5824
2026-01-22 20:22:08.32	293.76	7.82	-37.4	-38.1	23.2	0.00e+00	0	42	0	3256877056	48	5771
2026-01-22 20:22:09.33	293.64	7.76	-37.4	-38.2	23.1	0.00e+00	0	42	0	3262119936	48	5832
2026-01-22 20:22:10.34	293.53	7.70	-37.4	-38.1	23.1	0.00e+00	0	42	0	3267362816	48	5817
2026-01-22 20:22:11.35	293.41	7.64	-37.2	-38.0	23.3	0.00e+00	0	42	0	3273654272	48	5711
2026-01-22 20:22:12.36	293.30	7.59	-37.3	-38.1	23.2	0.00e+00	0	42	0	3278897152	48	5794
2026-01-22 20:22:13.37	293.18	7.53	-37.3	-38.1	23.2	0.00e+00	0	42	0	3285188608	48	5810
2026-01-22 20:22:14.38	293.07	7.47	-37.3	-38.2	23.2	0.00e+00	0	42	0	3290431488	48	5838
2026-01-22 20:22:15.38	292.95	7.41	-37.2	-37.8	23.4	0.00e+00	0	42	0	3295674368	48	5615
2026-01-22 20:22:16.39	292.84	7.36	-37.2	-37.9	23.2	0.00e+00	0	42	0	3301965824	48	5683
2026-01-22 20:22:17.40	292.73	7.30	-37.2	-38.0	23.3	0.00e+00	0	42	0	3307208704	48	5734
2026-01-22 20:22:18.41	292.61	7.24	-37.2	-37.9	23.3	0.00e+00	0	42	0	3313500160	48	5649
2026-01-22 20:22:19.42	292.50	7.18	-37.4	-38.1	23.1	0.00e+00	0	42	0	3318743040	48	5784
2026-01-22 20:22:20.43	292.39	7.13	-37.3	-38.2	23.1	0.00e+00	0	42	0	3325034496	48	5834
2026-01-22 20:22:21.44	292.28	7.07	-37.4	-38.2	23.0	0.00e+00	0	42	0	3330277376	48	5830
2026-01-22 20:22:22.45	292.17	7.01	-37.5	-38.2	23.0	0.00e+00	0	42	0	3335520256	48	5851
2026-01-22 20:22:23.46	292.06	6.95	-37.2	-37.9	23.2	0.00e+00	0	42	0	3341811712	48	5647
2026-01-22 20:22:24.47	291.95	6.90	-37.3	-37.9	23.2	0.00e+00	0	42	0	3347054592	48	5694
2026-01-22 20:22:25.48	291.84	6.84	-37.3	-38.1	23.2	0.00e+00	0	42	0	3353346048	48	5785
2026-01-22 20:22:26.49	291.73	6.78	-37.3	-38.2	23.0	0.00e+00	0	42	0	3358588928	48	5854
2026-01-22 20:22:27.50	291.62	6.72	-37.7	-38.4	22.9	0.00e+00	0	42	0	3363831808	48	5965
2026-01-22 20:22:28.51	291.51	6.67	-37.7	-38.5	22.7	0.00e+00	0	42	0	3370123264	48	6095
2026-01-22 20:22:29.53	291.40	6.61	-37.9	-38.7	22.5	0.00e+00	0	42	0	3375366144	48	6197
2026-01-22 20:22:30.54	291.30	6.55	-37.9	-38.8	22.5	0.00e+00	0	42	0	3381657600	48	6247
2026-01-22 20:22:31.55	291.19	6.49	-38.1	-38.9	22.3	0.00e+00	0	42	0	3386900480	48	6384
2026-01-22 20:22:32.56	291.08	6.44	-37.7	-38.4	22.8	0.00e+00	0	42	0	3393191936	48	6004
2026-01-22 20:22:33.57	290.98	6.38	-37.8	-38.5	22.6	0.00e+00	0	42	0	3398434816	48	6050
2026-01-22 20:22:34.58	290.87	6.32	-37.9	-38.7	22.5	0.00e+00	0	42	0	3403677696	48	6227
2026-01-22 20:22:35.59	290.77	6.26	-37.9	-38.7	22.6	0.00e+00	0	42	0	3409969152	48	6200
2026-01-22 20:22:36.60	290.66	6.21	-38.0	-38.7	22.5	0.00e+00	0	42	0	3415212032	48	6238
2026-01-22 20:22:37.61	290.56	6.15	-37.9	-38.6	22.5	0.00e+00	0	42	0	3421503488	48	6155
2026-01-22 20:22:38.62	290.45	6.09	-38.1	-38.9	22.4	0.00e+00	0	42	0	3426746368	48	6356
2026-01-22 20:22:39.63	290.35	6.04	-38.0	-38.7	22.4	0.00e+00	0	42	0	3433037824	48	6242
2026-01-22 20:22:40.64	290.25	5.98	-37.9	-38.7	22.4	0.00e+00	0	42	0	3438280704	48	6213
2026-01-22 20:22:41.65	290.14	5.92	-38.0	-38.7	22.4	0.00e+00	0	42	0	3443523584	48	6207
2026-01-22 20:22:42.66	290.04	5.87	-38.0	-38.9	22.4	0.00e+00	0	42	0	3449815040	48	6349
2026-01-22 20:22:43.67	289.94	5.81	-38.1	-39.0	22.2	0.00e+00	0	42	0	3455057920	48	6393
2026-01-22 20:22:44.67	289.84	5.75	-38.2	-39.0	22.1	0.00e+00	0	42	0	3461349376	48	6456
2026-01-22 20:22:45.69	289.74	5.70	-38.1	-38.9	22.1	0.00e+00	0	41	0	3466592256	48	6337
2026-01-22 20:22:46.70	289.64	5.64	-38.1	-39.0	22.2	0.00e+00	0	42	0	3471835136	48	6398
2026-01-22 20:22:47.71	289.54	5.58	-38.2	-39.0	22.2	0.00e+00	0	42	0	3478126592	48	6393
2026-01-22 20:22:48.72	289.44	5.53	-38.1	-38.8	22.2	0.00e+00	0	42	0	3483369472	48	6281
2026-01-22 20:22:49.72	289.34	5.47	-38.2	-39.1	22.2	0.00e+00	0	42	0	3489660928	48	6493
2026-01-22 20:22:50.74	289.24	5.41	-37.7	-38.4	22.6	0.00e+00	0	42	0	3494903808	48	5998
2026-01-22 20:22:51.75	289.14	5.36	-38.1	-38.9	22.2	0.00e+00	0	42	0	3500146688	48	6380
2026-01-22 20:22:52.75	289.04	5.30	-37.8	-38.5	22.5	0.00e+00	0	41	0	3506438144	48	6083
2026-01-22 20:22:53.76	288.94	5.24	-37.9	-38.8	22.3	0.00e+00	0	42	0	3511681024	48	6252
2026-01-22 20:22:54.77	288.85	5.19	-38.0	-38.7	22.2	0.00e+00	0	42	0	3517972480	48	6214
2026-01-22 20:22:55.78	288.75	5.13	-38.2	-38.9	22.2	0.00e+00	0	42	0	3523215360	48	6375
2026-01-22 20:22:56.79	288.65	5.08	-38.2	-39.0	22.1	0.00e+00	0	42	0	3529506816	48	6418
2026-01-22 20:22:57.80	288.56	5.02	-38.1	-38.8	22.2	0.00e+00	0	42	0	3534749696	48	6287
2026-01-22 20:22:58.81	288.46	4.96	-38.1	-38.9	22.0	0.00e+00	0	42	0	3539992576	48	6356
2026-01-22 20:22:59.82	288.37	4.91	-38.1	-39.0	22.2	0.00e+00	0	41	0	3546284032	48	6427
2026-01-22 20:23:00.83	288.27	4.85	-38.3	-39.2	21.9	0.00e+00	0	42	0	3551526912	48	6584
2026-01-22 20:23:01.84	288.18	4.79	-38.2	-38.9	22.0	0.00e+00	0	42	0	3557818368	48	6363
2026-01-22 20:23:02.85	288.08	4.74	-38.5	-39.4	21.6	0.00e+00	0	41	0	3563061248	48	6709
