passes_logs/2026/01/22/R4.6S_Anadyr/R4.6S_Anadyr__20260122_014138_AQUA_rec.log

#Pass ID: 20260122_014138_AQUA
#Satellite: AQUA
#Configuration: AQUA
#almurnet v.1.7.20251203
#Start time: 2026-01-22 01:41:40

#Version: 2.2.20231116
#Station: R4.6S_Anadyr
#Location: 177.4865 lon 64.73178 lat
#TLE: 1 27424U 02022A   26020.90316333  .00002787  00000+0  56766-3 0  9999
#TLE: 2 27424  98.4095 347.4297 0002000  71.6339 309.8236 14.61840001261750

#Time	Az	El	Level	Level2	SNR	BER	BlckErr	Temp	State	Recorded	gain1	gain2
2026-01-22 01:41:40.62	149.38	0.12	-51.2	-62.9	3.5	8.45e-01	0	40	0	0	60	50528
2026-01-22 01:41:41.62	149.37	0.19	-52.1	-70.0	3.5	3.02e+01	0	41	104	0	60	121133
2026-01-22 01:41:42.63	149.37	0.25	-51.9	-69.7	3.5	3.02e+01	0	41	104	0	60	117147
2026-01-22 01:41:43.64	149.36	0.31	-52.2	-70.0	3.5	3.02e+01	0	41	104	0	60	121715
2026-01-22 01:41:44.64	149.35	0.37	-51.9	-69.8	3.5	3.02e+01	0	41	104	0	60	119145
2026-01-22 01:41:45.66	149.35	0.44	-52.0	-69.8	3.5	3.02e+01	0	41	104	0	60	118539
2026-01-22 01:41:46.67	149.34	0.50	-52.0	-69.8	3.5	3.02e+01	0	41	104	0	60	118653
2026-01-22 01:41:47.67	149.33	0.57	-52.0	-69.8	3.5	3.02e+01	0	41	104	0	60	119405
2026-01-22 01:41:48.68	149.32	0.63	-51.8	-69.6	3.5	3.02e+01	0	41	104	0	60	116855
2026-01-22 01:41:49.69	149.32	0.69	-51.7	-69.6	3.5	3.02e+01	0	41	104	0	60	115953
2026-01-22 01:41:50.70	149.31	0.76	-51.7	-69.5	3.5	3.02e+01	0	41	104	0	60	115424
2026-01-22 01:41:51.71	149.30	0.82	-51.7	-69.6	3.5	3.02e+01	0	41	104	0	60	115771
2026-01-22 01:41:52.72	149.29	0.89	-51.7	-69.6	3.5	3.02e+01	0	41	104	0	60	115641
2026-01-22 01:41:53.73	149.29	0.95	-51.6	-69.5	3.5	3.02e+01	0	41	104	0	60	114244
2026-01-22 01:41:54.74	149.28	1.01	-51.5	-69.5	3.5	3.02e+01	0	41	104	0	60	114456
2026-01-22 01:41:55.75	149.27	1.08	-51.5	-69.4	3.5	3.02e+01	0	42	104	0	60	113670
2026-01-22 01:41:56.76	149.26	1.14	-51.3	-69.3	3.5	3.02e+01	0	41	104	0	60	111831
2026-01-22 01:41:57.77	149.26	1.21	-51.3	-69.1	3.5	3.02e+01	0	41	104	0	60	110019
2026-01-22 01:41:58.78	149.25	1.27	-51.1	-69.0	3.5	3.02e+01	0	41	104	0	60	108943
2026-01-22 01:41:59.79	149.24	1.34	-51.1	-68.8	3.5	3.02e+01	0	41	104	0	60	105752
2026-01-22 01:42:00.80	149.23	1.41	-51.0	-68.8	3.5	3.02e+01	0	41	104	0	60	106471
2026-01-22 01:42:01.81	149.22	1.47	-50.8	-68.7	3.5	3.02e+01	0	42	104	0	60	104588
2026-01-22 01:42:02.82	149.22	1.54	-50.7	-68.4	3.5	3.02e+01	0	41	104	0	60	101124
2026-01-22 01:42:03.83	149.21	1.60	-50.3	-68.2	3.5	3.02e+01	0	41	104	0	60	99465
2026-01-22 01:42:04.84	149.20	1.67	-50.0	-67.8	3.5	3.02e+01	0	41	104	0	60	94618
2026-01-22 01:42:05.85	149.19	1.74	-50.0	-67.7	3.5	3.02e+01	0	41	104	0	60	93835
2026-01-22 01:42:06.86	149.18	1.80	-50.0	-67.2	3.5	3.02e+01	0	41	104	0	60	88073
2026-01-22 01:42:07.87	149.17	1.87	-50.0	-67.2	3.5	3.02e+01	0	41	104	0	60	87987
2026-01-22 01:42:08.88	149.17	1.94	-50.0	-66.9	3.5	3.02e+01	0	42	104	0	60	85486
2026-01-22 01:42:09.89	149.16	2.00	-50.0	-66.7	3.5	3.02e+01	0	41	104	0	60	83698
2026-01-22 01:42:10.90	149.15	2.07	-50.0	-67.1	3.5	3.02e+01	0	42	104	0	60	87114
2026-01-22 01:42:11.91	149.14	2.14	-50.0	-67.0	3.5	3.02e+01	0	42	104	0	60	85919
2026-01-22 01:42:12.92	149.13	2.21	-50.0	-66.9	3.5	3.02e+01	0	41	104	0	60	85465
2026-01-22 01:42:13.93	149.12	2.27	-50.0	-67.4	3.5	3.02e+01	0	42	104	0	60	90263
2026-01-22 01:42:14.94	149.11	2.34	-50.0	-67.5	3.5	3.02e+01	0	41	104	0	60	91600
2026-01-22 01:42:15.95	149.11	2.41	-50.0	-67.7	3.5	3.02e+01	0	42	104	0	60	93773
2026-01-22 01:42:16.96	149.10	2.48	-50.0	-67.7	3.5	3.02e+01	0	42	104	0	60	93894
2026-01-22 01:42:17.96	149.09	2.55	-50.0	-67.6	3.5	3.02e+01	0	42	104	0	60	92262
2026-01-22 01:42:18.98	149.08	2.62	-50.0	-67.6	3.5	3.02e+01	0	42	104	0	60	92529
2026-01-22 01:42:19.99	149.07	2.68	-50.0	-67.4	3.5	3.02e+01	0	42	104	0	60	90676
2026-01-22 01:42:20.99	149.06	2.75	-50.0	-67.4	3.5	3.02e+01	0	42	104	0	60	90733
2026-01-22 01:42:22.00	149.05	2.82	-49.9	-66.9	3.5	3.02e+01	0	42	104	0	60	85185
2026-01-22 01:42:23.01	149.04	2.89	-49.9	-66.8	3.5	3.02e+01	0	42	104	0	60	83729
2026-01-22 01:42:24.02	149.03	2.96	-49.9	-66.5	3.5	3.02e+01	0	42	104	0	60	81432
2026-01-22 01:42:25.03	149.02	3.03	-49.9	-65.7	3.6	3.02e+01	0	42	104	0	60	73925
2026-01-22 01:42:26.05	149.01	3.10	-49.9	-65.2	3.6	3.02e+01	0	42	104	0	60	70305
2026-01-22 01:42:27.06	149.01	3.17	-49.8	-64.2	4.2	3.02e+01	0	42	104	0	60	62553
2026-01-22 01:42:28.07	149.00	3.24	-49.9	-64.8	4.0	3.02e+01	0	42	104	0	60	66790
2026-01-22 01:42:29.08	148.99	3.31	-49.8	-63.3	4.7	3.02e+01	0	42	104	0	60	56447
2026-01-22 01:42:30.08	148.98	3.38	-49.8	-63.6	4.5	3.02e+01	0	42	104	0	60	58124
2026-01-22 01:42:31.09	148.97	3.45	-49.9	-64.6	3.6	3.02e+01	0	42	104	0	60	65719
2026-01-22 01:42:32.10	148.96	3.53	-49.8	-64.0	3.7	3.02e+01	0	42	104	0	60	61109
2026-01-22 01:42:33.11	148.95	3.60	-49.7	-62.1	5.1	3.02e+01	0	42	0	0	60	48817
2026-01-22 01:42:34.12	148.94	3.67	-49.3	-58.8	8.8	3.02e+01	90	42	104	0	60	33455
2026-01-22 01:42:35.13	148.93	3.74	-48.7	-55.2	11.9	3.02e+01	86	42	0	1572864	60	22270
2026-01-22 01:42:36.14	148.92	3.81	-48.4	-54.0	13.1	3.02e+01	90	42	0	3145728	60	19378
2026-01-22 01:42:37.15	148.91	3.89	-48.1	-53.3	13.9	3.02e+01	92	42	0	5242880	60	17863
2026-01-22 01:42:38.16	148.90	3.96	-47.5	-51.9	15.7	3.02e+01	90	42	0	7340032	60	15174
2026-01-22 01:42:39.17	148.89	4.03	-49.9	-61.1	6.5	3.02e+01	92	42	104	7864320	60	43884
2026-01-22 01:42:40.18	148.88	4.10	-40.6	-42.1	25.2	3.02e+01	92	42	0	8912896	56	6160
2026-01-22 01:42:41.19	148.87	4.18	-49.8	-62.9	4.8	3.02e+01	0	42	104	9437184	60	53972
2026-01-22 01:42:42.20	148.86	4.25	-49.9	-61.0	4.3	3.02e+01	0	42	104	9437184	60	43247
2026-01-22 01:42:43.21	148.84	4.32	-46.3	-49.7	17.9	3.02e+01	92	42	0	9437184	60	11765
2026-01-22 01:42:44.22	148.83	4.40	-41.4	-43.0	24.4	3.02e+01	92	41	0	11534336	58	6105
2026-01-22 01:42:45.23	148.82	4.47	-40.9	-42.5	24.9	3.02e+01	92	41	0	13631488	56	6447
2026-01-22 01:42:46.24	148.81	4.55	-41.7	-43.4	24.1	3.02e+01	92	42	0	15204352	58	6361
2026-01-22 01:42:47.25	148.80	4.62	-42.0	-43.7	24.0	3.02e+01	92	42	0	17301504	58	6583
2026-01-22 01:42:48.26	148.79	4.70	-41.9	-43.6	24.3	3.02e+01	90	42	0	18874368	58	6570
2026-01-22 01:42:49.27	148.78	4.77	-40.7	-42.2	25.3	3.02e+01	92	42	0	20971520	56	6209
2026-01-22 01:42:50.28	148.77	4.85	-40.2	-41.7	25.9	3.02e+01	92	42	0	23068672	56	5865
2026-01-22 01:42:51.29	148.76	4.92	-41.2	-42.8	24.6	3.02e+01	92	42	0	24641536	56	6684
2026-01-22 01:42:52.30	148.75	5.00	-41.6	-43.3	24.3	3.02e+01	92	42	0	26738688	56	7078
2026-01-22 01:42:53.31	148.73	5.07	-40.3	-41.8	24.2	3.02e+01	91	42	0	28311552	54	6706
2026-01-22 01:42:54.32	148.72	5.15	-42.0	-43.7	24.0	3.02e+01	84	42	0	30408704	58	6586
2026-01-22 01:42:55.33	148.71	5.23	-41.2	-42.8	25.2	3.02e+01	92	42	0	32505856	58	5950
2026-01-22 01:42:56.33	148.70	5.30	-41.6	-43.3	24.3	3.02e+01	92	42	0	34078720	56	7080
2026-01-22 01:42:57.35	148.69	5.38	-40.4	-41.8	25.8	3.02e+01	91	42	0	36175872	56	5972
2026-01-22 01:42:58.36	148.68	5.46	-41.0	-42.5	25.1	3.02e+01	91	42	0	38273024	56	6451
2026-01-22 01:42:59.36	148.66	5.53	-40.1	-41.5	26.2	3.02e+01	91	42	0	39845888	56	5761
2026-01-22 01:43:00.38	148.65	5.61	-39.8	-41.2	26.4	3.02e+01	91	42	0	41943040	54	6272
2026-01-22 01:43:01.39	148.64	5.69	-39.9	-41.3	26.3	3.02e+01	91	42	0	43515904	54	6280
2026-01-22 01:43:02.40	148.63	5.77	-39.4	-40.8	26.9	3.02e+01	92	42	0	45613056	54	5930
2026-01-22 01:43:03.41	148.62	5.85	-39.7	-41.1	26.4	3.02e+01	92	42	0	47710208	52	6935
2026-01-22 01:43:04.42	148.60	5.92	-38.7	-39.9	27.7	3.02e+01	91	42	0	49283072	52	6063
2026-01-22 01:43:05.43	148.59	6.00	-40.0	-41.4	26.3	3.02e+01	92	42	0	51380224	54	6378
2026-01-22 01:43:06.44	148.58	6.08	-40.0	-41.5	26.5	3.02e+01	92	42	0	52953088	54	6432
2026-01-22 01:43:07.45	148.57	6.16	-38.8	-40.1	27.4	3.02e+01	91	42	0	55050240	52	6157
2026-01-22 01:43:08.46	148.55	6.24	-39.6	-41.0	27.0	3.02e+01	91	42	0	57147392	52	6811
2026-01-22 01:43:09.47	148.54	6.32	-39.6	-41.0	26.7	3.02e+01	90	42	0	58720256	52	6827
2026-01-22 01:43:10.48	148.53	6.40	-40.5	-41.9	25.9	3.02e+01	92	42	0	60817408	54	6776
2026-01-22 01:43:11.49	148.51	6.48	-38.7	-40.0	27.6	3.02e+01	90	42	0	62914560	52	6129
2026-01-22 01:43:12.50	148.50	6.56	-38.5	-39.8	27.8	3.02e+01	92	42	0	64487424	52	5990
2026-01-22 01:43:13.51	148.49	6.65	-39.2	-40.5	27.3	3.02e+01	86	42	0	66584576	52	6471
2026-01-22 01:43:14.52	148.47	6.73	-38.3	-39.6	28.1	3.02e+01	90	42	0	68157440	52	5795
2026-01-22 01:43:15.52	148.46	6.81	-38.7	-40.0	27.6	3.02e+01	92	42	0	70254592	52	6118
2026-01-22 01:43:16.53	148.45	6.89	-39.4	-40.8	27.0	3.02e+01	92	42	0	72351744	52	6683
2026-01-22 01:43:17.54	148.43	6.97	-39.2	-40.6	27.3	3.02e+01	92	42	0	73924608	52	6503
2026-01-22 01:43:18.56	148.42	7.06	-38.8	-40.1	27.6	3.02e+01	90	42	0	76021760	52	6177
2026-01-22 01:43:19.57	148.41	7.14	-38.4	-39.7	28.0	3.02e+01	92	42	0	77594624	52	5873
2026-01-22 01:43:20.57	148.39	7.22	-39.2	-40.6	27.2	3.02e+01	92	42	0	79691776	52	6513
2026-01-22 01:43:21.59	148.38	7.31	-38.8	-40.1	27.7	3.02e+01	90	42	0	81788928	52	6165
2026-01-22 01:43:22.60	148.36	7.39	-39.4	-40.8	27.1	3.02e+01	92	42	0	83361792	52	6659
2026-01-22 01:43:23.61	148.35	7.47	-39.3	-40.6	27.2	3.02e+01	90	42	0	85458944	52	6536
2026-01-22 01:43:24.62	148.34	7.56	-39.5	-40.8	27.0	3.02e+01	91	42	0	87031808	52	6688
2026-01-22 01:43:25.63	148.32	7.64	-39.4	-40.8	27.1	3.02e+01	88	42	0	89128960	52	6660
2026-01-22 01:43:26.64	148.31	7.73	-39.8	-41.2	26.7	3.02e+01	92	42	0	91226112	52	7012
2026-01-22 01:43:27.65	148.29	7.81	-39.2	-40.6	27.4	3.02e+01	91	42	0	92798976	52	6507
2026-01-22 01:43:28.66	148.28	7.90	-39.8	-41.1	26.8	3.02e+01	92	42	0	94896128	52	6962
2026-01-22 01:43:29.67	148.26	7.98	-39.3	-40.7	27.2	3.02e+01	92	42	0	96468992	52	6577
2026-01-22 01:43:30.68	148.25	8.07	-39.4	-40.7	27.2	3.02e+01	92	42	0	98566144	52	6592
2026-01-22 01:43:31.69	148.23	8.16	-39.4	-40.8	27.1	3.02e+01	92	42	0	100663296	52	6650
2026-01-22 01:43:32.70	148.22	8.24	-38.7	-40.0	27.8	3.02e+01	87	42	0	102236160	52	6073
2026-01-22 01:43:33.71	148.20	8.33	-38.8	-40.1	27.8	3.02e+01	92	42	0	104333312	52	6143
2026-01-22 01:43:34.71	148.19	8.42	-38.7	-40.0	27.8	3.02e+01	92	42	0	106430464	52	6105
2026-01-22 01:43:35.72	148.17	8.51	-38.6	-39.9	27.9	3.02e+01	89	42	0	108003328	52	6054
2026-01-22 01:43:36.73	148.16	8.60	-38.4	-39.7	28.2	3.02e+01	92	42	0	110100480	52	5877
2026-01-22 01:43:37.74	148.14	8.68	-38.4	-39.7	28.1	3.02e+01	92	42	0	111673344	52	5898
2026-01-22 01:43:38.75	148.12	8.77	-38.4	-39.7	28.1	3.02e+01	92	42	0	113770496	52	5865
2026-01-22 01:43:39.76	148.11	8.86	-38.1	-39.4	28.4	3.02e+01	92	42	0	115867648	52	5687
2026-01-22 01:43:40.78	148.09	8.95	-37.9	-39.2	28.6	3.02e+01	92	42	0	117440512	52	5531
2026-01-22 01:43:41.79	148.07	9.04	-38.3	-39.6	28.2	3.02e+01	92	42	0	119537664	50	6514
2026-01-22 01:43:42.79	148.06	9.13	-37.9	-39.2	28.6	3.02e+01	92	42	0	121110528	50	6215
2026-01-22 01:43:43.81	148.04	9.22	-37.8	-39.0	28.7	3.02e+01	92	42	0	123207680	50	6121
2026-01-22 01:43:44.82	148.02	9.32	-38.1	-39.3	28.4	3.02e+01	92	42	0	125304832	50	6348
2026-01-22 01:43:45.83	148.01	9.41	-38.1	-39.3	28.4	3.02e+01	92	42	0	126877696	50	6331
2026-01-22 01:43:46.83	147.99	9.50	-38.3	-39.5	28.3	3.02e+01	92	42	0	128974848	50	6474
2026-01-22 01:43:47.85	147.97	9.59	-37.8	-39.0	28.7	3.02e+01	92	42	0	131072000	50	6118
2026-01-22 01:43:48.86	147.96	9.68	-37.9	-39.1	28.7	3.02e+01	92	42	0	132644864	50	6177
2026-01-22 01:43:49.87	147.94	9.78	-38.0	-39.2	28.5	3.02e+01	92	42	0	134742016	50	6268
2026-01-22 01:43:50.88	147.92	9.87	-37.9	-39.2	28.6	3.02e+01	92	42	0	136314880	50	6211
2026-01-22 01:43:51.89	147.90	9.97	-38.6	-39.8	28.0	3.02e+01	91	42	0	138412032	50	6716
2026-01-22 01:43:52.90	147.88	10.06	-38.5	-39.8	28.1	3.02e+01	90	42	0	140509184	50	6709
2026-01-22 01:43:53.91	147.87	10.15	-38.2	-39.4	28.4	3.02e+01	92	42	0	142082048	50	6407
2026-01-22 01:43:54.92	147.85	10.25	-37.8	-39.0	28.7	3.02e+01	86	42	0	144179200	50	6129
2026-01-22 01:43:55.93	147.83	10.34	-37.9	-39.2	28.6	3.02e+01	90	42	0	145752064	50	6214
2026-01-22 01:43:56.93	147.81	10.44	-37.8	-39.0	28.8	3.02e+01	90	42	0	147849216	50	6116
2026-01-22 01:43:57.94	147.79	10.54	-38.0	-39.3	28.5	3.02e+01	92	42	0	149946368	50	6321
2026-01-22 01:43:58.95	147.77	10.63	-37.9	-39.1	28.7	3.02e+01	92	42	0	151519232	50	6182
2026-01-22 01:43:59.96	147.76	10.73	-38.1	-39.3	28.6	3.02e+01	90	42	0	153616384	50	6342
2026-01-22 01:44:00.97	147.74	10.83	-37.9	-39.2	28.6	3.02e+01	91	42	0	155189248	50	6236
2026-01-22 01:44:01.98	147.72	10.93	-37.6	-38.9	29.0	3.02e+01	92	42	0	157286400	50	6001
2026-01-22 01:44:02.99	147.70	11.02	-37.7	-38.9	28.9	3.02e+01	92	42	0	159383552	50	6013
2026-01-22 01:44:04.00	147.68	11.12	-38.0	-39.2	28.7	3.02e+01	92	42	0	160956416	50	6258
2026-01-22 01:44:05.01	147.66	11.22	-38.1	-39.4	28.5	3.02e+01	92	42	0	163053568	50	6374
2026-01-22 01:44:06.02	147.64	11.32	-38.1	-39.3	28.6	3.02e+01	92	42	0	164626432	50	6327
2026-01-22 01:44:07.03	147.62	11.42	-38.3	-39.5	28.3	3.02e+01	92	42	0	166723584	50	6471
2026-01-22 01:44:08.04	147.60	11.52	-38.1	-39.3	28.6	3.02e+01	91	42	0	168820736	50	6315
2026-01-22 01:44:09.04	147.58	11.62	-37.8	-39.0	28.8	3.02e+01	92	42	0	170393600	50	6127
2026-01-22 01:44:10.05	147.56	11.72	-37.7	-38.9	28.9	3.02e+01	88	42	0	172490752	50	6042
2026-01-22 01:44:11.07	147.54	11.83	-37.6	-38.8	29.1	3.02e+01	91	42	0	174587904	50	5934
2026-01-22 01:44:12.08	147.51	11.93	-37.7	-39.0	28.9	3.02e+01	92	42	0	176160768	50	6077
2026-01-22 01:44:13.09	147.49	12.03	-37.7	-39.0	28.9	3.02e+01	92	42	0	178257920	50	6079
2026-01-22 01:44:14.09	147.47	12.14	-37.8	-39.0	28.8	3.02e+01	90	42	0	179830784	50	6078
2026-01-22 01:44:15.10	147.45	12.24	-37.5	-38.7	29.1	3.02e+01	90	42	0	181927936	50	5917
2026-01-22 01:44:16.12	147.43	12.35	-37.7	-38.9	29.0	3.02e+01	90	42	0	184025088	50	6041
2026-01-22 01:44:17.13	147.41	12.45	-37.5	-38.7	29.1	3.02e+01	92	42	0	185597952	50	5901
2026-01-22 01:44:18.14	147.38	12.56	-37.5	-38.7	29.1	3.02e+01	90	42	0	187695104	50	5889
2026-01-22 01:44:19.15	147.36	12.66	-37.3	-38.5	29.3	3.02e+01	92	42	0	189267968	50	5730
2026-01-22 01:44:20.16	147.34	12.77	-37.3	-38.5	29.3	3.02e+01	90	42	0	191365120	50	5788
2026-01-22 01:44:21.17	147.32	12.88	-37.4	-38.6	29.3	3.02e+01	92	42	0	193462272	50	5803
2026-01-22 01:44:22.18	147.29	12.98	-37.4	-38.6	29.3	3.02e+01	90	42	0	195035136	50	5813
2026-01-22 01:44:23.19	147.27	13.09	-37.2	-38.4	29.3	3.02e+01	92	42	0	197132288	50	5723
2026-01-22 01:44:24.20	147.25	13.20	-37.2	-38.4	29.4	3.02e+01	92	42	0	199229440	50	5671
2026-01-22 01:44:25.21	147.22	13.31	-37.2	-38.4	29.4	3.02e+01	92	42	0	200802304	50	5668
2026-01-22 01:44:26.22	147.20	13.42	-37.3	-38.4	29.4	3.02e+01	92	42	0	202899456	50	5724
2026-01-22 01:44:27.23	147.18	13.53	-37.3	-38.5	29.3	3.02e+01	90	42	0	204472320	50	5774
2026-01-22 01:44:28.24	147.15	13.64	-37.5	-38.7	29.3	3.02e+01	92	42	0	206569472	50	5880
2026-01-22 01:44:29.25	147.13	13.75	-37.3	-38.5	29.3	3.02e+01	90	42	0	208666624	50	5768
2026-01-22 01:44:30.26	147.10	13.86	-37.4	-38.6	29.3	3.02e+01	90	42	0	210239488	50	5805
2026-01-22 01:44:31.27	147.08	13.98	-37.3	-38.5	29.4	3.02e+01	92	42	0	212336640	50	5760
2026-01-22 01:44:32.28	147.05	14.09	-37.3	-38.5	29.4	3.02e+01	92	42	0	213909504	50	5733
2026-01-22 01:44:33.29	147.03	14.20	-37.3	-38.5	29.3	3.02e+01	87	42	0	216006656	50	5744
2026-01-22 01:44:34.30	147.00	14.32	-37.4	-38.6	29.3	3.02e+01	90	42	0	218103808	50	5818
2026-01-22 01:44:35.31	146.98	14.43	-37.3	-38.4	29.4	3.02e+01	92	42	0	219676672	50	5720
2026-01-22 01:44:36.32	146.95	14.55	-37.3	-38.5	29.3	3.02e+01	90	42	0	221773824	50	5791
2026-01-22 01:44:37.33	146.92	14.66	-37.2	-38.4	29.4	3.02e+01	92	42	0	223870976	50	5717
2026-01-22 01:44:38.34	146.90	14.78	-37.5	-38.7	29.2	3.02e+01	92	42	0	225443840	50	5880
2026-01-22 01:44:39.35	146.87	14.90	-37.5	-38.8	29.1	3.02e+01	90	42	0	227540992	50	5932
2026-01-22 01:44:40.36	146.84	15.01	-37.6	-38.8	29.2	3.02e+01	92	42	0	229113856	50	5936
2026-01-22 01:44:41.37	146.82	15.13	-37.6	-38.9	29.0	3.02e+01	90	42	0	231211008	50	6005
2026-01-22 01:44:42.38	146.79	15.25	-37.6	-38.8	29.2	3.02e+01	91	42	0	233308160	50	5956
2026-01-22 01:44:43.39	146.76	15.37	-37.3	-38.5	29.4	3.02e+01	92	42	0	234881024	50	5790
2026-01-22 01:44:44.40	146.73	15.49	-37.5	-38.7	29.3	3.02e+01	92	42	0	236978176	50	5896
2026-01-22 01:44:45.41	146.70	15.61	-37.1	-38.3	29.5	3.02e+01	92	42	0	238551040	50	5654
2026-01-22 01:44:46.42	146.68	15.73	-37.7	-38.9	29.3	3.02e+01	92	42	0	240648192	50	6003
2026-01-22 01:44:47.43	146.65	15.86	-37.3	-38.5	29.4	3.02e+01	92	42	0	242745344	50	5769
2026-01-22 01:44:48.44	146.62	15.98	-37.2	-38.4	29.5	3.02e+01	92	42	0	244318208	50	5716
2026-01-22 01:44:49.45	146.59	16.10	-37.5	-38.7	29.3	3.02e+01	91	42	0	246415360	50	5880
2026-01-22 01:44:50.46	146.56	16.23	-37.5	-38.7	29.3	3.02e+01	91	42	0	247988224	50	5881
2026-01-22 01:44:51.47	146.53	16.35	-37.3	-38.5	29.4	3.02e+01	89	42	0	250085376	50	5781
2026-01-22 01:44:52.48	146.50	16.48	-37.3	-38.5	29.4	3.02e+01	92	42	0	252182528	50	5789
2026-01-22 01:44:53.49	146.47	16.60	-37.4	-38.6	29.4	3.02e+01	92	42	0	253755392	50	5818
2026-01-22 01:44:54.50	146.44	16.73	-37.3	-38.5	29.5	3.02e+01	92	42	0	255852544	50	5752
2026-01-22 01:44:55.50	146.40	16.86	-37.4	-38.6	29.5	3.02e+01	85	42	0	257425408	50	5813
2026-01-22 01:44:56.51	146.37	16.99	-37.5	-38.8	29.2	3.02e+01	92	41	0	259522560	50	5934
2026-01-22 01:44:57.52	146.34	17.12	-37.4	-38.6	29.4	3.02e+01	92	42	0	261619712	50	5839
2026-01-22 01:44:58.53	146.31	17.25	-37.4	-38.7	29.3	3.02e+01	92	42	0	263192576	50	5863
2026-01-22 01:44:59.55	146.28	17.38	-37.5	-38.7	29.3	3.02e+01	91	41	0	265289728	50	5898
2026-01-22 01:45:00.56	146.24	17.51	-37.4	-38.6	29.4	3.02e+01	91	42	0	267386880	50	5839
2026-01-22 01:45:01.56	146.21	17.64	-37.4	-38.6	29.4	3.02e+01	92	42	0	268959744	50	5844
2026-01-22 01:45:02.57	146.18	17.78	-37.3	-38.5	29.5	3.02e+01	91	42	0	271056896	50	5782
2026-01-22 01:45:03.58	146.14	17.91	-37.3	-38.5	29.4	3.02e+01	92	41	0	272629760	50	5777
2026-01-22 01:45:04.59	146.11	18.04	-37.3	-38.5	29.5	3.02e+01	91	42	0	274726912	50	5760
2026-01-22 01:45:05.60	146.07	18.18	-37.2	-38.4	29.6	3.02e+01	90	42	0	276824064	50	5665
2026-01-22 01:45:06.61	146.04	18.32	-37.2	-38.4	29.6	3.02e+01	92	42	0	278396928	50	5711
2026-01-22 01:45:07.62	146.00	18.45	-37.2	-38.4	29.6	3.02e+01	91	41	0	280494080	50	5667
2026-01-22 01:45:08.63	145.97	18.59	-37.1	-38.3	29.7	3.02e+01	90	42	0	282066944	50	5644
2026-01-22 01:45:09.63	145.93	18.73	-37.1	-38.3	29.7	3.02e+01	92	41	0	284164096	50	5599
2026-01-22 01:45:10.64	145.90	18.87	-37.2	-38.4	29.6	3.02e+01	92	42	0	286261248	50	5719
2026-01-22 01:45:11.65	145.86	19.01	-37.2	-38.4	29.6	3.02e+01	91	41	0	287834112	50	5675
2026-01-22 01:45:12.67	145.82	19.15	-37.2	-38.4	29.6	3.02e+01	90	42	0	289931264	50	5692
2026-01-22 01:45:13.68	145.78	19.29	-37.3	-38.5	29.5	3.02e+01	90	42	0	291504128	50	5770
2026-01-22 01:45:14.68	145.75	19.44	-37.3	-38.5	29.6	3.02e+01	87	41	0	293601280	50	5739
2026-01-22 01:45:15.69	145.71	19.58	-37.4	-38.6	29.5	3.02e+01	92	41	0	295698432	50	5812
2026-01-22 01:45:16.70	145.67	19.73	-37.3	-38.5	29.5	3.02e+01	92	41	0	297271296	50	5753
2026-01-22 01:45:17.71	145.63	19.87	-37.3	-38.5	29.5	3.02e+01	92	41	0	299368448	50	5760
2026-01-22 01:45:18.72	145.59	20.02	-37.4	-38.6	29.4	3.02e+01	92	41	0	300941312	50	5834
2026-01-22 01:45:19.73	145.55	20.17	-37.2	-38.4	29.6	3.02e+01	92	41	0	303038464	50	5708
2026-01-22 01:45:20.74	145.51	20.32	-37.4	-38.6	29.4	3.02e+01	92	41	0	305135616	50	5821
2026-01-22 01:45:21.75	145.47	20.47	-37.6	-38.8	29.4	3.02e+01	90	41	0	306708480	50	5956
2026-01-22 01:45:22.76	145.43	20.62	-37.3	-38.5	29.6	3.02e+01	92	41	0	308805632	50	5730
2026-01-22 01:45:23.77	145.38	20.77	-37.4	-38.6	29.4	3.02e+01	92	41	0	310902784	50	5809
2026-01-22 01:45:24.78	145.34	20.92	-37.4	-38.6	29.4	3.02e+01	90	41	0	312475648	50	5814
2026-01-22 01:45:25.79	145.30	21.07	-37.5	-38.7	29.3	3.02e+01	92	42	0	314572800	50	5900
2026-01-22 01:45:26.80	145.25	21.23	-37.4	-38.6	29.5	3.02e+01	92	41	0	316145664	50	5793
2026-01-22 01:45:27.81	145.21	21.38	-37.2	-38.4	29.6	3.02e+01	92	41	0	318242816	50	5688
2026-01-22 01:45:28.82	145.17	21.54	-37.2	-38.4	29.6	3.02e+01	92	41	0	320339968	50	5715
2026-01-22 01:45:29.83	145.12	21.70	-37.4	-38.6	29.4	3.02e+01	90	41	0	321912832	50	5811
2026-01-22 01:45:30.84	145.08	21.86	-37.6	-38.8	29.3	3.02e+01	92	41	0	324009984	50	5993
2026-01-22 01:45:31.85	145.03	22.02	-37.5	-38.7	29.3	3.02e+01	90	41	0	325582848	50	5916
2026-01-22 01:45:32.86	144.98	22.18	-37.5	-38.7	29.3	3.02e+01	92	41	0	327680000	50	5917
2026-01-22 01:45:33.87	144.94	22.34	-37.4	-38.6	29.5	3.02e+01	92	41	0	329777152	50	5824
2026-01-22 01:45:34.88	144.89	22.50	-37.5	-38.7	29.3	3.02e+01	92	41	0	331350016	50	5914
2026-01-22 01:45:35.89	144.84	22.67	-37.6	-38.8	29.3	3.02e+01	92	41	0	333447168	50	5955
2026-01-22 01:45:36.90	144.79	22.83	-37.6	-38.8	29.3	3.02e+01	90	41	0	335544320	50	5951
2026-01-22 01:45:37.90	144.74	23.00	-37.7	-38.9	29.2	3.02e+01	90	41	0	337117184	50	6006
2026-01-22 01:45:38.91	144.69	23.17	-37.7	-38.9	29.2	3.02e+01	92	41	0	339214336	50	6023
2026-01-22 01:45:39.92	144.64	23.34	-37.7	-38.9	29.2	3.02e+01	89	41	0	340787200	50	6051
2026-01-22 01:45:40.93	144.59	23.51	-37.9	-39.1	29.1	3.02e+01	92	41	0	342884352	50	6156
2026-01-22 01:45:41.94	144.54	23.68	-37.8	-39.0	29.2	3.02e+01	89	41	0	344981504	50	6119
2026-01-22 01:45:42.95	144.49	23.85	-37.7	-38.9	29.3	3.02e+01	92	41	0	346554368	50	6019
2026-01-22 01:45:43.96	144.43	24.02	-37.8	-39.0	29.2	3.02e+01	91	41	0	348651520	50	6106
2026-01-22 01:45:44.97	144.38	24.20	-37.8	-39.0	29.2	3.02e+01	92	41	0	350224384	50	6092
2026-01-22 01:45:45.98	144.33	24.37	-37.5	-38.7	29.5	3.02e+01	91	41	0	352321536	50	5868
2026-01-22 01:45:46.98	144.27	24.55	-37.3	-38.6	29.5	3.02e+01	92	41	0	354418688	50	5794
2026-01-22 01:45:47.99	144.22	24.73	-37.4	-38.6	29.5	3.02e+01	92	41	0	355991552	50	5839
2026-01-22 01:45:49.00	144.16	24.91	-37.3	-38.5	29.6	3.02e+01	91	41	0	358088704	50	5738
2026-01-22 01:45:50.01	144.10	25.09	-37.3	-38.5	29.6	3.02e+01	92	41	0	359661568	50	5777
2026-01-22 01:45:51.02	144.04	25.27	-37.5	-38.7	29.5	3.02e+01	92	41	0	361758720	50	5880
2026-01-22 01:45:52.03	143.99	25.46	-37.5	-38.7	29.4	3.02e+01	90	41	0	363855872	50	5886
2026-01-22 01:45:53.04	143.93	25.64	-37.6	-38.8	29.3	3.02e+01	92	41	0	365428736	50	5966
2026-01-22 01:45:54.04	143.87	25.83	-37.6	-38.8	29.3	3.02e+01	92	41	0	367525888	50	5958
2026-01-22 01:45:55.05	143.81	26.02	-37.5	-38.7	29.4	3.02e+01	92	41	0	369098752	50	5920
2026-01-22 01:45:56.06	143.74	26.20	-37.6	-38.8	29.3	3.02e+01	88	41	0	371195904	50	5968
2026-01-22 01:45:57.08	143.68	26.40	-37.7	-38.9	29.2	3.02e+01	90	41	0	373293056	50	6016
2026-01-22 01:45:58.09	143.62	26.59	-37.7	-38.9	29.2	3.02e+01	92	41	0	374865920	50	6063
2026-01-22 01:45:59.10	143.55	26.78	-37.8	-39.0	29.2	3.02e+01	92	41	0	376963072	50	6091
2026-01-22 01:46:00.11	143.49	26.98	-37.3	-38.5	29.6	3.02e+01	92	41	0	379060224	50	5741
2026-01-22 01:46:01.12	143.42	27.18	-37.3	-38.5	29.6	3.02e+01	92	41	0	380633088	50	5740
2026-01-22 01:46:02.13	143.36	27.37	-37.1	-38.3	29.8	3.02e+01	92	41	0	382730240	50	5621
2026-01-22 01:46:03.14	143.29	27.57	-37.1	-38.3	29.8	3.02e+01	92	41	0	384303104	50	5650
2026-01-22 01:46:04.15	143.22	27.78	-36.9	-38.1	29.9	3.02e+01	92	41	0	386400256	48	6158
2026-01-22 01:46:05.16	143.15	27.98	-36.8	-38.0	30.1	3.02e+01	92	41	0	388497408	48	6100
2026-01-22 01:46:06.17	143.08	28.18	-36.9	-38.1	30.0	3.02e+01	90	41	0	390070272	48	6173
2026-01-22 01:46:07.18	143.01	28.39	-36.9	-38.1	29.9	3.02e+01	92	41	0	392167424	48	6175
2026-01-22 01:46:08.19	142.93	28.60	-36.9	-38.1	29.9	3.02e+01	92	41	0	393740288	48	6158
2026-01-22 01:46:09.20	142.86	28.80	-37.0	-38.1	29.9	3.02e+01	92	41	0	395837440	48	6189
2026-01-22 01:46:10.21	142.79	29.02	-37.0	-38.2	29.9	3.02e+01	92	41	0	397934592	48	6252
2026-01-22 01:46:11.22	142.71	29.23	-36.9	-38.0	30.0	3.02e+01	90	41	0	399507456	48	6128
2026-01-22 01:46:12.23	142.63	29.44	-36.9	-38.1	30.0	3.02e+01	86	41	0	401604608	48	6149
2026-01-22 01:46:13.24	142.56	29.66	-36.7	-37.9	30.2	3.02e+01	90	41	0	403701760	48	6000
2026-01-22 01:46:14.25	142.48	29.88	-36.7	-37.8	30.2	3.02e+01	90	41	0	405274624	48	5985
2026-01-22 01:46:15.26	142.40	30.10	-36.8	-38.0	30.1	3.02e+01	92	41	0	407371776	48	6090
2026-01-22 01:46:16.27	142.32	30.32	-36.8	-38.0	30.1	3.02e+01	90	41	0	408944640	48	6067
2026-01-22 01:46:17.28	142.23	30.54	-37.0	-38.1	30.0	3.02e+01	91	41	0	411041792	48	6203
2026-01-22 01:46:18.29	142.15	30.76	-37.0	-38.2	29.9	3.02e+01	90	41	0	413138944	48	6215
2026-01-22 01:46:19.30	142.06	30.99	-37.0	-38.2	29.8	3.02e+01	92	41	0	414711808	48	6241
2026-01-22 01:46:20.31	141.98	31.22	-37.2	-38.4	29.8	3.02e+01	90	41	0	416808960	48	6388
2026-01-22 01:46:21.32	141.89	31.45	-37.0	-38.2	30.0	3.02e+01	92	41	0	418381824	48	6233
2026-01-22 01:46:22.33	141.80	31.68	-37.2	-38.3	29.9	3.02e+01	92	41	0	420478976	48	6342
2026-01-22 01:46:23.34	141.71	31.91	-36.9	-38.1	30.0	3.02e+01	92	41	0	422576128	48	6166
2026-01-22 01:46:24.35	141.62	32.15	-37.1	-38.3	30.0	3.02e+01	92	41	0	424148992	48	6291
2026-01-22 01:46:25.36	141.53	32.39	-37.0	-38.1	30.0	3.02e+01	90	41	0	426246144	48	6204
2026-01-22 01:46:26.37	141.43	32.63	-37.0	-38.2	29.9	3.02e+01	92	41	0	427819008	48	6254
2026-01-22 01:46:27.38	141.33	32.87	-37.2	-38.4	29.7	3.02e+01	92	41	0	429916160	48	6392
2026-01-22 01:46:28.40	141.24	33.11	-37.2	-38.4	29.8	3.02e+01	92	41	0	432013312	48	6378
2026-01-22 01:46:29.41	141.14	33.36	-37.4	-38.6	29.6	3.02e+01	90	41	0	433586176	48	6527
2026-01-22 01:46:30.41	141.04	33.60	-37.5	-38.7	29.6	3.02e+01	89	41	0	435683328	48	6618
2026-01-22 01:46:31.43	140.93	33.86	-37.6	-38.8	29.6	3.02e+01	91	41	0	437256192	48	6686
2026-01-22 01:46:32.44	140.83	34.11	-37.6	-38.8	29.4	3.02e+01	90	41	0	439353344	48	6688
2026-01-22 01:46:33.45	140.72	34.36	-37.7	-38.9	29.4	3.02e+01	91	41	0	441450496	48	6804
2026-01-22 01:46:34.46	140.61	34.62	-37.9	-39.1	29.3	3.02e+01	85	41	0	443023360	48	6891
2026-01-22 01:46:35.47	140.50	34.88	-37.6	-38.8	29.5	3.02e+01	92	41	0	445120512	48	6687
2026-01-22 01:46:36.48	140.39	35.14	-37.7	-38.9	29.4	3.02e+01	92	41	0	447217664	48	6780
2026-01-22 01:46:37.49	140.28	35.40	-37.8	-39.0	29.3	3.02e+01	92	41	0	448790528	48	6815
2026-01-22 01:46:38.50	140.16	35.66	-38.0	-39.3	29.1	3.02e+01	92	41	0	450887680	50	6283
2026-01-22 01:46:39.51	140.05	35.93	-38.7	-40.0	28.5	3.02e+01	93	41	0	452460544	50	6821
2026-01-22 01:46:40.52	139.93	36.20	-39.1	-40.3	28.2	3.02e+01	90	41	0	454557696	52	6345
2026-01-22 01:46:41.53	139.81	36.47	-39.1	-40.4	28.1	3.02e+01	92	41	0	456654848	52	6370
2026-01-22 01:46:42.54	139.68	36.74	-38.9	-40.2	28.3	3.02e+01	92	41	0	458227712	52	6221
2026-01-22 01:46:43.55	139.56	37.02	-38.7	-39.9	28.5	3.02e+01	92	41	0	460324864	52	6047
2026-01-22 01:46:44.56	139.43	37.29	-38.8	-40.1	28.4	3.02e+01	91	42	0	461897728	52	6164
2026-01-22 01:46:45.57	139.30	37.58	-39.2	-40.5	28.0	3.02e+01	92	41	0	463994880	52	6465
2026-01-22 01:46:46.58	139.17	37.86	-39.5	-40.8	27.7	3.02e+01	91	41	0	466092032	52	6711
2026-01-22 01:46:47.59	139.03	38.14	-39.8	-41.1	27.6	3.02e+01	91	41	0	467664896	52	6903
2026-01-22 01:46:48.60	138.89	38.43	-39.8	-41.1	27.6	3.02e+01	91	41	0	469762048	52	6885
2026-01-22 01:46:49.61	138.75	38.72	-39.7	-41.0	27.6	3.02e+01	90	41	0	471859200	52	6874
2026-01-22 01:46:50.62	138.61	39.01	-39.1	-40.3	28.2	3.02e+01	92	41	0	473432064	52	6332
2026-01-22 01:46:51.63	138.47	39.31	-39.3	-40.6	27.8	3.02e+01	90	41	0	475529216	52	6536
2026-01-22 01:46:52.64	138.32	39.60	-39.8	-41.1	27.4	3.02e+01	92	41	0	477102080	52	6960
2026-01-22 01:46:53.65	138.17	39.90	-39.6	-40.9	27.6	3.02e+01	90	42	0	479199232	54	6057
2026-01-22 01:46:54.66	138.01	40.20	-39.4	-40.6	28.0	3.02e+01	92	42	0	481296384	54	5855
2026-01-22 01:46:55.67	137.86	40.51	-38.9	-40.2	28.3	3.02e+01	92	41	0	482869248	54	5558
2026-01-22 01:46:56.68	137.70	40.82	-39.0	-40.2	28.4	3.02e+01	92	41	0	484966400	52	6261
2026-01-22 01:46:57.69	137.53	41.12	-39.4	-40.7	27.9	3.02e+01	90	42	0	487063552	52	6586
2026-01-22 01:46:58.70	137.37	41.44	-38.9	-40.1	28.5	3.02e+01	92	42	0	488636416	52	6176
2026-01-22 01:46:59.71	137.20	41.75	-38.8	-40.0	28.6	3.02e+01	92	42	0	490733568	52	6098
2026-01-22 01:47:00.72	137.02	42.07	-39.0	-40.3	28.3	3.02e+01	92	41	0	492306432	52	6291
2026-01-22 01:47:01.73	136.84	42.39	-39.0	-40.3	28.3	3.02e+01	90	41	0	494403584	52	6287
2026-01-22 01:47:02.74	136.66	42.71	-38.3	-39.5	28.9	3.02e+01	92	41	0	496500736	52	5790
2026-01-22 01:47:03.75	136.48	43.03	-38.1	-39.3	29.1	3.02e+01	92	41	0	498073600	52	5605
2026-01-22 01:47:04.76	136.29	43.36	-38.1	-39.3	29.1	3.02e+01	92	41	0	500170752	50	6327
2026-01-22 01:47:05.77	136.10	43.69	-38.3	-39.5	29.0	3.02e+01	93	41	0	501743616	50	6468
2026-01-22 01:47:06.78	135.90	44.02	-38.4	-39.6	28.9	3.02e+01	92	41	0	503840768	50	6529
2026-01-22 01:47:07.79	135.70	44.36	-38.4	-39.6	28.9	3.02e+01	90	41	0	505937920	50	6556
2026-01-22 01:47:08.79	135.50	44.69	-37.7	-38.9	29.4	3.02e+01	92	41	0	507510784	50	6041
2026-01-22 01:47:09.80	135.29	45.04	-37.9	-39.1	29.5	3.02e+01	90	41	0	509607936	50	6142
2026-01-22 01:47:10.82	135.07	45.38	-38.5	-39.7	28.7	3.02e+01	92	41	0	511180800	50	6609
2026-01-22 01:47:11.82	134.85	45.72	-38.5	-39.7	28.8	3.02e+01	92	41	0	513277952	50	6593
2026-01-22 01:47:12.84	134.63	46.08	-38.3	-39.5	29.0	3.02e+01	88	41	0	515375104	50	6468
2026-01-22 01:47:13.85	134.40	46.43	-38.1	-39.3	29.1	3.02e+01	90	41	0	516947968	50	6288
2026-01-22 01:47:14.86	134.16	46.78	-37.9	-39.1	29.3	3.02e+01	92	42	0	519045120	50	6187
2026-01-22 01:47:15.87	133.92	47.14	-37.8	-39.0	29.4	3.02e+01	92	41	0	520617984	50	6084
2026-01-22 01:47:16.88	133.67	47.50	-38.4	-39.7	28.8	3.02e+01	92	41	0	522715136	50	6585
2026-01-22 01:47:17.89	133.42	47.86	-38.4	-39.6	28.9	3.02e+01	88	41	0	524812288	50	6531
2026-01-22 01:47:18.90	133.16	48.22	-38.2	-39.4	29.0	3.02e+01	91	41	0	526385152	50	6384
2026-01-22 01:47:19.91	132.90	48.59	-38.0	-39.2	29.3	3.02e+01	89	41	0	528482304	50	6234
2026-01-22 01:47:20.92	132.63	48.96	-38.1	-39.3	29.1	3.02e+01	91	41	0	530055168	50	6309
2026-01-22 01:47:21.93	132.35	49.33	-38.7	-39.9	28.7	3.02e+01	90	41	0	532152320	50	6792
2026-01-22 01:47:22.94	132.07	49.70	-38.3	-39.6	28.7	3.02e+01	91	41	0	534249472	50	6502
2026-01-22 01:47:23.95	131.77	50.08	-38.2	-39.5	28.9	3.02e+01	90	41	0	535822336	50	6431
2026-01-22 01:47:24.96	131.47	50.46	-38.2	-39.4	29.1	3.02e+01	91	41	0	537919488	50	6360
2026-01-22 01:47:25.97	131.17	50.84	-38.6	-39.8	28.6	3.02e+01	92	41	0	540016640	50	6677
2026-01-22 01:47:26.98	130.85	51.22	-38.8	-40.1	28.5	3.02e+01	92	42	0	541589504	50	6920
2026-01-22 01:47:27.99	130.53	51.61	-38.8	-40.1	29.0	3.02e+01	90	41	0	543686656	50	6892
2026-01-22 01:47:29.00	130.19	52.00	-38.2	-39.4	29.0	3.02e+01	92	41	0	545259520	50	6399
2026-01-22 01:47:30.01	129.85	52.39	-38.1	-39.3	29.1	3.02e+01	90	41	0	547356672	52	5611
2026-01-22 01:47:31.01	129.51	52.78	-37.9	-39.1	29.4	3.02e+01	92	41	0	549453824	52	5526
2026-01-22 01:47:32.02	129.14	53.17	-37.6	-38.8	29.7	3.02e+01	92	41	0	551026688	50	5972
2026-01-22 01:47:33.03	128.77	53.57	-37.2	-38.4	29.9	3.02e+01	91	41	0	553123840	50	5685
2026-01-22 01:47:34.04	128.39	53.97	-37.3	-38.5	30.0	3.02e+01	92	41	0	554696704	50	5752
2026-01-22 01:47:35.05	128.00	54.37	-37.4	-38.5	29.9	3.02e+01	91	41	0	556793856	50	5787
2026-01-22 01:47:36.06	127.60	54.77	-37.3	-38.4	29.9	3.02e+01	92	41	0	558891008	50	5704
2026-01-22 01:47:37.07	127.18	55.18	-37.4	-38.5	29.9	3.02e+01	91	41	0	560463872	50	5778
2026-01-22 01:47:38.09	126.75	55.59	-37.7	-38.9	29.4	3.02e+01	92	41	0	562561024	50	6053
2026-01-22 01:47:39.09	126.31	55.99	-38.0	-39.1	29.4	3.02e+01	92	42	0	564658176	50	6198
2026-01-22 01:47:40.11	125.86	56.40	-37.8	-39.0	29.5	3.02e+01	89	41	0	566231040	50	6119
2026-01-22 01:47:41.12	125.39	56.81	-38.3	-39.5	29.0	3.02e+01	92	41	0	568328192	50	6471
2026-01-22 01:47:42.13	124.91	57.22	-38.2	-39.4	29.1	3.02e+01	91	41	0	569901056	50	6389
2026-01-22 01:47:43.13	124.42	57.63	-38.3	-39.5	28.9	3.02e+01	92	41	0	571998208	50	6448
2026-01-22 01:47:44.14	123.90	58.05	-38.6	-39.8	28.8	3.02e+01	92	41	0	574095360	50	6724
2026-01-22 01:47:45.15	123.38	58.46	-38.0	-39.2	29.1	3.02e+01	92	42	0	575668224	50	6261
2026-01-22 01:47:46.16	122.83	58.88	-38.6	-39.9	28.7	3.02e+01	92	41	0	577765376	50	6747
2026-01-22 01:47:47.17	122.27	59.29	-38.7	-40.0	28.5	3.02e+01	92	41	0	579338240	50	6837
2026-01-22 01:47:48.18	121.69	59.71	-38.4	-39.6	28.9	3.02e+01	91	41	0	581435392	50	6518
2026-01-22 01:47:49.19	121.09	60.12	-38.8	-40.1	28.5	3.02e+01	90	41	0	583532544	50	6911
2026-01-22 01:47:50.20	120.47	60.54	-39.0	-40.2	28.5	3.02e+01	92	41	0	585105408	52	6241
2026-01-22 01:47:51.21	119.83	60.96	-39.2	-40.4	28.4	3.02e+01	92	41	0	587202560	52	6406
2026-01-22 01:47:52.22	119.16	61.37	-39.0	-40.2	28.5	3.02e+01	92	41	0	588775424	52	6252
2026-01-22 01:47:53.23	118.48	61.78	-39.3	-40.5	28.1	3.02e+01	92	41	0	590872576	52	6482
2026-01-22 01:47:54.24	117.77	62.20	-39.2	-40.5	28.2	3.02e+01	90	41	0	592969728	52	6431
2026-01-22 01:47:55.25	117.03	62.61	-39.6	-40.9	27.9	3.02e+01	92	41	0	594542592	52	6750
2026-01-22 01:47:56.26	116.27	63.02	-39.6	-40.8	27.8	3.02e+01	92	41	0	596639744	52	6717
2026-01-22 01:47:57.27	115.49	63.43	-40.1	-41.4	27.2	3.02e+01	91	41	0	598212608	54	6409
2026-01-22 01:47:58.28	114.67	63.83	-39.8	-41.1	27.7	3.02e+01	92	41	0	600309760	54	6168
2026-01-22 01:47:59.29	113.83	64.24	-40.0	-41.3	27.4	3.02e+01	90	41	0	602406912	54	6306
2026-01-22 01:48:00.30	112.96	64.64	-40.7	-42.1	26.6	3.02e+01	90	41	0	603979776	54	6903
2026-01-22 01:48:01.31	112.05	65.04	-40.1	-41.4	27.2	3.02e+01	92	42	0	606076928	54	6415
2026-01-22 01:48:02.32	111.12	65.43	-40.9	-42.3	26.4	3.02e+01	90	41	0	608174080	54	7105
2026-01-22 01:48:03.33	110.14	65.82	-41.3	-42.7	26.2	3.02e+01	92	41	0	609746944	56	6598
2026-01-22 01:48:04.34	109.14	66.20	-41.2	-42.6	26.3	3.02e+01	92	41	0	611844096	56	6505
2026-01-22 01:48:05.35	108.09	66.58	-41.7	-43.2	25.7	3.02e+01	92	41	0	613416960	56	7001
2026-01-22 01:48:06.36	107.01	66.96	-42.4	-44.0	24.9	3.02e+01	92	42	0	615514112	58	6845
2026-01-22 01:48:07.37	105.89	67.33	-41.4	-42.8	26.0	3.02e+01	90	41	0	617611264	58	5959
2026-01-22 01:48:08.38	104.73	67.69	-42.1	-43.6	25.3	3.02e+01	92	41	0	619184128	58	6555
2026-01-22 01:48:09.39	103.53	68.04	-42.4	-44.0	24.9	3.02e+01	92	42	0	621281280	58	6805
2026-01-22 01:48:10.40	102.29	68.39	-41.2	-42.6	26.4	3.02e+01	92	42	0	623378432	58	5816
2026-01-22 01:48:11.41	101.00	68.73	-42.3	-43.9	25.1	3.02e+01	90	42	0	624951296	58	6761
2026-01-22 01:48:12.42	99.67	69.06	-41.8	-43.2	25.8	3.02e+01	92	42	0	627048448	58	6254
2026-01-22 01:48:13.43	98.29	69.38	-41.8	-43.3	25.7	3.02e+01	92	42	0	628621312	58	6335
2026-01-22 01:48:14.44	96.87	69.69	-41.9	-43.4	25.5	3.02e+01	92	42	0	630718464	58	6401
2026-01-22 01:48:15.45	95.40	69.98	-42.0	-43.4	25.6	3.02e+01	91	42	0	632815616	58	6419
2026-01-22 01:48:16.46	93.88	70.27	-42.5	-44.0	24.9	3.02e+01	92	42	0	634388480	58	6882
2026-01-22 01:48:17.47	92.32	70.54	-42.1	-43.5	25.5	3.02e+01	89	42	0	636485632	58	6492
2026-01-22 01:48:18.48	90.71	70.80	-43.2	-44.8	24.3	3.02e+01	92	41	0	638058496	60	6676
2026-01-22 01:48:19.49	89.05	71.05	-42.8	-44.3	24.8	3.02e+01	92	41	0	640155648	60	6333
2026-01-22 01:48:20.50	87.35	71.28	-42.8	-44.4	24.7	3.02e+01	91	41	0	642252800	60	6365
2026-01-22 01:48:21.51	85.60	71.50	-42.5	-44.1	25.2	3.02e+01	91	41	0	643825664	60	6141
2026-01-22 01:48:22.52	83.82	71.70	-42.4	-43.9	25.2	3.02e+01	92	41	0	645922816	60	6059
2026-01-22 01:48:23.53	81.99	71.88	-41.3	-42.6	26.4	3.02e+01	92	42	0	648019968	58	5834
2026-01-22 01:48:24.54	80.12	72.05	-42.7	-44.3	24.8	3.02e+01	91	41	0	649592832	58	7093
2026-01-22 01:48:25.55	78.22	72.19	-41.0	-42.3	26.5	3.02e+01	91	41	0	651689984	56	6340
2026-01-22 01:48:26.56	76.29	72.32	-41.8	-43.3	25.7	3.02e+01	91	42	0	653262848	56	7053
2026-01-22 01:48:27.57	74.33	72.43	-42.5	-44.1	24.9	3.02e+01	89	42	0	655360000	58	6933
2026-01-22 01:48:28.58	72.35	72.52	-41.8	-43.3	25.6	3.02e+01	90	42	0	657457152	58	6285
2026-01-22 01:48:29.59	70.35	72.59	-42.0	-43.4	25.5	3.02e+01	90	42	0	659030016	58	6415
2026-01-22 01:48:30.60	68.33	72.64	-42.2	-43.8	25.1	3.02e+01	92	42	0	661127168	58	6673
2026-01-22 01:48:31.61	66.31	72.67	-42.5	-44.1	25.0	3.02e+01	92	41	0	662700032	58	6901
2026-01-22 01:48:32.62	64.28	72.68	-41.9	-43.4	25.6	3.02e+01	90	41	0	664797184	58	6353
2026-01-22 01:48:33.63	62.25	72.66	-42.3	-43.9	25.1	3.02e+01	92	41	0	666894336	58	6755
2026-01-22 01:48:34.65	60.21	72.63	-42.3	-43.8	25.1	3.02e+01	92	41	0	668467200	58	6707
2026-01-22 01:48:35.65	58.21	72.58	-42.1	-43.6	25.4	3.02e+01	92	41	0	670564352	58	6527
2026-01-22 01:48:36.67	56.20	72.50	-41.8	-43.3	25.7	3.02e+01	90	42	0	672137216	58	6281
2026-01-22 01:48:37.68	54.22	72.41	-41.9	-43.3	25.6	3.02e+01	92	41	0	674234368	58	6341
2026-01-22 01:48:38.69	52.27	72.29	-41.6	-43.0	25.8	3.02e+01	90	41	0	676331520	58	6124
2026-01-22 01:48:39.70	50.35	72.16	-42.2	-43.8	25.2	3.02e+01	92	42	0	677904384	58	6651
2026-01-22 01:48:40.71	48.46	72.01	-41.7	-43.1	25.8	3.02e+01	92	41	0	680001536	58	6195
2026-01-22 01:48:41.72	46.60	71.84	-41.6	-43.0	25.9	3.02e+01	90	41	0	681574400	58	6120
2026-01-22 01:48:42.72	44.80	71.65	-42.5	-44.1	24.8	3.02e+01	92	41	0	683671552	58	6919
2026-01-22 01:48:43.74	43.01	71.45	-41.8	-43.2	25.6	3.02e+01	92	42	0	685768704	58	6251
2026-01-22 01:48:44.75	41.27	71.23	-42.3	-43.9	24.8	3.02e+01	92	41	0	687341568	58	6750
2026-01-22 01:48:45.75	39.60	71.00	-43.2	-44.9	24.1	3.02e+01	92	41	0	689438720	60	6756
2026-01-22 01:48:46.76	37.95	70.75	-43.1	-44.7	24.3	3.02e+01	91	41	0	691011584	60	6612
2026-01-22 01:48:47.77	36.36	70.48	-42.8	-44.4	24.3	3.02e+01	92	42	0	693108736	60	6392
2026-01-22 01:48:48.78	34.80	70.21	-43.5	-45.2	23.7	3.02e+01	91	42	0	695205888	60	6973
2026-01-22 01:48:49.79	33.30	69.92	-44.0	-45.8	23.5	3.02e+01	92	42	0	696778752	60	7537
2026-01-22 01:48:50.80	31.84	69.62	-43.2	-44.8	24.3	3.02e+01	91	42	0	698875904	60	6657
2026-01-22 01:48:51.81	30.43	69.31	-42.9	-44.5	24.4	3.02e+01	91	42	0	700973056	60	6453
2026-01-22 01:48:52.82	29.06	68.99	-43.5	-45.2	23.8	3.02e+01	90	41	0	702545920	60	7025
2026-01-22 01:48:53.83	27.74	68.66	-43.5	-45.2	23.7	3.02e+01	92	42	0	704643072	60	7027
2026-01-22 01:48:54.84	26.47	68.32	-43.7	-45.5	23.5	3.02e+01	92	41	0	706215936	60	7222
2026-01-22 01:48:55.85	25.23	67.97	-42.7	-44.2	24.7	3.02e+01	91	42	0	708313088	60	6233
2026-01-22 01:48:56.86	24.04	67.61	-43.9	-45.7	23.3	3.02e+01	92	42	0	710410240	60	7421
2026-01-22 01:48:57.87	22.89	67.25	-42.8	-44.4	24.5	3.02e+01	92	41	0	711983104	60	6389
2026-01-22 01:48:58.88	21.78	66.88	-43.4	-45.0	24.0	3.02e+01	92	42	0	714080256	60	6858
2026-01-22 01:48:59.89	20.71	66.51	-42.6	-44.2	24.9	3.02e+01	92	41	0	716177408	60	6217
2026-01-22 01:49:00.90	19.68	66.13	-43.3	-45.0	24.1	3.02e+01	91	41	0	717750272	60	6807
2026-01-22 01:49:01.91	18.68	65.74	-43.0	-44.6	24.4	3.02e+01	92	42	0	719847424	60	6570
2026-01-22 01:49:02.92	17.72	65.35	-42.3	-43.8	25.2	3.02e+01	92	41	0	721420288	60	5960
2026-01-22 01:49:03.93	16.79	64.96	-42.7	-44.3	24.6	3.02e+01	91	41	0	723517440	60	6331
2026-01-22 01:49:04.94	15.89	64.56	-42.2	-43.6	25.3	3.02e+01	92	41	0	725614592	60	5853
2026-01-22 01:49:05.95	15.03	64.16	-41.2	-42.6	26.2	3.02e+01	90	42	0	727187456	58	5851
2026-01-22 01:49:06.96	14.19	63.76	-41.0	-42.4	26.4	3.02e+01	92	41	0	729284608	56	6401
2026-01-22 01:49:07.97	13.38	63.35	-41.5	-43.0	25.8	3.02e+01	91	41	0	730857472	56	6807
2026-01-22 01:49:08.98	12.60	62.94	-41.2	-42.6	26.4	3.02e+01	92	41	0	732954624	56	6518
2026-01-22 01:49:09.99	11.85	62.53	-41.0	-42.3	26.6	3.02e+01	92	41	0	735051776	56	6346
2026-01-22 01:49:11.01	11.12	62.12	-39.8	-41.1	27.6	3.02e+01	92	41	0	736624640	54	6169
2026-01-22 01:49:12.01	10.42	61.71	-39.8	-41.0	27.6	3.02e+01	92	41	0	738721792	54	6130
2026-01-22 01:49:13.03	9.74	61.29	-40.1	-41.4	27.3	3.02e+01	92	41	0	740294656	54	6402
2026-01-22 01:49:14.03	9.08	60.88	-39.5	-40.7	27.8	3.02e+01	89	41	0	742391808	54	5920
2026-01-22 01:49:15.04	8.45	60.47	-40.2	-41.5	27.3	3.02e+01	92	41	0	744488960	54	6459
2026-01-22 01:49:16.05	7.83	60.05	-40.1	-41.4	27.3	3.02e+01	91	41	0	746061824	54	6418
2026-01-22 01:49:17.06	7.24	59.64	-39.5	-40.8	27.9	3.02e+01	92	41	0	748158976	54	5994
2026-01-22 01:49:18.08	6.66	59.22	-39.4	-40.6	28.0	3.02e+01	90	41	0	749731840	54	5844
2026-01-22 01:49:19.09	6.10	58.80	-39.0	-40.3	28.2	3.02e+01	91	41	0	751828992	54	5619
2026-01-22 01:49:20.10	5.56	58.39	-39.0	-40.2	28.2	3.02e+01	91	41	0	753926144	52	6239
2026-01-22 01:49:21.11	5.03	57.98	-39.2	-40.5	28.4	3.02e+01	92	41	0	755499008	52	6458
2026-01-22 01:49:22.11	4.53	57.57	-39.1	-40.4	28.3	3.02e+01	89	41	0	757596160	52	6370
2026-01-22 01:49:23.12	4.04	57.16	-38.2	-39.5	29.0	3.02e+01	92	42	0	759169024	52	5729
2026-01-22 01:49:24.13	3.56	56.75	-37.8	-39.0	29.5	3.02e+01	92	41	0	761266176	50	6114
2026-01-22 01:49:25.14	3.10	56.34	-37.5	-38.6	29.8	3.02e+01	92	41	0	763363328	50	5853
2026-01-22 01:49:26.15	2.65	55.93	-37.6	-38.7	29.6	3.02e+01	92	41	0	764936192	50	5914
2026-01-22 01:49:27.16	2.21	55.52	-37.4	-38.6	29.8	3.02e+01	91	41	0	767033344	50	5803
2026-01-22 01:49:28.17	1.79	55.12	-37.4	-38.6	29.7	3.02e+01	92	41	0	769130496	50	5808
2026-01-22 01:49:29.18	1.38	54.72	-36.7	-37.8	30.3	3.02e+01	92	42	0	770703360	48	5977
2026-01-22 01:49:30.19	0.97	54.32	-37.2	-38.3	30.0	3.02e+01	91	41	0	772800512	48	6331
2026-01-22 01:49:31.20	0.59	53.92	-37.6	-38.8	29.7	3.02e+01	92	41	0	774373376	48	6680
2026-01-22 01:49:32.21	0.21	53.52	-37.2	-38.4	29.9	3.02e+01	92	42	0	776470528	48	6390
2026-01-22 01:49:33.22	359.84	53.12	-37.0	-38.2	30.1	3.02e+01	92	42	0	778567680	48	6212
2026-01-22 01:49:34.23	359.48	52.73	-37.1	-38.3	29.9	3.02e+01	90	42	0	780140544	48	6293
2026-01-22 01:49:35.24	359.13	52.34	-36.8	-38.0	30.0	3.02e+01	92	41	0	782237696	48	6103
2026-01-22 01:49:36.25	358.79	51.95	-36.7	-37.9	30.3	3.02e+01	92	41	0	784334848	48	6021
2026-01-22 01:49:37.26	358.46	51.56	-37.1	-38.3	29.9	3.02e+01	92	41	0	785907712	48	6287
2026-01-22 01:49:38.27	358.14	51.18	-37.6	-38.8	29.6	3.02e+01	90	41	0	788004864	48	6650
2026-01-22 01:49:39.28	357.83	50.80	-37.6	-38.8	29.5	3.02e+01	92	41	0	789577728	48	6725
2026-01-22 01:49:40.29	357.52	50.42	-37.4	-38.6	29.6	3.02e+01	92	42	0	791674880	48	6509
2026-01-22 01:49:41.30	357.23	50.04	-37.4	-38.6	29.7	3.02e+01	62	41	0	793772032	48	6559
2026-01-22 01:49:42.31	356.94	49.67	-37.7	-38.9	29.5	3.02e+01	59	41	0	795344896	48	6739
2026-01-22 01:49:43.32	356.65	49.29	-37.6	-38.8	29.5	3.02e+01	58	41	0	797442048	48	6656
2026-01-22 01:49:44.33	356.38	48.92	-37.8	-39.0	29.4	3.02e+01	61	42	0	799014912	48	6816
2026-01-22 01:49:45.33	356.11	48.56	-38.0	-39.2	29.2	3.02e+01	47	42	0	801112064	50	6257
2026-01-22 01:49:46.35	355.85	48.19	-37.8	-39.1	29.2	3.02e+01	60	41	0	803209216	50	6137
2026-01-22 01:49:47.35	355.59	47.83	-37.8	-39.0	29.3	3.02e+01	59	41	0	804782080	50	6121
2026-01-22 01:49:48.36	355.34	47.47	-37.7	-38.9	29.5	3.02e+01	61	42	0	806879232	50	6051
2026-01-22 01:49:49.38	355.09	47.11	-37.6	-38.9	29.5	3.02e+01	61	41	0	808452096	50	6001
2026-01-22 01:49:50.39	354.85	46.76	-37.5	-38.7	29.6	3.02e+01	55	42	0	810549248	50	5868
2026-01-22 01:49:51.40	354.62	46.41	-37.4	-38.6	29.8	3.02e+01	59	42	0	812646400	50	5793
2026-01-22 01:49:52.41	354.39	46.06	-37.9	-39.1	29.4	3.02e+01	52	42	0	814219264	50	6178
2026-01-22 01:49:53.42	354.17	45.71	-38.0	-39.3	29.2	3.02e+01	43	42	0	816316416	50	6285
2026-01-22 01:49:54.43	353.95	45.37	-37.8	-39.0	29.4	3.02e+01	58	42	0	818413568	50	6069
2026-01-22 01:49:55.44	353.74	45.02	-37.7	-38.9	29.5	3.02e+01	60	41	0	819986432	50	6035
2026-01-22 01:49:56.45	353.53	44.69	-37.9	-39.0	29.5	3.02e+01	60	42	0	822083584	50	6133
2026-01-22 01:49:57.46	353.33	44.35	-37.7	-39.0	29.4	3.02e+01	58	42	0	823656448	50	6065
2026-01-22 01:49:58.47	353.13	44.02	-37.6	-38.8	29.5	3.02e+01	58	42	0	825753600	50	5969
2026-01-22 01:49:59.48	352.93	43.68	-38.0	-39.2	29.3	3.02e+01	59	42	0	827326464	50	6222
2026-01-22 01:50:00.48	352.74	43.36	-38.4	-39.6	28.9	3.02e+01	57	42	0	829423616	50	6569
2026-01-22 01:50:01.49	352.55	43.03	-38.3	-39.5	28.9	3.02e+01	58	42	0	831520768	50	6482
2026-01-22 01:50:02.50	352.37	42.71	-38.3	-39.6	28.9	3.02e+01	62	42	0	833093632	50	6518
2026-01-22 01:50:03.51	352.19	42.39	-38.4	-39.7	28.8	3.02e+01	60	42	0	835190784	50	6577
2026-01-22 01:50:04.52	352.02	42.07	-38.6	-39.9	28.6	3.02e+01	59	42	0	837287936	50	6734
2026-01-22 01:50:05.53	351.84	41.76	-38.9	-40.2	28.2	3.02e+01	60	42	0	838860800	52	6227
2026-01-22 01:50:06.54	351.67	41.44	-38.4	-39.6	28.9	3.02e+01	48	42	0	840957952	52	5845
2026-01-22 01:50:07.55	351.51	41.13	-38.5	-39.7	28.8	3.02e+01	59	42	0	842530816	52	5866
2026-01-22 01:50:08.56	351.35	40.83	-38.7	-40.0	28.6	3.02e+01	61	42	0	844627968	52	6076
2026-01-22 01:50:09.57	351.19	40.52	-39.0	-40.3	28.3	3.02e+01	59	42	0	846725120	52	6305
2026-01-22 01:50:10.58	351.03	40.22	-39.3	-40.5	28.1	3.02e+01	57	42	0	848297984	52	6482
2026-01-22 01:50:11.59	350.88	39.92	-39.6	-40.9	27.8	3.02e+01	38	42	0	850395136	52	6730
2026-01-22 01:50:12.60	350.73	39.62	-39.7	-41.0	27.7	3.02e+01	61	42	0	852492288	52	6835
2026-01-22 01:50:13.61	350.58	39.32	-39.5	-40.8	27.8	3.02e+01	58	42	0	854065152	52	6711
2026-01-22 01:50:14.62	350.44	39.03	-39.8	-41.0	27.8	3.02e+01	45	42	0	856162304	52	6876
2026-01-22 01:50:15.63	350.29	38.74	-39.6	-40.9	27.8	3.02e+01	58	42	0	857735168	52	6742
2026-01-22 01:50:16.64	350.15	38.45	-39.7	-41.0	27.7	3.02e+01	56	42	0	859832320	52	6818
2026-01-22 01:50:17.65	350.02	38.17	-40.0	-41.3	27.5	3.02e+01	59	42	0	861929472	52	7076
2026-01-22 01:50:18.66	349.88	37.88	-39.7	-41.0	27.6	3.02e+01	58	42	0	863502336	54	6104
2026-01-22 01:50:19.67	349.75	37.60	-39.5	-40.9	27.7	3.02e+01	56	42	0	865599488	54	6002
2026-01-22 01:50:20.68	349.62	37.32	-39.0	-40.3	28.3	3.02e+01	56	42	0	867172352	54	5634
2026-01-22 01:50:21.68	349.50	37.05	-39.0	-40.2	28.4	3.02e+01	58	42	0	869269504	52	6251
2026-01-22 01:50:22.69	349.37	36.77	-38.7	-40.0	28.6	3.02e+01	51	42	0	871366656	52	6070
2026-01-22 01:50:23.70	349.25	36.50	-38.7	-39.9	28.6	3.02e+01	59	42	0	872939520	52	6055
2026-01-22 01:50:24.71	349.13	36.23	-38.5	-39.8	28.7	3.02e+01	59	42	0	875036672	52	5936
2026-01-22 01:50:25.72	349.01	35.97	-38.6	-39.8	28.6	3.02e+01	56	42	0	876609536	52	5993
2026-01-22 01:50:26.73	348.89	35.70	-38.6	-39.8	28.6	3.02e+01	59	42	0	878706688	52	5990
2026-01-22 01:50:27.74	348.78	35.44	-38.5	-39.8	28.8	3.02e+01	47	42	0	880803840	52	5947
2026-01-22 01:50:28.75	348.67	35.18	-38.6	-39.8	28.8	3.02e+01	58	42	0	882376704	52	5973
2026-01-22 01:50:29.76	348.56	34.92	-38.2	-39.4	29.0	3.02e+01	57	42	0	884473856	52	5693
2026-01-22 01:50:30.77	348.45	34.66	-38.1	-39.3	29.0	3.02e+01	37	42	0	886046720	52	5609
2026-01-22 01:50:31.78	348.34	34.41	-37.8	-39.0	29.4	3.02e+01	59	42	0	888143872	50	6075
2026-01-22 01:50:32.79	348.23	34.15	-37.5	-38.6	29.6	3.02e+01	60	42	0	890241024	50	5856
2026-01-22 01:50:33.80	348.13	33.90	-37.3	-38.5	29.8	3.02e+01	62	42	0	891813888	50	5768
2026-01-22 01:50:34.81	348.03	33.65	-37.4	-38.5	29.7	3.02e+01	57	42	0	893911040	50	5784
2026-01-22 01:50:35.82	347.93	33.41	-37.4	-38.6	29.7	3.02e+01	49	42	0	895483904	50	5815
2026-01-22 01:50:36.83	347.83	33.16	-37.8	-39.0	29.4	3.02e+01	56	42	0	897581056	50	6113
2026-01-22 01:50:37.83	347.73	32.92	-37.6	-38.8	29.5	3.02e+01	61	42	0	899678208	50	5960
2026-01-22 01:50:38.85	347.64	32.68	-37.9	-39.2	29.4	3.02e+01	48	42	0	901251072	50	6217
2026-01-22 01:50:39.85	347.54	32.45	-37.1	-38.3	30.0	3.02e+01	60	42	0	903348224	50	5644
2026-01-22 01:50:40.87	347.45	32.21	-37.1	-38.2	30.0	3.02e+01	47	42	0	905445376	50	5588
2026-01-22 01:50:41.88	347.36	31.97	-37.0	-38.2	30.1	3.02e+01	60	42	0	907018240	50	5575
2026-01-22 01:50:42.88	347.27	31.74	-37.0	-38.2	30.1	3.02e+01	60	42	0	909115392	48	6213
2026-01-22 01:50:43.89	347.18	31.51	-37.0	-38.1	30.1	3.02e+01	46	42	0	910688256	48	6201
2026-01-22 01:50:44.90	347.09	31.28	-37.1	-38.2	29.9	3.02e+01	59	42	0	912785408	48	6262
2026-01-22 01:50:45.91	347.01	31.05	-37.2	-38.4	29.8	3.02e+01	59	42	0	914882560	48	6355
2026-01-22 01:50:46.93	346.92	30.83	-37.1	-38.3	29.8	3.02e+01	59	42	0	916455424	48	6307
2026-01-22 01:50:47.93	346.84	30.61	-37.2	-38.4	29.8	3.02e+01	58	42	0	918552576	48	6383
2026-01-22 01:50:48.94	346.76	30.38	-37.2	-38.4	29.8	3.02e+01	55	42	0	920649728	48	6378
2026-01-22 01:50:49.96	346.68	30.16	-37.1	-38.3	29.9	3.02e+01	59	42	0	922222592	48	6317
2026-01-22 01:50:50.97	346.60	29.94	-37.0	-38.2	29.9	3.02e+01	58	42	0	924319744	48	6239
2026-01-22 01:50:51.98	346.52	29.73	-37.1	-38.2	29.9	3.02e+01	54	42	0	925892608	48	6260
2026-01-22 01:50:52.99	346.44	29.51	-37.1	-38.2	29.9	3.02e+01	63	42	0	927989760	48	6269
2026-01-22 01:50:54.00	346.37	29.30	-36.7	-37.9	30.2	3.02e+01	58	42	0	930086912	48	6022
2026-01-22 01:50:55.01	346.29	29.09	-36.8	-38.0	30.1	3.02e+01	62	42	0	931659776	48	6071
2026-01-22 01:50:56.02	346.22	28.88	-36.9	-38.1	30.0	3.02e+01	55	42	0	933756928	48	6159
2026-01-22 01:50:57.03	346.14	28.67	-37.1	-38.2	30.0	3.02e+01	55	42	0	935329792	48	6276
2026-01-22 01:50:58.03	346.07	28.46	-37.2	-38.3	29.7	3.02e+01	60	42	0	937426944	48	6344
2026-01-22 01:50:59.04	346.00	28.26	-37.3	-38.5	29.7	3.02e+01	63	42	0	939524096	48	6436
2026-01-22 01:51:00.05	345.93	28.06	-37.0	-38.2	29.9	3.02e+01	54	42	0	941096960	48	6247
2026-01-22 01:51:01.06	345.86	27.85	-37.1	-38.2	29.9	3.02e+01	59	42	0	943194112	48	6261
2026-01-22 01:51:02.07	345.79	27.65	-37.1	-38.3	30.0	3.02e+01	59	42	0	944766976	48	6287
2026-01-22 01:51:03.08	345.73	27.45	-37.3	-38.4	29.7	3.02e+01	56	42	0	946864128	48	6417
2026-01-22 01:51:04.09	345.66	27.26	-37.4	-38.5	29.7	3.02e+01	59	42	0	948961280	48	6498
2026-01-22 01:51:05.10	345.60	27.06	-37.6	-38.8	29.4	3.02e+01	48	42	0	950534144	48	6712
2026-01-22 01:51:06.11	345.53	26.87	-37.8	-39.0	29.4	3.02e+01	59	42	0	952631296	48	6847
2026-01-22 01:51:07.12	345.47	26.67	-37.5	-38.7	29.6	3.02e+01	60	42	0	954204160	48	6613
2026-01-22 01:51:08.13	345.40	26.48	-37.7	-38.9	29.4	3.02e+01	55	42	0	956301312	48	6792
2026-01-22 01:51:09.14	345.34	26.29	-37.7	-39.0	29.4	3.02e+01	59	42	0	958398464	48	6810
2026-01-22 01:51:10.15	345.28	26.10	-37.7	-38.9	29.3	3.02e+01	54	42	0	959971328	48	6796
2026-01-22 01:51:11.16	345.22	25.92	-37.7	-38.9	29.4	3.02e+01	58	42	0	962068480	48	6798
2026-01-22 01:51:12.17	345.16	25.73	-37.8	-39.0	29.3	3.02e+01	57	42	0	963641344	48	6832
2026-01-22 01:51:13.18	345.10	25.55	-37.8	-39.0	29.2	3.02e+01	50	42	0	965738496	48	6865
2026-01-22 01:51:14.19	345.04	25.36	-37.8	-39.0	29.3	3.02e+01	58	42	0	967835648	50	6088
2026-01-22 01:51:15.20	344.99	25.18	-37.8	-39.0	29.3	3.02e+01	60	42	0	969408512	50	6100
2026-01-22 01:51:16.21	344.93	25.00	-37.8	-39.0	29.3	3.02e+01	55	42	0	971505664	50	6113
2026-01-22 01:51:17.22	344.87	24.82	-38.1	-39.3	29.1	3.02e+01	58	42	0	973602816	50	6308
2026-01-22 01:51:18.23	344.82	24.64	-38.2	-39.4	29.0	3.02e+01	44	42	0	975175680	50	6388
2026-01-22 01:51:19.24	344.76	24.47	-38.0	-39.3	29.1	3.02e+01	57	42	0	977272832	50	6295
2026-01-22 01:51:20.25	344.71	24.29	-38.1	-39.3	29.1	3.02e+01	56	42	0	978845696	50	6312
2026-01-22 01:51:21.26	344.66	24.12	-37.9	-39.1	29.1	3.02e+01	46	42	0	980942848	50	6153
2026-01-22 01:51:22.27	344.61	23.94	-37.9	-39.1	29.2	3.02e+01	60	42	0	983040000	50	6152
2026-01-22 01:51:23.28	344.55	23.77	-38.0	-39.3	29.1	3.02e+01	57	42	0	984612864	50	6278
2026-01-22 01:51:24.29	344.50	23.60	-37.8	-39.0	29.3	3.02e+01	58	42	0	986710016	50	6080
2026-01-22 01:51:25.30	344.45	23.43	-37.8	-39.0	29.3	3.02e+01	58	42	0	988807168	50	6094
2026-01-22 01:51:26.31	344.40	23.26	-37.8	-39.0	29.2	3.02e+01	61	42	0	990380032	50	6126
2026-01-22 01:51:27.32	344.35	23.10	-37.9	-39.1	29.1	3.02e+01	59	42	0	992477184	50	6164
2026-01-22 01:51:28.33	344.30	22.93	-37.8	-39.0	29.2	3.02e+01	60	42	0	994050048	50	6086
2026-01-22 01:51:29.34	344.25	22.76	-37.8	-39.1	29.2	3.02e+01	51	42	0	996147200	50	6136
2026-01-22 01:51:30.35	344.21	22.60	-37.9	-39.1	29.1	3.02e+01	61	42	0	998244352	50	6171
2026-01-22 01:51:31.36	344.16	22.44	-38.2	-39.4	28.9	3.02e+01	60	42	0	999817216	50	6381
2026-01-22 01:51:32.37	344.11	22.28	-38.2	-39.4	28.8	3.02e+01	58	42	0	1001914368	50	6390
2026-01-22 01:51:33.38	344.07	22.12	-38.2	-39.5	28.9	3.02e+01	62	42	0	1003487232	50	6425
2026-01-22 01:51:34.39	344.02	21.96	-38.4	-39.7	28.6	3.02e+01	48	42	0	1005584384	50	6607
2026-01-22 01:51:35.40	343.98	21.80	-38.1	-39.4	29.0	3.02e+01	60	42	0	1007681536	50	6372
2026-01-22 01:51:36.41	343.93	21.64	-38.1	-39.4	28.8	3.02e+01	57	42	0	1009254400	50	6360
2026-01-22 01:51:37.42	343.89	21.49	-38.1	-39.3	28.8	3.02e+01	52	42	0	1011351552	50	6350
2026-01-22 01:51:38.43	343.85	21.33	-38.2	-39.5	28.8	3.02e+01	59	42	0	1013448704	50	6428
2026-01-22 01:51:39.44	343.80	21.18	-38.2	-39.5	28.8	3.02e+01	58	42	0	1015021568	50	6436
2026-01-22 01:51:40.45	343.76	21.02	-38.2	-39.5	28.7	3.02e+01	60	42	0	1017118720	50	6455
2026-01-22 01:51:41.46	343.72	20.87	-38.1	-39.4	28.8	3.02e+01	59	42	0	1018691584	50	6353
2026-01-22 01:51:42.47	343.68	20.72	-38.2	-39.5	28.7	3.02e+01	47	42	0	1020788736	50	6427
2026-01-22 01:51:43.48	343.64	20.57	-38.2	-39.5	28.7	3.02e+01	61	42	0	1022361600	50	6440
2026-01-22 01:51:44.49	343.60	20.42	-38.0	-39.3	28.9	3.02e+01	60	42	0	1024458752	50	6304
2026-01-22 01:51:45.50	343.56	20.27	-37.9	-39.1	29.0	3.02e+01	55	42	0	1026555904	50	6148
2026-01-22 01:51:46.51	343.52	20.12	-38.0	-39.2	28.9	3.02e+01	60	42	0	1028128768	50	6237
2026-01-22 01:51:47.51	343.48	19.98	-37.7	-39.0	29.2	3.02e+01	56	42	0	1030225920	50	6067
2026-01-22 01:51:48.52	343.44	19.83	-37.7	-38.9	29.2	3.02e+01	58	42	0	1031798784	50	6053
2026-01-22 01:51:49.54	343.40	19.69	-37.7	-38.9	29.2	3.02e+01	58	42	0	1033895936	50	6016
2026-01-22 01:51:50.55	343.36	19.54	-37.7	-38.9	29.2	3.02e+01	46	42	0	1035993088	50	5999
2026-01-22 01:51:51.55	343.32	19.40	-37.7	-38.9	29.2	3.02e+01	59	42	0	1037565952	50	6048
2026-01-22 01:51:52.56	343.29	19.26	-37.5	-38.7	29.5	3.02e+01	59	42	0	1039663104	50	5865
2026-01-22 01:51:53.58	343.25	19.12	-37.7	-39.0	29.3	3.02e+01	59	42	0	1041760256	50	6066
2026-01-22 01:51:54.59	343.21	18.98	-37.6	-38.8	29.3	3.02e+01	59	42	0	1043333120	50	5964
2026-01-22 01:51:55.59	343.18	18.84	-37.8	-39.0	29.2	3.02e+01	49	42	0	1045430272	50	6119
2026-01-22 01:51:56.60	343.14	18.70	-37.9	-39.1	29.1	3.02e+01	60	42	0	1047003136	50	6155
2026-01-22 01:51:57.61	343.11	18.56	-37.9	-39.1	29.1	3.02e+01	59	42	0	1049100288	50	6140
2026-01-22 01:51:58.63	343.07	18.43	-37.7	-38.9	29.2	3.02e+01	45	42	0	1051197440	50	6018
2026-01-22 01:51:59.64	343.04	18.29	-37.8	-39.0	29.2	3.02e+01	57	42	0	1052770304	50	6124
2026-01-22 01:52:00.65	343.00	18.16	-37.7	-38.9	29.2	3.02e+01	56	42	0	1054867456	50	6037
2026-01-22 01:52:01.66	342.97	18.02	-37.7	-38.9	29.2	3.02e+01	59	42	0	1056964608	50	6028
2026-01-22 01:52:02.67	342.94	17.89	-37.7	-38.9	29.1	3.02e+01	57	42	0	1058537472	50	6031
2026-01-22 01:52:03.68	342.90	17.76	-37.8	-39.0	29.1	3.02e+01	49	42	0	1060634624	50	6107
2026-01-22 01:52:04.69	342.87	17.62	-37.8	-39.1	29.1	3.02e+01	59	42	0	1062207488	50	6148
2026-01-22 01:52:05.69	342.84	17.49	-37.8	-39.0	29.1	3.02e+01	57	42	0	1064304640	50	6130
2026-01-22 01:52:06.71	342.81	17.36	-37.9	-39.1	29.0	3.02e+01	50	42	0	1066401792	50	6191
2026-01-22 01:52:07.72	342.78	17.23	-37.7	-38.9	29.1	3.02e+01	63	42	0	1067974656	50	6041
2026-01-22 01:52:08.73	342.74	17.10	-37.8	-39.0	29.1	3.02e+01	59	42	0	1070071808	50	6091
2026-01-22 01:52:09.73	342.71	16.98	-37.9	-39.2	29.0	3.02e+01	58	42	0	1071644672	50	6211
2026-01-22 01:52:10.74	342.68	16.85	-37.9	-39.1	29.0	3.02e+01	59	42	0	1073741824	50	6170
2026-01-22 01:52:11.75	342.65	16.72	-37.7	-38.9	29.2	3.02e+01	49	42	0	1075838976	50	6018
2026-01-22 01:52:12.77	342.62	16.59	-37.7	-38.9	29.2	3.02e+01	57	42	0	1077411840	50	6027
2026-01-22 01:52:13.78	342.59	16.47	-37.9	-39.1	29.0	3.02e+01	58	42	0	1079508992	50	6169
2026-01-22 01:52:14.79	342.56	16.34	-37.9	-39.1	29.0	3.02e+01	45	42	0	1081606144	50	6166
2026-01-22 01:52:15.80	342.53	16.22	-38.0	-39.2	28.8	3.02e+01	58	42	0	1083179008	50	6266
2026-01-22 01:52:16.81	342.50	16.10	-37.8	-39.1	29.0	3.02e+01	59	42	0	1085276160	50	6146
2026-01-22 01:52:17.82	342.48	15.97	-37.9	-39.2	28.9	3.02e+01	58	42	0	1086849024	50	6225
2026-01-22 01:52:18.83	342.45	15.85	-37.8	-39.1	29.0	3.02e+01	59	42	0	1088946176	50	6144
2026-01-22 01:52:19.84	342.42	15.73	-37.8	-39.0	29.0	3.02e+01	54	42	0	1091043328	50	6096
2026-01-22 01:52:20.85	342.39	15.61	-37.9	-39.2	28.9	3.02e+01	57	42	0	1092616192	50	6222
2026-01-22 01:52:21.85	342.36	15.49	-37.9	-39.1	29.0	3.02e+01	59	42	0	1094713344	50	6166
2026-01-22 01:52:22.86	342.34	15.37	-37.9	-39.1	29.1	3.02e+01	48	42	0	1096286208	50	6164
2026-01-22 01:52:23.87	342.31	15.25	-37.9	-39.1	28.9	3.02e+01	62	42	0	1098383360	50	6184
2026-01-22 01:52:24.88	342.28	15.14	-37.6	-38.8	29.2	3.02e+01	44	42	0	1100480512	50	5955
2026-01-22 01:52:25.89	342.26	15.02	-37.7	-38.9	29.1	3.02e+01	59	42	0	1102053376	50	6060
2026-01-22 01:52:26.90	342.23	14.90	-37.6	-38.8	29.1	3.02e+01	61	42	0	1104150528	50	5982
2026-01-22 01:52:27.91	342.20	14.79	-37.9	-39.1	28.9	3.02e+01	51	42	0	1105723392	50	6184
2026-01-22 01:52:28.92	342.18	14.67	-37.8	-39.1	28.9	3.02e+01	60	42	0	1107820544	50	6158
2026-01-22 01:52:29.93	342.15	14.55	-37.9	-39.1	28.9	3.02e+01	59	42	0	1109917696	50	6179
2026-01-22 01:52:30.94	342.13	14.44	-38.1	-39.3	28.8	3.02e+01	56	42	0	1111490560	50	6318
2026-01-22 01:52:31.95	342.10	14.33	-37.8	-39.0	29.0	3.02e+01	60	42	0	1113587712	50	6118
2026-01-22 01:52:32.96	342.08	14.21	-37.7	-38.9	29.1	3.02e+01	48	42	0	1115160576	50	6021
2026-01-22 01:52:33.97	342.05	14.10	-37.8	-39.0	29.1	3.02e+01	57	42	0	1117257728	50	6090
2026-01-22 01:52:34.98	342.03	13.99	-37.7	-38.9	29.1	3.02e+01	59	42	0	1119354880	50	6026
2026-01-22 01:52:35.99	342.01	13.88	-37.7	-38.9	29.1	3.02e+01	51	42	0	1120927744	50	6045
2026-01-22 01:52:37.00	341.98	13.77	-37.7	-38.9	29.1	3.02e+01	56	42	0	1123024896	50	6021
2026-01-22 01:52:38.01	341.96	13.66	-37.8	-39.1	29.0	3.02e+01	60	42	0	1124597760	50	6141
2026-01-22 01:52:39.02	341.94	13.55	-37.9	-39.1	29.0	3.02e+01	59	42	0	1126694912	50	6183
2026-01-22 01:52:40.03	341.91	13.44	-38.0	-39.3	28.8	3.02e+01	61	42	0	1128792064	50	6280
2026-01-22 01:52:41.04	341.89	13.33	-38.3	-48.5	3.6	3.02e+01	0	42	104	1128792064	50	18149
2026-01-22 01:52:42.05	341.87	13.22	-38.2	-48.4	3.6	3.02e+01	0	42	104	1128792064	50	17926
2026-01-22 01:52:43.06	341.84	13.11	-38.4	-48.7	3.4	3.02e+01	0	42	104	1128792064	50	18719
2026-01-22 01:52:44.07	341.82	13.00	-38.7	-48.9	3.6	3.02e+01	0	42	104	1128792064	50	19176
2026-01-22 01:52:45.08	341.80	12.90	-41.3	-51.7	3.5	3.02e+01	0	42	104	1128792064	54	20939
2026-01-22 01:52:46.09	341.78	12.79	-51.0	-67.7	3.5	3.02e+01	0	42	104	1128792064	60	93812
2026-01-22 01:52:47.10	341.76	12.69	-42.5	-53.1	3.4	3.02e+01	0	42	104	1128792064	60	17363
2026-01-22 01:52:48.11	341.73	12.58	-50.9	-68.2	3.5	3.02e+01	0	42	104	1128792064	60	99226
2026-01-22 01:52:49.12	341.71	12.48	-43.2	-53.9	3.6	3.02e+01	0	42	104	1128792064	60	18992
2026-01-22 01:52:50.13	341.69	12.37	-42.2	-52.7	3.6	3.02e+01	0	42	104	1128792064	60	16624
2026-01-22 01:52:51.14	341.67	12.27	-41.4	-51.8	3.6	3.02e+01	0	42	104	1128792064	58	16891
2026-01-22 01:52:52.15	341.65	12.16	-40.7	-50.9	3.6	3.02e+01	0	42	104	1128792064	56	17071
2026-01-22 01:52:53.15	341.63	12.06	-45.3	-56.4	3.4	3.02e+01	0	42	104	1128792064	60	25403
2026-01-22 01:52:54.17	341.61	11.96	-43.6	-54.2	4.0	3.02e+01	0	42	104	1128792064	60	19759
2026-01-22 01:52:55.17	341.59	11.86	-51.0	-68.2	3.5	3.02e+01	0	42	104	1128792064	60	98976
2026-01-22 01:52:56.18	341.57	11.76	-50.9	-67.6	3.5	3.02e+01	0	42	104	1128792064	60	92151
2026-01-22 01:52:57.19	341.55	11.66	-41.8	-52.1	4.1	3.02e+01	0	42	104	1128792064	56	19479
2026-01-22 01:52:58.20	341.53	11.56	-40.3	-50.4	3.9	3.02e+01	0	42	104	1128792064	56	15978
2026-01-22 01:52:59.21	341.51	11.46	-41.0	-51.2	3.3	3.02e+01	0	42	104	1128792064	56	17542
2026-01-22 01:53:00.22	341.49	11.36	-41.1	-51.3	4.1	3.02e+01	0	42	104	1128792064	56	17883
2026-01-22 01:53:01.23	341.47	11.26	-40.6	-50.7	3.5	3.02e+01	0	42	104	1128792064	56	16700
2026-01-22 01:53:02.24	341.45	11.16	-40.1	-50.3	3.6	3.02e+01	0	42	104	1128792064	54	17896
2026-01-22 01:53:03.25	341.43	11.06	-40.6	-50.8	3.5	3.02e+01	0	42	104	1128792064	58	14983
2026-01-22 01:53:04.26	341.42	10.96	-50.9	-67.5	3.5	3.02e+01	0	42	104	1128792064	60	91503
2026-01-22 01:53:05.27	341.40	10.87	-40.2	-50.4	3.6	3.02e+01	0	42	104	1128792064	56	15982
2026-01-22 01:53:06.28	341.38	10.77	-50.3	-65.3	3.5	3.02e+01	0	42	104	1128792064	60	71129
2026-01-22 01:53:07.29	341.36	10.67	-39.3	-49.4	3.5	3.02e+01	0	42	104	1128792064	54	16058
2026-01-22 01:53:08.29	341.34	10.58	-39.1	-49.1	3.6	3.02e+01	0	42	104	1128792064	54	15474
