passes_logs/2026/01/22/R4.6S_Anadyr/R4.6S_Anadyr__20260122_020903_SUOMI_NPP_rec.log

#Pass ID: 20260122_020903_SUOMI NPP
#Satellite: SUOMI NPP
#Configuration: NPP
#almurnet v.1.7.20251203
#Start time: 2026-01-22 02:09:04

#Version: 2.2.20231116
#Station: R4.6S_Anadyr
#Location: 177.4865 lon 64.73178 lat
#TLE: 1 37849U 11061A   26020.95430537  .00000198  00000+0  11470-3 0  9999
#TLE: 2 37849  98.7819 322.9518 0002315  53.3069 306.8320 14.19527555737555

#Time	Az	El	Level	Level2	SNR	BER	BlckErr	Temp	State	Recorded	gain1	gain2
2026-01-22 02:09:04.70	204.32	0.09	-52.0	-69.7	3.5	3.02e+01	0	39	0	0	60	116957
2026-01-22 02:09:05.70	204.38	0.15	-52.3	-67.5	3.6	1.51e+00	0	40	104	0	60	85781
2026-01-22 02:09:06.71	204.44	0.20	-52.2	-67.6	3.6	1.51e+00	0	40	104	0	60	86457
2026-01-22 02:09:07.72	204.50	0.25	-51.9	-67.1	3.6	1.51e+00	0	40	104	0	60	81978
2026-01-22 02:09:08.73	204.56	0.31	-51.5	-66.8	3.6	1.51e+00	0	40	104	0	60	78862
2026-01-22 02:09:09.74	204.62	0.36	-51.6	-66.8	3.6	1.51e+00	0	40	104	0	60	79416
2026-01-22 02:09:10.75	204.68	0.42	-51.9	-67.1	3.6	1.51e+00	0	40	104	0	60	82187
2026-01-22 02:09:11.75	204.74	0.47	-51.5	-66.6	3.6	1.51e+00	0	40	104	0	60	77625
2026-01-22 02:09:12.76	204.80	0.53	-51.3	-66.6	3.6	1.51e+00	0	40	104	0	60	77152
2026-01-22 02:09:13.76	204.86	0.58	-51.3	-66.5	3.6	1.51e+00	0	40	104	0	60	76270
2026-01-22 02:09:14.77	204.92	0.64	-51.3	-66.6	3.6	1.51e+00	0	40	104	0	60	76906
2026-01-22 02:09:15.78	204.99	0.69	-51.3	-66.5	3.6	1.51e+00	0	40	104	0	60	76088
2026-01-22 02:09:16.79	205.05	0.75	-51.3	-66.5	3.6	1.51e+00	0	40	104	0	60	76241
2026-01-22 02:09:17.80	205.11	0.80	-51.2	-66.5	3.6	1.51e+00	0	40	104	0	60	76144
2026-01-22 02:09:18.81	205.17	0.86	-51.3	-66.5	3.6	1.51e+00	0	40	104	0	60	76499
2026-01-22 02:09:19.82	205.23	0.91	-51.3	-66.5	3.6	1.51e+00	0	40	104	0	60	76220
2026-01-22 02:09:20.84	205.30	0.97	-51.2	-66.4	3.6	1.51e+00	0	40	104	0	60	75850
2026-01-22 02:09:21.84	205.36	1.02	-51.0	-66.3	3.6	1.51e+00	0	40	104	0	60	74342
2026-01-22 02:09:22.86	205.42	1.08	-51.0	-66.2	3.6	1.51e+00	0	40	104	0	60	74098
2026-01-22 02:09:23.86	205.49	1.13	-50.8	-66.1	3.6	1.51e+00	0	40	104	0	60	73330
2026-01-22 02:09:24.87	205.55	1.19	-50.8	-66.0	3.6	1.51e+00	0	40	104	0	60	72193
2026-01-22 02:09:25.89	205.62	1.25	-50.7	-65.9	3.6	1.51e+00	0	40	104	0	60	71662
2026-01-22 02:09:26.90	205.68	1.30	-50.6	-65.8	3.6	1.51e+00	0	40	104	0	60	70520
2026-01-22 02:09:27.91	205.74	1.36	-50.6	-65.7	3.6	1.51e+00	0	40	104	0	60	69805
2026-01-22 02:09:28.92	205.81	1.41	-50.2	-65.4	3.5	1.51e+00	0	40	104	0	60	67062
2026-01-22 02:09:29.93	205.87	1.47	-49.9	-65.0	3.6	1.51e+00	0	40	104	0	60	64591
2026-01-22 02:09:30.94	205.94	1.52	-49.7	-64.9	3.6	1.51e+00	0	40	104	0	60	63540
2026-01-22 02:09:31.95	206.00	1.58	-49.7	-64.8	3.6	1.51e+00	0	40	104	0	60	63165
2026-01-22 02:09:32.96	206.07	1.64	-49.8	-65.0	3.5	1.51e+00	0	40	104	0	60	64383
2026-01-22 02:09:33.97	206.14	1.69	-49.7	-64.9	3.6	1.51e+00	0	40	104	0	60	63645
2026-01-22 02:09:34.98	206.20	1.75	-49.7	-64.9	3.6	1.51e+00	0	40	104	0	60	63846
2026-01-22 02:09:35.99	206.27	1.81	-49.7	-64.9	3.6	1.51e+00	0	40	104	0	60	63648
2026-01-22 02:09:37.00	206.33	1.86	-49.6	-64.9	3.6	1.51e+00	0	40	104	0	60	63408
2026-01-22 02:09:38.01	206.40	1.92	-49.6	-64.9	3.6	1.51e+00	0	40	104	0	60	63327
2026-01-22 02:09:39.02	206.47	1.98	-49.6	-64.9	3.6	1.51e+00	0	40	104	0	60	63607
2026-01-22 02:09:40.03	206.54	2.03	-49.7	-64.8	3.6	1.51e+00	0	40	104	0	60	63173
2026-01-22 02:09:41.04	206.60	2.09	-49.6	-64.8	3.6	1.51e+00	0	40	104	0	60	62782
2026-01-22 02:09:42.05	206.67	2.15	-49.6	-64.8	3.6	1.51e+00	0	40	104	0	60	62897
2026-01-22 02:09:43.06	206.74	2.20	-49.6	-64.7	3.6	1.51e+00	0	40	104	0	60	62352
2026-01-22 02:09:44.07	206.81	2.26	-49.6	-64.7	3.6	1.51e+00	0	40	104	0	60	62403
2026-01-22 02:09:45.07	206.87	2.32	-49.6	-64.7	3.6	1.51e+00	0	40	104	0	60	62447
2026-01-22 02:09:46.09	206.94	2.38	-49.6	-64.7	3.6	1.51e+00	0	41	104	0	60	62421
2026-01-22 02:09:47.10	207.01	2.43	-49.7	-64.9	3.6	1.51e+00	0	40	104	0	60	63242
2026-01-22 02:09:48.10	207.08	2.49	-49.7	-64.8	3.6	1.51e+00	0	40	104	0	60	62867
2026-01-22 02:09:49.11	207.15	2.55	-49.7	-64.8	3.6	1.51e+00	0	41	104	0	60	62980
2026-01-22 02:09:50.12	207.22	2.61	-49.8	-64.8	3.6	1.51e+00	0	41	104	0	60	62923
2026-01-22 02:09:51.13	207.29	2.66	-49.8	-64.0	3.6	1.51e+00	0	41	104	0	60	57127
2026-01-22 02:09:52.14	207.36	2.72	-49.8	-63.7	3.6	1.51e+00	0	41	104	0	60	55606
2026-01-22 02:09:53.15	207.43	2.78	-49.8	-63.1	3.6	1.51e+00	0	41	104	0	60	51696
2026-01-22 02:09:54.16	207.50	2.84	-50.0	-64.1	3.5	1.51e+00	0	41	104	0	60	58032
2026-01-22 02:09:55.17	207.57	2.90	-49.9	-64.7	3.6	1.51e+00	0	41	104	0	60	62086
2026-01-22 02:09:56.18	207.64	2.95	-49.7	-63.3	3.6	1.51e+00	0	41	104	0	60	52614
2026-01-22 02:09:57.19	207.72	3.01	-49.7	-60.6	4.5	1.49e+00	92	40	104	0	60	38666
2026-01-22 02:09:58.20	207.79	3.07	-49.1	-55.9	7.4	4.41e-01	0	40	0	0	60	22510
2026-01-22 02:09:59.21	207.86	3.13	-48.6	-54.4	9.0	1.07e-01	92	41	0	2097152	60	18864
2026-01-22 02:10:00.22	207.93	3.19	-48.1	-52.6	11.3	5.77e-04	41	41	0	4194304	60	15437
2026-01-22 02:10:01.23	208.01	3.25	-47.8	-52.1	12.0	2.73e-04	92	41	0	6291456	60	14551
2026-01-22 02:10:02.24	208.08	3.31	-48.0	-52.5	12.9	2.02e-04	0	41	0	8388608	60	15274
2026-01-22 02:10:03.25	208.15	3.36	-50.4	-65.4	3.6	1.51e+00	0	41	104	8388608	60	67502
2026-01-22 02:10:04.26	208.22	3.42	-49.4	-57.5	7.0	1.24e+00	82	40	104	8388608	60	27204
2026-01-22 02:10:05.27	208.30	3.48	-49.7	-60.8	3.6	2.56e-02	0	41	104	9437184	60	39656
2026-01-22 02:10:06.28	208.37	3.54	-49.7	-64.2	3.6	1.51e+00	0	41	104	9437184	60	58308
2026-01-22 02:10:07.29	208.45	3.60	-43.9	-45.6	18.5	0.00e+00	0	41	0	9437184	60	6902
2026-01-22 02:10:08.30	208.52	3.66	-44.5	-46.4	17.8	0.00e+00	73	41	0	11534336	60	7532
2026-01-22 02:10:09.31	208.60	3.72	-43.7	-45.3	18.8	0.00e+00	0	41	0	12582912	60	6685
2026-01-22 02:10:10.32	208.67	3.78	-44.3	-46.1	18.0	0.00e+00	92	41	0	14680064	60	7265
2026-01-22 02:10:11.32	208.75	3.84	-44.1	-45.8	18.1	0.00e+00	41	41	0	16777216	60	7084
2026-01-22 02:10:12.33	208.82	3.90	-43.8	-45.5	18.6	0.00e+00	92	41	0	18874368	60	6814
2026-01-22 02:10:13.34	208.90	3.96	-43.5	-45.1	18.9	0.00e+00	92	41	0	20971520	60	6522
2026-01-22 02:10:14.35	208.97	4.02	-43.8	-45.4	18.8	0.00e+00	0	41	0	22020096	60	6741
2026-01-22 02:10:15.36	209.05	4.08	-43.9	-45.5	18.6	0.00e+00	92	41	0	24117248	60	6842
2026-01-22 02:10:16.37	209.13	4.14	-43.9	-45.5	18.7	0.00e+00	0	41	0	26214400	60	6847
2026-01-22 02:10:17.38	209.21	4.20	-43.3	-44.8	19.4	0.00e+00	92	41	0	28311552	60	6313
2026-01-22 02:10:18.39	209.28	4.26	-43.4	-44.9	19.3	0.00e+00	41	41	0	30408704	60	6383
2026-01-22 02:10:19.40	209.36	4.32	-43.4	-45.0	19.1	0.00e+00	92	41	0	31457280	60	6426
2026-01-22 02:10:20.41	209.44	4.38	-43.5	-45.1	19.1	0.00e+00	90	41	0	33554432	60	6472
2026-01-22 02:10:21.42	209.52	4.44	-43.5	-45.0	19.1	0.00e+00	0	41	0	35651584	60	6446
2026-01-22 02:10:22.43	209.60	4.50	-43.2	-44.7	19.5	0.00e+00	92	41	0	37748736	60	6227
2026-01-22 02:10:23.44	209.68	4.56	-43.2	-44.7	19.5	0.00e+00	0	41	0	39845888	60	6199
2026-01-22 02:10:24.45	209.76	4.62	-42.8	-44.2	19.9	0.00e+00	92	41	0	40894464	58	6571
2026-01-22 02:10:25.46	209.84	4.68	-43.5	-45.0	19.2	0.00e+00	0	41	0	42991616	58	7209
2026-01-22 02:10:26.47	209.92	4.74	-43.2	-44.7	19.7	0.00e+00	92	41	0	45088768	58	6933
2026-01-22 02:10:27.48	210.00	4.80	-43.0	-44.4	19.8	0.00e+00	92	41	0	47185920	58	6728
2026-01-22 02:10:28.49	210.08	4.86	-42.9	-44.2	20.0	0.00e+00	0	41	0	49283072	58	6610
2026-01-22 02:10:29.50	210.16	4.93	-42.9	-44.2	19.9	0.00e+00	92	41	0	50331648	58	6609
2026-01-22 02:10:30.51	210.24	4.99	-43.0	-44.5	19.9	0.00e+00	0	41	0	52428800	58	6793
2026-01-22 02:10:31.52	210.32	5.05	-42.6	-44.0	20.0	0.00e+00	92	41	0	54525952	58	6441
2026-01-22 02:10:32.53	210.40	5.11	-42.6	-44.0	20.1	0.00e+00	0	41	0	56623104	58	6393
2026-01-22 02:10:33.54	210.48	5.17	-42.6	-43.9	20.4	0.00e+00	92	41	0	58720256	58	6343
2026-01-22 02:10:34.54	210.57	5.23	-42.3	-43.6	20.5	0.00e+00	92	41	0	59768832	58	6123
2026-01-22 02:10:35.55	210.65	5.29	-42.2	-43.5	20.7	0.00e+00	76	41	0	61865984	58	6038
2026-01-22 02:10:36.56	210.73	5.36	-42.2	-43.5	20.6	0.00e+00	36	41	0	63963136	58	6042
2026-01-22 02:10:37.57	210.82	5.42	-42.3	-43.6	20.4	0.00e+00	0	41	0	66060288	58	6140
2026-01-22 02:10:38.58	210.90	5.48	-42.0	-43.2	20.8	0.00e+00	90	41	0	68157440	58	5861
2026-01-22 02:10:39.59	210.98	5.54	-41.9	-43.2	20.6	0.00e+00	0	41	0	69206016	58	5847
2026-01-22 02:10:40.60	211.07	5.61	-42.1	-43.3	20.7	0.00e+00	92	41	0	71303168	58	5928
2026-01-22 02:10:41.61	211.15	5.67	-42.3	-43.5	20.6	0.00e+00	38	41	0	73400320	58	6071
2026-01-22 02:10:42.62	211.24	5.73	-42.2	-43.5	20.8	0.00e+00	0	41	0	75497472	58	6038
2026-01-22 02:10:43.63	211.33	5.79	-41.9	-43.1	21.0	0.00e+00	92	41	0	77594624	58	5776
2026-01-22 02:10:44.64	211.41	5.86	-42.5	-43.8	20.4	0.00e+00	0	41	0	79691776	58	6307
2026-01-22 02:10:45.65	211.50	5.92	-42.4	-43.7	20.5	0.00e+00	73	41	0	80740352	58	6177
2026-01-22 02:10:46.66	211.59	5.98	-42.7	-44.0	20.3	0.00e+00	0	41	0	82837504	58	6432
2026-01-22 02:10:47.67	211.67	6.04	-42.7	-44.0	20.3	0.00e+00	92	41	0	84934656	58	6423
2026-01-22 02:10:48.68	211.76	6.11	-42.6	-43.9	20.3	0.00e+00	39	41	0	87031808	58	6334
2026-01-22 02:10:49.69	211.85	6.17	-42.5	-43.8	20.4	0.00e+00	92	41	0	89128960	58	6311
2026-01-22 02:10:50.70	211.94	6.23	-42.7	-44.1	20.1	0.00e+00	92	41	0	90177536	58	6503
2026-01-22 02:10:51.71	212.02	6.30	-42.7	-44.1	20.2	0.00e+00	0	41	0	92274688	58	6477
2026-01-22 02:10:52.72	212.11	6.36	-42.9	-44.3	20.0	0.00e+00	57	41	0	94371840	58	6620
2026-01-22 02:10:53.73	212.20	6.42	-42.9	-44.3	20.0	0.00e+00	0	41	0	96468992	58	6668
2026-01-22 02:10:54.73	212.29	6.49	-42.5	-43.8	20.4	0.00e+00	80	41	0	98566144	58	6296
2026-01-22 02:10:55.74	212.38	6.55	-42.5	-43.8	20.5	0.00e+00	0	41	0	99614720	58	6278
2026-01-22 02:10:56.75	212.47	6.61	-42.7	-44.1	20.2	0.00e+00	92	41	0	101711872	58	6472
2026-01-22 02:10:57.76	212.56	6.68	-42.8	-44.1	20.3	0.00e+00	92	41	0	103809024	58	6494
2026-01-22 02:10:58.77	212.65	6.74	-42.3	-43.5	20.8	0.00e+00	0	41	0	105906176	58	6086
2026-01-22 02:10:59.78	212.75	6.81	-42.2	-43.4	20.8	0.00e+00	83	41	0	108003328	58	6020
2026-01-22 02:11:00.79	212.84	6.87	-42.3	-43.5	20.8	0.00e+00	0	41	0	109051904	58	6071
2026-01-22 02:11:01.80	212.93	6.94	-42.1	-43.3	20.8	0.00e+00	92	41	0	111149056	58	5934
2026-01-22 02:11:02.81	213.02	7.00	-42.0	-43.2	21.0	0.00e+00	0	41	0	113246208	58	5847
2026-01-22 02:11:03.82	213.12	7.06	-42.3	-43.6	20.6	0.00e+00	90	41	0	115343360	58	6120
2026-01-22 02:11:04.83	213.21	7.13	-41.7	-42.9	21.3	0.00e+00	42	41	0	117440512	56	6353
2026-01-22 02:11:05.84	213.30	7.19	-42.2	-43.4	21.0	0.00e+00	0	41	0	118489088	56	6755
2026-01-22 02:11:06.84	213.40	7.26	-42.2	-43.4	21.0	0.00e+00	92	41	0	120586240	56	6735
2026-01-22 02:11:07.85	213.49	7.32	-42.1	-43.3	21.0	0.00e+00	0	41	0	122683392	56	6690
2026-01-22 02:11:08.86	213.59	7.39	-42.2	-43.4	21.0	0.00e+00	92	41	0	124780544	56	6759
2026-01-22 02:11:09.87	213.68	7.45	-42.4	-43.6	21.1	0.00e+00	0	41	0	126877696	56	6910
2026-01-22 02:11:10.88	213.78	7.52	-41.9	-43.1	21.3	0.00e+00	92	41	0	127926272	56	6495
2026-01-22 02:11:11.89	213.88	7.58	-42.1	-43.3	21.2	0.00e+00	43	41	0	130023424	56	6643
2026-01-22 02:11:12.90	213.97	7.65	-41.9	-43.0	21.4	0.00e+00	40	41	0	132120576	56	6455
2026-01-22 02:11:13.91	214.07	7.72	-41.7	-42.9	21.3	0.00e+00	92	41	0	134217728	56	6332
2026-01-22 02:11:14.92	214.17	7.78	-42.1	-43.3	21.2	0.00e+00	0	41	0	136314880	56	6658
2026-01-22 02:11:15.93	214.27	7.85	-42.2	-43.4	21.1	0.00e+00	64	41	0	137363456	56	6701
2026-01-22 02:11:16.94	214.36	7.91	-42.0	-43.2	21.3	0.00e+00	0	41	0	139460608	56	6571
2026-01-22 02:11:17.95	214.46	7.98	-42.1	-43.3	21.2	0.00e+00	92	41	0	141557760	56	6661
2026-01-22 02:11:18.96	214.56	8.05	-41.8	-43.0	21.5	0.00e+00	0	41	0	143654912	56	6410
2026-01-22 02:11:19.97	214.66	8.11	-41.8	-43.0	21.5	0.00e+00	92	41	0	145752064	56	6392
2026-01-22 02:11:20.98	214.76	8.18	-41.9	-43.0	21.4	0.00e+00	90	41	0	147849216	56	6461
2026-01-22 02:11:21.99	214.86	8.24	-41.7	-42.8	21.5	0.00e+00	0	41	0	148897792	56	6310
2026-01-22 02:11:23.00	214.96	8.31	-41.6	-42.8	21.7	0.00e+00	70	41	0	150994944	56	6250
2026-01-22 02:11:24.00	215.06	8.38	-41.8	-42.9	21.5	0.00e+00	0	41	0	153092096	56	6382
2026-01-22 02:11:25.01	215.17	8.44	-41.2	-42.3	21.8	0.00e+00	90	41	0	155189248	56	5939
2026-01-22 02:11:26.02	215.27	8.51	-41.5	-42.6	21.6	0.00e+00	9	41	0	157286400	56	6121
2026-01-22 02:11:27.03	215.37	8.58	-41.2	-42.3	21.9	0.00e+00	92	41	0	158334976	56	5940
2026-01-22 02:11:28.04	215.48	8.64	-41.3	-42.3	21.8	0.00e+00	92	41	0	160432128	56	5951
2026-01-22 02:11:29.05	215.58	8.71	-41.0	-42.0	22.1	0.00e+00	0	41	0	162529280	56	5724
2026-01-22 02:11:30.06	215.68	8.78	-41.1	-42.2	21.9	0.00e+00	38	41	0	164626432	56	5853
2026-01-22 02:11:31.07	215.79	8.85	-41.2	-42.2	22.0	0.00e+00	0	41	0	166723584	56	5879
2026-01-22 02:11:32.08	215.89	8.91	-41.3	-42.4	21.8	0.00e+00	92	41	0	167772160	56	5965
2026-01-22 02:11:33.09	216.00	8.98	-41.4	-42.5	21.8	0.00e+00	0	41	0	169869312	56	6047
2026-01-22 02:11:34.10	216.11	9.05	-41.1	-42.1	22.0	0.00e+00	92	41	0	171966464	56	5821
2026-01-22 02:11:35.11	216.21	9.12	-41.3	-42.4	21.8	0.00e+00	72	41	0	174063616	56	5966
2026-01-22 02:11:36.12	216.32	9.18	-41.4	-42.4	21.8	0.00e+00	0	41	0	176160768	56	6020
2026-01-22 02:11:37.13	216.43	9.25	-41.3	-42.4	21.8	0.00e+00	90	41	0	177209344	56	6002
2026-01-22 02:11:38.14	216.53	9.32	-41.5	-42.6	21.6	0.00e+00	0	41	0	179306496	56	6168
2026-01-22 02:11:39.15	216.64	9.39	-41.8	-43.0	21.4	0.00e+00	45	41	0	181403648	56	6396
2026-01-22 02:11:40.16	216.75	9.46	-41.6	-42.7	21.5	0.00e+00	0	41	0	183500800	56	6212
2026-01-22 02:11:41.17	216.86	9.52	-41.8	-42.9	21.5	0.00e+00	90	41	0	185597952	56	6376
2026-01-22 02:11:42.18	216.97	9.59	-42.0	-43.1	21.2	0.00e+00	92	41	0	186646528	56	6529
2026-01-22 02:11:43.19	217.08	9.66	-41.9	-43.1	21.2	0.00e+00	44	41	0	188743680	56	6468
2026-01-22 02:11:44.20	217.19	9.73	-42.0	-43.2	21.2	0.00e+00	92	41	0	190840832	56	6594
2026-01-22 02:11:45.21	217.30	9.80	-42.0	-43.2	21.1	0.00e+00	0	41	0	192937984	56	6592
2026-01-22 02:11:46.21	217.42	9.87	-41.9	-43.1	21.3	0.00e+00	92	41	0	195035136	56	6503
2026-01-22 02:11:47.23	217.53	9.94	-41.8	-43.0	21.4	0.00e+00	0	41	0	196083712	56	6428
2026-01-22 02:11:48.24	217.64	10.01	-41.9	-43.1	21.2	0.00e+00	92	41	0	198180864	56	6488
2026-01-22 02:11:49.24	217.75	10.07	-41.8	-43.0	21.3	0.00e+00	92	41	0	200278016	56	6394
2026-01-22 02:11:50.25	217.87	10.14	-41.5	-42.6	21.6	0.00e+00	92	41	0	202375168	56	6158
2026-01-22 02:11:51.26	217.98	10.21	-41.8	-42.9	21.3	0.00e+00	92	41	0	204472320	56	6389
2026-01-22 02:11:52.27	218.10	10.28	-41.5	-42.6	21.8	0.00e+00	0	41	0	205520896	56	6159
2026-01-22 02:11:53.28	218.21	10.35	-41.8	-43.0	21.3	0.00e+00	92	41	0	207618048	56	6392
2026-01-22 02:11:54.29	218.33	10.42	-41.7	-42.9	21.5	0.00e+00	0	41	0	209715200	56	6322
2026-01-22 02:11:55.30	218.45	10.49	-41.6	-42.7	21.6	0.00e+00	90	41	0	211812352	56	6192
2026-01-22 02:11:56.31	218.56	10.56	-41.4	-42.4	21.8	0.00e+00	45	41	0	213909504	56	6033
2026-01-22 02:11:57.32	218.68	10.63	-41.1	-42.2	22.0	0.00e+00	92	41	0	216006656	56	5842
2026-01-22 02:11:58.33	218.80	10.70	-41.1	-42.2	22.0	0.00e+00	92	41	0	217055232	56	5846
2026-01-22 02:11:59.34	218.92	10.77	-41.1	-42.2	22.0	0.00e+00	0	41	0	219152384	56	5845
2026-01-22 02:12:00.35	219.04	10.84	-41.0	-42.0	22.1	0.00e+00	92	41	0	221249536	56	5757
2026-01-22 02:12:01.36	219.16	10.91	-41.3	-42.3	21.5	0.00e+00	0	41	0	223346688	56	5954
2026-01-22 02:12:02.36	219.28	10.98	-41.2	-42.2	22.0	0.00e+00	92	41	0	225443840	56	5877
2026-01-22 02:12:03.37	219.40	11.05	-41.1	-42.1	22.0	0.00e+00	0	41	0	226492416	56	5814
2026-01-22 02:12:04.38	219.52	11.12	-41.1	-42.1	22.2	0.00e+00	90	41	0	228589568	56	5785
2026-01-22 02:12:05.39	219.64	11.19	-41.5	-42.5	22.0	0.00e+00	92	41	0	230686720	56	6097
2026-01-22 02:12:06.40	219.77	11.26	-41.1	-42.1	22.1	0.00e+00	0	41	0	232783872	56	5814
2026-01-22 02:12:07.41	219.89	11.33	-41.3	-42.4	22.1	0.00e+00	92	41	0	234881024	56	5972
2026-01-22 02:12:08.42	220.01	11.40	-41.2	-42.3	22.1	0.00e+00	0	41	0	235929600	56	5923
2026-01-22 02:12:09.43	220.14	11.47	-41.3	-42.4	22.0	0.00e+00	92	41	0	238026752	56	6009
2026-01-22 02:12:10.44	220.26	11.55	-41.3	-42.3	22.1	0.00e+00	0	41	0	240123904	56	5938
2026-01-22 02:12:11.45	220.39	11.62	-41.3	-42.3	22.1	0.00e+00	92	41	0	242221056	56	5941
2026-01-22 02:12:12.46	220.51	11.69	-41.3	-42.4	22.0	0.00e+00	92	41	0	244318208	56	5991
2026-01-22 02:12:13.47	220.64	11.76	-41.2	-42.2	22.2	0.00e+00	0	41	0	245366784	56	5882
2026-01-22 02:12:14.48	220.77	11.83	-41.4	-42.5	22.0	0.00e+00	80	41	0	247463936	56	6090
2026-01-22 02:12:15.49	220.90	11.90	-41.3	-42.4	21.9	0.00e+00	0	41	0	249561088	56	5988
2026-01-22 02:12:16.51	221.03	11.97	-41.3	-42.4	21.9	0.00e+00	92	41	0	251658240	56	5974
2026-01-22 02:12:17.52	221.16	12.05	-41.4	-42.4	21.9	0.00e+00	0	41	0	253755392	56	6016
2026-01-22 02:12:18.53	221.29	12.12	-41.4	-42.5	21.9	0.00e+00	92	41	0	254803968	56	6084
2026-01-22 02:12:19.54	221.42	12.19	-41.4	-42.5	21.9	0.00e+00	92	41	0	256901120	56	6053
2026-01-22 02:12:20.55	221.55	12.26	-41.4	-42.5	21.8	0.00e+00	0	41	0	258998272	56	6034
2026-01-22 02:12:21.56	221.68	12.33	-41.6	-42.7	21.7	0.00e+00	92	41	0	261095424	56	6213
2026-01-22 02:12:22.57	221.81	12.40	-41.6	-42.7	21.7	0.00e+00	0	41	0	263192576	56	6228
2026-01-22 02:12:23.58	221.94	12.48	-41.8	-43.0	21.5	0.00e+00	92	41	0	264241152	56	6433
2026-01-22 02:12:24.59	222.08	12.55	-41.8	-42.9	21.5	0.00e+00	0	41	0	266338304	56	6380
2026-01-22 02:12:25.60	222.21	12.62	-42.0	-43.1	21.3	0.00e+00	92	41	0	268435456	56	6533
2026-01-22 02:12:26.61	222.35	12.69	-41.9	-43.1	21.4	0.00e+00	0	41	0	270532608	56	6467
2026-01-22 02:12:27.62	222.48	12.77	-41.8	-42.9	21.6	0.00e+00	75	41	0	272629760	56	6348
2026-01-22 02:12:28.62	222.62	12.84	-41.9	-43.0	21.4	0.00e+00	92	41	0	273678336	56	6463
2026-01-22 02:12:29.64	222.75	12.91	-41.8	-42.9	21.6	0.00e+00	0	41	0	275775488	56	6354
2026-01-22 02:12:30.64	222.89	12.98	-41.7	-42.9	21.6	0.00e+00	90	41	0	277872640	56	6322
2026-01-22 02:12:31.66	223.03	13.06	-41.5	-42.6	21.8	0.00e+00	0	41	0	279969792	56	6128
2026-01-22 02:12:32.67	223.17	13.13	-41.4	-42.5	21.8	0.00e+00	92	41	0	282066944	56	6080
2026-01-22 02:12:33.68	223.31	13.20	-41.5	-42.6	21.8	0.00e+00	0	41	0	284164096	56	6142
2026-01-22 02:12:34.68	223.45	13.27	-41.3	-42.4	22.1	0.00e+00	92	41	0	285212672	56	5974
2026-01-22 02:12:35.69	223.59	13.35	-41.3	-42.3	22.2	0.00e+00	92	41	0	287309824	56	5955
2026-01-22 02:12:36.70	223.73	13.42	-41.3	-42.3	22.2	0.00e+00	0	41	0	289406976	56	5935
2026-01-22 02:12:37.71	223.87	13.49	-41.3	-42.4	22.0	0.00e+00	92	41	0	291504128	56	5990
2026-01-22 02:12:38.72	224.01	13.57	-41.2	-42.2	22.2	0.00e+00	0	41	0	293601280	56	5853
2026-01-22 02:12:39.73	224.16	13.64	-41.1	-42.1	22.3	0.00e+00	92	41	0	294649856	56	5779
2026-01-22 02:12:40.74	224.30	13.71	-40.8	-41.8	22.5	0.00e+00	0	41	0	296747008	56	5587
2026-01-22 02:12:41.75	224.45	13.78	-40.3	-41.2	22.9	0.00e+00	92	41	0	298844160	54	5882
2026-01-22 02:12:42.76	224.59	13.86	-40.4	-41.3	22.9	0.00e+00	92	41	0	300941312	54	5944
2026-01-22 02:12:43.77	224.74	13.93	-40.5	-41.4	22.8	0.00e+00	0	42	0	303038464	54	6028
2026-01-22 02:12:44.78	224.88	14.00	-40.5	-41.5	22.9	0.00e+00	84	41	0	304087040	54	6067
2026-01-22 02:12:45.79	225.03	14.08	-40.5	-41.5	22.9	0.00e+00	0	41	0	306184192	54	6038
2026-01-22 02:12:46.80	225.18	14.15	-40.4	-41.3	22.9	0.00e+00	92	41	0	308281344	54	5959
2026-01-22 02:12:47.81	225.33	14.23	-40.6	-41.5	22.9	0.00e+00	0	41	0	310378496	54	6101
2026-01-22 02:12:48.82	225.48	14.30	-40.4	-41.4	22.8	0.00e+00	92	41	0	312475648	54	5997
2026-01-22 02:12:49.84	225.63	14.37	-40.4	-41.4	22.9	0.00e+00	90	41	0	313524224	54	5983
2026-01-22 02:12:50.84	225.78	14.45	-40.3	-41.3	22.9	0.00e+00	17	41	0	315621376	54	5929
2026-01-22 02:12:51.85	225.93	14.52	-40.6	-41.5	22.7	0.00e+00	90	41	0	317718528	54	6092
2026-01-22 02:12:52.86	226.09	14.59	-40.5	-41.4	22.5	0.00e+00	0	41	0	319815680	54	6014
2026-01-22 02:12:53.88	226.24	14.67	-40.5	-41.4	22.8	0.00e+00	92	41	0	321912832	54	6009
2026-01-22 02:12:54.89	226.39	14.74	-41.0	-42.0	22.2	0.00e+00	0	41	0	322961408	54	6410
2026-01-22 02:12:55.90	226.55	14.82	-40.7	-41.7	22.5	0.00e+00	91	41	0	325058560	54	6227
2026-01-22 02:12:56.91	226.70	14.89	-40.7	-41.7	22.5	0.00e+00	43	41	0	327155712	54	6232
2026-01-22 02:12:57.92	226.86	14.96	-40.9	-41.9	22.4	0.00e+00	69	41	0	329252864	54	6381
2026-01-22 02:12:58.93	227.02	15.04	-41.1	-42.1	22.2	0.00e+00	90	41	0	331350016	54	6524
2026-01-22 02:12:59.94	227.18	15.11	-41.1	-42.1	22.2	0.00e+00	0	41	0	332398592	54	6518
2026-01-22 02:13:00.95	227.33	15.19	-41.2	-42.2	22.1	0.00e+00	81	41	0	334495744	54	6582
2026-01-22 02:13:01.96	227.49	15.26	-41.2	-42.2	22.2	0.00e+00	0	41	0	336592896	54	6604
2026-01-22 02:13:02.97	227.65	15.33	-41.3	-42.3	22.0	0.00e+00	90	41	0	338690048	54	6648
2026-01-22 02:13:03.98	227.82	15.41	-41.3	-42.3	22.1	0.00e+00	26	41	0	340787200	54	6659
2026-01-22 02:13:04.99	227.98	15.48	-41.1	-42.1	22.4	0.00e+00	85	41	0	341835776	54	6494
2026-01-22 02:13:06.00	228.14	15.56	-41.1	-42.1	22.3	0.00e+00	91	41	0	343932928	54	6503
2026-01-22 02:13:07.00	228.30	15.63	-40.9	-41.9	22.5	0.00e+00	0	41	0	346030080	54	6332
2026-01-22 02:13:08.01	228.46	15.70	-40.5	-41.5	22.9	0.00e+00	92	41	0	348127232	54	6051
2026-01-22 02:13:09.02	228.63	15.78	-40.6	-41.6	22.8	0.00e+00	0	41	0	350224384	54	6104
2026-01-22 02:13:10.03	228.80	15.85	-40.1	-41.0	23.2	0.00e+00	91	41	0	352321536	54	5743
2026-01-22 02:13:11.04	228.96	15.93	-40.1	-41.0	23.2	0.00e+00	0	41	0	353370112	54	5717
2026-01-22 02:13:12.05	229.13	16.00	-40.0	-40.9	23.3	0.00e+00	91	42	0	355467264	54	5652
2026-01-22 02:13:13.06	229.30	16.07	-40.0	-41.0	23.2	0.00e+00	92	41	0	357564416	54	5709
2026-01-22 02:13:14.07	229.47	16.15	-39.8	-40.7	23.3	0.00e+00	0	41	0	359661568	54	5556
2026-01-22 02:13:15.08	229.64	16.22	-39.9	-40.8	23.3	0.00e+00	92	41	0	361758720	52	6317
2026-01-22 02:13:16.09	229.81	16.30	-40.0	-40.9	23.3	0.00e+00	0	42	0	362807296	52	6386
2026-01-22 02:13:17.10	229.98	16.37	-39.7	-40.6	23.5	0.00e+00	53	42	0	364904448	52	6166
2026-01-22 02:13:18.11	230.15	16.44	-39.6	-40.5	23.6	0.00e+00	12	41	0	367001600	52	6073
2026-01-22 02:13:19.12	230.32	16.52	-39.4	-40.3	23.9	0.00e+00	92	41	0	369098752	52	5933
2026-01-22 02:13:20.13	230.50	16.59	-39.6	-40.5	23.6	0.00e+00	91	42	0	371195904	52	6082
2026-01-22 02:13:21.14	230.67	16.67	-39.4	-40.3	23.7	0.00e+00	0	41	0	372244480	52	5925
2026-01-22 02:13:22.15	230.85	16.74	-39.7	-40.6	23.6	0.00e+00	92	41	0	374341632	52	6168
2026-01-22 02:13:23.15	231.02	16.81	-39.7	-40.6	23.5	0.00e+00	0	41	0	376438784	52	6122
2026-01-22 02:13:24.16	231.20	16.89	-40.1	-41.0	23.2	0.00e+00	92	41	0	378535936	52	6441
2026-01-22 02:13:25.17	231.37	16.96	-40.1	-41.0	23.2	0.00e+00	0	41	0	380633088	52	6463
2026-01-22 02:13:26.18	231.55	17.04	-40.4	-41.4	22.9	0.00e+00	90	41	0	381681664	52	6707
2026-01-22 02:13:27.19	231.73	17.11	-40.5	-41.4	22.8	0.00e+00	92	41	0	383778816	52	6743
2026-01-22 02:13:28.20	231.91	17.18	-40.5	-41.4	22.9	0.00e+00	92	41	0	385875968	54	6012
2026-01-22 02:13:29.21	232.09	17.26	-40.3	-41.2	23.1	0.00e+00	92	41	0	387973120	54	5852
2026-01-22 02:13:30.22	232.28	17.33	-40.2	-41.1	23.1	0.00e+00	0	41	0	390070272	54	5788
2026-01-22 02:13:31.23	232.46	17.40	-40.0	-41.0	23.3	0.00e+00	92	41	0	391118848	54	5696
2026-01-22 02:13:32.24	232.64	17.48	-40.1	-41.1	23.0	0.00e+00	0	41	0	393216000	54	5772
2026-01-22 02:13:33.25	232.83	17.55	-40.4	-41.4	22.9	0.00e+00	92	41	0	395313152	54	5987
2026-01-22 02:13:34.26	233.01	17.62	-40.3	-41.3	23.1	0.00e+00	92	41	0	397410304	54	5913
2026-01-22 02:13:35.27	233.20	17.70	-40.6	-41.6	22.8	0.00e+00	90	41	0	399507456	54	6126
2026-01-22 02:13:36.28	233.39	17.77	-40.5	-41.5	22.8	0.00e+00	92	41	0	400556032	54	6049
2026-01-22 02:13:37.29	233.58	17.84	-40.3	-41.3	23.1	0.00e+00	0	41	0	402653184	54	5912
2026-01-22 02:13:38.30	233.77	17.92	-40.0	-40.9	23.3	0.00e+00	92	41	0	404750336	54	5683
2026-01-22 02:13:39.31	233.96	17.99	-40.1	-41.0	23.3	0.00e+00	0	41	0	406847488	54	5748
2026-01-22 02:13:40.32	234.15	18.06	-40.2	-41.1	23.3	0.00e+00	92	41	0	408944640	54	5764
2026-01-22 02:13:41.33	234.34	18.14	-39.7	-40.6	23.8	0.00e+00	91	41	0	409993216	52	6107
2026-01-22 02:13:42.34	234.53	18.21	-39.7	-40.5	23.6	0.00e+00	92	41	0	412090368	52	6093
2026-01-22 02:13:43.35	234.72	18.28	-39.5	-40.4	23.7	0.00e+00	92	41	0	414187520	52	6005
2026-01-22 02:13:44.35	234.92	18.35	-39.3	-40.2	23.9	0.00e+00	0	41	0	416284672	52	5855
2026-01-22 02:13:45.36	235.11	18.42	-39.2	-40.1	23.9	0.00e+00	90	42	0	418381824	52	5773
2026-01-22 02:13:46.37	235.31	18.50	-39.1	-39.9	24.1	0.00e+00	0	41	0	420478976	52	5664
2026-01-22 02:13:47.38	235.51	18.57	-38.9	-39.7	24.2	0.00e+00	90	41	0	421527552	52	5552
2026-01-22 02:13:48.39	235.70	18.64	-38.9	-39.7	24.2	0.00e+00	46	41	0	423624704	52	5530
2026-01-22 02:13:49.40	235.90	18.71	-38.8	-39.6	24.2	0.00e+00	92	41	0	425721856	50	6168
2026-01-22 02:13:50.40	236.10	18.78	-38.8	-39.6	24.2	0.00e+00	92	41	0	427819008	50	6173
2026-01-22 02:13:51.42	236.30	18.86	-38.8	-39.6	24.3	0.00e+00	0	41	0	429916160	50	6165
2026-01-22 02:13:52.43	236.51	18.93	-39.1	-39.9	24.1	0.00e+00	92	41	0	430964736	50	6363
2026-01-22 02:13:53.44	236.71	19.00	-39.0	-39.9	24.2	0.00e+00	0	41	0	433061888	50	6324
2026-01-22 02:13:54.45	236.91	19.07	-39.0	-39.8	24.1	0.00e+00	90	41	0	435159040	50	6317
2026-01-22 02:13:55.45	237.12	19.14	-38.9	-39.8	24.3	0.00e+00	0	41	0	437256192	50	6252
2026-01-22 02:13:56.46	237.32	19.21	-38.7	-39.5	24.4	0.00e+00	92	41	0	439353344	50	6101
2026-01-22 02:13:57.47	237.53	19.28	-38.9	-39.8	24.2	0.00e+00	92	41	0	440401920	50	6252
2026-01-22 02:13:58.48	237.73	19.35	-38.8	-39.6	24.4	0.00e+00	0	41	0	442499072	50	6121
2026-01-22 02:13:59.49	237.94	19.42	-39.0	-39.8	24.1	0.00e+00	90	41	0	444596224	50	6295
2026-01-22 02:14:00.50	238.15	19.49	-39.2	-40.1	24.2	0.00e+00	0	41	0	446693376	50	6483
2026-01-22 02:14:01.51	238.36	19.57	-39.3	-40.1	23.9	0.00e+00	92	41	0	448790528	50	6513
2026-01-22 02:14:02.52	238.57	19.63	-38.8	-39.6	24.3	0.00e+00	0	42	0	449839104	50	6124
2026-01-22 02:14:03.53	238.79	19.70	-38.8	-39.7	24.3	0.00e+00	92	41	0	451936256	50	6175
2026-01-22 02:14:04.54	239.00	19.77	-38.9	-39.8	24.2	0.00e+00	38	42	0	454033408	50	6255
2026-01-22 02:14:05.55	239.21	19.84	-38.8	-39.6	24.2	0.00e+00	53	41	0	456130560	50	6168
2026-01-22 02:14:06.56	239.43	19.91	-39.0	-39.8	24.1	0.00e+00	92	41	0	458227712	50	6275
2026-01-22 02:14:07.57	239.64	19.98	-39.2	-40.0	24.1	0.00e+00	0	41	0	459276288	50	6435
2026-01-22 02:14:08.58	239.86	20.05	-39.4	-40.2	23.9	0.00e+00	92	41	0	461373440	50	6573
2026-01-22 02:14:09.58	240.08	20.12	-39.1	-39.9	24.2	0.00e+00	0	41	0	463470592	50	6366
2026-01-22 02:14:10.59	240.29	20.19	-39.2	-40.0	24.1	0.00e+00	91	42	0	465567744	50	6460
2026-01-22 02:14:11.61	240.52	20.26	-39.4	-40.3	23.9	0.00e+00	92	41	0	467664896	50	6621
2026-01-22 02:14:12.61	240.73	20.32	-39.4	-40.3	23.9	0.00e+00	91	41	0	468713472	50	6641
2026-01-22 02:14:13.62	240.96	20.39	-39.5	-40.3	23.9	0.00e+00	90	41	0	470810624	50	6666
2026-01-22 02:14:14.63	241.18	20.46	-39.2	-40.0	24.2	0.00e+00	0	41	0	472907776	50	6425
2026-01-22 02:14:15.64	241.40	20.52	-39.1	-39.9	24.1	0.00e+00	71	41	0	475004928	50	6350
2026-01-22 02:14:16.65	241.63	20.59	-39.2	-40.0	24.1	0.00e+00	0	41	0	477102080	50	6432
2026-01-22 02:14:17.66	241.85	20.66	-39.1	-39.9	24.2	0.00e+00	92	41	0	478150656	50	6370
2026-01-22 02:14:18.67	242.08	20.72	-39.3	-40.2	24.1	0.00e+00	38	41	0	480247808	50	6558
2026-01-22 02:14:19.68	242.30	20.79	-39.7	-40.6	23.7	0.00e+00	92	41	0	482344960	50	6856
2026-01-22 02:14:20.69	242.53	20.86	-39.9	-40.8	23.6	0.00e+00	92	41	0	484442112	52	6285
2026-01-22 02:14:21.70	242.76	20.92	-40.1	-41.0	23.6	0.00e+00	0	41	0	486539264	52	6407
2026-01-22 02:14:22.71	242.99	20.99	-39.9	-40.8	23.6	0.00e+00	92	41	0	488636416	52	6274
2026-01-22 02:14:23.72	243.22	21.05	-39.8	-40.6	23.8	0.00e+00	0	42	0	489684992	52	6151
2026-01-22 02:14:24.73	243.45	21.12	-39.7	-40.5	23.7	0.00e+00	90	41	0	491782144	52	6094
2026-01-22 02:14:25.74	243.69	21.18	-39.7	-40.6	23.7	0.00e+00	9	42	0	493879296	52	6147
2026-01-22 02:14:26.75	243.92	21.25	-39.8	-40.7	23.5	0.00e+00	92	41	0	495976448	52	6217
2026-01-22 02:14:27.76	244.16	21.31	-40.1	-41.0	23.3	0.00e+00	92	41	0	498073600	52	6450
2026-01-22 02:14:28.77	244.39	21.37	-40.1	-41.0	23.4	0.00e+00	0	41	0	499122176	52	6398
2026-01-22 02:14:29.78	244.63	21.44	-40.0	-40.9	23.4	0.00e+00	92	41	0	501219328	52	6342
2026-01-22 02:14:30.79	244.87	21.50	-39.6	-40.5	23.7	0.00e+00	0	41	0	503316480	52	6042
2026-01-22 02:14:31.80	245.10	21.56	-39.6	-40.4	23.8	0.00e+00	84	41	0	505413632	52	5999
2026-01-22 02:14:32.80	245.34	21.62	-39.7	-40.5	23.6	0.00e+00	0	41	0	506462208	52	6091
2026-01-22 02:14:33.82	245.58	21.68	-40.1	-41.0	23.4	0.00e+00	90	41	0	508559360	52	6393
2026-01-22 02:14:34.83	245.82	21.75	-40.3	-41.2	23.0	0.00e+00	92	42	0	510656512	52	6594
2026-01-22 02:14:35.84	246.07	21.81	-40.8	-41.8	22.7	0.00e+00	0	41	0	512753664	54	6314
2026-01-22 02:14:36.85	246.31	21.87	-41.0	-42.0	22.6	0.00e+00	92	42	0	514850816	54	6420
2026-01-22 02:14:37.86	246.55	21.93	-40.7	-41.7	22.8	0.00e+00	0	41	0	516947968	54	6207
2026-01-22 02:14:38.87	246.80	21.99	-40.4	-41.3	23.0	0.00e+00	82	41	0	517996544	54	5935
2026-01-22 02:14:39.88	247.05	22.05	-40.2	-41.1	23.6	0.00e+00	0	41	0	520093696	54	5796
2026-01-22 02:14:40.89	247.29	22.11	-40.7	-41.6	23.1	0.00e+00	90	41	0	522190848	54	6113
2026-01-22 02:14:41.90	247.54	22.16	-39.8	-40.7	23.7	0.00e+00	92	41	0	524288000	54	5512
2026-01-22 02:14:42.91	247.79	22.22	-40.1	-41.0	23.2	0.00e+00	0	41	0	526385152	54	5751
2026-01-22 02:14:43.92	248.04	22.28	-41.2	-42.2	21.8	0.00e+00	92	41	0	527433728	54	6608
2026-01-22 02:14:44.92	248.29	22.34	-41.0	-42.0	23.1	0.00e+00	0	41	0	529530880	54	6401
2026-01-22 02:14:45.93	248.54	22.39	-40.4	-41.3	23.2	0.00e+00	92	41	0	531628032	54	5940
2026-01-22 02:14:46.94	248.79	22.45	-39.7	-40.6	23.9	0.00e+00	0	42	0	533725184	54	5456
2026-01-22 02:14:47.95	249.04	22.51	-39.7	-40.6	23.9	0.00e+00	92	41	0	535822336	52	6113
2026-01-22 02:14:48.96	249.30	22.56	-40.0	-40.8	23.6	0.00e+00	47	41	0	536870912	52	6299
2026-01-22 02:14:49.97	249.55	22.62	-40.3	-41.2	23.5	0.00e+00	0	41	0	538968064	52	6541
2026-01-22 02:14:50.98	249.81	22.67	-40.3	-41.2	23.4	0.00e+00	92	41	0	541065216	52	6550
2026-01-22 02:14:51.99	250.06	22.73	-40.3	-41.2	23.4	0.00e+00	0	41	0	543162368	52	6553
2026-01-22 02:14:53.00	250.32	22.78	-40.0	-40.9	23.3	0.00e+00	92	41	0	545259520	52	6331
2026-01-22 02:14:54.01	250.58	22.83	-39.8	-40.6	23.7	0.00e+00	0	41	0	546308096	52	6172
2026-01-22 02:14:55.02	250.84	22.89	-39.7	-40.6	23.6	0.00e+00	92	41	0	548405248	52	6107
2026-01-22 02:14:56.03	251.10	22.94	-39.8	-40.7	23.6	0.00e+00	49	41	0	550502400	52	6199
2026-01-22 02:14:57.04	251.36	22.99	-40.1	-41.0	23.4	0.00e+00	91	41	0	552599552	52	6396
2026-01-22 02:14:58.05	251.62	23.04	-40.2	-41.1	23.3	0.00e+00	91	41	0	554696704	52	6486
2026-01-22 02:14:59.06	251.88	23.09	-40.4	-41.3	23.2	0.00e+00	0	41	0	556793856	52	6679
2026-01-22 02:15:00.06	252.15	23.14	-40.8	-41.8	22.7	0.00e+00	40	41	0	557842432	54	6276
2026-01-22 02:15:01.07	252.41	23.19	-41.0	-42.0	22.7	0.00e+00	0	41	0	559939584	54	6431
2026-01-22 02:15:02.09	252.68	23.24	-41.6	-42.6	22.2	0.00e+00	83	41	0	562036736	54	6922
2026-01-22 02:15:03.10	252.94	23.29	-41.5	-42.5	22.1	0.00e+00	20	41	0	564133888	54	6782
2026-01-22 02:15:04.11	253.21	23.34	-41.7	-42.7	21.7	0.00e+00	90	41	0	566231040	54	6957
2026-01-22 02:15:05.12	253.48	23.39	-41.7	-42.7	22.2	0.00e+00	92	41	0	567279616	56	6219
2026-01-22 02:15:06.13	253.75	23.44	-41.3	-42.3	22.3	0.00e+00	0	41	0	569376768	56	5906
2026-01-22 02:15:07.14	254.01	23.48	-41.0	-41.9	22.8	0.00e+00	17	41	0	571473920	56	5676
2026-01-22 02:15:08.15	254.28	23.53	-41.1	-42.1	22.6	0.00e+00	0	41	0	573571072	56	5775
2026-01-22 02:15:09.16	254.55	23.57	-40.9	-41.9	22.7	0.00e+00	90	41	0	575668224	56	5645
2026-01-22 02:15:10.17	254.83	23.62	-41.6	-42.7	22.2	0.00e+00	25	41	0	576716800	56	6196
2026-01-22 02:15:11.18	255.10	23.66	-42.2	-43.4	21.5	0.00e+00	90	41	0	578813952	56	6704
2026-01-22 02:15:12.19	255.37	23.71	-42.5	-43.6	21.4	0.00e+00	92	41	0	580911104	56	6900
2026-01-22 02:15:13.20	255.64	23.75	-42.8	-44.0	21.1	0.00e+00	0	41	0	583008256	58	6432
2026-01-22 02:15:14.21	255.92	23.79	-42.5	-43.6	21.5	0.00e+00	92	41	0	585105408	58	6139
2026-01-22 02:15:15.22	256.19	23.83	-42.1	-43.2	21.5	0.00e+00	0	41	0	586153984	58	5852
2026-01-22 02:15:16.23	256.47	23.88	-42.1	-43.1	21.7	0.00e+00	92	41	0	588251136	58	5815
2026-01-22 02:15:17.24	256.75	23.92	-42.4	-43.5	21.6	0.00e+00	0	41	0	590348288	58	6084
2026-01-22 02:15:18.25	257.02	23.96	-42.5	-43.6	21.3	0.00e+00	92	41	0	592445440	58	6155
2026-01-22 02:15:19.26	257.30	24.00	-42.6	-43.7	21.1	0.00e+00	92	41	0	594542592	58	6243
2026-01-22 02:15:20.27	257.58	24.03	-42.4	-43.5	21.5	0.00e+00	0	41	0	595591168	58	6072
2026-01-22 02:15:21.27	257.86	24.07	-42.2	-43.3	21.6	0.00e+00	92	41	0	597688320	58	5923
2026-01-22 02:15:22.28	258.14	24.11	-42.3	-43.4	21.5	0.00e+00	0	41	0	599785472	58	6016
2026-01-22 02:15:23.29	258.42	24.15	-42.7	-43.9	20.9	0.00e+00	92	41	0	601882624	58	6361
2026-01-22 02:15:24.30	258.70	24.18	-43.6	-45.0	20.0	0.00e+00	0	41	0	603979776	58	7196
2026-01-22 02:15:25.31	258.98	24.22	-44.2	-45.7	19.5	0.00e+00	92	41	0	605028352	60	6975
2026-01-22 02:15:26.32	259.26	24.25	-45.1	-46.9	18.5	0.00e+00	48	41	0	607125504	60	7975
2026-01-22 02:15:27.33	259.54	24.29	-44.7	-46.4	18.8	0.00e+00	59	41	0	609222656	60	7543
2026-01-22 02:15:28.34	259.83	24.32	-43.9	-45.3	19.8	0.00e+00	90	41	0	611319808	60	6673
2026-01-22 02:15:29.35	260.11	24.35	-43.7	-45.1	20.0	0.00e+00	0	41	0	613416960	60	6508
2026-01-22 02:15:30.36	260.40	24.39	-43.2	-44.5	20.6	0.00e+00	90	41	0	614465536	60	6073
2026-01-22 02:15:31.37	260.68	24.42	-43.3	-44.6	20.4	0.00e+00	0	41	0	616562688	60	6170
2026-01-22 02:15:32.38	260.97	24.45	-43.6	-44.9	20.1	0.00e+00	92	41	0	618659840	60	6389
2026-01-22 02:15:33.39	261.25	24.48	-43.3	-44.6	20.7	0.00e+00	47	41	0	620756992	60	6107
2026-01-22 02:15:34.40	261.54	24.51	-43.3	-44.6	20.6	0.00e+00	92	41	0	622854144	60	6118
2026-01-22 02:15:35.41	261.83	24.54	-42.7	-43.9	21.0	0.00e+00	92	41	0	624951296	58	6346
2026-01-22 02:15:36.42	262.12	24.56	-42.6	-43.7	21.3	0.00e+00	0	41	0	625999872	58	6243
2026-01-22 02:15:37.43	262.40	24.59	-42.6	-43.8	21.2	0.00e+00	91	41	0	628097024	58	6258
2026-01-22 02:15:38.44	262.69	24.62	-42.3	-43.5	21.4	0.00e+00	0	41	0	630194176	58	6034
2026-01-22 02:15:39.45	262.98	24.64	-42.5	-43.6	21.2	0.00e+00	86	41	0	632291328	58	6141
2026-01-22 02:15:40.46	263.27	24.67	-42.8	-44.0	21.1	0.00e+00	0	41	0	634388480	58	6418
2026-01-22 02:15:41.47	263.56	24.69	-42.9	-44.1	20.8	0.00e+00	57	41	0	635437056	58	6522
2026-01-22 02:15:42.48	263.85	24.72	-43.3	-44.6	20.4	0.00e+00	91	41	0	637534208	58	6875
2026-01-22 02:15:43.49	264.14	24.74	-43.4	-44.7	20.4	0.00e+00	0	41	0	639631360	58	6944
2026-01-22 02:15:44.50	264.44	24.76	-43.3	-44.6	20.4	0.00e+00	92	41	0	641728512	58	6909
2026-01-22 02:15:45.51	264.73	24.78	-42.8	-44.0	20.8	0.00e+00	0	41	0	643825664	58	6419
2026-01-22 02:15:46.52	265.02	24.80	-42.5	-43.6	21.5	0.00e+00	65	41	0	644874240	58	6144
2026-01-22 02:15:47.53	265.31	24.82	-41.8	-42.9	21.8	0.00e+00	0	41	0	646971392	58	5655
2026-01-22 02:15:48.54	265.60	24.84	-41.6	-42.6	22.3	0.00e+00	92	41	0	649068544	56	6125
2026-01-22 02:15:49.55	265.90	24.86	-41.5	-42.5	22.3	0.00e+00	47	41	0	651165696	56	6103
2026-01-22 02:15:50.56	266.19	24.88	-41.5	-42.5	22.5	0.00e+00	0	41	0	653262848	56	6047
2026-01-22 02:15:51.56	266.48	24.90	-40.9	-41.8	23.0	0.00e+00	45	41	0	654311424	56	5595
2026-01-22 02:15:52.57	266.78	24.91	-40.7	-41.6	23.2	0.00e+00	0	41	0	656408576	54	6123
2026-01-22 02:15:53.58	267.07	24.93	-40.4	-41.3	23.3	0.00e+00	67	41	0	658505728	54	5932
2026-01-22 02:15:54.59	267.37	24.94	-41.1	-42.1	22.5	0.00e+00	0	41	0	660602880	54	6489
2026-01-22 02:15:55.60	267.66	24.95	-41.7	-42.8	22.1	0.00e+00	92	41	0	662700032	56	6272
2026-01-22 02:15:56.61	267.96	24.97	-42.1	-43.2	21.8	0.00e+00	42	41	0	663748608	56	6545
2026-01-22 02:15:57.62	268.25	24.98	-42.0	-43.1	21.9	0.00e+00	0	41	0	665845760	56	6472
2026-01-22 02:15:58.63	268.55	24.99	-41.8	-42.8	22.0	0.00e+00	92	41	0	667942912	56	6305
2026-01-22 02:15:59.64	268.84	25.00	-41.4	-42.4	22.5	0.00e+00	0	41	0	670040064	56	5965
2026-01-22 02:16:00.65	269.14	25.01	-41.0	-42.0	22.8	0.00e+00	90	41	0	672137216	56	5717
2026-01-22 02:16:01.66	269.43	25.02	-41.3	-42.4	22.3	0.00e+00	0	41	0	673185792	56	5973
2026-01-22 02:16:02.67	269.73	25.03	-41.7	-42.8	22.1	0.00e+00	90	41	0	675282944	56	6276
2026-01-22 02:16:03.68	270.03	25.04	-42.1	-43.2	21.8	0.00e+00	45	41	0	677380096	56	6592
2026-01-22 02:16:04.69	270.32	25.04	-41.5	-42.5	22.3	0.00e+00	0	41	0	679477248	56	6093
2026-01-22 02:16:05.70	270.62	25.05	-41.4	-42.4	22.4	0.00e+00	92	41	0	681574400	56	5978
2026-01-22 02:16:06.71	270.92	25.05	-41.3	-42.3	22.5	0.00e+00	0	41	0	682622976	56	5959
2026-01-22 02:16:07.72	271.21	25.06	-41.4	-42.4	22.5	0.00e+00	92	41	0	684720128	56	6030
2026-01-22 02:16:08.73	271.51	25.06	-41.6	-42.7	22.3	0.00e+00	0	41	0	686817280	56	6208
2026-01-22 02:16:09.74	271.81	25.06	-41.5	-42.5	22.4	0.00e+00	92	41	0	688914432	56	6045
2026-01-22 02:16:10.75	272.10	25.07	-41.0	-42.0	22.9	0.00e+00	43	41	0	691011584	56	5697
2026-01-22 02:16:11.76	272.40	25.07	-40.4	-41.3	23.3	0.00e+00	13	41	0	693108736	54	5947
2026-01-22 02:16:12.76	272.70	25.07	-40.1	-41.0	23.6	0.00e+00	92	41	0	694157312	54	5729
2026-01-22 02:16:13.77	272.99	25.07	-39.6	-40.5	23.9	0.00e+00	33	41	0	696254464	52	6051
2026-01-22 02:16:14.78	273.29	25.07	-39.7	-40.6	23.7	0.00e+00	45	41	0	698351616	52	6111
2026-01-22 02:16:15.79	273.59	25.06	-40.0	-40.9	23.5	0.00e+00	0	41	0	700448768	52	6376
2026-01-22 02:16:16.80	273.88	25.06	-40.5	-41.4	23.2	0.00e+00	90	41	0	701497344	52	6767
2026-01-22 02:16:17.81	274.18	25.06	-40.7	-41.7	23.1	0.00e+00	0	41	0	703594496	52	6946
2026-01-22 02:16:18.82	274.48	25.05	-40.6	-41.5	23.1	0.00e+00	33	41	0	705691648	52	6814
2026-01-22 02:16:19.83	274.77	25.05	-40.2	-41.1	23.4	0.00e+00	92	41	0	707788800	52	6519
2026-01-22 02:16:20.84	275.07	25.04	-40.2	-41.1	23.4	0.00e+00	0	41	0	709885952	52	6468
2026-01-22 02:16:21.85	275.37	25.03	-40.2	-41.1	23.3	0.00e+00	82	41	0	710934528	52	6524
2026-01-22 02:16:22.86	275.66	25.03	-40.1	-41.0	23.1	0.00e+00	0	41	0	713031680	52	6428
2026-01-22 02:16:23.87	275.96	25.02	-40.2	-41.1	23.4	0.00e+00	92	41	0	715128832	52	6492
2026-01-22 02:16:24.88	276.25	25.01	-40.3	-41.2	23.1	0.00e+00	0	41	0	717225984	52	6612
2026-01-22 02:16:25.89	276.55	25.00	-40.5	-41.4	23.0	0.00e+00	86	41	0	719323136	52	6717
2026-01-22 02:16:26.90	276.85	24.99	-40.6	-41.6	23.0	0.00e+00	91	41	0	721420288	52	6868
2026-01-22 02:16:27.91	277.14	24.98	-40.8	-41.7	22.8	0.00e+00	0	41	0	722468864	54	6223
2026-01-22 02:16:28.92	277.44	24.96	-41.1	-42.1	22.6	0.00e+00	92	41	0	724566016	54	6475
2026-01-22 02:16:29.93	277.73	24.95	-41.3	-42.3	22.4	0.00e+00	0	41	0	726663168	54	6639
2026-01-22 02:16:30.94	278.03	24.94	-41.2	-42.2	22.4	0.00e+00	92	41	0	728760320	54	6586
2026-01-22 02:16:31.95	278.32	24.92	-41.0	-42.0	22.4	0.00e+00	0	41	0	730857472	54	6450
2026-01-22 02:16:32.96	278.61	24.91	-40.5	-41.5	23.0	0.00e+00	92	41	0	731906048	54	6053
2026-01-22 02:16:33.97	278.91	24.89	-40.6	-41.5	23.0	0.00e+00	92	41	0	734003200	54	6060
2026-01-22 02:16:34.98	279.20	24.87	-40.4	-41.3	23.2	0.00e+00	0	41	0	736100352	54	5924
2026-01-22 02:16:35.99	279.49	24.86	-40.5	-41.4	23.0	0.00e+00	84	41	0	738197504	54	6017
2026-01-22 02:16:37.00	279.79	24.84	-40.4	-41.3	23.2	0.00e+00	0	41	0	740294656	54	5931
2026-01-22 02:16:38.01	280.08	24.82	-40.2	-41.1	23.2	0.00e+00	92	41	0	741343232	54	5828
2026-01-22 02:16:39.02	280.37	24.80	-40.4	-41.3	23.0	0.00e+00	0	41	0	743440384	54	5946
2026-01-22 02:16:40.03	280.66	24.78	-40.5	-41.4	23.1	0.00e+00	92	41	0	745537536	54	5990
2026-01-22 02:16:41.04	280.95	24.76	-40.5	-41.5	23.1	0.00e+00	92	41	0	747634688	54	6054
2026-01-22 02:16:42.05	281.24	24.73	-40.8	-41.8	22.9	0.00e+00	0	41	0	749731840	54	6260
2026-01-22 02:16:43.06	281.54	24.71	-40.6	-41.6	22.9	0.00e+00	15	41	0	750780416	54	6119
2026-01-22 02:16:44.07	281.83	24.69	-40.4	-41.3	23.1	0.00e+00	0	41	0	752877568	54	5922
2026-01-22 02:16:45.08	282.11	24.66	-40.4	-41.3	23.2	0.00e+00	54	41	0	754974720	54	5920
2026-01-22 02:16:46.08	282.40	24.64	-40.2	-41.1	23.4	0.00e+00	0	41	0	757071872	54	5763
2026-01-22 02:16:47.09	282.69	24.61	-40.3	-41.2	23.2	0.00e+00	91	41	0	759169024	54	5875
2026-01-22 02:16:48.11	282.98	24.58	-40.1	-41.0	23.4	0.00e+00	90	41	0	761266176	54	5719
2026-01-22 02:16:49.12	283.27	24.56	-39.7	-40.6	23.7	0.00e+00	0	41	0	762314752	54	5463
2026-01-22 02:16:50.13	283.56	24.53	-39.8	-40.7	23.7	0.00e+00	86	41	0	764411904	52	6179
2026-01-22 02:16:51.14	283.84	24.50	-39.5	-40.3	24.0	0.00e+00	0	41	0	766509056	52	5922
2026-01-22 02:16:52.15	284.13	24.47	-39.6	-40.4	23.8	0.00e+00	91	41	0	768606208	52	6022
2026-01-22 02:16:53.16	284.41	24.44	-39.6	-40.5	23.7	0.00e+00	0	41	0	770703360	52	6065
2026-01-22 02:16:54.17	284.70	24.41	-39.6	-40.5	23.8	0.00e+00	91	41	0	771751936	52	6063
2026-01-22 02:16:55.18	284.98	24.38	-39.8	-40.7	23.7	0.00e+00	44	41	0	773849088	52	6188
2026-01-22 02:16:56.19	285.27	24.34	-39.3	-40.1	24.0	0.00e+00	56	41	0	775946240	52	5789
2026-01-22 02:16:57.20	285.55	24.31	-39.2	-40.0	24.0	0.00e+00	92	41	0	778043392	52	5745
2026-01-22 02:16:58.21	285.83	24.28	-39.6	-40.5	23.8	0.00e+00	33	41	0	780140544	52	6035
2026-01-22 02:16:59.22	286.12	24.24	-39.6	-40.5	23.7	0.00e+00	67	41	0	781189120	52	6048
2026-01-22 02:17:00.23	286.40	24.21	-39.5	-40.4	23.7	0.00e+00	0	41	0	783286272	52	5978
2026-01-22 02:17:01.24	286.68	24.17	-39.6	-40.5	23.8	0.00e+00	92	41	0	785383424	52	6036
2026-01-22 02:17:02.25	286.96	24.14	-39.4	-40.2	23.7	0.00e+00	0	41	0	787480576	52	5882
2026-01-22 02:17:03.26	287.24	24.10	-39.5	-40.3	23.9	0.00e+00	0	41	0	789577728	52	5957
2026-01-22 02:17:04.27	287.52	24.06	-39.4	-40.2	24.1	0.00e+00	92	41	0	790626304	52	5875
2026-01-22 02:17:05.28	287.79	24.02	-39.1	-39.9	24.2	0.00e+00	0	41	0	792723456	52	5686
2026-01-22 02:17:06.29	288.07	23.99	-39.1	-40.0	24.4	0.00e+00	77	41	0	794820608	52	5705
2026-01-22 02:17:07.30	288.35	23.95	-38.9	-39.7	24.3	0.00e+00	0	41	0	796917760	52	5564
2026-01-22 02:17:08.31	288.63	23.91	-39.2	-40.1	24.1	0.00e+00	92	41	0	799014912	52	5784
2026-01-22 02:17:09.32	288.90	23.86	-39.6	-40.4	23.9	0.00e+00	0	41	0	800063488	52	6024
2026-01-22 02:17:10.33	289.18	23.82	-39.8	-40.7	23.8	0.00e+00	51	41	0	802160640	52	6180
2026-01-22 02:17:11.34	289.45	23.78	-40.0	-40.9	23.5	0.00e+00	92	41	0	804257792	52	6364
2026-01-22 02:17:12.35	289.72	23.74	-39.8	-40.7	23.7	0.00e+00	0	41	0	806354944	52	6227
2026-01-22 02:17:13.36	290.00	23.70	-39.5	-40.4	24.0	0.00e+00	47	41	0	808452096	52	5975
2026-01-22 02:17:14.37	290.27	23.65	-39.3	-40.1	24.2	0.00e+00	0	41	0	809500672	52	5826
2026-01-22 02:17:15.38	290.54	23.61	-39.0	-39.9	24.4	0.00e+00	89	41	0	811597824	52	5645
2026-01-22 02:17:16.39	290.81	23.56	-38.9	-39.7	24.4	0.00e+00	0	41	0	813694976	52	5560
2026-01-22 02:17:17.40	291.08	23.52	-38.7	-39.5	24.4	0.00e+00	90	41	0	815792128	50	6069
2026-01-22 02:17:18.41	291.35	23.47	-38.9	-39.8	24.3	0.00e+00	91	41	0	817889280	50	6250
2026-01-22 02:17:19.42	291.62	23.42	-38.7	-39.5	24.6	0.00e+00	0	41	0	818937856	50	6084
2026-01-22 02:17:20.43	291.88	23.38	-38.6	-39.4	24.6	0.00e+00	92	41	0	821035008	50	5982
2026-01-22 02:17:21.44	292.15	23.33	-38.7	-39.5	24.6	0.00e+00	0	41	0	823132160	50	6068
2026-01-22 02:17:22.45	292.41	23.28	-38.3	-39.1	24.8	0.00e+00	92	41	0	825229312	50	5816
2026-01-22 02:17:23.46	292.68	23.23	-38.1	-38.9	25.0	0.00e+00	0	41	0	827326464	50	5660
2026-01-22 02:17:24.47	292.94	23.18	-37.8	-38.6	25.1	0.00e+00	91	41	0	829423616	50	5450
2026-01-22 02:17:25.48	293.21	23.13	-37.9	-38.6	25.1	0.00e+00	0	41	0	830472192	48	6161
2026-01-22 02:17:26.49	293.47	23.08	-38.1	-38.9	24.9	0.00e+00	0	41	0	832569344	48	6323
2026-01-22 02:17:27.50	293.73	23.03	-38.7	-39.5	24.5	0.00e+00	92	41	0	834666496	48	6785
2026-01-22 02:17:28.51	293.99	22.98	-39.0	-39.9	24.3	0.00e+00	0	41	0	836763648	50	6330
2026-01-22 02:17:29.52	294.25	22.93	-39.3	-40.1	24.2	0.00e+00	49	41	0	838860800	50	6539
2026-01-22 02:17:30.53	294.51	22.88	-39.0	-39.8	24.5	0.00e+00	0	41	0	839909376	50	6276
2026-01-22 02:17:31.54	294.77	22.83	-38.5	-39.3	24.6	0.00e+00	92	41	0	842006528	50	5940
2026-01-22 02:17:32.55	295.03	22.77	-38.5	-39.3	24.8	0.00e+00	0	41	0	844103680	50	5907
2026-01-22 02:17:33.56	295.28	22.72	-38.1	-38.8	25.0	0.00e+00	0	41	0	846200832	50	5610
2026-01-22 02:17:34.57	295.54	22.66	-38.4	-39.1	24.7	0.00e+00	92	41	0	848297984	50	5825
2026-01-22 02:17:35.58	295.79	22.61	-38.4	-39.2	24.5	0.00e+00	0	41	0	849346560	50	5881
2026-01-22 02:17:36.59	296.05	22.55	-38.8	-39.6	24.4	0.00e+00	88	41	0	851443712	50	6147
2026-01-22 02:17:37.60	296.30	22.50	-39.0	-39.8	24.1	0.00e+00	0	41	0	853540864	50	6294
2026-01-22 02:17:38.61	296.55	22.44	-39.3	-40.1	24.1	0.00e+00	92	41	0	855638016	50	6506
2026-01-22 02:17:39.62	296.80	22.39	-38.9	-39.8	24.3	0.00e+00	0	41	0	857735168	50	6258
2026-01-22 02:17:40.63	297.05	22.33	-38.8	-39.7	24.3	0.00e+00	52	41	0	858783744	50	6189
2026-01-22 02:17:41.64	297.30	22.27	-38.5	-39.3	24.7	0.00e+00	92	41	0	860880896	50	5930
2026-01-22 02:17:42.66	297.55	22.21	-38.6	-39.4	24.6	0.00e+00	0	41	0	862978048	50	5980
2026-01-22 02:17:43.67	297.80	22.16	-38.7	-39.5	24.6	0.00e+00	87	41	0	865075200	50	6076
2026-01-22 02:17:44.67	298.04	22.10	-38.8	-39.6	24.4	0.00e+00	0	41	0	867172352	50	6164
2026-01-22 02:17:45.68	298.29	22.04	-39.4	-40.3	24.0	0.00e+00	91	41	0	868220928	50	6626
2026-01-22 02:17:46.69	298.53	21.98	-39.6	-40.5	23.6	0.00e+00	0	41	0	870318080	50	6821
2026-01-22 02:17:47.71	298.78	21.92	-39.2	-40.0	24.2	0.00e+00	67	41	0	872415232	50	6431
2026-01-22 02:17:48.71	299.02	21.86	-39.4	-40.2	23.9	0.00e+00	47	41	0	874512384	50	6607
2026-01-22 02:17:49.73	299.26	21.80	-39.1	-39.9	23.8	0.00e+00	0	41	0	876609536	50	6387
2026-01-22 02:17:50.74	299.51	21.74	-39.0	-39.8	24.3	0.00e+00	46	41	0	877658112	50	6272
2026-01-22 02:17:51.75	299.75	21.68	-38.9	-39.7	24.3	0.00e+00	0	41	0	879755264	50	6238
2026-01-22 02:17:52.76	299.99	21.62	-39.1	-39.9	24.2	0.00e+00	92	41	0	881852416	50	6363
2026-01-22 02:17:53.77	300.22	21.55	-39.2	-40.0	24.2	0.00e+00	0	41	0	883949568	50	6448
2026-01-22 02:17:54.78	300.46	21.49	-39.2	-40.0	24.2	0.00e+00	92	41	0	886046720	50	6428
2026-01-22 02:17:55.79	300.70	21.43	-39.3	-40.2	23.9	0.00e+00	92	41	0	887095296	50	6567
2026-01-22 02:17:56.80	300.93	21.37	-39.6	-40.5	23.8	0.00e+00	0	41	0	889192448	50	6811
2026-01-22 02:17:57.81	301.17	21.30	-39.9	-40.8	23.5	0.00e+00	45	41	0	891289600	52	6282
2026-01-22 02:17:58.81	301.40	21.24	-40.3	-41.2	23.2	0.00e+00	0	41	0	893386752	52	6575
2026-01-22 02:17:59.82	301.63	21.18	-40.4	-41.4	23.0	0.00e+00	90	41	0	895483904	52	6722
2026-01-22 02:18:00.83	301.86	21.11	-40.6	-41.5	23.1	0.00e+00	0	41	0	897581056	52	6842
2026-01-22 02:18:01.84	302.09	21.05	-40.2	-41.1	23.3	0.00e+00	92	41	0	898629632	52	6487
2026-01-22 02:18:02.85	302.32	20.98	-39.6	-40.5	23.9	0.00e+00	45	41	0	900726784	52	6058
2026-01-22 02:18:03.86	302.55	20.92	-39.2	-40.0	24.0	0.00e+00	0	41	0	902823936	52	5754
2026-01-22 02:18:04.87	302.78	20.85	-39.2	-40.1	24.1	0.00e+00	43	41	0	904921088	52	5772
2026-01-22 02:18:05.88	303.01	20.79	-39.2	-40.0	24.2	0.00e+00	0	41	0	907018240	52	5748
2026-01-22 02:18:06.89	303.23	20.72	-39.3	-40.1	24.1	0.00e+00	64	41	0	908066816	52	5800
2026-01-22 02:18:07.90	303.46	20.66	-39.6	-40.5	23.8	0.00e+00	0	41	0	910163968	52	6069
2026-01-22 02:18:08.91	303.68	20.59	-40.0	-40.9	23.5	0.00e+00	90	41	0	912261120	52	6347
2026-01-22 02:18:09.92	303.90	20.52	-40.1	-41.0	23.5	0.00e+00	18	41	0	914358272	52	6406
2026-01-22 02:18:10.93	304.13	20.46	-40.2	-41.1	23.3	0.00e+00	0	41	0	916455424	52	6534
2026-01-22 02:18:11.94	304.35	20.39	-40.7	-41.7	22.9	0.00e+00	90	41	0	917504000	52	6945
2026-01-22 02:18:12.95	304.57	20.32	-40.6	-41.5	23.1	0.00e+00	0	41	0	919601152	54	6077
2026-01-22 02:18:13.96	304.79	20.26	-40.9	-41.9	22.8	0.00e+00	87	41	0	921698304	54	6347
2026-01-22 02:18:14.97	305.01	20.19	-40.8	-41.8	22.9	0.00e+00	0	41	0	923795456	54	6274
2026-01-22 02:18:15.98	305.22	20.12	-40.7	-41.6	23.0	0.00e+00	90	41	0	925892608	54	6145
2026-01-22 02:18:16.98	305.44	20.05	-40.5	-41.5	23.1	0.00e+00	0	41	0	926941184	54	6060
2026-01-22 02:18:18.00	305.66	19.98	-40.4	-41.3	23.2	0.00e+00	0	41	0	929038336	54	5956
2026-01-22 02:18:19.01	305.87	19.92	-40.1	-41.1	23.3	0.00e+00	92	41	0	931135488	54	5764
2026-01-22 02:18:20.01	306.08	19.85	-40.1	-41.0	23.6	0.00e+00	0	41	0	933232640	54	5729
2026-01-22 02:18:21.02	306.30	19.78	-40.0	-40.9	23.5	0.00e+00	45	41	0	935329792	54	5685
2026-01-22 02:18:22.03	306.51	19.71	-40.1	-41.0	23.3	0.00e+00	0	41	0	936378368	54	5755
2026-01-22 02:18:23.04	306.72	19.64	-40.4	-41.3	23.2	0.00e+00	90	41	0	938475520	54	5930
2026-01-22 02:18:24.05	306.93	19.57	-40.7	-41.6	23.1	0.00e+00	0	41	0	940572672	54	6162
2026-01-22 02:18:25.06	307.14	19.50	-40.9	-41.9	22.8	0.00e+00	0	41	0	942669824	54	6318
2026-01-22 02:18:26.07	307.35	19.43	-41.1	-42.1	22.6	0.00e+00	47	41	0	944766976	54	6483
2026-01-22 02:18:27.08	307.55	19.36	-40.8	-41.8	22.7	0.00e+00	0	41	0	945815552	54	6247
2026-01-22 02:18:28.09	307.76	19.29	-40.9	-41.8	22.7	0.00e+00	49	41	0	947912704	54	6307
2026-01-22 02:18:29.10	307.96	19.22	-40.7	-41.7	22.9	0.00e+00	0	41	0	950009856	54	6204
2026-01-22 02:18:30.11	308.17	19.15	-40.6	-41.5	22.9	0.00e+00	37	41	0	952107008	54	6067
2026-01-22 02:18:31.12	308.37	19.08	-40.8	-41.8	22.7	0.00e+00	0	41	0	954204160	54	6278
2026-01-22 02:18:32.13	308.57	19.01	-40.8	-41.7	22.8	0.00e+00	51	41	0	955252736	54	6228
2026-01-22 02:18:33.14	308.78	18.94	-41.0	-41.9	22.6	0.00e+00	92	41	0	957349888	54	6374
2026-01-22 02:18:34.15	308.98	18.87	-41.4	-42.4	22.2	0.00e+00	0	41	0	959447040	54	6733
2026-01-22 02:18:35.16	309.18	18.80	-41.5	-42.5	22.1	0.00e+00	57	41	0	961544192	54	6796
2026-01-22 02:18:36.17	309.38	18.72	-41.4	-42.4	22.4	0.00e+00	0	41	0	963641344	54	6754
2026-01-22 02:18:37.18	309.57	18.65	-41.1	-42.1	22.6	0.00e+00	92	41	0	965738496	54	6475
2026-01-22 02:18:38.19	309.77	18.58	-41.0	-42.0	22.5	0.00e+00	0	41	0	966787072	54	6455
2026-01-22 02:18:39.20	309.97	18.51	-40.8	-41.8	22.7	0.00e+00	92	41	0	968884224	54	6301
2026-01-22 02:18:40.21	310.16	18.44	-41.0	-42.0	22.6	0.00e+00	92	41	0	970981376	54	6438
2026-01-22 02:18:41.22	310.36	18.37	-40.9	-41.9	22.6	0.00e+00	0	41	0	973078528	54	6349
2026-01-22 02:18:42.23	310.55	18.29	-40.8	-41.8	22.6	0.00e+00	92	41	0	975175680	54	6276
2026-01-22 02:18:43.24	310.74	18.22	-41.0	-42.1	22.5	0.00e+00	0	41	0	976224256	54	6484
2026-01-22 02:18:44.25	310.93	18.15	-40.7	-41.7	22.7	0.00e+00	91	41	0	978321408	54	6213
2026-01-22 02:18:45.26	311.13	18.08	-40.7	-41.6	22.7	0.00e+00	0	41	0	980418560	54	6172
2026-01-22 02:18:46.27	311.32	18.01	-40.3	-41.2	23.1	0.00e+00	91	41	0	982515712	54	5856
2026-01-22 02:18:47.27	311.50	17.93	-39.8	-40.7	23.5	0.00e+00	46	41	0	984612864	54	5523
2026-01-22 02:18:48.28	311.69	17.86	-40.2	-41.1	23.2	0.00e+00	0	41	0	985661440	52	6492
2026-01-22 02:18:49.29	311.88	17.79	-40.1	-41.1	23.1	0.00e+00	92	41	0	987758592	52	6469
2026-01-22 02:18:50.30	312.06	17.72	-40.9	-41.9	22.5	0.00e+00	0	41	0	989855744	52	7137
2026-01-22 02:18:51.31	312.25	17.64	-40.8	-41.7	22.7	0.00e+00	92	41	0	991952896	54	6237
2026-01-22 02:18:52.32	312.43	17.57	-40.9	-41.9	22.6	0.00e+00	0	41	0	994050048	54	6376
2026-01-22 02:18:53.33	312.62	17.50	-41.0	-42.0	22.6	0.00e+00	92	41	0	995098624	54	6402
2026-01-22 02:18:54.34	312.80	17.42	-40.9	-41.9	22.7	0.00e+00	0	41	0	997195776	54	6351
2026-01-22 02:18:55.35	312.98	17.35	-40.9	-41.9	22.6	0.00e+00	0	41	0	999292928	54	6335
2026-01-22 02:18:56.36	313.16	17.28	-40.8	-41.8	22.7	0.00e+00	90	41	0	1001390080	54	6263
2026-01-22 02:18:57.37	313.35	17.21	-40.9	-41.9	22.7	0.00e+00	0	41	0	1003487232	54	6373
2026-01-22 02:18:58.38	313.52	17.13	-41.0	-42.0	22.5	0.00e+00	92	41	0	1004535808	54	6401
2026-01-22 02:18:59.39	313.70	17.06	-41.5	-42.5	21.9	0.00e+00	0	41	0	1006632960	54	6816
2026-01-22 02:19:00.40	313.88	16.99	-42.1	-43.2	21.6	0.00e+00	92	41	0	1008730112	56	6611
2026-01-22 02:19:01.41	314.06	16.91	-42.2	-43.3	21.4	0.00e+00	0	41	0	1010827264	56	6691
2026-01-22 02:19:02.42	314.23	16.84	-42.6	-43.8	21.0	0.00e+00	0	41	0	1012924416	56	7066
2026-01-22 02:19:03.43	314.41	16.77	-42.6	-43.8	21.0	0.00e+00	92	41	0	1013972992	58	6310
2026-01-22 02:19:04.44	314.58	16.69	-42.3	-43.5	21.3	0.00e+00	0	41	0	1016070144	58	6041
2026-01-22 02:19:05.45	314.76	16.62	-42.3	-43.5	21.4	0.00e+00	76	41	0	1018167296	58	6080
2026-01-22 02:19:06.45	314.93	16.55	-42.0	-43.1	21.7	0.00e+00	0	41	0	1020264448	58	5795
2026-01-22 02:19:07.46	315.10	16.47	-41.3	-42.3	22.4	0.00e+00	92	41	0	1022361600	56	5911
2026-01-22 02:19:08.47	315.27	16.40	-40.9	-41.8	22.8	0.00e+00	0	41	0	1023410176	56	5630
2026-01-22 02:19:09.48	315.44	16.33	-40.1	-41.1	23.2	0.00e+00	77	41	0	1025507328	54	5777
2026-01-22 02:19:10.49	315.61	16.25	-40.4	-41.3	23.1	0.00e+00	40	41	0	1027604480	54	5957
2026-01-22 02:19:11.50	315.78	16.18	-40.7	-41.7	22.8	0.00e+00	0	41	0	1029701632	54	6187
2026-01-22 02:19:12.51	315.95	16.11	-40.9	-41.9	22.7	0.00e+00	38	41	0	1031798784	54	6331
2026-01-22 02:19:13.52	316.12	16.03	-41.2	-42.2	22.4	0.00e+00	0	41	0	1033895936	54	6577
2026-01-22 02:19:14.53	316.28	15.96	-41.2	-42.3	22.2	0.00e+00	74	41	0	1034944512	54	6641
2026-01-22 02:19:15.54	316.45	15.89	-41.1	-42.1	22.4	0.00e+00	0	41	0	1037041664	54	6490
2026-01-22 02:19:16.55	316.61	15.81	-41.0	-42.0	22.6	0.00e+00	58	41	0	1039138816	54	6429
2026-01-22 02:19:17.56	316.78	15.74	-40.7	-41.7	22.8	0.00e+00	50	41	0	1041235968	54	6175
2026-01-22 02:19:18.56	316.94	15.67	-40.4	-41.3	23.0	0.00e+00	0	41	0	1043333120	54	5956
2026-01-22 02:19:19.57	317.10	15.59	-40.2	-41.1	23.1	0.00e+00	40	41	0	1044381696	54	5822
2026-01-22 02:19:20.59	317.27	15.52	-40.3	-41.2	23.1	0.00e+00	0	41	0	1046478848	54	5890
2026-01-22 02:19:21.60	317.43	15.44	-40.4	-41.3	23.0	0.00e+00	92	41	0	1048576000	54	5923
2026-01-22 02:19:22.61	317.59	15.37	-40.6	-41.5	22.8	0.00e+00	0	41	0	1050673152	54	6080
2026-01-22 02:19:23.62	317.75	15.30	-40.8	-41.8	22.5	0.00e+00	48	41	0	1052770304	54	6285
2026-01-22 02:19:24.62	317.90	15.22	-41.0	-42.0	22.4	0.00e+00	39	41	0	1053818880	54	6427
2026-01-22 02:19:25.63	318.06	15.15	-41.1	-42.1	22.3	0.00e+00	0	41	0	1055916032	54	6526
2026-01-22 02:19:26.64	318.22	15.08	-41.1	-42.1	22.3	0.00e+00	69	41	0	1058013184	54	6510
2026-01-22 02:19:27.65	318.37	15.00	-41.0	-42.0	22.4	0.00e+00	0	41	0	1060110336	54	6452
2026-01-22 02:19:28.66	318.53	14.93	-40.9	-41.9	22.4	0.00e+00	75	41	0	1062207488	54	6367
2026-01-22 02:19:29.67	318.68	14.86	-40.9	-41.9	22.6	0.00e+00	0	41	0	1063256064	54	6351
2026-01-22 02:19:30.68	318.84	14.79	-40.9	-42.0	22.4	0.00e+00	45	41	0	1065353216	54	6391
2026-01-22 02:19:31.69	318.99	14.71	-41.2	-42.2	22.1	0.00e+00	0	41	0	1067450368	54	6608
2026-01-22 02:19:32.70	319.15	14.64	-41.4	-42.5	21.9	0.00e+00	0	41	0	1069547520	54	6826
2026-01-22 02:19:33.71	319.30	14.57	-41.9	-43.0	21.7	0.00e+00	92	41	0	1071644672	56	6423
2026-01-22 02:19:34.72	319.45	14.49	-42.0	-43.1	21.6	0.00e+00	0	41	0	1072693248	56	6522
2026-01-22 02:19:35.73	319.60	14.42	-42.0	-43.2	21.5	0.00e+00	40	41	0	1074790400	56	6567
2026-01-22 02:19:36.74	319.75	14.35	-42.0	-43.2	21.5	0.00e+00	0	41	0	1076887552	56	6544
2026-01-22 02:19:37.75	319.90	14.27	-41.8	-42.9	21.8	0.00e+00	90	41	0	1078984704	56	6387
2026-01-22 02:19:38.76	320.05	14.20	-41.6	-42.7	21.8	0.00e+00	0	41	0	1081081856	56	6214
2026-01-22 02:19:39.77	320.19	14.13	-41.4	-42.5	21.9	0.00e+00	0	41	0	1082130432	56	6064
2026-01-22 02:19:40.78	320.34	14.05	-41.1	-42.1	22.3	0.00e+00	92	41	0	1084227584	56	5803
2026-01-22 02:19:41.79	320.49	13.98	-41.2	-42.2	22.2	0.00e+00	0	41	0	1086324736	56	5861
2026-01-22 02:19:42.80	320.63	13.91	-41.7	-42.8	21.7	0.00e+00	28	41	0	1088421888	56	6278
2026-01-22 02:19:43.80	320.78	13.84	-41.3	-42.3	22.3	0.00e+00	0	41	0	1090519040	56	5938
2026-01-22 02:19:44.81	320.92	13.76	-41.6	-42.6	22.0	0.00e+00	78	41	0	1091567616	56	6157
2026-01-22 02:19:45.82	321.06	13.69	-41.6	-42.7	21.5	0.00e+00	0	41	0	1093664768	56	6187
2026-01-22 02:19:46.84	321.21	13.62	-41.9	-43.0	21.2	0.00e+00	0	41	0	1095761920	56	6421
2026-01-22 02:19:47.85	321.35	13.55	-42.2	-43.3	21.6	0.00e+00	92	41	0	1097859072	56	6690
2026-01-22 02:19:48.86	321.49	13.47	-42.4	-43.6	21.2	0.00e+00	0	41	0	1099956224	56	6900
2026-01-22 02:19:49.87	321.63	13.40	-42.3	-43.4	21.5	0.00e+00	24	41	0	1101004800	56	6762
2026-01-22 02:19:50.88	321.77	13.33	-42.3	-43.4	21.5	0.00e+00	0	41	0	1103101952	56	6744
2026-01-22 02:19:51.89	321.91	13.26	-42.1	-43.3	21.6	0.00e+00	71	41	0	1105199104	56	6640
2026-01-22 02:19:52.90	322.05	13.19	-42.1	-43.2	21.3	0.00e+00	0	41	0	1107296256	56	6613
2026-01-22 02:19:53.91	322.19	13.11	-41.4	-42.5	22.1	0.00e+00	0	41	0	1109393408	56	6068
2026-01-22 02:19:54.92	322.33	13.04	-41.9	-43.0	21.7	0.00e+00	92	41	0	1111490560	56	6425
2026-01-22 02:19:55.93	322.47	12.97	-41.7	-42.8	21.8	0.00e+00	0	41	0	1112539136	56	6298
2026-01-22 02:19:56.94	322.60	12.90	-41.6	-42.7	21.9	0.00e+00	22	41	0	1114636288	56	6184
2026-01-22 02:19:57.95	322.74	12.83	-41.7	-42.8	21.7	0.00e+00	0	41	0	1116733440	56	6286
2026-01-22 02:19:58.96	322.87	12.75	-41.8	-42.9	21.6	0.00e+00	92	41	0	1118830592	56	6337
2026-01-22 02:19:59.96	323.01	12.68	-42.0	-43.1	21.6	0.00e+00	0	41	0	1120927744	56	6522
2026-01-22 02:20:00.97	323.14	12.61	-41.8	-42.9	21.7	0.00e+00	46	41	0	1121976320	56	6363
2026-01-22 02:20:01.98	323.27	12.54	-41.7	-42.8	21.7	0.00e+00	0	41	0	1124073472	56	6262
2026-01-22 02:20:02.99	323.40	12.47	-41.5	-42.6	21.9	0.00e+00	0	41	0	1126170624	56	6159
2026-01-22 02:20:04.01	323.54	12.40	-41.2	-42.2	22.2	0.00e+00	92	41	0	1128267776	56	5866
2026-01-22 02:20:05.01	323.67	12.33	-41.2	-42.2	22.4	0.00e+00	0	41	0	1130364928	56	5860
2026-01-22 02:20:06.03	323.80	12.25	-41.1	-42.2	22.4	0.00e+00	46	41	0	1131413504	56	5831
2026-01-22 02:20:07.04	323.93	12.18	-41.0	-42.0	22.5	0.00e+00	0	41	0	1133510656	56	5759
2026-01-22 02:20:08.04	324.06	12.11	-40.8	-41.8	22.7	0.00e+00	92	41	0	1135607808	56	5606
2026-01-22 02:20:09.05	324.19	12.04	-40.6	-41.6	22.7	0.00e+00	0	41	0	1137704960	54	6119
2026-01-22 02:20:10.06	324.32	11.97	-40.8	-41.8	22.6	0.00e+00	0	41	0	1139802112	54	6280
2026-01-22 02:20:11.07	324.44	11.90	-40.8	-41.8	22.5	0.00e+00	64	41	0	1140850688	54	6273
2026-01-22 02:20:12.08	324.57	11.83	-40.8	-41.8	22.5	0.00e+00	20	41	0	1142947840	54	6265
2026-01-22 02:20:13.09	324.70	11.76	-41.0	-42.0	22.3	0.00e+00	49	41	0	1145044992	54	6420
2026-01-22 02:20:14.10	324.82	11.69	-41.0	-42.1	22.1	0.00e+00	0	41	0	1147142144	54	6466
2026-01-22 02:20:15.11	324.95	11.62	-41.2	-42.3	22.2	0.00e+00	0	41	0	1149239296	54	6642
2026-01-22 02:20:16.12	325.07	11.55	-41.0	-42.0	22.3	0.00e+00	0	41	0	1150287872	54	6446
2026-01-22 02:20:17.13	325.20	11.48	-41.1	-42.1	22.2	0.00e+00	0	41	0	1152385024	54	6520
2026-01-22 02:20:18.14	325.32	11.41	-41.2	-42.2	22.2	0.00e+00	77	41	0	1154482176	54	6577
2026-01-22 02:20:19.14	325.44	11.34	-41.1	-42.1	22.3	0.00e+00	0	41	0	1156579328	54	6499
2026-01-22 02:20:20.15	325.57	11.27	-41.0	-42.0	22.3	0.00e+00	92	41	0	1158676480	54	6449
2026-01-22 02:20:21.16	325.69	11.20	-40.9	-42.0	22.4	0.00e+00	0	41	0	1159725056	54	6402
2026-01-22 02:20:22.17	325.81	11.13	-40.8	-41.8	22.4	0.00e+00	0	41	0	1161822208	54	6316
2026-01-22 02:20:23.18	325.93	11.06	-40.8	-41.8	22.4	0.00e+00	40	41	0	1163919360	54	6311
2026-01-22 02:20:24.19	326.05	10.99	-41.0	-42.1	22.3	0.00e+00	0	41	0	1166016512	54	6472
2026-01-22 02:20:25.20	326.17	10.92	-41.0	-42.0	22.2	0.00e+00	38	41	0	1168113664	54	6414
2026-01-22 02:20:26.21	326.29	10.85	-41.2	-42.3	22.0	0.00e+00	0	41	0	1169162240	54	6618
2026-01-22 02:20:27.22	326.41	10.78	-41.2	-42.2	22.1	0.00e+00	92	41	0	1171259392	54	6609
2026-01-22 02:20:28.23	326.53	10.71	-41.3	-42.4	21.8	0.00e+00	0	41	0	1173356544	54	6756
2026-01-22 02:20:29.24	326.64	10.64	-41.5	-42.6	21.7	0.00e+00	0	41	0	1175453696	54	6880
2026-01-22 02:20:30.25	326.76	10.57	-41.6	-42.7	21.6	0.00e+00	0	41	0	1177550848	54	6966
2026-01-22 02:20:31.26	326.88	10.50	-41.7	-42.8	21.7	0.00e+00	0	41	0	1178599424	54	7072
2026-01-22 02:20:32.27	326.99	10.43	-41.5	-42.7	21.6	0.00e+00	42	41	0	1180696576	54	6935
2026-01-22 02:20:33.28	327.11	10.36	-41.4	-42.5	21.7	0.00e+00	0	41	0	1182793728	54	6846
2026-01-22 02:20:34.29	327.22	10.30	-41.6	-42.7	21.5	0.00e+00	81	41	0	1184890880	54	6994
2026-01-22 02:20:35.30	327.34	10.23	-41.4	-42.5	21.7	0.00e+00	0	41	0	1186988032	54	6796
