passes_logs/2026/01/22/R4.6S_Anadyr/R4.6S_Anadyr__20260122_143356_NOAA_20_JPSS-1_rec.log

#Pass ID: 20260122_143356_NOAA 20 (JPSS-1)
#Satellite: NOAA 20 (JPSS-1)
#Configuration: NOAA 20
#almurnet v.1.7.20251203
#Start time: 2026-01-22 14:33:58

#Version: 2.2.20231116
#Station: R4.6S_Anadyr
#Location: 177.4865 lon 64.73178 lat
#TLE: 1 43013U 17073A   26021.46221703  .00000173  00000+0  10299-3 0  9999
#TLE: 2 43013  98.7644 322.3335 0001238  29.7597 330.3649 14.19538314423652

#Time	Az	El	Level	Level2	SNR	BER	BlckErr	Temp	State	Recorded	gain1	gain2
2026-01-22 14:33:58.39	20.21	0.11	-51.1	-66.0	3.5	1.51e+00	0	39	0	0	60	72306
2026-01-22 14:33:59.40	20.22	0.17	-51.1	-66.3	3.6	1.51e+00	0	40	104	0	60	74945
2026-01-22 14:34:00.41	20.23	0.23	-51.0	-66.3	3.6	1.51e+00	0	40	104	0	60	74403
2026-01-22 14:34:01.42	20.24	0.29	-51.0	-66.2	3.6	1.51e+00	0	40	104	0	60	73982
2026-01-22 14:34:02.43	20.24	0.35	-51.0	-66.3	3.6	1.51e+00	0	40	104	0	60	74642
2026-01-22 14:34:03.44	20.25	0.41	-51.1	-66.3	3.6	1.51e+00	0	40	104	0	60	74656
2026-01-22 14:34:04.45	20.26	0.47	-51.1	-66.3	3.6	1.51e+00	0	40	104	0	60	74901
2026-01-22 14:34:05.46	20.27	0.53	-51.1	-66.3	3.6	1.51e+00	0	40	104	0	60	74892
2026-01-22 14:34:06.47	20.28	0.59	-51.1	-66.3	3.6	1.51e+00	0	41	104	0	60	75026
2026-01-22 14:34:07.48	20.29	0.65	-51.1	-66.3	3.6	1.51e+00	0	40	104	0	60	74849
2026-01-22 14:34:08.49	20.30	0.71	-51.1	-66.3	3.6	1.51e+00	0	40	104	0	60	74794
2026-01-22 14:34:09.50	20.31	0.78	-51.1	-66.3	3.6	1.51e+00	0	41	104	0	60	74489
2026-01-22 14:34:10.51	20.32	0.84	-51.0	-66.3	3.6	1.51e+00	0	41	104	0	60	74327
2026-01-22 14:34:11.52	20.33	0.90	-51.0	-66.2	3.6	1.51e+00	0	41	104	0	60	73852
2026-01-22 14:34:12.53	20.34	0.96	-50.9	-66.2	3.6	1.51e+00	0	41	104	0	60	73425
2026-01-22 14:34:13.54	20.35	1.02	-50.9	-66.1	3.6	1.51e+00	0	41	104	0	60	73025
2026-01-22 14:34:14.56	20.36	1.09	-50.8	-66.0	3.6	1.51e+00	0	41	104	0	60	71991
2026-01-22 14:34:15.57	20.37	1.15	-50.7	-65.9	3.6	1.51e+00	0	41	104	0	60	71023
2026-01-22 14:34:16.58	20.38	1.21	-50.6	-65.8	3.6	1.51e+00	0	41	104	0	60	70569
2026-01-22 14:34:17.59	20.39	1.27	-50.4	-65.7	3.6	1.51e+00	0	41	104	0	60	69298
2026-01-22 14:34:18.60	20.40	1.34	-50.3	-65.6	3.6	1.51e+00	0	40	104	0	60	68634
2026-01-22 14:34:19.61	20.41	1.40	-50.2	-65.5	3.6	1.51e+00	0	40	104	0	60	67782
2026-01-22 14:34:20.62	20.42	1.46	-50.1	-65.3	3.6	1.51e+00	0	41	104	0	60	66572
2026-01-22 14:34:21.63	20.43	1.52	-49.9	-65.1	3.6	1.51e+00	0	41	104	0	60	65338
2026-01-22 14:34:22.64	20.44	1.59	-49.6	-64.7	3.6	1.51e+00	0	41	104	0	60	62005
2026-01-22 14:34:23.65	20.45	1.65	-49.6	-64.6	3.6	1.51e+00	0	41	104	0	60	61537
2026-01-22 14:34:24.66	20.46	1.72	-49.6	-64.7	3.6	1.51e+00	0	41	104	0	60	62205
2026-01-22 14:34:25.67	20.47	1.78	-49.6	-64.7	3.6	1.51e+00	0	41	104	0	60	62418
2026-01-22 14:34:26.68	20.48	1.84	-49.6	-64.8	3.6	1.51e+00	0	41	104	0	60	62853
2026-01-22 14:34:27.69	20.49	1.91	-49.6	-64.8	3.6	1.51e+00	0	41	104	0	60	62883
2026-01-22 14:34:28.70	20.50	1.97	-49.6	-64.8	3.6	1.51e+00	0	41	104	0	60	62892
2026-01-22 14:34:29.71	20.51	2.03	-49.6	-64.8	3.6	1.51e+00	0	41	104	0	60	63028
2026-01-22 14:34:30.72	20.52	2.10	-49.6	-64.8	3.6	1.51e+00	0	41	104	0	60	62956
2026-01-22 14:34:31.73	20.53	2.16	-49.6	-64.8	3.6	1.51e+00	0	41	104	0	60	62552
2026-01-22 14:34:32.74	20.54	2.23	-49.6	-64.7	3.6	1.51e+00	0	41	104	0	60	62121
2026-01-22 14:34:33.75	20.55	2.29	-49.6	-64.4	3.6	1.51e+00	0	41	104	0	60	60086
2026-01-22 14:34:34.76	20.56	2.36	-49.6	-64.2	3.6	1.51e+00	0	41	104	0	60	58430
2026-01-22 14:34:35.77	20.57	2.42	-49.6	-63.9	3.6	1.51e+00	0	41	104	0	60	56373
2026-01-22 14:34:36.78	20.58	2.49	-49.5	-63.4	3.6	1.51e+00	0	41	104	0	60	53512
2026-01-22 14:34:37.79	20.59	2.55	-49.5	-63.2	3.6	1.51e+00	0	41	104	0	60	52436
2026-01-22 14:34:38.80	20.60	2.62	-49.5	-63.2	3.6	1.51e+00	0	41	104	0	60	52076
2026-01-22 14:34:39.81	20.61	2.69	-49.6	-63.7	3.6	1.51e+00	0	41	104	0	60	55316
2026-01-22 14:34:40.82	20.62	2.75	-49.6	-63.6	3.6	1.51e+00	0	41	104	0	60	54753
2026-01-22 14:34:41.83	20.63	2.82	-49.6	-63.7	3.6	1.51e+00	0	41	104	0	60	55409
2026-01-22 14:34:42.84	20.64	2.88	-49.5	-62.7	3.6	1.51e+00	0	41	104	0	60	49424
2026-01-22 14:34:43.85	20.65	2.95	-49.4	-60.8	4.0	1.48e+00	0	41	0	0	60	39765
2026-01-22 14:34:44.86	20.66	3.02	-49.2	-57.6	5.2	6.95e-01	92	41	0	1048576	60	27285
2026-01-22 14:34:45.87	20.67	3.08	-49.0	-56.4	6.5	3.55e-01	0	41	0	3145728	60	23763
2026-01-22 14:34:46.88	20.68	3.15	-48.7	-55.1	7.8	1.77e-01	90	41	0	5242880	60	20601
2026-01-22 14:34:47.89	20.69	3.22	-48.5	-54.3	9.0	4.25e-02	0	41	0	7340032	60	18780
2026-01-22 14:34:48.90	20.70	3.28	-48.2	-53.4	10.1	1.28e-02	0	41	0	8388608	60	16879
2026-01-22 14:34:49.91	20.71	3.35	-48.0	-53.0	10.4	3.71e-03	0	41	0	10485760	60	16171
2026-01-22 14:34:50.92	20.72	3.42	-48.1	-53.2	10.2	7.57e-03	5	41	0	12582912	60	16590
2026-01-22 14:34:51.93	20.73	3.49	-48.1	-53.1	10.3	5.65e-03	83	41	0	14680064	60	16298
2026-01-22 14:34:52.94	20.74	3.55	-48.4	-54.0	9.2	1.05e-02	82	41	0	16777216	60	18140
2026-01-22 14:34:53.95	20.75	3.62	-48.5	-54.6	8.5	3.28e-02	92	41	0	17825792	60	19459
2026-01-22 14:34:54.96	20.76	3.69	-48.9	-56.1	6.7	7.34e-02	0	41	0	19922944	60	23171
2026-01-22 14:34:55.97	20.77	3.76	-49.2	-57.8	5.0	2.63e-01	82	41	0	22020096	60	27982
2026-01-22 14:34:56.98	20.78	3.83	-44.8	-46.9	17.0	7.00e-07	0	41	0	24117248	60	7959
2026-01-22 14:34:57.99	20.79	3.90	-48.7	-54.8	8.5	2.04e-03	81	41	0	26214400	60	19894
2026-01-22 14:34:59.00	20.80	3.96	-49.5	-64.2	3.5	7.07e-01	0	41	104	27262976	60	58837
2026-01-22 14:35:00.01	20.81	4.03	-46.8	-50.4	13.6	6.06e-01	2	41	104	27262976	60	11939
2026-01-22 14:35:01.02	20.83	4.10	-49.6	-63.4	3.6	1.28e+00	0	41	104	27262976	60	53593
2026-01-22 14:35:02.03	20.84	4.17	-46.7	-50.1	13.6	1.36e+00	0	41	104	27262976	60	11592
2026-01-22 14:35:03.04	20.85	4.24	-46.8	-50.1	14.3	3.80e-06	91	41	0	27262976	60	11591
2026-01-22 14:35:04.05	20.86	4.31	-45.1	-47.3	16.7	0.00e+00	0	41	0	29360128	60	8386
2026-01-22 14:35:05.06	20.87	4.38	-44.7	-46.7	17.3	0.00e+00	0	41	0	31457280	60	7858
2026-01-22 14:35:06.07	20.88	4.45	-44.0	-45.8	18.3	0.00e+00	0	41	0	33554432	60	7019
2026-01-22 14:35:07.08	20.89	4.52	-44.2	-46.0	18.1	0.00e+00	0	41	0	35651584	60	7203
2026-01-22 14:35:08.09	20.90	4.59	-43.6	-45.2	18.9	0.00e+00	92	41	0	36700160	60	6576
2026-01-22 14:35:09.10	20.91	4.66	-43.6	-45.2	19.0	0.00e+00	0	41	0	38797312	60	6568
2026-01-22 14:35:10.11	20.92	4.73	-43.4	-44.9	19.1	0.00e+00	92	41	0	40894464	60	6384
2026-01-22 14:35:11.12	20.93	4.80	-43.3	-44.8	19.3	0.00e+00	0	41	0	42991616	60	6276
2026-01-22 14:35:12.13	20.95	4.88	-43.1	-44.6	19.6	0.00e+00	81	41	0	45088768	60	6134
2026-01-22 14:35:13.14	20.96	4.95	-43.3	-44.9	19.2	0.00e+00	81	41	0	47185920	60	6335
2026-01-22 14:35:14.15	20.97	5.02	-43.3	-44.9	19.3	0.00e+00	0	41	0	48234496	60	6328
2026-01-22 14:35:15.16	20.98	5.09	-43.3	-44.9	19.2	0.00e+00	86	41	0	50331648	60	6325
2026-01-22 14:35:16.17	20.99	5.16	-43.3	-44.8	19.3	0.00e+00	0	41	0	52428800	60	6294
2026-01-22 14:35:17.18	21.00	5.24	-43.4	-44.9	19.2	0.00e+00	90	41	0	54525952	60	6375
2026-01-22 14:35:18.19	21.01	5.31	-43.2	-44.7	19.4	0.00e+00	81	41	0	56623104	60	6237
2026-01-22 14:35:19.20	21.02	5.38	-43.4	-44.9	19.2	0.00e+00	84	41	0	57671680	60	6371
2026-01-22 14:35:20.21	21.03	5.45	-43.2	-44.7	19.5	0.00e+00	0	41	0	59768832	60	6206
2026-01-22 14:35:21.22	21.05	5.53	-43.4	-44.9	19.3	0.00e+00	0	41	0	61865984	60	6364
2026-01-22 14:35:22.23	21.06	5.60	-43.3	-44.9	19.4	0.00e+00	0	41	0	63963136	60	6324
2026-01-22 14:35:23.24	21.07	5.67	-43.2	-44.7	19.6	0.00e+00	0	41	0	66060288	60	6185
2026-01-22 14:35:24.25	21.08	5.75	-43.3	-44.8	19.6	0.00e+00	92	41	0	67108864	60	6278
2026-01-22 14:35:25.25	21.09	5.82	-43.2	-44.7	19.5	0.00e+00	0	41	0	69206016	60	6202
2026-01-22 14:35:26.26	21.10	5.89	-42.7	-44.1	20.1	0.00e+00	0	41	0	71303168	60	5787
2026-01-22 14:35:27.27	21.11	5.97	-42.9	-44.3	19.9	0.00e+00	0	41	0	73400320	58	6655
2026-01-22 14:35:28.28	21.13	6.04	-42.8	-44.1	20.0	0.00e+00	0	41	0	75497472	58	6539
2026-01-22 14:35:29.29	21.14	6.12	-42.6	-44.0	20.2	0.00e+00	0	41	0	76546048	58	6410
2026-01-22 14:35:30.30	21.15	6.19	-43.1	-44.6	19.7	0.00e+00	0	41	0	78643200	58	6868
2026-01-22 14:35:31.31	21.16	6.27	-42.7	-44.1	20.2	0.00e+00	92	41	0	80740352	58	6467
2026-01-22 14:35:32.32	21.17	6.34	-42.7	-44.0	20.2	0.00e+00	0	41	0	82837504	58	6458
2026-01-22 14:35:33.33	21.19	6.42	-42.7	-44.1	20.1	0.00e+00	92	41	0	84934656	58	6480
2026-01-22 14:35:34.33	21.20	6.49	-42.7	-44.1	20.2	0.00e+00	81	41	0	85983232	58	6503
2026-01-22 14:35:35.35	21.21	6.57	-42.7	-44.1	20.2	0.00e+00	82	41	0	88080384	58	6475
2026-01-22 14:35:36.36	21.22	6.64	-42.8	-44.1	20.1	0.00e+00	81	41	0	90177536	58	6509
2026-01-22 14:35:37.36	21.23	6.72	-42.5	-43.9	20.4	0.00e+00	0	41	0	92274688	58	6326
2026-01-22 14:35:38.37	21.24	6.80	-42.6	-43.9	20.3	0.00e+00	90	41	0	94371840	58	6345
2026-01-22 14:35:39.38	21.26	6.87	-42.6	-43.9	20.4	0.00e+00	0	41	0	95420416	58	6341
2026-01-22 14:35:40.39	21.27	6.95	-42.6	-43.9	20.4	0.00e+00	92	41	0	97517568	58	6340
2026-01-22 14:35:41.40	21.28	7.03	-42.7	-44.1	20.1	0.00e+00	0	41	0	99614720	58	6476
2026-01-22 14:35:42.41	21.29	7.11	-43.1	-44.6	19.8	0.00e+00	7	41	0	101711872	58	6869
2026-01-22 14:35:43.42	21.30	7.18	-43.0	-44.3	19.9	0.00e+00	0	41	0	103809024	58	6689
2026-01-22 14:35:44.43	21.32	7.26	-43.0	-44.3	20.1	0.00e+00	6	41	0	104857600	58	6673
2026-01-22 14:35:45.44	21.33	7.34	-42.6	-44.0	20.4	0.00e+00	0	41	0	106954752	58	6402
2026-01-22 14:35:46.45	21.34	7.42	-42.4	-43.7	20.6	0.00e+00	6	41	0	109051904	58	6219
2026-01-22 14:35:47.46	21.35	7.50	-42.3	-43.5	20.8	0.00e+00	90	41	0	111149056	58	6081
2026-01-22 14:35:48.47	21.37	7.58	-42.3	-43.6	20.7	0.00e+00	0	41	0	113246208	58	6141
2026-01-22 14:35:49.48	21.38	7.66	-42.1	-43.4	20.9	0.00e+00	0	41	0	115343360	58	5978
2026-01-22 14:35:50.49	21.39	7.73	-42.0	-43.2	21.1	0.00e+00	6	41	0	116391936	58	5864
2026-01-22 14:35:51.49	21.40	7.81	-42.1	-43.3	20.9	0.00e+00	0	41	0	118489088	58	5939
2026-01-22 14:35:52.50	21.42	7.89	-42.2	-43.4	21.0	0.00e+00	0	41	0	120586240	58	6008
2026-01-22 14:35:53.51	21.43	7.97	-42.0	-43.3	21.1	0.00e+00	6	41	0	122683392	58	5898
2026-01-22 14:35:54.52	21.44	8.05	-42.3	-43.5	20.8	0.00e+00	92	41	0	124780544	58	6086
2026-01-22 14:35:55.53	21.45	8.13	-42.2	-43.5	20.9	0.00e+00	0	41	0	125829120	58	6049
2026-01-22 14:35:56.54	21.47	8.22	-42.3	-43.5	20.9	0.00e+00	90	41	0	127926272	58	6099
2026-01-22 14:35:57.55	21.48	8.30	-42.4	-43.7	20.6	0.00e+00	0	41	0	130023424	58	6176
2026-01-22 14:35:58.56	21.49	8.38	-42.0	-43.2	21.1	0.00e+00	87	41	0	132120576	58	5843
2026-01-22 14:35:59.57	21.51	8.46	-42.1	-43.4	21.0	0.00e+00	0	41	0	134217728	58	5965
2026-01-22 14:36:00.58	21.52	8.54	-42.1	-43.3	21.1	0.00e+00	85	41	0	135266304	58	5942
2026-01-22 14:36:01.59	21.53	8.62	-41.9	-43.0	21.3	0.00e+00	92	41	0	137363456	58	5743
2026-01-22 14:36:02.60	21.54	8.71	-41.8	-43.0	21.4	0.00e+00	85	41	0	139460608	58	5732
2026-01-22 14:36:03.61	21.56	8.79	-42.1	-43.3	21.1	0.00e+00	90	41	0	141557760	58	5964
2026-01-22 14:36:04.62	21.57	8.87	-42.1	-43.3	21.1	0.00e+00	6	41	0	143654912	58	5944
2026-01-22 14:36:05.63	21.58	8.96	-41.9	-43.1	21.3	0.00e+00	6	41	0	144703488	58	5815
2026-01-22 14:36:06.64	21.60	9.04	-41.9	-43.1	21.2	0.00e+00	6	41	0	146800640	58	5775
2026-01-22 14:36:07.64	21.61	9.12	-41.7	-42.9	21.5	0.00e+00	0	41	0	148897792	58	5661
2026-01-22 14:36:08.65	21.62	9.21	-41.8	-43.0	21.4	0.00e+00	0	41	0	150994944	56	6396
2026-01-22 14:36:09.66	21.64	9.29	-41.7	-42.8	21.6	0.00e+00	0	41	0	153092096	56	6269
2026-01-22 14:36:10.67	21.65	9.38	-41.7	-42.8	21.5	0.00e+00	91	41	0	154140672	56	6295
2026-01-22 14:36:11.68	21.66	9.46	-41.7	-42.8	21.5	0.00e+00	0	41	0	156237824	56	6279
2026-01-22 14:36:12.69	21.68	9.55	-41.7	-42.9	21.6	0.00e+00	92	42	0	158334976	56	6328
2026-01-22 14:36:13.70	21.69	9.63	-41.7	-42.8	21.6	0.00e+00	0	41	0	160432128	56	6300
2026-01-22 14:36:14.71	21.70	9.72	-41.6	-42.7	21.7	0.00e+00	81	41	0	162529280	56	6198
2026-01-22 14:36:15.72	21.72	9.81	-41.7	-42.9	21.6	0.00e+00	0	41	0	163577856	56	6321
2026-01-22 14:36:16.73	21.73	9.89	-41.5	-42.6	21.9	0.00e+00	81	41	0	165675008	56	6161
2026-01-22 14:36:17.74	21.75	9.98	-41.6	-42.7	21.6	0.00e+00	92	41	0	167772160	56	6224
2026-01-22 14:36:18.75	21.76	10.07	-41.5	-42.6	21.9	0.00e+00	0	41	0	169869312	56	6143
2026-01-22 14:36:19.76	21.77	10.15	-41.6	-42.7	21.8	0.00e+00	92	41	0	171966464	56	6188
2026-01-22 14:36:20.77	21.79	10.24	-41.6	-42.7	21.8	0.00e+00	0	41	0	173015040	56	6196
2026-01-22 14:36:21.78	21.80	10.33	-41.4	-42.5	21.9	0.00e+00	0	41	0	175112192	56	6094
2026-01-22 14:36:22.79	21.81	10.42	-41.4	-42.5	22.0	0.00e+00	81	41	0	177209344	56	6050
2026-01-22 14:36:23.80	21.83	10.51	-41.4	-42.5	22.0	0.00e+00	81	41	0	179306496	56	6035
2026-01-22 14:36:24.81	21.84	10.60	-41.5	-42.5	21.8	0.00e+00	84	41	0	181403648	56	6097
2026-01-22 14:36:25.82	21.86	10.69	-41.6	-42.7	21.9	0.00e+00	0	41	0	183500800	56	6181
2026-01-22 14:36:26.83	21.87	10.78	-41.5	-42.6	21.9	0.00e+00	92	41	0	184549376	56	6112
2026-01-22 14:36:27.84	21.89	10.87	-41.5	-42.6	22.0	0.00e+00	0	41	0	186646528	56	6109
2026-01-22 14:36:29.09	21.90	10.98	-41.5	-42.6	21.9	0.00e+00	0	41	0	188743680	56	6119
2026-01-22 14:36:29.81	21.91	11.04	-41.5	-42.6	22.0	0.00e+00	86	41	0	189792256	56	6120
2026-01-22 14:36:31.11	21.93	11.16	-41.2	-42.2	22.3	0.00e+00	0	41	0	192937984	56	5885
2026-01-22 14:36:31.83	21.94	11.22	-41.2	-42.2	22.3	0.00e+00	2	41	0	193986560	56	5861
2026-01-22 14:36:33.13	21.96	11.34	-41.1	-42.1	22.3	0.00e+00	2	41	0	196083712	56	5809
2026-01-22 14:36:33.85	21.97	11.41	-41.2	-42.2	22.3	0.00e+00	0	41	0	197132288	56	5869
2026-01-22 14:36:35.15	21.99	11.53	-41.0	-42.0	22.4	0.00e+00	3	41	0	200278016	56	5732
2026-01-22 14:36:35.87	22.00	11.59	-41.1	-42.1	22.3	0.00e+00	92	41	0	201326592	56	5814
2026-01-22 14:36:37.17	22.02	11.71	-41.1	-42.1	22.4	0.00e+00	0	41	0	203423744	56	5813
2026-01-22 14:36:37.89	22.03	11.78	-41.2	-42.3	22.2	0.00e+00	92	41	0	205520896	56	5900
2026-01-22 14:36:39.19	22.05	11.90	-41.0	-42.1	22.4	0.00e+00	71	41	0	207618048	56	5783
2026-01-22 14:36:39.91	22.06	11.97	-41.1	-42.2	22.3	0.00e+00	7	41	0	208666624	56	5844
2026-01-22 14:36:41.21	22.08	12.09	-41.0	-42.1	22.4	0.00e+00	92	41	0	211812352	56	5766
2026-01-22 14:36:41.93	22.09	12.16	-40.9	-41.9	22.5	0.00e+00	2	41	0	212860928	56	5680
2026-01-22 14:36:43.23	22.11	12.28	-41.0	-42.0	22.5	0.00e+00	79	41	0	214958080	56	5730
2026-01-22 14:36:43.95	22.12	12.35	-40.9	-41.9	22.6	0.00e+00	80	41	0	217055232	56	5660
2026-01-22 14:36:45.25	22.14	12.47	-40.9	-41.9	22.6	0.00e+00	81	41	0	219152384	56	5667
2026-01-22 14:36:45.97	22.15	12.54	-40.9	-42.0	22.6	0.00e+00	0	41	0	220200960	56	5697
2026-01-22 14:36:47.27	22.18	12.67	-41.0	-42.0	22.5	0.00e+00	0	41	0	222298112	56	5726
2026-01-22 14:36:47.99	22.19	12.73	-40.9	-42.0	22.6	0.00e+00	0	41	0	224395264	56	5698
2026-01-22 14:36:49.29	22.21	12.86	-40.9	-42.0	22.5	0.00e+00	2	41	0	226492416	56	5708
2026-01-22 14:36:50.01	22.22	12.93	-41.1	-42.1	22.4	0.00e+00	79	41	0	227540992	56	5794
2026-01-22 14:36:51.30	22.24	13.06	-40.9	-41.9	22.6	0.00e+00	1	41	0	230686720	56	5637
2026-01-22 14:36:52.03	22.25	13.13	-40.9	-41.9	22.6	0.00e+00	92	41	0	231735296	56	5654
2026-01-22 14:36:53.32	22.27	13.25	-40.9	-41.9	22.6	0.00e+00	0	41	0	233832448	56	5668
2026-01-22 14:36:54.04	22.28	13.33	-40.7	-41.7	22.8	0.00e+00	91	41	0	234881024	54	6205
2026-01-22 14:36:55.34	22.30	13.45	-40.8	-41.8	22.7	0.00e+00	0	41	0	238026752	54	6252
2026-01-22 14:36:56.06	22.31	13.53	-40.8	-41.8	22.6	0.00e+00	0	41	0	239075328	54	6276
2026-01-22 14:36:57.36	22.34	13.66	-41.0	-42.0	22.5	0.00e+00	90	41	0	241172480	54	6415
2026-01-22 14:36:58.08	22.35	13.73	-40.7	-41.7	22.8	0.00e+00	0	41	0	243269632	54	6206
2026-01-22 14:36:59.38	22.37	13.86	-40.5	-41.4	23.0	0.00e+00	61	41	0	245366784	54	6033
2026-01-22 14:37:00.10	22.38	13.93	-40.6	-41.5	22.9	0.00e+00	0	41	0	246415360	54	6098
2026-01-22 14:37:01.40	22.40	14.06	-40.5	-41.5	23.1	0.00e+00	0	41	0	249561088	54	6041
2026-01-22 14:37:02.12	22.41	14.14	-40.4	-41.4	23.0	0.00e+00	0	41	0	250609664	54	5987
2026-01-22 14:37:03.41	22.44	14.27	-40.4	-41.4	23.0	0.00e+00	81	41	0	252706816	54	6000
2026-01-22 14:37:04.14	22.45	14.34	-40.5	-41.4	23.0	0.00e+00	0	41	0	254803968	54	6019
2026-01-22 14:37:05.43	22.47	14.48	-40.5	-41.4	23.0	0.00e+00	0	41	0	256901120	54	6017
2026-01-22 14:37:06.15	22.48	14.55	-40.5	-41.4	22.9	0.00e+00	70	41	0	257949696	54	6022
2026-01-22 14:37:07.45	22.50	14.69	-40.6	-41.5	22.9	0.00e+00	0	41	0	261095424	54	6100
2026-01-22 14:37:08.17	22.52	14.76	-40.5	-41.5	23.0	0.00e+00	92	41	0	262144000	54	6043
2026-01-22 14:37:09.47	22.54	14.90	-40.5	-41.5	23.0	0.00e+00	0	41	0	264241152	54	6060
2026-01-22 14:37:10.20	22.55	14.98	-40.4	-41.3	23.1	0.00e+00	82	41	0	265289728	54	5963
2026-01-22 14:37:11.50	22.57	15.11	-40.4	-41.4	23.1	0.00e+00	70	41	0	268435456	54	5993
2026-01-22 14:37:12.22	22.59	15.19	-40.5	-41.5	23.0	0.00e+00	81	41	0	269484032	54	6077
2026-01-22 14:37:13.52	22.61	15.33	-40.3	-41.3	23.2	0.00e+00	90	41	0	271581184	54	5909
2026-01-22 14:37:14.23	22.62	15.41	-40.3	-41.3	23.1	0.00e+00	0	41	0	273678336	54	5932
2026-01-22 14:37:15.53	22.65	15.55	-40.6	-41.5	23.0	0.00e+00	0	41	0	275775488	54	6103
2026-01-22 14:37:16.26	22.66	15.63	-40.6	-41.5	23.0	0.00e+00	0	41	0	276824064	54	6083
2026-01-22 14:37:17.56	22.68	15.77	-40.3	-41.3	23.2	0.00e+00	81	41	0	279969792	54	5906
2026-01-22 14:37:18.28	22.70	15.85	-40.5	-41.5	23.1	0.00e+00	0	41	0	281018368	54	6045
2026-01-22 14:37:19.57	22.72	15.99	-40.4	-41.4	23.1	0.00e+00	82	41	0	283115520	54	5984
2026-01-22 14:37:20.30	22.73	16.07	-40.4	-41.4	23.1	0.00e+00	0	41	0	284164096	54	5977
2026-01-22 14:37:21.59	22.76	16.21	-40.4	-41.4	23.1	0.00e+00	80	41	0	287309824	54	5986
2026-01-22 14:37:22.31	22.77	16.29	-40.6	-41.5	22.9	0.00e+00	90	41	0	288358400	54	6073
2026-01-22 14:37:23.61	22.79	16.44	-40.5	-41.5	23.0	0.00e+00	0	41	0	290455552	54	6062
2026-01-22 14:37:24.33	22.81	16.52	-40.6	-41.6	22.9	0.00e+00	92	41	0	292552704	54	6143
2026-01-22 14:37:25.63	22.83	16.66	-40.5	-41.4	23.1	0.00e+00	0	41	0	294649856	54	6031
2026-01-22 14:37:26.35	22.85	16.75	-40.5	-41.5	23.1	0.00e+00	81	41	0	295698432	54	6051
2026-01-22 14:37:27.65	22.87	16.89	-40.7	-41.6	22.9	0.00e+00	92	41	0	298844160	54	6172
2026-01-22 14:37:28.37	22.89	16.98	-40.6	-41.6	23.0	0.00e+00	78	41	0	299892736	54	6111
2026-01-22 14:37:29.67	22.91	17.13	-40.5	-41.5	23.0	0.00e+00	92	41	0	301989888	54	6067
2026-01-22 14:37:30.39	22.92	17.21	-40.7	-41.6	22.9	0.00e+00	0	41	0	303038464	54	6152
2026-01-22 14:37:31.69	22.95	17.36	-40.6	-41.6	22.9	0.00e+00	0	41	0	306184192	54	6136
2026-01-22 14:37:32.41	22.96	17.45	-40.6	-41.6	22.9	0.00e+00	79	41	0	307232768	54	6149
2026-01-22 14:37:33.71	22.99	17.60	-40.7	-41.6	23.0	0.00e+00	0	41	0	309329920	54	6170
2026-01-22 14:37:34.43	23.00	17.68	-40.7	-41.6	22.9	0.00e+00	0	41	0	311427072	54	6170
2026-01-22 14:37:35.72	23.03	17.84	-40.7	-41.7	22.9	0.00e+00	5	41	0	313524224	54	6190
2026-01-22 14:37:36.45	23.05	17.92	-40.8	-41.8	22.8	0.00e+00	81	41	0	314572800	54	6251
2026-01-22 14:37:37.74	23.07	18.08	-40.9	-41.9	22.7	0.00e+00	5	41	0	317718528	54	6338
2026-01-22 14:37:38.46	23.09	18.16	-40.8	-41.7	22.8	0.00e+00	91	41	0	318767104	54	6243
2026-01-22 14:37:39.76	23.11	18.32	-40.8	-41.7	22.8	0.00e+00	86	41	0	320864256	54	6243
2026-01-22 14:37:40.48	23.13	18.41	-40.9	-41.8	22.7	0.00e+00	92	41	0	322961408	54	6314
2026-01-22 14:37:41.78	23.15	18.57	-40.9	-41.9	22.8	0.00e+00	0	41	0	325058560	54	6335
2026-01-22 14:37:42.51	23.17	18.66	-40.9	-41.9	22.7	0.00e+00	0	41	0	326107136	54	6340
2026-01-22 14:37:43.80	23.20	18.81	-41.0	-42.0	22.6	0.00e+00	92	41	0	329252864	54	6406
2026-01-22 14:37:44.53	23.21	18.91	-40.9	-41.9	22.7	0.00e+00	0	41	0	330301440	54	6371
2026-01-22 14:37:45.83	23.24	19.07	-41.0	-42.0	22.7	0.00e+00	92	41	0	332398592	54	6411
2026-01-22 14:37:46.55	23.26	19.16	-41.0	-42.0	22.7	0.00e+00	0	41	0	333447168	54	6413
2026-01-22 14:37:47.84	23.28	19.32	-41.0	-42.0	22.6	0.00e+00	0	41	0	336592896	54	6459
2026-01-22 14:37:48.56	23.30	19.41	-41.1	-42.1	22.5	0.00e+00	80	41	0	337641472	54	6493
2026-01-22 14:37:49.86	23.33	19.58	-41.1	-42.1	22.5	0.00e+00	0	41	0	339738624	54	6529
2026-01-22 14:37:50.58	23.34	19.67	-41.1	-42.1	22.6	0.00e+00	0	41	0	341835776	54	6501
2026-01-22 14:37:51.88	23.37	19.83	-41.1	-42.1	22.6	0.00e+00	0	41	0	343932928	54	6496
2026-01-22 14:37:52.60	23.39	19.93	-41.2	-42.2	22.4	0.00e+00	92	41	0	344981504	54	6547
2026-01-22 14:37:53.90	23.42	20.10	-41.2	-42.2	22.4	0.00e+00	1	41	0	348127232	54	6580
2026-01-22 14:37:54.62	23.44	20.19	-41.2	-42.2	22.5	0.00e+00	92	41	0	349175808	54	6567
2026-01-22 14:37:55.92	23.47	20.36	-41.3	-42.3	22.3	0.00e+00	7	41	0	351272960	54	6645
2026-01-22 14:37:56.64	23.48	20.46	-41.2	-42.2	22.5	0.00e+00	92	41	0	352321536	54	6579
2026-01-22 14:37:57.94	23.51	20.63	-41.3	-42.3	22.4	0.00e+00	39	41	0	355467264	54	6640
2026-01-22 14:37:58.66	23.53	20.72	-41.2	-42.3	22.4	0.00e+00	6	41	0	356515840	54	6616
2026-01-22 14:37:59.96	23.56	20.90	-41.2	-42.2	22.4	0.00e+00	92	41	0	358612992	54	6603
2026-01-22 14:38:00.68	23.58	20.99	-41.3	-42.4	22.3	0.00e+00	7	41	0	360710144	54	6695
2026-01-22 14:38:01.98	23.61	21.17	-41.5	-42.5	22.3	0.00e+00	2	41	0	362807296	54	6811
2026-01-22 14:38:02.70	23.63	21.27	-41.3	-42.4	22.3	0.00e+00	6	41	0	363855872	54	6709
2026-01-22 14:38:03.99	23.66	21.45	-41.5	-42.6	22.2	0.00e+00	2	41	0	367001600	54	6849
2026-01-22 14:38:04.72	23.67	21.55	-41.5	-42.5	22.2	0.00e+00	1	41	0	368050176	54	6848
2026-01-22 14:38:06.01	23.71	21.72	-41.6	-42.6	22.1	0.00e+00	0	41	0	370147328	54	6904
2026-01-22 14:38:06.73	23.72	21.82	-41.5	-42.5	22.2	0.00e+00	6	41	0	371195904	54	6817
2026-01-22 14:38:08.03	23.76	22.01	-41.6	-42.7	22.1	0.00e+00	79	41	0	374341632	54	6952
2026-01-22 14:38:08.75	23.78	22.11	-41.7	-42.8	22.0	0.00e+00	91	41	0	375390208	54	7033
2026-01-22 14:38:10.05	23.81	22.29	-41.7	-42.8	22.0	0.00e+00	0	41	0	377487360	54	7035
2026-01-22 14:38:10.77	23.83	22.39	-41.6	-42.7	22.0	0.00e+00	92	41	0	379584512	54	6983
2026-01-22 14:38:12.07	23.86	22.58	-41.7	-42.8	22.0	0.00e+00	2	41	0	381681664	56	6248
2026-01-22 14:38:12.79	23.88	22.68	-41.8	-42.9	21.9	0.00e+00	83	41	0	382730240	56	6358
2026-01-22 14:38:14.09	23.91	22.87	-41.7	-42.8	22.1	0.00e+00	91	41	0	385875968	56	6269
2026-01-22 14:38:14.81	23.93	22.98	-41.8	-42.9	22.0	0.00e+00	0	41	0	386924544	56	6329
2026-01-22 14:38:16.11	23.97	23.17	-41.7	-42.8	22.1	0.00e+00	92	41	0	389021696	56	6262
2026-01-22 14:38:16.83	23.99	23.27	-41.8	-42.9	22.0	0.00e+00	83	41	0	391118848	56	6332
2026-01-22 14:38:18.13	24.02	23.47	-41.8	-42.9	21.9	0.00e+00	2	41	0	393216000	56	6361
2026-01-22 14:38:18.85	24.04	23.57	-41.9	-43.0	21.9	0.00e+00	6	41	0	394264576	56	6392
2026-01-22 14:38:20.15	24.08	23.77	-41.7	-42.8	22.1	0.00e+00	3	41	0	397410304	56	6270
2026-01-22 14:38:20.87	24.10	23.88	-41.7	-42.7	22.1	0.00e+00	6	41	0	398458880	56	6238
2026-01-22 14:38:22.17	24.13	24.07	-41.7	-42.8	22.1	0.00e+00	0	41	0	400556032	56	6246
2026-01-22 14:38:22.88	24.15	24.18	-41.7	-42.7	22.2	0.00e+00	6	41	0	401604608	56	6221
2026-01-22 14:38:24.18	24.19	24.38	-41.6	-42.7	22.2	0.00e+00	79	41	0	404750336	56	6200
2026-01-22 14:38:24.90	24.21	24.49	-41.5	-42.5	22.3	0.00e+00	92	41	0	405798912	56	6092
2026-01-22 14:38:26.20	24.25	24.69	-41.5	-42.5	22.4	0.00e+00	2	41	0	407896064	56	6064
2026-01-22 14:38:26.92	24.27	24.81	-41.5	-42.5	22.3	0.00e+00	92	41	0	409993216	56	6098
2026-01-22 14:38:28.22	24.31	25.01	-41.6	-42.7	22.1	0.00e+00	2	41	0	412090368	56	6189
2026-01-22 14:38:28.94	24.33	25.12	-41.6	-42.7	22.1	0.00e+00	3	41	0	413138944	56	6184
2026-01-22 14:38:30.24	24.37	25.33	-41.3	-42.3	22.6	0.00e+00	90	41	0	416284672	56	5949
2026-01-22 14:38:30.96	24.39	25.44	-41.2	-42.2	22.7	0.00e+00	0	41	0	417333248	56	5890
2026-01-22 14:38:32.26	24.43	25.65	-41.3	-42.3	22.6	0.00e+00	92	41	0	419430400	56	5911
2026-01-22 14:38:32.98	24.45	25.77	-41.5	-42.5	22.4	0.00e+00	77	41	0	420478976	56	6057
2026-01-22 14:38:34.27	24.49	25.98	-41.2	-42.2	22.6	0.00e+00	0	41	0	423624704	56	5885
2026-01-22 14:38:34.99	24.51	26.10	-41.2	-42.2	22.7	0.00e+00	77	41	0	424673280	56	5856
2026-01-22 14:38:36.29	24.55	26.31	-41.2	-42.2	22.7	0.00e+00	2	41	0	426770432	56	5844
2026-01-22 14:38:37.01	24.58	26.43	-41.2	-42.2	22.6	0.00e+00	0	41	0	428867584	56	5877
2026-01-22 14:38:38.31	24.62	26.65	-41.3	-42.4	22.4	0.00e+00	0	41	0	430964736	56	5968
2026-01-22 14:38:39.04	24.64	26.77	-41.3	-42.3	22.5	0.00e+00	81	41	0	432013312	56	5935
2026-01-22 14:38:40.34	24.69	26.99	-41.3	-42.3	22.6	0.00e+00	6	41	0	435159040	56	5940
2026-01-22 14:38:41.06	24.71	27.11	-41.3	-42.3	22.6	0.00e+00	92	41	0	436207616	56	5956
2026-01-22 14:38:42.36	24.75	27.34	-41.4	-42.4	22.6	0.00e+00	0	41	0	438304768	56	5979
2026-01-22 14:38:43.08	24.78	27.46	-41.3	-42.3	22.6	0.00e+00	0	41	0	439353344	56	5951
2026-01-22 14:38:44.38	24.82	27.69	-41.3	-42.4	22.6	0.00e+00	91	41	0	442499072	56	5971
2026-01-22 14:38:45.10	24.85	27.81	-41.4	-42.4	22.4	0.00e+00	4	41	0	443547648	56	6029
2026-01-22 14:38:46.40	24.89	28.04	-41.6	-42.6	22.3	0.00e+00	92	41	0	445644800	56	6149
2026-01-22 14:38:47.12	24.92	28.17	-41.7	-42.8	22.2	0.00e+00	0	41	0	447741952	56	6256
2026-01-22 14:38:48.42	24.96	28.40	-41.8	-42.9	22.0	0.00e+00	91	41	0	449839104	56	6340
2026-01-22 14:38:49.14	24.99	28.53	-41.9	-43.0	22.0	0.00e+00	3	41	0	450887680	56	6409
2026-01-22 14:38:50.44	25.03	28.76	-41.7	-42.8	22.1	0.00e+00	0	41	0	454033408	56	6281
2026-01-22 14:38:51.16	25.06	28.89	-41.8	-42.9	22.1	0.00e+00	4	41	0	455081984	56	6329
2026-01-22 14:38:52.46	25.11	29.13	-41.9	-43.0	22.0	0.00e+00	2	41	0	457179136	56	6426
2026-01-22 14:38:53.18	25.14	29.26	-42.0	-43.1	21.8	0.00e+00	61	41	0	459276288	56	6509
2026-01-22 14:38:54.48	25.18	29.50	-42.3	-43.4	21.7	0.00e+00	0	41	0	461373440	56	6717
2026-01-22 14:38:55.20	25.21	29.63	-42.3	-43.4	21.5	0.00e+00	92	41	0	462422016	56	6730
2026-01-22 14:38:56.49	25.26	29.88	-42.6	-43.8	21.3	0.00e+00	0	41	0	464519168	56	7068
2026-01-22 14:38:57.22	25.29	30.01	-42.8	-44.0	21.0	0.00e+00	91	41	0	466616320	58	6405
2026-01-22 14:38:58.51	25.34	30.26	-42.6	-43.8	21.1	0.00e+00	0	41	0	468713472	58	6300
2026-01-22 14:38:59.23	25.37	30.40	-42.5	-43.7	21.3	0.00e+00	0	41	0	469762048	58	6197
2026-01-22 14:39:00.53	25.42	30.65	-42.7	-43.9	21.1	0.00e+00	91	41	0	472907776	58	6354
2026-01-22 14:39:01.26	25.45	30.79	-42.8	-44.0	21.1	0.00e+00	2	41	0	473956352	58	6424
2026-01-22 14:39:02.56	25.50	31.04	-42.8	-44.0	20.9	0.00e+00	92	41	0	476053504	58	6404
2026-01-22 14:39:03.28	25.53	31.18	-42.8	-44.0	21.1	0.00e+00	0	41	0	478150656	58	6438
2026-01-22 14:39:04.57	25.59	31.44	-42.8	-44.1	21.0	0.00e+00	76	41	0	480247808	58	6466
2026-01-22 14:39:05.30	25.62	31.58	-42.9	-44.1	21.0	0.00e+00	2	41	0	481296384	58	6539
2026-01-22 14:39:06.59	25.67	31.84	-42.8	-44.0	21.1	0.00e+00	0	41	0	484442112	58	6429
2026-01-22 14:39:07.31	25.70	31.99	-42.8	-44.0	20.9	0.00e+00	0	41	0	485490688	58	6464
2026-01-22 14:39:08.61	25.76	32.25	-42.9	-44.2	20.8	0.00e+00	0	41	0	487587840	58	6549
2026-01-22 14:39:09.33	25.79	32.40	-42.8	-44.0	21.0	0.00e+00	7	41	0	488636416	58	6426
2026-01-22 14:39:10.63	25.85	32.67	-42.7	-43.9	21.1	0.00e+00	80	41	0	491782144	58	6382
2026-01-22 14:39:11.35	25.88	32.81	-42.6	-43.8	21.3	0.00e+00	92	41	0	492830720	58	6273
2026-01-22 14:39:12.65	25.94	33.09	-42.4	-43.6	21.4	0.00e+00	0	41	0	494927872	58	6146
2026-01-22 14:39:13.37	25.98	33.24	-42.3	-43.4	21.6	0.00e+00	92	41	0	497025024	58	6018
2026-01-22 14:39:14.67	26.04	33.51	-42.1	-43.2	21.9	0.00e+00	0	41	0	499122176	58	5844
2026-01-22 14:39:15.40	26.07	33.67	-42.0	-43.1	21.9	0.00e+00	0	41	0	500170752	58	5815
2026-01-22 14:39:16.69	26.13	33.94	-41.8	-42.9	22.1	0.00e+00	92	41	0	503316480	56	6360
2026-01-22 14:39:17.42	26.17	34.10	-41.8	-42.9	22.1	0.00e+00	0	41	0	504365056	56	6344
2026-01-22 14:39:18.71	26.23	34.38	-41.3	-42.3	22.7	0.00e+00	92	41	0	506462208	56	5902
2026-01-22 14:39:19.44	26.27	34.54	-41.0	-42.0	23.0	0.00e+00	75	41	0	507510784	56	5734
2026-01-22 14:39:20.73	26.33	34.83	-41.0	-41.9	23.1	0.00e+00	7	41	0	510656512	56	5687
2026-01-22 14:39:21.46	26.37	34.99	-40.7	-41.6	23.2	0.00e+00	2	41	0	511705088	54	6134
2026-01-22 14:39:22.75	26.44	35.28	-40.8	-41.7	23.1	0.00e+00	82	41	0	513802240	54	6236
2026-01-22 14:39:23.48	26.48	35.44	-40.7	-41.7	23.2	0.00e+00	2	41	0	515899392	54	6202
2026-01-22 14:39:24.77	26.55	35.74	-40.6	-41.5	23.3	0.00e+00	82	41	0	517996544	54	6060
2026-01-22 14:39:25.50	26.58	35.90	-40.4	-41.3	23.5	0.00e+00	92	41	0	519045120	54	5940
2026-01-22 14:39:26.79	26.65	36.20	-40.5	-41.4	23.4	0.00e+00	5	41	0	522190848	54	5996
2026-01-22 14:39:27.51	26.69	36.37	-40.3	-41.2	23.5	0.00e+00	92	41	0	523239424	54	5834
2026-01-22 14:39:28.81	26.77	36.67	-40.3	-41.2	23.5	0.00e+00	0	41	0	525336576	54	5888
2026-01-22 14:39:29.54	26.81	36.84	-40.4	-41.3	23.4	0.00e+00	4	41	0	527433728	54	5964
2026-01-22 14:39:30.83	26.88	37.15	-40.5	-41.4	23.4	0.00e+00	0	41	0	529530880	54	6015
2026-01-22 14:39:31.55	26.93	37.32	-40.3	-41.2	23.5	0.00e+00	0	41	0	530579456	54	5852
2026-01-22 14:39:32.85	27.00	37.63	-40.1	-41.0	23.7	0.00e+00	92	41	0	533725184	54	5707
2026-01-22 14:39:33.58	27.05	37.81	-40.1	-41.0	23.8	0.00e+00	76	41	0	534773760	54	5716
2026-01-22 14:39:34.87	27.12	38.12	-40.0	-40.9	23.9	0.00e+00	6	41	0	536870912	54	5683
2026-01-22 14:39:35.59	27.17	38.30	-40.3	-41.2	23.6	0.00e+00	78	41	0	537919488	54	5849
2026-01-22 14:39:36.89	27.25	38.62	-40.4	-41.3	23.6	0.00e+00	0	41	0	541065216	54	5906
2026-01-22 14:39:37.61	27.30	38.80	-40.4	-41.3	23.5	0.00e+00	77	41	0	542113792	54	5948
2026-01-22 14:39:38.91	27.38	39.13	-40.7	-41.6	23.1	0.00e+00	6	41	0	544210944	54	6154
2026-01-22 14:39:39.63	27.43	39.31	-40.8	-41.7	23.2	0.00e+00	0	41	0	546308096	54	6206
2026-01-22 14:39:40.93	27.51	39.64	-41.0	-42.0	22.9	0.00e+00	7	41	0	548405248	54	6428
2026-01-22 14:39:41.65	27.56	39.83	-41.1	-42.1	22.7	0.00e+00	92	41	0	549453824	54	6511
2026-01-22 14:39:42.95	27.65	40.16	-41.5	-42.5	22.4	0.00e+00	7	41	0	552599552	54	6787
2026-01-22 14:39:43.67	27.70	40.35	-41.6	-42.7	22.3	0.00e+00	92	41	0	553648128	54	6939
2026-01-22 14:39:44.96	27.79	40.69	-41.7	-42.7	22.2	0.00e+00	80	41	0	555745280	54	6983
2026-01-22 14:39:45.68	27.84	40.88	-41.7	-42.8	22.0	0.00e+00	7	41	0	556793856	54	7047
2026-01-22 14:39:46.98	27.94	41.22	-41.8	-42.8	22.1	0.00e+00	77	41	0	559939584	56	6289
2026-01-22 14:39:47.71	27.99	41.42	-42.0	-43.0	21.9	0.00e+00	0	41	0	560988160	56	6460
2026-01-22 14:39:49.00	28.09	41.77	-42.0	-43.1	22.0	0.00e+00	91	41	0	563085312	56	6499
2026-01-22 14:39:49.73	28.14	41.97	-41.8	-42.9	22.1	0.00e+00	5	41	0	565182464	56	6358
2026-01-22 14:39:51.03	28.24	42.32	-41.8	-42.9	22.3	0.00e+00	0	41	0	567279616	56	6374
2026-01-22 14:39:51.75	28.30	42.52	-42.0	-43.0	22.0	0.00e+00	86	41	0	568328192	56	6448
2026-01-22 14:39:53.05	28.40	42.88	-41.4	-42.4	22.6	0.00e+00	0	41	0	571473920	56	5983
2026-01-22 14:39:53.77	28.46	43.09	-41.3	-42.2	22.7	0.00e+00	1	41	0	572522496	56	5891
2026-01-22 14:39:55.07	28.57	43.45	-41.3	-42.3	22.7	0.00e+00	0	41	0	574619648	56	5915
2026-01-22 14:39:55.79	28.63	43.66	-41.1	-42.1	22.8	0.00e+00	0	41	0	575668224	56	5796
2026-01-22 14:39:57.09	28.74	44.03	-41.0	-42.0	22.8	0.00e+00	0	41	0	578813952	56	5727
2026-01-22 14:39:57.81	28.81	44.24	-41.1	-42.1	22.8	0.00e+00	91	41	0	579862528	56	5799
2026-01-22 14:39:59.10	28.92	44.61	-41.4	-42.4	22.6	0.00e+00	0	41	0	581959680	56	5973
2026-01-22 14:39:59.82	28.99	44.82	-41.6	-42.6	22.4	0.00e+00	91	41	0	584056832	56	6139
2026-01-22 14:40:01.12	29.10	45.21	-42.2	-43.3	21.8	0.00e+00	0	41	0	586153984	56	6623
2026-01-22 14:40:01.84	29.17	45.42	-42.6	-43.7	21.3	0.00e+00	0	41	0	587202560	56	6975
2026-01-22 14:40:03.14	29.30	45.81	-42.9	-44.2	21.0	0.00e+00	90	41	0	590348288	58	6557
2026-01-22 14:40:03.86	29.37	46.02	-42.8	-44.0	21.1	0.00e+00	0	41	0	591396864	58	6420
2026-01-22 14:40:05.16	29.49	46.42	-43.0	-44.3	20.9	0.00e+00	91	41	0	593494016	58	6649
2026-01-22 14:40:05.88	29.57	46.64	-43.0	-44.3	20.9	0.00e+00	6	41	0	595591168	58	6640
2026-01-22 14:40:07.18	29.70	47.04	-42.9	-44.1	20.9	0.00e+00	6	41	0	597688320	58	6510
2026-01-22 14:40:07.90	29.78	47.26	-42.7	-43.9	21.2	0.00e+00	7	41	0	598736896	58	6349
2026-01-22 14:40:09.20	29.91	47.67	-42.6	-43.8	21.3	0.00e+00	75	41	0	601882624	58	6304
2026-01-22 14:40:09.92	29.99	47.89	-42.5	-43.7	21.6	0.00e+00	5	41	0	602931200	58	6188
2026-01-22 14:40:11.22	30.14	48.31	-42.2	-43.3	21.8	0.00e+00	0	41	0	605028352	58	5903
2026-01-22 14:40:11.94	30.22	48.54	-42.2	-43.3	21.7	0.00e+00	0	41	0	606076928	58	5937
2026-01-22 14:40:13.24	30.37	48.95	-42.0	-43.0	21.9	0.00e+00	0	41	0	609222656	58	5758
2026-01-22 14:40:13.96	30.45	49.19	-42.0	-43.1	21.9	0.00e+00	92	41	0	610271232	58	5813
2026-01-22 14:40:15.26	30.61	49.61	-41.5	-42.5	22.5	0.00e+00	0	41	0	612368384	56	6065
2026-01-22 14:40:15.98	30.70	49.85	-41.4	-42.5	22.6	0.00e+00	80	41	0	614465536	56	6036
2026-01-22 14:40:17.28	30.86	50.27	-40.8	-41.7	23.2	0.00e+00	83	41	0	616562688	56	5531
2026-01-22 14:40:18.00	30.95	50.51	-40.6	-41.5	23.4	0.00e+00	0	41	0	617611264	54	6088
2026-01-22 14:40:19.30	31.12	50.95	-40.1	-41.0	23.7	0.00e+00	92	41	0	620756992	54	5752
2026-01-22 14:40:20.02	31.22	51.19	-39.8	-40.7	24.1	0.00e+00	0	41	0	621805568	54	5531
2026-01-22 14:40:21.32	31.40	51.63	-39.0	-39.8	24.8	0.00e+00	6	41	0	623902720	52	5602
2026-01-22 14:40:22.04	31.50	51.88	-38.6	-39.4	25.1	0.00e+00	80	41	0	624951296	50	6001
2026-01-22 14:40:23.34	31.69	52.33	-38.0	-38.7	25.6	0.00e+00	7	41	0	628097024	50	5556
2026-01-22 14:40:24.06	31.79	52.58	-37.9	-38.6	25.9	0.00e+00	0	41	0	629145600	50	5468
2026-01-22 14:40:25.36	31.99	53.03	-37.7	-38.4	25.9	0.00e+00	8	41	0	631242752	48	6009
2026-01-22 14:40:26.08	32.10	53.28	-37.3	-38.0	26.2	0.00e+00	0	41	0	633339904	48	5740
2026-01-22 14:40:27.37	32.30	53.74	-37.2	-37.9	25.9	0.00e+00	0	41	0	635437056	48	5651
2026-01-22 14:40:28.09	32.42	53.99	-37.1	-37.8	26.2	0.00e+00	91	41	0	636485632	48	5597
2026-01-22 14:40:29.39	32.63	54.46	-37.2	-37.9	26.3	0.00e+00	7	41	0	639631360	48	5674
2026-01-22 14:40:30.11	32.75	54.72	-37.3	-38.1	26.1	0.00e+00	92	41	0	640679936	48	5770
2026-01-22 14:40:31.41	32.98	55.19	-37.5	-38.2	26.0	0.00e+00	0	41	0	642777088	48	5886
2026-01-22 14:40:32.13	33.11	55.45	-37.4	-38.1	26.1	0.00e+00	6	41	0	643825664	48	5779
2026-01-22 14:40:33.43	33.34	55.93	-37.7	-38.4	25.8	0.00e+00	92	41	0	646971392	48	6024
2026-01-22 14:40:34.15	33.48	56.19	-38.0	-38.7	25.7	0.00e+00	6	41	0	648019968	48	6217
2026-01-22 14:40:35.45	33.73	56.68	-38.3	-39.1	25.2	0.00e+00	80	41	0	650117120	48	6502
2026-01-22 14:40:36.17	33.87	56.95	-38.5	-39.3	25.2	0.00e+00	75	41	0	652214272	48	6640
2026-01-22 14:40:37.47	34.14	57.43	-38.7	-39.5	25.0	0.00e+00	0	41	0	654311424	48	6798
2026-01-22 14:40:38.19	34.29	57.71	-38.8	-39.6	25.0	0.00e+00	6	41	0	655360000	50	6155
2026-01-22 14:40:39.49	34.57	58.20	-38.9	-39.7	24.9	0.00e+00	0	41	0	658505728	50	6205
2026-01-22 14:40:40.21	34.72	58.48	-39.0	-39.8	24.9	0.00e+00	0	41	0	659554304	50	6298
2026-01-22 14:40:41.51	35.02	58.97	-38.9	-39.7	24.8	0.00e+00	5	41	0	661651456	50	6221
2026-01-22 14:40:42.23	35.19	59.25	-38.8	-39.6	24.9	0.00e+00	0	41	0	663748608	50	6163
2026-01-22 14:40:43.53	35.50	59.76	-38.6	-39.4	25.3	0.00e+00	0	41	0	665845760	50	5967
2026-01-22 14:40:44.25	35.68	60.04	-38.4	-39.1	25.3	0.00e+00	92	41	0	666894336	50	5816
2026-01-22 14:40:45.55	36.01	60.55	-38.4	-39.1	25.3	0.00e+00	1	41	0	670040064	50	5821
2026-01-22 14:40:46.27	36.20	60.83	-38.3	-39.0	25.4	0.00e+00	91	41	0	671088640	50	5749
2026-01-22 14:40:47.57	36.56	61.35	-38.2	-38.9	25.5	0.00e+00	0	41	0	673185792	50	5683
2026-01-22 14:40:48.29	36.76	61.63	-38.0	-38.8	25.5	0.00e+00	0	41	0	674234368	50	5569
2026-01-22 14:40:49.59	37.14	62.15	-37.8	-38.5	25.8	0.00e+00	92	41	0	677380096	48	6099
2026-01-22 14:40:50.31	37.35	62.44	-38.0	-38.8	25.6	0.00e+00	0	41	0	678428672	48	6274
2026-01-22 14:40:51.61	37.75	62.97	-38.2	-39.0	25.4	0.00e+00	50	41	0	680525824	48	6419
2026-01-22 14:40:52.34	37.99	63.26	-38.3	-39.0	25.4	0.00e+00	9	41	0	682622976	48	6442
2026-01-22 14:40:53.63	38.42	63.79	-38.9	-39.7	24.8	0.00e+00	0	41	0	684720128	50	6206
2026-01-22 14:40:54.36	38.67	64.09	-39.1	-39.9	24.6	0.00e+00	72	41	0	685768704	50	6342
2026-01-22 14:40:55.65	39.13	64.61	-39.5	-40.4	24.2	0.00e+00	0	41	0	688914432	50	6718
2026-01-22 14:40:56.38	39.40	64.91	-39.9	-40.7	23.9	0.00e+00	10	41	0	689963008	52	6220
2026-01-22 14:40:57.67	39.89	65.45	-40.3	-41.2	23.6	0.00e+00	0	41	0	692060160	52	6602
2026-01-22 14:40:58.39	40.18	65.74	-40.5	-41.4	23.4	0.00e+00	90	41	0	693108736	52	6728
2026-01-22 14:40:59.69	40.71	66.28	-40.9	-41.8	23.0	0.00e+00	0	41	0	696254464	54	6296
2026-01-22 14:41:00.41	41.02	66.58	-41.1	-42.1	22.7	0.00e+00	92	41	0	697303040	54	6516
2026-01-22 14:41:01.71	41.60	67.12	-41.4	-42.5	22.4	0.00e+00	2	41	0	699400192	54	6801
2026-01-22 14:41:02.43	41.93	67.42	-41.5	-42.6	22.3	0.00e+00	91	41	0	701497344	54	6901
2026-01-22 14:41:03.73	42.56	67.97	-41.3	-42.3	22.5	0.00e+00	0	41	0	703594496	54	6639
2026-01-22 14:41:04.45	42.92	68.27	-41.1	-42.1	22.8	0.00e+00	0	41	0	704643072	54	6519
2026-01-22 14:41:05.75	43.61	68.81	-40.5	-41.5	23.2	0.00e+00	92	41	0	707788800	54	6058
2026-01-22 14:41:06.47	44.00	69.11	-40.5	-41.5	22.9	0.00e+00	0	41	0	708837376	54	6049
2026-01-22 14:41:07.77	44.74	69.66	-40.3	-41.2	23.5	0.00e+00	4	41	0	710934528	54	5868
2026-01-22 14:41:08.49	45.17	69.96	-40.5	-41.4	23.4	0.00e+00	0	41	0	711983104	54	5998
2026-01-22 14:41:09.79	45.99	70.51	-40.4	-41.3	23.4	0.00e+00	7	41	0	715128832	54	5918
2026-01-22 14:41:10.51	46.46	70.81	-40.7	-41.7	23.2	0.00e+00	0	41	0	716177408	54	6188
2026-01-22 14:41:11.81	47.35	71.35	-41.0	-41.9	22.8	0.00e+00	0	41	0	718274560	54	6384
2026-01-22 14:41:12.53	47.87	71.65	-41.4	-42.4	22.5	0.00e+00	0	41	0	720371712	54	6741
2026-01-22 14:41:13.83	48.85	72.19	-41.7	-42.8	22.3	0.00e+00	6	41	0	722468864	56	6293
2026-01-22 14:41:14.55	49.42	72.49	-41.6	-42.7	22.3	0.00e+00	90	41	0	723517440	56	6175
2026-01-22 14:41:15.84	50.50	73.02	-41.8	-42.8	22.2	0.00e+00	0	41	0	726663168	56	6283
2026-01-22 14:41:16.56	51.13	73.32	-42.1	-43.2	21.7	0.00e+00	92	41	0	727711744	56	6571
2026-01-22 14:41:17.86	52.33	73.85	-43.8	-45.2	19.9	0.00e+00	4	41	0	729808896	58	7417
2026-01-22 14:41:18.59	53.04	74.14	-43.9	-45.3	19.9	0.00e+00	81	41	0	731906048	60	6682
2026-01-22 14:41:19.88	54.37	74.66	-43.2	-44.5	20.7	0.00e+00	73	41	0	734003200	60	6098
2026-01-22 14:41:20.61	55.16	74.95	-42.5	-43.7	21.3	0.00e+00	0	41	0	735051776	58	6219
2026-01-22 14:41:21.90	56.64	75.46	-42.4	-43.6	21.4	0.00e+00	90	41	0	738197504	58	6112
2026-01-22 14:41:22.62	57.52	75.74	-42.7	-43.9	21.1	0.00e+00	0	41	0	739246080	58	6373
2026-01-22 14:41:23.92	59.19	76.24	-43.3	-44.5	20.6	0.00e+00	6	41	0	741343232	58	6842
2026-01-22 14:41:24.64	60.16	76.51	-44.1	-45.5	19.6	0.00e+00	74	41	0	742391808	60	6834
2026-01-22 14:41:25.94	62.04	76.99	-44.7	-46.3	18.9	0.00e+00	6	41	0	745537536	60	7484
2026-01-22 14:41:26.66	63.14	77.25	-44.9	-46.6	18.7	0.00e+00	0	41	0	746586112	60	7707
2026-01-22 14:41:27.96	65.24	77.71	-44.3	-45.8	19.4	0.00e+00	74	41	0	748683264	60	7066
2026-01-22 14:41:28.68	66.48	77.96	-43.8	-45.2	19.8	0.00e+00	0	41	0	750780416	60	6585
2026-01-22 14:41:29.98	68.84	78.39	-42.8	-44.0	21.1	0.00e+00	74	41	0	752877568	60	5744
2026-01-22 14:41:30.70	70.23	78.63	-41.5	-42.5	22.4	0.00e+00	92	41	0	753926144	56	6067
2026-01-22 14:41:32.00	72.89	79.03	-41.1	-42.0	22.8	0.00e+00	75	41	0	757071872	56	5756
2026-01-22 14:41:32.72	74.45	79.24	-41.5	-42.5	22.5	0.00e+00	90	41	0	758120448	56	6067
2026-01-22 14:41:34.01	77.39	79.60	-41.6	-42.6	22.4	0.00e+00	10	41	0	760217600	56	6164
2026-01-22 14:41:34.73	79.13	79.79	-40.8	-41.8	23.3	0.00e+00	7	41	0	761266176	56	5576
2026-01-22 14:41:36.03	82.43	80.11	-40.5	-41.5	23.3	0.00e+00	92	41	0	764411904	54	6041
2026-01-22 14:41:36.75	84.34	80.28	-40.2	-41.1	23.6	0.00e+00	80	41	0	765460480	54	5820
2026-01-22 14:41:38.05	87.97	80.54	-40.2	-41.1	23.6	0.00e+00	19	41	0	767557632	54	5812
2026-01-22 14:41:38.77	90.06	80.67	-40.7	-41.7	23.0	0.00e+00	80	41	0	769654784	54	6190
2026-01-22 14:41:40.07	93.98	80.87	-41.0	-42.0	22.8	0.00e+00	2	41	0	771751936	54	6419
2026-01-22 14:41:40.79	96.22	80.97	-40.9	-41.9	22.9	0.00e+00	5	41	0	772800512	54	6334
2026-01-22 14:41:42.09	100.38	81.10	-41.1	-42.1	22.7	0.00e+00	0	41	0	775946240	54	6471
2026-01-22 14:41:42.81	102.73	81.16	-41.1	-42.1	22.8	0.00e+00	0	41	0	776994816	54	6514
2026-01-22 14:41:44.11	107.03	81.22	-40.6	-41.6	23.1	0.00e+00	2	41	0	779091968	54	6127
2026-01-22 14:41:44.83	109.43	81.23	-41.1	-42.0	22.6	0.00e+00	79	41	0	780140544	54	6446
2026-01-22 14:41:46.13	113.76	81.21	-42.0	-43.1	21.9	0.00e+00	1	41	0	783286272	56	6520
2026-01-22 14:41:46.85	116.15	81.18	-41.8	-42.9	21.9	0.00e+00	91	41	0	784334848	56	6337
2026-01-22 14:41:48.15	120.40	81.09	-41.8	-42.9	22.2	0.00e+00	79	41	0	786432000	56	6370
2026-01-22 14:41:48.87	122.71	81.02	-41.5	-42.6	22.5	0.00e+00	91	41	0	788529152	56	6108
2026-01-22 14:41:50.17	126.77	80.85	-40.6	-41.5	23.3	0.00e+00	4	41	0	790626304	54	6100
2026-01-22 14:41:50.88	128.93	80.74	-40.7	-41.6	23.2	0.00e+00	0	41	0	791674880	54	6124
2026-01-22 14:41:52.18	132.73	80.51	-40.5	-41.5	23.3	0.00e+00	92	41	0	794820608	54	6056
2026-01-22 14:41:52.91	134.77	80.37	-39.9	-40.8	23.9	0.00e+00	8	41	0	795869184	52	6262
2026-01-22 14:41:54.20	138.23	80.08	-39.6	-40.5	24.2	0.00e+00	85	41	0	797966336	52	6056
2026-01-22 14:41:54.92	140.07	79.90	-40.2	-41.1	23.7	0.00e+00	8	41	0	800063488	52	6500
2026-01-22 14:41:56.22	143.23	79.56	-40.1	-41.0	23.4	0.00e+00	76	41	0	802160640	52	6439
2026-01-22 14:41:56.94	144.89	79.36	-40.3	-41.2	23.5	0.00e+00	7	41	0	803209216	52	6570
2026-01-22 14:41:58.24	147.72	78.98	-40.5	-41.5	23.4	0.00e+00	74	41	0	805306368	52	6785
2026-01-22 14:41:58.96	149.21	78.76	-40.4	-41.4	23.4	0.00e+00	77	41	0	807403520	52	6705
2026-01-22 14:42:00.26	151.73	78.34	-41.5	-42.6	22.4	0.00e+00	0	41	0	809500672	54	6858
2026-01-22 14:42:00.98	153.06	78.10	-42.0	-43.1	21.8	0.00e+00	92	41	0	810549248	56	6510
2026-01-22 14:42:02.28	155.31	77.65	-41.3	-42.3	22.7	0.00e+00	0	41	0	813694976	56	5918
2026-01-22 14:42:03.00	156.48	77.40	-41.4	-42.4	22.6	0.00e+00	92	41	0	814743552	56	6003
2026-01-22 14:42:04.30	158.48	76.93	-42.1	-43.2	21.8	0.00e+00	0	41	0	816840704	56	6578
2026-01-22 14:42:05.02	159.53	76.66	-42.4	-43.5	21.6	0.00e+00	0	41	0	818937856	56	6817
2026-01-22 14:42:06.32	161.31	76.17	-42.2	-43.3	21.8	0.00e+00	92	41	0	821035008	56	6685
2026-01-22 14:42:07.04	162.24	75.90	-42.2	-43.3	21.5	0.00e+00	74	41	0	822083584	56	6623
2026-01-22 14:42:08.34	163.83	75.39	-43.3	-44.6	20.3	0.00e+00	92	41	0	825229312	58	6896
2026-01-22 14:42:09.06	164.66	75.11	-43.8	-45.2	19.8	0.00e+00	0	41	0	826277888	60	6576
2026-01-22 14:42:10.36	166.09	74.59	-44.1	-45.6	19.8	0.00e+00	0	41	0	828375040	60	6902
2026-01-22 14:42:11.08	166.83	74.30	-43.3	-44.6	20.5	0.00e+00	0	41	0	829423616	60	6134
2026-01-22 14:42:12.38	168.11	73.78	-42.7	-43.9	21.2	0.00e+00	8	41	0	832569344	60	5644
2026-01-22 14:42:13.10	168.78	73.48	-42.8	-44.0	21.1	0.00e+00	2	41	0	833617920	58	6447
2026-01-22 14:42:14.40	169.93	72.95	-42.6	-43.8	21.2	0.00e+00	79	41	0	835715072	58	6282
2026-01-22 14:42:15.12	170.53	72.65	-42.4	-43.6	21.5	0.00e+00	2	41	0	837812224	58	6108
2026-01-22 14:42:16.42	171.57	72.11	-41.4	-42.4	22.7	0.00e+00	0	41	0	839909376	56	6012
2026-01-22 14:42:17.14	172.12	71.81	-40.9	-41.9	23.0	0.00e+00	92	41	0	840957952	56	5634
2026-01-22 14:42:18.44	173.06	71.27	-41.0	-42.0	22.9	0.00e+00	0	41	0	844103680	54	6428
2026-01-22 14:42:19.16	173.56	70.97	-41.5	-42.5	22.4	0.00e+00	91	41	0	845152256	54	6815
2026-01-22 14:42:20.46	174.41	70.42	-41.1	-42.1	22.7	0.00e+00	0	41	0	847249408	54	6526
2026-01-22 14:42:21.18	174.87	70.12	-41.3	-42.4	22.3	0.00e+00	80	41	0	848297984	54	6711
2026-01-22 14:42:22.48	175.65	69.58	-42.0	-43.2	21.7	0.00e+00	92	41	0	851443712	56	6543
2026-01-22 14:42:23.20	176.06	69.27	-42.4	-43.6	21.2	0.00e+00	0	41	0	852492288	56	6894
2026-01-22 14:42:24.50	176.78	68.73	-43.3	-44.7	20.4	0.00e+00	92	41	0	854589440	58	6929
2026-01-22 14:42:25.22	177.16	68.43	-43.0	-44.2	20.9	0.00e+00	75	41	0	856686592	58	6601
2026-01-22 14:42:26.52	177.82	67.88	-41.8	-42.9	22.0	0.00e+00	2	41	0	858783744	58	5665
2026-01-22 14:42:27.24	178.16	67.58	-42.0	-43.0	21.6	0.00e+00	0	41	0	859832320	58	5749
2026-01-22 14:42:28.54	178.77	67.04	-43.0	-44.3	20.8	0.00e+00	7	41	0	862978048	58	6645
2026-01-22 14:42:29.26	179.09	66.73	-42.7	-43.9	21.1	0.00e+00	2	41	0	864026624	58	6340
2026-01-22 14:42:30.56	179.65	66.19	-41.5	-42.6	22.4	0.00e+00	4	41	0	866123776	56	6106
2026-01-22 14:42:31.28	179.95	65.89	-41.2	-42.2	22.8	0.00e+00	80	41	0	868220928	56	5838
2026-01-22 14:42:32.57	180.47	65.36	-40.2	-41.1	23.6	0.00e+00	75	41	0	870318080	54	5815
2026-01-22 14:42:33.29	180.74	65.06	-40.0	-40.9	23.7	0.00e+00	92	41	0	871366656	54	5675
2026-01-22 14:42:34.59	181.23	64.53	-41.8	-42.9	21.9	0.00e+00	0	41	0	873463808	54	7135
2026-01-22 14:42:35.31	181.48	64.23	-41.7	-42.8	22.1	0.00e+00	0	41	0	875560960	56	6308
2026-01-22 14:42:36.61	181.93	63.70	-40.0	-40.9	23.9	0.00e+00	58	41	0	877658112	54	5631
2026-01-22 14:42:37.33	182.17	63.41	-39.6	-40.4	24.3	0.00e+00	0	41	0	878706688	52	6008
2026-01-22 14:42:38.63	182.59	62.88	-39.7	-40.5	24.1	0.00e+00	92	41	0	881852416	52	6094
2026-01-22 14:42:39.35	182.81	62.59	-39.9	-40.8	23.8	0.00e+00	8	41	0	882900992	52	6300
2026-01-22 14:42:40.64	183.20	62.07	-39.6	-40.5	24.1	0.00e+00	91	41	0	884998144	52	6075
2026-01-22 14:42:41.37	183.41	61.77	-39.8	-40.7	24.0	0.00e+00	76	41	0	887095296	52	6212
2026-01-22 14:42:42.66	183.78	61.26	-39.5	-40.4	24.2	0.00e+00	7	41	0	889192448	52	6001
2026-01-22 14:42:43.38	183.98	60.97	-39.5	-40.4	24.3	0.00e+00	0	41	0	890241024	52	5968
2026-01-22 14:42:44.68	184.32	60.46	-39.6	-40.5	24.0	0.00e+00	5	41	0	893386752	52	6063
2026-01-22 14:42:45.40	184.50	60.17	-40.5	-41.5	23.1	0.00e+00	0	41	0	894435328	52	6811
2026-01-22 14:42:46.70	184.83	59.67	-42.6	-43.8	21.2	0.00e+00	6	41	0	896532480	56	7049
2026-01-22 14:42:47.42	185.00	59.39	-42.6	-43.8	21.3	0.00e+00	92	41	0	897581056	56	7025
2026-01-22 14:42:48.72	185.31	58.88	-41.4	-42.4	22.5	0.00e+00	1	41	0	900726784	56	5981
2026-01-22 14:42:49.44	185.47	58.60	-41.4	-42.4	22.5	0.00e+00	92	41	0	901775360	56	6013
2026-01-22 14:42:50.74	185.76	58.11	-42.2	-43.3	21.6	0.00e+00	5	41	0	903872512	56	6668
2026-01-22 14:42:51.46	185.92	57.83	-42.2	-43.4	21.6	0.00e+00	0	41	0	905969664	56	6693
2026-01-22 14:42:52.76	186.19	57.34	-41.1	-42.1	22.8	0.00e+00	73	41	0	908066816	56	5826
2026-01-22 14:42:53.48	186.33	57.07	-40.9	-41.8	23.0	0.00e+00	0	41	0	909115392	56	5612
2026-01-22 14:42:54.78	186.59	56.58	-40.9	-41.8	22.9	0.00e+00	92	41	0	912261120	56	5626
2026-01-22 14:42:55.50	186.73	56.31	-40.6	-41.6	23.2	0.00e+00	2	41	0	913309696	54	6119
2026-01-22 14:42:56.80	186.98	55.83	-39.3	-40.2	24.5	0.00e+00	0	41	0	915406848	52	5843
2026-01-22 14:42:57.52	187.11	55.56	-39.0	-39.8	24.7	0.00e+00	0	41	0	916455424	52	5576
2026-01-22 14:42:58.82	187.34	55.09	-39.0	-39.8	24.7	0.00e+00	80	41	0	919601152	52	5602
2026-01-22 14:42:59.54	187.46	54.83	-39.1	-40.0	24.6	0.00e+00	0	41	0	920649728	52	5712
2026-01-22 14:43:00.84	187.69	54.36	-38.9	-39.8	24.6	0.00e+00	0	41	0	922746880	52	5574
2026-01-22 14:43:01.56	187.80	54.10	-39.0	-39.8	24.7	0.00e+00	0	41	0	924844032	52	5578
2026-01-22 14:43:02.86	188.01	53.64	-39.0	-39.8	24.6	0.00e+00	6	41	0	926941184	52	5609
2026-01-22 14:43:03.58	188.13	53.38	-39.6	-40.5	24.1	0.00e+00	92	41	0	927989760	52	6044
2026-01-22 14:43:04.88	188.33	52.92	-39.7	-40.6	24.0	0.00e+00	5	41	0	931135488	52	6135
2026-01-22 14:43:05.60	188.44	52.67	-40.0	-40.9	23.7	0.00e+00	92	41	0	932184064	52	6340
2026-01-22 14:43:06.90	188.63	52.22	-40.1	-41.0	23.7	0.00e+00	6	41	0	934281216	52	6395
2026-01-22 14:43:07.62	188.73	51.97	-40.5	-41.4	23.1	0.00e+00	0	41	0	936378368	52	6761
2026-01-22 14:43:08.92	188.91	51.52	-41.5	-42.6	22.1	0.00e+00	92	41	0	938475520	54	6877
2026-01-22 14:43:09.65	189.01	51.28	-42.7	-43.9	20.2	0.00e+00	6	41	0	939524096	56	7112
2026-01-22 14:43:10.95	189.19	50.84	-44.8	-46.5	18.7	0.00e+00	92	41	0	941621248	60	7651
2026-01-22 14:43:11.67	189.28	50.59	-45.3	-47.2	18.1	0.00e+00	0	41	0	943718400	60	8303
2026-01-22 14:43:12.97	189.45	50.16	-45.4	-47.3	17.9	0.00e+00	75	41	0	945815552	60	8334
2026-01-22 14:43:13.69	189.54	49.92	-45.4	-47.2	18.0	0.00e+00	6	41	0	946864128	60	8300
2026-01-22 14:43:14.98	189.70	49.50	-44.8	-46.5	18.8	0.00e+00	1	41	0	950009856	60	7616
2026-01-22 14:43:15.70	189.79	49.26	-44.2	-45.7	19.4	0.00e+00	0	41	0	951058432	60	6989
2026-01-22 14:43:17.00	189.94	48.84	-44.7	-46.3	18.7	0.00e+00	0	41	0	953155584	60	7493
2026-01-22 14:43:17.72	190.02	48.61	-45.6	-47.6	17.4	0.00e+00	0	41	0	955252736	60	8635
2026-01-22 14:43:19.02	190.17	48.19	-47.6	-51.1	13.9	0.00e+00	0	41	0	957349888	60	12973
2026-01-22 14:43:19.74	190.25	47.96	-47.9	-51.7	13.4	1.29e-05	90	41	0	958398464	60	13834
2026-01-22 14:43:21.04	190.39	47.55	-46.1	-48.4	16.7	0.00e+00	0	41	0	961544192	60	9500
2026-01-22 14:43:21.76	190.47	47.33	-44.4	-46.0	19.2	0.00e+00	6	41	0	962592768	60	7204
2026-01-22 14:43:23.06	190.60	46.92	-42.8	-44.0	21.3	0.00e+00	91	41	0	964689920	60	5713
2026-01-22 14:43:23.78	190.68	46.70	-41.7	-42.8	22.3	0.00e+00	84	41	0	965738496	58	5568
2026-01-22 14:43:25.08	190.81	46.30	-41.0	-42.0	22.9	0.00e+00	92	41	0	968884224	56	5712
2026-01-22 14:43:25.80	190.88	46.08	-40.6	-41.5	23.2	0.00e+00	0	41	0	969932800	54	6047
2026-01-22 14:43:27.10	191.01	45.69	-41.0	-42.0	22.7	0.00e+00	53	41	0	972029952	54	6435
2026-01-22 14:43:27.82	191.08	45.47	-41.2	-42.2	22.6	0.00e+00	0	41	0	974127104	54	6554
2026-01-22 14:43:29.12	191.20	45.08	-41.3	-42.4	22.4	0.00e+00	2	41	0	976224256	54	6701
2026-01-22 14:43:29.84	191.26	44.87	-41.4	-42.4	22.4	0.00e+00	0	41	0	977272832	54	6767
2026-01-22 14:43:31.14	191.38	44.49	-41.5	-42.5	22.3	0.00e+00	3	41	0	980418560	54	6818
2026-01-22 14:43:31.86	191.44	44.28	-41.2	-42.2	22.6	0.00e+00	0	41	0	981467136	54	6556
2026-01-22 14:43:33.16	191.56	43.90	-40.6	-41.6	23.2	0.00e+00	5	41	0	983564288	54	6106
2026-01-22 14:43:33.88	191.62	43.70	-40.1	-41.0	23.6	0.00e+00	76	41	0	984612864	54	5700
2026-01-22 14:43:35.17	191.73	43.33	-39.5	-40.3	24.2	0.00e+00	76	41	0	987758592	52	5963
2026-01-22 14:43:35.89	191.79	43.12	-39.6	-40.4	24.4	0.00e+00	92	41	0	988807168	52	5986
2026-01-22 14:43:37.19	191.89	42.76	-38.4	-39.1	25.2	0.00e+00	2	41	0	990904320	50	5820
2026-01-22 14:43:37.91	191.95	42.56	-38.4	-39.1	25.2	0.00e+00	8	41	0	993001472	50	5810
2026-01-22 14:43:39.21	192.05	42.20	-39.2	-40.0	24.4	0.00e+00	89	41	0	995098624	50	6448
2026-01-22 14:43:39.93	192.11	42.00	-39.8	-40.7	23.9	0.00e+00	8	41	0	996147200	50	6946
2026-01-22 14:43:41.23	192.21	41.64	-41.1	-42.1	22.5	0.00e+00	90	41	0	999292928	54	6522
2026-01-22 14:43:41.95	192.26	41.45	-41.6	-42.8	21.9	0.00e+00	5	41	0	1000341504	54	7019
2026-01-22 14:43:43.25	192.36	41.10	-42.0	-43.1	21.9	0.00e+00	92	41	0	1002438656	56	6514
2026-01-22 14:43:43.97	192.41	40.91	-41.8	-43.0	22.1	0.00e+00	0	41	0	1004535808	56	6396
2026-01-22 14:43:45.27	192.50	40.56	-41.0	-42.0	23.0	0.00e+00	2	41	0	1006632960	56	5722
2026-01-22 14:43:45.99	192.55	40.37	-40.2	-41.2	23.6	0.00e+00	0	41	0	1007681536	54	5833
2026-01-22 14:43:47.29	192.64	40.03	-39.9	-40.8	23.7	0.00e+00	0	41	0	1009778688	54	5607
2026-01-22 14:43:48.01	192.69	39.85	-39.9	-40.8	23.8	0.00e+00	0	41	0	1011875840	54	5598
2026-01-22 14:43:49.31	192.78	39.51	-40.3	-41.2	23.4	0.00e+00	0	41	0	1013972992	54	5870
2026-01-22 14:43:50.03	192.83	39.33	-40.5	-41.4	23.2	0.00e+00	92	41	0	1015021568	54	6003
2026-01-22 14:43:51.33	192.91	39.00	-41.4	-42.5	22.2	0.00e+00	0	41	0	1018167296	54	6802
2026-01-22 14:43:52.05	192.96	38.82	-42.0	-43.2	21.7	0.00e+00	90	41	0	1019215872	56	6548
2026-01-22 14:43:53.35	193.04	38.49	-43.1	-44.5	20.4	0.00e+00	0	41	0	1021313024	58	6795
2026-01-22 14:43:54.07	193.09	38.31	-44.1	-45.7	19.3	0.00e+00	0	41	0	1023410176	60	6989
2026-01-22 14:43:55.36	193.17	37.99	-45.2	-47.2	17.9	0.00e+00	92	41	0	1025507328	60	8257
2026-01-22 14:43:56.08	193.21	37.82	-45.4	-47.4	17.7	0.00e+00	0	41	0	1026555904	60	8439
2026-01-22 14:43:57.38	193.29	37.50	-44.9	-46.8	18.3	0.00e+00	92	41	0	1029701632	60	7887
2026-01-22 14:43:58.10	193.33	37.33	-44.7	-46.4	18.7	0.00e+00	5	41	0	1030750208	60	7571
2026-01-22 14:43:59.40	193.40	37.02	-43.5	-45.0	20.1	0.00e+00	77	41	0	1032847360	60	6416
2026-01-22 14:44:00.12	193.45	36.84	-43.3	-44.7	20.4	0.00e+00	4	41	0	1033895936	60	6188
2026-01-22 14:44:01.42	193.52	36.54	-42.2	-43.4	21.6	0.00e+00	78	41	0	1037041664	58	5991
2026-01-22 14:44:02.14	193.56	36.37	-41.9	-43.0	22.0	0.00e+00	3	41	0	1038090240	58	5712
2026-01-22 14:44:03.44	193.63	36.07	-41.2	-42.1	22.7	0.00e+00	0	41	0	1040187392	56	5799
2026-01-22 14:44:04.16	193.67	35.90	-40.9	-41.8	23.0	0.00e+00	3	41	0	1042284544	56	5614
2026-01-22 14:44:05.46	193.74	35.60	-41.2	-42.1	22.7	0.00e+00	0	41	0	1044381696	56	5812
2026-01-22 14:44:06.18	193.78	35.44	-41.2	-42.2	22.5	0.00e+00	92	41	0	1045430272	56	5876
2026-01-22 14:44:07.48	193.85	35.14	-42.0	-43.1	21.7	0.00e+00	0	41	0	1048576000	56	6499
2026-01-22 14:44:08.20	193.88	34.98	-42.7	-43.8	21.1	0.00e+00	91	41	0	1049624576	56	7085
2026-01-22 14:44:09.50	193.95	34.69	-44.0	-45.5	19.5	0.00e+00	39	41	0	1051721728	60	6823
2026-01-22 14:44:10.22	193.99	34.53	-44.7	-46.5	18.6	0.00e+00	78	41	0	1052770304	60	7609
2026-01-22 14:44:11.52	194.05	34.25	-46.0	-48.2	16.8	0.00e+00	92	41	0	1055916032	60	9314
2026-01-22 14:44:12.24	194.09	34.09	-46.6	-49.1	15.9	0.00e+00	0	41	0	1056964608	60	10336
2026-01-22 14:44:13.54	194.15	33.81	-46.8	-49.4	15.6	0.00e+00	92	41	0	1059061760	60	10637
2026-01-22 14:44:14.26	194.18	33.65	-46.7	-49.3	15.9	0.00e+00	2	41	0	1061158912	60	10537
2026-01-22 14:44:15.55	194.24	33.38	-46.0	-48.1	17.0	0.00e+00	0	41	0	1063256064	60	9225
2026-01-22 14:44:16.28	194.28	33.22	-45.6	-47.6	17.5	0.00e+00	0	41	0	1064304640	60	8684
2026-01-22 14:44:17.57	194.34	32.95	-44.9	-46.6	18.5	0.00e+00	0	41	0	1067450368	60	7738
2026-01-22 14:44:18.29	194.37	32.80	-44.7	-46.4	18.8	0.00e+00	0	41	0	1068498944	60	7512
2026-01-22 14:44:19.59	194.43	32.53	-43.7	-45.0	20.0	0.00e+00	0	41	0	1070596096	60	6452
2026-01-22 14:44:20.31	194.46	32.38	-43.3	-44.6	20.5	0.00e+00	89	41	0	1072693248	60	6127
2026-01-22 14:44:21.61	194.52	32.11	-42.9	-44.1	20.9	0.00e+00	0	41	0	1074790400	60	5789
2026-01-22 14:44:22.33	194.55	31.96	-42.9	-44.2	20.8	0.00e+00	92	41	0	1075838976	60	5850
2026-01-22 14:44:23.63	194.60	31.70	-43.3	-44.6	20.5	0.00e+00	0	41	0	1077936128	60	6123
2026-01-22 14:44:24.35	194.64	31.56	-43.5	-44.8	20.2	0.00e+00	77	41	0	1080033280	60	6290
2026-01-22 14:44:25.64	194.69	31.30	-43.4	-44.7	20.2	0.00e+00	0	41	0	1082130432	60	6236
2026-01-22 14:44:26.37	194.72	31.15	-43.6	-45.0	20.1	0.00e+00	0	41	0	1083179008	60	6418
2026-01-22 14:44:27.66	194.77	30.90	-43.6	-44.9	20.1	0.00e+00	92	41	0	1086324736	60	6389
2026-01-22 14:44:28.39	194.80	30.76	-43.6	-45.0	20.0	0.00e+00	3	41	0	1087373312	60	6429
2026-01-22 14:44:29.68	194.85	30.51	-43.4	-44.7	20.3	0.00e+00	10	41	0	1089470464	60	6233
2026-01-22 14:44:30.41	194.88	30.37	-43.5	-44.9	20.2	0.00e+00	77	41	0	1091567616	60	6335
2026-01-22 14:44:31.71	194.93	30.12	-43.4	-44.8	20.2	0.00e+00	6	41	0	1093664768	60	6272
2026-01-22 14:44:32.43	194.96	29.98	-43.5	-44.9	20.1	0.00e+00	0	41	0	1094713344	60	6344
2026-01-22 14:44:33.72	195.01	29.74	-43.5	-44.8	20.2	0.00e+00	4	41	0	1097859072	60	6300
2026-01-22 14:44:34.44	195.04	29.60	-43.4	-44.8	20.2	0.00e+00	0	41	0	1098907648	60	6259
2026-01-22 14:44:35.74	195.09	29.36	-43.3	-44.6	20.5	0.00e+00	7	41	0	1101004800	60	6125
2026-01-22 14:44:36.46	195.11	29.22	-43.1	-44.4	20.6	0.00e+00	92	41	0	1102053376	60	6003
2026-01-22 14:44:37.76	195.16	28.98	-43.1	-44.4	20.5	0.00e+00	2	41	0	1105199104	60	6007
2026-01-22 14:44:38.48	195.19	28.85	-42.8	-44.0	20.9	0.00e+00	92	41	0	1106247680	60	5755
2026-01-22 14:44:39.78	195.24	28.62	-43.0	-44.3	20.8	0.00e+00	62	41	0	1108344832	60	5913
2026-01-22 14:44:40.50	195.26	28.49	-42.3	-43.5	21.4	0.00e+00	0	41	0	1110441984	58	6054
2026-01-22 14:44:41.80	195.31	28.25	-42.3	-43.4	21.5	0.00e+00	91	41	0	1112539136	58	5999
2026-01-22 14:44:42.52	195.33	28.12	-42.0	-43.1	21.7	0.00e+00	0	41	0	1113587712	58	5820
2026-01-22 14:44:43.82	195.38	27.89	-41.6	-42.7	22.1	0.00e+00	91	41	0	1116733440	58	5546
2026-01-22 14:44:44.54	195.40	27.77	-41.3	-42.3	22.5	0.00e+00	0	41	0	1117782016	56	5943
2026-01-22 14:44:45.84	195.45	27.54	-40.9	-41.8	23.0	0.00e+00	0	41	0	1119879168	56	5609
2026-01-22 14:44:46.56	195.47	27.41	-40.8	-41.8	22.9	0.00e+00	0	41	0	1120927744	56	5597
2026-01-22 14:44:47.86	195.51	27.19	-40.6	-41.5	23.2	0.00e+00	0	41	0	1124073472	54	6103
2026-01-22 14:44:48.58	195.54	27.07	-40.3	-41.2	23.4	0.00e+00	0	41	0	1125122048	54	5891
2026-01-22 14:44:49.88	195.58	26.84	-40.4	-41.3	23.3	0.00e+00	8	41	0	1127219200	54	5955
2026-01-22 14:44:50.60	195.60	26.72	-40.4	-41.3	23.3	0.00e+00	0	41	0	1129316352	54	5919
2026-01-22 14:44:51.90	195.65	26.50	-40.3	-41.2	23.5	0.00e+00	7	41	0	1131413504	54	5850
2026-01-22 14:44:52.62	195.67	26.38	-40.4	-41.3	23.3	0.00e+00	92	41	0	1132462080	54	5939
2026-01-22 14:44:53.92	195.71	26.17	-40.4	-41.3	23.3	0.00e+00	1	41	0	1135607808	54	5948
2026-01-22 14:44:54.64	195.73	26.05	-40.4	-41.4	23.3	0.00e+00	92	41	0	1136656384	54	5975
2026-01-22 14:44:55.94	195.77	25.83	-40.5	-41.5	23.1	0.00e+00	0	41	0	1138753536	54	6076
2026-01-22 14:44:56.66	195.79	25.71	-40.6	-41.6	23.1	0.00e+00	5	41	0	1140850688	54	6124
2026-01-22 14:44:57.96	195.83	25.50	-40.7	-41.6	23.0	0.00e+00	92	41	0	1142947840	54	6159
2026-01-22 14:44:58.68	195.85	25.39	-40.6	-41.5	23.1	0.00e+00	5	41	0	1143996416	54	6074
2026-01-22 14:44:59.98	195.89	25.18	-40.5	-41.4	23.3	0.00e+00	89	41	0	1146093568	54	5994
2026-01-22 14:45:00.70	195.91	25.06	-40.4	-41.3	23.3	0.00e+00	0	41	0	1148190720	54	5924
2026-01-22 14:45:02.00	195.95	24.86	-40.2	-41.2	23.4	0.00e+00	0	41	0	1150287872	54	5840
2026-01-22 14:45:02.72	195.97	24.74	-40.2	-41.1	23.5	0.00e+00	0	41	0	1151336448	54	5818
2026-01-22 14:45:04.02	196.01	24.54	-40.0	-40.9	23.7	0.00e+00	80	41	0	1154482176	54	5654
2026-01-22 14:45:04.74	196.03	24.43	-40.1	-41.0	23.6	0.00e+00	0	41	0	1155530752	54	5705
2026-01-22 14:45:06.04	196.07	24.23	-39.6	-40.5	24.0	0.00e+00	0	41	0	1157627904	52	6049
2026-01-22 14:45:06.76	196.09	24.12	-39.5	-40.3	24.1	0.00e+00	70	41	0	1159725056	52	5937
2026-01-22 14:45:08.06	196.12	23.92	-39.5	-40.3	24.0	0.00e+00	2	41	0	1161822208	52	5932
2026-01-22 14:45:08.78	196.14	23.81	-39.3	-40.1	24.3	0.00e+00	92	41	0	1162870784	52	5818
2026-01-22 14:45:10.08	196.18	23.61	-39.3	-40.1	24.2	0.00e+00	0	41	0	1166016512	52	5806
2026-01-22 14:45:10.80	196.20	23.50	-39.2	-40.0	24.4	0.00e+00	0	41	0	1167065088	52	5728
2026-01-22 14:45:12.09	196.23	23.31	-39.1	-39.9	24.5	0.00e+00	83	41	0	1169162240	52	5658
2026-01-22 14:45:12.82	196.25	23.20	-39.1	-40.0	24.5	0.00e+00	84	41	0	1170210816	52	5701
2026-01-22 14:45:14.11	196.29	23.01	-39.2	-40.1	24.4	0.00e+00	92	41	0	1173356544	52	5770
2026-01-22 14:45:14.83	196.31	22.91	-39.1	-39.9	24.5	0.00e+00	0	41	0	1174405120	52	5687
2026-01-22 14:45:16.14	196.34	22.72	-39.2	-40.1	24.4	0.00e+00	92	41	0	1176502272	52	5774
2026-01-22 14:45:16.86	196.36	22.61	-39.2	-40.0	24.4	0.00e+00	8	41	0	1178599424	52	5753
2026-01-22 14:45:18.16	196.39	22.42	-39.4	-40.2	24.2	0.00e+00	82	41	0	1180696576	52	5885
2026-01-22 14:45:18.88	196.41	22.32	-39.3	-40.1	24.3	0.00e+00	8	41	0	1181745152	52	5804
2026-01-22 14:45:20.17	196.44	22.14	-39.5	-40.3	24.2	0.00e+00	81	41	0	1184890880	52	5939
2026-01-22 14:45:20.89	196.46	22.03	-39.5	-40.3	24.2	0.00e+00	4	41	0	1185939456	52	5941
2026-01-22 14:45:22.19	196.49	21.85	-39.6	-40.5	24.1	0.00e+00	81	41	0	1188036608	52	6055
2026-01-22 14:45:22.91	196.51	21.75	-39.7	-40.6	23.9	0.00e+00	92	41	0	1189085184	52	6142
2026-01-22 14:45:24.21	196.54	21.57	-39.7	-40.6	23.9	0.00e+00	81	41	0	1192230912	52	6123
2026-01-22 14:45:24.93	196.56	21.47	-39.9	-40.8	23.7	0.00e+00	92	41	0	1193279488	52	6274
2026-01-22 14:45:26.23	196.59	21.29	-39.8	-40.6	23.9	0.00e+00	0	41	0	1195376640	52	6163
2026-01-22 14:45:26.95	196.61	21.19	-39.9	-40.8	23.8	0.00e+00	0	41	0	1197473792	52	6270
2026-01-22 14:45:28.25	196.64	21.01	-40.1	-41.0	23.6	0.00e+00	91	41	0	1199570944	52	6414
2026-01-22 14:45:28.97	196.66	20.91	-39.9	-40.8	23.7	0.00e+00	0	41	0	1200619520	52	6282
2026-01-22 14:45:30.27	196.69	20.74	-40.1	-41.1	23.5	0.00e+00	91	41	0	1203765248	52	6469
2026-01-22 14:45:30.99	196.70	20.64	-40.1	-41.0	23.5	0.00e+00	81	41	0	1204813824	52	6447
2026-01-22 14:45:32.29	196.73	20.47	-40.3	-41.3	23.3	0.00e+00	2	41	0	1206910976	52	6628
2026-01-22 14:45:33.01	196.75	20.37	-40.3	-41.2	23.4	0.00e+00	0	41	0	1209008128	52	6596
2026-01-22 14:45:34.31	196.78	20.20	-40.3	-41.3	23.3	0.00e+00	0	41	0	1211105280	52	6641
