passes_logs/2026/01/22/R4.6S_Anadyr/R4.6S_Anadyr__20260122_004807_NOAA_20_JPSS-1_rec.log

#Pass ID: 20260122_004807_NOAA 20 (JPSS-1)
#Satellite: NOAA 20 (JPSS-1)
#Configuration: NOAA 20
#almurnet v.1.7.20251203
#Start time: 2026-01-22 00:48:09

#Version: 2.2.20231116
#Station: R4.6S_Anadyr
#Location: 177.4865 lon 64.73178 lat
#TLE: 1 43013U 17073A   26020.82785136  .00000155  00000+0  94366-4 0  9991
#TLE: 2 43013  98.7643 321.7058 0001260  30.3785 329.7464 14.19537992423566

#Time	Az	El	Level	Level2	SNR	BER	BlckErr	Temp	State	Recorded	gain1	gain2
2026-01-22 00:48:09.32	170.89	0.09	-51.5	-66.5	3.5	1.51e+00	0	39	0	0	60	75969
2026-01-22 00:48:10.32	170.91	0.15	-51.7	-66.9	3.6	1.51e+00	0	39	104	0	60	80447
2026-01-22 00:48:11.33	170.93	0.21	-51.5	-66.7	3.6	1.51e+00	0	39	104	0	60	78051
2026-01-22 00:48:12.35	170.95	0.27	-51.4	-66.5	3.6	1.51e+00	0	40	104	0	60	76822
2026-01-22 00:48:13.36	170.97	0.33	-51.3	-66.5	3.6	1.51e+00	0	40	104	0	60	76762
2026-01-22 00:48:14.36	170.99	0.39	-51.2	-66.5	3.6	1.51e+00	0	40	104	0	60	76171
2026-01-22 00:48:15.38	171.01	0.45	-51.2	-66.4	3.6	1.51e+00	0	40	104	0	60	75863
2026-01-22 00:48:16.39	171.04	0.51	-51.2	-66.4	3.6	1.51e+00	0	40	104	0	60	75828
2026-01-22 00:48:17.40	171.06	0.57	-51.2	-66.4	3.6	1.51e+00	0	40	104	0	60	75805
2026-01-22 00:48:18.41	171.08	0.63	-51.2	-66.4	3.6	1.51e+00	0	40	104	0	60	75911
2026-01-22 00:48:19.42	171.10	0.69	-51.2	-66.4	3.6	1.51e+00	0	40	104	0	60	75437
2026-01-22 00:48:20.43	171.12	0.76	-51.2	-66.4	3.6	1.51e+00	0	40	104	0	60	75517
2026-01-22 00:48:21.44	171.14	0.82	-51.2	-66.4	3.6	1.51e+00	0	40	104	0	60	75141
2026-01-22 00:48:22.44	171.17	0.88	-51.2	-66.3	3.6	1.51e+00	0	40	104	0	60	75029
2026-01-22 00:48:23.46	171.19	0.94	-51.1	-66.3	3.6	1.51e+00	0	40	104	0	60	74746
2026-01-22 00:48:24.47	171.21	1.00	-51.1	-66.3	3.6	1.51e+00	0	40	104	0	60	74521
2026-01-22 00:48:25.48	171.23	1.06	-51.0	-66.2	3.6	1.51e+00	0	40	104	0	60	73902
2026-01-22 00:48:26.49	171.25	1.13	-51.0	-66.2	3.6	1.51e+00	0	40	104	0	60	73515
2026-01-22 00:48:27.50	171.28	1.19	-50.9	-66.2	3.6	1.51e+00	0	40	104	0	60	73408
2026-01-22 00:48:28.51	171.30	1.25	-50.8	-66.0	3.6	1.51e+00	0	40	104	0	60	72284
2026-01-22 00:48:29.52	171.32	1.31	-50.7	-65.9	3.6	1.51e+00	0	40	104	0	60	71582
2026-01-22 00:48:30.53	171.34	1.38	-50.7	-65.9	3.6	1.51e+00	0	40	104	0	60	71208
2026-01-22 00:48:31.54	171.37	1.44	-50.4	-65.6	3.6	1.51e+00	0	40	104	0	60	69075
2026-01-22 00:48:32.54	171.39	1.50	-50.3	-65.4	3.5	1.51e+00	0	40	104	0	60	67580
2026-01-22 00:48:33.55	171.41	1.56	-50.0	-65.1	3.6	1.51e+00	0	40	104	0	60	65332
2026-01-22 00:48:34.56	171.43	1.63	-49.8	-65.0	3.6	1.51e+00	0	40	104	0	60	63981
2026-01-22 00:48:35.57	171.46	1.69	-49.8	-64.8	3.6	1.51e+00	0	40	104	0	60	62815
2026-01-22 00:48:36.58	171.48	1.75	-49.7	-64.8	3.6	1.51e+00	0	40	104	0	60	62729
2026-01-22 00:48:37.59	171.50	1.82	-49.7	-64.7	3.6	1.51e+00	0	40	104	0	60	62128
2026-01-22 00:48:38.60	171.53	1.88	-49.7	-64.6	3.6	1.51e+00	0	40	104	0	60	61384
2026-01-22 00:48:39.61	171.55	1.94	-49.7	-64.7	3.6	1.51e+00	0	40	104	0	60	61796
2026-01-22 00:48:40.62	171.57	2.01	-49.7	-64.7	3.5	1.51e+00	0	40	104	0	60	62093
2026-01-22 00:48:41.63	171.60	2.07	-49.7	-64.7	3.6	1.51e+00	0	40	104	0	60	61833
2026-01-22 00:48:42.64	171.62	2.14	-49.8	-64.9	3.6	1.51e+00	0	40	104	0	60	63199
2026-01-22 00:48:43.65	171.64	2.20	-49.7	-64.9	3.6	1.51e+00	0	40	104	0	60	63845
2026-01-22 00:48:44.66	171.67	2.27	-49.7	-64.9	3.6	1.51e+00	0	40	104	0	60	63781
2026-01-22 00:48:45.67	171.69	2.33	-49.7	-64.9	3.6	1.51e+00	0	40	104	0	60	63197
2026-01-22 00:48:46.68	171.71	2.40	-49.7	-64.8	3.6	1.51e+00	0	40	104	0	60	63115
2026-01-22 00:48:47.69	171.74	2.46	-49.7	-64.7	3.6	1.51e+00	0	40	104	0	60	62216
2026-01-22 00:48:48.70	171.76	2.53	-49.7	-64.7	3.6	1.51e+00	0	40	104	0	60	62385
2026-01-22 00:48:49.71	171.79	2.59	-49.7	-64.1	3.6	1.51e+00	0	40	104	0	60	57827
2026-01-22 00:48:50.72	171.81	2.66	-49.7	-63.7	3.6	1.51e+00	0	40	104	0	60	55610
2026-01-22 00:48:51.73	171.84	2.72	-49.7	-63.4	3.6	1.51e+00	0	40	104	0	60	53671
2026-01-22 00:48:52.74	171.86	2.79	-49.7	-63.6	3.6	1.51e+00	0	40	104	0	60	54884
2026-01-22 00:48:53.75	171.88	2.85	-49.7	-64.0	3.6	1.51e+00	0	40	104	0	60	57482
2026-01-22 00:48:54.76	171.91	2.92	-49.7	-64.0	3.6	1.51e+00	0	40	104	0	60	57039
2026-01-22 00:48:55.77	171.93	2.99	-49.8	-64.7	3.6	1.51e+00	0	40	104	0	60	61996
2026-01-22 00:48:56.78	171.96	3.05	-49.7	-64.0	3.6	1.51e+00	0	40	104	0	60	57152
2026-01-22 00:48:57.79	171.98	3.12	-49.7	-62.7	3.6	1.50e+00	0	40	104	0	60	49082
2026-01-22 00:48:58.80	172.01	3.19	-49.3	-58.9	5.6	9.26e-01	90	40	104	0	60	31853
2026-01-22 00:48:59.80	172.03	3.25	-48.6	-54.5	8.0	8.64e-02	92	40	0	1048576	60	19242
2026-01-22 00:49:00.81	172.06	3.32	-46.9	-50.3	13.6	1.03e-02	77	40	0	3145728	60	11783
2026-01-22 00:49:01.82	172.08	3.39	-47.9	-52.4	11.7	5.76e-03	92	40	0	5242880	60	15092
2026-01-22 00:49:02.83	172.11	3.45	-46.5	-49.6	14.2	1.50e-06	85	40	0	7340032	60	10928
2026-01-22 00:49:03.84	172.13	3.52	-44.8	-46.9	17.1	0.00e+00	91	40	0	8388608	60	7976
2026-01-22 00:49:04.85	172.16	3.59	-44.9	-47.0	17.1	0.00e+00	92	40	0	10485760	60	8056
2026-01-22 00:49:05.86	172.19	3.66	-45.0	-47.1	16.9	0.00e+00	92	40	0	12582912	60	8193
2026-01-22 00:49:06.87	172.21	3.72	-45.4	-47.8	16.0	0.00e+00	92	40	0	14680064	60	8858
2026-01-22 00:49:07.88	172.24	3.79	-47.5	-51.5	11.8	7.00e-07	0	40	0	16777216	60	13508
2026-01-22 00:49:08.89	172.26	3.86	-42.7	-44.1	19.8	3.92e-02	92	40	0	17825792	60	5819
2026-01-22 00:49:09.90	172.29	3.93	-47.6	-51.7	10.1	0.00e+00	9	40	0	19922944	60	13981
2026-01-22 00:49:10.91	172.32	4.00	-49.0	-56.1	7.5	8.83e-01	92	40	104	19922944	60	23187
2026-01-22 00:49:11.92	172.34	4.07	-46.9	-50.2	11.9	2.10e-02	90	40	0	20971520	60	11761
2026-01-22 00:49:12.93	172.37	4.13	-47.3	-51.0	14.2	1.33e+00	90	40	104	20971520	60	12772
2026-01-22 00:49:13.94	172.40	4.20	-45.6	-48.0	16.3	0.00e+00	92	40	0	22020096	60	9088
2026-01-22 00:49:14.95	172.42	4.27	-46.2	-48.9	15.4	0.00e+00	13	40	0	23068672	60	10039
2026-01-22 00:49:15.96	172.45	4.34	-43.9	-45.5	18.8	0.00e+00	92	40	0	25165824	60	6842
2026-01-22 00:49:16.97	172.48	4.41	-43.2	-44.7	19.4	0.00e+00	13	41	0	27262976	60	6196
2026-01-22 00:49:17.98	172.50	4.48	-44.0	-45.7	18.5	0.00e+00	92	40	0	29360128	60	6974
2026-01-22 00:49:18.99	172.53	4.55	-43.3	-44.8	19.4	0.00e+00	90	40	0	31457280	60	6295
2026-01-22 00:49:20.00	172.56	4.62	-43.5	-45.1	19.2	0.00e+00	92	40	0	32505856	60	6516
2026-01-22 00:49:21.01	172.58	4.69	-42.9	-44.3	19.8	0.00e+00	91	40	0	34603008	60	5947
2026-01-22 00:49:22.02	172.61	4.76	-43.7	-45.4	18.7	0.00e+00	90	40	0	36700160	60	6701
2026-01-22 00:49:23.03	172.64	4.83	-44.0	-45.7	18.7	0.00e+00	90	40	0	38797312	60	6950
2026-01-22 00:49:24.04	172.67	4.90	-43.0	-44.5	19.6	0.00e+00	63	40	0	40894464	60	6059
2026-01-22 00:49:25.05	172.70	4.98	-43.1	-44.6	19.6	0.00e+00	92	40	0	41943040	60	6147
2026-01-22 00:49:26.06	172.72	5.05	-43.0	-44.5	19.7	0.00e+00	0	40	0	44040192	58	6771
2026-01-22 00:49:27.07	172.75	5.12	-43.0	-44.5	19.5	0.00e+00	92	40	0	46137344	58	6802
2026-01-22 00:49:28.08	172.78	5.19	-42.0	-43.2	20.9	0.00e+00	92	41	0	48234496	58	5851
2026-01-22 00:49:29.09	172.81	5.26	-42.3	-43.5	20.3	0.00e+00	92	41	0	50331648	58	6099
2026-01-22 00:49:30.10	172.84	5.33	-42.3	-43.6	20.6	0.00e+00	89	41	0	52428800	58	6139
2026-01-22 00:49:31.11	172.87	5.41	-42.3	-43.6	20.6	0.00e+00	0	40	0	53477376	58	6124
2026-01-22 00:49:32.12	172.89	5.48	-42.9	-44.3	20.0	0.00e+00	91	41	0	55574528	58	6659
2026-01-22 00:49:33.13	172.92	5.55	-42.8	-44.2	19.9	0.00e+00	0	40	0	57671680	58	6574
2026-01-22 00:49:34.15	172.95	5.63	-42.7	-44.1	20.1	0.00e+00	92	41	0	59768832	58	6495
2026-01-22 00:49:35.16	172.98	5.70	-43.2	-44.7	19.4	0.00e+00	90	41	0	61865984	58	6995
2026-01-22 00:49:36.17	173.01	5.77	-41.4	-42.5	21.5	0.00e+00	92	41	0	62914560	56	6054
2026-01-22 00:49:37.17	173.04	5.84	-42.0	-43.2	20.8	0.00e+00	90	41	0	65011712	56	6598
2026-01-22 00:49:38.19	173.07	5.92	-42.1	-43.3	20.9	0.00e+00	92	41	0	67108864	56	6639
2026-01-22 00:49:39.20	173.10	5.99	-42.4	-43.7	20.5	0.00e+00	92	41	0	69206016	56	6964
2026-01-22 00:49:40.21	173.13	6.07	-41.9	-43.0	21.1	0.00e+00	75	41	0	71303168	56	6457
2026-01-22 00:49:41.22	173.16	6.14	-41.7	-42.9	21.2	0.00e+00	92	41	0	72351744	56	6341
2026-01-22 00:49:42.23	173.19	6.21	-42.0	-43.2	20.9	0.00e+00	0	41	0	74448896	56	6610
2026-01-22 00:49:43.24	173.22	6.29	-42.1	-43.3	20.8	0.00e+00	92	41	0	76546048	56	6644
2026-01-22 00:49:44.24	173.25	6.36	-41.9	-43.1	21.1	0.00e+00	92	41	0	78643200	56	6500
2026-01-22 00:49:45.25	173.28	6.44	-41.8	-43.0	21.2	0.00e+00	92	41	0	80740352	56	6420
2026-01-22 00:49:46.26	173.31	6.51	-42.0	-43.2	21.1	0.00e+00	90	41	0	81788928	56	6601
2026-01-22 00:49:47.27	173.34	6.59	-42.1	-43.3	21.0	0.00e+00	7	41	0	83886080	56	6655
2026-01-22 00:49:48.28	173.37	6.67	-42.1	-43.3	20.8	0.00e+00	92	41	0	85983232	56	6676
2026-01-22 00:49:49.29	173.40	6.74	-42.2	-43.4	20.9	0.00e+00	0	41	0	88080384	56	6752
2026-01-22 00:49:50.30	173.43	6.82	-41.9	-43.1	21.0	0.00e+00	92	41	0	90177536	56	6474
2026-01-22 00:49:51.31	173.46	6.89	-41.9	-43.0	21.1	0.00e+00	92	41	0	91226112	56	6450
2026-01-22 00:49:52.32	173.50	6.97	-42.1	-43.4	20.9	0.00e+00	91	41	0	93323264	56	6709
2026-01-22 00:49:53.33	173.53	7.05	-41.8	-43.0	21.3	0.00e+00	91	41	0	95420416	56	6398
2026-01-22 00:49:54.34	173.56	7.12	-42.0	-43.2	21.0	0.00e+00	7	41	0	97517568	56	6590
2026-01-22 00:49:55.35	173.59	7.20	-41.8	-42.9	21.3	0.00e+00	92	41	0	99614720	56	6364
2026-01-22 00:49:56.35	173.62	7.28	-42.0	-43.2	21.0	0.00e+00	0	41	0	100663296	56	6572
2026-01-22 00:49:57.36	173.66	7.36	-41.8	-43.0	21.2	0.00e+00	92	41	0	102760448	56	6435
2026-01-22 00:49:58.37	173.69	7.43	-41.7	-42.8	21.4	0.00e+00	0	41	0	104857600	56	6287
2026-01-22 00:49:59.38	173.72	7.51	-41.8	-43.0	21.2	0.00e+00	92	41	0	106954752	56	6420
2026-01-22 00:50:00.40	173.75	7.59	-41.6	-42.7	21.5	0.00e+00	92	41	0	109051904	56	6199
2026-01-22 00:50:01.41	173.79	7.67	-41.7	-42.9	21.5	0.00e+00	90	41	0	110100480	56	6324
2026-01-22 00:50:02.42	173.82	7.75	-41.2	-42.3	21.8	0.00e+00	90	41	0	112197632	56	5943
2026-01-22 00:50:03.43	173.85	7.83	-41.7	-42.8	21.4	0.00e+00	0	41	0	114294784	56	6300
2026-01-22 00:50:04.44	173.89	7.91	-41.5	-42.6	21.7	0.00e+00	92	41	0	116391936	56	6164
2026-01-22 00:50:05.45	173.92	7.99	-41.2	-42.3	21.9	0.00e+00	90	41	0	118489088	56	5946
2026-01-22 00:50:06.46	173.95	8.07	-41.2	-42.3	21.9	0.00e+00	92	41	0	120586240	56	5920
2026-01-22 00:50:07.47	173.99	8.15	-41.4	-42.5	21.7	0.00e+00	92	41	0	121634816	56	6088
2026-01-22 00:50:08.48	174.02	8.23	-41.5	-42.6	21.8	0.00e+00	95	41	0	123731968	56	6139
2026-01-22 00:50:09.49	174.05	8.31	-41.5	-42.6	21.7	0.00e+00	92	41	0	125829120	56	6137
2026-01-22 00:50:10.50	174.09	8.39	-41.5	-42.6	21.7	0.00e+00	6	41	0	127926272	56	6171
2026-01-22 00:50:11.51	174.12	8.47	-41.5	-42.6	21.7	0.00e+00	92	41	0	130023424	56	6142
2026-01-22 00:50:12.52	174.16	8.55	-41.2	-42.3	21.9	0.00e+00	6	41	0	131072000	56	5947
2026-01-22 00:50:13.53	174.19	8.63	-41.3	-42.4	22.0	0.00e+00	92	41	0	133169152	56	5979
2026-01-22 00:50:14.53	174.23	8.71	-41.1	-42.2	22.1	0.00e+00	91	41	0	135266304	56	5866
2026-01-22 00:50:15.54	174.26	8.80	-40.9	-42.0	22.2	0.00e+00	91	41	0	137363456	56	5721
2026-01-22 00:50:16.55	174.30	8.88	-41.1	-42.2	22.1	0.00e+00	90	41	0	139460608	56	5859
2026-01-22 00:50:17.56	174.33	8.96	-40.4	-41.4	22.7	0.00e+00	14	41	0	140509184	54	6000
2026-01-22 00:50:18.57	174.37	9.04	-41.3	-42.4	21.9	0.00e+00	92	41	0	142606336	54	6719
2026-01-22 00:50:19.58	174.40	9.13	-41.3	-42.4	21.8	0.00e+00	0	41	0	144703488	54	6746
2026-01-22 00:50:20.59	174.44	9.21	-41.3	-42.3	22.0	0.00e+00	92	41	0	146800640	54	6688
2026-01-22 00:50:21.60	174.48	9.30	-40.9	-41.9	22.4	0.00e+00	90	41	0	148897792	54	6372
2026-01-22 00:50:22.61	174.51	9.38	-40.9	-41.9	22.3	0.00e+00	92	41	0	149946368	54	6370
2026-01-22 00:50:23.62	174.55	9.46	-40.7	-41.7	22.5	0.00e+00	90	41	0	152043520	54	6228
2026-01-22 00:50:24.63	174.59	9.55	-40.8	-41.9	22.4	0.00e+00	73	41	0	154140672	54	6318
2026-01-22 00:50:25.64	174.62	9.63	-40.6	-41.6	22.6	0.00e+00	90	41	0	156237824	54	6162
2026-01-22 00:50:26.65	174.66	9.72	-40.7	-41.7	22.6	0.00e+00	0	41	0	158334976	54	6190
2026-01-22 00:50:27.66	174.70	9.80	-40.7	-41.7	22.6	0.00e+00	90	41	0	159383552	54	6187
2026-01-22 00:50:28.67	174.74	9.89	-40.6	-41.6	22.6	0.00e+00	72	41	0	161480704	54	6134
2026-01-22 00:50:29.68	174.77	9.98	-40.6	-41.6	22.6	0.00e+00	92	41	0	163577856	54	6155
2026-01-22 00:50:30.68	174.81	10.06	-40.7	-41.7	22.5	0.00e+00	92	41	0	165675008	54	6207
2026-01-22 00:50:31.69	174.85	10.15	-40.6	-41.6	22.6	0.00e+00	92	41	0	167772160	54	6168
2026-01-22 00:50:32.71	174.89	10.24	-40.7	-41.7	22.6	0.00e+00	92	41	0	168820736	54	6240
2026-01-22 00:50:33.72	174.93	10.32	-40.7	-41.6	22.6	0.00e+00	0	41	0	170917888	54	6171
2026-01-22 00:50:34.73	174.97	10.41	-39.2	-41.7	19.9	7.14e-03	92	41	0	173015040	52	6965
2026-01-22 00:50:35.73	175.01	10.50	-37.5	-41.4	18.1	2.50e-02	0	41	0	175112192	48	8519
2026-01-22 00:50:36.74	175.04	10.58	-35.8	-41.7	17.5	2.50e-02	92	41	0	177209344	46	9862
2026-01-22 00:50:37.75	175.08	10.67	-34.5	-41.7	16.5	3.10e-02	91	41	0	178257920	42	12426
2026-01-22 00:50:38.76	175.12	10.76	-33.2	-41.7	16.7	3.43e-02	90	41	0	180355072	40	13867
2026-01-22 00:50:39.77	175.16	10.85	-33.4	-41.6	16.6	2.90e-02	91	41	0	182452224	40	13739
2026-01-22 00:50:40.78	175.20	10.94	-33.6	-42.0	17.9	3.18e-02	65	41	0	184549376	40	14346
2026-01-22 00:50:41.79	175.24	11.03	-34.4	-41.7	17.8	2.74e-02	92	41	0	186646528	40	13976
2026-01-22 00:50:42.80	175.28	11.12	-35.5	-41.5	18.0	2.65e-02	84	41	0	188743680	42	12160
2026-01-22 00:50:43.81	175.33	11.21	-40.4	-41.4	22.8	1.63e-02	92	41	0	189792256	54	5979
2026-01-22 00:50:44.82	175.37	11.30	-40.4	-41.3	22.9	0.00e+00	92	41	0	191889408	54	5955
2026-01-22 00:50:45.83	175.41	11.39	-40.5	-41.5	22.8	0.00e+00	92	41	0	193986560	54	6049
2026-01-22 00:50:46.84	175.45	11.48	-40.5	-41.5	22.8	0.00e+00	92	41	0	196083712	54	6070
2026-01-22 00:50:47.85	175.49	11.57	-40.5	-41.5	22.8	0.00e+00	53	41	0	198180864	54	6048
2026-01-22 00:50:48.86	175.53	11.67	-40.5	-41.5	22.9	0.00e+00	92	41	0	199229440	54	6052
2026-01-22 00:50:49.87	175.58	11.76	-40.5	-41.4	22.9	0.00e+00	3	41	0	201326592	54	6008
2026-01-22 00:50:50.88	175.62	11.85	-40.5	-41.4	22.9	0.00e+00	92	41	0	203423744	54	6010
2026-01-22 00:50:51.90	175.66	11.95	-40.3	-41.3	23.0	0.00e+00	92	41	0	205520896	54	5900
2026-01-22 00:50:52.91	175.70	12.04	-40.3	-41.2	23.0	0.00e+00	92	41	0	207618048	54	5887
2026-01-22 00:50:53.91	175.75	12.13	-40.2	-41.3	21.7	2.81e-04	92	41	0	208666624	54	5901
2026-01-22 00:50:54.92	175.79	12.23	-40.2	-41.2	21.6	1.01e-03	56	41	0	210763776	54	5853
2026-01-22 00:50:55.93	175.83	12.32	-40.3	-41.4	21.7	4.45e-04	92	41	0	212860928	54	5974
2026-01-22 00:50:56.94	175.88	12.41	-40.2	-41.2	22.4	2.82e-05	17	41	0	214958080	54	5875
2026-01-22 00:50:57.95	175.92	12.51	-40.2	-41.2	21.7	1.20e-04	92	41	0	217055232	54	5851
2026-01-22 00:50:58.96	175.97	12.60	-40.1	-41.1	23.2	9.10e-06	6	41	0	218103808	54	5768
2026-01-22 00:50:59.97	176.01	12.70	-40.1	-41.0	23.2	0.00e+00	90	41	0	220200960	54	5753
2026-01-22 00:51:00.98	176.06	12.80	-40.1	-41.1	23.2	0.00e+00	92	41	0	222298112	54	5781
2026-01-22 00:51:01.99	176.10	12.89	-40.2	-41.2	23.2	0.00e+00	92	41	0	224395264	54	5840
2026-01-22 00:51:03.00	176.15	12.99	-40.2	-41.1	23.2	0.00e+00	91	41	0	226492416	54	5819
2026-01-22 00:51:04.01	176.19	13.09	-40.2	-41.2	23.2	0.00e+00	21	41	0	227540992	54	5852
2026-01-22 00:51:05.01	176.24	13.18	-40.5	-41.4	22.9	0.00e+00	91	41	0	229638144	54	6023
2026-01-22 00:51:06.02	176.29	13.28	-40.5	-41.5	22.9	0.00e+00	59	41	0	231735296	54	6070
2026-01-22 00:51:07.03	176.33	13.38	-40.5	-41.4	22.9	0.00e+00	91	41	0	233832448	54	6025
2026-01-22 00:51:08.05	176.38	13.48	-40.2	-41.1	23.2	0.00e+00	92	41	0	235929600	54	5827
2026-01-22 00:51:09.06	176.43	13.58	-40.2	-41.2	23.2	0.00e+00	92	41	0	236978176	54	5831
2026-01-22 00:51:10.07	176.48	13.68	-40.4	-41.3	23.0	0.00e+00	92	41	0	239075328	54	5957
2026-01-22 00:51:11.08	176.52	13.78	-40.3	-41.3	23.2	0.00e+00	90	41	0	241172480	54	5908
2026-01-22 00:51:12.09	176.57	13.88	-40.3	-41.2	23.1	0.00e+00	90	41	0	243269632	54	5867
2026-01-22 00:51:13.10	176.62	13.98	-40.3	-41.2	23.2	0.00e+00	0	41	0	245366784	54	5875
2026-01-22 00:51:14.11	176.67	14.08	-40.2	-41.2	23.2	0.00e+00	92	41	0	246415360	54	5845
2026-01-22 00:51:15.11	176.72	14.18	-40.3	-41.2	23.2	0.00e+00	0	41	0	248512512	54	5876
2026-01-22 00:51:16.12	176.77	14.28	-40.3	-41.2	23.2	0.00e+00	92	41	0	250609664	54	5858
2026-01-22 00:51:17.13	176.82	14.39	-40.4	-41.4	23.1	0.00e+00	92	41	0	252706816	54	5979
2026-01-22 00:51:18.14	176.87	14.49	-40.4	-41.3	23.0	0.00e+00	90	41	0	254803968	54	5963
2026-01-22 00:51:19.15	176.92	14.59	-40.5	-41.4	23.0	0.00e+00	92	41	0	256901120	54	6008
2026-01-22 00:51:20.16	176.97	14.69	-40.4	-41.4	23.1	0.00e+00	6	41	0	257949696	54	5965
2026-01-22 00:51:21.17	177.02	14.80	-40.4	-41.4	23.1	0.00e+00	92	41	0	260046848	54	5979
2026-01-22 00:51:22.18	177.07	14.90	-40.4	-41.4	23.0	0.00e+00	3	41	0	262144000	54	5984
2026-01-22 00:51:23.19	177.12	15.01	-40.2	-41.1	23.3	0.00e+00	92	41	0	264241152	54	5827
2026-01-22 00:51:24.20	177.17	15.11	-40.3	-41.3	23.1	0.00e+00	92	41	0	266338304	54	5912
2026-01-22 00:51:25.21	177.23	15.22	-40.5	-41.5	23.0	0.00e+00	91	41	0	267386880	54	6039
2026-01-22 00:51:26.22	177.28	15.33	-40.4	-41.4	23.0	0.00e+00	92	41	0	269484032	54	5975
2026-01-22 00:51:27.23	177.33	15.43	-40.4	-41.4	23.1	0.00e+00	3	41	0	271581184	54	5997
2026-01-22 00:51:28.24	177.39	15.54	-40.3	-41.3	23.1	0.00e+00	90	41	0	273678336	54	5917
2026-01-22 00:51:29.25	177.44	15.65	-40.4	-41.4	23.1	0.00e+00	65	41	0	275775488	54	5985
2026-01-22 00:51:30.26	177.49	15.75	-40.3	-41.2	23.3	0.00e+00	90	41	0	276824064	54	5875
2026-01-22 00:51:31.28	177.55	15.86	-40.4	-41.4	23.0	0.00e+00	0	41	0	278921216	54	5965
2026-01-22 00:51:32.28	177.60	15.97	-40.4	-41.4	23.1	0.00e+00	90	41	0	281018368	54	5974
2026-01-22 00:51:33.30	177.66	16.08	-40.4	-41.3	23.1	0.00e+00	92	41	0	283115520	54	5932
2026-01-22 00:51:34.30	177.71	16.19	-40.2	-41.2	23.3	0.00e+00	52	41	0	285212672	54	5834
2026-01-22 00:51:35.31	177.77	16.30	-40.2	-41.1	23.3	0.00e+00	92	41	0	286261248	54	5819
2026-01-22 00:51:36.32	177.83	16.41	-40.2	-41.1	23.3	0.00e+00	0	41	0	288358400	54	5827
2026-01-22 00:51:37.33	177.88	16.52	-40.3	-41.3	23.1	0.00e+00	92	41	0	290455552	54	5915
2026-01-22 00:51:38.34	177.94	16.64	-40.2	-41.1	23.4	0.00e+00	4	41	0	292552704	54	5788
2026-01-22 00:51:39.35	178.00	16.75	-40.4	-41.3	23.2	0.00e+00	90	41	0	294649856	54	5934
2026-01-22 00:51:40.36	178.06	16.86	-40.5	-41.4	23.1	0.00e+00	90	41	0	295698432	54	6005
2026-01-22 00:51:41.37	178.12	16.97	-40.4	-41.4	23.0	0.00e+00	92	41	0	297795584	54	5984
2026-01-22 00:51:42.38	178.17	17.09	-40.5	-41.5	23.1	0.00e+00	90	41	0	299892736	54	6046
2026-01-22 00:51:43.39	178.23	17.20	-40.3	-41.3	23.2	0.00e+00	23	41	0	301989888	54	5914
2026-01-22 00:51:44.40	178.29	17.32	-40.2	-41.2	23.2	0.00e+00	92	41	0	304087040	54	5839
2026-01-22 00:51:45.41	178.35	17.43	-40.4	-41.3	23.1	0.00e+00	19	41	0	305135616	54	5947
2026-01-22 00:51:46.42	178.41	17.55	-40.3	-41.3	23.2	0.00e+00	90	41	0	307232768	54	5908
2026-01-22 00:51:47.43	178.48	17.66	-40.3	-41.2	23.2	0.00e+00	92	41	0	309329920	54	5873
2026-01-22 00:51:48.44	178.54	17.78	-40.3	-41.2	23.2	0.00e+00	90	41	0	311427072	54	5860
2026-01-22 00:51:49.45	178.60	17.90	-40.5	-41.5	23.0	0.00e+00	90	41	0	313524224	54	6064
2026-01-22 00:51:50.46	178.66	18.02	-40.6	-41.5	23.0	0.00e+00	2	41	0	314572800	54	6067
2026-01-22 00:51:51.47	178.72	18.13	-40.5	-41.4	23.1	0.00e+00	90	41	0	316669952	54	6023
2026-01-22 00:51:52.48	178.79	18.25	-40.4	-41.3	23.2	0.00e+00	0	41	0	318767104	54	5952
2026-01-22 00:51:53.49	178.85	18.37	-40.6	-41.5	23.0	0.00e+00	90	41	0	320864256	54	6078
2026-01-22 00:51:54.50	178.91	18.49	-40.4	-41.3	23.1	0.00e+00	86	41	0	322961408	54	5933
2026-01-22 00:51:55.51	178.98	18.61	-40.4	-41.3	23.1	0.00e+00	91	41	0	325058560	54	5955
2026-01-22 00:51:56.52	179.04	18.73	-40.5	-41.4	23.1	0.00e+00	90	41	0	326107136	54	6010
2026-01-22 00:51:57.53	179.11	18.86	-40.5	-41.5	23.1	0.00e+00	91	41	0	328204288	54	6039
2026-01-22 00:51:58.54	179.18	18.98	-40.3	-41.3	23.2	0.00e+00	91	41	0	330301440	54	5907
2026-01-22 00:51:59.55	179.24	19.10	-40.3	-41.2	23.2	0.00e+00	2	41	0	332398592	54	5865
2026-01-22 00:52:00.56	179.31	19.22	-40.3	-41.2	23.3	0.00e+00	91	41	0	334495744	54	5882
2026-01-22 00:52:01.57	179.38	19.35	-40.3	-41.2	23.2	0.00e+00	8	41	0	335544320	54	5891
2026-01-22 00:52:02.58	179.45	19.47	-40.2	-41.1	23.3	0.00e+00	92	41	0	337641472	54	5821
2026-01-22 00:52:03.59	179.51	19.60	-40.2	-41.1	23.4	0.00e+00	92	41	0	339738624	54	5817
2026-01-22 00:52:04.60	179.58	19.72	-40.4	-41.3	23.4	0.00e+00	92	41	0	341835776	54	5914
2026-01-22 00:52:05.61	179.65	19.85	-40.4	-41.3	23.3	0.00e+00	92	41	0	343932928	54	5960
2026-01-22 00:52:06.62	179.72	19.98	-40.4	-41.4	23.3	0.00e+00	16	41	0	344981504	54	5987
2026-01-22 00:52:07.63	179.80	20.11	-40.4	-41.4	23.3	0.00e+00	92	41	0	347078656	54	5972
2026-01-22 00:52:08.64	179.87	20.23	-40.5	-41.4	23.3	0.00e+00	72	41	0	349175808	54	5994
2026-01-22 00:52:09.65	179.94	20.36	-40.5	-41.5	23.1	0.00e+00	92	41	0	351272960	54	6056
2026-01-22 00:52:10.66	180.01	20.49	-40.5	-41.5	23.1	0.00e+00	92	41	0	353370112	54	6040
2026-01-22 00:52:11.67	180.08	20.62	-40.4	-41.4	23.2	0.00e+00	90	41	0	354418688	54	5980
2026-01-22 00:52:12.68	180.16	20.75	-40.6	-41.5	23.1	0.00e+00	92	41	0	356515840	54	6072
2026-01-22 00:52:13.69	180.23	20.88	-40.5	-41.4	23.2	0.00e+00	5	41	0	358612992	54	6030
2026-01-22 00:52:14.70	180.31	21.02	-40.4	-41.3	23.2	0.00e+00	92	41	0	360710144	54	5963
2026-01-22 00:52:15.71	180.38	21.15	-40.5	-41.4	23.2	0.00e+00	0	41	0	362807296	54	6018
2026-01-22 00:52:16.72	180.46	21.28	-40.4	-41.3	23.3	0.00e+00	92	41	0	363855872	54	5939
2026-01-22 00:52:17.73	180.54	21.42	-40.4	-41.4	23.2	0.00e+00	77	41	0	365953024	54	5978
2026-01-22 00:52:18.74	180.61	21.55	-40.4	-41.3	23.3	0.00e+00	90	41	0	368050176	54	5947
2026-01-22 00:52:19.75	180.69	21.69	-40.4	-41.3	23.3	0.00e+00	91	41	0	370147328	54	5954
2026-01-22 00:52:20.76	180.77	21.82	-40.3	-41.2	23.4	0.00e+00	91	41	0	372244480	54	5884
2026-01-22 00:52:21.77	180.85	21.96	-40.3	-41.2	23.4	0.00e+00	91	41	0	373293056	54	5876
2026-01-22 00:52:22.78	180.93	22.10	-40.3	-41.2	23.5	0.00e+00	74	41	0	375390208	54	5842
2026-01-22 00:52:23.79	181.01	22.23	-40.2	-41.1	23.6	0.00e+00	92	41	0	377487360	54	5769
2026-01-22 00:52:24.80	181.09	22.37	-40.0	-40.9	23.7	0.00e+00	10	41	0	379584512	54	5688
2026-01-22 00:52:25.81	181.17	22.51	-40.0	-40.9	23.7	0.00e+00	90	41	0	381681664	54	5651
2026-01-22 00:52:26.82	181.26	22.65	-40.0	-40.9	23.7	0.00e+00	92	41	0	382730240	54	5687
2026-01-22 00:52:27.83	181.34	22.79	-39.9	-40.8	23.7	0.00e+00	6	41	0	384827392	54	5568
2026-01-22 00:52:28.84	181.43	22.94	-39.8	-40.7	23.9	0.00e+00	92	41	0	386924544	54	5527
2026-01-22 00:52:29.85	181.51	23.08	-39.9	-40.8	23.7	0.00e+00	74	41	0	389021696	54	5582
2026-01-22 00:52:30.86	181.60	23.22	-39.8	-40.7	24.0	0.00e+00	92	41	0	391118848	52	6180
2026-01-22 00:52:31.87	181.68	23.37	-39.6	-40.5	24.0	0.00e+00	79	41	0	393216000	52	6066
2026-01-22 00:52:32.87	181.77	23.51	-39.5	-40.4	24.2	0.00e+00	92	41	0	394264576	52	5983
2026-01-22 00:52:33.88	181.86	23.65	-39.6	-40.4	24.1	0.00e+00	92	41	0	396361728	52	6030
2026-01-22 00:52:34.89	181.95	23.80	-39.5	-40.4	24.2	0.00e+00	90	41	0	398458880	52	5986
2026-01-22 00:52:35.90	182.04	23.95	-39.6	-40.5	24.2	0.00e+00	90	41	0	400556032	52	6070
2026-01-22 00:52:36.91	182.13	24.09	-39.5	-40.3	24.2	0.00e+00	49	41	0	402653184	52	5927
2026-01-22 00:52:37.92	182.22	24.24	-39.4	-40.3	24.2	0.00e+00	90	41	0	403701760	52	5901
2026-01-22 00:52:38.93	182.31	24.39	-39.4	-40.2	24.3	0.00e+00	0	41	0	405798912	52	5884
2026-01-22 00:52:39.94	182.40	24.54	-39.5	-40.3	24.2	0.00e+00	92	41	0	407896064	52	5933
2026-01-22 00:52:40.95	182.50	24.69	-39.4	-40.2	24.4	0.00e+00	92	41	0	409993216	52	5867
2026-01-22 00:52:41.96	182.59	24.84	-39.4	-40.3	24.3	0.00e+00	92	41	0	412090368	52	5929
2026-01-22 00:52:42.97	182.69	25.00	-39.5	-40.3	24.2	0.00e+00	92	41	0	413138944	52	5959
2026-01-22 00:52:43.98	182.78	25.15	-39.3	-40.1	24.4	0.00e+00	19	41	0	415236096	52	5810
2026-01-22 00:52:44.99	182.88	25.30	-39.1	-39.9	24.5	0.00e+00	91	41	0	417333248	52	5692
2026-01-22 00:52:46.00	182.98	25.46	-39.1	-39.9	24.7	0.00e+00	25	41	0	419430400	52	5670
2026-01-22 00:52:47.01	183.08	25.61	-39.1	-39.9	24.5	0.00e+00	92	41	0	421527552	52	5695
2026-01-22 00:52:48.02	183.18	25.77	-39.2	-40.0	24.5	0.00e+00	0	41	0	422576128	52	5742
2026-01-22 00:52:49.03	183.28	25.93	-39.2	-40.1	24.5	0.00e+00	92	41	0	424673280	52	5780
2026-01-22 00:52:50.03	183.38	26.08	-39.3	-40.2	24.3	0.00e+00	90	41	0	426770432	52	5838
2026-01-22 00:52:51.04	183.48	26.24	-39.1	-39.9	24.6	0.00e+00	91	41	0	428867584	52	5662
2026-01-22 00:52:52.05	183.59	26.40	-39.1	-40.0	24.5	0.00e+00	90	41	0	430964736	52	5714
2026-01-22 00:52:53.06	183.69	26.56	-39.0	-39.8	24.6	0.00e+00	65	41	0	432013312	52	5600
2026-01-22 00:52:54.07	183.80	26.72	-39.2	-40.0	24.5	0.00e+00	92	41	0	434110464	52	5720
2026-01-22 00:52:55.08	183.90	26.89	-39.3	-40.1	24.5	0.00e+00	0	41	0	436207616	52	5791
2026-01-22 00:52:56.09	184.01	27.05	-39.4	-40.3	24.4	0.00e+00	90	41	0	438304768	52	5901
2026-01-22 00:52:57.10	184.12	27.21	-39.7	-40.5	24.1	0.00e+00	91	41	0	440401920	52	6079
2026-01-22 00:52:58.11	184.23	27.38	-39.6	-40.4	24.2	0.00e+00	92	41	0	441450496	52	6007
2026-01-22 00:52:59.12	184.34	27.54	-39.6	-40.4	24.2	0.00e+00	91	41	0	443547648	52	6008
2026-01-22 00:53:00.13	184.46	27.71	-39.8	-40.7	24.1	0.00e+00	63	41	0	445644800	52	6182
2026-01-22 00:53:01.14	184.57	27.88	-39.9	-40.8	23.8	0.00e+00	91	41	0	447741952	52	6274
2026-01-22 00:53:02.15	184.68	28.05	-40.2	-41.1	23.7	0.00e+00	5	41	0	449839104	52	6497
2026-01-22 00:53:03.16	184.80	28.22	-39.9	-40.7	24.0	0.00e+00	92	41	0	450887680	52	6245
2026-01-22 00:53:04.17	184.92	28.39	-40.5	-41.4	23.5	0.00e+00	13	41	0	452984832	52	6712
2026-01-22 00:53:05.18	185.04	28.56	-40.5	-41.5	23.3	0.00e+00	92	41	0	455081984	54	6037
2026-01-22 00:53:06.18	185.15	28.73	-40.8	-41.8	22.9	0.00e+00	92	41	0	457179136	54	6286
2026-01-22 00:53:07.19	185.27	28.90	-41.1	-42.1	23.0	0.00e+00	62	41	0	459276288	54	6495
2026-01-22 00:53:08.20	185.40	29.07	-40.9	-41.9	22.9	0.00e+00	92	41	0	461373440	54	6333
2026-01-22 00:53:09.21	185.52	29.25	-40.7	-41.6	23.2	0.00e+00	18	41	0	462422016	54	6144
2026-01-22 00:53:10.22	185.64	29.43	-40.7	-41.7	23.2	0.00e+00	92	41	0	464519168	54	6205
2026-01-22 00:53:11.23	185.77	29.60	-40.8	-41.8	23.0	0.00e+00	10	41	0	466616320	54	6272
2026-01-22 00:53:12.24	185.90	29.78	-41.0	-42.0	22.8	0.00e+00	91	41	0	468713472	54	6436
2026-01-22 00:53:13.25	186.03	29.96	-41.1	-42.1	22.7	0.00e+00	91	41	0	470810624	54	6523
2026-01-22 00:53:14.26	186.16	30.14	-41.0	-42.0	22.9	0.00e+00	92	41	0	471859200	54	6436
2026-01-22 00:53:15.27	186.29	30.32	-41.3	-42.3	22.5	0.00e+00	90	41	0	473956352	54	6688
2026-01-22 00:53:16.28	186.42	30.50	-41.4	-42.4	22.4	0.00e+00	57	41	0	476053504	54	6740
2026-01-22 00:53:17.29	186.56	30.68	-41.4	-42.4	22.4	0.00e+00	92	41	0	478150656	54	6758
2026-01-22 00:53:18.29	186.69	30.87	-41.7	-42.8	21.8	0.00e+00	0	41	0	480247808	54	7058
2026-01-22 00:53:19.30	186.83	31.05	-42.1	-43.2	21.8	0.00e+00	92	41	0	481296384	56	6580
2026-01-22 00:53:20.31	186.97	31.24	-42.1	-43.2	21.8	0.00e+00	92	41	0	483393536	56	6573
2026-01-22 00:53:21.32	187.11	31.42	-42.5	-43.6	21.5	0.00e+00	92	41	0	485490688	56	6893
2026-01-22 00:53:22.34	187.25	31.61	-42.5	-43.7	21.4	0.00e+00	92	41	0	487587840	56	6946
2026-01-22 00:53:23.35	187.39	31.80	-42.8	-43.9	21.2	0.00e+00	0	41	0	489684992	56	7168
2026-01-22 00:53:24.36	187.54	31.99	-42.9	-44.1	21.0	0.00e+00	92	41	0	490733568	58	6503
2026-01-22 00:53:25.37	187.69	32.18	-43.0	-44.3	20.8	0.00e+00	0	41	0	492830720	58	6652
2026-01-22 00:53:26.38	187.84	32.37	-43.0	-44.3	20.8	0.00e+00	92	41	0	494927872	58	6646
2026-01-22 00:53:27.39	187.99	32.57	-42.7	-43.9	21.1	0.00e+00	80	41	0	497025024	58	6355
2026-01-22 00:53:28.40	188.14	32.76	-42.9	-44.2	21.1	0.00e+00	90	41	0	499122176	58	6546
2026-01-22 00:53:29.41	188.29	32.96	-42.7	-43.9	21.2	0.00e+00	90	41	0	500170752	58	6381
2026-01-22 00:53:30.41	188.45	33.15	-42.6	-43.8	21.1	0.00e+00	92	41	0	502267904	58	6278
2026-01-22 00:53:31.42	188.60	33.35	-42.7	-43.8	21.2	0.00e+00	91	41	0	504365056	58	6309
2026-01-22 00:53:32.43	188.76	33.54	-42.5	-43.7	21.4	0.00e+00	7	41	0	506462208	58	6180
2026-01-22 00:53:33.44	188.92	33.74	-42.5	-43.7	21.3	0.00e+00	90	41	0	508559360	58	6212
2026-01-22 00:53:34.45	189.09	33.94	-42.7	-43.9	21.2	0.00e+00	10	41	0	509607936	58	6331
2026-01-22 00:53:35.46	189.25	34.15	-42.8	-44.0	21.0	0.00e+00	91	41	0	511705088	58	6425
2026-01-22 00:53:36.47	189.42	34.35	-42.6	-43.8	21.3	0.00e+00	91	41	0	513802240	58	6257
2026-01-22 00:53:37.48	189.59	34.55	-42.6	-43.8	21.3	0.00e+00	91	41	0	515899392	58	6276
2026-01-22 00:53:38.49	189.76	34.76	-42.4	-43.6	21.4	0.00e+00	90	41	0	517996544	58	6136
2026-01-22 00:53:39.50	189.93	34.96	-42.5	-43.7	21.4	0.00e+00	7	41	0	519045120	58	6228
2026-01-22 00:53:40.51	190.11	35.17	-42.7	-43.9	21.2	0.00e+00	91	41	0	521142272	58	6326
2026-01-22 00:53:41.52	190.29	35.37	-42.4	-43.6	21.6	0.00e+00	1	41	0	523239424	58	6111
2026-01-22 00:53:42.53	190.47	35.58	-42.8	-44.0	21.1	0.00e+00	92	41	0	525336576	58	6410
2026-01-22 00:53:43.54	190.65	35.79	-42.7	-43.9	21.1	0.00e+00	92	41	0	527433728	58	6364
2026-01-22 00:53:44.55	190.83	36.00	-42.8	-44.0	21.0	0.00e+00	92	41	0	529530880	58	6426
2026-01-22 00:53:45.56	191.02	36.22	-42.8	-44.1	21.0	0.00e+00	92	41	0	530579456	58	6475
2026-01-22 00:53:46.57	191.21	36.43	-42.8	-44.0	21.1	0.00e+00	57	41	0	532676608	58	6426
2026-01-22 00:53:47.58	191.40	36.64	-42.7	-43.9	21.1	0.00e+00	92	41	0	534773760	58	6371
2026-01-22 00:53:48.59	191.60	36.86	-42.6	-43.8	21.3	0.00e+00	54	41	0	536870912	58	6294
2026-01-22 00:53:49.60	191.79	37.07	-42.5	-43.7	21.5	0.00e+00	92	41	0	538968064	58	6177
2026-01-22 00:53:50.61	191.99	37.29	-42.4	-43.5	21.5	0.00e+00	92	41	0	540016640	58	6067
2026-01-22 00:53:51.61	192.19	37.51	-42.7	-43.8	21.2	0.00e+00	92	41	0	542113792	58	6305
2026-01-22 00:53:52.62	192.40	37.73	-42.7	-43.9	21.2	0.00e+00	92	41	0	544210944	58	6322
2026-01-22 00:53:53.63	192.60	37.95	-42.6	-43.8	21.3	0.00e+00	91	41	0	546308096	58	6260
2026-01-22 00:53:54.64	192.81	38.17	-42.6	-43.7	21.4	0.00e+00	91	41	0	548405248	58	6233
2026-01-22 00:53:55.65	193.03	38.39	-42.4	-43.6	21.5	0.00e+00	0	41	0	549453824	58	6106
2026-01-22 00:53:56.66	193.24	38.61	-42.3	-43.4	21.6	0.00e+00	92	41	0	551550976	58	6030
2026-01-22 00:53:57.67	193.46	38.84	-42.4	-43.5	21.5	0.00e+00	0	41	0	553648128	58	6077
2026-01-22 00:53:58.68	193.68	39.06	-42.5	-43.7	21.5	0.00e+00	92	41	0	555745280	58	6203
2026-01-22 00:53:59.69	193.91	39.29	-42.4	-43.6	21.4	0.00e+00	92	41	0	557842432	58	6140
2026-01-22 00:54:00.70	194.13	39.52	-42.2	-43.4	21.6	0.00e+00	92	41	0	558891008	58	5979
2026-01-22 00:54:01.71	194.37	39.74	-42.2	-43.4	21.7	0.00e+00	92	41	0	560988160	58	5980
2026-01-22 00:54:02.72	194.60	39.97	-42.2	-43.4	21.7	0.00e+00	6	41	0	563085312	58	5987
2026-01-22 00:54:03.73	194.84	40.20	-42.2	-43.3	21.7	0.00e+00	92	41	0	565182464	58	5911
2026-01-22 00:54:04.74	195.08	40.44	-42.0	-43.1	21.9	0.00e+00	0	41	0	567279616	58	5820
2026-01-22 00:54:05.74	195.32	40.67	-41.7	-42.8	22.2	0.00e+00	87	41	0	568328192	58	5591
2026-01-22 00:54:06.75	195.57	40.90	-41.3	-42.3	22.8	0.00e+00	92	41	0	570425344	56	5929
2026-01-22 00:54:07.76	195.82	41.13	-41.2	-42.2	22.8	0.00e+00	92	41	0	572522496	56	5861
2026-01-22 00:54:08.77	196.07	41.37	-41.1	-42.1	23.0	0.00e+00	92	41	0	574619648	56	5790
2026-01-22 00:54:09.78	196.33	41.60	-41.1	-42.1	23.0	0.00e+00	92	41	0	576716800	56	5813
2026-01-22 00:54:10.79	196.59	41.84	-41.1	-42.1	23.0	0.00e+00	92	41	0	577765376	56	5794
2026-01-22 00:54:11.80	196.86	42.08	-40.9	-41.8	23.2	0.00e+00	17	41	0	579862528	56	5615
2026-01-22 00:54:12.81	197.13	42.32	-41.2	-42.1	22.9	0.00e+00	91	41	0	581959680	56	5815
2026-01-22 00:54:13.82	197.40	42.56	-41.4	-42.5	22.6	0.00e+00	90	41	0	584056832	56	6037
2026-01-22 00:54:14.83	197.68	42.80	-41.5	-42.5	22.5	0.00e+00	92	41	0	586153984	56	6072
2026-01-22 00:54:15.84	197.96	43.04	-41.6	-42.6	22.5	0.00e+00	92	41	0	587202560	56	6145
2026-01-22 00:54:16.85	198.25	43.28	-41.4	-42.5	22.7	0.00e+00	92	41	0	589299712	56	6034
2026-01-22 00:54:17.86	198.54	43.52	-41.4	-42.4	22.7	0.00e+00	91	41	0	591396864	56	5976
2026-01-22 00:54:18.87	198.83	43.76	-41.2	-42.2	22.9	0.00e+00	65	41	0	593494016	56	5853
2026-01-22 00:54:19.88	199.13	44.01	-41.3	-42.3	22.8	0.00e+00	92	41	0	595591168	56	5922
2026-01-22 00:54:20.89	199.43	44.25	-41.5	-42.5	22.6	0.00e+00	2	41	0	597688320	56	6083
2026-01-22 00:54:21.90	199.74	44.50	-41.9	-43.0	22.1	0.00e+00	92	41	0	598736896	56	6407
2026-01-22 00:54:22.91	200.06	44.74	-42.2	-43.3	21.8	0.00e+00	92	41	0	600834048	56	6684
2026-01-22 00:54:23.92	200.37	44.99	-42.4	-43.6	21.5	0.00e+00	92	41	0	602931200	56	6855
2026-01-22 00:54:24.93	200.70	45.24	-42.5	-43.6	21.6	0.00e+00	92	41	0	605028352	56	6881
2026-01-22 00:54:25.94	201.02	45.49	-42.4	-43.5	21.5	0.00e+00	5	41	0	607125504	56	6790
2026-01-22 00:54:26.95	201.36	45.73	-42.2	-43.3	21.9	0.00e+00	92	41	0	608174080	56	6629
2026-01-22 00:54:27.96	201.69	45.98	-41.9	-43.0	22.2	0.00e+00	0	41	0	610271232	56	6405
2026-01-22 00:54:28.96	202.03	46.23	-41.7	-42.8	22.4	0.00e+00	90	41	0	612368384	56	6251
2026-01-22 00:54:29.97	202.38	46.48	-41.6	-42.6	22.4	0.00e+00	92	41	0	614465536	56	6151
2026-01-22 00:54:30.98	202.74	46.73	-41.7	-42.7	22.4	0.00e+00	92	41	0	616562688	56	6221
2026-01-22 00:54:31.99	203.10	46.98	-42.0	-43.1	22.0	0.00e+00	92	41	0	617611264	56	6519
2026-01-22 00:54:33.00	203.46	47.23	-42.6	-43.8	21.3	0.00e+00	92	41	0	619708416	56	7033
2026-01-22 00:54:34.01	203.83	47.48	-43.3	-44.6	20.6	0.00e+00	90	41	0	621805568	58	6869
2026-01-22 00:54:35.02	204.21	47.73	-43.6	-44.9	20.4	0.00e+00	65	41	0	623902720	58	7164
2026-01-22 00:54:36.03	204.59	47.98	-43.3	-44.6	20.6	0.00e+00	92	41	0	625999872	58	6924
2026-01-22 00:54:37.04	204.98	48.23	-42.7	-43.9	21.3	0.00e+00	22	41	0	627048448	58	6325
2026-01-22 00:54:38.05	205.38	48.48	-42.3	-43.4	21.8	0.00e+00	90	41	0	629145600	58	6028
2026-01-22 00:54:39.06	205.78	48.73	-41.8	-42.9	22.3	0.00e+00	92	41	0	631242752	58	5655
2026-01-22 00:54:40.07	206.19	48.98	-42.3	-43.4	21.5	0.00e+00	92	41	0	633339904	58	6021
2026-01-22 00:54:41.08	206.61	49.23	-43.0	-44.3	20.9	0.00e+00	92	42	0	635437056	58	6623
2026-01-22 00:54:42.09	207.03	49.49	-44.0	-45.5	19.8	0.00e+00	7	41	0	636485632	60	6774
2026-01-22 00:54:43.10	207.46	49.74	-44.1	-45.6	19.8	0.00e+00	92	41	0	638582784	60	6873
2026-01-22 00:54:44.11	207.89	49.99	-43.7	-45.1	20.3	0.00e+00	0	41	0	640679936	60	6482
2026-01-22 00:54:45.12	208.34	50.24	-43.0	-44.3	21.1	0.00e+00	90	41	0	642777088	60	5911
2026-01-22 00:54:46.13	208.79	50.48	-42.6	-43.8	21.3	0.00e+00	92	41	0	644874240	58	6292
2026-01-22 00:54:47.14	209.24	50.73	-41.6	-42.6	22.5	0.00e+00	92	41	0	645922816	56	6165
2026-01-22 00:54:48.15	209.71	50.98	-40.9	-41.9	23.1	0.00e+00	92	41	0	648019968	56	5660
2026-01-22 00:54:49.16	210.18	51.23	-41.2	-42.1	22.9	0.00e+00	21	41	0	650117120	56	5820
2026-01-22 00:54:50.17	210.66	51.48	-41.3	-42.3	22.8	0.00e+00	91	41	0	652214272	56	5928
2026-01-22 00:54:51.18	211.15	51.72	-41.1	-42.1	22.9	0.00e+00	2	41	0	654311424	56	5796
2026-01-22 00:54:52.19	211.65	51.97	-41.2	-42.1	22.9	0.00e+00	92	41	0	655360000	56	5820
2026-01-22 00:54:53.20	212.15	52.21	-40.7	-41.6	23.4	0.00e+00	92	41	0	657457152	54	6134
2026-01-22 00:54:54.21	212.67	52.45	-40.1	-41.0	23.8	0.00e+00	90	41	0	659554304	54	5730
2026-01-22 00:54:55.21	213.18	52.69	-39.7	-40.6	24.1	0.00e+00	92	41	0	661651456	54	5470
2026-01-22 00:54:56.22	213.71	52.93	-40.0	-40.8	24.0	0.00e+00	92	41	0	663748608	52	6300
2026-01-22 00:54:57.23	214.25	53.17	-40.1	-41.0	23.9	0.00e+00	92	41	0	665845760	52	6396
2026-01-22 00:54:58.24	214.80	53.41	-40.0	-40.8	24.0	0.00e+00	54	41	0	666894336	52	6310
2026-01-22 00:54:59.25	215.36	53.65	-39.8	-40.6	24.2	0.00e+00	90	41	0	668991488	52	6153
2026-01-22 00:55:00.26	215.92	53.88	-39.5	-40.4	24.4	0.00e+00	92	41	0	671088640	52	5984
2026-01-22 00:55:01.27	216.50	54.11	-39.5	-40.3	24.6	0.00e+00	92	41	0	673185792	52	5915
2026-01-22 00:55:02.28	217.08	54.34	-39.8	-40.6	24.2	0.00e+00	92	41	0	675282944	52	6138
2026-01-22 00:55:03.29	217.67	54.57	-40.0	-40.9	23.9	0.00e+00	92	41	0	676331520	52	6323
2026-01-22 00:55:04.30	218.27	54.80	-40.4	-41.3	23.6	0.00e+00	92	41	0	678428672	52	6682
2026-01-22 00:55:05.31	218.89	55.02	-40.2	-41.1	23.7	0.00e+00	52	41	0	680525824	52	6526
2026-01-22 00:55:06.32	219.51	55.25	-40.2	-41.1	23.8	0.00e+00	90	41	0	682622976	52	6474
2026-01-22 00:55:07.33	220.14	55.47	-40.1	-41.0	23.3	0.00e+00	7	41	0	683671552	52	6431
2026-01-22 00:55:08.34	220.78	55.68	-40.3	-41.1	23.7	0.00e+00	92	41	0	685768704	52	6535
2026-01-22 00:55:09.35	221.43	55.90	-40.7	-41.7	23.3	0.00e+00	92	41	0	687865856	54	6179
2026-01-22 00:55:10.36	222.09	56.11	-41.0	-42.0	23.0	0.00e+00	92	41	0	689963008	54	6431
2026-01-22 00:55:11.36	222.76	56.32	-41.5	-42.5	22.6	0.00e+00	90	41	0	692060160	54	6831
2026-01-22 00:55:12.37	223.44	56.52	-41.5	-42.5	22.6	0.00e+00	84	41	0	694157312	54	6838
2026-01-22 00:55:13.39	224.14	56.73	-41.4	-42.4	22.7	0.00e+00	92	41	0	695205888	54	6707
2026-01-22 00:55:14.39	224.83	56.93	-41.3	-42.4	22.7	0.00e+00	7	41	0	697303040	54	6705
2026-01-22 00:55:15.40	225.54	57.12	-41.4	-42.4	22.7	0.00e+00	92	41	0	699400192	54	6703
2026-01-22 00:55:16.41	226.26	57.32	-41.2	-42.2	22.8	0.00e+00	76	41	0	701497344	54	6547
2026-01-22 00:55:17.42	226.99	57.50	-41.1	-42.0	22.9	0.00e+00	92	41	0	703594496	54	6444
2026-01-22 00:55:18.43	227.74	57.69	-41.2	-42.1	22.8	0.00e+00	90	41	0	704643072	54	6530
2026-01-22 00:55:19.44	228.49	57.87	-40.9	-41.9	23.1	0.00e+00	92	41	0	706740224	54	6320
2026-01-22 00:55:20.45	229.25	58.05	-40.9	-41.9	23.0	0.00e+00	92	41	0	708837376	54	6335
2026-01-22 00:55:21.46	230.02	58.22	-40.8	-41.8	23.2	0.00e+00	8	41	0	710934528	54	6273
2026-01-22 00:55:22.47	230.80	58.39	-40.9	-41.8	23.2	0.00e+00	92	41	0	713031680	54	6316
2026-01-22 00:55:23.48	231.59	58.55	-40.9	-41.8	23.2	0.00e+00	90	41	0	714080256	54	6313
2026-01-22 00:55:24.49	232.39	58.71	-40.9	-41.8	23.0	0.00e+00	92	41	0	716177408	54	6317
2026-01-22 00:55:25.50	233.20	58.87	-41.4	-42.5	22.6	0.00e+00	92	41	0	718274560	54	6782
2026-01-22 00:55:26.51	234.02	59.02	-41.4	-42.5	22.6	0.00e+00	90	41	0	720371712	54	6776
2026-01-22 00:55:27.52	234.85	59.16	-41.0	-41.9	23.1	0.00e+00	92	41	0	722468864	54	6356
2026-01-22 00:55:28.53	235.69	59.30	-40.6	-41.6	23.5	0.00e+00	28	41	0	723517440	54	6114
2026-01-22 00:55:29.54	236.54	59.44	-40.9	-41.8	23.3	0.00e+00	92	41	0	725614592	54	6267
2026-01-22 00:55:30.55	237.39	59.57	-40.8	-41.7	23.1	0.00e+00	0	41	0	727711744	54	6211
2026-01-22 00:55:31.56	238.25	59.69	-40.8	-41.8	23.2	0.00e+00	92	41	0	729808896	54	6276
2026-01-22 00:55:32.57	239.13	59.81	-40.7	-41.7	23.3	0.00e+00	92	41	0	731906048	54	6181
2026-01-22 00:55:33.58	240.00	59.92	-40.7	-41.6	23.2	0.00e+00	90	41	0	732954624	54	6168
2026-01-22 00:55:34.59	240.89	60.03	-40.5	-41.4	23.6	0.00e+00	92	41	0	735051776	54	5991
2026-01-22 00:55:35.59	241.78	60.13	-40.7	-41.6	23.2	0.00e+00	54	41	0	737148928	54	6142
2026-01-22 00:55:36.61	242.68	60.22	-41.4	-42.4	22.6	0.00e+00	92	41	0	739246080	54	6733
2026-01-22 00:55:37.61	243.58	60.31	-41.3	-42.3	22.8	0.00e+00	24	41	0	741343232	54	6621
2026-01-22 00:55:38.62	244.49	60.39	-40.4	-41.3	23.6	0.00e+00	92	41	0	742391808	54	5961
2026-01-22 00:55:39.63	245.41	60.47	-40.4	-41.3	23.5	0.00e+00	92	41	0	744488960	54	5931
2026-01-22 00:55:40.64	246.34	60.53	-40.9	-41.9	23.0	0.00e+00	92	41	0	746586112	54	6331
2026-01-22 00:55:41.65	247.26	60.60	-41.3	-42.3	22.8	0.00e+00	92	41	0	748683264	54	6640
2026-01-22 00:55:42.66	248.20	60.65	-41.2	-42.2	22.9	0.00e+00	92	41	0	750780416	54	6569
2026-01-22 00:55:43.67	249.13	60.70	-41.2	-42.2	22.9	0.00e+00	92	41	0	751828992	54	6554
2026-01-22 00:55:44.68	250.07	60.75	-40.6	-41.5	23.5	0.00e+00	11	41	0	753926144	54	6077
2026-01-22 00:55:45.69	251.01	60.78	-40.7	-41.6	23.4	0.00e+00	92	41	0	756023296	54	6144
2026-01-22 00:55:46.70	251.96	60.81	-41.1	-42.1	22.9	0.00e+00	0	41	0	758120448	54	6506
2026-01-22 00:55:47.70	252.90	60.83	-41.5	-42.5	22.7	0.00e+00	92	41	0	760217600	54	6814
2026-01-22 00:55:48.71	253.84	60.85	-41.0	-42.0	23.1	0.00e+00	92	41	0	762314752	54	6435
2026-01-22 00:55:49.72	254.79	60.86	-41.1	-42.0	23.0	0.00e+00	92	41	0	763363328	54	6434
2026-01-22 00:55:50.73	255.74	60.86	-40.8	-41.8	23.2	0.00e+00	90	41	0	765460480	54	6269
2026-01-22 00:55:51.75	256.70	60.86	-40.2	-41.0	23.9	0.00e+00	20	41	0	767557632	54	5743
2026-01-22 00:55:52.76	257.65	60.84	-39.7	-40.5	24.3	0.00e+00	90	41	0	769654784	52	6102
2026-01-22 00:55:53.77	258.60	60.82	-40.2	-41.1	23.9	0.00e+00	0	41	0	771751936	52	6476
2026-01-22 00:55:54.77	259.53	60.80	-40.1	-41.0	24.0	0.00e+00	91	41	0	772800512	52	6436
2026-01-22 00:55:55.78	260.48	60.77	-39.8	-40.6	24.4	0.00e+00	92	41	0	774897664	52	6141
2026-01-22 00:55:56.79	261.42	60.73	-39.7	-40.6	24.3	0.00e+00	92	41	0	776994816	52	6117
2026-01-22 00:55:57.80	262.36	60.68	-39.9	-40.8	24.3	0.00e+00	90	41	0	779091968	52	6276
2026-01-22 00:55:58.81	263.29	60.63	-39.9	-40.8	24.2	0.00e+00	21	41	0	781189120	52	6267
2026-01-22 00:55:59.81	264.21	60.57	-39.7	-40.5	24.2	0.00e+00	92	41	0	782237696	52	6102
2026-01-22 00:56:00.82	265.14	60.51	-40.1	-41.0	24.1	0.00e+00	58	41	0	784334848	52	6410
2026-01-22 00:56:01.83	266.06	60.44	-39.8	-40.7	24.2	0.00e+00	92	41	0	786432000	52	6197
2026-01-22 00:56:02.84	266.97	60.36	-40.1	-40.9	23.9	0.00e+00	90	41	0	788529152	52	6382
2026-01-22 00:56:03.85	267.88	60.27	-41.1	-42.1	22.7	0.00e+00	92	41	0	790626304	54	6509
2026-01-22 00:56:04.86	268.79	60.18	-41.6	-42.6	22.9	0.00e+00	92	41	0	791674880	56	6162
2026-01-22 00:56:05.87	269.68	60.09	-40.7	-41.7	23.5	0.00e+00	51	41	0	793772032	56	5504
2026-01-22 00:56:06.88	270.57	59.99	-40.9	-41.9	23.2	0.00e+00	90	41	0	795869184	54	6322
2026-01-22 00:56:07.89	271.46	59.88	-41.4	-42.4	22.5	0.00e+00	0	41	0	797966336	54	6761
2026-01-22 00:56:08.90	272.33	59.76	-41.8	-42.8	22.4	0.00e+00	91	41	0	800063488	54	7056
2026-01-22 00:56:09.91	273.20	59.64	-41.9	-43.0	22.2	0.00e+00	0	41	0	801112064	56	6426
2026-01-22 00:56:10.92	274.06	59.52	-42.8	-44.0	21.1	0.00e+00	92	41	0	803209216	58	6463
2026-01-22 00:56:11.93	274.91	59.39	-44.1	-45.6	19.8	0.00e+00	90	41	0	805306368	60	6898
2026-01-22 00:56:12.94	275.75	59.25	-44.1	-45.5	19.9	0.00e+00	92	41	0	807403520	60	6826
2026-01-22 00:56:13.95	276.58	59.11	-43.9	-45.3	20.0	0.00e+00	92	41	0	809500672	60	6638
2026-01-22 00:56:14.96	277.41	58.96	-43.5	-44.8	20.7	0.00e+00	25	41	0	810549248	60	6289
2026-01-22 00:56:15.97	278.22	58.81	-42.8	-44.0	21.4	0.00e+00	92	41	0	812646400	60	5718
2026-01-22 00:56:16.98	279.03	58.65	-43.2	-44.4	21.0	0.00e+00	0	41	0	814743552	60	6024
2026-01-22 00:56:17.99	279.82	58.49	-44.1	-45.5	19.9	0.00e+00	92	41	0	816840704	60	6819
2026-01-22 00:56:19.00	280.61	58.33	-44.0	-45.4	20.2	0.00e+00	92	41	0	818937856	60	6721
2026-01-22 00:56:20.01	281.39	58.16	-42.7	-43.9	21.5	0.00e+00	27	41	0	819986432	60	5667
2026-01-22 00:56:21.02	282.15	57.98	-42.3	-43.4	21.8	0.00e+00	92	41	0	822083584	58	5987
2026-01-22 00:56:22.03	282.91	57.80	-41.5	-42.4	22.8	0.00e+00	64	41	0	824180736	56	6024
2026-01-22 00:56:23.03	283.65	57.62	-42.0	-43.0	22.2	0.00e+00	90	41	0	826277888	56	6440
2026-01-22 00:56:24.04	284.39	57.44	-42.4	-43.5	21.8	0.00e+00	0	41	0	828375040	56	6813
2026-01-22 00:56:25.06	285.12	57.25	-42.1	-43.1	22.2	0.00e+00	92	41	0	830472192	56	6537
2026-01-22 00:56:26.07	285.84	57.05	-41.8	-42.9	22.5	0.00e+00	92	41	0	831520768	56	6329
2026-01-22 00:56:27.08	286.54	56.86	-41.8	-42.8	22.4	0.00e+00	92	41	0	833617920	56	6306
2026-01-22 00:56:28.08	287.23	56.66	-41.6	-42.6	22.6	0.00e+00	91	41	0	835715072	56	6144
2026-01-22 00:56:29.09	287.92	56.45	-40.8	-41.7	23.4	0.00e+00	8	41	0	837812224	56	5564
2026-01-22 00:56:30.10	288.59	56.25	-40.4	-41.3	23.7	0.00e+00	91	41	0	839909376	54	5913
2026-01-22 00:56:31.11	289.26	56.04	-39.6	-40.4	24.1	0.00e+00	6	41	0	840957952	52	6015
2026-01-22 00:56:32.12	289.92	55.82	-39.0	-39.8	25.0	0.00e+00	91	41	0	843055104	52	5593
2026-01-22 00:56:33.13	290.56	55.61	-39.7	-40.6	24.3	0.00e+00	0	41	0	845152256	52	6113
2026-01-22 00:56:34.14	291.20	55.39	-40.6	-41.5	23.6	0.00e+00	93	41	0	847249408	52	6830
2026-01-22 00:56:35.15	291.82	55.17	-39.9	-40.7	24.3	0.00e+00	92	41	0	849346560	52	6226
2026-01-22 00:56:36.16	292.44	54.95	-39.0	-39.8	25.1	0.00e+00	21	41	0	850395136	52	5579
2026-01-22 00:56:37.17	293.05	54.72	-38.8	-39.5	25.3	0.00e+00	91	41	0	852492288	50	6091
2026-01-22 00:56:38.18	293.65	54.50	-39.4	-40.2	24.4	0.00e+00	55	41	0	854589440	50	6596
2026-01-22 00:56:39.19	294.23	54.27	-40.5	-41.4	23.8	0.00e+00	92	41	0	856686592	52	6716
2026-01-22 00:56:40.20	294.81	54.04	-39.8	-40.6	24.3	0.00e+00	0	41	0	858783744	52	6158
2026-01-22 00:56:41.21	295.38	53.80	-39.3	-40.1	24.8	0.00e+00	92	41	0	859832320	52	5827
2026-01-22 00:56:42.22	295.95	53.57	-38.6	-39.4	25.4	0.00e+00	92	41	0	861929472	50	5979
2026-01-22 00:56:43.23	296.50	53.33	-38.4	-39.1	25.6	0.00e+00	0	41	0	864026624	50	5802
2026-01-22 00:56:44.24	297.04	53.10	-38.4	-39.1	25.6	0.00e+00	92	41	0	866123776	50	5827
2026-01-22 00:56:45.25	297.57	52.86	-38.5	-39.3	25.6	0.00e+00	0	41	0	868220928	50	5898
2026-01-22 00:56:46.26	298.10	52.62	-38.4	-39.1	25.5	0.00e+00	92	41	0	869269504	50	5824
2026-01-22 00:56:47.27	298.62	52.38	-37.8	-38.6	26.0	0.00e+00	57	41	0	871366656	50	5441
2026-01-22 00:56:48.28	299.13	52.13	-37.5	-38.2	26.2	0.00e+00	90	41	0	873463808	48	5887
2026-01-22 00:56:49.29	299.63	51.89	-38.3	-39.0	25.4	0.00e+00	90	41	0	875560960	48	6434
2026-01-22 00:56:50.30	300.12	51.65	-39.6	-40.4	24.3	0.00e+00	92	41	0	877658112	50	6760
2026-01-22 00:56:51.31	300.60	51.40	-40.3	-41.2	23.9	0.00e+00	92	41	0	878706688	52	6570
2026-01-22 00:56:52.32	301.08	51.16	-40.0	-40.9	24.1	0.00e+00	7	41	0	880803840	52	6344
2026-01-22 00:56:53.32	301.55	50.91	-39.5	-40.3	24.5	0.00e+00	92	41	0	882900992	52	5955
2026-01-22 00:56:54.33	302.01	50.66	-39.3	-40.1	24.8	0.00e+00	0	41	0	884998144	52	5777
2026-01-22 00:56:55.34	302.46	50.42	-39.9	-40.8	24.1	0.00e+00	92	41	0	887095296	52	6248
2026-01-22 00:56:56.35	302.91	50.17	-41.3	-42.3	22.6	0.00e+00	14	41	0	888143872	54	6632
2026-01-22 00:56:57.36	303.35	49.92	-42.8	-44.0	21.3	0.00e+00	92	41	0	890241024	58	6432
2026-01-22 00:56:58.37	303.78	49.67	-42.2	-43.3	22.0	0.00e+00	92	41	0	892338176	58	5936
2026-01-22 00:56:59.38	304.21	49.42	-41.7	-42.8	22.3	0.00e+00	7	41	0	894435328	58	5579
2026-01-22 00:57:00.39	304.63	49.17	-41.8	-42.9	22.3	0.00e+00	92	41	0	896532480	56	6337
2026-01-22 00:57:01.40	305.04	48.92	-42.6	-43.7	21.7	0.00e+00	65	41	0	898629632	56	6977
2026-01-22 00:57:02.41	305.44	48.67	-43.0	-44.2	21.0	0.00e+00	90	41	0	899678208	58	6615
2026-01-22 00:57:03.42	305.84	48.42	-43.4	-44.7	20.7	0.00e+00	0	41	0	901775360	58	6973
2026-01-22 00:57:04.43	306.24	48.17	-44.0	-45.4	19.9	0.00e+00	90	41	0	903872512	60	6754
2026-01-22 00:57:05.44	306.62	47.92	-44.5	-46.0	19.5	0.00e+00	92	41	0	905969664	60	7243
2026-01-22 00:57:06.45	307.00	47.67	-43.9	-45.3	20.2	0.00e+00	7	41	0	908066816	60	6687
2026-01-22 00:57:07.46	307.38	47.42	-43.6	-44.9	20.5	0.00e+00	92	41	0	909115392	60	6351
2026-01-22 00:57:08.47	307.75	47.17	-43.9	-45.3	20.0	0.00e+00	55	41	0	911212544	60	6657
2026-01-22 00:57:09.48	308.11	46.92	-45.3	-47.0	18.5	0.00e+00	92	41	0	913309696	60	8127
2026-01-22 00:57:10.48	308.46	46.68	-46.1	-48.2	17.4	0.00e+00	0	41	0	915406848	60	9266
2026-01-22 00:57:11.49	308.81	46.43	-45.2	-46.9	18.9	0.00e+00	92	41	0	917504000	60	7971
2026-01-22 00:57:12.50	309.16	46.18	-44.0	-45.3	20.1	0.00e+00	90	41	0	918552576	60	6686
2026-01-22 00:57:13.51	309.50	45.93	-43.3	-44.5	21.1	0.00e+00	0	41	0	920649728	60	6065
2026-01-22 00:57:14.52	309.84	45.68	-43.2	-44.4	21.1	0.00e+00	92	41	0	922746880	60	5973
2026-01-22 00:57:15.53	310.17	45.44	-44.0	-45.4	20.1	0.00e+00	0	41	0	924844032	60	6728
2026-01-22 00:57:16.54	310.49	45.19	-43.5	-44.8	20.7	0.00e+00	92	41	0	926941184	60	6296
2026-01-22 00:57:17.56	310.81	44.94	-43.5	-44.7	20.7	0.00e+00	26	41	0	927989760	60	6228
2026-01-22 00:57:18.57	311.13	44.70	-43.4	-44.6	20.9	0.00e+00	92	41	0	930086912	60	6149
2026-01-22 00:57:19.58	311.44	44.45	-43.9	-45.3	20.1	0.00e+00	7	41	0	932184064	60	6656
2026-01-22 00:57:20.59	311.75	44.21	-43.6	-44.9	20.5	0.00e+00	56	41	0	934281216	60	6352
2026-01-22 00:57:21.60	312.05	43.97	-42.7	-43.8	21.6	0.00e+00	90	41	0	936378368	60	5603
2026-01-22 00:57:22.61	312.35	43.72	-42.3	-43.3	22.0	0.00e+00	2	41	0	937426944	58	5956
2026-01-22 00:57:23.61	312.64	43.48	-42.5	-43.6	21.8	0.00e+00	92	41	0	939524096	58	6121
2026-01-22 00:57:24.62	312.92	43.24	-43.0	-44.2	21.1	0.00e+00	65	41	0	941621248	58	6576
2026-01-22 00:57:25.63	313.21	43.00	-43.2	-44.5	20.8	0.00e+00	92	41	0	943718400	58	6816
2026-01-22 00:57:26.64	313.49	42.76	-42.8	-44.0	21.3	0.00e+00	80	41	0	945815552	58	6438
2026-01-22 00:57:27.65	313.76	42.52	-42.7	-43.8	21.8	0.00e+00	92	41	0	946864128	58	6290
2026-01-22 00:57:28.66	314.04	42.29	-41.5	-42.5	22.8	0.00e+00	91	41	0	948961280	56	6079
2026-01-22 00:57:29.67	314.30	42.05	-41.3	-42.2	22.9	0.00e+00	56	41	0	951058432	56	5875
2026-01-22 00:57:30.68	314.57	41.81	-42.1	-43.2	22.1	0.00e+00	92	41	0	953155584	56	6569
2026-01-22 00:57:31.69	314.83	41.58	-42.5	-43.6	21.6	0.00e+00	0	41	0	955252736	56	6880
2026-01-22 00:57:32.70	315.08	41.34	-42.2	-43.3	21.9	0.00e+00	91	41	0	956301312	56	6671
2026-01-22 00:57:33.71	315.34	41.11	-42.1	-43.1	21.7	0.00e+00	0	41	0	958398464	56	6510
2026-01-22 00:57:34.73	315.59	40.87	-42.4	-43.6	21.6	0.00e+00	90	41	0	960495616	56	6852
2026-01-22 00:57:35.73	315.83	40.64	-42.3	-43.4	21.9	0.00e+00	92	41	0	962592768	56	6729
2026-01-22 00:57:36.74	316.08	40.41	-42.1	-43.2	22.1	0.00e+00	0	41	0	964689920	56	6557
2026-01-22 00:57:37.75	316.32	40.18	-41.6	-42.7	22.7	0.00e+00	91	41	0	966787072	56	6174
2026-01-22 00:57:38.76	316.55	39.95	-40.5	-41.4	23.7	0.00e+00	0	41	0	967835648	54	6005
2026-01-22 00:57:39.77	316.78	39.73	-40.2	-41.0	23.9	0.00e+00	91	41	0	969932800	54	5757
2026-01-22 00:57:40.78	317.01	39.50	-40.4	-41.3	23.7	0.00e+00	25	41	0	972029952	54	5926
2026-01-22 00:57:41.79	317.24	39.27	-41.4	-42.4	22.6	0.00e+00	92	41	0	974127104	54	6716
2026-01-22 00:57:42.80	317.46	39.05	-42.4	-43.6	21.7	0.00e+00	0	41	0	976224256	56	6867
2026-01-22 00:57:43.81	317.68	38.82	-42.7	-43.9	21.4	0.00e+00	63	41	0	977272832	58	6354
2026-01-22 00:57:44.82	317.90	38.60	-42.3	-43.5	21.8	0.00e+00	92	41	0	979369984	58	6036
2026-01-22 00:57:45.83	318.12	38.38	-41.4	-42.4	22.7	0.00e+00	7	41	0	981467136	56	6003
2026-01-22 00:57:46.84	318.33	38.16	-41.0	-41.9	23.3	0.00e+00	92	41	0	983564288	56	5678
2026-01-22 00:57:47.85	318.54	37.94	-40.2	-41.1	24.0	0.00e+00	62	41	0	985661440	54	5787
2026-01-22 00:57:48.86	318.74	37.72	-39.9	-40.7	24.2	0.00e+00	92	41	0	986710016	54	5555
2026-01-22 00:57:49.87	318.95	37.50	-39.9	-40.7	24.2	0.00e+00	0	41	0	988807168	54	5528
2026-01-22 00:57:50.88	319.15	37.29	-40.0	-40.9	24.1	0.00e+00	92	41	0	990904320	54	5639
2026-01-22 00:57:51.89	319.34	37.07	-40.6	-41.5	23.5	0.00e+00	92	41	0	993001472	54	6059
2026-01-22 00:57:52.90	319.54	36.86	-41.2	-42.2	22.9	0.00e+00	6	41	0	995098624	54	6592
2026-01-22 00:57:53.91	319.73	36.64	-42.0	-43.1	22.2	0.00e+00	90	41	0	996147200	56	6465
2026-01-22 00:57:54.92	319.92	36.43	-42.0	-43.1	22.2	0.00e+00	0	41	0	998244352	56	6499
2026-01-22 00:57:55.93	320.11	36.22	-42.0	-43.1	22.2	0.00e+00	92	41	0	1000341504	56	6499
2026-01-22 00:57:56.94	320.30	36.01	-41.1	-42.1	23.1	0.00e+00	0	41	0	1002438656	56	5807
2026-01-22 00:57:57.94	320.48	35.80	-41.0	-41.9	23.3	0.00e+00	25	41	0	1004535808	56	5693
2026-01-22 00:57:58.96	320.66	35.59	-40.3	-41.1	23.9	0.00e+00	92	41	0	1005584384	54	5820
2026-01-22 00:57:59.97	320.84	35.38	-39.9	-40.8	24.1	0.00e+00	0	41	0	1007681536	54	5569
2026-01-22 00:58:00.98	321.02	35.18	-40.2	-41.1	23.9	0.00e+00	92	41	0	1009778688	54	5771
2026-01-22 00:58:01.99	321.19	34.97	-40.7	-41.7	23.2	0.00e+00	26	41	0	1011875840	54	6179
2026-01-22 00:58:03.00	321.37	34.77	-41.6	-42.6	22.4	0.00e+00	92	41	0	1013972992	54	6921
2026-01-22 00:58:04.01	321.54	34.56	-42.6	-43.8	21.5	0.00e+00	55	41	0	1015021568	56	7014
2026-01-22 00:58:05.02	321.71	34.36	-43.2	-44.5	20.8	0.00e+00	90	41	0	1017118720	58	6847
2026-01-22 00:58:06.03	321.87	34.16	-43.2	-44.5	20.8	0.00e+00	76	41	0	1019215872	58	6829
2026-01-22 00:58:07.04	322.04	33.96	-43.1	-44.4	20.9	0.00e+00	55	41	0	1021313024	58	6739
2026-01-22 00:58:08.05	322.20	33.76	-42.7	-43.8	21.4	0.00e+00	92	41	0	1023410176	58	6312
2026-01-22 00:58:09.06	322.36	33.56	-41.8	-42.9	22.4	0.00e+00	0	41	0	1024458752	58	5638
2026-01-22 00:58:10.07	322.52	33.37	-41.7	-42.8	22.4	0.00e+00	91	41	0	1026555904	56	6246
2026-01-22 00:58:11.08	322.67	33.17	-41.3	-42.3	22.9	0.00e+00	0	41	0	1028653056	56	5943
2026-01-22 00:58:12.09	322.83	32.98	-41.0	-41.9	23.2	0.00e+00	92	41	0	1030750208	56	5653
2026-01-22 00:58:13.10	322.98	32.78	-41.3	-42.2	22.9	0.00e+00	0	41	0	1032847360	56	5882
2026-01-22 00:58:14.11	323.13	32.59	-41.6	-42.7	22.4	0.00e+00	20	41	0	1034944512	56	6183
2026-01-22 00:58:15.11	323.28	32.40	-42.2	-43.3	21.8	0.00e+00	92	41	0	1035993088	56	6687
2026-01-22 00:58:16.12	323.43	32.21	-42.4	-43.6	21.6	0.00e+00	0	41	0	1038090240	56	6869
2026-01-22 00:58:17.13	323.58	32.02	-42.8	-44.0	21.2	0.00e+00	92	41	0	1040187392	58	6392
2026-01-22 00:58:18.14	323.72	31.83	-42.8	-44.0	21.2	0.00e+00	23	41	0	1042284544	58	6436
2026-01-22 00:58:19.15	323.87	31.64	-42.7	-43.9	21.3	0.00e+00	92	41	0	1044381696	58	6334
2026-01-22 00:58:20.16	324.01	31.46	-42.6	-43.8	21.4	0.00e+00	3	41	0	1045430272	58	6262
2026-01-22 00:58:21.17	324.15	31.27	-42.2	-43.2	21.9	0.00e+00	92	41	0	1047527424	58	5890
2026-01-22 00:58:22.18	324.29	31.09	-42.2	-43.2	21.9	0.00e+00	92	41	0	1049624576	58	5894
2026-01-22 00:58:23.19	324.42	30.90	-42.1	-43.2	22.0	0.00e+00	24	41	0	1051721728	58	5835
2026-01-22 00:58:24.20	324.56	30.72	-41.9	-42.9	22.2	0.00e+00	90	41	0	1053818880	58	5668
2026-01-22 00:58:25.21	324.69	30.54	-42.2	-43.3	21.9	0.00e+00	24	41	0	1054867456	58	5935
2026-01-22 00:58:26.22	324.82	30.36	-42.4	-43.5	21.6	0.00e+00	92	41	0	1056964608	58	6085
2026-01-22 00:58:27.23	324.96	30.18	-42.4	-43.6	21.6	0.00e+00	0	41	0	1059061760	58	6108
2026-01-22 00:58:28.24	325.09	30.00	-42.5	-43.7	21.5	0.00e+00	36	41	0	1061158912	58	6201
2026-01-22 00:58:29.25	325.21	29.82	-42.6	-43.7	21.5	0.00e+00	0	41	0	1063256064	58	6238
2026-01-22 00:58:30.26	325.34	29.65	-42.3	-43.4	21.8	0.00e+00	58	41	0	1064304640	58	5975
2026-01-22 00:58:31.27	325.47	29.47	-42.1	-43.2	22.0	0.00e+00	91	41	0	1066401792	58	5874
2026-01-22 00:58:32.28	325.59	29.30	-42.1	-43.1	22.0	0.00e+00	0	41	0	1068498944	58	5816
2026-01-22 00:58:33.29	325.71	29.12	-41.8	-42.9	22.4	0.00e+00	90	41	0	1070596096	58	5643
2026-01-22 00:58:34.30	325.84	28.95	-41.8	-42.8	22.3	0.00e+00	0	41	0	1072693248	56	6306
2026-01-22 00:58:35.31	325.96	28.78	-41.7	-42.7	22.4	0.00e+00	92	41	0	1073741824	56	6221
2026-01-22 00:58:36.32	326.08	28.61	-41.9	-42.9	22.3	0.00e+00	0	41	0	1075838976	56	6343
2026-01-22 00:58:37.33	326.19	28.44	-42.0	-43.0	22.2	0.00e+00	92	41	0	1077936128	56	6451
2026-01-22 00:58:38.34	326.31	28.27	-42.2	-43.3	21.8	0.00e+00	90	41	0	1080033280	56	6644
2026-01-22 00:58:39.35	326.43	28.10	-42.6	-43.8	21.5	0.00e+00	24	41	0	1082130432	56	7023
2026-01-22 00:58:40.36	326.54	27.93	-42.8	-44.0	21.2	0.00e+00	92	41	0	1083179008	58	6451
2026-01-22 00:58:41.37	326.65	27.77	-42.8	-44.0	21.3	0.00e+00	24	41	0	1085276160	58	6395
2026-01-22 00:58:42.38	326.77	27.60	-42.8	-44.0	21.2	0.00e+00	92	41	0	1087373312	58	6439
2026-01-22 00:58:43.39	326.88	27.43	-43.0	-44.2	21.1	0.00e+00	0	41	0	1089470464	58	6566
2026-01-22 00:58:44.40	326.99	27.27	-42.6	-43.8	21.5	0.00e+00	58	41	0	1091567616	58	6288
2026-01-22 00:58:45.40	327.10	27.11	-42.4	-43.5	21.7	0.00e+00	90	41	0	1092616192	58	6071
2026-01-22 00:58:46.41	327.20	26.95	-42.1	-43.2	22.0	0.00e+00	26	41	0	1094713344	58	5883
2026-01-22 00:58:47.42	327.31	26.79	-42.3	-43.4	21.8	0.00e+00	92	41	0	1096810496	58	5986
2026-01-22 00:58:48.43	327.42	26.63	-41.8	-42.8	22.4	0.00e+00	0	41	0	1098907648	58	5623
2026-01-22 00:58:49.44	327.52	26.47	-41.8	-42.8	22.3	0.00e+00	92	41	0	1101004800	56	6268
2026-01-22 00:58:50.45	327.63	26.31	-41.8	-42.8	22.4	0.00e+00	0	41	0	1103101952	56	6273
2026-01-22 00:58:51.46	327.73	26.15	-41.8	-42.8	22.3	0.00e+00	29	41	0	1104150528	56	6316
2026-01-22 00:58:52.47	327.83	25.99	-41.8	-42.9	22.3	0.00e+00	9	41	0	1106247680	56	6340
2026-01-22 00:58:53.48	327.93	25.84	-41.9	-43.0	22.2	0.00e+00	0	41	0	1108344832	56	6404
2026-01-22 00:58:54.49	328.03	25.68	-42.1	-43.2	22.0	0.00e+00	91	41	0	1110441984	56	6540
2026-01-22 00:58:55.50	328.13	25.53	-42.2	-43.3	21.9	0.00e+00	0	41	0	1112539136	56	6630
2026-01-22 00:58:56.51	328.23	25.37	-42.3	-43.4	21.8	0.00e+00	92	41	0	1113587712	56	6767
2026-01-22 00:58:57.52	328.33	25.22	-42.2	-43.4	21.8	0.00e+00	0	41	0	1115684864	56	6699
2026-01-22 00:58:58.53	328.42	25.07	-42.4	-43.5	21.8	0.00e+00	92	41	0	1117782016	56	6814
2026-01-22 00:58:59.54	328.52	24.92	-42.1	-43.3	21.9	0.00e+00	0	41	0	1119879168	56	6618
2026-01-22 00:59:00.55	328.61	24.77	-42.2	-43.3	21.9	0.00e+00	21	41	0	1121976320	56	6635
2026-01-22 00:59:01.56	328.71	24.62	-42.0	-43.1	22.1	0.00e+00	91	41	0	1123024896	56	6477
2026-01-22 00:59:02.57	328.80	24.47	-41.7	-42.8	22.3	0.00e+00	0	41	0	1125122048	56	6277
2026-01-22 00:59:03.58	328.89	24.32	-41.7	-42.8	22.3	0.00e+00	91	41	0	1127219200	56	6293
2026-01-22 00:59:04.59	328.98	24.17	-41.5	-42.5	22.6	0.00e+00	21	41	0	1129316352	56	6079
2026-01-22 00:59:05.60	329.07	24.03	-41.3	-42.3	22.7	0.00e+00	92	41	0	1131413504	56	5932
2026-01-22 00:59:06.60	329.16	23.88	-41.3	-42.2	22.7	0.00e+00	0	41	0	1132462080	56	5891
2026-01-22 00:59:07.61	329.25	23.74	-41.3	-42.3	22.8	0.00e+00	0	41	0	1134559232	56	5914
2026-01-22 00:59:08.62	329.34	23.59	-41.0	-42.0	23.0	0.00e+00	91	41	0	1136656384	56	5696
2026-01-22 00:59:09.63	329.43	23.45	-40.9	-41.8	23.2	0.00e+00	59	41	0	1138753536	56	5628
2026-01-22 00:59:10.64	329.51	23.30	-40.7	-41.6	23.3	0.00e+00	92	41	0	1140850688	54	6159
2026-01-22 00:59:11.65	329.60	23.16	-40.6	-41.5	23.4	0.00e+00	5	41	0	1141899264	54	6054
2026-01-22 00:59:12.66	329.68	23.02	-40.6	-41.5	23.2	0.00e+00	92	41	0	1143996416	54	6103
2026-01-22 00:59:13.67	329.77	22.88	-40.5	-41.4	23.5	0.00e+00	61	41	0	1146093568	54	6019
2026-01-22 00:59:14.68	329.85	22.74	-40.6	-41.5	23.5	0.00e+00	57	41	0	1148190720	54	6057
2026-01-22 00:59:15.69	329.94	22.60	-40.6	-41.5	23.5	0.00e+00	0	41	0	1150287872	54	6060
2026-01-22 00:59:16.70	330.02	22.46	-40.5	-41.4	23.5	0.00e+00	5	41	0	1151336448	54	5984
2026-01-22 00:59:17.71	330.10	22.32	-40.7	-41.7	23.2	0.00e+00	92	40	0	1153433600	54	6181
2026-01-22 00:59:18.72	330.18	22.19	-40.7	-41.6	23.3	0.00e+00	3	41	0	1155530752	54	6159
2026-01-22 00:59:19.73	330.26	22.05	-40.7	-41.6	23.3	0.00e+00	90	41	0	1157627904	54	6152
2026-01-22 00:59:20.74	330.34	21.91	-40.7	-41.6	23.3	0.00e+00	2	41	0	1159725056	54	6170
2026-01-22 00:59:21.75	330.42	21.78	-40.8	-41.8	23.1	0.00e+00	90	41	0	1160773632	54	6278
2026-01-22 00:59:22.76	330.50	21.64	-41.0	-41.9	23.0	0.00e+00	0	41	0	1162870784	54	6379
2026-01-22 00:59:23.77	330.57	21.51	-41.1	-42.1	22.9	0.00e+00	19	41	0	1164967936	54	6469
2026-01-22 00:59:24.77	330.65	21.38	-40.9	-41.9	23.0	0.00e+00	92	41	0	1167065088	54	6333
2026-01-22 00:59:25.79	330.73	21.24	-41.0	-42.0	22.9	0.00e+00	21	41	0	1169162240	54	6435
2026-01-22 00:59:26.79	330.80	21.11	-40.7	-41.6	23.2	0.00e+00	92	41	0	1171259392	54	6165
2026-01-22 00:59:27.80	330.88	20.98	-40.7	-41.7	23.1	0.00e+00	22	41	0	1172307968	54	6220
2026-01-22 00:59:28.81	330.95	20.85	-40.7	-41.7	23.2	0.00e+00	92	41	0	1174405120	54	6187
2026-01-22 00:59:29.82	331.03	20.72	-40.7	-41.6	23.2	0.00e+00	0	41	0	1176502272	54	6168
2026-01-22 00:59:30.83	331.10	20.59	-40.4	-41.3	23.4	0.00e+00	6	41	0	1178599424	54	5931
2026-01-22 00:59:31.84	331.17	20.46	-40.1	-41.0	23.7	0.00e+00	90	41	0	1180696576	54	5754
2026-01-22 00:59:32.85	331.25	20.34	-40.0	-40.9	23.7	0.00e+00	66	41	0	1181745152	54	5665
2026-01-22 00:59:33.86	331.32	20.21	-40.1	-40.9	23.8	0.00e+00	92	41	0	1183842304	54	5692
2026-01-22 00:59:34.87	331.39	20.08	-40.0	-40.9	23.8	0.00e+00	6	41	0	1185939456	54	5661
2026-01-22 00:59:35.88	331.46	19.95	-39.6	-40.4	24.3	0.00e+00	92	41	0	1188036608	52	6001
2026-01-22 00:59:36.89	331.53	19.83	-39.7	-40.6	24.2	0.00e+00	5	41	0	1190133760	52	6116
