passes_logs/2026/01/22/R4.6S_Anadyr/R4.6S_Anadyr__20260122_141318_SUOMI_NPP_rec.log

#Pass ID: 20260122_141318_SUOMI NPP
#Satellite: SUOMI NPP
#Configuration: NPP
#almurnet v.1.7.20251203
#Start time: 2026-01-22 14:13:21

#Version: 2.2.20231116
#Station: R4.6S_Anadyr
#Location: 177.4865 lon 64.73178 lat
#TLE: 1 37849U 11061A   26021.51818991  .00000201  00000+0  11636-3 0  9995
#TLE: 2 37849  98.7819 323.5108 0002300  52.3548 307.7836 14.19527793737637

#Time	Az	El	Level	Level2	SNR	BER	BlckErr	Temp	State	Recorded	gain1	gain2
2026-01-22 14:13:21.86	19.61	0.17	-51.3	-65.1	3.3	1.54e+00	0	40	0	0	60	64771
2026-01-22 14:13:22.87	19.63	0.23	-51.2	-66.4	3.6	1.51e+00	0	40	104	0	60	75245
2026-01-22 14:13:23.88	19.66	0.29	-51.2	-66.4	3.6	1.51e+00	0	40	104	0	60	75668
2026-01-22 14:13:24.89	19.68	0.35	-51.2	-66.4	3.6	1.51e+00	0	40	104	0	60	75480
2026-01-22 14:13:25.90	19.70	0.41	-51.2	-66.4	3.6	1.51e+00	0	40	104	0	60	75833
2026-01-22 14:13:26.90	19.72	0.47	-51.2	-66.4	3.6	1.51e+00	0	40	104	0	60	75679
2026-01-22 14:13:27.91	19.74	0.53	-51.2	-66.4	3.6	1.51e+00	0	40	104	0	60	75461
2026-01-22 14:13:28.92	19.77	0.59	-51.1	-66.3	3.6	1.51e+00	0	40	104	0	60	74983
2026-01-22 14:13:29.93	19.79	0.65	-51.1	-66.3	3.6	1.51e+00	0	40	104	0	60	74875
2026-01-22 14:13:30.94	19.81	0.71	-51.0	-66.3	3.6	1.51e+00	0	40	104	0	60	74673
2026-01-22 14:13:31.95	19.83	0.77	-51.0	-66.2	3.6	1.51e+00	0	40	104	0	60	74164
2026-01-22 14:13:32.96	19.86	0.84	-51.0	-66.2	3.6	1.51e+00	0	40	104	0	60	73545
2026-01-22 14:13:33.97	19.88	0.90	-50.9	-66.1	3.6	1.51e+00	0	40	104	0	60	72955
2026-01-22 14:13:34.99	19.90	0.96	-50.8	-66.0	3.6	1.51e+00	0	40	104	0	60	72351
2026-01-22 14:13:36.00	19.92	1.02	-50.7	-65.9	3.5	1.51e+00	0	40	104	0	60	71682
2026-01-22 14:13:37.00	19.95	1.08	-50.6	-65.8	3.5	1.51e+00	0	40	104	0	60	70608
2026-01-22 14:13:38.02	19.97	1.14	-50.4	-65.7	3.6	1.51e+00	0	40	104	0	60	69724
2026-01-22 14:13:39.03	19.99	1.20	-50.4	-65.5	3.6	1.51e+00	0	40	104	0	60	68414
2026-01-22 14:13:40.04	20.02	1.27	-50.3	-65.4	3.6	1.51e+00	0	40	104	0	60	67615
2026-01-22 14:13:41.05	20.04	1.33	-50.1	-65.2	3.6	1.51e+00	0	40	104	0	60	66130
2026-01-22 14:13:42.06	20.06	1.39	-49.9	-65.1	3.6	1.51e+00	0	40	104	0	60	64832
2026-01-22 14:13:43.07	20.09	1.45	-49.6	-64.8	3.6	1.51e+00	0	40	104	0	60	62564
2026-01-22 14:13:44.08	20.11	1.51	-49.6	-64.8	3.6	1.51e+00	0	40	104	0	60	62842
2026-01-22 14:13:45.09	20.13	1.58	-49.6	-64.9	3.6	1.51e+00	0	40	104	0	60	63272
2026-01-22 14:13:46.10	20.16	1.64	-49.6	-64.8	3.6	1.51e+00	0	40	104	0	60	62984
2026-01-22 14:13:47.11	20.18	1.70	-49.7	-64.8	3.5	1.51e+00	0	40	104	0	60	62738
2026-01-22 14:13:48.12	20.20	1.77	-49.6	-64.8	3.6	1.51e+00	0	40	104	0	60	63059
2026-01-22 14:13:49.13	20.23	1.83	-49.6	-64.8	3.6	1.51e+00	0	40	104	0	60	62945
2026-01-22 14:13:50.14	20.25	1.89	-49.6	-64.9	3.6	1.51e+00	0	40	104	0	60	63208
2026-01-22 14:13:51.15	20.28	1.95	-49.6	-64.9	3.6	1.51e+00	0	40	104	0	60	63536
2026-01-22 14:13:52.15	20.30	2.02	-49.6	-64.9	3.6	1.51e+00	0	40	104	0	60	63484
2026-01-22 14:13:53.16	20.32	2.08	-49.6	-64.7	3.6	1.51e+00	0	40	104	0	60	61914
2026-01-22 14:13:54.17	20.35	2.14	-49.6	-64.6	3.6	1.51e+00	0	40	104	0	60	61273
2026-01-22 14:13:55.18	20.37	2.21	-49.6	-64.0	3.6	1.51e+00	0	40	104	0	60	57580
2026-01-22 14:13:56.19	20.40	2.27	-49.6	-63.3	3.6	1.51e+00	0	40	104	0	60	53086
2026-01-22 14:13:57.20	20.42	2.34	-49.5	-62.7	3.7	1.51e+00	0	40	104	0	60	49151
2026-01-22 14:13:58.21	20.45	2.40	-49.5	-62.8	3.6	1.51e+00	0	40	104	0	60	50089
2026-01-22 14:13:59.22	20.47	2.47	-49.5	-62.6	3.6	1.51e+00	0	40	104	0	60	49015
2026-01-22 14:14:00.23	20.50	2.53	-49.5	-62.9	3.6	1.51e+00	0	40	104	0	60	50245
2026-01-22 14:14:01.24	20.52	2.59	-49.5	-63.0	3.6	1.51e+00	0	40	104	0	60	51183
2026-01-22 14:14:02.25	20.55	2.66	-49.4	-61.3	3.7	1.50e+00	0	40	104	0	60	41923
2026-01-22 14:14:03.26	20.57	2.72	-49.2	-58.4	4.9	9.16e-01	20	40	0	0	60	30197
2026-01-22 14:14:04.26	20.60	2.79	-48.9	-56.2	6.5	3.13e-01	0	40	0	2097152	60	23467
2026-01-22 14:14:05.28	20.62	2.85	-48.5	-54.3	9.0	4.63e-02	92	40	0	4194304	60	18750
2026-01-22 14:14:06.28	20.65	2.92	-47.9	-52.6	10.9	6.52e-03	0	40	0	5242880	60	15389
2026-01-22 14:14:07.29	20.67	2.98	-47.4	-51.4	12.3	8.53e-04	0	40	0	7340032	60	13444
2026-01-22 14:14:08.31	20.70	3.05	-46.9	-50.5	13.2	6.86e-05	0	40	0	9437184	60	12161
2026-01-22 14:14:09.31	20.72	3.12	-46.7	-50.1	13.6	7.60e-06	0	40	0	11534336	60	11623
2026-01-22 14:14:10.32	20.75	3.18	-46.7	-50.0	13.7	1.50e-06	18	41	0	13631488	60	11440
2026-01-22 14:14:11.33	20.77	3.25	-46.4	-49.6	14.0	3.80e-06	0	40	0	14680064	60	10908
2026-01-22 14:14:12.35	20.80	3.32	-47.0	-50.7	12.6	1.83e-05	92	40	0	16777216	60	12445
2026-01-22 14:14:13.36	20.83	3.38	-47.1	-50.8	12.8	4.88e-05	0	40	0	18874368	60	12530
2026-01-22 14:14:14.37	20.85	3.45	-47.8	-52.4	11.0	4.82e-04	49	41	0	20971520	60	15056
2026-01-22 14:14:15.37	20.88	3.51	-48.4	-54.3	8.7	1.48e-02	0	41	0	23068672	60	18661
2026-01-22 14:14:16.39	20.90	3.58	-48.9	-56.0	6.9	8.39e-02	0	41	0	25165824	60	22927
2026-01-22 14:14:17.39	20.93	3.65	-47.5	-51.4	12.1	2.29e-01	0	41	0	26214400	60	13493
2026-01-22 14:14:18.40	20.96	3.72	-45.8	-48.4	15.2	7.00e-07	0	41	0	28311552	60	9455
2026-01-22 14:14:19.41	20.98	3.78	-47.0	-50.5	10.5	4.50e-06	69	41	0	30408704	60	12136
2026-01-22 14:14:20.42	21.01	3.85	-49.5	-64.1	3.5	1.51e+00	0	41	104	30408704	60	58278
2026-01-22 14:14:21.43	21.04	3.92	-46.6	-50.0	12.4	5.30e-06	6	41	104	30408704	60	11366
2026-01-22 14:14:22.44	21.06	3.99	-49.6	-62.0	3.9	1.51e+00	0	41	104	30408704	60	45744
2026-01-22 14:14:23.45	21.09	4.06	-47.3	-51.2	12.5	5.97e-01	0	40	104	30408704	60	13181
2026-01-22 14:14:24.46	21.12	4.12	-47.1	-50.6	13.4	2.28e-05	0	41	0	31457280	60	12297
2026-01-22 14:14:25.47	21.15	4.19	-46.7	-49.8	14.0	1.50e-06	0	41	0	33554432	60	11231
2026-01-22 14:14:26.48	21.17	4.26	-46.2	-49.0	15.0	7.00e-07	92	41	0	35651584	60	10185
2026-01-22 14:14:27.49	21.20	4.33	-46.3	-49.2	14.7	7.00e-07	0	41	0	36700160	60	10407
2026-01-22 14:14:28.50	21.23	4.40	-45.9	-48.6	15.5	0.00e+00	73	40	0	38797312	60	9686
2026-01-22 14:14:29.51	21.26	4.47	-45.7	-48.1	16.1	0.00e+00	0	40	0	40894464	60	9230
2026-01-22 14:14:30.52	21.28	4.54	-45.5	-47.8	16.5	0.00e+00	0	41	0	42991616	60	8918
2026-01-22 14:14:31.53	21.31	4.61	-45.6	-48.0	16.1	0.00e+00	0	40	0	45088768	60	9037
2026-01-22 14:14:32.54	21.34	4.68	-45.7	-48.2	16.1	0.00e+00	0	41	0	46137344	60	9256
2026-01-22 14:14:33.55	21.37	4.75	-45.6	-48.0	16.0	0.00e+00	86	40	0	48234496	60	9075
2026-01-22 14:14:34.56	21.39	4.82	-45.5	-47.9	16.2	0.00e+00	0	41	0	50331648	60	8940
2026-01-22 14:14:35.56	21.42	4.89	-45.4	-47.6	16.6	0.00e+00	66	41	0	52428800	60	8695
2026-01-22 14:14:36.57	21.45	4.96	-45.0	-47.1	16.8	0.00e+00	0	41	0	54525952	60	8174
2026-01-22 14:14:37.58	21.48	5.03	-44.2	-46.0	17.9	0.00e+00	0	41	0	55574528	60	7253
2026-01-22 14:14:38.59	21.51	5.10	-44.6	-46.6	17.6	0.00e+00	0	41	0	57671680	60	7721
2026-01-22 14:14:39.60	21.54	5.17	-43.9	-45.6	18.5	0.00e+00	0	41	0	59768832	60	6884
2026-01-22 14:14:40.61	21.57	5.24	-44.1	-45.8	18.2	0.00e+00	17	41	0	61865984	60	7077
2026-01-22 14:14:41.62	21.59	5.31	-44.1	-45.9	18.2	0.00e+00	0	41	0	63963136	60	7139
2026-01-22 14:14:42.63	21.62	5.38	-43.9	-45.6	18.5	0.00e+00	90	41	0	66060288	60	6901
2026-01-22 14:14:43.64	21.65	5.45	-43.8	-45.5	18.6	0.00e+00	0	41	0	67108864	60	6830
2026-01-22 14:14:44.65	21.68	5.53	-43.9	-45.7	18.7	0.00e+00	0	41	0	69206016	60	6949
2026-01-22 14:14:45.66	21.71	5.60	-43.6	-45.3	18.9	0.00e+00	14	41	0	71303168	60	6616
2026-01-22 14:14:46.67	21.74	5.67	-43.9	-45.6	18.5	0.00e+00	0	41	0	73400320	60	6899
2026-01-22 14:14:47.68	21.77	5.74	-43.7	-45.3	18.7	0.00e+00	49	41	0	75497472	60	6692
2026-01-22 14:14:48.69	21.80	5.81	-43.8	-45.4	18.7	0.00e+00	0	41	0	76546048	60	6747
2026-01-22 14:14:49.70	21.83	5.89	-43.9	-45.6	18.5	0.00e+00	90	41	0	78643200	60	6869
2026-01-22 14:14:50.71	21.86	5.96	-43.4	-45.0	19.1	0.00e+00	0	41	0	80740352	60	6402
2026-01-22 14:14:51.72	21.89	6.03	-43.4	-44.9	19.3	0.00e+00	86	41	0	82837504	60	6379
2026-01-22 14:14:52.73	21.92	6.11	-43.6	-45.2	19.0	0.00e+00	0	41	0	84934656	60	6600
2026-01-22 14:14:53.74	21.95	6.18	-43.9	-45.6	18.6	0.00e+00	0	41	0	85983232	60	6853
2026-01-22 14:14:54.76	21.98	6.26	-43.9	-45.6	18.5	0.00e+00	27	41	0	88080384	60	6902
2026-01-22 14:14:55.77	22.01	6.33	-43.1	-44.6	19.5	0.00e+00	0	41	0	90177536	60	6134
2026-01-22 14:14:56.77	22.04	6.40	-43.3	-44.8	19.3	0.00e+00	31	41	0	92274688	60	6313
2026-01-22 14:14:57.79	22.08	6.48	-43.0	-44.4	19.8	0.00e+00	0	41	0	94371840	60	6007
2026-01-22 14:14:58.79	22.11	6.55	-42.6	-44.0	20.0	0.00e+00	18	41	0	95420416	58	6452
2026-01-22 14:14:59.80	22.14	6.63	-42.6	-44.0	20.0	0.00e+00	0	41	0	97517568	58	6404
2026-01-22 14:15:00.81	22.17	6.70	-42.9	-44.3	19.6	0.00e+00	0	41	0	99614720	58	6691
2026-01-22 14:15:01.82	22.20	6.78	-43.1	-44.6	19.3	0.00e+00	0	41	0	101711872	58	6901
2026-01-22 14:15:02.83	22.23	6.85	-42.7	-44.1	20.0	0.00e+00	0	41	0	103809024	58	6470
2026-01-22 14:15:03.84	22.26	6.93	-43.0	-44.4	19.5	0.00e+00	92	41	0	104857600	58	6764
2026-01-22 14:15:04.85	22.30	7.00	-42.8	-44.2	19.9	0.00e+00	0	41	0	106954752	58	6543
2026-01-22 14:15:05.86	22.33	7.08	-42.6	-43.9	20.0	0.00e+00	90	41	0	109051904	58	6385
2026-01-22 14:15:06.87	22.36	7.16	-43.0	-44.4	19.8	0.00e+00	0	41	0	111149056	58	6722
2026-01-22 14:15:07.88	22.39	7.23	-42.1	-43.3	20.7	0.00e+00	0	41	0	113246208	58	5940
2026-01-22 14:15:08.89	22.42	7.31	-42.3	-43.6	20.4	0.00e+00	0	41	0	114294784	58	6139
2026-01-22 14:15:09.90	22.46	7.39	-42.3	-43.6	20.4	0.00e+00	0	41	0	116391936	58	6128
2026-01-22 14:15:10.91	22.49	7.47	-42.1	-43.4	20.6	0.00e+00	75	41	0	118489088	58	5975
2026-01-22 14:15:11.92	22.52	7.54	-41.9	-43.1	20.9	0.00e+00	0	41	0	120586240	58	5793
2026-01-22 14:15:12.93	22.56	7.62	-41.8	-43.0	21.0	0.00e+00	91	41	0	122683392	56	6410
2026-01-22 14:15:13.94	22.59	7.70	-42.0	-43.2	20.9	0.00e+00	0	41	0	123731968	56	6587
2026-01-22 14:15:14.95	22.62	7.78	-41.9	-43.2	20.9	0.00e+00	0	41	0	125829120	56	6542
2026-01-22 14:15:15.96	22.66	7.86	-41.8	-43.0	21.1	0.00e+00	0	41	0	127926272	56	6461
2026-01-22 14:15:16.97	22.69	7.93	-41.9	-43.1	21.0	0.00e+00	0	41	0	130023424	56	6490
2026-01-22 14:15:17.98	22.72	8.01	-41.8	-43.0	21.1	0.00e+00	59	41	0	132120576	56	6444
2026-01-22 14:15:18.99	22.76	8.09	-41.8	-43.0	21.1	0.00e+00	9	41	0	134217728	56	6431
2026-01-22 14:15:20.00	22.79	8.17	-41.7	-42.9	21.2	0.00e+00	42	41	0	135266304	56	6347
2026-01-22 14:15:21.01	22.83	8.25	-41.6	-42.7	21.3	0.00e+00	0	41	0	137363456	56	6228
2026-01-22 14:15:22.02	22.86	8.33	-41.6	-42.8	21.3	0.00e+00	0	41	0	139460608	56	6275
2026-01-22 14:15:23.03	22.90	8.41	-41.6	-42.8	21.3	0.00e+00	0	41	0	141557760	56	6292
2026-01-22 14:15:24.04	22.93	8.49	-41.5	-42.6	21.4	0.00e+00	0	41	0	143654912	56	6153
2026-01-22 14:15:25.05	22.97	8.57	-41.5	-42.7	21.3	0.00e+00	81	41	0	144703488	56	6194
2026-01-22 14:15:26.06	23.00	8.65	-41.4	-42.5	21.5	0.00e+00	0	41	0	146800640	56	6097
2026-01-22 14:15:27.07	23.04	8.73	-41.7	-42.8	21.2	0.00e+00	7	41	0	148897792	56	6304
2026-01-22 14:15:28.08	23.07	8.82	-41.7	-42.9	21.3	0.00e+00	0	41	0	150994944	56	6346
2026-01-22 14:15:29.09	23.11	8.90	-41.7	-42.9	21.2	0.00e+00	49	41	0	153092096	56	6325
2026-01-22 14:15:30.10	23.14	8.98	-41.6	-42.8	21.3	0.00e+00	0	41	0	154140672	56	6288
2026-01-22 14:15:31.11	23.18	9.06	-41.5	-42.7	21.3	0.00e+00	0	41	0	156237824	56	6175
2026-01-22 14:15:32.12	23.22	9.14	-41.5	-42.6	21.4	0.00e+00	25	41	0	158334976	56	6151
2026-01-22 14:15:33.12	23.25	9.23	-41.4	-42.6	21.4	0.00e+00	0	41	0	160432128	56	6117
2026-01-22 14:15:34.13	23.29	9.31	-41.4	-42.6	21.5	0.00e+00	54	41	0	162529280	56	6112
2026-01-22 14:15:35.14	23.33	9.39	-41.5	-42.7	21.1	0.00e+00	0	41	0	163577856	56	6215
2026-01-22 14:15:36.15	23.36	9.48	-41.4	-42.5	21.5	0.00e+00	89	41	0	165675008	56	6083
2026-01-22 14:15:37.16	23.40	9.56	-41.5	-42.6	21.2	0.00e+00	0	41	0	167772160	56	6139
2026-01-22 14:15:38.17	23.44	9.64	-41.4	-42.5	21.3	0.00e+00	0	41	0	169869312	56	6080
2026-01-22 14:15:39.18	23.47	9.73	-41.3	-42.4	21.7	0.00e+00	23	41	0	171966464	56	5977
2026-01-22 14:15:40.19	23.51	9.81	-41.3	-42.4	21.4	0.00e+00	0	41	0	173015040	56	6015
2026-01-22 14:15:41.20	23.55	9.90	-41.4	-42.6	21.6	0.00e+00	69	41	0	175112192	56	6111
2026-01-22 14:15:42.21	23.59	9.98	-41.2	-42.2	21.6	0.00e+00	10	41	0	177209344	56	5891
2026-01-22 14:15:43.22	23.63	10.07	-41.3	-42.4	21.7	0.00e+00	92	41	0	179306496	56	6004
2026-01-22 14:15:44.23	23.66	10.15	-41.1	-42.2	21.7	0.00e+00	0	41	0	181403648	56	5882
2026-01-22 14:15:45.24	23.70	10.24	-41.2	-42.3	21.7	0.00e+00	0	41	0	182452224	56	5963
2026-01-22 14:15:46.25	23.74	10.33	-41.0	-42.1	21.8	0.00e+00	0	41	0	184549376	56	5797
2026-01-22 14:15:47.26	23.78	10.41	-41.1	-42.1	21.9	0.00e+00	0	41	0	186646528	56	5818
2026-01-22 14:15:48.27	23.82	10.50	-41.0	-42.1	22.0	0.00e+00	66	41	0	188743680	56	5771
2026-01-22 14:15:49.28	23.86	10.59	-40.9	-41.9	22.1	0.00e+00	0	41	0	190840832	56	5692
2026-01-22 14:15:50.29	23.90	10.68	-41.2	-42.3	21.8	0.00e+00	92	41	0	191889408	56	5917
2026-01-22 14:15:51.30	23.94	10.76	-41.3	-42.4	21.8	0.00e+00	0	41	0	193986560	56	5999
2026-01-22 14:15:52.31	23.98	10.85	-41.0	-42.1	21.9	0.00e+00	0	41	0	196083712	56	5771
2026-01-22 14:15:53.31	24.02	10.94	-40.8	-41.9	22.2	0.00e+00	0	41	0	198180864	56	5643
2026-01-22 14:15:54.32	24.06	11.03	-40.8	-41.8	22.2	0.00e+00	0	41	0	200278016	56	5592
2026-01-22 14:15:55.33	24.10	11.12	-40.8	-41.8	22.3	0.00e+00	58	41	0	202375168	54	6296
2026-01-22 14:15:56.34	24.14	11.21	-40.9	-41.9	22.1	0.00e+00	0	41	0	203423744	54	6373
2026-01-22 14:15:57.35	24.18	11.30	-40.6	-41.6	22.4	0.00e+00	92	41	0	205520896	54	6150
2026-01-22 14:15:58.36	24.23	11.39	-41.0	-42.1	22.0	0.00e+00	0	41	0	207618048	54	6500
2026-01-22 14:15:59.37	24.27	11.48	-40.8	-41.9	22.0	0.00e+00	0	41	0	209715200	54	6320
2026-01-22 14:16:00.38	24.31	11.57	-40.8	-41.8	22.1	0.00e+00	0	41	0	211812352	54	6297
2026-01-22 14:16:01.39	24.35	11.66	-40.9	-41.9	22.1	0.00e+00	0	41	0	212860928	54	6388
2026-01-22 14:16:02.40	24.39	11.75	-40.8	-41.9	22.1	0.00e+00	19	41	0	214958080	54	6354
2026-01-22 14:16:03.41	24.44	11.84	-40.7	-41.8	22.3	0.00e+00	0	41	0	217055232	54	6251
2026-01-22 14:16:04.42	24.48	11.93	-41.0	-42.1	21.9	0.00e+00	68	41	0	219152384	54	6500
2026-01-22 14:16:05.43	24.52	12.03	-40.7	-41.8	22.3	0.00e+00	0	41	0	221249536	54	6272
2026-01-22 14:16:06.43	24.56	12.12	-40.6	-41.6	22.4	0.00e+00	22	41	0	222298112	54	6138
2026-01-22 14:16:07.44	24.61	12.21	-40.7	-41.7	22.2	0.00e+00	0	41	0	224395264	54	6244
2026-01-22 14:16:08.45	24.65	12.30	-40.7	-41.8	22.3	0.00e+00	0	41	0	226492416	54	6267
2026-01-22 14:16:09.46	24.70	12.40	-40.8	-41.8	22.3	0.00e+00	0	41	0	228589568	54	6282
2026-01-22 14:16:10.47	24.74	12.49	-40.6	-41.7	22.4	0.00e+00	0	41	0	230686720	54	6179
2026-01-22 14:16:11.48	24.79	12.59	-40.7	-41.8	22.2	0.00e+00	90	41	0	231735296	54	6272
2026-01-22 14:16:12.49	24.83	12.68	-40.6	-41.6	22.4	0.00e+00	0	41	0	233832448	54	6165
2026-01-22 14:16:13.50	24.88	12.78	-40.7	-41.7	22.4	0.00e+00	67	41	0	235929600	54	6223
2026-01-22 14:16:14.51	24.92	12.87	-40.6	-41.7	22.4	0.00e+00	0	41	0	238026752	54	6182
2026-01-22 14:16:15.52	24.97	12.97	-40.6	-41.6	22.3	0.00e+00	0	41	0	240123904	54	6157
2026-01-22 14:16:16.53	25.01	13.06	-40.6	-41.6	22.4	0.00e+00	0	41	0	241172480	54	6119
2026-01-22 14:16:17.54	25.06	13.16	-40.5	-41.5	22.5	0.00e+00	0	41	0	243269632	54	6060
2026-01-22 14:16:18.55	25.11	13.26	-40.5	-41.5	22.5	0.00e+00	92	41	0	245366784	54	6071
2026-01-22 14:16:19.56	25.15	13.35	-40.4	-41.4	22.6	0.00e+00	0	41	0	247463936	54	5970
2026-01-22 14:16:20.57	25.20	13.45	-40.5	-41.6	22.4	0.00e+00	92	41	0	249561088	54	6112
2026-01-22 14:16:21.58	25.25	13.55	-40.7	-41.8	22.3	0.00e+00	0	41	0	250609664	54	6266
2026-01-22 14:16:22.59	25.29	13.65	-40.5	-41.5	22.5	0.00e+00	0	41	0	252706816	54	6061
2026-01-22 14:16:23.60	25.34	13.75	-40.4	-41.4	22.6	0.00e+00	0	41	0	254803968	54	6020
2026-01-22 14:16:24.61	25.39	13.85	-40.4	-41.4	22.6	0.00e+00	0	41	0	256901120	54	6028
2026-01-22 14:16:25.62	25.44	13.95	-40.4	-41.4	22.6	0.00e+00	22	41	0	258998272	54	5999
2026-01-22 14:16:26.63	25.49	14.05	-40.4	-41.4	22.7	0.00e+00	0	41	0	260046848	54	6026
2026-01-22 14:16:27.64	25.54	14.15	-40.6	-41.7	22.4	0.00e+00	65	41	0	262144000	54	6183
2026-01-22 14:16:28.65	25.59	14.25	-40.5	-41.5	22.5	0.00e+00	0	41	0	264241152	54	6074
2026-01-22 14:16:29.66	25.63	14.35	-40.7	-41.7	22.4	0.00e+00	0	41	0	266338304	54	6211
2026-01-22 14:16:30.67	25.68	14.45	-40.5	-41.5	22.5	0.00e+00	0	41	0	268435456	54	6081
2026-01-22 14:16:31.68	25.74	14.55	-40.7	-41.7	22.4	0.00e+00	0	41	0	270532608	54	6194
2026-01-22 14:16:32.69	25.79	14.66	-40.6	-41.6	22.4	0.00e+00	41	41	0	271581184	54	6138
2026-01-22 14:16:33.70	25.84	14.76	-40.7	-41.7	22.4	0.00e+00	0	41	0	273678336	54	6241
2026-01-22 14:16:34.71	25.89	14.86	-40.7	-41.7	22.4	0.00e+00	52	41	0	275775488	54	6201
2026-01-22 14:16:35.72	25.94	14.97	-40.8	-41.8	22.4	0.00e+00	0	41	0	277872640	54	6313
2026-01-22 14:16:36.73	25.99	15.07	-40.9	-41.9	22.3	0.00e+00	0	41	0	279969792	54	6354
2026-01-22 14:16:37.74	26.04	15.17	-40.8	-41.8	22.3	0.00e+00	0	41	0	281018368	54	6316
2026-01-22 14:16:38.75	26.10	15.28	-40.8	-41.8	22.4	0.00e+00	0	41	0	283115520	54	6303
2026-01-22 14:16:39.76	26.15	15.38	-40.9	-41.9	22.3	0.00e+00	23	41	0	285212672	54	6344
2026-01-22 14:16:40.77	26.20	15.49	-40.7	-41.7	22.4	0.00e+00	0	41	0	287309824	54	6216
2026-01-22 14:16:41.78	26.26	15.60	-40.8	-41.9	22.2	0.00e+00	92	41	0	289406976	54	6331
2026-01-22 14:16:42.79	26.31	15.70	-40.8	-41.9	22.2	0.00e+00	0	41	0	290455552	54	6319
2026-01-22 14:16:43.80	26.36	15.81	-41.0	-42.1	22.1	0.00e+00	0	41	0	292552704	54	6490
2026-01-22 14:16:44.81	26.42	15.92	-40.9	-41.9	22.2	0.00e+00	0	41	0	294649856	54	6381
2026-01-22 14:16:45.82	26.47	16.03	-41.2	-42.3	22.1	0.00e+00	0	41	0	296747008	54	6625
2026-01-22 14:16:46.83	26.53	16.14	-40.9	-41.9	22.3	0.00e+00	26	41	0	298844160	54	6353
2026-01-22 14:16:47.84	26.58	16.24	-40.7	-41.7	22.4	0.00e+00	0	41	0	299892736	54	6243
2026-01-22 14:16:48.84	26.64	16.35	-40.9	-41.9	22.3	0.00e+00	23	41	0	301989888	54	6386
2026-01-22 14:16:49.85	26.70	16.46	-41.0	-42.0	22.3	0.00e+00	0	41	0	304087040	54	6427
2026-01-22 14:16:50.86	26.75	16.57	-40.6	-41.6	22.5	0.00e+00	72	41	0	306184192	54	6137
2026-01-22 14:16:51.87	26.81	16.68	-40.8	-41.9	22.3	0.00e+00	0	41	0	308281344	54	6339
2026-01-22 14:16:52.88	26.87	16.80	-41.0	-42.0	22.3	0.00e+00	0	41	0	309329920	54	6442
2026-01-22 14:16:53.89	26.93	16.91	-40.7	-41.7	22.6	0.00e+00	9	41	0	311427072	54	6235
2026-01-22 14:16:54.90	26.99	17.02	-41.0	-42.0	22.2	0.00e+00	0	41	0	313524224	54	6449
2026-01-22 14:16:55.91	27.04	17.13	-40.8	-41.8	22.4	0.00e+00	49	41	0	315621376	54	6304
2026-01-22 14:16:56.92	27.10	17.25	-41.1	-42.1	22.2	0.00e+00	0	41	0	317718528	54	6513
2026-01-22 14:16:57.93	27.16	17.36	-41.1	-42.2	22.0	0.00e+00	92	41	0	318767104	54	6547
2026-01-22 14:16:58.94	27.22	17.48	-41.1	-42.2	22.2	0.00e+00	0	41	0	320864256	54	6555
2026-01-22 14:16:59.95	27.28	17.59	-41.0	-42.0	22.3	0.00e+00	0	41	0	322961408	54	6436
2026-01-22 14:17:00.96	27.34	17.71	-41.0	-42.1	22.2	0.00e+00	0	41	0	325058560	54	6489
2026-01-22 14:17:01.97	27.41	17.82	-40.8	-41.8	22.5	0.00e+00	0	41	0	327155712	54	6276
2026-01-22 14:17:02.98	27.47	17.94	-40.9	-42.0	22.3	0.00e+00	3	41	0	328204288	54	6405
2026-01-22 14:17:03.99	27.53	18.06	-40.8	-41.9	22.3	0.00e+00	0	41	0	330301440	54	6330
2026-01-22 14:17:05.00	27.59	18.17	-40.7	-41.7	22.5	0.00e+00	87	41	0	332398592	54	6201
2026-01-22 14:17:06.01	27.66	18.29	-40.8	-41.8	22.4	0.00e+00	0	41	0	334495744	54	6272
2026-01-22 14:17:07.02	27.72	18.41	-40.9	-42.0	22.4	0.00e+00	0	41	0	336592896	54	6395
2026-01-22 14:17:08.03	27.78	18.53	-40.7	-41.7	22.5	0.00e+00	0	41	0	338690048	54	6243
2026-01-22 14:17:09.04	27.85	18.65	-40.7	-41.7	22.6	0.00e+00	0	41	0	339738624	54	6218
2026-01-22 14:17:10.05	27.91	18.77	-40.7	-41.7	22.6	0.00e+00	81	41	0	341835776	54	6180
2026-01-22 14:17:11.06	27.98	18.89	-40.5	-41.5	22.6	0.00e+00	0	41	0	343932928	54	6079
2026-01-22 14:17:12.07	28.04	19.01	-40.6	-41.6	22.6	0.00e+00	50	41	0	346030080	54	6138
2026-01-22 14:17:13.08	28.11	19.13	-40.6	-41.6	22.7	0.00e+00	23	41	0	348127232	54	6152
2026-01-22 14:17:14.09	28.18	19.26	-40.6	-41.5	22.7	0.00e+00	0	41	0	349175808	54	6096
2026-01-22 14:17:15.10	28.25	19.38	-40.5	-41.5	22.8	0.00e+00	0	41	0	351272960	54	6086
2026-01-22 14:17:16.10	28.31	19.50	-40.6	-41.5	22.7	0.00e+00	0	41	0	353370112	54	6100
2026-01-22 14:17:17.11	28.38	19.63	-40.7	-41.7	22.5	0.00e+00	22	41	0	355467264	54	6189
2026-01-22 14:17:18.12	28.45	19.75	-40.5	-41.5	22.7	0.00e+00	0	41	0	356515840	54	6083
2026-01-22 14:17:19.13	28.52	19.88	-40.4	-41.4	22.9	0.00e+00	65	41	0	358612992	54	5997
2026-01-22 14:17:20.14	28.59	20.00	-39.9	-40.9	23.2	0.00e+00	20	41	0	360710144	54	5633
2026-01-22 14:17:21.15	28.66	20.13	-39.8	-40.8	23.4	0.00e+00	91	41	0	362807296	54	5572
2026-01-22 14:17:22.16	28.73	20.26	-39.6	-40.5	23.4	0.00e+00	0	41	0	364904448	52	6090
2026-01-22 14:17:23.17	28.80	20.38	-39.5	-40.4	23.5	0.00e+00	36	41	0	367001600	52	6011
2026-01-22 14:17:24.18	28.88	20.51	-39.4	-40.3	23.7	0.00e+00	0	41	0	368050176	52	5915
2026-01-22 14:17:25.19	28.95	20.64	-39.4	-40.3	23.7	0.00e+00	0	41	0	370147328	52	5927
2026-01-22 14:17:26.19	29.02	20.77	-39.4	-40.2	23.7	0.00e+00	70	41	0	372244480	52	5879
2026-01-22 14:17:27.20	29.10	20.90	-39.1	-39.9	24.0	0.00e+00	0	41	0	374341632	52	5670
2026-01-22 14:17:28.21	29.17	21.03	-38.8	-39.6	24.1	0.00e+00	92	41	0	376438784	50	6139
2026-01-22 14:17:29.22	29.25	21.16	-38.9	-39.7	24.1	0.00e+00	8	41	0	377487360	50	6202
2026-01-22 14:17:30.23	29.32	21.30	-39.0	-39.8	24.2	0.00e+00	0	41	0	379584512	50	6278
2026-01-22 14:17:31.24	29.40	21.43	-38.9	-39.8	24.0	0.00e+00	0	41	0	381681664	50	6260
2026-01-22 14:17:32.25	29.48	21.56	-38.7	-39.5	24.2	0.00e+00	0	41	0	383778816	50	6076
2026-01-22 14:17:33.26	29.55	21.70	-38.7	-39.6	24.2	0.00e+00	78	41	0	385875968	50	6121
2026-01-22 14:17:34.27	29.63	21.83	-38.9	-39.7	24.1	0.00e+00	28	41	0	386924544	50	6210
2026-01-22 14:17:35.28	29.71	21.97	-38.7	-39.5	24.3	0.00e+00	91	41	0	389021696	50	6062
2026-01-22 14:17:36.29	29.79	22.10	-38.7	-39.5	24.2	0.00e+00	0	41	0	391118848	50	6070
2026-01-22 14:17:37.30	29.87	22.24	-39.0	-39.8	24.0	0.00e+00	0	41	0	393216000	50	6289
2026-01-22 14:17:38.31	29.95	22.38	-38.7	-39.5	24.2	0.00e+00	0	41	0	395313152	50	6072
2026-01-22 14:17:39.32	30.03	22.52	-38.8	-39.6	24.2	0.00e+00	0	41	0	396361728	50	6135
2026-01-22 14:17:40.33	30.12	22.66	-38.6	-39.4	24.3	0.00e+00	26	41	0	398458880	50	6026
2026-01-22 14:17:41.34	30.20	22.80	-38.6	-39.4	24.2	0.00e+00	0	41	0	400556032	50	6016
2026-01-22 14:17:42.35	30.28	22.94	-38.7	-39.6	24.2	0.00e+00	80	41	0	402653184	50	6112
2026-01-22 14:17:43.36	30.37	23.08	-38.8	-39.6	24.2	0.00e+00	0	41	0	404750336	50	6167
2026-01-22 14:17:44.37	30.45	23.22	-38.9	-39.8	24.1	0.00e+00	0	41	0	405798912	50	6260
2026-01-22 14:17:45.39	30.54	23.36	-38.8	-39.7	24.2	0.00e+00	6	41	0	407896064	50	6179
2026-01-22 14:17:46.39	30.62	23.51	-39.0	-39.9	24.1	0.00e+00	0	41	0	409993216	50	6324
2026-01-22 14:17:47.40	30.71	23.65	-38.9	-39.8	24.0	0.00e+00	21	41	0	412090368	50	6281
2026-01-22 14:17:48.41	30.80	23.79	-38.8	-39.7	24.2	0.00e+00	0	41	0	414187520	50	6193
2026-01-22 14:17:49.42	30.89	23.94	-39.0	-39.9	24.0	0.00e+00	75	41	0	415236096	50	6332
2026-01-22 14:17:50.43	30.98	24.09	-39.0	-39.9	24.1	0.00e+00	0	41	0	417333248	50	6343
2026-01-22 14:17:51.44	31.07	24.23	-39.1	-40.0	23.9	0.00e+00	27	41	0	419430400	50	6408
2026-01-22 14:17:52.45	31.16	24.38	-39.1	-40.0	24.0	0.00e+00	0	41	0	421527552	50	6395
2026-01-22 14:17:53.46	31.25	24.53	-38.9	-39.8	24.0	0.00e+00	0	41	0	423624704	50	6268
2026-01-22 14:17:54.47	31.35	24.68	-39.1	-39.9	24.0	0.00e+00	12	41	0	424673280	50	6387
2026-01-22 14:17:55.48	31.44	24.83	-38.9	-39.7	24.1	0.00e+00	0	41	0	426770432	50	6242
2026-01-22 14:17:56.49	31.54	24.98	-39.1	-39.9	24.1	0.00e+00	92	41	0	428867584	50	6388
2026-01-22 14:17:57.50	31.63	25.13	-38.8	-39.7	24.2	0.00e+00	0	41	0	430964736	50	6189
2026-01-22 14:17:58.51	31.73	25.28	-38.9	-39.7	24.2	0.00e+00	55	41	0	433061888	50	6207
2026-01-22 14:17:59.52	31.82	25.44	-38.8	-39.6	24.2	0.00e+00	0	41	0	435159040	50	6133
2026-01-22 14:18:00.53	31.92	25.59	-38.7	-39.5	24.4	0.00e+00	0	41	0	436207616	50	6048
2026-01-22 14:18:01.53	32.02	25.75	-38.7	-39.5	24.3	0.00e+00	17	41	0	438304768	50	6080
2026-01-22 14:18:02.54	32.12	25.90	-38.6	-39.4	24.4	0.00e+00	0	41	0	440401920	50	6003
2026-01-22 14:18:03.55	32.22	26.06	-38.5	-39.3	24.5	0.00e+00	22	41	0	442499072	50	5936
2026-01-22 14:18:04.56	32.32	26.22	-38.5	-39.3	24.4	0.00e+00	0	41	0	444596224	50	5952
2026-01-22 14:18:05.57	32.43	26.37	-38.3	-39.1	24.6	0.00e+00	44	41	0	445644800	50	5765
2026-01-22 14:18:06.58	32.53	26.53	-38.6	-39.4	24.4	0.00e+00	0	41	0	447741952	50	6002
2026-01-22 14:18:07.59	32.64	26.69	-38.4	-39.2	24.5	0.00e+00	0	41	0	449839104	50	5834
2026-01-22 14:18:08.60	32.74	26.85	-38.4	-39.2	24.4	0.00e+00	0	41	0	451936256	50	5884
2026-01-22 14:18:09.61	32.85	27.02	-38.4	-39.2	24.2	0.00e+00	0	41	0	454033408	50	5851
2026-01-22 14:18:10.62	32.96	27.18	-38.7	-39.5	24.3	0.00e+00	21	41	0	455081984	50	6061
2026-01-22 14:18:11.63	33.07	27.34	-38.5	-39.3	24.4	0.00e+00	0	41	0	457179136	50	5937
2026-01-22 14:18:12.64	33.18	27.51	-38.6	-39.4	24.3	0.00e+00	92	41	0	459276288	50	5987
2026-01-22 14:18:13.65	33.29	27.67	-38.8	-39.7	24.1	0.00e+00	0	41	0	461373440	50	6184
2026-01-22 14:18:14.66	33.40	27.84	-38.6	-39.4	24.5	0.00e+00	0	41	0	463470592	50	6027
2026-01-22 14:18:15.67	33.52	28.01	-38.7	-39.5	24.3	0.00e+00	0	41	0	464519168	50	6081
2026-01-22 14:18:16.68	33.63	28.17	-38.8	-39.6	24.2	0.00e+00	0	41	0	466616320	50	6142
2026-01-22 14:18:17.69	33.75	28.34	-38.9	-39.8	24.1	0.00e+00	27	41	0	468713472	50	6255
2026-01-22 14:18:18.70	33.86	28.51	-39.0	-39.8	24.2	0.00e+00	0	41	0	470810624	50	6279
2026-01-22 14:18:19.71	33.98	28.68	-39.3	-40.1	23.8	0.00e+00	39	41	0	472907776	50	6506
2026-01-22 14:18:20.72	34.10	28.85	-39.3	-40.2	23.9	0.00e+00	0	41	0	473956352	50	6563
2026-01-22 14:18:21.73	34.22	29.03	-39.5	-40.4	23.7	0.00e+00	0	41	0	476053504	50	6697
2026-01-22 14:18:22.73	34.34	29.20	-39.7	-40.6	23.5	0.00e+00	0	41	0	478150656	52	6152
2026-01-22 14:18:23.74	34.47	29.37	-39.8	-40.7	23.6	0.00e+00	0	41	0	480247808	52	6176
2026-01-22 14:18:24.75	34.59	29.55	-40.3	-41.2	23.2	0.00e+00	26	41	0	482344960	52	6571
2026-01-22 14:18:25.76	34.72	29.73	-40.6	-41.6	22.9	0.00e+00	0	41	0	483393536	52	6854
2026-01-22 14:18:26.77	34.84	29.90	-40.5	-41.4	23.0	0.00e+00	92	41	0	485490688	52	6732
2026-01-22 14:18:27.78	34.97	30.08	-41.0	-41.9	22.5	0.00e+00	0	41	0	487587840	54	6387
2026-01-22 14:18:28.79	35.10	30.26	-41.3	-42.3	21.9	0.00e+00	0	41	0	489684992	54	6667
2026-01-22 14:18:29.80	35.23	30.44	-41.4	-42.5	21.9	0.00e+00	0	41	0	491782144	54	6795
2026-01-22 14:18:30.81	35.37	30.62	-41.9	-43.0	21.6	0.00e+00	0	41	0	492830720	56	6453
2026-01-22 14:18:31.82	35.50	30.80	-42.0	-43.1	21.4	0.00e+00	0	41	0	494927872	56	6519
2026-01-22 14:18:32.83	35.64	30.99	-42.1	-43.3	21.5	0.00e+00	0	41	0	497025024	56	6624
2026-01-22 14:18:33.84	35.77	31.17	-42.5	-43.7	21.1	0.00e+00	30	41	0	499122176	56	6957
2026-01-22 14:18:34.85	35.91	31.36	-42.8	-44.0	20.8	0.00e+00	0	41	0	501219328	58	6456
2026-01-22 14:18:35.86	36.05	31.54	-43.1	-44.4	20.5	0.00e+00	68	41	0	503316480	58	6722
2026-01-22 14:18:36.87	36.20	31.73	-42.9	-44.2	20.6	0.00e+00	0	41	0	504365056	58	6565
2026-01-22 14:18:37.88	36.34	31.92	-43.0	-44.2	20.6	0.00e+00	0	41	0	506462208	58	6608
2026-01-22 14:18:38.89	36.48	32.11	-42.9	-44.2	20.8	0.00e+00	0	41	0	508559360	58	6540
2026-01-22 14:18:39.90	36.63	32.30	-43.3	-44.6	20.3	0.00e+00	0	41	0	510656512	58	6894
2026-01-22 14:18:40.91	36.78	32.49	-42.7	-43.9	20.8	0.00e+00	78	41	0	512753664	58	6380
2026-01-22 14:18:41.92	36.93	32.68	-42.8	-44.1	20.8	0.00e+00	0	41	0	513802240	58	6490
2026-01-22 14:18:42.93	37.08	32.87	-42.6	-43.8	21.1	0.00e+00	76	41	0	515899392	58	6281
2026-01-22 14:18:43.94	37.24	33.07	-42.4	-43.6	21.4	0.00e+00	0	41	0	517996544	58	6121
2026-01-22 14:18:44.95	37.39	33.26	-42.3	-43.5	21.4	0.00e+00	0	41	0	520093696	58	6085
2026-01-22 14:18:45.96	37.55	33.46	-42.3	-43.4	21.3	0.00e+00	0	41	0	522190848	58	6024
2026-01-22 14:18:46.96	37.71	33.66	-42.1	-43.2	21.6	0.00e+00	0	41	0	523239424	58	5884
2026-01-22 14:18:47.97	37.87	33.86	-41.8	-42.8	21.7	0.00e+00	61	41	0	525336576	58	5615
2026-01-22 14:18:48.98	38.03	34.05	-41.9	-43.0	21.3	0.00e+00	0	41	0	527433728	58	5739
2026-01-22 14:18:49.99	38.20	34.26	-42.4	-43.5	21.2	0.00e+00	92	41	0	529530880	58	6079
2026-01-22 14:18:51.00	38.36	34.46	-42.6	-43.8	21.0	0.00e+00	0	41	0	531628032	58	6269
2026-01-22 14:18:52.01	38.53	34.66	-42.5	-43.7	21.0	0.00e+00	0	41	0	532676608	58	6237
2026-01-22 14:18:53.02	38.70	34.86	-42.8	-44.0	20.8	0.00e+00	0	41	0	534773760	58	6437
2026-01-22 14:18:54.03	38.88	35.07	-42.7	-44.0	20.9	0.00e+00	0	41	0	536870912	58	6392
2026-01-22 14:18:55.04	39.05	35.27	-42.8	-44.0	20.9	0.00e+00	68	41	0	538968064	58	6430
2026-01-22 14:18:56.05	39.23	35.48	-42.5	-43.7	21.2	0.00e+00	0	41	0	541065216	58	6185
2026-01-22 14:18:57.06	39.41	35.69	-42.6	-43.8	20.9	0.00e+00	53	41	0	542113792	58	6293
2026-01-22 14:18:58.07	39.59	35.90	-42.2	-43.4	21.3	0.00e+00	0	41	0	544210944	58	5992
2026-01-22 14:18:59.08	39.77	36.11	-42.0	-43.1	21.4	0.00e+00	0	41	0	546308096	58	5805
2026-01-22 14:19:00.09	39.96	36.32	-42.0	-43.2	21.5	0.00e+00	0	41	0	548405248	58	5832
2026-01-22 14:19:01.10	40.15	36.53	-41.9	-43.0	21.7	0.00e+00	0	41	0	550502400	58	5719
2026-01-22 14:19:02.11	40.34	36.75	-41.8	-42.9	21.8	0.00e+00	0	41	0	551550976	56	6325
2026-01-22 14:19:03.12	40.54	36.96	-41.7	-42.7	22.0	0.00e+00	0	41	0	553648128	56	6230
2026-01-22 14:19:04.13	40.73	37.18	-41.5	-42.6	22.1	0.00e+00	92	41	0	555745280	56	6132
2026-01-22 14:19:05.14	40.93	37.39	-41.5	-42.6	22.2	0.00e+00	0	41	0	557842432	56	6123
2026-01-22 14:19:06.15	41.13	37.61	-41.8	-42.8	21.8	0.00e+00	28	41	0	559939584	56	6301
2026-01-22 14:19:07.16	41.34	37.83	-42.2	-43.3	21.9	0.00e+00	5	41	0	560988160	56	6647
2026-01-22 14:19:08.17	41.54	38.05	-41.7	-42.7	21.8	0.00e+00	0	41	0	563085312	56	6233
2026-01-22 14:19:09.18	41.75	38.27	-42.3	-43.5	21.2	0.00e+00	30	41	0	565182464	56	6803
2026-01-22 14:19:10.19	41.97	38.49	-41.9	-43.0	21.8	0.00e+00	4	41	0	567279616	56	6432
2026-01-22 14:19:11.20	42.18	38.71	-41.8	-42.9	21.8	0.00e+00	92	41	0	569376768	56	6368
2026-01-22 14:19:12.20	42.40	38.93	-41.6	-42.7	22.0	0.00e+00	0	41	0	571473920	56	6187
2026-01-22 14:19:13.22	42.62	39.16	-41.5	-42.5	22.1	0.00e+00	90	41	0	572522496	56	6060
2026-01-22 14:19:14.22	42.84	39.39	-41.2	-42.2	22.4	0.00e+00	0	41	0	574619648	56	5841
2026-01-22 14:19:15.23	43.07	39.61	-41.1	-42.1	22.4	0.00e+00	0	41	0	576716800	56	5800
2026-01-22 14:19:16.24	43.30	39.84	-40.8	-41.8	22.0	0.00e+00	0	42	0	578813952	54	6306
2026-01-22 14:19:17.25	43.53	40.07	-40.8	-41.7	22.7	0.00e+00	0	41	0	580911104	54	6229
2026-01-22 14:19:18.26	43.77	40.30	-41.1	-42.1	22.5	0.00e+00	30	41	0	581959680	54	6495
2026-01-22 14:19:19.27	44.01	40.53	-40.9	-41.9	22.6	0.00e+00	0	42	0	584056832	54	6325
2026-01-22 14:19:20.28	44.25	40.76	-41.3	-42.4	22.0	0.00e+00	92	41	0	586153984	54	6713
2026-01-22 14:19:21.29	44.50	40.99	-41.5	-42.6	22.0	0.00e+00	0	41	0	588251136	54	6852
2026-01-22 14:19:22.29	44.75	41.22	-41.2	-42.3	22.2	0.00e+00	0	41	0	590348288	54	6629
2026-01-22 14:19:23.31	45.01	41.46	-41.3	-42.4	22.5	0.00e+00	0	41	0	591396864	54	6698
2026-01-22 14:19:24.32	45.26	41.70	-41.1	-42.1	22.3	0.00e+00	0	41	0	593494016	54	6536
2026-01-22 14:19:25.33	45.53	41.93	-40.8	-41.8	22.7	0.00e+00	24	41	0	595591168	54	6286
2026-01-22 14:19:26.34	45.79	42.17	-40.8	-41.7	22.7	0.00e+00	0	41	0	597688320	54	6235
2026-01-22 14:19:27.35	46.06	42.41	-40.8	-41.7	22.8	0.00e+00	65	41	0	599785472	54	6207
2026-01-22 14:19:28.36	46.33	42.65	-41.0	-42.1	22.4	0.00e+00	0	41	0	600834048	54	6476
2026-01-22 14:19:29.37	46.61	42.89	-41.7	-42.8	21.9	0.00e+00	0	41	0	602931200	56	6298
2026-01-22 14:19:30.38	46.89	43.13	-42.6	-43.9	21.3	0.00e+00	0	41	0	605028352	56	7096
2026-01-22 14:19:31.39	47.18	43.37	-42.6	-43.8	21.0	0.00e+00	0	41	0	607125504	58	6272
2026-01-22 14:19:32.40	47.47	43.61	-42.4	-43.6	21.1	0.00e+00	23	41	0	609222656	58	6110
2026-01-22 14:19:33.41	47.76	43.85	-42.7	-43.9	21.0	0.00e+00	0	41	0	610271232	58	6372
2026-01-22 14:19:34.42	48.06	44.10	-41.8	-42.9	21.7	0.00e+00	67	41	0	612368384	58	5671
2026-01-22 14:19:35.43	48.36	44.34	-42.1	-43.2	21.9	0.00e+00	0	41	0	614465536	56	6585
2026-01-22 14:19:36.44	48.67	44.59	-42.4	-43.6	21.4	0.00e+00	0	41	0	616562688	56	6858
2026-01-22 14:19:37.45	48.98	44.83	-42.5	-43.6	21.0	0.00e+00	0	41	0	618659840	56	6923
2026-01-22 14:19:38.45	49.30	45.07	-42.7	-43.9	21.0	0.00e+00	0	41	0	619708416	56	7140
2026-01-22 14:19:39.47	49.62	45.32	-42.4	-43.5	21.1	0.00e+00	26	41	0	621805568	56	6828
2026-01-22 14:19:40.47	49.95	45.57	-42.0	-43.1	21.8	0.00e+00	0	41	0	623902720	56	6494
2026-01-22 14:19:41.48	50.28	45.82	-41.6	-42.6	22.0	0.00e+00	88	41	0	625999872	56	6171
2026-01-22 14:19:42.50	50.62	46.07	-41.7	-42.8	22.1	0.00e+00	0	41	0	628097024	56	6247
2026-01-22 14:19:43.51	50.96	46.31	-42.2	-43.4	21.2	0.00e+00	19	41	0	629145600	56	6726
2026-01-22 14:19:44.51	51.31	46.56	-42.8	-44.0	20.9	0.00e+00	0	41	0	631242752	56	7233
2026-01-22 14:19:45.52	51.66	46.81	-42.2	-43.4	21.0	0.00e+00	0	41	0	633339904	58	5997
2026-01-22 14:19:46.53	52.02	47.06	-42.6	-43.8	21.1	0.00e+00	30	41	0	635437056	58	6303
2026-01-22 14:19:47.54	52.38	47.31	-42.2	-43.3	21.5	0.00e+00	0	41	0	637534208	58	5957
2026-01-22 14:19:48.55	52.75	47.56	-41.9	-43.0	21.8	0.00e+00	24	41	0	639631360	58	5747
2026-01-22 14:19:49.56	53.13	47.81	-41.7	-42.8	22.0	0.00e+00	0	41	0	640679936	56	6275
2026-01-22 14:19:50.57	53.51	48.06	-41.9	-43.0	21.9	0.00e+00	92	42	0	642777088	56	6416
2026-01-22 14:19:51.58	53.90	48.31	-42.2	-43.4	21.4	0.00e+00	0	42	0	644874240	56	6730
2026-01-22 14:19:52.59	54.30	48.56	-42.4	-43.6	21.2	0.00e+00	0	42	0	646971392	56	6851
2026-01-22 14:19:53.60	54.70	48.81	-42.2	-43.3	21.4	0.00e+00	0	41	0	649068544	58	5907
2026-01-22 14:19:54.61	55.11	49.06	-42.1	-43.2	21.5	0.00e+00	0	41	0	650117120	58	5888
2026-01-22 14:19:55.62	55.52	49.31	-42.0	-43.1	21.7	0.00e+00	30	41	0	652214272	58	5804
2026-01-22 14:19:56.63	55.94	49.56	-41.9	-42.9	21.8	0.00e+00	0	41	0	654311424	56	6368
2026-01-22 14:19:57.64	56.37	49.81	-42.0	-43.1	21.6	0.00e+00	92	41	0	656408576	56	6531
2026-01-22 14:19:58.65	56.81	50.06	-42.0	-43.2	21.6	0.00e+00	0	41	0	658505728	56	6540
2026-01-22 14:19:59.66	57.25	50.31	-42.0	-43.1	21.6	0.00e+00	0	41	0	659554304	56	6471
2026-01-22 14:20:00.67	57.70	50.56	-41.4	-42.4	22.3	0.00e+00	32	41	0	661651456	56	6005
2026-01-22 14:20:01.67	58.15	50.81	-42.2	-43.3	21.6	0.00e+00	0	41	0	663748608	56	6623
2026-01-22 14:20:02.68	58.62	51.06	-42.7	-43.9	20.8	0.00e+00	25	41	0	665845760	56	7110
2026-01-22 14:20:03.69	59.09	51.30	-43.4	-44.7	20.2	0.00e+00	0	42	0	667942912	58	6996
2026-01-22 14:20:04.70	59.57	51.55	-43.6	-45.0	20.0	0.00e+00	92	42	0	668991488	60	6428
2026-01-22 14:20:05.71	60.06	51.79	-42.8	-44.1	20.8	0.00e+00	0	41	0	671088640	60	5781
2026-01-22 14:20:06.72	60.55	52.04	-41.9	-43.0	21.7	0.00e+00	0	41	0	673185792	58	5746
2026-01-22 14:20:07.73	61.06	52.28	-41.6	-42.7	22.0	0.00e+00	0	42	0	675282944	56	6204
2026-01-22 14:20:08.74	61.57	52.53	-41.4	-42.4	22.0	0.00e+00	0	42	0	677380096	56	6027
2026-01-22 14:20:09.75	62.09	52.77	-42.3	-43.5	21.6	0.00e+00	30	42	0	678428672	56	6791
2026-01-22 14:20:10.76	62.62	53.01	-42.3	-43.4	21.2	0.00e+00	0	41	0	680525824	56	6765
2026-01-22 14:20:11.77	63.16	53.25	-42.3	-43.4	21.3	0.00e+00	92	41	0	682622976	58	6025
2026-01-22 14:20:12.78	63.71	53.48	-42.0	-43.1	21.8	0.00e+00	0	41	0	684720128	58	5792
2026-01-22 14:20:13.79	64.26	53.72	-41.2	-42.2	22.2	0.00e+00	0	42	0	686817280	56	5884
2026-01-22 14:20:14.80	64.83	53.95	-41.0	-42.0	22.6	0.00e+00	0	42	0	687865856	56	5740
2026-01-22 14:20:15.81	65.40	54.19	-40.6	-41.6	22.9	0.00e+00	0	42	0	689963008	54	6159
2026-01-22 14:20:16.82	65.99	54.42	-39.9	-40.8	23.3	0.00e+00	0	42	0	692060160	54	5626
2026-01-22 14:20:17.83	66.58	54.65	-40.0	-40.9	23.4	0.00e+00	0	42	0	694157312	54	5641
2026-01-22 14:20:18.84	67.18	54.87	-40.1	-41.0	23.2	0.00e+00	41	42	0	696254464	52	6414
2026-01-22 14:20:19.85	67.79	55.10	-40.5	-41.5	22.9	0.00e+00	0	41	0	697303040	54	6073
2026-01-22 14:20:20.86	68.41	55.32	-40.6	-41.6	22.8	0.00e+00	90	41	0	699400192	54	6138
2026-01-22 14:20:21.87	69.05	55.54	-40.6	-41.6	22.8	0.00e+00	0	41	0	701497344	54	6124
2026-01-22 14:20:22.88	69.69	55.76	-41.1	-42.1	22.2	0.00e+00	0	41	0	703594496	54	6516
2026-01-22 14:20:23.89	70.34	55.97	-42.4	-43.7	21.2	0.00e+00	34	41	0	705691648	56	6936
2026-01-22 14:20:24.90	71.00	56.19	-42.3	-43.6	21.4	0.00e+00	0	42	0	707788800	58	6127
2026-01-22 14:20:25.91	71.67	56.40	-41.6	-42.7	22.0	0.00e+00	88	41	0	708837376	56	6198
2026-01-22 14:20:26.91	72.34	56.60	-40.7	-41.7	22.7	0.00e+00	0	41	0	710934528	56	5521
2026-01-22 14:20:27.93	73.04	56.80	-40.0	-40.9	23.2	0.00e+00	89	41	0	713031680	54	5646
2026-01-22 14:20:28.93	73.74	57.00	-39.8	-40.7	23.6	0.00e+00	0	41	0	715128832	52	6199
2026-01-22 14:20:29.94	74.45	57.20	-40.0	-40.9	23.4	0.00e+00	0	42	0	717225984	52	6370
2026-01-22 14:20:30.95	75.17	57.39	-40.1	-41.0	23.3	0.00e+00	0	41	0	718274560	52	6455
2026-01-22 14:20:31.96	75.90	57.58	-40.3	-41.2	23.1	0.00e+00	0	42	0	720371712	52	6612
2026-01-22 14:20:32.97	76.64	57.77	-39.8	-40.7	23.3	0.00e+00	74	41	0	722468864	52	6206
2026-01-22 14:20:33.98	77.40	57.95	-40.4	-41.3	23.1	0.00e+00	0	42	0	724566016	52	6660
2026-01-22 14:20:34.99	78.16	58.13	-41.0	-42.0	22.5	0.00e+00	41	41	0	726663168	54	6411
2026-01-22 14:20:36.00	78.93	58.30	-41.4	-42.5	22.1	0.00e+00	0	41	0	727711744	54	6802
2026-01-22 14:20:37.01	79.71	58.47	-40.5	-41.4	23.0	0.00e+00	0	42	0	729808896	54	5967
2026-01-22 14:20:38.02	80.50	58.63	-40.5	-41.4	23.0	0.00e+00	0	42	0	731906048	54	5980
2026-01-22 14:20:39.03	81.31	58.79	-40.0	-40.8	23.1	0.00e+00	0	42	0	734003200	54	5620
2026-01-22 14:20:40.04	82.12	58.95	-39.1	-39.9	24.1	0.00e+00	0	42	0	736100352	52	5643
2026-01-22 14:20:41.05	82.94	59.10	-39.0	-39.8	24.2	0.00e+00	0	42	0	737148928	52	5592
2026-01-22 14:20:42.05	83.76	59.24	-39.6	-40.5	23.7	0.00e+00	55	42	0	739246080	52	6042
2026-01-22 14:20:43.06	84.60	59.38	-39.6	-40.5	23.7	0.00e+00	0	42	0	741343232	52	6085
2026-01-22 14:20:44.07	85.45	59.51	-40.2	-41.1	23.2	0.00e+00	0	42	0	743440384	52	6481
2026-01-22 14:20:45.08	86.30	59.64	-40.8	-41.8	22.6	0.00e+00	0	41	0	745537536	54	6272
2026-01-22 14:20:46.09	87.17	59.77	-41.5	-42.6	21.7	0.00e+00	0	42	0	746586112	54	6893
2026-01-22 14:20:47.10	88.04	59.89	-41.7	-42.8	21.9	0.00e+00	25	42	0	748683264	56	6268
2026-01-22 14:20:48.11	88.92	60.00	-41.6	-42.6	21.8	0.00e+00	0	41	0	750780416	56	6167
2026-01-22 14:20:49.12	89.81	60.11	-41.5	-42.6	22.1	0.00e+00	92	41	0	752877568	56	6107
2026-01-22 14:20:50.13	90.70	60.21	-40.9	-41.9	22.4	0.00e+00	0	41	0	754974720	54	6354
2026-01-22 14:20:51.14	91.61	60.30	-41.3	-42.3	22.2	0.00e+00	42	42	0	756023296	54	6682
2026-01-22 14:20:52.15	92.51	60.39	-41.4	-42.5	22.1	0.00e+00	0	41	0	758120448	54	6774
2026-01-22 14:20:53.16	93.43	60.47	-42.2	-43.4	21.3	0.00e+00	0	41	0	760217600	56	6715
2026-01-22 14:20:54.17	94.35	60.55	-41.6	-42.7	22.0	0.00e+00	17	42	0	762314752	56	6182
2026-01-22 14:20:55.18	95.27	60.62	-40.9	-41.9	22.6	0.00e+00	0	42	0	764411904	56	5679
2026-01-22 14:20:56.19	96.21	60.68	-40.5	-41.5	22.9	0.00e+00	92	42	0	765460480	54	6048
2026-01-22 14:20:57.20	97.14	60.74	-41.1	-42.1	22.4	0.00e+00	0	42	0	767557632	54	6500
2026-01-22 14:20:58.21	98.08	60.78	-42.6	-43.9	20.9	0.00e+00	92	41	0	769654784	56	7142
2026-01-22 14:20:59.22	99.02	60.83	-42.0	-43.1	21.8	0.00e+00	0	42	0	771751936	58	5780
2026-01-22 14:21:00.23	99.97	60.86	-41.1	-42.1	22.5	0.00e+00	0	42	0	773849088	56	5776
2026-01-22 14:21:01.23	100.90	60.89	-40.5	-41.4	23.1	0.00e+00	9	42	0	775946240	54	6009
2026-01-22 14:21:02.24	101.85	60.92	-39.9	-40.8	23.4	0.00e+00	0	42	0	776994816	54	5598
2026-01-22 14:21:03.25	102.81	60.93	-38.8	-39.6	24.4	0.00e+00	92	41	0	779091968	52	5493
2026-01-22 14:21:04.26	103.76	60.94	-38.7	-39.5	24.3	0.00e+00	0	41	0	781189120	50	6045
2026-01-22 14:21:05.27	104.71	60.94	-39.5	-40.5	23.7	0.00e+00	90	41	0	783286272	50	6777
2026-01-22 14:21:06.28	105.66	60.94	-40.0	-40.9	23.2	0.00e+00	0	42	0	785383424	52	6368
2026-01-22 14:21:07.29	106.61	60.93	-39.6	-40.5	23.6	0.00e+00	0	41	0	786432000	52	6043
2026-01-22 14:21:08.30	107.56	60.91	-39.6	-40.5	23.5	0.00e+00	0	41	0	788529152	52	6093
2026-01-22 14:21:09.31	108.51	60.88	-40.0	-40.9	23.2	0.00e+00	0	42	0	790626304	52	6342
2026-01-22 14:21:10.32	109.46	60.85	-39.8	-40.7	23.3	0.00e+00	32	42	0	792723456	52	6212
2026-01-22 14:21:11.33	110.40	60.81	-39.7	-40.5	23.3	0.00e+00	0	42	0	794820608	52	6103
2026-01-22 14:21:12.34	111.35	60.76	-39.8	-40.6	23.7	0.00e+00	90	42	0	795869184	52	6172
2026-01-22 14:21:13.35	112.28	60.71	-40.6	-41.5	22.9	0.00e+00	0	42	0	797966336	52	6807
2026-01-22 14:21:14.35	113.21	60.65	-40.8	-41.7	22.7	0.00e+00	0	42	0	800063488	54	6227
2026-01-22 14:21:15.36	114.14	60.59	-40.0	-40.8	23.3	0.00e+00	0	42	0	802160640	54	5622
2026-01-22 14:21:16.38	115.07	60.52	-39.8	-40.7	23.4	0.00e+00	0	42	0	804257792	52	6186
2026-01-22 14:21:17.38	115.98	60.44	-41.7	-42.8	21.6	0.00e+00	16	42	0	805306368	54	7011
2026-01-22 14:21:18.39	116.89	60.35	-43.8	-45.4	19.5	0.00e+00	0	42	0	807403520	60	6733
2026-01-22 14:21:19.40	117.80	60.26	-43.0	-44.3	20.9	0.00e+00	92	42	0	809500672	60	5916
2026-01-22 14:21:20.41	118.70	60.16	-42.5	-43.7	21.1	0.00e+00	0	42	0	811597824	58	6188
2026-01-22 14:21:21.42	119.59	60.06	-43.4	-44.8	19.9	0.00e+00	56	42	0	813694976	58	7028
2026-01-22 14:21:22.43	120.48	59.95	-43.7	-45.1	20.0	0.00e+00	0	42	0	814743552	60	6500
2026-01-22 14:21:23.45	121.36	59.84	-43.0	-44.2	20.8	0.00e+00	0	42	0	816840704	60	5863
2026-01-22 14:21:24.46	122.23	59.72	-42.5	-43.7	21.0	0.00e+00	40	42	0	818937856	58	6222
2026-01-22 14:21:25.47	123.10	59.59	-42.8	-44.0	20.8	0.00e+00	0	42	0	821035008	58	6420
2026-01-22 14:21:26.47	123.94	59.46	-43.2	-44.5	20.3	0.00e+00	92	42	0	823132160	58	6814
2026-01-22 14:21:27.49	124.79	59.32	-43.4	-44.8	20.2	0.00e+00	0	42	0	824180736	58	7026
2026-01-22 14:21:28.49	125.62	59.18	-42.4	-43.6	21.1	0.00e+00	67	41	0	826277888	58	6141
2026-01-22 14:21:29.50	126.45	59.03	-41.3	-42.3	22.3	0.00e+00	0	42	0	828375040	56	5945
2026-01-22 14:21:30.51	127.27	58.88	-41.1	-42.0	22.4	0.00e+00	0	42	0	830472192	56	5756
2026-01-22 14:21:31.52	128.07	58.72	-41.8	-42.9	21.7	0.00e+00	0	42	0	832569344	56	6335
2026-01-22 14:21:32.53	128.87	58.56	-42.6	-43.8	21.0	0.00e+00	0	42	0	833617920	56	7017
2026-01-22 14:21:33.54	129.66	58.39	-41.9	-42.9	21.8	0.00e+00	92	42	0	835715072	56	6379
2026-01-22 14:21:34.55	130.44	58.22	-41.4	-42.4	22.3	0.00e+00	0	42	0	837812224	56	6027
2026-01-22 14:21:35.56	131.21	58.05	-40.2	-41.1	23.2	0.00e+00	92	42	0	839909376	54	5828
2026-01-22 14:21:36.57	131.97	57.87	-39.7	-40.6	23.6	0.00e+00	0	42	0	842006528	54	5476
2026-01-22 14:21:37.58	132.72	57.68	-39.5	-40.3	24.0	0.00e+00	0	42	0	844103680	52	5947
2026-01-22 14:21:38.59	133.45	57.50	-39.4	-40.3	23.8	0.00e+00	0	42	0	845152256	52	5929
2026-01-22 14:21:39.60	134.18	57.31	-38.5	-39.3	24.6	0.00e+00	0	42	0	847249408	50	5898
2026-01-22 14:21:40.61	134.90	57.11	-38.2	-39.0	24.7	0.00e+00	25	42	0	849346560	50	5704
2026-01-22 14:21:41.62	135.61	56.91	-38.8	-39.6	24.2	0.00e+00	0	42	0	851443712	50	6172
2026-01-22 14:21:42.63	136.31	56.71	-39.3	-40.2	23.8	0.00e+00	92	42	0	853540864	50	6548
2026-01-22 14:21:43.64	136.99	56.51	-39.0	-39.9	24.1	0.00e+00	0	42	0	854589440	50	6347
2026-01-22 14:21:44.65	137.67	56.30	-40.0	-41.0	23.3	0.00e+00	0	42	0	856686592	52	6397
2026-01-22 14:21:45.66	138.34	56.09	-40.8	-41.9	22.4	0.00e+00	0	42	0	858783744	52	7137
2026-01-22 14:21:46.67	139.00	55.87	-40.5	-41.5	22.9	0.00e+00	0	42	0	860880896	54	6087
2026-01-22 14:21:47.68	139.65	55.66	-38.8	-39.6	24.3	0.00e+00	40	42	0	862978048	52	5493
2026-01-22 14:21:48.69	140.28	55.44	-38.3	-39.1	24.7	0.00e+00	0	42	0	864026624	50	5827
2026-01-22 14:21:49.70	140.91	55.22	-37.7	-38.5	25.0	0.00e+00	92	42	0	866123776	48	6036
2026-01-22 14:21:50.71	141.53	54.99	-37.5	-38.2	25.3	0.00e+00	0	42	0	868220928	48	5891
2026-01-22 14:21:51.72	142.14	54.77	-37.0	-37.7	24.9	0.00e+00	0	42	0	870318080	48	5548
2026-01-22 14:21:52.73	142.74	54.54	-36.1	-36.8	26.0	0.00e+00	0	42	0	872415232	46	5592
2026-01-22 14:21:53.73	143.32	54.31	-36.8	-37.5	25.6	0.00e+00	0	42	0	873463808	46	6082
2026-01-22 14:21:54.74	143.90	54.08	-37.4	-38.1	25.2	0.00e+00	28	42	0	875560960	46	6529
2026-01-22 14:21:55.75	144.47	53.84	-37.3	-38.1	25.4	0.00e+00	0	42	0	877658112	46	6484
2026-01-22 14:21:56.76	145.03	53.61	-37.2	-38.0	25.2	0.00e+00	92	42	0	879755264	46	6413
2026-01-22 14:21:57.77	145.59	53.37	-38.1	-38.9	24.8	0.00e+00	0	42	0	881852416	48	6334
2026-01-22 14:21:58.78	146.13	53.13	-38.4	-39.2	24.5	0.00e+00	0	42	0	882900992	48	6560
2026-01-22 14:21:59.79	146.67	52.89	-37.5	-38.2	24.7	0.00e+00	0	42	0	884998144	48	5893
2026-01-22 14:22:00.80	147.19	52.65	-36.7	-37.4	25.6	0.00e+00	0	42	0	887095296	48	5340
2026-01-22 14:22:01.81	147.71	52.41	-37.0	-37.8	25.5	0.00e+00	0	42	0	889192448	46	6253
2026-01-22 14:22:02.82	148.22	52.16	-37.4	-38.2	25.2	0.00e+00	0	42	0	891289600	46	6565
2026-01-22 14:22:03.83	148.72	51.92	-37.2	-37.9	25.3	0.00e+00	92	42	0	892338176	46	6364
2026-01-22 14:22:04.84	149.21	51.67	-37.5	-38.3	25.3	0.00e+00	0	42	0	894435328	46	6641
2026-01-22 14:22:05.85	149.70	51.42	-37.6	-38.4	25.0	0.00e+00	26	42	0	896532480	46	6704
2026-01-22 14:22:06.86	150.18	51.18	-39.1	-40.0	24.0	0.00e+00	0	42	0	898629632	50	6409
2026-01-22 14:22:07.87	150.65	50.93	-38.8	-39.7	24.2	0.00e+00	0	42	0	900726784	50	6188
2026-01-22 14:22:08.87	151.10	50.68	-39.0	-39.8	24.1	0.00e+00	0	42	0	901775360	50	6276
2026-01-22 14:22:09.88	151.56	50.43	-39.0	-39.9	24.2	0.00e+00	0	42	0	903872512	50	6354
2026-01-22 14:22:10.89	152.01	50.18	-38.7	-39.5	24.4	0.00e+00	90	42	0	905969664	50	6057
2026-01-22 14:22:11.90	152.45	49.93	-37.9	-38.7	24.9	0.00e+00	0	42	0	908066816	50	5535
2026-01-22 14:22:12.91	152.88	49.68	-39.1	-40.0	23.8	0.00e+00	92	42	0	910163968	50	6412
2026-01-22 14:22:13.92	153.31	49.43	-41.5	-42.6	21.5	0.00e+00	0	42	0	911212544	56	6140
2026-01-22 14:22:14.93	153.72	49.18	-43.5	-45.0	19.9	0.00e+00	0	42	0	913309696	58	7212
2026-01-22 14:22:15.94	154.14	48.93	-42.6	-43.8	20.9	0.00e+00	3	41	0	915406848	58	6313
2026-01-22 14:22:16.95	154.54	48.68	-42.6	-43.8	20.9	0.00e+00	0	42	0	917504000	56	7083
2026-01-22 14:22:17.96	154.94	48.43	-43.8	-45.2	19.8	0.00e+00	92	42	0	919601152	60	6588
2026-01-22 14:22:18.97	155.33	48.17	-44.6	-46.2	19.2	0.00e+00	0	42	0	920649728	60	7376
2026-01-22 14:22:19.98	155.72	47.92	-43.6	-45.1	19.8	0.00e+00	65	42	0	922746880	60	6485
2026-01-22 14:22:20.98	156.10	47.67	-44.5	-46.2	18.9	0.00e+00	0	42	0	924844032	60	7395
2026-01-22 14:22:21.99	156.47	47.42	-45.4	-47.5	17.8	0.00e+00	0	42	0	926941184	60	8553
2026-01-22 14:22:23.00	156.84	47.17	-44.1	-45.7	19.3	0.00e+00	0	42	0	929038336	60	6975
2026-01-22 14:22:24.01	157.20	46.92	-42.5	-43.6	21.0	0.00e+00	0	42	0	930086912	58	6173
2026-01-22 14:22:25.02	157.56	46.67	-41.3	-42.3	22.1	0.00e+00	10	42	0	932184064	56	5920
2026-01-22 14:22:26.03	157.91	46.42	-41.7	-42.8	21.8	0.00e+00	0	42	0	934281216	56	6277
2026-01-22 14:22:27.04	158.26	46.17	-43.2	-44.5	20.2	0.00e+00	35	42	0	936378368	58	6832
2026-01-22 14:22:28.05	158.60	45.92	-45.0	-46.9	18.0	0.00e+00	0	42	0	938475520	60	7996
2026-01-22 14:22:29.06	158.94	45.67	-44.8	-46.4	18.7	0.00e+00	0	42	0	940572672	60	7590
2026-01-22 14:22:30.07	159.27	45.42	-43.0	-44.2	20.6	0.00e+00	0	42	0	941621248	60	5857
2026-01-22 14:22:31.08	159.59	45.18	-41.4	-42.4	22.2	0.00e+00	24	42	0	943718400	56	5985
2026-01-22 14:22:32.09	159.91	44.93	-41.7	-42.7	21.8	0.00e+00	30	42	0	945815552	56	6228
2026-01-22 14:22:33.09	160.22	44.69	-42.8	-44.1	20.8	0.00e+00	0	42	0	947912704	56	7332
2026-01-22 14:22:34.10	160.53	44.44	-42.8	-44.1	20.7	0.00e+00	92	42	0	950009856	58	6527
2026-01-22 14:22:35.11	160.84	44.19	-41.2	-42.2	22.3	0.00e+00	0	42	0	951058432	56	5869
2026-01-22 14:22:36.12	161.14	43.95	-39.4	-40.3	23.8	0.00e+00	92	42	0	953155584	52	5922
2026-01-22 14:22:37.13	161.44	43.71	-39.5	-40.3	23.5	0.00e+00	0	42	0	955252736	52	5940
2026-01-22 14:22:38.14	161.73	43.46	-39.6	-40.5	23.5	0.00e+00	0	42	0	957349888	52	6052
2026-01-22 14:22:39.15	162.02	43.22	-40.1	-41.0	23.2	0.00e+00	26	42	0	959447040	52	6424
2026-01-22 14:22:40.16	162.30	42.98	-41.4	-42.5	22.0	0.00e+00	0	41	0	960495616	54	6776
2026-01-22 14:22:41.17	162.58	42.74	-41.8	-42.9	21.7	0.00e+00	26	41	0	962592768	54	7097
2026-01-22 14:22:42.18	162.86	42.50	-41.7	-42.8	21.9	0.00e+00	0	41	0	964689920	56	6298
2026-01-22 14:22:43.19	163.13	42.26	-39.6	-40.5	23.7	0.00e+00	92	42	0	966787072	54	5434
2026-01-22 14:22:44.20	163.40	42.02	-38.9	-39.7	24.1	0.00e+00	5	42	0	968884224	52	5553
2026-01-22 14:22:45.21	163.66	41.78	-38.5	-39.3	24.5	0.00e+00	0	42	0	969932800	50	5909
2026-01-22 14:22:46.22	163.92	41.54	-39.3	-40.1	23.9	0.00e+00	0	42	0	972029952	50	6536
2026-01-22 14:22:47.23	164.18	41.31	-41.3	-42.3	21.8	0.00e+00	0	41	0	974127104	54	6679
2026-01-22 14:22:48.24	164.43	41.07	-43.6	-45.1	19.5	0.00e+00	92	41	0	976224256	58	7318
2026-01-22 14:22:49.25	164.68	40.84	-43.8	-45.3	19.6	0.00e+00	0	42	0	978321408	60	6675
2026-01-22 14:22:50.26	164.93	40.61	-41.9	-43.1	21.9	0.00e+00	92	42	0	979369984	58	5805
2026-01-22 14:22:51.27	165.17	40.37	-39.0	-39.9	24.2	0.00e+00	0	42	0	981467136	52	5631
2026-01-22 14:22:52.28	165.41	40.14	-38.0	-38.8	24.8	0.00e+00	0	42	0	983564288	50	5567
2026-01-22 14:22:53.29	165.64	39.91	-38.6	-39.4	24.4	0.00e+00	9	41	0	985661440	50	5990
2026-01-22 14:22:54.30	165.87	39.68	-39.8	-40.7	23.4	0.00e+00	0	41	0	987758592	50	6969
2026-01-22 14:22:55.31	166.10	39.46	-41.1	-42.2	22.1	0.00e+00	61	41	0	988807168	54	6586
2026-01-22 14:22:56.32	166.33	39.23	-41.4	-42.6	21.9	0.00e+00	0	42	0	990904320	54	6860
2026-01-22 14:22:57.33	166.55	39.00	-40.6	-41.6	22.6	0.00e+00	90	42	0	993001472	54	6155
2026-01-22 14:22:58.34	166.77	38.78	-39.6	-40.5	23.5	0.00e+00	0	42	0	995098624	54	5414
2026-01-22 14:22:59.35	166.99	38.55	-38.8	-39.7	23.9	0.00e+00	0	42	0	997195776	52	5515
2026-01-22 14:23:00.36	167.20	38.33	-38.2	-39.0	24.7	0.00e+00	0	42	0	998244352	50	5703
2026-01-22 14:23:01.37	167.42	38.11	-37.8	-38.6	24.7	0.00e+00	0	41	0	1000341504	48	6125
2026-01-22 14:23:02.38	167.62	37.89	-37.6	-38.4	24.8	0.00e+00	20	41	0	1002438656	48	5966
2026-01-22 14:23:03.39	167.83	37.67	-38.7	-39.4	24.2	0.00e+00	0	42	0	1004535808	48	6769
2026-01-22 14:23:04.40	168.03	37.45	-39.7	-40.6	23.5	0.00e+00	63	41	0	1006632960	50	6868
2026-01-22 14:23:05.41	168.23	37.23	-40.7	-41.6	22.6	0.00e+00	0	42	0	1008730112	52	6897
2026-01-22 14:23:06.42	168.43	37.01	-41.0	-42.0	22.4	0.00e+00	0	41	0	1009778688	54	6410
2026-01-22 14:23:07.43	168.63	36.80	-41.1	-42.1	22.3	0.00e+00	0	42	0	1011875840	54	6523
2026-01-22 14:23:08.44	168.82	36.58	-41.6	-42.7	21.8	0.00e+00	0	41	0	1013972992	54	6971
2026-01-22 14:23:09.45	169.01	36.37	-41.1	-42.2	22.2	0.00e+00	14	41	0	1016070144	54	6584
2026-01-22 14:23:10.46	169.20	36.16	-40.9	-42.0	22.2	0.00e+00	0	41	0	1018167296	54	6443
2026-01-22 14:23:11.47	169.38	35.94	-41.0	-42.1	22.5	0.00e+00	75	41	0	1019215872	54	6506
2026-01-22 14:23:12.47	169.56	35.74	-40.8	-41.8	22.5	0.00e+00	0	41	0	1021313024	54	6301
2026-01-22 14:23:13.48	169.74	35.53	-41.5	-42.6	21.9	0.00e+00	37	41	0	1023410176	54	6868
2026-01-22 14:23:14.49	169.92	35.32	-41.1	-42.1	22.3	0.00e+00	0	41	0	1025507328	54	6504
2026-01-22 14:23:15.50	170.10	35.11	-41.1	-42.1	22.3	0.00e+00	0	41	0	1027604480	54	6490
2026-01-22 14:23:16.51	170.27	34.91	-41.1	-42.0	22.4	0.00e+00	22	41	0	1028653056	54	6463
2026-01-22 14:23:17.52	170.45	34.70	-40.8	-41.8	22.5	0.00e+00	0	41	0	1030750208	54	6295
2026-01-22 14:23:18.53	170.62	34.50	-41.1	-42.2	22.1	0.00e+00	34	41	0	1032847360	54	6541
2026-01-22 14:23:19.54	170.78	34.29	-41.4	-42.5	21.9	0.00e+00	0	41	0	1034944512	54	6771
2026-01-22 14:23:20.55	170.95	34.09	-41.4	-42.4	22.1	0.00e+00	61	41	0	1037041664	54	6765
2026-01-22 14:23:21.56	171.11	33.89	-40.8	-41.8	22.5	0.00e+00	0	41	0	1038090240	54	6256
2026-01-22 14:23:22.57	171.28	33.69	-40.8	-41.8	22.4	0.00e+00	0	41	0	1040187392	54	6314
2026-01-22 14:23:23.58	171.44	33.49	-40.7	-41.8	22.6	0.00e+00	25	41	0	1042284544	54	6248
2026-01-22 14:23:24.59	171.60	33.29	-40.5	-41.5	22.9	0.00e+00	0	41	0	1044381696	54	6035
2026-01-22 14:23:25.60	171.75	33.10	-40.9	-41.9	22.4	0.00e+00	36	41	0	1046478848	54	6333
2026-01-22 14:23:26.61	171.91	32.90	-41.0	-42.0	22.5	0.00e+00	0	41	0	1047527424	54	6415
2026-01-22 14:23:27.62	172.06	32.71	-40.5	-41.4	22.5	0.00e+00	92	41	0	1049624576	54	6016
2026-01-22 14:23:28.63	172.21	32.51	-40.6	-41.6	22.7	0.00e+00	0	41	0	1051721728	54	6132
2026-01-22 14:23:29.64	172.36	32.32	-40.2	-41.1	22.9	0.00e+00	0	41	0	1053818880	54	5810
2026-01-22 14:23:30.64	172.51	32.13	-40.3	-41.2	23.0	0.00e+00	0	41	0	1055916032	54	5846
2026-01-22 14:23:31.65	172.65	31.94	-40.2	-41.1	23.0	0.00e+00	0	41	0	1056964608	54	5816
2026-01-22 14:23:32.66	172.80	31.75	-40.1	-40.9	23.2	0.00e+00	24	41	0	1059061760	54	5693
2026-01-22 14:23:33.67	172.94	31.56	-40.2	-41.1	23.1	0.00e+00	0	41	0	1061158912	54	5788
2026-01-22 14:23:34.68	173.08	31.37	-40.9	-41.8	22.3	0.00e+00	91	41	0	1063256064	54	6315
2026-01-22 14:23:35.69	173.22	31.19	-41.0	-41.9	22.4	0.00e+00	0	41	0	1065353216	54	6373
2026-01-22 14:23:36.70	173.36	31.00	-41.5	-42.5	21.8	0.00e+00	0	41	0	1066401792	54	6844
2026-01-22 14:23:37.71	173.49	30.82	-42.2	-43.3	21.3	0.00e+00	0	41	0	1068498944	56	6681
2026-01-22 14:23:38.72	173.63	30.63	-42.1	-43.3	21.4	0.00e+00	0	41	0	1070596096	56	6649
2026-01-22 14:23:39.73	173.76	30.45	-42.3	-43.5	21.0	0.00e+00	41	41	0	1072693248	56	6788
2026-01-22 14:23:40.74	173.89	30.27	-42.6	-43.9	20.6	0.00e+00	0	41	0	1074790400	56	7117
2026-01-22 14:23:41.75	174.02	30.09	-42.0	-43.2	21.3	0.00e+00	92	41	0	1076887552	58	5889
2026-01-22 14:23:42.76	174.15	29.91	-42.1	-43.3	21.1	0.00e+00	0	41	0	1077936128	58	5917
2026-01-22 14:23:43.77	174.28	29.73	-41.8	-42.9	21.6	0.00e+00	0	41	0	1080033280	56	6362
2026-01-22 14:23:44.78	174.41	29.55	-41.3	-42.4	22.1	0.00e+00	0	41	0	1082130432	56	5999
2026-01-22 14:23:45.79	174.53	29.38	-41.5	-42.6	21.8	0.00e+00	0	41	0	1084227584	56	6120
2026-01-22 14:23:46.80	174.66	29.20	-41.2	-42.3	22.1	0.00e+00	0	41	0	1086324736	56	5898
2026-01-22 14:23:47.81	174.78	29.03	-40.9	-41.9	22.5	0.00e+00	0	41	0	1087373312	56	5656
2026-01-22 14:23:48.82	174.90	28.85	-40.8	-41.9	22.3	0.00e+00	65	41	0	1089470464	54	6331
2026-01-22 14:23:49.83	175.02	28.68	-41.3	-42.4	22.0	0.00e+00	0	41	0	1091567616	54	6703
2026-01-22 14:23:50.84	175.14	28.51	-41.3	-42.4	21.9	0.00e+00	0	41	0	1093664768	54	6695
2026-01-22 14:23:51.85	175.26	28.34	-41.5	-42.6	21.6	0.00e+00	0	41	0	1095761920	54	6891
2026-01-22 14:23:52.86	175.37	28.17	-41.3	-42.4	22.0	0.00e+00	0	41	0	1096810496	54	6704
2026-01-22 14:23:53.87	175.49	28.00	-41.2	-42.2	22.1	0.00e+00	17	41	0	1098907648	54	6608
2026-01-22 14:23:54.88	175.60	27.83	-41.6	-42.6	21.9	0.00e+00	0	41	0	1101004800	54	6917
2026-01-22 14:23:55.89	175.72	27.66	-40.6	-41.6	22.7	0.00e+00	92	41	0	1103101952	54	6127
2026-01-22 14:23:56.90	175.83	27.50	-40.7	-41.6	22.6	0.00e+00	0	41	0	1105199104	54	6160
2026-01-22 14:23:57.91	175.94	27.33	-40.2	-41.2	23.0	0.00e+00	92	41	0	1106247680	54	5852
2026-01-22 14:23:58.92	176.05	27.17	-40.2	-41.1	23.0	0.00e+00	0	41	0	1108344832	54	5808
2026-01-22 14:23:59.93	176.16	27.00	-39.8	-40.7	23.4	0.00e+00	0	41	0	1110441984	52	6186
2026-01-22 14:24:00.93	176.26	26.84	-39.7	-40.6	23.4	0.00e+00	0	41	0	1112539136	52	6132
2026-01-22 14:24:01.94	176.37	26.68	-39.5	-40.4	23.6	0.00e+00	0	41	0	1114636288	52	5996
2026-01-22 14:24:02.95	176.47	26.52	-39.6	-40.5	23.4	0.00e+00	92	41	0	1115684864	52	6052
2026-01-22 14:24:03.96	176.58	26.36	-39.8	-40.7	23.3	0.00e+00	0	41	0	1117782016	52	6193
2026-01-22 14:24:04.97	176.68	26.20	-39.7	-40.5	23.5	0.00e+00	92	41	0	1119879168	52	6098
2026-01-22 14:24:05.98	176.78	26.04	-39.8	-40.7	23.4	0.00e+00	0	41	0	1121976320	52	6206
2026-01-22 14:24:06.99	176.88	25.88	-40.0	-41.0	23.0	0.00e+00	0	41	0	1124073472	52	6392
2026-01-22 14:24:08.00	176.99	25.73	-40.1	-41.1	23.2	0.00e+00	0	41	0	1125122048	52	6471
2026-01-22 14:24:09.01	177.08	25.57	-40.2	-41.2	22.9	0.00e+00	0	41	0	1127219200	52	6546
2026-01-22 14:24:10.02	177.18	25.42	-40.3	-41.3	22.8	0.00e+00	6	41	0	1129316352	52	6629
2026-01-22 14:24:11.03	177.28	25.26	-40.3	-41.3	22.7	0.00e+00	0	41	0	1131413504	52	6670
2026-01-22 14:24:12.04	177.38	25.11	-40.6	-41.6	22.6	0.00e+00	27	41	0	1133510656	52	6877
2026-01-22 14:24:13.05	177.47	24.95	-40.3	-41.3	22.8	0.00e+00	0	41	0	1134559232	52	6647
2026-01-22 14:24:14.06	177.57	24.80	-40.4	-41.5	22.8	0.00e+00	0	41	0	1136656384	52	6782
2026-01-22 14:24:15.07	177.66	24.65	-40.8	-41.8	22.4	0.00e+00	0	41	0	1138753536	52	7072
2026-01-22 14:24:16.07	177.75	24.50	-40.3	-41.3	22.7	0.00e+00	0	41	0	1140850688	54	5960
2026-01-22 14:24:17.08	177.85	24.35	-40.5	-41.5	22.7	0.00e+00	59	41	0	1142947840	54	6064
2026-01-22 14:24:18.09	177.94	24.20	-40.3	-41.4	22.7	0.00e+00	0	41	0	1145044992	54	5971
2026-01-22 14:24:19.10	178.03	24.06	-40.3	-41.3	22.8	0.00e+00	91	41	0	1146093568	54	5928
2026-01-22 14:24:20.11	178.12	23.91	-40.1	-41.1	23.0	0.00e+00	0	41	0	1148190720	54	5763
2026-01-22 14:24:21.12	178.21	23.76	-39.5	-40.5	23.5	0.00e+00	74	41	0	1150287872	52	6042
2026-01-22 14:24:22.13	178.30	23.62	-39.6	-40.5	23.4	0.00e+00	0	41	0	1152385024	52	6038
2026-01-22 14:24:23.14	178.38	23.47	-39.1	-39.9	23.8	0.00e+00	0	41	0	1154482176	52	5695
2026-01-22 14:24:24.15	178.47	23.33	-38.7	-39.5	24.1	0.00e+00	22	41	0	1155530752	52	5400
2026-01-22 14:24:25.16	178.56	23.18	-38.3	-39.1	24.5	0.00e+00	20	41	0	1157627904	50	5768
2026-01-22 14:24:26.17	178.64	23.04	-37.9	-38.7	24.7	0.00e+00	44	41	0	1159725056	50	5528
2026-01-22 14:24:27.18	178.73	22.90	-37.5	-38.3	25.0	0.00e+00	0	41	0	1161822208	48	5911
2026-01-22 14:24:28.19	178.81	22.76	-37.5	-38.2	25.2	0.00e+00	31	41	0	1163919360	48	5876
2026-01-22 14:24:29.20	178.89	22.62	-37.3	-38.0	25.2	0.00e+00	0	41	0	1164967936	48	5735
2026-01-22 14:24:30.21	178.98	22.48	-37.2	-37.9	25.3	0.00e+00	0	41	0	1167065088	48	5679
2026-01-22 14:24:31.22	179.06	22.34	-37.3	-38.1	25.0	0.00e+00	9	41	0	1169162240	48	5763
2026-01-22 14:24:32.23	179.14	22.20	-37.5	-38.3	24.9	0.00e+00	0	41	0	1171259392	48	5909
2026-01-22 14:24:33.24	179.22	22.06	-37.7	-38.5	24.8	0.00e+00	22	41	0	1173356544	48	6038
2026-01-22 14:24:34.25	179.30	21.92	-38.0	-38.8	24.8	0.00e+00	0	41	0	1174405120	48	6277
2026-01-22 14:24:35.26	179.38	21.79	-38.2	-39.0	24.4	0.00e+00	91	41	0	1176502272	48	6423
2026-01-22 14:24:36.27	179.46	21.65	-38.3	-39.0	24.5	0.00e+00	0	41	0	1178599424	48	6462
2026-01-22 14:24:37.28	179.53	21.52	-38.5	-39.3	24.4	0.00e+00	0	41	0	1180696576	48	6647
2026-01-22 14:24:38.29	179.61	21.38	-38.5	-39.3	24.2	0.00e+00	0	41	0	1182793728	48	6671
2026-01-22 14:24:39.30	179.69	21.25	-38.5	-39.4	24.3	0.00e+00	0	41	0	1183842304	48	6708
2026-01-22 14:24:40.31	179.76	21.12	-38.4	-39.3	24.3	0.00e+00	15	41	0	1185939456	48	6619
2026-01-22 14:24:41.32	179.84	20.98	-38.6	-39.5	24.1	0.00e+00	0	41	0	1188036608	48	6775
2026-01-22 14:24:42.33	179.91	20.85	-38.7	-39.5	24.1	0.00e+00	93	41	0	1190133760	48	6826
2026-01-22 14:24:43.34	179.99	20.72	-38.5	-39.3	24.1	0.00e+00	0	41	0	1192230912	48	6652
2026-01-22 14:24:44.35	180.06	20.59	-38.3	-39.1	24.5	0.00e+00	0	41	0	1193279488	48	6522
2026-01-22 14:24:45.36	180.13	20.46	-38.0	-38.8	24.7	0.00e+00	0	41	0	1195376640	48	6260
2026-01-22 14:24:46.37	180.20	20.33	-37.9	-38.7	24.8	0.00e+00	0	41	0	1197473792	48	6225
2026-01-22 14:24:47.38	180.28	20.20	-38.1	-38.9	24.6	0.00e+00	17	41	0	1199570944	48	6321
2026-01-22 14:24:48.39	180.35	20.07	-38.1	-38.9	24.6	0.00e+00	0	41	0	1201668096	48	6381
2026-01-22 14:24:49.40	180.42	19.95	-37.9	-38.7	24.7	0.00e+00	92	41	0	1202716672	48	6209
2026-01-22 14:24:50.41	180.49	19.82	-37.9	-38.7	24.6	0.00e+00	0	41	0	1204813824	48	6244
2026-01-22 14:24:51.42	180.56	19.69	-38.0	-38.9	24.6	0.00e+00	0	41	0	1206910976	48	6319
2026-01-22 14:24:52.42	180.62	19.57	-38.0	-38.8	24.5	0.00e+00	0	41	0	1209008128	48	6315
2026-01-22 14:24:53.43	180.69	19.44	-38.0	-38.8	24.5	0.00e+00	0	41	0	1211105280	48	6278
2026-01-22 14:24:54.44	180.76	19.32	-38.2	-39.0	24.4	0.00e+00	71	41	0	1213202432	48	6432
2026-01-22 14:24:55.45	180.83	19.20	-38.3	-39.1	24.4	0.00e+00	0	41	0	1214251008	48	6527
2026-01-22 14:24:56.46	180.89	19.07	-38.4	-39.2	24.3	0.00e+00	91	41	0	1216348160	48	6571
2026-01-22 14:24:57.47	180.96	18.95	-38.5	-39.3	24.2	0.00e+00	0	41	0	1218445312	48	6684
2026-01-22 14:24:58.48	181.03	18.83	-38.7	-39.6	24.0	0.00e+00	0	41	0	1220542464	50	6104
