passes_logs/2026/01/22/R4.6S_Anadyr/R4.6S_Anadyr__20260122_173342_SUOMI_NPP_rec.log

#Pass ID: 20260122_173342_SUOMI NPP
#Satellite: SUOMI NPP
#Configuration: NPP
#almurnet v.1.7.20251203
#Start time: 2026-01-22 17:33:43

#Version: 2.2.20231116
#Station: R4.6S_Anadyr
#Location: 177.4865 lon 64.73178 lat
#TLE: 1 37849U 11061A   26021.51818991  .00000201  00000+0  11636-3 0  9995
#TLE: 2 37849  98.7819 323.5108 0002300  52.3548 307.7836 14.19527793737637

#Time	Az	El	Level	Level2	SNR	BER	BlckErr	Temp	State	Recorded	gain1	gain2
2026-01-22 17:33:43.52	32.32	0.03	-51.4	-63.0	3.5	8.46e-01	0	38	0	0	60	51229
2026-01-22 17:33:44.53	32.26	0.08	-52.2	-67.4	3.6	1.51e+00	0	40	104	0	60	84611
2026-01-22 17:33:45.54	32.20	0.14	-52.4	-67.7	3.6	1.51e+00	0	40	104	0	60	87393
2026-01-22 17:33:46.55	32.14	0.19	-52.2	-67.4	3.6	1.51e+00	0	40	104	0	60	84648
2026-01-22 17:33:47.56	32.08	0.24	-51.9	-67.2	3.6	1.51e+00	0	40	104	0	60	82532
2026-01-22 17:33:48.57	32.02	0.30	-51.9	-67.2	3.6	1.51e+00	0	40	104	0	60	82352
2026-01-22 17:33:49.58	31.95	0.35	-51.7	-67.0	3.6	1.51e+00	0	40	104	0	60	80463
2026-01-22 17:33:50.59	31.89	0.41	-51.7	-67.0	3.6	1.51e+00	0	40	104	0	60	80472
2026-01-22 17:33:51.60	31.83	0.46	-51.4	-66.7	3.6	1.51e+00	0	40	104	0	60	77938
2026-01-22 17:33:52.61	31.77	0.51	-51.6	-66.8	3.6	1.51e+00	0	40	104	0	60	79514
2026-01-22 17:33:53.62	31.71	0.57	-51.3	-66.6	3.6	1.51e+00	0	40	104	0	60	77064
2026-01-22 17:33:54.63	31.65	0.62	-51.3	-66.6	3.6	1.51e+00	0	40	104	0	60	76944
2026-01-22 17:33:55.64	31.58	0.68	-51.2	-66.5	3.6	1.51e+00	0	40	104	0	60	76295
2026-01-22 17:33:56.65	31.52	0.73	-51.2	-66.4	3.6	1.51e+00	0	40	104	0	60	75473
2026-01-22 17:33:57.66	31.46	0.79	-51.1	-66.3	3.6	1.51e+00	0	40	104	0	60	74277
2026-01-22 17:33:58.67	31.40	0.84	-51.0	-66.2	3.6	1.51e+00	0	40	104	0	60	73692
2026-01-22 17:33:59.68	31.33	0.89	-51.0	-66.2	3.6	1.51e+00	0	40	104	0	60	73986
2026-01-22 17:34:00.69	31.27	0.95	-50.8	-66.0	3.6	1.51e+00	0	40	104	0	60	72409
2026-01-22 17:34:01.70	31.21	1.00	-50.7	-66.0	3.6	1.51e+00	0	40	104	0	60	72045
2026-01-22 17:34:02.71	31.14	1.06	-50.7	-65.9	3.6	1.51e+00	0	40	104	0	60	71202
2026-01-22 17:34:03.72	31.08	1.11	-50.5	-65.8	3.6	1.51e+00	0	40	104	0	60	70500
2026-01-22 17:34:04.73	31.01	1.17	-50.4	-65.6	3.6	1.51e+00	0	40	104	0	60	69170
2026-01-22 17:34:05.74	30.95	1.22	-50.2	-65.4	3.6	1.51e+00	0	40	104	0	60	67463
2026-01-22 17:34:06.75	30.88	1.28	-50.0	-65.2	3.6	1.51e+00	0	40	104	0	60	65440
2026-01-22 17:34:07.76	30.82	1.33	-49.6	-64.8	3.6	1.51e+00	0	40	104	0	60	62875
2026-01-22 17:34:08.77	30.75	1.39	-49.6	-64.8	3.6	1.51e+00	0	40	104	0	60	62549
2026-01-22 17:34:09.78	30.69	1.44	-49.6	-64.7	3.6	1.51e+00	0	40	104	0	60	62061
2026-01-22 17:34:10.79	30.62	1.50	-49.6	-64.8	3.6	1.51e+00	0	40	104	0	60	62472
2026-01-22 17:34:11.80	30.56	1.55	-49.6	-64.7	3.6	1.51e+00	0	40	104	0	60	62219
2026-01-22 17:34:12.81	30.49	1.61	-49.6	-64.7	3.6	1.51e+00	0	40	104	0	60	62009
2026-01-22 17:34:13.82	30.42	1.66	-49.6	-64.8	3.6	1.51e+00	0	40	104	0	60	62462
2026-01-22 17:34:14.83	30.35	1.72	-49.5	-64.7	3.6	1.51e+00	0	40	104	0	60	62187
2026-01-22 17:34:15.84	30.29	1.78	-49.5	-64.8	3.6	1.51e+00	0	40	104	0	60	62666
2026-01-22 17:34:16.85	30.22	1.83	-49.6	-64.8	3.6	1.51e+00	0	40	104	0	60	62720
2026-01-22 17:34:17.86	30.15	1.89	-49.6	-64.7	3.6	1.51e+00	0	40	104	0	60	62345
2026-01-22 17:34:18.87	30.08	1.94	-49.5	-64.8	3.6	1.51e+00	0	40	104	0	60	62861
2026-01-22 17:34:19.88	30.02	2.00	-49.6	-64.7	3.6	1.51e+00	0	40	104	0	60	62383
2026-01-22 17:34:20.89	29.95	2.05	-49.6	-64.7	3.6	1.51e+00	0	40	104	0	60	62073
2026-01-22 17:34:21.90	29.88	2.11	-49.6	-64.6	3.6	1.51e+00	0	40	104	0	60	61474
2026-01-22 17:34:22.91	29.81	2.17	-49.5	-64.4	3.6	1.51e+00	0	40	104	0	60	60013
2026-01-22 17:34:23.92	29.74	2.22	-49.6	-64.6	3.6	1.51e+00	0	40	104	0	60	61223
2026-01-22 17:34:24.93	29.67	2.28	-49.5	-64.5	3.6	1.51e+00	0	40	104	0	60	60687
2026-01-22 17:34:25.94	29.60	2.34	-49.5	-64.6	3.6	1.51e+00	0	40	104	0	60	61729
2026-01-22 17:34:26.95	29.53	2.39	-49.6	-64.8	3.6	1.51e+00	0	40	104	0	60	62654
2026-01-22 17:34:27.96	29.46	2.45	-49.6	-64.8	3.6	1.51e+00	0	40	104	0	60	62759
2026-01-22 17:34:28.96	29.39	2.50	-49.6	-64.7	3.5	1.51e+00	0	40	104	0	60	62318
2026-01-22 17:34:29.97	29.32	2.56	-49.6	-64.7	3.6	1.51e+00	0	40	104	0	60	62260
2026-01-22 17:34:30.99	29.25	2.62	-49.6	-64.7	3.6	1.51e+00	0	40	104	0	60	62362
2026-01-22 17:34:31.99	29.17	2.67	-49.6	-64.8	3.6	1.51e+00	0	40	104	0	60	62790
2026-01-22 17:34:33.00	29.10	2.73	-49.6	-64.6	3.6	1.51e+00	0	40	104	0	60	61301
2026-01-22 17:34:34.01	29.03	2.79	-49.5	-64.2	3.6	1.51e+00	0	40	104	0	60	58905
2026-01-22 17:34:35.02	28.96	2.85	-49.5	-64.0	3.6	1.51e+00	0	40	104	0	60	57165
2026-01-22 17:34:36.03	28.88	2.90	-49.5	-63.7	3.6	1.51e+00	0	40	104	0	60	55561
2026-01-22 17:34:37.04	28.81	2.96	-49.5	-64.3	3.6	1.51e+00	0	40	104	0	60	59216
2026-01-22 17:34:38.06	28.74	3.02	-49.5	-64.4	3.6	1.51e+00	0	40	104	0	60	60145
2026-01-22 17:34:39.06	28.66	3.07	-49.5	-63.3	3.6	1.51e+00	0	40	104	0	60	52769
2026-01-22 17:34:40.07	28.59	3.13	-49.4	-61.7	3.7	1.50e+00	0	40	104	0	60	43774
2026-01-22 17:34:41.08	28.51	3.19	-49.2	-58.2	4.9	1.03e+00	0	40	0	0	60	29349
2026-01-22 17:34:42.09	28.44	3.25	-49.6	-64.2	3.6	1.50e+00	0	40	104	0	60	58331
2026-01-22 17:34:43.10	28.36	3.30	-47.9	-53.0	5.4	1.48e+00	0	40	104	0	60	16058
2026-01-22 17:34:44.11	28.29	3.36	-49.4	-64.2	3.6	1.21e+00	0	41	104	0	60	58848
2026-01-22 17:34:45.12	28.21	3.42	-49.7	-64.0	3.6	1.51e+00	0	40	104	0	60	57550
2026-01-22 17:34:46.13	28.14	3.48	-48.6	-55.5	8.2	1.03e+00	0	40	104	0	60	21425
2026-01-22 17:34:47.14	28.06	3.53	-48.6	-55.0	8.3	4.47e-02	35	40	0	0	60	20308
2026-01-22 17:34:48.15	27.98	3.59	-47.9	-52.7	11.4	2.79e-02	0	40	0	2097152	60	15599
2026-01-22 17:34:49.16	27.91	3.65	-47.6	-51.9	12.0	5.33e-04	92	40	0	4194304	60	14219
2026-01-22 17:34:50.17	27.83	3.71	-47.6	-51.8	10.8	1.85e-03	0	40	0	6291456	60	14121
2026-01-22 17:34:51.18	27.75	3.77	-47.8	-52.4	11.0	1.50e-03	47	41	0	8388608	60	15138
2026-01-22 17:34:52.19	27.68	3.83	-47.8	-52.3	11.1	1.20e-03	0	40	0	9437184	60	14852
2026-01-22 17:34:53.20	27.60	3.88	-47.5	-51.6	12.3	7.29e-03	0	40	0	11534336	60	13684
2026-01-22 17:34:54.21	27.52	3.94	-47.4	-51.3	13.1	4.88e-05	71	40	0	13631488	60	13265
2026-01-22 17:34:55.22	27.44	4.00	-46.2	-49.1	15.0	1.50e-06	0	40	0	15728640	60	10277
2026-01-22 17:34:56.22	27.36	4.06	-46.7	-49.9	14.0	7.00e-07	68	40	0	17825792	60	11335
2026-01-22 17:34:57.23	27.28	4.12	-45.3	-47.5	16.2	0.00e+00	0	40	0	18874368	60	8586
2026-01-22 17:34:58.24	27.20	4.18	-44.9	-47.0	17.0	0.00e+00	80	40	0	20971520	60	8098
2026-01-22 17:34:59.25	27.12	4.23	-45.5	-47.9	16.1	0.00e+00	0	40	0	23068672	60	8979
2026-01-22 17:35:00.26	27.04	4.29	-44.6	-46.5	17.3	0.00e+00	0	40	0	25165824	60	7683
2026-01-22 17:35:01.26	26.96	4.35	-44.3	-46.1	17.7	0.00e+00	0	40	0	27262976	60	7329
2026-01-22 17:35:02.27	26.88	4.41	-44.3	-46.1	17.9	0.00e+00	0	40	0	28311552	60	7287
2026-01-22 17:35:03.28	26.80	4.47	-44.0	-45.8	18.2	0.00e+00	72	40	0	30408704	60	7070
2026-01-22 17:35:04.29	26.72	4.53	-43.6	-45.2	18.8	0.00e+00	0	40	0	32505856	60	6589
2026-01-22 17:35:05.30	26.63	4.59	-43.7	-45.3	18.6	0.00e+00	63	41	0	34603008	60	6664
2026-01-22 17:35:06.31	26.55	4.65	-43.5	-45.1	19.0	0.00e+00	0	41	0	36700160	60	6481
2026-01-22 17:35:07.32	26.47	4.71	-43.6	-45.2	18.9	0.00e+00	0	40	0	37748736	60	6582
2026-01-22 17:35:08.33	26.38	4.77	-43.4	-44.9	19.0	0.00e+00	0	40	0	39845888	60	6374
2026-01-22 17:35:09.34	26.30	4.82	-43.6	-45.2	18.7	0.00e+00	0	40	0	41943040	60	6585
2026-01-22 17:35:10.35	26.22	4.88	-43.8	-45.5	18.4	0.00e+00	15	40	0	44040192	60	6810
2026-01-22 17:35:11.35	26.13	4.94	-43.8	-45.4	18.7	0.00e+00	0	40	0	46137344	60	6752
2026-01-22 17:35:12.36	26.05	5.00	-43.9	-45.6	18.4	0.00e+00	63	40	0	47185920	60	6871
2026-01-22 17:35:13.37	25.96	5.06	-43.8	-45.5	18.4	0.00e+00	0	40	0	49283072	60	6808
2026-01-22 17:35:14.38	25.88	5.12	-43.7	-45.4	18.8	0.00e+00	0	40	0	51380224	60	6694
2026-01-22 17:35:15.39	25.79	5.18	-44.3	-46.2	17.9	0.00e+00	0	40	0	53477376	60	7355
2026-01-22 17:35:16.40	25.71	5.24	-44.1	-45.8	18.3	0.00e+00	0	40	0	55574528	60	7079
2026-01-22 17:35:17.41	25.62	5.30	-44.1	-45.8	18.2	0.00e+00	74	40	0	56623104	60	7078
2026-01-22 17:35:18.42	25.53	5.36	-43.7	-45.4	18.7	0.00e+00	0	41	0	58720256	60	6718
2026-01-22 17:35:19.43	25.44	5.42	-43.9	-45.7	18.5	0.00e+00	80	40	0	60817408	60	6929
2026-01-22 17:35:20.44	25.36	5.48	-44.3	-46.1	18.1	0.00e+00	0	40	0	62914560	60	7309
2026-01-22 17:35:21.45	25.27	5.54	-44.3	-46.1	18.3	0.00e+00	68	40	0	65011712	60	7291
2026-01-22 17:35:22.46	25.18	5.60	-44.1	-45.8	18.4	0.00e+00	0	40	0	66060288	60	7066
2026-01-22 17:35:23.47	25.09	5.66	-44.0	-45.7	18.3	0.00e+00	0	41	0	68157440	60	6997
2026-01-22 17:35:24.48	25.00	5.72	-44.2	-46.0	18.2	0.00e+00	0	41	0	70254592	60	7191
2026-01-22 17:35:25.48	24.91	5.78	-44.1	-45.9	18.5	0.00e+00	0	41	0	72351744	60	7101
2026-01-22 17:35:26.49	24.82	5.85	-43.9	-45.6	18.6	0.00e+00	71	41	0	74448896	60	6888
2026-01-22 17:35:27.50	24.73	5.91	-43.9	-45.7	18.4	0.00e+00	0	41	0	76546048	60	6947
2026-01-22 17:35:28.51	24.64	5.97	-44.0	-45.7	18.5	0.00e+00	76	41	0	77594624	60	6969
2026-01-22 17:35:29.52	24.55	6.03	-43.8	-45.5	18.5	0.00e+00	0	40	0	79691776	60	6826
2026-01-22 17:35:30.52	24.46	6.09	-43.9	-45.6	18.6	0.00e+00	0	40	0	81788928	60	6853
2026-01-22 17:35:31.54	24.37	6.15	-43.9	-45.6	18.6	0.00e+00	0	41	0	83886080	60	6895
2026-01-22 17:35:32.54	24.28	6.21	-43.6	-45.2	18.9	0.00e+00	0	41	0	85983232	60	6608
2026-01-22 17:35:33.56	24.18	6.27	-43.7	-45.2	19.0	0.00e+00	60	41	0	87031808	60	6613
2026-01-22 17:35:34.56	24.09	6.33	-43.5	-45.1	19.2	0.00e+00	0	41	0	89128960	60	6477
2026-01-22 17:35:35.57	24.00	6.39	-43.5	-45.1	19.3	0.00e+00	92	40	0	91226112	60	6475
2026-01-22 17:35:36.58	23.90	6.46	-43.6	-45.1	19.0	0.00e+00	0	41	0	93323264	60	6529
2026-01-22 17:35:37.59	23.81	6.52	-43.6	-45.2	19.1	0.00e+00	0	41	0	95420416	60	6586
2026-01-22 17:35:38.60	23.71	6.58	-43.3	-44.8	19.5	0.00e+00	0	41	0	96468992	60	6263
2026-01-22 17:35:39.61	23.62	6.64	-43.3	-44.8	19.4	0.00e+00	0	41	0	98566144	60	6259
2026-01-22 17:35:40.62	23.52	6.70	-43.2	-44.7	19.5	0.00e+00	68	41	0	100663296	60	6207
2026-01-22 17:35:41.63	23.43	6.76	-43.2	-44.7	19.5	0.00e+00	0	41	0	102760448	60	6216
2026-01-22 17:35:42.63	23.33	6.83	-42.8	-44.2	19.9	0.00e+00	90	41	0	104857600	60	5867
2026-01-22 17:35:43.64	23.23	6.89	-43.1	-44.6	19.5	0.00e+00	0	41	0	105906176	60	6116
2026-01-22 17:35:44.65	23.14	6.95	-43.0	-44.4	19.8	0.00e+00	0	41	0	108003328	60	6017
2026-01-22 17:35:45.66	23.04	7.01	-42.9	-44.3	19.9	0.00e+00	0	41	0	110100480	60	5907
2026-01-22 17:35:46.67	22.94	7.07	-42.8	-44.1	20.0	0.00e+00	0	40	0	112197632	60	5816
2026-01-22 17:35:47.68	22.84	7.14	-42.9	-44.3	19.9	0.00e+00	0	40	0	114294784	60	5953
2026-01-22 17:35:48.69	22.74	7.20	-42.6	-44.0	20.2	0.00e+00	0	41	0	115343360	58	6404
2026-01-22 17:35:49.70	22.64	7.26	-42.8	-44.1	20.1	0.00e+00	92	41	0	117440512	58	6512
2026-01-22 17:35:50.71	22.54	7.32	-42.6	-43.9	20.4	0.00e+00	0	40	0	119537664	58	6339
2026-01-22 17:35:51.72	22.44	7.38	-42.5	-43.8	20.1	0.00e+00	0	40	0	121634816	58	6311
2026-01-22 17:35:52.73	22.34	7.45	-42.6	-44.0	20.1	0.00e+00	0	41	0	123731968	58	6394
2026-01-22 17:35:53.74	22.24	7.51	-42.3	-43.6	20.5	0.00e+00	0	41	0	124780544	58	6123
2026-01-22 17:35:54.75	22.14	7.57	-42.7	-44.0	20.2	0.00e+00	49	40	0	126877696	58	6435
2026-01-22 17:35:55.76	22.04	7.64	-42.7	-44.0	20.1	0.00e+00	0	41	0	128974848	58	6437
2026-01-22 17:35:56.77	21.93	7.70	-42.6	-44.0	20.2	0.00e+00	92	41	0	131072000	58	6396
2026-01-22 17:35:57.78	21.83	7.76	-42.7	-44.1	20.1	0.00e+00	0	40	0	133169152	58	6469
2026-01-22 17:35:58.79	21.73	7.82	-42.5	-43.8	20.3	0.00e+00	42	41	0	134217728	58	6317
2026-01-22 17:35:59.80	21.62	7.89	-42.5	-43.9	20.3	0.00e+00	0	41	0	136314880	58	6325
2026-01-22 17:36:00.80	21.52	7.95	-42.8	-44.1	20.1	0.00e+00	0	41	0	138412032	58	6503
2026-01-22 17:36:01.81	21.41	8.01	-42.8	-44.2	20.0	0.00e+00	17	41	0	140509184	58	6554
2026-01-22 17:36:02.82	21.31	8.08	-42.8	-44.2	20.0	0.00e+00	0	41	0	142606336	58	6560
2026-01-22 17:36:03.83	21.20	8.14	-42.8	-44.2	20.0	0.00e+00	81	41	0	144703488	58	6579
2026-01-22 17:36:04.84	21.10	8.20	-43.1	-44.5	19.8	0.00e+00	0	41	0	145752064	58	6799
2026-01-22 17:36:05.85	20.99	8.27	-43.0	-44.4	19.9	0.00e+00	79	41	0	147849216	58	6739
2026-01-22 17:36:06.86	20.88	8.33	-42.9	-44.3	19.9	0.00e+00	0	41	0	149946368	58	6639
2026-01-22 17:36:07.87	20.77	8.39	-43.3	-44.7	19.6	0.00e+00	0	41	0	152043520	58	6996
2026-01-22 17:36:08.88	20.67	8.46	-43.4	-44.8	19.5	0.00e+00	0	41	0	153092096	58	7086
2026-01-22 17:36:09.89	20.56	8.52	-43.3	-44.7	19.5	0.00e+00	0	41	0	155189248	58	6999
2026-01-22 17:36:10.90	20.45	8.58	-43.1	-44.5	19.8	0.00e+00	73	41	0	157286400	58	6809
2026-01-22 17:36:11.91	20.34	8.65	-43.4	-44.8	19.5	0.00e+00	0	41	0	159383552	58	7074
2026-01-22 17:36:12.92	20.23	8.71	-43.3	-44.8	19.4	0.00e+00	76	41	0	161480704	58	7032
2026-01-22 17:36:13.93	20.12	8.77	-43.3	-44.8	19.6	0.00e+00	0	41	0	162529280	58	7062
2026-01-22 17:36:14.94	20.01	8.84	-43.1	-44.5	19.7	0.00e+00	0	41	0	164626432	58	6848
2026-01-22 17:36:15.95	19.89	8.90	-43.1	-44.5	19.7	0.00e+00	0	41	0	166723584	58	6835
2026-01-22 17:36:16.96	19.78	8.97	-43.0	-44.3	19.7	0.00e+00	0	41	0	168820736	58	6674
2026-01-22 17:36:17.97	19.67	9.03	-42.7	-44.1	19.9	0.00e+00	7	41	0	170917888	58	6466
2026-01-22 17:36:18.98	19.55	9.09	-43.0	-44.3	19.9	0.00e+00	0	41	0	173015040	58	6670
2026-01-22 17:36:19.99	19.44	9.16	-42.7	-43.9	20.3	0.00e+00	79	41	0	174063616	58	6382
2026-01-22 17:36:21.00	19.33	9.22	-42.8	-44.1	20.1	0.00e+00	0	41	0	176160768	58	6525
2026-01-22 17:36:22.00	19.21	9.29	-42.5	-43.8	20.4	0.00e+00	0	41	0	178257920	58	6285
2026-01-22 17:36:23.01	19.10	9.35	-42.7	-44.0	20.3	0.00e+00	0	41	0	180355072	58	6414
2026-01-22 17:36:24.02	18.98	9.42	-42.7	-44.0	20.4	0.00e+00	0	41	0	182452224	58	6422
2026-01-22 17:36:25.03	18.86	9.48	-42.7	-44.1	20.2	0.00e+00	75	41	0	183500800	58	6472
2026-01-22 17:36:26.04	18.75	9.54	-42.6	-43.9	20.3	0.00e+00	0	41	0	185597952	58	6369
2026-01-22 17:36:27.05	18.63	9.61	-42.8	-44.2	20.2	0.00e+00	74	41	0	187695104	58	6551
2026-01-22 17:36:28.06	18.51	9.67	-42.5	-43.8	20.4	0.00e+00	0	41	0	189792256	58	6275
2026-01-22 17:36:29.05	18.40	9.74	-42.7	-44.1	20.2	0.00e+00	0	41	0	191889408	58	6473
2026-01-22 17:36:30.06	18.28	9.80	-42.9	-44.2	20.1	0.00e+00	0	41	0	192937984	58	6600
2026-01-22 17:36:31.07	18.16	9.87	-42.8	-44.1	20.2	0.00e+00	0	41	0	195035136	58	6512
2026-01-22 17:36:32.08	18.04	9.93	-42.6	-43.9	20.3	0.00e+00	0	41	0	197132288	58	6370
2026-01-22 17:36:33.09	17.92	10.00	-42.7	-44.0	20.2	0.00e+00	0	41	0	199229440	58	6460
2026-01-22 17:36:34.09	17.80	10.06	-42.6	-43.9	20.3	0.00e+00	41	41	0	201326592	58	6350
2026-01-22 17:36:35.10	17.67	10.13	-42.8	-44.1	20.2	0.00e+00	0	41	0	202375168	58	6533
2026-01-22 17:36:36.11	17.55	10.19	-42.7	-44.1	20.3	0.00e+00	45	41	0	204472320	58	6477
2026-01-22 17:36:37.12	17.43	10.26	-43.0	-44.4	20.0	0.00e+00	0	41	0	206569472	58	6748
2026-01-22 17:36:38.13	17.30	10.32	-42.8	-44.2	20.1	0.00e+00	0	41	0	208666624	58	6597
2026-01-22 17:36:39.14	17.18	10.39	-42.7	-44.0	20.3	0.00e+00	0	41	0	210763776	58	6428
2026-01-22 17:36:40.15	17.06	10.45	-42.5	-43.9	20.4	0.00e+00	0	41	0	211812352	58	6329
2026-01-22 17:36:41.16	16.93	10.52	-42.5	-43.8	20.5	0.00e+00	57	41	0	213909504	58	6263
2026-01-22 17:36:42.17	16.80	10.58	-42.3	-43.6	20.6	0.00e+00	0	41	0	216006656	58	6146
2026-01-22 17:36:43.18	16.68	10.65	-42.4	-43.7	20.5	0.00e+00	91	41	0	218103808	58	6231
2026-01-22 17:36:44.18	16.55	10.71	-42.2	-43.4	20.8	0.00e+00	33	41	0	220200960	58	5999
2026-01-22 17:36:45.19	16.42	10.78	-42.4	-43.7	20.6	0.00e+00	0	41	0	221249536	58	6195
2026-01-22 17:36:46.20	16.30	10.84	-42.2	-43.4	20.9	0.00e+00	0	41	0	223346688	58	5995
2026-01-22 17:36:47.21	16.17	10.91	-42.3	-43.6	20.7	0.00e+00	0	41	0	225443840	58	6147
2026-01-22 17:36:48.22	16.04	10.97	-42.2	-43.5	20.7	0.00e+00	68	41	0	227540992	58	6070
2026-01-22 17:36:49.23	15.91	11.04	-42.1	-43.3	21.0	0.00e+00	0	41	0	229638144	58	5929
2026-01-22 17:36:50.24	15.78	11.10	-42.0	-43.2	21.1	0.00e+00	92	41	0	230686720	58	5832
2026-01-22 17:36:51.25	15.65	11.17	-41.8	-43.0	21.3	0.00e+00	33	41	0	232783872	58	5709
2026-01-22 17:36:52.26	15.51	11.23	-41.7	-42.9	21.4	0.00e+00	0	41	0	234881024	56	6346
2026-01-22 17:36:53.27	15.38	11.30	-41.7	-42.9	21.4	0.00e+00	0	41	0	236978176	56	6329
2026-01-22 17:36:54.28	15.25	11.37	-41.8	-43.0	21.2	0.00e+00	0	41	0	239075328	56	6411
2026-01-22 17:36:55.29	15.12	11.43	-41.7	-42.9	21.3	0.00e+00	65	41	0	241172480	56	6337
2026-01-22 17:36:56.30	14.98	11.50	-41.8	-43.0	21.3	0.00e+00	0	41	0	242221056	56	6400
2026-01-22 17:36:57.30	14.85	11.56	-41.9	-43.0	21.2	0.00e+00	92	41	0	244318208	56	6463
2026-01-22 17:36:58.31	14.71	11.63	-42.0	-43.2	21.0	0.00e+00	0	41	0	246415360	56	6579
2026-01-22 17:36:59.32	14.58	11.69	-42.1	-43.3	21.1	0.00e+00	0	41	0	248512512	56	6628
2026-01-22 17:37:00.33	14.44	11.76	-42.0	-43.1	21.2	0.00e+00	0	41	0	250609664	56	6532
2026-01-22 17:37:01.34	14.30	11.82	-42.0	-43.2	21.0	0.00e+00	0	41	0	251658240	56	6585
2026-01-22 17:37:02.35	14.16	11.89	-42.2	-43.4	20.9	0.00e+00	25	41	0	253755392	56	6741
2026-01-22 17:37:03.36	14.03	11.96	-42.2	-43.5	20.9	0.00e+00	0	41	0	255852544	56	6784
2026-01-22 17:37:04.37	13.89	12.02	-42.2	-43.5	20.9	0.00e+00	91	41	0	257949696	56	6776
2026-01-22 17:37:05.38	13.75	12.09	-42.1	-43.3	21.0	0.00e+00	0	41	0	260046848	56	6679
2026-01-22 17:37:06.38	13.61	12.15	-42.3	-43.6	20.7	0.00e+00	75	41	0	261095424	56	6918
2026-01-22 17:37:07.39	13.47	12.22	-42.2	-43.4	20.8	0.00e+00	0	41	0	263192576	56	6750
2026-01-22 17:37:08.40	13.32	12.28	-42.3	-43.6	20.3	0.00e+00	0	41	0	265289728	56	6849
2026-01-22 17:37:09.41	13.18	12.35	-42.2	-43.5	20.6	0.00e+00	17	41	0	267386880	56	6802
2026-01-22 17:37:10.42	13.04	12.42	-42.2	-43.4	20.9	0.00e+00	0	41	0	269484032	56	6716
2026-01-22 17:37:11.43	12.90	12.48	-41.9	-43.1	21.2	0.00e+00	92	41	0	270532608	56	6503
2026-01-22 17:37:12.44	12.75	12.55	-41.8	-43.0	21.3	0.00e+00	0	41	0	272629760	56	6393
2026-01-22 17:37:13.46	12.60	12.61	-41.8	-42.9	21.4	0.00e+00	92	41	0	274726912	56	6370
2026-01-22 17:37:14.46	12.46	12.68	-41.9	-43.0	21.4	0.00e+00	0	41	0	276824064	56	6452
2026-01-22 17:37:15.47	12.31	12.74	-41.9	-43.1	21.2	0.00e+00	0	41	0	278921216	56	6474
2026-01-22 17:37:16.48	12.17	12.81	-42.1	-43.3	21.1	0.00e+00	0	41	0	279969792	56	6649
2026-01-22 17:37:17.49	12.02	12.88	-42.2	-43.5	20.9	0.00e+00	0	41	0	282066944	56	6787
2026-01-22 17:37:18.50	11.87	12.94	-41.9	-43.0	21.2	0.00e+00	0	41	0	284164096	56	6453
2026-01-22 17:37:19.51	11.72	13.01	-41.8	-42.9	21.3	0.00e+00	0	41	0	286261248	56	6342
2026-01-22 17:37:20.52	11.57	13.07	-41.8	-43.0	21.2	0.00e+00	71	41	0	288358400	56	6394
2026-01-22 17:37:21.53	11.42	13.14	-42.0	-43.2	21.3	0.00e+00	0	41	0	289406976	56	6561
2026-01-22 17:37:22.54	11.27	13.20	-41.8	-42.9	21.5	0.00e+00	0	41	0	291504128	56	6355
2026-01-22 17:37:23.55	11.12	13.27	-41.8	-42.9	21.6	0.00e+00	0	41	0	293601280	56	6353
2026-01-22 17:37:24.56	10.97	13.33	-41.8	-43.0	21.2	0.00e+00	0	41	0	295698432	56	6419
2026-01-22 17:37:25.57	10.81	13.40	-42.0	-43.2	21.2	0.00e+00	25	41	0	297795584	56	6595
2026-01-22 17:37:26.58	10.66	13.47	-42.0	-43.2	21.0	0.00e+00	0	41	0	298844160	56	6600
2026-01-22 17:37:27.59	10.50	13.53	-42.5	-43.8	20.7	0.00e+00	75	41	0	300941312	56	7040
2026-01-22 17:37:28.60	10.35	13.60	-42.3	-43.6	20.8	0.00e+00	0	41	0	303038464	56	6859
2026-01-22 17:37:29.61	10.19	13.66	-42.5	-43.8	20.6	0.00e+00	0	41	0	305135616	56	7073
2026-01-22 17:37:30.62	10.04	13.73	-42.3	-43.5	21.0	0.00e+00	0	41	0	307232768	56	6784
2026-01-22 17:37:31.63	9.88	13.79	-42.6	-43.8	20.7	0.00e+00	0	41	0	309329920	56	7087
2026-01-22 17:37:32.64	9.72	13.86	-42.5	-43.8	20.6	0.00e+00	73	41	0	310378496	56	7043
2026-01-22 17:37:33.64	9.56	13.92	-42.5	-43.8	20.4	0.00e+00	0	41	0	312475648	58	6286
2026-01-22 17:37:34.65	9.40	13.99	-42.6	-43.9	20.6	0.00e+00	72	41	0	314572800	58	6333
2026-01-22 17:37:35.66	9.24	14.05	-42.8	-44.2	20.4	0.00e+00	0	41	0	316669952	58	6547
2026-01-22 17:37:36.67	9.08	14.12	-42.5	-43.8	20.8	0.00e+00	0	41	0	318767104	58	6281
2026-01-22 17:37:37.68	8.92	14.18	-42.1	-43.3	21.0	0.00e+00	0	41	0	319815680	58	5926
2026-01-22 17:37:38.69	8.76	14.25	-41.9	-43.1	21.3	0.00e+00	0	41	0	321912832	58	5788
2026-01-22 17:37:39.70	8.60	14.31	-42.0	-43.1	21.2	0.00e+00	0	41	0	324009984	58	5805
2026-01-22 17:37:40.71	8.43	14.38	-41.9	-43.0	21.4	0.00e+00	0	41	0	326107136	58	5739
2026-01-22 17:37:41.72	8.27	14.44	-42.0	-43.2	21.2	0.00e+00	75	41	0	328204288	58	5868
2026-01-22 17:37:42.73	8.10	14.51	-42.2	-43.4	21.0	0.00e+00	0	41	0	329252864	58	6023
2026-01-22 17:37:43.74	7.94	14.57	-42.5	-43.7	20.7	0.00e+00	79	41	0	331350016	58	6230
2026-01-22 17:37:44.75	7.77	14.64	-42.4	-43.7	20.8	0.00e+00	0	41	0	333447168	58	6193
2026-01-22 17:37:45.76	7.60	14.70	-42.5	-43.7	20.7	0.00e+00	0	41	0	335544320	58	6234
2026-01-22 17:37:46.77	7.43	14.77	-42.1	-43.3	21.1	0.00e+00	0	41	0	337641472	58	5900
2026-01-22 17:37:47.78	7.26	14.83	-41.9	-43.1	21.2	0.00e+00	0	41	0	338690048	58	5764
2026-01-22 17:37:48.79	7.10	14.89	-41.7	-42.8	21.6	0.00e+00	73	41	0	340787200	56	6280
2026-01-22 17:37:49.80	6.92	14.96	-41.8	-42.9	21.6	0.00e+00	0	41	0	342884352	56	6379
2026-01-22 17:37:50.81	6.75	15.02	-42.0	-43.1	21.3	0.00e+00	92	41	0	344981504	56	6536
2026-01-22 17:37:51.82	6.58	15.09	-42.3	-43.5	20.9	0.00e+00	0	41	0	347078656	56	6779
2026-01-22 17:37:52.83	6.41	15.15	-42.3	-43.5	21.0	0.00e+00	0	41	0	348127232	56	6820
2026-01-22 17:37:53.84	6.24	15.21	-42.5	-43.7	20.8	0.00e+00	0	41	0	350224384	56	6979
2026-01-22 17:37:54.85	6.06	15.28	-42.2	-43.4	21.1	0.00e+00	0	41	0	352321536	56	6730
2026-01-22 17:37:55.86	5.89	15.34	-42.2	-43.4	21.1	0.00e+00	0	41	0	354418688	56	6704
2026-01-22 17:37:56.86	5.71	15.40	-42.2	-43.4	21.2	0.00e+00	0	41	0	356515840	56	6699
2026-01-22 17:37:57.87	5.54	15.47	-42.4	-43.7	20.9	0.00e+00	84	41	0	357564416	56	6952
2026-01-22 17:37:58.88	5.36	15.53	-42.6	-43.9	20.7	0.00e+00	0	41	0	359661568	58	6354
2026-01-22 17:37:59.89	5.18	15.59	-42.9	-44.2	20.3	0.00e+00	0	41	0	361758720	58	6589
2026-01-22 17:38:00.90	5.00	15.66	-43.2	-44.7	20.0	0.00e+00	0	41	0	363855872	58	6930
2026-01-22 17:38:01.91	4.82	15.72	-43.0	-44.4	20.1	0.00e+00	0	41	0	365953024	58	6755
2026-01-22 17:38:02.92	4.64	15.78	-42.9	-44.3	20.3	0.00e+00	73	41	0	367001600	58	6642
2026-01-22 17:38:03.93	4.46	15.85	-42.8	-44.2	20.1	0.00e+00	0	41	0	369098752	58	6558
2026-01-22 17:38:04.94	4.28	15.91	-42.6	-43.9	20.8	0.00e+00	79	41	0	371195904	58	6379
2026-01-22 17:38:05.95	4.10	15.97	-42.5	-43.9	20.7	0.00e+00	0	41	0	373293056	58	6327
2026-01-22 17:38:06.96	3.91	16.03	-42.0	-43.2	21.2	0.00e+00	0	41	0	375390208	58	5880
2026-01-22 17:38:07.97	3.73	16.09	-42.3	-43.6	21.0	0.00e+00	0	41	0	377487360	58	6135
2026-01-22 17:38:08.98	3.54	16.16	-42.2	-43.4	21.2	0.00e+00	0	41	0	378535936	58	6012
2026-01-22 17:38:09.99	3.36	16.22	-42.0	-43.2	21.2	0.00e+00	0	41	0	380633088	58	5872
2026-01-22 17:38:11.00	3.17	16.28	-42.2	-43.5	21.1	0.00e+00	0	41	0	382730240	58	6044
2026-01-22 17:38:12.01	2.98	16.34	-41.5	-42.6	21.9	0.00e+00	80	41	0	384827392	56	6125
2026-01-22 17:38:13.02	2.79	16.40	-41.3	-42.4	22.1	0.00e+00	0	41	0	386924544	56	6005
2026-01-22 17:38:14.03	2.61	16.46	-40.6	-41.6	22.6	0.00e+00	0	41	0	387973120	54	6136
2026-01-22 17:38:15.04	2.42	16.53	-40.6	-41.6	22.5	0.00e+00	0	41	0	390070272	54	6160
2026-01-22 17:38:16.04	2.23	16.59	-40.9	-41.9	22.3	0.00e+00	0	41	0	392167424	54	6384
2026-01-22 17:38:17.05	2.04	16.65	-40.9	-41.9	22.3	0.00e+00	0	41	0	394264576	54	6367
2026-01-22 17:38:18.06	1.84	16.71	-40.9	-42.0	22.3	0.00e+00	0	41	0	396361728	54	6416
2026-01-22 17:38:19.07	1.65	16.77	-41.0	-42.0	22.2	0.00e+00	47	41	0	397410304	54	6443
2026-01-22 17:38:20.08	1.46	16.83	-40.9	-41.9	22.3	0.00e+00	0	41	0	399507456	54	6338
2026-01-22 17:38:21.09	1.26	16.89	-40.5	-41.5	22.7	0.00e+00	92	41	0	401604608	54	6084
2026-01-22 17:38:22.10	1.07	16.95	-40.5	-41.5	22.6	0.00e+00	0	41	0	403701760	54	6076
2026-01-22 17:38:23.11	0.87	17.01	-40.6	-41.7	22.6	0.00e+00	0	41	0	405798912	54	6193
2026-01-22 17:38:24.12	0.68	17.07	-40.5	-41.5	22.7	0.00e+00	0	41	0	406847488	54	6079
2026-01-22 17:38:25.13	0.48	17.12	-40.8	-41.8	22.4	0.00e+00	0	41	0	408944640	54	6299
2026-01-22 17:38:26.14	0.28	17.18	-40.8	-41.9	22.3	0.00e+00	53	41	0	411041792	54	6353
2026-01-22 17:38:27.15	0.08	17.24	-40.4	-41.4	22.7	0.00e+00	0	41	0	413138944	54	6032
2026-01-22 17:38:28.16	359.88	17.30	-40.3	-41.3	22.9	0.00e+00	92	41	0	415236096	54	5950
2026-01-22 17:38:29.17	359.68	17.36	-39.8	-40.8	22.8	0.00e+00	0	41	0	416284672	54	5577
2026-01-22 17:38:30.18	359.48	17.42	-39.7	-40.6	23.3	0.00e+00	0	41	0	418381824	52	6156
2026-01-22 17:38:31.19	359.28	17.47	-39.9	-40.8	23.3	0.00e+00	33	41	0	420478976	52	6312
2026-01-22 17:38:32.20	359.07	17.53	-40.1	-41.1	23.1	0.00e+00	0	41	0	422576128	52	6472
2026-01-22 17:38:33.21	358.87	17.59	-39.9	-40.9	23.1	0.00e+00	79	41	0	424673280	52	6330
2026-01-22 17:38:34.22	358.67	17.65	-40.1	-41.1	23.0	0.00e+00	0	41	0	425721856	52	6488
2026-01-22 17:38:35.23	358.46	17.70	-39.9	-40.8	23.2	0.00e+00	92	41	0	427819008	52	6303
2026-01-22 17:38:36.23	358.26	17.76	-39.9	-40.8	23.3	0.00e+00	0	41	0	429916160	52	6270
2026-01-22 17:38:37.24	358.05	17.82	-39.7	-40.6	23.4	0.00e+00	0	41	0	432013312	52	6128
2026-01-22 17:38:38.25	357.84	17.87	-39.7	-40.7	23.3	0.00e+00	0	41	0	434110464	52	6174
2026-01-22 17:38:39.26	357.63	17.93	-39.8	-40.7	23.2	0.00e+00	0	41	0	435159040	52	6198
2026-01-22 17:38:40.27	357.42	17.98	-40.5	-41.5	22.7	0.00e+00	79	41	0	437256192	52	6772
2026-01-22 17:38:41.28	357.21	18.04	-40.5	-41.5	22.8	0.00e+00	0	41	0	439353344	52	6788
2026-01-22 17:38:42.29	357.00	18.09	-40.0	-40.9	23.1	0.00e+00	92	41	0	441450496	52	6390
2026-01-22 17:38:43.30	356.79	18.15	-40.1	-41.1	23.1	0.00e+00	0	41	0	443547648	52	6483
2026-01-22 17:38:44.31	356.58	18.20	-40.0	-40.9	23.3	0.00e+00	0	41	0	444596224	52	6367
2026-01-22 17:38:45.32	356.37	18.26	-39.8	-40.7	23.3	0.00e+00	0	41	0	446693376	52	6188
2026-01-22 17:38:46.33	356.15	18.31	-40.0	-41.0	22.7	0.00e+00	0	41	0	448790528	52	6398
2026-01-22 17:38:47.34	355.94	18.36	-40.2	-41.2	22.9	0.00e+00	57	41	0	450887680	52	6553
2026-01-22 17:38:48.35	355.72	18.42	-40.3	-41.3	22.8	0.00e+00	0	41	0	452984832	52	6668
2026-01-22 17:38:49.36	355.50	18.47	-40.4	-41.4	22.7	0.00e+00	77	41	0	454033408	52	6760
2026-01-22 17:38:50.36	355.29	18.52	-40.2	-41.3	22.8	0.00e+00	0	41	0	456130560	52	6616
2026-01-22 17:38:51.37	355.07	18.58	-40.0	-41.0	23.1	0.00e+00	0	41	0	458227712	52	6411
2026-01-22 17:38:52.39	354.85	18.63	-39.9	-40.8	23.1	0.00e+00	0	41	0	460324864	52	6311
2026-01-22 17:38:53.39	354.63	18.68	-39.6	-40.6	23.5	0.00e+00	0	41	0	462422016	52	6106
2026-01-22 17:38:54.40	354.41	18.73	-39.7	-40.6	23.4	0.00e+00	0	41	0	463470592	52	6172
2026-01-22 17:38:55.41	354.19	18.78	-39.9	-40.8	23.2	0.00e+00	0	41	0	465567744	52	6302
2026-01-22 17:38:56.42	353.97	18.83	-40.1	-41.0	23.1	0.00e+00	92	41	0	467664896	52	6446
2026-01-22 17:38:57.43	353.75	18.88	-40.1	-41.0	23.0	0.00e+00	0	41	0	469762048	52	6461
2026-01-22 17:38:58.44	353.53	18.93	-39.8	-40.7	23.3	0.00e+00	74	41	0	471859200	52	6202
2026-01-22 17:38:59.45	353.30	18.98	-39.5	-40.5	23.5	0.00e+00	0	41	0	473956352	52	6037
2026-01-22 17:39:00.46	353.08	19.03	-39.3	-40.1	23.8	0.00e+00	0	41	0	475004928	52	5807
2026-01-22 17:39:01.47	352.85	19.08	-39.0	-39.8	24.0	0.00e+00	0	41	0	477102080	52	5603
2026-01-22 17:39:02.48	352.63	19.13	-38.8	-39.6	24.2	0.00e+00	0	41	0	479199232	52	5466
2026-01-22 17:39:03.49	352.40	19.18	-38.9	-39.7	24.0	0.00e+00	3	41	0	481296384	50	6213
2026-01-22 17:39:04.50	352.17	19.22	-38.8	-39.7	24.1	0.00e+00	0	41	0	483393536	50	6182
2026-01-22 17:39:05.50	351.95	19.27	-39.0	-39.9	23.9	0.00e+00	82	41	0	484442112	50	6318
2026-01-22 17:39:06.51	351.72	19.32	-38.8	-39.7	24.0	0.00e+00	0	41	0	486539264	50	6180
2026-01-22 17:39:07.52	351.49	19.36	-38.7	-39.6	24.2	0.00e+00	0	41	0	488636416	50	6104
2026-01-22 17:39:08.53	351.26	19.41	-38.8	-39.6	24.1	0.00e+00	0	41	0	490733568	50	6132
2026-01-22 17:39:09.54	351.03	19.46	-39.1	-40.0	23.8	0.00e+00	0	41	0	492830720	50	6431
2026-01-22 17:39:10.55	350.80	19.50	-39.4	-40.3	23.5	0.00e+00	74	41	0	493879296	50	6662
2026-01-22 17:39:11.56	350.56	19.55	-39.7	-40.6	23.4	0.00e+00	0	41	0	495976448	50	6906
2026-01-22 17:39:12.57	350.33	19.59	-39.9	-40.9	23.2	0.00e+00	57	41	0	498073600	52	6335
2026-01-22 17:39:13.58	350.10	19.64	-39.9	-40.9	23.2	0.00e+00	0	41	0	500170752	52	6322
2026-01-22 17:39:14.59	349.86	19.68	-39.6	-40.5	23.5	0.00e+00	0	41	0	502267904	52	6082
2026-01-22 17:39:15.60	349.63	19.72	-39.4	-40.3	23.8	0.00e+00	0	41	0	503316480	52	5915
2026-01-22 17:39:16.61	349.39	19.77	-39.2	-40.1	23.9	0.00e+00	0	41	0	505413632	52	5771
2026-01-22 17:39:17.62	349.16	19.81	-39.4	-40.3	23.7	0.00e+00	24	41	0	507510784	52	5932
2026-01-22 17:39:18.63	348.92	19.85	-39.5	-40.5	23.6	0.00e+00	0	41	0	509607936	52	6052
2026-01-22 17:39:19.64	348.68	19.89	-39.7	-40.6	23.3	0.00e+00	82	41	0	511705088	52	6169
2026-01-22 17:39:20.64	348.45	19.93	-39.5	-40.4	23.5	0.00e+00	0	41	0	512753664	52	6010
2026-01-22 17:39:21.65	348.21	19.97	-39.4	-40.3	23.3	0.00e+00	22	41	0	514850816	52	5936
2026-01-22 17:39:22.66	347.97	20.01	-39.5	-40.5	23.3	0.00e+00	0	41	0	516947968	52	6036
2026-01-22 17:39:23.67	347.73	20.05	-39.3	-40.2	23.7	0.00e+00	0	41	0	519045120	52	5865
2026-01-22 17:39:24.68	347.49	20.09	-39.2	-40.1	23.7	0.00e+00	0	41	0	521142272	52	5766
2026-01-22 17:39:25.69	347.24	20.13	-39.4	-40.3	23.8	0.00e+00	0	41	0	522190848	52	5910
2026-01-22 17:39:26.70	347.00	20.17	-39.3	-40.2	23.8	0.00e+00	77	41	0	524288000	52	5878
2026-01-22 17:39:27.71	346.76	20.21	-39.2	-40.1	24.0	0.00e+00	0	41	0	526385152	52	5778
2026-01-22 17:39:28.72	346.52	20.24	-39.0	-39.9	24.0	0.00e+00	0	41	0	528482304	52	5631
2026-01-22 17:39:29.73	346.27	20.28	-38.8	-39.7	24.1	0.00e+00	0	41	0	530579456	52	5511
2026-01-22 17:39:30.74	346.03	20.32	-38.9	-39.8	24.1	0.00e+00	0	41	0	531628032	50	6255
2026-01-22 17:39:31.75	345.78	20.35	-38.9	-39.8	24.0	0.00e+00	0	41	0	533725184	50	6268
2026-01-22 17:39:32.75	345.54	20.39	-39.0	-39.8	23.8	0.00e+00	0	41	0	535822336	50	6305
2026-01-22 17:39:33.76	345.29	20.42	-39.2	-40.0	24.0	0.00e+00	76	41	0	537919488	50	6463
2026-01-22 17:39:34.77	345.05	20.46	-39.2	-40.0	23.8	0.00e+00	0	41	0	540016640	50	6441
2026-01-22 17:39:35.78	344.80	20.49	-39.3	-40.2	23.7	0.00e+00	92	41	0	542113792	50	6580
2026-01-22 17:39:36.79	344.55	20.52	-39.4	-40.2	23.8	0.00e+00	0	41	0	543162368	50	6608
2026-01-22 17:39:37.80	344.30	20.56	-39.2	-40.0	23.9	0.00e+00	0	41	0	545259520	50	6440
2026-01-22 17:39:38.81	344.05	20.59	-39.4	-40.3	23.7	0.00e+00	0	41	0	547356672	50	6662
2026-01-22 17:39:39.82	343.80	20.62	-39.8	-40.7	23.5	0.00e+00	0	41	0	549453824	52	6213
2026-01-22 17:39:40.83	343.55	20.65	-39.8	-40.7	23.2	0.00e+00	72	41	0	551550976	52	6210
2026-01-22 17:39:41.84	343.30	20.68	-40.3	-41.3	22.9	0.00e+00	0	41	0	552599552	52	6622
2026-01-22 17:39:42.85	343.05	20.71	-40.3	-41.3	22.8	0.00e+00	83	41	0	554696704	52	6625
2026-01-22 17:39:43.86	342.80	20.74	-40.4	-41.4	22.5	0.00e+00	0	41	0	556793856	52	6728
2026-01-22 17:39:44.87	342.55	20.77	-40.7	-41.7	22.7	0.00e+00	0	41	0	558891008	52	6931
2026-01-22 17:39:45.88	342.30	20.80	-40.5	-41.5	22.7	0.00e+00	0	41	0	560988160	52	6802
2026-01-22 17:39:46.89	342.04	20.83	-40.6	-41.6	22.7	0.00e+00	0	41	0	562036736	52	6896
2026-01-22 17:39:47.90	341.79	20.86	-40.7	-41.7	22.6	0.00e+00	0	41	0	564133888	52	6967
2026-01-22 17:39:48.91	341.54	20.88	-40.9	-41.9	22.4	0.00e+00	0	41	0	566231040	54	6358
2026-01-22 17:39:49.92	341.28	20.91	-41.2	-42.3	22.1	0.00e+00	92	41	0	568328192	54	6636
2026-01-22 17:39:50.93	341.03	20.93	-41.5	-42.6	21.8	0.00e+00	0	41	0	570425344	54	6872
2026-01-22 17:39:51.94	340.77	20.96	-41.5	-42.6	22.0	0.00e+00	0	41	0	571473920	54	6885
2026-01-22 17:39:52.94	340.52	20.98	-41.1	-42.1	22.2	0.00e+00	0	41	0	573571072	54	6501
2026-01-22 17:39:53.95	340.26	21.01	-40.9	-42.0	22.2	0.00e+00	0	41	0	575668224	54	6398
2026-01-22 17:39:54.96	340.01	21.03	-40.9	-41.9	22.2	0.00e+00	57	41	0	577765376	54	6374
2026-01-22 17:39:55.97	339.75	21.05	-40.7	-41.7	22.4	0.00e+00	0	41	0	579862528	54	6241
2026-01-22 17:39:56.99	339.49	21.07	-41.1	-42.2	22.2	0.00e+00	79	41	0	580911104	54	6553
2026-01-22 17:39:58.00	339.23	21.10	-41.4	-42.5	22.0	0.00e+00	0	41	0	583008256	54	6780
2026-01-22 17:39:59.01	338.97	21.12	-41.6	-42.8	21.5	0.00e+00	57	41	0	585105408	54	7011
2026-01-22 17:40:00.01	338.72	21.14	-42.2	-43.5	21.4	0.00e+00	0	41	0	587202560	56	6774
2026-01-22 17:40:01.03	338.46	21.16	-42.5	-43.8	20.8	0.00e+00	0	41	0	589299712	58	6315
2026-01-22 17:40:02.04	338.20	21.18	-42.3	-43.6	21.1	0.00e+00	33	41	0	590348288	58	6124
2026-01-22 17:40:03.04	337.94	21.19	-41.5	-42.7	21.8	0.00e+00	0	41	0	592445440	56	6220
2026-01-22 17:40:04.05	337.68	21.21	-41.2	-42.3	22.1	0.00e+00	83	41	0	594542592	56	5940
2026-01-22 17:40:05.06	337.42	21.23	-40.9	-42.0	22.3	0.00e+00	0	41	0	596639744	56	5749
2026-01-22 17:40:06.07	337.16	21.25	-40.9	-42.0	22.4	0.00e+00	81	41	0	598736896	56	5721
2026-01-22 17:40:07.08	336.90	21.26	-41.1	-42.2	22.3	0.00e+00	0	41	0	599785472	56	5856
2026-01-22 17:40:08.09	336.64	21.28	-41.2	-42.3	22.1	0.00e+00	0	41	0	601882624	56	5963
2026-01-22 17:40:09.10	336.38	21.29	-41.6	-42.7	21.9	0.00e+00	0	41	0	603979776	56	6237
2026-01-22 17:40:10.11	336.12	21.31	-41.6	-42.8	21.8	0.00e+00	0	41	0	606076928	56	6249
2026-01-22 17:40:11.12	335.86	21.32	-41.6	-42.7	22.0	0.00e+00	79	41	0	608174080	56	6206
2026-01-22 17:40:12.13	335.60	21.33	-40.9	-42.0	22.5	0.00e+00	0	41	0	610271232	56	5707
2026-01-22 17:40:13.14	335.33	21.35	-40.6	-41.6	22.6	0.00e+00	62	41	0	611319808	54	6155
2026-01-22 17:40:14.15	335.07	21.36	-40.9	-42.0	22.2	0.00e+00	0	41	0	613416960	54	6422
2026-01-22 17:40:15.16	334.81	21.37	-40.3	-41.3	23.0	0.00e+00	0	41	0	615514112	54	5908
2026-01-22 17:40:16.17	334.55	21.38	-40.6	-41.6	22.6	0.00e+00	0	41	0	617611264	54	6168
2026-01-22 17:40:17.19	334.28	21.39	-40.9	-41.9	22.4	0.00e+00	0	41	0	619708416	54	6353
2026-01-22 17:40:18.19	334.02	21.40	-41.3	-42.4	22.0	0.00e+00	75	41	0	620756992	54	6764
2026-01-22 17:40:19.20	333.76	21.41	-41.4	-42.5	21.9	0.00e+00	0	41	0	622854144	54	6810
2026-01-22 17:40:20.21	333.50	21.41	-41.5	-42.6	21.7	0.00e+00	85	41	0	624951296	54	6878
2026-01-22 17:40:21.22	333.23	21.42	-41.4	-42.6	22.0	0.00e+00	0	41	0	627048448	54	6852
2026-01-22 17:40:22.23	332.97	21.43	-41.6	-42.8	21.7	0.00e+00	0	41	0	629145600	54	7027
2026-01-22 17:40:23.24	332.71	21.43	-41.8	-42.9	21.6	0.00e+00	0	41	0	630194176	56	6377
2026-01-22 17:40:24.25	332.44	21.44	-41.9	-43.0	21.6	0.00e+00	0	41	0	632291328	56	6432
2026-01-22 17:40:25.26	332.18	21.44	-41.9	-43.1	21.5	0.00e+00	32	41	0	634388480	56	6477
2026-01-22 17:40:26.27	331.91	21.45	-41.8	-42.9	21.7	0.00e+00	0	41	0	636485632	56	6354
2026-01-22 17:40:27.28	331.65	21.45	-42.0	-43.2	21.5	0.00e+00	79	41	0	638582784	56	6541
2026-01-22 17:40:28.29	331.39	21.45	-41.8	-42.9	21.8	0.00e+00	0	41	0	639631360	56	6365
2026-01-22 17:40:29.30	331.12	21.46	-41.7	-42.8	21.9	0.00e+00	0	41	0	641728512	56	6271
2026-01-22 17:40:30.31	330.86	21.46	-41.2	-42.2	22.3	0.00e+00	0	41	0	643825664	56	5862
2026-01-22 17:40:31.32	330.60	21.46	-40.8	-41.8	22.6	0.00e+00	0	41	0	645922816	56	5620
2026-01-22 17:40:32.33	330.33	21.46	-40.4	-41.3	22.9	0.00e+00	65	41	0	648019968	54	5961
2026-01-22 17:40:33.33	330.07	21.46	-40.4	-41.3	23.1	0.00e+00	0	41	0	649068544	54	5917
2026-01-22 17:40:34.34	329.81	21.46	-40.4	-41.4	23.0	0.00e+00	77	41	0	651165696	54	5978
2026-01-22 17:40:35.35	329.54	21.45	-40.5	-41.4	22.9	0.00e+00	33	41	0	653262848	54	6033
2026-01-22 17:40:36.36	329.28	21.45	-40.6	-41.6	22.7	0.00e+00	0	41	0	655360000	54	6126
2026-01-22 17:40:37.37	329.01	21.45	-40.7	-41.7	22.8	0.00e+00	0	41	0	657457152	54	6186
2026-01-22 17:40:38.38	328.75	21.44	-40.7	-41.7	22.7	0.00e+00	0	41	0	658505728	54	6199
2026-01-22 17:40:39.39	328.49	21.44	-40.5	-41.5	22.8	0.00e+00	65	41	0	660602880	54	6078
2026-01-22 17:40:40.40	328.22	21.44	-40.8	-41.8	22.6	0.00e+00	0	41	0	662700032	54	6248
2026-01-22 17:40:41.40	327.96	21.43	-40.8	-41.8	22.6	0.00e+00	78	41	0	664797184	54	6297
2026-01-22 17:40:42.41	327.70	21.42	-41.0	-42.0	22.4	0.00e+00	0	41	0	666894336	54	6464
2026-01-22 17:40:43.42	327.44	21.42	-41.0	-42.1	22.2	0.00e+00	8	41	0	667942912	54	6484
2026-01-22 17:40:44.43	327.17	21.41	-41.2	-42.2	21.8	0.00e+00	0	41	0	670040064	54	6607
2026-01-22 17:40:45.44	326.91	21.40	-41.1	-42.2	22.3	0.00e+00	0	41	0	672137216	54	6552
2026-01-22 17:40:46.45	326.65	21.39	-41.3	-42.4	22.0	0.00e+00	0	41	0	674234368	54	6707
2026-01-22 17:40:47.46	326.38	21.38	-41.0	-42.1	22.4	0.00e+00	0	41	0	676331520	54	6479
2026-01-22 17:40:48.47	326.12	21.37	-40.7	-41.7	22.6	0.00e+00	19	41	0	678428672	54	6202
2026-01-22 17:40:49.48	325.86	21.36	-40.4	-41.4	23.0	0.00e+00	0	41	0	679477248	54	5990
2026-01-22 17:40:50.48	325.60	21.35	-40.2	-41.1	23.2	0.00e+00	82	41	0	681574400	54	5815
2026-01-22 17:40:51.49	325.34	21.34	-39.6	-40.4	23.6	0.00e+00	0	41	0	683671552	52	6032
2026-01-22 17:40:52.50	325.08	21.32	-39.6	-40.4	23.7	0.00e+00	0	41	0	685768704	52	6015
2026-01-22 17:40:53.51	324.81	21.31	-39.4	-40.2	23.8	0.00e+00	0	41	0	687865856	52	5880
2026-01-22 17:40:54.52	324.55	21.30	-39.3	-40.2	23.9	0.00e+00	0	41	0	688914432	52	5840
2026-01-22 17:40:55.53	324.29	21.28	-39.2	-40.1	24.0	0.00e+00	65	41	0	691011584	52	5764
2026-01-22 17:40:56.54	324.03	21.27	-39.2	-40.0	24.0	0.00e+00	0	41	0	693108736	52	5756
2026-01-22 17:40:57.55	323.77	21.25	-39.2	-40.0	23.9	0.00e+00	83	41	0	695205888	52	5741
2026-01-22 17:40:58.55	323.51	21.24	-39.1	-39.9	24.1	0.00e+00	0	41	0	696254464	52	5671
2026-01-22 17:40:59.57	323.25	21.22	-39.0	-39.9	24.0	0.00e+00	0	41	0	698351616	52	5631
2026-01-22 17:41:00.58	322.99	21.20	-39.2	-40.0	24.1	0.00e+00	0	41	0	700448768	52	5724
2026-01-22 17:41:01.59	322.73	21.18	-39.6	-40.4	23.8	0.00e+00	0	41	0	702545920	52	6014
2026-01-22 17:41:02.60	322.47	21.16	-39.6	-40.4	23.6	0.00e+00	75	41	0	704643072	52	6028
2026-01-22 17:41:03.61	322.21	21.14	-39.9	-40.8	23.4	0.00e+00	0	41	0	706740224	52	6254
2026-01-22 17:41:04.62	321.95	21.12	-39.6	-40.5	23.5	0.00e+00	87	41	0	707788800	52	6059
2026-01-22 17:41:05.62	321.70	21.10	-39.6	-40.5	23.7	0.00e+00	0	41	0	709885952	52	6053
2026-01-22 17:41:06.63	321.44	21.08	-39.0	-39.9	23.9	0.00e+00	4	41	0	711983104	52	5643
2026-01-22 17:41:07.64	321.18	21.06	-38.9	-39.7	24.3	0.00e+00	0	41	0	714080256	52	5564
2026-01-22 17:41:08.65	320.93	21.04	-38.8	-39.7	24.3	0.00e+00	33	41	0	716177408	52	5520
2026-01-22 17:41:09.66	320.67	21.01	-38.8	-39.7	24.2	0.00e+00	0	41	0	717225984	52	5533
2026-01-22 17:41:10.67	320.41	20.99	-39.1	-40.0	24.1	0.00e+00	0	41	0	719323136	52	5714
2026-01-22 17:41:11.68	320.16	20.97	-39.1	-40.0	24.0	0.00e+00	83	41	0	721420288	52	5726
2026-01-22 17:41:12.69	319.90	20.94	-39.3	-40.2	23.9	0.00e+00	0	41	0	723517440	52	5860
2026-01-22 17:41:13.70	319.65	20.92	-39.6	-40.5	23.6	0.00e+00	92	41	0	725614592	52	6082
2026-01-22 17:41:14.71	319.39	20.89	-39.9	-40.8	23.3	0.00e+00	0	41	0	726663168	52	6263
2026-01-22 17:41:15.72	319.14	20.86	-39.9	-40.8	23.4	0.00e+00	0	41	0	728760320	52	6287
2026-01-22 17:41:16.73	318.88	20.84	-40.0	-40.9	23.3	0.00e+00	0	41	0	730857472	52	6390
2026-01-22 17:41:17.74	318.63	20.81	-39.9	-40.9	23.4	0.00e+00	0	41	0	732954624	52	6319
2026-01-22 17:41:18.75	318.38	20.78	-39.8	-40.7	23.6	0.00e+00	78	41	0	735051776	52	6190
2026-01-22 17:41:19.76	318.12	20.75	-39.5	-40.4	23.7	0.00e+00	0	41	0	736100352	52	5990
2026-01-22 17:41:20.77	317.87	20.72	-39.4	-40.3	23.8	0.00e+00	92	41	0	738197504	52	5919
2026-01-22 17:41:21.78	317.62	20.69	-39.5	-40.4	23.8	0.00e+00	0	41	0	740294656	52	6000
2026-01-22 17:41:22.79	317.37	20.66	-39.4	-40.3	23.9	0.00e+00	0	41	0	742391808	52	5912
2026-01-22 17:41:23.80	317.12	20.63	-39.6	-40.5	23.6	0.00e+00	0	41	0	744488960	52	6051
2026-01-22 17:41:24.81	316.87	20.60	-39.7	-40.6	23.5	0.00e+00	0	41	0	745537536	52	6139
2026-01-22 17:41:25.82	316.62	20.57	-39.8	-40.7	23.5	0.00e+00	77	41	0	747634688	52	6230
2026-01-22 17:41:26.82	316.37	20.54	-40.0	-40.9	23.3	0.00e+00	0	41	0	749731840	52	6383
2026-01-22 17:41:27.83	316.13	20.50	-40.7	-41.6	22.8	0.00e+00	77	41	0	751828992	52	6924
2026-01-22 17:41:28.84	315.88	20.47	-41.1	-42.1	22.3	0.00e+00	0	41	0	753926144	54	6496
2026-01-22 17:41:29.85	315.63	20.44	-41.5	-42.5	22.2	0.00e+00	0	41	0	754974720	54	6847
2026-01-22 17:41:30.86	315.38	20.40	-41.4	-42.5	22.2	0.00e+00	0	41	0	757071872	54	6786
2026-01-22 17:41:31.87	315.14	20.37	-41.5	-42.5	22.1	0.00e+00	0	41	0	759169024	54	6841
2026-01-22 17:41:32.88	314.89	20.33	-40.8	-41.8	22.7	0.00e+00	0	41	0	761266176	54	6255
2026-01-22 17:41:33.89	314.65	20.29	-40.9	-41.9	22.6	0.00e+00	0	41	0	763363328	54	6382
2026-01-22 17:41:34.90	314.40	20.26	-40.8	-41.8	22.6	0.00e+00	78	41	0	764411904	54	6267
2026-01-22 17:41:35.91	314.16	20.22	-40.7	-41.7	22.6	0.00e+00	0	41	0	766509056	54	6227
2026-01-22 17:41:36.92	313.92	20.18	-41.0	-42.1	22.3	0.00e+00	0	41	0	768606208	54	6480
2026-01-22 17:41:37.93	313.67	20.14	-41.3	-42.3	22.1	0.00e+00	0	41	0	770703360	54	6688
2026-01-22 17:41:38.94	313.43	20.10	-41.7	-42.8	21.9	0.00e+00	0	41	0	772800512	54	7065
2026-01-22 17:41:39.95	313.19	20.07	-41.4	-42.5	22.1	0.00e+00	0	41	0	774897664	54	6794
2026-01-22 17:41:40.96	312.95	20.03	-41.5	-42.6	21.8	0.00e+00	5	41	0	775946240	54	6900
2026-01-22 17:41:41.97	312.71	19.99	-41.7	-42.8	21.7	0.00e+00	92	41	0	778043392	56	6304
2026-01-22 17:41:42.98	312.47	19.95	-41.7	-42.9	21.8	0.00e+00	0	41	0	780140544	56	6319
2026-01-22 17:41:43.98	312.23	19.91	-41.8	-43.0	21.8	0.00e+00	23	41	0	782237696	56	6397
2026-01-22 17:41:44.99	311.99	19.86	-41.7	-42.8	21.9	0.00e+00	0	41	0	784334848	56	6283
2026-01-22 17:41:46.00	311.76	19.82	-41.8	-42.9	21.8	0.00e+00	0	41	0	785383424	56	6356
2026-01-22 17:41:47.01	311.52	19.78	-41.8	-42.9	21.8	0.00e+00	0	41	0	787480576	56	6379
2026-01-22 17:41:48.02	311.28	19.74	-41.3	-42.3	22.4	0.00e+00	0	41	0	789577728	56	5941
2026-01-22 17:41:49.03	311.05	19.69	-41.2	-42.1	22.5	0.00e+00	75	41	0	791674880	56	5822
2026-01-22 17:41:50.04	310.81	19.65	-40.9	-41.8	22.7	0.00e+00	0	41	0	793772032	56	5609
2026-01-22 17:41:51.05	310.58	19.61	-40.9	-41.9	22.7	0.00e+00	91	41	0	794820608	56	5660
2026-01-22 17:41:52.05	310.35	19.56	-41.1	-42.1	22.5	0.00e+00	0	41	0	796917760	56	5777
2026-01-22 17:41:53.07	310.11	19.52	-41.2	-42.2	22.4	0.00e+00	0	41	0	799014912	56	5883
2026-01-22 17:41:54.08	309.88	19.47	-41.2	-42.2	22.4	0.00e+00	0	41	0	801112064	56	5892
2026-01-22 17:41:55.09	309.65	19.43	-41.6	-42.6	22.1	0.00e+00	0	41	0	803209216	56	6144
2026-01-22 17:41:56.09	309.42	19.38	-41.3	-42.3	22.3	0.00e+00	58	41	0	804257792	56	5925
2026-01-22 17:41:57.11	309.19	19.33	-41.5	-42.5	22.1	0.00e+00	0	41	0	806354944	56	6046
2026-01-22 17:41:58.11	308.96	19.29	-41.0	-41.9	22.3	0.00e+00	92	41	0	808452096	56	5690
2026-01-22 17:41:59.12	308.73	19.24	-40.9	-41.9	22.5	0.00e+00	0	41	0	810549248	56	5662
2026-01-22 17:42:00.13	308.50	19.19	-40.4	-41.3	23.0	0.00e+00	0	41	0	812646400	54	5939
2026-01-22 17:42:01.14	308.28	19.14	-40.4	-41.3	22.9	0.00e+00	0	41	0	813694976	54	5908
2026-01-22 17:42:02.15	308.05	19.09	-40.0	-40.8	23.3	0.00e+00	0	41	0	815792128	54	5624
2026-01-22 17:42:03.16	307.82	19.05	-39.9	-40.7	23.5	0.00e+00	45	41	0	817889280	54	5552
2026-01-22 17:42:04.17	307.60	19.00	-39.6	-40.4	23.7	0.00e+00	0	41	0	819986432	52	5983
2026-01-22 17:42:05.18	307.37	18.95	-39.8	-40.6	23.6	0.00e+00	75	41	0	822083584	52	6155
2026-01-22 17:42:06.19	307.15	18.90	-39.8	-40.6	23.7	0.00e+00	0	41	0	823132160	52	6159
2026-01-22 17:42:07.20	306.93	18.85	-39.9	-40.8	23.5	0.00e+00	0	41	0	825229312	52	6287
2026-01-22 17:42:08.21	306.71	18.80	-39.9	-40.8	23.5	0.00e+00	0	41	0	827326464	52	6297
2026-01-22 17:42:09.22	306.48	18.75	-40.1	-40.9	23.3	0.00e+00	0	42	0	829423616	52	6388
2026-01-22 17:42:10.23	306.26	18.69	-40.8	-41.8	22.4	0.00e+00	75	41	0	831520768	54	6266
2026-01-22 17:42:11.24	306.04	18.64	-41.2	-42.2	22.2	0.00e+00	0	41	0	832569344	54	6560
2026-01-22 17:42:12.25	305.83	18.59	-41.6	-42.6	22.0	0.00e+00	83	41	0	834666496	54	6898
2026-01-22 17:42:13.25	305.61	18.54	-42.0	-43.1	21.5	0.00e+00	0	41	0	836763648	56	6499
2026-01-22 17:42:14.26	305.39	18.49	-42.1	-43.3	21.5	0.00e+00	0	41	0	838860800	56	6625
2026-01-22 17:42:15.27	305.17	18.43	-42.1	-43.2	21.5	0.00e+00	0	41	0	840957952	56	6590
2026-01-22 17:42:16.28	304.96	18.38	-41.8	-42.9	21.8	0.00e+00	0	41	0	843055104	56	6365
2026-01-22 17:42:17.29	304.74	18.33	-41.5	-42.6	22.0	0.00e+00	80	42	0	844103680	56	6138
2026-01-22 17:42:18.30	304.53	18.27	-41.7	-42.8	21.6	0.00e+00	0	41	0	846200832	56	6301
2026-01-22 17:42:19.31	304.31	18.22	-42.1	-43.3	21.5	0.00e+00	63	41	0	848297984	56	6627
2026-01-22 17:42:20.32	304.10	18.16	-42.5	-43.7	21.1	0.00e+00	0	41	0	850395136	56	6986
2026-01-22 17:42:21.33	303.89	18.11	-42.9	-44.2	20.7	0.00e+00	0	41	0	852492288	58	6580
2026-01-22 17:42:22.34	303.68	18.05	-43.1	-44.5	20.4	0.00e+00	0	41	0	853540864	58	6772
2026-01-22 17:42:23.35	303.47	18.00	-43.1	-44.5	20.4	0.00e+00	0	42	0	855638016	58	6770
2026-01-22 17:42:24.36	303.26	17.94	-43.2	-44.5	20.4	0.00e+00	0	41	0	857735168	58	6810
2026-01-22 17:42:25.37	303.05	17.89	-42.9	-44.1	20.7	0.00e+00	0	41	0	859832320	58	6537
2026-01-22 17:42:26.38	302.84	17.83	-42.2	-43.3	21.3	0.00e+00	43	41	0	861929472	58	5928
2026-01-22 17:42:27.39	302.63	17.78	-41.7	-42.8	22.0	0.00e+00	0	41	0	862978048	58	5586
2026-01-22 17:42:28.40	302.43	17.72	-41.3	-42.3	22.3	0.00e+00	77	41	0	865075200	56	5963
2026-01-22 17:42:29.40	302.22	17.66	-41.1	-42.1	22.5	0.00e+00	0	41	0	867172352	56	5773
2026-01-22 17:42:30.41	302.02	17.61	-40.5	-41.4	23.0	0.00e+00	0	41	0	869269504	54	5991
2026-01-22 17:42:31.42	301.81	17.55	-40.2	-41.1	23.2	0.00e+00	0	41	0	871366656	54	5825
2026-01-22 17:42:32.43	301.61	17.49	-40.2	-41.1	23.3	0.00e+00	0	41	0	872415232	54	5788
2026-01-22 17:42:33.44	301.41	17.43	-40.1	-41.0	23.4	0.00e+00	35	41	0	874512384	54	5717
2026-01-22 17:42:34.45	301.20	17.38	-40.3	-41.2	23.1	0.00e+00	0	41	0	876609536	54	5854
2026-01-22 17:42:35.46	301.00	17.32	-40.5	-41.4	23.0	0.00e+00	90	41	0	878706688	54	6014
2026-01-22 17:42:36.47	300.80	17.26	-40.6	-41.6	22.7	0.00e+00	0	41	0	880803840	54	6107
2026-01-22 17:42:37.48	300.60	17.20	-40.9	-41.9	22.6	0.00e+00	0	41	0	881852416	54	6336
2026-01-22 17:42:38.49	300.40	17.14	-41.2	-42.2	22.3	0.00e+00	0	41	0	883949568	54	6573
2026-01-22 17:42:39.50	300.20	17.08	-41.5	-42.6	22.1	0.00e+00	0	41	0	886046720	54	6895
2026-01-22 17:42:40.51	300.01	17.02	-41.3	-42.4	22.2	0.00e+00	34	41	0	888143872	54	6700
2026-01-22 17:42:41.52	299.81	16.96	-41.1	-42.1	22.4	0.00e+00	0	41	0	890241024	54	6477
2026-01-22 17:42:42.53	299.61	16.90	-41.0	-42.0	22.5	0.00e+00	80	41	0	891289600	54	6409
2026-01-22 17:42:43.54	299.42	16.84	-40.6	-41.5	22.9	0.00e+00	0	41	0	893386752	54	6055
2026-01-22 17:42:44.55	299.22	16.78	-40.6	-41.6	22.8	0.00e+00	0	41	0	895483904	54	6121
2026-01-22 17:42:45.56	299.03	16.72	-40.4	-41.3	23.1	0.00e+00	0	41	0	897581056	54	5923
2026-01-22 17:42:46.57	298.84	16.66	-40.2	-41.1	23.1	0.00e+00	0	42	0	899678208	54	5820
2026-01-22 17:42:47.58	298.65	16.60	-40.8	-41.8	22.6	0.00e+00	74	41	0	900726784	54	6300
2026-01-22 17:42:48.59	298.46	16.54	-41.2	-42.2	22.3	0.00e+00	0	41	0	902823936	54	6565
2026-01-22 17:42:49.60	298.27	16.48	-42.1	-43.2	21.6	0.00e+00	83	41	0	904921088	56	6588
2026-01-22 17:42:50.61	298.08	16.42	-42.2	-43.4	21.2	0.00e+00	0	41	0	907018240	56	6705
2026-01-22 17:42:51.63	297.88	16.36	-42.9	-44.1	20.8	0.00e+00	0	41	0	909115392	58	6510
2026-01-22 17:42:52.63	297.70	16.30	-42.9	-44.1	20.8	0.00e+00	0	41	0	910163968	58	6525
2026-01-22 17:42:53.64	297.51	16.23	-42.8	-44.0	20.8	0.00e+00	0	41	0	912261120	58	6453
2026-01-22 17:42:54.65	297.33	16.17	-42.2	-43.4	21.2	0.00e+00	25	41	0	914358272	58	5972
2026-01-22 17:42:55.66	297.14	16.11	-42.4	-43.6	21.2	0.00e+00	0	41	0	916455424	58	6135
2026-01-22 17:42:56.67	296.95	16.05	-41.7	-42.7	21.9	0.00e+00	90	42	0	918552576	58	5562
2026-01-22 17:42:57.68	296.77	15.99	-41.5	-42.5	22.1	0.00e+00	0	41	0	920649728	56	6057
2026-01-22 17:42:58.69	296.59	15.92	-41.5	-42.6	22.1	0.00e+00	0	42	0	921698304	56	6127
2026-01-22 17:42:59.70	296.40	15.86	-41.5	-42.5	22.1	0.00e+00	0	41	0	923795456	56	6071
2026-01-22 17:43:00.71	296.22	15.80	-41.5	-42.6	22.0	0.00e+00	0	41	0	925892608	56	6116
2026-01-22 17:43:01.72	296.04	15.73	-41.3	-42.3	22.3	0.00e+00	0	41	0	927989760	56	5925
2026-01-22 17:43:02.73	295.86	15.67	-41.3	-42.4	22.1	0.00e+00	0	41	0	930086912	56	5968
2026-01-22 17:43:03.74	295.68	15.61	-41.2	-42.2	22.4	0.00e+00	76	41	0	931135488	56	5838
2026-01-22 17:43:04.75	295.50	15.55	-41.1	-42.1	22.4	0.00e+00	0	41	0	933232640	56	5824
2026-01-22 17:43:05.76	295.33	15.48	-41.2	-42.2	22.3	0.00e+00	92	41	0	935329792	56	5881
2026-01-22 17:43:06.77	295.15	15.42	-41.3	-42.3	22.1	0.00e+00	0	42	0	937426944	56	5935
2026-01-22 17:43:07.78	294.97	15.36	-41.4	-42.5	22.1	0.00e+00	0	41	0	939524096	56	6065
2026-01-22 17:43:08.79	294.80	15.29	-41.6	-42.6	22.0	0.00e+00	0	41	0	940572672	56	6155
2026-01-22 17:43:09.80	294.62	15.23	-42.0	-43.1	21.6	0.00e+00	0	42	0	942669824	56	6497
2026-01-22 17:43:10.81	294.45	15.16	-42.3	-43.5	21.3	0.00e+00	75	41	0	944766976	56	6824
2026-01-22 17:43:11.82	294.27	15.10	-42.3	-43.5	21.3	0.00e+00	0	41	0	946864128	56	6770
2026-01-22 17:43:12.83	294.10	15.04	-42.4	-43.6	21.1	0.00e+00	90	41	0	948961280	56	6859
2026-01-22 17:43:13.84	293.93	14.97	-41.9	-43.0	21.7	0.00e+00	0	41	0	950009856	56	6411
2026-01-22 17:43:14.85	293.76	14.91	-41.7	-42.8	21.8	0.00e+00	0	41	0	952107008	56	6264
2026-01-22 17:43:15.86	293.59	14.84	-41.4	-42.4	22.0	0.00e+00	0	41	0	954204160	56	6032
2026-01-22 17:43:16.87	293.42	14.78	-41.1	-42.1	22.4	0.00e+00	0	42	0	956301312	56	5812
2026-01-22 17:43:17.88	293.25	14.71	-41.1	-42.1	22.5	0.00e+00	6	41	0	958398464	56	5775
2026-01-22 17:43:18.89	293.08	14.65	-41.2	-42.2	22.3	0.00e+00	0	42	0	959447040	56	5865
2026-01-22 17:43:19.90	292.91	14.59	-41.4	-42.4	22.1	0.00e+00	79	41	0	961544192	56	6004
2026-01-22 17:43:20.91	292.75	14.52	-41.5	-42.6	22.0	0.00e+00	0	41	0	963641344	56	6154
2026-01-22 17:43:21.92	292.58	14.46	-41.8	-42.9	21.8	0.00e+00	0	41	0	965738496	56	6375
2026-01-22 17:43:22.93	292.41	14.39	-41.7	-42.8	21.8	0.00e+00	0	42	0	967835648	56	6294
2026-01-22 17:43:23.94	292.25	14.33	-41.8	-42.9	21.6	0.00e+00	0	42	0	968884224	56	6363
2026-01-22 17:43:24.95	292.09	14.26	-42.1	-43.2	21.7	0.00e+00	0	42	0	970981376	56	6571
2026-01-22 17:43:25.95	291.92	14.20	-41.8	-42.9	21.7	0.00e+00	0	41	0	973078528	56	6365
2026-01-22 17:43:26.96	291.76	14.13	-41.8	-42.8	21.8	0.00e+00	85	41	0	975175680	56	6315
2026-01-22 17:43:27.97	291.60	14.07	-41.6	-42.6	21.9	0.00e+00	0	41	0	977272832	56	6161
2026-01-22 17:43:28.98	291.44	14.00	-41.4	-42.4	22.0	0.00e+00	0	42	0	978321408	56	6024
2026-01-22 17:43:29.99	291.28	13.94	-41.4	-42.4	22.1	0.00e+00	0	41	0	980418560	56	5995
2026-01-22 17:43:31.00	291.12	13.87	-41.1	-42.2	22.3	0.00e+00	0	41	0	982515712	56	5837
2026-01-22 17:43:32.01	290.96	13.80	-40.7	-41.7	22.7	0.00e+00	65	42	0	984612864	56	5548
2026-01-22 17:43:33.02	290.80	13.74	-40.6	-41.6	22.8	0.00e+00	0	41	0	986710016	54	6110
2026-01-22 17:43:34.03	290.65	13.67	-40.7	-41.6	22.7	0.00e+00	90	42	0	988807168	54	6169
2026-01-22 17:43:35.04	290.49	13.61	-40.5	-41.5	22.7	0.00e+00	0	41	0	989855744	54	6070
2026-01-22 17:43:36.05	290.33	13.54	-40.5	-41.4	22.8	0.00e+00	5	41	0	991952896	54	6032
2026-01-22 17:43:37.06	290.18	13.48	-40.5	-41.4	22.8	0.00e+00	0	41	0	994050048	54	6016
2026-01-22 17:43:38.07	290.02	13.41	-40.2	-41.1	23.1	0.00e+00	0	41	0	996147200	54	5815
2026-01-22 17:43:39.08	289.87	13.35	-40.0	-40.9	23.3	0.00e+00	0	41	0	998244352	54	5664
2026-01-22 17:43:40.09	289.72	13.28	-39.8	-40.7	23.4	0.00e+00	0	41	0	999292928	52	6194
2026-01-22 17:43:41.09	289.57	13.22	-39.6	-40.4	23.5	0.00e+00	57	41	0	1001390080	52	6017
2026-01-22 17:43:42.11	289.41	13.15	-39.4	-40.2	23.8	0.00e+00	0	41	0	1003487232	52	5854
2026-01-22 17:43:43.11	289.26	13.08	-39.5	-40.3	23.6	0.00e+00	54	41	0	1005584384	52	5941
2026-01-22 17:43:44.12	289.11	13.02	-39.5	-40.3	23.7	0.00e+00	0	41	0	1007681536	52	5951
2026-01-22 17:43:45.13	288.96	12.95	-39.8	-40.7	23.4	0.00e+00	0	41	0	1008730112	52	6196
2026-01-22 17:43:46.14	288.81	12.89	-40.0	-40.9	23.3	0.00e+00	0	41	0	1010827264	52	6350
2026-01-22 17:43:47.15	288.67	12.82	-40.1	-41.0	23.1	0.00e+00	0	42	0	1012924416	52	6456
2026-01-22 17:43:48.16	288.52	12.76	-40.5	-41.5	22.7	0.00e+00	57	42	0	1015021568	52	6811
2026-01-22 17:43:49.17	288.37	12.69	-40.7	-41.6	22.7	0.00e+00	33	41	0	1017118720	52	6926
2026-01-22 17:43:50.18	288.22	12.62	-40.6	-41.5	22.7	0.00e+00	77	41	0	1018167296	52	6835
2026-01-22 17:43:51.19	288.08	12.56	-40.9	-41.9	22.4	0.00e+00	0	41	0	1020264448	54	6352
2026-01-22 17:43:52.20	287.93	12.49	-40.8	-41.8	22.5	0.00e+00	0	41	0	1022361600	54	6293
2026-01-22 17:43:53.21	287.79	12.43	-41.0	-42.0	22.3	0.00e+00	0	42	0	1024458752	54	6424
2026-01-22 17:43:54.22	287.64	12.36	-41.1	-42.1	22.3	0.00e+00	0	42	0	1026555904	54	6537
2026-01-22 17:43:55.22	287.50	12.29	-40.8	-41.8	22.5	0.00e+00	65	42	0	1027604480	54	6261
2026-01-22 17:43:56.23	287.36	12.23	-40.7	-41.7	22.6	0.00e+00	33	42	0	1029701632	54	6231
2026-01-22 17:43:57.24	287.22	12.16	-40.6	-41.6	22.6	0.00e+00	91	41	0	1031798784	54	6115
2026-01-22 17:43:58.25	287.08	12.10	-40.2	-41.1	23.0	0.00e+00	0	41	0	1033895936	54	5814
2026-01-22 17:43:59.26	286.94	12.03	-39.9	-40.8	23.3	0.00e+00	0	41	0	1035993088	54	5580
2026-01-22 17:44:00.27	286.80	11.97	-40.0	-40.9	23.2	0.00e+00	0	41	0	1037041664	54	5670
2026-01-22 17:44:01.28	286.66	11.90	-40.1	-41.0	23.1	0.00e+00	0	41	0	1039138816	54	5719
2026-01-22 17:44:02.29	286.52	11.83	-40.1	-41.0	22.9	0.00e+00	0	42	0	1041235968	54	5738
2026-01-22 17:44:03.30	286.38	11.77	-40.5	-41.4	22.7	0.00e+00	0	42	0	1043333120	54	6011
2026-01-22 17:44:04.31	286.24	11.70	-40.5	-41.5	22.4	0.00e+00	75	41	0	1045430272	54	6079
2026-01-22 17:44:05.32	286.11	11.64	-40.5	-41.5	22.4	0.00e+00	0	41	0	1046478848	54	6072
2026-01-22 17:44:06.33	285.97	11.57	-40.9	-41.9	22.3	0.00e+00	0	42	0	1048576000	54	6326
2026-01-22 17:44:07.35	285.83	11.50	-40.9	-42.0	22.3	0.00e+00	0	41	0	1050673152	54	6392
2026-01-22 17:44:08.35	285.70	11.44	-40.9	-41.9	22.3	0.00e+00	0	41	0	1052770304	54	6356
2026-01-22 17:44:09.36	285.57	11.37	-41.2	-42.3	21.9	0.00e+00	76	41	0	1054867456	54	6652
2026-01-22 17:44:10.37	285.43	11.31	-41.0	-42.0	21.8	0.00e+00	0	41	0	1056964608	54	6416
2026-01-22 17:44:11.38	285.30	11.24	-41.2	-42.3	22.1	0.00e+00	66	41	0	1058013184	54	6631
2026-01-22 17:44:12.39	285.17	11.18	-41.3	-42.4	21.8	0.00e+00	0	42	0	1060110336	54	6755
2026-01-22 17:44:13.40	285.04	11.11	-41.5	-42.6	21.7	0.00e+00	72	42	0	1062207488	54	6918
2026-01-22 17:44:14.41	284.90	11.05	-41.5	-42.6	21.7	0.00e+00	0	41	0	1064304640	54	6894
2026-01-22 17:44:15.42	284.77	10.98	-41.6	-42.8	21.7	0.00e+00	0	41	0	1066401792	54	7026
2026-01-22 17:44:16.43	284.64	10.91	-41.7	-42.8	21.7	0.00e+00	0	41	0	1067450368	54	7027
2026-01-22 17:44:17.45	284.51	10.85	-40.8	-41.8	22.3	0.00e+00	0	41	0	1069547520	54	6312
2026-01-22 17:44:18.46	284.38	10.78	-40.9	-42.0	22.2	0.00e+00	92	41	0	1071644672	54	6412
2026-01-22 17:44:19.47	284.26	10.72	-40.3	-41.3	22.7	0.00e+00	0	41	0	1073741824	54	5929
2026-01-22 17:44:20.48	284.13	10.65	-40.3	-41.3	22.9	0.00e+00	92	41	0	1075838976	54	5905
2026-01-22 17:44:21.49	284.00	10.59	-40.0	-40.9	23.1	0.00e+00	0	41	0	1076887552	54	5643
2026-01-22 17:44:22.50	283.87	10.52	-40.0	-40.9	23.1	0.00e+00	0	41	0	1078984704	54	5693
2026-01-22 17:44:23.51	283.75	10.46	-39.8	-40.7	23.3	0.00e+00	0	41	0	1081081856	52	6239
2026-01-22 17:44:24.52	283.62	10.39	-39.8	-40.7	23.2	0.00e+00	0	42	0	1083179008	52	6191
2026-01-22 17:44:25.53	283.50	10.33	-40.3	-41.2	22.8	0.00e+00	69	42	0	1085276160	52	6584
2026-01-22 17:44:26.54	283.37	10.26	-40.5	-41.5	22.7	0.00e+00	0	41	0	1086324736	52	6791
2026-01-22 17:44:27.55	283.25	10.20	-40.8	-41.8	22.4	0.00e+00	85	41	0	1088421888	54	6297
2026-01-22 17:44:28.56	283.13	10.13	-41.1	-42.2	22.1	0.00e+00	0	42	0	1090519040	54	6570
2026-01-22 17:44:29.57	283.00	10.07	-41.4	-42.5	21.7	0.00e+00	0	41	0	1092616192	54	6804
2026-01-22 17:44:30.58	282.88	10.00	-41.7	-42.8	21.5	0.00e+00	0	41	0	1094713344	54	7054
2026-01-22 17:44:31.59	282.76	9.94	-41.7	-42.8	21.6	0.00e+00	0	41	0	1095761920	56	6268
2026-01-22 17:44:32.60	282.64	9.87	-41.9	-43.0	21.5	0.00e+00	0	41	0	1097859072	56	6424
2026-01-22 17:44:33.61	282.52	9.81	-41.8	-42.9	21.6	0.00e+00	0	42	0	1099956224	56	6356
2026-01-22 17:44:34.62	282.40	9.74	-41.7	-42.8	21.6	0.00e+00	83	42	0	1102053376	56	6263
2026-01-22 17:44:35.62	282.28	9.68	-41.2	-42.3	22.0	0.00e+00	0	41	0	1104150528	56	5917
2026-01-22 17:44:36.63	282.16	9.61	-41.2	-42.2	21.9	0.00e+00	0	42	0	1105199104	56	5877
2026-01-22 17:44:37.65	282.04	9.55	-41.1	-42.2	22.0	0.00e+00	0	42	0	1107296256	56	5840
2026-01-22 17:44:38.65	281.93	9.48	-41.0	-42.0	22.2	0.00e+00	0	42	0	1109393408	56	5745
2026-01-22 17:44:39.66	281.81	9.42	-41.0	-42.1	22.1	0.00e+00	69	41	0	1111490560	56	5788
2026-01-22 17:44:40.68	281.69	9.35	-41.1	-42.2	22.0	0.00e+00	0	41	0	1113587712	56	5861
2026-01-22 17:44:41.69	281.58	9.29	-41.2	-42.3	22.0	0.00e+00	90	42	0	1114636288	56	5919
2026-01-22 17:44:42.70	281.46	9.22	-41.1	-42.2	22.1	0.00e+00	0	41	0	1116733440	56	5857
2026-01-22 17:44:43.70	281.35	9.16	-41.4	-42.5	21.8	0.00e+00	0	41	0	1118830592	56	6099
2026-01-22 17:44:44.72	281.23	9.10	-41.6	-42.7	21.6	0.00e+00	0	42	0	1120927744	56	6188
2026-01-22 17:44:45.73	281.12	9.03	-41.4	-42.5	21.7	0.00e+00	0	41	0	1123024896	56	6091
2026-01-22 17:44:46.74	281.00	8.97	-41.6	-42.7	21.6	0.00e+00	65	42	0	1125122048	56	6219
2026-01-22 17:44:47.75	280.89	8.90	-41.6	-42.8	21.6	0.00e+00	0	42	0	1126170624	56	6251
2026-01-22 17:44:48.76	280.78	8.84	-41.8	-42.9	21.4	0.00e+00	92	42	0	1128267776	56	6354
2026-01-22 17:44:49.77	280.67	8.78	-42.0	-43.2	21.2	0.00e+00	0	41	0	1130364928	56	6557
2026-01-22 17:44:50.78	280.56	8.71	-42.5	-43.8	20.7	0.00e+00	0	42	0	1132462080	56	7012
2026-01-22 17:44:51.79	280.44	8.65	-42.5	-43.8	20.6	0.00e+00	0	41	0	1134559232	56	7010
2026-01-22 17:44:52.80	280.33	8.58	-42.3	-43.4	21.1	0.00e+00	0	41	0	1135607808	56	6769
2026-01-22 17:44:53.81	280.22	8.52	-42.2	-43.4	20.9	0.00e+00	9	42	0	1137704960	56	6711
2026-01-22 17:44:54.82	280.11	8.46	-42.3	-43.5	20.8	0.00e+00	0	42	0	1139802112	56	6844
2026-01-22 17:44:55.82	280.01	8.39	-42.3	-43.6	20.8	0.00e+00	90	42	0	1141899264	56	6865
2026-01-22 17:44:56.83	279.90	8.33	-42.2	-43.5	20.9	0.00e+00	0	41	0	1143996416	56	6770
2026-01-22 17:44:57.84	279.79	8.27	-42.5	-43.8	20.6	0.00e+00	72	41	0	1145044992	56	7009
2026-01-22 17:44:58.85	279.68	8.20	-42.2	-43.4	20.9	0.00e+00	0	42	0	1147142144	56	6741
2026-01-22 17:44:59.86	279.58	8.14	-42.3	-43.5	20.8	0.00e+00	0	42	0	1149239296	56	6834
2026-01-22 17:45:00.87	279.47	8.08	-42.3	-43.6	20.9	0.00e+00	9	42	0	1151336448	56	6859
2026-01-22 17:45:01.88	279.36	8.01	-42.1	-43.3	21.0	0.00e+00	0	41	0	1153433600	56	6666
2026-01-22 17:45:02.89	279.26	7.95	-42.2	-43.4	20.9	0.00e+00	18	42	0	1154482176	56	6698
2026-01-22 17:45:03.90	279.15	7.89	-41.9	-43.1	21.1	0.00e+00	0	42	0	1156579328	56	6511
2026-01-22 17:45:04.91	279.05	7.82	-42.2	-43.4	20.9	0.00e+00	73	42	0	1158676480	56	6723
2026-01-22 17:45:05.92	278.94	7.76	-42.5	-43.7	20.7	0.00e+00	0	42	0	1160773632	56	6962
2026-01-22 17:45:06.93	278.84	7.70	-42.6	-43.9	20.4	0.00e+00	0	42	0	1162870784	56	7115
2026-01-22 17:45:07.94	278.74	7.63	-42.9	-44.2	20.1	0.00e+00	0	42	0	1163919360	58	6594
2026-01-22 17:45:08.95	278.63	7.57	-43.0	-44.4	20.0	0.00e+00	0	42	0	1166016512	58	6699
2026-01-22 17:45:09.96	278.53	7.51	-43.2	-44.6	19.8	0.00e+00	71	42	0	1168113664	58	6923
2026-01-22 17:45:10.97	278.43	7.45	-43.3	-44.8	19.6	0.00e+00	0	41	0	1170210816	58	7037
2026-01-22 17:45:11.98	278.33	7.38	-43.5	-45.0	19.3	0.00e+00	73	42	0	1172307968	58	7215
2026-01-22 17:45:12.99	278.23	7.32	-43.6	-45.2	19.3	0.00e+00	0	42	0	1173356544	58	7361
2026-01-22 17:45:14.00	278.13	7.26	-43.6	-45.1	19.3	0.00e+00	0	41	0	1175453696	58	7318
2026-01-22 17:45:15.01	278.03	7.20	-43.3	-44.8	19.7	0.00e+00	0	42	0	1177550848	58	7037
2026-01-22 17:45:16.02	277.93	7.13	-43.3	-44.8	19.6	0.00e+00	0	42	0	1179648000	58	7009
2026-01-22 17:45:17.03	277.83	7.07	-43.1	-44.4	19.9	0.00e+00	0	42	0	1181745152	58	6767
2026-01-22 17:45:18.04	277.73	7.01	-42.9	-44.3	20.0	0.00e+00	0	41	0	1182793728	58	6659
2026-01-22 17:45:19.05	277.63	6.95	-42.7	-44.0	20.3	0.00e+00	70	42	0	1184890880	58	6440
2026-01-22 17:45:20.06	277.53	6.88	-42.9	-44.3	20.1	0.00e+00	0	42	0	1186988032	58	6626
2026-01-22 17:45:21.07	277.43	6.82	-42.6	-43.8	20.3	0.00e+00	0	42	0	1189085184	58	6316
