passes_logs/2026/01/22/R4.6S_Anadyr/R4.6S_Anadyr__20260122_134333_NOAA_21_JPSS-2_rec.log

#Pass ID: 20260122_134333_NOAA 21 (JPSS-2)
#Satellite: NOAA 21 (JPSS-2)
#Configuration: NOAA-21
#almurnet v.1.7.20251203
#Start time: 2026-01-22 13:43:34

#Version: 2.2.20231116
#Station: R4.6S_Anadyr
#Location: 177.4865 lon 64.73178 lat
#TLE: 1 54234U 22150A   26021.42686626  .00000211  00000+0  12107-3 0  9996
#TLE: 2 54234  98.7506 322.2490 0000636 241.9299 118.1812 14.19537149165725

#Time	Az	El	Level	Level2	SNR	BER	BlckErr	Temp	State	Recorded	gain1	gain2
2026-01-22 13:43:34.82	19.03	0.08	-51.4	-66.3	3.6	1.51e+00	0	38	0	0	60	75081
2026-01-22 13:43:35.83	19.07	0.13	-51.4	-64.3	3.5	1.51e+00	0	39	104	0	60	57263
2026-01-22 13:43:36.84	19.10	0.19	-51.4	-64.3	3.5	1.52e+00	0	40	104	0	60	57269
2026-01-22 13:43:37.85	19.14	0.25	-51.3	-64.2	3.5	1.52e+00	0	40	104	0	60	57064
2026-01-22 13:43:38.86	19.17	0.31	-51.3	-64.2	3.5	1.51e+00	0	40	104	0	60	57013
2026-01-22 13:43:39.87	19.21	0.37	-51.3	-64.2	3.5	1.51e+00	0	40	104	0	60	56995
2026-01-22 13:43:40.88	19.24	0.43	-51.3	-64.2	3.5	1.52e+00	0	40	104	0	60	56951
2026-01-22 13:43:41.90	19.28	0.49	-51.3	-64.2	3.5	1.52e+00	0	40	104	0	60	56862
2026-01-22 13:43:42.91	19.31	0.55	-51.3	-64.2	3.5	1.52e+00	0	40	104	0	60	56818
2026-01-22 13:43:43.92	19.35	0.60	-51.3	-64.2	3.5	1.52e+00	0	40	104	0	60	56790
2026-01-22 13:43:44.93	19.38	0.66	-51.3	-64.2	3.5	1.52e+00	0	40	104	0	60	56955
2026-01-22 13:43:45.94	19.42	0.72	-51.2	-64.1	3.5	1.51e+00	0	40	104	0	60	56195
2026-01-22 13:43:46.95	19.45	0.78	-51.2	-64.1	3.5	1.52e+00	0	40	104	0	60	56346
2026-01-22 13:43:47.96	19.49	0.84	-51.2	-64.0	3.5	1.52e+00	0	40	104	0	60	55879
2026-01-22 13:43:48.96	19.52	0.90	-51.1	-64.0	3.5	1.52e+00	0	40	104	0	60	55487
2026-01-22 13:43:49.97	19.56	0.96	-51.1	-63.9	3.5	1.52e+00	0	40	104	0	60	55054
2026-01-22 13:43:50.98	19.59	1.02	-50.9	-63.8	3.5	1.52e+00	0	40	104	0	60	54491
2026-01-22 13:43:51.99	19.63	1.08	-50.9	-63.7	3.6	1.52e+00	0	40	104	0	60	53929
2026-01-22 13:43:53.00	19.67	1.14	-50.7	-63.6	3.5	1.52e+00	0	40	104	0	60	53021
2026-01-22 13:43:54.01	19.70	1.20	-50.5	-63.5	3.5	1.52e+00	0	40	104	0	60	52393
2026-01-22 13:43:55.02	19.74	1.26	-50.5	-63.4	3.5	1.52e+00	0	40	104	0	60	51835
2026-01-22 13:43:56.03	19.78	1.32	-50.4	-63.3	3.5	1.52e+00	0	40	104	0	60	51245
2026-01-22 13:43:57.04	19.81	1.38	-50.2	-63.1	3.5	1.52e+00	0	40	104	0	60	50055
2026-01-22 13:43:58.05	19.85	1.44	-50.0	-62.9	3.5	1.52e+00	0	40	104	0	60	48982
2026-01-22 13:43:59.06	19.89	1.50	-49.8	-62.6	3.5	1.52e+00	0	40	104	0	60	47360
2026-01-22 13:44:00.07	19.92	1.56	-49.7	-62.6	3.5	1.52e+00	0	40	104	0	60	47242
2026-01-22 13:44:01.08	19.96	1.63	-49.7	-62.5	3.5	1.51e+00	0	40	104	0	60	46788
2026-01-22 13:44:02.09	20.00	1.69	-49.7	-62.6	3.5	1.51e+00	0	40	104	0	60	47078
2026-01-22 13:44:03.09	20.04	1.75	-49.7	-62.6	3.5	1.52e+00	0	40	104	0	60	47100
2026-01-22 13:44:04.10	20.07	1.81	-49.7	-62.6	3.5	1.52e+00	0	40	104	0	60	47167
2026-01-22 13:44:05.11	20.11	1.87	-49.7	-62.6	3.5	1.52e+00	0	40	104	0	60	47281
2026-01-22 13:44:06.13	20.15	1.93	-49.7	-62.6	3.5	1.52e+00	0	41	104	0	60	47112
2026-01-22 13:44:07.14	20.19	1.99	-49.7	-62.6	3.5	1.52e+00	0	40	104	0	60	47270
2026-01-22 13:44:08.15	20.23	2.06	-49.7	-62.6	3.5	1.52e+00	0	40	104	0	60	47140
2026-01-22 13:44:09.16	20.26	2.12	-49.7	-62.5	3.5	1.51e+00	0	40	104	0	60	46977
2026-01-22 13:44:10.17	20.30	2.18	-49.7	-62.2	3.5	1.52e+00	0	40	104	0	60	45288
2026-01-22 13:44:11.18	20.34	2.24	-49.6	-61.7	3.5	1.51e+00	0	40	104	0	60	42910
2026-01-22 13:44:12.19	20.38	2.30	-49.6	-61.3	3.5	1.51e+00	0	40	104	0	60	40532
2026-01-22 13:44:13.20	20.42	2.37	-49.6	-60.8	3.5	1.51e+00	0	40	104	0	60	38273
2026-01-22 13:44:14.21	20.46	2.43	-49.6	-61.0	3.6	1.51e+00	0	40	104	0	60	39223
2026-01-22 13:44:15.22	20.50	2.49	-49.6	-61.3	3.5	1.51e+00	0	40	104	0	60	40797
2026-01-22 13:44:16.23	20.54	2.56	-49.6	-61.5	3.5	1.51e+00	0	40	104	0	60	41762
2026-01-22 13:44:17.24	20.58	2.62	-49.5	-60.5	3.5	1.51e+00	0	40	104	0	60	37345
2026-01-22 13:44:18.25	20.62	2.68	-49.2	-58.0	4.8	1.06e+00	123	40	104	0	60	28033
2026-01-22 13:44:19.26	20.66	2.75	-48.7	-54.4	6.9	3.09e-01	122	40	0	2097152	60	18435
2026-01-22 13:44:20.27	20.70	2.81	-47.7	-51.9	9.4	1.03e-02	122	40	0	5242880	60	13812
2026-01-22 13:44:21.28	20.74	2.87	-46.4	-49.4	12.3	6.87e-04	122	40	0	8388608	60	10383
2026-01-22 13:44:22.29	20.78	2.94	-45.5	-48.0	14.0	2.28e-05	123	40	0	11534336	60	8827
2026-01-22 13:44:23.30	20.82	3.00	-44.6	-46.7	15.3	0.00e+00	122	40	0	14680064	60	7631
2026-01-22 13:44:24.31	20.86	3.06	-43.8	-45.7	16.0	0.00e+00	123	40	0	17825792	60	6743
2026-01-22 13:44:25.32	20.90	3.13	-43.5	-45.3	16.6	0.00e+00	120	41	0	20971520	60	6451
2026-01-22 13:44:26.33	20.94	3.19	-43.0	-44.7	17.1	0.00e+00	120	40	0	24117248	60	6039
2026-01-22 13:44:27.34	20.98	3.26	-43.5	-45.3	16.6	0.00e+00	122	40	0	27262976	60	6430
2026-01-22 13:44:28.35	21.02	3.32	-44.1	-46.1	15.7	0.00e+00	123	41	0	30408704	60	7117
2026-01-22 13:44:29.36	21.06	3.39	-45.4	-47.8	13.9	0.00e+00	122	41	0	33554432	60	8652
2026-01-22 13:44:30.37	21.10	3.45	-45.9	-48.6	13.1	1.29e-05	120	41	0	36700160	60	9485
2026-01-22 13:44:31.38	21.15	3.52	-47.1	-50.7	10.8	4.45e-04	122	40	0	39845888	60	12079
2026-01-22 13:44:32.39	21.19	3.58	-48.2	-53.2	7.7	5.22e-02	123	41	0	42991616	60	16125
2026-01-22 13:44:33.40	21.23	3.65	-47.5	-51.3	10.7	2.20e-01	122	41	0	46137344	60	12883
2026-01-22 13:44:34.41	21.27	3.71	-44.1	-46.0	16.3	0.00e+00	120	40	0	49283072	60	6997
2026-01-22 13:44:35.42	21.31	3.78	-46.4	-49.6	9.7	0.00e+00	122	41	0	52428800	60	10611
2026-01-22 13:44:36.43	21.36	3.84	-49.7	-62.3	3.5	1.51e+00	0	41	104	52428800	60	45953
2026-01-22 13:44:37.44	21.40	3.91	-41.7	-43.3	17.0	0.00e+00	123	41	0	52428800	56	6498
2026-01-22 13:44:38.45	21.44	3.97	-48.1	-53.1	4.8	1.47e+00	0	41	104	52428800	60	15888
2026-01-22 13:44:39.46	21.48	4.04	-41.6	-43.3	18.2	0.00e+00	122	41	104	52428800	56	6438
2026-01-22 13:44:40.47	21.53	4.11	-41.3	-42.6	19.3	0.00e+00	123	41	0	54525952	56	5947
2026-01-22 13:44:41.48	21.57	4.17	-41.1	-42.4	19.6	0.00e+00	120	41	0	57671680	56	5831
2026-01-22 13:44:42.49	21.62	4.24	-41.9	-43.3	18.6	0.00e+00	122	41	0	60817408	56	6446
2026-01-22 13:44:43.50	21.66	4.31	-41.0	-42.3	19.6	0.00e+00	122	41	0	63963136	56	5752
2026-01-22 13:44:44.51	21.70	4.37	-41.2	-42.6	19.3	0.00e+00	123	41	0	67108864	56	5927
2026-01-22 13:44:45.52	21.75	4.44	-40.4	-41.7	20.0	0.00e+00	123	41	0	70254592	54	6013
2026-01-22 13:44:46.53	21.79	4.51	-40.8	-42.0	19.8	0.00e+00	123	41	0	73400320	54	6271
2026-01-22 13:44:47.54	21.84	4.58	-40.7	-41.9	20.0	0.00e+00	122	41	0	76546048	54	6167
2026-01-22 13:44:48.55	21.88	4.64	-41.3	-42.6	19.2	0.00e+00	122	41	0	79691776	54	6707
2026-01-22 13:44:49.56	21.92	4.71	-40.7	-41.9	19.8	0.00e+00	123	41	0	82837504	54	6203
2026-01-22 13:44:50.57	21.97	4.78	-40.6	-41.8	20.0	0.00e+00	122	41	0	85983232	54	6113
2026-01-22 13:44:51.58	22.01	4.85	-40.7	-41.9	20.0	0.00e+00	123	41	0	89128960	54	6163
2026-01-22 13:44:52.59	22.06	4.91	-40.8	-42.0	19.8	0.00e+00	122	41	0	92274688	54	6258
2026-01-22 13:44:53.60	22.11	4.98	-40.6	-41.8	20.2	0.00e+00	123	41	0	95420416	54	6117
2026-01-22 13:44:54.61	22.15	5.05	-40.8	-42.0	19.8	0.00e+00	123	41	0	98566144	54	6262
2026-01-22 13:44:55.61	22.20	5.12	-40.7	-42.0	19.9	0.00e+00	123	41	0	101711872	54	6230
2026-01-22 13:44:56.62	22.24	5.19	-40.6	-41.8	20.2	0.00e+00	123	41	0	104857600	54	6120
2026-01-22 13:44:57.64	22.29	5.26	-40.6	-41.9	20.1	0.00e+00	123	41	0	108003328	54	6147
2026-01-22 13:44:58.65	22.34	5.33	-40.4	-41.6	20.3	0.00e+00	123	41	0	111149056	54	5979
2026-01-22 13:44:59.66	22.38	5.40	-40.2	-41.4	20.6	0.00e+00	122	41	0	114294784	54	5839
2026-01-22 13:45:00.67	22.43	5.47	-40.5	-41.7	20.2	0.00e+00	123	41	0	117440512	54	6028
2026-01-22 13:45:01.68	22.48	5.54	-40.4	-41.6	20.3	0.00e+00	122	41	0	120586240	54	5993
2026-01-22 13:45:02.69	22.52	5.60	-40.2	-41.3	20.6	0.00e+00	123	41	0	123731968	54	5770
2026-01-22 13:45:03.70	22.57	5.67	-40.1	-41.3	20.7	0.00e+00	123	41	0	126877696	54	5754
2026-01-22 13:45:04.71	22.62	5.75	-40.3	-41.5	20.4	0.00e+00	122	41	0	130023424	54	5896
2026-01-22 13:45:05.72	22.67	5.82	-40.3	-41.4	20.5	0.00e+00	123	41	0	133169152	54	5838
2026-01-22 13:45:06.73	22.72	5.89	-40.7	-41.9	20.1	0.00e+00	123	41	0	136314880	54	6199
2026-01-22 13:45:07.74	22.76	5.96	-40.3	-41.5	20.4	0.00e+00	123	41	0	139460608	54	5910
2026-01-22 13:45:08.75	22.81	6.03	-40.5	-41.7	20.3	0.00e+00	122	41	0	142606336	54	6015
2026-01-22 13:45:09.76	22.86	6.10	-40.4	-41.5	20.6	0.00e+00	122	41	0	145752064	54	5913
2026-01-22 13:45:10.77	22.91	6.17	-40.2	-41.3	20.6	0.00e+00	123	41	0	148897792	54	5763
2026-01-22 13:45:11.78	22.96	6.24	-40.1	-41.3	20.9	0.00e+00	123	41	0	152043520	54	5734
2026-01-22 13:45:12.79	23.01	6.31	-39.8	-41.0	21.0	0.00e+00	122	41	0	155189248	54	5552
2026-01-22 13:45:13.80	23.06	6.38	-39.9	-41.0	21.0	0.00e+00	123	41	0	158334976	52	6239
2026-01-22 13:45:14.81	23.11	6.46	-39.8	-40.9	21.1	0.00e+00	123	41	0	161480704	52	6195
2026-01-22 13:45:15.82	23.16	6.53	-39.9	-41.0	21.1	0.00e+00	123	41	0	164626432	52	6242
2026-01-22 13:45:16.83	23.21	6.60	-39.7	-40.8	21.2	0.00e+00	123	41	0	167772160	52	6120
2026-01-22 13:45:17.84	23.26	6.67	-39.8	-40.9	21.2	0.00e+00	120	41	0	170917888	52	6195
2026-01-22 13:45:18.85	23.31	6.75	-40.0	-41.1	21.0	0.00e+00	122	41	0	174063616	52	6297
2026-01-22 13:45:19.86	23.36	6.82	-39.9	-41.0	21.0	0.00e+00	122	41	0	177209344	52	6241
2026-01-22 13:45:20.87	23.41	6.89	-39.7	-40.9	21.1	0.00e+00	123	41	0	180355072	52	6141
2026-01-22 13:45:21.88	23.46	6.97	-39.9	-41.0	21.1	0.00e+00	122	41	0	183500800	52	6234
2026-01-22 13:45:22.89	23.52	7.04	-39.6	-40.7	21.4	0.00e+00	122	41	0	186646528	52	6011
2026-01-22 13:45:23.91	23.57	7.11	-39.6	-40.7	21.4	0.00e+00	122	41	0	189792256	52	6044
2026-01-22 13:45:24.91	23.62	7.19	-39.5	-40.6	21.4	0.00e+00	122	41	0	192937984	52	5968
2026-01-22 13:45:25.92	23.67	7.26	-39.5	-40.6	21.5	0.00e+00	122	41	0	196083712	52	5967
2026-01-22 13:45:26.93	23.73	7.33	-39.5	-40.6	21.4	0.00e+00	122	41	0	199229440	52	5948
2026-01-22 13:45:27.95	23.78	7.41	-39.4	-40.5	21.6	0.00e+00	120	41	0	203423744	52	5885
2026-01-22 13:45:28.96	23.83	7.48	-39.4	-40.5	21.5	0.00e+00	123	41	0	206569472	52	5909
2026-01-22 13:45:29.97	23.89	7.56	-39.5	-40.6	21.5	0.00e+00	122	41	0	208666624	52	5932
2026-01-22 13:45:30.97	23.94	7.63	-39.6	-40.7	21.4	0.00e+00	122	41	0	211812352	52	6010
2026-01-22 13:45:31.99	23.99	7.71	-39.3	-40.4	21.6	0.00e+00	122	41	0	214958080	52	5812
2026-01-22 13:45:33.00	24.05	7.79	-39.4	-40.5	21.6	0.00e+00	122	41	0	219152384	52	5861
2026-01-22 13:45:34.01	24.10	7.86	-39.4	-40.4	21.6	0.00e+00	122	41	0	222298112	52	5856
2026-01-22 13:45:35.02	24.16	7.94	-39.3	-40.3	21.7	0.00e+00	120	41	0	225443840	52	5789
2026-01-22 13:45:36.03	24.21	8.01	-39.4	-40.4	21.6	0.00e+00	123	41	0	228589568	52	5845
2026-01-22 13:45:37.04	24.27	8.09	-39.1	-40.1	21.9	0.00e+00	123	41	0	231735296	52	5650
2026-01-22 13:45:38.05	24.32	8.17	-39.2	-40.3	21.8	0.00e+00	123	41	0	234881024	52	5734
2026-01-22 13:45:39.06	24.38	8.24	-39.1	-40.2	21.9	0.00e+00	120	41	0	238026752	52	5693
2026-01-22 13:45:40.07	24.43	8.32	-39.3	-40.4	21.7	0.00e+00	123	41	0	241172480	52	5837
2026-01-22 13:45:41.08	24.49	8.40	-39.2	-40.3	21.8	0.00e+00	121	41	0	244318208	52	5766
2026-01-22 13:45:42.09	24.55	8.47	-39.0	-40.1	21.9	0.00e+00	122	41	0	247463936	52	5613
2026-01-22 13:45:43.10	24.60	8.55	-39.0	-40.1	22.0	0.00e+00	122	41	0	250609664	52	5604
2026-01-22 13:45:44.11	24.66	8.63	-39.1	-40.1	22.0	0.00e+00	122	41	0	253755392	52	5629
2026-01-22 13:45:45.11	24.72	8.71	-39.1	-40.2	21.8	0.00e+00	123	41	0	256901120	52	5691
2026-01-22 13:45:46.12	24.77	8.78	-39.4	-40.4	21.8	0.00e+00	123	41	0	260046848	52	5851
2026-01-22 13:45:47.13	24.83	8.86	-39.4	-40.4	21.9	0.00e+00	123	41	0	263192576	52	5857
2026-01-22 13:45:48.15	24.89	8.94	-39.1	-40.2	21.9	0.00e+00	121	41	0	266338304	52	5683
2026-01-22 13:45:49.15	24.95	9.02	-38.8	-39.9	22.2	0.00e+00	123	41	0	269484032	52	5479
2026-01-22 13:45:50.16	25.01	9.10	-39.0	-40.0	22.1	0.00e+00	123	41	0	272629760	52	5560
2026-01-22 13:45:51.17	25.07	9.18	-39.0	-40.1	22.1	0.00e+00	123	41	0	275775488	52	5605
2026-01-22 13:45:52.18	25.13	9.26	-38.7	-39.7	22.3	0.00e+00	120	41	0	278921216	50	6033
2026-01-22 13:45:53.19	25.19	9.34	-38.8	-39.9	22.2	0.00e+00	123	41	0	282066944	50	6137
2026-01-22 13:45:54.20	25.25	9.42	-38.6	-39.7	22.3	0.00e+00	123	41	0	285212672	50	5998
2026-01-22 13:45:55.21	25.31	9.50	-38.7	-39.7	22.3	0.00e+00	122	41	0	288358400	50	6028
2026-01-22 13:45:56.22	25.37	9.58	-38.5	-39.5	22.5	0.00e+00	122	41	0	291504128	50	5904
2026-01-22 13:45:57.23	25.43	9.66	-38.6	-39.6	22.4	0.00e+00	122	41	0	294649856	50	5969
2026-01-22 13:45:58.24	25.49	9.74	-38.5	-39.5	22.4	0.00e+00	123	41	0	297795584	50	5912
2026-01-22 13:45:59.25	25.55	9.82	-38.6	-39.6	22.4	0.00e+00	122	41	0	300941312	50	5978
2026-01-22 13:46:00.26	25.61	9.90	-38.4	-39.4	22.6	0.00e+00	123	41	0	304087040	50	5814
2026-01-22 13:46:01.27	25.68	9.99	-38.5	-39.5	22.5	0.00e+00	123	41	0	307232768	50	5922
2026-01-22 13:46:02.28	25.74	10.07	-38.5	-39.5	22.6	0.00e+00	120	41	0	310378496	50	5883
2026-01-22 13:46:03.29	25.80	10.15	-38.6	-39.6	22.4	0.00e+00	123	41	0	313524224	50	5971
2026-01-22 13:46:04.30	25.86	10.23	-38.4	-39.4	22.6	0.00e+00	122	41	0	316669952	50	5795
2026-01-22 13:46:05.31	25.93	10.32	-38.3	-39.3	22.7	0.00e+00	122	41	0	319815680	50	5777
2026-01-22 13:46:06.33	25.99	10.40	-38.3	-39.3	22.7	0.00e+00	123	41	0	322961408	50	5754
2026-01-22 13:46:07.33	26.06	10.48	-38.4	-39.4	22.7	0.00e+00	123	41	0	326107136	50	5792
2026-01-22 13:46:08.35	26.12	10.57	-38.3	-39.3	22.7	0.00e+00	120	41	0	329252864	50	5785
2026-01-22 13:46:09.35	26.19	10.65	-38.3	-39.3	22.7	0.00e+00	122	41	0	332398592	50	5735
2026-01-22 13:46:10.36	26.25	10.73	-38.2	-39.2	22.8	0.00e+00	123	41	0	335544320	50	5690
2026-01-22 13:46:11.38	26.32	10.82	-38.2	-39.2	22.8	0.00e+00	120	41	0	338690048	50	5661
2026-01-22 13:46:12.39	26.38	10.90	-38.0	-39.0	23.0	0.00e+00	123	41	0	341835776	50	5554
2026-01-22 13:46:13.39	26.45	10.99	-38.1	-39.0	22.9	0.00e+00	121	41	0	344981504	50	5592
2026-01-22 13:46:14.41	26.52	11.07	-38.1	-39.1	22.8	0.00e+00	123	41	0	348127232	50	5642
2026-01-22 13:46:15.42	26.58	11.16	-38.1	-39.1	22.8	0.00e+00	123	41	0	351272960	50	5646
2026-01-22 13:46:16.43	26.65	11.24	-37.9	-38.9	23.0	0.00e+00	122	41	0	354418688	50	5471
2026-01-22 13:46:17.43	26.72	11.33	-38.0	-39.0	23.0	0.00e+00	123	41	0	357564416	50	5568
2026-01-22 13:46:18.45	26.79	11.42	-38.0	-39.0	22.9	0.00e+00	122	41	0	360710144	50	5566
2026-01-22 13:46:19.46	26.85	11.50	-38.1	-39.0	22.9	0.00e+00	122	41	0	363855872	50	5583
2026-01-22 13:46:20.47	26.92	11.59	-37.9	-38.8	23.0	0.00e+00	120	41	0	367001600	50	5450
2026-01-22 13:46:21.48	26.99	11.67	-37.8	-38.7	23.2	0.00e+00	122	41	0	370147328	48	6042
2026-01-22 13:46:22.48	27.06	11.76	-37.9	-38.9	23.1	0.00e+00	120	41	0	373293056	48	6143
2026-01-22 13:46:23.50	27.13	11.85	-37.8	-38.8	23.1	0.00e+00	120	41	0	376438784	48	6065
2026-01-22 13:46:24.51	27.20	11.94	-37.7	-38.6	23.3	0.00e+00	122	41	0	379584512	48	5991
2026-01-22 13:46:25.52	27.27	12.03	-37.8	-38.7	23.2	0.00e+00	120	41	0	382730240	48	6041
2026-01-22 13:46:26.53	27.34	12.11	-37.6	-38.5	23.4	0.00e+00	123	41	0	385875968	48	5912
2026-01-22 13:46:27.54	27.42	12.20	-37.6	-38.6	23.3	0.00e+00	123	41	0	389021696	48	5938
2026-01-22 13:46:28.55	27.49	12.29	-37.7	-38.7	23.3	0.00e+00	121	41	0	392167424	48	6003
2026-01-22 13:46:29.56	27.56	12.38	-37.5	-38.5	23.5	0.00e+00	120	41	0	395313152	48	5867
2026-01-22 13:46:30.57	27.63	12.47	-37.6	-38.6	23.3	0.00e+00	122	41	0	398458880	48	5941
2026-01-22 13:46:31.58	27.71	12.56	-37.5	-38.4	23.5	0.00e+00	123	41	0	401604608	48	5843
2026-01-22 13:46:32.59	27.78	12.65	-37.6	-38.5	23.4	0.00e+00	123	41	0	404750336	48	5912
2026-01-22 13:46:33.60	27.85	12.74	-37.6	-38.5	23.4	0.00e+00	120	41	0	407896064	48	5926
2026-01-22 13:46:34.60	27.93	12.83	-37.4	-38.4	23.6	0.00e+00	123	41	0	411041792	48	5800
2026-01-22 13:46:35.61	28.00	12.92	-37.3	-38.3	23.5	0.00e+00	120	41	0	414187520	48	5743
2026-01-22 13:46:36.62	28.08	13.01	-37.4	-38.3	23.6	0.00e+00	122	41	0	417333248	48	5771
2026-01-22 13:46:37.64	28.15	13.10	-37.4	-38.3	23.5	0.00e+00	122	41	0	420478976	48	5781
2026-01-22 13:46:38.65	28.23	13.20	-37.4	-38.3	23.6	0.00e+00	123	41	0	423624704	48	5774
2026-01-22 13:46:39.65	28.31	13.29	-37.5	-38.5	23.4	0.00e+00	120	41	0	426770432	48	5878
2026-01-22 13:46:40.67	28.38	13.38	-37.3	-38.3	23.6	0.00e+00	123	41	0	429916160	48	5737
2026-01-22 13:46:41.67	28.46	13.47	-37.4	-38.4	23.5	0.00e+00	123	41	0	433061888	48	5806
2026-01-22 13:46:42.68	28.54	13.57	-37.3	-38.2	23.7	0.00e+00	122	41	0	436207616	48	5688
2026-01-22 13:46:43.69	28.62	13.66	-37.4	-38.3	23.5	0.00e+00	121	41	0	439353344	48	5790
2026-01-22 13:46:44.70	28.70	13.75	-37.4	-38.4	23.5	0.00e+00	120	41	0	442499072	48	5799
2026-01-22 13:46:45.71	28.78	13.85	-37.2	-38.1	23.7	0.00e+00	123	41	0	445644800	48	5645
2026-01-22 13:46:46.72	28.86	13.94	-37.4	-38.3	23.6	0.00e+00	123	41	0	448790528	48	5774
2026-01-22 13:46:47.73	28.94	14.04	-37.2	-38.1	23.7	0.00e+00	123	41	0	451936256	48	5657
2026-01-22 13:46:48.74	29.02	14.13	-37.3	-38.3	23.7	0.00e+00	122	41	0	455081984	48	5743
2026-01-22 13:46:49.75	29.10	14.23	-37.3	-38.2	23.7	0.00e+00	123	41	0	458227712	48	5724
2026-01-22 13:46:50.76	29.18	14.32	-37.4	-38.3	23.6	0.00e+00	123	41	0	461373440	48	5755
2026-01-22 13:46:51.77	29.26	14.42	-37.6	-38.5	23.5	0.00e+00	123	41	0	464519168	48	5895
2026-01-22 13:46:52.78	29.34	14.51	-37.5	-38.5	23.5	0.00e+00	123	41	0	467664896	48	5886
2026-01-22 13:46:53.79	29.43	14.61	-37.4	-38.4	23.5	0.00e+00	121	41	0	470810624	48	5824
2026-01-22 13:46:54.80	29.51	14.71	-37.5	-38.4	23.5	0.00e+00	123	41	0	473956352	48	5855
2026-01-22 13:46:55.81	29.60	14.80	-37.5	-38.5	23.5	0.00e+00	123	41	0	477102080	48	5860
2026-01-22 13:46:56.82	29.68	14.90	-37.4	-38.4	23.6	0.00e+00	122	41	0	480247808	48	5804
2026-01-22 13:46:57.82	29.77	15.00	-37.5	-38.5	23.5	0.00e+00	123	41	0	483393536	48	5888
2026-01-22 13:46:58.83	29.85	15.10	-37.4	-38.4	23.6	0.00e+00	123	41	0	486539264	48	5801
2026-01-22 13:46:59.84	29.94	15.20	-37.5	-38.5	23.5	0.00e+00	122	41	0	489684992	48	5890
2026-01-22 13:47:00.85	30.03	15.30	-37.6	-38.5	23.5	0.00e+00	122	41	0	492830720	48	5924
2026-01-22 13:47:01.86	30.11	15.39	-37.5	-38.5	23.6	0.00e+00	122	41	0	495976448	48	5868
2026-01-22 13:47:02.87	30.20	15.49	-37.6	-38.5	23.5	0.00e+00	122	41	0	499122176	48	5914
2026-01-22 13:47:03.88	30.29	15.59	-37.7	-38.6	23.4	0.00e+00	122	41	0	502267904	48	5966
2026-01-22 13:47:04.89	30.38	15.69	-37.8	-38.7	23.5	0.00e+00	123	41	0	505413632	48	6033
2026-01-22 13:47:05.90	30.47	15.80	-37.7	-38.7	23.4	0.00e+00	120	41	0	508559360	48	6028
2026-01-22 13:47:06.91	30.56	15.90	-37.7	-38.7	23.4	0.00e+00	123	41	0	511705088	48	6015
2026-01-22 13:47:07.92	30.65	16.00	-37.8	-38.8	23.3	0.00e+00	123	41	0	514850816	48	6108
2026-01-22 13:47:08.93	30.74	16.10	-37.8	-38.8	23.3	0.00e+00	123	41	0	517996544	48	6070
2026-01-22 13:47:09.94	30.83	16.20	-37.9	-38.8	23.3	0.00e+00	123	41	0	522190848	48	6122
2026-01-22 13:47:10.95	30.93	16.30	-37.9	-38.8	23.3	0.00e+00	123	41	0	525336576	48	6128
2026-01-22 13:47:11.96	31.02	16.41	-37.9	-38.9	23.3	0.00e+00	122	41	0	527433728	48	6172
2026-01-22 13:47:12.98	31.12	16.51	-38.0	-39.0	23.2	0.00e+00	123	41	0	530579456	48	6217
2026-01-22 13:47:13.99	31.21	16.62	-38.1	-39.0	23.1	0.00e+00	120	41	0	533725184	48	6258
2026-01-22 13:47:14.99	31.30	16.72	-38.0	-38.9	23.3	0.00e+00	122	41	0	537919488	48	6189
2026-01-22 13:47:16.00	31.40	16.82	-38.1	-39.1	23.1	0.00e+00	122	41	0	541065216	48	6288
2026-01-22 13:47:17.01	31.50	16.93	-38.1	-39.0	23.2	0.00e+00	123	41	0	544210944	48	6266
2026-01-22 13:47:18.02	31.59	17.03	-38.1	-39.0	23.2	0.00e+00	122	41	0	547356672	48	6274
2026-01-22 13:47:19.03	31.69	17.14	-38.2	-39.2	23.0	0.00e+00	123	41	0	549453824	48	6356
2026-01-22 13:47:20.04	31.79	17.24	-38.2	-39.2	23.1	0.00e+00	123	41	0	553648128	48	6366
2026-01-22 13:47:21.05	31.89	17.35	-38.0	-39.0	23.2	0.00e+00	123	41	0	556793856	48	6247
2026-01-22 13:47:22.06	31.99	17.46	-38.1	-39.1	23.2	0.00e+00	123	41	0	559939584	48	6313
2026-01-22 13:47:23.07	32.09	17.56	-38.1	-39.0	23.1	0.00e+00	122	41	0	563085312	48	6276
2026-01-22 13:47:24.08	32.19	17.67	-38.1	-39.1	23.2	0.00e+00	123	42	0	566231040	48	6294
2026-01-22 13:47:25.09	32.29	17.78	-38.1	-39.1	23.2	0.00e+00	122	41	0	569376768	48	6295
2026-01-22 13:47:26.10	32.39	17.89	-38.1	-39.1	23.1	0.00e+00	120	41	0	572522496	48	6316
2026-01-22 13:47:27.11	32.50	18.00	-38.1	-39.1	23.1	0.00e+00	122	41	0	575668224	48	6310
2026-01-22 13:47:28.12	32.60	18.10	-38.0	-39.0	23.2	0.00e+00	123	41	0	578813952	48	6250
2026-01-22 13:47:29.13	32.71	18.21	-38.0	-38.9	23.3	0.00e+00	123	41	0	581959680	48	6194
2026-01-22 13:47:30.14	32.81	18.32	-38.1	-39.1	23.2	0.00e+00	123	41	0	585105408	48	6285
2026-01-22 13:47:31.14	32.92	18.43	-38.1	-39.1	23.2	0.00e+00	120	41	0	588251136	48	6297
2026-01-22 13:47:32.15	33.02	18.54	-38.0	-39.0	23.3	0.00e+00	123	42	0	591396864	48	6220
2026-01-22 13:47:33.16	33.13	18.66	-38.1	-39.1	23.1	0.00e+00	123	42	0	594542592	48	6304
2026-01-22 13:47:34.17	33.24	18.77	-38.1	-39.1	23.2	0.00e+00	122	41	0	597688320	48	6285
2026-01-22 13:47:35.18	33.35	18.88	-38.0	-39.0	23.2	0.00e+00	122	42	0	600834048	48	6226
2026-01-22 13:47:36.19	33.46	18.99	-38.0	-39.0	23.2	0.00e+00	120	41	0	603979776	48	6222
2026-01-22 13:47:37.20	33.57	19.10	-38.0	-39.0	23.2	0.00e+00	123	42	0	607125504	48	6216
2026-01-22 13:47:38.21	33.68	19.22	-37.7	-38.6	23.4	0.00e+00	120	41	0	610271232	48	5986
2026-01-22 13:47:39.22	33.79	19.33	-37.7	-38.7	23.4	0.00e+00	123	41	0	613416960	48	6025
2026-01-22 13:47:40.23	33.91	19.44	-37.6	-38.5	23.5	0.00e+00	123	41	0	616562688	48	5918
2026-01-22 13:47:41.24	34.02	19.56	-37.5	-38.5	23.6	0.00e+00	122	42	0	619708416	48	5888
2026-01-22 13:47:42.25	34.13	19.67	-37.4	-38.4	23.7	0.00e+00	123	42	0	622854144	48	5792
2026-01-22 13:47:43.26	34.25	19.79	-37.4	-38.4	23.6	0.00e+00	123	41	0	625999872	48	5807
2026-01-22 13:47:44.27	34.37	19.90	-37.3	-38.2	23.8	0.00e+00	123	41	0	629145600	48	5710
2026-01-22 13:47:45.28	34.48	20.02	-37.1	-38.0	23.9	0.00e+00	123	42	0	632291328	48	5576
2026-01-22 13:47:46.29	34.60	20.14	-37.2	-38.1	23.9	0.00e+00	123	41	0	635437056	48	5635
2026-01-22 13:47:47.30	34.72	20.25	-37.1	-38.0	24.0	0.00e+00	123	41	0	638582784	48	5571
2026-01-22 13:47:48.31	34.84	20.37	-37.0	-38.0	23.9	0.00e+00	123	41	0	641728512	48	5532
2026-01-22 13:47:49.32	34.96	20.49	-37.0	-37.9	24.0	0.00e+00	121	41	0	644874240	48	5475
2026-01-22 13:47:50.33	35.08	20.61	-37.1	-38.0	23.9	0.00e+00	120	42	0	648019968	48	5592
2026-01-22 13:47:51.34	35.20	20.73	-36.8	-37.7	24.1	0.00e+00	120	42	0	651165696	48	5387
2026-01-22 13:47:52.34	35.33	20.84	-36.6	-37.5	24.3	0.00e+00	123	42	0	654311424	46	5912
2026-01-22 13:47:53.35	35.45	20.96	-36.7	-37.6	24.3	0.00e+00	121	42	0	657457152	46	5946
2026-01-22 13:47:54.36	35.58	21.08	-36.6	-37.5	24.4	0.00e+00	123	42	0	660602880	46	5893
2026-01-22 13:47:55.37	35.70	21.20	-36.4	-37.3	24.5	0.00e+00	120	42	0	663748608	46	5759
2026-01-22 13:47:56.38	35.83	21.32	-36.3	-37.2	24.5	0.00e+00	123	42	0	666894336	46	5718
2026-01-22 13:47:57.39	35.96	21.45	-36.4	-37.3	24.5	0.00e+00	122	42	0	670040064	46	5764
2026-01-22 13:47:58.40	36.09	21.57	-36.3	-37.2	24.6	0.00e+00	123	41	0	673185792	46	5692
2026-01-22 13:47:59.41	36.22	21.69	-36.3	-37.2	24.6	0.00e+00	120	41	0	676331520	46	5667
2026-01-22 13:48:00.42	36.35	21.81	-36.3	-37.1	24.6	0.00e+00	122	42	0	679477248	46	5653
2026-01-22 13:48:01.43	36.48	21.93	-36.2	-37.1	24.6	0.00e+00	122	41	0	682622976	46	5635
2026-01-22 13:48:02.44	36.61	22.06	-36.2	-37.1	24.6	0.00e+00	123	41	0	685768704	46	5639
2026-01-22 13:48:03.45	36.75	22.18	-36.4	-37.2	24.6	0.00e+00	123	42	0	688914432	46	5716
2026-01-22 13:48:04.46	36.88	22.31	-36.2	-37.1	24.7	0.00e+00	122	42	0	692060160	46	5627
2026-01-22 13:48:05.47	37.02	22.43	-36.1	-37.0	24.7	0.00e+00	120	42	0	695205888	46	5559
2026-01-22 13:48:06.48	37.15	22.56	-36.3	-37.2	24.5	0.00e+00	123	41	0	698351616	46	5700
2026-01-22 13:48:07.49	37.29	22.68	-36.2	-37.1	24.7	0.00e+00	122	42	0	701497344	46	5610
2026-01-22 13:48:08.50	37.43	22.81	-35.9	-36.8	25.0	0.00e+00	123	41	0	704643072	46	5415
2026-01-22 13:48:09.51	37.57	22.94	-35.9	-36.8	24.9	0.00e+00	123	42	0	707788800	46	5446
2026-01-22 13:48:10.52	37.71	23.06	-35.9	-36.8	25.0	0.00e+00	122	42	0	710934528	46	5409
2026-01-22 13:48:11.54	37.86	23.19	-35.9	-36.8	24.9	0.00e+00	122	42	0	714080256	46	5416
2026-01-22 13:48:12.54	38.00	23.32	-35.9	-36.7	24.9	0.00e+00	123	42	0	717225984	46	5383
2026-01-22 13:48:13.56	38.15	23.45	-36.0	-36.8	24.9	0.00e+00	120	42	0	720371712	46	5452
2026-01-22 13:48:14.56	38.29	23.58	-35.9	-36.7	24.9	0.00e+00	123	42	0	723517440	46	5404
2026-01-22 13:48:15.58	38.44	23.71	-35.9	-36.7	24.9	0.00e+00	120	42	0	726663168	46	5389
2026-01-22 13:48:16.59	38.59	23.84	-35.9	-36.8	24.9	0.00e+00	122	41	0	729808896	46	5435
2026-01-22 13:48:17.60	38.74	23.97	-35.9	-36.8	25.0	0.00e+00	123	42	0	732954624	46	5431
2026-01-22 13:48:18.61	38.89	24.10	-36.1	-37.0	24.8	0.00e+00	123	41	0	736100352	46	5576
2026-01-22 13:48:19.62	39.04	24.23	-36.2	-37.0	24.7	0.00e+00	122	41	0	739246080	46	5591
2026-01-22 13:48:20.63	39.20	24.36	-36.1	-37.0	24.9	0.00e+00	123	42	0	742391808	46	5548
2026-01-22 13:48:21.64	39.35	24.49	-36.2	-37.1	24.7	0.00e+00	122	42	0	745537536	46	5649
2026-01-22 13:48:22.65	39.51	24.63	-36.4	-37.3	24.6	0.00e+00	123	42	0	748683264	46	5782
2026-01-22 13:48:23.66	39.66	24.76	-36.5	-37.5	24.5	0.00e+00	122	42	0	751828992	46	5861
2026-01-22 13:48:24.67	39.82	24.89	-36.6	-37.5	24.5	0.00e+00	122	42	0	754974720	46	5875
2026-01-22 13:48:25.68	39.98	25.03	-36.5	-37.4	24.6	0.00e+00	122	42	0	758120448	46	5848
2026-01-22 13:48:26.69	40.14	25.16	-36.6	-37.5	24.5	0.00e+00	123	42	0	761266176	46	5904
2026-01-22 13:48:27.70	40.30	25.30	-36.8	-37.7	24.4	0.00e+00	120	42	0	764411904	46	6046
2026-01-22 13:48:28.71	40.47	25.43	-37.0	-37.9	24.2	0.00e+00	123	42	0	767557632	46	6190
2026-01-22 13:48:29.72	40.63	25.57	-37.1	-38.0	24.1	0.00e+00	123	41	0	770703360	46	6241
2026-01-22 13:48:30.73	40.80	25.70	-37.0	-37.9	24.2	0.00e+00	122	42	0	773849088	46	6168
2026-01-22 13:48:31.74	40.97	25.84	-37.0	-37.9	24.2	0.00e+00	120	42	0	776994816	46	6160
2026-01-22 13:48:32.75	41.14	25.98	-37.0	-37.9	24.2	0.00e+00	120	42	0	780140544	46	6191
2026-01-22 13:48:33.76	41.31	26.12	-37.0	-37.9	24.2	0.00e+00	122	42	0	783286272	46	6195
2026-01-22 13:48:34.77	41.48	26.25	-37.0	-38.0	24.2	0.00e+00	122	42	0	786432000	46	6206
2026-01-22 13:48:35.78	41.65	26.39	-37.1	-38.0	24.2	0.00e+00	122	41	0	789577728	46	6241
2026-01-22 13:48:36.79	41.83	26.53	-37.2	-38.1	24.0	0.00e+00	123	42	0	792723456	46	6324
2026-01-22 13:48:37.80	42.01	26.67	-37.3	-38.2	24.0	0.00e+00	123	41	0	795869184	46	6398
2026-01-22 13:48:38.81	42.18	26.81	-37.1	-38.0	24.2	0.00e+00	123	42	0	799014912	46	6239
2026-01-22 13:48:39.82	42.36	26.95	-37.2	-38.1	24.1	0.00e+00	123	42	0	802160640	46	6305
2026-01-22 13:48:40.83	42.55	27.09	-37.2	-38.1	24.0	0.00e+00	122	42	0	805306368	46	6321
2026-01-22 13:48:41.84	42.73	27.23	-37.1	-38.0	24.1	0.00e+00	120	42	0	808452096	46	6249
2026-01-22 13:48:42.85	42.91	27.38	-36.9	-37.8	24.3	0.00e+00	123	42	0	811597824	46	6114
2026-01-22 13:48:43.86	43.10	27.52	-37.0	-37.9	24.2	0.00e+00	120	42	0	814743552	46	6186
2026-01-22 13:48:44.87	43.29	27.66	-37.1	-38.0	24.1	0.00e+00	123	42	0	817889280	46	6249
2026-01-22 13:48:45.88	43.48	27.80	-37.2	-38.1	24.0	0.00e+00	123	42	0	821035008	46	6326
2026-01-22 13:48:46.89	43.67	27.95	-37.2	-38.1	24.1	0.00e+00	122	42	0	824180736	46	6341
2026-01-22 13:48:47.90	43.86	28.09	-37.3	-38.3	23.9	0.00e+00	122	42	0	827326464	46	6424
2026-01-22 13:48:48.91	44.05	28.24	-37.2	-38.1	24.0	0.00e+00	122	42	0	830472192	46	6309
2026-01-22 13:48:49.93	44.25	28.38	-37.2	-38.2	24.0	0.00e+00	122	42	0	833617920	46	6362
2026-01-22 13:48:50.94	44.45	28.53	-37.2	-38.2	24.0	0.00e+00	123	42	0	837812224	46	6360
2026-01-22 13:48:51.95	44.65	28.67	-37.1	-38.0	24.2	0.00e+00	123	42	0	840957952	46	6260
2026-01-22 13:48:52.96	44.85	28.82	-37.2	-38.1	24.1	0.00e+00	122	42	0	843055104	46	6328
2026-01-22 13:48:53.97	45.05	28.96	-37.3	-38.2	24.0	0.00e+00	122	41	0	846200832	46	6417
2026-01-22 13:48:54.98	45.26	29.11	-37.1	-38.0	24.2	0.00e+00	122	42	0	849346560	46	6273
2026-01-22 13:48:55.98	45.46	29.26	-37.1	-38.0	24.1	0.00e+00	122	42	0	852492288	46	6262
2026-01-22 13:48:56.99	45.67	29.40	-37.1	-38.0	24.2	0.00e+00	120	42	0	856686592	46	6245
2026-01-22 13:48:58.01	45.89	29.55	-37.0	-37.9	24.2	0.00e+00	123	42	0	859832320	46	6148
2026-01-22 13:48:59.02	46.10	29.70	-36.9	-37.8	24.3	0.00e+00	123	42	0	862978048	46	6090
2026-01-22 13:49:00.03	46.31	29.85	-36.8	-37.7	24.4	0.00e+00	123	42	0	866123776	46	6035
2026-01-22 13:49:01.04	46.53	30.00	-36.9	-37.8	24.4	0.00e+00	123	42	0	869269504	46	6081
2026-01-22 13:49:02.05	46.75	30.15	-37.0	-37.9	24.3	0.00e+00	120	42	0	872415232	46	6152
2026-01-22 13:49:03.06	46.97	30.30	-37.0	-37.9	24.3	0.00e+00	123	42	0	875560960	46	6201
2026-01-22 13:49:04.06	47.19	30.45	-37.2	-38.1	24.1	0.00e+00	122	42	0	878706688	46	6341
2026-01-22 13:49:05.07	47.41	30.60	-37.3	-38.2	24.0	0.00e+00	122	42	0	881852416	46	6404
2026-01-22 13:49:06.08	47.64	30.75	-37.5	-38.4	23.9	0.00e+00	122	42	0	884998144	46	6539
2026-01-22 13:49:07.09	47.87	30.90	-37.6	-38.5	23.8	0.00e+00	123	42	0	888143872	46	6608
2026-01-22 13:49:08.10	48.10	31.05	-37.8	-38.7	23.6	0.00e+00	122	42	0	891289600	48	6055
2026-01-22 13:49:09.11	48.33	31.20	-37.8	-38.7	23.6	0.00e+00	122	42	0	894435328	48	6048
2026-01-22 13:49:10.12	48.56	31.35	-37.7	-38.6	23.7	0.00e+00	122	42	0	897581056	48	5975
2026-01-22 13:49:11.13	48.80	31.50	-37.9	-38.9	23.5	0.00e+00	123	42	0	900726784	48	6143
2026-01-22 13:49:12.14	49.04	31.65	-37.9	-38.9	23.3	0.00e+00	122	42	0	903872512	48	6166
2026-01-22 13:49:13.15	49.28	31.81	-38.2	-39.1	23.2	0.00e+00	120	42	0	907018240	48	6342
2026-01-22 13:49:14.16	49.53	31.96	-38.1	-39.0	23.3	0.00e+00	123	42	0	910163968	48	6257
2026-01-22 13:49:15.17	49.77	32.11	-38.2	-39.1	23.3	0.00e+00	123	42	0	913309696	48	6341
2026-01-22 13:49:16.18	50.02	32.27	-38.2	-39.2	23.3	0.00e+00	123	42	0	916455424	48	6369
2026-01-22 13:49:17.18	50.27	32.42	-38.3	-39.3	23.1	0.00e+00	123	42	0	919601152	48	6451
2026-01-22 13:49:18.19	50.52	32.57	-38.4	-39.4	23.1	0.00e+00	120	42	0	922746880	48	6515
2026-01-22 13:49:19.21	50.78	32.73	-38.2	-39.2	23.3	0.00e+00	122	42	0	925892608	48	6354
2026-01-22 13:49:20.22	51.04	32.88	-38.1	-39.0	23.4	0.00e+00	123	42	0	929038336	48	6248
2026-01-22 13:49:21.22	51.29	33.03	-38.1	-39.0	23.4	0.00e+00	122	42	0	932184064	48	6268
2026-01-22 13:49:22.23	51.55	33.19	-37.9	-38.9	23.6	0.00e+00	123	42	0	935329792	48	6151
2026-01-22 13:49:23.24	51.82	33.34	-38.1	-39.0	23.4	0.00e+00	122	42	0	938475520	48	6229
2026-01-22 13:49:24.25	52.09	33.50	-37.9	-38.8	23.5	0.00e+00	122	42	0	941621248	48	6117
2026-01-22 13:49:25.26	52.36	33.65	-38.1	-39.1	23.3	0.00e+00	123	42	0	944766976	48	6309
2026-01-22 13:49:26.27	52.63	33.81	-38.3	-39.3	23.3	0.00e+00	122	42	0	947912704	48	6429
2026-01-22 13:49:27.28	52.90	33.96	-38.3	-39.2	23.2	0.00e+00	121	42	0	951058432	48	6414
2026-01-22 13:49:28.29	53.18	34.11	-38.2	-39.2	23.2	0.00e+00	123	42	0	954204160	48	6368
2026-01-22 13:49:29.30	53.46	34.27	-38.0	-39.0	23.4	0.00e+00	122	42	0	957349888	48	6228
2026-01-22 13:49:30.31	53.74	34.42	-38.1	-39.0	23.3	0.00e+00	123	42	0	960495616	48	6254
2026-01-22 13:49:31.32	54.03	34.58	-38.1	-39.1	23.3	0.00e+00	123	42	0	963641344	48	6295
2026-01-22 13:49:32.34	54.32	34.74	-38.3	-39.3	23.2	0.00e+00	122	42	0	966787072	48	6453
2026-01-22 13:49:33.35	54.61	34.89	-38.4	-39.4	23.1	0.00e+00	123	42	0	969932800	48	6553
2026-01-22 13:49:34.36	54.90	35.05	-38.5	-39.5	23.0	0.00e+00	122	42	0	973078528	48	6613
2026-01-22 13:49:35.37	55.20	35.20	-38.5	-39.5	23.0	0.00e+00	123	42	0	976224256	48	6589
2026-01-22 13:49:36.37	55.50	35.35	-38.5	-39.5	23.0	0.00e+00	123	42	0	979369984	48	6622
2026-01-22 13:49:37.38	55.80	35.51	-38.5	-39.5	23.0	0.00e+00	123	42	0	982515712	48	6600
2026-01-22 13:49:38.39	56.10	35.66	-38.6	-39.6	22.9	0.00e+00	120	42	0	985661440	48	6660
2026-01-22 13:49:39.40	56.41	35.82	-38.4	-39.4	23.1	0.00e+00	122	42	0	988807168	48	6547
2026-01-22 13:49:40.41	56.72	35.97	-38.4	-39.3	23.1	0.00e+00	123	42	0	991952896	48	6496
2026-01-22 13:49:41.42	57.03	36.12	-38.4	-39.4	23.0	0.00e+00	123	42	0	995098624	48	6505
2026-01-22 13:49:42.43	57.35	36.28	-38.5	-39.4	23.1	0.00e+00	123	42	0	998244352	48	6557
2026-01-22 13:49:43.44	57.67	36.43	-38.6	-39.6	22.8	0.00e+00	123	42	0	1001390080	48	6675
2026-01-22 13:49:44.45	57.99	36.58	-38.6	-39.6	22.9	0.00e+00	123	42	0	1004535808	48	6702
2026-01-22 13:49:45.46	58.32	36.74	-38.8	-39.8	22.8	0.00e+00	123	42	0	1007681536	50	6072
2026-01-22 13:49:46.47	58.65	36.89	-38.8	-39.8	22.8	0.00e+00	123	42	0	1010827264	50	6068
2026-01-22 13:49:47.48	58.98	37.04	-38.5	-39.5	23.0	0.00e+00	120	42	0	1013972992	50	5888
2026-01-22 13:49:48.48	59.31	37.19	-38.7	-39.7	22.9	0.00e+00	121	42	0	1017118720	50	6005
2026-01-22 13:49:49.49	59.64	37.34	-38.5	-39.5	23.0	0.00e+00	123	42	0	1020264448	50	5865
2026-01-22 13:49:50.50	59.99	37.50	-38.7	-39.7	22.8	0.00e+00	121	42	0	1023410176	50	6022
2026-01-22 13:49:51.51	60.33	37.65	-39.0	-40.0	22.6	0.00e+00	120	42	0	1026555904	50	6211
2026-01-22 13:49:52.52	60.68	37.80	-39.1	-40.1	22.5	0.00e+00	122	42	0	1029701632	50	6304
2026-01-22 13:49:53.54	61.03	37.95	-38.8	-39.8	22.7	0.00e+00	123	42	0	1032847360	50	6125
2026-01-22 13:49:54.55	61.38	38.10	-38.8	-39.9	22.8	0.00e+00	122	42	0	1035993088	50	6137
2026-01-22 13:49:55.56	61.74	38.25	-38.7	-39.7	22.8	0.00e+00	122	42	0	1039138816	50	6040
2026-01-22 13:49:56.57	62.10	38.39	-38.6	-39.6	23.0	0.00e+00	123	42	0	1042284544	50	5972
2026-01-22 13:49:57.58	62.46	38.54	-38.7	-39.7	22.9	0.00e+00	122	42	0	1045430272	50	6010
2026-01-22 13:49:58.59	62.83	38.69	-38.8	-39.8	22.8	0.00e+00	120	42	0	1048576000	50	6080
2026-01-22 13:49:59.60	63.20	38.84	-38.6	-39.5	23.0	0.00e+00	123	42	0	1051721728	50	5915
2026-01-22 13:50:00.61	63.57	38.98	-38.7	-39.7	22.9	0.00e+00	122	42	0	1054867456	50	6004
2026-01-22 13:50:01.62	63.94	39.13	-38.7	-39.7	22.9	0.00e+00	123	42	0	1058013184	50	6037
2026-01-22 13:50:02.63	64.32	39.27	-38.9	-39.8	22.7	0.00e+00	123	42	0	1061158912	50	6132
2026-01-22 13:50:03.64	64.71	39.41	-39.0	-40.0	22.6	0.00e+00	122	42	0	1064304640	50	6270
2026-01-22 13:50:04.65	65.09	39.56	-39.0	-40.0	22.6	0.00e+00	122	42	0	1067450368	50	6232
2026-01-22 13:50:05.66	65.48	39.70	-38.9	-39.9	22.7	0.00e+00	123	42	0	1070596096	50	6180
2026-01-22 13:50:06.67	65.87	39.84	-38.9	-39.8	22.7	0.00e+00	122	42	0	1073741824	50	6128
2026-01-22 13:50:07.68	66.27	39.98	-39.2	-40.2	22.4	0.00e+00	123	42	0	1076887552	50	6402
2026-01-22 13:50:08.69	66.67	40.12	-39.6	-40.6	22.2	0.00e+00	122	42	0	1080033280	50	6697
2026-01-22 13:50:09.70	67.07	40.26	-40.0	-41.0	21.8	0.00e+00	122	42	0	1083179008	52	6259
2026-01-22 13:50:10.71	67.48	40.39	-40.1	-41.1	21.7	0.00e+00	123	42	0	1086324736	52	6344
2026-01-22 13:50:11.72	67.89	40.53	-40.1	-41.2	21.7	0.00e+00	123	42	0	1089470464	52	6388
2026-01-22 13:50:12.73	68.30	40.66	-39.9	-41.0	21.9	0.00e+00	121	42	0	1092616192	52	6219
2026-01-22 13:50:13.74	68.72	40.80	-39.8	-40.9	21.9	0.00e+00	123	42	0	1095761920	52	6161
2026-01-22 13:50:14.75	69.14	40.93	-39.7	-40.8	22.0	0.00e+00	123	42	0	1098907648	52	6097
2026-01-22 13:50:15.76	69.56	41.06	-39.6	-40.6	22.1	0.00e+00	123	42	0	1102053376	52	5975
2026-01-22 13:50:16.77	69.99	41.19	-39.8	-40.8	21.9	0.00e+00	123	42	0	1105199104	52	6074
2026-01-22 13:50:17.78	70.42	41.32	-39.9	-40.9	21.8	0.00e+00	122	42	0	1108344832	52	6188
2026-01-22 13:50:18.79	70.85	41.45	-40.1	-41.2	21.6	0.00e+00	123	42	0	1111490560	52	6354
2026-01-22 13:50:19.79	71.28	41.57	-40.3	-41.4	21.5	0.00e+00	122	42	0	1114636288	52	6546
2026-01-22 13:50:20.80	71.72	41.70	-40.5	-41.6	21.2	0.00e+00	122	42	0	1117782016	52	6683
2026-01-22 13:50:21.81	72.16	41.82	-40.4	-41.5	21.2	0.00e+00	123	42	0	1120927744	52	6589
2026-01-22 13:50:22.82	72.61	41.94	-40.6	-41.7	20.9	0.00e+00	122	42	0	1124073472	52	6804
2026-01-22 13:50:23.83	73.06	42.06	-40.5	-41.7	21.0	0.00e+00	123	42	0	1127219200	54	6010
2026-01-22 13:50:24.84	73.52	42.18	-40.5	-41.6	21.1	0.00e+00	122	42	0	1130364928	54	5979
2026-01-22 13:50:25.85	73.97	42.30	-40.4	-41.5	21.3	0.00e+00	123	42	0	1133510656	54	5874
2026-01-22 13:50:26.86	74.43	42.41	-40.4	-41.5	21.3	0.00e+00	122	42	0	1136656384	54	5885
2026-01-22 13:50:27.87	74.90	42.53	-40.2	-41.2	21.4	0.00e+00	123	42	0	1139802112	54	5718
2026-01-22 13:50:28.88	75.36	42.64	-40.2	-41.4	21.1	0.00e+00	120	42	0	1142947840	54	5809
2026-01-22 13:50:29.89	75.83	42.75	-40.4	-41.5	21.1	0.00e+00	122	42	0	1146093568	54	5906
2026-01-22 13:50:30.90	76.30	42.86	-40.3	-41.5	21.3	0.00e+00	122	42	0	1149239296	54	5876
2026-01-22 13:50:31.90	76.78	42.96	-39.9	-41.0	21.9	0.00e+00	122	42	0	1152385024	54	5536
2026-01-22 13:50:32.91	77.25	43.07	-39.6	-40.7	22.1	0.00e+00	123	42	0	1155530752	52	6006
2026-01-22 13:50:33.92	77.74	43.17	-39.6	-40.7	21.9	0.00e+00	123	42	0	1158676480	52	5995
2026-01-22 13:50:34.93	78.22	43.27	-39.8	-40.9	21.4	0.00e+00	122	42	0	1161822208	52	6158
2026-01-22 13:50:35.94	78.71	43.37	-40.4	-41.5	21.1	0.00e+00	122	42	0	1164967936	52	6623
2026-01-22 13:50:36.96	79.21	43.47	-40.4	-41.6	21.2	0.00e+00	122	42	0	1168113664	52	6660
2026-01-22 13:50:37.96	79.70	43.56	-39.8	-40.9	21.9	0.00e+00	122	42	0	1171259392	52	6167
2026-01-22 13:50:38.98	80.20	43.65	-39.7	-40.7	22.0	0.00e+00	120	42	0	1174405120	52	6016
2026-01-22 13:50:39.98	80.69	43.74	-40.0	-41.0	21.5	0.00e+00	123	42	0	1177550848	52	6271
2026-01-22 13:50:40.99	81.20	43.83	-40.5	-41.7	21.0	0.00e+00	122	42	0	1181745152	52	6731
2026-01-22 13:50:42.00	81.70	43.92	-40.9	-42.2	20.5	0.00e+00	120	42	0	1183842304	54	6356
2026-01-22 13:50:43.01	82.21	44.00	-41.4	-42.6	20.1	0.00e+00	122	42	0	1186988032	54	6724
2026-01-22 13:50:44.02	82.72	44.08	-40.9	-42.0	20.9	0.00e+00	123	42	0	1190133760	54	6267
2026-01-22 13:50:45.03	83.23	44.16	-40.3	-41.4	21.5	0.00e+00	123	42	0	1193279488	54	5824
2026-01-22 13:50:46.04	83.75	44.24	-40.1	-41.2	21.4	0.00e+00	120	42	0	1197473792	54	5706
2026-01-22 13:50:47.05	84.27	44.32	-39.9	-41.0	21.7	0.00e+00	123	42	0	1200619520	54	5540
2026-01-22 13:50:48.06	84.79	44.39	-39.9	-40.9	21.8	0.00e+00	121	42	0	1203765248	54	5520
2026-01-22 13:50:49.07	85.31	44.46	-39.8	-40.8	22.0	0.00e+00	123	42	0	1206910976	52	6110
2026-01-22 13:50:50.08	85.84	44.52	-39.9	-41.0	21.9	0.00e+00	123	42	0	1209008128	52	6206
2026-01-22 13:50:51.09	86.36	44.59	-39.8	-40.9	21.9	0.00e+00	123	42	0	1213202432	52	6136
2026-01-22 13:50:52.10	86.89	44.65	-39.8	-40.8	21.9	0.00e+00	122	42	0	1216348160	52	6102
2026-01-22 13:50:53.11	87.42	44.71	-39.8	-40.9	21.9	0.00e+00	120	42	0	1219493888	52	6164
2026-01-22 13:50:54.12	87.96	44.77	-39.9	-40.9	21.9	0.00e+00	122	42	0	1222639616	52	6194
2026-01-22 13:50:55.13	88.49	44.82	-40.0	-41.1	21.9	0.00e+00	120	42	0	1225785344	52	6292
2026-01-22 13:50:56.14	89.03	44.87	-40.2	-41.3	21.4	0.00e+00	120	42	0	1228931072	52	6475
2026-01-22 13:50:57.15	89.57	44.92	-40.4	-41.5	21.5	0.00e+00	123	42	0	1232076800	52	6605
2026-01-22 13:50:58.16	90.11	44.97	-40.3	-41.4	21.3	0.00e+00	120	42	0	1235222528	52	6504
2026-01-22 13:50:59.17	90.65	45.01	-39.9	-41.0	21.8	0.00e+00	123	42	0	1238368256	52	6207
2026-01-22 13:51:00.18	91.20	45.06	-39.8	-40.9	21.6	0.00e+00	120	42	0	1241513984	52	6142
2026-01-22 13:51:01.19	91.74	45.09	-40.1	-41.3	21.3	0.00e+00	121	42	0	1244659712	52	6427
2026-01-22 13:51:02.20	92.29	45.13	-40.2	-41.4	21.3	0.00e+00	123	42	0	1247805440	52	6505
2026-01-22 13:51:03.21	92.83	45.16	-40.0	-41.1	21.6	0.00e+00	123	42	0	1250951168	52	6334
2026-01-22 13:51:04.22	93.38	45.19	-39.9	-40.9	21.9	0.00e+00	120	42	0	1254096896	52	6178
2026-01-22 13:51:05.23	93.93	45.22	-39.7	-40.7	22.0	0.00e+00	123	42	0	1257242624	52	6039
2026-01-22 13:51:06.24	94.48	45.24	-39.8	-40.9	21.8	0.00e+00	120	42	0	1260388352	52	6150
2026-01-22 13:51:07.25	95.03	45.26	-39.8	-40.9	21.9	0.00e+00	120	42	0	1263534080	52	6177
2026-01-22 13:51:08.26	95.58	45.28	-39.8	-40.9	21.9	0.00e+00	122	42	0	1266679808	52	6183
2026-01-22 13:51:09.27	96.14	45.30	-39.9	-41.0	21.8	0.00e+00	123	42	0	1269825536	52	6253
2026-01-22 13:51:10.28	96.69	45.31	-39.8	-40.9	21.8	0.00e+00	122	42	0	1272971264	52	6178
2026-01-22 13:51:11.29	97.24	45.32	-39.6	-40.6	21.9	0.00e+00	123	42	0	1276116992	52	5977
2026-01-22 13:51:12.30	97.80	45.33	-39.8	-40.9	21.6	0.00e+00	123	42	0	1279262720	52	6142
2026-01-22 13:51:13.31	98.35	45.33	-40.1	-41.2	21.5	0.00e+00	122	42	0	1282408448	52	6410
2026-01-22 13:51:14.32	98.90	45.33	-40.1	-41.2	21.6	0.00e+00	123	42	0	1285554176	52	6363
2026-01-22 13:51:15.33	99.46	45.33	-40.0	-41.1	21.5	0.00e+00	123	42	0	1288699904	52	6295
2026-01-22 13:51:16.34	100.01	45.33	-39.9	-41.0	21.4	0.00e+00	122	42	0	1291845632	52	6253
2026-01-22 13:51:17.35	100.57	45.32	-40.0	-41.0	21.6	0.00e+00	122	42	0	1294991360	52	6261
2026-01-22 13:51:18.37	101.12	45.31	-39.6	-40.6	22.1	0.00e+00	120	42	0	1298137088	52	5956
2026-01-22 13:51:19.38	101.68	45.30	-39.5	-40.5	22.2	0.00e+00	123	42	0	1301282816	52	5884
2026-01-22 13:51:20.39	102.23	45.28	-39.3	-40.3	22.4	0.00e+00	122	42	0	1304428544	52	5748
2026-01-22 13:51:21.40	102.78	45.26	-39.2	-40.2	22.5	0.00e+00	122	42	0	1307574272	52	5695
2026-01-22 13:51:22.41	103.33	45.24	-39.3	-40.2	22.5	0.00e+00	123	42	0	1310720000	52	5721
2026-01-22 13:51:23.42	103.88	45.21	-39.5	-40.5	22.2	0.00e+00	123	42	0	1313865728	52	5865
2026-01-22 13:51:24.43	104.43	45.19	-39.7	-40.7	22.0	0.00e+00	122	42	0	1317011456	52	6027
2026-01-22 13:51:25.44	104.98	45.16	-39.6	-40.7	22.0	0.00e+00	122	42	0	1320157184	52	6013
2026-01-22 13:51:26.45	105.53	45.12	-39.6	-40.6	22.1	0.00e+00	122	42	0	1323302912	52	5966
2026-01-22 13:51:27.46	106.07	45.09	-39.6	-40.6	22.2	0.00e+00	122	42	0	1326448640	52	5985
2026-01-22 13:51:28.47	106.62	45.05	-39.5	-40.6	22.1	0.00e+00	123	42	0	1329594368	52	5940
2026-01-22 13:51:29.48	107.16	45.01	-39.7	-40.8	21.9	0.00e+00	123	42	0	1332740096	52	6079
2026-01-22 13:51:30.49	107.71	44.96	-39.8	-40.8	21.8	0.00e+00	123	42	0	1335885824	52	6131
2026-01-22 13:51:31.50	108.25	44.92	-39.7	-40.7	21.9	0.00e+00	123	42	0	1339031552	52	6028
2026-01-22 13:51:32.51	108.78	44.87	-39.3	-40.4	22.1	0.00e+00	122	42	0	1342177280	52	5794
2026-01-22 13:51:33.52	109.32	44.81	-39.0	-40.0	22.3	0.00e+00	123	42	0	1345323008	52	5590
2026-01-22 13:51:34.53	109.86	44.76	-39.1	-40.1	22.4	0.00e+00	123	42	0	1348468736	52	5642
2026-01-22 13:51:35.54	110.39	44.70	-39.2	-40.3	22.2	0.00e+00	120	42	0	1351614464	52	5749
2026-01-22 13:51:36.55	110.92	44.64	-39.7	-40.8	21.9	0.00e+00	123	42	0	1354760192	52	6100
2026-01-22 13:51:37.56	111.45	44.58	-39.8	-40.8	21.8	0.00e+00	123	42	0	1357905920	52	6116
2026-01-22 13:51:38.57	111.98	44.51	-39.8	-40.9	22.0	0.00e+00	123	42	0	1361051648	52	6135
2026-01-22 13:51:39.58	112.51	44.45	-39.6	-40.6	22.2	0.00e+00	122	42	0	1364197376	52	5966
2026-01-22 13:51:40.59	113.03	44.37	-39.5	-40.6	22.2	0.00e+00	123	42	0	1367343104	52	5939
2026-01-22 13:51:41.60	113.55	44.30	-39.5	-40.6	22.1	0.00e+00	120	42	0	1370488832	52	5929
2026-01-22 13:51:42.61	114.07	44.23	-39.3	-40.3	22.3	0.00e+00	123	42	0	1373634560	52	5752
2026-01-22 13:51:43.62	114.59	44.15	-39.5	-40.5	22.2	0.00e+00	123	42	0	1376780288	52	5907
2026-01-22 13:51:44.63	115.10	44.07	-39.7	-40.7	22.0	0.00e+00	122	42	0	1379926016	52	6059
2026-01-22 13:51:45.64	115.61	43.99	-40.1	-41.2	21.7	0.00e+00	120	42	0	1383071744	52	6378
2026-01-22 13:51:46.65	116.12	43.90	-40.1	-41.2	21.7	0.00e+00	123	42	0	1386217472	52	6353
2026-01-22 13:51:47.66	116.62	43.82	-40.0	-41.1	21.8	0.00e+00	123	42	0	1389363200	52	6279
2026-01-22 13:51:48.67	117.13	43.73	-40.0	-41.1	21.8	0.00e+00	120	42	0	1392508928	52	6310
2026-01-22 13:51:49.68	117.63	43.64	-39.8	-40.8	21.9	0.00e+00	120	42	0	1395654656	52	6128
2026-01-22 13:51:50.69	118.13	43.54	-40.4	-41.5	21.0	0.00e+00	123	42	0	1398800384	52	6648
2026-01-22 13:51:51.70	118.62	43.45	-40.9	-42.0	21.1	0.00e+00	123	42	0	1401946112	54	6250
2026-01-22 13:51:52.71	119.11	43.35	-40.8	-41.9	21.2	0.00e+00	123	42	0	1405091840	54	6184
2026-01-22 13:51:53.72	119.60	43.25	-39.7	-40.7	22.0	0.00e+00	122	42	0	1408237568	52	6033
2026-01-22 13:51:54.73	120.09	43.15	-39.6	-40.7	21.9	0.00e+00	123	42	0	1411383296	52	6011
2026-01-22 13:51:55.74	120.57	43.04	-39.6	-40.6	22.1	0.00e+00	123	42	0	1414529024	52	5951
2026-01-22 13:51:56.75	121.05	42.94	-39.6	-40.6	22.1	0.00e+00	120	42	0	1417674752	52	5974
2026-01-22 13:51:57.76	121.52	42.83	-39.7	-40.7	22.0	0.00e+00	123	42	0	1420820480	52	6064
2026-01-22 13:51:58.77	122.00	42.72	-39.7	-40.7	22.0	0.00e+00	120	42	0	1423966208	52	6063
2026-01-22 13:51:59.78	122.47	42.61	-39.9	-41.0	21.6	0.00e+00	123	42	0	1427111936	52	6253
2026-01-22 13:52:00.79	122.93	42.50	-40.1	-41.2	21.4	0.00e+00	120	42	0	1430257664	52	6400
2026-01-22 13:52:01.80	123.40	42.38	-39.9	-41.0	21.5	0.00e+00	123	42	0	1433403392	52	6247
2026-01-22 13:52:02.81	123.86	42.27	-39.5	-40.6	21.9	0.00e+00	123	42	0	1436549120	52	5966
2026-01-22 13:52:03.82	124.32	42.15	-39.5	-40.5	22.2	0.00e+00	123	42	0	1439694848	52	5920
2026-01-22 13:52:04.83	124.77	42.03	-39.1	-40.1	22.6	0.00e+00	123	42	0	1442840576	52	5634
2026-01-22 13:52:05.84	125.22	41.91	-39.0	-40.0	22.7	0.00e+00	123	42	0	1445986304	52	5546
2026-01-22 13:52:06.85	125.67	41.79	-39.1	-40.1	22.6	0.00e+00	123	42	0	1449132032	52	5603
2026-01-22 13:52:07.86	126.11	41.66	-39.2	-40.2	22.5	0.00e+00	122	42	0	1452277760	52	5692
2026-01-22 13:52:08.87	126.55	41.54	-39.4	-40.4	22.3	0.00e+00	123	42	0	1455423488	52	5800
2026-01-22 13:52:09.88	126.99	41.41	-39.3	-40.3	22.3	0.00e+00	120	42	0	1458569216	52	5787
2026-01-22 13:52:10.89	127.42	41.28	-39.0	-40.0	22.7	0.00e+00	123	42	0	1461714944	52	5544
2026-01-22 13:52:11.90	127.85	41.15	-39.0	-39.9	22.7	0.00e+00	122	42	0	1464860672	52	5524
2026-01-22 13:52:12.92	128.28	41.02	-38.6	-39.6	23.0	0.00e+00	123	42	0	1468006400	50	5971
2026-01-22 13:52:13.93	128.71	40.89	-38.3	-39.3	23.2	0.00e+00	123	42	0	1471152128	50	5745
2026-01-22 13:52:14.94	129.13	40.76	-38.5	-39.5	23.0	0.00e+00	122	42	0	1475346432	50	5880
2026-01-22 13:52:15.95	129.54	40.62	-39.0	-39.9	22.6	0.00e+00	122	42	0	1477443584	50	6197
2026-01-22 13:52:16.95	129.95	40.49	-39.3	-40.3	22.4	0.00e+00	123	42	0	1480589312	50	6468
2026-01-22 13:52:17.96	130.36	40.35	-39.3	-40.3	22.4	0.00e+00	122	42	0	1483735040	50	6461
2026-01-22 13:52:18.98	130.77	40.21	-39.4	-40.4	22.3	0.00e+00	122	42	0	1486880768	50	6513
2026-01-22 13:52:19.98	131.17	40.08	-39.3	-40.3	22.4	0.00e+00	123	42	0	1490026496	50	6493
2026-01-22 13:52:20.99	131.57	39.94	-39.4	-40.4	22.3	0.00e+00	122	42	0	1494220800	50	6542
2026-01-22 13:52:22.00	131.97	39.79	-39.5	-40.5	22.2	0.00e+00	122	42	0	1497366528	50	6633
2026-01-22 13:52:23.01	132.36	39.65	-39.8	-40.9	21.9	0.00e+00	123	42	0	1499463680	52	6149
2026-01-22 13:52:24.02	132.75	39.51	-40.1	-41.2	21.7	0.00e+00	122	42	0	1502609408	52	6372
2026-01-22 13:52:25.03	133.14	39.37	-40.0	-41.1	21.8	0.00e+00	122	42	0	1505755136	52	6325
2026-01-22 13:52:26.04	133.52	39.22	-39.9	-40.9	21.9	0.00e+00	122	42	0	1509949440	52	6181
2026-01-22 13:52:27.05	133.90	39.08	-39.9	-41.0	21.8	0.00e+00	123	42	0	1513095168	52	6232
2026-01-22 13:52:28.06	134.28	38.93	-39.6	-40.7	22.0	0.00e+00	122	42	0	1516240896	52	6007
2026-01-22 13:52:29.07	134.65	38.79	-39.6	-40.7	22.1	0.00e+00	122	42	0	1519386624	52	6008
2026-01-22 13:52:30.08	135.02	38.64	-39.4	-40.5	22.3	0.00e+00	122	42	0	1522532352	52	5867
2026-01-22 13:52:31.09	135.38	38.49	-39.4	-40.4	22.3	0.00e+00	123	42	0	1525678080	52	5830
2026-01-22 13:52:32.10	135.75	38.34	-39.3	-40.3	22.4	0.00e+00	123	42	0	1528823808	52	5751
2026-01-22 13:52:33.11	136.11	38.19	-39.4	-40.4	22.3	0.00e+00	123	42	0	1531969536	52	5827
2026-01-22 13:52:34.12	136.46	38.04	-39.2	-40.1	22.5	0.00e+00	122	42	0	1535115264	52	5656
2026-01-22 13:52:35.13	136.82	37.89	-38.9	-39.9	22.7	0.00e+00	123	42	0	1538260992	52	5490
2026-01-22 13:52:36.14	137.17	37.74	-38.9	-39.9	22.6	0.00e+00	122	42	0	1541406720	52	5481
2026-01-22 13:52:37.15	137.51	37.59	-38.7	-39.7	22.7	0.00e+00	123	42	0	1544552448	50	6048
2026-01-22 13:52:38.16	137.86	37.44	-38.5	-39.5	22.9	0.00e+00	123	42	0	1547698176	50	5909
2026-01-22 13:52:39.17	138.20	37.29	-38.2	-39.1	23.3	0.00e+00	123	42	0	1550843904	50	5635
2026-01-22 13:52:40.18	138.54	37.14	-38.0	-38.9	23.4	0.00e+00	122	42	0	1553989632	50	5518
2026-01-22 13:52:41.19	138.87	36.98	-38.1	-39.1	23.3	0.00e+00	122	42	0	1557135360	50	5613
2026-01-22 13:52:42.20	139.20	36.83	-38.1	-39.1	23.3	0.00e+00	122	42	0	1560281088	50	5630
2026-01-22 13:52:43.22	139.53	36.67	-38.2	-39.2	23.3	0.00e+00	120	42	0	1563426816	50	5666
2026-01-22 13:52:44.23	139.86	36.52	-38.0	-39.0	23.4	0.00e+00	120	42	0	1566572544	50	5547
2026-01-22 13:52:45.24	140.18	36.37	-38.0	-39.0	23.4	0.00e+00	121	42	0	1569718272	50	5534
2026-01-22 13:52:46.25	140.50	36.21	-38.1	-39.1	23.3	0.00e+00	123	42	0	1572864000	50	5608
2026-01-22 13:52:47.26	140.82	36.06	-37.9	-38.9	23.5	0.00e+00	128	42	0	1576009728	50	5495
2026-01-22 13:52:48.27	141.13	35.90	-37.9	-38.8	23.5	0.00e+00	123	42	0	1579155456	50	5432
2026-01-22 13:52:49.28	141.44	35.75	-38.0	-39.0	23.3	0.00e+00	123	42	0	1582301184	50	5555
2026-01-22 13:52:50.29	141.75	35.59	-37.7	-38.6	23.7	0.00e+00	122	42	0	1585446912	48	5954
2026-01-22 13:52:51.30	142.05	35.44	-37.8	-38.7	23.6	0.00e+00	123	42	0	1588592640	48	6046
2026-01-22 13:52:52.31	142.35	35.28	-37.9	-38.8	23.4	0.00e+00	122	42	0	1591738368	48	6126
2026-01-22 13:52:53.32	142.65	35.13	-38.2	-39.1	23.3	0.00e+00	120	42	0	1594884096	48	6335
2026-01-22 13:52:54.33	142.95	34.97	-38.1	-39.1	23.2	0.00e+00	123	42	0	1598029824	48	6312
2026-01-22 13:52:55.34	143.24	34.82	-38.1	-39.0	23.3	0.00e+00	123	42	0	1601175552	48	6263
2026-01-22 13:52:56.35	143.53	34.66	-38.1	-39.1	23.2	0.00e+00	122	42	0	1604321280	48	6280
2026-01-22 13:52:57.37	143.83	34.50	-38.1	-39.0	23.3	0.00e+00	123	42	0	1607467008	48	6247
2026-01-22 13:52:58.38	144.11	34.35	-38.1	-39.1	23.2	0.00e+00	123	42	0	1610612736	48	6297
2026-01-22 13:52:59.39	144.39	34.19	-38.1	-39.1	23.2	0.00e+00	122	42	0	1613758464	48	6287
2026-01-22 13:53:00.40	144.67	34.04	-37.8	-38.8	23.4	0.00e+00	122	42	0	1616904192	48	6087
2026-01-22 13:53:01.41	144.95	33.88	-37.8	-38.7	23.6	0.00e+00	123	42	0	1620049920	48	6032
2026-01-22 13:53:02.42	145.23	33.72	-37.5	-38.5	23.7	0.00e+00	120	42	0	1623195648	48	5864
2026-01-22 13:53:03.43	145.50	33.57	-37.7	-38.6	23.7	0.00e+00	120	42	0	1626341376	48	5992
2026-01-22 13:53:04.43	145.77	33.41	-37.9	-38.9	23.4	0.00e+00	123	42	0	1629487104	48	6149
2026-01-22 13:53:05.44	146.03	33.26	-38.1	-39.0	23.3	0.00e+00	120	42	0	1632632832	48	6274
2026-01-22 13:53:06.45	146.30	33.10	-38.1	-39.1	23.2	0.00e+00	123	42	0	1635778560	48	6292
2026-01-22 13:53:07.46	146.56	32.95	-38.1	-39.1	23.2	0.00e+00	122	42	0	1638924288	48	6322
2026-01-22 13:53:08.47	146.82	32.79	-37.9	-38.9	23.4	0.00e+00	122	42	0	1642070016	48	6145
2026-01-22 13:53:09.48	147.08	32.64	-37.7	-38.6	23.6	0.00e+00	122	42	0	1645215744	48	5984
2026-01-22 13:53:10.49	147.33	32.48	-37.7	-38.7	23.6	0.00e+00	122	42	0	1648361472	48	6001
2026-01-22 13:53:11.50	147.59	32.33	-37.6	-38.6	23.6	0.00e+00	123	42	0	1651507200	48	5958
2026-01-22 13:53:12.51	147.84	32.18	-37.6	-38.6	23.7	0.00e+00	120	42	0	1654652928	48	5949
2026-01-22 13:53:13.52	148.08	32.02	-37.3	-38.2	24.0	0.00e+00	123	42	0	1657798656	48	5700
2026-01-22 13:53:14.53	148.33	31.87	-37.1	-38.0	24.1	0.00e+00	122	42	0	1660944384	48	5586
2026-01-22 13:53:15.54	148.57	31.72	-37.0	-37.9	24.2	0.00e+00	123	42	0	1664090112	48	5519
2026-01-22 13:53:16.55	148.82	31.56	-36.9	-37.8	24.3	0.00e+00	120	42	0	1667235840	48	5428
2026-01-22 13:53:17.56	149.05	31.41	-36.7	-37.5	24.4	0.00e+00	123	42	0	1670381568	46	5922
2026-01-22 13:53:18.57	149.29	31.26	-36.8	-37.7	24.4	0.00e+00	123	42	0	1673527296	46	6022
2026-01-22 13:53:19.58	149.53	31.10	-36.7	-37.6	24.4	0.00e+00	123	42	0	1676673024	46	5961
2026-01-22 13:53:20.59	149.76	30.95	-36.7	-37.6	24.5	0.00e+00	123	42	0	1679818752	46	5928
2026-01-22 13:53:21.60	149.99	30.80	-36.8	-37.7	24.3	0.00e+00	123	42	0	1682964480	46	6021
2026-01-22 13:53:22.61	150.22	30.65	-36.8	-37.7	24.3	0.00e+00	123	42	0	1686110208	46	6050
2026-01-22 13:53:23.62	150.44	30.50	-36.8	-37.7	24.3	0.00e+00	122	42	0	1689255936	46	6033
2026-01-22 13:53:24.63	150.67	30.35	-36.8	-37.7	24.3	0.00e+00	123	42	0	1692401664	46	6000
2026-01-22 13:53:25.64	150.89	30.20	-36.8	-37.7	24.2	0.00e+00	122	42	0	1695547392	46	6004
2026-01-22 13:53:26.65	151.11	30.05	-36.8	-37.7	24.3	0.00e+00	123	42	0	1698693120	46	6057
2026-01-22 13:53:27.66	151.33	29.90	-36.9	-37.8	24.1	0.00e+00	123	42	0	1701838848	46	6117
2026-01-22 13:53:28.67	151.55	29.75	-37.0	-38.0	24.1	0.00e+00	122	42	0	1704984576	46	6218
2026-01-22 13:53:29.68	151.76	29.60	-37.1	-38.0	24.1	0.00e+00	120	42	0	1708130304	46	6240
2026-01-22 13:53:30.69	151.97	29.45	-37.1	-38.0	24.2	0.00e+00	120	42	0	1711276032	46	6251
2026-01-22 13:53:31.71	152.18	29.30	-37.2	-38.1	24.0	0.00e+00	122	42	0	1714421760	46	6325
2026-01-22 13:53:32.72	152.39	29.15	-37.4	-38.3	23.8	0.00e+00	121	42	0	1717567488	46	6458
2026-01-22 13:53:33.73	152.60	29.00	-37.4	-38.4	23.8	0.00e+00	122	42	0	1720713216	46	6517
2026-01-22 13:53:34.74	152.80	28.85	-37.6	-38.5	23.7	0.00e+00	122	42	0	1723858944	46	6608
2026-01-22 13:53:35.75	153.01	28.71	-37.4	-38.3	23.8	0.00e+00	122	42	0	1727004672	46	6478
2026-01-22 13:53:36.76	153.21	28.56	-37.2	-38.1	23.9	0.00e+00	119	42	0	1730150400	46	6344
2026-01-22 13:53:37.77	153.41	28.41	-37.3	-38.2	23.8	0.00e+00	123	42	0	1733296128	46	6399
2026-01-22 13:53:38.78	153.61	28.27	-37.3	-38.3	23.8	0.00e+00	122	42	0	1736441856	46	6429
2026-01-22 13:53:39.79	153.80	28.12	-37.2	-38.1	23.9	0.00e+00	123	42	0	1739587584	46	6295
2026-01-22 13:53:40.80	154.00	27.98	-37.3	-38.3	23.8	0.00e+00	120	42	0	1742733312	46	6429
2026-01-22 13:53:41.81	154.19	27.83	-37.1	-38.1	23.9	0.00e+00	123	42	0	1745879040	46	6287
2026-01-22 13:53:42.82	154.38	27.69	-37.1	-38.0	23.9	0.00e+00	122	42	0	1749024768	46	6267
2026-01-22 13:53:43.83	154.57	27.55	-37.0	-37.9	24.0	0.00e+00	123	42	0	1752170496	46	6181
2026-01-22 13:53:44.84	154.76	27.40	-37.1	-38.1	24.0	0.00e+00	122	42	0	1755316224	46	6288
2026-01-22 13:53:45.85	154.94	27.26	-36.8	-37.8	24.3	0.00e+00	123	42	0	1758461952	46	6066
2026-01-22 13:53:46.86	155.13	27.12	-36.8	-37.7	24.3	0.00e+00	122	42	0	1761607680	46	6022
2026-01-22 13:53:47.87	155.31	26.98	-36.5	-37.4	24.6	0.00e+00	123	42	0	1764753408	46	5800
2026-01-22 13:53:48.88	155.49	26.83	-36.5	-37.4	24.6	0.00e+00	123	42	0	1767899136	46	5820
2026-01-22 13:53:49.89	155.67	26.69	-36.4	-37.3	24.6	0.00e+00	123	42	0	1771044864	46	5729
2026-01-22 13:53:50.90	155.85	26.55	-36.5	-37.4	24.6	0.00e+00	123	42	0	1774190592	46	5821
2026-01-22 13:53:51.91	156.02	26.41	-36.4	-37.3	24.5	0.00e+00	120	42	0	1777336320	46	5767
2026-01-22 13:53:52.92	156.20	26.27	-36.6	-37.5	24.4	0.00e+00	123	42	0	1780482048	46	5894
2026-01-22 13:53:53.93	156.37	26.13	-36.8	-37.7	24.3	0.00e+00	120	42	0	1783627776	46	6023
2026-01-22 13:53:54.95	156.55	25.99	-36.9	-37.8	24.2	0.00e+00	122	42	0	1787822080	46	6090
2026-01-22 13:53:55.96	156.72	25.85	-36.7	-37.6	24.4	0.00e+00	123	42	0	1790967808	46	5978
2026-01-22 13:53:56.97	156.89	25.72	-36.7	-37.7	24.3	0.00e+00	122	42	0	1793064960	46	5999
2026-01-22 13:53:57.98	157.05	25.58	-36.8	-37.7	24.3	0.00e+00	123	42	0	1796210688	46	6006
2026-01-22 13:53:58.99	157.22	25.44	-36.6	-37.5	24.4	0.00e+00	122	42	0	1800404992	46	5872
2026-01-22 13:54:00.00	157.38	25.30	-36.5	-37.4	24.4	0.00e+00	122	42	0	1803550720	46	5802
2026-01-22 13:54:01.01	157.55	25.17	-36.4	-37.3	24.4	0.00e+00	122	42	0	1806696448	46	5760
2026-01-22 13:54:02.02	157.71	25.03	-36.3	-37.2	24.4	0.00e+00	120	42	0	1809842176	46	5717
2026-01-22 13:54:03.03	157.87	24.90	-36.2	-37.1	24.5	0.00e+00	122	42	0	1812987904	46	5623
2026-01-22 13:54:04.04	158.03	24.76	-36.3	-37.2	24.4	0.00e+00	120	42	0	1816133632	46	5711
2026-01-22 13:54:05.05	158.19	24.63	-36.1	-37.0	24.6	0.00e+00	122	42	0	1819279360	46	5534
2026-01-22 13:54:06.06	158.35	24.49	-36.2	-37.1	24.5	0.00e+00	122	42	0	1822425088	46	5607
2026-01-22 13:54:07.08	158.50	24.36	-36.3	-37.2	24.4	0.00e+00	123	42	0	1825570816	46	5714
2026-01-22 13:54:08.09	158.66	24.23	-36.4	-37.3	24.4	0.00e+00	120	42	0	1828716544	46	5750
2026-01-22 13:54:09.10	158.81	24.09	-36.4	-37.3	24.4	0.00e+00	120	42	0	1831862272	46	5771
2026-01-22 13:54:10.11	158.96	23.96	-36.5	-37.4	24.4	0.00e+00	121	42	0	1835008000	46	5839
2026-01-22 13:54:11.12	159.11	23.83	-36.5	-37.4	24.5	0.00e+00	122	42	0	1838153728	46	5822
2026-01-22 13:54:12.13	159.26	23.70	-36.5	-37.4	24.4	0.00e+00	120	42	0	1841299456	46	5828
2026-01-22 13:54:13.14	159.41	23.57	-36.5	-37.4	24.4	0.00e+00	123	42	0	1844445184	46	5817
2026-01-22 13:54:14.15	159.56	23.44	-36.5	-37.3	24.4	0.00e+00	120	42	0	1847590912	46	5791
2026-01-22 13:54:15.16	159.70	23.31	-36.4	-37.3	24.3	0.00e+00	123	42	0	1850736640	46	5768
2026-01-22 13:54:16.17	159.85	23.18	-36.4	-37.3	24.4	0.00e+00	123	42	0	1853882368	46	5738
2026-01-22 13:54:17.18	159.99	23.05	-36.5	-37.4	24.2	0.00e+00	120	42	0	1857028096	46	5804
2026-01-22 13:54:18.19	160.13	22.92	-36.5	-37.4	24.2	0.00e+00	122	42	0	1860173824	46	5816
2026-01-22 13:54:19.20	160.27	22.80	-36.6	-37.5	24.1	0.00e+00	120	42	0	1863319552	46	5900
2026-01-22 13:54:20.21	160.41	22.67	-36.6	-37.5	24.1	0.00e+00	122	42	0	1866465280	46	5867
2026-01-22 13:54:21.22	160.55	22.54	-36.6	-37.6	24.0	0.00e+00	123	42	0	1869611008	46	5936
2026-01-22 13:54:22.23	160.69	22.42	-36.7	-37.6	24.0	0.00e+00	123	42	0	1872756736	46	5982
2026-01-22 13:54:23.24	160.83	22.29	-36.8	-37.7	24.0	0.00e+00	123	42	0	1875902464	46	6040
2026-01-22 13:54:24.25	160.96	22.16	-36.7	-37.6	24.2	0.00e+00	123	42	0	1879048192	46	5984
2026-01-22 13:54:25.26	161.10	22.04	-36.8	-37.7	24.1	0.00e+00	123	42	0	1882193920	46	6032
2026-01-22 13:54:26.27	161.23	21.91	-36.7	-37.6	24.2	0.00e+00	122	42	0	1885339648	46	5956
2026-01-22 13:54:27.28	161.37	21.79	-36.8	-37.7	24.2	0.00e+00	123	42	0	1888485376	46	6014
2026-01-22 13:54:28.29	161.50	21.67	-36.9	-37.8	24.1	0.00e+00	122	42	0	1891631104	46	6097
2026-01-22 13:54:29.30	161.63	21.54	-37.1	-38.0	24.0	0.00e+00	120	42	0	1894776832	46	6248
2026-01-22 13:54:30.31	161.76	21.42	-37.2	-38.1	23.9	0.00e+00	123	42	0	1897922560	46	6311
2026-01-22 13:54:31.32	161.89	21.30	-37.4	-38.3	23.7	0.00e+00	123	42	0	1901068288	46	6498
2026-01-22 13:54:32.33	162.01	21.18	-37.4	-38.4	23.7	0.00e+00	123	42	0	1904214016	46	6528
2026-01-22 13:54:33.35	162.14	21.05	-37.6	-38.6	23.6	0.00e+00	120	42	0	1907359744	46	6662
2026-01-22 13:54:34.36	162.27	20.93	-37.5	-38.4	23.7	0.00e+00	122	42	0	1910505472	46	6567
2026-01-22 13:54:35.37	162.39	20.81	-37.5	-38.4	23.7	0.00e+00	123	42	0	1913651200	46	6555
2026-01-22 13:54:36.38	162.52	20.69	-37.6	-38.5	23.6	0.00e+00	123	42	0	1916796928	46	6621
2026-01-22 13:54:37.39	162.64	20.57	-37.5	-38.5	23.7	0.00e+00	123	42	0	1919942656	46	6585
2026-01-22 13:54:38.39	162.76	20.45	-37.4	-38.3	23.7	0.00e+00	123	42	0	1923088384	46	6481
2026-01-22 13:54:39.40	162.88	20.34	-37.2	-38.1	23.8	0.00e+00	123	42	0	1926234112	46	6301
2026-01-22 13:54:40.41	163.00	20.22	-37.0	-38.0	23.9	0.00e+00	123	42	0	1929379840	46	6209
2026-01-22 13:54:41.42	163.12	20.10	-36.9	-37.8	24.0	0.00e+00	123	42	0	1932525568	46	6107
2026-01-22 13:54:42.43	163.24	19.98	-36.9	-37.9	23.9	0.00e+00	120	42	0	1935671296	46	6152
2026-01-22 13:54:43.44	163.36	19.87	-36.8	-37.7	24.0	0.00e+00	123	42	0	1938817024	46	6031
2026-01-22 13:54:44.45	163.47	19.75	-36.8	-37.7	24.0	0.00e+00	123	42	0	1941962752	46	6014
2026-01-22 13:54:45.46	163.59	19.63	-36.6	-37.6	24.0	0.00e+00	123	42	0	1945108480	46	5934
2026-01-22 13:54:46.47	163.70	19.52	-36.7	-37.6	24.1	0.00e+00	123	42	0	1948254208	46	5977
2026-01-22 13:54:47.48	163.82	19.40	-36.6	-37.5	24.2	0.00e+00	123	42	0	1951399936	46	5896
2026-01-22 13:54:48.49	163.93	19.29	-36.6	-37.5	24.1	0.00e+00	120	42	0	1954545664	46	5863
2026-01-22 13:54:49.50	164.04	19.17	-36.5	-37.4	24.3	0.00e+00	121	42	0	1957691392	46	5818
2026-01-22 13:54:50.51	164.16	19.06	-36.6	-37.5	24.2	0.00e+00	123	42	0	1960837120	46	5911
2026-01-22 13:54:51.52	164.27	18.95	-36.4	-37.3	24.4	0.00e+00	123	42	0	1963982848	46	5729
2026-01-22 13:54:52.53	164.38	18.83	-36.4	-37.2	24.5	0.00e+00	120	42	0	1967128576	46	5712
2026-01-22 13:54:53.54	164.49	18.72	-36.4	-37.3	24.4	0.00e+00	122	42	0	1970274304	46	5773
2026-01-22 13:54:54.55	164.59	18.61	-36.4	-37.2	24.4	0.00e+00	122	42	0	1973420032	46	5716
2026-01-22 13:54:55.56	164.70	18.49	-36.4	-37.3	24.5	0.00e+00	123	42	0	1976565760	46	5738
2026-01-22 13:54:56.57	164.81	18.38	-36.4	-37.2	24.5	0.00e+00	121	42	0	1979711488	46	5712
