passes_logs/2026/01/22/R4.6S_Anadyr/R4.6S_Anadyr__20260122_193304_NOAA_20_JPSS-1_rec.log

#Pass ID: 20260122_193304_NOAA 20 (JPSS-1)
#Satellite: NOAA 20 (JPSS-1)
#Configuration: NOAA 20
#almurnet v.1.7.20251203
#Start time: 2026-01-22 19:33:06

#Version: 2.2.20231116
#Station: R4.6S_Anadyr
#Location: 177.4865 lon 64.73178 lat
#TLE: 1 43013U 17073A   26021.46221703  .00000173  00000+0  10299-3 0  9999
#TLE: 2 43013  98.7644 322.3335 0001238  29.7597 330.3649 14.19538314423652

#Time	Az	El	Level	Level2	SNR	BER	BlckErr	Temp	State	Recorded	gain1	gain2
2026-01-22 19:33:06.04	54.85	0.09	-51.1	-66.0	3.5	1.51e+00	0	39	0	0	60	71776
2026-01-22 19:33:07.05	54.78	0.14	-51.4	-66.6	3.6	1.51e+00	0	40	104	0	60	76920
2026-01-22 19:33:08.06	54.70	0.19	-51.3	-66.5	3.6	1.51e+00	0	40	104	0	60	76568
2026-01-22 19:33:09.07	54.62	0.24	-51.3	-66.5	3.5	1.51e+00	0	40	104	0	60	76450
2026-01-22 19:33:10.08	54.55	0.29	-51.3	-66.5	3.6	1.51e+00	0	40	104	0	60	76118
2026-01-22 19:33:11.09	54.47	0.34	-51.2	-66.4	3.6	1.51e+00	0	40	104	0	60	75899
2026-01-22 19:33:12.10	54.39	0.39	-51.2	-66.4	3.6	1.51e+00	0	40	104	0	60	75915
2026-01-22 19:33:13.11	54.31	0.44	-51.2	-66.4	3.6	1.51e+00	0	40	104	0	60	75855
2026-01-22 19:33:14.12	54.23	0.49	-51.2	-66.5	3.5	1.51e+00	0	41	104	0	60	76156
2026-01-22 19:33:15.13	54.16	0.54	-51.2	-66.4	3.5	1.51e+00	0	40	104	0	60	75385
2026-01-22 19:33:16.14	54.08	0.58	-51.2	-66.5	3.6	1.51e+00	0	41	104	0	60	75990
2026-01-22 19:33:17.15	54.00	0.63	-51.2	-66.4	3.6	1.51e+00	0	41	104	0	60	75557
2026-01-22 19:33:18.16	53.92	0.68	-51.1	-66.4	3.6	1.51e+00	0	41	104	0	60	75253
2026-01-22 19:33:19.17	53.84	0.73	-51.1	-66.3	3.6	1.51e+00	0	41	104	0	60	75042
2026-01-22 19:33:20.18	53.76	0.78	-51.2	-66.4	3.6	1.51e+00	0	41	104	0	60	75461
2026-01-22 19:33:21.18	53.68	0.83	-51.1	-66.4	3.6	1.51e+00	0	41	104	0	60	75097
2026-01-22 19:33:22.19	53.60	0.88	-51.0	-66.3	3.6	1.51e+00	0	41	104	0	60	74881
2026-01-22 19:33:23.20	53.52	0.93	-51.0	-66.3	3.6	1.51e+00	0	41	104	0	60	74811
2026-01-22 19:33:24.21	53.44	0.98	-51.0	-66.2	3.6	1.51e+00	0	41	104	0	60	73681
2026-01-22 19:33:25.22	53.36	1.03	-50.9	-66.2	3.6	1.51e+00	0	41	104	0	60	73487
2026-01-22 19:33:26.23	53.27	1.08	-50.9	-66.1	3.6	1.51e+00	0	41	104	0	60	72843
2026-01-22 19:33:27.24	53.19	1.13	-50.8	-66.0	3.6	1.51e+00	0	41	104	0	60	72237
2026-01-22 19:33:28.25	53.11	1.18	-50.6	-65.9	3.6	1.51e+00	0	41	104	0	60	71451
2026-01-22 19:33:29.26	53.03	1.23	-50.6	-65.7	3.6	1.51e+00	0	41	104	0	60	69933
2026-01-22 19:33:30.27	52.95	1.28	-50.3	-65.6	3.6	1.51e+00	0	41	104	0	60	68786
2026-01-22 19:33:31.28	52.86	1.33	-50.0	-65.3	3.6	1.51e+00	0	41	104	0	60	66158
2026-01-22 19:33:32.29	52.78	1.37	-49.6	-64.8	3.6	1.51e+00	0	41	104	0	60	63107
2026-01-22 19:33:33.30	52.70	1.42	-49.6	-64.8	3.6	1.51e+00	0	41	104	0	60	62694
2026-01-22 19:33:34.31	52.61	1.47	-49.6	-64.8	3.6	1.51e+00	0	41	104	0	60	62645
2026-01-22 19:33:35.32	52.53	1.52	-49.6	-64.8	3.6	1.51e+00	0	41	104	0	60	62951
2026-01-22 19:33:36.33	52.44	1.57	-49.6	-64.8	3.6	1.51e+00	0	41	104	0	60	62683
2026-01-22 19:33:37.34	52.36	1.62	-49.6	-64.8	3.6	1.51e+00	0	41	104	0	60	63132
2026-01-22 19:33:38.35	52.27	1.67	-49.6	-64.8	3.6	1.51e+00	0	41	104	0	60	63120
2026-01-22 19:33:39.36	52.19	1.72	-49.6	-64.8	3.5	1.51e+00	0	41	104	0	60	62607
2026-01-22 19:33:40.37	52.10	1.77	-49.6	-64.8	3.6	1.51e+00	0	41	104	0	60	62631
2026-01-22 19:33:41.38	52.02	1.82	-49.6	-64.8	3.6	1.51e+00	0	41	104	0	60	62673
2026-01-22 19:33:42.40	51.93	1.87	-49.6	-64.8	3.6	1.51e+00	0	41	104	0	60	62482
2026-01-22 19:33:43.41	51.84	1.92	-49.6	-64.8	3.6	1.51e+00	0	41	104	0	60	62852
2026-01-22 19:33:44.41	51.76	1.97	-49.6	-64.8	3.6	1.51e+00	0	41	104	0	60	62867
2026-01-22 19:33:45.43	51.67	2.02	-49.6	-64.8	3.6	1.51e+00	0	41	104	0	60	62694
2026-01-22 19:33:46.43	51.58	2.07	-49.6	-64.7	3.6	1.51e+00	0	41	104	0	60	62414
2026-01-22 19:33:47.44	51.49	2.12	-49.6	-64.8	3.6	1.51e+00	0	41	104	0	60	62509
2026-01-22 19:33:48.45	51.41	2.17	-49.6	-64.6	3.6	1.51e+00	0	41	104	0	60	61733
2026-01-22 19:33:49.46	51.32	2.22	-49.6	-64.7	3.6	1.51e+00	0	41	104	0	60	61774
2026-01-22 19:33:50.47	51.23	2.27	-49.6	-64.5	3.6	1.51e+00	0	41	104	0	60	60772
2026-01-22 19:33:51.48	51.14	2.32	-49.6	-64.6	3.6	1.51e+00	0	41	104	0	60	61202
2026-01-22 19:33:52.49	51.05	2.37	-49.6	-64.6	3.6	1.51e+00	0	41	104	0	60	61574
2026-01-22 19:33:53.50	50.96	2.42	-49.6	-64.7	3.6	1.51e+00	0	41	104	0	60	62358
2026-01-22 19:33:54.51	50.87	2.47	-49.6	-64.8	3.6	1.51e+00	0	41	104	0	60	63147
2026-01-22 19:33:55.52	50.78	2.52	-49.6	-64.8	3.6	1.51e+00	0	41	104	0	60	62479
2026-01-22 19:33:56.53	50.69	2.57	-49.6	-64.7	3.6	1.51e+00	0	41	104	0	60	62303
2026-01-22 19:33:57.54	50.60	2.63	-49.6	-64.8	3.6	1.51e+00	0	41	104	0	60	62672
2026-01-22 19:33:58.55	50.51	2.68	-49.6	-64.8	3.6	1.51e+00	0	41	104	0	60	62582
2026-01-22 19:33:59.56	50.42	2.73	-49.6	-64.8	3.6	1.51e+00	0	41	104	0	60	62500
2026-01-22 19:34:00.57	50.32	2.78	-49.6	-64.3	3.6	1.51e+00	0	41	104	0	60	59544
2026-01-22 19:34:01.58	50.23	2.83	-49.6	-64.1	3.6	1.51e+00	0	41	104	0	60	57692
2026-01-22 19:34:02.59	50.14	2.88	-49.6	-64.1	3.6	1.51e+00	0	41	104	0	60	58283
2026-01-22 19:34:03.60	50.05	2.93	-49.6	-64.6	3.6	1.51e+00	0	41	104	0	60	61050
2026-01-22 19:34:04.61	49.95	2.98	-49.6	-63.7	3.6	1.51e+00	0	41	104	0	60	55404
2026-01-22 19:34:05.62	49.86	3.03	-49.3	-59.9	4.7	1.45e+00	92	41	104	0	60	35915
2026-01-22 19:34:06.63	49.77	3.08	-49.4	-59.6	4.0	5.20e-01	76	41	0	1048576	60	34335
2026-01-22 19:34:07.64	49.67	3.13	-49.1	-57.4	6.3	6.28e-01	90	41	104	1048576	60	26700
2026-01-22 19:34:08.65	49.58	3.18	-49.6	-63.3	3.6	1.11e-01	0	41	104	2097152	60	52812
2026-01-22 19:34:09.66	49.48	3.23	-49.6	-64.0	3.6	1.51e+00	0	41	104	2097152	60	57312
2026-01-22 19:34:10.67	49.39	3.28	-48.2	-53.8	11.3	1.42e+00	91	41	104	2097152	60	17718
2026-01-22 19:34:11.68	49.29	3.33	-47.4	-51.5	12.0	4.57e-04	7	41	0	2097152	60	13622
2026-01-22 19:34:12.69	49.20	3.38	-47.4	-51.4	12.1	2.35e-04	92	41	0	4194304	60	13463
2026-01-22 19:34:13.70	49.10	3.43	-47.8	-52.4	11.5	8.52e-04	6	41	0	6291456	60	15011
2026-01-22 19:34:14.71	49.00	3.48	-47.8	-52.3	11.3	1.04e-03	92	41	0	8388608	60	14811
2026-01-22 19:34:15.72	48.91	3.53	-47.9	-52.4	11.2	7.26e-04	81	41	0	9437184	60	15138
2026-01-22 19:34:16.73	48.81	3.59	-47.8	-52.3	11.3	1.92e-03	92	41	0	11534336	60	14888
2026-01-22 19:34:17.74	48.71	3.64	-48.3	-53.7	9.8	4.75e-03	0	41	0	13631488	60	17530
2026-01-22 19:34:18.75	48.61	3.69	-48.0	-52.8	10.9	2.14e-03	81	41	0	15728640	60	15796
2026-01-22 19:34:19.76	48.51	3.74	-47.9	-52.5	11.4	1.79e-03	90	41	0	17825792	60	15218
2026-01-22 19:34:20.77	48.42	3.79	-47.7	-52.0	12.0	6.22e-04	81	41	0	18874368	60	14398
2026-01-22 19:34:21.78	48.32	3.84	-47.4	-51.3	12.4	1.90e-04	92	41	0	20971520	60	13257
2026-01-22 19:34:22.79	48.22	3.89	-47.3	-51.1	12.8	8.31e-05	81	41	0	23068672	60	13003
2026-01-22 19:34:23.80	48.12	3.94	-47.3	-51.0	12.6	9.00e-05	92	41	0	25165824	60	12864
2026-01-22 19:34:24.81	48.02	3.99	-47.3	-51.1	13.0	1.13e-04	0	41	0	27262976	60	12999
2026-01-22 19:34:25.82	47.92	4.04	-46.0	-48.7	15.7	4.50e-06	92	41	0	28311552	60	9830
2026-01-22 19:34:26.83	47.82	4.09	-45.1	-47.3	16.8	0.00e+00	92	41	0	30408704	60	8345
2026-01-22 19:34:27.84	47.72	4.14	-45.3	-47.6	16.8	0.00e+00	0	41	0	32505856	60	8637
2026-01-22 19:34:28.85	47.61	4.19	-44.9	-47.0	17.2	0.00e+00	91	41	0	34603008	60	8075
2026-01-22 19:34:29.86	47.51	4.25	-44.8	-46.8	17.4	0.00e+00	0	41	0	36700160	60	7877
2026-01-22 19:34:30.87	47.41	4.30	-44.7	-46.7	17.5	0.00e+00	92	41	0	37748736	60	7798
2026-01-22 19:34:31.88	47.31	4.35	-44.5	-46.4	17.9	0.00e+00	0	41	0	39845888	60	7551
2026-01-22 19:34:32.89	47.20	4.40	-44.4	-46.3	18.1	0.00e+00	92	41	0	41943040	60	7462
2026-01-22 19:34:33.90	47.10	4.45	-44.6	-46.6	17.6	0.00e+00	19	41	0	44040192	60	7699
2026-01-22 19:34:34.91	47.00	4.50	-44.8	-46.8	17.3	0.00e+00	1	41	0	46137344	60	7941
2026-01-22 19:34:35.92	46.89	4.55	-44.4	-46.2	18.1	0.00e+00	92	41	0	47185920	60	7360
2026-01-22 19:34:36.93	46.79	4.60	-44.5	-46.3	17.8	0.00e+00	81	41	0	49283072	60	7483
2026-01-22 19:34:37.94	46.68	4.65	-44.5	-46.3	17.9	0.00e+00	91	41	0	51380224	60	7500
2026-01-22 19:34:38.95	46.58	4.70	-44.0	-45.7	18.4	0.00e+00	0	41	0	53477376	60	6983
2026-01-22 19:34:39.96	46.47	4.75	-44.2	-45.9	18.2	0.00e+00	91	41	0	55574528	60	7132
2026-01-22 19:34:40.97	46.37	4.81	-44.4	-46.2	18.1	0.00e+00	81	41	0	56623104	60	7347
2026-01-22 19:34:41.98	46.26	4.86	-44.0	-45.6	18.3	0.00e+00	81	41	0	58720256	60	6926
2026-01-22 19:34:42.99	46.15	4.91	-44.1	-45.8	18.4	0.00e+00	91	41	0	60817408	60	7087
2026-01-22 19:34:44.00	46.05	4.96	-44.2	-45.9	18.2	0.00e+00	82	41	0	62914560	60	7152
2026-01-22 19:34:45.01	45.94	5.01	-44.5	-46.3	18.1	0.00e+00	92	41	0	65011712	60	7492
2026-01-22 19:34:46.02	45.83	5.06	-44.4	-46.2	18.3	0.00e+00	0	41	0	67108864	60	7340
2026-01-22 19:34:47.03	45.72	5.11	-44.2	-45.9	18.4	0.00e+00	92	41	0	68157440	60	7164
2026-01-22 19:34:48.04	45.61	5.16	-44.7	-46.6	17.9	0.00e+00	0	41	0	70254592	60	7709
2026-01-22 19:34:49.06	45.50	5.21	-44.2	-45.9	18.4	0.00e+00	92	41	0	72351744	60	7139
2026-01-22 19:34:50.07	45.39	5.26	-44.1	-45.9	18.5	0.00e+00	92	41	0	74448896	60	7110
2026-01-22 19:34:51.08	45.28	5.32	-43.8	-45.5	18.9	0.00e+00	0	41	0	76546048	60	6775
2026-01-22 19:34:52.09	45.17	5.37	-44.2	-45.9	18.4	0.00e+00	92	41	0	77594624	60	7140
2026-01-22 19:34:53.10	45.06	5.42	-44.0	-45.6	18.7	0.00e+00	0	41	0	79691776	60	6921
2026-01-22 19:34:54.11	44.95	5.47	-43.9	-45.5	18.8	0.00e+00	92	41	0	81788928	60	6813
2026-01-22 19:34:55.12	44.84	5.52	-43.8	-45.4	19.0	0.00e+00	1	41	0	83886080	60	6725
2026-01-22 19:34:56.13	44.73	5.57	-43.8	-45.4	18.9	0.00e+00	90	41	0	85983232	60	6695
2026-01-22 19:34:57.13	44.62	5.62	-43.9	-45.5	18.8	0.00e+00	2	41	0	87031808	60	6826
2026-01-22 19:34:58.14	44.50	5.67	-43.9	-45.5	18.9	0.00e+00	0	41	0	89128960	60	6803
2026-01-22 19:34:59.15	44.39	5.72	-44.0	-45.6	18.9	0.00e+00	92	41	0	91226112	60	6887
2026-01-22 19:35:00.16	44.28	5.77	-43.7	-45.3	19.1	0.00e+00	0	41	0	93323264	60	6670
2026-01-22 19:35:01.18	44.16	5.82	-43.9	-45.5	18.8	0.00e+00	90	41	0	95420416	60	6810
2026-01-22 19:35:02.18	44.05	5.88	-43.9	-45.6	18.7	0.00e+00	0	41	0	96468992	60	6866
2026-01-22 19:35:03.19	43.94	5.93	-44.0	-45.6	18.8	0.00e+00	92	41	0	98566144	60	6891
2026-01-22 19:35:04.21	43.82	5.98	-43.9	-45.6	18.9	0.00e+00	73	41	0	100663296	60	6851
2026-01-22 19:35:05.21	43.70	6.03	-43.9	-45.5	18.9	0.00e+00	2	41	0	102760448	60	6830
2026-01-22 19:35:06.22	43.59	6.08	-44.2	-45.9	18.5	0.00e+00	92	41	0	104857600	60	7121
2026-01-22 19:35:07.23	43.47	6.13	-44.0	-45.6	18.8	0.00e+00	0	41	0	105906176	60	6872
2026-01-22 19:35:08.24	43.36	6.18	-44.1	-45.7	18.7	0.00e+00	92	41	0	108003328	60	6976
2026-01-22 19:35:09.25	43.24	6.23	-43.8	-45.4	19.1	0.00e+00	0	41	0	110100480	60	6718
2026-01-22 19:35:10.26	43.12	6.28	-43.8	-45.4	19.0	0.00e+00	92	41	0	112197632	60	6753
2026-01-22 19:35:11.27	43.00	6.33	-43.7	-45.3	19.1	0.00e+00	0	41	0	114294784	60	6660
2026-01-22 19:35:12.28	42.88	6.38	-43.7	-45.2	19.2	0.00e+00	67	41	0	115343360	60	6597
2026-01-22 19:35:13.29	42.76	6.43	-43.7	-45.3	19.2	0.00e+00	92	41	0	117440512	60	6665
2026-01-22 19:35:14.30	42.65	6.49	-43.7	-45.2	19.2	0.00e+00	0	41	0	119537664	60	6594
2026-01-22 19:35:15.31	42.53	6.54	-44.0	-45.7	18.8	0.00e+00	92	41	0	121634816	60	6948
2026-01-22 19:35:16.32	42.41	6.59	-43.7	-45.3	19.2	0.00e+00	0	41	0	123731968	60	6616
2026-01-22 19:35:17.33	42.29	6.64	-43.7	-45.3	19.3	0.00e+00	91	41	0	124780544	60	6626
2026-01-22 19:35:18.34	42.16	6.69	-43.7	-45.3	19.2	0.00e+00	0	41	0	126877696	60	6661
2026-01-22 19:35:19.35	42.04	6.74	-43.6	-45.1	19.4	0.00e+00	91	41	0	128974848	60	6508
2026-01-22 19:35:20.36	41.92	6.79	-43.6	-45.1	19.4	0.00e+00	90	41	0	131072000	60	6502
2026-01-22 19:35:21.37	41.80	6.84	-43.5	-45.0	19.5	0.00e+00	0	41	0	133169152	60	6442
2026-01-22 19:35:22.38	41.68	6.89	-43.6	-45.1	19.4	0.00e+00	92	41	0	135266304	60	6479
2026-01-22 19:35:23.39	41.55	6.94	-43.5	-45.0	19.5	0.00e+00	0	41	0	136314880	60	6413
2026-01-22 19:35:24.39	41.43	6.99	-43.6	-45.2	19.3	0.00e+00	92	41	0	138412032	60	6547
2026-01-22 19:35:25.40	41.31	7.04	-43.5	-45.0	19.5	0.00e+00	0	41	0	140509184	60	6438
2026-01-22 19:35:26.41	41.18	7.09	-43.4	-44.9	19.6	0.00e+00	90	41	0	142606336	60	6366
2026-01-22 19:35:27.42	41.06	7.14	-43.4	-44.9	19.5	0.00e+00	0	41	0	144703488	60	6375
2026-01-22 19:35:28.43	40.93	7.19	-43.4	-44.8	19.6	0.00e+00	6	41	0	145752064	60	6296
2026-01-22 19:35:29.44	40.80	7.24	-43.5	-45.0	19.5	0.00e+00	90	41	0	147849216	60	6420
2026-01-22 19:35:30.45	40.68	7.29	-43.4	-44.8	19.7	0.00e+00	6	41	0	149946368	60	6312
2026-01-22 19:35:31.46	40.55	7.34	-43.5	-45.0	19.7	0.00e+00	92	41	0	152043520	60	6392
2026-01-22 19:35:32.47	40.42	7.39	-43.4	-44.9	19.6	0.00e+00	0	41	0	154140672	60	6351
2026-01-22 19:35:33.48	40.30	7.44	-43.3	-44.8	19.7	0.00e+00	92	41	0	155189248	60	6260
2026-01-22 19:35:34.49	40.17	7.49	-43.3	-44.7	19.8	0.00e+00	0	41	0	157286400	60	6233
2026-01-22 19:35:35.50	40.04	7.55	-43.3	-44.7	19.8	0.00e+00	0	41	0	159383552	60	6208
2026-01-22 19:35:36.51	39.91	7.60	-43.4	-44.8	19.7	0.00e+00	92	41	0	161480704	60	6302
2026-01-22 19:35:37.52	39.78	7.65	-43.4	-44.9	19.6	0.00e+00	0	41	0	163577856	60	6358
2026-01-22 19:35:38.53	39.65	7.70	-43.1	-44.5	20.0	0.00e+00	91	41	0	164626432	60	6050
2026-01-22 19:35:39.54	39.52	7.75	-43.2	-44.6	20.0	0.00e+00	0	41	0	166723584	60	6113
2026-01-22 19:35:40.54	39.39	7.79	-43.2	-44.6	20.0	0.00e+00	92	41	0	168820736	60	6160
2026-01-22 19:35:41.55	39.26	7.84	-43.2	-44.6	19.9	0.00e+00	1	41	0	170917888	60	6119
2026-01-22 19:35:42.56	39.13	7.89	-43.1	-44.6	20.0	0.00e+00	90	41	0	173015040	60	6110
2026-01-22 19:35:43.57	39.00	7.94	-43.2	-44.6	19.9	0.00e+00	49	41	0	174063616	60	6145
2026-01-22 19:35:44.58	38.86	7.99	-43.0	-44.4	20.1	0.00e+00	84	41	0	176160768	60	5998
2026-01-22 19:35:45.59	38.73	8.04	-43.0	-44.4	20.2	0.00e+00	90	41	0	178257920	60	5977
2026-01-22 19:35:46.60	38.60	8.09	-42.8	-44.2	20.3	0.00e+00	84	41	0	180355072	60	5850
2026-01-22 19:35:47.61	38.46	8.14	-43.0	-44.4	20.2	0.00e+00	92	41	0	182452224	60	6009
2026-01-22 19:35:48.62	38.33	8.19	-43.0	-44.3	20.3	0.00e+00	0	41	0	183500800	60	5948
2026-01-22 19:35:49.62	38.19	8.24	-42.9	-44.2	20.3	0.00e+00	92	41	0	185597952	60	5873
2026-01-22 19:35:50.64	38.06	8.29	-42.9	-44.3	20.3	0.00e+00	0	41	0	187695104	60	5900
2026-01-22 19:35:51.65	37.92	8.34	-42.8	-44.2	20.4	0.00e+00	8	41	0	189792256	60	5832
2026-01-22 19:35:52.66	37.79	8.39	-42.9	-44.2	20.3	0.00e+00	92	41	0	191889408	60	5883
2026-01-22 19:35:53.67	37.65	8.44	-42.9	-44.2	20.3	0.00e+00	6	41	0	192937984	60	5875
2026-01-22 19:35:54.68	37.51	8.49	-43.0	-44.3	20.2	0.00e+00	92	41	0	195035136	60	5958
2026-01-22 19:35:55.69	37.37	8.54	-43.1	-44.5	20.0	0.00e+00	8	41	0	197132288	60	6086
2026-01-22 19:35:56.70	37.24	8.59	-43.2	-44.6	20.1	0.00e+00	92	41	0	199229440	60	6163
2026-01-22 19:35:57.70	37.10	8.64	-43.3	-44.7	20.0	0.00e+00	4	41	0	201326592	60	6196
2026-01-22 19:35:58.72	36.96	8.69	-43.1	-44.4	19.9	0.00e+00	75	41	0	203423744	60	6033
2026-01-22 19:35:59.72	36.82	8.73	-43.0	-44.3	20.3	0.00e+00	90	41	0	204472320	60	5949
2026-01-22 19:36:00.73	36.68	8.78	-43.1	-44.4	20.2	0.00e+00	2	41	0	206569472	60	6005
2026-01-22 19:36:01.74	36.54	8.83	-42.9	-44.2	20.4	0.00e+00	90	41	0	208666624	60	5894
2026-01-22 19:36:02.75	36.40	8.88	-42.8	-44.1	20.5	0.00e+00	79	41	0	210763776	60	5827
2026-01-22 19:36:03.77	36.25	8.93	-42.9	-44.2	20.4	0.00e+00	82	41	0	212860928	60	5877
2026-01-22 19:36:04.78	36.11	8.98	-42.9	-44.2	20.4	0.00e+00	81	41	0	213909504	60	5871
2026-01-22 19:36:05.79	35.97	9.03	-43.0	-44.4	20.3	0.00e+00	78	41	0	216006656	60	5979
2026-01-22 19:36:06.80	35.83	9.07	-43.0	-44.3	20.2	0.00e+00	72	41	0	218103808	60	5951
2026-01-22 19:36:07.81	35.68	9.12	-43.0	-44.4	20.3	0.00e+00	2	41	0	220200960	60	5991
2026-01-22 19:36:08.82	35.54	9.17	-42.8	-44.2	20.5	0.00e+00	92	41	0	222298112	60	5844
2026-01-22 19:36:09.82	35.40	9.22	-43.0	-44.3	20.4	0.00e+00	0	41	0	223346688	60	5935
2026-01-22 19:36:10.84	35.25	9.27	-42.9	-44.2	20.5	0.00e+00	92	41	0	225443840	60	5876
2026-01-22 19:36:11.85	35.10	9.32	-42.8	-44.1	20.4	0.00e+00	0	41	0	227540992	58	6504
2026-01-22 19:36:12.85	34.96	9.36	-42.9	-44.3	20.4	0.00e+00	2	41	0	229638144	58	6625
2026-01-22 19:36:13.86	34.81	9.41	-42.7	-44.0	20.5	0.00e+00	2	41	0	231735296	58	6455
2026-01-22 19:36:14.87	34.66	9.46	-42.5	-43.8	20.8	0.00e+00	2	41	0	232783872	58	6247
2026-01-22 19:36:15.88	34.52	9.51	-42.4	-43.7	20.9	0.00e+00	92	41	0	234881024	58	6181
2026-01-22 19:36:16.89	34.37	9.55	-42.4	-43.7	20.8	0.00e+00	0	41	0	236978176	58	6197
2026-01-22 19:36:17.90	34.22	9.60	-42.3	-43.6	21.0	0.00e+00	92	41	0	239075328	58	6116
2026-01-22 19:36:18.91	34.07	9.65	-42.3	-43.6	20.9	0.00e+00	2	41	0	241172480	58	6114
2026-01-22 19:36:19.92	33.92	9.70	-42.2	-43.4	21.0	0.00e+00	82	41	0	242221056	58	6003
2026-01-22 19:36:20.93	33.77	9.74	-42.3	-43.5	21.1	0.00e+00	81	41	0	244318208	58	6041
2026-01-22 19:36:21.94	33.62	9.79	-42.1	-43.3	21.2	0.00e+00	2	41	0	246415360	58	5942
2026-01-22 19:36:22.95	33.47	9.84	-42.0	-43.2	21.3	0.00e+00	92	41	0	248512512	58	5868
2026-01-22 19:36:23.96	33.32	9.88	-41.9	-43.0	21.5	0.00e+00	80	41	0	250609664	58	5721
2026-01-22 19:36:24.97	33.17	9.93	-41.9	-43.1	21.5	0.00e+00	92	41	0	251658240	58	5783
2026-01-22 19:36:25.98	33.02	9.98	-41.9	-43.0	21.5	0.00e+00	0	41	0	253755392	58	5750
2026-01-22 19:36:26.98	32.86	10.02	-42.0	-43.2	21.4	0.00e+00	0	41	0	255852544	58	5863
2026-01-22 19:36:27.99	32.71	10.07	-41.9	-43.0	21.5	0.00e+00	81	41	0	257949696	58	5752
2026-01-22 19:36:28.99	32.56	10.12	-41.8	-42.9	21.7	0.00e+00	81	41	0	260046848	56	6371
2026-01-22 19:36:30.00	32.40	10.16	-41.8	-42.9	21.7	0.00e+00	92	41	0	261095424	56	6338
2026-01-22 19:36:31.01	32.25	10.21	-41.4	-42.5	22.1	0.00e+00	0	41	0	263192576	56	6076
2026-01-22 19:36:32.02	32.09	10.25	-41.4	-42.5	22.1	0.00e+00	92	41	0	265289728	56	6066
2026-01-22 19:36:33.03	31.94	10.30	-41.5	-42.6	22.0	0.00e+00	0	41	0	267386880	56	6117
2026-01-22 19:36:34.04	31.78	10.34	-41.4	-42.5	22.0	0.00e+00	67	41	0	269484032	56	6077
2026-01-22 19:36:35.05	31.62	10.39	-41.5	-42.6	22.0	0.00e+00	0	41	0	271581184	56	6152
2026-01-22 19:36:36.06	31.47	10.44	-41.4	-42.5	22.0	0.00e+00	2	41	0	272629760	56	6055
2026-01-22 19:36:37.07	31.31	10.48	-41.4	-42.5	22.0	0.00e+00	2	41	0	274726912	56	6080
2026-01-22 19:36:38.08	31.15	10.53	-41.2	-42.3	22.2	0.00e+00	4	41	0	276824064	56	5925
2026-01-22 19:36:39.09	30.99	10.57	-41.3	-42.4	22.0	0.00e+00	92	41	0	278921216	56	6007
2026-01-22 19:36:40.10	30.83	10.62	-41.4	-42.5	22.1	0.00e+00	4	41	0	281018368	56	6043
2026-01-22 19:36:41.11	30.67	10.66	-41.5	-42.5	22.0	0.00e+00	92	41	0	282066944	56	6097
2026-01-22 19:36:42.12	30.51	10.71	-41.2	-42.3	22.2	0.00e+00	2	41	0	284164096	56	5925
2026-01-22 19:36:43.13	30.35	10.75	-41.3	-42.3	22.2	0.00e+00	0	41	0	286261248	56	5954
2026-01-22 19:36:44.14	30.19	10.79	-41.0	-42.1	22.5	0.00e+00	2	41	0	288358400	56	5779
2026-01-22 19:36:45.15	30.03	10.84	-41.0	-42.1	22.4	0.00e+00	0	41	0	290455552	56	5774
2026-01-22 19:36:46.16	29.87	10.88	-41.1	-42.1	22.4	0.00e+00	92	41	0	291504128	56	5779
2026-01-22 19:36:47.17	29.70	10.93	-40.9	-41.9	22.6	0.00e+00	79	41	0	293601280	56	5682
2026-01-22 19:36:48.18	29.54	10.97	-41.0	-42.0	22.6	0.00e+00	92	41	0	295698432	56	5713
2026-01-22 19:36:49.19	29.38	11.01	-40.9	-42.0	22.6	0.00e+00	0	41	0	297795584	56	5703
2026-01-22 19:36:50.20	29.21	11.06	-40.9	-41.9	22.6	0.00e+00	0	41	0	299892736	56	5680
2026-01-22 19:36:51.21	29.05	11.10	-41.0	-42.0	22.6	0.00e+00	0	41	0	300941312	56	5715
2026-01-22 19:36:52.22	28.88	11.14	-41.0	-42.0	22.6	0.00e+00	0	41	0	303038464	56	5712
2026-01-22 19:36:53.23	28.72	11.19	-41.0	-42.0	22.5	0.00e+00	79	41	0	305135616	56	5710
2026-01-22 19:36:54.24	28.55	11.23	-40.7	-41.7	22.3	0.00e+00	0	41	0	307232768	54	6229
2026-01-22 19:36:55.25	28.38	11.27	-40.6	-41.6	22.8	0.00e+00	92	41	0	309329920	54	6119
2026-01-22 19:36:56.26	28.22	11.32	-40.7	-41.6	22.7	0.00e+00	1	41	0	310378496	54	6170
2026-01-22 19:36:57.27	28.05	11.36	-40.7	-41.7	22.7	0.00e+00	1	41	0	312475648	54	6238
2026-01-22 19:36:58.28	27.88	11.40	-40.4	-41.4	23.0	0.00e+00	0	41	0	314572800	54	5998
2026-01-22 19:36:59.29	27.71	11.44	-40.4	-41.4	23.0	0.00e+00	0	41	0	316669952	54	5984
2026-01-22 19:37:00.30	27.54	11.48	-40.3	-41.2	23.1	0.00e+00	0	41	0	318767104	54	5877
2026-01-22 19:37:01.31	27.37	11.53	-40.3	-41.3	23.1	0.00e+00	3	41	0	319815680	54	5929
2026-01-22 19:37:02.32	27.20	11.57	-40.4	-41.4	23.0	0.00e+00	92	41	0	321912832	54	5967
2026-01-22 19:37:03.33	27.03	11.61	-40.4	-41.4	23.0	0.00e+00	80	41	0	324009984	54	5965
2026-01-22 19:37:04.34	26.86	11.65	-40.5	-41.5	22.9	0.00e+00	92	41	0	326107136	54	6054
2026-01-22 19:37:05.35	26.69	11.69	-40.6	-41.6	23.0	0.00e+00	80	41	0	328204288	54	6107
2026-01-22 19:37:06.36	26.52	11.73	-40.6	-41.6	22.8	0.00e+00	1	41	0	329252864	54	6156
2026-01-22 19:37:07.38	26.34	11.77	-40.5	-41.5	22.9	0.00e+00	0	41	0	331350016	54	6059
2026-01-22 19:37:08.39	26.17	11.81	-40.6	-41.5	22.9	0.00e+00	80	41	0	333447168	54	6101
2026-01-22 19:37:09.40	25.99	11.85	-40.8	-41.8	22.6	0.00e+00	92	41	0	335544320	54	6278
2026-01-22 19:37:10.41	25.82	11.89	-40.8	-41.8	22.5	0.00e+00	6	41	0	337641472	54	6292
2026-01-22 19:37:11.42	25.65	11.93	-40.7	-41.7	22.7	0.00e+00	92	41	0	339738624	54	6233
2026-01-22 19:37:12.43	25.47	11.97	-40.8	-41.8	22.6	0.00e+00	0	41	0	340787200	54	6257
2026-01-22 19:37:13.44	25.29	12.01	-40.7	-41.7	22.7	0.00e+00	10	41	0	342884352	54	6230
2026-01-22 19:37:14.45	25.12	12.05	-40.7	-41.7	22.7	0.00e+00	0	41	0	344981504	54	6208
2026-01-22 19:37:15.46	24.94	12.09	-40.7	-41.7	22.7	0.00e+00	5	41	0	347078656	54	6233
2026-01-22 19:37:16.47	24.76	12.13	-40.9	-41.9	22.6	0.00e+00	0	41	0	349175808	54	6339
2026-01-22 19:37:17.48	24.59	12.17	-41.0	-42.0	22.5	0.00e+00	5	41	0	350224384	54	6426
2026-01-22 19:37:18.49	24.41	12.21	-41.0	-42.0	22.4	0.00e+00	92	41	0	352321536	54	6415
2026-01-22 19:37:19.50	24.23	12.24	-41.1	-42.1	22.4	0.00e+00	85	41	0	354418688	54	6527
2026-01-22 19:37:20.51	24.05	12.28	-41.3	-42.3	22.2	0.00e+00	1	41	0	356515840	54	6667
2026-01-22 19:37:21.52	23.87	12.32	-41.3	-42.4	22.1	0.00e+00	3	41	0	358612992	54	6726
2026-01-22 19:37:22.53	23.69	12.36	-41.3	-42.3	22.2	0.00e+00	3	41	0	359661568	54	6665
2026-01-22 19:37:23.54	23.51	12.40	-41.0	-42.0	22.5	0.00e+00	0	41	0	361758720	54	6440
2026-01-22 19:37:24.55	23.33	12.43	-41.1	-42.1	22.3	0.00e+00	0	41	0	363855872	54	6538
2026-01-22 19:37:25.56	23.15	12.47	-41.1	-42.1	22.4	0.00e+00	92	41	0	365953024	54	6490
2026-01-22 19:37:26.57	22.97	12.51	-41.2	-42.2	22.2	0.00e+00	84	41	0	368050176	54	6576
2026-01-22 19:37:27.58	22.79	12.54	-40.9	-41.9	22.6	0.00e+00	90	41	0	369098752	54	6349
2026-01-22 19:37:28.59	22.60	12.58	-41.0	-42.0	22.6	0.00e+00	0	41	0	371195904	54	6452
2026-01-22 19:37:29.60	22.42	12.61	-40.9	-42.0	22.4	0.00e+00	7	41	0	373293056	54	6399
2026-01-22 19:37:30.61	22.24	12.65	-40.8	-41.8	22.7	0.00e+00	0	41	0	375390208	54	6303
2026-01-22 19:37:31.63	22.05	12.69	-40.9	-41.9	22.6	0.00e+00	0	41	0	377487360	54	6323
2026-01-22 19:37:32.64	21.87	12.72	-40.9	-41.9	22.7	0.00e+00	92	41	0	378535936	54	6349
2026-01-22 19:37:33.65	21.68	12.76	-40.9	-41.9	22.5	0.00e+00	3	41	0	380633088	54	6367
2026-01-22 19:37:34.66	21.50	12.79	-40.8	-41.8	22.7	0.00e+00	92	41	0	382730240	54	6275
2026-01-22 19:37:35.66	21.31	12.83	-40.8	-41.8	22.7	0.00e+00	8	41	0	384827392	54	6248
2026-01-22 19:37:36.67	21.13	12.86	-40.9	-41.9	22.6	0.00e+00	6	41	0	386924544	54	6318
2026-01-22 19:37:37.68	20.94	12.89	-40.8	-41.8	22.6	0.00e+00	1	41	0	387973120	54	6306
2026-01-22 19:37:38.69	20.75	12.93	-40.7	-41.6	22.9	0.00e+00	3	41	0	390070272	54	6166
2026-01-22 19:37:39.70	20.57	12.96	-40.7	-41.7	22.8	0.00e+00	55	41	0	392167424	54	6191
2026-01-22 19:37:40.71	20.38	12.99	-40.7	-41.6	22.5	0.00e+00	78	41	0	394264576	54	6153
2026-01-22 19:37:41.72	20.19	13.03	-40.6	-41.6	22.9	0.00e+00	90	41	0	396361728	54	6139
2026-01-22 19:37:42.73	20.00	13.06	-40.7	-41.7	22.8	0.00e+00	81	41	0	397410304	54	6174
2026-01-22 19:37:43.74	19.81	13.09	-40.8	-41.8	22.7	0.00e+00	2	41	0	399507456	54	6298
2026-01-22 19:37:44.75	19.62	13.12	-40.7	-41.7	22.8	0.00e+00	0	41	0	401604608	54	6177
2026-01-22 19:37:45.76	19.43	13.16	-40.8	-41.8	22.6	0.00e+00	77	41	0	403701760	54	6268
2026-01-22 19:37:46.77	19.24	13.19	-40.8	-41.8	22.8	0.00e+00	83	41	0	405798912	54	6300
2026-01-22 19:37:47.78	19.05	13.22	-40.7	-41.7	22.8	0.00e+00	0	41	0	407896064	54	6186
2026-01-22 19:37:48.79	18.86	13.25	-40.7	-41.7	22.8	0.00e+00	91	41	0	408944640	54	6178
2026-01-22 19:37:49.80	18.67	13.28	-40.7	-41.7	22.9	0.00e+00	2	41	0	411041792	54	6203
2026-01-22 19:37:50.81	18.48	13.31	-40.7	-41.7	22.8	0.00e+00	90	41	0	413138944	54	6209
2026-01-22 19:37:51.82	18.28	13.34	-40.6	-41.6	23.0	0.00e+00	0	41	0	415236096	54	6126
2026-01-22 19:37:52.83	18.09	13.37	-40.4	-41.4	23.1	0.00e+00	0	41	0	417333248	54	5992
2026-01-22 19:37:53.84	17.90	13.40	-40.6	-41.5	22.9	0.00e+00	0	41	0	418381824	54	6088
2026-01-22 19:37:54.84	17.71	13.43	-40.5	-41.5	23.0	0.00e+00	0	41	0	420478976	54	6061
2026-01-22 19:37:55.85	17.51	13.46	-40.4	-41.3	23.1	0.00e+00	91	41	0	422576128	54	5951
2026-01-22 19:37:56.87	17.32	13.49	-40.5	-41.4	23.1	0.00e+00	0	41	0	424673280	54	6023
2026-01-22 19:37:57.88	17.12	13.52	-40.6	-41.6	22.9	0.00e+00	91	41	0	426770432	54	6105
2026-01-22 19:37:58.89	16.93	13.55	-40.6	-41.6	22.9	0.00e+00	0	41	0	427819008	54	6147
2026-01-22 19:37:59.90	16.73	13.57	-40.5	-41.4	23.1	0.00e+00	79	41	0	429916160	54	6024
2026-01-22 19:38:00.91	16.54	13.60	-40.6	-41.5	23.0	0.00e+00	2	41	0	432013312	54	6089
2026-01-22 19:38:01.92	16.34	13.63	-40.4	-41.4	23.1	0.00e+00	3	41	0	434110464	54	5997
2026-01-22 19:38:02.93	16.14	13.66	-40.5	-41.4	23.1	0.00e+00	92	41	0	436207616	54	6004
2026-01-22 19:38:03.94	15.95	13.68	-40.6	-41.6	22.9	0.00e+00	78	41	0	437256192	54	6123
2026-01-22 19:38:04.95	15.75	13.71	-40.5	-41.4	23.1	0.00e+00	91	41	0	439353344	54	6021
2026-01-22 19:38:05.96	15.55	13.74	-40.5	-41.5	23.0	0.00e+00	77	41	0	441450496	54	6067
2026-01-22 19:38:06.97	15.35	13.76	-40.4	-41.4	22.9	0.00e+00	92	41	0	443547648	54	5982
2026-01-22 19:38:07.98	15.15	13.79	-40.5	-41.5	22.9	0.00e+00	78	41	0	445644800	54	6074
2026-01-22 19:38:08.99	14.95	13.81	-40.6	-41.6	23.0	0.00e+00	0	41	0	446693376	54	6108
2026-01-22 19:38:10.00	14.76	13.84	-40.5	-41.5	23.0	0.00e+00	92	41	0	448790528	54	6071
2026-01-22 19:38:11.01	14.56	13.86	-40.7	-41.7	22.8	0.00e+00	0	41	0	450887680	54	6181
2026-01-22 19:38:12.02	14.36	13.89	-40.8	-41.8	22.7	0.00e+00	92	41	0	452984832	54	6295
2026-01-22 19:38:13.03	14.16	13.91	-41.0	-42.0	22.6	0.00e+00	0	41	0	455081984	54	6397
2026-01-22 19:38:14.03	13.96	13.93	-40.9	-41.9	22.6	0.00e+00	92	41	0	456130560	54	6362
2026-01-22 19:38:15.04	13.76	13.96	-41.0	-42.0	22.6	0.00e+00	0	41	0	458227712	54	6418
2026-01-22 19:38:16.05	13.56	13.98	-40.9	-41.9	22.6	0.00e+00	0	41	0	460324864	54	6354
2026-01-22 19:38:17.06	13.36	14.00	-41.0	-42.0	22.7	0.00e+00	0	41	0	462422016	54	6406
2026-01-22 19:38:18.08	13.15	14.02	-41.1	-42.2	22.5	0.00e+00	0	41	0	464519168	54	6553
2026-01-22 19:38:19.08	12.95	14.05	-41.1	-42.1	22.5	0.00e+00	90	41	0	465567744	54	6475
2026-01-22 19:38:20.09	12.75	14.07	-41.2	-42.3	22.4	0.00e+00	0	41	0	467664896	54	6636
2026-01-22 19:38:21.10	12.55	14.09	-41.2	-42.2	22.4	0.00e+00	92	41	0	469762048	54	6558
2026-01-22 19:38:22.11	12.34	14.11	-41.4	-42.5	22.1	0.00e+00	0	41	0	471859200	54	6808
2026-01-22 19:38:23.12	12.14	14.13	-41.3	-42.3	22.4	0.00e+00	77	41	0	473956352	54	6658
2026-01-22 19:38:24.13	11.94	14.15	-41.2	-42.3	22.4	0.00e+00	77	41	0	476053504	54	6648
2026-01-22 19:38:25.14	11.73	14.17	-41.4	-42.4	22.2	0.00e+00	4	41	0	477102080	54	6759
2026-01-22 19:38:26.15	11.53	14.19	-41.5	-42.6	22.0	0.00e+00	91	41	0	479199232	54	6888
2026-01-22 19:38:27.16	11.33	14.21	-41.7	-42.9	21.8	0.00e+00	0	41	0	481296384	54	7094
2026-01-22 19:38:28.17	11.12	14.23	-41.5	-42.5	22.1	0.00e+00	92	41	0	483393536	54	6828
2026-01-22 19:38:29.18	10.92	14.25	-41.4	-42.5	22.1	0.00e+00	0	41	0	485490688	54	6799
2026-01-22 19:38:30.19	10.71	14.26	-41.1	-42.2	22.5	0.00e+00	92	41	0	486539264	54	6564
2026-01-22 19:38:31.20	10.51	14.28	-41.1	-42.1	22.5	0.00e+00	2	41	0	488636416	54	6526
2026-01-22 19:38:32.21	10.30	14.30	-41.0	-42.0	22.5	0.00e+00	0	41	0	490733568	54	6451
2026-01-22 19:38:33.22	10.09	14.32	-41.1	-42.2	22.4	0.00e+00	0	41	0	492830720	54	6541
2026-01-22 19:38:34.23	9.89	14.33	-41.0	-42.0	22.7	0.00e+00	0	41	0	494927872	54	6418
2026-01-22 19:38:35.24	9.68	14.35	-40.9	-41.9	22.6	0.00e+00	90	41	0	495976448	54	6335
2026-01-22 19:38:36.25	9.48	14.36	-40.9	-41.9	22.6	0.00e+00	2	41	0	498073600	54	6353
2026-01-22 19:38:37.26	9.27	14.38	-40.7	-41.7	22.9	0.00e+00	92	41	0	500170752	54	6210
2026-01-22 19:38:38.26	9.06	14.40	-40.6	-41.6	23.0	0.00e+00	0	41	0	502267904	54	6119
2026-01-22 19:38:39.27	8.86	14.41	-40.7	-41.6	22.9	0.00e+00	3	41	0	504365056	54	6164
2026-01-22 19:38:40.28	8.65	14.42	-40.7	-41.7	23.0	0.00e+00	0	41	0	505413632	54	6207
2026-01-22 19:38:41.29	8.44	14.44	-40.7	-41.7	22.9	0.00e+00	0	41	0	507510784	54	6178
2026-01-22 19:38:42.30	8.24	14.45	-40.8	-41.8	22.8	0.00e+00	91	41	0	509607936	54	6263
2026-01-22 19:38:43.31	8.03	14.47	-40.8	-41.8	22.8	0.00e+00	0	41	0	511705088	54	6259
2026-01-22 19:38:44.32	7.82	14.48	-40.7	-41.7	22.9	0.00e+00	91	41	0	513802240	54	6201
2026-01-22 19:38:45.33	7.61	14.49	-40.8	-41.8	22.6	0.00e+00	81	41	0	514850816	54	6285
2026-01-22 19:38:46.34	7.40	14.50	-40.8	-41.8	22.8	0.00e+00	82	41	0	516947968	54	6254
2026-01-22 19:38:47.35	7.19	14.52	-40.8	-41.8	22.9	0.00e+00	82	41	0	519045120	54	6276
2026-01-22 19:38:48.36	6.99	14.53	-40.9	-41.9	22.8	0.00e+00	81	41	0	521142272	54	6390
2026-01-22 19:38:49.37	6.78	14.54	-41.0	-42.0	22.6	0.00e+00	84	41	0	523239424	54	6456
2026-01-22 19:38:50.38	6.57	14.55	-41.1	-42.1	22.5	0.00e+00	0	41	0	524288000	54	6499
2026-01-22 19:38:51.39	6.36	14.56	-41.1	-42.1	22.5	0.00e+00	92	41	0	526385152	54	6492
2026-01-22 19:38:52.40	6.15	14.57	-41.2	-42.2	22.5	0.00e+00	6	41	0	528482304	54	6567
2026-01-22 19:38:53.41	5.94	14.58	-41.0	-42.0	22.8	0.00e+00	60	41	0	530579456	54	6415
2026-01-22 19:38:54.42	5.73	14.59	-40.9	-41.9	22.7	0.00e+00	0	41	0	532676608	54	6335
2026-01-22 19:38:55.43	5.52	14.60	-41.0	-42.0	22.7	0.00e+00	0	41	0	533725184	54	6404
2026-01-22 19:38:56.44	5.31	14.61	-40.7	-41.7	22.9	0.00e+00	0	41	0	535822336	54	6219
2026-01-22 19:38:57.45	5.10	14.61	-40.9	-41.9	22.7	0.00e+00	1	41	0	537919488	54	6383
2026-01-22 19:38:58.46	4.89	14.62	-41.0	-42.0	22.7	0.00e+00	92	41	0	540016640	54	6417
2026-01-22 19:38:59.47	4.68	14.63	-41.1	-42.1	22.5	0.00e+00	5	41	0	542113792	54	6466
2026-01-22 19:39:00.48	4.47	14.64	-41.0	-42.1	22.6	0.00e+00	92	41	0	544210944	54	6467
2026-01-22 19:39:01.49	4.26	14.64	-41.1	-42.1	22.5	0.00e+00	5	41	0	545259520	54	6523
2026-01-22 19:39:02.50	4.05	14.65	-40.9	-41.9	22.8	0.00e+00	84	41	0	547356672	54	6363
2026-01-22 19:39:03.50	3.84	14.66	-40.8	-41.8	22.8	0.00e+00	61	41	0	549453824	54	6294
2026-01-22 19:39:04.51	3.63	14.66	-40.7	-41.7	23.0	0.00e+00	84	41	0	551550976	54	6193
2026-01-22 19:39:05.52	3.42	14.67	-40.7	-41.7	22.9	0.00e+00	92	41	0	553648128	54	6232
2026-01-22 19:39:06.53	3.21	14.67	-40.8	-41.8	22.8	0.00e+00	3	41	0	554696704	54	6309
2026-01-22 19:39:07.54	3.00	14.67	-40.9	-41.9	22.7	0.00e+00	90	41	0	556793856	54	6374
2026-01-22 19:39:08.55	2.79	14.68	-41.1	-42.1	22.5	0.00e+00	0	41	0	558891008	54	6497
2026-01-22 19:39:09.56	2.57	14.68	-41.2	-42.2	22.5	0.00e+00	82	41	0	560988160	54	6563
2026-01-22 19:39:10.57	2.36	14.68	-40.8	-41.8	22.9	0.00e+00	0	41	0	563085312	54	6301
2026-01-22 19:39:11.58	2.15	14.69	-40.8	-41.8	22.8	0.00e+00	0	41	0	564133888	54	6250
2026-01-22 19:39:12.59	1.94	14.69	-40.7	-41.6	23.0	0.00e+00	61	41	0	566231040	54	6162
2026-01-22 19:39:13.60	1.73	14.69	-40.8	-41.7	23.0	0.00e+00	0	41	0	568328192	54	6231
2026-01-22 19:39:14.61	1.52	14.69	-40.7	-41.7	23.0	0.00e+00	92	41	0	570425344	54	6223
2026-01-22 19:39:15.62	1.31	14.69	-40.8	-41.8	22.9	0.00e+00	7	41	0	572522496	54	6273
2026-01-22 19:39:16.63	1.10	14.70	-41.0	-42.0	22.8	0.00e+00	84	41	0	573571072	54	6407
2026-01-22 19:39:17.64	0.88	14.70	-41.0	-42.0	22.7	0.00e+00	6	41	0	575668224	54	6441
2026-01-22 19:39:18.65	0.67	14.70	-41.2	-42.3	22.5	0.00e+00	6	41	0	577765376	54	6620
2026-01-22 19:39:19.66	0.46	14.70	-41.2	-42.2	22.6	0.00e+00	0	41	0	579862528	54	6547
2026-01-22 19:39:20.67	0.25	14.69	-40.8	-41.7	22.9	0.00e+00	6	41	0	581959680	54	6244
2026-01-22 19:39:21.68	0.04	14.69	-40.8	-41.8	22.8	0.00e+00	92	41	0	583008256	54	6270
2026-01-22 19:39:22.69	359.83	14.69	-41.0	-41.9	22.8	0.00e+00	6	41	0	585105408	54	6388
2026-01-22 19:39:23.70	359.62	14.69	-40.8	-41.8	22.6	0.00e+00	79	41	0	587202560	54	6293
2026-01-22 19:39:24.71	359.41	14.69	-40.7	-41.6	22.9	0.00e+00	78	41	0	589299712	54	6167
2026-01-22 19:39:25.72	359.20	14.68	-40.8	-41.7	23.0	0.00e+00	3	41	0	591396864	54	6235
2026-01-22 19:39:26.73	358.98	14.68	-41.0	-42.0	22.7	0.00e+00	0	41	0	592445440	54	6409
2026-01-22 19:39:27.74	358.77	14.68	-41.1	-42.1	22.5	0.00e+00	79	41	0	594542592	54	6515
2026-01-22 19:39:28.74	358.56	14.67	-40.9	-41.9	22.7	0.00e+00	92	41	0	596639744	54	6354
2026-01-22 19:39:29.75	358.35	14.67	-40.9	-41.9	22.8	0.00e+00	80	41	0	598736896	54	6342
2026-01-22 19:39:30.76	358.14	14.67	-41.0	-42.0	22.7	0.00e+00	92	41	0	600834048	54	6427
2026-01-22 19:39:31.77	357.93	14.66	-40.9	-41.9	22.8	0.00e+00	80	41	0	601882624	54	6339
2026-01-22 19:39:32.78	357.72	14.65	-40.9	-41.9	22.8	0.00e+00	0	41	0	603979776	54	6331
2026-01-22 19:39:33.79	357.51	14.65	-41.0	-42.0	22.7	0.00e+00	0	41	0	606076928	54	6420
2026-01-22 19:39:34.80	357.30	14.64	-41.3	-42.3	22.5	0.00e+00	0	41	0	608174080	54	6650
2026-01-22 19:39:35.81	357.09	14.64	-41.2	-42.3	22.4	0.00e+00	87	41	0	610271232	54	6629
2026-01-22 19:39:36.82	356.88	14.63	-41.2	-42.2	22.4	0.00e+00	0	41	0	612368384	54	6612
2026-01-22 19:39:37.83	356.67	14.62	-41.3	-42.4	22.3	0.00e+00	92	41	0	613416960	54	6704
2026-01-22 19:39:38.84	356.46	14.61	-41.4	-42.5	22.2	0.00e+00	0	41	0	615514112	54	6778
2026-01-22 19:39:39.85	356.25	14.61	-41.2	-42.3	22.4	0.00e+00	72	41	0	617611264	54	6639
2026-01-22 19:39:40.86	356.04	14.60	-41.2	-42.3	22.4	0.00e+00	2	41	0	619708416	54	6654
2026-01-22 19:39:41.87	355.83	14.59	-41.2	-42.2	22.5	0.00e+00	3	41	0	621805568	54	6615
2026-01-22 19:39:42.88	355.62	14.58	-41.0	-42.1	22.6	0.00e+00	2	41	0	622854144	54	6468
2026-01-22 19:39:43.89	355.41	14.57	-41.0	-42.0	22.5	0.00e+00	2	41	0	624951296	54	6444
2026-01-22 19:39:44.90	355.20	14.56	-41.1	-42.2	22.4	0.00e+00	93	41	0	627048448	54	6558
2026-01-22 19:39:45.91	354.99	14.55	-41.4	-42.4	22.2	0.00e+00	81	41	0	629145600	54	6757
2026-01-22 19:39:46.91	354.79	14.54	-41.4	-42.5	22.3	0.00e+00	73	41	0	631242752	54	6801
2026-01-22 19:39:47.92	354.58	14.53	-41.5	-42.6	21.9	0.00e+00	81	41	0	632291328	54	6871
2026-01-22 19:39:48.93	354.37	14.52	-41.8	-42.9	22.0	0.00e+00	81	41	0	634388480	56	6375
2026-01-22 19:39:49.94	354.16	14.50	-41.8	-42.9	21.8	0.00e+00	0	41	0	636485632	56	6353
2026-01-22 19:39:50.95	353.95	14.49	-41.9	-43.0	21.9	0.00e+00	81	41	0	638582784	56	6393
2026-01-22 19:39:51.96	353.74	14.48	-41.5	-42.6	22.1	0.00e+00	92	41	0	640679936	56	6150
2026-01-22 19:39:52.97	353.53	14.47	-41.4	-42.5	22.3	0.00e+00	81	41	0	641728512	56	6086
2026-01-22 19:39:53.98	353.33	14.45	-41.3	-42.4	22.3	0.00e+00	90	41	0	643825664	56	6011
2026-01-22 19:39:54.99	353.12	14.44	-41.0	-42.0	22.7	0.00e+00	0	41	0	645922816	56	5761
2026-01-22 19:39:56.00	352.91	14.42	-41.0	-42.1	22.7	0.00e+00	0	41	0	648019968	56	5769
2026-01-22 19:39:57.01	352.70	14.41	-41.0	-42.0	22.7	0.00e+00	0	41	0	650117120	56	5724
2026-01-22 19:39:58.02	352.50	14.39	-41.0	-42.0	22.7	0.00e+00	0	41	0	651165696	56	5721
2026-01-22 19:39:59.03	352.29	14.38	-41.0	-42.0	22.7	0.00e+00	80	41	0	653262848	56	5755
2026-01-22 19:40:00.04	352.08	14.36	-41.1	-42.1	22.7	0.00e+00	0	41	0	655360000	56	5766
2026-01-22 19:40:01.05	351.88	14.35	-41.2	-42.2	22.6	0.00e+00	91	41	0	657457152	56	5840
2026-01-22 19:40:02.06	351.67	14.33	-41.4	-42.4	22.4	0.00e+00	0	41	0	659554304	56	6007
2026-01-22 19:40:03.07	351.47	14.31	-41.3	-42.3	22.5	0.00e+00	0	41	0	660602880	56	5952
2026-01-22 19:40:04.08	351.26	14.30	-41.2	-42.3	22.5	0.00e+00	2	41	0	662700032	56	5899
2026-01-22 19:40:05.09	351.05	14.28	-41.2	-42.2	22.5	0.00e+00	2	41	0	664797184	56	5851
2026-01-22 19:40:06.10	350.85	14.26	-40.9	-41.9	22.8	0.00e+00	0	41	0	666894336	56	5685
2026-01-22 19:40:07.11	350.64	14.24	-40.9	-41.8	22.9	0.00e+00	3	41	0	668991488	56	5628
2026-01-22 19:40:08.12	350.44	14.23	-40.8	-41.8	22.9	0.00e+00	91	41	0	670040064	56	5611
2026-01-22 19:40:09.13	350.23	14.21	-40.9	-41.9	22.7	0.00e+00	79	41	0	672137216	54	6348
2026-01-22 19:40:10.15	350.03	14.19	-40.8	-41.8	22.6	0.00e+00	59	41	0	674234368	54	6276
2026-01-22 19:40:11.15	349.83	14.17	-40.8	-41.8	22.8	0.00e+00	0	41	0	676331520	54	6304
2026-01-22 19:40:12.16	349.62	14.15	-40.8	-41.8	22.8	0.00e+00	78	41	0	678428672	54	6248
2026-01-22 19:40:13.17	349.42	14.13	-40.7	-41.7	22.9	0.00e+00	0	41	0	680525824	54	6197
2026-01-22 19:40:14.18	349.22	14.11	-40.6	-41.6	23.0	0.00e+00	77	41	0	681574400	54	6111
2026-01-22 19:40:15.19	349.01	14.09	-40.6	-41.6	22.9	0.00e+00	90	41	0	683671552	54	6160
2026-01-22 19:40:16.20	348.81	14.06	-40.8	-41.8	22.8	0.00e+00	0	41	0	685768704	54	6277
2026-01-22 19:40:17.21	348.61	14.04	-40.9	-41.9	22.7	0.00e+00	90	41	0	687865856	54	6323
2026-01-22 19:40:18.22	348.41	14.02	-41.0	-42.1	22.6	0.00e+00	0	41	0	689963008	54	6487
2026-01-22 19:40:19.23	348.21	14.00	-40.9	-41.9	22.7	0.00e+00	0	41	0	691011584	54	6376
2026-01-22 19:40:20.25	348.00	13.98	-41.0	-42.0	22.7	0.00e+00	0	41	0	693108736	54	6408
2026-01-22 19:40:21.26	347.80	13.95	-41.1	-42.2	22.5	0.00e+00	0	41	0	695205888	54	6544
2026-01-22 19:40:22.27	347.60	13.93	-41.0	-42.1	22.6	0.00e+00	0	41	0	697303040	54	6465
2026-01-22 19:40:23.28	347.40	13.91	-41.0	-42.1	22.6	0.00e+00	0	41	0	699400192	54	6466
2026-01-22 19:40:24.29	347.20	13.88	-41.2	-42.3	22.4	0.00e+00	92	41	0	700448768	54	6647
2026-01-22 19:40:25.30	347.00	13.86	-41.1	-42.2	22.5	0.00e+00	0	41	0	702545920	54	6565
2026-01-22 19:40:26.31	346.80	13.83	-41.1	-42.2	22.4	0.00e+00	0	41	0	704643072	54	6582
2026-01-22 19:40:27.32	346.60	13.81	-41.2	-42.3	22.5	0.00e+00	0	41	0	706740224	54	6654
2026-01-22 19:40:28.33	346.40	13.78	-41.0	-42.1	22.6	0.00e+00	79	41	0	708837376	54	6496
2026-01-22 19:40:29.34	346.21	13.76	-41.1	-42.2	22.5	0.00e+00	0	41	0	709885952	54	6574
2026-01-22 19:40:30.35	346.01	13.73	-41.3	-42.4	22.4	0.00e+00	0	41	0	711983104	54	6711
2026-01-22 19:40:31.36	345.81	13.71	-41.4	-42.5	22.2	0.00e+00	92	41	0	714080256	54	6805
2026-01-22 19:40:32.37	345.61	13.68	-41.2	-42.3	22.4	0.00e+00	0	41	0	716177408	54	6645
2026-01-22 19:40:33.38	345.42	13.65	-41.0	-42.1	22.5	0.00e+00	90	41	0	718274560	54	6523
2026-01-22 19:40:34.39	345.22	13.63	-41.1	-42.2	22.5	0.00e+00	0	41	0	719323136	54	6540
2026-01-22 19:40:35.40	345.02	13.60	-41.0	-42.1	22.5	0.00e+00	5	41	0	721420288	54	6495
2026-01-22 19:40:36.41	344.83	13.57	-41.2	-42.3	22.4	0.00e+00	6	41	0	723517440	54	6634
2026-01-22 19:40:37.42	344.63	13.54	-41.2	-42.3	22.2	0.00e+00	5	41	0	725614592	54	6676
2026-01-22 19:40:38.43	344.44	13.51	-41.2	-42.3	22.3	0.00e+00	92	41	0	727711744	54	6671
2026-01-22 19:40:39.44	344.24	13.49	-41.2	-42.3	22.4	0.00e+00	5	41	0	728760320	54	6681
2026-01-22 19:40:40.45	344.05	13.46	-41.4	-42.6	22.1	0.00e+00	92	41	0	730857472	54	6851
2026-01-22 19:40:41.45	343.86	13.43	-41.2	-42.3	22.3	0.00e+00	1	41	0	732954624	54	6659
2026-01-22 19:40:42.46	343.66	13.40	-41.3	-42.4	22.2	0.00e+00	1	41	0	735051776	54	6766
2026-01-22 19:40:43.47	343.47	13.37	-41.1	-42.2	22.4	0.00e+00	6	41	0	737148928	54	6604
2026-01-22 19:40:44.47	343.28	13.34	-41.0	-42.1	22.5	0.00e+00	0	41	0	738197504	54	6528
2026-01-22 19:40:45.48	343.09	13.31	-41.0	-42.2	22.4	0.00e+00	0	41	0	740294656	54	6543
2026-01-22 19:40:46.49	342.89	13.28	-40.9	-41.9	22.6	0.00e+00	6	41	0	742391808	54	6387
2026-01-22 19:40:47.50	342.70	13.25	-40.8	-41.9	22.7	0.00e+00	92	41	0	744488960	54	6324
2026-01-22 19:40:48.51	342.51	13.22	-40.8	-41.8	22.7	0.00e+00	1	41	0	746586112	54	6289
2026-01-22 19:40:49.52	342.32	13.19	-40.9	-42.0	22.5	0.00e+00	3	41	0	748683264	54	6405
2026-01-22 19:40:50.53	342.13	13.15	-40.9	-42.0	22.5	0.00e+00	0	41	0	749731840	54	6459
2026-01-22 19:40:51.54	341.94	13.12	-40.9	-42.0	22.7	0.00e+00	86	41	0	751828992	54	6413
2026-01-22 19:40:52.55	341.75	13.09	-40.9	-41.9	22.4	0.00e+00	75	41	0	753926144	54	6385
2026-01-22 19:40:53.56	341.56	13.06	-40.9	-41.9	22.6	0.00e+00	85	41	0	756023296	54	6382
2026-01-22 19:40:54.57	341.37	13.02	-40.9	-42.0	22.7	0.00e+00	92	41	0	758120448	54	6409
2026-01-22 19:40:55.58	341.19	12.99	-40.9	-42.0	22.7	0.00e+00	86	41	0	759169024	54	6419
2026-01-22 19:40:56.59	341.00	12.96	-40.7	-41.7	22.9	0.00e+00	92	41	0	761266176	54	6234
2026-01-22 19:40:57.60	340.81	12.92	-40.7	-41.7	22.9	0.00e+00	0	41	0	763363328	54	6205
2026-01-22 19:40:58.61	340.62	12.89	-40.7	-41.8	22.9	0.00e+00	0	41	0	765460480	54	6272
2026-01-22 19:40:59.62	340.44	12.86	-40.6	-41.6	22.9	0.00e+00	5	41	0	767557632	54	6143
2026-01-22 19:41:00.63	340.25	12.82	-40.6	-41.6	23.0	0.00e+00	7	41	0	768606208	54	6131
2026-01-22 19:41:01.64	340.07	12.79	-40.8	-41.9	22.6	0.00e+00	81	41	0	770703360	54	6355
2026-01-22 19:41:02.65	339.88	12.75	-40.8	-41.9	22.7	0.00e+00	2	41	0	772800512	54	6329
2026-01-22 19:41:03.66	339.70	12.72	-40.8	-41.8	22.7	0.00e+00	91	41	0	774897664	54	6307
2026-01-22 19:41:04.66	339.51	12.68	-40.7	-41.8	22.8	0.00e+00	2	41	0	776994816	54	6260
2026-01-22 19:41:05.67	339.33	12.65	-40.9	-41.9	22.6	0.00e+00	8	41	0	778043392	54	6375
2026-01-22 19:41:06.68	339.15	12.61	-40.8	-41.9	22.7	0.00e+00	6	41	0	780140544	54	6341
2026-01-22 19:41:07.69	338.96	12.58	-40.8	-41.8	22.7	0.00e+00	6	41	0	782237696	54	6283
2026-01-22 19:41:08.71	338.78	12.54	-40.7	-41.8	22.8	0.00e+00	6	41	0	784334848	54	6262
2026-01-22 19:41:09.71	338.60	12.50	-40.7	-41.8	22.9	0.00e+00	80	41	0	786432000	54	6246
2026-01-22 19:41:10.72	338.42	12.47	-40.7	-41.7	22.9	0.00e+00	92	41	0	787480576	54	6228
2026-01-22 19:41:11.73	338.24	12.43	-40.7	-41.7	22.9	0.00e+00	79	41	0	789577728	54	6218
2026-01-22 19:41:12.74	338.05	12.39	-40.6	-41.6	22.8	0.00e+00	91	41	0	791674880	54	6152
2026-01-22 19:41:13.75	337.87	12.36	-40.7	-41.7	22.9	0.00e+00	79	41	0	793772032	54	6222
2026-01-22 19:41:14.76	337.70	12.32	-40.6	-41.7	22.9	0.00e+00	79	41	0	795869184	54	6183
2026-01-22 19:41:15.77	337.52	12.28	-40.7	-41.6	22.9	0.00e+00	67	41	0	796917760	54	6171
2026-01-22 19:41:16.78	337.34	12.24	-40.7	-41.7	22.8	0.00e+00	81	41	0	799014912	54	6191
2026-01-22 19:41:17.79	337.16	12.20	-40.7	-41.7	22.8	0.00e+00	92	41	0	801112064	54	6198
2026-01-22 19:41:18.80	336.98	12.17	-40.8	-41.8	22.7	0.00e+00	2	41	0	803209216	54	6305
2026-01-22 19:41:19.81	336.80	12.13	-40.8	-41.8	22.8	0.00e+00	85	41	0	805306368	54	6295
2026-01-22 19:41:20.82	336.63	12.09	-40.8	-41.8	22.7	0.00e+00	0	41	0	806354944	54	6286
2026-01-22 19:41:21.82	336.45	12.05	-40.9	-41.9	22.6	0.00e+00	0	41	0	808452096	54	6360
2026-01-22 19:41:22.83	336.28	12.01	-40.9	-41.9	22.6	0.00e+00	0	41	0	810549248	54	6383
2026-01-22 19:41:23.84	336.10	11.97	-40.9	-42.0	22.6	0.00e+00	0	41	0	812646400	54	6394
2026-01-22 19:41:24.85	335.93	11.93	-41.3	-42.4	22.3	0.00e+00	85	41	0	814743552	54	6704
2026-01-22 19:41:25.86	335.75	11.89	-41.1	-42.2	22.3	0.00e+00	0	41	0	816840704	54	6569
2026-01-22 19:41:26.87	335.58	11.85	-41.1	-42.1	22.3	0.00e+00	90	41	0	817889280	54	6536
2026-01-22 19:41:27.88	335.40	11.81	-41.2	-42.3	22.3	0.00e+00	0	41	0	819986432	54	6631
2026-01-22 19:41:28.89	335.23	11.77	-41.4	-42.5	22.0	0.00e+00	75	41	0	822083584	54	6800
2026-01-22 19:41:29.90	335.06	11.73	-41.5	-42.6	21.9	0.00e+00	81	41	0	824180736	54	6874
2026-01-22 19:41:30.91	334.89	11.69	-41.5	-42.5	22.1	0.00e+00	2	41	0	826277888	54	6824
2026-01-22 19:41:31.92	334.71	11.65	-41.5	-42.6	22.0	0.00e+00	91	41	0	827326464	54	6883
2026-01-22 19:41:32.93	334.54	11.61	-41.5	-42.6	22.0	0.00e+00	82	41	0	829423616	54	6870
2026-01-22 19:41:33.94	334.37	11.57	-41.6	-42.7	21.9	0.00e+00	92	41	0	831520768	54	7003
2026-01-22 19:41:34.95	334.20	11.52	-41.8	-42.9	21.8	0.00e+00	83	41	0	833617920	56	6373
2026-01-22 19:41:35.96	334.03	11.48	-41.9	-43.0	21.7	0.00e+00	57	41	0	835715072	56	6440
2026-01-22 19:41:36.97	333.86	11.44	-41.8	-42.9	21.8	0.00e+00	0	41	0	836763648	56	6343
2026-01-22 19:41:37.98	333.69	11.40	-42.2	-43.3	21.4	0.00e+00	0	41	0	838860800	56	6673
2026-01-22 19:41:38.99	333.53	11.36	-42.1	-43.3	21.4	0.00e+00	2	41	0	840957952	56	6656
2026-01-22 19:41:40.00	333.36	11.31	-42.0	-43.2	21.5	0.00e+00	0	41	0	843055104	56	6542
2026-01-22 19:41:41.02	333.19	11.27	-42.1	-43.3	21.3	0.00e+00	92	41	0	845152256	56	6648
2026-01-22 19:41:42.03	333.02	11.23	-42.2	-43.4	21.4	0.00e+00	0	41	0	846200832	56	6735
2026-01-22 19:41:43.04	332.86	11.19	-42.3	-43.5	21.2	0.00e+00	92	41	0	848297984	56	6820
2026-01-22 19:41:44.05	332.69	11.14	-42.6	-43.9	20.9	0.00e+00	0	41	0	850395136	56	7089
2026-01-22 19:41:45.06	332.53	11.10	-42.6	-43.9	20.9	0.00e+00	1	41	0	852492288	56	7113
2026-01-22 19:41:46.07	332.36	11.06	-42.7	-43.9	20.8	0.00e+00	0	41	0	854589440	56	7155
2026-01-22 19:41:47.08	332.20	11.01	-42.5	-43.7	20.9	0.00e+00	0	41	0	855638016	56	7002
2026-01-22 19:41:48.09	332.03	10.97	-42.6	-43.9	20.9	0.00e+00	77	41	0	857735168	56	7114
2026-01-22 19:41:49.10	331.87	10.92	-42.7	-44.0	20.8	0.00e+00	0	41	0	859832320	58	6395
2026-01-22 19:41:50.11	331.71	10.88	-42.9	-44.2	20.5	0.00e+00	92	41	0	861929472	58	6552
2026-01-22 19:41:51.12	331.55	10.84	-43.0	-44.3	20.4	0.00e+00	1	41	0	864026624	58	6628
2026-01-22 19:41:52.13	331.38	10.79	-43.2	-44.6	20.2	0.00e+00	11	41	0	865075200	58	6873
2026-01-22 19:41:53.14	331.22	10.75	-43.2	-44.5	20.2	0.00e+00	81	41	0	867172352	58	6814
2026-01-22 19:41:54.15	331.06	10.70	-43.1	-44.4	20.3	0.00e+00	0	41	0	869269504	58	6711
2026-01-22 19:41:55.16	330.90	10.66	-42.9	-44.2	20.5	0.00e+00	65	41	0	871366656	58	6593
2026-01-22 19:41:56.17	330.74	10.61	-43.0	-44.3	20.4	0.00e+00	81	41	0	873463808	58	6637
2026-01-22 19:41:57.18	330.58	10.57	-43.0	-44.3	20.4	0.00e+00	90	41	0	874512384	58	6656
2026-01-22 19:41:58.19	330.42	10.52	-43.0	-44.3	20.3	0.00e+00	81	41	0	876609536	58	6659
2026-01-22 19:41:59.20	330.27	10.48	-43.2	-44.5	20.1	0.00e+00	0	41	0	878706688	58	6835
2026-01-22 19:42:00.20	330.11	10.43	-43.3	-44.7	20.0	0.00e+00	0	41	0	880803840	58	6992
2026-01-22 19:42:01.21	329.95	10.39	-43.5	-44.9	19.8	0.00e+00	0	41	0	882900992	58	7147
2026-01-22 19:42:02.22	329.79	10.34	-43.6	-45.0	19.8	0.00e+00	0	41	0	884998144	58	7203
2026-01-22 19:42:03.23	329.64	10.30	-43.6	-45.1	19.7	0.00e+00	0	41	0	886046720	58	7292
2026-01-22 19:42:04.24	329.48	10.25	-43.7	-45.2	19.6	0.00e+00	92	41	0	888143872	60	6577
2026-01-22 19:42:05.25	329.33	10.21	-43.8	-45.3	19.6	0.00e+00	0	41	0	890241024	60	6632
2026-01-22 19:42:06.26	329.17	10.16	-43.7	-45.1	19.6	0.00e+00	92	41	0	892338176	60	6539
2026-01-22 19:42:07.27	329.02	10.11	-43.6	-45.0	19.8	0.00e+00	0	41	0	894435328	60	6459
2026-01-22 19:42:08.28	328.86	10.07	-43.8	-45.3	19.6	0.00e+00	0	41	0	895483904	60	6622
2026-01-22 19:42:09.29	328.71	10.02	-43.6	-45.0	19.8	0.00e+00	0	41	0	897581056	60	6459
2026-01-22 19:42:10.30	328.56	9.97	-43.7	-45.1	19.7	0.00e+00	0	41	0	899678208	60	6534
2026-01-22 19:42:11.31	328.41	9.93	-43.9	-45.4	19.5	0.00e+00	92	41	0	901775360	60	6715
2026-01-22 19:42:12.32	328.25	9.88	-43.8	-45.2	19.5	0.00e+00	81	41	0	903872512	60	6600
2026-01-22 19:42:13.33	328.10	9.83	-43.9	-45.5	19.3	0.00e+00	92	41	0	904921088	60	6785
2026-01-22 19:42:14.34	327.95	9.79	-44.0	-45.5	19.3	0.00e+00	0	41	0	907018240	60	6821
2026-01-22 19:42:15.35	327.80	9.74	-44.0	-45.5	19.3	0.00e+00	82	41	0	909115392	60	6835
2026-01-22 19:42:16.35	327.65	9.69	-44.1	-45.7	19.2	0.00e+00	0	41	0	911212544	60	6941
2026-01-22 19:42:17.36	327.50	9.65	-44.3	-45.9	18.9	0.00e+00	0	41	0	913309696	60	7105
2026-01-22 19:42:18.37	327.36	9.60	-44.0	-45.6	19.3	0.00e+00	0	41	0	914358272	60	6849
2026-01-22 19:42:19.38	327.21	9.55	-43.9	-45.5	19.3	0.00e+00	0	41	0	916455424	60	6785
2026-01-22 19:42:20.39	327.06	9.50	-44.0	-45.6	19.2	0.00e+00	90	41	0	918552576	60	6883
2026-01-22 19:42:21.40	326.91	9.46	-44.1	-45.6	19.2	0.00e+00	6	41	0	920649728	60	6894
2026-01-22 19:42:22.41	326.76	9.41	-43.9	-45.4	19.4	0.00e+00	86	41	0	922746880	60	6749
2026-01-22 19:42:23.42	326.62	9.36	-43.9	-45.4	19.4	0.00e+00	0	41	0	923795456	60	6713
2026-01-22 19:42:24.43	326.47	9.31	-43.9	-45.4	19.4	0.00e+00	0	41	0	925892608	60	6727
2026-01-22 19:42:25.44	326.33	9.27	-43.9	-45.4	19.4	0.00e+00	0	41	0	927989760	60	6765
2026-01-22 19:42:26.45	326.18	9.22	-44.2	-45.8	19.1	0.00e+00	0	41	0	930086912	60	7045
2026-01-22 19:42:27.46	326.04	9.17	-44.0	-45.5	19.1	0.00e+00	92	41	0	932184064	60	6823
2026-01-22 19:42:28.47	325.89	9.12	-44.1	-45.7	19.1	0.00e+00	0	41	0	933232640	60	6960
2026-01-22 19:42:29.48	325.75	9.07	-44.2	-45.8	19.0	0.00e+00	92	41	0	935329792	60	7062
2026-01-22 19:42:30.49	325.61	9.02	-44.0	-45.6	19.2	0.00e+00	5	41	0	937426944	60	6865
2026-01-22 19:42:31.50	325.46	8.98	-44.0	-45.6	19.2	0.00e+00	0	41	0	939524096	60	6856
2026-01-22 19:42:32.51	325.32	8.93	-43.9	-45.4	19.3	0.00e+00	0	41	0	941621248	60	6749
2026-01-22 19:42:33.52	325.18	8.88	-43.8	-45.3	19.6	0.00e+00	6	41	0	942669824	60	6644
2026-01-22 19:42:34.53	325.04	8.83	-43.8	-45.3	19.5	0.00e+00	92	41	0	944766976	60	6637
2026-01-22 19:42:35.54	324.90	8.78	-43.6	-45.1	19.7	0.00e+00	0	41	0	946864128	60	6503
2026-01-22 19:42:36.55	324.76	8.73	-43.6	-45.1	19.6	0.00e+00	92	41	0	948961280	60	6509
2026-01-22 19:42:37.56	324.62	8.68	-43.5	-44.9	19.8	0.00e+00	1	41	0	951058432	60	6367
2026-01-22 19:42:38.57	324.48	8.63	-43.5	-44.9	19.8	0.00e+00	85	41	0	953155584	60	6369
2026-01-22 19:42:39.58	324.34	8.59	-43.6	-45.1	19.7	0.00e+00	87	41	0	954204160	60	6484
2026-01-22 19:42:40.59	324.20	8.54	-43.6	-45.0	19.7	0.00e+00	0	41	0	956301312	60	6448
2026-01-22 19:42:41.60	324.07	8.49	-43.7	-45.2	19.5	0.00e+00	77	41	0	958398464	60	6566
2026-01-22 19:42:42.62	323.93	8.44	-43.5	-44.9	19.8	0.00e+00	3	41	0	960495616	60	6351
2026-01-22 19:42:43.62	323.79	8.39	-43.6	-45.1	19.6	0.00e+00	90	41	0	962592768	60	6490
2026-01-22 19:42:44.63	323.66	8.34	-43.6	-45.0	19.7	0.00e+00	7	41	0	963641344	60	6452
2026-01-22 19:42:45.64	323.52	8.29	-43.5	-44.9	19.8	0.00e+00	92	41	0	965738496	60	6384
2026-01-22 19:42:46.65	323.38	8.24	-43.3	-44.7	20.0	0.00e+00	7	41	0	967835648	60	6174
2026-01-22 19:42:47.66	323.25	8.19	-43.5	-44.9	19.7	0.00e+00	7	41	0	969932800	60	6339
2026-01-22 19:42:48.67	323.12	8.14	-43.3	-44.7	19.9	0.00e+00	5	41	0	972029952	60	6225
2026-01-22 19:42:49.68	322.98	8.09	-43.0	-44.4	20.3	0.00e+00	6	41	0	973078528	60	5983
2026-01-22 19:42:50.69	322.85	8.04	-43.1	-44.5	20.3	0.00e+00	92	41	0	975175680	60	6061
2026-01-22 19:42:51.70	322.71	7.99	-43.1	-44.5	20.2	0.00e+00	81	41	0	977272832	60	6061
2026-01-22 19:42:52.71	322.58	7.94	-42.9	-44.3	20.4	0.00e+00	92	41	0	979369984	60	5912
2026-01-22 19:42:53.72	322.45	7.89	-42.9	-44.2	20.4	0.00e+00	80	41	0	981467136	60	5892
2026-01-22 19:42:54.73	322.32	7.84	-42.8	-44.1	20.5	0.00e+00	81	41	0	982515712	60	5799
2026-01-22 19:42:55.74	322.19	7.79	-42.8	-44.0	20.2	0.00e+00	82	41	0	984612864	60	5761
2026-01-22 19:42:56.75	322.06	7.74	-42.8	-44.1	20.5	0.00e+00	81	41	0	986710016	58	6470
2026-01-22 19:42:57.76	321.93	7.69	-42.5	-43.7	20.8	0.00e+00	91	41	0	988807168	58	6243
2026-01-22 19:42:58.77	321.80	7.64	-42.4	-43.7	21.0	0.00e+00	81	41	0	990904320	58	6189
2026-01-22 19:42:59.78	321.67	7.59	-42.4	-43.7	21.0	0.00e+00	92	41	0	991952896	58	6188
2026-01-22 19:43:00.79	321.54	7.54	-42.5	-43.8	20.8	0.00e+00	0	41	0	994050048	58	6262
2026-01-22 19:43:01.80	321.41	7.49	-42.3	-43.5	20.9	0.00e+00	0	41	0	996147200	58	6096
2026-01-22 19:43:02.81	321.28	7.44	-42.2	-43.4	21.1	0.00e+00	0	41	0	998244352	58	6033
2026-01-22 19:43:03.82	321.15	7.39	-42.2	-43.4	21.3	0.00e+00	0	41	0	1000341504	58	5984
2026-01-22 19:43:04.83	321.03	7.34	-42.1	-43.3	21.2	0.00e+00	81	41	0	1001390080	58	5917
2026-01-22 19:43:05.84	320.90	7.29	-42.3	-43.6	21.0	0.00e+00	0	41	0	1003487232	58	6119
2026-01-22 19:43:06.85	320.77	7.24	-42.3	-43.5	21.0	0.00e+00	90	41	0	1005584384	58	6061
2026-01-22 19:43:07.86	320.65	7.19	-42.2	-43.4	21.1	0.00e+00	0	41	0	1007681536	58	5989
2026-01-22 19:43:08.87	320.52	7.14	-42.0	-43.1	21.5	0.00e+00	92	41	0	1009778688	58	5813
2026-01-22 19:43:09.88	320.40	7.09	-42.1	-43.3	21.2	0.00e+00	0	41	0	1010827264	58	5945
2026-01-22 19:43:10.89	320.27	7.04	-42.0	-43.1	21.3	0.00e+00	0	41	0	1012924416	58	5822
2026-01-22 19:43:11.90	320.15	6.99	-42.0	-43.1	21.1	0.00e+00	0	41	0	1015021568	58	5805
2026-01-22 19:43:12.91	320.03	6.94	-42.1	-43.3	21.0	0.00e+00	82	41	0	1017118720	58	5915
2026-01-22 19:43:13.92	319.90	6.89	-42.0	-43.2	21.3	0.00e+00	92	41	0	1019215872	58	5862
2026-01-22 19:43:14.93	319.78	6.84	-42.2	-43.4	21.0	0.00e+00	0	41	0	1021313024	58	6007
2026-01-22 19:43:15.94	319.66	6.79	-42.2	-43.5	21.1	0.00e+00	92	41	0	1022361600	58	6044
2026-01-22 19:43:16.95	319.54	6.74	-41.9	-43.1	21.3	0.00e+00	0	41	0	1024458752	58	5798
2026-01-22 19:43:17.96	319.41	6.69	-41.9	-43.0	21.3	0.00e+00	0	41	0	1026555904	58	5756
2026-01-22 19:43:18.97	319.29	6.64	-42.2	-43.3	20.8	0.00e+00	0	41	0	1028653056	56	6680
2026-01-22 19:43:19.98	319.17	6.58	-42.1	-43.3	20.9	0.00e+00	80	41	0	1030750208	56	6627
2026-01-22 19:43:20.99	319.05	6.53	-41.8	-43.0	21.5	0.00e+00	89	41	0	1031798784	56	6416
2026-01-22 19:43:22.00	318.93	6.48	-41.8	-43.0	21.4	0.00e+00	0	41	0	1033895936	56	6412
2026-01-22 19:43:23.01	318.81	6.43	-41.9	-43.1	21.4	0.00e+00	92	41	0	1035993088	56	6472
2026-01-22 19:43:24.02	318.70	6.38	-42.0	-43.1	21.3	0.00e+00	0	41	0	1038090240	56	6537
2026-01-22 19:43:25.03	318.58	6.33	-41.9	-43.1	21.4	0.00e+00	0	41	0	1040187392	56	6469
2026-01-22 19:43:26.04	318.46	6.28	-41.9	-43.1	21.3	0.00e+00	2	41	0	1041235968	56	6494
2026-01-22 19:43:27.04	318.34	6.23	-41.9	-43.1	21.4	0.00e+00	0	41	0	1043333120	56	6477
2026-01-22 19:43:28.05	318.23	6.18	-41.6	-42.7	21.7	0.00e+00	61	41	0	1045430272	56	6234
2026-01-22 19:43:29.06	318.11	6.13	-41.8	-43.0	21.5	0.00e+00	0	41	0	1047527424	56	6395
2026-01-22 19:43:30.07	317.99	6.08	-41.8	-42.9	21.4	0.00e+00	91	41	0	1049624576	56	6380
2026-01-22 19:43:31.08	317.88	6.03	-42.1	-43.3	21.1	0.00e+00	0	41	0	1050673152	56	6658
2026-01-22 19:43:32.09	317.76	5.98	-42.0	-43.2	21.2	0.00e+00	78	41	0	1052770304	56	6561
2026-01-22 19:43:33.10	317.65	5.92	-42.2	-43.4	21.0	0.00e+00	0	41	0	1054867456	56	6709
2026-01-22 19:43:34.11	317.53	5.87	-41.8	-43.0	21.4	0.00e+00	81	41	0	1056964608	56	6417
2026-01-22 19:43:35.12	317.42	5.82	-41.8	-43.0	21.5	0.00e+00	0	41	0	1059061760	56	6392
2026-01-22 19:43:36.13	317.30	5.77	-41.7	-42.9	21.6	0.00e+00	81	41	0	1060110336	56	6331
2026-01-22 19:43:37.14	317.19	5.72	-42.1	-43.3	21.1	0.00e+00	92	41	0	1062207488	56	6618
2026-01-22 19:43:38.15	317.08	5.67	-41.6	-42.7	21.6	0.00e+00	2	41	0	1064304640	56	6230
2026-01-22 19:43:39.16	316.97	5.62	-41.9	-43.0	21.2	0.00e+00	0	41	0	1066401792	56	6451
2026-01-22 19:43:40.17	316.85	5.57	-42.3	-43.5	20.9	0.00e+00	82	41	0	1068498944	56	6829
2026-01-22 19:43:41.18	316.74	5.52	-42.1	-43.3	21.2	0.00e+00	0	41	0	1069547520	56	6639
2026-01-22 19:43:42.19	316.63	5.47	-42.3	-43.6	20.8	0.00e+00	81	41	0	1071644672	56	6876
2026-01-22 19:43:43.20	316.52	5.42	-42.0	-43.2	21.1	0.00e+00	0	41	0	1073741824	56	6592
2026-01-22 19:43:44.21	316.41	5.36	-42.2	-43.5	21.0	0.00e+00	90	41	0	1075838976	56	6795
2026-01-22 19:43:45.22	316.30	5.31	-42.4	-43.6	20.8	0.00e+00	0	41	0	1077936128	56	6896
2026-01-22 19:43:46.23	316.19	5.26	-42.3	-43.5	20.8	0.00e+00	92	41	0	1078984704	56	6818
2026-01-22 19:43:47.24	316.08	5.21	-42.3	-43.5	20.8	0.00e+00	0	41	0	1081081856	56	6818
2026-01-22 19:43:48.25	315.97	5.16	-42.4	-43.6	20.7	0.00e+00	0	41	0	1083179008	56	6921
2026-01-22 19:43:49.26	315.86	5.11	-42.4	-43.7	20.6	0.00e+00	0	41	0	1085276160	56	6930
2026-01-22 19:43:50.27	315.75	5.06	-42.7	-44.1	20.2	0.00e+00	0	41	0	1087373312	56	7257
2026-01-22 19:43:51.28	315.65	5.01	-42.1	-43.4	20.9	0.00e+00	0	41	0	1089470464	58	5973
2026-01-22 19:43:52.29	315.54	4.96	-42.4	-43.7	20.6	0.00e+00	0	41	0	1090519040	58	6195
2026-01-22 19:43:53.30	315.43	4.91	-42.3	-43.6	20.5	0.00e+00	92	41	0	1092616192	58	6160
2026-01-22 19:43:54.31	315.32	4.86	-42.6	-43.9	20.3	0.00e+00	0	41	0	1094713344	58	6353
2026-01-22 19:43:55.32	315.22	4.80	-42.7	-44.0	20.3	0.00e+00	0	41	0	1096810496	58	6460
2026-01-22 19:43:56.33	315.11	4.75	-42.6	-44.0	20.4	0.00e+00	81	41	0	1098907648	58	6408
2026-01-22 19:43:57.34	315.01	4.70	-42.7	-44.0	20.1	0.00e+00	81	41	0	1099956224	58	6441
2026-01-22 19:43:58.35	314.90	4.65	-42.5	-43.8	20.4	0.00e+00	0	41	0	1102053376	58	6270
2026-01-22 19:43:59.36	314.80	4.60	-42.4	-43.7	20.6	0.00e+00	81	41	0	1104150528	58	6180
2026-01-22 19:44:00.37	314.69	4.55	-42.6	-43.9	20.3	0.00e+00	92	41	0	1106247680	58	6375
2026-01-22 19:44:01.38	314.59	4.50	-42.6	-44.0	20.2	0.00e+00	82	41	0	1108344832	58	6397
2026-01-22 19:44:02.38	314.49	4.45	-42.4	-43.7	20.4	0.00e+00	92	41	0	1109393408	58	6236
2026-01-22 19:44:03.39	314.38	4.40	-42.6	-43.9	20.2	0.00e+00	0	41	0	1111490560	58	6355
2026-01-22 19:44:04.40	314.28	4.35	-42.8	-44.2	20.0	0.00e+00	0	41	0	1113587712	58	6557
2026-01-22 19:44:05.41	314.18	4.30	-42.6	-43.9	20.2	0.00e+00	6	41	0	1115684864	58	6361
2026-01-22 19:44:06.42	314.07	4.25	-42.6	-43.9	20.3	0.00e+00	6	41	0	1117782016	58	6363
2026-01-22 19:44:07.43	313.97	4.19	-42.7	-44.1	20.0	0.00e+00	92	41	0	1118830592	58	6511
2026-01-22 19:44:08.44	313.87	4.14	-43.1	-44.5	19.6	0.00e+00	5	41	0	1120927744	58	6803
2026-01-22 19:44:09.45	313.77	4.09	-42.9	-44.4	19.7	0.00e+00	91	41	0	1123024896	58	6698
2026-01-22 19:44:10.46	313.67	4.04	-43.0	-44.4	19.7	0.00e+00	0	41	0	1125122048	58	6754
2026-01-22 19:44:11.47	313.57	3.99	-43.1	-44.5	19.6	0.00e+00	5	41	0	1127219200	58	6837
2026-01-22 19:44:12.48	313.47	3.94	-43.4	-44.9	19.1	0.00e+00	0	41	0	1128267776	58	7126
2026-01-22 19:44:13.49	313.37	3.89	-43.4	-45.0	19.0	0.00e+00	0	41	0	1130364928	58	7173
2026-01-22 19:44:14.50	313.27	3.84	-43.4	-44.9	19.2	0.00e+00	81	41	0	1132462080	58	7126
2026-01-22 19:44:15.51	313.17	3.79	-43.2	-44.7	19.3	0.00e+00	0	41	0	1134559232	58	6998
2026-01-22 19:44:16.52	313.07	3.74	-43.4	-45.0	19.2	0.00e+00	91	41	0	1136656384	58	7176
2026-01-22 19:44:17.53	312.97	3.69	-43.8	-45.4	18.7	0.00e+00	5	41	0	1137704960	60	6743
2026-01-22 19:44:18.54	312.88	3.64	-44.0	-45.8	18.0	0.00e+00	82	41	0	1139802112	60	7020
2026-01-22 19:44:19.55	312.78	3.59	-43.4	-44.9	19.4	0.00e+00	81	41	0	1141899264	60	6361
2026-01-22 19:44:20.56	312.68	3.53	-43.9	-45.6	18.4	0.00e+00	79	41	0	1143996416	60	6887
2026-01-22 19:44:21.57	312.58	3.48	-43.9	-45.6	18.6	0.00e+00	23	41	0	1146093568	60	6871
2026-01-22 19:44:22.58	312.49	3.43	-43.8	-45.5	18.7	0.00e+00	82	41	0	1147142144	60	6791
2026-01-22 19:44:23.59	312.39	3.38	-43.7	-45.4	18.8	0.00e+00	92	41	0	1149239296	60	6725
2026-01-22 19:44:24.60	312.30	3.33	-43.5	-45.1	18.7	0.00e+00	7	41	0	1151336448	60	6537
2026-01-22 19:44:25.61	312.20	3.28	-44.1	-45.8	18.1	0.00e+00	92	41	0	1153433600	60	7087
2026-01-22 19:44:26.62	312.11	3.23	-43.7	-45.3	18.8	0.00e+00	1	41	0	1155530752	60	6661
2026-01-22 19:44:27.63	312.01	3.18	-43.6	-45.3	18.9	0.00e+00	6	41	0	1157627904	60	6630
2026-01-22 19:44:28.64	311.92	3.13	-44.0	-45.7	18.5	0.00e+00	1	41	0	1158676480	60	6969
2026-01-22 19:44:29.65	311.82	3.08	-43.8	-45.5	18.5	0.00e+00	5	41	0	1160773632	60	6847
2026-01-22 19:44:30.66	311.73	3.03	-44.1	-45.9	18.1	0.00e+00	92	41	0	1162870784	60	7159
2026-01-22 19:44:31.67	311.63	2.98	-49.9	-65.0	3.6	0.00e+00	0	41	104	1163919360	60	64541
2026-01-22 19:44:32.68	311.54	2.93	-50.4	-65.6	3.6	1.51e+00	0	41	104	1163919360	60	68759
2026-01-22 19:44:33.69	311.45	2.88	-50.6	-65.9	3.6	1.51e+00	0	41	104	1163919360	60	70999
2026-01-22 19:44:34.70	311.36	2.83	-50.8	-66.1	3.6	1.51e+00	0	41	104	1163919360	60	72571
2026-01-22 19:44:35.71	311.26	2.78	-50.9	-66.2	3.6	1.51e+00	0	41	104	1163919360	60	73395
2026-01-22 19:44:36.72	311.17	2.73	-51.0	-66.2	3.6	1.51e+00	0	41	104	1163919360	60	73885
2026-01-22 19:44:37.73	311.08	2.68	-51.1	-66.2	3.6	1.51e+00	0	41	104	1163919360	60	74081
2026-01-22 19:44:38.74	310.99	2.63	-51.1	-66.3	3.6	1.51e+00	0	42	104	1163919360	60	74700
2026-01-22 19:44:39.75	310.90	2.58	-51.2	-66.3	3.6	1.51e+00	0	41	104	1163919360	60	74918
2026-01-22 19:44:40.76	310.81	2.53	-51.2	-66.4	3.6	1.51e+00	0	42	104	1163919360	60	75559
2026-01-22 19:44:41.77	310.72	2.48	-51.2	-66.4	3.6	1.51e+00	0	42	104	1163919360	60	75406
2026-01-22 19:44:42.78	310.63	2.43	-51.2	-66.4	3.6	1.51e+00	0	41	104	1163919360	60	75536
2026-01-22 19:44:43.79	310.54	2.37	-51.2	-66.4	3.6	1.51e+00	0	41	104	1163919360	60	75362
