passes_logs/2026/01/22/R4.6S_Anadyr/R4.6S_Anadyr__20260122_065546_TY-42_rec.log

#Pass ID: 20260122_065546_TY-42
#Satellite: TY-42
#Configuration: TY-42_900M
#almurnet v.1.7.20251203
#Start time: 2026-01-22 06:56:16

#Version: 2.2.20231116
#Station: R4.6S_Anadyr
#Location: 177.4865 lon 64.73178 lat
#TLE: 1 64048U 25103A   26021.88848380  .00008008  00000-0  38191-3 0 09992
#TLE: 2 64048 097.4124 097.1764 0001786 094.9639 294.5154 15.19162210 37869

#Time	Az	El	Level	Level2	SNR	BER	BlckErr	Temp	State	Recorded	gain1	gain2
2026-01-22 06:56:16.89	88.16	1.63	-52.3	-64.0	3.5	8.45e-01	0	38	0	0	60	57429
2026-01-22 06:56:17.90	88.05	1.68	-48.2	-50.8	6.1	0.00e+00	0	39	104	0	60	42713
2026-01-22 06:56:18.91	87.94	1.74	-48.1	-50.8	6.1	0.00e+00	0	39	104	0	60	42441
2026-01-22 06:56:19.92	87.82	1.79	-48.4	-51.0	6.1	0.00e+00	0	39	104	0	60	43442
2026-01-22 06:56:20.93	87.71	1.85	-48.5	-51.1	6.1	0.00e+00	0	39	104	0	60	44070
2026-01-22 06:56:21.94	87.59	1.90	-48.4	-51.0	6.1	0.00e+00	0	39	104	0	60	43536
2026-01-22 06:56:22.95	87.48	1.96	-48.4	-51.0	6.1	0.00e+00	0	39	104	0	60	43469
2026-01-22 06:56:23.96	87.36	2.01	-48.2	-50.9	6.1	0.00e+00	0	40	104	0	60	43011
2026-01-22 06:56:24.97	87.25	2.07	-48.2	-50.9	6.1	0.00e+00	0	40	104	0	60	43187
2026-01-22 06:56:25.98	87.13	2.12	-48.2	-50.8	6.1	0.00e+00	0	40	104	0	60	42660
2026-01-22 06:56:26.99	87.01	2.18	-48.3	-50.9	6.1	0.00e+00	0	40	104	0	60	43057
2026-01-22 06:56:28.00	86.89	2.23	-48.3	-50.9	6.1	0.00e+00	0	40	104	0	60	43044
2026-01-22 06:56:29.02	86.77	2.29	-48.3	-51.0	6.1	0.00e+00	0	40	104	0	60	43401
2026-01-22 06:56:30.03	86.66	2.34	-48.2	-50.9	6.1	0.00e+00	0	40	104	0	60	42753
2026-01-22 06:56:31.04	86.54	2.40	-48.4	-51.0	6.1	0.00e+00	0	40	104	0	60	43508
2026-01-22 06:56:32.04	86.42	2.45	-48.2	-50.9	6.1	0.00e+00	0	40	104	0	60	42728
2026-01-22 06:56:33.06	86.29	2.51	-48.2	-50.9	6.1	0.00e+00	0	40	104	0	60	42902
2026-01-22 06:56:34.07	86.17	2.56	-48.3	-50.9	6.1	0.00e+00	0	40	104	0	60	42829
2026-01-22 06:56:35.08	86.05	2.62	-48.3	-51.0	6.1	0.00e+00	0	40	104	0	60	43265
2026-01-22 06:56:36.09	85.93	2.67	-48.2	-50.9	6.1	0.00e+00	0	40	104	0	60	43057
2026-01-22 06:56:37.10	85.80	2.73	-48.2	-50.8	6.1	0.00e+00	0	40	104	0	60	42518
2026-01-22 06:56:38.11	85.68	2.78	-48.2	-50.8	6.1	0.00e+00	0	40	104	0	60	42698
2026-01-22 06:56:39.12	85.56	2.84	-48.2	-50.9	6.1	0.00e+00	0	40	104	0	60	42782
2026-01-22 06:56:40.13	85.43	2.90	-48.2	-50.9	6.1	0.00e+00	0	40	104	0	60	42753
2026-01-22 06:56:41.14	85.30	2.95	-48.2	-50.9	6.1	0.00e+00	0	40	104	0	60	42929
2026-01-22 06:56:42.15	85.18	3.01	-48.2	-50.9	6.1	0.00e+00	0	40	104	0	60	42762
2026-01-22 06:56:43.16	85.05	3.06	-48.1	-50.8	6.1	0.00e+00	0	40	104	0	60	42411
2026-01-22 06:56:44.17	84.92	3.12	-48.3	-51.0	6.1	0.00e+00	0	40	104	0	60	43420
2026-01-22 06:56:45.18	84.79	3.17	-49.9	-52.4	6.1	0.00e+00	0	40	104	0	60	51333
2026-01-22 06:56:46.19	84.67	3.23	-49.1	-51.7	6.1	0.00e+00	0	40	104	0	60	46884
2026-01-22 06:56:47.20	84.54	3.29	-48.8	-51.4	6.1	0.00e+00	0	40	104	0	60	45722
2026-01-22 06:56:48.21	84.41	3.34	-49.0	-51.5	6.1	0.00e+00	0	40	104	0	60	46255
2026-01-22 06:56:49.22	84.27	3.40	-48.4	-51.1	6.1	0.00e+00	0	40	104	0	60	43970
2026-01-22 06:56:50.23	84.14	3.45	-48.4	-51.1	6.1	0.00e+00	0	40	104	0	60	43755
2026-01-22 06:56:51.24	84.01	3.51	-48.4	-51.1	6.1	0.00e+00	0	41	104	0	60	43802
2026-01-22 06:56:52.25	83.88	3.57	-48.6	-51.2	6.1	0.00e+00	0	40	104	0	60	44549
2026-01-22 06:56:53.26	83.74	3.62	-48.8	-51.4	6.1	0.00e+00	0	40	104	0	60	45281
2026-01-22 06:56:54.26	83.61	3.68	-48.8	-51.4	6.1	0.00e+00	0	40	104	0	60	45429
2026-01-22 06:56:55.27	83.48	3.73	-49.1	-51.7	6.1	0.00e+00	0	41	104	0	60	47247
2026-01-22 06:56:56.28	83.34	3.79	-49.2	-51.8	6.1	0.00e+00	0	40	104	0	60	47483
2026-01-22 06:56:57.29	83.21	3.85	-49.2	-51.8	6.1	0.00e+00	0	40	104	0	60	47451
2026-01-22 06:56:58.30	83.07	3.90	-49.0	-51.6	6.1	0.00e+00	0	41	104	0	60	46543
2026-01-22 06:56:59.31	82.93	3.96	-49.2	-51.8	6.1	0.00e+00	0	41	104	0	60	47610
2026-01-22 06:57:00.32	82.79	4.02	-49.4	-52.0	6.1	0.00e+00	0	41	104	0	60	48863
2026-01-22 06:57:01.33	82.65	4.07	-49.4	-52.0	6.1	0.00e+00	0	41	104	0	60	48750
2026-01-22 06:57:02.34	82.51	4.13	-49.2	-51.7	6.1	0.00e+00	0	41	104	0	60	47279
2026-01-22 06:57:03.35	82.37	4.18	-48.8	-51.5	6.1	0.00e+00	0	41	104	0	60	46038
2026-01-22 06:57:04.35	82.23	4.24	-49.0	-51.6	6.1	0.00e+00	0	41	104	0	60	46525
2026-01-22 06:57:05.36	82.09	4.30	-48.7	-51.3	6.1	0.00e+00	0	41	104	0	60	44998
2026-01-22 06:57:06.37	81.95	4.35	-48.9	-51.5	6.1	0.00e+00	0	41	104	0	60	45924
2026-01-22 06:57:07.38	81.81	4.41	-49.3	-51.9	6.1	0.00e+00	0	41	104	0	60	47999
2026-01-22 06:57:08.39	81.66	4.47	-48.8	-51.5	6.1	0.00e+00	0	41	104	0	60	45971
2026-01-22 06:57:09.40	81.52	4.52	-49.8	-52.3	6.1	0.00e+00	0	41	104	0	60	50565
2026-01-22 06:57:10.41	81.37	4.58	-48.7	-51.3	6.1	0.00e+00	0	41	104	0	60	44793
2026-01-22 06:57:11.41	81.23	4.64	-48.8	-51.5	6.1	0.00e+00	0	41	104	0	60	45846
2026-01-22 06:57:12.42	81.08	4.69	-49.2	-51.7	6.1	0.00e+00	0	41	104	0	60	47253
2026-01-22 06:57:13.43	80.93	4.75	-49.4	-51.9	6.1	0.00e+00	0	41	104	0	60	48447
2026-01-22 06:57:14.44	80.79	4.81	-49.2	-51.8	6.1	0.00e+00	0	41	104	0	60	47648
2026-01-22 06:57:15.45	80.64	4.86	-49.3	-51.9	6.1	0.00e+00	0	41	104	0	60	48235
2026-01-22 06:57:16.46	80.49	4.92	-49.6	-52.1	6.1	0.00e+00	0	41	104	0	60	49545
2026-01-22 06:57:17.47	80.34	4.97	-49.9	-52.5	6.1	0.00e+00	0	41	104	0	60	51629
2026-01-22 06:57:18.48	80.19	5.03	-49.8	-52.3	6.1	0.00e+00	0	41	104	0	60	50705
2026-01-22 06:57:19.49	80.03	5.09	-49.6	-52.2	6.1	0.00e+00	0	41	104	0	60	49820
2026-01-22 06:57:20.50	79.88	5.14	-49.9	-52.4	6.1	0.00e+00	0	41	104	0	60	51247
2026-01-22 06:57:21.51	79.73	5.20	-49.8	-52.3	6.1	0.00e+00	0	41	104	0	60	50506
2026-01-22 06:57:22.52	79.57	5.26	-49.8	-52.4	6.1	0.00e+00	0	41	104	0	60	50787
2026-01-22 06:57:23.53	79.42	5.31	-49.8	-52.4	6.1	0.00e+00	0	41	104	0	60	51080
2026-01-22 06:57:24.54	79.26	5.37	-49.8	-52.4	6.1	0.00e+00	0	41	104	0	60	51002
2026-01-22 06:57:25.55	79.11	5.43	-49.8	-52.3	6.1	0.00e+00	0	41	104	0	60	50686
2026-01-22 06:57:26.56	78.95	5.48	-49.9	-52.5	6.1	0.00e+00	0	41	104	0	60	51448
2026-01-22 06:57:27.57	78.79	5.54	-49.6	-52.3	6.1	0.00e+00	0	41	104	0	60	50453
2026-01-22 06:57:28.58	78.63	5.60	-50.0	-52.5	6.1	0.00e+00	0	41	104	0	60	51770
2026-01-22 06:57:29.59	78.47	5.65	-50.2	-52.8	6.1	0.00e+00	0	41	104	0	60	53349
2026-01-22 06:57:30.59	78.32	5.71	-45.6	-46.3	10.2	0.00e+00	0	41	104	0	60	25262
2026-01-22 06:57:31.60	78.15	5.77	-31.8	-32.2	15.1	0.00e+00	0	41	0	41943040	40	15842
2026-01-22 06:57:32.61	77.99	5.82	-31.9	-32.4	15.3	1.34e-02	0	42	0	159383552	40	16139
2026-01-22 06:57:33.63	77.83	5.88	-31.5	-31.9	15.5	1.34e-02	0	41	0	276824064	38	17198
2026-01-22 06:57:34.63	77.67	5.94	-31.4	-31.8	15.4	3.13e-03	0	41	0	385875968	36	19078
2026-01-22 06:57:35.64	77.50	5.99	-31.7	-32.2	15.3	3.13e-03	0	42	0	503316480	38	17614
2026-01-22 06:57:36.65	77.34	6.05	-31.7	-32.1	15.5	4.06e-03	0	41	0	612368384	38	17530
2026-01-22 06:57:37.67	77.17	6.11	-31.1	-31.5	15.9	4.06e-03	0	42	0	729808896	38	16373
2026-01-22 06:57:38.67	77.00	6.16	-31.7	-32.2	15.1	3.61e-03	0	42	0	838860800	38	17683
2026-01-22 06:57:39.69	76.83	6.22	-32.5	-33.0	15.0	3.61e-03	0	42	0	956301312	38	19466
2026-01-22 06:57:40.70	76.67	6.27	-31.6	-32.0	15.7	3.61e-03	0	42	0	1065353216	40	15390
2026-01-22 06:57:41.71	76.50	6.33	-32.5	-32.9	14.6	5.43e-03	0	42	0	1182793728	38	19286
2026-01-22 06:57:42.72	76.33	6.39	-32.3	-32.7	14.6	5.43e-03	0	42	0	1300234240	38	18731
2026-01-22 06:57:43.73	76.16	6.44	-32.5	-32.9	14.8	1.18e-02	0	42	0	1409286144	40	17112
2026-01-22 06:57:44.74	75.98	6.50	-32.2	-32.6	15.4	1.18e-02	0	42	0	1526726656	40	16537
2026-01-22 06:57:45.75	75.81	6.56	-31.6	-32.1	15.5	1.18e-02	0	42	0	1635778560	40	15577
2026-01-22 06:57:46.76	75.64	6.61	-32.1	-32.6	15.4	4.72e-03	0	42	0	1753219072	38	18518
2026-01-22 06:57:47.77	75.46	6.67	-31.9	-32.4	15.6	4.72e-03	0	42	0	1862270976	36	20260
2026-01-22 06:57:48.78	75.29	6.72	-31.1	-31.6	15.8	2.97e-03	0	42	0	1979711488	38	16557
2026-01-22 06:57:49.78	75.11	6.78	-32.2	-32.7	15.3	2.97e-03	0	42	0	2088763392	38	18725
2026-01-22 06:57:50.79	74.94	6.83	-31.5	-32.0	15.6	2.19e-03	0	42	0	2206203904	38	17271
2026-01-22 06:57:51.80	74.76	6.89	-31.0	-31.4	15.9	2.19e-03	0	42	0	2315255808	38	16236
2026-01-22 06:57:52.81	74.58	6.95	-30.6	-31.0	16.1	2.19e-03	0	42	0	2432696320	36	17349
2026-01-22 06:57:53.82	74.40	7.00	-32.0	-32.4	15.2	1.52e-03	0	42	0	2550136832	38	18207
2026-01-22 06:57:54.83	74.22	7.06	-30.4	-30.8	15.7	1.52e-03	0	42	0	2659188736	36	16982
2026-01-22 06:57:55.84	74.04	7.11	-30.7	-31.1	15.7	1.67e-03	0	42	0	2768240640	36	17504
2026-01-22 06:57:56.85	73.86	7.17	-31.1	-31.5	15.6	1.67e-03	0	42	0	2885681152	36	18384
2026-01-22 06:57:57.85	73.68	7.22	-30.7	-31.2	15.5	1.89e-03	0	42	0	2994733056	36	17663
2026-01-22 06:57:58.86	73.49	7.28	-31.3	-31.7	15.1	1.89e-03	0	42	0	3112173568	36	18806
2026-01-22 06:57:59.87	73.31	7.33	-31.5	-31.9	14.9	1.89e-03	0	42	0	3229614080	36	19241
2026-01-22 06:58:00.88	73.12	7.39	-30.9	-31.3	15.4	3.35e-03	0	42	0	3338665984	36	17902
2026-01-22 06:58:01.89	72.94	7.44	-30.7	-31.2	15.5	3.35e-03	0	42	0	3456106496	36	17604
2026-01-22 06:58:02.90	72.75	7.50	-30.3	-30.7	15.6	3.35e-03	0	42	0	3565158400	36	16757
2026-01-22 06:58:03.91	72.56	7.55	-30.6	-31.0	14.9	2.47e-03	0	42	0	3682598912	36	17369
2026-01-22 06:58:04.92	72.37	7.61	-30.3	-30.7	15.0	2.47e-03	0	42	0	3800039424	36	16653
2026-01-22 06:58:05.93	72.18	7.66	-30.6	-31.0	15.4	2.47e-03	0	42	0	3909091328	36	17237
2026-01-22 06:58:06.94	71.99	7.72	-30.6	-31.0	15.9	3.78e-03	0	42	0	4018143232	36	17278
2026-01-22 06:58:07.95	71.80	7.77	-29.9	-30.3	16.1	3.78e-03	0	42	0	4135583744	36	15946
2026-01-22 06:58:08.96	71.61	7.83	-30.2	-30.7	15.9	1.52e-03	0	42	0	4253024256	36	16659
2026-01-22 06:58:09.97	71.41	7.88	-30.1	-30.5	16.2	1.52e-03	0	42	0	4362076160	36	16357
2026-01-22 06:58:10.98	71.22	7.94	-29.8	-30.2	16.5	6.16e-04	0	42	0	4479516672	36	15828
2026-01-22 06:58:11.99	71.02	7.99	-30.2	-30.7	16.3	6.16e-04	0	42	0	4588568576	36	16657
2026-01-22 06:58:12.99	70.83	8.04	-29.6	-30.1	16.5	6.16e-04	0	42	0	4697620480	34	17455
2026-01-22 06:58:14.01	70.63	8.10	-29.8	-30.2	16.4	2.56e-04	0	42	0	4823449600	34	17778
2026-01-22 06:58:15.02	70.43	8.15	-29.4	-29.8	16.5	2.56e-04	0	42	0	4932501504	34	16950
2026-01-22 06:58:16.02	70.23	8.21	-29.2	-29.6	16.5	1.47e-04	0	42	0	5041553408	34	16557
2026-01-22 06:58:17.04	70.03	8.26	-29.2	-29.6	16.6	1.47e-04	0	42	0	5158993920	34	16574
2026-01-22 06:58:18.04	69.83	8.31	-29.1	-29.6	16.6	1.47e-04	0	42	0	5268045824	34	16432
2026-01-22 06:58:19.05	69.63	8.37	-29.4	-29.8	16.5	1.25e-04	0	42	0	5385486336	34	16905
2026-01-22 06:58:20.06	69.43	8.42	-31.0	-31.4	16.0	1.25e-04	0	42	0	5502926848	36	18210
2026-01-22 06:58:21.07	69.23	8.47	-29.6	-30.0	16.2	7.30e-04	0	42	0	5611978752	34	17390
2026-01-22 06:58:22.08	69.02	8.53	-29.1	-29.5	16.4	7.30e-04	0	42	0	5729419264	34	16332
2026-01-22 06:58:23.09	68.82	8.58	-29.6	-30.0	16.2	2.62e-04	0	42	0	5838471168	34	17344
2026-01-22 06:58:24.10	68.61	8.63	-29.0	-29.4	15.3	2.62e-04	0	42	0	5947523072	34	16067
2026-01-22 06:58:25.11	68.40	8.68	-29.5	-29.9	15.0	1.37e-03	0	42	0	6064963584	34	17116
2026-01-22 06:58:26.12	68.19	8.74	-29.5	-29.8	15.3	1.37e-03	0	43	0	6182404096	34	16960
2026-01-22 06:58:27.13	67.98	8.79	-29.5	-29.9	15.3	1.37e-03	0	42	0	6291456000	34	17045
2026-01-22 06:58:28.14	67.77	8.84	-29.3	-29.7	15.5	2.16e-03	0	43	0	6408896512	34	16787
2026-01-22 06:58:29.15	67.56	8.89	-29.4	-29.8	15.1	2.16e-03	0	43	0	6517948416	34	16881
2026-01-22 06:58:30.16	67.35	8.94	-29.9	-30.3	15.2	1.91e-03	0	43	0	6635388928	34	17979
2026-01-22 06:58:31.16	67.14	8.99	-29.7	-30.1	15.7	1.91e-03	0	43	0	6752829440	34	17489
2026-01-22 06:58:32.17	66.93	9.04	-29.7	-30.1	16.3	1.63e-03	0	43	0	6861881344	34	17574
2026-01-22 06:58:33.18	66.71	9.10	-29.3	-29.7	16.3	1.63e-03	0	43	0	6970933248	34	16753
2026-01-22 06:58:34.19	66.50	9.15	-29.1	-29.5	16.5	2.83e-04	0	43	0	7088373760	34	16357
2026-01-22 06:58:35.20	66.28	9.20	-29.3	-29.7	16.5	2.83e-04	0	43	0	7197425664	34	16682
2026-01-22 06:58:36.21	66.06	9.25	-29.5	-29.9	16.5	1.58e-04	0	43	0	7314866176	34	17122
2026-01-22 06:58:37.22	65.84	9.30	-30.6	-31.0	16.3	1.58e-04	0	43	0	7432306688	34	19370
2026-01-22 06:58:38.23	65.62	9.35	-29.2	-29.7	16.5	1.58e-04	0	43	0	7541358592	34	16621
2026-01-22 06:58:39.24	65.40	9.40	-29.4	-29.8	16.3	2.34e-04	0	43	0	7658799104	34	17002
2026-01-22 06:58:40.25	65.18	9.45	-30.5	-30.9	16.3	2.34e-04	0	43	0	7767851008	34	19140
2026-01-22 06:58:41.25	64.96	9.50	-29.3	-29.7	16.6	2.40e-04	0	43	0	7876902912	34	16745
2026-01-22 06:58:42.26	64.74	9.55	-29.2	-29.6	16.6	2.40e-04	0	43	0	7994343424	34	16556
2026-01-22 06:58:43.27	64.52	9.59	-29.1	-29.5	16.5	1.20e-04	0	43	0	8111783936	34	16335
2026-01-22 06:58:44.28	64.29	9.64	-29.3	-29.7	16.3	1.20e-04	0	43	0	8220835840	34	16742
2026-01-22 06:58:45.29	64.07	9.69	-29.1	-29.5	15.7	1.74e-04	0	43	0	8338276352	34	16306
2026-01-22 06:58:46.30	63.84	9.74	-29.1	-29.5	15.0	1.74e-04	0	43	0	8447328256	34	16289
2026-01-22 06:58:47.31	63.61	9.79	-28.7	-29.1	15.4	1.37e-03	0	43	0	8564768768	34	15627
2026-01-22 06:58:48.32	63.38	9.84	-29.6	-30.0	16.4	1.37e-03	0	43	0	8682209280	32	19380
2026-01-22 06:58:49.33	63.15	9.88	-29.6	-30.0	15.3	8.99e-04	0	43	0	8791261184	32	19507
2026-01-22 06:58:50.34	62.92	9.93	-29.2	-29.6	14.8	8.99e-04	0	43	0	8900313088	32	18461
2026-01-22 06:58:51.35	62.69	9.98	-29.2	-29.6	15.4	8.99e-04	0	43	0	9017753600	32	18463
2026-01-22 06:58:52.36	62.46	10.02	-29.3	-29.7	15.9	1.77e-03	0	43	0	9135194112	32	18725
2026-01-22 06:58:53.36	62.23	10.07	-28.8	-29.2	16.2	1.77e-03	0	43	0	9244246016	32	17643
2026-01-22 06:58:54.38	61.99	10.12	-29.0	-29.4	16.3	5.01e-04	0	43	0	9361686528	32	18103
2026-01-22 06:58:55.39	61.76	10.16	-29.3	-29.7	16.3	5.01e-04	0	43	0	9470738432	32	18723
2026-01-22 06:58:56.39	61.52	10.21	-29.1	-29.6	16.5	2.12e-04	0	43	0	9588178944	32	18437
2026-01-22 06:58:57.40	61.29	10.25	-29.2	-29.6	16.6	2.12e-04	0	43	0	9697230848	32	18551
2026-01-22 06:58:58.41	61.05	10.30	-29.0	-29.5	16.6	1.20e-04	0	43	0	9814671360	32	18248
2026-01-22 06:58:59.42	60.81	10.34	-28.6	-29.1	16.7	1.20e-04	0	43	0	9923723264	32	17460
2026-01-22 06:59:00.43	60.57	10.39	-28.6	-29.0	16.7	6.53e-05	0	43	0	10041163776	32	17375
2026-01-22 06:59:01.44	60.33	10.43	-28.6	-29.1	16.5	6.53e-05	0	43	0	10150215680	32	17463
2026-01-22 06:59:02.45	60.09	10.48	-28.8	-29.2	16.6	3.26e-05	0	43	0	10267656192	32	17760
2026-01-22 06:59:03.46	59.85	10.52	-28.4	-28.8	16.7	3.26e-05	0	43	0	10385096704	32	16937
2026-01-22 06:59:04.47	59.60	10.56	-28.4	-28.9	16.7	3.26e-05	0	43	0	10494148608	32	17015
2026-01-22 06:59:05.48	59.36	10.61	-29.2	-29.6	16.6	4.35e-05	0	43	0	10611589120	32	18524
2026-01-22 06:59:06.49	59.11	10.65	-28.8	-29.3	16.5	4.35e-05	0	43	0	10720641024	32	17823
2026-01-22 06:59:07.50	58.87	10.69	-28.8	-29.2	16.6	6.53e-05	0	43	0	10829692928	32	17728
2026-01-22 06:59:08.50	58.62	10.73	-29.0	-29.5	16.5	7.08e-05	0	43	0	10947133440	32	18237
2026-01-22 06:59:09.51	58.38	10.77	-29.0	-29.5	16.5	7.08e-05	0	43	0	11064573952	32	18232
2026-01-22 06:59:10.52	58.13	10.81	-28.8	-29.2	16.6	6.53e-05	0	43	0	11173625856	32	17776
2026-01-22 06:59:11.53	57.88	10.85	-28.8	-29.3	16.6	6.53e-05	0	43	0	11291066368	32	17810
2026-01-22 06:59:12.54	57.63	10.90	-28.4	-28.9	16.5	8.17e-05	0	43	0	11400118272	32	17042
2026-01-22 06:59:13.55	57.38	10.94	-29.2	-29.7	16.2	8.17e-05	0	43	0	11517558784	34	16728
2026-01-22 06:59:14.56	57.13	10.98	-29.7	-30.1	16.3	1.03e-04	0	43	0	11634999296	32	19720
2026-01-22 06:59:15.57	56.87	11.01	-29.2	-29.6	16.4	1.03e-04	0	43	0	11744051200	34	16517
2026-01-22 06:59:16.58	56.62	11.05	-28.9	-29.3	16.5	1.85e-04	0	43	0	11853103104	34	15951
2026-01-22 06:59:17.59	56.37	11.09	-29.3	-29.8	16.3	1.85e-04	0	43	0	11970543616	32	18893
2026-01-22 06:59:18.60	56.11	11.13	-30.1	-30.6	16.0	2.40e-04	0	43	0	12079595520	34	18450
2026-01-22 06:59:19.61	55.86	11.17	-29.2	-29.6	16.5	2.40e-04	0	43	0	12197036032	34	16532
2026-01-22 06:59:20.62	55.60	11.21	-29.1	-29.5	16.4	2.40e-04	0	43	0	12314476544	34	16290
2026-01-22 06:59:21.62	55.35	11.24	-29.0	-29.4	16.5	2.94e-04	0	43	0	12423528448	34	16165
2026-01-22 06:59:22.63	55.09	11.28	-28.8	-29.2	16.6	2.94e-04	0	43	0	12540968960	34	15860
2026-01-22 06:59:23.64	54.83	11.31	-28.6	-29.0	16.5	2.94e-04	0	43	0	12650020864	32	17331
2026-01-22 06:59:24.65	54.57	11.35	-29.5	-29.9	16.3	6.53e-05	0	43	0	12759072768	32	19186
2026-01-22 06:59:25.66	54.31	11.39	-28.9	-29.3	16.4	6.53e-05	0	43	0	12876513280	34	15931
2026-01-22 06:59:26.67	54.05	11.42	-28.8	-29.2	16.4	2.07e-04	0	43	0	12993953792	32	17628
2026-01-22 06:59:27.68	53.79	11.46	-28.5	-28.9	16.5	2.07e-04	0	43	0	13103005696	32	17113
2026-01-22 06:59:28.69	53.52	11.49	-28.6	-29.0	16.5	8.17e-05	0	43	0	13220446208	32	17354
2026-01-22 06:59:29.70	53.26	11.52	-28.7	-29.0	16.3	8.17e-05	0	43	0	13329498112	32	17369
2026-01-22 06:59:30.71	53.00	11.56	-28.7	-29.1	16.5	8.17e-05	0	43	0	13446938624	32	17490
2026-01-22 06:59:31.71	52.73	11.59	-31.7	-32.2	16.2	6.53e-05	0	43	0	13564379136	36	19851
2026-01-22 06:59:32.72	52.47	11.62	-29.3	-29.7	16.3	2.45e-04	0	43	0	13673431040	34	16688
2026-01-22 06:59:33.74	52.20	11.65	-28.7	-29.1	16.4	2.45e-04	0	43	0	13782482944	34	15547
2026-01-22 06:59:34.75	51.93	11.68	-29.6	-30.0	16.4	2.45e-04	0	43	0	13899923456	32	19327
2026-01-22 06:59:35.76	51.67	11.71	-28.6	-29.0	16.5	8.17e-05	0	43	0	14017363968	32	17329
2026-01-22 06:59:36.76	51.40	11.74	-29.7	-30.1	16.2	8.17e-05	0	43	0	14126415872	32	19571
2026-01-22 06:59:37.77	51.13	11.77	-28.6	-29.0	16.3	7.62e-05	0	43	0	14243856384	34	15418
2026-01-22 06:59:38.78	50.86	11.80	-28.7	-29.1	16.3	1.69e-04	0	43	0	14352908288	32	17501
2026-01-22 06:59:39.79	50.59	11.83	-28.7	-29.1	16.4	1.69e-04	0	43	0	14470348800	32	17462
2026-01-22 06:59:40.80	50.32	11.86	-28.6	-29.0	16.2	1.69e-04	0	43	0	14579400704	32	17267
2026-01-22 06:59:41.81	50.05	11.89	-28.4	-28.8	15.8	8.17e-05	0	43	0	14696841216	32	16914
2026-01-22 06:59:42.82	49.78	11.92	-28.2	-28.6	15.9	8.17e-05	0	43	0	14805893120	32	16508
2026-01-22 06:59:43.83	49.50	11.94	-29.1	-29.5	15.9	2.72e-04	0	43	0	14923333632	32	18339
2026-01-22 06:59:44.84	49.23	11.97	-28.8	-29.2	16.1	2.72e-04	0	43	0	15032385536	32	17669
2026-01-22 06:59:45.84	48.96	12.00	-28.5	-28.9	16.3	1.96e-04	0	43	0	15149826048	32	17136
2026-01-22 06:59:46.85	48.68	12.02	-29.8	-30.2	16.0	1.96e-04	0	43	0	15258877952	32	19802
2026-01-22 06:59:47.87	48.41	12.05	-29.2	-29.6	16.3	1.36e-04	0	43	0	15376318464	34	16490
2026-01-22 06:59:48.88	48.13	12.07	-28.7	-29.1	16.3	1.36e-04	0	43	0	15493758976	32	17541
2026-01-22 06:59:49.88	47.86	12.09	-28.9	-29.3	16.3	6.53e-05	0	43	0	15602810880	32	17954
2026-01-22 06:59:50.89	47.58	12.12	-28.5	-28.9	16.3	6.53e-05	0	43	0	15711862784	32	17044
2026-01-22 06:59:51.90	47.30	12.14	-28.5	-28.9	16.3	6.53e-05	0	43	0	15829303296	32	17076
2026-01-22 06:59:52.91	47.03	12.16	-28.6	-29.0	16.3	4.90e-05	0	44	0	15946743808	32	17254
2026-01-22 06:59:53.92	46.75	12.18	-28.6	-29.0	16.2	4.90e-05	0	43	0	16055795712	32	17317
2026-01-22 06:59:54.93	46.47	12.21	-28.8	-29.2	16.2	8.17e-05	0	43	0	16173236224	32	17622
2026-01-22 06:59:55.94	46.19	12.23	-28.6	-29.0	16.1	8.17e-05	0	43	0	16282288128	32	17209
2026-01-22 06:59:56.95	45.91	12.25	-28.3	-28.7	16.3	8.17e-05	0	43	0	16399728640	32	16780
2026-01-22 06:59:57.96	45.63	12.27	-28.6	-29.0	16.2	7.08e-05	0	44	0	16517169152	32	17230
2026-01-22 06:59:58.97	45.35	12.29	-28.9	-29.2	16.2	7.08e-05	0	43	0	16626221056	32	17786
2026-01-22 06:59:59.98	45.07	12.30	-28.8	-29.2	16.2	8.17e-05	0	44	0	16735272960	32	17790
2026-01-22 07:00:00.99	44.79	12.32	-29.0	-29.4	16.1	8.17e-05	0	44	0	16852713472	32	18069
2026-01-22 07:00:01.99	44.51	12.34	-30.0	-30.4	16.0	1.58e-04	0	44	0	16961765376	32	20285
2026-01-22 07:00:03.00	44.23	12.36	-30.0	-30.4	15.9	1.58e-04	0	43	0	17079205888	34	18170
2026-01-22 07:00:04.01	43.94	12.37	-30.0	-30.4	16.1	1.58e-04	0	43	0	17196646400	34	18076
2026-01-22 07:00:05.02	43.66	12.39	-29.4	-29.8	16.1	1.56e-02	0	43	0	17305698304	34	16844
2026-01-22 07:00:06.03	43.38	12.40	-29.0	-29.4	16.1	1.56e-02	0	44	0	17423138816	34	16122
2026-01-22 07:00:07.04	43.09	12.42	-28.8	-29.2	16.1	1.36e-04	0	43	0	17532190720	32	17739
2026-01-22 07:00:08.05	42.81	12.43	-29.2	-29.6	16.0	1.36e-04	0	43	0	17641242624	32	18528
2026-01-22 07:00:09.06	42.53	12.44	-29.3	-29.7	16.1	1.36e-04	0	43	0	17758683136	34	16648
2026-01-22 07:00:10.07	42.24	12.46	-29.0	-29.4	16.1	4.35e-05	0	43	0	17876123648	34	16180
2026-01-22 07:00:11.08	41.96	12.47	-28.9	-29.3	16.1	4.35e-05	0	43	0	17985175552	34	15990
2026-01-22 07:00:12.09	41.67	12.48	-28.9	-29.3	16.1	7.08e-05	0	44	0	18102616064	32	17844
2026-01-22 07:00:13.10	41.39	12.49	-28.7	-29.0	16.1	7.08e-05	0	44	0	18211667968	32	17376
2026-01-22 07:00:14.10	41.10	12.50	-29.1	-29.5	16.1	7.08e-05	0	43	0	18329108480	32	18280
2026-01-22 07:00:15.11	40.82	12.51	-28.7	-29.1	16.1	4.90e-05	0	43	0	18446548992	32	17553
2026-01-22 07:00:16.12	40.53	12.52	-28.8	-29.2	16.0	4.90e-05	0	43	0	18555600896	32	17735
2026-01-22 07:00:17.13	40.25	12.53	-28.8	-29.1	16.0	6.53e-05	0	44	0	18664652800	32	17565
2026-01-22 07:00:18.14	39.96	12.54	-28.9	-29.3	15.9	6.53e-05	0	44	0	18782093312	32	17928
2026-01-22 07:00:19.15	39.67	12.54	-29.0	-29.4	16.0	6.53e-05	0	44	0	18891145216	32	18083
2026-01-22 07:00:20.16	39.39	12.55	-29.2	-29.6	15.9	1.09e-04	0	44	0	19008585728	32	18525
2026-01-22 07:00:21.17	39.10	12.56	-28.4	-28.8	16.1	1.09e-04	0	44	0	19126026240	32	16902
2026-01-22 07:00:22.17	38.82	12.56	-28.6	-28.9	15.9	1.20e-04	0	44	0	19235078144	32	17179
2026-01-22 07:00:23.18	38.53	12.57	-28.8	-29.1	16.0	1.20e-04	0	44	0	19352518656	32	17550
2026-01-22 07:00:24.19	38.24	12.57	-28.3	-28.7	16.1	1.52e-04	0	44	0	19461570560	32	16723
2026-01-22 07:00:25.20	37.95	12.58	-28.5	-28.9	16.2	1.52e-04	0	44	0	19570622464	32	17017
2026-01-22 07:00:26.21	37.67	12.58	-28.9	-29.3	16.0	3.81e-05	0	44	0	19688062976	32	17917
2026-01-22 07:00:27.22	37.38	12.58	-28.6	-29.0	16.1	3.81e-05	0	44	0	19805503488	32	17283
2026-01-22 07:00:28.23	37.09	12.58	-28.9	-29.3	16.1	1.42e-04	0	44	0	19914555392	32	17867
2026-01-22 07:00:29.24	36.80	12.58	-29.2	-29.6	16.0	1.42e-04	0	44	0	20031995904	32	18552
2026-01-22 07:00:30.25	36.52	12.59	-28.5	-28.9	16.3	8.71e-05	0	44	0	20141047808	32	17096
2026-01-22 07:00:31.26	36.23	12.59	-28.6	-29.0	16.4	8.71e-05	0	44	0	20258488320	32	17208
2026-01-22 07:00:32.27	35.94	12.58	-29.0	-29.3	16.3	8.71e-05	0	44	0	20375928832	32	17967
2026-01-22 07:00:33.28	35.65	12.58	-29.0	-29.4	16.3	3.26e-05	0	44	0	20484980736	32	18044
2026-01-22 07:00:34.29	35.37	12.58	-28.9	-29.3	16.3	3.26e-05	0	44	0	20594032640	32	17937
2026-01-22 07:00:35.30	35.08	12.58	-29.0	-29.4	16.3	4.35e-05	0	44	0	20711473152	32	18044
2026-01-22 07:00:36.31	34.79	12.58	-29.2	-29.6	16.3	4.35e-05	0	44	0	20828913664	32	18541
2026-01-22 07:00:37.32	34.51	12.57	-29.1	-29.5	16.3	5.44e-05	0	44	0	20937965568	32	18271
2026-01-22 07:00:38.32	34.22	12.57	-28.8	-29.2	16.4	5.44e-05	0	44	0	21055406080	32	17667
2026-01-22 07:00:39.33	33.93	12.56	-29.2	-29.6	16.2	5.44e-05	0	44	0	21164457984	32	18603
2026-01-22 07:00:40.34	33.65	12.56	-28.9	-29.3	16.3	8.71e-05	0	44	0	21281898496	32	17961
2026-01-22 07:00:41.35	33.36	12.55	-29.0	-29.4	16.3	8.71e-05	0	44	0	21390950400	32	18198
2026-01-22 07:00:42.36	33.07	12.55	-29.5	-29.9	16.2	5.44e-05	0	44	0	21508390912	32	19158
2026-01-22 07:00:43.36	32.79	12.54	-29.4	-29.8	16.3	5.44e-05	0	44	0	21617442816	32	19063
2026-01-22 07:00:44.37	32.50	12.53	-29.1	-29.5	16.3	1.09e-04	0	44	0	21734883328	32	18366
2026-01-22 07:00:45.39	32.21	12.52	-28.6	-29.0	16.6	1.09e-04	0	44	0	21843935232	32	17295
2026-01-22 07:00:46.39	31.93	12.51	-28.9	-29.3	16.5	1.09e-04	0	44	0	21961375744	32	17944
2026-01-22 07:00:47.40	31.65	12.50	-28.2	-28.7	16.5	3.26e-05	0	44	0	22070427648	32	16626
2026-01-22 07:00:48.41	31.36	12.49	-29.0	-29.5	16.4	3.26e-05	0	44	0	22187868160	32	18314
2026-01-22 07:00:49.42	31.08	12.48	-28.9	-29.4	16.4	5.99e-05	0	44	0	22305308672	32	18141
2026-01-22 07:00:50.43	30.79	12.47	-29.4	-29.9	16.2	5.99e-05	0	44	0	22414360576	32	19210
2026-01-22 07:00:51.44	30.51	12.46	-28.9	-29.3	16.4	1.14e-04	0	44	0	22523412480	32	17910
2026-01-22 07:00:52.45	30.22	12.45	-28.5	-28.9	16.6	1.14e-04	0	44	0	22640852992	32	17160
2026-01-22 07:00:53.46	29.94	12.43	-28.6	-29.1	16.5	3.26e-05	0	44	0	22758293504	32	17537
2026-01-22 07:00:54.47	29.65	12.42	-29.0	-29.5	16.4	3.26e-05	0	44	0	22867345408	32	18301
2026-01-22 07:00:55.48	29.37	12.41	-28.8	-29.2	16.5	3.26e-05	0	44	0	22984785920	32	17798
2026-01-22 07:00:56.49	29.09	12.39	-28.6	-29.0	16.5	7.62e-05	0	44	0	23093837824	32	17400
2026-01-22 07:00:57.49	28.81	12.38	-29.0	-29.4	16.4	7.62e-05	0	44	0	23211278336	32	18194
2026-01-22 07:00:58.50	28.53	12.36	-29.4	-29.9	16.3	7.08e-05	0	44	0	23320330240	32	19180
2026-01-22 07:00:59.51	28.24	12.34	-28.7	-29.2	16.5	7.08e-05	0	44	0	23437770752	32	17720
2026-01-22 07:01:00.52	27.96	12.33	-28.7	-29.2	16.5	7.08e-05	0	44	0	23546822656	32	17659
2026-01-22 07:01:01.53	27.68	12.31	-28.7	-29.2	16.5	1.03e-04	0	44	0	23664263168	32	17677
2026-01-22 07:01:02.54	27.40	12.29	-28.4	-28.9	16.6	1.03e-04	0	44	0	23773315072	32	17036
2026-01-22 07:01:03.55	27.12	12.27	-28.4	-28.9	16.6	8.71e-05	0	44	0	23890755584	32	17024
2026-01-22 07:01:04.56	26.84	12.25	-28.5	-29.0	16.5	8.71e-05	0	44	0	24008196096	32	17335
2026-01-22 07:01:05.56	26.56	12.23	-28.2	-28.7	16.5	1.63e-05	0	44	0	24117248000	32	16736
2026-01-22 07:01:06.57	26.28	12.21	-28.6	-29.1	16.5	1.63e-05	0	44	0	24234688512	32	17413
2026-01-22 07:01:07.58	26.01	12.19	-28.4	-28.9	16.6	1.63e-05	0	44	0	24343740416	32	17053
2026-01-22 07:01:08.59	25.73	12.17	-28.4	-28.9	16.6	4.90e-05	0	44	0	24452792320	32	17092
2026-01-22 07:01:09.60	25.45	12.15	-28.6	-29.1	16.6	4.90e-05	0	44	0	24570232832	32	17563
2026-01-22 07:01:10.61	25.17	12.12	-28.9	-29.4	16.5	4.90e-05	0	44	0	24687673344	32	18048
2026-01-22 07:01:11.62	24.90	12.10	-28.4	-28.9	16.6	3.26e-05	0	44	0	24796725248	32	17038
2026-01-22 07:01:12.63	24.62	12.08	-28.4	-28.9	16.6	3.26e-05	0	44	0	24914165760	32	17060
2026-01-22 07:01:13.64	24.35	12.05	-28.5	-29.0	16.5	2.72e-05	0	44	0	25023217664	32	17284
2026-01-22 07:01:14.65	24.07	12.03	-28.3	-28.9	16.5	2.72e-05	0	44	0	25140658176	32	17026
2026-01-22 07:01:15.65	23.80	12.00	-29.4	-29.9	16.3	4.35e-05	0	44	0	25249710080	32	19243
2026-01-22 07:01:16.66	23.53	11.98	-28.7	-29.2	16.5	4.35e-05	0	44	0	25367150592	32	17742
2026-01-22 07:01:17.67	23.25	11.95	-28.4	-28.9	16.5	8.71e-05	0	44	0	25476202496	32	17113
2026-01-22 07:01:18.68	22.98	11.93	-28.6	-29.1	16.5	3.26e-05	0	44	0	25593643008	32	17431
2026-01-22 07:01:19.69	22.71	11.90	-28.5	-29.0	16.5	3.26e-05	0	44	0	25702694912	32	17319
2026-01-22 07:01:20.70	22.44	11.87	-28.4	-28.9	16.5	9.26e-05	0	44	0	25820135424	32	17067
2026-01-22 07:01:21.71	22.17	11.84	-28.5	-29.0	16.4	9.26e-05	0	44	0	25937575936	32	17273
2026-01-22 07:01:22.72	21.90	11.81	-28.2	-28.7	16.5	9.26e-05	0	44	0	26046627840	32	16781
2026-01-22 07:01:23.72	21.63	11.78	-28.4	-29.0	16.5	7.08e-05	0	44	0	26164068352	32	17207
2026-01-22 07:01:24.73	21.36	11.75	-28.6	-29.1	16.4	7.08e-05	0	44	0	26273120256	32	17589
2026-01-22 07:01:25.74	21.10	11.72	-29.0	-29.5	16.4	6.53e-05	0	44	0	26382172160	32	18302
2026-01-22 07:01:26.75	20.83	11.69	-28.9	-29.4	16.4	6.53e-05	0	44	0	26499612672	32	18215
2026-01-22 07:01:27.76	20.56	11.66	-28.8	-29.3	16.4	1.52e-04	0	44	0	26617053184	32	17971
2026-01-22 07:01:28.77	20.30	11.63	-28.5	-29.0	16.4	1.52e-04	0	44	0	26726105088	32	17290
2026-01-22 07:01:29.78	20.03	11.60	-28.6	-29.2	16.4	1.52e-04	0	44	0	26843545600	32	17623
2026-01-22 07:01:30.79	19.77	11.57	-28.8	-29.3	16.3	1.14e-04	0	44	0	26952597504	32	17920
2026-01-22 07:01:31.80	19.50	11.53	-28.5	-29.1	16.4	1.14e-04	0	44	0	27070038016	32	17405
2026-01-22 07:01:32.81	19.24	11.50	-28.5	-29.0	16.4	7.08e-05	0	44	0	27187478528	32	17260
2026-01-22 07:01:33.82	18.98	11.47	-28.8	-29.4	16.3	7.08e-05	0	44	0	27296530432	32	18031
2026-01-22 07:01:34.83	18.72	11.43	-29.4	-29.9	16.4	7.62e-05	0	44	0	27405582336	32	19122
2026-01-22 07:01:35.83	18.46	11.40	-29.6	-30.1	16.4	7.62e-05	0	44	0	27523022848	32	19661
2026-01-22 07:01:36.84	18.20	11.36	-29.1	-29.7	16.4	9.80e-05	0	44	0	27632074752	32	18670
2026-01-22 07:01:37.85	17.94	11.33	-29.0	-29.5	16.4	9.80e-05	0	44	0	27749515264	32	18385
2026-01-22 07:01:38.86	17.68	11.29	-29.2	-29.7	16.4	4.90e-05	0	44	0	27866955776	32	18710
2026-01-22 07:01:39.87	17.42	11.25	-29.2	-29.7	16.4	4.90e-05	0	44	0	27976007680	32	18678
2026-01-22 07:01:40.88	17.17	11.22	-29.0	-29.5	16.5	4.90e-05	0	44	0	28093448192	32	18280
2026-01-22 07:01:41.89	16.91	11.18	-29.1	-29.6	16.5	4.90e-05	0	44	0	28202500096	32	18591
2026-01-22 07:01:42.90	16.66	11.14	-29.2	-29.8	16.4	4.90e-05	0	44	0	28311552000	32	18900
2026-01-22 07:01:43.91	16.40	11.10	-29.1	-29.6	16.5	7.08e-05	0	44	0	28437381120	32	18542
2026-01-22 07:01:44.92	16.15	11.07	-29.2	-29.7	16.6	7.08e-05	0	44	0	28546433024	32	18679
2026-01-22 07:01:45.93	15.89	11.03	-29.4	-29.8	16.5	5.44e-05	0	44	0	28655484928	32	19072
2026-01-22 07:01:46.94	15.64	10.99	-29.2	-29.7	16.5	5.44e-05	0	44	0	28772925440	32	18705
2026-01-22 07:01:47.95	15.39	10.95	-28.9	-29.4	16.6	2.72e-05	0	44	0	28881977344	32	18079
2026-01-22 07:01:48.96	15.14	10.91	-29.0	-29.5	16.4	2.72e-05	0	44	0	28999417856	32	18276
2026-01-22 07:01:49.97	14.89	10.87	-28.9	-29.4	16.5	2.17e-05	0	44	0	29116858368	32	18193
2026-01-22 07:01:50.98	14.64	10.83	-29.2	-29.7	16.4	2.17e-05	0	44	0	29225910272	32	18790
2026-01-22 07:01:51.99	14.40	10.79	-29.7	-30.2	16.2	2.17e-05	0	44	0	29334962176	32	19850
2026-01-22 07:01:53.00	14.15	10.75	-31.2	-31.7	16.1	6.53e-05	0	44	0	29452402688	36	18669
2026-01-22 07:01:54.01	13.90	10.70	-30.0	-30.5	16.3	6.53e-05	0	44	0	29569843200	36	16276
2026-01-22 07:01:55.02	13.66	10.66	-51.4	-54.0	6.1	6.53e-05	0	44	104	29603397632	60	61141
2026-01-22 07:01:56.02	13.42	10.62	-51.1	-53.6	6.1	6.53e-05	0	44	104	29603397632	60	58541
2026-01-22 07:01:57.03	13.17	10.58	-51.4	-53.8	6.1	6.53e-05	0	44	104	29603397632	60	60125
2026-01-22 07:01:58.04	12.93	10.53	-51.1	-53.6	6.1	6.53e-05	0	44	104	29603397632	60	58461
2026-01-22 07:01:59.05	12.69	10.49	-51.3	-53.9	6.1	6.53e-05	0	44	104	29603397632	60	60497
2026-01-22 07:02:00.06	12.45	10.45	-51.7	-54.3	6.1	5.99e-05	0	44	104	29603397632	60	63351
2026-01-22 07:02:01.07	12.21	10.40	-51.6	-54.0	6.1	5.99e-05	0	44	104	29603397632	60	61317
2026-01-22 07:02:02.08	11.97	10.36	-51.3	-53.8	6.1	5.99e-05	0	44	104	29603397632	60	59931
2026-01-22 07:02:03.08	11.73	10.32	-50.9	-53.4	6.1	5.99e-05	0	44	104	29603397632	60	57166
2026-01-22 07:02:04.09	11.50	10.27	-51.4	-53.9	6.1	5.99e-05	0	44	104	29603397632	60	60377
2026-01-22 07:02:05.10	11.26	10.23	-51.9	-54.4	6.1	5.99e-05	0	44	104	29603397632	60	64393
2026-01-22 07:02:06.11	11.02	10.18	-51.3	-53.8	6.1	5.99e-05	0	44	104	29603397632	60	60174
2026-01-22 07:02:07.12	10.79	10.13	-51.0	-53.4	6.1	5.99e-05	0	44	104	29603397632	60	57438
2026-01-22 07:02:08.13	10.56	10.09	-50.8	-53.3	6.1	0.00e+00	0	44	104	29603397632	60	56737
2026-01-22 07:02:09.14	10.32	10.04	-51.0	-53.5	6.1	0.00e+00	0	44	104	29603397632	60	58158
2026-01-22 07:02:10.15	10.09	10.00	-51.1	-53.6	6.1	0.00e+00	0	43	104	29603397632	60	58820
2026-01-22 07:02:11.16	9.86	9.95	-50.8	-53.3	6.1	0.00e+00	0	44	104	29603397632	60	56558
2026-01-22 07:02:12.17	9.63	9.90	-50.8	-53.3	6.1	0.00e+00	0	44	104	29603397632	60	56466
2026-01-22 07:02:13.18	9.40	9.85	-50.9	-53.4	6.1	0.00e+00	0	44	104	29603397632	60	57288
2026-01-22 07:02:14.18	9.18	9.81	-51.0	-53.5	6.1	0.00e+00	0	44	104	29603397632	60	58156
2026-01-22 07:02:15.19	8.95	9.76	-50.7	-53.2	6.1	0.00e+00	0	44	104	29603397632	60	55824
2026-01-22 07:02:16.21	8.72	9.71	-51.0	-53.5	6.1	0.00e+00	0	44	104	29603397632	60	57637
2026-01-22 07:02:17.21	8.50	9.66	-50.9	-53.4	6.1	0.00e+00	0	44	104	29603397632	60	57254
2026-01-22 07:02:18.23	8.27	9.61	-50.9	-53.4	6.1	0.00e+00	0	44	104	29603397632	60	57347
2026-01-22 07:02:19.23	8.05	9.57	-50.6	-53.1	6.1	0.00e+00	0	44	104	29603397632	60	55580
2026-01-22 07:02:20.24	7.83	9.52	-50.7	-53.2	6.1	0.00e+00	0	44	104	29603397632	60	55861
2026-01-22 07:02:21.25	7.60	9.47	-50.8	-53.2	6.1	0.00e+00	0	44	104	29603397632	60	56297
2026-01-22 07:02:22.26	7.38	9.42	-51.1	-53.6	6.1	0.00e+00	0	44	104	29603397632	60	58531
2026-01-22 07:02:23.27	7.16	9.37	-50.8	-53.3	6.1	0.00e+00	0	44	104	29603397632	60	56439
2026-01-22 07:02:24.28	6.95	9.32	-50.9	-53.3	6.1	0.00e+00	0	44	104	29603397632	60	56817
2026-01-22 07:02:25.29	6.73	9.27	-50.9	-53.4	6.1	0.00e+00	0	44	104	29603397632	60	57289
2026-01-22 07:02:26.30	6.51	9.22	-51.3	-53.7	6.1	0.00e+00	0	44	104	29603397632	60	59503
2026-01-22 07:02:27.31	6.29	9.17	-51.5	-53.9	6.1	0.00e+00	0	44	104	29603397632	60	61023
2026-01-22 07:02:28.32	6.08	9.12	-51.3	-53.7	6.0	0.00e+00	0	44	104	29603397632	60	59571
2026-01-22 07:02:29.33	5.87	9.07	-51.0	-53.5	6.1	0.00e+00	0	44	104	29603397632	60	57786
2026-01-22 07:02:30.33	5.65	9.02	-51.8	-54.2	6.1	0.00e+00	0	44	104	29603397632	60	62992
2026-01-22 07:02:31.34	5.44	8.96	-51.6	-54.1	6.1	0.00e+00	0	44	104	29603397632	60	62217
2026-01-22 07:02:32.35	5.23	8.91	-51.5	-54.0	6.1	0.00e+00	0	44	104	29603397632	60	61062
2026-01-22 07:02:33.36	5.02	8.86	-51.3	-53.8	6.1	0.00e+00	0	44	104	29603397632	60	59720
2026-01-22 07:02:34.37	4.81	8.81	-51.4	-53.9	6.1	0.00e+00	0	44	104	29603397632	60	60390
2026-01-22 07:02:35.38	4.60	8.76	-51.4	-53.9	6.1	0.00e+00	0	44	104	29603397632	60	60678
2026-01-22 07:02:36.39	4.39	8.71	-51.3	-53.9	6.1	0.00e+00	0	44	104	29603397632	60	60452
2026-01-22 07:02:37.40	4.19	8.65	-51.6	-54.1	6.1	0.00e+00	0	44	104	29603397632	60	61906
2026-01-22 07:02:38.41	3.98	8.60	-51.3	-53.7	6.1	0.00e+00	0	44	104	29603397632	60	59519
2026-01-22 07:02:39.41	3.78	8.55	-51.2	-53.6	6.1	0.00e+00	0	44	104	29603397632	60	58855
2026-01-22 07:02:40.42	3.58	8.50	-51.1	-53.6	6.1	0.00e+00	0	44	104	29603397632	60	58542
2026-01-22 07:02:41.43	3.37	8.44	-51.7	-54.2	6.1	0.00e+00	0	44	104	29603397632	60	62788
2026-01-22 07:02:42.44	3.17	8.39	-51.2	-53.6	6.1	0.00e+00	0	44	104	29603397632	60	58952
2026-01-22 07:02:43.45	2.97	8.34	-50.9	-53.4	6.1	0.00e+00	0	44	104	29603397632	60	57355
2026-01-22 07:02:44.46	2.77	8.28	-50.7	-53.2	6.1	0.00e+00	0	44	104	29603397632	60	56017
2026-01-22 07:02:45.47	2.57	8.23	-50.7	-53.1	6.1	0.00e+00	0	44	104	29603397632	60	55645
2026-01-22 07:02:46.48	2.37	8.18	-51.1	-53.6	6.1	0.00e+00	0	44	104	29603397632	60	58685
2026-01-22 07:02:47.49	2.17	8.12	-52.1	-54.6	6.1	0.00e+00	0	44	104	29603397632	60	65830
2026-01-22 07:02:48.50	1.98	8.07	-52.1	-54.5	6.1	0.00e+00	0	44	104	29603397632	60	65174
2026-01-22 07:02:49.51	1.78	8.02	-51.6	-54.1	6.1	0.00e+00	0	44	104	29603397632	60	61819
2026-01-22 07:02:50.52	1.59	7.96	-51.3	-53.8	6.1	0.00e+00	0	44	104	29603397632	60	60007
2026-01-22 07:02:51.53	1.39	7.91	-51.7	-54.2	6.1	0.00e+00	0	44	104	29603397632	60	62802
2026-01-22 07:02:52.54	1.20	7.85	-51.1	-53.6	6.1	0.00e+00	0	44	104	29603397632	60	58805
2026-01-22 07:02:53.55	1.01	7.80	-51.2	-53.7	6.1	0.00e+00	0	44	104	29603397632	60	59049
2026-01-22 07:02:54.56	0.82	7.75	-50.9	-53.3	6.1	0.00e+00	0	44	104	29603397632	60	56779
2026-01-22 07:02:55.57	0.63	7.69	-50.7	-53.1	6.1	0.00e+00	0	44	104	29603397632	60	55480
2026-01-22 07:02:56.58	0.44	7.64	-50.6	-53.0	6.1	0.00e+00	0	44	104	29603397632	60	55025
2026-01-22 07:02:57.59	0.25	7.58	-50.5	-53.0	6.1	0.00e+00	0	44	104	29603397632	60	54505
2026-01-22 07:02:58.60	0.06	7.53	-50.5	-52.9	6.1	0.00e+00	0	44	104	29603397632	60	54240
2026-01-22 07:02:59.61	359.87	7.47	-50.9	-53.3	6.1	0.00e+00	0	44	104	29603397632	60	56907
2026-01-22 07:03:00.62	359.69	7.42	-50.8	-53.2	6.1	0.00e+00	0	44	104	29603397632	60	56248
2026-01-22 07:03:01.62	359.51	7.36	-50.7	-53.1	6.1	0.00e+00	0	44	104	29603397632	60	55464
2026-01-22 07:03:02.63	359.32	7.31	-50.6	-53.1	6.1	0.00e+00	0	44	104	29603397632	60	55064
2026-01-22 07:03:03.64	359.14	7.25	-50.7	-53.2	6.1	0.00e+00	0	44	104	29603397632	60	55763
2026-01-22 07:03:04.65	358.96	7.20	-50.7	-53.2	6.1	0.00e+00	0	44	104	29603397632	60	55696
2026-01-22 07:03:05.66	358.77	7.14	-50.7	-53.2	6.1	0.00e+00	0	43	104	29603397632	60	55823
2026-01-22 07:03:06.67	358.59	7.09	-50.5	-53.0	6.1	0.00e+00	0	44	104	29603397632	60	54575
2026-01-22 07:03:07.68	358.41	7.03	-50.5	-52.9	6.1	0.00e+00	0	44	104	29603397632	60	54354
2026-01-22 07:03:08.69	358.24	6.98	-50.5	-52.9	6.1	0.00e+00	0	44	104	29603397632	60	54334
2026-01-22 07:03:09.70	358.06	6.92	-50.4	-52.8	6.1	0.00e+00	0	44	104	29603397632	60	53556
2026-01-22 07:03:10.71	357.88	6.87	-50.4	-52.8	6.1	0.00e+00	0	44	104	29603397632	60	53662
2026-01-22 07:03:11.72	357.70	6.81	-50.4	-52.9	6.0	0.00e+00	0	44	104	29603397632	60	53829
2026-01-22 07:03:12.73	357.53	6.75	-50.3	-52.8	6.1	0.00e+00	0	44	104	29603397632	60	53623
2026-01-22 07:03:13.73	357.36	6.70	-50.3	-52.8	6.1	0.00e+00	0	44	104	29603397632	60	53399
2026-01-22 07:03:14.74	357.18	6.64	-50.2	-52.7	6.1	0.00e+00	0	44	104	29603397632	60	52880
2026-01-22 07:03:15.76	357.01	6.59	-50.4	-52.9	6.1	0.00e+00	0	44	104	29603397632	60	53840
2026-01-22 07:03:16.76	356.84	6.53	-50.6	-53.1	6.1	0.00e+00	0	44	104	29603397632	60	55394
2026-01-22 07:03:17.77	356.67	6.48	-50.4	-53.0	6.1	0.00e+00	0	44	104	29603397632	60	54495
2026-01-22 07:03:18.78	356.50	6.42	-50.9	-53.3	6.1	0.00e+00	0	44	104	29603397632	60	56943
2026-01-22 07:03:19.79	356.33	6.36	-51.0	-53.5	6.1	0.00e+00	0	44	104	29603397632	60	58060
2026-01-22 07:03:20.80	356.16	6.31	-51.5	-54.1	6.1	0.00e+00	0	44	104	29603397632	60	61790
2026-01-22 07:03:21.81	355.99	6.25	-51.1	-53.6	6.1	0.00e+00	0	44	104	29603397632	60	58357
2026-01-22 07:03:22.82	355.82	6.19	-50.6	-53.1	6.1	0.00e+00	0	43	104	29603397632	60	55448
2026-01-22 07:03:23.83	355.66	6.14	-51.1	-53.5	6.1	0.00e+00	0	44	104	29603397632	60	58247
2026-01-22 07:03:24.84	355.49	6.08	-51.1	-53.6	6.1	0.00e+00	0	43	104	29603397632	60	58476
2026-01-22 07:03:25.84	355.33	6.03	-51.2	-53.7	6.1	0.00e+00	0	44	104	29603397632	60	59217
2026-01-22 07:03:26.85	355.17	5.97	-51.4	-53.8	6.1	0.00e+00	0	44	104	29603397632	60	60261
2026-01-22 07:03:27.86	355.00	5.91	-51.4	-53.8	6.1	0.00e+00	0	44	104	29603397632	60	60272
2026-01-22 07:03:28.87	354.84	5.86	-51.5	-54.0	6.1	0.00e+00	0	44	104	29603397632	60	61270
2026-01-22 07:03:29.88	354.68	5.80	-51.6	-54.1	6.1	0.00e+00	0	44	104	29603397632	60	61950
2026-01-22 07:03:30.89	354.52	5.75	-51.6	-54.2	6.1	0.00e+00	0	44	104	29603397632	60	62513
2026-01-22 07:03:31.90	354.36	5.69	-51.8	-54.3	6.1	0.00e+00	0	44	104	29603397632	60	63287
2026-01-22 07:03:32.91	354.20	5.63	-51.2	-53.7	6.1	0.00e+00	0	43	104	29603397632	60	59199
2026-01-22 07:03:33.92	354.04	5.58	-51.4	-53.8	6.1	0.00e+00	0	44	104	29603397632	60	59838
2026-01-22 07:03:34.93	353.88	5.52	-51.6	-54.1	6.1	0.00e+00	0	44	104	29603397632	60	62003
2026-01-22 07:03:35.94	353.73	5.46	-51.7	-54.1	6.1	0.00e+00	0	44	104	29603397632	60	62142
2026-01-22 07:03:36.95	353.57	5.41	-50.8	-53.3	6.1	0.00e+00	0	44	104	29603397632	60	56803
2026-01-22 07:03:37.96	353.42	5.35	-50.4	-52.8	6.1	0.00e+00	0	44	104	29603397632	60	53711
2026-01-22 07:03:38.96	353.26	5.29	-50.3	-52.7	6.1	0.00e+00	0	44	104	29603397632	60	53036
2026-01-22 07:03:39.97	353.11	5.24	-50.2	-52.6	6.1	0.00e+00	0	44	104	29603397632	60	52349
2026-01-22 07:03:40.98	352.96	5.18	-50.0	-52.6	6.1	0.00e+00	0	44	104	29603397632	60	51974
2026-01-22 07:03:42.00	352.80	5.12	-50.3	-52.8	6.1	0.00e+00	0	44	104	29603397632	60	53169
2026-01-22 07:03:43.00	352.65	5.07	-50.3	-52.8	6.1	0.00e+00	0	44	104	29603397632	60	53477
2026-01-22 07:03:44.01	352.50	5.01	-50.4	-52.9	6.1	0.00e+00	0	44	104	29603397632	60	54213
2026-01-22 07:03:45.02	352.35	4.96	-50.4	-52.8	6.1	0.00e+00	0	44	104	29603397632	60	53691
2026-01-22 07:03:46.03	352.21	4.90	-50.0	-52.4	6.1	0.00e+00	0	44	104	29603397632	60	51219
2026-01-22 07:03:47.03	352.06	4.84	-50.5	-52.9	6.1	0.00e+00	0	44	104	29603397632	60	54329
2026-01-22 07:03:48.04	351.91	4.79	-50.4	-52.8	6.1	0.00e+00	0	44	104	29603397632	60	53631
2026-01-22 07:03:49.05	351.76	4.73	-50.4	-52.8	6.1	0.00e+00	0	44	104	29603397632	60	53725
2026-01-22 07:03:50.06	351.62	4.67	-50.1	-52.6	6.1	0.00e+00	0	44	104	29603397632	60	52381
2026-01-22 07:03:51.07	351.47	4.62	-50.2	-52.7	6.1	0.00e+00	0	44	104	29603397632	60	52849
2026-01-22 07:03:52.08	351.33	4.56	-50.2	-52.7	6.1	0.00e+00	0	44	104	29603397632	60	53157
2026-01-22 07:03:53.09	351.18	4.51	-50.5	-52.9	6.1	0.00e+00	0	44	104	29603397632	60	54392
2026-01-22 07:03:54.10	351.04	4.45	-50.1	-52.5	6.1	0.00e+00	0	44	104	29603397632	60	51771
2026-01-22 07:03:55.11	350.90	4.39	-50.0	-52.5	6.1	0.00e+00	0	44	104	29603397632	60	51426
2026-01-22 07:03:56.12	350.76	4.34	-50.1	-52.6	6.1	0.00e+00	0	44	104	29603397632	60	52163
2026-01-22 07:03:57.13	350.62	4.28	-50.2	-52.6	6.1	0.00e+00	0	44	104	29603397632	60	52531
2026-01-22 07:03:58.14	350.48	4.22	-50.0	-52.4	6.1	0.00e+00	0	44	104	29603397632	60	51173
2026-01-22 07:03:59.15	350.34	4.17	-50.0	-52.5	6.1	0.00e+00	0	44	104	29603397632	60	51364
2026-01-22 07:04:00.16	350.20	4.11	-50.2	-52.7	6.1	0.00e+00	0	44	104	29603397632	60	53000
2026-01-22 07:04:01.17	350.06	4.06	-50.2	-52.7	6.1	0.00e+00	0	44	104	29603397632	60	52790
2026-01-22 07:04:02.18	349.92	4.00	-50.0	-52.5	6.1	0.00e+00	0	44	104	29603397632	60	51728
2026-01-22 07:04:03.19	349.78	3.94	-50.0	-52.4	6.1	0.00e+00	0	44	104	29603397632	60	51282
2026-01-22 07:04:04.19	349.65	3.89	-49.9	-52.5	6.1	0.00e+00	0	44	104	29603397632	60	51469
2026-01-22 07:04:05.20	349.51	3.83	-50.2	-52.7	6.1	0.00e+00	0	44	104	29603397632	60	52637
2026-01-22 07:04:06.21	349.38	3.78	-50.0	-52.5	6.1	0.00e+00	0	44	104	29603397632	60	51633
2026-01-22 07:04:07.22	349.24	3.72	-49.9	-52.4	6.1	0.00e+00	0	44	104	29603397632	60	50797
2026-01-22 07:04:08.23	349.11	3.66	-50.0	-52.5	6.1	0.00e+00	0	44	104	29603397632	60	51686
2026-01-22 07:04:09.24	348.98	3.61	-50.0	-52.5	6.1	0.00e+00	0	44	104	29603397632	60	51632
2026-01-22 07:04:10.25	348.85	3.55	-49.8	-52.2	6.1	0.00e+00	0	44	104	29603397632	60	50043
2026-01-22 07:04:11.26	348.71	3.50	-49.4	-51.9	6.1	0.00e+00	0	44	104	29603397632	60	48260
2026-01-22 07:04:12.27	348.58	3.44	-49.8	-52.3	6.1	0.00e+00	0	44	104	29603397632	60	50672
2026-01-22 07:04:13.28	348.45	3.38	-48.9	-51.4	6.1	0.00e+00	0	44	104	29603397632	60	45655
2026-01-22 07:04:14.29	348.32	3.33	-48.7	-51.2	6.1	0.00e+00	0	44	104	29603397632	60	44433
2026-01-22 07:04:15.29	348.20	3.27	-48.8	-51.3	6.1	0.00e+00	0	44	104	29603397632	60	45090
2026-01-22 07:04:16.31	348.07	3.22	-48.5	-50.9	6.1	0.00e+00	0	44	104	29603397632	60	43178
2026-01-22 07:04:17.31	347.94	3.16	-47.3	-49.8	6.1	0.00e+00	0	44	104	29603397632	60	37815
2026-01-22 07:04:18.32	347.81	3.11	-47.9	-50.4	6.1	0.00e+00	0	43	104	29603397632	60	40543
2026-01-22 07:04:19.33	347.69	3.05	-48.9	-51.4	6.1	0.00e+00	0	44	104	29603397632	60	45267
2026-01-22 07:04:20.34	347.56	3.00	-47.9	-50.3	6.1	0.00e+00	0	44	104	29603397632	60	40221
2026-01-22 07:04:21.35	347.43	2.94	-50.0	-52.5	6.1	0.00e+00	0	44	104	29603397632	60	51476
2026-01-22 07:04:22.36	347.31	2.88	-50.8	-53.3	6.1	0.00e+00	0	44	104	29603397632	60	56650
2026-01-22 07:04:23.37	347.19	2.83	-50.9	-53.4	6.1	0.00e+00	0	44	104	29603397632	60	57514
2026-01-22 07:04:24.38	347.06	2.77	-51.1	-53.7	6.1	0.00e+00	0	44	104	29603397632	60	59183
2026-01-22 07:04:25.39	346.94	2.72	-51.2	-53.7	6.1	0.00e+00	0	44	104	29603397632	60	59414
2026-01-22 07:04:26.40	346.82	2.66	-51.3	-53.8	6.1	0.00e+00	0	44	104	29603397632	60	59919
2026-01-22 07:04:27.40	346.70	2.61	-51.3	-53.8	6.1	0.00e+00	0	44	104	29603397632	60	60088
2026-01-22 07:04:28.41	346.58	2.55	-51.5	-54.0	6.1	0.00e+00	0	44	104	29603397632	60	61606
2026-01-22 07:04:29.42	346.46	2.50	-51.8	-54.3	6.1	0.00e+00	0	44	104	29603397632	60	63409
2026-01-22 07:04:30.43	346.34	2.44	-52.0	-54.5	6.1	0.00e+00	0	44	104	29603397632	60	64891
2026-01-22 07:04:31.44	346.22	2.39	-52.1	-54.5	6.1	0.00e+00	0	44	104	29603397632	60	65065
2026-01-22 07:04:32.45	346.10	2.33	-52.2	-54.7	6.1	0.00e+00	0	44	104	29603397632	60	66506
2026-01-22 07:04:33.46	345.98	2.28	-52.2	-54.6	6.1	0.00e+00	0	43	104	29603397632	60	65951
2026-01-22 07:04:34.47	345.86	2.22	-52.1	-54.5	6.1	0.00e+00	0	43	104	29603397632	60	65117
2026-01-22 07:04:35.48	345.75	2.17	-52.0	-54.5	6.1	0.00e+00	0	44	104	29603397632	60	64898
2026-01-22 07:04:36.49	345.63	2.11	-51.7	-54.1	6.1	0.00e+00	0	44	104	29603397632	60	62418
2026-01-22 07:04:37.50	345.51	2.06	-51.7	-54.1	6.1	0.00e+00	0	43	104	29603397632	60	62305
2026-01-22 07:04:38.51	345.40	2.00	-52.3	-54.8	6.1	0.00e+00	0	44	104	29603397632	60	67012
2026-01-22 07:04:39.52	345.28	1.95	-52.1	-54.6	6.1	0.00e+00	0	44	104	29603397632	60	65791
2026-01-22 07:04:40.53	345.17	1.89	-52.0	-54.5	6.1	0.00e+00	0	44	104	29603397632	60	64806
2026-01-22 07:04:41.54	345.06	1.84	-52.0	-54.4	6.1	0.00e+00	0	44	104	29603397632	60	64561
2026-01-22 07:04:42.55	344.94	1.78	-52.3	-54.7	6.1	0.00e+00	0	44	104	29603397632	60	66759
2026-01-22 07:04:43.57	344.83	1.73	-52.3	-54.8	6.1	0.00e+00	0	44	104	29603397632	60	67014
2026-01-22 07:04:44.57	344.72	1.68	-51.9	-54.4	6.1	0.00e+00	0	44	104	29603397632	60	63949
2026-01-22 07:04:45.59	344.61	1.62	-52.1	-54.5	6.1	0.00e+00	0	44	104	29603397632	60	65298
2026-01-22 07:04:46.59	344.50	1.57	-52.5	-54.9	6.1	0.00e+00	0	44	104	29603397632	60	68235
2026-01-22 07:04:47.60	344.39	1.51	-52.5	-54.9	6.1	0.00e+00	0	44	104	29603397632	60	68367
2026-01-22 07:04:48.61	344.28	1.46	-52.8	-55.3	6.1	0.00e+00	0	44	104	29603397632	60	71146
2026-01-22 07:04:49.62	344.17	1.40	-52.4	-54.9	6.1	0.00e+00	0	44	104	29603397632	60	67768
2026-01-22 07:04:50.63	344.06	1.35	-52.8	-55.3	6.1	0.00e+00	0	44	104	29603397632	60	71386
2026-01-22 07:04:51.64	343.95	1.30	-53.1	-55.5	6.1	0.00e+00	0	44	104	29603397632	60	73049
2026-01-22 07:04:52.65	343.84	1.24	-52.5	-54.9	6.1	0.00e+00	0	44	104	29603397632	60	68197
2026-01-22 07:04:53.66	343.74	1.19	-52.9	-55.4	6.1	0.00e+00	0	44	104	29603397632	60	72258
2026-01-22 07:04:54.67	343.63	1.13	-52.5	-54.9	6.1	0.00e+00	0	44	104	29603397632	60	68446
2026-01-22 07:04:55.68	343.52	1.08	-52.1	-54.6	6.1	0.00e+00	0	44	104	29603397632	60	65560
2026-01-22 07:04:56.69	343.42	1.03	-52.7	-55.2	6.1	0.00e+00	0	44	104	29603397632	60	70227
2026-01-22 07:04:57.70	343.31	0.97	-52.6	-55.1	6.1	0.00e+00	0	44	104	29603397632	60	69339
2026-01-22 07:04:58.71	343.21	0.92	-52.3	-54.8	6.1	0.00e+00	0	44	104	29603397632	60	67080
2026-01-22 07:04:59.72	343.10	0.86	-52.2	-54.7	6.1	0.00e+00	0	44	104	29603397632	60	66371
2026-01-22 07:05:00.73	343.00	0.81	-52.1	-54.6	6.1	0.00e+00	0	44	104	29603397632	60	65738
2026-01-22 07:05:01.74	342.90	0.76	-52.6	-55.1	6.1	0.00e+00	0	44	104	29603397632	60	69407
2026-01-22 07:05:02.75	342.79	0.70	-53.1	-55.5	6.1	0.00e+00	0	44	104	29603397632	60	73138
2026-01-22 07:05:03.76	342.69	0.65	-53.2	-55.7	6.0	0.00e+00	0	44	104	29603397632	60	74486
2026-01-22 07:05:04.77	342.59	0.60	-53.3	-55.7	6.1	0.00e+00	0	44	104	29603397632	60	75026
2026-01-22 07:05:05.78	342.49	0.54	-53.2	-55.7	6.1	0.00e+00	0	44	104	29603397632	60	74839
2026-01-22 07:05:06.79	342.39	0.49	-52.5	-55.0	6.1	0.00e+00	0	43	104	29603397632	60	68604
2026-01-22 07:05:07.80	342.29	0.44	-52.3	-54.7	6.1	0.00e+00	0	44	104	29603397632	60	66863
2026-01-22 07:05:08.80	342.19	0.38	-51.9	-54.3	6.1	0.00e+00	0	44	104	29603397632	60	63869
2026-01-22 07:05:09.81	342.09	0.33	-51.9	-54.4	6.1	0.00e+00	0	44	104	29603397632	60	64223
2026-01-22 07:05:10.83	341.99	0.28	-51.8	-54.3	6.1	0.00e+00	0	44	104	29603397632	60	63229
2026-01-22 07:05:11.83	341.89	0.22	-52.8	-55.2	6.1	0.00e+00	0	44	104	29603397632	60	70565
2026-01-22 07:05:12.84	341.79	0.17	-52.4	-54.9	6.1	0.00e+00	0	44	104	29603397632	60	68429
2026-01-22 07:05:13.85	341.70	0.12	-52.1	-54.6	6.1	0.00e+00	0	44	104	29603397632	60	65921
2026-01-22 07:05:14.86	341.60	0.07	-52.7	-55.1	6.1	0.00e+00	0	44	104	29603397632	60	69764
2026-01-22 07:05:15.87	341.50	0.01	-53.0	-55.5	6.1	0.00e+00	0	44	104	29603397632	60	72990

#Closed at: 2026-01-22 07:05:16
#Recorded file [29603 MB]: D:/lorett/data/35029_260122_185616.dat