passes_logs/2026/01/22/R4.6S_Anadyr/R4.6S_Anadyr__20260122_183141_FENGYUN_3D_rec.log

#Pass ID: 20260122_183141_FENGYUN 3D
#Satellite: FENGYUN 3D
#Configuration: FENGYUN 3D
#almurnet v.1.7.20251203
#Start time: 2026-01-22 18:31:44

#Version: 2.2.20231116
#Station: R4.6S_Anadyr
#Location: 177.4865 lon 64.73178 lat
#TLE: 1 43010U 17072A   26021.48744220  .00000253  00000+0  14133-3 0  9991
#TLE: 2 43010  98.9948 353.4037 0002485  97.2578 262.8880 14.19697766424177

#Time	Az	El	Level	Level2	SNR	BER	BlckErr	Temp	State	Recorded	gain1	gain2
2026-01-22 18:31:44.63	26.58	0.18	-51.8	-62.5	3.3	8.42e-01	0	40	0	0	60	48403
2026-01-22 18:31:45.64	26.54	0.24	-51.4	-63.6	3.6	8.45e-01	0	40	104	0	60	54605
2026-01-22 18:31:46.65	26.50	0.30	-51.3	-63.5	3.6	8.44e-01	0	40	104	0	60	53880
2026-01-22 18:31:47.66	26.46	0.36	-51.4	-63.5	3.6	8.45e-01	0	40	104	0	60	54006
2026-01-22 18:31:48.67	26.42	0.42	-51.2	-63.4	3.6	8.47e-01	0	40	104	0	60	53254
2026-01-22 18:31:49.68	26.38	0.47	-51.2	-63.3	3.6	8.44e-01	0	40	104	0	60	52839
2026-01-22 18:31:50.69	26.34	0.53	-51.1	-63.3	3.6	8.45e-01	0	40	104	0	60	52810
2026-01-22 18:31:51.70	26.30	0.59	-51.1	-63.3	3.6	8.45e-01	0	40	104	0	60	52672
2026-01-22 18:31:52.71	26.26	0.65	-51.1	-63.2	3.6	8.45e-01	0	40	104	0	60	52391
2026-01-22 18:31:53.72	26.22	0.71	-51.0	-63.2	3.6	8.44e-01	0	40	104	0	60	52126
2026-01-22 18:31:54.73	26.17	0.77	-51.0	-63.1	3.6	8.47e-01	0	40	104	0	60	51625
2026-01-22 18:31:55.74	26.13	0.83	-50.9	-63.1	3.6	8.45e-01	0	40	104	0	60	51504
2026-01-22 18:31:56.75	26.09	0.88	-50.9	-63.1	3.6	8.45e-01	0	40	104	0	60	51396
2026-01-22 18:31:57.76	26.05	0.94	-50.8	-62.9	3.6	8.45e-01	0	40	104	0	60	50618
2026-01-22 18:31:58.77	26.01	1.00	-50.7	-62.8	3.6	8.47e-01	0	41	104	0	60	50110
2026-01-22 18:31:59.79	25.97	1.06	-50.6	-62.7	3.6	8.44e-01	0	41	104	0	60	49431
2026-01-22 18:32:00.79	25.92	1.12	-50.4	-62.7	3.6	8.45e-01	0	40	104	0	60	49094
2026-01-22 18:32:01.81	25.88	1.18	-50.4	-62.5	3.6	8.46e-01	0	41	104	0	60	48465
2026-01-22 18:32:02.81	25.84	1.24	-50.3	-62.4	3.6	8.45e-01	0	40	104	0	60	47776
2026-01-22 18:32:03.83	25.79	1.30	-50.1	-62.3	3.6	8.45e-01	0	41	104	0	60	46953
2026-01-22 18:32:04.84	25.75	1.36	-50.0	-62.1	3.6	8.45e-01	0	40	104	0	60	45946
2026-01-22 18:32:05.85	25.71	1.42	-49.7	-61.7	3.6	8.46e-01	0	40	104	0	60	43785
2026-01-22 18:32:06.86	25.67	1.48	-49.5	-61.6	3.6	8.46e-01	0	40	104	0	60	43314
2026-01-22 18:32:07.87	25.62	1.54	-49.5	-61.6	3.6	8.45e-01	0	41	104	0	60	43618
2026-01-22 18:32:08.88	25.58	1.60	-49.6	-61.6	3.6	8.45e-01	0	41	104	0	60	43604
2026-01-22 18:32:09.89	25.53	1.66	-49.6	-61.7	3.6	8.45e-01	0	40	104	0	60	43795
2026-01-22 18:32:10.90	25.49	1.72	-49.6	-61.7	3.6	8.45e-01	0	41	104	0	60	43798
2026-01-22 18:32:11.91	25.45	1.78	-49.5	-61.7	3.6	8.45e-01	0	41	104	0	60	43760
2026-01-22 18:32:12.92	25.40	1.84	-49.5	-61.6	3.6	8.45e-01	0	41	104	0	60	43620
2026-01-22 18:32:13.93	25.36	1.90	-49.5	-61.5	3.6	8.46e-01	0	41	104	0	60	42791
2026-01-22 18:32:14.94	25.31	1.96	-49.5	-61.3	3.6	8.45e-01	0	41	104	0	60	41818
2026-01-22 18:32:15.95	25.27	2.02	-49.5	-61.2	3.6	8.44e-01	0	41	104	0	60	41487
2026-01-22 18:32:16.96	25.22	2.08	-49.5	-61.2	3.6	8.45e-01	0	41	104	0	60	41281
2026-01-22 18:32:17.97	25.17	2.15	-49.5	-60.9	3.6	8.45e-01	0	40	104	0	60	39887
2026-01-22 18:32:18.98	25.13	2.21	-49.5	-61.2	3.6	8.45e-01	0	41	104	0	60	41291
2026-01-22 18:32:19.99	25.08	2.27	-49.5	-61.3	3.6	8.46e-01	0	41	104	0	60	42113
2026-01-22 18:32:21.00	25.04	2.33	-49.5	-61.4	3.6	8.46e-01	0	41	104	0	60	42692
2026-01-22 18:32:22.01	24.99	2.39	-49.5	-61.6	3.6	8.45e-01	0	41	104	0	60	43452
2026-01-22 18:32:23.02	24.94	2.45	-49.5	-61.6	3.6	8.44e-01	0	41	104	0	60	43506
2026-01-22 18:32:24.03	24.90	2.51	-49.5	-61.6	3.6	8.45e-01	0	41	104	0	60	43688
2026-01-22 18:32:25.04	24.85	2.58	-49.5	-61.5	3.6	8.46e-01	0	41	104	0	60	43139
2026-01-22 18:32:26.05	24.80	2.64	-49.5	-61.5	3.6	8.46e-01	0	41	104	0	60	43008
2026-01-22 18:32:27.06	24.75	2.70	-49.5	-61.5	3.6	8.45e-01	0	41	104	0	60	43039
2026-01-22 18:32:28.07	24.71	2.76	-49.5	-61.3	3.6	8.46e-01	0	41	104	0	60	42148
2026-01-22 18:32:29.08	24.66	2.83	-49.5	-60.8	3.6	8.44e-01	0	41	104	0	60	39447
2026-01-22 18:32:30.09	24.61	2.89	-49.4	-60.3	3.6	8.46e-01	0	41	104	0	60	37485
2026-01-22 18:32:31.10	24.56	2.95	-49.4	-60.4	3.6	8.44e-01	0	41	104	0	60	37687
2026-01-22 18:32:32.11	24.51	3.01	-49.4	-60.4	3.6	8.45e-01	0	41	104	0	60	37855
2026-01-22 18:32:33.12	24.46	3.08	-49.4	-60.9	3.6	8.46e-01	0	41	104	0	60	39981
2026-01-22 18:32:34.13	24.42	3.14	-49.5	-61.4	3.6	8.45e-01	0	41	104	0	60	42397
2026-01-22 18:32:35.14	24.37	3.20	-49.4	-60.4	3.6	8.46e-01	0	41	104	0	60	37869
2026-01-22 18:32:36.15	24.32	3.27	-49.2	-58.9	3.8	8.44e-01	0	41	104	0	60	31812
2026-01-22 18:32:37.16	24.27	3.33	-48.8	-55.0	4.7	8.22e-01	0	41	0	0	60	20411
2026-01-22 18:32:38.17	24.22	3.39	-48.3	-53.2	6.4	5.18e-01	0	41	0	2097152	60	16468
2026-01-22 18:32:39.18	24.17	3.46	-48.2	-52.9	6.7	1.50e-01	0	41	0	8388608	60	16027
2026-01-22 18:32:40.19	24.12	3.52	-49.6	-60.8	3.6	8.45e-01	0	41	104	9437184	60	39790
2026-01-22 18:32:41.20	24.07	3.58	-49.6	-61.2	3.6	8.45e-01	0	41	104	9437184	60	41727
2026-01-22 18:32:42.22	24.01	3.65	-48.8	-56.1	6.6	4.88e-01	0	41	104	9437184	60	23031
2026-01-22 18:32:43.22	23.96	3.71	-39.9	-40.8	19.9	0.00e+00	0	41	0	13631488	52	6307
2026-01-22 18:32:44.23	23.91	3.78	-49.4	-60.2	3.6	8.46e-01	0	41	104	15728640	60	37134
2026-01-22 18:32:45.24	23.86	3.84	-41.0	-42.1	18.0	4.16e-02	0	41	104	15728640	56	5784
2026-01-22 18:32:46.25	23.81	3.90	-41.4	-42.5	18.6	0.00e+00	0	41	0	18874368	56	6089
2026-01-22 18:32:47.26	23.76	3.97	-40.7	-41.7	18.9	0.00e+00	0	41	0	25165824	54	6241
2026-01-22 18:32:48.27	23.70	4.03	-40.5	-41.5	19.3	0.00e+00	0	41	0	30408704	54	6069
2026-01-22 18:32:49.28	23.65	4.10	-40.1	-41.1	19.5	0.00e+00	0	41	0	36700160	54	5799
2026-01-22 18:32:50.29	23.60	4.16	-40.1	-41.1	19.7	0.00e+00	0	41	0	41943040	54	5798
2026-01-22 18:32:51.30	23.54	4.23	-39.4	-40.3	20.5	0.00e+00	0	41	0	47185920	52	5962
2026-01-22 18:32:52.31	23.49	4.29	-39.1	-40.0	20.9	0.00e+00	0	41	0	53477376	52	5703
2026-01-22 18:32:53.32	23.44	4.36	-38.6	-39.5	21.4	0.00e+00	0	41	0	58720256	50	6056
2026-01-22 18:32:54.33	23.38	4.43	-38.5	-39.3	21.5	0.00e+00	0	41	0	65011712	50	5955
2026-01-22 18:32:55.34	23.33	4.49	-38.3	-39.1	21.8	0.00e+00	0	41	0	70254592	50	5819
2026-01-22 18:32:56.36	23.27	4.56	-38.3	-39.1	21.7	0.00e+00	0	41	0	76546048	50	5798
2026-01-22 18:32:57.37	23.22	4.62	-38.3	-39.1	21.8	0.00e+00	0	41	0	81788928	50	5813
2026-01-22 18:32:58.38	23.16	4.69	-37.6	-38.4	22.5	0.00e+00	0	41	0	87031808	48	5990
2026-01-22 18:32:59.39	23.11	4.76	-37.8	-38.6	22.2	0.00e+00	0	41	0	93323264	48	6155
2026-01-22 18:33:00.40	23.05	4.82	-37.9	-38.7	22.2	0.00e+00	0	41	0	98566144	48	6232
2026-01-22 18:33:01.41	23.00	4.89	-37.7	-38.4	22.3	0.00e+00	0	41	0	104857600	48	6030
2026-01-22 18:33:02.42	22.94	4.96	-37.6	-38.3	22.5	0.00e+00	0	41	0	110100480	48	5948
2026-01-22 18:33:03.43	22.89	5.02	-37.6	-38.4	22.4	0.00e+00	0	41	0	115343360	48	5983
2026-01-22 18:33:04.44	22.83	5.09	-37.6	-38.4	22.4	0.00e+00	0	41	0	121634816	48	6019
2026-01-22 18:33:05.45	22.77	5.16	-37.4	-38.2	22.6	0.00e+00	0	41	0	126877696	48	5829
2026-01-22 18:33:06.46	22.71	5.22	-37.6	-38.4	22.5	0.00e+00	0	41	0	133169152	48	6011
2026-01-22 18:33:07.47	22.66	5.29	-37.4	-38.2	22.7	0.00e+00	0	41	0	138412032	48	5860
2026-01-22 18:33:08.48	22.60	5.36	-37.7	-38.5	22.4	0.00e+00	0	41	0	144703488	48	6064
2026-01-22 18:33:09.49	22.54	5.43	-37.6	-38.3	22.6	0.00e+00	0	41	0	149946368	48	5963
2026-01-22 18:33:10.50	22.48	5.49	-37.5	-38.3	22.5	0.00e+00	0	41	0	156237824	48	5924
2026-01-22 18:33:11.51	22.42	5.56	-38.0	-38.8	22.3	0.00e+00	0	41	0	161480704	48	6286
2026-01-22 18:33:12.52	22.36	5.63	-37.5	-38.3	22.6	0.00e+00	0	41	0	166723584	48	5915
2026-01-22 18:33:13.53	22.31	5.70	-37.8	-38.6	22.3	0.00e+00	0	41	0	173015040	48	6147
2026-01-22 18:33:14.54	22.25	5.77	-37.8	-38.6	22.4	0.00e+00	0	41	0	178257920	48	6110
2026-01-22 18:33:15.55	22.19	5.83	-37.6	-38.4	22.6	0.00e+00	0	41	0	184549376	48	5966
2026-01-22 18:33:16.56	22.13	5.90	-37.5	-38.3	22.6	0.00e+00	0	41	0	189792256	48	5957
2026-01-22 18:33:17.57	22.07	5.97	-37.6	-38.4	22.5	0.00e+00	0	41	0	195035136	48	6014
2026-01-22 18:33:18.58	22.00	6.04	-37.3	-38.1	22.8	0.00e+00	0	41	0	201326592	48	5783
2026-01-22 18:33:19.59	21.94	6.11	-37.6	-38.4	22.5	0.00e+00	0	41	0	206569472	48	6020
2026-01-22 18:33:20.60	21.88	6.18	-37.8	-38.6	22.4	0.00e+00	0	41	0	212860928	48	6108
2026-01-22 18:33:21.61	21.82	6.25	-37.9	-38.7	22.3	0.00e+00	0	41	0	218103808	48	6209
2026-01-22 18:33:22.61	21.76	6.32	-37.8	-38.6	22.4	0.00e+00	0	41	0	223346688	48	6135
2026-01-22 18:33:23.63	21.70	6.39	-38.0	-38.8	22.0	0.00e+00	0	41	0	229638144	48	6307
2026-01-22 18:33:24.63	21.63	6.46	-38.0	-38.8	22.4	0.00e+00	0	41	0	234881024	48	6253
2026-01-22 18:33:25.64	21.57	6.53	-38.0	-38.8	22.3	0.00e+00	0	41	0	241172480	48	6279
2026-01-22 18:33:26.66	21.51	6.60	-37.6	-38.3	22.7	0.00e+00	0	41	0	246415360	48	5960
2026-01-22 18:33:27.67	21.44	6.67	-37.7	-38.5	22.6	0.00e+00	0	41	0	252706816	48	6082
2026-01-22 18:33:28.67	21.38	6.74	-37.4	-38.2	22.8	0.00e+00	0	41	0	257949696	48	5849
2026-01-22 18:33:29.69	21.32	6.81	-37.5	-38.3	22.8	0.00e+00	0	41	0	263192576	48	5917
2026-01-22 18:33:30.70	21.25	6.88	-37.6	-38.3	22.8	0.00e+00	0	41	0	269484032	48	5936
2026-01-22 18:33:31.71	21.19	6.95	-37.4	-38.2	22.9	0.00e+00	0	41	0	274726912	48	5851
2026-01-22 18:33:32.71	21.12	7.02	-37.5	-38.2	22.8	0.00e+00	0	41	0	281018368	48	5892
2026-01-22 18:33:33.72	21.06	7.09	-37.4	-38.1	22.9	0.00e+00	0	41	0	286261248	48	5826
2026-01-22 18:33:34.73	20.99	7.16	-37.2	-37.9	23.1	0.00e+00	0	41	0	291504128	48	5692
2026-01-22 18:33:35.74	20.92	7.24	-37.4	-38.2	22.9	0.00e+00	0	41	0	297795584	48	5846
2026-01-22 18:33:36.75	20.86	7.31	-37.3	-38.0	23.1	0.00e+00	0	41	0	303038464	48	5735
2026-01-22 18:33:37.77	20.79	7.38	-37.2	-37.9	23.1	0.00e+00	0	41	0	309329920	48	5685
2026-01-22 18:33:38.78	20.72	7.45	-37.4	-38.1	23.0	0.00e+00	0	41	0	314572800	48	5801
2026-01-22 18:33:39.79	20.65	7.53	-37.0	-37.7	23.3	0.00e+00	0	41	0	319815680	48	5520
2026-01-22 18:33:40.79	20.59	7.60	-37.1	-37.9	23.2	0.00e+00	0	41	0	326107136	48	5631
2026-01-22 18:33:41.80	20.52	7.67	-37.1	-37.8	23.3	0.00e+00	0	41	0	331350016	48	5626
2026-01-22 18:33:42.82	20.45	7.74	-37.0	-37.7	23.3	0.00e+00	0	41	0	337641472	48	5563
2026-01-22 18:33:43.83	20.38	7.82	-36.9	-37.7	23.5	0.00e+00	0	41	0	342884352	48	5513
2026-01-22 18:33:44.83	20.31	7.89	-36.7	-37.5	23.6	0.00e+00	0	41	0	349175808	48	5380
2026-01-22 18:33:45.84	20.24	7.96	-36.9	-37.7	23.4	0.00e+00	0	41	0	354418688	46	6180
2026-01-22 18:33:46.85	20.17	8.04	-36.6	-37.3	23.7	0.00e+00	0	41	0	360710144	46	5964
2026-01-22 18:33:47.87	20.10	8.11	-36.8	-37.6	23.5	0.00e+00	0	41	0	365953024	46	6118
2026-01-22 18:33:48.88	20.03	8.18	-36.7	-37.4	23.6	0.00e+00	0	41	0	371195904	46	6007
2026-01-22 18:33:49.89	19.96	8.26	-36.9	-37.6	23.6	0.00e+00	0	41	0	377487360	46	6151
2026-01-22 18:33:50.90	19.89	8.33	-36.6	-37.3	23.7	0.00e+00	0	41	0	382730240	46	5954
2026-01-22 18:33:51.91	19.81	8.41	-36.6	-37.3	23.8	0.00e+00	0	41	0	389021696	46	5939
2026-01-22 18:33:52.91	19.74	8.48	-36.6	-37.3	23.8	0.00e+00	0	41	0	394264576	46	5947
2026-01-22 18:33:53.93	19.67	8.55	-36.7	-37.4	23.8	0.00e+00	0	41	0	399507456	46	5982
2026-01-22 18:33:54.94	19.59	8.63	-36.7	-37.4	23.8	0.00e+00	0	41	0	405798912	46	6012
2026-01-22 18:33:55.95	19.52	8.70	-36.7	-37.4	23.8	0.00e+00	0	41	0	411041792	46	5989
2026-01-22 18:33:56.96	19.45	8.78	-36.8	-37.5	23.7	0.00e+00	0	41	0	417333248	46	6060
2026-01-22 18:33:57.97	19.37	8.86	-36.7	-37.4	23.8	0.00e+00	0	41	0	422576128	46	6026
2026-01-22 18:33:58.98	19.30	8.93	-36.8	-37.5	23.7	0.00e+00	0	41	0	427819008	46	6064
2026-01-22 18:33:59.99	19.22	9.01	-36.8	-37.6	23.6	0.00e+00	0	41	0	434110464	46	6112
2026-01-22 18:34:01.00	19.15	9.08	-36.9	-37.6	23.6	0.00e+00	0	41	0	439353344	46	6166
2026-01-22 18:34:02.00	19.07	9.16	-36.9	-37.6	23.6	0.00e+00	0	41	0	445644800	46	6155
2026-01-22 18:34:03.01	18.99	9.23	-36.9	-37.6	23.5	0.00e+00	0	41	0	450887680	46	6114
2026-01-22 18:34:04.02	18.92	9.31	-36.7	-37.4	23.8	0.00e+00	0	41	0	457179136	46	6008
2026-01-22 18:34:05.03	18.84	9.39	-36.8	-37.5	23.7	0.00e+00	0	41	0	462422016	46	6060
2026-01-22 18:34:06.04	18.76	9.46	-36.6	-37.3	23.9	0.00e+00	0	41	0	467664896	46	5914
2026-01-22 18:34:07.05	18.68	9.54	-36.8	-37.5	23.7	0.00e+00	0	41	0	473956352	46	6100
2026-01-22 18:34:08.06	18.61	9.62	-36.7	-37.4	23.7	0.00e+00	0	41	0	479199232	46	5986
2026-01-22 18:34:09.07	18.53	9.70	-36.7	-37.4	23.7	0.00e+00	0	41	0	485490688	46	5991
2026-01-22 18:34:10.08	18.45	9.77	-36.6	-37.3	24.0	0.00e+00	0	41	0	490733568	46	5915
2026-01-22 18:34:11.09	18.37	9.85	-36.6	-37.3	23.9	0.00e+00	0	41	0	495976448	46	5943
2026-01-22 18:34:12.10	18.29	9.93	-36.6	-37.4	23.8	0.00e+00	0	41	0	502267904	46	5973
2026-01-22 18:34:13.11	18.21	10.01	-36.5	-37.2	23.9	0.00e+00	0	41	0	507510784	46	5888
2026-01-22 18:34:14.12	18.12	10.08	-36.5	-37.2	24.0	0.00e+00	0	41	0	513802240	46	5842
2026-01-22 18:34:15.13	18.04	10.16	-36.4	-37.2	24.1	0.00e+00	0	41	0	519045120	46	5829
2026-01-22 18:34:16.14	17.96	10.24	-36.4	-37.2	24.0	0.00e+00	0	41	0	524288000	46	5836
2026-01-22 18:34:17.15	17.88	10.32	-36.3	-37.0	24.2	0.00e+00	0	41	0	530579456	46	5727
2026-01-22 18:34:18.16	17.79	10.40	-36.4	-37.1	24.1	0.00e+00	0	41	0	535822336	46	5762
2026-01-22 18:34:19.17	17.71	10.48	-36.4	-37.2	24.2	0.00e+00	0	41	0	542113792	46	5837
2026-01-22 18:34:20.18	17.63	10.56	-36.3	-37.0	24.2	0.00e+00	0	41	0	547356672	46	5710
2026-01-22 18:34:21.19	17.54	10.64	-36.3	-37.0	24.2	0.00e+00	0	41	0	553648128	46	5711
2026-01-22 18:34:22.20	17.46	10.72	-36.3	-37.0	24.3	0.00e+00	0	41	0	558891008	46	5725
2026-01-22 18:34:23.21	17.37	10.80	-36.1	-36.8	24.3	0.00e+00	0	41	0	564133888	46	5618
2026-01-22 18:34:24.22	17.28	10.88	-36.0	-36.6	24.5	0.00e+00	0	41	0	570425344	46	5497
2026-01-22 18:34:25.23	17.20	10.96	-36.1	-36.7	24.5	0.00e+00	0	41	0	575668224	46	5556
2026-01-22 18:34:26.24	17.11	11.04	-36.0	-36.7	24.5	0.00e+00	0	41	0	581959680	46	5520
2026-01-22 18:34:27.25	17.02	11.12	-36.1	-36.8	24.4	0.00e+00	0	41	0	587202560	46	5613
2026-01-22 18:34:28.26	16.93	11.20	-36.1	-36.8	24.5	0.00e+00	0	41	0	593494016	46	5572
2026-01-22 18:34:29.27	16.85	11.28	-36.2	-36.9	24.3	0.00e+00	0	41	0	598736896	46	5632
2026-01-22 18:34:30.28	16.76	11.36	-36.1	-36.8	24.4	0.00e+00	0	41	0	603979776	46	5598
2026-01-22 18:34:31.29	16.67	11.45	-36.0	-36.7	24.5	0.00e+00	0	41	0	610271232	46	5553
2026-01-22 18:34:32.30	16.58	11.53	-36.1	-36.8	24.5	0.00e+00	0	41	0	615514112	46	5567
2026-01-22 18:34:33.31	16.49	11.61	-36.1	-36.8	24.4	0.00e+00	0	41	0	621805568	46	5573
2026-01-22 18:34:34.32	16.39	11.69	-35.8	-36.5	24.7	0.00e+00	0	41	0	627048448	46	5409
2026-01-22 18:34:35.33	16.30	11.77	-35.8	-36.5	24.7	0.00e+00	0	41	0	632291328	44	6057
2026-01-22 18:34:36.34	16.21	11.86	-35.8	-36.5	24.7	0.00e+00	0	41	0	638582784	44	6096
2026-01-22 18:34:37.36	16.12	11.94	-35.8	-36.5	24.7	0.00e+00	0	41	0	643825664	44	6043
2026-01-22 18:34:38.37	16.02	12.02	-35.8	-36.5	24.7	0.00e+00	0	41	0	650117120	44	6038
2026-01-22 18:34:39.38	15.93	12.11	-35.9	-36.6	24.6	0.00e+00	0	41	0	655360000	44	6155
2026-01-22 18:34:40.39	15.83	12.19	-35.8	-36.4	24.8	0.00e+00	0	41	0	661651456	44	6033
2026-01-22 18:34:41.40	15.74	12.27	-35.6	-36.3	24.9	0.00e+00	0	41	0	666894336	44	5939
2026-01-22 18:34:42.41	15.64	12.36	-35.6	-36.3	24.8	0.00e+00	0	41	0	673185792	44	5926
2026-01-22 18:34:43.42	15.55	12.44	-35.6	-36.3	24.8	0.00e+00	0	41	0	678428672	44	5939
2026-01-22 18:34:44.43	15.45	12.53	-35.6	-36.3	24.9	0.00e+00	0	41	0	683671552	44	5936
2026-01-22 18:34:45.44	15.35	12.61	-35.6	-36.2	25.0	0.00e+00	0	41	0	689963008	44	5896
2026-01-22 18:34:46.45	15.26	12.70	-35.3	-36.0	25.1	0.00e+00	0	41	0	695205888	44	5707
2026-01-22 18:34:47.46	15.16	12.78	-35.4	-36.0	25.1	0.00e+00	0	41	0	701497344	44	5736
2026-01-22 18:34:48.47	15.06	12.87	-35.5	-36.2	25.1	0.00e+00	0	41	0	706740224	44	5836
2026-01-22 18:34:49.48	14.96	12.95	-35.6	-36.3	25.0	0.00e+00	0	41	0	711983104	44	5905
2026-01-22 18:34:50.49	14.86	13.04	-35.7	-36.4	24.9	0.00e+00	0	41	0	718274560	44	5989
2026-01-22 18:34:51.50	14.76	13.12	-35.6	-36.3	25.0	0.00e+00	0	41	0	723517440	44	5923
2026-01-22 18:34:52.51	14.66	13.21	-35.7	-36.4	24.9	0.00e+00	0	41	0	729808896	44	5971
2026-01-22 18:34:53.52	14.55	13.29	-35.6	-36.3	24.9	0.00e+00	0	41	0	735051776	44	5922
2026-01-22 18:34:54.53	14.45	13.38	-35.7	-36.3	24.9	0.00e+00	0	41	0	740294656	44	5958
2026-01-22 18:34:55.54	14.35	13.47	-35.6	-36.3	24.9	0.00e+00	0	41	0	746586112	44	5955
2026-01-22 18:34:56.55	14.24	13.55	-35.5	-36.2	25.1	0.00e+00	0	41	0	751828992	44	5874
2026-01-22 18:34:57.56	14.14	13.64	-35.6	-36.3	25.0	0.00e+00	0	41	0	758120448	44	5940
2026-01-22 18:34:58.57	14.03	13.73	-35.5	-36.2	25.1	0.00e+00	0	41	0	763363328	44	5849
2026-01-22 18:34:59.58	13.93	13.82	-35.6	-36.2	25.0	0.00e+00	0	41	0	769654784	44	5885
2026-01-22 18:35:00.59	13.82	13.90	-35.4	-36.1	25.1	0.00e+00	0	41	0	774897664	44	5786
2026-01-22 18:35:01.60	13.71	13.99	-35.4	-36.1	25.2	0.00e+00	0	41	0	781189120	44	5792
2026-01-22 18:35:02.61	13.60	14.08	-35.2	-35.9	25.3	0.00e+00	0	41	0	786432000	44	5676
2026-01-22 18:35:03.62	13.50	14.17	-35.2	-35.9	25.4	0.00e+00	0	41	0	791674880	44	5647
2026-01-22 18:35:04.63	13.39	14.26	-35.2	-35.9	25.3	0.00e+00	0	41	0	797966336	44	5679
2026-01-22 18:35:05.64	13.28	14.35	-35.2	-35.9	25.3	0.00e+00	0	41	0	803209216	44	5665
2026-01-22 18:35:06.65	13.17	14.43	-35.2	-35.9	25.2	0.00e+00	0	41	0	809500672	44	5670
2026-01-22 18:35:07.66	13.06	14.52	-35.2	-35.8	25.3	0.00e+00	0	41	0	814743552	44	5628
2026-01-22 18:35:08.67	12.94	14.61	-35.3	-36.0	25.2	0.00e+00	0	41	0	819986432	44	5733
2026-01-22 18:35:09.68	12.83	14.70	-35.2	-35.9	25.4	0.00e+00	0	41	0	826277888	44	5687
2026-01-22 18:35:10.69	12.72	14.79	-35.2	-35.9	25.4	0.00e+00	0	41	0	831520768	44	5662
2026-01-22 18:35:11.70	12.60	14.88	-35.2	-35.9	25.3	0.00e+00	0	41	0	837812224	44	5654
2026-01-22 18:35:12.71	12.49	14.97	-35.2	-35.9	25.3	0.00e+00	0	41	0	843055104	44	5652
2026-01-22 18:35:13.71	12.37	15.06	-35.2	-35.8	25.3	0.00e+00	0	41	0	848297984	44	5615
2026-01-22 18:35:14.72	12.26	15.15	-35.0	-35.6	25.6	0.00e+00	0	41	0	854589440	44	5481
2026-01-22 18:35:15.74	12.14	15.24	-34.8	-35.5	25.7	0.00e+00	0	41	0	859832320	44	5388
2026-01-22 18:35:16.74	12.02	15.33	-34.9	-35.5	25.7	0.00e+00	0	41	0	866123776	44	5435
2026-01-22 18:35:17.76	11.90	15.43	-34.8	-35.5	25.7	0.00e+00	0	41	0	871366656	44	5385
2026-01-22 18:35:18.77	11.78	15.52	-34.8	-35.5	25.8	0.00e+00	0	41	0	877658112	42	6043
2026-01-22 18:35:19.78	11.66	15.61	-34.7	-35.3	25.8	0.00e+00	0	41	0	882900992	42	5952
2026-01-22 18:35:20.79	11.54	15.70	-34.6	-35.3	25.9	0.00e+00	0	41	0	888143872	42	5900
2026-01-22 18:35:21.80	11.42	15.79	-34.8	-35.5	25.8	0.00e+00	0	41	0	894435328	42	6046
2026-01-22 18:35:22.81	11.30	15.89	-34.8	-35.4	25.9	0.00e+00	0	41	0	899678208	42	6016
2026-01-22 18:35:23.82	11.18	15.98	-34.7	-35.3	25.9	0.00e+00	0	41	0	905969664	42	5932
2026-01-22 18:35:24.83	11.05	16.07	-34.8	-35.4	25.8	0.00e+00	0	41	0	911212544	42	6013
2026-01-22 18:35:25.84	10.93	16.17	-34.7	-35.4	25.8	0.00e+00	0	41	0	916455424	42	5969
2026-01-22 18:35:26.85	10.80	16.26	-35.0	-35.7	25.7	0.00e+00	0	41	0	922746880	42	6175
2026-01-22 18:35:27.86	10.68	16.35	-34.9	-35.6	25.6	0.00e+00	0	41	0	927989760	42	6129
2026-01-22 18:35:28.87	10.55	16.45	-35.2	-35.9	25.5	0.00e+00	0	41	0	934281216	42	6326
2026-01-22 18:35:29.88	10.42	16.54	-35.5	-36.2	25.2	0.00e+00	0	41	0	939524096	42	6591
2026-01-22 18:35:30.89	10.29	16.63	-34.9	-35.6	25.7	0.00e+00	0	41	0	944766976	42	6131
2026-01-22 18:35:31.90	10.16	16.73	-34.9	-35.6	25.6	0.00e+00	0	41	0	951058432	42	6164
2026-01-22 18:35:32.91	10.03	16.82	-34.9	-35.6	25.7	0.00e+00	0	41	0	956301312	42	6128
2026-01-22 18:35:33.92	9.90	16.92	-34.8	-35.5	25.8	0.00e+00	0	41	0	962592768	42	6071
2026-01-22 18:35:34.93	9.77	17.01	-34.8	-35.4	25.9	0.00e+00	0	41	0	967835648	42	6019
2026-01-22 18:35:35.94	9.64	17.11	-34.7	-35.4	25.9	0.00e+00	0	41	0	974127104	42	5991
2026-01-22 18:35:36.95	9.50	17.20	-34.6	-35.2	26.0	0.00e+00	0	41	0	979369984	42	5873
2026-01-22 18:35:37.96	9.37	17.30	-34.5	-35.2	26.0	0.00e+00	0	41	0	984612864	42	5876
2026-01-22 18:35:38.97	9.23	17.39	-34.5	-35.1	26.1	0.00e+00	0	41	0	990904320	42	5796
2026-01-22 18:35:39.98	9.10	17.49	-34.6	-35.2	26.1	0.00e+00	0	41	0	996147200	42	5896
2026-01-22 18:35:41.00	8.96	17.59	-34.6	-35.3	26.0	0.00e+00	0	41	0	1002438656	42	5920
2026-01-22 18:35:42.01	8.82	17.68	-34.5	-35.1	26.1	0.00e+00	0	41	0	1007681536	42	5796
2026-01-22 18:35:43.02	8.68	17.78	-34.5	-35.1	26.1	0.00e+00	0	41	0	1013972992	42	5819
2026-01-22 18:35:44.03	8.54	17.88	-34.5	-35.1	26.1	0.00e+00	0	41	0	1019215872	42	5817
2026-01-22 18:35:45.04	8.40	17.98	-34.4	-35.0	26.2	0.00e+00	0	41	0	1024458752	42	5748
2026-01-22 18:35:46.05	8.26	18.07	-34.3	-34.9	26.3	0.00e+00	0	41	0	1030750208	42	5677
2026-01-22 18:35:47.06	8.11	18.17	-34.2	-34.9	26.4	0.00e+00	0	41	0	1035993088	42	5631
2026-01-22 18:35:48.07	7.97	18.27	-34.0	-34.6	26.5	0.00e+00	0	41	0	1042284544	42	5489
2026-01-22 18:35:49.08	7.82	18.37	-34.2	-34.8	26.4	0.00e+00	0	41	0	1047527424	42	5594
2026-01-22 18:35:50.09	7.68	18.46	-34.0	-34.7	26.5	0.00e+00	0	41	0	1052770304	42	5518
2026-01-22 18:35:51.10	7.53	18.56	-34.0	-34.5	26.5	0.00e+00	0	41	0	1059061760	42	5438
2026-01-22 18:35:52.11	7.38	18.66	-34.0	-34.7	26.6	0.00e+00	0	41	0	1064304640	42	5540
2026-01-22 18:35:53.12	7.24	18.76	-34.0	-34.6	26.5	0.00e+00	0	41	0	1070596096	42	5500
2026-01-22 18:35:54.13	7.09	18.86	-34.0	-34.6	26.5	0.00e+00	0	41	0	1075838976	42	5496
2026-01-22 18:35:55.14	6.94	18.96	-34.0	-34.6	26.5	0.00e+00	0	41	0	1082130432	42	5496
2026-01-22 18:35:56.15	6.78	19.06	-34.0	-34.7	26.6	0.00e+00	0	41	0	1087373312	42	5507
2026-01-22 18:35:57.16	6.63	19.15	-33.9	-34.5	26.7	0.00e+00	0	41	0	1093664768	42	5432
2026-01-22 18:35:58.17	6.48	19.25	-33.9	-34.5	26.7	0.00e+00	0	41	0	1098907648	42	5426
2026-01-22 18:35:59.18	6.32	19.35	-33.9	-34.5	26.7	0.00e+00	0	41	0	1104150528	42	5410
2026-01-22 18:36:00.19	6.17	19.45	-34.0	-34.6	26.6	0.00e+00	0	41	0	1110441984	42	5446
2026-01-22 18:36:01.20	6.01	19.55	-34.0	-34.6	26.6	0.00e+00	0	41	0	1115684864	42	5496
2026-01-22 18:36:02.21	5.85	19.65	-33.9	-34.5	26.6	0.00e+00	0	41	0	1121976320	42	5411
2026-01-22 18:36:03.22	5.69	19.75	-34.0	-34.7	26.5	0.00e+00	0	41	0	1127219200	42	5509
2026-01-22 18:36:04.23	5.53	19.86	-33.9	-34.5	26.6	0.00e+00	0	41	0	1132462080	42	5429
2026-01-22 18:36:05.24	5.37	19.96	-33.9	-34.5	26.6	0.00e+00	0	41	0	1138753536	42	5406
2026-01-22 18:36:06.25	5.21	20.06	-33.8	-34.4	26.9	0.00e+00	0	41	0	1143996416	42	5353
2026-01-22 18:36:07.26	5.05	20.16	-33.8	-34.5	26.8	0.00e+00	0	41	0	1150287872	40	6049
2026-01-22 18:36:08.27	4.88	20.26	-33.8	-34.5	26.8	0.00e+00	0	41	0	1155530752	40	6035
2026-01-22 18:36:09.28	4.72	20.36	-33.9	-34.6	26.7	0.00e+00	0	41	0	1160773632	40	6127
2026-01-22 18:36:10.29	4.55	20.46	-34.0	-34.6	26.6	0.00e+00	0	41	0	1167065088	40	6135
2026-01-22 18:36:11.30	4.38	20.56	-33.9	-34.5	26.8	0.00e+00	0	41	0	1172307968	40	6065
2026-01-22 18:36:12.31	4.21	20.67	-33.8	-34.5	26.7	0.00e+00	0	41	0	1178599424	40	6056
2026-01-22 18:36:13.32	4.04	20.77	-33.9	-34.5	26.8	0.00e+00	0	41	0	1183842304	40	6068
2026-01-22 18:36:14.33	3.87	20.87	-33.9	-34.6	26.6	0.00e+00	0	41	0	1189085184	40	6111
2026-01-22 18:36:15.34	3.70	20.97	-34.0	-34.6	26.7	0.00e+00	0	41	0	1195376640	40	6146
2026-01-22 18:36:16.35	3.53	21.08	-33.5	-34.1	27.0	0.00e+00	0	41	0	1200619520	40	5792
2026-01-22 18:36:17.36	3.35	21.18	-33.3	-34.0	27.1	0.00e+00	0	41	0	1206910976	40	5715
2026-01-22 18:36:18.37	3.18	21.28	-33.3	-33.9	27.2	0.00e+00	0	41	0	1212153856	40	5692
2026-01-22 18:36:19.38	3.00	21.38	-33.2	-33.8	27.3	0.00e+00	0	41	0	1218445312	40	5622
2026-01-22 18:36:20.39	2.82	21.49	-33.2	-33.8	27.2	0.00e+00	0	41	0	1223688192	40	5612
2026-01-22 18:36:21.40	2.64	21.59	-33.3	-33.9	27.2	0.00e+00	0	41	0	1229979648	40	5686
2026-01-22 18:36:22.41	2.46	21.69	-33.4	-34.1	27.1	0.00e+00	0	41	0	1235222528	40	5783
2026-01-22 18:36:23.42	2.28	21.80	-33.5	-34.1	27.0	0.00e+00	0	41	0	1240465408	40	5806
2026-01-22 18:36:24.44	2.10	21.90	-33.7	-34.3	26.9	0.00e+00	0	41	0	1246756864	40	5942
2026-01-22 18:36:25.45	1.91	22.00	-33.8	-34.4	26.8	0.00e+00	0	41	0	1251999744	40	6000
2026-01-22 18:36:26.46	1.73	22.11	-33.5	-34.1	27.0	0.00e+00	0	41	0	1258291200	40	5800
2026-01-22 18:36:27.47	1.54	22.21	-33.4	-34.1	27.1	0.00e+00	0	41	0	1263534080	40	5782
2026-01-22 18:36:28.48	1.35	22.32	-33.3	-34.0	27.1	0.00e+00	0	41	0	1268776960	40	5715
2026-01-22 18:36:29.41	1.18	22.41	-33.4	-34.0	27.1	0.00e+00	0	41	0	1275068416	40	5724
2026-01-22 18:36:30.42	0.99	22.51	-33.3	-33.9	27.2	0.00e+00	0	41	0	1280311296	40	5679
2026-01-22 18:36:31.43	0.79	22.62	-33.3	-34.0	27.1	0.00e+00	0	41	0	1286602752	40	5698
2026-01-22 18:36:32.44	0.60	22.72	-33.4	-34.1	27.1	0.00e+00	0	41	0	1291845632	40	5785
2026-01-22 18:36:33.45	0.41	22.83	-33.5	-34.2	27.0	0.00e+00	0	41	0	1297088512	40	5830
2026-01-22 18:36:34.46	0.21	22.93	-33.4	-34.0	27.1	0.00e+00	0	41	0	1303379968	40	5713
2026-01-22 18:36:35.47	0.01	23.04	-33.6	-34.2	26.9	0.00e+00	0	41	0	1308622848	40	5889
2026-01-22 18:36:36.48	359.81	23.14	-33.2	-33.8	27.2	0.00e+00	0	41	0	1314914304	40	5569
2026-01-22 18:36:37.49	359.61	23.24	-33.1	-33.8	27.3	0.00e+00	0	41	0	1320157184	40	5571
2026-01-22 18:36:38.50	359.41	23.35	-33.2	-33.9	27.2	0.00e+00	0	41	0	1326448640	40	5652
2026-01-22 18:36:39.51	359.21	23.45	-33.2	-33.9	27.2	0.00e+00	0	41	0	1331691520	40	5642
2026-01-22 18:36:40.52	359.01	23.56	-33.2	-33.8	27.3	0.00e+00	0	41	0	1337982976	40	5574
2026-01-22 18:36:41.53	358.80	23.66	-33.2	-33.8	27.2	0.00e+00	0	41	0	1343225856	40	5627
2026-01-22 18:36:42.54	358.59	23.77	-33.1	-33.8	27.2	0.00e+00	0	41	0	1348468736	40	5578
2026-01-22 18:36:43.55	358.39	23.87	-33.1	-33.7	27.4	0.00e+00	0	41	0	1354760192	40	5515
2026-01-22 18:36:44.56	358.18	23.98	-33.1	-33.7	27.2	0.00e+00	0	41	0	1360003072	40	5544
2026-01-22 18:36:45.57	357.96	24.08	-33.2	-33.8	27.2	0.00e+00	0	41	0	1366294528	40	5628
2026-01-22 18:36:46.58	357.75	24.19	-33.2	-33.9	27.2	0.00e+00	0	41	0	1371537408	40	5651
2026-01-22 18:36:47.59	357.54	24.29	-33.0	-33.6	27.4	0.00e+00	0	41	0	1376780288	40	5467
2026-01-22 18:36:48.60	357.32	24.39	-32.9	-33.5	27.5	0.00e+00	0	41	0	1383071744	40	5404
2026-01-22 18:36:49.61	357.11	24.50	-32.9	-33.5	27.5	0.00e+00	0	41	0	1388314624	40	5420
2026-01-22 18:36:50.62	356.89	24.60	-32.7	-33.3	27.7	0.00e+00	0	41	0	1393557504	38	5950
2026-01-22 18:36:51.63	356.67	24.71	-32.8	-33.4	27.6	0.00e+00	0	41	0	1399848960	38	6027
2026-01-22 18:36:52.64	356.45	24.81	-32.8	-33.4	27.6	0.00e+00	0	41	0	1406140416	38	5987
2026-01-22 18:36:53.65	356.22	24.92	-32.7	-33.3	27.7	0.00e+00	0	41	0	1411383296	38	5924
2026-01-22 18:36:54.65	356.00	25.02	-32.8	-33.4	27.6	0.00e+00	0	41	0	1416626176	38	6018
2026-01-22 18:36:55.66	355.78	25.12	-32.9	-33.5	27.5	0.00e+00	0	41	0	1422917632	38	6102
2026-01-22 18:36:56.67	355.55	25.23	-32.9	-33.5	27.5	0.00e+00	0	41	0	1428160512	38	6067
2026-01-22 18:36:57.68	355.32	25.33	-33.1	-33.7	27.3	0.00e+00	0	41	0	1434451968	38	6229
2026-01-22 18:36:58.69	355.09	25.44	-32.8	-33.4	27.7	0.00e+00	0	41	0	1439694848	38	6019
2026-01-22 18:36:59.70	354.86	25.54	-32.7	-33.3	27.6	0.00e+00	0	41	0	1444937728	38	5926
2026-01-22 18:37:00.71	354.62	25.64	-32.5	-33.1	27.8	0.00e+00	0	41	0	1451229184	38	5793
2026-01-22 18:37:01.72	354.39	25.75	-32.5	-33.1	27.9	0.00e+00	0	41	0	1456472064	38	5766
2026-01-22 18:37:02.73	354.15	25.85	-32.4	-33.0	28.0	0.00e+00	0	41	0	1462763520	38	5721
2026-01-22 18:37:03.74	353.91	25.95	-32.5	-33.0	27.8	0.00e+00	0	41	0	1468006400	38	5759
2026-01-22 18:37:04.75	353.67	26.06	-32.5	-33.0	27.8	0.00e+00	0	41	0	1473249280	38	5760
2026-01-22 18:37:05.76	353.43	26.16	-32.5	-33.2	27.9	0.00e+00	0	41	0	1479540736	38	5846
2026-01-22 18:37:06.77	353.19	26.26	-32.5	-33.1	27.9	0.00e+00	0	41	0	1484783616	38	5773
2026-01-22 18:37:07.78	352.95	26.37	-32.4	-33.0	27.8	0.00e+00	0	41	0	1491075072	38	5724
2026-01-22 18:37:08.79	352.70	26.47	-32.5	-33.2	27.8	0.00e+00	0	41	0	1496317952	38	5830
2026-01-22 18:37:09.80	352.45	26.57	-32.4	-33.0	27.9	0.00e+00	0	41	0	1501560832	38	5710
2026-01-22 18:37:10.80	352.21	26.67	-32.3	-33.0	27.9	0.00e+00	0	41	0	1507852288	38	5704
2026-01-22 18:37:11.81	351.95	26.77	-32.5	-33.1	27.8	0.00e+00	0	41	0	1513095168	38	5828
2026-01-22 18:37:12.82	351.70	26.87	-32.3	-32.9	28.0	0.00e+00	0	41	0	1519386624	38	5659
2026-01-22 18:37:13.84	351.45	26.98	-32.3	-32.9	28.1	0.00e+00	0	41	0	1524629504	38	5650
2026-01-22 18:37:14.84	351.19	27.08	-32.2	-32.8	28.0	0.00e+00	0	41	0	1530920960	38	5605
2026-01-22 18:37:15.85	350.93	27.18	-32.3	-32.9	28.0	0.00e+00	0	41	0	1536163840	38	5652
2026-01-22 18:37:16.86	350.68	27.28	-32.3	-32.9	28.0	0.00e+00	0	41	0	1541406720	38	5651
2026-01-22 18:37:17.87	350.41	27.38	-32.4	-33.0	27.9	0.00e+00	0	41	0	1547698176	38	5754
2026-01-22 18:37:18.88	350.15	27.48	-32.4	-33.1	27.9	0.00e+00	0	41	0	1552941056	38	5762
2026-01-22 18:37:19.89	349.89	27.58	-32.6	-33.2	27.7	0.00e+00	0	41	0	1559232512	38	5866
2026-01-22 18:37:20.90	349.62	27.68	-32.6	-33.3	27.7	0.00e+00	0	41	0	1564475392	38	5900
2026-01-22 18:37:21.91	349.35	27.78	-32.6	-33.2	27.8	0.00e+00	0	41	0	1569718272	38	5889
2026-01-22 18:37:22.92	349.09	27.87	-32.6	-33.2	27.7	0.00e+00	0	41	0	1576009728	38	5872
2026-01-22 18:37:23.93	348.81	27.97	-32.4	-33.1	27.8	0.00e+00	0	41	0	1581252608	38	5767
2026-01-22 18:37:24.94	348.54	28.07	-32.5	-33.2	27.8	0.00e+00	0	41	0	1587544064	38	5841
2026-01-22 18:37:25.95	348.27	28.17	-32.3	-32.9	28.0	0.00e+00	0	41	0	1592786944	38	5682
2026-01-22 18:37:26.96	347.99	28.27	-32.4	-33.0	27.7	0.00e+00	0	41	0	1599078400	38	5739
2026-01-22 18:37:27.97	347.71	28.36	-32.6	-33.3	27.7	0.00e+00	0	41	0	1604321280	38	5897
2026-01-22 18:37:28.98	347.44	28.46	-32.8	-33.4	27.7	0.00e+00	0	41	0	1609564160	38	5985
2026-01-22 18:37:29.99	347.15	28.55	-32.6	-33.2	27.8	0.00e+00	0	41	0	1615855616	38	5878
2026-01-22 18:37:31.00	346.87	28.65	-32.8	-33.3	27.6	0.00e+00	0	41	0	1621098496	38	5950
2026-01-22 18:37:32.00	346.59	28.74	-32.5	-33.0	27.8	0.00e+00	0	41	0	1627389952	38	5761
2026-01-22 18:37:33.02	346.30	28.84	-32.3	-32.9	28.0	0.00e+00	0	41	0	1632632832	38	5685
2026-01-22 18:37:34.02	346.02	28.93	-32.4	-33.1	27.9	0.00e+00	0	41	0	1638924288	38	5782
2026-01-22 18:37:35.04	345.72	29.03	-32.4	-33.0	27.9	0.00e+00	0	41	0	1644167168	38	5705
2026-01-22 18:37:36.05	345.43	29.12	-32.3	-32.9	28.0	0.00e+00	0	41	0	1649410048	38	5642
2026-01-22 18:37:37.05	345.14	29.21	-32.3	-32.9	28.0	0.00e+00	0	41	0	1655701504	38	5689
2026-01-22 18:37:38.06	344.85	29.30	-32.2	-32.8	28.1	0.00e+00	0	41	0	1660944384	38	5616
2026-01-22 18:37:39.07	344.55	29.39	-32.0	-32.6	28.2	0.00e+00	0	41	0	1667235840	38	5490
2026-01-22 18:37:40.08	344.25	29.48	-31.9	-32.5	28.3	0.00e+00	0	41	0	1672478720	38	5414
2026-01-22 18:37:41.09	343.95	29.58	-32.0	-32.5	28.4	0.00e+00	0	41	0	1677721600	38	5437
2026-01-22 18:37:42.10	343.65	29.66	-32.2	-32.8	28.1	0.00e+00	0	41	0	1684013056	38	5596
2026-01-22 18:37:43.11	343.35	29.75	-32.3	-32.9	28.0	0.00e+00	0	41	0	1689255936	38	5663
2026-01-22 18:37:44.12	343.05	29.84	-32.4	-33.0	28.0	0.00e+00	0	41	0	1695547392	38	5733
2026-01-22 18:37:45.13	342.74	29.93	-32.3	-32.9	28.0	0.00e+00	0	41	0	1700790272	38	5686
2026-01-22 18:37:46.14	342.43	30.02	-32.3	-32.9	28.0	0.00e+00	0	41	0	1706033152	38	5691
2026-01-22 18:37:47.15	342.12	30.10	-32.4	-33.0	28.0	0.00e+00	0	41	0	1712324608	38	5709
2026-01-22 18:37:48.16	341.81	30.19	-32.4	-32.9	28.0	0.00e+00	0	41	0	1717567488	38	5695
2026-01-22 18:37:49.17	341.50	30.27	-32.3	-32.8	28.0	0.00e+00	0	41	0	1723858944	38	5628
2026-01-22 18:37:50.18	341.18	30.36	-32.4	-32.9	27.9	0.00e+00	0	41	0	1729101824	38	5695
2026-01-22 18:37:51.19	340.87	30.44	-32.2	-32.8	28.1	0.00e+00	0	41	0	1735393280	38	5584
2026-01-22 18:37:52.20	340.55	30.52	-32.2	-32.7	28.2	0.00e+00	0	41	0	1740636160	38	5553
2026-01-22 18:37:53.21	340.23	30.61	-32.1	-32.7	28.2	0.00e+00	0	41	0	1745879040	38	5554
2026-01-22 18:37:54.22	339.91	30.69	-32.1	-32.7	28.3	0.00e+00	0	41	0	1752170496	38	5564
2026-01-22 18:37:55.23	339.58	30.77	-32.1	-32.7	28.2	0.00e+00	0	41	0	1757413376	38	5533
2026-01-22 18:37:56.24	339.26	30.85	-32.0	-32.7	28.2	0.00e+00	0	41	0	1763704832	38	5520
2026-01-22 18:37:57.25	338.93	30.93	-32.2	-32.8	28.2	0.00e+00	0	41	0	1768947712	38	5629
2026-01-22 18:37:58.26	338.60	31.00	-32.0	-32.6	28.3	0.00e+00	0	41	0	1774190592	38	5484
2026-01-22 18:37:59.27	338.28	31.08	-32.0	-32.7	28.2	0.00e+00	0	41	0	1780482048	38	5516
2026-01-22 18:38:00.28	337.94	31.16	-32.2	-32.8	28.2	0.00e+00	0	41	0	1785724928	38	5602
2026-01-22 18:38:01.29	337.61	31.23	-32.1	-32.7	28.3	0.00e+00	0	41	0	1792016384	38	5516
2026-01-22 18:38:02.30	337.28	31.31	-31.9	-32.5	28.3	0.00e+00	0	41	0	1797259264	38	5410
2026-01-22 18:38:03.31	336.94	31.38	-31.9	-32.6	28.3	0.00e+00	0	41	0	1802502144	38	5455
2026-01-22 18:38:04.32	336.60	31.45	-32.0	-32.6	28.4	0.00e+00	0	41	0	1808793600	38	5461
2026-01-22 18:38:05.33	336.27	31.53	-31.8	-32.3	28.5	0.00e+00	0	41	0	1814036480	36	5944
2026-01-22 18:38:06.33	335.93	31.60	-31.7	-32.3	28.4	0.00e+00	0	41	0	1820327936	36	5946
2026-01-22 18:38:07.35	335.58	31.67	-31.7	-32.3	28.5	0.00e+00	0	41	0	1825570816	36	5947
2026-01-22 18:38:08.36	335.24	31.73	-31.9	-32.5	28.4	0.00e+00	0	41	0	1831862272	36	6041
2026-01-22 18:38:09.37	334.90	31.80	-32.1	-32.7	28.2	0.00e+00	0	41	0	1837105152	36	6197
2026-01-22 18:38:10.38	334.55	31.87	-32.1	-32.7	28.2	0.00e+00	0	41	0	1843396608	36	6194
2026-01-22 18:38:11.39	334.20	31.93	-32.1	-32.7	28.2	0.00e+00	0	41	0	1848639488	36	6175
2026-01-22 18:38:12.40	333.85	32.00	-32.1	-32.8	28.2	0.00e+00	0	41	0	1853882368	36	6252
2026-01-22 18:38:13.41	333.50	32.06	-32.0	-32.6	28.3	0.00e+00	0	41	0	1860173824	36	6127
2026-01-22 18:38:14.42	333.15	32.12	-31.8	-32.4	28.4	0.00e+00	0	41	0	1865416704	36	5975
2026-01-22 18:38:15.43	332.80	32.19	-31.7	-32.3	28.5	0.00e+00	0	41	0	1871708160	36	5915
2026-01-22 18:38:16.44	332.44	32.25	-31.7	-32.3	28.5	0.00e+00	0	41	0	1876951040	36	5950
2026-01-22 18:38:17.45	332.09	32.31	-31.7	-32.3	28.5	0.00e+00	0	41	0	1882193920	36	5945
2026-01-22 18:38:18.46	331.73	32.36	-31.9	-32.5	28.4	0.00e+00	0	41	0	1888485376	36	6067
2026-01-22 18:38:19.47	331.37	32.42	-32.0	-32.6	28.3	0.00e+00	0	41	0	1893728256	36	6163
2026-01-22 18:38:20.48	331.01	32.48	-32.1	-32.7	28.2	0.00e+00	0	41	0	1900019712	36	6219
2026-01-22 18:38:21.49	330.65	32.53	-32.0	-32.6	28.2	0.00e+00	0	41	0	1905262592	36	6172
2026-01-22 18:38:22.50	330.29	32.58	-32.0	-32.6	28.3	0.00e+00	0	41	0	1910505472	36	6138
2026-01-22 18:38:23.51	329.93	32.64	-31.8	-32.4	28.5	0.00e+00	0	41	0	1916796928	36	5975
2026-01-22 18:38:24.52	329.56	32.69	-31.7	-32.3	28.5	0.00e+00	0	41	0	1922039808	36	5923
2026-01-22 18:38:25.53	329.20	32.74	-31.7	-32.3	28.4	0.00e+00	0	41	0	1928331264	36	5913
2026-01-22 18:38:26.54	328.83	32.78	-31.5	-32.1	28.5	0.00e+00	0	41	0	1933574144	36	5828
2026-01-22 18:38:27.55	328.46	32.83	-31.6	-32.1	28.6	0.00e+00	0	41	0	1939865600	36	5824
2026-01-22 18:38:28.56	328.09	32.88	-31.6	-32.2	28.6	0.00e+00	0	41	0	1945108480	36	5875
2026-01-22 18:38:29.57	327.72	32.92	-31.7	-32.3	28.5	0.00e+00	0	41	0	1951399936	36	5912
2026-01-22 18:38:30.58	327.35	32.96	-31.7	-32.3	28.5	0.00e+00	0	41	0	1956642816	36	5941
2026-01-22 18:38:31.59	326.98	33.01	-31.7	-32.3	28.5	0.00e+00	0	41	0	1961885696	36	5946
2026-01-22 18:38:32.60	326.61	33.05	-31.7	-32.3	28.5	0.00e+00	0	41	0	1968177152	36	5947
2026-01-22 18:38:33.61	326.23	33.09	-31.9	-32.5	28.4	0.00e+00	0	41	0	1973420032	36	6039
2026-01-22 18:38:34.62	325.86	33.12	-31.8	-32.3	28.4	0.00e+00	0	41	0	1979711488	36	5950
2026-01-22 18:38:35.63	325.48	33.16	-31.8	-32.4	28.5	0.00e+00	0	41	0	1984954368	36	5966
2026-01-22 18:38:36.64	325.11	33.20	-31.7	-32.2	28.6	0.00e+00	0	41	0	1990197248	36	5872
2026-01-22 18:38:37.64	324.73	33.23	-31.7	-32.2	28.6	0.00e+00	0	41	0	1996488704	36	5893
2026-01-22 18:38:38.65	324.36	33.26	-31.7	-32.3	28.5	0.00e+00	0	41	0	2001731584	36	5921
2026-01-22 18:38:39.67	323.97	33.29	-31.8	-32.4	28.5	0.00e+00	0	41	0	2006974464	36	6026
2026-01-22 18:38:40.68	323.60	33.32	-32.0	-32.6	28.4	0.00e+00	0	41	0	2013265920	36	6108
2026-01-22 18:38:41.69	323.22	33.35	-31.7	-32.3	28.5	0.00e+00	0	41	0	2018508800	36	5922
2026-01-22 18:38:42.70	322.83	33.38	-31.8	-32.5	28.5	0.00e+00	0	41	0	2024800256	36	6037
2026-01-22 18:38:43.71	322.45	33.40	-32.1	-32.7	28.4	0.00e+00	0	41	0	2030043136	36	6174
2026-01-22 18:38:44.72	322.07	33.43	-32.1	-32.7	28.3	0.00e+00	0	41	0	2036334592	36	6198
2026-01-22 18:38:45.73	321.69	33.45	-32.0	-32.6	28.3	0.00e+00	0	41	0	2041577472	36	6127
2026-01-22 18:38:46.74	321.31	33.47	-32.0	-32.6	28.4	0.00e+00	0	41	0	2047868928	36	6140
2026-01-22 18:38:47.75	320.92	33.49	-31.9	-32.5	28.4	0.00e+00	0	41	0	2053111808	36	6092
2026-01-22 18:38:48.76	320.54	33.51	-31.9	-32.5	28.4	0.00e+00	0	41	0	2058354688	36	6085
2026-01-22 18:38:49.77	320.15	33.53	-31.8	-32.4	28.5	0.00e+00	0	41	0	2064646144	36	5967
2026-01-22 18:38:50.78	319.77	33.54	-31.9	-32.4	28.4	0.00e+00	0	41	0	2069889024	36	6025
2026-01-22 18:38:51.79	319.38	33.55	-32.0	-32.6	28.2	0.00e+00	0	41	0	2076180480	36	6136
2026-01-22 18:38:52.80	319.00	33.57	-31.7	-32.3	28.5	0.00e+00	0	41	0	2081423360	36	5958
2026-01-22 18:38:53.82	318.61	33.58	-31.6	-32.3	28.6	0.00e+00	0	41	0	2086666240	36	5907
2026-01-22 18:38:54.83	318.22	33.59	-31.6	-32.2	28.6	0.00e+00	0	41	0	2092957696	36	5849
2026-01-22 18:38:55.84	317.84	33.60	-31.7	-32.3	28.6	0.00e+00	0	41	0	2098200576	36	5950
2026-01-22 18:38:56.85	317.45	33.60	-31.8	-32.4	28.5	0.00e+00	0	41	0	2104492032	36	6009
2026-01-22 18:38:57.86	317.06	33.61	-32.0	-32.6	28.3	0.00e+00	0	41	0	2109734912	36	6119
2026-01-22 18:38:58.87	316.68	33.61	-31.8	-32.4	28.4	0.00e+00	0	41	0	2114977792	36	6032
2026-01-22 18:38:59.88	316.29	33.61	-31.8	-32.4	28.4	0.00e+00	0	41	0	2121269248	36	5999
2026-01-22 18:39:00.89	315.90	33.61	-31.9	-32.5	28.4	0.00e+00	0	41	0	2126512128	36	6045
2026-01-22 18:39:01.90	315.52	33.61	-31.9	-32.5	28.5	0.00e+00	0	41	0	2132803584	36	6039
2026-01-22 18:39:02.91	315.13	33.61	-31.7	-32.3	28.6	0.00e+00	0	41	0	2138046464	36	5915
2026-01-22 18:39:03.92	314.74	33.61	-31.7	-32.3	28.5	0.00e+00	0	41	0	2144337920	36	5911
2026-01-22 18:39:04.93	314.36	33.60	-31.7	-32.3	28.5	0.00e+00	0	41	0	2149580800	36	5914
2026-01-22 18:39:05.94	313.97	33.59	-31.7	-32.3	28.5	0.00e+00	0	41	0	2155872256	36	5907
2026-01-22 18:39:06.95	313.58	33.59	-31.6	-32.2	28.5	0.00e+00	0	41	0	2161115136	36	5876
2026-01-22 18:39:07.96	313.20	33.58	-31.7	-32.2	28.4	0.00e+00	0	41	0	2166358016	36	5878
2026-01-22 18:39:08.97	312.81	33.56	-31.9	-32.5	28.3	0.00e+00	0	41	0	2172649472	36	6066
2026-01-22 18:39:09.98	312.43	33.55	-31.9	-32.5	28.4	0.00e+00	0	41	0	2177892352	36	6038
2026-01-22 18:39:10.99	312.04	33.54	-31.6	-32.2	28.6	0.00e+00	0	41	0	2184183808	36	5856
2026-01-22 18:39:12.00	311.66	33.52	-31.7	-32.3	28.5	0.00e+00	0	41	0	2189426688	36	5942
2026-01-22 18:39:13.01	311.27	33.51	-31.7	-32.4	28.5	0.00e+00	0	41	0	2194669568	36	5971
2026-01-22 18:39:14.02	310.89	33.49	-32.0	-32.6	28.3	0.00e+00	0	41	0	2200961024	36	6108
2026-01-22 18:39:15.03	310.50	33.47	-32.0	-32.6	28.3	0.00e+00	0	41	0	2206203904	36	6162
2026-01-22 18:39:16.05	310.12	33.44	-31.9	-32.5	28.4	0.00e+00	0	41	0	2212495360	36	6081
2026-01-22 18:39:17.06	309.74	33.42	-31.8	-32.4	28.5	0.00e+00	0	41	0	2217738240	36	5982
2026-01-22 18:39:18.07	309.35	33.40	-31.9	-32.5	28.5	0.00e+00	0	41	0	2222981120	36	6047
2026-01-22 18:39:19.08	308.97	33.37	-32.0	-32.5	28.5	0.00e+00	0	41	0	2229272576	36	6102
2026-01-22 18:39:20.09	308.59	33.34	-31.9	-32.5	28.4	0.00e+00	0	41	0	2234515456	36	6087
2026-01-22 18:39:21.10	308.21	33.32	-31.8	-32.4	28.4	0.00e+00	0	41	0	2240806912	36	5998
2026-01-22 18:39:22.11	307.83	33.29	-31.7	-32.3	28.6	0.00e+00	0	41	0	2246049792	36	5953
2026-01-22 18:39:23.12	307.45	33.25	-31.6	-32.2	28.6	0.00e+00	0	41	0	2252341248	36	5887
2026-01-22 18:39:24.13	307.07	33.22	-31.6	-32.2	28.6	0.00e+00	0	41	0	2257584128	36	5849
2026-01-22 18:39:25.14	306.70	33.19	-31.6	-32.2	28.7	0.00e+00	0	41	0	2263875584	36	5858
2026-01-22 18:39:26.15	306.32	33.15	-31.4	-31.9	28.8	0.00e+00	0	41	0	2269118464	36	5677
2026-01-22 18:39:27.16	305.95	33.12	-31.6	-32.2	28.6	0.00e+00	0	41	0	2274361344	36	5854
2026-01-22 18:39:28.17	305.57	33.08	-31.5	-32.1	28.6	0.00e+00	0	41	0	2280652800	36	5769
2026-01-22 18:39:29.18	305.20	33.04	-31.5	-32.1	28.7	0.00e+00	0	41	0	2285895680	36	5825
2026-01-22 18:39:30.19	304.82	33.00	-31.5	-32.1	28.7	0.00e+00	0	41	0	2292187136	36	5776
2026-01-22 18:39:31.19	304.46	32.95	-31.7	-32.2	28.6	0.00e+00	0	41	0	2297430016	36	5886
2026-01-22 18:39:32.21	304.08	32.91	-31.9	-32.5	28.4	0.00e+00	0	41	0	2302672896	36	6073
2026-01-22 18:39:33.21	303.71	32.87	-32.0	-32.6	28.2	0.00e+00	0	41	0	2308964352	36	6138
2026-01-22 18:39:34.22	303.35	32.82	-31.9	-32.5	28.4	0.00e+00	0	41	0	2314207232	36	6038
2026-01-22 18:39:35.23	302.98	32.77	-32.1	-32.7	28.3	0.00e+00	0	41	0	2320498688	36	6209
2026-01-22 18:39:36.24	302.61	32.72	-32.1	-32.7	28.2	0.00e+00	0	41	0	2325741568	36	6236
2026-01-22 18:39:37.25	302.25	32.67	-32.1	-32.7	28.3	0.00e+00	0	41	0	2330984448	36	6208
2026-01-22 18:39:38.26	301.88	32.62	-31.9	-32.5	28.4	0.00e+00	0	41	0	2337275904	36	6053
2026-01-22 18:39:39.27	301.52	32.57	-31.8	-32.4	28.5	0.00e+00	0	41	0	2342518784	36	5972
2026-01-22 18:39:40.28	301.15	32.52	-31.9	-32.5	28.3	0.00e+00	0	41	0	2348810240	36	6067
2026-01-22 18:39:41.29	300.79	32.46	-31.8	-32.4	28.3	0.00e+00	0	41	0	2354053120	36	5995
2026-01-22 18:39:42.30	300.43	32.41	-31.7	-32.3	28.6	0.00e+00	0	41	0	2360344576	36	5929
2026-01-22 18:39:43.31	300.08	32.35	-31.8	-32.3	28.4	0.00e+00	0	41	0	2365587456	36	5959
2026-01-22 18:39:44.32	299.72	32.29	-31.8	-32.4	28.5	0.00e+00	0	41	0	2370830336	36	6025
2026-01-22 18:39:45.33	299.36	32.23	-31.8	-32.4	28.4	0.00e+00	0	41	0	2377121792	36	5966
2026-01-22 18:39:46.34	299.01	32.17	-31.9	-32.6	28.3	0.00e+00	0	41	0	2382364672	36	6126
2026-01-22 18:39:47.35	298.65	32.11	-31.9	-32.4	28.5	0.00e+00	0	41	0	2388656128	36	6027
2026-01-22 18:39:48.36	298.30	32.05	-31.9	-32.6	28.2	0.00e+00	0	41	0	2393899008	36	6143
2026-01-22 18:39:49.37	297.95	31.98	-31.8	-32.3	28.4	0.00e+00	0	41	0	2399141888	36	5951
2026-01-22 18:39:50.38	297.60	31.92	-31.9	-32.5	28.4	0.00e+00	0	41	0	2405433344	36	6069
2026-01-22 18:39:51.38	297.26	31.85	-31.8	-32.4	28.5	0.00e+00	0	41	0	2410676224	36	6002
2026-01-22 18:39:52.39	296.91	31.79	-31.9	-32.4	28.4	0.00e+00	0	41	0	2416967680	36	6025
2026-01-22 18:39:53.40	296.57	31.72	-32.0	-32.6	28.3	0.00e+00	0	41	0	2422210560	36	6114
2026-01-22 18:39:54.41	296.22	31.65	-32.1	-32.8	28.2	0.00e+00	0	41	0	2427453440	36	6271
2026-01-22 18:39:55.42	295.88	31.58	-32.0	-32.5	28.4	0.00e+00	0	41	0	2433744896	36	6100
2026-01-22 18:39:56.43	295.54	31.51	-31.9	-32.5	28.4	0.00e+00	0	41	0	2438987776	36	6069
2026-01-22 18:39:57.44	295.20	31.44	-31.8	-32.4	28.5	0.00e+00	0	41	0	2445279232	36	5968
2026-01-22 18:39:58.45	294.86	31.36	-31.8	-32.5	28.4	0.00e+00	0	41	0	2450522112	36	6036
2026-01-22 18:39:59.46	294.53	31.29	-31.9	-32.5	28.5	0.00e+00	0	41	0	2456813568	36	6047
2026-01-22 18:40:00.47	294.19	31.21	-31.9	-32.4	28.4	0.00e+00	0	41	0	2462056448	36	6017
2026-01-22 18:40:01.48	293.86	31.14	-31.9	-32.6	28.3	0.00e+00	0	41	0	2468347904	36	6121
2026-01-22 18:40:02.49	293.53	31.06	-32.0	-32.6	28.2	0.00e+00	0	41	0	2473590784	36	6162
2026-01-22 18:40:03.50	293.20	30.98	-32.0	-32.6	28.4	0.00e+00	0	41	0	2478833664	36	6154
2026-01-22 18:40:04.51	292.87	30.91	-31.9	-32.6	28.5	0.00e+00	0	41	0	2485125120	36	6129
2026-01-22 18:40:05.52	292.55	30.83	-32.1	-32.7	28.2	0.00e+00	0	41	0	2490368000	36	6215
2026-01-22 18:40:06.52	292.22	30.75	-32.0	-32.6	28.3	0.00e+00	0	41	0	2496659456	36	6119
2026-01-22 18:40:07.53	291.90	30.67	-31.9	-32.5	28.5	0.00e+00	0	41	0	2501902336	36	6049
2026-01-22 18:40:08.54	291.58	30.59	-32.0	-32.5	28.3	0.00e+00	0	41	0	2507145216	36	6091
2026-01-22 18:40:09.55	291.26	30.50	-32.0	-32.7	28.3	0.00e+00	0	41	0	2513436672	36	6203
2026-01-22 18:40:10.56	290.94	30.42	-32.1	-32.8	28.2	0.00e+00	0	41	0	2518679552	36	6287
2026-01-22 18:40:11.58	290.62	30.34	-32.2	-32.9	28.2	0.00e+00	0	41	0	2524971008	36	6374
2026-01-22 18:40:12.58	290.31	30.25	-32.5	-33.1	28.1	0.00e+00	0	41	0	2530213888	36	6512
2026-01-22 18:40:13.59	289.99	30.17	-32.6	-33.2	27.9	0.00e+00	0	41	0	2535456768	36	6561
2026-01-22 18:40:14.60	289.68	30.08	-32.4	-33.1	28.0	0.00e+00	0	41	0	2541748224	36	6498
2026-01-22 18:40:15.61	289.37	29.99	-32.1	-32.7	28.2	0.00e+00	0	41	0	2546991104	36	6177
2026-01-22 18:40:16.62	289.06	29.91	-32.0	-32.6	28.3	0.00e+00	0	41	0	2553282560	36	6126
2026-01-22 18:40:17.63	288.76	29.82	-32.0	-32.7	28.4	0.00e+00	0	41	0	2558525440	36	6183
2026-01-22 18:40:18.64	288.45	29.73	-32.2	-32.7	28.2	0.00e+00	0	41	0	2564816896	36	6226
2026-01-22 18:40:19.65	288.15	29.64	-32.2	-32.9	28.2	0.00e+00	0	41	0	2570059776	36	6331
2026-01-22 18:40:20.66	287.85	29.55	-32.2	-32.9	28.2	0.00e+00	0	41	0	2575302656	36	6327
2026-01-22 18:40:21.67	287.55	29.46	-32.2	-32.7	28.1	0.00e+00	0	41	0	2581594112	36	6218
2026-01-22 18:40:22.68	287.25	29.37	-32.3	-32.9	28.0	0.00e+00	0	41	0	2586836992	36	6342
2026-01-22 18:40:23.69	286.95	29.28	-32.5	-33.1	28.0	0.00e+00	0	41	0	2593128448	36	6467
2026-01-22 18:40:24.71	286.65	29.18	-32.5	-33.1	27.9	0.00e+00	0	41	0	2598371328	36	6523
2026-01-22 18:40:25.72	286.36	29.09	-32.5	-33.0	28.0	0.00e+00	0	41	0	2603614208	36	6441
2026-01-22 18:40:26.73	286.07	29.00	-32.4	-33.0	28.0	0.00e+00	0	41	0	2609905664	36	6391
2026-01-22 18:40:27.74	285.78	28.90	-32.5	-33.0	27.9	0.00e+00	0	41	0	2615148544	36	6443
2026-01-22 18:40:28.75	285.49	28.81	-32.5	-33.1	27.8	0.00e+00	0	41	0	2621440000	36	6469
2026-01-22 18:40:29.76	285.21	28.71	-32.6	-33.1	27.8	0.00e+00	0	41	0	2626682880	36	6502
2026-01-22 18:40:30.77	284.92	28.62	-32.7	-33.3	27.9	0.00e+00	0	41	0	2632974336	36	6692
2026-01-22 18:40:31.78	284.64	28.52	-32.6	-33.3	27.7	0.00e+00	0	41	0	2638217216	36	6643
2026-01-22 18:40:32.79	284.36	28.43	-32.4	-33.0	28.0	0.00e+00	0	41	0	2643460096	36	6457
2026-01-22 18:40:33.80	284.08	28.33	-32.6	-33.1	27.8	0.00e+00	0	41	0	2649751552	36	6506
2026-01-22 18:40:34.81	283.80	28.23	-32.5	-33.2	27.9	0.00e+00	0	41	0	2654994432	36	6582
2026-01-22 18:40:35.82	283.52	28.14	-32.3	-32.9	28.0	0.00e+00	0	41	0	2661285888	36	6337
2026-01-22 18:40:36.83	283.25	28.04	-32.4	-33.0	28.0	0.00e+00	0	41	0	2666528768	36	6414
2026-01-22 18:40:37.84	282.98	27.94	-32.4	-33.1	28.0	0.00e+00	0	41	0	2672820224	36	6491
2026-01-22 18:40:38.85	282.70	27.84	-32.4	-33.1	28.0	0.00e+00	0	41	0	2678063104	36	6525
2026-01-22 18:40:39.86	282.43	27.74	-32.5	-33.0	28.0	0.00e+00	0	41	0	2683305984	36	6463
2026-01-22 18:40:40.87	282.17	27.64	-32.4	-33.0	27.9	0.00e+00	0	41	0	2689597440	36	6449
2026-01-22 18:40:41.88	281.90	27.54	-32.4	-33.1	28.0	0.00e+00	0	41	0	2694840320	36	6479
2026-01-22 18:40:42.89	281.64	27.44	-32.5	-33.1	27.7	0.00e+00	0	41	0	2701131776	36	6532
2026-01-22 18:40:43.90	281.37	27.34	-32.4	-33.0	27.8	0.00e+00	0	41	0	2706374656	36	6392
2026-01-22 18:40:44.91	281.11	27.24	-32.5	-33.0	27.7	0.00e+00	0	41	0	2711617536	36	6464
2026-01-22 18:40:45.92	280.85	27.14	-32.5	-33.2	27.6	0.00e+00	0	41	0	2717908992	36	6560
2026-01-22 18:40:46.93	280.59	27.04	-32.6	-33.2	27.6	0.00e+00	0	41	0	2723151872	36	6543
2026-01-22 18:40:47.93	280.34	26.94	-32.7	-33.4	27.6	0.00e+00	0	41	0	2729443328	36	6733
2026-01-22 18:40:48.94	280.09	26.84	-32.6	-33.2	27.5	0.00e+00	0	41	0	2734686208	38	5843
2026-01-22 18:40:49.95	279.83	26.74	-32.6	-33.2	27.7	0.00e+00	0	41	0	2739929088	38	5875
2026-01-22 18:40:50.96	279.58	26.63	-32.5	-33.2	27.6	0.00e+00	0	41	0	2746220544	38	5868
2026-01-22 18:40:51.98	279.33	26.53	-32.6	-33.2	27.4	0.00e+00	0	41	0	2751463424	38	5838
2026-01-22 18:40:52.99	279.08	26.43	-32.6	-33.2	27.5	0.00e+00	0	41	0	2757754880	38	5840
2026-01-22 18:40:54.00	278.84	26.33	-32.6	-33.3	27.5	0.00e+00	0	41	0	2762997760	38	5917
2026-01-22 18:40:55.01	278.59	26.22	-32.6	-33.1	27.4	0.00e+00	0	41	0	2769289216	38	5813
2026-01-22 18:40:56.02	278.35	26.12	-32.6	-33.1	27.4	0.00e+00	0	41	0	2774532096	38	5783
2026-01-22 18:40:57.03	278.11	26.02	-32.5	-33.2	27.3	0.00e+00	0	41	0	2780823552	38	5858
2026-01-22 18:40:58.04	277.87	25.91	-32.4	-32.9	27.3	0.00e+00	0	41	0	2786066432	38	5670
2026-01-22 18:40:59.05	277.63	25.81	-32.6	-33.2	27.6	0.00e+00	0	41	0	2791309312	38	5880
2026-01-22 18:41:00.06	277.39	25.71	-32.7	-33.2	27.2	0.00e+00	0	41	0	2797600768	38	5883
2026-01-22 18:41:01.07	277.16	25.60	-32.8	-33.4	27.3	0.00e+00	0	41	0	2802843648	38	5999
2026-01-22 18:41:02.08	276.92	25.50	-32.9	-33.6	27.2	0.00e+00	0	41	0	2809135104	38	6140
2026-01-22 18:41:03.09	276.69	25.39	-33.0	-33.7	27.4	0.00e+00	0	41	0	2814377984	38	6186
2026-01-22 18:41:04.10	276.46	25.29	-33.0	-33.6	27.3	0.00e+00	0	41	0	2819620864	38	6135
2026-01-22 18:41:05.11	276.23	25.18	-33.0	-33.7	27.2	0.00e+00	0	41	0	2825912320	38	6210
2026-01-22 18:41:06.12	276.00	25.08	-33.0	-33.6	27.3	0.00e+00	0	41	0	2831155200	38	6173
2026-01-22 18:41:07.13	275.78	24.98	-32.9	-33.6	27.4	0.00e+00	0	41	0	2837446656	38	6128
2026-01-22 18:41:08.14	275.55	24.87	-33.0	-33.7	27.3	0.00e+00	0	41	0	2842689536	38	6177
2026-01-22 18:41:09.15	275.33	24.77	-33.0	-33.6	27.3	0.00e+00	0	41	0	2847932416	38	6112
2026-01-22 18:41:10.16	275.11	24.66	-32.9	-33.6	27.4	0.00e+00	0	41	0	2854223872	38	6143
2026-01-22 18:41:11.17	274.89	24.56	-32.9	-33.6	27.3	0.00e+00	0	41	0	2859466752	38	6108
2026-01-22 18:41:12.18	274.67	24.45	-32.9	-33.4	27.4	0.00e+00	0	41	0	2865758208	38	6033
2026-01-22 18:41:13.19	274.45	24.35	-33.0	-33.7	27.4	0.00e+00	0	41	0	2871001088	38	6212
2026-01-22 18:41:14.20	274.23	24.24	-33.1	-33.6	27.2	0.00e+00	0	41	0	2877292544	38	6146
2026-01-22 18:41:15.21	274.02	24.14	-33.1	-33.6	27.2	0.00e+00	0	41	0	2882535424	38	6160
2026-01-22 18:41:16.22	273.81	24.03	-33.1	-33.6	27.2	0.00e+00	0	41	0	2888826880	38	6137
2026-01-22 18:41:17.23	273.60	23.93	-33.0	-33.5	27.4	0.00e+00	0	41	0	2894069760	38	6097
2026-01-22 18:41:18.24	273.39	23.82	-32.9	-33.6	27.4	0.00e+00	0	41	0	2899312640	38	6110
2026-01-22 18:41:19.25	273.18	23.72	-32.9	-33.4	27.4	0.00e+00	0	41	0	2905604096	38	6015
2026-01-22 18:41:20.26	272.97	23.61	-32.9	-33.5	27.4	0.00e+00	0	41	0	2910846976	38	6094
2026-01-22 18:41:21.27	272.76	23.51	-33.0	-33.6	27.3	0.00e+00	0	41	0	2917138432	38	6170
2026-01-22 18:41:22.28	272.56	23.40	-33.0	-33.6	27.3	0.00e+00	0	41	0	2922381312	38	6116
2026-01-22 18:41:23.29	272.36	23.30	-32.9	-33.5	27.3	0.00e+00	0	41	0	2927624192	38	6046
2026-01-22 18:41:24.30	272.15	23.19	-33.0	-33.7	27.3	0.00e+00	0	41	0	2933915648	38	6179
2026-01-22 18:41:25.31	271.95	23.09	-33.0	-33.6	27.2	0.00e+00	0	41	0	2939158528	38	6163
2026-01-22 18:41:26.32	271.76	22.98	-33.1	-33.8	27.2	0.00e+00	0	41	0	2945449984	38	6292
2026-01-22 18:41:27.33	271.56	22.88	-33.1	-33.7	27.1	0.00e+00	0	41	0	2950692864	38	6212
2026-01-22 18:41:28.34	271.36	22.78	-33.3	-33.9	27.0	0.00e+00	0	41	0	2955935744	38	6326
2026-01-22 18:41:29.35	271.17	22.67	-33.5	-34.2	26.9	0.00e+00	0	41	0	2962227200	38	6596
2026-01-22 18:41:30.36	270.97	22.57	-33.3	-34.0	27.0	0.00e+00	0	41	0	2967470080	38	6455
2026-01-22 18:41:31.37	270.78	22.46	-33.5	-34.1	26.9	0.00e+00	0	41	0	2973761536	38	6531
2026-01-22 18:41:32.38	270.59	22.36	-33.5	-34.2	27.0	0.00e+00	0	41	0	2979004416	38	6564
2026-01-22 18:41:33.39	270.40	22.25	-33.4	-34.1	27.1	0.00e+00	0	41	0	2985295872	38	6471
2026-01-22 18:41:34.40	270.21	22.15	-33.5	-34.2	26.9	0.00e+00	0	41	0	2990538752	38	6573
2026-01-22 18:41:35.41	270.02	22.05	-33.5	-34.0	26.9	0.00e+00	0	41	0	2995781632	38	6463
2026-01-22 18:41:36.42	269.84	21.94	-33.3	-34.0	27.1	0.00e+00	0	41	0	3002073088	38	6456
2026-01-22 18:41:37.43	269.65	21.84	-33.2	-33.8	27.0	0.00e+00	0	41	0	3007315968	38	6275
2026-01-22 18:41:38.44	269.47	21.73	-33.2	-33.8	27.2	0.00e+00	0	41	0	3013607424	38	6271
2026-01-22 18:41:39.44	269.29	21.63	-33.0	-33.6	27.2	0.00e+00	0	41	0	3018850304	38	6115
2026-01-22 18:41:40.45	269.11	21.53	-33.0	-33.7	27.3	0.00e+00	0	41	0	3024093184	38	6227
2026-01-22 18:41:41.46	268.93	21.42	-33.2	-33.9	27.1	0.00e+00	0	41	0	3030384640	38	6329
2026-01-22 18:41:42.47	268.75	21.32	-33.3	-34.0	27.0	0.00e+00	0	41	0	3035627520	38	6421
2026-01-22 18:41:43.48	268.57	21.22	-33.3	-33.8	27.0	0.00e+00	0	41	0	3041918976	38	6294
2026-01-22 18:41:44.49	268.40	21.12	-33.2	-33.9	27.1	0.00e+00	0	41	0	3047161856	38	6336
2026-01-22 18:41:45.50	268.22	21.01	-33.3	-34.0	27.0	0.00e+00	0	41	0	3052404736	38	6442
2026-01-22 18:41:46.51	268.05	20.91	-33.3	-33.8	27.1	0.00e+00	0	41	0	3058696192	38	6289
2026-01-22 18:41:47.52	267.88	20.81	-33.3	-34.0	27.0	0.00e+00	0	41	0	3063939072	38	6399
2026-01-22 18:41:48.53	267.70	20.70	-33.2	-33.7	27.1	0.00e+00	0	41	0	3070230528	38	6222
2026-01-22 18:41:49.54	267.53	20.60	-33.2	-33.7	27.1	0.00e+00	0	41	0	3075473408	38	6243
2026-01-22 18:41:50.55	267.36	20.50	-33.1	-33.8	27.1	0.00e+00	0	41	0	3081764864	38	6304
2026-01-22 18:41:51.56	267.20	20.40	-33.2	-33.8	27.1	0.00e+00	0	41	0	3087007744	38	6261
2026-01-22 18:41:52.57	267.03	20.30	-33.4	-34.1	27.0	0.00e+00	0	41	0	3093299200	38	6471
2026-01-22 18:41:53.58	266.86	20.19	-33.2	-33.8	27.1	0.00e+00	0	41	0	3098542080	38	6257
2026-01-22 18:41:54.59	266.70	20.09	-33.3	-33.8	27.0	0.00e+00	0	41	0	3103784960	38	6316
2026-01-22 18:41:55.60	266.54	19.99	-33.3	-33.8	27.1	0.00e+00	0	41	0	3110076416	38	6314
2026-01-22 18:41:56.61	266.37	19.89	-33.3	-34.0	27.0	0.00e+00	0	41	0	3115319296	38	6401
2026-01-22 18:41:57.62	266.21	19.79	-33.4	-34.0	27.0	0.00e+00	0	41	0	3121610752	38	6393
2026-01-22 18:41:58.63	266.05	19.69	-33.4	-34.0	27.0	0.00e+00	0	41	0	3126853632	38	6398
2026-01-22 18:41:59.64	265.89	19.59	-33.4	-33.9	27.0	0.00e+00	0	41	0	3132096512	38	6373
2026-01-22 18:42:00.65	265.73	19.49	-33.4	-34.1	27.0	0.00e+00	0	41	0	3138387968	38	6483
2026-01-22 18:42:01.66	265.58	19.39	-33.5	-34.1	26.9	0.00e+00	0	41	0	3143630848	38	6484
2026-01-22 18:42:02.67	265.42	19.29	-33.5	-34.2	26.9	0.00e+00	0	41	0	3149922304	38	6608
2026-01-22 18:42:03.68	265.27	19.19	-33.7	-34.2	26.8	0.00e+00	0	41	0	3155165184	40	5885
2026-01-22 18:42:04.69	265.11	19.09	-33.6	-34.2	26.8	0.00e+00	0	41	0	3160408064	40	5868
2026-01-22 18:42:05.70	264.96	18.99	-33.7	-34.3	26.7	0.00e+00	0	41	0	3166699520	40	5906
2026-01-22 18:42:06.72	264.81	18.89	-33.7	-34.3	26.7	0.00e+00	0	41	0	3171942400	40	5931
2026-01-22 18:42:07.72	264.66	18.79	-34.1	-34.8	26.5	0.00e+00	0	41	0	3178233856	40	6271
2026-01-22 18:42:08.73	264.51	18.69	-33.8	-34.5	26.8	0.00e+00	0	41	0	3183476736	40	6096
2026-01-22 18:42:09.74	264.36	18.59	-33.7	-34.4	26.7	0.00e+00	0	41	0	3189768192	40	6024
2026-01-22 18:42:10.75	264.21	18.49	-33.6	-34.3	26.8	0.00e+00	0	41	0	3195011072	40	5946
2026-01-22 18:42:11.76	264.06	18.39	-33.7	-34.3	26.7	0.00e+00	0	41	0	3200253952	40	5934
2026-01-22 18:42:12.77	263.92	18.30	-33.8	-34.3	26.7	0.00e+00	0	41	0	3206545408	40	5941
2026-01-22 18:42:13.78	263.77	18.20	-33.8	-34.5	26.7	0.00e+00	0	41	0	3211788288	40	6038
2026-01-22 18:42:14.80	263.63	18.10	-34.0	-34.6	26.4	0.00e+00	0	41	0	3218079744	40	6133
2026-01-22 18:42:15.81	263.48	18.00	-34.0	-34.6	26.5	0.00e+00	0	41	0	3223322624	40	6136
2026-01-22 18:42:16.82	263.34	17.90	-34.1	-34.8	26.4	0.00e+00	0	41	0	3228565504	40	6285
2026-01-22 18:42:17.83	263.20	17.81	-34.5	-35.1	26.0	0.00e+00	0	41	0	3234856960	40	6490
2026-01-22 18:42:18.84	263.06	17.71	-34.2	-34.9	26.3	0.00e+00	0	41	0	3240099840	40	6352
2026-01-22 18:42:19.85	262.92	17.61	-34.2	-34.8	26.3	0.00e+00	0	41	0	3246391296	40	6299
2026-01-22 18:42:20.86	262.78	17.52	-34.1	-34.8	26.4	0.00e+00	0	41	0	3251634176	40	6257
2026-01-22 18:42:21.86	262.64	17.42	-34.1	-34.8	26.4	0.00e+00	0	41	0	3256877056	40	6260
2026-01-22 18:42:22.87	262.51	17.32	-34.1	-34.8	26.4	0.00e+00	0	41	0	3263168512	40	6291
2026-01-22 18:42:23.88	262.37	17.23	-34.3	-34.9	26.2	0.00e+00	0	41	0	3268411392	40	6322
2026-01-22 18:42:24.89	262.24	17.13	-34.3	-34.8	26.1	0.00e+00	0	41	0	3274702848	40	6304
2026-01-22 18:42:25.90	262.10	17.04	-34.4	-35.0	26.1	0.00e+00	0	41	0	3279945728	40	6392
2026-01-22 18:42:26.91	261.97	16.94	-34.6	-35.1	26.0	0.00e+00	0	41	0	3286237184	40	6523
2026-01-22 18:42:27.92	261.84	16.85	-34.5	-35.3	26.0	0.00e+00	0	41	0	3291480064	40	6627
2026-01-22 18:42:28.93	261.70	16.75	-34.6	-35.3	26.0	0.00e+00	0	41	0	3297771520	40	6649
2026-01-22 18:42:29.94	261.57	16.66	-34.5	-35.1	26.0	0.00e+00	0	41	0	3303014400	40	6529
2026-01-22 18:42:30.95	261.44	16.56	-34.6	-35.1	25.9	0.00e+00	0	41	0	3308257280	40	6533
2026-01-22 18:42:31.96	261.31	16.47	-34.5	-35.2	26.1	0.00e+00	0	41	0	3314548736	40	6561
2026-01-22 18:42:32.97	261.19	16.37	-34.4	-35.1	26.1	0.00e+00	0	41	0	3319791616	40	6529
2026-01-22 18:42:33.98	261.06	16.28	-34.5	-35.2	26.0	0.00e+00	0	41	0	3326083072	40	6598
2026-01-22 18:42:34.99	260.93	16.18	-34.6	-35.3	25.9	0.00e+00	0	41	0	3331325952	42	5924
2026-01-22 18:42:36.00	260.81	16.09	-34.6	-35.3	25.9	0.00e+00	0	41	0	3336568832	42	5940
2026-01-22 18:42:37.01	260.68	16.00	-34.5	-35.3	26.0	0.00e+00	0	41	0	3342860288	42	5906
2026-01-22 18:42:38.02	260.56	15.90	-34.8	-35.4	25.8	0.00e+00	0	41	0	3348103168	42	5975
2026-01-22 18:42:39.03	260.43	15.81	-34.9	-35.4	25.8	0.00e+00	0	41	0	3354394624	42	6026
2026-01-22 18:42:40.04	260.31	15.72	-34.8	-35.4	25.7	0.00e+00	0	41	0	3359637504	42	6015
2026-01-22 18:42:41.05	260.19	15.63	-35.1	-35.8	25.5	0.00e+00	0	41	0	3364880384	42	6315
2026-01-22 18:42:42.06	260.07	15.53	-34.8	-35.4	25.7	0.00e+00	0	41	0	3371171840	42	6011
2026-01-22 18:42:43.07	259.95	15.44	-34.9	-35.5	25.7	0.00e+00	0	41	0	3376414720	42	6067
2026-01-22 18:42:44.08	259.83	15.35	-35.0	-35.6	25.6	0.00e+00	0	41	0	3382706176	42	6112
2026-01-22 18:42:45.09	259.71	15.26	-35.0	-35.6	25.5	0.00e+00	0	41	0	3387949056	42	6144
2026-01-22 18:42:46.10	259.59	15.17	-35.2	-35.9	25.4	0.00e+00	0	41	0	3394240512	42	6321
2026-01-22 18:42:47.11	259.47	15.08	-35.4	-36.0	25.2	0.00e+00	0	41	0	3399483392	42	6391
2026-01-22 18:42:48.12	259.36	14.99	-35.0	-35.6	25.6	0.00e+00	0	41	0	3404726272	42	6141
2026-01-22 18:42:49.13	259.24	14.90	-35.1	-35.7	25.5	0.00e+00	0	41	0	3411017728	42	6182
2026-01-22 18:42:50.13	259.13	14.81	-35.2	-35.8	25.4	0.00e+00	0	41	0	3416260608	42	6252
2026-01-22 18:42:51.14	259.01	14.72	-35.2	-35.8	25.4	0.00e+00	0	41	0	3422552064	42	6265
2026-01-22 18:42:52.16	258.90	14.62	-35.2	-35.9	25.4	0.00e+00	0	41	0	3427794944	42	6380
2026-01-22 18:42:53.16	258.78	14.54	-35.3	-36.0	25.3	0.00e+00	0	41	0	3433037824	42	6449
2026-01-22 18:42:54.18	258.67	14.45	-35.4	-36.2	25.2	0.00e+00	0	41	0	3439329280	42	6544
2026-01-22 18:42:55.18	258.56	14.36	-35.4	-36.1	25.2	0.00e+00	0	41	0	3444572160	42	6530
2026-01-22 18:42:56.19	258.45	14.27	-35.4	-36.1	25.2	0.00e+00	0	41	0	3450863616	42	6520
2026-01-22 18:42:57.20	258.34	14.18	-35.3	-36.1	25.3	0.00e+00	0	41	0	3456106496	42	6467
2026-01-22 18:42:58.21	258.23	14.09	-35.4	-36.0	25.2	0.00e+00	0	41	0	3461349376	42	6401
2026-01-22 18:42:59.22	258.12	14.00	-35.3	-35.9	25.3	0.00e+00	0	41	0	3467640832	42	6376
2026-01-22 18:43:00.23	258.01	13.91	-35.5	-36.1	25.2	0.00e+00	0	41	0	3472883712	42	6484
2026-01-22 18:43:01.24	257.90	13.83	-35.5	-36.1	25.2	0.00e+00	0	41	0	3479175168	42	6495
2026-01-22 18:43:02.25	257.80	13.74	-35.4	-36.1	25.2	0.00e+00	0	41	0	3484418048	42	6523
2026-01-22 18:43:03.26	257.69	13.65	-35.5	-36.1	25.0	0.00e+00	0	41	0	3490709504	42	6520
2026-01-22 18:43:04.27	257.58	13.56	-35.6	-36.1	25.0	0.00e+00	0	41	0	3495952384	44	5827
2026-01-22 18:43:05.28	257.48	13.47	-35.7	-36.2	25.0	0.00e+00	0	41	0	3502243840	44	5894
2026-01-22 18:43:06.29	257.37	13.39	-35.4	-36.1	25.2	0.00e+00	0	41	0	3507486720	44	5828
2026-01-22 18:43:07.30	257.27	13.30	-35.4	-36.2	25.2	0.00e+00	0	41	0	3512729600	44	5842
2026-01-22 18:43:08.31	257.17	13.21	-35.5	-36.1	25.1	0.00e+00	0	41	0	3519021056	44	5779
2026-01-22 18:43:09.32	257.06	13.13	-35.5	-36.3	25.0	0.00e+00	0	41	0	3524263936	44	5901
2026-01-22 18:43:10.33	256.96	13.04	-35.5	-36.1	25.1	0.00e+00	0	41	0	3530555392	44	5821
2026-01-22 18:43:11.34	256.86	12.96	-35.5	-36.2	25.0	0.00e+00	0	41	0	3535798272	44	5833
2026-01-22 18:43:12.35	256.76	12.87	-35.6	-36.3	25.0	0.00e+00	0	41	0	3541041152	44	5954
2026-01-22 18:43:13.36	256.66	12.79	-35.6	-36.2	25.0	0.00e+00	0	41	0	3547332608	44	5839
2026-01-22 18:43:14.37	256.56	12.70	-35.5	-36.1	25.0	0.00e+00	0	41	0	3552575488	44	5810
2026-01-22 18:43:15.38	256.46	12.61	-35.7	-36.3	24.8	0.00e+00	0	41	0	3558866944	44	5958
2026-01-22 18:43:16.39	256.36	12.53	-35.8	-36.4	24.8	0.00e+00	0	41	0	3564109824	44	5984
2026-01-22 18:43:17.40	256.27	12.45	-35.9	-36.5	24.6	0.00e+00	0	41	0	3569352704	44	6089
2026-01-22 18:43:18.41	256.17	12.36	-36.1	-36.7	24.4	0.00e+00	0	41	0	3575644160	44	6244
