passes_logs/2026/01/22/R4.6S_Anadyr/R4.6S_Anadyr__20260122_125329_NOAA_20_JPSS-1_rec.log

#Pass ID: 20260122_125329_NOAA 20 (JPSS-1)
#Satellite: NOAA 20 (JPSS-1)
#Configuration: NOAA 20
#almurnet v.1.7.20251203
#Start time: 2026-01-22 12:53:32

#Version: 2.2.20231116
#Station: R4.6S_Anadyr
#Location: 177.4865 lon 64.73178 lat
#TLE: 1 43013U 17073A   26021.46221703  .00000173  00000+0  10299-3 0  9999
#TLE: 2 43013  98.7644 322.3335 0001238  29.7597 330.3649 14.19538314423652

#Time	Az	El	Level	Level2	SNR	BER	BlckErr	Temp	State	Recorded	gain1	gain2
2026-01-22 12:53:32.53	18.91	0.18	-52.0	-65.8	3.3	1.54e+00	0	40	0	0	60	70609
2026-01-22 12:53:33.54	18.97	0.24	-51.6	-66.8	3.6	1.51e+00	0	40	104	0	60	79366
2026-01-22 12:53:34.55	19.03	0.29	-51.6	-66.8	3.6	1.51e+00	0	40	104	0	60	78832
2026-01-22 12:53:35.56	19.09	0.34	-51.6	-66.8	3.6	1.51e+00	0	40	104	0	60	79213
2026-01-22 12:53:36.57	19.15	0.40	-51.4	-66.6	3.6	1.51e+00	0	40	104	0	60	77548
2026-01-22 12:53:37.58	19.21	0.45	-51.4	-66.6	3.6	1.51e+00	0	40	104	0	60	76926
2026-01-22 12:53:38.59	19.27	0.51	-51.4	-66.7	3.6	1.51e+00	0	40	104	0	60	77745
2026-01-22 12:53:39.60	19.33	0.56	-51.3	-66.6	3.6	1.51e+00	0	40	104	0	60	76972
2026-01-22 12:53:40.61	19.39	0.61	-51.3	-66.5	3.6	1.51e+00	0	40	104	0	60	76329
2026-01-22 12:53:41.62	19.45	0.67	-51.2	-66.5	3.6	1.51e+00	0	40	104	0	60	76237
2026-01-22 12:53:42.63	19.51	0.72	-51.2	-66.4	3.6	1.51e+00	0	40	104	0	60	75585
2026-01-22 12:53:43.64	19.58	0.78	-51.1	-66.3	3.6	1.51e+00	0	40	104	0	60	74701
2026-01-22 12:53:44.64	19.64	0.83	-51.1	-66.2	3.6	1.51e+00	0	41	104	0	60	74171
2026-01-22 12:53:45.65	19.70	0.89	-51.0	-66.1	3.6	1.51e+00	0	41	104	0	60	72963
2026-01-22 12:53:46.66	19.76	0.94	-50.8	-66.0	3.6	1.51e+00	0	41	104	0	60	72454
2026-01-22 12:53:47.67	19.82	0.99	-50.7	-66.0	3.6	1.51e+00	0	41	104	0	60	71946
2026-01-22 12:53:48.68	19.89	1.05	-50.6	-65.9	3.6	1.51e+00	0	41	104	0	60	70906
2026-01-22 12:53:49.69	19.95	1.10	-50.5	-65.7	3.6	1.51e+00	0	41	104	0	60	70042
2026-01-22 12:53:50.70	20.01	1.16	-50.4	-65.6	3.6	1.51e+00	0	41	104	0	60	69233
2026-01-22 12:53:51.71	20.08	1.21	-50.3	-65.5	3.6	1.51e+00	0	41	104	0	60	68079
2026-01-22 12:53:52.72	20.14	1.27	-50.1	-65.3	3.6	1.51e+00	0	41	104	0	60	66748
2026-01-22 12:53:53.73	20.21	1.32	-49.8	-65.0	3.6	1.51e+00	0	41	104	0	60	64461
2026-01-22 12:53:54.74	20.27	1.38	-49.6	-64.9	3.6	1.51e+00	0	41	104	0	60	63248
2026-01-22 12:53:55.75	20.33	1.44	-49.6	-64.8	3.6	1.51e+00	0	41	104	0	60	63032
2026-01-22 12:53:56.76	20.40	1.49	-49.6	-64.8	3.6	1.51e+00	0	41	104	0	60	62580
2026-01-22 12:53:57.77	20.46	1.55	-49.6	-64.7	3.6	1.51e+00	0	41	104	0	60	62080
2026-01-22 12:53:58.78	20.53	1.60	-49.6	-64.7	3.6	1.51e+00	0	41	104	0	60	61906
2026-01-22 12:53:59.79	20.59	1.66	-49.7	-64.7	3.6	1.51e+00	0	41	104	0	60	62413
2026-01-22 12:54:00.80	20.66	1.71	-49.7	-64.8	3.5	1.51e+00	0	41	104	0	60	62527
2026-01-22 12:54:01.81	20.73	1.77	-49.6	-64.7	3.6	1.51e+00	0	41	104	0	60	62359
2026-01-22 12:54:02.81	20.79	1.83	-49.6	-64.7	3.6	1.51e+00	0	41	104	0	60	62305
2026-01-22 12:54:03.82	20.86	1.88	-49.6	-64.8	3.6	1.51e+00	0	41	104	0	60	62760
2026-01-22 12:54:04.83	20.92	1.94	-49.6	-64.8	3.6	1.51e+00	0	41	104	0	60	62707
2026-01-22 12:54:05.84	20.99	1.99	-49.6	-64.8	3.6	1.51e+00	0	41	104	0	60	62890
2026-01-22 12:54:06.85	21.06	2.05	-49.6	-64.6	3.6	1.51e+00	0	41	104	0	60	61698
2026-01-22 12:54:07.86	21.12	2.11	-49.6	-64.1	3.6	1.51e+00	0	41	104	0	60	58035
2026-01-22 12:54:08.87	21.19	2.16	-49.6	-63.6	3.6	1.51e+00	0	41	104	0	60	55011
2026-01-22 12:54:09.88	21.26	2.22	-49.6	-63.7	3.6	1.51e+00	0	41	104	0	60	55173
2026-01-22 12:54:10.88	21.33	2.28	-49.6	-64.0	3.6	1.51e+00	0	41	104	0	60	57322
2026-01-22 12:54:11.89	21.39	2.33	-49.6	-64.5	3.6	1.51e+00	0	41	104	0	60	60479
2026-01-22 12:54:12.90	21.46	2.39	-49.5	-62.2	3.7	1.51e+00	0	41	104	0	60	46663
2026-01-22 12:54:13.91	21.53	2.45	-49.2	-57.9	5.2	1.26e+00	0	41	0	0	60	28365
2026-01-22 12:54:14.92	21.60	2.50	-48.4	-54.2	9.4	5.93e-03	0	41	0	2097152	60	18435
2026-01-22 12:54:15.93	21.67	2.56	-47.7	-52.2	11.6	2.76e-03	0	41	0	4194304	60	14647
2026-01-22 12:54:16.95	21.74	2.62	-46.2	-49.2	14.6	1.60e-05	92	41	0	5242880	60	10407
2026-01-22 12:54:17.95	21.81	2.67	-45.4	-47.7	16.2	0.00e+00	81	41	0	7340032	60	8821
2026-01-22 12:54:18.96	21.88	2.73	-44.2	-46.1	17.8	0.00e+00	81	41	0	9437184	60	7326
2026-01-22 12:54:19.97	21.95	2.79	-44.0	-45.9	18.0	0.00e+00	81	41	0	11534336	60	7101
2026-01-22 12:54:20.99	22.02	2.85	-43.6	-45.2	18.5	0.00e+00	79	41	0	13631488	60	6606
2026-01-22 12:54:21.99	22.09	2.90	-44.1	-45.9	17.7	0.00e+00	0	41	0	14680064	60	7168
2026-01-22 12:54:23.00	22.16	2.96	-45.3	-47.7	16.2	0.00e+00	0	41	0	16777216	60	8774
2026-01-22 12:54:24.01	22.23	3.02	-46.3	-49.3	14.3	0.00e+00	92	41	0	18874368	60	10507
2026-01-22 12:54:25.02	22.30	3.08	-47.2	-51.1	12.3	2.05e-05	0	41	0	20971520	60	12951
2026-01-22 12:54:26.03	22.38	3.13	-48.8	-55.7	7.3	3.70e-02	92	41	0	23068672	60	22004
2026-01-22 12:54:27.04	22.45	3.19	-49.3	-58.0	4.9	2.52e-01	2	41	0	25165824	60	28757
2026-01-22 12:54:28.05	22.52	3.25	-47.1	-50.6	13.3	1.59e-04	0	41	0	26214400	60	12241
2026-01-22 12:54:29.06	22.59	3.31	-44.4	-46.4	17.4	0.00e+00	0	41	0	28311552	60	7535
2026-01-22 12:54:30.07	22.66	3.37	-49.5	-63.6	3.6	1.07e+00	0	41	104	29360128	60	54592
2026-01-22 12:54:31.08	22.74	3.43	-49.0	-57.4	7.4	1.49e+00	0	41	104	29360128	60	26715
2026-01-22 12:54:32.09	22.81	3.48	-49.6	-59.4	5.0	2.14e-01	2	41	0	30408704	60	33723
2026-01-22 12:54:33.10	22.88	3.54	-45.7	-48.2	15.8	6.35e-04	91	41	0	32505856	60	9310
2026-01-22 12:54:34.11	22.96	3.60	-45.5	-47.9	16.3	0.00e+00	0	41	0	33554432	60	8963
2026-01-22 12:54:35.12	23.03	3.66	-45.7	-48.1	15.9	0.00e+00	0	41	0	35651584	60	9234
2026-01-22 12:54:36.13	23.11	3.72	-45.5	-47.8	16.1	0.00e+00	0	41	0	37748736	60	8900
2026-01-22 12:54:37.14	23.18	3.78	-44.8	-46.8	17.3	0.00e+00	82	41	0	39845888	60	7870
2026-01-22 12:54:38.15	23.26	3.84	-44.5	-46.3	17.9	0.00e+00	63	41	0	41943040	60	7502
2026-01-22 12:54:39.16	23.33	3.89	-43.9	-45.7	18.5	0.00e+00	0	41	0	42991616	60	6930
2026-01-22 12:54:40.17	23.41	3.95	-43.9	-45.6	18.6	0.00e+00	92	41	0	45088768	60	6859
2026-01-22 12:54:41.18	23.48	4.01	-44.0	-45.8	18.4	0.00e+00	0	41	0	47185920	60	7016
2026-01-22 12:54:42.19	23.56	4.07	-43.8	-45.5	18.7	0.00e+00	71	41	0	49283072	60	6818
2026-01-22 12:54:43.19	23.63	4.13	-43.5	-45.1	19.0	0.00e+00	0	41	0	50331648	60	6478
2026-01-22 12:54:44.20	23.71	4.19	-43.8	-45.5	18.8	0.00e+00	0	41	0	52428800	60	6799
2026-01-22 12:54:45.21	23.79	4.25	-43.6	-45.2	19.0	0.00e+00	3	41	0	54525952	60	6557
2026-01-22 12:54:46.22	23.87	4.31	-43.3	-44.9	19.3	0.00e+00	0	41	0	56623104	60	6337
2026-01-22 12:54:47.23	23.94	4.37	-43.5	-45.1	19.1	0.00e+00	90	41	0	58720256	60	6500
2026-01-22 12:54:48.24	24.02	4.43	-43.3	-44.9	19.4	0.00e+00	0	41	0	60817408	60	6331
2026-01-22 12:54:49.25	24.10	4.49	-43.5	-45.1	19.1	0.00e+00	90	41	0	61865984	60	6480
2026-01-22 12:54:50.26	24.18	4.55	-43.3	-44.8	19.4	0.00e+00	0	41	0	63963136	60	6310
2026-01-22 12:54:51.27	24.26	4.61	-43.0	-44.4	19.8	0.00e+00	0	41	0	66060288	60	6023
2026-01-22 12:54:52.28	24.34	4.67	-43.3	-44.8	19.4	0.00e+00	0	41	0	68157440	60	6257
2026-01-22 12:54:53.29	24.41	4.73	-43.1	-44.6	19.6	0.00e+00	2	41	0	70254592	60	6146
2026-01-22 12:54:54.30	24.49	4.79	-43.3	-44.8	19.5	0.00e+00	29	41	0	71303168	60	6253
2026-01-22 12:54:55.31	24.57	4.85	-43.1	-44.6	19.6	0.00e+00	0	41	0	73400320	60	6117
2026-01-22 12:54:56.32	24.65	4.91	-43.2	-44.6	19.6	0.00e+00	91	41	0	75497472	60	6168
2026-01-22 12:54:57.33	24.74	4.97	-43.1	-44.5	19.8	0.00e+00	0	41	0	77594624	60	6080
2026-01-22 12:54:58.34	24.82	5.03	-42.9	-44.2	20.0	0.00e+00	9	41	0	79691776	60	5891
2026-01-22 12:54:59.35	24.90	5.09	-43.0	-44.5	19.8	0.00e+00	0	41	0	80740352	60	6040
2026-01-22 12:55:00.36	24.98	5.16	-42.9	-44.3	20.0	0.00e+00	80	41	0	82837504	60	5932
2026-01-22 12:55:01.37	25.06	5.22	-43.2	-44.6	19.8	0.00e+00	82	41	0	84934656	60	6133
2026-01-22 12:55:02.38	25.14	5.28	-43.0	-44.4	19.9	0.00e+00	81	41	0	87031808	60	5985
2026-01-22 12:55:03.39	25.23	5.34	-42.8	-44.2	19.9	0.00e+00	92	41	0	89128960	58	6572
2026-01-22 12:55:04.40	25.31	5.40	-43.0	-44.4	19.8	0.00e+00	6	41	0	90177536	58	6718
2026-01-22 12:55:05.41	25.39	5.46	-42.8	-44.2	20.0	0.00e+00	92	41	0	92274688	58	6584
2026-01-22 12:55:06.42	25.47	5.52	-43.2	-44.6	19.7	0.00e+00	0	41	0	94371840	58	6883
2026-01-22 12:55:07.43	25.56	5.59	-42.8	-44.2	20.1	0.00e+00	0	41	0	96468992	58	6542
2026-01-22 12:55:08.43	25.64	5.65	-42.9	-44.2	20.0	0.00e+00	6	41	0	98566144	58	6607
2026-01-22 12:55:09.44	25.73	5.71	-42.7	-44.0	20.2	0.00e+00	0	41	0	100663296	58	6440
2026-01-22 12:55:10.45	25.81	5.77	-42.6	-43.9	20.3	0.00e+00	90	41	0	101711872	58	6341
2026-01-22 12:55:11.46	25.90	5.83	-42.7	-44.0	20.2	0.00e+00	0	41	0	103809024	58	6460
2026-01-22 12:55:12.48	25.98	5.89	-42.8	-44.2	20.0	0.00e+00	92	41	0	105906176	58	6592
2026-01-22 12:55:13.48	26.07	5.96	-42.7	-44.0	20.2	0.00e+00	6	41	0	108003328	58	6443
2026-01-22 12:55:14.50	26.15	6.02	-42.8	-44.2	20.0	0.00e+00	86	41	0	110100480	58	6555
2026-01-22 12:55:15.50	26.24	6.08	-42.5	-43.8	20.6	0.00e+00	79	41	0	111149056	58	6253
2026-01-22 12:55:16.51	26.33	6.14	-43.0	-44.3	20.1	0.00e+00	80	41	0	113246208	58	6692
2026-01-22 12:55:17.52	26.41	6.21	-42.8	-44.1	20.1	0.00e+00	82	41	0	115343360	58	6516
2026-01-22 12:55:18.53	26.50	6.27	-42.6	-43.9	20.3	0.00e+00	0	41	0	117440512	58	6370
2026-01-22 12:55:19.54	26.59	6.33	-42.6	-43.9	20.4	0.00e+00	92	41	0	119537664	58	6388
2026-01-22 12:55:20.55	26.68	6.39	-42.8	-44.1	20.3	0.00e+00	85	41	0	120586240	58	6500
2026-01-22 12:55:21.56	26.77	6.46	-42.9	-44.3	20.1	0.00e+00	32	41	0	122683392	58	6669
2026-01-22 12:55:22.57	26.86	6.52	-42.8	-44.1	20.3	0.00e+00	0	41	0	124780544	58	6508
2026-01-22 12:55:23.58	26.95	6.58	-42.6	-43.9	20.5	0.00e+00	79	41	0	126877696	58	6329
2026-01-22 12:55:24.59	27.04	6.65	-42.7	-44.0	20.4	0.00e+00	66	41	0	128974848	58	6446
2026-01-22 12:55:25.60	27.13	6.71	-42.6	-43.9	20.5	0.00e+00	5	41	0	130023424	58	6335
2026-01-22 12:55:26.61	27.22	6.77	-42.8	-44.2	20.2	0.00e+00	90	41	0	132120576	58	6553
2026-01-22 12:55:27.62	27.31	6.84	-42.9	-44.2	20.1	0.00e+00	2	41	0	134217728	58	6602
2026-01-22 12:55:28.63	27.40	6.90	-42.8	-44.1	20.3	0.00e+00	82	41	0	136314880	58	6517
2026-01-22 12:55:29.64	27.49	6.97	-42.9	-44.2	20.3	0.00e+00	0	41	0	138412032	58	6573
2026-01-22 12:55:30.65	27.58	7.03	-43.2	-44.6	19.9	0.00e+00	6	41	0	139460608	58	6878
2026-01-22 12:55:31.65	27.67	7.09	-42.8	-44.2	20.3	0.00e+00	5	41	0	141557760	58	6548
2026-01-22 12:55:32.66	27.77	7.16	-42.7	-44.1	20.4	0.00e+00	6	41	0	143654912	58	6468
2026-01-22 12:55:33.67	27.86	7.22	-42.7	-44.0	20.4	0.00e+00	91	41	0	145752064	58	6418
2026-01-22 12:55:34.68	27.95	7.29	-42.7	-44.0	20.4	0.00e+00	0	41	0	147849216	58	6420
2026-01-22 12:55:35.69	28.05	7.35	-42.6	-43.9	20.6	0.00e+00	92	41	0	148897792	58	6352
2026-01-22 12:55:36.70	28.14	7.41	-42.7	-44.0	20.5	0.00e+00	81	41	0	150994944	58	6402
2026-01-22 12:55:37.71	28.24	7.48	-42.6	-43.8	20.6	0.00e+00	81	41	0	153092096	58	6313
2026-01-22 12:55:38.72	28.33	7.54	-42.7	-44.0	20.6	0.00e+00	81	41	0	155189248	58	6400
2026-01-22 12:55:39.73	28.43	7.61	-42.3	-43.5	21.0	0.00e+00	0	41	0	157286400	58	6060
2026-01-22 12:55:40.74	28.52	7.67	-42.4	-43.6	20.9	0.00e+00	5	41	0	158334976	58	6132
2026-01-22 12:55:41.75	28.62	7.74	-42.8	-44.1	20.4	0.00e+00	81	41	0	160432128	58	6502
2026-01-22 12:55:42.76	28.72	7.80	-42.4	-43.6	20.8	0.00e+00	92	41	0	162529280	58	6163
2026-01-22 12:55:43.77	28.81	7.87	-42.3	-43.5	21.0	0.00e+00	0	41	0	164626432	58	6094
2026-01-22 12:55:44.78	28.91	7.93	-42.2	-43.4	21.1	0.00e+00	54	41	0	166723584	58	5997
2026-01-22 12:55:45.78	29.01	8.00	-42.4	-43.6	20.9	0.00e+00	0	41	0	167772160	58	6124
2026-01-22 12:55:46.80	29.11	8.07	-42.0	-43.2	21.3	0.00e+00	0	41	0	169869312	58	5870
2026-01-22 12:55:47.80	29.20	8.13	-41.9	-43.1	21.4	0.00e+00	0	41	0	171966464	58	5765
2026-01-22 12:55:48.82	29.31	8.20	-42.2	-43.4	21.1	0.00e+00	0	41	0	174063616	58	6011
2026-01-22 12:55:49.83	29.40	8.26	-42.3	-43.5	21.1	0.00e+00	92	41	0	176160768	58	6078
2026-01-22 12:55:50.84	29.50	8.33	-42.1	-43.3	21.2	0.00e+00	0	41	0	177209344	58	5915
2026-01-22 12:55:51.85	29.61	8.40	-42.2	-43.4	21.0	0.00e+00	74	41	0	179306496	58	6013
2026-01-22 12:55:52.86	29.71	8.46	-42.0	-43.2	21.3	0.00e+00	0	41	0	181403648	58	5834
2026-01-22 12:55:53.86	29.81	8.53	-42.2	-43.4	21.2	0.00e+00	0	41	0	183500800	58	5973
2026-01-22 12:55:54.87	29.91	8.59	-42.1	-43.3	21.2	0.00e+00	0	41	0	185597952	58	5948
2026-01-22 12:55:55.88	30.01	8.66	-42.2	-43.4	21.1	0.00e+00	0	41	0	186646528	58	5999
2026-01-22 12:55:56.89	30.11	8.73	-42.3	-43.6	21.0	0.00e+00	90	41	0	188743680	58	6109
2026-01-22 12:55:57.90	30.22	8.79	-42.2	-43.4	20.9	0.00e+00	0	41	0	190840832	58	6003
2026-01-22 12:55:58.91	30.32	8.86	-42.3	-43.5	21.0	0.00e+00	92	41	0	192937984	58	6096
2026-01-22 12:55:59.92	30.42	8.93	-42.2	-43.4	21.0	0.00e+00	0	41	0	195035136	58	5966
2026-01-22 12:56:00.93	30.53	8.99	-42.3	-43.5	21.0	0.00e+00	0	41	0	197132288	58	6053
2026-01-22 12:56:01.94	30.63	9.06	-42.4	-43.6	21.0	0.00e+00	0	41	0	198180864	58	6126
2026-01-22 12:56:02.95	30.74	9.13	-42.0	-43.2	21.3	0.00e+00	3	41	0	200278016	58	5852
2026-01-22 12:56:03.96	30.85	9.20	-42.2	-43.4	21.1	0.00e+00	74	41	0	202375168	58	6001
2026-01-22 12:56:04.97	30.95	9.26	-42.2	-43.4	21.2	0.00e+00	0	41	0	204472320	58	6002
2026-01-22 12:56:05.98	31.06	9.33	-42.1	-43.3	21.2	0.00e+00	92	41	0	206569472	58	5945
2026-01-22 12:56:06.99	31.17	9.40	-42.3	-43.5	21.0	0.00e+00	81	41	0	207618048	58	6085
2026-01-22 12:56:08.00	31.27	9.47	-42.3	-43.5	21.0	0.00e+00	0	41	0	209715200	58	6060
2026-01-22 12:56:09.00	31.38	9.53	-42.3	-43.5	21.0	0.00e+00	2	41	0	211812352	58	6070
2026-01-22 12:56:10.01	31.49	9.60	-42.4	-43.6	21.1	0.00e+00	2	41	0	213909504	58	6111
2026-01-22 12:56:11.02	31.60	9.67	-42.3	-43.5	21.1	0.00e+00	0	42	0	216006656	58	6045
2026-01-22 12:56:12.03	31.71	9.74	-42.2	-43.4	21.2	0.00e+00	0	42	0	217055232	58	6021
2026-01-22 12:56:13.04	31.82	9.80	-42.4	-43.6	21.1	0.00e+00	92	42	0	219152384	58	6129
2026-01-22 12:56:14.05	31.93	9.87	-42.3	-43.5	21.2	0.00e+00	0	41	0	221249536	58	6039
2026-01-22 12:56:15.06	32.04	9.94	-42.3	-43.5	21.1	0.00e+00	92	41	0	223346688	58	6049
2026-01-22 12:56:16.07	32.15	10.01	-42.2	-43.4	21.2	0.00e+00	0	41	0	225443840	58	6004
2026-01-22 12:56:17.08	32.27	10.08	-42.3	-43.4	21.2	0.00e+00	2	41	0	226492416	58	6032
2026-01-22 12:56:18.09	32.38	10.15	-42.0	-43.1	21.5	0.00e+00	0	41	0	228589568	58	5798
2026-01-22 12:56:19.10	32.49	10.22	-42.0	-43.2	21.5	0.00e+00	0	41	0	230686720	58	5837
2026-01-22 12:56:20.11	32.61	10.28	-42.1	-43.3	21.3	0.00e+00	91	41	0	232783872	58	5907
2026-01-22 12:56:21.12	32.72	10.35	-41.8	-42.9	21.6	0.00e+00	82	41	0	234881024	58	5690
2026-01-22 12:56:22.13	32.83	10.42	-42.0	-43.1	21.5	0.00e+00	92	41	0	235929600	58	5802
2026-01-22 12:56:23.14	32.95	10.49	-42.0	-43.2	21.5	0.00e+00	0	42	0	238026752	58	5843
2026-01-22 12:56:24.15	33.07	10.56	-41.8	-43.0	21.7	0.00e+00	0	41	0	240123904	58	5703
2026-01-22 12:56:25.16	33.18	10.63	-42.0	-43.1	21.5	0.00e+00	82	42	0	242221056	58	5803
2026-01-22 12:56:26.17	33.30	10.70	-41.8	-42.9	21.8	0.00e+00	0	41	0	244318208	58	5671
2026-01-22 12:56:27.18	33.42	10.77	-41.9	-43.0	21.8	0.00e+00	0	41	0	245366784	56	6444
2026-01-22 12:56:28.18	33.53	10.84	-41.8	-42.9	21.8	0.00e+00	80	42	0	247463936	56	6369
2026-01-22 12:56:29.19	33.65	10.91	-41.7	-42.9	21.8	0.00e+00	92	41	0	249561088	56	6325
2026-01-22 12:56:30.20	33.77	10.98	-41.9	-43.0	21.7	0.00e+00	0	42	0	251658240	56	6453
2026-01-22 12:56:31.21	33.89	11.05	-41.9	-43.0	21.7	0.00e+00	91	41	0	253755392	56	6429
2026-01-22 12:56:32.22	34.01	11.12	-42.0	-43.1	21.5	0.00e+00	0	41	0	254803968	56	6534
2026-01-22 12:56:33.23	34.13	11.19	-42.1	-43.2	21.4	0.00e+00	0	41	0	256901120	56	6609
2026-01-22 12:56:34.24	34.25	11.26	-41.6	-42.7	21.9	0.00e+00	0	41	0	258998272	56	6200
2026-01-22 12:56:35.25	34.37	11.33	-41.6	-42.6	21.9	0.00e+00	0	41	0	261095424	56	6169
2026-01-22 12:56:36.26	34.50	11.40	-41.6	-42.6	22.0	0.00e+00	92	41	0	263192576	56	6168
2026-01-22 12:56:37.27	34.62	11.47	-41.7	-42.8	21.9	0.00e+00	0	41	0	265289728	56	6269
2026-01-22 12:56:38.28	34.74	11.54	-41.6	-42.7	22.0	0.00e+00	91	41	0	266338304	56	6206
2026-01-22 12:56:39.29	34.87	11.61	-41.7	-42.7	21.9	0.00e+00	0	41	0	268435456	56	6245
2026-01-22 12:56:40.30	34.99	11.68	-42.0	-43.1	21.7	0.00e+00	82	41	0	270532608	56	6528
2026-01-22 12:56:41.31	35.12	11.75	-41.5	-42.6	22.2	0.00e+00	80	41	0	272629760	56	6134
2026-01-22 12:56:42.32	35.24	11.82	-41.6	-42.7	22.1	0.00e+00	0	41	0	274726912	56	6226
2026-01-22 12:56:43.33	35.37	11.89	-41.4	-42.5	22.2	0.00e+00	52	41	0	275775488	56	6051
2026-01-22 12:56:44.34	35.50	11.96	-41.5	-42.5	22.2	0.00e+00	0	41	0	277872640	56	6076
2026-01-22 12:56:45.35	35.62	12.03	-41.5	-42.5	22.1	0.00e+00	92	41	0	279969792	56	6102
2026-01-22 12:56:46.36	35.75	12.11	-41.5	-42.6	22.2	0.00e+00	80	41	0	282066944	56	6104
2026-01-22 12:56:47.37	35.88	12.18	-41.5	-42.6	22.2	0.00e+00	81	41	0	284164096	56	6121
2026-01-22 12:56:48.38	36.01	12.25	-41.6	-42.6	22.2	0.00e+00	0	41	0	285212672	56	6148
2026-01-22 12:56:49.39	36.14	12.32	-41.5	-42.5	22.2	0.00e+00	0	41	0	287309824	56	6099
2026-01-22 12:56:50.40	36.27	12.39	-41.3	-42.3	22.3	0.00e+00	2	41	0	289406976	56	5952
2026-01-22 12:56:51.41	36.40	12.46	-41.3	-42.4	22.3	0.00e+00	6	41	0	291504128	56	5970
2026-01-22 12:56:52.42	36.53	12.53	-41.4	-42.5	22.2	0.00e+00	92	41	0	293601280	56	6059
2026-01-22 12:56:53.43	36.66	12.61	-41.2	-42.2	22.5	0.00e+00	0	41	0	294649856	56	5894
2026-01-22 12:56:54.44	36.80	12.68	-41.3	-42.3	22.4	0.00e+00	90	41	0	296747008	56	5929
2026-01-22 12:56:55.45	36.93	12.75	-41.3	-42.3	22.3	0.00e+00	0	41	0	298844160	56	5919
2026-01-22 12:56:56.46	37.07	12.82	-41.6	-42.6	22.1	0.00e+00	0	41	0	300941312	56	6157
2026-01-22 12:56:57.47	37.20	12.89	-41.5	-42.6	22.2	0.00e+00	0	41	0	303038464	56	6117
2026-01-22 12:56:58.48	37.34	12.97	-41.3	-42.4	22.2	0.00e+00	5	42	0	304087040	56	5969
2026-01-22 12:56:59.49	37.47	13.04	-41.4	-42.5	22.3	0.00e+00	92	41	0	306184192	56	6048
2026-01-22 12:57:00.50	37.61	13.11	-41.4	-42.4	22.2	0.00e+00	84	41	0	308281344	56	6028
2026-01-22 12:57:01.51	37.75	13.18	-41.2	-42.2	22.4	0.00e+00	92	42	0	310378496	56	5854
2026-01-22 12:57:02.52	37.88	13.26	-41.3	-42.3	21.5	0.00e+00	0	41	0	312475648	56	5959
2026-01-22 12:57:03.53	38.02	13.33	-41.1	-42.1	22.1	0.00e+00	0	41	0	313524224	56	5819
2026-01-22 12:57:04.54	38.16	13.40	-41.2	-42.2	22.4	0.00e+00	0	41	0	315621376	56	5864
2026-01-22 12:57:05.54	38.30	13.47	-41.1	-42.1	22.5	0.00e+00	0	41	0	317718528	56	5803
2026-01-22 12:57:06.55	38.44	13.54	-41.2	-42.2	22.6	0.00e+00	89	41	0	319815680	56	5839
2026-01-22 12:57:07.56	38.58	13.62	-41.1	-42.1	22.6	0.00e+00	4	41	0	321912832	56	5826
2026-01-22 12:57:08.57	38.73	13.69	-41.1	-42.1	22.5	0.00e+00	92	41	0	322961408	56	5821
2026-01-22 12:57:09.58	38.87	13.76	-41.1	-42.1	22.5	0.00e+00	0	41	0	325058560	56	5823
2026-01-22 12:57:10.59	39.01	13.84	-40.9	-41.9	22.8	0.00e+00	7	41	0	327155712	56	5672
2026-01-22 12:57:11.60	39.16	13.91	-41.2	-42.3	22.5	0.00e+00	0	42	0	329252864	56	5910
2026-01-22 12:57:12.61	39.30	13.98	-41.1	-42.2	22.6	0.00e+00	0	42	0	331350016	56	5829
2026-01-22 12:57:13.62	39.45	14.06	-41.1	-42.1	22.6	0.00e+00	0	42	0	333447168	56	5773
2026-01-22 12:57:14.63	39.59	14.13	-41.2	-42.2	22.5	0.00e+00	6	42	0	334495744	56	5886
2026-01-22 12:57:15.63	39.74	14.20	-41.4	-42.4	22.4	0.00e+00	92	42	0	336592896	56	6003
2026-01-22 12:57:16.65	39.89	14.27	-41.2	-42.2	22.5	0.00e+00	0	42	0	338690048	56	5869
2026-01-22 12:57:17.66	40.03	14.35	-41.0	-42.0	22.8	0.00e+00	91	41	0	340787200	56	5700
2026-01-22 12:57:18.67	40.18	14.42	-41.0	-42.0	22.8	0.00e+00	6	41	0	342884352	56	5728
2026-01-22 12:57:19.68	40.33	14.49	-41.1	-42.0	22.7	0.00e+00	6	42	0	343932928	56	5759
2026-01-22 12:57:20.68	40.48	14.57	-40.8	-41.8	22.9	0.00e+00	0	42	0	346030080	56	5608
2026-01-22 12:57:21.69	40.63	14.64	-41.0	-42.0	22.7	0.00e+00	82	41	0	348127232	56	5717
2026-01-22 12:57:22.70	40.79	14.71	-40.9	-41.9	22.8	0.00e+00	92	41	0	350224384	56	5646
2026-01-22 12:57:23.72	40.94	14.79	-40.8	-41.7	23.0	0.00e+00	0	41	0	352321536	56	5544
2026-01-22 12:57:24.72	41.09	14.86	-40.9	-41.8	22.8	0.00e+00	92	41	0	353370112	54	6307
2026-01-22 12:57:25.73	41.25	14.94	-40.8	-41.7	23.0	0.00e+00	80	41	0	355467264	54	6225
2026-01-22 12:57:26.74	41.40	15.01	-40.8	-41.8	22.9	0.00e+00	0	41	0	357564416	54	6272
2026-01-22 12:57:27.75	41.56	15.08	-40.7	-41.7	23.0	0.00e+00	81	41	0	359661568	54	6178
2026-01-22 12:57:28.76	41.71	15.16	-40.7	-41.6	23.0	0.00e+00	81	41	0	361758720	54	6168
2026-01-22 12:57:29.77	41.87	15.23	-40.8	-41.8	22.8	0.00e+00	92	41	0	362807296	54	6278
2026-01-22 12:57:30.78	42.03	15.30	-40.9	-41.9	22.7	0.00e+00	0	41	0	364904448	54	6351
2026-01-22 12:57:31.79	42.19	15.38	-40.9	-41.9	22.7	0.00e+00	92	41	0	367001600	54	6385
2026-01-22 12:57:32.80	42.34	15.45	-40.9	-41.9	22.7	0.00e+00	0	41	0	369098752	54	6367
2026-01-22 12:57:33.81	42.51	15.53	-40.9	-41.9	22.8	0.00e+00	56	41	0	371195904	54	6376
2026-01-22 12:57:34.82	42.67	15.60	-41.0	-42.0	22.7	0.00e+00	2	41	0	372244480	54	6403
2026-01-22 12:57:35.83	42.83	15.67	-40.9	-41.8	22.8	0.00e+00	0	41	0	374341632	54	6316
2026-01-22 12:57:36.84	42.99	15.75	-41.1	-42.1	22.5	0.00e+00	4	41	0	376438784	54	6490
2026-01-22 12:57:37.85	43.15	15.82	-40.9	-41.9	22.7	0.00e+00	0	41	0	378535936	54	6360
2026-01-22 12:57:38.86	43.32	15.89	-41.0	-42.0	22.6	0.00e+00	92	41	0	380633088	54	6448
2026-01-22 12:57:39.87	43.48	15.97	-40.9	-41.9	22.7	0.00e+00	2	41	0	381681664	54	6360
2026-01-22 12:57:40.88	43.65	16.04	-40.9	-41.9	22.8	0.00e+00	84	41	0	383778816	54	6332
2026-01-22 12:57:41.88	43.81	16.12	-40.9	-41.9	22.7	0.00e+00	2	41	0	385875968	54	6370
2026-01-22 12:57:42.89	43.98	16.19	-41.0	-42.0	22.7	0.00e+00	82	41	0	387973120	54	6392
2026-01-22 12:57:43.90	44.15	16.26	-41.0	-42.0	22.7	0.00e+00	0	41	0	390070272	54	6418
2026-01-22 12:57:44.91	44.32	16.34	-41.2	-42.2	22.5	0.00e+00	82	41	0	391118848	54	6568
2026-01-22 12:57:45.92	44.49	16.41	-40.9	-41.9	22.8	0.00e+00	90	41	0	393216000	54	6371
2026-01-22 12:57:46.92	44.65	16.48	-41.1	-42.1	22.5	0.00e+00	0	41	0	395313152	54	6513
2026-01-22 12:57:47.93	44.83	16.56	-41.0	-42.0	22.8	0.00e+00	91	42	0	397410304	54	6394
2026-01-22 12:57:48.94	45.00	16.63	-40.8	-41.8	22.9	0.00e+00	0	41	0	399507456	54	6281
2026-01-22 12:57:49.95	45.17	16.71	-40.8	-41.8	23.0	0.00e+00	80	41	0	401604608	54	6279
2026-01-22 12:57:50.96	45.34	16.78	-40.8	-41.8	22.8	0.00e+00	0	41	0	402653184	54	6291
2026-01-22 12:57:51.97	45.52	16.85	-40.7	-41.7	23.0	0.00e+00	0	41	0	404750336	54	6188
2026-01-22 12:57:52.98	45.69	16.93	-40.6	-41.6	23.1	0.00e+00	0	41	0	406847488	54	6113
2026-01-22 12:57:53.99	45.87	17.00	-40.7	-41.7	23.1	0.00e+00	81	41	0	408944640	54	6199
2026-01-22 12:57:55.00	46.05	17.07	-40.5	-41.5	23.0	0.00e+00	92	41	0	411041792	54	6050
2026-01-22 12:57:56.01	46.22	17.15	-40.7	-41.6	23.1	0.00e+00	0	41	0	412090368	54	6140
2026-01-22 12:57:57.02	46.40	17.22	-40.6	-41.6	23.1	0.00e+00	2	41	0	414187520	54	6136
2026-01-22 12:57:58.02	46.58	17.29	-40.9	-41.9	22.9	0.00e+00	0	41	0	416284672	54	6369
2026-01-22 12:57:59.04	46.76	17.37	-41.0	-42.0	22.8	0.00e+00	0	41	0	418381824	54	6393
2026-01-22 12:58:00.04	46.94	17.44	-40.9	-41.8	22.9	0.00e+00	14	41	0	420478976	54	6317
2026-01-22 12:58:01.05	47.12	17.52	-40.6	-41.5	23.1	0.00e+00	0	41	0	421527552	54	6060
2026-01-22 12:58:02.06	47.31	17.59	-40.8	-41.7	23.0	0.00e+00	92	41	0	423624704	54	6236
2026-01-22 12:58:03.07	47.49	17.66	-40.7	-41.6	23.0	0.00e+00	0	41	0	425721856	54	6141
2026-01-22 12:58:04.08	47.68	17.74	-40.6	-41.5	23.2	0.00e+00	92	41	0	427819008	54	6097
2026-01-22 12:58:05.09	47.86	17.81	-40.3	-41.2	23.3	0.00e+00	3	41	0	429916160	54	5843
2026-01-22 12:58:06.10	48.05	17.88	-40.4	-41.3	23.3	0.00e+00	1	41	0	430964736	54	5941
2026-01-22 12:58:07.11	48.23	17.95	-40.2	-41.1	23.5	0.00e+00	0	41	0	433061888	54	5804
2026-01-22 12:58:08.12	48.42	18.03	-40.3	-41.2	23.5	0.00e+00	80	41	0	435159040	54	5856
2026-01-22 12:58:09.13	48.61	18.10	-40.3	-41.2	23.5	0.00e+00	92	41	0	437256192	54	5872
2026-01-22 12:58:10.14	48.80	18.17	-40.3	-41.3	23.4	0.00e+00	0	41	0	439353344	54	5905
2026-01-22 12:58:11.15	48.99	18.25	-40.3	-41.3	23.5	0.00e+00	0	41	0	440401920	54	5912
2026-01-22 12:58:12.16	49.18	18.32	-40.3	-41.3	23.4	0.00e+00	80	41	0	442499072	54	5904
2026-01-22 12:58:13.17	49.38	18.39	-40.2	-41.2	23.5	0.00e+00	0	41	0	444596224	54	5830
2026-01-22 12:58:14.18	49.57	18.46	-40.3	-41.2	23.6	0.00e+00	81	41	0	446693376	54	5851
2026-01-22 12:58:15.19	49.76	18.54	-40.1	-41.0	23.7	0.00e+00	82	41	0	448790528	54	5706
2026-01-22 12:58:16.20	49.96	18.61	-39.9	-40.8	23.8	0.00e+00	90	41	0	449839104	54	5575
2026-01-22 12:58:17.21	50.16	18.68	-39.8	-40.7	23.8	0.00e+00	0	41	0	451936256	54	5528
2026-01-22 12:58:18.22	50.35	18.75	-40.0	-40.9	23.8	0.00e+00	91	41	0	454033408	54	5631
2026-01-22 12:58:19.23	50.55	18.82	-40.1	-41.0	23.6	0.00e+00	0	41	0	456130560	54	5758
2026-01-22 12:58:20.24	50.75	18.90	-40.0	-40.9	23.7	0.00e+00	69	41	0	458227712	54	5635
2026-01-22 12:58:21.25	50.95	18.97	-40.0	-40.9	23.7	0.00e+00	0	41	0	459276288	54	5631
2026-01-22 12:58:22.26	51.15	19.04	-40.1	-41.0	23.6	0.00e+00	0	41	0	461373440	54	5751
2026-01-22 12:58:23.27	51.35	19.11	-40.0	-40.9	23.7	0.00e+00	2	41	0	463470592	54	5664
2026-01-22 12:58:24.28	51.56	19.18	-40.2	-41.1	23.6	0.00e+00	0	41	0	465567744	54	5783
2026-01-22 12:58:25.29	51.76	19.25	-39.9	-40.8	23.7	0.00e+00	92	41	0	467664896	54	5620
2026-01-22 12:58:26.30	51.96	19.32	-40.0	-40.9	23.7	0.00e+00	2	41	0	469762048	54	5658
2026-01-22 12:58:27.30	52.17	19.39	-40.2	-41.1	23.6	0.00e+00	0	41	0	470810624	54	5803
2026-01-22 12:58:28.31	52.37	19.47	-40.1	-41.0	23.7	0.00e+00	1	41	0	472907776	54	5697
2026-01-22 12:58:29.32	52.58	19.54	-40.3	-41.2	23.5	0.00e+00	80	41	0	475004928	54	5841
2026-01-22 12:58:30.32	52.79	19.61	-40.2	-41.1	23.5	0.00e+00	0	41	0	477102080	54	5792
2026-01-22 12:58:31.33	53.00	19.68	-40.3	-41.3	23.5	0.00e+00	0	41	0	478150656	54	5903
2026-01-22 12:58:32.34	53.21	19.75	-40.5	-41.5	23.2	0.00e+00	79	41	0	480247808	54	6052
2026-01-22 12:58:33.35	53.42	19.82	-40.3	-41.2	23.5	0.00e+00	82	41	0	482344960	54	5886
2026-01-22 12:58:34.36	53.63	19.88	-40.0	-41.0	23.7	0.00e+00	15	41	0	484442112	54	5696
2026-01-22 12:58:35.37	53.84	19.95	-40.4	-41.3	23.5	0.00e+00	3	41	0	486539264	54	5914
2026-01-22 12:58:36.38	54.06	20.02	-40.2	-41.1	23.5	0.00e+00	0	41	0	487587840	54	5827
2026-01-22 12:58:37.38	54.27	20.09	-40.2	-41.1	23.6	0.00e+00	81	41	0	489684992	54	5787
2026-01-22 12:58:38.40	54.49	20.16	-40.3	-41.3	23.4	0.00e+00	0	41	0	491782144	54	5908
2026-01-22 12:58:39.40	54.70	20.23	-40.5	-41.4	23.2	0.00e+00	71	41	0	493879296	54	6028
2026-01-22 12:58:40.41	54.92	20.30	-40.6	-41.5	23.3	0.00e+00	6	41	0	495976448	54	6068
2026-01-22 12:58:41.42	55.14	20.37	-40.7	-41.7	23.1	0.00e+00	90	41	0	498073600	54	6203
2026-01-22 12:58:42.43	55.36	20.43	-40.9	-41.9	23.0	0.00e+00	0	41	0	499122176	54	6336
2026-01-22 12:58:43.44	55.58	20.50	-41.0	-42.0	22.9	0.00e+00	5	41	0	501219328	54	6396
2026-01-22 12:58:44.45	55.80	20.57	-41.0	-42.0	22.8	0.00e+00	5	41	0	503316480	54	6420
2026-01-22 12:58:45.46	56.02	20.64	-40.9	-41.9	22.8	0.00e+00	6	41	0	505413632	54	6367
2026-01-22 12:58:46.47	56.24	20.70	-41.0	-42.0	22.8	0.00e+00	7	41	0	507510784	54	6399
2026-01-22 12:58:47.48	56.47	20.77	-40.9	-41.8	22.9	0.00e+00	0	41	0	508559360	54	6317
2026-01-22 12:58:48.48	56.69	20.84	-40.9	-41.9	22.8	0.00e+00	92	41	0	510656512	54	6363
2026-01-22 12:58:49.50	56.92	20.90	-41.0	-42.0	22.3	0.00e+00	0	41	0	512753664	54	6435
2026-01-22 12:58:50.50	57.14	20.97	-41.2	-42.2	22.4	0.00e+00	34	41	0	514850816	54	6588
2026-01-22 12:58:51.51	57.37	21.03	-41.4	-42.4	22.3	0.00e+00	84	41	0	516947968	54	6739
2026-01-22 12:58:52.52	57.60	21.10	-41.6	-42.7	22.1	0.00e+00	85	41	0	517996544	54	6983
2026-01-22 12:58:53.53	57.83	21.16	-41.6	-42.7	22.1	0.00e+00	0	41	0	520093696	54	6973
2026-01-22 12:58:54.54	58.06	21.23	-41.8	-42.9	22.0	0.00e+00	86	41	0	522190848	56	6323
2026-01-22 12:58:55.55	58.29	21.29	-41.8	-42.9	22.1	0.00e+00	92	41	0	524288000	56	6358
2026-01-22 12:58:56.56	58.53	21.36	-41.9	-43.0	21.9	0.00e+00	0	41	0	526385152	56	6446
2026-01-22 12:58:57.57	58.76	21.42	-41.7	-42.8	22.1	0.00e+00	92	41	0	527433728	56	6271
2026-01-22 12:58:58.58	59.00	21.49	-41.5	-42.5	22.4	0.00e+00	85	41	0	529530880	56	6060
2026-01-22 12:58:59.59	59.23	21.55	-41.3	-42.3	22.5	0.00e+00	0	41	0	531628032	56	5943
2026-01-22 12:59:00.60	59.47	21.61	-41.1	-42.0	22.8	0.00e+00	5	41	0	533725184	56	5752
2026-01-22 12:59:01.60	59.70	21.67	-40.9	-41.9	23.0	0.00e+00	6	41	0	535822336	56	5631
2026-01-22 12:59:02.62	59.94	21.74	-40.9	-41.9	23.0	0.00e+00	92	41	0	536870912	56	5649
2026-01-22 12:59:03.62	60.18	21.80	-40.8	-41.8	23.0	0.00e+00	7	41	0	538968064	56	5599
2026-01-22 12:59:04.64	60.42	21.86	-40.9	-41.9	22.9	0.00e+00	90	41	0	541065216	56	5671
2026-01-22 12:59:05.64	60.66	21.92	-40.9	-41.8	23.0	0.00e+00	8	41	0	543162368	56	5630
2026-01-22 12:59:06.65	60.90	21.98	-40.9	-41.9	22.9	0.00e+00	0	41	0	545259520	56	5665
2026-01-22 12:59:07.66	61.15	22.04	-41.0	-42.0	22.8	0.00e+00	1	41	0	546308096	56	5732
2026-01-22 12:59:08.67	61.39	22.10	-40.9	-41.9	22.9	0.00e+00	1	41	0	548405248	56	5674
2026-01-22 12:59:09.68	61.64	22.16	-41.0	-42.0	22.9	0.00e+00	5	41	0	550502400	56	5727
2026-01-22 12:59:10.69	61.88	22.22	-41.0	-42.0	22.8	0.00e+00	0	41	0	552599552	56	5725
2026-01-22 12:59:11.70	62.13	22.28	-41.1	-42.1	22.7	0.00e+00	90	41	0	554696704	56	5816
2026-01-22 12:59:12.71	62.38	22.34	-41.0	-42.0	22.8	0.00e+00	81	41	0	555745280	56	5750
2026-01-22 12:59:13.72	62.63	22.40	-41.1	-42.1	22.7	0.00e+00	92	41	0	557842432	56	5795
2026-01-22 12:59:14.73	62.88	22.46	-41.3	-42.3	22.4	0.00e+00	0	41	0	559939584	56	5913
2026-01-22 12:59:15.74	63.13	22.51	-41.1	-42.1	22.7	0.00e+00	82	41	0	562036736	56	5766
2026-01-22 12:59:16.75	63.38	22.57	-41.0	-42.0	22.8	0.00e+00	81	41	0	564133888	56	5728
2026-01-22 12:59:17.76	63.63	22.63	-41.0	-42.0	22.8	0.00e+00	81	41	0	566231040	56	5739
2026-01-22 12:59:18.76	63.88	22.68	-41.2	-42.2	22.7	0.00e+00	92	41	0	567279616	56	5855
2026-01-22 12:59:19.77	64.14	22.74	-41.3	-42.4	22.5	0.00e+00	0	41	0	569376768	56	5977
2026-01-22 12:59:20.78	64.39	22.79	-41.7	-42.8	22.2	0.00e+00	92	41	0	571473920	56	6256
2026-01-22 12:59:21.79	64.65	22.85	-41.8	-42.9	22.2	0.00e+00	81	41	0	573571072	56	6369
2026-01-22 12:59:22.80	64.90	22.90	-42.0	-43.1	21.9	0.00e+00	1	41	0	575668224	56	6494
2026-01-22 12:59:23.80	65.16	22.95	-42.0	-43.1	21.8	0.00e+00	0	41	0	576716800	56	6523
2026-01-22 12:59:24.81	65.42	23.01	-42.0	-43.1	21.9	0.00e+00	0	41	0	578813952	56	6470
2026-01-22 12:59:25.82	65.68	23.06	-41.9	-43.0	21.5	0.00e+00	19	41	0	580911104	56	6414
2026-01-22 12:59:26.83	65.94	23.11	-41.8	-42.8	21.9	0.00e+00	0	41	0	583008256	56	6290
2026-01-22 12:59:27.83	66.19	23.16	-41.7	-42.7	22.2	0.00e+00	92	41	0	584056832	56	6225
2026-01-22 12:59:28.85	66.46	23.22	-41.6	-42.6	22.3	0.00e+00	0	41	0	586153984	56	6154
2026-01-22 12:59:29.86	66.72	23.27	-41.4	-42.4	22.5	0.00e+00	36	41	0	588251136	56	6019
2026-01-22 12:59:30.86	66.98	23.32	-41.6	-42.6	22.5	0.00e+00	2	41	0	590348288	56	6134
2026-01-22 12:59:31.87	67.25	23.37	-41.4	-42.4	22.5	0.00e+00	0	41	0	592445440	56	5993
2026-01-22 12:59:32.88	67.51	23.42	-41.4	-42.5	22.5	0.00e+00	2	41	0	594542592	56	6034
2026-01-22 12:59:33.89	67.78	23.46	-41.6	-42.6	22.3	0.00e+00	0	41	0	595591168	56	6141
2026-01-22 12:59:34.90	68.05	23.51	-41.7	-42.8	22.2	0.00e+00	92	41	0	597688320	56	6267
2026-01-22 12:59:35.91	68.31	23.56	-41.9	-43.0	22.0	0.00e+00	1	41	0	599785472	56	6394
2026-01-22 12:59:36.92	68.58	23.61	-41.9	-43.0	21.9	0.00e+00	90	41	0	601882624	56	6403
2026-01-22 12:59:37.93	68.85	23.65	-41.8	-42.9	22.1	0.00e+00	1	41	0	603979776	56	6324
2026-01-22 12:59:38.94	69.12	23.70	-41.8	-42.8	22.1	0.00e+00	2	41	0	605028352	56	6309
2026-01-22 12:59:39.95	69.39	23.75	-41.7	-42.8	22.1	0.00e+00	80	41	0	607125504	56	6265
2026-01-22 12:59:40.96	69.66	23.79	-41.8	-42.8	22.1	0.00e+00	0	41	0	609222656	56	6286
2026-01-22 12:59:41.96	69.93	23.83	-41.5	-42.5	22.2	0.00e+00	92	41	0	611319808	56	6097
2026-01-22 12:59:42.97	70.21	23.88	-41.7	-42.8	22.2	0.00e+00	0	41	0	613416960	56	6247
2026-01-22 12:59:43.98	70.48	23.92	-41.9	-43.0	22.0	0.00e+00	91	41	0	614465536	56	6456
2026-01-22 12:59:44.99	70.76	23.96	-42.0	-43.1	21.8	0.00e+00	0	41	0	616562688	56	6471
2026-01-22 12:59:46.00	71.03	24.01	-42.1	-43.3	21.6	0.00e+00	43	41	0	618659840	56	6623
2026-01-22 12:59:47.01	71.31	24.05	-42.2	-43.4	21.5	0.00e+00	2	41	0	620756992	56	6716
2026-01-22 12:59:48.02	71.58	24.09	-42.4	-43.5	21.3	0.00e+00	0	41	0	622854144	56	6820
2026-01-22 12:59:49.03	71.86	24.13	-42.4	-43.6	21.3	0.00e+00	2	41	0	623902720	56	6894
2026-01-22 12:59:50.04	72.14	24.17	-42.5	-43.7	21.3	0.00e+00	0	41	0	625999872	56	6960
2026-01-22 12:59:51.05	72.42	24.21	-42.3	-43.4	21.5	0.00e+00	91	41	0	628097024	56	6768
2026-01-22 12:59:52.06	72.70	24.24	-42.2	-43.3	21.6	0.00e+00	0	41	0	630194176	56	6674
2026-01-22 12:59:53.07	72.98	24.28	-42.3	-43.4	21.5	0.00e+00	33	41	0	632291328	56	6724
2026-01-22 12:59:54.08	73.26	24.32	-42.0	-43.1	21.9	0.00e+00	0	41	0	633339904	56	6508
2026-01-22 12:59:55.08	73.54	24.35	-41.9	-43.0	21.9	0.00e+00	0	41	0	635437056	56	6407
2026-01-22 12:59:56.09	73.82	24.39	-42.1	-43.2	21.8	0.00e+00	0	41	0	637534208	56	6546
2026-01-22 12:59:57.10	74.10	24.42	-42.1	-43.2	21.7	0.00e+00	80	41	0	639631360	56	6566
2026-01-22 12:59:58.11	74.39	24.46	-42.2	-43.3	21.7	0.00e+00	92	41	0	641728512	56	6657
2026-01-22 12:59:59.12	74.67	24.49	-42.1	-43.3	21.7	0.00e+00	79	41	0	642777088	56	6628
2026-01-22 13:00:00.13	74.95	24.52	-42.1	-43.2	21.7	0.00e+00	92	41	0	644874240	56	6591
2026-01-22 13:00:01.14	75.24	24.56	-42.0	-43.2	21.9	0.00e+00	81	41	0	646971392	56	6550
2026-01-22 13:00:02.15	75.53	24.59	-41.9	-43.0	21.8	0.00e+00	0	41	0	649068544	56	6448
2026-01-22 13:00:03.16	75.81	24.62	-41.8	-42.9	22.1	0.00e+00	0	41	0	651165696	56	6368
2026-01-22 13:00:04.16	76.10	24.65	-41.4	-42.4	22.6	0.00e+00	79	41	0	652214272	56	6020
2026-01-22 13:00:05.17	76.38	24.68	-41.2	-42.2	22.6	0.00e+00	70	41	0	654311424	56	5884
2026-01-22 13:00:06.18	76.67	24.71	-41.2	-42.2	22.7	0.00e+00	79	41	0	656408576	56	5858
2026-01-22 13:00:07.19	76.96	24.73	-40.9	-41.9	22.9	0.00e+00	91	41	0	658505728	56	5655
2026-01-22 13:00:08.20	77.25	24.76	-40.6	-41.6	23.1	0.00e+00	0	41	0	660602880	54	6121
2026-01-22 13:00:09.21	77.54	24.79	-40.7	-41.7	23.1	0.00e+00	91	41	0	662700032	54	6194
2026-01-22 13:00:10.22	77.83	24.81	-40.8	-41.8	23.0	0.00e+00	2	41	0	663748608	54	6251
2026-01-22 13:00:11.23	78.12	24.84	-40.8	-41.8	23.0	0.00e+00	0	41	0	665845760	54	6278
2026-01-22 13:00:12.24	78.41	24.86	-40.8	-41.8	23.0	0.00e+00	0	41	0	667942912	54	6252
2026-01-22 13:00:13.25	78.70	24.89	-40.8	-41.7	23.0	0.00e+00	0	41	0	670040064	54	6205
2026-01-22 13:00:14.26	78.99	24.91	-40.6	-41.6	23.1	0.00e+00	92	41	0	672137216	54	6131
2026-01-22 13:00:15.27	79.28	24.93	-40.9	-41.8	22.9	0.00e+00	0	41	0	673185792	54	6317
2026-01-22 13:00:16.28	79.58	24.95	-40.9	-41.9	22.9	0.00e+00	90	41	0	675282944	54	6341
2026-01-22 13:00:17.29	79.87	24.97	-41.0	-41.9	22.8	0.00e+00	0	41	0	677380096	54	6380
2026-01-22 13:00:18.30	80.16	24.99	-41.2	-42.2	22.6	0.00e+00	0	41	0	679477248	54	6578
2026-01-22 13:00:19.30	80.45	25.01	-41.5	-42.5	22.3	0.00e+00	0	41	0	681574400	54	6801
2026-01-22 13:00:20.31	80.75	25.03	-42.0	-43.1	22.0	0.00e+00	0	41	0	682622976	56	6485
2026-01-22 13:00:21.32	81.04	25.05	-42.2	-43.3	21.8	0.00e+00	90	41	0	684720128	56	6649
2026-01-22 13:00:22.33	81.34	25.06	-42.1	-43.2	21.9	0.00e+00	0	41	0	686817280	56	6595
2026-01-22 13:00:23.34	81.63	25.08	-42.1	-43.3	21.7	0.00e+00	90	41	0	688914432	56	6620
2026-01-22 13:00:24.35	81.93	25.09	-41.9	-42.9	22.1	0.00e+00	0	41	0	691011584	56	6369
2026-01-22 13:00:25.36	82.22	25.11	-41.7	-42.7	22.4	0.00e+00	82	41	0	692060160	56	6211
2026-01-22 13:00:26.37	82.52	25.12	-41.3	-42.3	22.6	0.00e+00	0	41	0	694157312	56	5944
2026-01-22 13:00:27.38	82.81	25.13	-41.1	-42.1	22.7	0.00e+00	0	41	0	696254464	56	5787
2026-01-22 13:00:28.38	83.11	25.15	-41.2	-42.2	22.7	0.00e+00	66	41	0	698351616	56	5839
2026-01-22 13:00:29.39	83.40	25.16	-41.1	-42.0	22.8	0.00e+00	0	41	0	700448768	56	5757
2026-01-22 13:00:30.40	83.70	25.17	-41.1	-42.0	22.7	0.00e+00	92	41	0	701497344	56	5757
2026-01-22 13:00:31.41	84.00	25.18	-41.3	-42.3	22.6	0.00e+00	5	41	0	703594496	56	5908
2026-01-22 13:00:32.42	84.29	25.19	-41.3	-42.3	22.6	0.00e+00	92	41	0	705691648	56	5927
2026-01-22 13:00:33.43	84.59	25.19	-41.7	-42.7	22.2	0.00e+00	5	41	0	707788800	56	6231
2026-01-22 13:00:34.44	84.89	25.20	-41.4	-42.4	22.5	0.00e+00	0	41	0	709885952	56	5984
2026-01-22 13:00:35.45	85.19	25.21	-41.3	-42.3	22.6	0.00e+00	0	41	0	710934528	56	5913
2026-01-22 13:00:36.46	85.48	25.21	-41.3	-42.3	22.6	0.00e+00	0	41	0	713031680	56	5933
2026-01-22 13:00:37.46	85.78	25.22	-40.9	-41.9	22.9	0.00e+00	90	41	0	715128832	56	5659
2026-01-22 13:00:38.47	86.08	25.22	-41.1	-42.1	22.7	0.00e+00	0	41	0	717225984	56	5785
2026-01-22 13:00:39.48	86.37	25.23	-40.9	-41.8	23.0	0.00e+00	91	41	0	719323136	56	5614
2026-01-22 13:00:40.49	86.67	25.23	-41.1	-42.0	22.9	0.00e+00	1	41	0	720371712	56	5747
2026-01-22 13:00:41.50	86.97	25.23	-40.7	-41.6	23.1	0.00e+00	6	41	0	722468864	54	6128
2026-01-22 13:00:42.51	87.27	25.23	-40.8	-41.7	22.9	0.00e+00	0	41	0	724566016	54	6230
2026-01-22 13:00:43.52	87.56	25.23	-40.9	-41.9	22.8	0.00e+00	0	41	0	726663168	54	6337
2026-01-22 13:00:44.53	87.86	25.23	-41.2	-42.1	22.6	0.00e+00	77	41	0	728760320	54	6539
2026-01-22 13:00:45.54	88.16	25.23	-41.2	-42.3	22.4	0.00e+00	0	41	0	729808896	54	6626
2026-01-22 13:00:46.55	88.46	25.23	-41.4	-42.4	22.4	0.00e+00	92	41	0	731906048	54	6744
2026-01-22 13:00:47.56	88.76	25.22	-40.8	-41.8	23.0	0.00e+00	0	41	0	734003200	54	6248
2026-01-22 13:00:48.57	89.05	25.22	-40.6	-41.5	22.9	0.00e+00	85	41	0	736100352	54	6096
2026-01-22 13:00:49.58	89.35	25.21	-40.4	-41.4	23.3	0.00e+00	0	41	0	738197504	54	5979
2026-01-22 13:00:50.58	89.65	25.21	-40.3	-41.2	23.4	0.00e+00	86	41	0	739246080	54	5881
2026-01-22 13:00:51.59	89.94	25.20	-40.5	-41.4	23.1	0.00e+00	59	41	0	741343232	54	5998
2026-01-22 13:00:52.60	90.24	25.19	-40.8	-41.7	23.1	0.00e+00	6	41	0	743440384	54	6227
2026-01-22 13:00:53.61	90.54	25.19	-41.1	-42.1	22.7	0.00e+00	92	41	0	745537536	54	6520
2026-01-22 13:00:54.62	90.84	25.18	-41.5	-42.6	22.3	0.00e+00	0	41	0	747634688	54	6870
2026-01-22 13:00:55.63	91.13	25.17	-41.9	-43.0	21.9	0.00e+00	92	41	0	748683264	56	6458
2026-01-22 13:00:56.64	91.43	25.16	-42.0	-43.2	21.8	0.00e+00	0	41	0	750780416	56	6540
2026-01-22 13:00:57.65	91.73	25.15	-41.8	-42.9	22.0	0.00e+00	8	41	0	752877568	56	6346
2026-01-22 13:00:58.66	92.02	25.13	-41.8	-42.9	22.0	0.00e+00	0	41	0	754974720	56	6350
2026-01-22 13:00:59.67	92.32	25.12	-41.9	-42.9	22.0	0.00e+00	7	41	0	757071872	56	6388
2026-01-22 13:01:00.68	92.61	25.11	-41.7	-42.7	22.2	0.00e+00	92	41	0	759169024	56	6230
2026-01-22 13:01:01.69	92.91	25.09	-41.6	-42.7	22.3	0.00e+00	0	41	0	760217600	56	6184
2026-01-22 13:01:02.70	93.21	25.08	-41.4	-42.4	22.4	0.00e+00	91	41	0	762314752	56	5996
2026-01-22 13:01:03.70	93.50	25.06	-41.2	-42.2	22.7	0.00e+00	81	41	0	764411904	56	5843
2026-01-22 13:01:04.71	93.79	25.05	-41.1	-42.1	22.7	0.00e+00	2	41	0	766509056	56	5763
2026-01-22 13:01:05.72	94.09	25.03	-41.2	-42.2	22.6	0.00e+00	0	41	0	768606208	56	5841
2026-01-22 13:01:06.73	94.38	25.01	-41.4	-42.4	22.6	0.00e+00	1	41	0	769654784	56	5984
2026-01-22 13:01:07.74	94.68	24.99	-41.5	-42.6	22.4	0.00e+00	92	41	0	771751936	56	6112
2026-01-22 13:01:08.75	94.97	24.97	-41.5	-42.6	22.3	0.00e+00	80	41	0	773849088	56	6125
2026-01-22 13:01:09.76	95.26	24.95	-41.4	-42.5	22.4	0.00e+00	92	41	0	775946240	56	6048
2026-01-22 13:01:10.77	95.56	24.93	-41.3	-42.3	22.6	0.00e+00	0	41	0	778043392	56	5953
2026-01-22 13:01:11.78	95.85	24.91	-41.1	-42.1	22.8	0.00e+00	91	41	0	779091968	56	5771
2026-01-22 13:01:12.79	96.14	24.89	-40.7	-41.7	23.1	0.00e+00	80	41	0	781189120	56	5521
2026-01-22 13:01:13.80	96.43	24.86	-40.6	-41.5	23.1	0.00e+00	0	41	0	783286272	54	6097
2026-01-22 13:01:14.81	96.72	24.84	-40.6	-41.6	23.0	0.00e+00	81	41	0	785383424	54	6133
2026-01-22 13:01:15.82	97.01	24.81	-40.9	-41.9	22.8	0.00e+00	2	41	0	787480576	54	6374
2026-01-22 13:01:16.83	97.30	24.79	-41.2	-42.2	22.6	0.00e+00	92	41	0	788529152	54	6562
2026-01-22 13:01:17.84	97.59	24.76	-41.0	-42.0	22.7	0.00e+00	0	41	0	790626304	54	6436
2026-01-22 13:01:18.85	97.88	24.73	-41.1	-42.1	22.6	0.00e+00	92	41	0	792723456	54	6523
2026-01-22 13:01:19.86	98.17	24.71	-40.7	-41.7	23.0	0.00e+00	0	41	0	794820608	54	6180
2026-01-22 13:01:20.87	98.46	24.68	-40.3	-41.3	23.4	0.00e+00	0	41	0	796917760	54	5908
2026-01-22 13:01:21.88	98.75	24.65	-40.1	-41.0	23.6	0.00e+00	0	41	0	797966336	54	5740
2026-01-22 13:01:22.88	99.03	24.62	-40.2	-41.1	23.5	0.00e+00	1	41	0	800063488	54	5818
2026-01-22 13:01:23.89	99.32	24.59	-40.3	-41.3	23.3	0.00e+00	92	41	0	802160640	54	5918
2026-01-22 13:01:24.90	99.61	24.56	-40.6	-41.5	22.9	0.00e+00	81	41	0	804257792	54	6099
2026-01-22 13:01:25.91	99.89	24.52	-40.4	-41.4	23.3	0.00e+00	92	41	0	806354944	54	5969
2026-01-22 13:01:26.92	100.18	24.49	-40.4	-41.3	23.4	0.00e+00	81	41	0	807403520	54	5922
2026-01-22 13:01:27.93	100.46	24.46	-40.3	-41.3	23.4	0.00e+00	81	41	0	809500672	54	5909
2026-01-22 13:01:28.94	100.74	24.42	-40.3	-41.2	23.5	0.00e+00	81	41	0	811597824	54	5875
2026-01-22 13:01:29.95	101.03	24.39	-40.3	-41.2	23.4	0.00e+00	0	41	0	813694976	54	5889
2026-01-22 13:01:30.96	101.31	24.35	-40.3	-41.2	23.5	0.00e+00	92	41	0	815792128	54	5852
2026-01-22 13:01:31.97	101.59	24.32	-40.1	-41.0	23.7	0.00e+00	0	41	0	816840704	54	5760
2026-01-22 13:01:32.98	101.87	24.28	-39.8	-40.7	23.9	0.00e+00	92	41	0	818937856	54	5531
2026-01-22 13:01:33.99	102.16	24.24	-39.8	-40.6	24.0	0.00e+00	0	41	0	821035008	52	6167
2026-01-22 13:01:35.00	102.44	24.20	-39.7	-40.6	23.9	0.00e+00	0	41	0	823132160	52	6127
2026-01-22 13:01:36.01	102.71	24.16	-39.7	-40.6	24.0	0.00e+00	0	41	0	825229312	52	6130
2026-01-22 13:01:37.02	102.99	24.12	-39.8	-40.6	24.0	0.00e+00	2	41	0	827326464	52	6171
2026-01-22 13:01:38.03	103.27	24.08	-39.7	-40.6	24.0	0.00e+00	8	41	0	828375040	52	6137
2026-01-22 13:01:39.04	103.55	24.04	-39.6	-40.4	24.1	0.00e+00	0	41	0	830472192	52	6031
2026-01-22 13:01:40.05	103.83	24.00	-39.5	-40.3	24.2	0.00e+00	92	41	0	832569344	52	5956
2026-01-22 13:01:41.06	104.10	23.96	-39.4	-40.3	24.2	0.00e+00	0	41	0	834666496	52	5904
2026-01-22 13:01:42.07	104.38	23.92	-39.4	-40.2	24.2	0.00e+00	47	41	0	836763648	52	5884
2026-01-22 13:01:43.07	104.65	23.87	-39.3	-40.1	24.3	0.00e+00	1	41	0	837812224	52	5823
2026-01-22 13:01:44.08	104.92	23.83	-39.3	-40.1	24.4	0.00e+00	0	41	0	839909376	52	5821
2026-01-22 13:01:45.09	105.20	23.79	-39.4	-40.3	24.3	0.00e+00	0	41	0	842006528	52	5902
2026-01-22 13:01:46.10	105.47	23.74	-39.4	-40.2	24.3	0.00e+00	0	41	0	844103680	52	5895
2026-01-22 13:01:47.11	105.74	23.70	-39.3	-40.1	24.4	0.00e+00	90	41	0	846200832	52	5795
2026-01-22 13:01:48.12	106.01	23.65	-39.3	-40.1	24.4	0.00e+00	0	41	0	847249408	52	5810
2026-01-22 13:01:49.13	106.28	23.60	-39.1	-39.9	24.5	0.00e+00	92	41	0	849346560	52	5663
2026-01-22 13:01:50.14	106.55	23.56	-38.9	-39.7	24.8	0.00e+00	81	41	0	851443712	52	5512
2026-01-22 13:01:51.15	106.82	23.51	-39.0	-39.8	24.7	0.00e+00	0	41	0	853540864	52	5618
2026-01-22 13:01:52.16	107.09	23.46	-39.3	-40.1	24.3	0.00e+00	81	41	0	855638016	52	5820
2026-01-22 13:01:53.17	107.35	23.41	-39.6	-40.5	24.1	0.00e+00	0	41	0	856686592	52	6075
2026-01-22 13:01:54.18	107.62	23.36	-39.8	-40.7	23.9	0.00e+00	92	41	0	858783744	52	6184
2026-01-22 13:01:55.19	107.88	23.31	-39.9	-40.7	23.8	0.00e+00	0	41	0	860880896	52	6232
2026-01-22 13:01:56.20	108.15	23.26	-39.9	-40.8	23.8	0.00e+00	92	41	0	862978048	52	6286
2026-01-22 13:01:57.21	108.41	23.21	-39.6	-40.4	24.1	0.00e+00	0	41	0	865075200	52	6008
2026-01-22 13:01:58.21	108.67	23.16	-39.3	-40.1	24.3	0.00e+00	92	41	0	866123776	52	5826
2026-01-22 13:01:59.22	108.93	23.11	-39.3	-40.2	24.0	0.00e+00	0	41	0	868220928	52	5844
2026-01-22 13:02:00.23	109.19	23.05	-39.3	-40.1	24.3	0.00e+00	0	41	0	870318080	52	5801
2026-01-22 13:02:01.24	109.45	23.00	-39.3	-40.1	24.3	0.00e+00	43	41	0	872415232	52	5826
2026-01-22 13:02:02.25	109.71	22.95	-39.5	-40.3	24.2	0.00e+00	0	41	0	874512384	52	5962
2026-01-22 13:02:03.26	109.97	22.89	-39.6	-40.4	24.1	0.00e+00	92	41	0	875560960	52	6021
2026-01-22 13:02:04.27	110.23	22.84	-39.7	-40.5	24.1	0.00e+00	0	41	0	877658112	52	6093
2026-01-22 13:02:05.28	110.49	22.78	-39.8	-40.7	23.9	0.00e+00	92	41	0	879755264	52	6207
2026-01-22 13:02:06.29	110.74	22.73	-40.0	-40.9	23.7	0.00e+00	0	41	0	881852416	52	6353
2026-01-22 13:02:07.30	111.00	22.67	-40.4	-41.3	23.0	0.00e+00	81	41	0	883949568	52	6657
2026-01-22 13:02:08.30	111.25	22.62	-40.7	-41.6	23.0	0.00e+00	0	41	0	884998144	54	6146
2026-01-22 13:02:09.32	111.50	22.56	-40.9	-41.9	22.8	0.00e+00	81	41	0	887095296	54	6350
2026-01-22 13:02:10.32	111.75	22.50	-40.9	-41.9	22.8	0.00e+00	92	41	0	889192448	54	6343
2026-01-22 13:02:11.34	112.01	22.44	-40.9	-41.8	22.8	0.00e+00	0	41	0	891289600	54	6309
2026-01-22 13:02:12.35	112.26	22.39	-40.8	-41.8	22.9	0.00e+00	92	41	0	893386752	54	6279
2026-01-22 13:02:13.36	112.51	22.33	-40.7	-41.6	23.0	0.00e+00	0	41	0	895483904	54	6159
2026-01-22 13:02:14.36	112.75	22.27	-40.7	-41.7	23.0	0.00e+00	81	41	0	896532480	54	6226
2026-01-22 13:02:15.38	113.00	22.21	-40.8	-41.8	23.0	0.00e+00	0	41	0	898629632	54	6255
2026-01-22 13:02:16.38	113.25	22.15	-40.6	-41.6	23.0	0.00e+00	0	41	0	900726784	54	6136
2026-01-22 13:02:17.39	113.49	22.09	-40.8	-41.8	22.9	0.00e+00	82	41	0	902823936	54	6293
2026-01-22 13:02:18.40	113.74	22.03	-40.6	-41.5	23.1	0.00e+00	0	41	0	904921088	54	6103
2026-01-22 13:02:19.41	113.98	21.97	-40.4	-41.3	23.2	0.00e+00	92	41	0	905969664	54	5953
2026-01-22 13:02:20.42	114.23	21.91	-40.3	-41.2	23.4	0.00e+00	0	41	0	908066816	54	5875
2026-01-22 13:02:21.43	114.47	21.85	-40.1	-41.0	23.6	0.00e+00	7	41	0	910163968	54	5703
2026-01-22 13:02:22.44	114.71	21.78	-40.3	-41.2	23.4	0.00e+00	0	41	0	912261120	54	5851
2026-01-22 13:02:23.45	114.95	21.72	-40.3	-41.3	23.2	0.00e+00	0	41	0	914358272	54	5912
2026-01-22 13:02:24.46	115.19	21.66	-40.5	-41.4	23.1	0.00e+00	0	41	0	915406848	54	6029
2026-01-22 13:02:25.46	115.42	21.60	-40.5	-41.5	23.2	0.00e+00	0	41	0	917504000	54	6048
2026-01-22 13:02:26.47	115.66	21.53	-40.6	-41.6	23.1	0.00e+00	92	41	0	919601152	54	6122
2026-01-22 13:02:27.48	115.90	21.47	-40.5	-41.5	23.2	0.00e+00	0	41	0	921698304	54	6068
2026-01-22 13:02:28.49	116.13	21.41	-40.6	-41.6	23.1	0.00e+00	92	41	0	923795456	54	6135
2026-01-22 13:02:29.50	116.37	21.34	-40.6	-41.6	23.1	0.00e+00	0	41	0	924844032	54	6142
2026-01-22 13:02:30.51	116.60	21.28	-40.6	-41.6	22.9	0.00e+00	86	41	0	926941184	54	6153
2026-01-22 13:02:31.52	116.83	21.21	-40.6	-41.5	23.1	0.00e+00	0	41	0	929038336	54	6097
2026-01-22 13:02:32.53	117.07	21.15	-40.5	-41.5	23.1	0.00e+00	85	41	0	931135488	54	6069
2026-01-22 13:02:33.54	117.30	21.08	-40.5	-41.5	23.1	0.00e+00	92	41	0	933232640	54	6068
2026-01-22 13:02:34.55	117.53	21.01	-40.5	-41.4	23.1	0.00e+00	85	41	0	934281216	54	5998
2026-01-22 13:02:35.56	117.75	20.95	-40.4	-41.3	23.2	0.00e+00	92	41	0	936378368	54	5946
2026-01-22 13:02:36.57	117.98	20.88	-40.5	-41.4	23.2	0.00e+00	0	41	0	938475520	54	6023
2026-01-22 13:02:37.58	118.21	20.82	-40.3	-41.3	23.3	0.00e+00	85	41	0	940572672	54	5898
2026-01-22 13:02:38.59	118.44	20.75	-40.5	-41.4	23.1	0.00e+00	85	41	0	942669824	54	6019
2026-01-22 13:02:39.60	118.66	20.68	-40.5	-41.4	23.1	0.00e+00	8	41	0	943718400	54	6030
2026-01-22 13:02:40.61	118.88	20.61	-40.3	-41.3	23.2	0.00e+00	92	41	0	945815552	54	5904
2026-01-22 13:02:41.62	119.11	20.55	-40.4	-41.3	23.3	0.00e+00	0	41	0	947912704	54	5920
2026-01-22 13:02:42.63	119.33	20.48	-40.2	-41.1	23.4	0.00e+00	92	41	0	950009856	54	5802
2026-01-22 13:02:43.64	119.55	20.41	-40.1	-41.0	23.5	0.00e+00	8	41	0	952107008	54	5710
2026-01-22 13:02:44.65	119.77	20.34	-40.2	-41.2	23.4	0.00e+00	15	41	0	953155584	54	5843
2026-01-22 13:02:45.66	119.99	20.27	-40.5	-41.4	23.1	0.00e+00	0	41	0	955252736	54	6017
2026-01-22 13:02:46.66	120.21	20.20	-40.6	-41.6	23.0	0.00e+00	0	41	0	957349888	54	6119
2026-01-22 13:02:47.67	120.42	20.14	-40.7	-41.7	23.0	0.00e+00	6	41	0	959447040	54	6187
2026-01-22 13:02:48.68	120.64	20.07	-40.7	-41.7	22.9	0.00e+00	6	41	0	961544192	54	6195
2026-01-22 13:02:49.69	120.86	20.00	-40.7	-41.6	23.0	0.00e+00	92	41	0	963641344	54	6160
2026-01-22 13:02:50.70	121.07	19.93	-40.7	-41.7	22.9	0.00e+00	82	41	0	964689920	54	6213
2026-01-22 13:02:51.71	121.28	19.86	-41.0	-42.0	22.6	0.00e+00	92	41	0	966787072	54	6433
2026-01-22 13:02:52.72	121.50	19.79	-41.3	-42.3	22.3	0.00e+00	82	41	0	968884224	54	6687
2026-01-22 13:02:53.73	121.71	19.72	-41.7	-42.8	21.8	0.00e+00	81	41	0	970981376	54	7065
2026-01-22 13:02:54.74	121.92	19.65	-42.2	-43.4	21.4	0.00e+00	82	41	0	972029952	56	6715
2026-01-22 13:02:55.75	122.13	19.58	-42.4	-43.7	21.2	0.00e+00	81	41	0	974127104	56	6935
2026-01-22 13:02:56.76	122.34	19.50	-42.2	-43.4	21.5	0.00e+00	92	41	0	976224256	56	6727
2026-01-22 13:02:57.77	122.55	19.43	-41.7	-42.8	22.0	0.00e+00	81	41	0	978321408	56	6291
2026-01-22 13:02:58.78	122.75	19.36	-41.3	-42.4	22.4	0.00e+00	90	41	0	980418560	56	6015
2026-01-22 13:02:59.79	122.96	19.29	-41.0	-42.0	22.7	0.00e+00	0	41	0	981467136	56	5739
2026-01-22 13:03:00.80	123.16	19.22	-41.0	-42.1	22.7	0.00e+00	2	41	0	983564288	56	5768
2026-01-22 13:03:01.81	123.37	19.15	-41.0	-42.1	22.5	0.00e+00	0	41	0	985661440	56	5779
2026-01-22 13:03:02.81	123.57	19.08	-41.5	-42.6	22.0	0.00e+00	2	41	0	987758592	56	6133
2026-01-22 13:03:03.83	123.77	19.00	-41.8	-42.9	21.8	0.00e+00	83	41	0	989855744	56	6332
2026-01-22 13:03:04.84	123.97	18.93	-41.9	-43.0	21.8	0.00e+00	0	41	0	991952896	56	6442
2026-01-22 13:03:05.84	124.17	18.86	-41.7	-42.8	22.0	0.00e+00	92	41	0	993001472	56	6265
2026-01-22 13:03:06.85	124.37	18.79	-41.6	-42.6	22.0	0.00e+00	0	41	0	995098624	56	6158
2026-01-22 13:03:07.86	124.57	18.72	-41.0	-42.0	22.7	0.00e+00	92	41	0	997195776	56	5716
2026-01-22 13:03:08.87	124.77	18.64	-40.9	-41.9	22.8	0.00e+00	2	41	0	999292928	56	5644
2026-01-22 13:03:09.88	124.97	18.57	-40.8	-41.8	22.8	0.00e+00	0	41	0	1001390080	56	5588
2026-01-22 13:03:10.89	125.16	18.50	-41.1	-42.1	22.5	0.00e+00	0	41	0	1002438656	56	5775
2026-01-22 13:03:11.90	125.36	18.43	-41.4	-42.5	22.3	0.00e+00	81	41	0	1004535808	56	6046
2026-01-22 13:03:12.91	125.55	18.35	-41.7	-42.8	21.9	0.00e+00	90	41	0	1006632960	56	6262
2026-01-22 13:03:13.92	125.74	18.28	-41.7	-42.7	21.9	0.00e+00	0	41	0	1008730112	56	6233
2026-01-22 13:03:14.92	125.93	18.21	-41.6	-42.7	22.0	0.00e+00	90	41	0	1010827264	56	6223
2026-01-22 13:03:15.93	126.13	18.13	-41.4	-42.5	22.2	0.00e+00	81	41	0	1011875840	56	6041
2026-01-22 13:03:16.94	126.32	18.06	-41.2	-42.2	22.4	0.00e+00	0	41	0	1013972992	56	5888
2026-01-22 13:03:17.95	126.51	17.99	-41.1	-42.1	22.4	0.00e+00	0	41	0	1016070144	56	5817
2026-01-22 13:03:18.96	126.69	17.91	-41.3	-42.3	22.2	0.00e+00	82	41	0	1018167296	56	5938
2026-01-22 13:03:19.97	126.88	17.84	-41.7	-42.8	21.9	0.00e+00	92	41	0	1020264448	56	6251
2026-01-22 13:03:20.98	127.07	17.77	-42.1	-43.3	21.5	0.00e+00	0	41	0	1021313024	56	6618
2026-01-22 13:03:21.99	127.25	17.69	-42.1	-43.3	21.3	0.00e+00	91	41	0	1023410176	56	6655
2026-01-22 13:03:23.00	127.44	17.62	-42.2	-43.4	21.4	0.00e+00	0	41	0	1025507328	56	6749
2026-01-22 13:03:24.01	127.62	17.54	-42.0	-43.2	21.5	0.00e+00	2	41	0	1027604480	56	6543
2026-01-22 13:03:25.02	127.81	17.47	-41.4	-42.5	22.2	0.00e+00	2	41	0	1029701632	56	6036
2026-01-22 13:03:26.03	127.99	17.40	-40.9	-41.9	22.7	0.00e+00	0	41	0	1030750208	56	5684
2026-01-22 13:03:27.04	128.17	17.32	-40.9	-41.9	22.7	0.00e+00	80	41	0	1032847360	56	5655
2026-01-22 13:03:28.04	128.35	17.25	-40.5	-41.5	23.0	0.00e+00	0	41	0	1034944512	54	6063
2026-01-22 13:03:29.05	128.53	17.17	-40.7	-41.7	22.8	0.00e+00	92	41	0	1037041664	54	6183
2026-01-22 13:03:30.06	128.71	17.10	-41.2	-42.2	22.4	0.00e+00	0	41	0	1039138816	54	6560
2026-01-22 13:03:31.07	128.89	17.03	-41.7	-42.8	21.8	0.00e+00	20	41	0	1040187392	54	7033
2026-01-22 13:03:32.08	129.07	16.95	-42.2	-43.4	21.3	0.00e+00	0	41	0	1042284544	56	6763
2026-01-22 13:03:33.09	129.24	16.88	-42.7	-43.9	20.8	0.00e+00	2	41	0	1044381696	56	7167
2026-01-22 13:03:34.10	129.42	16.80	-42.6	-43.8	20.9	0.00e+00	0	41	0	1046478848	58	6300
2026-01-22 13:03:35.11	129.59	16.73	-42.2	-43.4	21.4	0.00e+00	82	41	0	1048576000	58	5971
2026-01-22 13:03:36.12	129.77	16.66	-42.1	-43.2	21.4	0.00e+00	90	41	0	1049624576	58	5887
2026-01-22 13:03:37.13	129.94	16.58	-41.7	-42.8	21.9	0.00e+00	0	41	0	1051721728	58	5624
2026-01-22 13:03:38.14	130.11	16.51	-41.3	-42.4	22.2	0.00e+00	92	41	0	1053818880	56	5970
2026-01-22 13:03:39.15	130.28	16.43	-41.1	-42.1	22.5	0.00e+00	0	41	0	1055916032	56	5806
2026-01-22 13:03:40.16	130.45	16.36	-41.2	-42.2	22.5	0.00e+00	82	41	0	1058013184	56	5860
2026-01-22 13:03:41.17	130.62	16.28	-41.2	-42.3	22.3	0.00e+00	81	41	0	1060110336	56	5906
2026-01-22 13:03:42.18	130.79	16.21	-41.5	-42.6	22.2	0.00e+00	0	41	0	1061158912	56	6121
2026-01-22 13:03:43.19	130.96	16.13	-41.4	-42.4	22.2	0.00e+00	91	41	0	1063256064	56	6030
2026-01-22 13:03:44.20	131.13	16.06	-41.5	-42.5	22.1	0.00e+00	0	41	0	1065353216	56	6092
2026-01-22 13:03:45.20	131.29	15.99	-41.3	-42.4	22.2	0.00e+00	92	41	0	1067450368	56	5967
2026-01-22 13:03:46.21	131.46	15.91	-41.3	-42.3	22.3	0.00e+00	0	41	0	1069547520	56	5935
2026-01-22 13:03:47.22	131.63	15.84	-41.2	-42.2	22.4	0.00e+00	0	41	0	1070596096	56	5874
2026-01-22 13:03:48.23	131.79	15.76	-41.0	-42.0	22.6	0.00e+00	0	41	0	1072693248	56	5759
2026-01-22 13:03:49.24	131.95	15.69	-41.0	-42.0	22.5	0.00e+00	2	41	0	1074790400	56	5752
2026-01-22 13:03:50.25	132.12	15.61	-41.1	-42.1	22.5	0.00e+00	73	41	0	1076887552	56	5796
2026-01-22 13:03:51.26	132.28	15.54	-41.4	-42.5	22.1	0.00e+00	0	41	0	1078984704	56	6060
2026-01-22 13:03:52.27	132.44	15.46	-41.5	-42.6	22.0	0.00e+00	91	41	0	1080033280	56	6153
2026-01-22 13:03:53.28	132.60	15.39	-41.6	-42.7	21.9	0.00e+00	0	41	0	1082130432	56	6211
2026-01-22 13:03:54.29	132.76	15.32	-41.6	-42.7	21.8	0.00e+00	0	41	0	1084227584	56	6221
2026-01-22 13:03:55.30	132.92	15.24	-41.7	-42.8	21.4	0.00e+00	2	41	0	1086324736	56	6261
2026-01-22 13:03:56.31	133.08	15.17	-41.6	-42.7	21.7	0.00e+00	81	41	0	1088421888	56	6199
2026-01-22 13:03:57.32	133.23	15.09	-41.5	-42.5	22.0	0.00e+00	0	41	0	1089470464	56	6097
2026-01-22 13:03:58.32	133.39	15.02	-41.4	-42.4	22.2	0.00e+00	81	41	0	1091567616	56	6012
2026-01-22 13:03:59.33	133.54	14.95	-41.2	-42.3	22.3	0.00e+00	90	41	0	1093664768	56	5899
2026-01-22 13:04:00.34	133.70	14.87	-41.3	-42.3	22.2	0.00e+00	82	41	0	1095761920	56	5940
2026-01-22 13:04:01.35	133.85	14.80	-41.3	-42.4	22.2	0.00e+00	92	41	0	1097859072	56	5976
2026-01-22 13:04:02.36	134.01	14.72	-41.4	-42.4	22.1	0.00e+00	0	41	0	1098907648	56	6025
2026-01-22 13:04:03.37	134.16	14.65	-41.4	-42.4	22.3	0.00e+00	0	41	0	1101004800	56	6031
2026-01-22 13:04:04.38	134.31	14.57	-41.3	-42.4	22.2	0.00e+00	81	41	0	1103101952	56	5975
2026-01-22 13:04:05.39	134.46	14.50	-41.4	-42.5	22.1	0.00e+00	5	41	0	1105199104	56	6062
2026-01-22 13:04:06.40	134.61	14.43	-41.4	-42.4	22.1	0.00e+00	92	41	0	1107296256	56	6031
2026-01-22 13:04:07.41	134.76	14.35	-41.5	-42.5	22.0	0.00e+00	0	41	0	1108344832	56	6087
2026-01-22 13:04:08.42	134.91	14.28	-41.1	-42.1	22.4	0.00e+00	92	41	0	1110441984	56	5814
2026-01-22 13:04:09.43	135.06	14.20	-41.1	-42.1	22.5	0.00e+00	6	41	0	1112539136	56	5816
2026-01-22 13:04:10.44	135.21	14.13	-41.1	-42.2	22.4	0.00e+00	0	41	0	1114636288	56	5867
2026-01-22 13:04:11.44	135.36	14.06	-41.0	-42.1	22.5	0.00e+00	0	41	0	1116733440	56	5768
2026-01-22 13:04:12.45	135.50	13.98	-41.2	-42.2	22.3	0.00e+00	7	41	0	1117782016	56	5877
2026-01-22 13:04:13.46	135.65	13.91	-41.2	-42.2	22.2	0.00e+00	16	41	0	1119879168	56	5886
2026-01-22 13:04:14.47	135.79	13.84	-41.1	-42.2	22.3	0.00e+00	6	41	0	1121976320	56	5844
2026-01-22 13:04:15.48	135.94	13.76	-41.0	-42.0	22.5	0.00e+00	92	41	0	1124073472	56	5755
2026-01-22 13:04:16.48	136.08	13.69	-41.1	-42.1	22.4	0.00e+00	0	41	0	1126170624	56	5798
2026-01-22 13:04:17.49	136.22	13.62	-41.1	-42.1	22.4	0.00e+00	37	41	0	1128267776	56	5819
2026-01-22 13:04:18.50	136.36	13.54	-41.3	-42.3	22.2	0.00e+00	82	41	0	1129316352	56	5942
2026-01-22 13:04:19.51	136.51	13.47	-41.2	-42.2	22.2	0.00e+00	82	41	0	1131413504	56	5895
2026-01-22 13:04:20.52	136.65	13.40	-41.4	-42.4	22.1	0.00e+00	0	41	0	1133510656	56	6004
2026-01-22 13:04:21.53	136.79	13.32	-41.4	-42.5	22.1	0.00e+00	83	41	0	1135607808	56	6050
2026-01-22 13:04:22.54	136.93	13.25	-41.3	-42.4	22.1	0.00e+00	92	41	0	1136656384	56	5999
2026-01-22 13:04:23.55	137.07	13.18	-41.5	-42.6	22.0	0.00e+00	0	41	0	1138753536	56	6115
2026-01-22 13:04:24.56	137.20	13.11	-41.5	-42.6	21.9	0.00e+00	92	41	0	1140850688	56	6148
2026-01-22 13:04:25.57	137.34	13.03	-41.6	-42.7	21.8	0.00e+00	6	41	0	1142947840	56	6237
2026-01-22 13:04:26.58	137.48	12.96	-41.6	-42.7	21.9	0.00e+00	86	41	0	1145044992	56	6202
2026-01-22 13:04:27.59	137.61	12.89	-41.7	-42.8	21.8	0.00e+00	86	41	0	1146093568	56	6279
2026-01-22 13:04:28.60	137.75	12.81	-41.6	-42.7	21.9	0.00e+00	1	41	0	1148190720	56	6203
2026-01-22 13:04:29.61	137.89	12.74	-41.6	-42.7	21.8	0.00e+00	61	41	0	1150287872	56	6178
2026-01-22 13:04:30.62	138.02	12.67	-41.5	-42.6	21.9	0.00e+00	0	41	0	1152385024	56	6121
2026-01-22 13:04:31.63	138.15	12.60	-41.7	-42.8	21.7	0.00e+00	92	41	0	1154482176	56	6274
2026-01-22 13:04:32.63	138.29	12.52	-41.8	-42.9	21.6	0.00e+00	0	41	0	1156579328	56	6346
2026-01-22 13:04:33.64	138.42	12.45	-41.6	-42.7	21.7	0.00e+00	0	41	0	1157627904	56	6227
2026-01-22 13:04:34.65	138.55	12.38	-41.7	-42.8	21.7	0.00e+00	0	41	0	1159725056	56	6269
2026-01-22 13:04:35.66	138.68	12.31	-41.7	-42.8	21.7	0.00e+00	7	41	0	1161822208	56	6302
2026-01-22 13:04:36.67	138.81	12.24	-41.7	-42.8	21.7	0.00e+00	0	41	0	1163919360	56	6263
2026-01-22 13:04:37.68	138.94	12.16	-41.8	-42.9	21.5	0.00e+00	7	41	0	1166016512	56	6384
2026-01-22 13:04:38.69	139.07	12.09	-41.7	-42.8	21.5	0.00e+00	92	41	0	1167065088	56	6310
2026-01-22 13:04:39.70	139.20	12.02	-41.9	-43.0	21.4	0.00e+00	81	41	0	1169162240	56	6435
2026-01-22 13:04:40.71	139.33	11.95	-42.1	-43.3	21.1	0.00e+00	92	41	0	1171259392	56	6679
2026-01-22 13:04:41.72	139.46	11.88	-42.2	-43.4	20.9	0.00e+00	82	41	0	1173356544	56	6730
2026-01-22 13:04:42.73	139.58	11.81	-42.5	-43.8	20.6	0.00e+00	0	41	0	1175453696	56	7027
2026-01-22 13:04:43.74	139.71	11.73	-42.7	-44.0	20.2	0.00e+00	0	41	0	1176502272	56	7238
2026-01-22 13:04:44.75	139.83	11.66	-42.9	-44.3	19.8	0.00e+00	0	41	0	1178599424	58	6639
2026-01-22 13:04:45.76	139.96	11.59	-43.2	-44.7	19.3	0.00e+00	91	41	0	1180696576	58	6940
2026-01-22 13:04:46.77	140.08	11.52	-43.6	-45.2	18.8	0.00e+00	81	41	0	1182793728	58	7351
2026-01-22 13:04:47.78	140.21	11.45	-43.9	-45.6	18.3	0.00e+00	92	41	0	1184890880	60	6895
2026-01-22 13:04:48.79	140.33	11.38	-44.1	-45.9	17.9	0.00e+00	0	41	0	1185939456	60	7116
2026-01-22 13:04:49.80	140.45	11.31	-44.4	-46.4	17.1	3.80e-06	0	41	0	1188036608	60	7591
2026-01-22 13:04:50.81	140.58	11.24	-44.7	-46.8	16.7	3.58e-05	0	41	0	1190133760	60	7931
2026-01-22 13:04:51.82	140.70	11.17	-44.9	-47.1	16.2	1.85e-04	0	41	0	1192230912	60	8217
2026-01-22 13:04:52.83	140.82	11.09	-45.1	-47.5	15.8	4.03e-04	64	41	0	1194328064	60	8556
2026-01-22 13:04:53.84	140.94	11.02	-45.1	-47.5	15.7	9.49e-04	0	41	0	1195376640	60	8615
2026-01-22 13:04:54.85	141.06	10.95	-45.2	-47.7	15.6	1.50e-03	91	41	0	1197473792	60	8745
2026-01-22 13:04:55.86	141.18	10.88	-45.2	-47.8	15.5	5.85e-04	2	41	0	1199570944	60	8866
2026-01-22 13:04:56.87	141.30	10.81	-44.9	-47.3	16.1	8.54e-04	41	41	0	1201668096	60	8340
2026-01-22 13:04:57.88	141.42	10.74	-44.9	-47.2	16.1	1.30e-04	0	41	0	1203765248	60	8274
2026-01-22 13:04:58.89	141.54	10.67	-44.8	-47.1	16.3	1.85e-04	0	41	0	1204813824	60	8154
2026-01-22 13:04:59.90	141.65	10.60	-44.5	-46.6	16.7	2.73e-04	87	41	0	1206910976	60	7725
2026-01-22 13:05:00.91	141.77	10.53	-44.6	-46.7	16.7	4.23e-04	0	41	0	1209008128	60	7830
2026-01-22 13:05:01.92	141.89	10.46	-44.5	-46.6	17.0	1.30e-04	92	41	0	1211105280	60	7690
2026-01-22 13:05:02.92	142.00	10.39	-44.3	-46.3	17.4	2.89e-05	82	41	0	1213202432	60	7467
2026-01-22 13:05:03.93	142.12	10.32	-44.4	-46.4	17.3	2.97e-05	92	41	0	1214251008	60	7522
2026-01-22 13:05:04.94	142.23	10.25	-44.2	-46.1	17.7	1.29e-05	0	41	0	1216348160	60	7316
2026-01-22 13:05:05.95	142.34	10.18	-44.1	-45.9	18.1	0.00e+00	0	41	0	1218445312	60	7100
2026-01-22 13:05:06.96	142.46	10.12	-44.1	-45.9	18.0	7.00e-07	0	41	0	1220542464	60	7163
2026-01-22 13:05:07.97	142.57	10.05	-44.2	-46.0	18.0	7.00e-07	81	41	0	1222639616	60	7208
