passes_logs/2026/01/22/R4.6S_Anadyr/R4.6S_Anadyr__20260122_002725_SUOMI_NPP_rec.log

#Pass ID: 20260122_002725_SUOMI NPP
#Satellite: SUOMI NPP
#Configuration: NPP
#almurnet v.1.7.20251203
#Start time: 2026-01-22 00:27:29

#Version: 2.2.20231116
#Station: R4.6S_Anadyr
#Location: 177.4865 lon 64.73178 lat
#TLE: 1 37849U 11061A   26020.95430537  .00000198  00000+0  11470-3 0  9999
#TLE: 2 37849  98.7819 322.9518 0002315  53.3069 306.8320 14.19527555737555

#Time	Az	El	Level	Level2	SNR	BER	BlckErr	Temp	State	Recorded	gain1	gain2
2026-01-22 00:27:29.23	160.34	0.21	-51.8	-65.6	3.3	1.54e+00	0	39	0	0	60	69184
2026-01-22 00:27:30.24	160.35	0.27	-51.4	-66.5	3.6	1.51e+00	0	39	104	0	60	76821
2026-01-22 00:27:31.25	160.36	0.34	-51.3	-66.5	3.6	1.51e+00	0	39	104	0	60	76500
2026-01-22 00:27:32.26	160.37	0.40	-51.3	-66.5	3.6	1.51e+00	0	39	104	0	60	76115
2026-01-22 00:27:33.27	160.38	0.46	-51.2	-66.4	3.6	1.51e+00	0	39	104	0	60	75813
2026-01-22 00:27:34.28	160.38	0.52	-51.2	-66.4	3.6	1.51e+00	0	39	104	0	60	75627
2026-01-22 00:27:35.29	160.39	0.58	-51.2	-66.4	3.6	1.51e+00	0	39	104	0	60	75683
2026-01-22 00:27:36.30	160.40	0.64	-51.2	-66.4	3.6	1.51e+00	0	39	104	0	60	75381
2026-01-22 00:27:37.31	160.41	0.70	-51.1	-66.4	3.6	1.51e+00	0	39	104	0	60	75159
2026-01-22 00:27:38.32	160.42	0.77	-51.1	-66.3	3.6	1.51e+00	0	39	104	0	60	74274
2026-01-22 00:27:39.33	160.43	0.83	-50.8	-66.2	3.6	1.51e+00	0	39	104	0	60	73526
2026-01-22 00:27:40.34	160.44	0.89	-50.3	-66.1	3.6	1.51e+00	0	39	104	0	60	73285
2026-01-22 00:27:41.35	160.45	0.95	-50.8	-66.0	3.6	1.51e+00	0	40	104	0	60	72247
2026-01-22 00:27:42.36	160.45	1.02	-50.7	-65.9	3.6	1.51e+00	0	40	104	0	60	71508
2026-01-22 00:27:43.37	160.46	1.08	-50.6	-65.8	3.6	1.51e+00	0	40	104	0	60	70763
2026-01-22 00:27:44.38	160.47	1.14	-50.4	-65.6	3.6	1.51e+00	0	40	104	0	60	68770
2026-01-22 00:27:45.39	160.48	1.20	-49.9	-65.1	3.6	1.51e+00	0	40	104	0	60	65217
2026-01-22 00:27:46.40	160.49	1.27	-49.4	-64.6	3.6	1.51e+00	0	40	104	0	60	61438
2026-01-22 00:27:47.41	160.50	1.33	-49.7	-65.0	3.6	1.51e+00	0	40	104	0	60	64176
2026-01-22 00:27:48.43	160.51	1.40	-49.7	-64.8	3.6	1.51e+00	0	40	104	0	60	63040
2026-01-22 00:27:49.44	160.52	1.46	-49.7	-64.7	3.6	1.51e+00	0	40	104	0	60	62393
2026-01-22 00:27:50.45	160.53	1.52	-49.7	-64.7	3.6	1.51e+00	0	40	104	0	60	61823
2026-01-22 00:27:51.45	160.53	1.59	-49.7	-64.7	3.6	1.51e+00	0	40	104	0	60	62260
2026-01-22 00:27:52.46	160.54	1.65	-49.6	-64.7	3.6	1.51e+00	0	40	104	0	60	61886
2026-01-22 00:27:53.47	160.55	1.71	-49.6	-64.6	3.6	1.51e+00	0	40	104	0	60	61170
2026-01-22 00:27:54.48	160.56	1.78	-49.6	-64.6	3.6	1.51e+00	0	40	104	0	60	61616
2026-01-22 00:27:55.49	160.57	1.84	-49.6	-64.7	3.6	1.51e+00	0	40	104	0	60	61949
2026-01-22 00:27:56.50	160.58	1.91	-49.6	-64.8	3.6	1.51e+00	0	40	104	0	60	62591
2026-01-22 00:27:57.51	160.59	1.97	-49.6	-64.8	3.6	1.51e+00	0	40	104	0	60	62833
2026-01-22 00:27:58.52	160.60	2.04	-49.7	-64.9	3.6	1.51e+00	0	40	104	0	60	63341
2026-01-22 00:27:59.53	160.61	2.10	-49.7	-64.9	3.6	1.51e+00	0	40	104	0	60	63334
2026-01-22 00:28:00.54	160.62	2.17	-49.7	-64.9	3.6	1.51e+00	0	40	104	0	60	63276
2026-01-22 00:28:01.55	160.63	2.23	-49.6	-64.8	3.6	1.51e+00	0	40	104	0	60	62516
2026-01-22 00:28:02.56	160.64	2.30	-49.6	-64.8	3.6	1.51e+00	0	40	104	0	60	62547
2026-01-22 00:28:03.56	160.64	2.36	-49.6	-64.8	3.6	1.51e+00	0	40	104	0	60	62536
2026-01-22 00:28:04.58	160.65	2.43	-49.6	-64.5	3.6	1.51e+00	0	40	104	0	60	60947
2026-01-22 00:28:05.59	160.66	2.49	-49.6	-64.5	3.6	1.51e+00	0	40	104	0	60	60504
2026-01-22 00:28:06.59	160.67	2.56	-49.6	-64.3	3.6	1.51e+00	0	40	104	0	60	59354
2026-01-22 00:28:07.60	160.68	2.63	-49.6	-64.4	3.6	1.51e+00	0	40	104	0	60	59663
2026-01-22 00:28:08.61	160.69	2.69	-49.6	-64.0	3.6	1.51e+00	0	40	104	0	60	57200
2026-01-22 00:28:09.62	160.70	2.76	-49.6	-64.3	3.6	1.51e+00	0	40	104	0	60	59619
2026-01-22 00:28:10.64	160.71	2.83	-49.6	-64.5	3.6	1.51e+00	0	40	104	0	60	60336
2026-01-22 00:28:11.65	160.72	2.89	-49.6	-64.7	3.6	1.51e+00	0	40	104	0	60	62428
2026-01-22 00:28:12.65	160.73	2.96	-49.6	-64.7	3.5	1.51e+00	0	40	104	0	60	62442
2026-01-22 00:28:13.66	160.74	3.03	-49.6	-64.2	3.6	1.51e+00	0	40	104	0	60	58436
2026-01-22 00:28:14.67	160.75	3.09	-49.5	-63.0	3.6	1.51e+00	0	40	104	0	60	50924
2026-01-22 00:28:15.68	160.76	3.16	-49.3	-60.5	3.9	1.50e+00	0	40	104	0	60	38138
2026-01-22 00:28:16.69	160.77	3.23	-49.1	-57.7	5.9	7.68e-01	92	40	0	0	60	27635
2026-01-22 00:28:17.70	160.78	3.30	-48.9	-56.2	6.7	2.87e-01	0	40	0	2097152	60	23421
2026-01-22 00:28:18.72	160.79	3.37	-48.6	-54.9	8.1	4.62e-02	92	40	0	3145728	60	20069
2026-01-22 00:28:19.72	160.80	3.43	-48.6	-55.0	8.0	4.52e-02	92	40	0	5242880	60	20341
2026-01-22 00:28:20.73	160.81	3.50	-48.5	-54.3	8.9	2.22e-02	0	40	0	6291456	60	18783
2026-01-22 00:28:21.74	160.82	3.57	-47.9	-52.7	10.5	1.96e-02	63	40	0	8388608	60	15540
2026-01-22 00:28:22.75	160.83	3.64	-47.9	-52.8	10.6	3.09e-03	0	40	0	10485760	60	15810
2026-01-22 00:28:23.76	160.84	3.71	-48.1	-53.2	10.1	1.77e-02	92	40	0	12582912	60	16455
2026-01-22 00:28:24.77	160.85	3.78	-49.6	-63.5	3.6	1.47e+00	0	40	104	13631488	60	53951
2026-01-22 00:28:25.78	160.86	3.85	-45.5	-48.1	15.2	1.44e+00	92	40	104	13631488	60	9219
2026-01-22 00:28:26.79	160.87	3.91	-49.7	-64.4	3.6	1.73e-03	0	40	104	13631488	60	59886
2026-01-22 00:28:27.80	160.88	3.98	-47.8	-52.4	5.5	1.51e+00	0	40	104	13631488	60	15080
2026-01-22 00:28:28.80	160.89	4.05	-49.5	-61.2	3.6	2.44e-03	91	40	0	13631488	60	41489
2026-01-22 00:28:29.82	160.90	4.12	-45.8	-48.4	6.0	1.46e+00	0	40	104	13631488	60	9525
2026-01-22 00:28:30.82	160.91	4.19	-44.4	-46.2	17.7	2.40e-01	91	40	0	13631488	60	7413
2026-01-22 00:28:31.83	160.92	4.26	-45.0	-47.2	16.7	0.00e+00	0	40	0	14680064	60	8292
2026-01-22 00:28:32.84	160.93	4.33	-44.1	-45.9	18.0	0.00e+00	92	40	0	16777216	60	7109
2026-01-22 00:28:33.85	160.94	4.40	-44.4	-46.3	17.6	0.00e+00	77	40	0	18874368	60	7506
2026-01-22 00:28:34.86	160.95	4.48	-45.0	-47.2	16.6	0.00e+00	14	40	0	20971520	60	8247
2026-01-22 00:28:35.86	160.96	4.55	-43.5	-45.1	18.9	0.00e+00	92	40	0	23068672	60	6509
2026-01-22 00:28:36.87	160.97	4.62	-45.6	-48.1	15.9	0.00e+00	0	40	0	24117248	60	9194
2026-01-22 00:28:37.88	160.98	4.69	-44.0	-45.7	18.2	0.00e+00	92	40	0	26214400	60	6975
2026-01-22 00:28:38.89	160.99	4.76	-44.8	-46.8	17.1	0.00e+00	0	40	0	28311552	60	7946
2026-01-22 00:28:39.90	161.00	4.83	-44.9	-47.0	16.9	0.00e+00	92	40	0	30408704	60	8121
2026-01-22 00:28:40.91	161.01	4.90	-44.1	-45.9	17.7	0.00e+00	81	40	0	32505856	60	7161
2026-01-22 00:28:41.92	161.02	4.98	-44.3	-46.1	17.8	0.00e+00	90	40	0	33554432	60	7333
2026-01-22 00:28:42.93	161.03	5.05	-45.2	-47.4	16.7	0.00e+00	92	40	0	35651584	60	8464
2026-01-22 00:28:43.94	161.04	5.12	-44.4	-46.3	17.4	0.00e+00	0	40	0	37748736	60	7504
2026-01-22 00:28:44.95	161.05	5.19	-44.6	-46.6	17.3	0.00e+00	92	40	0	39845888	60	7699
2026-01-22 00:28:45.96	161.06	5.27	-44.3	-46.2	17.9	0.00e+00	0	40	0	41943040	60	7340
2026-01-22 00:28:46.97	161.08	5.34	-44.5	-46.4	17.5	0.00e+00	92	40	0	44040192	60	7553
2026-01-22 00:28:47.98	161.09	5.41	-44.3	-46.1	18.0	0.00e+00	57	40	0	45088768	60	7271
2026-01-22 00:28:48.99	161.10	5.49	-44.3	-46.2	17.8	0.00e+00	91	40	0	47185920	60	7372
2026-01-22 00:28:50.00	161.11	5.56	-44.4	-46.3	17.6	0.00e+00	91	40	0	49283072	60	7459
2026-01-22 00:28:51.00	161.12	5.63	-43.8	-45.5	18.3	0.00e+00	0	40	0	51380224	60	6795
2026-01-22 00:28:52.01	161.13	5.71	-45.2	-47.5	16.7	0.00e+00	90	40	0	53477376	60	8532
2026-01-22 00:28:53.02	161.14	5.78	-43.7	-45.4	18.6	0.00e+00	0	40	0	54525952	60	6743
2026-01-22 00:28:54.03	161.15	5.86	-44.5	-46.4	17.5	0.00e+00	77	40	0	56623104	60	7567
2026-01-22 00:28:55.04	161.16	5.93	-44.6	-46.5	17.6	0.00e+00	25	40	0	58720256	60	7657
2026-01-22 00:28:56.05	161.17	6.01	-44.0	-45.8	18.2	0.00e+00	90	40	0	60817408	60	7040
2026-01-22 00:28:57.06	161.18	6.08	-44.1	-45.9	18.1	0.00e+00	82	40	0	62914560	60	7106
2026-01-22 00:28:58.07	161.20	6.16	-43.9	-45.6	18.3	0.00e+00	0	40	0	63963136	60	6882
2026-01-22 00:28:59.08	161.21	6.23	-44.2	-46.0	18.1	0.00e+00	92	40	0	66060288	60	7244
2026-01-22 00:29:00.09	161.22	6.31	-43.9	-45.6	18.3	0.00e+00	0	40	0	68157440	60	6921
2026-01-22 00:29:01.10	161.23	6.38	-44.0	-45.7	18.2	0.00e+00	90	40	0	70254592	60	7006
2026-01-22 00:29:02.11	161.24	6.46	-44.7	-46.7	17.4	0.00e+00	17	40	0	72351744	60	7809
2026-01-22 00:29:03.12	161.25	6.54	-43.7	-45.3	18.7	0.00e+00	92	40	0	73400320	60	6655
2026-01-22 00:29:04.12	161.26	6.61	-44.3	-46.1	17.9	0.00e+00	92	40	0	75497472	60	7306
2026-01-22 00:29:05.14	161.28	6.69	-44.0	-45.7	18.3	0.00e+00	0	40	0	77594624	60	6965
2026-01-22 00:29:06.14	161.29	6.77	-44.0	-45.7	18.4	0.00e+00	92	40	0	79691776	60	6972
2026-01-22 00:29:07.15	161.30	6.84	-43.9	-45.6	18.4	0.00e+00	0	40	0	81788928	60	6869
2026-01-22 00:29:08.16	161.31	6.92	-44.0	-45.8	18.4	0.00e+00	92	40	0	82837504	60	7013
2026-01-22 00:29:09.17	161.32	7.00	-44.5	-46.4	17.6	0.00e+00	0	40	0	84934656	60	7587
2026-01-22 00:29:10.18	161.33	7.08	-43.7	-45.3	18.7	0.00e+00	90	40	0	87031808	60	6686
2026-01-22 00:29:11.19	161.34	7.16	-43.8	-45.4	18.7	0.00e+00	92	40	0	89128960	60	6764
2026-01-22 00:29:12.19	161.36	7.23	-44.1	-45.8	18.3	0.00e+00	77	40	0	91226112	60	7081
2026-01-22 00:29:13.20	161.37	7.31	-43.7	-45.4	18.7	0.00e+00	92	40	0	92274688	60	6701
2026-01-22 00:29:14.21	161.38	7.39	-43.9	-45.6	18.5	0.00e+00	0	40	0	94371840	60	6919
2026-01-22 00:29:15.22	161.39	7.47	-43.8	-45.5	18.7	0.00e+00	92	40	0	96468992	60	6790
2026-01-22 00:29:16.23	161.40	7.55	-43.8	-45.4	18.7	0.00e+00	0	40	0	98566144	60	6765
2026-01-22 00:29:17.24	161.42	7.63	-43.9	-45.6	18.7	0.00e+00	90	40	0	100663296	60	6865
2026-01-22 00:29:18.25	161.43	7.71	-43.7	-45.3	18.9	0.00e+00	91	40	0	101711872	60	6655
2026-01-22 00:29:19.26	161.44	7.79	-43.6	-45.1	19.0	0.00e+00	0	40	0	103809024	60	6528
2026-01-22 00:29:20.27	161.45	7.87	-43.4	-45.0	19.1	0.00e+00	92	40	0	105906176	60	6414
2026-01-22 00:29:21.28	161.46	7.95	-43.0	-44.4	19.6	0.00e+00	0	40	0	108003328	60	6033
2026-01-22 00:29:22.29	161.48	8.03	-43.4	-44.9	19.1	0.00e+00	92	40	0	110100480	60	6378
2026-01-22 00:29:23.30	161.49	8.12	-43.0	-44.5	19.6	0.00e+00	0	40	0	112197632	60	6044
2026-01-22 00:29:24.31	161.50	8.20	-43.2	-44.7	19.5	0.00e+00	91	40	0	113246208	60	6174
2026-01-22 00:29:25.32	161.51	8.28	-43.2	-44.7	19.5	0.00e+00	59	40	0	115343360	60	6182
2026-01-22 00:29:26.33	161.53	8.36	-43.4	-44.9	19.2	0.00e+00	92	40	0	117440512	60	6344
2026-01-22 00:29:27.33	161.54	8.44	-43.4	-45.0	19.2	0.00e+00	90	40	0	119537664	60	6399
2026-01-22 00:29:28.34	161.55	8.53	-43.2	-44.7	19.5	0.00e+00	0	40	0	120586240	60	6195
2026-01-22 00:29:29.35	161.56	8.61	-43.3	-44.8	19.3	0.00e+00	66	40	0	122683392	60	6317
2026-01-22 00:29:30.36	161.58	8.69	-43.5	-45.0	19.3	0.00e+00	0	40	0	124780544	60	6431
2026-01-22 00:29:31.37	161.59	8.78	-43.4	-45.0	19.2	0.00e+00	92	40	0	126877696	60	6396
2026-01-22 00:29:32.38	161.60	8.86	-43.2	-44.7	19.4	0.00e+00	0	40	0	128974848	60	6216
2026-01-22 00:29:33.39	161.62	8.94	-43.6	-45.1	19.0	0.00e+00	90	40	0	130023424	60	6539
2026-01-22 00:29:34.40	161.63	9.03	-43.4	-45.0	19.2	0.00e+00	92	40	0	132120576	60	6396
2026-01-22 00:29:35.41	161.64	9.11	-43.0	-44.5	19.5	0.00e+00	0	40	0	134217728	60	6068
2026-01-22 00:29:36.42	161.65	9.20	-43.3	-44.8	19.5	0.00e+00	92	40	0	136314880	60	6264
2026-01-22 00:29:37.43	161.67	9.28	-43.3	-44.9	19.4	0.00e+00	0	40	0	138412032	60	6339
2026-01-22 00:29:38.44	161.68	9.37	-43.3	-44.8	19.4	0.00e+00	92	40	0	140509184	60	6266
2026-01-22 00:29:39.45	161.69	9.46	-43.2	-44.7	19.4	0.00e+00	0	40	0	141557760	60	6212
2026-01-22 00:29:40.46	161.71	9.54	-42.8	-44.2	19.9	0.00e+00	92	40	0	143654912	60	5863
2026-01-22 00:29:41.47	161.72	9.63	-42.8	-44.2	19.9	0.00e+00	92	40	0	145752064	60	5856
2026-01-22 00:29:42.48	161.73	9.72	-42.9	-44.3	19.9	0.00e+00	0	40	0	147849216	60	5955
2026-01-22 00:29:43.49	161.75	9.80	-42.8	-44.1	20.1	0.00e+00	90	40	0	149946368	58	6522
2026-01-22 00:29:44.50	161.76	9.89	-42.6	-43.9	20.1	0.00e+00	0	40	0	150994944	58	6381
2026-01-22 00:29:45.51	161.77	9.98	-42.4	-43.7	20.4	0.00e+00	90	40	0	153092096	58	6208
2026-01-22 00:29:46.52	161.79	10.07	-42.5	-43.8	20.4	0.00e+00	0	40	0	155189248	58	6279
2026-01-22 00:29:47.53	161.80	10.15	-42.3	-43.6	20.4	0.00e+00	92	40	0	157286400	58	6148
2026-01-22 00:29:48.54	161.81	10.24	-42.4	-43.7	20.4	0.00e+00	85	40	0	159383552	58	6177
2026-01-22 00:29:49.55	161.83	10.33	-42.3	-43.6	20.5	0.00e+00	0	40	0	160432128	58	6168
2026-01-22 00:29:50.56	161.84	10.42	-42.4	-43.7	20.4	0.00e+00	92	40	0	162529280	58	6215
2026-01-22 00:29:51.57	161.86	10.51	-42.4	-43.7	20.4	0.00e+00	0	40	0	164626432	58	6207
2026-01-22 00:29:52.58	161.87	10.60	-42.2	-43.4	20.7	0.00e+00	92	40	0	166723584	58	6016
2026-01-22 00:29:53.59	161.88	10.69	-42.0	-43.3	20.8	0.00e+00	0	40	0	168820736	58	5899
2026-01-22 00:29:54.60	161.90	10.78	-42.1	-43.3	20.8	0.00e+00	92	40	0	169869312	58	5945
2026-01-22 00:29:55.60	161.91	10.87	-42.2	-43.4	20.6	0.00e+00	59	40	0	171966464	58	6025
2026-01-22 00:29:56.62	161.93	10.96	-42.1	-43.3	20.8	0.00e+00	0	40	0	174063616	58	5958
2026-01-22 00:29:57.63	161.94	11.06	-42.1	-43.4	20.7	0.00e+00	92	40	0	176160768	58	5990
2026-01-22 00:29:58.63	161.96	11.15	-41.9	-43.2	20.9	0.00e+00	0	40	0	178257920	58	5831
2026-01-22 00:29:59.64	161.97	11.24	-41.8	-42.9	21.1	0.00e+00	60	40	0	179306496	58	5693
2026-01-22 00:30:00.66	161.98	11.33	-41.7	-42.9	21.2	0.00e+00	0	40	0	181403648	56	6338
2026-01-22 00:30:01.67	162.00	11.43	-41.7	-42.8	21.2	0.00e+00	92	40	0	183500800	56	6315
2026-01-22 00:30:02.68	162.01	11.52	-41.8	-43.0	21.1	0.00e+00	9	40	0	185597952	56	6412
2026-01-22 00:30:03.69	162.03	11.61	-41.8	-43.0	21.1	0.00e+00	92	40	0	187695104	56	6401
2026-01-22 00:30:04.70	162.04	11.71	-41.6	-42.8	21.1	0.00e+00	92	40	0	189792256	56	6295
2026-01-22 00:30:05.71	162.06	11.80	-41.5	-42.6	21.4	0.00e+00	0	40	0	190840832	56	6144
2026-01-22 00:30:06.72	162.07	11.90	-41.3	-42.5	21.5	0.00e+00	91	40	0	192937984	56	6048
2026-01-22 00:30:07.73	162.09	11.99	-41.4	-42.6	21.5	0.00e+00	0	41	0	195035136	56	6111
2026-01-22 00:30:08.74	162.10	12.09	-41.2	-42.3	21.6	0.00e+00	92	41	0	197132288	56	5910
2026-01-22 00:30:09.75	162.12	12.18	-41.4	-42.5	21.5	0.00e+00	0	41	0	199229440	56	6079
2026-01-22 00:30:10.76	162.13	12.28	-41.2	-42.3	21.7	0.00e+00	23	40	0	200278016	56	5900
2026-01-22 00:30:11.77	162.15	12.38	-41.4	-42.5	21.5	0.00e+00	90	40	0	202375168	56	6062
2026-01-22 00:30:12.78	162.17	12.47	-41.1	-42.2	21.8	0.00e+00	0	41	0	204472320	56	5837
2026-01-22 00:30:13.79	162.18	12.57	-41.1	-42.2	21.8	0.00e+00	87	40	0	206569472	56	5894
2026-01-22 00:30:14.80	162.20	12.67	-40.8	-41.9	22.1	0.00e+00	0	40	0	208666624	56	5657
2026-01-22 00:30:15.80	162.21	12.77	-41.0	-42.1	21.9	0.00e+00	92	40	0	209715200	56	5819
2026-01-22 00:30:16.81	162.23	12.86	-41.2	-42.3	21.7	0.00e+00	0	41	0	211812352	56	5949
2026-01-22 00:30:17.82	162.24	12.96	-40.9	-42.0	22.1	0.00e+00	92	40	0	213909504	56	5696
2026-01-22 00:30:18.83	162.26	13.06	-40.5	-41.6	22.3	0.00e+00	92	40	0	216006656	54	6109
2026-01-22 00:30:19.85	162.28	13.16	-40.6	-41.6	22.3	0.00e+00	0	40	0	218103808	54	6155
2026-01-22 00:30:20.85	162.29	13.26	-40.5	-41.6	22.3	0.00e+00	60	40	0	219152384	54	6115
2026-01-22 00:30:21.87	162.31	13.36	-40.2	-41.2	22.7	0.00e+00	0	40	0	221249536	54	5855
2026-01-22 00:30:22.87	162.32	13.46	-40.1	-41.1	22.6	0.00e+00	90	41	0	223346688	54	5810
2026-01-22 00:30:23.89	162.34	13.57	-40.1	-41.1	22.8	0.00e+00	0	40	0	225443840	54	5794
2026-01-22 00:30:24.90	162.36	13.67	-40.2	-41.2	22.6	0.00e+00	90	40	0	227540992	54	5884
2026-01-22 00:30:25.90	162.37	13.77	-40.2	-41.1	22.6	0.00e+00	92	41	0	228589568	54	5820
2026-01-22 00:30:26.91	162.39	13.87	-40.0	-40.9	22.8	0.00e+00	0	40	0	230686720	54	5685
2026-01-22 00:30:27.92	162.41	13.98	-39.9	-40.9	22.8	0.00e+00	92	41	0	232783872	54	5666
2026-01-22 00:30:28.94	162.42	14.08	-39.9	-40.8	22.9	0.00e+00	0	41	0	234881024	54	5608
2026-01-22 00:30:29.94	162.44	14.18	-39.9	-40.8	23.0	0.00e+00	92	40	0	236978176	54	5627
2026-01-22 00:30:30.95	162.46	14.29	-40.1	-41.0	22.7	0.00e+00	0	40	0	238026752	54	5759
2026-01-22 00:30:31.96	162.47	14.39	-39.9	-40.8	23.0	0.00e+00	92	41	0	240123904	52	6308
2026-01-22 00:30:32.97	162.49	14.50	-39.8	-40.8	22.9	0.00e+00	90	41	0	242221056	52	6279
2026-01-22 00:30:33.98	162.51	14.61	-39.7	-40.6	22.7	0.00e+00	0	41	0	244318208	52	6173
2026-01-22 00:30:35.00	162.53	14.71	-39.9	-40.8	23.0	0.00e+00	90	41	0	246415360	52	6296
2026-01-22 00:30:36.00	162.54	14.82	-39.8	-40.8	22.6	0.00e+00	0	41	0	248512512	52	6255
2026-01-22 00:30:37.02	162.56	14.93	-39.8	-40.7	23.1	0.00e+00	90	40	0	249561088	52	6217
2026-01-22 00:30:38.02	162.58	15.03	-39.8	-40.8	22.8	0.00e+00	0	40	0	251658240	52	6251
2026-01-22 00:30:39.03	162.60	15.14	-39.7	-40.6	23.2	0.00e+00	92	40	0	253755392	52	6160
2026-01-22 00:30:40.04	162.62	15.25	-39.6	-40.5	23.2	0.00e+00	25	41	0	255852544	52	6096
2026-01-22 00:30:41.05	162.63	15.36	-39.6	-40.6	23.1	0.00e+00	24	40	0	257949696	52	6120
2026-01-22 00:30:42.06	162.65	15.47	-39.7	-40.6	23.1	0.00e+00	92	40	0	258998272	52	6169
2026-01-22 00:30:43.07	162.67	15.58	-39.5	-40.4	23.2	0.00e+00	0	40	0	261095424	52	6015
2026-01-22 00:30:44.08	162.69	15.69	-39.7	-40.6	23.1	0.00e+00	30	41	0	263192576	52	6152
2026-01-22 00:30:45.09	162.71	15.80	-39.6	-40.6	23.2	0.00e+00	0	40	0	265289728	52	6122
2026-01-22 00:30:46.10	162.72	15.91	-39.5	-40.5	23.2	0.00e+00	90	41	0	266338304	52	6052
2026-01-22 00:30:47.10	162.74	16.02	-39.5	-40.5	23.3	0.00e+00	0	40	0	268435456	52	6044
2026-01-22 00:30:48.11	162.76	16.14	-39.6	-40.6	23.3	0.00e+00	92	41	0	270532608	52	6124
2026-01-22 00:30:49.12	162.78	16.25	-39.4	-40.4	23.4	0.00e+00	92	40	0	272629760	52	5973
2026-01-22 00:30:50.14	162.80	16.37	-39.5	-40.5	23.3	0.00e+00	0	40	0	274726912	52	6036
2026-01-22 00:30:51.15	162.82	16.48	-39.5	-40.4	23.3	0.00e+00	91	41	0	276824064	52	6005
2026-01-22 00:30:52.15	162.84	16.59	-39.5	-40.4	23.4	0.00e+00	0	40	0	277872640	52	5992
2026-01-22 00:30:53.17	162.86	16.71	-39.4	-40.3	23.3	0.00e+00	92	41	0	279969792	52	5940
2026-01-22 00:30:54.18	162.88	16.83	-39.3	-40.3	23.5	0.00e+00	0	41	0	282066944	52	5900
2026-01-22 00:30:55.19	162.90	16.94	-39.4	-40.3	23.5	0.00e+00	92	40	0	284164096	52	5908
2026-01-22 00:30:56.20	162.92	17.06	-39.3	-40.2	23.5	0.00e+00	57	40	0	286261248	52	5861
2026-01-22 00:30:57.20	162.94	17.18	-39.3	-40.2	23.5	0.00e+00	0	41	0	287309824	52	5844
2026-01-22 00:30:58.21	162.96	17.30	-39.3	-40.2	23.6	0.00e+00	92	40	0	289406976	52	5865
2026-01-22 00:30:59.22	162.98	17.41	-39.2	-40.1	23.7	0.00e+00	0	40	0	291504128	52	5774
2026-01-22 00:31:00.23	163.00	17.53	-39.1	-40.0	23.7	0.00e+00	84	40	0	293601280	52	5712
2026-01-22 00:31:01.24	163.02	17.65	-39.2	-40.1	23.6	0.00e+00	0	40	0	295698432	52	5816
2026-01-22 00:31:02.25	163.04	17.77	-39.3	-40.2	23.6	0.00e+00	90	40	0	296747008	52	5872
2026-01-22 00:31:03.26	163.06	17.90	-39.1	-40.0	23.6	0.00e+00	92	41	0	298844160	52	5711
2026-01-22 00:31:04.27	163.08	18.02	-39.1	-40.0	23.7	0.00e+00	0	40	0	300941312	52	5739
2026-01-22 00:31:05.28	163.10	18.14	-39.2	-40.0	23.7	0.00e+00	91	41	0	303038464	52	5761
2026-01-22 00:31:06.29	163.12	18.26	-39.3	-40.2	23.6	0.00e+00	0	40	0	305135616	52	5838
2026-01-22 00:31:07.30	163.14	18.39	-39.2	-40.1	23.5	0.00e+00	75	40	0	306184192	52	5796
2026-01-22 00:31:08.31	163.16	18.51	-39.4	-40.3	23.4	0.00e+00	0	40	0	308281344	52	5916
2026-01-22 00:31:09.32	163.19	18.63	-39.7	-40.6	23.2	0.00e+00	91	40	0	310378496	52	6138
2026-01-22 00:31:10.33	163.21	18.76	-39.5	-40.4	23.3	0.00e+00	0	41	0	312475648	52	6033
2026-01-22 00:31:11.34	163.23	18.89	-39.5	-40.5	23.4	0.00e+00	71	41	0	314572800	52	6037
2026-01-22 00:31:12.35	163.25	19.01	-39.8	-40.7	23.3	0.00e+00	92	40	0	316669952	52	6235
2026-01-22 00:31:13.36	163.27	19.14	-39.4	-40.3	23.5	0.00e+00	0	40	0	317718528	52	5939
2026-01-22 00:31:14.37	163.30	19.27	-39.3	-40.2	23.5	0.00e+00	81	41	0	319815680	52	5887
2026-01-22 00:31:15.38	163.32	19.40	-39.2	-40.1	23.6	0.00e+00	0	41	0	321912832	52	5789
2026-01-22 00:31:16.39	163.34	19.53	-39.7	-40.7	23.2	0.00e+00	83	40	0	324009984	52	6187
2026-01-22 00:31:17.40	163.36	19.66	-39.6	-40.4	23.3	0.00e+00	0	41	0	326107136	52	6030
2026-01-22 00:31:18.41	163.39	19.79	-39.6	-40.5	23.4	0.00e+00	92	41	0	327155712	52	6099
2026-01-22 00:31:19.42	163.41	19.92	-39.7	-40.6	23.3	0.00e+00	92	41	0	329252864	52	6151
2026-01-22 00:31:20.43	163.43	20.05	-39.6	-40.5	23.4	0.00e+00	0	41	0	331350016	52	6092
2026-01-22 00:31:21.44	163.46	20.18	-39.5	-40.4	23.4	0.00e+00	92	40	0	333447168	52	6015
2026-01-22 00:31:22.45	163.48	20.32	-39.7	-40.7	23.3	0.00e+00	0	41	0	335544320	52	6188
2026-01-22 00:31:23.46	163.50	20.45	-39.6	-40.5	23.4	0.00e+00	72	40	0	336592896	52	6073
2026-01-22 00:31:24.47	163.53	20.59	-39.6	-40.5	23.5	0.00e+00	0	41	0	338690048	52	6055
2026-01-22 00:31:25.48	163.55	20.72	-39.8	-40.7	23.2	0.00e+00	92	41	0	340787200	52	6229
2026-01-22 00:31:26.49	163.58	20.86	-40.1	-41.0	22.8	0.00e+00	92	41	0	342884352	52	6461
2026-01-22 00:31:27.50	163.60	21.00	-40.0	-41.0	23.0	0.00e+00	0	41	0	344981504	52	6421
2026-01-22 00:31:28.51	163.63	21.13	-40.1	-41.1	23.0	0.00e+00	90	40	0	346030080	52	6468
2026-01-22 00:31:29.52	163.65	21.27	-40.4	-41.4	22.8	0.00e+00	0	41	0	348127232	52	6694
2026-01-22 00:31:30.53	163.68	21.41	-40.5	-41.5	22.6	0.00e+00	92	41	0	350224384	52	6830
2026-01-22 00:31:31.54	163.70	21.55	-40.6	-41.6	22.6	0.00e+00	0	41	0	352321536	52	6858
2026-01-22 00:31:32.55	163.73	21.69	-40.6	-41.6	22.5	0.00e+00	90	40	0	354418688	52	6926
2026-01-22 00:31:33.56	163.75	21.84	-40.8	-41.8	22.4	0.00e+00	92	41	0	355467264	52	7044
2026-01-22 00:31:34.57	163.78	21.98	-40.6	-41.7	22.5	0.00e+00	0	40	0	357564416	54	6181
2026-01-22 00:31:35.58	163.80	22.12	-40.7	-41.8	22.4	0.00e+00	92	41	0	359661568	54	6248
2026-01-22 00:31:36.59	163.83	22.27	-40.5	-41.6	22.5	0.00e+00	0	40	0	361758720	54	6107
2026-01-22 00:31:37.60	163.86	22.41	-40.7	-41.7	22.4	0.00e+00	90	40	0	363855872	54	6241
2026-01-22 00:31:38.61	163.88	22.56	-40.7	-41.8	22.4	0.00e+00	0	41	0	364904448	54	6264
2026-01-22 00:31:39.62	163.91	22.70	-40.7	-41.7	22.4	0.00e+00	90	41	0	367001600	54	6225
2026-01-22 00:31:40.63	163.94	22.85	-40.5	-41.5	22.6	0.00e+00	80	40	0	369098752	54	6071
2026-01-22 00:31:41.64	163.97	23.00	-40.9	-42.0	22.2	0.00e+00	45	41	0	371195904	54	6393
2026-01-22 00:31:42.65	163.99	23.15	-40.8	-41.8	22.3	0.00e+00	92	41	0	373293056	54	6289
2026-01-22 00:31:43.66	164.02	23.30	-40.9	-41.9	22.3	0.00e+00	0	41	0	374341632	54	6364
2026-01-22 00:31:44.67	164.05	23.45	-41.1	-42.2	22.1	0.00e+00	70	41	0	376438784	54	6567
2026-01-22 00:31:45.68	164.08	23.60	-41.0	-42.1	22.1	0.00e+00	0	41	0	378535936	54	6483
2026-01-22 00:31:46.69	164.11	23.75	-40.7	-41.7	22.3	0.00e+00	91	41	0	380633088	54	6222
2026-01-22 00:31:47.70	164.14	23.91	-41.2	-42.2	22.0	0.00e+00	61	41	0	382730240	54	6612
2026-01-22 00:31:48.71	164.16	24.06	-40.9	-41.9	22.4	0.00e+00	21	41	0	384827392	54	6376
2026-01-22 00:31:49.72	164.19	24.22	-40.9	-42.0	22.2	0.00e+00	91	41	0	385875968	54	6427
2026-01-22 00:31:50.73	164.22	24.37	-41.0	-42.1	22.2	0.00e+00	0	41	0	387973120	54	6478
2026-01-22 00:31:51.74	164.25	24.53	-40.8	-41.9	22.5	0.00e+00	92	41	0	390070272	54	6337
2026-01-22 00:31:52.75	164.28	24.69	-40.7	-41.7	22.4	0.00e+00	0	41	0	392167424	54	6232
2026-01-22 00:31:53.76	164.31	24.85	-40.9	-41.9	22.3	0.00e+00	92	41	0	394264576	54	6351
2026-01-22 00:31:54.77	164.34	25.01	-40.8	-41.8	22.3	0.00e+00	49	41	0	395313152	54	6272
2026-01-22 00:31:55.78	164.38	25.17	-40.8	-41.9	22.3	0.00e+00	92	41	0	397410304	54	6323
2026-01-22 00:31:56.79	164.41	25.33	-40.9	-41.9	22.4	0.00e+00	92	41	0	399507456	54	6387
2026-01-22 00:31:57.80	164.44	25.49	-41.0	-42.0	22.3	0.00e+00	0	41	0	401604608	54	6464
2026-01-22 00:31:58.81	164.47	25.66	-41.1	-42.2	22.1	0.00e+00	92	41	0	403701760	54	6571
2026-01-22 00:31:59.82	164.50	25.82	-41.0	-42.1	22.2	0.00e+00	0	41	0	404750336	54	6486
2026-01-22 00:32:00.83	164.53	25.99	-40.8	-41.8	22.5	0.00e+00	90	41	0	406847488	54	6255
2026-01-22 00:32:01.84	164.57	26.16	-40.7	-41.7	22.4	0.00e+00	17	41	0	408944640	54	6194
2026-01-22 00:32:02.85	164.60	26.32	-40.7	-41.7	22.5	0.00e+00	90	41	0	411041792	54	6191
2026-01-22 00:32:03.86	164.63	26.49	-40.6	-41.6	22.5	0.00e+00	92	41	0	413138944	54	6140
2026-01-22 00:32:04.87	164.67	26.66	-40.5	-41.5	22.6	0.00e+00	0	41	0	414187520	54	6048
2026-01-22 00:32:05.88	164.70	26.83	-40.3	-41.2	22.8	0.00e+00	77	41	0	416284672	54	5883
2026-01-22 00:32:06.88	164.73	27.01	-40.3	-41.3	22.8	0.00e+00	0	41	0	418381824	54	5899
2026-01-22 00:32:07.90	164.77	27.18	-40.8	-41.8	22.5	0.00e+00	91	41	0	420478976	54	6309
2026-01-22 00:32:08.90	164.80	27.35	-40.7	-41.7	22.5	0.00e+00	0	41	0	422576128	54	6185
2026-01-22 00:32:09.91	164.84	27.53	-40.6	-41.5	22.7	0.00e+00	92	41	0	423624704	54	6092
2026-01-22 00:32:10.92	164.88	27.71	-40.8	-41.8	22.5	0.00e+00	92	41	0	425721856	54	6291
2026-01-22 00:32:11.93	164.91	27.88	-41.0	-42.0	22.3	0.00e+00	0	41	0	427819008	54	6406
2026-01-22 00:32:12.95	164.95	28.06	-41.2	-42.2	22.1	0.00e+00	92	41	0	429916160	54	6574
2026-01-22 00:32:13.96	164.98	28.25	-40.8	-41.8	22.6	0.00e+00	0	41	0	432013312	54	6292
2026-01-22 00:32:14.97	165.02	28.43	-40.8	-41.8	22.4	0.00e+00	92	41	0	433061888	54	6312
2026-01-22 00:32:15.97	165.06	28.61	-41.1	-42.1	22.2	0.00e+00	0	41	0	435159040	54	6493
2026-01-22 00:32:16.99	165.10	28.79	-40.7	-41.7	22.5	0.00e+00	92	41	0	437256192	54	6186
2026-01-22 00:32:17.99	165.14	28.98	-40.4	-41.4	22.8	0.00e+00	92	41	0	439353344	54	5980
2026-01-22 00:32:19.00	165.17	29.16	-40.7	-41.7	22.5	0.00e+00	0	41	0	441450496	54	6216
2026-01-22 00:32:20.01	165.21	29.35	-40.7	-41.7	22.5	0.00e+00	90	41	0	442499072	54	6236
2026-01-22 00:32:21.02	165.25	29.54	-40.7	-41.7	22.4	0.00e+00	0	41	0	444596224	54	6200
2026-01-22 00:32:22.03	165.29	29.73	-40.8	-41.8	22.2	0.00e+00	92	41	0	446693376	54	6289
2026-01-22 00:32:23.04	165.33	29.92	-41.1	-42.2	22.2	0.00e+00	0	41	0	448790528	54	6579
2026-01-22 00:32:24.05	165.37	30.11	-40.9	-41.9	22.3	0.00e+00	92	41	0	450887680	54	6390
2026-01-22 00:32:25.06	165.41	30.31	-41.2	-42.3	22.1	0.00e+00	32	41	0	452984832	54	6653
2026-01-22 00:32:26.07	165.46	30.50	-41.7	-42.8	21.8	0.00e+00	50	41	0	454033408	54	7047
2026-01-22 00:32:27.08	165.50	30.70	-41.6	-42.8	21.6	0.00e+00	92	41	0	456130560	54	7024
2026-01-22 00:32:28.09	165.54	30.89	-41.7	-42.8	21.7	0.00e+00	0	41	0	458227712	56	6264
2026-01-22 00:32:29.10	165.58	31.09	-41.4	-42.5	21.9	0.00e+00	47	41	0	460324864	56	6071
2026-01-22 00:32:30.10	165.63	31.29	-41.6	-42.7	21.7	0.00e+00	0	41	0	462422016	56	6216
2026-01-22 00:32:31.11	165.67	31.49	-41.6	-42.7	21.7	0.00e+00	92	41	0	463470592	56	6224
2026-01-22 00:32:32.12	165.72	31.70	-41.6	-42.7	21.8	0.00e+00	0	41	0	465567744	56	6188
2026-01-22 00:32:33.13	165.76	31.90	-42.0	-43.2	21.4	0.00e+00	92	41	0	467664896	56	6547
2026-01-22 00:32:34.14	165.81	32.11	-42.3	-43.4	21.0	0.00e+00	90	41	0	469762048	56	6765
2026-01-22 00:32:35.15	165.85	32.31	-42.9	-44.2	20.2	0.00e+00	0	41	0	471859200	56	7340
2026-01-22 00:32:36.16	165.90	32.52	-42.8	-44.1	20.5	0.00e+00	91	41	0	472907776	58	6484
2026-01-22 00:32:37.17	165.95	32.73	-42.9	-44.2	20.4	0.00e+00	0	41	0	475004928	58	6557
2026-01-22 00:32:38.18	165.99	32.95	-43.1	-44.4	20.3	0.00e+00	92	41	0	477102080	58	6738
2026-01-22 00:32:39.19	166.04	33.16	-42.9	-44.2	20.3	0.00e+00	0	41	0	479199232	58	6609
2026-01-22 00:32:40.20	166.09	33.37	-42.9	-44.2	20.5	0.00e+00	91	41	0	481296384	58	6578
2026-01-22 00:32:41.21	166.14	33.59	-42.9	-44.2	20.5	0.00e+00	91	41	0	482344960	58	6578
2026-01-22 00:32:42.22	166.19	33.81	-43.1	-44.4	20.3	0.00e+00	0	41	0	484442112	58	6756
2026-01-22 00:32:43.23	166.24	34.03	-43.1	-44.5	20.2	0.00e+00	64	41	0	486539264	58	6805
2026-01-22 00:32:44.24	166.29	34.25	-42.6	-43.9	20.7	0.00e+00	0	41	0	488636416	58	6344
2026-01-22 00:32:45.25	166.35	34.47	-42.9	-44.2	20.4	0.00e+00	91	41	0	490733568	58	6610
2026-01-22 00:32:46.25	166.40	34.69	-41.9	-43.1	21.4	0.00e+00	0	41	0	491782144	58	5795
2026-01-22 00:32:47.26	166.45	34.92	-41.9	-43.1	21.5	0.00e+00	92	41	0	493879296	56	6491
2026-01-22 00:32:48.27	166.51	35.14	-41.6	-42.7	21.8	0.00e+00	92	41	0	495976448	56	6227
2026-01-22 00:32:49.28	166.56	35.37	-41.3	-42.4	22.1	0.00e+00	0	41	0	498073600	56	5984
2026-01-22 00:32:50.29	166.62	35.60	-41.1	-42.2	22.1	0.00e+00	92	41	0	500170752	56	5867
2026-01-22 00:32:51.30	166.67	35.83	-41.0	-42.1	22.3	0.00e+00	0	41	0	501219328	56	5777
2026-01-22 00:32:52.31	166.73	36.07	-40.7	-41.8	22.7	0.00e+00	92	41	0	503316480	56	5574
2026-01-22 00:32:53.32	166.79	36.30	-40.4	-41.4	22.8	0.00e+00	0	41	0	505413632	54	5982
2026-01-22 00:32:54.33	166.85	36.54	-40.2	-41.2	23.0	0.00e+00	90	41	0	507510784	54	5835
2026-01-22 00:32:55.34	166.91	36.78	-40.0	-41.0	23.1	0.00e+00	65	41	0	509607936	54	5733
2026-01-22 00:32:56.35	166.97	37.02	-39.8	-40.7	23.3	0.00e+00	0	41	0	510656512	54	5564
2026-01-22 00:32:57.36	167.03	37.26	-39.6	-40.5	23.4	0.00e+00	92	41	0	512753664	52	6087
2026-01-22 00:32:58.37	167.09	37.50	-39.3	-40.2	23.7	0.00e+00	0	41	0	514850816	52	5887
2026-01-22 00:32:59.38	167.15	37.75	-38.8	-39.7	24.1	0.00e+00	92	41	0	516947968	52	5539
2026-01-22 00:33:00.39	167.22	38.00	-38.8	-39.7	24.2	0.00e+00	0	41	0	519045120	50	6187
2026-01-22 00:33:01.40	167.28	38.25	-38.6	-39.4	24.2	0.00e+00	90	41	0	521142272	50	6002
2026-01-22 00:33:02.41	167.35	38.50	-39.2	-40.1	23.7	0.00e+00	58	41	0	522190848	50	6511
2026-01-22 00:33:03.42	167.41	38.75	-38.9	-39.8	24.1	0.00e+00	92	41	0	524288000	50	6294
2026-01-22 00:33:04.43	167.48	39.01	-38.8	-39.6	24.2	0.00e+00	90	41	0	526385152	50	6146
2026-01-22 00:33:05.44	167.55	39.26	-38.7	-39.5	24.2	0.00e+00	0	41	0	528482304	50	6070
2026-01-22 00:33:06.45	167.62	39.52	-38.6	-39.4	24.3	0.00e+00	92	41	0	530579456	50	6002
2026-01-22 00:33:07.46	167.69	39.78	-39.4	-40.3	23.8	0.00e+00	0	41	0	531628032	50	6645
2026-01-22 00:33:08.47	167.76	40.04	-39.2	-40.1	23.7	0.00e+00	90	41	0	533725184	50	6484
2026-01-22 00:33:09.48	167.83	40.31	-39.8	-40.6	22.7	0.00e+00	0	41	0	535822336	50	6916
2026-01-22 00:33:10.49	167.91	40.57	-40.0	-40.8	23.3	0.00e+00	92	41	0	537919488	52	6315
2026-01-22 00:33:11.49	167.98	40.84	-40.0	-40.9	23.0	0.00e+00	90	41	0	538968064	52	6371
2026-01-22 00:33:12.51	168.06	41.11	-40.2	-41.1	23.0	0.00e+00	33	41	0	541065216	52	6500
2026-01-22 00:33:13.52	168.14	41.38	-40.4	-41.3	22.8	0.00e+00	87	41	0	543162368	52	6640
2026-01-22 00:33:14.53	168.22	41.66	-40.5	-41.5	22.6	0.00e+00	0	41	0	545259520	52	6819
2026-01-22 00:33:15.54	168.30	41.93	-40.4	-41.3	22.7	0.00e+00	92	41	0	547356672	54	5960
2026-01-22 00:33:16.55	168.38	42.21	-40.9	-41.9	22.6	0.00e+00	0	41	0	549453824	54	6338
2026-01-22 00:33:17.56	168.46	42.49	-40.4	-41.4	22.7	0.00e+00	92	41	0	550502400	54	6009
2026-01-22 00:33:18.56	168.54	42.77	-40.5	-41.5	22.7	0.00e+00	92	41	0	552599552	54	6053
2026-01-22 00:33:19.57	168.63	43.05	-40.5	-41.5	22.7	0.00e+00	0	41	0	554696704	54	6050
2026-01-22 00:33:20.58	168.72	43.34	-39.9	-40.9	23.2	0.00e+00	92	41	0	556793856	54	5633
2026-01-22 00:33:21.59	168.80	43.63	-39.9	-40.9	23.1	0.00e+00	0	41	0	558891008	54	5652
2026-01-22 00:33:22.60	168.89	43.92	-39.8	-40.7	23.3	0.00e+00	76	41	0	559939584	52	6212
2026-01-22 00:33:23.61	168.99	44.21	-40.0	-41.0	23.0	0.00e+00	0	41	0	562036736	52	6421
2026-01-22 00:33:24.63	169.08	44.51	-40.2	-41.1	23.0	0.00e+00	92	41	0	564133888	52	6530
2026-01-22 00:33:25.63	169.18	44.80	-40.5	-41.5	22.9	0.00e+00	90	41	0	566231040	52	6820
2026-01-22 00:33:26.64	169.27	45.10	-41.0	-42.1	22.2	0.00e+00	0	41	0	568328192	54	6468
2026-01-22 00:33:27.65	169.37	45.40	-41.2	-42.2	22.2	0.00e+00	92	41	0	569376768	54	6577
2026-01-22 00:33:28.67	169.47	45.71	-42.3	-43.6	20.9	0.00e+00	0	41	0	571473920	56	6870
2026-01-22 00:33:29.67	169.57	46.01	-42.8	-44.2	20.3	0.00e+00	92	41	0	573571072	58	6575
2026-01-22 00:33:30.68	169.68	46.32	-43.7	-45.2	19.4	0.00e+00	0	41	0	575668224	58	7419
2026-01-22 00:33:31.69	169.78	46.63	-43.7	-45.2	19.7	0.00e+00	92	41	0	577765376	58	7406
2026-01-22 00:33:32.71	169.89	46.94	-43.6	-45.1	19.4	0.00e+00	60	41	0	578813952	60	6532
2026-01-22 00:33:33.72	170.00	47.26	-43.6	-45.1	19.8	0.00e+00	0	41	0	580911104	60	6483
2026-01-22 00:33:34.73	170.11	47.57	-43.2	-44.6	20.0	0.00e+00	92	41	0	583008256	60	6144
2026-01-22 00:33:35.74	170.23	47.89	-43.2	-44.6	20.2	0.00e+00	0	41	0	585105408	60	6129
2026-01-22 00:33:36.75	170.35	48.21	-42.6	-43.8	21.0	0.00e+00	92	41	0	587202560	60	5611
2026-01-22 00:33:37.76	170.47	48.54	-42.9	-44.2	20.5	0.00e+00	0	41	0	589299712	58	6607
2026-01-22 00:33:38.77	170.59	48.86	-41.5	-42.6	21.6	0.00e+00	92	41	0	590348288	56	6168
2026-01-22 00:33:39.78	170.71	49.19	-41.2	-42.3	22.3	0.00e+00	25	41	0	592445440	56	5902
2026-01-22 00:33:40.79	170.84	49.52	-40.6	-41.6	22.8	0.00e+00	92	41	0	594542592	54	6172
2026-01-22 00:33:41.80	170.97	49.85	-39.3	-40.2	23.8	0.00e+00	92	41	0	596639744	52	5834
2026-01-22 00:33:42.81	171.10	50.19	-38.8	-39.6	24.0	0.00e+00	0	41	0	598736896	52	5462
2026-01-22 00:33:43.82	171.24	50.53	-38.5	-39.3	24.4	0.00e+00	65	41	0	599785472	50	5949
2026-01-22 00:33:44.83	171.37	50.87	-38.3	-39.1	24.4	0.00e+00	0	41	0	601882624	50	5819
2026-01-22 00:33:45.84	171.52	51.21	-38.6	-39.4	24.3	0.00e+00	92	41	0	603979776	50	6021
2026-01-22 00:33:46.85	171.66	51.55	-39.3	-40.2	23.8	0.00e+00	57	41	0	606076928	50	6542
2026-01-22 00:33:47.85	171.81	51.89	-39.2	-40.1	23.8	0.00e+00	92	41	0	608174080	50	6512
2026-01-22 00:33:48.86	171.96	52.24	-39.4	-40.3	23.7	0.00e+00	90	41	0	609222656	50	6638
2026-01-22 00:33:49.87	172.11	52.59	-39.1	-40.0	24.0	0.00e+00	0	41	0	611319808	50	6409
2026-01-22 00:33:50.88	172.27	52.95	-39.2	-40.0	23.9	0.00e+00	92	41	0	613416960	50	6459
2026-01-22 00:33:51.89	172.43	53.30	-38.5	-39.3	24.4	0.00e+00	0	41	0	615514112	50	5955
2026-01-22 00:33:52.90	172.60	53.66	-38.5	-39.3	24.4	0.00e+00	92	41	0	617611264	50	5964
2026-01-22 00:33:53.91	172.77	54.02	-38.4	-39.3	24.4	0.00e+00	25	41	0	618659840	50	5928
2026-01-22 00:33:54.92	172.94	54.38	-38.4	-39.3	24.3	0.00e+00	92	41	0	620756992	50	5914
2026-01-22 00:33:55.93	173.12	54.75	-38.3	-39.1	24.5	0.00e+00	90	41	0	622854144	50	5813
2026-01-22 00:33:56.94	173.31	55.11	-37.9	-38.7	24.9	0.00e+00	0	41	0	624951296	50	5540
2026-01-22 00:33:57.95	173.49	55.48	-37.4	-38.1	25.1	0.00e+00	78	41	0	627048448	48	5823
2026-01-22 00:33:58.96	173.69	55.85	-37.0	-37.7	25.0	0.00e+00	0	41	0	628097024	48	5565
2026-01-22 00:33:59.97	173.89	56.23	-37.1	-37.8	25.4	0.00e+00	90	41	0	630194176	48	5625
2026-01-22 00:34:00.98	174.09	56.60	-37.2	-38.0	25.1	0.00e+00	0	41	0	632291328	48	5732
2026-01-22 00:34:01.99	174.30	56.98	-38.1	-39.0	24.6	0.00e+00	90	41	0	634388480	48	6415
2026-01-22 00:34:03.00	174.51	57.36	-38.4	-39.3	24.3	0.00e+00	92	41	0	636485632	48	6642
2026-01-22 00:34:04.01	174.73	57.75	-38.3	-39.1	24.5	0.00e+00	0	41	0	637534208	48	6518
2026-01-22 00:34:05.02	174.96	58.13	-38.0	-38.9	24.8	0.00e+00	63	41	0	639631360	48	6320
2026-01-22 00:34:06.03	175.19	58.52	-37.9	-38.7	24.7	0.00e+00	0	41	0	641728512	48	6219
2026-01-22 00:34:07.04	175.43	58.91	-37.7	-38.5	25.0	0.00e+00	61	41	0	643825664	48	6064
2026-01-22 00:34:08.05	175.68	59.30	-38.2	-39.0	24.6	0.00e+00	0	41	0	645922816	48	6453
2026-01-22 00:34:09.06	175.93	59.69	-38.7	-39.5	24.3	0.00e+00	92	41	0	646971392	48	6839
2026-01-22 00:34:10.07	176.20	60.08	-38.7	-39.5	24.3	0.00e+00	44	41	0	649068544	50	6087
2026-01-22 00:34:11.08	176.47	60.48	-38.2	-39.0	24.6	0.00e+00	7	41	0	651165696	50	5726
2026-01-22 00:34:12.09	176.75	60.88	-37.9	-38.7	24.9	0.00e+00	92	41	0	653262848	50	5549
2026-01-22 00:34:13.10	177.03	61.28	-37.9	-38.7	24.8	0.00e+00	0	41	0	655360000	48	6196
2026-01-22 00:34:14.11	177.33	61.68	-37.4	-38.2	25.3	0.00e+00	92	41	0	657457152	48	5833
2026-01-22 00:34:15.12	177.64	62.09	-37.1	-37.9	25.4	0.00e+00	0	41	0	658505728	48	5672
2026-01-22 00:34:16.12	177.95	62.49	-37.4	-38.2	25.2	0.00e+00	92	41	0	660602880	48	5867
2026-01-22 00:34:17.13	178.28	62.90	-37.6	-38.5	25.0	0.00e+00	0	41	0	662700032	48	6036
2026-01-22 00:34:18.15	178.62	63.31	-38.1	-38.9	24.8	0.00e+00	53	41	0	664797184	48	6368
2026-01-22 00:34:19.15	178.97	63.71	-38.7	-39.6	24.3	0.00e+00	92	41	0	666894336	48	6852
2026-01-22 00:34:20.16	179.33	64.13	-38.7	-39.5	24.3	0.00e+00	0	41	0	667942912	48	6823
2026-01-22 00:34:21.17	179.71	64.54	-38.9	-39.8	24.2	0.00e+00	79	41	0	670040064	50	6276
2026-01-22 00:34:22.18	180.10	64.95	-39.1	-39.9	24.2	0.00e+00	33	41	0	672137216	50	6390
2026-01-22 00:34:23.19	180.50	65.37	-38.9	-39.8	24.2	0.00e+00	92	41	0	674234368	50	6275
2026-01-22 00:34:24.20	180.92	65.79	-38.6	-39.4	24.4	0.00e+00	0	41	0	676331520	50	6024
2026-01-22 00:34:25.21	181.35	66.20	-38.7	-39.5	24.2	0.00e+00	88	41	0	677380096	50	6082
2026-01-22 00:34:26.22	181.81	66.62	-39.2	-40.1	24.1	0.00e+00	91	41	0	679477248	50	6469
2026-01-22 00:34:27.23	182.28	67.04	-40.1	-41.0	23.2	0.00e+00	0	41	0	681574400	52	6453
2026-01-22 00:34:28.24	182.77	67.46	-41.1	-42.1	22.4	0.00e+00	63	41	0	683671552	54	6510
2026-01-22 00:34:29.25	183.28	67.88	-41.7	-42.8	22.1	0.00e+00	0	41	0	685768704	56	6291
2026-01-22 00:34:30.26	183.81	68.31	-41.7	-42.7	22.2	0.00e+00	91	41	0	686817280	56	6237
2026-01-22 00:34:31.27	184.36	68.73	-40.7	-41.6	23.0	0.00e+00	0	41	0	688914432	54	6140
2026-01-22 00:34:32.28	184.94	69.15	-40.8	-41.7	23.0	0.00e+00	91	41	0	691011584	54	6223
2026-01-22 00:34:33.29	185.54	69.57	-42.3	-43.5	21.5	0.00e+00	72	41	0	693108736	56	6810
2026-01-22 00:34:34.30	186.17	69.99	-43.8	-45.3	19.8	0.00e+00	0	41	0	695205888	58	7443
2026-01-22 00:34:35.31	186.83	70.41	-44.7	-46.3	19.2	0.00e+00	92	41	0	696254464	60	7490
2026-01-22 00:34:36.32	187.52	70.83	-44.1	-45.7	19.5	0.00e+00	0	41	0	698351616	60	6939
2026-01-22 00:34:37.33	188.24	71.25	-44.1	-45.5	19.8	0.00e+00	92	41	0	700448768	60	6826
2026-01-22 00:34:38.34	189.00	71.67	-44.0	-45.5	20.2	0.00e+00	0	41	0	702545920	60	6805
2026-01-22 00:34:39.35	189.80	72.08	-43.3	-44.5	21.1	0.00e+00	92	41	0	704643072	60	6088
2026-01-22 00:34:40.36	190.63	72.50	-41.1	-42.1	22.6	0.00e+00	92	41	0	705691648	56	5797
2026-01-22 00:34:41.37	191.51	72.91	-41.2	-42.2	22.4	0.00e+00	0	41	0	707788800	56	5854
2026-01-22 00:34:42.38	192.43	73.32	-43.0	-44.3	20.8	0.00e+00	90	41	0	709885952	58	6671
2026-01-22 00:34:43.39	193.40	73.72	-43.2	-44.5	20.7	0.00e+00	0	41	0	711983104	58	6817
2026-01-22 00:34:44.40	194.42	74.13	-42.5	-43.6	21.6	0.00e+00	92	41	0	714080256	60	5454
2026-01-22 00:34:45.41	195.50	74.53	-41.3	-42.3	22.2	0.00e+00	0	41	0	715128832	56	5927
2026-01-22 00:34:46.43	196.64	74.93	-41.2	-42.1	22.7	0.00e+00	92	41	0	717225984	56	5810
2026-01-22 00:34:47.44	197.84	75.32	-41.1	-42.1	22.5	0.00e+00	61	41	0	719323136	56	5799
2026-01-22 00:34:48.45	199.11	75.70	-41.6	-42.6	22.5	0.00e+00	0	41	0	721420288	56	6104
2026-01-22 00:34:49.46	200.45	76.08	-42.2	-43.3	21.8	0.00e+00	73	41	0	723517440	56	6650
2026-01-22 00:34:50.47	201.86	76.45	-43.1	-44.3	21.2	0.00e+00	0	41	0	725614592	58	6685
2026-01-22 00:34:51.48	203.36	76.82	-42.8	-44.1	20.6	0.00e+00	64	41	0	726663168	58	6499
2026-01-22 00:34:52.49	204.94	77.18	-41.4	-42.4	22.5	0.00e+00	0	41	0	728760320	56	6024
2026-01-22 00:34:53.50	206.61	77.52	-41.5	-42.5	22.5	0.00e+00	91	41	0	730857472	56	6089
2026-01-22 00:34:54.51	208.38	77.86	-41.7	-42.7	22.1	0.00e+00	4	41	0	732954624	56	6199
2026-01-22 00:34:55.52	210.26	78.19	-41.2	-42.1	22.6	0.00e+00	53	41	0	735051776	56	5795
2026-01-22 00:34:56.53	212.24	78.50	-41.0	-41.9	22.7	0.00e+00	91	41	0	736100352	54	6346
2026-01-22 00:34:57.53	214.31	78.80	-42.1	-43.2	21.6	0.00e+00	0	41	0	738197504	56	6585
2026-01-22 00:34:58.54	216.51	79.08	-42.6	-43.8	21.3	0.00e+00	88	41	0	740294656	58	6271
2026-01-22 00:34:59.55	218.83	79.35	-42.2	-43.4	21.8	0.00e+00	0	41	0	742391808	58	5966
2026-01-22 00:35:00.56	221.27	79.60	-41.6	-42.7	22.1	0.00e+00	92	41	0	744488960	56	6207
2026-01-22 00:35:01.57	223.82	79.84	-42.3	-43.5	21.4	0.00e+00	9	41	0	745537536	56	6824
2026-01-22 00:35:02.58	226.50	80.05	-42.7	-44.2	20.7	0.00e+00	92	41	0	747634688	56	7390
2026-01-22 00:35:03.59	229.28	80.24	-42.5	-43.7	21.1	0.00e+00	92	41	0	749731840	58	6233
2026-01-22 00:35:04.60	232.17	80.40	-43.0	-44.3	20.6	0.00e+00	0	41	0	751828992	58	6658
2026-01-22 00:35:05.61	235.16	80.55	-43.3	-44.7	20.4	0.00e+00	63	41	0	753926144	58	6943
2026-01-22 00:35:06.62	238.22	80.66	-43.2	-44.6	21.0	0.00e+00	0	41	0	754974720	58	6854
2026-01-22 00:35:07.63	241.36	80.75	-41.9	-43.0	21.9	0.00e+00	91	41	0	757071872	58	5699
2026-01-22 00:35:08.64	244.55	80.81	-42.5	-43.7	21.3	0.00e+00	9	41	0	759169024	58	6195
2026-01-22 00:35:09.65	247.78	80.85	-42.7	-43.9	21.1	0.00e+00	92	41	0	761266176	58	6377
2026-01-22 00:35:10.66	251.01	80.85	-42.0	-43.1	21.8	0.00e+00	92	41	0	763363328	58	5762
2026-01-22 00:35:11.67	254.24	80.83	-42.5	-43.6	21.6	0.00e+00	0	41	0	764411904	58	6118
2026-01-22 00:35:12.68	257.45	80.78	-43.6	-45.0	20.3	0.00e+00	75	41	0	766509056	58	7208
2026-01-22 00:35:13.69	260.60	80.69	-43.1	-44.4	20.9	0.00e+00	0	41	0	768606208	58	6700
2026-01-22 00:35:14.70	263.70	80.59	-42.9	-44.2	20.9	0.00e+00	87	41	0	770703360	58	6562
2026-01-22 00:35:15.71	266.71	80.45	-44.4	-46.1	18.9	0.00e+00	0	41	0	772800512	60	7260
2026-01-22 00:35:16.72	269.63	80.29	-44.1	-45.5	20.2	0.00e+00	92	41	0	773849088	60	6810
2026-01-22 00:35:17.73	272.45	80.11	-43.0	-44.2	20.8	0.00e+00	92	41	0	775946240	60	5851
2026-01-22 00:35:18.74	275.16	79.91	-43.3	-44.6	20.6	0.00e+00	0	41	0	778043392	60	6139
2026-01-22 00:35:19.75	277.75	79.68	-45.5	-47.5	18.4	0.00e+00	68	41	0	780140544	60	8538
2026-01-22 00:35:20.76	280.22	79.44	-43.9	-45.4	20.1	0.00e+00	0	41	0	782237696	60	6708
2026-01-22 00:35:21.77	282.58	79.17	-43.9	-45.3	20.2	0.00e+00	90	41	0	783286272	60	6649
2026-01-22 00:35:22.78	284.82	78.89	-43.1	-44.4	21.2	0.00e+00	0	41	0	785383424	60	6027
2026-01-22 00:35:23.79	286.95	78.60	-42.3	-43.4	21.6	0.00e+00	90	41	0	787480576	58	5990
2026-01-22 00:35:24.80	288.96	78.29	-42.9	-44.1	21.0	0.00e+00	64	41	0	789577728	58	6535
2026-01-22 00:35:25.80	290.84	77.97	-43.6	-45.0	20.2	0.00e+00	0	41	0	791674880	58	7220
2026-01-22 00:35:26.81	292.65	77.64	-43.3	-44.5	20.9	0.00e+00	69	41	0	793772032	60	6091
2026-01-22 00:35:27.82	294.35	77.29	-43.5	-44.9	20.4	0.00e+00	0	41	0	794820608	60	6379
2026-01-22 00:35:28.83	295.96	76.94	-42.1	-43.2	22.1	0.00e+00	95	41	0	796917760	58	5864
2026-01-22 00:35:29.84	297.48	76.58	-39.8	-40.6	23.9	0.00e+00	0	41	0	799014912	54	5472
2026-01-22 00:35:30.85	298.92	76.21	-39.9	-40.7	23.7	0.00e+00	92	41	0	801112064	52	6215
2026-01-22 00:35:31.86	300.29	75.83	-40.8	-41.7	23.1	0.00e+00	86	41	0	803209216	54	6206
2026-01-22 00:35:32.87	301.57	75.45	-41.0	-42.0	22.6	0.00e+00	15	41	0	804257792	54	6432
2026-01-22 00:35:33.88	302.79	75.06	-42.4	-43.6	21.6	0.00e+00	92	41	0	806354944	56	6901
2026-01-22 00:35:34.89	303.95	74.67	-43.9	-45.4	19.9	0.00e+00	0	41	0	808452096	60	6736
2026-01-22 00:35:35.91	305.05	74.26	-43.2	-44.5	20.7	0.00e+00	92	41	0	810549248	60	6066
2026-01-22 00:35:36.92	306.09	73.86	-43.1	-44.4	21.3	0.00e+00	0	41	0	812646400	60	5989
2026-01-22 00:35:37.93	307.08	73.46	-41.2	-42.1	23.1	0.00e+00	92	41	0	813694976	56	5811
2026-01-22 00:35:38.94	308.01	73.05	-40.0	-40.8	24.0	0.00e+00	0	41	0	815792128	54	5595
2026-01-22 00:35:39.95	308.90	72.64	-40.5	-41.4	23.2	0.00e+00	9	41	0	817889280	52	6695
2026-01-22 00:35:40.96	309.75	72.23	-43.1	-44.3	21.2	0.00e+00	92	41	0	819986432	56	7444
2026-01-22 00:35:41.97	310.56	71.81	-43.9	-45.2	20.2	0.00e+00	0	41	0	822083584	58	7411
2026-01-22 00:35:42.98	311.33	71.40	-44.1	-45.5	20.0	0.00e+00	66	41	0	823132160	60	6782
2026-01-22 00:35:43.99	312.06	70.98	-45.3	-47.2	18.3	0.00e+00	0	41	0	825229312	60	8261
2026-01-22 00:35:45.00	312.76	70.56	-43.5	-44.9	20.4	0.00e+00	92	41	0	827326464	60	6323
2026-01-22 00:35:46.01	313.43	70.14	-44.1	-45.6	19.4	0.00e+00	37	41	0	829423616	60	6893
2026-01-22 00:35:47.02	314.07	69.72	-45.3	-47.0	18.8	0.00e+00	76	41	0	831520768	60	8134
2026-01-22 00:35:48.03	314.68	69.30	-44.4	-45.9	19.6	0.00e+00	92	41	0	832569344	60	7151
2026-01-22 00:35:49.03	315.26	68.88	-44.2	-45.6	19.8	0.00e+00	0	41	0	834666496	60	6876
2026-01-22 00:35:50.04	315.82	68.46	-46.0	-48.1	17.5	0.00e+00	37	41	0	836763648	60	9158
2026-01-22 00:35:51.05	316.36	68.04	-46.1	-48.3	17.3	0.00e+00	0	41	0	838860800	60	9350
2026-01-22 00:35:52.06	316.88	67.62	-43.1	-44.4	21.0	0.00e+00	35	41	0	840957952	60	5980
2026-01-22 00:35:53.07	317.37	67.20	-41.6	-42.6	22.2	0.00e+00	0	41	0	842006528	58	5481
2026-01-22 00:35:54.08	317.85	66.78	-39.5	-40.4	23.9	0.00e+00	75	41	0	844103680	54	5331
2026-01-22 00:35:55.09	318.31	66.37	-39.4	-40.2	23.6	0.00e+00	32	41	0	846200832	52	5881
2026-01-22 00:35:56.10	318.75	65.95	-40.1	-41.1	23.4	0.00e+00	0	41	0	848297984	52	6484
2026-01-22 00:35:57.11	319.17	65.53	-40.4	-41.4	23.2	0.00e+00	62	41	0	850395136	52	6720
2026-01-22 00:35:58.12	319.58	65.12	-40.0	-40.9	23.5	0.00e+00	0	41	0	851443712	52	6361
2026-01-22 00:35:59.13	319.98	64.70	-38.7	-39.5	24.6	0.00e+00	91	41	0	853540864	52	5438
2026-01-22 00:36:00.14	320.36	64.29	-38.5	-39.3	24.6	0.00e+00	33	41	0	855638016	50	5911
2026-01-22 00:36:01.15	320.72	63.88	-39.5	-40.4	23.9	0.00e+00	92	41	0	857735168	50	6748
2026-01-22 00:36:02.16	321.08	63.47	-40.5	-41.5	23.0	0.00e+00	92	41	0	859832320	52	6817
2026-01-22 00:36:03.17	321.42	63.06	-39.7	-40.6	24.0	0.00e+00	0	41	0	861929472	54	5498
2026-01-22 00:36:04.18	321.75	62.65	-39.6	-40.5	24.2	0.00e+00	64	41	0	862978048	52	6062
2026-01-22 00:36:05.19	322.07	62.25	-40.6	-41.5	23.2	0.00e+00	0	41	0	865075200	52	6820
2026-01-22 00:36:06.20	322.38	61.85	-41.2	-42.2	22.9	0.00e+00	92	41	0	867172352	54	6559
2026-01-22 00:36:07.21	322.68	61.44	-39.6	-40.4	24.1	0.00e+00	0	41	0	869269504	54	5363
2026-01-22 00:36:08.22	322.97	61.04	-39.2	-40.0	24.4	0.00e+00	92	41	0	871366656	52	5759
2026-01-22 00:36:09.23	323.25	60.65	-39.6	-40.4	23.7	0.00e+00	0	41	0	872415232	52	6016
2026-01-22 00:36:10.24	323.53	60.25	-39.5	-40.3	24.4	0.00e+00	0	41	0	874512384	52	5950
2026-01-22 00:36:11.26	323.79	59.85	-39.4	-40.2	24.1	0.00e+00	65	41	0	876609536	52	5860
2026-01-22 00:36:12.27	324.05	59.46	-41.0	-42.0	22.8	0.00e+00	0	41	0	878706688	54	6407
2026-01-22 00:36:13.28	324.30	59.07	-42.8	-44.2	20.6	0.00e+00	91	41	0	880803840	56	7342
2026-01-22 00:36:14.29	324.54	58.68	-43.4	-44.9	20.6	0.00e+00	0	41	0	881852416	58	7148
2026-01-22 00:36:15.30	324.78	58.29	-42.4	-43.7	21.5	0.00e+00	90	41	0	883949568	58	6197
2026-01-22 00:36:16.31	325.01	57.91	-42.0	-43.1	22.0	0.00e+00	0	41	0	886046720	56	6532
2026-01-22 00:36:17.32	325.23	57.53	-40.9	-42.0	22.9	0.00e+00	0	41	0	888143872	56	5700
2026-01-22 00:36:18.33	325.45	57.15	-41.1	-42.1	22.8	0.00e+00	91	41	0	890241024	54	6537
2026-01-22 00:36:19.34	325.66	56.77	-40.3	-41.3	23.4	0.00e+00	0	41	0	891289600	54	5905
2026-01-22 00:36:20.35	325.86	56.40	-39.7	-40.6	24.0	0.00e+00	92	41	0	893386752	54	5459
2026-01-22 00:36:21.35	326.06	56.03	-39.2	-40.1	24.2	0.00e+00	0	41	0	895483904	52	5803
2026-01-22 00:36:22.36	326.26	55.65	-38.8	-39.6	24.5	0.00e+00	92	41	0	897581056	52	5493
2026-01-22 00:36:23.37	326.45	55.29	-38.6	-39.5	24.4	0.00e+00	0	41	0	899678208	50	6060
2026-01-22 00:36:24.38	326.63	54.92	-38.7	-39.6	24.5	0.00e+00	0	41	0	900726784	50	6158
2026-01-22 00:36:25.39	326.81	54.55	-38.7	-39.5	24.5	0.00e+00	90	41	0	902823936	50	6090
2026-01-22 00:36:26.66	327.03	54.10	-39.9	-40.9	23.5	0.00e+00	0	41	0	904921088	50	7133
2026-01-22 00:36:27.38	327.15	53.84	-39.9	-40.9	23.4	0.00e+00	92	41	0	905969664	52	6381
2026-01-22 00:36:28.68	327.37	53.38	-38.9	-39.7	24.4	0.00e+00	0	41	0	909115392	52	5520
2026-01-22 00:36:29.40	327.48	53.13	-38.5	-39.3	24.8	0.00e+00	44	41	0	910163968	50	5946
2026-01-22 00:36:30.70	327.69	52.68	-38.7	-39.5	24.4	0.00e+00	0	41	0	912261120	50	6100
2026-01-22 00:36:31.42	327.80	52.43	-39.5	-40.4	23.8	0.00e+00	81	41	0	914358272	50	6756
2026-01-22 00:36:32.71	327.99	51.98	-40.1	-41.1	23.4	0.00e+00	90	41	0	916455424	52	6483
2026-01-22 00:36:33.44	328.10	51.73	-40.3	-41.3	23.1	0.00e+00	92	41	0	917504000	52	6683
2026-01-22 00:36:34.73	328.29	51.29	-41.3	-42.4	22.1	0.00e+00	69	41	0	919601152	54	6744
2026-01-22 00:36:35.46	328.39	51.05	-42.6	-43.9	21.5	0.00e+00	0	41	0	921698304	56	7102
2026-01-22 00:36:36.76	328.57	50.61	-42.4	-43.7	21.3	0.00e+00	72	41	0	923795456	56	6945
2026-01-22 00:36:37.48	328.67	50.37	-42.4	-43.6	21.3	0.00e+00	0	41	0	924844032	56	6898
2026-01-22 00:36:38.77	328.84	49.94	-42.0	-43.2	21.9	0.00e+00	92	41	0	927989760	56	6566
2026-01-22 00:36:39.50	328.93	49.71	-41.9	-43.1	21.7	0.00e+00	0	41	0	929038336	56	6504
2026-01-22 00:36:40.80	329.10	49.28	-43.0	-44.3	20.8	0.00e+00	0	41	0	931135488	58	6651
2026-01-22 00:36:41.52	329.18	49.05	-43.1	-44.5	20.5	0.00e+00	90	41	0	933232640	58	6802
2026-01-22 00:36:42.81	329.34	48.63	-42.7	-43.9	21.1	0.00e+00	0	41	0	935329792	58	6379
2026-01-22 00:36:43.54	329.43	48.40	-42.9	-44.2	20.6	0.00e+00	92	41	0	936378368	58	6600
2026-01-22 00:36:44.83	329.58	47.99	-42.7	-44.0	21.1	0.00e+00	0	41	0	939524096	58	6392
2026-01-22 00:36:45.56	329.66	47.76	-42.5	-43.8	21.1	0.00e+00	92	41	0	940572672	58	6271
2026-01-22 00:36:46.85	329.81	47.36	-41.5	-42.6	22.2	0.00e+00	30	41	0	942669824	56	6137
2026-01-22 00:36:47.58	329.89	47.13	-42.6	-43.9	21.1	0.00e+00	91	41	0	943718400	56	7094
2026-01-22 00:36:48.87	330.02	46.73	-45.0	-47.0	18.1	0.00e+00	62	41	0	946864128	60	8107
2026-01-22 00:36:49.59	330.10	46.51	-45.5	-47.8	17.3	0.00e+00	0	41	0	947912704	60	8917
2026-01-22 00:36:50.89	330.24	46.12	-46.0	-48.6	16.6	0.00e+00	80	41	0	950009856	60	9734
2026-01-22 00:36:51.62	330.31	45.90	-45.7	-47.9	17.6	0.00e+00	0	41	0	952107008	60	9000
2026-01-22 00:36:52.91	330.44	45.51	-43.4	-44.8	20.2	0.00e+00	91	41	0	954204160	60	6274
2026-01-22 00:36:53.64	330.51	45.29	-41.8	-43.0	21.8	0.00e+00	0	41	0	955252736	58	5712
2026-01-22 00:36:54.93	330.64	44.91	-41.3	-42.3	22.4	0.00e+00	0	41	0	958398464	56	5940
2026-01-22 00:36:55.66	330.70	44.70	-41.0	-42.0	22.8	0.00e+00	0	41	0	959447040	56	5720
2026-01-22 00:36:56.95	330.82	44.32	-40.0	-40.9	23.4	0.00e+00	0	41	0	961544192	54	5687
2026-01-22 00:36:57.67	330.89	44.11	-40.4	-41.4	22.9	0.00e+00	92	41	0	963641344	54	5982
2026-01-22 00:36:58.97	331.01	43.74	-41.5	-42.7	22.0	0.00e+00	0	41	0	965738496	54	6954
2026-01-22 00:36:59.69	331.07	43.53	-42.2	-43.5	21.4	0.00e+00	58	41	0	966787072	56	6810
2026-01-22 00:37:00.98	331.18	43.17	-43.5	-45.0	20.3	0.00e+00	41	41	0	968884224	58	7221
2026-01-22 00:37:01.71	331.24	42.96	-44.1	-45.8	19.1	0.00e+00	92	41	0	970981376	60	7060
2026-01-22 00:37:03.00	331.35	42.60	-42.6	-43.9	21.3	0.00e+00	92	41	0	973078528	60	5675
2026-01-22 00:37:03.72	331.41	42.41	-41.4	-42.5	22.2	0.00e+00	0	41	0	974127104	56	6069
2026-01-22 00:37:05.02	331.52	42.05	-39.4	-40.3	23.9	0.00e+00	62	41	0	977272832	52	5930
2026-01-22 00:37:05.75	331.58	41.85	-38.9	-39.7	24.4	0.00e+00	0	41	0	978321408	52	5556
2026-01-22 00:37:07.05	331.68	41.50	-38.4	-39.2	24.8	0.00e+00	92	41	0	980418560	50	5831
2026-01-22 00:37:07.76	331.73	41.31	-39.3	-40.1	24.1	0.00e+00	0	41	0	982515712	50	6528
2026-01-22 00:37:09.06	331.83	40.96	-40.0	-41.0	23.4	0.00e+00	0	41	0	984612864	52	6402
2026-01-22 00:37:09.79	331.89	40.77	-40.0	-40.9	23.3	0.00e+00	0	41	0	985661440	52	6385
2026-01-22 00:37:11.08	331.98	40.43	-41.0	-42.0	22.6	0.00e+00	0	41	0	987758592	54	6463
2026-01-22 00:37:11.81	332.03	40.24	-40.7	-41.8	22.7	0.00e+00	59	41	0	989855744	54	6273
2026-01-22 00:37:13.10	332.13	39.90	-40.4	-41.4	23.2	0.00e+00	0	41	0	991952896	54	5979
2026-01-22 00:37:13.83	332.18	39.71	-39.9	-40.9	23.6	0.00e+00	68	41	0	993001472	54	5649
2026-01-22 00:37:15.12	332.27	39.38	-40.2	-41.1	23.4	0.00e+00	0	41	0	996147200	52	6515
2026-01-22 00:37:15.84	332.32	39.20	-40.1	-41.0	23.3	0.00e+00	72	41	0	997195776	52	6448
2026-01-22 00:37:17.14	332.40	38.87	-40.2	-41.1	23.2	0.00e+00	91	41	0	999292928	52	6525
2026-01-22 00:37:17.86	332.45	38.69	-40.8	-41.7	22.8	0.00e+00	0	41	0	1001390080	54	6226
2026-01-22 00:37:19.16	332.54	38.37	-41.1	-42.1	22.5	0.00e+00	63	41	0	1003487232	54	6521
2026-01-22 00:37:19.88	332.58	38.20	-40.9	-41.9	22.6	0.00e+00	0	41	0	1004535808	54	6372
2026-01-22 00:37:21.18	332.67	37.88	-41.2	-42.2	22.4	0.00e+00	92	41	0	1007681536	54	6583
2026-01-22 00:37:21.90	332.71	37.70	-41.5	-42.6	22.0	0.00e+00	0	41	0	1008730112	54	6920
2026-01-22 00:37:23.20	332.79	37.39	-41.5	-42.6	21.9	0.00e+00	92	41	0	1010827264	54	6878
2026-01-22 00:37:23.92	332.84	37.22	-42.6	-43.9	21.2	0.00e+00	0	41	0	1011875840	56	7127
2026-01-22 00:37:25.22	332.91	36.91	-42.9	-44.2	20.7	0.00e+00	0	41	0	1015021568	58	6610
2026-01-22 00:37:25.94	332.96	36.74	-43.0	-44.4	20.6	0.00e+00	57	41	0	1016070144	58	6749
2026-01-22 00:37:27.24	333.03	36.43	-43.7	-45.3	19.6	0.00e+00	0	41	0	1018167296	58	7473
2026-01-22 00:37:27.96	333.08	36.27	-43.5	-45.0	20.3	0.00e+00	62	41	0	1020264448	60	6445
2026-01-22 00:37:29.26	333.15	35.97	-43.1	-44.5	20.6	0.00e+00	0	41	0	1022361600	60	6048
2026-01-22 00:37:29.98	333.19	35.80	-42.9	-44.2	20.9	0.00e+00	72	41	0	1023410176	60	5861
2026-01-22 00:37:31.28	333.26	35.51	-42.2	-43.4	21.3	0.00e+00	31	41	0	1026555904	58	6004
2026-01-22 00:37:32.00	333.30	35.34	-40.9	-41.9	22.7	0.00e+00	80	41	0	1027604480	56	5666
2026-01-22 00:37:33.30	333.37	35.05	-39.9	-40.8	23.5	0.00e+00	45	41	0	1029701632	52	6279
2026-01-22 00:37:34.02	333.41	34.89	-39.6	-40.5	23.8	0.00e+00	0	41	0	1031798784	52	6046
2026-01-22 00:37:35.32	333.48	34.60	-39.4	-40.3	23.9	0.00e+00	35	41	0	1033895936	52	5905
2026-01-22 00:37:36.04	333.52	34.44	-39.7	-40.6	23.7	0.00e+00	0	41	0	1034944512	52	6156
2026-01-22 00:37:37.33	333.58	34.16	-41.0	-42.0	22.5	0.00e+00	42	41	0	1037041664	54	6463
2026-01-22 00:37:38.05	333.62	34.01	-41.4	-42.5	21.7	0.00e+00	0	41	0	1039138816	54	6806
2026-01-22 00:37:39.35	333.68	33.73	-43.0	-44.4	20.5	0.00e+00	0	41	0	1041235968	58	6698
2026-01-22 00:37:40.07	333.72	33.57	-44.0	-45.6	19.5	0.00e+00	0	41	0	1042284544	60	6859
2026-01-22 00:37:41.37	333.78	33.30	-44.3	-45.9	19.2	0.00e+00	0	41	0	1045430272	60	7162
2026-01-22 00:37:42.09	333.82	33.15	-44.5	-46.2	18.9	0.00e+00	92	41	0	1046478848	60	7421
2026-01-22 00:37:43.38	333.88	32.88	-44.6	-46.3	18.9	0.00e+00	0	41	0	1048576000	60	7456
2026-01-22 00:37:44.10	333.91	32.73	-44.1	-45.7	19.4	0.00e+00	64	41	0	1049624576	60	6990
2026-01-22 00:37:45.41	333.98	32.46	-43.7	-45.2	19.9	0.00e+00	0	41	0	1052770304	60	6555
2026-01-22 00:37:46.13	334.01	32.31	-43.4	-44.9	20.2	0.00e+00	76	41	0	1053818880	60	6321
2026-01-22 00:37:47.42	334.07	32.05	-43.1	-44.4	20.6	0.00e+00	90	41	0	1055916032	58	6734
2026-01-22 00:37:48.15	334.10	31.90	-42.4	-43.6	20.9	0.00e+00	0	41	0	1058013184	58	6150
2026-01-22 00:37:49.44	334.16	31.64	-42.8	-44.1	20.7	0.00e+00	63	41	0	1060110336	58	6473
2026-01-22 00:37:50.17	334.19	31.49	-42.7	-43.9	21.2	0.00e+00	0	41	0	1061158912	58	6343
2026-01-22 00:37:51.46	334.25	31.24	-41.2	-42.2	22.3	0.00e+00	92	41	0	1064304640	56	5891
2026-01-22 00:37:52.18	334.28	31.10	-41.5	-42.5	22.1	0.00e+00	0	41	0	1065353216	56	6101
2026-01-22 00:37:53.48	334.33	30.84	-41.3	-42.3	22.2	0.00e+00	0	41	0	1067450368	56	5933
2026-01-22 00:37:54.20	334.36	30.70	-40.8	-41.8	22.6	0.00e+00	0	41	0	1069547520	56	5571
2026-01-22 00:37:55.50	334.42	30.45	-40.8	-41.8	22.9	0.00e+00	0	41	0	1071644672	56	5590
2026-01-22 00:37:56.22	334.45	30.31	-40.4	-41.4	23.0	0.00e+00	63	41	0	1072693248	54	5983
2026-01-22 00:37:57.52	334.50	30.07	-40.5	-41.4	23.1	0.00e+00	0	41	0	1075838976	54	6016
2026-01-22 00:37:58.24	334.53	29.93	-40.4	-41.4	23.1	0.00e+00	0	41	0	1076887552	54	5970
2026-01-22 00:37:59.54	334.58	29.69	-40.7	-41.6	22.9	0.00e+00	0	41	0	1078984704	54	6143
2026-01-22 00:38:00.26	334.61	29.55	-41.0	-41.9	22.8	0.00e+00	23	41	0	1080033280	54	6362
2026-01-22 00:38:01.56	334.66	29.31	-41.0	-42.0	22.6	0.00e+00	19	41	0	1083179008	54	6408
2026-01-22 00:38:02.28	334.69	29.18	-41.5	-42.6	21.9	0.00e+00	92	41	0	1084227584	56	6115
2026-01-22 00:38:03.57	334.74	28.94	-42.2	-43.3	21.3	0.00e+00	61	41	0	1086324736	56	6670
2026-01-22 00:38:04.30	334.77	28.81	-42.3	-43.4	21.3	0.00e+00	0	41	0	1088421888	56	6752
2026-01-22 00:38:05.59	334.82	28.58	-42.9	-44.1	20.8	0.00e+00	92	41	0	1090519040	58	6508
2026-01-22 00:38:06.32	334.84	28.45	-43.2	-44.5	20.2	0.00e+00	0	41	0	1091567616	58	6771
2026-01-22 00:38:07.61	334.89	28.22	-43.3	-44.7	20.4	0.00e+00	50	41	0	1094713344	58	6945
2026-01-22 00:38:08.34	334.92	28.09	-43.3	-44.7	20.4	0.00e+00	0	41	0	1095761920	58	6936
2026-01-22 00:38:09.63	334.96	27.86	-43.5	-44.8	20.2	0.00e+00	0	41	0	1097859072	60	6310
2026-01-22 00:38:10.35	334.99	27.73	-43.1	-44.4	20.5	0.00e+00	0	41	0	1098907648	60	5989
2026-01-22 00:38:11.65	335.03	27.51	-43.3	-44.7	20.5	0.00e+00	0	41	0	1102053376	60	6183
2026-01-22 00:38:12.37	335.06	27.38	-42.8	-44.0	20.9	0.00e+00	92	41	0	1103101952	60	5740
2026-01-22 00:38:13.67	335.11	27.16	-42.0	-43.2	21.6	0.00e+00	0	41	0	1105199104	58	5836
2026-01-22 00:38:14.39	335.13	27.04	-41.6	-42.7	22.0	0.00e+00	76	41	0	1107296256	56	6197
2026-01-22 00:38:15.69	335.17	26.82	-41.4	-42.5	22.1	0.00e+00	17	41	0	1109393408	56	6085
2026-01-22 00:38:16.41	335.20	26.70	-41.2	-42.2	22.3	0.00e+00	92	41	0	1110441984	56	5858
2026-01-22 00:38:17.71	335.24	26.48	-41.1	-42.1	22.6	0.00e+00	69	41	0	1113587712	56	5774
2026-01-22 00:38:18.43	335.27	26.36	-41.1	-42.1	22.6	0.00e+00	0	41	0	1114636288	56	5798
2026-01-22 00:38:19.73	335.31	26.15	-40.1	-41.1	23.2	0.00e+00	54	41	0	1116733440	54	5771
2026-01-22 00:38:20.45	335.33	26.03	-40.1	-41.1	23.3	0.00e+00	0	41	0	1117782016	54	5779
2026-01-22 00:38:21.75	335.37	25.82	-39.6	-40.5	23.6	0.00e+00	81	41	0	1120927744	52	6043
2026-01-22 00:38:22.47	335.40	25.70	-39.5	-40.3	23.8	0.00e+00	0	41	0	1121976320	52	5955
2026-01-22 00:38:23.77	335.44	25.49	-39.6	-40.5	23.8	0.00e+00	0	41	0	1124073472	52	6064
2026-01-22 00:38:24.49	335.46	25.37	-39.4	-40.3	23.7	0.00e+00	0	41	0	1126170624	52	5912
2026-01-22 00:38:25.79	335.50	25.17	-39.2	-40.1	24.1	0.00e+00	0	41	0	1128267776	52	5772
2026-01-22 00:38:26.51	335.52	25.05	-38.9	-39.8	24.2	0.00e+00	63	41	0	1129316352	52	5585
2026-01-22 00:38:27.81	335.56	24.85	-39.0	-39.9	24.1	0.00e+00	0	41	0	1132462080	52	5632
2026-01-22 00:38:28.53	335.59	24.74	-39.1	-40.0	24.0	0.00e+00	62	41	0	1133510656	52	5714
2026-01-22 00:38:29.83	335.62	24.53	-39.0	-39.9	24.0	0.00e+00	0	41	0	1135607808	52	5640
2026-01-22 00:38:30.55	335.65	24.42	-39.2	-40.1	24.0	0.00e+00	63	41	0	1137704960	52	5805
2026-01-22 00:38:31.84	335.68	24.22	-38.9	-39.8	24.5	0.00e+00	59	41	0	1139802112	52	5586
2026-01-22 00:38:32.57	335.71	24.11	-38.7	-39.5	24.4	0.00e+00	12	41	0	1140850688	50	6069
2026-01-22 00:38:33.86	335.74	23.92	-38.6	-39.5	24.5	0.00e+00	10	41	0	1143996416	50	6044
2026-01-22 00:38:34.59	335.76	23.81	-38.5	-39.4	24.5	0.00e+00	0	41	0	1145044992	50	5970
2026-01-22 00:38:35.88	335.80	23.61	-38.6	-39.4	24.5	0.00e+00	86	41	0	1147142144	50	5994
2026-01-22 00:38:36.60	335.82	23.51	-38.5	-39.3	24.4	0.00e+00	0	41	0	1148190720	50	5962
2026-01-22 00:38:37.90	335.86	23.31	-38.7	-39.5	24.3	0.00e+00	47	41	0	1151336448	50	6098
2026-01-22 00:38:38.62	335.88	23.21	-38.7	-39.5	24.3	0.00e+00	0	41	0	1152385024	50	6071
2026-01-22 00:38:39.91	335.91	23.02	-38.8	-39.6	24.2	0.00e+00	0	41	0	1154482176	50	6154
2026-01-22 00:38:40.63	335.93	22.91	-38.9	-39.8	24.1	0.00e+00	60	41	0	1156579328	50	6271
2026-01-22 00:38:41.93	335.97	22.72	-39.3	-40.1	23.9	0.00e+00	0	41	0	1158676480	50	6539
2026-01-22 00:38:42.65	335.99	22.62	-39.5	-40.4	23.6	0.00e+00	58	41	0	1159725056	50	6754
2026-01-22 00:38:43.95	336.02	22.43	-39.6	-40.5	23.6	0.00e+00	0	41	0	1162870784	52	6077
2026-01-22 00:38:44.67	336.04	22.33	-39.8	-40.7	23.4	0.00e+00	59	41	0	1163919360	52	6232
2026-01-22 00:38:45.97	336.08	22.15	-40.0	-40.9	23.3	0.00e+00	0	41	0	1166016512	52	6345
2026-01-22 00:38:46.69	336.10	22.05	-39.9	-40.8	23.5	0.00e+00	0	41	0	1167065088	52	6303
2026-01-22 00:38:47.99	336.13	21.86	-39.7	-40.6	23.6	0.00e+00	92	42	0	1170210816	52	6125
2026-01-22 00:38:48.71	336.15	21.76	-39.9	-40.8	23.4	0.00e+00	0	41	0	1171259392	52	6259
2026-01-22 00:38:50.00	336.18	21.58	-39.5	-40.4	23.7	0.00e+00	92	41	0	1173356544	52	5990
2026-01-22 00:38:50.73	336.20	21.48	-39.3	-40.1	24.0	0.00e+00	0	41	0	1175453696	52	5790
2026-01-22 00:38:52.03	336.23	21.30	-39.3	-40.1	23.9	0.00e+00	0	41	0	1177550848	52	5798
2026-01-22 00:38:52.74	336.25	21.21	-39.2	-40.1	23.8	0.00e+00	0	41	0	1178599424	52	5782
2026-01-22 00:38:54.04	336.28	21.03	-38.8	-39.6	24.2	0.00e+00	0	41	0	1181745152	52	5457
2026-01-22 00:38:54.76	336.30	20.93	-38.8	-39.6	24.2	0.00e+00	0	41	0	1182793728	50	6148
2026-01-22 00:38:56.06	336.33	20.76	-38.9	-39.7	24.2	0.00e+00	0	41	0	1184890880	50	6242
2026-01-22 00:38:56.79	336.35	20.66	-38.8	-39.7	24.2	0.00e+00	52	41	0	1185939456	50	6176
2026-01-22 00:38:58.08	336.38	20.49	-38.7	-39.5	24.3	0.00e+00	0	41	0	1189085184	50	6084
2026-01-22 00:38:58.81	336.40	20.39	-38.8	-39.6	24.1	0.00e+00	75	41	0	1190133760	50	6160
