passes_logs/2026/01/22/R4.6S_Anadyr/R4.6S_Anadyr__20260122_152359_NOAA_21_JPSS-2_rec.log

#Pass ID: 20260122_152359_NOAA 21 (JPSS-2)
#Satellite: NOAA 21 (JPSS-2)
#Configuration: NOAA-21
#almurnet v.1.7.20251203
#Start time: 2026-01-22 15:24:00

#Version: 2.2.20231116
#Station: R4.6S_Anadyr
#Location: 177.4865 lon 64.73178 lat
#TLE: 1 54234U 22150A   26021.42686626  .00000211  00000+0  12107-3 0  9996
#TLE: 2 54234  98.7506 322.2490 0000636 241.9299 118.1812 14.19537149165725

#Time	Az	El	Level	Level2	SNR	BER	BlckErr	Temp	State	Recorded	gain1	gain2
2026-01-22 15:24:00.49	22.17	0.04	-51.7	-69.4	3.5	3.02e+01	0	38	0	0	60	113298
2026-01-22 15:24:01.50	22.16	0.10	-51.7	-64.6	3.5	1.52e+00	0	40	104	0	60	59787
2026-01-22 15:24:02.51	22.14	0.16	-51.7	-64.6	3.5	1.52e+00	0	40	104	0	60	59687
2026-01-22 15:24:03.52	22.13	0.22	-51.4	-64.3	3.5	1.52e+00	0	40	104	0	60	57803
2026-01-22 15:24:04.53	22.11	0.28	-51.4	-64.3	3.5	1.52e+00	0	40	104	0	60	57391
2026-01-22 15:24:05.54	22.10	0.34	-51.3	-64.1	3.5	1.52e+00	0	40	104	0	60	56360
2026-01-22 15:24:06.55	22.08	0.40	-51.2	-64.1	3.5	1.51e+00	0	40	104	0	60	56024
2026-01-22 15:24:07.56	22.07	0.46	-51.3	-64.2	3.5	1.52e+00	0	40	104	0	60	56808
2026-01-22 15:24:08.57	22.06	0.53	-51.3	-64.1	3.5	1.52e+00	0	40	104	0	60	56454
2026-01-22 15:24:09.58	22.04	0.59	-51.2	-64.1	3.5	1.52e+00	0	40	104	0	60	56271
2026-01-22 15:24:10.59	22.03	0.65	-51.3	-64.1	3.5	1.52e+00	0	40	104	0	60	56300
2026-01-22 15:24:11.60	22.01	0.71	-51.2	-64.1	3.5	1.52e+00	0	40	104	0	60	56080
2026-01-22 15:24:12.61	22.00	0.77	-51.1	-64.0	3.5	1.52e+00	0	40	104	0	60	55557
2026-01-22 15:24:13.62	21.98	0.83	-51.0	-64.0	3.5	1.51e+00	0	40	104	0	60	55308
2026-01-22 15:24:14.63	21.96	0.89	-51.0	-63.9	3.5	1.52e+00	0	40	104	0	60	54787
2026-01-22 15:24:15.64	21.95	0.95	-50.9	-63.8	3.5	1.51e+00	0	40	104	0	60	54211
2026-01-22 15:24:16.64	21.93	1.02	-50.9	-63.7	3.5	1.52e+00	0	40	104	0	60	54010
2026-01-22 15:24:17.65	21.92	1.08	-50.8	-63.6	3.5	1.52e+00	0	40	104	0	60	53329
2026-01-22 15:24:18.66	21.90	1.14	-50.7	-63.5	3.5	1.52e+00	0	40	104	0	60	52504
2026-01-22 15:24:19.67	21.89	1.20	-50.5	-63.4	3.5	1.52e+00	0	40	104	0	60	52060
2026-01-22 15:24:20.69	21.87	1.26	-50.4	-63.3	3.5	1.52e+00	0	40	104	0	60	51162
2026-01-22 15:24:21.69	21.85	1.33	-50.3	-63.2	3.5	1.52e+00	0	40	104	0	60	50632
2026-01-22 15:24:22.70	21.84	1.39	-50.2	-63.0	3.5	1.52e+00	0	40	104	0	60	49840
2026-01-22 15:24:23.71	21.82	1.45	-50.0	-62.8	3.5	1.52e+00	0	40	104	0	60	48488
2026-01-22 15:24:24.72	21.81	1.51	-49.7	-62.6	3.5	1.52e+00	0	40	104	0	60	47269
2026-01-22 15:24:25.73	21.79	1.58	-49.6	-62.4	3.5	1.52e+00	0	40	104	0	60	46201
2026-01-22 15:24:26.74	21.77	1.64	-49.6	-62.2	3.5	1.51e+00	0	40	104	0	60	45327
2026-01-22 15:24:27.75	21.76	1.70	-49.6	-62.1	3.5	1.51e+00	0	40	104	0	60	44445
2026-01-22 15:24:28.76	21.74	1.77	-49.6	-62.0	3.5	1.52e+00	0	40	104	0	60	44389
2026-01-22 15:24:29.77	21.72	1.83	-49.6	-62.1	3.5	1.52e+00	0	40	104	0	60	44607
2026-01-22 15:24:30.78	21.71	1.89	-49.6	-62.1	3.5	1.52e+00	0	40	104	0	60	44513
2026-01-22 15:24:31.79	21.69	1.96	-49.6	-62.2	3.5	1.52e+00	0	40	104	0	60	45377
2026-01-22 15:24:32.80	21.67	2.02	-49.6	-62.4	3.5	1.52e+00	0	40	104	0	60	46138
2026-01-22 15:24:33.81	21.66	2.09	-49.6	-62.4	3.5	1.52e+00	0	40	104	0	60	46519
2026-01-22 15:24:34.82	21.64	2.15	-49.6	-62.5	3.5	1.52e+00	0	41	104	0	60	46861
2026-01-22 15:24:35.83	21.62	2.21	-49.6	-62.5	3.5	1.52e+00	0	41	104	0	60	46889
2026-01-22 15:24:36.84	21.61	2.28	-49.7	-62.4	3.5	1.52e+00	0	40	104	0	60	46509
2026-01-22 15:24:37.85	21.59	2.34	-49.7	-62.4	3.5	1.52e+00	0	40	104	0	60	46030
2026-01-22 15:24:38.86	21.57	2.41	-49.6	-62.3	3.5	1.52e+00	0	41	104	0	60	45498
2026-01-22 15:24:39.87	21.55	2.47	-49.6	-62.1	3.5	1.52e+00	0	41	104	0	60	44465
2026-01-22 15:24:40.88	21.54	2.54	-49.6	-61.9	3.5	1.52e+00	0	40	104	0	60	43449
2026-01-22 15:24:41.89	21.52	2.60	-49.6	-61.8	3.5	1.52e+00	0	40	104	0	60	43404
2026-01-22 15:24:42.90	21.50	2.67	-49.5	-61.7	3.5	1.52e+00	0	41	104	0	60	42532
2026-01-22 15:24:43.91	21.48	2.73	-49.5	-61.3	3.5	1.51e+00	0	41	104	0	60	40989
2026-01-22 15:24:44.93	21.46	2.80	-49.5	-61.4	3.5	1.51e+00	0	41	104	0	60	41328
2026-01-22 15:24:45.94	21.45	2.87	-49.5	-61.6	3.5	1.51e+00	0	41	104	0	60	42070
2026-01-22 15:24:46.95	21.43	2.93	-49.6	-62.0	3.5	1.52e+00	0	41	104	0	60	44007
2026-01-22 15:24:47.96	21.41	3.00	-49.6	-62.4	3.5	1.52e+00	0	41	104	0	60	46360
2026-01-22 15:24:48.97	21.39	3.06	-49.6	-62.5	3.5	1.52e+00	0	41	104	0	60	46680
2026-01-22 15:24:49.98	21.37	3.13	-49.6	-61.8	3.5	1.52e+00	0	41	104	0	60	43134
2026-01-22 15:24:50.99	21.35	3.20	-49.5	-61.1	3.5	1.51e+00	0	41	104	0	60	40050
2026-01-22 15:24:52.00	21.33	3.26	-49.3	-58.9	4.0	1.46e+00	0	41	104	0	60	31088
2026-01-22 15:24:53.00	21.32	3.33	-49.1	-57.5	4.6	1.28e+00	123	41	104	0	60	26347
2026-01-22 15:24:54.01	21.30	3.40	-48.9	-56.5	5.5	1.39e+00	122	41	104	0	60	23495
2026-01-22 15:24:55.02	21.28	3.46	-48.6	-54.2	6.5	3.32e-01	120	41	0	1048576	60	18095
2026-01-22 15:24:56.03	21.26	3.53	-48.8	-55.0	5.7	2.45e-01	123	41	0	4194304	60	19755
2026-01-22 15:24:57.04	21.24	3.60	-48.4	-53.8	6.9	1.29e-01	123	41	0	7340032	60	17170
2026-01-22 15:24:58.05	21.22	3.67	-48.6	-54.4	6.6	2.58e-01	123	41	0	10485760	60	18505
2026-01-22 15:24:59.06	21.20	3.73	-49.5	-60.7	3.5	1.51e+00	0	41	104	11534336	60	38211
2026-01-22 15:25:00.07	21.18	3.80	-49.8	-62.6	3.5	1.52e+00	0	41	104	11534336	60	47286
2026-01-22 15:25:01.08	21.16	3.87	-49.6	-62.4	3.5	1.49e+00	0	41	104	11534336	60	46134
2026-01-22 15:25:02.09	21.14	3.94	-41.7	-43.4	18.2	1.44e+00	0	41	104	11534336	60	5181
2026-01-22 15:25:03.10	21.12	4.01	-49.5	-60.7	3.5	1.34e+00	0	41	104	11534336	60	38012
2026-01-22 15:25:04.11	21.10	4.08	-43.4	-45.5	16.8	1.40e+00	122	41	104	11534336	60	6636
2026-01-22 15:25:05.12	21.08	4.14	-41.3	-42.6	19.3	0.00e+00	120	41	0	12582912	56	5959
2026-01-22 15:25:06.13	21.06	4.21	-40.3	-41.5	20.1	0.00e+00	122	41	0	15728640	54	5912
2026-01-22 15:25:07.14	21.04	4.28	-40.0	-41.2	20.5	0.00e+00	122	41	0	18874368	54	5666
2026-01-22 15:25:08.15	21.02	4.35	-40.7	-42.0	19.6	0.00e+00	123	41	0	22020096	54	6248
2026-01-22 15:25:09.15	21.00	4.42	-40.2	-41.4	20.3	0.00e+00	123	41	0	25165824	54	5836
2026-01-22 15:25:10.16	20.98	4.49	-39.9	-41.1	20.5	0.00e+00	122	41	0	28311552	54	5620
2026-01-22 15:25:11.18	20.96	4.56	-40.0	-41.2	20.5	0.00e+00	120	41	0	31457280	54	5701
2026-01-22 15:25:12.18	20.94	4.63	-40.0	-41.2	20.5	0.00e+00	122	41	0	34603008	54	5689
2026-01-22 15:25:13.19	20.92	4.70	-40.5	-41.7	20.0	0.00e+00	123	41	0	37748736	54	6028
2026-01-22 15:25:14.20	20.89	4.77	-40.1	-41.2	20.4	0.00e+00	122	41	0	40894464	54	5725
2026-01-22 15:25:15.21	20.87	4.84	-39.8	-40.9	20.6	0.00e+00	122	41	0	44040192	54	5530
2026-01-22 15:25:16.22	20.85	4.91	-39.9	-41.1	20.6	0.00e+00	123	41	0	47185920	54	5625
2026-01-22 15:25:17.23	20.83	4.98	-39.9	-41.1	20.5	0.00e+00	122	41	0	50331648	52	6321
2026-01-22 15:25:18.24	20.81	5.05	-40.0	-41.2	20.6	0.00e+00	123	41	0	53477376	52	6354
2026-01-22 15:25:19.25	20.79	5.12	-39.7	-40.8	20.9	0.00e+00	122	41	0	56623104	52	6132
2026-01-22 15:25:20.26	20.76	5.20	-39.7	-40.8	20.8	0.00e+00	122	41	0	59768832	52	6104
2026-01-22 15:25:21.27	20.74	5.27	-39.8	-40.9	20.8	0.00e+00	123	41	0	62914560	52	6192
2026-01-22 15:25:22.28	20.72	5.34	-39.7	-40.9	20.8	0.00e+00	120	41	0	66060288	52	6148
2026-01-22 15:25:23.29	20.70	5.41	-39.6	-40.7	21.1	0.00e+00	122	41	0	69206016	52	6035
2026-01-22 15:25:24.30	20.67	5.48	-39.4	-40.5	21.1	0.00e+00	122	41	0	72351744	52	5913
2026-01-22 15:25:25.31	20.65	5.56	-39.5	-40.6	21.1	0.00e+00	123	41	0	75497472	52	5960
2026-01-22 15:25:26.32	20.63	5.63	-40.1	-41.3	20.5	0.00e+00	122	41	0	78643200	52	6477
2026-01-22 15:25:27.33	20.61	5.70	-39.9	-41.0	20.8	0.00e+00	123	41	0	81788928	52	6229
2026-01-22 15:25:28.33	20.58	5.77	-40.0	-41.1	20.7	0.00e+00	123	41	0	84934656	52	6320
2026-01-22 15:25:29.34	20.56	5.85	-39.9	-41.1	20.6	0.00e+00	122	41	0	88080384	52	6289
2026-01-22 15:25:30.35	20.54	5.92	-39.9	-41.1	20.6	0.00e+00	123	41	0	91226112	52	6308
2026-01-22 15:25:31.36	20.51	5.99	-39.7	-40.8	21.0	0.00e+00	122	41	0	94371840	52	6106
2026-01-22 15:25:32.37	20.49	6.07	-40.3	-41.5	20.4	0.00e+00	122	41	0	97517568	52	6599
2026-01-22 15:25:33.38	20.47	6.14	-39.7	-40.8	21.0	0.00e+00	122	41	0	100663296	52	6078
2026-01-22 15:25:34.39	20.44	6.22	-39.3	-40.4	21.4	0.00e+00	120	41	0	103809024	52	5792
2026-01-22 15:25:35.40	20.42	6.29	-39.5	-40.6	21.2	0.00e+00	123	41	0	106954752	52	5948
2026-01-22 15:25:36.41	20.39	6.37	-39.4	-40.5	21.2	0.00e+00	123	41	0	110100480	52	5904
2026-01-22 15:25:37.42	20.37	6.44	-39.6	-40.7	21.0	0.00e+00	122	41	0	113246208	52	6045
2026-01-22 15:25:38.43	20.34	6.52	-39.6	-40.8	21.1	0.00e+00	122	41	0	116391936	52	6073
2026-01-22 15:25:39.44	20.32	6.59	-39.5	-40.6	21.1	0.00e+00	122	41	0	119537664	52	5964
2026-01-22 15:25:40.44	20.30	6.67	-39.9	-41.1	20.9	0.00e+00	120	41	0	122683392	52	6306
2026-01-22 15:25:41.45	20.27	6.74	-39.4	-40.4	21.3	0.00e+00	123	41	0	125829120	52	5855
2026-01-22 15:25:42.46	20.25	6.82	-39.3	-40.3	21.5	0.00e+00	122	41	0	128974848	52	5782
2026-01-22 15:25:43.48	20.22	6.89	-39.2	-40.3	21.5	0.00e+00	123	41	0	132120576	52	5762
2026-01-22 15:25:44.49	20.19	6.97	-39.1	-40.2	21.5	0.00e+00	120	41	0	135266304	52	5694
2026-01-22 15:25:45.50	20.17	7.05	-39.1	-40.2	21.6	0.00e+00	122	41	0	138412032	52	5676
2026-01-22 15:25:46.51	20.14	7.12	-39.1	-40.1	21.7	0.00e+00	122	41	0	141557760	52	5646
2026-01-22 15:25:47.52	20.12	7.20	-39.2	-40.2	21.6	0.00e+00	123	41	0	144703488	52	5725
2026-01-22 15:25:48.53	20.09	7.28	-39.1	-40.2	21.6	0.00e+00	123	41	0	147849216	52	5689
2026-01-22 15:25:49.54	20.06	7.36	-39.1	-40.2	21.6	0.00e+00	123	41	0	150994944	52	5683
2026-01-22 15:25:50.55	20.04	7.43	-39.1	-40.2	21.7	0.00e+00	123	41	0	154140672	52	5678
2026-01-22 15:25:51.56	20.01	7.51	-39.0	-40.1	21.7	0.00e+00	122	41	0	157286400	52	5610
2026-01-22 15:25:52.57	19.99	7.59	-39.0	-40.1	21.7	0.00e+00	122	41	0	160432128	52	5628
2026-01-22 15:25:53.58	19.96	7.67	-38.9	-40.0	21.9	0.00e+00	123	41	0	163577856	52	5549
2026-01-22 15:25:54.59	19.93	7.75	-39.0	-40.1	21.8	0.00e+00	123	41	0	166723584	52	5597
2026-01-22 15:25:55.60	19.90	7.83	-38.8	-39.9	22.0	0.00e+00	122	41	0	169869312	52	5479
2026-01-22 15:25:56.60	19.88	7.90	-38.9	-39.9	21.9	0.00e+00	122	41	0	173015040	52	5513
2026-01-22 15:25:57.61	19.85	7.98	-38.7	-39.8	22.0	0.00e+00	121	41	0	176160768	50	6079
2026-01-22 15:25:58.62	19.82	8.06	-38.8	-39.9	21.9	0.00e+00	122	41	0	179306496	50	6145
2026-01-22 15:25:59.63	19.79	8.14	-38.9	-39.9	22.0	0.00e+00	120	41	0	182452224	50	6186
2026-01-22 15:26:00.64	19.77	8.22	-38.9	-40.0	22.0	0.00e+00	123	41	0	185597952	50	6207
2026-01-22 15:26:01.65	19.74	8.30	-38.7	-39.7	22.1	0.00e+00	122	41	0	188743680	50	6061
2026-01-22 15:26:02.66	19.71	8.38	-38.7	-39.7	22.2	0.00e+00	123	41	0	191889408	50	6053
2026-01-22 15:26:03.66	19.68	8.46	-38.7	-39.7	22.1	0.00e+00	122	41	0	195035136	50	6039
2026-01-22 15:26:04.67	19.65	8.54	-38.5	-39.6	22.3	0.00e+00	122	41	0	198180864	50	5927
2026-01-22 15:26:05.68	19.62	8.63	-38.6	-39.6	22.2	0.00e+00	123	41	0	201326592	50	5973
2026-01-22 15:26:06.69	19.59	8.71	-38.6	-39.6	22.3	0.00e+00	122	41	0	204472320	50	5949
2026-01-22 15:26:07.70	19.56	8.79	-38.6	-39.7	22.2	0.00e+00	122	41	0	207618048	50	5999
2026-01-22 15:26:08.71	19.53	8.87	-38.4	-39.5	22.4	0.00e+00	123	41	0	210763776	50	5859
2026-01-22 15:26:09.72	19.50	8.95	-38.5	-39.5	22.3	0.00e+00	122	41	0	213909504	50	5872
2026-01-22 15:26:10.73	19.48	9.04	-38.6	-39.6	22.2	0.00e+00	120	41	0	217055232	50	5965
2026-01-22 15:26:11.74	19.44	9.12	-38.4	-39.4	22.5	0.00e+00	123	41	0	220200960	50	5847
2026-01-22 15:26:12.75	19.41	9.20	-38.3	-39.3	22.5	0.00e+00	123	41	0	223346688	50	5776
2026-01-22 15:26:13.77	19.38	9.29	-38.3	-39.3	22.6	0.00e+00	120	41	0	226492416	50	5751
2026-01-22 15:26:14.78	19.35	9.37	-38.3	-39.3	22.6	0.00e+00	123	41	0	229638144	50	5759
2026-01-22 15:26:15.79	19.32	9.45	-38.2	-39.2	22.6	0.00e+00	122	41	0	232783872	50	5720
2026-01-22 15:26:16.80	19.29	9.54	-38.2	-39.2	22.6	0.00e+00	123	41	0	235929600	50	5721
2026-01-22 15:26:17.81	19.26	9.62	-38.3	-39.3	22.6	0.00e+00	122	41	0	239075328	50	5748
2026-01-22 15:26:18.82	19.23	9.71	-38.3	-39.3	22.5	0.00e+00	122	41	0	242221056	50	5788
2026-01-22 15:26:19.82	19.20	9.79	-38.3	-39.3	22.6	0.00e+00	123	41	0	245366784	50	5755
2026-01-22 15:26:20.83	19.16	9.88	-37.9	-38.9	22.9	0.00e+00	121	41	0	248512512	50	5492
2026-01-22 15:26:21.84	19.13	9.96	-38.1	-39.1	22.8	0.00e+00	123	41	0	251658240	50	5607
2026-01-22 15:26:22.85	19.10	10.05	-38.0	-39.0	22.8	0.00e+00	122	41	0	254803968	50	5570
2026-01-22 15:26:23.86	19.07	10.14	-37.9	-38.9	22.9	0.00e+00	120	41	0	257949696	50	5519
2026-01-22 15:26:24.87	19.03	10.22	-38.0	-39.0	22.8	0.00e+00	122	41	0	261095424	50	5551
2026-01-22 15:26:25.88	19.00	10.31	-37.9	-38.9	22.9	0.00e+00	122	41	0	264241152	50	5470
2026-01-22 15:26:26.89	18.97	10.40	-38.0	-39.0	22.8	0.00e+00	122	41	0	267386880	50	5547
2026-01-22 15:26:27.90	18.94	10.48	-38.0	-38.9	22.9	0.00e+00	120	41	0	270532608	50	5525
2026-01-22 15:26:28.90	18.90	10.57	-37.7	-38.7	23.1	0.00e+00	123	41	0	273678336	50	5362
2026-01-22 15:26:29.92	18.87	10.66	-37.8	-38.7	23.0	0.00e+00	123	41	0	277872640	48	6038
2026-01-22 15:26:30.93	18.83	10.75	-38.0	-39.0	22.9	0.00e+00	123	41	0	279969792	48	6261
2026-01-22 15:26:31.94	18.80	10.84	-37.8	-38.8	23.0	0.00e+00	120	41	0	283115520	48	6079
2026-01-22 15:26:32.95	18.76	10.92	-38.0	-39.0	22.9	0.00e+00	122	41	0	286261248	48	6256
2026-01-22 15:26:33.96	18.73	11.01	-38.2	-39.2	22.7	0.00e+00	122	41	0	290455552	48	6384
2026-01-22 15:26:34.97	18.69	11.10	-38.1	-39.1	22.7	0.00e+00	123	41	0	293601280	48	6287
2026-01-22 15:26:35.98	18.66	11.19	-38.1	-39.1	22.9	0.00e+00	123	41	0	296747008	48	6297
2026-01-22 15:26:36.98	18.62	11.28	-37.9	-38.8	22.9	0.00e+00	123	41	0	299892736	48	6129
2026-01-22 15:26:37.99	18.59	11.37	-37.9	-38.8	23.1	0.00e+00	123	41	0	303038464	48	6131
2026-01-22 15:26:39.00	18.55	11.46	-37.8	-38.8	23.0	0.00e+00	123	41	0	305135616	48	6073
2026-01-22 15:26:40.00	18.52	11.55	-37.8	-38.7	23.2	0.00e+00	123	41	0	308281344	48	6058
2026-01-22 15:26:41.01	18.48	11.65	-37.5	-38.4	23.4	0.00e+00	120	41	0	312475648	48	5842
2026-01-22 15:26:42.02	18.44	11.74	-37.5	-38.4	23.4	0.00e+00	123	41	0	315621376	48	5837
2026-01-22 15:26:43.03	18.41	11.83	-37.5	-38.5	23.3	0.00e+00	122	41	0	318767104	48	5863
2026-01-22 15:26:44.04	18.37	11.92	-37.5	-38.4	23.4	0.00e+00	123	41	0	321912832	48	5852
2026-01-22 15:26:45.05	18.33	12.01	-37.4	-38.4	23.4	0.00e+00	119	41	0	325058560	48	5811
2026-01-22 15:26:46.06	18.29	12.11	-37.4	-38.4	23.5	0.00e+00	123	41	0	328204288	48	5796
2026-01-22 15:26:47.07	18.25	12.20	-37.4	-38.3	23.4	0.00e+00	120	41	0	331350016	48	5760
2026-01-22 15:26:48.08	18.22	12.30	-37.4	-38.4	23.5	0.00e+00	122	41	0	334495744	48	5796
2026-01-22 15:26:49.08	18.18	12.39	-37.4	-38.4	23.5	0.00e+00	123	41	0	337641472	48	5817
2026-01-22 15:26:50.10	18.14	12.48	-37.6	-38.5	23.3	0.00e+00	121	41	0	340787200	48	5895
2026-01-22 15:26:51.11	18.10	12.58	-37.3	-38.2	23.6	0.00e+00	123	41	0	343932928	48	5681
2026-01-22 15:26:52.12	18.06	12.67	-37.4	-38.4	23.5	0.00e+00	121	41	0	347078656	48	5795
2026-01-22 15:26:53.12	18.02	12.77	-37.2	-38.1	23.6	0.00e+00	122	41	0	350224384	48	5647
2026-01-22 15:26:54.13	17.98	12.86	-37.2	-38.1	23.6	0.00e+00	122	41	0	353370112	48	5638
2026-01-22 15:26:55.14	17.94	12.96	-37.3	-38.3	23.5	0.00e+00	120	41	0	356515840	48	5737
2026-01-22 15:26:56.15	17.90	13.06	-37.3	-38.3	23.6	0.00e+00	123	41	0	359661568	48	5750
2026-01-22 15:26:57.16	17.86	13.15	-37.1	-38.1	23.7	0.00e+00	123	41	0	362807296	48	5606
2026-01-22 15:26:58.17	17.82	13.25	-37.1	-38.1	23.8	0.00e+00	121	41	0	365953024	48	5609
2026-01-22 15:26:59.18	17.78	13.35	-37.3	-38.3	23.6	0.00e+00	122	41	0	369098752	48	5740
2026-01-22 15:27:00.19	17.73	13.45	-37.3	-38.2	23.7	0.00e+00	123	41	0	372244480	48	5690
2026-01-22 15:27:01.20	17.69	13.55	-37.2	-38.1	23.7	0.00e+00	123	41	0	375390208	48	5616
2026-01-22 15:27:02.21	17.65	13.65	-37.2	-38.2	23.7	0.00e+00	122	41	0	378535936	48	5677
2026-01-22 15:27:03.22	17.61	13.74	-37.5	-38.4	23.5	0.00e+00	120	41	0	381681664	48	5819
2026-01-22 15:27:04.23	17.56	13.84	-37.5	-38.5	23.4	0.00e+00	122	41	0	384827392	48	5882
2026-01-22 15:27:05.24	17.52	13.94	-37.2	-38.2	23.7	0.00e+00	123	41	0	387973120	48	5660
2026-01-22 15:27:06.25	17.48	14.05	-37.2	-38.1	23.7	0.00e+00	122	41	0	391118848	48	5659
2026-01-22 15:27:07.25	17.43	14.14	-37.4	-38.3	23.6	0.00e+00	123	41	0	394264576	48	5762
2026-01-22 15:27:08.26	17.39	14.25	-37.3	-38.2	23.6	0.00e+00	123	41	0	397410304	48	5692
2026-01-22 15:27:09.27	17.34	14.35	-37.5	-38.4	23.5	0.00e+00	123	41	0	400556032	48	5857
2026-01-22 15:27:10.28	17.30	14.45	-37.7	-38.6	23.4	0.00e+00	122	41	0	403701760	48	5964
2026-01-22 15:27:11.29	17.25	14.55	-37.4	-38.3	23.6	0.00e+00	122	41	0	406847488	48	5790
2026-01-22 15:27:12.30	17.21	14.66	-37.2	-38.2	23.7	0.00e+00	123	41	0	409993216	48	5666
2026-01-22 15:27:13.31	17.16	14.76	-37.4	-38.3	23.6	0.00e+00	123	41	0	413138944	48	5745
2026-01-22 15:27:14.32	17.12	14.86	-37.2	-38.2	23.7	0.00e+00	123	41	0	416284672	48	5660
2026-01-22 15:27:15.33	17.07	14.97	-37.2	-38.2	23.6	0.00e+00	120	41	0	419430400	48	5674
2026-01-22 15:27:16.34	17.02	15.07	-37.4	-38.3	23.6	0.00e+00	122	41	0	422576128	48	5780
2026-01-22 15:27:17.35	16.97	15.18	-37.3	-38.3	23.7	0.00e+00	122	41	0	425721856	48	5739
2026-01-22 15:27:18.36	16.93	15.28	-37.3	-38.2	23.6	0.00e+00	123	41	0	428867584	48	5708
2026-01-22 15:27:19.37	16.88	15.39	-37.4	-38.3	23.6	0.00e+00	120	41	0	432013312	48	5788
2026-01-22 15:27:20.38	16.83	15.49	-37.5	-38.5	23.5	0.00e+00	123	41	0	435159040	48	5876
2026-01-22 15:27:21.39	16.78	15.60	-37.4	-38.4	23.5	0.00e+00	121	41	0	438304768	48	5801
2026-01-22 15:27:22.40	16.73	15.71	-37.5	-38.4	23.5	0.00e+00	120	41	0	441450496	48	5829
2026-01-22 15:27:23.41	16.68	15.82	-37.4	-38.4	23.6	0.00e+00	122	41	0	444596224	48	5801
2026-01-22 15:27:24.42	16.63	15.92	-37.5	-38.5	23.4	0.00e+00	122	41	0	447741952	48	5873
2026-01-22 15:27:25.43	16.58	16.03	-37.6	-38.5	23.4	0.00e+00	120	41	0	450887680	48	5913
2026-01-22 15:27:26.44	16.53	16.14	-37.8	-38.8	23.2	0.00e+00	120	41	0	454033408	48	6068
2026-01-22 15:27:27.45	16.48	16.25	-38.0	-39.0	23.1	0.00e+00	123	41	0	457179136	48	6247
2026-01-22 15:27:28.46	16.43	16.36	-37.8	-38.7	23.3	0.00e+00	120	41	0	460324864	48	6056
2026-01-22 15:27:29.47	16.37	16.47	-37.9	-38.8	23.1	0.00e+00	123	41	0	463470592	48	6129
2026-01-22 15:27:30.47	16.32	16.58	-38.0	-39.0	23.1	0.00e+00	121	41	0	466616320	48	6247
2026-01-22 15:27:31.48	16.27	16.69	-38.0	-39.0	23.0	0.00e+00	123	41	0	469762048	48	6210
2026-01-22 15:27:32.49	16.22	16.81	-37.8	-38.8	23.4	0.00e+00	120	41	0	472907776	48	6093
2026-01-22 15:27:33.50	16.16	16.92	-37.7	-38.7	23.4	0.00e+00	123	41	0	476053504	48	6023
2026-01-22 15:27:34.51	16.11	17.03	-38.0	-39.0	23.3	0.00e+00	120	41	0	479199232	48	6206
2026-01-22 15:27:35.52	16.05	17.14	-38.0	-38.9	23.2	0.00e+00	123	41	0	482344960	48	6180
2026-01-22 15:27:36.53	16.00	17.26	-37.6	-38.6	23.4	0.00e+00	120	41	0	485490688	48	5953
2026-01-22 15:27:37.54	15.94	17.37	-37.5	-38.5	23.6	0.00e+00	122	41	0	488636416	48	5861
2026-01-22 15:27:38.55	15.89	17.49	-37.3	-38.2	23.8	0.00e+00	122	41	0	491782144	48	5707
2026-01-22 15:27:39.56	15.83	17.60	-37.3	-38.3	23.7	0.00e+00	123	41	0	494927872	48	5744
2026-01-22 15:27:40.57	15.77	17.72	-37.4	-38.3	23.6	0.00e+00	123	41	0	498073600	48	5767
2026-01-22 15:27:41.57	15.72	17.83	-37.4	-38.3	23.7	0.00e+00	121	41	0	501219328	48	5772
2026-01-22 15:27:42.58	15.66	17.95	-37.4	-38.4	23.7	0.00e+00	122	41	0	504365056	48	5804
2026-01-22 15:27:43.60	15.60	18.07	-37.5	-38.4	23.6	0.00e+00	125	42	0	507510784	48	5824
2026-01-22 15:27:44.60	15.54	18.19	-37.5	-38.4	23.7	0.00e+00	122	41	0	510656512	48	5849
2026-01-22 15:27:45.61	15.48	18.30	-37.5	-38.4	23.5	0.00e+00	120	41	0	513802240	48	5856
2026-01-22 15:27:46.62	15.42	18.42	-37.6	-38.5	23.5	0.00e+00	123	41	0	516947968	48	5898
2026-01-22 15:27:47.63	15.36	18.54	-38.1	-39.1	23.1	0.00e+00	123	41	0	520093696	48	6282
2026-01-22 15:27:48.65	15.30	18.66	-38.3	-39.2	23.4	0.00e+00	120	41	0	523239424	50	5698
2026-01-22 15:27:49.66	15.24	18.79	-37.8	-38.7	23.4	0.00e+00	123	41	0	526385152	48	6058
2026-01-22 15:27:50.67	15.18	18.91	-37.4	-38.4	23.6	0.00e+00	122	41	0	529530880	48	5803
2026-01-22 15:27:51.68	15.11	19.03	-37.5	-38.5	23.6	0.00e+00	123	41	0	532676608	48	5886
2026-01-22 15:27:52.68	15.05	19.15	-37.4	-38.3	23.6	0.00e+00	122	41	0	535822336	48	5782
2026-01-22 15:27:53.69	14.99	19.27	-37.3	-38.3	23.6	0.00e+00	123	41	0	538968064	48	5727
2026-01-22 15:27:54.70	14.93	19.40	-37.3	-38.3	23.6	0.00e+00	120	41	0	542113792	48	5732
2026-01-22 15:27:55.70	14.86	19.52	-37.4	-38.3	23.5	0.00e+00	123	41	0	545259520	48	5781
2026-01-22 15:27:56.71	14.80	19.64	-37.3	-38.2	23.6	0.00e+00	123	41	0	548405248	48	5709
2026-01-22 15:27:57.72	14.73	19.77	-37.4	-38.3	23.6	0.00e+00	123	41	0	551550976	48	5764
2026-01-22 15:27:58.73	14.66	19.89	-37.5	-38.5	23.4	0.00e+00	122	41	0	554696704	48	5894
2026-01-22 15:27:59.74	14.60	20.02	-37.4	-38.3	23.6	0.00e+00	122	41	0	557842432	48	5786
2026-01-22 15:28:00.75	14.53	20.15	-37.4	-38.4	23.6	0.00e+00	123	41	0	560988160	48	5794
2026-01-22 15:28:01.77	14.46	20.28	-37.1	-38.0	23.8	0.00e+00	122	41	0	564133888	48	5564
2026-01-22 15:28:02.77	14.39	20.40	-37.1	-38.0	23.8	0.00e+00	123	41	0	567279616	48	5575
2026-01-22 15:28:03.78	14.32	20.53	-37.0	-38.0	23.9	0.00e+00	123	41	0	570425344	48	5537
2026-01-22 15:28:04.79	14.25	20.66	-37.1	-38.0	23.9	0.00e+00	123	41	0	573571072	48	5558
2026-01-22 15:28:05.80	14.18	20.79	-36.9	-37.8	24.1	0.00e+00	123	41	0	576716800	48	5427
2026-01-22 15:28:06.81	14.11	20.92	-36.8	-37.8	24.1	0.00e+00	123	41	0	579862528	48	5414
2026-01-22 15:28:07.82	14.04	21.05	-36.9	-37.8	24.1	0.00e+00	122	42	0	583008256	48	5423
2026-01-22 15:28:08.83	13.97	21.19	-36.8	-37.7	24.2	0.00e+00	123	41	0	586153984	46	6024
2026-01-22 15:28:09.84	13.90	21.32	-36.8	-37.7	24.2	0.00e+00	123	41	0	589299712	46	6050
2026-01-22 15:28:10.85	13.82	21.45	-37.0	-37.9	23.9	0.00e+00	120	42	0	592445440	46	6172
2026-01-22 15:28:11.86	13.75	21.59	-36.9	-37.8	24.2	0.00e+00	122	42	0	595591168	46	6093
2026-01-22 15:28:12.87	13.67	21.72	-37.0	-37.9	24.1	0.00e+00	123	41	0	598736896	46	6148
2026-01-22 15:28:13.88	13.60	21.86	-36.6	-37.5	24.4	0.00e+00	120	41	0	601882624	46	5891
2026-01-22 15:28:14.89	13.52	21.99	-36.5	-37.4	24.4	0.00e+00	122	42	0	605028352	46	5854
2026-01-22 15:28:15.90	13.44	22.13	-36.2	-37.1	24.7	0.00e+00	120	41	0	608174080	46	5642
2026-01-22 15:28:16.91	13.36	22.27	-36.3	-37.2	24.7	0.00e+00	123	41	0	611319808	46	5663
2026-01-22 15:28:17.92	13.29	22.40	-36.2	-37.1	24.6	0.00e+00	120	41	0	614465536	46	5643
2026-01-22 15:28:18.93	13.21	22.54	-36.4	-37.3	24.5	0.00e+00	123	41	0	617611264	46	5726
2026-01-22 15:28:19.94	13.13	22.68	-36.4	-37.2	24.5	0.00e+00	123	41	0	620756992	46	5724
2026-01-22 15:28:20.95	13.05	22.82	-36.1	-37.0	24.8	0.00e+00	123	41	0	623902720	46	5534
2026-01-22 15:28:21.96	12.96	22.96	-36.0	-36.9	24.9	0.00e+00	122	42	0	627048448	46	5488
2026-01-22 15:28:22.97	12.88	23.11	-36.0	-36.8	24.8	0.00e+00	120	41	0	630194176	46	5453
2026-01-22 15:28:23.98	12.80	23.25	-36.2	-37.0	24.7	0.00e+00	123	41	0	633339904	46	5579
2026-01-22 15:28:24.98	12.72	23.39	-35.9	-36.8	24.9	0.00e+00	120	42	0	636485632	46	5416
2026-01-22 15:28:25.99	12.63	23.53	-35.9	-36.8	24.9	0.00e+00	122	42	0	639631360	46	5443
2026-01-22 15:28:27.00	12.55	23.68	-36.0	-36.9	24.7	0.00e+00	122	42	0	642777088	46	5468
2026-01-22 15:28:28.01	12.46	23.82	-35.9	-36.8	24.8	0.00e+00	120	41	0	645922816	46	5448
2026-01-22 15:28:29.02	12.37	23.97	-36.0	-36.9	24.8	0.00e+00	122	41	0	649068544	46	5494
2026-01-22 15:28:30.03	12.28	24.11	-36.0	-36.9	24.8	0.00e+00	122	41	0	652214272	46	5470
2026-01-22 15:28:31.04	12.19	24.26	-36.0	-36.9	24.8	0.00e+00	123	41	0	655360000	46	5490
2026-01-22 15:28:32.04	12.11	24.41	-36.0	-36.8	24.9	0.00e+00	123	41	0	658505728	46	5449
2026-01-22 15:28:33.06	12.01	24.56	-36.1	-37.0	24.7	0.00e+00	122	41	0	662700032	46	5554
2026-01-22 15:28:34.07	11.92	24.71	-36.1	-37.0	24.7	0.00e+00	123	42	0	665845760	46	5573
2026-01-22 15:28:35.08	11.83	24.86	-36.3	-37.2	24.7	0.00e+00	120	41	0	667942912	46	5688
2026-01-22 15:28:36.09	11.74	25.01	-36.4	-37.3	24.6	0.00e+00	123	42	0	671088640	46	5742
2026-01-22 15:28:37.10	11.64	25.16	-36.4	-37.3	24.6	0.00e+00	121	42	0	674234368	46	5746
2026-01-22 15:28:38.11	11.55	25.31	-36.5	-37.4	24.6	0.00e+00	122	41	0	678428672	46	5807
2026-01-22 15:28:39.12	11.45	25.47	-36.5	-37.4	24.5	0.00e+00	122	42	0	681574400	46	5821
2026-01-22 15:28:40.13	11.35	25.62	-36.6	-37.5	24.4	0.00e+00	123	42	0	684720128	46	5871
2026-01-22 15:28:41.14	11.25	25.78	-36.6	-37.5	24.2	0.00e+00	123	42	0	687865856	46	5912
2026-01-22 15:28:42.15	11.16	25.93	-36.8	-37.7	24.3	0.00e+00	122	42	0	691011584	46	6024
2026-01-22 15:28:43.16	11.06	26.09	-36.9	-37.8	24.1	0.00e+00	122	42	0	694157312	46	6095
2026-01-22 15:28:44.16	10.95	26.25	-37.0	-37.9	24.0	0.00e+00	123	41	0	697303040	46	6160
2026-01-22 15:28:45.17	10.85	26.41	-37.0	-37.9	24.0	0.00e+00	122	42	0	700448768	46	6193
2026-01-22 15:28:46.18	10.75	26.56	-37.2	-38.1	23.9	0.00e+00	123	42	0	703594496	46	6298
2026-01-22 15:28:47.19	10.64	26.72	-37.2	-38.1	23.9	0.00e+00	122	42	0	706740224	46	6322
2026-01-22 15:28:48.20	10.54	26.89	-37.3	-38.2	23.8	0.00e+00	120	42	0	709885952	46	6374
2026-01-22 15:28:49.21	10.43	27.05	-37.5	-38.4	23.7	0.00e+00	123	42	0	713031680	46	6533
2026-01-22 15:28:50.23	10.32	27.21	-37.6	-38.6	23.6	0.00e+00	123	42	0	716177408	46	6665
2026-01-22 15:28:51.24	10.21	27.37	-37.5	-38.4	23.7	0.00e+00	122	42	0	719323136	46	6559
2026-01-22 15:28:52.25	10.10	27.54	-37.6	-38.6	23.7	0.00e+00	122	42	0	722468864	46	6668
2026-01-22 15:28:53.26	9.99	27.70	-37.5	-38.4	23.7	0.00e+00	123	42	0	725614592	46	6556
2026-01-22 15:28:54.27	9.88	27.87	-37.6	-38.5	23.7	0.00e+00	123	42	0	728760320	46	6608
2026-01-22 15:28:55.28	9.77	28.04	-37.5	-38.4	23.8	0.00e+00	123	42	0	731906048	46	6518
2026-01-22 15:28:56.29	9.65	28.21	-37.5	-38.4	23.8	0.00e+00	123	42	0	735051776	46	6548
2026-01-22 15:28:57.29	9.54	28.37	-37.5	-38.4	23.7	0.00e+00	122	42	0	738197504	46	6566
2026-01-22 15:28:58.30	9.42	28.54	-37.5	-38.4	23.7	0.00e+00	123	42	0	741343232	46	6532
2026-01-22 15:28:59.31	9.30	28.71	-37.6	-38.5	23.6	0.00e+00	123	42	0	744488960	46	6604
2026-01-22 15:29:00.32	9.18	28.88	-37.5	-38.4	23.8	0.00e+00	122	42	0	747634688	48	5810
2026-01-22 15:29:01.33	9.06	29.06	-37.5	-38.4	23.7	0.00e+00	123	42	0	750780416	48	5848
2026-01-22 15:29:02.34	8.94	29.23	-37.4	-38.3	23.7	0.00e+00	123	42	0	753926144	48	5771
2026-01-22 15:29:03.35	8.81	29.40	-37.5	-38.4	23.7	0.00e+00	120	42	0	757071872	48	5852
2026-01-22 15:29:04.36	8.69	29.58	-37.4	-38.3	23.7	0.00e+00	123	42	0	760217600	48	5772
2026-01-22 15:29:05.37	8.56	29.75	-37.3	-38.3	23.8	0.00e+00	122	41	0	763363328	48	5733
2026-01-22 15:29:06.38	8.43	29.93	-37.6	-38.6	23.8	0.00e+00	122	42	0	766509056	48	5934
2026-01-22 15:29:07.39	8.30	30.11	-37.7	-38.6	23.6	0.00e+00	123	42	0	769654784	48	5973
2026-01-22 15:29:08.40	8.17	30.29	-37.5	-38.4	23.8	0.00e+00	123	42	0	772800512	48	5838
2026-01-22 15:29:09.41	8.04	30.47	-37.0	-37.9	24.3	0.00e+00	120	42	0	775946240	48	5511
2026-01-22 15:29:10.42	7.90	30.65	-36.8	-37.7	24.5	0.00e+00	123	42	0	779091968	48	5389
2026-01-22 15:29:11.43	7.77	30.83	-36.7	-37.6	24.5	0.00e+00	123	42	0	782237696	48	5293
2026-01-22 15:29:12.44	7.63	31.01	-36.5	-37.4	24.6	0.00e+00	123	42	0	785383424	46	5818
2026-01-22 15:29:13.45	7.49	31.20	-36.5	-37.3	24.7	0.00e+00	123	42	0	788529152	46	5790
2026-01-22 15:29:14.46	7.35	31.38	-36.5	-37.4	24.6	0.00e+00	122	42	0	791674880	46	5797
2026-01-22 15:29:15.46	7.21	31.56	-36.4	-37.3	24.8	0.00e+00	123	41	0	794820608	46	5771
2026-01-22 15:29:16.47	7.06	31.75	-36.6	-37.4	24.5	0.00e+00	123	42	0	797966336	46	5857
2026-01-22 15:29:17.48	6.92	31.94	-36.6	-37.5	24.5	0.00e+00	123	42	0	801112064	46	5877
2026-01-22 15:29:18.49	6.77	32.13	-36.8	-37.7	24.4	0.00e+00	123	41	0	804257792	46	6047
2026-01-22 15:29:19.50	6.62	32.32	-37.1	-38.0	24.2	0.00e+00	122	41	0	807403520	46	6252
2026-01-22 15:29:20.51	6.47	32.51	-37.1	-38.0	24.1	0.00e+00	120	42	0	810549248	46	6220
2026-01-22 15:29:21.52	6.32	32.70	-37.2	-38.1	24.0	0.00e+00	123	42	0	813694976	46	6327
2026-01-22 15:29:22.53	6.16	32.89	-37.2	-38.1	24.2	0.00e+00	123	42	0	816840704	46	6297
2026-01-22 15:29:23.54	6.00	33.08	-37.2	-38.1	24.1	0.00e+00	123	42	0	819986432	46	6294
2026-01-22 15:29:24.55	5.85	33.28	-37.2	-38.2	24.1	0.00e+00	122	42	0	823132160	46	6352
2026-01-22 15:29:25.56	5.69	33.47	-37.2	-38.1	24.1	0.00e+00	123	42	0	826277888	46	6339
2026-01-22 15:29:26.57	5.52	33.67	-37.2	-38.0	24.2	0.00e+00	123	42	0	829423616	46	6273
2026-01-22 15:29:27.58	5.36	33.87	-37.3	-38.2	24.1	0.00e+00	122	42	0	832569344	46	6400
2026-01-22 15:29:28.59	5.19	34.07	-37.4	-38.3	24.0	0.00e+00	120	42	0	835715072	46	6450
2026-01-22 15:29:29.60	5.02	34.26	-37.5	-38.5	23.9	0.00e+00	122	42	0	838860800	46	6581
2026-01-22 15:29:30.61	4.85	34.46	-37.8	-38.7	23.6	0.00e+00	120	42	0	842006528	48	6054
2026-01-22 15:29:31.62	4.68	34.67	-37.9	-38.9	23.5	0.00e+00	123	42	0	845152256	48	6139
2026-01-22 15:29:32.63	4.50	34.87	-38.3	-39.3	23.2	0.00e+00	123	42	0	848297984	48	6431
2026-01-22 15:29:33.64	4.33	35.07	-38.3	-39.2	23.2	0.00e+00	123	42	0	851443712	48	6405
2026-01-22 15:29:34.65	4.15	35.28	-38.6	-39.6	22.9	0.00e+00	122	42	0	854589440	48	6694
2026-01-22 15:29:35.66	3.96	35.48	-39.1	-40.1	22.6	0.00e+00	122	42	0	857735168	50	6284
2026-01-22 15:29:36.67	3.78	35.69	-39.1	-40.1	22.5	0.00e+00	122	42	0	860880896	50	6328
2026-01-22 15:29:37.68	3.59	35.89	-39.2	-40.2	22.4	0.00e+00	123	42	0	864026624	50	6423
2026-01-22 15:29:38.69	3.40	36.10	-39.6	-40.6	22.0	0.00e+00	123	42	0	867172352	50	6711
2026-01-22 15:29:39.70	3.21	36.31	-39.4	-40.4	22.2	0.00e+00	122	42	0	870318080	50	6562
2026-01-22 15:29:40.71	3.02	36.52	-39.3	-40.3	22.3	0.00e+00	123	42	0	873463808	50	6455
2026-01-22 15:29:41.72	2.82	36.73	-39.3	-40.4	22.5	0.00e+00	120	42	0	876609536	50	6503
2026-01-22 15:29:42.73	2.62	36.95	-39.3	-40.3	22.3	0.00e+00	123	42	0	879755264	50	6484
2026-01-22 15:29:43.74	2.42	37.16	-39.1	-40.1	22.7	0.00e+00	122	42	0	882900992	50	6333
2026-01-22 15:29:44.75	2.21	37.37	-38.9	-39.9	22.6	0.00e+00	122	42	0	886046720	50	6170
2026-01-22 15:29:45.76	2.01	37.59	-39.0	-40.0	22.6	0.00e+00	123	42	0	889192448	50	6235
2026-01-22 15:29:46.77	1.80	37.80	-39.2	-40.3	22.4	0.00e+00	122	42	0	892338176	50	6428
2026-01-22 15:29:47.78	1.58	38.02	-39.2	-40.2	22.4	0.00e+00	123	42	0	895483904	50	6407
2026-01-22 15:29:48.80	1.36	38.24	-39.1	-40.1	22.6	0.00e+00	123	42	0	898629632	50	6290
2026-01-22 15:29:49.80	1.15	38.46	-39.1	-40.1	22.5	0.00e+00	123	42	0	901775360	50	6326
2026-01-22 15:29:50.81	0.93	38.68	-39.2	-40.2	22.4	0.00e+00	123	42	0	904921088	50	6400
2026-01-22 15:29:51.82	0.70	38.90	-39.0	-40.1	22.6	0.00e+00	122	42	0	908066816	50	6283
2026-01-22 15:29:52.83	0.47	39.12	-39.2	-40.2	22.4	0.00e+00	120	42	0	911212544	50	6407
2026-01-22 15:29:53.84	0.24	39.34	-39.3	-40.3	22.4	0.00e+00	123	42	0	914358272	50	6485
2026-01-22 15:29:54.86	0.00	39.57	-39.3	-40.3	22.4	0.00e+00	123	42	0	917504000	50	6477
2026-01-22 15:29:55.86	359.77	39.79	-39.3	-40.3	22.5	0.00e+00	123	42	0	920649728	50	6498
2026-01-22 15:29:56.88	359.52	40.02	-39.1	-40.1	22.6	0.00e+00	122	42	0	923795456	50	6310
2026-01-22 15:29:57.88	359.28	40.24	-38.9	-39.9	22.8	0.00e+00	123	42	0	926941184	50	6170
2026-01-22 15:29:58.89	359.03	40.47	-38.6	-39.6	23.0	0.00e+00	123	42	0	930086912	50	5984
2026-01-22 15:29:59.90	358.78	40.70	-38.4	-39.3	23.2	0.00e+00	123	42	0	933232640	50	5767
2026-01-22 15:30:00.91	358.52	40.92	-38.1	-39.1	23.3	0.00e+00	121	42	0	936378368	50	5601
2026-01-22 15:30:01.92	358.27	41.15	-38.2	-39.1	23.2	0.00e+00	123	42	0	939524096	50	5627
2026-01-22 15:30:02.93	358.00	41.38	-38.5	-39.4	22.8	0.00e+00	123	42	0	942669824	50	5853
2026-01-22 15:30:03.94	357.74	41.61	-38.9	-39.9	22.5	0.00e+00	122	42	0	945815552	50	6156
2026-01-22 15:30:04.95	357.46	41.85	-39.3	-40.3	22.2	0.00e+00	122	42	0	948961280	50	6483
2026-01-22 15:30:05.96	357.19	42.08	-39.5	-40.5	22.2	0.00e+00	121	42	0	952107008	50	6649
2026-01-22 15:30:06.97	356.91	42.31	-39.6	-40.6	22.1	0.00e+00	123	42	0	955252736	50	6687
2026-01-22 15:30:07.98	356.63	42.54	-39.8	-40.8	22.0	0.00e+00	123	42	0	958398464	52	6129
2026-01-22 15:30:08.99	356.34	42.78	-40.1	-41.2	21.7	0.00e+00	123	42	0	961544192	52	6380
2026-01-22 15:30:10.00	356.05	43.01	-40.4	-41.5	21.4	0.00e+00	123	42	0	964689920	52	6616
2026-01-22 15:30:11.01	355.75	43.25	-40.3	-41.4	21.5	0.00e+00	122	42	0	967835648	52	6540
2026-01-22 15:30:12.02	355.45	43.48	-40.4	-41.4	21.4	0.00e+00	123	42	0	970981376	52	6569
2026-01-22 15:30:13.03	355.15	43.72	-40.1	-41.2	21.6	0.00e+00	120	42	0	974127104	52	6372
2026-01-22 15:30:14.04	354.84	43.96	-40.1	-41.2	21.5	0.00e+00	122	42	0	977272832	52	6422
2026-01-22 15:30:15.05	354.53	44.20	-40.3	-41.4	21.5	0.00e+00	122	42	0	980418560	52	6572
2026-01-22 15:30:16.06	354.21	44.43	-40.0	-41.1	21.8	0.00e+00	123	42	0	984612864	52	6310
2026-01-22 15:30:17.07	353.88	44.67	-39.8	-40.9	21.9	0.00e+00	120	42	0	986710016	52	6176
2026-01-22 15:30:18.08	353.56	44.91	-39.9	-41.0	21.9	0.00e+00	122	42	0	989855744	52	6232
2026-01-22 15:30:19.09	353.22	45.15	-39.4	-40.4	22.5	0.00e+00	122	42	0	993001472	52	5821
2026-01-22 15:30:20.10	352.88	45.39	-39.2	-40.2	22.6	0.00e+00	120	42	0	996147200	52	5667
2026-01-22 15:30:21.11	352.54	45.63	-38.9	-39.9	22.8	0.00e+00	122	42	0	1000341504	52	5489
2026-01-22 15:30:22.12	352.19	45.87	-39.0	-40.0	22.6	0.00e+00	123	42	0	1003487232	52	5535
2026-01-22 15:30:23.13	351.83	46.11	-39.1	-40.1	22.5	0.00e+00	123	42	0	1006632960	52	5646
2026-01-22 15:30:24.14	351.47	46.35	-39.2	-40.2	22.6	0.00e+00	122	42	0	1008730112	52	5665
2026-01-22 15:30:25.15	351.11	46.59	-39.2	-40.2	22.4	0.00e+00	123	42	0	1011875840	52	5681
2026-01-22 15:30:26.16	350.74	46.83	-39.0	-40.0	22.5	0.00e+00	123	42	0	1016070144	52	5570
2026-01-22 15:30:27.17	350.36	47.08	-38.9	-39.9	22.5	0.00e+00	123	42	0	1019215872	52	5491
2026-01-22 15:30:28.18	349.98	47.32	-39.2	-40.2	22.3	0.00e+00	123	42	0	1022361600	52	5699
2026-01-22 15:30:29.19	349.59	47.56	-39.2	-40.2	22.2	0.00e+00	122	42	0	1025507328	52	5711
2026-01-22 15:30:30.20	349.19	47.80	-39.3	-40.3	22.1	0.00e+00	122	42	0	1028653056	52	5751
2026-01-22 15:30:31.21	348.79	48.04	-39.3	-40.3	22.2	0.00e+00	123	42	0	1031798784	52	5745
2026-01-22 15:30:32.22	348.38	48.28	-39.2	-40.2	22.3	0.00e+00	122	42	0	1034944512	52	5690
2026-01-22 15:30:33.23	347.97	48.52	-39.3	-40.3	22.2	0.00e+00	122	42	0	1038090240	52	5758
2026-01-22 15:30:34.24	347.55	48.76	-39.5	-40.6	21.8	0.00e+00	123	42	0	1041235968	52	5951
2026-01-22 15:30:35.25	347.12	49.00	-39.8	-40.9	21.5	0.00e+00	123	42	0	1044381696	52	6167
2026-01-22 15:30:36.26	346.68	49.24	-39.8	-40.8	21.7	0.00e+00	123	42	0	1047527424	52	6112
2026-01-22 15:30:37.27	346.24	49.48	-39.6	-40.7	21.8	0.00e+00	122	42	0	1050673152	52	5998
2026-01-22 15:30:38.28	345.79	49.71	-39.5	-40.5	21.9	0.00e+00	123	42	0	1053818880	52	5907
2026-01-22 15:30:39.29	345.34	49.95	-39.6	-40.6	21.9	0.00e+00	123	42	0	1056964608	52	5970
2026-01-22 15:30:40.30	344.88	50.19	-39.1	-40.1	22.3	0.00e+00	123	42	0	1060110336	52	5600
2026-01-22 15:30:41.30	344.41	50.42	-39.1	-40.1	22.2	0.00e+00	120	42	0	1063256064	52	5643
2026-01-22 15:30:42.31	343.93	50.66	-39.4	-40.5	22.3	0.00e+00	122	42	0	1066401792	52	5860
2026-01-22 15:30:43.32	343.45	50.89	-39.5	-40.5	22.3	0.00e+00	123	42	0	1069547520	52	5873
2026-01-22 15:30:44.33	342.96	51.12	-39.3	-40.3	22.4	0.00e+00	122	42	0	1072693248	52	5748
2026-01-22 15:30:45.34	342.46	51.35	-39.4	-40.4	22.2	0.00e+00	123	42	0	1075838976	52	5823
2026-01-22 15:30:46.35	341.95	51.58	-39.3	-40.4	22.2	0.00e+00	120	42	0	1078984704	52	5798
2026-01-22 15:30:47.36	341.43	51.81	-39.2	-40.2	22.5	0.00e+00	123	42	0	1082130432	52	5710
2026-01-22 15:30:48.37	340.91	52.04	-38.5	-39.5	23.1	0.00e+00	120	42	0	1085276160	50	5871
2026-01-22 15:30:49.37	340.38	52.26	-38.6	-39.6	23.1	0.00e+00	123	42	0	1088421888	50	5956
2026-01-22 15:30:50.38	339.84	52.49	-38.9	-39.9	22.8	0.00e+00	120	42	0	1091567616	50	6152
2026-01-22 15:30:51.39	339.29	52.71	-39.0	-40.0	22.6	0.00e+00	122	42	0	1094713344	50	6222
2026-01-22 15:30:52.40	338.74	52.93	-39.3	-40.3	22.3	0.00e+00	120	42	0	1097859072	50	6482
2026-01-22 15:30:53.41	338.17	53.15	-38.6	-39.6	22.8	0.00e+00	123	42	0	1101004800	50	5968
2026-01-22 15:30:54.42	337.60	53.37	-38.1	-39.1	23.3	0.00e+00	123	42	0	1104150528	50	5607
2026-01-22 15:30:55.43	337.01	53.59	-38.0	-39.0	23.3	0.00e+00	120	42	0	1107296256	50	5554
2026-01-22 15:30:56.44	336.42	53.80	-37.9	-38.9	23.0	0.00e+00	123	42	0	1110441984	50	5473
2026-01-22 15:30:57.45	335.82	54.01	-38.1	-39.1	23.0	0.00e+00	121	42	0	1113587712	50	5606
2026-01-22 15:30:58.46	335.21	54.22	-38.4	-39.4	23.1	0.00e+00	123	42	0	1116733440	50	5796
2026-01-22 15:30:59.47	334.59	54.43	-38.6	-39.6	23.0	0.00e+00	123	42	0	1119879168	50	5936
2026-01-22 15:31:00.48	333.97	54.63	-38.7	-39.7	22.9	0.00e+00	122	42	0	1123024896	50	6022
2026-01-22 15:31:01.49	333.33	54.83	-38.5	-39.5	22.9	0.00e+00	123	42	0	1126170624	50	5866
2026-01-22 15:31:02.50	332.68	55.03	-38.4	-39.4	22.7	0.00e+00	123	42	0	1129316352	50	5804
2026-01-22 15:31:03.51	332.03	55.22	-38.4	-39.4	22.7	0.00e+00	123	42	0	1132462080	50	5834
2026-01-22 15:31:04.52	331.37	55.41	-38.1	-39.1	23.3	0.00e+00	122	42	0	1135607808	50	5638
2026-01-22 15:31:05.53	330.69	55.60	-38.1	-39.1	23.3	0.00e+00	123	42	0	1138753536	50	5604
2026-01-22 15:31:06.54	330.01	55.79	-38.1	-39.1	23.3	0.00e+00	123	42	0	1141899264	50	5617
2026-01-22 15:31:07.55	329.32	55.97	-38.3	-39.3	23.3	0.00e+00	122	42	0	1145044992	50	5746
2026-01-22 15:31:08.56	328.62	56.15	-37.6	-38.5	23.9	0.00e+00	122	42	0	1148190720	48	5920
2026-01-22 15:31:09.57	327.91	56.32	-37.7	-38.6	23.8	0.00e+00	120	42	0	1151336448	48	5964
2026-01-22 15:31:10.58	327.20	56.50	-37.3	-38.2	24.1	0.00e+00	123	42	0	1154482176	48	5715
2026-01-22 15:31:11.59	326.47	56.66	-37.4	-38.3	24.0	0.00e+00	122	42	0	1157627904	48	5744
2026-01-22 15:31:12.60	325.73	56.83	-36.7	-37.5	24.6	0.00e+00	123	42	0	1160773632	46	5924
2026-01-22 15:31:13.60	325.00	56.98	-36.5	-37.3	24.7	0.00e+00	123	42	0	1163919360	46	5770
2026-01-22 15:31:14.61	324.25	57.14	-36.4	-37.3	24.5	0.00e+00	123	42	0	1167065088	46	5727
2026-01-22 15:31:15.62	323.48	57.29	-36.6	-37.5	24.6	0.00e+00	123	42	0	1170210816	46	5873
2026-01-22 15:31:16.63	322.72	57.44	-36.7	-37.5	24.5	0.00e+00	122	42	0	1173356544	46	5923
2026-01-22 15:31:17.64	321.94	57.58	-36.7	-37.6	24.1	0.00e+00	122	42	0	1176502272	46	5982
2026-01-22 15:31:18.65	321.15	57.71	-36.5	-37.4	24.4	0.00e+00	123	42	0	1179648000	46	5819
2026-01-22 15:31:19.66	320.36	57.85	-36.4	-37.3	24.5	0.00e+00	122	42	0	1182793728	46	5739
2026-01-22 15:31:20.67	319.56	57.97	-36.5	-37.4	24.5	0.00e+00	123	42	0	1185939456	46	5809
2026-01-22 15:31:21.68	318.75	58.09	-36.6	-37.5	24.5	0.00e+00	123	42	0	1189085184	46	5897
2026-01-22 15:31:22.69	317.93	58.21	-36.9	-37.8	24.2	0.00e+00	123	42	0	1192230912	46	6096
2026-01-22 15:31:23.70	317.11	58.32	-36.7	-37.6	24.5	0.00e+00	122	42	0	1195376640	46	5987
2026-01-22 15:31:24.72	316.27	58.43	-36.8	-37.7	24.4	0.00e+00	120	42	0	1198522368	46	6046
2026-01-22 15:31:25.73	315.43	58.53	-36.8	-37.7	24.3	0.00e+00	123	42	0	1201668096	46	6014
2026-01-22 15:31:26.73	314.60	58.62	-37.1	-38.0	24.2	0.00e+00	122	42	0	1204813824	46	6267
2026-01-22 15:31:27.74	313.75	58.71	-37.4	-38.3	24.0	0.00e+00	122	42	0	1207959552	46	6471
2026-01-22 15:31:28.76	312.89	58.80	-37.2	-38.2	24.2	0.00e+00	120	42	0	1211105280	46	6359
2026-01-22 15:31:29.76	312.04	58.87	-36.9	-37.8	24.2	0.00e+00	123	42	0	1214251008	46	6075
2026-01-22 15:31:30.77	311.17	58.94	-37.0	-37.9	23.8	0.00e+00	122	42	0	1217396736	46	6198
2026-01-22 15:31:31.78	310.30	59.01	-37.3	-38.3	23.6	0.00e+00	122	42	0	1220542464	46	6459
2026-01-22 15:31:32.79	309.43	59.07	-36.8	-37.8	24.2	0.00e+00	122	42	0	1223688192	46	6065
2026-01-22 15:31:33.80	308.55	59.12	-36.8	-37.8	24.0	0.00e+00	123	42	0	1226833920	46	6075
2026-01-22 15:31:34.81	307.67	59.17	-37.0	-38.0	23.7	0.00e+00	122	42	0	1229979648	46	6210
2026-01-22 15:31:35.82	306.79	59.21	-37.1	-38.0	24.0	0.00e+00	122	42	0	1233125376	46	6262
2026-01-22 15:31:36.83	305.91	59.25	-37.1	-38.0	24.2	0.00e+00	123	42	0	1236271104	46	6264
2026-01-22 15:31:37.84	305.02	59.28	-37.0	-38.0	24.2	0.00e+00	123	42	0	1239416832	46	6222
2026-01-22 15:31:38.85	304.13	59.30	-37.2	-38.1	23.9	0.00e+00	122	42	0	1242562560	46	6347
2026-01-22 15:31:39.86	303.24	59.31	-37.2	-38.1	24.2	0.00e+00	122	42	0	1245708288	46	6322
2026-01-22 15:31:40.87	302.34	59.32	-36.7	-37.6	24.6	0.00e+00	122	42	0	1248854016	46	5965
2026-01-22 15:31:41.88	301.45	59.33	-36.6	-37.5	24.6	0.00e+00	123	42	0	1251999744	46	5863
2026-01-22 15:31:42.89	300.56	59.32	-36.3	-37.2	24.7	0.00e+00	123	42	0	1255145472	46	5710
2026-01-22 15:31:43.90	299.67	59.31	-36.4	-37.3	24.6	0.00e+00	122	42	0	1258291200	46	5746
2026-01-22 15:31:44.91	298.78	59.30	-36.0	-36.9	24.9	0.00e+00	123	42	0	1261436928	46	5501
2026-01-22 15:31:45.92	297.89	59.28	-35.9	-36.7	24.8	0.00e+00	123	42	0	1264582656	46	5403
2026-01-22 15:31:46.93	297.00	59.25	-36.0	-36.9	24.6	0.00e+00	122	42	0	1267728384	46	5469
2026-01-22 15:31:47.94	296.11	59.21	-36.1	-37.0	24.6	0.00e+00	123	42	0	1270874112	46	5575
2026-01-22 15:31:48.95	295.23	59.17	-36.5	-37.4	24.6	0.00e+00	123	42	0	1274019840	46	5839
2026-01-22 15:31:49.96	294.35	59.13	-36.5	-37.4	24.6	0.00e+00	123	42	0	1277165568	46	5822
2026-01-22 15:31:50.97	293.47	59.07	-36.8	-37.7	24.3	0.00e+00	123	42	0	1280311296	46	6013
2026-01-22 15:31:51.98	292.60	59.01	-37.2	-38.2	23.9	0.00e+00	122	42	0	1283457024	46	6362
2026-01-22 15:31:52.99	291.73	58.95	-37.3	-38.2	24.0	0.00e+00	123	42	0	1286602752	46	6392
2026-01-22 15:31:54.00	290.86	58.88	-36.7	-37.5	24.6	0.00e+00	123	42	0	1289748480	46	5925
2026-01-22 15:31:55.00	290.01	58.80	-36.7	-37.5	24.5	0.00e+00	122	42	0	1292894208	46	5920
2026-01-22 15:31:56.01	289.16	58.72	-36.4	-37.3	24.5	0.00e+00	123	42	0	1296039936	46	5749
2026-01-22 15:31:57.03	288.30	58.63	-36.7	-37.6	24.4	0.00e+00	122	42	0	1299185664	46	5937
2026-01-22 15:31:58.04	287.45	58.53	-36.8	-37.7	23.9	0.00e+00	123	42	0	1302331392	46	6051
2026-01-22 15:31:59.04	286.62	58.43	-37.1	-38.1	23.8	0.00e+00	123	42	0	1305477120	46	6305
2026-01-22 15:32:00.05	285.79	58.33	-37.3	-38.2	24.0	0.00e+00	123	42	0	1308622848	46	6396
2026-01-22 15:32:01.06	284.97	58.21	-37.3	-38.2	23.9	0.00e+00	123	42	0	1311768576	46	6409
2026-01-22 15:32:02.07	284.15	58.10	-37.2	-38.1	23.9	0.00e+00	123	42	0	1314914304	46	6339
2026-01-22 15:32:03.08	283.34	57.98	-37.0	-37.9	23.8	0.00e+00	123	42	0	1318060032	46	6201
2026-01-22 15:32:04.09	282.54	57.85	-37.2	-38.2	23.9	0.00e+00	123	42	0	1321205760	46	6371
2026-01-22 15:32:05.10	281.75	57.72	-37.4	-38.4	23.8	0.00e+00	123	42	0	1324351488	46	6503
2026-01-22 15:32:06.10	280.97	57.58	-37.4	-38.3	24.1	0.00e+00	123	42	0	1327497216	46	6471
2026-01-22 15:32:07.12	280.18	57.44	-36.8	-37.7	24.4	0.00e+00	123	42	0	1330642944	46	6020
2026-01-22 15:32:08.13	279.41	57.29	-36.7	-37.6	24.6	0.00e+00	123	42	0	1333788672	46	5938
2026-01-22 15:32:09.14	278.65	57.14	-36.8	-37.7	24.4	0.00e+00	122	42	0	1336934400	46	6042
2026-01-22 15:32:10.15	277.89	56.99	-37.2	-38.1	24.1	0.00e+00	123	42	0	1340080128	46	6312
2026-01-22 15:32:11.16	277.15	56.83	-37.4	-38.3	23.8	0.00e+00	123	42	0	1344274432	46	6492
2026-01-22 15:32:12.16	276.42	56.67	-37.6	-38.6	23.7	0.00e+00	123	42	0	1347420160	46	6673
2026-01-22 15:32:13.17	275.69	56.50	-37.5	-38.5	23.8	0.00e+00	122	42	0	1349517312	46	6583
2026-01-22 15:32:14.19	274.97	56.33	-37.4	-38.3	23.7	0.00e+00	120	42	0	1352663040	46	6491
2026-01-22 15:32:15.20	274.26	56.15	-37.2	-38.2	23.9	0.00e+00	122	42	0	1355808768	46	6364
2026-01-22 15:32:16.20	273.56	55.97	-37.2	-38.1	24.3	0.00e+00	122	42	0	1358954496	46	6285
2026-01-22 15:32:17.21	272.87	55.79	-37.6	-38.6	23.8	0.00e+00	123	42	0	1363148800	46	6655
2026-01-22 15:32:18.22	272.19	55.61	-38.2	-39.1	23.4	0.00e+00	123	42	0	1366294528	48	6327
2026-01-22 15:32:19.23	271.51	55.42	-38.1	-39.1	23.5	0.00e+00	122	42	0	1369440256	48	6288
2026-01-22 15:32:20.24	270.85	55.22	-37.4	-38.3	24.1	0.00e+00	122	42	0	1372585984	48	5788
2026-01-22 15:32:21.25	270.19	55.03	-37.2	-38.1	24.1	0.00e+00	123	42	0	1374683136	48	5622
2026-01-22 15:32:22.26	269.55	54.83	-37.0	-37.9	24.4	0.00e+00	122	42	0	1378877440	48	5474
2026-01-22 15:32:23.27	268.91	54.63	-37.1	-37.9	24.3	0.00e+00	123	42	0	1382023168	48	5515
2026-01-22 15:32:24.28	268.28	54.43	-37.7	-38.6	23.7	0.00e+00	123	42	0	1385168896	48	5975
2026-01-22 15:32:25.29	267.66	54.22	-38.5	-39.5	23.0	0.00e+00	122	42	0	1388314624	48	6623
2026-01-22 15:32:26.30	267.05	54.01	-38.9	-39.9	22.4	0.00e+00	122	42	0	1391460352	50	6191
2026-01-22 15:32:27.31	266.45	53.80	-38.9	-39.9	22.4	0.00e+00	120	42	0	1394606080	50	6164
2026-01-22 15:32:28.32	265.86	53.58	-38.4	-39.4	22.9	0.00e+00	123	42	0	1397751808	50	5848
2026-01-22 15:32:29.33	265.27	53.37	-38.8	-39.8	22.8	0.00e+00	123	42	0	1400897536	50	6084
2026-01-22 15:32:30.34	264.70	53.15	-38.9	-40.0	22.4	0.00e+00	123	42	0	1404043264	50	6213
2026-01-22 15:32:31.35	264.13	52.93	-38.8	-39.8	22.5	0.00e+00	120	42	0	1407188992	50	6109
2026-01-22 15:32:32.36	263.57	52.71	-38.9	-39.9	22.7	0.00e+00	122	42	0	1410334720	50	6137
2026-01-22 15:32:33.37	263.02	52.49	-38.5	-39.5	23.1	0.00e+00	123	42	0	1413480448	50	5889
2026-01-22 15:32:34.38	262.48	52.26	-38.6	-39.5	23.0	0.00e+00	123	42	0	1416626176	50	5905
2026-01-22 15:32:35.39	261.95	52.03	-38.2	-39.1	22.9	0.00e+00	122	42	0	1419771904	50	5644
2026-01-22 15:32:36.40	261.42	51.81	-37.9	-38.8	23.3	0.00e+00	120	42	0	1422917632	50	5433
2026-01-22 15:32:37.41	260.90	51.58	-37.7	-38.6	23.8	0.00e+00	123	42	0	1426063360	48	5974
2026-01-22 15:32:38.42	260.39	51.34	-38.6	-39.6	23.0	0.00e+00	123	42	0	1429209088	48	6709
2026-01-22 15:32:39.43	259.89	51.11	-40.1	-41.3	21.7	0.00e+00	120	42	0	1432354816	52	6426
2026-01-22 15:32:40.44	259.40	50.88	-41.2	-42.5	20.4	0.00e+00	122	42	0	1435500544	54	6577
2026-01-22 15:32:41.45	258.91	50.64	-41.0	-42.3	20.0	0.00e+00	123	42	0	1438646272	54	6472
2026-01-22 15:32:42.46	258.43	50.41	-40.3	-41.4	20.9	0.00e+00	122	42	0	1441792000	54	5845
2026-01-22 15:32:43.47	257.96	50.17	-39.7	-40.8	21.7	0.00e+00	123	42	0	1444937728	52	6102
2026-01-22 15:32:44.48	257.50	49.94	-38.9	-40.0	22.3	0.00e+00	120	42	0	1448083456	52	5533
2026-01-22 15:32:45.49	257.04	49.70	-38.8	-39.8	22.7	0.00e+00	123	42	0	1451229184	50	6105
2026-01-22 15:32:46.50	256.59	49.46	-38.9	-39.9	22.7	0.00e+00	120	42	0	1454374912	50	6159
2026-01-22 15:32:47.51	256.15	49.22	-39.3	-40.3	22.2	0.00e+00	122	42	0	1457520640	50	6452
2026-01-22 15:32:48.52	255.72	48.98	-40.7	-41.8	20.7	0.00e+00	121	42	0	1460666368	52	6876
2026-01-22 15:32:49.52	255.29	48.74	-42.0	-43.4	19.7	0.00e+00	122	42	0	1463812096	56	6543
2026-01-22 15:32:50.54	254.87	48.50	-42.0	-43.3	19.9	0.00e+00	120	42	0	1466957824	56	6460
2026-01-22 15:32:51.55	254.45	48.26	-40.8	-42.0	20.6	0.00e+00	122	42	0	1470103552	56	5570
2026-01-22 15:32:52.56	254.04	48.02	-39.9	-41.0	21.6	0.00e+00	123	42	0	1473249280	54	5573
2026-01-22 15:32:53.57	253.64	47.78	-38.2	-39.2	23.4	0.00e+00	122	42	0	1476395008	50	5677
2026-01-22 15:32:54.58	253.24	47.53	-37.9	-38.9	23.6	0.00e+00	123	42	0	1479540736	50	5475
2026-01-22 15:32:55.59	252.85	47.29	-38.3	-39.3	23.2	0.00e+00	123	42	0	1482686464	50	5732
2026-01-22 15:32:56.60	252.47	47.05	-38.9	-39.8	22.7	0.00e+00	123	42	0	1485832192	50	6115
2026-01-22 15:32:57.61	252.09	46.81	-39.8	-40.8	22.0	0.00e+00	122	42	0	1488977920	50	6880
2026-01-22 15:32:58.62	251.72	46.57	-40.6	-41.7	21.3	0.00e+00	122	42	0	1492123648	52	6763
2026-01-22 15:32:59.63	251.35	46.33	-41.2	-42.5	20.3	0.00e+00	123	42	0	1495269376	54	6574
2026-01-22 15:33:00.63	250.99	46.09	-40.8	-42.1	20.3	0.00e+00	122	42	0	1498415104	54	6284
2026-01-22 15:33:01.64	250.64	45.85	-39.6	-40.7	21.5	0.00e+00	123	42	0	1501560832	52	6047
2026-01-22 15:33:02.65	250.29	45.60	-38.9	-39.9	22.5	0.00e+00	122	42	0	1504706560	52	5513
2026-01-22 15:33:03.66	249.94	45.36	-38.6	-39.6	23.0	0.00e+00	123	42	0	1507852288	50	5952
2026-01-22 15:33:04.67	249.60	45.12	-38.8	-39.8	22.8	0.00e+00	123	42	0	1510998016	50	6080
2026-01-22 15:33:05.68	249.27	44.88	-39.0	-40.0	22.6	0.00e+00	122	42	0	1514143744	50	6248
2026-01-22 15:33:06.69	248.94	44.64	-39.5	-40.5	22.4	0.00e+00	122	42	0	1517289472	50	6595
2026-01-22 15:33:07.70	248.62	44.40	-39.4	-40.4	22.2	0.00e+00	123	42	0	1520435200	50	6559
2026-01-22 15:33:08.71	248.30	44.16	-39.6	-40.6	21.9	0.00e+00	123	42	0	1523580928	50	6708
2026-01-22 15:33:09.72	247.98	43.93	-39.8	-40.9	21.7	0.00e+00	122	42	0	1526726656	50	6888
2026-01-22 15:33:10.73	247.67	43.69	-40.1	-41.2	21.5	0.00e+00	123	42	0	1529872384	52	6412
2026-01-22 15:33:11.74	247.37	43.45	-40.1	-41.2	21.6	0.00e+00	121	42	0	1533018112	52	6358
2026-01-22 15:33:12.75	247.06	43.21	-39.7	-40.7	22.2	0.00e+00	122	42	0	1536163840	52	6060
2026-01-22 15:33:13.76	246.77	42.98	-38.8	-39.8	22.8	0.00e+00	123	42	0	1539309568	52	5415
2026-01-22 15:33:14.76	246.48	42.74	-38.7	-39.7	22.9	0.00e+00	122	42	0	1542455296	50	6019
2026-01-22 15:33:15.77	246.19	42.51	-38.8	-39.8	22.8	0.00e+00	123	42	0	1545601024	50	6103
2026-01-22 15:33:16.78	245.91	42.27	-39.7	-40.8	21.9	0.00e+00	120	42	0	1548746752	52	6075
2026-01-22 15:33:17.79	245.63	42.04	-41.0	-42.2	20.7	0.00e+00	122	42	0	1551892480	54	6381
2026-01-22 15:33:18.80	245.35	41.81	-42.1	-43.4	19.7	0.00e+00	120	42	0	1555038208	56	6555
2026-01-22 15:33:19.81	245.08	41.58	-41.7	-43.0	19.7	0.00e+00	122	42	0	1558183936	56	6275
2026-01-22 15:33:20.82	244.81	41.34	-41.2	-42.5	20.1	0.00e+00	120	42	0	1561329664	56	5875
2026-01-22 15:33:21.83	244.55	41.11	-40.4	-41.6	20.9	0.00e+00	123	42	0	1564475392	54	5932
2026-01-22 15:33:22.84	244.29	40.88	-39.3	-40.4	22.1	0.00e+00	122	42	0	1567621120	52	5796
2026-01-22 15:33:23.85	244.03	40.65	-39.4	-40.4	22.2	0.00e+00	123	42	0	1570766848	52	5829
2026-01-22 15:33:24.86	243.78	40.42	-39.7	-40.8	22.0	0.00e+00	122	42	0	1573912576	52	6098
2026-01-22 15:33:25.87	243.53	40.20	-40.0	-41.1	21.8	0.00e+00	121	42	0	1577058304	52	6313
2026-01-22 15:33:26.88	243.29	39.97	-40.2	-41.3	21.7	0.00e+00	122	42	0	1580204032	52	6456
2026-01-22 15:33:27.89	243.04	39.74	-40.2	-41.3	21.8	0.00e+00	121	42	0	1583349760	52	6486
2026-01-22 15:33:28.90	242.80	39.52	-39.8	-40.9	22.0	0.00e+00	123	42	0	1586495488	52	6145
2026-01-22 15:33:29.91	242.57	39.30	-39.9	-41.0	21.9	0.00e+00	123	42	0	1589641216	52	6233
2026-01-22 15:33:30.92	242.34	39.07	-40.2	-41.3	21.7	0.00e+00	120	42	0	1592786944	52	6429
2026-01-22 15:33:31.93	242.11	38.85	-40.4	-41.5	21.5	0.00e+00	122	42	0	1595932672	52	6597
2026-01-22 15:33:32.94	241.88	38.63	-40.1	-41.3	21.4	0.00e+00	123	42	0	1599078400	52	6436
2026-01-22 15:33:33.95	241.66	38.41	-40.1	-41.2	21.2	0.00e+00	121	42	0	1602224128	52	6378
2026-01-22 15:33:34.96	241.44	38.19	-39.0	-40.0	22.1	0.00e+00	123	42	0	1605369856	52	5548
2026-01-22 15:33:35.97	241.22	37.97	-38.9	-39.9	22.4	0.00e+00	123	42	0	1608515584	50	6144
2026-01-22 15:33:36.98	241.01	37.75	-38.7	-39.6	22.8	0.00e+00	123	42	0	1611661312	50	5974
2026-01-22 15:33:37.99	240.80	37.53	-38.6	-39.6	23.0	0.00e+00	123	42	0	1614807040	50	5939
2026-01-22 15:33:39.00	240.59	37.32	-38.8	-39.8	23.0	0.00e+00	120	42	0	1617952768	50	6068
2026-01-22 15:33:40.01	240.38	37.10	-39.1	-40.1	22.7	0.00e+00	123	42	0	1621098496	50	6328
2026-01-22 15:33:41.02	240.18	36.89	-39.3	-40.3	22.4	0.00e+00	123	42	0	1624244224	50	6452
2026-01-22 15:33:42.03	239.98	36.68	-39.3	-40.3	22.4	0.00e+00	123	42	0	1627389952	50	6496
2026-01-22 15:33:43.04	239.78	36.47	-39.3	-40.3	22.4	0.00e+00	120	42	0	1630535680	50	6475
2026-01-22 15:33:44.05	239.59	36.25	-39.0	-40.0	22.7	0.00e+00	122	42	0	1633681408	50	6265
2026-01-22 15:33:45.06	239.40	36.04	-38.7	-39.7	23.0	0.00e+00	123	42	0	1636827136	50	6010
2026-01-22 15:33:46.07	239.21	35.84	-38.4	-39.4	23.1	0.00e+00	122	42	0	1639972864	50	5797
2026-01-22 15:33:47.08	239.02	35.63	-38.3	-39.3	23.2	0.00e+00	123	42	0	1643118592	50	5751
2026-01-22 15:33:48.09	238.83	35.42	-38.3	-39.2	23.3	0.00e+00	123	42	0	1646264320	50	5705
2026-01-22 15:33:49.11	238.65	35.21	-38.1	-39.0	23.5	0.00e+00	123	42	0	1649410048	50	5566
2026-01-22 15:33:50.12	238.47	35.01	-38.0	-39.0	23.5	0.00e+00	123	42	0	1652555776	50	5532
2026-01-22 15:33:51.13	238.29	34.80	-37.6	-38.6	23.9	0.00e+00	123	42	0	1655701504	48	5930
2026-01-22 15:33:52.14	238.11	34.60	-37.7	-38.6	23.8	0.00e+00	122	42	0	1658847232	48	5972
2026-01-22 15:33:53.15	237.94	34.40	-37.5	-38.4	23.8	0.00e+00	122	42	0	1661992960	48	5849
2026-01-22 15:33:54.16	237.77	34.20	-37.5	-38.4	23.7	0.00e+00	123	42	0	1665138688	48	5822
2026-01-22 15:33:55.17	237.60	34.00	-37.5	-38.4	23.7	0.00e+00	123	42	0	1668284416	48	5848
2026-01-22 15:33:56.18	237.43	33.80	-37.8	-38.7	23.5	0.00e+00	122	42	0	1671430144	48	6034
2026-01-22 15:33:57.19	237.27	33.60	-37.8	-38.7	23.5	0.00e+00	121	42	0	1674575872	48	6055
2026-01-22 15:33:58.20	237.11	33.40	-37.7	-38.7	23.6	0.00e+00	123	42	0	1677721600	48	6014
2026-01-22 15:33:59.21	236.94	33.21	-37.7	-38.6	23.7	0.00e+00	122	42	0	1681915904	48	5986
2026-01-22 15:34:00.22	236.78	33.01	-37.5	-38.4	23.8	0.00e+00	123	42	0	1685061632	48	5804
2026-01-22 15:34:01.23	236.63	32.82	-37.1	-38.0	24.0	0.00e+00	120	42	0	1687158784	48	5594
2026-01-22 15:34:02.24	236.47	32.63	-37.0	-37.9	24.0	0.00e+00	123	42	0	1690304512	48	5512
2026-01-22 15:34:03.24	236.32	32.44	-37.0	-37.9	24.0	0.00e+00	123	42	0	1693450240	48	5505
2026-01-22 15:34:04.25	236.17	32.24	-37.1	-38.1	24.1	0.00e+00	120	42	0	1696595968	48	5598
2026-01-22 15:34:05.26	236.02	32.05	-37.2	-38.1	24.1	0.00e+00	120	42	0	1700790272	48	5624
2026-01-22 15:34:06.27	235.87	31.87	-37.4	-38.3	24.0	0.00e+00	123	42	0	1703936000	48	5735
2026-01-22 15:34:07.28	235.72	31.68	-37.5	-38.4	24.0	0.00e+00	121	42	0	1707081728	48	5816
2026-01-22 15:34:08.29	235.58	31.49	-37.6	-38.6	23.9	0.00e+00	123	42	0	1710227456	48	5941
2026-01-22 15:34:09.30	235.44	31.30	-37.6	-38.6	23.9	0.00e+00	121	42	0	1712324608	48	5931
2026-01-22 15:34:10.31	235.30	31.12	-37.7	-38.6	23.8	0.00e+00	123	42	0	1716518912	48	5962
2026-01-22 15:34:11.32	235.16	30.93	-37.4	-38.3	24.0	0.00e+00	123	42	0	1719664640	48	5789
2026-01-22 15:34:12.33	235.02	30.75	-37.5	-38.4	24.0	0.00e+00	120	42	0	1722810368	48	5829
2026-01-22 15:34:13.34	234.88	30.57	-37.4	-38.4	24.0	0.00e+00	122	42	0	1725956096	48	5801
2026-01-22 15:34:14.34	234.75	30.39	-37.3	-38.3	23.8	0.00e+00	123	42	0	1729101824	48	5734
2026-01-22 15:34:15.35	234.61	30.21	-37.4	-38.4	23.7	0.00e+00	120	42	0	1732247552	48	5807
2026-01-22 15:34:16.36	234.48	30.03	-37.6	-38.6	23.5	0.00e+00	122	42	0	1735393280	48	5933
2026-01-22 15:34:17.37	234.35	29.85	-37.6	-38.5	23.4	0.00e+00	123	42	0	1738539008	48	5914
2026-01-22 15:34:18.38	234.22	29.67	-37.6	-38.5	23.3	0.00e+00	123	42	0	1741684736	48	5911
2026-01-22 15:34:19.39	234.09	29.50	-37.7	-38.7	23.1	0.00e+00	123	42	0	1744830464	48	6013
2026-01-22 15:34:20.40	233.97	29.32	-37.4	-38.4	23.5	0.00e+00	122	42	0	1747976192	48	5820
2026-01-22 15:34:21.41	233.84	29.15	-37.4	-38.3	23.6	0.00e+00	123	42	0	1751121920	48	5772
2026-01-22 15:34:22.42	233.72	28.97	-37.3	-38.2	23.8	0.00e+00	123	42	0	1754267648	48	5697
2026-01-22 15:34:23.42	233.60	28.80	-37.3	-38.2	23.9	0.00e+00	123	42	0	1757413376	48	5714
2026-01-22 15:34:24.43	233.48	28.63	-37.3	-38.3	23.9	0.00e+00	122	42	0	1760559104	48	5751
2026-01-22 15:34:25.44	233.36	28.46	-37.1	-38.0	24.1	0.00e+00	122	42	0	1763704832	48	5585
2026-01-22 15:34:26.45	233.24	28.29	-37.3	-38.2	24.0	0.00e+00	123	42	0	1766850560	48	5696
2026-01-22 15:34:27.46	233.12	28.12	-37.1	-38.0	24.2	0.00e+00	120	42	0	1769996288	48	5560
2026-01-22 15:34:28.47	233.01	27.95	-37.0	-37.9	24.4	0.00e+00	123	42	0	1773142016	48	5483
2026-01-22 15:34:29.48	232.90	27.78	-37.0	-37.9	24.3	0.00e+00	120	42	0	1776287744	48	5486
2026-01-22 15:34:30.49	232.78	27.62	-36.9	-37.8	24.3	0.00e+00	123	42	0	1779433472	48	5441
2026-01-22 15:34:31.50	232.67	27.45	-36.7	-37.6	24.5	0.00e+00	122	42	0	1782579200	46	5964
2026-01-22 15:34:32.51	232.56	27.29	-36.8	-37.7	24.3	0.00e+00	122	42	0	1785724928	46	6022
2026-01-22 15:34:33.52	232.45	27.12	-36.6	-37.5	24.5	0.00e+00	120	42	0	1788870656	46	5873
2026-01-22 15:34:34.53	232.34	26.96	-36.6	-37.5	24.5	0.00e+00	122	42	0	1792016384	46	5888
2026-01-22 15:34:35.54	232.23	26.80	-36.7	-37.6	24.5	0.00e+00	120	42	0	1795162112	46	5964
2026-01-22 15:34:36.55	232.13	26.63	-36.6	-37.5	24.4	0.00e+00	123	42	0	1798307840	46	5883
2026-01-22 15:34:37.56	232.02	26.47	-36.6	-37.5	24.5	0.00e+00	120	42	0	1801453568	46	5911
2026-01-22 15:34:38.57	231.92	26.31	-36.6	-37.5	24.5	0.00e+00	123	42	0	1804599296	46	5890
2026-01-22 15:34:39.58	231.82	26.15	-36.7	-37.6	24.5	0.00e+00	123	42	0	1807745024	46	5949
2026-01-22 15:34:40.59	231.71	26.00	-36.8	-37.7	24.4	0.00e+00	122	42	0	1810890752	46	6029
2026-01-22 15:34:41.60	231.61	25.84	-36.9	-37.8	24.4	0.00e+00	125	42	0	1814036480	46	6066
2026-01-22 15:34:42.61	231.51	25.68	-37.0	-37.9	24.3	0.00e+00	123	42	0	1817182208	46	6189
2026-01-22 15:34:43.62	231.41	25.53	-37.1	-38.0	24.3	0.00e+00	123	42	0	1820327936	46	6224
2026-01-22 15:34:44.63	231.32	25.37	-37.1	-38.0	24.2	0.00e+00	122	42	0	1823473664	46	6234
2026-01-22 15:34:45.64	231.22	25.22	-37.0	-37.9	24.3	0.00e+00	122	42	0	1826619392	46	6191
2026-01-22 15:34:46.65	231.12	25.07	-37.2	-38.1	24.2	0.00e+00	121	42	0	1829765120	46	6278
2026-01-22 15:34:47.66	231.03	24.91	-36.9	-37.8	24.3	0.00e+00	120	42	0	1832910848	46	6113
2026-01-22 15:34:48.66	230.94	24.76	-36.8	-37.7	24.4	0.00e+00	122	42	0	1836056576	46	5995
2026-01-22 15:34:49.67	230.84	24.61	-36.7	-37.6	24.3	0.00e+00	122	42	0	1839202304	46	5991
2026-01-22 15:34:50.68	230.75	24.46	-36.8	-37.7	24.3	0.00e+00	122	42	0	1842348032	46	6038
2026-01-22 15:34:51.69	230.66	24.31	-36.8	-37.7	24.3	0.00e+00	123	42	0	1845493760	46	6000
2026-01-22 15:34:52.70	230.57	24.16	-36.7	-37.6	24.3	0.00e+00	122	42	0	1848639488	46	5980
2026-01-22 15:34:53.71	230.48	24.02	-36.6	-37.5	24.4	0.00e+00	123	42	0	1851785216	46	5908
2026-01-22 15:34:54.72	230.39	23.87	-36.8	-37.7	24.3	0.00e+00	123	42	0	1854930944	46	6008
2026-01-22 15:34:55.73	230.30	23.72	-36.7	-37.6	24.3	0.00e+00	123	42	0	1858076672	46	5932
2026-01-22 15:34:56.74	230.22	23.58	-36.5	-37.4	24.5	0.00e+00	123	42	0	1861222400	46	5815
2026-01-22 15:34:57.75	230.13	23.43	-36.4	-37.3	24.5	0.00e+00	122	42	0	1864368128	46	5751
2026-01-22 15:34:58.76	230.05	23.29	-36.4	-37.3	24.5	0.00e+00	122	42	0	1867513856	46	5765
2026-01-22 15:34:59.77	229.96	23.14	-36.8	-37.7	24.3	0.00e+00	123	42	0	1870659584	46	6015
2026-01-22 15:35:00.77	229.88	23.00	-37.0	-37.8	24.1	0.00e+00	123	42	0	1873805312	46	6134
2026-01-22 15:35:01.78	229.79	22.86	-36.9	-37.8	24.2	0.00e+00	123	42	0	1876951040	46	6081
2026-01-22 15:35:02.79	229.71	22.72	-36.9	-37.8	24.2	0.00e+00	120	42	0	1880096768	46	6105
2026-01-22 15:35:03.80	229.63	22.58	-36.8	-37.7	24.3	0.00e+00	127	42	0	1883242496	46	6008
2026-01-22 15:35:04.81	229.55	22.44	-36.9	-37.8	24.3	0.00e+00	123	42	0	1886388224	46	6086
2026-01-22 15:35:05.82	229.47	22.30	-36.9	-37.7	24.3	0.00e+00	123	42	0	1889533952	46	6060
2026-01-22 15:35:06.83	229.39	22.16	-36.9	-37.9	24.3	0.00e+00	123	42	0	1892679680	46	6139
2026-01-22 15:35:07.84	229.31	22.02	-36.9	-37.8	24.2	0.00e+00	123	42	0	1895825408	46	6074
2026-01-22 15:35:08.85	229.24	21.89	-36.9	-37.8	24.3	0.00e+00	123	42	0	1898971136	46	6109
2026-01-22 15:35:09.86	229.16	21.75	-37.0	-37.9	24.1	0.00e+00	123	42	0	1902116864	46	6178
2026-01-22 15:35:10.87	229.08	21.62	-36.9	-37.8	24.3	0.00e+00	123	42	0	1905262592	46	6124
2026-01-22 15:35:11.88	229.01	21.48	-37.0	-37.9	24.3	0.00e+00	122	42	0	1908408320	46	6145
2026-01-22 15:35:12.89	228.93	21.35	-36.9	-37.8	24.4	0.00e+00	123	42	0	1911554048	46	6114
2026-01-22 15:35:13.90	228.86	21.21	-36.9	-37.8	24.3	0.00e+00	123	42	0	1914699776	46	6132
2026-01-22 15:35:14.91	228.78	21.08	-36.9	-37.8	24.4	0.00e+00	123	42	0	1917845504	46	6076
2026-01-22 15:35:15.92	228.71	20.95	-36.8	-37.7	24.4	0.00e+00	122	42	0	1920991232	46	6000
2026-01-22 15:35:16.92	228.64	20.82	-37.0	-37.9	24.2	0.00e+00	123	42	0	1924136960	46	6186
2026-01-22 15:35:17.93	228.57	20.68	-36.8	-37.7	24.3	0.00e+00	123	42	0	1927282688	46	6042
2026-01-22 15:35:18.94	228.50	20.55	-36.8	-37.7	24.4	0.00e+00	123	42	0	1930428416	46	6032
2026-01-22 15:35:19.95	228.43	20.42	-36.8	-37.7	24.4	0.00e+00	121	42	0	1933574144	46	6022
2026-01-22 15:35:20.96	228.36	20.29	-36.8	-37.7	24.4	0.00e+00	123	42	0	1936719872	46	6009
2026-01-22 15:35:21.97	228.29	20.17	-36.8	-37.7	24.4	0.00e+00	122	42	0	1939865600	46	6030
2026-01-22 15:35:22.98	228.22	20.04	-36.8	-37.7	24.3	0.00e+00	123	42	0	1943011328	46	6036
