passes_logs/2026/01/22/R4.6S_Anadyr/R4.6S_Anadyr__20260122_165125_FENGYUN_3D_rec.log

#Pass ID: 20260122_165125_FENGYUN 3D
#Satellite: FENGYUN 3D
#Configuration: FENGYUN 3D
#almurnet v.1.7.20251203
#Start time: 2026-01-22 16:51:26

#Version: 2.2.20231116
#Station: R4.6S_Anadyr
#Location: 177.4865 lon 64.73178 lat
#TLE: 1 43010U 17072A   26021.48744220  .00000253  00000+0  14133-3 0  9991
#TLE: 2 43010  98.9948 353.4037 0002485  97.2578 262.8880 14.19697766424177

#Time	Az	El	Level	Level2	SNR	BER	BlckErr	Temp	State	Recorded	gain1	gain2
2026-01-22 16:51:26.82	21.13	0.05	-51.3	-66.3	3.5	1.51e+00	0	38	0	0	60	74417
2026-01-22 16:51:27.83	21.13	0.11	-52.6	-64.8	3.6	8.46e-01	0	39	104	0	60	62516
2026-01-22 16:51:28.84	21.14	0.17	-52.2	-64.4	3.6	8.45e-01	0	39	104	0	60	60068
2026-01-22 16:51:29.85	21.14	0.23	-51.9	-64.2	3.6	8.45e-01	0	39	104	0	60	58301
2026-01-22 16:51:30.86	21.14	0.30	-52.2	-64.4	3.6	8.45e-01	0	40	104	0	60	59815
2026-01-22 16:51:31.87	21.15	0.36	-52.0	-64.1	3.6	8.45e-01	0	40	104	0	60	58130
2026-01-22 16:51:32.88	21.15	0.42	-51.8	-64.0	3.6	8.45e-01	0	40	104	0	60	57000
2026-01-22 16:51:33.89	21.16	0.48	-51.7	-63.8	3.6	8.44e-01	0	40	104	0	60	55929
2026-01-22 16:51:34.90	21.16	0.54	-51.8	-64.0	3.6	8.45e-01	0	40	104	0	60	57226
2026-01-22 16:51:35.91	21.16	0.60	-51.7	-63.9	3.6	8.44e-01	0	40	104	0	60	56442
2026-01-22 16:51:36.92	21.17	0.66	-51.4	-63.6	3.6	8.45e-01	0	40	104	0	60	54607
2026-01-22 16:51:37.93	21.17	0.72	-51.3	-63.5	3.6	8.46e-01	0	40	104	0	60	54098
2026-01-22 16:51:38.94	21.18	0.79	-51.3	-63.4	3.6	8.44e-01	0	40	104	0	60	53631
2026-01-22 16:51:39.95	21.18	0.85	-51.2	-63.4	3.6	8.45e-01	0	40	104	0	60	53341
2026-01-22 16:51:40.96	21.18	0.91	-51.2	-63.4	3.6	8.45e-01	0	40	104	0	60	53303
2026-01-22 16:51:41.98	21.19	0.97	-51.2	-63.3	3.6	8.46e-01	0	40	104	0	60	52937
2026-01-22 16:51:42.99	21.19	1.03	-51.1	-63.2	3.6	8.46e-01	0	40	104	0	60	52464
2026-01-22 16:51:44.00	21.19	1.10	-50.9	-63.1	3.6	8.45e-01	0	40	104	0	60	51460
2026-01-22 16:51:45.01	21.20	1.16	-50.9	-63.1	3.6	8.46e-01	0	40	104	0	60	51399
2026-01-22 16:51:46.02	21.20	1.22	-50.8	-62.9	3.6	8.45e-01	0	40	104	0	60	50306
2026-01-22 16:51:47.03	21.21	1.28	-50.5	-62.7	3.6	8.45e-01	0	40	104	0	60	49114
2026-01-22 16:51:48.04	21.21	1.35	-50.5	-62.7	3.6	8.46e-01	0	40	104	0	60	49084
2026-01-22 16:51:49.05	21.21	1.41	-50.4	-62.5	3.6	8.46e-01	0	40	104	0	60	48287
2026-01-22 16:51:50.06	21.22	1.47	-50.2	-62.4	3.6	8.44e-01	0	40	104	0	60	47388
2026-01-22 16:51:51.07	21.22	1.54	-50.0	-62.2	3.6	8.45e-01	0	40	104	0	60	46306
2026-01-22 16:51:52.08	21.23	1.60	-49.7	-61.1	3.6	8.45e-01	0	40	104	0	60	40886
2026-01-22 16:51:53.09	21.23	1.66	-49.7	-61.0	3.6	8.46e-01	0	40	104	0	60	40634
2026-01-22 16:51:54.10	21.23	1.73	-49.8	-61.5	3.6	8.46e-01	0	40	104	0	60	42859
2026-01-22 16:51:55.10	21.24	1.79	-49.7	-61.5	3.6	8.45e-01	0	40	104	0	60	43097
2026-01-22 16:51:56.11	21.24	1.86	-49.7	-61.8	3.6	8.46e-01	0	40	104	0	60	44314
2026-01-22 16:51:57.12	21.25	1.92	-49.7	-61.8	3.6	8.45e-01	0	40	104	0	60	44595
2026-01-22 16:51:58.13	21.25	1.98	-49.7	-61.8	3.6	8.45e-01	0	40	104	0	60	44703
2026-01-22 16:51:59.14	21.25	2.05	-49.7	-61.8	3.6	8.45e-01	0	40	104	0	60	44497
2026-01-22 16:52:00.15	21.26	2.11	-49.7	-61.7	3.6	8.45e-01	0	40	104	0	60	44151
2026-01-22 16:52:01.17	21.26	2.18	-49.7	-61.6	3.6	8.45e-01	0	40	104	0	60	43585
2026-01-22 16:52:02.18	21.26	2.24	-49.6	-61.5	3.6	8.46e-01	0	40	104	0	60	42967
2026-01-22 16:52:03.19	21.27	2.31	-49.6	-61.1	3.6	8.45e-01	0	40	104	0	60	40924
2026-01-22 16:52:04.20	21.27	2.37	-49.6	-60.9	3.6	8.44e-01	0	40	104	0	60	39936
2026-01-22 16:52:05.20	21.28	2.44	-49.6	-60.5	3.6	8.46e-01	0	40	104	0	60	38372
2026-01-22 16:52:06.21	21.28	2.50	-49.5	-59.3	3.7	8.44e-01	0	40	104	0	60	33458
2026-01-22 16:52:07.23	21.28	2.57	-49.5	-59.4	3.7	8.42e-01	0	40	104	0	60	33549
2026-01-22 16:52:08.23	21.29	2.63	-49.5	-59.3	3.7	8.43e-01	0	40	104	0	60	33194
2026-01-22 16:52:09.25	21.29	2.70	-49.5	-59.5	3.6	8.45e-01	0	40	104	0	60	34064
2026-01-22 16:52:10.26	21.29	2.77	-49.5	-60.0	3.6	8.44e-01	0	40	104	0	60	35965
2026-01-22 16:52:11.27	21.30	2.83	-49.5	-60.2	3.6	8.45e-01	0	40	104	0	60	36899
2026-01-22 16:52:12.28	21.30	2.90	-49.5	-60.0	3.6	8.46e-01	0	40	104	0	60	35948
2026-01-22 16:52:13.29	21.31	2.97	-49.3	-58.3	4.0	8.42e-01	0	40	104	0	60	29718
2026-01-22 16:52:14.30	21.31	3.03	-49.0	-55.2	4.9	7.86e-01	0	40	0	0	60	20685
2026-01-22 16:52:15.31	21.31	3.10	-48.5	-53.5	6.7	3.36e-01	0	40	0	4194304	60	17013
2026-01-22 16:52:16.32	21.32	3.17	-47.6	-51.3	8.9	4.80e-02	0	40	0	9437184	60	13348
2026-01-22 16:52:17.33	21.32	3.24	-47.6	-51.3	8.8	5.11e-02	0	40	0	14680064	60	13270
2026-01-22 16:52:18.34	21.33	3.30	-47.0	-50.2	10.2	1.00e-02	0	40	0	20971520	60	11683
2026-01-22 16:52:19.35	21.33	3.37	-46.5	-49.4	11.0	5.93e-03	0	40	0	26214400	60	10693
2026-01-22 16:52:20.36	21.33	3.44	-46.3	-48.9	11.5	6.11e-04	0	40	0	32505856	60	10100
2026-01-22 16:52:21.37	21.34	3.51	-46.9	-50.0	10.2	1.42e-03	0	40	0	37748736	60	11496
2026-01-22 16:52:22.38	21.34	3.57	-47.2	-50.5	10.0	2.71e-02	0	40	0	44040192	60	12146
2026-01-22 16:52:23.39	21.34	3.64	-46.9	-50.1	10.2	3.20e-03	0	40	0	49283072	60	11501
2026-01-22 16:52:24.40	21.35	3.71	-47.8	-51.8	8.5	3.51e-02	0	40	0	55574528	60	14029
2026-01-22 16:52:25.41	21.35	3.78	-47.3	-50.6	10.3	1.24e-01	0	40	0	60817408	60	12200
2026-01-22 16:52:26.42	21.36	3.85	-43.3	-44.8	15.7	0.00e+00	0	40	0	66060288	60	6299
2026-01-22 16:52:27.43	21.36	3.92	-45.8	-48.1	12.8	3.96e-02	0	40	0	72351744	60	9152
2026-01-22 16:52:28.44	21.36	3.99	-49.6	-61.1	3.6	8.45e-01	0	40	104	73400320	60	40896
2026-01-22 16:52:29.45	21.37	4.06	-43.6	-45.2	12.6	0.00e+00	0	40	104	73400320	56	8314
2026-01-22 16:52:30.46	21.37	4.12	-49.7	-60.4	3.8	8.43e-01	0	40	104	73400320	60	37970
2026-01-22 16:52:31.47	21.37	4.19	-41.7	-42.9	17.8	0.00e+00	0	40	0	76546048	56	6328
2026-01-22 16:52:32.48	21.38	4.26	-41.7	-42.9	17.6	0.00e+00	0	40	0	82837504	54	7135
2026-01-22 16:52:33.49	21.38	4.33	-42.2	-43.4	17.8	0.00e+00	0	40	0	88080384	56	6725
2026-01-22 16:52:34.50	21.39	4.40	-42.1	-43.3	17.8	0.00e+00	0	40	0	94371840	56	6626
2026-01-22 16:52:35.50	21.39	4.47	-42.0	-43.2	18.1	0.00e+00	0	40	0	99614720	56	6588
2026-01-22 16:52:36.51	21.39	4.54	-41.9	-43.0	18.1	0.00e+00	0	40	0	104857600	56	6435
2026-01-22 16:52:37.52	21.40	4.62	-41.3	-42.4	18.3	0.00e+00	0	40	0	111149056	56	6000
2026-01-22 16:52:38.53	21.40	4.69	-41.7	-42.8	18.9	0.00e+00	0	40	0	116391936	56	6271
2026-01-22 16:52:39.54	21.40	4.76	-41.5	-42.6	18.7	0.00e+00	0	40	0	122683392	56	6140
2026-01-22 16:52:40.55	21.41	4.83	-40.0	-41.0	20.1	0.00e+00	0	40	0	127926272	54	5702
2026-01-22 16:52:41.56	21.41	4.90	-40.3	-41.3	19.7	0.00e+00	0	40	0	134217728	52	6645
2026-01-22 16:52:42.57	21.41	4.97	-39.9	-40.8	20.4	0.00e+00	0	40	0	139460608	52	6269
2026-01-22 16:52:43.58	21.42	5.04	-38.6	-39.5	21.6	0.00e+00	0	40	0	144703488	52	5386
2026-01-22 16:52:44.59	21.42	5.12	-38.6	-39.5	21.5	0.00e+00	0	40	0	150994944	50	6061
2026-01-22 16:52:45.60	21.43	5.19	-38.7	-39.6	21.4	0.00e+00	0	40	0	156237824	50	6118
2026-01-22 16:52:46.61	21.43	5.26	-38.5	-39.3	21.8	0.00e+00	0	41	0	162529280	50	5937
2026-01-22 16:52:47.62	21.43	5.33	-38.0	-38.8	22.2	0.00e+00	0	40	0	167772160	50	5603
2026-01-22 16:52:48.62	21.44	5.41	-37.9	-38.6	22.5	0.00e+00	0	40	0	173015040	50	5495
2026-01-22 16:52:49.64	21.44	5.48	-38.2	-39.0	22.0	0.00e+00	0	40	0	179306496	50	5724
2026-01-22 16:52:50.65	21.44	5.55	-37.9	-38.7	22.5	0.00e+00	0	40	0	184549376	50	5515
2026-01-22 16:52:51.66	21.45	5.63	-37.9	-38.7	22.3	0.00e+00	0	40	0	190840832	50	5518
2026-01-22 16:52:52.67	21.45	5.70	-38.1	-38.9	22.2	0.00e+00	0	40	0	196083712	48	6335
2026-01-22 16:52:53.68	21.46	5.77	-37.7	-38.5	22.6	0.00e+00	0	40	0	201326592	48	6086
2026-01-22 16:52:54.68	21.46	5.85	-37.8	-38.5	22.5	0.00e+00	0	40	0	207618048	48	6103
2026-01-22 16:52:55.70	21.46	5.92	-37.5	-38.3	22.8	0.00e+00	0	41	0	212860928	48	5912
2026-01-22 16:52:56.70	21.47	6.00	-37.6	-38.4	22.6	0.00e+00	0	40	0	219152384	48	6017
2026-01-22 16:52:57.71	21.47	6.07	-37.9	-38.7	22.4	0.00e+00	0	40	0	224395264	48	6179
2026-01-22 16:52:58.72	21.47	6.15	-37.4	-38.1	22.9	0.00e+00	0	40	0	230686720	48	5824
2026-01-22 16:52:59.73	21.48	6.22	-37.5	-38.3	22.9	0.00e+00	0	41	0	235929600	48	5897
2026-01-22 16:53:00.74	21.48	6.30	-37.5	-38.2	22.9	0.00e+00	0	40	0	242221056	48	5891
2026-01-22 16:53:01.75	21.48	6.37	-37.5	-38.2	22.9	0.00e+00	0	40	0	247463936	48	5877
2026-01-22 16:53:02.76	21.49	6.45	-37.4	-38.2	22.9	0.00e+00	0	40	0	252706816	48	5829
2026-01-22 16:53:03.77	21.49	6.52	-37.3	-38.1	23.1	0.00e+00	0	41	0	258998272	48	5776
2026-01-22 16:53:04.78	21.49	6.60	-37.0	-37.8	23.3	0.00e+00	0	40	0	264241152	48	5572
2026-01-22 16:53:05.79	21.50	6.68	-37.2	-38.0	23.2	0.00e+00	0	41	0	270532608	48	5730
2026-01-22 16:53:06.80	21.50	6.75	-37.4	-38.2	22.9	0.00e+00	0	40	0	275775488	48	5870
2026-01-22 16:53:07.81	21.51	6.83	-37.3	-38.0	23.2	0.00e+00	0	40	0	281018368	48	5723
2026-01-22 16:53:08.82	21.51	6.91	-37.3	-38.0	23.0	0.00e+00	0	41	0	287309824	48	5741
2026-01-22 16:53:09.83	21.51	6.98	-37.4	-38.2	23.1	0.00e+00	0	40	0	292552704	48	5849
2026-01-22 16:53:10.84	21.52	7.06	-37.3	-38.0	23.1	0.00e+00	0	41	0	298844160	48	5745
2026-01-22 16:53:11.85	21.52	7.14	-37.2	-37.9	23.2	0.00e+00	0	40	0	304087040	48	5692
2026-01-22 16:53:12.86	21.52	7.22	-37.4	-38.2	23.1	0.00e+00	0	40	0	310378496	48	5830
2026-01-22 16:53:13.86	21.53	7.30	-37.2	-38.0	23.2	0.00e+00	0	40	0	315621376	48	5705
2026-01-22 16:53:14.87	21.53	7.37	-37.1	-37.8	23.4	0.00e+00	0	40	0	320864256	48	5613
2026-01-22 16:53:15.88	21.53	7.45	-37.1	-37.8	23.3	0.00e+00	0	40	0	327155712	48	5619
2026-01-22 16:53:16.90	21.54	7.53	-37.1	-37.9	23.4	0.00e+00	0	40	0	332398592	48	5655
2026-01-22 16:53:17.90	21.54	7.61	-36.9	-37.6	23.5	0.00e+00	0	41	0	338690048	48	5495
2026-01-22 16:53:18.91	21.54	7.69	-37.1	-37.8	23.5	0.00e+00	0	41	0	343932928	48	5615
2026-01-22 16:53:19.92	21.55	7.77	-36.9	-37.6	23.6	0.00e+00	0	40	0	349175808	48	5502
2026-01-22 16:53:20.93	21.55	7.85	-36.8	-37.5	23.7	0.00e+00	0	41	0	355467264	48	5430
2026-01-22 16:53:21.94	21.55	7.93	-36.8	-37.5	23.7	0.00e+00	0	41	0	360710144	48	5415
2026-01-22 16:53:22.95	21.56	8.01	-36.9	-37.6	23.6	0.00e+00	0	40	0	367001600	48	5481
2026-01-22 16:53:23.96	21.56	8.09	-36.7	-37.5	23.7	0.00e+00	0	40	0	372244480	48	5390
2026-01-22 16:53:24.97	21.57	8.17	-36.7	-37.4	23.8	0.00e+00	0	41	0	377487360	46	5993
2026-01-22 16:53:25.97	21.57	8.26	-36.7	-37.5	23.9	0.00e+00	0	41	0	383778816	46	6054
2026-01-22 16:53:26.98	21.57	8.34	-36.7	-37.4	23.8	0.00e+00	0	41	0	389021696	46	6014
2026-01-22 16:53:27.99	21.58	8.42	-36.8	-37.5	23.7	0.00e+00	0	41	0	395313152	46	6057
2026-01-22 16:53:29.00	21.58	8.50	-36.8	-37.5	23.7	0.00e+00	0	41	0	400556032	46	6070
2026-01-22 16:53:30.01	21.58	8.58	-36.6	-37.3	24.0	0.00e+00	0	41	0	406847488	46	5900
2026-01-22 16:53:31.02	21.59	8.67	-36.6	-37.3	23.9	0.00e+00	0	41	0	412090368	46	5951
2026-01-22 16:53:32.02	21.59	8.75	-36.9	-37.6	23.7	0.00e+00	0	40	0	417333248	46	6145
2026-01-22 16:53:33.03	21.59	8.83	-36.7	-37.4	23.7	0.00e+00	0	41	0	423624704	46	5979
2026-01-22 16:53:34.04	21.60	8.92	-36.7	-37.4	23.9	0.00e+00	0	40	0	428867584	46	5986
2026-01-22 16:53:35.05	21.60	9.00	-36.5	-37.2	24.1	0.00e+00	0	40	0	435159040	46	5858
2026-01-22 16:53:36.06	21.60	9.08	-36.4	-37.1	24.2	0.00e+00	0	41	0	440401920	46	5824
2026-01-22 16:53:37.07	21.61	9.17	-36.5	-37.2	24.1	0.00e+00	0	41	0	445644800	46	5839
2026-01-22 16:53:38.08	21.61	9.25	-36.3	-37.1	24.2	0.00e+00	0	41	0	451936256	46	5762
2026-01-22 16:53:39.09	21.61	9.34	-36.4	-37.1	24.1	0.00e+00	0	41	0	457179136	46	5800
2026-01-22 16:53:40.10	21.62	9.42	-36.4	-37.1	24.1	0.00e+00	0	41	0	463470592	46	5800
2026-01-22 16:53:41.10	21.62	9.51	-36.6	-37.4	24.1	0.00e+00	0	41	0	468713472	46	5969
2026-01-22 16:53:42.11	21.62	9.59	-36.3	-37.1	24.2	0.00e+00	0	41	0	473956352	46	5762
2026-01-22 16:53:43.12	21.63	9.68	-36.3	-37.0	24.3	0.00e+00	0	40	0	480247808	46	5698
2026-01-22 16:53:44.13	21.63	9.77	-36.3	-37.0	24.2	0.00e+00	0	41	0	485490688	46	5731
2026-01-22 16:53:45.14	21.63	9.85	-36.1	-36.8	24.4	0.00e+00	0	41	0	491782144	46	5622
2026-01-22 16:53:46.15	21.64	9.94	-36.1	-36.8	24.3	0.00e+00	0	41	0	497025024	46	5596
2026-01-22 16:53:47.16	21.64	10.03	-36.1	-36.8	24.4	0.00e+00	0	41	0	503316480	46	5616
2026-01-22 16:53:48.17	21.64	10.12	-36.3	-37.0	24.4	0.00e+00	0	41	0	508559360	46	5743
2026-01-22 16:53:49.18	21.65	10.20	-36.0	-36.7	24.5	0.00e+00	0	41	0	513802240	46	5554
2026-01-22 16:53:50.19	21.65	10.29	-36.3	-37.0	24.2	0.00e+00	0	41	0	520093696	46	5740
2026-01-22 16:53:51.20	21.65	10.38	-36.5	-37.2	24.2	0.00e+00	0	41	0	525336576	46	5847
2026-01-22 16:53:52.21	21.66	10.47	-36.3	-37.0	24.3	0.00e+00	0	41	0	531628032	46	5748
2026-01-22 16:53:53.22	21.66	10.56	-36.0	-36.7	24.5	0.00e+00	0	41	0	536870912	46	5543
2026-01-22 16:53:54.23	21.66	10.65	-36.1	-36.9	24.4	0.00e+00	0	41	0	542113792	46	5631
2026-01-22 16:53:55.24	21.67	10.74	-36.2	-36.9	24.3	0.00e+00	0	41	0	548405248	46	5654
2026-01-22 16:53:56.25	21.67	10.83	-36.1	-36.8	24.5	0.00e+00	0	41	0	553648128	46	5611
2026-01-22 16:53:57.25	21.67	10.92	-36.0	-36.7	24.6	0.00e+00	0	41	0	559939584	46	5527
2026-01-22 16:53:58.26	21.68	11.01	-36.0	-36.7	24.6	0.00e+00	0	41	0	565182464	46	5543
2026-01-22 16:53:59.27	21.68	11.10	-36.2	-36.9	24.3	0.00e+00	0	41	0	570425344	46	5657
2026-01-22 16:54:00.28	21.68	11.19	-35.9	-36.6	24.6	0.00e+00	0	41	0	576716800	46	5498
2026-01-22 16:54:01.29	21.69	11.28	-35.8	-36.5	24.7	0.00e+00	0	41	0	581959680	46	5414
2026-01-22 16:54:02.30	21.69	11.38	-35.9	-36.6	24.7	0.00e+00	0	41	0	588251136	46	5474
2026-01-22 16:54:03.31	21.69	11.47	-35.8	-36.5	24.7	0.00e+00	0	41	0	593494016	44	6067
2026-01-22 16:54:04.32	21.70	11.56	-35.9	-36.5	24.7	0.00e+00	0	41	0	599785472	44	6099
2026-01-22 16:54:05.33	21.70	11.66	-35.7	-36.3	24.8	0.00e+00	0	41	0	605028352	44	5959
2026-01-22 16:54:06.34	21.70	11.75	-35.7	-36.4	24.8	0.00e+00	0	41	0	611319808	44	6024
2026-01-22 16:54:07.35	21.71	11.84	-35.8	-36.5	24.8	0.00e+00	0	41	0	616562688	44	6058
2026-01-22 16:54:08.36	21.71	11.94	-35.9	-36.6	24.6	0.00e+00	0	41	0	621805568	44	6142
2026-01-22 16:54:09.37	21.71	12.03	-35.7	-36.4	24.9	0.00e+00	0	41	0	628097024	44	5974
2026-01-22 16:54:10.38	21.72	12.13	-35.5	-36.2	25.1	0.00e+00	0	41	0	633339904	44	5867
2026-01-22 16:54:11.39	21.72	12.22	-35.7	-36.4	24.9	0.00e+00	0	41	0	639631360	44	5967
2026-01-22 16:54:12.40	21.72	12.32	-35.7	-36.4	24.9	0.00e+00	0	41	0	644874240	44	5972
2026-01-22 16:54:13.41	21.73	12.42	-35.7	-36.4	24.9	0.00e+00	0	41	0	650117120	44	6003
2026-01-22 16:54:14.42	21.73	12.51	-35.6	-36.2	25.1	0.00e+00	0	41	0	656408576	44	5896
2026-01-22 16:54:15.42	21.73	12.61	-35.7	-36.4	24.9	0.00e+00	0	41	0	661651456	44	5984
2026-01-22 16:54:16.43	21.74	12.71	-35.7	-36.4	24.9	0.00e+00	0	41	0	666894336	44	5981
2026-01-22 16:54:17.44	21.74	12.80	-35.5	-36.2	25.0	0.00e+00	0	41	0	673185792	44	5833
2026-01-22 16:54:18.45	21.74	12.90	-35.5	-36.2	25.1	0.00e+00	0	41	0	678428672	44	5867
2026-01-22 16:54:19.46	21.74	13.00	-35.4	-36.1	25.2	0.00e+00	0	41	0	684720128	44	5763
2026-01-22 16:54:20.47	21.75	13.10	-35.4	-36.1	25.2	0.00e+00	0	41	0	689963008	44	5788
2026-01-22 16:54:21.48	21.75	13.20	-35.4	-36.1	25.1	0.00e+00	0	41	0	696254464	44	5804
2026-01-22 16:54:22.49	21.75	13.30	-35.7	-36.4	24.9	0.00e+00	0	41	0	701497344	44	6002
2026-01-22 16:54:23.50	21.76	13.40	-35.6	-36.2	25.1	0.00e+00	0	41	0	707788800	44	5896
2026-01-22 16:54:24.51	21.76	13.50	-35.3	-36.0	25.3	0.00e+00	0	41	0	713031680	44	5704
2026-01-22 16:54:25.52	21.76	13.60	-35.3	-36.0	25.3	0.00e+00	0	41	0	718274560	44	5718
2026-01-22 16:54:26.53	21.77	13.70	-35.2	-35.8	25.4	0.00e+00	0	41	0	724566016	44	5602
2026-01-22 16:54:27.54	21.77	13.81	-35.1	-35.8	25.5	0.00e+00	0	41	0	729808896	44	5569
2026-01-22 16:54:28.55	21.77	13.91	-35.0	-35.7	25.6	0.00e+00	0	41	0	736100352	44	5505
2026-01-22 16:54:29.56	21.78	14.01	-35.0	-35.7	25.6	0.00e+00	0	41	0	741343232	44	5531
2026-01-22 16:54:30.57	21.78	14.11	-35.0	-35.6	25.6	0.00e+00	0	41	0	746586112	44	5473
2026-01-22 16:54:31.58	21.78	14.22	-35.0	-35.7	25.6	0.00e+00	0	41	0	752877568	44	5507
2026-01-22 16:54:32.59	21.78	14.32	-34.9	-35.6	25.7	0.00e+00	0	41	0	758120448	44	5454
2026-01-22 16:54:33.60	21.79	14.43	-34.8	-35.5	25.8	0.00e+00	0	41	0	764411904	44	5408
2026-01-22 16:54:34.61	21.79	14.53	-34.9	-35.5	25.7	0.00e+00	0	41	0	769654784	44	5408
2026-01-22 16:54:35.62	21.79	14.64	-35.1	-35.8	25.5	0.00e+00	0	41	0	774897664	44	5575
2026-01-22 16:54:36.63	21.80	14.74	-35.1	-35.7	25.7	0.00e+00	0	41	0	781189120	44	5537
2026-01-22 16:54:37.64	21.80	14.85	-35.0	-35.6	25.7	0.00e+00	0	41	0	786432000	44	5484
2026-01-22 16:54:38.65	21.80	14.96	-34.9	-35.6	25.7	0.00e+00	0	41	0	792723456	44	5444
2026-01-22 16:54:39.66	21.81	15.06	-35.2	-35.8	25.4	0.00e+00	0	41	0	797966336	44	5626
2026-01-22 16:54:40.66	21.81	15.17	-34.8	-35.5	25.9	0.00e+00	0	41	0	804257792	44	5400
2026-01-22 16:54:41.67	21.81	15.28	-34.8	-35.5	25.7	0.00e+00	0	41	0	809500672	42	6064
2026-01-22 16:54:42.68	21.81	15.39	-34.6	-35.3	26.0	0.00e+00	0	41	0	814743552	42	5908
2026-01-22 16:54:43.69	21.82	15.50	-34.9	-35.5	25.8	0.00e+00	0	41	0	821035008	42	6086
2026-01-22 16:54:44.70	21.82	15.61	-34.7	-35.3	26.0	0.00e+00	0	41	0	826277888	42	5954
2026-01-22 16:54:45.71	21.82	15.72	-34.7	-35.3	25.9	0.00e+00	0	41	0	832569344	42	5957
2026-01-22 16:54:46.72	21.83	15.83	-34.7	-35.4	26.0	0.00e+00	0	41	0	837812224	42	5974
2026-01-22 16:54:47.73	21.83	15.94	-34.5	-35.2	26.1	0.00e+00	0	41	0	843055104	42	5839
2026-01-22 16:54:48.74	21.83	16.05	-34.6	-35.2	26.1	0.00e+00	0	41	0	849346560	42	5881
2026-01-22 16:54:49.75	21.83	16.16	-34.5	-35.2	26.3	0.00e+00	0	41	0	854589440	42	5837
2026-01-22 16:54:50.76	21.84	16.28	-34.4	-35.1	26.2	0.00e+00	0	41	0	860880896	42	5807
2026-01-22 16:54:51.77	21.84	16.39	-34.5	-35.1	26.2	0.00e+00	0	41	0	866123776	42	5791
2026-01-22 16:54:52.78	21.84	16.50	-34.5	-35.1	26.2	0.00e+00	0	41	0	871366656	42	5804
2026-01-22 16:54:53.79	21.85	16.62	-34.6	-35.2	26.0	0.00e+00	0	41	0	877658112	42	5885
2026-01-22 16:54:54.80	21.85	16.73	-34.6	-35.2	26.1	0.00e+00	0	41	0	882900992	42	5875
2026-01-22 16:54:55.81	21.85	16.85	-34.5	-35.1	26.1	0.00e+00	0	41	0	889192448	42	5828
2026-01-22 16:54:56.82	21.85	16.97	-34.7	-35.3	25.9	0.00e+00	0	41	0	894435328	42	5946
2026-01-22 16:54:57.83	21.86	17.08	-34.4	-35.1	26.3	0.00e+00	0	41	0	900726784	42	5779
2026-01-22 16:54:58.84	21.86	17.20	-34.4	-35.1	26.3	0.00e+00	0	41	0	905969664	42	5780
2026-01-22 16:54:59.85	21.86	17.32	-34.3	-34.9	26.4	0.00e+00	0	41	0	912261120	42	5668
2026-01-22 16:55:00.86	21.87	17.44	-34.2	-34.9	26.4	0.00e+00	0	41	0	917504000	42	5644
2026-01-22 16:55:01.87	21.87	17.56	-34.1	-34.8	26.5	0.00e+00	0	41	0	922746880	42	5597
2026-01-22 16:55:02.88	21.87	17.68	-34.2	-34.9	26.4	0.00e+00	0	41	0	929038336	42	5655
2026-01-22 16:55:03.89	21.87	17.80	-34.4	-35.0	26.3	0.00e+00	0	41	0	934281216	42	5731
2026-01-22 16:55:04.90	21.88	17.92	-34.5	-35.1	26.4	0.00e+00	0	41	0	940572672	42	5801
2026-01-22 16:55:05.91	21.88	18.04	-34.3	-34.9	26.5	0.00e+00	0	41	0	945815552	42	5666
2026-01-22 16:55:06.92	21.88	18.16	-34.1	-34.8	26.5	0.00e+00	0	41	0	951058432	42	5570
2026-01-22 16:55:07.93	21.88	18.28	-34.1	-34.8	26.6	0.00e+00	0	41	0	957349888	42	5570
2026-01-22 16:55:08.94	21.89	18.41	-34.0	-34.7	26.6	0.00e+00	0	41	0	962592768	42	5528
2026-01-22 16:55:09.95	21.89	18.53	-34.0	-34.6	26.6	0.00e+00	0	41	0	968884224	42	5492
2026-01-22 16:55:10.96	21.89	18.65	-34.0	-34.7	26.7	0.00e+00	0	41	0	974127104	42	5517
2026-01-22 16:55:11.97	21.90	18.78	-33.9	-34.5	26.8	0.00e+00	0	41	0	979369984	42	5407
2026-01-22 16:55:12.98	21.90	18.90	-33.9	-34.5	26.8	0.00e+00	0	41	0	985661440	42	5409
2026-01-22 16:55:13.99	21.90	19.03	-33.8	-34.5	26.8	0.00e+00	0	41	0	990904320	42	5393
2026-01-22 16:55:15.00	21.90	19.16	-33.8	-34.5	26.8	0.00e+00	0	41	0	997195776	40	6052
2026-01-22 16:55:16.01	21.91	19.29	-33.7	-34.3	26.9	0.00e+00	0	41	0	1002438656	40	5941
2026-01-22 16:55:17.02	21.91	19.41	-33.7	-34.3	26.9	0.00e+00	0	41	0	1008730112	40	5932
2026-01-22 16:55:18.02	21.91	19.54	-33.6	-34.2	27.0	0.00e+00	0	41	0	1013972992	40	5851
2026-01-22 16:55:19.04	21.91	19.67	-33.6	-34.2	27.0	0.00e+00	0	41	0	1020264448	40	5892
2026-01-22 16:55:20.05	21.92	19.80	-33.6	-34.2	27.1	0.00e+00	0	41	0	1025507328	40	5884
2026-01-22 16:55:21.06	21.92	19.93	-33.6	-34.2	27.1	0.00e+00	0	41	0	1030750208	40	5889
2026-01-22 16:55:22.06	21.92	20.06	-33.5	-34.1	27.1	0.00e+00	0	41	0	1037041664	40	5823
2026-01-22 16:55:23.07	21.92	20.20	-33.5	-34.2	27.1	0.00e+00	0	41	0	1042284544	40	5835
2026-01-22 16:55:24.08	21.93	20.33	-33.5	-34.2	27.0	0.00e+00	0	41	0	1047527424	40	5830
2026-01-22 16:55:25.09	21.93	20.46	-33.6	-34.2	27.1	0.00e+00	0	41	0	1053818880	40	5881
2026-01-22 16:55:26.10	21.93	20.60	-33.5	-34.1	27.1	0.00e+00	0	41	0	1059061760	40	5824
2026-01-22 16:55:27.11	21.93	20.73	-33.6	-34.2	27.1	0.00e+00	0	41	0	1065353216	40	5867
2026-01-22 16:55:28.12	21.93	20.87	-33.4	-34.1	27.1	0.00e+00	0	41	0	1070596096	40	5770
2026-01-22 16:55:29.13	21.94	21.01	-33.5	-34.1	27.0	0.00e+00	0	41	0	1075838976	40	5820
2026-01-22 16:55:30.14	21.94	21.14	-33.5	-34.1	27.1	0.00e+00	0	41	0	1082130432	40	5796
2026-01-22 16:55:31.15	21.94	21.28	-33.4	-34.0	27.1	0.00e+00	0	41	0	1087373312	40	5749
2026-01-22 16:55:32.15	21.94	21.42	-33.4	-34.0	27.2	0.00e+00	0	41	0	1093664768	40	5740
2026-01-22 16:55:33.16	21.95	21.56	-33.5	-34.1	27.1	0.00e+00	0	41	0	1098907648	40	5791
2026-01-22 16:55:34.17	21.95	21.70	-33.4	-34.0	27.2	0.00e+00	0	41	0	1105199104	40	5737
2026-01-22 16:55:35.18	21.95	21.84	-33.4	-34.0	27.1	0.00e+00	0	41	0	1110441984	40	5723
2026-01-22 16:55:36.19	21.95	21.98	-33.4	-34.0	27.2	0.00e+00	0	41	0	1116733440	40	5743
2026-01-22 16:55:37.20	21.96	22.13	-33.5	-34.1	27.1	0.00e+00	0	41	0	1121976320	40	5822
2026-01-22 16:55:38.21	21.96	22.27	-33.3	-33.9	27.3	0.00e+00	0	41	0	1127219200	40	5692
2026-01-22 16:55:39.22	21.96	22.42	-33.3	-33.9	27.3	0.00e+00	0	41	0	1133510656	40	5656
2026-01-22 16:55:40.23	21.96	22.56	-33.2	-33.8	27.4	0.00e+00	0	41	0	1138753536	40	5608
2026-01-22 16:55:41.24	21.96	22.71	-33.1	-33.7	27.4	0.00e+00	0	41	0	1145044992	40	5559
2026-01-22 16:55:42.25	21.97	22.85	-33.1	-33.8	27.5	0.00e+00	0	41	0	1150287872	40	5583
2026-01-22 16:55:43.26	21.97	23.00	-33.1	-33.7	27.3	0.00e+00	0	41	0	1155530752	40	5543
2026-01-22 16:55:44.27	21.97	23.15	-33.0	-33.6	27.5	0.00e+00	0	41	0	1161822208	40	5501
2026-01-22 16:55:45.28	21.97	23.30	-33.0	-33.6	27.5	0.00e+00	0	41	0	1167065088	40	5445
2026-01-22 16:55:46.29	21.97	23.45	-33.1	-33.7	27.4	0.00e+00	0	41	0	1173356544	40	5526
2026-01-22 16:55:47.30	21.98	23.60	-32.8	-33.4	27.6	0.00e+00	0	41	0	1178599424	38	5977
2026-01-22 16:55:48.31	21.98	23.76	-32.8	-33.4	27.7	0.00e+00	0	41	0	1183842304	38	5980
2026-01-22 16:55:49.32	21.98	23.91	-33.0	-33.6	27.7	0.00e+00	0	41	0	1190133760	38	6135
2026-01-22 16:55:50.33	21.98	24.06	-33.0	-33.6	27.7	0.00e+00	0	41	0	1195376640	38	6133
2026-01-22 16:55:51.33	21.98	24.22	-32.8	-33.4	27.7	0.00e+00	0	41	0	1201668096	38	6027
2026-01-22 16:55:52.34	21.99	24.37	-32.9	-33.5	27.6	0.00e+00	0	41	0	1206910976	38	6061
2026-01-22 16:55:53.36	21.99	24.53	-32.8	-33.5	27.7	0.00e+00	0	41	0	1213202432	38	6036
2026-01-22 16:55:54.36	21.99	24.69	-32.8	-33.4	27.6	0.00e+00	0	41	0	1218445312	38	6003
2026-01-22 16:55:55.37	21.99	24.85	-33.0	-33.6	27.6	0.00e+00	0	41	0	1223688192	38	6142
2026-01-22 16:55:56.38	21.99	25.01	-33.0	-33.6	27.5	0.00e+00	0	41	0	1229979648	38	6164
2026-01-22 16:55:57.39	22.00	25.17	-33.1	-33.7	27.5	0.00e+00	0	41	0	1235222528	38	6235
2026-01-22 16:55:58.40	22.00	25.33	-33.1	-33.7	27.6	0.00e+00	0	41	0	1241513984	38	6227
2026-01-22 16:55:59.41	22.00	25.49	-33.0	-33.7	27.5	0.00e+00	0	41	0	1246756864	38	6185
2026-01-22 16:56:00.42	22.00	25.66	-33.1	-33.7	27.4	0.00e+00	0	41	0	1251999744	38	6244
2026-01-22 16:56:01.43	22.00	25.82	-33.1	-33.8	27.6	0.00e+00	0	41	0	1258291200	38	6253
2026-01-22 16:56:02.44	22.00	25.99	-33.0	-33.7	27.5	0.00e+00	0	41	0	1263534080	38	6185
2026-01-22 16:56:03.45	22.01	26.15	-33.0	-33.7	27.5	0.00e+00	0	41	0	1269825536	38	6196
2026-01-22 16:56:04.46	22.01	26.32	-33.1	-33.8	27.5	0.00e+00	0	41	0	1275068416	38	6256
2026-01-22 16:56:05.46	22.01	26.49	-33.2	-33.8	27.6	0.00e+00	0	41	0	1280311296	38	6268
2026-01-22 16:56:06.47	22.01	26.66	-32.9	-33.5	27.7	0.00e+00	0	41	0	1286602752	38	6103
2026-01-22 16:56:07.48	22.01	26.83	-33.0	-33.6	27.7	0.00e+00	0	41	0	1291845632	38	6144
2026-01-22 16:56:08.49	22.01	27.00	-32.9	-33.5	27.8	0.00e+00	0	41	0	1298137088	38	6056
2026-01-22 16:56:09.49	22.02	27.17	-32.8	-33.4	27.7	0.00e+00	0	41	0	1303379968	38	6026
2026-01-22 16:56:10.50	22.02	27.35	-32.9	-33.5	27.7	0.00e+00	0	41	0	1309671424	38	6091
2026-01-22 16:56:11.51	22.02	27.52	-32.7	-33.4	27.8	0.00e+00	0	41	0	1314914304	38	5979
2026-01-22 16:56:12.52	22.02	27.70	-32.8	-33.4	27.7	0.00e+00	0	41	0	1320157184	38	6026
2026-01-22 16:56:13.53	22.02	27.88	-32.6	-33.2	27.9	0.00e+00	0	41	0	1326448640	38	5877
2026-01-22 16:56:14.54	22.02	28.06	-32.6	-33.2	27.8	0.00e+00	0	41	0	1331691520	38	5870
2026-01-22 16:56:15.55	22.02	28.24	-32.5	-33.1	28.0	0.00e+00	0	41	0	1337982976	38	5798
2026-01-22 16:56:16.56	22.03	28.42	-32.6	-33.1	28.1	0.00e+00	0	41	0	1343225856	38	5822
2026-01-22 16:56:17.56	22.03	28.60	-32.5	-33.2	27.9	0.00e+00	0	41	0	1348468736	38	5843
2026-01-22 16:56:18.58	22.03	28.78	-32.7	-33.4	27.9	0.00e+00	0	41	0	1354760192	38	5980
2026-01-22 16:56:19.59	22.03	28.97	-32.7	-33.3	27.9	0.00e+00	0	41	0	1360003072	38	5941
2026-01-22 16:56:20.59	22.03	29.15	-32.7	-33.3	27.9	0.00e+00	0	41	0	1366294528	38	5955
2026-01-22 16:56:21.60	22.03	29.34	-32.6	-33.2	28.0	0.00e+00	0	41	0	1371537408	38	5843
2026-01-22 16:56:22.62	22.03	29.53	-32.7	-33.3	27.8	0.00e+00	0	41	0	1376780288	38	5919
2026-01-22 16:56:23.62	22.03	29.72	-32.8	-33.4	27.8	0.00e+00	0	41	0	1383071744	38	6028
2026-01-22 16:56:24.64	22.03	29.91	-32.7	-33.3	27.9	0.00e+00	0	41	0	1388314624	38	5961
2026-01-22 16:56:25.65	22.04	30.11	-32.6	-33.3	27.9	0.00e+00	0	41	0	1394606080	38	5920
2026-01-22 16:56:26.66	22.04	30.30	-32.8	-33.5	27.7	0.00e+00	0	41	0	1399848960	38	6050
2026-01-22 16:56:27.66	22.04	30.49	-32.7	-33.3	27.8	0.00e+00	0	41	0	1406140416	38	5917
2026-01-22 16:56:28.67	22.04	30.69	-32.6	-33.3	27.9	0.00e+00	0	41	0	1411383296	38	5906
2026-01-22 16:56:29.68	22.04	30.89	-32.8	-33.4	27.8	0.00e+00	0	41	0	1416626176	38	6025
2026-01-22 16:56:30.69	22.04	31.09	-32.7	-33.4	27.9	0.00e+00	0	41	0	1422917632	38	5968
2026-01-22 16:56:31.70	22.04	31.29	-32.9	-33.5	27.8	0.00e+00	0	41	0	1428160512	38	6100
2026-01-22 16:56:32.71	22.04	31.49	-32.8	-33.4	27.8	0.00e+00	0	41	0	1434451968	38	5997
2026-01-22 16:56:33.72	22.04	31.69	-32.9	-33.5	27.8	0.00e+00	0	41	0	1439694848	38	6072
2026-01-22 16:56:34.73	22.04	31.90	-32.8	-33.5	27.7	0.00e+00	0	41	0	1444937728	38	6056
2026-01-22 16:56:35.73	22.04	32.10	-32.7	-33.4	27.9	0.00e+00	0	41	0	1451229184	38	6000
2026-01-22 16:56:36.75	22.04	32.31	-32.7	-33.3	27.8	0.00e+00	0	41	0	1456472064	38	5936
2026-01-22 16:56:37.75	22.04	32.52	-32.5	-33.1	28.0	0.00e+00	0	41	0	1462763520	38	5818
2026-01-22 16:56:38.76	22.04	32.73	-32.5	-33.1	28.0	0.00e+00	0	41	0	1468006400	38	5808
2026-01-22 16:56:39.77	22.04	32.94	-32.7	-33.3	28.0	0.00e+00	0	41	0	1473249280	38	5955
2026-01-22 16:56:40.78	22.04	33.15	-32.7	-33.3	27.9	0.00e+00	0	41	0	1479540736	38	5937
2026-01-22 16:56:41.79	22.05	33.37	-32.7	-33.4	28.0	0.00e+00	0	41	0	1484783616	38	5966
2026-01-22 16:56:42.80	22.05	33.59	-32.7	-33.4	27.9	0.00e+00	0	41	0	1491075072	38	5966
2026-01-22 16:56:43.81	22.05	33.80	-32.9	-33.5	27.8	0.00e+00	0	41	0	1496317952	38	6094
2026-01-22 16:56:44.82	22.05	34.02	-32.6	-33.3	28.0	0.00e+00	0	41	0	1502609408	38	5911
2026-01-22 16:56:45.83	22.05	34.25	-32.5	-33.1	28.1	0.00e+00	0	41	0	1507852288	38	5800
2026-01-22 16:56:46.85	22.05	34.47	-32.4	-33.1	28.2	0.00e+00	0	41	0	1514143744	38	5776
2026-01-22 16:56:47.86	22.05	34.69	-32.4	-33.1	28.1	0.00e+00	0	41	0	1519386624	38	5770
2026-01-22 16:56:48.86	22.05	34.92	-32.3	-32.9	28.2	0.00e+00	0	41	0	1524629504	38	5660
2026-01-22 16:56:49.87	22.05	35.15	-32.5	-33.1	28.1	0.00e+00	0	41	0	1530920960	38	5816
2026-01-22 16:56:50.88	22.05	35.38	-32.0	-32.7	28.5	0.00e+00	0	41	0	1536163840	38	5504
2026-01-22 16:56:51.90	22.04	35.61	-32.2	-32.8	28.3	0.00e+00	0	41	0	1542455296	38	5598
2026-01-22 16:56:52.90	22.04	35.84	-31.9	-32.5	28.5	0.00e+00	0	41	0	1547698176	38	5427
2026-01-22 16:56:53.92	22.04	36.08	-32.1	-32.7	28.5	0.00e+00	0	41	0	1552941056	38	5520
2026-01-22 16:56:54.93	22.04	36.31	-32.1	-32.7	28.4	0.00e+00	0	41	0	1559232512	38	5510
2026-01-22 16:56:55.94	22.04	36.55	-32.1	-32.8	28.4	0.00e+00	0	41	0	1564475392	38	5575
2026-01-22 16:56:56.95	22.04	36.79	-32.2	-32.8	28.4	0.00e+00	0	41	0	1570766848	38	5605
2026-01-22 16:56:57.96	22.04	37.03	-31.9	-32.5	28.6	0.00e+00	0	41	0	1576009728	38	5396
2026-01-22 16:56:58.97	22.04	37.28	-32.1	-32.7	28.5	0.00e+00	0	41	0	1581252608	38	5554
2026-01-22 16:56:59.98	22.04	37.52	-32.0	-32.6	28.5	0.00e+00	0	41	0	1587544064	38	5462
2026-01-22 16:57:00.99	22.04	37.77	-32.1	-32.7	28.4	0.00e+00	0	41	0	1592786944	38	5549
2026-01-22 16:57:02.00	22.04	38.02	-31.9	-32.6	28.5	0.00e+00	0	41	0	1599078400	38	5442
2026-01-22 16:57:03.01	22.04	38.27	-32.0	-32.6	28.4	0.00e+00	0	41	0	1604321280	38	5458
2026-01-22 16:57:04.02	22.04	38.52	-32.1	-32.7	28.4	0.00e+00	0	41	0	1610612736	38	5525
2026-01-22 16:57:05.02	22.04	38.77	-32.1	-32.6	28.4	0.00e+00	0	41	0	1615855616	38	5494
2026-01-22 16:57:06.03	22.03	39.03	-32.1	-32.7	28.3	0.00e+00	0	41	0	1621098496	38	5511
2026-01-22 16:57:07.04	22.03	39.29	-32.2	-32.8	28.4	0.00e+00	0	41	0	1627389952	38	5584
2026-01-22 16:57:08.05	22.03	39.55	-32.3	-33.0	28.2	0.00e+00	0	41	0	1632632832	38	5709
2026-01-22 16:57:09.06	22.03	39.81	-32.4	-33.1	28.1	0.00e+00	0	41	0	1638924288	38	5769
2026-01-22 16:57:10.07	22.03	40.07	-32.4	-33.1	28.2	0.00e+00	0	41	0	1644167168	38	5770
2026-01-22 16:57:11.08	22.03	40.34	-32.2	-32.8	28.3	0.00e+00	0	41	0	1649410048	38	5625
2026-01-22 16:57:12.09	22.02	40.61	-32.2	-32.9	28.2	0.00e+00	0	41	0	1655701504	38	5637
2026-01-22 16:57:13.10	22.02	40.88	-32.2	-32.8	28.3	0.00e+00	0	41	0	1660944384	38	5595
2026-01-22 16:57:14.11	22.02	41.15	-32.4	-33.0	28.2	0.00e+00	0	41	0	1667235840	38	5734
2026-01-22 16:57:15.12	22.02	41.43	-32.5	-33.2	28.1	0.00e+00	0	41	0	1672478720	38	5842
2026-01-22 16:57:16.13	22.02	41.70	-32.6	-33.2	28.0	0.00e+00	0	41	0	1677721600	38	5890
2026-01-22 16:57:17.14	22.01	41.98	-32.7	-33.4	28.0	0.00e+00	0	41	0	1684013056	38	5978
2026-01-22 16:57:18.15	22.01	42.26	-32.9	-33.5	27.8	0.00e+00	0	41	0	1689255936	38	6099
2026-01-22 16:57:19.17	22.01	42.55	-32.9	-33.5	27.9	0.00e+00	0	41	0	1695547392	38	6086
2026-01-22 16:57:20.18	22.01	42.83	-32.9	-33.6	27.8	0.00e+00	0	41	0	1700790272	38	6105
2026-01-22 16:57:21.19	22.00	43.12	-32.7	-33.3	28.1	0.00e+00	0	41	0	1707081728	38	5921
2026-01-22 16:57:22.20	22.00	43.41	-32.6	-33.2	28.0	0.00e+00	0	41	0	1712324608	38	5896
2026-01-22 16:57:23.21	22.00	43.70	-32.8	-33.4	28.0	0.00e+00	0	41	0	1718616064	38	5975
2026-01-22 16:57:24.22	21.99	44.00	-32.9	-33.6	27.9	0.00e+00	0	41	0	1723858944	38	6107
2026-01-22 16:57:25.23	21.99	44.29	-32.6	-33.3	28.0	0.00e+00	0	41	0	1729101824	38	5914
2026-01-22 16:57:26.24	21.99	44.59	-32.5	-33.2	28.1	0.00e+00	0	41	0	1735393280	38	5838
2026-01-22 16:57:27.24	21.98	44.89	-32.8	-33.4	28.0	0.00e+00	0	41	0	1740636160	38	5997
2026-01-22 16:57:28.25	21.98	45.19	-32.9	-33.5	27.8	0.00e+00	0	41	0	1746927616	38	6080
2026-01-22 16:57:29.26	21.98	45.50	-32.9	-33.5	27.8	0.00e+00	0	41	0	1752170496	38	6041
2026-01-22 16:57:30.27	21.97	45.80	-33.2	-33.8	27.9	0.00e+00	0	41	0	1757413376	38	6298
2026-01-22 16:57:31.28	21.97	46.11	-33.1	-33.7	27.9	0.00e+00	0	41	0	1763704832	38	6177
2026-01-22 16:57:32.29	21.96	46.43	-33.0	-33.6	27.7	0.00e+00	0	41	0	1768947712	38	6144
2026-01-22 16:57:33.30	21.96	46.74	-33.0	-33.7	27.7	0.00e+00	0	41	0	1775239168	38	6183
2026-01-22 16:57:34.31	21.95	47.06	-32.9	-33.6	27.8	0.00e+00	0	41	0	1780482048	38	6115
2026-01-22 16:57:35.32	21.95	47.38	-32.9	-33.5	27.8	0.00e+00	0	41	0	1785724928	38	6065
2026-01-22 16:57:36.34	21.94	47.70	-32.9	-33.5	27.9	0.00e+00	0	41	0	1792016384	38	6059
2026-01-22 16:57:37.35	21.94	48.03	-32.6	-33.3	28.1	0.00e+00	0	41	0	1797259264	38	5917
2026-01-22 16:57:38.36	21.93	48.35	-32.7	-33.3	28.0	0.00e+00	0	41	0	1803550720	38	5899
2026-01-22 16:57:39.37	21.93	48.68	-32.8	-33.4	27.9	0.00e+00	0	41	0	1808793600	38	6021
2026-01-22 16:57:40.38	21.92	49.02	-32.8	-33.4	27.9	0.00e+00	0	41	0	1815085056	38	6026
2026-01-22 16:57:41.39	21.92	49.35	-32.6	-33.2	28.1	0.00e+00	0	41	0	1820327936	38	5856
2026-01-22 16:57:42.40	21.91	49.69	-32.3	-32.9	28.2	0.00e+00	0	41	0	1826619392	38	5645
2026-01-22 16:57:43.41	21.90	50.03	-32.7	-33.4	28.0	0.00e+00	0	41	0	1831862272	38	5975
2026-01-22 16:57:44.41	21.90	50.37	-33.3	-33.9	27.5	0.00e+00	0	41	0	1837105152	38	6375
2026-01-22 16:57:45.42	21.89	50.71	-33.4	-34.1	27.4	0.00e+00	0	41	0	1843396608	38	6478
2026-01-22 16:57:46.43	21.88	51.06	-33.4	-34.0	27.5	0.00e+00	0	41	0	1848639488	38	6429
2026-01-22 16:57:47.44	21.88	51.41	-33.4	-34.0	27.5	0.00e+00	0	41	0	1854930944	38	6433
2026-01-22 16:57:48.45	21.87	51.76	-33.5	-34.1	27.4	0.00e+00	0	41	0	1860173824	38	6515
2026-01-22 16:57:49.46	21.86	52.12	-33.8	-34.4	27.1	0.00e+00	0	41	0	1865416704	40	6024
2026-01-22 16:57:50.47	21.85	52.47	-34.2	-34.9	26.7	0.00e+00	0	41	0	1871708160	40	6333
2026-01-22 16:57:51.48	21.84	52.83	-33.9	-34.6	26.9	0.00e+00	0	41	0	1876951040	40	6156
2026-01-22 16:57:52.49	21.83	53.20	-33.6	-34.2	27.3	0.00e+00	0	41	0	1882193920	40	5892
2026-01-22 16:57:53.50	21.82	53.56	-33.4	-34.0	27.6	0.00e+00	0	41	0	1888485376	40	5736
2026-01-22 16:57:54.50	21.81	53.93	-33.6	-34.2	27.2	0.00e+00	0	41	0	1893728256	40	5875
2026-01-22 16:57:55.51	21.81	54.30	-34.0	-34.6	27.0	0.00e+00	0	41	0	1900019712	40	6168
2026-01-22 16:57:56.52	21.79	54.67	-34.1	-34.8	26.9	0.00e+00	0	41	0	1905262592	40	6249
2026-01-22 16:57:57.53	21.78	55.05	-33.9	-34.5	27.1	0.00e+00	0	41	0	1911554048	40	6089
2026-01-22 16:57:58.54	21.77	55.43	-33.7	-34.3	27.4	0.00e+00	0	41	0	1916796928	40	5963
2026-01-22 16:57:59.55	21.76	55.81	-33.9	-34.6	27.0	0.00e+00	0	41	0	1923088384	40	6121
2026-01-22 16:58:00.56	21.75	56.19	-33.9	-34.5	27.1	0.00e+00	0	41	0	1928331264	40	6089
2026-01-22 16:58:01.57	21.74	56.58	-33.8	-34.4	27.2	0.00e+00	0	41	0	1933574144	40	6032
2026-01-22 16:58:02.58	21.72	56.97	-33.7	-34.3	27.2	0.00e+00	0	41	0	1939865600	40	5943
2026-01-22 16:58:03.59	21.71	57.36	-33.6	-34.2	27.4	0.00e+00	0	41	0	1945108480	40	5869
2026-01-22 16:58:04.60	21.70	57.76	-33.9	-34.6	27.0	0.00e+00	0	41	0	1951399936	40	6142
2026-01-22 16:58:05.61	21.68	58.16	-33.8	-34.4	27.1	0.00e+00	0	41	0	1956642816	40	5997
2026-01-22 16:58:06.62	21.67	58.56	-33.9	-34.5	27.3	0.00e+00	0	41	0	1961885696	40	6078
2026-01-22 16:58:07.63	21.65	58.96	-33.3	-33.9	27.6	0.00e+00	0	41	0	1968177152	40	5668
2026-01-22 16:58:08.64	21.64	59.37	-33.7	-34.3	27.4	0.00e+00	0	41	0	1973420032	40	5945
2026-01-22 16:58:09.65	21.62	59.78	-33.3	-34.0	27.6	0.00e+00	0	41	0	1979711488	40	5700
2026-01-22 16:58:10.66	21.60	60.19	-32.6	-33.2	28.2	0.00e+00	0	41	0	1984954368	38	5851
2026-01-22 16:58:11.67	21.58	60.60	-32.8	-33.4	27.9	0.00e+00	0	41	0	1990197248	38	6014
2026-01-22 16:58:12.68	21.56	61.02	-33.1	-33.7	27.8	0.00e+00	0	41	0	1996488704	38	6191
2026-01-22 16:58:13.69	21.54	61.44	-33.0	-33.7	27.7	0.00e+00	0	41	0	2001731584	38	6182
2026-01-22 16:58:14.70	21.52	61.86	-32.9	-33.5	28.0	0.00e+00	0	41	0	2008023040	38	6067
2026-01-22 16:58:15.71	21.50	62.29	-32.2	-32.8	28.3	0.00e+00	0	41	0	2013265920	38	5601
2026-01-22 16:58:16.72	21.48	62.72	-32.1	-32.7	28.3	0.00e+00	0	41	0	2019557376	38	5513
2026-01-22 16:58:17.73	21.46	63.15	-32.1	-32.8	28.3	0.00e+00	0	41	0	2024800256	38	5572
2026-01-22 16:58:18.73	21.43	63.58	-31.9	-32.5	28.5	0.00e+00	0	41	0	2030043136	38	5400
2026-01-22 16:58:19.74	21.41	64.01	-31.9	-32.5	28.5	0.00e+00	0	41	0	2036334592	38	5412
2026-01-22 16:58:20.75	21.38	64.45	-32.3	-32.9	28.3	0.00e+00	0	41	0	2041577472	38	5690
2026-01-22 16:58:21.76	21.35	64.89	-32.2	-32.8	28.3	0.00e+00	0	41	0	2047868928	38	5584
2026-01-22 16:58:22.77	21.33	65.33	-32.1	-32.7	28.4	0.00e+00	0	41	0	2053111808	38	5515
2026-01-22 16:58:23.78	21.30	65.78	-32.1	-32.7	28.5	0.00e+00	0	41	0	2058354688	38	5519
2026-01-22 16:58:24.79	21.26	66.23	-32.1	-32.7	28.6	0.00e+00	0	41	0	2064646144	38	5514
2026-01-22 16:58:25.80	21.23	66.68	-32.2	-32.8	28.4	0.00e+00	0	41	0	2069889024	38	5599
2026-01-22 16:58:26.81	21.20	67.13	-32.1	-32.7	28.4	0.00e+00	0	41	0	2076180480	38	5538
2026-01-22 16:58:27.82	21.16	67.59	-32.1	-32.7	28.5	0.00e+00	0	41	0	2081423360	38	5539
2026-01-22 16:58:28.83	21.12	68.05	-32.4	-33.0	28.3	0.00e+00	0	41	0	2086666240	38	5743
2026-01-22 16:58:29.84	21.08	68.51	-31.8	-32.4	28.7	0.00e+00	0	41	0	2092957696	38	5339
2026-01-22 16:58:30.85	21.04	68.97	-31.5	-32.1	28.9	0.00e+00	0	41	0	2098200576	36	5794
2026-01-22 16:58:31.86	20.99	69.44	-31.9	-32.5	28.6	0.00e+00	0	41	0	2104492032	36	6067
2026-01-22 16:58:32.87	20.95	69.91	-32.0	-32.6	28.6	0.00e+00	0	41	0	2109734912	36	6106
2026-01-22 16:58:33.87	20.90	70.37	-31.7	-32.4	28.8	0.00e+00	0	41	0	2116026368	36	5968
2026-01-22 16:58:34.88	20.85	70.84	-31.7	-32.3	28.8	0.00e+00	0	41	0	2121269248	36	5933
2026-01-22 16:58:35.89	20.79	71.32	-31.9	-32.6	28.7	0.00e+00	0	41	0	2127560704	36	6115
2026-01-22 16:58:36.90	20.73	71.80	-31.9	-32.5	28.8	0.00e+00	0	41	0	2132803584	36	6081
2026-01-22 16:58:37.91	20.67	72.28	-31.6	-32.2	28.9	0.00e+00	0	41	0	2138046464	36	5846
2026-01-22 16:58:38.92	20.60	72.76	-31.2	-31.8	29.0	0.00e+00	0	41	0	2144337920	36	5600
2026-01-22 16:58:39.93	20.53	73.24	-31.5	-32.1	29.0	0.00e+00	0	41	0	2149580800	36	5817
2026-01-22 16:58:40.95	20.46	73.73	-31.1	-31.7	29.1	0.00e+00	0	41	0	2155872256	36	5551
2026-01-22 16:58:41.96	20.38	74.22	-31.3	-31.9	29.0	0.00e+00	0	41	0	2161115136	36	5659
2026-01-22 16:58:42.97	20.29	74.71	-31.3	-31.9	29.1	0.00e+00	0	41	0	2166358016	36	5692
2026-01-22 16:58:43.98	20.20	75.20	-31.3	-32.0	29.2	0.00e+00	0	41	0	2172649472	36	5697
2026-01-22 16:58:44.98	20.10	75.69	-30.8	-31.4	29.3	0.00e+00	0	41	0	2177892352	36	5360
2026-01-22 16:58:45.99	20.00	76.18	-31.3	-31.9	29.0	0.00e+00	0	41	0	2184183808	36	5691
2026-01-22 16:58:47.00	19.88	76.68	-30.9	-31.5	29.3	0.00e+00	0	41	0	2189426688	36	5428
2026-01-22 16:58:48.01	19.76	77.17	-30.8	-31.4	29.4	0.00e+00	0	41	0	2194669568	36	5369
2026-01-22 16:58:49.02	19.62	77.67	-30.9	-31.5	29.4	0.00e+00	0	41	0	2200961024	36	5420
2026-01-22 16:58:50.03	19.48	78.17	-30.5	-31.2	29.7	0.00e+00	0	41	0	2206203904	34	5847
2026-01-22 16:58:51.05	19.31	78.68	-30.7	-31.3	29.7	0.00e+00	0	41	0	2212495360	34	5932
2026-01-22 16:58:52.06	19.14	79.19	-30.5	-31.1	29.6	0.00e+00	0	42	0	2217738240	34	5811
2026-01-22 16:58:53.07	18.94	79.69	-30.6	-31.2	29.6	0.00e+00	0	41	0	2224029696	34	5875
2026-01-22 16:58:54.07	18.73	80.19	-30.2	-30.8	29.7	0.00e+00	0	41	0	2229272576	34	5580
2026-01-22 16:58:55.08	18.49	80.70	-30.2	-30.8	29.6	0.00e+00	0	41	0	2234515456	34	5599
2026-01-22 16:58:56.10	18.22	81.21	-30.8	-31.4	29.6	0.00e+00	0	41	0	2240806912	34	6000
2026-01-22 16:58:57.11	17.92	81.72	-31.0	-31.7	29.3	0.00e+00	0	41	0	2246049792	34	6184
2026-01-22 16:58:58.12	17.57	82.23	-30.4	-30.9	29.8	0.00e+00	0	42	0	2252341248	34	5692
2026-01-22 16:58:59.13	17.18	82.74	-29.9	-30.6	30.1	0.00e+00	0	41	0	2257584128	34	5463
2026-01-22 16:59:00.14	16.73	83.25	-30.1	-30.7	29.9	0.00e+00	0	42	0	2263875584	34	5527
2026-01-22 16:59:01.14	16.21	83.76	-30.0	-30.6	29.9	0.00e+00	0	41	0	2269118464	34	5467
2026-01-22 16:59:02.15	15.58	84.27	-29.9	-30.5	29.8	0.00e+00	0	42	0	2274361344	34	5434
2026-01-22 16:59:03.16	14.84	84.79	-30.2	-30.9	29.8	0.00e+00	0	42	0	2280652800	34	5632
2026-01-22 16:59:04.17	13.92	85.30	-30.4	-31.0	29.6	0.00e+00	0	41	0	2285895680	34	5759
2026-01-22 16:59:05.18	12.79	85.81	-30.6	-31.2	29.6	0.00e+00	0	42	0	2291138560	34	5856
2026-01-22 16:59:06.19	11.34	86.32	-30.5	-31.1	29.6	0.00e+00	0	41	0	2297430016	34	5808
2026-01-22 16:59:07.20	9.41	86.82	-30.9	-31.5	29.4	0.00e+00	0	41	0	2302672896	34	6077
2026-01-22 16:59:08.21	6.77	87.33	-30.2	-30.8	29.7	0.00e+00	0	42	0	2308964352	34	5584
2026-01-22 16:59:09.22	2.90	87.82	-30.5	-31.1	29.6	0.00e+00	0	41	0	2314207232	34	5789
2026-01-22 16:59:10.23	356.81	88.30	-30.7	-31.3	29.4	0.00e+00	0	41	0	2320498688	34	5963
2026-01-22 16:59:11.24	346.18	88.75	-32.1	-32.8	28.3	0.00e+00	0	42	0	2325741568	34	7020
2026-01-22 16:59:12.25	325.68	89.10	-32.2	-32.7	28.9	0.00e+00	0	42	0	2332033024	38	5561
2026-01-22 16:59:13.26	290.14	89.24	-35.0	-35.9	28.3	0.00e+00	0	42	0	2337275904	36	8968
2026-01-22 16:59:14.27	256.55	89.06	-34.5	-35.5	28.8	0.00e+00	0	41	0	2342518784	40	6820
2026-01-22 16:59:15.28	238.08	88.68	-33.4	-34.2	22.0	0.00e+00	0	41	0	2348810240	40	5829
2026-01-22 16:59:16.29	228.40	88.23	-31.9	-32.5	28.8	0.00e+00	0	42	0	2354053120	38	5399
2026-01-22 16:59:17.30	222.75	87.75	-31.8	-32.4	28.7	0.00e+00	0	42	0	2360344576	36	6006
2026-01-22 16:59:18.31	219.12	87.25	-31.2	-31.8	28.4	0.00e+00	0	42	0	2365587456	36	5615
2026-01-22 16:59:19.32	216.61	86.75	-31.3	-31.9	29.1	0.00e+00	0	41	0	2370830336	36	5667
2026-01-22 16:59:20.33	214.77	86.24	-31.5	-32.1	29.0	0.00e+00	0	42	0	2377121792	36	5770
2026-01-22 16:59:21.34	213.37	85.73	-31.1	-31.7	29.4	0.00e+00	0	41	0	2382364672	36	5514
2026-01-22 16:59:22.35	212.28	85.22	-30.9	-31.5	29.5	0.00e+00	0	41	0	2388656128	36	5432
2026-01-22 16:59:23.36	211.40	84.71	-31.3	-31.9	28.9	0.00e+00	0	42	0	2393899008	36	5648
2026-01-22 16:59:24.37	210.67	84.19	-31.6	-32.2	28.9	0.00e+00	0	42	0	2399141888	36	5862
2026-01-22 16:59:25.38	210.06	83.68	-30.9	-31.5	29.3	0.00e+00	0	42	0	2405433344	34	6095
2026-01-22 16:59:26.39	209.55	83.17	-31.3	-32.0	29.2	0.00e+00	0	41	0	2410676224	34	6403
2026-01-22 16:59:27.40	209.11	82.66	-30.9	-31.5	29.2	0.00e+00	0	41	0	2416967680	34	6077
2026-01-22 16:59:28.41	208.72	82.15	-30.9	-31.5	29.6	0.00e+00	0	42	0	2422210560	34	6094
2026-01-22 16:59:29.42	208.39	81.64	-30.6	-31.2	29.8	0.00e+00	0	41	0	2428502016	34	5850
2026-01-22 16:59:30.43	208.09	81.13	-30.0	-30.6	30.0	0.00e+00	0	42	0	2433744896	34	5448
2026-01-22 16:59:31.44	207.83	80.62	-30.4	-31.0	29.7	0.00e+00	0	42	0	2440036352	34	5725
2026-01-22 16:59:32.45	207.59	80.11	-30.4	-31.0	29.6	0.00e+00	0	41	0	2445279232	34	5746
2026-01-22 16:59:33.46	207.38	79.60	-29.7	-30.3	29.9	0.00e+00	0	41	0	2450522112	34	5283
2026-01-22 16:59:34.47	207.19	79.10	-30.0	-30.6	30.0	0.00e+00	0	41	0	2456813568	32	6169
2026-01-22 16:59:35.48	207.01	78.59	-30.2	-30.8	29.8	0.00e+00	0	41	0	2462056448	32	6261
2026-01-22 16:59:36.49	206.86	78.09	-30.5	-31.1	29.5	0.00e+00	0	42	0	2468347904	32	6479
2026-01-22 16:59:37.51	206.71	77.58	-30.1	-30.7	29.8	0.00e+00	0	41	0	2473590784	32	6185
2026-01-22 16:59:38.52	206.58	77.08	-30.3	-30.9	29.7	0.00e+00	0	41	0	2478833664	32	6338
2026-01-22 16:59:39.53	206.45	76.59	-30.9	-31.5	29.5	0.00e+00	0	41	0	2485125120	32	6821
2026-01-22 16:59:40.53	206.34	76.09	-31.0	-31.7	29.3	0.00e+00	0	41	0	2490368000	34	6197
2026-01-22 16:59:41.54	206.24	75.60	-30.8	-31.5	29.4	0.00e+00	0	41	0	2496659456	34	6037
2026-01-22 16:59:42.56	206.14	75.10	-31.0	-31.5	29.2	0.00e+00	0	41	0	2501902336	34	6087
2026-01-22 16:59:43.57	206.05	74.61	-30.9	-31.6	29.1	0.00e+00	0	41	0	2507145216	34	6120
2026-01-22 16:59:44.57	205.96	74.13	-30.9	-31.5	29.1	0.00e+00	0	42	0	2513436672	34	6039
2026-01-22 16:59:45.58	205.88	73.64	-31.9	-32.5	28.5	0.00e+00	0	42	0	2518679552	36	6092
2026-01-22 16:59:46.59	205.81	73.15	-32.1	-32.7	28.6	0.00e+00	0	41	0	2524971008	36	6210
2026-01-22 16:59:47.60	205.74	72.67	-31.6	-32.2	29.1	0.00e+00	0	41	0	2530213888	36	5868
2026-01-22 16:59:48.61	205.67	72.19	-31.7	-32.4	28.5	0.00e+00	0	41	0	2536505344	36	5972
2026-01-22 16:59:49.62	205.61	71.71	-32.8	-33.5	28.0	0.00e+00	0	41	0	2541748224	38	6061
2026-01-22 16:59:50.64	205.55	71.23	-32.9	-33.6	28.0	0.00e+00	0	41	0	2546991104	38	6108
2026-01-22 16:59:51.64	205.50	70.76	-33.1	-33.7	27.8	0.00e+00	0	41	0	2553282560	38	6191
2026-01-22 16:59:52.65	205.45	70.28	-32.9	-33.5	28.1	0.00e+00	0	41	0	2558525440	38	6089
2026-01-22 16:59:53.66	205.40	69.81	-33.0	-33.6	27.8	0.00e+00	0	41	0	2564816896	38	6136
2026-01-22 16:59:54.67	205.35	69.34	-32.8	-33.4	27.9	0.00e+00	0	41	0	2570059776	38	6008
2026-01-22 16:59:55.68	205.31	68.88	-33.1	-33.6	28.1	0.00e+00	0	42	0	2575302656	38	6157
2026-01-22 16:59:56.69	205.27	68.41	-32.8	-33.5	28.0	0.00e+00	0	41	0	2581594112	38	6072
2026-01-22 16:59:57.70	205.23	67.95	-33.3	-34.0	28.1	0.00e+00	0	41	0	2586836992	38	6423
2026-01-22 16:59:58.71	205.19	67.49	-32.7	-33.3	28.4	0.00e+00	0	42	0	2593128448	38	5942
2026-01-22 16:59:59.72	205.15	67.04	-32.4	-33.0	28.0	0.00e+00	0	42	0	2598371328	38	5759
2026-01-22 17:00:00.73	205.12	66.58	-32.2	-32.8	28.3	0.00e+00	0	42	0	2603614208	38	5598
2026-01-22 17:00:01.74	205.08	66.13	-31.8	-32.5	28.5	0.00e+00	0	42	0	2609905664	36	6051
2026-01-22 17:00:02.75	205.05	65.68	-31.8	-32.4	28.5	0.00e+00	0	42	0	2615148544	36	6010
2026-01-22 17:00:03.76	205.02	65.23	-31.9	-32.4	28.5	0.00e+00	0	42	0	2621440000	36	6007
2026-01-22 17:00:04.77	204.99	64.79	-31.8	-32.4	28.5	0.00e+00	0	42	0	2626682880	36	5983
2026-01-22 17:00:05.78	204.97	64.35	-31.8	-32.4	28.5	0.00e+00	0	42	0	2632974336	36	6012
2026-01-22 17:00:06.79	204.94	63.91	-31.7	-32.4	28.7	0.00e+00	0	42	0	2638217216	36	5978
2026-01-22 17:00:07.80	204.91	63.47	-31.9	-32.5	28.4	0.00e+00	0	42	0	2643460096	36	6043
2026-01-22 17:00:08.81	204.89	63.04	-31.8	-32.5	28.5	0.00e+00	0	42	0	2649751552	36	6099
2026-01-22 17:00:09.83	204.87	62.61	-32.3	-32.8	28.3	0.00e+00	0	41	0	2654994432	36	6313
2026-01-22 17:00:10.83	204.85	62.18	-32.1	-32.7	28.2	0.00e+00	0	42	0	2661285888	36	6205
2026-01-22 17:00:11.84	204.82	61.76	-32.1	-32.8	28.2	0.00e+00	0	42	0	2666528768	36	6311
2026-01-22 17:00:12.85	204.80	61.33	-31.8	-32.5	28.5	0.00e+00	0	42	0	2672820224	36	6056
2026-01-22 17:00:13.86	204.78	60.91	-31.8	-32.3	28.6	0.00e+00	0	42	0	2678063104	36	5939
2026-01-22 17:00:14.87	204.76	60.49	-31.9	-32.6	28.4	0.00e+00	0	42	0	2683305984	36	6128
2026-01-22 17:00:15.88	204.75	60.08	-32.2	-32.8	28.3	0.00e+00	0	42	0	2689597440	36	6282
2026-01-22 17:00:16.89	204.73	59.67	-32.5	-33.2	28.1	0.00e+00	0	42	0	2694840320	36	6560
2026-01-22 17:00:17.90	204.71	59.26	-32.4	-33.1	28.1	0.00e+00	0	42	0	2701131776	36	6490
2026-01-22 17:00:18.91	204.70	58.85	-32.6	-33.3	27.9	0.00e+00	0	42	0	2706374656	36	6672
2026-01-22 17:00:19.91	204.68	58.45	-32.8	-33.5	27.9	0.00e+00	0	42	0	2711617536	38	6060
2026-01-22 17:00:20.92	204.67	58.05	-32.9	-33.4	27.8	0.00e+00	0	42	0	2717908992	38	6018
2026-01-22 17:00:21.94	204.65	57.65	-33.1	-33.8	27.5	0.00e+00	0	42	0	2723151872	38	6308
2026-01-22 17:00:22.94	204.64	57.25	-33.1	-33.8	27.2	0.00e+00	0	42	0	2729443328	38	6282
2026-01-22 17:00:23.95	204.62	56.86	-33.2	-33.7	27.1	0.00e+00	0	42	0	2734686208	38	6225
2026-01-22 17:00:24.96	204.61	56.47	-33.3	-34.0	27.1	0.00e+00	0	42	0	2740977664	38	6425
2026-01-22 17:00:25.97	204.60	56.08	-33.2	-33.9	27.1	0.00e+00	0	42	0	2746220544	38	6379
2026-01-22 17:00:26.98	204.59	55.70	-33.4	-34.1	27.1	0.00e+00	0	42	0	2751463424	38	6514
2026-01-22 17:00:27.99	204.57	55.32	-33.3	-34.0	27.2	0.00e+00	0	42	0	2757754880	38	6447
2026-01-22 17:00:29.00	204.56	54.94	-33.3	-34.0	27.3	0.00e+00	0	42	0	2762997760	38	6433
2026-01-22 17:00:30.01	204.55	54.56	-33.4	-33.9	27.2	0.00e+00	0	42	0	2769289216	38	6363
2026-01-22 17:00:31.02	204.54	54.19	-33.3	-33.9	27.4	0.00e+00	0	42	0	2774532096	38	6338
2026-01-22 17:00:32.03	204.53	53.81	-33.1	-33.7	27.6	0.00e+00	0	42	0	2779774976	38	6184
2026-01-22 17:00:33.04	204.52	53.44	-33.0	-33.6	27.6	0.00e+00	0	42	0	2786066432	38	6115
2026-01-22 17:00:34.05	204.51	53.08	-33.1	-33.6	27.5	0.00e+00	0	42	0	2791309312	38	6173
2026-01-22 17:00:35.06	204.50	52.71	-33.4	-34.0	27.4	0.00e+00	0	42	0	2797600768	38	6432
2026-01-22 17:00:36.07	204.50	52.35	-33.2	-33.9	27.5	0.00e+00	0	42	0	2802843648	38	6373
2026-01-22 17:00:37.07	204.49	52.00	-32.9	-33.6	27.7	0.00e+00	0	42	0	2808086528	38	6140
2026-01-22 17:00:38.08	204.48	51.64	-32.8	-33.5	27.8	0.00e+00	0	42	0	2814377984	38	6054
2026-01-22 17:00:39.10	204.47	51.29	-32.9	-33.6	27.8	0.00e+00	0	42	0	2819620864	38	6111
2026-01-22 17:00:40.10	204.46	50.94	-33.2	-33.7	27.5	0.00e+00	0	42	0	2825912320	38	6233
2026-01-22 17:00:41.11	204.46	50.59	-33.2	-33.9	27.5	0.00e+00	0	42	0	2831155200	38	6338
2026-01-22 17:00:42.12	204.45	50.25	-33.1	-33.7	27.5	0.00e+00	0	42	0	2837446656	38	6183
2026-01-22 17:00:43.13	204.44	49.90	-32.4	-33.1	27.9	0.00e+00	0	42	0	2842689536	38	5804
2026-01-22 17:00:44.14	204.43	49.56	-32.7	-33.3	27.8	0.00e+00	0	42	0	2847932416	38	5916
2026-01-22 17:00:45.15	204.43	49.23	-32.8	-33.3	27.8	0.00e+00	0	42	0	2854223872	38	5936
2026-01-22 17:00:46.16	204.42	48.89	-33.2	-33.8	27.5	0.00e+00	0	42	0	2859466752	38	6305
2026-01-22 17:00:47.17	204.42	48.56	-32.7	-33.4	27.7	0.00e+00	0	41	0	2865758208	38	6025
2026-01-22 17:00:48.18	204.41	48.23	-32.2	-32.9	28.2	0.00e+00	0	42	0	2871001088	38	5655
2026-01-22 17:00:49.18	204.40	47.90	-32.1	-32.6	28.2	0.00e+00	0	42	0	2876243968	38	5460
2026-01-22 17:00:50.19	204.40	47.58	-31.9	-32.4	28.4	0.00e+00	0	42	0	2882535424	38	5372
2026-01-22 17:00:51.20	204.39	47.26	-32.1	-32.7	28.2	0.00e+00	0	42	0	2887778304	38	5515
2026-01-22 17:00:52.21	204.39	46.94	-32.6	-33.3	27.9	0.00e+00	0	42	0	2894069760	38	5914
2026-01-22 17:00:53.22	204.38	46.62	-32.6	-33.1	27.8	0.00e+00	0	42	0	2899312640	38	5823
2026-01-22 17:00:54.23	204.38	46.30	-32.4	-33.0	28.0	0.00e+00	0	42	0	2904555520	38	5696
2026-01-22 17:00:55.24	204.37	45.99	-32.4	-33.1	27.9	0.00e+00	0	42	0	2910846976	38	5808
2026-01-22 17:00:56.25	204.37	45.68	-32.3	-32.9	28.0	0.00e+00	0	42	0	2916089856	38	5670
2026-01-22 17:00:57.26	204.37	45.37	-32.2	-32.8	28.1	0.00e+00	0	42	0	2922381312	38	5600
2026-01-22 17:00:58.27	204.36	45.07	-32.2	-32.9	28.1	0.00e+00	0	42	0	2927624192	38	5691
2026-01-22 17:00:59.28	204.36	44.76	-32.6	-33.1	27.8	0.00e+00	0	42	0	2933915648	38	5821
2026-01-22 17:01:00.29	204.35	44.46	-32.4	-33.0	27.9	0.00e+00	0	42	0	2939158528	38	5712
2026-01-22 17:01:01.29	204.35	44.17	-32.4	-33.0	28.0	0.00e+00	0	42	0	2944401408	38	5761
2026-01-22 17:01:02.30	204.35	43.87	-32.1	-32.7	28.2	0.00e+00	0	42	0	2950692864	38	5521
2026-01-22 17:01:03.32	204.34	43.57	-32.4	-32.9	28.1	0.00e+00	0	42	0	2955935744	38	5669
2026-01-22 17:01:04.32	204.34	43.28	-32.3	-32.9	28.0	0.00e+00	0	42	0	2962227200	38	5655
2026-01-22 17:01:05.34	204.34	42.99	-32.5	-33.0	28.0	0.00e+00	0	42	0	2967470080	38	5746
2026-01-22 17:01:06.34	204.33	42.70	-32.6	-33.2	27.9	0.00e+00	0	42	0	2973761536	38	5849
2026-01-22 17:01:07.35	204.33	42.42	-32.4	-33.1	28.0	0.00e+00	0	42	0	2979004416	38	5779
2026-01-22 17:01:08.36	204.33	42.14	-32.4	-33.1	28.0	0.00e+00	0	42	0	2984247296	38	5792
2026-01-22 17:01:09.37	204.33	41.85	-32.2	-32.9	28.2	0.00e+00	0	42	0	2990538752	38	5655
2026-01-22 17:01:10.37	204.32	41.58	-31.8	-32.4	28.4	0.00e+00	0	42	0	2995781632	38	5332
2026-01-22 17:01:11.38	204.32	41.30	-31.8	-32.3	28.4	0.00e+00	0	42	0	3001024512	38	5279
2026-01-22 17:01:12.39	204.32	41.03	-31.9	-32.5	28.5	0.00e+00	0	42	0	3007315968	38	5439
2026-01-22 17:01:13.40	204.32	40.75	-31.9	-32.5	28.3	0.00e+00	0	42	0	3012558848	38	5390
2026-01-22 17:01:14.41	204.31	40.48	-31.8	-32.3	28.4	0.00e+00	0	42	0	3018850304	38	5300
2026-01-22 17:01:15.42	204.31	40.21	-31.7	-32.2	28.5	0.00e+00	0	42	0	3024093184	36	5871
2026-01-22 17:01:16.43	204.31	39.95	-31.6	-32.2	28.6	0.00e+00	0	42	0	3029336064	36	5852
2026-01-22 17:01:17.44	204.31	39.68	-31.6	-32.2	28.7	0.00e+00	0	42	0	3035627520	36	5831
2026-01-22 17:01:18.45	204.31	39.42	-31.6	-32.1	28.6	0.00e+00	0	42	0	3040870400	36	5826
2026-01-22 17:01:19.46	204.30	39.16	-31.6	-32.1	28.6	0.00e+00	0	42	0	3047161856	36	5800
2026-01-22 17:01:20.47	204.30	38.90	-31.5	-32.1	28.7	0.00e+00	0	42	0	3052404736	36	5804
2026-01-22 17:01:21.48	204.30	38.64	-31.5	-32.1	28.6	0.00e+00	0	42	0	3058696192	36	5778
2026-01-22 17:01:22.49	204.30	38.39	-31.2	-31.7	28.8	0.00e+00	0	42	0	3063939072	36	5544
2026-01-22 17:01:23.50	204.30	38.14	-31.2	-31.8	28.8	0.00e+00	0	42	0	3070230528	36	5616
2026-01-22 17:01:24.51	204.30	37.88	-31.2	-31.8	28.9	0.00e+00	0	42	0	3075473408	36	5616
2026-01-22 17:01:25.52	204.30	37.64	-31.3	-32.0	28.8	0.00e+00	0	42	0	3080716288	36	5704
2026-01-22 17:01:26.52	204.30	37.39	-31.3	-32.0	28.7	0.00e+00	0	42	0	3087007744	36	5721
2026-01-22 17:01:27.53	204.29	37.14	-31.4	-32.1	28.7	0.00e+00	0	42	0	3092250624	36	5794
2026-01-22 17:01:28.54	204.29	36.90	-31.7	-32.4	28.6	0.00e+00	0	42	0	3098542080	36	5983
2026-01-22 17:01:29.55	204.29	36.66	-31.9	-32.6	28.4	0.00e+00	0	42	0	3103784960	36	6129
2026-01-22 17:01:30.55	204.29	36.42	-32.0	-32.8	28.3	0.00e+00	0	42	0	3109027840	36	6247
2026-01-22 17:01:31.57	204.29	36.18	-32.1	-32.8	28.2	0.00e+00	0	42	0	3115319296	36	6304
2026-01-22 17:01:32.58	204.29	35.94	-32.1	-32.8	28.3	0.00e+00	0	42	0	3120562176	36	6268
2026-01-22 17:01:33.59	204.29	35.71	-32.1	-32.8	28.2	0.00e+00	0	42	0	3125805056	36	6265
2026-01-22 17:01:34.60	204.29	35.48	-31.9	-32.4	28.3	0.00e+00	0	42	0	3132096512	36	6013
2026-01-22 17:01:35.61	204.29	35.24	-31.8	-32.4	28.4	0.00e+00	0	42	0	3137339392	36	5997
2026-01-22 17:01:36.62	204.29	35.01	-31.9	-32.4	28.6	0.00e+00	0	42	0	3143630848	36	6023
2026-01-22 17:01:37.63	204.29	34.79	-31.7	-32.4	28.6	0.00e+00	0	42	0	3148873728	36	5982
2026-01-22 17:01:38.64	204.29	34.56	-31.8	-32.3	28.6	0.00e+00	0	42	0	3155165184	36	5961
2026-01-22 17:01:39.65	204.29	34.33	-31.8	-32.3	28.6	0.00e+00	0	42	0	3160408064	36	5931
2026-01-22 17:01:40.66	204.29	34.11	-31.8	-32.3	28.5	0.00e+00	0	42	0	3166699520	36	5963
2026-01-22 17:01:41.67	204.29	33.89	-31.7	-32.2	28.5	0.00e+00	0	42	0	3171942400	36	5894
2026-01-22 17:01:42.68	204.28	33.67	-31.8	-32.3	28.5	0.00e+00	0	42	0	3177185280	36	5912
2026-01-22 17:01:43.69	204.28	33.45	-31.9	-32.4	28.3	0.00e+00	0	42	0	3183476736	36	5997
2026-01-22 17:01:44.70	204.28	33.23	-32.0	-32.5	28.2	0.00e+00	0	42	0	3188719616	36	6088
2026-01-22 17:01:45.71	204.28	33.02	-32.1	-32.7	28.2	0.00e+00	0	42	0	3195011072	36	6179
2026-01-22 17:01:46.72	204.28	32.80	-32.3	-32.8	28.1	0.00e+00	0	42	0	3200253952	36	6291
2026-01-22 17:01:47.73	204.28	32.59	-32.4	-33.0	28.0	0.00e+00	0	42	0	3205496832	36	6416
2026-01-22 17:01:48.74	204.28	32.38	-32.5	-33.1	27.9	0.00e+00	0	42	0	3211788288	36	6492
2026-01-22 17:01:49.75	204.28	32.17	-32.7	-33.3	27.7	0.00e+00	0	42	0	3217031168	38	5918
2026-01-22 17:01:50.76	204.29	31.96	-32.7	-33.2	27.8	0.00e+00	0	42	0	3223322624	38	5894
2026-01-22 17:01:51.77	204.29	31.76	-32.7	-33.3	27.7	0.00e+00	0	42	0	3228565504	38	5919
2026-01-22 17:01:52.78	204.29	31.55	-32.7	-33.3	27.7	0.00e+00	0	42	0	3233808384	38	5942
2026-01-22 17:01:53.79	204.29	31.35	-32.9	-33.5	27.6	0.00e+00	0	42	0	3240099840	38	6068
2026-01-22 17:01:54.80	204.29	31.15	-32.8	-33.3	27.7	0.00e+00	0	42	0	3245342720	38	5958
2026-01-22 17:01:55.81	204.29	30.94	-32.9	-33.5	27.7	0.00e+00	0	42	0	3251634176	38	6045
2026-01-22 17:01:56.82	204.29	30.74	-32.7	-33.3	27.7	0.00e+00	0	42	0	3256877056	38	5925
2026-01-22 17:01:57.83	204.29	30.55	-32.7	-33.3	27.6	0.00e+00	0	42	0	3263168512	38	5928
2026-01-22 17:01:58.84	204.29	30.35	-32.7	-33.3	27.7	0.00e+00	0	42	0	3268411392	38	5924
2026-01-22 17:01:59.85	204.29	30.15	-32.7	-33.4	27.8	0.00e+00	0	42	0	3274702848	38	5989
2026-01-22 17:02:00.86	204.29	29.96	-32.8	-33.5	27.7	0.00e+00	0	42	0	3279945728	38	6093
2026-01-22 17:02:01.87	204.29	29.77	-32.5	-33.1	27.9	0.00e+00	0	42	0	3285188608	38	5788
2026-01-22 17:02:02.88	204.29	29.58	-32.5	-33.1	27.8	0.00e+00	0	42	0	3291480064	38	5771
2026-01-22 17:02:03.89	204.29	29.39	-32.5	-33.0	27.9	0.00e+00	0	42	0	3296722944	38	5736
2026-01-22 17:02:04.90	204.29	29.20	-32.4	-33.0	28.0	0.00e+00	0	42	0	3303014400	38	5709
2026-01-22 17:02:05.91	204.29	29.01	-32.3	-32.8	28.0	0.00e+00	0	42	0	3308257280	38	5627
2026-01-22 17:02:06.92	204.29	28.82	-32.3	-32.8	28.1	0.00e+00	0	42	0	3313500160	38	5610
2026-01-22 17:02:07.93	204.29	28.64	-32.1	-32.8	28.2	0.00e+00	0	42	0	3319791616	38	5598
2026-01-22 17:02:08.94	204.29	28.45	-32.1	-32.7	28.1	0.00e+00	0	42	0	3325034496	38	5558
2026-01-22 17:02:09.95	204.30	28.27	-32.0	-32.7	28.2	0.00e+00	0	42	0	3331325952	38	5509
2026-01-22 17:02:10.96	204.30	28.09	-32.1	-32.8	28.1	0.00e+00	0	42	0	3336568832	38	5586
2026-01-22 17:02:11.97	204.30	27.91	-32.1	-32.6	28.1	0.00e+00	0	42	0	3341811712	38	5478
2026-01-22 17:02:12.98	204.30	27.73	-32.0	-32.5	28.4	0.00e+00	0	42	0	3348103168	38	5415
2026-01-22 17:02:13.98	204.30	27.55	-32.1	-32.8	28.1	0.00e+00	0	42	0	3353346048	38	5581
2026-01-22 17:02:14.99	204.30	27.38	-31.9	-32.5	28.4	0.00e+00	0	41	0	3359637504	38	5428
2026-01-22 17:02:16.01	204.30	27.20	-31.8	-32.5	28.4	0.00e+00	0	42	0	3364880384	38	5392
2026-01-22 17:02:17.01	204.30	27.02	-31.9	-32.5	28.4	0.00e+00	0	42	0	3371171840	38	5436
2026-01-22 17:02:18.03	204.30	26.85	-31.9	-32.6	28.3	0.00e+00	0	42	0	3376414720	38	5466
2026-01-22 17:02:19.04	204.30	26.68	-31.9	-32.6	28.3	0.00e+00	0	42	0	3382706176	38	5495
2026-01-22 17:02:20.05	204.31	26.51	-32.2	-32.9	28.1	0.00e+00	0	42	0	3387949056	38	5669
2026-01-22 17:02:21.06	204.31	26.34	-32.3	-33.0	28.1	0.00e+00	0	42	0	3393191936	38	5708
2026-01-22 17:02:22.06	204.31	26.17	-32.3	-33.0	28.1	0.00e+00	0	42	0	3399483392	38	5709
2026-01-22 17:02:23.07	204.31	26.00	-32.1	-32.8	28.2	0.00e+00	0	42	0	3404726272	38	5596
2026-01-22 17:02:24.08	204.31	25.83	-32.2	-32.9	28.1	0.00e+00	0	42	0	3409969152	38	5682
2026-01-22 17:02:25.09	204.31	25.67	-32.2	-32.9	28.2	0.00e+00	0	42	0	3416260608	38	5676
2026-01-22 17:02:26.11	204.31	25.50	-32.3	-33.0	28.0	0.00e+00	0	41	0	3421503488	38	5749
2026-01-22 17:02:27.12	204.31	25.34	-32.4	-33.1	27.9	0.00e+00	0	42	0	3427794944	38	5813
2026-01-22 17:02:28.13	204.32	25.17	-32.5	-33.1	27.8	0.00e+00	0	42	0	3433037824	38	5812
2026-01-22 17:02:29.14	204.32	25.01	-32.6	-33.2	27.8	0.00e+00	0	42	0	3439329280	38	5846
2026-01-22 17:02:30.15	204.32	24.85	-32.8	-33.3	27.8	0.00e+00	0	42	0	3444572160	38	5951
2026-01-22 17:02:31.16	204.32	24.69	-32.8	-33.4	27.6	0.00e+00	0	42	0	3449815040	38	5997
2026-01-22 17:02:32.16	204.32	24.53	-32.6	-33.1	27.8	0.00e+00	0	42	0	3456106496	38	5823
2026-01-22 17:02:33.18	204.32	24.37	-32.7	-33.3	27.7	0.00e+00	0	42	0	3461349376	38	5899
2026-01-22 17:02:34.19	204.32	24.22	-32.8	-33.3	27.6	0.00e+00	0	42	0	3467640832	38	5963
2026-01-22 17:02:35.20	204.33	24.06	-32.6	-33.1	27.8	0.00e+00	0	42	0	3472883712	38	5827
2026-01-22 17:02:36.20	204.33	23.91	-32.6	-33.1	27.8	0.00e+00	0	42	0	3479175168	38	5822
2026-01-22 17:02:37.21	204.33	23.75	-32.6	-33.2	27.8	0.00e+00	0	42	0	3484418048	38	5845
2026-01-22 17:02:38.22	204.33	23.60	-32.7	-33.3	27.7	0.00e+00	0	41	0	3489660928	38	5921
2026-01-22 17:02:39.23	204.33	23.44	-32.7	-33.4	27.7	0.00e+00	0	42	0	3495952384	38	6010
2026-01-22 17:02:40.24	204.33	23.29	-32.8	-33.5	27.7	0.00e+00	0	41	0	3501195264	38	6046
2026-01-22 17:02:41.25	204.33	23.14	-32.8	-33.5	27.6	0.00e+00	0	42	0	3507486720	38	6041
2026-01-22 17:02:42.26	204.34	22.99	-32.8	-33.5	27.6	0.00e+00	0	42	0	3512729600	38	6075
2026-01-22 17:02:43.27	204.34	22.84	-32.9	-33.6	27.5	0.00e+00	0	42	0	3517972480	38	6131
2026-01-22 17:02:44.28	204.34	22.70	-33.1	-33.8	27.4	0.00e+00	0	41	0	3524263936	38	6314
2026-01-22 17:02:45.29	204.34	22.55	-33.0	-33.7	27.5	0.00e+00	0	41	0	3529506816	38	6177
2026-01-22 17:02:46.30	204.34	22.40	-33.0	-33.7	27.5	0.00e+00	0	42	0	3535798272	38	6190
2026-01-22 17:02:47.31	204.34	22.26	-33.0	-33.7	27.4	0.00e+00	0	41	0	3541041152	38	6188
2026-01-22 17:02:48.32	204.35	22.11	-33.1	-33.8	27.3	0.00e+00	0	41	0	3546284032	38	6287
2026-01-22 17:02:49.33	204.35	21.97	-33.1	-33.8	27.4	0.00e+00	0	41	0	3552575488	38	6292
2026-01-22 17:02:50.34	204.35	21.82	-33.2	-33.9	27.2	0.00e+00	0	41	0	3557818368	38	6332
2026-01-22 17:02:51.35	204.35	21.68	-33.3	-34.0	27.2	0.00e+00	0	41	0	3564109824	38	6408
2026-01-22 17:02:52.37	204.35	21.54	-33.3	-34.0	27.1	0.00e+00	0	41	0	3569352704	38	6450
2026-01-22 17:02:53.37	204.35	21.40	-33.6	-34.1	26.9	0.00e+00	0	41	0	3575644160	38	6528
2026-01-22 17:02:54.38	204.36	21.26	-33.4	-34.0	27.1	0.00e+00	0	41	0	3580887040	38	6397
2026-01-22 17:02:55.39	204.36	21.12	-33.3	-33.9	27.1	0.00e+00	0	41	0	3587178496	38	6351
2026-01-22 17:02:56.40	204.36	20.98	-33.5	-34.2	27.0	0.00e+00	0	41	0	3592421376	38	6575
2026-01-22 17:02:57.41	204.36	20.84	-33.4	-33.9	27.1	0.00e+00	0	41	0	3597664256	38	6386
2026-01-22 17:02:58.42	204.36	20.71	-33.4	-34.0	27.0	0.00e+00	0	41	0	3603955712	38	6432
2026-01-22 17:02:59.43	204.37	20.57	-33.5	-34.1	26.9	0.00e+00	0	41	0	3609198592	38	6511
2026-01-22 17:03:00.44	204.37	20.43	-33.5	-34.1	26.9	0.00e+00	0	41	0	3615490048	38	6514
2026-01-22 17:03:01.45	204.37	20.30	-33.7	-34.3	26.7	0.00e+00	0	41	0	3620732928	38	6672
