passes_logs/2026/01/22/R4.6S_Anadyr/R4.6S_Anadyr__20260122_195551_AQUA_rec.log

#Pass ID: 20260122_195551_AQUA
#Satellite: AQUA
#Configuration: AQUA
#almurnet v.1.7.20251203
#Start time: 2026-01-22 19:55:53

#Version: 2.2.20231116
#Station: R4.6S_Anadyr
#Location: 177.4865 lon 64.73178 lat
#TLE: 1 27424U 02022A   26021.53721517  .00002456  00000+0  50140-3 0  9996
#TLE: 2 27424  98.4098 348.0744 0002012  70.1009  46.1672 14.61843091261845

#Time	Az	El	Level	Level2	SNR	BER	BlckErr	Temp	State	Recorded	gain1	gain2
2026-01-22 19:55:53.41	33.87	0.09	-51.1	-66.0	3.5	1.51e+00	0	38	0	0	60	72037
2026-01-22 19:55:54.41	33.79	0.14	-51.8	-69.7	3.5	3.02e+01	0	39	104	0	60	117289
2026-01-22 19:55:55.42	33.70	0.19	-51.8	-69.6	3.5	3.02e+01	0	39	104	0	60	116808
2026-01-22 19:55:56.43	33.61	0.24	-51.9	-69.7	3.5	3.02e+01	0	39	104	0	60	116917
2026-01-22 19:55:57.44	33.53	0.29	-51.8	-69.7	3.5	3.02e+01	0	40	104	0	60	117217
2026-01-22 19:55:58.45	33.44	0.34	-51.7	-69.6	3.5	3.02e+01	0	40	104	0	60	116401
2026-01-22 19:55:59.46	33.35	0.39	-51.8	-69.7	3.5	3.02e+01	0	40	104	0	60	116970
2026-01-22 19:56:00.47	33.26	0.44	-51.7	-69.6	3.5	3.02e+01	0	40	104	0	60	115862
2026-01-22 19:56:01.47	33.18	0.49	-51.7	-69.6	3.5	3.02e+01	0	40	104	0	60	116069
2026-01-22 19:56:02.48	33.09	0.54	-51.8	-69.6	3.5	3.02e+01	0	40	104	0	60	116085
2026-01-22 19:56:03.49	33.00	0.59	-51.7	-69.6	3.5	3.02e+01	0	40	104	0	60	115787
2026-01-22 19:56:04.50	32.91	0.64	-51.6	-69.5	3.5	3.02e+01	0	40	104	0	60	114921
2026-01-22 19:56:05.51	32.82	0.69	-51.6	-69.5	3.5	3.02e+01	0	40	104	0	60	114368
2026-01-22 19:56:06.52	32.73	0.74	-51.5	-69.5	3.5	3.02e+01	0	40	104	0	60	114493
2026-01-22 19:56:07.53	32.64	0.79	-51.6	-69.4	3.5	3.02e+01	0	40	104	0	60	113369
2026-01-22 19:56:08.55	32.54	0.84	-51.5	-69.3	3.5	3.02e+01	0	40	104	0	60	112687
2026-01-22 19:56:09.56	32.45	0.89	-51.4	-69.3	3.5	3.02e+01	0	40	104	0	60	112368
2026-01-22 19:56:10.57	32.36	0.94	-51.3	-69.2	3.5	3.02e+01	0	40	104	0	60	110465
2026-01-22 19:56:11.58	32.27	1.00	-51.2	-69.1	3.5	3.02e+01	0	40	104	0	60	109204
2026-01-22 19:56:12.59	32.18	1.05	-51.2	-69.0	3.5	3.02e+01	0	40	104	0	60	108940
2026-01-22 19:56:13.60	32.08	1.10	-50.7	-68.9	3.5	3.02e+01	0	40	104	0	60	107717
2026-01-22 19:56:14.61	31.99	1.15	-50.9	-68.9	3.5	3.02e+01	0	40	104	0	60	107027
2026-01-22 19:56:15.62	31.90	1.20	-50.8	-68.7	3.5	3.02e+01	0	40	104	0	60	104601
2026-01-22 19:56:16.63	31.80	1.25	-50.6	-68.5	3.5	3.02e+01	0	40	104	0	60	102396
2026-01-22 19:56:17.64	31.71	1.30	-50.4	-68.2	3.5	3.02e+01	0	40	104	0	60	99491
2026-01-22 19:56:18.65	31.62	1.35	-50.0	-68.0	3.5	3.02e+01	0	40	104	0	60	96127
2026-01-22 19:56:19.66	31.52	1.40	-50.0	-67.9	3.5	3.02e+01	0	40	104	0	60	95724
2026-01-22 19:56:20.67	31.42	1.45	-50.0	-67.9	3.5	3.02e+01	0	40	104	0	60	95929
2026-01-22 19:56:21.68	31.33	1.50	-50.0	-68.0	3.5	3.02e+01	0	40	104	0	60	96122
2026-01-22 19:56:22.69	31.23	1.55	-49.9	-67.9	3.5	3.02e+01	0	40	104	0	60	95527
2026-01-22 19:56:23.70	31.14	1.60	-49.9	-67.9	3.5	3.02e+01	0	40	104	0	60	95802
2026-01-22 19:56:24.71	31.04	1.65	-49.9	-67.9	3.5	3.02e+01	0	40	104	0	60	95598
2026-01-22 19:56:25.72	30.94	1.70	-49.9	-67.9	3.5	3.02e+01	0	40	104	0	60	95721
2026-01-22 19:56:26.73	30.85	1.75	-49.9	-67.9	3.5	3.02e+01	0	40	104	0	60	95873
2026-01-22 19:56:27.74	30.75	1.81	-49.9	-67.9	3.5	3.02e+01	0	40	104	0	60	95500
2026-01-22 19:56:28.75	30.65	1.86	-49.9	-67.9	3.5	3.02e+01	0	40	104	0	60	95130
2026-01-22 19:56:29.75	30.55	1.91	-49.9	-67.8	3.5	3.02e+01	0	40	104	0	60	94867
2026-01-22 19:56:30.76	30.45	1.96	-49.9	-67.8	3.5	3.02e+01	0	40	104	0	60	94627
2026-01-22 19:56:31.77	30.35	2.01	-49.9	-67.8	3.5	3.02e+01	0	40	104	0	60	94360
2026-01-22 19:56:32.78	30.25	2.06	-49.9	-67.8	3.5	3.02e+01	0	40	104	0	60	94099
2026-01-22 19:56:33.79	30.15	2.11	-49.9	-67.8	3.5	3.02e+01	0	40	104	0	60	94085
2026-01-22 19:56:34.80	30.05	2.16	-49.9	-67.7	3.5	3.02e+01	0	40	104	0	60	93455
2026-01-22 19:56:35.81	29.95	2.21	-49.9	-67.8	3.5	3.02e+01	0	40	104	0	60	93932
2026-01-22 19:56:36.82	29.85	2.26	-49.9	-67.7	3.5	3.02e+01	0	40	104	0	60	93462
2026-01-22 19:56:37.83	29.75	2.32	-49.9	-67.6	3.5	3.02e+01	0	40	104	0	60	91893
2026-01-22 19:56:38.84	29.65	2.37	-49.8	-67.4	3.5	3.02e+01	0	40	104	0	60	90719
2026-01-22 19:56:39.85	29.54	2.42	-49.8	-67.5	3.5	3.02e+01	0	40	104	0	60	91717
2026-01-22 19:56:40.86	29.44	2.47	-49.9	-67.8	3.5	3.02e+01	0	40	104	0	60	94001
2026-01-22 19:56:41.87	29.34	2.52	-49.9	-67.9	3.5	3.02e+01	0	40	104	0	60	95264
2026-01-22 19:56:42.88	29.23	2.57	-49.9	-67.8	3.5	3.02e+01	0	40	104	0	60	93972
2026-01-22 19:56:43.89	29.13	2.62	-49.9	-67.6	3.5	3.02e+01	0	40	104	0	60	92824
2026-01-22 19:56:44.90	29.02	2.67	-49.9	-67.7	3.5	3.02e+01	0	40	104	0	60	93329
2026-01-22 19:56:45.91	28.92	2.72	-49.9	-67.8	3.5	3.02e+01	0	40	104	0	60	94497
2026-01-22 19:56:46.92	28.81	2.78	-49.8	-67.5	3.5	3.02e+01	0	40	104	0	60	91391
2026-01-22 19:56:47.93	28.71	2.83	-49.8	-67.0	3.5	3.02e+01	0	40	104	0	60	86147
2026-01-22 19:56:48.94	28.60	2.88	-49.7	-66.7	3.5	3.02e+01	0	40	104	0	60	83659
2026-01-22 19:56:49.95	28.49	2.93	-49.8	-67.2	3.5	3.02e+01	0	40	104	0	60	88603
2026-01-22 19:56:50.96	28.39	2.98	-49.8	-67.1	3.5	3.02e+01	0	40	104	0	60	87477
2026-01-22 19:56:51.97	28.28	3.03	-49.1	-64.3	3.5	3.02e+01	0	40	104	0	60	63175
2026-01-22 19:56:52.98	28.17	3.08	-49.7	-66.7	3.5	3.02e+01	0	40	104	0	60	83190
2026-01-22 19:56:53.99	28.06	3.14	-47.7	-60.5	3.5	3.02e+01	0	40	104	0	60	40791
2026-01-22 19:56:55.00	27.95	3.19	-49.8	-67.6	3.5	3.02e+01	0	40	104	0	60	92474
2026-01-22 19:56:56.01	27.84	3.24	-49.9	-67.3	3.5	3.02e+01	0	40	104	0	60	88951
2026-01-22 19:56:57.02	27.73	3.29	-42.4	-53.2	3.5	3.02e+01	0	40	104	0	60	17549
2026-01-22 19:56:58.03	27.62	3.34	-42.7	-53.5	3.5	3.02e+01	0	40	104	0	58	20338
2026-01-22 19:56:59.04	27.51	3.39	-42.1	-52.8	3.5	3.02e+01	0	40	104	0	58	18799
2026-01-22 19:57:00.05	27.40	3.44	-42.1	-52.7	3.5	3.02e+01	0	40	104	0	58	18581
2026-01-22 19:57:01.06	27.29	3.50	-41.4	-52.0	3.5	3.02e+01	0	40	104	0	58	17118
2026-01-22 19:57:02.07	27.18	3.55	-43.1	-53.9	3.5	3.02e+01	0	40	104	0	60	19130
2026-01-22 19:57:03.08	27.07	3.60	-46.8	-59.0	3.5	3.02e+01	0	40	104	0	60	34116
2026-01-22 19:57:04.08	26.95	3.65	-49.9	-67.0	3.5	3.02e+01	0	40	104	0	60	86344
2026-01-22 19:57:05.09	26.84	3.70	-42.3	-53.0	3.5	3.02e+01	0	40	104	0	60	17093
2026-01-22 19:57:06.10	26.73	3.75	-49.9	-67.7	3.5	3.02e+01	0	40	104	0	60	93059
2026-01-22 19:57:07.11	26.61	3.80	-42.5	-53.2	3.5	3.02e+01	0	40	104	0	60	17532
2026-01-22 19:57:08.12	26.50	3.86	-42.6	-53.3	3.5	3.02e+01	0	40	104	0	60	17878
2026-01-22 19:57:09.14	26.38	3.91	-42.5	-53.1	3.5	3.02e+01	0	40	104	0	60	17381
2026-01-22 19:57:10.14	26.27	3.96	-41.4	-51.9	3.5	3.02e+01	0	40	104	0	58	16979
2026-01-22 19:57:11.15	26.15	4.01	-49.1	-63.5	3.5	3.02e+01	0	40	104	0	60	57589
2026-01-22 19:57:12.16	26.03	4.06	-45.7	-57.2	3.5	3.02e+01	0	40	104	0	60	27965
2026-01-22 19:57:13.17	25.92	4.11	-50.0	-67.2	3.5	3.02e+01	0	40	104	0	60	87896
2026-01-22 19:57:14.18	25.80	4.17	-40.9	-51.3	3.5	3.02e+01	0	40	104	0	58	15897
2026-01-22 19:57:15.19	25.68	4.22	-50.1	-67.6	3.5	3.02e+01	0	40	104	0	60	92182
2026-01-22 19:57:16.20	25.56	4.27	-42.2	-52.7	3.5	3.02e+01	0	40	104	0	60	16696
2026-01-22 19:57:17.21	25.44	4.32	-41.5	-52.1	3.6	3.02e+01	0	40	104	0	58	17359
2026-01-22 19:57:18.22	25.33	4.37	-41.1	-51.6	3.5	3.02e+01	0	40	104	0	56	18387
2026-01-22 19:57:19.23	25.21	4.42	-40.5	-50.9	3.6	3.02e+01	0	40	104	0	56	17018
2026-01-22 19:57:20.24	25.09	4.48	-47.3	-59.8	3.6	3.02e+01	0	40	104	0	60	37701
2026-01-22 19:57:21.25	24.96	4.53	-45.6	-57.1	3.5	3.02e+01	0	40	104	0	60	27450
2026-01-22 19:57:22.26	24.84	4.58	-50.2	-67.3	3.5	3.02e+01	0	40	104	0	60	89048
2026-01-22 19:57:23.27	24.72	4.63	-40.6	-50.9	3.5	3.02e+01	0	41	104	0	56	17008
2026-01-22 19:57:24.28	24.60	4.68	-50.1	-67.7	3.5	3.02e+01	0	41	104	0	60	93292
2026-01-22 19:57:25.29	24.48	4.73	-40.9	-51.4	3.5	3.02e+01	0	40	104	0	58	15969
2026-01-22 19:57:26.30	24.35	4.79	-40.0	-50.3	3.5	3.02e+01	0	40	104	0	56	15939
2026-01-22 19:57:27.31	24.23	4.84	-40.2	-50.5	3.5	3.02e+01	0	41	104	0	54	18218
2026-01-22 19:57:28.31	24.11	4.89	-40.7	-51.1	3.5	3.02e+01	0	40	104	0	54	19464
2026-01-22 19:57:29.32	23.98	4.94	-44.3	-55.3	3.5	3.02e+01	0	41	104	0	60	22310
2026-01-22 19:57:30.33	23.86	4.99	-46.0	-57.4	3.5	3.02e+01	0	41	104	0	60	28608
2026-01-22 19:57:31.34	23.73	5.04	-50.2	-68.0	3.5	3.02e+01	0	41	104	0	60	96180
2026-01-22 19:57:32.35	23.61	5.10	-40.4	-50.8	3.5	3.02e+01	0	40	104	0	56	16810
2026-01-22 19:57:33.36	23.48	5.15	-50.3	-67.9	3.5	3.02e+01	0	40	104	0	60	95225
2026-01-22 19:57:34.37	23.35	5.20	-41.1	-51.5	3.5	3.02e+01	0	41	104	0	58	16307
2026-01-22 19:57:35.38	23.22	5.25	-40.8	-51.3	3.5	3.02e+01	0	41	104	0	58	15858
2026-01-22 19:57:36.39	23.10	5.30	-41.4	-51.8	3.5	3.02e+01	0	41	104	0	56	18855
2026-01-22 19:57:37.40	22.97	5.35	-40.5	-51.0	3.5	3.02e+01	0	41	104	0	56	17093
2026-01-22 19:57:38.40	22.84	5.40	-42.1	-52.7	3.5	3.02e+01	0	41	104	0	60	16597
2026-01-22 19:57:39.41	22.71	5.46	-46.3	-57.9	3.5	3.02e+01	0	40	104	0	60	30256
2026-01-22 19:57:40.42	22.58	5.51	-49.4	-64.1	3.6	3.02e+01	0	41	104	0	60	61444
2026-01-22 19:57:41.43	22.45	5.56	-44.0	-54.8	3.7	3.02e+01	0	41	104	0	56	26641
2026-01-22 19:57:42.44	22.32	5.61	-49.9	-66.0	3.5	3.02e+01	0	41	104	0	60	77184
2026-01-22 19:57:43.45	22.19	5.66	-41.7	-52.2	3.5	3.02e+01	0	41	104	0	58	17577
2026-01-22 19:57:44.46	22.05	5.71	-40.9	-51.4	3.5	3.02e+01	0	41	104	0	58	15957
2026-01-22 19:57:45.47	21.92	5.76	-40.9	-51.3	3.5	3.02e+01	0	41	104	0	56	17741
2026-01-22 19:57:46.48	21.79	5.82	-45.1	-56.3	3.5	3.02e+01	0	40	104	0	60	25110
2026-01-22 19:57:47.49	21.65	5.87	-49.7	-64.5	3.5	3.02e+01	0	41	104	0	60	64615
2026-01-22 19:57:48.50	21.52	5.92	-48.9	-62.6	3.5	3.02e+01	0	41	104	0	60	51871
2026-01-22 19:57:49.51	21.38	5.97	-50.3	-66.9	3.5	3.02e+01	0	41	104	0	60	85223
2026-01-22 19:57:50.52	21.25	6.02	-47.3	-59.5	3.6	3.02e+01	0	41	104	0	60	36459
2026-01-22 19:57:51.53	21.11	6.07	-40.9	-51.3	3.5	3.02e+01	0	41	104	0	56	17812
2026-01-22 19:57:52.54	20.98	6.12	-40.9	-51.3	3.6	3.02e+01	0	41	104	0	56	17785
2026-01-22 19:57:53.55	20.84	6.17	-40.6	-51.0	3.5	3.02e+01	0	41	104	0	56	17198
2026-01-22 19:57:54.56	20.70	6.23	-40.1	-50.4	3.5	3.02e+01	0	41	104	0	56	16088
2026-01-22 19:57:55.57	20.56	6.28	-39.7	-50.0	3.5	3.02e+01	0	41	104	0	54	17246
2026-01-22 19:57:56.58	20.43	6.33	-42.4	-52.9	3.6	3.02e+01	0	41	104	0	56	21274
2026-01-22 19:57:57.59	20.29	6.38	-50.5	-67.8	3.5	3.02e+01	0	41	104	0	60	94293
2026-01-22 19:57:58.60	20.15	6.43	-47.9	-60.5	3.6	3.02e+01	0	41	104	0	60	40736
2026-01-22 19:57:59.61	20.01	6.48	-46.3	-57.9	3.5	3.02e+01	0	41	104	0	58	33955
2026-01-22 19:58:00.62	19.87	6.53	-50.3	-66.8	3.5	3.02e+01	0	41	104	0	60	84377
2026-01-22 19:58:01.62	19.73	6.58	-45.1	-56.3	3.5	3.02e+01	0	41	104	0	60	25108
2026-01-22 19:58:02.63	19.58	6.63	-43.3	-54.0	3.5	3.02e+01	0	41	104	0	60	19319
2026-01-22 19:58:03.64	19.44	6.68	-43.5	-54.2	3.5	3.02e+01	0	41	104	0	60	19841
2026-01-22 19:58:04.65	19.30	6.73	-45.3	-56.5	3.5	3.02e+01	0	41	104	0	60	25719
2026-01-22 19:58:05.66	19.15	6.78	-42.3	-52.8	3.5	3.02e+01	0	41	104	0	58	18933
2026-01-22 19:58:06.67	19.01	6.84	-50.6	-68.0	3.5	3.02e+01	0	41	104	0	60	96858
2026-01-22 19:58:07.68	18.87	6.89	-44.5	-55.6	3.5	3.02e+01	0	41	104	0	60	23105
2026-01-22 19:58:08.69	18.72	6.94	-50.4	-67.9	3.5	3.02e+01	0	41	104	0	60	95870
2026-01-22 19:58:09.70	18.57	6.99	-45.3	-56.5	3.5	3.02e+01	0	41	104	0	60	25579
2026-01-22 19:58:10.71	18.43	7.04	-41.4	-51.9	3.6	3.02e+01	0	41	104	0	58	17001
2026-01-22 19:58:11.72	18.28	7.09	-40.7	-51.1	3.5	3.02e+01	0	41	104	0	56	17393
2026-01-22 19:58:12.74	18.13	7.14	-40.1	-50.5	3.6	3.02e+01	0	41	104	0	56	16198
2026-01-22 19:58:13.75	17.98	7.19	-46.1	-57.7	3.5	3.02e+01	0	41	104	0	60	29464
2026-01-22 19:58:14.76	17.84	7.24	-41.8	-52.3	3.5	3.02e+01	0	41	104	0	56	19998
2026-01-22 19:58:15.77	17.69	7.29	-50.5	-67.5	3.5	3.02e+01	0	41	104	0	60	91745
2026-01-22 19:58:16.78	17.54	7.34	-40.7	-51.0	3.6	3.02e+01	0	41	104	0	58	15392
2026-01-22 19:58:17.78	17.39	7.39	-50.6	-68.2	3.5	3.02e+01	0	41	104	0	60	99167
2026-01-22 19:58:18.79	17.24	7.44	-41.9	-52.4	3.5	3.02e+01	0	41	104	0	60	16128
2026-01-22 19:58:19.80	17.08	7.49	-40.9	-51.3	3.5	3.02e+01	0	41	104	0	56	17847
2026-01-22 19:58:20.81	16.93	7.54	-39.6	-49.9	3.5	3.02e+01	0	41	104	0	54	17007
2026-01-22 19:58:21.82	16.78	7.59	-39.5	-49.8	3.5	3.02e+01	0	41	104	0	54	16754
2026-01-22 19:58:22.83	16.63	7.64	-49.3	-63.2	3.5	3.02e+01	0	41	104	0	60	55828
2026-01-22 19:58:23.84	16.47	7.69	-43.5	-54.3	3.5	3.02e+01	0	41	104	0	58	22383
2026-01-22 19:58:24.85	16.32	7.74	-50.5	-67.3	3.5	3.02e+01	0	41	104	0	60	89573
2026-01-22 19:58:25.86	16.16	7.79	-40.5	-50.9	3.5	3.02e+01	0	41	104	0	56	16914
2026-01-22 19:58:26.87	16.01	7.83	-50.6	-68.2	3.5	3.02e+01	0	41	104	0	60	98516
2026-01-22 19:58:27.87	15.85	7.88	-41.5	-52.0	3.5	3.02e+01	0	41	104	0	60	15288
2026-01-22 19:58:28.88	15.70	7.93	-40.7	-51.1	3.5	3.02e+01	0	41	104	0	56	17361
2026-01-22 19:58:29.89	15.54	7.98	-40.0	-50.3	3.5	3.02e+01	0	41	104	0	54	17775
2026-01-22 19:58:30.90	15.38	8.03	-39.5	-49.8	3.5	3.02e+01	0	41	104	0	54	16741
2026-01-22 19:58:31.91	15.22	8.08	-48.8	-62.3	3.5	3.02e+01	0	41	104	0	60	49928
2026-01-22 19:58:32.92	15.06	8.13	-43.9	-54.7	3.5	3.02e+01	0	41	104	0	60	21000
2026-01-22 19:58:33.93	14.90	8.18	-50.6	-67.4	3.5	3.02e+01	0	41	104	0	60	90727
2026-01-22 19:58:34.93	14.75	8.23	-40.4	-50.8	3.5	3.02e+01	0	41	104	0	56	16791
2026-01-22 19:58:35.95	14.58	8.27	-50.7	-68.3	3.5	3.02e+01	0	41	104	0	60	100543
2026-01-22 19:58:36.95	14.42	8.32	-40.7	-51.1	3.5	3.02e+01	0	41	104	0	56	17330
2026-01-22 19:58:37.96	14.26	8.37	-40.5	-50.9	3.5	3.02e+01	0	41	104	0	56	16965
2026-01-22 19:58:38.98	14.10	8.42	-41.1	-51.5	3.5	3.02e+01	0	41	104	0	56	18307
2026-01-22 19:58:39.99	13.93	8.47	-41.1	-51.5	3.5	3.02e+01	0	41	104	0	56	18191
2026-01-22 19:58:41.00	13.77	8.52	-50.7	-67.9	3.5	3.02e+01	0	41	104	0	60	95825
2026-01-22 19:58:42.01	13.61	8.56	-45.3	-56.4	3.5	3.02e+01	0	41	104	0	60	25312
2026-01-22 19:58:43.02	13.44	8.61	-50.7	-67.6	3.5	3.02e+01	0	41	104	0	60	92569
2026-01-22 19:58:44.03	13.27	8.66	-40.2	-50.5	3.5	3.02e+01	0	41	104	0	56	16212
2026-01-22 19:58:45.04	13.11	8.71	-50.7	-68.5	3.5	3.02e+01	0	41	104	0	60	102435
2026-01-22 19:58:46.05	12.94	8.75	-39.5	-49.8	3.5	3.02e+01	0	41	104	0	54	16884
2026-01-22 19:58:47.06	12.77	8.80	-39.2	-49.5	3.5	3.02e+01	0	41	104	0	54	16214
2026-01-22 19:58:48.07	12.61	8.85	-39.2	-49.5	3.5	3.02e+01	0	41	104	0	54	16248
2026-01-22 19:58:49.08	12.44	8.89	-39.1	-49.4	3.5	3.02e+01	0	41	104	0	52	18034
2026-01-22 19:58:50.09	12.27	8.94	-50.7	-67.9	3.5	3.02e+01	0	41	104	0	60	95840
2026-01-22 19:58:51.10	12.10	8.99	-45.5	-56.6	3.5	3.02e+01	0	41	104	0	60	25988
2026-01-22 19:58:52.11	11.93	9.04	-50.7	-67.6	3.5	3.02e+01	0	41	104	0	60	92851
2026-01-22 19:58:53.12	11.76	9.08	-40.6	-51.0	3.6	3.02e+01	0	41	104	0	56	17176
2026-01-22 19:58:54.12	11.59	9.13	-50.7	-68.2	3.5	3.02e+01	0	41	104	0	60	98873
2026-01-22 19:58:55.13	11.41	9.17	-41.3	-51.7	3.5	3.02e+01	0	41	104	0	58	16695
2026-01-22 19:58:56.14	11.24	9.22	-41.4	-51.8	3.5	3.02e+01	0	41	104	0	58	16841
2026-01-22 19:58:57.15	11.07	9.27	-40.3	-50.7	3.5	3.02e+01	0	41	104	0	56	16558
2026-01-22 19:58:58.16	10.89	9.31	-39.7	-50.0	3.5	3.02e+01	0	41	104	0	54	17213
2026-01-22 19:58:59.17	10.72	9.36	-50.4	-66.6	3.5	3.02e+01	0	41	104	0	60	82323
2026-01-22 19:59:00.18	10.54	9.40	-45.0	-56.1	3.5	3.02e+01	0	41	104	0	60	24472
2026-01-22 19:59:01.19	10.37	9.45	-50.7	-67.7	3.5	3.02e+01	0	41	104	0	60	92973
2026-01-22 19:59:02.20	10.19	9.49	-50.8	-68.4	3.5	3.02e+01	0	41	104	0	60	100828
2026-01-22 19:59:03.21	10.02	9.54	-40.6	-51.0	3.5	3.02e+01	0	41	104	0	56	17248
2026-01-22 19:59:04.22	9.84	9.58	-40.7	-51.0	3.5	3.02e+01	0	41	104	0	56	17236
2026-01-22 19:59:05.23	9.66	9.63	-39.3	-49.5	3.5	3.02e+01	0	41	104	0	54	16312
2026-01-22 19:59:06.24	9.48	9.67	-39.3	-49.5	3.5	3.02e+01	0	41	104	0	54	16294
2026-01-22 19:59:07.25	9.30	9.72	-38.7	-49.0	3.5	3.02e+01	0	41	104	0	52	17174
2026-01-22 19:59:08.26	9.12	9.76	-38.9	-49.1	3.5	3.02e+01	0	41	104	0	52	17426
2026-01-22 19:59:09.27	8.94	9.81	-46.7	-58.3	3.5	3.02e+01	0	41	104	0	60	31568
2026-01-22 19:59:10.28	8.76	9.85	-50.9	-68.6	3.5	3.02e+01	0	41	104	0	60	103401
2026-01-22 19:59:11.29	8.58	9.89	-39.2	-49.4	3.5	3.02e+01	0	41	104	0	52	18024
2026-01-22 19:59:12.30	8.39	9.94	-50.7	-68.3	3.5	3.02e+01	0	41	104	0	60	99812
2026-01-22 19:59:13.31	8.21	9.98	-39.1	-49.3	3.5	3.02e+01	0	41	104	0	54	15901
2026-01-22 19:59:14.32	8.03	10.02	-38.9	-49.1	3.6	3.02e+01	0	41	104	0	52	17481
2026-01-22 19:59:15.33	7.84	10.07	-38.8	-49.1	3.6	3.02e+01	0	41	104	0	52	17322
2026-01-22 19:59:16.34	7.66	10.11	-38.9	-49.2	3.6	3.02e+01	0	41	104	0	52	17562
2026-01-22 19:59:17.35	7.47	10.15	-46.9	-58.7	3.5	3.02e+01	0	41	104	0	60	33277
2026-01-22 19:59:18.36	7.29	10.20	-46.6	-58.1	3.5	3.02e+01	0	41	104	0	60	31050
2026-01-22 19:59:19.37	7.10	10.24	-49.7	-64.1	3.5	3.02e+01	0	41	104	0	60	61923
2026-01-22 19:59:20.38	6.91	10.28	-40.1	-50.4	3.4	3.02e+01	0	41	104	0	54	18099
2026-01-22 19:59:21.39	6.73	10.32	-50.7	-67.5	3.5	3.02e+01	0	41	104	0	60	91204
2026-01-22 19:59:22.40	6.54	10.36	-40.8	-51.3	3.5	3.02e+01	0	41	104	0	58	15769
2026-01-22 19:59:23.41	6.35	10.40	-40.6	-51.0	3.5	3.02e+01	0	41	104	0	56	17145
2026-01-22 19:59:24.42	6.16	10.45	-39.7	-50.1	3.5	3.02e+01	0	41	104	0	54	17327
2026-01-22 19:59:25.43	5.97	10.49	-42.6	-53.2	3.5	3.02e+01	0	41	104	0	54	24874
2026-01-22 19:59:26.45	5.78	10.53	-48.7	-61.7	3.5	3.02e+01	0	41	104	0	60	46575
2026-01-22 19:59:27.45	5.59	10.57	-47.8	-60.0	3.5	3.02e+01	0	41	104	0	60	38343
2026-01-22 19:59:28.47	5.39	10.61	-50.6	-66.8	3.5	3.02e+01	0	41	104	0	60	84152
2026-01-22 19:59:29.48	5.20	10.65	-47.8	-60.1	3.6	3.02e+01	0	41	104	0	60	38826
2026-01-22 19:59:30.49	5.01	10.69	-41.6	-52.1	3.5	3.02e+01	0	41	104	0	58	17293
2026-01-22 19:59:31.50	4.81	10.73	-41.6	-52.0	3.5	3.02e+01	0	41	104	0	58	17269
2026-01-22 19:59:32.51	4.62	10.77	-41.7	-52.1	3.5	3.02e+01	0	41	104	0	58	17380
2026-01-22 19:59:33.52	4.42	10.81	-40.7	-51.1	3.5	3.02e+01	0	41	104	0	56	17340
2026-01-22 19:59:34.53	4.23	10.85	-41.4	-51.9	3.5	3.02e+01	0	41	104	0	56	19047
2026-01-22 19:59:35.54	4.03	10.89	-44.9	-55.9	3.5	3.02e+01	0	41	104	0	60	23960
2026-01-22 19:59:36.55	3.84	10.92	-49.7	-63.8	3.5	3.02e+01	0	41	104	0	60	59281
2026-01-22 19:59:37.56	3.64	10.96	-48.3	-60.9	3.5	3.02e+01	0	41	104	0	60	42527
2026-01-22 19:59:38.57	3.44	11.00	-48.4	-61.0	3.5	3.02e+01	0	41	104	0	60	43182
2026-01-22 19:59:39.58	3.24	11.04	-47.8	-59.8	3.6	3.02e+01	0	41	104	0	60	37721
2026-01-22 19:59:40.59	3.04	11.08	-40.2	-50.5	3.5	3.02e+01	0	41	104	0	56	16322
2026-01-22 19:59:41.60	2.85	11.11	-39.5	-49.7	3.5	3.02e+01	0	41	104	0	54	16675
2026-01-22 19:59:42.61	2.65	11.15	-39.4	-49.7	3.5	3.02e+01	0	41	104	0	54	16614
2026-01-22 19:59:43.62	2.45	11.19	-48.8	-61.9	3.5	3.02e+01	0	41	104	0	60	47892
2026-01-22 19:59:44.63	2.24	11.22	-45.5	-56.7	3.6	3.02e+01	0	41	104	0	60	26434
2026-01-22 19:59:45.64	2.04	11.26	-50.7	-67.3	3.5	3.02e+01	0	41	104	0	60	88734
2026-01-22 19:59:46.65	1.84	11.30	-51.1	-68.9	3.5	3.02e+01	0	41	104	0	60	106835
2026-01-22 19:59:47.65	1.64	11.33	-40.6	-51.0	3.6	3.02e+01	0	41	104	0	60	13608
2026-01-22 19:59:48.66	1.44	11.37	-40.1	-50.4	3.5	3.02e+01	0	41	104	0	54	18048
2026-01-22 19:59:49.67	1.23	11.40	-40.6	-50.9	3.5	3.02e+01	0	41	104	0	54	19098
2026-01-22 19:59:50.68	1.03	11.44	-41.4	-51.8	3.6	3.02e+01	0	41	104	0	56	18893
2026-01-22 19:59:51.69	0.82	11.47	-41.1	-51.5	3.5	3.02e+01	0	41	104	0	56	18247
2026-01-22 19:59:52.70	0.62	11.51	-40.0	-50.3	3.6	3.02e+01	0	41	104	0	56	15830
2026-01-22 19:59:53.71	0.41	11.54	-46.3	-57.6	3.5	3.02e+01	0	41	104	0	60	29274
2026-01-22 19:59:54.72	0.21	11.57	-51.1	-68.7	3.5	3.02e+01	0	41	104	0	60	105160
2026-01-22 19:59:55.73	0.00	11.61	-40.4	-50.8	3.5	3.02e+01	0	41	104	0	58	15037
2026-01-22 19:59:56.74	359.79	11.64	-50.8	-67.4	3.5	3.02e+01	0	41	104	0	60	89996
2026-01-22 19:59:57.75	359.58	11.67	-42.9	-53.5	3.5	3.02e+01	0	41	104	0	60	18143
2026-01-22 19:59:58.76	359.38	11.71	-39.6	-49.9	3.5	3.02e+01	0	41	104	0	54	17033
2026-01-22 19:59:59.77	359.17	11.74	-39.1	-49.4	3.5	3.02e+01	0	41	104	0	54	15972
2026-01-22 20:00:00.78	358.96	11.77	-38.9	-49.2	3.5	3.02e+01	0	41	104	0	52	17563
2026-01-22 20:00:01.79	358.75	11.80	-50.9	-67.6	3.5	3.02e+01	0	41	104	0	60	92406
2026-01-22 20:00:02.80	358.54	11.83	-41.5	-52.0	3.5	3.02e+01	0	41	104	0	60	15279
2026-01-22 20:00:03.81	358.33	11.87	-50.9	-68.0	3.5	3.02e+01	0	41	104	0	60	96734
2026-01-22 20:00:04.82	358.12	11.90	-50.3	-65.6	3.5	3.02e+01	0	41	104	0	60	73616
2026-01-22 20:00:05.83	357.90	11.93	-40.4	-50.8	3.5	3.02e+01	0	41	104	0	54	18917
2026-01-22 20:00:06.84	357.69	11.96	-40.4	-50.7	3.5	3.02e+01	0	41	104	0	56	16690
2026-01-22 20:00:07.84	357.48	11.99	-40.9	-51.3	3.5	3.02e+01	0	41	104	0	56	17717
2026-01-22 20:00:08.85	357.27	12.02	-40.8	-51.2	3.5	3.02e+01	0	41	104	0	56	17554
2026-01-22 20:00:09.86	357.05	12.04	-40.8	-51.2	3.5	3.02e+01	0	41	104	0	56	17606
2026-01-22 20:00:10.87	356.84	12.07	-40.3	-50.6	3.5	3.02e+01	0	41	104	0	54	18450
2026-01-22 20:00:11.88	356.63	12.10	-50.3	-65.5	3.5	3.02e+01	0	41	104	0	60	72829
2026-01-22 20:00:12.89	356.41	12.13	-51.0	-68.6	3.5	3.02e+01	0	41	104	0	60	103643
2026-01-22 20:00:13.90	356.19	12.16	-39.9	-50.2	3.5	3.02e+01	0	41	104	0	56	15671
2026-01-22 20:00:14.91	355.98	12.19	-51.0	-68.4	3.5	3.02e+01	0	41	104	0	60	101782
2026-01-22 20:00:15.92	355.76	12.21	-41.9	-52.3	3.5	3.02e+01	0	41	104	0	60	15816
2026-01-22 20:00:16.92	355.55	12.24	-40.7	-51.0	3.5	3.02e+01	0	41	104	0	56	17186
2026-01-22 20:00:17.93	355.33	12.27	-39.4	-49.7	3.5	3.02e+01	0	41	104	0	54	16560
2026-01-22 20:00:18.94	355.11	12.29	-39.0	-49.2	3.5	3.02e+01	0	41	104	0	52	17544
2026-01-22 20:00:19.95	354.89	12.32	-50.9	-68.1	3.5	3.02e+01	0	41	104	0	60	97894
2026-01-22 20:00:20.96	354.68	12.34	-39.1	-49.3	3.5	3.02e+01	0	41	104	0	54	15947
2026-01-22 20:00:21.97	354.46	12.37	-51.0	-68.8	3.5	3.02e+01	0	41	104	0	60	105588
2026-01-22 20:00:22.98	354.24	12.39	-48.5	-61.3	3.5	3.02e+01	0	41	104	0	60	44749
2026-01-22 20:00:23.99	354.02	12.42	-43.8	-54.6	3.5	3.02e+01	0	41	104	0	60	20571
2026-01-22 20:00:25.00	353.80	12.44	-40.8	-51.1	3.6	3.02e+01	0	41	104	0	56	17418
2026-01-22 20:00:26.01	353.58	12.46	-40.4	-50.7	3.5	3.02e+01	0	41	104	0	56	16682
2026-01-22 20:00:27.02	353.36	12.49	-39.8	-50.0	3.6	3.02e+01	0	41	104	0	54	17181
2026-01-22 20:00:28.03	353.14	12.51	-39.6	-49.8	3.6	3.02e+01	0	41	104	0	54	16796
2026-01-22 20:00:29.04	352.91	12.53	-39.3	-40.9	5.2	3.02e+01	0	41	104	0	52	6795
2026-01-22 20:00:30.05	352.69	12.56	-38.6	-40.0	28.3	3.02e+01	62	41	0	0	52	6071
2026-01-22 20:00:31.06	352.47	12.58	-51.1	-68.5	3.5	3.02e+01	0	41	104	1048576	60	101967
2026-01-22 20:00:32.07	352.25	12.60	-45.4	-48.1	20.3	3.02e+01	56	41	104	1048576	60	9730
2026-01-22 20:00:33.08	352.02	12.62	-45.6	-48.0	20.7	3.02e+01	59	41	0	2097152	60	9663
2026-01-22 20:00:34.09	351.80	12.64	-39.7	-41.1	27.1	3.02e+01	59	41	0	3670016	54	6155
2026-01-22 20:00:35.10	351.58	12.66	-39.1	-40.4	27.7	3.02e+01	59	41	0	5767168	54	5670
2026-01-22 20:00:36.11	351.35	12.68	-38.7	-40.0	28.1	3.02e+01	56	41	0	7340032	52	6094
2026-01-22 20:00:37.12	351.13	12.70	-38.3	-39.5	28.5	3.02e+01	62	41	0	9437184	52	5775
2026-01-22 20:00:38.13	350.90	12.72	-38.4	-39.7	28.3	3.02e+01	52	41	0	11534336	52	5893
2026-01-22 20:00:39.14	350.68	12.74	-38.3	-39.6	28.4	3.02e+01	59	41	0	13107200	52	5802
2026-01-22 20:00:40.15	350.45	12.75	-38.5	-39.8	28.2	3.02e+01	58	41	0	15204352	52	5957
2026-01-22 20:00:41.16	350.23	12.77	-38.5	-39.8	28.2	3.02e+01	47	41	0	17301504	52	5969
2026-01-22 20:00:42.17	350.00	12.79	-38.5	-39.8	28.2	3.02e+01	53	41	0	18874368	52	5952
2026-01-22 20:00:43.18	349.78	12.81	-38.5	-39.7	28.4	3.02e+01	59	41	0	20971520	52	5903
2026-01-22 20:00:44.19	349.55	12.82	-38.5	-39.8	28.2	3.02e+01	60	41	0	22544384	52	5966
2026-01-22 20:00:45.20	349.32	12.84	-38.5	-39.8	28.2	3.02e+01	60	41	0	24641536	52	5944
2026-01-22 20:00:46.21	349.10	12.86	-38.4	-39.7	28.3	3.02e+01	49	41	0	26738688	52	5878
2026-01-22 20:00:47.22	348.87	12.87	-38.6	-39.9	28.2	3.02e+01	57	41	0	28311552	52	6031
2026-01-22 20:00:48.23	348.64	12.89	-38.5	-39.7	28.3	3.02e+01	61	41	0	30408704	52	5907
2026-01-22 20:00:49.24	348.41	12.90	-38.7	-40.0	28.1	3.02e+01	46	41	0	32505856	52	6081
2026-01-22 20:00:50.25	348.18	12.91	-38.5	-39.7	28.3	3.02e+01	58	41	0	34078720	52	5920
2026-01-22 20:00:51.26	347.96	12.93	-38.6	-39.8	28.2	3.02e+01	58	41	0	36175872	52	5978
2026-01-22 20:00:52.27	347.73	12.94	-38.5	-39.7	28.3	3.02e+01	57	41	0	37748736	52	5903
2026-01-22 20:00:53.28	347.50	12.95	-38.6	-39.9	28.2	3.02e+01	63	41	0	39845888	52	6009
2026-01-22 20:00:54.29	347.27	12.97	-38.6	-39.8	28.2	3.02e+01	61	41	0	41943040	52	5978
2026-01-22 20:00:55.30	347.04	12.98	-38.7	-39.9	28.1	3.02e+01	60	41	0	43515904	52	6042
2026-01-22 20:00:56.31	346.81	12.99	-38.5	-39.8	28.2	3.02e+01	58	41	0	45613056	52	5934
2026-01-22 20:00:57.32	346.58	13.00	-38.4	-39.7	28.3	3.02e+01	48	41	0	47185920	52	5880
2026-01-22 20:00:58.33	346.35	13.01	-38.5	-39.7	28.4	3.02e+01	61	41	0	49283072	52	5898
2026-01-22 20:00:59.34	346.12	13.02	-38.5	-39.8	28.3	3.02e+01	59	41	0	51380224	52	5940
2026-01-22 20:01:00.35	345.89	13.03	-38.5	-39.8	28.3	3.02e+01	61	41	0	52953088	52	5933
2026-01-22 20:01:01.36	345.66	13.04	-38.6	-39.9	28.2	3.02e+01	60	41	0	55050240	52	6018
2026-01-22 20:01:02.36	345.43	13.05	-38.7	-40.0	28.1	3.02e+01	41	41	0	56623104	52	6077
2026-01-22 20:01:03.37	345.20	13.06	-38.7	-39.9	28.1	3.02e+01	58	41	0	58720256	52	6052
2026-01-22 20:01:04.38	344.97	13.07	-38.5	-39.8	28.3	3.02e+01	59	41	0	60817408	52	5929
2026-01-22 20:01:05.39	344.74	13.08	-38.4	-39.7	28.3	3.02e+01	47	41	0	62390272	52	5864
2026-01-22 20:01:06.40	344.51	13.08	-38.5	-39.7	28.3	3.02e+01	61	41	0	64487424	52	5900
2026-01-22 20:01:07.41	344.28	13.09	-38.5	-39.8	28.3	3.02e+01	62	41	0	66060288	52	5936
2026-01-22 20:01:08.42	344.05	13.10	-38.6	-39.8	28.2	3.02e+01	59	41	0	68157440	52	5982
2026-01-22 20:01:09.43	343.82	13.10	-38.6	-39.9	28.2	3.02e+01	59	41	0	70254592	52	6032
2026-01-22 20:01:10.43	343.59	13.11	-38.6	-39.9	28.1	3.02e+01	60	41	0	71827456	52	6031
2026-01-22 20:01:11.45	343.35	13.11	-38.6	-39.8	28.2	3.02e+01	58	41	0	73924608	52	5983
2026-01-22 20:01:12.46	343.12	13.12	-38.7	-39.9	28.2	3.02e+01	61	41	0	75497472	52	6063
2026-01-22 20:01:13.47	342.89	13.12	-38.6	-39.9	28.2	3.02e+01	47	41	0	77594624	52	6040
2026-01-22 20:01:14.48	342.66	13.13	-38.6	-39.9	28.2	3.02e+01	56	41	0	79691776	52	6001
2026-01-22 20:01:15.49	342.43	13.13	-39.0	-40.3	28.0	3.02e+01	47	41	0	81264640	52	6306
2026-01-22 20:01:16.50	342.20	13.13	-39.0	-40.3	27.6	3.02e+01	60	41	0	83361792	52	6325
2026-01-22 20:01:17.51	341.96	13.14	-39.3	-40.6	27.6	3.02e+01	58	41	0	85458944	52	6517
2026-01-22 20:01:18.52	341.73	13.14	-39.3	-40.6	27.3	3.02e+01	47	41	0	87031808	52	6535
2026-01-22 20:01:19.53	341.50	13.14	-39.0	-40.3	27.8	3.02e+01	63	41	0	89128960	52	6317
2026-01-22 20:01:20.54	341.27	13.14	-39.2	-40.6	27.5	3.02e+01	61	41	0	90701824	52	6501
2026-01-22 20:01:21.55	341.04	13.14	-39.5	-40.8	27.5	3.02e+01	54	41	0	92798976	52	6688
2026-01-22 20:01:22.56	340.80	13.14	-39.5	-40.8	27.4	3.02e+01	58	41	0	94896128	54	5936
2026-01-22 20:01:23.57	340.57	13.14	-40.0	-41.4	27.2	3.02e+01	58	41	0	96468992	54	6395
2026-01-22 20:01:24.58	340.34	13.14	-39.6	-40.9	27.0	3.02e+01	55	41	0	98566144	54	6024
2026-01-22 20:01:25.59	340.11	13.14	-39.9	-41.2	27.3	3.02e+01	59	41	0	100663296	54	6272
2026-01-22 20:01:26.60	339.88	13.14	-39.4	-40.8	27.4	3.02e+01	49	41	0	102236160	54	5934
2026-01-22 20:01:27.61	339.64	13.14	-39.6	-40.9	27.3	3.02e+01	58	41	0	104333312	54	6021
2026-01-22 20:01:28.61	339.41	13.14	-39.2	-40.5	27.8	3.02e+01	58	41	0	105906176	54	5756
2026-01-22 20:01:29.63	339.18	13.13	-39.5	-40.8	27.1	3.02e+01	58	41	0	108003328	54	5977
2026-01-22 20:01:30.64	338.95	13.13	-39.3	-40.6	27.8	3.02e+01	59	41	0	110100480	54	5836
2026-01-22 20:01:31.65	338.72	13.13	-38.9	-40.2	27.9	3.02e+01	59	41	0	111673344	52	6248
2026-01-22 20:01:32.66	338.48	13.12	-38.8	-40.1	28.1	3.02e+01	58	41	0	113770496	52	6174
2026-01-22 20:01:33.67	338.25	13.12	-38.7	-40.0	28.1	3.02e+01	60	41	0	115343360	52	6067
2026-01-22 20:01:34.68	338.02	13.11	-38.8	-40.0	28.1	3.02e+01	45	41	0	117440512	52	6115
2026-01-22 20:01:35.69	337.79	13.11	-38.9	-40.1	28.0	3.02e+01	59	41	0	119537664	52	6194
2026-01-22 20:01:36.70	337.56	13.10	-38.5	-39.8	28.3	3.02e+01	56	41	0	121110528	52	5959
2026-01-22 20:01:37.70	337.33	13.10	-38.6	-39.8	28.3	3.02e+01	58	41	0	123207680	52	5983
2026-01-22 20:01:38.71	337.10	13.09	-38.8	-40.1	28.1	3.02e+01	61	41	0	124780544	52	6156
2026-01-22 20:01:39.72	336.87	13.08	-38.7	-40.0	28.2	3.02e+01	57	41	0	126877696	52	6072
2026-01-22 20:01:40.73	336.64	13.08	-38.8	-40.1	28.1	3.02e+01	59	41	0	128974848	52	6149
2026-01-22 20:01:41.74	336.41	13.07	-38.8	-40.1	28.1	3.02e+01	64	41	0	130547712	52	6174
2026-01-22 20:01:42.75	336.17	13.06	-38.6	-39.9	28.3	3.02e+01	46	41	0	132644864	52	6001
2026-01-22 20:01:43.76	335.94	13.05	-38.8	-40.0	28.2	3.02e+01	54	41	0	134217728	52	6118
2026-01-22 20:01:44.77	335.71	13.04	-38.7	-40.0	28.2	3.02e+01	57	41	0	136314880	52	6072
2026-01-22 20:01:45.78	335.48	13.03	-38.7	-40.0	28.2	3.02e+01	61	41	0	138412032	52	6115
2026-01-22 20:01:46.79	335.25	13.02	-38.7	-40.0	28.0	3.02e+01	60	41	0	139984896	52	6113
2026-01-22 20:01:47.80	335.02	13.01	-38.7	-40.0	28.1	3.02e+01	56	41	0	142082048	52	6100
2026-01-22 20:01:48.81	334.79	13.00	-38.6	-39.8	28.2	3.02e+01	59	41	0	143654912	52	5985
2026-01-22 20:01:49.82	334.56	12.99	-38.6	-39.9	28.3	3.02e+01	61	41	0	145752064	52	6029
2026-01-22 20:01:50.83	334.33	12.98	-38.7	-40.0	28.1	3.02e+01	58	41	0	147849216	52	6067
2026-01-22 20:01:51.84	334.11	12.96	-38.7	-40.0	28.2	3.02e+01	59	41	0	149422080	52	6075
2026-01-22 20:01:52.85	333.88	12.95	-38.8	-40.1	28.1	3.02e+01	46	41	0	151519232	52	6175
2026-01-22 20:01:53.86	333.65	12.94	-38.6	-39.9	28.2	3.02e+01	59	41	0	153616384	52	6014
2026-01-22 20:01:54.87	333.42	12.93	-38.8	-40.1	28.0	3.02e+01	60	41	0	155189248	52	6192
2026-01-22 20:01:55.88	333.19	12.91	-38.9	-40.2	28.0	3.02e+01	44	41	0	157286400	52	6244
2026-01-22 20:01:56.88	332.96	12.90	-39.0	-40.3	27.9	3.02e+01	58	41	0	158859264	52	6329
2026-01-22 20:01:57.89	332.74	12.88	-38.8	-40.1	28.0	3.02e+01	56	41	0	160956416	52	6136
2026-01-22 20:01:58.90	332.51	12.87	-38.8	-40.1	28.1	3.02e+01	59	41	0	163053568	52	6156
2026-01-22 20:01:59.91	332.28	12.85	-39.1	-40.4	27.8	3.02e+01	62	41	0	164626432	52	6351
2026-01-22 20:02:00.92	332.06	12.84	-38.7	-39.9	28.2	3.02e+01	58	41	0	166723584	52	6051
2026-01-22 20:02:01.93	331.83	12.82	-38.8	-40.1	28.0	3.02e+01	61	41	0	168820736	52	6145
2026-01-22 20:02:02.94	331.60	12.80	-38.6	-39.9	28.3	3.02e+01	56	41	0	170393600	52	6025
2026-01-22 20:02:03.95	331.38	12.79	-39.0	-40.3	27.9	3.02e+01	50	41	0	172490752	52	6307
2026-01-22 20:02:04.96	331.15	12.77	-38.8	-40.1	28.1	3.02e+01	59	41	0	174063616	52	6176
2026-01-22 20:02:05.97	330.92	12.75	-38.9	-40.2	28.0	3.02e+01	53	41	0	176160768	52	6230
2026-01-22 20:02:06.98	330.70	12.73	-38.6	-39.9	28.2	3.02e+01	59	41	0	178257920	52	6026
2026-01-22 20:02:07.99	330.47	12.71	-38.7	-39.9	28.2	3.02e+01	59	41	0	179830784	52	6062
2026-01-22 20:02:09.00	330.25	12.70	-38.7	-40.0	28.2	3.02e+01	47	41	0	181927936	52	6072
2026-01-22 20:02:10.01	330.02	12.68	-38.7	-40.0	28.1	3.02e+01	62	41	0	183500800	52	6088
2026-01-22 20:02:11.01	329.80	12.66	-39.0	-40.3	27.9	3.02e+01	61	41	0	185597952	52	6304
2026-01-22 20:02:12.02	329.58	12.64	-39.0	-40.2	27.9	3.02e+01	44	41	0	187695104	52	6265
2026-01-22 20:02:13.03	329.35	12.62	-39.1	-40.4	27.7	3.02e+01	60	41	0	189267968	52	6402
2026-01-22 20:02:14.04	329.13	12.59	-39.3	-40.6	27.5	3.02e+01	65	41	0	191365120	52	6566
2026-01-22 20:02:15.05	328.91	12.57	-39.1	-40.4	27.7	3.02e+01	61	41	0	192937984	52	6368
2026-01-22 20:02:16.06	328.69	12.55	-39.5	-40.8	27.4	3.02e+01	56	41	0	195035136	52	6709
2026-01-22 20:02:17.07	328.46	12.53	-39.1	-40.4	27.8	3.02e+01	53	41	0	197132288	52	6399
2026-01-22 20:02:18.08	328.24	12.51	-39.4	-40.7	27.3	3.02e+01	60	41	0	198705152	52	6598
2026-01-22 20:02:19.09	328.02	12.48	-39.3	-40.6	27.6	3.02e+01	58	41	0	200802304	52	6570
2026-01-22 20:02:20.10	327.80	12.46	-39.6	-40.9	27.3	3.02e+01	59	41	0	202375168	52	6748
2026-01-22 20:02:21.11	327.58	12.44	-39.8	-41.2	27.2	3.02e+01	59	41	0	204472320	52	7008
2026-01-22 20:02:22.12	327.36	12.41	-39.4	-40.7	27.6	3.02e+01	50	41	0	206569472	52	6602
2026-01-22 20:02:23.13	327.14	12.39	-39.4	-40.7	27.5	3.02e+01	61	41	0	208142336	52	6628
2026-01-22 20:02:24.14	326.92	12.36	-39.5	-40.8	27.4	3.02e+01	59	41	0	210239488	52	6710
2026-01-22 20:02:25.15	326.70	12.34	-39.4	-40.7	27.6	3.02e+01	45	41	0	211812352	52	6635
2026-01-22 20:02:26.16	326.48	12.31	-39.7	-41.1	27.3	3.02e+01	57	41	0	213909504	52	6909
2026-01-22 20:02:27.17	326.26	12.29	-39.2	-40.5	27.5	3.02e+01	57	41	0	216006656	52	6461
2026-01-22 20:02:28.18	326.05	12.26	-39.4	-40.7	27.4	3.02e+01	56	41	0	217579520	52	6614
2026-01-22 20:02:29.19	325.83	12.23	-39.4	-40.7	27.5	3.02e+01	59	41	0	219676672	52	6645
2026-01-22 20:02:30.19	325.61	12.21	-39.2	-40.5	27.7	3.02e+01	47	41	0	221773824	52	6483
2026-01-22 20:02:31.21	325.40	12.18	-38.8	-40.1	27.9	3.02e+01	61	41	0	223346688	52	6160
2026-01-22 20:02:32.21	325.18	12.15	-39.0	-40.3	28.0	3.02e+01	57	41	0	225443840	52	6300
2026-01-22 20:02:33.22	324.97	12.13	-38.8	-40.0	28.1	3.02e+01	51	41	0	227016704	52	6129
2026-01-22 20:02:34.23	324.75	12.10	-38.9	-40.1	28.0	3.02e+01	58	41	0	229113856	52	6178
2026-01-22 20:02:35.24	324.54	12.07	-39.1	-40.4	27.8	3.02e+01	58	41	0	231211008	52	6361
2026-01-22 20:02:36.25	324.32	12.04	-39.0	-40.3	27.9	3.02e+01	59	41	0	232783872	52	6318
2026-01-22 20:02:37.26	324.11	12.01	-39.0	-40.3	27.9	3.02e+01	59	41	0	234881024	52	6320
2026-01-22 20:02:38.27	323.89	11.98	-38.9	-40.2	28.0	3.02e+01	49	41	0	236453888	52	6255
2026-01-22 20:02:39.28	323.68	11.95	-39.2	-40.6	27.5	3.02e+01	57	41	0	238551040	52	6514
2026-01-22 20:02:40.29	323.47	11.92	-38.6	-39.9	28.2	3.02e+01	60	41	0	240648192	52	6011
2026-01-22 20:02:41.30	323.26	11.89	-39.2	-40.5	27.6	3.02e+01	49	41	0	242221056	52	6438
2026-01-22 20:02:42.30	323.05	11.86	-38.3	-39.5	28.4	3.02e+01	63	41	0	244318208	52	5782
2026-01-22 20:02:43.31	322.84	11.83	-39.0	-40.3	27.9	3.02e+01	59	41	0	245891072	52	6294
2026-01-22 20:02:44.32	322.63	11.80	-38.8	-40.1	28.0	3.02e+01	54	41	0	247988224	52	6174
2026-01-22 20:02:45.34	322.41	11.76	-39.2	-40.5	27.7	3.02e+01	59	41	0	250085376	52	6472
2026-01-22 20:02:46.35	322.21	11.73	-39.2	-40.5	27.8	3.02e+01	48	41	0	251658240	52	6441
2026-01-22 20:02:47.36	322.00	11.70	-38.8	-40.1	28.1	3.02e+01	59	41	0	253755392	52	6175
2026-01-22 20:02:48.37	321.79	11.67	-39.0	-40.3	27.9	3.02e+01	61	41	0	255328256	52	6278
2026-01-22 20:02:49.37	321.58	11.63	-39.1	-40.4	27.7	3.02e+01	45	41	0	257425408	52	6361
2026-01-22 20:02:50.38	321.37	11.60	-38.3	-39.5	28.5	3.02e+01	61	41	0	259522560	52	5780
2026-01-22 20:02:51.39	321.17	11.57	-39.6	-41.0	27.3	3.02e+01	60	41	0	261095424	52	6806
2026-01-22 20:02:52.40	320.96	11.53	-38.5	-39.7	28.3	3.02e+01	61	41	0	263192576	52	5882
2026-01-22 20:02:53.41	320.75	11.50	-39.7	-41.1	27.1	3.02e+01	60	41	0	265289728	52	6931
2026-01-22 20:02:54.42	320.55	11.47	-39.2	-40.5	27.6	3.02e+01	50	41	0	266862592	52	6465
2026-01-22 20:02:55.43	320.34	11.43	-39.4	-40.7	27.5	3.02e+01	60	41	0	268959744	52	6602
2026-01-22 20:02:56.44	320.14	11.40	-38.8	-40.1	28.0	3.02e+01	59	41	0	270532608	52	6174
2026-01-22 20:02:57.45	319.94	11.36	-38.9	-40.2	27.9	3.02e+01	46	41	0	272629760	52	6214
2026-01-22 20:02:58.46	319.73	11.32	-39.0	-40.3	27.5	3.02e+01	58	41	0	274726912	52	6325
2026-01-22 20:02:59.47	319.53	11.29	-39.1	-40.4	27.5	3.02e+01	49	41	0	276299776	52	6382
2026-01-22 20:03:00.48	319.33	11.25	-39.4	-40.7	27.3	3.02e+01	60	41	0	278396928	54	5894
2026-01-22 20:03:01.49	319.13	11.22	-39.5	-40.8	26.8	3.02e+01	60	41	0	279969792	52	6723
2026-01-22 20:03:02.50	318.93	11.18	-39.9	-41.3	27.0	3.02e+01	47	41	0	282066944	54	6299
2026-01-22 20:03:03.51	318.72	11.14	-39.1	-40.4	27.6	3.02e+01	55	41	0	284164096	52	6383
2026-01-22 20:03:04.52	318.52	11.11	-39.6	-41.0	27.2	3.02e+01	59	41	0	285736960	52	6837
2026-01-22 20:03:05.53	318.33	11.07	-39.3	-40.6	27.6	3.02e+01	58	41	0	287834112	52	6510
2026-01-22 20:03:06.54	318.13	11.03	-39.8	-41.2	27.0	3.02e+01	61	41	0	289931264	52	6998
2026-01-22 20:03:07.55	317.93	10.99	-38.6	-39.8	28.1	3.02e+01	46	41	0	291504128	52	5969
2026-01-22 20:03:08.56	317.73	10.95	-39.5	-40.9	27.3	3.02e+01	58	41	0	293601280	52	6729
2026-01-22 20:03:09.57	317.53	10.92	-38.7	-39.9	28.0	3.02e+01	61	41	0	295174144	52	6042
2026-01-22 20:03:10.58	317.34	10.88	-39.6	-41.0	27.1	3.02e+01	51	41	0	297271296	52	6829
2026-01-22 20:03:11.59	317.14	10.84	-39.5	-40.8	27.3	3.02e+01	61	41	0	299368448	52	6661
2026-01-22 20:03:12.59	316.95	10.80	-39.3	-40.6	27.7	3.02e+01	59	41	0	300941312	52	6501
2026-01-22 20:03:13.61	316.75	10.76	-39.7	-41.0	27.1	3.02e+01	58	41	0	303038464	52	6859
2026-01-22 20:03:14.61	316.56	10.72	-38.9	-40.1	27.9	3.02e+01	59	41	0	304611328	52	6197
2026-01-22 20:03:15.62	316.36	10.68	-39.8	-41.2	26.9	3.02e+01	59	41	0	306708480	52	6974
2026-01-22 20:03:16.63	316.17	10.64	-39.5	-40.8	27.3	3.02e+01	56	41	0	308805632	52	6715
2026-01-22 20:03:17.64	315.98	10.60	-40.1	-41.5	26.5	3.02e+01	58	41	0	310378496	54	6452
2026-01-22 20:03:18.65	315.79	10.56	-40.2	-41.6	26.7	3.02e+01	49	41	0	312475648	54	6548
2026-01-22 20:03:19.66	315.59	10.52	-40.4	-41.8	26.4	3.02e+01	58	41	0	314048512	54	6691
2026-01-22 20:03:20.67	315.40	10.48	-39.8	-41.1	27.1	3.02e+01	56	41	0	316145664	54	6199
2026-01-22 20:03:21.68	315.21	10.44	-40.4	-41.8	26.4	3.02e+01	60	41	0	318242816	54	6720
2026-01-22 20:03:22.69	315.02	10.40	-40.1	-41.4	26.8	3.02e+01	58	41	0	319815680	54	6400
2026-01-22 20:03:23.70	314.83	10.35	-41.2	-42.7	25.6	3.02e+01	51	41	0	321912832	56	6610
2026-01-22 20:03:24.71	314.64	10.31	-39.5	-40.8	27.3	3.02e+01	58	41	0	323485696	54	5986
2026-01-22 20:03:25.72	314.46	10.27	-39.8	-41.2	27.0	3.02e+01	54	41	0	325582848	54	6212
2026-01-22 20:03:26.73	314.27	10.23	-39.1	-40.3	27.7	3.02e+01	45	41	0	327680000	54	5652
2026-01-22 20:03:27.74	314.08	10.19	-39.2	-40.5	27.6	3.02e+01	59	41	0	329252864	54	5745
2026-01-22 20:03:28.75	313.90	10.14	-39.5	-40.9	27.3	3.02e+01	59	41	0	331350016	54	6022
2026-01-22 20:03:29.76	313.71	10.10	-39.3	-40.6	27.5	3.02e+01	63	41	0	332922880	54	5812
2026-01-22 20:03:30.77	313.53	10.06	-39.7	-41.0	27.1	3.02e+01	60	41	0	335020032	54	6132
2026-01-22 20:03:31.78	313.34	10.02	-39.2	-40.5	27.6	3.02e+01	50	41	0	337117184	54	5790
2026-01-22 20:03:32.79	313.16	9.97	-39.3	-40.6	27.5	3.02e+01	58	41	0	338690048	54	5827
2026-01-22 20:03:33.80	312.97	9.93	-39.4	-40.7	27.4	3.02e+01	61	41	0	340787200	54	5901
2026-01-22 20:03:34.81	312.79	9.88	-39.2	-40.5	27.6	3.02e+01	59	41	0	342884352	54	5764
2026-01-22 20:03:35.82	312.61	9.84	-39.3	-40.6	27.5	3.02e+01	56	41	0	344457216	54	5804
2026-01-22 20:03:36.83	312.43	9.80	-39.6	-41.0	27.1	3.02e+01	44	41	0	346554368	54	6116
2026-01-22 20:03:37.84	312.25	9.75	-39.3	-40.6	27.5	3.02e+01	58	41	0	348127232	54	5797
2026-01-22 20:03:38.85	312.07	9.71	-39.2	-40.5	27.4	3.02e+01	60	41	0	350224384	54	5753
2026-01-22 20:03:39.86	311.89	9.66	-39.7	-41.1	27.0	3.02e+01	47	41	0	352321536	54	6142
2026-01-22 20:03:40.87	311.71	9.62	-39.1	-40.4	27.6	3.02e+01	58	41	0	353894400	54	5672
2026-01-22 20:03:41.88	311.53	9.57	-39.9	-41.3	26.7	3.02e+01	52	41	0	355991552	54	6339
2026-01-22 20:03:42.89	311.35	9.53	-39.6	-41.0	27.1	3.02e+01	62	41	0	358088704	54	6065
2026-01-22 20:03:43.90	311.17	9.48	-40.0	-41.4	26.7	3.02e+01	58	41	0	359661568	54	6358
2026-01-22 20:03:44.91	311.00	9.44	-40.0	-41.4	26.7	3.02e+01	39	41	0	361758720	54	6383
2026-01-22 20:03:45.92	310.82	9.39	-39.8	-41.2	27.0	3.02e+01	62	41	0	363331584	54	6230
2026-01-22 20:03:46.94	310.64	9.35	-40.3	-41.7	26.5	3.02e+01	57	41	0	365428736	54	6613
2026-01-22 20:03:47.95	310.47	9.30	-39.7	-41.0	27.1	3.02e+01	46	41	0	367525888	54	6113
2026-01-22 20:03:48.96	310.30	9.26	-40.0	-41.4	26.9	3.02e+01	61	41	0	369098752	54	6391
2026-01-22 20:03:49.97	310.12	9.21	-39.7	-41.1	27.0	3.02e+01	57	41	0	371195904	54	6151
2026-01-22 20:03:50.98	309.95	9.16	-39.5	-40.8	27.3	3.02e+01	59	41	0	372768768	54	5961
2026-01-22 20:03:51.99	309.78	9.12	-39.4	-40.7	27.1	3.02e+01	57	42	0	374865920	54	5872
2026-01-22 20:03:53.00	309.60	9.07	-38.7	-40.0	27.8	3.02e+01	47	41	0	376963072	52	6075
2026-01-22 20:03:54.01	309.43	9.02	-40.1	-41.5	26.6	3.02e+01	57	42	0	378535936	54	6450
2026-01-22 20:03:55.02	309.26	8.98	-39.4	-40.8	27.1	3.02e+01	59	42	0	380633088	54	5931
2026-01-22 20:03:56.03	309.09	8.93	-39.9	-41.2	26.7	3.02e+01	46	41	0	382730240	54	6258
2026-01-22 20:03:57.04	308.92	8.88	-41.0	-42.5	25.5	3.02e+01	60	41	0	384303104	56	6484
2026-01-22 20:03:58.05	308.75	8.84	-39.3	-40.6	27.4	3.02e+01	57	42	0	386400256	54	5807
2026-01-22 20:03:59.06	308.59	8.79	-39.9	-41.4	26.6	3.02e+01	57	42	0	387973120	54	6354
2026-01-22 20:04:00.07	308.42	8.74	-39.8	-41.2	26.6	3.02e+01	62	42	0	390070272	54	6245
2026-01-22 20:04:01.08	308.25	8.69	-39.4	-40.8	27.2	3.02e+01	57	42	0	392167424	54	5928
2026-01-22 20:04:02.09	308.09	8.65	-40.3	-41.7	26.5	3.02e+01	58	41	0	393740288	54	6635
2026-01-22 20:04:03.10	307.92	8.60	-39.7	-41.1	26.9	3.02e+01	55	41	0	395837440	54	6168
2026-01-22 20:04:04.11	307.75	8.55	-39.6	-41.0	27.0	3.02e+01	57	42	0	397410304	54	6067
2026-01-22 20:04:05.12	307.59	8.50	-40.4	-41.9	26.2	3.02e+01	59	41	0	399507456	54	6739
2026-01-22 20:04:06.12	307.43	8.46	-39.3	-40.6	27.4	3.02e+01	46	41	0	401604608	54	5819
2026-01-22 20:04:07.13	307.26	8.41	-39.5	-40.8	27.0	3.02e+01	61	41	0	403177472	54	5992
2026-01-22 20:04:08.14	307.10	8.36	-39.9	-41.3	26.8	3.02e+01	60	42	0	405274624	54	6326
2026-01-22 20:04:09.15	306.94	8.31	-39.6	-40.9	27.0	3.02e+01	52	41	0	406847488	54	6043
2026-01-22 20:04:10.16	306.78	8.26	-40.0	-41.5	26.6	3.02e+01	58	41	0	408944640	54	6456
2026-01-22 20:04:11.17	306.62	8.21	-39.7	-41.1	26.8	3.02e+01	60	42	0	411041792	54	6180
2026-01-22 20:04:12.18	306.45	8.16	-39.4	-40.7	27.2	3.02e+01	56	41	0	412614656	54	5921
2026-01-22 20:04:13.19	306.30	8.12	-40.0	-41.5	26.5	3.02e+01	61	41	0	414711808	54	6451
2026-01-22 20:04:14.20	306.14	8.07	-39.7	-41.2	26.6	3.02e+01	47	41	0	416284672	54	6206
2026-01-22 20:04:15.21	305.98	8.02	-39.2	-40.5	27.3	3.02e+01	57	41	0	418381824	54	5773
2026-01-22 20:04:16.22	305.82	7.97	-40.2	-41.7	26.3	3.02e+01	57	41	0	420478976	54	6613
2026-01-22 20:04:17.23	305.66	7.92	-40.4	-41.9	26.0	3.02e+01	45	41	0	422051840	54	6746
2026-01-22 20:04:18.24	305.50	7.87	-39.7	-41.1	27.0	3.02e+01	58	41	0	424148992	54	6155
2026-01-22 20:04:19.25	305.35	7.82	-39.8	-41.2	26.8	3.02e+01	59	41	0	426246144	54	6212
2026-01-22 20:04:20.26	305.19	7.77	-39.9	-41.3	26.7	3.02e+01	58	41	0	427819008	54	6328
2026-01-22 20:04:21.27	305.04	7.72	-39.9	-41.2	26.8	3.02e+01	59	41	0	429916160	54	6276
2026-01-22 20:04:22.28	304.88	7.67	-40.0	-41.4	26.7	3.02e+01	52	41	0	431489024	54	6360
2026-01-22 20:04:23.29	304.73	7.62	-40.1	-41.5	26.6	3.02e+01	53	41	0	433586176	54	6449
2026-01-22 20:04:24.30	304.57	7.57	-40.0	-41.4	26.6	3.02e+01	60	41	0	435683328	54	6408
2026-01-22 20:04:25.31	304.42	7.52	-40.3	-41.8	26.3	3.02e+01	49	41	0	437256192	54	6672
2026-01-22 20:04:26.32	304.27	7.47	-40.6	-42.1	26.0	3.02e+01	59	41	0	439353344	54	6906
2026-01-22 20:04:27.33	304.12	7.42	-40.3	-41.8	26.2	3.02e+01	56	41	0	440926208	54	6660
2026-01-22 20:04:28.34	303.97	7.37	-40.1	-41.5	26.5	3.02e+01	59	42	0	443023360	54	6427
2026-01-22 20:04:29.34	303.82	7.32	-40.1	-41.5	26.6	3.02e+01	57	41	0	445120512	54	6437
2026-01-22 20:04:30.35	303.67	7.27	-40.0	-41.4	26.6	3.02e+01	46	41	0	446693376	54	6389
2026-01-22 20:04:31.36	303.52	7.22	-40.3	-41.7	26.3	3.02e+01	60	41	0	448790528	54	6605
2026-01-22 20:04:32.37	303.37	7.17	-40.2	-41.6	26.4	3.02e+01	57	42	0	450887680	54	6551
2026-01-22 20:04:33.38	303.22	7.12	-40.0	-41.3	26.6	3.02e+01	46	41	0	452460544	54	6322
2026-01-22 20:04:34.39	303.07	7.07	-40.0	-41.4	26.6	3.02e+01	59	42	0	454557696	54	6373
2026-01-22 20:04:35.40	302.93	7.02	-40.5	-41.9	26.1	3.02e+01	59	41	0	456130560	54	6777
2026-01-22 20:04:36.41	302.78	6.97	-40.2	-41.7	26.3	3.02e+01	58	42	0	458227712	54	6576
2026-01-22 20:04:37.42	302.63	6.92	-40.3	-41.7	26.3	3.02e+01	61	41	0	460324864	54	6635
2026-01-22 20:04:38.43	302.49	6.87	-40.0	-41.4	26.5	3.02e+01	58	41	0	461897728	54	6401
2026-01-22 20:04:39.44	302.34	6.82	-40.3	-41.7	26.2	3.02e+01	60	41	0	463994880	54	6589
2026-01-22 20:04:40.45	302.20	6.77	-40.6	-42.1	25.8	3.02e+01	60	41	0	465567744	54	6903
2026-01-22 20:04:41.46	302.05	6.72	-40.4	-41.9	26.1	3.02e+01	60	42	0	467664896	54	6751
2026-01-22 20:04:42.47	301.91	6.67	-40.2	-41.6	26.4	3.02e+01	48	41	0	469237760	54	6500
2026-01-22 20:04:43.48	301.77	6.62	-39.9	-41.3	26.6	3.02e+01	46	41	0	471334912	54	6291
2026-01-22 20:04:44.49	301.63	6.57	-39.9	-41.3	26.6	3.02e+01	62	41	0	473432064	54	6321
2026-01-22 20:04:45.50	301.48	6.52	-40.1	-41.5	26.4	3.02e+01	61	41	0	475004928	54	6460
2026-01-22 20:04:46.51	301.34	6.47	-40.0	-41.4	26.5	3.02e+01	48	42	0	477102080	54	6376
2026-01-22 20:04:47.52	301.20	6.41	-40.2	-41.7	26.3	3.02e+01	60	42	0	479199232	54	6578
2026-01-22 20:04:48.53	301.06	6.36	-40.4	-41.8	26.2	3.02e+01	59	41	0	480772096	54	6713
2026-01-22 20:04:49.54	300.92	6.31	-40.5	-42.0	25.9	3.02e+01	60	41	0	482869248	54	6847
2026-01-22 20:04:50.55	300.78	6.26	-40.5	-41.9	26.1	3.02e+01	60	41	0	484442112	54	6777
2026-01-22 20:04:51.56	300.65	6.21	-40.4	-41.9	26.1	3.02e+01	50	41	0	486539264	54	6733
2026-01-22 20:04:52.57	300.51	6.16	-40.4	-41.8	26.2	3.02e+01	61	41	0	488636416	54	6672
2026-01-22 20:04:53.58	300.37	6.11	-40.1	-41.5	26.1	3.02e+01	57	42	0	490209280	54	6473
2026-01-22 20:04:54.58	300.24	6.06	-40.6	-42.1	25.8	3.02e+01	44	42	0	492306432	54	6916
2026-01-22 20:04:55.60	300.10	6.00	-41.0	-42.5	25.7	3.02e+01	58	42	0	494403584	56	6492
2026-01-22 20:04:56.61	299.96	5.95	-41.2	-42.8	25.4	3.02e+01	57	41	0	495976448	56	6653
2026-01-22 20:04:57.62	299.83	5.90	-40.7	-42.1	25.9	3.02e+01	55	42	0	498073600	56	6190
2026-01-22 20:04:58.63	299.69	5.85	-41.3	-42.8	25.1	3.02e+01	57	42	0	499646464	56	6694
2026-01-22 20:04:59.64	299.56	5.80	-41.4	-42.9	25.0	3.02e+01	51	42	0	501743616	56	6796
2026-01-22 20:05:00.65	299.43	5.75	-41.5	-43.1	24.9	3.02e+01	56	42	0	503840768	56	6917
2026-01-22 20:05:01.66	299.29	5.70	-41.2	-42.7	25.2	3.02e+01	50	42	0	505413632	56	6605
2026-01-22 20:05:02.67	299.16	5.65	-41.0	-42.5	25.4	3.02e+01	52	42	0	507510784	56	6462
2026-01-22 20:05:03.68	299.03	5.59	-41.4	-42.9	25.2	3.02e+01	58	42	0	509083648	56	6755
2026-01-22 20:05:04.69	298.90	5.54	-41.5	-43.1	24.9	3.02e+01	62	42	0	511180800	56	6937
2026-01-22 20:05:05.70	298.77	5.49	-41.8	-43.4	24.6	3.02e+01	59	42	0	513277952	58	6381
2026-01-22 20:05:06.70	298.64	5.44	-40.7	-42.2	25.6	3.02e+01	57	42	0	514850816	56	6226
2026-01-22 20:05:07.71	298.51	5.39	-40.6	-42.0	26.0	3.02e+01	50	42	0	516947968	56	6092
2026-01-22 20:05:08.72	298.38	5.34	-40.4	-41.8	25.9	3.02e+01	60	42	0	519045120	56	5957
2026-01-22 20:05:09.73	298.25	5.28	-40.7	-42.1	25.7	3.02e+01	62	42	0	520617984	56	6194
2026-01-22 20:05:10.74	298.12	5.23	-40.9	-42.5	25.4	3.02e+01	45	42	0	522715136	56	6438
2026-01-22 20:05:11.75	297.99	5.18	-40.7	-42.2	25.6	3.02e+01	64	42	0	524288000	56	6248
2026-01-22 20:05:12.76	297.86	5.13	-40.3	-41.8	26.0	3.02e+01	59	42	0	526385152	56	5929
2026-01-22 20:05:13.77	297.74	5.08	-40.8	-42.2	25.7	3.02e+01	59	42	0	527958016	56	6255
2026-01-22 20:05:14.78	297.61	5.03	-40.7	-42.1	25.8	3.02e+01	63	42	0	530055168	56	6182
2026-01-22 20:05:15.79	297.48	4.98	-40.6	-42.1	25.8	3.02e+01	50	42	0	532152320	56	6144
2026-01-22 20:05:16.80	297.36	4.92	-40.9	-42.4	25.6	3.02e+01	59	42	0	533725184	56	6409
2026-01-22 20:05:17.81	297.23	4.87	-40.9	-42.4	25.5	3.02e+01	61	42	0	535822336	56	6370
2026-01-22 20:05:18.82	297.11	4.82	-40.9	-42.4	25.2	3.02e+01	53	42	0	537395200	56	6404
2026-01-22 20:05:19.82	296.99	4.77	-41.2	-42.7	25.1	3.02e+01	58	41	0	539492352	56	6608
2026-01-22 20:05:20.84	296.86	4.72	-41.3	-42.9	25.1	3.02e+01	40	42	0	541589504	56	6727
2026-01-22 20:05:21.84	296.74	4.67	-41.7	-43.3	24.6	3.02e+01	56	42	0	543162368	56	7068
2026-01-22 20:05:22.85	296.62	4.61	-41.2	-42.7	25.1	3.02e+01	58	42	0	545259520	56	6609
2026-01-22 20:05:23.86	296.50	4.56	-41.7	-43.3	24.6	3.02e+01	44	42	0	547356672	56	7109
2026-01-22 20:05:24.87	296.37	4.51	-41.3	-42.9	24.7	3.02e+01	56	41	0	548929536	56	6733
2026-01-22 20:05:25.88	296.25	4.46	-41.5	-43.1	24.6	3.02e+01	58	42	0	551026688	56	6943
2026-01-22 20:05:26.89	296.13	4.41	-40.7	-42.2	25.6	3.02e+01	57	42	0	552599552	56	6235
2026-01-22 20:05:27.90	296.01	4.36	-40.9	-42.4	25.3	3.02e+01	59	42	0	554696704	56	6381
2026-01-22 20:05:28.91	295.89	4.30	-41.2	-42.7	25.0	3.02e+01	46	42	0	556793856	56	6642
2026-01-22 20:05:29.92	295.77	4.25	-41.5	-43.0	24.6	3.02e+01	60	42	0	558366720	56	6874
2026-01-22 20:05:30.93	295.66	4.20	-41.6	-43.2	24.5	3.02e+01	57	41	0	560463872	56	7002
2026-01-22 20:05:31.94	295.54	4.15	-41.3	-42.8	24.8	3.02e+01	44	41	0	562561024	56	6718
2026-01-22 20:05:32.95	295.42	4.10	-41.7	-43.3	24.6	3.02e+01	59	41	0	564133888	56	7051
2026-01-22 20:05:33.96	295.30	4.05	-41.5	-43.0	24.8	3.02e+01	57	41	0	566231040	56	6854
2026-01-22 20:05:34.97	295.19	3.99	-42.1	-43.7	24.0	3.02e+01	57	42	0	567803904	58	6629
2026-01-22 20:05:35.98	295.07	3.94	-41.3	-42.8	24.8	3.02e+01	62	41	0	569901056	58	5968
2026-01-22 20:05:36.99	294.95	3.89	-41.2	-42.7	25.0	3.02e+01	46	42	0	571998208	58	5910
2026-01-22 20:05:38.00	294.84	3.84	-41.6	-43.3	24.4	3.02e+01	61	41	0	573571072	58	6281
2026-01-22 20:05:39.01	294.72	3.79	-41.6	-43.2	24.5	3.02e+01	58	42	0	575668224	58	6248
2026-01-22 20:05:40.02	294.61	3.74	-41.8	-43.4	24.1	3.02e+01	47	41	0	577241088	58	6422
2026-01-22 20:05:41.03	294.49	3.68	-41.5	-43.2	24.5	3.02e+01	57	42	0	579338240	58	6210
2026-01-22 20:05:42.04	294.38	3.63	-41.2	-42.8	24.7	3.02e+01	56	42	0	581435392	58	5965
2026-01-22 20:05:43.05	294.27	3.58	-41.1	-42.7	24.8	3.02e+01	57	41	0	583008256	58	5872
2026-01-22 20:05:44.06	294.16	3.53	-41.2	-42.8	24.8	3.02e+01	57	42	0	585105408	58	5934
2026-01-22 20:05:45.07	294.04	3.48	-41.9	-43.5	24.2	3.02e+01	53	42	0	587202560	58	6441
2026-01-22 20:05:46.08	293.93	3.43	-42.2	-43.9	23.5	3.02e+01	57	41	0	588775424	58	6729
2026-01-22 20:05:47.09	293.82	3.37	-42.1	-43.8	23.6	3.02e+01	59	42	0	590872576	58	6701
2026-01-22 20:05:48.10	293.71	3.32	-42.3	-44.0	23.3	3.02e+01	44	42	0	592445440	58	6831
2026-01-22 20:05:49.11	293.60	3.27	-42.8	-44.7	22.9	3.02e+01	56	42	0	594542592	60	6612
2026-01-22 20:05:50.12	293.49	3.22	-42.6	-44.5	23.1	3.02e+01	52	42	0	596639744	60	6446
2026-01-22 20:05:51.13	293.38	3.17	-42.9	-44.8	22.8	3.02e+01	59	42	0	598212608	60	6679
2026-01-22 20:05:52.14	293.27	3.12	-41.6	-43.3	24.1	3.02e+01	61	42	0	600309760	58	6320
2026-01-22 20:05:53.15	293.16	3.07	-42.5	-44.3	23.1	3.02e+01	50	42	0	601882624	58	7075
2026-01-22 20:05:54.16	293.05	3.01	-42.9	-44.7	22.8	3.02e+01	59	42	0	603979776	58	7431
2026-01-22 20:05:55.17	292.94	2.96	-50.8	-68.6	3.5	3.02e+01	0	42	104	604504064	60	103458
2026-01-22 20:05:56.17	292.84	2.91	-51.1	-68.8	3.5	3.02e+01	0	42	104	604504064	60	105900
2026-01-22 20:05:57.18	292.73	2.86	-51.3	-69.1	3.5	3.02e+01	0	42	104	604504064	60	110081
2026-01-22 20:05:58.19	292.62	2.81	-51.4	-69.3	3.5	3.02e+01	0	42	104	604504064	60	111736
2026-01-22 20:05:59.20	292.52	2.76	-51.5	-69.3	3.5	3.02e+01	0	42	104	604504064	60	112778
2026-01-22 20:06:00.21	292.41	2.71	-51.6	-69.4	3.5	3.02e+01	0	42	104	604504064	60	113646
2026-01-22 20:06:01.22	292.31	2.65	-51.6	-69.4	3.5	3.02e+01	0	42	104	604504064	60	114119
2026-01-22 20:06:02.23	292.20	2.60	-51.7	-69.5	3.5	3.02e+01	0	42	104	604504064	60	114462
2026-01-22 20:06:03.24	292.10	2.55	-51.7	-69.5	3.5	3.02e+01	0	42	104	604504064	60	115038
2026-01-22 20:06:04.25	291.99	2.50	-51.7	-69.5	3.5	3.02e+01	0	42	104	604504064	60	114919
2026-01-22 20:06:05.26	291.89	2.45	-51.7	-69.5	3.5	3.02e+01	0	42	104	604504064	60	114942
2026-01-22 20:06:06.27	291.79	2.40	-51.7	-69.6	3.5	3.02e+01	0	42	104	604504064	60	115911
2026-01-22 20:06:07.28	291.68	2.35	-51.7	-69.5	3.5	3.02e+01	0	42	104	604504064	60	115416
2026-01-22 20:06:08.29	291.58	2.30	-51.7	-69.5	3.5	3.02e+01	0	42	104	604504064	60	115453
2026-01-22 20:06:09.30	291.48	2.24	-51.6	-69.6	3.5	3.02e+01	0	42	104	604504064	60	115987
2026-01-22 20:06:10.31	291.38	2.19	-51.5	-69.5	3.5	3.02e+01	0	42	104	604504064	60	115428
2026-01-22 20:06:11.32	291.27	2.14	-51.5	-69.5	3.5	3.02e+01	0	42	104	604504064	60	115235
2026-01-22 20:06:12.33	291.17	2.09	-51.6	-69.5	3.5	3.02e+01	0	42	104	604504064	60	115067
2026-01-22 20:06:13.34	291.07	2.04	-51.5	-69.5	3.5	3.02e+01	0	42	104	604504064	60	114445
2026-01-22 20:06:14.35	290.97	1.99	-51.5	-69.5	3.5	3.02e+01	0	42	104	604504064	60	114364
2026-01-22 20:06:15.36	290.87	1.94	-51.5	-69.5	3.5	3.02e+01	0	42	104	604504064	60	115398
2026-01-22 20:06:16.37	290.77	1.89	-51.7	-69.5	3.5	3.02e+01	0	42	104	604504064	60	114449
2026-01-22 20:06:17.38	290.67	1.84	-51.6	-69.5	3.5	3.02e+01	0	42	104	604504064	60	114904
2026-01-22 20:06:18.39	290.58	1.79	-51.1	-69.5	3.5	3.02e+01	0	42	104	604504064	60	114920
2026-01-22 20:06:19.40	290.48	1.73	-51.5	-69.5	3.5	3.02e+01	0	42	104	604504064	60	115047
2026-01-22 20:06:20.41	290.38	1.68	-51.7	-69.5	3.5	3.02e+01	0	42	104	604504064	60	115356
2026-01-22 20:06:21.42	290.28	1.63	-51.7	-69.6	3.5	3.02e+01	0	42	104	604504064	60	115596
2026-01-22 20:06:22.43	290.19	1.58	-51.7	-69.5	3.5	3.02e+01	0	42	104	604504064	60	115085
2026-01-22 20:06:23.44	290.09	1.53	-51.7	-69.5	3.5	3.02e+01	0	42	104	604504064	60	115303
2026-01-22 20:06:24.45	289.99	1.48	-51.7	-69.5	3.5	3.02e+01	0	42	104	604504064	60	115176
2026-01-22 20:06:25.46	289.90	1.43	-51.7	-69.5	3.5	3.02e+01	0	42	104	604504064	60	115537
2026-01-22 20:06:26.47	289.80	1.38	-51.7	-69.6	3.5	3.02e+01	0	42	104	604504064	60	115995
2026-01-22 20:06:27.48	289.71	1.33	-51.7	-69.5	3.5	3.02e+01	0	42	104	604504064	60	114886
2026-01-22 20:06:28.49	289.61	1.28	-51.7	-69.6	3.5	3.02e+01	0	42	104	604504064	60	115903
2026-01-22 20:06:29.49	289.52	1.23	-51.7	-69.6	3.5	3.02e+01	0	42	104	604504064	60	115616
2026-01-22 20:06:30.51	289.42	1.18	-51.7	-69.5	3.5	3.02e+01	0	42	104	604504064	60	115369
2026-01-22 20:06:31.52	289.33	1.13	-51.7	-69.5	3.5	3.02e+01	0	42	104	604504064	60	115349
2026-01-22 20:06:32.53	289.23	1.08	-51.7	-69.5	3.5	3.02e+01	0	42	104	604504064	60	115474
2026-01-22 20:06:33.54	289.14	1.03	-51.7	-69.5	3.5	3.02e+01	0	42	104	604504064	60	115103
2026-01-22 20:06:34.55	289.05	0.97	-51.7	-69.6	3.5	3.02e+01	0	42	104	604504064	60	115944
2026-01-22 20:06:35.56	288.96	0.92	-51.8	-69.6	3.5	3.02e+01	0	42	104	604504064	60	115851
2026-01-22 20:06:36.56	288.87	0.87	-51.7	-69.6	3.5	3.02e+01	0	42	104	604504064	60	116138
2026-01-22 20:06:37.57	288.77	0.82	-51.7	-69.6	3.5	3.02e+01	0	42	104	604504064	60	115610
2026-01-22 20:06:38.58	288.68	0.77	-51.7	-69.5	3.5	3.02e+01	0	42	104	604504064	60	114900
2026-01-22 20:06:39.59	288.59	0.72	-51.8	-69.6	3.5	3.02e+01	0	42	104	604504064	60	116211
2026-01-22 20:06:40.60	288.50	0.67	-51.7	-69.5	3.5	3.02e+01	0	42	104	604504064	60	115343
2026-01-22 20:06:41.61	288.41	0.62	-51.8	-69.6	3.5	3.02e+01	0	42	104	604504064	60	115998
2026-01-22 20:06:42.62	288.32	0.57	-51.7	-69.6	3.5	3.02e+01	0	42	104	604504064	60	115767
2026-01-22 20:06:43.63	288.23	0.52	-51.8	-69.6	3.5	3.02e+01	0	42	104	604504064	60	116066
2026-01-22 20:06:44.64	288.14	0.47	-51.8	-69.6	3.5	3.02e+01	0	42	104	604504064	60	116583
2026-01-22 20:06:45.65	288.05	0.42	-51.8	-69.6	3.5	3.02e+01	0	42	104	604504064	60	115783
2026-01-22 20:06:46.67	287.96	0.37	-51.8	-69.6	3.5	3.02e+01	0	42	104	604504064	60	116250
2026-01-22 20:06:47.68	287.88	0.32	-51.8	-69.6	3.5	3.02e+01	0	42	104	604504064	60	116089
2026-01-22 20:06:48.68	287.79	0.27	-51.7	-69.6	3.5	3.02e+01	0	42	104	604504064	60	115917
2026-01-22 20:06:49.70	287.70	0.22	-51.8	-69.6	3.5	3.02e+01	0	42	104	604504064	60	116158
2026-01-22 20:06:50.71	287.61	0.17	-51.7	-69.6	3.5	3.02e+01	0	42	104	604504064	60	115964
2026-01-22 20:06:51.72	287.53	0.12	-51.8	-69.7	3.5	3.02e+01	0	42	104	604504064	60	116919
2026-01-22 20:06:52.73	287.44	0.07	-51.8	-69.6	3.5	3.02e+01	0	42	104	604504064	60	116038
2026-01-22 20:06:53.74	287.35	0.02	-51.7	-69.6	3.5	3.02e+01	0	42	104	604504064	60	116282

#Closed at: 2026-01-22 20:06:54
#Recorded file [604 MB]: D:/lorett/data/35029_260123_075553.dat