passes_logs/2026/01/22/R4.6S_Anadyr/R4.6S_Anadyr__20260122_123253_SUOMI_NPP_rec.log

#Pass ID: 20260122_123253_SUOMI NPP
#Satellite: SUOMI NPP
#Configuration: NPP
#almurnet v.1.7.20251203
#Start time: 2026-01-22 12:32:54

#Version: 2.2.20231116
#Station: R4.6S_Anadyr
#Location: 177.4865 lon 64.73178 lat
#TLE: 1 37849U 11061A   26021.51818991  .00000201  00000+0  11636-3 0  9995
#TLE: 2 37849  98.7819 323.5108 0002300  52.3548 307.7836 14.19527793737637

#Time	Az	El	Level	Level2	SNR	BER	BlckErr	Temp	State	Recorded	gain1	gain2
2026-01-22 12:32:54.30	19.07	0.06	-51.4	-63.9	3.4	1.52e+00	0	39	0	0	60	55045
2026-01-22 12:32:55.31	19.14	0.11	-52.1	-67.3	3.6	1.51e+00	0	39	104	0	60	83780
2026-01-22 12:32:56.32	19.21	0.16	-52.0	-67.2	3.6	1.51e+00	0	39	104	0	60	82947
2026-01-22 12:32:57.33	19.28	0.21	-51.9	-67.2	3.6	1.51e+00	0	39	104	0	60	82540
2026-01-22 12:32:58.34	19.36	0.26	-51.9	-67.1	3.6	1.51e+00	0	40	104	0	60	81975
2026-01-22 12:32:59.35	19.43	0.32	-51.7	-66.9	3.6	1.51e+00	0	40	104	0	60	80158
2026-01-22 12:33:00.36	19.50	0.37	-51.5	-66.7	3.6	1.51e+00	0	40	104	0	60	78572
2026-01-22 12:33:01.37	19.57	0.42	-51.4	-66.7	3.6	1.51e+00	0	40	104	0	60	77825
2026-01-22 12:33:02.38	19.65	0.47	-51.4	-66.6	3.6	1.51e+00	0	40	104	0	60	77243
2026-01-22 12:33:03.39	19.72	0.52	-51.3	-66.6	3.6	1.51e+00	0	40	104	0	60	77222
2026-01-22 12:33:04.40	19.80	0.57	-51.3	-66.5	3.6	1.51e+00	0	40	104	0	60	76793
2026-01-22 12:33:05.41	19.87	0.62	-51.4	-66.6	3.6	1.51e+00	0	40	104	0	60	76983
2026-01-22 12:33:06.42	19.94	0.67	-51.3	-66.5	3.6	1.51e+00	0	40	104	0	60	75984
2026-01-22 12:33:07.44	20.02	0.72	-51.3	-66.5	3.6	1.51e+00	0	40	104	0	60	75966
2026-01-22 12:33:08.45	20.09	0.77	-51.1	-66.4	3.6	1.51e+00	0	40	104	0	60	75141
2026-01-22 12:33:09.46	20.17	0.82	-51.0	-66.2	3.6	1.51e+00	0	40	104	0	60	74008
2026-01-22 12:33:10.47	20.25	0.87	-50.9	-66.1	3.6	1.51e+00	0	40	104	0	60	73340
2026-01-22 12:33:11.48	20.32	0.92	-50.8	-66.0	3.6	1.51e+00	0	40	104	0	60	72352
2026-01-22 12:33:12.49	20.40	0.97	-50.7	-65.8	3.6	1.51e+00	0	40	104	0	60	70701
2026-01-22 12:33:13.50	20.47	1.03	-50.6	-65.8	3.6	1.51e+00	0	40	104	0	60	70519
2026-01-22 12:33:14.51	20.55	1.08	-50.5	-65.7	3.6	1.51e+00	0	40	104	0	60	69831
2026-01-22 12:33:15.52	20.63	1.13	-50.3	-65.6	3.6	1.51e+00	0	40	104	0	60	68674
2026-01-22 12:33:16.53	20.70	1.18	-50.2	-65.4	3.6	1.51e+00	0	40	104	0	60	67124
2026-01-22 12:33:17.54	20.78	1.23	-49.9	-65.1	3.6	1.51e+00	0	40	104	0	60	65049
2026-01-22 12:33:18.55	20.86	1.28	-49.6	-64.8	3.6	1.51e+00	0	40	104	0	60	62494
2026-01-22 12:33:19.56	20.93	1.33	-49.6	-64.8	3.6	1.51e+00	0	40	104	0	60	62950
2026-01-22 12:33:20.57	21.01	1.38	-49.6	-64.8	3.6	1.51e+00	0	40	104	0	60	62854
2026-01-22 12:33:21.58	21.09	1.44	-49.6	-64.8	3.6	1.51e+00	0	40	104	0	60	62709
2026-01-22 12:33:22.59	21.17	1.49	-49.6	-64.8	3.6	1.51e+00	0	40	104	0	60	62709
2026-01-22 12:33:23.60	21.25	1.54	-49.6	-64.8	3.6	1.51e+00	0	40	104	0	60	62910
2026-01-22 12:33:24.61	21.33	1.59	-49.6	-64.8	3.6	1.51e+00	0	40	104	0	60	62483
2026-01-22 12:33:25.62	21.40	1.64	-49.6	-64.7	3.5	1.51e+00	0	40	104	0	60	62214
2026-01-22 12:33:26.63	21.48	1.69	-49.6	-64.6	3.6	1.51e+00	0	40	104	0	60	61457
2026-01-22 12:33:27.64	21.56	1.75	-49.6	-64.7	3.6	1.51e+00	0	40	104	0	60	61836
2026-01-22 12:33:28.65	21.64	1.80	-49.6	-64.8	3.6	1.51e+00	0	40	104	0	60	62515
2026-01-22 12:33:29.66	21.72	1.85	-49.6	-64.7	3.6	1.51e+00	0	40	104	0	60	62371
2026-01-22 12:33:30.67	21.80	1.90	-49.6	-64.8	3.6	1.51e+00	0	40	104	0	60	62642
2026-01-22 12:33:31.68	21.88	1.95	-49.6	-64.7	3.6	1.51e+00	0	40	104	0	60	62363
2026-01-22 12:33:32.69	21.97	2.01	-49.6	-64.7	3.6	1.51e+00	0	40	104	0	60	62425
2026-01-22 12:33:33.70	22.05	2.06	-49.6	-64.7	3.6	1.51e+00	0	40	104	0	60	61745
2026-01-22 12:33:34.72	22.13	2.11	-49.6	-64.2	3.6	1.51e+00	0	40	104	0	60	58372
2026-01-22 12:33:35.73	22.21	2.16	-49.6	-63.4	3.6	1.51e+00	0	40	104	0	60	53561
2026-01-22 12:33:36.74	22.29	2.21	-49.5	-63.4	3.6	1.51e+00	0	40	104	0	60	53490
2026-01-22 12:33:37.74	22.37	2.27	-49.6	-64.0	3.6	1.51e+00	0	40	104	0	60	57234
2026-01-22 12:33:38.75	22.46	2.32	-49.6	-63.7	3.6	1.51e+00	0	40	104	0	60	55108
2026-01-22 12:33:39.76	22.54	2.37	-49.3	-59.6	4.5	1.32e+00	0	40	0	0	60	34654
2026-01-22 12:33:40.78	22.62	2.42	-48.7	-55.4	7.4	2.97e-01	54	40	0	2097152	60	21376
2026-01-22 12:33:41.79	22.71	2.48	-48.0	-52.8	10.9	3.99e-02	0	40	0	3145728	60	15850
2026-01-22 12:33:42.80	22.79	2.53	-46.8	-50.4	13.3	5.56e-05	0	40	0	5242880	60	11939
2026-01-22 12:33:43.81	22.87	2.58	-44.6	-46.7	17.3	0.00e+00	0	40	0	7340032	60	7857
2026-01-22 12:33:44.82	22.96	2.63	-44.6	-46.7	17.1	0.00e+00	0	40	0	9437184	60	7819
2026-01-22 12:33:45.83	23.04	2.69	-45.2	-47.5	16.1	0.00e+00	3	40	0	11534336	60	8600
2026-01-22 12:33:46.84	23.13	2.74	-44.9	-47.2	16.4	0.00e+00	0	40	0	12582912	60	8262
2026-01-22 12:33:47.85	23.21	2.79	-45.4	-47.9	15.7	0.00e+00	92	40	0	14680064	60	9020
2026-01-22 12:33:48.86	23.30	2.84	-46.5	-49.8	13.9	0.00e+00	4	40	0	16777216	60	11116
2026-01-22 12:33:49.87	23.38	2.90	-47.7	-52.4	10.5	1.25e-04	0	40	0	18874368	60	15053
2026-01-22 12:33:50.87	23.47	2.95	-48.7	-55.5	7.4	2.42e-02	0	40	0	20971520	60	21452
2026-01-22 12:33:51.88	23.55	3.00	-49.3	-58.5	4.4	3.12e-01	0	40	0	22020096	60	30384
2026-01-22 12:33:52.89	23.64	3.06	-45.6	-48.1	15.5	5.68e-04	2	40	0	24117248	60	9230
2026-01-22 12:33:53.90	23.73	3.11	-45.2	-47.6	16.0	0.00e+00	0	40	0	26214400	60	8676
2026-01-22 12:33:54.91	23.81	3.16	-49.5	-63.6	3.6	2.03e-01	0	40	104	27262976	60	54439
2026-01-22 12:33:55.92	23.90	3.22	-49.3	-61.1	4.0	1.48e+00	0	40	104	27262976	60	40806
2026-01-22 12:33:56.93	23.99	3.27	-49.0	-56.4	6.0	2.43e-04	0	40	0	27262976	60	23771
2026-01-22 12:33:57.94	24.08	3.32	-46.2	-49.0	14.7	5.75e-02	0	40	0	29360128	60	10159
2026-01-22 12:33:58.95	24.17	3.38	-46.2	-49.0	15.6	0.00e+00	0	40	0	31457280	60	10182
2026-01-22 12:33:59.96	24.25	3.43	-45.7	-48.3	15.6	0.00e+00	5	40	0	33554432	60	9397
2026-01-22 12:34:00.97	24.34	3.48	-44.9	-47.1	16.9	0.00e+00	0	40	0	35651584	60	8153
2026-01-22 12:34:01.98	24.43	3.54	-45.2	-47.5	16.4	0.00e+00	92	40	0	36700160	60	8596
2026-01-22 12:34:02.99	24.52	3.59	-45.4	-47.7	16.3	0.00e+00	0	40	0	38797312	60	8737
2026-01-22 12:34:03.99	24.61	3.64	-44.8	-46.9	17.0	0.00e+00	53	40	0	40894464	60	7960
2026-01-22 12:34:05.00	24.70	3.70	-44.7	-46.7	17.2	0.00e+00	0	40	0	42991616	60	7844
2026-01-22 12:34:06.01	24.79	3.75	-44.7	-46.7	16.9	0.00e+00	0	41	0	45088768	60	7859
2026-01-22 12:34:07.02	24.88	3.80	-44.5	-46.5	17.4	0.00e+00	0	40	0	46137344	60	7616
2026-01-22 12:34:08.03	24.97	3.86	-44.4	-46.3	17.7	0.00e+00	0	40	0	48234496	60	7432
2026-01-22 12:34:09.04	25.06	3.91	-44.5	-46.4	17.6	0.00e+00	17	40	0	50331648	60	7584
2026-01-22 12:34:10.04	25.16	3.97	-44.4	-46.3	17.7	0.00e+00	0	40	0	52428800	60	7448
2026-01-22 12:34:11.05	25.25	4.02	-44.2	-46.1	17.6	0.00e+00	66	40	0	54525952	60	7301
2026-01-22 12:34:12.06	25.34	4.07	-43.9	-45.7	18.0	0.00e+00	0	40	0	55574528	60	6972
2026-01-22 12:34:13.07	25.43	4.13	-44.0	-45.8	18.2	0.00e+00	0	40	0	57671680	60	7012
2026-01-22 12:34:14.08	25.53	4.18	-44.0	-45.7	18.5	0.00e+00	0	40	0	59768832	60	6979
2026-01-22 12:34:15.09	25.62	4.24	-43.7	-45.4	18.6	0.00e+00	0	41	0	61865984	60	6715
2026-01-22 12:34:16.10	25.71	4.29	-44.0	-45.8	18.1	0.00e+00	43	41	0	63963136	60	7010
2026-01-22 12:34:17.11	25.81	4.34	-43.9	-45.6	18.4	0.00e+00	0	41	0	65011712	60	6856
2026-01-22 12:34:18.12	25.90	4.40	-44.1	-45.9	18.3	0.00e+00	90	40	0	67108864	60	7133
2026-01-22 12:34:19.13	26.00	4.45	-43.8	-45.4	18.6	0.00e+00	0	41	0	69206016	60	6753
2026-01-22 12:34:20.14	26.09	4.51	-43.7	-45.3	18.9	0.00e+00	0	41	0	71303168	60	6675
2026-01-22 12:34:21.15	26.19	4.56	-43.9	-45.5	18.6	0.00e+00	5	40	0	73400320	60	6843
2026-01-22 12:34:22.16	26.28	4.62	-43.5	-45.1	18.9	0.00e+00	0	41	0	74448896	60	6519
2026-01-22 12:34:23.17	26.38	4.67	-43.9	-45.6	18.5	0.00e+00	2	40	0	76546048	60	6866
2026-01-22 12:34:24.18	26.47	4.73	-43.4	-44.9	19.2	0.00e+00	0	40	0	78643200	60	6379
2026-01-22 12:34:25.19	26.57	4.78	-43.9	-45.6	18.6	0.00e+00	82	41	0	80740352	60	6852
2026-01-22 12:34:26.20	26.67	4.83	-43.5	-45.1	18.9	0.00e+00	0	41	0	82837504	60	6499
2026-01-22 12:34:27.21	26.76	4.89	-43.3	-44.8	19.3	0.00e+00	0	40	0	83886080	60	6272
2026-01-22 12:34:28.22	26.86	4.94	-43.6	-45.2	18.9	0.00e+00	0	41	0	85983232	60	6595
2026-01-22 12:34:29.23	26.96	5.00	-43.3	-44.8	19.1	0.00e+00	0	41	0	88080384	60	6278
2026-01-22 12:34:30.23	27.06	5.05	-43.4	-44.9	19.1	0.00e+00	3	41	0	90177536	60	6373
2026-01-22 12:34:31.24	27.16	5.11	-43.7	-45.3	18.9	0.00e+00	0	41	0	92274688	60	6638
2026-01-22 12:34:32.25	27.25	5.16	-43.5	-45.1	19.0	0.00e+00	92	41	0	93323264	60	6488
2026-01-22 12:34:33.26	27.35	5.22	-43.6	-45.2	18.9	0.00e+00	0	40	0	95420416	60	6556
2026-01-22 12:34:34.27	27.45	5.27	-43.9	-45.6	18.5	0.00e+00	0	41	0	97517568	60	6878
2026-01-22 12:34:35.28	27.55	5.33	-44.0	-45.7	18.5	0.00e+00	0	41	0	99614720	60	6971
2026-01-22 12:34:36.30	27.66	5.38	-44.1	-45.9	18.4	0.00e+00	0	41	0	101711872	60	7114
2026-01-22 12:34:37.31	27.76	5.44	-44.0	-45.7	18.3	0.00e+00	19	40	0	103809024	60	6958
2026-01-22 12:34:38.31	27.86	5.49	-44.2	-45.9	17.9	0.00e+00	0	41	0	104857600	60	7147
2026-01-22 12:34:39.32	27.96	5.55	-43.6	-45.2	19.0	0.00e+00	73	41	0	106954752	60	6550
2026-01-22 12:34:40.33	28.06	5.60	-44.0	-45.7	18.4	0.00e+00	0	41	0	109051904	60	6995
2026-01-22 12:34:41.34	28.16	5.66	-43.8	-45.4	18.7	0.00e+00	0	40	0	111149056	60	6759
2026-01-22 12:34:42.35	28.27	5.72	-44.0	-45.7	18.5	0.00e+00	0	41	0	113246208	60	7000
2026-01-22 12:34:43.35	28.37	5.77	-44.0	-45.8	18.5	0.00e+00	0	40	0	114294784	60	7009
2026-01-22 12:34:44.36	28.47	5.83	-44.1	-45.8	18.4	0.00e+00	3	41	0	116391936	60	7048
2026-01-22 12:34:45.37	28.57	5.88	-43.9	-45.6	18.6	0.00e+00	0	41	0	118489088	60	6875
2026-01-22 12:34:46.38	28.68	5.94	-43.8	-45.4	18.8	0.00e+00	73	41	0	120586240	60	6710
2026-01-22 12:34:47.39	28.78	5.99	-43.6	-45.2	19.0	0.00e+00	0	41	0	122683392	60	6608
2026-01-22 12:34:48.40	28.89	6.05	-43.4	-44.9	19.3	0.00e+00	92	41	0	123731968	60	6370
2026-01-22 12:34:49.41	28.99	6.10	-43.3	-44.8	19.4	0.00e+00	0	41	0	125829120	60	6261
2026-01-22 12:34:50.42	29.10	6.16	-43.2	-44.6	19.7	0.00e+00	0	41	0	127926272	60	6146
2026-01-22 12:34:51.43	29.21	6.22	-42.8	-44.2	20.0	0.00e+00	0	41	0	130023424	60	5884
2026-01-22 12:34:52.44	29.31	6.27	-42.9	-44.2	20.0	0.00e+00	0	41	0	132120576	60	5889
2026-01-22 12:34:53.45	29.42	6.33	-42.8	-44.2	20.0	0.00e+00	0	41	0	133169152	60	5842
2026-01-22 12:34:54.46	29.53	6.38	-42.4	-43.8	20.3	0.00e+00	0	41	0	135266304	58	6246
2026-01-22 12:34:55.47	29.63	6.44	-42.2	-43.4	20.5	0.00e+00	91	41	0	137363456	58	6027
2026-01-22 12:34:56.48	29.74	6.50	-42.4	-43.7	20.4	0.00e+00	0	41	0	139460608	58	6188
2026-01-22 12:34:57.49	29.85	6.55	-42.3	-43.6	20.5	0.00e+00	0	41	0	141557760	58	6134
2026-01-22 12:34:58.50	29.96	6.61	-42.0	-43.2	20.9	0.00e+00	0	41	0	142606336	58	5852
2026-01-22 12:34:59.51	30.07	6.66	-42.0	-43.2	20.8	0.00e+00	0	41	0	144703488	58	5875
2026-01-22 12:35:00.52	30.18	6.72	-41.9	-43.1	20.9	0.00e+00	1	41	0	146800640	56	6510
2026-01-22 12:35:01.53	30.29	6.78	-42.2	-43.4	20.7	0.00e+00	0	41	0	148897792	56	6747
2026-01-22 12:35:02.54	30.40	6.83	-41.9	-43.1	21.0	0.00e+00	36	41	0	150994944	56	6532
2026-01-22 12:35:03.55	30.51	6.89	-42.0	-43.2	20.9	0.00e+00	0	41	0	152043520	56	6608
2026-01-22 12:35:04.56	30.62	6.95	-42.1	-43.3	20.8	0.00e+00	0	41	0	154140672	56	6633
2026-01-22 12:35:05.57	30.73	7.00	-42.3	-43.5	20.6	0.00e+00	0	41	0	156237824	56	6824
2026-01-22 12:35:06.58	30.84	7.06	-42.3	-43.6	20.4	0.00e+00	0	41	0	158334976	56	6855
2026-01-22 12:35:07.58	30.96	7.11	-42.3	-43.6	20.5	0.00e+00	65	41	0	160432128	56	6861
2026-01-22 12:35:08.59	31.07	7.17	-42.5	-43.8	20.4	0.00e+00	0	41	0	161480704	56	7009
2026-01-22 12:35:09.60	31.18	7.23	-42.8	-44.2	20.1	0.00e+00	89	41	0	163577856	58	6599
2026-01-22 12:35:10.61	31.30	7.28	-42.6	-44.0	20.3	0.00e+00	0	41	0	165675008	58	6423
2026-01-22 12:35:11.62	31.41	7.34	-42.5	-43.9	20.3	0.00e+00	0	41	0	167772160	58	6339
2026-01-22 12:35:12.63	31.52	7.40	-42.0	-43.3	20.8	0.00e+00	0	41	0	169869312	58	5899
2026-01-22 12:35:13.64	31.64	7.45	-42.2	-43.5	20.6	0.00e+00	0	41	0	171966464	58	6068
2026-01-22 12:35:14.65	31.75	7.51	-42.1	-43.4	20.7	0.00e+00	63	41	0	173015040	58	5968
2026-01-22 12:35:15.66	31.87	7.57	-42.1	-43.4	20.6	0.00e+00	0	41	0	175112192	58	5991
2026-01-22 12:35:16.67	31.99	7.62	-42.3	-43.6	20.6	0.00e+00	70	41	0	177209344	58	6108
2026-01-22 12:35:17.68	32.10	7.68	-42.2	-43.5	20.6	0.00e+00	0	41	0	179306496	58	6072
2026-01-22 12:35:18.69	32.22	7.74	-42.2	-43.5	20.6	0.00e+00	92	41	0	181403648	58	6073
2026-01-22 12:35:19.69	32.34	7.79	-42.3	-43.6	20.7	0.00e+00	0	41	0	182452224	58	6107
2026-01-22 12:35:20.71	32.46	7.85	-42.2	-43.5	20.7	0.00e+00	0	41	0	184549376	58	6058
2026-01-22 12:35:21.71	32.57	7.91	-42.3	-43.5	20.6	0.00e+00	0	41	0	186646528	58	6100
2026-01-22 12:35:22.73	32.69	7.96	-42.1	-43.4	20.8	0.00e+00	0	41	0	188743680	58	5994
2026-01-22 12:35:23.73	32.81	8.02	-42.2	-43.5	20.7	0.00e+00	3	41	0	190840832	58	6042
2026-01-22 12:35:24.74	32.93	8.08	-42.2	-43.5	20.6	0.00e+00	0	41	0	191889408	58	6058
2026-01-22 12:35:25.75	33.05	8.13	-42.2	-43.5	20.7	0.00e+00	70	41	0	193986560	58	6053
2026-01-22 12:35:26.76	33.17	8.19	-42.2	-43.4	20.8	0.00e+00	0	41	0	196083712	58	6003
2026-01-22 12:35:27.77	33.29	8.25	-42.4	-43.7	20.6	0.00e+00	0	41	0	198180864	58	6239
2026-01-22 12:35:28.78	33.42	8.31	-42.4	-43.6	20.6	0.00e+00	0	41	0	200278016	58	6157
2026-01-22 12:35:29.79	33.54	8.36	-42.3	-43.5	20.8	0.00e+00	0	41	0	201326592	58	6096
2026-01-22 12:35:30.80	33.66	8.42	-42.2	-43.4	20.7	0.00e+00	70	41	0	203423744	58	6031
2026-01-22 12:35:31.81	33.78	8.48	-42.3	-43.6	20.6	0.00e+00	0	41	0	205520896	58	6110
2026-01-22 12:35:32.82	33.91	8.53	-42.2	-43.4	20.8	0.00e+00	90	41	0	207618048	58	6032
2026-01-22 12:35:33.83	34.03	8.59	-42.1	-43.3	20.9	0.00e+00	0	41	0	209715200	58	5958
2026-01-22 12:35:34.84	34.16	8.65	-42.2	-43.5	20.8	0.00e+00	0	41	0	210763776	58	6049
2026-01-22 12:35:35.85	34.28	8.71	-42.0	-43.2	21.0	0.00e+00	0	41	0	212860928	58	5861
2026-01-22 12:35:36.86	34.41	8.76	-42.0	-43.2	21.0	0.00e+00	0	41	0	214958080	58	5855
2026-01-22 12:35:37.87	34.53	8.82	-42.0	-43.2	21.1	0.00e+00	75	41	0	217055232	58	5840
2026-01-22 12:35:38.88	34.66	8.88	-41.9	-43.1	21.2	0.00e+00	0	41	0	219152384	56	6494
2026-01-22 12:35:39.89	34.78	8.93	-41.7	-42.9	21.3	0.00e+00	61	41	0	220200960	56	6336
2026-01-22 12:35:40.90	34.91	8.99	-41.8	-43.0	21.3	0.00e+00	0	41	0	222298112	56	6398
2026-01-22 12:35:41.91	35.04	9.05	-41.6	-42.7	21.4	0.00e+00	0	41	0	224395264	56	6203
2026-01-22 12:35:42.92	35.17	9.11	-41.5	-42.6	21.5	0.00e+00	0	41	0	226492416	56	6148
2026-01-22 12:35:43.93	35.30	9.16	-41.7	-42.8	21.2	0.00e+00	0	41	0	228589568	56	6281
2026-01-22 12:35:44.95	35.43	9.22	-41.6	-42.7	20.9	0.00e+00	5	41	0	229638144	56	6229
2026-01-22 12:35:45.95	35.56	9.28	-41.8	-43.0	21.0	0.00e+00	0	41	0	231735296	56	6402
2026-01-22 12:35:46.96	35.69	9.33	-41.8	-43.0	21.3	0.00e+00	88	41	0	233832448	56	6418
2026-01-22 12:35:47.97	35.82	9.39	-41.9	-43.0	21.2	0.00e+00	0	41	0	235929600	56	6464
2026-01-22 12:35:48.98	35.95	9.45	-41.7	-42.9	21.3	0.00e+00	27	41	0	238026752	56	6336
2026-01-22 12:35:49.99	36.08	9.51	-41.9	-43.0	21.3	0.00e+00	0	41	0	240123904	56	6435
2026-01-22 12:35:51.00	36.21	9.56	-41.9	-43.1	21.2	0.00e+00	0	41	0	241172480	56	6475
2026-01-22 12:35:52.01	36.34	9.62	-41.8	-43.0	21.3	0.00e+00	0	41	0	243269632	56	6399
2026-01-22 12:35:53.02	36.48	9.68	-41.7	-42.8	21.5	0.00e+00	0	41	0	245366784	56	6272
2026-01-22 12:35:54.03	36.61	9.74	-41.8	-42.9	21.4	0.00e+00	53	41	0	247463936	56	6380
2026-01-22 12:35:55.04	36.75	9.79	-41.7	-42.8	21.4	0.00e+00	0	41	0	249561088	56	6314
2026-01-22 12:35:56.05	36.88	9.85	-41.6	-42.7	21.5	0.00e+00	90	41	0	250609664	56	6228
2026-01-22 12:35:57.06	37.02	9.91	-41.9	-43.0	21.3	0.00e+00	0	41	0	252706816	56	6454
2026-01-22 12:35:58.07	37.15	9.96	-41.7	-42.9	21.4	0.00e+00	3	41	0	254803968	56	6327
2026-01-22 12:35:59.08	37.29	10.02	-41.7	-42.8	21.5	0.00e+00	0	41	0	256901120	56	6306
2026-01-22 12:36:00.09	37.42	10.08	-41.9	-43.0	21.3	0.00e+00	0	41	0	258998272	56	6444
2026-01-22 12:36:01.10	37.56	10.14	-41.8	-43.0	21.3	0.00e+00	71	41	0	260046848	56	6412
2026-01-22 12:36:02.11	37.70	10.19	-41.7	-42.8	21.4	0.00e+00	0	41	0	262144000	56	6286
2026-01-22 12:36:03.12	37.84	10.25	-41.9	-43.1	21.3	0.00e+00	75	41	0	264241152	56	6507
2026-01-22 12:36:04.13	37.98	10.31	-41.8	-43.0	21.3	0.00e+00	0	41	0	266338304	56	6412
2026-01-22 12:36:05.14	38.12	10.37	-41.9	-43.1	21.2	0.00e+00	4	41	0	268435456	56	6500
2026-01-22 12:36:06.15	38.26	10.42	-42.1	-43.2	21.1	0.00e+00	0	41	0	269484032	56	6611
2026-01-22 12:36:07.16	38.40	10.48	-41.6	-42.8	21.5	0.00e+00	0	41	0	271581184	56	6265
2026-01-22 12:36:08.17	38.54	10.54	-42.0	-43.1	21.1	0.00e+00	92	41	0	273678336	56	6536
2026-01-22 12:36:09.18	38.68	10.59	-42.0	-43.2	21.1	0.00e+00	0	41	0	275775488	56	6589
2026-01-22 12:36:10.19	38.82	10.65	-42.1	-43.3	21.1	0.00e+00	91	41	0	277872640	56	6650
2026-01-22 12:36:11.20	38.96	10.71	-41.9	-43.1	21.2	0.00e+00	25	41	0	278921216	56	6515
2026-01-22 12:36:12.21	39.11	10.77	-42.2	-43.4	20.9	0.00e+00	0	41	0	281018368	56	6728
2026-01-22 12:36:13.22	39.25	10.82	-41.8	-43.0	21.4	0.00e+00	0	41	0	283115520	56	6398
2026-01-22 12:36:14.23	39.39	10.88	-41.8	-43.0	21.5	0.00e+00	0	41	0	285212672	56	6392
2026-01-22 12:36:15.24	39.54	10.94	-41.6	-42.8	21.5	0.00e+00	7	41	0	287309824	56	6255
2026-01-22 12:36:16.25	39.68	10.99	-41.5	-42.6	21.8	0.00e+00	0	41	0	288358400	56	6117
2026-01-22 12:36:17.26	39.83	11.05	-41.4	-42.5	21.9	0.00e+00	92	41	0	290455552	56	6067
2026-01-22 12:36:18.27	39.98	11.11	-41.5	-42.6	21.8	0.00e+00	0	41	0	292552704	56	6123
2026-01-22 12:36:19.27	40.12	11.16	-41.5	-42.6	21.7	0.00e+00	0	41	0	294649856	56	6151
2026-01-22 12:36:20.28	40.27	11.22	-41.5	-42.6	21.7	0.00e+00	0	41	0	296747008	56	6117
2026-01-22 12:36:21.29	40.42	11.28	-41.5	-42.6	21.7	0.00e+00	0	41	0	297795584	56	6136
2026-01-22 12:36:22.30	40.56	11.33	-41.9	-43.1	21.3	0.00e+00	49	41	0	299892736	56	6465
2026-01-22 12:36:23.31	40.71	11.39	-41.7	-42.9	21.5	0.00e+00	0	41	0	301989888	56	6344
2026-01-22 12:36:24.32	40.86	11.45	-41.8	-43.0	21.4	0.00e+00	90	41	0	304087040	56	6426
2026-01-22 12:36:25.33	41.01	11.51	-41.7	-42.9	21.6	0.00e+00	0	41	0	306184192	56	6322
2026-01-22 12:36:26.34	41.16	11.56	-41.6	-42.7	21.7	0.00e+00	0	41	0	308281344	56	6215
2026-01-22 12:36:27.35	41.32	11.62	-41.5	-42.6	21.7	0.00e+00	0	41	0	309329920	56	6108
2026-01-22 12:36:28.35	41.47	11.67	-41.3	-42.4	21.9	0.00e+00	0	41	0	311427072	56	5971
2026-01-22 12:36:29.36	41.62	11.73	-41.1	-42.1	22.0	0.00e+00	49	41	0	313524224	56	5824
2026-01-22 12:36:30.37	41.77	11.79	-40.5	-41.5	22.6	0.00e+00	0	41	0	315621376	54	6037
2026-01-22 12:36:31.37	41.92	11.84	-40.3	-41.3	22.7	0.00e+00	66	41	0	317718528	54	5897
2026-01-22 12:36:32.38	42.08	11.90	-40.4	-41.3	22.6	0.00e+00	0	41	0	318767104	54	5962
2026-01-22 12:36:33.39	42.23	11.96	-40.4	-41.4	22.5	0.00e+00	45	41	0	320864256	54	6014
2026-01-22 12:36:34.40	42.39	12.01	-40.9	-42.0	22.2	0.00e+00	0	41	0	322961408	54	6401
2026-01-22 12:36:35.41	42.54	12.07	-40.9	-42.0	22.1	0.00e+00	0	41	0	325058560	54	6402
2026-01-22 12:36:36.42	42.70	12.12	-40.9	-41.9	22.1	0.00e+00	16	41	0	327155712	54	6370
2026-01-22 12:36:37.43	42.86	12.18	-41.0	-42.1	21.9	0.00e+00	0	41	0	328204288	54	6492
2026-01-22 12:36:38.44	43.01	12.24	-41.1	-42.1	22.0	0.00e+00	89	41	0	330301440	54	6535
2026-01-22 12:36:39.44	43.17	12.29	-40.9	-42.0	22.1	0.00e+00	0	41	0	332398592	54	6431
2026-01-22 12:36:40.45	43.33	12.35	-41.1	-42.1	22.1	0.00e+00	92	41	0	334495744	54	6535
2026-01-22 12:36:41.46	43.49	12.40	-41.0	-42.0	22.2	0.00e+00	0	41	0	336592896	54	6435
2026-01-22 12:36:42.47	43.65	12.46	-40.9	-42.0	22.1	0.00e+00	0	41	0	337641472	54	6432
2026-01-22 12:36:43.48	43.81	12.52	-40.8	-41.9	22.3	0.00e+00	0	41	0	339738624	54	6355
2026-01-22 12:36:44.49	43.97	12.57	-40.9	-42.0	22.2	0.00e+00	0	41	0	341835776	54	6407
2026-01-22 12:36:45.50	44.13	12.63	-40.9	-41.9	22.2	0.00e+00	81	41	0	343932928	54	6380
2026-01-22 12:36:46.51	44.30	12.68	-41.0	-42.1	22.1	0.00e+00	0	41	0	346030080	54	6506
2026-01-22 12:36:47.52	44.46	12.74	-40.7	-41.8	22.4	0.00e+00	90	41	0	347078656	54	6251
2026-01-22 12:36:48.53	44.62	12.79	-40.6	-41.7	22.5	0.00e+00	0	41	0	349175808	54	6181
2026-01-22 12:36:49.54	44.79	12.85	-40.7	-41.7	22.4	0.00e+00	0	41	0	351272960	54	6230
2026-01-22 12:36:50.55	44.95	12.90	-40.7	-41.7	22.4	0.00e+00	0	41	0	353370112	54	6200
2026-01-22 12:36:51.56	45.12	12.96	-40.7	-41.7	22.4	0.00e+00	0	41	0	355467264	54	6198
2026-01-22 12:36:52.57	45.28	13.01	-40.9	-41.9	22.3	0.00e+00	8	41	0	356515840	54	6360
2026-01-22 12:36:53.57	45.45	13.07	-40.7	-41.8	22.1	0.00e+00	0	41	0	358612992	54	6254
2026-01-22 12:36:54.58	45.61	13.12	-40.9	-41.9	22.2	0.00e+00	91	41	0	360710144	54	6381
2026-01-22 12:36:55.59	45.78	13.18	-40.7	-41.7	22.3	0.00e+00	0	41	0	362807296	54	6224
2026-01-22 12:36:56.60	45.95	13.23	-40.8	-41.9	22.2	0.00e+00	37	41	0	364904448	54	6348
2026-01-22 12:36:57.61	46.12	13.29	-40.9	-42.0	22.2	0.00e+00	0	41	0	365953024	54	6399
2026-01-22 12:36:58.62	46.29	13.34	-41.0	-42.1	22.1	0.00e+00	0	41	0	368050176	54	6472
2026-01-22 12:36:59.63	46.46	13.39	-41.0	-42.1	22.1	0.00e+00	4	41	0	370147328	54	6514
2026-01-22 12:37:00.64	46.63	13.45	-41.0	-42.1	22.1	0.00e+00	0	41	0	372244480	54	6489
2026-01-22 12:37:01.65	46.80	13.50	-41.0	-42.1	22.2	0.00e+00	92	41	0	374341632	54	6505
2026-01-22 12:37:02.66	46.97	13.56	-41.0	-42.0	22.1	0.00e+00	0	41	0	376438784	54	6462
2026-01-22 12:37:03.67	47.14	13.61	-41.0	-42.0	22.2	0.00e+00	0	41	0	377487360	54	6430
2026-01-22 12:37:04.68	47.32	13.66	-40.9	-41.9	22.2	0.00e+00	0	41	0	379584512	54	6371
2026-01-22 12:37:05.69	47.49	13.72	-40.9	-41.9	22.2	0.00e+00	0	41	0	381681664	54	6376
2026-01-22 12:37:06.70	47.67	13.77	-41.4	-42.5	21.8	0.00e+00	0	41	0	383778816	54	6808
2026-01-22 12:37:07.71	47.84	13.82	-40.9	-41.9	22.3	0.00e+00	0	41	0	385875968	54	6352
2026-01-22 12:37:08.72	48.02	13.88	-41.0	-42.1	22.2	0.00e+00	92	41	0	386924544	54	6491
2026-01-22 12:37:09.73	48.19	13.93	-41.2	-42.3	21.8	0.00e+00	0	41	0	389021696	54	6687
2026-01-22 12:37:10.73	48.37	13.98	-41.2	-42.3	21.9	0.00e+00	68	41	0	391118848	54	6617
2026-01-22 12:37:11.74	48.55	14.04	-41.3	-42.4	21.7	0.00e+00	0	41	0	393216000	54	6768
2026-01-22 12:37:12.75	48.72	14.09	-41.4	-42.5	21.7	0.00e+00	0	41	0	394264576	54	6824
2026-01-22 12:37:13.76	48.90	14.14	-41.4	-42.5	21.8	0.00e+00	7	41	0	396361728	54	6806
2026-01-22 12:37:14.77	49.08	14.19	-41.3	-42.4	21.8	0.00e+00	0	41	0	398458880	54	6745
2026-01-22 12:37:15.78	49.26	14.25	-41.4	-42.5	21.8	0.00e+00	5	41	0	400556032	54	6801
2026-01-22 12:37:16.79	49.44	14.30	-41.6	-42.7	21.6	0.00e+00	0	41	0	402653184	54	6977
2026-01-22 12:37:17.80	49.62	14.35	-41.7	-42.9	21.4	0.00e+00	80	41	0	404750336	56	6330
2026-01-22 12:37:18.81	49.80	14.40	-41.9	-43.0	21.2	0.00e+00	0	41	0	405798912	56	6464
2026-01-22 12:37:19.82	49.99	14.45	-42.2	-43.4	21.0	0.00e+00	0	41	0	407896064	56	6750
2026-01-22 12:37:20.83	50.17	14.51	-42.4	-43.7	20.8	0.00e+00	0	41	0	409993216	56	6962
2026-01-22 12:37:21.84	50.35	14.56	-42.7	-44.0	20.6	0.00e+00	0	41	0	412090368	56	7187
2026-01-22 12:37:22.85	50.54	14.61	-42.4	-43.7	20.9	0.00e+00	7	41	0	414187520	56	6939
2026-01-22 12:37:23.86	50.72	14.66	-42.6	-43.9	20.6	0.00e+00	0	41	0	415236096	56	7156
2026-01-22 12:37:24.87	50.91	14.71	-42.5	-43.8	20.7	0.00e+00	92	41	0	417333248	56	7063
2026-01-22 12:37:25.88	51.09	14.76	-41.9	-43.0	21.4	0.00e+00	0	41	0	419430400	56	6454
2026-01-22 12:37:26.89	51.28	14.81	-41.8	-42.9	21.5	0.00e+00	0	41	0	421527552	56	6367
2026-01-22 12:37:27.90	51.47	14.86	-41.9	-43.1	21.2	0.00e+00	0	41	0	423624704	56	6523
2026-01-22 12:37:28.91	51.66	14.91	-41.8	-43.0	21.4	0.00e+00	0	41	0	424673280	56	6396
2026-01-22 12:37:29.92	51.84	14.96	-41.7	-42.9	21.6	0.00e+00	9	41	0	426770432	56	6341
2026-01-22 12:37:30.93	52.03	15.01	-41.7	-42.9	21.6	0.00e+00	0	41	0	428867584	56	6331
2026-01-22 12:37:31.94	52.22	15.06	-41.6	-42.8	21.5	0.00e+00	81	41	0	430964736	56	6248
2026-01-22 12:37:32.94	52.41	15.11	-41.9	-43.0	21.5	0.00e+00	0	41	0	433061888	56	6439
2026-01-22 12:37:33.95	52.60	15.16	-41.6	-42.7	21.6	0.00e+00	68	41	0	434110464	56	6221
2026-01-22 12:37:34.96	52.79	15.21	-41.8	-43.0	21.5	0.00e+00	0	41	0	436207616	56	6410
2026-01-22 12:37:35.97	52.99	15.26	-42.2	-43.4	21.1	0.00e+00	0	41	0	438304768	56	6732
2026-01-22 12:37:36.98	53.18	15.31	-42.0	-43.2	21.3	0.00e+00	0	41	0	440401920	56	6549
2026-01-22 12:37:37.99	53.37	15.35	-42.1	-43.2	21.3	0.00e+00	0	41	0	442499072	56	6615
2026-01-22 12:37:39.00	53.57	15.40	-42.2	-43.4	21.1	0.00e+00	92	41	0	443547648	56	6763
2026-01-22 12:37:40.01	53.76	15.45	-42.2	-43.5	21.1	0.00e+00	0	41	0	445644800	56	6775
2026-01-22 12:37:41.02	53.96	15.50	-42.0	-43.2	21.3	0.00e+00	0	41	0	447741952	56	6554
2026-01-22 12:37:42.03	54.15	15.55	-41.7	-42.9	21.6	0.00e+00	0	41	0	449839104	56	6321
2026-01-22 12:37:43.04	54.35	15.59	-41.7	-42.9	21.3	0.00e+00	0	41	0	451936256	56	6340
2026-01-22 12:37:44.05	54.55	15.64	-41.8	-42.9	21.3	0.00e+00	0	41	0	452984832	56	6382
2026-01-22 12:37:45.06	54.74	15.69	-42.0	-43.1	21.4	0.00e+00	10	41	0	455081984	56	6525
2026-01-22 12:37:46.07	54.94	15.73	-42.2	-43.4	21.1	0.00e+00	73	41	0	457179136	56	6756
2026-01-22 12:37:47.08	55.14	15.78	-42.3	-43.6	21.0	0.00e+00	0	41	0	459276288	56	6872
2026-01-22 12:37:48.09	55.34	15.83	-42.3	-43.5	20.9	0.00e+00	85	41	0	461373440	56	6819
2026-01-22 12:37:49.10	55.54	15.87	-42.4	-43.7	20.9	0.00e+00	0	41	0	462422016	56	6941
2026-01-22 12:37:50.11	55.74	15.92	-42.3	-43.5	21.1	0.00e+00	0	41	0	464519168	56	6827
2026-01-22 12:37:51.11	55.94	15.96	-42.2	-43.3	21.2	0.00e+00	0	41	0	466616320	56	6686
2026-01-22 12:37:52.12	56.14	16.01	-42.2	-43.4	21.1	0.00e+00	27	41	0	468713472	56	6708
2026-01-22 12:37:53.13	56.35	16.05	-42.1	-43.3	21.2	0.00e+00	92	41	0	470810624	56	6685
2026-01-22 12:37:54.14	56.55	16.10	-42.3	-43.5	21.1	0.00e+00	0	41	0	472907776	56	6790
2026-01-22 12:37:55.15	56.75	16.14	-42.5	-43.7	20.8	0.00e+00	54	41	0	473956352	56	6997
2026-01-22 12:37:56.16	56.96	16.19	-42.5	-43.7	20.8	0.00e+00	0	41	0	476053504	58	6229
2026-01-22 12:37:57.17	57.16	16.23	-42.2	-43.4	21.1	0.00e+00	0	41	0	478150656	58	5985
2026-01-22 12:37:58.18	57.37	16.27	-42.1	-43.3	21.2	0.00e+00	27	41	0	480247808	58	5906
2026-01-22 12:37:59.19	57.57	16.32	-42.0	-43.2	21.2	0.00e+00	0	41	0	482344960	58	5863
2026-01-22 12:38:00.20	57.78	16.36	-41.9	-43.1	21.4	0.00e+00	8	41	0	483393536	58	5767
2026-01-22 12:38:01.21	57.99	16.40	-41.9	-43.1	21.5	0.00e+00	0	41	0	485490688	58	5764
2026-01-22 12:38:02.22	58.19	16.45	-41.9	-43.0	21.4	0.00e+00	90	41	0	487587840	58	5746
2026-01-22 12:38:03.23	58.40	16.49	-41.8	-42.9	21.4	0.00e+00	0	41	0	489684992	56	6340
2026-01-22 12:38:04.23	58.61	16.53	-41.9	-43.0	21.6	0.00e+00	0	41	0	491782144	56	6429
2026-01-22 12:38:05.25	58.82	16.57	-41.9	-43.1	21.4	0.00e+00	0	41	0	492830720	56	6470
2026-01-22 12:38:06.26	59.03	16.61	-42.0	-43.1	21.3	0.00e+00	0	41	0	494927872	56	6538
2026-01-22 12:38:07.26	59.24	16.65	-41.8	-42.9	21.5	0.00e+00	9	41	0	497025024	56	6341
2026-01-22 12:38:08.27	59.45	16.70	-41.9	-43.1	21.4	0.00e+00	0	41	0	499122176	56	6484
2026-01-22 12:38:09.28	59.66	16.74	-41.3	-42.4	22.0	0.00e+00	92	41	0	501219328	56	5992
2026-01-22 12:38:10.29	59.88	16.78	-41.0	-42.1	22.2	0.00e+00	0	41	0	502267904	56	5774
2026-01-22 12:38:11.31	60.09	16.82	-40.8	-41.8	22.3	0.00e+00	21	41	0	504365056	56	5618
2026-01-22 12:38:12.32	60.30	16.86	-40.9	-42.0	22.1	0.00e+00	0	41	0	506462208	56	5698
2026-01-22 12:38:13.33	60.52	16.90	-41.4	-42.5	22.0	0.00e+00	0	41	0	508559360	56	6034
2026-01-22 12:38:14.34	60.73	16.93	-41.3	-42.4	22.0	0.00e+00	54	41	0	510656512	56	5975
2026-01-22 12:38:15.35	60.95	16.97	-41.6	-42.7	21.7	0.00e+00	0	41	0	511705088	56	6231
2026-01-22 12:38:16.36	61.16	17.01	-41.7	-42.8	21.7	0.00e+00	92	41	0	513802240	56	6268
2026-01-22 12:38:17.37	61.38	17.05	-41.7	-42.9	21.7	0.00e+00	0	41	0	515899392	56	6321
2026-01-22 12:38:18.38	61.60	17.09	-41.4	-42.5	21.9	0.00e+00	92	41	0	517996544	56	6069
2026-01-22 12:38:19.39	61.81	17.12	-41.3	-42.4	21.9	0.00e+00	0	41	0	520093696	56	6014
2026-01-22 12:38:20.40	62.03	17.16	-41.4	-42.5	21.9	0.00e+00	0	41	0	521142272	56	6069
2026-01-22 12:38:21.41	62.25	17.20	-41.7	-42.8	21.6	0.00e+00	47	41	0	523239424	56	6314
2026-01-22 12:38:22.42	62.47	17.23	-41.6	-42.7	21.8	0.00e+00	0	41	0	525336576	56	6187
2026-01-22 12:38:23.42	62.68	17.27	-41.4	-42.5	21.9	0.00e+00	92	41	0	527433728	56	6049
2026-01-22 12:38:24.43	62.90	17.31	-41.3	-42.4	21.8	0.00e+00	0	41	0	529530880	56	5976
2026-01-22 12:38:25.44	63.13	17.34	-41.1	-42.1	22.4	0.00e+00	84	41	0	530579456	56	5811
2026-01-22 12:38:26.45	63.35	17.38	-40.6	-41.6	22.5	0.00e+00	0	41	0	532676608	54	6166
2026-01-22 12:38:27.46	63.57	17.41	-40.4	-41.4	22.7	0.00e+00	0	41	0	534773760	54	5993
2026-01-22 12:38:28.47	63.79	17.44	-40.7	-41.7	22.5	0.00e+00	7	41	0	536870912	54	6192
2026-01-22 12:38:29.48	64.01	17.48	-40.8	-41.8	22.4	0.00e+00	0	41	0	538968064	54	6277
2026-01-22 12:38:30.49	64.23	17.51	-41.1	-42.2	22.0	0.00e+00	3	41	0	541065216	54	6567
2026-01-22 12:38:31.50	64.46	17.55	-41.4	-42.5	21.8	0.00e+00	0	41	0	542113792	54	6837
2026-01-22 12:38:32.51	64.68	17.58	-41.6	-42.7	21.7	0.00e+00	90	41	0	544210944	54	6979
2026-01-22 12:38:33.52	64.91	17.61	-41.4	-42.5	21.9	0.00e+00	0	41	0	546308096	54	6789
2026-01-22 12:38:34.53	65.13	17.64	-41.5	-42.6	21.8	0.00e+00	0	41	0	548405248	54	6886
2026-01-22 12:38:35.54	65.36	17.67	-41.3	-42.4	21.9	0.00e+00	0	41	0	550502400	54	6700
2026-01-22 12:38:36.55	65.58	17.71	-41.1	-42.2	22.0	0.00e+00	0	41	0	551550976	54	6582
2026-01-22 12:38:37.56	65.81	17.74	-41.0	-42.0	22.2	0.00e+00	8	41	0	553648128	54	6438
2026-01-22 12:38:38.57	66.03	17.77	-40.8	-41.8	22.4	0.00e+00	0	41	0	555745280	54	6315
2026-01-22 12:38:39.58	66.26	17.80	-40.7	-41.7	22.4	0.00e+00	48	41	0	557842432	54	6241
2026-01-22 12:38:40.59	66.49	17.83	-40.5	-41.5	22.6	0.00e+00	0	41	0	559939584	54	6073
2026-01-22 12:38:41.60	66.72	17.86	-40.4	-41.3	22.9	0.00e+00	0	41	0	560988160	54	5952
2026-01-22 12:38:42.61	66.94	17.88	-40.2	-41.2	22.9	0.00e+00	0	41	0	563085312	54	5832
2026-01-22 12:38:43.62	67.17	17.91	-40.3	-41.2	22.9	0.00e+00	0	41	0	565182464	54	5868
2026-01-22 12:38:44.63	67.40	17.94	-40.4	-41.4	22.6	0.00e+00	9	41	0	567279616	54	6015
2026-01-22 12:38:45.64	67.63	17.97	-40.5	-41.5	22.6	0.00e+00	0	41	0	569376768	54	6068
2026-01-22 12:38:46.65	67.86	18.00	-40.8	-41.8	22.4	0.00e+00	77	41	0	570425344	54	6290
2026-01-22 12:38:47.65	68.09	18.02	-40.7	-41.8	22.5	0.00e+00	0	41	0	572522496	54	6264
2026-01-22 12:38:48.66	68.32	18.05	-40.7	-41.8	22.4	0.00e+00	0	41	0	574619648	54	6250
2026-01-22 12:38:49.67	68.55	18.08	-40.7	-41.7	22.2	0.00e+00	0	41	0	576716800	54	6204
2026-01-22 12:38:50.68	68.78	18.10	-40.5	-41.5	22.6	0.00e+00	0	41	0	578813952	54	6066
2026-01-22 12:38:51.69	69.02	18.13	-40.6	-41.6	22.5	0.00e+00	7	41	0	579862528	54	6108
2026-01-22 12:38:52.70	69.25	18.15	-40.6	-41.6	22.5	0.00e+00	0	41	0	581959680	54	6161
2026-01-22 12:38:53.71	69.48	18.18	-41.1	-42.2	22.1	0.00e+00	50	41	0	584056832	54	6561
2026-01-22 12:38:54.72	69.71	18.20	-41.1	-42.2	22.0	0.00e+00	0	41	0	586153984	54	6580
2026-01-22 12:38:55.73	69.95	18.22	-41.2	-42.3	22.0	0.00e+00	92	41	0	588251136	54	6642
2026-01-22 12:38:56.74	70.18	18.25	-41.4	-42.5	21.8	0.00e+00	0	41	0	589299712	54	6848
2026-01-22 12:38:57.75	70.41	18.27	-41.3	-42.4	21.9	0.00e+00	0	41	0	591396864	54	6742
2026-01-22 12:38:58.76	70.65	18.29	-40.9	-41.9	22.3	0.00e+00	0	41	0	593494016	54	6380
2026-01-22 12:38:59.77	70.88	18.31	-40.8	-41.9	22.4	0.00e+00	0	41	0	595591168	54	6335
2026-01-22 12:39:00.78	71.12	18.33	-40.9	-42.0	22.2	0.00e+00	91	41	0	597688320	54	6405
2026-01-22 12:39:01.79	71.35	18.35	-41.3	-42.4	21.9	0.00e+00	0	41	0	598736896	54	6716
2026-01-22 12:39:02.80	71.59	18.37	-41.6	-42.7	21.8	0.00e+00	91	41	0	600834048	54	6944
2026-01-22 12:39:03.81	71.83	18.39	-41.5	-42.7	21.7	0.00e+00	0	41	0	602931200	54	6932
2026-01-22 12:39:04.82	72.06	18.41	-41.4	-42.5	21.9	0.00e+00	0	41	0	605028352	54	6828
2026-01-22 12:39:05.83	72.30	18.43	-41.5	-42.6	21.7	0.00e+00	0	41	0	607125504	54	6893
2026-01-22 12:39:06.84	72.54	18.45	-41.6	-42.7	21.7	0.00e+00	0	41	0	609222656	54	6928
2026-01-22 12:39:07.85	72.77	18.47	-41.6	-42.7	21.7	0.00e+00	92	41	0	610271232	56	6214
2026-01-22 12:39:08.86	73.01	18.49	-42.0	-43.1	21.3	0.00e+00	0	41	0	612368384	56	6539
2026-01-22 12:39:09.87	73.25	18.50	-42.2	-43.4	21.1	0.00e+00	91	41	0	614465536	56	6757
2026-01-22 12:39:10.88	73.49	18.52	-42.4	-43.6	20.7	0.00e+00	0	41	0	616562688	56	6926
2026-01-22 12:39:11.88	73.72	18.54	-42.3	-43.5	21.1	0.00e+00	0	41	0	618659840	56	6831
2026-01-22 12:39:12.89	73.96	18.55	-42.3	-43.5	21.0	0.00e+00	0	41	0	619708416	56	6801
2026-01-22 12:39:13.90	74.20	18.57	-42.2	-43.4	21.1	0.00e+00	0	41	0	621805568	56	6748
2026-01-22 12:39:14.91	74.44	18.58	-41.9	-43.0	21.5	0.00e+00	10	41	0	623902720	56	6445
2026-01-22 12:39:15.92	74.68	18.60	-42.0	-43.2	21.3	0.00e+00	0	41	0	625999872	56	6580
2026-01-22 12:39:16.93	74.92	18.61	-42.0	-43.2	21.2	0.00e+00	92	41	0	628097024	56	6613
2026-01-22 12:39:17.94	75.16	18.62	-42.1	-43.3	21.1	0.00e+00	0	41	0	629145600	56	6684
2026-01-22 12:39:18.95	75.40	18.64	-41.9	-43.0	21.5	0.00e+00	13	41	0	631242752	56	6448
2026-01-22 12:39:19.96	75.64	18.65	-41.7	-42.8	21.6	0.00e+00	0	41	0	633339904	56	6302
2026-01-22 12:39:20.97	75.88	18.66	-41.6	-42.7	21.9	0.00e+00	0	41	0	635437056	56	6206
2026-01-22 12:39:21.98	76.12	18.67	-41.4	-42.5	21.9	0.00e+00	43	41	0	637534208	56	6048
2026-01-22 12:39:22.99	76.36	18.68	-41.5	-42.6	22.0	0.00e+00	0	42	0	638582784	56	6108
2026-01-22 12:39:24.00	76.60	18.69	-41.3	-42.4	21.9	0.00e+00	90	41	0	640679936	56	5978
2026-01-22 12:39:25.01	76.84	18.70	-41.4	-42.4	21.8	0.00e+00	0	41	0	642777088	56	6011
2026-01-22 12:39:26.02	77.08	18.71	-41.7	-42.8	21.7	0.00e+00	36	41	0	644874240	56	6289
2026-01-22 12:39:27.02	77.32	18.72	-41.6	-42.7	21.7	0.00e+00	0	41	0	646971392	56	6192
2026-01-22 12:39:28.03	77.56	18.73	-41.4	-42.4	21.9	0.00e+00	0	41	0	648019968	56	6016
2026-01-22 12:39:29.04	77.80	18.74	-41.4	-42.5	22.0	0.00e+00	25	41	0	650117120	56	6061
2026-01-22 12:39:30.05	78.04	18.75	-41.6	-42.7	21.8	0.00e+00	0	41	0	652214272	56	6180
2026-01-22 12:39:31.07	78.29	18.75	-41.4	-42.5	21.9	0.00e+00	90	41	0	654311424	56	6058
2026-01-22 12:39:32.08	78.53	18.76	-41.5	-42.6	21.8	0.00e+00	0	41	0	656408576	56	6111
2026-01-22 12:39:33.08	78.77	18.77	-41.5	-42.6	21.8	0.00e+00	92	41	0	657457152	56	6129
2026-01-22 12:39:34.09	79.01	18.77	-41.8	-43.0	21.5	0.00e+00	0	41	0	659554304	56	6402
2026-01-22 12:39:35.10	79.25	18.78	-41.9	-43.1	21.4	0.00e+00	0	41	0	661651456	56	6480
2026-01-22 12:39:36.12	79.50	18.78	-41.9	-43.0	21.5	0.00e+00	22	41	0	663748608	56	6447
2026-01-22 12:39:37.12	79.74	18.78	-42.2	-43.4	21.2	0.00e+00	0	41	0	665845760	56	6694
2026-01-22 12:39:38.13	79.98	18.79	-42.0	-43.2	21.2	0.00e+00	16	41	0	666894336	56	6582
2026-01-22 12:39:39.14	80.22	18.79	-42.1	-43.3	21.2	0.00e+00	24	41	0	668991488	56	6656
2026-01-22 12:39:40.16	80.47	18.79	-42.2	-43.5	21.1	0.00e+00	91	41	0	671088640	56	6789
2026-01-22 12:39:41.16	80.71	18.80	-42.3	-43.6	21.0	0.00e+00	0	41	0	673185792	56	6882
2026-01-22 12:39:42.17	80.95	18.80	-42.3	-43.6	21.0	0.00e+00	0	41	0	675282944	56	6880
2026-01-22 12:39:43.18	81.19	18.80	-42.0	-43.2	21.4	0.00e+00	0	41	0	677380096	56	6553
2026-01-22 12:39:44.19	81.44	18.80	-41.9	-43.1	21.5	0.00e+00	0	41	0	678428672	56	6489
2026-01-22 12:39:45.20	81.68	18.80	-41.4	-42.5	21.9	0.00e+00	8	41	0	680525824	56	6049
2026-01-22 12:39:46.21	81.92	18.80	-41.2	-42.3	22.1	0.00e+00	0	41	0	682622976	56	5912
2026-01-22 12:39:47.22	82.16	18.80	-41.3	-42.4	22.0	0.00e+00	58	41	0	684720128	56	5998
2026-01-22 12:39:48.23	82.41	18.80	-41.3	-42.4	22.0	0.00e+00	0	41	0	686817280	56	5992
2026-01-22 12:39:49.24	82.65	18.79	-41.6	-42.8	21.8	0.00e+00	7	41	0	687865856	56	6264
2026-01-22 12:39:50.25	82.89	18.79	-41.8	-43.0	21.5	0.00e+00	0	41	0	689963008	56	6431
2026-01-22 12:39:51.26	83.14	18.79	-41.8	-43.0	21.5	0.00e+00	0	41	0	692060160	56	6407
2026-01-22 12:39:52.27	83.38	18.79	-42.0	-43.2	21.3	0.00e+00	9	41	0	694157312	56	6568
2026-01-22 12:39:53.28	83.62	18.78	-42.1	-43.3	21.3	0.00e+00	0	41	0	696254464	56	6619
2026-01-22 12:39:54.29	83.86	18.78	-42.0	-43.2	21.3	0.00e+00	92	41	0	697303040	56	6576
2026-01-22 12:39:55.30	84.10	18.77	-42.2	-43.4	21.2	0.00e+00	0	41	0	699400192	56	6708
2026-01-22 12:39:56.30	84.34	18.77	-42.3	-43.5	21.1	0.00e+00	85	41	0	701497344	56	6823
2026-01-22 12:39:57.31	84.59	18.76	-42.2	-43.4	21.1	0.00e+00	0	41	0	703594496	56	6710
2026-01-22 12:39:58.32	84.83	18.75	-42.1	-43.3	21.2	0.00e+00	0	41	0	705691648	56	6660
2026-01-22 12:39:59.33	85.07	18.75	-42.1	-43.3	20.7	0.00e+00	8	41	0	706740224	56	6665
2026-01-22 12:40:00.34	85.31	18.74	-41.9	-43.1	21.4	0.00e+00	23	41	0	708837376	56	6486
2026-01-22 12:40:01.35	85.55	18.73	-41.9	-43.1	21.4	0.00e+00	92	41	0	710934528	56	6501
2026-01-22 12:40:02.36	85.80	18.72	-42.0	-43.2	21.3	0.00e+00	0	41	0	713031680	56	6571
2026-01-22 12:40:03.37	86.04	18.71	-42.0	-43.2	21.4	0.00e+00	5	41	0	715128832	56	6572
2026-01-22 12:40:04.38	86.28	18.71	-41.9	-43.1	21.4	0.00e+00	0	41	0	716177408	56	6508
2026-01-22 12:40:05.39	86.52	18.70	-41.8	-43.0	21.5	0.00e+00	0	41	0	718274560	56	6433
2026-01-22 12:40:06.40	86.76	18.69	-41.7	-42.9	21.7	0.00e+00	2	41	0	720371712	56	6328
2026-01-22 12:40:07.41	87.00	18.67	-41.5	-42.6	21.9	0.00e+00	0	41	0	722468864	56	6106
2026-01-22 12:40:08.42	87.24	18.66	-41.4	-42.5	21.9	0.00e+00	89	41	0	724566016	56	6086
2026-01-22 12:40:09.43	87.48	18.65	-41.3	-42.4	22.0	0.00e+00	0	41	0	725614592	56	5988
2026-01-22 12:40:10.44	87.72	18.64	-40.8	-41.8	22.5	0.00e+00	83	41	0	727711744	56	5576
2026-01-22 12:40:11.45	87.96	18.63	-40.6	-41.6	22.5	0.00e+00	0	41	0	729808896	54	6166
2026-01-22 12:40:12.46	88.20	18.61	-40.6	-41.7	22.6	0.00e+00	0	41	0	731906048	54	6176
2026-01-22 12:40:13.47	88.44	18.60	-40.7	-41.7	22.5	0.00e+00	3	41	0	734003200	54	6208
2026-01-22 12:40:14.48	88.68	18.58	-41.1	-42.2	22.1	0.00e+00	0	41	0	735051776	54	6576
2026-01-22 12:40:15.49	88.92	18.57	-41.1	-42.2	22.2	0.00e+00	91	41	0	737148928	54	6576
2026-01-22 12:40:16.50	89.16	18.56	-41.3	-42.3	22.0	0.00e+00	0	41	0	739246080	54	6688
2026-01-22 12:40:17.51	89.40	18.54	-41.6	-42.7	21.5	0.00e+00	90	41	0	741343232	54	6977
2026-01-22 12:40:18.52	89.64	18.52	-41.6	-42.8	21.6	0.00e+00	0	41	0	743440384	54	7019
2026-01-22 12:40:19.53	89.88	18.51	-41.7	-42.8	21.7	0.00e+00	0	41	0	744488960	54	7054
2026-01-22 12:40:20.54	90.12	18.49	-41.4	-42.5	21.7	0.00e+00	0	41	0	746586112	54	6834
2026-01-22 12:40:21.55	90.35	18.47	-41.7	-42.8	21.5	0.00e+00	0	41	0	748683264	54	7087
2026-01-22 12:40:22.56	90.59	18.45	-41.7	-42.8	21.5	0.00e+00	31	41	0	750780416	56	6305
2026-01-22 12:40:23.57	90.83	18.44	-41.8	-42.9	21.5	0.00e+00	0	41	0	752877568	56	6351
2026-01-22 12:40:24.58	91.07	18.42	-41.8	-42.9	21.5	0.00e+00	56	41	0	754974720	56	6389
2026-01-22 12:40:25.58	91.30	18.40	-41.6	-42.7	21.7	0.00e+00	0	41	0	756023296	56	6245
2026-01-22 12:40:26.60	91.54	18.38	-41.4	-42.5	21.9	0.00e+00	0	41	0	758120448	56	6068
2026-01-22 12:40:27.60	91.77	18.36	-41.2	-42.3	22.0	0.00e+00	0	41	0	760217600	56	5902
2026-01-22 12:40:28.61	92.01	18.34	-41.2	-42.2	22.2	0.00e+00	0	41	0	762314752	56	5881
2026-01-22 12:40:29.62	92.24	18.32	-41.3	-42.3	22.0	0.00e+00	60	41	0	764411904	56	5956
2026-01-22 12:40:30.63	92.48	18.29	-41.4	-42.5	21.9	0.00e+00	0	41	0	765460480	56	6078
2026-01-22 12:40:31.64	92.71	18.27	-41.8	-42.9	21.5	0.00e+00	91	41	0	767557632	56	6353
2026-01-22 12:40:32.65	92.95	18.25	-42.2	-43.4	21.0	0.00e+00	0	41	0	769654784	56	6766
2026-01-22 12:40:33.65	93.18	18.23	-42.1	-43.3	21.0	0.00e+00	44	41	0	771751936	56	6620
2026-01-22 12:40:34.67	93.42	18.20	-42.2	-43.4	21.1	0.00e+00	0	41	0	773849088	56	6703
2026-01-22 12:40:35.68	93.65	18.18	-41.7	-42.9	21.7	0.00e+00	0	41	0	774897664	56	6329
2026-01-22 12:40:36.68	93.88	18.15	-41.1	-42.1	22.1	0.00e+00	0	41	0	776994816	56	5821
2026-01-22 12:40:37.70	94.12	18.13	-40.9	-42.0	22.3	0.00e+00	0	41	0	779091968	56	5714
2026-01-22 12:40:38.70	94.35	18.10	-40.8	-41.8	22.4	0.00e+00	92	41	0	781189120	56	5618
2026-01-22 12:40:39.71	94.58	18.08	-40.7	-41.7	22.5	0.00e+00	0	41	0	783286272	54	6219
2026-01-22 12:40:40.72	94.81	18.05	-40.8	-41.8	22.4	0.00e+00	92	41	0	784334848	54	6312
2026-01-22 12:40:41.73	95.04	18.03	-41.0	-42.1	22.2	0.00e+00	0	41	0	786432000	54	6489
2026-01-22 12:40:42.74	95.27	18.00	-41.2	-42.2	22.2	0.00e+00	0	41	0	788529152	54	6608
2026-01-22 12:40:43.75	95.50	17.97	-41.0	-42.1	22.3	0.00e+00	0	41	0	790626304	54	6490
2026-01-22 12:40:44.76	95.73	17.95	-40.6	-41.6	22.5	0.00e+00	0	41	0	792723456	54	6162
2026-01-22 12:40:45.77	95.96	17.92	-40.6	-41.6	22.5	0.00e+00	69	41	0	793772032	54	6128
2026-01-22 12:40:46.78	96.19	17.89	-40.2	-41.1	22.8	0.00e+00	0	41	0	795869184	54	5811
2026-01-22 12:40:47.79	96.42	17.86	-40.2	-41.2	22.9	0.00e+00	92	41	0	797966336	54	5863
2026-01-22 12:40:48.80	96.65	17.83	-40.3	-41.2	22.9	0.00e+00	0	41	0	800063488	54	5874
2026-01-22 12:40:49.81	96.88	17.80	-40.4	-41.4	22.7	0.00e+00	0	41	0	802160640	54	5988
2026-01-22 12:40:50.81	97.10	17.77	-40.5	-41.5	22.5	0.00e+00	0	41	0	803209216	54	6103
2026-01-22 12:40:51.82	97.33	17.74	-40.6	-41.6	22.5	0.00e+00	0	41	0	805306368	54	6143
2026-01-22 12:40:52.83	97.56	17.71	-40.8	-41.9	22.3	0.00e+00	8	41	0	807403520	54	6331
2026-01-22 12:40:53.84	97.78	17.68	-40.7	-41.7	22.5	0.00e+00	0	41	0	809500672	54	6231
2026-01-22 12:40:54.85	98.01	17.65	-40.4	-41.4	22.5	0.00e+00	92	41	0	811597824	54	6023
2026-01-22 12:40:55.86	98.23	17.61	-40.5	-41.5	22.7	0.00e+00	0	41	0	812646400	54	6055
2026-01-22 12:40:56.87	98.46	17.58	-40.3	-41.3	22.8	0.00e+00	0	41	0	814743552	54	5914
2026-01-22 12:40:57.88	98.68	17.55	-40.3	-41.3	22.6	0.00e+00	0	41	0	816840704	54	5931
2026-01-22 12:40:58.89	98.91	17.52	-40.6	-41.6	22.5	0.00e+00	0	41	0	818937856	54	6116
2026-01-22 12:40:59.90	99.13	17.48	-41.0	-42.1	22.1	0.00e+00	7	41	0	821035008	54	6502
2026-01-22 12:41:00.91	99.35	17.45	-40.5	-41.5	22.6	0.00e+00	0	41	0	823132160	54	6089
2026-01-22 12:41:01.92	99.58	17.41	-40.8	-41.8	22.3	0.00e+00	90	41	0	824180736	54	6271
2026-01-22 12:41:02.93	99.80	17.38	-40.7	-41.7	22.4	0.00e+00	0	41	0	826277888	54	6241
2026-01-22 12:41:03.94	100.02	17.34	-40.6	-41.7	22.5	0.00e+00	13	41	0	828375040	54	6176
2026-01-22 12:41:04.95	100.24	17.31	-40.7	-41.8	22.4	0.00e+00	0	41	0	830472192	54	6264
2026-01-22 12:41:05.96	100.46	17.27	-40.9	-42.0	22.3	0.00e+00	0	41	0	832569344	54	6393
2026-01-22 12:41:06.97	100.68	17.24	-40.8	-41.9	22.3	0.00e+00	57	42	0	833617920	54	6340
2026-01-22 12:41:07.98	100.90	17.20	-41.1	-42.2	22.1	0.00e+00	0	41	0	835715072	54	6549
2026-01-22 12:41:08.99	101.12	17.16	-40.8	-41.9	22.4	0.00e+00	92	41	0	837812224	54	6349
2026-01-22 12:41:09.99	101.34	17.13	-40.7	-41.7	22.4	0.00e+00	0	42	0	839909376	54	6221
2026-01-22 12:41:11.01	101.56	17.09	-40.6	-41.6	22.4	0.00e+00	0	42	0	842006528	54	6167
2026-01-22 12:41:12.01	101.77	17.05	-40.5	-41.5	22.5	0.00e+00	0	41	0	843055104	54	6096
2026-01-22 12:41:13.02	101.99	17.01	-40.6	-41.6	22.5	0.00e+00	0	41	0	845152256	54	6125
2026-01-22 12:41:14.03	102.20	16.97	-40.4	-41.4	22.6	0.00e+00	0	42	0	847249408	54	6023
2026-01-22 12:41:15.04	102.42	16.94	-40.8	-41.9	22.3	0.00e+00	0	42	0	849346560	54	6337
2026-01-22 12:41:16.05	102.64	16.90	-40.9	-41.9	22.3	0.00e+00	77	42	0	851443712	54	6373
2026-01-22 12:41:17.06	102.85	16.86	-41.0	-42.0	22.1	0.00e+00	0	42	0	852492288	54	6458
2026-01-22 12:41:18.07	103.06	16.82	-41.0	-42.1	22.1	0.00e+00	81	42	0	854589440	54	6472
2026-01-22 12:41:19.08	103.28	16.78	-40.6	-41.6	22.5	0.00e+00	0	41	0	856686592	54	6173
2026-01-22 12:41:20.09	103.49	16.74	-40.6	-41.6	22.6	0.00e+00	0	41	0	858783744	54	6132
2026-01-22 12:41:21.10	103.70	16.70	-40.6	-41.7	22.4	0.00e+00	3	41	0	860880896	54	6201
2026-01-22 12:41:22.11	103.92	16.66	-41.0	-42.1	22.2	0.00e+00	0	41	0	861929472	54	6471
2026-01-22 12:41:23.12	104.13	16.61	-41.2	-42.3	21.9	0.00e+00	92	41	0	864026624	54	6675
2026-01-22 12:41:24.12	104.34	16.57	-41.5	-42.7	21.4	0.00e+00	0	41	0	866123776	54	6929
2026-01-22 12:41:25.13	104.55	16.53	-41.8	-42.9	21.4	0.00e+00	92	42	0	868220928	56	6386
2026-01-22 12:41:26.14	104.76	16.49	-41.7	-42.9	21.4	0.00e+00	29	42	0	870318080	56	6340
2026-01-22 12:41:27.15	104.96	16.45	-41.8	-43.0	21.4	0.00e+00	0	41	0	871366656	56	6448
2026-01-22 12:41:28.16	105.17	16.40	-41.6	-42.8	21.4	0.00e+00	2	42	0	873463808	56	6270
2026-01-22 12:41:29.17	105.38	16.36	-42.0	-43.2	21.4	0.00e+00	0	42	0	875560960	56	6577
2026-01-22 12:41:30.18	105.59	16.32	-41.6	-42.8	21.7	0.00e+00	5	42	0	877658112	56	6248
2026-01-22 12:41:31.19	105.80	16.27	-41.1	-42.2	22.1	0.00e+00	0	42	0	879755264	56	5880
2026-01-22 12:41:32.20	106.00	16.23	-40.8	-41.9	22.3	0.00e+00	92	42	0	880803840	56	5652
2026-01-22 12:41:33.21	106.21	16.19	-40.7	-41.7	22.5	0.00e+00	0	41	0	882900992	56	5539
2026-01-22 12:41:34.22	106.41	16.14	-40.7	-41.8	22.3	0.00e+00	0	41	0	884998144	54	6256
2026-01-22 12:41:35.23	106.62	16.10	-40.4	-41.4	22.7	0.00e+00	0	42	0	887095296	54	5978
2026-01-22 12:41:36.24	106.82	16.05	-40.5	-41.5	22.5	0.00e+00	0	42	0	889192448	54	6065
2026-01-22 12:41:37.25	107.02	16.01	-40.5	-41.5	22.4	0.00e+00	76	41	0	890241024	54	6071
2026-01-22 12:41:38.26	107.23	15.96	-40.5	-41.5	22.3	0.00e+00	0	41	0	892338176	54	6084
2026-01-22 12:41:39.27	107.43	15.91	-40.6	-41.6	22.3	0.00e+00	70	41	0	894435328	54	6165
2026-01-22 12:41:40.28	107.63	15.87	-40.9	-42.0	22.1	0.00e+00	0	41	0	896532480	54	6422
2026-01-22 12:41:41.29	107.83	15.82	-41.1	-42.2	21.9	0.00e+00	22	42	0	898629632	54	6602
2026-01-22 12:41:42.30	108.03	15.78	-41.4	-42.5	21.5	0.00e+00	0	42	0	899678208	54	6836
2026-01-22 12:41:43.31	108.23	15.73	-42.1	-43.3	21.0	0.00e+00	0	41	0	901775360	56	6636
2026-01-22 12:41:44.32	108.43	15.68	-42.4	-43.7	20.9	0.00e+00	7	41	0	903872512	56	6945
2026-01-22 12:41:45.33	108.63	15.64	-42.5	-43.9	20.5	0.00e+00	0	42	0	905969664	56	7101
2026-01-22 12:41:46.34	108.83	15.59	-42.6	-44.0	20.6	0.00e+00	67	41	0	908066816	56	7210
2026-01-22 12:41:47.35	109.02	15.54	-42.5	-43.9	20.6	0.00e+00	0	41	0	909115392	56	7098
2026-01-22 12:41:48.36	109.22	15.49	-42.6	-44.0	20.5	0.00e+00	59	41	0	911212544	56	7200
2026-01-22 12:41:49.37	109.42	15.44	-42.5	-43.7	20.7	0.00e+00	0	41	0	913309696	56	6987
2026-01-22 12:41:50.38	109.61	15.40	-42.2	-43.4	21.1	0.00e+00	0	41	0	915406848	56	6701
2026-01-22 12:41:51.39	109.81	15.35	-41.7	-42.9	21.5	0.00e+00	0	41	0	917504000	56	6320
2026-01-22 12:41:52.40	110.00	15.30	-41.7	-42.9	21.6	0.00e+00	0	42	0	919601152	56	6336
2026-01-22 12:41:53.41	110.19	15.25	-41.1	-42.2	22.1	0.00e+00	47	42	0	920649728	56	5862
2026-01-22 12:41:54.42	110.39	15.20	-40.8	-41.8	22.2	0.00e+00	0	42	0	922746880	54	6305
2026-01-22 12:41:55.43	110.58	15.15	-40.7	-41.8	22.3	0.00e+00	62	42	0	924844032	54	6256
2026-01-22 12:41:56.44	110.77	15.10	-40.8	-41.8	22.4	0.00e+00	0	42	0	926941184	54	6273
2026-01-22 12:41:57.45	110.96	15.05	-40.8	-41.8	22.3	0.00e+00	0	42	0	929038336	54	6271
2026-01-22 12:41:58.46	111.15	15.00	-41.1	-42.2	21.9	0.00e+00	2	42	0	930086912	54	6563
2026-01-22 12:41:59.47	111.34	14.95	-41.4	-42.5	21.7	0.00e+00	0	42	0	932184064	54	6810
2026-01-22 12:42:00.48	111.53	14.90	-41.8	-43.0	21.2	0.00e+00	91	42	0	934281216	54	7182
2026-01-22 12:42:01.49	111.72	14.85	-42.0	-43.2	21.2	0.00e+00	0	42	0	936378368	56	6593
2026-01-22 12:42:02.50	111.91	14.80	-42.3	-43.5	20.9	0.00e+00	90	42	0	938475520	56	6820
2026-01-22 12:42:03.51	112.10	14.75	-42.3	-43.6	21.0	0.00e+00	0	42	0	939524096	56	6873
2026-01-22 12:42:04.52	112.28	14.70	-42.1	-43.3	21.2	0.00e+00	0	42	0	941621248	56	6620
2026-01-22 12:42:05.53	112.47	14.65	-41.7	-42.9	21.4	0.00e+00	0	42	0	943718400	56	6335
2026-01-22 12:42:06.54	112.65	14.60	-41.8	-42.9	21.4	0.00e+00	0	42	0	945815552	56	6388
2026-01-22 12:42:07.55	112.84	14.55	-41.8	-43.0	21.3	0.00e+00	92	42	0	947912704	56	6425
2026-01-22 12:42:08.56	113.02	14.49	-41.7	-42.9	21.4	0.00e+00	0	42	0	948961280	56	6364
2026-01-22 12:42:09.57	113.21	14.44	-41.8	-43.0	21.3	0.00e+00	81	42	0	951058432	56	6433
2026-01-22 12:42:10.58	113.39	14.39	-41.7	-42.8	21.5	0.00e+00	0	42	0	953155584	56	6309
2026-01-22 12:42:11.59	113.57	14.34	-41.5	-42.7	21.6	0.00e+00	0	42	0	955252736	56	6183
2026-01-22 12:42:12.60	113.76	14.29	-41.5	-42.6	21.7	0.00e+00	0	42	0	957349888	56	6134
2026-01-22 12:42:13.60	113.93	14.23	-41.1	-42.2	22.0	0.00e+00	0	42	0	959447040	56	5857
2026-01-22 12:42:14.61	114.12	14.18	-41.1	-42.2	22.0	0.00e+00	4	42	0	960495616	56	5896
2026-01-22 12:42:15.62	114.30	14.13	-41.2	-42.3	22.0	0.00e+00	0	42	0	962592768	56	5910
2026-01-22 12:42:16.63	114.47	14.08	-40.9	-42.0	22.2	0.00e+00	92	42	0	964689920	56	5698
2026-01-22 12:42:17.64	114.65	14.02	-41.3	-42.4	21.7	0.00e+00	0	42	0	966787072	56	6033
2026-01-22 12:42:18.65	114.83	13.97	-41.6	-42.7	21.5	0.00e+00	10	42	0	967835648	56	6225
2026-01-22 12:42:19.66	115.01	13.92	-41.8	-42.9	21.4	0.00e+00	0	42	0	969932800	56	6387
2026-01-22 12:42:20.67	115.19	13.86	-41.9	-43.1	21.2	0.00e+00	0	42	0	972029952	56	6508
2026-01-22 12:42:21.68	115.36	13.81	-41.7	-42.9	21.3	0.00e+00	38	42	0	974127104	56	6365
2026-01-22 12:42:22.69	115.54	13.75	-41.5	-42.7	21.4	0.00e+00	0	42	0	976224256	56	6210
2026-01-22 12:42:23.70	115.71	13.70	-41.4	-42.5	21.8	0.00e+00	92	42	0	977272832	56	6058
2026-01-22 12:42:24.71	115.89	13.65	-41.2	-42.2	22.0	0.00e+00	0	42	0	979369984	56	5896
2026-01-22 12:42:25.72	116.06	13.59	-41.0	-42.1	22.0	0.00e+00	33	42	0	981467136	56	5785
2026-01-22 12:42:26.73	116.23	13.54	-40.8	-41.8	22.2	0.00e+00	0	42	0	983564288	56	5623
2026-01-22 12:42:27.74	116.41	13.48	-40.8	-41.9	22.2	0.00e+00	0	42	0	985661440	56	5638
2026-01-22 12:42:28.75	116.58	13.43	-40.9	-42.0	22.1	0.00e+00	2	42	0	987758592	56	5707
2026-01-22 12:42:29.75	116.75	13.38	-40.8	-41.8	22.1	0.00e+00	0	41	0	988807168	54	6310
2026-01-22 12:42:30.76	116.92	13.32	-41.1	-42.2	22.0	0.00e+00	87	41	0	990904320	54	6596
2026-01-22 12:42:31.77	117.09	13.27	-41.0	-42.0	21.9	0.00e+00	0	41	0	993001472	54	6457
2026-01-22 12:42:32.78	117.26	13.21	-41.3	-42.4	21.7	0.00e+00	90	42	0	995098624	54	6765
2026-01-22 12:42:33.79	117.43	13.16	-41.3	-42.5	21.6	0.00e+00	0	42	0	997195776	54	6787
2026-01-22 12:42:34.80	117.60	13.10	-41.3	-42.4	21.7	0.00e+00	0	41	0	998244352	54	6705
2026-01-22 12:42:35.81	117.76	13.05	-41.2	-42.3	21.8	0.00e+00	5	41	0	1000341504	54	6688
2026-01-22 12:42:36.82	117.93	12.99	-41.2	-42.3	21.9	0.00e+00	0	41	0	1002438656	54	6660
2026-01-22 12:42:37.83	118.10	12.94	-41.2	-42.3	21.7	0.00e+00	92	41	0	1004535808	54	6679
2026-01-22 12:42:38.84	118.26	12.88	-41.1	-42.1	21.9	0.00e+00	0	42	0	1006632960	54	6536
2026-01-22 12:42:39.85	118.43	12.82	-41.3	-42.5	21.6	0.00e+00	29	42	0	1007681536	54	6770
2026-01-22 12:42:40.86	118.59	12.77	-41.3	-42.4	21.7	0.00e+00	0	42	0	1009778688	54	6749
2026-01-22 12:42:41.87	118.76	12.71	-41.2	-42.3	21.7	0.00e+00	0	42	0	1011875840	54	6687
2026-01-22 12:42:42.88	118.92	12.66	-41.2	-42.3	21.8	0.00e+00	0	41	0	1013972992	54	6625
2026-01-22 12:42:43.89	119.08	12.60	-40.7	-41.7	22.2	0.00e+00	0	42	0	1016070144	54	6213
2026-01-22 12:42:44.90	119.25	12.55	-40.7	-41.8	22.1	0.00e+00	6	42	0	1017118720	54	6248
2026-01-22 12:42:45.91	119.41	12.49	-40.6	-41.7	22.3	0.00e+00	0	42	0	1019215872	54	6175
2026-01-22 12:42:46.92	119.57	12.43	-40.2	-41.2	22.7	0.00e+00	48	42	0	1021313024	54	5872
2026-01-22 12:42:47.93	119.73	12.38	-40.1	-41.1	22.8	0.00e+00	0	42	0	1023410176	54	5797
2026-01-22 12:42:48.94	119.89	12.32	-40.1	-41.1	22.8	0.00e+00	0	42	0	1025507328	54	5800
2026-01-22 12:42:49.95	120.05	12.26	-40.4	-41.4	22.5	0.00e+00	0	42	0	1026555904	54	5974
2026-01-22 12:42:50.96	120.21	12.21	-40.9	-41.9	22.1	0.00e+00	0	41	0	1028653056	54	6383
2026-01-22 12:42:51.97	120.37	12.15	-41.0	-42.0	22.1	0.00e+00	75	42	0	1030750208	54	6463
2026-01-22 12:42:52.98	120.52	12.10	-41.3	-42.5	21.7	0.00e+00	0	42	0	1032847360	54	6775
2026-01-22 12:42:53.99	120.68	12.04	-41.5	-42.6	21.5	0.00e+00	92	42	0	1034944512	54	6901
2026-01-22 12:42:55.00	120.84	11.98	-41.8	-43.0	21.4	0.00e+00	0	42	0	1035993088	54	7174
2026-01-22 12:42:56.01	120.99	11.93	-41.4	-42.6	21.6	0.00e+00	0	42	0	1038090240	56	6131
2026-01-22 12:42:57.02	121.15	11.87	-41.2	-42.3	21.9	0.00e+00	0	42	0	1040187392	56	5913
2026-01-22 12:42:58.03	121.30	11.81	-40.9	-42.0	22.1	0.00e+00	0	42	0	1042284544	56	5740
2026-01-22 12:42:59.04	121.46	11.75	-40.6	-41.7	22.3	0.00e+00	0	42	0	1044381696	54	6180
2026-01-22 12:43:00.05	121.61	11.70	-40.6	-41.6	22.4	0.00e+00	0	42	0	1045430272	54	6115
2026-01-22 12:43:01.06	121.76	11.64	-40.5	-41.6	22.3	0.00e+00	92	42	0	1047527424	54	6108
2026-01-22 12:43:02.07	121.92	11.58	-40.6	-41.6	22.3	0.00e+00	0	42	0	1049624576	54	6170
2026-01-22 12:43:03.08	122.07	11.53	-40.6	-41.6	22.2	0.00e+00	67	42	0	1051721728	54	6170
2026-01-22 12:43:04.09	122.22	11.47	-40.8	-41.8	22.1	0.00e+00	0	42	0	1053818880	54	6280
2026-01-22 12:43:05.10	122.37	11.41	-41.1	-42.2	21.7	0.00e+00	0	42	0	1055916032	54	6548
2026-01-22 12:43:06.11	122.52	11.36	-41.0	-42.1	21.7	0.00e+00	1	42	0	1056964608	54	6515
2026-01-22 12:43:07.12	122.67	11.30	-41.0	-42.1	21.9	0.00e+00	31	42	0	1059061760	54	6492
2026-01-22 12:43:08.13	122.82	11.24	-41.0	-42.1	21.9	0.00e+00	90	42	0	1061158912	54	6512
2026-01-22 12:43:09.14	122.97	11.18	-41.0	-42.1	21.9	0.00e+00	0	42	0	1063256064	54	6498
2026-01-22 12:43:10.15	123.11	11.13	-41.0	-42.0	22.0	0.00e+00	92	42	0	1065353216	54	6437
2026-01-22 12:43:11.16	123.26	11.07	-41.1	-42.1	21.9	0.00e+00	0	41	0	1066401792	54	6532
2026-01-22 12:43:12.16	123.41	11.01	-40.9	-42.0	22.0	0.00e+00	0	42	0	1068498944	54	6423
2026-01-22 12:43:13.17	123.55	10.95	-41.0	-42.1	21.9	0.00e+00	32	41	0	1070596096	54	6466
2026-01-22 12:43:14.19	123.70	10.90	-41.3	-42.5	21.6	0.00e+00	0	42	0	1072693248	54	6791
2026-01-22 12:43:15.20	123.84	10.84	-41.5	-42.7	21.4	0.00e+00	0	42	0	1074790400	54	6936
2026-01-22 12:43:16.21	123.99	10.78	-41.9	-43.2	21.1	0.00e+00	0	41	0	1075838976	56	6549
2026-01-22 12:43:17.22	124.13	10.72	-42.0	-43.3	21.0	0.00e+00	92	42	0	1077936128	56	6624
2026-01-22 12:43:18.23	124.28	10.67	-42.1	-43.4	20.9	0.00e+00	0	42	0	1080033280	56	6729
2026-01-22 12:43:19.24	124.42	10.61	-42.2	-43.5	20.8	0.00e+00	0	42	0	1082130432	56	6810
2026-01-22 12:43:20.25	124.56	10.55	-42.1	-43.4	20.9	0.00e+00	0	42	0	1084227584	56	6695
2026-01-22 12:43:21.26	124.70	10.49	-41.8	-43.0	21.1	0.00e+00	0	42	0	1085276160	56	6449
2026-01-22 12:43:22.27	124.85	10.44	-41.8	-43.0	21.2	0.00e+00	2	42	0	1087373312	56	6431
2026-01-22 12:43:23.28	124.99	10.38	-41.7	-42.8	21.3	0.00e+00	0	42	0	1089470464	56	6304
2026-01-22 12:43:24.29	125.13	10.32	-42.0	-43.2	21.0	0.00e+00	71	42	0	1091567616	56	6575
2026-01-22 12:43:25.29	125.26	10.26	-41.7	-42.8	21.3	0.00e+00	0	42	0	1093664768	56	6294
2026-01-22 12:43:26.30	125.40	10.21	-41.7	-42.9	21.3	0.00e+00	21	42	0	1094713344	56	6335
2026-01-22 12:43:27.31	125.54	10.15	-41.7	-42.8	21.3	0.00e+00	0	42	0	1096810496	56	6304
2026-01-22 12:43:28.32	125.68	10.09	-41.7	-42.8	21.1	0.00e+00	0	42	0	1098907648	56	6303
2026-01-22 12:43:29.33	125.82	10.03	-42.1	-43.3	20.9	0.00e+00	4	42	0	1101004800	56	6629
2026-01-22 12:43:30.34	125.96	9.97	-42.0	-43.2	20.9	0.00e+00	0	42	0	1103101952	56	6563
2026-01-22 12:43:31.35	126.09	9.92	-42.0	-43.2	21.1	0.00e+00	89	42	0	1104150528	56	6558
2026-01-22 12:43:32.36	126.23	9.86	-41.9	-43.1	21.1	0.00e+00	0	41	0	1106247680	56	6482
2026-01-22 12:43:33.37	126.36	9.80	-41.7	-42.8	21.3	0.00e+00	22	42	0	1108344832	56	6299
2026-01-22 12:43:34.38	126.50	9.74	-41.3	-42.4	21.6	0.00e+00	0	41	0	1110441984	56	6009
2026-01-22 12:43:35.38	126.63	9.69	-41.4	-42.5	21.5	0.00e+00	0	42	0	1112539136	56	6099
2026-01-22 12:43:36.40	126.77	9.63	-41.4	-42.6	21.5	0.00e+00	0	42	0	1113587712	56	6112
2026-01-22 12:43:37.41	126.90	9.57	-41.6	-42.8	21.3	0.00e+00	0	41	0	1115684864	56	6262
2026-01-22 12:43:38.41	127.03	9.51	-41.4	-42.5	21.4	0.00e+00	90	42	0	1117782016	56	6086
2026-01-22 12:43:39.42	127.16	9.46	-41.5	-42.7	21.4	0.00e+00	0	41	0	1119879168	56	6194
2026-01-22 12:43:40.43	127.30	9.40	-41.7	-42.9	21.2	0.00e+00	62	41	0	1121976320	56	6340
2026-01-22 12:43:41.44	127.43	9.34	-42.1	-43.4	20.8	0.00e+00	0	42	0	1124073472	56	6708
2026-01-22 12:43:42.45	127.56	9.28	-41.9	-43.1	21.0	0.00e+00	0	41	0	1125122048	56	6499
2026-01-22 12:43:43.46	127.69	9.22	-41.8	-43.0	21.1	0.00e+00	0	42	0	1127219200	56	6464
2026-01-22 12:43:44.47	127.82	9.17	-41.9	-43.1	20.9	0.00e+00	0	41	0	1129316352	56	6488
2026-01-22 12:43:45.48	127.95	9.11	-42.1	-43.4	20.8	0.00e+00	89	42	0	1131413504	56	6712
2026-01-22 12:43:46.49	128.08	9.05	-42.3	-43.6	20.6	0.00e+00	0	41	0	1133510656	56	6871
2026-01-22 12:43:47.50	128.21	8.99	-41.9	-43.1	21.0	0.00e+00	92	41	0	1134559232	56	6480
2026-01-22 12:43:48.51	128.33	8.94	-41.6	-42.8	21.2	0.00e+00	0	41	0	1136656384	56	6293
2026-01-22 12:43:49.52	128.46	8.88	-41.5	-42.6	21.4	0.00e+00	0	41	0	1138753536	56	6133
2026-01-22 12:43:50.53	128.59	8.82	-41.5	-42.6	21.4	0.00e+00	0	41	0	1140850688	56	6164
2026-01-22 12:43:51.54	128.71	8.76	-41.6	-42.7	21.3	0.00e+00	0	41	0	1142947840	56	6239
2026-01-22 12:43:52.55	128.84	8.70	-41.8	-42.9	21.1	0.00e+00	83	41	0	1143996416	56	6382
2026-01-22 12:43:53.56	128.97	8.65	-41.9	-43.1	20.9	0.00e+00	0	41	0	1146093568	56	6483
2026-01-22 12:43:54.57	129.09	8.59	-42.3	-43.6	20.5	0.00e+00	88	41	0	1148190720	56	6863
2026-01-22 12:43:55.58	129.22	8.53	-42.3	-43.6	20.2	0.00e+00	0	41	0	1150287872	56	6878
2026-01-22 12:43:56.59	129.34	8.47	-42.3	-43.5	20.5	0.00e+00	0	41	0	1152385024	56	6845
2026-01-22 12:43:57.60	129.46	8.42	-42.0	-43.3	20.7	0.00e+00	0	41	0	1153433600	56	6621
2026-01-22 12:43:58.60	129.59	8.36	-41.8	-43.0	21.0	0.00e+00	0	41	0	1155530752	56	6428
2026-01-22 12:43:59.61	129.71	8.30	-42.0	-43.2	20.9	0.00e+00	0	41	0	1157627904	56	6555
2026-01-22 12:44:00.62	129.83	8.24	-41.6	-42.8	21.1	0.00e+00	0	41	0	1159725056	56	6270
2026-01-22 12:44:01.63	129.95	8.19	-41.5	-42.7	21.2	0.00e+00	90	41	0	1161822208	56	6199
2026-01-22 12:44:02.64	130.07	8.13	-41.5	-42.7	20.9	0.00e+00	0	41	0	1162870784	56	6174
2026-01-22 12:44:03.65	130.19	8.07	-41.3	-42.4	21.3	0.00e+00	0	42	0	1164967936	56	6029
2026-01-22 12:44:04.66	130.32	8.01	-41.1	-42.2	21.5	0.00e+00	0	41	0	1167065088	56	5864
2026-01-22 12:44:05.67	130.44	7.96	-41.0	-42.1	21.7	0.00e+00	0	41	0	1169162240	56	5786
2026-01-22 12:44:06.68	130.55	7.90	-41.1	-42.2	21.6	0.00e+00	55	41	0	1171259392	56	5850
2026-01-22 12:44:07.69	130.67	7.84	-41.0	-42.1	21.6	0.00e+00	0	41	0	1172307968	56	5772
2026-01-22 12:44:08.70	130.79	7.79	-41.6	-42.8	21.1	0.00e+00	88	41	0	1174405120	56	6263
2026-01-22 12:44:09.71	130.91	7.73	-41.9	-43.2	20.7	0.00e+00	0	41	0	1176502272	56	6542
2026-01-22 12:44:10.72	131.03	7.67	-42.1	-43.3	20.6	0.00e+00	0	41	0	1178599424	56	6664
2026-01-22 12:44:11.73	131.15	7.61	-42.3	-43.6	20.5	0.00e+00	0	41	0	1180696576	56	6877
2026-01-22 12:44:12.74	131.26	7.56	-42.3	-43.6	20.4	0.00e+00	0	41	0	1181745152	56	6863
2026-01-22 12:44:13.75	131.38	7.50	-42.7	-44.0	20.0	0.00e+00	2	41	0	1183842304	58	6459
2026-01-22 12:44:14.76	131.49	7.44	-42.7	-44.1	20.0	0.00e+00	0	42	0	1185939456	58	6484
2026-01-22 12:44:15.77	131.61	7.38	-42.8	-44.2	19.9	0.00e+00	92	41	0	1188036608	58	6557
2026-01-22 12:44:16.78	131.73	7.33	-43.3	-44.9	19.3	0.00e+00	0	42	0	1190133760	58	7107
2026-01-22 12:44:17.79	131.84	7.27	-43.2	-44.7	19.4	0.00e+00	51	42	0	1192230912	58	6956
2026-01-22 12:44:18.79	131.95	7.21	-43.3	-44.8	19.2	0.00e+00	0	41	0	1193279488	58	7034
2026-01-22 12:44:19.80	132.07	7.16	-43.4	-44.9	19.1	0.00e+00	0	41	0	1195376640	58	7160
2026-01-22 12:44:20.81	132.18	7.10	-43.2	-44.7	19.2	0.00e+00	2	41	0	1197473792	58	6969
2026-01-22 12:44:21.82	132.29	7.04	-43.3	-44.8	19.2	0.00e+00	0	41	0	1199570944	58	7067
2026-01-22 12:44:22.83	132.41	6.99	-43.5	-45.1	18.9	0.00e+00	1	41	0	1201668096	58	7317
2026-01-22 12:44:23.84	132.52	6.93	-43.6	-45.2	18.9	0.00e+00	0	41	0	1202716672	58	7366
2026-01-22 12:44:24.86	132.63	6.87	-44.0	-45.7	18.4	0.00e+00	92	41	0	1204813824	60	6980
2026-01-22 12:44:25.87	132.74	6.81	-44.2	-46.0	18.3	0.00e+00	0	41	0	1206910976	60	7233
2026-01-22 12:44:26.88	132.85	6.76	-44.4	-46.2	17.9	0.00e+00	0	41	0	1209008128	60	7401
2026-01-22 12:44:27.89	132.96	6.70	-44.1	-45.9	18.3	0.00e+00	0	41	0	1211105280	60	7131
2026-01-22 12:44:28.90	133.07	6.64	-43.8	-45.5	18.5	0.00e+00	0	41	0	1212153856	60	6840
2026-01-22 12:44:29.91	133.18	6.59	-43.9	-45.7	18.4	0.00e+00	92	41	0	1214251008	60	6941
2026-01-22 12:44:30.92	133.29	6.53	-43.6	-45.2	18.9	0.00e+00	0	41	0	1216348160	60	6579
2026-01-22 12:44:31.93	133.40	6.47	-43.4	-44.9	19.2	0.00e+00	92	42	0	1218445312	60	6388
2026-01-22 12:44:32.94	133.51	6.42	-43.4	-45.0	19.1	0.00e+00	0	41	0	1220542464	60	6421
