passes_logs/2026/01/22/R4.6S_Anadyr/R4.6S_Anadyr__20260122_230709_AQUA_rec.log

#Pass ID: 20260122_230709_AQUA
#Satellite: AQUA
#Configuration: AQUA
#almurnet v.1.7.20251203
#Start time: 2026-01-22 23:07:14

#Version: 2.2.20231116
#Station: R4.6S_Anadyr
#Location: 177.4865 lon 64.73178 lat
#TLE: 1 27424U 02022A   26022.49486490  .00002153  00000+0  44069-3 0  9997
#TLE: 2 27424  98.4099 349.0485 0001970  69.5876  43.4746 14.61847233261984

#Time	Az	El	Level	Level2	SNR	BER	BlckErr	Temp	State	Recorded	gain1	gain2
2026-01-22 23:07:14.49	85.44	0.28	-51.5	-53.1	5.7	0.00e+00	0	40	0	0	60	55390
2026-01-22 23:07:15.47	85.36	0.33	-51.6	-69.5	3.5	7.71e-01	0	42	104	0	60	114246
2026-01-22 23:07:16.46	85.28	0.39	-51.6	-69.4	3.5	7.71e-01	0	42	104	0	60	113730
2026-01-22 23:07:17.43	85.21	0.44	-51.6	-69.4	3.5	7.71e-01	0	42	104	0	60	113996
2026-01-22 23:07:18.41	85.13	0.49	-51.6	-69.4	3.5	7.71e-01	0	42	104	0	60	113380
2026-01-22 23:07:19.39	85.05	0.54	-51.6	-69.4	3.5	7.71e-01	0	42	104	0	60	113243
2026-01-22 23:07:20.37	84.97	0.59	-51.7	-69.4	3.5	7.71e-01	0	42	104	0	60	113902
2026-01-22 23:07:21.35	84.90	0.64	-51.6	-69.4	3.5	7.71e-01	0	42	104	0	60	113578
2026-01-22 23:07:22.33	84.82	0.70	-51.6	-69.5	3.5	7.71e-01	0	42	104	0	60	114286
2026-01-22 23:07:23.31	84.74	0.75	-51.5	-69.4	3.5	7.71e-01	0	42	104	0	60	113447
2026-01-22 23:07:24.30	84.66	0.80	-51.6	-69.5	3.5	7.71e-01	0	42	104	0	60	114275
2026-01-22 23:07:25.28	84.58	0.85	-51.5	-69.2	3.5	7.71e-01	0	42	104	0	60	110948
2026-01-22 23:07:26.26	84.50	0.90	-51.5	-69.4	3.5	7.71e-01	0	42	104	0	60	113675
2026-01-22 23:07:27.25	84.42	0.96	-51.2	-69.4	3.5	7.71e-01	0	42	104	0	60	113790
2026-01-22 23:07:28.23	84.34	1.01	-50.9	-69.2	3.5	7.71e-01	0	42	104	0	60	111356
2026-01-22 23:07:29.21	84.26	1.06	-51.5	-69.3	3.5	7.71e-01	0	42	104	0	60	112447
2026-01-22 23:07:30.19	84.18	1.11	-51.0	-68.9	3.5	7.71e-01	0	42	104	0	60	107693
2026-01-22 23:07:31.17	84.10	1.16	-50.3	-68.9	3.5	7.71e-01	0	42	104	0	60	107546
2026-01-22 23:07:32.15	84.01	1.22	-51.1	-69.1	3.5	7.71e-01	0	42	104	0	60	109502
2026-01-22 23:07:33.13	83.93	1.27	-51.0	-68.9	3.5	7.71e-01	0	42	104	0	60	106815
2026-01-22 23:07:34.10	83.85	1.32	-50.9	-68.8	3.5	7.71e-01	0	42	104	0	60	106597
2026-01-22 23:07:35.08	83.77	1.37	-50.2	-68.4	3.5	7.71e-01	0	42	104	0	60	101486
2026-01-22 23:07:36.06	83.69	1.43	-49.4	-68.1	3.5	7.71e-01	0	42	104	0	60	97958
2026-01-22 23:07:37.04	83.60	1.48	-49.9	-67.7	3.5	7.71e-01	0	42	104	0	60	93157
2026-01-22 23:07:38.03	83.52	1.53	-49.9	-67.7	3.5	7.71e-01	0	42	104	0	60	93377
2026-01-22 23:07:39.00	83.43	1.58	-49.9	-67.8	3.5	7.71e-01	0	42	104	0	60	94293
2026-01-22 23:07:39.98	83.35	1.64	-49.9	-67.8	3.5	7.71e-01	0	42	104	0	60	94845
2026-01-22 23:07:40.96	83.27	1.69	-49.9	-67.8	3.5	7.71e-01	0	42	104	0	60	94321
2026-01-22 23:07:41.94	83.18	1.74	-49.9	-67.8	3.5	7.71e-01	0	42	104	0	60	94827
2026-01-22 23:07:42.93	83.09	1.80	-49.9	-67.9	3.5	7.71e-01	0	42	104	0	60	95209
2026-01-22 23:07:43.91	83.01	1.85	-49.9	-67.7	3.5	7.71e-01	0	42	104	0	60	93842
2026-01-22 23:07:44.89	82.92	1.90	-49.9	-67.7	3.5	7.71e-01	0	42	104	0	60	93433
2026-01-22 23:07:45.87	82.84	1.95	-49.9	-67.5	3.5	7.71e-01	0	42	104	0	60	91264
2026-01-22 23:07:46.84	82.75	2.01	-49.9	-67.4	3.5	7.71e-01	0	42	104	0	60	90432
2026-01-22 23:07:47.82	82.66	2.06	-49.9	-67.7	3.5	7.71e-01	0	42	104	0	60	92867
2026-01-22 23:07:48.80	82.58	2.11	-49.9	-67.6	3.5	7.71e-01	0	42	104	0	60	91845
2026-01-22 23:07:49.79	82.49	2.17	-49.9	-67.8	3.5	7.71e-01	0	42	104	0	60	94039
2026-01-22 23:07:50.77	82.40	2.22	-49.9	-67.7	3.5	7.71e-01	0	42	104	0	60	93605
2026-01-22 23:07:51.75	82.31	2.27	-49.9	-67.7	3.5	7.71e-01	0	42	104	0	60	93445
2026-01-22 23:07:52.73	82.22	2.33	-49.9	-67.4	3.5	7.71e-01	0	42	104	0	60	90576
2026-01-22 23:07:53.71	82.13	2.38	-49.9	-66.7	3.5	7.71e-01	0	42	104	0	60	83352
2026-01-22 23:07:54.70	82.04	2.43	-49.9	-66.3	3.5	7.71e-01	0	42	104	0	60	79170
2026-01-22 23:07:55.68	81.95	2.49	-49.9	-66.0	3.5	7.71e-01	0	42	104	0	60	77018
2026-01-22 23:07:56.66	81.86	2.54	-49.9	-65.8	3.7	7.71e-01	0	42	104	0	60	75398
2026-01-22 23:07:57.64	81.77	2.59	-49.9	-66.8	3.5	7.71e-01	0	42	104	0	60	84580
2026-01-22 23:07:58.63	81.68	2.65	-49.9	-67.7	3.5	7.71e-01	0	42	104	0	60	93359
2026-01-22 23:07:59.61	81.59	2.70	-49.9	-67.5	3.5	7.71e-01	0	42	104	0	60	91185
2026-01-22 23:08:00.60	81.49	2.76	-49.9	-66.7	3.5	7.71e-01	0	42	104	0	60	83475
2026-01-22 23:08:01.58	81.40	2.81	-49.9	-67.0	3.5	7.71e-01	0	42	104	0	60	86334
2026-01-22 23:08:02.56	81.31	2.86	-49.9	-67.6	3.5	7.71e-01	0	42	104	0	60	92394
2026-01-22 23:08:03.54	81.22	2.92	-49.9	-66.4	3.7	7.71e-01	0	42	104	0	60	80093
2026-01-22 23:08:04.52	81.12	2.97	-49.8	-63.8	4.3	7.71e-01	0	42	104	0	60	59918
2026-01-22 23:08:05.50	81.03	3.03	-49.8	-63.6	4.4	7.71e-01	0	42	104	0	60	58503
2026-01-22 23:08:06.48	80.93	3.08	-49.9	-66.5	3.6	7.71e-01	0	42	104	0	60	81654
2026-01-22 23:08:07.46	80.84	3.13	-49.8	-63.4	3.8	7.71e-01	0	42	104	0	60	57105
2026-01-22 23:08:08.44	80.74	3.19	-48.7	-55.5	12.2	7.71e-01	92	42	0	0	60	23039
2026-01-22 23:08:09.41	80.65	3.24	-49.4	-67.0	3.6	7.71e-01	0	42	104	1572864	60	86562
2026-01-22 23:08:10.39	80.55	3.30	-50.3	-68.4	3.5	7.71e-01	0	42	104	1572864	60	100942
2026-01-22 23:08:11.38	80.46	3.35	-47.1	-52.7	5.0	7.71e-01	0	42	104	1572864	60	16541
2026-01-22 23:08:12.36	80.36	3.41	-48.5	-65.2	3.9	7.71e-01	0	42	104	1572864	60	69663
2026-01-22 23:08:13.33	80.26	3.46	-49.9	-66.4	3.5	7.71e-01	0	42	104	1572864	60	80592
2026-01-22 23:08:14.32	80.17	3.51	-42.1	-43.9	23.5	7.71e-01	92	42	0	2097152	60	6042
2026-01-22 23:08:15.30	80.07	3.57	-41.9	-43.7	23.6	7.71e-01	93	42	0	4194304	58	6586
2026-01-22 23:08:16.28	79.97	3.62	-42.2	-44.0	23.6	7.71e-01	91	42	0	5767168	58	6856
2026-01-22 23:08:17.26	79.87	3.68	-41.6	-43.3	23.9	7.71e-01	91	42	0	7864320	58	6340
2026-01-22 23:08:18.24	79.77	3.73	-42.6	-44.5	22.6	7.71e-01	94	42	0	9437184	58	7246
2026-01-22 23:08:19.22	79.67	3.79	-41.1	-42.8	24.8	7.71e-01	92	42	0	11534336	58	5927
2026-01-22 23:08:20.21	79.57	3.84	-40.5	-42.0	25.5	7.71e-01	92	42	0	13107200	54	6832
2026-01-22 23:08:21.19	79.47	3.90	-40.6	-42.1	25.1	7.71e-01	91	42	0	15204352	54	6959
2026-01-22 23:08:22.17	79.37	3.95	-40.7	-42.2	25.2	7.71e-01	92	42	0	16777216	54	7028
2026-01-22 23:08:23.15	79.27	4.01	-40.0	-41.5	26.0	7.71e-01	92	42	0	18874368	54	6450
2026-01-22 23:08:24.13	79.17	4.06	-40.6	-42.1	25.5	7.71e-01	89	42	0	20447232	54	6928
2026-01-22 23:08:25.11	79.07	4.12	-40.0	-41.4	25.9	7.71e-01	90	42	0	22544384	54	6421
2026-01-22 23:08:26.09	78.96	4.17	-40.2	-41.7	25.8	7.71e-01	88	42	0	24117248	54	6604
2026-01-22 23:08:27.07	78.86	4.23	-39.7	-41.2	26.3	7.71e-01	92	42	0	26214400	54	6216
2026-01-22 23:08:28.05	78.76	4.28	-39.4	-40.8	26.6	7.71e-01	91	42	0	27787264	54	5953
2026-01-22 23:08:29.03	78.65	4.34	-40.3	-41.9	25.5	7.71e-01	93	42	0	29884416	54	6728
2026-01-22 23:08:30.00	78.55	4.39	-39.3	-40.7	26.5	7.71e-01	92	42	0	31457280	54	5887
2026-01-22 23:08:30.99	78.44	4.45	-39.8	-41.3	26.2	7.71e-01	93	42	0	33554432	54	6311
2026-01-22 23:08:31.97	78.34	4.50	-40.3	-41.8	25.5	7.71e-01	93	42	0	35127296	54	6686
2026-01-22 23:08:32.96	78.23	4.56	-39.8	-41.2	26.5	7.71e-01	96	42	0	37224448	54	6257
2026-01-22 23:08:33.94	78.13	4.61	-40.0	-41.4	26.1	7.71e-01	90	42	0	38797312	54	6400
2026-01-22 23:08:34.92	78.02	4.67	-39.6	-41.1	26.5	7.71e-01	90	42	0	40894464	54	6137
2026-01-22 23:08:35.89	77.91	4.73	-39.7	-41.2	26.4	7.71e-01	91	42	0	42467328	54	6208
2026-01-22 23:08:36.88	77.81	4.78	-39.8	-41.2	26.2	7.71e-01	92	42	0	44564480	54	6261
2026-01-22 23:08:37.85	77.70	4.84	-40.0	-41.4	26.2	7.71e-01	93	42	0	46137344	54	6403
2026-01-22 23:08:38.83	77.59	4.89	-40.1	-41.5	26.1	7.71e-01	91	42	0	48234496	54	6486
2026-01-22 23:08:39.81	77.48	4.95	-39.6	-41.1	26.5	7.71e-01	92	42	0	49807360	54	6142
2026-01-22 23:08:40.79	77.37	5.00	-40.1	-41.6	26.1	7.71e-01	91	42	0	51904512	54	6532
2026-01-22 23:08:41.77	77.26	5.06	-40.2	-41.6	26.0	7.71e-01	93	42	0	53477376	54	6547
2026-01-22 23:08:42.75	77.15	5.11	-39.4	-40.8	26.8	7.71e-01	93	42	0	55574528	54	5938
2026-01-22 23:08:43.73	77.04	5.17	-39.8	-41.2	26.5	7.71e-01	92	42	0	57147392	54	6265
2026-01-22 23:08:44.71	76.93	5.23	-39.9	-41.3	26.2	7.71e-01	91	42	0	59244544	54	6316
2026-01-22 23:08:45.68	76.82	5.28	-39.7	-41.1	26.4	7.71e-01	94	42	0	60817408	54	6190
2026-01-22 23:08:46.66	76.71	5.34	-39.8	-41.2	26.3	7.71e-01	93	42	0	62914560	54	6270
2026-01-22 23:08:47.64	76.60	5.39	-39.4	-40.8	27.0	7.71e-01	91	42	0	64487424	54	5943
2026-01-22 23:08:48.63	76.48	5.45	-39.4	-40.8	26.7	7.71e-01	93	42	0	66584576	54	5960
2026-01-22 23:08:49.61	76.37	5.51	-39.5	-40.9	26.8	7.71e-01	91	42	0	68157440	54	6027
2026-01-22 23:08:50.58	76.26	5.56	-39.1	-40.5	27.0	7.71e-01	91	42	0	70254592	54	5747
2026-01-22 23:08:51.56	76.14	5.62	-39.5	-40.9	26.7	7.71e-01	90	42	0	71827456	54	6031
2026-01-22 23:08:52.54	76.03	5.67	-39.1	-40.5	27.1	7.71e-01	92	42	0	73924608	54	5755
2026-01-22 23:08:53.52	75.91	5.73	-39.3	-40.7	26.9	7.71e-01	92	42	0	75497472	54	5891
2026-01-22 23:08:54.49	75.80	5.78	-39.2	-40.7	26.9	7.71e-01	93	42	0	77594624	54	5864
2026-01-22 23:08:55.47	75.68	5.84	-39.3	-40.8	26.9	7.71e-01	91	42	0	79167488	54	5980
2026-01-22 23:08:56.45	75.56	5.90	-39.0	-40.4	27.2	7.71e-01	92	42	0	81264640	54	5677
2026-01-22 23:08:57.42	75.45	5.95	-39.2	-40.6	27.1	7.71e-01	90	42	0	82837504	52	6552
2026-01-22 23:08:58.40	75.33	6.01	-39.4	-40.9	26.8	7.71e-01	92	42	0	84934656	52	6727
2026-01-22 23:08:59.38	75.21	6.06	-39.0	-40.5	27.2	7.71e-01	92	42	0	86507520	52	6425
2026-01-22 23:09:00.36	75.09	6.12	-39.2	-40.7	27.0	7.71e-01	90	42	0	88604672	52	6612
2026-01-22 23:09:01.34	74.97	6.18	-39.2	-40.6	27.1	7.71e-01	92	42	0	90177536	52	6553
2026-01-22 23:09:02.32	74.85	6.23	-39.3	-40.8	26.9	7.71e-01	91	42	0	92274688	52	6676
2026-01-22 23:09:03.30	74.73	6.29	-39.2	-40.6	27.1	7.71e-01	91	42	0	93847552	52	6544
2026-01-22 23:09:04.29	74.61	6.35	-39.2	-40.6	27.1	7.71e-01	91	42	0	95944704	52	6543
2026-01-22 23:09:05.27	74.49	6.40	-39.2	-40.6	27.1	7.71e-01	92	42	0	97517568	52	6517
2026-01-22 23:09:06.24	74.37	6.46	-39.3	-40.6	27.1	7.71e-01	92	42	0	99614720	52	6565
2026-01-22 23:09:07.22	74.24	6.52	-38.9	-40.2	27.5	7.71e-01	92	42	0	101187584	52	6264
2026-01-22 23:09:08.20	74.12	6.57	-38.9	-40.3	27.5	7.71e-01	92	42	0	103284736	52	6285
2026-01-22 23:09:09.18	74.00	6.63	-39.1	-40.5	27.3	7.71e-01	90	42	0	104857600	52	6431
2026-01-22 23:09:10.16	73.87	6.69	-39.2	-40.6	27.0	7.71e-01	93	42	0	106954752	52	6552
2026-01-22 23:09:11.14	73.75	6.74	-39.1	-40.5	27.3	7.71e-01	91	42	0	108527616	52	6436
2026-01-22 23:09:12.12	73.62	6.80	-39.0	-40.3	27.4	7.71e-01	92	42	0	110624768	52	6336
2026-01-22 23:09:13.10	73.50	6.86	-38.8	-40.2	27.6	7.71e-01	92	42	0	112197632	52	6224
2026-01-22 23:09:14.08	73.37	6.91	-38.9	-40.4	27.3	7.71e-01	90	42	0	114294784	52	6391
2026-01-22 23:09:15.06	73.24	6.97	-38.7	-40.2	27.4	7.71e-01	90	42	0	115867648	52	6268
2026-01-22 23:09:16.04	73.12	7.03	-38.7	-40.2	27.5	7.71e-01	93	42	0	117964800	52	6240
2026-01-22 23:09:17.02	72.99	7.08	-38.9	-40.4	27.4	7.71e-01	93	42	0	119537664	52	6393
2026-01-22 23:09:18.00	72.86	7.14	-39.0	-40.5	27.2	7.71e-01	92	42	0	121634816	52	6464
2026-01-22 23:09:18.98	72.73	7.20	-38.8	-40.3	27.5	7.71e-01	93	42	0	123207680	52	6315
2026-01-22 23:09:19.96	72.60	7.25	-38.9	-40.4	27.4	7.71e-01	92	42	0	125304832	52	6360
2026-01-22 23:09:20.94	72.47	7.31	-38.7	-40.3	27.5	7.71e-01	85	42	0	126877696	52	6297
2026-01-22 23:09:21.92	72.34	7.37	-38.6	-40.2	27.6	7.71e-01	89	42	0	128974848	52	6230
2026-01-22 23:09:22.90	72.21	7.42	-38.6	-40.2	27.6	7.71e-01	91	42	0	131072000	52	6218
2026-01-22 23:09:23.88	72.08	7.48	-38.7	-40.2	27.6	7.71e-01	91	42	0	132644864	52	6250
2026-01-22 23:09:24.86	71.94	7.54	-38.9	-40.3	27.5	7.71e-01	92	42	0	134742016	52	6287
2026-01-22 23:09:25.84	71.81	7.59	-38.9	-40.3	27.5	7.71e-01	92	42	0	136314880	52	6303
2026-01-22 23:09:26.83	71.68	7.65	-38.5	-39.9	27.8	7.71e-01	85	42	0	137887744	52	6018
2026-01-22 23:09:27.81	71.54	7.71	-38.7	-40.1	27.7	7.71e-01	91	42	0	139984896	52	6135
2026-01-22 23:09:28.79	71.41	7.76	-39.0	-40.3	27.5	7.71e-01	92	42	0	141557760	52	6343
2026-01-22 23:09:29.77	71.27	7.82	-38.9	-40.2	27.6	7.71e-01	86	42	0	143654912	52	6232
2026-01-22 23:09:30.75	71.14	7.88	-39.1	-40.5	27.4	7.71e-01	93	42	0	145227776	52	6429
2026-01-22 23:09:31.72	71.00	7.93	-38.8	-40.1	27.7	7.71e-01	92	42	0	147324928	52	6151
2026-01-22 23:09:32.70	70.86	7.99	-38.9	-40.2	27.6	7.71e-01	87	42	0	149422080	52	6272
2026-01-22 23:09:33.68	70.73	8.05	-39.0	-40.3	27.4	7.71e-01	90	42	0	150994944	52	6347
2026-01-22 23:09:34.66	70.59	8.10	-39.3	-40.6	27.2	7.71e-01	89	42	0	153092096	52	6564
2026-01-22 23:09:35.64	70.45	8.16	-39.4	-40.7	27.1	7.71e-01	88	42	0	154664960	52	6615
2026-01-22 23:09:36.63	70.31	8.22	-39.4	-40.8	27.0	7.71e-01	91	42	0	156762112	52	6675
2026-01-22 23:09:37.61	70.17	8.27	-39.4	-40.7	27.1	7.71e-01	91	42	0	158334976	52	6648
2026-01-22 23:09:38.59	70.03	8.33	-38.7	-40.0	27.8	7.71e-01	92	42	0	160432128	52	6116
2026-01-22 23:09:39.58	69.88	8.39	-38.8	-40.1	27.7	7.71e-01	91	42	0	162004992	52	6181
2026-01-22 23:09:40.56	69.74	8.44	-38.9	-40.2	27.6	7.71e-01	92	42	0	164102144	52	6221
2026-01-22 23:09:41.54	69.60	8.50	-39.0	-40.3	27.5	7.71e-01	92	42	0	165675008	52	6314
2026-01-22 23:09:42.52	69.46	8.56	-39.0	-40.4	27.5	7.71e-01	91	42	0	167772160	52	6363
2026-01-22 23:09:43.50	69.31	8.61	-38.9	-40.2	27.7	7.71e-01	92	42	0	169345024	52	6268
2026-01-22 23:09:44.47	69.17	8.67	-38.7	-40.1	27.8	7.71e-01	93	42	0	171442176	52	6135
2026-01-22 23:09:45.46	69.02	8.73	-38.6	-39.9	27.9	7.71e-01	92	42	0	173015040	52	6038
2026-01-22 23:09:46.43	68.88	8.78	-38.3	-39.7	28.0	7.71e-01	93	42	0	175112192	52	5906
2026-01-22 23:09:47.41	68.73	8.84	-38.4	-39.8	28.0	7.71e-01	90	42	0	176685056	52	5972
2026-01-22 23:09:48.39	68.59	8.89	-38.3	-39.9	28.0	7.71e-01	93	42	0	178782208	52	6001
2026-01-22 23:09:49.37	68.44	8.95	-38.1	-39.6	28.1	7.71e-01	91	42	0	180355072	52	5839
2026-01-22 23:09:50.35	68.29	9.01	-38.1	-39.5	28.2	7.71e-01	91	42	0	182452224	52	5783
2026-01-22 23:09:51.33	68.14	9.06	-38.0	-39.5	28.3	7.71e-01	91	42	0	184025088	52	5760
2026-01-22 23:09:52.32	67.99	9.12	-38.4	-39.9	27.8	7.71e-01	92	42	0	186122240	52	6053
2026-01-22 23:09:53.30	67.84	9.18	-38.2	-39.7	28.2	7.71e-01	93	42	0	187695104	52	5866
2026-01-22 23:09:54.28	67.69	9.23	-38.2	-39.7	28.2	7.71e-01	91	42	0	189792256	52	5864
2026-01-22 23:09:55.26	67.54	9.29	-38.2	-39.7	28.1	7.71e-01	93	42	0	191365120	52	5874
2026-01-22 23:09:56.24	67.39	9.35	-38.5	-39.9	28.0	7.71e-01	92	42	0	193462272	52	6016
2026-01-22 23:09:57.23	67.23	9.40	-38.1	-39.5	28.4	7.71e-01	90	42	0	195035136	52	5736
2026-01-22 23:09:58.21	67.08	9.46	-38.3	-39.6	28.3	7.71e-01	93	42	0	197132288	52	5853
2026-01-22 23:09:59.19	66.93	9.51	-38.4	-39.8	28.1	7.71e-01	92	42	0	198705152	52	5989
2026-01-22 23:10:00.17	66.77	9.57	-38.4	-39.8	28.1	7.71e-01	92	42	0	200802304	52	5966
2026-01-22 23:10:01.15	66.62	9.63	-38.3	-39.6	28.2	7.71e-01	89	42	0	202375168	52	5851
2026-01-22 23:10:02.13	66.46	9.68	-38.3	-39.6	28.2	7.71e-01	91	42	0	204472320	52	5834
2026-01-22 23:10:03.10	66.30	9.74	-38.3	-39.6	28.3	7.71e-01	92	42	0	206045184	52	5801
2026-01-22 23:10:04.08	66.15	9.79	-38.4	-39.7	28.2	7.71e-01	91	42	0	208142336	52	5862
2026-01-22 23:10:05.06	65.99	9.85	-38.4	-39.7	28.2	7.71e-01	90	42	0	209715200	52	5860
2026-01-22 23:10:06.05	65.83	9.91	-38.3	-39.6	28.3	7.71e-01	91	42	0	211812352	52	5803
2026-01-22 23:10:07.03	65.67	9.96	-38.2	-39.5	28.4	7.71e-01	92	42	0	213385216	52	5763
2026-01-22 23:10:08.01	65.51	10.02	-38.2	-39.5	28.4	7.71e-01	93	42	0	215482368	52	5789
2026-01-22 23:10:08.99	65.35	10.07	-38.1	-39.4	28.4	7.71e-01	93	42	0	217055232	52	5713
2026-01-22 23:10:09.97	65.19	10.13	-38.1	-39.4	28.4	7.71e-01	91	42	0	219152384	52	5703
2026-01-22 23:10:10.96	65.03	10.18	-38.4	-39.7	28.2	7.71e-01	93	42	0	220725248	52	5925
2026-01-22 23:10:11.93	64.86	10.24	-38.4	-39.7	28.1	7.71e-01	91	42	0	222822400	52	5893
2026-01-22 23:10:12.91	64.70	10.29	-38.3	-39.6	28.3	7.71e-01	93	42	0	224395264	52	5812
2026-01-22 23:10:13.90	64.54	10.35	-38.2	-39.5	28.3	7.71e-01	90	42	0	226492416	52	5764
2026-01-22 23:10:14.88	64.37	10.40	-38.3	-39.6	28.2	7.71e-01	92	42	0	228065280	52	5858
2026-01-22 23:10:15.86	64.21	10.46	-38.1	-39.5	28.4	7.71e-01	90	42	0	230162432	52	5744
2026-01-22 23:10:16.84	64.04	10.51	-38.2	-39.6	28.3	7.71e-01	92	42	0	231735296	52	5845
2026-01-22 23:10:17.82	63.87	10.57	-38.1	-39.6	28.3	7.71e-01	91	42	0	233832448	52	5807
2026-01-22 23:10:18.80	63.71	10.62	-38.4	-39.8	28.1	7.71e-01	91	42	0	235405312	52	5980
2026-01-22 23:10:19.77	63.54	10.68	-38.3	-39.7	28.2	7.71e-01	94	42	0	237502464	52	5919
2026-01-22 23:10:20.75	63.37	10.73	-38.0	-39.4	28.5	7.71e-01	93	42	0	239075328	52	5712
2026-01-22 23:10:21.74	63.20	10.79	-38.1	-39.4	28.4	7.71e-01	92	42	0	241172480	52	5683
2026-01-22 23:10:22.72	63.03	10.84	-38.0	-39.4	28.5	7.71e-01	92	42	0	242745344	50	6360
2026-01-22 23:10:23.70	62.86	10.90	-37.9	-39.5	28.3	7.71e-01	91	42	0	244842496	50	6465
2026-01-22 23:10:24.68	62.69	10.95	-37.8	-39.4	28.5	7.71e-01	90	42	0	246415360	50	6393
2026-01-22 23:10:25.66	62.52	11.00	-38.0	-39.6	28.3	7.71e-01	91	42	0	248512512	50	6550
2026-01-22 23:10:26.64	62.34	11.06	-38.2	-39.7	28.2	7.71e-01	91	42	0	250085376	50	6617
2026-01-22 23:10:27.61	62.17	11.11	-38.0	-39.4	28.4	7.71e-01	91	42	0	252182528	50	6423
2026-01-22 23:10:28.60	62.00	11.17	-38.2	-39.6	28.3	7.71e-01	91	42	0	253755392	50	6520
2026-01-22 23:10:29.58	61.82	11.22	-38.1	-39.4	28.5	7.71e-01	89	42	0	255852544	50	6376
2026-01-22 23:10:30.56	61.65	11.27	-37.9	-39.3	28.7	7.71e-01	90	42	0	257425408	50	6283
2026-01-22 23:10:31.53	61.47	11.33	-38.1	-39.4	28.4	7.71e-01	90	42	0	259522560	50	6413
2026-01-22 23:10:32.52	61.29	11.38	-38.0	-39.3	28.6	7.71e-01	92	42	0	261095424	50	6310
2026-01-22 23:10:33.50	61.11	11.43	-38.2	-39.5	28.4	7.71e-01	89	42	0	263192576	50	6426
2026-01-22 23:10:34.48	60.94	11.49	-37.9	-39.1	28.8	7.71e-01	91	42	0	264765440	50	6196
2026-01-22 23:10:35.46	60.76	11.54	-38.2	-39.4	28.5	7.71e-01	91	42	0	266862592	50	6423
2026-01-22 23:10:36.45	60.58	11.59	-38.2	-39.5	28.4	7.71e-01	91	42	0	268435456	50	6442
2026-01-22 23:10:37.43	60.40	11.64	-37.9	-39.2	28.7	7.71e-01	92	42	0	270532608	50	6260
2026-01-22 23:10:38.41	60.21	11.70	-37.9	-39.2	28.6	7.71e-01	91	42	0	272629760	50	6236
2026-01-22 23:10:39.39	60.03	11.75	-38.0	-39.3	28.6	7.71e-01	91	42	0	274202624	50	6286
2026-01-22 23:10:40.37	59.85	11.80	-38.0	-39.3	28.7	7.71e-01	91	42	0	276299776	50	6285
2026-01-22 23:10:41.35	59.67	11.85	-38.0	-39.2	28.7	7.71e-01	91	42	0	277872640	50	6268
2026-01-22 23:10:42.33	59.48	11.90	-38.0	-39.3	28.6	7.71e-01	91	42	0	279969792	50	6318
2026-01-22 23:10:43.31	59.30	11.96	-37.9	-39.3	28.6	7.71e-01	91	42	0	281542656	50	6311
2026-01-22 23:10:44.28	59.11	12.01	-37.8	-39.2	28.7	7.71e-01	91	42	0	283115520	50	6213
2026-01-22 23:10:45.26	58.93	12.06	-37.8	-39.1	28.7	7.71e-01	92	42	0	285212672	50	6180
2026-01-22 23:10:46.24	58.74	12.11	-37.9	-39.2	28.6	7.71e-01	92	42	0	286785536	50	6261
2026-01-22 23:10:47.22	58.55	12.16	-38.0	-39.3	28.6	7.71e-01	94	42	0	288882688	50	6281
2026-01-22 23:10:48.20	58.37	12.21	-38.0	-39.3	28.6	7.71e-01	90	41	0	290979840	50	6326
2026-01-22 23:10:49.18	58.18	12.26	-37.9	-39.1	28.7	7.71e-01	92	42	0	292552704	50	6196
2026-01-22 23:10:50.16	57.99	12.31	-38.2	-39.4	28.5	7.71e-01	92	42	0	294649856	50	6396
2026-01-22 23:10:51.15	57.79	12.36	-37.9	-39.1	28.7	7.71e-01	91	42	0	296222720	50	6203
2026-01-22 23:10:52.13	57.60	12.41	-37.8	-39.1	28.8	7.71e-01	90	42	0	298319872	50	6154
2026-01-22 23:10:53.11	57.41	12.46	-37.9	-39.2	28.8	7.71e-01	89	42	0	299892736	50	6230
2026-01-22 23:10:54.09	57.22	12.51	-38.0	-39.2	28.7	7.71e-01	91	42	0	301989888	50	6250
2026-01-22 23:10:55.07	57.03	12.56	-38.1	-39.3	28.6	7.71e-01	91	42	0	303562752	50	6335
2026-01-22 23:10:56.05	56.83	12.61	-38.0	-39.3	28.6	7.71e-01	92	42	0	305135616	50	6328
2026-01-22 23:10:57.03	56.64	12.66	-37.9	-39.2	28.8	7.71e-01	93	42	0	307232768	50	6213
2026-01-22 23:10:58.02	56.44	12.71	-38.1	-39.3	28.6	7.71e-01	89	42	0	309329920	50	6326
2026-01-22 23:10:59.00	56.24	12.76	-38.0	-39.2	28.6	7.71e-01	92	42	0	310902784	50	6272
2026-01-22 23:10:59.98	56.05	12.81	-37.9	-39.2	28.8	7.71e-01	91	42	0	312999936	50	6227
2026-01-22 23:11:00.95	55.85	12.86	-38.0	-39.4	28.6	7.71e-01	93	42	0	314572800	50	6354
2026-01-22 23:11:01.93	55.65	12.91	-38.0	-39.3	28.6	7.71e-01	89	42	0	316669952	50	6280
2026-01-22 23:11:02.91	55.46	12.95	-37.9	-39.2	28.8	7.71e-01	91	42	0	318242816	50	6233
2026-01-22 23:11:03.89	55.26	13.00	-37.8	-39.0	28.8	7.71e-01	90	42	0	320339968	50	6120
2026-01-22 23:11:04.87	55.06	13.05	-37.9	-39.2	28.8	7.71e-01	90	41	0	321912832	50	6214
2026-01-22 23:11:05.85	54.85	13.10	-37.8	-39.1	28.8	7.71e-01	59	42	0	324009984	50	6162
2026-01-22 23:11:06.82	54.66	13.14	-38.0	-39.2	28.7	7.71e-01	61	42	0	325582848	50	6250
2026-01-22 23:11:07.80	54.45	13.19	-38.0	-39.3	28.6	7.71e-01	52	42	0	327680000	50	6325
2026-01-22 23:11:08.78	54.25	13.24	-38.0	-39.3	28.7	7.71e-01	57	42	0	329252864	50	6289
2026-01-22 23:11:09.76	54.05	13.28	-37.9	-39.2	28.7	7.71e-01	59	42	0	331350016	50	6243
2026-01-22 23:11:10.74	53.84	13.33	-37.8	-39.1	28.9	7.71e-01	49	41	0	332922880	50	6165
2026-01-22 23:11:11.73	53.63	13.38	-37.8	-39.1	28.9	7.71e-01	51	42	0	335020032	50	6135
2026-01-22 23:11:12.70	53.43	13.42	-37.9	-39.1	28.7	7.71e-01	57	42	0	336592896	50	6190
2026-01-22 23:11:13.68	53.22	13.47	-37.8	-39.0	28.9	7.71e-01	59	42	0	338690048	50	6106
2026-01-22 23:11:14.66	53.02	13.51	-37.9	-39.1	28.8	7.71e-01	52	42	0	340262912	50	6182
2026-01-22 23:11:15.64	52.81	13.56	-37.9	-39.1	28.8	7.71e-01	46	41	0	342360064	50	6180
2026-01-22 23:11:16.62	52.60	13.60	-37.9	-39.2	28.7	7.71e-01	53	41	0	343932928	50	6226
2026-01-22 23:11:17.60	52.39	13.65	-38.2	-39.4	28.6	7.71e-01	59	41	0	346030080	50	6383
2026-01-22 23:11:18.58	52.18	13.69	-37.9	-39.2	28.7	7.71e-01	48	41	0	347602944	50	6227
2026-01-22 23:11:19.56	51.97	13.73	-37.8	-39.1	28.8	7.71e-01	62	41	0	349700096	50	6160
2026-01-22 23:11:20.54	51.76	13.78	-37.9	-39.2	28.7	7.71e-01	59	41	0	351272960	50	6239
2026-01-22 23:11:21.51	51.55	13.82	-38.2	-39.4	28.6	7.71e-01	49	42	0	353370112	50	6409
2026-01-22 23:11:22.49	51.34	13.86	-38.1	-39.4	28.6	7.71e-01	57	42	0	354942976	50	6358
2026-01-22 23:11:23.47	51.13	13.91	-37.7	-39.0	28.9	7.71e-01	59	42	0	357040128	50	6075
2026-01-22 23:11:24.45	50.91	13.95	-37.9	-39.1	28.9	7.71e-01	56	42	0	358612992	50	6157
2026-01-22 23:11:25.43	50.70	13.99	-37.9	-39.1	28.8	7.71e-01	62	42	0	360710144	50	6179
2026-01-22 23:11:26.40	50.48	14.03	-37.7	-39.0	29.0	7.71e-01	56	42	0	362283008	50	6083
2026-01-22 23:11:27.38	50.27	14.07	-37.7	-38.9	28.9	7.71e-01	60	41	0	364380160	50	6062
2026-01-22 23:11:28.36	50.05	14.11	-37.8	-39.0	29.0	7.71e-01	61	41	0	365953024	50	6134
2026-01-22 23:11:29.34	49.84	14.16	-37.8	-39.0	28.9	7.71e-01	50	42	0	368050176	50	6134
2026-01-22 23:11:30.32	49.62	14.20	-37.9	-39.1	28.9	7.71e-01	56	42	0	369623040	50	6173
2026-01-22 23:11:31.29	49.40	14.24	-37.9	-39.2	28.8	7.71e-01	62	41	0	371720192	50	6212
2026-01-22 23:11:32.27	49.18	14.28	-37.9	-39.1	28.8	7.71e-01	59	41	0	373293056	50	6166
2026-01-22 23:11:33.25	48.96	14.32	-37.7	-39.0	29.0	7.71e-01	55	41	0	375390208	50	6093
2026-01-22 23:11:34.24	48.74	14.36	-38.0	-39.3	28.7	7.71e-01	46	41	0	376963072	50	6294
2026-01-22 23:11:35.22	48.52	14.39	-38.0	-39.2	28.7	7.71e-01	59	41	0	379060224	50	6276
2026-01-22 23:11:36.20	48.30	14.43	-38.1	-39.3	28.7	7.71e-01	57	41	0	380633088	50	6329
2026-01-22 23:11:37.19	48.07	14.47	-37.8	-39.1	28.9	7.71e-01	50	41	0	382730240	50	6139
2026-01-22 23:11:38.17	47.85	14.51	-37.8	-39.0	29.0	7.71e-01	57	41	0	384303104	50	6133
2026-01-22 23:11:39.15	47.63	14.55	-37.9	-39.1	28.9	7.71e-01	58	41	0	386400256	50	6181
2026-01-22 23:11:40.14	47.40	14.58	-37.8	-39.1	28.9	7.71e-01	46	41	0	387973120	50	6152
2026-01-22 23:11:41.11	47.18	14.62	-37.8	-39.0	28.9	7.71e-01	57	41	0	390070272	50	6123
2026-01-22 23:11:42.09	46.95	14.66	-38.0	-39.3	28.7	7.71e-01	59	41	0	391643136	50	6299
2026-01-22 23:11:43.07	46.73	14.69	-38.1	-39.3	28.7	7.71e-01	60	41	0	393740288	50	6332
2026-01-22 23:11:44.05	46.50	14.73	-37.8	-39.0	28.9	7.71e-01	62	41	0	395313152	50	6127
2026-01-22 23:11:45.03	46.27	14.77	-37.9	-39.1	29.0	7.71e-01	58	41	0	397410304	50	6182
2026-01-22 23:11:46.01	46.05	14.80	-37.9	-39.2	28.8	7.71e-01	62	41	0	398983168	50	6217
2026-01-22 23:11:46.99	45.82	14.83	-37.8	-39.1	28.9	7.71e-01	63	41	0	401080320	50	6147
2026-01-22 23:11:47.97	45.59	14.87	-37.8	-39.1	28.9	7.71e-01	45	41	0	402653184	50	6154
2026-01-22 23:11:48.95	45.36	14.90	-37.9	-39.1	28.9	7.71e-01	58	41	0	404750336	50	6189
2026-01-22 23:11:49.93	45.13	14.94	-37.9	-39.1	28.9	7.71e-01	60	41	0	406323200	50	6180
2026-01-22 23:11:50.91	44.90	14.97	-38.0	-39.3	28.7	7.71e-01	60	41	0	408420352	50	6283
2026-01-22 23:11:51.88	44.67	15.00	-37.8	-39.0	29.0	7.71e-01	58	41	0	409993216	50	6129
2026-01-22 23:11:52.87	44.44	15.03	-37.8	-39.1	29.0	7.71e-01	45	41	0	412090368	50	6167
2026-01-22 23:11:53.85	44.21	15.07	-37.8	-39.1	28.8	7.71e-01	57	41	0	413663232	50	6158
2026-01-22 23:11:54.83	43.97	15.10	-37.9	-39.2	28.9	7.71e-01	62	41	0	415760384	50	6211
2026-01-22 23:11:55.81	43.74	15.13	-37.8	-39.1	28.9	7.71e-01	50	41	0	417333248	50	6171
2026-01-22 23:11:56.79	43.51	15.16	-37.8	-39.1	28.9	7.71e-01	60	41	0	419430400	50	6166
2026-01-22 23:11:57.77	43.27	15.19	-37.7	-39.0	28.9	7.71e-01	60	41	0	421003264	50	6068
2026-01-22 23:11:58.75	43.04	15.22	-37.7	-39.0	28.9	7.71e-01	43	41	0	423100416	50	6131
2026-01-22 23:11:59.73	42.80	15.25	-37.9	-39.2	28.8	7.71e-01	59	41	0	424673280	50	6266
2026-01-22 23:12:00.71	42.57	15.28	-37.9	-39.1	28.9	7.71e-01	57	41	0	426770432	50	6192
2026-01-22 23:12:01.69	42.33	15.31	-38.0	-39.2	28.8	7.71e-01	59	41	0	428343296	50	6264
2026-01-22 23:12:02.67	42.10	15.34	-37.8	-39.0	28.9	7.71e-01	57	41	0	430440448	50	6119
2026-01-22 23:12:03.66	41.86	15.36	-37.7	-39.0	28.9	7.71e-01	59	41	0	432013312	50	6092
2026-01-22 23:12:04.64	41.62	15.39	-37.8	-39.1	29.0	7.71e-01	56	41	0	434110464	50	6146
2026-01-22 23:12:05.62	41.38	15.42	-37.9	-39.1	28.9	7.71e-01	60	41	0	435683328	50	6179
2026-01-22 23:12:06.61	41.14	15.45	-37.9	-39.1	28.9	7.71e-01	47	41	0	437780480	50	6198
2026-01-22 23:12:07.59	40.90	15.47	-38.0	-39.3	28.7	7.71e-01	59	41	0	439353344	50	6283
2026-01-22 23:12:08.57	40.66	15.50	-38.2	-39.4	28.6	7.71e-01	59	41	0	441450496	50	6404
2026-01-22 23:12:09.55	40.42	15.52	-38.2	-39.4	28.6	7.71e-01	60	41	0	443547648	50	6423
2026-01-22 23:12:10.53	40.18	15.55	-37.9	-39.1	28.9	7.71e-01	61	41	0	445120512	50	6177
2026-01-22 23:12:11.52	39.94	15.57	-37.9	-39.1	28.9	7.71e-01	43	41	0	447217664	50	6158
2026-01-22 23:12:12.50	39.70	15.59	-37.9	-39.2	28.8	7.71e-01	61	41	0	448790528	50	6216
2026-01-22 23:12:13.48	39.46	15.62	-38.0	-39.3	28.8	7.71e-01	58	41	0	450363392	50	6289
2026-01-22 23:12:14.45	39.22	15.64	-38.1	-39.3	28.7	7.71e-01	50	41	0	452460544	50	6338
2026-01-22 23:12:15.43	38.98	15.66	-38.2	-39.5	28.6	7.71e-01	59	41	0	454033408	50	6429
2026-01-22 23:12:16.41	38.73	15.68	-38.2	-39.4	28.7	7.71e-01	59	41	0	456130560	50	6393
2026-01-22 23:12:17.39	38.49	15.71	-38.1	-39.4	28.6	7.71e-01	46	41	0	457703424	50	6390
2026-01-22 23:12:18.37	38.25	15.73	-38.3	-39.6	28.5	7.71e-01	59	41	0	459800576	50	6505
2026-01-22 23:12:19.35	38.01	15.75	-38.3	-39.6	28.5	7.71e-01	58	41	0	461897728	50	6520
2026-01-22 23:12:20.34	37.76	15.77	-38.0	-39.3	28.8	7.71e-01	58	41	0	463470592	50	6293
2026-01-22 23:12:21.32	37.51	15.79	-38.0	-39.2	28.8	7.71e-01	59	41	0	465567744	50	6277
2026-01-22 23:12:22.30	37.27	15.81	-38.0	-39.2	28.8	7.71e-01	59	41	0	467140608	50	6261
2026-01-22 23:12:23.28	37.02	15.82	-38.0	-39.3	28.8	7.71e-01	61	41	0	469237760	50	6280
2026-01-22 23:12:24.27	36.78	15.84	-37.9	-39.2	28.8	7.71e-01	57	41	0	470810624	50	6226
2026-01-22 23:12:25.25	36.53	15.86	-38.2	-39.4	28.6	7.71e-01	50	41	0	472907776	50	6409
2026-01-22 23:12:26.23	36.29	15.88	-38.0	-39.2	28.8	7.71e-01	59	41	0	474480640	50	6252
2026-01-22 23:12:27.20	36.04	15.89	-37.9	-39.1	28.9	7.71e-01	62	41	0	476577792	50	6197
2026-01-22 23:12:28.18	35.80	15.91	-37.9	-39.1	28.9	7.71e-01	56	41	0	478150656	50	6174
2026-01-22 23:12:29.16	35.55	15.93	-37.9	-39.1	28.9	7.71e-01	59	41	0	480247808	50	6180
2026-01-22 23:12:30.15	35.30	15.94	-38.0	-39.2	28.8	7.71e-01	61	41	0	481820672	50	6243
2026-01-22 23:12:31.13	35.05	15.96	-38.0	-39.3	28.8	7.71e-01	60	41	0	483917824	50	6302
2026-01-22 23:12:32.11	34.80	15.97	-38.0	-39.2	28.8	7.71e-01	59	41	0	485490688	50	6255
2026-01-22 23:12:33.09	34.56	15.98	-38.0	-39.3	28.8	7.71e-01	46	41	0	487587840	50	6290
2026-01-22 23:12:34.07	34.31	16.00	-37.9	-39.1	28.8	7.71e-01	61	41	0	489160704	50	6200
2026-01-22 23:12:35.05	34.06	16.01	-38.0	-39.2	28.8	7.71e-01	59	41	0	491257856	50	6266
2026-01-22 23:12:36.03	33.81	16.02	-38.0	-39.3	28.8	7.71e-01	46	41	0	492830720	50	6279
2026-01-22 23:12:37.01	33.56	16.03	-38.1	-39.4	28.7	7.71e-01	64	41	0	494927872	50	6375
2026-01-22 23:12:37.99	33.31	16.04	-38.1	-39.3	28.7	7.71e-01	59	41	0	496500736	50	6320
2026-01-22 23:12:38.97	33.07	16.05	-38.1	-39.4	28.7	7.71e-01	60	41	0	498597888	50	6356
2026-01-22 23:12:39.95	32.82	16.06	-37.9	-39.1	28.9	7.71e-01	62	41	0	500170752	50	6198
2026-01-22 23:12:40.93	32.57	16.07	-38.1	-39.3	28.7	7.71e-01	44	41	0	502267904	50	6348
2026-01-22 23:12:41.91	32.32	16.08	-37.8	-39.1	28.9	7.71e-01	60	41	0	503840768	50	6147
2026-01-22 23:12:42.88	32.07	16.09	-38.0	-39.3	28.8	7.71e-01	57	41	0	505937920	50	6293
2026-01-22 23:12:43.86	31.82	16.10	-38.2	-39.5	28.6	7.71e-01	46	41	0	507510784	50	6467
2026-01-22 23:12:44.84	31.57	16.11	-38.1	-39.4	28.7	7.71e-01	61	41	0	509607936	50	6359
2026-01-22 23:12:45.82	31.32	16.11	-38.1	-39.3	28.8	7.71e-01	61	41	0	511180800	50	6346
2026-01-22 23:12:46.80	31.07	16.12	-38.0	-39.3	28.8	7.71e-01	45	41	0	513277952	50	6299
2026-01-22 23:12:47.78	30.82	16.12	-38.1	-39.3	28.8	7.71e-01	59	41	0	514850816	50	6322
2026-01-22 23:12:48.76	30.57	16.13	-38.0	-39.2	28.9	7.71e-01	57	41	0	516947968	50	6253
2026-01-22 23:12:49.75	30.32	16.13	-37.9	-39.2	28.8	7.71e-01	60	41	0	518520832	50	6243
2026-01-22 23:12:50.73	30.07	16.14	-38.0	-39.3	28.7	7.71e-01	58	41	0	520617984	50	6289
2026-01-22 23:12:51.71	29.82	16.14	-38.1	-39.3	28.8	7.71e-01	59	41	0	522190848	50	6319
2026-01-22 23:12:52.69	29.56	16.15	-38.1	-39.3	28.7	7.71e-01	58	41	0	524288000	50	6330
2026-01-22 23:12:53.67	29.31	16.15	-38.2	-39.5	28.6	7.71e-01	58	41	0	525860864	50	6454
2026-01-22 23:12:54.66	29.06	16.15	-37.9	-39.2	28.8	7.71e-01	50	41	0	527958016	50	6226
2026-01-22 23:12:55.64	28.81	16.15	-38.0	-39.2	28.8	7.71e-01	60	41	0	529530880	50	6254
2026-01-22 23:12:56.62	28.56	16.15	-38.0	-39.3	28.7	7.71e-01	60	41	0	531628032	50	6336
2026-01-22 23:12:57.60	28.31	16.15	-38.0	-39.2	28.7	7.71e-01	57	41	0	533200896	50	6266
2026-01-22 23:12:58.58	28.06	16.15	-38.1	-39.4	28.7	7.71e-01	61	41	0	535298048	50	6374
2026-01-22 23:12:59.57	27.80	16.15	-38.2	-39.4	28.7	7.71e-01	47	41	0	536870912	50	6414
2026-01-22 23:13:00.55	27.55	16.15	-38.1	-39.4	28.8	7.71e-01	59	41	0	538968064	50	6387
2026-01-22 23:13:01.53	27.30	16.15	-38.0	-39.2	28.8	7.71e-01	58	41	0	540540928	50	6264
2026-01-22 23:13:02.50	27.05	16.15	-37.9	-39.1	28.9	7.71e-01	53	41	0	542638080	50	6162
2026-01-22 23:13:03.49	26.80	16.15	-38.0	-39.3	28.9	7.71e-01	60	41	0	544210944	50	6289
2026-01-22 23:13:04.47	26.55	16.14	-38.0	-39.3	28.7	7.71e-01	58	41	0	546308096	50	6290
2026-01-22 23:13:05.45	26.30	16.14	-38.1	-39.3	28.7	7.71e-01	40	41	0	547880960	50	6341
2026-01-22 23:13:06.43	26.05	16.13	-38.1	-39.3	28.8	7.71e-01	59	41	0	549978112	50	6347
2026-01-22 23:13:07.41	25.80	16.13	-38.1	-39.3	28.7	7.71e-01	60	41	0	551550976	50	6343
2026-01-22 23:13:08.39	25.55	16.12	-38.2	-39.4	28.7	7.71e-01	60	41	0	553648128	50	6423
2026-01-22 23:13:09.37	25.30	16.12	-38.2	-39.5	28.7	7.71e-01	59	41	0	555220992	50	6432
2026-01-22 23:13:10.34	25.05	16.11	-38.1	-39.4	28.7	7.71e-01	58	41	0	557318144	50	6357
2026-01-22 23:13:11.32	24.80	16.10	-38.0	-39.2	28.8	7.71e-01	55	41	0	558891008	50	6246
2026-01-22 23:13:12.30	24.55	16.10	-38.0	-39.2	28.8	7.71e-01	56	41	0	560988160	50	6272
2026-01-22 23:13:13.28	24.30	16.09	-38.1	-39.4	28.7	7.71e-01	48	41	0	562561024	50	6361
2026-01-22 23:13:14.26	24.05	16.08	-38.1	-39.3	28.7	7.71e-01	50	41	0	564658176	50	6303
2026-01-22 23:13:15.23	23.80	16.07	-38.2	-39.4	28.7	7.71e-01	59	41	0	566231040	50	6403
2026-01-22 23:13:16.20	23.56	16.06	-38.1	-39.4	28.6	7.71e-01	59	41	0	568328192	50	6371
2026-01-22 23:13:17.19	23.31	16.05	-37.9	-39.1	28.8	7.71e-01	60	41	0	569901056	50	6152
2026-01-22 23:13:18.16	23.06	16.04	-38.1	-39.3	28.8	7.71e-01	51	41	0	571998208	50	6321
2026-01-22 23:13:19.14	22.81	16.03	-38.1	-39.3	28.7	7.71e-01	59	41	0	573571072	50	6331
2026-01-22 23:13:20.13	22.56	16.02	-38.1	-39.4	28.6	7.71e-01	61	41	0	575668224	50	6374
2026-01-22 23:13:21.10	22.31	16.01	-38.2	-39.4	28.6	7.71e-01	46	41	0	577241088	50	6421
2026-01-22 23:13:22.09	22.06	15.99	-38.3	-39.5	28.5	7.71e-01	58	41	0	579338240	50	6496
2026-01-22 23:13:23.07	21.82	15.98	-38.4	-39.7	28.5	7.71e-01	61	41	0	580911104	50	6609
2026-01-22 23:13:24.05	21.57	15.97	-38.3	-39.6	28.5	7.71e-01	47	41	0	583008256	50	6523
2026-01-22 23:13:25.02	21.32	15.95	-38.2	-39.5	28.5	7.71e-01	62	41	0	584581120	50	6456
2026-01-22 23:13:26.01	21.07	15.94	-38.4	-39.7	28.5	7.71e-01	61	41	0	586678272	50	6583
2026-01-22 23:13:26.98	20.83	15.92	-38.1	-39.3	28.7	7.71e-01	58	41	0	588251136	50	6304
2026-01-22 23:13:27.96	20.58	15.91	-37.9	-39.2	28.9	7.71e-01	61	41	0	590348288	50	6208
2026-01-22 23:13:28.93	20.34	15.89	-38.1	-39.3	28.7	7.71e-01	45	41	0	591921152	50	6336
2026-01-22 23:13:29.91	20.09	15.88	-38.1	-39.3	28.7	7.71e-01	58	41	0	594018304	50	6303
2026-01-22 23:13:30.89	19.85	15.86	-38.0	-39.3	28.8	7.71e-01	59	41	0	595591168	50	6291
2026-01-22 23:13:31.87	19.60	15.84	-38.0	-39.2	28.8	7.71e-01	54	41	0	597688320	50	6259
2026-01-22 23:13:32.85	19.36	15.82	-38.1	-39.3	28.7	7.71e-01	58	41	0	599261184	50	6304
2026-01-22 23:13:33.83	19.11	15.80	-38.1	-39.3	28.7	7.71e-01	63	41	0	601358336	50	6319
2026-01-22 23:13:34.81	18.87	15.79	-38.0	-39.3	28.8	7.71e-01	53	41	0	602931200	50	6285
2026-01-22 23:13:35.79	18.63	15.77	-38.0	-39.2	28.8	7.71e-01	60	41	0	605028352	50	6245
2026-01-22 23:13:36.77	18.38	15.75	-38.1	-39.4	28.7	7.71e-01	59	41	0	606601216	50	6352
2026-01-22 23:13:37.75	18.14	15.73	-38.2	-39.4	28.7	7.71e-01	59	41	0	608698368	50	6398
2026-01-22 23:13:38.74	17.89	15.70	-38.1	-39.3	28.7	7.71e-01	55	41	0	610271232	50	6323
2026-01-22 23:13:39.72	17.65	15.68	-38.1	-39.3	28.8	7.71e-01	59	41	0	612368384	50	6340
2026-01-22 23:13:40.69	17.41	15.66	-38.1	-39.3	28.7	7.71e-01	56	41	0	613941248	50	6305
2026-01-22 23:13:41.67	17.17	15.64	-37.9	-39.2	28.8	7.71e-01	58	41	0	616038400	50	6210
2026-01-22 23:13:42.64	16.93	15.62	-38.1	-39.4	28.7	7.71e-01	48	41	0	617611264	50	6356
2026-01-22 23:13:43.62	16.69	15.59	-38.2	-39.4	28.6	7.71e-01	60	41	0	619708416	50	6391
2026-01-22 23:13:44.59	16.45	15.57	-38.2	-39.4	28.6	7.71e-01	61	41	0	621281280	50	6421
2026-01-22 23:13:45.57	16.21	15.55	-38.2	-39.5	28.5	7.71e-01	59	41	0	623378432	50	6433
2026-01-22 23:13:46.55	15.97	15.52	-38.0	-39.2	28.7	7.71e-01	56	41	0	624951296	50	6256
2026-01-22 23:13:47.53	15.73	15.50	-38.1	-39.3	28.8	7.71e-01	62	41	0	627048448	50	6329
2026-01-22 23:13:48.51	15.49	15.47	-38.0	-39.2	28.9	7.71e-01	59	41	0	628621312	50	6231
2026-01-22 23:13:49.49	15.25	15.44	-38.1	-39.4	28.7	7.71e-01	61	41	0	630718464	50	6374
2026-01-22 23:13:50.47	15.02	15.42	-37.9	-39.2	28.8	7.71e-01	55	41	0	632291328	50	6215
2026-01-22 23:13:51.45	14.78	15.39	-38.0	-39.3	28.6	7.71e-01	59	41	0	634388480	50	6290
2026-01-22 23:13:52.43	14.54	15.36	-38.2	-39.4	28.7	7.71e-01	60	41	0	635961344	50	6385
2026-01-22 23:13:53.41	14.30	15.34	-38.0	-39.3	28.6	7.71e-01	45	41	0	638058496	50	6295
2026-01-22 23:13:54.39	14.07	15.31	-38.1	-39.4	28.7	7.71e-01	57	41	0	639631360	50	6372
2026-01-22 23:13:55.38	13.83	15.28	-38.1	-39.3	28.7	7.71e-01	59	41	0	641728512	50	6334
2026-01-22 23:13:56.36	13.60	15.25	-38.0	-39.2	28.7	7.71e-01	59	41	0	643301376	50	6277
2026-01-22 23:13:57.34	13.36	15.22	-37.8	-39.0	28.9	7.71e-01	60	41	0	645398528	50	6112
2026-01-22 23:13:58.32	13.13	15.19	-38.0	-39.3	28.7	7.71e-01	60	41	0	646971392	50	6288
2026-01-22 23:13:59.30	12.89	15.16	-38.3	-39.5	28.5	7.71e-01	61	41	0	649068544	50	6494
2026-01-22 23:14:00.28	12.66	15.13	-38.2	-39.5	28.5	7.71e-01	60	41	0	650641408	50	6462
2026-01-22 23:14:01.26	12.43	15.10	-38.2	-39.4	28.6	7.71e-01	48	41	0	652738560	50	6410
2026-01-22 23:14:02.23	12.20	15.07	-38.0	-39.3	28.7	7.71e-01	57	41	0	654311424	50	6304
2026-01-22 23:14:03.21	11.97	15.03	-38.0	-39.2	28.7	7.71e-01	59	41	0	656408576	50	6273
2026-01-22 23:14:04.19	11.74	15.00	-38.1	-39.3	28.6	7.71e-01	57	41	0	657981440	50	6330
2026-01-22 23:14:05.16	11.51	14.97	-38.1	-39.4	28.6	7.71e-01	58	41	0	660078592	50	6352
2026-01-22 23:14:06.14	11.28	14.94	-38.1	-39.3	28.7	7.71e-01	62	41	0	661651456	50	6341
2026-01-22 23:14:07.11	11.05	14.90	-38.1	-39.4	28.6	7.71e-01	60	41	0	663748608	50	6380
2026-01-22 23:14:08.10	10.82	14.87	-38.1	-39.3	28.7	7.71e-01	58	41	0	665321472	50	6316
2026-01-22 23:14:09.08	10.59	14.84	-38.0	-39.3	28.7	7.71e-01	45	41	0	667418624	50	6280
2026-01-22 23:14:10.06	10.36	14.80	-38.1	-39.3	28.7	7.71e-01	56	41	0	668991488	50	6339
2026-01-22 23:14:11.03	10.14	14.77	-38.2	-39.4	28.6	7.71e-01	61	41	0	671088640	50	6402
2026-01-22 23:14:12.02	9.91	14.73	-38.1	-39.3	28.6	7.71e-01	50	41	0	672661504	50	6324
2026-01-22 23:14:13.01	9.68	14.69	-38.0	-39.2	28.7	7.71e-01	60	41	0	674758656	50	6261
2026-01-22 23:14:13.99	9.46	14.66	-38.0	-39.2	28.7	7.71e-01	58	41	0	676331520	50	6274
2026-01-22 23:14:14.97	9.23	14.62	-38.1	-39.4	28.7	7.71e-01	60	41	0	678428672	50	6379
2026-01-22 23:14:15.96	9.01	14.58	-38.1	-39.4	28.7	7.71e-01	63	41	0	680525824	50	6373
2026-01-22 23:14:16.94	8.78	14.55	-38.1	-39.3	28.7	7.71e-01	44	41	0	682098688	50	6297
2026-01-22 23:14:17.92	8.56	14.51	-38.5	-48.6	3.6	7.71e-01	0	41	104	682622976	50	18431
2026-01-22 23:14:18.90	8.34	14.47	-38.5	-48.6	3.6	7.71e-01	0	41	104	682622976	50	18394
2026-01-22 23:14:19.88	8.12	14.43	-38.4	-48.4	3.6	7.71e-01	0	41	104	682622976	50	18060
2026-01-22 23:14:20.86	7.89	14.39	-38.8	-48.9	3.4	7.71e-01	0	41	104	682622976	50	19053
2026-01-22 23:14:21.84	7.67	14.36	-40.7	-51.1	3.6	7.71e-01	0	41	104	682622976	54	19479
2026-01-22 23:14:22.82	7.45	14.32	-50.9	-68.1	3.5	7.71e-01	0	41	104	682622976	60	97840
2026-01-22 23:14:23.80	7.23	14.28	-40.9	-51.2	3.6	7.71e-01	0	41	104	682622976	58	15682
2026-01-22 23:14:24.78	7.02	14.24	-49.9	-63.8	3.5	7.71e-01	0	41	104	682622976	60	59828
2026-01-22 23:14:25.76	6.80	14.20	-45.2	-56.3	3.4	7.71e-01	0	41	104	682622976	60	25006
2026-01-22 23:14:26.74	6.58	14.16	-41.0	-51.2	3.6	7.71e-01	0	41	104	682622976	56	17620
2026-01-22 23:14:27.72	6.36	14.12	-40.6	-50.9	3.4	7.71e-01	0	41	104	682622976	56	17016
2026-01-22 23:14:28.70	6.15	14.07	-41.3	-51.5	3.6	7.71e-01	0	41	104	682622976	56	18310
2026-01-22 23:14:29.68	5.93	14.03	-41.2	-51.6	3.4	7.71e-01	0	41	104	682622976	54	20728
2026-01-22 23:14:30.66	5.72	13.99	-40.5	-50.7	4.0	7.71e-01	0	41	104	682622976	56	16684
2026-01-22 23:14:31.64	5.51	13.95	-48.7	-61.3	3.4	7.71e-01	0	41	104	682622976	60	44937
2026-01-22 23:14:32.62	5.29	13.91	-45.6	-56.8	3.4	7.71e-01	0	41	104	682622976	60	26712
2026-01-22 23:14:33.60	5.08	13.86	-42.0	-52.4	3.4	7.71e-01	0	41	104	682622976	52	25316
2026-01-22 23:14:34.58	4.87	13.82	-47.5	-59.3	3.8	7.71e-01	0	41	104	682622976	60	35380
2026-01-22 23:14:35.56	4.66	13.78	-38.7	-48.8	4.1	7.71e-01	0	41	104	682622976	52	16797
2026-01-22 23:14:36.55	4.44	13.73	-38.6	-48.8	4.1	7.71e-01	0	41	104	682622976	52	16728
2026-01-22 23:14:37.53	4.23	13.69	-38.7	-48.9	3.6	7.71e-01	0	41	104	682622976	52	16972
2026-01-22 23:14:38.51	4.02	13.65	-40.0	-50.3	3.5	7.71e-01	0	41	104	682622976	52	19958
2026-01-22 23:14:39.49	3.82	13.60	-43.8	-54.5	3.6	7.71e-01	0	41	104	682622976	60	20424
2026-01-22 23:14:40.47	3.61	13.56	-44.0	-54.7	3.5	7.71e-01	0	41	104	682622976	58	23418
2026-01-22 23:14:41.46	3.40	13.51	-50.9	-67.9	3.5	7.71e-01	0	41	104	682622976	60	95668
2026-01-22 23:14:42.43	3.19	13.47	-38.8	-49.1	3.5	7.71e-01	0	41	104	682622976	52	17399
2026-01-22 23:14:43.41	2.99	13.42	-51.0	-68.3	3.5	7.71e-01	0	41	104	682622976	60	99950
2026-01-22 23:14:44.40	2.78	13.38	-41.5	-51.8	3.5	7.71e-01	0	41	104	682622976	58	16793
2026-01-22 23:14:45.38	2.58	13.33	-42.0	-52.4	3.5	7.71e-01	0	41	104	682622976	58	17956
2026-01-22 23:14:46.36	2.37	13.28	-41.4	-51.7	3.5	7.71e-01	0	41	104	682622976	58	16530
2026-01-22 23:14:47.34	2.17	13.24	-40.5	-50.8	3.5	7.71e-01	0	41	104	682622976	56	16896
2026-01-22 23:14:48.32	1.97	13.19	-42.2	-52.6	3.6	7.71e-01	0	41	104	682622976	60	16477
2026-01-22 23:14:49.30	1.77	13.14	-43.4	-54.0	3.5	7.71e-01	0	41	104	682622976	60	19391
2026-01-22 23:14:50.28	1.56	13.10	-51.1	-68.5	3.5	7.71e-01	0	41	104	682622976	60	101950
2026-01-22 23:14:51.26	1.36	13.05	-39.3	-49.6	3.5	7.71e-01	0	41	104	682622976	54	16398
2026-01-22 23:14:52.24	1.16	13.00	-50.9	-67.7	3.5	7.71e-01	0	41	104	682622976	60	93387
2026-01-22 23:14:53.22	0.97	12.96	-39.3	-49.7	3.5	7.71e-01	0	41	104	682622976	54	16618
2026-01-22 23:14:54.20	0.77	12.91	-38.8	-49.1	3.5	7.71e-01	0	41	104	682622976	52	17380
2026-01-22 23:14:55.18	0.57	12.86	-39.0	-49.2	3.6	7.71e-01	0	41	104	682622976	52	17638
2026-01-22 23:14:56.16	0.37	12.81	-39.0	-49.2	3.5	7.71e-01	0	41	104	682622976	52	17641
2026-01-22 23:14:57.14	0.18	12.76	-47.2	-59.0	3.6	7.71e-01	0	41	104	682622976	60	34397
2026-01-22 23:14:58.12	359.98	12.71	-44.0	-54.8	3.5	7.71e-01	0	41	104	682622976	60	21183
2026-01-22 23:14:59.10	359.79	12.66	-51.0	-68.2	3.5	7.71e-01	0	41	104	682622976	60	98449
2026-01-22 23:15:00.08	359.59	12.62	-39.9	-50.2	3.5	7.71e-01	0	41	104	682622976	54	17616
2026-01-22 23:15:01.07	359.40	12.57	-50.9	-67.3	3.5	7.71e-01	0	41	104	682622976	60	89431
2026-01-22 23:15:02.05	359.20	12.52	-40.0	-50.2	3.5	7.71e-01	0	41	104	682622976	56	15743
2026-01-22 23:15:03.04	359.01	12.47	-38.9	-49.1	3.5	7.71e-01	0	41	104	682622976	54	15483
2026-01-22 23:15:04.02	358.82	12.42	-39.0	-49.2	3.5	7.71e-01	0	41	104	682622976	52	17493
2026-01-22 23:15:05.00	358.63	12.37	-39.3	-49.6	3.5	7.71e-01	0	41	104	682622976	52	18419
2026-01-22 23:15:05.98	358.44	12.32	-46.5	-58.0	3.5	7.71e-01	0	41	104	682622976	60	30654
2026-01-22 23:15:06.96	358.25	12.26	-44.6	-55.5	3.5	7.71e-01	0	41	104	682622976	60	22871
2026-01-22 23:15:07.94	358.06	12.21	-51.0	-68.0	3.5	7.71e-01	0	41	104	682622976	60	96854
2026-01-22 23:15:08.92	357.87	12.16	-39.6	-49.8	3.5	7.71e-01	0	41	104	682622976	54	16785
2026-01-22 23:15:09.90	357.69	12.11	-50.6	-66.7	3.5	7.71e-01	0	41	104	682622976	60	82997
2026-01-22 23:15:10.88	357.50	12.06	-42.6	-53.1	3.5	7.71e-01	0	41	104	682622976	60	17314
2026-01-22 23:15:11.86	357.32	12.01	-39.9	-50.2	3.5	7.71e-01	0	41	104	682622976	56	15689
2026-01-22 23:15:12.83	357.13	11.96	-38.9	-49.0	3.5	7.71e-01	0	41	104	682622976	54	15346
2026-01-22 23:15:13.82	356.95	11.91	-38.8	-48.9	3.5	7.71e-01	0	41	104	682622976	52	17054
2026-01-22 23:15:14.80	356.76	11.85	-47.9	-60.1	3.5	7.71e-01	0	41	104	682622976	60	38986
2026-01-22 23:15:15.79	356.58	11.80	-42.9	-53.4	3.5	7.71e-01	0	41	104	682622976	60	18066
2026-01-22 23:15:16.77	356.40	11.75	-50.8	-67.5	3.5	7.71e-01	0	41	104	682622976	60	91139
2026-01-22 23:15:17.74	356.22	11.70	-51.0	-68.7	3.5	7.71e-01	0	41	104	682622976	60	104406
2026-01-22 23:15:18.73	356.04	11.65	-39.5	-49.9	3.5	7.71e-01	0	41	104	682622976	56	15181
2026-01-22 23:15:19.71	355.86	11.59	-39.2	-49.4	3.5	7.71e-01	0	41	104	682622976	54	16068
2026-01-22 23:15:20.69	355.68	11.54	-39.3	-49.7	3.5	7.71e-01	0	41	104	682622976	54	16628
2026-01-22 23:15:21.66	355.50	11.49	-39.4	-49.6	3.5	7.71e-01	0	41	104	682622976	54	16323
2026-01-22 23:15:22.64	355.32	11.44	-39.3	-49.5	3.5	7.71e-01	0	41	104	682622976	54	16286
2026-01-22 23:15:23.62	355.15	11.38	-38.7	-49.0	3.6	7.71e-01	0	41	104	682622976	52	17098
2026-01-22 23:15:24.60	354.97	11.33	-40.5	-50.7	3.5	7.71e-01	0	41	104	682622976	52	21004
2026-01-22 23:15:25.58	354.79	11.28	-47.3	-59.3	3.5	7.71e-01	0	41	104	682622976	60	35332
2026-01-22 23:15:26.57	354.62	11.22	-46.6	-58.3	3.5	7.71e-01	0	41	104	682622976	60	31666
2026-01-22 23:15:27.55	354.44	11.17	-45.0	-56.0	3.7	7.71e-01	0	41	104	682622976	56	30591
2026-01-22 23:15:28.53	354.27	11.12	-50.6	-66.8	3.6	7.71e-01	0	41	104	682622976	60	84496
2026-01-22 23:15:29.51	354.10	11.06	-39.2	-49.3	3.5	7.71e-01	0	41	104	682622976	54	15885
2026-01-22 23:15:30.50	353.92	11.01	-39.0	-49.3	3.5	7.71e-01	0	41	104	682622976	52	17826
2026-01-22 23:15:31.47	353.75	10.95	-39.2	-49.4	3.5	7.71e-01	0	41	104	682622976	52	17919
2026-01-22 23:15:32.46	353.58	10.90	-40.7	-51.1	3.5	7.71e-01	0	41	104	682622976	52	21999
2026-01-22 23:15:33.44	353.41	10.85	-50.4	-65.5	3.6	7.71e-01	0	41	104	682622976	60	72236
2026-01-22 23:15:34.41	353.24	10.79	-40.4	-50.9	3.5	7.71e-01	0	41	104	682622976	54	19092
2026-01-22 23:15:35.39	353.07	10.74	-50.8	-67.9	3.5	7.71e-01	0	41	104	682622976	60	95158
2026-01-22 23:15:36.37	352.91	10.68	-45.2	-56.6	3.5	7.71e-01	0	41	104	682622976	60	25931
2026-01-22 23:15:37.34	352.74	10.63	-41.4	-51.6	3.5	7.71e-01	0	41	104	682622976	58	16408
2026-01-22 23:15:38.32	352.57	10.57	-39.4	-49.9	3.5	7.71e-01	0	41	104	682622976	54	16939
2026-01-22 23:15:39.30	352.41	10.52	-39.2	-49.5	3.5	7.71e-01	0	41	104	682622976	54	16191
2026-01-22 23:15:40.28	352.24	10.46	-39.3	-49.5	3.5	7.71e-01	0	41	104	682622976	54	16318
2026-01-22 23:15:41.26	352.08	10.41	-38.9	-49.1	3.5	7.71e-01	0	41	104	682622976	52	17470
2026-01-22 23:15:42.24	351.91	10.36	-41.0	-51.4	3.5	7.71e-01	0	41	104	682622976	56	17920
2026-01-22 23:15:43.22	351.75	10.30	-39.6	-50.0	3.5	7.71e-01	0	41	104	682622976	56	15268
2026-01-22 23:15:44.21	351.59	10.24	-50.9	-68.5	3.5	7.71e-01	0	41	104	682622976	60	102667
2026-01-22 23:15:45.19	351.43	10.19	-48.5	-61.3	3.5	7.71e-01	0	41	104	682622976	60	44854
2026-01-22 23:15:46.18	351.26	10.13	-43.0	-53.6	3.5	7.71e-01	0	41	104	682622976	58	20781
2026-01-22 23:15:47.15	351.10	10.08	-41.1	-51.3	3.5	7.71e-01	0	41	104	682622976	56	17828
2026-01-22 23:15:48.13	350.94	10.02	-40.6	-50.8	3.5	7.71e-01	0	41	104	682622976	56	16823
2026-01-22 23:15:49.11	350.78	9.97	-41.0	-51.1	3.5	7.71e-01	0	41	104	682622976	56	17471
2026-01-22 23:15:50.09	350.63	9.91	-41.1	-51.5	3.5	7.71e-01	0	41	104	682622976	56	18221
2026-01-22 23:15:51.07	350.47	9.86	-39.7	-49.9	3.5	7.71e-01	0	41	104	682622976	54	17032
2026-01-22 23:15:52.04	350.31	9.80	-48.4	-61.2	3.5	7.71e-01	0	41	104	682622976	60	44251
2026-01-22 23:15:53.02	350.16	9.75	-50.8	-67.7	3.5	7.71e-01	0	41	104	682622976	60	93608
2026-01-22 23:15:54.00	350.00	9.69	-39.6	-49.8	3.5	7.71e-01	0	42	104	682622976	54	16810
2026-01-22 23:15:54.98	349.85	9.63	-50.9	-68.5	3.5	7.71e-01	0	41	104	682622976	60	102315
2026-01-22 23:15:55.96	349.69	9.58	-40.2	-50.2	3.6	7.71e-01	0	41	104	682622976	56	15733
2026-01-22 23:15:56.94	349.54	9.52	-39.6	-50.1	3.5	7.71e-01	0	41	104	682622976	54	17400
2026-01-22 23:15:57.92	349.38	9.47	-39.6	-49.6	3.5	7.71e-01	0	41	104	682622976	54	16503
2026-01-22 23:15:58.90	349.23	9.41	-39.5	-50.1	3.5	7.71e-01	0	42	104	682622976	54	17403
2026-01-22 23:15:59.88	349.08	9.36	-47.9	-59.7	3.5	7.71e-01	0	41	104	682622976	60	37267
2026-01-22 23:16:00.87	348.93	9.30	-41.1	-51.8	3.5	7.71e-01	0	41	104	682622976	60	14972
2026-01-22 23:16:01.85	348.78	9.24	-50.8	-67.9	3.5	7.71e-01	0	41	104	682622976	60	95159
2026-01-22 23:16:02.83	348.63	9.19	-49.4	-63.6	3.5	7.71e-01	0	41	104	682622976	60	58301
2026-01-22 23:16:03.81	348.48	9.13	-43.1	-53.4	3.5	7.71e-01	0	41	104	682622976	58	20221
2026-01-22 23:16:04.79	348.33	9.07	-43.3	-54.1	3.6	7.71e-01	0	41	104	682622976	60	19457
2026-01-22 23:16:05.77	348.18	9.02	-42.4	-52.9	3.5	7.71e-01	0	42	104	682622976	60	16901
2026-01-22 23:16:06.75	348.03	8.96	-41.4	-51.8	3.5	7.71e-01	0	41	104	682622976	58	16832
2026-01-22 23:16:07.73	347.88	8.91	-41.8	-52.3	3.5	7.71e-01	0	41	104	682622976	58	17812
2026-01-22 23:16:08.71	347.74	8.85	-41.0	-51.3	3.5	7.71e-01	0	41	104	682622976	58	15770
2026-01-22 23:16:09.69	347.59	8.79	-45.9	-57.2	3.5	7.71e-01	0	41	104	682622976	60	27922
2026-01-22 23:16:10.66	347.45	8.74	-47.6	-59.6	3.5	7.71e-01	0	42	104	682622976	60	36635
2026-01-22 23:16:11.64	347.30	8.68	-44.0	-54.9	3.6	7.71e-01	0	41	104	682622976	60	21385
2026-01-22 23:16:12.63	347.16	8.62	-46.3	-58.0	3.5	7.71e-01	0	41	104	682622976	58	34388
2026-01-22 23:16:13.61	347.02	8.57	-50.3	-66.2	3.6	7.71e-01	0	41	104	682622976	60	78281
2026-01-22 23:16:14.59	346.87	8.51	-40.3	-50.8	3.5	7.71e-01	0	42	104	682622976	56	16885
2026-01-22 23:16:15.56	346.73	8.46	-39.8	-50.0	3.5	7.71e-01	0	41	104	682622976	54	17092
2026-01-22 23:16:16.54	346.59	8.40	-39.9	-50.4	3.5	7.71e-01	0	42	104	682622976	54	17926
2026-01-22 23:16:17.52	346.45	8.34	-41.9	-52.2	3.5	7.71e-01	0	41	104	682622976	54	22224
2026-01-22 23:16:18.49	346.31	8.29	-47.5	-59.6	3.5	7.71e-01	0	41	104	682622976	60	36645
2026-01-22 23:16:19.47	346.17	8.23	-42.8	-53.4	3.7	7.71e-01	0	42	104	682622976	56	22709
2026-01-22 23:16:20.45	346.03	8.17	-50.8	-68.0	3.5	7.71e-01	0	41	104	682622976	60	97030
2026-01-22 23:16:21.43	345.90	8.12	-41.2	-52.1	3.6	7.71e-01	0	41	104	682622976	60	15420
2026-01-22 23:16:22.41	345.76	8.06	-46.3	-57.4	3.6	7.71e-01	0	41	104	682622976	60	28518
2026-01-22 23:16:23.40	345.62	8.00	-43.1	-53.6	3.5	7.71e-01	0	41	104	682622976	60	18419
2026-01-22 23:16:24.38	345.48	7.95	-43.3	-54.2	3.5	7.71e-01	0	41	104	682622976	60	19726
2026-01-22 23:16:25.35	345.35	7.89	-43.4	-53.7	3.5	7.71e-01	0	41	104	682622976	60	18668
2026-01-22 23:16:26.33	345.21	7.83	-43.4	-54.4	3.5	7.71e-01	0	41	104	682622976	60	20287
2026-01-22 23:16:27.31	345.08	7.78	-46.6	-58.2	3.6	7.71e-01	0	41	104	682622976	60	31248
2026-01-22 23:16:28.29	344.94	7.72	-49.7	-64.0	3.5	7.71e-01	0	41	104	682622976	60	61310
2026-01-22 23:16:29.27	344.81	7.66	-48.5	-62.2	3.5	7.71e-01	0	42	104	682622976	60	49533
2026-01-22 23:16:30.25	344.68	7.61	-40.1	-50.1	3.5	7.71e-01	0	41	104	682622976	56	15546
2026-01-22 23:16:31.23	344.55	7.55	-50.5	-67.6	3.5	7.71e-01	0	42	104	682622976	60	91887
2026-01-22 23:16:32.21	344.41	7.49	-41.5	-52.1	3.5	7.71e-01	0	41	104	682622976	58	17471
2026-01-22 23:16:33.19	344.28	7.44	-41.0	-51.0	3.5	7.71e-01	0	42	104	682622976	58	15306
2026-01-22 23:16:34.17	344.15	7.38	-40.8	-51.7	3.6	7.71e-01	0	41	104	682622976	56	18720
2026-01-22 23:16:35.15	344.02	7.32	-40.7	-50.8	3.5	7.71e-01	0	41	104	682622976	56	16781
2026-01-22 23:16:36.13	343.89	7.27	-49.4	-63.2	3.5	7.71e-01	0	42	104	682622976	60	55919
2026-01-22 23:16:37.11	343.76	7.21	-41.4	-52.3	3.6	7.71e-01	0	42	104	682622976	58	17811
2026-01-22 23:16:38.09	343.63	7.15	-50.3	-67.9	3.5	7.71e-01	0	42	104	682622976	60	95579
2026-01-22 23:16:39.07	343.51	7.10	-44.0	-54.8	3.5	7.71e-01	0	42	104	682622976	60	21247
2026-01-22 23:16:40.05	343.38	7.04	-48.3	-61.1	3.5	7.71e-01	0	41	104	682622976	60	43765
2026-01-22 23:16:41.03	343.25	6.99	-40.6	-50.7	3.5	7.71e-01	0	41	104	682622976	56	16579
2026-01-22 23:16:42.01	343.13	6.93	-40.7	-51.1	3.5	7.71e-01	0	41	104	682622976	56	17438
2026-01-22 23:16:42.99	343.00	6.87	-40.3	-50.6	3.5	7.71e-01	0	41	104	682622976	56	16488
2026-01-22 23:16:43.97	342.87	6.82	-40.7	-51.0	3.5	7.71e-01	0	41	104	682622976	56	17119
2026-01-22 23:16:44.96	342.75	6.76	-49.0	-62.9	3.5	7.71e-01	0	42	104	682622976	60	53880
2026-01-22 23:16:45.94	342.62	6.70	-42.4	-52.8	3.5	7.71e-01	0	41	104	682622976	60	16790
2026-01-22 23:16:46.91	342.50	6.65	-49.4	-65.4	3.5	7.71e-01	0	42	104	682622976	60	71916
2026-01-22 23:16:47.89	342.38	6.59	-46.0	-57.9	3.5	7.71e-01	0	42	104	682622976	60	30367
2026-01-22 23:16:48.88	342.26	6.53	-45.7	-56.5	3.5	7.71e-01	0	42	104	682622976	60	25785
2026-01-22 23:16:49.85	342.13	6.48	-43.3	-53.8	3.5	7.71e-01	0	42	104	682622976	60	18861
2026-01-22 23:16:50.83	342.01	6.42	-42.9	-54.1	3.6	7.71e-01	0	42	104	682622976	60	19431
2026-01-22 23:16:51.82	341.89	6.36	-42.5	-52.6	3.5	7.71e-01	0	41	104	682622976	60	16493
2026-01-22 23:16:52.80	341.77	6.31	-42.4	-52.7	3.5	7.71e-01	0	42	104	682622976	60	16673
2026-01-22 23:16:53.79	341.65	6.25	-41.5	-52.7	3.5	7.71e-01	0	42	104	682622976	58	18690
2026-01-22 23:16:54.77	341.53	6.20	-41.4	-51.4	3.5	7.71e-01	0	42	104	682622976	56	18087
2026-01-22 23:16:55.75	341.41	6.14	-48.6	-63.5	3.5	7.71e-01	0	41	104	682622976	60	57638
2026-01-22 23:16:56.73	341.29	6.08	-46.5	-59.5	3.6	7.71e-01	0	41	104	682622976	60	36436
2026-01-22 23:16:57.71	341.17	6.03	-42.8	-53.3	3.5	7.71e-01	0	41	104	682622976	58	19896
2026-01-22 23:16:58.69	341.06	5.97	-44.8	-55.5	3.5	7.71e-01	0	42	104	682622976	60	22864
2026-01-22 23:16:59.67	340.94	5.91	-43.4	-54.9	3.5	7.71e-01	0	41	104	682622976	60	21398
2026-01-22 23:17:00.66	340.82	5.86	-43.1	-53.6	3.5	7.71e-01	0	42	104	682622976	60	18368
2026-01-22 23:17:01.65	340.71	5.80	-42.9	-53.1	3.5	7.71e-01	0	42	104	682622976	60	17461
2026-01-22 23:17:02.63	340.59	5.75	-42.2	-53.3	3.6	7.71e-01	0	42	104	682622976	60	17872
2026-01-22 23:17:03.62	340.47	5.69	-41.6	-52.5	3.6	7.71e-01	0	41	104	682622976	58	18145
2026-01-22 23:17:04.59	340.36	5.63	-42.8	-53.2	3.5	7.71e-01	0	41	104	682622976	60	17582
2026-01-22 23:17:05.57	340.25	5.58	-47.2	-61.8	3.5	7.71e-01	0	42	104	682622976	60	47165
2026-01-22 23:17:06.55	340.13	5.52	-43.6	-55.4	3.5	7.71e-01	0	41	104	682622976	60	22563
2026-01-22 23:17:07.53	340.02	5.47	-47.9	-61.4	3.5	7.71e-01	0	42	104	682622976	60	45434
2026-01-22 23:17:08.51	339.91	5.41	-45.1	-56.4	3.6	7.71e-01	0	42	104	682622976	60	25474
2026-01-22 23:17:09.49	339.80	5.35	-45.1	-57.3	3.5	7.71e-01	0	42	104	682622976	60	28071
2026-01-22 23:17:10.47	339.69	5.30	-44.9	-56.5	3.6	7.71e-01	0	42	104	682622976	60	25696
2026-01-22 23:17:11.45	339.58	5.24	-45.7	-57.2	3.5	7.71e-01	0	41	104	682622976	60	27792
2026-01-22 23:17:12.43	339.46	5.19	-48.0	-63.8	3.5	7.71e-01	0	42	104	682622976	60	59544
2026-01-22 23:17:13.40	339.36	5.13	-47.6	-62.1	3.5	7.71e-01	0	42	104	682622976	60	48733
2026-01-22 23:17:14.38	339.25	5.08	-45.2	-57.2	3.5	7.71e-01	0	42	104	682622976	60	27813
2026-01-22 23:17:15.36	339.14	5.02	-43.4	-54.0	3.5	7.71e-01	0	42	104	682622976	60	19372
2026-01-22 23:17:16.34	339.03	4.97	-46.6	-62.4	3.5	7.71e-01	0	42	104	682622976	60	50514
2026-01-22 23:17:17.32	338.92	4.91	-44.2	-56.2	3.5	7.71e-01	0	41	104	682622976	60	24917
2026-01-22 23:17:18.30	338.81	4.85	-44.3	-55.6	3.5	7.71e-01	0	42	104	682622976	60	23220
2026-01-22 23:17:19.28	338.71	4.80	-44.5	-56.3	3.5	7.71e-01	0	42	104	682622976	60	25090
2026-01-22 23:17:20.26	338.60	4.74	-45.0	-57.6	3.5	7.71e-01	0	42	104	682622976	60	29040
2026-01-22 23:17:21.24	338.49	4.69	-47.3	-64.3	3.5	7.71e-01	0	42	104	682622976	60	62886
2026-01-22 23:17:22.22	338.39	4.63	-46.1	-60.2	3.5	7.71e-01	0	42	104	682622976	60	39535
2026-01-22 23:17:23.21	338.28	4.58	-47.8	-64.8	3.5	7.71e-01	0	42	104	682622976	60	66500
2026-01-22 23:17:24.19	338.18	4.52	-46.1	-59.0	3.5	7.71e-01	0	42	104	682622976	60	34345
2026-01-22 23:17:25.17	338.07	4.47	-46.8	-64.3	3.5	7.71e-01	0	42	104	682622976	60	62815
2026-01-22 23:17:26.15	337.97	4.41	-46.3	-60.2	3.5	7.71e-01	0	42	104	682622976	60	39288
2026-01-22 23:17:27.12	337.86	4.36	-46.4	-61.2	3.5	7.71e-01	0	42	104	682622976	60	44013
2026-01-22 23:17:28.10	337.76	4.30	-46.5	-61.8	3.5	7.71e-01	0	42	104	682622976	60	47445
2026-01-22 23:17:29.08	337.66	4.25	-46.6	-62.2	3.5	7.71e-01	0	42	104	682622976	60	49415
2026-01-22 23:17:30.06	337.56	4.19	-46.8	-64.4	3.5	7.71e-01	0	42	104	682622976	60	63672
2026-01-22 23:17:31.05	337.45	4.14	-46.8	-62.8	3.5	7.71e-01	0	42	104	682622976	60	52960
2026-01-22 23:17:32.03	337.35	4.08	-46.8	-64.6	3.5	7.71e-01	0	42	104	682622976	60	65254
2026-01-22 23:17:33.01	337.25	4.03	-46.8	-64.4	3.5	7.71e-01	0	42	104	682622976	60	64144
2026-01-22 23:17:33.99	337.15	3.97	-47.1	-64.2	3.5	7.71e-01	0	42	104	682622976	60	62494
2026-01-22 23:17:34.97	337.05	3.92	-46.9	-64.1	3.5	7.71e-01	0	42	104	682622976	60	61356
2026-01-22 23:17:35.96	336.95	3.86	-46.9	-64.3	3.5	7.71e-01	0	42	104	682622976	60	63229
2026-01-22 23:17:36.94	336.85	3.81	-46.9	-64.4	3.5	7.71e-01	0	42	104	682622976	60	63659
2026-01-22 23:17:37.93	336.75	3.75	-46.9	-64.5	3.5	7.71e-01	0	42	104	682622976	60	64275
2026-01-22 23:17:38.91	336.65	3.70	-46.8	-64.5	3.5	7.71e-01	0	42	104	682622976	60	64565
2026-01-22 23:17:39.89	336.55	3.64	-46.8	-64.6	3.5	7.71e-01	0	42	104	682622976	60	65085
2026-01-22 23:17:40.87	336.46	3.59	-46.8	-64.6	3.5	7.71e-01	0	42	104	682622976	60	65671
2026-01-22 23:17:41.84	336.36	3.54	-46.7	-64.6	3.5	7.71e-01	0	42	104	682622976	60	65062
2026-01-22 23:17:42.82	336.26	3.48	-46.8	-64.7	3.5	7.71e-01	0	42	104	682622976	60	65740
2026-01-22 23:17:43.81	336.17	3.43	-46.8	-64.6	3.5	7.71e-01	0	42	104	682622976	60	65574
2026-01-22 23:17:44.79	336.07	3.37	-46.7	-64.6	3.5	7.71e-01	0	42	104	682622976	60	65414
2026-01-22 23:17:45.77	335.97	3.32	-46.7	-64.6	3.5	7.71e-01	0	42	104	682622976	60	65009
2026-01-22 23:17:46.75	335.88	3.26	-46.7	-64.6	3.5	7.71e-01	0	42	104	682622976	60	65599
2026-01-22 23:17:47.72	335.79	3.21	-46.8	-64.6	3.5	7.71e-01	0	42	104	682622976	60	65490
2026-01-22 23:17:48.70	335.69	3.16	-46.7	-64.5	3.5	7.71e-01	0	42	104	682622976	60	64829
2026-01-22 23:17:49.68	335.60	3.10	-46.7	-64.5	3.5	7.71e-01	0	42	104	682622976	60	64732
2026-01-22 23:17:50.66	335.50	3.05	-46.7	-64.6	3.5	7.71e-01	0	42	104	682622976	60	65028
2026-01-22 23:17:51.64	335.41	2.99	-46.8	-64.7	3.5	7.71e-01	0	42	104	682622976	60	65875
2026-01-22 23:17:52.62	335.32	2.94	-49.9	-67.8	3.5	7.71e-01	0	42	104	682622976	60	94790
2026-01-22 23:17:53.60	335.23	2.89	-50.8	-68.8	3.5	7.71e-01	0	42	104	682622976	60	105410
2026-01-22 23:17:54.58	335.13	2.83	-51.2	-69.0	3.5	7.71e-01	0	42	104	682622976	60	108687
2026-01-22 23:17:55.57	335.04	2.78	-51.3	-69.1	3.5	7.71e-01	0	42	104	682622976	60	110300
2026-01-22 23:17:56.54	334.95	2.73	-51.4	-69.2	3.5	7.71e-01	0	42	104	682622976	60	111443
2026-01-22 23:17:57.52	334.86	2.67	-51.5	-69.3	3.5	7.71e-01	0	42	104	682622976	60	112773
2026-01-22 23:17:58.50	334.77	2.62	-51.4	-69.4	3.5	7.71e-01	0	42	104	682622976	60	113870
2026-01-22 23:17:59.48	334.68	2.56	-51.6	-69.5	3.5	7.71e-01	0	42	104	682622976	60	114729
2026-01-22 23:18:00.45	334.59	2.51	-51.6	-69.5	3.5	7.71e-01	0	42	104	682622976	60	115122
2026-01-22 23:18:01.43	334.50	2.46	-51.7	-69.5	3.5	7.71e-01	0	42	104	682622976	60	115243
2026-01-22 23:18:02.40	334.41	2.41	-51.7	-69.6	3.5	7.71e-01	0	42	104	682622976	60	115609
2026-01-22 23:18:03.38	334.32	2.35	-51.6	-69.6	3.5	7.71e-01	0	42	104	682622976	60	115935
2026-01-22 23:18:04.36	334.24	2.30	-51.5	-69.5	3.5	7.71e-01	0	42	104	682622976	60	115229
2026-01-22 23:18:05.34	334.15	2.25	-51.7	-69.6	3.5	7.71e-01	0	42	104	682622976	60	115961
2026-01-22 23:18:06.33	334.06	2.19	-51.7	-69.6	3.5	7.71e-01	0	42	104	682622976	60	115812
2026-01-22 23:18:07.31	333.97	2.14	-51.5	-69.5	3.5	7.71e-01	0	42	104	682622976	60	115409
2026-01-22 23:18:08.28	333.89	2.09	-51.5	-69.5	3.5	7.71e-01	0	42	104	682622976	60	114449
2026-01-22 23:18:09.27	333.80	2.03	-51.5	-69.5	3.5	7.71e-01	0	42	104	682622976	60	114480
2026-01-22 23:18:10.25	333.71	1.98	-51.6	-69.5	3.5	7.71e-01	0	42	104	682622976	60	114432
2026-01-22 23:18:11.23	333.63	1.93	-51.6	-69.5	3.5	7.71e-01	0	42	104	682622976	60	114414
2026-01-22 23:18:12.21	333.54	1.87	-51.6	-69.5	3.5	7.71e-01	0	42	104	682622976	60	114856
2026-01-22 23:18:13.19	333.46	1.82	-51.4	-69.5	3.5	7.71e-01	0	42	104	682622976	60	114236
2026-01-22 23:18:14.17	333.37	1.77	-51.6	-69.5	3.5	7.71e-01	0	42	104	682622976	60	114754
2026-01-22 23:18:15.15	333.29	1.72	-51.6	-69.5	3.5	7.71e-01	0	42	104	682622976	60	114250
2026-01-22 23:18:16.13	333.20	1.66	-51.7	-69.5	3.5	7.71e-01	0	42	104	682622976	60	114290
2026-01-22 23:18:17.11	333.12	1.61	-51.7	-69.5	3.5	7.71e-01	0	42	104	682622976	60	114752
2026-01-22 23:18:18.09	333.04	1.56	-51.7	-69.4	3.5	7.71e-01	0	42	104	682622976	60	114123
2026-01-22 23:18:19.07	332.95	1.51	-51.7	-69.5	3.5	7.71e-01	0	42	104	682622976	60	114461
2026-01-22 23:18:20.05	332.87	1.45	-51.7	-69.5	3.5	7.71e-01	0	42	104	682622976	60	114393
2026-01-22 23:18:21.03	332.79	1.40	-51.7	-69.5	3.5	7.71e-01	0	42	104	682622976	60	114539
2026-01-22 23:18:22.01	332.70	1.35	-51.6	-69.4	3.5	7.71e-01	0	42	104	682622976	60	114226
2026-01-22 23:18:22.99	332.62	1.30	-51.6	-69.4	3.5	7.71e-01	0	42	104	682622976	60	114048
2026-01-22 23:18:23.96	332.54	1.24	-51.6	-69.5	3.5	7.71e-01	0	42	104	682622976	60	114754
2026-01-22 23:18:24.94	332.46	1.19	-51.6	-69.5	3.5	7.71e-01	0	42	104	682622976	60	114407
2026-01-22 23:18:25.92	332.38	1.14	-51.6	-69.5	3.5	7.71e-01	0	42	104	682622976	60	114372
2026-01-22 23:18:26.91	332.30	1.09	-51.6	-69.5	3.5	7.71e-01	0	42	104	682622976	60	114683
2026-01-22 23:18:27.89	332.22	1.04	-51.6	-69.4	3.5	7.71e-01	0	42	104	682622976	60	114014
