passes_logs/2026/01/22/R4.6S_Anadyr/R4.6S_Anadyr__20260122_213153_AQUA_rec.log

#Pass ID: 20260122_213153_AQUA
#Satellite: AQUA
#Configuration: AQUA
#almurnet v.1.7.20251203
#Start time: 2026-01-22 21:31:58

#Version: 2.2.20231116
#Station: R4.6S_Anadyr
#Location: 177.4865 lon 64.73178 lat
#TLE: 1 27424U 02022A   26022.49486490  .00002153  00000+0  44069-3 0  9997
#TLE: 2 27424  98.4099 349.0485 0001970  69.5876  43.4746 14.61847233261984

#Time	Az	El	Level	Level2	SNR	BER	BlckErr	Temp	State	Recorded	gain1	gain2
2026-01-22 21:31:58.78	53.69	0.23	-51.3	-52.7	3.3	0.00e+00	0	38	0	0	60	52864
2026-01-22 21:31:59.76	53.60	0.28	-51.5	-69.4	3.5	7.67e-01	0	40	104	0	60	113201
2026-01-22 21:32:00.75	53.51	0.33	-51.6	-69.3	3.6	7.67e-01	0	40	104	0	60	112624
2026-01-22 21:32:01.72	53.42	0.37	-51.5	-69.4	3.5	7.67e-01	0	40	104	0	60	113562
2026-01-22 21:32:02.69	53.32	0.42	-51.6	-69.4	3.5	7.67e-01	0	40	104	0	60	113763
2026-01-22 21:32:03.67	53.23	0.46	-51.6	-69.4	3.5	7.67e-01	0	40	104	0	60	113612
2026-01-22 21:32:04.65	53.14	0.51	-51.6	-69.4	3.5	7.67e-01	0	40	104	0	60	113091
2026-01-22 21:32:05.63	53.04	0.55	-51.5	-69.3	3.5	7.67e-01	0	40	104	0	60	112299
2026-01-22 21:32:06.61	52.95	0.60	-51.3	-69.3	3.5	7.67e-01	0	40	104	0	60	112640
2026-01-22 21:32:07.59	52.85	0.65	-51.5	-69.3	3.5	7.67e-01	0	40	104	0	60	112259
2026-01-22 21:32:08.57	52.76	0.69	-51.2	-69.3	3.5	7.67e-01	0	40	104	0	60	112591
2026-01-22 21:32:09.55	52.66	0.74	-51.3	-69.3	3.5	7.67e-01	0	40	104	0	60	112235
2026-01-22 21:32:10.53	52.56	0.78	-51.3	-69.3	3.5	7.67e-01	0	40	104	0	60	112294
2026-01-22 21:32:11.51	52.47	0.83	-51.4	-69.3	3.5	7.67e-01	0	40	104	0	60	112612
2026-01-22 21:32:12.49	52.37	0.87	-51.3	-69.2	3.5	7.67e-01	0	40	104	0	60	111283
2026-01-22 21:32:13.47	52.27	0.92	-51.2	-69.2	3.5	7.67e-01	0	40	104	0	60	110955
2026-01-22 21:32:14.45	52.18	0.97	-51.3	-69.1	3.5	7.67e-01	0	40	104	0	60	110194
2026-01-22 21:32:15.43	52.08	1.01	-51.1	-69.1	3.5	7.67e-01	0	40	104	0	60	109627
2026-01-22 21:32:16.41	51.98	1.06	-51.1	-69.0	3.5	7.67e-01	0	40	104	0	60	108095
2026-01-22 21:32:17.39	51.88	1.10	-51.0	-68.8	3.5	7.67e-01	0	40	104	0	60	106303
2026-01-22 21:32:18.38	51.78	1.15	-50.6	-68.7	3.5	7.67e-01	0	40	104	0	60	104795
2026-01-22 21:32:19.35	51.68	1.20	-50.5	-68.5	3.5	7.67e-01	0	40	104	0	60	102366
2026-01-22 21:32:20.33	51.58	1.24	-50.2	-68.3	3.5	7.67e-01	0	40	104	0	60	99824
2026-01-22 21:32:21.31	51.48	1.29	-50.0	-67.8	3.5	7.67e-01	0	40	104	0	60	94663
2026-01-22 21:32:22.29	51.38	1.33	-50.0	-67.8	3.5	7.67e-01	0	40	104	0	60	94871
2026-01-22 21:32:23.28	51.28	1.38	-50.0	-67.8	3.5	7.67e-01	0	40	104	0	60	94943
2026-01-22 21:32:24.25	51.18	1.43	-50.0	-67.8	3.5	7.67e-01	0	40	104	0	60	94981
2026-01-22 21:32:25.23	51.08	1.47	-50.0	-67.8	3.5	7.67e-01	0	40	104	0	60	94875
2026-01-22 21:32:26.21	50.98	1.52	-50.0	-67.8	3.5	7.67e-01	0	40	104	0	60	94445
2026-01-22 21:32:27.19	50.88	1.56	-50.0	-67.8	3.5	7.67e-01	0	40	104	0	60	94839
2026-01-22 21:32:28.17	50.78	1.61	-50.0	-67.8	3.5	7.67e-01	0	40	104	0	60	94809
2026-01-22 21:32:29.16	50.67	1.66	-50.0	-67.8	3.5	7.67e-01	0	40	104	0	60	94971
2026-01-22 21:32:30.14	50.57	1.70	-50.0	-67.8	3.5	7.67e-01	0	40	104	0	60	94537
2026-01-22 21:32:31.12	50.47	1.75	-50.0	-67.8	3.5	7.67e-01	0	40	104	0	60	94280
2026-01-22 21:32:32.10	50.36	1.79	-50.0	-67.8	3.5	7.67e-01	0	40	104	0	60	94722
2026-01-22 21:32:33.08	50.26	1.84	-50.0	-67.9	3.5	7.67e-01	0	40	104	0	60	95159
2026-01-22 21:32:34.06	50.15	1.89	-50.0	-67.8	3.5	7.67e-01	0	40	104	0	60	94294
2026-01-22 21:32:35.04	50.05	1.93	-50.0	-67.8	3.5	7.67e-01	0	40	104	0	60	94366
2026-01-22 21:32:36.02	49.94	1.98	-50.0	-67.9	3.5	7.67e-01	0	40	104	0	60	95090
2026-01-22 21:32:37.00	49.84	2.02	-50.0	-67.8	3.5	7.67e-01	0	40	104	0	60	94430
2026-01-22 21:32:37.98	49.73	2.07	-50.0	-67.8	3.5	7.67e-01	0	40	104	0	60	94269
2026-01-22 21:32:38.97	49.62	2.12	-50.0	-67.8	3.5	7.67e-01	0	40	104	0	60	94171
2026-01-22 21:32:39.96	49.52	2.16	-50.0	-67.8	3.5	7.67e-01	0	41	104	0	60	94144
2026-01-22 21:32:40.94	49.41	2.21	-50.0	-67.8	3.5	7.67e-01	0	40	104	0	60	94057
2026-01-22 21:32:41.92	49.30	2.26	-50.0	-67.8	3.5	7.67e-01	0	40	104	0	60	94207
2026-01-22 21:32:42.91	49.19	2.30	-50.0	-67.7	3.5	7.67e-01	0	41	104	0	60	93567
2026-01-22 21:32:43.89	49.08	2.35	-50.0	-67.7	3.5	7.67e-01	0	41	104	0	60	93420
2026-01-22 21:32:44.87	48.98	2.39	-49.9	-67.6	3.5	7.67e-01	0	40	104	0	60	91869
2026-01-22 21:32:45.85	48.87	2.44	-49.9	-67.5	3.5	7.67e-01	0	41	104	0	60	90888
2026-01-22 21:32:46.83	48.76	2.49	-49.9	-67.5	3.5	7.67e-01	0	41	104	0	60	91443
2026-01-22 21:32:47.81	48.65	2.53	-50.0	-67.6	3.5	7.67e-01	0	41	104	0	60	91866
2026-01-22 21:32:48.79	48.54	2.58	-50.0	-67.8	3.5	7.67e-01	0	41	104	0	60	94295
2026-01-22 21:32:49.77	48.43	2.62	-50.0	-67.6	3.5	7.67e-01	0	41	104	0	60	92788
2026-01-22 21:32:50.75	48.32	2.67	-49.9	-67.5	3.5	7.67e-01	0	41	104	0	60	91731
2026-01-22 21:32:51.73	48.20	2.72	-50.0	-67.7	3.5	7.67e-01	0	41	104	0	60	93292
2026-01-22 21:32:52.71	48.09	2.76	-50.0	-67.7	3.5	7.67e-01	0	41	104	0	60	93133
2026-01-22 21:32:53.69	47.98	2.81	-49.9	-67.2	3.5	7.67e-01	0	41	104	0	60	88353
2026-01-22 21:32:54.67	47.87	2.85	-49.8	-66.9	3.5	7.67e-01	0	41	104	0	60	85336
2026-01-22 21:32:55.66	47.75	2.90	-49.9	-67.1	3.5	7.67e-01	0	41	104	0	60	87636
2026-01-22 21:32:56.63	47.64	2.95	-49.9	-67.2	3.5	7.67e-01	0	41	104	0	60	87883
2026-01-22 21:32:57.61	47.53	2.99	-49.1	-64.1	3.5	7.67e-01	0	41	104	0	60	61584
2026-01-22 21:32:58.59	47.41	3.04	-50.0	-67.8	3.5	7.67e-01	0	41	104	0	60	94994
2026-01-22 21:32:59.57	47.30	3.08	-50.0	-67.9	3.5	7.67e-01	0	41	104	0	60	95921
2026-01-22 21:33:00.55	47.18	3.13	-48.8	-63.2	3.5	7.67e-01	0	41	104	0	60	55849
2026-01-22 21:33:01.53	47.07	3.17	-49.9	-67.2	3.5	7.67e-01	0	41	104	0	60	88303
2026-01-22 21:33:02.51	46.95	3.22	-45.8	-57.4	3.5	7.67e-01	0	41	104	0	60	28597
2026-01-22 21:33:03.50	46.84	3.27	-41.4	-52.0	3.5	7.67e-01	0	41	104	0	56	19212
2026-01-22 21:33:04.49	46.72	3.31	-40.7	-51.2	3.5	7.67e-01	0	41	104	0	56	17590
2026-01-22 21:33:05.47	46.60	3.36	-41.4	-52.0	3.5	7.67e-01	0	41	104	0	56	19180
2026-01-22 21:33:06.45	46.48	3.40	-41.2	-51.7	3.5	7.67e-01	0	41	104	0	56	18676
2026-01-22 21:33:07.44	46.37	3.45	-40.9	-51.4	3.6	7.67e-01	0	41	104	0	56	17919
2026-01-22 21:33:08.42	46.25	3.50	-41.4	-52.0	3.5	7.67e-01	0	41	104	0	56	19300
2026-01-22 21:33:09.40	46.13	3.54	-45.4	-56.8	3.5	7.67e-01	0	41	104	0	60	26759
2026-01-22 21:33:10.38	46.01	3.59	-49.8	-67.2	3.5	7.67e-01	0	41	104	0	60	87696
2026-01-22 21:33:11.36	45.89	3.63	-41.8	-52.5	3.5	7.67e-01	0	41	104	0	58	18106
2026-01-22 21:33:12.35	45.77	3.68	-50.0	-67.6	3.5	7.67e-01	0	41	104	0	60	92691
2026-01-22 21:33:13.33	45.65	3.72	-43.3	-54.2	3.5	7.67e-01	0	41	104	0	60	19701
2026-01-22 21:33:14.31	45.53	3.77	-42.9	-53.6	3.5	7.67e-01	0	41	104	0	60	18511
2026-01-22 21:33:15.30	45.41	3.82	-41.9	-52.5	3.5	7.67e-01	0	41	104	0	60	16322
2026-01-22 21:33:16.28	45.28	3.86	-42.0	-52.7	3.5	7.67e-01	0	41	104	0	58	18613
2026-01-22 21:33:17.27	45.16	3.91	-44.7	-55.9	3.5	7.67e-01	0	41	104	0	60	24056
2026-01-22 21:33:18.25	45.04	3.95	-43.9	-54.9	3.5	7.67e-01	0	41	104	0	60	21415
2026-01-22 21:33:19.24	44.91	4.00	-49.9	-67.6	3.5	7.67e-01	0	41	104	0	60	92384
2026-01-22 21:33:20.22	44.79	4.04	-41.6	-52.1	3.4	7.67e-01	0	41	104	0	60	15550
2026-01-22 21:33:21.20	44.67	4.09	-49.6	-67.5	3.5	7.67e-01	0	41	104	0	60	91256
2026-01-22 21:33:22.18	44.54	4.13	-41.0	-51.6	3.5	7.67e-01	0	41	104	0	56	18325
2026-01-22 21:33:23.16	44.42	4.18	-41.1	-51.6	3.5	7.67e-01	0	41	104	0	56	18468
2026-01-22 21:33:24.14	44.29	4.23	-40.4	-50.9	3.5	7.67e-01	0	41	104	0	56	16919
2026-01-22 21:33:25.12	44.17	4.27	-40.8	-51.3	3.5	7.67e-01	0	41	104	0	56	17813
2026-01-22 21:33:26.11	44.04	4.32	-49.0	-63.1	3.5	7.67e-01	0	41	104	0	60	55214
2026-01-22 21:33:27.08	43.92	4.36	-43.3	-54.1	3.5	7.67e-01	0	41	104	0	60	19481
2026-01-22 21:33:28.06	43.79	4.41	-50.1	-67.0	3.5	7.67e-01	0	41	104	0	60	86093
2026-01-22 21:33:29.04	43.66	4.45	-43.3	-54.1	3.6	7.67e-01	0	41	104	0	60	19451
2026-01-22 21:33:30.02	43.54	4.50	-49.9	-67.4	3.5	7.67e-01	0	41	104	0	60	90579
2026-01-22 21:33:31.00	43.41	4.54	-42.3	-52.9	3.5	7.67e-01	0	41	104	0	60	17002
2026-01-22 21:33:31.99	43.28	4.59	-41.3	-51.8	3.5	7.67e-01	0	41	104	0	58	16804
2026-01-22 21:33:32.97	43.15	4.63	-40.7	-51.1	3.5	7.67e-01	0	41	104	0	56	17391
2026-01-22 21:33:33.95	43.02	4.68	-40.5	-50.9	3.5	7.67e-01	0	41	104	0	56	16999
2026-01-22 21:33:34.93	42.89	4.72	-46.6	-58.5	3.5	7.67e-01	0	41	104	0	60	32473
2026-01-22 21:33:35.92	42.76	4.77	-42.3	-52.8	3.5	7.67e-01	0	41	104	0	56	21268
2026-01-22 21:33:36.91	42.63	4.81	-50.2	-67.1	3.5	7.67e-01	0	41	104	0	60	87609
2026-01-22 21:33:37.89	42.49	4.86	-43.2	-54.0	3.6	7.67e-01	0	41	104	0	60	19278
2026-01-22 21:33:38.87	42.36	4.90	-49.9	-67.7	3.5	7.67e-01	0	41	104	0	60	93539
2026-01-22 21:33:39.84	42.23	4.94	-40.7	-51.2	3.4	7.67e-01	0	41	104	0	58	15651
2026-01-22 21:33:40.83	42.10	4.99	-40.1	-50.5	3.5	7.67e-01	0	41	104	0	56	16309
2026-01-22 21:33:41.80	41.97	5.03	-40.4	-50.7	3.5	7.67e-01	0	41	104	0	56	16663
2026-01-22 21:33:42.78	41.83	5.08	-40.4	-50.8	3.5	7.67e-01	0	41	104	0	56	16813
2026-01-22 21:33:43.76	41.70	5.12	-48.9	-63.0	3.5	7.67e-01	0	41	104	0	60	54311
2026-01-22 21:33:44.74	41.57	5.17	-44.7	-55.8	3.5	7.67e-01	0	41	104	0	60	23825
2026-01-22 21:33:45.72	41.43	5.21	-50.3	-67.8	3.5	7.67e-01	0	41	104	0	60	94872
2026-01-22 21:33:46.71	41.29	5.26	-44.9	-56.0	3.6	7.67e-01	0	41	104	0	60	24400
2026-01-22 21:33:47.69	41.16	5.30	-49.3	-64.4	3.5	7.67e-01	0	41	104	0	60	63961
2026-01-22 21:33:48.68	41.02	5.34	-45.1	-56.4	3.6	7.67e-01	0	41	104	0	60	25420
2026-01-22 21:33:49.65	40.89	5.39	-42.4	-53.0	3.5	7.67e-01	0	41	104	0	58	19303
2026-01-22 21:33:50.63	40.75	5.43	-42.0	-52.6	3.6	7.67e-01	0	41	104	0	58	18425
2026-01-22 21:33:51.61	40.61	5.48	-42.5	-53.1	3.5	7.67e-01	0	41	104	0	58	19611
2026-01-22 21:33:52.59	40.47	5.52	-40.9	-51.3	3.5	7.67e-01	0	41	104	0	58	15848
2026-01-22 21:33:53.57	40.34	5.56	-41.1	-51.6	3.5	7.67e-01	0	41	104	0	58	16387
2026-01-22 21:33:54.55	40.20	5.61	-48.2	-61.2	3.5	7.67e-01	0	41	104	0	60	43999
2026-01-22 21:33:55.53	40.06	5.65	-48.7	-62.3	3.5	7.67e-01	0	41	104	0	60	49936
2026-01-22 21:33:56.51	39.92	5.69	-43.8	-54.6	3.5	7.67e-01	0	41	104	0	56	25924
2026-01-22 21:33:57.49	39.78	5.74	-49.9	-66.1	3.6	7.67e-01	0	41	104	0	60	77287
2026-01-22 21:33:58.47	39.64	5.78	-42.1	-52.7	3.5	7.67e-01	0	41	104	0	60	16544
2026-01-22 21:33:59.45	39.49	5.82	-41.4	-51.9	3.5	7.67e-01	0	41	104	0	58	16938
2026-01-22 21:34:00.43	39.35	5.87	-41.3	-51.8	3.6	7.67e-01	0	41	104	0	58	16842
2026-01-22 21:34:01.41	39.21	5.91	-41.3	-51.8	3.5	7.67e-01	0	41	104	0	56	18760
2026-01-22 21:34:02.39	39.07	5.95	-42.1	-52.7	3.5	7.67e-01	0	41	104	0	60	16684
2026-01-22 21:34:03.37	38.93	6.00	-43.8	-54.7	3.5	7.67e-01	0	41	104	0	58	23419
2026-01-22 21:34:04.35	38.78	6.04	-50.4	-67.5	3.5	7.67e-01	0	41	104	0	60	91193
2026-01-22 21:34:05.33	38.64	6.08	-40.4	-50.8	3.5	7.67e-01	0	41	104	0	58	14963
2026-01-22 21:34:06.31	38.49	6.13	-50.3	-67.9	3.6	7.67e-01	0	41	104	0	60	96101
2026-01-22 21:34:07.29	38.35	6.17	-41.2	-51.7	3.5	7.67e-01	0	41	104	0	58	16519
2026-01-22 21:34:08.27	38.20	6.21	-41.1	-51.5	3.5	7.67e-01	0	41	104	0	58	16283
2026-01-22 21:34:09.25	38.06	6.25	-40.9	-51.3	3.5	7.67e-01	0	41	104	0	56	17812
2026-01-22 21:34:10.23	37.91	6.30	-41.1	-51.6	3.5	7.67e-01	0	41	104	0	56	18342
2026-01-22 21:34:11.21	37.76	6.34	-50.1	-66.6	3.5	7.67e-01	0	41	104	0	60	82676
2026-01-22 21:34:12.19	37.62	6.38	-42.0	-52.5	3.5	7.67e-01	0	41	104	0	58	18260
2026-01-22 21:34:13.17	37.47	6.42	-50.2	-67.2	3.5	7.67e-01	0	41	104	0	60	87920
2026-01-22 21:34:14.16	37.32	6.47	-42.9	-53.6	3.6	7.67e-01	0	41	104	0	60	18343
2026-01-22 21:34:15.14	37.17	6.51	-50.4	-67.9	3.5	7.67e-01	0	41	104	0	60	95556
2026-01-22 21:34:16.12	37.02	6.55	-41.5	-52.0	3.5	7.67e-01	0	41	104	0	58	17184
2026-01-22 21:34:17.10	36.87	6.59	-40.7	-51.1	3.5	7.67e-01	0	41	104	0	56	17442
2026-01-22 21:34:18.07	36.72	6.63	-39.8	-50.2	3.5	7.67e-01	0	41	104	0	54	17615
2026-01-22 21:34:19.05	36.57	6.67	-40.0	-50.4	3.5	7.67e-01	0	41	104	0	54	17979
2026-01-22 21:34:20.03	36.42	6.72	-48.0	-60.7	3.5	7.67e-01	0	41	104	0	60	41619
2026-01-22 21:34:21.02	36.27	6.76	-41.7	-52.1	3.3	7.67e-01	0	41	104	0	60	15574
2026-01-22 21:34:22.00	36.12	6.80	-50.2	-67.2	3.5	7.67e-01	0	41	104	0	60	87763
2026-01-22 21:34:22.98	35.96	6.84	-43.6	-54.4	3.5	7.67e-01	0	41	104	0	60	20123
2026-01-22 21:34:23.95	35.81	6.88	-50.4	-67.9	3.5	7.67e-01	0	41	104	0	60	95605
2026-01-22 21:34:24.94	35.66	6.92	-40.1	-50.4	3.6	7.67e-01	0	41	104	0	56	16111
2026-01-22 21:34:25.91	35.50	6.96	-39.7	-50.1	3.6	7.67e-01	0	41	104	0	54	17320
2026-01-22 21:34:26.89	35.35	7.00	-39.6	-49.9	3.5	7.67e-01	0	41	104	0	54	17008
2026-01-22 21:34:27.87	35.19	7.04	-39.3	-49.6	3.5	7.67e-01	0	41	104	0	54	16439
2026-01-22 21:34:28.84	35.04	7.08	-48.5	-61.7	3.5	7.67e-01	0	41	104	0	60	46913
2026-01-22 21:34:29.82	34.88	7.12	-42.5	-53.1	3.5	7.67e-01	0	41	104	0	60	17335
2026-01-22 21:34:30.80	34.73	7.17	-50.3	-67.1	3.5	7.67e-01	0	41	104	0	60	87208
2026-01-22 21:34:31.78	34.57	7.21	-44.1	-55.0	3.5	7.67e-01	0	41	104	0	60	21635
2026-01-22 21:34:32.77	34.41	7.25	-50.5	-68.2	3.5	7.67e-01	0	41	104	0	60	98647
2026-01-22 21:34:33.75	34.25	7.29	-44.0	-55.0	3.6	7.67e-01	0	41	104	0	60	21595
2026-01-22 21:34:34.74	34.09	7.33	-40.8	-51.2	3.5	7.67e-01	0	41	104	0	56	17617
2026-01-22 21:34:35.72	33.94	7.37	-40.1	-50.6	3.5	7.67e-01	0	41	104	0	56	16368
2026-01-22 21:34:36.70	33.78	7.41	-39.7	-50.0	3.6	7.67e-01	0	41	104	0	54	17284
2026-01-22 21:34:37.68	33.62	7.45	-43.7	-54.5	3.5	7.67e-01	0	41	104	0	58	22907
2026-01-22 21:34:38.66	33.46	7.48	-39.5	-49.8	3.5	7.67e-01	0	41	104	0	54	16847
2026-01-22 21:34:39.64	33.30	7.52	-50.6	-67.9	3.5	7.67e-01	0	41	104	0	60	95060
2026-01-22 21:34:40.62	33.13	7.56	-44.4	-55.4	3.5	7.67e-01	0	41	104	0	60	22574
2026-01-22 21:34:41.61	32.97	7.60	-47.8	-60.3	3.5	7.67e-01	0	41	104	0	60	39684
2026-01-22 21:34:42.59	32.81	7.64	-44.6	-55.7	3.6	7.67e-01	0	41	104	0	60	23440
2026-01-22 21:34:43.56	32.65	7.68	-39.4	-49.8	3.5	7.67e-01	0	41	104	0	54	16752
2026-01-22 21:34:44.54	32.48	7.72	-39.4	-49.7	3.6	7.67e-01	0	41	104	0	54	16575
2026-01-22 21:34:45.52	32.32	7.76	-39.4	-49.7	3.5	7.67e-01	0	41	104	0	54	16609
2026-01-22 21:34:46.50	32.16	7.79	-41.5	-51.9	3.5	7.67e-01	0	41	104	0	54	21485
2026-01-22 21:34:47.48	31.99	7.83	-41.8	-52.3	3.5	7.67e-01	0	41	104	0	60	15839
2026-01-22 21:34:48.46	31.83	7.87	-46.9	-58.8	3.5	7.67e-01	0	41	104	0	60	33621
2026-01-22 21:34:49.44	31.66	7.91	-50.4	-67.1	3.6	7.67e-01	0	41	104	0	60	86976
2026-01-22 21:34:50.42	31.50	7.95	-39.3	-49.6	3.5	7.67e-01	0	41	104	0	54	16379
2026-01-22 21:34:51.40	31.33	7.98	-50.2	-66.7	3.5	7.67e-01	0	41	104	0	60	83489
2026-01-22 21:34:52.38	31.16	8.02	-40.7	-51.2	3.5	7.67e-01	0	41	104	0	56	17553
2026-01-22 21:34:53.37	30.99	8.06	-40.8	-51.3	3.5	7.67e-01	0	41	104	0	56	17742
2026-01-22 21:34:54.35	30.83	8.10	-41.5	-52.0	3.5	7.67e-01	0	41	104	0	56	19359
2026-01-22 21:34:55.33	30.66	8.13	-39.6	-49.9	3.5	7.67e-01	0	41	104	0	56	15174
2026-01-22 21:34:56.31	30.49	8.17	-41.2	-51.6	3.5	7.67e-01	0	41	104	0	60	14650
2026-01-22 21:34:57.30	30.32	8.21	-42.7	-53.3	3.6	7.67e-01	0	41	104	0	56	22421
2026-01-22 21:34:58.30	30.14	8.24	-50.6	-68.3	3.5	7.67e-01	0	41	104	0	60	100555
2026-01-22 21:34:59.29	29.97	8.28	-40.6	-51.0	3.5	7.67e-01	0	41	104	0	60	13634
2026-01-22 21:35:00.28	29.80	8.32	-50.6	-68.3	3.5	7.67e-01	0	41	104	0	60	99649
2026-01-22 21:35:01.28	29.63	8.35	-39.2	-49.5	3.5	7.67e-01	0	41	104	0	54	16147
2026-01-22 21:35:02.27	29.45	8.39	-39.3	-49.5	3.6	7.67e-01	0	41	104	0	54	16312
2026-01-22 21:35:03.26	29.28	8.42	-39.2	-49.6	3.5	7.67e-01	0	41	104	0	54	16345
2026-01-22 21:35:04.25	29.10	8.46	-39.7	-50.0	3.5	7.67e-01	0	41	104	0	54	17267
2026-01-22 21:35:05.24	28.93	8.50	-50.1	-65.7	3.5	7.67e-01	0	41	104	0	60	74544
2026-01-22 21:35:06.23	28.75	8.53	-41.5	-51.9	3.5	7.67e-01	0	41	104	0	56	19135
2026-01-22 21:35:07.22	28.58	8.57	-50.5	-67.4	3.5	7.67e-01	0	41	104	0	60	90325
2026-01-22 21:35:08.21	28.40	8.60	-41.4	-51.9	3.6	7.67e-01	0	41	104	0	60	15138
2026-01-22 21:35:09.19	28.23	8.64	-50.5	-68.2	3.5	7.67e-01	0	41	104	0	60	98638
2026-01-22 21:35:10.18	28.05	8.67	-40.9	-51.3	3.5	7.67e-01	0	41	104	0	56	17824
2026-01-22 21:35:11.16	27.87	8.70	-41.0	-51.4	3.5	7.67e-01	0	41	104	0	56	17945
2026-01-22 21:35:12.15	27.70	8.74	-39.8	-50.1	3.5	7.67e-01	0	41	104	0	54	17323
2026-01-22 21:35:13.15	27.52	8.77	-39.1	-49.4	3.5	7.67e-01	0	41	104	0	54	16032
2026-01-22 21:35:14.15	27.34	8.81	-44.7	-55.8	3.5	7.67e-01	0	41	104	0	60	23703
2026-01-22 21:35:15.15	27.15	8.84	-41.6	-52.0	3.5	7.67e-01	0	41	104	0	56	19329
2026-01-22 21:35:16.15	26.97	8.87	-50.5	-67.3	3.5	7.67e-01	0	42	104	0	60	89395
2026-01-22 21:35:17.14	26.79	8.91	-42.2	-52.7	3.5	7.67e-01	0	41	104	0	60	16512
2026-01-22 21:35:18.15	26.61	8.94	-50.5	-68.1	3.5	7.67e-01	0	41	104	0	60	97917
2026-01-22 21:35:19.15	26.42	8.97	-40.8	-51.2	3.6	7.67e-01	0	41	104	0	56	17623
2026-01-22 21:35:20.16	26.24	9.01	-39.6	-49.9	3.5	7.67e-01	0	41	104	0	54	17053
2026-01-22 21:35:21.17	26.05	9.04	-39.2	-49.6	3.5	7.67e-01	0	42	104	0	54	16347
2026-01-22 21:35:22.16	25.87	9.07	-39.5	-49.8	3.5	7.67e-01	0	41	104	0	54	16728
2026-01-22 21:35:23.16	25.69	9.10	-46.3	-57.7	3.5	7.67e-01	0	41	104	0	60	29629
2026-01-22 21:35:24.16	25.50	9.14	-41.5	-51.9	3.5	7.67e-01	0	41	104	0	56	19152
2026-01-22 21:35:25.15	25.32	9.17	-50.5	-67.4	3.5	7.67e-01	0	41	104	0	60	90627
2026-01-22 21:35:26.15	25.13	9.20	-43.1	-53.7	3.6	7.67e-01	0	41	104	0	60	18696
2026-01-22 21:35:27.14	24.95	9.23	-50.7	-68.2	3.5	7.67e-01	0	42	104	0	60	99007
2026-01-22 21:35:28.14	24.76	9.26	-41.0	-51.4	3.5	7.67e-01	0	41	104	0	58	16130
2026-01-22 21:35:29.13	24.57	9.29	-41.0	-51.4	3.5	7.67e-01	0	41	104	0	56	18006
2026-01-22 21:35:30.12	24.39	9.32	-41.4	-51.9	3.5	7.67e-01	0	41	104	0	56	19009
2026-01-22 21:35:31.11	24.20	9.35	-40.9	-51.3	3.5	7.67e-01	0	41	104	0	56	17872
2026-01-22 21:35:32.10	24.01	9.38	-42.7	-53.2	3.5	7.67e-01	0	41	104	0	60	17688
2026-01-22 21:35:33.09	23.83	9.41	-41.7	-52.3	3.5	7.67e-01	0	41	104	0	56	19857
2026-01-22 21:35:34.07	23.64	9.44	-50.5	-67.4	3.5	7.67e-01	0	41	104	0	60	89787
2026-01-22 21:35:35.06	23.45	9.47	-42.7	-53.3	3.6	7.67e-01	0	41	104	0	60	17711
2026-01-22 21:35:36.04	23.27	9.50	-50.7	-68.3	3.5	7.67e-01	0	41	104	0	60	100145
2026-01-22 21:35:37.03	23.08	9.53	-40.9	-51.4	3.5	7.67e-01	0	41	104	0	56	18013
2026-01-22 21:35:38.02	22.89	9.56	-39.7	-50.0	3.5	7.67e-01	0	41	104	0	54	17160
2026-01-22 21:35:39.02	22.70	9.58	-39.0	-49.2	3.5	7.67e-01	0	41	104	0	54	15749
2026-01-22 21:35:40.01	22.51	9.61	-39.1	-49.4	3.5	7.67e-01	0	41	104	0	52	17983
2026-01-22 21:35:41.00	22.32	9.64	-45.5	-56.7	3.5	7.67e-01	0	41	104	0	60	26359
2026-01-22 21:35:41.99	22.12	9.67	-41.3	-51.8	3.5	7.67e-01	0	41	104	0	56	18819
2026-01-22 21:35:42.98	21.93	9.70	-50.6	-67.3	3.5	7.67e-01	0	41	104	0	60	89410
2026-01-22 21:35:43.97	21.74	9.72	-43.2	-53.9	3.6	7.67e-01	0	41	104	0	60	18972
2026-01-22 21:35:44.95	21.55	9.75	-50.7	-68.3	3.5	7.67e-01	0	41	104	0	60	99884
2026-01-22 21:35:45.94	21.36	9.77	-39.7	-50.0	3.5	7.67e-01	0	41	104	0	54	17142
2026-01-22 21:35:46.93	21.17	9.80	-39.3	-49.6	3.5	7.67e-01	0	41	104	0	54	16372
2026-01-22 21:35:47.92	20.97	9.83	-39.5	-49.8	3.6	7.67e-01	0	41	104	0	54	16763
2026-01-22 21:35:48.91	20.78	9.85	-39.2	-49.4	3.5	7.67e-01	0	41	104	0	54	16068
2026-01-22 21:35:49.90	20.59	9.88	-50.5	-67.2	3.5	7.67e-01	0	41	104	0	60	88657
2026-01-22 21:35:50.88	20.39	9.90	-41.9	-52.4	3.5	7.67e-01	0	41	104	0	60	16080
2026-01-22 21:35:51.87	20.20	9.93	-50.6	-67.4	3.5	7.67e-01	0	41	104	0	60	90022
2026-01-22 21:35:52.85	20.00	9.95	-42.2	-52.7	3.5	7.67e-01	0	41	104	0	60	16676
2026-01-22 21:35:53.83	19.81	9.98	-50.8	-68.6	3.5	7.67e-01	0	41	104	0	60	104160
2026-01-22 21:35:54.82	19.62	10.00	-42.4	-53.1	3.5	7.67e-01	0	41	104	0	60	17294
2026-01-22 21:35:55.81	19.42	10.02	-40.0	-50.4	3.5	7.67e-01	0	41	104	0	56	15996
2026-01-22 21:35:56.79	19.22	10.05	-39.7	-49.9	3.5	7.67e-01	0	41	104	0	54	17014
2026-01-22 21:35:57.78	19.03	10.07	-39.0	-49.2	3.5	7.67e-01	0	41	104	0	54	15725
2026-01-22 21:35:58.77	18.83	10.09	-45.5	-56.8	3.5	7.67e-01	0	41	104	0	60	26540
2026-01-22 21:35:59.75	18.64	10.12	-39.9	-50.3	3.5	7.67e-01	0	41	104	0	54	17736
2026-01-22 21:36:00.75	18.44	10.14	-50.5	-67.6	3.5	7.67e-01	0	41	104	0	60	92354
2026-01-22 21:36:01.74	18.24	10.16	-42.9	-53.5	3.5	7.67e-01	0	41	104	0	60	18299
2026-01-22 21:36:02.73	18.04	10.18	-50.8	-68.3	3.4	7.67e-01	0	41	104	0	60	99512
2026-01-22 21:36:03.72	17.84	10.20	-42.0	-52.6	3.7	7.67e-01	0	41	104	0	60	16344
2026-01-22 21:36:04.71	17.64	10.22	-39.1	-49.4	3.6	7.67e-01	0	41	104	0	54	16060
2026-01-22 21:36:05.70	17.44	10.24	-38.9	-49.2	3.5	7.67e-01	0	41	104	0	52	17602
2026-01-22 21:36:06.68	17.24	10.27	-38.7	-48.9	3.5	7.67e-01	0	41	104	0	52	17075
2026-01-22 21:36:07.67	17.04	10.29	-46.1	-57.6	3.6	7.67e-01	0	41	104	0	60	29068
2026-01-22 21:36:08.66	16.84	10.31	-40.3	-50.6	3.5	7.67e-01	0	41	104	0	56	16502
2026-01-22 21:36:09.65	16.64	10.33	-50.7	-67.6	3.5	7.67e-01	0	42	104	0	60	91946
2026-01-22 21:36:10.63	16.44	10.34	-43.7	-54.5	3.4	7.67e-01	0	41	104	0	60	20419
2026-01-22 21:36:11.61	16.24	10.36	-46.8	-58.5	3.4	7.67e-01	0	42	104	0	58	36421
2026-01-22 21:36:12.60	16.04	10.38	-43.5	-54.2	3.6	7.67e-01	0	42	104	0	60	19756
2026-01-22 21:36:13.58	15.84	10.40	-38.5	-40.1	24.1	7.67e-01	61	41	104	0	52	6154
2026-01-22 21:36:14.56	15.64	10.42	-38.8	-40.1	27.8	7.67e-01	46	41	0	524288	52	6191
2026-01-22 21:36:15.55	15.44	10.44	-38.7	-40.0	27.9	7.67e-01	61	41	0	2621440	52	6093
2026-01-22 21:36:16.55	15.24	10.45	-38.5	-39.9	27.9	7.67e-01	60	41	0	4194304	52	6005
2026-01-22 21:36:17.55	15.03	10.47	-38.7	-40.0	27.9	7.67e-01	62	41	0	6291456	52	6088
2026-01-22 21:36:18.54	14.83	10.49	-38.6	-39.9	27.9	7.67e-01	58	41	0	7864320	52	6027
2026-01-22 21:36:19.52	14.63	10.50	-38.6	-39.9	28.0	7.67e-01	45	41	0	9961472	52	6017
2026-01-22 21:36:20.51	14.42	10.52	-38.6	-39.9	27.9	7.67e-01	61	41	0	11534336	52	6015
2026-01-22 21:36:21.50	14.22	10.54	-38.4	-39.6	28.1	7.67e-01	59	41	0	13631488	52	5857
2026-01-22 21:36:22.49	14.02	10.55	-38.4	-39.7	28.1	7.67e-01	47	41	0	15204352	52	5865
2026-01-22 21:36:23.48	13.81	10.57	-38.4	-39.7	28.0	7.67e-01	60	41	0	17301504	52	5901
2026-01-22 21:36:24.48	13.60	10.58	-38.4	-39.7	28.0	7.67e-01	59	41	0	19398656	52	5878
2026-01-22 21:36:25.47	13.40	10.60	-38.4	-39.7	28.0	7.67e-01	54	41	0	20971520	52	5874
2026-01-22 21:36:26.46	13.20	10.61	-38.4	-39.7	28.1	7.67e-01	58	41	0	23068672	52	5878
2026-01-22 21:36:27.46	12.99	10.63	-38.3	-39.6	28.2	7.67e-01	46	41	0	24641536	52	5817
2026-01-22 21:36:28.46	12.78	10.64	-38.4	-39.7	28.0	7.67e-01	58	41	0	26738688	52	5907
2026-01-22 21:36:29.44	12.58	10.65	-38.6	-39.9	27.9	7.67e-01	62	41	0	28311552	52	6031
2026-01-22 21:36:30.44	12.37	10.67	-38.5	-39.8	28.1	7.67e-01	55	41	0	30408704	52	5968
2026-01-22 21:36:31.43	12.16	10.68	-38.3	-39.6	28.1	7.67e-01	58	42	0	31981568	52	5832
2026-01-22 21:36:32.42	11.96	10.69	-38.4	-39.7	28.1	7.67e-01	60	41	0	34078720	52	5875
2026-01-22 21:36:33.41	11.75	10.70	-38.3	-39.5	28.2	7.67e-01	47	41	0	36175872	52	5774
2026-01-22 21:36:34.39	11.55	10.72	-38.3	-39.6	28.2	7.67e-01	62	41	0	37748736	52	5799
2026-01-22 21:36:35.38	11.34	10.73	-38.4	-39.7	28.1	7.67e-01	59	41	0	39845888	52	5863
2026-01-22 21:36:36.38	11.13	10.74	-38.3	-39.6	28.2	7.67e-01	61	41	0	41418752	52	5823
2026-01-22 21:36:37.38	10.92	10.75	-38.2	-39.4	28.3	7.67e-01	63	41	0	43515904	52	5713
2026-01-22 21:36:38.39	10.71	10.76	-38.2	-39.4	28.3	7.67e-01	45	41	0	45088768	52	5721
2026-01-22 21:36:39.40	10.50	10.77	-38.1	-39.4	28.3	7.67e-01	57	41	0	47185920	52	5682
2026-01-22 21:36:40.40	10.29	10.78	-38.2	-39.5	28.3	7.67e-01	60	41	0	49283072	52	5754
2026-01-22 21:36:41.40	10.08	10.79	-38.3	-39.6	28.2	7.67e-01	55	41	0	50855936	52	5816
2026-01-22 21:36:42.40	9.87	10.80	-38.3	-39.6	28.2	7.67e-01	60	41	0	52953088	52	5807
2026-01-22 21:36:43.39	9.66	10.81	-38.3	-39.6	28.1	7.67e-01	55	41	0	54525952	52	5834
2026-01-22 21:36:44.39	9.45	10.81	-38.2	-39.5	28.2	7.67e-01	60	41	0	56623104	52	5759
2026-01-22 21:36:45.39	9.24	10.82	-38.2	-39.5	28.3	7.67e-01	59	41	0	58195968	52	5743
2026-01-22 21:36:46.38	9.03	10.83	-38.1	-39.3	28.4	7.67e-01	48	41	0	60293120	52	5656
2026-01-22 21:36:47.38	8.82	10.84	-38.1	-39.4	28.3	7.67e-01	61	41	0	62390272	52	5693
2026-01-22 21:36:48.38	8.61	10.84	-38.2	-39.5	28.3	7.67e-01	62	41	0	63963136	52	5757
2026-01-22 21:36:49.38	8.40	10.85	-38.2	-39.5	28.3	7.67e-01	45	41	0	66060288	52	5752
2026-01-22 21:36:50.37	8.19	10.86	-38.4	-39.7	28.0	7.67e-01	59	41	0	67633152	52	5871
2026-01-22 21:36:51.37	7.98	10.86	-38.3	-39.6	28.1	7.67e-01	62	41	0	69730304	52	5834
2026-01-22 21:36:52.36	7.77	10.87	-38.2	-39.5	28.2	7.67e-01	60	41	0	71303168	52	5763
2026-01-22 21:36:53.36	7.56	10.87	-38.2	-39.4	28.3	7.67e-01	60	41	0	73400320	52	5714
2026-01-22 21:36:54.37	7.35	10.88	-38.3	-39.6	28.2	7.67e-01	48	41	0	75497472	52	5801
2026-01-22 21:36:55.38	7.13	10.88	-38.2	-39.4	28.4	7.67e-01	60	41	0	77070336	52	5711
2026-01-22 21:36:56.40	6.92	10.89	-38.2	-39.5	28.3	7.67e-01	58	41	0	79167488	52	5728
2026-01-22 21:36:57.40	6.70	10.89	-38.3	-39.5	28.2	7.67e-01	46	41	0	80740352	52	5785
2026-01-22 21:36:58.41	6.49	10.90	-38.5	-39.8	28.0	7.67e-01	59	41	0	82837504	52	5930
2026-01-22 21:36:59.42	6.28	10.90	-38.4	-39.6	28.1	7.67e-01	60	41	0	84934656	52	5851
2026-01-22 21:37:00.43	6.06	10.90	-38.3	-39.5	28.2	7.67e-01	59	41	0	86507520	52	5762
2026-01-22 21:37:01.44	5.85	10.90	-38.2	-39.5	28.3	7.67e-01	58	41	0	88604672	52	5744
2026-01-22 21:37:02.45	5.64	10.91	-38.3	-39.5	28.2	7.67e-01	53	41	0	90701824	52	5772
2026-01-22 21:37:03.46	5.42	10.91	-38.3	-39.5	28.3	7.67e-01	59	41	0	92274688	52	5773
2026-01-22 21:37:04.47	5.21	10.91	-38.4	-39.7	28.1	7.67e-01	61	41	0	94371840	52	5865
2026-01-22 21:37:05.47	5.00	10.91	-38.4	-39.7	28.1	7.67e-01	60	42	0	95944704	52	5908
2026-01-22 21:37:06.48	4.78	10.91	-38.3	-39.6	28.2	7.67e-01	59	41	0	98041856	52	5813
2026-01-22 21:37:07.49	4.57	10.91	-38.2	-39.5	28.3	7.67e-01	47	41	0	100139008	52	5750
2026-01-22 21:37:08.50	4.35	10.91	-38.2	-39.5	28.3	7.67e-01	59	41	0	101711872	52	5738
2026-01-22 21:37:09.51	4.14	10.91	-38.1	-39.4	28.3	7.67e-01	60	41	0	103809024	52	5689
2026-01-22 21:37:10.52	3.93	10.91	-38.1	-39.4	28.4	7.67e-01	47	41	0	105381888	52	5682
2026-01-22 21:37:11.53	3.71	10.91	-38.3	-39.6	28.2	7.67e-01	62	41	0	107479040	52	5815
2026-01-22 21:37:12.54	3.50	10.91	-38.4	-39.7	28.1	7.67e-01	60	42	0	109576192	52	5877
2026-01-22 21:37:13.55	3.28	10.90	-38.5	-39.7	28.0	7.67e-01	58	41	0	111149056	52	5917
2026-01-22 21:37:14.56	3.07	10.90	-38.6	-39.9	27.9	7.67e-01	58	41	0	113246208	52	6039
2026-01-22 21:37:15.57	2.86	10.90	-38.4	-39.7	28.1	7.67e-01	59	41	0	114819072	52	5872
2026-01-22 21:37:16.58	2.64	10.90	-38.6	-39.9	27.9	7.67e-01	62	41	0	116916224	52	6019
2026-01-22 21:37:17.59	2.43	10.89	-38.5	-39.8	28.1	7.67e-01	57	41	0	119013376	52	5959
2026-01-22 21:37:18.60	2.22	10.89	-38.3	-39.6	28.1	7.67e-01	44	41	0	120586240	52	5834
2026-01-22 21:37:19.61	2.00	10.88	-38.4	-39.7	28.2	7.67e-01	57	41	0	122683392	52	5862
2026-01-22 21:37:20.62	1.79	10.88	-38.6	-39.8	27.9	7.67e-01	61	41	0	124256256	52	5985
2026-01-22 21:37:21.63	1.58	10.88	-38.7	-40.0	27.9	7.67e-01	58	41	0	126353408	52	6125
2026-01-22 21:37:22.64	1.36	10.87	-38.5	-39.8	28.0	7.67e-01	58	41	0	128450560	52	5945
2026-01-22 21:37:23.65	1.15	10.86	-38.5	-39.8	28.1	7.67e-01	55	41	0	130023424	52	5939
2026-01-22 21:37:24.66	0.94	10.86	-38.4	-39.7	28.0	7.67e-01	62	41	0	132120576	52	5877
2026-01-22 21:37:25.67	0.72	10.85	-38.3	-39.6	28.2	7.67e-01	57	41	0	133693440	52	5805
2026-01-22 21:37:26.67	0.51	10.85	-38.3	-39.6	28.2	7.67e-01	49	41	0	135790592	52	5807
2026-01-22 21:37:27.68	0.30	10.84	-38.3	-39.6	28.2	7.67e-01	56	41	0	137887744	52	5820
2026-01-22 21:37:28.70	0.08	10.83	-38.4	-39.7	28.1	7.67e-01	57	41	0	139460608	52	5878
2026-01-22 21:37:29.71	359.87	10.82	-38.4	-39.7	28.1	7.67e-01	60	41	0	141557760	52	5907
2026-01-22 21:37:30.72	359.66	10.82	-38.4	-39.7	28.1	7.67e-01	59	42	0	143654912	52	5861
2026-01-22 21:37:31.73	359.45	10.81	-38.3	-39.6	28.2	7.67e-01	57	42	0	145227776	52	5812
2026-01-22 21:37:32.74	359.23	10.80	-38.4	-39.7	28.1	7.67e-01	61	41	0	147324928	52	5869
2026-01-22 21:37:33.75	359.02	10.79	-38.3	-39.6	28.2	7.67e-01	60	41	0	148897792	52	5827
2026-01-22 21:37:34.76	358.81	10.78	-38.5	-39.8	28.1	7.67e-01	46	41	0	150994944	52	5929
2026-01-22 21:37:35.76	358.60	10.77	-38.5	-39.8	28.0	7.67e-01	59	42	0	153092096	52	5958
2026-01-22 21:37:36.77	358.39	10.76	-38.8	-40.1	27.8	7.67e-01	59	41	0	154664960	52	6164
2026-01-22 21:37:37.78	358.18	10.75	-38.6	-39.9	27.9	7.67e-01	59	41	0	156762112	52	6036
2026-01-22 21:37:38.79	357.97	10.74	-38.9	-40.2	28.0	7.67e-01	61	41	0	158859264	52	6232
2026-01-22 21:37:39.80	357.76	10.73	-38.6	-39.8	27.8	7.67e-01	45	41	0	160432128	52	5987
2026-01-22 21:37:40.81	357.54	10.71	-39.1	-40.4	27.5	7.67e-01	61	41	0	162529280	52	6395
2026-01-22 21:37:41.82	357.33	10.70	-39.1	-40.4	27.5	7.67e-01	62	41	0	164102144	52	6418
2026-01-22 21:37:42.83	357.12	10.69	-39.0	-40.3	27.3	7.67e-01	62	41	0	166199296	52	6325
2026-01-22 21:37:43.84	356.91	10.68	-39.1	-40.4	27.6	7.67e-01	59	41	0	167772160	52	6367
2026-01-22 21:37:44.85	356.70	10.67	-38.8	-40.1	27.6	7.67e-01	44	42	0	169869312	52	6166
2026-01-22 21:37:45.86	356.49	10.65	-38.8	-40.1	27.8	7.67e-01	59	41	0	171966464	52	6187
2026-01-22 21:37:46.87	356.28	10.64	-38.8	-40.1	27.5	7.67e-01	59	41	0	173539328	52	6176
2026-01-22 21:37:47.88	356.07	10.62	-39.2	-40.5	27.3	7.67e-01	46	41	0	175636480	52	6462
2026-01-22 21:37:48.89	355.86	10.61	-38.9	-40.2	27.6	7.67e-01	57	41	0	177209344	52	6244
2026-01-22 21:37:49.89	355.66	10.60	-39.0	-40.3	27.6	7.67e-01	55	42	0	179306496	52	6350
2026-01-22 21:37:50.90	355.45	10.58	-39.0	-40.3	27.5	7.67e-01	57	42	0	181403648	52	6317
2026-01-22 21:37:51.91	355.24	10.56	-39.1	-40.4	27.4	7.67e-01	54	41	0	182976512	52	6409
2026-01-22 21:37:52.92	355.03	10.55	-39.2	-40.5	27.3	7.67e-01	54	42	0	185073664	52	6467
2026-01-22 21:37:53.93	354.82	10.53	-38.7	-40.0	27.7	7.67e-01	59	42	0	187170816	52	6111
2026-01-22 21:37:54.94	354.62	10.52	-38.4	-39.6	28.2	7.67e-01	59	42	0	188743680	52	5858
2026-01-22 21:37:55.95	354.41	10.50	-38.4	-39.6	28.0	7.67e-01	45	41	0	190840832	52	5856
2026-01-22 21:37:56.96	354.20	10.48	-38.3	-39.6	28.2	7.67e-01	60	41	0	192413696	52	5837
2026-01-22 21:37:57.97	353.99	10.47	-38.4	-39.7	28.0	7.67e-01	61	42	0	194510848	52	5904
2026-01-22 21:37:58.98	353.79	10.45	-38.6	-39.9	27.9	7.67e-01	61	42	0	196608000	52	6004
2026-01-22 21:37:59.99	353.58	10.43	-38.6	-39.9	27.8	7.67e-01	59	41	0	198180864	52	6052
2026-01-22 21:38:01.00	353.37	10.41	-38.6	-39.9	27.9	7.67e-01	56	41	0	200278016	52	6031
2026-01-22 21:38:02.01	353.17	10.39	-38.6	-39.8	27.9	7.67e-01	63	41	0	201850880	52	5985
2026-01-22 21:38:03.02	352.96	10.37	-38.4	-39.7	28.1	7.67e-01	59	41	0	203948032	52	5892
2026-01-22 21:38:04.04	352.76	10.35	-38.7	-40.0	27.9	7.67e-01	48	41	0	206045184	52	6065
2026-01-22 21:38:05.05	352.55	10.34	-38.5	-39.8	27.9	7.67e-01	58	41	0	207618048	52	5964
2026-01-22 21:38:06.06	352.35	10.32	-38.7	-40.0	27.8	7.67e-01	58	41	0	209715200	52	6131
2026-01-22 21:38:07.07	352.14	10.29	-38.8	-40.1	27.7	7.67e-01	59	41	0	211812352	52	6180
2026-01-22 21:38:08.08	351.94	10.27	-38.6	-39.8	27.9	7.67e-01	53	41	0	213385216	52	5991
2026-01-22 21:38:09.09	351.73	10.25	-38.6	-39.9	27.8	7.67e-01	50	41	0	215482368	52	6037
2026-01-22 21:38:10.10	351.53	10.23	-38.6	-39.8	28.0	7.67e-01	59	42	0	217055232	52	5991
2026-01-22 21:38:11.11	351.33	10.21	-38.6	-39.9	27.9	7.67e-01	52	42	0	219152384	52	6008
2026-01-22 21:38:12.11	351.13	10.19	-38.6	-39.9	27.9	7.67e-01	48	42	0	221249536	52	6019
2026-01-22 21:38:13.13	350.92	10.17	-38.7	-40.0	27.7	7.67e-01	59	42	0	222822400	52	6130
2026-01-22 21:38:14.14	350.72	10.14	-38.6	-39.9	27.8	7.67e-01	60	42	0	224919552	52	6057
2026-01-22 21:38:15.14	350.52	10.12	-38.7	-40.0	27.7	7.67e-01	61	41	0	227016704	52	6107
2026-01-22 21:38:16.15	350.32	10.10	-38.7	-40.0	27.8	7.67e-01	60	42	0	228589568	52	6083
2026-01-22 21:38:17.16	350.12	10.08	-38.7	-40.0	27.8	7.67e-01	54	41	0	230686720	52	6093
2026-01-22 21:38:18.17	349.92	10.05	-38.7	-40.0	27.8	7.67e-01	57	42	0	232259584	52	6088
2026-01-22 21:38:19.18	349.72	10.03	-38.7	-40.0	27.7	7.67e-01	59	42	0	234356736	52	6087
2026-01-22 21:38:20.19	349.52	10.00	-38.7	-40.0	27.8	7.67e-01	61	42	0	236453888	52	6088
2026-01-22 21:38:21.20	349.32	9.98	-38.7	-40.0	27.8	7.67e-01	59	41	0	238026752	52	6070
2026-01-22 21:38:22.21	349.12	9.96	-38.7	-40.0	27.9	7.67e-01	45	41	0	240123904	52	6065
2026-01-22 21:38:23.22	348.92	9.93	-38.8	-40.1	27.7	7.67e-01	58	41	0	241696768	52	6163
2026-01-22 21:38:24.23	348.72	9.91	-38.9	-40.2	27.6	7.67e-01	58	42	0	243793920	52	6275
2026-01-22 21:38:25.24	348.52	9.88	-38.8	-40.1	27.6	7.67e-01	45	41	0	245891072	52	6202
2026-01-22 21:38:26.26	348.32	9.85	-38.8	-40.1	27.7	7.67e-01	60	41	0	247463936	52	6202
2026-01-22 21:38:27.27	348.12	9.83	-38.9	-40.2	27.6	7.67e-01	60	41	0	249561088	52	6258
2026-01-22 21:38:28.27	347.93	9.80	-38.7	-40.0	27.8	7.67e-01	59	41	0	251133952	52	6121
2026-01-22 21:38:29.28	347.73	9.77	-38.9	-40.2	27.6	7.67e-01	58	42	0	253231104	52	6227
2026-01-22 21:38:30.29	347.53	9.75	-38.8	-40.1	27.7	7.67e-01	46	41	0	255328256	52	6144
2026-01-22 21:38:31.30	347.34	9.72	-38.6	-39.9	27.9	7.67e-01	57	42	0	256901120	52	6038
2026-01-22 21:38:32.31	347.14	9.69	-38.9	-40.2	27.6	7.67e-01	59	41	0	258998272	52	6256
2026-01-22 21:38:33.32	346.95	9.67	-39.0	-40.3	27.6	7.67e-01	46	41	0	260571136	52	6340
2026-01-22 21:38:34.34	346.75	9.64	-39.1	-40.4	27.3	7.67e-01	57	41	0	262668288	52	6421
2026-01-22 21:38:35.35	346.56	9.61	-38.9	-40.2	27.5	7.67e-01	60	42	0	264765440	52	6277
2026-01-22 21:38:36.36	346.36	9.58	-39.3	-40.6	27.3	7.67e-01	57	41	0	266338304	52	6549
2026-01-22 21:38:37.36	346.17	9.55	-39.3	-40.6	27.2	7.67e-01	60	41	0	268435456	52	6547
2026-01-22 21:38:38.38	345.98	9.52	-39.4	-40.8	27.0	7.67e-01	48	41	0	270008320	52	6675
2026-01-22 21:38:39.38	345.79	9.49	-38.9	-40.2	27.5	7.67e-01	59	42	0	272105472	52	6261
2026-01-22 21:38:40.39	345.59	9.46	-39.1	-40.4	27.3	7.67e-01	61	41	0	274202624	52	6372
2026-01-22 21:38:41.40	345.40	9.43	-39.0	-40.3	27.5	7.67e-01	53	41	0	275775488	52	6310
2026-01-22 21:38:42.40	345.21	9.40	-38.9	-40.2	27.5	7.67e-01	58	41	0	277872640	52	6260
2026-01-22 21:38:43.41	345.02	9.37	-39.0	-40.3	27.4	7.67e-01	60	41	0	279969792	52	6341
2026-01-22 21:38:44.42	344.83	9.34	-39.0	-40.4	27.5	7.67e-01	60	41	0	281542656	52	6355
2026-01-22 21:38:45.43	344.64	9.31	-39.0	-40.3	27.5	7.67e-01	61	41	0	283639808	52	6326
2026-01-22 21:38:46.44	344.45	9.28	-39.0	-40.3	27.5	7.67e-01	53	41	0	285212672	52	6291
2026-01-22 21:38:47.45	344.26	9.25	-39.2	-40.5	27.4	7.67e-01	59	41	0	287309824	52	6488
2026-01-22 21:38:48.46	344.07	9.22	-39.1	-40.4	27.5	7.67e-01	60	41	0	289406976	52	6385
2026-01-22 21:38:49.47	343.89	9.19	-39.3	-40.7	27.2	7.67e-01	53	41	0	290979840	52	6581
2026-01-22 21:38:50.48	343.70	9.16	-39.1	-40.4	27.4	7.67e-01	62	41	0	293076992	52	6400
2026-01-22 21:38:51.49	343.51	9.12	-39.3	-40.6	27.2	7.67e-01	46	41	0	294649856	52	6566
2026-01-22 21:38:52.50	343.32	9.09	-38.9	-40.2	27.5	7.67e-01	60	41	0	296747008	52	6263
2026-01-22 21:38:53.51	343.14	9.06	-39.6	-41.0	26.8	7.67e-01	58	41	0	298844160	52	6828
2026-01-22 21:38:54.52	342.95	9.02	-39.3	-40.6	27.0	7.67e-01	48	41	0	300417024	52	6565
2026-01-22 21:38:55.53	342.77	8.99	-40.5	-42.0	26.1	7.67e-01	58	41	0	302514176	54	6817
2026-01-22 21:38:56.53	342.58	8.96	-39.4	-40.8	27.0	7.67e-01	56	41	0	304087040	54	5931
2026-01-22 21:38:57.54	342.40	8.93	-40.4	-41.8	26.1	7.67e-01	61	41	0	306184192	54	6723
2026-01-22 21:38:58.55	342.22	8.89	-40.3	-41.7	26.1	7.67e-01	61	41	0	308281344	54	6626
2026-01-22 21:38:59.56	342.03	8.86	-41.2	-42.7	25.1	7.67e-01	56	41	0	309854208	56	6619
2026-01-22 21:39:00.57	341.85	8.82	-40.1	-41.5	26.5	7.67e-01	57	41	0	311951360	56	5739
2026-01-22 21:39:01.58	341.67	8.79	-41.6	-43.2	24.6	7.67e-01	56	41	0	313524224	56	7038
2026-01-22 21:39:02.59	341.48	8.75	-39.3	-40.6	27.1	7.67e-01	48	41	0	315621376	54	5843
2026-01-22 21:39:03.60	341.30	8.72	-40.3	-41.8	26.1	7.67e-01	57	41	0	317718528	54	6652
2026-01-22 21:39:04.61	341.12	8.68	-38.8	-40.1	27.7	7.67e-01	58	41	0	319291392	52	6139
2026-01-22 21:39:05.62	340.94	8.65	-40.3	-41.8	26.0	7.67e-01	57	41	0	321388544	54	6668
2026-01-22 21:39:06.63	340.76	8.61	-39.0	-40.2	27.4	7.67e-01	60	41	0	323485696	52	6275
2026-01-22 21:39:07.63	340.58	8.58	-40.5	-42.1	25.7	7.67e-01	54	41	0	325058560	54	6893
2026-01-22 21:39:08.64	340.40	8.54	-38.6	-39.9	27.8	7.67e-01	59	41	0	327155712	52	6030
2026-01-22 21:39:09.65	340.22	8.51	-39.9	-41.3	26.6	7.67e-01	60	41	0	328728576	52	7084
2026-01-22 21:39:10.67	340.04	8.47	-39.0	-40.3	27.4	7.67e-01	53	41	0	330825728	52	6346
2026-01-22 21:39:11.67	339.87	8.43	-39.6	-41.0	26.8	7.67e-01	58	41	0	332922880	52	6805
2026-01-22 21:39:12.68	339.69	8.40	-39.4	-40.7	27.0	7.67e-01	58	41	0	334495744	52	6615
2026-01-22 21:39:13.70	339.51	8.36	-39.5	-40.9	26.8	7.67e-01	61	41	0	336592896	52	6731
2026-01-22 21:39:14.71	339.34	8.32	-39.4	-40.8	26.8	7.67e-01	59	41	0	338165760	54	5942
2026-01-22 21:39:15.71	339.16	8.29	-40.1	-41.5	26.2	7.67e-01	57	41	0	340262912	54	6442
2026-01-22 21:39:16.72	338.99	8.25	-39.7	-41.1	26.6	7.67e-01	61	41	0	342360064	54	6159
2026-01-22 21:39:17.73	338.81	8.21	-40.2	-41.6	26.2	7.67e-01	60	41	0	343932928	54	6538
2026-01-22 21:39:18.74	338.64	8.18	-39.5	-40.8	26.9	7.67e-01	44	41	0	346030080	54	5990
2026-01-22 21:39:19.75	338.46	8.14	-39.3	-40.7	27.1	7.67e-01	61	41	0	348127232	54	5875
2026-01-22 21:39:20.76	338.29	8.10	-39.5	-40.9	26.7	7.67e-01	51	41	0	349700096	54	6027
2026-01-22 21:39:21.77	338.12	8.06	-39.2	-40.5	27.1	7.67e-01	58	41	0	351797248	54	5773
2026-01-22 21:39:22.78	337.94	8.02	-40.2	-41.7	26.0	7.67e-01	59	41	0	353370112	54	6588
2026-01-22 21:39:23.79	337.77	7.98	-40.1	-41.4	26.1	7.67e-01	59	41	0	355467264	54	6416
2026-01-22 21:39:24.80	337.60	7.95	-40.9	-42.5	25.6	7.67e-01	57	41	0	357564416	56	6446
2026-01-22 21:39:25.81	337.43	7.91	-39.2	-40.5	27.0	7.67e-01	59	41	0	359137280	54	5783
2026-01-22 21:39:26.82	337.26	7.87	-39.9	-41.3	26.4	7.67e-01	59	41	0	361234432	54	6338
2026-01-22 21:39:27.83	337.09	7.83	-40.1	-41.5	26.3	7.67e-01	60	41	0	362807296	54	6473
2026-01-22 21:39:28.84	336.92	7.79	-39.8	-41.2	26.7	7.67e-01	44	41	0	364904448	54	6229
2026-01-22 21:39:29.85	336.75	7.75	-40.2	-41.7	26.1	7.67e-01	58	41	0	367001600	54	6601
2026-01-22 21:39:30.86	336.58	7.71	-39.6	-40.9	26.7	7.67e-01	56	41	0	368574464	54	6054
2026-01-22 21:39:31.87	336.41	7.67	-40.1	-41.6	26.2	7.67e-01	44	41	0	370671616	54	6508
2026-01-22 21:39:32.88	336.25	7.63	-39.6	-41.0	26.7	7.67e-01	59	41	0	372244480	54	6091
2026-01-22 21:39:33.89	336.08	7.59	-40.1	-41.5	26.3	7.67e-01	60	41	0	374341632	54	6463
2026-01-22 21:39:34.90	335.91	7.55	-39.9	-41.3	26.4	7.67e-01	58	41	0	376438784	54	6328
2026-01-22 21:39:35.91	335.75	7.51	-39.7	-41.1	26.6	7.67e-01	58	41	0	378011648	54	6160
2026-01-22 21:39:36.92	335.58	7.47	-39.7	-41.1	26.6	7.67e-01	53	41	0	380108800	54	6135
2026-01-22 21:39:37.93	335.42	7.43	-39.5	-40.9	26.8	7.67e-01	58	41	0	381681664	54	6001
2026-01-22 21:39:38.94	335.25	7.39	-39.9	-41.4	26.5	7.67e-01	59	41	0	383778816	54	6354
2026-01-22 21:39:39.95	335.09	7.35	-39.5	-40.9	26.8	7.67e-01	46	41	0	385875968	54	6007
2026-01-22 21:39:40.96	334.93	7.31	-40.0	-41.4	26.3	7.67e-01	59	41	0	387448832	54	6377
2026-01-22 21:39:41.96	334.77	7.27	-39.9	-41.3	26.5	7.67e-01	58	41	0	389545984	54	6325
2026-01-22 21:39:42.97	334.60	7.23	-40.1	-41.5	26.1	7.67e-01	61	41	0	391643136	54	6479
2026-01-22 21:39:43.98	334.44	7.18	-39.8	-41.2	26.4	7.67e-01	60	41	0	393216000	54	6265
2026-01-22 21:39:44.99	334.28	7.14	-40.1	-41.5	26.2	7.67e-01	49	41	0	395313152	54	6451
2026-01-22 21:39:46.00	334.12	7.10	-40.0	-41.5	26.2	7.67e-01	61	41	0	396886016	54	6429
2026-01-22 21:39:47.01	333.96	7.06	-39.6	-41.0	26.7	7.67e-01	61	41	0	398983168	54	6071
2026-01-22 21:39:48.02	333.80	7.02	-40.0	-41.4	26.3	7.67e-01	47	41	0	401080320	54	6390
2026-01-22 21:39:49.03	333.64	6.98	-40.2	-41.6	26.1	7.67e-01	58	41	0	402653184	54	6553
2026-01-22 21:39:50.04	333.48	6.93	-40.1	-41.5	26.1	7.67e-01	56	41	0	404750336	54	6472
2026-01-22 21:39:51.05	333.32	6.89	-40.7	-42.2	25.5	7.67e-01	59	41	0	406323200	54	7010
2026-01-22 21:39:52.06	333.17	6.85	-40.1	-41.5	26.1	7.67e-01	56	41	0	408420352	54	6481
2026-01-22 21:39:53.07	333.01	6.81	-40.3	-41.8	25.8	7.67e-01	53	41	0	410517504	54	6707
2026-01-22 21:39:54.08	332.85	6.76	-40.3	-41.7	25.9	7.67e-01	59	41	0	412090368	54	6621
2026-01-22 21:39:55.09	332.70	6.72	-40.5	-42.0	25.7	7.67e-01	59	41	0	414187520	54	6857
2026-01-22 21:39:56.09	332.54	6.68	-40.3	-41.8	25.9	7.67e-01	49	41	0	416284672	54	6660
2026-01-22 21:39:57.10	332.39	6.64	-40.1	-41.5	26.2	7.67e-01	57	41	0	417857536	54	6498
2026-01-22 21:39:58.11	332.23	6.59	-39.9	-41.3	26.3	7.67e-01	48	41	0	419954688	54	6310
2026-01-22 21:39:59.12	332.08	6.55	-40.0	-41.4	26.2	7.67e-01	61	41	0	421527552	54	6411
2026-01-22 21:40:00.13	331.92	6.51	-40.1	-41.5	26.1	7.67e-01	59	41	0	423624704	54	6464
2026-01-22 21:40:01.14	331.77	6.46	-39.9	-41.3	26.2	7.67e-01	55	41	0	425721856	54	6331
2026-01-22 21:40:02.15	331.62	6.42	-41.0	-42.6	25.2	7.67e-01	61	41	0	427294720	56	6525
2026-01-22 21:40:03.16	331.47	6.38	-39.4	-40.7	26.8	7.67e-01	58	41	0	429391872	54	5921
2026-01-22 21:40:04.17	331.31	6.33	-40.4	-41.9	25.7	7.67e-01	61	41	0	430964736	54	6731
2026-01-22 21:40:05.18	331.16	6.29	-39.5	-40.9	26.6	7.67e-01	65	41	0	433061888	54	6017
2026-01-22 21:40:06.19	331.01	6.25	-40.4	-41.9	25.6	7.67e-01	44	41	0	434634752	54	6766
2026-01-22 21:40:07.20	330.86	6.20	-40.2	-41.7	25.8	7.67e-01	59	41	0	436731904	54	6607
2026-01-22 21:40:08.21	330.71	6.16	-40.1	-41.5	26.1	7.67e-01	61	41	0	438829056	54	6446
2026-01-22 21:40:09.21	330.57	6.11	-40.5	-42.1	25.6	7.67e-01	38	41	0	440401920	54	6895
2026-01-22 21:40:10.22	330.42	6.07	-40.0	-41.4	26.2	7.67e-01	61	41	0	442499072	54	6376
2026-01-22 21:40:11.23	330.27	6.03	-40.6	-42.2	25.4	7.67e-01	60	41	0	444596224	54	6973
2026-01-22 21:40:12.24	330.12	5.98	-40.4	-41.9	25.7	7.67e-01	61	41	0	446169088	54	6739
2026-01-22 21:40:13.25	329.97	5.94	-40.1	-41.5	26.0	7.67e-01	58	41	0	448266240	54	6447
2026-01-22 21:40:14.26	329.83	5.89	-40.3	-41.8	25.8	7.67e-01	58	41	0	449839104	54	6670
2026-01-22 21:40:15.27	329.68	5.85	-40.1	-41.5	26.1	7.67e-01	61	41	0	451936256	54	6460
2026-01-22 21:40:16.28	329.54	5.80	-40.5	-41.9	25.8	7.67e-01	58	41	0	454033408	54	6796
2026-01-22 21:40:17.29	329.39	5.76	-39.8	-41.2	26.4	7.67e-01	52	41	0	455606272	54	6234
2026-01-22 21:40:18.30	329.25	5.71	-40.3	-41.8	26.0	7.67e-01	58	41	0	457703424	54	6713
2026-01-22 21:40:19.31	329.10	5.67	-40.3	-41.8	25.9	7.67e-01	57	41	0	459800576	54	6661
2026-01-22 21:40:20.32	328.96	5.62	-40.0	-41.4	26.1	7.67e-01	58	41	0	461373440	54	6379
2026-01-22 21:40:21.32	328.82	5.58	-41.4	-43.1	24.6	7.67e-01	58	41	0	463470592	56	6889
2026-01-22 21:40:22.33	328.67	5.53	-40.1	-41.5	26.1	7.67e-01	62	41	0	465043456	56	5759
2026-01-22 21:40:23.34	328.53	5.49	-40.5	-42.0	25.5	7.67e-01	58	41	0	467140608	54	6818
2026-01-22 21:40:24.35	328.39	5.44	-40.8	-42.3	25.2	7.67e-01	61	41	0	469237760	56	6297
2026-01-22 21:40:25.36	328.25	5.40	-39.8	-41.1	26.3	7.67e-01	44	41	0	470810624	54	6201
2026-01-22 21:40:26.37	328.11	5.35	-40.6	-42.1	25.5	7.67e-01	58	41	0	472907776	54	6899
2026-01-22 21:40:27.38	327.97	5.31	-40.4	-41.9	25.6	7.67e-01	59	41	0	474480640	54	6732
2026-01-22 21:40:28.39	327.83	5.26	-40.5	-41.9	25.7	7.67e-01	58	41	0	476577792	54	6788
2026-01-22 21:40:29.40	327.69	5.22	-40.6	-42.1	25.5	7.67e-01	57	41	0	478674944	54	6943
2026-01-22 21:40:30.41	327.55	5.17	-40.6	-42.1	25.4	7.67e-01	53	41	0	480247808	54	6945
2026-01-22 21:40:31.42	327.41	5.13	-40.3	-41.8	25.8	7.67e-01	59	41	0	482344960	54	6655
2026-01-22 21:40:32.43	327.27	5.08	-40.3	-41.7	25.9	7.67e-01	60	41	0	483917824	54	6626
2026-01-22 21:40:33.44	327.14	5.03	-40.5	-42.0	25.6	7.67e-01	47	41	0	486014976	54	6851
2026-01-22 21:40:34.45	327.00	4.99	-40.7	-42.3	25.5	7.67e-01	57	41	0	488112128	54	7047
2026-01-22 21:40:35.46	326.86	4.94	-40.5	-42.0	25.6	7.67e-01	55	41	0	489684992	54	6828
2026-01-22 21:40:36.47	326.73	4.90	-40.4	-41.9	25.6	7.67e-01	60	41	0	491782144	54	6729
2026-01-22 21:40:37.48	326.59	4.85	-40.9	-42.4	25.2	7.67e-01	61	41	0	493355008	56	6407
2026-01-22 21:40:38.49	326.46	4.80	-40.9	-42.4	25.3	7.67e-01	52	41	0	495452160	56	6409
2026-01-22 21:40:39.50	326.32	4.76	-41.2	-42.7	24.9	7.67e-01	58	41	0	497549312	56	6619
2026-01-22 21:40:40.50	326.19	4.71	-41.2	-42.7	24.9	7.67e-01	58	41	0	499122176	56	6638
2026-01-22 21:40:41.51	326.06	4.67	-40.9	-42.4	25.2	7.67e-01	59	41	0	501219328	56	6409
2026-01-22 21:40:42.52	325.92	4.62	-40.6	-42.1	25.5	7.67e-01	61	41	0	502792192	56	6138
2026-01-22 21:40:43.53	325.79	4.57	-40.8	-42.3	25.3	7.67e-01	46	41	0	504889344	56	6333
2026-01-22 21:40:44.54	325.66	4.53	-41.4	-43.0	24.7	7.67e-01	62	41	0	506986496	56	6818
2026-01-22 21:40:45.55	325.53	4.48	-41.6	-43.3	24.2	7.67e-01	57	41	0	508559360	56	7048
2026-01-22 21:40:46.56	325.40	4.44	-41.6	-43.3	24.2	7.67e-01	44	41	0	510656512	56	7047
2026-01-22 21:40:47.57	325.26	4.39	-41.4	-43.0	24.7	7.67e-01	62	41	0	512753664	58	6112
2026-01-22 21:40:48.58	325.13	4.34	-41.4	-43.0	24.3	7.67e-01	57	41	0	514326528	58	6120
2026-01-22 21:40:49.59	325.00	4.30	-42.1	-43.9	24.0	7.67e-01	58	41	0	516423680	58	6730
2026-01-22 21:40:50.60	324.88	4.25	-41.7	-43.4	23.9	7.67e-01	54	41	0	517996544	58	6357
2026-01-22 21:40:51.61	324.75	4.20	-42.1	-43.8	24.2	7.67e-01	59	41	0	520093696	58	6663
2026-01-22 21:40:52.62	324.62	4.16	-41.9	-43.6	23.5	7.67e-01	58	41	0	522190848	58	6546
2026-01-22 21:40:53.63	324.49	4.11	-42.5	-44.3	23.3	7.67e-01	58	41	0	523763712	58	7076
2026-01-22 21:40:54.64	324.36	4.06	-42.6	-44.5	23.1	7.67e-01	44	41	0	525860864	58	7230
2026-01-22 21:40:55.65	324.24	4.02	-41.9	-43.6	23.8	7.67e-01	57	41	0	527433728	58	6556
2026-01-22 21:40:56.66	324.11	3.97	-41.8	-43.5	24.0	7.67e-01	60	41	0	529530880	58	6455
2026-01-22 21:40:57.67	323.98	3.92	-42.6	-44.5	21.2	7.67e-01	58	41	0	531628032	58	7209
2026-01-22 21:40:58.68	323.86	3.88	-42.7	-44.6	23.6	7.67e-01	59	41	0	533200896	60	6539
2026-01-22 21:40:59.69	323.73	3.83	-40.7	-42.3	25.1	7.67e-01	46	41	0	535298048	56	6293
2026-01-22 21:41:00.70	323.61	3.78	-40.4	-41.9	25.5	7.67e-01	58	41	0	537395200	56	6044
2026-01-22 21:41:01.71	323.48	3.74	-41.5	-43.1	24.5	7.67e-01	60	41	0	538968064	56	6937
2026-01-22 21:41:02.72	323.36	3.69	-41.2	-42.8	24.7	7.67e-01	44	41	0	541065216	56	6666
2026-01-22 21:41:03.73	323.24	3.64	-41.3	-42.9	24.5	7.67e-01	59	41	0	542638080	56	6755
2026-01-22 21:41:04.74	323.11	3.59	-41.6	-43.3	24.2	7.67e-01	53	41	0	544735232	56	7077
2026-01-22 21:41:05.75	322.99	3.55	-41.5	-43.1	24.3	7.67e-01	60	41	0	546832384	56	6924
2026-01-22 21:41:06.76	322.87	3.50	-41.3	-42.8	24.5	7.67e-01	59	41	0	548405248	56	6721
2026-01-22 21:41:07.77	322.75	3.45	-42.2	-43.9	23.3	7.67e-01	51	41	0	550502400	56	7618
2026-01-22 21:41:08.78	322.63	3.41	-41.4	-43.0	24.4	7.67e-01	61	41	0	552075264	58	6106
2026-01-22 21:41:09.79	322.50	3.36	-41.4	-43.1	24.3	7.67e-01	55	41	0	554172416	58	6146
2026-01-22 21:41:10.80	322.38	3.31	-41.5	-43.1	24.2	7.67e-01	60	41	0	556269568	58	6203
2026-01-22 21:41:11.81	322.26	3.27	-41.5	-43.2	23.7	7.67e-01	58	41	0	557842432	58	6257
2026-01-22 21:41:12.82	322.14	3.22	-42.1	-44.0	23.5	7.67e-01	46	41	0	559939584	58	6808
2026-01-22 21:41:13.83	322.03	3.17	-41.8	-43.6	24.0	7.67e-01	55	41	0	561512448	58	6503
2026-01-22 21:41:14.84	321.91	3.12	-41.0	-42.6	24.7	7.67e-01	57	41	0	563609600	58	5811
2026-01-22 21:41:15.85	321.79	3.08	-41.5	-43.2	24.0	7.67e-01	46	41	0	565706752	58	6257
2026-01-22 21:41:16.86	321.67	3.03	-42.0	-43.8	23.5	7.67e-01	58	41	0	567279616	58	6698
2026-01-22 21:41:17.87	321.55	2.98	-50.4	-68.2	3.5	7.67e-01	0	41	104	568328192	60	99149
2026-01-22 21:41:18.87	321.44	2.94	-50.7	-68.4	3.5	7.67e-01	0	41	104	568328192	60	101292
2026-01-22 21:41:19.88	321.32	2.89	-50.9	-68.8	3.5	7.67e-01	0	41	104	568328192	60	106108
2026-01-22 21:41:20.89	321.21	2.84	-50.8	-68.9	3.5	7.67e-01	0	41	104	568328192	60	107803
2026-01-22 21:41:21.90	321.09	2.79	-51.2	-69.1	3.5	7.67e-01	0	41	104	568328192	60	109296
2026-01-22 21:41:22.91	320.97	2.75	-51.0	-69.2	3.5	7.67e-01	0	41	104	568328192	60	110851
2026-01-22 21:41:23.92	320.86	2.70	-51.2	-69.3	3.5	7.67e-01	0	41	104	568328192	60	111750
2026-01-22 21:41:24.93	320.75	2.65	-51.2	-69.3	3.5	7.67e-01	0	41	104	568328192	60	112062
2026-01-22 21:41:25.94	320.63	2.60	-51.3	-69.3	3.5	7.67e-01	0	41	104	568328192	60	112405
2026-01-22 21:41:26.95	320.52	2.56	-51.3	-69.3	3.5	7.67e-01	0	41	104	568328192	60	112286
2026-01-22 21:41:27.96	320.40	2.51	-51.3	-69.3	3.5	7.67e-01	0	41	104	568328192	60	112814
2026-01-22 21:41:28.97	320.29	2.46	-51.4	-69.4	3.5	7.67e-01	0	41	104	568328192	60	113182
2026-01-22 21:41:29.98	320.18	2.41	-51.4	-69.3	3.5	7.67e-01	0	41	104	568328192	60	112310
2026-01-22 21:41:30.99	320.07	2.37	-51.3	-69.4	3.5	7.67e-01	0	41	104	568328192	60	113032
2026-01-22 21:41:32.00	319.96	2.32	-51.4	-69.3	3.5	7.67e-01	0	41	104	568328192	60	112291
2026-01-22 21:41:33.01	319.84	2.27	-51.3	-69.4	3.5	7.67e-01	0	41	104	568328192	60	112970
2026-01-22 21:41:34.02	319.73	2.23	-51.4	-69.2	3.5	7.67e-01	0	41	104	568328192	60	111544
2026-01-22 21:41:35.03	319.62	2.18	-51.3	-69.3	3.5	7.67e-01	0	41	104	568328192	60	111749
2026-01-22 21:41:36.04	319.51	2.13	-51.4	-69.2	3.5	7.67e-01	0	41	104	568328192	60	111504
2026-01-22 21:41:37.05	319.40	2.08	-51.5	-69.3	3.5	7.67e-01	0	41	104	568328192	60	112553
2026-01-22 21:41:38.06	319.30	2.04	-51.4	-69.3	3.5	7.67e-01	0	41	104	568328192	60	111657
2026-01-22 21:41:39.07	319.19	1.99	-51.4	-69.3	3.5	7.67e-01	0	41	104	568328192	60	111773
2026-01-22 21:41:40.08	319.08	1.94	-51.4	-69.3	3.5	7.67e-01	0	41	104	568328192	60	111820
2026-01-22 21:41:41.09	318.97	1.89	-51.1	-69.3	3.5	7.67e-01	0	41	104	568328192	60	111942
2026-01-22 21:41:42.10	318.86	1.85	-51.5	-69.2	3.5	7.67e-01	0	41	104	568328192	60	111542
2026-01-22 21:41:43.11	318.76	1.80	-51.5	-69.3	3.5	7.67e-01	0	41	104	568328192	60	112446
2026-01-22 21:41:44.12	318.65	1.75	-51.5	-69.3	3.5	7.67e-01	0	41	104	568328192	60	111916
2026-01-22 21:41:45.13	318.54	1.70	-51.5	-69.3	3.5	7.67e-01	0	41	104	568328192	60	111902
2026-01-22 21:41:46.14	318.44	1.66	-51.5	-69.2	3.5	7.67e-01	0	41	104	568328192	60	111366
2026-01-22 21:41:47.15	318.33	1.61	-51.4	-69.2	3.5	7.67e-01	0	41	104	568328192	60	111094
2026-01-22 21:41:48.16	318.23	1.56	-51.5	-69.3	3.5	7.67e-01	0	41	104	568328192	60	112368
2026-01-22 21:41:49.17	318.12	1.51	-51.5	-69.3	3.5	7.67e-01	0	41	104	568328192	60	111860
2026-01-22 21:41:50.18	318.02	1.47	-51.5	-69.3	3.5	7.67e-01	0	41	104	568328192	60	112169
2026-01-22 21:41:51.19	317.91	1.42	-51.5	-69.3	3.5	7.67e-01	0	41	104	568328192	60	112060
2026-01-22 21:41:52.20	317.81	1.37	-51.5	-69.3	3.5	7.67e-01	0	41	104	568328192	60	112025
2026-01-22 21:41:53.21	317.70	1.32	-51.5	-69.3	3.5	7.67e-01	0	41	104	568328192	60	112097
2026-01-22 21:41:54.21	317.60	1.28	-51.5	-69.2	3.5	7.67e-01	0	41	104	568328192	60	111591
2026-01-22 21:41:55.22	317.50	1.23	-51.5	-69.3	3.5	7.67e-01	0	41	104	568328192	60	112143
2026-01-22 21:41:56.23	317.40	1.18	-51.5	-69.3	3.5	7.67e-01	0	41	104	568328192	60	111713
2026-01-22 21:41:57.24	317.30	1.14	-51.5	-69.3	3.5	7.67e-01	0	41	104	568328192	60	112137
2026-01-22 21:41:58.26	317.19	1.09	-51.5	-69.2	3.5	7.67e-01	0	41	104	568328192	60	111595
2026-01-22 21:41:59.26	317.09	1.04	-51.5	-69.3	3.5	7.67e-01	0	41	104	568328192	60	112304
2026-01-22 21:42:00.27	316.99	0.99	-51.5	-69.3	3.5	7.67e-01	0	41	104	568328192	60	112035
2026-01-22 21:42:01.28	316.89	0.95	-51.5	-69.3	3.5	7.67e-01	0	41	104	568328192	60	112180
2026-01-22 21:42:02.29	316.79	0.90	-51.5	-69.3	3.5	7.67e-01	0	41	104	568328192	60	111811
2026-01-22 21:42:03.30	316.69	0.85	-51.5	-69.3	3.5	7.67e-01	0	41	104	568328192	60	111700
2026-01-22 21:42:04.31	316.59	0.80	-51.5	-69.3	3.5	7.67e-01	0	41	104	568328192	60	111831
2026-01-22 21:42:05.32	316.49	0.76	-51.5	-69.3	3.5	7.67e-01	0	41	104	568328192	60	111935
2026-01-22 21:42:06.33	316.39	0.71	-51.5	-69.3	3.5	7.67e-01	0	41	104	568328192	60	112010
2026-01-22 21:42:07.35	316.30	0.66	-51.5	-69.2	3.5	7.67e-01	0	41	104	568328192	60	111573
2026-01-22 21:42:08.36	316.20	0.62	-51.4	-69.2	3.5	7.67e-01	0	41	104	568328192	60	111493
2026-01-22 21:42:09.37	316.10	0.57	-51.4	-69.3	3.5	7.67e-01	0	41	104	568328192	60	111688
2026-01-22 21:42:10.38	316.00	0.52	-51.5	-69.3	3.5	7.67e-01	0	41	104	568328192	60	111637
2026-01-22 21:42:11.39	315.91	0.47	-51.4	-69.2	3.5	7.67e-01	0	41	104	568328192	60	111406
2026-01-22 21:42:12.40	315.81	0.43	-51.4	-69.3	3.5	7.67e-01	0	41	104	568328192	60	112131
2026-01-22 21:42:13.41	315.71	0.38	-51.5	-69.3	3.5	7.67e-01	0	41	104	568328192	60	111938
2026-01-22 21:42:14.42	315.62	0.33	-51.4	-69.3	3.5	7.67e-01	0	41	104	568328192	60	111766
2026-01-22 21:42:15.43	315.52	0.28	-51.5	-69.3	3.5	7.67e-01	0	41	104	568328192	60	111865
2026-01-22 21:42:16.44	315.43	0.24	-51.5	-69.2	3.5	7.67e-01	0	41	104	568328192	60	111511
2026-01-22 21:42:17.45	315.33	0.19	-51.5	-69.3	3.5	7.67e-01	0	41	104	568328192	60	111997
2026-01-22 21:42:18.46	315.24	0.14	-51.5	-69.3	3.5	7.67e-01	0	41	104	568328192	60	111807
2026-01-22 21:42:19.47	315.14	0.10	-51.5	-69.3	3.5	7.67e-01	0	41	104	568328192	60	111863
2026-01-22 21:42:20.48	315.05	0.05	-51.5	-69.3	3.5	7.67e-01	0	41	104	568328192	60	112060
2026-01-22 21:42:21.49	314.96	0.00	-51.5	-69.3	3.5	7.67e-01	0	41	104	568328192	60	112255

#Closed at: 2026-01-22 21:42:21
#Recorded file [568 MB]: D:/lorett/data/35029_260123_093158.dat