passes_logs/2026/01/22/R4.6S_Anadyr/R4.6S_Anadyr__20260122_120310_NOAA_21_JPSS-2_rec.log

#Pass ID: 20260122_120310_NOAA 21 (JPSS-2)
#Satellite: NOAA 21 (JPSS-2)
#Configuration: NOAA-21
#almurnet v.1.7.20251203
#Start time: 2026-01-22 12:03:13

#Version: 2.2.20231116
#Station: R4.6S_Anadyr
#Location: 177.4865 lon 64.73178 lat
#TLE: 1 54234U 22150A   26021.42686626  .00000211  00000+0  12107-3 0  9996
#TLE: 2 54234  98.7506 322.2490 0000636 241.9299 118.1812 14.19537149165725

#Time	Az	El	Level	Level2	SNR	BER	BlckErr	Temp	State	Recorded	gain1	gain2
2026-01-22 12:03:13.98	19.66	0.15	-52.8	-54.4	5.7	0.00e+00	0	38	0	0	60	64242
2026-01-22 12:03:14.99	19.75	0.20	-52.2	-65.1	3.5	1.52e+00	0	40	104	0	60	63257
2026-01-22 12:03:16.00	19.83	0.25	-51.9	-64.8	3.5	1.52e+00	0	40	104	0	60	60796
2026-01-22 12:03:17.01	19.91	0.29	-51.8	-64.6	3.5	1.52e+00	0	40	104	0	60	59947
2026-01-22 12:03:18.02	20.00	0.34	-51.7	-64.6	3.5	1.52e+00	0	40	104	0	60	59804
2026-01-22 12:03:19.03	20.08	0.38	-51.5	-64.4	3.5	1.52e+00	0	40	104	0	60	58350
2026-01-22 12:03:20.04	20.17	0.43	-51.5	-64.4	3.5	1.52e+00	0	40	104	0	60	58335
2026-01-22 12:03:21.05	20.25	0.48	-51.5	-64.4	3.5	1.52e+00	0	40	104	0	60	58431
2026-01-22 12:03:22.06	20.34	0.52	-51.5	-64.3	3.5	1.52e+00	0	40	104	0	60	57886
2026-01-22 12:03:23.07	20.43	0.57	-51.3	-64.2	3.5	1.52e+00	0	40	104	0	60	57081
2026-01-22 12:03:24.08	20.51	0.61	-51.3	-64.1	3.5	1.52e+00	0	40	104	0	60	56161
2026-01-22 12:03:25.09	20.60	0.66	-51.2	-64.0	3.5	1.52e+00	0	40	104	0	60	55785
2026-01-22 12:03:26.10	20.68	0.71	-51.1	-64.0	3.5	1.52e+00	0	40	104	0	60	55453
2026-01-22 12:03:27.11	20.77	0.75	-51.0	-63.9	3.5	1.51e+00	0	40	104	0	60	54849
2026-01-22 12:03:28.12	20.86	0.80	-50.9	-63.8	3.5	1.52e+00	0	40	104	0	60	54444
2026-01-22 12:03:29.13	20.95	0.85	-50.9	-63.7	3.5	1.52e+00	0	40	104	0	60	53488
2026-01-22 12:03:30.14	21.03	0.89	-50.7	-63.6	3.5	1.52e+00	0	40	104	0	60	53048
2026-01-22 12:03:31.15	21.12	0.94	-50.8	-63.6	3.5	1.52e+00	0	40	104	0	60	52878
2026-01-22 12:03:32.16	21.21	0.98	-50.6	-63.5	3.5	1.52e+00	0	40	104	0	60	52386
2026-01-22 12:03:33.17	21.30	1.03	-50.4	-63.2	3.5	1.52e+00	0	40	104	0	60	50847
2026-01-22 12:03:34.18	21.39	1.08	-50.1	-63.0	3.5	1.51e+00	0	40	104	0	60	49820
2026-01-22 12:03:35.19	21.48	1.12	-49.8	-62.7	3.5	1.52e+00	0	40	104	0	60	47651
2026-01-22 12:03:36.20	21.56	1.17	-49.7	-62.5	3.5	1.52e+00	0	40	104	0	60	47025
2026-01-22 12:03:37.21	21.65	1.22	-49.6	-62.5	3.5	1.52e+00	0	40	104	0	60	46944
2026-01-22 12:03:38.22	21.74	1.26	-49.7	-62.5	3.5	1.52e+00	0	40	104	0	60	46842
2026-01-22 12:03:39.23	21.83	1.31	-49.7	-62.6	3.5	1.52e+00	0	40	104	0	60	47126
2026-01-22 12:03:40.24	21.92	1.36	-49.7	-62.6	3.5	1.52e+00	0	40	104	0	60	47316
2026-01-22 12:03:41.25	22.01	1.40	-49.7	-62.5	3.5	1.52e+00	0	40	104	0	60	46941
2026-01-22 12:03:42.26	22.10	1.45	-49.8	-62.6	3.5	1.52e+00	0	40	104	0	60	47422
2026-01-22 12:03:43.27	22.20	1.50	-49.7	-62.6	3.5	1.52e+00	0	40	104	0	60	47184
2026-01-22 12:03:44.28	22.29	1.54	-49.7	-62.5	3.5	1.52e+00	0	40	104	0	60	46995
2026-01-22 12:03:45.29	22.38	1.59	-49.7	-62.5	3.5	1.52e+00	0	40	104	0	60	46946
2026-01-22 12:03:46.30	22.47	1.64	-49.7	-62.5	3.5	1.52e+00	0	40	104	0	60	46978
2026-01-22 12:03:47.31	22.56	1.68	-49.8	-62.6	3.5	1.52e+00	0	40	104	0	60	47366
2026-01-22 12:03:48.32	22.66	1.73	-49.7	-62.5	3.5	1.52e+00	0	40	104	0	60	46827
2026-01-22 12:03:49.33	22.75	1.78	-49.7	-62.5	3.5	1.52e+00	0	40	104	0	60	46839
2026-01-22 12:03:50.34	22.84	1.82	-49.7	-62.5	3.5	1.52e+00	0	41	104	0	60	46923
2026-01-22 12:03:51.34	22.93	1.87	-49.7	-62.4	3.5	1.52e+00	0	40	104	0	60	46520
2026-01-22 12:03:52.35	23.03	1.92	-49.7	-62.3	3.5	1.52e+00	0	40	104	0	60	46001
2026-01-22 12:03:53.36	23.12	1.96	-49.7	-62.4	3.5	1.52e+00	0	40	104	0	60	46047
2026-01-22 12:03:54.37	23.21	2.01	-49.6	-62.4	3.5	1.52e+00	0	40	104	0	60	46298
2026-01-22 12:03:55.38	23.31	2.06	-49.6	-62.4	3.5	1.52e+00	0	41	104	0	60	46491
2026-01-22 12:03:56.39	23.40	2.10	-49.6	-62.4	3.5	1.52e+00	0	41	104	0	60	46117
2026-01-22 12:03:57.40	23.50	2.15	-49.6	-62.4	3.5	1.52e+00	0	40	104	0	60	46146
2026-01-22 12:03:58.41	23.59	2.20	-49.6	-62.4	3.5	1.52e+00	0	41	104	0	60	46287
2026-01-22 12:03:59.43	23.69	2.25	-49.6	-62.3	3.5	1.52e+00	0	41	104	0	60	45864
2026-01-22 12:04:00.44	23.79	2.29	-49.6	-62.0	3.5	1.51e+00	0	41	104	0	60	44161
2026-01-22 12:04:01.45	23.88	2.34	-49.5	-61.3	3.5	1.52e+00	0	40	104	0	60	40622
2026-01-22 12:04:02.45	23.98	2.39	-49.5	-60.7	3.7	1.51e+00	0	41	104	0	60	37993
2026-01-22 12:04:03.46	24.07	2.43	-49.5	-61.5	3.5	1.51e+00	0	41	104	0	60	41519
2026-01-22 12:04:04.48	24.17	2.48	-49.4	-59.6	3.6	1.51e+00	0	41	104	0	60	33578
2026-01-22 12:04:05.48	24.27	2.53	-48.5	-54.4	7.4	4.26e-01	0	41	0	0	60	18405
2026-01-22 12:04:06.49	24.37	2.57	-46.7	-50.0	12.1	1.70e-03	0	41	0	3145728	60	11120
2026-01-22 12:04:07.50	24.46	2.62	-45.0	-47.4	14.4	4.50e-06	0	41	0	6291456	60	8189
2026-01-22 12:04:08.51	24.56	2.67	-42.3	-43.9	17.8	0.00e+00	0	41	0	9437184	58	6153
2026-01-22 12:04:09.52	24.66	2.72	-42.3	-43.8	18.0	0.00e+00	0	40	0	12582912	58	6093
2026-01-22 12:04:10.53	24.76	2.76	-41.9	-43.4	18.5	0.00e+00	0	41	0	15728640	58	5805
2026-01-22 12:04:11.54	24.86	2.81	-41.4	-42.8	19.1	0.00e+00	0	41	0	18874368	56	6080
2026-01-22 12:04:12.55	24.96	2.86	-41.8	-43.2	18.4	0.00e+00	0	41	0	22020096	56	6394
2026-01-22 12:04:13.56	25.06	2.90	-44.9	-47.1	14.6	0.00e+00	0	41	0	25165824	60	7993
2026-01-22 12:04:14.57	25.16	2.95	-45.9	-48.6	12.8	6.10e-06	0	41	0	28311552	60	9498
2026-01-22 12:04:15.58	25.26	3.00	-48.1	-52.9	8.1	1.34e-02	0	41	0	31457280	60	15539
2026-01-22 12:04:16.59	25.36	3.05	-42.1	-43.5	18.4	1.27e-02	0	41	0	34603008	60	5273
2026-01-22 12:04:17.60	25.46	3.09	-47.4	-51.6	4.3	0.00e+00	0	41	0	37748736	60	13324
2026-01-22 12:04:18.61	25.56	3.14	-48.3	-54.3	4.2	1.50e+00	0	41	104	37748736	60	18262
2026-01-22 12:04:19.62	25.66	3.19	-45.9	-48.7	14.7	9.75e-02	0	41	0	37748736	60	9556
2026-01-22 12:04:20.63	25.76	3.23	-49.6	-61.0	3.5	5.44e-01	0	41	104	39845888	60	39288
2026-01-22 12:04:21.64	25.86	3.28	-47.3	-51.4	12.4	1.51e+00	0	41	0	39845888	60	13043
2026-01-22 12:04:22.64	25.96	3.33	-43.6	-45.3	16.6	0.00e+00	0	41	0	42991616	60	6484
2026-01-22 12:04:23.65	26.07	3.38	-42.7	-44.3	17.7	0.00e+00	0	41	0	46137344	60	5745
2026-01-22 12:04:24.67	26.17	3.42	-42.7	-44.2	17.9	0.00e+00	0	41	0	49283072	58	6390
2026-01-22 12:04:25.68	26.27	3.47	-41.7	-43.0	18.8	0.00e+00	0	41	0	52428800	58	5593
2026-01-22 12:04:26.69	26.38	3.52	-41.4	-42.7	19.1	0.00e+00	0	41	0	55574528	56	6050
2026-01-22 12:04:27.69	26.48	3.56	-42.2	-43.7	18.2	0.00e+00	0	41	0	58720256	56	6735
2026-01-22 12:04:28.70	26.59	3.61	-41.8	-43.2	18.9	0.00e+00	0	41	0	61865984	56	6391
2026-01-22 12:04:29.71	26.69	3.66	-41.8	-43.2	18.7	0.00e+00	0	41	0	65011712	56	6409
2026-01-22 12:04:30.72	26.80	3.71	-41.6	-43.0	18.8	0.00e+00	0	41	0	68157440	56	6220
2026-01-22 12:04:31.73	26.90	3.75	-41.0	-42.3	19.6	0.00e+00	0	41	0	71303168	56	5753
2026-01-22 12:04:32.74	27.01	3.80	-41.6	-43.0	19.0	0.00e+00	0	41	0	74448896	56	6225
2026-01-22 12:04:33.75	27.11	3.85	-41.0	-42.3	19.6	0.00e+00	0	41	0	77594624	56	5746
2026-01-22 12:04:34.76	27.22	3.90	-41.6	-43.0	19.0	0.00e+00	0	41	0	80740352	56	6209
2026-01-22 12:04:35.76	27.32	3.94	-41.2	-42.5	19.5	0.00e+00	0	41	0	83886080	56	5865
2026-01-22 12:04:36.77	27.43	3.99	-41.0	-42.3	19.6	0.00e+00	0	41	0	87031808	56	5740
2026-01-22 12:04:37.78	27.54	4.04	-41.4	-42.8	18.9	0.00e+00	0	41	0	90177536	54	6845
2026-01-22 12:04:38.79	27.64	4.08	-41.1	-42.4	19.2	0.00e+00	0	41	0	93323264	54	6538
2026-01-22 12:04:39.80	27.75	4.13	-41.4	-42.7	19.3	0.00e+00	0	41	0	96468992	54	6797
2026-01-22 12:04:40.81	27.86	4.18	-41.5	-42.8	19.4	0.00e+00	0	41	0	99614720	56	6107
2026-01-22 12:04:41.82	27.97	4.23	-41.4	-42.7	19.3	0.00e+00	0	41	0	102760448	56	6045
2026-01-22 12:04:42.83	28.08	4.27	-41.8	-43.2	18.6	0.00e+00	0	41	0	105906176	56	6414
2026-01-22 12:04:43.84	28.19	4.32	-41.5	-42.8	19.1	0.00e+00	0	41	0	109051904	56	6090
2026-01-22 12:04:44.85	28.30	4.37	-41.1	-42.4	19.4	0.00e+00	0	41	0	112197632	56	5831
2026-01-22 12:04:45.86	28.41	4.42	-41.1	-42.4	19.6	0.00e+00	0	41	0	115343360	56	5793
2026-01-22 12:04:46.87	28.52	4.46	-41.0	-42.3	19.6	0.00e+00	0	41	0	118489088	56	5765
2026-01-22 12:04:47.88	28.63	4.51	-41.3	-42.6	19.4	0.00e+00	0	41	0	121634816	56	5978
2026-01-22 12:04:48.89	28.74	4.56	-40.7	-41.9	19.9	0.00e+00	0	41	0	124780544	54	6186
2026-01-22 12:04:49.90	28.85	4.60	-40.4	-41.6	20.3	0.00e+00	0	41	0	127926272	54	5944
2026-01-22 12:04:50.91	28.96	4.65	-41.0	-42.2	19.7	0.00e+00	0	41	0	131072000	54	6401
2026-01-22 12:04:51.92	29.07	4.70	-41.2	-42.5	19.4	0.00e+00	0	41	0	134217728	54	6617
2026-01-22 12:04:52.93	29.18	4.75	-40.6	-41.9	20.1	0.00e+00	0	41	0	137363456	54	6135
2026-01-22 12:04:53.94	29.30	4.79	-40.6	-41.8	20.2	0.00e+00	0	41	0	140509184	54	6111
2026-01-22 12:04:54.96	29.41	4.84	-40.5	-41.7	20.2	0.00e+00	0	41	0	143654912	54	6058
2026-01-22 12:04:55.96	29.52	4.89	-40.5	-41.7	20.1	0.00e+00	0	41	0	146800640	54	6005
2026-01-22 12:04:56.98	29.64	4.94	-40.7	-41.9	20.0	0.00e+00	0	41	0	149946368	54	6197
2026-01-22 12:04:57.98	29.75	4.98	-40.3	-41.5	20.5	0.00e+00	0	41	0	153092096	54	5903
2026-01-22 12:04:58.99	29.87	5.03	-40.2	-41.3	20.4	0.00e+00	0	41	0	156237824	54	5781
2026-01-22 12:05:00.00	29.98	5.08	-40.4	-41.6	20.4	0.00e+00	0	41	0	159383552	54	5940
2026-01-22 12:05:01.01	30.10	5.13	-40.1	-41.3	20.5	0.00e+00	0	41	0	162529280	54	5755
2026-01-22 12:05:02.02	30.21	5.17	-39.9	-41.1	20.8	0.00e+00	0	41	0	165675008	54	5601
2026-01-22 12:05:03.03	30.33	5.22	-39.8	-40.9	21.0	0.00e+00	0	41	0	168820736	52	6139
2026-01-22 12:05:04.05	30.44	5.27	-40.4	-41.6	20.4	0.00e+00	0	41	0	171966464	52	6680
2026-01-22 12:05:05.05	30.56	5.31	-40.4	-41.6	20.4	0.00e+00	0	41	0	175112192	52	6666
2026-01-22 12:05:06.06	30.68	5.36	-39.9	-41.0	20.9	0.00e+00	0	41	0	178257920	52	6236
2026-01-22 12:05:07.07	30.79	5.41	-40.1	-41.3	20.7	0.00e+00	0	41	0	181403648	52	6441
2026-01-22 12:05:08.08	30.91	5.46	-40.1	-41.2	20.8	0.00e+00	0	41	0	184549376	52	6394
2026-01-22 12:05:09.09	31.03	5.50	-40.3	-41.4	20.6	0.00e+00	0	41	0	187695104	52	6560
2026-01-22 12:05:10.10	31.15	5.55	-40.0	-41.1	20.9	0.00e+00	0	41	0	190840832	52	6320
2026-01-22 12:05:11.11	31.27	5.60	-40.4	-41.5	20.5	0.00e+00	0	41	0	193986560	52	6637
2026-01-22 12:05:12.12	31.38	5.64	-40.3	-41.5	20.4	0.00e+00	0	41	0	197132288	52	6616
2026-01-22 12:05:13.13	31.50	5.69	-40.4	-41.6	20.5	0.00e+00	0	41	0	200278016	52	6682
2026-01-22 12:05:14.14	31.62	5.74	-40.5	-41.7	20.3	0.00e+00	0	41	0	203423744	52	6754
2026-01-22 12:05:15.15	31.74	5.79	-40.3	-41.4	20.6	0.00e+00	0	41	0	206569472	52	6557
2026-01-22 12:05:16.16	31.86	5.83	-40.3	-41.5	20.5	0.00e+00	0	41	0	209715200	52	6627
2026-01-22 12:05:17.17	31.99	5.88	-40.0	-41.2	20.8	0.00e+00	0	41	0	212860928	52	6383
2026-01-22 12:05:18.17	32.11	5.93	-40.4	-41.5	20.5	0.00e+00	0	41	0	216006656	52	6639
2026-01-22 12:05:19.19	32.23	5.97	-40.3	-41.5	20.5	0.00e+00	0	41	0	219152384	52	6622
2026-01-22 12:05:20.19	32.35	6.02	-40.1	-41.2	20.9	0.00e+00	0	41	0	222298112	52	6409
2026-01-22 12:05:21.20	32.47	6.07	-40.1	-41.3	20.7	0.00e+00	0	41	0	225443840	52	6443
2026-01-22 12:05:22.21	32.59	6.11	-40.4	-41.5	20.5	0.00e+00	0	41	0	228589568	52	6627
2026-01-22 12:05:23.22	32.72	6.16	-40.3	-41.5	20.5	0.00e+00	0	41	0	231735296	52	6608
2026-01-22 12:05:24.23	32.84	6.21	-40.6	-41.8	20.3	0.00e+00	0	41	0	234881024	52	6835
2026-01-22 12:05:25.24	32.96	6.26	-40.6	-41.8	20.3	0.00e+00	0	41	0	238026752	52	6876
2026-01-22 12:05:26.25	33.09	6.30	-40.3	-41.5	20.6	0.00e+00	0	41	0	241172480	52	6609
2026-01-22 12:05:27.26	33.21	6.35	-40.3	-41.5	20.7	0.00e+00	0	41	0	244318208	52	6601
2026-01-22 12:05:28.27	33.34	6.40	-40.4	-41.6	20.5	0.00e+00	0	41	0	247463936	52	6674
2026-01-22 12:05:29.28	33.46	6.44	-40.8	-42.0	20.0	0.00e+00	0	41	0	250609664	54	6273
2026-01-22 12:05:30.29	33.59	6.49	-41.1	-42.4	19.9	0.00e+00	0	41	0	253755392	54	6539
2026-01-22 12:05:31.29	33.71	6.54	-41.1	-42.4	19.8	0.00e+00	0	41	0	256901120	54	6510
2026-01-22 12:05:32.30	33.84	6.58	-41.3	-42.6	19.4	0.00e+00	0	41	0	260046848	54	6689
2026-01-22 12:05:33.31	33.97	6.63	-41.7	-43.1	19.5	0.00e+00	0	41	0	263192576	56	6292
2026-01-22 12:05:34.32	34.10	6.68	-41.4	-42.7	19.4	0.00e+00	0	41	0	266338304	56	6025
2026-01-22 12:05:35.33	34.22	6.72	-41.6	-43.0	19.6	0.00e+00	0	41	0	269484032	56	6207
2026-01-22 12:05:36.34	34.35	6.77	-41.5	-42.8	19.5	0.00e+00	0	41	0	272629760	56	6105
2026-01-22 12:05:37.35	34.48	6.82	-41.2	-42.5	19.9	0.00e+00	0	41	0	275775488	56	5884
2026-01-22 12:05:38.36	34.61	6.86	-41.0	-42.2	20.0	0.00e+00	0	41	0	278921216	54	6374
2026-01-22 12:05:39.37	34.74	6.91	-41.5	-42.8	19.6	0.00e+00	0	41	0	282066944	54	6844
2026-01-22 12:05:40.38	34.87	6.96	-41.2	-42.5	19.8	0.00e+00	0	41	0	285212672	54	6611
2026-01-22 12:05:41.39	35.00	7.00	-41.5	-42.7	19.4	0.00e+00	0	41	0	288358400	54	6795
2026-01-22 12:05:42.40	35.13	7.05	-41.6	-42.9	19.5	0.00e+00	0	41	0	291504128	54	6909
2026-01-22 12:05:43.41	35.26	7.09	-41.3	-42.6	19.5	0.00e+00	0	41	0	294649856	54	6689
2026-01-22 12:05:44.41	35.39	7.14	-41.0	-42.2	20.1	0.00e+00	0	41	0	297795584	54	6403
2026-01-22 12:05:45.42	35.52	7.19	-40.6	-41.8	20.3	0.00e+00	0	41	0	300941312	54	6095
2026-01-22 12:05:46.43	35.65	7.23	-40.2	-41.4	20.8	0.00e+00	0	41	0	304087040	54	5808
2026-01-22 12:05:47.44	35.79	7.28	-40.4	-41.6	20.7	0.00e+00	0	41	0	307232768	54	5931
2026-01-22 12:05:48.45	35.92	7.32	-40.2	-41.4	20.8	0.00e+00	0	41	0	310378496	54	5802
2026-01-22 12:05:49.46	36.05	7.37	-40.3	-41.5	20.7	0.00e+00	0	41	0	313524224	54	5873
2026-01-22 12:05:50.47	36.19	7.42	-40.2	-41.3	20.6	0.00e+00	0	41	0	316669952	54	5779
2026-01-22 12:05:51.48	36.32	7.46	-40.4	-41.6	20.7	0.00e+00	0	41	0	319815680	54	5939
2026-01-22 12:05:52.49	36.45	7.51	-40.3	-41.4	20.7	0.00e+00	0	41	0	322961408	54	5837
2026-01-22 12:05:53.50	36.59	7.55	-39.5	-40.6	21.5	0.00e+00	0	41	0	326107136	52	5943
2026-01-22 12:05:54.51	36.73	7.60	-39.7	-40.7	21.4	0.00e+00	0	41	0	329252864	52	6061
2026-01-22 12:05:55.52	36.86	7.65	-39.6	-40.7	21.4	0.00e+00	0	41	0	332398592	52	6034
2026-01-22 12:05:56.53	37.00	7.69	-39.5	-40.6	21.5	0.00e+00	0	41	0	335544320	52	5981
2026-01-22 12:05:57.54	37.13	7.74	-39.5	-40.6	21.5	0.00e+00	0	41	0	338690048	52	5941
2026-01-22 12:05:58.55	37.27	7.78	-39.6	-40.7	21.5	0.00e+00	0	41	0	342884352	52	6002
2026-01-22 12:05:59.56	37.41	7.83	-39.6	-40.7	21.5	0.00e+00	0	41	0	346030080	52	6019
2026-01-22 12:06:00.57	37.55	7.87	-39.4	-40.5	21.6	0.00e+00	0	41	0	348127232	52	5863
2026-01-22 12:06:01.58	37.68	7.92	-39.3	-40.3	21.7	0.00e+00	0	41	0	351272960	52	5785
2026-01-22 12:06:02.59	37.82	7.96	-39.2	-40.2	21.8	0.00e+00	0	41	0	354418688	52	5700
2026-01-22 12:06:03.60	37.96	8.01	-39.0	-40.0	22.0	0.00e+00	0	41	0	357564416	52	5578
2026-01-22 12:06:04.61	38.10	8.06	-39.0	-40.0	22.0	0.00e+00	0	41	0	361758720	52	5570
2026-01-22 12:06:05.62	38.24	8.10	-39.1	-40.2	21.9	0.00e+00	0	41	0	364904448	52	5661
2026-01-22 12:06:06.62	38.38	8.15	-39.2	-40.3	21.9	0.00e+00	0	41	0	368050176	52	5733
2026-01-22 12:06:07.64	38.52	8.19	-39.2	-40.2	21.8	0.00e+00	0	41	0	370147328	52	5707
2026-01-22 12:06:08.65	38.66	8.24	-39.0	-40.1	22.0	0.00e+00	0	41	0	373293056	52	5599
2026-01-22 12:06:09.65	38.80	8.28	-39.1	-40.2	21.9	0.00e+00	0	41	0	377487360	52	5663
2026-01-22 12:06:10.67	38.95	8.33	-39.1	-40.2	21.9	0.00e+00	0	41	0	380633088	52	5669
2026-01-22 12:06:11.68	39.09	8.37	-39.2	-40.2	22.0	0.00e+00	0	41	0	383778816	52	5694
2026-01-22 12:06:12.69	39.23	8.42	-39.2	-40.3	22.0	0.00e+00	0	41	0	386924544	52	5729
2026-01-22 12:06:13.69	39.37	8.46	-39.1	-40.1	22.0	0.00e+00	0	41	0	390070272	52	5651
2026-01-22 12:06:14.70	39.52	8.50	-39.2	-40.2	21.9	0.00e+00	0	41	0	393216000	52	5704
2026-01-22 12:06:15.71	39.66	8.55	-39.1	-40.2	22.0	0.00e+00	0	41	0	396361728	52	5693
2026-01-22 12:06:16.72	39.81	8.59	-39.5	-40.6	21.6	0.00e+00	0	41	0	399507456	52	5942
2026-01-22 12:06:17.73	39.95	8.64	-39.1	-40.1	22.0	0.00e+00	0	41	0	402653184	52	5638
2026-01-22 12:06:18.74	40.10	8.68	-38.9	-40.0	22.1	0.00e+00	0	41	0	405798912	52	5563
2026-01-22 12:06:19.75	40.24	8.73	-39.0	-40.1	22.0	0.00e+00	0	41	0	408944640	52	5608
2026-01-22 12:06:20.76	40.39	8.77	-39.1	-40.1	22.0	0.00e+00	0	41	0	412090368	52	5639
2026-01-22 12:06:21.77	40.54	8.81	-39.0	-40.0	22.0	0.00e+00	0	41	0	415236096	52	5587
2026-01-22 12:06:22.78	40.68	8.86	-39.2	-40.2	21.9	0.00e+00	0	41	0	418381824	52	5719
2026-01-22 12:06:23.79	40.83	8.90	-39.0	-40.1	22.0	0.00e+00	0	41	0	421527552	52	5612
2026-01-22 12:06:24.80	40.98	8.95	-39.0	-40.1	22.0	0.00e+00	0	41	0	424673280	52	5606
2026-01-22 12:06:25.81	41.13	8.99	-39.0	-40.1	22.0	0.00e+00	0	41	0	427819008	52	5611
2026-01-22 12:06:26.82	41.28	9.03	-39.0	-40.0	22.1	0.00e+00	0	41	0	430964736	52	5593
2026-01-22 12:06:27.83	41.43	9.08	-39.1	-40.1	22.1	0.00e+00	0	41	0	434110464	52	5639
2026-01-22 12:06:28.84	41.58	9.12	-38.9	-39.9	22.4	0.00e+00	0	41	0	437256192	52	5495
2026-01-22 12:06:29.85	41.73	9.16	-39.0	-40.0	22.2	0.00e+00	0	41	0	440401920	52	5570
2026-01-22 12:06:30.86	41.88	9.21	-39.0	-40.1	22.2	0.00e+00	0	41	0	443547648	52	5607
2026-01-22 12:06:31.87	42.03	9.25	-38.9	-39.9	22.3	0.00e+00	0	41	0	446693376	50	6166
2026-01-22 12:06:32.88	42.18	9.29	-38.9	-40.0	22.1	0.00e+00	0	41	0	449839104	50	6217
2026-01-22 12:06:33.89	42.33	9.34	-38.9	-40.0	22.1	0.00e+00	0	41	0	452984832	50	6220
2026-01-22 12:06:34.90	42.48	9.38	-39.4	-40.5	21.8	0.00e+00	0	41	0	456130560	50	6610
2026-01-22 12:06:35.91	42.64	9.42	-39.3	-40.4	21.7	0.00e+00	0	41	0	459276288	50	6516
2026-01-22 12:06:36.92	42.79	9.46	-38.9	-40.0	22.1	0.00e+00	0	41	0	462422016	50	6234
2026-01-22 12:06:37.93	42.94	9.51	-39.1	-40.2	22.0	0.00e+00	0	41	0	465567744	50	6351
2026-01-22 12:06:38.94	43.10	9.55	-38.8	-39.8	22.3	0.00e+00	0	41	0	468713472	50	6132
2026-01-22 12:06:39.95	43.25	9.59	-38.9	-39.9	22.3	0.00e+00	0	41	0	471859200	50	6169
2026-01-22 12:06:40.96	43.41	9.63	-38.9	-39.9	22.3	0.00e+00	0	41	0	475004928	50	6175
2026-01-22 12:06:41.97	43.56	9.68	-38.7	-39.7	22.3	0.00e+00	0	41	0	478150656	50	6057
2026-01-22 12:06:42.97	43.72	9.72	-38.8	-39.8	22.3	0.00e+00	0	41	0	481296384	50	6079
2026-01-22 12:06:43.98	43.87	9.76	-38.7	-39.7	22.3	0.00e+00	0	41	0	484442112	50	6063
2026-01-22 12:06:44.99	44.03	9.80	-38.8	-39.8	22.3	0.00e+00	0	41	0	487587840	50	6091
2026-01-22 12:06:46.01	44.19	9.84	-39.0	-40.0	22.2	0.00e+00	0	41	0	490733568	50	6260
2026-01-22 12:06:47.01	44.34	9.88	-38.9	-39.9	22.3	0.00e+00	0	41	0	493879296	50	6193
2026-01-22 12:06:48.02	44.50	9.93	-38.9	-40.0	22.3	0.00e+00	0	41	0	497025024	50	6222
2026-01-22 12:06:49.03	44.66	9.97	-38.8	-39.8	22.3	0.00e+00	0	41	0	500170752	50	6110
2026-01-22 12:06:50.04	44.82	10.01	-38.7	-39.7	22.5	0.00e+00	0	41	0	503316480	50	6015
2026-01-22 12:06:51.05	44.98	10.05	-38.6	-39.6	22.6	0.00e+00	0	41	0	506462208	50	5966
2026-01-22 12:06:52.06	45.14	10.09	-38.6	-39.6	22.5	0.00e+00	0	41	0	509607936	50	5941
2026-01-22 12:06:53.07	45.30	10.13	-38.7	-39.7	22.5	0.00e+00	0	41	0	512753664	50	6031
2026-01-22 12:06:54.08	45.46	10.17	-38.7	-39.7	22.3	0.00e+00	0	41	0	515899392	50	6048
2026-01-22 12:06:55.09	45.62	10.21	-38.8	-39.8	22.4	0.00e+00	0	41	0	519045120	50	6077
2026-01-22 12:06:56.10	45.78	10.25	-38.9	-39.9	22.3	0.00e+00	0	41	0	522190848	50	6160
2026-01-22 12:06:57.11	45.94	10.29	-38.8	-39.8	22.5	0.00e+00	0	41	0	525336576	50	6085
2026-01-22 12:06:58.12	46.10	10.33	-38.6	-39.6	22.4	0.00e+00	0	41	0	528482304	50	5994
2026-01-22 12:06:59.13	46.27	10.37	-38.6	-39.6	22.5	0.00e+00	0	41	0	531628032	50	5948
2026-01-22 12:07:00.14	46.43	10.41	-38.9	-39.9	22.2	0.00e+00	0	41	0	534773760	50	6188
2026-01-22 12:07:01.15	46.59	10.45	-38.6	-39.6	22.5	0.00e+00	0	41	0	537919488	50	5993
2026-01-22 12:07:02.16	46.76	10.49	-38.6	-39.6	22.5	0.00e+00	0	41	0	541065216	50	5957
2026-01-22 12:07:03.17	46.92	10.53	-39.0	-40.0	22.2	0.00e+00	0	41	0	544210944	50	6247
2026-01-22 12:07:04.18	47.09	10.57	-39.1	-40.2	22.0	0.00e+00	0	41	0	547356672	50	6386
2026-01-22 12:07:05.19	47.25	10.61	-39.1	-40.1	22.1	0.00e+00	0	41	0	550502400	50	6324
2026-01-22 12:07:06.20	47.42	10.65	-38.8	-39.8	22.3	0.00e+00	0	41	0	553648128	50	6133
2026-01-22 12:07:07.21	47.58	10.69	-38.8	-39.8	22.3	0.00e+00	0	41	0	556793856	50	6084
2026-01-22 12:07:08.22	47.75	10.73	-38.8	-39.8	22.3	0.00e+00	0	41	0	559939584	50	6094
2026-01-22 12:07:09.23	47.92	10.77	-39.0	-40.0	22.3	0.00e+00	0	41	0	563085312	50	6263
2026-01-22 12:07:10.24	48.09	10.80	-38.9	-39.9	22.3	0.00e+00	0	42	0	566231040	50	6180
2026-01-22 12:07:11.25	48.25	10.84	-38.9	-39.9	22.3	0.00e+00	0	42	0	569376768	50	6191
2026-01-22 12:07:12.26	48.42	10.88	-38.6	-39.6	22.4	0.00e+00	0	42	0	572522496	50	5991
2026-01-22 12:07:13.27	48.59	10.92	-38.7	-39.8	22.4	0.00e+00	0	41	0	575668224	50	6068
2026-01-22 12:07:14.28	48.76	10.96	-38.7	-39.7	22.4	0.00e+00	0	42	0	578813952	50	6044
2026-01-22 12:07:15.29	48.93	10.99	-38.7	-39.7	22.4	0.00e+00	0	41	0	581959680	50	6048
2026-01-22 12:07:16.30	49.10	11.03	-38.6	-39.6	22.5	0.00e+00	0	41	0	585105408	50	5943
2026-01-22 12:07:17.31	49.27	11.07	-38.5	-39.5	22.6	0.00e+00	0	41	0	588251136	50	5896
2026-01-22 12:07:18.32	49.44	11.11	-38.8	-39.8	22.4	0.00e+00	0	42	0	591396864	50	6073
2026-01-22 12:07:19.33	49.61	11.14	-38.6	-39.7	22.5	0.00e+00	0	42	0	594542592	50	6004
2026-01-22 12:07:20.34	49.78	11.18	-38.7	-39.7	22.5	0.00e+00	0	41	0	597688320	50	6020
2026-01-22 12:07:21.35	49.96	11.22	-38.8	-39.8	22.3	0.00e+00	0	42	0	600834048	50	6121
2026-01-22 12:07:22.36	50.13	11.25	-38.5	-39.5	22.6	0.00e+00	0	42	0	603979776	50	5882
2026-01-22 12:07:23.37	50.30	11.29	-38.6	-39.6	22.6	0.00e+00	0	42	0	607125504	50	5963
2026-01-22 12:07:24.37	50.47	11.32	-38.8	-39.8	22.4	0.00e+00	0	41	0	610271232	50	6104
2026-01-22 12:07:25.38	50.65	11.36	-38.7	-39.7	22.4	0.00e+00	0	42	0	613416960	50	6019
2026-01-22 12:07:26.39	50.82	11.40	-38.8	-39.8	22.4	0.00e+00	0	42	0	616562688	50	6081
2026-01-22 12:07:27.40	51.00	11.43	-38.8	-39.8	22.3	0.00e+00	0	42	0	619708416	50	6076
2026-01-22 12:07:28.41	51.17	11.47	-38.8	-39.8	22.3	0.00e+00	0	42	0	622854144	50	6119
2026-01-22 12:07:29.42	51.35	11.50	-38.6	-39.6	22.4	0.00e+00	0	41	0	625999872	50	5943
2026-01-22 12:07:30.43	51.52	11.54	-38.4	-39.4	22.6	0.00e+00	0	42	0	629145600	50	5842
2026-01-22 12:07:31.44	51.70	11.57	-38.6	-39.6	22.4	0.00e+00	0	42	0	632291328	50	5929
2026-01-22 12:07:32.45	51.88	11.61	-38.7	-39.7	22.3	0.00e+00	0	41	0	635437056	50	6023
2026-01-22 12:07:33.46	52.05	11.64	-38.6	-39.6	22.4	0.00e+00	0	42	0	638582784	50	5978
2026-01-22 12:07:34.48	52.23	11.68	-38.7	-39.7	22.4	0.00e+00	0	42	0	641728512	50	6026
2026-01-22 12:07:35.49	52.41	11.71	-38.7	-39.8	22.5	0.00e+00	0	42	0	644874240	50	6086
2026-01-22 12:07:36.50	52.59	11.74	-38.6	-39.6	22.5	0.00e+00	0	42	0	648019968	50	5989
2026-01-22 12:07:37.51	52.77	11.78	-38.6	-39.6	22.5	0.00e+00	0	42	0	651165696	50	5972
2026-01-22 12:07:38.52	52.95	11.81	-38.6	-39.6	22.5	0.00e+00	0	42	0	654311424	50	5949
2026-01-22 12:07:39.53	53.12	11.84	-38.6	-39.6	22.6	0.00e+00	0	41	0	657457152	50	5927
2026-01-22 12:07:40.54	53.30	11.88	-38.9	-39.9	22.4	0.00e+00	0	41	0	660602880	50	6150
2026-01-22 12:07:41.55	53.48	11.91	-39.2	-40.2	22.3	0.00e+00	0	42	0	663748608	50	6409
2026-01-22 12:07:42.56	53.67	11.94	-38.8	-39.8	22.4	0.00e+00	0	42	0	666894336	50	6111
2026-01-22 12:07:43.57	53.85	11.98	-38.7	-39.8	22.4	0.00e+00	0	42	0	670040064	50	6069
2026-01-22 12:07:44.58	54.03	12.01	-38.8	-39.8	22.4	0.00e+00	0	41	0	673185792	50	6126
2026-01-22 12:07:45.59	54.21	12.04	-39.1	-40.2	22.3	0.00e+00	0	42	0	676331520	50	6377
2026-01-22 12:07:46.60	54.39	12.07	-38.9	-39.9	22.4	0.00e+00	0	42	0	680525824	50	6162
2026-01-22 12:07:47.61	54.57	12.10	-38.7	-39.7	22.6	0.00e+00	0	42	0	683671552	50	6035
2026-01-22 12:07:48.62	54.76	12.13	-38.5	-39.5	22.7	0.00e+00	0	42	0	686817280	50	5903
2026-01-22 12:07:49.64	54.94	12.17	-38.4	-39.4	22.8	0.00e+00	0	42	0	688914432	50	5818
2026-01-22 12:07:50.65	55.13	12.20	-38.6	-39.6	22.6	0.00e+00	0	41	0	692060160	50	5972
2026-01-22 12:07:51.65	55.31	12.23	-38.6	-39.6	22.7	0.00e+00	0	42	0	696254464	50	5949
2026-01-22 12:07:52.66	55.49	12.26	-38.5	-39.5	22.5	0.00e+00	0	42	0	699400192	50	5908
2026-01-22 12:07:53.67	55.68	12.29	-38.6	-39.6	22.6	0.00e+00	0	42	0	702545920	50	5977
2026-01-22 12:07:54.68	55.86	12.32	-38.7	-39.7	22.5	0.00e+00	0	42	0	705691648	50	6042
2026-01-22 12:07:55.69	56.05	12.35	-38.6	-39.7	22.5	0.00e+00	0	42	0	708837376	50	5998
2026-01-22 12:07:56.70	56.23	12.38	-38.6	-39.6	22.6	0.00e+00	0	41	0	711983104	50	5959
2026-01-22 12:07:57.71	56.42	12.41	-38.7	-39.7	22.5	0.00e+00	0	42	0	715128832	50	6033
2026-01-22 12:07:58.72	56.61	12.43	-38.8	-39.8	22.4	0.00e+00	0	41	0	718274560	50	6078
2026-01-22 12:07:59.73	56.80	12.46	-39.2	-40.2	22.1	0.00e+00	0	41	0	721420288	50	6399
2026-01-22 12:08:00.74	56.98	12.49	-38.6	-39.6	22.5	0.00e+00	0	42	0	724566016	50	5931
2026-01-22 12:08:01.75	57.17	12.52	-38.6	-39.6	22.6	0.00e+00	0	42	0	727711744	50	5945
2026-01-22 12:08:02.76	57.36	12.55	-38.6	-39.6	22.7	0.00e+00	0	42	0	730857472	50	5932
2026-01-22 12:08:03.77	57.55	12.58	-38.7	-39.7	22.5	0.00e+00	0	42	0	734003200	50	6032
2026-01-22 12:08:04.78	57.74	12.60	-38.5	-39.5	22.6	0.00e+00	0	42	0	737148928	50	5911
2026-01-22 12:08:05.79	57.92	12.63	-38.6	-39.6	22.6	0.00e+00	0	42	0	740294656	50	5934
2026-01-22 12:08:06.80	58.11	12.66	-38.8	-39.8	22.3	0.00e+00	0	42	0	743440384	50	6080
2026-01-22 12:08:07.81	58.30	12.68	-38.7	-39.7	22.4	0.00e+00	0	41	0	746586112	50	6038
2026-01-22 12:08:08.82	58.49	12.71	-38.4	-39.3	22.7	0.00e+00	0	42	0	749731840	50	5772
2026-01-22 12:08:09.83	58.68	12.74	-38.4	-39.5	22.7	0.00e+00	0	42	0	752877568	50	5860
2026-01-22 12:08:10.83	58.87	12.76	-38.7	-39.7	22.5	0.00e+00	0	42	0	756023296	50	6026
2026-01-22 12:08:11.85	59.07	12.79	-38.5	-39.5	22.7	0.00e+00	0	42	0	759169024	50	5909
2026-01-22 12:08:12.85	59.26	12.81	-38.8	-39.8	22.5	0.00e+00	0	41	0	762314752	50	6073
2026-01-22 12:08:13.86	59.45	12.84	-38.5	-39.5	22.7	0.00e+00	0	42	0	765460480	50	5892
2026-01-22 12:08:14.87	59.64	12.87	-38.6	-39.6	22.6	0.00e+00	0	42	0	768606208	50	5978
2026-01-22 12:08:15.88	59.83	12.89	-38.8	-39.8	22.4	0.00e+00	0	42	0	771751936	50	6112
2026-01-22 12:08:16.89	60.03	12.91	-38.8	-39.8	22.3	0.00e+00	0	42	0	774897664	50	6132
2026-01-22 12:08:17.90	60.22	12.94	-38.2	-39.2	22.6	0.00e+00	0	42	0	778043392	50	5677
2026-01-22 12:08:18.91	60.41	12.96	-38.4	-39.4	22.7	0.00e+00	0	42	0	781189120	50	5851
2026-01-22 12:08:19.92	60.61	12.99	-38.7	-39.8	22.4	0.00e+00	0	42	0	784334848	50	6069
2026-01-22 12:08:20.93	60.80	13.01	-38.5	-39.5	22.6	0.00e+00	0	42	0	787480576	50	5868
2026-01-22 12:08:21.94	60.99	13.03	-38.4	-39.3	22.7	0.00e+00	0	41	0	790626304	50	5787
2026-01-22 12:08:22.95	61.19	13.06	-38.4	-39.4	22.7	0.00e+00	0	42	0	793772032	50	5827
2026-01-22 12:08:23.96	61.38	13.08	-38.2	-39.2	22.9	0.00e+00	0	42	0	796917760	50	5688
2026-01-22 12:08:24.97	61.58	13.10	-38.1	-39.1	23.0	0.00e+00	0	41	0	800063488	50	5602
2026-01-22 12:08:25.98	61.77	13.12	-38.1	-39.0	23.1	0.00e+00	0	42	0	803209216	50	5593
2026-01-22 12:08:26.99	61.97	13.14	-38.3	-39.2	22.9	0.00e+00	0	42	0	806354944	50	5716
2026-01-22 12:08:28.00	62.17	13.17	-38.3	-39.3	22.8	0.00e+00	0	41	0	809500672	50	5766
2026-01-22 12:08:29.01	62.36	13.19	-38.4	-39.3	22.8	0.00e+00	0	42	0	812646400	50	5779
2026-01-22 12:08:30.02	62.56	13.21	-38.6	-39.6	22.5	0.00e+00	0	42	0	815792128	50	5945
2026-01-22 12:08:31.03	62.76	13.23	-38.4	-39.4	22.6	0.00e+00	0	42	0	818937856	50	5853
2026-01-22 12:08:32.04	62.95	13.25	-38.6	-39.6	22.4	0.00e+00	0	42	0	822083584	50	5967
2026-01-22 12:08:33.05	63.15	13.27	-38.7	-39.7	22.4	0.00e+00	0	41	0	825229312	50	6044
2026-01-22 12:08:34.06	63.35	13.29	-38.4	-39.4	22.6	0.00e+00	0	42	0	828375040	50	5812
2026-01-22 12:08:35.07	63.55	13.31	-38.2	-39.2	22.8	0.00e+00	0	42	0	831520768	50	5673
2026-01-22 12:08:36.08	63.74	13.33	-38.0	-38.9	23.0	0.00e+00	0	42	0	834666496	50	5528
2026-01-22 12:08:37.09	63.94	13.34	-38.0	-39.0	23.0	0.00e+00	0	42	0	837812224	50	5550
2026-01-22 12:08:38.10	64.14	13.36	-37.9	-38.8	23.1	0.00e+00	0	42	0	840957952	50	5447
2026-01-22 12:08:39.11	64.34	13.38	-37.8	-38.8	23.1	0.00e+00	0	41	0	844103680	50	5416
2026-01-22 12:08:40.12	64.54	13.40	-37.9	-38.9	23.0	0.00e+00	0	41	0	847249408	50	5502
2026-01-22 12:08:41.13	64.74	13.42	-38.3	-39.2	22.8	0.00e+00	0	41	0	850395136	50	5722
2026-01-22 12:08:42.14	64.94	13.43	-38.2	-39.1	22.8	0.00e+00	0	41	0	853540864	50	5654
2026-01-22 12:08:43.15	65.14	13.45	-38.4	-39.4	22.6	0.00e+00	0	42	0	856686592	50	5805
2026-01-22 12:08:44.16	65.34	13.47	-38.5	-39.5	22.6	0.00e+00	0	42	0	859832320	50	5884
2026-01-22 12:08:45.17	65.54	13.48	-38.3	-39.3	22.7	0.00e+00	0	42	0	862978048	50	5758
2026-01-22 12:08:46.18	65.74	13.50	-38.2	-39.2	22.8	0.00e+00	0	41	0	866123776	50	5690
2026-01-22 12:08:47.19	65.94	13.52	-38.2	-39.1	22.9	0.00e+00	0	42	0	869269504	50	5659
2026-01-22 12:08:48.19	66.14	13.53	-38.2	-39.2	22.9	0.00e+00	0	42	0	872415232	50	5687
2026-01-22 12:08:49.20	66.34	13.55	-38.4	-39.4	22.7	0.00e+00	0	42	0	875560960	50	5819
2026-01-22 12:08:50.21	66.54	13.56	-38.2	-39.2	22.8	0.00e+00	0	42	0	878706688	50	5680
2026-01-22 12:08:51.22	66.74	13.58	-38.2	-39.2	22.8	0.00e+00	0	42	0	881852416	50	5692
2026-01-22 12:08:52.23	66.94	13.59	-38.2	-39.1	23.0	0.00e+00	0	42	0	884998144	50	5650
2026-01-22 12:08:53.25	67.15	13.60	-38.4	-39.4	22.7	0.00e+00	0	42	0	888143872	50	5795
2026-01-22 12:08:54.26	67.35	13.62	-38.2	-39.2	22.9	0.00e+00	0	42	0	891289600	50	5716
2026-01-22 12:08:55.27	67.55	13.63	-38.3	-39.3	22.7	0.00e+00	0	42	0	894435328	50	5779
2026-01-22 12:08:56.28	67.75	13.64	-38.2	-39.2	22.9	0.00e+00	0	42	0	897581056	50	5703
2026-01-22 12:08:57.29	67.96	13.66	-38.3	-39.3	22.8	0.00e+00	0	42	0	900726784	50	5783
2026-01-22 12:08:58.30	68.16	13.67	-38.5	-39.5	22.7	0.00e+00	0	42	0	903872512	50	5873
2026-01-22 12:08:59.31	68.36	13.68	-38.4	-39.4	22.7	0.00e+00	0	42	0	907018240	50	5800
2026-01-22 12:09:00.32	68.57	13.69	-38.3	-39.3	22.8	0.00e+00	0	42	0	910163968	50	5737
2026-01-22 12:09:01.33	68.77	13.70	-38.2	-39.2	22.9	0.00e+00	0	42	0	913309696	50	5689
2026-01-22 12:09:02.34	68.97	13.71	-38.4	-39.4	22.6	0.00e+00	0	42	0	916455424	50	5837
2026-01-22 12:09:03.35	69.18	13.73	-38.2	-39.2	22.9	0.00e+00	0	42	0	919601152	50	5696
2026-01-22 12:09:04.36	69.38	13.74	-38.1	-39.1	23.0	0.00e+00	0	42	0	922746880	50	5616
2026-01-22 12:09:05.37	69.58	13.75	-38.3	-39.3	23.0	0.00e+00	0	42	0	925892608	50	5733
2026-01-22 12:09:06.38	69.79	13.76	-38.1	-39.0	23.0	0.00e+00	0	42	0	929038336	50	5591
2026-01-22 12:09:07.39	69.99	13.76	-37.9	-38.9	23.1	0.00e+00	0	42	0	932184064	50	5502
2026-01-22 12:09:08.40	70.20	13.77	-38.2	-39.1	22.9	0.00e+00	0	42	0	935329792	50	5653
2026-01-22 12:09:09.41	70.40	13.78	-38.1	-39.0	23.0	0.00e+00	0	42	0	938475520	50	5593
2026-01-22 12:09:10.42	70.61	13.79	-38.1	-39.1	23.0	0.00e+00	0	42	0	941621248	50	5639
2026-01-22 12:09:11.43	70.81	13.80	-38.2	-39.1	23.0	0.00e+00	0	42	0	944766976	50	5650
2026-01-22 12:09:12.44	71.01	13.81	-38.2	-39.2	23.0	0.00e+00	0	42	0	947912704	50	5685
2026-01-22 12:09:13.44	71.22	13.81	-38.2	-39.2	22.9	0.00e+00	0	42	0	951058432	50	5662
2026-01-22 12:09:14.45	71.42	13.82	-38.2	-39.2	22.9	0.00e+00	0	42	0	954204160	50	5693
2026-01-22 12:09:15.47	71.63	13.83	-38.3	-39.2	23.0	0.00e+00	0	42	0	957349888	50	5718
2026-01-22 12:09:16.47	71.83	13.83	-38.2	-39.2	22.9	0.00e+00	0	42	0	960495616	50	5669
2026-01-22 12:09:17.48	72.04	13.84	-38.2	-39.2	22.9	0.00e+00	0	42	0	963641344	50	5678
2026-01-22 12:09:18.49	72.24	13.85	-38.2	-39.2	22.8	0.00e+00	0	42	0	966787072	50	5699
2026-01-22 12:09:19.50	72.45	13.85	-38.5	-39.4	22.8	0.00e+00	0	42	0	969932800	50	5858
2026-01-22 12:09:20.51	72.65	13.86	-38.1	-39.1	23.0	0.00e+00	0	42	0	973078528	50	5616
2026-01-22 12:09:21.53	72.86	13.86	-38.0	-39.0	23.0	0.00e+00	0	42	0	976224256	50	5582
2026-01-22 12:09:22.54	73.07	13.86	-38.0	-39.0	23.1	0.00e+00	0	42	0	979369984	50	5564
2026-01-22 12:09:23.55	73.27	13.87	-38.1	-39.1	23.0	0.00e+00	0	42	0	982515712	50	5643
2026-01-22 12:09:24.56	73.48	13.87	-38.1	-39.1	23.0	0.00e+00	0	42	0	985661440	50	5635
2026-01-22 12:09:25.56	73.68	13.88	-38.0	-39.0	23.1	0.00e+00	0	42	0	988807168	50	5532
2026-01-22 12:09:26.58	73.89	13.88	-38.0	-39.0	23.1	0.00e+00	0	42	0	991952896	50	5563
2026-01-22 12:09:27.59	74.10	13.88	-38.0	-39.0	23.1	0.00e+00	0	42	0	995098624	50	5534
2026-01-22 12:09:28.60	74.30	13.88	-38.1	-39.1	23.0	0.00e+00	0	42	0	999292928	50	5597
2026-01-22 12:09:29.61	74.51	13.89	-38.1	-39.0	23.0	0.00e+00	0	42	0	1002438656	50	5583
2026-01-22 12:09:30.62	74.71	13.89	-38.2	-39.2	22.9	0.00e+00	0	42	0	1004535808	50	5666
2026-01-22 12:09:31.63	74.92	13.89	-38.4	-39.4	22.7	0.00e+00	0	42	0	1007681536	50	5793
2026-01-22 12:09:32.64	75.13	13.89	-38.1	-39.1	23.0	0.00e+00	0	42	0	1010827264	50	5620
2026-01-22 12:09:33.65	75.33	13.89	-38.3	-39.3	22.9	0.00e+00	0	42	0	1013972992	50	5753
2026-01-22 12:09:34.66	75.54	13.89	-38.1	-39.1	23.0	0.00e+00	0	42	0	1018167296	50	5636
2026-01-22 12:09:35.67	75.74	13.89	-37.9	-38.8	23.2	0.00e+00	0	42	0	1021313024	50	5459
2026-01-22 12:09:36.67	75.95	13.89	-38.1	-39.0	23.1	0.00e+00	0	42	0	1024458752	50	5586
2026-01-22 12:09:37.68	76.15	13.89	-38.0	-39.0	22.9	0.00e+00	0	42	0	1027604480	50	5551
2026-01-22 12:09:38.69	76.36	13.89	-38.0	-39.0	23.2	0.00e+00	0	42	0	1029701632	50	5535
2026-01-22 12:09:39.70	76.57	13.89	-38.1	-39.0	23.0	0.00e+00	0	42	0	1033895936	50	5588
2026-01-22 12:09:40.71	76.77	13.88	-38.3	-39.2	23.0	0.00e+00	0	42	0	1037041664	50	5720
2026-01-22 12:09:41.72	76.98	13.88	-38.1	-39.1	23.1	0.00e+00	0	42	0	1040187392	50	5629
2026-01-22 12:09:42.73	77.18	13.88	-38.1	-39.0	23.1	0.00e+00	0	42	0	1043333120	50	5582
2026-01-22 12:09:43.74	77.39	13.88	-38.1	-39.1	23.1	0.00e+00	0	42	0	1046478848	50	5621
2026-01-22 12:09:44.75	77.60	13.87	-38.2	-39.2	22.9	0.00e+00	0	42	0	1049624576	50	5660
2026-01-22 12:09:45.76	77.80	13.87	-38.2	-39.2	22.9	0.00e+00	0	42	0	1052770304	50	5678
2026-01-22 12:09:46.77	78.01	13.87	-38.2	-39.2	22.9	0.00e+00	0	42	0	1055916032	50	5689
2026-01-22 12:09:47.77	78.21	13.86	-38.4	-39.4	22.8	0.00e+00	0	42	0	1059061760	50	5802
2026-01-22 12:09:48.79	78.42	13.86	-38.4	-39.4	22.7	0.00e+00	0	42	0	1062207488	50	5794
2026-01-22 12:09:49.80	78.62	13.85	-38.3	-39.3	22.7	0.00e+00	0	42	0	1065353216	50	5730
2026-01-22 12:09:50.81	78.83	13.85	-38.2	-39.2	22.8	0.00e+00	0	42	0	1068498944	50	5669
2026-01-22 12:09:51.82	79.03	13.84	-38.3	-39.4	22.7	0.00e+00	0	42	0	1071644672	50	5792
2026-01-22 12:09:52.83	79.24	13.84	-38.3	-39.3	22.8	0.00e+00	0	42	0	1074790400	50	5743
2026-01-22 12:09:53.84	79.45	13.83	-38.3	-39.3	22.7	0.00e+00	0	42	0	1077936128	50	5754
2026-01-22 12:09:54.85	79.65	13.82	-38.2	-39.2	22.8	0.00e+00	0	42	0	1081081856	50	5715
2026-01-22 12:09:55.86	79.86	13.82	-38.4	-39.5	22.6	0.00e+00	0	42	0	1084227584	50	5862
2026-01-22 12:09:56.87	80.06	13.81	-38.1	-39.1	23.0	0.00e+00	0	42	0	1087373312	50	5614
2026-01-22 12:09:57.87	80.26	13.80	-38.2	-39.2	22.9	0.00e+00	0	42	0	1090519040	50	5695
2026-01-22 12:09:58.89	80.47	13.79	-38.2	-39.2	22.8	0.00e+00	0	42	0	1093664768	50	5686
2026-01-22 12:09:59.90	80.68	13.79	-38.0	-39.0	23.0	0.00e+00	0	42	0	1096810496	50	5543
2026-01-22 12:10:00.90	80.88	13.78	-38.0	-39.0	23.0	0.00e+00	0	42	0	1099956224	50	5546
2026-01-22 12:10:01.91	81.08	13.77	-38.1	-39.1	22.8	0.00e+00	0	42	0	1103101952	50	5634
2026-01-22 12:10:02.92	81.29	13.76	-38.1	-39.1	22.8	0.00e+00	0	42	0	1106247680	50	5642
2026-01-22 12:10:03.94	81.49	13.75	-38.1	-39.1	22.8	0.00e+00	0	42	0	1109393408	50	5626
2026-01-22 12:10:04.95	81.70	13.74	-38.2	-39.2	22.8	0.00e+00	0	42	0	1112539136	50	5717
2026-01-22 12:10:05.96	81.90	13.73	-38.2	-39.2	22.8	0.00e+00	0	42	0	1115684864	50	5673
2026-01-22 12:10:06.97	82.11	13.72	-37.9	-38.9	23.1	0.00e+00	0	42	0	1118830592	50	5485
2026-01-22 12:10:07.98	82.31	13.71	-37.8	-38.8	23.2	0.00e+00	0	42	0	1121976320	50	5423
2026-01-22 12:10:08.99	82.51	13.70	-37.8	-38.8	23.1	0.00e+00	0	42	0	1125122048	48	6084
2026-01-22 12:10:10.00	82.72	13.69	-37.7	-38.7	23.2	0.00e+00	0	42	0	1128267776	48	6020
2026-01-22 12:10:11.01	82.92	13.67	-37.9	-38.9	23.1	0.00e+00	0	42	0	1131413504	48	6146
2026-01-22 12:10:12.02	83.12	13.66	-37.8	-38.8	23.1	0.00e+00	0	42	0	1134559232	48	6108
2026-01-22 12:10:13.03	83.33	13.65	-38.2	-39.2	23.0	0.00e+00	0	42	0	1137704960	48	6367
2026-01-22 12:10:14.04	83.53	13.64	-37.9	-38.9	23.1	0.00e+00	0	42	0	1140850688	48	6187
2026-01-22 12:10:15.05	83.73	13.62	-37.9	-38.9	23.2	0.00e+00	0	42	0	1143996416	48	6146
2026-01-22 12:10:16.06	83.93	13.61	-37.9	-38.9	23.1	0.00e+00	0	42	0	1147142144	48	6189
2026-01-22 12:10:17.07	84.14	13.60	-38.1	-39.1	23.0	0.00e+00	0	42	0	1150287872	48	6290
2026-01-22 12:10:18.08	84.34	13.58	-37.9	-38.9	23.2	0.00e+00	0	42	0	1153433600	48	6153
2026-01-22 12:10:19.09	84.54	13.57	-38.1	-39.0	23.1	0.00e+00	0	42	0	1156579328	48	6266
2026-01-22 12:10:20.10	84.74	13.55	-38.1	-39.1	23.0	0.00e+00	0	42	0	1159725056	48	6297
2026-01-22 12:10:21.11	84.94	13.54	-38.1	-39.1	23.0	0.00e+00	0	42	0	1162870784	48	6332
2026-01-22 12:10:22.12	85.15	13.52	-38.1	-39.0	23.0	0.00e+00	0	42	0	1166016512	48	6267
2026-01-22 12:10:23.13	85.35	13.51	-38.2	-39.2	23.0	0.00e+00	0	42	0	1169162240	48	6371
2026-01-22 12:10:24.14	85.55	13.49	-38.1	-39.1	23.0	0.00e+00	0	42	0	1172307968	48	6308
2026-01-22 12:10:25.15	85.75	13.48	-38.0	-39.0	23.1	0.00e+00	0	42	0	1175453696	48	6241
2026-01-22 12:10:26.16	85.95	13.46	-37.8	-38.8	23.2	0.00e+00	0	42	0	1178599424	48	6077
2026-01-22 12:10:27.17	86.15	13.44	-37.9	-38.9	23.1	0.00e+00	0	42	0	1181745152	48	6171
2026-01-22 12:10:28.18	86.35	13.42	-38.1	-39.1	23.0	0.00e+00	0	42	0	1184890880	48	6282
2026-01-22 12:10:29.19	86.55	13.41	-37.9	-38.9	23.1	0.00e+00	0	42	0	1188036608	48	6168
2026-01-22 12:10:30.20	86.75	13.39	-38.0	-39.0	23.1	0.00e+00	0	42	0	1191182336	48	6268
2026-01-22 12:10:31.20	86.95	13.37	-38.0	-38.9	23.1	0.00e+00	0	42	0	1194328064	48	6203
2026-01-22 12:10:32.22	87.15	13.35	-38.1	-39.0	23.1	0.00e+00	0	42	0	1197473792	48	6257
2026-01-22 12:10:33.23	87.35	13.33	-37.9	-38.9	23.2	0.00e+00	0	42	0	1200619520	48	6140
2026-01-22 12:10:34.24	87.55	13.32	-37.9	-38.8	23.2	0.00e+00	0	42	0	1203765248	48	6106
2026-01-22 12:10:35.24	87.74	13.30	-38.0	-39.0	23.1	0.00e+00	0	42	0	1206910976	48	6227
2026-01-22 12:10:36.25	87.94	13.28	-38.0	-39.0	23.1	0.00e+00	0	42	0	1210056704	48	6224
2026-01-22 12:10:37.26	88.14	13.26	-38.1	-39.1	23.0	0.00e+00	0	42	0	1213202432	48	6314
2026-01-22 12:10:38.27	88.34	13.24	-38.1	-39.1	23.0	0.00e+00	0	42	0	1216348160	48	6320
2026-01-22 12:10:39.28	88.53	13.22	-38.2	-39.2	22.8	0.00e+00	0	42	0	1219493888	48	6387
2026-01-22 12:10:40.29	88.73	13.20	-38.1	-39.1	23.0	0.00e+00	0	42	0	1222639616	48	6291
2026-01-22 12:10:41.30	88.93	13.17	-38.0	-39.0	23.0	0.00e+00	0	42	0	1225785344	48	6250
2026-01-22 12:10:42.31	89.12	13.15	-38.2	-39.2	23.0	0.00e+00	0	42	0	1228931072	48	6354
2026-01-22 12:10:43.32	89.32	13.13	-38.2	-39.2	22.9	0.00e+00	0	42	0	1232076800	48	6384
2026-01-22 12:10:44.33	89.52	13.11	-38.1	-39.1	23.0	0.00e+00	0	42	0	1235222528	48	6294
2026-01-22 12:10:45.34	89.71	13.09	-38.3	-39.2	22.9	0.00e+00	0	42	0	1238368256	48	6423
2026-01-22 12:10:46.35	89.91	13.06	-38.1	-39.1	23.0	0.00e+00	0	42	0	1241513984	48	6330
2026-01-22 12:10:47.36	90.10	13.04	-37.9	-38.9	23.2	0.00e+00	0	42	0	1244659712	48	6147
2026-01-22 12:10:48.37	90.30	13.02	-38.1	-39.1	23.1	0.00e+00	0	42	0	1247805440	48	6301
2026-01-22 12:10:49.38	90.49	13.00	-38.3	-39.3	22.8	0.00e+00	0	42	0	1250951168	48	6448
2026-01-22 12:10:50.39	90.69	12.97	-38.2	-39.2	22.9	0.00e+00	0	42	0	1254096896	48	6380
2026-01-22 12:10:51.40	90.88	12.95	-38.2	-39.2	22.9	0.00e+00	0	42	0	1257242624	48	6393
2026-01-22 12:10:52.41	91.08	12.92	-38.4	-39.4	22.7	0.00e+00	0	42	0	1260388352	48	6527
2026-01-22 12:10:53.42	91.27	12.90	-38.4	-39.4	22.8	0.00e+00	0	42	0	1263534080	48	6516
2026-01-22 12:10:54.43	91.46	12.87	-38.6	-39.6	22.6	0.00e+00	0	42	0	1266679808	48	6673
2026-01-22 12:10:55.44	91.66	12.85	-38.3	-39.3	22.8	0.00e+00	0	42	0	1269825536	48	6434
2026-01-22 12:10:56.45	91.85	12.82	-38.3	-39.4	22.8	0.00e+00	0	42	0	1272971264	48	6501
2026-01-22 12:10:57.46	92.04	12.80	-38.1	-39.1	22.9	0.00e+00	0	42	0	1276116992	48	6309
2026-01-22 12:10:58.47	92.23	12.77	-38.0	-39.0	23.0	0.00e+00	0	42	0	1279262720	48	6264
2026-01-22 12:10:59.48	92.42	12.75	-38.3	-39.3	22.8	0.00e+00	0	42	0	1282408448	48	6455
2026-01-22 12:11:00.46	92.61	12.72	-38.3	-39.3	22.8	0.00e+00	0	42	0	1285554176	48	6476
2026-01-22 12:11:01.47	92.80	12.69	-38.4	-39.4	22.8	0.00e+00	0	42	0	1288699904	48	6502
2026-01-22 12:11:02.48	92.99	12.67	-38.3	-39.3	22.7	0.00e+00	0	42	0	1291845632	48	6444
2026-01-22 12:11:03.48	93.18	12.64	-38.4	-39.4	22.8	0.00e+00	0	42	0	1294991360	48	6515
2026-01-22 12:11:04.49	93.37	12.61	-38.4	-39.4	22.7	0.00e+00	0	42	0	1298137088	48	6519
2026-01-22 12:11:05.50	93.56	12.59	-38.3	-39.3	22.9	0.00e+00	0	42	0	1301282816	48	6460
2026-01-22 12:11:06.51	93.75	12.56	-38.3	-39.3	22.8	0.00e+00	0	42	0	1304428544	48	6434
2026-01-22 12:11:07.52	93.94	12.53	-38.2	-39.2	22.9	0.00e+00	0	42	0	1307574272	48	6356
2026-01-22 12:11:08.53	94.13	12.50	-38.4	-39.4	22.7	0.00e+00	0	42	0	1310720000	48	6516
2026-01-22 12:11:09.54	94.31	12.47	-38.4	-39.4	22.7	0.00e+00	0	42	0	1313865728	48	6501
2026-01-22 12:11:10.54	94.50	12.44	-38.4	-39.4	22.7	0.00e+00	0	42	0	1317011456	48	6507
2026-01-22 12:11:11.56	94.69	12.42	-38.2	-39.2	22.8	0.00e+00	0	42	0	1320157184	48	6381
2026-01-22 12:11:12.56	94.87	12.39	-38.2	-39.2	22.9	0.00e+00	0	42	0	1323302912	48	6358
2026-01-22 12:11:13.57	95.06	12.36	-38.1	-39.0	23.0	0.00e+00	0	42	0	1326448640	48	6250
2026-01-22 12:11:14.58	95.25	12.33	-38.1	-39.1	22.8	0.00e+00	0	42	0	1329594368	48	6311
2026-01-22 12:11:15.59	95.43	12.30	-38.2	-39.2	22.8	0.00e+00	0	42	0	1332740096	48	6376
2026-01-22 12:11:16.60	95.62	12.27	-38.3	-39.3	22.7	0.00e+00	0	42	0	1335885824	48	6474
2026-01-22 12:11:17.61	95.80	12.24	-38.6	-39.6	22.6	0.00e+00	0	42	0	1339031552	48	6711
2026-01-22 12:11:18.62	95.99	12.21	-38.5	-39.5	22.6	0.00e+00	0	42	0	1342177280	48	6613
2026-01-22 12:11:19.64	96.18	12.17	-38.6	-39.6	22.6	0.00e+00	0	42	0	1345323008	48	6653
2026-01-22 12:11:20.65	96.36	12.14	-38.5	-39.5	22.6	0.00e+00	0	42	0	1348468736	50	5876
2026-01-22 12:11:21.66	96.54	12.11	-38.1	-39.1	22.9	0.00e+00	0	42	0	1351614464	50	5625
2026-01-22 12:11:22.67	96.73	12.08	-38.3	-39.3	22.8	0.00e+00	0	42	0	1354760192	50	5730
2026-01-22 12:11:23.68	96.91	12.05	-38.0	-39.0	22.9	0.00e+00	0	42	0	1357905920	50	5569
2026-01-22 12:11:24.69	97.09	12.02	-38.1	-39.0	22.9	0.00e+00	0	42	0	1361051648	50	5585
2026-01-22 12:11:25.70	97.28	11.98	-38.2	-39.1	22.9	0.00e+00	0	42	0	1365245952	50	5654
2026-01-22 12:11:26.71	97.46	11.95	-38.1	-39.1	22.8	0.00e+00	0	42	0	1367343104	50	5640
2026-01-22 12:11:27.72	97.64	11.92	-38.3	-39.3	22.8	0.00e+00	0	42	0	1370488832	50	5744
2026-01-22 12:11:28.73	97.82	11.89	-37.9	-38.9	23.0	0.00e+00	0	42	0	1373634560	50	5492
2026-01-22 12:11:29.74	98.00	11.85	-37.9	-38.8	23.1	0.00e+00	0	42	0	1376780288	50	5450
2026-01-22 12:11:30.75	98.18	11.82	-38.0	-38.9	22.9	0.00e+00	0	42	0	1379926016	50	5517
2026-01-22 12:11:31.75	98.36	11.79	-38.0	-39.0	22.9	0.00e+00	0	42	0	1384120320	50	5565
2026-01-22 12:11:32.76	98.54	11.75	-38.1	-39.1	22.9	0.00e+00	0	42	0	1387266048	50	5607
2026-01-22 12:11:33.77	98.72	11.72	-38.2	-39.2	22.8	0.00e+00	0	42	0	1390411776	50	5710
2026-01-22 12:11:34.78	98.90	11.68	-38.3	-39.3	22.7	0.00e+00	0	42	0	1392508928	50	5763
2026-01-22 12:11:35.79	99.08	11.65	-38.2	-39.2	22.8	0.00e+00	0	42	0	1395654656	50	5687
2026-01-22 12:11:36.80	99.25	11.62	-38.2	-39.1	22.8	0.00e+00	0	42	0	1399848960	50	5651
2026-01-22 12:11:37.81	99.43	11.58	-38.1	-39.1	22.8	0.00e+00	0	42	0	1402994688	50	5639
2026-01-22 12:11:38.82	99.61	11.55	-38.3	-39.3	22.6	0.00e+00	0	42	0	1406140416	50	5773
2026-01-22 12:11:39.83	99.79	11.51	-38.4	-39.3	22.6	0.00e+00	0	42	0	1409286144	50	5782
2026-01-22 12:11:40.84	99.96	11.47	-38.7	-39.7	22.3	0.00e+00	0	42	0	1412431872	50	6056
2026-01-22 12:11:41.85	100.14	11.44	-38.3	-39.3	22.8	0.00e+00	0	42	0	1415577600	50	5739
2026-01-22 12:11:42.86	100.31	11.40	-38.4	-39.3	22.7	0.00e+00	0	42	0	1418723328	50	5782
2026-01-22 12:11:43.87	100.49	11.37	-38.3	-39.3	22.6	0.00e+00	0	42	0	1421869056	50	5751
2026-01-22 12:11:44.88	100.66	11.33	-38.3	-39.3	22.6	0.00e+00	0	42	0	1425014784	50	5787
2026-01-22 12:11:45.89	100.84	11.30	-38.2	-39.2	22.8	0.00e+00	0	42	0	1428160512	50	5701
2026-01-22 12:11:46.90	101.01	11.26	-38.3	-39.3	22.8	0.00e+00	0	42	0	1431306240	50	5781
2026-01-22 12:11:47.91	101.18	11.22	-38.3	-39.3	22.8	0.00e+00	0	42	0	1434451968	50	5741
2026-01-22 12:11:48.92	101.36	11.19	-38.4	-39.4	22.6	0.00e+00	0	42	0	1437597696	50	5820
2026-01-22 12:11:49.93	101.53	11.15	-38.6	-39.7	22.5	0.00e+00	0	42	0	1440743424	50	5995
2026-01-22 12:11:50.94	101.70	11.11	-38.4	-39.4	22.7	0.00e+00	0	42	0	1443889152	50	5832
2026-01-22 12:11:51.95	101.87	11.07	-38.6	-39.6	22.5	0.00e+00	0	42	0	1447034880	50	5945
2026-01-22 12:11:52.97	102.05	11.04	-38.5	-39.5	22.5	0.00e+00	0	42	0	1450180608	50	5895
2026-01-22 12:11:53.98	102.22	11.00	-38.6	-39.7	22.3	0.00e+00	0	42	0	1453326336	50	6006
2026-01-22 12:11:54.99	102.39	10.96	-38.5	-39.5	22.4	0.00e+00	0	42	0	1456472064	50	5901
2026-01-22 12:11:56.00	102.56	10.92	-38.5	-39.6	22.4	0.00e+00	0	42	0	1459617792	50	5927
2026-01-22 12:11:57.01	102.73	10.88	-38.6	-39.6	22.4	0.00e+00	0	42	0	1462763520	50	5987
2026-01-22 12:11:58.02	102.90	10.85	-38.4	-39.5	22.4	0.00e+00	0	42	0	1465909248	50	5906
2026-01-22 12:11:59.03	103.07	10.81	-38.5	-39.5	22.4	0.00e+00	0	42	0	1469054976	50	5924
2026-01-22 12:12:00.04	103.23	10.77	-38.5	-39.6	22.4	0.00e+00	0	42	0	1472200704	50	5931
2026-01-22 12:12:01.05	103.40	10.73	-38.6	-39.6	22.4	0.00e+00	0	42	0	1475346432	50	5978
2026-01-22 12:12:02.06	103.57	10.69	-38.7	-39.7	22.3	0.00e+00	0	42	0	1478492160	50	6062
2026-01-22 12:12:03.07	103.74	10.65	-38.5	-39.6	22.4	0.00e+00	0	42	0	1481637888	50	5937
2026-01-22 12:12:04.08	103.90	10.61	-38.6	-39.6	22.4	0.00e+00	0	42	0	1484783616	50	5953
2026-01-22 12:12:05.08	104.07	10.57	-38.5	-39.6	22.4	0.00e+00	0	42	0	1487929344	50	5943
2026-01-22 12:12:06.09	104.23	10.53	-38.6	-39.6	22.4	0.00e+00	0	42	0	1491075072	50	5977
2026-01-22 12:12:07.10	104.40	10.49	-38.6	-39.7	22.3	0.00e+00	0	42	0	1494220800	50	6045
2026-01-22 12:12:08.11	104.56	10.45	-38.8	-39.8	22.2	0.00e+00	0	42	0	1497366528	50	6105
2026-01-22 12:12:09.12	104.73	10.41	-38.8	-39.8	22.2	0.00e+00	0	42	0	1500512256	50	6101
2026-01-22 12:12:10.13	104.89	10.37	-38.9	-40.0	22.1	0.00e+00	0	42	0	1503657984	50	6235
2026-01-22 12:12:11.14	105.06	10.33	-39.1	-40.1	21.9	0.00e+00	0	42	0	1506803712	50	6328
2026-01-22 12:12:12.15	105.22	10.29	-39.1	-40.1	21.8	0.00e+00	0	42	0	1509949440	50	6347
2026-01-22 12:12:13.17	105.38	10.25	-39.2	-40.2	21.6	0.00e+00	0	42	0	1513095168	50	6394
2026-01-22 12:12:14.17	105.55	10.21	-39.5	-40.7	21.5	0.00e+00	0	42	0	1516240896	50	6727
2026-01-22 12:12:15.18	105.71	10.17	-39.5	-40.6	21.4	0.00e+00	0	42	0	1519386624	50	6686
2026-01-22 12:12:16.19	105.87	10.13	-39.8	-40.9	21.4	0.00e+00	0	42	0	1522532352	52	6151
2026-01-22 12:12:17.20	106.03	10.09	-39.6	-40.7	21.4	0.00e+00	0	42	0	1525678080	52	6012
2026-01-22 12:12:18.22	106.19	10.05	-39.0	-40.0	22.0	0.00e+00	0	42	0	1528823808	52	5587
2026-01-22 12:12:19.23	106.35	10.01	-39.2	-40.3	21.8	0.00e+00	0	42	0	1531969536	52	5735
2026-01-22 12:12:20.24	106.51	9.96	-39.1	-40.1	21.9	0.00e+00	0	42	0	1535115264	52	5657
2026-01-22 12:12:21.25	106.67	9.92	-38.9	-39.9	22.0	0.00e+00	0	42	0	1538260992	50	6184
2026-01-22 12:12:22.25	106.83	9.88	-38.8	-39.9	22.1	0.00e+00	0	42	0	1541406720	50	6137
2026-01-22 12:12:23.26	106.99	9.84	-38.9	-40.0	22.1	0.00e+00	0	42	0	1544552448	50	6234
2026-01-22 12:12:24.27	107.14	9.80	-39.0	-40.1	22.0	0.00e+00	0	42	0	1547698176	50	6313
2026-01-22 12:12:25.28	107.30	9.76	-38.9	-40.0	22.0	0.00e+00	0	42	0	1550843904	50	6207
2026-01-22 12:12:26.29	107.46	9.71	-39.0	-40.1	21.9	0.00e+00	0	42	0	1553989632	50	6323
2026-01-22 12:12:27.30	107.62	9.67	-39.0	-40.0	21.9	0.00e+00	0	42	0	1557135360	50	6265
2026-01-22 12:12:28.31	107.77	9.63	-39.1	-40.2	21.8	0.00e+00	0	42	0	1560281088	50	6390
2026-01-22 12:12:29.32	107.93	9.59	-39.1	-40.2	21.8	0.00e+00	0	42	0	1563426816	50	6355
2026-01-22 12:12:30.33	108.08	9.54	-39.0	-40.0	22.0	0.00e+00	0	42	0	1566572544	50	6243
2026-01-22 12:12:31.34	108.24	9.50	-39.2	-40.3	21.7	0.00e+00	0	42	0	1569718272	50	6437
2026-01-22 12:12:32.35	108.39	9.46	-39.2	-40.2	21.8	0.00e+00	0	42	0	1572864000	50	6415
2026-01-22 12:12:33.36	108.55	9.41	-39.3	-40.4	21.6	0.00e+00	0	42	0	1576009728	50	6542
2026-01-22 12:12:34.37	108.70	9.37	-39.1	-40.2	21.8	0.00e+00	0	42	0	1579155456	50	6398
2026-01-22 12:12:35.38	108.85	9.33	-39.3	-40.4	21.6	0.00e+00	0	42	0	1582301184	50	6554
2026-01-22 12:12:36.39	109.01	9.29	-39.7	-40.8	21.3	0.00e+00	0	42	0	1585446912	50	6829
2026-01-22 12:12:37.40	109.16	9.24	-39.3	-40.4	21.7	0.00e+00	0	42	0	1588592640	52	5799
2026-01-22 12:12:38.41	109.31	9.20	-39.4	-40.5	21.6	0.00e+00	0	42	0	1591738368	52	5889
2026-01-22 12:12:39.42	109.46	9.15	-39.3	-40.5	21.6	0.00e+00	0	42	0	1594884096	52	5859
2026-01-22 12:12:40.43	109.61	9.11	-39.5	-40.6	21.5	0.00e+00	0	42	0	1598029824	52	5990
2026-01-22 12:12:41.44	109.76	9.07	-39.2	-40.3	21.7	0.00e+00	0	42	0	1601175552	52	5773
2026-01-22 12:12:42.45	109.91	9.02	-39.8	-40.9	21.3	0.00e+00	0	42	0	1604321280	52	6181
2026-01-22 12:12:43.46	110.06	8.98	-39.6	-40.7	21.4	0.00e+00	0	42	0	1607467008	52	6044
2026-01-22 12:12:44.47	110.21	8.94	-39.3	-40.4	21.7	0.00e+00	0	42	0	1610612736	52	5847
2026-01-22 12:12:45.48	110.36	8.89	-39.3	-40.4	21.6	0.00e+00	0	42	0	1613758464	52	5849
2026-01-22 12:12:46.49	110.51	8.85	-39.5	-40.7	21.6	0.00e+00	0	42	0	1616904192	52	6009
2026-01-22 12:12:47.50	110.66	8.80	-39.5	-40.6	21.5	0.00e+00	0	42	0	1620049920	52	5960
2026-01-22 12:12:48.51	110.81	8.76	-39.3	-40.4	21.7	0.00e+00	0	42	0	1623195648	52	5828
2026-01-22 12:12:49.52	110.95	8.71	-39.3	-40.3	21.7	0.00e+00	0	42	0	1626341376	52	5788
2026-01-22 12:12:50.53	111.10	8.67	-39.6	-40.6	21.5	0.00e+00	0	42	0	1629487104	52	5984
2026-01-22 12:12:51.54	111.25	8.62	-39.6	-40.7	21.3	0.00e+00	0	42	0	1632632832	52	6060
2026-01-22 12:12:52.55	111.39	8.58	-39.7	-40.8	21.2	0.00e+00	0	42	0	1635778560	52	6113
2026-01-22 12:12:53.56	111.54	8.54	-39.8	-40.9	21.2	0.00e+00	0	42	0	1638924288	52	6169
2026-01-22 12:12:54.57	111.68	8.49	-39.6	-40.7	21.4	0.00e+00	0	42	0	1642070016	52	6052
2026-01-22 12:12:55.58	111.83	8.45	-39.7	-40.9	21.2	0.00e+00	0	42	0	1645215744	52	6139
2026-01-22 12:12:56.59	111.97	8.40	-39.6	-40.7	21.4	0.00e+00	0	42	0	1648361472	52	6047
2026-01-22 12:12:57.60	112.11	8.36	-39.7	-40.8	21.4	0.00e+00	0	42	0	1651507200	52	6112
2026-01-22 12:12:58.60	112.26	8.31	-39.5	-40.6	21.4	0.00e+00	0	42	0	1654652928	52	5979
2026-01-22 12:12:59.62	112.40	8.26	-39.6	-40.7	21.4	0.00e+00	0	42	0	1657798656	52	6000
2026-01-22 12:13:00.63	112.54	8.22	-39.5	-40.6	21.4	0.00e+00	0	42	0	1660944384	52	5975
2026-01-22 12:13:01.63	112.68	8.17	-39.6	-40.7	21.3	0.00e+00	0	42	0	1664090112	52	6044
2026-01-22 12:13:02.64	112.82	8.13	-39.8	-40.9	21.1	0.00e+00	0	42	0	1667235840	52	6180
2026-01-22 12:13:03.66	112.97	8.08	-39.7	-40.9	21.2	0.00e+00	0	42	0	1670381568	52	6156
2026-01-22 12:13:04.67	113.11	8.04	-39.7	-40.8	21.2	0.00e+00	0	42	0	1673527296	52	6133
2026-01-22 12:13:05.68	113.25	7.99	-39.7	-40.8	21.3	0.00e+00	0	42	0	1676673024	52	6096
2026-01-22 12:13:06.69	113.39	7.95	-39.6	-40.7	21.2	0.00e+00	0	42	0	1679818752	52	6014
2026-01-22 12:13:07.70	113.53	7.90	-39.8	-40.9	21.2	0.00e+00	0	42	0	1682964480	52	6160
2026-01-22 12:13:08.71	113.67	7.85	-39.6	-40.7	21.3	0.00e+00	0	42	0	1686110208	52	6045
2026-01-22 12:13:09.72	113.80	7.81	-39.5	-40.6	21.4	0.00e+00	0	42	0	1689255936	52	5980
2026-01-22 12:13:10.73	113.94	7.76	-40.1	-41.2	20.8	0.00e+00	0	42	0	1692401664	52	6422
2026-01-22 12:13:11.74	114.08	7.72	-39.6	-40.7	21.4	0.00e+00	0	42	0	1695547392	52	6040
2026-01-22 12:13:12.75	114.22	7.67	-40.1	-41.2	20.9	0.00e+00	0	42	0	1699741696	52	6411
2026-01-22 12:13:13.76	114.35	7.62	-39.7	-40.8	21.2	0.00e+00	0	42	0	1702887424	52	6105
2026-01-22 12:13:14.77	114.49	7.58	-39.9	-41.0	21.1	0.00e+00	0	42	0	1706033152	52	6265
2026-01-22 12:13:15.78	114.63	7.53	-40.0	-41.1	21.0	0.00e+00	0	42	0	1708130304	52	6301
2026-01-22 12:13:16.79	114.76	7.49	-39.7	-40.8	21.2	0.00e+00	0	42	0	1711276032	52	6109
2026-01-22 12:13:17.80	114.90	7.44	-39.5	-40.6	21.4	0.00e+00	0	42	0	1715470336	52	5946
2026-01-22 12:13:18.81	115.03	7.39	-39.8	-40.9	21.2	0.00e+00	0	42	0	1718616064	52	6196
2026-01-22 12:13:19.82	115.17	7.35	-39.7	-40.8	21.3	0.00e+00	0	42	0	1721761792	52	6066
2026-01-22 12:13:20.83	115.30	7.30	-40.0	-41.2	21.0	0.00e+00	0	42	0	1724907520	52	6368
2026-01-22 12:13:21.84	115.43	7.25	-40.0	-41.1	21.0	0.00e+00	0	42	0	1728053248	52	6324
2026-01-22 12:13:22.85	115.57	7.21	-39.6	-40.7	21.2	0.00e+00	0	42	0	1731198976	52	6062
2026-01-22 12:13:23.86	115.70	7.16	-39.6	-40.7	21.3	0.00e+00	0	42	0	1734344704	52	6011
2026-01-22 12:13:24.87	115.83	7.11	-39.5	-40.6	21.3	0.00e+00	0	42	0	1737490432	52	5993
2026-01-22 12:13:25.88	115.97	7.07	-39.7	-40.8	21.3	0.00e+00	0	42	0	1740636160	52	6070
2026-01-22 12:13:26.89	116.10	7.02	-39.6	-40.7	21.3	0.00e+00	0	42	0	1743781888	52	6031
2026-01-22 12:13:27.90	116.23	6.97	-39.8	-40.9	21.2	0.00e+00	0	42	0	1746927616	52	6136
2026-01-22 12:13:28.91	116.36	6.93	-39.5	-40.6	21.4	0.00e+00	0	42	0	1750073344	52	5928
2026-01-22 12:13:29.92	116.49	6.88	-39.4	-40.6	21.4	0.00e+00	0	42	0	1753219072	52	5931
2026-01-22 12:13:30.93	116.62	6.83	-39.8	-40.9	21.1	0.00e+00	0	42	0	1756364800	52	6164
2026-01-22 12:13:31.94	116.75	6.79	-39.9	-41.0	20.9	0.00e+00	0	42	0	1759510528	52	6277
2026-01-22 12:13:32.94	116.88	6.74	-39.8	-40.9	21.1	0.00e+00	0	42	0	1762656256	52	6201
2026-01-22 12:13:33.95	117.01	6.69	-40.0	-41.1	21.0	0.00e+00	0	42	0	1765801984	52	6300
2026-01-22 12:13:34.96	117.13	6.64	-40.0	-41.2	21.0	0.00e+00	0	42	0	1768947712	52	6366
2026-01-22 12:13:35.97	117.26	6.60	-39.6	-40.7	21.1	0.00e+00	0	42	0	1772093440	52	6030
2026-01-22 12:13:36.98	117.39	6.55	-39.9	-41.0	20.9	0.00e+00	0	42	0	1775239168	52	6252
2026-01-22 12:13:37.99	117.52	6.50	-40.1	-41.3	20.7	0.00e+00	0	42	0	1778384896	52	6446
2026-01-22 12:13:39.01	117.64	6.46	-40.0	-41.1	20.9	0.00e+00	0	42	0	1781530624	52	6317
2026-01-22 12:13:40.02	117.77	6.41	-40.0	-41.1	20.9	0.00e+00	0	42	0	1784676352	52	6331
2026-01-22 12:13:41.03	117.90	6.36	-40.4	-41.5	20.5	0.00e+00	0	42	0	1787822080	52	6639
2026-01-22 12:13:42.03	118.02	6.31	-40.1	-41.2	20.8	0.00e+00	0	42	0	1790967808	52	6401
2026-01-22 12:13:43.04	118.15	6.27	-40.2	-41.4	20.5	0.00e+00	0	42	0	1794113536	52	6535
2026-01-22 12:13:44.06	118.27	6.22	-40.3	-41.5	20.5	0.00e+00	0	42	0	1797259264	52	6578
2026-01-22 12:13:45.06	118.40	6.17	-40.2	-41.3	20.6	0.00e+00	0	42	0	1800404992	52	6469
2026-01-22 12:13:46.08	118.52	6.12	-40.2	-41.4	20.6	0.00e+00	0	42	0	1803550720	52	6536
2026-01-22 12:13:47.08	118.64	6.08	-40.3	-41.4	20.6	0.00e+00	0	42	0	1806696448	52	6548
2026-01-22 12:13:48.09	118.77	6.03	-40.6	-41.8	20.2	0.00e+00	0	42	0	1809842176	52	6814
2026-01-22 12:13:49.10	118.89	5.98	-40.4	-41.6	20.3	0.00e+00	0	42	0	1812987904	52	6697
2026-01-22 12:13:50.11	119.01	5.93	-40.4	-41.6	20.2	0.00e+00	0	42	0	1816133632	52	6704
2026-01-22 12:13:51.12	119.13	5.89	-40.8	-42.1	19.9	0.00e+00	0	42	0	1819279360	54	6283
2026-01-22 12:13:52.13	119.26	5.84	-40.5	-41.7	20.2	0.00e+00	0	42	0	1822425088	54	6061
2026-01-22 12:13:53.14	119.38	5.79	-40.7	-42.0	19.9	0.00e+00	0	42	0	1825570816	54	6236
2026-01-22 12:13:54.15	119.50	5.74	-40.8	-42.0	19.9	0.00e+00	0	42	0	1828716544	54	6256
2026-01-22 12:13:55.16	119.62	5.70	-40.7	-42.0	20.0	0.00e+00	0	42	0	1831862272	54	6220
2026-01-22 12:13:56.17	119.74	5.65	-41.1	-42.4	19.6	0.00e+00	0	42	0	1835008000	54	6516
2026-01-22 12:13:57.18	119.86	5.60	-41.3	-42.6	19.4	0.00e+00	0	42	0	1838153728	54	6677
2026-01-22 12:13:58.19	119.98	5.55	-40.7	-42.0	20.0	0.00e+00	0	42	0	1841299456	54	6239
2026-01-22 12:13:59.20	120.10	5.51	-40.6	-41.9	19.9	0.00e+00	0	42	0	1844445184	54	6175
2026-01-22 12:14:00.21	120.22	5.46	-40.6	-41.8	20.1	0.00e+00	0	42	0	1847590912	54	6113
2026-01-22 12:14:01.22	120.33	5.41	-40.6	-41.8	20.1	0.00e+00	0	42	0	1850736640	54	6126
2026-01-22 12:14:02.23	120.45	5.36	-40.6	-41.9	20.0	0.00e+00	0	42	0	1853882368	54	6154
2026-01-22 12:14:03.24	120.57	5.32	-40.4	-41.7	20.2	0.00e+00	0	42	0	1857028096	54	6000
2026-01-22 12:14:04.25	120.69	5.27	-40.2	-41.4	20.4	0.00e+00	0	42	0	1860173824	54	5825
2026-01-22 12:14:05.26	120.80	5.22	-40.2	-41.4	20.4	0.00e+00	0	42	0	1863319552	54	5800
2026-01-22 12:14:06.27	120.92	5.17	-40.1	-41.3	20.5	0.00e+00	0	42	0	1866465280	54	5775
2026-01-22 12:14:07.28	121.04	5.12	-40.2	-41.4	20.4	0.00e+00	0	42	0	1869611008	54	5796
2026-01-22 12:14:08.29	121.15	5.08	-40.6	-41.8	20.1	0.00e+00	0	42	0	1872756736	54	6081
2026-01-22 12:14:09.30	121.27	5.03	-40.3	-41.5	20.3	0.00e+00	0	42	0	1875902464	54	5913
2026-01-22 12:14:10.31	121.38	4.98	-40.3	-41.5	20.3	0.00e+00	0	42	0	1879048192	54	5911
2026-01-22 12:14:11.32	121.50	4.93	-40.4	-41.6	20.2	0.00e+00	0	42	0	1882193920	54	5928
2026-01-22 12:14:12.33	121.61	4.89	-40.5	-41.7	20.0	0.00e+00	0	42	0	1885339648	54	6016
2026-01-22 12:14:13.34	121.73	4.84	-40.6	-41.9	20.0	0.00e+00	0	42	0	1888485376	54	6183
2026-01-22 12:14:14.35	121.84	4.79	-40.4	-41.6	20.1	0.00e+00	0	42	0	1891631104	54	5957
2026-01-22 12:14:15.36	121.95	4.74	-40.4	-41.6	20.1	0.00e+00	0	42	0	1894776832	54	5968
2026-01-22 12:14:16.37	122.07	4.69	-40.4	-41.6	20.2	0.00e+00	0	42	0	1897922560	54	5974
2026-01-22 12:14:17.38	122.18	4.65	-40.4	-41.6	20.2	0.00e+00	0	42	0	1901068288	54	5973
2026-01-22 12:14:18.38	122.29	4.60	-40.4	-41.6	20.2	0.00e+00	0	42	0	1904214016	54	5970
2026-01-22 12:14:19.39	122.40	4.55	-40.6	-41.9	19.8	0.00e+00	0	42	0	1907359744	54	6149
2026-01-22 12:14:20.41	122.51	4.50	-40.7	-42.0	19.9	0.00e+00	0	42	0	1910505472	54	6228
2026-01-22 12:14:21.42	122.62	4.46	-40.5	-41.7	20.0	0.00e+00	0	42	0	1913651200	54	6053
2026-01-22 12:14:22.43	122.74	4.41	-40.7	-42.0	19.6	0.00e+00	0	42	0	1916796928	54	6249
2026-01-22 12:14:23.44	122.85	4.36	-40.7	-42.0	19.8	0.00e+00	0	42	0	1919942656	54	6208
2026-01-22 12:14:24.45	122.96	4.31	-40.9	-42.2	19.5	0.00e+00	0	42	0	1923088384	54	6364
2026-01-22 12:14:25.46	123.07	4.26	-41.2	-42.5	19.1	0.00e+00	0	42	0	1926234112	54	6631
2026-01-22 12:14:26.47	123.18	4.22	-41.3	-42.6	19.3	0.00e+00	0	42	0	1929379840	54	6721
2026-01-22 12:14:27.48	123.28	4.17	-41.2	-42.6	19.1	0.00e+00	0	42	0	1932525568	54	6671
2026-01-22 12:14:28.49	123.39	4.12	-41.4	-42.8	18.8	0.00e+00	0	42	0	1935671296	54	6877
2026-01-22 12:14:29.50	123.50	4.07	-41.0	-42.4	19.3	0.00e+00	0	42	0	1938817024	54	6505
2026-01-22 12:14:30.51	123.61	4.02	-40.6	-41.8	19.7	0.00e+00	0	42	0	1941962752	54	6118
2026-01-22 12:14:31.52	123.72	3.98	-40.7	-42.0	19.6	0.00e+00	0	42	0	1945108480	54	6268
2026-01-22 12:14:32.53	123.82	3.93	-40.6	-41.9	19.7	0.00e+00	0	42	0	1948254208	54	6140
2026-01-22 12:14:33.54	123.93	3.88	-40.6	-41.9	19.7	0.00e+00	0	42	0	1951399936	54	6189
2026-01-22 12:14:34.55	124.04	3.83	-40.7	-42.0	19.5	0.00e+00	0	42	0	1954545664	54	6251
2026-01-22 12:14:35.56	124.14	3.79	-40.6	-41.8	19.7	0.00e+00	0	42	0	1957691392	54	6125
2026-01-22 12:14:36.57	124.25	3.74	-40.9	-42.3	19.2	0.00e+00	0	42	0	1960837120	54	6432
2026-01-22 12:14:37.58	124.36	3.69	-41.1	-42.4	19.2	0.00e+00	0	42	0	1963982848	54	6536
2026-01-22 12:14:38.59	124.46	3.64	-41.3	-42.6	19.0	0.00e+00	0	42	0	1967128576	54	6716
2026-01-22 12:14:39.60	124.57	3.59	-41.2	-42.5	19.0	0.00e+00	0	42	0	1970274304	54	6632
2026-01-22 12:14:40.61	124.67	3.55	-41.0	-42.3	19.5	0.00e+00	0	42	0	1973420032	54	6455
2026-01-22 12:14:41.62	124.78	3.50	-41.3	-42.7	18.8	0.00e+00	0	42	0	1976565760	54	6727
2026-01-22 12:14:42.63	124.88	3.45	-40.9	-42.2	19.2	0.00e+00	0	42	0	1979711488	54	6386
2026-01-22 12:14:43.64	124.98	3.40	-40.8	-42.1	19.3	0.00e+00	0	42	0	1982857216	54	6330
2026-01-22 12:14:44.64	125.09	3.36	-41.3	-42.6	18.9	0.00e+00	0	42	0	1986002944	54	6720
2026-01-22 12:14:45.65	125.19	3.31	-40.5	-41.7	19.8	0.00e+00	0	42	0	1989148672	54	6059
2026-01-22 12:14:46.66	125.29	3.26	-40.6	-41.9	19.5	0.00e+00	0	42	0	1992294400	54	6145
2026-01-22 12:14:47.67	125.39	3.21	-40.8	-42.2	19.2	0.00e+00	0	42	0	1995440128	54	6357
2026-01-22 12:14:48.68	125.50	3.17	-41.0	-42.3	19.1	0.00e+00	0	42	0	1998585856	54	6490
2026-01-22 12:14:49.69	125.60	3.12	-41.2	-42.6	18.8	0.00e+00	0	42	0	2001731584	54	6701
2026-01-22 12:14:50.70	125.70	3.07	-41.0	-42.3	18.9	0.00e+00	0	42	0	2004877312	54	6480
2026-01-22 12:14:51.71	125.80	3.02	-41.3	-42.7	18.7	0.00e+00	0	42	0	2008023040	54	6790
2026-01-22 12:14:52.72	125.90	2.97	-49.5	-62.2	3.5	1.55e+00	0	42	104	2011168768	60	45450
2026-01-22 12:14:53.73	126.00	2.93	-50.2	-63.1	3.5	1.52e+00	0	42	104	2011168768	60	50129
