passes_logs/2025/01/19/XPeterburg/XPeterburg__20250119_090305_FENGYUN_3F_rec.log

#Pass ID: 20250119_090305_FENGYUN 3F
#Satellite: FENGYUN 3F
#Configuration: FENGYUN 3F
#Start time: 2025-01-19 09:03:00

#Version: 1.5.20200625
#Station: XPeterburg
#Location: 30.318091 lon 59.932769 lat
#TLE: 1 57490U 23111A   25017.16985188  .00000174  00000+0  10253-3 0  9999
#TLE: 2 57490  98.7460  90.0838 0001258 138.4389 221.6883 14.19977223 75637

#Time	Az	El	Level	Level2	SNR	BER	Gain	Gain2
2025-01-19 09:03:00.55	42.67	68.14	-40.2	-43.1	3.3	8385646	97	6927
2025-01-19 09:03:00.75	42.78	68.22	-38.7	-61.1	2.1	6108421	46	65535
2025-01-19 09:03:00.95	42.89	68.31	-39.6	-54.7	3.5	8211742	73	28217
2025-01-19 09:03:01.15	43.01	68.39	-40.1	-43.1	3.3	8411602	97	6931
2025-01-19 09:03:01.35	43.12	68.47	-40.2	-43.1	3.3	8411602	97	6938
2025-01-19 09:03:01.55	43.24	68.55	-40.2	-44.5	3.6	8383460	97	8141
2025-01-19 09:03:01.75	43.36	68.64	-40.1	-44.3	3.6	8420585	97	7991
2025-01-19 09:03:01.95	43.47	68.72	-40.1	-43.3	3.4	8431045	97	7096
2025-01-19 09:03:02.15	43.59	68.80	-40.1	-43.1	3.3	8404209	97	6915
2025-01-19 09:03:02.35	43.71	68.88	-40.1	-44.5	3.6	8383346	97	8117
2025-01-19 09:03:02.56	43.84	68.97	-40.1	-44.6	3.6	8437625	97	8182
2025-01-19 09:03:02.76	43.96	69.05	-40.0	-42.8	3.4	8374202	98	6774
2025-01-19 09:03:02.96	44.08	69.14	-40.0	-42.3	3.3	8374202	98	6434
2025-01-19 09:03:03.16	44.21	69.22	-40.0	-42.2	3.3	8404174	98	6368
2025-01-19 09:03:03.36	44.33	69.30	-40.1	-43.9	3.6	8347686	98	7618
2025-01-19 09:03:03.56	44.46	69.38	-40.1	-43.2	3.5	8431983	98	7042
2025-01-19 09:03:03.76	44.59	69.46	-40.1	-42.5	3.3	8435153	98	6467
2025-01-19 09:03:03.96	44.71	69.55	-40.1	-42.5	3.3	8387763	98	6484
2025-01-19 09:03:04.16	44.84	69.63	-40.1	-43.9	3.6	8385623	98	7690
2025-01-19 09:03:04.37	44.98	69.72	-40.1	-43.7	3.6	8460491	98	7473
2025-01-19 09:03:04.57	45.11	69.80	-40.1	-42.7	3.4	8460491	98	6644
2025-01-19 09:03:04.77	45.24	69.88	-40.1	-42.4	3.3	8413742	98	6468
2025-01-19 09:03:04.97	45.38	69.96	-40.1	-43.9	3.6	8394756	98	7651
2025-01-19 09:03:05.17	45.51	70.04	-40.1	-43.9	3.6	8423973	98	7622
2025-01-19 09:03:05.37	45.65	70.13	-40.1	-42.8	3.4	8444892	98	6775
2025-01-19 09:03:05.57	45.79	70.21	-40.1	-42.5	3.3	8415378	98	6497
2025-01-19 09:03:05.77	45.93	70.29	-40.1	-42.5	3.3	8387844	98	6482
2025-01-19 09:03:05.97	46.07	70.37	-40.1	-43.8	3.6	8429683	98	7599
2025-01-19 09:03:06.17	46.21	70.45	-40.1	-43.1	3.4	8436275	98	6978
2025-01-19 09:03:06.37	46.35	70.54	-40.1	-42.3	3.3	8436275	98	6384
2025-01-19 09:03:06.57	46.49	70.62	-40.1	-42.4	3.3	8395980	98	6457
2025-01-19 09:03:06.78	46.65	70.70	-40.1	-43.8	3.6	8395900	98	7600
2025-01-19 09:03:06.98	46.79	70.78	-40.1	-43.3	3.5	8433780	98	7157
2025-01-19 09:03:07.18	46.94	70.87	-40.1	-42.5	3.3	8433219	98	6484
2025-01-19 09:03:07.38	47.09	70.95	-40.1	-42.5	3.3	8381652	98	6517
2025-01-19 09:03:07.58	47.24	71.03	-40.1	-43.8	3.6	8386413	98	7559
2025-01-19 09:03:07.78	47.39	71.11	-40.1	-43.7	3.6	8447090	98	7451
2025-01-19 09:03:07.98	47.55	71.19	-40.1	-42.7	3.4	8447090	98	6636
2025-01-19 09:03:08.18	47.70	71.27	-40.1	-42.4	3.3	8412940	98	6448
2025-01-19 09:03:08.38	47.86	71.35	-40.1	-43.9	3.6	8396953	98	7670
2025-01-19 09:03:08.58	48.01	71.44	-40.1	-44.0	3.6	8409793	98	7704
2025-01-19 09:03:08.79	48.18	71.52	-40.4	-43.1	3.4	8399013	99	6691
2025-01-19 09:03:08.99	48.34	71.60	-40.4	-42.6	3.3	8411876	99	6335
2025-01-19 09:03:09.19	48.50	71.68	-40.4	-42.5	3.3	8394859	99	6301
2025-01-19 09:03:09.39	48.67	71.76	-40.1	-44.0	3.6	8374649	98	7671
2025-01-19 09:03:09.59	48.83	71.85	-40.1	-43.0	3.4	8443817	98	6832
2025-01-19 09:03:09.79	49.00	71.93	-40.1	-42.5	3.3	8408283	98	6461
2025-01-19 09:03:09.99	49.17	72.01	-40.1	-42.5	3.3	8391574	98	6479
2025-01-19 09:03:10.19	49.34	72.09	-40.1	-43.9	3.6	8391574	98	7632
2025-01-19 09:03:10.39	49.51	72.17	-40.5	-43.5	3.5	8446426	99	6954
2025-01-19 09:03:10.60	49.69	72.25	-40.5	-42.7	3.3	8373344	99	6402
2025-01-19 09:03:10.80	49.87	72.33	-40.5	-42.7	3.3	8390373	99	6371
2025-01-19 09:03:11.00	50.04	72.41	-40.1	-43.9	3.6	8346954	98	7636
2025-01-19 09:03:11.20	50.22	72.49	-40.1	-43.5	3.5	8439617	98	7257
2025-01-19 09:03:11.40	50.40	72.57	-40.1	-42.6	3.3	8415653	98	6535
2025-01-19 09:03:11.60	50.58	72.65	-40.1	-42.4	3.3	8398555	98	6451
2025-01-19 09:03:11.80	50.77	72.73	-40.1	-43.9	3.6	8398555	98	7616
2025-01-19 09:03:12.00	50.95	72.81	-40.1	-43.6	3.6	8420345	98	7388
2025-01-19 09:03:12.20	51.14	72.89	-40.1	-42.6	3.4	8435325	98	6589
2025-01-19 09:03:12.40	51.33	72.97	-40.1	-42.4	3.3	8409542	98	6425
2025-01-19 09:03:12.60	51.52	73.05	-40.1	-43.9	3.6	8399391	98	7602
2025-01-19 09:03:12.81	51.72	73.13	-40.1	-43.9	3.6	8422966	98	7650
2025-01-19 09:03:13.01	51.91	73.21	-40.1	-42.9	3.4	8434135	98	6787
2025-01-19 09:03:13.21	52.11	73.29	-40.1	-42.5	3.3	8406486	98	6471
2025-01-19 09:03:13.41	52.31	73.37	-40.1	-42.4	3.3	8406486	98	6462
2025-01-19 09:03:13.61	52.51	73.45	-40.1	-43.9	3.6	8393463	98	7617
2025-01-19 09:03:13.81	52.71	73.53	-40.1	-43.0	3.4	8438541	98	6897
2025-01-19 09:03:14.01	52.92	73.61	-40.0	-42.4	3.3	8435440	98	6426
2025-01-19 09:03:14.21	53.12	73.69	-40.1	-42.3	3.3	8395740	98	6391
2025-01-19 09:03:14.41	53.33	73.76	-40.1	-43.8	3.6	8404529	98	7562
2025-01-19 09:03:14.61	53.54	73.84	-40.0	-43.2	3.5	8442111	98	7135
2025-01-19 09:03:14.82	53.77	73.92	-40.0	-42.4	3.3	8426914	98	6477
2025-01-19 09:03:15.02	53.98	74.00	-40.0	-42.3	3.3	8393028	98	6395
2025-01-19 09:03:15.22	54.20	74.08	-40.0	-43.7	3.6	8393028	98	7543
2025-01-19 09:03:15.42	54.42	74.16	-40.0	-43.6	3.6	8426284	98	7392
2025-01-19 09:03:15.62	54.64	74.23	-40.0	-42.4	3.4	8447193	98	6475
2025-01-19 09:03:15.82	54.86	74.31	-40.0	-42.3	3.3	8407825	98	6383
2025-01-19 09:03:16.02	55.09	74.39	-40.0	-43.8	3.6	8392627	98	7555
2025-01-19 09:03:16.22	55.32	74.46	-40.0	-43.8	3.6	8427474	98	7568
2025-01-19 09:03:16.42	55.55	74.54	-40.0	-42.7	3.4	8426902	98	6716
2025-01-19 09:03:16.63	55.79	74.62	-40.0	-42.4	3.3	8396450	98	6427
2025-01-19 09:03:16.83	56.03	74.70	-40.0	-42.4	3.3	8396450	98	6456
2025-01-19 09:03:17.03	56.27	74.77	-40.0	-43.9	3.6	8399883	98	7636
2025-01-19 09:03:17.23	56.51	74.85	-40.1	-43.0	3.4	8426124	98	6876
2025-01-19 09:03:17.43	56.75	74.92	-40.0	-42.4	3.3	8444171	98	6428
2025-01-19 09:03:17.63	57.00	75.00	-40.1	-42.4	3.3	8404357	98	6430
2025-01-19 09:03:17.83	57.25	75.07	-40.1	-43.8	3.6	8392650	98	7614
2025-01-19 09:03:18.03	57.50	75.15	-40.1	-43.3	3.5	8445991	98	7159
2025-01-19 09:03:18.23	57.75	75.22	-40.0	-42.5	3.3	8417541	98	6533
2025-01-19 09:03:18.43	58.01	75.30	-40.1	-42.4	3.3	8389652	98	6438
2025-01-19 09:03:18.63	58.26	75.37	-40.1	-43.9	3.6	8389652	98	7626
2025-01-19 09:03:18.84	58.54	75.45	-40.1	-43.6	3.6	8420871	98	7387
2025-01-19 09:03:19.04	58.80	75.52	-40.0	-42.6	3.4	8432991	98	6615
2025-01-19 09:03:19.24	59.07	75.59	-40.0	-42.3	3.3	8408409	98	6421
2025-01-19 09:03:19.44	59.34	75.67	-40.0	-43.8	3.6	8384559	98	7628
2025-01-19 09:03:19.64	59.61	75.74	-40.1	-43.6	3.6	8432006	98	7435
2025-01-19 09:03:19.84	59.89	75.81	-40.0	-42.5	3.4	8440361	98	6586
2025-01-19 09:03:20.04	60.17	75.88	-40.0	-42.4	3.3	8398635	98	6444
2025-01-19 09:03:20.25	60.46	75.96	-40.0	-43.8	3.6	8396369	98	7622
2025-01-19 09:03:20.45	60.75	76.03	-40.0	-43.9	3.6	8443943	98	7674
2025-01-19 09:03:20.65	61.04	76.10	-40.0	-42.7	3.4	8443943	98	6699
2025-01-19 09:03:20.85	61.33	76.17	-40.0	-42.4	3.3	8433300	98	6469
2025-01-19 09:03:21.05	61.62	76.24	-40.0	-42.4	3.3	8399288	98	6438
2025-01-19 09:03:21.25	61.92	76.31	-40.0	-43.8	3.6	8410457	98	7563
2025-01-19 09:03:21.45	62.22	76.38	-40.0	-42.9	3.4	8452194	98	6881
2025-01-19 09:03:21.65	62.52	76.45	-40.0	-42.3	3.3	8398807	98	6420
2025-01-19 09:03:21.85	62.83	76.52	-40.0	-42.4	3.3	8391185	98	6449
2025-01-19 09:03:22.05	63.14	76.59	-40.1	-43.8	3.6	8415756	98	7579
2025-01-19 09:03:22.25	63.45	76.66	-40.0	-43.3	3.5	8415756	98	7169
2025-01-19 09:03:22.46	63.78	76.73	-40.0	-42.4	3.3	8437168	98	6468
2025-01-19 09:03:22.66	64.10	76.80	-40.0	-42.3	3.3	8410549	98	6400
2025-01-19 09:03:22.86	64.43	76.87	-40.0	-43.9	3.6	8399894	98	7663
2025-01-19 09:03:23.06	64.76	76.93	-40.1	-43.6	3.6	8429626	98	7425
2025-01-19 09:03:23.26	65.09	77.00	-40.0	-42.5	3.4	8435108	98	6574
2025-01-19 09:03:23.46	65.42	77.07	-40.0	-42.4	3.3	8393280	98	6446
2025-01-19 09:03:23.66	65.76	77.13	-40.0	-43.8	3.6	8384124	98	7582
2025-01-19 09:03:23.86	66.10	77.20	-40.0	-43.9	3.6	8445339	98	7667
2025-01-19 09:03:24.06	66.44	77.26	-40.0	-42.7	3.4	8445339	98	6729
2025-01-19 09:03:24.26	66.79	77.33	-40.0	-42.4	3.3	8426639	98	6435
2025-01-19 09:03:24.46	67.14	77.39	-40.0	-42.3	3.3	8402183	98	6423
2025-01-19 09:03:24.67	67.51	77.46	-40.0	-43.8	3.6	8407859	98	7582
2025-01-19 09:03:24.87	67.87	77.52	-40.0	-43.0	3.4	8435176	98	6934
2025-01-19 09:03:25.07	68.24	77.59	-40.0	-42.4	3.3	8418388	98	6439
2025-01-19 09:03:25.27	68.60	77.65	-40.0	-42.4	3.3	8394412	98	6451
2025-01-19 09:03:25.47	68.97	77.71	-40.0	-43.9	3.6	8412792	98	7672
2025-01-19 09:03:25.67	69.35	77.77	-40.1	-43.6	3.5	8412792	98	7310
2025-01-19 09:03:25.87	69.73	77.83	-40.1	-42.6	3.3	8390258	98	6581
2025-01-19 09:03:26.07	70.11	77.89	-40.1	-42.5	3.3	8407562	98	6518
2025-01-19 09:03:26.27	70.50	77.95	-40.0	-43.7	3.6	8392112	98	7575
2025-01-19 09:03:26.47	70.89	78.01	-40.0	-43.7	3.6	8357048	98	7569
2025-01-19 09:03:26.68	71.30	78.07	-40.1	-43.2	3.4	8401130	98	6984
2025-01-19 09:03:26.88	71.70	78.13	-40.2	-42.6	3.3	8405891	98	6515
2025-01-19 09:03:27.08	72.10	78.19	-40.1	-42.6	3.3	8401657	98	6512
2025-01-19 09:03:27.28	72.51	78.25	-40.0	-43.8	3.6	8401657	98	7605
2025-01-19 09:03:27.48	72.92	78.31	-40.0	-43.3	3.5	8360115	98	7206
2025-01-19 09:03:27.68	73.33	78.36	-40.0	-42.4	3.3	8434101	98	6498
2025-01-19 09:03:27.88	73.75	78.42	-40.0	-42.3	3.3	8412700	98	6393
2025-01-19 09:03:28.08	74.17	78.47	-40.0	-43.7	3.6	8391689	98	7544
2025-01-19 09:03:28.28	74.60	78.53	-40.0	-43.5	3.6	8428207	98	7369
2025-01-19 09:03:28.48	75.03	78.58	-40.0	-42.5	3.3	8429626	98	6530
2025-01-19 09:03:28.69	75.49	78.64	-40.0	-42.2	3.3	8396644	98	6352
2025-01-19 09:03:28.89	75.93	78.69	-40.0	-43.7	3.6	8407505	98	7556
2025-01-19 09:03:29.09	76.37	78.74	-40.0	-43.7	3.6	8407505	98	7498
2025-01-19 09:03:29.29	76.82	78.79	-40.0	-42.7	3.4	8443130	98	6732
2025-01-19 09:03:29.49	77.27	78.84	-40.0	-42.3	3.3	8413341	98	6406
2025-01-19 09:03:29.69	77.73	78.89	-40.0	-43.7	3.6	8398429	98	7539
2025-01-19 09:03:29.89	78.19	78.94	-40.0	-43.8	3.6	8400787	98	7614
2025-01-19 09:03:30.09	78.65	78.99	-40.0	-42.6	3.4	8431663	98	6670
2025-01-19 09:03:30.29	79.12	79.04	-40.0	-42.2	3.3	8407310	98	6364
2025-01-19 09:03:30.49	79.59	79.09	-40.0	-42.3	3.3	8391998	98	6405
2025-01-19 09:03:30.69	80.07	79.13	-40.0	-43.7	3.6	8430747	98	7565
2025-01-19 09:03:30.89	80.55	79.18	-40.4	-43.2	3.5	8377258	99	6860
2025-01-19 09:03:31.10	81.06	79.22	-40.4	-42.6	3.3	8377258	99	6335
2025-01-19 09:03:31.30	81.55	79.27	-40.4	-42.5	3.3	8399711	99	6317
2025-01-19 09:03:31.50	82.04	79.31	-40.0	-43.7	3.6	8386230	98	7539
2025-01-19 09:03:31.70	82.54	79.35	-40.0	-43.6	3.6	8369499	98	7452
2025-01-19 09:03:31.90	83.04	79.40	-40.0	-42.5	3.4	8437751	98	6578
2025-01-19 09:03:32.10	83.55	79.44	-40.0	-42.3	3.3	8416053	98	6397
2025-01-19 09:03:32.30	84.06	79.48	-40.0	-43.7	3.6	8391975	98	7522
2025-01-19 09:03:32.50	84.57	79.52	-40.0	-43.7	3.6	8442958	98	7539
2025-01-19 09:03:32.70	85.09	79.56	-40.0	-42.7	3.4	8442958	98	6741
2025-01-19 09:03:32.91	85.63	79.60	-40.0	-42.3	3.3	8436996	98	6426
2025-01-19 09:03:33.11	86.16	79.63	-40.0	-42.3	3.3	8388931	98	6403
2025-01-19 09:03:33.31	86.69	79.67	-40.0	-43.8	3.6	8401451	98	7574
2025-01-19 09:03:33.51	87.22	79.70	-40.0	-42.9	3.4	8440876	98	6879
2025-01-19 09:03:33.71	87.76	79.74	-40.0	-42.3	3.3	8418468	98	6404
2025-01-19 09:03:33.91	88.30	79.77	-40.1	-42.4	3.3	8396907	98	6446
2025-01-19 09:03:34.11	88.84	79.80	-40.1	-43.8	3.6	8413284	98	7580
2025-01-19 09:03:34.31	89.39	79.84	-40.0	-43.3	3.5	8440979	98	7162
2025-01-19 09:03:34.51	89.94	79.87	-40.0	-42.4	3.3	8440979	98	6492
2025-01-19 09:03:34.71	90.49	79.90	-40.0	-42.3	3.3	8413055	98	6411
2025-01-19 09:03:34.92	91.08	79.93	-40.0	-43.8	3.6	8398052	98	7610
2025-01-19 09:03:35.12	91.64	79.95	-40.1	-43.6	3.6	8422760	98	7412
2025-01-19 09:03:35.32	92.20	79.98	-40.0	-42.6	3.4	8446598	98	6616
2025-01-19 09:03:35.52	92.77	80.01	-40.0	-42.3	3.3	8399745	98	6414
2025-01-19 09:03:35.72	93.34	80.03	-40.0	-43.8	3.6	8383117	98	7557
2025-01-19 09:03:35.92	93.91	80.06	-40.0	-43.8	3.6	8447319	98	7565
2025-01-19 09:03:36.12	94.49	80.08	-40.0	-42.8	3.4	8447319	98	6733
2025-01-19 09:03:36.32	95.06	80.10	-40.0	-42.3	3.3	8424980	98	6406
2025-01-19 09:03:36.52	95.64	80.12	-40.0	-42.4	3.3	8406806	98	6448
2025-01-19 09:03:36.72	96.23	80.14	-40.0	-43.8	3.6	8396919	98	7593
2025-01-19 09:03:36.92	96.81	80.16	-40.0	-42.9	3.4	8440189	98	6871
2025-01-19 09:03:37.13	97.43	80.18	-40.0	-42.3	3.3	8418182	98	6426
2025-01-19 09:03:37.33	98.02	80.20	-40.0	-42.3	3.3	8391300	98	6391
2025-01-19 09:03:37.53	98.61	80.21	-40.0	-43.8	3.6	8412734	98	7559
2025-01-19 09:03:37.73	99.21	80.23	-40.0	-43.2	3.5	8456726	98	7112
2025-01-19 09:03:37.93	99.80	80.24	-40.0	-42.4	3.3	8456726	98	6470
2025-01-19 09:03:38.13	100.40	80.26	-40.1	-42.3	3.3	8406932	98	6399
2025-01-19 09:03:38.33	101.00	80.27	-40.0	-43.8	3.6	8388256	98	7607
2025-01-19 09:03:38.53	101.60	80.28	-40.0	-43.6	3.6	8413833	98	7376
2025-01-19 09:03:38.73	102.20	80.29	-40.0	-42.6	3.4	8441802	98	6568
2025-01-19 09:03:38.93	102.80	80.30	-40.0	-42.3	3.3	8403247	98	6401
2025-01-19 09:03:39.14	103.44	80.31	-40.1	-43.8	3.6	8394126	98	7599
2025-01-19 09:03:39.34	104.04	80.31	-40.1	-43.8	3.6	8440589	98	7592
2025-01-19 09:03:39.54	104.65	80.32	-40.1	-42.8	3.4	8440589	98	6733
2025-01-19 09:03:39.74	105.25	80.32	-40.1	-42.4	3.3	8392948	98	6450
2025-01-19 09:03:39.94	105.86	80.33	-40.1	-43.8	3.6	8392948	98	7572
2025-01-19 09:03:40.14	106.47	80.33	-40.1	-43.9	3.6	8393600	98	7616
2025-01-19 09:03:40.34	107.07	80.33	-40.1	-42.8	3.4	8439846	98	6752
2025-01-19 09:03:40.54	107.68	80.33	-40.1	-42.4	3.3	8418972	98	6400
2025-01-19 09:03:40.74	108.29	80.33	-40.1	-42.3	3.3	8401714	98	6387
2025-01-19 09:03:40.95	108.93	80.33	-40.0	-43.7	3.6	8415115	98	7523
2025-01-19 09:03:41.15	109.53	80.32	-40.0	-43.0	3.4	8438564	98	6914
2025-01-19 09:03:41.35	110.14	80.32	-40.1	-42.3	3.3	8412174	98	6378
2025-01-19 09:03:41.55	110.74	80.31	-40.1	-42.4	3.3	8412174	98	6403
2025-01-19 09:03:41.75	111.35	80.31	-40.1	-43.8	3.6	8398521	98	7564
2025-01-19 09:03:41.95	111.95	80.30	-40.1	-43.2	3.5	8423904	98	7067
2025-01-19 09:03:42.15	112.56	80.29	-40.0	-42.4	3.3	8425849	98	6448
2025-01-19 09:03:42.35	113.16	80.28	-40.0	-42.3	3.3	8400833	98	6410
2025-01-19 09:03:42.55	113.76	80.27	-40.0	-43.7	3.6	8385921	98	7505
2025-01-19 09:03:42.75	114.36	80.26	-40.0	-43.5	3.6	8444972	98	7352
2025-01-19 09:03:42.95	114.96	80.25	-40.0	-42.5	3.4	8420780	98	6548
2025-01-19 09:03:43.16	115.58	80.23	-40.0	-42.2	3.3	8385818	98	6336
2025-01-19 09:03:43.36	116.18	80.22	-40.0	-43.6	3.6	8385818	98	7471
2025-01-19 09:03:43.56	116.77	80.20	-40.0	-43.6	3.6	8399505	98	7491
2025-01-19 09:03:43.76	117.36	80.19	-40.0	-42.6	3.4	8449699	98	6671
2025-01-19 09:03:43.96	117.95	80.17	-40.0	-42.1	3.3	8411579	98	6292
2025-01-19 09:03:44.16	118.54	80.15	-40.0	-42.0	3.3	8391460	98	6252
2025-01-19 09:03:44.36	119.12	80.13	-40.0	-43.5	3.6	8410949	98	7380
2025-01-19 09:03:44.56	119.70	80.11	-40.0	-42.7	3.4	8437053	98	6729
2025-01-19 09:03:44.76	120.28	80.09	-39.9	-42.0	3.3	8412059	98	6264
2025-01-19 09:03:44.96	120.86	80.07	-40.0	-42.1	3.3	8412059	98	6255
2025-01-19 09:03:45.17	121.46	80.04	-40.0	-43.5	3.6	8396667	98	7345
2025-01-19 09:03:45.37	122.03	80.02	-40.0	-43.0	3.5	8437545	98	7009
2025-01-19 09:03:45.57	122.60	79.99	-40.0	-42.2	3.3	8438873	98	6334
2025-01-19 09:03:45.77	123.16	79.96	-40.0	-42.1	3.3	8392971	98	6296
2025-01-19 09:03:45.97	123.73	79.94	-40.0	-43.7	3.6	8390453	98	7536
2025-01-19 09:03:46.17	124.28	79.91	-40.4	-43.8	3.6	8436000	99	7300
2025-01-19 09:03:46.37	124.84	79.88	-40.4	-42.8	3.4	8372085	99	6497
2025-01-19 09:03:46.57	125.39	79.85	-40.4	-42.5	3.3	8402057	99	6271
2025-01-19 09:03:46.77	125.94	79.82	-40.0	-43.7	3.6	8402057	98	7498
2025-01-19 09:03:46.97	126.49	79.78	-40.0	-43.8	3.6	8336734	98	7568
2025-01-19 09:03:47.18	127.05	79.75	-40.4	-43.2	3.4	8390979	99	6752
2025-01-19 09:03:47.38	127.59	79.71	-40.4	-42.6	3.3	8407024	99	6338
2025-01-19 09:03:47.58	128.13	79.68	-40.4	-42.5	3.3	8399906	99	6259
2025-01-19 09:03:47.78	128.66	79.64	-40.0	-43.7	3.6	8346164	98	7555
2025-01-19 09:03:47.98	129.18	79.61	-40.0	-43.3	3.5	8445030	98	7203
2025-01-19 09:03:48.18	129.71	79.57	-40.0	-42.4	3.3	8415721	98	6455
2025-01-19 09:03:48.38	130.23	79.53	-40.0	-42.4	3.3	8415721	98	6471
2025-01-19 09:03:48.58	130.74	79.49	-40.0	-43.8	3.6	8402618	98	7583
2025-01-19 09:03:48.78	131.25	79.45	-40.0	-43.5	3.6	8427566	98	7382
2025-01-19 09:03:48.98	131.76	79.41	-40.0	-42.5	3.4	8443119	98	6577
2025-01-19 09:03:49.19	132.29	79.37	-40.0	-42.3	3.3	8397033	98	6435
2025-01-19 09:03:49.39	132.79	79.33	-40.0	-43.8	3.6	8389274	98	7571
2025-01-19 09:03:49.59	133.28	79.28	-40.0	-43.8	3.6	8415355	98	7612
2025-01-19 09:03:49.79	133.77	79.24	-40.0	-42.7	3.4	8423915	98	6750
2025-01-19 09:03:49.99	134.26	79.19	-40.0	-42.3	3.3	8392478	98	6401
2025-01-19 09:03:50.19	134.74	79.15	-40.0	-43.9	3.6	8397205	98	7666
2025-01-19 09:03:50.39	135.22	79.10	-40.0	-43.8	3.6	8397205	98	7621
2025-01-19 09:03:50.59	135.70	79.06	-40.0	-42.8	3.4	8444263	98	6786
2025-01-19 09:03:50.79	136.17	79.01	-40.0	-42.4	3.3	8423503	98	6441
2025-01-19 09:03:50.99	136.63	78.96	-40.0	-42.4	3.3	8393360	98	6454
2025-01-19 09:03:51.20	137.12	78.91	-40.0	-43.7	3.6	8427680	98	7508
2025-01-19 09:03:51.40	137.57	78.86	-40.0	-43.0	3.4	8433780	98	6945
2025-01-19 09:03:51.60	138.03	78.81	-40.0	-42.3	3.3	8413764	98	6429
2025-01-19 09:03:51.80	138.48	78.76	-40.0	-42.3	3.3	8390773	98	6400
2025-01-19 09:03:52.00	138.92	78.71	-40.0	-43.8	3.6	8411178	98	7541
2025-01-19 09:03:52.20	139.36	78.65	-40.0	-43.3	3.5	8411178	98	7128
2025-01-19 09:03:52.40	139.80	78.60	-40.1	-42.5	3.3	8434432	98	6490
2025-01-19 09:03:52.60	140.23	78.55	-40.1	-42.3	3.3	8406028	98	6408
2025-01-19 09:03:52.80	140.66	78.49	-40.0	-43.8	3.6	8391380	98	7576
2025-01-19 09:03:53.00	141.09	78.44	-40.0	-43.5	3.6	8446907	98	7366
2025-01-19 09:03:53.21	141.53	78.38	-40.0	-42.5	3.4	8447296	98	6548
2025-01-19 09:03:53.41	141.94	78.32	-40.0	-42.3	3.3	8392604	98	6411
2025-01-19 09:03:53.61	142.36	78.27	-40.1	-43.8	3.6	8385532	98	7576
2025-01-19 09:03:53.81	142.76	78.21	-40.0	-43.8	3.6	8385532	98	7615
2025-01-19 09:03:54.01	143.17	78.15	-40.0	-42.7	3.4	8439926	98	6713
2025-01-19 09:03:54.21	143.57	78.09	-40.0	-42.4	3.3	8434684	98	6464
2025-01-19 09:03:54.41	143.96	78.03	-40.1	-42.4	3.3	8385063	98	6449
2025-01-19 09:03:54.61	144.35	77.97	-40.0	-43.8	3.6	8403751	98	7611
2025-01-19 09:03:54.81	144.74	77.91	-40.0	-43.0	3.4	8448429	98	6896
2025-01-19 09:03:55.01	145.13	77.85	-40.0	-42.4	3.3	8410388	98	6435
2025-01-19 09:03:55.22	145.52	77.79	-40.0	-42.4	3.3	8394195	98	6444
2025-01-19 09:03:55.42	145.90	77.73	-40.0	-43.8	3.6	8394195	98	7564
2025-01-19 09:03:55.62	146.27	77.67	-40.3	-43.5	3.5	8425346	99	7050
2025-01-19 09:03:55.82	146.64	77.60	-40.3	-42.6	3.3	8383598	99	6351
2025-01-19 09:03:56.02	147.01	77.54	-40.3	-42.5	3.3	8399471	99	6292
2025-01-19 09:03:56.22	147.37	77.48	-40.0	-43.8	3.6	8392021	98	7567
2025-01-19 09:03:56.42	147.72	77.42	-40.0	-43.8	3.6	8367382	98	7616
2025-01-19 09:03:56.62	148.08	77.35	-40.4	-43.1	3.4	8385772	99	6729
2025-01-19 09:03:56.82	148.43	77.29	-40.4	-42.5	3.3	8402320	99	6286
2025-01-19 09:03:57.02	148.77	77.22	-40.4	-42.5	3.3	8391403	99	6330
2025-01-19 09:03:57.23	149.13	77.15	-40.0	-43.8	3.6	8391403	98	7629
2025-01-19 09:03:57.43	149.47	77.09	-40.0	-43.4	3.5	8374912	98	7237
2025-01-19 09:03:57.63	149.81	77.02	-40.1	-42.5	3.3	8438610	98	6548
2025-01-19 09:03:57.83	150.14	76.95	-40.0	-42.3	3.3	8391151	98	6418
2025-01-19 09:03:58.03	150.47	76.89	-40.1	-43.9	3.6	8400993	98	7633
2025-01-19 09:03:58.23	150.79	76.82	-40.0	-43.8	3.6	8424144	98	7604
2025-01-19 09:03:58.43	151.11	76.75	-40.0	-42.8	3.4	8438953	98	6770
2025-01-19 09:03:58.63	151.43	76.68	-40.0	-42.3	3.3	8400455	98	6409
2025-01-19 09:03:58.83	151.74	76.61	-40.0	-42.4	3.3	8400455	98	6464
2025-01-19 09:03:59.04	152.07	76.54	-40.0	-43.8	3.6	8381298	98	7563
2025-01-19 09:03:59.24	152.38	76.47	-40.0	-43.0	3.4	8438106	98	6923
2025-01-19 09:03:59.44	152.68	76.40	-40.0	-42.3	3.3	8433643	98	6394
2025-01-19 09:03:59.64	152.99	76.33	-40.0	-42.3	3.3	8395454	98	6380
2025-01-19 09:03:59.84	153.28	76.26	-40.0	-43.8	3.6	8405834	98	7582
2025-01-19 09:04:00.04	153.58	76.19	-40.0	-42.9	3.4	8442432	98	6881
2025-01-19 09:04:00.24	153.87	76.12	-40.0	-42.3	3.3	8418674	98	6392
2025-01-19 09:04:00.44	154.16	76.05	-40.0	-42.4	3.3	8393405	98	6465
2025-01-19 09:04:00.64	154.45	75.98	-40.0	-43.8	3.6	8413845	98	7623
2025-01-19 09:04:00.84	154.73	75.91	-40.0	-43.2	3.5	8434284	98	7115
2025-01-19 09:04:01.05	155.02	75.83	-40.0	-42.5	3.3	8434284	98	6514
2025-01-19 09:04:01.25	155.30	75.76	-40.0	-42.4	3.3	8394435	98	6446
2025-01-19 09:04:01.45	155.57	75.69	-40.0	-43.8	3.6	8394321	98	7635
2025-01-19 09:04:01.65	155.84	75.61	-40.0	-43.6	3.6	8429317	98	7456
2025-01-19 09:04:01.85	156.11	75.54	-40.0	-42.5	3.4	8429969	98	6581
2025-01-19 09:04:02.05	156.38	75.47	-40.0	-42.3	3.3	8404769	98	6408
2025-01-19 09:04:02.25	156.64	75.39	-40.0	-43.7	3.6	8396724	98	7555
2025-01-19 09:04:02.45	156.90	75.32	-40.0	-43.9	3.6	8432842	98	7665
2025-01-19 09:04:02.65	157.16	75.24	-40.0	-42.7	3.4	8432842	98	6704
2025-01-19 09:04:02.85	157.41	75.17	-40.0	-42.2	3.3	8424659	98	6378
2025-01-19 09:04:03.05	157.67	75.10	-40.0	-42.3	3.3	8402584	98	6387
2025-01-19 09:04:03.26	157.93	75.02	-40.0	-43.7	3.6	8391231	98	7521
2025-01-19 09:04:03.46	158.17	74.94	-40.0	-42.9	3.4	8446174	98	6847
2025-01-19 09:04:03.66	158.42	74.87	-40.0	-42.3	3.3	8409896	98	6394
2025-01-19 09:04:03.86	158.66	74.79	-40.0	-42.3	3.3	8392948	98	6409
2025-01-19 09:04:04.06	158.90	74.71	-40.0	-43.7	3.6	8399711	98	7563
2025-01-19 09:04:04.26	159.14	74.64	-40.4	-43.6	3.5	8399711	99	7108
2025-01-19 09:04:04.46	159.37	74.56	-40.4	-42.7	3.3	8388187	99	6413
2025-01-19 09:04:04.66	159.60	74.49	-40.4	-42.6	3.3	8398818	99	6318
2025-01-19 09:04:04.86	159.83	74.41	-40.0	-43.7	3.6	8384033	98	7567
2025-01-19 09:04:05.06	160.06	74.33	-40.0	-43.8	3.6	8368698	98	7567
2025-01-19 09:04:05.26	160.28	74.26	-40.0	-42.7	3.4	8438804	98	6680
2025-01-19 09:04:05.47	160.52	74.17	-40.0	-42.4	3.3	8403099	98	6483
2025-01-19 09:04:05.67	160.74	74.10	-40.0	-43.8	3.6	8390876	98	7627
2025-01-19 09:04:05.87	160.96	74.02	-40.0	-43.9	3.6	8455776	98	7659
2025-01-19 09:04:06.07	161.17	73.94	-40.0	-42.8	3.4	8455776	98	6761
2025-01-19 09:04:06.27	161.39	73.86	-40.0	-42.3	3.3	8410491	98	6410
2025-01-19 09:04:06.47	161.60	73.79	-40.0	-42.4	3.3	8398143	98	6433
2025-01-19 09:04:06.67	161.81	73.71	-40.0	-43.8	3.6	8397972	98	7602
2025-01-19 09:04:06.87	162.01	73.63	-40.0	-43.0	3.4	8437259	98	6916
2025-01-19 09:04:07.07	162.22	73.55	-40.0	-42.4	3.3	8413501	98	6429
2025-01-19 09:04:07.27	162.42	73.47	-40.0	-42.4	3.3	8385566	98	6448
2025-01-19 09:04:07.47	162.62	73.39	-40.0	-43.8	3.6	8427383	98	7588
2025-01-19 09:04:07.68	162.83	73.31	-40.0	-43.3	3.5	8427383	98	7153
2025-01-19 09:04:07.88	163.03	73.23	-40.0	-42.4	3.3	8442924	98	6498
2025-01-19 09:04:08.08	163.23	73.15	-40.0	-42.3	3.3	8393886	98	6423
2025-01-19 09:04:08.28	163.42	73.07	-40.0	-43.8	3.6	8386402	98	7563
2025-01-19 09:04:08.48	163.61	72.99	-40.0	-43.6	3.6	8418434	98	7416
2025-01-19 09:04:08.68	163.80	72.91	-40.0	-42.6	3.3	8427726	98	6605
2025-01-19 09:04:08.88	163.99	72.83	-40.0	-42.4	3.3	8400741	98	6454
2025-01-19 09:04:09.08	164.17	72.75	-40.0	-43.8	3.6	8396976	98	7610
2025-01-19 09:04:09.28	164.36	72.67	-40.0	-43.8	3.6	8456565	98	7577
2025-01-19 09:04:09.48	164.54	72.59	-40.0	-42.7	3.4	8456565	98	6738
2025-01-19 09:04:09.68	164.72	72.51	-40.0	-42.4	3.3	8428710	98	6469
2025-01-19 09:04:09.89	164.91	72.43	-40.0	-42.4	3.3	8408752	98	6439
2025-01-19 09:04:10.09	165.09	72.35	-40.0	-43.8	3.6	8407115	98	7583
2025-01-19 09:04:10.29	165.26	72.27	-40.4	-43.4	3.5	8378940	99	6926
2025-01-19 09:04:10.49	165.44	72.19	-40.4	-42.7	3.3	8417427	99	6368
2025-01-19 09:04:10.69	165.61	72.11	-40.4	-42.6	3.3	8384754	99	6359
2025-01-19 09:04:10.89	165.78	72.03	-40.0	-43.8	3.6	8361591	98	7572
2025-01-19 09:04:11.09	165.95	71.95	-40.0	-43.1	3.5	8443485	98	7014
2025-01-19 09:04:11.29	166.11	71.86	-40.0	-42.5	3.3	8402435	98	6501
2025-01-19 09:04:11.49	166.28	71.78	-40.0	-42.4	3.3	8402435	98	6458
2025-01-19 09:04:11.70	166.45	71.70	-40.0	-43.8	3.6	8396072	98	7612
2025-01-19 09:04:11.90	166.62	71.62	-40.4	-43.9	3.6	8430015	99	7364
2025-01-19 09:04:12.10	166.78	71.54	-40.4	-42.9	3.4	8381412	99	6551
2025-01-19 09:04:12.30	166.94	71.46	-40.4	-42.6	3.3	8402698	99	6334
2025-01-19 09:04:12.50	167.09	71.37	-40.0	-43.8	3.6	8390144	98	7604
2025-01-19 09:04:12.70	167.25	71.29	-40.0	-43.8	3.6	8382762	98	7570
2025-01-19 09:04:12.90	167.41	71.21	-40.0	-42.8	3.4	8441471	98	6800
2025-01-19 09:04:13.10	167.56	71.13	-40.0	-42.4	3.3	8441471	98	6443
2025-01-19 09:04:13.30	167.71	71.05	-40.0	-42.4	3.3	8407711	98	6446
2025-01-19 09:04:13.51	167.87	70.96	-40.0	-43.9	3.6	8399105	98	7676
2025-01-19 09:04:13.71	168.02	70.88	-40.0	-43.0	3.4	8439468	98	6964
2025-01-19 09:04:13.91	168.17	70.80	-40.0	-42.3	3.3	8432533	98	6434
2025-01-19 09:04:14.11	168.32	70.72	-40.0	-42.4	3.3	8386745	98	6453
2025-01-19 09:04:14.31	168.46	70.63	-40.0	-43.8	3.6	8414726	98	7612
2025-01-19 09:04:14.51	168.61	70.55	-40.0	-43.2	3.5	8445133	98	7122
2025-01-19 09:04:14.71	168.75	70.47	-40.0	-42.4	3.3	8397136	98	6486
2025-01-19 09:04:14.91	168.89	70.39	-40.0	-42.3	3.3	8397136	98	6402
2025-01-19 09:04:15.11	169.03	70.31	-40.0	-43.8	3.6	8385223	98	7570
2025-01-19 09:04:15.31	169.17	70.22	-40.0	-43.5	3.6	8425151	98	7375
2025-01-19 09:04:15.52	169.32	70.14	-40.0	-42.5	3.4	8436092	98	6575

#Closed at: 2025-01-19 09:04:15