passes_logs/2026/01/06/planumMaritime01/planumMaritime01__20260106_085809_METEOR-M2_3_rec.log

#Pass ID: 20260106_085809_METEOR-M2 3
#Satellite: METEOR-M2 3
#Configuration: METEOR-M2 3
#Start time: 2026-01-06 08:58:14.998490

#LorettStation: 1.0.0 05.05.2024
#Station: planumMaritime01
#Location: 37.49445 lon 55.92918 lat
#TLE: 1 57166U 23091A   26005.65124170  .00000050  00000+0  40895-4 0  9993
#TLE: 2 57166  98.6342  63.7690 0002892 286.9740  73.1122 14.24029628131387

#Time	Az	El	Level	SNR
2026-01-06 08:58:17.170312	0.9	10.2	-71.4	0.0
2026-01-06 08:58:18.300363	0.7	10.2	-70.1	0.0
2026-01-06 08:58:19.428025	0.6	10.3	-72.3	0.0
2026-01-06 08:58:20.553814	0.5	10.4	-72.0	0.0
2026-01-06 08:58:21.682499	0.4	10.5	-72.5	0.0
2026-01-06 08:58:22.810426	0.3	10.6	-70.0	0.0
2026-01-06 08:58:23.939312	0.2	10.6	-70.9	0.0
2026-01-06 08:58:25.064607	0.0	10.7	-70.8	0.0
2026-01-06 08:58:26.190182	359.9	10.8	-71.4	0.0
2026-01-06 08:58:27.318157	359.8	10.9	-70.1	0.0
2026-01-06 08:58:28.445226	359.7	11.0	-70.2	0.0
2026-01-06 08:58:29.573521	359.5	11.1	-70.0	0.0
2026-01-06 08:58:30.698750	359.4	11.1	-70.1	0.0
2026-01-06 08:58:31.826694	359.3	11.2	-70.3	0.0
2026-01-06 08:58:32.952738	359.2	11.3	-69.4	0.0
2026-01-06 08:58:34.078965	359.0	11.4	-71.1	0.0
2026-01-06 08:58:35.206243	358.9	11.5	-71.3	0.0
2026-01-06 08:58:36.332938	358.8	11.6	-70.7	0.0
2026-01-06 08:58:37.459117	358.7	11.6	-70.8	0.0
2026-01-06 08:58:38.586321	358.5	11.7	-70.6	0.0
2026-01-06 08:58:39.713152	358.4	11.8	-71.7	0.0
2026-01-06 08:58:40.844898	358.3	11.9	-72.0	0.0
2026-01-06 08:58:41.978761	358.1	12.0	-72.1	0.0
2026-01-06 08:58:43.116127	358.0	12.1	-71.1	0.0
2026-01-06 08:58:44.251427	357.9	12.2	-70.3	0.0
2026-01-06 08:58:45.384661	357.7	12.2	-71.9	0.0
2026-01-06 08:58:46.517775	357.6	12.3	-71.8	0.0
2026-01-06 08:58:47.649380	357.5	12.4	-71.5	0.0
2026-01-06 08:58:48.783434	357.3	12.5	-72.5	0.0
2026-01-06 08:58:49.917211	357.2	12.6	-71.6	0.0
2026-01-06 08:58:51.049548	357.0	12.7	-71.6	0.0
2026-01-06 08:58:52.181846	356.9	12.8	-70.7	0.0
2026-01-06 08:58:53.319940	356.8	12.8	-70.9	0.0
2026-01-06 08:58:54.453453	356.6	12.9	-72.2	0.0
2026-01-06 08:58:55.588069	356.5	13.0	-71.7	0.0
2026-01-06 08:58:56.719423	356.3	13.1	-71.9	0.0
2026-01-06 08:58:57.855447	356.2	13.2	-71.6	0.0
2026-01-06 08:58:58.992386	356.1	13.3	-71.5	0.0
2026-01-06 08:59:00.125592	355.9	13.4	-71.2	0.0
2026-01-06 08:59:01.263230	355.8	13.4	-71.8	0.0
2026-01-06 08:59:02.403480	355.6	13.5	-71.6	0.0
2026-01-06 08:59:03.541027	355.5	13.6	-72.2	0.0
2026-01-06 08:59:04.678759	355.3	13.7	-73.0	0.0
2026-01-06 08:59:05.815941	355.2	13.8	-71.3	0.0
2026-01-06 08:59:06.954497	355.0	13.9	-71.7	0.0
2026-01-06 08:59:08.091899	354.9	14.0	-71.5	0.0
2026-01-06 08:59:09.233888	354.7	14.1	-72.2	0.0
2026-01-06 08:59:10.373781	354.5	14.2	-71.5	0.0
2026-01-06 08:59:11.511751	354.4	14.2	-71.8	0.0
2026-01-06 08:59:12.646128	354.2	14.3	-71.8	0.0
2026-01-06 08:59:13.783052	354.1	14.4	-72.0	0.0
2026-01-06 08:59:14.921831	353.9	14.5	-72.7	0.0
2026-01-06 08:59:16.058934	353.8	14.6	-73.4	0.0
2026-01-06 08:59:17.196540	353.6	14.7	-72.4	0.0
2026-01-06 08:59:18.334984	353.4	14.8	-72.2	0.0
2026-01-06 08:59:19.473508	353.3	14.9	-71.2	0.0
2026-01-06 08:59:20.610975	353.1	15.0	-70.7	0.0
2026-01-06 08:59:21.748521	352.9	15.0	-71.7	0.0
2026-01-06 08:59:22.886788	352.8	15.1	-72.4	0.0
2026-01-06 08:59:24.023513	352.6	15.2	-71.8	0.0
2026-01-06 08:59:25.161641	352.4	15.3	-71.6	0.0
2026-01-06 08:59:26.298091	352.3	15.4	-72.1	0.0
2026-01-06 08:59:27.437304	352.1	15.5	-71.8	0.0
2026-01-06 08:59:28.574858	351.9	15.6	-71.3	0.0
2026-01-06 08:59:29.712913	351.8	15.7	-72.5	0.0
2026-01-06 08:59:30.850489	351.6	15.8	-71.5	0.0
2026-01-06 08:59:31.984793	351.4	15.9	-71.8	0.0
2026-01-06 08:59:33.123185	351.2	16.0	-71.9	0.0
2026-01-06 08:59:34.261412	351.1	16.0	-73.5	0.0
2026-01-06 08:59:35.397778	350.9	16.1	-72.3	0.0
2026-01-06 08:59:36.532708	350.7	16.2	-72.6	0.0
2026-01-06 08:59:37.669765	350.5	16.3	-72.2	0.0
2026-01-06 08:59:38.806967	350.3	16.4	-71.7	0.0
2026-01-06 08:59:39.945398	350.2	16.5	-70.6	0.0
2026-01-06 08:59:41.083261	350.0	16.6	-71.1	0.0
2026-01-06 08:59:42.221943	349.8	16.7	-71.6	0.0
2026-01-06 08:59:43.358067	349.6	16.8	-71.2	0.0
2026-01-06 08:59:44.493268	349.4	16.9	-71.2	0.0
2026-01-06 08:59:45.631618	349.2	16.9	-71.9	0.0
2026-01-06 08:59:46.769072	349.0	17.0	-71.2	0.0
2026-01-06 08:59:47.905592	348.9	17.1	-72.0	0.0
2026-01-06 08:59:49.042839	348.7	17.2	-70.6	0.0
2026-01-06 08:59:50.182203	348.5	17.3	-71.9	0.0
2026-01-06 08:59:51.318918	348.3	17.4	-70.6	0.0
2026-01-06 08:59:52.456804	348.1	17.5	-72.1	0.0
2026-01-06 08:59:53.593971	347.9	17.6	-69.8	0.0
2026-01-06 08:59:54.730064	347.7	17.7	-71.9	0.0
2026-01-06 08:59:55.864628	347.5	17.8	-71.1	0.0
2026-01-06 08:59:57.001918	347.3	17.9	-71.2	0.0
2026-01-06 08:59:58.136471	347.1	18.0	-70.5	0.0
2026-01-06 08:59:59.273509	346.9	18.0	-71.2	0.0
2026-01-06 09:00:00.408737	346.7	18.1	-71.2	0.0
2026-01-06 09:00:01.546741	346.5	18.2	-70.7	0.0
2026-01-06 09:00:02.685338	346.3	18.3	-72.2	0.0
2026-01-06 09:00:03.824016	346.1	18.4	-70.9	0.0
2026-01-06 09:00:04.959556	345.9	18.5	-71.7	0.0
2026-01-06 09:00:06.099266	345.7	18.6	-70.8	0.0
2026-01-06 09:00:07.235179	345.4	18.7	-69.9	0.0
2026-01-06 09:00:08.374437	345.2	18.8	-70.1	0.0
2026-01-06 09:00:09.510091	345.0	18.9	-70.1	0.0
2026-01-06 09:00:10.646783	344.8	18.9	-69.5	0.0
2026-01-06 09:00:11.781276	344.6	19.0	-70.2	0.0
2026-01-06 09:00:12.919683	344.4	19.1	-69.8	0.0
2026-01-06 09:00:14.059625	344.2	19.2	-69.1	0.0
2026-01-06 09:00:15.196605	343.9	19.3	-68.9	0.0
2026-01-06 09:00:16.334595	343.7	19.4	-70.7	0.0
2026-01-06 09:00:17.472641	343.5	19.5	-70.1	0.0
2026-01-06 09:00:18.606412	343.3	19.6	-69.5	0.0
2026-01-06 09:00:19.733438	343.0	19.7	-71.1	0.0
2026-01-06 09:00:20.863525	342.8	19.8	-70.4	0.0
2026-01-06 09:00:21.994400	342.6	19.8	-70.4	0.0
2026-01-06 09:00:23.121085	342.4	19.9	-69.2	0.0
2026-01-06 09:00:24.250097	342.1	20.0	-69.5	0.0
2026-01-06 09:00:25.377224	341.9	20.1	-69.3	0.0
2026-01-06 09:00:26.505592	341.7	20.2	-71.1	0.0
2026-01-06 09:00:27.635598	341.4	20.3	-69.6	0.0
2026-01-06 09:00:28.763786	341.2	20.4	-69.3	0.0
2026-01-06 09:00:29.891496	341.0	20.5	-70.6	0.0
2026-01-06 09:00:31.019478	340.7	20.5	-70.6	0.0
2026-01-06 09:00:32.149540	340.5	20.6	-71.1	0.0
2026-01-06 09:00:33.279278	340.3	20.7	-69.7	0.0
2026-01-06 09:00:34.409005	340.0	20.8	-70.5	0.0
2026-01-06 09:00:35.538324	339.8	20.9	-69.9	0.0
2026-01-06 09:00:36.665487	339.5	21.0	-70.5	0.0
2026-01-06 09:00:37.793374	339.3	21.1	-69.5	0.0
2026-01-06 09:00:38.924467	339.0	21.2	-70.0	0.0
2026-01-06 09:00:40.055773	338.8	21.2	-70.4	0.0
2026-01-06 09:00:41.191622	338.5	21.3	-70.8	0.0
2026-01-06 09:00:42.323555	338.3	21.4	-70.5	0.0
2026-01-06 09:00:43.459262	338.0	21.5	-70.7	0.0
2026-01-06 09:00:44.596643	337.8	21.6	-71.6	0.0
2026-01-06 09:00:45.729808	337.5	21.7	-70.4	0.0
2026-01-06 09:00:46.866934	337.3	21.7	-71.0	0.0
2026-01-06 09:00:48.002271	337.0	21.8	-71.7	0.0
2026-01-06 09:00:49.138160	336.7	21.9	-70.9	0.0
2026-01-06 09:00:50.273735	336.5	22.0	-71.1	0.0
2026-01-06 09:00:51.413171	336.2	22.1	-71.6	0.0
2026-01-06 09:00:52.551101	335.9	22.2	-71.2	0.0
2026-01-06 09:00:53.687538	335.7	22.2	-71.1	0.0
2026-01-06 09:00:54.825207	335.4	22.3	-71.5	0.0
2026-01-06 09:00:55.959745	335.1	22.4	-71.9	0.0
2026-01-06 09:00:57.097348	334.9	22.5	-72.2	0.0
2026-01-06 09:00:58.231280	334.6	22.6	-71.9	0.0
2026-01-06 09:00:59.366800	334.3	22.6	-71.3	0.0
2026-01-06 09:01:00.501294	334.0	22.7	-72.8	0.0
2026-01-06 09:01:01.634715	333.8	22.8	-72.9	0.6
2026-01-06 09:01:02.767756	333.5	22.9	-73.3	0.0
2026-01-06 09:01:03.899364	333.2	23.0	-72.4	0.0
2026-01-06 09:01:05.027280	332.9	23.0	-70.7	0.0
2026-01-06 09:01:06.156103	332.7	23.1	-69.6	0.0
2026-01-06 09:01:07.287353	332.4	23.2	-74.1	0.0
2026-01-06 09:01:08.415702	332.1	23.3	-73.3	0.0
2026-01-06 09:01:09.544408	331.8	23.3	-72.6	0.0
2026-01-06 09:01:10.675176	331.5	23.4	-73.0	0.0
2026-01-06 09:01:11.808545	331.2	23.5	-72.9	0.3
2026-01-06 09:01:12.936829	330.9	23.6	-74.1	0.0
2026-01-06 09:01:14.065683	330.6	23.6	-74.1	0.4
2026-01-06 09:01:15.195359	330.4	23.7	-73.7	0.0
2026-01-06 09:01:16.323681	330.1	23.8	-73.1	0.0
2026-01-06 09:01:17.453827	329.8	23.8	-74.2	0.5
2026-01-06 09:01:18.583365	329.5	23.9	-73.5	1.4
2026-01-06 09:01:19.712610	329.2	24.0	-74.0	1.5
2026-01-06 09:01:20.841955	328.9	24.0	-74.7	0.0
2026-01-06 09:01:21.970050	328.6	24.1	-74.5	0.5
2026-01-06 09:01:23.098762	328.3	24.2	-75.5	1.8
2026-01-06 09:01:24.226055	328.0	24.2	-74.3	2.6
2026-01-06 09:01:25.353826	327.7	24.3	-75.2	2.9
2026-01-06 09:01:26.481796	327.4	24.4	-74.8	1.7
2026-01-06 09:01:27.608287	327.1	24.4	-74.9	2.5
2026-01-06 09:01:28.734148	326.8	24.5	-75.9	4.6
2026-01-06 09:01:29.863113	326.4	24.6	-74.5	3.9
2026-01-06 09:01:30.992870	326.1	24.6	-75.9	5.8
2026-01-06 09:01:32.123078	325.8	24.7	-74.4	2.4
2026-01-06 09:01:33.250251	325.5	24.8	-75.4	4.8
2026-01-06 09:01:34.379813	325.2	24.8	-75.5	5.5
2026-01-06 09:01:35.508889	324.9	24.9	-75.6	4.5
2026-01-06 09:01:36.639503	324.6	24.9	-74.5	3.4
2026-01-06 09:01:37.773775	324.2	25.0	-76.2	4.8
2026-01-06 09:01:38.910504	323.9	25.0	-75.6	5.6
2026-01-06 09:01:40.048718	323.6	25.1	-76.3	5.2
2026-01-06 09:01:41.186863	323.3	25.2	-77.0	5.8
2026-01-06 09:01:42.324739	323.0	25.2	-76.5	5.7
2026-01-06 09:01:43.462407	322.6	25.3	-76.6	3.7
2026-01-06 09:01:44.602955	322.3	25.3	-75.3	1.6
2026-01-06 09:01:45.742228	322.0	25.4	-74.6	2.7
2026-01-06 09:01:46.881177	321.6	25.4	-74.3	4.3
2026-01-06 09:01:48.018636	321.3	25.5	-74.7	3.0
2026-01-06 09:01:49.157630	321.0	25.5	-75.2	4.1
2026-01-06 09:01:50.294965	320.6	25.6	-76.6	5.6
2026-01-06 09:01:51.430628	320.3	25.6	-76.0	5.4
2026-01-06 09:01:52.568491	320.0	25.7	-76.6	6.5
2026-01-06 09:01:53.705339	319.6	25.7	-74.5	3.4
2026-01-06 09:01:54.842204	319.3	25.7	-74.5	1.1
2026-01-06 09:01:55.978234	319.0	25.8	-75.9	5.8
2026-01-06 09:01:57.117499	318.6	25.8	-76.1	4.7
2026-01-06 09:01:58.254799	318.3	25.9	-74.7	1.6
2026-01-06 09:01:59.391282	318.0	25.9	-75.3	3.4
2026-01-06 09:02:00.529574	317.6	26.0	-76.4	5.7
2026-01-06 09:02:01.667603	317.3	26.0	-74.7	3.7
2026-01-06 09:02:02.805882	316.9	26.0	-76.3	5.3
2026-01-06 09:02:03.940904	316.6	26.1	-75.3	5.8
2026-01-06 09:02:05.074118	316.2	26.1	-75.0	3.0
2026-01-06 09:02:06.208878	315.9	26.1	-76.5	6.4
2026-01-06 09:02:07.344495	315.6	26.2	-76.6	6.3
2026-01-06 09:02:08.480437	315.2	26.2	-75.5	4.9
2026-01-06 09:02:09.616565	314.9	26.2	-76.7	6.4
2026-01-06 09:02:10.751063	314.5	26.3	-75.6	5.9
2026-01-06 09:02:11.883565	314.2	26.3	-75.5	3.5
2026-01-06 09:02:13.018172	313.8	26.3	-74.6	2.9
2026-01-06 09:02:14.155194	313.5	26.3	-74.5	3.3
2026-01-06 09:02:15.292025	313.1	26.4	-75.4	4.8
2026-01-06 09:02:16.424695	312.8	26.4	-74.7	3.5
2026-01-06 09:02:17.559826	312.4	26.4	-76.1	6.1
2026-01-06 09:02:18.696615	312.1	26.4	-75.4	4.6
2026-01-06 09:02:19.833438	311.7	26.4	-74.2	4.0
2026-01-06 09:02:20.969893	311.4	26.5	-74.7	3.4
2026-01-06 09:02:22.105187	311.0	26.5	-74.3	1.8
2026-01-06 09:02:23.243168	310.7	26.5	-75.8	3.4
2026-01-06 09:02:24.378201	310.3	26.5	-75.1	3.0
2026-01-06 09:02:25.512005	310.0	26.5	-75.8	0.0
2026-01-06 09:02:26.648303	309.6	26.5	-75.6	5.6
2026-01-06 09:02:27.783247	309.3	26.6	-74.9	1.2
2026-01-06 09:02:28.917001	308.9	26.6	-74.6	3.2
2026-01-06 09:02:30.046741	308.6	26.6	-75.3	4.1
2026-01-06 09:02:31.177913	308.2	26.6	-76.0	3.7
2026-01-06 09:02:32.311212	307.8	26.6	-74.6	4.5
2026-01-06 09:02:33.444522	307.5	26.6	-75.7	4.8
2026-01-06 09:02:34.577523	307.1	26.6	-76.5	7.7
2026-01-06 09:02:35.707359	306.8	26.6	-76.7	7.0
2026-01-06 09:02:36.838161	306.4	26.6	-75.4	6.1
2026-01-06 09:02:37.968438	306.1	26.6	-75.9	4.5
2026-01-06 09:02:39.095342	305.7	26.6	-76.3	6.3
2026-01-06 09:02:40.222589	305.4	26.6	-75.7	3.8
2026-01-06 09:02:41.351610	305.0	26.6	-75.3	3.3
2026-01-06 09:02:42.482508	304.7	26.6	-75.9	5.4
2026-01-06 09:02:43.617728	304.3	26.6	-75.6	5.9
2026-01-06 09:02:44.750581	304.0	26.6	-74.1	2.5
2026-01-06 09:02:45.877450	303.6	26.6	-75.0	4.9
2026-01-06 09:02:47.007864	303.3	26.6	-74.6	5.1
2026-01-06 09:02:48.135473	302.9	26.6	-75.7	7.4
2026-01-06 09:02:49.263866	302.5	26.5	-74.8	3.8
2026-01-06 09:02:50.395744	302.2	26.5	-75.2	5.6
2026-01-06 09:02:51.523057	301.8	26.5	-74.6	4.9
2026-01-06 09:02:52.653383	301.5	26.5	-74.6	2.7
2026-01-06 09:02:53.786206	301.1	26.5	-74.0	2.8
2026-01-06 09:02:54.914634	300.8	26.5	-75.0	3.4
2026-01-06 09:02:56.045199	300.4	26.5	-75.2	7.1
2026-01-06 09:02:57.173120	300.1	26.4	-74.8	2.9
2026-01-06 09:02:58.301074	299.7	26.4	-75.1	5.0
2026-01-06 09:02:59.428661	299.4	26.4	-75.0	4.0
2026-01-06 09:03:00.557863	299.0	26.4	-75.2	4.1
2026-01-06 09:03:01.690618	298.7	26.3	-75.1	4.2
2026-01-06 09:03:02.827894	298.3	26.3	-74.6	1.3
2026-01-06 09:03:03.966090	298.0	26.3	-74.6	3.6
2026-01-06 09:03:05.103465	297.7	26.3	-74.5	4.0
2026-01-06 09:03:06.238275	297.3	26.2	-74.0	2.5
2026-01-06 09:03:07.374331	297.0	26.2	-75.0	3.3
2026-01-06 09:03:08.510283	296.6	26.2	-74.7	2.6
2026-01-06 09:03:09.644848	296.3	26.1	-76.1	6.0
2026-01-06 09:03:10.782043	295.9	26.1	-75.2	4.2
2026-01-06 09:03:11.918214	295.6	26.1	-74.7	3.3
2026-01-06 09:03:13.054903	295.2	26.0	-74.8	1.3
2026-01-06 09:03:14.187773	294.9	26.0	-74.8	0.9
2026-01-06 09:03:15.322141	294.5	26.0	-75.2	2.8
2026-01-06 09:03:16.454534	294.2	25.9	-75.2	3.3
2026-01-06 09:03:17.586390	293.9	25.9	-74.5	1.0
2026-01-06 09:03:18.721559	293.5	25.8	-74.6	0.6
2026-01-06 09:03:19.857465	293.2	25.8	-74.8	4.2
2026-01-06 09:03:20.993804	292.9	25.8	-74.4	3.9
2026-01-06 09:03:22.128909	292.5	25.7	-75.1	3.8
2026-01-06 09:03:23.263053	292.2	25.7	-74.8	4.7
2026-01-06 09:03:24.399207	291.8	25.6	-75.0	4.3
2026-01-06 09:03:25.534663	291.5	25.6	-74.1	3.1
2026-01-06 09:03:26.669536	291.2	25.5	-74.3	3.9
2026-01-06 09:03:27.804856	290.8	25.5	-74.3	3.7
2026-01-06 09:03:28.940310	290.5	25.4	-74.6	4.8
2026-01-06 09:03:30.077086	290.2	25.4	-74.6	2.1
2026-01-06 09:03:31.213490	289.9	25.3	-74.9	4.1
2026-01-06 09:03:32.351129	289.5	25.3	-74.6	2.6
2026-01-06 09:03:33.485999	289.2	25.2	-74.7	4.1
2026-01-06 09:03:34.620644	288.9	25.2	-75.4	4.1
2026-01-06 09:03:35.756276	288.6	25.1	-75.7	5.0
2026-01-06 09:03:36.891386	288.2	25.1	-75.6	3.7
2026-01-06 09:03:38.026340	287.9	25.0	-74.5	3.0
2026-01-06 09:03:39.162639	287.6	25.0	-74.0	1.6
2026-01-06 09:03:40.300069	287.3	24.9	-74.5	3.8
2026-01-06 09:03:41.435223	287.0	24.8	-74.4	5.5
2026-01-06 09:03:42.570578	286.6	24.8	-73.9	6.7
2026-01-06 09:03:43.708474	286.3	24.7	-76.0	4.9
2026-01-06 09:03:44.844344	286.0	24.7	-76.6	6.2
2026-01-06 09:03:45.978505	285.7	24.6	-76.6	6.0
2026-01-06 09:03:47.113513	285.4	24.5	-77.0	4.7
2026-01-06 09:03:48.252142	285.1	24.5	-76.9	6.1
2026-01-06 09:03:49.389728	284.8	24.4	-77.5	4.8
2026-01-06 09:03:50.528552	284.4	24.3	-76.5	6.3
2026-01-06 09:03:51.664820	284.1	24.3	-76.1	3.2
2026-01-06 09:03:52.804152	283.8	24.2	-74.7	0.5
2026-01-06 09:03:53.943108	283.5	24.1	-76.3	5.0
2026-01-06 09:03:55.079068	283.2	24.1	-75.7	0.0
2026-01-06 09:03:56.216467	282.9	24.0	-77.4	6.4
2026-01-06 09:03:57.354421	282.6	23.9	-77.4	5.8
2026-01-06 09:03:58.490965	282.3	23.9	-77.0	5.6
2026-01-06 09:03:59.630936	282.0	23.8	-77.1	5.1
2026-01-06 09:04:00.770413	281.7	23.7	-76.4	5.2
2026-01-06 09:04:01.909003	281.4	23.6	-76.0	2.5
2026-01-06 09:04:03.045614	281.1	23.6	-76.0	6.0
2026-01-06 09:04:04.183275	280.8	23.5	-76.4	6.3
2026-01-06 09:04:05.322317	280.6	23.4	-75.2	6.3
2026-01-06 09:04:06.459287	280.3	23.3	-76.1	4.7
2026-01-06 09:04:07.600563	280.0	23.3	-75.2	2.7
2026-01-06 09:04:08.737420	279.7	23.2	-77.0	8.4
2026-01-06 09:04:09.873911	279.4	23.1	-76.0	2.6
2026-01-06 09:04:11.012369	279.1	23.0	-76.5	7.9
2026-01-06 09:04:12.149421	278.8	23.0	-76.0	4.4
2026-01-06 09:04:13.289258	278.6	22.9	-76.7	7.4
2026-01-06 09:04:14.427138	278.3	22.8	-76.5	7.0
2026-01-06 09:04:15.565127	278.0	22.7	-75.8	5.0
2026-01-06 09:04:16.701896	277.7	22.6	-75.7	4.1
2026-01-06 09:04:17.840552	277.4	22.6	-75.6	4.4
2026-01-06 09:04:18.976291	277.2	22.5	-76.2	5.2
2026-01-06 09:04:20.118109	276.9	22.4	-76.3	3.2
2026-01-06 09:04:21.254392	276.6	22.3	-76.6	6.3
2026-01-06 09:04:22.391496	276.3	22.2	-76.3	5.9
2026-01-06 09:04:23.530600	276.1	22.2	-76.4	5.6
2026-01-06 09:04:24.665996	275.8	22.1	-76.7	5.7
2026-01-06 09:04:25.798269	275.5	22.0	-76.4	6.5
2026-01-06 09:04:26.930795	275.3	21.9	-76.6	4.5
2026-01-06 09:04:28.065246	275.0	21.8	-76.7	5.1
2026-01-06 09:04:29.203220	274.8	21.7	-76.2	3.9
2026-01-06 09:04:30.337466	274.5	21.7	-76.0	2.2
2026-01-06 09:04:31.473535	274.2	21.6	-76.6	5.3
2026-01-06 09:04:32.606452	274.0	21.5	-76.7	3.6
2026-01-06 09:04:33.740431	273.7	21.4	-76.7	6.0
2026-01-06 09:04:34.874017	273.5	21.3	-76.7	4.7
2026-01-06 09:04:36.010187	273.2	21.2	-76.8	6.0
2026-01-06 09:04:37.145608	273.0	21.2	-77.1	5.3
2026-01-06 09:04:38.282118	272.7	21.1	-77.1	6.0
2026-01-06 09:04:39.417250	272.5	21.0	-76.4	4.3
2026-01-06 09:04:40.552389	272.2	20.9	-76.6	5.1
2026-01-06 09:04:41.683115	272.0	20.8	-76.5	5.7
2026-01-06 09:04:42.810813	271.7	20.7	-76.1	5.6
2026-01-06 09:04:43.941262	271.5	20.6	-76.6	4.7
2026-01-06 09:04:45.070381	271.3	20.5	-76.2	5.5
2026-01-06 09:04:46.200768	271.0	20.5	-76.6	5.2
2026-01-06 09:04:47.332580	270.8	20.4	-77.1	5.7
2026-01-06 09:04:48.461298	270.5	20.3	-76.8	5.2
2026-01-06 09:04:49.588741	270.3	20.2	-76.9	5.5
2026-01-06 09:04:50.719165	270.1	20.1	-76.7	5.0
2026-01-06 09:04:51.847003	269.8	20.0	-76.8	4.9
2026-01-06 09:04:52.974213	269.6	19.9	-76.5	5.4
2026-01-06 09:04:54.103949	269.4	19.8	-77.1	6.0
2026-01-06 09:04:55.232018	269.2	19.7	-77.3	5.1
2026-01-06 09:04:56.362531	268.9	19.7	-76.9	5.2
2026-01-06 09:04:57.492990	268.7	19.6	-76.6	4.2
2026-01-06 09:04:58.619905	268.5	19.5	-77.1	4.6
2026-01-06 09:04:59.748942	268.3	19.4	-77.0	5.1
2026-01-06 09:05:00.878110	268.0	19.3	-77.2	5.5
2026-01-06 09:05:02.009177	267.8	19.2	-77.0	4.2
2026-01-06 09:05:03.137023	267.6	19.1	-76.8	4.9
2026-01-06 09:05:04.265970	267.4	19.0	-76.9	5.1
2026-01-06 09:05:05.395612	267.2	18.9	-77.1	4.8
2026-01-06 09:05:06.531144	267.0	18.9	-77.1	5.0
2026-01-06 09:05:07.667524	266.7	18.8	-76.9	5.2
2026-01-06 09:05:08.806970	266.5	18.7	-76.8	5.9
2026-01-06 09:05:09.944010	266.3	18.6	-76.7	5.5
2026-01-06 09:05:11.080463	266.1	18.5	-76.8	5.4
2026-01-06 09:05:12.213341	265.9	18.4	-76.9	5.3
2026-01-06 09:05:13.350294	265.7	18.3	-76.7	4.3
2026-01-06 09:05:14.486559	265.5	18.2	-76.7	4.8
2026-01-06 09:05:15.621253	265.3	18.1	-76.4	5.0
2026-01-06 09:05:16.756719	265.1	18.0	-77.0	4.7
2026-01-06 09:05:17.893396	264.9	17.9	-76.9	3.6
2026-01-06 09:05:19.030068	264.7	17.8	-77.2	5.0
2026-01-06 09:05:20.166021	264.5	17.8	-77.1	4.9
2026-01-06 09:05:21.302093	264.3	17.7	-77.0	4.9
2026-01-06 09:05:22.434027	264.1	17.6	-77.0	4.7
2026-01-06 09:05:23.567528	263.9	17.5	-76.9	4.6
2026-01-06 09:05:24.702136	263.7	17.4	-76.8	4.8
2026-01-06 09:05:25.833828	263.5	17.3	-76.8	4.5
2026-01-06 09:05:26.966473	263.3	17.2	-76.8	4.4
2026-01-06 09:05:28.100019	263.1	17.1	-76.8	4.4
2026-01-06 09:05:29.232412	262.9	17.0	-76.9	4.8
2026-01-06 09:05:30.363699	262.7	16.9	-76.9	4.5
2026-01-06 09:05:31.494439	262.5	16.8	-77.0	4.5
2026-01-06 09:05:32.628026	262.3	16.8	-76.9	4.6
2026-01-06 09:05:33.762128	262.2	16.7	-76.9	4.6
2026-01-06 09:05:34.893431	262.0	16.6	-76.8	4.5
2026-01-06 09:05:36.025785	261.8	16.5	-76.7	3.1
2026-01-06 09:05:37.160213	261.6	16.4	-75.5	2.7
2026-01-06 09:05:38.295825	261.4	16.3	-76.9	5.3
2026-01-06 09:05:39.433958	261.2	16.2	-76.9	4.0
2026-01-06 09:05:40.569020	261.1	16.1	-76.6	4.4
2026-01-06 09:05:41.707414	260.9	16.0	-76.9	4.2
2026-01-06 09:05:42.844782	260.7	15.9	-76.9	3.9
2026-01-06 09:05:43.980970	260.5	15.8	-76.8	4.4
2026-01-06 09:05:45.116562	260.3	15.8	-76.6	3.0
2026-01-06 09:05:46.254220	260.2	15.7	-76.5	4.4
2026-01-06 09:05:47.390710	260.0	15.6	-76.8	3.9
2026-01-06 09:05:48.528724	259.8	15.5	-76.9	3.1
2026-01-06 09:05:49.669687	259.7	15.4	-76.3	3.5
2026-01-06 09:05:50.807932	259.5	15.3	-77.0	4.1
2026-01-06 09:05:51.942518	259.3	15.2	-76.7	3.3
2026-01-06 09:05:53.081519	259.1	15.1	-76.9	3.4
2026-01-06 09:05:54.214399	259.0	15.0	-77.0	2.8
2026-01-06 09:05:55.352294	258.8	14.9	-77.0	2.9
2026-01-06 09:05:56.488968	258.6	14.8	-77.1	3.1
2026-01-06 09:05:57.625872	258.5	14.8	-76.8	3.6
2026-01-06 09:05:58.761424	258.3	14.7	-77.1	2.7
2026-01-06 09:05:59.902691	258.2	14.6	-76.9	3.3
2026-01-06 09:06:01.039995	258.0	14.5	-76.9	2.6
2026-01-06 09:06:02.180646	257.8	14.4	-76.8	2.8
2026-01-06 09:06:03.317506	257.7	14.3	-76.7	2.2
2026-01-06 09:06:04.455463	257.5	14.2	-76.8	2.4
2026-01-06 09:06:05.594602	257.4	14.1	-76.7	2.6
2026-01-06 09:06:06.734134	257.2	14.0	-76.6	3.5
2026-01-06 09:06:07.871306	257.1	14.0	-76.6	2.9
2026-01-06 09:06:09.005518	256.9	13.9	-76.8	2.6
2026-01-06 09:06:10.139791	256.7	13.8	-76.7	2.8
2026-01-06 09:06:11.277275	256.6	13.7	-76.6	2.4
2026-01-06 09:06:12.409896	256.4	13.6	-76.3	1.9
2026-01-06 09:06:13.544037	256.3	13.5	-76.3	1.4
2026-01-06 09:06:14.677047	256.1	13.4	-76.5	0.2
2026-01-06 09:06:15.811663	256.0	13.3	-76.8	1.1
2026-01-06 09:06:16.944871	255.8	13.2	-76.4	1.3
2026-01-06 09:06:18.078481	255.7	13.2	-76.5	2.0
2026-01-06 09:06:19.212260	255.6	13.1	-76.6	1.9
2026-01-06 09:06:20.347812	255.4	13.0	-76.5	2.2
2026-01-06 09:06:21.479892	255.3	12.9	-76.5	2.3
2026-01-06 09:06:22.613682	255.1	12.8	-76.4	2.7
2026-01-06 09:06:23.748338	255.0	12.7	-76.4	2.4
2026-01-06 09:06:24.882365	254.8	12.6	-76.2	1.4
2026-01-06 09:06:26.018023	254.7	12.6	-76.3	1.6
2026-01-06 09:06:27.153209	254.6	12.5	-76.3	1.0
2026-01-06 09:06:28.286074	254.4	12.4	-76.4	1.6
2026-01-06 09:06:29.421127	254.3	12.3	-76.0	0.8
2026-01-06 09:06:30.549606	254.1	12.2	-76.2	1.6
2026-01-06 09:06:31.681388	254.0	12.1	-75.8	2.1
2026-01-06 09:06:32.814457	253.9	12.0	-76.0	1.6
2026-01-06 09:06:33.949439	253.7	11.9	-76.0	0.0
2026-01-06 09:06:35.085191	253.6	11.9	-75.9	0.0
2026-01-06 09:06:36.218811	253.5	11.8	-76.1	0.4
2026-01-06 09:06:37.353099	253.3	11.7	-76.1	0.2
2026-01-06 09:06:38.487608	253.2	11.6	-76.0	0.0
2026-01-06 09:06:39.623176	253.1	11.5	-76.0	1.6
2026-01-06 09:06:40.757717	252.9	11.4	-75.8	0.0
2026-01-06 09:06:41.891416	252.8	11.4	-75.8	0.2
2026-01-06 09:06:43.027607	252.7	11.3	-75.8	0.0
2026-01-06 09:06:44.164693	252.6	11.2	-75.8	0.2
2026-01-06 09:06:45.300004	252.4	11.1	-75.8	0.0
2026-01-06 09:06:46.436287	252.3	11.0	-76.1	0.0
2026-01-06 09:06:47.570569	252.2	10.9	-77.2	0.0
2026-01-06 09:06:48.706667	252.1	10.8	-78.9	0.0
2026-01-06 09:06:49.843156	251.9	10.8	-81.0	0.0
2026-01-06 09:06:50.979739	251.8	10.7	-81.3	0.0
2026-01-06 09:06:52.113157	251.7	10.6	-81.1	0.0
2026-01-06 09:06:53.247052	251.6	10.5	-81.3	0.0
2026-01-06 09:06:54.381294	251.4	10.4	-81.8	0.0
2026-01-06 09:06:55.515177	251.3	10.4	-83.1	0.0
2026-01-06 09:06:56.645324	251.2	10.3	-84.3	0.0
2026-01-06 09:06:57.775099	251.1	10.2	-84.9	0.0
2026-01-06 09:06:58.902511	251.0	10.1	-84.5	0.0
2026-01-06 09:07:00.030806	250.8	10.0	-84.3	0.0
#Closed at: 2026-01-06 08:58:10.004535