passes_logs/2025/01/05/LEX_Murmansk/LEX_Murmansk__20250105_174601_NOAA_19_rec.log

#Pass ID: 20250105_174601_NOAA 19
#Satellite: NOAA 19
#Configuration: NOAA 19
#Start time: 2025-01-05 17:45:56.074690

#LorettStation: 1.0.0 05.05.2024
#Station: LEX_Murmansk
#Location: 33.156738 lon 68.926811 lat
#TLE: 1 33591U 09005A   25004.88002234  .00000560  00000+0  32285-3 0  9996
#TLE: 2 33591  99.0214  68.5635 0014675  84.4442 275.8403 14.13251363820110

#Time	Az	El	Level	SNR
2025-01-05 17:46:10.496537	154.3	16.6	-92.1	5.0
2025-01-05 17:46:11.658826	154.4	16.7	-91.9	3.7
2025-01-05 17:46:12.814932	154.4	16.8	-91.8	4.8
2025-01-05 17:46:13.973305	154.4	17.0	-92.2	4.3
2025-01-05 17:46:15.136391	154.4	17.1	-91.7	1.5
2025-01-05 17:46:16.303467	154.4	17.2	-91.8	0.9
2025-01-05 17:46:17.464453	154.4	17.4	-92.0	1.0
2025-01-05 17:46:18.630363	154.4	17.5	-92.1	2.7
2025-01-05 17:46:19.799074	154.4	17.7	-91.9	2.5
2025-01-05 17:46:20.962822	154.4	17.8	-92.2	1.5
2025-01-05 17:46:22.131456	154.4	17.9	-92.0	3.1
2025-01-05 17:46:23.296418	154.5	18.1	-91.9	1.7
2025-01-05 17:46:24.463424	154.5	18.2	-92.0	2.9
2025-01-05 17:46:25.627072	154.5	18.4	-92.4	3.4
2025-01-05 17:46:26.792115	154.5	18.5	-92.3	3.4
2025-01-05 17:46:27.953382	154.5	18.6	-92.0	1.8
2025-01-05 17:46:29.118023	154.5	18.8	-91.9	1.3
2025-01-05 17:46:30.283188	154.5	18.9	-92.2	3.6
2025-01-05 17:46:31.443467	154.5	19.1	-92.2	2.5
2025-01-05 17:46:32.607457	154.6	19.2	-92.5	2.9
2025-01-05 17:46:33.757853	154.6	19.4	-92.3	2.9
2025-01-05 17:46:34.922311	154.6	19.5	-92.5	4.4
2025-01-05 17:46:36.091460	154.6	19.7	-91.8	5.9
2025-01-05 17:46:37.246641	154.6	19.8	-92.1	4.2
2025-01-05 17:46:38.416020	154.6	20.0	-91.7	3.3
2025-01-05 17:46:39.579283	154.6	20.1	-91.9	3.4
2025-01-05 17:46:40.740522	154.6	20.3	-92.2	4.6
2025-01-05 17:46:41.904992	154.6	20.4	-91.6	2.8
2025-01-05 17:46:43.071583	154.7	20.6	-91.2	4.7
2025-01-05 17:46:44.233608	154.7	20.7	-91.0	5.1
2025-01-05 17:46:45.405488	154.7	20.9	-91.7	1.4
2025-01-05 17:46:46.569363	154.7	21.0	-91.7	3.8
2025-01-05 17:46:47.729921	154.7	21.2	-91.3	0.6
2025-01-05 17:46:48.897797	154.7	21.4	-92.5	1.2
2025-01-05 17:46:50.063110	154.7	21.5	-92.1	2.3
2025-01-05 17:46:51.228434	154.7	21.7	-92.2	6.3
2025-01-05 17:46:52.392829	154.8	21.8	-92.3	7.0
2025-01-05 17:46:53.557464	154.8	22.0	-92.5	6.8
2025-01-05 17:46:54.720020	154.8	22.2	-92.4	2.3
2025-01-05 17:46:55.881991	154.8	22.3	-92.0	2.8
2025-01-05 17:46:57.049318	154.8	22.5	-91.8	8.2
2025-01-05 17:46:58.207993	154.8	22.7	-91.8	2.6
2025-01-05 17:46:59.372437	154.8	22.8	-92.3	5.8
2025-01-05 17:47:00.520900	154.9	23.0	-92.2	8.4
2025-01-05 17:47:01.685352	154.9	23.2	-92.1	2.9
2025-01-05 17:47:02.848559	154.9	23.3	-92.0	1.2
2025-01-05 17:47:04.007281	154.9	23.5	-92.4	2.9
2025-01-05 17:47:05.172008	154.9	23.7	-92.2	4.1
2025-01-05 17:47:06.335185	154.9	23.9	-92.2	4.6
2025-01-05 17:47:07.492626	154.9	24.0	-92.2	5.0
2025-01-05 17:47:08.669695	154.9	24.2	-92.3	3.7
2025-01-05 17:47:09.834451	155.0	24.4	-92.3	3.2
2025-01-05 17:47:11.000967	155.0	24.6	-92.4	8.4
2025-01-05 17:47:12.159806	155.0	24.8	-91.8	1.9
2025-01-05 17:47:13.327301	155.0	24.9	-92.1	6.8
2025-01-05 17:47:14.495173	155.0	25.1	-92.2	6.0
2025-01-05 17:47:15.659643	155.0	25.3	-92.3	2.7
2025-01-05 17:47:16.832129	155.1	25.5	-92.4	1.1
2025-01-05 17:47:17.983123	155.1	25.7	-92.1	7.2
2025-01-05 17:47:19.146576	155.1	25.9	-91.8	2.7
2025-01-05 17:47:20.313752	155.1	26.1	-91.9	2.0
2025-01-05 17:47:21.476637	155.1	26.3	-92.3	4.7
2025-01-05 17:47:22.638353	155.1	26.5	-91.6	4.4
2025-01-05 17:47:23.802742	155.1	26.6	-91.4	6.3
2025-01-05 17:47:24.985824	155.2	26.8	-91.4	7.3
2025-01-05 17:47:26.144143	155.2	27.0	-91.0	12.0
2025-01-05 17:47:27.305043	155.2	27.2	-91.2	2.2
2025-01-05 17:47:28.468723	155.2	27.4	-91.2	3.9
2025-01-05 17:47:29.633221	155.2	27.6	-92.3	5.1
2025-01-05 17:47:30.795584	155.2	27.8	-92.6	8.7
2025-01-05 17:47:31.963194	155.3	28.0	-92.1	15.1
2025-01-05 17:47:33.127036	155.3	28.3	-91.9	9.7
2025-01-05 17:47:34.294982	155.3	28.5	-91.9	3.3
2025-01-05 17:47:35.457506	155.3	28.7	-92.1	3.7
2025-01-05 17:47:36.619479	155.3	28.9	-92.0	2.8
2025-01-05 17:47:37.781247	155.3	29.1	-92.0	1.4
2025-01-05 17:47:38.946181	155.4	29.3	-92.1	5.2
2025-01-05 17:47:40.102933	155.4	29.5	-92.2	12.8
2025-01-05 17:47:41.264789	155.4	29.7	-92.0	4.1
2025-01-05 17:47:42.428660	155.4	30.0	-92.2	9.4
2025-01-05 17:47:43.594318	155.4	30.2	-92.1	13.1
2025-01-05 17:47:44.756449	155.5	30.4	-92.1	2.0
2025-01-05 17:47:45.928325	155.5	30.6	-92.2	7.0
2025-01-05 17:47:47.092358	155.5	30.9	-92.0	11.5
2025-01-05 17:47:48.251235	155.5	31.1	-91.9	13.2
2025-01-05 17:47:49.414656	155.5	31.3	-92.2	7.8
2025-01-05 17:47:50.577395	155.6	31.5	-92.3	7.5
2025-01-05 17:47:51.731826	155.6	31.8	-92.4	3.6
2025-01-05 17:47:52.880279	155.6	32.0	-92.0	5.4
2025-01-05 17:47:54.039995	155.6	32.2	-92.2	1.3
2025-01-05 17:47:55.202888	155.6	32.5	-91.8	3.3
2025-01-05 17:47:56.362562	155.7	32.7	-92.0	2.7
2025-01-05 17:47:57.519956	155.7	33.0	-92.3	2.5
2025-01-05 17:47:58.688728	155.7	33.2	-92.3	5.7
2025-01-05 17:47:59.849776	155.7	33.4	-92.5	10.8
2025-01-05 17:48:01.003297	155.7	33.7	-92.3	4.7
2025-01-05 17:48:02.163410	155.8	33.9	-91.6	9.3
2025-01-05 17:48:03.325416	155.8	34.2	-92.1	4.4
2025-01-05 17:48:04.493112	155.8	34.4	-92.3	13.8
2025-01-05 17:48:05.654631	155.8	34.7	-92.7	4.4
2025-01-05 17:48:06.822657	155.9	35.0	-92.3	7.7
2025-01-05 17:48:07.983142	155.9	35.2	-92.6	7.8
2025-01-05 17:48:09.150629	155.9	35.5	-91.6	5.8
2025-01-05 17:48:10.314149	155.9	35.8	-91.9	2.5
2025-01-05 17:48:11.478398	156.0	36.0	-92.2	5.1
2025-01-05 17:48:12.646806	156.0	36.3	-92.3	4.4
2025-01-05 17:48:13.807134	156.0	36.6	-92.3	8.3
2025-01-05 17:48:14.974077	156.0	36.8	-92.3	6.1
2025-01-05 17:48:16.136545	156.1	37.1	-92.1	11.0
2025-01-05 17:48:17.301611	156.1	37.4	-91.8	8.8
2025-01-05 17:48:18.447656	156.1	37.7	-91.9	6.6
2025-01-05 17:48:19.618836	156.1	37.9	-92.3	7.7
2025-01-05 17:48:20.776010	156.2	38.2	-92.4	8.1
2025-01-05 17:48:21.945074	156.2	38.5	-92.5	5.8
2025-01-05 17:48:23.107908	156.2	38.8	-92.2	7.3
2025-01-05 17:48:24.284165	156.3	39.1	-92.3	8.0
2025-01-05 17:48:25.449798	156.3	39.4	-92.2	7.3
2025-01-05 17:48:26.613039	156.3	39.7	-92.2	6.4
2025-01-05 17:48:27.772027	156.4	40.0	-92.3	2.1
2025-01-05 17:48:28.932862	156.4	40.3	-92.3	0.7
2025-01-05 17:48:30.101437	156.4	40.6	-92.1	4.1
2025-01-05 17:48:31.266614	156.4	40.9	-91.7	3.5
2025-01-05 17:48:32.427180	156.5	41.2	-92.4	6.8
2025-01-05 17:48:33.592389	156.5	41.5	-92.7	13.1
2025-01-05 17:48:34.754711	156.5	41.9	-92.6	9.9
2025-01-05 17:48:35.922728	156.6	42.2	-92.5	9.1
2025-01-05 17:48:37.086364	156.6	42.5	-92.2	7.4
2025-01-05 17:48:38.242958	156.7	42.8	-92.3	6.4
2025-01-05 17:48:39.404387	156.7	43.1	-92.5	6.7
2025-01-05 17:48:40.567002	156.7	43.5	-92.4	12.2
2025-01-05 17:48:41.736334	156.8	43.8	-92.5	9.0
2025-01-05 17:48:42.896066	156.8	44.1	-92.4	14.1
2025-01-05 17:48:44.059799	156.8	44.5	-92.2	13.8
2025-01-05 17:48:45.218934	156.9	44.8	-92.1	8.4
2025-01-05 17:48:46.384036	156.9	45.2	-92.7	9.8
2025-01-05 17:48:47.547793	157.0	45.5	-92.7	5.4
2025-01-05 17:48:48.706168	157.0	45.9	-92.6	1.1
2025-01-05 17:48:49.866463	157.0	46.2	-92.4	4.5
2025-01-05 17:48:51.033101	157.1	46.6	-92.5	7.0
2025-01-05 17:48:52.196529	157.1	46.9	-92.1	12.4
2025-01-05 17:48:53.360649	157.2	47.3	-91.9	11.3
2025-01-05 17:48:54.526143	157.2	47.7	-92.2	10.3
2025-01-05 17:48:55.683060	157.3	48.0	-92.5	12.8
2025-01-05 17:48:56.850193	157.3	48.4	-92.7	7.2
2025-01-05 17:48:58.007905	157.4	48.8	-92.6	8.6
2025-01-05 17:48:59.173870	157.4	49.2	-92.3	6.5
2025-01-05 17:49:00.328025	157.5	49.5	-92.3	7.1
2025-01-05 17:49:01.481809	157.5	49.9	-92.6	12.6
2025-01-05 17:49:02.645946	157.6	50.3	-92.8	11.8
2025-01-05 17:49:03.814477	157.6	50.7	-92.6	11.1
2025-01-05 17:49:04.980454	157.7	51.1	-92.6	12.6
2025-01-05 17:49:06.147567	157.8	51.5	-92.1	6.9
2025-01-05 17:49:07.314049	157.8	51.9	-92.0	4.3
2025-01-05 17:49:08.474694	157.9	52.3	-92.4	2.7
2025-01-05 17:49:09.653081	157.9	52.7	-92.2	5.2
2025-01-05 17:49:10.816384	158.0	53.1	-92.3	3.7
2025-01-05 17:49:11.976040	158.1	53.5	-92.4	7.7
2025-01-05 17:49:13.122550	158.1	53.9	-92.2	7.6
2025-01-05 17:49:14.286899	158.2	54.4	-92.1	13.6
2025-01-05 17:49:15.445662	158.3	54.8	-92.3	16.0
2025-01-05 17:49:16.596211	158.4	55.2	-92.6	10.2
2025-01-05 17:49:17.726168	158.4	55.6	-92.2	10.2
2025-01-05 17:49:18.848265	158.5	56.0	-92.3	6.6
2025-01-05 17:49:19.968852	158.6	56.5	-92.5	7.6
2025-01-05 17:49:21.088696	158.7	56.9	-92.2	9.1
2025-01-05 17:49:22.209914	158.7	57.3	-92.1	4.2
2025-01-05 17:49:23.330517	158.8	57.7	-92.3	7.0
2025-01-05 17:49:24.451130	158.9	58.2	-92.2	14.0
2025-01-05 17:49:25.571308	159.0	58.6	-92.9	7.0
2025-01-05 17:49:26.700959	159.1	59.1	-92.5	13.0
2025-01-05 17:49:27.843716	159.2	59.5	-92.9	13.0
2025-01-05 17:49:29.004352	159.3	60.0	-92.9	8.5
2025-01-05 17:49:30.164670	159.4	60.4	-92.6	8.6
2025-01-05 17:49:31.323102	159.5	60.9	-92.3	5.3
2025-01-05 17:49:32.491120	159.6	61.4	-92.5	3.5
2025-01-05 17:49:33.657078	159.8	61.9	-91.8	4.6
2025-01-05 17:49:34.824119	159.9	62.3	-91.4	3.5
2025-01-05 17:49:35.986325	160.0	62.8	-91.6	8.7
2025-01-05 17:49:37.147373	160.1	63.3	-91.1	9.3
2025-01-05 17:49:38.307998	160.3	63.8	-90.9	14.2
2025-01-05 17:49:39.467994	160.4	64.3	-91.5	17.4
2025-01-05 17:49:40.634837	160.6	64.8	-91.6	14.3
2025-01-05 17:49:41.798752	160.7	65.3	-92.0	7.6
2025-01-05 17:49:42.958532	160.9	65.8	-91.8	9.6
2025-01-05 17:49:44.124836	161.1	66.3	-91.4	13.4
2025-01-05 17:49:45.291093	161.2	66.8	-92.2	4.7
2025-01-05 17:49:46.453118	161.4	67.3	-92.6	5.1
2025-01-05 17:49:47.614362	161.6	67.8	-92.4	8.3
2025-01-05 17:49:48.772482	161.8	68.4	-92.1	8.4
2025-01-05 17:49:49.936374	162.1	68.9	-91.4	9.9
2025-01-05 17:49:51.099977	162.3	69.4	-92.6	17.7
2025-01-05 17:49:52.263293	162.5	69.9	-92.7	5.3
2025-01-05 17:49:53.425958	162.8	70.4	-92.5	16.2
2025-01-05 17:49:54.590390	163.1	71.0	-92.9	19.1
2025-01-05 17:49:55.758031	163.4	71.5	-92.8	19.1
2025-01-05 17:49:56.918062	163.7	72.0	-92.8	13.9
2025-01-05 17:49:58.075535	164.0	72.6	-92.4	16.0
2025-01-05 17:49:59.243518	164.3	73.1	-92.3	9.5
2025-01-05 17:50:00.394800	164.7	73.7	-92.6	10.3
2025-01-05 17:50:01.551027	165.1	74.2	-92.9	8.2
2025-01-05 17:50:02.715770	165.5	74.7	-92.6	4.2
2025-01-05 17:50:03.878239	166.0	75.3	-92.3	3.9
2025-01-05 17:50:05.042745	166.5	75.8	-92.0	7.5
2025-01-05 17:50:06.203814	167.0	76.4	-92.0	5.0
2025-01-05 17:50:07.360598	167.6	76.9	-92.5	6.1
2025-01-05 17:50:08.515508	168.2	77.5	-92.4	11.6
2025-01-05 17:50:09.679806	168.9	78.0	-92.3	8.9
2025-01-05 17:50:10.847754	169.7	78.6	-92.0	15.8
2025-01-05 17:50:12.006731	170.5	79.1	-92.5	17.9
2025-01-05 17:50:13.171732	171.5	79.7	-91.6	16.7
2025-01-05 17:50:14.328565	172.5	80.2	-91.7	12.5
2025-01-05 17:50:15.492732	173.6	80.8	-91.8	17.6
2025-01-05 17:50:16.654360	174.9	81.3	-91.8	18.4
2025-01-05 17:50:17.814468	176.4	81.8	-91.9	16.5
2025-01-05 17:50:18.974556	178.1	82.4	-91.8	19.3
2025-01-05 17:50:20.134175	180.0	82.9	-91.6	16.9
2025-01-05 17:50:21.291804	182.3	83.4	-91.6	10.1
2025-01-05 17:50:22.453709	184.9	83.9	-91.4	11.2
2025-01-05 17:50:23.619563	188.0	84.4	-91.6	13.9
2025-01-05 17:50:24.781287	191.7	84.9	-91.9	7.9
2025-01-05 17:50:25.946397	196.2	85.3	-91.5	11.6
2025-01-05 17:50:27.101963	201.5	85.8	-91.6	12.4
2025-01-05 17:50:28.259850	207.9	86.1	-91.7	6.9
2025-01-05 17:50:29.424286	215.6	86.4	-91.7	11.7
2025-01-05 17:50:30.587286	224.6	86.7	-91.5	14.7
2025-01-05 17:50:31.751456	234.7	86.8	-91.3	11.1
2025-01-05 17:50:32.915362	245.4	86.9	-91.6	14.3
2025-01-05 17:50:34.080011	256.0	86.8	-92.3	16.4
2025-01-05 17:50:35.253812	265.9	86.6	-92.4	16.4
2025-01-05 17:50:36.406628	274.5	86.4	-92.7	18.6
2025-01-05 17:50:37.571557	281.9	86.0	-92.5	19.4
2025-01-05 17:50:38.734884	288.0	85.6	-92.5	20.8
2025-01-05 17:50:39.899421	293.1	85.2	-92.8	18.9
2025-01-05 17:50:41.063465	297.3	84.8	-91.7	20.1
2025-01-05 17:50:42.219624	300.8	84.3	-91.0	18.8
2025-01-05 17:50:43.376948	303.8	83.8	-91.5	18.9
2025-01-05 17:50:44.541346	306.3	83.3	-91.5	21.1
2025-01-05 17:50:45.704357	308.5	82.8	-91.8	23.0
2025-01-05 17:50:46.871634	310.4	82.2	-92.0	22.3
2025-01-05 17:50:48.026232	312.0	81.7	-92.0	22.1
2025-01-05 17:50:49.186684	313.4	81.2	-91.5	18.7
2025-01-05 17:50:50.359812	314.7	80.6	-91.4	20.0
2025-01-05 17:50:51.523141	315.8	80.1	-91.4	19.4
2025-01-05 17:50:52.688057	316.8	79.5	-91.3	19.1
2025-01-05 17:50:53.852071	317.7	79.0	-91.8	19.5
2025-01-05 17:50:55.020515	318.6	78.4	-92.1	21.8
2025-01-05 17:50:56.185093	319.3	77.9	-91.5	19.0
2025-01-05 17:50:57.350532	320.0	77.3	-91.2	16.8
2025-01-05 17:50:58.508966	320.6	76.8	-91.6	19.3
2025-01-05 17:50:59.681216	321.2	76.2	-92.0	14.2
2025-01-05 17:51:00.831485	321.7	75.7	-91.7	13.1
2025-01-05 17:51:01.996021	322.2	75.1	-91.7	19.3
2025-01-05 17:51:03.160350	322.6	74.6	-91.5	20.3
2025-01-05 17:51:04.323564	323.0	74.0	-91.1	17.1
2025-01-05 17:51:05.490278	323.4	73.5	-91.6	13.0
2025-01-05 17:51:06.649022	323.8	73.0	-91.7	15.1
2025-01-05 17:51:07.814860	324.1	72.4	-92.1	5.2
2025-01-05 17:51:08.974836	324.5	71.9	-92.3	8.4
2025-01-05 17:51:10.141726	324.8	71.4	-92.3	11.0
2025-01-05 17:51:11.303524	325.0	70.8	-92.3	3.3
2025-01-05 17:51:12.465503	325.3	70.3	-92.6	5.1
2025-01-05 17:51:13.626538	325.6	69.8	-92.6	5.9
2025-01-05 17:51:14.790873	325.8	69.2	-92.5	4.5
2025-01-05 17:51:15.957557	326.0	68.7	-92.5	7.5
2025-01-05 17:51:17.119061	326.3	68.2	-92.5	10.5
2025-01-05 17:51:18.283536	326.5	67.7	-92.9	11.2
2025-01-05 17:51:19.442782	326.7	67.2	-93.0	14.1
2025-01-05 17:51:20.608746	326.8	66.7	-92.9	17.6
2025-01-05 17:51:21.769067	327.0	66.2	-92.7	16.2
2025-01-05 17:51:22.940253	327.2	65.7	-92.5	9.6
2025-01-05 17:51:24.105025	327.3	65.2	-92.6	16.0
2025-01-05 17:51:25.273271	327.5	64.7	-92.3	20.0
2025-01-05 17:51:26.436530	327.7	64.2	-92.9	10.8
2025-01-05 17:51:27.603869	327.8	63.7	-93.0	9.2
2025-01-05 17:51:28.759793	327.9	63.2	-92.5	11.2
2025-01-05 17:51:29.921159	328.1	62.7	-92.7	11.4
2025-01-05 17:51:31.080172	328.2	62.2	-92.6	13.9
2025-01-05 17:51:32.238598	328.3	61.7	-92.6	9.5
2025-01-05 17:51:33.404288	328.4	61.3	-92.3	7.5
2025-01-05 17:51:34.566920	328.5	60.8	-92.5	15.3
2025-01-05 17:51:35.730223	328.7	60.3	-92.7	3.7
2025-01-05 17:51:36.887147	328.8	59.9	-92.7	6.8
2025-01-05 17:51:38.050692	328.9	59.4	-92.3	7.2
2025-01-05 17:51:39.213961	329.0	58.9	-92.1	5.4
2025-01-05 17:51:40.373421	329.1	58.5	-92.1	7.2
2025-01-05 17:51:41.537960	329.2	58.0	-92.6	5.8
2025-01-05 17:51:42.702187	329.2	57.6	-92.9	3.0
2025-01-05 17:51:43.862072	329.3	57.1	-92.5	4.6
2025-01-05 17:51:45.022140	329.4	56.7	-92.9	7.6
2025-01-05 17:51:46.190131	329.5	56.3	-92.1	8.6
2025-01-05 17:51:47.350278	329.6	55.8	-92.5	7.5
2025-01-05 17:51:48.512028	329.7	55.4	-92.8	3.6
2025-01-05 17:51:49.676037	329.7	55.0	-92.6	3.9
2025-01-05 17:51:50.839512	329.8	54.5	-92.6	5.6
2025-01-05 17:51:52.003648	329.9	54.1	-92.4	10.9
2025-01-05 17:51:53.161758	329.9	53.7	-91.8	8.1
2025-01-05 17:51:54.326092	330.0	53.3	-92.2	8.1
2025-01-05 17:51:55.489884	330.1	52.9	-92.6	2.7
2025-01-05 17:51:56.654542	330.1	52.5	-92.6	8.1
2025-01-05 17:51:57.818114	330.2	52.1	-92.3	8.7
2025-01-05 17:51:58.976618	330.3	51.7	-92.6	12.9
2025-01-05 17:52:00.131777	330.3	51.3	-92.4	10.4
2025-01-05 17:52:01.279662	330.4	50.9	-92.0	11.0
2025-01-05 17:52:02.441043	330.4	50.5	-92.1	9.4
2025-01-05 17:52:03.608878	330.5	50.1	-92.5	3.5
2025-01-05 17:52:04.762101	330.5	49.7	-92.5	4.3
2025-01-05 17:52:05.930570	330.6	49.3	-92.8	4.4
2025-01-05 17:52:07.092556	330.6	49.0	-92.9	12.6
2025-01-05 17:52:08.259807	330.7	48.6	-92.3	4.2
2025-01-05 17:52:09.416188	330.7	48.2	-92.4	12.1
2025-01-05 17:52:10.591640	330.8	47.8	-92.5	12.1
2025-01-05 17:52:11.748222	330.8	47.5	-92.4	12.1
2025-01-05 17:52:12.919619	330.9	47.1	-93.1	5.2
2025-01-05 17:52:14.076680	330.9	46.8	-92.5	13.6
2025-01-05 17:52:15.241704	331.0	46.4	-92.5	15.4
2025-01-05 17:52:16.405939	331.0	46.0	-92.7	19.6
2025-01-05 17:52:17.569276	331.1	45.7	-92.5	18.8
2025-01-05 17:52:18.733875	331.1	45.3	-92.4	10.5
2025-01-05 17:52:19.896138	331.1	45.0	-92.4	17.9
2025-01-05 17:52:21.060895	331.2	44.7	-92.3	11.8
2025-01-05 17:52:22.228977	331.2	44.3	-92.3	11.2
2025-01-05 17:52:23.392545	331.3	44.0	-92.5	12.8
2025-01-05 17:52:24.556894	331.3	43.6	-92.8	12.0
2025-01-05 17:52:25.718331	331.3	43.3	-92.5	6.0
2025-01-05 17:52:26.883079	331.4	43.0	-92.7	9.2
2025-01-05 17:52:28.040689	331.4	42.7	-92.5	8.7
2025-01-05 17:52:29.197975	331.4	42.3	-92.3	6.8
2025-01-05 17:52:30.358709	331.5	42.0	-92.4	4.4
2025-01-05 17:52:31.521866	331.5	41.7	-92.6	12.2
2025-01-05 17:52:32.692071	331.5	41.4	-92.7	11.2
2025-01-05 17:52:33.850161	331.6	41.1	-92.5	13.7
2025-01-05 17:52:35.013566	331.6	40.8	-92.6	11.7
2025-01-05 17:52:36.173510	331.6	40.5	-91.9	13.8
2025-01-05 17:52:37.337324	331.7	40.2	-91.2	8.3
2025-01-05 17:52:38.500290	331.7	39.9	-92.0	17.9
2025-01-05 17:52:39.662638	331.7	39.6	-92.7	8.3
2025-01-05 17:52:40.824392	331.8	39.3	-92.4	16.1
2025-01-05 17:52:41.991185	331.8	39.0	-92.8	11.9
2025-01-05 17:52:43.153804	331.8	38.7	-92.5	9.4
2025-01-05 17:52:44.316232	331.9	38.4	-92.3	5.5
2025-01-05 17:52:45.479175	331.9	38.1	-92.4	11.1
2025-01-05 17:52:46.642120	331.9	37.8	-92.5	10.5
2025-01-05 17:52:47.809449	331.9	37.6	-92.6	6.4
2025-01-05 17:52:48.969278	332.0	37.3	-92.5	7.1
2025-01-05 17:52:50.136237	332.0	37.0	-92.4	8.6
2025-01-05 17:52:51.298518	332.0	36.7	-92.7	5.2
2025-01-05 17:52:52.462453	332.0	36.5	-92.6	10.2
2025-01-05 17:52:53.630055	332.1	36.2	-92.5	4.7
2025-01-05 17:52:54.786760	332.1	35.9	-92.4	12.6
2025-01-05 17:52:55.950297	332.1	35.7	-92.7	8.1
2025-01-05 17:52:57.112749	332.1	35.4	-92.1	12.3
2025-01-05 17:52:58.276656	332.2	35.1	-91.9	8.6
2025-01-05 17:52:59.434359	332.2	34.9	-92.4	6.2
2025-01-05 17:53:00.589023	332.2	34.6	-92.8	2.8
2025-01-05 17:53:01.747573	332.2	34.4	-92.8	3.7
2025-01-05 17:53:02.914792	332.3	34.1	-92.7	5.7
2025-01-05 17:53:04.076186	332.3	33.9	-92.1	6.4
2025-01-05 17:53:05.243983	332.3	33.6	-92.3	6.7
2025-01-05 17:53:06.405470	332.3	33.4	-92.8	6.0
2025-01-05 17:53:07.570685	332.4	33.1	-92.6	3.1
2025-01-05 17:53:08.738081	332.4	32.9	-92.7	5.2
2025-01-05 17:53:09.896626	332.4	32.6	-92.5	15.6
2025-01-05 17:53:11.056672	332.4	32.4	-92.5	14.6
2025-01-05 17:53:12.218059	332.4	32.2	-92.2	11.4
2025-01-05 17:53:13.376284	332.5	31.9	-92.4	8.1
2025-01-05 17:53:14.540884	332.5	31.7	-92.4	6.1
2025-01-05 17:53:15.714772	332.5	31.5	-92.3	4.6
2025-01-05 17:53:16.878581	332.5	31.2	-91.9	4.3
2025-01-05 17:53:18.033704	332.5	31.0	-92.5	14.8
2025-01-05 17:53:19.190909	332.6	30.8	-92.5	5.1
2025-01-05 17:53:20.350715	332.6	30.6	-92.4	2.8
2025-01-05 17:53:21.511600	332.6	30.3	-92.4	8.4
2025-01-05 17:53:22.674196	332.6	30.1	-92.7	12.0
2025-01-05 17:53:23.844466	332.6	29.9	-92.7	5.3
2025-01-05 17:53:25.004908	332.7	29.7	-92.5	6.2
2025-01-05 17:53:26.164625	332.7	29.5	-92.2	13.1
2025-01-05 17:53:27.325461	332.7	29.3	-92.0	17.7
2025-01-05 17:53:28.490290	332.7	29.0	-91.4	15.0
2025-01-05 17:53:29.651499	332.7	28.8	-91.6	8.6
2025-01-05 17:53:30.808221	332.8	28.6	-91.7	3.1
2025-01-05 17:53:31.962630	332.8	28.4	-91.4	4.2
2025-01-05 17:53:33.109967	332.8	28.2	-91.8	3.6
2025-01-05 17:53:34.231209	332.8	28.0	-91.2	2.0
2025-01-05 17:53:35.351472	332.8	27.8	-92.4	2.5
2025-01-05 17:53:36.471925	332.8	27.6	-92.7	6.8
2025-01-05 17:53:37.592319	332.9	27.4	-92.6	4.0
2025-01-05 17:53:38.713303	332.9	27.2	-92.3	4.5
2025-01-05 17:53:39.834045	332.9	27.1	-89.7	8.7
2025-01-05 17:53:40.955783	332.9	26.9	-92.6	6.9
2025-01-05 17:53:42.090206	332.9	26.7	-92.4	10.3
2025-01-05 17:53:43.249174	332.9	26.5	-92.1	2.4
2025-01-05 17:53:44.400037	333.0	26.3	-92.3	5.9
2025-01-05 17:53:45.576217	333.0	26.1	-92.4	8.3
2025-01-05 17:53:46.740977	333.0	25.9	-92.7	3.2
2025-01-05 17:53:47.906478	333.0	25.7	-92.6	3.8
2025-01-05 17:53:49.064291	333.0	25.5	-92.4	5.3
2025-01-05 17:53:50.237258	333.0	25.3	-92.2	3.9
2025-01-05 17:53:51.400895	333.0	25.2	-92.2	8.4
2025-01-05 17:53:52.562859	333.1	25.0	-91.5	1.1
2025-01-05 17:53:53.720837	333.1	24.8	-91.3	2.7
2025-01-05 17:53:54.879774	333.1	24.6	-91.8	3.9
2025-01-05 17:53:56.043959	333.1	24.4	-91.6	4.6
2025-01-05 17:53:57.204892	333.1	24.3	-91.0	4.1
2025-01-05 17:53:58.365004	333.1	24.1	-91.8	4.8
2025-01-05 17:53:59.521462	333.1	23.9	-91.9	5.7
2025-01-05 17:54:00.666047	333.2	23.7	-92.2	3.4
2025-01-05 17:54:01.832311	333.2	23.6	-92.3	2.6
2025-01-05 17:54:02.995978	333.2	23.4	-91.9	4.0
2025-01-05 17:54:04.160167	333.2	23.2	-92.6	5.3
2025-01-05 17:54:05.327158	333.2	23.1	-92.8	2.0
2025-01-05 17:54:06.494322	333.2	22.9	-92.6	8.7
2025-01-05 17:54:07.658397	333.2	22.7	-92.6	11.2
2025-01-05 17:54:08.823106	333.3	22.5	-92.5	14.1
2025-01-05 17:54:09.977745	333.3	22.4	-92.5	10.7
2025-01-05 17:54:11.142202	333.3	22.2	-92.5	7.5
2025-01-05 17:54:12.302935	333.3	22.1	-92.2	10.8
2025-01-05 17:54:13.470482	333.3	21.9	-92.7	9.7
2025-01-05 17:54:14.627576	333.3	21.7	-92.3	3.7
2025-01-05 17:54:15.787100	333.3	21.6	-92.7	3.4
2025-01-05 17:54:16.947684	333.4	21.4	-92.5	7.5
2025-01-05 17:54:18.110095	333.4	21.3	-92.9	9.6
2025-01-05 17:54:19.269783	333.4	21.1	-93.0	6.3
2025-01-05 17:54:20.429037	333.4	20.9	-92.7	9.1
2025-01-05 17:54:21.594250	333.4	20.8	-92.5	4.0
2025-01-05 17:54:22.754101	333.4	20.6	-92.9	4.3
2025-01-05 17:54:23.913658	333.4	20.5	-92.7	8.7
2025-01-05 17:54:25.075187	333.4	20.3	-92.4	3.3
2025-01-05 17:54:26.240018	333.5	20.2	-92.3	3.3
2025-01-05 17:54:27.395592	333.5	20.0	-92.5	0.4
2025-01-05 17:54:28.559602	333.5	19.9	-92.5	2.3
2025-01-05 17:54:29.714321	333.5	19.7	-92.6	2.2
2025-01-05 17:54:30.878029	333.5	19.6	-92.5	1.3
2025-01-05 17:54:32.039087	333.5	19.4	-92.3	1.7
2025-01-05 17:54:33.204258	333.5	19.3	-92.2	0.9
2025-01-05 17:54:34.363532	333.5	19.1	-92.4	1.6
2025-01-05 17:54:35.533883	333.6	19.0	-92.5	0.7
2025-01-05 17:54:36.688750	333.6	18.9	-92.3	2.5
2025-01-05 17:54:37.843493	333.6	18.7	-92.6	0.5
2025-01-05 17:54:38.985806	333.6	18.6	-92.5	1.8
2025-01-05 17:54:40.105743	333.6	18.4	-92.1	0.1
2025-01-05 17:54:41.229252	333.6	18.3	-92.2	2.4
2025-01-05 17:54:42.349398	333.6	18.2	-92.1	2.5
2025-01-05 17:54:43.470560	333.6	18.0	-92.7	2.1
2025-01-05 17:54:44.590562	333.6	17.9	-92.6	0.9
2025-01-05 17:54:45.711618	333.7	17.8	-92.5	1.7
2025-01-05 17:54:46.836586	333.7	17.6	-92.4	1.5
2025-01-05 17:54:47.966004	333.7	17.5	-92.6	2.4
2025-01-05 17:54:49.123362	333.7	17.4	-92.2	2.4
2025-01-05 17:54:50.267207	333.7	17.2	-92.2	5.3
2025-01-05 17:54:51.427671	333.7	17.1	-92.0	2.8
2025-01-05 17:54:52.592957	333.7	17.0	-92.6	2.2
2025-01-05 17:54:53.753431	333.7	16.8	-93.0	1.1
2025-01-05 17:54:54.920555	333.7	16.7	-92.5	1.2
2025-01-05 17:54:56.186844	333.8	16.6	-92.5	2.0
2025-01-05 17:54:57.345498	333.8	16.4	-92.3	2.5
2025-01-05 17:54:58.504358	333.8	16.3	-92.7	1.5
2025-01-05 17:54:59.667034	333.8	16.2	-92.9	2.5
2025-01-05 17:55:00.814235	333.8	16.0	-92.3	0.7
2025-01-05 17:55:01.978884	333.8	15.9	-92.8	1.9
2025-01-05 17:55:03.134694	333.8	15.8	-92.7	4.4
2025-01-05 17:55:04.299643	333.8	15.7	-92.6	2.0
2025-01-05 17:55:05.464744	333.8	15.5	-92.8	5.3
2025-01-05 17:55:06.620893	333.9	15.4	-92.8	6.2
2025-01-05 17:55:07.784737	333.9	15.3	-92.5	5.0
2025-01-05 17:55:08.941255	333.9	15.2	-92.8	5.6
2025-01-05 17:55:10.096954	333.9	15.0	-92.3	1.9
2025-01-05 17:55:11.258169	333.9	14.9	-92.2	1.5
2025-01-05 17:55:12.422491	333.9	14.8	-92.4	4.3
2025-01-05 17:55:13.583862	333.9	14.7	-92.7	2.4
2025-01-05 17:55:14.748696	333.9	14.6	-92.4	4.4
2025-01-05 17:55:15.905156	333.9	14.4	-92.4	5.9
#Closed at: 2025-01-05 17:46:01.170609