passes_logs/2025/01/05/LEX_Murmansk/LEX_Murmansk__20250105_195421_NOAA_18_rec.log

#Pass ID: 20250105_195421_NOAA 18
#Satellite: NOAA 18
#Configuration: NOAA 18
#Start time: 2025-01-05 19:54:16.884512

#LorettStation: 1.0.0 05.05.2024
#Station: LEX_Murmansk
#Location: 33.156738 lon 68.926811 lat
#TLE: 1 28654U 05018A   25004.89869685  .00000615  00000+0  35035-3 0  9999
#TLE: 2 28654  98.8582  86.0526 0013879 207.8923 152.1507 14.13477357 11671

#Time	Az	El	Level	SNR
2025-01-05 19:54:29.099831	185.0	16.2	-90.5	6.4
2025-01-05 19:54:30.250769	185.1	16.4	-90.9	5.3
2025-01-05 19:54:31.397143	185.2	16.5	-90.1	6.7
2025-01-05 19:54:32.548963	185.3	16.6	-90.5	7.1
2025-01-05 19:54:33.702884	185.4	16.7	-90.5	8.9
2025-01-05 19:54:34.851139	185.5	16.8	-90.4	4.7
2025-01-05 19:54:36.003955	185.6	17.0	-90.3	7.6
2025-01-05 19:54:37.155602	185.7	17.1	-90.1	5.2
2025-01-05 19:54:38.307912	185.7	17.2	-90.0	3.9
2025-01-05 19:54:39.453922	185.8	17.3	-90.4	5.3
2025-01-05 19:54:40.602971	185.9	17.5	-90.8	5.7
2025-01-05 19:54:41.749242	186.0	17.6	-90.0	4.0
2025-01-05 19:54:42.904675	186.1	17.7	-90.4	6.7
2025-01-05 19:54:44.052768	186.2	17.8	-90.4	3.9
2025-01-05 19:54:45.204175	186.3	18.0	-90.2	5.1
2025-01-05 19:54:46.356415	186.4	18.1	-90.4	4.2
2025-01-05 19:54:47.501401	186.5	18.2	-90.6	5.0
2025-01-05 19:54:48.653481	186.6	18.3	-90.6	4.5
2025-01-05 19:54:49.805518	186.7	18.5	-90.4	5.7
2025-01-05 19:54:50.951941	186.8	18.6	-90.8	5.2
2025-01-05 19:54:52.100786	186.9	18.7	-90.6	4.4
2025-01-05 19:54:53.246851	187.0	18.9	-90.5	5.9
2025-01-05 19:54:54.398171	187.1	19.0	-91.0	5.9
2025-01-05 19:54:55.543511	187.2	19.1	-90.8	3.3
2025-01-05 19:54:56.692216	187.3	19.3	-91.0	5.0
2025-01-05 19:54:57.844071	187.4	19.4	-91.2	5.9
2025-01-05 19:54:58.985761	187.5	19.5	-90.6	4.8
2025-01-05 19:55:00.127721	187.6	19.7	-91.0	12.7
2025-01-05 19:55:01.270110	187.7	19.8	-90.5	11.8
2025-01-05 19:55:02.417790	187.8	19.9	-91.0	6.6
2025-01-05 19:55:03.566422	187.9	20.1	-91.0	10.5
2025-01-05 19:55:04.719352	188.0	20.2	-91.3	6.0
2025-01-05 19:55:05.869595	188.1	20.3	-91.0	7.1
2025-01-05 19:55:07.015979	188.2	20.5	-90.6	9.2
2025-01-05 19:55:08.166083	188.3	20.6	-90.8	4.1
2025-01-05 19:55:09.305430	188.5	20.7	-90.7	8.9
2025-01-05 19:55:10.450276	188.6	20.9	-90.9	4.7
2025-01-05 19:55:11.600735	188.7	21.0	-90.8	3.5
2025-01-05 19:55:12.748122	188.8	21.2	-90.8	6.1
2025-01-05 19:55:13.892980	188.9	21.3	-91.2	5.0
2025-01-05 19:55:15.042700	189.0	21.5	-90.6	4.8
2025-01-05 19:55:16.183732	189.2	21.6	-90.7	4.3
2025-01-05 19:55:17.334959	189.3	21.7	-90.5	6.8
2025-01-05 19:55:18.485871	189.4	21.9	-90.8	10.6
2025-01-05 19:55:19.635126	189.5	22.0	-91.5	8.6
2025-01-05 19:55:20.781153	189.6	22.2	-90.9	10.8
2025-01-05 19:55:21.924229	189.8	22.3	-91.1	9.1
2025-01-05 19:55:23.069351	189.9	22.5	-90.5	9.8
2025-01-05 19:55:24.214457	190.0	22.6	-90.4	8.7
2025-01-05 19:55:25.363051	190.1	22.8	-90.7	8.5
2025-01-05 19:55:26.509265	190.3	22.9	-91.0	8.8
2025-01-05 19:55:27.657917	190.4	23.1	-90.9	8.6
2025-01-05 19:55:28.808833	190.5	23.2	-91.1	10.2
2025-01-05 19:55:29.954507	190.6	23.4	-91.0	7.5
2025-01-05 19:55:31.105354	190.8	23.5	-90.3	3.8
2025-01-05 19:55:32.247601	190.9	23.7	-90.5	9.6
2025-01-05 19:55:33.397864	191.0	23.8	-91.2	12.2
2025-01-05 19:55:34.545615	191.2	24.0	-90.8	12.8
2025-01-05 19:55:35.693205	191.3	24.1	-90.9	7.5
2025-01-05 19:55:36.841629	191.5	24.3	-91.2	11.8
2025-01-05 19:55:37.988100	191.6	24.4	-90.9	7.4
2025-01-05 19:55:39.135890	191.7	24.6	-90.5	9.4
2025-01-05 19:55:40.285127	191.9	24.8	-90.9	11.3
2025-01-05 19:55:41.431784	192.0	24.9	-91.1	8.0
2025-01-05 19:55:42.587047	192.2	25.1	-91.0	9.7
2025-01-05 19:55:43.736223	192.3	25.2	-90.8	9.2
2025-01-05 19:55:44.887837	192.5	25.4	-90.8	7.4
2025-01-05 19:55:46.032661	192.6	25.6	-91.3	6.1
2025-01-05 19:55:47.183172	192.8	25.7	-90.7	6.5
2025-01-05 19:55:48.334231	192.9	25.9	-91.0	10.0
2025-01-05 19:55:49.479483	193.1	26.1	-90.8	6.9
2025-01-05 19:55:50.635791	193.2	26.2	-91.1	12.0
2025-01-05 19:55:51.787111	193.4	26.4	-91.0	10.8
2025-01-05 19:55:52.935690	193.5	26.6	-91.0	11.7
2025-01-05 19:55:54.078452	193.7	26.7	-90.8	9.5
2025-01-05 19:55:55.230741	193.9	26.9	-90.7	12.4
2025-01-05 19:55:56.377760	194.0	27.1	-90.9	11.9
2025-01-05 19:55:57.526820	194.2	27.2	-90.8	8.7
2025-01-05 19:55:58.676187	194.4	27.4	-90.7	12.2
2025-01-05 19:55:59.827873	194.5	27.6	-90.5	9.0
2025-01-05 19:56:00.965028	194.7	27.7	-90.7	11.5
2025-01-05 19:56:02.116333	194.9	27.9	-91.1	9.1
2025-01-05 19:56:03.262370	195.1	28.1	-90.9	9.9
2025-01-05 19:56:04.408879	195.2	28.3	-91.0	8.9
2025-01-05 19:56:05.557239	195.4	28.4	-91.0	3.6
2025-01-05 19:56:06.710132	195.6	28.6	-90.9	10.4
2025-01-05 19:56:07.854588	195.8	28.8	-91.0	8.9
2025-01-05 19:56:09.016454	196.0	29.0	-90.7	8.2
2025-01-05 19:56:10.165003	196.1	29.2	-90.5	12.9
2025-01-05 19:56:11.315801	196.3	29.3	-90.9	10.5
2025-01-05 19:56:12.460844	196.5	29.5	-91.3	10.2
2025-01-05 19:56:13.612824	196.7	29.7	-90.9	8.5
2025-01-05 19:56:14.776627	196.9	29.9	-91.2	7.0
2025-01-05 19:56:15.920483	197.1	30.1	-91.1	5.9
2025-01-05 19:56:17.067658	197.3	30.2	-90.9	6.1
2025-01-05 19:56:18.215965	197.5	30.4	-90.5	4.8
2025-01-05 19:56:19.358464	197.7	30.6	-90.7	6.3
2025-01-05 19:56:20.512072	197.9	30.8	-90.5	7.3
2025-01-05 19:56:21.663743	198.1	31.0	-90.3	8.6
2025-01-05 19:56:22.817342	198.3	31.2	-90.5	9.9
2025-01-05 19:56:23.965020	198.5	31.4	-90.6	4.6
2025-01-05 19:56:25.110743	198.8	31.6	-90.5	5.4
2025-01-05 19:56:26.262373	199.0	31.7	-90.4	7.7
2025-01-05 19:56:27.406776	199.2	31.9	-90.6	8.7
2025-01-05 19:56:28.561434	199.4	32.1	-90.7	8.3
2025-01-05 19:56:29.711433	199.6	32.3	-90.4	7.0
2025-01-05 19:56:30.861251	199.9	32.5	-90.7	5.8
2025-01-05 19:56:32.007017	200.1	32.7	-90.2	7.3
2025-01-05 19:56:33.153003	200.3	32.9	-90.6	5.4
2025-01-05 19:56:34.304843	200.6	33.1	-90.2	8.1
2025-01-05 19:56:35.449514	200.8	33.3	-89.8	5.5
2025-01-05 19:56:36.598214	201.0	33.5	-90.4	4.4
2025-01-05 19:56:37.748526	201.3	33.7	-90.3	7.5
2025-01-05 19:56:38.903707	201.5	33.9	-90.2	7.3
2025-01-05 19:56:40.053254	201.8	34.1	-90.8	5.2
2025-01-05 19:56:41.200347	202.0	34.3	-90.2	5.7
2025-01-05 19:56:42.351577	202.3	34.5	-90.4	7.3
2025-01-05 19:56:43.504410	202.6	34.7	-90.5	6.2
2025-01-05 19:56:44.655469	202.8	34.9	-91.1	6.4
2025-01-05 19:56:45.799781	203.1	35.1	-90.4	10.6
2025-01-05 19:56:46.948537	203.3	35.3	-90.8	10.9
2025-01-05 19:56:48.091197	203.6	35.5	-90.8	10.1
2025-01-05 19:56:49.236502	203.9	35.7	-90.8	12.3
2025-01-05 19:56:50.387518	204.2	35.9	-90.3	12.8
2025-01-05 19:56:51.533725	204.4	36.1	-90.8	12.3
2025-01-05 19:56:52.683053	204.7	36.3	-91.0	9.8
2025-01-05 19:56:53.832392	205.0	36.5	-91.0	12.8
2025-01-05 19:56:54.978788	205.3	36.7	-91.3	8.9
2025-01-05 19:56:56.130161	205.6	36.9	-90.7	8.8
2025-01-05 19:56:57.278690	205.9	37.1	-90.7	13.2
2025-01-05 19:56:58.428679	206.2	37.3	-90.6	10.8
2025-01-05 19:56:59.576077	206.5	37.6	-90.8	15.1
2025-01-05 19:57:00.716925	206.8	37.8	-90.7	13.0
2025-01-05 19:57:01.866123	207.1	38.0	-90.8	13.7
2025-01-05 19:57:03.015783	207.5	38.2	-91.0	8.0
2025-01-05 19:57:04.169169	207.8	38.4	-90.7	7.4
2025-01-05 19:57:05.321911	208.1	38.6	-90.7	8.7
2025-01-05 19:57:06.472239	208.4	38.8	-90.9	7.3
2025-01-05 19:57:07.620170	208.8	39.0	-90.9	3.6
2025-01-05 19:57:08.768699	209.1	39.2	-90.9	12.2
2025-01-05 19:57:09.911547	209.5	39.4	-91.1	10.1
2025-01-05 19:57:11.059892	209.8	39.6	-90.6	10.0
2025-01-05 19:57:12.213685	210.2	39.9	-90.9	17.0
2025-01-05 19:57:14.053099	210.7	40.2	-90.7	14.6
2025-01-05 19:57:15.198035	211.1	40.4	-90.8	10.8
2025-01-05 19:57:16.346187	211.5	40.6	-90.7	8.8
2025-01-05 19:57:17.490502	211.8	40.8	-90.8	8.8
2025-01-05 19:57:18.635062	212.2	41.0	-91.2	8.0
2025-01-05 19:57:19.780811	212.6	41.2	-91.2	11.8
2025-01-05 19:57:20.924791	213.0	41.5	-91.5	10.4
2025-01-05 19:57:22.076110	213.4	41.7	-90.9	12.9
2025-01-05 19:57:23.223813	213.8	41.9	-90.9	12.6
2025-01-05 19:57:24.372093	214.2	42.1	-90.7	11.6
2025-01-05 19:57:25.521953	214.6	42.3	-90.7	10.6
2025-01-05 19:57:26.668922	215.0	42.5	-91.0	9.7
2025-01-05 19:57:27.821290	215.4	42.7	-90.6	12.4
2025-01-05 19:57:28.967139	215.9	42.9	-91.5	6.4
2025-01-05 19:57:30.118326	216.3	43.1	-90.3	6.8
2025-01-05 19:57:31.262426	216.7	43.3	-90.6	10.0
2025-01-05 19:57:32.410345	217.2	43.5	-90.6	6.1
2025-01-05 19:57:33.561752	217.6	43.7	-90.5	7.6
2025-01-05 19:57:34.709202	218.1	43.9	-90.4	9.2
2025-01-05 19:57:35.857754	218.5	44.1	-90.6	9.2
2025-01-05 19:57:37.006293	219.0	44.3	-90.4	6.0
2025-01-05 19:57:38.152882	219.4	44.5	-90.0	8.6
2025-01-05 19:57:39.298240	219.9	44.7	-90.8	10.9
2025-01-05 19:57:40.444174	220.4	44.9	-90.9	6.2
2025-01-05 19:57:41.599017	220.9	45.1	-91.0	4.3
2025-01-05 19:57:42.745321	221.4	45.3	-89.8	6.4
2025-01-05 19:57:43.895451	221.9	45.5	-89.9	7.1
2025-01-05 19:57:45.042574	222.4	45.7	-90.3	5.5
2025-01-05 19:57:46.192559	222.9	45.9	-90.1	4.2
2025-01-05 19:57:47.341876	223.4	46.1	-90.2	5.7
2025-01-05 19:57:48.487773	223.9	46.3	-90.8	8.5
2025-01-05 19:57:49.634882	224.5	46.5	-90.5	9.4
2025-01-05 19:57:50.781377	225.0	46.7	-91.0	10.3
2025-01-05 19:57:51.939663	225.6	46.9	-90.8	11.8
2025-01-05 19:57:53.081447	226.1	47.0	-90.2	10.9
2025-01-05 19:57:54.230685	226.7	47.2	-90.1	12.8
2025-01-05 19:57:55.385701	227.2	47.4	-90.3	14.6
2025-01-05 19:57:56.532974	227.8	47.6	-90.8	8.7
2025-01-05 19:57:57.682004	228.4	47.7	-90.9	11.5
2025-01-05 19:57:58.828455	228.9	47.9	-91.0	14.6
2025-01-05 19:57:59.978905	229.5	48.1	-91.1	8.3
2025-01-05 19:58:01.119872	230.1	48.2	-90.8	8.5
2025-01-05 19:58:02.268566	230.7	48.4	-90.3	11.8
2025-01-05 19:58:03.418650	231.3	48.6	-90.7	6.0
2025-01-05 19:58:04.568860	231.9	48.7	-90.8	12.6
2025-01-05 19:58:05.717188	232.5	48.9	-91.3	12.5
2025-01-05 19:58:06.866296	233.2	49.0	-90.9	12.3
2025-01-05 19:58:08.018897	233.8	49.2	-91.3	10.1
2025-01-05 19:58:09.170126	234.4	49.3	-91.3	5.1
2025-01-05 19:58:10.319195	235.1	49.4	-91.0	12.5
2025-01-05 19:58:11.466607	235.7	49.6	-90.9	14.2
2025-01-05 19:58:12.612174	236.4	49.7	-90.9	6.0
2025-01-05 19:58:13.761308	237.0	49.8	-91.2	9.5
2025-01-05 19:58:14.910105	237.7	50.0	-88.5	3.6
2025-01-05 19:58:16.061424	238.4	50.1	-90.7	5.6
2025-01-05 19:58:17.210590	239.0	50.2	-91.2	10.1
2025-01-05 19:58:18.363059	239.7	50.3	-90.9	8.1
2025-01-05 19:58:19.514541	240.4	50.4	-91.4	5.0
2025-01-05 19:58:20.656332	241.1	50.6	-91.0	4.3
2025-01-05 19:58:21.805412	241.8	50.7	-91.4	6.1
2025-01-05 19:58:22.961524	242.5	50.8	-91.4	5.7
2025-01-05 19:58:24.108939	243.2	50.9	-91.0	3.7
2025-01-05 19:58:25.255976	243.9	50.9	-90.7	4.8
2025-01-05 19:58:26.409619	244.6	51.0	-90.9	2.6
2025-01-05 19:58:27.564026	245.3	51.1	-90.8	6.2
2025-01-05 19:58:28.712255	246.1	51.2	-91.3	8.8
2025-01-05 19:58:29.860002	246.8	51.3	-91.0	8.8
2025-01-05 19:58:31.012187	247.5	51.3	-90.8	10.4
2025-01-05 19:58:32.159613	248.2	51.4	-90.1	10.8
2025-01-05 19:58:33.303910	249.0	51.5	-90.2	12.8
2025-01-05 19:58:34.456469	249.7	51.5	-90.5	9.9
2025-01-05 19:58:35.608027	250.4	51.6	-90.8	8.1
2025-01-05 19:58:36.761058	251.2	51.6	-90.8	20.6
2025-01-05 19:58:37.907282	251.9	51.6	-90.8	19.2
2025-01-05 19:58:39.033099	252.7	51.7	-91.2	11.1
2025-01-05 19:58:40.153633	253.4	51.7	-90.6	10.0
2025-01-05 19:58:41.273679	254.1	51.7	-90.6	18.0
2025-01-05 19:58:42.393617	254.8	51.7	-90.6	24.7
2025-01-05 19:58:43.513963	255.6	51.8	-91.2	12.5
2025-01-05 19:58:44.634839	256.3	51.8	-91.1	8.7
2025-01-05 19:58:45.756452	257.0	51.8	-91.4	12.9
2025-01-05 19:58:46.891231	257.8	51.8	-91.2	17.1
2025-01-05 19:58:48.039556	258.5	51.8	-91.2	12.8
2025-01-05 19:58:49.204895	259.3	51.8	-91.0	20.7
2025-01-05 19:58:50.355912	260.0	51.8	-91.2	19.7
2025-01-05 19:58:51.503657	260.8	51.7	-90.5	15.4
2025-01-05 19:58:52.648514	261.5	51.7	-91.2	16.6
2025-01-05 19:58:53.794892	262.3	51.7	-91.4	22.3
2025-01-05 19:58:54.947530	263.0	51.6	-91.1	10.6
2025-01-05 19:58:56.095894	263.8	51.6	-90.5	17.7
2025-01-05 19:58:57.241503	264.5	51.6	-90.3	18.0
2025-01-05 19:58:58.388223	265.2	51.5	-90.2	17.3
2025-01-05 19:58:59.532058	266.0	51.5	-90.8	17.8
2025-01-05 19:59:00.672249	266.7	51.4	-91.0	13.2
2025-01-05 19:59:01.822411	267.4	51.3	-91.0	22.1
2025-01-05 19:59:02.976317	268.2	51.3	-91.0	20.5
2025-01-05 19:59:04.119447	268.9	51.2	-91.0	20.1
2025-01-05 19:59:05.266886	269.6	51.1	-91.2	20.1
2025-01-05 19:59:06.414471	270.3	51.0	-91.1	19.9
2025-01-05 19:59:07.558760	271.0	51.0	-91.3	19.6
2025-01-05 19:59:08.708212	271.7	50.9	-91.5	22.0
2025-01-05 19:59:09.854788	272.4	50.8	-91.2	23.1
2025-01-05 19:59:11.004013	273.1	50.7	-91.7	14.3
2025-01-05 19:59:12.154043	273.8	50.6	-91.1	16.3
2025-01-05 19:59:13.298538	274.5	50.5	-91.1	12.6
2025-01-05 19:59:14.451421	275.2	50.4	-91.0	12.1
2025-01-05 19:59:15.595199	275.9	50.2	-91.6	15.1
2025-01-05 19:59:16.739030	276.5	50.1	-91.2	16.6
2025-01-05 19:59:17.873986	277.2	50.0	-91.9	14.1
2025-01-05 19:59:19.019194	277.9	49.9	-92.0	11.4
2025-01-05 19:59:20.170718	278.5	49.7	-90.8	13.3
2025-01-05 19:59:21.319997	279.2	49.6	-91.3	14.8
2025-01-05 19:59:22.467848	279.8	49.5	-91.6	10.1
2025-01-05 19:59:23.618029	280.5	49.3	-91.8	9.6
2025-01-05 19:59:24.765139	281.1	49.2	-91.9	14.6
2025-01-05 19:59:25.916307	281.7	49.0	-91.5	6.7
2025-01-05 19:59:27.070719	282.4	48.9	-91.2	14.0
2025-01-05 19:59:28.217755	283.0	48.7	-91.4	14.1
2025-01-05 19:59:29.363409	283.6	48.6	-91.4	6.2
2025-01-05 19:59:30.507109	284.2	48.4	-91.3	15.3
2025-01-05 19:59:31.652313	284.8	48.3	-91.6	18.1
2025-01-05 19:59:32.799702	285.4	48.1	-91.0	8.0
2025-01-05 19:59:33.955470	286.0	47.9	-91.3	14.0
2025-01-05 19:59:35.105759	286.6	47.8	-90.8	7.2
2025-01-05 19:59:36.255716	287.1	47.6	-90.9	16.9
2025-01-05 19:59:37.404204	287.7	47.4	-90.7	12.2
2025-01-05 19:59:38.553149	288.3	47.2	-91.3	6.9
2025-01-05 19:59:39.703659	288.8	47.1	-91.4	15.5
2025-01-05 19:59:40.854922	289.4	46.9	-91.0	10.0
2025-01-05 19:59:42.001771	289.9	46.7	-91.0	14.7
2025-01-05 19:59:43.147457	290.4	46.5	-90.8	10.8
2025-01-05 19:59:44.289355	291.0	46.3	-90.9	14.8
2025-01-05 19:59:45.440565	291.5	46.1	-91.3	17.0
2025-01-05 19:59:46.587533	292.0	46.0	-91.5	11.9
2025-01-05 19:59:47.736656	292.5	45.8	-91.3	16.2
2025-01-05 19:59:48.886139	293.0	45.6	-91.5	14.4
2025-01-05 19:59:50.027852	293.5	45.4	-91.4	8.1
2025-01-05 19:59:51.174956	294.0	45.2	-91.1	14.7
2025-01-05 19:59:52.332787	294.5	45.0	-91.4	20.8
2025-01-05 19:59:53.493846	295.0	44.8	-91.2	11.4
2025-01-05 19:59:54.645552	295.5	44.6	-91.1	9.4
2025-01-05 19:59:55.790174	296.0	44.4	-91.3	12.7
2025-01-05 19:59:56.942437	296.4	44.2	-91.3	8.3
2025-01-05 19:59:58.091546	296.9	44.0	-91.3	11.9
2025-01-05 19:59:59.236644	297.3	43.8	-90.8	18.0
2025-01-05 20:00:00.374795	297.8	43.6	-90.9	18.2
2025-01-05 20:00:01.525355	298.2	43.4	-91.4	7.4
2025-01-05 20:00:02.669105	298.7	43.2	-90.8	12.2
2025-01-05 20:00:03.813766	299.1	43.0	-91.2	13.1
2025-01-05 20:00:04.962118	299.5	42.8	-91.3	11.8
2025-01-05 20:00:06.107739	299.9	42.5	-90.6	5.3
2025-01-05 20:00:07.256070	300.3	42.3	-90.6	16.3
2025-01-05 20:00:08.400487	300.7	42.1	-90.3	15.5
2025-01-05 20:00:09.544608	301.2	41.9	-91.0	11.4
2025-01-05 20:00:10.694092	301.6	41.7	-91.2	15.3
2025-01-05 20:00:11.839921	301.9	41.5	-91.2	18.0
2025-01-05 20:00:12.995527	302.3	41.3	-90.9	10.9
2025-01-05 20:00:14.141527	302.7	41.1	-90.9	6.5
2025-01-05 20:00:15.291032	303.1	40.9	-91.1	11.8
2025-01-05 20:00:16.440814	303.5	40.7	-91.0	10.7
2025-01-05 20:00:17.603396	303.8	40.5	-91.1	10.6
2025-01-05 20:00:18.748799	304.2	40.2	-90.9	18.2
2025-01-05 20:00:19.898501	304.6	40.0	-91.2	17.5
2025-01-05 20:00:21.047917	304.9	39.8	-91.2	12.1
2025-01-05 20:00:22.194682	305.3	39.6	-91.2	14.2
2025-01-05 20:00:23.348713	305.6	39.4	-90.7	18.4
2025-01-05 20:00:24.498005	306.0	39.2	-91.5	10.9
2025-01-05 20:00:25.649366	306.3	39.0	-91.5	8.0
2025-01-05 20:00:26.797588	306.6	38.8	-91.3	8.3
2025-01-05 20:00:27.944114	307.0	38.6	-91.3	9.0
2025-01-05 20:00:29.094876	307.3	38.4	-91.0	4.3
2025-01-05 20:00:30.239486	307.6	38.1	-91.1	9.2
2025-01-05 20:00:31.388783	307.9	37.9	-91.2	9.2
2025-01-05 20:00:32.534223	308.3	37.7	-91.2	8.3
2025-01-05 20:00:33.675447	308.6	37.5	-90.9	4.7
2025-01-05 20:00:34.826571	308.9	37.3	-91.2	10.1
2025-01-05 20:00:35.971843	309.2	37.1	-91.1	5.8
2025-01-05 20:00:37.119556	309.5	36.9	-90.9	5.6
2025-01-05 20:00:38.264248	309.8	36.7	-90.4	15.3
2025-01-05 20:00:39.413810	310.1	36.5	-90.3	6.7
2025-01-05 20:00:40.559886	310.3	36.3	-91.0	7.2
2025-01-05 20:00:41.706888	310.6	36.1	-91.0	11.8
2025-01-05 20:00:42.857391	310.9	35.9	-90.9	7.9
2025-01-05 20:00:44.010652	311.2	35.7	-91.0	6.8
2025-01-05 20:00:45.163247	311.5	35.5	-90.8	12.4
2025-01-05 20:00:46.304318	311.7	35.3	-89.8	10.9
2025-01-05 20:00:47.450350	312.0	35.1	-90.2	10.7
2025-01-05 20:00:48.595009	312.3	34.9	-91.4	18.0
2025-01-05 20:00:49.745045	312.5	34.7	-91.2	14.8
2025-01-05 20:00:50.896615	312.8	34.5	-91.1	16.6
2025-01-05 20:00:52.043516	313.0	34.3	-91.4	10.7
2025-01-05 20:00:53.187884	313.3	34.1	-90.5	14.3
2025-01-05 20:00:54.337652	313.5	33.9	-90.6	7.5
2025-01-05 20:00:55.486077	313.8	33.7	-90.6	12.7
2025-01-05 20:00:56.640039	314.0	33.5	-91.2	8.1
2025-01-05 20:00:57.786439	314.3	33.3	-91.3	6.6
2025-01-05 20:00:58.933204	314.5	33.1	-91.2	11.2
2025-01-05 20:01:00.087410	314.7	32.9	-90.9	10.7
2025-01-05 20:01:01.228554	315.0	32.7	-91.1	10.0
2025-01-05 20:01:02.379198	315.2	32.5	-90.5	16.1
2025-01-05 20:01:03.523787	315.4	32.3	-90.9	9.8
2025-01-05 20:01:04.687001	315.6	32.1	-91.0	13.7
2025-01-05 20:01:05.835824	315.9	31.9	-91.2	13.4
2025-01-05 20:01:06.980731	316.1	31.7	-90.9	16.1
2025-01-05 20:01:08.136921	316.3	31.5	-90.7	13.5
2025-01-05 20:01:09.282763	316.5	31.3	-90.4	12.0
2025-01-05 20:01:10.428204	316.7	31.2	-90.6	17.2
2025-01-05 20:01:11.579332	316.9	31.0	-90.6	9.1
2025-01-05 20:01:12.733560	317.1	30.8	-90.3	11.4
2025-01-05 20:01:13.885699	317.4	30.6	-90.3	10.3
2025-01-05 20:01:15.034635	317.6	30.4	-90.4	6.9
2025-01-05 20:01:16.189942	317.8	30.2	-90.5	8.4
2025-01-05 20:01:17.336723	318.0	30.0	-90.1	5.7
2025-01-05 20:01:18.487744	318.2	29.9	-90.7	6.2
2025-01-05 20:01:19.633903	318.3	29.7	-90.9	4.6
2025-01-05 20:01:20.784231	318.5	29.5	-90.6	11.4
2025-01-05 20:01:21.942931	318.7	29.3	-90.8	8.5
2025-01-05 20:01:23.091308	318.9	29.1	-90.5	8.1
2025-01-05 20:01:24.240915	319.1	29.0	-90.4	15.7
2025-01-05 20:01:25.398379	319.3	28.8	-90.9	12.6
2025-01-05 20:01:26.543178	319.5	28.6	-91.1	6.1
2025-01-05 20:01:27.691649	319.7	28.4	-90.3	17.6
2025-01-05 20:01:28.844413	319.8	28.3	-90.7	18.6
2025-01-05 20:01:29.990401	320.0	28.1	-91.1	7.5
2025-01-05 20:01:31.139095	320.2	27.9	-90.6	6.9
2025-01-05 20:01:32.288347	320.4	27.7	-90.5	11.7
2025-01-05 20:01:33.433447	320.5	27.6	-90.0	8.5
2025-01-05 20:01:34.581984	320.7	27.4	-90.9	7.1
2025-01-05 20:01:35.729344	320.9	27.2	-91.2	6.8
2025-01-05 20:01:36.875572	321.0	27.1	-90.9	12.9
2025-01-05 20:01:38.020817	321.2	26.9	-90.7	10.9
2025-01-05 20:01:39.166926	321.3	26.7	-90.3	10.1
2025-01-05 20:01:40.316921	321.5	26.5	-90.1	16.1
2025-01-05 20:01:41.461155	321.7	26.4	-90.2	6.1
2025-01-05 20:01:42.608041	321.8	26.2	-90.2	7.8
2025-01-05 20:01:43.757194	322.0	26.1	-89.8	14.7
2025-01-05 20:01:44.901742	322.1	25.9	-89.8	7.8
2025-01-05 20:01:46.050708	322.3	25.7	-90.2	6.7
2025-01-05 20:01:47.199749	322.4	25.6	-90.0	6.9
2025-01-05 20:01:48.348758	322.6	25.4	-90.3	8.0
2025-01-05 20:01:49.492546	322.7	25.2	-90.7	8.1
2025-01-05 20:01:50.639493	322.9	25.1	-90.1	5.5
2025-01-05 20:01:51.786970	323.0	24.9	-90.6	12.9
2025-01-05 20:01:52.934707	323.2	24.8	-91.0	7.8
2025-01-05 20:01:54.085969	323.3	24.6	-90.0	6.9
2025-01-05 20:01:55.236416	323.5	24.4	-90.4	6.9
2025-01-05 20:01:56.385867	323.6	24.3	-90.7	7.9
2025-01-05 20:01:57.532075	323.7	24.1	-90.9	9.2
2025-01-05 20:01:58.682693	323.9	24.0	-91.1	7.5
2025-01-05 20:01:59.830084	324.0	23.8	-90.5	6.3
2025-01-05 20:02:00.973298	324.1	23.7	-89.9	6.3
2025-01-05 20:02:02.125864	324.3	23.5	-90.6	8.1
2025-01-05 20:02:03.272208	324.4	23.4	-90.4	7.8
2025-01-05 20:02:04.417511	324.5	23.2	-90.8	5.2
2025-01-05 20:02:05.560660	324.7	23.1	-90.5	5.6
2025-01-05 20:02:06.711584	324.8	22.9	-90.6	8.8
2025-01-05 20:02:07.860966	324.9	22.8	-90.0	8.5
2025-01-05 20:02:09.007561	325.1	22.6	-90.6	5.4
2025-01-05 20:02:10.156076	325.2	22.5	-89.5	10.9
2025-01-05 20:02:11.305648	325.3	22.3	-90.0	8.2
2025-01-05 20:02:12.451226	325.4	22.2	-89.8	8.5
2025-01-05 20:02:13.600554	325.5	22.0	-90.4	10.0
2025-01-05 20:02:14.745209	325.7	21.9	-90.6	8.8
2025-01-05 20:02:15.898595	325.8	21.7	-91.1	7.0
2025-01-05 20:02:17.045507	325.9	21.6	-90.3	10.8
2025-01-05 20:02:18.191710	326.0	21.5	-90.1	14.6
2025-01-05 20:02:19.345855	326.1	21.3	-89.8	4.5
2025-01-05 20:02:20.496237	326.3	21.2	-90.9	9.1
2025-01-05 20:02:21.646433	326.4	21.0	-90.8	7.0
2025-01-05 20:02:22.791592	326.5	20.9	-90.2	8.7
2025-01-05 20:02:23.939052	326.6	20.8	-91.2	9.4
2025-01-05 20:02:25.083282	326.7	20.6	-91.1	5.4
2025-01-05 20:02:26.229624	326.8	20.5	-89.9	8.4
2025-01-05 20:02:27.380192	326.9	20.3	-90.9	3.4
2025-01-05 20:02:28.528161	327.0	20.2	-91.1	5.4
2025-01-05 20:02:29.674563	327.2	20.1	-90.4	4.1
2025-01-05 20:02:30.822712	327.3	19.9	-90.6	6.1
2025-01-05 20:02:31.973014	327.4	19.8	-90.3	3.1
2025-01-05 20:02:33.125361	327.5	19.7	-90.6	4.6
2025-01-05 20:02:34.273744	327.6	19.5	-90.7	3.9
2025-01-05 20:02:35.425212	327.7	19.4	-90.8	4.6
2025-01-05 20:02:36.574861	327.8	19.3	-89.6	6.0
2025-01-05 20:02:37.719669	327.9	19.1	-90.1	6.1
2025-01-05 20:02:38.867342	328.0	19.0	-90.9	3.3
2025-01-05 20:02:40.012525	328.1	18.9	-90.9	6.6
2025-01-05 20:02:41.162451	328.2	18.7	-90.8	5.8
2025-01-05 20:02:42.309318	328.3	18.6	-90.8	3.7
2025-01-05 20:02:43.464059	328.4	18.5	-89.7	3.4
2025-01-05 20:02:44.610100	328.5	18.4	-89.9	3.8
2025-01-05 20:02:45.757542	328.6	18.2	-90.0	6.4
2025-01-05 20:02:46.904837	328.7	18.1	-89.8	2.4
2025-01-05 20:02:48.055503	328.8	18.0	-90.0	2.3
2025-01-05 20:02:49.203398	328.9	17.8	-91.1	4.2
2025-01-05 20:02:50.352748	329.0	17.7	-91.1	4.2
2025-01-05 20:02:51.501039	329.0	17.6	-91.4	5.1
2025-01-05 20:02:52.653509	329.1	17.5	-91.3	4.1
2025-01-05 20:02:53.798483	329.2	17.3	-91.2	4.2
2025-01-05 20:02:54.945144	329.3	17.2	-91.2	5.6
2025-01-05 20:02:56.093137	329.4	17.1	-89.8	2.9
2025-01-05 20:02:57.234233	329.5	17.0	-91.0	4.0
2025-01-05 20:02:58.383708	329.6	16.9	-91.1	3.1
2025-01-05 20:02:59.534504	329.7	16.7	-91.1	4.8
2025-01-05 20:03:00.675131	329.8	16.6	-91.3	4.3
2025-01-05 20:03:01.824871	329.9	16.5	-91.1	5.6
2025-01-05 20:03:02.977038	329.9	16.4	-90.4	6.5
2025-01-05 20:03:04.120377	330.0	16.3	-90.5	8.2
2025-01-05 20:03:05.266021	330.1	16.1	-91.0	3.4
2025-01-05 20:03:06.416192	330.2	16.0	-90.6	4.8
2025-01-05 20:03:07.568705	330.3	15.9	-91.0	3.6
2025-01-05 20:03:08.714338	330.4	15.8	-91.4	6.9
2025-01-05 20:03:09.867236	330.4	15.7	-90.8	5.2
2025-01-05 20:03:11.016292	330.5	15.6	-90.7	3.6
2025-01-05 20:03:12.168343	330.6	15.4	-90.2	6.0
2025-01-05 20:03:13.316754	330.7	15.3	-90.7	4.9
2025-01-05 20:03:14.460788	330.8	15.2	-91.2	3.9
2025-01-05 20:03:15.608050	330.8	15.1	-90.7	4.8
2025-01-05 20:03:16.759661	330.9	15.0	-91.0	5.8
2025-01-05 20:03:17.909324	331.0	14.9	-91.2	4.7
2025-01-05 20:03:19.056906	331.1	14.8	-90.6	5.0
2025-01-05 20:03:20.208279	331.2	14.6	-90.6	4.3
2025-01-05 20:03:21.350328	331.2	14.5	-91.2	6.2
#Closed at: 2025-01-05 19:54:21.888869