passes_logs/2025/01/05/LEX_Murmansk/LEX_Murmansk__20250105_095407_NOAA_18_rec.log

#Pass ID: 20250105_095407_NOAA 18
#Satellite: NOAA 18
#Configuration: NOAA 18
#Start time: 2025-01-05 09:54:02.146404

#LorettStation: 1.0.0 05.05.2024
#Station: LEX_Murmansk
#Location: 33.156738 lon 68.926811 lat
#TLE: 1 28654U 05018A   25004.89869685  .00000615  00000+0  35035-3 0  9999
#TLE: 2 28654  98.8582  86.0526 0013879 207.8923 152.1507 14.13477357 11671

#Time	Az	El	Level	SNR
2025-01-05 09:54:14.276156	26.0	16.3	-92.5	5.7
2025-01-05 09:54:15.441581	26.0	16.4	-92.7	5.8
2025-01-05 09:54:16.607303	26.0	16.6	-93.0	5.4
2025-01-05 09:54:17.764672	26.0	16.7	-92.8	7.1
2025-01-05 09:54:18.935096	26.0	16.8	-92.7	5.8
2025-01-05 09:54:20.091044	26.0	16.9	-92.7	4.4
2025-01-05 09:54:21.257423	26.1	17.1	-92.6	8.6
2025-01-05 09:54:22.418440	26.1	17.2	-93.0	9.9
2025-01-05 09:54:23.579500	26.1	17.3	-93.0	10.5
2025-01-05 09:54:24.743901	26.1	17.5	-93.1	11.2
2025-01-05 09:54:25.908718	26.1	17.6	-92.9	10.3
2025-01-05 09:54:27.079009	26.1	17.7	-92.5	9.4
2025-01-05 09:54:28.240859	26.2	17.9	-92.6	12.7
2025-01-05 09:54:29.405642	26.2	18.0	-92.6	12.0
2025-01-05 09:54:30.565219	26.2	18.2	-93.1	11.9
2025-01-05 09:54:31.734916	26.2	18.3	-93.0	10.5
2025-01-05 09:54:32.902571	26.2	18.4	-93.1	12.9
2025-01-05 09:54:34.066425	26.2	18.6	-92.8	4.2
2025-01-05 09:54:35.230656	26.3	18.7	-92.5	11.1
2025-01-05 09:54:36.394298	26.3	18.9	-92.7	9.8
2025-01-05 09:54:37.558972	26.3	19.0	-93.2	10.5
2025-01-05 09:54:38.722788	26.3	19.1	-93.4	10.3
2025-01-05 09:54:39.879479	26.3	19.3	-92.9	10.4
2025-01-05 09:54:41.045914	26.4	19.4	-93.1	9.9
2025-01-05 09:54:42.216894	26.4	19.6	-92.8	11.6
2025-01-05 09:54:43.381799	26.4	19.7	-92.8	6.6
2025-01-05 09:54:44.551147	26.4	19.9	-92.9	13.5
2025-01-05 09:54:45.716774	26.4	20.0	-93.1	11.0
2025-01-05 09:54:46.883040	26.5	20.2	-93.1	11.3
2025-01-05 09:54:48.035819	26.5	20.3	-92.8	8.8
2025-01-05 09:54:49.200525	26.5	20.5	-92.4	8.6
2025-01-05 09:54:50.365789	26.5	20.6	-92.8	13.4
2025-01-05 09:54:51.528396	26.5	20.8	-93.3	6.6
2025-01-05 09:54:52.696057	26.6	20.9	-92.9	10.5
2025-01-05 09:54:53.863273	26.6	21.1	-92.9	16.6
2025-01-05 09:54:55.026350	26.6	21.2	-92.7	15.5
2025-01-05 09:54:56.193855	26.6	21.4	-92.7	15.8
2025-01-05 09:54:57.358880	26.6	21.5	-93.1	14.4
2025-01-05 09:54:58.526109	26.7	21.7	-93.3	10.6
2025-01-05 09:54:59.690505	26.7	21.9	-93.2	13.2
2025-01-05 09:55:00.843117	26.7	22.0	-93.1	16.2
2025-01-05 09:55:01.989256	26.7	22.2	-93.3	8.8
2025-01-05 09:55:03.158448	26.7	22.3	-92.9	14.1
2025-01-05 09:55:04.323744	26.8	22.5	-92.7	11.3
2025-01-05 09:55:05.490992	26.8	22.7	-93.1	5.3
2025-01-05 09:55:06.652672	26.8	22.8	-93.2	5.1
2025-01-05 09:55:07.816158	26.8	23.0	-93.3	10.6
2025-01-05 09:55:08.979956	26.9	23.2	-93.0	10.9
2025-01-05 09:55:10.143314	26.9	23.3	-92.7	12.0
2025-01-05 09:55:11.301913	26.9	23.5	-93.1	13.3
2025-01-05 09:55:12.467625	26.9	23.7	-93.2	15.7
2025-01-05 09:55:13.646799	26.9	23.8	-93.1	12.4
2025-01-05 09:55:14.803969	27.0	24.0	-92.8	13.8
2025-01-05 09:55:15.969671	27.0	24.2	-92.9	14.6
2025-01-05 09:55:17.138000	27.0	24.4	-92.9	14.8
2025-01-05 09:55:18.301763	27.0	24.5	-93.1	14.9
2025-01-05 09:55:19.467477	27.1	24.7	-93.2	11.9
2025-01-05 09:55:20.633996	27.1	24.9	-93.0	8.9
2025-01-05 09:55:21.800077	27.1	25.1	-92.7	15.6
2025-01-05 09:55:22.965809	27.1	25.3	-93.0	7.5
2025-01-05 09:55:24.129082	27.2	25.4	-92.8	7.3
2025-01-05 09:55:25.289807	27.2	25.6	-93.0	11.3
2025-01-05 09:55:26.454574	27.2	25.8	-89.4	9.0
2025-01-05 09:55:27.626846	27.2	26.0	-92.8	13.9
2025-01-05 09:55:28.792099	27.3	26.2	-93.0	12.8
2025-01-05 09:55:29.952495	27.3	26.4	-93.1	9.4
2025-01-05 09:55:31.111303	27.3	26.6	-92.9	7.4
2025-01-05 09:55:32.271777	27.3	26.8	-92.4	7.0
2025-01-05 09:55:33.440242	27.4	26.9	-93.0	8.0
2025-01-05 09:55:34.605303	27.4	27.1	-93.1	12.6
2025-01-05 09:55:35.777415	27.4	27.3	-93.3	5.1
2025-01-05 09:55:36.943768	27.5	27.5	-93.1	10.6
2025-01-05 09:55:38.110364	27.5	27.7	-92.6	4.5
2025-01-05 09:55:39.270885	27.5	27.9	-92.8	8.4
2025-01-05 09:55:40.427273	27.5	28.1	-92.9	2.1
2025-01-05 09:55:41.591383	27.6	28.3	-93.2	4.8
2025-01-05 09:55:42.756480	27.6	28.5	-93.3	7.7
2025-01-05 09:55:43.924141	27.6	28.7	-93.2	7.5
2025-01-05 09:55:45.092578	27.7	29.0	-92.9	7.8
2025-01-05 09:55:46.258137	27.7	29.2	-92.7	11.3
2025-01-05 09:55:47.425559	27.7	29.4	-93.1	9.0
2025-01-05 09:55:48.591642	27.8	29.6	-93.4	5.4
2025-01-05 09:55:49.754931	27.8	29.8	-93.4	5.0
2025-01-05 09:55:50.913360	27.8	30.0	-93.1	5.1
2025-01-05 09:55:52.080572	27.9	30.2	-93.0	3.9
2025-01-05 09:55:53.245539	27.9	30.4	-92.8	13.4
2025-01-05 09:55:54.410706	27.9	30.7	-93.2	8.8
2025-01-05 09:55:55.576078	27.9	30.9	-93.2	8.1
2025-01-05 09:55:56.737952	28.0	31.1	-92.9	9.6
2025-01-05 09:55:57.906129	28.0	31.3	-93.2	7.8
2025-01-05 09:55:59.069829	28.1	31.6	-93.0	9.7
2025-01-05 09:56:00.230115	28.1	31.8	-92.7	8.8
2025-01-05 09:56:01.389416	28.1	32.0	-93.2	15.0
2025-01-05 09:56:02.550705	28.2	32.2	-93.2	12.8
2025-01-05 09:56:03.713866	28.2	32.5	-92.8	11.3
2025-01-05 09:56:04.880055	28.2	32.7	-92.8	15.0
2025-01-05 09:56:06.048418	28.3	33.0	-93.0	9.8
2025-01-05 09:56:07.213443	28.3	33.2	-93.0	12.5
2025-01-05 09:56:08.379839	28.3	33.4	-93.0	12.0
2025-01-05 09:56:09.551956	28.4	33.7	-93.2	13.1
2025-01-05 09:56:10.708794	28.4	33.9	-93.2	10.8
2025-01-05 09:56:11.872778	28.5	34.2	-93.4	10.9
2025-01-05 09:56:13.037669	28.5	34.4	-93.2	6.7
2025-01-05 09:56:14.205816	28.5	34.7	-92.6	10.2
2025-01-05 09:56:15.371481	28.6	34.9	-92.9	12.6
2025-01-05 09:56:16.536956	28.6	35.2	-93.2	12.6
2025-01-05 09:56:17.706182	28.7	35.4	-93.2	15.8
2025-01-05 09:56:18.861654	28.7	35.7	-93.1	16.5
2025-01-05 09:56:20.023629	28.8	36.0	-93.2	17.1
2025-01-05 09:56:21.160146	28.8	36.2	-92.9	10.3
2025-01-05 09:56:22.280835	28.8	36.5	-92.5	12.5
2025-01-05 09:56:23.437015	28.9	36.7	-92.9	14.1
2025-01-05 09:56:24.598660	28.9	37.0	-93.1	16.6
2025-01-05 09:56:25.765355	29.0	37.3	-93.4	16.5
2025-01-05 09:56:26.927397	29.0	37.5	-93.1	20.5
2025-01-05 09:56:28.094521	29.1	37.8	-93.1	15.2
2025-01-05 09:56:29.257374	29.1	38.1	-92.8	15.6
2025-01-05 09:56:30.416598	29.2	38.4	-93.1	12.9
2025-01-05 09:56:31.579143	29.2	38.7	-92.9	8.8
2025-01-05 09:56:32.745649	29.3	38.9	-92.7	16.1
2025-01-05 09:56:33.913557	29.3	39.2	-92.6	12.0
2025-01-05 09:56:35.078221	29.4	39.5	-92.5	18.4
2025-01-05 09:56:36.242338	29.4	39.8	-92.5	17.5
2025-01-05 09:56:37.406770	29.5	40.1	-92.8	17.6
2025-01-05 09:56:38.569979	29.5	40.4	-93.2	19.7
2025-01-05 09:56:39.738443	29.6	40.7	-92.9	21.0
2025-01-05 09:56:40.900576	29.7	41.0	-92.7	22.0
2025-01-05 09:56:42.067041	29.7	41.3	-92.7	14.4
2025-01-05 09:56:43.232831	29.8	41.6	-92.7	17.0
2025-01-05 09:56:44.399892	29.8	41.9	-93.0	18.6
2025-01-05 09:56:45.566918	29.9	42.2	-92.4	19.0
2025-01-05 09:56:46.729725	30.0	42.6	-92.4	20.4
2025-01-05 09:56:47.899334	30.0	42.9	-92.4	16.7
2025-01-05 09:56:49.056390	30.1	43.2	-92.8	11.0
2025-01-05 09:56:50.224060	30.2	43.5	-92.9	18.8
2025-01-05 09:56:51.384895	30.2	43.8	-93.0	17.7
2025-01-05 09:56:52.554813	30.3	44.2	-93.1	13.4
2025-01-05 09:56:53.716502	30.4	44.5	-93.2	18.9
2025-01-05 09:56:54.879859	30.4	44.8	-93.1	19.9
2025-01-05 09:56:56.047741	30.5	45.2	-92.5	19.0
2025-01-05 09:56:57.211024	30.6	45.5	-92.5	19.0
2025-01-05 09:56:58.379629	30.7	45.9	-92.8	15.9
2025-01-05 09:56:59.543187	30.7	46.2	-93.3	10.7
2025-01-05 09:57:00.693999	30.8	46.5	-93.5	14.4
2025-01-05 09:57:01.858008	30.9	46.9	-93.4	12.9
2025-01-05 09:57:03.034859	31.0	47.2	-92.9	11.9
2025-01-05 09:57:04.204681	31.1	47.6	-92.4	9.1
2025-01-05 09:57:05.363807	31.2	48.0	-92.6	12.9
2025-01-05 09:57:06.530569	31.2	48.3	-93.2	12.3
2025-01-05 09:57:07.689885	31.3	48.7	-93.0	12.1
2025-01-05 09:57:08.849319	31.4	49.1	-93.3	15.8
2025-01-05 09:57:10.014754	31.5	49.4	-93.3	7.9
2025-01-05 09:57:11.180068	31.6	49.8	-92.5	14.6
2025-01-05 09:57:12.344041	31.7	50.2	-92.6	16.5
2025-01-05 09:57:13.520496	31.8	50.6	-92.9	9.5
2025-01-05 09:57:14.687175	31.9	51.0	-93.0	11.8
2025-01-05 09:57:15.850137	32.0	51.3	-93.3	7.5
2025-01-05 09:57:17.014639	32.1	51.7	-93.1	14.8
2025-01-05 09:57:18.180294	32.3	52.1	-92.1	10.0
2025-01-05 09:57:19.351668	32.4	52.5	-92.5	14.7
2025-01-05 09:57:20.506848	32.5	52.9	-92.9	12.6
2025-01-05 09:57:21.666899	32.6	53.3	-92.7	17.6
2025-01-05 09:57:22.831046	32.7	53.7	-92.9	15.8
2025-01-05 09:57:23.994089	32.9	54.1	-93.1	17.8
2025-01-05 09:57:25.162871	33.0	54.5	-92.6	14.0
2025-01-05 09:57:26.320900	33.1	55.0	-93.0	16.9
2025-01-05 09:57:27.488769	33.3	55.4	-93.1	14.6
2025-01-05 09:57:28.653401	33.4	55.8	-93.0	12.0
2025-01-05 09:57:29.821341	33.6	56.2	-92.8	13.9
2025-01-05 09:57:30.984618	33.7	56.6	-92.7	6.7
2025-01-05 09:57:32.145470	33.9	57.1	-92.3	3.9
2025-01-05 09:57:33.313037	34.0	57.5	-92.7	13.2
2025-01-05 09:57:34.475980	34.2	57.9	-93.0	8.9
2025-01-05 09:57:35.643887	34.4	58.4	-92.8	7.9
2025-01-05 09:57:36.809818	34.5	58.8	-93.1	18.8
2025-01-05 09:57:37.975436	34.7	59.3	-92.7	14.3
2025-01-05 09:57:39.151324	34.9	59.7	-92.0	17.4
2025-01-05 09:57:40.297864	35.1	60.2	-92.2	15.3
2025-01-05 09:57:41.461170	35.3	60.6	-92.7	19.5
2025-01-05 09:57:42.626323	35.5	61.1	-92.9	16.4
2025-01-05 09:57:43.793893	35.7	61.5	-93.0	18.3
2025-01-05 09:57:44.950466	36.0	62.0	-92.9	11.5
2025-01-05 09:57:46.111124	36.2	62.5	-92.5	9.9
2025-01-05 09:57:47.279301	36.4	62.9	-92.6	11.0
2025-01-05 09:57:48.444463	36.7	63.4	-92.4	13.5
2025-01-05 09:57:49.612668	37.0	63.9	-93.3	14.8
2025-01-05 09:57:50.772617	37.2	64.4	-92.7	19.4
2025-01-05 09:57:51.935856	37.5	64.8	-93.0	17.6
2025-01-05 09:57:53.106235	37.8	65.3	-92.6	19.3
2025-01-05 09:57:54.272795	38.1	65.8	-92.2	19.6
2025-01-05 09:57:55.439015	38.4	66.3	-92.7	16.7
2025-01-05 09:57:56.600623	38.8	66.8	-92.7	12.8
2025-01-05 09:57:57.764757	39.1	67.3	-92.7	11.6
2025-01-05 09:57:58.927100	39.5	67.8	-92.9	9.6
2025-01-05 09:58:00.076599	39.9	68.3	-92.5	5.2
2025-01-05 09:58:01.218717	40.3	68.7	-92.6	7.1
2025-01-05 09:58:02.386522	40.7	69.2	-92.2	10.2
2025-01-05 09:58:03.544036	41.2	69.7	-92.9	10.1
2025-01-05 09:58:04.706235	41.6	70.2	-92.9	14.8
2025-01-05 09:58:05.871267	42.2	70.7	-92.7	16.1
2025-01-05 09:58:07.038804	42.7	71.2	-92.6	13.7
2025-01-05 09:58:08.196444	43.2	71.7	-92.5	14.4
2025-01-05 09:58:09.359471	43.8	72.3	-92.8	15.8
2025-01-05 09:58:10.525983	44.5	72.8	-93.2	18.0
2025-01-05 09:58:11.686022	45.1	73.3	-93.3	21.9
2025-01-05 09:58:12.853427	45.9	73.8	-93.3	18.7
2025-01-05 09:58:14.025608	46.6	74.3	-93.0	8.3
2025-01-05 09:58:15.192274	47.4	74.8	-92.4	11.8
2025-01-05 09:58:16.337223	48.3	75.3	-92.5	17.7
2025-01-05 09:58:17.492983	49.2	75.8	-92.8	12.9
2025-01-05 09:58:18.658224	50.2	76.3	-93.1	11.5
2025-01-05 09:58:19.825544	51.3	76.8	-93.0	20.1
2025-01-05 09:58:20.985857	52.5	77.3	-93.0	14.0
2025-01-05 09:58:22.154406	53.8	77.8	-92.5	17.3
2025-01-05 09:58:23.315251	55.2	78.2	-92.6	22.4
2025-01-05 09:58:24.477361	56.7	78.7	-92.9	22.7
2025-01-05 09:58:25.645566	58.3	79.2	-93.2	22.3
2025-01-05 09:58:26.810769	60.1	79.7	-93.1	24.0
2025-01-05 09:58:27.977812	62.0	80.1	-92.8	24.4
2025-01-05 09:58:29.141454	64.2	80.6	-92.2	23.6
2025-01-05 09:58:30.304920	66.5	81.0	-92.2	21.4
2025-01-05 09:58:31.468751	69.1	81.4	-93.1	21.0
2025-01-05 09:58:32.628732	72.0	81.8	-93.1	22.1
2025-01-05 09:58:33.796870	75.1	82.2	-92.6	24.1
2025-01-05 09:58:34.962392	78.5	82.5	-93.0	21.7
2025-01-05 09:58:36.128721	82.3	82.9	-92.5	17.9
2025-01-05 09:58:37.292994	86.4	83.1	-92.6	23.7
2025-01-05 09:58:38.448708	90.8	83.4	-92.4	17.0
2025-01-05 09:58:39.568744	95.4	83.6	-92.8	14.1
2025-01-05 09:58:40.690284	100.3	83.7	-92.9	20.1
2025-01-05 09:58:41.810262	105.3	83.9	-93.0	22.9
2025-01-05 09:58:42.931299	110.5	83.9	-92.8	16.4
2025-01-05 09:58:44.051678	115.8	83.9	-92.8	11.3
2025-01-05 09:58:45.173225	121.1	83.9	-92.2	17.3
2025-01-05 09:58:46.312823	126.3	83.8	-92.5	22.7
2025-01-05 09:58:47.467494	131.4	83.7	-93.0	15.4
2025-01-05 09:58:48.606798	136.2	83.5	-92.9	14.7
2025-01-05 09:58:49.770242	140.8	83.2	-92.8	22.8
2025-01-05 09:58:50.933594	145.0	83.0	-92.8	17.8
2025-01-05 09:58:52.090276	148.9	82.7	-92.2	15.3
2025-01-05 09:58:53.235816	152.4	82.3	-92.1	21.3
2025-01-05 09:58:54.396469	155.7	82.0	-92.4	12.2
2025-01-05 09:58:55.541751	158.6	81.6	-93.0	17.4
2025-01-05 09:58:56.703433	161.3	81.2	-93.1	22.2
2025-01-05 09:58:57.859638	163.8	80.8	-93.3	20.8
2025-01-05 09:58:59.021596	166.0	80.3	-93.3	18.7
2025-01-05 09:59:00.186430	168.0	79.9	-92.6	20.9
2025-01-05 09:59:01.334124	169.9	79.4	-92.6	24.4
2025-01-05 09:59:02.495983	171.6	79.0	-93.2	20.2
2025-01-05 09:59:03.666275	173.2	78.5	-93.3	19.6
2025-01-05 09:59:04.825064	174.6	78.0	-92.9	23.3
2025-01-05 09:59:05.992082	175.9	77.5	-93.0	18.8
2025-01-05 09:59:07.155153	177.1	77.0	-92.1	18.0
2025-01-05 09:59:08.323179	178.3	76.5	-92.3	21.9
2025-01-05 09:59:09.487294	179.3	76.0	-93.1	21.2
2025-01-05 09:59:10.651296	180.3	75.5	-93.0	18.2
2025-01-05 09:59:11.817466	181.2	75.0	-93.1	19.2
2025-01-05 09:59:12.976743	182.0	74.5	-92.9	16.8
2025-01-05 09:59:14.142663	182.8	74.0	-92.5	17.1
2025-01-05 09:59:15.300561	183.6	73.5	-92.8	18.4
2025-01-05 09:59:16.468772	184.2	73.0	-92.7	17.0
2025-01-05 09:59:17.630396	184.9	72.5	-92.7	17.1
2025-01-05 09:59:18.792512	185.5	72.0	-93.1	18.2
2025-01-05 09:59:19.958214	186.1	71.5	-92.5	12.6
2025-01-05 09:59:21.125641	186.6	71.0	-92.8	15.1
2025-01-05 09:59:22.285980	187.2	70.5	-92.8	17.8
2025-01-05 09:59:23.454071	187.6	69.9	-93.0	12.0
2025-01-05 09:59:24.619039	188.1	69.4	-93.1	11.5
2025-01-05 09:59:25.786789	188.5	68.9	-93.0	18.9
2025-01-05 09:59:26.952030	189.0	68.4	-93.1	10.6
2025-01-05 09:59:28.122162	189.4	67.9	-92.6	11.4
2025-01-05 09:59:29.280373	189.7	67.4	-92.7	17.6
2025-01-05 09:59:30.446121	190.1	67.0	-93.1	12.5
2025-01-05 09:59:31.599860	190.4	66.5	-93.3	12.5
2025-01-05 09:59:32.763099	190.8	66.0	-93.1	20.0
2025-01-05 09:59:33.928195	191.1	65.5	-93.1	17.2
2025-01-05 09:59:35.096048	191.4	65.0	-92.2	15.5
2025-01-05 09:59:36.261177	191.7	64.5	-92.3	15.6
2025-01-05 09:59:37.429704	192.0	64.0	-93.0	11.9
2025-01-05 09:59:38.587447	192.2	63.6	-93.1	13.0
2025-01-05 09:59:39.752268	192.5	63.1	-93.2	10.6
2025-01-05 09:59:40.925270	192.7	62.6	-92.9	16.5
2025-01-05 09:59:42.078938	193.0	62.2	-92.8	10.4
2025-01-05 09:59:43.248617	193.2	61.7	-92.6	16.3
2025-01-05 09:59:44.410684	193.4	61.2	-92.9	13.0
2025-01-05 09:59:45.573958	193.6	60.8	-92.8	13.3
2025-01-05 09:59:46.732326	193.8	60.3	-93.0	4.7
2025-01-05 09:59:47.894895	194.0	59.9	-92.8	19.0
2025-01-05 09:59:49.061142	194.2	59.4	-93.1	14.5
2025-01-05 09:59:50.228443	194.4	58.9	-92.6	14.2
2025-01-05 09:59:51.392805	194.6	58.5	-93.3	9.9
2025-01-05 09:59:52.562351	194.8	58.1	-93.1	9.0
2025-01-05 09:59:53.727679	194.9	57.6	-93.1	10.9
2025-01-05 09:59:54.890613	195.1	57.2	-93.2	12.1
2025-01-05 09:59:56.053779	195.3	56.7	-93.0	14.0
2025-01-05 09:59:57.206326	195.4	56.3	-92.3	13.9
2025-01-05 09:59:58.376672	195.6	55.9	-92.8	16.2
2025-01-05 09:59:59.543770	195.7	55.5	-93.2	14.2
2025-01-05 10:00:00.695473	195.9	55.1	-93.3	5.8
2025-01-05 10:00:01.861782	196.0	54.6	-93.1	10.2
2025-01-05 10:00:03.017609	196.1	54.2	-92.7	13.3
2025-01-05 10:00:04.176869	196.2	53.8	-92.4	19.6
2025-01-05 10:00:05.339225	196.4	53.4	-92.5	23.6
2025-01-05 10:00:06.502955	196.5	53.0	-93.2	6.4
2025-01-05 10:00:07.667488	196.6	52.6	-92.4	21.5
2025-01-05 10:00:08.823958	196.7	52.2	-92.4	19.9
2025-01-05 10:00:09.979031	196.8	51.8	-92.9	6.5
2025-01-05 10:00:11.145245	197.0	51.4	-92.5	3.8
2025-01-05 10:00:12.304976	197.1	51.0	-92.0	10.1
2025-01-05 10:00:13.465026	197.2	50.6	-92.4	5.8
2025-01-05 10:00:14.623369	197.3	50.3	-92.7	3.4
2025-01-05 10:00:15.791177	197.4	49.9	-93.1	12.0
2025-01-05 10:00:16.953240	197.5	49.5	-92.8	9.5
2025-01-05 10:00:18.115684	197.6	49.1	-92.2	6.5
2025-01-05 10:00:19.295918	197.7	48.7	-92.2	16.2
2025-01-05 10:00:20.459826	197.7	48.4	-92.5	14.0
2025-01-05 10:00:21.618717	197.8	48.0	-92.5	12.3
2025-01-05 10:00:22.772780	197.9	47.7	-92.7	14.8
2025-01-05 10:00:23.938043	198.0	47.3	-92.3	16.0
2025-01-05 10:00:25.100780	198.1	46.9	-92.3	20.3
2025-01-05 10:00:26.269080	198.2	46.6	-92.3	19.9
2025-01-05 10:00:27.429896	198.3	46.2	-92.7	21.3
2025-01-05 10:00:28.596714	198.3	45.9	-92.6	19.4
2025-01-05 10:00:29.755453	198.4	45.5	-92.7	20.7
2025-01-05 10:00:30.915269	198.5	45.2	-92.5	19.4
2025-01-05 10:00:32.076205	198.6	44.9	-92.5	14.2
2025-01-05 10:00:33.236082	198.6	44.5	-92.3	18.0
2025-01-05 10:00:34.404592	198.7	44.2	-92.4	16.6
2025-01-05 10:00:35.569356	198.8	43.9	-92.5	11.2
2025-01-05 10:00:36.738685	198.8	43.5	-92.7	17.6
2025-01-05 10:00:37.898878	198.9	43.2	-92.8	15.4
2025-01-05 10:00:39.066554	199.0	42.9	-92.7	12.2
2025-01-05 10:00:40.228886	199.0	42.6	-92.2	15.8
2025-01-05 10:00:41.392548	199.1	42.2	-92.5	18.5
2025-01-05 10:00:42.548039	199.2	41.9	-92.5	17.9
2025-01-05 10:00:43.705986	199.2	41.6	-92.7	19.4
2025-01-05 10:00:44.870762	199.3	41.3	-92.6	19.9
2025-01-05 10:00:46.035754	199.3	41.0	-92.6	20.2
2025-01-05 10:00:47.199906	199.4	40.7	-92.2	18.5
2025-01-05 10:00:48.363494	199.5	40.4	-92.1	18.7
2025-01-05 10:00:49.524615	199.5	40.1	-92.7	13.9
2025-01-05 10:00:50.692578	199.6	39.8	-92.7	15.7
2025-01-05 10:00:51.862264	199.6	39.5	-93.1	16.2
2025-01-05 10:00:53.028525	199.7	39.2	-92.9	9.9
2025-01-05 10:00:54.193122	199.7	38.9	-92.2	13.6
2025-01-05 10:00:55.358220	199.8	38.6	-92.2	14.5
2025-01-05 10:00:56.520177	199.8	38.3	-92.4	9.4
2025-01-05 10:00:57.672484	199.9	38.1	-92.5	12.9
2025-01-05 10:00:58.831003	199.9	37.8	-92.9	15.4
2025-01-05 10:01:00.002343	200.0	37.5	-92.9	13.0
2025-01-05 10:01:01.156427	200.0	37.2	-92.3	12.8
2025-01-05 10:01:02.315982	200.1	37.0	-92.2	12.7
2025-01-05 10:01:03.483510	200.1	36.7	-92.4	12.8
2025-01-05 10:01:04.647975	200.2	36.4	-92.8	11.8
2025-01-05 10:01:05.811738	200.2	36.1	-93.1	12.5
2025-01-05 10:01:06.972579	200.2	35.9	-92.9	10.0
2025-01-05 10:01:08.135319	200.3	35.6	-92.3	8.3
2025-01-05 10:01:09.299215	200.3	35.4	-92.4	11.1
2025-01-05 10:01:10.463466	200.4	35.1	-92.7	8.7
2025-01-05 10:01:11.623380	200.4	34.8	-92.5	6.8
2025-01-05 10:01:12.780510	200.5	34.6	-92.7	9.3
2025-01-05 10:01:13.944865	200.5	34.3	-92.5	6.7
2025-01-05 10:01:15.101905	200.5	34.1	-92.1	4.6
2025-01-05 10:01:16.261537	200.6	33.8	-92.1	5.4
2025-01-05 10:01:17.427023	200.6	33.6	-92.7	8.4
2025-01-05 10:01:18.589750	200.7	33.3	-92.7	7.7
2025-01-05 10:01:19.754400	200.7	33.1	-93.0	8.5
2025-01-05 10:01:20.917753	200.7	32.9	-93.2	8.7
2025-01-05 10:01:22.070092	200.8	32.6	-92.6	6.5
2025-01-05 10:01:23.239025	200.8	32.4	-92.6	8.5
2025-01-05 10:01:24.403401	200.8	32.2	-92.5	9.4
2025-01-05 10:01:25.564540	200.9	31.9	-93.0	4.1
2025-01-05 10:01:26.731319	200.9	31.7	-93.0	7.5
2025-01-05 10:01:27.884378	200.9	31.5	-92.8	5.9
2025-01-05 10:01:29.048282	201.0	31.2	-92.5	4.6
2025-01-05 10:01:30.210717	201.0	31.0	-92.5	9.2
2025-01-05 10:01:31.376105	201.1	30.8	-92.2	6.3
2025-01-05 10:01:32.527532	201.1	30.6	-92.6	6.1
2025-01-05 10:01:33.686272	201.1	30.3	-92.8	10.6
2025-01-05 10:01:34.851126	201.1	30.1	-92.8	7.0
2025-01-05 10:01:36.015990	201.2	29.9	-92.9	10.6
2025-01-05 10:01:37.173453	201.2	29.7	-92.7	12.3
2025-01-05 10:01:38.340626	201.2	29.5	-92.7	10.5
2025-01-05 10:01:39.504765	201.3	29.3	-92.9	8.7
2025-01-05 10:01:40.668379	201.3	29.0	-92.8	8.6
2025-01-05 10:01:41.836625	201.3	28.8	-93.0	9.1
2025-01-05 10:01:42.996186	201.4	28.6	-92.9	7.7
2025-01-05 10:01:44.163560	201.4	28.4	-92.3	7.3
2025-01-05 10:01:45.327328	201.4	28.2	-92.1	11.0
2025-01-05 10:01:46.492237	201.5	28.0	-92.7	9.9
2025-01-05 10:01:47.648619	201.5	27.8	-92.9	11.9
2025-01-05 10:01:48.812773	201.5	27.6	-92.9	13.2
2025-01-05 10:01:49.984069	201.5	27.4	-93.1	12.7
2025-01-05 10:01:51.143553	201.6	27.2	-92.7	12.6
2025-01-05 10:01:52.300679	201.6	27.0	-92.4	12.8
2025-01-05 10:01:53.465808	201.6	26.8	-92.8	11.7
2025-01-05 10:01:54.636806	201.6	26.6	-92.8	9.3
2025-01-05 10:01:55.805593	201.7	26.4	-92.9	14.7
2025-01-05 10:01:56.968554	201.7	26.2	-92.8	7.3
2025-01-05 10:01:58.133377	201.7	26.0	-92.4	7.8
2025-01-05 10:01:59.284765	201.8	25.9	-92.5	13.2
2025-01-05 10:02:00.434360	201.8	25.7	-92.8	10.3
2025-01-05 10:02:01.597971	201.8	25.5	-92.6	9.6
2025-01-05 10:02:02.753346	201.8	25.3	-92.5	14.1
2025-01-05 10:02:03.914262	201.9	25.1	-92.9	13.2
2025-01-05 10:02:05.084776	201.9	24.9	-92.6	13.0
2025-01-05 10:02:06.240797	201.9	24.8	-92.6	13.7
2025-01-05 10:02:07.409081	201.9	24.6	-93.0	11.5
2025-01-05 10:02:08.572578	201.9	24.4	-92.9	11.5
2025-01-05 10:02:09.734826	202.0	24.2	-92.7	10.7
2025-01-05 10:02:10.900497	202.0	24.0	-92.8	9.5
2025-01-05 10:02:12.062238	202.0	23.9	-92.5	7.4
2025-01-05 10:02:13.217969	202.0	23.7	-92.2	10.8
2025-01-05 10:02:14.382352	202.1	23.5	-92.5	11.6
2025-01-05 10:02:15.546391	202.1	23.3	-93.0	9.7
2025-01-05 10:02:16.712890	202.1	23.2	-92.7	10.3
2025-01-05 10:02:17.875329	202.1	23.0	-93.2	11.2
2025-01-05 10:02:19.036877	202.2	22.8	-92.8	11.5
2025-01-05 10:02:20.204985	202.2	22.7	-92.5	8.3
2025-01-05 10:02:21.368085	202.2	22.5	-92.2	8.5
2025-01-05 10:02:22.527802	202.2	22.3	-92.5	8.8
2025-01-05 10:02:23.692299	202.2	22.2	-92.9	8.9
2025-01-05 10:02:24.854320	202.3	22.0	-92.8	9.8
2025-01-05 10:02:26.026639	202.3	21.8	-93.1	6.2
2025-01-05 10:02:27.186904	202.3	21.7	-92.5	9.4
2025-01-05 10:02:28.355261	202.3	21.5	-92.3	9.7
2025-01-05 10:02:29.520109	202.3	21.4	-92.5	6.6
2025-01-05 10:02:30.693787	202.4	21.2	-92.5	11.3
2025-01-05 10:02:31.856633	202.4	21.1	-92.8	12.7
2025-01-05 10:02:33.010605	202.4	20.9	-93.0	12.7
2025-01-05 10:02:34.174401	202.4	20.7	-92.6	13.0
2025-01-05 10:02:35.341444	202.4	20.6	-92.7	11.8
2025-01-05 10:02:36.505130	202.5	20.4	-92.8	10.6
2025-01-05 10:02:37.668721	202.5	20.3	-92.8	10.0
2025-01-05 10:02:38.835612	202.5	20.1	-93.0	11.0
2025-01-05 10:02:39.973005	202.5	20.0	-92.9	5.3
2025-01-05 10:02:41.135669	202.5	19.8	-92.5	7.7
2025-01-05 10:02:42.288342	202.6	19.7	-92.2	8.4
2025-01-05 10:02:43.454519	202.6	19.5	-92.8	7.5
2025-01-05 10:02:44.598573	202.6	19.4	-92.3	9.2
2025-01-05 10:02:45.762608	202.6	19.2	-92.8	9.2
2025-01-05 10:02:46.927051	202.6	19.1	-92.8	9.3
2025-01-05 10:02:48.084328	202.7	19.0	-92.1	6.9
2025-01-05 10:02:49.252086	202.7	18.8	-92.3	8.0
2025-01-05 10:02:50.415092	202.7	18.7	-92.6	6.5
2025-01-05 10:02:51.577178	202.7	18.5	-92.7	3.6
2025-01-05 10:02:52.736794	202.7	18.4	-92.6	3.9
2025-01-05 10:02:53.901322	202.7	18.2	-92.8	5.0
2025-01-05 10:02:55.068073	202.8	18.1	-92.5	2.0
2025-01-05 10:02:56.230782	202.8	18.0	-92.1	2.8
2025-01-05 10:02:57.395436	202.8	17.8	-92.5	0.7
2025-01-05 10:02:58.562369	202.8	17.7	-93.1	4.5
2025-01-05 10:02:59.729481	202.8	17.5	-93.0	3.8
2025-01-05 10:03:00.889604	202.8	17.4	-93.1	4.1
2025-01-05 10:03:02.057268	202.9	17.3	-92.6	3.4
2025-01-05 10:03:03.218455	202.9	17.1	-92.4	3.5
2025-01-05 10:03:04.386801	202.9	17.0	-92.6	5.1
2025-01-05 10:03:05.555377	202.9	16.9	-93.0	4.1
2025-01-05 10:03:06.722187	202.9	16.7	-93.0	5.6
2025-01-05 10:03:07.887211	202.9	16.6	-93.1	5.0
2025-01-05 10:03:09.057797	203.0	16.5	-92.4	4.7
2025-01-05 10:03:10.205217	203.0	16.4	-92.4	3.7
2025-01-05 10:03:11.370721	203.0	16.2	-92.2	5.0
2025-01-05 10:03:12.501349	203.0	16.1	-92.7	2.3
2025-01-05 10:03:13.621917	203.0	16.0	-92.8	4.7
2025-01-05 10:03:14.743900	203.0	15.8	-93.0	6.0
2025-01-05 10:03:15.865051	203.1	15.7	-92.7	4.4
2025-01-05 10:03:16.985886	203.1	15.6	-93.0	4.5
2025-01-05 10:03:18.105906	203.1	15.5	-92.2	4.4
2025-01-05 10:03:19.226407	203.1	15.4	-92.4	3.3
2025-01-05 10:03:20.351778	203.1	15.2	-92.4	5.7
2025-01-05 10:03:21.485565	203.1	15.1	-93.2	5.2
2025-01-05 10:03:22.645669	203.1	15.0	-93.1	4.4
2025-01-05 10:03:23.800776	203.2	14.9	-93.1	7.1
2025-01-05 10:03:24.959347	203.2	14.8	-93.0	5.5
2025-01-05 10:03:26.128087	203.2	14.6	-92.1	7.7
2025-01-05 10:03:27.282711	203.2	14.5	-92.1	8.3
#Closed at: 2025-01-05 09:54:07.062819