passes_logs/2025/01/25/XPeterburg/XPeterburg__20250125_003140_SUOMI_NPP_rec.log

#Pass ID: 20250125_003140_SUOMI NPP
#Satellite: SUOMI NPP
#Configuration: NPP
#Start time: 2025-01-25 00:31:33

#Version: 1.5.20200625
#Station: XPeterburg
#Location: 30.318091 lon 59.932769 lat
#TLE: 1 37849U 11061A   25024.15339793  .00000271  00000+0  14952-3 0  9996
#TLE: 2 37849  98.7453 325.0263 0001298  26.4282 333.6960 14.19543828686212

#Time	Az	El	Level	Level2	SNR	BER	Gain	Gain2
2025-01-25 00:31:33.37	3.24	67.22	-39.4	-46.2	3.3	15352455	97	2688
2025-01-25 00:31:33.57	3.16	67.30	-38.0	-69.8	3.6	0	46	48158
2025-01-25 00:31:33.77	3.09	67.39	-38.8	-58.0	3.6	15292167	73	11275
2025-01-25 00:31:33.98	3.01	67.48	-39.4	-47.5	3.4	15292167	95	3150
2025-01-25 00:31:34.18	2.93	67.56	-39.4	-47.2	3.4	15233924	95	3015
2025-01-25 00:31:34.38	2.85	67.65	-39.4	-48.4	3.6	15233924	95	3502
2025-01-25 00:31:34.58	2.77	67.74	-39.3	-48.2	3.6	15233924	95	3412
2025-01-25 00:31:34.78	2.70	67.82	-39.3	-47.6	3.5	15143280	95	3179
2025-01-25 00:31:34.98	2.62	67.91	-39.3	-47.1	3.4	15143280	95	3017
2025-01-25 00:31:35.18	2.54	68.00	-39.3	-48.3	3.2	15243095	95	3447
2025-01-25 00:31:35.38	2.46	68.08	-39.3	-48.3	3.6	15243095	95	3471
2025-01-25 00:31:35.58	2.38	68.17	-39.3	-47.7	3.5	15124794	95	3209
2025-01-25 00:31:35.78	2.29	68.25	-39.3	-47.2	3.4	15124794	95	3038
2025-01-25 00:31:35.99	2.21	68.35	-39.3	-46.8	3.3	15240135	95	2928
2025-01-25 00:31:36.19	2.12	68.43	-39.3	-48.0	3.6	15240135	95	3373
2025-01-25 00:31:36.39	2.04	68.52	-39.3	-47.4	3.5	15116859	95	3146
2025-01-25 00:31:36.59	1.95	68.60	-39.2	-46.7	3.4	15116859	95	2906
2025-01-25 00:31:36.79	1.87	68.69	-39.2	-46.1	3.3	15116859	95	2718
2025-01-25 00:31:36.99	1.78	68.78	-39.1	-47.1	3.6	15260185	95	3067
2025-01-25 00:31:37.19	1.69	68.86	-39.1	-46.4	3.6	15260185	95	2856
2025-01-25 00:31:37.39	1.61	68.95	-38.9	-45.0	3.5	15099754	95	2470
2025-01-25 00:31:37.59	1.52	69.04	-38.8	-44.0	3.5	15099754	95	2232
2025-01-25 00:31:37.79	1.43	69.12	-38.7	-44.5	3.7	15230407	95	2400
2025-01-25 00:31:37.99	1.34	69.21	-38.5	-43.6	4.1	15230407	95	2205
2025-01-25 00:31:38.20	1.24	69.30	-38.3	-42.0	4.4	13985527	95	1900
2025-01-25 00:31:38.40	1.15	69.39	-37.7	-41.0	5.0	13985527	93	1801
2025-01-25 00:31:38.60	1.06	69.48	-37.6	-40.4	5.3	7005996	93	1699
2025-01-25 00:31:38.80	0.96	69.56	-37.4	-39.7	5.6	7005996	93	1606
2025-01-25 00:31:39.00	0.87	69.65	-37.1	-39.5	6.1	3786369	92	1605
2025-01-25 00:31:39.20	0.77	69.74	-36.9	-38.8	6.5	3786369	92	1530
2025-01-25 00:31:39.40	0.68	69.82	-36.3	-38.3	6.8	3786369	91	1555
2025-01-25 00:31:39.60	0.58	69.91	-36.7	-38.8	7.0	2057960	91	1562
2025-01-25 00:31:39.81	0.48	70.00	-36.7	-38.7	7.1	2057960	91	1552
2025-01-25 00:31:40.01	0.38	70.09	-36.6	-38.5	7.2	1332893	91	1534
2025-01-25 00:31:40.21	0.28	70.18	-36.5	-38.5	7.3	1332893	91	1533
2025-01-25 00:31:40.41	0.17	70.26	-36.5	-38.3	7.5	1145210	91	1515
2025-01-25 00:31:40.61	0.07	70.35	-36.5	-38.4	7.4	1145210	91	1525
2025-01-25 00:31:40.81	359.97	70.44	-36.6	-38.5	7.3	1056793	91	1537
2025-01-25 00:31:41.01	359.87	70.53	-36.6	-38.6	7.2	1056793	91	1552
2025-01-25 00:31:41.21	359.76	70.61	-36.5	-38.2	7.5	1105224	91	1499
2025-01-25 00:31:41.41	359.65	70.70	-36.4	-38.2	7.5	1105224	91	1505
2025-01-25 00:31:41.61	359.55	70.79	-36.5	-38.2	7.4	969726	91	1507
2025-01-25 00:31:41.82	359.43	70.88	-36.5	-38.2	7.4	969726	91	1502
2025-01-25 00:31:42.02	359.32	70.97	-36.4	-38.0	7.5	969726	91	1479
2025-01-25 00:31:42.22	359.21	71.05	-35.9	-37.5	8.0	1072463	90	1467
2025-01-25 00:31:42.42	359.10	71.14	-35.9	-37.5	7.9	1072463	90	1467
2025-01-25 00:31:42.62	358.99	71.23	-35.8	-37.2	8.2	735076	90	1443
2025-01-25 00:31:42.82	358.88	71.32	-35.6	-37.1	8.7	735076	89	1460
2025-01-25 00:31:43.02	358.76	71.40	-35.6	-37.1	8.6	500022	89	1461
2025-01-25 00:31:43.22	358.65	71.49	-35.5	-36.9	8.9	500022	89	1447
2025-01-25 00:31:43.42	358.53	71.58	-35.3	-36.3	9.1	324722	89	1380
2025-01-25 00:31:43.62	358.41	71.67	-35.1	-36.4	9.4	324722	88	1431
2025-01-25 00:31:43.83	358.28	71.76	-34.9	-36.0	9.8	163742	88	1393
2025-01-25 00:31:44.03	358.16	71.84	-34.7	-36.0	10.0	163742	87	1429
2025-01-25 00:31:44.23	358.04	71.93	-34.4	-35.3	10.5	79040	87	1366
2025-01-25 00:31:44.43	357.92	72.02	-34.3	-35.0	10.7	79040	87	1335
2025-01-25 00:31:44.63	357.79	72.11	-33.9	-34.8	10.8	79040	86	1357
2025-01-25 00:31:44.83	357.67	72.19	-33.9	-34.6	10.9	31692	86	1340
2025-01-25 00:31:45.03	357.54	72.28	-33.8	-34.5	11.0	31692	86	1327
2025-01-25 00:31:45.23	357.41	72.37	-33.8	-34.5	10.9	20606	86	1333
2025-01-25 00:31:45.44	357.28	72.46	-33.7	-34.6	11.2	20606	85	1375
2025-01-25 00:31:45.64	357.14	72.55	-34.0	-35.3	10.8	18424	85	1437
2025-01-25 00:31:45.84	357.01	72.63	-33.8	-34.9	11.0	18424	85	1396
2025-01-25 00:31:46.04	356.88	72.72	-34.0	-35.4	10.8	20225	85	1451
2025-01-25 00:31:46.24	356.74	72.81	-34.2	-35.9	10.5	20225	85	1499
2025-01-25 00:31:46.44	356.60	72.90	-34.4	-36.0	10.1	38345	86	1468
2025-01-25 00:31:46.64	356.47	72.98	-34.6	-36.3	10.0	38345	86	1500
2025-01-25 00:31:46.85	356.32	73.07	-34.8	-36.9	9.7	38345	86	1562
2025-01-25 00:31:47.05	356.18	73.16	-34.9	-37.0	9.6	83259	86	1573
2025-01-25 00:31:47.25	356.03	73.25	-35.5	-37.4	9.1	83259	88	1535
2025-01-25 00:31:47.45	355.89	73.33	-35.4	-37.1	9.3	162803	88	1504
2025-01-25 00:31:47.65	355.74	73.42	-35.5	-37.5	9.1	162803	88	1541
2025-01-25 00:31:47.85	355.59	73.51	-35.4	-37.3	9.2	195022	88	1524
2025-01-25 00:31:48.05	355.44	73.60	-35.2	-36.8	9.6	195022	88	1466
2025-01-25 00:31:48.25	355.29	73.68	-35.1	-36.4	9.8	157234	88	1434
2025-01-25 00:31:48.46	355.13	73.77	-35.0	-36.1	10.0	157234	88	1406
2025-01-25 00:31:48.66	354.98	73.86	-34.7	-36.1	10.5	76644	87	1434
2025-01-25 00:31:48.86	354.82	73.95	-34.8	-36.1	10.4	76644	87	1431
2025-01-25 00:31:49.06	354.66	74.03	-34.7	-36.0	10.6	40855	87	1429
2025-01-25 00:31:49.26	354.50	74.12	-34.7	-36.1	10.5	40855	87	1440
2025-01-25 00:31:49.46	354.34	74.21	-34.8	-36.3	10.5	40855	87	1465
2025-01-25 00:31:49.66	354.18	74.29	-34.9	-36.5	10.4	38520	87	1477
2025-01-25 00:31:49.86	354.01	74.38	-35.1	-36.9	10.1	38520	87	1513
2025-01-25 00:31:50.06	353.84	74.46	-35.2	-37.3	9.8	56449	87	1556
2025-01-25 00:31:50.26	353.67	74.55	-35.4	-37.7	9.4	56449	87	1606
2025-01-25 00:31:50.47	353.49	74.64	-35.7	-38.0	9.0	120315	88	1597
2025-01-25 00:31:50.67	353.32	74.73	-36.2	-38.8	8.1	120315	89	1645
2025-01-25 00:31:50.87	353.14	74.81	-36.3	-38.8	7.9	364799	89	1647
2025-01-25 00:31:51.07	352.96	74.90	-36.2	-38.7	8.1	364799	89	1628
2025-01-25 00:31:51.27	352.78	74.98	-36.1	-38.3	8.4	596542	89	1585
2025-01-25 00:31:51.47	352.60	75.07	-36.1	-38.3	8.3	596542	89	1582
2025-01-25 00:31:51.67	352.42	75.16	-36.1	-38.2	8.2	477790	89	1579
2025-01-25 00:31:51.87	352.23	75.24	-35.9	-37.8	8.6	477790	89	1523
2025-01-25 00:31:52.07	352.04	75.33	-35.9	-37.7	8.8	477790	89	1516
2025-01-25 00:31:52.28	351.84	75.42	-35.6	-36.9	9.2	364021	89	1439
2025-01-25 00:31:52.48	351.65	75.50	-35.5	-36.8	9.3	364021	89	1422
2025-01-25 00:31:52.68	351.45	75.59	-35.4	-36.5	9.5	222145	89	1397
2025-01-25 00:31:52.88	351.25	75.67	-35.4	-36.4	9.6	222145	89	1393
2025-01-25 00:31:53.08	351.05	75.76	-35.4	-36.6	9.6	128692	89	1415
2025-01-25 00:31:53.28	350.85	75.84	-35.5	-36.7	9.4	128692	89	1418
2025-01-25 00:31:53.48	350.64	75.93	-35.7	-37.4	9.1	140777	89	1485
2025-01-25 00:31:53.68	350.43	76.01	-35.9	-37.7	8.7	140777	89	1521
2025-01-25 00:31:53.88	350.22	76.10	-36.4	-39.0	7.9	326667	89	1667
2025-01-25 00:31:54.09	350.00	76.18	-36.5	-39.2	7.7	326667	89	1689
2025-01-25 00:31:54.29	349.78	76.27	-36.7	-39.3	7.3	798263	90	1668
2025-01-25 00:31:54.49	349.56	76.35	-37.0	-40.1	6.8	798263	90	1760
2025-01-25 00:31:54.69	349.34	76.44	-36.9	-40.0	6.7	798263	90	1747
2025-01-25 00:31:54.89	349.11	76.52	-37.3	-40.2	6.5	1626083	91	1724
2025-01-25 00:31:55.09	348.88	76.60	-37.2	-39.9	6.6	1626083	91	1686
2025-01-25 00:31:55.29	348.65	76.69	-37.2	-39.9	6.8	1966773	91	1680
2025-01-25 00:31:55.49	348.42	76.77	-37.1	-39.6	6.8	1966773	91	1645
2025-01-25 00:31:55.70	348.17	76.86	-37.1	-39.6	6.9	1784912	91	1650
2025-01-25 00:31:55.90	347.93	76.94	-37.0	-39.4	7.1	1784912	91	1625
2025-01-25 00:31:56.10	347.69	77.02	-36.9	-39.2	7.4	1390357	91	1594
2025-01-25 00:31:56.30	347.44	77.10	-36.9	-39.2	7.4	1390357	91	1604
2025-01-25 00:31:56.50	347.19	77.19	-37.0	-39.4	7.2	1125442	91	1619
2025-01-25 00:31:56.70	346.94	77.27	-37.1	-39.6	7.2	1125442	91	1652
2025-01-25 00:31:56.90	346.68	77.35	-37.1	-39.7	7.2	1125442	91	1664
2025-01-25 00:31:57.10	346.42	77.43	-37.1	-39.9	7.2	1220893	91	1687
2025-01-25 00:31:57.30	346.15	77.51	-37.4	-40.7	6.6	1220893	91	1799
2025-01-25 00:31:57.50	345.89	77.59	-37.5	-40.9	6.6	1549423	91	1820
2025-01-25 00:31:57.70	345.62	77.68	-37.2	-39.6	7.0	1549423	92	1622
2025-01-25 00:31:57.91	345.33	77.76	-37.2	-39.6	7.2	1797355	92	1618
2025-01-25 00:31:58.11	345.05	77.84	-37.2	-39.7	7.1	1797355	92	1632
2025-01-25 00:31:58.31	344.77	77.92	-37.2	-39.6	7.0	1315559	92	1621
2025-01-25 00:31:58.51	344.48	78.00	-37.0	-39.1	7.4	1315559	92	1569
2025-01-25 00:31:58.71	344.19	78.08	-37.0	-39.0	7.7	1115989	92	1559
2025-01-25 00:31:58.91	343.90	78.16	-36.8	-38.9	8.1	1115989	91	1568
2025-01-25 00:31:59.11	343.60	78.24	-36.9	-39.3	7.9	706695	91	1625
2025-01-25 00:31:59.31	343.30	78.32	-37.0	-39.6	7.7	706695	91	1654
2025-01-25 00:31:59.52	342.97	78.40	-37.1	-40.0	7.5	856704	91	1705
2025-01-25 00:31:59.72	342.66	78.48	-37.2	-40.2	7.3	856704	91	1728
2025-01-25 00:31:59.92	342.35	78.56	-37.3	-40.3	7.2	856704	91	1737
2025-01-25 00:32:00.12	342.03	78.63	-37.3	-40.3	7.2	1173164	91	1749
2025-01-25 00:32:00.32	341.70	78.71	-37.1	-40.0	7.4	1173164	91	1705
2025-01-25 00:32:00.52	341.37	78.79	-37.2	-40.0	7.3	1176918	91	1701
2025-01-25 00:32:00.72	341.04	78.87	-36.8	-39.1	7.9	1176918	91	1595
2025-01-25 00:32:00.92	340.70	78.94	-36.8	-39.0	8.1	891250	91	1581
2025-01-25 00:32:01.12	340.36	79.02	-36.6	-38.4	8.3	891250	91	1518
2025-01-25 00:32:01.33	339.99	79.10	-36.4	-37.9	8.8	506217	91	1461
2025-01-25 00:32:01.53	339.64	79.17	-36.2	-37.5	9.0	506217	91	1425
2025-01-25 00:32:01.73	339.28	79.25	-35.9	-37.3	9.2	258071	90	1449
2025-01-25 00:32:01.93	338.92	79.32	-35.9	-37.9	9.4	258071	89	1540
2025-01-25 00:32:02.13	338.55	79.40	-35.8	-37.5	9.5	258071	89	1505
2025-01-25 00:32:02.33	338.17	79.47	-36.1	-38.3	9.1	163139	89	1587
2025-01-25 00:32:02.53	337.79	79.54	-36.4	-39.2	8.5	163139	89	1691
2025-01-25 00:32:02.73	337.41	79.62	-36.3	-38.5	8.4	271362	90	1578
2025-01-25 00:32:02.94	337.00	79.69	-36.5	-38.9	8.4	271362	90	1627
2025-01-25 00:32:03.14	336.60	79.76	-36.5	-39.1	8.0	459251	90	1649
2025-01-25 00:32:03.34	336.20	79.84	-36.5	-38.9	8.1	459251	90	1632
2025-01-25 00:32:03.54	335.79	79.91	-36.5	-38.9	8.1	577758	90	1631
2025-01-25 00:32:03.74	335.38	79.98	-36.2	-38.2	8.6	577758	90	1552
2025-01-25 00:32:03.94	334.96	80.05	-36.2	-38.2	8.5	459770	90	1548
2025-01-25 00:32:04.14	334.54	80.12	-36.0	-37.6	8.9	459770	90	1479
2025-01-25 00:32:04.34	334.10	80.19	-35.6	-37.2	9.7	259994	89	1469
2025-01-25 00:32:04.54	333.67	80.25	-35.4	-36.5	10.0	259994	89	1410
2025-01-25 00:32:04.75	333.20	80.33	-35.3	-36.4	10.1	259994	89	1397
2025-01-25 00:32:04.95	332.75	80.39	-35.3	-36.5	10.1	79032	89	1406
2025-01-25 00:32:05.15	332.29	80.46	-34.8	-35.7	10.8	79032	88	1369
2025-01-25 00:32:05.35	331.83	80.53	-34.6	-35.7	11.0	52551	87	1402
2025-01-25 00:32:05.55	331.36	80.59	-34.7	-36.0	11.0	52551	87	1425
2025-01-25 00:32:05.75	330.88	80.66	-34.6	-35.8	11.0	18058	87	1410
2025-01-25 00:32:05.95	330.40	80.72	-34.6	-35.7	11.1	18058	87	1398
2025-01-25 00:32:06.15	329.91	80.78	-34.5	-35.5	11.1	18783	87	1378
2025-01-25 00:32:06.35	329.41	80.85	-34.4	-35.4	11.2	18783	87	1368
2025-01-25 00:32:06.56	328.88	80.91	-34.4	-35.2	11.3	13420	87	1358
2025-01-25 00:32:06.76	328.37	80.97	-34.0	-35.0	11.5	13420	86	1374
2025-01-25 00:32:06.96	327.85	81.04	-34.0	-35.0	11.5	13420	86	1379
2025-01-25 00:32:07.16	327.32	81.10	-34.1	-35.3	11.3	9490	86	1403
2025-01-25 00:32:07.36	326.79	81.15	-33.8	-35.0	11.8	9490	85	1413
2025-01-25 00:32:07.56	326.25	81.21	-33.8	-35.0	11.9	8239	85	1410
2025-01-25 00:32:07.76	325.70	81.27	-34.1	-35.6	11.5	8239	85	1468
2025-01-25 00:32:07.96	325.14	81.33	-34.0	-35.4	11.6	5332	85	1446
2025-01-25 00:32:08.16	324.58	81.38	-34.3	-36.2	11.2	5332	85	1530
2025-01-25 00:32:08.36	324.01	81.44	-34.4	-36.4	11.0	9483	85	1552
2025-01-25 00:32:08.56	323.43	81.50	-34.5	-36.1	10.8	9483	86	1483
2025-01-25 00:32:08.77	322.82	81.55	-34.6	-36.4	10.6	23086	86	1514
2025-01-25 00:32:08.97	322.22	81.60	-34.8	-36.8	10.2	23086	86	1551
2025-01-25 00:32:09.17	321.62	81.66	-35.2	-37.1	10.0	49224	87	1529
2025-01-25 00:32:09.37	321.01	81.71	-35.0	-36.7	10.2	49224	87	1485
2025-01-25 00:32:09.57	320.40	81.76	-35.0	-36.5	10.3	59242	87	1471
2025-01-25 00:32:09.77	319.77	81.81	-34.9	-36.4	10.4	59242	87	1459
2025-01-25 00:32:09.97	319.14	81.86	-34.8	-36.1	10.5	59242	87	1430
2025-01-25 00:32:10.17	318.50	81.90	-34.9	-36.2	10.4	44609	87	1441
2025-01-25 00:32:10.37	317.86	81.95	-34.8	-36.1	10.6	44609	87	1430
2025-01-25 00:32:10.58	317.17	82.00	-35.0	-36.5	10.4	38742	87	1472
2025-01-25 00:32:10.78	316.51	82.04	-35.2	-37.1	10.1	38742	87	1534
2025-01-25 00:32:10.98	315.84	82.08	-35.3	-37.4	9.9	55320	87	1557
2025-01-25 00:32:11.18	315.16	82.13	-35.8	-38.0	9.2	55320	88	1592
2025-01-25 00:32:11.38	314.48	82.17	-36.2	-38.4	8.6	162002	89	1594
2025-01-25 00:32:11.58	313.79	82.21	-36.4	-38.9	8.1	162002	89	1646
2025-01-25 00:32:11.78	313.09	82.25	-36.7	-39.4	7.5	544532	90	1675
2025-01-25 00:32:11.98	312.39	82.28	-36.7	-39.4	7.5	544532	90	1675
2025-01-25 00:32:12.18	311.68	82.32	-37.0	-40.1	6.9	544532	90	1758
2025-01-25 00:32:12.39	310.92	82.36	-37.3	-40.2	6.8	1130752	91	1727
2025-01-25 00:32:12.59	310.20	82.39	-37.1	-39.7	7.2	1130752	91	1660
2025-01-25 00:32:12.79	309.46	82.42	-36.8	-38.9	7.6	1533035	91	1563
2025-01-25 00:32:12.99	308.73	82.45	-36.6	-38.2	8.1	1533035	91	1488
2025-01-25 00:32:13.19	307.98	82.49	-36.5	-38.0	8.3	815834	91	1467
2025-01-25 00:32:13.39	307.23	82.51	-36.5	-38.0	8.4	815834	91	1463
2025-01-25 00:32:13.59	306.48	82.54	-36.3	-37.6	8.7	443870	91	1424
2025-01-25 00:32:13.79	305.71	82.57	-36.4	-37.7	8.5	443870	91	1441
2025-01-25 00:32:13.99	304.95	82.59	-36.0	-37.3	8.9	356369	90	1438
2025-01-25 00:32:14.20	304.14	82.62	-36.1	-37.7	8.7	356369	90	1476
2025-01-25 00:32:14.40	303.36	82.64	-36.3	-38.2	8.4	356033	90	1537
2025-01-25 00:32:14.60	302.58	82.66	-36.4	-38.6	8.2	356033	90	1577
2025-01-25 00:32:14.80	301.79	82.68	-36.5	-38.8	8.1	356033	90	1595
2025-01-25 00:32:15.00	301.00	82.70	-36.6	-39.1	7.8	536766	90	1637
2025-01-25 00:32:15.20	300.21	82.72	-36.5	-38.8	7.8	536766	90	1602
2025-01-25 00:32:15.40	299.41	82.73	-36.6	-39.0	7.9	775665	90	1617
2025-01-25 00:32:15.61	298.57	82.75	-36.7	-39.3	7.5	775665	90	1661
2025-01-25 00:32:15.81	297.76	82.76	-36.8	-39.4	7.5	776443	90	1670
2025-01-25 00:32:16.01	296.96	82.77	-36.4	-38.6	8.0	776443	90	1575
2025-01-25 00:32:16.21	296.15	82.78	-36.3	-38.2	8.4	743568	90	1527
2025-01-25 00:32:16.41	295.33	82.79	-36.2	-37.9	8.5	743568	90	1503
2025-01-25 00:32:16.61	294.52	82.80	-36.2	-38.0	8.5	404586	90	1514
2025-01-25 00:32:16.81	293.71	82.80	-36.3	-38.2	8.4	404586	90	1529
2025-01-25 00:32:17.01	292.89	82.81	-36.1	-37.7	8.6	404586	90	1478
2025-01-25 00:32:17.21	292.07	82.81	-36.2	-38.1	8.4	426635	90	1520
2025-01-25 00:32:17.41	291.26	82.81	-36.3	-38.3	8.2	470771	90	1539
2025-01-25 00:32:17.62	290.40	82.81	-36.5	-38.7	8.1	470771	90	1590
2025-01-25 00:32:17.82	289.58	82.81	-36.6	-38.9	8.0	470771	90	1605
2025-01-25 00:32:18.02	288.77	82.80	-36.4	-38.5	8.2	606552	90	1557
2025-01-25 00:32:18.22	287.95	82.80	-36.2	-37.9	8.6	606552	90	1492
2025-01-25 00:32:18.42	287.14	82.79	-36.3	-38.1	8.4	491065	90	1518
2025-01-25 00:32:18.62	286.32	82.79	-36.1	-37.7	8.9	491065	90	1480
2025-01-25 00:32:18.82	285.51	82.78	-36.2	-37.8	8.7	355484	90	1493
2025-01-25 00:32:19.02	284.71	82.77	-36.0	-37.4	9.0	355484	90	1448
2025-01-25 00:32:19.23	283.86	82.75	-36.0	-37.3	9.2	268096	90	1438
2025-01-25 00:32:19.43	283.06	82.74	-36.0	-37.5	9.0	268096	90	1462
2025-01-25 00:32:19.63	282.26	82.73	-36.2	-38.0	8.5	281417	90	1513
2025-01-25 00:32:19.83	281.46	82.71	-36.4	-38.6	8.1	281417	90	1575
2025-01-25 00:32:20.03	280.67	82.69	-36.7	-39.3	7.9	281417	90	1667
2025-01-25 00:32:20.23	279.88	82.67	-37.0	-40.1	7.2	529060	90	1751
2025-01-25 00:32:20.43	279.10	82.65	-37.4	-39.9	6.7	529060	92	1645
2025-01-25 00:32:20.63	278.32	82.63	-37.4	-40.0	6.6	1468368	92	1654
2025-01-25 00:32:20.84	277.50	82.61	-37.5	-40.3	6.5	1468368	92	1690
2025-01-25 00:32:21.04	276.73	82.58	-37.4	-39.8	6.8	2037780	92	1634
2025-01-25 00:32:21.24	275.97	82.56	-37.2	-39.2	7.0	2037780	92	1559
2025-01-25 00:32:21.44	275.21	82.53	-37.0	-38.7	7.5	1470573	92	1509
2025-01-25 00:32:21.64	274.45	82.50	-36.8	-38.3	7.9	1470573	92	1464
2025-01-25 00:32:21.84	273.71	82.47	-36.6	-38.3	8.4	745903	91	1495
2025-01-25 00:32:22.04	272.97	82.44	-36.6	-38.2	8.5	745903	91	1484
2025-01-25 00:32:22.24	272.23	82.41	-36.6	-38.4	8.4	745903	91	1507
2025-01-25 00:32:22.44	271.50	82.37	-36.8	-38.7	8.3	405967	91	1545
2025-01-25 00:32:22.64	270.78	82.34	-36.9	-39.2	8.0	405967	91	1602
2025-01-25 00:32:22.85	270.03	82.30	-37.3	-40.2	7.2	575485	91	1710
2025-01-25 00:32:23.05	269.32	82.27	-37.4	-40.4	7.0	575485	91	1748
2025-01-25 00:32:23.25	268.62	82.23	-37.6	-40.5	6.5	1256027	92	1724
2025-01-25 00:32:23.45	267.92	82.19	-37.8	-41.2	6.0	1256027	92	1812
2025-01-25 00:32:23.65	267.24	82.15	-37.9	-41.5	5.8	2527404	92	1858
2025-01-25 00:32:23.85	266.56	82.11	-37.9	-41.5	5.8	2527404	92	1857
2025-01-25 00:32:24.05	265.88	82.06	-38.0	-41.2	5.6	3573486	93	1769
2025-01-25 00:32:24.25	265.22	82.02	-38.1	-41.4	5.4	3573486	93	1805
2025-01-25 00:32:24.46	264.53	81.97	-38.2	-41.7	5.2	4331077	93	1836
2025-01-25 00:32:24.66	263.88	81.93	-38.1	-41.4	5.3	4331077	93	1798
2025-01-25 00:32:24.86	263.23	81.88	-38.1	-41.2	5.5	4331077	93	1768
2025-01-25 00:32:25.06	262.60	81.83	-38.1	-41.5	5.3	4788368	93	1807
2025-01-25 00:32:25.26	261.97	81.78	-38.3	-41.8	5.2	4788368	93	1853
2025-01-25 00:32:25.46	261.35	81.73	-38.4	-42.2	4.9	4913253	93	1909
2025-01-25 00:32:25.66	260.74	81.68	-38.4	-42.1	4.8	4913253	93	1893
2025-01-25 00:32:25.86	260.13	81.63	-38.3	-42.0	4.9	6319236	93	1873
2025-01-25 00:32:26.06	259.53	81.58	-38.3	-42.0	4.9	6319236	93	1873
2025-01-25 00:32:26.26	258.94	81.53	-38.4	-42.1	4.8	6179359	93	1893
2025-01-25 00:32:26.47	258.33	81.47	-38.3	-41.8	5.0	6179359	93	1845
2025-01-25 00:32:26.67	257.76	81.41	-38.4	-42.1	4.8	6082954	93	1885
2025-01-25 00:32:26.87	257.19	81.36	-38.4	-42.2	4.8	6082954	93	1912
2025-01-25 00:32:27.07	256.63	81.30	-38.2	-41.7	5.0	6217597	93	1826
2025-01-25 00:32:27.27	256.08	81.24	-38.3	-41.8	4.9	6217597	93	1850
2025-01-25 00:32:27.47	255.53	81.18	-38.4	-42.2	4.8	6045455	93	1906
2025-01-25 00:32:27.67	255.00	81.13	-38.3	-42.0	4.8	6045455	93	1884
2025-01-25 00:32:27.87	254.47	81.07	-38.4	-42.4	4.7	6045455	93	1939
2025-01-25 00:32:28.08	253.92	81.00	-38.4	-42.2	4.7	6828216	93	1913
2025-01-25 00:32:28.28	253.40	80.94	-38.5	-42.3	4.4	6828216	94	1906
2025-01-25 00:32:28.48	252.89	80.88	-38.4	-42.1	4.5	7722763	94	1867
2025-01-25 00:32:28.68	252.39	80.82	-38.5	-42.4	4.3	7722763	94	1918
2025-01-25 00:32:28.88	251.90	80.75	-38.6	-42.8	4.2	8578796	94	1990
2025-01-25 00:32:29.08	251.41	80.69	-38.6	-42.6	4.2	8578796	94	1960
2025-01-25 00:32:29.28	250.93	80.62	-38.6	-42.7	4.2	10216964	94	1971
2025-01-25 00:32:29.48	250.45	80.56	-38.7	-42.9	4.1	10216964	94	2014
2025-01-25 00:32:29.68	249.99	80.49	-38.6	-42.9	4.1	10571769	94	2001
2025-01-25 00:32:29.89	249.50	80.42	-38.7	-43.1	4.0	10571769	94	2047
2025-01-25 00:32:30.09	249.05	80.36	-38.7	-43.0	4.0	10571769	94	2028
2025-01-25 00:32:30.29	248.60	80.29	-38.7	-43.4	3.9	12392967	94	2101
2025-01-25 00:32:30.49	248.16	80.22	-38.8	-44.9	3.5	12392967	94	2478
2025-01-25 00:32:30.69	247.73	80.15	-38.9	-45.5	3.7	13763938	94	2623
2025-01-25 00:32:30.89	247.30	80.08	-38.9	-44.8	3.9	13763938	94	2437
2025-01-25 00:32:31.09	246.87	80.01	-38.9	-44.5	3.7	14441589	94	2333
2025-01-25 00:32:31.29	246.46	79.94	-39.2	-44.5	3.6	14441589	95	2263
2025-01-25 00:32:31.49	246.05	79.87	-39.3	-46.0	3.7	14694152	95	2673
2025-01-25 00:32:31.69	245.64	79.80	-39.2	-45.5	3.8	14694152	95	2528
2025-01-25 00:32:31.90	245.22	79.72	-39.2	-44.9	3.7	14833801	95	2371
2025-01-25 00:32:32.10	244.83	79.65	-39.2	-44.5	3.7	14833801	95	2275
2025-01-25 00:32:32.30	244.44	79.58	-39.1	-45.4	3.7	14797584	95	2531
2025-01-25 00:32:32.50	244.06	79.51	-39.0	-44.7	4.0	14797584	95	2369
2025-01-25 00:32:32.70	243.68	79.43	-38.9	-43.7	4.1	14797584	95	2132
2025-01-25 00:32:32.90	243.31	79.36	-38.9	-43.1	4.1	13938545	95	2012
2025-01-25 00:32:33.10	242.94	79.28	-38.9	-43.0	4.1	13938545	95	1974
2025-01-25 00:32:33.30	242.58	79.21	-39.0	-43.4	3.9	12224327	95	2052
2025-01-25 00:32:33.50	242.23	79.13	-39.0	-43.7	3.8	12224327	95	2110
2025-01-25 00:32:33.71	241.86	79.05	-38.9	-43.4	3.9	13787239	95	2049
2025-01-25 00:32:33.91	241.51	78.98	-39.0	-45.0	3.7	13787239	95	2473
2025-01-25 00:32:34.11	241.17	78.90	-39.1	-45.5	3.8	14139221	95	2576
2025-01-25 00:32:34.31	240.83	78.83	-39.0	-44.6	3.9	14139221	95	2332
2025-01-25 00:32:34.51	240.50	78.75	-39.2	-45.1	3.6	14475799	95	2438
2025-01-25 00:32:34.71	240.18	78.67	-39.2	-46.4	3.4	14475799	95	2813
2025-01-25 00:32:34.91	239.85	78.59	-39.3	-46.5	3.7	14950370	95	2828
2025-01-25 00:32:35.12	239.52	78.51	-39.2	-45.5	3.7	14950370	95	2546
2025-01-25 00:32:35.32	239.21	78.43	-39.2	-45.2	3.6	14950370	95	2446
2025-01-25 00:32:35.52	238.90	78.36	-39.2	-46.1	3.1	14880996	95	2730
2025-01-25 00:32:35.72	238.59	78.28	-39.1	-45.8	3.7	14880996	95	2661
2025-01-25 00:32:35.92	238.29	78.20	-39.1	-45.2	3.8	14799446	95	2472
2025-01-25 00:32:36.12	238.00	78.12	-39.0	-44.4	3.8	14799446	95	2290
2025-01-25 00:32:36.32	237.70	78.04	-39.0	-43.9	3.8	14336303	95	2170
2025-01-25 00:32:36.52	237.41	77.96	-39.0	-45.4	3.6	14336303	95	2565
2025-01-25 00:32:36.73	237.12	77.87	-39.0	-45.1	3.8	14270256	95	2489
2025-01-25 00:32:36.93	236.84	77.79	-38.9	-44.1	4.1	14270256	95	2228
2025-01-25 00:32:37.13	236.56	77.71	-39.0	-44.1	3.9	13646453	95	2222
2025-01-25 00:32:37.33	236.29	77.63	-38.9	-43.7	3.9	13646453	95	2137
2025-01-25 00:32:37.53	236.02	77.55	-38.9	-43.2	4.0	13623908	95	2037
2025-01-25 00:32:37.73	235.75	77.47	-38.9	-43.2	4.0	13623908	95	2024
2025-01-25 00:32:37.93	235.49	77.39	-38.6	-42.3	4.3	13623908	95	1880
2025-01-25 00:32:38.13	235.23	77.31	-38.7	-42.5	4.2	11310821	95	1908
2025-01-25 00:32:38.33	234.97	77.22	-38.6	-42.1	4.4	11310821	95	1843
2025-01-25 00:32:38.53	234.72	77.14	-38.3	-41.1	4.8	8612052	95	1696
2025-01-25 00:32:38.74	234.46	77.06	-38.3	-40.9	4.8	8612052	95	1672
2025-01-25 00:32:38.94	234.22	76.97	-37.9	-40.6	5.1	6227813	94	1680
2025-01-25 00:32:39.14	233.97	76.89	-37.8	-40.3	5.3	6227813	94	1632
2025-01-25 00:32:39.34	233.74	76.81	-37.9	-40.9	5.4	4746154	93	1734
2025-01-25 00:32:39.54	233.50	76.72	-37.7	-40.4	5.7	4746154	93	1677
2025-01-25 00:32:39.74	233.27	76.64	-37.8	-40.8	5.5	3865928	93	1733
2025-01-25 00:32:39.94	233.04	76.56	-37.8	-40.7	5.6	3865928	93	1718
2025-01-25 00:32:40.14	232.81	76.47	-37.7	-40.4	5.7	3865928	93	1685
2025-01-25 00:32:40.34	232.59	76.39	-37.8	-40.7	5.5	3863166	93	1718
2025-01-25 00:32:40.55	232.35	76.30	-37.7	-40.6	5.6	3863166	93	1716
2025-01-25 00:32:40.75	232.14	76.22	-37.8	-40.8	5.5	3872001	93	1733
2025-01-25 00:32:40.95	231.92	76.13	-37.8	-40.7	5.5	3872001	93	1726
2025-01-25 00:32:41.15	231.71	76.05	-37.6	-40.2	5.7	3950355	93	1656
2025-01-25 00:32:41.35	231.50	75.96	-37.4	-39.5	6.2	3950355	93	1564
2025-01-25 00:32:41.55	231.29	75.88	-37.2	-39.6	6.6	2906288	92	1612
2025-01-25 00:32:41.75	231.09	75.79	-37.1	-39.3	6.8	2906288	92	1589
2025-01-25 00:32:41.95	230.88	75.71	-37.1	-39.2	6.9	1730224	92	1567
2025-01-25 00:32:42.15	230.68	75.62	-37.0	-38.9	7.1	1730224	92	1545
2025-01-25 00:32:42.36	230.48	75.54	-36.9	-38.7	7.2	1363067	92	1520
2025-01-25 00:32:42.56	230.28	75.45	-36.9	-38.7	7.2	1363067	92	1523
2025-01-25 00:32:42.76	230.09	75.36	-37.0	-39.0	7.1	1363067	92	1561
2025-01-25 00:32:42.96	229.90	75.28	-37.0	-39.1	6.9	1294548	92	1568
2025-01-25 00:32:43.16	229.71	75.19	-37.2	-39.7	6.5	1294548	92	1637
2025-01-25 00:32:43.36	229.52	75.11	-37.4	-40.1	6.2	1787910	92	1690
2025-01-25 00:32:43.56	229.34	75.02	-37.6	-40.8	5.8	1787910	92	1775
2025-01-25 00:32:43.76	229.16	74.94	-37.8	-41.3	5.4	2953178	92	1848
2025-01-25 00:32:43.97	228.97	74.85	-37.8	-41.2	5.3	2953178	92	1834
2025-01-25 00:32:44.17	228.79	74.76	-37.8	-41.1	5.3	4580627	92	1812
2025-01-25 00:32:44.37	228.62	74.67	-37.7	-40.8	5.5	4580627	92	1764
2025-01-25 00:32:44.57	228.45	74.59	-37.5	-40.4	5.8	4173820	92	1713
2025-01-25 00:32:44.77	228.28	74.50	-37.3	-39.8	6.0	4173820	92	1627
2025-01-25 00:32:44.97	228.11	74.42	-37.1	-39.2	6.4	3017829	92	1565
2025-01-25 00:32:45.17	227.94	74.33	-37.2	-39.3	6.4	3017829	92	1580
2025-01-25 00:32:45.37	227.77	74.24	-37.0	-39.0	6.6	3017829	92	1536
2025-01-25 00:32:45.57	227.61	74.16	-37.0	-39.0	6.6	2150856	92	1544
2025-01-25 00:32:45.77	227.45	74.07	-37.0	-38.9	6.6	2150856	92	1537
2025-01-25 00:32:45.98	227.28	73.98	-37.1	-39.2	6.4	1925956	92	1572
2025-01-25 00:32:46.18	227.12	73.89	-37.1	-39.3	6.4	1925956	92	1574
2025-01-25 00:32:46.38	226.97	73.80	-37.3	-39.9	6.0	2234718	92	1656
2025-01-25 00:32:46.58	226.82	73.72	-37.3	-39.9	5.9	2234718	92	1649
2025-01-25 00:32:46.78	226.66	73.63	-37.3	-39.9	5.9	2953674	92	1661
2025-01-25 00:32:46.98	226.51	73.54	-37.1	-39.3	6.3	2953674	92	1579
2025-01-25 00:32:47.18	226.36	73.46	-37.1	-39.2	6.3	2768249	92	1575
2025-01-25 00:32:47.38	226.22	73.37	-37.0	-39.0	6.5	2768249	92	1551
2025-01-25 00:32:47.58	226.07	73.28	-36.9	-38.9	6.7	2052574	92	1537
2025-01-25 00:32:47.78	225.93	73.20	-36.9	-38.9	6.7	2052574	92	1542
2025-01-25 00:32:47.99	225.78	73.10	-37.0	-39.3	6.4	2052574	92	1597
2025-01-25 00:32:48.19	225.64	73.02	-36.8	-38.7	7.0	1919204	92	1526
2025-01-25 00:32:48.39	225.50	72.93	-37.1	-39.5	6.5	1919204	92	1624
2025-01-25 00:32:48.59	225.36	72.84	-37.0	-39.4	6.6	1764335	92	1609
2025-01-25 00:32:48.79	225.22	72.76	-37.1	-39.5	6.5	1764335	92	1628
2025-01-25 00:32:48.99	225.09	72.67	-37.0	-39.4	6.6	2030822	92	1620
2025-01-25 00:32:49.19	224.95	72.58	-37.1	-39.6	6.6	2030822	92	1642
2025-01-25 00:32:49.39	224.82	72.49	-37.1	-39.7	6.6	1926910	92	1663
2025-01-25 00:32:49.60	224.68	72.40	-37.2	-40.2	6.4	1926910	92	1720
2025-01-25 00:32:49.80	224.55	72.31	-37.3	-40.4	6.2	2184722	92	1759
2025-01-25 00:32:50.00	224.43	72.23	-37.4	-40.7	6.0	2184722	92	1789
2025-01-25 00:32:50.20	224.30	72.14	-37.5	-40.9	5.9	2184722	92	1823
2025-01-25 00:32:50.40	224.17	72.05	-37.6	-41.2	5.6	2930480	92	1862
2025-01-25 00:32:50.60	224.05	71.96	-37.6	-41.2	5.7	2930480	92	1869
2025-01-25 00:32:50.80	223.93	71.88	-37.7	-41.7	5.3	3690910	92	1952
2025-01-25 00:32:51.00	223.81	71.79	-37.9	-42.3	4.9	3690910	92	2045
2025-01-25 00:32:51.20	223.69	71.70	-38.1	-42.6	4.5	5288421	93	2058
2025-01-25 00:32:51.40	223.57	71.61	-38.2	-43.1	4.3	5288421	93	2149
2025-01-25 00:32:51.61	223.44	71.52	-38.4	-43.7	4.0	9391609	93	2265
2025-01-25 00:32:51.81	223.33	71.44	-38.4	-43.7	3.7	9391609	94	2255
2025-01-25 00:32:52.01	223.21	71.35	-38.5	-45.3	3.7	14045333	94	2687
2025-01-25 00:32:52.21	223.10	71.26	-38.5	-45.0	3.8	14045333	94	2618
2025-01-25 00:32:52.41	222.98	71.17	-38.5	-44.3	3.8	14612579	94	2403
2025-01-25 00:32:52.61	222.87	71.09	-38.3	-43.3	3.8	14612579	94	2181
2025-01-25 00:32:52.81	222.76	71.00	-38.3	-42.6	4.0	14612579	94	2033
2025-01-25 00:32:53.01	222.65	70.91	-38.2	-42.4	4.0	13833602	94	1988
2025-01-25 00:32:53.21	222.54	70.82	-38.1	-41.6	4.2	13833602	94	1852
2025-01-25 00:32:53.42	222.43	70.73	-37.8	-40.6	4.6	11154006	94	1699
2025-01-25 00:32:53.62	222.32	70.64	-37.9	-40.7	4.6	11154006	94	1713
2025-01-25 00:32:53.82	222.22	70.56	-37.7	-40.4	5.0	7454071	93	1680
2025-01-25 00:32:54.02	222.11	70.47	-38.3	-42.8	4.5	7454071	93	2067
2025-01-25 00:32:54.22	222.01	70.38	-39.3	-48.6	3.6	8183807	95	3592
2025-01-25 00:32:54.42	221.90	70.29	-39.3	-48.3	3.6	8183807	95	3479
2025-01-25 00:32:54.62	221.80	70.21	-39.3	-47.8	3.4	15099357	95	3267

#Closed at: 2025-01-25 00:32:54