passes_logs/2025/01/25/XPeterburg/XPeterburg__20250125_102420_SUOMI_NPP_rec.log

#Pass ID: 20250125_102420_SUOMI NPP
#Satellite: SUOMI NPP
#Configuration: NPP
#Start time: 2025-01-25 10:24:13

#Version: 1.5.20200625
#Station: XPeterburg
#Location: 30.318091 lon 59.932769 lat
#TLE: 1 37849U 11061A   25024.15339793  .00000271  00000+0  14952-3 0  9996
#TLE: 2 37849  98.7453 325.0263 0001298  26.4282 333.6960 14.19543828686212

#Time	Az	El	Level	Level2	SNR	BER	Gain	Gain2
2025-01-25 10:24:13.54	166.62	67.07	-39.3	-44.9	3.3	15342697	97	2332
2025-01-25 10:24:13.74	166.65	67.16	-37.7	-68.3	3.6	0	46	41737
2025-01-25 10:24:13.94	166.68	67.25	-38.7	-56.6	3.6	15250984	73	9692
2025-01-25 10:24:14.14	166.70	67.34	-39.3	-46.2	3.5	15250984	95	2730
2025-01-25 10:24:14.34	166.73	67.43	-39.3	-45.9	3.4	15214790	95	2632
2025-01-25 10:24:14.54	166.76	67.52	-39.3	-47.2	3.6	15214790	95	3065
2025-01-25 10:24:14.74	166.78	67.61	-39.3	-47.2	3.6	15214790	95	3038
2025-01-25 10:24:14.94	166.81	67.71	-39.3	-46.7	3.5	15139045	95	2876
2025-01-25 10:24:15.15	166.84	67.80	-39.3	-46.3	3.4	15139045	95	2754
2025-01-25 10:24:15.35	166.87	67.89	-39.4	-47.5	3.3	15233283	95	3152
2025-01-25 10:24:15.55	166.89	67.98	-39.4	-47.7	3.6	15233283	95	3200
2025-01-25 10:24:15.75	166.92	68.07	-39.5	-47.0	3.5	15114822	96	2913
2025-01-25 10:24:15.95	166.95	68.16	-39.5	-46.6	3.4	15114822	96	2768
2025-01-25 10:24:16.15	166.98	68.25	-39.5	-46.2	3.4	15238685	96	2657
2025-01-25 10:24:16.35	167.01	68.34	-39.3	-46.6	3.6	15238685	97	2842
2025-01-25 10:24:16.55	167.04	68.44	-39.3	-46.2	3.5	15085411	97	2697
2025-01-25 10:24:16.75	167.07	68.53	-39.3	-45.5	3.4	15085411	97	2513
2025-01-25 10:24:16.95	167.10	68.62	-39.3	-44.9	3.4	15085411	97	2361
2025-01-25 10:24:17.16	167.13	68.71	-39.3	-46.2	3.6	15246856	97	2740
2025-01-25 10:24:17.36	167.16	68.80	-39.2	-46.3	3.6	15246856	96	2797
2025-01-25 10:24:17.56	167.19	68.90	-39.2	-45.7	3.5	15135253	96	2588
2025-01-25 10:24:17.76	167.22	68.99	-39.2	-45.2	3.4	15135253	96	2479
2025-01-25 10:24:17.96	167.25	69.08	-39.1	-46.0	3.0	15235702	96	2716
2025-01-25 10:24:18.16	167.28	69.17	-39.1	-46.2	3.6	15235702	96	2769
2025-01-25 10:24:18.36	167.31	69.26	-39.1	-45.2	3.5	15112281	96	2493
2025-01-25 10:24:18.56	167.34	69.35	-39.0	-44.3	3.4	15112281	96	2274
2025-01-25 10:24:18.76	167.38	69.45	-38.9	-43.5	3.4	15233932	96	2093
2025-01-25 10:24:18.96	167.41	69.54	-38.9	-44.6	3.6	15233932	96	2395
2025-01-25 10:24:19.16	167.44	69.63	-38.8	-43.9	3.9	14897209	95	2233
2025-01-25 10:24:19.37	167.48	69.73	-38.6	-42.8	4.0	14897209	95	1992
2025-01-25 10:24:19.57	167.51	69.82	-38.5	-42.0	4.1	14897209	95	1840
2025-01-25 10:24:19.77	167.54	69.91	-38.3	-41.0	4.4	12862777	95	1690
2025-01-25 10:24:19.97	167.58	70.00	-37.9	-40.5	4.6	12862777	94	1654
2025-01-25 10:24:20.17	167.61	70.10	-37.8	-40.5	4.9	8181785	93	1690
2025-01-25 10:24:20.37	167.65	70.19	-37.7	-40.3	5.1	8181785	93	1652
2025-01-25 10:24:20.57	167.68	70.28	-37.6	-40.0	5.3	5553344	93	1614
2025-01-25 10:24:20.77	167.72	70.38	-37.5	-39.8	5.4	5553344	93	1599
2025-01-25 10:24:20.97	167.75	70.47	-37.5	-39.7	5.5	4380882	93	1579
2025-01-25 10:24:21.17	167.79	70.56	-37.4	-39.4	5.7	4380882	93	1554
2025-01-25 10:24:21.38	167.83	70.66	-37.4	-39.4	5.8	3861885	93	1561
2025-01-25 10:24:21.58	167.86	70.75	-37.3	-39.4	5.7	3861885	93	1559
2025-01-25 10:24:21.78	167.90	70.85	-37.5	-40.0	5.5	3861885	93	1627
2025-01-25 10:24:21.98	167.94	70.94	-37.5	-39.7	5.5	3741165	93	1598
2025-01-25 10:24:22.18	167.98	71.03	-37.5	-39.8	5.7	3741165	93	1603
2025-01-25 10:24:22.38	168.01	71.13	-37.6	-40.1	5.5	3859764	93	1644
2025-01-25 10:24:22.58	168.05	71.22	-37.5	-39.9	5.6	3859764	93	1618
2025-01-25 10:24:22.78	168.09	71.31	-37.3	-39.2	6.0	4110008	93	1531
2025-01-25 10:24:22.98	168.13	71.41	-37.3	-39.4	5.8	4110008	93	1556
2025-01-25 10:24:23.18	168.17	71.50	-37.4	-39.8	6.0	3205932	93	1613
2025-01-25 10:24:23.39	168.21	71.60	-37.5	-39.9	5.7	3205932	93	1629
2025-01-25 10:24:23.59	168.25	71.69	-37.5	-39.9	5.9	3294845	93	1629
2025-01-25 10:24:23.79	168.30	71.79	-37.7	-40.5	5.5	3294845	93	1702
2025-01-25 10:24:23.99	168.34	71.88	-37.4	-39.6	5.9	3917709	93	1588
2025-01-25 10:24:24.19	168.38	71.97	-37.6	-40.3	5.7	3917709	93	1677
2025-01-25 10:24:24.39	168.42	72.07	-37.5	-39.8	5.9	3476692	93	1612
2025-01-25 10:24:24.59	168.47	72.16	-37.4	-39.6	6.1	3476692	93	1589
2025-01-25 10:24:24.79	168.51	72.26	-37.4	-39.5	6.1	3476692	93	1568
2025-01-25 10:24:24.99	168.55	72.35	-37.3	-39.2	6.3	2752510	93	1538
2025-01-25 10:24:25.19	168.60	72.45	-37.2	-39.6	6.4	2752510	92	1612
2025-01-25 10:24:25.39	168.64	72.54	-37.1	-39.3	6.7	2347198	92	1580
2025-01-25 10:24:25.59	168.69	72.64	-37.0	-39.1	6.7	2347198	92	1560
2025-01-25 10:24:25.80	168.74	72.73	-36.9	-38.8	7.1	1814323	92	1524
2025-01-25 10:24:26.00	168.78	72.83	-36.9	-38.8	7.1	1814323	92	1533
2025-01-25 10:24:26.20	168.83	72.92	-36.7	-38.7	7.5	1307731	91	1548
2025-01-25 10:24:26.40	168.88	73.02	-36.5	-38.4	7.8	1307731	91	1516
2025-01-25 10:24:26.60	168.93	73.11	-36.3	-37.7	8.3	727653	91	1449
2025-01-25 10:24:26.80	168.98	73.21	-36.0	-37.6	8.5	727653	90	1485
2025-01-25 10:24:27.00	169.03	73.30	-35.8	-37.2	8.8	727653	90	1437
2025-01-25 10:24:27.20	169.08	73.40	-35.8	-37.6	9.0	400367	89	1513
2025-01-25 10:24:27.40	169.13	73.49	-35.6	-37.1	9.3	400367	89	1463
2025-01-25 10:24:27.60	169.18	73.59	-35.5	-36.8	9.6	233009	89	1436
2025-01-25 10:24:27.80	169.23	73.69	-35.3	-36.4	9.9	233009	89	1391
2025-01-25 10:24:28.01	169.28	73.79	-35.2	-36.7	9.9	114273	88	1463
2025-01-25 10:24:28.21	169.34	73.88	-35.2	-36.6	10.0	114273	88	1451
2025-01-25 10:24:28.41	169.39	73.98	-35.4	-37.1	9.8	77018	88	1503
2025-01-25 10:24:28.61	169.45	74.07	-35.3	-37.0	9.7	77018	88	1492
2025-01-25 10:24:28.81	169.50	74.17	-35.3	-36.8	10.0	102333	88	1471
2025-01-25 10:24:29.01	169.56	74.26	-35.5	-37.3	9.6	102333	88	1524
2025-01-25 10:24:29.21	169.61	74.36	-35.4	-37.2	9.6	114997	88	1507
2025-01-25 10:24:29.41	169.67	74.45	-35.6	-37.6	9.4	114997	88	1553
2025-01-25 10:24:29.61	169.73	74.55	-35.8	-38.0	9.1	114997	88	1593
2025-01-25 10:24:29.81	169.79	74.65	-35.7	-37.8	9.2	168586	88	1573
2025-01-25 10:24:30.01	169.85	74.74	-35.8	-38.0	9.0	168586	88	1588
2025-01-25 10:24:30.22	169.91	74.84	-36.1	-38.5	8.4	222106	89	1604
2025-01-25 10:24:30.42	169.97	74.94	-36.2	-38.6	8.3	222106	89	1613
2025-01-25 10:24:30.62	170.03	75.04	-36.3	-38.9	8.0	450317	89	1647
2025-01-25 10:24:30.82	170.10	75.13	-36.2	-38.6	8.2	450317	89	1611
2025-01-25 10:24:31.02	170.16	75.23	-36.4	-38.9	8.1	546424	89	1653
2025-01-25 10:24:31.22	170.22	75.32	-36.6	-39.1	7.3	546424	90	1635
2025-01-25 10:24:31.42	170.29	75.42	-36.8	-39.5	7.1	941001	90	1685
2025-01-25 10:24:31.62	170.36	75.52	-37.2	-39.8	6.7	941001	91	1666
2025-01-25 10:24:31.82	170.42	75.61	-37.3	-40.1	6.5	941001	91	1700
2025-01-25 10:24:32.02	170.49	75.71	-37.2	-39.7	6.8	1814956	91	1641
2025-01-25 10:24:32.22	170.56	75.81	-37.1	-39.6	6.7	1814956	91	1629
2025-01-25 10:24:32.43	170.63	75.91	-37.2	-39.8	6.7	1864639	91	1653
2025-01-25 10:24:32.63	170.70	76.01	-37.4	-40.2	6.2	1864639	91	1702
2025-01-25 10:24:32.83	170.78	76.10	-37.3	-40.0	6.2	2155136	91	1670
2025-01-25 10:24:33.03	170.85	76.20	-37.4	-40.1	6.1	2155136	91	1689
2025-01-25 10:24:33.23	170.92	76.30	-37.3	-39.9	6.3	2504013	91	1658
2025-01-25 10:24:33.43	171.00	76.39	-37.3	-39.9	6.1	2504013	91	1652
2025-01-25 10:24:33.63	171.07	76.49	-37.3	-39.8	6.3	2586143	91	1643
2025-01-25 10:24:33.83	171.15	76.59	-37.2	-39.6	6.3	2586143	91	1625
2025-01-25 10:24:34.03	171.23	76.68	-37.2	-39.5	6.4	2361442	91	1609
2025-01-25 10:24:34.23	171.31	76.78	-37.0	-39.1	6.7	2361442	91	1561
2025-01-25 10:24:34.43	171.39	76.88	-36.8	-38.6	7.0	1842315	91	1510
2025-01-25 10:24:34.63	171.47	76.97	-36.9	-38.7	7.0	1842315	91	1522
2025-01-25 10:24:34.84	171.56	77.08	-36.6	-38.1	7.3	1842315	91	1464
2025-01-25 10:24:35.04	171.65	77.17	-36.6	-38.1	7.5	1342399	91	1462
2025-01-25 10:24:35.24	171.73	77.27	-36.4	-37.6	7.8	1342399	91	1412
2025-01-25 10:24:35.44	171.82	77.37	-35.8	-36.7	8.4	898216	90	1372
2025-01-25 10:24:35.64	171.91	77.47	-35.7	-37.0	8.8	898216	89	1433
2025-01-25 10:24:35.84	172.00	77.56	-35.4	-36.3	9.3	369415	89	1366
2025-01-25 10:24:36.04	172.09	77.66	-35.6	-36.8	9.1	369415	89	1415
2025-01-25 10:24:36.24	172.18	77.76	-35.4	-36.5	9.4	190040	89	1385
2025-01-25 10:24:36.44	172.28	77.85	-35.5	-36.6	9.4	190040	89	1401
2025-01-25 10:24:36.64	172.37	77.95	-35.6	-36.8	9.3	153259	89	1416
2025-01-25 10:24:36.84	172.47	78.05	-35.8	-37.5	9.0	153259	89	1487
2025-01-25 10:24:37.04	172.57	78.15	-36.2	-38.3	8.5	153259	89	1567
2025-01-25 10:24:37.25	172.68	78.25	-36.2	-38.5	8.2	270721	89	1590
2025-01-25 10:24:37.45	172.78	78.35	-36.5	-39.1	8.0	270721	89	1659
2025-01-25 10:24:37.65	172.89	78.44	-36.8	-39.6	7.4	565208	90	1691
2025-01-25 10:24:37.85	172.99	78.54	-37.3	-40.2	6.8	565208	91	1708
2025-01-25 10:24:38.05	173.10	78.64	-37.6	-40.5	6.2	1330879	92	1722
2025-01-25 10:24:38.25	173.21	78.74	-37.9	-41.4	5.8	1330879	92	1839
2025-01-25 10:24:38.45	173.32	78.83	-37.9	-41.3	5.7	3100791	92	1824
2025-01-25 10:24:38.65	173.44	78.93	-37.9	-41.2	5.8	3100791	92	1807
2025-01-25 10:24:38.85	173.55	79.03	-37.8	-41.1	5.9	3387748	92	1797
2025-01-25 10:24:39.05	173.67	79.13	-37.8	-41.1	5.8	3387748	92	1796
2025-01-25 10:24:39.25	173.79	79.23	-37.8	-40.3	6.0	3225601	93	1657
2025-01-25 10:24:39.46	173.92	79.33	-37.5	-39.6	6.7	3225601	93	1571
2025-01-25 10:24:39.66	174.05	79.43	-37.3	-39.1	7.1	3225601	93	1508
2025-01-25 10:24:39.86	174.17	79.52	-37.1	-39.2	7.5	1807289	92	1563
2025-01-25 10:24:40.06	174.30	79.62	-37.0	-39.0	7.8	1807289	92	1542
2025-01-25 10:24:40.26	174.44	79.72	-37.1	-39.2	7.7	874198	92	1567
2025-01-25 10:24:40.46	174.57	79.82	-37.2	-39.4	7.6	874198	92	1593
2025-01-25 10:24:40.66	174.71	79.91	-37.2	-39.6	7.5	881950	92	1611
2025-01-25 10:24:40.86	174.85	80.01	-37.3	-39.7	7.3	881950	92	1630
2025-01-25 10:24:41.06	174.99	80.11	-37.3	-39.8	7.2	1086494	92	1632
2025-01-25 10:24:41.26	175.14	80.21	-37.5	-40.4	6.9	1086494	92	1708
2025-01-25 10:24:41.47	175.30	80.31	-37.5	-40.4	6.8	1524085	92	1710
2025-01-25 10:24:41.67	175.45	80.41	-37.5	-40.4	6.8	1524085	92	1717
2025-01-25 10:24:41.87	175.60	80.50	-37.6	-40.5	6.7	1524085	92	1726
2025-01-25 10:24:42.07	175.76	80.60	-37.4	-40.0	7.0	1726600	92	1650
2025-01-25 10:24:42.27	175.93	80.70	-37.4	-40.0	7.1	1726600	92	1657
2025-01-25 10:24:42.47	176.09	80.80	-37.3	-39.6	7.2	1402503	92	1612
2025-01-25 10:24:42.67	176.26	80.89	-37.6	-40.5	6.7	1402503	92	1727
2025-01-25 10:24:42.87	176.43	80.99	-37.4	-39.9	7.1	1460388	92	1641
2025-01-25 10:24:43.07	176.61	81.09	-37.4	-40.1	6.9	1460388	92	1673
2025-01-25 10:24:43.27	176.79	81.19	-37.5	-40.4	6.8	1385208	92	1712
2025-01-25 10:24:43.47	176.98	81.28	-37.7	-40.8	6.5	1385208	92	1761
2025-01-25 10:24:43.68	177.17	81.38	-37.9	-41.5	6.1	2110504	92	1864
2025-01-25 10:24:43.88	177.37	81.48	-38.0	-41.1	6.0	2110504	93	1754
2025-01-25 10:24:44.08	177.57	81.58	-38.1	-41.6	5.8	3208473	93	1832
2025-01-25 10:24:44.28	177.77	81.68	-38.3	-42.1	5.6	3208473	93	1904
2025-01-25 10:24:44.48	177.98	81.77	-38.4	-42.4	5.2	3208473	93	1949
2025-01-25 10:24:44.68	178.19	81.87	-38.5	-42.3	4.9	4348693	94	1913
2025-01-25 10:24:44.88	178.41	81.97	-38.7	-43.0	4.6	4348693	94	2006
2025-01-25 10:24:45.08	178.63	82.06	-38.6	-42.6	4.6	6599388	94	1954
2025-01-25 10:24:45.28	178.86	82.16	-38.5	-42.4	4.7	6599388	94	1920
2025-01-25 10:24:45.48	179.09	82.26	-38.7	-43.1	4.4	7289901	94	2029
2025-01-25 10:24:45.68	179.33	82.35	-38.7	-43.2	4.4	7289901	94	2053
2025-01-25 10:24:45.88	179.58	82.45	-38.6	-42.8	4.5	8237426	94	1996
2025-01-25 10:24:46.09	179.84	82.55	-38.7	-43.1	4.4	8237426	94	2040
2025-01-25 10:24:46.29	180.10	82.65	-38.6	-42.5	4.6	8435935	94	1945
2025-01-25 10:24:46.49	180.37	82.74	-38.6	-42.7	4.6	8435935	94	1970
2025-01-25 10:24:46.69	180.64	82.84	-38.6	-42.7	4.6	7750350	94	1964
2025-01-25 10:24:46.89	180.93	82.93	-38.6	-42.4	4.6	7750350	94	1921
2025-01-25 10:24:47.09	181.22	83.03	-38.5	-42.2	4.8	7750350	94	1890
2025-01-25 10:24:47.29	181.51	83.13	-38.2	-41.2	5.2	7074203	94	1741
2025-01-25 10:24:47.49	181.82	83.22	-38.3	-41.6	5.3	7074203	94	1795
2025-01-25 10:24:47.69	182.13	83.32	-38.1	-41.1	5.5	4981147	94	1720
2025-01-25 10:24:47.89	182.46	83.41	-38.2	-41.2	5.4	4981147	94	1736
2025-01-25 10:24:48.09	182.79	83.51	-37.9	-40.2	5.9	4300292	94	1599
2025-01-25 10:24:48.30	183.15	83.60	-37.7	-40.1	6.3	4300292	93	1624
2025-01-25 10:24:48.50	183.50	83.70	-37.5	-39.5	6.6	2744178	93	1552
2025-01-25 10:24:48.70	183.87	83.79	-37.3	-39.2	7.0	2744178	93	1518
2025-01-25 10:24:48.90	184.24	83.89	-37.1	-39.0	7.5	1500984	92	1538
2025-01-25 10:24:49.10	184.63	83.98	-37.0	-38.9	7.6	1500984	92	1522
2025-01-25 10:24:49.30	185.03	84.07	-37.1	-39.1	7.4	971069	92	1544
2025-01-25 10:24:49.50	185.44	84.17	-37.0	-38.9	7.7	971069	92	1523
2025-01-25 10:24:49.70	185.87	84.26	-37.0	-38.8	7.7	971069	92	1512
2025-01-25 10:24:49.90	186.31	84.35	-37.1	-39.0	7.6	865180	92	1543
2025-01-25 10:24:50.10	186.77	84.45	-37.1	-39.1	7.4	865180	92	1549
2025-01-25 10:24:50.30	187.24	84.54	-37.0	-38.8	7.5	963371	92	1511
2025-01-25 10:24:50.51	187.75	84.63	-36.9	-38.5	7.7	963371	92	1483
2025-01-25 10:24:50.71	188.25	84.72	-36.9	-38.4	7.8	936065	92	1464
2025-01-25 10:24:50.91	188.77	84.82	-36.8	-38.6	8.1	936065	91	1518
2025-01-25 10:24:51.11	189.31	84.91	-36.7	-38.4	8.2	642265	91	1494
2025-01-25 10:24:51.31	189.87	85.00	-36.8	-38.6	8.2	642265	91	1520
2025-01-25 10:24:51.51	190.45	85.09	-36.7	-38.4	8.4	508514	91	1495
2025-01-25 10:24:51.71	191.06	85.17	-36.5	-37.8	8.6	508514	91	1440
2025-01-25 10:24:51.91	191.68	85.26	-36.4	-37.6	8.8	508514	91	1421
2025-01-25 10:24:52.11	192.33	85.35	-36.5	-37.9	8.8	363128	91	1454
2025-01-25 10:24:52.31	193.00	85.44	-36.5	-37.9	8.8	363128	91	1448
2025-01-25 10:24:52.52	193.74	85.53	-36.3	-37.5	9.0	282455	91	1407
2025-01-25 10:24:52.72	194.47	85.61	-36.3	-37.4	8.9	282455	91	1400
2025-01-25 10:24:52.92	195.22	85.70	-35.9	-37.1	9.1	252006	90	1410
2025-01-25 10:24:53.12	196.01	85.78	-36.0	-37.4	9.0	252006	90	1436
2025-01-25 10:24:53.32	196.83	85.87	-36.2	-37.8	8.8	232460	90	1480
2025-01-25 10:24:53.52	197.69	85.95	-36.2	-37.8	8.6	232460	90	1485
2025-01-25 10:24:53.72	198.58	86.03	-36.3	-38.0	8.5	347190	90	1502
2025-01-25 10:24:53.92	199.50	86.11	-36.3	-38.1	8.5	347190	90	1505
2025-01-25 10:24:54.12	200.47	86.19	-36.4	-38.5	8.4	412567	90	1551
2025-01-25 10:24:54.32	201.48	86.27	-36.5	-38.5	8.2	412567	90	1550
2025-01-25 10:24:54.52	202.53	86.35	-36.5	-38.6	8.1	412567	90	1562
2025-01-25 10:24:54.73	203.68	86.43	-36.4	-38.4	8.3	567619	90	1534
2025-01-25 10:24:54.93	204.82	86.50	-36.4	-38.3	8.3	567619	90	1522
2025-01-25 10:24:55.13	206.02	86.58	-36.6	-38.7	8.2	488983	90	1563
2025-01-25 10:24:55.33	207.27	86.65	-36.7	-38.9	7.9	488983	90	1593
2025-01-25 10:24:55.53	208.57	86.72	-36.7	-39.1	7.6	660758	90	1615
2025-01-25 10:24:55.73	209.92	86.79	-36.9	-39.6	7.4	660758	90	1677
2025-01-25 10:24:55.93	211.34	86.85	-37.5	-40.1	6.7	1106369	92	1652
2025-01-25 10:24:56.13	212.82	86.92	-37.7	-40.6	6.4	1106369	92	1715
2025-01-25 10:24:56.33	214.35	86.98	-37.8	-41.0	6.3	1997436	92	1765
2025-01-25 10:24:56.53	215.96	87.04	-38.1	-41.1	5.9	1997436	93	1747
2025-01-25 10:24:56.74	217.71	87.10	-38.2	-41.6	5.5	3057395	93	1816
2025-01-25 10:24:56.94	219.45	87.16	-38.1	-41.0	5.6	3057395	93	1727
2025-01-25 10:24:57.14	221.25	87.21	-38.0	-40.6	5.9	3057395	93	1657
2025-01-25 10:24:57.34	223.12	87.26	-37.8	-40.1	6.3	3926734	93	1604
2025-01-25 10:24:57.54	225.06	87.31	-37.6	-39.6	6.8	3926734	93	1553
2025-01-25 10:24:57.74	227.06	87.35	-37.5	-39.5	7.0	2236465	93	1538
2025-01-25 10:24:57.94	229.13	87.39	-37.8	-40.3	6.6	2236465	93	1644
2025-01-25 10:24:58.14	231.26	87.43	-37.8	-40.4	6.6	1722145	93	1653
2025-01-25 10:24:58.34	233.45	87.46	-37.7	-40.0	7.0	1722145	93	1609
2025-01-25 10:24:58.55	235.80	87.49	-37.5	-39.4	7.2	1715957	93	1533
2025-01-25 10:24:58.75	238.10	87.51	-37.7	-39.9	6.6	1715957	93	1587
2025-01-25 10:24:58.95	240.43	87.54	-37.7	-39.8	6.8	1586753	93	1579
2025-01-25 10:24:59.15	242.80	87.55	-37.4	-39.2	7.0	1586753	93	1513
2025-01-25 10:24:59.35	245.20	87.56	-37.5	-39.4	6.9	1649215	93	1528
2025-01-25 10:24:59.55	247.63	87.57	-37.2	-39.1	7.5	1649215	92	1527
2025-01-25 10:24:59.75	250.06	87.58	-37.2	-39.1	7.6	1649215	92	1538
2025-01-25 10:24:59.95	252.49	87.58	-37.2	-39.1	7.8	986854	92	1540
2025-01-25 10:25:00.15	254.93	87.57	-37.1	-38.9	7.7	986854	92	1517
2025-01-25 10:25:00.35	257.34	87.56	-37.1	-39.0	7.7	791801	92	1528
2025-01-25 10:25:00.55	259.74	87.55	-37.1	-38.9	7.7	791801	92	1510
2025-01-25 10:25:00.75	262.10	87.53	-37.3	-39.4	7.4	832672	92	1561
2025-01-25 10:25:00.96	264.54	87.51	-37.4	-39.6	7.3	832672	92	1588
2025-01-25 10:25:01.16	266.82	87.48	-37.6	-40.3	7.0	1139511	92	1672
2025-01-25 10:25:01.36	269.05	87.45	-37.7	-40.5	6.8	1139511	92	1704
2025-01-25 10:25:01.56	271.23	87.42	-37.6	-40.3	6.9	1483001	92	1672
2025-01-25 10:25:01.76	273.34	87.38	-37.3	-39.5	7.4	1483001	92	1570
2025-01-25 10:25:01.96	275.40	87.34	-37.2	-39.2	7.5	1483001	92	1540
2025-01-25 10:25:02.16	277.38	87.30	-36.8	-38.4	8.4	1223182	91	1493
2025-01-25 10:25:02.36	279.31	87.25	-36.6	-38.0	8.8	1223182	91	1447
2025-01-25 10:25:02.56	281.16	87.20	-36.0	-37.1	9.3	435226	90	1405
2025-01-25 10:25:02.76	282.95	87.14	-35.6	-36.8	10.0	435226	89	1404
2025-01-25 10:25:02.96	284.67	87.09	-35.4	-36.2	10.4	147315	89	1356
2025-01-25 10:25:03.17	286.41	87.03	-35.4	-36.4	10.7	147315	89	1375
2025-01-25 10:25:03.37	287.99	86.97	-35.6	-36.9	10.4	44883	89	1422
2025-01-25 10:25:03.57	289.52	86.90	-35.8	-37.2	10.2	44883	89	1450
2025-01-25 10:25:03.77	290.98	86.84	-36.0	-37.7	9.9	58563	89	1502
2025-01-25 10:25:03.97	292.38	86.77	-36.2	-38.3	9.3	58563	89	1565
2025-01-25 10:25:04.17	293.73	86.70	-36.5	-39.1	8.8	175910	89	1644
2025-01-25 10:25:04.37	295.01	86.63	-36.9	-39.5	8.3	175910	90	1657
2025-01-25 10:25:04.57	296.25	86.56	-37.6	-40.1	7.4	175910	92	1645
2025-01-25 10:25:04.77	297.43	86.49	-37.7	-40.5	7.2	638923	92	1694
2025-01-25 10:25:04.97	298.57	86.41	-37.7	-40.4	7.0	638923	92	1683
2025-01-25 10:25:05.18	299.71	86.33	-37.6	-40.1	7.2	1340080	92	1638
2025-01-25 10:25:05.38	300.75	86.25	-37.7	-40.4	6.9	1340080	92	1679
2025-01-25 10:25:05.58	301.74	86.17	-37.6	-40.0	7.1	1397438	92	1621
2025-01-25 10:25:05.78	302.70	86.09	-37.4	-39.5	7.5	1397438	92	1571
2025-01-25 10:25:05.98	303.62	86.01	-37.1	-38.7	7.9	1077194	92	1488
2025-01-25 10:25:06.18	304.50	85.93	-36.8	-38.4	8.6	1077194	91	1480
2025-01-25 10:25:06.38	305.35	85.85	-36.7	-38.2	8.8	436576	91	1472
2025-01-25 10:25:06.58	306.16	85.77	-36.5	-37.8	9.0	436576	91	1434
2025-01-25 10:25:06.78	306.94	85.68	-36.6	-38.0	9.1	246139	91	1449
2025-01-25 10:25:06.99	307.73	85.59	-36.5	-37.8	9.2	246139	91	1433
2025-01-25 10:25:07.19	308.45	85.50	-36.5	-37.9	9.1	246139	91	1448
2025-01-25 10:25:07.39	309.14	85.42	-36.7	-38.6	8.7	211708	91	1518
2025-01-25 10:25:07.59	309.81	85.33	-36.7	-38.4	9.0	211708	91	1494
2025-01-25 10:25:07.79	310.45	85.24	-36.6	-38.1	9.1	292930	91	1466
2025-01-25 10:25:07.99	311.07	85.15	-36.6	-38.2	9.1	292930	91	1477
2025-01-25 10:25:08.19	311.67	85.07	-36.6	-38.3	9.0	241439	91	1497
2025-01-25 10:25:08.39	312.24	84.98	-36.4	-37.9	9.2	241439	91	1449
2025-01-25 10:25:08.59	312.80	84.89	-36.5	-38.0	9.1	215469	91	1461
2025-01-25 10:25:08.79	313.33	84.80	-36.4	-37.7	9.2	215469	91	1437
2025-01-25 10:25:09.00	313.88	84.70	-36.7	-38.5	8.8	218818	91	1516
2025-01-25 10:25:09.20	314.38	84.61	-36.5	-38.0	9.1	218818	91	1464
2025-01-25 10:25:09.40	314.86	84.52	-36.0	-37.3	9.7	214530	90	1439
2025-01-25 10:25:09.60	315.33	84.43	-36.0	-37.5	9.4	214530	90	1455
2025-01-25 10:25:09.80	315.78	84.33	-36.3	-38.2	9.2	214530	90	1528
2025-01-25 10:25:10.00	316.21	84.24	-36.2	-37.9	9.2	152610	90	1499
2025-01-25 10:25:10.20	316.64	84.15	-36.2	-38.0	9.1	152610	90	1509
2025-01-25 10:25:10.40	317.05	84.05	-36.1	-37.7	9.3	189765	90	1479
2025-01-25 10:25:10.60	317.44	83.96	-36.1	-37.8	9.3	189765	90	1489
2025-01-25 10:25:10.81	317.85	83.86	-36.2	-38.0	9.1	176040	90	1511
2025-01-25 10:25:11.01	318.22	83.77	-36.2	-38.0	9.2	176040	90	1511
2025-01-25 10:25:11.21	318.58	83.67	-36.5	-38.8	8.7	216850	90	1604
2025-01-25 10:25:11.41	318.93	83.58	-36.6	-39.0	8.6	216850	90	1625
2025-01-25 10:25:11.61	319.27	83.49	-36.6	-38.9	8.5	360900	90	1606
2025-01-25 10:25:11.81	319.60	83.39	-36.4	-38.5	8.8	360900	90	1563
2025-01-25 10:25:12.01	319.93	83.30	-36.3	-38.1	9.0	360900	90	1520
2025-01-25 10:25:12.21	320.24	83.20	-36.3	-38.2	8.9	295600	90	1534
2025-01-25 10:25:12.41	320.54	83.11	-36.4	-38.6	8.7	295600	90	1573
2025-01-25 10:25:12.61	320.84	83.01	-36.3	-38.1	9.0	250434	90	1515
2025-01-25 10:25:12.81	321.12	82.91	-36.4	-38.5	8.8	250434	90	1566
2025-01-25 10:25:13.02	321.42	82.81	-36.6	-38.9	8.6	279891	90	1608
2025-01-25 10:25:13.22	321.69	82.72	-36.6	-39.0	8.4	279891	90	1615
2025-01-25 10:25:13.42	321.95	82.62	-36.8	-39.4	8.2	424888	90	1667
2025-01-25 10:25:13.62	322.21	82.53	-36.6	-38.9	8.5	424888	90	1599
2025-01-25 10:25:13.82	322.46	82.43	-36.5	-38.5	8.7	444931	90	1561
2025-01-25 10:25:14.02	322.71	82.33	-36.4	-38.4	8.8	444931	90	1546
2025-01-25 10:25:14.22	322.95	82.24	-36.4	-38.2	9.0	308799	90	1528
2025-01-25 10:25:14.42	323.18	82.14	-36.3	-38.1	8.9	308799	90	1514
2025-01-25 10:25:14.62	323.41	82.04	-36.3	-38.2	8.8	308799	90	1526
2025-01-25 10:25:14.82	323.63	81.95	-36.6	-38.8	8.5	277999	90	1591
2025-01-25 10:25:15.02	323.84	81.85	-36.7	-39.2	8.3	277999	90	1645
2025-01-25 10:25:15.22	324.06	81.75	-37.2	-40.0	7.7	432250	91	1691
2025-01-25 10:25:15.43	324.27	81.65	-37.4	-40.2	7.3	432250	91	1708
2025-01-25 10:25:15.63	324.47	81.56	-37.6	-40.3	6.9	1049972	92	1691
2025-01-25 10:25:15.83	324.67	81.46	-37.7	-40.6	6.6	1049972	92	1721
2025-01-25 10:25:16.03	324.86	81.36	-37.5	-40.2	6.8	1746330	92	1665
2025-01-25 10:25:16.23	325.05	81.26	-37.4	-39.7	6.9	1746330	92	1606
2025-01-25 10:25:16.43	325.23	81.17	-37.3	-39.4	7.0	1542312	92	1573
2025-01-25 10:25:16.63	325.41	81.07	-37.0	-38.8	7.6	1542312	92	1502
2025-01-25 10:25:16.83	325.59	80.97	-36.6	-38.0	8.5	973083	91	1452
2025-01-25 10:25:17.03	325.76	80.88	-36.0	-37.1	9.0	973083	90	1409
2025-01-25 10:25:17.24	325.94	80.77	-35.8	-37.2	9.4	973083	89	1455
2025-01-25 10:25:17.44	326.10	80.68	-35.6	-36.9	9.8	257057	89	1421
2025-01-25 10:25:17.64	326.27	80.58	-35.4	-36.4	10.0	257057	89	1380
2025-01-25 10:25:17.84	326.42	80.48	-35.4	-36.3	10.0	98442	89	1364
2025-01-25 10:25:18.04	326.58	80.38	-35.4	-36.5	10.0	98442	89	1389
2025-01-25 10:25:18.24	326.73	80.29	-35.5	-36.6	9.8	74134	89	1396
2025-01-25 10:25:18.44	326.88	80.19	-35.5	-36.7	9.8	74134	89	1408
2025-01-25 10:25:18.64	327.02	80.09	-35.5	-36.7	9.8	98518	89	1409
2025-01-25 10:25:18.84	327.17	79.99	-35.4	-36.4	9.8	98518	89	1375
2025-01-25 10:25:19.04	327.31	79.90	-35.5	-36.5	9.7	94795	89	1385
2025-01-25 10:25:19.24	327.44	79.80	-35.3	-36.2	9.8	94795	89	1361
2025-01-25 10:25:19.44	327.58	79.70	-35.2	-36.5	9.9	96870	88	1424
2025-01-25 10:25:19.65	327.72	79.60	-35.0	-36.0	10.0	96870	88	1372
2025-01-25 10:25:19.85	327.85	79.50	-34.9	-35.7	10.2	96870	88	1346
2025-01-25 10:25:20.05	327.97	79.40	-34.8	-36.1	10.3	68641	87	1417
2025-01-25 10:25:20.25	328.10	79.31	-34.8	-36.0	10.2	68641	87	1413
2025-01-25 10:25:20.45	328.22	79.21	-35.0	-36.4	10.0	54107	87	1444
2025-01-25 10:25:20.65	328.34	79.11	-35.4	-37.2	9.4	54107	87	1531
2025-01-25 10:25:20.85	328.46	79.01	-35.5	-37.2	9.0	126358	88	1487
2025-01-25 10:25:21.05	328.57	78.92	-36.0	-38.2	8.2	126358	88	1599
2025-01-25 10:25:21.25	328.69	78.82	-36.4	-38.7	7.8	447570	89	1609
2025-01-25 10:25:21.45	328.80	78.72	-36.9	-39.6	6.8	447570	90	1676
2025-01-25 10:25:21.66	328.91	78.62	-37.3	-39.9	6.5	1445541	91	1676
2025-01-25 10:25:21.86	329.02	78.52	-37.4	-39.9	6.0	1445541	92	1633
2025-01-25 10:25:22.06	329.13	78.42	-37.2	-39.2	6.4	1445541	92	1548
2025-01-25 10:25:22.26	329.23	78.33	-37.2	-39.3	6.3	2535682	92	1564
2025-01-25 10:25:22.46	329.33	78.23	-37.0	-38.6	6.7	2535682	92	1486
2025-01-25 10:25:22.66	329.44	78.13	-36.7	-38.3	7.4	2169471	91	1484
2025-01-25 10:25:22.86	329.53	78.03	-36.4	-37.6	8.0	2169471	91	1418
2025-01-25 10:25:23.06	329.63	77.94	-36.5	-37.8	7.8	911674	91	1441
2025-01-25 10:25:23.26	329.73	77.84	-36.3	-37.4	8.2	911674	91	1393
2025-01-25 10:25:23.46	329.82	77.74	-35.9	-37.5	8.8	599441	89	1487
2025-01-25 10:25:23.66	329.92	77.65	-35.9	-37.7	8.6	599441	89	1513
2025-01-25 10:25:23.87	330.01	77.54	-36.3	-38.6	8.2	376121	89	1614
2025-01-25 10:25:24.07	330.10	77.45	-36.6	-39.1	7.5	376121	90	1632
2025-01-25 10:25:24.27	330.19	77.35	-36.9	-39.8	7.1	1020919	90	1709
2025-01-25 10:25:24.47	330.28	77.25	-37.3	-40.1	6.8	1020919	91	1711
2025-01-25 10:25:24.67	330.36	77.16	-37.7	-40.8	6.1	1020919	92	1759
2025-01-25 10:25:24.87	330.45	77.06	-37.8	-41.0	5.9	2097732	92	1789
2025-01-25 10:25:25.07	330.53	76.96	-37.9	-41.2	5.8	2097732	92	1812
2025-01-25 10:25:25.27	330.61	76.86	-37.8	-40.9	6.1	3217788	92	1772
2025-01-25 10:25:25.47	330.69	76.77	-37.4	-39.9	6.6	3217788	92	1636
2025-01-25 10:25:25.67	330.77	76.67	-37.3	-39.5	7.0	2434501	92	1589
2025-01-25 10:25:25.88	330.85	76.57	-36.9	-38.5	7.7	2434501	92	1480
2025-01-25 10:25:26.08	330.93	76.47	-36.8	-38.7	8.2	1026657	91	1530
2025-01-25 10:25:26.28	331.01	76.38	-36.6	-38.1	8.6	1026657	91	1474
2025-01-25 10:25:26.48	331.08	76.28	-36.4	-37.7	9.0	391654	91	1431
2025-01-25 10:25:26.68	331.16	76.18	-35.9	-37.1	9.3	391654	90	1416
2025-01-25 10:25:26.88	331.23	76.09	-35.8	-36.9	9.5	391654	90	1399
2025-01-25 10:25:27.08	331.30	75.99	-35.7	-37.3	9.8	176277	89	1475
2025-01-25 10:25:27.28	331.37	75.89	-35.5	-36.7	10.1	176277	89	1416
2025-01-25 10:25:27.48	331.44	75.80	-35.5	-36.7	10.1	83747	89	1420
2025-01-25 10:25:27.68	331.51	75.70	-35.6	-37.1	9.9	83747	89	1458
2025-01-25 10:25:27.88	331.58	75.60	-35.6	-37.0	9.8	75073	89	1453
2025-01-25 10:25:28.08	331.64	75.51	-35.8	-37.6	9.4	75073	89	1508
2025-01-25 10:25:28.29	331.71	75.41	-35.8	-37.5	9.4	117843	89	1494
2025-01-25 10:25:28.49	331.78	75.31	-35.9	-37.8	9.1	117843	89	1531
2025-01-25 10:25:28.69	331.84	75.21	-35.9	-37.8	9.1	188972	89	1527
2025-01-25 10:25:28.89	331.91	75.12	-35.9	-37.7	9.1	188972	89	1508
2025-01-25 10:25:29.09	331.97	75.02	-36.0	-38.0	8.9	225166	89	1546
2025-01-25 10:25:29.29	332.03	74.93	-36.2	-38.5	8.6	225166	89	1601
2025-01-25 10:25:29.49	332.09	74.83	-36.5	-39.3	8.3	373046	89	1688
2025-01-25 10:25:29.69	332.15	74.73	-36.9	-39.8	7.5	373046	90	1715
2025-01-25 10:25:29.89	332.21	74.64	-37.4	-40.3	6.9	373046	91	1732
2025-01-25 10:25:30.09	332.27	74.54	-37.5	-40.0	6.5	1104583	92	1658
2025-01-25 10:25:30.30	332.33	74.44	-37.5	-40.2	6.3	1104583	92	1673
2025-01-25 10:25:30.50	332.39	74.35	-37.6	-40.4	6.0	2219993	92	1705
2025-01-25 10:25:30.70	332.44	74.25	-37.6	-40.3	6.1	2219993	92	1679
2025-01-25 10:25:30.90	332.50	74.15	-37.5	-40.2	6.2	2884864	92	1679
2025-01-25 10:25:31.10	332.55	74.06	-37.6	-40.5	6.3	2884864	92	1717
2025-01-25 10:25:31.30	332.61	73.96	-37.4	-40.0	6.4	2523239	92	1647
2025-01-25 10:25:31.50	332.66	73.87	-37.4	-39.8	6.5	2523239	92	1621
2025-01-25 10:25:31.70	332.71	73.77	-37.2	-39.4	6.6	2113204	92	1570
2025-01-25 10:25:31.90	332.77	73.68	-36.9	-38.4	7.1	2113204	92	1463
2025-01-25 10:25:32.10	332.82	73.58	-36.7	-38.5	7.5	2113204	91	1507
2025-01-25 10:25:32.30	332.87	73.49	-36.4	-37.7	8.0	1348327	91	1421
2025-01-25 10:25:32.50	332.92	73.39	-36.3	-37.6	8.2	1348327	91	1415
2025-01-25 10:25:32.71	332.97	73.29	-36.3	-37.7	8.3	650627	91	1436
2025-01-25 10:25:32.91	333.02	73.20	-36.4	-37.9	8.3	650627	91	1456
2025-01-25 10:25:33.11	333.07	73.10	-36.5	-38.0	8.0	479049	91	1463
2025-01-25 10:25:33.31	333.12	73.01	-36.6	-38.2	7.8	479049	91	1489
2025-01-25 10:25:33.51	333.17	72.91	-36.8	-38.8	7.4	730873	91	1547
2025-01-25 10:25:33.71	333.21	72.82	-37.0	-39.5	7.0	730873	91	1630
2025-01-25 10:25:33.91	333.26	72.72	-37.3	-40.2	6.6	1354713	91	1717
2025-01-25 10:25:34.11	333.31	72.63	-38.0	-41.1	6.1	1354713	92	1747
2025-01-25 10:25:34.31	333.35	72.54	-37.7	-40.8	5.6	2951202	92	1760
2025-01-25 10:25:34.51	333.40	72.44	-37.8	-41.3	5.5	2951202	92	1833
2025-01-25 10:25:34.72	333.44	72.34	-38.0	-41.7	5.2	2951202	92	1895
2025-01-25 10:25:34.92	333.49	72.25	-38.0	-41.3	5.0	4442855	93	1786
2025-01-25 10:25:35.12	333.53	72.15	-38.3	-42.0	4.5	4442855	93	1892
2025-01-25 10:25:35.32	333.57	72.06	-38.2	-41.8	4.6	6330215	93	1851
2025-01-25 10:25:35.52	333.62	71.97	-38.2	-41.6	4.8	6330215	93	1823
2025-01-25 10:25:35.72	333.66	71.87	-38.2	-41.8	4.8	6719139	93	1864
2025-01-25 10:25:35.92	333.70	71.78	-38.2	-41.7	4.9	6719139	93	1846
2025-01-25 10:25:36.12	333.74	71.68	-38.1	-41.3	5.1	6183227	93	1788
2025-01-25 10:25:36.32	333.78	71.59	-38.0	-41.4	5.1	6183227	93	1806
2025-01-25 10:25:36.52	333.82	71.50	-38.1	-41.3	5.1	5213752	93	1792
2025-01-25 10:25:36.72	333.86	71.40	-38.1	-41.7	5.0	5213752	93	1859
2025-01-25 10:25:36.93	333.90	71.31	-38.2	-41.9	4.8	5213752	93	1880
2025-01-25 10:25:37.13	333.94	71.21	-38.1	-41.7	4.8	5803573	93	1852
2025-01-25 10:25:37.33	333.98	71.12	-38.2	-42.0	4.7	5803573	93	1902
2025-01-25 10:25:37.53	334.02	71.03	-38.4	-42.8	4.5	6560585	93	2041
2025-01-25 10:25:37.73	334.06	70.93	-38.5	-42.9	4.0	6560585	94	2034
2025-01-25 10:25:37.93	334.10	70.84	-38.5	-42.7	4.0	9708198	94	2001
2025-01-25 10:25:38.13	334.13	70.75	-38.7	-43.7	3.8	9708198	94	2202
2025-01-25 10:25:38.33	334.17	70.65	-38.6	-43.2	3.8	12793960	94	2106
2025-01-25 10:25:38.53	334.21	70.56	-39.5	-48.5	3.6	12793960	96	3465
2025-01-25 10:25:38.73	334.24	70.47	-39.6	-48.6	3.6	14611709	96	3442
2025-01-25 10:25:38.93	334.28	70.38	-39.6	-47.7	3.4	14611709	96	3134
2025-01-25 10:25:39.14	334.31	70.28	-39.7	-47.8	3.4	15204223	96	3153
2025-01-25 10:25:39.34	334.35	70.19	-39.7	-49.0	3.6	15204223	96	3607

#Closed at: 2025-01-25 10:25:39