passes_logs/2026/01/08/T1/T1__20260108_113850_SUOMI_NPP_rec.log

#Pass ID: 20260108_113850_SUOMI NPP
#Satellite: SUOMI NPP
#Configuration: NPP
#almurnet v.1.7.20251203
#Start time: 2026-01-08 11:38:53

#Version: 2.0.20230620
#Station: T1
#Location: 37.570604 lon 55.790049 lat
#TLE: 1 37849U 11061A   26005.94084933  .00000134  00000+0  84554-4 0  9990
#TLE: 2 37849  98.7803 308.0679 0002567  79.1029 281.0436 14.19522657735426

#Time	Az	El	Level	Level2	SNR	BER	BlckErr	Temp	State	Recorded	gain1	gain2
2026-01-08 11:38:53.01	215.05	5.13	-48.0	-65.2	3.8	1.49e+00	0	41	0	0	68	24817
2026-01-08 11:38:54.01	215.14	5.18	-47.9	-65.0	3.8	1.49e+00	0	41	104	0	66	27252
2026-01-08 11:38:55.01	215.23	5.24	-47.9	-65.0	3.8	1.49e+00	0	41	104	0	66	27341
2026-01-08 11:38:56.02	215.33	5.30	-47.8	-65.0	3.8	1.49e+00	0	41	104	0	66	27372
2026-01-08 11:38:57.02	215.42	5.36	-47.8	-65.0	3.8	1.49e+00	0	41	104	0	66	27210
2026-01-08 11:38:58.02	215.52	5.42	-47.8	-65.1	3.8	1.49e+00	0	41	104	0	66	27390
2026-01-08 11:38:59.03	215.61	5.47	-47.9	-65.0	3.8	1.49e+00	0	41	104	0	66	27296
2026-01-08 11:39:00.03	215.71	5.53	-47.8	-65.0	3.8	1.49e+00	0	42	104	0	66	27206
2026-01-08 11:39:01.04	215.80	5.59	-47.8	-65.0	3.8	1.49e+00	0	41	104	0	66	27218
2026-01-08 11:39:02.04	215.90	5.65	-47.8	-65.0	3.8	1.49e+00	0	42	104	0	66	27144
2026-01-08 11:39:03.04	215.99	5.71	-47.8	-65.0	3.8	1.49e+00	0	42	104	0	66	27108
2026-01-08 11:39:04.05	216.09	5.76	-47.9	-65.0	3.8	1.49e+00	0	41	104	0	66	27118
2026-01-08 11:39:05.05	216.19	5.82	-47.9	-65.0	3.8	1.49e+00	0	42	104	0	66	27191
2026-01-08 11:39:06.06	216.29	5.88	-47.9	-65.0	3.8	1.49e+00	0	42	104	0	66	27158
2026-01-08 11:39:07.06	216.39	5.94	-47.8	-65.0	3.8	1.49e+00	0	42	104	0	66	27127
2026-01-08 11:39:08.07	216.48	6.00	-47.8	-65.0	3.8	1.49e+00	0	42	104	0	66	27148
2026-01-08 11:39:09.07	216.58	6.06	-47.8	-65.0	3.8	1.49e+00	0	42	104	0	66	27179
2026-01-08 11:39:10.07	216.68	6.12	-47.8	-64.9	3.8	1.49e+00	0	42	104	0	66	27005
2026-01-08 11:39:11.08	216.78	6.18	-47.8	-64.9	3.8	1.49e+00	0	42	104	0	66	26833
2026-01-08 11:39:12.08	216.88	6.23	-47.8	-64.8	3.8	1.49e+00	0	42	104	0	66	26715
2026-01-08 11:39:13.09	216.98	6.29	-47.8	-64.8	3.8	1.49e+00	0	42	104	0	66	26503
2026-01-08 11:39:14.09	217.08	6.35	-47.8	-64.8	3.8	1.49e+00	0	42	104	0	66	26505
2026-01-08 11:39:15.10	217.18	6.41	-47.8	-64.8	3.8	1.49e+00	0	42	104	0	66	26607
2026-01-08 11:39:16.10	217.29	6.47	-47.9	-64.9	3.8	1.49e+00	0	42	104	0	66	26931
2026-01-08 11:39:17.11	217.39	6.53	-47.8	-64.9	3.8	1.49e+00	0	42	104	0	66	27049
2026-01-08 11:39:18.11	217.49	6.59	-47.8	-65.0	3.8	1.49e+00	0	42	104	0	66	27210
2026-01-08 11:39:19.11	217.59	6.65	-47.8	-65.0	3.8	1.49e+00	0	42	104	0	66	27298
2026-01-08 11:39:20.12	217.70	6.71	-47.8	-64.9	3.8	1.49e+00	0	42	104	0	66	27052
2026-01-08 11:39:21.12	217.80	6.77	-47.8	-64.8	3.8	1.49e+00	0	42	104	0	66	26750
2026-01-08 11:39:22.13	217.90	6.83	-47.8	-64.7	3.8	1.49e+00	0	42	104	0	66	26444
2026-01-08 11:39:23.13	218.01	6.88	-47.8	-64.6	3.8	1.49e+00	0	42	104	0	66	25983
2026-01-08 11:39:24.14	218.11	6.94	-47.8	-64.5	3.8	1.49e+00	0	42	104	0	66	25621
2026-01-08 11:39:25.14	218.22	7.00	-47.8	-64.5	3.8	1.49e+00	0	42	104	0	66	25588
2026-01-08 11:39:26.15	218.32	7.06	-47.9	-64.5	3.8	1.49e+00	0	42	104	0	66	25601
2026-01-08 11:39:27.15	218.43	7.12	-48.0	-64.6	3.8	1.49e+00	0	42	104	0	66	26067
2026-01-08 11:39:28.15	218.54	7.18	-48.0	-64.8	3.8	1.49e+00	0	42	104	0	66	26544
2026-01-08 11:39:29.16	218.64	7.24	-47.9	-64.9	3.8	1.49e+00	0	42	104	0	66	26886
2026-01-08 11:39:30.16	218.75	7.30	-47.8	-65.0	3.8	1.49e+00	0	42	104	0	66	27210
2026-01-08 11:39:31.17	218.86	7.36	-47.9	-64.9	3.8	1.49e+00	0	42	104	0	66	27065
2026-01-08 11:39:32.17	218.97	7.42	-47.8	-64.9	3.8	1.49e+00	0	43	104	0	66	27027
2026-01-08 11:39:33.18	219.07	7.48	-47.9	-64.9	3.8	1.49e+00	0	42	104	0	66	26828
2026-01-08 11:39:34.18	219.18	7.54	-47.9	-64.9	3.8	1.49e+00	0	43	104	0	66	26947
2026-01-08 11:39:35.19	219.29	7.60	-47.9	-64.8	3.8	1.49e+00	0	42	104	0	66	26746
2026-01-08 11:39:36.19	219.40	7.66	-47.9	-64.7	3.8	1.49e+00	0	42	104	0	66	26423
2026-01-08 11:39:37.19	219.51	7.72	-47.9	-64.4	3.8	1.49e+00	0	42	104	0	66	25473
2026-01-08 11:39:38.20	219.62	7.78	-47.9	-63.9	3.8	1.49e+00	0	43	104	0	66	23964
2026-01-08 11:39:39.20	219.73	7.84	-47.8	-63.2	3.8	1.49e+00	0	43	104	0	66	22215
2026-01-08 11:39:40.21	219.85	7.91	-47.7	-62.9	3.8	1.49e+00	0	43	104	0	66	21390
2026-01-08 11:39:41.21	219.96	7.97	-47.7	-63.0	3.8	1.49e+00	0	43	104	0	66	21685
2026-01-08 11:39:42.21	220.07	8.03	-47.7	-63.4	3.8	1.49e+00	0	43	104	0	66	22624
2026-01-08 11:39:43.22	220.18	8.09	-47.8	-63.8	3.8	1.49e+00	0	43	104	0	66	23614
2026-01-08 11:39:44.22	220.30	8.15	-47.7	-62.7	3.8	1.49e+00	0	43	104	0	66	20924
2026-01-08 11:39:45.23	220.41	8.21	-47.6	-59.7	4.8	1.30e+00	0	43	0	0	66	14770
2026-01-08 11:39:46.23	220.53	8.27	-47.3	-56.8	6.9	4.78e-01	0	43	0	2097152	66	10581
2026-01-08 11:39:47.23	220.64	8.33	-46.8	-54.5	9.1	3.61e-02	0	43	0	4194304	65	8573
2026-01-08 11:39:48.24	220.76	8.39	-46.2	-52.4	11.2	3.52e-03	0	43	0	6291456	64	7196
2026-01-08 11:39:49.24	220.87	8.45	-45.9	-51.3	12.5	4.21e-04	0	43	0	7340032	63	6716
2026-01-08 11:39:50.25	220.99	8.51	-45.4	-50.4	13.4	4.80e-05	0	43	0	9437184	62	6375
2026-01-08 11:39:51.25	221.10	8.57	-45.4	-50.3	13.5	1.98e-05	0	43	0	11534336	62	6317
2026-01-08 11:39:52.25	221.22	8.63	-45.3	-50.1	13.6	3.00e-06	0	43	0	13631488	62	6183
2026-01-08 11:39:53.26	221.34	8.70	-45.5	-50.6	13.2	9.10e-06	0	43	0	15728640	62	6519
2026-01-08 11:39:54.26	221.46	8.76	-45.9	-51.4	12.4	1.05e-04	0	43	0	16777216	62	7173
2026-01-08 11:39:55.27	221.58	8.82	-46.2	-52.3	11.4	4.50e-04	0	43	0	18874368	63	7521
2026-01-08 11:39:56.27	221.70	8.88	-46.7	-53.9	9.7	3.18e-03	0	43	0	20971520	64	8523
2026-01-08 11:39:57.28	221.82	8.94	-46.9	-55.0	8.5	3.33e-02	0	43	0	23068672	64	9698
2026-01-08 11:39:58.28	221.94	9.00	-47.2	-56.8	6.9	1.10e-01	0	43	0	25165824	64	11824
2026-01-08 11:39:59.29	222.06	9.06	-47.3	-58.0	5.8	3.10e-01	0	43	0	26214400	65	12957
2026-01-08 11:40:00.37	222.19	9.13	-47.5	-57.2	6.7	2.44e-01	0	43	0	28311552	66	11043
2026-01-08 11:40:01.27	222.30	9.18	-47.9	-60.0	4.6	1.12e+00	0	43	0	30408704	66	15226
2026-01-08 11:40:02.45	222.44	9.26	-47.8	-55.7	7.9	3.67e-01	0	43	0	32505856	67	8803
2026-01-08 11:40:03.34	222.55	9.31	-48.3	-57.5	6.4	4.44e-02	0	43	0	34603008	67	10816
2026-01-08 11:40:04.49	222.69	9.38	-48.4	-59.7	4.8	1.19e+00	0	43	0	36700160	67	13914
2026-01-08 11:40:05.35	222.79	9.43	-48.6	-56.4	7.3	2.00e-01	0	43	0	37748736	67	9503
2026-01-08 11:40:06.49	222.94	9.50	-48.6	-55.9	7.8	8.87e-02	0	43	0	39845888	67	9010
2026-01-08 11:40:07.35	223.04	9.56	-48.8	-56.1	7.8	8.28e-02	0	43	0	41943040	68	8671
2026-01-08 11:40:08.50	223.19	9.63	-48.7	-55.7	8.2	6.51e-02	0	43	0	44040192	68	8359
2026-01-08 11:40:09.36	223.29	9.68	-48.5	-55.2	8.6	6.24e-02	0	43	0	45088768	68	7899
2026-01-08 11:40:10.50	223.44	9.75	-48.5	-55.1	8.8	4.08e-02	0	43	0	47185920	68	7797
2026-01-08 11:40:11.36	223.54	9.80	-48.6	-55.5	8.4	4.95e-02	0	43	0	49283072	68	8099
2026-01-08 11:40:12.51	223.69	9.87	-48.6	-55.5	8.4	5.42e-02	0	43	0	51380224	68	8135
2026-01-08 11:40:13.37	223.80	9.93	-48.5	-55.4	8.5	4.83e-02	0	43	0	53477376	68	8028
2026-01-08 11:40:14.51	223.95	10.00	-48.3	-54.5	9.4	2.36e-02	0	43	0	55574528	68	7233
2026-01-08 11:40:15.37	224.06	10.05	-48.4	-55.0	9.1	1.61e-02	0	43	0	56623104	68	7641
2026-01-08 11:40:16.59	224.21	10.13	-48.6	-55.2	8.7	2.92e-02	0	43	0	58720256	68	7894
2026-01-08 11:40:17.45	224.32	10.18	-48.5	-55.1	8.9	4.11e-02	0	43	0	60817408	68	7757
2026-01-08 11:40:18.64	224.48	10.25	-48.3	-54.8	9.3	1.58e-02	0	43	0	62914560	68	7460
2026-01-08 11:40:19.50	224.59	10.31	-48.0	-53.7	10.3	1.71e-02	0	43	0	63963136	68	6611
2026-01-08 11:40:20.65	224.74	10.38	-47.3	-52.1	11.8	1.01e-03	0	43	0	67108864	66	6178
2026-01-08 11:40:21.50	224.85	10.43	-47.2	-52.0	12.0	9.82e-04	0	43	0	68157440	66	6111
2026-01-08 11:40:22.65	225.00	10.50	-47.0	-51.5	12.5	2.05e-04	0	43	0	70254592	66	5726
2026-01-08 11:40:23.51	225.12	10.55	-47.2	-52.0	12.0	1.65e-04	0	43	0	72351744	65	6444
2026-01-08 11:40:24.66	225.27	10.62	-47.0	-51.4	12.5	2.35e-04	0	43	0	74448896	65	6018
2026-01-08 11:40:25.52	225.39	10.68	-47.1	-51.7	12.3	9.84e-05	0	43	0	75497472	65	6273
2026-01-08 11:40:26.66	225.54	10.75	-47.1	-51.6	12.3	1.60e-04	0	43	0	77594624	65	6162
2026-01-08 11:40:27.52	225.66	10.80	-47.0	-51.4	12.5	1.01e-04	0	43	0	79691776	65	6021
2026-01-08 11:40:28.67	225.81	10.87	-47.3	-52.0	12.0	1.40e-04	0	43	0	81788928	65	6462
2026-01-08 11:40:29.83	225.97	10.94	-47.1	-51.5	12.5	1.33e-04	0	43	0	83886080	65	6113
2026-01-08 11:40:30.87	226.11	11.01	-47.0	-51.2	12.8	8.62e-05	0	43	0	85983232	65	5913
2026-01-08 11:40:31.87	226.25	11.07	-46.9	-51.1	12.9	4.50e-05	0	43	0	88080384	65	5846
2026-01-08 11:40:32.87	226.39	11.13	-46.8	-50.9	13.1	2.05e-05	0	43	0	89128960	65	5709
2026-01-08 11:40:33.87	226.52	11.19	-46.5	-50.4	13.7	1.14e-05	0	43	0	91226112	64	5692
2026-01-08 11:40:34.88	226.66	11.26	-46.4	-50.3	13.8	3.80e-06	0	43	0	93323264	64	5649
2026-01-08 11:40:35.88	226.80	11.32	-46.2	-50.1	14.1	6.80e-06	0	43	0	95420416	64	5476
2026-01-08 11:40:36.88	226.94	11.38	-46.0	-49.5	14.5	3.00e-06	0	43	0	97517568	64	5157
2026-01-08 11:40:37.89	227.09	11.44	-46.0	-49.5	14.7	1.50e-06	0	43	0	98566144	63	5452
2026-01-08 11:40:38.89	227.23	11.51	-46.0	-49.5	14.6	0.00e+00	0	43	0	100663296	63	5446
2026-01-08 11:40:39.89	227.37	11.57	-45.5	-48.8	15.3	7.00e-07	0	43	0	102760448	63	5010
2026-01-08 11:40:40.89	227.51	11.63	-45.5	-48.7	15.5	0.00e+00	0	43	0	104857600	62	5255
2026-01-08 11:40:41.94	227.66	11.70	-45.5	-48.8	15.4	0.00e+00	0	43	0	106954752	62	5281
2026-01-08 11:40:42.85	227.79	11.75	-45.6	-48.8	15.3	0.00e+00	0	43	0	108003328	62	5306
2026-01-08 11:40:43.85	227.94	11.81	-45.2	-48.3	15.9	0.00e+00	0	43	0	110100480	62	5007
2026-01-08 11:40:44.86	228.08	11.88	-45.0	-47.9	16.2	0.00e+00	0	43	0	112197632	61	5083
2026-01-08 11:40:45.86	228.23	11.94	-45.0	-48.0	16.1	0.00e+00	0	43	0	114294784	61	5133
2026-01-08 11:40:46.87	228.37	12.00	-45.0	-47.9	16.1	0.00e+00	0	43	0	115343360	61	5095
2026-01-08 11:40:47.86	228.52	12.06	-44.8	-47.7	16.4	0.00e+00	0	43	0	117440512	61	4967
2026-01-08 11:40:48.87	228.67	12.13	-44.7	-47.6	16.4	0.00e+00	0	43	0	119537664	61	4910
2026-01-08 11:40:49.87	228.81	12.19	-44.9	-47.8	16.3	0.00e+00	0	44	0	121634816	61	5016
2026-01-08 11:40:50.87	228.96	12.25	-44.8	-47.8	16.3	0.00e+00	0	43	0	123731968	61	4986
2026-01-08 11:40:51.88	229.11	12.31	-44.7	-47.6	16.5	0.00e+00	0	43	0	124780544	61	4907
2026-01-08 11:40:52.88	229.26	12.37	-44.7	-47.6	16.5	0.00e+00	0	43	0	126877696	61	4876
2026-01-08 11:40:53.88	229.41	12.44	-44.6	-47.5	16.6	0.00e+00	0	43	0	128974848	61	4818
2026-01-08 11:40:54.89	229.57	12.50	-44.7	-47.6	16.5	0.00e+00	0	43	0	131072000	61	4881
2026-01-08 11:40:55.97	229.73	12.57	-44.6	-47.5	16.6	0.00e+00	0	43	0	133169152	61	4819
2026-01-08 11:40:56.86	229.86	12.62	-44.6	-47.4	16.6	0.00e+00	0	43	0	134217728	61	4783
2026-01-08 11:40:58.19	230.07	12.70	-44.7	-47.6	16.6	0.00e+00	0	44	0	137363456	61	4876
2026-01-08 11:40:58.91	230.18	12.75	-44.5	-47.3	16.8	0.00e+00	0	43	0	138412032	61	4739
2026-01-08 11:41:00.42	230.41	12.84	-44.5	-47.3	16.8	0.00e+00	0	43	0	141557760	60	5025
2026-01-08 11:41:01.14	230.52	12.88	-44.5	-47.3	16.8	0.00e+00	0	44	0	142606336	60	5018
2026-01-08 11:41:02.43	230.72	12.96	-44.6	-47.5	16.6	0.00e+00	0	43	0	144703488	60	5117
2026-01-08 11:41:03.14	230.83	13.01	-44.6	-47.4	16.7	0.00e+00	0	43	0	146800640	60	5100
2026-01-08 11:41:04.56	231.05	13.10	-44.7	-47.6	16.5	0.00e+00	0	43	0	148897792	60	5180
2026-01-08 11:41:05.28	231.17	13.14	-44.6	-47.4	16.7	0.00e+00	0	43	0	149946368	60	5064
2026-01-08 11:41:06.63	231.38	13.22	-44.4	-47.1	16.9	0.00e+00	0	44	0	153092096	60	4926
2026-01-08 11:41:07.35	231.49	13.27	-44.3	-47.0	17.1	0.00e+00	0	44	0	154140672	60	4820
2026-01-08 11:41:08.71	231.71	13.35	-44.3	-47.0	17.1	0.00e+00	0	43	0	156237824	60	4826
2026-01-08 11:41:09.42	231.82	13.39	-44.1	-46.7	17.3	0.00e+00	0	43	0	158334976	60	4682
2026-01-08 11:41:10.79	232.04	13.48	-44.0	-46.6	17.4	0.00e+00	0	43	0	160432128	59	4886
2026-01-08 11:41:11.51	232.16	13.52	-44.0	-46.6	17.4	0.00e+00	0	44	0	161480704	59	4895
2026-01-08 11:41:12.79	232.37	13.60	-43.9	-46.5	17.5	0.00e+00	0	43	0	164626432	59	4826
2026-01-08 11:41:13.51	232.49	13.64	-44.1	-46.7	17.3	0.00e+00	0	43	0	165675008	59	4953
2026-01-08 11:41:14.80	232.70	13.72	-43.9	-46.5	17.5	0.00e+00	0	43	0	167772160	59	4851
2026-01-08 11:41:15.52	232.81	13.77	-44.0	-46.6	17.4	0.00e+00	0	43	0	169869312	59	4916
2026-01-08 11:41:16.80	233.02	13.85	-43.9	-46.5	17.5	0.00e+00	0	44	0	171966464	59	4823
2026-01-08 11:41:17.52	233.14	13.89	-44.0	-46.6	17.4	0.00e+00	0	44	0	173015040	59	4877
2026-01-08 11:41:18.81	233.36	13.97	-43.9	-46.4	17.6	0.00e+00	0	44	0	176160768	59	4804
2026-01-08 11:41:19.61	233.49	14.02	-44.0	-46.6	17.4	0.00e+00	0	44	0	177209344	59	4893
2026-01-08 11:41:21.07	233.73	14.11	-44.0	-46.7	17.3	0.00e+00	0	44	0	180355072	59	4927
2026-01-08 11:41:21.79	233.86	14.15	-44.1	-46.7	17.3	0.00e+00	0	44	0	181403648	59	4973
2026-01-08 11:41:23.27	234.11	14.24	-44.2	-46.9	17.2	0.00e+00	0	43	0	184549376	59	5056
2026-01-08 11:41:23.99	234.23	14.28	-44.5	-47.2	16.9	0.00e+00	0	43	0	185597952	59	5271
2026-01-08 11:41:25.28	234.45	14.36	-44.2	-46.9	17.2	0.00e+00	0	44	0	187695104	59	5070
2026-01-08 11:41:25.99	234.57	14.40	-44.1	-46.8	17.3	0.00e+00	0	44	0	188743680	59	4987
2026-01-08 11:41:27.28	234.79	14.48	-44.2	-47.0	17.1	0.00e+00	0	43	0	191889408	59	5121
2026-01-08 11:41:28.00	234.91	14.52	-44.1	-46.8	17.2	0.00e+00	0	44	0	192937984	59	5020
2026-01-08 11:41:29.29	235.14	14.60	-44.2	-47.0	17.1	0.00e+00	0	44	0	195035136	59	5135
2026-01-08 11:41:30.00	235.26	14.64	-44.3	-47.1	17.0	0.00e+00	0	43	0	197132288	59	5171
2026-01-08 11:41:31.30	235.49	14.72	-44.5	-47.4	16.6	0.00e+00	0	44	0	199229440	59	5389
2026-01-08 11:41:32.08	235.62	14.77	-44.5	-47.5	16.6	0.00e+00	0	43	0	200278016	59	5406
2026-01-08 11:41:33.68	235.90	14.86	-44.6	-47.5	16.6	0.00e+00	0	44	0	203423744	59	5431
2026-01-08 11:41:34.26	236.01	14.90	-44.6	-47.5	16.6	0.00e+00	0	44	0	204472320	59	5445
2026-01-08 11:41:36.06	236.33	15.01	-44.3	-47.2	16.9	0.00e+00	0	44	0	207618048	59	5233
2026-01-08 11:41:36.63	236.43	15.04	-44.2	-47.0	17.1	0.00e+00	0	44	0	208666624	59	5128
2026-01-08 11:41:38.22	236.71	15.13	-44.3	-47.0	17.0	0.00e+00	0	44	0	211812352	59	5124
2026-01-08 11:41:38.79	236.81	15.17	-44.1	-46.8	17.2	0.00e+00	0	43	0	212860928	59	5018
2026-01-08 11:41:40.37	237.10	15.26	-44.3	-47.0	17.1	0.00e+00	0	44	0	216006656	59	5133
2026-01-08 11:41:40.94	237.20	15.29	-44.2	-46.9	17.1	0.00e+00	0	43	0	217055232	59	5071
2026-01-08 11:41:42.53	237.49	15.39	-44.6	-47.4	16.8	0.00e+00	0	44	0	220200960	59	5347
2026-01-08 11:41:43.11	237.60	15.42	-44.6	-47.5	16.7	0.00e+00	0	44	0	221249536	60	5113
2026-01-08 11:41:44.94	237.93	15.53	-44.4	-47.2	17.0	0.00e+00	0	44	0	224395264	60	4933
2026-01-08 11:41:45.51	238.04	15.56	-44.4	-47.1	17.0	0.00e+00	0	44	0	225443840	60	4916
2026-01-08 11:41:47.09	238.33	15.65	-44.2	-46.9	17.2	0.00e+00	0	43	0	228589568	60	4792
2026-01-08 11:41:47.68	238.44	15.69	-44.1	-46.7	17.4	0.00e+00	0	44	0	229638144	60	4671
2026-01-08 11:41:49.25	238.73	15.78	-43.9	-46.5	17.5	0.00e+00	0	43	0	232783872	59	4844
2026-01-08 11:41:49.83	238.84	15.81	-44.0	-46.6	17.5	0.00e+00	0	44	0	233832448	59	4885
2026-01-08 11:41:51.42	239.14	15.90	-43.8	-46.5	17.6	0.00e+00	0	43	0	236978176	59	4819
2026-01-08 11:41:51.99	239.25	15.93	-43.8	-46.4	17.6	0.00e+00	0	44	0	238026752	59	4798
2026-01-08 11:41:53.57	239.55	16.02	-43.7	-46.3	17.7	0.00e+00	0	44	0	241172480	59	4743
2026-01-08 11:41:54.17	239.66	16.06	-43.8	-46.5	17.6	0.00e+00	0	44	0	242221056	59	4825
2026-01-08 11:41:55.75	239.96	16.15	-43.8	-46.4	17.7	0.00e+00	0	43	0	245366784	59	4764
2026-01-08 11:41:56.45	240.10	16.19	-43.8	-46.3	17.7	0.00e+00	0	44	0	246415360	59	4759
2026-01-08 11:41:57.76	240.35	16.26	-43.9	-46.5	17.6	0.00e+00	0	44	0	248512512	59	4828
2026-01-08 11:41:58.67	240.53	16.31	-43.9	-46.4	17.6	0.00e+00	0	43	0	250609664	59	4801
2026-01-08 11:42:00.00	240.78	16.38	-44.0	-46.6	17.5	0.00e+00	0	44	0	252706816	59	4891
2026-01-08 11:42:00.72	240.92	16.43	-44.1	-46.7	17.4	0.00e+00	0	44	0	254803968	59	4943
2026-01-08 11:42:02.01	241.18	16.50	-44.0	-46.7	17.4	0.00e+00	0	44	0	256901120	59	4927
2026-01-08 11:42:02.73	241.32	16.54	-44.1	-46.9	17.2	0.00e+00	0	44	0	257949696	59	5046
2026-01-08 11:42:04.01	241.57	16.61	-43.9	-46.6	17.4	0.00e+00	0	44	0	260046848	59	4912
2026-01-08 11:42:04.73	241.71	16.65	-43.9	-46.6	17.4	0.00e+00	0	44	0	262144000	59	4923
2026-01-08 11:42:06.02	241.97	16.72	-43.7	-46.4	17.6	0.00e+00	0	43	0	264241152	59	4800
2026-01-08 11:42:06.74	242.11	16.76	-43.7	-46.5	17.5	0.00e+00	0	44	0	265289728	59	4820
2026-01-08 11:42:08.02	242.37	16.83	-43.8	-46.5	17.6	0.00e+00	0	44	0	268435456	59	4828
2026-01-08 11:42:08.74	242.51	16.86	-43.7	-46.4	17.7	0.00e+00	0	44	0	269484032	59	4794
2026-01-08 11:42:10.03	242.77	16.93	-44.0	-46.6	17.5	0.00e+00	0	44	0	271581184	59	4903
2026-01-08 11:42:10.75	242.92	16.97	-44.1	-46.7	17.4	0.00e+00	0	44	0	272629760	59	4969
2026-01-08 11:42:12.22	243.22	17.05	-44.3	-46.9	17.2	0.00e+00	0	44	0	275775488	59	5062
2026-01-08 11:42:12.94	243.36	17.09	-44.3	-47.0	17.1	0.00e+00	0	44	0	276824064	59	5142
2026-01-08 11:42:14.23	243.63	17.16	-44.5	-47.3	16.9	0.00e+00	0	43	0	279969792	59	5296
2026-01-08 11:42:14.95	243.77	17.20	-44.4	-47.1	17.0	0.00e+00	0	43	0	281018368	59	5198
2026-01-08 11:42:16.24	244.04	17.26	-44.2	-46.9	17.2	0.00e+00	0	44	0	283115520	59	5053
2026-01-08 11:42:16.96	244.19	17.30	-44.3	-47.0	17.1	0.00e+00	0	44	0	285212672	59	5141
2026-01-08 11:42:18.25	244.45	17.37	-44.1	-46.7	17.3	0.00e+00	0	43	0	287309824	59	4982
2026-01-08 11:42:18.96	244.60	17.40	-44.1	-46.8	17.3	0.00e+00	0	44	0	288358400	59	5013
2026-01-08 11:42:20.26	244.87	17.47	-44.3	-47.0	17.1	0.00e+00	0	44	0	290455552	59	5123
2026-01-08 11:42:20.97	245.02	17.51	-44.4	-47.2	16.9	0.00e+00	0	44	0	292552704	59	5245
2026-01-08 11:42:22.26	245.29	17.57	-44.6	-47.4	16.8	0.00e+00	0	44	0	294649856	59	5369
2026-01-08 11:42:23.09	245.46	17.61	-44.6	-47.6	16.7	0.00e+00	0	43	0	296747008	60	5177
2026-01-08 11:42:24.23	245.71	17.67	-44.5	-47.5	16.7	0.00e+00	0	44	0	298844160	60	5143
2026-01-08 11:42:25.30	245.93	17.73	-44.6	-47.7	16.5	0.00e+00	0	44	0	299892736	60	5235
2026-01-08 11:42:26.34	246.15	17.78	-44.6	-47.6	16.6	0.00e+00	0	44	0	301989888	60	5206
2026-01-08 11:42:27.34	246.37	17.83	-44.6	-47.6	16.6	0.00e+00	0	44	0	304087040	60	5209
2026-01-08 11:42:28.55	246.63	17.89	-44.8	-47.8	16.4	0.00e+00	0	43	0	306184192	60	5314
2026-01-08 11:42:29.41	246.81	17.93	-44.9	-47.9	16.3	0.00e+00	0	44	0	308281344	60	5378
2026-01-08 11:42:30.55	247.06	17.98	-45.0	-48.0	16.2	0.00e+00	0	44	0	310378496	60	5454
2026-01-08 11:42:31.42	247.24	18.03	-45.1	-48.3	16.0	0.00e+00	0	44	0	311427072	60	5604
2026-01-08 11:42:32.56	247.49	18.08	-45.0	-48.2	16.1	0.00e+00	0	44	0	313524224	61	5235
2026-01-08 11:42:33.42	247.68	18.12	-45.0	-48.3	16.0	0.00e+00	0	44	0	315621376	61	5297
2026-01-08 11:42:34.57	247.93	18.18	-45.1	-48.5	15.8	0.00e+00	0	44	0	317718528	61	5427
2026-01-08 11:42:35.43	248.12	18.22	-45.3	-48.6	15.7	0.00e+00	0	44	0	319815680	61	5510
2026-01-08 11:42:36.58	248.37	18.27	-45.6	-48.9	15.4	0.00e+00	0	44	0	321912832	61	5670
2026-01-08 11:42:37.44	248.56	18.31	-45.6	-48.9	15.4	0.00e+00	0	44	0	322961408	61	5688
2026-01-08 11:42:38.58	248.81	18.36	-45.8	-49.1	15.2	0.00e+00	0	43	0	325058560	62	5519
2026-01-08 11:42:39.44	249.00	18.40	-45.7	-49.0	15.4	0.00e+00	0	44	0	327155712	62	5414
2026-01-08 11:42:40.60	249.26	18.45	-45.7	-48.9	15.4	0.00e+00	0	44	0	329252864	62	5399
2026-01-08 11:42:41.46	249.45	18.49	-45.6	-48.8	15.5	0.00e+00	0	44	0	330301440	62	5322
2026-01-08 11:42:42.61	249.71	18.54	-45.8	-49.0	15.3	0.00e+00	0	44	0	332398592	62	5446
2026-01-08 11:42:43.47	249.90	18.58	-45.9	-49.2	15.2	0.00e+00	0	44	0	334495744	62	5534
2026-01-08 11:42:44.61	250.15	18.63	-45.8	-49.0	15.3	0.00e+00	0	44	0	336592896	62	5464
2026-01-08 11:42:45.52	250.36	18.67	-45.7	-49.0	15.4	0.00e+00	0	43	0	338690048	62	5405
2026-01-08 11:42:46.52	250.58	18.72	-45.8	-49.1	15.3	0.00e+00	0	44	0	339738624	62	5481
2026-01-08 11:42:47.53	250.81	18.76	-45.6	-48.9	15.5	0.00e+00	0	44	0	341835776	62	5341
2026-01-08 11:42:48.53	251.04	18.80	-45.5	-48.7	15.7	0.00e+00	0	44	0	343932928	62	5221
2026-01-08 11:42:49.53	251.27	18.84	-45.2	-48.2	16.1	0.00e+00	0	44	0	346030080	62	4973
2026-01-08 11:42:50.54	251.50	18.89	-45.4	-48.6	15.8	0.00e+00	0	44	0	348127232	62	5164
2026-01-08 11:42:51.54	251.73	18.93	-45.3	-48.3	16.0	0.00e+00	0	44	0	349175808	62	5019
2026-01-08 11:42:52.54	251.96	18.97	-45.4	-48.5	15.9	0.00e+00	0	44	0	351272960	62	5110
2026-01-08 11:42:53.55	252.19	19.01	-45.3	-48.3	16.0	0.00e+00	0	44	0	353370112	62	5024
2026-01-08 11:42:54.55	252.42	19.05	-45.2	-48.2	16.1	0.00e+00	0	44	0	355467264	62	4933
2026-01-08 11:42:55.56	252.65	19.09	-44.9	-47.8	16.4	0.00e+00	0	44	0	357564416	61	4994
2026-01-08 11:42:56.56	252.89	19.13	-44.5	-47.3	16.9	0.00e+00	0	44	0	358612992	61	4744
2026-01-08 11:42:57.56	253.12	19.17	-44.3	-47.0	17.2	0.00e+00	0	44	0	360710144	60	4862
2026-01-08 11:42:58.57	253.35	19.21	-44.4	-47.3	16.9	0.00e+00	0	44	0	362807296	60	5006
2026-01-08 11:42:59.57	253.59	19.25	-44.4	-47.3	16.9	0.00e+00	0	44	0	364904448	60	5025
2026-01-08 11:43:00.57	253.82	19.28	-44.7	-47.7	16.5	0.00e+00	0	44	0	367001600	60	5254
2026-01-08 11:43:01.57	254.06	19.32	-44.8	-47.9	16.4	0.00e+00	0	44	0	368050176	60	5353
2026-01-08 11:43:02.58	254.29	19.36	-44.6	-47.5	16.7	0.00e+00	0	44	0	370147328	60	5146
2026-01-08 11:43:03.88	254.60	19.41	-44.4	-47.1	17.1	0.00e+00	0	44	0	372244480	60	4922
2026-01-08 11:43:04.67	254.79	19.44	-44.2	-46.9	17.3	0.00e+00	0	44	0	374341632	60	4774
2026-01-08 11:43:06.29	255.17	19.49	-44.0	-46.5	17.6	0.00e+00	0	44	0	377487360	60	4596
2026-01-08 11:43:06.86	255.31	19.51	-44.1	-46.7	17.4	0.00e+00	0	44	0	378535936	59	4958
2026-01-08 11:43:08.46	255.69	19.57	-44.2	-46.8	17.3	0.00e+00	0	44	0	381681664	59	5020
2026-01-08 11:43:09.03	255.82	19.59	-44.4	-47.2	17.0	0.00e+00	0	44	0	382730240	59	5229
2026-01-08 11:43:10.62	256.20	19.64	-44.2	-46.8	17.3	0.00e+00	0	44	0	385875968	59	5039
2026-01-08 11:43:11.19	256.34	19.66	-44.1	-46.7	17.4	0.00e+00	0	44	0	386924544	59	4935
2026-01-08 11:43:12.86	256.74	19.72	-43.7	-46.2	17.9	0.00e+00	0	44	0	390070272	59	4660
2026-01-08 11:43:13.43	256.88	19.73	-43.6	-46.0	18.0	0.00e+00	0	43	0	391118848	59	4596
2026-01-08 11:43:15.01	257.26	19.78	-43.6	-46.1	18.0	0.00e+00	0	44	0	393216000	58	4902
2026-01-08 11:43:15.61	257.41	19.80	-43.6	-46.0	18.1	0.00e+00	0	44	0	394264576	58	4845
2026-01-08 11:43:17.19	257.79	19.85	-43.6	-46.1	18.0	0.00e+00	0	44	0	397410304	58	4879
2026-01-08 11:43:17.78	257.93	19.87	-43.4	-45.9	18.1	0.00e+00	0	44	0	398458880	58	4781
2026-01-08 11:43:19.58	258.37	19.92	-43.4	-45.9	18.2	0.00e+00	0	44	0	402653184	58	4783
2026-01-08 11:43:20.15	258.51	19.94	-43.4	-45.8	18.2	0.00e+00	0	44	0	403701760	58	4735
2026-01-08 11:43:21.74	258.90	19.98	-43.4	-45.9	18.2	0.00e+00	0	44	0	405798912	58	4778
2026-01-08 11:43:22.32	259.04	20.00	-43.5	-46.0	18.1	0.00e+00	0	44	0	406847488	58	4831
2026-01-08 11:43:23.89	259.43	20.04	-44.0	-46.6	17.5	0.00e+00	0	44	0	409993216	58	5164
2026-01-08 11:43:24.50	259.58	20.06	-44.0	-46.6	17.6	0.00e+00	0	44	0	411041792	58	5176
2026-01-08 11:43:26.08	259.97	20.10	-43.9	-46.5	17.6	0.00e+00	0	44	0	414187520	58	5116
2026-01-08 11:43:26.89	260.17	20.12	-43.8	-46.3	17.8	0.00e+00	0	44	0	416284672	58	5009
2026-01-08 11:43:28.03	260.45	20.15	-43.7	-46.3	17.8	0.00e+00	0	44	0	418381824	58	4988
2026-01-08 11:43:28.89	260.66	20.17	-43.8	-46.3	17.8	0.00e+00	0	44	0	419430400	58	5007
2026-01-08 11:43:30.04	260.95	20.20	-43.8	-46.3	17.8	0.00e+00	0	44	0	421527552	58	5019
2026-01-08 11:43:30.90	261.16	20.22	-43.8	-46.3	17.8	0.00e+00	0	44	0	423624704	58	5021
2026-01-08 11:43:32.08	261.46	20.25	-43.9	-46.5	17.7	0.00e+00	0	44	0	425721856	58	5102
2026-01-08 11:43:32.94	261.67	20.27	-43.8	-46.3	17.8	0.00e+00	0	44	0	426770432	58	5025
2026-01-08 11:43:34.08	261.96	20.29	-43.8	-46.3	17.8	0.00e+00	0	44	0	428867584	58	5014
2026-01-08 11:43:34.95	262.17	20.31	-43.6	-46.1	17.9	0.00e+00	0	44	0	430964736	58	4905
2026-01-08 11:43:36.09	262.46	20.34	-43.6	-46.1	17.9	0.00e+00	0	44	0	433061888	58	4905
2026-01-08 11:43:36.95	262.67	20.35	-44.0	-46.6	17.5	0.00e+00	0	44	0	435159040	58	5203
2026-01-08 11:43:38.10	262.96	20.38	-44.1	-46.8	17.3	0.00e+00	0	44	0	437256192	59	4995
2026-01-08 11:43:38.96	263.18	20.39	-44.0	-46.6	17.5	0.00e+00	0	44	0	438304768	59	4901
2026-01-08 11:43:40.11	263.47	20.42	-43.6	-46.1	17.9	0.00e+00	0	44	0	440401920	59	4634
2026-01-08 11:43:40.97	263.68	20.43	-43.5	-46.0	18.0	0.00e+00	0	44	0	442499072	59	4551
2026-01-08 11:43:42.12	263.98	20.45	-43.3	-45.8	18.3	0.00e+00	0	44	0	444596224	58	4715
2026-01-08 11:43:42.98	264.19	20.47	-43.4	-45.8	18.2	0.00e+00	0	44	0	445644800	58	4736
2026-01-08 11:43:44.12	264.48	20.49	-43.7	-46.2	17.8	0.00e+00	0	44	0	447741952	58	4980
2026-01-08 11:43:44.98	264.70	20.50	-44.1	-46.7	17.4	0.00e+00	0	44	0	449839104	58	5271
2026-01-08 11:43:46.13	264.99	20.52	-44.2	-46.9	17.2	0.00e+00	0	44	0	451936256	59	5070
2026-01-08 11:43:46.99	265.21	20.53	-44.0	-46.7	17.3	0.00e+00	0	44	0	454033408	59	4967
2026-01-08 11:43:48.14	265.50	20.55	-44.1	-46.8	17.3	0.00e+00	0	44	0	456130560	59	5007
2026-01-08 11:43:49.01	265.72	20.56	-43.9	-46.5	17.5	0.00e+00	0	44	0	457179136	59	4836
2026-01-08 11:43:50.16	266.01	20.58	-44.1	-46.8	17.3	0.00e+00	0	44	0	459276288	59	4996
2026-01-08 11:43:51.02	266.23	20.59	-44.3	-47.0	17.1	0.00e+00	0	44	0	461373440	59	5150
2026-01-08 11:43:52.16	266.52	20.60	-44.6	-47.4	16.8	0.00e+00	0	44	0	463470592	59	5366
2026-01-08 11:43:53.02	266.74	20.61	-44.6	-47.3	16.9	0.00e+00	0	44	0	464519168	59	5327
2026-01-08 11:43:54.17	267.03	20.63	-44.5	-47.2	16.9	0.00e+00	0	44	0	466616320	60	4973
2026-01-08 11:43:55.03	267.25	20.64	-44.3	-47.0	17.2	0.00e+00	0	44	0	468713472	60	4818
2026-01-08 11:43:56.18	267.55	20.65	-44.0	-46.5	17.6	0.00e+00	0	44	0	470810624	59	4852
2026-01-08 11:43:57.34	267.84	20.66	-43.9	-46.5	17.6	0.00e+00	0	44	0	472907776	59	4831
2026-01-08 11:43:58.20	268.06	20.67	-43.9	-46.5	17.6	0.00e+00	0	44	0	475004928	59	4836
2026-01-08 11:43:59.35	268.36	20.68	-44.0	-46.6	17.5	0.00e+00	0	44	0	477102080	59	4889
2026-01-08 11:44:00.21	268.58	20.68	-44.0	-46.6	17.5	0.00e+00	0	44	0	478150656	59	4907
2026-01-08 11:44:01.35	268.87	20.69	-44.0	-46.6	17.5	0.00e+00	0	44	0	480247808	59	4892
2026-01-08 11:44:02.22	269.09	20.70	-43.8	-46.4	17.7	0.00e+00	0	44	0	482344960	59	4776
2026-01-08 11:44:03.39	269.39	20.70	-43.7	-46.2	17.9	0.00e+00	0	44	0	484442112	59	4687
2026-01-08 11:44:04.25	269.61	20.71	-43.8	-46.3	17.7	0.00e+00	0	44	0	485490688	59	4747
2026-01-08 11:44:05.40	269.91	20.71	-44.1	-46.7	17.4	0.00e+00	0	44	0	487587840	59	4931
2026-01-08 11:44:06.26	270.13	20.72	-44.2	-46.9	17.3	0.00e+00	0	44	0	489684992	59	5047
2026-01-08 11:44:07.40	270.42	20.72	-44.5	-47.3	16.9	0.00e+00	0	44	0	491782144	59	5301
2026-01-08 11:44:08.26	270.64	20.73	-44.7	-47.5	16.7	0.00e+00	0	44	0	493879296	60	5136
2026-01-08 11:44:09.62	270.99	20.73	-44.8	-47.7	16.6	0.00e+00	0	44	0	495976448	60	5239
2026-01-08 11:44:10.33	271.17	20.73	-44.5	-47.2	17.0	0.00e+00	0	44	0	497025024	60	4983
2026-01-08 11:44:11.84	271.56	20.73	-44.5	-47.2	17.0	0.00e+00	0	44	0	500170752	60	4962
2026-01-08 11:44:12.56	271.74	20.73	-44.6	-47.4	16.8	0.00e+00	0	44	0	501219328	60	5089
2026-01-08 11:44:13.85	272.08	20.73	-44.8	-47.6	16.6	0.00e+00	0	44	0	504365056	60	5212
2026-01-08 11:44:14.56	272.26	20.73	-44.8	-47.7	16.6	0.00e+00	0	44	0	505413632	60	5243
2026-01-08 11:44:15.85	272.59	20.73	-44.8	-47.6	16.6	0.00e+00	0	44	0	507510784	60	5206
2026-01-08 11:44:16.57	272.77	20.73	-44.6	-47.3	16.9	0.00e+00	0	44	0	508559360	60	5036
2026-01-08 11:44:17.86	273.11	20.73	-44.4	-47.1	17.1	0.00e+00	0	44	0	511705088	60	4914
2026-01-08 11:44:18.58	273.29	20.73	-44.5	-47.2	17.0	0.00e+00	0	44	0	512753664	60	4958
2026-01-08 11:44:19.87	273.62	20.72	-44.6	-47.4	16.8	0.00e+00	0	44	0	514850816	60	5069
2026-01-08 11:44:20.58	273.80	20.72	-44.7	-47.6	16.7	0.00e+00	0	44	0	516947968	60	5186
2026-01-08 11:44:21.87	274.13	20.71	-44.8	-47.7	16.5	0.00e+00	0	44	0	519045120	60	5245
2026-01-08 11:44:22.59	274.32	20.71	-44.6	-47.4	16.8	0.00e+00	0	44	0	520093696	60	5072
2026-01-08 11:44:23.88	274.65	20.70	-44.3	-47.0	17.2	0.00e+00	0	44	0	523239424	60	4851
2026-01-08 11:44:24.60	274.83	20.70	-44.3	-46.9	17.2	0.00e+00	0	44	0	524288000	60	4805
2026-01-08 11:44:25.89	275.16	20.69	-44.3	-47.0	17.2	0.00e+00	0	44	0	526385152	60	4840
2026-01-08 11:44:26.61	275.35	20.69	-44.6	-47.3	16.9	0.00e+00	0	44	0	527433728	60	5030
2026-01-08 11:44:27.90	275.68	20.68	-44.7	-47.5	16.8	0.00e+00	0	44	0	530579456	60	5139
2026-01-08 11:44:28.61	275.86	20.67	-44.9	-47.7	16.6	0.00e+00	0	44	0	531628032	60	5273
2026-01-08 11:44:29.90	276.19	20.66	-44.8	-47.7	16.6	0.00e+00	0	44	0	533725184	60	5220
2026-01-08 11:44:30.62	276.37	20.65	-44.9	-47.7	16.6	0.00e+00	0	44	0	535822336	60	5249
2026-01-08 11:44:32.07	276.74	20.64	-44.7	-47.4	16.8	0.00e+00	0	44	0	537919488	60	5091
2026-01-08 11:44:33.04	276.99	20.63	-44.7	-47.5	16.7	0.00e+00	0	44	0	540016640	60	5148
2026-01-08 11:44:34.04	277.24	20.61	-44.7	-47.5	16.7	0.00e+00	0	44	0	542113792	60	5128
2026-01-08 11:44:35.04	277.50	20.60	-44.8	-47.6	16.6	0.00e+00	0	44	0	543162368	60	5196
2026-01-08 11:44:36.05	277.76	20.59	-44.6	-47.5	16.8	0.00e+00	0	44	0	545259520	60	5146
2026-01-08 11:44:37.05	278.01	20.58	-44.6	-47.4	16.8	0.00e+00	0	44	0	547356672	60	5085
2026-01-08 11:44:38.06	278.27	20.56	-44.5	-47.3	16.9	0.00e+00	0	44	0	549453824	60	5015
2026-01-08 11:44:39.05	278.52	20.55	-44.2	-46.9	17.3	0.00e+00	0	44	0	551550976	60	4773
2026-01-08 11:44:40.06	278.77	20.53	-44.1	-46.7	17.5	0.00e+00	0	44	0	552599552	60	4656
2026-01-08 11:44:41.17	279.05	20.52	-44.0	-46.6	17.5	0.00e+00	0	43	0	554696704	60	4627
2026-01-08 11:44:42.03	279.27	20.50	-44.0	-46.5	17.6	0.00e+00	0	44	0	556793856	60	4594
2026-01-08 11:44:43.18	279.56	20.49	-44.0	-46.5	17.6	0.00e+00	0	44	0	558891008	59	4869
2026-01-08 11:44:44.15	279.81	20.47	-44.1	-46.7	17.4	0.00e+00	0	44	0	560988160	59	4951
2026-01-08 11:44:45.16	280.06	20.45	-44.2	-46.8	17.3	0.00e+00	0	44	0	563085312	59	5041
2026-01-08 11:44:46.16	280.31	20.43	-44.4	-47.1	17.1	0.00e+00	0	44	0	564133888	59	5160
2026-01-08 11:44:47.16	280.57	20.41	-44.5	-47.2	16.9	0.00e+00	0	44	0	566231040	59	5274
2026-01-08 11:44:48.17	280.82	20.40	-44.7	-47.5	16.8	0.00e+00	0	44	0	568328192	60	5106
2026-01-08 11:44:49.17	281.07	20.38	-44.6	-47.4	16.8	0.00e+00	0	44	0	570425344	60	5073
2026-01-08 11:44:50.17	281.32	20.36	-44.6	-47.3	16.9	0.00e+00	0	44	0	572522496	60	5037
2026-01-08 11:44:51.17	281.57	20.34	-44.6	-47.3	16.9	0.00e+00	0	44	0	573571072	60	5022
2026-01-08 11:44:52.17	281.82	20.31	-44.5	-47.2	17.0	0.00e+00	0	44	0	575668224	60	4952
2026-01-08 11:44:53.18	282.07	20.29	-44.4	-47.1	17.1	0.00e+00	0	44	0	577765376	60	4914
2026-01-08 11:44:54.20	282.33	20.27	-44.5	-47.2	17.0	0.00e+00	0	44	0	579862528	60	4979
2026-01-08 11:44:55.20	282.58	20.25	-44.5	-47.2	17.1	0.00e+00	0	44	0	580911104	60	4952
2026-01-08 11:44:56.26	282.84	20.22	-44.5	-47.2	17.1	0.00e+00	0	44	0	583008256	60	4971
2026-01-08 11:44:57.14	283.06	20.20	-44.5	-47.3	17.0	0.00e+00	0	44	0	585105408	60	4996
2026-01-08 11:44:58.29	283.34	20.17	-44.6	-47.4	16.9	0.00e+00	0	44	0	587202560	60	5057
2026-01-08 11:44:59.15	283.55	20.15	-44.7	-47.5	16.8	0.00e+00	0	44	0	589299712	60	5112
2026-01-08 11:45:00.30	283.84	20.12	-44.8	-47.6	16.8	0.00e+00	0	44	0	591396864	60	5166
2026-01-08 11:45:01.30	284.08	20.10	-44.5	-47.1	17.1	0.00e+00	0	44	0	592445440	60	4916
2026-01-08 11:45:02.48	284.37	20.07	-44.2	-46.8	17.4	0.00e+00	0	44	0	595591168	60	4733
2026-01-08 11:45:03.34	284.59	20.04	-44.1	-46.8	17.4	0.00e+00	0	44	0	596639744	60	4718
2026-01-08 11:45:04.48	284.87	20.01	-44.1	-46.7	17.5	0.00e+00	0	44	0	598736896	59	4932
2026-01-08 11:45:05.34	285.08	19.99	-44.2	-46.8	17.4	0.00e+00	0	44	0	600834048	59	5010
2026-01-08 11:45:06.49	285.36	19.96	-44.2	-46.8	17.3	0.00e+00	0	44	0	602931200	59	5012
2026-01-08 11:45:07.35	285.57	19.93	-44.4	-47.0	17.1	0.00e+00	0	44	0	603979776	59	5156
2026-01-08 11:45:08.50	285.85	19.90	-44.5	-47.2	17.0	0.00e+00	0	44	0	606076928	59	5224
2026-01-08 11:45:09.36	286.05	19.87	-44.4	-47.0	17.2	0.00e+00	0	44	0	608174080	59	5128
2026-01-08 11:45:10.51	286.33	19.84	-44.4	-47.0	17.2	0.00e+00	0	44	0	610271232	59	5135
2026-01-08 11:45:11.37	286.54	19.81	-44.5	-47.2	17.1	0.00e+00	0	44	0	611319808	59	5225
2026-01-08 11:45:12.51	286.82	19.78	-44.7	-47.5	16.8	0.00e+00	0	44	0	614465536	60	5130
2026-01-08 11:45:13.37	287.02	19.75	-44.8	-47.6	16.6	0.00e+00	0	44	0	615514112	60	5200
2026-01-08 11:45:14.52	287.30	19.71	-45.1	-48.0	16.3	0.00e+00	0	44	0	617611264	60	5408
2026-01-08 11:45:15.38	287.51	19.68	-45.0	-47.9	16.4	0.00e+00	0	44	0	619708416	60	5365
2026-01-08 11:45:16.53	287.78	19.65	-45.0	-47.9	16.4	0.00e+00	0	44	0	621805568	60	5343
2026-01-08 11:45:17.39	287.99	19.62	-44.7	-47.5	16.7	0.00e+00	0	44	0	622854144	60	5130
2026-01-08 11:45:18.53	288.26	19.58	-44.4	-47.1	17.1	0.00e+00	0	44	0	624951296	60	4891
2026-01-08 11:45:19.39	288.46	19.55	-44.3	-47.0	17.2	0.00e+00	0	44	0	627048448	60	4822
2026-01-08 11:45:20.54	288.74	19.51	-43.9	-46.5	17.6	0.00e+00	0	44	0	629145600	59	4824
2026-01-08 11:45:21.40	288.94	19.48	-44.0	-46.5	17.6	0.00e+00	0	44	0	630194176	59	4848
2026-01-08 11:45:22.54	289.21	19.44	-44.1	-46.7	17.5	0.00e+00	0	44	0	632291328	59	4934
2026-01-08 11:45:23.40	289.41	19.41	-44.2	-46.8	17.3	0.00e+00	0	44	0	634388480	59	5041
2026-01-08 11:45:24.55	289.68	19.37	-44.2	-46.9	17.2	0.00e+00	0	44	0	636485632	59	5057
2026-01-08 11:45:25.41	289.88	19.33	-44.2	-46.9	17.3	0.00e+00	0	44	0	638582784	59	5049
2026-01-08 11:45:26.56	290.15	19.29	-43.9	-46.5	17.6	0.00e+00	0	44	0	640679936	59	4857
2026-01-08 11:45:27.42	290.35	19.26	-43.8	-46.4	17.7	0.00e+00	0	44	0	641728512	59	4761
2026-01-08 11:45:28.56	290.62	19.22	-44.0	-46.6	17.5	0.00e+00	0	44	0	643825664	59	4893
2026-01-08 11:45:29.42	290.82	19.18	-44.0	-46.6	17.5	0.00e+00	0	44	0	645922816	59	4884
2026-01-08 11:45:30.57	291.09	19.14	-44.1	-46.7	17.5	0.00e+00	0	44	0	648019968	59	4944
2026-01-08 11:45:31.43	291.29	19.10	-44.2	-46.8	17.3	0.00e+00	0	44	0	649068544	59	5030
2026-01-08 11:45:32.66	291.57	19.06	-44.3	-46.9	17.2	0.00e+00	0	44	0	652214272	59	5088
2026-01-08 11:45:33.52	291.77	19.02	-44.2	-46.8	17.3	0.00e+00	0	44	0	653262848	59	5036
2026-01-08 11:45:34.66	292.03	18.97	-44.1	-46.7	17.4	0.00e+00	0	44	0	655360000	59	4969
2026-01-08 11:45:35.52	292.22	18.94	-44.0	-46.5	17.6	0.00e+00	0	44	0	657457152	59	4867
2026-01-08 11:45:36.67	292.49	18.89	-43.7	-46.2	17.9	0.00e+00	0	44	0	659554304	59	4656
2026-01-08 11:45:37.62	292.70	18.85	-43.7	-46.2	17.9	0.00e+00	0	44	0	660602880	59	4655
2026-01-08 11:45:38.63	292.93	18.81	-43.6	-46.0	18.0	0.00e+00	0	44	0	662700032	58	4865
2026-01-08 11:45:39.63	293.16	18.77	-43.6	-46.0	18.0	0.00e+00	0	44	0	664797184	58	4849
2026-01-08 11:45:40.63	293.38	18.73	-43.7	-46.1	17.9	0.00e+00	0	44	0	666894336	58	4910
2026-01-08 11:45:41.64	293.61	18.68	-43.7	-46.1	17.9	0.00e+00	0	44	0	668991488	58	4904
2026-01-08 11:45:42.64	293.84	18.64	-43.9	-46.4	17.7	0.00e+00	0	44	0	670040064	58	5060
2026-01-08 11:45:43.64	294.06	18.59	-44.1	-46.7	17.4	0.00e+00	0	44	0	672137216	58	5221
2026-01-08 11:45:44.65	294.28	18.55	-43.9	-46.5	17.6	0.00e+00	0	44	0	674234368	58	5102
2026-01-08 11:45:45.65	294.51	18.51	-43.9	-46.4	17.7	0.00e+00	0	44	0	676331520	58	5082
2026-01-08 11:45:46.65	294.73	18.46	-44.1	-46.7	17.5	0.00e+00	0	44	0	677380096	58	5229
2026-01-08 11:45:47.65	294.95	18.42	-44.1	-46.6	17.5	0.00e+00	0	44	0	679477248	58	5182
2026-01-08 11:45:48.65	295.17	18.37	-44.2	-46.8	17.3	0.00e+00	0	44	0	681574400	58	5293
2026-01-08 11:45:49.75	295.41	18.32	-44.4	-47.0	17.1	0.00e+00	0	44	0	683671552	59	5150
2026-01-08 11:45:50.64	295.61	18.28	-44.4	-47.1	16.9	0.00e+00	0	44	0	685768704	59	5202
2026-01-08 11:45:51.79	295.86	18.23	-44.5	-47.2	16.9	0.00e+00	0	44	0	687865856	59	5249
2026-01-08 11:45:52.69	296.05	18.18	-44.4	-47.1	17.0	0.00e+00	0	44	0	688914432	59	5211
2026-01-08 11:45:53.90	296.32	18.13	-44.4	-47.0	17.0	0.00e+00	0	44	0	691011584	59	5156
2026-01-08 11:45:54.81	296.51	18.08	-44.2	-46.9	17.2	0.00e+00	0	44	0	693108736	59	5051
2026-01-08 11:45:55.99	296.77	18.03	-44.2	-46.8	17.3	0.00e+00	0	44	0	695205888	59	5010
2026-01-08 11:45:56.85	296.95	17.99	-44.2	-46.9	17.2	0.00e+00	0	44	0	697303040	59	5044
2026-01-08 11:45:58.00	297.20	17.93	-44.1	-46.7	17.4	0.00e+00	0	44	0	699400192	59	4946
2026-01-08 11:45:58.86	297.38	17.89	-44.1	-46.7	17.4	0.00e+00	0	44	0	700448768	59	4952
2026-01-08 11:46:00.01	297.63	17.83	-44.2	-46.8	17.3	0.00e+00	0	44	0	702545920	59	5023
2026-01-08 11:46:00.86	297.81	17.79	-44.2	-46.8	17.3	0.00e+00	0	44	0	704643072	59	5031
2026-01-08 11:46:02.01	298.05	17.73	-44.4	-47.0	17.1	0.00e+00	0	44	0	706740224	59	5145
2026-01-08 11:46:02.87	298.23	17.69	-44.6	-47.4	16.8	0.00e+00	0	44	0	708837376	59	5372
2026-01-08 11:46:04.02	298.48	17.63	-44.8	-47.7	16.5	0.00e+00	0	44	0	710934528	60	5221
2026-01-08 11:46:04.88	298.66	17.59	-45.0	-48.0	16.2	0.00e+00	0	44	0	711983104	60	5428
2026-01-08 11:46:06.02	298.89	17.53	-45.1	-48.0	16.3	0.00e+00	0	44	0	714080256	60	5433
2026-01-08 11:46:06.88	299.07	17.49	-45.0	-48.0	16.3	0.00e+00	0	44	0	716177408	60	5412
2026-01-08 11:46:08.03	299.31	17.43	-44.9	-47.8	16.4	0.00e+00	0	44	0	718274560	60	5309
2026-01-08 11:46:08.89	299.49	17.39	-44.9	-47.8	16.4	0.00e+00	0	44	0	719323136	60	5300
2026-01-08 11:46:10.15	299.75	17.32	-45.0	-47.9	16.4	0.00e+00	0	44	0	722468864	60	5346
2026-01-08 11:46:11.29	299.98	17.26	-44.8	-47.7	16.5	0.00e+00	0	44	0	724566016	60	5247
2026-01-08 11:46:12.15	300.16	17.22	-45.0	-47.9	16.3	0.00e+00	0	44	0	725614592	60	5398
2026-01-08 11:46:13.30	300.39	17.16	-44.9	-47.8	16.4	0.00e+00	0	44	0	727711744	60	5294
2026-01-08 11:46:14.16	300.57	17.11	-44.7	-47.6	16.6	0.00e+00	0	44	0	729808896	60	5170
2026-01-08 11:46:15.32	300.80	17.05	-44.6	-47.4	16.7	0.00e+00	0	44	0	731906048	60	5097
2026-01-08 11:46:16.18	300.98	17.01	-44.6	-47.4	16.8	0.00e+00	0	44	0	732954624	60	5045
2026-01-08 11:46:17.33	301.21	16.95	-44.5	-47.3	16.9	0.00e+00	0	44	0	735051776	60	4992
2026-01-08 11:46:18.19	301.38	16.90	-44.7	-47.5	16.7	0.00e+00	0	44	0	737148928	60	5115
2026-01-08 11:46:19.45	301.63	16.83	-44.8	-47.6	16.6	0.00e+00	0	44	0	739246080	60	5169
2026-01-08 11:46:20.19	301.78	16.79	-44.9	-47.8	16.4	0.00e+00	0	43	0	740294656	60	5306
2026-01-08 11:46:21.48	302.03	16.72	-45.2	-48.2	16.0	0.00e+00	0	44	0	743440384	61	5230
2026-01-08 11:46:22.20	302.18	16.68	-45.3	-48.3	16.0	0.00e+00	0	44	0	744488960	61	5300
2026-01-08 11:46:23.49	302.43	16.61	-45.4	-48.5	15.8	0.00e+00	0	44	0	746586112	61	5409
2026-01-08 11:46:24.20	302.57	16.58	-45.6	-48.7	15.5	0.00e+00	0	44	0	748683264	61	5588
2026-01-08 11:46:25.49	302.82	16.50	-45.7	-48.9	15.4	0.00e+00	0	44	0	750780416	62	5376
2026-01-08 11:46:26.21	302.96	16.47	-45.8	-49.1	15.1	0.00e+00	0	44	0	751828992	62	5519
2026-01-08 11:46:27.50	303.21	16.39	-45.7	-48.9	15.4	0.00e+00	0	44	0	754974720	62	5341
2026-01-08 11:46:28.21	303.35	16.35	-45.7	-49.0	15.3	0.00e+00	0	44	0	756023296	62	5403
2026-01-08 11:46:29.51	303.60	16.28	-45.7	-48.9	15.4	0.00e+00	0	44	0	758120448	62	5361
2026-01-08 11:46:30.22	303.74	16.24	-45.7	-49.0	15.3	0.00e+00	0	44	0	759169024	62	5439
2026-01-08 11:46:31.58	304.00	16.17	-45.2	-48.3	15.9	0.00e+00	0	44	0	762314752	62	5038
2026-01-08 11:46:32.29	304.13	16.13	-45.2	-48.3	15.9	0.00e+00	0	44	0	763363328	62	4990
2026-01-08 11:46:33.65	304.39	16.05	-45.0	-48.1	16.0	0.00e+00	0	44	0	766509056	62	4910
2026-01-08 11:46:34.36	304.52	16.01	-44.8	-47.8	16.4	0.00e+00	0	44	0	767557632	61	4995
2026-01-08 11:46:35.66	304.77	15.94	-44.6	-47.5	16.7	0.00e+00	0	44	0	769654784	61	4815
2026-01-08 11:46:36.37	304.90	15.90	-44.7	-47.6	16.6	0.00e+00	0	44	0	770703360	61	4876
2026-01-08 11:46:37.79	305.17	15.82	-44.6	-47.4	16.7	0.00e+00	0	44	0	773849088	60	5079
2026-01-08 11:46:38.51	305.30	15.78	-44.8	-47.7	16.5	0.00e+00	0	44	0	774897664	60	5243
2026-01-08 11:46:39.80	305.54	15.70	-44.9	-48.2	15.9	0.00e+00	0	44	0	778043392	60	5563
2026-01-08 11:46:40.51	305.67	15.66	-45.2	-48.6	15.5	0.00e+00	0	44	0	779091968	61	5484
2026-01-08 11:46:41.80	305.91	15.59	-45.4	-48.9	15.1	0.00e+00	0	44	0	781189120	61	5718
2026-01-08 11:46:42.52	306.04	15.55	-45.6	-49.2	14.8	7.00e-07	0	44	0	782237696	61	5896
2026-01-08 11:46:43.81	306.28	15.47	-45.6	-49.3	14.8	0.00e+00	0	44	0	785383424	62	5600
2026-01-08 11:46:44.52	306.41	15.43	-45.6	-49.1	15.0	0.00e+00	0	44	0	786432000	62	5489
2026-01-08 11:46:45.82	306.64	15.35	-45.5	-49.0	15.1	0.00e+00	0	44	0	788529152	62	5416
2026-01-08 11:46:46.53	306.77	15.31	-45.2	-48.6	15.5	0.00e+00	0	44	0	790626304	62	5188
2026-01-08 11:46:47.82	307.00	15.24	-45.1	-48.4	15.7	0.00e+00	0	44	0	792723456	61	5348
2026-01-08 11:46:48.67	307.16	15.19	-45.1	-48.3	15.7	0.00e+00	0	44	0	793772032	61	5325
2026-01-08 11:46:50.13	307.42	15.10	-44.9	-48.1	15.8	0.00e+00	0	44	0	796917760	61	5208
2026-01-08 11:46:51.26	307.62	15.04	-45.0	-48.2	15.8	0.00e+00	0	44	0	799014912	61	5246
2026-01-08 11:46:52.12	307.77	14.99	-44.8	-48.0	16.0	0.00e+00	0	44	0	801112064	61	5124
2026-01-08 11:46:53.27	307.97	14.92	-44.9	-48.1	16.0	0.00e+00	0	44	0	803209216	61	5160
2026-01-08 11:46:54.13	308.12	14.87	-44.7	-47.8	16.2	0.00e+00	0	44	0	804257792	61	5018
2026-01-08 11:46:55.32	308.33	14.80	-44.5	-47.5	16.5	0.00e+00	0	44	0	806354944	61	4865
2026-01-08 11:46:56.17	308.48	14.75	-44.4	-47.4	16.6	0.00e+00	0	44	0	808452096	60	5086
2026-01-08 11:46:57.38	308.69	14.68	-44.5	-47.6	16.5	0.00e+00	0	44	0	810549248	60	5163
2026-01-08 11:46:58.24	308.84	14.62	-44.5	-47.5	16.5	0.00e+00	0	44	0	812646400	60	5149
2026-01-08 11:46:59.38	309.03	14.56	-44.5	-47.7	16.3	0.00e+00	0	44	0	814743552	60	5222
2026-01-08 11:47:00.24	309.18	14.51	-44.8	-48.1	15.9	0.00e+00	0	44	0	815792128	60	5502
2026-01-08 11:47:01.52	309.40	14.43	-44.9	-48.2	15.9	0.00e+00	0	44	0	817889280	60	5553
2026-01-08 11:47:02.23	309.52	14.39	-44.9	-48.2	15.8	0.00e+00	0	44	0	819986432	60	5590
2026-01-08 11:47:03.73	309.77	14.30	-44.9	-48.3	15.7	0.00e+00	0	44	0	822083584	60	5650
2026-01-08 11:47:04.45	309.89	14.25	-44.7	-48.1	15.9	0.00e+00	0	44	0	824180736	60	5494
2026-01-08 11:47:05.74	310.11	14.18	-44.8	-48.2	15.9	0.00e+00	0	44	0	826277888	60	5531
2026-01-08 11:47:06.46	310.23	14.13	-44.6	-47.8	16.2	0.00e+00	0	44	0	827326464	60	5303
2026-01-08 11:47:07.75	310.45	14.06	-44.5	-47.7	16.3	0.00e+00	0	44	0	830472192	60	5232
2026-01-08 11:47:08.46	310.56	14.01	-44.5	-47.7	16.3	0.00e+00	0	44	0	831520768	60	5254
2026-01-08 11:47:09.75	310.78	13.93	-44.5	-47.7	16.4	0.00e+00	0	44	0	833617920	60	5220
2026-01-08 11:47:10.46	310.89	13.89	-44.6	-47.8	16.2	0.00e+00	0	44	0	834666496	60	5312
2026-01-08 11:47:11.76	311.11	13.81	-44.7	-47.9	16.2	0.00e+00	0	44	0	837812224	60	5344
2026-01-08 11:47:12.51	311.23	13.77	-44.7	-47.9	16.1	0.00e+00	0	44	0	838860800	60	5397
2026-01-08 11:47:13.80	311.44	13.69	-44.9	-48.1	16.0	0.00e+00	0	44	0	840957952	60	5497
2026-01-08 11:47:14.51	311.55	13.65	-44.9	-48.1	15.9	0.00e+00	0	44	0	843055104	60	5486
2026-01-08 11:47:15.80	311.76	13.57	-44.9	-48.1	16.0	0.00e+00	0	44	0	845152256	60	5476
2026-01-08 11:47:16.52	311.88	13.53	-44.9	-48.1	15.9	0.00e+00	0	44	0	846200832	60	5519
2026-01-08 11:47:17.81	312.08	13.45	-44.9	-48.1	15.9	0.00e+00	0	44	0	849346560	60	5515
2026-01-08 11:47:18.53	312.20	13.40	-44.8	-47.9	16.1	0.00e+00	0	44	0	850395136	60	5400
2026-01-08 11:47:19.82	312.40	13.32	-44.9	-48.2	15.8	0.00e+00	0	44	0	852492288	60	5550
2026-01-08 11:47:20.53	312.52	13.28	-44.8	-48.1	16.0	0.00e+00	0	44	0	853540864	60	5472
2026-01-08 11:47:21.82	312.72	13.20	-44.8	-48.1	15.9	0.00e+00	0	44	0	856686592	60	5520
2026-01-08 11:47:22.54	312.83	13.16	-45.0	-48.3	15.7	0.00e+00	0	44	0	857735168	60	5650
2026-01-08 11:47:23.83	313.03	13.08	-44.8	-48.3	15.8	0.00e+00	0	44	0	859832320	60	5593
2026-01-08 11:47:24.54	313.14	13.04	-44.5	-47.9	16.1	0.00e+00	0	44	0	861929472	60	5373
2026-01-08 11:47:25.83	313.34	12.96	-44.3	-47.6	16.4	0.00e+00	0	44	0	864026624	60	5177
2026-01-08 11:47:26.55	313.45	12.91	-44.1	-47.3	16.7	0.00e+00	0	44	0	865075200	60	5014
2026-01-08 11:47:27.84	313.65	12.84	-43.9	-46.8	17.1	0.00e+00	0	44	0	867172352	59	4988
2026-01-08 11:47:28.55	313.76	12.79	-44.0	-46.9	17.0	0.00e+00	0	44	0	869269504	59	5049
2026-01-08 11:47:29.84	313.96	12.71	-43.7	-46.5	17.3	0.00e+00	0	44	0	871366656	59	4868
2026-01-08 11:47:30.69	314.09	12.66	-43.7	-46.4	17.4	0.00e+00	0	44	0	873463808	59	4804
2026-01-08 11:47:31.83	314.26	12.59	-44.0	-46.8	17.0	0.00e+00	0	44	0	875560960	59	5027
2026-01-08 11:47:32.70	314.39	12.54	-44.1	-47.0	16.9	0.00e+00	0	44	0	876609536	59	5142
2026-01-08 11:47:33.84	314.56	12.47	-44.3	-47.3	16.6	0.00e+00	0	44	0	878706688	59	5304
2026-01-08 11:47:34.70	314.69	12.42	-44.5	-47.5	16.3	0.00e+00	0	44	0	880803840	59	5454
2026-01-08 11:47:35.85	314.86	12.34	-44.7	-47.8	16.2	0.00e+00	0	44	0	882900992	59	5595
2026-01-08 11:47:36.71	314.99	12.29	-44.8	-48.0	16.0	0.00e+00	0	44	0	883949568	60	5461
2026-01-08 11:47:37.87	315.16	12.22	-44.6	-47.8	16.2	0.00e+00	0	44	0	886046720	60	5282
2026-01-08 11:47:38.73	315.29	12.17	-44.5	-47.7	16.3	0.00e+00	0	44	0	888143872	60	5229
2026-01-08 11:47:39.93	315.46	12.09	-44.3	-47.4	16.6	0.00e+00	0	44	0	890241024	60	5073
2026-01-08 11:47:40.79	315.59	12.04	-44.4	-47.4	16.6	0.00e+00	0	44	0	892338176	60	5076
2026-01-08 11:47:41.93	315.75	11.97	-44.2	-47.2	16.7	0.00e+00	0	44	0	894435328	60	4953
2026-01-08 11:47:42.80	315.88	11.92	-43.9	-46.7	17.2	0.00e+00	0	44	0	895483904	59	4954
2026-01-08 11:47:43.94	316.04	11.85	-44.0	-46.9	17.0	0.00e+00	0	44	0	897581056	59	5056
2026-01-08 11:47:44.80	316.16	11.80	-44.1	-47.0	16.9	0.00e+00	0	44	0	899678208	59	5123
2026-01-08 11:47:45.95	316.33	11.72	-44.3	-47.2	16.7	0.00e+00	0	44	0	901775360	59	5254
2026-01-08 11:47:46.81	316.45	11.67	-44.4	-47.3	16.6	0.00e+00	0	44	0	902823936	59	5297
2026-01-08 11:47:47.95	316.61	11.60	-44.4	-47.4	16.5	0.00e+00	0	44	0	904921088	59	5342
2026-01-08 11:47:48.81	316.73	11.55	-44.4	-47.4	16.4	0.00e+00	0	44	0	907018240	59	5388
2026-01-08 11:47:49.96	316.90	11.48	-44.5	-47.5	16.4	0.00e+00	0	44	0	909115392	59	5422
2026-01-08 11:47:50.82	317.02	11.43	-44.5	-47.5	16.4	0.00e+00	0	44	0	911212544	59	5428
2026-01-08 11:47:51.96	317.17	11.36	-44.4	-47.4	16.4	0.00e+00	0	44	0	913309696	59	5388
2026-01-08 11:47:52.82	317.29	11.30	-44.3	-47.3	16.6	0.00e+00	0	44	0	914358272	59	5316
2026-01-08 11:47:53.97	317.45	11.23	-44.3	-47.2	16.7	0.00e+00	0	44	0	916455424	59	5236
2026-01-08 11:47:54.82	317.57	11.18	-44.2	-47.0	16.8	0.00e+00	0	44	0	918552576	59	5159
2026-01-08 11:47:55.97	317.73	11.11	-44.5	-47.5	16.4	0.00e+00	0	44	0	920649728	59	5441
2026-01-08 11:47:56.83	317.84	11.06	-44.5	-47.6	16.3	0.00e+00	0	44	0	921698304	59	5494
2026-01-08 11:47:57.98	318.00	10.99	-44.6	-47.8	16.1	0.00e+00	0	44	0	923795456	59	5619
2026-01-08 11:47:58.83	318.12	10.93	-45.0	-48.3	15.7	0.00e+00	0	44	0	925892608	60	5634
2026-01-08 11:48:00.16	318.30	10.85	-45.0	-48.4	15.6	0.00e+00	0	44	0	927989760	61	5367
2026-01-08 11:48:00.87	318.39	10.81	-45.1	-48.6	15.4	0.00e+00	0	44	0	930086912	61	5483
2026-01-08 11:48:02.37	318.59	10.72	-45.3	-49.0	15.0	0.00e+00	0	44	0	932184064	61	5766
2026-01-08 11:48:03.09	318.69	10.67	-45.2	-48.7	15.3	0.00e+00	0	44	0	933232640	61	5575
2026-01-08 11:48:04.45	318.87	10.59	-45.2	-48.8	15.2	0.00e+00	0	44	0	936378368	61	5609
2026-01-08 11:48:05.17	318.96	10.55	-45.3	-48.8	15.2	0.00e+00	0	44	0	937426944	61	5645
2026-01-08 11:48:06.52	319.14	10.46	-45.0	-48.4	15.6	0.00e+00	0	44	0	940572672	61	5347
2026-01-08 11:48:07.24	319.23	10.42	-45.0	-48.3	15.7	0.00e+00	0	44	0	941621248	61	5288
2026-01-08 11:48:08.53	319.40	10.34	-45.0	-48.3	15.7	0.00e+00	0	44	0	943718400	61	5318
2026-01-08 11:48:09.24	319.49	10.30	-44.9	-48.2	15.8	0.00e+00	0	44	0	945815552	61	5236
2026-01-08 11:48:10.66	319.68	10.21	-45.0	-48.3	15.6	0.00e+00	0	44	0	947912704	61	5330
2026-01-08 11:48:11.65	319.81	10.15	-45.0	-48.4	15.6	0.00e+00	0	44	0	950009856	61	5392
2026-01-08 11:48:12.96	319.97	10.07	-45.2	-48.7	15.2	0.00e+00	0	44	0	952107008	61	5589
2026-01-08 11:48:13.71	320.07	10.02	-45.1	-48.6	15.3	0.00e+00	0	44	0	954204160	61	5518
2026-01-08 11:48:15.00	320.23	9.95	-44.9	-48.4	15.6	0.00e+00	0	44	0	956301312	61	5355
2026-01-08 11:48:15.71	320.32	9.90	-44.9	-48.3	15.6	0.00e+00	0	44	0	957349888	61	5302
2026-01-08 11:48:17.00	320.49	9.82	-44.8	-48.2	15.7	0.00e+00	0	44	0	959447040	61	5247
2026-01-08 11:48:17.72	320.58	9.78	-44.8	-48.2	15.6	0.00e+00	0	44	0	961544192	61	5277
2026-01-08 11:48:19.01	320.74	9.70	-44.7	-48.1	15.8	0.00e+00	0	44	0	963641344	61	5178
2026-01-08 11:48:19.72	320.82	9.66	-44.7	-48.0	15.9	0.00e+00	0	44	0	964689920	61	5117
2026-01-08 11:48:21.01	320.98	9.58	-44.7	-47.9	15.9	0.00e+00	0	44	0	967835648	61	5091
2026-01-08 11:48:21.73	321.07	9.54	-44.9	-48.2	15.7	0.00e+00	0	44	0	968884224	61	5221
2026-01-08 11:48:23.08	321.24	9.45	-44.7	-48.0	15.9	0.00e+00	0	44	0	970981376	61	5104
2026-01-08 11:48:23.80	321.33	9.41	-44.9	-48.2	15.7	0.00e+00	0	44	0	973078528	61	5221
2026-01-08 11:48:25.15	321.49	9.33	-45.1	-48.4	15.4	0.00e+00	0	44	0	975175680	61	5392
2026-01-08 11:48:25.87	321.58	9.29	-45.1	-48.6	15.3	0.00e+00	0	44	0	976224256	61	5495
2026-01-08 11:48:27.22	321.74	9.20	-45.3	-49.0	15.0	0.00e+00	0	44	0	979369984	61	5726
2026-01-08 11:48:27.94	321.83	9.16	-45.0	-48.6	15.3	0.00e+00	0	44	0	980418560	61	5481
2026-01-08 11:48:29.22	321.98	9.08	-45.0	-48.8	15.2	0.00e+00	0	44	0	982515712	61	5598
2026-01-08 11:48:29.94	322.07	9.04	-45.0	-48.7	15.2	7.00e-07	0	44	0	984612864	61	5564
2026-01-08 11:48:31.23	322.22	8.96	-49.8	-65.4	3.8	1.03e-01	0	44	104	985661440	70	22716
2026-01-08 11:48:31.95	322.31	8.92	-50.0	-65.5	3.8	1.49e+00	0	44	104	985661440	70	22952
2026-01-08 11:48:33.24	322.46	8.84	-49.9	-65.8	3.8	1.49e+00	0	44	104	985661440	71	22348
2026-01-08 11:48:33.96	322.55	8.80	-50.2	-65.8	3.8	1.49e+00	0	44	104	985661440	71	22493
2026-01-08 11:48:35.25	322.70	8.72	-50.4	-65.9	3.8	1.49e+00	0	44	104	985661440	71	22661
2026-01-08 11:48:35.97	322.78	8.68	-50.1	-65.9	3.8	1.49e+00	0	44	104	985661440	71	22712
2026-01-08 11:48:37.26	322.93	8.60	-50.6	-65.9	3.8	1.49e+00	0	44	104	985661440	72	21484
2026-01-08 11:48:38.07	323.02	8.55	-50.5	-66.0	3.8	1.49e+00	0	44	104	985661440	72	21523
2026-01-08 11:48:39.22	323.16	8.48	-50.5	-66.0	3.8	1.49e+00	0	44	104	985661440	72	21570
2026-01-08 11:48:40.29	323.28	8.42	-50.5	-66.0	3.8	1.49e+00	0	44	104	985661440	72	21631
2026-01-08 11:48:41.32	323.40	8.36	-50.7	-66.0	3.8	1.49e+00	0	44	104	985661440	72	21557
2026-01-08 11:48:42.51	323.53	8.28	-50.5	-65.9	3.8	1.49e+00	0	44	104	985661440	72	21506
2026-01-08 11:48:43.40	323.63	8.23	-50.7	-66.0	3.9	1.49e+00	0	44	104	985661440	72	21624
2026-01-08 11:48:44.54	323.76	8.16	-50.8	-66.0	3.8	1.49e+00	0	44	104	985661440	72	21604
2026-01-08 11:48:45.41	323.86	8.11	-50.8	-66.0	3.8	1.49e+00	0	44	104	985661440	72	21591
2026-01-08 11:48:46.55	323.99	8.04	-50.7	-66.0	3.8	1.49e+00	0	44	104	985661440	72	21594
2026-01-08 11:48:47.41	324.08	7.99	-50.6	-66.0	3.8	1.49e+00	0	44	104	985661440	72	21585
2026-01-08 11:48:48.56	324.21	7.92	-50.6	-66.0	3.8	1.49e+00	0	44	104	985661440	72	21583
2026-01-08 11:48:49.42	324.31	7.87	-50.6	-66.0	3.8	1.49e+00	0	44	104	985661440	72	21522
2026-01-08 11:48:50.57	324.43	7.80	-50.4	-65.9	3.8	1.49e+00	0	44	104	985661440	72	21482
2026-01-08 11:48:51.43	324.53	7.75	-50.2	-66.0	3.8	1.49e+00	0	44	104	985661440	72	21529
2026-01-08 11:48:52.58	324.65	7.68	-50.2	-65.9	3.8	1.49e+00	0	44	104	985661440	72	21422
2026-01-08 11:48:53.44	324.75	7.63	-50.2	-65.9	3.8	1.49e+00	0	44	104	985661440	72	21380
2026-01-08 11:48:54.59	324.87	7.57	-50.2	-65.9	3.8	1.49e+00	0	44	104	985661440	72	21428
2026-01-08 11:48:55.44	324.96	7.52	-50.2	-65.9	3.8	1.49e+00	0	44	104	985661440	72	21416
2026-01-08 11:48:56.59	325.09	7.45	-50.2	-65.9	3.8	1.49e+00	0	44	104	985661440	72	21426
2026-01-08 11:48:57.45	325.18	7.40	-50.2	-65.9	3.8	1.49e+00	0	44	104	985661440	72	21453
2026-01-08 11:48:58.60	325.30	7.33	-50.2	-65.9	3.8	1.49e+00	0	44	104	985661440	72	21420
2026-01-08 11:48:59.46	325.39	7.28	-50.2	-65.9	3.8	1.49e+00	0	44	104	985661440	72	21426
2026-01-08 11:49:00.61	325.52	7.21	-50.3	-65.9	3.8	1.49e+00	0	44	104	985661440	72	21471
2026-01-08 11:49:01.47	325.61	7.16	-50.2	-65.9	3.8	1.49e+00	0	44	104	985661440	72	21499
2026-01-08 11:49:02.62	325.73	7.09	-50.2	-65.9	3.8	1.49e+00	0	44	104	985661440	72	21461
2026-01-08 11:49:03.48	325.82	7.04	-50.2	-65.9	3.8	1.49e+00	0	44	104	985661440	72	21426
2026-01-08 11:49:04.63	325.94	6.97	-50.2	-65.9	3.8	1.49e+00	0	44	104	985661440	72	21506
2026-01-08 11:49:05.49	326.03	6.92	-50.2	-65.9	3.8	1.49e+00	0	44	104	985661440	72	21405
2026-01-08 11:49:06.63	326.14	6.86	-50.2	-65.9	3.8	1.49e+00	0	44	104	985661440	72	21368
2026-01-08 11:49:07.50	326.23	6.81	-50.2	-65.9	3.8	1.49e+00	0	44	104	985661440	72	21427
2026-01-08 11:49:08.64	326.35	6.74	-50.2	-66.0	3.8	1.49e+00	0	44	104	985661440	72	21521
2026-01-08 11:49:09.50	326.44	6.69	-50.2	-65.9	3.8	1.49e+00	0	44	104	985661440	72	21396
2026-01-08 11:49:10.65	326.56	6.62	-50.2	-65.9	3.8	1.49e+00	0	44	104	985661440	72	21441
2026-01-08 11:49:11.51	326.64	6.57	-50.2	-65.9	3.8	1.49e+00	0	44	104	985661440	72	21483
2026-01-08 11:49:12.66	326.76	6.51	-50.2	-65.9	3.8	1.49e+00	0	44	104	985661440	72	21382
2026-01-08 11:49:13.52	326.85	6.46	-50.2	-65.9	3.8	1.49e+00	0	44	104	985661440	72	21481
2026-01-08 11:49:14.67	326.96	6.39	-50.2	-65.9	3.8	1.49e+00	0	44	104	985661440	72	21434
2026-01-08 11:49:15.53	327.05	6.34	-50.2	-65.9	3.8	1.49e+00	0	44	104	985661440	72	21431
2026-01-08 11:49:16.68	327.16	6.27	-50.2	-65.9	3.8	1.49e+00	0	44	104	985661440	72	21381
2026-01-08 11:49:17.54	327.25	6.22	-50.2	-65.9	3.8	1.49e+00	0	44	104	985661440	72	21474
2026-01-08 11:49:18.68	327.36	6.16	-50.2	-65.9	3.8	1.49e+00	0	44	104	985661440	72	21471
2026-01-08 11:49:19.55	327.45	6.11	-50.2	-65.9	3.8	1.49e+00	0	44	104	985661440	72	21336
2026-01-08 11:49:20.69	327.56	6.04	-50.2	-66.0	3.8	1.49e+00	0	44	104	985661440	72	21507
2026-01-08 11:49:21.55	327.64	5.99	-50.2	-65.9	3.8	1.49e+00	0	44	104	985661440	72	21395
2026-01-08 11:49:22.70	327.76	5.92	-50.2	-65.9	3.8	1.49e+00	0	44	104	985661440	72	21459
2026-01-08 11:49:23.56	327.84	5.88	-50.2	-65.9	3.8	1.49e+00	0	44	104	985661440	72	21443
2026-01-08 11:49:24.71	327.95	5.81	-50.2	-65.9	3.8	1.49e+00	0	44	104	985661440	72	21425
2026-01-08 11:49:25.57	328.03	5.76	-50.2	-65.9	3.8	1.49e+00	0	44	104	985661440	72	21396
2026-01-08 11:49:26.72	328.14	5.69	-50.2	-66.0	3.8	1.49e+00	0	44	104	985661440	72	21511
2026-01-08 11:49:27.58	328.23	5.64	-50.2	-65.9	3.8	1.49e+00	0	44	104	985661440	72	21436
2026-01-08 11:49:28.73	328.34	5.58	-50.2	-65.9	3.8	1.49e+00	0	44	104	985661440	72	21403
2026-01-08 11:49:29.59	328.42	5.53	-50.2	-66.0	3.8	1.49e+00	0	44	104	985661440	72	21532
2026-01-08 11:49:30.74	328.53	5.46	-50.2	-65.9	3.8	1.49e+00	0	44	104	985661440	72	21429
2026-01-08 11:49:31.60	328.61	5.42	-50.2	-65.9	3.8	1.49e+00	0	44	104	985661440	72	21400
2026-01-08 11:49:32.74	328.71	5.35	-50.2	-65.9	3.8	1.49e+00	0	44	104	985661440	72	21375
2026-01-08 11:49:33.61	328.80	5.30	-50.2	-65.9	3.8	1.49e+00	0	44	104	985661440	72	21433
2026-01-08 11:49:34.75	328.90	5.24	-50.2	-65.9	3.8	1.49e+00	0	44	104	985661440	72	21409
2026-01-08 11:49:35.61	328.98	5.19	-50.2	-65.9	3.8	1.49e+00	0	44	104	985661440	72	21356
2026-01-08 11:49:36.76	329.09	5.12	-50.2	-65.9	3.8	1.49e+00	0	44	104	985661440	72	21448
2026-01-08 11:49:37.62	329.17	5.07	-50.2	-65.9	3.8	1.49e+00	0	44	104	985661440	72	21475
2026-01-08 11:49:38.77	329.27	5.01	-50.2	-65.9	3.8	1.49e+00	0	44	104	985661440	72	21465
2026-01-08 11:49:39.63	329.35	4.96	-50.2	-65.9	3.8	1.49e+00	0	44	104	985661440	72	21384

#Closed at: 2026-01-08 11:49:40
#Recorded file [985 MB]: D:/Data/31040_260108_143852.dat