passes_logs/2026/01/08/T1/T1__20260108_123735_FENGYUN_3D_rec.log

#Pass ID: 20260108_123735_FENGYUN 3D
#Satellite: FENGYUN 3D
#Configuration: FENGYUN 3D
#almurnet v.1.7.20251203
#Start time: 2026-01-08 12:37:37

#Version: 2.0.20230620
#Station: T1
#Location: 37.570604 lon 55.790049 lat
#TLE: 1 43010U 17072A   26006.26440730  .00000376  00000+0  19957-3 0  9994
#TLE: 2 43010  98.9925 337.9455 0002045 123.9195 236.2175 14.19693586422016

#Time	Az	El	Level	Level2	SNR	BER	BlckErr	Temp	State	Recorded	gain1	gain2
2026-01-08 12:37:37.04	181.30	5.10	-49.1	-61.8	3.8	8.47e-01	0	38	0	0	70	14952
2026-01-08 12:37:38.04	181.34	5.17	-49.1	-61.7	3.8	8.47e-01	0	39	104	0	69	15619
2026-01-08 12:37:39.05	181.38	5.24	-49.1	-61.7	3.8	8.47e-01	0	38	104	0	69	15719
2026-01-08 12:37:40.05	181.42	5.31	-49.1	-61.8	3.8	8.47e-01	0	39	104	0	69	15798
2026-01-08 12:37:41.06	181.46	5.38	-49.1	-61.8	3.8	8.47e-01	0	39	104	0	69	15917
2026-01-08 12:37:42.06	181.50	5.45	-49.1	-62.0	3.8	8.47e-01	0	39	104	0	69	16172
2026-01-08 12:37:43.07	181.54	5.53	-49.1	-62.0	3.8	8.47e-01	0	38	104	0	69	16187
2026-01-08 12:37:44.07	181.58	5.60	-49.1	-62.0	3.8	8.47e-01	0	39	104	0	69	16253
2026-01-08 12:37:45.08	181.62	5.67	-49.1	-62.0	3.8	8.46e-01	0	39	104	0	69	16268
2026-01-08 12:37:46.08	181.66	5.74	-49.2	-62.0	3.8	8.47e-01	0	39	104	0	69	16302
2026-01-08 12:37:47.08	181.70	5.81	-49.1	-62.0	3.8	8.47e-01	0	38	104	0	69	16185
2026-01-08 12:37:48.09	181.74	5.88	-49.1	-61.9	3.8	8.47e-01	0	39	104	0	69	16078
2026-01-08 12:37:49.09	181.78	5.95	-49.1	-61.8	3.8	8.47e-01	0	39	104	0	69	15908
2026-01-08 12:37:50.10	181.83	6.03	-49.1	-61.8	3.8	8.47e-01	0	39	104	0	69	15911
2026-01-08 12:37:51.10	181.87	6.10	-49.1	-61.9	3.8	8.47e-01	0	39	104	0	69	16085
2026-01-08 12:37:52.11	181.91	6.17	-49.1	-62.0	3.8	8.47e-01	0	39	104	0	69	16172
2026-01-08 12:37:53.11	181.95	6.25	-49.1	-62.0	3.8	8.47e-01	0	39	104	0	69	16260
2026-01-08 12:37:54.11	181.99	6.32	-49.1	-62.0	3.8	8.46e-01	0	39	104	0	69	16176
2026-01-08 12:37:55.56	182.06	6.42	-49.0	-61.5	3.8	8.47e-01	0	39	104	0	69	15240
2026-01-08 12:37:56.28	182.09	6.48	-49.1	-61.1	3.8	8.47e-01	0	39	104	0	69	14599
2026-01-08 12:37:57.57	182.14	6.57	-49.0	-60.1	3.8	8.46e-01	0	39	104	0	69	13063
2026-01-08 12:37:58.29	182.17	6.62	-48.9	-59.7	3.8	8.45e-01	0	39	104	0	69	12442
2026-01-08 12:37:59.58	182.23	6.72	-48.8	-58.9	4.1	8.43e-01	0	39	0	0	69	11371
2026-01-08 12:38:00.34	182.26	6.78	-48.8	-58.9	4.1	8.42e-01	0	39	0	0	69	11415
2026-01-08 12:38:01.62	182.32	6.87	-48.8	-59.0	4.0	8.41e-01	0	39	0	0	69	11528
2026-01-08 12:38:02.34	182.35	6.92	-48.8	-59.5	4.0	8.44e-01	0	39	104	0	69	12139
2026-01-08 12:38:03.63	182.41	7.02	-49.0	-60.6	3.8	8.46e-01	0	39	104	0	69	13749
2026-01-08 12:38:04.35	182.44	7.07	-49.0	-61.0	3.8	8.48e-01	0	39	104	0	69	14400
2026-01-08 12:38:05.72	182.50	7.18	-48.9	-59.4	3.9	8.45e-01	0	39	104	0	69	11977
2026-01-08 12:38:06.44	182.53	7.23	-48.6	-57.7	4.4	8.35e-01	0	39	0	0	69	9932
2026-01-08 12:38:07.79	182.59	7.33	-47.5	-53.7	6.9	3.30e-01	0	39	0	3145728	67	6970
2026-01-08 12:38:08.51	182.63	7.39	-46.8	-51.8	8.6	7.25e-02	0	39	0	7340032	65	6336
2026-01-08 12:38:09.80	182.68	7.49	-45.6	-49.4	11.3	3.82e-03	0	39	0	14680064	63	5373
2026-01-08 12:38:10.52	182.72	7.54	-44.7	-48.1	12.6	2.86e-04	0	39	0	18874368	61	5189
2026-01-08 12:38:11.81	182.78	7.64	-43.5	-46.3	14.3	3.40e-06	0	39	0	26214400	59	4753
2026-01-08 12:38:12.53	182.81	7.69	-42.9	-45.6	15.1	1.10e-06	0	39	0	29360128	57	4881
2026-01-08 12:38:13.82	182.87	7.79	-42.1	-44.6	16.0	0.00e+00	0	39	0	36700160	56	4625
2026-01-08 12:38:14.54	182.90	7.85	-41.6	-44.0	16.4	0.00e+00	0	40	0	40894464	55	4580
2026-01-08 12:38:15.83	182.96	7.95	-41.3	-43.6	16.8	0.00e+00	0	39	0	48234496	54	4625
2026-01-08 12:38:16.54	183.00	8.00	-41.2	-43.5	16.9	0.00e+00	0	39	0	52428800	54	4586
2026-01-08 12:38:17.84	183.06	8.10	-41.2	-43.5	16.9	0.00e+00	0	40	0	59768832	54	4571
2026-01-08 12:38:18.55	183.09	8.16	-41.3	-43.6	16.8	0.00e+00	0	39	0	63963136	54	4624
2026-01-08 12:38:19.85	183.15	8.26	-41.9	-44.4	16.0	0.00e+00	0	40	0	71303168	54	5068
2026-01-08 12:38:20.56	183.19	8.32	-42.2	-44.7	15.8	0.00e+00	0	39	0	75497472	54	5239
2026-01-08 12:38:21.85	183.25	8.42	-43.3	-46.0	14.6	0.00e+00	0	40	0	82837504	57	5157
2026-01-08 12:38:22.57	183.29	8.47	-43.8	-46.8	13.9	1.10e-06	0	39	0	85983232	58	5320
2026-01-08 12:38:23.86	183.35	8.58	-44.7	-48.1	12.5	1.11e-04	0	40	0	93323264	60	5526
2026-01-08 12:38:24.58	183.38	8.63	-45.2	-48.9	11.8	4.36e-04	0	40	0	97517568	61	5678
2026-01-08 12:38:25.87	183.45	8.74	-46.2	-50.6	10.0	4.89e-03	0	40	0	104857600	63	6167
2026-01-08 12:38:26.59	183.48	8.79	-46.7	-51.5	9.0	2.20e-02	0	40	0	109051904	63	6872
2026-01-08 12:38:27.88	183.55	8.90	-47.3	-53.2	7.3	9.50e-02	0	40	0	116391936	65	7372
2026-01-08 12:38:28.59	183.58	8.95	-47.6	-54.1	6.5	2.06e-01	0	40	0	120586240	65	8178
2026-01-08 12:38:29.88	183.65	9.06	-48.0	-55.7	5.4	6.17e-01	0	40	0	125829120	66	9283
2026-01-08 12:38:30.60	183.68	9.12	-48.1	-55.9	5.2	7.38e-01	0	40	0	126877696	66	9582
2026-01-08 12:38:31.89	183.75	9.22	-45.5	-49.2	11.4	6.80e-02	0	40	0	131072000	63	5266
2026-01-08 12:38:32.70	183.79	9.29	-48.4	-57.5	4.5	3.43e-01	0	40	0	134217728	67	10829
2026-01-08 12:38:33.85	183.85	9.38	-47.4	-53.3	7.2	4.09e-01	0	40	0	136314880	66	7114
2026-01-08 12:38:34.71	183.89	9.45	-44.6	-47.9	12.8	7.79e-03	0	40	0	141557760	61	5089
2026-01-08 12:38:35.85	183.95	9.54	-44.6	-47.8	12.9	9.04e-05	0	40	0	147849216	61	5015
2026-01-08 12:38:36.71	184.00	9.61	-44.2	-47.3	13.4	5.72e-05	0	40	0	153092096	60	5026
2026-01-08 12:38:37.86	184.06	9.71	-43.6	-46.4	14.3	1.60e-05	0	39	0	159383552	59	4760
2026-01-08 12:38:38.72	184.10	9.78	-43.6	-46.4	14.3	1.10e-06	0	40	0	163577856	58	5091
2026-01-08 12:38:39.86	184.17	9.87	-43.7	-46.5	14.3	5.70e-06	0	40	0	169869312	58	5123
2026-01-08 12:38:40.72	184.21	9.95	-43.6	-46.4	14.3	1.10e-06	0	40	0	175112192	58	5050
2026-01-08 12:38:42.03	184.28	10.06	-43.8	-46.7	14.0	1.14e-05	0	40	0	182452224	59	4972
2026-01-08 12:38:42.74	184.32	10.11	-44.1	-47.2	13.6	2.20e-06	0	40	0	186646528	59	5221
2026-01-08 12:38:44.24	184.40	10.24	-44.1	-47.0	13.7	1.71e-05	0	40	0	195035136	59	5151
2026-01-08 12:38:44.96	184.44	10.30	-43.2	-45.9	14.8	2.20e-06	0	40	0	199229440	58	4814
2026-01-08 12:38:46.25	184.51	10.41	-41.6	-44.0	16.5	0.00e+00	0	40	0	206569472	55	4569
2026-01-08 12:38:46.96	184.55	10.47	-41.2	-43.5	17.0	0.00e+00	0	40	0	210763776	54	4575
2026-01-08 12:38:48.25	184.62	10.58	-40.7	-42.8	17.6	0.00e+00	0	40	0	218103808	53	4487
2026-01-08 12:38:48.97	184.66	10.64	-40.3	-42.4	18.0	0.00e+00	0	40	0	221249536	52	4513
2026-01-08 12:38:50.26	184.73	10.75	-39.9	-42.0	18.4	0.00e+00	0	40	0	228589568	51	4581
2026-01-08 12:38:50.97	184.77	10.81	-39.8	-41.9	18.5	0.00e+00	0	40	0	232783872	51	4497
2026-01-08 12:38:52.26	184.85	10.93	-39.9	-41.9	18.4	0.00e+00	0	40	0	240123904	51	4543
2026-01-08 12:38:52.98	184.89	10.99	-39.8	-41.8	18.5	0.00e+00	0	40	0	244318208	51	4493
2026-01-08 12:38:54.27	184.96	11.10	-39.8	-41.8	18.4	0.00e+00	0	40	0	251658240	51	4487
2026-01-08 12:38:55.11	185.01	11.17	-39.8	-41.9	18.3	0.00e+00	0	40	0	255852544	51	4508
2026-01-08 12:38:56.26	185.08	11.27	-39.9	-41.9	18.2	0.00e+00	0	40	0	262144000	51	4531
2026-01-08 12:38:57.33	185.14	11.37	-39.8	-41.8	18.4	0.00e+00	0	40	0	268435456	51	4479
2026-01-08 12:38:58.36	185.20	11.46	-39.8	-41.8	18.4	0.00e+00	0	40	0	274726912	51	4471
2026-01-08 12:38:59.52	185.27	11.56	-39.9	-41.9	18.4	0.00e+00	0	40	0	281018368	51	4545
2026-01-08 12:39:00.38	185.32	11.64	-39.8	-41.9	18.5	0.00e+00	0	40	0	285212672	51	4509
2026-01-08 12:39:01.53	185.39	11.74	-39.8	-41.8	18.5	0.00e+00	0	40	0	292552704	51	4483
2026-01-08 12:39:02.38	185.44	11.82	-39.8	-41.9	18.5	0.00e+00	0	40	0	296747008	51	4494
2026-01-08 12:39:03.53	185.51	11.92	-39.8	-41.9	18.5	0.00e+00	0	40	0	303038464	51	4506
2026-01-08 12:39:04.39	185.56	12.00	-39.7	-41.8	18.5	0.00e+00	0	40	0	308281344	51	4455
2026-01-08 12:39:05.54	185.63	12.10	-39.6	-41.7	18.7	0.00e+00	0	40	0	314572800	51	4394
2026-01-08 12:39:06.40	185.69	12.18	-39.7	-41.7	18.7	0.00e+00	0	40	0	319815680	51	4414
2026-01-08 12:39:07.55	185.76	12.28	-39.6	-41.6	18.7	0.00e+00	0	40	0	326107136	51	4364
2026-01-08 12:39:08.40	185.81	12.36	-39.5	-41.5	18.8	0.00e+00	0	40	0	331350016	50	4552
2026-01-08 12:39:09.55	185.88	12.46	-39.5	-41.5	18.8	0.00e+00	0	40	0	337641472	50	4597
2026-01-08 12:39:10.41	185.94	12.54	-39.4	-41.4	18.9	0.00e+00	0	40	0	341835776	50	4523
2026-01-08 12:39:11.56	186.01	12.65	-39.4	-41.4	18.9	0.00e+00	0	40	0	349175808	50	4510
2026-01-08 12:39:12.42	186.06	12.73	-39.4	-41.4	19.0	0.00e+00	0	40	0	353370112	50	4498
2026-01-08 12:39:13.56	186.14	12.83	-39.3	-41.2	19.1	0.00e+00	0	40	0	359661568	50	4439
2026-01-08 12:39:14.42	186.19	12.91	-39.3	-41.3	19.0	0.00e+00	0	40	0	364904448	50	4464
2026-01-08 12:39:15.57	186.27	13.02	-39.5	-41.5	18.8	0.00e+00	0	40	0	371195904	50	4546
2026-01-08 12:39:16.43	186.32	13.10	-39.4	-41.3	19.0	0.00e+00	0	40	0	376438784	50	4487
2026-01-08 12:39:17.58	186.40	13.21	-39.4	-41.3	19.0	0.00e+00	0	40	0	382730240	50	4480
2026-01-08 12:39:18.71	186.47	13.32	-39.2	-41.1	19.2	0.00e+00	0	40	0	389021696	50	4384
2026-01-08 12:39:19.74	186.54	13.41	-39.3	-41.3	19.1	0.00e+00	0	40	0	395313152	50	4450
2026-01-08 12:39:20.95	186.62	13.53	-39.2	-41.2	19.2	0.00e+00	0	40	0	401604608	50	4421
2026-01-08 12:39:21.84	186.68	13.61	-39.3	-41.3	19.1	0.00e+00	0	40	0	406847488	50	4464
2026-01-08 12:39:23.06	186.77	13.73	-39.2	-41.2	19.2	0.00e+00	0	40	0	413138944	50	4398
2026-01-08 12:39:23.92	186.83	13.81	-39.2	-41.1	19.3	0.00e+00	0	40	0	418381824	50	4378
2026-01-08 12:39:25.07	186.91	13.93	-39.2	-41.2	19.2	0.00e+00	0	40	0	424673280	50	4408
2026-01-08 12:39:25.93	186.97	14.01	-39.1	-41.1	19.3	0.00e+00	0	40	0	429916160	50	4367
2026-01-08 12:39:27.08	187.05	14.12	-39.2	-41.2	19.2	0.00e+00	0	40	0	436207616	50	4414
2026-01-08 12:39:28.10	187.12	14.22	-39.0	-41.0	19.3	0.00e+00	0	40	0	441450496	50	4302
2026-01-08 12:39:29.28	187.20	14.34	-38.9	-40.8	19.4	0.00e+00	0	40	0	447741952	49	4472
2026-01-08 12:39:30.14	187.26	14.42	-38.8	-40.8	19.5	0.00e+00	0	40	0	452984832	49	4444
2026-01-08 12:39:31.51	187.36	14.56	-38.8	-40.7	19.7	0.00e+00	0	40	0	461373440	49	4407
2026-01-08 12:39:32.22	187.41	14.63	-38.8	-40.8	19.6	0.00e+00	0	40	0	464519168	49	4452
2026-01-08 12:39:33.51	187.50	14.76	-38.7	-40.7	19.7	0.00e+00	0	40	0	471859200	49	4392
2026-01-08 12:39:34.23	187.56	14.83	-38.8	-40.7	19.7	0.00e+00	0	40	0	476053504	49	4406
2026-01-08 12:39:35.52	187.65	14.96	-38.8	-40.7	19.6	0.00e+00	0	40	0	483393536	49	4434
2026-01-08 12:39:36.24	187.71	15.03	-38.8	-40.7	19.6	0.00e+00	0	40	0	487587840	49	4440
2026-01-08 12:39:37.83	187.82	15.19	-38.7	-40.7	19.7	0.00e+00	0	40	0	495976448	49	4408
2026-01-08 12:39:38.40	187.87	15.25	-38.8	-40.8	19.6	0.00e+00	0	40	0	500170752	49	4462
2026-01-08 12:39:39.98	187.99	15.41	-38.8	-40.7	19.6	0.00e+00	0	40	0	508559360	49	4439
2026-01-08 12:39:40.56	188.03	15.47	-38.7	-40.7	19.7	0.00e+00	0	40	0	511705088	49	4392
2026-01-08 12:39:42.15	188.15	15.63	-38.6	-40.5	19.9	0.00e+00	0	40	0	521142272	49	4302
2026-01-08 12:39:42.72	188.20	15.69	-38.6	-40.5	19.8	0.00e+00	0	40	0	524288000	49	4335
2026-01-08 12:39:44.30	188.32	15.85	-38.6	-40.5	19.8	0.00e+00	0	40	0	532676608	49	4333
2026-01-08 12:39:45.01	188.37	15.93	-38.5	-40.4	19.9	0.00e+00	0	40	0	536870912	49	4289
2026-01-08 12:39:46.30	188.48	16.06	-38.5	-40.4	20.0	0.00e+00	0	40	0	544210944	48	4494
2026-01-08 12:39:47.16	188.54	16.15	-38.5	-40.4	19.9	0.00e+00	0	40	0	549453824	48	4511
2026-01-08 12:39:48.63	188.66	16.31	-38.4	-40.3	20.1	0.00e+00	0	40	0	556793856	48	4444
2026-01-08 12:39:49.35	188.72	16.38	-38.3	-40.2	20.1	0.00e+00	0	40	0	560988160	48	4418
2026-01-08 12:39:50.83	188.84	16.54	-38.3	-40.2	20.1	0.00e+00	0	40	0	569376768	48	4421
2026-01-08 12:39:51.54	188.90	16.62	-38.4	-40.3	20.1	0.00e+00	0	40	0	573571072	48	4443
2026-01-08 12:39:52.83	189.01	16.76	-38.3	-40.2	20.1	0.00e+00	0	40	0	580911104	48	4426
2026-01-08 12:39:53.55	189.07	16.83	-38.4	-40.3	20.1	0.00e+00	0	40	0	585105408	48	4452
2026-01-08 12:39:54.84	189.17	16.97	-38.4	-40.3	20.0	0.00e+00	0	40	0	592445440	48	4460
2026-01-08 12:39:55.56	189.23	17.05	-38.4	-40.3	20.0	0.00e+00	0	40	0	596639744	48	4480
2026-01-08 12:39:56.85	189.34	17.19	-38.3	-40.1	20.2	0.00e+00	0	40	0	603979776	48	4380
2026-01-08 12:39:57.56	189.40	17.27	-38.3	-40.1	20.2	0.00e+00	0	40	0	607125504	48	4383
2026-01-08 12:39:58.85	189.51	17.41	-38.1	-40.0	20.3	0.00e+00	0	40	0	614465536	48	4319
2026-01-08 12:39:59.57	189.58	17.49	-38.1	-40.0	20.3	0.00e+00	0	40	0	618659840	48	4323
2026-01-08 12:40:00.86	189.69	17.63	-38.0	-39.9	20.4	0.00e+00	0	40	0	625999872	48	4255
2026-01-08 12:40:01.67	189.76	17.72	-37.8	-39.7	20.4	0.00e+00	0	40	0	630194176	47	4408
2026-01-08 12:40:02.81	189.86	17.85	-37.9	-39.8	20.3	0.00e+00	0	40	0	636485632	47	4456
2026-01-08 12:40:03.67	189.94	17.95	-37.8	-39.6	20.4	0.00e+00	0	40	0	641728512	47	4384
2026-01-08 12:40:05.20	190.08	18.12	-37.6	-39.5	20.5	0.00e+00	0	40	0	650117120	47	4296
2026-01-08 12:40:05.92	190.14	18.20	-37.7	-39.5	20.5	0.00e+00	0	40	0	654311424	47	4320
2026-01-08 12:40:07.20	190.26	18.34	-37.6	-39.4	20.6	0.00e+00	0	40	0	661651456	47	4285
2026-01-08 12:40:07.92	190.32	18.43	-37.6	-39.4	20.6	0.00e+00	0	40	0	665845760	47	4273
2026-01-08 12:40:09.21	190.44	18.57	-37.6	-39.5	20.6	0.00e+00	0	40	0	673185792	47	4294
2026-01-08 12:40:09.96	190.51	18.66	-37.7	-39.5	20.5	0.00e+00	0	40	0	677380096	47	4339
2026-01-08 12:40:11.25	190.63	18.81	-37.8	-39.7	20.4	0.00e+00	0	40	0	684720128	47	4401
2026-01-08 12:40:12.05	190.71	18.90	-37.8	-39.6	20.4	0.00e+00	0	40	0	688914432	47	4383
2026-01-08 12:40:13.20	190.82	19.03	-37.8	-39.7	20.4	0.00e+00	0	40	0	695205888	47	4402
2026-01-08 12:40:14.06	190.90	19.13	-37.8	-39.7	20.3	0.00e+00	0	40	0	700448768	47	4427
2026-01-08 12:40:15.59	191.05	19.31	-37.8	-39.7	20.4	0.00e+00	0	40	0	708837376	47	4400
2026-01-08 12:40:16.30	191.12	19.40	-37.8	-39.7	20.4	0.00e+00	0	40	0	713031680	47	4411
2026-01-08 12:40:17.59	191.25	19.55	-37.9	-39.7	20.3	0.00e+00	0	40	0	720371712	47	4435
2026-01-08 12:40:18.31	191.32	19.64	-37.8	-39.6	20.4	0.00e+00	0	40	0	724566016	47	4383
2026-01-08 12:40:19.60	191.45	19.79	-37.7	-39.5	20.5	0.00e+00	0	40	0	731906048	47	4335
2026-01-08 12:40:20.36	191.52	19.88	-37.8	-39.6	20.4	0.00e+00	0	40	0	736100352	47	4377
2026-01-08 12:40:21.65	191.65	20.04	-37.6	-39.4	20.6	0.00e+00	0	40	0	743440384	47	4277
2026-01-08 12:40:22.37	191.73	20.12	-37.6	-39.5	20.6	0.00e+00	0	40	0	746586112	47	4298
2026-01-08 12:40:23.66	191.86	20.28	-37.5	-39.4	20.6	0.00e+00	0	40	0	753926144	47	4266
2026-01-08 12:40:24.37	191.93	20.37	-37.5	-39.3	20.7	0.00e+00	0	40	0	758120448	46	4471
2026-01-08 12:40:25.67	192.07	20.53	-37.5	-39.3	20.7	0.00e+00	0	40	0	765460480	46	4489
2026-01-08 12:40:26.57	192.16	20.64	-37.5	-39.3	20.7	0.00e+00	0	40	0	770703360	46	4469
2026-01-08 12:40:27.57	192.27	20.76	-37.3	-39.1	20.8	0.00e+00	0	40	0	775946240	46	4390
2026-01-08 12:40:28.58	192.38	20.88	-37.1	-38.9	21.0	0.00e+00	0	40	0	782237696	46	4286
2026-01-08 12:40:29.96	192.53	21.06	-37.1	-38.9	21.1	0.00e+00	0	40	0	789577728	46	4271
2026-01-08 12:40:30.71	192.61	21.15	-37.1	-38.9	21.1	0.00e+00	0	40	0	793772032	46	4261
2026-01-08 12:40:32.01	192.75	21.31	-37.2	-39.0	21.0	0.00e+00	0	40	0	801112064	46	4308
2026-01-08 12:40:32.72	192.83	21.40	-37.2	-39.0	21.0	0.00e+00	0	40	0	805306368	46	4329
2026-01-08 12:40:34.01	192.97	21.57	-37.1	-38.8	21.1	0.00e+00	0	40	0	812646400	46	4240
2026-01-08 12:40:34.73	193.06	21.66	-37.1	-38.8	21.1	0.00e+00	0	40	0	816840704	46	4234
2026-01-08 12:40:36.01	193.20	21.82	-37.1	-38.8	21.1	0.00e+00	0	40	0	824180736	46	4242
2026-01-08 12:40:36.73	193.28	21.91	-37.0	-38.7	21.2	0.00e+00	0	40	0	827326464	45	4433
2026-01-08 12:40:38.08	193.44	22.09	-37.1	-38.8	21.1	0.00e+00	0	41	0	835715072	45	4490
2026-01-08 12:40:39.05	193.55	22.21	-37.1	-38.9	21.1	0.00e+00	0	40	0	840957952	45	4514
2026-01-08 12:40:40.38	193.71	22.39	-37.1	-38.9	21.1	0.00e+00	0	40	0	848297984	45	4540
2026-01-08 12:40:41.09	193.79	22.48	-37.2	-39.0	21.0	0.00e+00	0	40	0	852492288	45	4547
2026-01-08 12:40:42.73	193.99	22.69	-37.1	-38.9	21.0	0.00e+00	0	40	0	861929472	45	4538
2026-01-08 12:40:43.30	194.06	22.77	-37.1	-38.9	21.0	0.00e+00	0	40	0	865075200	45	4529
2026-01-08 12:40:44.89	194.25	22.98	-37.0	-38.8	21.2	0.00e+00	0	40	0	873463808	45	4462
2026-01-08 12:40:45.47	194.32	23.06	-37.0	-38.8	21.1	0.00e+00	0	40	0	876609536	45	4472
2026-01-08 12:40:47.04	194.52	23.27	-36.9	-38.7	21.2	0.00e+00	0	40	0	886046720	45	4431
2026-01-08 12:40:47.66	194.59	23.35	-36.9	-38.7	21.2	0.00e+00	0	40	0	889192448	45	4406
2026-01-08 12:40:49.24	194.79	23.56	-37.0	-38.8	21.1	0.00e+00	0	40	0	897581056	45	4475
2026-01-08 12:40:49.83	194.87	23.64	-36.9	-38.7	21.2	0.00e+00	0	40	0	901775360	45	4411
2026-01-08 12:40:51.40	195.07	23.86	-36.9	-38.7	21.2	0.00e+00	0	40	0	910163968	45	4426
2026-01-08 12:40:51.99	195.15	23.94	-36.9	-38.7	21.3	0.00e+00	0	40	0	913309696	45	4398
2026-01-08 12:40:53.57	195.35	24.15	-36.6	-38.4	21.5	0.00e+00	0	40	0	922746880	45	4274
2026-01-08 12:40:54.16	195.43	24.24	-36.6	-38.4	21.5	0.00e+00	0	40	0	925892608	45	4261
2026-01-08 12:40:55.74	195.64	24.45	-36.7	-38.4	21.5	0.00e+00	0	40	0	934281216	45	4283
2026-01-08 12:40:56.34	195.72	24.54	-36.7	-38.4	21.4	0.00e+00	0	40	0	937426944	45	4288
2026-01-08 12:40:58.06	195.96	24.78	-36.8	-38.6	21.3	0.00e+00	0	40	0	947912704	45	4358
2026-01-08 12:40:58.63	196.03	24.86	-36.9	-38.7	21.2	0.00e+00	0	40	0	951058432	45	4423
2026-01-08 12:41:00.21	196.25	25.08	-36.7	-38.5	21.4	0.00e+00	0	40	0	959447040	45	4304
2026-01-08 12:41:00.78	196.33	25.16	-36.7	-38.5	21.4	0.00e+00	0	40	0	962592768	45	4325
2026-01-08 12:41:02.36	196.56	25.39	-36.9	-38.6	21.3	0.00e+00	0	40	0	972029952	45	4384
2026-01-08 12:41:02.95	196.64	25.47	-36.8	-38.6	21.3	0.00e+00	0	40	0	975175680	45	4363
2026-01-08 12:41:04.53	196.87	25.70	-36.9	-38.7	21.2	0.00e+00	0	40	0	983564288	45	4405
2026-01-08 12:41:05.10	196.95	25.78	-36.7	-38.5	21.4	0.00e+00	0	40	0	987758592	45	4303
2026-01-08 12:41:06.87	197.21	26.04	-36.5	-38.3	21.6	0.00e+00	0	40	0	997195776	45	4203
2026-01-08 12:41:07.44	197.29	26.12	-36.6	-38.4	21.4	0.00e+00	0	40	0	1000341504	45	4261
2026-01-08 12:41:09.03	197.53	26.35	-36.6	-38.4	21.5	0.00e+00	0	40	0	1009778688	45	4246
2026-01-08 12:41:09.61	197.62	26.44	-36.7	-38.4	21.4	0.00e+00	0	40	0	1012924416	45	4276
2026-01-08 12:41:11.54	197.91	26.72	-36.5	-38.3	21.5	0.00e+00	0	40	0	1023410176	45	4224
2026-01-08 12:41:12.11	198.00	26.81	-36.5	-38.3	21.5	0.00e+00	0	40	0	1026555904	45	4218
2026-01-08 12:41:13.69	198.25	27.04	-36.5	-38.3	21.5	0.00e+00	0	40	0	1035993088	45	4220
2026-01-08 12:41:14.29	198.34	27.13	-36.6	-38.3	21.5	0.00e+00	0	40	0	1039138816	45	4235
2026-01-08 12:41:15.87	198.60	27.37	-36.6	-38.4	21.5	0.00e+00	0	40	0	1047527424	45	4257
2026-01-08 12:41:16.47	198.69	27.46	-36.6	-38.4	21.5	0.00e+00	0	40	0	1051721728	45	4265
2026-01-08 12:41:18.05	198.95	27.70	-36.6	-38.3	21.5	0.00e+00	0	40	0	1060110336	45	4241
2026-01-08 12:41:18.62	199.04	27.79	-36.5	-38.2	21.6	0.00e+00	0	40	0	1063256064	45	4189
2026-01-08 12:41:20.36	199.33	28.06	-36.3	-38.1	21.7	0.00e+00	0	40	0	1072693248	44	4364
2026-01-08 12:41:20.93	199.43	28.14	-36.3	-38.1	21.7	0.00e+00	0	40	0	1075838976	44	4362
2026-01-08 12:41:22.51	199.70	28.39	-36.3	-38.0	21.8	0.00e+00	0	40	0	1085276160	44	4327
2026-01-08 12:41:23.08	199.79	28.48	-36.3	-38.0	21.8	0.00e+00	0	40	0	1088421888	44	4317
2026-01-08 12:41:24.66	200.07	28.72	-36.3	-38.1	21.7	0.00e+00	0	40	0	1097859072	44	4350
2026-01-08 12:41:25.23	200.17	28.81	-36.4	-38.1	21.7	0.00e+00	0	40	0	1101004800	44	4373
2026-01-08 12:41:26.81	200.44	29.06	-36.5	-38.3	21.5	0.00e+00	0	40	0	1109393408	44	4465
2026-01-08 12:41:27.41	200.55	29.15	-36.6	-38.3	21.5	0.00e+00	0	40	0	1112539136	44	4489
2026-01-08 12:41:28.99	200.84	29.41	-36.6	-38.4	21.5	0.00e+00	0	40	0	1121976320	44	4498
2026-01-08 12:41:29.59	200.95	29.50	-36.4	-38.2	21.6	0.00e+00	0	40	0	1125122048	44	4413
2026-01-08 12:41:31.33	201.27	29.78	-36.4	-38.2	21.6	0.00e+00	0	40	0	1134559232	44	4420
2026-01-08 12:41:31.90	201.37	29.87	-36.5	-38.2	21.6	0.00e+00	0	40	0	1137704960	44	4435
2026-01-08 12:41:33.48	201.67	30.12	-36.3	-38.0	21.7	0.00e+00	0	40	0	1147142144	44	4337
2026-01-08 12:41:34.07	201.78	30.22	-36.3	-38.1	21.7	0.00e+00	0	40	0	1150287872	44	4352
2026-01-08 12:41:35.64	202.08	30.47	-36.4	-38.1	21.7	0.00e+00	0	40	0	1158676480	44	4365
2026-01-08 12:41:36.54	202.26	30.62	-36.2	-37.9	21.8	0.00e+00	0	40	0	1163919360	44	4281
2026-01-08 12:41:37.56	202.46	30.79	-36.2	-37.9	21.9	0.00e+00	0	40	0	1170210816	44	4267
2026-01-08 12:41:38.56	202.66	30.95	-36.2	-37.9	21.9	0.00e+00	0	40	0	1175453696	44	4276
2026-01-08 12:41:39.56	202.86	31.12	-36.2	-37.9	21.9	0.00e+00	0	40	0	1180696576	44	4286
2026-01-08 12:41:40.56	203.06	31.28	-36.3	-38.0	21.8	0.00e+00	0	40	0	1186988032	44	4323
2026-01-08 12:41:41.57	203.27	31.45	-36.3	-38.1	21.8	0.00e+00	0	40	0	1192230912	44	4352
2026-01-08 12:41:42.57	203.47	31.61	-36.4	-38.2	21.7	0.00e+00	0	40	0	1198522368	44	4400
2026-01-08 12:41:43.58	203.68	31.78	-36.3	-38.1	21.8	0.00e+00	0	40	0	1203765248	44	4352
2026-01-08 12:41:44.58	203.90	31.95	-36.2	-37.9	21.9	0.00e+00	0	40	0	1209008128	44	4279
2026-01-08 12:41:45.58	204.11	32.12	-36.2	-38.0	21.8	0.00e+00	0	40	0	1215299584	44	4299
2026-01-08 12:41:46.59	204.33	32.29	-36.2	-38.0	21.9	0.00e+00	0	40	0	1220542464	44	4295
2026-01-08 12:41:47.84	204.60	32.50	-36.1	-37.9	21.9	0.00e+00	0	40	0	1227882496	44	4244
2026-01-08 12:41:48.63	204.77	32.63	-36.2	-37.9	21.9	0.00e+00	0	40	0	1232076800	44	4274
2026-01-08 12:41:49.78	205.03	32.83	-36.2	-37.9	21.9	0.00e+00	0	40	0	1238368256	44	4270
2026-01-08 12:41:50.64	205.22	32.97	-36.1	-37.9	21.9	0.00e+00	0	40	0	1243611136	44	4248
2026-01-08 12:41:51.79	205.48	33.17	-36.1	-37.9	21.9	0.00e+00	0	40	0	1249902592	44	4256
2026-01-08 12:41:52.65	205.68	33.32	-36.2	-37.9	21.9	0.00e+00	0	40	0	1255145472	44	4272
2026-01-08 12:41:53.79	205.94	33.51	-36.2	-38.0	21.9	0.00e+00	0	40	0	1261436928	44	4301
2026-01-08 12:41:54.65	206.14	33.66	-36.2	-38.0	21.8	0.00e+00	0	40	0	1265631232	44	4311
2026-01-08 12:41:55.80	206.41	33.86	-36.4	-38.2	21.6	0.00e+00	0	40	0	1272971264	44	4417
2026-01-08 12:41:56.65	206.62	34.01	-36.3	-38.0	21.7	0.00e+00	0	40	0	1277165568	44	4339
2026-01-08 12:41:57.80	206.89	34.21	-36.1	-37.8	21.9	0.00e+00	0	40	0	1283457024	44	4229
2026-01-08 12:41:58.66	207.10	34.36	-36.1	-37.9	21.9	0.00e+00	0	40	0	1288699904	44	4261
2026-01-08 12:42:00.00	207.43	34.59	-35.7	-37.4	22.1	0.00e+00	0	40	0	1296039936	43	4267
2026-01-08 12:42:00.71	207.61	34.72	-35.6	-37.3	22.2	0.00e+00	0	40	0	1300234240	43	4208
2026-01-08 12:42:02.00	207.94	34.94	-35.6	-37.3	22.2	0.00e+00	0	40	0	1307574272	43	4206
2026-01-08 12:42:02.72	208.12	35.07	-35.6	-37.4	22.2	0.00e+00	0	40	0	1311768576	43	4243
2026-01-08 12:42:04.01	208.45	35.30	-35.6	-37.3	22.2	0.00e+00	0	40	0	1319108608	43	4238
2026-01-08 12:42:04.72	208.64	35.42	-35.7	-37.4	22.1	0.00e+00	0	40	0	1322254336	43	4276
2026-01-08 12:42:06.01	208.98	35.65	-35.8	-37.6	22.0	0.00e+00	0	40	0	1329594368	43	4341
2026-01-08 12:42:06.73	209.17	35.78	-35.8	-37.5	22.1	0.00e+00	0	40	0	1333788672	43	4324
2026-01-08 12:42:08.02	209.51	36.00	-35.8	-37.6	22.0	0.00e+00	0	40	0	1341128704	43	4351
2026-01-08 12:42:08.74	209.71	36.13	-35.8	-37.5	22.0	0.00e+00	0	40	0	1345323008	43	4336
2026-01-08 12:42:10.04	210.07	36.36	-35.6	-37.3	22.2	0.00e+00	0	40	0	1352663040	43	4240
2026-01-08 12:42:10.76	210.27	36.49	-35.6	-37.3	22.2	0.00e+00	0	40	0	1356857344	43	4232
2026-01-08 12:42:12.05	210.63	36.72	-35.7	-37.4	22.2	0.00e+00	0	40	0	1364197376	43	4289
2026-01-08 12:42:12.77	210.83	36.85	-35.8	-37.5	22.1	0.00e+00	0	40	0	1368391680	43	4332
2026-01-08 12:42:14.06	211.20	37.08	-35.8	-37.5	22.1	0.00e+00	0	40	0	1375731712	43	4334
2026-01-08 12:42:14.77	211.41	37.21	-35.7	-37.4	22.2	0.00e+00	0	40	0	1378877440	43	4280
2026-01-08 12:42:16.28	211.85	37.48	-35.7	-37.4	22.2	0.00e+00	0	40	0	1387266048	43	4285
2026-01-08 12:42:17.00	212.06	37.61	-35.6	-37.3	22.3	0.00e+00	0	40	0	1391460352	43	4205
2026-01-08 12:42:18.29	212.45	37.84	-35.6	-37.4	22.2	0.00e+00	0	40	0	1398800384	43	4244
2026-01-08 12:42:19.01	212.67	37.97	-35.6	-37.3	22.3	0.00e+00	0	40	0	1402994688	43	4215
2026-01-08 12:42:20.30	213.06	38.20	-35.6	-37.3	22.3	0.00e+00	0	40	0	1410334720	43	4222
2026-01-08 12:42:21.01	213.28	38.33	-35.6	-37.3	22.3	0.00e+00	0	40	0	1414529024	43	4235
2026-01-08 12:42:22.31	213.69	38.56	-35.6	-37.3	22.3	0.00e+00	0	40	0	1421869056	43	4194
2026-01-08 12:42:23.02	213.92	38.69	-35.6	-37.3	22.3	0.00e+00	0	40	0	1426063360	43	4204
2026-01-08 12:42:24.31	214.33	38.92	-35.7	-37.4	22.2	0.00e+00	0	40	0	1433403392	43	4257
2026-01-08 12:42:25.11	214.59	39.06	-35.7	-37.5	22.2	0.00e+00	0	40	0	1437597696	43	4307
2026-01-08 12:42:26.26	214.97	39.27	-35.8	-37.6	22.1	0.00e+00	0	40	0	1443889152	43	4349
2026-01-08 12:42:27.12	215.25	39.42	-35.8	-37.6	22.1	0.00e+00	0	40	0	1449132032	43	4345
2026-01-08 12:42:28.26	215.63	39.63	-35.7	-37.5	22.2	0.00e+00	0	40	0	1455423488	43	4304
2026-01-08 12:42:29.12	215.92	39.78	-35.7	-37.4	22.2	0.00e+00	0	40	0	1459617792	43	4278
2026-01-08 12:42:30.27	216.32	39.99	-35.7	-37.4	22.2	0.00e+00	0	40	0	1465909248	43	4277
2026-01-08 12:42:31.13	216.61	40.14	-35.7	-37.4	22.2	0.00e+00	0	40	0	1471152128	43	4267
2026-01-08 12:42:32.27	217.01	40.34	-35.8	-37.5	22.1	0.00e+00	0	40	0	1477443584	43	4319
2026-01-08 12:42:33.13	217.31	40.50	-35.9	-37.7	22.0	0.00e+00	0	40	0	1482686464	43	4399
2026-01-08 12:42:34.39	217.76	40.72	-36.0	-37.7	22.0	0.00e+00	0	40	0	1488977920	43	4441
2026-01-08 12:42:35.12	218.03	40.85	-36.0	-37.8	21.9	0.00e+00	0	40	0	1493172224	43	4457
2026-01-08 12:42:36.41	218.50	41.08	-36.0	-37.7	22.0	0.00e+00	0	40	0	1500512256	43	4433
2026-01-08 12:42:37.13	218.76	41.20	-36.0	-37.7	22.0	0.00e+00	0	40	0	1504706560	43	4406
2026-01-08 12:42:38.67	219.34	41.48	-35.8	-37.5	22.2	0.00e+00	0	40	0	1514143744	43	4294
2026-01-08 12:42:39.38	219.61	41.60	-35.6	-37.3	22.3	0.00e+00	0	40	0	1517289472	43	4225
2026-01-08 12:42:40.74	220.13	41.84	-35.9	-37.6	22.0	0.00e+00	0	40	0	1525678080	43	4372
2026-01-08 12:42:41.45	220.40	41.96	-36.1	-37.9	21.9	0.00e+00	0	40	0	1529872384	43	4499
2026-01-08 12:42:42.75	220.91	42.19	-36.2	-37.9	21.8	0.00e+00	0	40	0	1537212416	43	4535
2026-01-08 12:42:43.46	221.19	42.31	-36.0	-37.8	21.9	0.00e+00	0	40	0	1540358144	43	4459
2026-01-08 12:42:44.75	221.71	42.53	-35.8	-37.5	22.2	0.00e+00	0	40	0	1547698176	43	4303
2026-01-08 12:42:45.47	222.00	42.66	-35.8	-37.4	22.2	0.00e+00	0	40	0	1551892480	43	4287
2026-01-08 12:42:46.76	222.52	42.88	-35.6	-37.3	22.3	0.00e+00	0	40	0	1559232512	43	4223
2026-01-08 12:42:47.47	222.82	43.00	-35.8	-37.5	22.1	0.00e+00	0	40	0	1563426816	43	4326
2026-01-08 12:42:48.77	223.36	43.22	-36.1	-37.8	21.8	0.00e+00	0	40	0	1570766848	43	4488
2026-01-08 12:42:49.48	223.65	43.34	-36.2	-37.9	21.8	0.00e+00	0	40	0	1573912576	43	4545
2026-01-08 12:42:50.77	224.20	43.55	-36.2	-37.9	21.8	0.00e+00	0	40	0	1581252608	43	4544
2026-01-08 12:42:51.48	224.51	43.67	-36.1	-37.9	21.8	0.00e+00	0	40	0	1585446912	43	4507
2026-01-08 12:42:52.77	225.07	43.88	-36.1	-37.9	21.8	0.00e+00	0	40	0	1592786944	43	4507
2026-01-08 12:42:53.62	225.44	44.02	-36.0	-37.7	21.9	0.00e+00	0	40	0	1598029824	43	4436
2026-01-08 12:42:55.12	226.11	44.26	-36.0	-37.7	22.0	0.00e+00	0	40	0	1606418432	43	4428
2026-01-08 12:42:55.83	226.42	44.38	-36.0	-37.8	22.0	0.00e+00	0	40	0	1610612736	43	4445
2026-01-08 12:42:57.12	227.01	44.58	-36.1	-37.9	21.9	0.00e+00	0	40	0	1617952768	43	4501
2026-01-08 12:42:57.84	227.34	44.70	-36.2	-38.0	21.8	0.00e+00	0	40	0	1621098496	43	4559
2026-01-08 12:42:59.13	227.93	44.90	-36.3	-38.1	21.7	0.00e+00	0	40	0	1628438528	43	4606
2026-01-08 12:42:59.89	228.29	45.02	-36.3	-38.1	21.7	0.00e+00	0	40	0	1632632832	43	4619
2026-01-08 12:43:01.18	228.90	45.22	-36.2	-37.9	21.8	0.00e+00	0	40	0	1639972864	43	4544
2026-01-08 12:43:01.95	229.26	45.34	-36.2	-38.0	21.8	0.00e+00	0	40	0	1645215744	43	4557
2026-01-08 12:43:03.23	229.88	45.53	-36.1	-37.8	22.0	0.00e+00	0	40	0	1651507200	43	4458
2026-01-08 12:43:04.06	230.28	45.65	-36.1	-37.8	21.9	0.00e+00	0	40	0	1656750080	43	4493
2026-01-08 12:43:05.53	231.00	45.87	-36.4	-38.1	21.7	0.00e+00	0	40	0	1665138688	43	4635
2026-01-08 12:43:06.24	231.36	45.97	-36.4	-38.2	21.6	0.00e+00	0	40	0	1668284416	43	4665
2026-01-08 12:43:07.53	232.00	46.16	-36.2	-38.0	21.8	0.00e+00	0	40	0	1675624448	43	4567
2026-01-08 12:43:08.25	232.37	46.26	-36.1	-37.8	21.9	0.00e+00	0	40	0	1679818752	43	4479
2026-01-08 12:43:09.54	233.02	46.44	-36.2	-37.9	21.9	0.00e+00	0	40	0	1687158784	43	4507
2026-01-08 12:43:10.26	233.39	46.54	-36.3	-38.0	21.8	0.00e+00	0	40	0	1691353088	43	4555
2026-01-08 12:43:11.55	234.06	46.71	-36.2	-37.9	21.9	0.00e+00	0	40	0	1698693120	43	4534
2026-01-08 12:43:12.26	234.43	46.81	-36.1	-37.8	22.0	0.00e+00	0	40	0	1702887424	43	4487
2026-01-08 12:43:13.55	235.11	46.98	-36.1	-37.8	22.0	0.00e+00	0	40	0	1710227456	43	4479
2026-01-08 12:43:14.27	235.49	47.07	-36.1	-37.8	22.0	0.00e+00	0	40	0	1714421760	43	4456
2026-01-08 12:43:15.56	236.19	47.23	-36.0	-37.7	22.1	0.00e+00	0	40	0	1720713216	43	4416
2026-01-08 12:43:16.28	236.57	47.32	-36.0	-37.7	22.1	0.00e+00	0	40	0	1724907520	43	4417
2026-01-08 12:43:17.58	237.28	47.48	-36.2	-37.9	21.9	0.00e+00	0	40	0	1732247552	43	4532
2026-01-08 12:43:18.57	237.83	47.60	-36.1	-37.8	21.9	0.00e+00	0	40	0	1738539008	43	4483
2026-01-08 12:43:19.57	238.38	47.72	-36.1	-37.8	21.9	0.00e+00	0	40	0	1743781888	43	4481
2026-01-08 12:43:20.58	238.94	47.83	-36.3	-38.1	21.7	0.00e+00	0	40	0	1749024768	43	4624
2026-01-08 12:43:21.58	239.50	47.94	-36.4	-38.2	21.6	0.00e+00	0	40	0	1755316224	43	4678
2026-01-08 12:43:22.58	240.07	48.05	-36.4	-38.1	21.8	0.00e+00	0	40	0	1760559104	43	4624
2026-01-08 12:43:23.58	240.64	48.16	-36.2	-37.9	21.9	0.00e+00	0	40	0	1765801984	43	4531
2026-01-08 12:43:24.59	241.22	48.26	-36.1	-37.8	22.0	0.00e+00	0	40	0	1772093440	43	4472
2026-01-08 12:43:25.59	241.79	48.37	-36.0	-37.7	22.0	0.00e+00	0	40	0	1777336320	43	4436
2026-01-08 12:43:26.59	242.37	48.46	-36.0	-37.6	22.1	0.00e+00	0	40	0	1783627776	43	4387
2026-01-08 12:43:27.68	243.01	48.57	-36.1	-37.8	22.0	0.00e+00	0	40	0	1788870656	43	4470
2026-01-08 12:43:28.54	243.52	48.65	-36.1	-37.8	22.0	0.00e+00	0	40	0	1794113536	43	4455
2026-01-08 12:43:29.68	244.19	48.75	-36.1	-37.8	22.0	0.00e+00	0	40	0	1800404992	43	4487
2026-01-08 12:43:30.64	244.76	48.83	-36.1	-37.8	22.0	0.00e+00	0	40	0	1805647872	43	4487
2026-01-08 12:43:31.64	245.36	48.91	-36.1	-37.7	22.0	0.00e+00	0	40	0	1811939328	43	4438
2026-01-08 12:43:32.85	246.09	49.01	-36.0	-37.7	22.1	0.00e+00	0	40	0	1818230784	43	4427
2026-01-08 12:43:33.74	246.62	49.07	-36.0	-37.7	22.1	0.00e+00	0	40	0	1823473664	43	4433
2026-01-08 12:43:34.88	247.32	49.16	-36.1	-37.9	21.9	0.00e+00	0	40	0	1829765120	43	4499
2026-01-08 12:43:35.74	247.84	49.22	-36.3	-38.0	21.8	0.00e+00	0	40	0	1835008000	43	4587
2026-01-08 12:43:36.89	248.54	49.29	-36.2	-37.9	21.8	0.00e+00	0	40	0	1841299456	43	4543
2026-01-08 12:43:37.75	249.07	49.35	-36.2	-37.9	21.9	0.00e+00	0	40	0	1846542336	43	4511
2026-01-08 12:43:38.89	249.78	49.41	-36.1	-37.8	22.0	0.00e+00	0	40	0	1852833792	43	4448
2026-01-08 12:43:39.76	250.32	49.46	-36.1	-37.8	22.0	0.00e+00	0	40	0	1857028096	43	4447
2026-01-08 12:43:40.90	251.03	49.52	-36.2	-38.0	21.8	0.00e+00	0	40	0	1863319552	43	4556
2026-01-08 12:43:41.76	251.56	49.56	-36.3	-38.0	21.8	0.00e+00	0	40	0	1868562432	43	4579
2026-01-08 12:43:42.91	252.28	49.62	-36.1	-37.8	22.0	0.00e+00	0	40	0	1874853888	43	4485
2026-01-08 12:43:43.77	252.82	49.65	-36.2	-37.9	21.9	0.00e+00	0	40	0	1880096768	43	4529
2026-01-08 12:43:44.91	253.54	49.69	-36.1	-37.8	22.0	0.00e+00	0	40	0	1886388224	43	4465
2026-01-08 12:43:45.78	254.09	49.72	-36.3	-38.0	21.9	0.00e+00	0	40	0	1890582528	43	4576
2026-01-08 12:43:47.10	254.92	49.76	-36.6	-38.3	21.5	0.00e+00	0	40	0	1898971136	43	4756
2026-01-08 12:43:47.81	255.37	49.78	-36.3	-38.0	21.8	0.00e+00	0	40	0	1902116864	43	4598
2026-01-08 12:43:49.10	256.19	49.81	-36.2	-37.9	21.9	0.00e+00	0	40	0	1909456896	43	4536
2026-01-08 12:43:49.82	256.65	49.83	-36.4	-38.1	21.7	0.00e+00	0	40	0	1913651200	43	4638
2026-01-08 12:43:51.11	257.47	49.85	-36.2	-38.0	21.8	0.00e+00	0	40	0	1920991232	43	4560
2026-01-08 12:43:51.82	257.92	49.86	-36.1	-37.8	22.0	0.00e+00	0	40	0	1925185536	43	4462
2026-01-08 12:43:53.12	258.75	49.87	-36.0	-37.7	22.0	0.00e+00	0	40	0	1932525568	43	4435
2026-01-08 12:43:53.90	259.25	49.87	-36.1	-37.8	22.0	0.00e+00	0	40	0	1936719872	43	4453
2026-01-08 12:43:55.19	260.07	49.87	-36.3	-38.0	21.9	0.00e+00	0	40	0	1944059904	43	4558
2026-01-08 12:43:55.90	260.52	49.87	-36.4	-38.2	21.7	0.00e+00	0	40	0	1948254208	43	4660
2026-01-08 12:43:57.19	261.34	49.86	-36.9	-38.7	21.4	0.00e+00	0	40	0	1955594240	44	4688
2026-01-08 12:43:58.02	261.87	49.85	-36.7	-38.5	21.6	0.00e+00	0	40	0	1959788544	44	4560
2026-01-08 12:43:59.17	262.60	49.83	-36.3	-38.0	21.9	0.00e+00	0	40	0	1966080000	44	4331
2026-01-08 12:44:00.03	263.15	49.82	-36.4	-38.2	21.8	0.00e+00	0	40	0	1971322880	44	4394
2026-01-08 12:44:01.18	263.88	49.79	-36.5	-38.3	21.7	0.00e+00	0	40	0	1977614336	44	4471
2026-01-08 12:44:02.03	264.42	49.77	-36.4	-38.1	21.9	0.00e+00	0	40	0	1982857216	44	4373
2026-01-08 12:44:03.18	265.15	49.74	-36.5	-38.2	21.8	0.00e+00	0	40	0	1989148672	44	4412
2026-01-08 12:44:04.36	265.89	49.70	-36.3	-38.1	21.9	0.00e+00	0	40	0	1995440128	44	4350
2026-01-08 12:44:05.22	266.43	49.67	-36.2	-37.9	22.0	0.00e+00	0	40	0	2000683008	44	4277
2026-01-08 12:44:06.37	267.15	49.62	-36.2	-37.9	22.0	0.00e+00	0	40	0	2006974464	44	4278
2026-01-08 12:44:07.23	267.69	49.58	-36.3	-38.1	21.9	0.00e+00	0	40	0	2012217344	44	4362
2026-01-08 12:44:08.37	268.40	49.53	-36.5	-38.2	21.8	0.00e+00	0	40	0	2018508800	44	4423
2026-01-08 12:44:09.23	268.94	49.49	-36.4	-38.1	21.8	0.00e+00	0	40	0	2022703104	44	4381
2026-01-08 12:44:10.38	269.65	49.42	-36.3	-38.1	21.9	0.00e+00	0	40	0	2028994560	44	4351
2026-01-08 12:44:11.24	270.18	49.37	-36.2	-37.9	22.0	0.00e+00	0	40	0	2034237440	44	4270
2026-01-08 12:44:12.43	270.92	49.30	-36.2	-37.9	22.0	0.00e+00	0	40	0	2040528896	44	4275
2026-01-08 12:44:13.29	271.44	49.24	-36.2	-37.9	22.0	0.00e+00	0	40	0	2045771776	44	4291
2026-01-08 12:44:14.44	272.14	49.17	-36.5	-38.2	21.7	0.00e+00	0	40	0	2052063232	44	4434
2026-01-08 12:44:15.30	272.67	49.10	-36.5	-38.3	21.7	0.00e+00	0	40	0	2057306112	44	4449
2026-01-08 12:44:16.45	273.36	49.02	-36.5	-38.2	21.8	0.00e+00	0	40	0	2063597568	44	4414
2026-01-08 12:44:17.31	273.88	48.95	-36.4	-38.1	21.9	0.00e+00	0	40	0	2068840448	44	4378
2026-01-08 12:44:18.46	274.57	48.86	-36.0	-37.7	22.1	0.00e+00	0	40	0	2075131904	44	4192
2026-01-08 12:44:19.32	275.08	48.78	-36.1	-37.8	22.1	0.00e+00	0	40	0	2079326208	44	4205
2026-01-08 12:44:20.46	275.75	48.69	-36.0	-37.7	22.2	0.00e+00	0	40	0	2086666240	44	4167
2026-01-08 12:44:21.32	276.26	48.61	-36.0	-37.7	22.2	0.00e+00	0	40	0	2090860544	44	4175
2026-01-08 12:44:22.47	276.93	48.50	-36.1	-37.8	22.1	0.00e+00	0	40	0	2097152000	44	4239
2026-01-08 12:44:23.33	277.43	48.42	-36.1	-37.9	22.0	0.00e+00	0	40	0	2102394880	44	4251
2026-01-08 12:44:24.48	278.10	48.30	-36.0	-37.7	22.1	0.00e+00	0	40	0	2108686336	44	4192
2026-01-08 12:44:25.34	278.59	48.22	-36.1	-37.8	22.1	0.00e+00	0	40	0	2113929216	44	4242
2026-01-08 12:44:26.49	279.24	48.09	-36.6	-38.4	21.6	0.00e+00	0	40	0	2120220672	44	4510
2026-01-08 12:44:27.34	279.73	48.00	-36.7	-38.5	21.6	0.00e+00	0	40	0	2125463552	44	4554
2026-01-08 12:44:28.49	280.37	47.88	-36.4	-38.2	21.8	0.00e+00	0	40	0	2131755008	44	4416
2026-01-08 12:44:29.35	280.85	47.78	-36.5	-38.2	21.8	0.00e+00	0	40	0	2135949312	44	4432
2026-01-08 12:44:30.61	281.55	47.63	-36.6	-38.4	21.7	0.00e+00	0	40	0	2143289344	44	4497
2026-01-08 12:44:31.35	281.96	47.55	-36.5	-38.2	21.8	0.00e+00	0	40	0	2147483648	44	4430
2026-01-08 12:44:32.85	282.77	47.37	-36.4	-38.1	21.9	0.00e+00	0	40	0	2155872256	44	4379
2026-01-08 12:44:33.57	283.16	47.28	-36.4	-38.1	21.9	0.00e+00	0	40	0	2160066560	44	4362
2026-01-08 12:44:34.86	283.86	47.11	-36.4	-38.1	21.9	0.00e+00	0	40	0	2167406592	44	4382
2026-01-08 12:44:35.57	284.23	47.02	-36.3	-37.9	22.4	0.00e+00	0	40	0	2171600896	44	4286
2026-01-08 12:44:36.86	284.91	46.86	-36.1	-37.8	22.5	0.00e+00	0	40	0	2178940928	44	4195
2026-01-08 12:44:37.58	285.29	46.76	-36.2	-37.8	22.5	0.00e+00	0	40	0	2182086656	44	4230
2026-01-08 12:44:38.87	285.96	46.59	-36.5	-38.2	22.2	0.00e+00	0	40	0	2189426688	44	4398
2026-01-08 12:44:39.59	286.33	46.49	-36.7	-38.4	22.0	0.00e+00	0	40	0	2193620992	44	4534
2026-01-08 12:44:40.87	286.98	46.31	-36.7	-38.4	22.0	0.00e+00	0	40	0	2200961024	44	4505
2026-01-08 12:44:41.64	287.37	46.20	-36.4	-38.1	22.2	0.00e+00	0	40	0	2205155328	44	4356
2026-01-08 12:44:43.25	288.17	45.97	-36.5	-38.2	22.2	0.00e+00	0	40	0	2214592512	44	4400
2026-01-08 12:44:43.82	288.46	45.89	-36.4	-38.1	22.3	0.00e+00	0	40	0	2217738240	44	4342
2026-01-08 12:44:45.41	289.23	45.66	-36.6	-38.3	22.1	0.00e+00	0	40	0	2226126848	44	4443
2026-01-08 12:44:45.98	289.51	45.57	-36.5	-38.2	22.2	0.00e+00	0	40	0	2229272576	44	4409
2026-01-08 12:44:47.56	290.27	45.33	-36.4	-38.0	22.3	0.00e+00	0	40	0	2238709760	44	4335
2026-01-08 12:44:48.16	290.55	45.24	-36.5	-38.1	22.2	0.00e+00	0	40	0	2241855488	44	4378
2026-01-08 12:44:49.74	291.30	45.00	-36.3	-37.9	22.4	0.00e+00	0	40	0	2251292672	44	4283
2026-01-08 12:44:50.31	291.56	44.91	-36.3	-38.0	22.3	0.00e+00	0	40	0	2254438400	44	4311
2026-01-08 12:44:51.91	292.30	44.66	-36.5	-38.1	22.2	0.00e+00	0	40	0	2262827008	44	4391
2026-01-08 12:44:52.48	292.56	44.57	-36.7	-38.4	22.0	0.00e+00	0	40	0	2265972736	44	4514
2026-01-08 12:44:54.06	293.27	44.32	-36.9	-38.6	21.8	0.00e+00	0	40	0	2275409920	44	4625
2026-01-08 12:44:54.65	293.53	44.22	-36.9	-38.6	21.8	0.00e+00	0	40	0	2278555648	44	4645
2026-01-08 12:44:56.53	294.36	43.92	-36.7	-38.4	22.0	0.00e+00	0	40	0	2289041408	44	4502
2026-01-08 12:44:57.10	294.61	43.83	-36.6	-38.2	22.2	0.00e+00	0	40	0	2292187136	44	4422
2026-01-08 12:44:58.69	295.29	43.56	-36.4	-38.0	22.3	0.00e+00	0	40	0	2301624320	44	4328
2026-01-08 12:44:59.26	295.54	43.47	-36.3	-38.0	22.3	0.00e+00	0	40	0	2304770048	44	4311
2026-01-08 12:45:00.84	296.20	43.21	-36.6	-38.3	22.1	0.00e+00	0	40	0	2313158656	44	4464
2026-01-08 12:45:01.46	296.46	43.10	-36.6	-38.3	22.1	0.00e+00	0	40	0	2317352960	44	4472
2026-01-08 12:45:03.32	297.22	42.79	-36.3	-38.0	22.3	0.00e+00	0	40	0	2326790144	44	4302
2026-01-08 12:45:03.89	297.46	42.69	-36.3	-37.9	22.4	0.00e+00	0	40	0	2330984448	44	4269
2026-01-08 12:45:05.47	298.09	42.42	-36.3	-38.0	22.3	0.00e+00	0	40	0	2339373056	44	4309
2026-01-08 12:45:06.05	298.32	42.32	-36.3	-38.0	22.3	0.00e+00	0	40	0	2342518784	44	4310
2026-01-08 12:45:07.65	298.95	42.04	-36.4	-38.0	22.3	0.00e+00	0	40	0	2351955968	44	4331
2026-01-08 12:45:08.57	299.30	41.88	-36.3	-38.0	22.3	0.00e+00	0	40	0	2357198848	44	4315
2026-01-08 12:45:09.58	299.69	41.71	-36.2	-37.9	22.4	0.00e+00	0	40	0	2362441728	44	4254
2026-01-08 12:45:10.58	300.07	41.54	-36.3	-37.9	22.4	0.00e+00	0	40	0	2367684608	44	4276
2026-01-08 12:45:11.58	300.44	41.36	-36.3	-37.9	22.4	0.00e+00	0	40	0	2373976064	44	4281
2026-01-08 12:45:12.58	300.81	41.18	-36.1	-37.8	22.5	0.00e+00	0	40	0	2379218944	44	4200
2026-01-08 12:45:13.59	301.18	41.01	-36.1	-37.7	22.5	0.00e+00	0	40	0	2384461824	44	4175
2026-01-08 12:45:14.75	301.60	40.80	-36.1	-37.7	22.5	0.00e+00	0	40	0	2391801856	44	4187
2026-01-08 12:45:15.64	301.92	40.65	-36.1	-37.7	22.5	0.00e+00	0	40	0	2395996160	44	4191
2026-01-08 12:45:16.78	302.33	40.44	-36.1	-37.7	22.5	0.00e+00	0	40	0	2403336192	44	4184
2026-01-08 12:45:17.64	302.63	40.29	-36.2	-37.8	22.5	0.00e+00	0	40	0	2407530496	44	4240
2026-01-08 12:45:18.79	303.03	40.09	-36.1	-37.8	22.5	0.00e+00	0	40	0	2413821952	44	4212
2026-01-08 12:45:19.65	303.32	39.93	-36.0	-37.6	22.6	0.00e+00	0	40	0	2419064832	44	4141
2026-01-08 12:45:21.11	303.82	39.68	-35.7	-37.3	22.7	0.00e+00	0	40	0	2427453440	43	4218
2026-01-08 12:45:21.83	304.06	39.55	-35.7	-37.3	22.7	0.00e+00	0	40	0	2431647744	43	4239
2026-01-08 12:45:23.12	304.48	39.32	-35.7	-37.3	22.7	0.00e+00	0	40	0	2438987776	43	4228
2026-01-08 12:45:23.84	304.72	39.19	-35.7	-37.3	22.7	0.00e+00	0	40	0	2442133504	43	4211
2026-01-08 12:45:25.12	305.13	38.96	-35.7	-37.3	22.7	0.00e+00	0	40	0	2449473536	43	4212
2026-01-08 12:45:25.84	305.37	38.83	-35.7	-37.3	22.7	0.00e+00	0	40	0	2453667840	43	4240
2026-01-08 12:45:27.13	305.77	38.60	-35.5	-37.2	22.8	0.00e+00	0	40	0	2461007872	43	4156
2026-01-08 12:45:28.00	306.05	38.45	-35.5	-37.1	22.9	0.00e+00	0	40	0	2466250752	42	4364
2026-01-08 12:45:29.15	306.40	38.24	-35.5	-37.1	22.9	0.00e+00	0	40	0	2472542208	42	4391
2026-01-08 12:45:30.21	306.73	38.05	-35.5	-37.1	22.9	0.00e+00	0	40	0	2478833664	42	4390
2026-01-08 12:45:31.25	307.04	37.87	-35.6	-37.2	22.8	0.00e+00	0	40	0	2484076544	42	4419
2026-01-08 12:45:32.24	307.34	37.69	-35.8	-37.4	22.7	0.00e+00	0	40	0	2490368000	42	4518
2026-01-08 12:45:33.45	307.70	37.47	-35.9	-37.5	22.6	0.00e+00	0	40	0	2496659456	42	4580
2026-01-08 12:45:34.35	307.96	37.31	-36.0	-37.7	22.4	0.00e+00	0	40	0	2501902336	42	4671
2026-01-08 12:45:35.38	308.26	37.13	-36.0	-37.6	22.5	0.00e+00	0	40	0	2507145216	42	4644
2026-01-08 12:45:36.37	308.54	36.95	-35.8	-37.4	22.6	0.00e+00	0	40	0	2513436672	42	4541
2026-01-08 12:45:37.38	308.83	36.77	-35.8	-37.4	22.6	0.00e+00	0	40	0	2518679552	42	4530
2026-01-08 12:45:38.39	309.11	36.60	-35.7	-37.3	22.7	0.00e+00	0	40	0	2524971008	42	4476
2026-01-08 12:45:39.39	309.39	36.42	-35.7	-37.3	22.7	0.00e+00	0	40	0	2530213888	42	4458
2026-01-08 12:45:40.39	309.66	36.24	-35.7	-37.3	22.7	0.00e+00	0	40	0	2535456768	42	4491
2026-01-08 12:45:41.40	309.94	36.06	-35.6	-37.3	22.8	0.00e+00	0	40	0	2541748224	42	4444
2026-01-08 12:45:42.40	310.21	35.89	-35.8	-37.4	22.7	0.00e+00	0	40	0	2546991104	42	4516
2026-01-08 12:45:43.40	310.47	35.71	-35.9	-37.5	22.6	0.00e+00	0	40	0	2553282560	42	4597
2026-01-08 12:45:44.41	310.74	35.53	-36.0	-37.7	22.5	0.00e+00	0	40	0	2558525440	42	4661
2026-01-08 12:45:45.41	311.00	35.36	-35.9	-37.6	22.5	0.00e+00	0	40	0	2563768320	42	4623
2026-01-08 12:45:46.41	311.26	35.18	-36.0	-37.6	22.5	0.00e+00	0	40	0	2570059776	42	4644
2026-01-08 12:45:47.45	311.52	35.00	-35.9	-37.6	22.5	0.00e+00	0	40	0	2575302656	42	4604
2026-01-08 12:45:48.48	311.78	34.82	-35.8	-37.4	22.7	0.00e+00	0	40	0	2581594112	42	4523
2026-01-08 12:45:49.48	312.03	34.65	-35.8	-37.5	22.6	0.00e+00	0	40	0	2586836992	42	4574
2026-01-08 12:45:50.55	312.29	34.46	-35.9	-37.6	22.5	0.00e+00	0	40	0	2593128448	42	4630
2026-01-08 12:45:51.44	312.51	34.31	-36.0	-37.6	22.4	0.00e+00	0	40	0	2598371328	42	4640
2026-01-08 12:45:52.58	312.79	34.11	-35.9	-37.6	22.5	0.00e+00	0	40	0	2604662784	42	4615
2026-01-08 12:45:53.44	312.99	33.96	-36.0	-37.7	22.4	0.00e+00	0	40	0	2608857088	42	4661
2026-01-08 12:45:54.59	313.26	33.76	-35.8	-37.4	22.7	0.00e+00	0	40	0	2615148544	42	4515
2026-01-08 12:45:55.45	313.47	33.62	-35.8	-37.5	22.6	0.00e+00	0	40	0	2620391424	42	4556
2026-01-08 12:45:56.59	313.73	33.42	-35.8	-37.4	22.7	0.00e+00	0	40	0	2626682880	42	4518
2026-01-08 12:45:57.64	313.97	33.24	-35.8	-37.5	22.6	0.00e+00	0	40	0	2632974336	42	4572
2026-01-08 12:45:58.53	314.17	33.09	-36.0	-37.7	22.5	0.00e+00	0	40	0	2638217216	42	4660
2026-01-08 12:45:59.67	314.43	32.90	-36.1	-37.7	22.4	0.00e+00	0	40	0	2644508672	42	4691
2026-01-08 12:46:00.74	314.66	32.72	-36.1	-37.8	22.3	0.00e+00	0	40	0	2649751552	42	4725
2026-01-08 12:46:01.78	314.89	32.54	-36.1	-37.8	22.3	0.00e+00	0	40	0	2656043008	42	4721
2026-01-08 12:46:02.95	315.15	32.35	-36.2	-37.8	22.3	0.00e+00	0	40	0	2662334464	42	4748
2026-01-08 12:46:03.84	315.34	32.20	-36.2	-37.8	22.3	0.00e+00	0	40	0	2667577344	43	4490
2026-01-08 12:46:04.98	315.58	32.01	-36.2	-37.9	22.3	0.00e+00	0	40	0	2673868800	43	4496
2026-01-08 12:46:05.84	315.76	31.86	-36.1	-37.8	22.4	0.00e+00	0	40	0	2679111680	43	4449
2026-01-08 12:46:06.98	316.00	31.68	-36.2	-37.9	22.3	0.00e+00	0	40	0	2685403136	43	4520
2026-01-08 12:46:07.84	316.18	31.53	-36.2	-37.9	22.3	0.00e+00	0	40	0	2689597440	43	4500
2026-01-08 12:46:08.99	316.41	31.34	-36.1	-37.8	22.4	0.00e+00	0	40	0	2696937472	43	4457
2026-01-08 12:46:09.84	316.58	31.20	-36.2	-37.9	22.3	0.00e+00	0	40	0	2701131776	43	4506
2026-01-08 12:46:10.99	316.81	31.02	-36.2	-37.9	22.3	0.00e+00	0	40	0	2707423232	43	4506
2026-01-08 12:46:11.85	316.98	30.88	-36.2	-37.9	22.2	0.00e+00	0	40	0	2712666112	43	4526
2026-01-08 12:46:13.00	317.21	30.69	-36.1	-37.8	22.4	0.00e+00	0	40	0	2718957568	43	4443
2026-01-08 12:46:13.86	317.38	30.55	-35.9	-37.6	22.5	0.00e+00	0	40	0	2724200448	43	4367
2026-01-08 12:46:15.10	317.62	30.35	-36.0	-37.6	22.4	0.00e+00	0	40	0	2731540480	43	4369
2026-01-08 12:46:15.96	317.78	30.21	-36.1	-37.8	22.3	0.00e+00	0	40	0	2735734784	43	4458
2026-01-08 12:46:17.10	317.99	30.03	-36.0	-37.6	22.5	0.00e+00	0	40	0	2742026240	43	4367
2026-01-08 12:46:17.96	318.16	29.89	-36.0	-37.7	22.5	0.00e+00	0	40	0	2747269120	43	4398
2026-01-08 12:46:19.10	318.37	29.71	-36.1	-37.8	22.4	0.00e+00	0	40	0	2753560576	43	4452
2026-01-08 12:46:20.08	318.55	29.55	-36.2	-37.8	22.3	0.00e+00	0	40	0	2758803456	43	4489
2026-01-08 12:46:21.27	318.76	29.37	-36.3	-38.0	22.2	0.00e+00	0	40	0	2766143488	43	4580
2026-01-08 12:46:22.16	318.92	29.23	-36.4	-38.1	22.1	0.00e+00	0	40	0	2770337792	43	4617
2026-01-08 12:46:23.30	319.12	29.05	-36.5	-38.2	22.1	0.00e+00	0	40	0	2777677824	43	4658
2026-01-08 12:46:24.16	319.28	28.91	-36.5	-38.2	22.0	0.00e+00	0	40	0	2781872128	43	4682
2026-01-08 12:46:25.53	319.51	28.70	-36.4	-38.1	22.1	0.00e+00	0	40	0	2789212160	43	4614
2026-01-08 12:46:26.25	319.64	28.59	-36.3	-38.0	22.2	0.00e+00	0	40	0	2793406464	43	4581
2026-01-08 12:46:27.54	319.86	28.39	-36.3	-38.0	22.2	0.00e+00	0	40	0	2800746496	43	4570
2026-01-08 12:46:28.26	319.98	28.28	-36.3	-38.0	22.1	0.00e+00	0	40	0	2804940800	43	4592
2026-01-08 12:46:29.82	320.24	28.04	-36.5	-38.2	22.0	0.00e+00	0	40	0	2814377984	43	4653
2026-01-08 12:46:30.53	320.36	27.93	-36.3	-37.9	22.2	0.00e+00	0	40	0	2817523712	43	4524
2026-01-08 12:46:31.82	320.57	27.74	-36.1	-37.7	22.4	0.00e+00	0	40	0	2824863744	43	4419
2026-01-08 12:46:32.54	320.69	27.63	-36.1	-37.8	22.3	0.00e+00	0	40	0	2829058048	43	4443
2026-01-08 12:46:33.83	320.90	27.44	-36.0	-37.7	22.4	0.00e+00	0	40	0	2836398080	43	4403
2026-01-08 12:46:34.54	321.01	27.33	-35.9	-37.6	22.5	0.00e+00	0	40	0	2840592384	43	4354
2026-01-08 12:46:35.83	321.21	27.14	-36.0	-37.7	22.4	0.00e+00	0	40	0	2847932416	43	4403
2026-01-08 12:46:36.55	321.33	27.03	-36.1	-37.8	22.3	0.00e+00	0	40	0	2852126720	43	4474
2026-01-08 12:46:37.84	321.53	26.84	-36.1	-37.8	22.3	0.00e+00	0	40	0	2858418176	43	4452
2026-01-08 12:46:38.62	321.65	26.72	-36.2	-37.9	22.3	0.00e+00	0	40	0	2863661056	43	4498
2026-01-08 12:46:40.14	321.88	26.50	-36.3	-37.9	22.2	0.00e+00	0	40	0	2872049664	43	4542
2026-01-08 12:46:40.85	321.99	26.40	-36.3	-38.0	22.1	0.00e+00	0	40	0	2876243968	43	4587
2026-01-08 12:46:42.15	322.18	26.21	-36.4	-38.1	22.1	0.00e+00	0	40	0	2883584000	43	4634
2026-01-08 12:46:42.86	322.29	26.11	-36.4	-38.1	22.0	0.00e+00	0	40	0	2887778304	43	4632
2026-01-08 12:46:44.15	322.47	25.92	-36.4	-38.1	22.1	0.00e+00	0	40	0	2894069760	43	4637
2026-01-08 12:46:44.88	322.58	25.81	-36.4	-38.1	22.0	0.00e+00	0	40	0	2898264064	43	4639
2026-01-08 12:46:46.17	322.77	25.63	-36.4	-38.1	22.1	0.00e+00	0	40	0	2905604096	43	4625
2026-01-08 12:46:46.98	322.88	25.51	-36.4	-38.0	22.1	0.00e+00	0	40	0	2910846976	43	4598
2026-01-08 12:46:48.13	323.05	25.35	-36.4	-38.1	22.1	0.00e+00	0	40	0	2917138432	43	4601
2026-01-08 12:46:49.22	323.20	25.20	-36.3	-37.9	22.2	0.00e+00	0	40	0	2923429888	43	4528
2026-01-08 12:46:50.26	323.34	25.05	-36.3	-37.9	22.2	0.00e+00	0	40	0	2928672768	43	4541
2026-01-08 12:46:51.26	323.48	24.91	-36.4	-38.0	22.1	0.00e+00	0	40	0	2934964224	43	4585
2026-01-08 12:46:52.26	323.62	24.77	-36.3	-38.0	22.1	0.00e+00	0	40	0	2940207104	43	4575
2026-01-08 12:46:53.27	323.75	24.63	-36.3	-38.0	22.1	0.00e+00	0	40	0	2945449984	43	4567
2026-01-08 12:46:54.27	323.89	24.49	-36.4	-38.1	22.0	0.00e+00	0	40	0	2951741440	43	4638
2026-01-08 12:46:55.27	324.02	24.36	-36.5	-38.2	22.0	0.00e+00	0	40	0	2956984320	43	4671
2026-01-08 12:46:56.26	324.15	24.22	-36.6	-38.3	21.9	0.00e+00	0	40	0	2962227200	43	4723
2026-01-08 12:46:57.26	324.28	24.08	-36.8	-38.5	21.9	0.00e+00	0	40	0	2968518656	44	4572
2026-01-08 12:46:58.26	324.41	23.95	-36.9	-38.6	21.8	0.00e+00	0	40	0	2973761536	44	4613
2026-01-08 12:46:59.26	324.54	23.81	-37.0	-38.7	21.7	0.00e+00	0	40	0	2979004416	44	4669
2026-01-08 12:47:00.27	324.67	23.68	-37.0	-38.7	21.7	0.00e+00	0	40	0	2985295872	44	4700
2026-01-08 12:47:01.27	324.80	23.54	-37.0	-38.8	21.7	0.00e+00	0	40	0	2990538752	44	4706
2026-01-08 12:47:02.27	324.92	23.41	-37.0	-38.8	21.6	0.00e+00	0	40	0	2996830208	44	4706
2026-01-08 12:47:03.34	325.06	23.27	-37.1	-38.9	21.6	0.00e+00	0	40	0	3002073088	44	4762
2026-01-08 12:47:04.23	325.17	23.15	-37.1	-38.8	21.6	0.00e+00	0	40	0	3007315968	44	4749
2026-01-08 12:47:05.56	325.33	22.97	-37.1	-38.8	21.6	0.00e+00	0	40	0	3014656000	44	4727
2026-01-08 12:47:06.28	325.42	22.88	-37.1	-38.8	21.6	0.00e+00	0	40	0	3018850304	44	4725
2026-01-08 12:47:07.78	325.60	22.68	-37.1	-38.8	21.6	0.00e+00	0	40	0	3027238912	44	4732
2026-01-08 12:47:08.49	325.68	22.59	-37.0	-38.8	21.6	0.00e+00	0	40	0	3031433216	44	4720
2026-01-08 12:47:09.78	325.84	22.42	-37.2	-38.9	21.4	0.00e+00	0	40	0	3038773248	45	4544
2026-01-08 12:47:10.50	325.92	22.33	-37.1	-38.9	21.5	0.00e+00	0	40	0	3042967552	45	4515
2026-01-08 12:47:11.79	326.07	22.16	-37.1	-38.9	21.5	0.00e+00	0	40	0	3050307584	45	4511
2026-01-08 12:47:12.50	326.15	22.07	-37.2	-39.0	21.5	0.00e+00	0	40	0	3054501888	45	4554
2026-01-08 12:47:13.79	326.30	21.91	-37.3	-39.1	21.4	0.00e+00	0	40	0	3061841920	45	4604
2026-01-08 12:47:14.55	326.39	21.81	-37.2	-39.0	21.4	0.00e+00	0	40	0	3066036224	45	4565
2026-01-08 12:47:15.84	326.53	21.65	-37.3	-39.1	21.4	0.00e+00	0	40	0	3073376256	45	4616
2026-01-08 12:47:16.56	326.61	21.56	-37.4	-39.2	21.3	0.00e+00	0	40	0	3076521984	45	4666
2026-01-08 12:47:17.85	326.76	21.39	-37.4	-39.1	21.3	0.00e+00	0	40	0	3083862016	45	4635
2026-01-08 12:47:18.66	326.85	21.29	-37.3	-39.1	21.4	0.00e+00	0	40	0	3089104896	45	4600
2026-01-08 12:47:20.11	327.00	21.11	-37.3	-39.0	21.4	0.00e+00	0	40	0	3096444928	45	4570
2026-01-08 12:47:21.26	327.13	20.97	-37.4	-39.1	21.3	0.00e+00	0	40	0	3103784960	45	4626
2026-01-08 12:47:22.11	327.22	20.87	-37.4	-39.1	21.3	0.00e+00	0	40	0	3107979264	45	4611
2026-01-08 12:47:23.26	327.34	20.73	-37.4	-39.1	21.3	0.00e+00	0	40	0	3114270720	45	4644
2026-01-08 12:47:24.12	327.43	20.62	-37.5	-39.2	21.3	0.00e+00	0	40	0	3119513600	45	4658
2026-01-08 12:47:25.33	327.56	20.47	-37.4	-39.2	21.3	0.00e+00	0	40	0	3125805056	45	4654
2026-01-08 12:47:26.19	327.65	20.37	-37.4	-39.1	21.3	0.00e+00	0	40	0	3131047936	45	4623
2026-01-08 12:47:27.40	327.77	20.22	-37.4	-39.2	21.3	0.00e+00	0	40	0	3137339392	45	4661
2026-01-08 12:47:28.26	327.86	20.12	-37.5	-39.2	21.2	0.00e+00	0	40	0	3142582272	45	4703
2026-01-08 12:47:29.41	327.98	19.98	-37.6	-39.3	21.1	0.00e+00	0	40	0	3148873728	45	4739
2026-01-08 12:47:30.27	328.06	19.88	-37.7	-39.4	21.1	0.00e+00	0	40	0	3154116608	45	4791
2026-01-08 12:47:31.42	328.18	19.74	-37.8	-39.5	21.0	0.00e+00	0	40	0	3160408064	46	4595
2026-01-08 12:47:32.29	328.27	19.64	-37.8	-39.6	20.9	0.00e+00	0	40	0	3165650944	46	4619
2026-01-08 12:47:33.62	328.40	19.49	-37.9	-39.8	20.8	0.00e+00	0	40	0	3172990976	46	4708
2026-01-08 12:47:34.33	328.47	19.40	-38.0	-39.8	20.7	0.00e+00	0	40	0	3177185280	46	4732
2026-01-08 12:47:35.62	328.59	19.25	-37.9	-39.8	20.8	0.00e+00	0	40	0	3183476736	46	4715
2026-01-08 12:47:36.33	328.66	19.17	-38.0	-39.9	20.7	0.00e+00	0	40	0	3188719616	46	4781
2026-01-08 12:47:37.63	328.78	19.02	-38.1	-39.9	20.6	0.00e+00	0	40	0	3195011072	46	4802
2026-01-08 12:47:38.34	328.85	18.94	-38.1	-40.0	20.6	0.00e+00	0	40	0	3199205376	46	4817
2026-01-08 12:47:39.63	328.97	18.79	-38.0	-39.9	20.6	0.00e+00	0	40	0	3206545408	46	4767
2026-01-08 12:47:40.35	329.04	18.71	-38.0	-39.9	20.7	0.00e+00	0	40	0	3210739712	46	4770
2026-01-08 12:47:41.64	329.16	18.56	-38.0	-39.9	20.7	0.00e+00	0	40	0	3218079744	46	4768
2026-01-08 12:47:42.55	329.25	18.46	-38.0	-39.8	20.7	0.00e+00	0	40	0	3223322624	46	4743
2026-01-08 12:47:43.55	329.34	18.35	-38.0	-39.8	20.7	0.00e+00	0	40	0	3228565504	46	4739
2026-01-08 12:47:44.55	329.43	18.23	-38.0	-39.8	20.7	0.00e+00	0	40	0	3233808384	46	4750
2026-01-08 12:47:45.56	329.52	18.12	-38.0	-39.8	20.7	0.00e+00	0	40	0	3240099840	46	4735
2026-01-08 12:47:46.56	329.61	18.01	-38.1	-39.8	20.7	0.00e+00	0	40	0	3245342720	46	4740
2026-01-08 12:47:47.56	329.70	17.90	-38.0	-39.8	20.7	0.00e+00	0	40	0	3251634176	46	4727
2026-01-08 12:47:48.57	329.79	17.79	-38.1	-39.9	20.6	0.00e+00	0	40	0	3256877056	46	4774
2026-01-08 12:47:49.57	329.88	17.68	-38.2	-39.9	20.6	0.00e+00	0	40	0	3262119936	47	4540
2026-01-08 12:47:50.57	329.96	17.57	-38.1	-39.9	20.6	0.00e+00	0	40	0	3268411392	47	4499
2026-01-08 12:47:51.58	330.05	17.46	-38.2	-39.9	20.6	0.00e+00	0	40	0	3273654272	47	4524
2026-01-08 12:47:52.58	330.14	17.35	-38.3	-40.0	20.5	0.00e+00	0	40	0	3279945728	47	4582
2026-01-08 12:47:53.58	330.22	17.24	-38.3	-40.1	20.4	0.00e+00	0	40	0	3285188608	47	4606
2026-01-08 12:47:54.59	330.31	17.13	-38.4	-40.2	20.4	0.00e+00	0	40	0	3290431488	47	4662
2026-01-08 12:47:55.59	330.39	17.02	-38.4	-40.2	20.4	0.00e+00	0	40	0	3296722944	47	4660
2026-01-08 12:47:56.59	330.48	16.91	-38.4	-40.2	20.3	0.00e+00	0	40	0	3301965824	47	4694
2026-01-08 12:47:57.60	330.56	16.81	-38.6	-40.4	20.2	0.00e+00	0	40	0	3307208704	47	4767
2026-01-08 12:47:59.00	330.67	16.66	-38.7	-40.4	20.1	0.00e+00	0	40	0	3315597312	47	4813
2026-01-08 12:47:59.72	330.73	16.58	-38.7	-40.5	20.1	0.00e+00	0	40	0	3319791616	47	4842
2026-01-08 12:48:01.01	330.84	16.45	-38.7	-40.5	20.2	0.00e+00	0	40	0	3327131648	48	4588
2026-01-08 12:48:01.72	330.90	16.37	-38.8	-40.6	20.2	0.00e+00	0	40	0	3330277376	48	4636
2026-01-08 12:48:03.01	331.00	16.24	-38.8	-40.6	20.2	0.00e+00	0	40	0	3337617408	48	4645
2026-01-08 12:48:03.73	331.06	16.16	-38.9	-40.7	20.1	0.00e+00	0	40	0	3341811712	48	4691
2026-01-08 12:48:05.02	331.16	16.03	-38.9	-40.7	20.1	0.00e+00	0	40	0	3349151744	48	4679
2026-01-08 12:48:05.73	331.22	15.95	-38.8	-40.6	20.2	0.00e+00	0	40	0	3353346048	48	4634
2026-01-08 12:48:07.12	331.32	15.81	-38.9	-40.7	20.1	0.00e+00	0	40	0	3360686080	48	4694
2026-01-08 12:48:07.83	331.38	15.74	-38.8	-40.7	20.1	0.00e+00	0	40	0	3364880384	48	4667
2026-01-08 12:48:09.12	331.48	15.61	-38.8	-40.7	20.1	0.00e+00	0	40	0	3372220416	48	4669
2026-01-08 12:48:09.84	331.53	15.53	-38.9	-40.8	20.0	0.00e+00	0	40	0	3376414720	48	4707
2026-01-08 12:48:11.25	331.64	15.39	-38.8	-40.7	20.1	0.00e+00	0	40	0	3384803328	48	4667
2026-01-08 12:48:12.23	331.72	15.29	-38.9	-40.8	20.0	0.00e+00	0	40	0	3390046208	48	4707
2026-01-08 12:48:13.53	331.81	15.16	-38.9	-40.7	20.0	0.00e+00	0	40	0	3397386240	48	4698
2026-01-08 12:48:14.25	331.87	15.09	-39.0	-40.9	19.9	0.00e+00	0	40	0	3401580544	48	4773
2026-01-08 12:48:15.54	331.96	14.96	-39.1	-40.9	19.9	0.00e+00	0	40	0	3408920576	48	4797
2026-01-08 12:48:16.26	332.02	14.89	-39.2	-41.0	19.8	0.00e+00	0	40	0	3413114880	48	4854
2026-01-08 12:48:17.55	332.11	14.76	-39.1	-40.9	19.9	0.00e+00	0	40	0	3420454912	49	4512
2026-01-08 12:48:18.27	332.16	14.69	-39.1	-41.0	19.8	0.00e+00	0	40	0	3423600640	49	4571
2026-01-08 12:48:19.56	332.25	14.56	-39.2	-41.0	19.7	0.00e+00	0	40	0	3430940672	49	4592
2026-01-08 12:48:20.27	332.31	14.49	-39.2	-41.1	19.7	0.00e+00	0	40	0	3435134976	49	4608
2026-01-08 12:48:21.63	332.40	14.36	-39.4	-41.2	19.5	0.00e+00	0	40	0	3443523584	49	4704
2026-01-08 12:48:22.34	332.45	14.29	-39.4	-41.3	19.5	0.00e+00	0	40	0	3446669312	49	4726
2026-01-08 12:48:23.64	332.54	14.17	-39.3	-41.2	19.6	0.00e+00	0	40	0	3454009344	49	4672
2026-01-08 12:48:24.35	332.59	14.10	-39.3	-41.2	19.6	0.00e+00	0	40	0	3458203648	49	4672
2026-01-08 12:48:25.64	332.68	13.97	-39.3	-41.2	19.6	0.00e+00	0	40	0	3465543680	49	4694
2026-01-08 12:48:26.36	332.73	13.90	-39.4	-41.3	19.5	0.00e+00	0	40	0	3469737984	49	4746
2026-01-08 12:48:27.65	332.82	13.78	-39.5	-41.4	19.4	0.00e+00	0	40	0	3477078016	49	4769
2026-01-08 12:48:28.37	332.87	13.71	-39.3	-41.2	19.5	0.00e+00	0	40	0	3480223744	49	4695
2026-01-08 12:48:29.65	332.96	13.59	-39.6	-41.5	19.3	0.00e+00	0	40	0	3487563776	49	4863
2026-01-08 12:48:30.47	333.01	13.51	-39.4	-41.3	19.5	0.00e+00	0	40	0	3492806656	49	4732
2026-01-08 12:48:31.61	333.09	13.41	-39.4	-41.3	19.5	0.00e+00	0	40	0	3499098112	49	4726
2026-01-08 12:48:32.70	333.16	13.30	-39.5	-41.3	19.4	0.00e+00	0	40	0	3505389568	49	4756
2026-01-08 12:48:33.72	333.23	13.21	-39.4	-41.3	19.5	0.00e+00	0	40	0	3510632448	49	4712
2026-01-08 12:48:34.88	333.31	13.10	-39.5	-41.3	19.4	0.00e+00	0	40	0	3517972480	49	4758
2026-01-08 12:48:35.74	333.36	13.02	-39.4	-41.2	19.5	0.00e+00	0	40	0	3522166784	49	4700
2026-01-08 12:48:37.11	333.45	12.90	-39.7	-41.6	19.2	0.00e+00	0	40	0	3529506816	49	4872
2026-01-08 12:48:38.23	333.52	12.79	-39.4	-41.3	19.5	0.00e+00	0	40	0	3536846848	49	4707
2026-01-08 12:48:39.42	333.60	12.68	-39.6	-41.4	19.3	0.00e+00	0	40	0	3543138304	49	4810
2026-01-08 12:48:40.28	333.66	12.61	-39.4	-41.3	19.4	0.00e+00	0	40	0	3548381184	49	4735
2026-01-08 12:48:41.43	333.73	12.50	-39.5	-41.4	19.3	0.00e+00	0	40	0	3554672640	49	4794
2026-01-08 12:48:42.29	333.78	12.42	-39.7	-41.7	19.1	0.00e+00	0	40	0	3558866944	50	4652
2026-01-08 12:48:43.44	333.86	12.32	-39.7	-41.6	19.2	0.00e+00	0	40	0	3565158400	50	4643
2026-01-08 12:48:44.30	333.91	12.24	-39.8	-41.7	19.0	0.00e+00	0	40	0	3570401280	50	4697
2026-01-08 12:48:45.45	333.98	12.14	-39.6	-41.5	19.3	0.00e+00	0	40	0	3576692736	50	4561
2026-01-08 12:48:46.30	334.03	12.06	-39.7	-41.7	19.1	0.00e+00	0	40	0	3581935616	50	4656
2026-01-08 12:48:47.48	334.10	11.96	-39.8	-41.8	19.0	0.00e+00	0	40	0	3588227072	50	4710
2026-01-08 12:48:48.34	334.16	11.88	-39.8	-41.7	19.1	0.00e+00	0	40	0	3593469952	50	4691
2026-01-08 12:48:49.49	334.23	11.78	-40.0	-41.9	18.9	0.00e+00	0	40	0	3599761408	50	4810
2026-01-08 12:48:50.35	334.28	11.70	-39.9	-41.9	18.9	0.00e+00	0	40	0	3603955712	50	4792
2026-01-08 12:48:51.49	334.35	11.60	-39.9	-41.8	18.9	0.00e+00	0	40	0	3611295744	50	4755
2026-01-08 12:48:52.35	334.40	11.53	-40.0	-42.0	18.8	0.00e+00	0	40	0	3615490048	50	4836
2026-01-08 12:48:53.50	334.47	11.43	-40.1	-42.1	18.7	0.00e+00	0	40	0	3621781504	50	4921
2026-01-08 12:48:54.36	334.52	11.35	-40.1	-42.1	18.7	0.00e+00	0	40	0	3627024384	50	4918
2026-01-08 12:48:55.51	334.58	11.25	-40.1	-42.1	18.7	0.00e+00	0	40	0	3633315840	51	4641
2026-01-08 12:48:56.37	334.63	11.18	-40.0	-42.0	18.8	0.00e+00	0	40	0	3638558720	51	4555
2026-01-08 12:48:57.51	334.70	11.08	-40.2	-42.3	18.6	0.00e+00	0	40	0	3644850176	51	4709
2026-01-08 12:48:58.37	334.75	11.01	-40.2	-42.2	18.6	0.00e+00	0	40	0	3649044480	51	4674
2026-01-08 12:48:59.51	334.81	10.91	-40.4	-42.5	18.4	0.00e+00	0	40	0	3656384512	51	4825
2026-01-08 12:49:00.37	334.86	10.84	-40.2	-42.2	18.6	0.00e+00	0	40	0	3660578816	51	4674
2026-01-08 12:49:01.52	334.93	10.74	-40.0	-42.0	18.8	0.00e+00	0	40	0	3666870272	51	4570
2026-01-08 12:49:02.38	334.98	10.66	-40.4	-42.5	18.3	0.00e+00	0	40	0	3672113152	51	4835
2026-01-08 12:49:03.52	335.04	10.57	-40.0	-42.0	18.6	0.00e+00	0	40	0	3678404608	52	4330
2026-01-08 12:49:04.39	335.09	10.49	-39.9	-41.9	18.9	0.00e+00	0	40	0	3683647488	51	4506
2026-01-08 12:49:05.53	335.15	10.40	-40.2	-42.2	18.5	0.00e+00	0	40	0	3689938944	51	4687
2026-01-08 12:49:06.39	335.20	10.33	-40.1	-42.1	18.6	0.00e+00	0	40	0	3695181824	51	4643
2026-01-08 12:49:07.63	335.27	10.22	-40.2	-42.3	18.4	0.00e+00	0	40	0	3701473280	51	4729
2026-01-08 12:49:08.49	335.32	10.15	-40.0	-42.1	18.7	0.00e+00	0	40	0	3706716160	51	4612
2026-01-08 12:49:09.63	335.38	10.06	-40.1	-42.1	18.6	0.00e+00	0	40	0	3713007616	51	4645
2026-01-08 12:49:10.49	335.42	9.99	-40.0	-42.1	18.6	0.00e+00	0	40	0	3718250496	51	4639
2026-01-08 12:49:11.64	335.49	9.89	-40.0	-42.1	18.6	0.00e+00	0	40	0	3724541952	51	4625
2026-01-08 12:49:12.50	335.53	9.82	-40.1	-42.1	18.6	0.00e+00	0	40	0	3728736256	51	4650
2026-01-08 12:49:13.65	335.59	9.73	-40.2	-42.2	18.5	0.00e+00	0	40	0	3735027712	51	4704
2026-01-08 12:49:14.62	335.64	9.65	-40.1	-42.1	18.6	0.00e+00	0	40	0	3741319168	51	4648
2026-01-08 12:49:15.79	335.71	9.55	-40.0	-42.1	18.6	0.00e+00	0	40	0	3747610624	51	4611
2026-01-08 12:49:16.65	335.75	9.48	-40.2	-42.3	18.4	0.00e+00	0	40	0	3752853504	51	4715
2026-01-08 12:49:17.99	335.82	9.37	-40.0	-42.1	18.6	0.00e+00	0	40	0	3760193536	51	4602
2026-01-08 12:49:18.71	335.86	9.32	-40.3	-42.4	18.3	0.00e+00	0	40	0	3764387840	51	4763
2026-01-08 12:49:20.00	335.92	9.21	-39.9	-42.0	18.6	0.00e+00	0	40	0	3771727872	51	4567
2026-01-08 12:49:20.72	335.96	9.16	-40.1	-42.2	18.4	0.00e+00	0	40	0	3774873600	51	4693
