passes_logs/2026/01/08/T1/T1__20260108_020804_NOAA_20_JPSS-1_rec.log

#Pass ID: 20260108_020804_NOAA 20 (JPSS-1)
#Satellite: NOAA 20 (JPSS-1)
#Configuration: NOAA 20
#almurnet v.1.7.20251203
#Start time: 2026-01-08 02:08:05

#Version: 2.0.20230620
#Station: T1
#Location: 37.570604 lon 55.790049 lat
#TLE: 1 43013U 17073A   26007.85857786  .00000116  00000+0  75964-4 0  9990
#TLE: 2 43013  98.7630 308.8736 0001754  49.6212 310.5117 14.19534226421723

#Time	Az	El	Level	Level2	SNR	BER	BlckErr	Temp	State	Recorded	gain1	gain2
2026-01-08 02:08:05.83	1.84	5.08	-48.0	-66.1	3.8	1.49e+00	0	38	0	0	67	29225
2026-01-08 02:08:06.83	1.73	5.13	-49.3	-66.2	3.8	1.49e+00	0	39	104	0	69	26227
2026-01-08 02:08:07.83	1.62	5.17	-49.3	-66.2	3.8	1.49e+00	0	39	104	0	69	26350
2026-01-08 02:08:08.83	1.51	5.22	-49.3	-66.2	3.8	1.49e+00	0	39	104	0	69	26287
2026-01-08 02:08:09.84	1.39	5.27	-49.3	-66.2	3.8	1.49e+00	0	39	104	0	69	26157
2026-01-08 02:08:10.84	1.28	5.32	-49.3	-66.2	3.8	1.49e+00	0	39	104	0	69	26264
2026-01-08 02:08:11.85	1.16	5.37	-49.3	-66.2	3.8	1.49e+00	0	39	104	0	69	26274
2026-01-08 02:08:12.85	1.05	5.42	-49.3	-66.2	3.8	1.49e+00	0	39	104	0	69	26262
2026-01-08 02:08:13.85	0.94	5.46	-49.3	-66.2	3.8	1.49e+00	0	39	104	0	69	26227
2026-01-08 02:08:14.86	0.82	5.51	-49.3	-66.2	3.8	1.49e+00	0	39	104	0	69	26256
2026-01-08 02:08:15.86	0.70	5.56	-49.3	-66.2	3.8	1.49e+00	0	39	104	0	69	26247
2026-01-08 02:08:16.87	0.59	5.61	-49.3	-66.2	3.8	1.49e+00	0	39	104	0	69	26228
2026-01-08 02:08:17.87	0.47	5.66	-49.3	-66.2	3.8	1.49e+00	0	39	104	0	69	26195
2026-01-08 02:08:18.88	0.35	5.71	-49.3	-66.2	3.8	1.49e+00	0	39	104	0	69	26278
2026-01-08 02:08:19.88	0.24	5.75	-49.3	-66.1	3.8	1.49e+00	0	39	104	0	69	26149
2026-01-08 02:08:20.89	0.12	5.80	-49.3	-66.2	3.8	1.49e+00	0	39	104	0	69	26170
2026-01-08 02:08:21.89	0.00	5.85	-49.3	-66.2	3.8	1.49e+00	0	39	104	0	69	26228
2026-01-08 02:08:22.90	359.88	5.90	-49.3	-66.1	3.8	1.49e+00	0	39	104	0	69	26146
2026-01-08 02:08:23.90	359.76	5.95	-49.3	-66.2	3.8	1.49e+00	0	39	104	0	69	26258
2026-01-08 02:08:24.90	359.65	5.99	-49.2	-66.2	3.8	1.49e+00	0	39	104	0	69	26323
2026-01-08 02:08:25.91	359.53	6.04	-49.3	-66.1	3.8	1.49e+00	0	39	104	0	69	26097
2026-01-08 02:08:26.91	359.41	6.09	-49.3	-66.2	3.8	1.49e+00	0	39	104	0	69	26205
2026-01-08 02:08:27.91	359.29	6.14	-49.3	-66.2	3.8	1.49e+00	0	39	104	0	69	26234
2026-01-08 02:08:28.92	359.16	6.19	-49.3	-66.2	3.8	1.49e+00	0	39	104	0	69	26222
2026-01-08 02:08:29.93	359.04	6.23	-49.3	-66.2	3.8	1.49e+00	0	39	104	0	69	26240
2026-01-08 02:08:30.93	358.92	6.28	-49.2	-66.1	3.8	1.49e+00	0	39	104	0	69	26078
2026-01-08 02:08:31.93	358.80	6.33	-49.3	-66.2	3.8	1.49e+00	0	39	104	0	69	26168
2026-01-08 02:08:32.94	358.68	6.38	-49.3	-66.1	3.8	1.49e+00	0	39	104	0	69	26060
2026-01-08 02:08:33.94	358.55	6.42	-49.3	-66.2	3.8	1.49e+00	0	40	104	0	69	26198
2026-01-08 02:08:34.95	358.43	6.47	-49.3	-66.2	3.8	1.49e+00	0	39	104	0	69	26181
2026-01-08 02:08:35.95	358.31	6.52	-49.3	-66.1	3.8	1.49e+00	0	40	104	0	69	26119
2026-01-08 02:08:36.96	358.18	6.57	-49.3	-66.1	3.8	1.49e+00	0	39	104	0	69	26135
2026-01-08 02:08:37.96	358.06	6.61	-49.3	-66.2	3.8	1.49e+00	0	40	104	0	69	26203
2026-01-08 02:08:38.97	357.93	6.66	-49.3	-66.1	3.8	1.49e+00	0	40	104	0	69	26143
2026-01-08 02:08:39.97	357.81	6.71	-49.3	-66.1	3.8	1.49e+00	0	40	104	0	69	26119
2026-01-08 02:08:40.97	357.68	6.76	-49.3	-66.1	3.8	1.49e+00	0	40	104	0	69	26092
2026-01-08 02:08:41.98	357.56	6.80	-49.3	-66.1	3.8	1.49e+00	0	40	104	0	69	26113
2026-01-08 02:08:42.98	357.43	6.85	-49.3	-66.2	3.8	1.49e+00	0	40	104	0	69	26201
2026-01-08 02:08:43.99	357.30	6.90	-49.3	-66.1	3.8	1.49e+00	0	40	104	0	69	26101
2026-01-08 02:08:44.99	357.17	6.95	-49.3	-66.2	3.8	1.49e+00	0	40	104	0	69	26174
2026-01-08 02:08:46.00	357.05	6.99	-49.3	-66.2	3.8	1.49e+00	0	40	104	0	69	26168
2026-01-08 02:08:47.00	356.92	7.04	-49.3	-66.1	3.8	1.49e+00	0	40	104	0	69	26136
2026-01-08 02:08:48.01	356.79	7.09	-49.3	-66.2	3.8	1.49e+00	0	40	104	0	69	26161
2026-01-08 02:08:49.01	356.66	7.14	-49.3	-66.1	3.8	1.49e+00	0	40	104	0	69	26043
2026-01-08 02:08:50.02	356.53	7.18	-49.3	-66.1	3.8	1.49e+00	0	40	104	0	69	26091
2026-01-08 02:08:51.02	356.40	7.23	-49.3	-66.2	3.8	1.49e+00	0	40	104	0	69	26182
2026-01-08 02:08:52.02	356.27	7.28	-49.3	-66.1	3.8	1.49e+00	0	40	104	0	69	26128
2026-01-08 02:08:53.03	356.14	7.32	-49.3	-66.1	3.8	1.49e+00	0	40	104	0	69	26118
2026-01-08 02:08:54.03	356.01	7.37	-49.3	-66.1	3.8	1.49e+00	0	40	104	0	69	25970
2026-01-08 02:08:55.04	355.87	7.42	-49.3	-66.1	3.8	1.49e+00	0	40	104	0	69	26068
2026-01-08 02:08:56.04	355.74	7.46	-49.3	-66.1	3.8	1.49e+00	0	40	104	0	69	26076
2026-01-08 02:08:57.05	355.61	7.51	-49.3	-66.1	3.8	1.49e+00	0	40	104	0	69	26108
2026-01-08 02:08:58.05	355.48	7.56	-49.3	-66.1	3.8	1.49e+00	0	40	104	0	69	26078
2026-01-08 02:08:59.05	355.34	7.60	-49.3	-66.1	3.8	1.49e+00	0	40	104	0	69	26019
2026-01-08 02:09:00.06	355.21	7.65	-49.3	-66.1	3.8	1.49e+00	0	40	104	0	69	26131
2026-01-08 02:09:01.06	355.08	7.70	-49.2	-66.1	3.8	1.49e+00	0	40	104	0	69	26037
2026-01-08 02:09:02.07	354.94	7.74	-49.3	-66.1	3.8	1.49e+00	0	40	104	0	69	26126
2026-01-08 02:09:03.07	354.80	7.79	-49.3	-66.1	3.8	1.49e+00	0	40	104	0	69	25981
2026-01-08 02:09:04.07	354.67	7.83	-49.3	-66.0	3.8	1.49e+00	0	40	104	0	69	25832
2026-01-08 02:09:05.08	354.53	7.88	-49.3	-66.0	3.8	1.49e+00	0	40	104	0	69	25633
2026-01-08 02:09:06.08	354.40	7.93	-49.3	-65.9	3.8	1.49e+00	0	40	104	0	69	25309
2026-01-08 02:09:07.09	354.26	7.97	-49.3	-65.8	3.8	1.49e+00	0	40	104	0	69	24982
2026-01-08 02:09:08.09	354.12	8.02	-49.3	-65.8	3.8	1.49e+00	0	40	104	0	69	25004
2026-01-08 02:09:09.10	353.98	8.06	-49.2	-65.8	3.8	1.49e+00	0	40	104	0	69	25237
2026-01-08 02:09:10.10	353.84	8.11	-49.3	-65.9	3.8	1.49e+00	0	40	104	0	69	25500
2026-01-08 02:09:11.10	353.71	8.15	-49.3	-66.0	3.8	1.49e+00	0	40	104	0	69	25651
2026-01-08 02:09:12.11	353.57	8.20	-49.3	-66.0	3.8	1.49e+00	0	40	104	0	69	25705
2026-01-08 02:09:13.11	353.43	8.25	-49.3	-66.0	3.8	1.49e+00	0	40	104	0	69	25599
2026-01-08 02:09:14.12	353.29	8.29	-49.3	-66.0	3.8	1.49e+00	0	40	104	0	69	25748
2026-01-08 02:09:15.12	353.15	8.34	-49.3	-66.1	3.8	1.49e+00	0	40	104	0	69	26008
2026-01-08 02:09:16.13	353.00	8.38	-49.3	-66.0	3.8	1.49e+00	0	40	104	0	69	25784
2026-01-08 02:09:17.13	352.86	8.43	-49.3	-65.7	3.8	1.49e+00	0	41	104	0	69	24767
2026-01-08 02:09:18.13	352.72	8.47	-49.2	-65.2	3.8	1.49e+00	0	40	104	0	69	23378
2026-01-08 02:09:19.14	352.58	8.52	-49.2	-64.6	3.8	1.49e+00	0	40	104	0	69	22005
2026-01-08 02:09:20.14	352.44	8.56	-49.2	-64.2	3.8	1.49e+00	0	40	104	0	69	20946
2026-01-08 02:09:21.15	352.29	8.61	-49.2	-64.0	3.8	1.49e+00	0	40	104	0	69	20385
2026-01-08 02:09:22.15	352.15	8.65	-49.2	-63.9	3.8	1.49e+00	0	40	104	0	69	20234
2026-01-08 02:09:23.15	352.01	8.70	-49.1	-63.7	3.9	1.49e+00	0	40	104	0	69	19787
2026-01-08 02:09:24.16	351.86	8.74	-49.2	-63.5	3.9	1.48e+00	0	40	104	0	69	19333
2026-01-08 02:09:25.16	351.72	8.78	-49.1	-62.9	4.1	1.45e+00	0	41	0	0	69	18006
2026-01-08 02:09:26.17	351.57	8.83	-49.1	-62.2	4.3	1.40e+00	0	40	0	0	69	16551
2026-01-08 02:09:27.17	351.42	8.87	-49.0	-61.2	4.7	1.01e+00	0	41	0	1048576	69	14749
2026-01-08 02:09:28.17	351.28	8.92	-48.8	-59.7	5.5	6.31e-01	0	41	0	3145728	69	12397
2026-01-08 02:09:29.18	351.13	8.96	-48.6	-57.7	7.1	2.94e-01	0	40	0	5242880	69	9897
2026-01-08 02:09:30.18	350.98	9.01	-48.2	-55.8	8.9	4.06e-02	0	41	0	7340032	68	8450
2026-01-08 02:09:31.19	350.83	9.05	-47.6	-53.9	10.8	5.67e-03	0	40	0	8388608	67	7130
2026-01-08 02:09:32.19	350.69	9.09	-47.9	-54.5	10.2	5.61e-03	0	41	0	10485760	67	7666
2026-01-08 02:09:33.19	350.54	9.14	-48.5	-57.7	6.9	1.14e-01	0	41	0	12582912	67	11082
2026-01-08 02:09:34.21	350.39	9.18	-46.8	-51.8	13.0	5.41e-05	0	41	0	14680064	65	6282
2026-01-08 02:09:35.27	350.23	9.23	-48.0	-57.2	7.1	2.97e-01	0	41	0	16777216	66	11112
2026-01-08 02:09:36.16	350.10	9.26	-45.8	-49.7	15.1	6.10e-05	0	41	0	17825792	63	5531
2026-01-08 02:09:37.30	349.92	9.31	-45.7	-49.5	15.3	7.00e-07	0	41	0	19922944	63	5406
2026-01-08 02:09:38.16	349.80	9.35	-45.6	-49.3	15.5	0.00e+00	0	41	0	22020096	63	5307
2026-01-08 02:09:39.31	349.62	9.40	-45.4	-49.1	15.7	0.00e+00	0	41	0	24117248	62	5486
2026-01-08 02:09:40.17	349.49	9.44	-45.4	-49.0	15.7	0.00e+00	0	41	0	25165824	62	5450
2026-01-08 02:09:41.59	349.28	9.50	-45.4	-49.0	15.8	0.00e+00	0	41	0	28311552	62	5424
2026-01-08 02:09:42.31	349.17	9.53	-45.3	-48.8	16.0	0.00e+00	0	40	0	29360128	62	5316
2026-01-08 02:09:43.60	348.97	9.58	-45.3	-48.9	15.9	0.00e+00	0	41	0	32505856	62	5400
2026-01-08 02:09:44.31	348.86	9.61	-45.2	-48.8	16.0	0.00e+00	0	41	0	33554432	62	5333
2026-01-08 02:09:45.60	348.66	9.67	-45.1	-48.7	16.1	0.00e+00	0	41	0	35651584	62	5236
2026-01-08 02:09:46.38	348.54	9.70	-45.0	-48.7	16.1	0.00e+00	0	40	0	37748736	61	5574
2026-01-08 02:09:47.58	348.36	9.75	-45.0	-48.8	16.0	0.00e+00	0	41	0	39845888	61	5615
2026-01-08 02:09:48.44	348.22	9.78	-44.8	-48.7	16.0	0.00e+00	0	41	0	40894464	61	5542
2026-01-08 02:09:49.58	348.05	9.83	-44.7	-48.6	16.2	0.00e+00	0	41	0	42991616	61	5468
2026-01-08 02:09:50.44	347.91	9.87	-44.7	-48.5	16.2	0.00e+00	0	41	0	45088768	61	5447
2026-01-08 02:09:51.59	347.73	9.91	-44.5	-48.4	16.3	0.00e+00	0	41	0	47185920	61	5362
2026-01-08 02:09:52.73	347.55	9.96	-44.6	-48.4	16.4	0.00e+00	0	41	0	49283072	61	5368
2026-01-08 02:09:53.60	347.42	10.00	-44.7	-48.5	16.3	0.00e+00	0	41	0	50331648	61	5457
2026-01-08 02:09:55.11	347.18	10.06	-44.6	-48.4	16.4	0.00e+00	0	41	0	53477376	61	5377
2026-01-08 02:09:55.82	347.06	10.09	-44.6	-48.4	16.3	0.00e+00	0	41	0	54525952	61	5368
2026-01-08 02:09:57.11	346.86	10.14	-44.5	-48.5	16.4	0.00e+00	0	41	0	57671680	60	5743
2026-01-08 02:09:57.83	346.74	10.17	-44.4	-48.5	16.3	0.00e+00	0	41	0	58720256	60	5747
2026-01-08 02:09:59.12	346.54	10.22	-44.3	-48.4	16.3	0.00e+00	0	41	0	60817408	60	5704
2026-01-08 02:09:59.83	346.42	10.25	-44.2	-48.3	16.6	0.00e+00	0	41	0	62914560	60	5603
2026-01-08 02:10:01.12	346.22	10.30	-44.3	-48.3	16.4	0.00e+00	0	41	0	65011712	60	5617
2026-01-08 02:10:01.84	346.10	10.33	-44.3	-48.3	16.6	0.00e+00	0	41	0	66060288	60	5596
2026-01-08 02:10:03.13	345.89	10.38	-44.6	-48.5	16.4	0.00e+00	0	41	0	69206016	60	5726
2026-01-08 02:10:04.10	345.74	10.42	-44.5	-48.3	16.5	0.00e+00	0	41	0	70254592	60	5642
2026-01-08 02:10:05.11	345.57	10.46	-44.5	-48.3	16.5	0.00e+00	0	41	0	72351744	60	5642
2026-01-08 02:10:06.46	345.35	10.51	-44.3	-48.2	16.6	0.00e+00	0	41	0	74448896	60	5559
2026-01-08 02:10:07.21	345.23	10.54	-44.2	-48.1	16.6	0.00e+00	0	41	0	76546048	60	5512
2026-01-08 02:10:08.50	345.02	10.59	-44.1	-48.1	16.7	0.00e+00	0	41	0	78643200	60	5498
2026-01-08 02:10:09.22	344.90	10.61	-44.1	-48.1	16.7	0.00e+00	0	41	0	79691776	60	5502
2026-01-08 02:10:10.85	344.63	10.68	-44.1	-48.0	16.9	0.00e+00	0	41	0	82837504	60	5412
2026-01-08 02:10:11.43	344.53	10.70	-44.2	-48.1	16.8	0.00e+00	0	41	0	83886080	60	5469
2026-01-08 02:10:13.02	344.27	10.76	-44.2	-47.9	17.0	0.00e+00	0	41	0	87031808	60	5353
2026-01-08 02:10:13.59	344.18	10.78	-44.2	-47.8	17.0	0.00e+00	0	41	0	88080384	60	5285
2026-01-08 02:10:15.22	343.90	10.84	-44.4	-47.8	16.9	0.00e+00	0	41	0	91226112	60	5330
2026-01-08 02:10:15.87	343.79	10.87	-44.6	-47.9	16.9	0.00e+00	0	41	0	92274688	60	5369
2026-01-08 02:10:17.30	343.56	10.92	-44.8	-48.1	16.7	0.00e+00	0	41	0	95420416	60	5501
2026-01-08 02:10:18.12	343.42	10.95	-44.8	-48.1	16.7	0.00e+00	0	41	0	96468992	60	5527
2026-01-08 02:10:19.26	343.22	10.99	-44.8	-48.0	16.7	0.00e+00	0	41	0	98566144	60	5457
2026-01-08 02:10:20.12	343.08	11.02	-44.9	-48.1	16.7	0.00e+00	0	41	0	100663296	60	5515
2026-01-08 02:10:21.27	342.88	11.06	-44.8	-48.1	16.8	0.00e+00	0	41	0	102760448	60	5472
2026-01-08 02:10:22.13	342.74	11.10	-44.8	-47.9	16.9	0.00e+00	0	41	0	104857600	60	5395
2026-01-08 02:10:23.28	342.54	11.14	-44.8	-48.0	16.8	0.00e+00	0	41	0	106954752	60	5442
2026-01-08 02:10:24.14	342.40	11.17	-44.9	-48.1	16.7	0.00e+00	0	41	0	108003328	60	5527
2026-01-08 02:10:25.32	342.19	11.21	-45.0	-48.2	16.6	0.00e+00	0	41	0	110100480	60	5553
2026-01-08 02:10:26.17	342.05	11.24	-45.0	-48.3	16.6	0.00e+00	0	41	0	112197632	60	5607
2026-01-08 02:10:27.32	341.85	11.28	-45.0	-48.2	16.7	0.00e+00	0	41	0	114294784	60	5559
2026-01-08 02:10:28.18	341.70	11.31	-45.0	-48.3	16.6	0.00e+00	0	41	0	115343360	60	5597
2026-01-08 02:10:29.33	341.50	11.35	-45.1	-48.4	16.5	0.00e+00	0	41	0	117440512	60	5700
2026-01-08 02:10:30.21	341.35	11.38	-45.2	-48.5	16.4	0.00e+00	0	41	0	119537664	61	5429
2026-01-08 02:10:31.53	341.12	11.43	-45.1	-48.3	16.5	0.00e+00	0	41	0	121634816	61	5340
2026-01-08 02:10:32.24	341.00	11.45	-45.2	-48.5	16.4	0.00e+00	0	41	0	123731968	61	5408
2026-01-08 02:10:33.74	340.73	11.50	-45.3	-48.6	16.3	0.00e+00	0	41	0	125829120	61	5481
2026-01-08 02:10:34.45	340.61	11.52	-45.3	-48.6	16.3	0.00e+00	0	41	0	127926272	61	5496
2026-01-08 02:10:35.74	340.38	11.57	-45.4	-48.7	16.2	0.00e+00	0	41	0	130023424	61	5548
2026-01-08 02:10:36.46	340.26	11.59	-45.3	-48.6	16.3	0.00e+00	0	41	0	131072000	61	5510
2026-01-08 02:10:37.75	340.03	11.63	-45.0	-48.3	16.6	0.00e+00	0	41	0	133169152	61	5307
2026-01-08 02:10:38.47	339.90	11.66	-45.0	-48.3	16.5	0.00e+00	0	41	0	135266304	61	5336
2026-01-08 02:10:39.76	339.67	11.70	-44.8	-48.3	16.6	0.00e+00	0	41	0	137363456	61	5304
2026-01-08 02:10:40.47	339.55	11.72	-44.8	-48.3	16.6	0.00e+00	0	41	0	138412032	61	5298
2026-01-08 02:10:41.76	339.32	11.76	-44.8	-48.2	16.7	0.00e+00	0	41	0	141557760	61	5227
2026-01-08 02:10:42.48	339.19	11.79	-44.9	-48.1	16.7	0.00e+00	0	41	0	142606336	61	5210
2026-01-08 02:10:43.77	338.96	11.83	-45.0	-48.1	16.8	0.00e+00	0	41	0	144703488	61	5208
2026-01-08 02:10:44.48	338.83	11.85	-45.1	-48.2	16.7	0.00e+00	0	41	0	145752064	61	5243
2026-01-08 02:10:45.77	338.60	11.89	-45.2	-48.3	16.6	0.00e+00	0	41	0	148897792	61	5289
2026-01-08 02:10:46.49	338.47	11.91	-45.1	-48.3	16.6	0.00e+00	0	41	0	149946368	61	5320
2026-01-08 02:10:47.78	338.24	11.95	-44.9	-48.2	16.6	0.00e+00	0	41	0	152043520	61	5247
2026-01-08 02:10:48.72	338.07	11.98	-44.8	-48.2	16.6	0.00e+00	0	41	0	154140672	61	5256
2026-01-08 02:10:49.72	337.89	12.01	-44.7	-48.2	16.6	0.00e+00	0	41	0	156237824	61	5260
2026-01-08 02:10:50.73	337.70	12.04	-44.6	-48.2	16.7	0.00e+00	0	41	0	158334976	61	5221
2026-01-08 02:10:51.73	337.52	12.07	-44.8	-48.3	16.6	0.00e+00	0	41	0	159383552	61	5299
2026-01-08 02:10:52.73	337.34	12.10	-44.6	-47.9	16.9	0.00e+00	0	41	0	161480704	61	5092
2026-01-08 02:10:53.74	337.15	12.13	-44.8	-48.0	16.8	0.00e+00	0	41	0	163577856	61	5157
2026-01-08 02:10:54.74	336.97	12.16	-44.8	-48.0	16.9	0.00e+00	0	41	0	165675008	61	5116
2026-01-08 02:10:55.74	336.79	12.19	-44.9	-48.1	16.8	0.00e+00	0	41	0	167772160	61	5169
2026-01-08 02:10:56.78	336.60	12.22	-44.9	-48.1	16.8	0.00e+00	0	41	0	168820736	61	5172
2026-01-08 02:10:57.78	336.41	12.24	-45.0	-48.2	16.7	0.00e+00	0	41	0	170917888	61	5244
2026-01-08 02:10:58.85	336.21	12.27	-44.9	-48.0	16.8	0.00e+00	0	41	0	173015040	61	5152
2026-01-08 02:10:59.74	336.05	12.30	-44.8	-47.9	17.0	0.00e+00	0	41	0	175112192	61	5098
2026-01-08 02:11:00.88	335.84	12.33	-44.9	-47.9	16.9	0.00e+00	0	41	0	177209344	61	5099
2026-01-08 02:11:01.74	335.68	12.35	-45.0	-48.0	16.9	0.00e+00	0	41	0	178257920	61	5106
2026-01-08 02:11:02.89	335.47	12.38	-45.1	-47.9	16.9	0.00e+00	0	41	0	180355072	61	5098
2026-01-08 02:11:03.75	335.31	12.41	-45.1	-48.0	16.9	0.00e+00	0	41	0	182452224	61	5128
2026-01-08 02:11:04.89	335.09	12.44	-45.1	-48.0	16.9	0.00e+00	0	41	0	184549376	61	5118
2026-01-08 02:11:05.75	334.93	12.46	-45.1	-47.9	17.0	0.00e+00	0	41	0	185597952	61	5067
2026-01-08 02:11:06.90	334.72	12.49	-45.1	-48.0	16.9	0.00e+00	0	41	0	188743680	61	5114
2026-01-08 02:11:07.75	334.56	12.51	-45.0	-47.9	17.0	0.00e+00	0	41	0	189792256	61	5079
2026-01-08 02:11:08.90	334.34	12.54	-45.0	-47.9	17.0	0.00e+00	0	41	0	191889408	61	5084
2026-01-08 02:11:09.76	334.18	12.56	-44.9	-47.8	17.0	0.00e+00	0	41	0	193986560	61	5037
2026-01-08 02:11:10.91	333.96	12.59	-44.9	-47.8	17.1	0.00e+00	0	41	0	196083712	61	5028
2026-01-08 02:11:11.77	333.80	12.61	-44.9	-47.8	17.1	0.00e+00	0	41	0	197132288	61	5004
2026-01-08 02:11:13.10	333.55	12.64	-45.0	-47.9	17.0	0.00e+00	0	41	0	200278016	61	5055
2026-01-08 02:11:13.82	333.41	12.66	-44.9	-47.8	17.1	0.00e+00	0	41	0	201326592	61	5009
2026-01-08 02:11:15.31	333.13	12.69	-45.0	-47.9	17.1	0.00e+00	0	41	0	204472320	61	5043
2026-01-08 02:11:16.02	332.99	12.71	-45.0	-47.9	17.1	0.00e+00	0	41	0	205520896	61	5046
2026-01-08 02:11:17.31	332.75	12.74	-45.1	-48.0	17.0	0.00e+00	0	41	0	207618048	61	5101
2026-01-08 02:11:18.03	332.61	12.76	-44.9	-47.8	17.1	0.00e+00	0	41	0	208666624	61	5010
2026-01-08 02:11:19.32	332.36	12.78	-45.0	-47.9	17.0	0.00e+00	0	41	0	211812352	61	5050
2026-01-08 02:11:20.03	332.23	12.80	-45.1	-48.0	16.9	0.00e+00	0	41	0	212860928	61	5134
2026-01-08 02:11:21.32	331.98	12.83	-45.1	-47.9	17.0	0.00e+00	0	41	0	214958080	61	5073
2026-01-08 02:11:22.04	331.84	12.84	-45.1	-48.0	17.0	0.00e+00	0	41	0	217055232	61	5108
2026-01-08 02:11:23.33	331.59	12.87	-45.1	-47.9	17.1	0.00e+00	0	41	0	219152384	61	5064
2026-01-08 02:11:24.05	331.46	12.89	-45.3	-48.1	16.9	0.00e+00	0	41	0	220200960	61	5190
2026-01-08 02:11:25.34	331.21	12.91	-45.3	-48.2	16.8	0.00e+00	0	41	0	223346688	61	5250
2026-01-08 02:11:26.05	331.07	12.93	-45.4	-48.4	16.6	0.00e+00	0	41	0	224395264	61	5344
2026-01-08 02:11:27.34	330.82	12.95	-45.6	-48.6	16.4	0.00e+00	0	41	0	226492416	61	5495
2026-01-08 02:11:28.18	330.66	12.97	-45.6	-48.6	16.4	0.00e+00	0	41	0	228589568	61	5475
2026-01-08 02:11:29.33	330.43	12.99	-45.6	-48.7	16.3	0.00e+00	0	41	0	230686720	62	5251
2026-01-08 02:11:30.38	330.23	13.01	-45.7	-48.8	16.2	0.00e+00	0	41	0	232783872	62	5301
2026-01-08 02:11:31.30	330.05	13.03	-45.7	-48.7	16.2	0.00e+00	0	41	0	233832448	62	5238
2026-01-08 02:11:32.31	329.85	13.05	-45.7	-48.6	16.4	0.00e+00	0	41	0	235929600	62	5216
2026-01-08 02:11:33.31	329.66	13.06	-45.7	-48.7	16.4	0.00e+00	0	41	0	238026752	62	5221
2026-01-08 02:11:34.31	329.46	13.08	-45.6	-48.6	16.4	0.00e+00	0	41	0	240123904	62	5198
2026-01-08 02:11:35.32	329.27	13.10	-45.6	-48.6	16.4	0.00e+00	0	41	0	241172480	62	5204
2026-01-08 02:11:36.32	329.07	13.12	-45.5	-48.5	16.4	0.00e+00	0	41	0	243269632	62	5151
2026-01-08 02:11:37.33	328.87	13.13	-45.6	-48.6	16.4	0.00e+00	0	41	0	245366784	62	5202
2026-01-08 02:11:38.39	328.67	13.15	-45.6	-48.6	16.4	0.00e+00	0	41	0	247463936	62	5209
2026-01-08 02:11:39.25	328.50	13.16	-45.7	-48.8	16.2	0.00e+00	0	41	0	248512512	62	5306
2026-01-08 02:11:40.60	328.23	13.19	-45.7	-48.7	16.4	0.00e+00	0	41	0	251658240	62	5238
2026-01-08 02:11:41.32	328.09	13.20	-45.8	-48.8	16.3	0.00e+00	0	41	0	252706816	62	5284
2026-01-08 02:11:42.61	327.84	13.22	-45.7	-48.7	16.4	0.00e+00	0	41	0	254803968	62	5230
2026-01-08 02:11:43.33	327.69	13.23	-45.7	-48.7	16.4	0.00e+00	0	41	0	256901120	62	5250
2026-01-08 02:11:44.62	327.44	13.24	-45.6	-48.7	16.4	0.00e+00	0	41	0	258998272	62	5265
2026-01-08 02:11:45.33	327.30	13.25	-45.5	-48.6	16.5	0.00e+00	0	41	0	260046848	62	5168
2026-01-08 02:11:46.62	327.04	13.27	-45.4	-48.5	16.6	0.00e+00	0	41	0	263192576	62	5113
2026-01-08 02:11:47.45	326.88	13.28	-45.4	-48.6	16.5	0.00e+00	0	41	0	264241152	62	5160
2026-01-08 02:11:48.60	326.65	13.30	-45.4	-48.5	16.6	0.00e+00	0	41	0	266338304	62	5150
2026-01-08 02:11:49.65	326.44	13.31	-45.3	-48.5	16.6	0.00e+00	0	41	0	268435456	62	5135
2026-01-08 02:11:50.51	326.27	13.32	-45.3	-48.5	16.7	0.00e+00	0	41	0	270532608	62	5108
2026-01-08 02:11:51.65	326.05	13.34	-45.2	-48.5	16.7	0.00e+00	0	41	0	272629760	62	5112
2026-01-08 02:11:52.75	325.83	13.35	-45.1	-48.4	16.7	0.00e+00	0	41	0	274726912	62	5062
2026-01-08 02:11:53.61	325.66	13.36	-45.1	-48.4	16.7	0.00e+00	0	42	0	275775488	62	5069
2026-01-08 02:11:54.76	325.43	13.37	-45.1	-48.4	16.8	0.00e+00	0	41	0	277872640	62	5074
2026-01-08 02:11:55.82	325.21	13.38	-45.0	-48.3	16.8	0.00e+00	0	41	0	279969792	62	5014
2026-01-08 02:11:56.86	325.01	13.39	-45.1	-48.3	16.8	0.00e+00	0	41	0	282066944	62	5016
2026-01-08 02:11:57.86	324.81	13.40	-45.1	-48.2	16.9	0.00e+00	0	41	0	284164096	62	4961
2026-01-08 02:11:58.86	324.61	13.41	-45.2	-48.3	16.9	0.00e+00	0	41	0	285212672	62	5002
2026-01-08 02:11:59.86	324.41	13.42	-45.2	-48.2	16.9	0.00e+00	0	41	0	287309824	62	4971
2026-01-08 02:12:00.87	324.21	13.43	-45.2	-48.2	17.0	0.00e+00	0	41	0	289406976	62	4958
2026-01-08 02:12:01.87	324.01	13.44	-45.3	-48.3	16.9	0.00e+00	0	41	0	291504128	62	5021
2026-01-08 02:12:02.87	323.81	13.45	-45.4	-48.3	16.9	0.00e+00	0	41	0	293601280	62	5012
2026-01-08 02:12:03.88	323.60	13.46	-45.4	-48.3	16.9	0.00e+00	0	41	0	294649856	62	5008
2026-01-08 02:12:04.88	323.40	13.46	-45.5	-48.3	16.8	0.00e+00	0	41	0	296747008	62	5039
2026-01-08 02:12:05.88	323.20	13.47	-45.5	-48.4	16.8	0.00e+00	0	41	0	298844160	62	5062
2026-01-08 02:12:06.89	323.00	13.48	-45.7	-48.6	16.7	0.00e+00	0	41	0	300941312	62	5171
2026-01-08 02:12:07.89	322.80	13.48	-45.6	-48.4	16.8	0.00e+00	0	41	0	303038464	62	5076
2026-01-08 02:12:08.96	322.58	13.49	-45.6	-48.4	16.8	0.00e+00	0	41	0	304087040	62	5053
2026-01-08 02:12:09.85	322.40	13.50	-45.5	-48.3	16.9	0.00e+00	0	41	0	306184192	62	4987
2026-01-08 02:12:10.88	322.20	13.50	-45.5	-48.2	17.1	0.00e+00	0	41	0	308281344	62	4969
2026-01-08 02:12:11.88	322.00	13.51	-45.4	-48.2	17.1	0.00e+00	0	41	0	310378496	62	4966
2026-01-08 02:12:12.89	321.79	13.51	-45.3	-48.1	17.1	0.00e+00	0	41	0	312475648	62	4908
2026-01-08 02:12:13.89	321.59	13.52	-45.3	-48.2	17.1	0.00e+00	0	41	0	313524224	62	4945
2026-01-08 02:12:14.89	321.39	13.52	-45.3	-48.2	17.1	0.00e+00	0	41	0	315621376	62	4948
2026-01-08 02:12:15.89	321.19	13.52	-45.3	-48.2	17.1	0.00e+00	0	41	0	317718528	62	4976
2026-01-08 02:12:16.89	320.99	13.53	-45.3	-48.3	17.0	0.00e+00	0	41	0	319815680	62	5007
2026-01-08 02:12:17.90	320.78	13.53	-45.4	-48.4	16.9	0.00e+00	0	41	0	321912832	62	5052
2026-01-08 02:12:18.90	320.58	13.53	-45.5	-48.4	17.0	0.00e+00	0	41	0	322961408	62	5047
2026-01-08 02:12:19.90	320.38	13.53	-45.5	-48.4	16.9	0.00e+00	0	41	0	325058560	62	5083
2026-01-08 02:12:20.91	320.18	13.54	-45.5	-48.3	17.0	0.00e+00	0	41	0	327155712	62	5018
2026-01-08 02:12:21.91	319.98	13.54	-45.5	-48.3	17.0	0.00e+00	0	41	0	329252864	62	5008
2026-01-08 02:12:22.95	319.77	13.54	-45.5	-48.3	17.0	0.00e+00	0	41	0	331350016	62	5031
2026-01-08 02:12:23.94	319.57	13.54	-45.5	-48.3	17.0	0.00e+00	0	41	0	332398592	62	5017
2026-01-08 02:12:24.99	319.35	13.54	-45.4	-48.3	17.1	0.00e+00	0	41	0	334495744	62	5015
2026-01-08 02:12:25.87	319.18	13.54	-45.4	-48.3	17.0	0.00e+00	0	41	0	336592896	62	5004
2026-01-08 02:12:27.01	318.95	13.54	-45.4	-48.3	17.0	0.00e+00	0	41	0	338690048	62	5016
2026-01-08 02:12:27.88	318.77	13.54	-45.4	-48.3	17.0	0.00e+00	0	41	0	339738624	62	5041
2026-01-08 02:12:29.02	318.54	13.54	-45.5	-48.4	17.0	0.00e+00	0	41	0	341835776	62	5053
2026-01-08 02:12:29.88	318.37	13.54	-45.4	-48.3	17.1	0.00e+00	0	41	0	343932928	62	5016
2026-01-08 02:12:31.03	318.14	13.54	-45.4	-48.2	17.1	0.00e+00	0	42	0	346030080	62	4976
2026-01-08 02:12:31.88	317.96	13.53	-45.5	-48.3	17.1	0.00e+00	0	41	0	348127232	62	5003
2026-01-08 02:12:33.03	317.73	13.53	-45.5	-48.3	17.1	0.00e+00	0	41	0	350224384	62	5005
2026-01-08 02:12:33.90	317.56	13.53	-45.6	-48.3	17.0	0.00e+00	0	41	0	351272960	62	5036
2026-01-08 02:12:35.04	317.33	13.53	-45.6	-48.4	17.1	0.00e+00	0	41	0	353370112	62	5062
2026-01-08 02:12:35.90	317.15	13.52	-45.7	-48.4	17.0	0.00e+00	0	41	0	355467264	62	5060
2026-01-08 02:12:37.05	316.92	13.52	-45.7	-48.5	17.0	0.00e+00	0	41	0	357564416	62	5113
2026-01-08 02:12:37.91	316.75	13.52	-45.7	-48.5	17.0	0.00e+00	0	41	0	358612992	62	5120
2026-01-08 02:12:39.17	316.50	13.51	-45.6	-48.4	17.0	0.00e+00	0	42	0	361758720	62	5071
2026-01-08 02:12:39.90	316.35	13.51	-45.5	-48.4	17.1	0.00e+00	0	41	0	362807296	62	5054
2026-01-08 02:12:41.19	316.09	13.50	-45.5	-48.3	17.1	0.00e+00	0	41	0	364904448	62	5011
2026-01-08 02:12:41.90	315.95	13.50	-45.5	-48.3	17.1	0.00e+00	0	42	0	365953024	62	5016
2026-01-08 02:12:43.19	315.69	13.49	-45.6	-48.4	17.1	0.00e+00	0	42	0	369098752	62	5058
2026-01-08 02:12:43.91	315.54	13.48	-45.5	-48.3	17.2	0.00e+00	0	41	0	370147328	62	4999
2026-01-08 02:12:45.20	315.28	13.48	-45.6	-48.4	17.1	0.00e+00	0	41	0	372244480	62	5042
2026-01-08 02:12:45.92	315.14	13.47	-45.7	-48.4	17.1	0.00e+00	0	41	0	374341632	62	5053
2026-01-08 02:12:47.21	314.88	13.46	-45.8	-48.5	17.0	0.00e+00	0	41	0	376438784	62	5141
2026-01-08 02:12:48.10	314.70	13.45	-45.8	-48.7	16.8	0.00e+00	0	41	0	378535936	62	5231
2026-01-08 02:12:49.24	314.47	13.45	-46.0	-48.9	16.7	0.00e+00	0	41	0	380633088	62	5355
2026-01-08 02:12:50.31	314.26	13.44	-46.1	-49.0	16.5	0.00e+00	0	41	0	381681664	62	5456
2026-01-08 02:12:51.35	314.05	13.43	-46.2	-49.2	16.3	0.00e+00	0	41	0	383778816	62	5566
2026-01-08 02:12:52.34	313.85	13.42	-46.2	-49.3	16.3	0.00e+00	0	41	0	385875968	63	5307
2026-01-08 02:12:53.35	313.65	13.41	-46.3	-49.4	16.2	0.00e+00	0	41	0	387973120	63	5378
2026-01-08 02:12:54.35	313.45	13.40	-46.2	-49.3	16.2	0.00e+00	0	41	0	390070272	63	5305
2026-01-08 02:12:55.35	313.25	13.39	-46.3	-49.4	16.2	0.00e+00	0	41	0	391118848	63	5387
2026-01-08 02:12:56.36	313.05	13.38	-46.3	-49.4	16.2	0.00e+00	0	41	0	393216000	63	5377
2026-01-08 02:12:57.36	312.85	13.37	-46.3	-49.2	16.3	0.00e+00	0	41	0	395313152	63	5263
2026-01-08 02:12:58.36	312.65	13.36	-46.2	-49.2	16.4	0.00e+00	0	41	0	397410304	63	5237
2026-01-08 02:12:59.37	312.45	13.35	-46.3	-49.2	16.4	0.00e+00	0	41	0	399507456	63	5265
2026-01-08 02:13:00.37	312.25	13.33	-46.3	-49.3	16.3	0.00e+00	0	41	0	400556032	63	5294
2026-01-08 02:13:01.37	312.05	13.32	-46.4	-49.4	16.2	0.00e+00	0	41	0	402653184	63	5354
2026-01-08 02:13:02.38	311.85	13.31	-46.4	-49.4	16.2	0.00e+00	0	41	0	404750336	63	5356
2026-01-08 02:13:03.38	311.65	13.30	-46.4	-49.4	16.2	0.00e+00	0	41	0	406847488	63	5347
2026-01-08 02:13:04.40	311.45	13.28	-46.5	-49.4	16.2	0.00e+00	0	41	0	408944640	63	5395
2026-01-08 02:13:05.41	311.25	13.27	-46.5	-49.5	16.1	0.00e+00	0	41	0	409993216	63	5439
2026-01-08 02:13:06.48	311.04	13.25	-46.5	-49.5	16.1	0.00e+00	0	41	0	412090368	63	5463
2026-01-08 02:13:07.37	310.86	13.24	-46.5	-49.5	16.1	0.00e+00	0	41	0	414187520	63	5453
2026-01-08 02:13:08.51	310.63	13.23	-46.5	-49.5	16.1	0.00e+00	0	41	0	416284672	63	5447
2026-01-08 02:13:09.37	310.46	13.21	-46.6	-49.6	16.1	0.00e+00	0	41	0	418381824	63	5465
2026-01-08 02:13:10.51	310.24	13.20	-46.4	-49.4	16.3	0.00e+00	0	41	0	420478976	63	5359
2026-01-08 02:13:11.37	310.07	13.18	-46.4	-49.4	16.2	0.00e+00	0	42	0	421527552	63	5368
2026-01-08 02:13:12.52	309.84	13.16	-46.4	-49.4	16.2	0.00e+00	0	41	0	423624704	63	5389
2026-01-08 02:13:13.38	309.67	13.15	-46.4	-49.4	16.3	0.00e+00	0	41	0	425721856	63	5346
2026-01-08 02:13:14.53	309.45	13.13	-46.3	-49.3	16.3	0.00e+00	0	41	0	427819008	63	5324
2026-01-08 02:13:15.39	309.28	13.12	-46.3	-49.3	16.3	0.00e+00	0	41	0	428867584	63	5317
2026-01-08 02:13:16.53	309.06	13.10	-46.4	-49.4	16.2	0.00e+00	0	42	0	430964736	63	5400
2026-01-08 02:13:17.39	308.89	13.08	-46.4	-49.5	16.2	0.00e+00	0	41	0	433061888	63	5417
2026-01-08 02:13:18.54	308.66	13.06	-46.4	-49.5	16.2	0.00e+00	0	41	0	435159040	63	5405
2026-01-08 02:13:19.40	308.50	13.05	-46.4	-49.5	16.2	0.00e+00	0	41	0	436207616	63	5460
2026-01-08 02:13:20.54	308.27	13.03	-46.4	-49.5	16.2	0.00e+00	0	41	0	439353344	63	5456
2026-01-08 02:13:21.41	308.10	13.01	-46.4	-49.5	16.2	0.00e+00	0	41	0	440401920	63	5422
2026-01-08 02:13:22.55	307.88	12.99	-46.4	-49.4	16.3	0.00e+00	0	42	0	442499072	63	5345
2026-01-08 02:13:23.41	307.72	12.97	-46.4	-49.3	16.4	0.00e+00	0	42	0	444596224	63	5320
2026-01-08 02:13:24.56	307.49	12.95	-46.4	-49.3	16.4	0.00e+00	0	42	0	446693376	63	5282
2026-01-08 02:13:25.41	307.33	12.93	-46.4	-49.3	16.4	0.00e+00	0	42	0	447741952	63	5287
2026-01-08 02:13:26.56	307.10	12.91	-46.4	-49.2	16.6	0.00e+00	0	42	0	449839104	63	5274
2026-01-08 02:13:27.42	306.94	12.89	-46.5	-49.3	16.4	0.00e+00	0	41	0	451936256	63	5340
2026-01-08 02:13:28.57	306.72	12.87	-46.5	-49.4	16.3	0.00e+00	0	41	0	454033408	63	5400
2026-01-08 02:13:29.43	306.55	12.85	-46.6	-49.5	16.2	0.00e+00	0	42	0	455081984	63	5432
2026-01-08 02:13:30.58	306.33	12.83	-46.6	-49.6	16.0	0.00e+00	0	41	0	458227712	64	5203
2026-01-08 02:13:31.44	306.16	12.81	-46.7	-49.7	16.0	0.00e+00	0	42	0	459276288	64	5240
2026-01-08 02:13:32.59	305.94	12.78	-46.7	-49.7	16.0	0.00e+00	0	41	0	461373440	64	5232
2026-01-08 02:13:33.86	305.70	12.75	-46.6	-49.6	16.1	0.00e+00	0	41	0	463470592	64	5215
2026-01-08 02:13:34.58	305.56	12.74	-46.6	-49.5	16.2	0.00e+00	0	41	0	465567744	64	5148
2026-01-08 02:13:35.87	305.32	12.71	-46.5	-49.5	16.2	0.00e+00	0	42	0	467664896	64	5126
2026-01-08 02:13:36.59	305.18	12.69	-46.5	-49.4	16.3	0.00e+00	0	42	0	468713472	64	5074
2026-01-08 02:13:37.96	304.92	12.66	-46.5	-49.4	16.2	0.00e+00	0	41	0	471859200	64	5082
2026-01-08 02:13:38.67	304.78	12.64	-46.5	-49.4	16.3	0.00e+00	0	42	0	472907776	64	5076
2026-01-08 02:13:39.97	304.54	12.61	-46.5	-49.5	16.2	0.00e+00	0	41	0	475004928	64	5114
2026-01-08 02:13:40.68	304.40	12.59	-46.6	-49.6	16.2	0.00e+00	0	41	0	477102080	64	5162
2026-01-08 02:13:41.97	304.16	12.56	-46.6	-49.6	16.2	0.00e+00	0	41	0	479199232	64	5199
2026-01-08 02:13:42.69	304.02	12.54	-46.6	-49.7	16.1	0.00e+00	0	41	0	480247808	64	5221
2026-01-08 02:13:43.97	303.78	12.51	-46.7	-49.8	16.0	0.00e+00	0	41	0	482344960	64	5291
2026-01-08 02:13:44.69	303.65	12.49	-46.8	-49.9	15.9	0.00e+00	0	41	0	484442112	64	5369
2026-01-08 02:13:45.98	303.40	12.46	-46.9	-50.0	15.8	0.00e+00	0	41	0	486539264	64	5419
2026-01-08 02:13:46.70	303.27	12.44	-46.9	-49.9	15.8	0.00e+00	0	41	0	487587840	64	5397
2026-01-08 02:13:47.99	303.03	12.41	-46.9	-50.0	15.8	0.00e+00	0	41	0	490733568	64	5414
2026-01-08 02:13:48.70	302.90	12.39	-46.9	-50.0	15.8	0.00e+00	0	41	0	491782144	64	5434
2026-01-08 02:13:49.99	302.66	12.35	-46.9	-49.9	15.8	0.00e+00	0	41	0	493879296	64	5394
2026-01-08 02:13:50.71	302.52	12.33	-46.9	-49.9	15.9	0.00e+00	0	41	0	494927872	64	5379
2026-01-08 02:13:52.07	302.27	12.30	-46.9	-49.9	15.9	0.00e+00	0	41	0	498073600	64	5402
2026-01-08 02:13:53.06	302.09	12.27	-46.9	-49.9	16.0	0.00e+00	0	41	0	500170752	64	5366
2026-01-08 02:13:54.38	301.84	12.23	-46.7	-49.8	16.0	0.00e+00	0	41	0	502267904	64	5280
2026-01-08 02:13:55.10	301.71	12.21	-46.7	-49.7	16.2	0.00e+00	0	41	0	503316480	64	5241
2026-01-08 02:13:56.74	301.41	12.17	-46.7	-49.7	16.1	0.00e+00	0	41	0	506462208	64	5241
2026-01-08 02:13:57.31	301.30	12.15	-46.8	-49.8	16.0	0.00e+00	0	42	0	507510784	64	5324
2026-01-08 02:13:58.93	301.00	12.10	-46.9	-49.9	16.0	0.00e+00	0	41	0	510656512	64	5343
2026-01-08 02:13:59.50	300.90	12.09	-46.9	-50.0	15.9	0.00e+00	0	41	0	511705088	64	5415
2026-01-08 02:14:01.08	300.61	12.04	-47.1	-50.2	15.7	0.00e+00	0	42	0	514850816	64	5565
2026-01-08 02:14:01.68	300.50	12.02	-47.1	-50.2	15.6	0.00e+00	0	41	0	515899392	64	5590
2026-01-08 02:14:03.26	300.22	11.97	-47.3	-50.4	15.4	0.00e+00	0	41	0	519045120	65	5401
2026-01-08 02:14:03.85	300.11	11.96	-47.3	-50.4	15.5	0.00e+00	0	41	0	520093696	65	5369
2026-01-08 02:14:05.42	299.82	11.91	-47.2	-50.4	15.6	0.00e+00	0	42	0	523239424	65	5343
2026-01-08 02:14:06.00	299.72	11.89	-47.1	-50.2	15.7	0.00e+00	0	42	0	524288000	65	5226
2026-01-08 02:14:07.58	299.44	11.84	-47.0	-50.1	15.8	0.00e+00	0	42	0	527433728	65	5164
2026-01-08 02:14:08.18	299.33	11.82	-46.9	-49.9	16.0	0.00e+00	0	42	0	528482304	65	5090
2026-01-08 02:14:09.76	299.04	11.77	-46.8	-49.7	16.2	0.00e+00	0	42	0	531628032	65	4955
2026-01-08 02:14:10.55	298.90	11.75	-46.8	-49.7	16.2	0.00e+00	0	42	0	532676608	65	4946
2026-01-08 02:14:11.70	298.70	11.71	-46.7	-49.7	16.3	0.00e+00	0	41	0	534773760	65	4927
2026-01-08 02:14:12.56	298.55	11.68	-46.6	-49.5	16.4	0.00e+00	0	41	0	536870912	65	4822
2026-01-08 02:14:13.70	298.34	11.64	-46.6	-49.4	16.5	0.00e+00	0	42	0	538968064	65	4796
2026-01-08 02:14:14.56	298.19	11.62	-46.6	-49.5	16.4	0.00e+00	0	42	0	540016640	65	4836
2026-01-08 02:14:15.71	297.99	11.58	-46.7	-49.6	16.3	0.00e+00	0	41	0	542113792	65	4912
2026-01-08 02:14:16.57	297.84	11.55	-46.8	-49.7	16.2	0.00e+00	0	42	0	544210944	65	4947
2026-01-08 02:14:17.71	297.63	11.51	-46.8	-49.8	16.1	0.00e+00	0	42	0	546308096	65	5011
2026-01-08 02:14:18.60	297.48	11.48	-46.8	-49.8	16.2	0.00e+00	0	42	0	547356672	65	4998
2026-01-08 02:14:19.92	297.25	11.44	-46.8	-49.7	16.2	0.00e+00	0	42	0	550502400	65	4982
2026-01-08 02:14:20.64	297.12	11.41	-46.8	-49.7	16.2	0.00e+00	0	41	0	551550976	65	4950
2026-01-08 02:14:21.93	296.90	11.37	-46.8	-49.7	16.2	0.00e+00	0	42	0	553648128	65	4955
2026-01-08 02:14:22.64	296.77	11.34	-46.8	-49.7	16.2	0.00e+00	0	42	0	555745280	65	4946
2026-01-08 02:14:23.93	296.55	11.30	-46.7	-49.6	16.3	0.00e+00	0	42	0	557842432	65	4913
2026-01-08 02:14:24.68	296.42	11.27	-46.7	-49.6	16.3	0.00e+00	0	41	0	558891008	65	4894
2026-01-08 02:14:25.97	296.20	11.23	-46.8	-49.7	16.3	0.00e+00	0	42	0	560988160	65	4928
2026-01-08 02:14:26.69	296.07	11.20	-46.7	-49.5	16.4	0.00e+00	0	41	0	563085312	65	4865
2026-01-08 02:14:27.98	295.85	11.15	-46.6	-49.4	16.5	0.00e+00	0	42	0	565182464	65	4808
2026-01-08 02:14:28.69	295.73	11.13	-46.6	-49.5	16.5	0.00e+00	0	42	0	566231040	65	4815
2026-01-08 02:14:29.98	295.51	11.08	-46.7	-49.6	16.4	0.00e+00	0	42	0	569376768	65	4885
2026-01-08 02:14:30.70	295.39	11.06	-46.8	-49.6	16.3	0.00e+00	0	42	0	570425344	65	4910
2026-01-08 02:14:31.98	295.17	11.01	-46.9	-49.8	16.1	0.00e+00	0	42	0	572522496	65	5033
2026-01-08 02:14:32.70	295.05	10.98	-46.9	-49.9	16.1	0.00e+00	0	41	0	574619648	65	5042
2026-01-08 02:14:33.99	294.83	10.94	-46.9	-49.9	16.0	0.00e+00	0	42	0	576716800	65	5071
2026-01-08 02:14:34.71	294.71	10.91	-46.9	-49.9	16.1	0.00e+00	0	42	0	577765376	65	5043
2026-01-08 02:14:36.00	294.49	10.86	-46.9	-49.8	16.1	0.00e+00	0	42	0	579862528	65	5038
2026-01-08 02:14:36.72	294.37	10.83	-46.9	-49.8	16.2	0.00e+00	0	42	0	581959680	65	5019
2026-01-08 02:14:38.01	294.15	10.79	-47.0	-49.9	16.1	0.00e+00	0	42	0	584056832	65	5089
2026-01-08 02:14:38.72	294.03	10.76	-47.0	-49.9	16.1	0.00e+00	0	42	0	585105408	65	5100
2026-01-08 02:14:40.01	293.82	10.71	-46.8	-49.6	16.3	0.00e+00	0	42	0	588251136	65	4925
2026-01-08 02:14:40.72	293.70	10.68	-46.7	-49.6	16.4	0.00e+00	0	41	0	589299712	65	4890
2026-01-08 02:14:42.01	293.49	10.63	-46.8	-49.6	16.4	0.00e+00	0	42	0	591396864	65	4902
2026-01-08 02:14:42.73	293.37	10.61	-46.8	-49.6	16.4	0.00e+00	0	41	0	593494016	65	4920
2026-01-08 02:14:44.05	293.15	10.56	-46.7	-49.6	16.4	0.00e+00	0	41	0	595591168	65	4887
2026-01-08 02:14:44.77	293.03	10.53	-46.8	-49.7	16.3	0.00e+00	0	42	0	596639744	65	4952
2026-01-08 02:14:46.15	292.81	10.47	-46.9	-49.8	16.2	0.00e+00	0	42	0	599785472	65	4993
2026-01-08 02:14:46.87	292.69	10.45	-46.9	-49.9	16.1	0.00e+00	0	41	0	600834048	65	5049
2026-01-08 02:14:48.16	292.48	10.39	-47.1	-50.1	15.9	0.00e+00	0	42	0	602931200	65	5184
2026-01-08 02:14:48.88	292.36	10.37	-47.2	-50.2	15.8	0.00e+00	0	42	0	603979776	65	5238
2026-01-08 02:14:50.29	292.13	10.31	-47.3	-50.4	15.6	0.00e+00	0	42	0	607125504	65	5382
2026-01-08 02:14:51.26	291.98	10.27	-47.4	-50.5	15.5	0.00e+00	0	42	0	609222656	65	5444
2026-01-08 02:14:52.27	291.81	10.23	-47.4	-50.5	15.5	0.00e+00	0	42	0	611319808	65	5444
2026-01-08 02:14:53.27	291.65	10.19	-47.4	-50.6	15.5	0.00e+00	0	42	0	612368384	65	5498
2026-01-08 02:14:54.27	291.49	10.15	-47.4	-50.5	15.5	0.00e+00	0	42	0	614465536	65	5464
2026-01-08 02:14:55.27	291.33	10.11	-47.4	-50.5	15.5	0.00e+00	0	42	0	616562688	65	5439
2026-01-08 02:14:56.28	291.17	10.07	-47.3	-50.5	15.5	0.00e+00	0	42	0	618659840	65	5408
2026-01-08 02:14:57.28	291.01	10.03	-47.4	-50.5	15.5	0.00e+00	0	42	0	620756992	65	5455
2026-01-08 02:14:58.29	290.85	9.99	-47.4	-50.7	15.4	0.00e+00	0	42	0	621805568	65	5530
2026-01-08 02:14:59.29	290.70	9.95	-47.4	-50.6	15.4	0.00e+00	0	42	0	623902720	65	5498
2026-01-08 02:15:00.34	290.53	9.90	-47.6	-50.8	15.3	0.00e+00	0	42	0	625999872	65	5605
2026-01-08 02:15:01.25	290.39	9.87	-47.6	-50.9	15.2	0.00e+00	0	42	0	628097024	65	5678
2026-01-08 02:15:02.25	290.23	9.83	-47.7	-51.0	15.1	0.00e+00	0	42	0	629145600	66	5409
2026-01-08 02:15:03.26	290.07	9.78	-47.8	-51.2	14.9	0.00e+00	0	42	0	631242752	66	5544
2026-01-08 02:15:04.26	289.92	9.74	-48.0	-51.4	14.7	0.00e+00	0	42	0	633339904	66	5674
2026-01-08 02:15:05.26	289.76	9.70	-48.0	-51.5	14.6	0.00e+00	0	42	0	635437056	66	5727
2026-01-08 02:15:06.27	289.60	9.66	-48.1	-51.6	14.5	7.00e-07	0	42	0	637534208	66	5815
2026-01-08 02:15:07.27	289.45	9.62	-48.1	-51.7	14.5	0.00e+00	0	42	0	638582784	66	5864
2026-01-08 02:15:08.28	289.29	9.57	-48.2	-51.8	14.3	0.00e+00	0	42	0	640679936	67	5600
2026-01-08 02:15:09.28	289.14	9.53	-48.2	-51.8	14.2	2.20e-06	0	42	0	642777088	67	5653
2026-01-08 02:15:10.29	288.99	9.49	-48.2	-51.7	14.4	7.00e-07	0	42	0	644874240	67	5589
2026-01-08 02:15:11.29	288.83	9.45	-48.2	-51.7	14.3	0.00e+00	0	42	0	646971392	67	5579
2026-01-08 02:15:12.29	288.68	9.40	-48.1	-51.7	14.4	2.20e-06	0	42	0	648019968	67	5533
2026-01-08 02:15:13.36	288.52	9.36	-48.2	-51.8	14.3	0.00e+00	0	42	0	650117120	67	5619
2026-01-08 02:15:14.25	288.38	9.32	-48.1	-51.8	14.3	0.00e+00	0	42	0	652214272	67	5593
2026-01-08 02:15:15.39	288.21	9.27	-48.2	-51.8	14.2	7.00e-07	0	42	0	654311424	67	5654
2026-01-08 02:15:16.25	288.08	9.23	-48.2	-51.9	14.1	1.50e-06	0	42	0	655360000	67	5718
2026-01-08 02:15:17.60	287.88	9.17	-48.3	-52.1	14.1	1.50e-06	0	42	0	658505728	67	5818
2026-01-08 02:15:18.32	287.77	9.14	-48.3	-52.1	13.9	6.10e-06	0	42	0	659554304	67	5848
2026-01-08 02:15:19.61	287.58	9.09	-48.4	-52.3	13.9	4.50e-06	0	42	0	661651456	67	5925
2026-01-08 02:15:20.32	287.48	9.06	-48.5	-52.3	13.7	6.10e-06	0	42	0	663748608	67	5991
2026-01-08 02:15:21.62	287.28	9.00	-49.3	-53.6	12.9	3.80e-06	0	42	0	665845760	69	6176
2026-01-08 02:15:22.33	287.18	8.97	-52.5	-67.5	3.8	7.29e-01	0	42	104	666894336	75	21511
2026-01-08 02:15:23.62	286.99	8.91	-52.6	-67.8	3.8	1.49e+00	0	42	104	666894336	76	21146
2026-01-08 02:15:24.34	286.88	8.88	-52.5	-67.9	3.8	1.49e+00	0	42	104	666894336	76	21329
2026-01-08 02:15:25.63	286.69	8.82	-52.8	-68.0	3.8	1.49e+00	0	42	104	666894336	76	21514
2026-01-08 02:15:26.35	286.59	8.79	-52.8	-68.0	3.8	1.49e+00	0	42	104	666894336	76	21603
2026-01-08 02:15:27.64	286.40	8.73	-52.7	-68.0	3.8	1.49e+00	0	42	104	666894336	76	21674
2026-01-08 02:15:28.36	286.30	8.70	-52.7	-68.1	3.8	1.49e+00	0	42	104	666894336	76	21765
2026-01-08 02:15:29.74	286.10	8.64	-52.9	-68.1	3.8	1.49e+00	0	42	104	666894336	76	21880
2026-01-08 02:15:30.46	286.00	8.61	-52.9	-68.1	3.8	1.49e+00	0	42	104	666894336	76	21872
2026-01-08 02:15:31.80	285.80	8.55	-52.9	-68.1	3.8	1.49e+00	0	42	104	666894336	76	21871
2026-01-08 02:15:32.52	285.70	8.52	-52.9	-68.1	3.8	1.49e+00	0	42	104	666894336	76	21944
2026-01-08 02:15:33.81	285.52	8.46	-52.9	-68.1	3.8	1.49e+00	0	42	104	666894336	76	21890
2026-01-08 02:15:34.52	285.42	8.43	-52.9	-68.1	3.8	1.49e+00	0	41	104	666894336	76	21951
2026-01-08 02:15:35.81	285.23	8.37	-53.0	-68.2	3.8	1.49e+00	0	42	104	666894336	76	22010
2026-01-08 02:15:36.53	285.13	8.34	-53.0	-68.1	3.8	1.49e+00	0	42	104	666894336	76	21941
2026-01-08 02:15:37.83	284.95	8.28	-52.9	-68.1	3.8	1.49e+00	0	42	104	666894336	76	21978
2026-01-08 02:15:38.54	284.85	8.25	-52.9	-68.1	3.8	1.49e+00	0	42	104	666894336	76	21822
2026-01-08 02:15:39.83	284.67	8.19	-52.9	-68.1	3.8	1.49e+00	0	42	104	666894336	76	21899
2026-01-08 02:15:40.55	284.57	8.15	-52.8	-68.1	3.8	1.49e+00	0	42	104	666894336	76	21888
2026-01-08 02:15:41.84	284.39	8.10	-52.7	-68.1	3.8	1.49e+00	0	42	104	666894336	76	21856
2026-01-08 02:15:42.56	284.29	8.06	-52.7	-68.1	3.8	1.49e+00	0	42	104	666894336	76	21777
2026-01-08 02:15:43.85	284.11	8.00	-52.5	-68.1	3.8	1.49e+00	0	42	104	666894336	76	21818
2026-01-08 02:15:44.57	284.01	7.97	-52.5	-68.1	3.8	1.49e+00	0	42	104	666894336	76	21819
2026-01-08 02:15:45.86	283.83	7.91	-52.5	-68.1	3.8	1.49e+00	0	42	104	666894336	76	21865
2026-01-08 02:15:46.58	283.73	7.88	-52.5	-68.0	3.8	1.49e+00	0	42	104	666894336	76	21712
2026-01-08 02:15:47.87	283.56	7.82	-52.5	-68.0	3.8	1.49e+00	0	42	104	666894336	76	21739
2026-01-08 02:15:48.58	283.46	7.79	-52.5	-68.1	3.8	1.49e+00	0	41	104	666894336	76	21757
2026-01-08 02:15:49.88	283.29	7.73	-52.5	-68.1	3.8	1.49e+00	0	42	104	666894336	76	21808
2026-01-08 02:15:50.59	283.19	7.69	-52.5	-68.0	3.8	1.49e+00	0	42	104	666894336	76	21747
2026-01-08 02:15:51.89	283.02	7.63	-52.5	-68.1	3.8	1.49e+00	0	42	104	666894336	76	21823
2026-01-08 02:15:52.60	282.92	7.60	-52.5	-68.1	3.8	1.49e+00	0	42	104	666894336	76	21788
2026-01-08 02:15:53.89	282.75	7.54	-52.5	-68.1	3.8	1.49e+00	0	41	104	666894336	76	21774
2026-01-08 02:15:54.61	282.65	7.51	-52.5	-68.0	3.8	1.49e+00	0	42	104	666894336	76	21752
2026-01-08 02:15:55.90	282.48	7.45	-52.5	-68.0	3.8	1.49e+00	0	42	104	666894336	76	21700
2026-01-08 02:15:56.62	282.38	7.41	-52.5	-68.1	3.8	1.49e+00	0	42	104	666894336	76	21834
2026-01-08 02:15:57.91	282.21	7.35	-52.5	-68.1	3.8	1.49e+00	0	41	104	666894336	76	21817
2026-01-08 02:15:58.63	282.12	7.32	-52.5	-68.0	3.8	1.49e+00	0	42	104	666894336	76	21705
2026-01-08 02:15:59.92	281.95	7.26	-52.5	-68.1	3.8	1.49e+00	0	42	104	666894336	76	21797
2026-01-08 02:16:00.64	281.86	7.23	-52.5	-68.0	3.8	1.49e+00	0	42	104	666894336	76	21683
2026-01-08 02:16:01.93	281.69	7.17	-52.5	-68.1	3.8	1.49e+00	0	41	104	666894336	76	21794
2026-01-08 02:16:02.65	281.59	7.13	-52.5	-68.1	3.8	1.49e+00	0	41	104	666894336	76	21782
2026-01-08 02:16:03.94	281.43	7.07	-52.5	-68.0	3.8	1.49e+00	0	42	104	666894336	76	21677
2026-01-08 02:16:04.66	281.33	7.04	-52.5	-68.1	3.8	1.49e+00	0	42	104	666894336	76	21779
2026-01-08 02:16:05.95	281.17	6.98	-52.5	-68.0	3.8	1.49e+00	0	42	104	666894336	76	21701
2026-01-08 02:16:06.66	281.08	6.94	-52.5	-68.1	3.8	1.49e+00	0	42	104	666894336	76	21775
2026-01-08 02:16:07.96	280.91	6.88	-52.5	-68.1	3.8	1.49e+00	0	42	104	666894336	76	21793
2026-01-08 02:16:08.67	280.82	6.85	-52.5	-68.0	3.8	1.49e+00	0	42	104	666894336	76	21741
2026-01-08 02:16:09.96	280.66	6.79	-52.5	-68.0	3.8	1.49e+00	0	42	104	666894336	76	21720
2026-01-08 02:16:10.68	280.57	6.75	-52.5	-68.0	3.8	1.49e+00	0	42	104	666894336	76	21705
2026-01-08 02:16:11.97	280.40	6.69	-52.5	-68.0	3.8	1.49e+00	0	42	104	666894336	76	21688
2026-01-08 02:16:12.69	280.31	6.66	-52.5	-68.0	3.8	1.49e+00	0	42	104	666894336	76	21708
2026-01-08 02:16:13.98	280.15	6.60	-52.5	-68.0	3.8	1.49e+00	0	42	104	666894336	76	21704
2026-01-08 02:16:14.70	280.06	6.56	-52.5	-68.0	3.8	1.49e+00	0	42	104	666894336	76	21698
2026-01-08 02:16:15.99	279.90	6.50	-52.5	-68.0	3.8	1.49e+00	0	42	104	666894336	76	21701
2026-01-08 02:16:16.71	279.81	6.47	-52.5	-68.0	3.8	1.49e+00	0	42	104	666894336	76	21725
2026-01-08 02:16:18.00	279.65	6.41	-52.5	-68.0	3.8	1.49e+00	0	42	104	666894336	76	21734
2026-01-08 02:16:18.72	279.56	6.37	-52.5	-68.0	3.8	1.49e+00	0	42	104	666894336	76	21697
2026-01-08 02:16:20.01	279.40	6.31	-52.5	-68.0	3.8	1.49e+00	0	42	104	666894336	76	21710
2026-01-08 02:16:20.72	279.32	6.28	-52.5	-68.0	3.8	1.49e+00	0	42	104	666894336	76	21665
2026-01-08 02:16:22.02	279.16	6.22	-52.5	-68.1	3.8	1.49e+00	0	42	104	666894336	76	21780
2026-01-08 02:16:22.74	279.07	6.18	-52.5	-68.0	3.8	1.49e+00	0	42	104	666894336	76	21733
2026-01-08 02:16:24.03	278.92	6.12	-52.5	-68.1	3.8	1.49e+00	0	42	104	666894336	76	21795
2026-01-08 02:16:24.74	278.83	6.09	-52.5	-68.0	3.8	1.49e+00	0	42	104	666894336	76	21703
2026-01-08 02:16:26.04	278.67	6.02	-52.5	-68.0	3.8	1.49e+00	0	42	104	666894336	76	21753
2026-01-08 02:16:26.75	278.59	5.99	-52.5	-68.1	3.8	1.49e+00	0	42	104	666894336	76	21795
2026-01-08 02:16:28.05	278.43	5.93	-52.5	-68.0	3.8	1.49e+00	0	42	104	666894336	76	21722
2026-01-08 02:16:28.76	278.35	5.89	-52.5	-68.1	3.8	1.49e+00	0	42	104	666894336	76	21764
2026-01-08 02:16:30.05	278.20	5.83	-52.5	-68.1	3.8	1.49e+00	0	42	104	666894336	76	21775
2026-01-08 02:16:30.77	278.11	5.80	-52.5	-68.0	3.8	1.49e+00	0	42	104	666894336	76	21752
2026-01-08 02:16:32.06	277.96	5.74	-52.5	-68.0	3.8	1.49e+00	0	42	104	666894336	76	21716
2026-01-08 02:16:32.80	277.87	5.70	-52.5	-68.0	3.8	1.49e+00	0	42	104	666894336	76	21694
2026-01-08 02:16:34.09	277.72	5.64	-52.5	-68.1	3.8	1.49e+00	0	42	104	666894336	76	21789
2026-01-08 02:16:34.81	277.64	5.60	-52.5	-68.0	3.8	1.49e+00	0	42	104	666894336	76	21752
2026-01-08 02:16:36.10	277.49	5.54	-52.5	-68.1	3.8	1.49e+00	0	42	104	666894336	76	21806
2026-01-08 02:16:36.81	277.40	5.51	-52.5	-68.1	3.8	1.49e+00	0	42	104	666894336	76	21798
2026-01-08 02:16:38.11	277.25	5.44	-52.5	-68.1	3.8	1.49e+00	0	42	104	666894336	76	21815
2026-01-08 02:16:38.82	277.17	5.41	-52.5	-68.0	3.8	1.49e+00	0	42	104	666894336	76	21695
2026-01-08 02:16:40.11	277.02	5.35	-52.5	-68.1	3.8	1.49e+00	0	42	104	666894336	76	21765
2026-01-08 02:16:40.83	276.94	5.31	-52.5	-68.1	3.8	1.49e+00	0	42	104	666894336	76	21804
2026-01-08 02:16:42.12	276.79	5.25	-52.5	-68.1	3.8	1.49e+00	0	42	104	666894336	76	21837
2026-01-08 02:16:42.84	276.71	5.22	-52.5	-68.1	3.8	1.49e+00	0	42	104	666894336	76	21827
2026-01-08 02:16:44.13	276.57	5.15	-52.5	-68.0	3.8	1.49e+00	0	42	104	666894336	76	21732
2026-01-08 02:16:44.85	276.48	5.12	-52.5	-68.1	3.8	1.49e+00	0	42	104	666894336	76	21768
2026-01-08 02:16:46.14	276.34	5.06	-52.5	-68.0	3.8	1.49e+00	0	42	104	666894336	76	21732
2026-01-08 02:16:46.86	276.26	5.02	-52.5	-68.0	3.8	1.49e+00	0	42	104	666894336	76	21746
2026-01-08 02:16:48.15	276.11	4.96	-52.5	-68.0	3.8	1.49e+00	0	42	104	666894336	76	21738

#Closed at: 2026-01-08 02:16:48
#Recorded file [666 MB]: D:/Data/31040_260108_050805.dat