passes_logs/2026/01/08/T1/T1__20260108_000618_SUOMI_NPP_rec.log

#Pass ID: 20260108_000618_SUOMI NPP
#Satellite: SUOMI NPP
#Configuration: NPP
#almurnet v.1.7.20251203
#Start time: 2026-01-08 00:06:19

#Version: 2.0.20230620
#Station: T1
#Location: 37.570604 lon 55.790049 lat
#TLE: 1 37849U 11061A   26005.94084933  .00000134  00000+0  84554-4 0  9990
#TLE: 2 37849  98.7803 308.0679 0002567  79.1029 281.0436 14.19522657735426

#Time	Az	El	Level	Level2	SNR	BER	BlckErr	Temp	State	Recorded	gain1	gain2
2026-01-08 00:06:19.08	14.19	5.05	-50.9	-66.5	3.8	1.49e+00	0	41	0	0	72	22917
2026-01-08 00:06:20.08	14.18	5.12	-50.9	-66.5	3.8	1.49e+00	0	41	104	0	73	21590
2026-01-08 00:06:21.08	14.16	5.19	-50.9	-66.5	3.8	1.49e+00	0	41	104	0	73	21529
2026-01-08 00:06:22.09	14.15	5.26	-50.9	-66.5	3.8	1.49e+00	0	41	104	0	73	21612
2026-01-08 00:06:23.09	14.13	5.33	-50.9	-66.5	3.8	1.49e+00	0	41	104	0	73	21604
2026-01-08 00:06:24.10	14.12	5.41	-50.9	-66.5	3.8	1.49e+00	0	41	104	0	73	21560
2026-01-08 00:06:25.10	14.10	5.48	-50.9	-66.5	3.8	1.49e+00	0	41	104	0	73	21603
2026-01-08 00:06:26.10	14.09	5.55	-50.9	-66.5	3.8	1.49e+00	0	41	104	0	73	21641
2026-01-08 00:06:27.11	14.07	5.62	-50.8	-66.5	3.8	1.49e+00	0	41	104	0	73	21674
2026-01-08 00:06:28.11	14.06	5.70	-50.9	-66.5	3.8	1.49e+00	0	41	104	0	73	21643
2026-01-08 00:06:29.11	14.04	5.77	-50.9	-66.5	3.8	1.49e+00	0	41	104	0	73	21675
2026-01-08 00:06:30.12	14.02	5.84	-50.9	-66.5	3.8	1.49e+00	0	41	104	0	73	21640
2026-01-08 00:06:31.12	14.01	5.92	-50.9	-66.5	3.8	1.49e+00	0	41	104	0	73	21614
2026-01-08 00:06:32.13	13.99	5.99	-50.9	-66.5	3.8	1.49e+00	0	42	104	0	73	21685
2026-01-08 00:06:33.13	13.98	6.06	-50.9	-66.5	3.8	1.49e+00	0	42	104	0	73	21638
2026-01-08 00:06:34.14	13.96	6.14	-50.9	-66.5	3.8	1.49e+00	0	42	104	0	73	21621
2026-01-08 00:06:35.14	13.95	6.21	-50.9	-66.5	3.8	1.49e+00	0	42	104	0	73	21651
2026-01-08 00:06:36.14	13.93	6.29	-50.9	-66.5	3.8	1.49e+00	0	42	104	0	73	21664
2026-01-08 00:06:37.15	13.91	6.36	-50.9	-66.5	3.8	1.49e+00	0	42	104	0	73	21640
2026-01-08 00:06:38.15	13.90	6.44	-50.9	-66.5	3.8	1.49e+00	0	42	104	0	73	21649
2026-01-08 00:06:39.16	13.88	6.51	-50.9	-66.5	3.8	1.49e+00	0	42	104	0	73	21655
2026-01-08 00:06:40.16	13.86	6.59	-50.9	-66.5	3.8	1.49e+00	0	42	104	0	73	21641
2026-01-08 00:06:41.16	13.85	6.66	-50.9	-66.5	3.8	1.49e+00	0	42	104	0	73	21669
2026-01-08 00:06:42.17	13.83	6.74	-50.9	-66.5	3.8	1.49e+00	0	42	104	0	73	21656
2026-01-08 00:06:43.17	13.81	6.81	-50.9	-66.5	3.8	1.49e+00	0	42	104	0	73	21599
2026-01-08 00:06:44.18	13.80	6.89	-50.9	-66.5	3.8	1.49e+00	0	42	104	0	73	21657
2026-01-08 00:06:45.18	13.78	6.97	-50.9	-66.5	3.8	1.49e+00	0	42	104	0	73	21639
2026-01-08 00:06:46.19	13.76	7.04	-50.9	-66.6	3.8	1.49e+00	0	42	104	0	73	21774
2026-01-08 00:06:47.19	13.75	7.12	-50.9	-66.5	3.8	1.49e+00	0	42	104	0	73	21687
2026-01-08 00:06:48.20	13.73	7.20	-50.9	-66.5	3.8	1.49e+00	0	42	104	0	73	21660
2026-01-08 00:06:49.20	13.71	7.28	-50.9	-66.5	3.8	1.49e+00	0	42	104	0	73	21747
2026-01-08 00:06:50.20	13.69	7.35	-50.9	-66.5	3.8	1.49e+00	0	42	104	0	73	21754
2026-01-08 00:06:51.21	13.68	7.43	-50.9	-66.5	3.8	1.49e+00	0	42	104	0	73	21661
2026-01-08 00:06:52.21	13.66	7.51	-50.9	-66.6	3.8	1.49e+00	0	42	104	0	73	21770
2026-01-08 00:06:53.22	13.64	7.59	-50.9	-66.5	3.8	1.49e+00	0	42	104	0	73	21729
2026-01-08 00:06:54.22	13.62	7.67	-50.9	-66.5	3.8	1.49e+00	0	42	104	0	73	21687
2026-01-08 00:06:55.23	13.60	7.74	-50.9	-66.6	3.8	1.49e+00	0	42	104	0	73	21756
2026-01-08 00:06:56.23	13.59	7.82	-50.9	-66.6	3.8	1.49e+00	0	42	104	0	73	21786
2026-01-08 00:06:57.24	13.57	7.90	-50.9	-66.6	3.8	1.49e+00	0	42	104	0	73	21842
2026-01-08 00:06:58.24	13.55	7.98	-51.0	-66.6	3.8	1.49e+00	0	42	104	0	73	21848
2026-01-08 00:06:59.24	13.53	8.06	-51.0	-66.6	3.8	1.49e+00	0	42	104	0	73	21899
2026-01-08 00:07:00.25	13.51	8.14	-51.0	-66.6	3.8	1.49e+00	0	42	104	0	73	21875
2026-01-08 00:07:01.25	13.49	8.22	-51.0	-66.6	3.8	1.49e+00	0	42	104	0	73	21892
2026-01-08 00:07:02.26	13.47	8.30	-51.0	-66.6	3.8	1.49e+00	0	42	104	0	73	21853
2026-01-08 00:07:03.26	13.45	8.38	-51.0	-66.6	3.8	1.49e+00	0	42	104	0	73	21855
2026-01-08 00:07:04.27	13.43	8.47	-51.0	-66.6	3.8	1.49e+00	0	42	104	0	73	21860
2026-01-08 00:07:05.27	13.41	8.55	-51.0	-66.6	3.8	1.49e+00	0	43	104	0	73	21794
2026-01-08 00:07:06.27	13.40	8.63	-51.0	-66.6	3.8	1.49e+00	0	42	104	0	73	21846
2026-01-08 00:07:07.28	13.38	8.71	-51.0	-66.6	3.8	1.49e+00	0	42	104	0	73	21897
2026-01-08 00:07:08.28	13.36	8.79	-51.0	-66.6	3.8	1.49e+00	0	42	104	0	73	21868
2026-01-08 00:07:09.29	13.34	8.88	-51.0	-66.6	3.8	1.49e+00	0	43	104	0	73	21819
2026-01-08 00:07:10.29	13.32	8.96	-51.0	-66.6	3.8	1.49e+00	0	43	104	0	73	21913
2026-01-08 00:07:11.30	13.29	9.04	-51.0	-66.6	3.8	1.49e+00	0	43	104	0	73	21886
2026-01-08 00:07:12.30	13.27	9.12	-51.0	-66.6	3.8	1.49e+00	0	43	104	0	73	21883
2026-01-08 00:07:13.31	13.25	9.21	-51.0	-66.6	3.8	1.49e+00	0	43	104	0	73	21901
2026-01-08 00:07:14.31	13.23	9.29	-51.0	-66.6	3.8	1.49e+00	0	43	104	0	73	21928
2026-01-08 00:07:15.31	13.21	9.37	-51.0	-66.6	3.8	1.49e+00	0	43	104	0	73	21886
2026-01-08 00:07:16.32	13.19	9.46	-51.0	-66.6	3.8	1.49e+00	0	43	104	0	73	21859
2026-01-08 00:07:17.32	13.17	9.54	-51.0	-66.6	3.8	1.49e+00	0	43	104	0	73	21886
2026-01-08 00:07:18.33	13.15	9.63	-51.0	-66.6	3.8	1.49e+00	0	43	104	0	73	21889
2026-01-08 00:07:19.33	13.13	9.71	-51.0	-66.6	3.8	1.49e+00	0	43	104	0	73	21931
2026-01-08 00:07:20.33	13.11	9.80	-51.0	-66.6	3.8	1.49e+00	0	43	104	0	73	21892
2026-01-08 00:07:21.34	13.08	9.89	-51.0	-66.6	3.8	1.49e+00	0	43	104	0	73	21977
2026-01-08 00:07:22.35	13.06	9.97	-51.0	-66.6	3.8	1.49e+00	0	43	104	0	73	21994
2026-01-08 00:07:23.35	13.04	10.06	-51.0	-66.6	3.8	1.49e+00	0	43	104	0	73	21935
2026-01-08 00:07:24.35	13.02	10.14	-51.0	-66.6	3.8	1.49e+00	0	43	104	0	73	21898
2026-01-08 00:07:25.36	13.00	10.23	-51.0	-66.7	3.8	1.49e+00	0	43	104	0	73	22117
2026-01-08 00:07:26.36	12.97	10.32	-51.0	-66.6	3.8	1.49e+00	0	43	104	0	73	21948
2026-01-08 00:07:27.36	12.95	10.41	-51.0	-66.6	3.8	1.49e+00	0	43	104	0	73	22006
2026-01-08 00:07:28.37	12.93	10.49	-51.0	-66.6	3.8	1.49e+00	0	43	104	0	73	21971
2026-01-08 00:07:29.37	12.90	10.58	-51.0	-66.7	3.8	1.49e+00	0	43	104	0	73	22074
2026-01-08 00:07:30.38	12.88	10.67	-51.0	-66.7	3.8	1.49e+00	0	43	104	0	73	22033
2026-01-08 00:07:31.38	12.86	10.76	-51.0	-66.7	3.8	1.49e+00	0	43	104	0	73	22019
2026-01-08 00:07:32.39	12.83	10.85	-51.0	-66.6	3.8	1.49e+00	0	43	104	0	73	21946
2026-01-08 00:07:33.39	12.81	10.94	-51.0	-66.7	3.8	1.49e+00	0	43	104	0	73	22015
2026-01-08 00:07:34.40	12.79	11.03	-51.0	-66.7	3.8	1.49e+00	0	43	104	0	73	22028
2026-01-08 00:07:35.40	12.76	11.12	-51.0	-66.6	3.8	1.49e+00	0	43	104	0	73	21998
2026-01-08 00:07:36.41	12.74	11.21	-51.0	-66.7	3.8	1.49e+00	0	43	104	0	73	22093
2026-01-08 00:07:37.41	12.71	11.30	-51.0	-66.7	3.8	1.49e+00	0	43	104	0	73	22046
2026-01-08 00:07:38.41	12.69	11.39	-51.0	-66.7	3.8	1.49e+00	0	43	104	0	73	22061
2026-01-08 00:07:39.42	12.67	11.48	-51.0	-66.7	3.8	1.49e+00	0	43	104	0	73	22051
2026-01-08 00:07:40.42	12.64	11.57	-51.0	-66.7	3.8	1.49e+00	0	43	104	0	73	22035
2026-01-08 00:07:41.43	12.62	11.67	-51.0	-66.7	3.8	1.49e+00	0	43	104	0	73	22129
2026-01-08 00:07:42.43	12.59	11.76	-51.0	-66.7	3.8	1.49e+00	0	43	104	0	73	22071
2026-01-08 00:07:43.44	12.56	11.85	-51.1	-66.7	3.8	1.49e+00	0	43	104	0	73	22071
2026-01-08 00:07:44.44	12.54	11.94	-51.1	-66.7	3.8	1.49e+00	0	43	104	0	73	22054
2026-01-08 00:07:45.44	12.51	12.04	-51.1	-66.7	3.8	1.49e+00	0	43	104	0	73	22028
2026-01-08 00:07:46.45	12.49	12.13	-51.1	-66.7	3.8	1.49e+00	0	43	104	0	73	22102
2026-01-08 00:07:47.45	12.46	12.22	-51.0	-66.7	3.8	1.49e+00	0	43	104	0	73	22130
2026-01-08 00:07:48.46	12.43	12.32	-51.1	-66.7	3.8	1.49e+00	0	43	104	0	73	22140
2026-01-08 00:07:49.46	12.41	12.41	-51.1	-66.7	3.8	1.49e+00	0	43	104	0	73	22069
2026-01-08 00:07:50.47	12.38	12.51	-51.1	-66.7	3.8	1.49e+00	0	43	104	0	73	22081
2026-01-08 00:07:51.47	12.35	12.61	-51.1	-66.7	3.8	1.49e+00	0	43	104	0	73	22101
2026-01-08 00:07:52.48	12.33	12.70	-51.1	-66.7	3.8	1.49e+00	0	43	104	0	73	22052
2026-01-08 00:07:53.48	12.30	12.80	-51.1	-66.7	3.8	1.49e+00	0	43	104	0	73	22140
2026-01-08 00:07:54.48	12.27	12.89	-51.1	-66.7	3.8	1.49e+00	0	43	104	0	73	22133
2026-01-08 00:07:55.49	12.24	12.99	-51.1	-66.7	3.8	1.49e+00	0	43	104	0	73	22099
2026-01-08 00:07:56.49	12.22	13.09	-51.1	-66.7	3.8	1.49e+00	0	43	104	0	73	22150
2026-01-08 00:07:57.50	12.19	13.19	-51.1	-66.7	3.8	1.49e+00	0	43	104	0	73	22199
2026-01-08 00:07:58.50	12.16	13.28	-51.1	-66.7	3.8	1.49e+00	0	43	104	0	73	22080
2026-01-08 00:07:59.51	12.13	13.38	-51.1	-66.7	3.8	1.49e+00	0	43	104	0	73	22174
2026-01-08 00:08:00.51	12.10	13.48	-51.1	-66.7	3.8	1.49e+00	0	43	104	0	73	22160
2026-01-08 00:08:01.52	12.07	13.58	-51.1	-66.7	3.8	1.49e+00	0	43	104	0	73	22149
2026-01-08 00:08:02.52	12.04	13.68	-51.1	-66.7	3.8	1.49e+00	0	43	104	0	73	22182
2026-01-08 00:08:03.52	12.01	13.78	-51.1	-66.7	3.8	1.49e+00	0	43	104	0	73	22201
2026-01-08 00:08:04.53	11.98	13.88	-51.1	-66.7	3.8	1.49e+00	0	43	104	0	73	22202
2026-01-08 00:08:05.53	11.95	13.98	-51.1	-66.8	3.8	1.49e+00	0	43	104	0	73	22281
2026-01-08 00:08:06.54	11.92	14.09	-51.1	-66.7	3.8	1.49e+00	0	43	104	0	73	22178
2026-01-08 00:08:07.54	11.89	14.19	-51.1	-66.7	3.8	1.49e+00	0	43	104	0	73	22261
2026-01-08 00:08:08.54	11.86	14.29	-51.1	-66.7	3.8	1.49e+00	0	43	104	0	73	22253
2026-01-08 00:08:09.55	11.83	14.39	-51.1	-66.7	3.8	1.49e+00	0	43	104	0	73	22250
2026-01-08 00:08:10.55	11.80	14.50	-51.1	-66.7	3.8	1.49e+00	0	43	104	0	73	22237
2026-01-08 00:08:11.56	11.77	14.60	-51.1	-66.7	3.8	1.49e+00	0	43	104	0	73	22259
2026-01-08 00:08:12.56	11.74	14.70	-51.1	-66.8	3.8	1.49e+00	0	43	104	0	73	22264
2026-01-08 00:08:13.57	11.70	14.81	-51.1	-66.8	3.8	1.49e+00	0	43	104	0	73	22284
2026-01-08 00:08:14.57	11.67	14.91	-51.2	-66.8	3.8	1.49e+00	0	43	104	0	73	22352
2026-01-08 00:08:15.58	11.64	15.02	-51.2	-66.8	3.8	1.49e+00	0	43	104	0	73	22306
2026-01-08 00:08:16.58	11.61	15.12	-51.1	-66.8	3.8	1.49e+00	0	43	104	0	73	22357
2026-01-08 00:08:17.58	11.57	15.23	-51.2	-66.8	3.8	1.49e+00	0	43	104	0	73	22363
2026-01-08 00:08:18.59	11.54	15.34	-51.2	-66.8	3.8	1.49e+00	0	43	104	0	73	22377
2026-01-08 00:08:19.59	11.51	15.44	-51.2	-66.8	3.8	1.49e+00	0	43	104	0	73	22383
2026-01-08 00:08:20.60	11.47	15.55	-51.2	-66.8	3.8	1.49e+00	0	43	104	0	73	22350
2026-01-08 00:08:21.60	11.44	15.66	-51.2	-66.8	3.8	1.49e+00	0	43	104	0	73	22417
2026-01-08 00:08:22.61	11.41	15.77	-51.2	-66.8	3.8	1.49e+00	0	43	104	0	73	22404
2026-01-08 00:08:23.61	11.37	15.88	-51.2	-66.8	3.8	1.49e+00	0	43	104	0	73	22504
2026-01-08 00:08:24.61	11.34	15.99	-51.2	-66.8	3.8	1.49e+00	0	43	104	0	73	22447
2026-01-08 00:08:25.62	11.30	16.10	-51.2	-66.8	3.8	1.49e+00	0	43	104	0	73	22368
2026-01-08 00:08:26.62	11.27	16.21	-51.2	-66.8	3.8	1.49e+00	0	43	104	0	73	22421
2026-01-08 00:08:27.63	11.23	16.32	-51.2	-66.8	3.8	1.49e+00	0	43	104	0	73	22504
2026-01-08 00:08:28.63	11.19	16.43	-51.2	-66.9	3.8	1.49e+00	0	43	104	0	73	22540
2026-01-08 00:08:29.64	11.16	16.54	-51.2	-66.8	3.8	1.49e+00	0	43	104	0	73	22440
2026-01-08 00:08:30.64	11.12	16.65	-51.2	-66.8	3.8	1.49e+00	0	43	104	0	73	22475
2026-01-08 00:08:31.65	11.08	16.77	-51.3	-66.9	3.8	1.49e+00	0	43	104	0	73	22600
2026-01-08 00:08:32.65	11.05	16.88	-51.2	-66.9	3.8	1.49e+00	0	43	104	0	73	22683
2026-01-08 00:08:33.66	11.01	17.00	-51.3	-66.9	3.8	1.49e+00	0	43	104	0	73	22560
2026-01-08 00:08:34.66	10.97	17.11	-51.3	-66.9	3.8	1.49e+00	0	43	104	0	73	22583
2026-01-08 00:08:35.66	10.93	17.22	-51.3	-66.8	3.8	1.49e+00	0	43	104	0	73	22519
2026-01-08 00:08:36.67	10.89	17.34	-51.3	-66.9	3.8	1.49e+00	0	43	104	0	73	22586
2026-01-08 00:08:37.67	10.85	17.46	-51.2	-66.9	3.8	1.49e+00	0	44	104	0	73	22601
2026-01-08 00:08:38.68	10.82	17.57	-51.2	-66.9	3.8	1.49e+00	0	43	104	0	73	22581
2026-01-08 00:08:39.68	10.78	17.69	-51.3	-66.9	3.8	1.49e+00	0	43	104	0	73	22617
2026-01-08 00:08:40.69	10.74	17.81	-51.3	-66.9	3.8	1.49e+00	0	43	104	0	73	22616
2026-01-08 00:08:41.69	10.70	17.93	-51.3	-66.9	3.8	1.49e+00	0	44	104	0	73	22596
2026-01-08 00:08:42.70	10.66	18.05	-51.3	-66.9	3.8	1.49e+00	0	43	104	0	73	22551
2026-01-08 00:08:43.70	10.61	18.17	-51.3	-66.9	3.8	1.49e+00	0	43	104	0	73	22559
2026-01-08 00:08:44.70	10.57	18.29	-51.3	-66.9	3.8	1.49e+00	0	43	104	0	73	22654
2026-01-08 00:08:45.71	10.53	18.41	-51.3	-66.9	3.8	1.49e+00	0	43	104	0	73	22625
2026-01-08 00:08:46.71	10.49	18.53	-51.3	-66.9	3.8	1.49e+00	0	44	104	0	73	22634
2026-01-08 00:08:47.72	10.45	18.65	-51.3	-66.9	3.8	1.49e+00	0	43	104	0	73	22625
2026-01-08 00:08:48.72	10.40	18.77	-51.3	-66.9	3.8	1.49e+00	0	44	104	0	73	22750
2026-01-08 00:08:49.73	10.36	18.90	-51.3	-66.9	3.8	1.49e+00	0	44	104	0	73	22634
2026-01-08 00:08:50.73	10.32	19.02	-51.3	-66.9	3.8	1.49e+00	0	44	104	0	73	22590
2026-01-08 00:08:51.74	10.27	19.14	-51.3	-66.9	3.8	1.49e+00	0	43	104	0	73	22558
2026-01-08 00:08:52.74	10.23	19.27	-51.3	-66.9	3.8	1.49e+00	0	43	104	0	73	22631
2026-01-08 00:08:53.75	10.18	19.39	-51.3	-66.9	3.8	1.49e+00	0	43	104	0	73	22606
2026-01-08 00:08:54.75	10.14	19.52	-51.3	-66.9	3.8	1.49e+00	0	43	104	0	73	22646
2026-01-08 00:08:55.76	10.09	19.65	-51.3	-66.9	3.8	1.49e+00	0	43	104	0	73	22570
2026-01-08 00:08:56.76	10.05	19.77	-51.3	-66.9	3.8	1.49e+00	0	43	104	0	73	22666
2026-01-08 00:08:57.76	10.00	19.90	-51.3	-66.9	3.8	1.49e+00	0	43	104	0	73	22661
2026-01-08 00:08:58.77	9.96	20.03	-51.3	-66.9	3.8	1.49e+00	0	43	104	0	73	22608
2026-01-08 00:08:59.77	9.91	20.16	-51.3	-66.9	3.8	1.49e+00	0	43	104	0	73	22745
2026-01-08 00:09:00.78	9.86	20.29	-51.3	-66.9	3.8	1.49e+00	0	43	104	0	73	22742
2026-01-08 00:09:01.78	9.81	20.42	-51.3	-66.9	3.8	1.49e+00	0	43	104	0	73	22666
2026-01-08 00:09:02.78	9.76	20.55	-51.3	-66.9	3.8	1.49e+00	0	43	104	0	73	22668
2026-01-08 00:09:03.79	9.72	20.68	-51.3	-66.9	3.8	1.49e+00	0	43	104	0	73	22729
2026-01-08 00:09:04.79	9.67	20.81	-51.3	-66.9	3.8	1.49e+00	0	44	104	0	73	22663
2026-01-08 00:09:05.80	9.62	20.95	-51.3	-66.9	3.8	1.49e+00	0	43	104	0	73	22697
2026-01-08 00:09:06.80	9.57	21.08	-51.3	-66.9	3.8	1.49e+00	0	43	104	0	73	22726
2026-01-08 00:09:07.81	9.51	21.22	-51.3	-66.9	3.8	1.49e+00	0	44	104	0	73	22738
2026-01-08 00:09:08.81	9.46	21.35	-51.3	-66.9	3.8	1.49e+00	0	43	104	0	73	22674
2026-01-08 00:09:09.82	9.41	21.49	-51.3	-66.9	3.8	1.49e+00	0	43	104	0	73	22682
2026-01-08 00:09:10.82	9.36	21.62	-51.3	-67.0	3.8	1.49e+00	0	43	104	0	73	22786
2026-01-08 00:09:11.82	9.31	21.76	-51.3	-66.9	3.8	1.49e+00	0	43	104	0	73	22741
2026-01-08 00:09:12.83	9.25	21.90	-51.3	-66.9	3.8	1.49e+00	0	43	104	0	73	22743
2026-01-08 00:09:13.84	9.20	22.04	-51.3	-66.9	3.8	1.49e+00	0	43	104	0	73	22660
2026-01-08 00:09:14.84	9.15	22.18	-51.3	-66.9	3.8	1.49e+00	0	43	104	0	73	22739
2026-01-08 00:09:15.84	9.09	22.32	-51.3	-66.9	3.8	1.49e+00	0	43	104	0	73	22715
2026-01-08 00:09:16.85	9.04	22.46	-51.3	-66.9	3.8	1.49e+00	0	44	104	0	73	22775
2026-01-08 00:09:17.85	8.98	22.60	-51.3	-66.9	3.8	1.49e+00	0	43	104	0	73	22779
2026-01-08 00:09:18.86	8.92	22.74	-51.3	-66.9	3.8	1.49e+00	0	43	104	0	73	22681
2026-01-08 00:09:19.86	8.87	22.89	-51.3	-66.9	3.8	1.49e+00	0	43	104	0	73	22741
2026-01-08 00:09:20.86	8.81	23.03	-51.3	-66.9	3.8	1.49e+00	0	43	104	0	73	22718
2026-01-08 00:09:21.87	8.75	23.18	-51.3	-66.9	3.8	1.49e+00	0	44	104	0	73	22755
2026-01-08 00:09:22.87	8.69	23.32	-51.3	-66.9	3.8	1.49e+00	0	43	104	0	73	22664
2026-01-08 00:09:23.88	8.63	23.47	-51.3	-67.0	3.8	1.49e+00	0	44	104	0	73	22795
2026-01-08 00:09:24.88	8.57	23.61	-51.3	-66.9	3.8	1.49e+00	0	43	104	0	73	22715
2026-01-08 00:09:25.89	8.51	23.76	-51.3	-66.9	3.8	1.49e+00	0	44	104	0	73	22692
2026-01-08 00:09:26.89	8.45	23.91	-51.3	-66.9	3.8	1.49e+00	0	43	104	0	73	22658
2026-01-08 00:09:27.89	8.39	24.06	-51.3	-66.9	3.8	1.49e+00	0	44	104	0	73	22724
2026-01-08 00:09:28.90	8.33	24.21	-51.3	-66.9	3.8	1.49e+00	0	44	104	0	73	22634
2026-01-08 00:09:29.90	8.26	24.36	-51.3	-66.9	3.8	1.49e+00	0	44	104	0	73	22692
2026-01-08 00:09:30.91	8.20	24.52	-51.3	-66.9	3.8	1.49e+00	0	44	104	0	73	22678
2026-01-08 00:09:31.91	8.14	24.67	-51.3	-66.9	3.8	1.49e+00	0	44	104	0	73	22665
2026-01-08 00:09:32.91	8.07	24.82	-51.3	-66.9	3.8	1.49e+00	0	43	104	0	73	22701
2026-01-08 00:09:33.92	8.01	24.98	-51.3	-66.9	3.8	1.49e+00	0	43	104	0	73	22684
2026-01-08 00:09:34.92	7.94	25.13	-51.3	-66.9	3.8	1.49e+00	0	44	104	0	73	22683
2026-01-08 00:09:35.93	7.87	25.29	-51.3	-66.9	3.8	1.49e+00	0	43	104	0	73	22626
2026-01-08 00:09:36.93	7.81	25.45	-51.3	-66.9	3.8	1.49e+00	0	44	104	0	73	22596
2026-01-08 00:09:37.94	7.74	25.61	-51.3	-66.9	3.8	1.49e+00	0	43	104	0	73	22604
2026-01-08 00:09:38.94	7.67	25.76	-51.3	-66.9	3.8	1.49e+00	0	43	104	0	73	22659
2026-01-08 00:09:39.94	7.60	25.92	-51.3	-66.9	3.8	1.49e+00	0	44	104	0	73	22622
2026-01-08 00:09:40.95	7.53	26.09	-51.3	-66.8	3.8	1.49e+00	0	44	104	0	73	22519
2026-01-08 00:09:41.95	7.46	26.25	-51.3	-66.9	3.8	1.49e+00	0	44	104	0	73	22620
2026-01-08 00:09:42.96	7.38	26.41	-51.3	-66.9	3.8	1.49e+00	0	44	104	0	73	22590
2026-01-08 00:09:43.96	7.31	26.57	-51.3	-66.9	3.8	1.49e+00	0	43	104	0	73	22655
2026-01-08 00:09:44.97	7.24	26.74	-51.3	-66.9	3.8	1.49e+00	0	43	104	0	73	22544
2026-01-08 00:09:45.97	7.16	26.90	-51.3	-66.9	3.8	1.49e+00	0	43	104	0	73	22702
2026-01-08 00:09:46.97	7.09	27.07	-51.3	-66.9	3.8	1.49e+00	0	43	104	0	73	22574
2026-01-08 00:09:47.98	7.01	27.24	-51.3	-66.9	3.8	1.49e+00	0	44	104	0	73	22646
2026-01-08 00:09:48.98	6.93	27.41	-51.3	-66.9	3.8	1.49e+00	0	43	104	0	73	22527
2026-01-08 00:09:49.99	6.86	27.58	-51.2	-66.9	3.8	1.49e+00	0	43	104	0	73	22523
2026-01-08 00:09:50.99	6.78	27.75	-51.3	-66.9	3.8	1.49e+00	0	43	104	0	73	22612
2026-01-08 00:09:52.00	6.70	27.92	-51.3	-66.9	3.8	1.49e+00	0	44	104	0	73	22611
2026-01-08 00:09:53.00	6.62	28.09	-51.3	-66.9	3.8	1.49e+00	0	44	104	0	73	22529
2026-01-08 00:09:54.00	6.54	28.26	-51.2	-66.8	3.8	1.49e+00	0	44	104	0	73	22505
2026-01-08 00:09:55.01	6.45	28.44	-51.2	-66.8	3.8	1.49e+00	0	44	104	0	73	22518
2026-01-08 00:09:56.01	6.37	28.61	-51.2	-66.9	3.8	1.49e+00	0	44	104	0	73	22590
2026-01-08 00:09:57.01	6.29	28.79	-51.2	-66.8	3.8	1.49e+00	0	43	104	0	73	22513
2026-01-08 00:09:58.02	6.20	28.97	-51.2	-66.8	3.8	1.49e+00	0	44	104	0	73	22483
2026-01-08 00:09:59.02	6.12	29.15	-51.2	-66.9	3.8	1.49e+00	0	43	104	0	73	22565
2026-01-08 00:10:00.03	6.03	29.33	-51.2	-66.9	3.8	1.49e+00	0	44	104	0	73	22551
2026-01-08 00:10:01.03	5.94	29.51	-51.2	-66.8	3.8	1.49e+00	0	44	104	0	73	22453
2026-01-08 00:10:02.04	5.85	29.69	-51.2	-66.8	3.8	1.49e+00	0	44	104	0	73	22439
2026-01-08 00:10:03.04	5.76	29.87	-51.2	-66.8	3.8	1.49e+00	0	43	104	0	73	22476
2026-01-08 00:10:04.05	5.67	30.06	-51.2	-66.8	3.8	1.49e+00	0	44	104	0	73	22480
2026-01-08 00:10:05.05	5.58	30.24	-51.2	-66.8	3.8	1.49e+00	0	44	104	0	73	22426
2026-01-08 00:10:06.05	5.48	30.43	-51.2	-66.8	3.8	1.49e+00	0	44	104	0	73	22445
2026-01-08 00:10:07.06	5.39	30.62	-51.2	-66.8	3.8	1.49e+00	0	44	104	0	73	22375
2026-01-08 00:10:08.06	5.29	30.81	-51.2	-66.8	3.8	1.49e+00	0	43	104	0	73	22437
2026-01-08 00:10:09.07	5.19	31.00	-51.2	-66.8	3.8	1.49e+00	0	43	104	0	73	22433
2026-01-08 00:10:10.07	5.10	31.19	-51.2	-66.8	3.8	1.49e+00	0	44	104	0	73	22400
2026-01-08 00:10:11.08	5.00	31.38	-51.2	-66.8	3.8	1.49e+00	0	44	104	0	73	22348
2026-01-08 00:10:12.08	4.90	31.57	-51.2	-66.8	3.8	1.49e+00	0	44	104	0	73	22423
2026-01-08 00:10:13.08	4.79	31.77	-51.2	-66.8	3.8	1.49e+00	0	44	104	0	73	22388
2026-01-08 00:10:14.09	4.69	31.96	-51.2	-66.8	3.8	1.49e+00	0	44	104	0	73	22451
2026-01-08 00:10:15.09	4.59	32.16	-51.2	-66.8	3.8	1.49e+00	0	44	104	0	73	22382
2026-01-08 00:10:16.10	4.48	32.36	-51.2	-66.8	3.8	1.49e+00	0	44	104	0	73	22296
2026-01-08 00:10:17.10	4.37	32.56	-51.2	-66.8	3.8	1.49e+00	0	44	104	0	73	22369
2026-01-08 00:10:18.11	4.26	32.76	-51.2	-66.8	3.8	1.49e+00	0	44	104	0	73	22349
2026-01-08 00:10:19.11	4.15	32.96	-51.1	-66.8	3.8	1.49e+00	0	44	104	0	73	22327
2026-01-08 00:10:20.12	4.04	33.17	-51.1	-66.8	3.8	1.49e+00	0	44	104	0	73	22316
2026-01-08 00:10:21.12	3.93	33.37	-51.2	-66.8	3.8	1.49e+00	0	44	104	0	73	22293
2026-01-08 00:10:22.12	3.82	33.57	-51.1	-66.8	3.8	1.49e+00	0	44	104	0	73	22292
2026-01-08 00:10:23.13	3.70	33.78	-51.2	-66.8	3.8	1.49e+00	0	44	104	0	73	22283
2026-01-08 00:10:24.13	3.58	33.99	-51.2	-66.8	3.8	1.49e+00	0	44	104	0	73	22268
2026-01-08 00:10:25.14	3.46	34.20	-51.2	-66.8	3.8	1.49e+00	0	44	104	0	73	22310
2026-01-08 00:10:26.14	3.34	34.41	-51.1	-66.8	3.8	1.49e+00	0	44	104	0	73	22277
2026-01-08 00:10:27.14	3.22	34.62	-51.2	-66.8	3.8	1.49e+00	0	44	104	0	73	22321
2026-01-08 00:10:28.15	3.10	34.84	-51.2	-66.7	3.8	1.49e+00	0	43	104	0	73	22241
2026-01-08 00:10:29.15	2.97	35.05	-51.1	-66.7	3.8	1.49e+00	0	44	104	0	73	22212
2026-01-08 00:10:30.16	2.84	35.27	-51.1	-66.7	3.8	1.49e+00	0	43	104	0	73	22254
2026-01-08 00:10:31.16	2.72	35.48	-51.1	-66.7	3.8	1.49e+00	0	44	104	0	73	22232
2026-01-08 00:10:32.17	2.58	35.70	-51.1	-66.7	3.8	1.49e+00	0	43	104	0	73	22261
2026-01-08 00:10:33.17	2.45	35.92	-51.2	-66.7	3.8	1.49e+00	0	44	104	0	73	22256
2026-01-08 00:10:34.18	2.32	36.14	-51.1	-66.8	3.8	1.49e+00	0	44	104	0	73	22273
2026-01-08 00:10:35.18	2.18	36.36	-51.1	-66.7	3.8	1.49e+00	0	44	104	0	73	22193
2026-01-08 00:10:36.18	2.04	36.59	-51.1	-66.7	3.8	1.49e+00	0	44	104	0	73	22256
2026-01-08 00:10:37.19	1.90	36.81	-51.1	-66.7	3.8	1.49e+00	0	44	104	0	73	22172
2026-01-08 00:10:38.19	1.76	37.04	-51.1	-66.7	3.8	1.49e+00	0	43	104	0	73	22252
2026-01-08 00:10:39.20	1.62	37.27	-51.1	-66.7	3.8	1.49e+00	0	43	104	0	73	22227
2026-01-08 00:10:40.20	1.47	37.50	-51.1	-66.8	3.8	1.49e+00	0	44	104	0	73	22285
2026-01-08 00:10:41.21	1.32	37.73	-51.1	-66.7	3.8	1.49e+00	0	44	104	0	73	22250
2026-01-08 00:10:42.21	1.17	37.96	-51.1	-66.7	3.8	1.49e+00	0	44	104	0	73	22259
2026-01-08 00:10:43.21	1.02	38.19	-51.1	-66.7	3.8	1.49e+00	0	43	104	0	73	22253
2026-01-08 00:10:44.22	0.86	38.43	-51.1	-66.7	3.8	1.49e+00	0	44	104	0	73	22258
2026-01-08 00:10:45.22	0.71	38.66	-51.1	-66.7	3.8	1.49e+00	0	44	104	0	73	22190
2026-01-08 00:10:46.23	0.55	38.90	-51.1	-66.7	3.8	1.49e+00	0	44	104	0	73	22213
2026-01-08 00:10:47.23	0.38	39.14	-51.1	-66.7	3.8	1.49e+00	0	43	104	0	73	22242
2026-01-08 00:10:48.23	0.22	39.38	-51.1	-66.7	3.8	1.49e+00	0	44	104	0	73	22172
2026-01-08 00:10:49.24	0.05	39.62	-51.1	-66.8	3.8	1.49e+00	0	44	104	0	73	22272
2026-01-08 00:10:50.24	359.88	39.87	-51.1	-66.7	3.8	1.49e+00	0	44	104	0	73	22197
2026-01-08 00:10:51.24	359.71	40.11	-51.1	-66.7	3.8	1.49e+00	0	44	104	0	73	22201
2026-01-08 00:10:52.25	359.53	40.36	-51.1	-66.7	3.8	1.49e+00	0	44	104	0	73	22126
2026-01-08 00:10:53.26	359.36	40.61	-51.1	-66.7	3.8	1.49e+00	0	44	104	0	73	22189
2026-01-08 00:10:54.26	359.18	40.85	-51.1	-66.7	3.8	1.49e+00	0	44	104	0	73	22229
2026-01-08 00:10:55.26	358.99	41.10	-51.1	-66.7	3.8	1.49e+00	0	44	104	0	73	22226
2026-01-08 00:10:56.27	358.81	41.36	-51.1	-66.7	3.8	1.49e+00	0	44	104	0	73	22251
2026-01-08 00:10:57.27	358.62	41.61	-51.1	-66.7	3.8	1.49e+00	0	44	104	0	73	22229
2026-01-08 00:10:58.27	358.43	41.86	-51.1	-66.8	3.8	1.49e+00	0	44	104	0	73	22294
2026-01-08 00:10:59.28	358.23	42.12	-51.1	-66.7	3.8	1.49e+00	0	44	104	0	73	22259
2026-01-08 00:11:00.28	358.03	42.37	-51.1	-66.7	3.8	1.49e+00	0	44	104	0	73	22189
2026-01-08 00:11:01.29	357.83	42.63	-51.1	-66.7	3.8	1.49e+00	0	44	104	0	73	22142
2026-01-08 00:11:02.29	357.62	42.89	-51.1	-66.7	3.8	1.49e+00	0	44	104	0	73	22195
2026-01-08 00:11:03.30	357.41	43.16	-51.1	-66.7	3.8	1.49e+00	0	44	104	0	73	22237
2026-01-08 00:11:04.30	357.20	43.42	-51.1	-66.7	3.8	1.49e+00	0	44	104	0	73	22217
2026-01-08 00:11:05.31	356.99	43.68	-51.1	-66.7	3.8	1.49e+00	0	44	104	0	73	22204
2026-01-08 00:11:06.31	356.77	43.95	-51.1	-66.7	3.8	1.49e+00	0	44	104	0	73	22223
2026-01-08 00:11:07.32	356.54	44.22	-51.1	-66.7	3.8	1.49e+00	0	44	104	0	73	22131
2026-01-08 00:11:08.32	356.32	44.48	-51.1	-66.7	3.8	1.49e+00	0	44	104	0	73	22189
2026-01-08 00:11:09.33	356.08	44.76	-51.1	-66.8	3.8	1.49e+00	0	44	104	0	73	22263
2026-01-08 00:11:10.33	355.85	45.02	-51.1	-66.7	3.8	1.49e+00	0	44	104	0	73	22249
2026-01-08 00:11:11.34	355.61	45.30	-51.1	-66.7	3.8	1.49e+00	0	44	104	0	73	22111
2026-01-08 00:11:12.34	355.37	45.57	-51.1	-66.7	3.8	1.49e+00	0	44	104	0	73	22244
2026-01-08 00:11:13.34	355.12	45.84	-51.1	-66.7	3.8	1.49e+00	0	44	104	0	73	22158
2026-01-08 00:11:14.35	354.87	46.12	-51.1	-66.8	3.8	1.49e+00	0	44	104	0	73	22292
2026-01-08 00:11:15.35	354.61	46.40	-51.1	-66.7	3.8	1.49e+00	0	44	104	0	73	22255
2026-01-08 00:11:16.36	354.35	46.68	-51.1	-66.8	3.8	1.49e+00	0	44	104	0	73	22265
2026-01-08 00:11:17.36	354.08	46.96	-51.1	-66.8	3.8	1.49e+00	0	44	104	0	73	22273
2026-01-08 00:11:18.37	353.81	47.24	-51.1	-66.7	3.8	1.49e+00	0	44	104	0	73	22152
2026-01-08 00:11:19.37	353.54	47.52	-51.1	-66.7	3.8	1.49e+00	0	44	104	0	73	22249
2026-01-08 00:11:20.37	353.26	47.80	-51.1	-66.7	3.8	1.49e+00	0	44	104	0	73	22238
2026-01-08 00:11:21.38	352.97	48.09	-51.1	-66.7	3.8	1.49e+00	0	44	104	0	73	22252
2026-01-08 00:11:22.38	352.68	48.37	-51.1	-66.7	3.8	1.49e+00	0	44	104	0	73	22236
2026-01-08 00:11:23.39	352.38	48.66	-51.1	-66.7	3.8	1.49e+00	0	44	104	0	73	22238
2026-01-08 00:11:24.39	352.08	48.95	-51.1	-66.7	3.8	1.49e+00	0	44	104	0	73	22234
2026-01-08 00:11:25.40	351.77	49.24	-51.1	-66.7	3.8	1.49e+00	0	44	104	0	73	22234
2026-01-08 00:11:26.40	351.45	49.52	-51.1	-66.7	3.8	1.49e+00	0	44	104	0	73	22217
2026-01-08 00:11:27.40	351.14	49.81	-51.1	-66.7	3.8	1.49e+00	0	44	104	0	73	22248
2026-01-08 00:11:28.41	350.81	50.11	-51.1	-66.7	3.8	1.49e+00	0	44	104	0	73	22223
2026-01-08 00:11:29.41	350.47	50.40	-51.1	-66.7	3.8	1.49e+00	0	44	104	0	73	22215
2026-01-08 00:11:30.42	350.13	50.69	-51.1	-66.7	3.8	1.49e+00	0	44	104	0	73	22233
2026-01-08 00:11:31.42	349.79	50.98	-51.1	-66.7	3.8	1.49e+00	0	44	104	0	73	22194
2026-01-08 00:11:32.42	349.44	51.28	-51.1	-66.7	3.8	1.49e+00	0	44	104	0	73	22204
2026-01-08 00:11:33.43	349.07	51.57	-51.1	-66.7	3.8	1.49e+00	0	44	104	0	73	22242
2026-01-08 00:11:34.43	348.71	51.87	-51.1	-66.7	3.8	1.49e+00	0	44	104	0	73	22222
2026-01-08 00:11:35.44	348.33	52.17	-51.1	-66.7	3.8	1.49e+00	0	44	104	0	73	22186
2026-01-08 00:11:36.44	347.95	52.46	-51.1	-66.7	3.8	1.49e+00	0	44	104	0	73	22233
2026-01-08 00:11:37.44	347.56	52.76	-51.1	-66.7	3.8	1.49e+00	0	44	104	0	73	22230
2026-01-08 00:11:38.45	347.16	53.06	-51.1	-66.7	3.8	1.49e+00	0	44	104	0	73	22152
2026-01-08 00:11:39.45	346.75	53.35	-51.1	-66.7	3.8	1.49e+00	0	44	104	0	73	22136
2026-01-08 00:11:40.46	346.33	53.65	-51.1	-66.7	3.8	1.49e+00	0	44	104	0	73	22251
2026-01-08 00:11:41.46	345.91	53.95	-51.1	-66.7	3.8	1.49e+00	0	44	104	0	73	22188
2026-01-08 00:11:42.46	345.48	54.25	-51.1	-66.7	3.8	1.49e+00	0	44	104	0	73	22165
2026-01-08 00:11:43.47	345.03	54.55	-51.1	-66.7	3.8	1.49e+00	0	44	104	0	73	22159
2026-01-08 00:11:44.47	344.58	54.85	-51.1	-66.7	3.8	1.49e+00	0	44	104	0	73	22170
2026-01-08 00:11:45.48	344.12	55.15	-51.1	-66.7	3.8	1.49e+00	0	44	104	0	73	22146
2026-01-08 00:11:46.48	343.65	55.44	-51.1	-66.7	3.8	1.49e+00	0	44	104	0	73	22060
2026-01-08 00:11:47.49	343.17	55.74	-51.1	-66.7	3.8	1.49e+00	0	44	104	0	73	22074
2026-01-08 00:11:48.49	342.68	56.04	-51.1	-66.7	3.8	1.49e+00	0	44	104	0	73	22131
2026-01-08 00:11:49.50	342.17	56.34	-51.1	-66.7	3.8	1.49e+00	0	44	104	0	73	22124
2026-01-08 00:11:50.50	341.66	56.63	-51.1	-66.7	3.8	1.49e+00	0	44	104	0	73	22152
2026-01-08 00:11:51.50	341.14	56.93	-51.1	-66.7	3.8	1.49e+00	0	44	104	0	73	22074
2026-01-08 00:11:52.51	340.60	57.22	-51.1	-66.7	3.8	1.49e+00	0	44	104	0	73	22085
2026-01-08 00:11:53.51	340.05	57.51	-51.1	-66.7	3.8	1.49e+00	0	44	104	0	73	22050
2026-01-08 00:11:54.52	339.49	57.81	-51.1	-66.7	3.8	1.49e+00	0	44	104	0	73	22067
2026-01-08 00:11:55.52	338.92	58.10	-51.1	-66.7	3.8	1.49e+00	0	44	104	0	73	22140
2026-01-08 00:11:56.52	338.33	58.39	-51.1	-66.7	3.8	1.49e+00	0	44	104	0	73	22014
2026-01-08 00:11:57.53	337.73	58.68	-51.1	-66.7	3.8	1.49e+00	0	44	104	0	73	22077
2026-01-08 00:11:58.53	337.12	58.96	-51.1	-66.7	3.8	1.49e+00	0	44	104	0	73	22098
2026-01-08 00:11:59.54	336.49	59.25	-51.1	-66.7	3.8	1.49e+00	0	44	104	0	73	22153
2026-01-08 00:12:00.54	335.86	59.53	-51.1	-66.7	3.8	1.49e+00	0	44	104	0	73	22157
2026-01-08 00:12:01.55	335.20	59.82	-51.1	-66.6	3.8	1.49e+00	0	44	104	0	73	21999
2026-01-08 00:12:02.55	334.54	60.09	-51.1	-66.7	3.8	1.49e+00	0	44	104	0	73	22087
2026-01-08 00:12:03.55	333.86	60.37	-51.1	-66.7	3.8	1.49e+00	0	44	104	0	73	22081
2026-01-08 00:12:04.56	333.16	60.65	-51.1	-66.7	3.8	1.49e+00	0	44	104	0	73	22105
2026-01-08 00:12:05.56	332.45	60.92	-51.1	-66.7	3.8	1.49e+00	0	44	104	0	73	22135
2026-01-08 00:12:06.57	331.71	61.19	-51.1	-66.7	3.8	1.49e+00	0	44	104	0	73	22112
2026-01-08 00:12:07.57	330.97	61.45	-51.1	-66.7	3.8	1.49e+00	0	44	104	0	73	22053
2026-01-08 00:12:08.58	330.21	61.72	-51.1	-66.7	3.8	1.49e+00	0	44	104	0	73	22149
2026-01-08 00:12:09.58	329.44	61.97	-51.1	-66.7	3.8	1.49e+00	0	44	104	0	73	22120
2026-01-08 00:12:10.58	328.65	62.23	-51.1	-66.7	3.8	1.49e+00	0	44	104	0	73	22086
2026-01-08 00:12:11.59	327.83	62.48	-51.1	-66.7	3.8	1.49e+00	0	44	104	0	73	22031
2026-01-08 00:12:12.59	327.01	62.73	-51.1	-66.7	3.8	1.49e+00	0	44	104	0	73	22077
2026-01-08 00:12:13.60	326.16	62.97	-51.1	-66.7	3.8	1.49e+00	0	44	104	0	73	22048
2026-01-08 00:12:14.60	325.30	63.21	-51.1	-66.7	3.8	1.49e+00	0	44	104	0	73	22055
2026-01-08 00:12:15.60	324.43	63.44	-51.1	-66.7	3.8	1.49e+00	0	44	104	0	73	22101
2026-01-08 00:12:16.61	323.53	63.68	-51.1	-66.7	3.8	1.49e+00	0	44	104	0	73	22208
2026-01-08 00:12:17.62	322.61	63.90	-51.1	-66.7	3.8	1.49e+00	0	44	104	0	73	22096
2026-01-08 00:12:18.62	321.68	64.12	-51.1	-66.7	3.8	1.49e+00	0	44	104	0	73	22145
2026-01-08 00:12:19.62	320.74	64.33	-51.1	-66.7	3.8	1.49e+00	0	44	104	0	73	22130
2026-01-08 00:12:20.63	319.77	64.54	-51.1	-66.7	3.8	1.49e+00	0	44	104	0	73	22095
2026-01-08 00:12:21.63	318.79	64.74	-51.1	-66.7	3.8	1.49e+00	0	44	104	0	73	22074
2026-01-08 00:12:22.64	317.78	64.94	-51.1	-66.7	3.8	1.49e+00	0	44	104	0	73	22070
2026-01-08 00:12:23.64	316.76	65.12	-51.1	-66.7	3.8	1.49e+00	0	44	104	0	73	22046
2026-01-08 00:12:24.64	315.73	65.30	-51.1	-66.7	3.8	1.49e+00	0	44	104	0	73	22049
2026-01-08 00:12:25.65	314.67	65.48	-51.1	-66.7	3.8	1.49e+00	0	44	104	0	73	22097
2026-01-08 00:12:26.66	313.60	65.65	-51.0	-66.7	3.8	1.49e+00	0	44	104	0	73	22011
2026-01-08 00:12:27.66	312.52	65.81	-51.0	-66.7	3.8	1.49e+00	0	44	104	0	73	22025
2026-01-08 00:12:28.66	311.42	65.96	-51.1	-66.7	3.8	1.49e+00	0	44	104	0	73	22094
2026-01-08 00:12:29.67	310.30	66.10	-51.1	-66.7	3.8	1.49e+00	0	44	104	0	73	22074
2026-01-08 00:12:30.67	309.17	66.24	-51.1	-66.6	3.8	1.49e+00	0	44	104	0	73	22004
2026-01-08 00:12:31.68	308.02	66.37	-51.1	-66.7	3.8	1.49e+00	0	44	104	0	73	22059
2026-01-08 00:12:32.68	306.87	66.49	-51.1	-66.7	3.8	1.49e+00	0	44	104	0	73	22012
2026-01-08 00:12:33.68	305.70	66.60	-51.0	-66.6	3.8	1.49e+00	0	44	104	0	73	21967
2026-01-08 00:12:34.69	304.51	66.70	-51.0	-66.7	3.8	1.49e+00	0	44	104	0	73	22030
2026-01-08 00:12:35.69	303.33	66.79	-51.0	-66.6	3.8	1.49e+00	0	44	104	0	73	21994
2026-01-08 00:12:36.70	302.12	66.88	-51.0	-66.6	3.8	1.49e+00	0	44	104	0	73	21984
2026-01-08 00:12:37.70	300.91	66.95	-51.0	-66.6	3.8	1.49e+00	0	44	104	0	73	21998
2026-01-08 00:12:38.71	299.68	67.01	-51.0	-66.7	3.8	1.49e+00	0	44	104	0	73	22042
2026-01-08 00:12:39.71	298.46	67.07	-51.0	-66.7	3.8	1.49e+00	0	44	104	0	73	22011
2026-01-08 00:12:40.72	297.22	67.12	-51.0	-66.6	3.8	1.49e+00	0	44	104	0	73	21885
2026-01-08 00:12:41.72	295.99	67.15	-51.0	-66.6	3.8	1.49e+00	0	44	104	0	73	21909
2026-01-08 00:12:42.72	294.75	67.18	-51.0	-66.6	3.8	1.49e+00	0	44	104	0	73	21939
2026-01-08 00:12:43.73	293.50	67.19	-51.0	-66.6	3.8	1.49e+00	0	44	104	0	73	21909
2026-01-08 00:12:44.73	292.26	67.20	-51.0	-66.6	3.8	1.49e+00	0	44	104	0	73	21920
2026-01-08 00:12:45.74	291.01	67.19	-51.0	-66.6	3.8	1.49e+00	0	44	104	0	73	21899
2026-01-08 00:12:46.74	289.77	67.18	-51.0	-66.6	3.8	1.49e+00	0	44	104	0	73	21837
2026-01-08 00:12:47.75	288.52	67.16	-51.0	-66.6	3.8	1.49e+00	0	44	104	0	73	21959
2026-01-08 00:12:48.75	287.28	67.12	-51.0	-66.6	3.8	1.49e+00	0	44	104	0	73	21933
2026-01-08 00:12:49.75	286.05	67.08	-51.0	-66.6	3.8	1.49e+00	0	44	104	0	73	21991
2026-01-08 00:12:50.76	284.82	67.03	-51.0	-66.6	3.8	1.49e+00	0	44	104	0	73	21916
2026-01-08 00:12:51.76	283.60	66.96	-51.0	-66.6	3.8	1.49e+00	0	44	104	0	73	21885
2026-01-08 00:12:52.77	282.38	66.89	-51.0	-66.6	3.8	1.49e+00	0	44	104	0	73	21859
2026-01-08 00:12:53.77	281.18	66.81	-51.0	-66.6	3.8	1.49e+00	0	44	104	0	73	21962
2026-01-08 00:12:54.78	279.98	66.72	-51.0	-66.6	3.8	1.49e+00	0	44	104	0	73	21829
2026-01-08 00:12:55.78	278.80	66.62	-50.9	-66.6	3.8	1.49e+00	0	44	104	0	73	21855
2026-01-08 00:12:56.79	277.61	66.51	-50.9	-66.6	3.8	1.49e+00	0	44	104	0	73	21804
2026-01-08 00:12:57.79	276.46	66.39	-51.0	-66.5	3.8	1.49e+00	0	44	104	0	73	21753
2026-01-08 00:12:58.80	275.30	66.27	-50.9	-66.6	3.8	1.49e+00	0	44	104	0	73	21769
2026-01-08 00:12:59.80	274.17	66.13	-50.9	-66.6	3.8	1.49e+00	0	44	104	0	73	21842
2026-01-08 00:13:00.81	273.05	65.99	-50.9	-66.6	3.8	1.49e+00	0	44	104	0	73	21800
2026-01-08 00:13:01.81	271.95	65.84	-50.9	-66.6	3.8	1.49e+00	0	44	104	0	73	21781
2026-01-08 00:13:02.81	270.86	65.68	-50.9	-66.6	3.8	1.49e+00	0	44	104	0	73	21858
2026-01-08 00:13:03.82	269.78	65.52	-50.9	-66.5	3.8	1.49e+00	0	44	104	0	73	21748
2026-01-08 00:13:04.82	268.73	65.34	-50.9	-66.5	3.8	1.49e+00	0	44	104	0	73	21747
2026-01-08 00:13:05.83	267.68	65.16	-50.9	-66.6	3.8	1.49e+00	0	44	104	0	73	21759
2026-01-08 00:13:06.83	266.66	64.97	-50.9	-66.6	3.8	1.49e+00	0	44	104	0	73	21811
2026-01-08 00:13:07.84	265.65	64.78	-50.9	-66.5	3.8	1.49e+00	0	44	104	0	73	21665
2026-01-08 00:13:08.84	264.67	64.58	-50.9	-66.5	3.8	1.49e+00	0	44	104	0	73	21688
2026-01-08 00:13:09.85	263.69	64.37	-50.9	-66.5	3.8	1.49e+00	0	44	104	0	73	21701
2026-01-08 00:13:10.85	262.74	64.16	-50.9	-66.5	3.8	1.49e+00	0	44	104	0	73	21689
2026-01-08 00:13:11.86	261.80	63.94	-50.9	-66.5	3.8	1.49e+00	0	44	104	0	73	21715
2026-01-08 00:13:12.86	260.89	63.72	-50.9	-66.5	3.8	1.49e+00	0	44	104	0	73	21748
2026-01-08 00:13:13.86	259.99	63.49	-50.9	-66.5	3.8	1.49e+00	0	44	104	0	73	21727
2026-01-08 00:13:14.87	259.10	63.26	-50.9	-66.5	3.8	1.49e+00	0	44	104	0	73	21634
2026-01-08 00:13:15.87	258.24	63.02	-50.9	-66.5	3.8	1.49e+00	0	44	104	0	73	21697
2026-01-08 00:13:16.88	257.38	62.78	-50.9	-66.5	3.8	1.49e+00	0	44	104	0	73	21663
2026-01-08 00:13:17.88	256.56	62.53	-50.9	-66.5	3.8	1.49e+00	0	44	104	0	73	21692
2026-01-08 00:13:18.89	255.74	62.28	-50.9	-66.5	3.8	1.49e+00	0	44	104	0	73	21634
2026-01-08 00:13:19.89	254.94	62.02	-50.9	-66.5	3.8	1.49e+00	0	44	104	0	73	21688
2026-01-08 00:13:20.90	254.16	61.76	-50.9	-66.5	3.8	1.49e+00	0	44	104	0	73	21748
2026-01-08 00:13:21.90	253.40	61.50	-50.9	-66.5	3.8	1.49e+00	0	44	104	0	73	21707
2026-01-08 00:13:22.90	252.65	61.24	-50.9	-66.5	3.8	1.49e+00	0	44	104	0	73	21647
2026-01-08 00:13:23.91	251.92	60.97	-50.9	-66.5	3.8	1.49e+00	0	44	104	0	73	21671
2026-01-08 00:13:24.91	251.20	60.69	-50.9	-66.6	3.8	1.49e+00	0	44	104	0	73	21775
2026-01-08 00:13:25.92	250.50	60.42	-50.9	-66.5	3.8	1.49e+00	0	44	104	0	73	21645
2026-01-08 00:13:26.92	249.81	60.14	-50.9	-66.5	3.8	1.49e+00	0	44	104	0	73	21731
2026-01-08 00:13:27.92	249.15	59.86	-50.9	-66.5	3.8	1.49e+00	0	44	104	0	73	21723
2026-01-08 00:13:28.93	248.48	59.58	-50.9	-66.5	3.8	1.49e+00	0	44	104	0	73	21619
2026-01-08 00:13:29.93	247.84	59.30	-50.9	-66.5	3.8	1.49e+00	0	44	104	0	73	21677
2026-01-08 00:13:30.94	247.21	59.01	-50.9	-66.5	3.8	1.49e+00	0	44	104	0	73	21676
2026-01-08 00:13:31.94	246.60	58.72	-50.9	-66.5	3.8	1.49e+00	0	44	104	0	73	21746
2026-01-08 00:13:32.95	245.99	58.43	-50.9	-66.5	3.8	1.49e+00	0	44	104	0	73	21733
2026-01-08 00:13:33.95	245.41	58.14	-50.9	-66.5	3.8	1.49e+00	0	44	104	0	73	21687
2026-01-08 00:13:34.96	244.83	57.85	-50.9	-66.5	3.8	1.49e+00	0	44	104	0	73	21727
2026-01-08 00:13:35.96	244.27	57.56	-50.9	-66.5	3.8	1.49e+00	0	44	104	0	73	21650
2026-01-08 00:13:36.96	243.72	57.26	-50.9	-66.5	3.8	1.49e+00	0	44	104	0	73	21654
2026-01-08 00:13:37.97	243.17	56.97	-50.9	-66.5	3.8	1.49e+00	0	44	104	0	73	21673
2026-01-08 00:13:38.97	242.65	56.67	-50.9	-66.5	3.8	1.49e+00	0	44	104	0	73	21638
2026-01-08 00:13:39.97	242.13	56.38	-50.9	-66.5	3.8	1.49e+00	0	44	104	0	73	21715
2026-01-08 00:13:40.98	241.62	56.08	-50.9	-66.5	3.8	1.49e+00	0	44	104	0	73	21727
2026-01-08 00:13:41.98	241.13	55.78	-50.9	-66.6	3.8	1.49e+00	0	44	104	0	73	21765
2026-01-08 00:13:42.99	240.64	55.48	-51.0	-66.5	3.8	1.49e+00	0	44	104	0	73	21717
2026-01-08 00:13:43.99	240.17	55.18	-50.9	-66.5	3.8	1.49e+00	0	44	104	0	73	21712
2026-01-08 00:13:45.00	239.70	54.88	-50.9	-66.6	3.8	1.49e+00	0	44	104	0	73	21811
2026-01-08 00:13:46.00	239.25	54.58	-50.9	-66.5	3.8	1.49e+00	0	44	104	0	73	21692
2026-01-08 00:13:47.01	238.80	54.28	-50.9	-66.6	3.8	1.49e+00	0	44	104	0	73	21787
2026-01-08 00:13:48.01	238.37	53.99	-50.9	-66.5	3.8	1.49e+00	0	44	104	0	73	21671
2026-01-08 00:13:49.01	237.94	53.69	-50.9	-66.6	3.8	1.49e+00	0	44	104	0	73	21833
2026-01-08 00:13:50.02	237.52	53.39	-50.9	-66.5	3.8	1.49e+00	0	44	104	0	73	21718
2026-01-08 00:13:51.02	237.12	53.09	-50.9	-66.5	3.8	1.49e+00	0	44	104	0	73	21739
2026-01-08 00:13:52.03	236.71	52.79	-50.9	-66.5	3.8	1.49e+00	0	44	104	0	73	21672
2026-01-08 00:13:53.03	236.32	52.49	-50.9	-66.5	3.8	1.49e+00	0	44	104	0	73	21755
2026-01-08 00:13:54.04	235.93	52.19	-50.9	-66.5	3.8	1.49e+00	0	44	104	0	73	21657
2026-01-08 00:13:55.04	235.56	51.90	-50.9	-66.5	3.8	1.49e+00	0	44	104	0	73	21725
2026-01-08 00:13:56.04	235.19	51.60	-50.9	-66.5	3.8	1.49e+00	0	44	104	0	73	21722
2026-01-08 00:13:57.05	234.82	51.30	-50.9	-66.6	3.8	1.49e+00	0	44	104	0	73	21779
2026-01-08 00:13:58.05	234.47	51.01	-50.9	-66.5	3.8	1.49e+00	0	44	104	0	73	21676
2026-01-08 00:13:59.06	234.12	50.71	-50.9	-66.5	3.8	1.49e+00	0	44	104	0	73	21742
2026-01-08 00:14:00.06	233.78	50.42	-50.9	-66.5	3.8	1.49e+00	0	44	104	0	73	21724
2026-01-08 00:14:01.06	233.44	50.13	-50.9	-66.5	3.8	1.49e+00	0	44	104	0	73	21735
2026-01-08 00:14:02.07	233.11	49.83	-50.9	-66.5	3.8	1.49e+00	0	44	104	0	73	21744
2026-01-08 00:14:03.07	232.79	49.54	-50.9	-66.5	3.8	1.49e+00	0	44	104	0	73	21738
2026-01-08 00:14:04.08	232.47	49.25	-50.9	-66.5	3.8	1.49e+00	0	44	104	0	73	21737
2026-01-08 00:14:05.08	232.16	48.96	-50.9	-66.5	3.8	1.49e+00	0	44	104	0	73	21705
2026-01-08 00:14:06.09	231.86	48.67	-50.9	-66.5	3.8	1.49e+00	0	44	104	0	73	21708
2026-01-08 00:14:07.09	231.56	48.39	-50.9	-66.6	3.8	1.49e+00	0	44	104	0	73	21757
2026-01-08 00:14:08.09	231.27	48.10	-51.0	-66.6	3.8	1.49e+00	0	44	104	0	73	21785
2026-01-08 00:14:09.10	230.98	47.81	-50.9	-66.6	3.8	1.49e+00	0	44	104	0	73	21806
2026-01-08 00:14:10.10	230.70	47.53	-50.9	-66.6	3.8	1.49e+00	0	44	104	0	73	21797
2026-01-08 00:14:11.11	230.42	47.25	-51.0	-66.6	3.8	1.49e+00	0	44	104	0	73	21804
2026-01-08 00:14:12.11	230.15	46.96	-51.0	-66.5	3.8	1.49e+00	0	44	104	0	73	21731
2026-01-08 00:14:13.11	229.88	46.69	-51.0	-66.5	3.8	1.49e+00	0	44	104	0	73	21734
2026-01-08 00:14:14.12	229.62	46.40	-51.0	-66.5	3.8	1.49e+00	0	44	104	0	73	21747
2026-01-08 00:14:15.12	229.36	46.13	-51.0	-66.6	3.8	1.49e+00	0	44	104	0	73	21816
2026-01-08 00:14:16.13	229.10	45.85	-51.0	-66.6	3.8	1.49e+00	0	44	104	0	73	21852
2026-01-08 00:14:17.13	228.86	45.57	-51.0	-66.6	3.8	1.49e+00	0	44	104	0	73	21849
2026-01-08 00:14:18.14	228.61	45.30	-51.0	-66.6	3.8	1.49e+00	0	44	104	0	73	22000
2026-01-08 00:14:19.14	228.37	45.02	-51.0	-66.6	3.8	1.49e+00	0	44	104	0	73	21842
2026-01-08 00:14:20.15	228.13	44.75	-51.0	-66.6	3.8	1.49e+00	0	44	104	0	73	21792
2026-01-08 00:14:21.15	227.90	44.48	-51.0	-66.6	3.8	1.49e+00	0	44	104	0	73	21925
2026-01-08 00:14:22.15	227.67	44.21	-51.0	-66.6	3.8	1.49e+00	0	44	104	0	73	21972
2026-01-08 00:14:23.16	227.45	43.94	-51.0	-66.6	3.8	1.49e+00	0	44	104	0	73	21889
2026-01-08 00:14:24.16	227.23	43.68	-51.0	-66.6	3.8	1.49e+00	0	44	104	0	73	21923
2026-01-08 00:14:25.17	227.01	43.41	-51.0	-66.6	3.8	1.49e+00	0	44	104	0	73	21871
2026-01-08 00:14:26.17	226.80	43.15	-51.0	-66.7	3.8	1.49e+00	0	44	104	0	73	22057
2026-01-08 00:14:27.18	226.59	42.88	-51.0	-66.7	3.8	1.49e+00	0	44	104	0	73	22026
2026-01-08 00:14:28.18	226.38	42.62	-51.0	-66.6	3.8	1.49e+00	0	44	104	0	73	21931
2026-01-08 00:14:29.18	226.18	42.36	-51.0	-66.7	3.8	1.49e+00	0	44	104	0	73	22011
2026-01-08 00:14:30.19	225.98	42.11	-51.0	-66.7	3.8	1.49e+00	0	44	104	0	73	22017
2026-01-08 00:14:31.19	225.78	41.85	-51.0	-66.6	3.8	1.49e+00	0	44	104	0	73	21986
2026-01-08 00:14:32.20	225.59	41.59	-51.0	-66.7	3.8	1.49e+00	0	44	104	0	73	22058
2026-01-08 00:14:33.20	225.40	41.34	-51.1	-66.7	3.8	1.49e+00	0	44	104	0	73	22047
2026-01-08 00:14:34.21	225.21	41.08	-51.1	-66.7	3.8	1.49e+00	0	44	104	0	73	22039
2026-01-08 00:14:35.21	225.02	40.83	-51.1	-66.7	3.8	1.49e+00	0	44	104	0	73	22037
2026-01-08 00:14:36.22	224.84	40.58	-51.1	-66.7	3.8	1.49e+00	0	44	104	0	73	22128
2026-01-08 00:14:37.22	224.66	40.34	-51.1	-66.7	3.8	1.49e+00	0	44	104	0	73	22109
2026-01-08 00:14:38.22	224.49	40.09	-51.1	-66.7	3.8	1.49e+00	0	44	104	0	73	22180
2026-01-08 00:14:39.23	224.31	39.84	-51.1	-66.7	3.8	1.49e+00	0	44	104	0	73	22187
2026-01-08 00:14:40.23	224.14	39.60	-51.1	-66.7	3.8	1.49e+00	0	44	104	0	73	22118
2026-01-08 00:14:41.24	223.97	39.35	-51.1	-66.7	3.8	1.49e+00	0	44	104	0	73	22155
2026-01-08 00:14:42.24	223.81	39.11	-51.1	-66.7	3.8	1.49e+00	0	44	104	0	73	22218
2026-01-08 00:14:43.24	223.65	38.87	-51.1	-66.7	3.8	1.49e+00	0	44	104	0	73	22205
2026-01-08 00:14:44.25	223.49	38.63	-51.1	-66.7	3.8	1.49e+00	0	44	104	0	73	22169
2026-01-08 00:14:45.25	223.33	38.40	-51.1	-66.7	3.8	1.49e+00	0	44	104	0	73	22159
2026-01-08 00:14:46.26	223.17	38.16	-51.1	-66.8	3.8	1.49e+00	0	44	104	0	73	22280
2026-01-08 00:14:47.26	223.02	37.93	-51.1	-66.8	3.8	1.49e+00	0	44	104	0	73	22293
2026-01-08 00:14:48.27	222.87	37.69	-51.2	-66.8	3.8	1.49e+00	0	44	104	0	73	22366
2026-01-08 00:14:49.27	222.72	37.46	-51.2	-66.7	3.8	1.49e+00	0	44	104	0	73	22238
2026-01-08 00:14:50.28	222.57	37.23	-51.2	-66.8	3.8	1.49e+00	0	44	104	0	73	22341
2026-01-08 00:14:51.28	222.42	37.00	-51.2	-66.8	3.8	1.49e+00	0	44	104	0	73	22353
2026-01-08 00:14:52.29	222.28	36.77	-51.2	-66.8	3.8	1.49e+00	0	44	104	0	73	22451
2026-01-08 00:14:53.29	222.14	36.55	-51.2	-66.8	3.8	1.49e+00	0	44	104	0	73	22404
2026-01-08 00:14:54.30	222.00	36.32	-51.2	-66.8	3.8	1.49e+00	0	44	104	0	73	22315
2026-01-08 00:14:55.30	221.86	36.10	-51.2	-66.8	3.8	1.49e+00	0	44	104	0	73	22382
2026-01-08 00:14:56.30	221.73	35.88	-51.2	-66.8	3.8	1.49e+00	0	44	104	0	73	22363
2026-01-08 00:14:57.31	221.59	35.66	-51.2	-66.8	3.8	1.49e+00	0	44	104	0	73	22399
2026-01-08 00:14:58.31	221.46	35.44	-51.2	-66.8	3.8	1.49e+00	0	44	104	0	73	22419
2026-01-08 00:14:59.32	221.33	35.22	-51.2	-66.8	3.8	1.49e+00	0	44	104	0	73	22503
2026-01-08 00:15:00.32	221.20	35.00	-51.2	-66.8	3.8	1.49e+00	0	44	104	0	73	22455
2026-01-08 00:15:01.32	221.08	34.79	-51.2	-66.8	3.8	1.49e+00	0	44	104	0	73	22454
2026-01-08 00:15:02.33	220.95	34.57	-51.2	-66.8	3.8	1.49e+00	0	44	104	0	73	22389
2026-01-08 00:15:03.33	220.83	34.36	-51.2	-66.8	3.8	1.49e+00	0	44	104	0	73	22466
2026-01-08 00:15:04.34	220.71	34.15	-51.2	-66.9	3.8	1.49e+00	0	44	104	0	73	22534
2026-01-08 00:15:05.34	220.59	33.94	-51.3	-66.9	3.8	1.49e+00	0	44	104	0	73	22560
2026-01-08 00:15:06.35	220.47	33.73	-51.3	-66.9	3.8	1.49e+00	0	44	104	0	73	22603
2026-01-08 00:15:07.35	220.35	33.52	-51.2	-66.9	3.8	1.49e+00	0	44	104	0	73	22536
2026-01-08 00:15:08.35	220.24	33.31	-51.3	-66.9	3.8	1.49e+00	0	44	104	0	73	22592
2026-01-08 00:15:09.36	220.13	33.11	-51.3	-66.9	3.8	1.49e+00	0	44	104	0	73	22631
2026-01-08 00:15:10.36	220.01	32.91	-51.3	-66.9	3.8	1.49e+00	0	44	104	0	73	22646
2026-01-08 00:15:11.37	219.90	32.70	-51.3	-66.9	3.8	1.49e+00	0	44	104	0	73	22635
2026-01-08 00:15:12.37	219.79	32.50	-51.3	-66.9	3.8	1.49e+00	0	44	104	0	73	22598
2026-01-08 00:15:13.37	219.69	32.30	-51.3	-66.9	3.8	1.49e+00	0	44	104	0	73	22646
2026-01-08 00:15:14.38	219.58	32.10	-51.3	-66.9	3.8	1.49e+00	0	44	104	0	73	22666
2026-01-08 00:15:15.38	219.47	31.90	-51.3	-66.9	3.8	1.49e+00	0	44	104	0	73	22667
2026-01-08 00:15:16.39	219.37	31.71	-51.3	-66.9	3.8	1.49e+00	0	44	104	0	73	22638
2026-01-08 00:15:17.39	219.27	31.51	-51.3	-66.9	3.8	1.49e+00	0	44	104	0	73	22724
2026-01-08 00:15:18.40	219.16	31.32	-51.3	-66.9	3.8	1.49e+00	0	44	104	0	73	22725
2026-01-08 00:15:19.40	219.06	31.12	-51.3	-66.9	3.8	1.49e+00	0	44	104	0	73	22746
2026-01-08 00:15:20.40	218.97	30.93	-51.3	-66.9	3.8	1.49e+00	0	44	104	0	73	22729
2026-01-08 00:15:21.41	218.87	30.74	-51.3	-66.9	3.8	1.49e+00	0	44	104	0	73	22715
2026-01-08 00:15:22.41	218.77	30.55	-51.3	-66.9	3.8	1.49e+00	0	44	104	0	73	22701
2026-01-08 00:15:23.42	218.67	30.36	-51.3	-66.9	3.8	1.49e+00	0	44	104	0	73	22755
2026-01-08 00:15:24.42	218.58	30.18	-51.3	-66.9	3.8	1.49e+00	0	44	104	0	73	22759
2026-01-08 00:15:25.42	218.49	29.99	-51.3	-67.0	3.8	1.49e+00	0	44	104	0	73	22783
2026-01-08 00:15:26.43	218.40	29.80	-51.3	-67.0	3.8	1.49e+00	0	44	104	0	73	22811
2026-01-08 00:15:27.43	218.30	29.62	-51.4	-66.9	3.8	1.49e+00	0	44	104	0	73	22778
2026-01-08 00:15:28.44	218.21	29.44	-51.3	-66.9	3.8	1.49e+00	0	44	104	0	73	22773
2026-01-08 00:15:29.44	218.13	29.26	-51.3	-67.0	3.8	1.49e+00	0	44	104	0	73	22838
2026-01-08 00:15:30.45	218.04	29.07	-51.4	-66.9	3.8	1.49e+00	0	44	104	0	73	22731
2026-01-08 00:15:31.45	217.95	28.90	-51.4	-67.0	3.8	1.49e+00	0	44	104	0	73	22844
2026-01-08 00:15:32.46	217.86	28.72	-51.4	-67.0	3.8	1.49e+00	0	44	104	0	73	22818
2026-01-08 00:15:33.46	217.78	28.54	-51.4	-67.0	3.8	1.49e+00	0	44	104	0	73	22876
2026-01-08 00:15:34.46	217.70	28.36	-51.4	-67.0	3.8	1.49e+00	0	44	104	0	73	22844
2026-01-08 00:15:35.46	217.61	28.19	-51.4	-67.0	3.8	1.49e+00	0	44	104	0	73	22885
2026-01-08 00:15:36.47	217.53	28.01	-51.4	-67.0	3.8	1.49e+00	0	44	104	0	73	22853
2026-01-08 00:15:37.47	217.45	27.84	-51.4	-67.0	3.8	1.49e+00	0	44	104	0	73	22897
2026-01-08 00:15:38.48	217.37	27.67	-51.4	-67.0	3.8	1.49e+00	0	44	104	0	73	22944
2026-01-08 00:15:39.48	217.29	27.50	-51.4	-67.0	3.8	1.49e+00	0	44	104	0	73	22909
2026-01-08 00:15:40.49	217.21	27.33	-51.4	-67.0	3.8	1.49e+00	0	44	104	0	73	22899
2026-01-08 00:15:41.49	217.13	27.16	-51.4	-67.0	3.8	1.49e+00	0	44	104	0	73	22858
2026-01-08 00:15:42.50	217.05	26.99	-51.4	-67.0	3.8	1.49e+00	0	44	104	0	73	22902
2026-01-08 00:15:43.50	216.98	26.82	-51.4	-67.0	3.8	1.49e+00	0	44	104	0	73	22882
2026-01-08 00:15:44.50	216.90	26.65	-51.4	-67.1	3.8	1.49e+00	0	44	104	0	73	23069
2026-01-08 00:15:45.51	216.83	26.49	-51.4	-67.0	3.8	1.49e+00	0	44	104	0	73	22843
2026-01-08 00:15:46.51	216.76	26.32	-51.4	-67.0	3.8	1.49e+00	0	44	104	0	73	22923
2026-01-08 00:15:47.52	216.68	26.16	-51.4	-67.0	3.8	1.49e+00	0	44	104	0	73	22818
2026-01-08 00:15:48.52	216.61	26.00	-51.4	-67.0	3.8	1.49e+00	0	44	104	0	73	22964
2026-01-08 00:15:49.52	216.54	25.84	-51.4	-67.0	3.8	1.49e+00	0	44	104	0	73	22918
2026-01-08 00:15:50.53	216.47	25.68	-51.4	-67.0	3.8	1.49e+00	0	44	104	0	73	22968
2026-01-08 00:15:51.53	216.40	25.52	-51.4	-67.0	3.8	1.49e+00	0	44	104	0	73	22950
2026-01-08 00:15:52.53	216.33	25.36	-51.4	-67.0	3.8	1.49e+00	0	44	104	0	73	22979
2026-01-08 00:15:53.54	216.26	25.20	-51.4	-67.0	3.8	1.49e+00	0	44	104	0	73	23004
2026-01-08 00:15:54.54	216.19	25.04	-51.4	-67.0	3.8	1.49e+00	0	44	104	0	73	22884
2026-01-08 00:15:55.55	216.13	24.89	-51.4	-67.0	3.8	1.49e+00	0	44	104	0	73	22952
2026-01-08 00:15:56.55	216.06	24.73	-51.4	-67.0	3.8	1.49e+00	0	44	104	0	73	22950
2026-01-08 00:15:57.56	215.99	24.58	-51.4	-67.0	3.8	1.49e+00	0	44	104	0	73	22978
2026-01-08 00:15:58.56	215.93	24.42	-51.4	-67.0	3.8	1.49e+00	0	44	104	0	73	22938
2026-01-08 00:15:59.57	215.87	24.27	-51.4	-67.0	3.8	1.49e+00	0	44	104	0	73	23030
2026-01-08 00:16:00.57	215.80	24.12	-51.4	-67.0	3.8	1.49e+00	0	44	104	0	73	22921
2026-01-08 00:16:01.57	215.74	23.97	-51.4	-67.1	3.8	1.49e+00	0	44	104	0	73	23066
2026-01-08 00:16:02.58	215.68	23.82	-51.4	-67.0	3.8	1.49e+00	0	44	104	0	73	23039
2026-01-08 00:16:03.58	215.61	23.67	-51.4	-67.0	3.8	1.49e+00	0	44	104	0	73	22968
2026-01-08 00:16:04.59	215.55	23.52	-51.4	-67.0	3.8	1.49e+00	0	44	104	0	73	23000
2026-01-08 00:16:05.59	215.49	23.37	-51.4	-67.1	3.8	1.49e+00	0	44	104	0	73	23048
2026-01-08 00:16:06.60	215.43	23.22	-51.4	-67.1	3.8	1.49e+00	0	44	104	0	73	23102
2026-01-08 00:16:07.60	215.37	23.08	-51.4	-67.0	3.8	1.49e+00	0	44	104	0	73	22996
2026-01-08 00:16:08.61	215.31	22.93	-51.4	-67.0	3.8	1.49e+00	0	44	104	0	73	23037
2026-01-08 00:16:09.61	215.26	22.79	-51.5	-67.1	3.8	1.49e+00	0	44	104	0	73	23054
2026-01-08 00:16:10.61	215.20	22.64	-51.4	-67.0	3.8	1.49e+00	0	44	104	0	73	23034
2026-01-08 00:16:11.62	215.14	22.50	-51.4	-67.1	3.8	1.49e+00	0	44	104	0	73	23071
2026-01-08 00:16:12.62	215.08	22.36	-51.5	-67.1	3.8	1.49e+00	0	44	104	0	73	23103
2026-01-08 00:16:13.63	215.03	22.22	-51.5	-67.0	3.8	1.49e+00	0	44	104	0	73	23027
2026-01-08 00:16:14.63	214.97	22.08	-51.5	-67.1	3.8	1.49e+00	0	44	104	0	73	23076
2026-01-08 00:16:15.64	214.92	21.93	-51.5	-67.1	3.8	1.49e+00	0	44	104	0	73	23075
2026-01-08 00:16:16.64	214.86	21.80	-51.5	-67.0	3.8	1.49e+00	0	44	104	0	73	23032
2026-01-08 00:16:17.64	214.81	21.66	-51.5	-67.0	3.8	1.49e+00	0	44	104	0	73	23011
2026-01-08 00:16:18.65	214.76	21.52	-51.5	-67.1	3.8	1.49e+00	0	44	104	0	73	23068
2026-01-08 00:16:19.65	214.70	21.38	-51.4	-67.0	3.8	1.49e+00	0	44	104	0	73	22998
2026-01-08 00:16:20.66	214.65	21.25	-51.4	-67.1	3.8	1.49e+00	0	44	104	0	73	23118
2026-01-08 00:16:21.66	214.60	21.11	-51.5	-67.1	3.8	1.49e+00	0	44	104	0	73	23084
2026-01-08 00:16:22.67	214.55	20.97	-51.5	-67.1	3.8	1.49e+00	0	44	104	0	73	23109
2026-01-08 00:16:23.67	214.50	20.84	-51.5	-67.0	3.8	1.49e+00	0	44	104	0	73	23031
2026-01-08 00:16:24.68	214.44	20.71	-51.5	-67.1	3.8	1.49e+00	0	44	104	0	73	23050
2026-01-08 00:16:25.68	214.39	20.57	-51.5	-67.1	3.8	1.49e+00	0	44	104	0	73	23100
2026-01-08 00:16:26.68	214.35	20.44	-51.5	-67.1	3.8	1.49e+00	0	44	104	0	73	23093
2026-01-08 00:16:27.69	214.30	20.31	-51.5	-67.1	3.8	1.49e+00	0	44	104	0	73	23097
2026-01-08 00:16:28.69	214.25	20.18	-51.5	-67.1	3.8	1.49e+00	0	44	104	0	73	23066
2026-01-08 00:16:29.70	214.20	20.05	-51.5	-67.1	3.8	1.49e+00	0	44	104	0	73	23063
2026-01-08 00:16:30.70	214.15	19.92	-51.5	-67.1	3.8	1.49e+00	0	44	104	0	73	23087
2026-01-08 00:16:31.70	214.10	19.79	-51.5	-67.0	3.8	1.49e+00	0	44	104	0	73	23016
2026-01-08 00:16:32.71	214.06	19.66	-51.4	-67.1	3.8	1.49e+00	0	44	104	0	73	23045
2026-01-08 00:16:33.71	214.01	19.53	-51.5	-67.0	3.8	1.49e+00	0	44	104	0	73	23033
2026-01-08 00:16:34.72	213.96	19.41	-51.5	-67.1	3.8	1.49e+00	0	44	104	0	73	23126
2026-01-08 00:16:35.72	213.92	19.28	-51.4	-67.1	3.8	1.49e+00	0	44	104	0	73	23049
2026-01-08 00:16:36.73	213.87	19.15	-51.4	-67.1	3.8	1.49e+00	0	44	104	0	73	23061
2026-01-08 00:16:37.73	213.83	19.03	-51.4	-67.1	3.8	1.49e+00	0	44	104	0	73	23048
2026-01-08 00:16:38.74	213.78	18.90	-51.4	-67.1	3.8	1.49e+00	0	44	104	0	73	23049
2026-01-08 00:16:39.74	213.74	18.78	-51.4	-67.0	3.8	1.49e+00	0	44	104	0	73	23002
2026-01-08 00:16:40.74	213.69	18.66	-51.4	-67.0	3.8	1.49e+00	0	44	104	0	73	23036
2026-01-08 00:16:41.75	213.65	18.53	-51.4	-67.0	3.8	1.49e+00	0	44	104	0	73	23032
2026-01-08 00:16:42.75	213.61	18.41	-51.4	-67.0	3.8	1.49e+00	0	44	104	0	73	23044
2026-01-08 00:16:43.76	213.56	18.29	-51.4	-67.0	3.8	1.49e+00	0	44	104	0	73	23033
2026-01-08 00:16:44.76	213.52	18.17	-51.4	-67.0	3.8	1.49e+00	0	44	104	0	73	23017
2026-01-08 00:16:45.77	213.48	18.05	-51.4	-67.0	3.8	1.49e+00	0	44	104	0	73	22952
2026-01-08 00:16:46.77	213.44	17.93	-51.4	-67.1	3.8	1.49e+00	0	44	104	0	73	23078
2026-01-08 00:16:47.77	213.40	17.81	-51.4	-67.0	3.8	1.49e+00	0	44	104	0	73	22994
2026-01-08 00:16:48.78	213.36	17.69	-51.4	-67.0	3.8	1.49e+00	0	44	104	0	73	23009
2026-01-08 00:16:49.78	213.31	17.57	-51.4	-67.0	3.8	1.49e+00	0	44	104	0	73	23009
2026-01-08 00:16:50.79	213.27	17.45	-51.4	-67.0	3.8	1.49e+00	0	44	104	0	73	22987
2026-01-08 00:16:51.79	213.23	17.34	-51.4	-67.0	3.8	1.49e+00	0	44	104	0	73	22994
2026-01-08 00:16:52.79	213.19	17.22	-51.4	-67.0	3.8	1.49e+00	0	44	104	0	73	22941
2026-01-08 00:16:53.80	213.15	17.11	-51.4	-67.0	3.8	1.49e+00	0	44	104	0	73	22986
2026-01-08 00:16:54.79	213.12	16.99	-51.4	-67.0	3.8	1.49e+00	0	44	104	0	73	23002
2026-01-08 00:16:55.79	213.08	16.88	-51.4	-67.0	3.8	1.49e+00	0	44	104	0	73	23006
2026-01-08 00:16:56.80	213.04	16.76	-51.4	-67.0	3.8	1.49e+00	0	44	104	0	73	23005
2026-01-08 00:16:57.80	213.00	16.65	-51.4	-67.0	3.8	1.49e+00	0	44	104	0	73	22985
2026-01-08 00:16:58.80	212.96	16.54	-51.4	-67.0	3.8	1.49e+00	0	44	104	0	73	23008
2026-01-08 00:16:59.81	212.93	16.42	-51.4	-67.0	3.8	1.49e+00	0	44	104	0	73	23004
2026-01-08 00:17:00.82	212.89	16.31	-51.4	-67.0	3.8	1.49e+00	0	44	104	0	73	23013
2026-01-08 00:17:01.82	212.85	16.20	-51.4	-67.1	3.8	1.49e+00	0	44	104	0	73	23060
2026-01-08 00:17:02.82	212.82	16.09	-51.5	-67.1	3.8	1.49e+00	0	44	104	0	73	23057
2026-01-08 00:17:03.83	212.78	15.98	-51.4	-67.0	3.8	1.49e+00	0	44	104	0	73	22992
2026-01-08 00:17:04.83	212.74	15.87	-51.4	-67.0	3.8	1.49e+00	0	44	104	0	73	23018
2026-01-08 00:17:05.84	212.71	15.75	-51.4	-67.0	3.8	1.49e+00	0	44	104	0	73	22996
2026-01-08 00:17:06.84	212.67	15.65	-51.4	-67.0	3.8	1.49e+00	0	44	104	0	73	22991
2026-01-08 00:17:07.85	212.64	15.54	-51.4	-67.1	3.8	1.49e+00	0	44	104	0	73	23055
2026-01-08 00:17:08.85	212.60	15.43	-51.4	-67.0	3.8	1.49e+00	0	44	104	0	73	23006
2026-01-08 00:17:09.86	212.57	15.32	-51.4	-67.0	3.8	1.49e+00	0	44	104	0	73	22959
2026-01-08 00:17:10.86	212.53	15.21	-51.4	-67.0	3.8	1.49e+00	0	44	104	0	73	23030
2026-01-08 00:17:11.87	212.50	15.10	-51.4	-67.0	3.8	1.49e+00	0	44	104	0	73	23039
2026-01-08 00:17:12.87	212.46	15.00	-51.4	-67.1	3.8	1.49e+00	0	44	104	0	73	23115
2026-01-08 00:17:13.87	212.43	14.89	-51.4	-67.1	3.8	1.49e+00	0	44	104	0	73	23059
2026-01-08 00:17:14.88	212.40	14.79	-51.4	-67.0	3.8	1.49e+00	0	44	104	0	73	23034
2026-01-08 00:17:15.88	212.36	14.68	-51.4	-67.0	3.8	1.49e+00	0	44	104	0	73	23027
2026-01-08 00:17:16.89	212.33	14.58	-51.4	-67.0	3.8	1.49e+00	0	44	104	0	73	23033
2026-01-08 00:17:17.89	212.30	14.47	-51.4	-67.0	3.8	1.49e+00	0	44	104	0	73	22965
2026-01-08 00:17:18.90	212.27	14.37	-51.5	-67.0	3.8	1.49e+00	0	44	104	0	73	23037
2026-01-08 00:17:19.90	212.23	14.26	-51.5	-67.0	3.8	1.49e+00	0	44	104	0	73	23007
2026-01-08 00:17:20.91	212.20	14.16	-51.4	-67.0	3.8	1.49e+00	0	44	104	0	73	23034
2026-01-08 00:17:21.91	212.17	14.06	-51.5	-67.1	3.8	1.49e+00	0	44	104	0	73	23063
2026-01-08 00:17:22.92	212.14	13.96	-51.5	-67.0	3.8	1.49e+00	0	44	104	0	73	22904
2026-01-08 00:17:23.92	212.11	13.85	-51.5	-67.0	3.8	1.49e+00	0	44	104	0	73	23006
2026-01-08 00:17:24.93	212.08	13.75	-51.5	-67.0	3.8	1.49e+00	0	44	104	0	73	23031
2026-01-08 00:17:25.93	212.05	13.65	-51.5	-67.1	3.8	1.49e+00	0	44	104	0	73	23068
2026-01-08 00:17:26.93	212.02	13.55	-51.4	-67.0	3.8	1.49e+00	0	44	104	0	73	23039
2026-01-08 00:17:27.94	211.99	13.45	-51.4	-67.0	3.8	1.49e+00	0	44	104	0	73	22979
2026-01-08 00:17:28.94	211.96	13.35	-51.5	-67.0	3.8	1.49e+00	0	44	104	0	73	23034
2026-01-08 00:17:29.95	211.93	13.25	-51.4	-67.0	3.8	1.49e+00	0	44	104	0	73	23022
2026-01-08 00:17:30.95	211.90	13.15	-51.4	-67.0	3.8	1.49e+00	0	44	104	0	73	22949
2026-01-08 00:17:31.96	211.87	13.05	-51.5	-67.0	3.8	1.49e+00	0	44	104	0	73	23043
2026-01-08 00:17:32.96	211.84	12.96	-51.4	-67.1	3.8	1.49e+00	0	44	104	0	73	23063
2026-01-08 00:17:33.97	211.81	12.86	-51.4	-67.1	3.8	1.49e+00	0	44	104	0	73	23071
2026-01-08 00:17:34.97	211.78	12.76	-51.5	-67.1	3.8	1.49e+00	0	44	104	0	73	23110
2026-01-08 00:17:35.97	211.75	12.66	-51.5	-67.1	3.8	1.49e+00	0	44	104	0	73	23109
2026-01-08 00:17:36.98	211.72	12.57	-51.4	-67.1	3.8	1.49e+00	0	44	104	0	73	23058
2026-01-08 00:17:37.98	211.69	12.47	-51.5	-67.1	3.8	1.49e+00	0	44	104	0	73	23047
2026-01-08 00:17:38.99	211.67	12.38	-51.5	-67.1	3.8	1.49e+00	0	44	104	0	73	23083
2026-01-08 00:17:39.99	211.64	12.28	-51.5	-67.1	3.8	1.49e+00	0	44	104	0	73	23105
2026-01-08 00:17:40.99	211.61	12.19	-51.5	-67.1	3.8	1.49e+00	0	44	104	0	73	23093
2026-01-08 00:17:42.00	211.58	12.09	-51.4	-67.1	3.8	1.49e+00	0	44	104	0	73	23057
2026-01-08 00:17:43.00	211.56	12.00	-51.5	-67.1	3.8	1.49e+00	0	44	104	0	73	23096
2026-01-08 00:17:44.00	211.53	11.90	-51.5	-67.1	3.8	1.49e+00	0	44	104	0	73	23137
2026-01-08 00:17:45.01	211.50	11.81	-51.5	-67.1	3.8	1.49e+00	0	44	104	0	73	23107
2026-01-08 00:17:46.02	211.48	11.71	-51.5	-67.1	3.8	1.49e+00	0	44	104	0	73	23084
2026-01-08 00:17:47.02	211.45	11.62	-51.5	-67.1	3.8	1.49e+00	0	44	104	0	73	23063
2026-01-08 00:17:48.02	211.42	11.53	-51.5	-67.1	3.8	1.49e+00	0	44	104	0	73	23268
2026-01-08 00:17:49.03	211.40	11.44	-51.5	-67.1	3.8	1.49e+00	0	44	104	0	73	23109
2026-01-08 00:17:50.03	211.37	11.34	-51.5	-67.1	3.8	1.49e+00	0	44	104	0	73	23170
2026-01-08 00:17:51.04	211.35	11.25	-51.5	-67.1	3.8	1.49e+00	0	44	104	0	73	23112
2026-01-08 00:17:52.04	211.32	11.16	-51.5	-67.1	3.8	1.49e+00	0	44	104	0	73	23127
2026-01-08 00:17:53.04	211.29	11.07	-51.5	-67.1	3.8	1.49e+00	0	44	104	0	73	23138
2026-01-08 00:17:54.05	211.27	10.98	-51.5	-67.1	3.8	1.49e+00	0	44	104	0	73	23213
2026-01-08 00:17:55.05	211.24	10.89	-51.5	-67.1	3.8	1.49e+00	0	44	104	0	73	23214
2026-01-08 00:17:56.06	211.22	10.80	-51.5	-67.1	3.8	1.49e+00	0	44	104	0	73	23140
2026-01-08 00:17:57.06	211.20	10.71	-51.5	-67.1	3.8	1.49e+00	0	44	104	0	73	23136
2026-01-08 00:17:58.07	211.17	10.62	-51.5	-67.1	3.8	1.49e+00	0	44	104	0	73	23191
2026-01-08 00:17:59.07	211.15	10.53	-51.5	-67.1	3.8	1.49e+00	0	44	104	0	73	23157
2026-01-08 00:18:00.07	211.12	10.44	-51.5	-67.1	3.8	1.49e+00	0	44	104	0	73	23189
2026-01-08 00:18:01.08	211.10	10.35	-51.5	-67.1	3.8	1.49e+00	0	44	104	0	73	23192
2026-01-08 00:18:02.08	211.07	10.27	-51.5	-67.1	3.8	1.49e+00	0	44	104	0	73	23165
2026-01-08 00:18:03.09	211.05	10.18	-51.5	-67.2	3.8	1.49e+00	0	44	104	0	73	23332
2026-01-08 00:18:04.09	211.03	10.09	-51.5	-67.1	3.8	1.49e+00	0	44	104	0	73	23197
2026-01-08 00:18:05.10	211.00	10.00	-51.5	-67.1	3.8	1.49e+00	0	44	104	0	73	23254
2026-01-08 00:18:06.10	210.98	9.92	-51.5	-67.1	3.8	1.49e+00	0	44	104	0	73	23203
2026-01-08 00:18:07.11	210.96	9.83	-51.5	-67.1	3.8	1.49e+00	0	44	104	0	73	23263
2026-01-08 00:18:08.11	210.93	9.74	-51.5	-67.1	3.8	1.49e+00	0	44	104	0	73	23284
2026-01-08 00:18:09.12	210.91	9.66	-51.5	-67.1	3.8	1.49e+00	0	44	104	0	73	23283
2026-01-08 00:18:10.12	210.89	9.57	-51.5	-67.1	3.8	1.49e+00	0	44	104	0	73	23288
2026-01-08 00:18:11.12	210.87	9.49	-51.5	-67.1	3.8	1.49e+00	0	44	104	0	73	23222
2026-01-08 00:18:12.13	210.84	9.40	-51.5	-67.1	3.8	1.49e+00	0	44	104	0	73	23191
2026-01-08 00:18:13.13	210.82	9.32	-51.5	-67.1	3.8	1.49e+00	0	44	104	0	73	23227
2026-01-08 00:18:14.14	210.80	9.23	-51.6	-67.2	3.8	1.49e+00	0	44	104	0	73	23319
2026-01-08 00:18:15.14	210.78	9.15	-51.5	-67.2	3.8	1.49e+00	0	44	104	0	73	23331
2026-01-08 00:18:16.15	210.76	9.06	-51.6	-67.1	3.8	1.49e+00	0	44	104	0	73	23261
2026-01-08 00:18:17.15	210.73	8.98	-51.6	-67.2	3.8	1.49e+00	0	44	104	0	73	23398
2026-01-08 00:18:18.16	210.71	8.90	-51.5	-67.1	3.8	1.49e+00	0	44	104	0	73	23284
2026-01-08 00:18:19.16	210.69	8.81	-51.6	-67.2	3.8	1.49e+00	0	44	104	0	73	23347
2026-01-08 00:18:20.16	210.67	8.73	-51.6	-67.2	3.8	1.49e+00	0	44	104	0	73	23369
2026-01-08 00:18:21.17	210.65	8.65	-51.6	-67.2	3.8	1.49e+00	0	44	104	0	73	23320
2026-01-08 00:18:22.17	210.63	8.57	-51.6	-67.2	3.8	1.49e+00	0	44	104	0	73	23410
2026-01-08 00:18:23.17	210.61	8.48	-51.6	-67.2	3.8	1.49e+00	0	44	104	0	73	23359
2026-01-08 00:18:24.18	210.59	8.40	-51.6	-67.2	3.8	1.49e+00	0	44	104	0	73	23384
2026-01-08 00:18:25.19	210.57	8.32	-51.6	-67.2	3.8	1.49e+00	0	44	104	0	73	23372
2026-01-08 00:18:26.19	210.55	8.24	-51.6	-67.2	3.8	1.49e+00	0	44	104	0	73	23443
2026-01-08 00:18:27.19	210.53	8.16	-51.6	-67.2	3.8	1.49e+00	0	44	104	0	73	23319
2026-01-08 00:18:28.20	210.51	8.08	-51.6	-67.2	3.8	1.49e+00	0	44	104	0	73	23445
2026-01-08 00:18:29.20	210.49	8.00	-51.6	-67.2	3.8	1.49e+00	0	44	104	0	73	23421
2026-01-08 00:18:30.20	210.47	7.92	-51.6	-67.2	3.8	1.49e+00	0	44	104	0	73	23364
2026-01-08 00:18:31.21	210.45	7.84	-51.6	-67.2	3.8	1.49e+00	0	44	104	0	73	23465
2026-01-08 00:18:32.21	210.43	7.76	-51.6	-67.2	3.8	1.49e+00	0	44	104	0	73	23563
2026-01-08 00:18:33.22	210.41	7.68	-51.7	-67.2	3.8	1.49e+00	0	44	104	0	73	23483
2026-01-08 00:18:34.22	210.39	7.60	-51.6	-67.2	3.8	1.49e+00	0	44	104	0	73	23473
2026-01-08 00:18:35.23	210.37	7.52	-51.7	-67.3	3.8	1.49e+00	0	44	104	0	73	23668
2026-01-08 00:18:36.23	210.35	7.44	-51.7	-67.2	3.8	1.49e+00	0	44	104	0	73	23552
2026-01-08 00:18:37.23	210.33	7.36	-51.6	-67.2	3.8	1.49e+00	0	44	104	0	73	23544
2026-01-08 00:18:38.24	210.31	7.28	-51.7	-67.3	3.8	1.49e+00	0	44	104	0	73	23598
2026-01-08 00:18:39.24	210.29	7.21	-51.7	-67.3	3.8	1.49e+00	0	44	104	0	73	23592
2026-01-08 00:18:40.25	210.27	7.13	-51.7	-67.3	3.8	1.49e+00	0	44	104	0	74	22385
2026-01-08 00:18:41.25	210.25	7.05	-51.7	-67.3	3.8	1.49e+00	0	44	104	0	74	22331
2026-01-08 00:18:42.25	210.24	6.97	-51.7	-67.3	3.8	1.49e+00	0	44	104	0	74	22371
