passes_logs/2026/01/08/T1/T1__20260108_002707_NOAA_20_JPSS-1_rec.log

#Pass ID: 20260108_002707_NOAA 20 (JPSS-1)
#Satellite: NOAA 20 (JPSS-1)
#Configuration: NOAA 20
#almurnet v.1.7.20251203
#Start time: 2026-01-08 00:27:08

#Version: 2.0.20230620
#Station: T1
#Location: 37.570604 lon 55.790049 lat
#TLE: 1 43013U 17073A   26006.30790171  .00000126  00000+0  80695-4 0  9991
#TLE: 2 43013  98.7629 307.3394 0001808  51.8724 308.2615 14.19533762421505

#Time	Az	El	Level	Level2	SNR	BER	BlckErr	Temp	State	Recorded	gain1	gain2
2026-01-08 00:27:08.45	11.61	5.09	-50.7	-66.4	3.8	1.49e+00	0	41	0	0	72	22550
2026-01-08 00:27:09.45	11.58	5.16	-50.7	-66.3	3.8	1.49e+00	0	41	104	0	73	21216
2026-01-08 00:27:10.45	11.54	5.23	-50.7	-66.3	3.8	1.49e+00	0	41	104	0	73	21203
2026-01-08 00:27:11.46	11.50	5.30	-50.7	-66.3	3.8	1.49e+00	0	41	104	0	73	21177
2026-01-08 00:27:12.46	11.46	5.37	-50.7	-66.3	3.8	1.49e+00	0	41	104	0	73	21208
2026-01-08 00:27:13.47	11.43	5.44	-50.7	-66.4	3.8	1.49e+00	0	41	104	0	73	21284
2026-01-08 00:27:14.47	11.39	5.51	-50.7	-66.4	3.8	1.49e+00	0	41	104	0	73	21262
2026-01-08 00:27:15.48	11.35	5.58	-50.7	-66.3	3.8	1.49e+00	0	42	104	0	73	21150
2026-01-08 00:27:16.48	11.31	5.65	-50.7	-66.3	3.8	1.49e+00	0	41	104	0	73	21214
2026-01-08 00:27:17.49	11.28	5.72	-50.7	-66.3	3.8	1.49e+00	0	41	104	0	73	21222
2026-01-08 00:27:18.49	11.24	5.79	-50.7	-66.3	3.8	1.49e+00	0	42	104	0	73	21187
2026-01-08 00:27:19.50	11.20	5.87	-50.7	-66.3	3.8	1.49e+00	0	42	104	0	73	21211
2026-01-08 00:27:20.50	11.16	5.94	-50.7	-66.3	3.8	1.49e+00	0	42	104	0	73	21116
2026-01-08 00:27:21.50	11.12	6.01	-50.6	-66.3	3.8	1.49e+00	0	42	104	0	73	21194
2026-01-08 00:27:22.51	11.08	6.08	-50.7	-66.3	3.8	1.49e+00	0	42	104	0	73	21118
2026-01-08 00:27:23.51	11.04	6.15	-50.7	-66.3	3.8	1.49e+00	0	42	104	0	73	21037
2026-01-08 00:27:24.51	11.00	6.23	-50.6	-66.3	3.8	1.49e+00	0	42	104	0	73	21098
2026-01-08 00:27:25.52	10.96	6.30	-50.6	-66.3	3.8	1.49e+00	0	42	104	0	73	21063
2026-01-08 00:27:26.53	10.92	6.37	-50.7	-66.3	3.8	1.49e+00	0	42	104	0	73	21118
2026-01-08 00:27:27.53	10.88	6.44	-50.6	-66.3	3.8	1.49e+00	0	42	104	0	73	21170
2026-01-08 00:27:28.53	10.84	6.52	-50.6	-66.3	3.8	1.49e+00	0	42	104	0	73	21143
2026-01-08 00:27:29.54	10.80	6.59	-50.6	-66.3	3.8	1.49e+00	0	42	104	0	73	21095
2026-01-08 00:27:30.54	10.76	6.66	-50.6	-66.2	3.8	1.49e+00	0	42	104	0	73	20963
2026-01-08 00:27:31.55	10.72	6.74	-50.6	-66.3	3.8	1.49e+00	0	42	104	0	73	21085
2026-01-08 00:27:32.55	10.68	6.81	-50.6	-66.3	3.8	1.49e+00	0	42	104	0	73	21124
2026-01-08 00:27:33.56	10.63	6.89	-50.6	-66.3	3.8	1.49e+00	0	42	104	0	73	21100
2026-01-08 00:27:34.56	10.59	6.96	-50.6	-66.3	3.8	1.49e+00	0	42	104	0	73	21076
2026-01-08 00:27:35.57	10.55	7.03	-50.6	-66.3	3.8	1.49e+00	0	42	104	0	73	21101
2026-01-08 00:27:36.57	10.51	7.11	-50.6	-66.3	3.8	1.49e+00	0	42	104	0	73	21026
2026-01-08 00:27:37.57	10.46	7.18	-50.6	-66.3	3.8	1.49e+00	0	42	104	0	73	21034
2026-01-08 00:27:38.58	10.42	7.26	-50.6	-66.2	3.8	1.49e+00	0	42	104	0	73	20983
2026-01-08 00:27:39.58	10.38	7.33	-50.6	-66.3	3.8	1.49e+00	0	42	104	0	73	21042
2026-01-08 00:27:40.59	10.33	7.41	-50.6	-66.2	3.8	1.49e+00	0	42	104	0	73	20950
2026-01-08 00:27:41.59	10.29	7.48	-50.6	-66.3	3.8	1.49e+00	0	42	104	0	73	21026
2026-01-08 00:27:42.59	10.25	7.56	-50.6	-66.3	3.8	1.49e+00	0	43	104	0	73	21073
2026-01-08 00:27:43.60	10.20	7.64	-50.6	-66.3	3.8	1.49e+00	0	43	104	0	73	21082
2026-01-08 00:27:44.60	10.16	7.71	-50.6	-66.2	3.8	1.49e+00	0	43	104	0	73	21017
2026-01-08 00:27:45.61	10.11	7.79	-50.6	-66.2	3.8	1.49e+00	0	42	104	0	73	21002
2026-01-08 00:27:46.61	10.07	7.87	-50.6	-66.2	3.8	1.49e+00	0	42	104	0	73	20959
2026-01-08 00:27:47.62	10.02	7.94	-50.6	-66.2	3.8	1.49e+00	0	43	104	0	73	20995
2026-01-08 00:27:48.62	9.98	8.02	-50.6	-66.3	3.8	1.49e+00	0	43	104	0	73	21041
2026-01-08 00:27:49.63	9.93	8.10	-50.6	-66.2	3.8	1.49e+00	0	43	104	0	73	20985
2026-01-08 00:27:50.63	9.89	8.18	-50.6	-66.2	3.8	1.49e+00	0	43	104	0	73	20958
2026-01-08 00:27:51.63	9.84	8.25	-50.6	-66.2	3.8	1.49e+00	0	43	104	0	73	20991
2026-01-08 00:27:52.64	9.79	8.33	-50.6	-66.2	3.8	1.49e+00	0	43	104	0	73	21003
2026-01-08 00:27:53.64	9.75	8.41	-50.6	-66.2	3.8	1.49e+00	0	43	104	0	73	20927
2026-01-08 00:27:54.65	9.70	8.49	-50.6	-66.2	3.8	1.49e+00	0	43	104	0	73	20988
2026-01-08 00:27:55.65	9.65	8.57	-50.6	-66.2	3.8	1.49e+00	0	43	104	0	73	20976
2026-01-08 00:27:56.66	9.60	8.65	-50.6	-66.2	3.8	1.49e+00	0	43	104	0	73	20954
2026-01-08 00:27:57.66	9.56	8.72	-50.6	-66.2	3.8	1.49e+00	0	43	104	0	73	20925
2026-01-08 00:27:58.66	9.51	8.80	-50.6	-66.2	3.8	1.49e+00	0	43	104	0	73	20980
2026-01-08 00:27:59.67	9.46	8.88	-50.6	-66.2	3.8	1.49e+00	0	43	104	0	73	20964
2026-01-08 00:28:00.67	9.41	8.96	-50.6	-66.2	3.8	1.49e+00	0	43	104	0	73	20953
2026-01-08 00:28:01.68	9.36	9.04	-50.6	-66.2	3.8	1.49e+00	0	43	104	0	73	20936
2026-01-08 00:28:02.68	9.31	9.12	-50.6	-66.2	3.8	1.49e+00	0	43	104	0	73	20982
2026-01-08 00:28:03.68	9.26	9.20	-50.6	-66.2	3.8	1.49e+00	0	43	104	0	73	20999
2026-01-08 00:28:04.69	9.21	9.29	-50.6	-66.2	3.8	1.49e+00	0	43	104	0	73	21006
2026-01-08 00:28:05.69	9.16	9.37	-50.6	-66.2	3.8	1.49e+00	0	43	104	0	73	20943
2026-01-08 00:28:06.70	9.11	9.45	-50.6	-66.2	3.8	1.49e+00	0	43	104	0	73	20982
2026-01-08 00:28:07.70	9.06	9.53	-50.6	-66.2	3.8	1.49e+00	0	43	104	0	73	20940
2026-01-08 00:28:08.71	9.01	9.61	-50.6	-66.2	3.8	1.49e+00	0	43	104	0	73	20957
2026-01-08 00:28:09.71	8.96	9.69	-50.6	-66.2	3.8	1.49e+00	0	43	104	0	73	20935
2026-01-08 00:28:10.72	8.91	9.78	-50.6	-66.2	3.8	1.49e+00	0	43	104	0	73	20967
2026-01-08 00:28:11.72	8.85	9.86	-50.6	-66.3	3.8	1.49e+00	0	43	104	0	73	21022
2026-01-08 00:28:12.72	8.80	9.94	-50.6	-66.2	3.8	1.49e+00	0	43	104	0	73	20983
2026-01-08 00:28:13.73	8.75	10.02	-50.6	-66.2	3.8	1.49e+00	0	43	104	0	73	20962
2026-01-08 00:28:14.73	8.70	10.11	-50.6	-66.2	3.8	1.49e+00	0	43	104	0	73	20972
2026-01-08 00:28:15.74	8.64	10.19	-50.6	-66.2	3.8	1.49e+00	0	43	104	0	73	20949
2026-01-08 00:28:16.74	8.59	10.27	-50.6	-66.2	3.8	1.49e+00	0	43	104	0	73	20954
2026-01-08 00:28:17.75	8.53	10.36	-50.6	-66.2	3.8	1.49e+00	0	43	104	0	73	20933
2026-01-08 00:28:18.75	8.48	10.44	-50.6	-66.2	3.8	1.49e+00	0	43	104	0	73	20997
2026-01-08 00:28:19.76	8.42	10.53	-50.6	-66.2	3.8	1.49e+00	0	43	104	0	73	20997
2026-01-08 00:28:20.76	8.37	10.61	-50.6	-66.2	3.8	1.49e+00	0	43	104	0	73	20949
2026-01-08 00:28:21.77	8.31	10.70	-50.6	-66.2	3.8	1.49e+00	0	43	104	0	73	20996
2026-01-08 00:28:22.77	8.26	10.78	-50.6	-66.2	3.8	1.49e+00	0	43	104	0	73	20891
2026-01-08 00:28:23.78	8.20	10.87	-50.6	-66.2	3.8	1.49e+00	0	43	104	0	73	20967
2026-01-08 00:28:24.78	8.15	10.95	-50.6	-66.2	3.8	1.49e+00	0	43	104	0	73	20932
2026-01-08 00:28:25.78	8.09	11.04	-50.6	-66.3	3.8	1.49e+00	0	43	104	0	73	21035
2026-01-08 00:28:26.79	8.03	11.13	-50.6	-66.2	3.8	1.49e+00	0	43	104	0	73	20935
2026-01-08 00:28:27.79	7.97	11.21	-50.6	-66.3	3.8	1.49e+00	0	43	104	0	73	21061
2026-01-08 00:28:28.80	7.92	11.30	-50.6	-66.2	3.8	1.49e+00	0	43	104	0	73	20915
2026-01-08 00:28:29.80	7.86	11.39	-50.6	-66.2	3.8	1.49e+00	0	43	104	0	73	21003
2026-01-08 00:28:30.80	7.80	11.47	-50.6	-66.2	3.8	1.49e+00	0	43	104	0	73	20934
2026-01-08 00:28:31.81	7.74	11.56	-50.6	-66.2	3.8	1.49e+00	0	43	104	0	73	20988
2026-01-08 00:28:32.81	7.68	11.65	-50.6	-66.3	3.8	1.49e+00	0	43	104	0	73	21028
2026-01-08 00:28:33.82	7.62	11.74	-50.6	-66.2	3.8	1.49e+00	0	43	104	0	73	20973
2026-01-08 00:28:34.82	7.56	11.83	-50.6	-66.3	3.8	1.49e+00	0	43	104	0	73	21021
2026-01-08 00:28:35.83	7.50	11.92	-50.6	-66.3	3.8	1.49e+00	0	43	104	0	73	21040
2026-01-08 00:28:36.83	7.44	12.01	-50.6	-66.2	3.8	1.49e+00	0	43	104	0	73	21005
2026-01-08 00:28:37.84	7.38	12.10	-50.6	-66.2	3.8	1.49e+00	0	43	104	0	73	20968
2026-01-08 00:28:38.84	7.32	12.19	-50.6	-66.2	3.8	1.49e+00	0	43	104	0	73	21017
2026-01-08 00:28:39.84	7.25	12.28	-50.6	-66.3	3.8	1.49e+00	0	43	104	0	73	21030
2026-01-08 00:28:40.85	7.19	12.37	-50.6	-66.2	3.8	1.49e+00	0	43	104	0	73	21016
2026-01-08 00:28:41.85	7.13	12.46	-50.6	-66.3	3.8	1.49e+00	0	43	104	0	73	21045
2026-01-08 00:28:42.86	7.07	12.55	-50.6	-66.2	3.8	1.49e+00	0	43	104	0	73	20974
2026-01-08 00:28:43.86	7.00	12.64	-50.6	-66.2	3.8	1.49e+00	0	44	104	0	73	20971
2026-01-08 00:28:44.87	6.94	12.73	-50.6	-66.3	3.8	1.49e+00	0	43	104	0	73	21018
2026-01-08 00:28:45.87	6.87	12.82	-50.6	-66.2	3.8	1.49e+00	0	43	104	0	73	20987
2026-01-08 00:28:46.87	6.81	12.92	-50.6	-66.2	3.8	1.49e+00	0	43	104	0	73	20960
2026-01-08 00:28:47.88	6.74	13.01	-50.6	-66.2	3.8	1.49e+00	0	43	104	0	73	20982
2026-01-08 00:28:48.88	6.68	13.10	-50.6	-66.3	3.8	1.49e+00	0	43	104	0	73	21064
2026-01-08 00:28:49.89	6.61	13.19	-50.6	-66.2	3.8	1.49e+00	0	43	104	0	73	20995
2026-01-08 00:28:50.89	6.54	13.29	-50.6	-66.3	3.8	1.49e+00	0	43	104	0	73	21033
2026-01-08 00:28:51.89	6.48	13.38	-50.6	-66.3	3.8	1.49e+00	0	43	104	0	73	21031
2026-01-08 00:28:52.90	6.41	13.48	-50.6	-66.3	3.8	1.49e+00	0	43	104	0	73	21107
2026-01-08 00:28:53.90	6.34	13.57	-50.6	-66.2	3.8	1.49e+00	0	43	104	0	73	21010
2026-01-08 00:28:54.91	6.27	13.67	-50.6	-66.3	3.8	1.49e+00	0	43	104	0	73	21030
2026-01-08 00:28:55.91	6.20	13.76	-50.6	-66.2	3.8	1.49e+00	0	44	104	0	73	21008
2026-01-08 00:28:56.92	6.13	13.86	-50.6	-66.3	3.8	1.49e+00	0	43	104	0	73	21020
2026-01-08 00:28:57.92	6.06	13.95	-50.6	-66.2	3.8	1.49e+00	0	43	104	0	73	20955
2026-01-08 00:28:58.93	5.99	14.05	-50.6	-66.3	3.8	1.49e+00	0	44	104	0	73	21086
2026-01-08 00:28:59.93	5.92	14.14	-50.6	-66.2	3.8	1.49e+00	0	43	104	0	73	20978
2026-01-08 00:29:00.93	5.85	14.24	-50.6	-66.2	3.8	1.49e+00	0	44	104	0	73	21011
2026-01-08 00:29:01.94	5.78	14.34	-50.6	-66.3	3.8	1.49e+00	0	44	104	0	73	21101
2026-01-08 00:29:02.94	5.70	14.44	-50.6	-66.3	3.8	1.49e+00	0	44	104	0	73	21084
2026-01-08 00:29:03.95	5.63	14.53	-50.6	-66.3	3.8	1.49e+00	0	44	104	0	73	21050
2026-01-08 00:29:04.95	5.56	14.63	-50.6	-66.3	3.8	1.49e+00	0	44	104	0	73	21066
2026-01-08 00:29:05.96	5.48	14.73	-50.6	-66.3	3.8	1.49e+00	0	44	104	0	73	21039
2026-01-08 00:29:06.96	5.41	14.83	-50.6	-66.3	3.8	1.49e+00	0	44	104	0	73	21021
2026-01-08 00:29:07.96	5.33	14.93	-50.6	-66.3	3.8	1.49e+00	0	44	104	0	73	21096
2026-01-08 00:29:08.97	5.26	15.03	-50.6	-66.3	3.8	1.49e+00	0	44	104	0	73	21127
2026-01-08 00:29:09.97	5.18	15.13	-50.6	-66.3	3.8	1.49e+00	0	44	104	0	73	21069
2026-01-08 00:29:10.98	5.11	15.23	-50.6	-66.3	3.8	1.49e+00	0	44	104	0	73	21054
2026-01-08 00:29:11.98	5.03	15.33	-50.6	-66.3	3.8	1.49e+00	0	44	104	0	73	21049
2026-01-08 00:29:12.99	4.95	15.43	-50.6	-66.3	3.8	1.49e+00	0	44	104	0	73	21087
2026-01-08 00:29:13.99	4.87	15.53	-50.6	-66.3	3.8	1.49e+00	0	44	104	0	73	21081
2026-01-08 00:29:15.00	4.79	15.63	-50.7	-66.3	3.8	1.49e+00	0	44	104	0	73	21138
2026-01-08 00:29:16.00	4.71	15.74	-50.7	-66.3	3.8	1.49e+00	0	44	104	0	73	21059
2026-01-08 00:29:17.00	4.63	15.84	-50.7	-66.3	3.8	1.49e+00	0	44	104	0	73	21122
2026-01-08 00:29:18.01	4.55	15.94	-50.7	-66.3	3.8	1.49e+00	0	43	104	0	73	21168
2026-01-08 00:29:19.01	4.47	16.05	-50.7	-66.3	3.8	1.49e+00	0	43	104	0	73	21139
2026-01-08 00:29:20.02	4.39	16.15	-50.7	-66.2	3.8	1.49e+00	0	43	104	0	73	21005
2026-01-08 00:29:21.02	4.31	16.25	-50.7	-66.3	3.8	1.49e+00	0	44	104	0	73	21051
2026-01-08 00:29:22.03	4.23	16.36	-50.7	-66.3	3.8	1.49e+00	0	44	104	0	73	21083
2026-01-08 00:29:23.03	4.14	16.46	-50.7	-66.3	3.8	1.49e+00	0	44	104	0	73	21211
2026-01-08 00:29:24.04	4.06	16.57	-50.7	-66.3	3.8	1.49e+00	0	44	104	0	73	21096
2026-01-08 00:29:25.04	3.97	16.67	-50.7	-66.3	3.8	1.49e+00	0	44	104	0	73	21184
2026-01-08 00:29:26.04	3.89	16.78	-50.7	-66.3	3.8	1.49e+00	0	44	104	0	73	21100
2026-01-08 00:29:27.05	3.80	16.89	-50.7	-66.3	3.8	1.49e+00	0	43	104	0	73	21115
2026-01-08 00:29:28.05	3.71	16.99	-50.7	-66.3	3.8	1.49e+00	0	44	104	0	73	21213
2026-01-08 00:29:29.06	3.63	17.10	-50.7	-66.3	3.8	1.49e+00	0	43	104	0	73	21106
2026-01-08 00:29:30.06	3.54	17.21	-50.7	-66.3	3.8	1.49e+00	0	44	104	0	73	21049
2026-01-08 00:29:31.07	3.45	17.32	-50.7	-66.3	3.8	1.49e+00	0	44	104	0	73	21157
2026-01-08 00:29:32.07	3.36	17.42	-50.7	-66.3	3.8	1.49e+00	0	44	104	0	73	21096
2026-01-08 00:29:33.07	3.27	17.53	-50.7	-66.3	3.8	1.49e+00	0	44	104	0	73	21186
2026-01-08 00:29:34.08	3.18	17.64	-50.7	-66.3	3.8	1.49e+00	0	44	104	0	73	21086
2026-01-08 00:29:35.08	3.09	17.75	-50.7	-66.3	3.8	1.49e+00	0	44	104	0	73	21189
2026-01-08 00:29:36.09	3.00	17.86	-50.7	-66.3	3.8	1.49e+00	0	43	104	0	73	21075
2026-01-08 00:29:37.09	2.90	17.97	-50.7	-66.3	3.8	1.49e+00	0	44	104	0	73	21221
2026-01-08 00:29:38.10	2.81	18.08	-50.7	-66.3	3.8	1.49e+00	0	44	104	0	73	21158
2026-01-08 00:29:39.10	2.72	18.19	-50.7	-66.3	3.8	1.49e+00	0	44	104	0	73	21153
2026-01-08 00:29:40.11	2.62	18.31	-50.7	-66.3	3.8	1.49e+00	0	44	104	0	73	21145
2026-01-08 00:29:41.11	2.53	18.42	-50.7	-66.3	3.8	1.49e+00	0	44	104	0	73	21137
2026-01-08 00:29:42.12	2.43	18.53	-50.7	-66.3	3.8	1.49e+00	0	44	104	0	73	21173
2026-01-08 00:29:43.12	2.33	18.64	-50.7	-66.3	3.8	1.49e+00	0	44	104	0	73	21115
2026-01-08 00:29:44.12	2.24	18.76	-50.7	-66.3	3.8	1.49e+00	0	44	104	0	73	21233
2026-01-08 00:29:45.13	2.14	18.87	-50.7	-66.3	3.8	1.49e+00	0	43	104	0	73	21220
2026-01-08 00:29:46.13	2.04	18.98	-50.7	-66.3	3.8	1.49e+00	0	44	104	0	73	21139
2026-01-08 00:29:47.14	1.94	19.10	-50.7	-66.3	3.8	1.49e+00	0	44	104	0	73	21174
2026-01-08 00:29:48.14	1.84	19.21	-50.7	-66.3	3.8	1.49e+00	0	44	104	0	73	21181
2026-01-08 00:29:49.14	1.73	19.33	-50.7	-66.3	3.8	1.49e+00	0	44	104	0	73	21170
2026-01-08 00:29:50.15	1.63	19.45	-50.7	-66.3	3.8	1.49e+00	0	44	104	0	73	21203
2026-01-08 00:29:51.15	1.53	19.56	-50.7	-66.3	3.8	1.49e+00	0	43	104	0	73	21154
2026-01-08 00:29:52.16	1.42	19.68	-50.7	-66.3	3.8	1.49e+00	0	44	104	0	73	21232
2026-01-08 00:29:53.16	1.32	19.80	-50.7	-66.3	3.8	1.49e+00	0	44	104	0	73	21219
2026-01-08 00:29:54.17	1.21	19.92	-50.7	-66.3	3.8	1.49e+00	0	44	104	0	73	21190
2026-01-08 00:29:55.17	1.11	20.03	-50.7	-66.3	3.8	1.49e+00	0	44	104	0	73	21227
2026-01-08 00:29:56.18	1.00	20.15	-50.7	-66.3	3.8	1.49e+00	0	44	104	0	73	21159
2026-01-08 00:29:57.18	0.89	20.27	-50.7	-66.3	3.8	1.49e+00	0	44	104	0	73	21221
2026-01-08 00:29:58.18	0.78	20.39	-50.7	-66.3	3.8	1.49e+00	0	44	104	0	73	21249
2026-01-08 00:29:59.19	0.67	20.51	-50.7	-66.3	3.8	1.49e+00	0	44	104	0	73	21198
2026-01-08 00:30:00.19	0.56	20.63	-50.7	-66.3	3.8	1.49e+00	0	44	104	0	73	21230
2026-01-08 00:30:01.20	0.45	20.75	-50.7	-66.3	3.8	1.49e+00	0	44	104	0	73	21209
2026-01-08 00:30:02.20	0.34	20.87	-50.7	-66.3	3.8	1.49e+00	0	43	104	0	73	21216
2026-01-08 00:30:03.21	0.22	21.00	-50.7	-66.3	3.8	1.49e+00	0	44	104	0	73	21192
2026-01-08 00:30:04.21	0.11	21.12	-50.7	-66.3	3.8	1.49e+00	0	44	104	0	73	21195
2026-01-08 00:30:05.22	359.99	21.24	-50.7	-66.4	3.8	1.49e+00	0	44	104	0	73	21264
2026-01-08 00:30:06.22	359.88	21.37	-50.7	-66.4	3.8	1.49e+00	0	44	104	0	73	21287
2026-01-08 00:30:07.22	359.76	21.49	-50.7	-66.3	3.8	1.49e+00	0	44	104	0	73	21216
2026-01-08 00:30:08.23	359.64	21.61	-50.7	-66.3	3.8	1.49e+00	0	44	104	0	73	21196
2026-01-08 00:30:09.23	359.52	21.74	-50.7	-66.3	3.8	1.49e+00	0	44	104	0	73	21219
2026-01-08 00:30:10.24	359.40	21.86	-50.7	-66.4	3.8	1.49e+00	0	44	104	0	73	21264
2026-01-08 00:30:11.24	359.28	21.99	-50.7	-66.3	3.8	1.49e+00	0	44	104	0	73	21218
2026-01-08 00:30:12.25	359.15	22.12	-50.7	-66.3	3.8	1.49e+00	0	44	104	0	73	21217
2026-01-08 00:30:13.25	359.03	22.24	-50.7	-66.3	3.8	1.49e+00	0	44	104	0	73	21250
2026-01-08 00:30:14.26	358.91	22.37	-50.7	-66.3	3.8	1.49e+00	0	44	104	0	73	21140
2026-01-08 00:30:15.26	358.78	22.50	-50.7	-66.3	3.8	1.49e+00	0	44	104	0	73	21201
2026-01-08 00:30:16.26	358.65	22.63	-50.7	-66.3	3.8	1.49e+00	0	44	104	0	73	21182
2026-01-08 00:30:17.27	358.53	22.76	-50.7	-66.3	3.8	1.49e+00	0	44	104	0	73	21223
2026-01-08 00:30:18.27	358.40	22.88	-50.7	-66.3	3.8	1.49e+00	0	44	104	0	73	21161
2026-01-08 00:30:19.28	358.27	23.01	-50.7	-66.3	3.8	1.49e+00	0	44	104	0	73	21134
2026-01-08 00:30:20.28	358.14	23.14	-50.7	-66.3	3.8	1.49e+00	0	44	104	0	73	21202
2026-01-08 00:30:21.29	358.00	23.28	-50.7	-66.3	3.8	1.49e+00	0	44	104	0	73	21213
2026-01-08 00:30:22.29	357.87	23.41	-50.7	-66.3	3.8	1.49e+00	0	44	104	0	73	21199
2026-01-08 00:30:23.29	357.74	23.54	-50.7	-66.3	3.8	1.49e+00	0	44	104	0	73	21156
2026-01-08 00:30:24.30	357.60	23.67	-50.7	-66.3	3.8	1.49e+00	0	44	104	0	73	21259
2026-01-08 00:30:25.30	357.46	23.80	-50.7	-66.3	3.8	1.49e+00	0	44	104	0	73	21193
2026-01-08 00:30:26.31	357.33	23.94	-50.7	-66.3	3.8	1.49e+00	0	44	104	0	73	21178
2026-01-08 00:30:27.31	357.19	24.07	-50.7	-66.3	3.8	1.49e+00	0	44	104	0	73	21091
2026-01-08 00:30:28.32	357.05	24.20	-50.7	-66.3	3.8	1.49e+00	0	44	104	0	73	21216
2026-01-08 00:30:29.32	356.90	24.34	-50.7	-66.3	3.8	1.49e+00	0	44	104	0	73	21205
2026-01-08 00:30:30.33	356.76	24.47	-50.7	-66.3	3.8	1.49e+00	0	44	104	0	73	21210
2026-01-08 00:30:31.33	356.62	24.61	-50.7	-66.3	3.8	1.49e+00	0	44	104	0	73	21183
2026-01-08 00:30:32.34	356.47	24.75	-50.7	-66.3	3.8	1.49e+00	0	44	104	0	73	21224
2026-01-08 00:30:33.34	356.32	24.88	-50.7	-66.3	3.8	1.49e+00	0	44	104	0	73	21231
2026-01-08 00:30:34.34	356.18	25.02	-50.7	-66.3	3.8	1.49e+00	0	44	104	0	73	21199
2026-01-08 00:30:35.35	356.03	25.16	-50.7	-66.3	3.8	1.49e+00	0	44	104	0	73	21104
2026-01-08 00:30:36.35	355.88	25.30	-50.7	-66.3	3.8	1.49e+00	0	44	104	0	73	21241
2026-01-08 00:30:37.36	355.72	25.44	-50.7	-66.3	3.8	1.49e+00	0	44	104	0	73	21195
2026-01-08 00:30:38.36	355.57	25.57	-50.7	-66.3	3.8	1.49e+00	0	44	104	0	73	21202
2026-01-08 00:30:39.36	355.42	25.71	-50.7	-66.3	3.8	1.49e+00	0	44	104	0	73	21186
2026-01-08 00:30:40.37	355.26	25.85	-50.7	-66.3	3.8	1.49e+00	0	44	104	0	73	21208
2026-01-08 00:30:41.37	355.10	25.99	-50.7	-66.3	3.8	1.49e+00	0	44	104	0	73	21160
2026-01-08 00:30:42.38	354.94	26.14	-50.7	-66.3	3.8	1.49e+00	0	44	104	0	73	21189
2026-01-08 00:30:43.38	354.78	26.28	-50.7	-66.3	3.8	1.49e+00	0	44	104	0	73	21185
2026-01-08 00:30:44.38	354.62	26.42	-50.7	-66.3	3.8	1.49e+00	0	44	104	0	73	21233
2026-01-08 00:30:45.39	354.46	26.56	-50.7	-66.3	3.8	1.49e+00	0	44	104	0	73	21172
2026-01-08 00:30:46.39	354.29	26.71	-50.7	-66.3	3.8	1.49e+00	0	44	104	0	73	21190
2026-01-08 00:30:47.40	354.12	26.85	-50.7	-66.3	3.8	1.49e+00	0	44	104	0	73	21161
2026-01-08 00:30:48.40	353.96	26.99	-50.7	-66.3	3.8	1.49e+00	0	44	104	0	73	21213
2026-01-08 00:30:49.41	353.78	27.14	-50.7	-66.3	3.8	1.49e+00	0	44	104	0	73	21116
2026-01-08 00:30:50.41	353.61	27.28	-50.7	-66.3	3.8	1.49e+00	0	44	104	0	73	21102
2026-01-08 00:30:51.41	353.44	27.43	-50.7	-66.3	3.8	1.49e+00	0	44	104	0	73	21198
2026-01-08 00:30:52.42	353.27	27.58	-50.7	-66.3	3.8	1.49e+00	0	44	104	0	73	21123
2026-01-08 00:30:53.42	353.09	27.72	-50.7	-66.3	3.8	1.49e+00	0	44	104	0	73	21185
2026-01-08 00:30:54.43	352.91	27.87	-50.7	-66.3	3.8	1.49e+00	0	43	104	0	73	21153
2026-01-08 00:30:55.43	352.73	28.02	-50.7	-66.3	3.8	1.49e+00	0	44	104	0	73	21200
2026-01-08 00:30:56.44	352.55	28.16	-50.7	-66.3	3.8	1.49e+00	0	44	104	0	73	21196
2026-01-08 00:30:57.44	352.37	28.31	-50.7	-66.3	3.8	1.49e+00	0	44	104	0	73	21140
2026-01-08 00:30:58.45	352.18	28.46	-50.7	-66.3	3.8	1.49e+00	0	44	104	0	73	21163
2026-01-08 00:30:59.45	352.00	28.61	-50.7	-66.3	3.8	1.49e+00	0	44	104	0	73	21226
2026-01-08 00:31:00.46	351.81	28.76	-50.7	-66.3	3.8	1.49e+00	0	44	104	0	73	21152
2026-01-08 00:31:01.46	351.62	28.91	-50.7	-66.3	3.8	1.49e+00	0	44	104	0	73	21230
2026-01-08 00:31:02.46	351.43	29.06	-50.7	-66.3	3.8	1.49e+00	0	44	104	0	73	21212
2026-01-08 00:31:03.47	351.23	29.21	-50.7	-66.3	3.8	1.49e+00	0	44	104	0	73	21167
2026-01-08 00:31:04.47	351.04	29.37	-50.7	-66.3	3.8	1.49e+00	0	44	104	0	73	21168
2026-01-08 00:31:05.48	350.84	29.52	-50.7	-66.3	3.8	1.49e+00	0	44	104	0	73	21133
2026-01-08 00:31:06.48	350.64	29.67	-50.7	-66.3	3.8	1.49e+00	0	44	104	0	73	21214
2026-01-08 00:31:07.48	350.44	29.82	-50.7	-66.3	3.8	1.49e+00	0	44	104	0	73	21142
2026-01-08 00:31:08.49	350.24	29.98	-50.7	-66.3	3.8	1.49e+00	0	44	104	0	73	21227
2026-01-08 00:31:09.49	350.03	30.13	-50.7	-66.3	3.8	1.49e+00	0	44	104	0	73	21244
2026-01-08 00:31:10.49	349.83	30.28	-50.7	-66.3	3.8	1.49e+00	0	44	104	0	73	21172
2026-01-08 00:31:11.50	349.62	30.44	-50.7	-66.3	3.8	1.49e+00	0	44	104	0	73	21161
2026-01-08 00:31:12.50	349.41	30.59	-50.7	-66.3	3.8	1.49e+00	0	44	104	0	73	21138
2026-01-08 00:31:13.51	349.19	30.75	-50.7	-66.3	3.8	1.49e+00	0	44	104	0	73	21205
2026-01-08 00:31:14.51	348.98	30.90	-50.7	-66.3	3.8	1.49e+00	0	44	104	0	73	21221
2026-01-08 00:31:15.52	348.76	31.06	-50.7	-66.3	3.8	1.49e+00	0	44	104	0	73	21191
2026-01-08 00:31:16.52	348.54	31.22	-50.7	-66.3	3.8	1.49e+00	0	44	104	0	73	21174
2026-01-08 00:31:17.52	348.32	31.37	-50.7	-66.3	3.8	1.49e+00	0	44	104	0	73	21170
2026-01-08 00:31:18.53	348.09	31.53	-50.7	-66.3	3.8	1.49e+00	0	44	104	0	73	21253
2026-01-08 00:31:19.53	347.87	31.69	-50.7	-66.3	3.8	1.49e+00	0	44	104	0	73	21230
2026-01-08 00:31:20.53	347.64	31.85	-50.7	-66.3	3.8	1.49e+00	0	44	104	0	73	21240
2026-01-08 00:31:21.54	347.41	32.01	-50.7	-66.3	3.8	1.49e+00	0	44	104	0	73	21175
2026-01-08 00:31:22.54	347.18	32.16	-50.7	-66.3	3.8	1.49e+00	0	43	104	0	73	21103
2026-01-08 00:31:23.55	346.94	32.32	-50.7	-66.3	3.8	1.49e+00	0	44	104	0	73	21214
2026-01-08 00:31:24.55	346.70	32.48	-50.7	-66.3	3.8	1.49e+00	0	44	104	0	73	21211
2026-01-08 00:31:25.55	346.46	32.64	-50.7	-66.3	3.8	1.49e+00	0	44	104	0	73	21155
2026-01-08 00:31:26.56	346.22	32.80	-50.7	-66.3	3.8	1.49e+00	0	44	104	0	73	21218
2026-01-08 00:31:27.57	345.97	32.96	-50.7	-66.3	3.8	1.49e+00	0	44	104	0	73	21193
2026-01-08 00:31:28.57	345.73	33.12	-50.7	-66.3	3.8	1.49e+00	0	44	104	0	73	21219
2026-01-08 00:31:29.57	345.48	33.28	-50.7	-66.3	3.8	1.49e+00	0	44	104	0	73	21178
2026-01-08 00:31:30.58	345.22	33.44	-50.7	-66.3	3.8	1.49e+00	0	44	104	0	73	21198
2026-01-08 00:31:31.58	344.97	33.60	-50.7	-66.3	3.8	1.49e+00	0	44	104	0	73	21232
2026-01-08 00:31:32.59	344.71	33.76	-50.7	-66.3	3.8	1.49e+00	0	44	104	0	73	21161
2026-01-08 00:31:33.59	344.45	33.93	-50.7	-66.3	3.8	1.49e+00	0	44	104	0	73	21213
2026-01-08 00:31:34.60	344.19	34.09	-50.7	-66.3	3.8	1.49e+00	0	44	104	0	73	21249
2026-01-08 00:31:35.60	343.92	34.25	-50.7	-66.3	3.8	1.49e+00	0	44	104	0	73	21161
2026-01-08 00:31:36.61	343.65	34.41	-50.7	-66.3	3.8	1.49e+00	0	44	104	0	73	21241
2026-01-08 00:31:37.61	343.38	34.57	-50.7	-66.3	3.8	1.49e+00	0	44	104	0	73	21218
2026-01-08 00:31:38.61	343.11	34.73	-50.7	-66.4	3.8	1.49e+00	0	44	104	0	73	21269
2026-01-08 00:31:39.62	342.83	34.90	-50.7	-66.4	3.8	1.49e+00	0	44	104	0	73	21263
2026-01-08 00:31:40.62	342.56	35.06	-50.7	-66.3	3.8	1.49e+00	0	44	104	0	73	21233
2026-01-08 00:31:41.63	342.27	35.22	-50.7	-66.4	3.8	1.49e+00	0	44	104	0	73	21323
2026-01-08 00:31:42.63	341.99	35.38	-50.7	-66.3	3.8	1.49e+00	0	44	104	0	73	21214
2026-01-08 00:31:43.63	341.70	35.54	-50.7	-66.3	3.8	1.49e+00	0	44	104	0	73	21206
2026-01-08 00:31:44.64	341.41	35.71	-50.7	-66.3	3.8	1.49e+00	0	44	104	0	73	21240
2026-01-08 00:31:45.64	341.12	35.87	-50.7	-66.3	3.8	1.49e+00	0	44	104	0	73	21194
2026-01-08 00:31:46.65	340.82	36.03	-50.7	-66.4	3.8	1.49e+00	0	44	104	0	73	21316
2026-01-08 00:31:47.65	340.52	36.19	-50.7	-66.3	3.8	1.49e+00	0	44	104	0	73	21221
2026-01-08 00:31:48.66	340.22	36.36	-50.7	-66.3	3.8	1.49e+00	0	44	104	0	73	21257
2026-01-08 00:31:49.66	339.91	36.52	-50.7	-66.3	3.8	1.49e+00	0	44	104	0	73	21195
2026-01-08 00:31:50.67	339.60	36.68	-50.7	-66.3	3.8	1.49e+00	0	44	104	0	73	21242
2026-01-08 00:31:51.67	339.29	36.84	-50.7	-66.3	3.8	1.49e+00	0	44	104	0	73	21258
2026-01-08 00:31:52.67	338.98	37.00	-50.7	-66.3	3.8	1.49e+00	0	44	104	0	73	21194
2026-01-08 00:31:53.68	338.66	37.16	-50.7	-66.3	3.8	1.49e+00	0	44	104	0	73	21224
2026-01-08 00:31:54.68	338.34	37.32	-50.7	-66.3	3.8	1.49e+00	0	44	104	0	73	21217
2026-01-08 00:31:55.69	338.01	37.48	-50.7	-66.3	3.8	1.49e+00	0	44	104	0	73	21213
2026-01-08 00:31:56.69	337.69	37.64	-50.7	-66.3	3.8	1.49e+00	0	44	104	0	73	21119
2026-01-08 00:31:57.70	337.36	37.80	-50.7	-66.3	3.8	1.49e+00	0	44	104	0	73	21149
2026-01-08 00:31:58.70	337.02	37.96	-50.7	-66.3	3.8	1.49e+00	0	44	104	0	73	21213
2026-01-08 00:31:59.70	336.69	38.12	-50.7	-66.3	3.8	1.49e+00	0	44	104	0	73	21201
2026-01-08 00:32:00.71	336.34	38.28	-50.7	-66.3	3.8	1.49e+00	0	44	104	0	73	21152
2026-01-08 00:32:01.71	336.00	38.44	-50.7	-66.3	3.8	1.49e+00	0	44	104	0	73	21250
2026-01-08 00:32:02.72	335.65	38.60	-50.7	-66.3	3.8	1.49e+00	0	44	104	0	73	21196
2026-01-08 00:32:03.72	335.30	38.76	-50.7	-66.3	3.8	1.49e+00	0	43	104	0	73	21176
2026-01-08 00:32:04.73	334.95	38.91	-50.7	-66.3	3.8	1.49e+00	0	44	104	0	73	21180
2026-01-08 00:32:05.73	334.59	39.07	-50.7	-66.3	3.8	1.49e+00	0	43	104	0	73	21211
2026-01-08 00:32:06.74	334.23	39.23	-50.7	-66.4	3.8	1.49e+00	0	44	104	0	73	21261
2026-01-08 00:32:07.74	333.86	39.38	-50.7	-66.3	3.8	1.49e+00	0	44	104	0	73	21206
2026-01-08 00:32:08.75	333.49	39.54	-50.7	-66.3	3.8	1.49e+00	0	43	104	0	73	21190
2026-01-08 00:32:09.75	333.12	39.69	-50.7	-66.3	3.8	1.49e+00	0	43	104	0	73	21158
2026-01-08 00:32:10.75	332.75	39.84	-50.7	-66.3	3.8	1.49e+00	0	44	104	0	73	21170
2026-01-08 00:32:11.76	332.37	40.00	-50.7	-66.3	3.8	1.49e+00	0	44	104	0	73	21190
2026-01-08 00:32:12.76	331.98	40.15	-50.7	-66.3	3.8	1.49e+00	0	44	104	0	73	21149
2026-01-08 00:32:13.77	331.60	40.30	-50.7	-66.3	3.8	1.49e+00	0	44	104	0	73	21211
2026-01-08 00:32:14.77	331.21	40.45	-50.7	-66.3	3.8	1.49e+00	0	44	104	0	73	21076
2026-01-08 00:32:15.78	330.81	40.60	-50.7	-66.4	3.8	1.49e+00	0	44	104	0	73	21262
2026-01-08 00:32:16.78	330.42	40.75	-50.7	-66.3	3.8	1.49e+00	0	44	104	0	73	21219
2026-01-08 00:32:17.78	330.02	40.89	-50.7	-66.3	3.8	1.49e+00	0	44	104	0	73	21159
2026-01-08 00:32:18.79	329.61	41.04	-50.7	-66.3	3.8	1.49e+00	0	44	104	0	73	21164
2026-01-08 00:32:19.79	329.20	41.18	-50.7	-66.3	3.8	1.49e+00	0	44	104	0	73	21180
2026-01-08 00:32:20.80	328.79	41.33	-50.7	-66.3	3.8	1.49e+00	0	43	104	0	73	21173
2026-01-08 00:32:21.80	328.37	41.47	-50.7	-66.3	3.8	1.49e+00	0	44	104	0	73	21201
2026-01-08 00:32:22.80	327.96	41.61	-50.7	-66.3	3.8	1.49e+00	0	44	104	0	73	21207
2026-01-08 00:32:23.81	327.53	41.75	-50.7	-66.3	3.8	1.49e+00	0	44	104	0	73	21154
2026-01-08 00:32:24.81	327.11	41.89	-50.7	-66.3	3.8	1.49e+00	0	44	104	0	73	21173
2026-01-08 00:32:25.82	326.67	42.03	-50.7	-66.3	3.8	1.49e+00	0	44	104	0	73	21193
2026-01-08 00:32:26.82	326.24	42.17	-50.7	-66.3	3.8	1.49e+00	0	43	104	0	73	21180
2026-01-08 00:32:27.83	325.80	42.30	-50.7	-66.3	3.8	1.49e+00	0	44	104	0	73	21205
2026-01-08 00:32:28.83	325.36	42.44	-50.7	-66.3	3.8	1.49e+00	0	44	104	0	73	21161
2026-01-08 00:32:29.84	324.91	42.57	-50.7	-66.3	3.8	1.49e+00	0	44	104	0	73	21189
2026-01-08 00:32:30.84	324.46	42.70	-50.7	-66.3	3.8	1.49e+00	0	44	104	0	73	21126
2026-01-08 00:32:31.84	324.01	42.83	-50.7	-66.3	3.8	1.49e+00	0	44	104	0	73	21178
2026-01-08 00:32:32.85	323.55	42.96	-50.7	-66.3	3.8	1.49e+00	0	44	104	0	73	21200
2026-01-08 00:32:33.85	323.10	43.09	-50.7	-66.3	3.8	1.49e+00	0	43	104	0	73	21196
2026-01-08 00:32:34.86	322.63	43.21	-50.7	-66.3	3.8	1.49e+00	0	44	104	0	73	21164
2026-01-08 00:32:35.86	322.16	43.33	-50.7	-66.4	3.8	1.49e+00	0	43	104	0	73	21269
2026-01-08 00:32:36.87	321.69	43.45	-50.7	-66.3	3.8	1.49e+00	0	43	104	0	73	21127
2026-01-08 00:32:37.87	321.22	43.57	-50.7	-66.3	3.8	1.49e+00	0	44	104	0	73	21176
2026-01-08 00:32:38.88	320.74	43.69	-50.7	-66.3	3.8	1.49e+00	0	44	104	0	73	21137
2026-01-08 00:32:39.88	320.26	43.81	-50.7	-66.3	3.8	1.49e+00	0	44	104	0	73	21165
2026-01-08 00:32:40.88	319.77	43.92	-50.7	-66.3	3.8	1.49e+00	0	43	104	0	73	21192
2026-01-08 00:32:41.89	319.28	44.03	-50.7	-66.3	3.8	1.49e+00	0	44	104	0	73	21227
2026-01-08 00:32:42.89	318.79	44.14	-50.7	-66.3	3.8	1.49e+00	0	44	104	0	73	21190
2026-01-08 00:32:43.90	318.29	44.25	-50.7	-66.3	3.8	1.49e+00	0	44	104	0	73	21167
2026-01-08 00:32:44.90	317.80	44.35	-50.7	-66.3	3.8	1.49e+00	0	44	104	0	73	21141
2026-01-08 00:32:45.91	317.29	44.46	-50.7	-66.3	3.8	1.49e+00	0	43	104	0	73	21179
2026-01-08 00:32:46.91	316.79	44.56	-50.7	-66.3	3.8	1.49e+00	0	44	104	0	73	21229
2026-01-08 00:32:47.92	316.28	44.66	-50.7	-66.3	3.8	1.49e+00	0	43	104	0	73	21237
2026-01-08 00:32:48.92	315.77	44.75	-50.7	-66.3	3.8	1.49e+00	0	43	104	0	73	21165
2026-01-08 00:32:49.92	315.25	44.85	-50.7	-66.3	3.8	1.49e+00	0	43	104	0	73	21207
2026-01-08 00:32:50.93	314.73	44.94	-50.7	-66.3	3.8	1.49e+00	0	43	104	0	73	21177
2026-01-08 00:32:51.93	314.22	45.03	-50.7	-66.3	3.8	1.49e+00	0	44	104	0	73	21203
2026-01-08 00:32:52.94	313.69	45.12	-50.7	-66.3	3.8	1.49e+00	0	44	104	0	73	21195
2026-01-08 00:32:53.94	313.16	45.20	-50.7	-66.3	3.8	1.49e+00	0	44	104	0	73	21235
2026-01-08 00:32:54.95	312.63	45.28	-50.7	-66.3	3.8	1.49e+00	0	44	104	0	73	21183
2026-01-08 00:32:55.95	312.10	45.36	-50.7	-66.3	3.8	1.49e+00	0	43	104	0	73	21230
2026-01-08 00:32:56.95	311.57	45.44	-50.7	-66.3	3.8	1.49e+00	0	44	104	0	73	21259
2026-01-08 00:32:57.96	311.03	45.51	-50.7	-66.3	3.8	1.49e+00	0	44	104	0	73	21190
2026-01-08 00:32:58.96	310.49	45.58	-50.7	-66.4	3.8	1.49e+00	0	43	104	0	73	21263
2026-01-08 00:32:59.97	309.94	45.65	-50.7	-66.3	3.8	1.49e+00	0	43	104	0	73	21251
2026-01-08 00:33:00.97	309.40	45.72	-50.7	-66.3	3.8	1.49e+00	0	43	104	0	73	21171
2026-01-08 00:33:01.97	308.86	45.78	-50.7	-66.3	3.8	1.49e+00	0	43	104	0	73	21212
2026-01-08 00:33:02.98	308.31	45.84	-50.7	-66.4	3.8	1.49e+00	0	44	104	0	73	21280
2026-01-08 00:33:03.98	307.76	45.90	-50.7	-66.4	3.8	1.49e+00	0	43	104	0	73	21282
2026-01-08 00:33:04.99	307.20	45.95	-50.7	-66.3	3.8	1.49e+00	0	43	104	0	73	21188
2026-01-08 00:33:05.99	306.65	46.01	-50.7	-66.3	3.8	1.49e+00	0	43	104	0	73	21200
2026-01-08 00:33:07.00	306.09	46.06	-50.7	-66.4	3.8	1.49e+00	0	44	104	0	73	21364
2026-01-08 00:33:08.00	305.53	46.10	-50.7	-66.4	3.8	1.49e+00	0	43	104	0	73	21295
2026-01-08 00:33:09.01	304.97	46.14	-50.7	-66.3	3.8	1.49e+00	0	44	104	0	73	21244
2026-01-08 00:33:10.01	304.41	46.18	-50.7	-66.4	3.8	1.49e+00	0	43	104	0	73	21264
2026-01-08 00:33:11.01	303.85	46.22	-50.7	-66.3	3.8	1.49e+00	0	44	104	0	73	21238
2026-01-08 00:33:12.02	303.28	46.25	-50.7	-66.3	3.8	1.49e+00	0	43	104	0	73	21230
2026-01-08 00:33:13.02	302.72	46.29	-50.7	-66.4	3.8	1.49e+00	0	43	104	0	73	21326
2026-01-08 00:33:14.02	302.15	46.31	-50.7	-66.3	3.8	1.49e+00	0	44	104	0	73	21259
2026-01-08 00:33:15.03	301.58	46.34	-50.7	-66.4	3.8	1.49e+00	0	44	104	0	73	21315
2026-01-08 00:33:16.04	301.01	46.36	-50.7	-66.3	3.8	1.49e+00	0	44	104	0	73	21212
2026-01-08 00:33:17.04	300.44	46.38	-50.7	-66.3	3.8	1.49e+00	0	43	104	0	73	21258
2026-01-08 00:33:18.04	299.87	46.39	-50.7	-66.4	3.8	1.49e+00	0	44	104	0	73	21278
2026-01-08 00:33:19.05	299.30	46.41	-50.7	-66.3	3.8	1.49e+00	0	43	104	0	73	21250
2026-01-08 00:33:20.05	298.73	46.42	-50.7	-66.3	3.8	1.49e+00	0	43	104	0	73	21258
2026-01-08 00:33:21.06	298.16	46.42	-50.7	-66.4	3.8	1.49e+00	0	43	104	0	73	21382
2026-01-08 00:33:22.06	297.59	46.42	-50.7	-66.4	3.8	1.49e+00	0	44	104	0	73	21373
2026-01-08 00:33:23.07	297.02	46.42	-50.7	-66.4	3.8	1.49e+00	0	43	104	0	73	21290
2026-01-08 00:33:24.07	296.45	46.42	-50.7	-66.4	3.8	1.49e+00	0	43	104	0	73	21319
2026-01-08 00:33:25.08	295.87	46.41	-50.7	-66.4	3.8	1.49e+00	0	44	104	0	73	21279
2026-01-08 00:33:26.08	295.30	46.40	-50.7	-66.4	3.8	1.49e+00	0	43	104	0	73	21288
2026-01-08 00:33:27.09	294.73	46.39	-50.7	-66.3	3.8	1.49e+00	0	43	104	0	73	21255
2026-01-08 00:33:28.09	294.16	46.38	-50.7	-66.4	3.8	1.49e+00	0	43	104	0	73	21343
2026-01-08 00:33:29.09	293.60	46.36	-50.8	-66.4	3.8	1.49e+00	0	43	104	0	73	21321
2026-01-08 00:33:30.10	293.02	46.34	-50.7	-66.4	3.8	1.49e+00	0	43	104	0	73	21361
2026-01-08 00:33:31.11	292.45	46.31	-50.7	-66.4	3.8	1.49e+00	0	44	104	0	73	21383
2026-01-08 00:33:32.11	291.89	46.28	-50.7	-66.4	3.8	1.49e+00	0	43	104	0	73	21374
2026-01-08 00:33:33.11	291.32	46.25	-50.7	-66.4	3.8	1.49e+00	0	43	104	0	73	21365
2026-01-08 00:33:34.12	290.76	46.22	-50.7	-66.4	3.8	1.49e+00	0	44	104	0	73	21347
2026-01-08 00:33:35.12	290.20	46.18	-50.8	-66.4	3.8	1.49e+00	0	43	104	0	73	21307
2026-01-08 00:33:36.13	289.63	46.14	-50.8	-66.4	3.8	1.49e+00	0	43	104	0	73	21372
2026-01-08 00:33:37.13	289.07	46.09	-50.8	-66.4	3.8	1.49e+00	0	43	104	0	73	21433
2026-01-08 00:33:38.13	288.52	46.05	-50.8	-66.4	3.8	1.49e+00	0	43	104	0	73	21366
2026-01-08 00:33:39.14	287.96	46.00	-50.8	-66.4	3.8	1.49e+00	0	43	104	0	73	21450
2026-01-08 00:33:40.14	287.40	45.95	-50.8	-66.4	3.8	1.49e+00	0	44	104	0	73	21365
2026-01-08 00:33:41.15	286.85	45.89	-50.8	-66.4	3.8	1.49e+00	0	43	104	0	73	21399
2026-01-08 00:33:42.15	286.30	45.83	-50.8	-66.4	3.8	1.49e+00	0	43	104	0	73	21429
2026-01-08 00:33:43.16	285.74	45.77	-50.8	-66.4	3.8	1.49e+00	0	43	104	0	73	21424
2026-01-08 00:33:44.16	285.20	45.71	-50.8	-66.4	3.8	1.49e+00	0	44	104	0	73	21421
2026-01-08 00:33:45.16	284.66	45.64	-50.8	-66.4	3.8	1.49e+00	0	44	104	0	73	21367
2026-01-08 00:33:46.17	284.11	45.57	-50.8	-66.4	3.8	1.49e+00	0	44	104	0	73	21437
2026-01-08 00:33:47.17	283.57	45.50	-50.8	-66.4	3.8	1.49e+00	0	44	104	0	73	21451
2026-01-08 00:33:48.18	283.03	45.43	-50.8	-66.4	3.8	1.49e+00	0	43	104	0	73	21425
2026-01-08 00:33:49.18	282.50	45.35	-50.8	-66.4	3.8	1.49e+00	0	44	104	0	73	21425
2026-01-08 00:33:50.19	281.96	45.27	-50.8	-66.4	3.8	1.49e+00	0	43	104	0	73	21357
2026-01-08 00:33:51.19	281.44	45.19	-50.8	-66.5	3.8	1.49e+00	0	44	104	0	73	21564
2026-01-08 00:33:52.20	280.91	45.10	-50.8	-66.4	3.8	1.49e+00	0	43	104	0	73	21441
2026-01-08 00:33:53.20	280.38	45.02	-50.8	-66.4	3.8	1.49e+00	0	43	104	0	73	21482
2026-01-08 00:33:54.21	279.86	44.93	-50.8	-66.4	3.8	1.49e+00	0	43	104	0	73	21442
2026-01-08 00:33:55.21	279.34	44.83	-50.8	-66.4	3.8	1.49e+00	0	43	104	0	73	21488
2026-01-08 00:33:56.21	278.83	44.74	-50.8	-66.4	3.8	1.49e+00	0	43	104	0	73	21420
2026-01-08 00:33:57.22	278.31	44.64	-50.8	-66.4	3.8	1.49e+00	0	43	104	0	73	21478
2026-01-08 00:33:58.22	277.81	44.54	-50.8	-66.4	3.8	1.49e+00	0	43	104	0	73	21424
2026-01-08 00:33:59.23	277.30	44.44	-50.8	-66.4	3.8	1.49e+00	0	44	104	0	73	21491
2026-01-08 00:34:00.23	276.80	44.34	-50.8	-66.4	3.8	1.49e+00	0	43	104	0	73	21490
2026-01-08 00:34:01.24	276.30	44.23	-50.8	-66.4	3.8	1.49e+00	0	43	104	0	73	21459
2026-01-08 00:34:02.24	275.80	44.12	-50.8	-66.4	3.8	1.49e+00	0	43	104	0	73	21480
2026-01-08 00:34:03.25	275.31	44.01	-50.8	-66.5	3.8	1.49e+00	0	43	104	0	73	21521
2026-01-08 00:34:04.25	274.82	43.90	-50.8	-66.5	3.8	1.49e+00	0	43	104	0	73	21508
2026-01-08 00:34:05.25	274.34	43.79	-50.8	-66.4	3.8	1.49e+00	0	43	104	0	73	21443
2026-01-08 00:34:06.26	273.85	43.67	-50.8	-66.4	3.8	1.49e+00	0	43	104	0	73	21351
2026-01-08 00:34:07.26	273.37	43.55	-50.8	-66.4	3.8	1.49e+00	0	44	104	0	73	21458
2026-01-08 00:34:08.27	272.90	43.43	-50.8	-66.4	3.8	1.49e+00	0	43	104	0	73	21441
2026-01-08 00:34:09.27	272.43	43.31	-50.8	-66.4	3.8	1.49e+00	0	43	104	0	73	21428
2026-01-08 00:34:10.28	271.96	43.19	-50.8	-66.4	3.8	1.49e+00	0	43	104	0	73	21449
2026-01-08 00:34:11.28	271.49	43.06	-50.8	-66.4	3.8	1.49e+00	0	43	104	0	73	21479
2026-01-08 00:34:12.29	271.03	42.94	-50.8	-66.4	3.8	1.49e+00	0	43	104	0	73	21452
2026-01-08 00:34:13.29	270.58	42.81	-50.8	-66.4	3.8	1.49e+00	0	43	104	0	73	21394
2026-01-08 00:34:14.29	270.12	42.68	-50.8	-66.4	3.8	1.49e+00	0	44	104	0	73	21504
2026-01-08 00:34:15.30	269.67	42.55	-50.8	-66.4	3.8	1.49e+00	0	44	104	0	73	21491
2026-01-08 00:34:16.30	269.23	42.41	-50.8	-66.4	3.8	1.49e+00	0	43	104	0	73	21434
2026-01-08 00:34:17.31	268.78	42.28	-50.8	-66.4	3.8	1.49e+00	0	43	104	0	73	21439
2026-01-08 00:34:18.31	268.35	42.14	-50.8	-66.4	3.8	1.49e+00	0	43	104	0	73	21496
2026-01-08 00:34:19.32	267.91	42.00	-50.8	-66.4	3.8	1.49e+00	0	43	104	0	73	21429
2026-01-08 00:34:20.32	267.48	41.87	-50.8	-66.4	3.8	1.49e+00	0	43	104	0	73	21409
2026-01-08 00:34:21.32	267.05	41.73	-50.8	-66.4	3.8	1.49e+00	0	43	104	0	73	21434
2026-01-08 00:34:22.33	266.63	41.58	-50.8	-66.4	3.8	1.49e+00	0	43	104	0	73	21455
2026-01-08 00:34:23.33	266.21	41.44	-50.8	-66.4	3.8	1.49e+00	0	44	104	0	73	21474
2026-01-08 00:34:24.34	265.79	41.30	-50.8	-66.4	3.8	1.49e+00	0	43	104	0	73	21453
2026-01-08 00:34:25.34	265.38	41.15	-50.8	-66.4	3.8	1.49e+00	0	43	104	0	73	21494
2026-01-08 00:34:26.35	264.97	41.01	-50.8	-66.4	3.8	1.49e+00	0	43	104	0	73	21446
2026-01-08 00:34:27.35	264.57	40.86	-50.8	-66.4	3.8	1.49e+00	0	43	104	0	73	21430
2026-01-08 00:34:28.36	264.16	40.71	-50.8	-66.4	3.8	1.49e+00	0	43	104	0	73	21442
2026-01-08 00:34:29.36	263.77	40.56	-50.8	-66.4	3.8	1.49e+00	0	43	104	0	73	21476
2026-01-08 00:34:30.36	263.37	40.41	-50.8	-66.4	3.8	1.49e+00	0	43	104	0	73	21349
2026-01-08 00:34:31.37	262.98	40.26	-50.8	-66.4	3.8	1.49e+00	0	43	104	0	73	21372
2026-01-08 00:34:32.37	262.59	40.11	-50.8	-66.4	3.8	1.49e+00	0	43	104	0	73	21450
2026-01-08 00:34:33.38	262.21	39.96	-50.8	-66.4	3.8	1.49e+00	0	43	104	0	73	21394
2026-01-08 00:34:34.38	261.83	39.81	-50.8	-66.4	3.8	1.49e+00	0	43	104	0	73	21395
2026-01-08 00:34:35.39	261.45	39.65	-50.8	-66.4	3.8	1.49e+00	0	43	104	0	73	21371
2026-01-08 00:34:36.39	261.08	39.50	-50.8	-66.4	3.8	1.49e+00	0	43	104	0	73	21395
2026-01-08 00:34:37.40	260.71	39.34	-50.8	-66.4	3.8	1.49e+00	0	43	104	0	73	21392
2026-01-08 00:34:38.40	260.35	39.19	-50.8	-66.4	3.8	1.49e+00	0	43	104	0	73	21316
2026-01-08 00:34:39.40	259.99	39.03	-50.8	-66.4	3.8	1.49e+00	0	43	104	0	73	21432
2026-01-08 00:34:40.41	259.63	38.87	-50.8	-66.4	3.8	1.49e+00	0	43	104	0	73	21366
2026-01-08 00:34:41.41	259.27	38.72	-50.8	-66.4	3.8	1.49e+00	0	43	104	0	73	21400
2026-01-08 00:34:42.42	258.92	38.56	-50.8	-66.4	3.8	1.49e+00	0	43	104	0	73	21407
2026-01-08 00:34:43.42	258.57	38.40	-50.8	-66.4	3.8	1.49e+00	0	43	104	0	73	21448
2026-01-08 00:34:44.42	258.23	38.24	-50.8	-66.4	3.8	1.49e+00	0	43	104	0	73	21375
2026-01-08 00:34:45.43	257.89	38.08	-50.8	-66.4	3.8	1.49e+00	0	43	104	0	73	21449
2026-01-08 00:34:46.43	257.55	37.92	-50.8	-66.4	3.8	1.49e+00	0	43	104	0	73	21339
2026-01-08 00:34:47.44	257.21	37.76	-50.8	-66.4	3.8	1.49e+00	0	43	104	0	73	21412
2026-01-08 00:34:48.44	256.88	37.60	-50.8	-66.4	3.8	1.49e+00	0	43	104	0	73	21318
2026-01-08 00:34:49.45	256.55	37.44	-50.8	-66.4	3.8	1.49e+00	0	43	104	0	73	21438
2026-01-08 00:34:50.45	256.23	37.28	-50.8	-66.4	3.8	1.49e+00	0	43	104	0	73	21361
2026-01-08 00:34:51.45	255.91	37.12	-50.8	-66.4	3.8	1.49e+00	0	43	104	0	73	21353
2026-01-08 00:34:52.46	255.59	36.95	-50.8	-66.4	3.8	1.49e+00	0	43	104	0	73	21326
2026-01-08 00:34:53.46	255.27	36.79	-50.8	-66.4	3.8	1.49e+00	0	43	104	0	73	21378
2026-01-08 00:34:54.47	254.96	36.63	-50.8	-66.4	3.8	1.49e+00	0	43	104	0	73	21352
2026-01-08 00:34:55.47	254.65	36.47	-50.8	-66.4	3.8	1.49e+00	0	43	104	0	73	21377
2026-01-08 00:34:56.47	254.35	36.30	-50.8	-66.4	3.8	1.49e+00	0	43	104	0	73	21406
2026-01-08 00:34:57.48	254.04	36.14	-50.8	-66.4	3.8	1.49e+00	0	43	104	0	73	21352
2026-01-08 00:34:58.48	253.74	35.98	-50.8	-66.4	3.8	1.49e+00	0	43	104	0	73	21365
2026-01-08 00:34:59.49	253.45	35.82	-50.8	-66.4	3.8	1.49e+00	0	43	104	0	73	21472
2026-01-08 00:35:00.49	253.15	35.65	-50.8	-66.4	3.8	1.49e+00	0	43	104	0	73	21403
2026-01-08 00:35:01.50	252.86	35.49	-50.8	-66.4	3.8	1.49e+00	0	43	104	0	73	21384
2026-01-08 00:35:02.50	252.57	35.33	-50.8	-66.4	3.8	1.49e+00	0	43	104	0	73	21338
2026-01-08 00:35:03.51	252.29	35.16	-50.8	-66.4	3.8	1.49e+00	0	43	104	0	73	21484
2026-01-08 00:35:04.51	252.01	35.00	-50.8	-66.5	3.8	1.49e+00	0	43	104	0	73	21525
2026-01-08 00:35:05.51	251.73	34.84	-50.8	-66.3	3.8	1.49e+00	0	43	104	0	73	21236
2026-01-08 00:35:06.51	251.45	34.68	-50.8	-66.4	3.8	1.49e+00	0	43	104	0	73	21309
2026-01-08 00:35:07.52	251.18	34.51	-50.8	-66.4	3.8	1.49e+00	0	43	104	0	73	21445
2026-01-08 00:35:08.52	250.91	34.35	-50.8	-66.4	3.8	1.49e+00	0	43	104	0	73	21393
2026-01-08 00:35:09.53	250.64	34.19	-50.8	-66.4	3.8	1.49e+00	0	43	104	0	73	21438
2026-01-08 00:35:10.53	250.37	34.03	-50.8	-66.4	3.8	1.49e+00	0	43	104	0	73	21452
2026-01-08 00:35:11.53	250.11	33.87	-50.8	-66.4	3.8	1.49e+00	0	43	104	0	73	21376
2026-01-08 00:35:12.54	249.85	33.70	-50.8	-66.4	3.8	1.49e+00	0	43	104	0	73	21497
2026-01-08 00:35:13.54	249.59	33.54	-50.8	-66.4	3.8	1.49e+00	0	43	104	0	73	21439
2026-01-08 00:35:14.55	249.33	33.38	-50.8	-66.4	3.8	1.49e+00	0	43	104	0	73	21409
2026-01-08 00:35:15.55	249.08	33.22	-50.8	-66.4	3.8	1.49e+00	0	43	104	0	73	21458
2026-01-08 00:35:16.56	248.83	33.06	-50.8	-66.4	3.8	1.49e+00	0	43	104	0	73	21457
2026-01-08 00:35:17.56	248.58	32.90	-50.8	-66.4	3.8	1.49e+00	0	43	104	0	73	21403
2026-01-08 00:35:18.57	248.33	32.74	-50.8	-66.4	3.8	1.49e+00	0	43	104	0	73	21475
2026-01-08 00:35:19.57	248.09	32.58	-50.8	-66.4	3.8	1.49e+00	0	43	104	0	73	21462
2026-01-08 00:35:20.57	247.85	32.42	-50.8	-66.4	3.8	1.49e+00	0	43	104	0	73	21437
2026-01-08 00:35:21.58	247.61	32.26	-50.8	-66.4	3.8	1.49e+00	0	43	104	0	73	21472
2026-01-08 00:35:22.58	247.38	32.10	-50.8	-66.4	3.8	1.49e+00	0	43	104	0	73	21464
2026-01-08 00:35:23.59	247.14	31.94	-50.8	-66.4	3.8	1.49e+00	0	43	104	0	73	21430
2026-01-08 00:35:24.59	246.91	31.78	-50.8	-66.5	3.8	1.49e+00	0	43	104	0	73	21535
2026-01-08 00:35:25.60	246.68	31.62	-50.8	-66.4	3.8	1.49e+00	0	43	104	0	73	21436
2026-01-08 00:35:26.60	246.46	31.46	-50.8	-66.4	3.8	1.49e+00	0	43	104	0	73	21466
2026-01-08 00:35:27.60	246.23	31.31	-50.8	-66.4	3.8	1.49e+00	0	43	104	0	73	21473
2026-01-08 00:35:28.61	246.01	31.15	-50.8	-66.4	3.8	1.49e+00	0	43	104	0	73	21428
2026-01-08 00:35:29.61	245.79	30.99	-50.8	-66.4	3.8	1.49e+00	0	43	104	0	73	21450
2026-01-08 00:35:30.62	245.57	30.83	-50.8	-66.4	3.8	1.49e+00	0	43	104	0	73	21468
2026-01-08 00:35:31.62	245.35	30.68	-50.8	-66.4	3.8	1.49e+00	0	43	104	0	73	21479
2026-01-08 00:35:32.63	245.14	30.52	-50.8	-66.4	3.8	1.49e+00	0	43	104	0	73	21466
2026-01-08 00:35:33.63	244.93	30.37	-50.8	-66.4	3.8	1.49e+00	0	43	104	0	73	21502
2026-01-08 00:35:34.64	244.72	30.21	-50.8	-66.4	3.8	1.49e+00	0	43	104	0	73	21453
2026-01-08 00:35:35.64	244.51	30.06	-50.8	-66.4	3.8	1.49e+00	0	43	104	0	73	21498
2026-01-08 00:35:36.64	244.31	29.90	-50.8	-66.4	3.8	1.49e+00	0	43	104	0	73	21485
2026-01-08 00:35:37.65	244.10	29.75	-50.8	-66.5	3.8	1.49e+00	0	43	104	0	73	21528
2026-01-08 00:35:38.65	243.90	29.59	-50.8	-66.5	3.8	1.49e+00	0	43	104	0	73	21538
2026-01-08 00:35:39.65	243.70	29.44	-50.9	-66.5	3.8	1.49e+00	0	43	104	0	73	21538
2026-01-08 00:35:40.66	243.50	29.29	-50.8	-66.5	3.8	1.49e+00	0	43	104	0	73	21532
2026-01-08 00:35:41.66	243.31	29.14	-50.8	-66.5	3.8	1.49e+00	0	43	104	0	73	21610
2026-01-08 00:35:42.67	243.11	28.98	-50.9	-66.5	3.8	1.49e+00	0	43	104	0	73	21584
2026-01-08 00:35:43.67	242.92	28.83	-50.8	-66.5	3.8	1.49e+00	0	43	104	0	73	21533
2026-01-08 00:35:44.67	242.73	28.68	-50.9	-66.5	3.8	1.49e+00	0	43	104	0	73	21571
2026-01-08 00:35:45.68	242.54	28.53	-50.9	-66.4	3.8	1.49e+00	0	43	104	0	73	21478
2026-01-08 00:35:46.68	242.35	28.38	-50.8	-66.5	3.8	1.49e+00	0	43	104	0	73	21525
2026-01-08 00:35:47.69	242.17	28.23	-50.9	-66.5	3.8	1.49e+00	0	43	104	0	73	21562
2026-01-08 00:35:48.69	241.98	28.08	-50.9	-66.5	3.8	1.49e+00	0	43	104	0	73	21572
2026-01-08 00:35:49.70	241.80	27.93	-50.9	-66.5	3.8	1.49e+00	0	43	104	0	73	21580
2026-01-08 00:35:50.70	241.62	27.79	-50.9	-66.5	3.8	1.49e+00	0	43	104	0	73	21634
2026-01-08 00:35:51.70	241.44	27.64	-50.9	-66.5	3.8	1.49e+00	0	43	104	0	73	21646
2026-01-08 00:35:52.71	241.27	27.49	-50.9	-66.5	3.8	1.49e+00	0	43	104	0	73	21650
2026-01-08 00:35:53.71	241.09	27.35	-50.9	-66.5	3.8	1.49e+00	0	43	104	0	73	21697
2026-01-08 00:35:54.72	240.92	27.20	-50.9	-66.5	3.8	1.49e+00	0	43	104	0	73	21720
2026-01-08 00:35:55.72	240.75	27.05	-50.9	-66.5	3.8	1.49e+00	0	43	104	0	73	21700
2026-01-08 00:35:56.73	240.58	26.91	-50.9	-66.5	3.8	1.49e+00	0	43	104	0	73	21695
2026-01-08 00:35:57.73	240.41	26.76	-50.9	-66.5	3.8	1.49e+00	0	43	104	0	73	21667
2026-01-08 00:35:58.73	240.24	26.62	-50.9	-66.5	3.8	1.49e+00	0	43	104	0	73	21701
2026-01-08 00:35:59.73	240.08	26.48	-50.9	-66.5	3.8	1.49e+00	0	43	104	0	73	21733
2026-01-08 00:36:00.74	239.91	26.33	-50.9	-66.5	3.8	1.49e+00	0	43	104	0	73	21684
2026-01-08 00:36:01.74	239.75	26.19	-50.9	-66.5	3.8	1.49e+00	0	43	104	0	73	21700
2026-01-08 00:36:02.75	239.59	26.05	-50.9	-66.5	3.8	1.49e+00	0	43	104	0	73	21683
2026-01-08 00:36:03.75	239.43	25.91	-50.9	-66.5	3.8	1.49e+00	0	43	104	0	73	21720
2026-01-08 00:36:04.76	239.27	25.76	-50.9	-66.6	3.8	1.49e+00	0	43	104	0	73	21771
2026-01-08 00:36:05.76	239.11	25.62	-50.9	-66.5	3.8	1.49e+00	0	43	104	0	73	21727
2026-01-08 00:36:06.77	238.96	25.48	-50.9	-66.6	3.8	1.49e+00	0	43	104	0	73	21806
2026-01-08 00:36:07.77	238.80	25.34	-50.9	-66.5	3.8	1.49e+00	0	43	104	0	73	21747
2026-01-08 00:36:08.77	238.65	25.21	-50.9	-66.5	3.8	1.49e+00	0	43	104	0	73	21739
2026-01-08 00:36:09.78	238.50	25.07	-51.0	-66.6	3.8	1.49e+00	0	43	104	0	73	21783
2026-01-08 00:36:10.78	238.35	24.93	-51.0	-66.6	3.8	1.49e+00	0	43	104	0	73	21784
2026-01-08 00:36:11.79	238.20	24.79	-51.0	-66.6	3.8	1.49e+00	0	43	104	0	73	21887
2026-01-08 00:36:12.79	238.05	24.65	-50.9	-66.6	3.8	1.49e+00	0	43	104	0	73	21826
2026-01-08 00:36:13.80	237.90	24.52	-51.0	-66.6	3.8	1.49e+00	0	43	104	0	73	21874
2026-01-08 00:36:14.80	237.76	24.38	-51.0	-66.6	3.8	1.49e+00	0	43	104	0	73	21865
2026-01-08 00:36:15.81	237.62	24.24	-51.0	-66.6	3.8	1.49e+00	0	43	104	0	73	21988
2026-01-08 00:36:16.81	237.47	24.11	-51.0	-66.6	3.8	1.49e+00	0	43	104	0	73	21874
2026-01-08 00:36:17.81	237.33	23.98	-51.0	-66.6	3.8	1.49e+00	0	43	104	0	73	21858
2026-01-08 00:36:18.82	237.19	23.84	-51.0	-66.6	3.8	1.49e+00	0	43	104	0	73	21900
2026-01-08 00:36:19.82	237.05	23.71	-51.0	-66.6	3.8	1.49e+00	0	43	104	0	73	21943
2026-01-08 00:36:20.83	236.92	23.57	-51.0	-66.6	3.8	1.49e+00	0	43	104	0	73	21945
2026-01-08 00:36:21.83	236.78	23.44	-51.0	-66.6	3.8	1.49e+00	0	43	104	0	73	21933
2026-01-08 00:36:22.84	236.64	23.31	-51.0	-66.6	3.8	1.49e+00	0	43	104	0	73	21864
2026-01-08 00:36:23.84	236.51	23.18	-51.0	-66.6	3.8	1.49e+00	0	43	104	0	73	21918
2026-01-08 00:36:24.84	236.38	23.05	-51.0	-66.6	3.8	1.49e+00	0	43	104	0	73	21887
2026-01-08 00:36:25.85	236.25	22.92	-51.0	-66.7	3.8	1.49e+00	0	43	104	0	73	22041
2026-01-08 00:36:26.85	236.12	22.79	-51.0	-66.7	3.8	1.49e+00	0	43	104	0	73	22011
2026-01-08 00:36:27.86	235.99	22.66	-51.1	-66.6	3.8	1.49e+00	0	43	104	0	73	21958
2026-01-08 00:36:28.86	235.86	22.53	-51.1	-66.7	3.8	1.49e+00	0	43	104	0	73	22084
2026-01-08 00:36:29.86	235.73	22.40	-51.1	-66.7	3.8	1.49e+00	0	43	104	0	73	22039
2026-01-08 00:36:30.87	235.60	22.27	-51.1	-66.7	3.8	1.49e+00	0	43	104	0	73	22109
2026-01-08 00:36:31.88	235.48	22.14	-51.1	-66.7	3.8	1.49e+00	0	43	104	0	73	22075
2026-01-08 00:36:32.88	235.35	22.01	-51.1	-66.7	3.8	1.49e+00	0	43	104	0	73	22095
2026-01-08 00:36:33.88	235.23	21.89	-51.1	-66.7	3.8	1.49e+00	0	43	104	0	73	22102
2026-01-08 00:36:34.89	235.11	21.76	-51.1	-66.7	3.8	1.49e+00	0	43	104	0	73	22158
2026-01-08 00:36:35.89	234.99	21.64	-51.1	-66.7	3.8	1.49e+00	0	43	104	0	73	22121
2026-01-08 00:36:36.90	234.87	21.51	-51.1	-66.8	3.8	1.49e+00	0	43	104	0	73	22265
2026-01-08 00:36:37.90	234.75	21.39	-51.1	-66.7	3.8	1.49e+00	0	43	104	0	73	22249
2026-01-08 00:36:38.90	234.63	21.26	-51.1	-66.7	3.8	1.49e+00	0	43	104	0	73	22149
2026-01-08 00:36:39.91	234.51	21.14	-51.1	-66.7	3.8	1.49e+00	0	43	104	0	73	22173
2026-01-08 00:36:40.91	234.40	21.02	-51.1	-66.7	3.8	1.49e+00	0	43	104	0	73	22235
2026-01-08 00:36:41.92	234.28	20.89	-51.2	-66.7	3.8	1.49e+00	0	43	104	0	73	22237
2026-01-08 00:36:42.92	234.17	20.77	-51.2	-66.7	3.8	1.49e+00	0	43	104	0	73	22246
2026-01-08 00:36:43.93	234.05	20.65	-51.2	-66.7	3.8	1.49e+00	0	43	104	0	73	22261
2026-01-08 00:36:44.93	233.94	20.53	-51.2	-66.8	3.8	1.49e+00	0	43	104	0	73	22290
2026-01-08 00:36:45.94	233.83	20.40	-51.2	-66.8	3.8	1.49e+00	0	43	104	0	73	22314
2026-01-08 00:36:46.94	233.72	20.28	-51.2	-66.8	3.8	1.49e+00	0	43	104	0	73	22341
2026-01-08 00:36:47.94	233.61	20.16	-51.2	-66.8	3.8	1.49e+00	0	43	104	0	73	22364
2026-01-08 00:36:48.95	233.50	20.04	-51.2	-66.8	3.8	1.49e+00	0	43	104	0	73	22413
2026-01-08 00:36:49.95	233.39	19.93	-51.2	-66.8	3.8	1.49e+00	0	43	104	0	73	22410
2026-01-08 00:36:50.96	233.28	19.81	-51.2	-66.8	3.8	1.49e+00	0	43	104	0	73	22442
2026-01-08 00:36:51.96	233.18	19.69	-51.2	-66.8	3.8	1.49e+00	0	43	104	0	73	22411
2026-01-08 00:36:52.97	233.07	19.57	-51.2	-66.8	3.8	1.49e+00	0	43	104	0	73	22427
2026-01-08 00:36:53.97	232.97	19.45	-51.2	-66.8	3.8	1.49e+00	0	43	104	0	73	22455
2026-01-08 00:36:54.97	232.86	19.34	-51.2	-66.8	3.8	1.49e+00	0	43	104	0	73	22427
2026-01-08 00:36:55.98	232.76	19.22	-51.2	-66.8	3.8	1.49e+00	0	43	104	0	73	22409
2026-01-08 00:36:56.98	232.66	19.11	-51.2	-66.8	3.8	1.49e+00	0	43	104	0	73	22481
2026-01-08 00:36:57.99	232.55	18.99	-51.3	-66.8	3.8	1.49e+00	0	43	104	0	73	22493
2026-01-08 00:36:58.99	232.45	18.87	-51.3	-66.8	3.8	1.49e+00	0	43	104	0	73	22511
2026-01-08 00:37:00.00	232.35	18.76	-51.3	-66.8	3.8	1.49e+00	0	43	104	0	73	22447
2026-01-08 00:37:00.97	232.26	18.65	-51.3	-66.8	3.8	1.49e+00	0	43	104	0	73	22518
2026-01-08 00:37:01.98	232.16	18.53	-51.3	-66.9	3.8	1.49e+00	0	43	104	0	73	22578
2026-01-08 00:37:02.98	232.06	18.42	-51.3	-66.9	3.8	1.49e+00	0	43	104	0	73	22612
2026-01-08 00:37:03.99	231.96	18.31	-51.2	-66.8	3.8	1.49e+00	0	43	104	0	73	22479
2026-01-08 00:37:04.99	231.87	18.20	-51.2	-66.8	3.8	1.49e+00	0	43	104	0	73	22518
2026-01-08 00:37:06.00	231.77	18.08	-51.3	-66.9	3.8	1.49e+00	0	43	104	0	73	22528
2026-01-08 00:37:07.00	231.68	17.97	-51.3	-66.9	3.8	1.49e+00	0	43	104	0	73	22530
2026-01-08 00:37:08.01	231.58	17.86	-51.3	-66.8	3.8	1.49e+00	0	43	104	0	73	22508
2026-01-08 00:37:09.01	231.49	17.75	-51.3	-66.9	3.8	1.49e+00	0	43	104	0	73	22531
2026-01-08 00:37:10.02	231.40	17.64	-51.3	-66.8	3.8	1.49e+00	0	43	104	0	73	22478
2026-01-08 00:37:11.02	231.30	17.53	-51.3	-66.9	3.8	1.49e+00	0	43	104	0	73	22621
2026-01-08 00:37:12.02	231.21	17.42	-51.3	-66.9	3.8	1.49e+00	0	43	104	0	73	22596
2026-01-08 00:37:13.03	231.12	17.31	-51.3	-66.9	3.8	1.49e+00	0	43	104	0	73	22637
2026-01-08 00:37:14.03	231.03	17.20	-51.3	-66.9	3.8	1.49e+00	0	43	104	0	73	22634
2026-01-08 00:37:15.04	230.94	17.09	-51.3	-66.9	3.8	1.49e+00	0	43	104	0	73	22616
2026-01-08 00:37:16.04	230.85	16.99	-51.3	-66.9	3.8	1.49e+00	0	43	104	0	73	22662
2026-01-08 00:37:17.05	230.77	16.88	-51.3	-66.9	3.8	1.49e+00	0	43	104	0	73	22670
2026-01-08 00:37:18.05	230.68	16.77	-51.3	-66.9	3.8	1.49e+00	0	43	104	0	73	22656
2026-01-08 00:37:19.06	230.59	16.66	-51.3	-66.9	3.8	1.49e+00	0	43	104	0	73	22640
2026-01-08 00:37:20.06	230.51	16.56	-51.3	-66.9	3.8	1.49e+00	0	43	104	0	73	22665
2026-01-08 00:37:21.06	230.42	16.45	-51.3	-66.9	3.8	1.49e+00	0	43	104	0	73	22743
2026-01-08 00:37:22.07	230.33	16.35	-51.4	-66.9	3.8	1.49e+00	0	43	104	0	73	22757
2026-01-08 00:37:23.08	230.25	16.24	-51.3	-67.0	3.8	1.49e+00	0	43	104	0	73	22805
2026-01-08 00:37:24.08	230.17	16.14	-51.3	-67.0	3.8	1.49e+00	0	43	104	0	73	22802
2026-01-08 00:37:25.08	230.08	16.03	-51.4	-66.9	3.8	1.49e+00	0	43	104	0	73	22739
2026-01-08 00:37:26.09	230.00	15.93	-51.4	-66.9	3.8	1.49e+00	0	43	104	0	73	22676
2026-01-08 00:37:27.09	229.92	15.83	-51.4	-67.0	3.8	1.49e+00	0	43	104	0	73	22783
2026-01-08 00:37:28.10	229.84	15.72	-51.4	-67.0	3.8	1.49e+00	0	43	104	0	73	22905
2026-01-08 00:37:29.10	229.76	15.62	-51.4	-67.0	3.8	1.49e+00	0	43	104	0	73	22880
2026-01-08 00:37:30.11	229.68	15.52	-51.4	-67.0	3.8	1.49e+00	0	43	104	0	73	22822
2026-01-08 00:37:31.11	229.60	15.41	-51.4	-67.0	3.8	1.49e+00	0	43	104	0	73	22909
2026-01-08 00:37:32.11	229.52	15.31	-51.4	-67.0	3.8	1.49e+00	0	43	104	0	73	22853
2026-01-08 00:37:33.12	229.44	15.21	-51.4	-67.0	3.8	1.49e+00	0	43	104	0	73	22893
2026-01-08 00:37:34.12	229.36	15.11	-51.4	-67.0	3.8	1.49e+00	0	43	104	0	73	22848
2026-01-08 00:37:35.13	229.28	15.01	-51.4	-67.0	3.8	1.49e+00	0	43	104	0	73	22836
2026-01-08 00:37:36.13	229.21	14.91	-51.4	-67.0	3.8	1.49e+00	0	43	104	0	73	22897
2026-01-08 00:37:37.14	229.13	14.81	-51.4	-67.0	3.8	1.49e+00	0	43	104	0	73	22937
2026-01-08 00:37:38.14	229.05	14.71	-51.4	-67.0	3.8	1.49e+00	0	43	104	0	73	22906
2026-01-08 00:37:39.14	228.98	14.61	-51.4	-67.0	3.8	1.49e+00	0	43	104	0	73	22871
2026-01-08 00:37:40.15	228.90	14.51	-51.4	-67.0	3.8	1.49e+00	0	43	104	0	73	23006
2026-01-08 00:37:41.15	228.83	14.41	-51.4	-67.0	3.8	1.49e+00	0	43	104	0	73	22986
2026-01-08 00:37:42.16	228.76	14.32	-51.4	-67.0	3.8	1.49e+00	0	43	104	0	73	23015
2026-01-08 00:37:43.16	228.68	14.22	-51.4	-67.0	3.8	1.49e+00	0	43	104	0	73	22997
2026-01-08 00:37:44.17	228.61	14.12	-51.4	-67.0	3.8	1.49e+00	0	43	104	0	73	23001
2026-01-08 00:37:45.17	228.54	14.02	-51.5	-67.0	3.8	1.49e+00	0	43	104	0	73	22939
2026-01-08 00:37:46.18	228.47	13.93	-51.4	-67.1	3.8	1.49e+00	0	43	104	0	73	23057
2026-01-08 00:37:47.18	228.39	13.83	-51.5	-67.1	3.8	1.49e+00	0	43	104	0	73	23114
2026-01-08 00:37:48.18	228.32	13.73	-51.5	-67.1	3.8	1.49e+00	0	43	104	0	73	23072
2026-01-08 00:37:49.19	228.25	13.64	-51.5	-67.1	3.8	1.49e+00	0	43	104	0	73	23093
2026-01-08 00:37:50.19	228.18	13.54	-51.5	-67.1	3.8	1.49e+00	0	43	104	0	73	23135
2026-01-08 00:37:51.20	228.11	13.45	-51.5	-67.1	3.8	1.49e+00	0	43	104	0	73	23203
2026-01-08 00:37:52.20	228.04	13.35	-51.5	-67.1	3.8	1.49e+00	0	43	104	0	73	23100
2026-01-08 00:37:53.21	227.98	13.26	-51.5	-67.1	3.8	1.49e+00	0	43	104	0	73	23110
2026-01-08 00:37:54.21	227.91	13.16	-51.5	-67.1	3.8	1.49e+00	0	43	104	0	73	23196
2026-01-08 00:37:55.22	227.84	13.07	-51.5	-67.1	3.8	1.49e+00	0	43	104	0	73	23155
2026-01-08 00:37:56.22	227.77	12.98	-51.5	-67.1	3.8	1.49e+00	0	43	104	0	73	23222
2026-01-08 00:37:57.22	227.71	12.88	-51.5	-67.1	3.8	1.49e+00	0	43	104	0	73	23196
2026-01-08 00:37:58.23	227.64	12.79	-51.5	-67.1	3.8	1.49e+00	0	43	104	0	73	23187
2026-01-08 00:37:59.24	227.57	12.70	-51.5	-67.1	3.8	1.49e+00	0	43	104	0	73	23239
2026-01-08 00:38:00.24	227.51	12.61	-51.6	-67.1	3.8	1.49e+00	0	43	104	0	73	23253
2026-01-08 00:38:01.24	227.44	12.51	-51.6	-67.1	3.8	1.49e+00	0	43	104	0	73	23237
2026-01-08 00:38:02.25	227.38	12.42	-51.5	-67.1	3.8	1.49e+00	0	43	104	0	73	23261
2026-01-08 00:38:03.25	227.31	12.33	-51.6	-67.2	3.8	1.49e+00	0	43	104	0	73	23320
2026-01-08 00:38:04.26	227.25	12.24	-51.6	-67.1	3.8	1.49e+00	0	43	104	0	73	23242
2026-01-08 00:38:05.26	227.19	12.15	-51.6	-67.2	3.8	1.49e+00	0	43	104	0	73	23321
2026-01-08 00:38:06.27	227.12	12.06	-51.6	-67.2	3.8	1.49e+00	0	43	104	0	73	23346
2026-01-08 00:38:07.27	227.06	11.97	-51.6	-67.2	3.8	1.49e+00	0	43	104	0	73	23365
2026-01-08 00:38:08.28	227.00	11.88	-51.6	-67.2	3.8	1.49e+00	0	43	104	0	73	23388
2026-01-08 00:38:09.28	226.94	11.79	-51.6	-67.2	3.8	1.49e+00	0	43	104	0	73	23405
2026-01-08 00:38:10.28	226.88	11.70	-51.6	-67.2	3.8	1.49e+00	0	43	104	0	73	23384
2026-01-08 00:38:11.29	226.81	11.61	-51.6	-67.2	3.8	1.49e+00	0	43	104	0	73	23407
2026-01-08 00:38:12.29	226.75	11.52	-51.6	-67.2	3.8	1.49e+00	0	43	104	0	73	23410
2026-01-08 00:38:13.30	226.69	11.43	-51.6	-67.2	3.8	1.49e+00	0	43	104	0	73	23485
2026-01-08 00:38:14.30	226.63	11.35	-51.6	-67.3	3.8	1.49e+00	0	43	104	0	73	23596
2026-01-08 00:38:15.31	226.57	11.26	-51.6	-67.2	3.8	1.49e+00	0	43	104	0	73	23503
2026-01-08 00:38:16.31	226.51	11.17	-51.7	-67.2	3.8	1.49e+00	0	43	104	0	73	23502
2026-01-08 00:38:17.32	226.45	11.08	-51.7	-67.3	3.8	1.49e+00	0	43	104	0	74	22394
2026-01-08 00:38:18.32	226.40	11.00	-51.7	-67.3	3.8	1.49e+00	0	43	104	0	74	22299
2026-01-08 00:38:19.33	226.34	10.91	-51.7	-67.3	3.8	1.49e+00	0	43	104	0	74	22454
2026-01-08 00:38:20.33	226.28	10.82	-51.7	-67.4	3.8	1.49e+00	0	43	104	0	74	22544
2026-01-08 00:38:21.33	226.22	10.74	-51.8	-67.3	3.8	1.49e+00	0	43	104	0	74	22517
2026-01-08 00:38:22.34	226.17	10.65	-51.8	-67.4	3.8	1.49e+00	0	43	104	0	74	22616
2026-01-08 00:38:23.34	226.11	10.57	-51.8	-67.4	3.8	1.49e+00	0	43	104	0	74	22591
2026-01-08 00:38:24.35	226.05	10.48	-51.8	-67.4	3.8	1.49e+00	0	43	104	0	74	22680
2026-01-08 00:38:25.35	226.00	10.40	-51.8	-67.4	3.8	1.49e+00	0	43	104	0	74	22632
2026-01-08 00:38:26.36	225.94	10.31	-51.9	-67.4	3.8	1.49e+00	0	43	104	0	74	22620
2026-01-08 00:38:27.36	225.89	10.23	-51.9	-67.4	3.8	1.49e+00	0	43	104	0	74	22768
2026-01-08 00:38:28.37	225.83	10.14	-51.9	-67.4	3.8	1.49e+00	0	43	104	0	74	22757
2026-01-08 00:38:29.37	225.78	10.06	-51.9	-67.5	3.8	1.49e+00	0	43	104	0	74	22858
2026-01-08 00:38:30.37	225.72	9.98	-51.9	-67.5	3.8	1.49e+00	0	43	104	0	74	22849
2026-01-08 00:38:31.38	225.67	9.89	-51.9	-67.5	3.8	1.49e+00	0	43	104	0	74	22907
2026-01-08 00:38:32.38	225.61	9.81	-52.0	-67.5	3.8	1.49e+00	0	43	104	0	74	22969
2026-01-08 00:38:33.39	225.56	9.73	-52.0	-67.5	3.8	1.49e+00	0	43	104	0	74	22962
2026-01-08 00:38:34.39	225.51	9.64	-52.0	-67.5	3.8	1.49e+00	0	43	104	0	74	22939
2026-01-08 00:38:35.40	225.45	9.56	-52.0	-67.5	3.8	1.49e+00	0	43	104	0	74	22974
2026-01-08 00:38:36.40	225.40	9.48	-52.0	-67.6	3.8	1.49e+00	0	43	104	0	74	23202
2026-01-08 00:38:37.41	225.35	9.40	-52.0	-67.6	3.8	1.49e+00	0	43	104	0	74	23104
2026-01-08 00:38:38.41	225.30	9.31	-52.0	-67.6	3.8	1.49e+00	0	43	104	0	74	23133
2026-01-08 00:38:39.41	225.25	9.23	-52.0	-67.6	3.8	1.49e+00	0	43	104	0	74	23164
2026-01-08 00:38:40.42	225.20	9.15	-52.0	-67.6	3.8	1.49e+00	0	43	104	0	74	23216
2026-01-08 00:38:41.42	225.15	9.07	-52.0	-67.6	3.8	1.49e+00	0	43	104	0	74	23271
2026-01-08 00:38:42.43	225.09	8.99	-52.0	-67.6	3.8	1.49e+00	0	43	104	0	74	23191
2026-01-08 00:38:43.43	225.04	8.91	-52.1	-67.6	3.8	1.49e+00	0	43	104	0	74	23266
2026-01-08 00:38:44.44	224.99	8.83	-52.1	-67.6	3.8	1.49e+00	0	43	104	0	74	23233
2026-01-08 00:38:45.44	224.94	8.75	-52.1	-67.6	3.8	1.49e+00	0	43	104	0	74	23264
2026-01-08 00:38:46.44	224.89	8.67	-52.1	-67.7	3.8	1.49e+00	0	43	104	0	74	23368
2026-01-08 00:38:47.45	224.85	8.59	-52.1	-67.7	3.8	1.49e+00	0	43	104	0	74	23385
2026-01-08 00:38:48.45	224.80	8.51	-52.1	-67.7	3.8	1.49e+00	0	43	104	0	74	23382
2026-01-08 00:38:49.46	224.75	8.43	-52.1	-67.7	3.8	1.49e+00	0	43	104	0	74	23399
2026-01-08 00:38:50.46	224.70	8.35	-52.1	-67.7	3.8	1.49e+00	0	43	104	0	74	23414
2026-01-08 00:38:51.46	224.65	8.27	-52.1	-67.7	3.8	1.49e+00	0	43	104	0	74	23379
2026-01-08 00:38:52.47	224.60	8.20	-52.1	-67.7	3.8	1.49e+00	0	43	104	0	74	23378
2026-01-08 00:38:53.47	224.56	8.12	-52.2	-67.7	3.8	1.49e+00	0	43	104	0	74	23495
2026-01-08 00:38:54.47	224.51	8.04	-52.2	-67.7	3.8	1.49e+00	0	43	104	0	74	23543
2026-01-08 00:38:55.48	224.46	7.96	-52.1	-67.8	3.8	1.49e+00	0	43	104	0	74	23588
2026-01-08 00:38:56.49	224.41	7.88	-52.2	-67.7	3.8	1.49e+00	0	43	104	0	74	23532
2026-01-08 00:38:57.49	224.37	7.81	-52.2	-67.7	3.8	1.49e+00	0	43	104	0	74	23472
2026-01-08 00:38:58.49	224.32	7.73	-52.1	-67.7	3.8	1.49e+00	0	43	104	0	74	23419
2026-01-08 00:38:59.50	224.28	7.65	-52.2	-67.7	3.8	1.49e+00	0	43	104	0	74	23426
2026-01-08 00:39:00.50	224.23	7.58	-52.2	-67.7	3.8	1.49e+00	0	43	104	0	74	23497
2026-01-08 00:39:01.50	224.19	7.50	-52.2	-67.7	3.8	1.49e+00	0	43	104	0	74	23554
2026-01-08 00:39:02.51	224.14	7.42	-52.2	-67.7	3.8	1.49e+00	0	43	104	0	74	23466
2026-01-08 00:39:03.51	224.09	7.35	-52.2	-67.7	3.8	1.49e+00	0	43	104	0	75	22208
2026-01-08 00:39:04.52	224.05	7.27	-52.2	-67.7	3.8	1.49e+00	0	43	104	0	75	22223
2026-01-08 00:39:05.52	224.01	7.20	-52.2	-67.7	3.8	1.49e+00	0	43	104	0	75	22246
2026-01-08 00:39:06.52	223.96	7.12	-52.2	-67.7	3.8	1.49e+00	0	43	104	0	75	22171
2026-01-08 00:39:07.53	223.92	7.05	-52.2	-67.7	3.8	1.49e+00	0	43	104	0	75	22223
2026-01-08 00:39:08.53	223.87	6.97	-52.2	-67.7	3.8	1.49e+00	0	43	104	0	75	22149
2026-01-08 00:39:09.54	223.83	6.90	-52.2	-67.7	3.8	1.49e+00	0	43	104	0	75	22241
2026-01-08 00:39:10.54	223.79	6.82	-52.2	-67.7	3.8	1.49e+00	0	43	104	0	75	22216
2026-01-08 00:39:11.54	223.74	6.75	-52.2	-67.7	3.8	1.49e+00	0	43	104	0	75	22172
2026-01-08 00:39:12.55	223.70	6.67	-52.2	-67.7	3.8	1.49e+00	0	43	104	0	75	22124
2026-01-08 00:39:13.55	223.66	6.60	-52.2	-67.7	3.8	1.49e+00	0	43	104	0	75	22147
2026-01-08 00:39:14.56	223.62	6.53	-52.2	-67.7	3.8	1.49e+00	0	43	104	0	75	22193
2026-01-08 00:39:15.56	223.57	6.45	-52.2	-67.7	3.8	1.49e+00	0	43	104	0	75	22157
2026-01-08 00:39:16.56	223.53	6.38	-52.2	-67.7	3.8	1.49e+00	0	43	104	0	75	22174
2026-01-08 00:39:17.57	223.49	6.31	-52.2	-67.7	3.8	1.49e+00	0	43	104	0	75	22211
2026-01-08 00:39:18.57	223.45	6.23	-52.2	-67.7	3.8	1.49e+00	0	43	104	0	75	22153
2026-01-08 00:39:19.58	223.41	6.16	-52.2	-67.7	3.8	1.49e+00	0	43	104	0	75	22147
2026-01-08 00:39:20.58	223.37	6.09	-52.2	-67.7	3.8	1.49e+00	0	42	104	0	75	22153
2026-01-08 00:39:21.59	223.33	6.01	-52.2	-67.7	3.8	1.49e+00	0	43	104	0	75	22228
2026-01-08 00:39:22.59	223.28	5.94	-52.2	-67.8	3.8	1.49e+00	0	43	104	0	75	22309
2026-01-08 00:39:23.60	223.24	5.87	-52.2	-67.7	3.8	1.49e+00	0	43	104	0	75	22227
2026-01-08 00:39:24.60	223.20	5.80	-52.2	-67.8	3.8	1.49e+00	0	43	104	0	75	22307
2026-01-08 00:39:25.61	223.16	5.73	-52.2	-67.8	3.8	1.49e+00	0	43	104	0	75	22289
2026-01-08 00:39:26.61	223.12	5.66	-52.2	-67.7	3.8	1.49e+00	0	43	104	0	75	22220
2026-01-08 00:39:27.61	223.08	5.58	-52.2	-67.7	3.8	1.49e+00	0	43	104	0	75	22129
2026-01-08 00:39:28.62	223.05	5.51	-52.2	-67.7	3.8	1.49e+00	0	43	104	0	75	22132
2026-01-08 00:39:29.62	223.01	5.44	-52.2	-67.7	3.8	1.49e+00	0	43	104	0	75	22226
2026-01-08 00:39:30.63	222.97	5.37	-52.2	-67.7	3.8	1.49e+00	0	43	104	0	75	22117
