passes_logs/2026/01/08/T1/T1__20260108_101738_NOAA_20_JPSS-1_rec.log

#Pass ID: 20260108_101738_NOAA 20 (JPSS-1)
#Satellite: NOAA 20 (JPSS-1)
#Configuration: NOAA 20
#almurnet v.1.7.20251203
#Start time: 2026-01-08 10:17:39

#Version: 2.0.20230620
#Station: T1
#Location: 37.570604 lon 55.790049 lat
#TLE: 1 43013U 17073A   26006.30790171  .00000126  00000+0  80695-4 0  9991
#TLE: 2 43013  98.7629 307.3394 0001808  51.8724 308.2615 14.19533762421505

#Time	Az	El	Level	Level2	SNR	BER	BlckErr	Temp	State	Recorded	gain1	gain2
2026-01-08 10:17:39.29	171.83	5.06	-50.2	-65.7	3.8	1.49e+00	0	40	0	0	72	20805
2026-01-08 10:17:40.29	171.85	5.13	-47.4	-65.0	3.8	1.49e+00	0	40	104	0	65	28694
2026-01-08 10:17:41.29	171.87	5.20	-47.4	-64.8	3.8	1.49e+00	0	40	104	0	65	28269
2026-01-08 10:17:42.30	171.90	5.27	-47.4	-64.8	3.8	1.49e+00	0	40	104	0	65	28062
2026-01-08 10:17:43.30	171.92	5.34	-47.4	-64.7	3.8	1.49e+00	0	40	104	0	65	27721
2026-01-08 10:17:44.31	171.94	5.42	-47.4	-64.6	3.8	1.49e+00	0	40	104	0	65	27609
2026-01-08 10:17:45.31	171.96	5.49	-47.4	-64.5	3.8	1.49e+00	0	41	104	0	65	27311
2026-01-08 10:17:46.31	171.99	5.56	-47.4	-64.5	3.8	1.49e+00	0	40	104	0	65	27261
2026-01-08 10:17:47.32	172.01	5.63	-47.3	-64.5	3.8	1.49e+00	0	40	104	0	65	27191
2026-01-08 10:17:48.32	172.03	5.71	-47.3	-64.4	3.8	1.49e+00	0	40	104	0	65	27049
2026-01-08 10:17:49.33	172.05	5.78	-47.3	-64.4	3.8	1.49e+00	0	40	104	0	65	27013
2026-01-08 10:17:50.33	172.08	5.85	-47.2	-64.4	3.8	1.49e+00	0	41	104	0	65	26830
2026-01-08 10:17:51.34	172.10	5.93	-47.3	-64.3	3.8	1.49e+00	0	41	104	0	65	26732
2026-01-08 10:17:52.34	172.12	6.00	-47.3	-64.3	3.8	1.49e+00	0	41	104	0	65	26559
2026-01-08 10:17:53.34	172.15	6.08	-47.4	-64.4	3.8	1.49e+00	0	41	104	0	65	26777
2026-01-08 10:17:54.35	172.17	6.15	-47.3	-64.4	3.8	1.49e+00	0	41	104	0	65	26790
2026-01-08 10:17:55.35	172.19	6.22	-47.4	-64.5	3.8	1.49e+00	0	41	104	0	65	27310
2026-01-08 10:17:56.36	172.22	6.30	-47.4	-64.6	3.8	1.49e+00	0	41	104	0	65	27392
2026-01-08 10:17:57.36	172.24	6.38	-47.4	-64.7	3.8	1.49e+00	0	41	104	0	65	27988
2026-01-08 10:17:58.37	172.27	6.45	-47.4	-64.9	3.8	1.49e+00	0	41	104	0	65	28463
2026-01-08 10:17:59.37	172.29	6.53	-47.3	-65.1	3.8	1.49e+00	0	41	104	0	65	29127
2026-01-08 10:18:00.38	172.31	6.60	-47.4	-65.1	3.8	1.49e+00	0	41	104	0	65	29257
2026-01-08 10:18:01.38	172.34	6.68	-47.4	-65.2	3.8	1.49e+00	0	41	104	0	65	29486
2026-01-08 10:18:02.39	172.36	6.75	-47.3	-65.2	3.8	1.49e+00	0	41	104	0	65	29464
2026-01-08 10:18:03.39	172.39	6.83	-47.4	-65.1	3.8	1.49e+00	0	41	104	0	65	29108
2026-01-08 10:18:04.39	172.41	6.91	-47.4	-64.9	3.8	1.49e+00	0	41	104	0	65	28501
2026-01-08 10:18:05.40	172.44	6.98	-47.3	-64.7	3.8	1.49e+00	0	41	104	0	65	27853
2026-01-08 10:18:06.40	172.46	7.06	-47.3	-64.3	3.8	1.49e+00	0	41	104	0	65	26569
2026-01-08 10:18:07.41	172.49	7.14	-47.4	-63.8	3.8	1.49e+00	0	41	104	0	65	24994
2026-01-08 10:18:08.41	172.51	7.22	-47.3	-63.1	3.8	1.49e+00	0	41	104	0	65	23075
2026-01-08 10:18:09.42	172.54	7.29	-47.3	-62.0	4.1	1.48e+00	0	41	104	0	65	20489
2026-01-08 10:18:10.42	172.56	7.37	-47.2	-60.9	4.4	1.33e+00	0	41	0	0	65	17909
2026-01-08 10:18:11.42	172.59	7.45	-47.2	-59.6	5.0	8.87e-01	0	41	0	2097152	65	15462
2026-01-08 10:18:12.43	172.61	7.53	-47.0	-58.5	5.7	5.41e-01	0	41	0	4194304	65	13644
2026-01-08 10:18:13.43	172.64	7.61	-46.9	-57.5	6.5	2.62e-01	0	41	0	5242880	65	12104
2026-01-08 10:18:14.44	172.66	7.69	-46.8	-56.3	7.5	1.37e-01	0	41	0	7340032	65	10627
2026-01-08 10:18:15.44	172.69	7.77	-46.5	-55.5	8.3	8.32e-02	0	41	0	9437184	65	9665
2026-01-08 10:18:16.45	172.72	7.85	-46.5	-54.9	8.9	2.98e-02	0	41	0	11534336	65	9006
2026-01-08 10:18:17.45	172.74	7.92	-46.4	-54.3	9.5	1.59e-02	0	41	0	13631488	64	8876
2026-01-08 10:18:18.46	172.77	8.01	-46.3	-53.8	10.0	9.98e-03	0	41	0	14680064	64	8444
2026-01-08 10:18:19.46	172.80	8.09	-46.3	-53.6	10.2	6.64e-03	0	41	0	16777216	64	8242
2026-01-08 10:18:20.47	172.82	8.17	-46.3	-53.6	10.3	5.38e-03	0	41	0	18874368	64	8179
2026-01-08 10:18:21.47	172.85	8.25	-46.2	-53.8	10.1	5.69e-03	0	41	0	20971520	64	8395
2026-01-08 10:18:22.47	172.88	8.33	-46.3	-54.2	9.6	8.91e-03	0	41	0	23068672	64	8852
2026-01-08 10:18:23.48	172.90	8.41	-46.4	-54.6	9.3	1.56e-02	0	41	0	24117248	64	9202
2026-01-08 10:18:24.48	172.93	8.49	-46.6	-55.4	8.5	3.06e-02	0	42	0	26214400	64	10110
2026-01-08 10:18:25.49	172.96	8.57	-46.6	-56.2	7.7	6.14e-02	0	41	0	28311552	64	11078
2026-01-08 10:18:26.49	172.98	8.65	-46.8	-57.2	6.7	1.24e-01	0	42	0	30408704	64	12475
2026-01-08 10:18:27.50	173.01	8.74	-47.0	-58.8	5.5	3.66e-01	0	42	0	32505856	64	14958
2026-01-08 10:18:28.50	173.04	8.82	-47.2	-60.3	4.7	6.71e-01	0	42	0	33554432	64	17707
2026-01-08 10:18:29.50	173.07	8.90	-47.3	-61.9	4.1	1.14e+00	0	42	0	34603008	65	20262
2026-01-08 10:18:30.51	173.10	8.99	-47.3	-63.5	3.8	1.48e+00	0	42	104	34603008	65	24397
2026-01-08 10:18:31.51	173.12	9.07	-47.0	-62.0	3.9	1.49e+00	0	42	104	34603008	65	20401
2026-01-08 10:18:32.52	173.15	9.15	-46.6	-57.9	6.0	7.57e-01	0	42	0	34603008	65	12779
2026-01-08 10:18:33.52	173.18	9.24	-47.1	-63.6	3.8	5.28e-01	0	42	104	36700160	64	26107
2026-01-08 10:18:34.52	173.21	9.32	-47.3	-64.9	3.8	1.49e+00	0	42	104	36700160	65	28609
2026-01-08 10:18:35.53	173.24	9.40	-46.5	-59.4	5.0	1.43e+00	0	42	0	36700160	65	15184
2026-01-08 10:18:36.53	173.27	9.49	-46.1	-54.0	9.8	4.00e-02	0	42	0	38797312	64	8650
2026-01-08 10:18:37.53	173.29	9.57	-46.1	-53.3	10.6	7.44e-03	0	42	0	39845888	64	7951
2026-01-08 10:18:38.54	173.32	9.66	-46.1	-52.7	11.3	1.20e-03	0	42	0	41943040	64	7411
2026-01-08 10:18:39.54	173.35	9.74	-46.2	-52.5	11.5	5.18e-04	0	42	0	44040192	63	7712
2026-01-08 10:18:40.55	173.38	9.83	-46.3	-52.4	11.7	1.24e-03	0	42	0	46137344	63	7595
2026-01-08 10:18:41.55	173.41	9.92	-46.3	-52.4	11.6	1.05e-03	0	42	0	48234496	63	7617
2026-01-08 10:18:42.55	173.44	10.00	-46.5	-52.6	11.4	8.29e-04	0	42	0	49283072	63	7786
2026-01-08 10:18:43.55	173.47	10.09	-46.5	-52.6	11.4	7.27e-04	0	42	0	51380224	63	7761
2026-01-08 10:18:44.56	173.50	10.18	-46.2	-51.7	12.5	2.27e-04	0	42	0	53477376	63	6966
2026-01-08 10:18:45.56	173.53	10.26	-46.2	-51.5	12.6	8.01e-05	0	42	0	55574528	63	6876
2026-01-08 10:18:46.57	173.56	10.35	-46.1	-51.3	12.8	5.49e-05	0	42	0	57671680	63	6712
2026-01-08 10:18:47.57	173.59	10.44	-45.6	-50.3	13.9	9.10e-06	0	42	0	58720256	63	5941
2026-01-08 10:18:48.58	173.62	10.53	-45.3	-49.8	14.4	1.50e-06	0	42	0	60817408	62	5950
2026-01-08 10:18:49.58	173.65	10.62	-45.2	-49.5	14.5	9.58e-03	0	42	0	62914560	62	5784
2026-01-08 10:18:50.58	173.69	10.71	-45.0	-49.3	14.8	0.00e+00	0	42	0	65011712	61	5947
2026-01-08 10:18:51.96	173.73	10.83	-44.7	-48.7	15.4	0.00e+00	0	42	0	67108864	61	5562
2026-01-08 10:18:52.70	173.75	10.89	-44.7	-48.7	15.4	7.00e-07	0	42	0	69206016	61	5565
2026-01-08 10:18:53.99	173.79	11.01	-44.4	-48.2	15.8	0.00e+00	0	42	0	71303168	60	5549
2026-01-08 10:18:54.71	173.82	11.08	-44.4	-48.3	15.8	0.00e+00	0	42	0	72351744	60	5607
2026-01-08 10:18:56.00	173.86	11.19	-44.4	-48.3	15.8	0.00e+00	0	42	0	74448896	60	5613
2026-01-08 10:18:56.72	173.88	11.26	-44.2	-48.0	16.0	0.00e+00	0	42	0	76546048	60	5450
2026-01-08 10:18:58.01	173.92	11.37	-44.2	-47.9	16.2	0.00e+00	0	42	0	78643200	60	5380
2026-01-08 10:18:58.72	173.94	11.44	-44.1	-47.6	16.5	0.00e+00	0	42	0	79691776	60	5210
2026-01-08 10:19:00.02	173.99	11.56	-44.2	-47.6	16.4	0.00e+00	0	42	0	82837504	60	5217
2026-01-08 10:19:00.73	174.01	11.62	-44.1	-47.5	16.6	0.00e+00	0	42	0	83886080	60	5115
2026-01-08 10:19:02.02	174.05	11.74	-44.1	-47.2	16.8	0.00e+00	0	42	0	85983232	60	4952
2026-01-08 10:19:02.74	174.08	11.81	-44.2	-47.3	16.8	0.00e+00	0	42	0	87031808	60	4991
2026-01-08 10:19:04.15	174.12	11.94	-44.3	-47.3	16.8	0.00e+00	0	42	0	90177536	60	5034
2026-01-08 10:19:04.87	174.15	12.01	-44.3	-47.2	16.9	0.00e+00	0	42	0	91226112	60	4938
2026-01-08 10:19:06.16	174.19	12.13	-44.2	-47.0	17.0	0.00e+00	0	42	0	94371840	60	4866
2026-01-08 10:19:07.21	174.23	12.23	-44.2	-47.0	17.0	0.00e+00	0	42	0	96468992	60	4851
2026-01-08 10:19:08.10	174.26	12.31	-44.1	-46.8	17.3	0.00e+00	0	42	0	97517568	60	4727
2026-01-08 10:19:09.24	174.30	12.42	-44.1	-46.8	17.2	0.00e+00	0	42	0	99614720	60	4754
2026-01-08 10:19:10.10	174.33	12.50	-44.1	-46.8	17.3	0.00e+00	0	42	0	101711872	60	4747
2026-01-08 10:19:11.25	174.37	12.61	-44.1	-46.8	17.3	0.00e+00	0	42	0	103809024	60	4745
2026-01-08 10:19:12.11	174.40	12.69	-44.1	-46.8	17.3	0.00e+00	0	42	0	104857600	60	4737
2026-01-08 10:19:13.26	174.44	12.80	-44.0	-46.7	17.4	0.00e+00	0	42	0	106954752	60	4675
2026-01-08 10:19:14.11	174.47	12.89	-44.0	-46.6	17.5	0.00e+00	0	42	0	109051904	60	4621
2026-01-08 10:19:15.41	174.51	13.01	-44.1	-46.7	17.4	0.00e+00	0	42	0	111149056	59	4964
2026-01-08 10:19:16.12	174.54	13.08	-44.2	-46.9	17.2	0.00e+00	0	42	0	112197632	59	5058
2026-01-08 10:19:17.63	174.59	13.23	-44.3	-47.0	17.1	0.00e+00	0	42	0	115343360	59	5128
2026-01-08 10:19:18.65	174.63	13.33	-44.2	-46.8	17.3	0.00e+00	0	42	0	117440512	59	5041
2026-01-08 10:19:19.99	174.68	13.46	-44.1	-46.8	17.3	0.00e+00	0	42	0	119537664	59	4996
2026-01-08 10:19:20.71	174.71	13.53	-44.1	-46.7	17.4	0.00e+00	0	42	0	121634816	59	4959
2026-01-08 10:19:22.00	174.75	13.66	-44.1	-46.7	17.3	0.00e+00	0	42	0	123731968	59	4980
2026-01-08 10:19:22.71	174.78	13.73	-44.1	-46.8	17.3	0.00e+00	0	42	0	124780544	59	5011
2026-01-08 10:19:24.00	174.83	13.86	-44.1	-46.8	17.3	0.00e+00	0	43	0	127926272	59	4990
2026-01-08 10:19:24.72	174.86	13.94	-43.9	-46.6	17.5	0.00e+00	0	42	0	128974848	59	4884
2026-01-08 10:19:26.01	174.90	14.07	-43.9	-46.5	17.6	0.00e+00	0	42	0	131072000	59	4864
2026-01-08 10:19:26.72	174.93	14.14	-44.0	-46.6	17.5	0.00e+00	0	42	0	132120576	59	4915
2026-01-08 10:19:28.17	174.99	14.29	-44.0	-46.7	17.4	0.00e+00	0	42	0	135266304	59	4964
2026-01-08 10:19:28.89	175.02	14.36	-43.9	-46.6	17.5	0.00e+00	0	42	0	136314880	59	4905
2026-01-08 10:19:30.24	175.07	14.50	-44.0	-46.6	17.5	0.00e+00	0	43	0	139460608	59	4924
2026-01-08 10:19:30.96	175.10	14.58	-44.0	-46.7	17.5	0.00e+00	0	42	0	140509184	59	4934
2026-01-08 10:19:32.25	175.15	14.71	-44.0	-46.7	17.4	0.00e+00	0	43	0	142606336	59	4973
2026-01-08 10:19:32.97	175.18	14.78	-44.0	-46.7	17.4	0.00e+00	0	43	0	144703488	59	4981
2026-01-08 10:19:34.25	175.23	14.92	-44.0	-46.8	17.4	0.00e+00	0	42	0	146800640	59	4993
2026-01-08 10:19:34.97	175.26	14.99	-44.1	-46.8	17.3	0.00e+00	0	43	0	147849216	59	5009
2026-01-08 10:19:36.26	175.31	15.13	-44.1	-46.9	17.3	0.00e+00	0	42	0	149946368	59	5059
2026-01-08 10:19:36.98	175.34	15.21	-44.2	-46.9	17.2	0.00e+00	0	42	0	152043520	59	5075
2026-01-08 10:19:38.27	175.39	15.35	-44.1	-46.8	17.3	0.00e+00	0	42	0	154140672	59	5038
2026-01-08 10:19:38.99	175.42	15.42	-44.1	-46.8	17.4	0.00e+00	0	43	0	155189248	59	5014
2026-01-08 10:19:40.28	175.48	15.56	-44.2	-46.9	17.3	0.00e+00	0	42	0	158334976	59	5074
2026-01-08 10:19:41.00	175.51	15.64	-44.2	-46.9	17.2	0.00e+00	0	43	0	159383552	59	5095
2026-01-08 10:19:42.29	175.56	15.78	-44.2	-46.9	17.3	0.00e+00	0	42	0	161480704	59	5068
2026-01-08 10:19:43.00	175.59	15.86	-44.3	-47.1	17.1	0.00e+00	0	42	0	163577856	59	5188
2026-01-08 10:19:44.29	175.65	16.00	-44.3	-47.1	17.1	0.00e+00	0	42	0	165675008	59	5167
2026-01-08 10:19:45.01	175.68	16.08	-44.3	-47.1	17.1	0.00e+00	0	43	0	166723584	59	5180
2026-01-08 10:19:46.30	175.73	16.22	-44.2	-47.0	17.2	0.00e+00	0	43	0	168820736	59	5117
2026-01-08 10:19:47.02	175.77	16.30	-44.2	-46.9	17.3	0.00e+00	0	42	0	170917888	59	5063
2026-01-08 10:19:48.31	175.82	16.44	-44.3	-47.1	17.2	0.00e+00	0	42	0	173015040	59	5172
2026-01-08 10:19:49.03	175.85	16.52	-44.3	-47.1	17.1	0.00e+00	0	42	0	174063616	59	5171
2026-01-08 10:19:50.32	175.91	16.67	-44.4	-47.2	17.0	0.00e+00	0	43	0	177209344	59	5223
2026-01-08 10:19:51.03	175.94	16.75	-44.5	-47.3	17.0	0.00e+00	0	42	0	178257920	59	5291
2026-01-08 10:19:52.32	176.00	16.89	-44.5	-47.3	17.0	0.00e+00	0	43	0	180355072	59	5286
2026-01-08 10:19:53.04	176.04	16.98	-44.5	-47.4	16.9	0.00e+00	0	43	0	181403648	59	5351
2026-01-08 10:19:54.33	176.09	17.12	-44.5	-47.3	16.9	0.00e+00	0	43	0	184549376	59	5309
2026-01-08 10:19:55.10	176.13	17.21	-44.6	-47.4	16.8	0.00e+00	0	42	0	185597952	59	5366
2026-01-08 10:19:56.38	176.19	17.36	-44.7	-47.6	16.7	0.00e+00	0	43	0	187695104	60	5211
2026-01-08 10:19:57.10	176.22	17.44	-44.7	-47.6	16.7	0.00e+00	0	43	0	189792256	60	5173
2026-01-08 10:19:58.39	176.28	17.60	-44.7	-47.7	16.6	0.00e+00	0	42	0	191889408	60	5231
2026-01-08 10:19:59.11	176.32	17.68	-44.8	-47.8	16.5	0.00e+00	0	43	0	192937984	60	5302
2026-01-08 10:20:00.40	176.38	17.83	-44.8	-47.7	16.6	0.00e+00	0	42	0	196083712	60	5270
2026-01-08 10:20:01.12	176.42	17.92	-44.8	-47.8	16.5	0.00e+00	0	43	0	197132288	60	5301
2026-01-08 10:20:02.44	176.48	18.07	-44.8	-47.7	16.6	0.00e+00	0	43	0	199229440	60	5263
2026-01-08 10:20:03.15	176.51	18.16	-44.8	-47.7	16.6	0.00e+00	0	43	0	201326592	60	5256
2026-01-08 10:20:04.44	176.58	18.31	-44.8	-47.7	16.6	0.00e+00	0	43	0	203423744	60	5237
2026-01-08 10:20:05.16	176.61	18.40	-44.9	-47.8	16.6	0.00e+00	0	43	0	204472320	60	5292
2026-01-08 10:20:06.57	176.69	18.57	-45.0	-47.9	16.4	0.00e+00	0	43	0	207618048	60	5378
2026-01-08 10:20:07.29	176.72	18.66	-45.0	-47.9	16.4	0.00e+00	0	42	0	208666624	60	5386
2026-01-08 10:20:08.58	176.79	18.82	-45.0	-47.9	16.5	0.00e+00	0	43	0	210763776	60	5371
2026-01-08 10:20:09.30	176.82	18.90	-45.0	-47.9	16.4	0.00e+00	0	43	0	212860928	60	5388
2026-01-08 10:20:10.59	176.89	19.06	-44.9	-47.9	16.4	0.00e+00	0	43	0	214958080	60	5376
2026-01-08 10:20:11.31	176.93	19.15	-45.0	-47.9	16.4	0.00e+00	0	43	0	216006656	60	5390
2026-01-08 10:20:12.79	177.01	19.34	-45.0	-48.0	16.4	0.00e+00	0	43	0	219152384	60	5411
2026-01-08 10:20:13.51	177.05	19.43	-45.0	-48.0	16.3	0.00e+00	0	43	0	220200960	60	5432
2026-01-08 10:20:14.79	177.11	19.59	-45.0	-47.9	16.4	0.00e+00	0	43	0	222298112	60	5399
2026-01-08 10:20:15.51	177.15	19.68	-45.0	-48.0	16.4	0.00e+00	0	43	0	224395264	60	5415
2026-01-08 10:20:16.80	177.22	19.85	-44.9	-47.9	16.5	0.00e+00	0	43	0	226492416	60	5352
2026-01-08 10:20:17.52	177.26	19.94	-44.9	-47.9	16.5	0.00e+00	0	43	0	227540992	60	5355
2026-01-08 10:20:18.80	177.33	20.10	-44.9	-47.8	16.6	0.00e+00	0	43	0	230686720	60	5326
2026-01-08 10:20:19.52	177.37	20.20	-44.9	-47.9	16.5	0.00e+00	0	43	0	231735296	60	5341
2026-01-08 10:20:20.81	177.45	20.36	-44.9	-47.8	16.6	0.00e+00	0	43	0	233832448	60	5311
2026-01-08 10:20:21.53	177.49	20.46	-44.9	-47.9	16.5	0.00e+00	0	43	0	234881024	60	5350
2026-01-08 10:20:22.82	177.56	20.63	-44.8	-47.7	16.6	0.00e+00	0	43	0	238026752	60	5276
2026-01-08 10:20:23.66	177.61	20.74	-44.8	-47.8	16.6	0.00e+00	0	43	0	239075328	60	5289
2026-01-08 10:20:25.13	177.69	20.93	-44.8	-47.7	16.7	0.00e+00	0	43	0	242221056	60	5250
2026-01-08 10:20:25.84	177.73	21.03	-44.8	-47.6	16.7	0.00e+00	0	43	0	243269632	60	5217
2026-01-08 10:20:27.14	177.81	21.20	-44.9	-47.8	16.6	0.00e+00	0	43	0	245366784	60	5296
2026-01-08 10:20:27.85	177.85	21.30	-44.9	-47.8	16.6	0.00e+00	0	43	0	247463936	60	5331
2026-01-08 10:20:29.14	177.93	21.47	-44.9	-47.8	16.6	0.00e+00	0	43	0	249561088	60	5321
2026-01-08 10:20:29.86	177.97	21.57	-44.8	-47.7	16.5	0.00e+00	0	43	0	250609664	60	5254
2026-01-08 10:20:31.15	178.05	21.75	-44.9	-47.8	16.6	0.00e+00	0	43	0	253755392	60	5304
2026-01-08 10:20:31.86	178.10	21.84	-44.9	-47.8	16.7	0.00e+00	0	43	0	254803968	60	5296
2026-01-08 10:20:33.15	178.18	22.02	-44.7	-47.6	16.8	0.00e+00	0	43	0	256901120	60	5205
2026-01-08 10:20:34.09	178.24	22.15	-44.7	-47.6	16.8	0.00e+00	0	43	0	258998272	60	5185
2026-01-08 10:20:35.09	178.30	22.29	-44.8	-47.7	16.7	0.00e+00	0	43	0	261095424	60	5243
2026-01-08 10:20:36.45	178.39	22.49	-44.7	-47.6	16.8	0.00e+00	0	43	0	263192576	60	5178
2026-01-08 10:20:37.20	178.43	22.59	-44.8	-47.7	16.8	0.00e+00	0	43	0	264241152	60	5220
2026-01-08 10:20:38.49	178.52	22.78	-44.7	-47.5	16.9	0.00e+00	0	43	0	267386880	60	5128
2026-01-08 10:20:39.27	178.57	22.89	-44.6	-47.4	17.0	0.00e+00	0	43	0	268435456	60	5087
2026-01-08 10:20:40.56	178.65	23.07	-44.7	-47.6	16.8	0.00e+00	0	42	0	270532608	60	5172
2026-01-08 10:20:41.28	178.70	23.18	-44.5	-47.3	17.0	0.00e+00	0	43	0	272629760	60	5041
2026-01-08 10:20:42.57	178.79	23.36	-44.6	-47.4	17.0	0.00e+00	0	43	0	274726912	60	5086
2026-01-08 10:20:43.29	178.84	23.47	-44.6	-47.4	17.0	0.00e+00	0	42	0	275775488	60	5075
2026-01-08 10:20:44.58	178.93	23.66	-44.5	-47.2	17.2	0.00e+00	0	43	0	278921216	60	4958
2026-01-08 10:20:45.29	178.98	23.76	-44.5	-47.2	17.1	0.00e+00	0	43	0	279969792	60	4979
2026-01-08 10:20:46.58	179.07	23.96	-44.5	-47.2	17.1	0.00e+00	0	43	0	282066944	60	4976
2026-01-08 10:20:47.30	179.12	24.06	-44.5	-47.3	17.1	0.00e+00	0	43	0	284164096	60	4984
2026-01-08 10:20:48.65	179.21	24.27	-44.4	-47.1	17.3	0.00e+00	0	43	0	286261248	60	4877
2026-01-08 10:20:49.37	179.26	24.38	-44.4	-47.1	17.3	0.00e+00	0	43	0	287309824	60	4897
2026-01-08 10:20:50.66	179.36	24.57	-44.4	-47.1	17.2	0.00e+00	0	43	0	290455552	60	4903
2026-01-08 10:20:51.68	179.43	24.73	-44.4	-47.1	17.3	0.00e+00	0	43	0	291504128	60	4875
2026-01-08 10:20:53.00	179.53	24.93	-44.5	-47.2	17.1	0.00e+00	0	43	0	294649856	60	4979
2026-01-08 10:20:53.72	179.58	25.04	-44.5	-47.3	17.1	0.00e+00	0	43	0	295698432	60	5009
2026-01-08 10:20:55.01	179.68	25.24	-44.6	-47.3	17.1	0.00e+00	0	43	0	297795584	60	5019
2026-01-08 10:20:55.72	179.73	25.36	-44.7	-47.5	17.0	0.00e+00	0	43	0	299892736	60	5110
2026-01-08 10:20:57.01	179.83	25.56	-44.8	-47.6	16.8	0.00e+00	0	43	0	301989888	60	5185
2026-01-08 10:20:57.73	179.89	25.67	-44.8	-47.7	16.8	0.00e+00	0	43	0	303038464	60	5220
2026-01-08 10:20:59.02	179.99	25.88	-44.9	-47.7	16.7	0.00e+00	0	43	0	305135616	60	5272
2026-01-08 10:20:59.74	180.05	25.99	-44.9	-47.7	16.7	0.00e+00	0	43	0	307232768	60	5267
2026-01-08 10:21:01.02	180.15	26.20	-45.1	-48.0	16.5	0.00e+00	0	43	0	309329920	60	5411
2026-01-08 10:21:01.74	180.21	26.32	-45.0	-47.9	16.5	0.00e+00	0	43	0	310378496	60	5380
2026-01-08 10:21:03.03	180.31	26.53	-45.1	-47.9	16.5	0.00e+00	0	43	0	313524224	60	5395
2026-01-08 10:21:03.75	180.37	26.64	-45.1	-48.0	16.5	0.00e+00	0	43	0	314572800	60	5429
2026-01-08 10:21:05.04	180.48	26.86	-45.1	-48.1	16.4	0.00e+00	0	43	0	316669952	60	5467
2026-01-08 10:21:05.75	180.54	26.97	-45.1	-48.0	16.4	0.00e+00	0	43	0	318767104	60	5444
2026-01-08 10:21:07.05	180.65	27.19	-45.1	-48.0	16.4	0.00e+00	0	43	0	320864256	60	5431
2026-01-08 10:21:07.76	180.71	27.31	-45.2	-48.1	16.3	0.00e+00	0	43	0	321912832	61	5179
2026-01-08 10:21:09.05	180.82	27.53	-45.2	-48.1	16.3	0.00e+00	0	43	0	324009984	61	5199
2026-01-08 10:21:09.77	180.88	27.65	-45.2	-48.1	16.4	0.00e+00	0	43	0	326107136	61	5178
2026-01-08 10:21:11.06	181.00	27.87	-45.2	-48.2	16.3	0.00e+00	0	43	0	328204288	61	5248
2026-01-08 10:21:12.02	181.08	28.04	-45.2	-48.2	16.2	0.00e+00	0	43	0	330301440	61	5248
2026-01-08 10:21:13.02	181.17	28.21	-45.3	-48.3	16.1	0.00e+00	0	43	0	331350016	61	5329
2026-01-08 10:21:14.02	181.26	28.38	-45.3	-48.3	16.2	0.00e+00	0	43	0	333447168	61	5296
2026-01-08 10:21:15.03	181.36	28.56	-45.2	-48.2	16.3	0.00e+00	0	43	0	335544320	61	5240
2026-01-08 10:21:16.03	181.45	28.73	-45.2	-48.2	16.2	0.00e+00	0	43	0	337641472	61	5259
2026-01-08 10:21:17.03	181.54	28.91	-45.2	-48.2	16.2	0.00e+00	0	43	0	339738624	61	5257
2026-01-08 10:21:18.04	181.64	29.09	-45.1	-48.1	16.4	0.00e+00	0	43	0	340787200	61	5172
2026-01-08 10:21:19.04	181.74	29.27	-45.1	-48.1	16.4	0.00e+00	0	43	0	342884352	61	5170
2026-01-08 10:21:20.04	181.83	29.45	-45.1	-48.0	16.4	0.00e+00	0	43	0	344981504	61	5139
2026-01-08 10:21:21.04	181.93	29.63	-45.2	-48.2	16.3	0.00e+00	0	43	0	347078656	61	5246
2026-01-08 10:21:22.04	182.03	29.81	-45.3	-48.4	16.1	0.00e+00	0	43	0	349175808	61	5343
2026-01-08 10:21:23.04	182.13	30.00	-45.4	-48.5	16.0	0.00e+00	0	43	0	350224384	61	5460
2026-01-08 10:21:24.05	182.23	30.18	-45.5	-48.6	15.9	0.00e+00	0	43	0	352321536	61	5500
2026-01-08 10:21:25.05	182.34	30.37	-45.6	-48.7	15.8	0.00e+00	0	43	0	354418688	61	5571
2026-01-08 10:21:26.05	182.44	30.55	-45.6	-48.8	15.7	0.00e+00	0	43	0	356515840	61	5612
2026-01-08 10:21:27.06	182.55	30.74	-45.7	-48.8	15.7	0.00e+00	0	43	0	358612992	62	5321
2026-01-08 10:21:28.06	182.65	30.93	-45.8	-49.0	15.5	0.00e+00	0	43	0	359661568	62	5420
2026-01-08 10:21:29.06	182.76	31.12	-45.7	-48.9	15.6	0.00e+00	0	43	0	361758720	62	5387
2026-01-08 10:21:30.07	182.87	31.32	-45.9	-49.2	15.3	0.00e+00	0	43	0	363855872	62	5560
2026-01-08 10:21:31.07	182.98	31.51	-45.8	-49.0	15.5	0.00e+00	0	43	0	365953024	62	5458
2026-01-08 10:21:32.07	183.09	31.70	-46.0	-49.2	15.3	0.00e+00	0	43	0	368050176	62	5580
2026-01-08 10:21:33.09	183.20	31.90	-46.0	-49.2	15.3	0.00e+00	0	43	0	369098752	62	5587
2026-01-08 10:21:34.10	183.32	32.10	-46.1	-49.5	15.0	0.00e+00	0	43	0	371195904	63	5414
2026-01-08 10:21:35.18	183.44	32.31	-46.1	-49.3	15.2	0.00e+00	0	43	0	373293056	63	5336
2026-01-08 10:21:36.04	183.54	32.48	-46.1	-49.4	15.1	0.00e+00	0	43	0	375390208	63	5387
2026-01-08 10:21:37.19	183.68	32.71	-46.1	-49.4	15.2	0.00e+00	0	43	0	377487360	63	5349
2026-01-08 10:21:38.05	183.78	32.88	-46.1	-49.5	15.0	0.00e+00	0	43	0	378535936	63	5419
2026-01-08 10:21:39.19	183.92	33.11	-46.0	-49.3	15.3	0.00e+00	0	43	0	380633088	63	5292
2026-01-08 10:21:40.05	184.02	33.29	-46.0	-49.2	15.4	0.00e+00	0	43	0	382730240	63	5224
2026-01-08 10:21:41.20	184.17	33.52	-45.9	-49.1	15.5	0.00e+00	0	43	0	384827392	63	5163
2026-01-08 10:21:42.06	184.27	33.70	-45.9	-49.1	15.5	0.00e+00	0	43	0	385875968	63	5167
2026-01-08 10:21:43.21	184.42	33.94	-45.8	-48.9	15.6	0.00e+00	0	43	0	387973120	63	5052
2026-01-08 10:21:44.07	184.53	34.11	-45.6	-48.6	15.8	0.00e+00	0	43	0	390070272	63	4923
2026-01-08 10:21:45.21	184.68	34.35	-45.5	-48.5	16.0	0.00e+00	0	43	0	392167424	62	5127
2026-01-08 10:21:46.07	184.79	34.53	-45.5	-48.6	16.0	0.00e+00	0	43	0	394264576	62	5171
2026-01-08 10:21:47.21	184.94	34.78	-45.5	-48.6	16.0	0.00e+00	0	43	0	396361728	62	5183
2026-01-08 10:21:48.08	185.06	34.96	-45.6	-48.7	15.8	0.00e+00	0	43	0	397410304	62	5260
2026-01-08 10:21:49.33	185.23	35.23	-45.6	-48.6	15.9	0.00e+00	0	43	0	399507456	62	5205
2026-01-08 10:21:50.08	185.34	35.39	-45.6	-48.7	15.9	0.00e+00	0	43	0	401604608	62	5219
2026-01-08 10:21:51.55	185.54	35.71	-45.6	-48.7	15.8	0.00e+00	0	43	0	403701760	62	5270
2026-01-08 10:21:52.26	185.64	35.86	-45.7	-48.8	15.7	0.00e+00	0	43	0	405798912	62	5338
2026-01-08 10:21:53.64	185.84	36.17	-45.8	-49.1	15.5	0.00e+00	0	43	0	407896064	62	5467
2026-01-08 10:21:54.36	185.95	36.33	-45.8	-49.0	15.6	0.00e+00	0	43	0	408944640	62	5405
2026-01-08 10:21:55.65	186.14	36.61	-46.0	-49.4	15.2	7.00e-07	0	43	0	412090368	62	5658
2026-01-08 10:21:56.37	186.25	36.78	-46.1	-49.4	15.1	0.00e+00	0	43	0	413138944	62	5708
2026-01-08 10:21:57.79	186.46	37.10	-46.1	-49.5	15.1	0.00e+00	0	43	0	415236096	62	5737
2026-01-08 10:21:58.50	186.57	37.26	-46.3	-49.8	14.7	7.00e-07	0	43	0	417333248	63	5655
2026-01-08 10:21:59.79	186.78	37.55	-46.4	-49.9	14.6	7.00e-07	0	43	0	419430400	63	5677
2026-01-08 10:22:00.51	186.89	37.72	-46.5	-49.9	14.6	0.00e+00	0	43	0	420478976	63	5717
2026-01-08 10:22:01.80	187.10	38.01	-46.7	-50.3	14.3	0.00e+00	0	43	0	423624704	63	5955
2026-01-08 10:22:02.51	187.22	38.18	-46.7	-50.4	14.1	7.00e-07	0	43	0	424673280	64	5675
2026-01-08 10:22:03.81	187.43	38.48	-46.8	-50.6	13.8	7.00e-07	0	43	0	426770432	64	5836
2026-01-08 10:22:04.52	187.55	38.65	-47.0	-51.0	13.5	5.30e-06	0	43	0	428867584	64	6076
2026-01-08 10:22:05.81	187.77	38.95	-47.1	-51.0	13.5	1.22e-05	0	43	0	430964736	64	6095
2026-01-08 10:22:06.57	187.90	39.13	-47.2	-51.2	13.3	1.44e-05	0	43	0	432013312	64	6228
2026-01-08 10:22:07.86	188.13	39.44	-46.9	-50.8	13.7	9.10e-06	0	43	0	435159040	65	5607
2026-01-08 10:22:08.66	188.27	39.63	-46.9	-50.6	13.9	4.50e-06	0	43	0	436207616	65	5509
2026-01-08 10:22:10.12	188.54	39.99	-46.8	-50.6	13.9	2.20e-06	0	43	0	439353344	65	5471
2026-01-08 10:22:10.84	188.67	40.16	-46.8	-50.5	14.1	1.50e-06	0	43	0	440401920	65	5408
2026-01-08 10:22:12.13	188.91	40.48	-46.9	-50.6	13.9	4.50e-06	0	43	0	442499072	65	5518
2026-01-08 10:22:12.84	189.04	40.65	-47.0	-50.9	13.6	3.80e-06	0	43	0	443547648	65	5684
2026-01-08 10:22:14.13	189.29	40.97	-46.9	-50.6	13.9	3.00e-06	0	43	0	446693376	65	5527
2026-01-08 10:22:14.85	189.43	41.15	-47.0	-50.8	13.8	6.10e-06	0	43	0	447741952	65	5608
2026-01-08 10:22:16.14	189.69	41.47	-46.9	-50.7	13.8	4.50e-06	0	43	0	449839104	65	5548
2026-01-08 10:22:16.85	189.83	41.65	-46.7	-50.4	14.1	7.00e-07	0	43	0	451936256	65	5352
2026-01-08 10:22:18.15	190.10	41.98	-46.4	-49.9	14.6	7.00e-07	0	43	0	454033408	64	5381
2026-01-08 10:22:18.86	190.25	42.16	-46.4	-49.8	14.7	0.00e+00	0	43	0	455081984	64	5333
2026-01-08 10:22:20.15	190.52	42.49	-46.1	-49.4	15.2	0.00e+00	0	43	0	458227712	64	5050
2026-01-08 10:22:21.21	190.75	42.76	-46.0	-49.2	15.2	0.00e+00	0	43	0	459276288	64	4959
2026-01-08 10:22:22.07	190.93	42.98	-46.1	-49.4	15.1	0.00e+00	0	43	0	461373440	63	5380
2026-01-08 10:22:23.21	191.19	43.28	-46.2	-49.4	15.1	0.00e+00	0	43	0	463470592	63	5391
2026-01-08 10:22:24.07	191.38	43.50	-46.1	-49.4	15.2	0.00e+00	0	43	0	465567744	63	5346
2026-01-08 10:22:25.22	191.64	43.81	-45.8	-48.9	15.6	0.00e+00	0	43	0	467664896	63	5099
2026-01-08 10:22:26.08	191.84	44.03	-45.8	-48.8	15.7	0.00e+00	0	43	0	468713472	63	5039
2026-01-08 10:22:27.30	192.13	44.35	-45.7	-48.8	15.7	0.00e+00	0	43	0	470810624	63	5008
2026-01-08 10:22:28.16	192.34	44.58	-45.9	-49.0	15.6	0.00e+00	0	43	0	472907776	63	5124
2026-01-08 10:22:29.31	192.62	44.89	-45.9	-49.0	15.5	0.00e+00	0	43	0	475004928	63	5138
2026-01-08 10:22:30.17	192.84	45.12	-46.0	-49.2	15.4	0.00e+00	0	43	0	476053504	63	5231
2026-01-08 10:22:31.44	193.16	45.47	-46.3	-49.7	14.9	0.00e+00	0	43	0	479199232	63	5535
2026-01-08 10:22:32.17	193.35	45.66	-46.4	-49.9	14.7	0.00e+00	0	43	0	480247808	63	5663
2026-01-08 10:22:33.65	193.73	46.07	-46.2	-49.6	15.0	0.00e+00	0	43	0	483393536	63	5482
2026-01-08 10:22:34.37	193.93	46.26	-46.1	-49.3	15.2	0.00e+00	0	43	0	484442112	63	5334
2026-01-08 10:22:35.66	194.28	46.62	-46.0	-49.2	15.4	0.00e+00	0	43	0	486539264	63	5260
2026-01-08 10:22:36.38	194.48	46.82	-46.1	-49.4	15.2	0.00e+00	0	43	0	488636416	63	5362
2026-01-08 10:22:37.79	194.88	47.21	-46.1	-49.4	15.2	0.00e+00	0	43	0	490733568	63	5361
2026-01-08 10:22:38.51	195.08	47.41	-46.2	-49.5	15.1	0.00e+00	0	43	0	491782144	63	5408
2026-01-08 10:22:39.80	195.46	47.77	-46.2	-49.4	15.2	0.00e+00	0	43	0	494927872	63	5383
2026-01-08 10:22:40.52	195.67	47.97	-46.0	-49.3	15.3	0.00e+00	0	43	0	495976448	63	5286
2026-01-08 10:22:41.81	196.07	48.33	-45.8	-48.9	15.7	0.00e+00	0	43	0	498073600	63	5045
2026-01-08 10:22:42.52	196.28	48.53	-45.7	-48.7	15.8	0.00e+00	0	43	0	500170752	63	4982
2026-01-08 10:22:43.82	196.69	48.90	-45.6	-48.6	16.0	0.00e+00	0	43	0	502267904	62	5175
2026-01-08 10:22:44.53	196.92	49.10	-45.7	-48.8	15.8	0.00e+00	0	43	0	503316480	62	5294
2026-01-08 10:22:45.82	197.34	49.47	-45.3	-48.3	16.3	0.00e+00	0	43	0	505413632	62	4999
2026-01-08 10:22:46.54	197.58	49.68	-45.0	-47.8	16.7	0.00e+00	0	43	0	507510784	62	4739
2026-01-08 10:22:47.82	198.01	50.05	-44.4	-47.0	17.5	0.00e+00	0	43	0	509607936	60	4865
2026-01-08 10:22:48.54	198.26	50.25	-44.1	-46.7	17.9	0.00e+00	0	43	0	510656512	60	4652
2026-01-08 10:22:49.83	198.72	50.62	-43.8	-46.3	18.1	0.00e+00	0	43	0	513802240	59	4707
2026-01-08 10:22:50.55	198.97	50.83	-43.5	-45.9	18.5	0.00e+00	0	43	0	514850816	59	4504
2026-01-08 10:22:51.84	199.44	51.21	-43.2	-45.5	18.8	0.00e+00	0	43	0	516947968	58	4560
2026-01-08 10:22:52.56	199.71	51.41	-43.0	-45.2	19.1	0.00e+00	0	43	0	517996544	57	4678
2026-01-08 10:22:53.85	200.20	51.79	-42.4	-44.5	19.7	0.00e+00	0	43	0	521142272	56	4571
2026-01-08 10:22:54.57	200.48	52.00	-42.2	-44.3	19.9	0.00e+00	0	43	0	522190848	56	4456
2026-01-08 10:22:55.85	200.98	52.37	-41.8	-43.8	20.2	0.00e+00	0	43	0	524288000	55	4475
2026-01-08 10:22:56.57	201.27	52.58	-41.4	-43.4	20.5	0.00e+00	0	43	0	526385152	54	4500
2026-01-08 10:22:57.86	201.80	52.96	-41.3	-43.3	20.6	0.00e+00	0	43	0	528482304	54	4463
2026-01-08 10:22:58.61	202.12	53.18	-41.3	-43.3	20.6	0.00e+00	0	43	0	529530880	54	4460
2026-01-08 10:23:00.25	202.82	53.66	-41.1	-43.1	20.8	0.00e+00	0	43	0	532676608	54	4351
2026-01-08 10:23:00.82	203.07	53.82	-41.0	-43.0	20.9	0.00e+00	0	43	0	533725184	54	4309
2026-01-08 10:23:02.41	203.78	54.29	-41.3	-43.3	20.6	0.00e+00	0	43	0	536870912	54	4452
2026-01-08 10:23:02.98	204.04	54.46	-41.4	-43.4	20.6	0.00e+00	0	43	0	537919488	54	4504
2026-01-08 10:23:04.56	204.78	54.92	-41.7	-43.8	20.2	0.00e+00	0	43	0	541065216	54	4715
2026-01-08 10:23:05.16	205.07	55.09	-41.9	-44.0	20.0	0.00e+00	0	43	0	542113792	54	4856
2026-01-08 10:23:06.76	205.85	55.56	-42.2	-44.3	19.7	0.00e+00	0	43	0	545259520	54	5007
2026-01-08 10:23:07.33	206.14	55.73	-42.3	-44.4	19.6	0.00e+00	0	43	0	546308096	55	4787
2026-01-08 10:23:08.92	206.95	56.19	-43.1	-45.4	19.0	0.00e+00	0	43	0	549453824	56	5056
2026-01-08 10:23:09.49	207.25	56.35	-43.5	-45.9	18.5	0.00e+00	0	43	0	550502400	57	5058
2026-01-08 10:23:11.07	208.09	56.81	-43.8	-46.2	18.2	0.00e+00	0	43	0	553648128	58	4979
2026-01-08 10:23:12.09	208.65	57.10	-43.8	-46.2	18.2	0.00e+00	0	43	0	554696704	58	4938
2026-01-08 10:23:13.10	209.22	57.39	-44.0	-46.4	18.0	0.00e+00	0	43	0	556793856	58	5095
2026-01-08 10:23:14.10	209.79	57.68	-44.4	-47.0	17.5	0.00e+00	0	43	0	558891008	59	5105
2026-01-08 10:23:15.11	210.38	57.96	-44.6	-47.2	17.2	0.00e+00	0	43	0	560988160	59	5273
2026-01-08 10:23:16.14	211.00	58.25	-44.6	-47.3	17.2	0.00e+00	0	43	0	563085312	59	5280
2026-01-08 10:23:17.17	211.63	58.54	-44.7	-47.4	17.1	0.00e+00	0	43	0	564133888	60	5092
2026-01-08 10:23:18.21	212.27	58.83	-44.9	-47.7	16.9	0.00e+00	0	43	0	566231040	60	5243
2026-01-08 10:23:19.20	212.91	59.11	-44.5	-47.1	17.3	0.00e+00	0	43	0	568328192	60	4923
2026-01-08 10:23:20.29	213.61	59.41	-44.3	-46.9	17.6	0.00e+00	0	43	0	570425344	60	4776
2026-01-08 10:23:21.15	214.19	59.64	-44.2	-46.8	17.7	0.00e+00	0	43	0	572522496	60	4739
2026-01-08 10:23:22.49	215.10	60.00	-44.8	-47.6	17.0	0.00e+00	0	43	0	574619648	60	5176
2026-01-08 10:23:23.20	215.59	60.19	-44.7	-47.4	17.1	0.00e+00	0	43	0	575668224	60	5090
2026-01-08 10:23:24.49	216.51	60.53	-43.9	-46.4	18.0	0.00e+00	0	43	0	578813952	59	4781
2026-01-08 10:23:25.21	217.03	60.72	-43.6	-46.0	18.4	0.00e+00	0	43	0	579862528	59	4569
2026-01-08 10:23:26.50	217.98	61.06	-43.6	-46.0	18.4	0.00e+00	0	43	0	581959680	59	4563
2026-01-08 10:23:27.21	218.51	61.24	-43.5	-45.8	18.6	0.00e+00	0	43	0	583008256	58	4751
2026-01-08 10:23:28.50	219.51	61.56	-43.6	-46.0	18.5	0.00e+00	0	43	0	586153984	58	4844
2026-01-08 10:23:29.22	220.07	61.74	-43.8	-46.2	18.2	0.00e+00	0	43	0	587202560	58	4953
2026-01-08 10:23:30.51	221.11	62.06	-43.4	-45.7	18.7	0.00e+00	0	43	0	589299712	58	4691
2026-01-08 10:23:31.22	221.69	62.23	-43.1	-45.4	18.9	0.00e+00	0	43	0	591396864	58	4498
2026-01-08 10:23:32.55	222.79	62.55	-43.4	-45.7	18.7	0.00e+00	0	43	0	593494016	57	4961
2026-01-08 10:23:33.26	223.40	62.71	-43.8	-46.2	18.2	0.00e+00	0	43	0	594542592	58	4976
2026-01-08 10:23:34.55	224.52	63.01	-43.8	-46.3	18.1	0.00e+00	0	43	0	597688320	58	5001
2026-01-08 10:23:35.27	225.15	63.17	-43.5	-45.9	18.5	0.00e+00	0	43	0	598736896	58	4787
2026-01-08 10:23:36.68	226.42	63.47	-43.4	-45.8	18.6	0.00e+00	0	43	0	600834048	58	4722
2026-01-08 10:23:37.40	227.08	63.63	-43.4	-45.7	18.6	0.00e+00	0	43	0	602931200	58	4699
2026-01-08 10:23:38.74	228.33	63.90	-43.7	-46.1	18.3	0.00e+00	0	43	0	605028352	58	4876
2026-01-08 10:23:39.45	229.01	64.04	-44.1	-46.6	17.9	0.00e+00	0	43	0	606076928	58	5192
2026-01-08 10:23:40.85	230.37	64.32	-44.2	-46.7	17.8	0.00e+00	0	43	0	609222656	59	4933
2026-01-08 10:23:41.57	231.08	64.45	-43.8	-46.2	18.2	0.00e+00	0	43	0	610271232	59	4688
2026-01-08 10:23:42.86	232.37	64.69	-43.7	-46.0	18.4	0.00e+00	0	43	0	612368384	59	4594
2026-01-08 10:23:43.58	233.10	64.81	-44.0	-46.4	18.0	0.00e+00	0	43	0	614465536	59	4779
2026-01-08 10:23:44.86	234.43	65.03	-44.5	-47.1	17.4	0.00e+00	0	43	0	616562688	59	5210
2026-01-08 10:23:45.58	235.18	65.14	-44.5	-47.1	17.4	0.00e+00	0	43	0	617611264	59	5169
2026-01-08 10:23:46.87	236.55	65.34	-44.4	-47.0	17.5	0.00e+00	0	43	0	620756992	59	5114
2026-01-08 10:23:47.58	237.32	65.45	-44.3	-46.8	17.6	0.00e+00	0	43	0	621805568	59	5033
2026-01-08 10:23:48.88	238.74	65.63	-44.7	-47.3	17.2	0.00e+00	0	43	0	623902720	60	5039
2026-01-08 10:23:49.59	239.52	65.72	-45.0	-47.8	16.8	0.00e+00	0	43	0	624951296	60	5322
2026-01-08 10:23:50.88	240.96	65.88	-45.1	-47.9	16.7	0.00e+00	0	43	0	628097024	61	5079
2026-01-08 10:23:51.60	241.78	65.96	-44.9	-47.6	16.9	0.00e+00	0	43	0	629145600	61	4924
2026-01-08 10:23:52.89	243.25	66.10	-45.4	-48.3	16.3	0.00e+00	0	43	0	631242752	61	5316
2026-01-08 10:23:53.60	244.07	66.17	-45.7	-48.8	15.9	0.00e+00	0	43	0	633339904	62	5301
2026-01-08 10:23:54.89	245.57	66.28	-45.5	-48.5	16.1	0.00e+00	0	43	0	635437056	62	5127
2026-01-08 10:23:55.61	246.41	66.34	-45.4	-48.3	16.2	0.00e+00	0	43	0	636485632	62	5021
2026-01-08 10:23:56.90	247.93	66.43	-45.6	-48.7	15.9	0.00e+00	0	43	0	639631360	62	5232
2026-01-08 10:23:57.61	248.78	66.48	-45.8	-49.0	15.9	0.00e+00	0	43	0	640679936	62	5424
2026-01-08 10:23:58.90	250.32	66.55	-46.3	-49.7	15.0	0.00e+00	0	43	0	642777088	63	5541
2026-01-08 10:23:59.62	251.18	66.58	-46.3	-49.7	15.1	0.00e+00	0	43	0	643825664	63	5577
2026-01-08 10:24:00.91	252.73	66.62	-45.4	-48.4	16.3	0.00e+00	0	43	0	646971392	62	5047
2026-01-08 10:24:01.68	253.66	66.64	-45.0	-47.8	16.9	0.00e+00	0	43	0	648019968	61	5013
2026-01-08 10:24:03.28	255.60	66.66	-45.4	-48.3	16.4	0.00e+00	0	43	0	651165696	61	5312
2026-01-08 10:24:04.14	256.64	66.67	-45.7	-48.8	15.9	0.00e+00	0	43	0	652214272	62	5316
2026-01-08 10:24:05.29	258.03	66.66	-45.3	-48.2	16.4	0.00e+00	0	43	0	654311424	62	4969
2026-01-08 10:24:06.15	259.07	66.64	-44.9	-47.8	16.8	0.00e+00	0	43	0	656408576	61	5027
2026-01-08 10:24:07.29	260.44	66.61	-44.9	-47.7	16.8	0.00e+00	0	43	0	658505728	61	4950
2026-01-08 10:24:08.15	261.48	66.58	-45.3	-48.2	16.4	0.00e+00	0	43	0	660602880	61	5265
2026-01-08 10:24:09.41	262.99	66.53	-44.9	-47.6	16.9	0.00e+00	0	43	0	662700032	61	4922
2026-01-08 10:24:10.18	263.90	66.48	-44.3	-46.8	17.7	0.00e+00	0	43	0	663748608	60	4739
2026-01-08 10:24:11.47	265.43	66.40	-44.4	-46.9	17.7	0.00e+00	0	43	0	666894336	60	4785
2026-01-08 10:24:12.19	266.28	66.35	-45.0	-47.8	16.8	0.00e+00	0	43	0	667942912	60	5320
2026-01-08 10:24:13.69	268.03	66.22	-45.4	-48.3	16.2	0.00e+00	0	43	0	671088640	62	5038
2026-01-08 10:24:14.40	268.86	66.16	-44.7	-47.4	17.3	0.00e+00	0	43	0	672137216	61	4761
2026-01-08 10:24:15.76	270.42	66.02	-44.2	-46.7	17.9	0.00e+00	0	43	0	674234368	60	4693
2026-01-08 10:24:16.47	271.22	65.94	-44.4	-46.9	17.7	0.00e+00	0	43	0	676331520	60	4812
2026-01-08 10:24:17.76	272.67	65.79	-45.4	-48.4	16.3	0.00e+00	0	43	0	678428672	61	5354
2026-01-08 10:24:18.48	273.47	65.70	-45.9	-49.0	15.7	0.00e+00	0	43	0	679477248	62	5461
2026-01-08 10:24:19.77	274.89	65.53	-45.3	-48.2	16.5	0.00e+00	0	43	0	681574400	62	4943
2026-01-08 10:24:20.49	275.67	65.42	-44.9	-47.6	17.0	0.00e+00	0	43	0	683671552	61	4918
2026-01-08 10:24:21.78	277.05	65.23	-45.2	-48.1	16.6	0.00e+00	0	43	0	685768704	61	5170
2026-01-08 10:24:22.50	277.81	65.12	-45.4	-48.3	16.3	0.00e+00	0	43	0	686817280	61	5321
2026-01-08 10:24:23.79	279.15	64.91	-44.4	-46.9	17.6	0.00e+00	0	43	0	689963008	60	4791
2026-01-08 10:24:24.50	279.88	64.79	-44.1	-46.6	17.9	0.00e+00	0	43	0	691011584	60	4643
2026-01-08 10:24:25.79	281.18	64.56	-44.5	-47.2	17.4	0.00e+00	0	43	0	693108736	60	4935
2026-01-08 10:24:26.60	281.99	64.41	-44.5	-47.1	17.5	0.00e+00	0	43	0	695205888	60	4912
2026-01-08 10:24:27.75	283.11	64.19	-43.4	-45.8	18.6	0.00e+00	0	43	0	697303040	58	4741
2026-01-08 10:24:28.61	283.94	64.02	-42.7	-44.9	19.5	0.00e+00	0	43	0	698351616	57	4512
2026-01-08 10:24:29.75	285.02	63.79	-41.8	-43.9	20.2	0.00e+00	0	43	0	700448768	55	4499
2026-01-08 10:24:30.61	285.81	63.61	-41.8	-43.9	20.1	0.00e+00	0	43	0	702545920	55	4530
2026-01-08 10:24:31.76	286.86	63.36	-42.9	-45.2	19.2	0.00e+00	0	43	0	704643072	56	4949
2026-01-08 10:24:32.62	287.63	63.18	-42.1	-44.2	20.0	0.00e+00	0	43	0	705691648	56	4430
2026-01-08 10:24:33.76	288.63	62.92	-40.1	-42.0	21.8	0.00e+00	0	43	0	707788800	52	4297
2026-01-08 10:24:34.62	289.38	62.73	-39.8	-41.6	22.1	0.00e+00	0	43	0	709885952	51	4378
2026-01-08 10:24:35.76	290.34	62.46	-40.6	-42.5	21.4	0.00e+00	0	43	0	711983104	51	4841
2026-01-08 10:24:36.62	291.05	62.26	-40.6	-42.6	21.2	0.00e+00	0	43	0	714080256	52	4599
2026-01-08 10:24:37.77	291.99	61.98	-40.4	-42.3	21.4	0.00e+00	0	43	0	716177408	52	4472
2026-01-08 10:24:38.63	292.68	61.77	-40.3	-42.2	21.5	0.00e+00	0	43	0	717225984	52	4417
2026-01-08 10:24:39.77	293.57	61.49	-40.8	-42.7	21.1	0.00e+00	0	43	0	719323136	52	4691
2026-01-08 10:24:40.63	294.23	61.27	-41.1	-43.1	20.8	0.00e+00	0	43	0	721420288	52	4879
2026-01-08 10:24:41.78	295.09	60.97	-42.1	-44.2	19.9	0.00e+00	0	43	0	723517440	54	4930
2026-01-08 10:24:42.64	295.72	60.75	-42.4	-44.6	19.5	0.00e+00	0	43	0	724566016	55	4887
2026-01-08 10:24:43.78	296.54	60.45	-42.3	-44.4	19.7	0.00e+00	0	43	0	726663168	55	4789
2026-01-08 10:24:44.64	297.15	60.23	-42.4	-44.5	19.6	0.00e+00	0	43	0	728760320	55	4854
2026-01-08 10:24:45.79	297.95	59.92	-43.5	-45.9	18.5	0.00e+00	0	43	0	730857472	57	5053
2026-01-08 10:24:46.65	298.53	59.69	-44.0	-46.4	18.0	0.00e+00	0	43	0	732954624	58	5090
2026-01-08 10:24:47.80	299.29	59.37	-43.7	-46.1	18.3	0.00e+00	0	43	0	735051776	58	4915
2026-01-08 10:24:48.65	299.84	59.14	-43.6	-46.0	18.4	0.00e+00	0	43	0	736100352	58	4846
2026-01-08 10:24:49.91	300.64	58.79	-43.7	-46.1	18.3	0.00e+00	0	43	0	738197504	58	4907
2026-01-08 10:24:50.66	301.11	58.59	-43.6	-45.9	18.5	0.00e+00	0	43	0	740294656	58	4801
2026-01-08 10:24:52.14	302.01	58.17	-43.3	-45.7	18.8	0.00e+00	0	43	0	742391808	58	4652
2026-01-08 10:24:52.86	302.44	57.97	-43.5	-45.9	18.6	0.00e+00	0	43	0	744488960	58	4771
2026-01-08 10:24:54.26	303.25	57.57	-42.6	-44.8	19.5	0.00e+00	0	43	0	746586112	57	4484
2026-01-08 10:24:54.98	303.66	57.37	-42.2	-44.3	19.8	0.00e+00	0	43	0	747634688	56	4489
2026-01-08 10:24:56.27	304.38	57.00	-42.4	-44.5	19.8	0.00e+00	0	43	0	750780416	56	4567
2026-01-08 10:24:56.98	304.76	56.80	-42.4	-44.5	19.8	0.00e+00	0	43	0	751828992	56	4555
2026-01-08 10:24:58.28	305.46	56.42	-41.4	-43.4	20.5	0.00e+00	0	43	0	753926144	54	4524
2026-01-08 10:24:58.99	305.83	56.22	-41.1	-43.1	20.8	0.00e+00	0	43	0	756023296	54	4365
2026-01-08 10:25:00.28	306.49	55.84	-41.1	-43.2	20.7	0.00e+00	0	43	0	758120448	54	4410
2026-01-08 10:25:01.00	306.85	55.64	-40.9	-43.0	20.8	0.00e+00	0	43	0	759169024	53	4592
2026-01-08 10:25:02.29	307.49	55.26	-40.3	-42.3	21.4	0.00e+00	0	43	0	761266176	52	4486
2026-01-08 10:25:03.07	307.86	55.03	-40.5	-42.5	21.3	0.00e+00	0	43	0	763363328	52	4549
2026-01-08 10:25:04.68	308.62	54.57	-41.0	-43.0	20.8	0.00e+00	0	43	0	766509056	52	4866
2026-01-08 10:25:05.54	309.01	54.32	-40.9	-42.9	21.0	0.00e+00	0	43	0	767557632	52	4764
2026-01-08 10:25:06.68	309.52	53.98	-41.1	-43.1	20.8	0.00e+00	0	43	0	769654784	52	4881
2026-01-08 10:25:07.54	309.90	53.73	-41.4	-43.4	20.5	0.00e+00	0	43	0	771751936	53	4783
2026-01-08 10:25:08.69	310.40	53.40	-41.5	-43.6	20.4	0.00e+00	0	43	0	773849088	53	4875
2026-01-08 10:25:09.55	310.76	53.15	-41.6	-43.7	20.3	0.00e+00	0	43	0	774897664	53	4935
2026-01-08 10:25:10.70	311.24	52.81	-42.2	-44.4	19.5	0.00e+00	0	43	0	778043392	55	4766
2026-01-08 10:25:11.55	311.58	52.57	-42.6	-44.9	19.3	0.00e+00	0	43	0	779091968	55	5054
2026-01-08 10:25:12.70	312.04	52.23	-43.4	-45.8	18.7	0.00e+00	0	43	0	781189120	57	4990
2026-01-08 10:25:13.56	312.38	51.98	-43.4	-45.8	18.6	0.00e+00	0	43	0	783286272	57	5015
2026-01-08 10:25:14.70	312.81	51.65	-43.6	-46.1	18.4	0.00e+00	0	43	0	785383424	57	5162
2026-01-08 10:25:15.66	313.17	51.37	-43.9	-46.4	18.1	0.00e+00	0	43	0	786432000	58	5044
2026-01-08 10:25:16.66	313.54	51.09	-44.2	-46.8	17.7	0.00e+00	0	43	0	788529152	59	5012
2026-01-08 10:25:17.66	313.90	50.80	-44.4	-47.1	17.5	0.00e+00	0	43	0	790626304	59	5161
2026-01-08 10:25:18.67	314.26	50.51	-44.9	-47.6	17.0	0.00e+00	0	43	0	792723456	60	5210
2026-01-08 10:25:19.67	314.61	50.22	-45.3	-48.3	16.4	0.00e+00	0	43	0	794820608	61	5306
2026-01-08 10:25:20.68	314.96	49.93	-45.8	-49.1	15.6	0.00e+00	0	43	0	795869184	62	5492
2026-01-08 10:25:21.68	315.29	49.65	-45.7	-48.8	15.8	0.00e+00	0	43	0	797966336	62	5334
2026-01-08 10:25:22.69	315.62	49.36	-45.6	-48.7	16.0	0.00e+00	0	43	0	800063488	62	5242
2026-01-08 10:25:23.69	315.95	49.08	-45.9	-49.1	15.5	0.00e+00	0	43	0	802160640	62	5513
2026-01-08 10:25:24.69	316.27	48.79	-46.6	-50.4	14.2	0.00e+00	0	43	0	803209216	64	5663
2026-01-08 10:25:25.69	316.58	48.51	-47.1	-51.2	13.4	1.14e-05	0	43	0	805306368	64	6213
2026-01-08 10:25:26.69	316.88	48.23	-46.6	-50.4	14.2	1.50e-06	0	43	0	807403520	64	5681
2026-01-08 10:25:27.70	317.19	47.95	-46.3	-49.7	14.8	7.00e-07	0	43	0	809500672	64	5260
2026-01-08 10:25:28.70	317.48	47.67	-46.4	-49.9	14.7	0.00e+00	0	43	0	811597824	64	5364
2026-01-08 10:25:29.85	317.82	47.35	-46.8	-50.7	14.0	2.20e-06	0	43	0	813694976	64	5863
2026-01-08 10:25:30.74	318.07	47.10	-46.7	-50.4	14.2	3.00e-06	0	43	0	814743552	64	5673
2026-01-08 10:25:31.74	318.35	46.83	-46.0	-49.3	15.3	1.50e-06	0	43	0	816840704	63	5303
2026-01-08 10:25:32.75	318.63	46.55	-45.8	-48.9	15.7	0.00e+00	0	43	0	818937856	63	5063
2026-01-08 10:25:33.75	318.90	46.28	-45.5	-48.5	16.1	0.00e+00	0	43	0	821035008	62	5157
2026-01-08 10:25:34.75	319.16	46.01	-45.9	-49.1	15.5	0.00e+00	0	43	0	823132160	62	5506
2026-01-08 10:25:35.75	319.42	45.73	-46.1	-49.4	15.3	0.00e+00	0	43	0	824180736	62	5673
2026-01-08 10:25:36.76	319.68	45.46	-45.6	-48.7	15.9	0.00e+00	0	43	0	826277888	62	5236
2026-01-08 10:25:37.76	319.94	45.19	-44.9	-47.7	16.9	0.00e+00	0	43	0	828375040	61	4934
2026-01-08 10:25:38.76	320.19	44.93	-44.2	-46.8	17.7	0.00e+00	0	43	0	830472192	60	4733
2026-01-08 10:25:39.76	320.43	44.66	-43.7	-46.2	18.2	0.00e+00	0	43	0	831520768	59	4671
2026-01-08 10:25:40.77	320.67	44.39	-43.4	-45.8	18.6	0.00e+00	0	43	0	833617920	58	4726
2026-01-08 10:25:41.76	320.91	44.13	-43.2	-45.5	18.8	0.00e+00	0	43	0	835715072	58	4576
2026-01-08 10:25:42.77	321.14	43.87	-43.0	-45.2	19.1	0.00e+00	0	43	0	837812224	58	4439
2026-01-08 10:25:43.96	321.41	43.56	-43.2	-45.4	18.9	0.00e+00	0	43	0	839909376	58	4537
2026-01-08 10:25:44.85	321.61	43.33	-43.6	-45.9	18.5	0.00e+00	0	43	0	842006528	58	4806
2026-01-08 10:25:46.15	321.90	42.99	-45.2	-48.1	16.5	0.00e+00	0	43	0	844103680	60	5515
2026-01-08 10:25:46.87	322.06	42.81	-45.4	-48.5	16.2	0.00e+00	0	43	0	845152256	61	5408
2026-01-08 10:25:48.16	322.33	42.48	-44.2	-46.8	17.6	0.00e+00	0	43	0	847249408	60	4750
2026-01-08 10:25:48.87	322.48	42.30	-43.3	-45.6	18.7	0.00e+00	0	43	0	849346560	58	4632
2026-01-08 10:25:50.17	322.75	41.97	-42.4	-44.5	19.7	0.00e+00	0	43	0	851443712	56	4567
2026-01-08 10:25:50.88	322.90	41.79	-41.7	-43.7	20.2	0.00e+00	0	43	0	852492288	55	4435
2026-01-08 10:25:52.17	323.16	41.47	-41.8	-43.8	20.1	0.00e+00	0	43	0	855638016	54	4757
2026-01-08 10:25:52.98	323.32	41.26	-42.9	-45.1	19.2	0.00e+00	0	43	0	856686592	56	4878
2026-01-08 10:25:54.12	323.54	40.98	-44.0	-46.5	18.0	0.00e+00	0	43	0	858783744	58	5117
2026-01-08 10:25:55.22	323.75	40.71	-44.8	-47.6	17.0	0.00e+00	0	43	0	860880896	60	5185
2026-01-08 10:25:56.27	323.95	40.46	-44.9	-47.7	16.9	0.00e+00	0	43	0	862978048	60	5255
2026-01-08 10:25:57.38	324.16	40.19	-44.1	-46.7	17.8	0.00e+00	0	43	0	865075200	60	4665
2026-01-08 10:25:58.24	324.32	39.98	-43.4	-45.8	18.6	0.00e+00	0	43	0	867172352	58	4739
2026-01-08 10:25:59.39	324.52	39.70	-43.1	-45.4	18.9	0.00e+00	0	43	0	869269504	58	4519
2026-01-08 10:26:00.25	324.68	39.50	-42.7	-44.9	19.3	0.00e+00	0	43	0	870318080	57	4521
2026-01-08 10:26:01.40	324.88	39.22	-42.3	-44.5	19.7	0.00e+00	0	43	0	872415232	56	4570
2026-01-08 10:26:02.26	325.03	39.02	-42.6	-44.8	19.4	0.00e+00	0	43	0	874512384	56	4748
2026-01-08 10:26:03.40	325.22	38.75	-43.2	-45.6	18.7	0.00e+00	0	43	0	876609536	57	4891
2026-01-08 10:26:04.26	325.37	38.55	-43.9	-46.5	17.9	0.00e+00	0	43	0	877658112	58	5158
2026-01-08 10:26:05.41	325.56	38.28	-44.9	-47.8	16.8	0.00e+00	0	43	0	879755264	60	5327
2026-01-08 10:26:06.27	325.70	38.09	-44.9	-47.9	16.7	0.00e+00	0	43	0	881852416	60	5346
2026-01-08 10:26:07.49	325.89	37.81	-44.2	-46.9	17.6	0.00e+00	0	43	0	883949568	60	4795
2026-01-08 10:26:08.35	326.03	37.61	-43.6	-46.1	18.3	0.00e+00	0	43	0	886046720	59	4607
2026-01-08 10:26:09.50	326.21	37.35	-42.7	-45.0	19.3	0.00e+00	0	43	0	888143872	57	4576
2026-01-08 10:26:10.36	326.34	37.15	-42.4	-44.7	19.5	0.00e+00	0	43	0	889192448	56	4682
2026-01-08 10:26:11.50	326.52	36.90	-42.3	-44.5	19.7	0.00e+00	0	43	0	891289600	56	4567
2026-01-08 10:26:12.36	326.65	36.71	-42.4	-44.6	19.7	0.00e+00	0	43	0	893386752	56	4604
2026-01-08 10:26:13.51	326.82	36.45	-43.1	-45.4	18.9	0.00e+00	0	43	0	895483904	56	5094
2026-01-08 10:26:14.37	326.94	36.26	-43.7	-46.1	18.2	0.00e+00	0	43	0	896532480	57	5216
2026-01-08 10:26:15.51	327.11	36.01	-44.4	-47.2	17.3	0.00e+00	0	43	0	898629632	59	5233
2026-01-08 10:26:16.37	327.23	35.83	-44.6	-47.5	17.0	0.00e+00	0	43	0	900726784	60	5139
2026-01-08 10:26:17.52	327.39	35.58	-44.9	-47.9	16.6	0.00e+00	0	43	0	902823936	60	5401
2026-01-08 10:26:18.38	327.51	35.39	-45.0	-48.0	16.6	0.00e+00	0	43	0	903872512	60	5456
2026-01-08 10:26:19.53	327.67	35.15	-44.9	-47.9	16.7	0.00e+00	0	43	0	907018240	60	5356
2026-01-08 10:26:20.39	327.79	34.97	-44.7	-47.5	17.1	0.00e+00	0	43	0	908066816	60	5109
2026-01-08 10:26:21.53	327.94	34.72	-44.3	-46.9	17.6	0.00e+00	0	43	0	910163968	60	4777
2026-01-08 10:26:22.39	328.06	34.54	-43.8	-46.3	18.1	0.00e+00	0	43	0	912261120	59	4729
2026-01-08 10:26:23.61	328.22	34.29	-43.5	-45.9	18.5	0.00e+00	0	43	0	914358272	59	4525
2026-01-08 10:26:24.46	328.32	34.11	-43.5	-45.9	18.5	0.00e+00	0	43	0	915406848	58	4770
2026-01-08 10:26:25.61	328.47	33.88	-43.5	-45.9	18.4	0.00e+00	0	43	0	917504000	58	4810
2026-01-08 10:26:26.46	328.58	33.70	-43.7	-46.2	18.3	0.00e+00	0	43	0	919601152	58	4932
2026-01-08 10:26:27.61	328.72	33.47	-44.2	-46.8	17.7	0.00e+00	0	43	0	921698304	58	5284
2026-01-08 10:26:28.47	328.83	33.29	-44.4	-47.0	17.4	0.00e+00	0	43	0	923795456	59	5135
2026-01-08 10:26:29.62	328.97	33.06	-44.7	-47.4	17.1	0.00e+00	0	43	0	925892608	59	5368
2026-01-08 10:26:30.48	329.07	32.89	-44.9	-47.7	16.9	0.00e+00	0	43	0	926941184	60	5235
2026-01-08 10:26:31.62	329.20	32.66	-44.8	-47.6	16.9	0.00e+00	0	43	0	929038336	60	5190
2026-01-08 10:26:32.48	329.31	32.49	-44.9	-47.7	16.8	0.00e+00	0	43	0	931135488	60	5232
2026-01-08 10:26:33.63	329.44	32.27	-45.0	-47.8	16.7	0.00e+00	0	43	0	933232640	60	5340
2026-01-08 10:26:34.74	329.57	32.05	-45.1	-48.0	16.5	0.00e+00	0	43	0	935329792	60	5456
2026-01-08 10:26:35.60	329.66	31.89	-45.3	-48.4	16.2	0.00e+00	0	43	0	936378368	61	5373
2026-01-08 10:26:37.10	329.83	31.60	-46.2	-49.2	15.6	0.00e+00	0	43	0	939524096	62	5584
2026-01-08 10:26:37.81	329.91	31.46	-45.6	-49.0	15.6	0.00e+00	0	43	0	940572672	62	5432
2026-01-08 10:26:39.10	330.05	31.22	-46.0	-49.6	15.0	0.00e+00	0	43	0	943718400	62	5806
2026-01-08 10:26:39.82	330.13	31.08	-45.9	-49.5	15.1	0.00e+00	0	43	0	944766976	62	5751
2026-01-08 10:26:41.11	330.26	30.84	-45.7	-49.1	15.4	0.00e+00	0	43	0	946864128	62	5518
2026-01-08 10:26:41.83	330.34	30.70	-45.6	-48.9	15.6	0.00e+00	0	43	0	947912704	62	5390
2026-01-08 10:26:43.12	330.47	30.46	-45.2	-48.3	16.2	0.00e+00	0	44	0	951058432	62	5000
2026-01-08 10:26:43.97	330.56	30.31	-45.0	-48.0	16.6	0.00e+00	0	43	0	952107008	62	4840
2026-01-08 10:26:45.11	330.68	30.10	-44.9	-47.8	16.8	0.00e+00	0	43	0	954204160	61	4997
2026-01-08 10:26:46.21	330.79	29.90	-44.8	-47.6	16.9	0.00e+00	0	43	0	956301312	61	4914
2026-01-08 10:26:47.26	330.89	29.71	-44.8	-47.6	16.9	0.00e+00	0	43	0	958398464	61	4887
2026-01-08 10:26:48.34	331.00	29.51	-44.9	-47.7	16.8	0.00e+00	0	43	0	960495616	61	4953
2026-01-08 10:26:49.34	331.09	29.33	-44.9	-47.8	16.8	0.00e+00	0	43	0	962592768	61	5007
2026-01-08 10:26:50.35	331.19	29.16	-45.0	-47.9	16.6	0.00e+00	0	43	0	964689920	61	5077
2026-01-08 10:26:51.35	331.29	28.98	-45.1	-48.1	16.4	0.00e+00	0	43	0	965738496	61	5194
2026-01-08 10:26:52.35	331.38	28.80	-45.1	-48.1	16.4	0.00e+00	0	43	0	967835648	61	5215
2026-01-08 10:26:53.36	331.47	28.63	-45.1	-48.3	16.3	0.00e+00	0	43	0	969932800	61	5299
2026-01-08 10:26:54.36	331.57	28.45	-45.1	-48.2	16.3	0.00e+00	0	43	0	972029952	61	5279
2026-01-08 10:26:55.36	331.66	28.28	-45.0	-48.3	16.3	0.00e+00	0	43	0	974127104	61	5295
2026-01-08 10:26:56.37	331.75	28.11	-44.9	-48.2	16.4	0.00e+00	0	43	0	975175680	61	5253
2026-01-08 10:26:57.37	331.84	27.94	-44.9	-48.1	16.4	0.00e+00	0	43	0	977272832	61	5198
2026-01-08 10:26:58.37	331.93	27.77	-44.9	-48.1	16.4	0.00e+00	0	43	0	979369984	61	5199
2026-01-08 10:26:59.38	332.01	27.60	-44.7	-47.8	16.7	0.00e+00	0	43	0	981467136	61	4991
2026-01-08 10:27:00.38	332.10	27.43	-44.6	-47.6	16.9	0.00e+00	0	43	0	983564288	61	4893
2026-01-08 10:27:01.38	332.19	27.26	-44.6	-47.6	16.9	0.00e+00	0	43	0	984612864	61	4892
2026-01-08 10:27:02.39	332.27	27.09	-44.5	-47.4	17.1	0.00e+00	0	43	0	986710016	61	4808
2026-01-08 10:27:03.39	332.36	26.93	-44.4	-47.2	17.3	0.00e+00	0	43	0	988807168	60	4935
2026-01-08 10:27:04.40	332.44	26.76	-44.4	-47.1	17.3	0.00e+00	0	43	0	990904320	60	4923
2026-01-08 10:27:05.56	332.54	26.58	-44.1	-46.8	17.6	0.00e+00	0	43	0	993001472	60	4744
2026-01-08 10:27:06.42	332.61	26.44	-44.1	-46.7	17.8	0.00e+00	0	43	0	994050048	60	4678
2026-01-08 10:27:07.57	332.70	26.25	-44.0	-46.6	17.8	0.00e+00	0	43	0	996147200	59	4893
2026-01-08 10:27:08.43	332.77	26.11	-44.0	-46.5	17.9	0.00e+00	0	43	0	998244352	59	4832
2026-01-08 10:27:09.57	332.86	25.93	-43.9	-46.4	17.9	0.00e+00	0	43	0	1000341504	59	4797
2026-01-08 10:27:10.43	332.93	25.80	-44.0	-46.5	17.9	0.00e+00	0	43	0	1002438656	59	4841
2026-01-08 10:27:11.58	333.02	25.62	-44.1	-46.7	17.8	0.00e+00	0	43	0	1004535808	59	4936
2026-01-08 10:27:12.44	333.08	25.48	-44.3	-46.9	17.5	0.00e+00	0	43	0	1005584384	59	5071
2026-01-08 10:27:13.59	333.17	25.30	-44.2	-46.9	17.5	0.00e+00	0	43	0	1007681536	59	5053
2026-01-08 10:27:14.45	333.23	25.17	-44.3	-47.0	17.4	0.00e+00	0	43	0	1009778688	59	5144
2026-01-08 10:27:15.61	333.32	24.99	-44.4	-47.1	17.3	0.00e+00	0	43	0	1011875840	59	5177
2026-01-08 10:27:16.47	333.39	24.86	-44.3	-47.1	17.3	0.00e+00	0	43	0	1012924416	59	5168
2026-01-08 10:27:17.61	333.47	24.69	-44.4	-47.2	17.2	0.00e+00	0	43	0	1015021568	59	5253
2026-01-08 10:27:18.47	333.53	24.56	-44.3	-47.0	17.4	0.00e+00	0	43	0	1017118720	59	5136
2026-01-08 10:27:19.62	333.61	24.38	-44.1	-46.9	17.5	0.00e+00	0	43	0	1019215872	59	5046
2026-01-08 10:27:20.48	333.68	24.25	-44.1	-46.9	17.5	0.00e+00	0	43	0	1021313024	59	5069
2026-01-08 10:27:21.62	333.76	24.08	-44.0	-46.7	17.7	0.00e+00	0	43	0	1023410176	59	4934
2026-01-08 10:27:22.48	333.82	23.96	-43.6	-46.2	18.1	0.00e+00	0	43	0	1024458752	59	4704
2026-01-08 10:27:23.63	333.90	23.79	-43.5	-46.0	18.3	0.00e+00	0	43	0	1026555904	59	4597
2026-01-08 10:27:24.49	333.96	23.66	-43.4	-45.9	18.4	0.00e+00	0	43	0	1028653056	58	4799
2026-01-08 10:27:25.63	334.04	23.50	-43.3	-45.8	18.6	0.00e+00	0	43	0	1030750208	58	4706
2026-01-08 10:27:26.49	334.09	23.37	-43.1	-45.6	18.7	0.00e+00	0	43	0	1031798784	58	4599
2026-01-08 10:27:27.63	334.17	23.21	-43.0	-45.3	18.9	0.00e+00	0	43	0	1033895936	57	4757
2026-01-08 10:27:28.50	334.23	23.08	-42.9	-45.2	19.0	0.00e+00	0	43	0	1035993088	57	4701
2026-01-08 10:27:29.72	334.31	22.91	-42.9	-45.2	19.1	0.00e+00	0	43	0	1038090240	57	4671
2026-01-08 10:27:30.58	334.37	22.79	-42.8	-45.1	19.1	0.00e+00	0	43	0	1040187392	57	4627
2026-01-08 10:27:31.72	334.44	22.62	-42.8	-45.1	19.1	0.00e+00	0	43	0	1042284544	57	4637
2026-01-08 10:27:32.58	334.49	22.50	-42.8	-45.1	19.1	0.00e+00	0	43	0	1043333120	57	4624
2026-01-08 10:27:33.73	334.57	22.34	-42.7	-45.0	19.2	0.00e+00	0	43	0	1045430272	57	4571
2026-01-08 10:27:34.59	334.62	22.22	-42.8	-45.1	19.1	0.00e+00	0	43	0	1047527424	57	4627
2026-01-08 10:27:35.96	334.71	22.04	-42.9	-45.2	19.0	0.00e+00	0	43	0	1049624576	57	4695
2026-01-08 10:27:36.67	334.75	21.94	-43.1	-45.4	18.8	0.00e+00	0	43	0	1050673152	57	4803
2026-01-08 10:27:38.18	334.85	21.73	-43.1	-45.6	18.7	0.00e+00	0	43	0	1053818880	57	4885
2026-01-08 10:27:39.19	334.91	21.60	-43.2	-45.6	18.7	0.00e+00	0	43	0	1055916032	57	4896
2026-01-08 10:27:40.51	334.99	21.42	-43.4	-45.9	18.4	0.00e+00	0	43	0	1058013184	57	5055
2026-01-08 10:27:41.23	335.03	21.32	-43.4	-45.9	18.3	0.00e+00	0	43	0	1060110336	57	5097
2026-01-08 10:27:42.86	335.13	21.10	-43.4	-46.0	18.3	0.00e+00	0	43	0	1063256064	57	5147
2026-01-08 10:27:43.43	335.16	21.03	-43.5	-46.2	18.2	0.00e+00	0	43	0	1064304640	57	5219
2026-01-08 10:27:45.01	335.25	20.82	-43.5	-46.1	18.2	0.00e+00	0	43	0	1066401792	57	5218
2026-01-08 10:27:45.63	335.29	20.74	-43.5	-46.2	18.2	0.00e+00	0	43	0	1067450368	57	5225
2026-01-08 10:27:47.20	335.38	20.53	-43.3	-46.0	18.4	0.00e+00	0	43	0	1070596096	57	5108
2026-01-08 10:27:47.78	335.41	20.46	-43.3	-45.9	18.4	0.00e+00	0	43	0	1071644672	57	5069
2026-01-08 10:27:49.36	335.50	20.26	-43.3	-46.0	18.3	0.00e+00	0	43	0	1074790400	57	5116
2026-01-08 10:27:49.99	335.54	20.17	-43.2	-45.8	18.5	0.00e+00	0	43	0	1075838976	57	4996
2026-01-08 10:27:51.42	335.62	19.99	-43.2	-45.8	18.5	0.00e+00	0	43	0	1078984704	57	5005
2026-01-08 10:27:52.13	335.65	19.90	-43.2	-45.7	18.6	0.00e+00	0	43	0	1080033280	57	4969
2026-01-08 10:27:53.42	335.72	19.74	-43.0	-45.5	18.7	0.00e+00	0	43	0	1082130432	57	4870
2026-01-08 10:27:54.14	335.76	19.65	-43.0	-45.6	18.7	0.00e+00	0	43	0	1084227584	57	4882
2026-01-08 10:27:55.43	335.83	19.49	-42.9	-45.4	18.9	0.00e+00	0	43	0	1086324736	57	4769
2026-01-08 10:27:56.14	335.87	19.40	-42.9	-45.4	18.9	0.00e+00	0	43	0	1087373312	57	4766
2026-01-08 10:27:57.46	335.94	19.24	-42.9	-45.4	18.8	0.00e+00	0	43	0	1090519040	57	4780
2026-01-08 10:27:58.18	335.98	19.15	-42.8	-45.2	18.9	0.00e+00	0	43	0	1091567616	57	4703
2026-01-08 10:27:59.55	336.05	18.98	-42.9	-45.4	18.9	0.00e+00	0	43	0	1093664768	57	4762
2026-01-08 10:28:00.27	336.09	18.89	-42.9	-45.4	18.8	0.00e+00	0	43	0	1095761920	57	4787
2026-01-08 10:28:01.56	336.15	18.73	-43.0	-45.4	18.8	0.00e+00	0	43	0	1097859072	57	4810
2026-01-08 10:28:02.27	336.19	18.65	-43.0	-45.5	18.7	0.00e+00	0	43	0	1098907648	57	4850
2026-01-08 10:28:03.56	336.26	18.49	-43.0	-45.5	18.7	0.00e+00	0	43	0	1102053376	57	4842
2026-01-08 10:28:04.28	336.29	18.41	-43.1	-45.6	18.7	0.00e+00	0	43	0	1103101952	57	4876
2026-01-08 10:28:05.75	336.37	18.23	-43.3	-45.8	18.5	0.00e+00	0	43	0	1106247680	57	4985
2026-01-08 10:28:06.46	336.40	18.15	-43.3	-45.8	18.5	0.00e+00	0	43	0	1107296256	57	5015
2026-01-08 10:28:07.80	336.47	17.99	-43.5	-45.9	18.4	0.00e+00	0	43	0	1109393408	57	5092
2026-01-08 10:28:08.51	336.50	17.91	-43.4	-45.8	18.4	0.00e+00	0	43	0	1110441984	57	5032
2026-01-08 10:28:09.80	336.56	17.76	-43.4	-45.9	18.3	0.00e+00	0	43	0	1113587712	57	5091
2026-01-08 10:28:10.52	336.60	17.67	-43.4	-45.9	18.3	0.00e+00	0	43	0	1114636288	57	5084
2026-01-08 10:28:11.81	336.66	17.52	-43.5	-46.0	18.3	0.00e+00	0	43	0	1116733440	57	5132
2026-01-08 10:28:12.53	336.69	17.44	-43.6	-46.2	18.1	0.00e+00	0	43	0	1118830592	57	5238
2026-01-08 10:28:13.82	336.75	17.29	-43.7	-46.3	18.0	0.00e+00	0	43	0	1120927744	58	5012
2026-01-08 10:28:14.53	336.79	17.21	-43.7	-46.2	18.0	0.00e+00	0	43	0	1121976320	58	4971
2026-01-08 10:28:15.82	336.85	17.07	-43.7	-46.3	18.0	0.00e+00	0	43	0	1124073472	58	5027
2026-01-08 10:28:16.60	336.88	16.98	-43.7	-46.3	18.0	0.00e+00	0	43	0	1126170624	58	4990
2026-01-08 10:28:17.78	336.94	16.84	-43.8	-46.5	17.8	0.00e+00	0	43	0	1128267776	58	5107
2026-01-08 10:28:18.83	336.99	16.73	-43.9	-46.5	17.8	0.00e+00	0	43	0	1130364928	58	5108
2026-01-08 10:28:19.71	337.02	16.63	-43.9	-46.5	17.8	0.00e+00	0	43	0	1131413504	58	5112
2026-01-08 10:28:20.85	337.08	16.50	-43.9	-46.5	17.8	0.00e+00	0	43	0	1134559232	58	5152
2026-01-08 10:28:21.71	337.11	16.41	-44.1	-46.7	17.6	0.00e+00	0	43	0	1135607808	58	5231
2026-01-08 10:28:22.86	337.17	16.28	-44.0	-46.6	17.7	0.00e+00	0	43	0	1137704960	58	5194
2026-01-08 10:28:23.72	337.20	16.19	-43.9	-46.5	17.8	0.00e+00	0	43	0	1139802112	58	5130
2026-01-08 10:28:24.87	337.25	16.06	-44.0	-46.5	17.8	0.00e+00	0	43	0	1141899264	58	5142
2026-01-08 10:28:25.73	337.29	15.97	-43.9	-46.4	17.8	0.00e+00	0	43	0	1142947840	58	5093
2026-01-08 10:28:26.94	337.34	15.84	-44.0	-46.6	17.7	0.00e+00	0	43	0	1145044992	58	5182
2026-01-08 10:28:27.80	337.38	15.74	-44.0	-46.7	17.6	0.00e+00	0	43	0	1147142144	58	5222
2026-01-08 10:28:28.94	337.43	15.62	-44.1	-46.7	17.6	0.00e+00	0	43	0	1149239296	58	5257
2026-01-08 10:28:29.80	337.46	15.53	-44.1	-46.8	17.5	0.00e+00	0	43	0	1151336448	58	5297
2026-01-08 10:28:30.95	337.51	15.41	-44.0	-46.7	17.6	0.00e+00	0	43	0	1153433600	58	5225
2026-01-08 10:28:31.81	337.55	15.32	-43.9	-46.5	17.7	0.00e+00	0	43	0	1154482176	58	5157
2026-01-08 10:28:32.95	337.60	15.20	-44.0	-46.7	17.6	0.00e+00	0	43	0	1156579328	58	5245
2026-01-08 10:28:33.81	337.63	15.11	-43.9	-46.7	17.6	0.00e+00	0	43	0	1158676480	58	5219
2026-01-08 10:28:34.96	337.68	14.99	-43.9	-46.7	17.6	0.00e+00	0	43	0	1160773632	58	5238
2026-01-08 10:28:35.82	337.71	14.90	-43.9	-46.7	17.6	0.00e+00	0	43	0	1161822208	58	5256
2026-01-08 10:28:36.96	337.76	14.78	-43.8	-46.7	17.6	0.00e+00	0	43	0	1163919360	58	5241
2026-01-08 10:28:37.83	337.79	14.69	-43.9	-46.8	17.5	0.00e+00	0	43	0	1166016512	58	5326
2026-01-08 10:28:38.97	337.84	14.57	-43.9	-46.8	17.4	0.00e+00	0	43	0	1168113664	58	5340
2026-01-08 10:28:39.83	337.87	14.48	-43.9	-46.8	17.4	0.00e+00	0	43	0	1169162240	58	5331
2026-01-08 10:28:41.01	337.92	14.36	-44.0	-47.0	17.3	0.00e+00	0	43	0	1172307968	58	5429
2026-01-08 10:28:41.87	337.95	14.28	-44.0	-47.0	17.2	0.00e+00	0	43	0	1173356544	58	5453
2026-01-08 10:28:43.10	338.00	14.15	-44.1	-47.0	17.3	0.00e+00	0	43	0	1175453696	58	5446
2026-01-08 10:28:43.95	338.04	14.07	-44.1	-47.0	17.3	0.00e+00	0	43	0	1177550848	58	5438
2026-01-08 10:28:45.13	338.08	13.95	-44.1	-47.1	17.2	0.00e+00	0	43	0	1179648000	58	5484
2026-01-08 10:28:45.99	338.11	13.86	-44.2	-47.1	17.1	0.00e+00	0	43	0	1180696576	59	5213
2026-01-08 10:28:47.14	338.16	13.75	-44.2	-47.2	17.1	0.00e+00	0	43	0	1182793728	59	5248
2026-01-08 10:28:48.00	338.19	13.66	-44.3	-47.3	17.0	0.00e+00	0	43	0	1184890880	59	5287
2026-01-08 10:28:49.14	338.23	13.55	-44.3	-47.3	16.9	0.00e+00	0	43	0	1186988032	59	5325
2026-01-08 10:28:50.00	338.26	13.47	-44.2	-47.3	16.9	0.00e+00	0	43	0	1189085184	59	5300
2026-01-08 10:28:51.15	338.31	13.35	-44.2	-47.4	16.8	0.00e+00	0	43	0	1191182336	59	5400
2026-01-08 10:28:52.01	338.34	13.27	-44.3	-47.6	16.6	0.00e+00	0	43	0	1192230912	59	5500
2026-01-08 10:28:53.16	338.38	13.16	-44.2	-47.4	16.8	0.00e+00	0	43	0	1194328064	59	5397
2026-01-08 10:28:54.23	338.42	13.06	-44.2	-47.5	16.7	0.00e+00	0	43	0	1196425216	59	5441
2026-01-08 10:28:55.26	338.46	12.96	-44.3	-47.7	16.6	0.00e+00	0	43	0	1198522368	59	5531
2026-01-08 10:28:56.25	338.49	12.86	-44.3	-47.7	16.6	0.00e+00	0	43	0	1200619520	59	5556
2026-01-08 10:28:57.26	338.53	12.77	-44.4	-47.7	16.5	0.00e+00	0	43	0	1202716672	59	5561
2026-01-08 10:28:58.26	338.56	12.67	-44.4	-47.6	16.6	0.00e+00	0	43	0	1203765248	59	5526
2026-01-08 10:28:59.53	338.61	12.55	-44.5	-47.8	16.5	0.00e+00	0	43	0	1206910976	59	5607
2026-01-08 10:29:00.25	338.64	12.48	-44.6	-47.9	16.3	0.00e+00	0	43	0	1207959552	59	5683
2026-01-08 10:29:01.54	338.68	12.36	-44.7	-47.9	16.4	0.00e+00	0	43	0	1210056704	59	5687
2026-01-08 10:29:02.25	338.71	12.29	-44.8	-48.0	16.3	0.00e+00	0	43	0	1212153856	60	5455
2026-01-08 10:29:03.55	338.75	12.17	-44.7	-47.9	16.4	0.00e+00	0	43	0	1214251008	60	5380
2026-01-08 10:29:04.26	338.77	12.11	-44.9	-48.1	16.2	0.00e+00	0	43	0	1215299584	60	5509
2026-01-08 10:29:05.58	338.82	11.99	-44.9	-48.1	16.2	0.00e+00	0	43	0	1217396736	60	5516
2026-01-08 10:29:06.30	338.84	11.92	-44.9	-48.2	16.1	0.00e+00	0	43	0	1219493888	60	5551
2026-01-08 10:29:07.59	338.89	11.80	-44.7	-47.9	16.4	0.00e+00	0	43	0	1221591040	60	5365
2026-01-08 10:29:08.31	338.91	11.73	-44.8	-48.1	16.3	0.00e+00	0	43	0	1222639616	60	5470
2026-01-08 10:29:09.60	338.96	11.62	-44.8	-48.0	16.3	0.00e+00	0	43	0	1225785344	60	5446
2026-01-08 10:29:10.71	338.99	11.52	-44.7	-48.0	16.3	0.00e+00	0	43	0	1227882496	60	5446
2026-01-08 10:29:11.57	339.02	11.44	-44.7	-48.0	16.3	0.00e+00	0	43	0	1228931072	60	5451
2026-01-08 10:29:12.72	339.06	11.33	-44.7	-48.1	16.2	0.00e+00	0	43	0	1231028224	60	5487
2026-01-08 10:29:13.58	339.09	11.26	-44.7	-48.2	16.1	0.00e+00	0	43	0	1233125376	60	5565
2026-01-08 10:29:14.73	339.12	11.15	-44.4	-47.9	16.4	0.00e+00	0	43	0	1235222528	60	5368
2026-01-08 10:29:15.59	339.15	11.08	-44.5	-48.1	16.2	0.00e+00	0	43	0	1236271104	60	5467
2026-01-08 10:29:16.73	339.19	10.98	-44.6	-48.1	16.2	0.00e+00	0	43	0	1238368256	60	5465
2026-01-08 10:29:17.59	339.22	10.90	-44.6	-48.1	16.2	0.00e+00	0	43	0	1240465408	60	5500
2026-01-08 10:29:18.91	339.26	10.78	-44.7	-48.0	16.2	0.00e+00	0	43	0	1242562560	60	5460
