passes_logs/2026/01/08/T1/T1__20260108_205654_KHAYYAM_rec.log

#Pass ID: 20260108_205654_KHAYYAM
#Satellite: KHAYYAM
#Configuration: KHAYYAM_480M
#almurnet v.1.7.20251203
#Start time: 2026-01-08 20:56:55

#Version: 2.0.20230620
#Station: T1
#Location: 37.570604 lon 55.790049 lat
#TLE: 1 53370U 22096A   26008.52524046  .00006305  00000+0  25727-3 0  9990
#TLE: 2 53370  97.3558 275.6513 0001251  94.0078 266.1303 15.24769206190253

#Time	Az	El	Level	Level2	SNR	BER	BlckErr	Temp	State	Recorded	gain1	gain2
2026-01-08 20:56:55.61	19.38	5.03	-47.2	-51.2	3.8	0.00e+00	0	42	0	0	66	22129
2026-01-08 20:56:56.61	19.42	5.11	-47.1	-51.0	3.7	0.00e+00	0	42	104	0	64	24511
2026-01-08 20:56:57.61	19.46	5.19	-47.1	-51.1	3.7	0.00e+00	0	42	104	0	64	24664
2026-01-08 20:56:58.62	19.50	5.27	-47.1	-51.0	3.7	0.00e+00	0	42	104	0	64	24476
2026-01-08 20:56:59.62	19.54	5.35	-47.0	-51.1	3.7	0.00e+00	0	43	104	0	64	24620
2026-01-08 20:57:00.63	19.59	5.43	-47.0	-51.0	3.7	0.00e+00	0	43	104	0	64	24472
2026-01-08 20:57:01.63	19.63	5.51	-47.0	-51.0	3.7	0.00e+00	0	42	104	0	64	24344
2026-01-08 20:57:02.63	19.67	5.59	-47.0	-51.0	3.7	0.00e+00	0	43	104	0	64	24428
2026-01-08 20:57:03.64	19.72	5.67	-47.0	-51.0	3.7	0.00e+00	0	43	104	0	64	24438
2026-01-08 20:57:04.64	19.76	5.76	-47.1	-51.1	3.7	0.00e+00	0	43	104	0	64	24615
2026-01-08 20:57:05.65	19.80	5.84	-47.0	-51.1	3.7	0.00e+00	0	43	104	0	64	24561
2026-01-08 20:57:06.65	19.85	5.92	-47.0	-51.1	3.7	0.00e+00	0	43	104	0	64	24630
2026-01-08 20:57:07.66	19.89	6.01	-47.0	-51.1	3.7	0.00e+00	0	43	104	0	64	24610
2026-01-08 20:57:08.66	19.94	6.09	-47.0	-51.1	3.7	0.00e+00	0	43	104	0	64	24524
2026-01-08 20:57:09.67	19.98	6.17	-47.0	-51.1	3.6	0.00e+00	0	43	104	0	64	24597
2026-01-08 20:57:10.67	20.03	6.26	-47.1	-51.1	3.7	0.00e+00	0	44	104	0	64	24702
2026-01-08 20:57:11.67	20.07	6.34	-47.0	-51.1	3.6	0.00e+00	0	44	104	0	64	24572
2026-01-08 20:57:12.68	20.12	6.43	-47.1	-51.1	3.7	0.00e+00	0	44	104	0	64	24537
2026-01-08 20:57:13.68	20.17	6.51	-47.0	-51.0	3.7	0.00e+00	0	44	104	0	64	24409
2026-01-08 20:57:14.69	20.21	6.60	-47.0	-51.1	3.7	0.00e+00	0	44	104	0	64	24594
2026-01-08 20:57:15.69	20.26	6.69	-47.0	-51.1	3.7	0.00e+00	0	44	104	0	64	24594
2026-01-08 20:57:16.70	20.31	6.77	-46.9	-51.0	3.7	0.00e+00	0	44	104	0	64	24274
2026-01-08 20:57:17.70	20.36	6.86	-47.0	-51.0	3.7	0.00e+00	0	44	104	0	64	24441
2026-01-08 20:57:18.70	20.40	6.95	-47.0	-51.0	3.7	0.00e+00	0	44	104	0	64	24368
2026-01-08 20:57:19.71	20.45	7.04	-47.1	-51.1	3.7	0.00e+00	0	44	104	0	64	24722
2026-01-08 20:57:20.71	20.50	7.12	-47.1	-51.1	3.6	0.00e+00	0	44	104	0	64	24777
2026-01-08 20:57:21.72	20.55	7.21	-47.1	-51.1	3.7	0.00e+00	0	44	104	0	64	24647
2026-01-08 20:57:22.72	20.60	7.30	-47.1	-51.2	3.7	0.00e+00	0	44	104	0	64	24821
2026-01-08 20:57:23.73	20.65	7.39	-47.0	-51.1	3.7	0.00e+00	0	44	104	0	64	24560
2026-01-08 20:57:24.73	20.70	7.48	-47.0	-51.1	3.7	0.00e+00	0	44	104	0	64	24627
2026-01-08 20:57:25.74	20.75	7.57	-47.0	-51.1	3.7	0.00e+00	0	45	104	0	64	24565
2026-01-08 20:57:26.74	20.80	7.66	-47.1	-51.1	3.7	0.00e+00	0	45	104	0	64	24677
2026-01-08 20:57:27.75	20.85	7.76	-47.0	-51.1	3.7	0.00e+00	0	45	104	0	64	24604
2026-01-08 20:57:28.75	20.90	7.85	-47.1	-51.1	3.7	0.00e+00	0	45	104	0	64	24739
2026-01-08 20:57:29.75	20.96	7.94	-47.1	-51.1	3.6	0.00e+00	0	45	104	0	64	24684
2026-01-08 20:57:30.76	21.01	8.03	-47.1	-51.2	3.6	0.00e+00	0	45	104	0	64	24915
2026-01-08 20:57:31.76	21.06	8.12	-47.1	-51.1	3.7	0.00e+00	0	45	104	0	64	24667
2026-01-08 20:57:32.76	21.11	8.22	-47.1	-51.1	3.7	0.00e+00	0	45	104	0	64	24721
2026-01-08 20:57:33.77	21.17	8.31	-47.1	-51.2	3.7	0.00e+00	0	45	104	0	64	24819
2026-01-08 20:57:34.78	21.22	8.41	-47.1	-51.1	3.6	0.00e+00	0	45	104	0	64	24630
2026-01-08 20:57:35.78	21.28	8.50	-47.0	-51.1	3.7	0.00e+00	0	45	104	0	64	24669
2026-01-08 20:57:36.78	21.33	8.60	-47.0	-51.1	3.7	0.00e+00	0	45	104	0	64	24562
2026-01-08 20:57:37.79	21.39	8.69	-47.0	-51.0	3.6	0.00e+00	0	45	104	0	64	24517
2026-01-08 20:57:38.79	21.44	8.79	-47.0	-51.0	3.7	0.00e+00	0	45	104	0	64	24442
2026-01-08 20:57:39.80	21.50	8.89	-47.0	-51.0	3.7	0.00e+00	0	45	104	0	64	24387
2026-01-08 20:57:40.80	21.55	8.98	-47.1	-51.1	3.7	0.00e+00	0	45	104	0	64	24564
2026-01-08 20:57:41.80	21.61	9.08	-47.0	-50.8	3.7	0.00e+00	0	45	104	0	64	23777
2026-01-08 20:57:42.80	21.67	9.18	-47.6	-51.0	3.7	0.00e+00	0	45	104	0	65	23084
2026-01-08 20:57:43.81	21.73	9.28	-47.0	-51.0	3.7	0.00e+00	0	45	104	0	66	21730
2026-01-08 20:57:44.81	21.78	9.38	-47.7	-51.3	3.6	0.00e+00	0	45	104	0	66	22471
2026-01-08 20:57:45.81	21.84	9.47	-48.0	-52.3	3.7	0.00e+00	0	45	104	0	66	25359
2026-01-08 20:57:46.85	21.90	9.58	-48.1	-51.7	3.7	0.00e+00	0	45	104	0	66	23478
2026-01-08 20:57:47.86	21.96	9.68	-48.6	-52.2	3.7	0.00e+00	0	45	104	0	67	23578
2026-01-08 20:57:48.90	22.03	9.79	-49.6	-53.4	3.7	0.00e+00	0	46	104	0	69	24024
2026-01-08 20:57:49.89	22.09	9.89	-50.0	-53.9	3.7	0.00e+00	0	45	104	0	70	24234
2026-01-08 20:57:50.96	22.15	9.99	-50.5	-54.8	3.7	0.00e+00	0	45	104	0	71	25133
2026-01-08 20:57:51.85	22.21	10.09	-49.2	-52.9	3.7	0.00e+00	0	46	104	0	70	21469
2026-01-08 20:57:52.88	22.27	10.19	-51.9	-56.5	3.7	0.00e+00	0	46	104	0	74	25947
2026-01-08 20:57:53.88	22.33	10.30	-50.8	-54.8	3.7	0.00e+00	0	46	104	0	73	22529
2026-01-08 20:57:54.88	22.39	10.40	-50.6	-55.5	3.7	0.00e+00	0	46	104	0	73	24302
2026-01-08 20:57:55.89	22.46	10.51	-51.5	-55.9	3.7	0.00e+00	0	46	104	0	73	25542
2026-01-08 20:57:56.89	22.52	10.61	-51.6	-56.1	3.7	0.00e+00	0	46	104	0	73	26091
2026-01-08 20:57:57.89	22.59	10.72	-51.7	-56.4	3.7	0.00e+00	0	46	104	0	74	25387
2026-01-08 20:57:58.89	22.65	10.82	-51.7	-56.4	3.7	0.00e+00	0	46	104	0	74	25396
2026-01-08 20:57:59.89	22.72	10.93	-51.6	-56.4	3.7	0.00e+00	0	46	104	0	74	25408
2026-01-08 20:58:00.90	22.78	11.04	-51.9	-56.5	3.7	0.00e+00	0	46	104	0	74	25941
2026-01-08 20:58:01.90	22.85	11.15	-51.5	-56.1	3.7	0.00e+00	0	46	104	0	74	24532
2026-01-08 20:58:02.90	22.92	11.26	-51.2	-55.9	3.7	0.00e+00	0	46	104	0	74	24125
2026-01-08 20:58:03.95	22.99	11.37	-51.3	-55.4	3.7	0.00e+00	0	46	104	0	74	22861
2026-01-08 20:58:04.84	23.05	11.47	-51.1	-55.1	3.7	0.00e+00	0	46	104	0	74	21916
2026-01-08 20:58:06.16	23.14	11.62	-51.0	-54.9	3.7	0.00e+00	0	46	104	0	73	22693
2026-01-08 20:58:06.87	23.19	11.70	-51.0	-55.0	3.7	0.00e+00	0	46	104	0	73	22921
2026-01-08 20:58:08.16	23.28	11.84	-51.2	-55.3	3.7	0.00e+00	0	46	104	0	73	23743
2026-01-08 20:58:08.88	23.33	11.92	-51.8	-56.0	3.7	0.00e+00	0	46	104	0	74	24403
2026-01-08 20:58:10.17	23.43	12.07	-51.7	-56.2	3.7	0.00e+00	0	46	104	0	74	24890
2026-01-08 20:58:10.91	23.48	12.15	-50.5	-54.2	3.7	0.00e+00	0	46	104	0	73	20922
2026-01-08 20:58:12.20	23.57	12.30	-51.6	-55.9	3.7	0.00e+00	0	46	104	0	74	24207
2026-01-08 20:58:13.01	23.63	12.40	-50.1	-53.8	3.7	0.00e+00	0	46	104	0	72	21181
2026-01-08 20:58:14.16	23.72	12.53	-49.9	-53.6	3.7	0.00e+00	0	46	104	0	71	21961
2026-01-08 20:58:15.24	23.80	12.66	-49.8	-53.7	3.7	0.00e+00	0	46	104	0	71	22204
2026-01-08 20:58:16.10	23.86	12.76	-50.0	-54.0	3.7	0.00e+00	0	46	104	0	71	23016
2026-01-08 20:58:17.59	23.98	12.94	-50.4	-54.7	3.7	0.00e+00	0	46	104	0	71	25039
2026-01-08 20:58:18.31	24.03	13.02	-50.4	-54.7	3.7	0.00e+00	0	46	104	0	71	25016
2026-01-08 20:58:19.60	24.13	13.18	-49.7	-53.5	3.7	0.00e+00	0	46	104	0	71	21608
2026-01-08 20:58:20.32	24.19	13.26	-49.7	-53.6	3.7	0.00e+00	0	46	104	0	71	22025
2026-01-08 20:58:21.61	24.29	13.42	-50.3	-54.6	3.7	0.00e+00	0	46	104	0	71	24794
2026-01-08 20:58:22.32	24.35	13.51	-50.2	-54.5	3.7	0.00e+00	0	46	104	0	71	24305
2026-01-08 20:58:23.61	24.45	13.67	-50.4	-54.8	3.7	0.00e+00	0	46	104	0	71	25161
2026-01-08 20:58:24.40	24.52	13.77	-50.5	-54.9	3.7	0.00e+00	0	46	104	0	71	25659
2026-01-08 20:58:25.55	24.61	13.91	-50.1	-53.8	3.7	0.00e+00	0	46	104	0	71	22622
2026-01-08 20:58:26.41	24.69	14.02	-50.1	-53.8	3.7	0.00e+00	0	46	104	0	71	22433
2026-01-08 20:58:27.56	24.78	14.17	-50.9	-55.0	3.7	0.00e+00	0	46	104	0	72	24360
2026-01-08 20:58:28.42	24.86	14.27	-51.6	-55.8	3.7	0.00e+00	0	46	104	0	74	23898
2026-01-08 20:58:29.57	24.96	14.42	-50.9	-55.2	3.7	0.00e+00	0	46	104	0	72	24860
2026-01-08 20:58:30.43	25.03	14.53	-51.8	-56.3	3.7	0.00e+00	0	46	104	0	74	25190
2026-01-08 20:58:31.57	25.13	14.68	-50.9	-54.9	3.7	0.00e+00	0	46	104	0	73	22867
2026-01-08 20:58:32.43	25.21	14.79	-51.4	-55.5	3.7	0.00e+00	0	47	104	0	73	24451
2026-01-08 20:58:33.64	25.31	14.95	-51.7	-56.1	3.7	0.00e+00	0	46	104	0	74	24528
2026-01-08 20:58:34.50	25.39	15.07	-51.7	-56.1	3.7	0.00e+00	0	46	104	0	74	24792
2026-01-08 20:58:35.65	25.50	15.22	-51.4	-56.1	3.7	0.00e+00	0	47	104	0	74	24644
2026-01-08 20:58:36.50	25.58	15.34	-51.3	-55.8	3.7	0.00e+00	0	46	104	0	74	23808
2026-01-08 20:58:37.65	25.68	15.49	-49.9	-54.6	3.7	0.00e+00	0	46	104	0	72	23403
2026-01-08 20:58:38.51	25.76	15.61	-50.6	-55.2	3.7	0.00e+00	0	47	104	0	72	24977
2026-01-08 20:58:39.66	25.87	15.77	-50.2	-54.3	3.7	0.00e+00	0	46	104	0	72	22466
2026-01-08 20:58:40.74	25.98	15.92	-49.5	-53.5	3.7	0.00e+00	0	47	104	0	71	21756
2026-01-08 20:58:41.60	26.06	16.04	-49.5	-53.6	3.7	0.00e+00	0	47	104	0	70	23307
2026-01-08 20:58:42.75	26.17	16.20	-49.7	-54.2	3.7	0.00e+00	0	47	104	0	70	25021
2026-01-08 20:58:43.61	26.26	16.32	-49.8	-54.5	3.7	0.00e+00	0	47	104	0	70	25873
2026-01-08 20:58:44.75	26.37	16.48	-49.9	-55.0	3.7	0.00e+00	0	47	104	0	70	27326
2026-01-08 20:58:45.61	26.46	16.61	-49.6	-53.8	3.7	0.00e+00	0	47	104	0	70	23801
2026-01-08 20:58:46.76	26.58	16.77	-49.5	-53.4	3.7	0.00e+00	0	47	104	0	70	22708
2026-01-08 20:58:47.62	26.67	16.90	-49.9	-54.4	3.7	0.00e+00	0	47	104	0	70	25429
2026-01-08 20:58:48.77	26.79	17.07	-49.4	-53.9	3.7	0.00e+00	0	47	104	0	70	24042
2026-01-08 20:58:49.63	26.88	17.20	-49.4	-54.0	3.7	0.00e+00	0	47	104	0	70	24406
2026-01-08 20:58:50.83	27.01	17.37	-49.6	-54.6	3.7	0.00e+00	0	47	104	0	70	26187
2026-01-08 20:58:51.69	27.10	17.50	-49.9	-54.9	3.7	0.00e+00	0	47	104	0	70	27066
2026-01-08 20:58:52.84	27.23	17.68	-50.2	-55.0	3.7	0.00e+00	0	47	104	0	71	25782
2026-01-08 20:58:53.70	27.32	17.81	-50.1	-54.8	3.7	0.00e+00	0	47	104	0	71	25353
2026-01-08 20:58:54.94	27.46	18.00	-51.0	-54.2	3.7	0.00e+00	0	47	104	0	74	19725
2026-01-08 20:58:55.80	27.56	18.13	-51.1	-54.5	3.7	0.00e+00	0	47	104	0	73	21775
2026-01-08 20:58:56.94	27.69	18.31	-50.4	-53.2	3.7	0.00e+00	0	47	104	0	72	19884
2026-01-08 20:58:57.80	27.79	18.45	-50.5	-53.4	3.7	0.00e+00	0	47	104	0	72	20366
2026-01-08 20:58:59.04	27.94	18.64	-50.7	-53.9	3.7	0.00e+00	0	47	104	0	72	21417
2026-01-08 20:58:59.89	28.04	18.78	-50.9	-54.2	3.7	0.00e+00	0	47	104	0	72	22252
2026-01-08 20:59:01.10	28.19	18.97	-51.2	-54.6	3.7	0.00e+00	0	47	104	0	72	23410
2026-01-08 20:59:02.36	28.34	19.18	-51.3	-54.9	3.7	0.00e+00	0	47	104	0	73	22632
2026-01-08 20:59:03.07	28.43	19.29	-51.3	-54.8	3.7	0.00e+00	0	47	104	0	73	22424
2026-01-08 20:59:04.37	28.59	19.51	-51.6	-55.4	3.7	0.00e+00	0	47	104	0	73	24016
2026-01-08 20:59:05.08	28.68	19.63	-51.5	-55.2	3.7	0.00e+00	0	47	104	0	74	22125
2026-01-08 20:59:06.37	28.85	19.84	-51.3	-54.8	3.7	0.00e+00	0	47	104	0	74	21199
2026-01-08 20:59:07.09	28.94	19.96	-50.9	-54.0	3.7	0.00e+00	0	47	104	0	73	20498
2026-01-08 20:59:08.49	29.13	20.20	-50.8	-54.0	3.7	0.00e+00	0	47	104	0	73	20555
2026-01-08 20:59:09.21	29.22	20.33	-50.9	-54.1	3.7	0.00e+00	0	47	104	0	73	20836
2026-01-08 20:59:10.49	29.40	20.55	-50.9	-54.2	3.7	0.00e+00	0	47	104	0	73	20906
2026-01-08 20:59:11.21	29.50	20.67	-51.2	-54.7	3.7	0.00e+00	0	47	104	0	73	22192
2026-01-08 20:59:12.50	29.67	20.90	-51.3	-54.9	3.7	0.00e+00	0	47	104	0	73	22762
2026-01-08 20:59:13.21	29.77	21.03	-51.3	-54.9	3.7	0.00e+00	0	47	104	0	73	22868
2026-01-08 20:59:14.50	29.96	21.26	-51.1	-54.6	3.7	0.00e+00	0	47	104	0	73	21929
2026-01-08 20:59:15.22	30.06	21.39	-51.0	-54.4	3.7	0.00e+00	0	47	104	0	73	21417
2026-01-08 20:59:16.77	30.29	21.67	-49.4	-52.0	3.7	0.00e+00	0	47	104	0	70	19263
2026-01-08 20:59:17.48	30.39	21.80	-50.2	-53.1	3.7	0.00e+00	0	47	104	0	70	22081
2026-01-08 20:59:18.77	30.59	22.04	-49.4	-52.1	3.7	0.00e+00	0	47	104	0	70	19518
2026-01-08 20:59:19.49	30.70	22.17	-49.4	-52.1	3.7	0.00e+00	0	47	104	0	70	19621
2026-01-08 20:59:20.77	30.90	22.42	-50.6	-53.9	3.7	0.00e+00	0	47	104	0	72	21573
2026-01-08 20:59:21.49	31.01	22.55	-51.3	-55.0	3.7	0.00e+00	0	47	104	0	73	23004
2026-01-08 20:59:22.78	31.22	22.80	-52.3	-56.9	3.7	0.00e+00	0	47	104	0	75	25520
2026-01-08 20:59:23.50	31.33	22.94	-52.0	-56.4	3.7	0.00e+00	0	47	104	0	75	24212
2026-01-08 20:59:24.79	31.54	23.19	-52.0	-56.3	3.7	0.00e+00	0	47	104	0	74	25121
2026-01-08 20:59:25.51	31.66	23.33	-52.0	-56.3	3.7	0.00e+00	0	47	104	0	74	25308
2026-01-08 20:59:26.80	31.88	23.59	-52.0	-56.4	3.7	0.00e+00	0	47	104	0	74	25398
2026-01-08 20:59:27.61	32.02	23.75	-51.8	-55.9	3.7	0.00e+00	0	47	104	0	74	24130
2026-01-08 20:59:28.76	32.21	23.98	-50.9	-54.5	3.7	0.00e+00	0	47	104	0	73	21710
2026-01-08 20:59:29.61	32.36	24.15	-50.8	-54.3	3.7	0.00e+00	0	47	104	0	73	21306
2026-01-08 20:59:30.76	32.57	24.39	-51.1	-54.9	3.7	0.00e+00	0	47	104	0	73	22633
2026-01-08 20:59:31.62	32.72	24.57	-51.6	-55.8	3.7	0.00e+00	0	47	104	0	73	25132
2026-01-08 20:59:32.77	32.93	24.81	-52.1	-56.6	3.7	0.00e+00	0	47	104	0	74	26155
2026-01-08 20:59:33.62	33.09	24.99	-52.1	-56.4	3.7	0.00e+00	0	47	104	0	74	25437
2026-01-08 20:59:34.77	33.31	25.23	-51.8	-55.6	3.7	0.00e+00	0	47	104	0	74	23274
2026-01-08 20:59:35.63	33.47	25.41	-51.8	-55.5	3.7	0.00e+00	0	47	104	0	74	22930
2026-01-08 20:59:36.78	33.70	25.66	-51.2	-54.4	3.7	0.00e+00	0	47	104	0	74	20316
2026-01-08 20:59:37.64	33.86	25.85	-51.4	-54.7	3.7	0.00e+00	0	47	104	0	73	22124
2026-01-08 20:59:38.78	34.09	26.10	-50.0	-52.7	3.7	0.00e+00	0	47	104	0	72	18611
2026-01-08 20:59:39.64	34.27	26.29	-50.4	-53.2	3.7	0.00e+00	0	47	104	0	71	21011
2026-01-08 20:59:40.79	34.50	26.55	-51.3	-54.5	3.7	0.00e+00	0	47	104	0	73	21771
2026-01-08 20:59:41.65	34.68	26.74	-51.5	-54.9	3.7	0.00e+00	0	47	104	0	73	22847
2026-01-08 20:59:43.02	34.98	27.05	-51.7	-55.2	3.7	0.00e+00	0	47	104	0	74	22317
2026-01-08 20:59:43.74	35.13	27.22	-51.6	-55.4	3.7	0.00e+00	0	47	104	0	74	22699
2026-01-08 20:59:45.22	35.46	27.56	-51.6	-55.0	3.7	0.00e+00	0	47	104	0	74	21723
2026-01-08 20:59:45.94	35.62	27.73	-51.8	-55.6	3.7	0.00e+00	0	47	104	0	74	23243
2026-01-08 20:59:47.23	35.91	28.03	-50.3	-53.2	3.7	0.00e+00	0	47	104	0	72	19725
2026-01-08 20:59:47.95	36.08	28.20	-50.3	-53.2	3.7	0.00e+00	0	47	104	0	72	19714
2026-01-08 20:59:49.24	36.38	28.51	-50.2	-52.9	3.7	0.00e+00	0	47	104	0	72	19224
2026-01-08 20:59:49.95	36.55	28.68	-50.5	-53.3	3.7	0.00e+00	0	47	104	0	72	20077
2026-01-08 20:59:51.24	36.86	29.00	-51.9	-55.5	3.7	0.00e+00	0	47	104	0	74	23111
2026-01-08 20:59:51.96	37.04	29.18	-51.4	-54.7	3.7	0.00e+00	0	47	104	0	74	21073
2026-01-08 20:59:53.25	37.37	29.50	-51.4	-54.8	3.7	0.00e+00	0	47	104	0	74	21279
2026-01-08 20:59:54.00	37.56	29.68	-51.8	-55.4	3.7	0.00e+00	0	47	104	0	74	22654
2026-01-08 20:59:55.29	37.89	30.01	-51.9	-55.5	3.7	0.00e+00	0	47	104	0	75	21823
2026-01-08 20:59:56.07	38.10	30.21	-51.9	-55.5	3.7	0.00e+00	0	47	104	0	75	21845
2026-01-08 20:59:57.68	38.53	30.62	-51.9	-55.5	3.7	0.00e+00	0	47	104	0	74	23007
2026-01-08 20:59:58.52	38.76	30.84	-52.6	-56.8	3.7	0.00e+00	0	47	104	0	75	25146
2026-01-08 20:59:59.67	39.09	31.14	-52.9	-57.4	3.7	0.00e+00	0	47	104	0	76	25396
2026-01-08 21:00:00.53	39.33	31.37	-52.7	-57.0	3.7	0.00e+00	0	47	104	0	76	24393
2026-01-08 21:00:01.68	39.67	31.67	-52.5	-56.9	3.7	0.00e+00	0	47	104	0	76	24055
2026-01-08 21:00:02.54	39.92	31.90	-52.5	-56.8	3.7	0.00e+00	0	47	104	0	76	23828
2026-01-08 21:00:03.68	40.26	32.21	-52.7	-57.2	3.7	0.00e+00	0	47	104	0	76	25092
2026-01-08 21:00:04.54	40.52	32.45	-52.7	-57.3	3.7	0.00e+00	0	47	104	0	76	25137
2026-01-08 21:00:05.69	40.88	32.76	-52.8	-57.3	3.7	0.00e+00	0	47	104	0	76	25191
2026-01-08 21:00:06.63	41.18	33.02	-52.4	-56.4	3.7	0.00e+00	0	47	104	0	76	22749
2026-01-08 21:00:07.79	41.56	33.34	-52.3	-56.4	3.7	0.00e+00	0	47	104	0	75	24166
2026-01-08 21:00:08.65	41.84	33.59	-52.1	-56.0	3.7	0.00e+00	0	47	104	0	75	23039
2026-01-08 21:00:10.02	42.30	33.97	-52.3	-56.4	3.7	0.00e+00	0	47	104	0	75	24138
2026-01-08 21:00:10.74	42.55	34.18	-52.3	-56.4	3.7	0.00e+00	0	47	104	0	75	24100
2026-01-08 21:00:12.03	43.00	34.55	-52.2	-56.1	3.7	0.00e+00	0	47	104	0	75	23237
2026-01-08 21:00:12.74	43.25	34.76	-52.3	-56.2	3.7	0.00e+00	0	47	104	0	75	23648
2026-01-08 21:00:14.03	43.72	35.13	-52.5	-56.9	3.7	0.00e+00	0	47	104	0	75	25517
2026-01-08 21:00:14.75	43.98	35.34	-52.6	-56.9	3.7	0.00e+00	0	47	104	0	75	25564
2026-01-08 21:00:16.04	44.47	35.72	-52.9	-57.3	3.7	0.00e+00	0	47	104	0	76	25354
2026-01-08 21:00:16.75	44.74	35.94	-52.8	-57.2	3.7	0.00e+00	0	47	104	0	76	24946
2026-01-08 21:00:18.04	45.25	36.32	-52.4	-56.4	3.7	0.00e+00	0	47	104	0	76	22725
2026-01-08 21:00:18.76	45.54	36.54	-52.4	-56.4	3.7	0.00e+00	0	47	104	0	76	22634
2026-01-08 21:00:20.05	46.06	36.93	-52.8	-57.4	3.7	0.00e+00	0	47	104	0	76	25398
2026-01-08 21:00:20.76	46.35	37.14	-52.9	-57.4	3.7	0.00e+00	0	47	104	0	76	25580
2026-01-08 21:00:22.06	46.91	37.54	-52.6	-57.0	3.7	0.00e+00	0	47	104	0	76	24485
2026-01-08 21:00:22.77	47.21	37.76	-52.5	-57.0	3.7	0.00e+00	0	47	104	0	76	24356
2026-01-08 21:00:24.27	47.87	38.22	-52.6	-57.1	3.7	0.00e+00	0	47	104	0	76	24804
2026-01-08 21:00:24.99	48.20	38.45	-52.5	-57.1	3.7	0.00e+00	0	47	104	0	76	24578
2026-01-08 21:00:26.28	48.79	38.85	-52.4	-56.4	3.7	0.00e+00	0	47	104	0	76	22870
2026-01-08 21:00:26.99	49.13	39.07	-52.7	-56.7	3.7	0.00e+00	0	47	104	0	76	23638
2026-01-08 21:00:28.28	49.74	39.48	-52.5	-56.6	3.7	0.00e+00	0	47	104	0	76	23200
2026-01-08 21:00:29.00	50.10	39.71	-52.8	-56.9	3.7	0.00e+00	0	47	104	0	76	24014
2026-01-08 21:00:30.29	50.74	40.12	-52.9	-57.3	3.7	0.00e+00	0	47	104	0	76	25129
2026-01-08 21:00:31.00	51.10	40.34	-52.8	-57.2	3.7	0.00e+00	0	47	104	0	76	24856
2026-01-08 21:00:32.29	51.77	40.75	-52.7	-56.9	3.7	0.00e+00	0	47	104	0	76	24164
2026-01-08 21:00:33.10	52.20	41.01	-52.8	-57.1	3.7	0.00e+00	0	47	104	0	76	24612
2026-01-08 21:00:34.25	52.83	41.38	-53.1	-57.5	3.7	0.00e+00	0	47	104	0	76	25936
2026-01-08 21:00:35.11	53.30	41.66	-53.0	-57.5	3.7	0.00e+00	0	47	104	0	76	25775
2026-01-08 21:00:36.26	53.95	42.03	-53.0	-57.6	3.7	0.00e+00	0	47	104	0	76	26136
2026-01-08 21:00:37.12	54.45	42.30	-53.0	-57.6	3.6	0.00e+00	0	47	104	0	76	26115
2026-01-08 21:00:38.27	55.13	42.67	-52.9	-57.3	3.7	0.00e+00	0	47	104	0	76	25184
2026-01-08 21:00:39.13	55.65	42.95	-53.0	-57.3	3.7	0.00e+00	0	47	104	0	76	25360
2026-01-08 21:00:40.28	56.35	43.32	-53.1	-57.6	3.7	0.00e+00	0	47	104	0	76	26019
2026-01-08 21:00:41.14	56.89	43.59	-53.0	-57.6	3.7	0.00e+00	0	47	104	0	76	26073
2026-01-08 21:00:42.44	57.72	44.01	-53.0	-57.5	3.7	0.00e+00	0	47	104	0	76	25955
2026-01-08 21:00:43.16	58.20	44.24	-53.0	-57.6	3.7	0.00e+00	0	47	104	0	76	26074
2026-01-08 21:00:44.65	59.19	44.71	-52.9	-57.3	3.7	0.00e+00	0	47	104	0	76	25113
2026-01-08 21:00:45.37	59.69	44.94	-52.9	-57.3	3.7	0.00e+00	0	47	104	0	76	25316
2026-01-08 21:00:46.75	60.65	45.37	-52.9	-57.3	3.7	0.00e+00	0	47	104	0	76	25358
2026-01-08 21:00:47.47	61.17	45.60	-53.1	-57.6	3.7	0.00e+00	0	47	104	0	76	26216
2026-01-08 21:00:48.76	62.11	46.00	-53.1	-57.4	3.7	0.00e+00	0	47	104	0	76	25444
2026-01-08 21:00:49.48	62.65	46.22	-53.0	-57.3	3.7	0.00e+00	0	47	104	0	76	25308
2026-01-08 21:00:50.77	63.63	46.61	-53.1	-57.4	3.7	0.00e+00	0	47	104	0	76	25678
2026-01-08 21:00:51.48	64.18	46.83	-53.1	-57.6	3.7	0.00e+00	0	47	104	0	76	26057
2026-01-08 21:00:52.77	65.20	47.21	-52.8	-57.0	3.7	0.00e+00	0	47	104	0	76	24267
2026-01-08 21:00:53.49	65.78	47.42	-52.8	-57.0	3.7	0.00e+00	0	47	104	0	76	24259
2026-01-08 21:00:54.78	66.84	47.80	-53.1	-57.5	3.7	0.00e+00	0	47	104	0	76	25815
2026-01-08 21:00:55.56	67.50	48.03	-53.1	-57.6	3.7	0.00e+00	0	48	104	0	76	26261
2026-01-08 21:00:56.85	68.60	48.39	-52.9	-57.2	3.7	0.00e+00	0	47	104	0	76	25071
2026-01-08 21:00:57.56	69.22	48.59	-52.8	-57.2	3.7	0.00e+00	0	47	104	0	76	24923
2026-01-08 21:00:58.86	70.37	48.94	-53.2	-57.7	3.7	0.00e+00	0	47	104	0	76	26454
2026-01-08 21:00:59.70	71.14	49.17	-53.0	-57.6	3.6	0.00e+00	0	47	104	0	76	26018
2026-01-08 21:01:00.85	72.20	49.47	-52.7	-56.9	3.7	0.00e+00	0	47	104	0	76	24099
2026-01-08 21:01:01.71	73.00	49.69	-52.6	-56.8	3.7	0.00e+00	0	47	104	0	76	23740
2026-01-08 21:01:02.85	74.09	49.97	-53.0	-57.4	3.7	0.00e+00	0	47	104	0	76	25645
2026-01-08 21:01:03.72	74.93	50.19	-53.0	-57.4	3.7	0.00e+00	0	47	104	0	76	25459
2026-01-08 21:01:04.86	76.06	50.45	-52.9	-57.3	3.7	0.00e+00	0	47	104	0	76	25229
2026-01-08 21:01:05.72	76.92	50.65	-53.0	-57.4	3.7	0.00e+00	0	47	104	0	76	25594
2026-01-08 21:01:06.90	78.12	50.91	-52.9	-57.4	3.7	0.00e+00	0	47	104	0	76	25529
2026-01-08 21:01:07.76	79.01	51.09	-52.8	-57.4	3.7	0.00e+00	0	47	104	0	76	25602
2026-01-08 21:01:09.01	80.32	51.34	-52.7	-57.4	3.7	0.00e+00	0	47	104	0	76	25489
2026-01-08 21:01:09.86	81.22	51.51	-52.4	-57.3	3.7	0.00e+00	0	48	104	0	76	25215
2026-01-08 21:01:11.00	82.45	51.72	-52.5	-57.3	3.7	0.00e+00	0	47	104	0	76	25191
2026-01-08 21:01:11.86	83.39	51.87	-52.2	-57.2	3.7	0.00e+00	0	47	104	0	76	24994
2026-01-08 21:01:13.14	84.80	52.08	-52.2	-57.1	3.7	0.00e+00	0	47	104	0	76	24783
2026-01-08 21:01:13.86	85.60	52.19	-52.4	-57.2	3.7	0.00e+00	0	47	104	0	76	24857
2026-01-08 21:01:15.15	87.06	52.37	-52.4	-57.2	3.7	0.00e+00	0	47	104	0	76	24882
2026-01-08 21:01:15.86	87.87	52.47	-52.5	-57.4	3.7	0.00e+00	0	47	104	0	76	25413
2026-01-08 21:01:17.16	89.36	52.63	-52.2	-57.1	3.7	0.00e+00	0	47	104	0	76	24605
2026-01-08 21:01:17.87	90.18	52.70	-52.7	-57.4	3.7	0.00e+00	0	47	104	0	76	25510
2026-01-08 21:01:19.16	91.69	52.83	-52.6	-57.3	3.7	0.00e+00	0	47	104	0	76	25341
2026-01-08 21:01:19.96	92.63	52.90	-52.1	-57.0	3.7	0.00e+00	0	48	104	0	76	24480
2026-01-08 21:01:21.10	93.97	52.99	-51.6	-56.7	3.7	0.00e+00	0	47	104	0	75	24932
2026-01-08 21:01:21.96	94.99	53.04	-53.1	-57.6	3.7	0.00e+00	0	47	104	0	76	26171
2026-01-08 21:01:23.11	96.36	53.10	-52.9	-57.6	3.7	0.00e+00	0	47	104	0	76	26018
2026-01-08 21:01:23.97	97.39	53.13	-53.0	-57.5	3.7	0.00e+00	0	47	104	0	76	25765
2026-01-08 21:01:25.12	98.77	53.16	-52.7	-57.4	3.7	0.00e+00	0	47	104	0	76	25396
2026-01-08 21:01:26.34	100.23	53.17	-52.7	-57.4	3.7	0.00e+00	0	47	104	0	76	25568
2026-01-08 21:01:27.20	101.27	53.17	-52.8	-57.4	3.7	0.00e+00	0	47	104	0	76	25461
2026-01-08 21:01:28.35	102.65	53.16	-53.0	-57.6	3.7	0.00e+00	0	47	104	0	76	26031
2026-01-08 21:01:29.21	103.68	53.13	-52.9	-57.4	3.7	0.00e+00	0	47	104	0	76	25482
2026-01-08 21:01:30.36	105.05	53.09	-52.2	-57.1	3.7	0.00e+00	0	47	104	0	76	24613
2026-01-08 21:01:31.22	106.08	53.04	-52.9	-57.4	3.7	0.00e+00	0	47	104	0	76	25431
2026-01-08 21:01:32.36	107.43	52.97	-52.9	-57.3	3.7	0.00e+00	0	48	104	0	76	25347
2026-01-08 21:01:33.22	108.44	52.91	-52.8	-57.3	3.7	0.00e+00	0	47	104	0	76	25318
2026-01-08 21:01:34.37	109.80	52.81	-53.0	-57.2	3.7	0.00e+00	0	47	104	0	76	24975
2026-01-08 21:01:35.23	110.80	52.72	-52.9	-57.3	3.7	0.00e+00	0	47	104	0	76	25352
2026-01-08 21:01:36.38	112.13	52.59	-52.9	-57.3	3.7	0.00e+00	0	47	104	0	76	25363
2026-01-08 21:01:37.24	113.12	52.49	-52.8	-57.2	3.7	0.00e+00	0	47	104	0	76	24984
2026-01-08 21:01:38.60	114.67	52.30	-52.7	-57.1	3.7	0.00e+00	0	47	104	0	76	24682
2026-01-08 21:01:39.31	115.47	52.20	-52.6	-57.0	3.7	0.00e+00	0	47	104	0	76	24314
2026-01-08 21:01:40.60	116.91	52.00	-52.8	-57.1	3.7	0.00e+00	0	48	104	0	76	24526
2026-01-08 21:01:41.31	117.69	51.88	-52.9	-57.2	3.7	0.00e+00	0	48	104	0	76	25077
2026-01-08 21:01:42.61	119.11	51.65	-53.1	-57.5	3.7	0.00e+00	0	47	104	0	76	25915
2026-01-08 21:01:43.32	119.87	51.52	-52.9	-57.4	3.7	0.00e+00	0	47	104	0	76	25635
2026-01-08 21:01:44.61	121.24	51.27	-52.8	-57.2	3.7	0.00e+00	0	48	104	0	76	24976
2026-01-08 21:01:45.33	122.00	51.12	-52.6	-57.2	3.7	0.00e+00	0	47	104	0	76	25044
2026-01-08 21:01:46.62	123.33	50.85	-52.6	-57.0	3.7	0.00e+00	0	47	104	0	76	24315
2026-01-08 21:01:47.51	124.24	50.65	-52.9	-57.2	3.7	0.00e+00	0	47	104	0	76	25015
2026-01-08 21:01:48.53	125.26	50.42	-53.0	-57.3	3.7	0.00e+00	0	48	104	0	76	25371
2026-01-08 21:01:49.54	126.26	50.18	-52.9	-57.2	3.7	0.00e+00	0	47	104	0	76	24900
2026-01-08 21:01:50.54	127.23	49.93	-53.0	-57.3	3.7	0.00e+00	0	47	104	0	76	25342
2026-01-08 21:01:51.54	128.18	49.68	-53.0	-57.3	3.7	0.00e+00	0	48	104	0	76	25303
2026-01-08 21:01:52.54	129.12	49.43	-52.8	-57.3	3.7	0.00e+00	0	47	104	0	76	25111
2026-01-08 21:01:53.55	130.05	49.16	-52.8	-57.1	3.7	0.00e+00	0	48	104	0	76	24630
2026-01-08 21:01:54.55	130.96	48.89	-52.7	-56.9	3.7	0.00e+00	0	47	104	0	76	24048
2026-01-08 21:01:55.55	131.85	48.62	-52.6	-57.0	3.7	0.00e+00	0	47	104	0	76	24450
2026-01-08 21:01:56.55	132.72	48.34	-52.6	-56.9	3.7	0.00e+00	0	47	104	0	76	24073
2026-01-08 21:01:57.56	133.59	48.05	-52.7	-56.9	3.7	0.00e+00	0	48	104	0	76	24141
2026-01-08 21:01:58.56	134.43	47.76	-52.7	-56.9	3.7	0.00e+00	0	47	104	0	76	24128
2026-01-08 21:01:59.56	135.26	47.47	-52.4	-56.5	3.7	0.00e+00	0	47	104	0	76	23110
2026-01-08 21:02:00.57	136.07	47.17	-52.8	-57.2	3.7	0.00e+00	0	47	104	0	76	24812
2026-01-08 21:02:01.57	136.87	46.87	-52.8	-57.2	3.7	0.00e+00	0	47	104	0	76	24818
2026-01-08 21:02:02.57	137.65	46.56	-52.9	-57.2	3.7	0.00e+00	0	47	104	0	76	24907
2026-01-08 21:02:03.57	138.41	46.26	-52.7	-56.7	3.7	0.00e+00	0	48	104	0	76	23624
2026-01-08 21:02:04.58	139.16	45.95	-53.0	-57.3	3.7	0.00e+00	0	48	104	0	76	25242
2026-01-08 21:02:05.58	139.90	45.63	-53.0	-57.4	3.7	0.00e+00	0	48	104	0	76	25595
2026-01-08 21:02:06.59	140.62	45.32	-52.7	-57.0	3.7	0.00e+00	0	47	104	0	76	24382
2026-01-08 21:02:07.59	141.33	45.00	-52.6	-57.1	3.7	0.00e+00	0	48	104	0	76	24592
2026-01-08 21:02:08.60	142.02	44.68	-52.4	-56.9	3.7	0.00e+00	0	47	104	0	76	24133
2026-01-08 21:02:09.60	142.70	44.36	-52.4	-56.9	3.7	0.00e+00	0	48	104	0	76	24033
2026-01-08 21:02:10.60	143.36	44.04	-52.9	-57.3	3.7	0.00e+00	0	48	104	0	76	25260
2026-01-08 21:02:11.60	144.01	43.72	-52.8	-57.4	3.7	0.00e+00	0	47	104	0	76	25558
2026-01-08 21:02:12.69	144.70	43.37	-52.8	-57.3	3.7	0.00e+00	0	47	104	0	76	25241
2026-01-08 21:02:13.55	145.23	43.10	-52.8	-57.4	3.7	0.00e+00	0	47	104	0	76	25475
2026-01-08 21:02:14.70	145.93	42.72	-52.9	-57.3	3.7	0.00e+00	0	48	104	0	76	25121
2026-01-08 21:02:15.65	146.50	42.42	-52.6	-57.3	3.7	0.00e+00	0	48	104	0	76	25253
2026-01-08 21:02:16.65	147.08	42.10	-52.6	-57.3	3.7	0.00e+00	0	47	104	0	76	25276
2026-01-08 21:02:17.66	147.66	41.77	-52.8	-57.4	3.7	0.00e+00	0	47	104	0	76	25492
2026-01-08 21:02:18.66	148.22	41.45	-52.7	-57.2	3.7	0.00e+00	0	47	104	0	76	24955
2026-01-08 21:02:19.66	148.76	41.12	-52.8	-57.3	3.7	0.00e+00	0	47	104	0	76	25149
2026-01-08 21:02:20.67	149.31	40.80	-52.8	-57.2	3.7	0.00e+00	0	48	104	0	76	25052
2026-01-08 21:02:21.67	149.83	40.48	-52.8	-57.3	3.7	0.00e+00	0	48	104	0	76	25318
2026-01-08 21:02:22.68	150.35	40.16	-52.7	-57.2	3.7	0.00e+00	0	47	104	0	76	25022
2026-01-08 21:02:23.68	150.86	39.84	-52.8	-57.3	3.7	0.00e+00	0	47	104	0	76	25145
2026-01-08 21:02:24.68	151.35	39.52	-52.9	-57.3	3.7	0.00e+00	0	47	104	0	76	25161
2026-01-08 21:02:25.68	151.84	39.20	-52.8	-57.2	3.7	0.00e+00	0	48	104	0	76	24863
2026-01-08 21:02:26.69	152.32	38.88	-52.9	-57.4	3.7	0.00e+00	0	47	104	0	76	25469
2026-01-08 21:02:27.77	152.82	38.54	-52.5	-57.1	3.7	0.00e+00	0	47	104	0	76	24738
2026-01-08 21:02:28.66	153.23	38.26	-52.6	-57.2	3.7	0.00e+00	0	48	104	0	76	24899
2026-01-08 21:02:29.67	153.68	37.95	-52.5	-57.1	3.7	0.00e+00	0	47	104	0	76	24691
2026-01-08 21:02:30.67	154.12	37.64	-52.6	-57.2	3.7	0.00e+00	0	48	104	0	76	24919
2026-01-08 21:02:31.67	154.55	37.33	-52.9	-57.4	3.7	0.00e+00	0	47	104	0	76	25426
2026-01-08 21:02:32.95	155.08	36.94	-52.9	-57.3	3.7	0.00e+00	0	47	104	0	76	25272
2026-01-08 21:02:33.69	155.39	36.71	-52.9	-57.4	3.7	0.00e+00	0	47	104	0	76	25518
2026-01-08 21:02:34.99	155.91	36.32	-52.8	-57.3	3.7	0.00e+00	0	48	104	0	76	25316
2026-01-08 21:02:35.70	156.19	36.10	-52.2	-56.9	3.7	0.00e+00	0	48	104	0	76	23971
2026-01-08 21:02:36.99	156.70	35.71	-52.2	-56.9	3.7	0.00e+00	0	48	104	0	76	24100
2026-01-08 21:02:37.71	156.97	35.50	-52.3	-57.0	3.7	0.00e+00	0	48	104	0	76	24317
2026-01-08 21:02:39.00	157.45	35.12	-52.4	-57.0	3.7	0.00e+00	0	48	104	0	76	24282
2026-01-08 21:02:39.72	157.72	34.91	-52.7	-57.2	3.7	0.00e+00	0	47	104	0	76	25044
2026-01-08 21:02:41.01	158.18	34.53	-52.6	-57.1	3.7	0.00e+00	0	47	104	0	76	24766
2026-01-08 21:02:41.73	158.44	34.32	-52.7	-57.3	3.7	0.00e+00	0	47	104	0	76	25201
2026-01-08 21:02:43.02	158.88	33.95	-52.6	-57.2	3.6	0.00e+00	0	48	104	0	76	24879
2026-01-08 21:02:43.73	159.12	33.75	-51.9	-56.7	3.7	0.00e+00	0	47	104	0	75	24811
2026-01-08 21:02:45.02	159.55	33.38	-52.1	-56.9	3.7	0.00e+00	0	47	104	0	75	25440
2026-01-08 21:02:45.74	159.79	33.18	-52.0	-56.7	3.7	0.00e+00	0	47	104	0	75	24893
2026-01-08 21:02:47.03	160.21	32.82	-52.3	-57.1	3.7	0.00e+00	0	48	104	0	75	26066
2026-01-08 21:02:47.75	160.43	32.62	-52.6	-57.2	3.7	0.00e+00	0	48	104	0	75	26473
2026-01-08 21:02:49.04	160.83	32.26	-52.2	-57.0	3.7	0.00e+00	0	47	104	0	75	25905
2026-01-08 21:02:49.76	161.05	32.07	-52.6	-57.1	3.6	0.00e+00	0	48	104	0	75	26251
2026-01-08 21:02:51.04	161.44	31.72	-52.6	-57.2	3.7	0.00e+00	0	47	104	0	75	26369
2026-01-08 21:02:51.76	161.65	31.52	-52.7	-57.3	3.7	0.00e+00	0	47	104	0	76	25228
2026-01-08 21:02:53.05	162.02	31.18	-52.7	-57.3	3.7	0.00e+00	0	47	104	0	76	25125
2026-01-08 21:02:53.77	162.23	30.99	-52.6	-57.3	3.7	0.00e+00	0	47	104	0	76	25256
2026-01-08 21:02:55.05	162.58	30.65	-52.5	-57.0	3.7	0.00e+00	0	47	104	0	76	24497
2026-01-08 21:02:55.77	162.78	30.47	-52.4	-57.0	3.7	0.00e+00	0	47	104	0	76	24480
2026-01-08 21:02:57.06	163.13	30.13	-52.3	-56.9	3.7	0.00e+00	0	47	104	0	76	24234
2026-01-08 21:02:58.22	163.44	29.84	-52.8	-57.2	3.7	0.00e+00	0	47	104	0	76	25033
2026-01-08 21:02:59.08	163.66	29.62	-52.5	-57.0	3.7	0.00e+00	0	48	104	0	76	24279
2026-01-08 21:03:00.23	163.95	29.33	-52.7	-57.1	3.7	0.00e+00	0	47	104	0	76	24710
2026-01-08 21:03:01.09	164.17	29.11	-52.7	-57.1	3.7	0.00e+00	0	47	104	0	76	24532
2026-01-08 21:03:02.35	164.48	28.80	-52.4	-56.9	3.7	0.00e+00	0	48	104	0	76	24048
2026-01-08 21:03:03.08	164.66	28.62	-52.6	-57.1	3.7	0.00e+00	0	47	104	0	76	24576
2026-01-08 21:03:04.37	164.96	28.31	-52.7	-57.0	3.7	0.00e+00	0	47	104	0	76	24308
2026-01-08 21:03:05.08	165.13	28.14	-52.4	-56.8	3.7	0.00e+00	0	47	104	0	76	23794
2026-01-08 21:03:06.37	165.43	27.83	-52.7	-57.0	3.7	0.00e+00	0	48	104	0	76	24496
2026-01-08 21:03:07.09	165.59	27.66	-52.8	-57.2	3.7	0.00e+00	0	47	104	0	76	25041
2026-01-08 21:03:08.38	165.88	27.36	-52.4	-57.0	3.7	0.00e+00	0	47	104	0	76	24251
2026-01-08 21:03:09.17	166.06	27.17	-52.6	-57.1	3.7	0.00e+00	0	48	104	0	76	24689
2026-01-08 21:03:10.66	166.38	26.83	-52.3	-56.8	3.7	0.00e+00	0	47	104	0	76	23804
2026-01-08 21:03:11.38	166.53	26.67	-52.2	-56.8	3.7	0.00e+00	0	47	104	0	76	23791
2026-01-08 21:03:12.67	166.80	26.37	-52.2	-56.8	3.7	0.00e+00	0	47	104	0	76	23848
2026-01-08 21:03:13.39	166.95	26.21	-52.2	-56.8	3.7	0.00e+00	0	47	104	0	76	23807
2026-01-08 21:03:14.68	167.21	25.93	-52.3	-56.8	3.7	0.00e+00	0	48	104	0	76	23870
2026-01-08 21:03:15.39	167.35	25.77	-52.1	-56.6	3.7	0.00e+00	0	47	104	0	76	23169
2026-01-08 21:03:16.68	167.61	25.49	-52.1	-56.6	3.7	0.00e+00	0	47	104	0	75	24615
2026-01-08 21:03:17.51	167.77	25.31	-51.7	-56.4	3.7	0.00e+00	0	48	104	0	75	23979
2026-01-08 21:03:18.66	167.99	25.06	-52.3	-56.9	3.7	0.00e+00	0	48	104	0	75	25420
2026-01-08 21:03:19.52	168.15	24.88	-52.4	-57.0	3.7	0.00e+00	0	48	104	0	75	25820
2026-01-08 21:03:20.67	168.36	24.63	-52.5	-57.1	3.7	0.00e+00	0	48	104	0	75	26108
2026-01-08 21:03:21.81	168.57	24.39	-52.6	-57.1	3.7	0.00e+00	0	47	104	0	75	26251
2026-01-08 21:03:22.85	168.76	24.18	-52.4	-56.8	3.7	0.00e+00	0	47	104	0	75	25177
2026-01-08 21:03:23.85	168.94	23.97	-52.1	-56.5	3.7	0.00e+00	0	48	104	0	75	24398
2026-01-08 21:03:24.85	169.11	23.77	-52.1	-56.5	3.7	0.00e+00	0	48	104	0	75	24321
2026-01-08 21:03:25.85	169.28	23.57	-52.4	-56.8	3.7	0.00e+00	0	47	104	0	75	25336
2026-01-08 21:03:26.85	169.45	23.37	-52.1	-56.4	3.7	0.00e+00	0	47	104	0	75	24114
2026-01-08 21:03:27.86	169.62	23.17	-52.3	-56.9	3.7	0.00e+00	0	47	104	0	75	25553
2026-01-08 21:03:28.86	169.79	22.97	-51.9	-56.5	3.7	0.00e+00	0	48	104	0	75	24382
2026-01-08 21:03:29.86	169.95	22.77	-51.5	-56.3	3.7	0.00e+00	0	47	104	0	74	25114
2026-01-08 21:03:30.86	170.11	22.58	-51.3	-56.1	3.7	0.00e+00	0	47	104	0	74	24653
2026-01-08 21:03:31.87	170.27	22.39	-51.5	-56.2	3.6	0.00e+00	0	47	104	0	74	24934
2026-01-08 21:03:32.87	170.43	22.20	-51.6	-56.2	3.7	0.00e+00	0	48	104	0	74	24833
2026-01-08 21:03:33.89	170.58	22.00	-51.8	-56.3	3.7	0.00e+00	0	47	104	0	74	25249
2026-01-08 21:03:34.90	170.74	21.82	-51.6	-56.3	3.7	0.00e+00	0	47	104	0	74	25177
2026-01-08 21:03:35.96	170.89	21.62	-51.5	-56.1	3.7	0.00e+00	0	48	104	0	74	24786
2026-01-08 21:03:36.82	171.02	21.46	-51.8	-56.4	3.7	0.00e+00	0	47	104	0	74	25597
2026-01-08 21:03:37.97	171.19	21.25	-51.3	-56.0	3.7	0.00e+00	0	47	104	0	74	24422
2026-01-08 21:03:38.83	171.31	21.09	-51.5	-56.0	3.7	0.00e+00	0	48	104	0	74	24270
2026-01-08 21:03:39.98	171.48	20.89	-51.0	-55.5	3.7	0.00e+00	0	47	104	0	74	23043
2026-01-08 21:03:40.84	171.60	20.73	-51.3	-56.0	3.7	0.00e+00	0	48	104	0	74	24323
2026-01-08 21:03:41.98	171.76	20.53	-50.9	-55.5	3.7	0.00e+00	0	47	104	0	73	24327
2026-01-08 21:03:42.84	171.87	20.38	-51.2	-55.8	3.7	0.00e+00	0	48	104	0	73	25257
2026-01-08 21:03:43.99	172.03	20.18	-51.0	-55.8	3.7	0.00e+00	0	48	104	0	73	25260
2026-01-08 21:03:44.85	172.14	20.03	-51.0	-55.4	3.7	0.00e+00	0	47	104	0	73	24237
2026-01-08 21:03:46.03	172.30	19.83	-51.1	-55.9	3.7	0.00e+00	0	47	104	0	73	25499
2026-01-08 21:03:46.89	172.41	19.68	-51.0	-55.8	3.7	0.00e+00	0	47	104	0	73	25192
2026-01-08 21:03:48.04	172.56	19.49	-51.5	-56.3	3.7	0.00e+00	0	48	104	0	73	26646
2026-01-08 21:03:48.90	172.67	19.35	-50.9	-55.8	3.7	0.00e+00	0	48	104	0	73	25291
2026-01-08 21:03:50.04	172.81	19.16	-51.7	-56.4	3.7	0.00e+00	0	48	104	0	74	25465
2026-01-08 21:03:50.91	172.92	19.01	-50.9	-55.5	3.7	0.00e+00	0	48	104	0	73	24519
2026-01-08 21:03:52.05	173.06	18.83	-51.3	-55.6	3.7	0.00e+00	0	47	104	0	73	24734
2026-01-08 21:03:52.91	173.16	18.69	-50.8	-55.4	3.7	0.00e+00	0	48	104	0	73	24160
2026-01-08 21:03:54.06	173.30	18.50	-51.0	-55.3	3.7	0.00e+00	0	47	104	0	73	23830
2026-01-08 21:03:54.91	173.40	18.37	-51.2	-55.5	3.7	0.00e+00	0	48	104	0	73	24244
2026-01-08 21:03:56.06	173.53	18.19	-51.3	-55.6	3.7	0.00e+00	0	47	104	0	73	24768
2026-01-08 21:03:56.92	173.63	18.05	-51.4	-55.9	3.7	0.00e+00	0	47	104	0	73	25620
2026-01-08 21:03:58.07	173.76	17.87	-51.6	-56.1	3.7	0.00e+00	0	48	104	0	73	26174
2026-01-08 21:03:58.93	173.86	17.74	-51.8	-56.3	3.7	0.00e+00	0	47	104	0	74	25337
2026-01-08 21:04:00.11	173.99	17.56	-51.5	-56.2	3.7	0.00e+00	0	48	104	0	74	24853
2026-01-08 21:04:00.96	174.09	17.43	-51.4	-56.2	3.7	0.00e+00	0	47	104	0	74	25032
2026-01-08 21:04:02.11	174.21	17.25	-51.3	-56.1	3.7	0.00e+00	0	47	104	0	74	24609
2026-01-08 21:04:02.97	174.30	17.13	-50.9	-55.8	3.7	0.00e+00	0	47	104	0	73	25119
2026-01-08 21:04:04.12	174.43	16.95	-51.4	-56.3	3.7	0.00e+00	0	47	104	0	73	26722
2026-01-08 21:04:05.03	174.52	16.82	-50.6	-55.3	3.7	0.00e+00	0	47	104	0	73	23797
2026-01-08 21:04:06.03	174.63	16.67	-51.3	-56.2	3.7	0.00e+00	0	47	104	0	73	26507
2026-01-08 21:04:07.03	174.73	16.53	-50.1	-54.9	3.7	0.00e+00	0	47	104	0	72	23991
2026-01-08 21:04:08.03	174.83	16.38	-50.0	-54.7	3.7	0.00e+00	0	48	104	0	72	23614
2026-01-08 21:04:09.04	174.93	16.24	-50.0	-54.8	3.7	0.00e+00	0	47	104	0	71	25335
2026-01-08 21:04:10.04	175.03	16.09	-50.0	-54.9	3.7	0.00e+00	0	47	104	0	71	25509
2026-01-08 21:04:11.04	175.13	15.95	-50.1	-54.9	3.7	0.00e+00	0	48	104	0	71	25641
2026-01-08 21:04:12.05	175.23	15.81	-50.4	-55.2	3.7	0.00e+00	0	47	104	0	71	26517
2026-01-08 21:04:13.05	175.32	15.67	-50.0	-54.8	3.7	0.00e+00	0	48	104	0	71	25160
2026-01-08 21:04:14.05	175.42	15.53	-50.6	-55.4	3.7	0.00e+00	0	48	104	0	71	26992
2026-01-08 21:04:15.06	175.52	15.39	-50.2	-55.1	3.7	0.00e+00	0	48	104	0	71	26179
2026-01-08 21:04:16.06	175.61	15.26	-50.5	-55.3	3.7	0.00e+00	0	47	104	0	71	26710
2026-01-08 21:04:17.06	175.70	15.12	-50.4	-55.2	3.7	0.00e+00	0	48	104	0	71	26579
2026-01-08 21:04:18.19	175.80	14.97	-50.6	-55.4	3.7	0.00e+00	0	48	104	0	71	26936
2026-01-08 21:04:19.08	175.88	14.85	-50.5	-55.2	3.7	0.00e+00	0	47	104	0	71	26425
2026-01-08 21:04:20.42	176.00	14.67	-50.6	-55.4	3.7	0.00e+00	0	47	104	0	72	25453
2026-01-08 21:04:21.13	176.07	14.58	-50.4	-55.2	3.7	0.00e+00	0	48	104	0	72	25092
2026-01-08 21:04:22.42	176.18	14.41	-50.9	-55.5	3.7	0.00e+00	0	47	104	0	72	25694
2026-01-08 21:04:23.14	176.24	14.31	-50.6	-55.2	3.7	0.00e+00	0	47	104	0	72	25051
2026-01-08 21:04:24.43	176.35	14.15	-51.0	-55.6	3.7	0.00e+00	0	47	104	0	73	24600
2026-01-08 21:04:25.14	176.41	14.06	-50.8	-55.4	3.7	0.00e+00	0	47	104	0	73	24021
2026-01-08 21:04:26.79	176.55	13.85	-50.7	-55.4	3.7	0.00e+00	0	48	104	0	73	24015
2026-01-08 21:04:27.36	176.60	13.77	-50.6	-55.4	3.7	0.00e+00	0	47	104	0	73	24066
2026-01-08 21:04:28.95	176.73	13.57	-51.3	-55.8	3.7	0.00e+00	0	47	104	0	73	25178
2026-01-08 21:04:29.53	176.78	13.50	-51.4	-55.9	3.7	0.00e+00	0	47	104	0	73	25512
2026-01-08 21:04:31.12	176.91	13.30	-51.5	-56.2	3.7	0.00e+00	0	47	104	0	73	26369
2026-01-08 21:04:31.69	176.95	13.23	-51.7	-56.5	3.7	0.00e+00	0	47	104	0	74	25732
2026-01-08 21:04:33.33	177.08	13.03	-51.6	-56.3	3.7	0.00e+00	0	48	104	0	74	25244
2026-01-08 21:04:33.91	177.13	12.96	-51.7	-56.3	3.7	0.00e+00	0	47	104	0	74	25270
2026-01-08 21:04:35.53	177.25	12.77	-51.6	-56.2	3.7	0.00e+00	0	47	104	0	73	26389
2026-01-08 21:04:36.10	177.29	12.70	-51.6	-56.3	3.7	0.00e+00	0	48	104	0	74	25108
2026-01-08 21:04:37.70	177.41	12.51	-48.3	-53.4	3.7	0.00e+00	0	47	104	0	68	25678
2026-01-08 21:04:38.28	177.46	12.44	-47.5	-52.7	3.7	0.00e+00	0	47	104	0	67	24928
2026-01-08 21:04:39.86	177.58	12.26	-46.7	-52.0	3.7	0.00e+00	0	48	104	0	65	25733
2026-01-08 21:04:40.60	177.63	12.17	-46.7	-52.0	3.7	0.00e+00	0	47	104	0	65	25702
2026-01-08 21:04:41.89	177.72	12.02	-47.4	-52.6	3.7	0.00e+00	0	48	104	0	65	27707
2026-01-08 21:04:42.61	177.77	11.94	-49.8	-54.7	3.7	0.00e+00	0	48	104	0	70	26541
2026-01-08 21:04:43.90	177.87	11.79	-47.0	-52.2	3.7	0.00e+00	0	48	104	0	65	26572
2026-01-08 21:04:44.61	177.92	11.71	-47.2	-52.4	3.7	0.00e+00	0	48	104	0	65	27025
2026-01-08 21:04:45.90	178.01	11.56	-46.8	-52.0	3.7	0.00e+00	0	48	104	0	65	25834
2026-01-08 21:04:46.62	178.06	11.48	-46.9	-52.1	3.7	0.00e+00	0	48	104	0	65	26262
2026-01-08 21:04:47.91	178.15	11.34	-47.1	-52.4	3.7	0.00e+00	0	47	104	0	65	26944
2026-01-08 21:04:48.63	178.20	11.26	-47.2	-52.4	3.7	0.00e+00	0	47	104	0	65	27186
2026-01-08 21:04:49.92	178.28	11.12	-47.2	-52.4	3.7	0.00e+00	0	48	104	0	65	27056
2026-01-08 21:04:50.63	178.33	11.04	-47.6	-52.7	3.7	0.00e+00	0	47	104	0	65	28142
2026-01-08 21:04:51.92	178.42	10.90	-48.1	-53.2	3.7	0.00e+00	0	47	104	0	66	28012
2026-01-08 21:04:52.64	178.46	10.82	-47.2	-52.4	3.7	0.00e+00	0	48	104	0	66	25428
2026-01-08 21:04:54.27	178.57	10.64	-47.1	-52.3	3.7	0.00e+00	0	48	104	0	66	25299
2026-01-08 21:04:54.84	178.61	10.58	-47.2	-52.4	3.7	0.00e+00	0	48	104	0	66	25668
2026-01-08 21:04:56.41	178.71	10.41	-47.4	-52.6	3.7	0.00e+00	0	48	104	0	66	26112
2026-01-08 21:04:57.00	178.74	10.35	-47.5	-52.7	3.7	0.00e+00	0	47	104	0	66	26430
2026-01-08 21:04:58.58	178.84	10.19	-47.7	-52.9	3.7	0.00e+00	0	48	104	0	66	26969
2026-01-08 21:04:59.15	178.88	10.13	-47.8	-52.9	3.7	0.00e+00	0	48	104	0	66	27162
2026-01-08 21:05:00.73	178.98	9.96	-49.8	-54.8	3.7	0.00e+00	0	47	104	0	70	26772
2026-01-08 21:05:01.32	179.01	9.90	-50.4	-55.3	3.7	0.00e+00	0	48	104	0	71	26775
2026-01-08 21:05:02.89	179.11	9.74	-47.5	-52.7	3.7	0.00e+00	0	48	104	0	66	26448
2026-01-08 21:05:03.50	179.14	9.68	-47.4	-52.6	3.7	0.00e+00	0	48	104	0	66	26183
2026-01-08 21:05:05.07	179.24	9.52	-47.3	-52.5	3.7	0.00e+00	0	48	104	0	66	25874
2026-01-08 21:05:06.06	179.30	9.42	-47.4	-52.6	3.7	0.00e+00	0	47	104	0	66	26251
2026-01-08 21:05:07.06	179.35	9.32	-47.7	-53.0	3.7	0.00e+00	0	48	104	0	66	27403
2026-01-08 21:05:08.07	179.41	9.22	-47.8	-53.1	3.7	0.00e+00	0	48	104	0	66	27765
2026-01-08 21:05:09.07	179.47	9.12	-47.9	-53.2	3.7	0.00e+00	0	48	104	0	66	28073
2026-01-08 21:05:10.07	179.53	9.02	-49.1	-54.2	3.7	0.00e+00	0	47	104	0	69	26465
2026-01-08 21:05:11.16	179.59	8.91	-49.0	-54.1	3.7	0.00e+00	0	47	104	0	68	27684
2026-01-08 21:05:12.04	179.64	8.83	-50.5	-55.5	3.7	0.00e+00	0	47	104	0	72	25760
2026-01-08 21:05:13.18	179.70	8.71	-51.2	-56.1	3.7	0.00e+00	0	48	104	0	73	26205
2026-01-08 21:05:14.08	179.75	8.63	-51.8	-56.4	3.7	0.00e+00	0	48	104	0	74	25470
2026-01-08 21:05:15.10	179.81	8.53	-51.9	-56.6	3.7	0.00e+00	0	48	104	0	74	26129
2026-01-08 21:05:16.10	179.86	8.43	-52.1	-56.5	3.7	0.00e+00	0	48	104	0	75	24398
2026-01-08 21:05:17.10	179.92	8.34	-52.5	-56.9	3.7	0.00e+00	0	48	104	0	75	25556
2026-01-08 21:05:18.11	179.97	8.24	-52.5	-56.9	3.7	0.00e+00	0	48	104	0	76	24088
2026-01-08 21:05:19.11	180.02	8.15	-52.7	-57.3	3.7	0.00e+00	0	48	104	0	76	25105
2026-01-08 21:05:20.12	180.08	8.05	-52.7	-57.2	3.7	0.00e+00	0	48	104	0	76	25091
2026-01-08 21:05:21.12	180.13	7.96	-52.8	-57.2	3.7	0.00e+00	0	47	104	0	76	24832
2026-01-08 21:05:22.13	180.18	7.86	-52.8	-57.5	3.7	0.00e+00	0	48	104	0	76	25731
2026-01-08 21:05:23.13	180.23	7.77	-53.0	-57.4	3.7	0.00e+00	0	47	104	0	76	25486
2026-01-08 21:05:24.13	180.28	7.68	-52.7	-57.0	3.7	0.00e+00	0	48	104	0	76	24465
2026-01-08 21:05:25.19	180.34	7.58	-53.0	-57.5	3.7	0.00e+00	0	47	104	0	76	25718
2026-01-08 21:05:26.08	180.38	7.50	-53.0	-57.5	3.7	0.00e+00	0	47	104	0	76	25773
2026-01-08 21:05:27.08	180.43	7.41	-52.6	-57.3	3.7	0.00e+00	0	48	104	0	76	25303
2026-01-08 21:05:28.09	180.48	7.32	-53.0	-57.5	3.7	0.00e+00	0	47	104	0	76	25924
2026-01-08 21:05:29.09	180.53	7.23	-52.6	-57.3	3.7	0.00e+00	0	47	104	0	77	23812
2026-01-08 21:05:30.10	180.58	7.14	-53.1	-57.5	3.7	0.00e+00	0	48	104	0	77	24507
2026-01-08 21:05:31.10	180.63	7.05	-53.2	-57.7	3.7	0.00e+00	0	48	104	0	76	26370
2026-01-08 21:05:32.11	180.68	6.96	-53.1	-57.6	3.7	0.00e+00	0	48	104	0	77	24564
2026-01-08 21:05:33.11	180.73	6.87	-53.1	-57.4	3.7	0.00e+00	0	48	104	0	77	24140
2026-01-08 21:05:34.11	180.77	6.78	-52.8	-57.2	3.7	0.00e+00	0	48	104	0	77	23604
2026-01-08 21:05:35.12	180.82	6.70	-52.7	-57.0	3.7	0.00e+00	0	47	104	0	77	23070
2026-01-08 21:05:36.12	180.87	6.61	-52.8	-57.2	3.7	0.00e+00	0	47	104	0	77	23433
2026-01-08 21:05:37.13	180.91	6.52	-52.7	-57.2	3.7	0.00e+00	0	48	104	0	76	25081
2026-01-08 21:05:38.32	180.97	6.42	-52.1	-57.0	3.7	0.00e+00	0	48	104	0	75	25950
2026-01-08 21:05:39.23	181.01	6.34	-52.0	-56.7	3.7	0.00e+00	0	47	104	0	75	25064
2026-01-08 21:05:40.41	181.07	6.24	-52.1	-56.8	3.7	0.00e+00	0	47	104	0	75	25120
2026-01-08 21:05:41.30	181.11	6.16	-52.1	-56.7	3.7	0.00e+00	0	47	104	0	75	25062
2026-01-08 21:05:42.31	181.15	6.08	-52.1	-56.7	3.7	0.00e+00	0	48	104	0	75	25091
2026-01-08 21:05:43.31	181.20	5.99	-52.1	-56.7	3.7	0.00e+00	0	48	104	0	75	25043
2026-01-08 21:05:44.32	181.24	5.91	-52.1	-56.7	3.7	0.00e+00	0	47	104	0	75	24996
2026-01-08 21:05:45.32	181.28	5.82	-52.1	-56.7	3.7	0.00e+00	0	47	104	0	75	25035
2026-01-08 21:05:46.33	181.33	5.74	-52.1	-56.7	3.7	0.00e+00	0	47	104	0	75	25041
2026-01-08 21:05:47.33	181.37	5.66	-52.1	-56.7	3.7	0.00e+00	0	47	104	0	75	25018
2026-01-08 21:05:48.34	181.42	5.57	-52.1	-56.8	3.7	0.00e+00	0	47	104	0	75	25123
2026-01-08 21:05:49.34	181.46	5.49	-52.1	-56.7	3.7	0.00e+00	0	47	104	0	75	25030
2026-01-08 21:05:50.34	181.50	5.41	-52.1	-56.7	3.7	0.00e+00	0	47	104	0	75	24973
2026-01-08 21:05:51.35	181.54	5.33	-52.1	-56.7	3.7	0.00e+00	0	48	104	0	75	24900
2026-01-08 21:05:52.35	181.58	5.24	-52.1	-56.7	3.7	0.00e+00	0	47	104	0	75	24877
2026-01-08 21:05:53.36	181.63	5.16	-52.1	-56.7	3.7	0.00e+00	0	47	104	0	75	24962
2026-01-08 21:05:54.36	181.67	5.08	-52.1	-56.7	3.7	0.00e+00	0	48	104	0	75	24911
2026-01-08 21:05:55.37	181.71	5.00	-52.1	-56.7	3.7	0.00e+00	0	47	104	0	75	24966

#Closed at: 2026-01-08 21:05:56
#Recorded file [0 MB]: D:/Data/31040_260108_235655.dat