passes_logs/2026/01/08/T1/T1__20260108_105745_FENGYUN_3D_rec.log

#Pass ID: 20260108_105745_FENGYUN 3D
#Satellite: FENGYUN 3D
#Configuration: FENGYUN 3D
#almurnet v.1.7.20251203
#Start time: 2026-01-08 10:57:45

#Version: 2.0.20230620
#Station: T1
#Location: 37.570604 lon 55.790049 lat
#TLE: 1 43010U 17072A   26006.26440730  .00000376  00000+0  19957-3 0  9994
#TLE: 2 43010  98.9925 337.9455 0002045 123.9195 236.2175 14.19693586422016

#Time	Az	El	Level	Level2	SNR	BER	BlckErr	Temp	State	Recorded	gain1	gain2
2026-01-08 10:57:45.99	128.90	5.01	-49.9	-61.9	3.8	8.47e-01	0	41	0	0	71	14234
2026-01-08 10:57:46.99	128.85	5.08	-49.9	-61.9	3.8	8.46e-01	0	41	104	0	71	14349
2026-01-08 10:57:48.00	128.80	5.15	-50.0	-62.0	3.8	8.46e-01	0	41	104	0	71	14406
2026-01-08 10:57:49.00	128.75	5.22	-50.0	-62.0	3.8	8.47e-01	0	41	104	0	71	14517
2026-01-08 10:57:50.00	128.70	5.29	-49.9	-62.0	3.8	8.46e-01	0	41	104	0	71	14445
2026-01-08 10:57:51.01	128.65	5.36	-49.9	-62.1	3.8	8.47e-01	0	41	104	0	71	14624
2026-01-08 10:57:52.01	128.59	5.42	-50.0	-62.1	3.8	8.47e-01	0	41	104	0	71	14642
2026-01-08 10:57:53.02	128.54	5.49	-50.0	-62.1	3.8	8.47e-01	0	41	104	0	71	14635
2026-01-08 10:57:54.02	128.49	5.56	-49.9	-62.1	3.8	8.47e-01	0	41	104	0	71	14634
2026-01-08 10:57:55.03	128.44	5.63	-49.9	-62.1	3.8	8.46e-01	0	41	104	0	71	14569
2026-01-08 10:57:56.03	128.38	5.70	-49.9	-62.0	3.8	8.47e-01	0	42	104	0	71	14495
2026-01-08 10:57:57.03	128.33	5.77	-49.9	-62.0	3.8	8.47e-01	0	41	104	0	71	14429
2026-01-08 10:57:58.04	128.28	5.84	-50.0	-61.9	3.8	8.46e-01	0	42	104	0	71	14365
2026-01-08 10:57:59.04	128.22	5.91	-49.9	-61.8	3.8	8.48e-01	0	41	104	0	71	14180
2026-01-08 10:58:00.05	128.17	5.98	-49.9	-61.7	3.8	8.47e-01	0	41	104	0	71	14018
2026-01-08 10:58:01.05	128.11	6.05	-49.9	-61.6	3.8	8.47e-01	0	41	104	0	71	13802
2026-01-08 10:58:02.06	128.06	6.12	-49.9	-61.5	3.8	8.46e-01	0	42	104	0	71	13665
2026-01-08 10:58:03.06	128.00	6.19	-49.8	-61.3	3.8	8.45e-01	0	42	104	0	71	13406
2026-01-08 10:58:04.07	127.95	6.26	-49.8	-61.3	3.8	8.46e-01	0	42	104	0	71	13268
2026-01-08 10:58:05.07	127.89	6.33	-49.9	-61.2	3.8	8.47e-01	0	41	104	0	71	13241
2026-01-08 10:58:06.07	127.84	6.41	-49.9	-61.1	3.8	8.47e-01	0	42	104	0	71	13089
2026-01-08 10:58:07.08	127.78	6.48	-49.9	-61.1	3.8	8.47e-01	0	42	104	0	71	13083
2026-01-08 10:58:08.08	127.72	6.55	-49.8	-61.2	3.8	8.46e-01	0	42	104	0	71	13177
2026-01-08 10:58:09.09	127.67	6.62	-49.9	-61.3	3.8	8.47e-01	0	42	104	0	71	13389
2026-01-08 10:58:10.09	127.61	6.69	-49.9	-61.6	3.8	8.47e-01	0	42	104	0	71	13851
2026-01-08 10:58:11.10	127.55	6.76	-49.9	-61.8	3.8	8.47e-01	0	42	104	0	71	14194
2026-01-08 10:58:12.10	127.49	6.84	-49.9	-62.1	3.8	8.46e-01	0	42	104	0	71	14606
2026-01-08 10:58:13.11	127.44	6.91	-50.0	-62.1	3.8	8.47e-01	0	42	104	0	71	14657
2026-01-08 10:58:14.11	127.38	6.98	-50.0	-62.1	3.8	8.47e-01	0	42	104	0	71	14598
2026-01-08 10:58:15.11	127.32	7.05	-49.9	-61.9	3.8	8.48e-01	0	42	104	0	71	14239
2026-01-08 10:58:16.12	127.26	7.13	-49.9	-61.5	3.8	8.47e-01	0	42	104	0	71	13715
2026-01-08 10:58:17.12	127.20	7.20	-49.8	-61.2	3.8	8.45e-01	0	42	104	0	71	13183
2026-01-08 10:58:18.13	127.14	7.27	-49.7	-60.8	3.8	8.47e-01	0	42	104	0	71	12625
2026-01-08 10:58:19.13	127.08	7.35	-49.8	-60.4	3.8	8.45e-01	0	42	104	0	71	12056
2026-01-08 10:58:20.13	127.02	7.42	-49.6	-59.8	3.8	8.45e-01	0	42	104	0	71	11205
2026-01-08 10:58:21.14	126.96	7.49	-49.4	-58.3	4.3	8.43e-01	0	42	0	0	70	9990
2026-01-08 10:58:22.14	126.90	7.57	-49.0	-56.2	5.1	7.96e-01	0	42	0	0	70	7898
2026-01-08 10:58:23.15	126.84	7.64	-48.4	-54.3	6.6	3.74e-01	0	42	0	3145728	68	7060
2026-01-08 10:58:24.15	126.78	7.72	-47.2	-51.9	8.7	6.89e-02	0	42	0	8388608	66	6026
2026-01-08 10:58:25.16	126.72	7.79	-46.2	-50.0	10.6	1.01e-02	0	43	0	14680064	64	5435
2026-01-08 10:58:26.16	126.65	7.87	-45.1	-48.3	12.5	4.62e-04	0	42	0	19922944	62	4987
2026-01-08 10:58:27.16	126.59	7.94	-44.3	-47.1	13.7	2.63e-05	0	42	0	26214400	60	4881
2026-01-08 10:58:28.17	126.53	8.02	-43.1	-45.6	15.1	2.20e-06	0	42	0	31457280	58	4608
2026-01-08 10:58:29.17	126.47	8.09	-42.4	-44.7	15.9	0.00e+00	0	42	0	36700160	56	4702
2026-01-08 10:58:30.18	126.40	8.17	-41.6	-43.9	16.6	0.00e+00	0	42	0	42991616	55	4495
2026-01-08 10:58:31.18	126.34	8.24	-41.4	-43.6	16.8	0.00e+00	0	42	0	48234496	54	4633
2026-01-08 10:58:32.18	126.28	8.32	-41.2	-43.4	17.0	0.00e+00	0	42	0	53477376	54	4529
2026-01-08 10:58:33.19	126.21	8.39	-41.3	-43.4	17.0	0.00e+00	0	42	0	59768832	54	4533
2026-01-08 10:58:34.19	126.15	8.47	-41.6	-43.8	16.7	0.00e+00	0	43	0	65011712	54	4721
2026-01-08 10:58:35.20	126.08	8.55	-42.0	-44.3	16.2	0.00e+00	0	42	0	71303168	54	5026
2026-01-08 10:58:36.20	126.02	8.62	-42.6	-45.0	15.5	0.00e+00	0	42	0	76546048	55	5150
2026-01-08 10:58:37.21	125.95	8.70	-43.6	-46.2	14.5	1.10e-06	0	43	0	81788928	57	5255
2026-01-08 10:58:38.21	125.88	8.78	-44.8	-47.9	12.9	2.74e-05	0	42	0	88080384	60	5376
2026-01-08 10:58:39.21	125.82	8.85	-45.9	-49.5	11.3	1.15e-03	0	43	0	93323264	62	5736
2026-01-08 10:58:40.22	125.75	8.93	-46.9	-51.1	9.5	1.06e-02	0	42	0	99614720	64	6186
2026-01-08 10:58:41.22	125.68	9.01	-47.9	-53.4	7.3	7.71e-02	0	43	0	104857600	66	7156
2026-01-08 10:58:42.23	125.62	9.09	-48.9	-55.9	5.4	5.78e-01	0	43	0	109051904	68	8484
2026-01-08 10:58:43.29	125.54	9.17	-48.2	-53.7	7.1	2.33e-01	0	43	0	114294784	68	6586
2026-01-08 10:58:44.15	125.48	9.24	-45.1	-48.3	12.6	5.14e-05	0	43	0	119537664	61	5312
2026-01-08 10:58:45.51	125.39	9.34	-49.7	-59.8	3.8	8.47e-01	0	43	104	121634816	70	11908
2026-01-08 10:58:46.22	125.34	9.40	-48.1	-53.6	7.2	1.62e-01	0	43	0	122683392	68	6537
2026-01-08 10:58:47.74	125.24	9.52	-47.3	-52.1	8.5	9.48e-02	0	43	0	131072000	66	6192
2026-01-08 10:58:48.45	125.19	9.58	-47.4	-52.3	8.4	5.85e-02	0	43	0	135266304	66	6306
2026-01-08 10:58:49.74	125.10	9.68	-46.6	-50.9	9.7	1.77e-02	0	43	0	141557760	65	5711
2026-01-08 10:58:50.45	125.05	9.73	-46.1	-49.6	11.2	4.02e-03	0	43	0	145752064	63	5526
2026-01-08 10:58:51.75	124.95	9.84	-45.6	-49.0	11.9	3.86e-04	0	43	0	153092096	62	5434
2026-01-08 10:58:52.46	124.90	9.89	-45.3	-48.5	12.4	4.44e-04	0	43	0	157286400	62	5103
2026-01-08 10:58:53.75	124.81	10.00	-44.9	-48.1	12.8	5.37e-05	0	43	0	164626432	61	5163
2026-01-08 10:58:54.47	124.76	10.05	-44.8	-47.8	13.2	8.81e-05	0	43	0	168820736	61	4985
2026-01-08 10:58:55.76	124.67	10.16	-43.9	-46.6	14.3	5.70e-06	0	43	0	176160768	59	4878
2026-01-08 10:58:56.57	124.61	10.22	-43.2	-45.8	15.1	1.10e-06	0	43	0	180355072	58	4706
2026-01-08 10:58:57.72	124.52	10.32	-42.7	-45.1	15.7	0.00e+00	0	43	0	186646528	57	4636
2026-01-08 10:58:58.82	124.44	10.41	-42.3	-44.7	16.1	0.00e+00	0	43	0	192937984	56	4659
2026-01-08 10:58:59.85	124.36	10.49	-42.2	-44.5	16.3	0.00e+00	0	43	0	199229440	56	4597
2026-01-08 10:59:00.85	124.29	10.57	-41.6	-43.8	16.8	0.00e+00	0	43	0	204472320	55	4483
2026-01-08 10:59:01.85	124.21	10.65	-41.6	-43.9	16.8	0.00e+00	0	43	0	210763776	55	4504
2026-01-08 10:59:02.85	124.14	10.73	-41.5	-43.7	17.0	0.00e+00	0	43	0	216006656	54	4653
2026-01-08 10:59:03.86	124.06	10.82	-41.4	-43.6	17.0	0.00e+00	0	43	0	221249536	54	4628
2026-01-08 10:59:04.86	123.98	10.90	-41.3	-43.4	17.2	0.00e+00	0	43	0	227540992	54	4545
2026-01-08 10:59:05.86	123.91	10.98	-40.6	-42.7	17.8	0.00e+00	0	43	0	232783872	53	4427
2026-01-08 10:59:06.87	123.83	11.07	-40.4	-42.5	18.1	0.00e+00	0	43	0	238026752	52	4557
2026-01-08 10:59:07.87	123.75	11.15	-40.3	-42.4	18.1	0.00e+00	0	43	0	244318208	52	4494
2026-01-08 10:59:08.87	123.67	11.23	-40.3	-42.3	18.2	0.00e+00	0	43	0	249561088	52	4462
2026-01-08 10:59:09.88	123.59	11.32	-40.3	-42.3	18.2	0.00e+00	0	43	0	254803968	52	4475
2026-01-08 10:59:10.95	123.51	11.41	-40.1	-42.1	18.4	0.00e+00	0	43	0	261095424	52	4383
2026-01-08 10:59:11.84	123.44	11.48	-40.1	-42.1	18.4	0.00e+00	0	43	0	266338304	52	4357
2026-01-08 10:59:12.98	123.35	11.58	-40.2	-42.2	18.3	0.00e+00	0	43	0	272629760	52	4422
2026-01-08 10:59:13.84	123.28	11.65	-40.0	-42.0	18.5	0.00e+00	0	43	0	277872640	52	4338
2026-01-08 10:59:14.98	123.18	11.75	-40.0	-42.0	18.5	0.00e+00	0	43	0	284164096	51	4585
2026-01-08 10:59:15.84	123.11	11.82	-40.0	-42.0	18.6	0.00e+00	0	43	0	288358400	51	4560
2026-01-08 10:59:16.99	123.02	11.92	-40.0	-42.0	18.6	0.00e+00	0	43	0	295698432	51	4572
2026-01-08 10:59:17.85	122.95	11.99	-40.1	-42.1	18.5	0.00e+00	0	43	0	299892736	51	4612
2026-01-08 10:59:19.00	122.85	12.09	-40.2	-42.2	18.4	0.00e+00	0	43	0	307232768	51	4675
2026-01-08 10:59:19.85	122.78	12.16	-39.9	-41.9	18.7	0.00e+00	0	43	0	311427072	51	4517
2026-01-08 10:59:21.00	122.68	12.26	-39.9	-41.9	18.7	0.00e+00	0	43	0	317718528	51	4519
2026-01-08 10:59:21.86	122.61	12.34	-40.0	-41.9	18.6	0.00e+00	0	43	0	322961408	51	4545
2026-01-08 10:59:23.08	122.51	12.44	-40.0	-41.9	18.6	0.00e+00	0	43	0	329252864	51	4536
2026-01-08 10:59:23.94	122.43	12.52	-39.9	-41.9	18.7	0.00e+00	0	43	0	334495744	51	4508
2026-01-08 10:59:25.14	122.33	12.62	-39.9	-41.9	18.7	0.00e+00	0	43	0	340787200	51	4500
2026-01-08 10:59:26.39	122.22	12.73	-39.8	-41.8	18.8	0.00e+00	0	43	0	348127232	51	4454
2026-01-08 10:59:27.11	122.16	12.79	-39.9	-41.8	18.8	0.00e+00	0	43	0	352321536	51	4479
2026-01-08 10:59:28.40	122.05	12.91	-39.9	-41.8	18.8	0.00e+00	0	43	0	359661568	51	4486
2026-01-08 10:59:29.12	121.98	12.97	-40.1	-42.1	18.5	0.00e+00	0	43	0	363855872	51	4635
2026-01-08 10:59:30.46	121.86	13.09	-39.7	-41.7	18.9	0.00e+00	0	43	0	371195904	51	4397
2026-01-08 10:59:31.18	121.80	13.15	-39.7	-41.6	19.0	0.00e+00	0	43	0	375390208	51	4366
2026-01-08 10:59:32.46	121.68	13.27	-39.6	-41.6	19.0	0.00e+00	0	43	0	382730240	51	4371
2026-01-08 10:59:33.18	121.62	13.33	-39.5	-41.5	19.1	0.00e+00	0	43	0	385875968	51	4310
2026-01-08 10:59:34.47	121.50	13.45	-39.5	-41.5	19.1	0.00e+00	0	43	0	393216000	50	4561
2026-01-08 10:59:35.19	121.43	13.51	-39.6	-41.6	19.0	0.00e+00	0	43	0	397410304	50	4629
2026-01-08 10:59:36.48	121.31	13.63	-39.7	-41.7	18.9	0.00e+00	0	43	0	404750336	50	4663
2026-01-08 10:59:37.20	121.25	13.69	-39.6	-41.6	19.0	0.00e+00	0	43	0	408944640	50	4606
2026-01-08 10:59:38.48	121.13	13.81	-39.7	-41.7	18.9	0.00e+00	0	43	0	416284672	50	4664
2026-01-08 10:59:39.20	121.06	13.87	-39.8	-41.8	18.8	0.00e+00	0	43	0	420478976	50	4728
2026-01-08 10:59:40.82	120.90	14.02	-39.6	-41.6	19.0	0.00e+00	0	43	0	428867584	50	4607
2026-01-08 10:59:41.40	120.85	14.07	-39.6	-41.5	19.1	0.00e+00	0	43	0	433061888	50	4572
2026-01-08 10:59:42.98	120.70	14.22	-39.5	-41.4	19.2	0.00e+00	0	43	0	441450496	50	4523
2026-01-08 10:59:43.55	120.64	14.27	-39.5	-41.4	19.1	0.00e+00	0	43	0	444596224	50	4542
2026-01-08 10:59:45.12	120.49	14.42	-39.5	-41.4	19.1	0.00e+00	0	43	0	454033408	50	4517
2026-01-08 10:59:45.70	120.43	14.47	-39.4	-41.3	19.2	0.00e+00	0	43	0	457179136	50	4493
2026-01-08 10:59:47.35	120.27	14.62	-39.4	-41.3	19.2	0.00e+00	0	43	0	466616320	50	4486
2026-01-08 10:59:47.93	120.21	14.68	-39.4	-41.3	19.2	0.00e+00	0	43	0	469762048	50	4493
2026-01-08 10:59:49.52	120.05	14.82	-39.3	-41.3	19.3	0.00e+00	0	43	0	478150656	50	4449
2026-01-08 10:59:50.10	119.99	14.88	-39.2	-41.2	19.3	0.00e+00	0	43	0	481296384	50	4398
2026-01-08 10:59:52.02	119.80	15.06	-39.2	-41.2	19.3	0.00e+00	0	43	0	492830720	50	4402
2026-01-08 10:59:52.59	119.74	15.11	-39.3	-41.2	19.3	0.00e+00	0	43	0	495976448	50	4423
2026-01-08 10:59:54.20	119.57	15.27	-39.3	-41.2	19.4	0.00e+00	0	43	0	504365056	50	4405
2026-01-08 10:59:54.77	119.51	15.32	-39.2	-41.1	19.4	0.00e+00	0	43	0	507510784	50	4372
2026-01-08 10:59:56.35	119.35	15.47	-38.9	-40.8	19.7	0.00e+00	0	43	0	516947968	49	4447
2026-01-08 10:59:56.92	119.29	15.53	-39.1	-41.0	19.5	0.00e+00	0	43	0	520093696	49	4571
2026-01-08 10:59:58.50	119.12	15.68	-38.9	-40.8	19.7	0.00e+00	0	43	0	528482304	49	4468
2026-01-08 10:59:59.11	119.05	15.74	-39.0	-40.9	19.6	0.00e+00	0	43	0	532676608	49	4513
2026-01-08 11:00:00.74	118.88	15.89	-38.8	-40.7	19.8	0.00e+00	0	43	0	541065216	49	4396
2026-01-08 11:00:01.31	118.82	15.95	-38.9	-40.7	19.8	0.00e+00	0	43	0	544210944	49	4435
2026-01-08 11:00:02.89	118.64	16.10	-38.9	-40.7	19.8	0.00e+00	0	43	0	553648128	49	4440
2026-01-08 11:00:03.46	118.58	16.16	-38.8	-40.7	19.8	0.00e+00	0	43	0	556793856	49	4425
2026-01-08 11:00:05.04	118.40	16.31	-38.9	-40.8	19.8	0.00e+00	0	43	0	565182464	49	4443
2026-01-08 11:00:05.64	118.34	16.37	-38.9	-40.8	19.7	0.00e+00	0	44	0	569376768	49	4484
2026-01-08 11:00:07.22	118.16	16.53	-39.0	-40.9	19.7	0.00e+00	0	43	0	577765376	49	4499
2026-01-08 11:00:08.08	118.06	16.61	-38.8	-40.7	19.8	0.00e+00	0	43	0	583008256	49	4405
2026-01-08 11:00:09.23	117.93	16.72	-38.7	-40.5	20.0	0.00e+00	0	43	0	589299712	49	4325
2026-01-08 11:00:10.09	117.83	16.81	-38.8	-40.6	19.9	0.00e+00	0	43	0	593494016	49	4388
2026-01-08 11:00:11.23	117.70	16.92	-38.7	-40.6	19.9	0.00e+00	0	43	0	600834048	49	4371
2026-01-08 11:00:12.09	117.60	17.01	-38.7	-40.6	19.9	0.00e+00	0	43	0	605028352	49	4385
2026-01-08 11:00:13.30	117.46	17.13	-38.6	-40.5	20.0	0.00e+00	0	43	0	612368384	49	4327
2026-01-08 11:00:14.16	117.35	17.22	-38.8	-40.7	19.8	0.00e+00	0	43	0	616562688	49	4393
2026-01-08 11:00:15.31	117.22	17.33	-38.8	-40.7	19.8	0.00e+00	0	43	0	623902720	49	4392
2026-01-08 11:00:16.17	117.11	17.42	-38.6	-40.5	19.9	0.00e+00	0	43	0	628097024	49	4326
2026-01-08 11:00:17.43	116.96	17.55	-38.7	-40.6	19.9	0.00e+00	0	43	0	635437056	49	4353
2026-01-08 11:00:18.16	116.87	17.62	-38.7	-40.6	19.9	0.00e+00	0	43	0	639631360	49	4373
2026-01-08 11:00:19.45	116.71	17.75	-38.7	-40.6	19.9	0.00e+00	0	44	0	646971392	49	4342
2026-01-08 11:00:20.16	116.63	17.82	-38.6	-40.5	20.0	0.00e+00	0	44	0	651165696	49	4324
2026-01-08 11:00:21.45	116.47	17.96	-38.6	-40.5	20.0	0.00e+00	0	43	0	658505728	49	4293
2026-01-08 11:00:22.17	116.38	18.03	-38.6	-40.4	20.0	0.00e+00	0	43	0	661651456	49	4273
2026-01-08 11:00:23.46	116.21	18.16	-38.5	-40.3	20.1	0.00e+00	0	43	0	668991488	49	4232
2026-01-08 11:00:24.18	116.12	18.24	-38.4	-40.3	20.2	0.00e+00	0	43	0	673185792	48	4445
2026-01-08 11:00:25.47	115.96	18.37	-38.4	-40.2	20.2	0.00e+00	0	43	0	680525824	48	4436
2026-01-08 11:00:26.18	115.87	18.44	-38.4	-40.2	20.2	0.00e+00	0	43	0	684720128	48	4440
2026-01-08 11:00:27.47	115.70	18.58	-38.3	-40.1	20.3	0.00e+00	0	44	0	692060160	48	4356
2026-01-08 11:00:28.19	115.61	18.65	-38.3	-40.2	20.3	0.00e+00	0	43	0	696254464	48	4393
2026-01-08 11:00:29.48	115.44	18.79	-38.2	-40.1	20.3	0.00e+00	0	44	0	702545920	48	4363
2026-01-08 11:00:30.19	115.34	18.86	-38.3	-40.2	20.3	0.00e+00	0	44	0	706740224	48	4409
2026-01-08 11:00:31.49	115.17	19.00	-38.3	-40.1	20.3	0.00e+00	0	43	0	714080256	48	4384
2026-01-08 11:00:32.20	115.07	19.08	-38.4	-40.2	20.3	0.00e+00	0	43	0	718274560	48	4425
2026-01-08 11:00:33.49	114.90	19.21	-38.2	-40.1	20.4	0.00e+00	0	43	0	725614592	48	4354
2026-01-08 11:00:34.21	114.80	19.29	-38.2	-40.0	20.4	0.00e+00	0	43	0	729808896	48	4338
2026-01-08 11:00:35.50	114.63	19.43	-38.1	-39.9	20.5	0.00e+00	0	43	0	737148928	48	4276
2026-01-08 11:00:36.21	114.53	19.50	-38.1	-39.9	20.5	0.00e+00	0	43	0	741343232	48	4262
2026-01-08 11:00:37.50	114.35	19.64	-38.1	-39.9	20.5	0.00e+00	0	43	0	748683264	48	4286
2026-01-08 11:00:38.22	114.25	19.72	-38.1	-40.0	20.5	0.00e+00	0	44	0	751828992	48	4302
2026-01-08 11:00:39.51	114.07	19.85	-38.1	-39.9	20.5	0.00e+00	0	43	0	759169024	48	4275
2026-01-08 11:00:40.22	113.97	19.93	-38.0	-39.9	20.5	0.00e+00	0	43	0	763363328	48	4251
2026-01-08 11:00:41.51	113.78	20.07	-37.8	-39.7	20.4	0.00e+00	0	43	0	770703360	47	4403
2026-01-08 11:00:42.23	113.68	20.15	-37.9	-39.7	20.4	0.00e+00	0	44	0	774897664	47	4415
2026-01-08 11:00:43.52	113.49	20.29	-37.9	-39.7	20.4	0.00e+00	0	43	0	782237696	47	4422
2026-01-08 11:00:44.24	113.38	20.37	-38.0	-39.8	20.4	0.00e+00	0	43	0	786432000	47	4476
2026-01-08 11:00:45.53	113.19	20.51	-37.8	-39.7	20.5	0.00e+00	0	43	0	793772032	47	4417
2026-01-08 11:00:46.24	113.09	20.59	-37.9	-39.7	20.4	0.00e+00	0	43	0	797966336	47	4429
2026-01-08 11:00:47.53	112.90	20.73	-37.9	-39.7	20.4	0.00e+00	0	44	0	804257792	47	4420
2026-01-08 11:00:48.25	112.79	20.81	-37.9	-39.8	20.4	0.00e+00	0	43	0	808452096	47	4453
2026-01-08 11:00:49.54	112.59	20.95	-37.7	-39.6	20.6	0.00e+00	0	44	0	815792128	47	4346
2026-01-08 11:00:50.26	112.48	21.03	-37.6	-39.5	20.7	0.00e+00	0	44	0	819986432	47	4299
2026-01-08 11:00:51.55	112.29	21.17	-37.8	-39.6	20.6	0.00e+00	0	44	0	827326464	47	4357
2026-01-08 11:00:52.27	112.17	21.25	-37.7	-39.5	20.6	0.00e+00	0	44	0	831520768	47	4327
2026-01-08 11:00:53.56	111.97	21.40	-37.5	-39.3	20.8	0.00e+00	0	43	0	838860800	47	4225
2026-01-08 11:00:54.27	111.86	21.47	-37.5	-39.3	20.8	0.00e+00	0	43	0	843055104	46	4464
2026-01-08 11:00:55.56	111.66	21.62	-37.5	-39.4	20.8	0.00e+00	0	44	0	849346560	46	4504
2026-01-08 11:00:56.27	111.54	21.70	-37.4	-39.2	20.9	0.00e+00	0	44	0	853540864	46	4426
2026-01-08 11:00:57.57	111.33	21.85	-37.4	-39.2	20.9	0.00e+00	0	43	0	860880896	46	4421
2026-01-08 11:00:58.28	111.22	21.93	-37.3	-39.1	20.9	0.00e+00	0	44	0	865075200	46	4368
2026-01-08 11:00:59.57	111.01	22.07	-37.4	-39.2	20.8	0.00e+00	0	43	0	872415232	46	4427
2026-01-08 11:01:00.29	110.89	22.15	-37.4	-39.2	20.8	0.00e+00	0	43	0	876609536	46	4430
2026-01-08 11:01:01.63	110.67	22.30	-37.4	-39.2	20.9	0.00e+00	0	43	0	883949568	46	4411
2026-01-08 11:01:02.34	110.55	22.38	-37.4	-39.2	20.8	0.00e+00	0	44	0	888143872	46	4430
2026-01-08 11:01:03.75	110.31	22.55	-37.4	-39.2	20.9	0.00e+00	0	43	0	895483904	46	4423
2026-01-08 11:01:04.46	110.19	22.63	-37.4	-39.2	20.9	0.00e+00	0	44	0	899678208	46	4425
2026-01-08 11:01:05.75	109.97	22.77	-37.3	-39.1	20.9	0.00e+00	0	44	0	907018240	46	4385
2026-01-08 11:01:06.47	109.85	22.86	-37.3	-39.1	21.0	0.00e+00	0	44	0	911212544	46	4352
2026-01-08 11:01:07.76	109.63	23.01	-37.2	-39.0	21.0	0.00e+00	0	44	0	918552576	46	4311
2026-01-08 11:01:08.48	109.50	23.09	-37.1	-38.9	21.1	0.00e+00	0	43	0	922746880	46	4273
2026-01-08 11:01:09.77	109.27	23.24	-37.1	-38.9	21.1	0.00e+00	0	43	0	930086912	46	4278
2026-01-08 11:01:10.48	109.15	23.32	-37.1	-38.9	21.1	0.00e+00	0	43	0	933232640	46	4261
2026-01-08 11:01:11.77	108.92	23.47	-37.1	-38.9	21.1	0.00e+00	0	44	0	940572672	46	4255
2026-01-08 11:01:12.58	108.77	23.56	-37.1	-39.0	21.0	0.00e+00	0	43	0	945815552	46	4299
2026-01-08 11:01:13.73	108.56	23.70	-37.3	-39.1	20.9	0.00e+00	0	43	0	952107008	46	4365
2026-01-08 11:01:14.59	108.41	23.80	-37.2	-39.0	21.0	0.00e+00	0	43	0	956301312	46	4340
2026-01-08 11:01:15.73	108.20	23.93	-37.3	-39.1	20.9	0.00e+00	0	44	0	963641344	46	4354
2026-01-08 11:01:16.59	108.04	24.03	-37.3	-39.1	20.9	0.00e+00	0	44	0	967835648	46	4380
2026-01-08 11:01:17.74	107.82	24.16	-37.3	-39.1	20.9	0.00e+00	0	44	0	974127104	46	4350
2026-01-08 11:01:18.60	107.66	24.27	-37.1	-38.9	21.1	0.00e+00	0	44	0	979369984	46	4283
2026-01-08 11:01:19.74	107.45	24.40	-37.2	-39.0	21.0	0.00e+00	0	43	0	985661440	46	4309
2026-01-08 11:01:20.60	107.28	24.50	-37.0	-38.9	21.1	0.00e+00	0	44	0	990904320	46	4248
2026-01-08 11:01:21.75	107.06	24.64	-37.0	-38.8	21.1	0.00e+00	0	44	0	997195776	46	4233
2026-01-08 11:01:22.61	106.89	24.74	-36.9	-38.7	21.2	0.00e+00	0	43	0	1002438656	45	4441
2026-01-08 11:01:23.75	106.67	24.87	-37.0	-38.8	21.2	0.00e+00	0	43	0	1008730112	45	4453
2026-01-08 11:01:24.61	106.50	24.97	-37.0	-38.8	21.1	0.00e+00	0	43	0	1012924416	45	4476
2026-01-08 11:01:25.75	106.28	25.11	-37.0	-38.8	21.2	0.00e+00	0	44	0	1019215872	45	4456
2026-01-08 11:01:26.80	106.07	25.23	-36.9	-38.7	21.2	0.00e+00	0	44	0	1025507328	45	4435
2026-01-08 11:01:27.87	105.85	25.36	-36.8	-38.5	21.3	0.00e+00	0	43	0	1031798784	45	4332
2026-01-08 11:01:28.73	105.68	25.46	-36.8	-38.6	21.4	0.00e+00	0	44	0	1035993088	45	4342
2026-01-08 11:01:29.87	105.44	25.60	-36.9	-38.6	21.3	0.00e+00	0	44	0	1042284544	45	4390
2026-01-08 11:01:30.73	105.26	25.70	-36.9	-38.7	21.2	0.00e+00	0	44	0	1047527424	45	4412
2026-01-08 11:01:31.88	105.03	25.84	-37.0	-38.8	21.2	0.00e+00	0	44	0	1053818880	45	4479
2026-01-08 11:01:32.74	104.85	25.94	-37.0	-38.8	21.2	0.00e+00	0	44	0	1059061760	45	4462
2026-01-08 11:01:33.89	104.60	26.08	-36.9	-38.8	21.2	0.00e+00	0	43	0	1065353216	45	4443
2026-01-08 11:01:34.75	104.42	26.18	-37.0	-38.8	21.2	0.00e+00	0	43	0	1070596096	45	4489
2026-01-08 11:01:35.89	104.18	26.32	-37.0	-38.8	21.2	0.00e+00	0	44	0	1076887552	45	4473
2026-01-08 11:01:36.75	103.99	26.42	-37.0	-38.8	21.1	0.00e+00	0	44	0	1082130432	45	4484
2026-01-08 11:01:37.90	103.74	26.56	-36.9	-38.7	21.3	0.00e+00	0	44	0	1088421888	45	4404
2026-01-08 11:01:38.76	103.55	26.66	-36.8	-38.5	21.4	0.00e+00	0	44	0	1092616192	45	4340
2026-01-08 11:01:39.91	103.30	26.80	-36.6	-38.3	21.5	0.00e+00	0	44	0	1098907648	45	4232
2026-01-08 11:01:40.77	103.11	26.90	-36.5	-38.3	21.6	0.00e+00	0	44	0	1104150528	45	4217
2026-01-08 11:01:41.91	102.85	27.04	-36.6	-38.4	21.5	0.00e+00	0	44	0	1110441984	45	4265
2026-01-08 11:01:42.77	102.66	27.14	-36.6	-38.4	21.5	0.00e+00	0	44	0	1115684864	45	4253
2026-01-08 11:01:43.92	102.39	27.28	-36.7	-38.5	21.5	0.00e+00	0	44	0	1121976320	45	4303
2026-01-08 11:01:44.78	102.20	27.38	-36.8	-38.6	21.4	0.00e+00	0	44	0	1126170624	45	4364
2026-01-08 11:01:45.92	101.93	27.52	-36.8	-38.6	21.4	0.00e+00	0	43	0	1133510656	45	4362
2026-01-08 11:01:46.78	101.73	27.62	-36.7	-38.5	21.5	0.00e+00	0	44	0	1137704960	45	4300
2026-01-08 11:01:48.01	101.45	27.77	-36.6	-38.3	21.6	0.00e+00	0	44	0	1145044992	45	4232
2026-01-08 11:01:48.87	101.24	27.88	-36.5	-38.3	21.6	0.00e+00	0	43	0	1149239296	45	4211
2026-01-08 11:01:50.02	100.97	28.01	-36.6	-38.3	21.6	0.00e+00	0	44	0	1156579328	45	4233
2026-01-08 11:01:50.88	100.76	28.12	-36.5	-38.3	21.7	0.00e+00	0	43	0	1160773632	45	4196
2026-01-08 11:01:52.14	100.46	28.27	-36.5	-38.3	21.6	0.00e+00	0	43	0	1168113664	45	4220
2026-01-08 11:01:52.85	100.28	28.35	-36.5	-38.3	21.6	0.00e+00	0	44	0	1172307968	44	4449
2026-01-08 11:01:54.14	99.97	28.51	-36.5	-38.3	21.6	0.00e+00	0	44	0	1179648000	44	4452
2026-01-08 11:01:54.86	99.79	28.60	-36.6	-38.4	21.5	0.00e+00	0	43	0	1183842304	44	4509
2026-01-08 11:01:56.15	99.46	28.75	-36.5	-38.3	21.6	0.00e+00	0	43	0	1191182336	44	4464
2026-01-08 11:01:56.87	99.28	28.84	-36.6	-38.3	21.6	0.00e+00	0	43	0	1194328064	44	4492
2026-01-08 11:01:58.16	98.96	28.99	-36.6	-38.4	21.5	0.00e+00	0	43	0	1201668096	44	4525
2026-01-08 11:01:58.88	98.77	29.08	-36.6	-38.4	21.5	0.00e+00	0	43	0	1205862400	44	4531
2026-01-08 11:02:00.17	98.44	29.23	-36.6	-38.4	21.5	0.00e+00	0	44	0	1213202432	44	4519
2026-01-08 11:02:01.11	98.20	29.34	-36.5	-38.3	21.6	0.00e+00	0	43	0	1218445312	44	4468
2026-01-08 11:02:02.44	97.85	29.50	-36.5	-38.3	21.6	0.00e+00	0	44	0	1225785344	44	4483
2026-01-08 11:02:03.19	97.65	29.59	-36.5	-38.3	21.6	0.00e+00	0	44	0	1229979648	44	4459
2026-01-08 11:02:04.48	97.31	29.74	-36.6	-38.4	21.6	0.00e+00	0	44	0	1237319680	44	4505
2026-01-08 11:02:05.20	97.12	29.83	-36.4	-38.2	21.7	0.00e+00	0	44	0	1241513984	44	4412
2026-01-08 11:02:06.49	96.77	29.98	-36.3	-38.1	21.8	0.00e+00	0	44	0	1248854016	44	4363
2026-01-08 11:02:07.21	96.57	30.06	-36.3	-38.1	21.8	0.00e+00	0	44	0	1253048320	44	4366
2026-01-08 11:02:08.50	96.22	30.22	-36.4	-38.2	21.7	0.00e+00	0	43	0	1260388352	44	4421
2026-01-08 11:02:09.21	96.03	30.30	-36.5	-38.2	21.7	0.00e+00	0	43	0	1264582656	44	4433
2026-01-08 11:02:10.50	95.67	30.45	-36.6	-38.3	21.6	0.00e+00	0	44	0	1271922688	44	4479
2026-01-08 11:02:11.22	95.47	30.54	-36.5	-38.3	21.6	0.00e+00	0	44	0	1275068416	44	4467
2026-01-08 11:02:12.51	95.10	30.69	-36.6	-38.4	21.6	0.00e+00	0	44	0	1282408448	44	4510
2026-01-08 11:02:13.23	94.90	30.77	-36.5	-38.2	21.7	0.00e+00	0	44	0	1286602752	44	4433
2026-01-08 11:02:14.63	94.50	30.93	-36.2	-38.0	21.9	0.00e+00	0	44	0	1294991360	44	4293
2026-01-08 11:02:15.34	94.29	31.01	-36.3	-38.0	21.8	0.00e+00	0	43	0	1298137088	44	4324
2026-01-08 11:02:16.63	93.92	31.16	-36.1	-37.8	22.0	0.00e+00	0	43	0	1305477120	44	4239
2026-01-08 11:02:17.72	93.60	31.29	-36.1	-37.9	21.9	0.00e+00	0	44	0	1311768576	44	4261
2026-01-08 11:02:18.58	93.35	31.39	-36.2	-37.9	21.9	0.00e+00	0	44	0	1317011456	44	4278
2026-01-08 11:02:19.72	93.01	31.52	-36.2	-37.9	21.9	0.00e+00	0	43	0	1323302912	44	4278
2026-01-08 11:02:20.58	92.75	31.61	-36.2	-37.9	21.9	0.00e+00	0	43	0	1327497216	44	4289
2026-01-08 11:02:21.72	92.41	31.74	-36.0	-37.8	22.0	0.00e+00	0	43	0	1334837248	44	4209
2026-01-08 11:02:22.59	92.15	31.84	-36.2	-37.9	21.9	0.00e+00	0	44	0	1339031552	44	4263
2026-01-08 11:02:23.73	91.80	31.97	-36.1	-37.8	22.0	0.00e+00	0	43	0	1345323008	44	4216
2026-01-08 11:02:24.62	91.52	32.07	-36.0	-37.7	22.1	0.00e+00	0	44	0	1350565888	44	4176
2026-01-08 11:02:25.94	91.12	32.21	-35.7	-37.4	22.2	0.00e+00	0	43	0	1357905920	43	4289
2026-01-08 11:02:26.66	90.89	32.29	-35.7	-37.4	22.2	0.00e+00	0	44	0	1362100224	43	4290
2026-01-08 11:02:27.95	90.49	32.43	-35.9	-37.6	22.0	0.00e+00	0	43	0	1369440256	43	4366
2026-01-08 11:02:28.66	90.26	32.51	-35.9	-37.6	22.0	0.00e+00	0	44	0	1373634560	43	4361
2026-01-08 11:02:29.95	89.85	32.65	-35.9	-37.6	22.0	0.00e+00	0	43	0	1380974592	43	4361
2026-01-08 11:02:30.67	89.62	32.73	-35.9	-37.7	22.0	0.00e+00	0	43	0	1385168896	43	4400
2026-01-08 11:02:32.31	89.09	32.91	-35.8	-37.6	22.0	0.00e+00	0	44	0	1394606080	43	4351
2026-01-08 11:02:32.88	88.91	32.97	-35.8	-37.5	22.1	0.00e+00	0	44	0	1396703232	43	4340
2026-01-08 11:02:34.46	88.39	33.13	-36.0	-37.8	21.9	0.00e+00	0	43	0	1406140416	43	4466
2026-01-08 11:02:35.04	88.20	33.19	-36.1	-37.8	21.9	0.00e+00	0	44	0	1409286144	43	4475
2026-01-08 11:02:36.61	87.67	33.36	-35.9	-37.7	22.0	0.00e+00	0	44	0	1418723328	43	4411
2026-01-08 11:02:37.21	87.47	33.42	-35.9	-37.7	22.0	0.00e+00	0	44	0	1421869056	43	4395
2026-01-08 11:02:38.79	86.94	33.58	-35.9	-37.7	22.0	0.00e+00	0	44	0	1430257664	43	4400
2026-01-08 11:02:39.47	86.71	33.65	-36.0	-37.7	22.0	0.00e+00	0	44	0	1434451968	43	4427
2026-01-08 11:02:40.90	86.22	33.80	-35.9	-37.7	22.0	0.00e+00	0	44	0	1442840576	43	4404
2026-01-08 11:02:41.62	85.98	33.87	-35.9	-37.6	22.0	0.00e+00	0	44	0	1445986304	43	4374
2026-01-08 11:02:43.24	85.42	34.03	-35.7	-37.5	22.1	0.00e+00	0	44	0	1455423488	43	4308
2026-01-08 11:02:43.82	85.21	34.08	-35.8	-37.6	22.1	0.00e+00	0	44	0	1458569216	43	4343
2026-01-08 11:02:45.41	84.66	34.24	-35.9	-37.6	22.0	0.00e+00	0	44	0	1468006400	43	4369
2026-01-08 11:02:45.98	84.45	34.29	-35.9	-37.6	22.0	0.00e+00	0	44	0	1471152128	43	4374
2026-01-08 11:02:47.58	83.89	34.45	-35.7	-37.5	22.1	0.00e+00	0	44	0	1479540736	43	4300
2026-01-08 11:02:48.15	83.68	34.50	-35.7	-37.4	22.2	0.00e+00	0	43	0	1483735040	43	4265
2026-01-08 11:02:49.73	83.11	34.65	-35.7	-37.4	22.2	0.00e+00	0	43	0	1492123648	43	4265
2026-01-08 11:02:50.38	82.88	34.70	-35.8	-37.6	22.1	0.00e+00	0	44	0	1495269376	43	4352
2026-01-08 11:02:51.81	82.36	34.83	-36.0	-37.7	21.9	0.00e+00	0	43	0	1503657984	43	4434
2026-01-08 11:02:52.58	82.08	34.90	-36.0	-37.7	22.0	0.00e+00	0	44	0	1507852288	43	4421
2026-01-08 11:02:53.87	81.60	35.02	-35.9	-37.6	22.0	0.00e+00	0	44	0	1515192320	43	4383
2026-01-08 11:02:54.58	81.34	35.08	-35.9	-37.7	22.0	0.00e+00	0	44	0	1519386624	43	4410
2026-01-08 11:02:56.26	80.71	35.22	-36.1	-37.9	21.8	0.00e+00	0	44	0	1528823808	43	4499
2026-01-08 11:02:56.83	80.50	35.27	-36.1	-37.9	21.8	0.00e+00	0	44	0	1531969536	43	4511
2026-01-08 11:02:58.45	79.89	35.41	-36.1	-37.9	21.8	0.00e+00	0	44	0	1541406720	43	4513
2026-01-08 11:02:59.02	79.67	35.45	-36.2	-37.9	21.8	0.00e+00	0	44	0	1544552448	43	4532
2026-01-08 11:03:00.63	79.06	35.58	-36.0	-37.7	22.0	0.00e+00	0	44	0	1552941056	43	4423
2026-01-08 11:03:01.20	78.84	35.63	-36.1	-37.8	21.9	0.00e+00	0	44	0	1557135360	43	4458
2026-01-08 11:03:02.78	78.23	35.75	-36.1	-37.8	21.9	0.00e+00	0	44	0	1565523968	43	4481
2026-01-08 11:03:03.35	78.01	35.79	-36.0	-37.7	22.0	0.00e+00	0	44	0	1568669696	43	4421
2026-01-08 11:03:04.93	77.39	35.91	-35.7	-37.4	22.2	0.00e+00	0	43	0	1577058304	43	4262
2026-01-08 11:03:05.53	77.16	35.96	-35.6	-37.3	22.2	0.00e+00	0	44	0	1581252608	43	4236
2026-01-08 11:03:07.11	76.54	36.07	-35.8	-37.5	22.1	0.00e+00	0	44	0	1589641216	43	4325
2026-01-08 11:03:07.98	76.19	36.13	-35.7	-37.4	22.2	0.00e+00	0	44	0	1594884096	43	4260
2026-01-08 11:03:09.13	75.74	36.21	-35.8	-37.5	22.1	0.00e+00	0	44	0	1601175552	43	4313
2026-01-08 11:03:10.31	75.27	36.29	-35.7	-37.4	22.2	0.00e+00	0	44	0	1607467008	43	4287
2026-01-08 11:03:11.34	74.85	36.36	-35.7	-37.4	22.2	0.00e+00	0	44	0	1613758464	43	4262
2026-01-08 11:03:12.34	74.45	36.42	-35.7	-37.5	22.2	0.00e+00	0	43	0	1619001344	43	4292
2026-01-08 11:03:13.34	74.05	36.48	-35.8	-37.5	22.1	0.00e+00	0	44	0	1625292800	43	4310
2026-01-08 11:03:14.35	73.64	36.55	-35.9	-37.6	22.1	0.00e+00	0	44	0	1630535680	43	4368
2026-01-08 11:03:15.35	73.23	36.61	-35.9	-37.6	22.0	0.00e+00	0	44	0	1635778560	43	4387
2026-01-08 11:03:16.35	72.82	36.66	-35.9	-37.6	22.1	0.00e+00	0	44	0	1642070016	43	4363
2026-01-08 11:03:17.36	72.41	36.72	-35.9	-37.7	22.0	0.00e+00	0	44	0	1647312896	43	4393
2026-01-08 11:03:18.36	72.00	36.78	-35.9	-37.6	22.0	0.00e+00	0	44	0	1653604352	43	4365
2026-01-08 11:03:19.36	71.59	36.83	-35.9	-37.6	22.1	0.00e+00	0	44	0	1658847232	43	4362
2026-01-08 11:03:20.37	71.17	36.88	-35.8	-37.5	22.2	0.00e+00	0	44	0	1664090112	43	4300
2026-01-08 11:03:21.37	70.75	36.93	-35.6	-37.3	22.3	0.00e+00	0	44	0	1670381568	43	4216
2026-01-08 11:03:22.38	70.33	36.98	-35.8	-37.5	22.1	0.00e+00	0	44	0	1675624448	43	4318
2026-01-08 11:03:23.39	69.91	37.03	-36.0	-37.8	21.9	0.00e+00	0	44	0	1681915904	43	4443
2026-01-08 11:03:24.40	69.49	37.07	-36.0	-37.8	21.9	0.00e+00	0	44	0	1687158784	43	4466
2026-01-08 11:03:25.46	69.04	37.12	-36.1	-37.9	21.8	0.00e+00	0	44	0	1693450240	43	4504
2026-01-08 11:03:26.36	68.67	37.16	-36.1	-37.8	21.8	0.00e+00	0	44	0	1697644544	43	4476
2026-01-08 11:03:27.40	68.23	37.20	-36.0	-37.8	21.9	0.00e+00	0	44	0	1703936000	43	4443
2026-01-08 11:03:28.44	67.79	37.24	-36.0	-37.7	21.9	0.00e+00	0	44	0	1709178880	43	4426
2026-01-08 11:03:29.44	67.36	37.27	-36.4	-38.1	21.7	0.00e+00	0	44	0	1715470336	43	4633
2026-01-08 11:03:30.44	66.94	37.31	-36.3	-38.1	21.7	0.00e+00	0	44	0	1720713216	43	4614
2026-01-08 11:03:31.45	66.51	37.34	-36.2	-38.0	21.7	0.00e+00	0	43	0	1727004672	43	4560
2026-01-08 11:03:32.45	66.08	37.37	-36.2	-37.9	21.8	0.00e+00	0	44	0	1732247552	43	4532
2026-01-08 11:03:33.45	65.65	37.40	-36.2	-37.9	21.8	0.00e+00	0	44	0	1738539008	43	4523
2026-01-08 11:03:34.46	65.22	37.43	-36.1	-37.8	21.9	0.00e+00	0	44	0	1743781888	43	4490
2026-01-08 11:03:35.46	64.79	37.46	-36.0	-37.7	22.0	0.00e+00	0	44	0	1749024768	43	4414
2026-01-08 11:03:36.46	64.36	37.48	-36.0	-37.7	21.9	0.00e+00	0	44	0	1755316224	43	4425
2026-01-08 11:03:37.47	63.93	37.50	-36.3	-38.0	21.7	0.00e+00	0	44	0	1760559104	43	4588
2026-01-08 11:03:38.47	63.50	37.52	-36.1	-37.8	21.8	0.00e+00	0	44	0	1765801984	43	4488
2026-01-08 11:03:39.47	63.07	37.54	-35.7	-37.5	22.1	0.00e+00	0	43	0	1772093440	43	4295
2026-01-08 11:03:40.48	62.63	37.56	-35.8	-37.6	22.1	0.00e+00	0	44	0	1777336320	43	4347
2026-01-08 11:03:41.48	62.20	37.57	-36.1	-37.8	21.9	0.00e+00	0	44	0	1782579200	43	4480
2026-01-08 11:03:42.48	61.77	37.58	-36.1	-37.9	21.8	0.00e+00	0	44	0	1788870656	43	4503
2026-01-08 11:03:43.48	61.33	37.60	-36.0	-37.7	22.0	0.00e+00	0	44	0	1794113536	43	4429
2026-01-08 11:03:44.49	60.90	37.60	-35.8	-37.5	22.1	0.00e+00	0	43	0	1800404992	43	4340
2026-01-08 11:03:45.49	60.46	37.61	-35.9	-37.6	22.0	0.00e+00	0	44	0	1805647872	43	4390
2026-01-08 11:03:46.50	60.02	37.62	-35.9	-37.7	22.0	0.00e+00	0	44	0	1811939328	43	4411
2026-01-08 11:03:47.50	59.59	37.62	-35.9	-37.7	22.0	0.00e+00	0	43	0	1817182208	43	4407
2026-01-08 11:03:48.50	59.16	37.62	-36.1	-37.8	21.9	0.00e+00	0	44	0	1822425088	43	4471
2026-01-08 11:03:49.51	58.72	37.62	-36.0	-37.7	22.0	0.00e+00	0	43	0	1828716544	43	4420
2026-01-08 11:03:50.51	58.29	37.62	-35.9	-37.6	22.0	0.00e+00	0	44	0	1833959424	43	4391
2026-01-08 11:03:51.51	57.85	37.62	-35.9	-37.6	22.0	0.00e+00	0	44	0	1839202304	43	4388
2026-01-08 11:03:52.52	57.42	37.61	-35.8	-37.6	22.0	0.00e+00	0	44	0	1845493760	43	4349
2026-01-08 11:03:53.52	56.98	37.60	-35.8	-37.5	22.1	0.00e+00	0	44	0	1850736640	43	4322
2026-01-08 11:03:54.53	56.54	37.59	-35.8	-37.5	22.1	0.00e+00	0	44	0	1855979520	43	4321
2026-01-08 11:03:55.53	56.11	37.58	-35.8	-37.5	22.1	0.00e+00	0	44	0	1862270976	43	4320
2026-01-08 11:03:56.57	55.66	37.57	-35.7	-37.5	22.1	0.00e+00	0	44	0	1867513856	43	4292
2026-01-08 11:03:57.56	55.24	37.55	-35.8	-37.6	22.1	0.00e+00	0	44	0	1873805312	43	4347
2026-01-08 11:03:58.57	54.80	37.53	-35.8	-37.5	22.1	0.00e+00	0	44	0	1879048192	43	4328
2026-01-08 11:03:59.57	54.37	37.51	-35.7	-37.4	22.2	0.00e+00	0	44	0	1885339648	43	4288
2026-01-08 11:04:00.57	53.94	37.49	-35.7	-37.5	22.2	0.00e+00	0	44	0	1890582528	43	4298
2026-01-08 11:04:01.58	53.50	37.47	-35.9	-37.6	22.1	0.00e+00	0	44	0	1895825408	43	4356
2026-01-08 11:04:02.58	53.08	37.45	-35.9	-37.6	22.0	0.00e+00	0	44	0	1902116864	43	4371
2026-01-08 11:04:03.58	52.65	37.42	-35.8	-37.6	22.1	0.00e+00	0	44	0	1907359744	43	4343
2026-01-08 11:04:04.58	52.22	37.39	-35.9	-37.7	22.0	0.00e+00	0	44	0	1912602624	43	4402
2026-01-08 11:04:05.87	51.67	37.35	-36.0	-37.7	21.9	0.00e+00	0	44	0	1919942656	43	4435
2026-01-08 11:04:06.59	51.36	37.33	-35.9	-37.6	22.0	0.00e+00	0	44	0	1924136960	43	4369
2026-01-08 11:04:07.88	50.81	37.29	-35.8	-37.5	22.1	0.00e+00	0	44	0	1931476992	43	4338
2026-01-08 11:04:08.69	50.47	37.26	-35.8	-37.5	22.1	0.00e+00	0	44	0	1936719872	43	4309
2026-01-08 11:04:09.84	49.98	37.22	-35.9	-37.7	22.0	0.00e+00	0	43	0	1943011328	43	4400
2026-01-08 11:04:10.70	49.62	37.18	-35.6	-37.3	22.2	0.00e+00	0	44	0	1947205632	43	4238
2026-01-08 11:04:11.85	49.14	37.13	-35.3	-37.1	22.4	0.00e+00	0	44	0	1954545664	42	4342
2026-01-08 11:04:12.71	48.78	37.10	-35.3	-37.0	22.5	0.00e+00	0	44	0	1958739968	42	4334
2026-01-08 11:04:13.86	48.29	37.05	-35.5	-37.2	22.4	0.00e+00	0	44	0	1965031424	42	4404
2026-01-08 11:04:14.71	47.94	37.01	-35.3	-37.0	22.5	0.00e+00	0	44	0	1970274304	42	4340
2026-01-08 11:04:15.91	47.44	36.95	-35.4	-37.1	22.4	0.00e+00	0	44	0	1976565760	42	4389
2026-01-08 11:04:16.77	47.08	36.91	-35.5	-37.2	22.3	0.00e+00	0	44	0	1981808640	42	4425
2026-01-08 11:04:18.00	46.57	36.85	-35.5	-37.2	22.3	0.00e+00	0	44	0	1989148672	42	4434
2026-01-08 11:04:18.86	46.22	36.80	-35.6	-37.4	22.3	0.00e+00	0	44	0	1993342976	42	4494
2026-01-08 11:04:20.01	45.75	36.74	-35.6	-37.4	22.2	0.00e+00	0	44	0	1999634432	42	4494
2026-01-08 11:04:20.86	45.40	36.69	-35.7	-37.4	22.2	0.00e+00	0	44	0	2004877312	42	4531
2026-01-08 11:04:22.01	44.93	36.63	-35.8	-37.6	22.1	0.00e+00	0	44	0	2011168768	42	4609
2026-01-08 11:04:22.87	44.58	36.58	-35.7	-37.5	22.1	0.00e+00	0	44	0	2016411648	42	4566
2026-01-08 11:04:24.01	44.12	36.51	-35.5	-37.2	22.3	0.00e+00	0	44	0	2022703104	42	4410
2026-01-08 11:04:24.87	43.77	36.45	-35.6	-37.3	22.3	0.00e+00	0	44	0	2026897408	42	4452
2026-01-08 11:04:26.02	43.31	36.38	-35.7	-37.4	22.2	0.00e+00	0	44	0	2033188864	42	4525
2026-01-08 11:04:26.87	42.97	36.32	-35.7	-37.4	22.1	0.00e+00	0	43	0	2038431744	42	4540
2026-01-08 11:04:28.02	42.51	36.25	-35.8	-37.5	22.1	0.00e+00	0	44	0	2044723200	42	4577
2026-01-08 11:04:28.88	42.17	36.19	-35.6	-37.3	22.3	0.00e+00	0	44	0	2049966080	42	4458
2026-01-08 11:04:30.03	41.71	36.11	-35.4	-37.1	22.4	0.00e+00	0	44	0	2056257536	42	4374
2026-01-08 11:04:30.89	41.37	36.05	-35.5	-37.2	22.4	0.00e+00	0	43	0	2060451840	42	4413
2026-01-08 11:04:32.05	40.92	35.97	-35.5	-37.2	22.4	0.00e+00	0	44	0	2067791872	42	4394
2026-01-08 11:04:32.91	40.58	35.90	-35.4	-37.1	22.4	0.00e+00	0	44	0	2071986176	42	4383
2026-01-08 11:04:34.06	40.13	35.82	-35.5	-37.2	22.3	0.00e+00	0	44	0	2079326208	42	4416
2026-01-08 11:04:34.92	39.80	35.75	-35.7	-37.4	22.2	0.00e+00	0	44	0	2083520512	42	4501
2026-01-08 11:04:36.06	39.36	35.66	-35.8	-37.5	22.1	0.00e+00	0	44	0	2089811968	42	4586
2026-01-08 11:04:36.96	39.02	35.59	-35.8	-37.5	22.1	0.00e+00	0	44	0	2095054848	42	4592
2026-01-08 11:04:37.96	38.64	35.51	-35.9	-37.6	22.0	0.00e+00	0	44	0	2101346304	42	4638
2026-01-08 11:04:38.96	38.26	35.43	-35.9	-37.7	22.0	0.00e+00	0	44	0	2106589184	42	4667
2026-01-08 11:04:39.97	37.88	35.35	-35.8	-37.5	22.1	0.00e+00	0	44	0	2111832064	42	4592
2026-01-08 11:04:40.97	37.50	35.27	-35.7	-37.4	22.2	0.00e+00	0	44	0	2118123520	42	4507
2026-01-08 11:04:41.97	37.13	35.18	-35.7	-37.4	22.2	0.00e+00	0	44	0	2123366400	42	4520
2026-01-08 11:04:42.98	36.75	35.09	-35.7	-37.4	22.2	0.00e+00	0	44	0	2128609280	42	4512
2026-01-08 11:04:43.98	36.38	35.01	-35.9	-37.5	22.5	0.00e+00	0	44	0	2134900736	42	4581
2026-01-08 11:04:44.99	36.01	34.92	-35.6	-37.2	22.7	0.00e+00	0	44	0	2140143616	42	4419
2026-01-08 11:04:45.99	35.65	34.83	-35.6	-37.3	22.7	0.00e+00	0	44	0	2145386496	42	4446
2026-01-08 11:04:46.99	35.28	34.74	-35.6	-37.2	22.8	0.00e+00	0	44	0	2151677952	42	4425
2026-01-08 11:04:48.00	34.92	34.65	-35.7	-37.3	22.7	0.00e+00	0	44	0	2156920832	42	4466
2026-01-08 11:04:49.05	34.54	34.55	-35.6	-37.3	22.7	0.00e+00	0	44	0	2163212288	42	4455
2026-01-08 11:04:49.95	34.22	34.47	-35.8	-37.5	22.6	0.00e+00	0	44	0	2168455168	42	4561
2026-01-08 11:04:50.97	33.86	34.37	-35.7	-37.3	22.7	0.00e+00	0	44	0	2173698048	42	4474
2026-01-08 11:04:51.97	33.50	34.27	-35.8	-37.5	22.6	0.00e+00	0	44	0	2179989504	42	4560
2026-01-08 11:04:52.97	33.15	34.18	-35.7	-37.3	22.7	0.00e+00	0	44	0	2185232384	42	4470
2026-01-08 11:04:53.97	32.80	34.08	-35.6	-37.3	22.7	0.00e+00	0	44	0	2190475264	42	4452
2026-01-08 11:04:54.98	32.45	33.98	-35.7	-37.4	22.7	0.00e+00	0	44	0	2196766720	42	4497
2026-01-08 11:04:55.98	32.11	33.88	-35.8	-37.5	22.6	0.00e+00	0	44	0	2202009600	42	4548
2026-01-08 11:04:56.98	31.77	33.78	-35.8	-37.5	22.6	0.00e+00	0	44	0	2207252480	42	4550
2026-01-08 11:04:57.99	31.42	33.68	-35.7	-37.3	22.7	0.00e+00	0	44	0	2213543936	42	4473
2026-01-08 11:04:58.99	31.08	33.58	-35.6	-37.3	22.8	0.00e+00	0	44	0	2218786816	42	4444
2026-01-08 11:04:59.99	30.75	33.48	-35.6	-37.3	22.8	0.00e+00	0	44	0	2225078272	42	4447
2026-01-08 11:05:01.00	30.41	33.37	-35.8	-37.5	22.6	0.00e+00	0	44	0	2230321152	42	4561
2026-01-08 11:05:02.00	30.08	33.27	-35.8	-37.5	22.6	0.00e+00	0	44	0	2236612608	42	4562
2026-01-08 11:05:03.00	29.75	33.17	-35.9	-37.5	22.6	0.00e+00	0	44	0	2241855488	42	4573
2026-01-08 11:05:04.00	29.42	33.06	-36.1	-37.7	22.4	0.00e+00	0	44	0	2247098368	42	4693
2026-01-08 11:05:05.00	29.10	32.96	-35.9	-37.5	22.5	0.00e+00	0	44	0	2253389824	42	4593
2026-01-08 11:05:06.00	28.77	32.85	-36.1	-37.8	22.4	0.00e+00	0	44	0	2258632704	42	4710
2026-01-08 11:05:07.01	28.45	32.74	-35.9	-37.6	22.5	0.00e+00	0	44	0	2263875584	42	4640
2026-01-08 11:05:08.01	28.13	32.63	-35.8	-37.4	22.6	0.00e+00	0	44	0	2270167040	42	4542
2026-01-08 11:05:09.01	27.81	32.53	-35.8	-37.5	22.6	0.00e+00	0	44	0	2275409920	42	4552
2026-01-08 11:05:10.02	27.49	32.42	-35.8	-37.4	22.6	0.00e+00	0	44	0	2280652800	42	4535
2026-01-08 11:05:11.02	27.18	32.31	-35.9	-37.6	22.5	0.00e+00	0	44	0	2286944256	42	4617
2026-01-08 11:05:12.02	26.87	32.20	-36.1	-37.8	22.3	0.00e+00	0	44	0	2292187136	43	4463
2026-01-08 11:05:13.03	26.56	32.08	-36.1	-37.8	22.4	0.00e+00	0	44	0	2298478592	43	4444
2026-01-08 11:05:14.03	26.25	31.97	-36.0	-37.6	22.5	0.00e+00	0	44	0	2303721472	43	4382
2026-01-08 11:05:15.04	25.95	31.86	-36.0	-37.7	22.4	0.00e+00	0	44	0	2308964352	43	4392
2026-01-08 11:05:16.04	25.64	31.75	-36.1	-37.7	22.4	0.00e+00	0	44	0	2315255808	43	4431
2026-01-08 11:05:17.05	25.34	31.63	-36.1	-37.8	22.3	0.00e+00	0	44	0	2320498688	43	4462
2026-01-08 11:05:18.05	25.04	31.52	-36.1	-37.8	22.4	0.00e+00	0	44	0	2326790144	43	4471
2026-01-08 11:05:19.05	24.75	31.41	-36.1	-37.8	22.4	0.00e+00	0	44	0	2332033024	43	4463
2026-01-08 11:05:20.05	24.45	31.29	-36.0	-37.6	22.5	0.00e+00	0	43	0	2337275904	43	4367
2026-01-08 11:05:21.05	24.16	31.18	-36.0	-37.7	22.4	0.00e+00	0	44	0	2343567360	43	4403
2026-01-08 11:05:22.06	23.87	31.06	-35.9	-37.6	22.5	0.00e+00	0	44	0	2348810240	43	4351
2026-01-08 11:05:23.06	23.58	30.95	-35.8	-37.4	22.6	0.00e+00	0	44	0	2354053120	43	4263
2026-01-08 11:05:24.06	23.30	30.83	-35.8	-37.4	22.6	0.00e+00	0	44	0	2360344576	43	4287
2026-01-08 11:05:25.07	23.01	30.72	-35.7	-37.4	22.7	0.00e+00	0	44	0	2365587456	43	4254
2026-01-08 11:05:26.09	22.72	30.60	-35.8	-37.4	22.6	0.00e+00	0	44	0	2371878912	43	4279
2026-01-08 11:05:27.09	22.45	30.48	-35.8	-37.4	22.6	0.00e+00	0	44	0	2377121792	43	4267
2026-01-08 11:05:28.17	22.15	30.36	-35.9	-37.6	22.5	0.00e+00	0	43	0	2383413248	43	4345
2026-01-08 11:05:29.03	21.91	30.26	-36.0	-37.6	22.5	0.00e+00	0	44	0	2387607552	43	4385
2026-01-08 11:05:30.18	21.60	30.12	-36.0	-37.6	22.5	0.00e+00	0	44	0	2394947584	43	4380
2026-01-08 11:05:31.04	21.36	30.02	-35.9	-37.5	22.5	0.00e+00	0	44	0	2399141888	43	4333
2026-01-08 11:05:32.19	21.05	29.88	-36.1	-37.7	22.4	0.00e+00	0	44	0	2405433344	43	4434
2026-01-08 11:05:33.26	20.77	29.76	-36.1	-37.8	22.4	0.00e+00	0	44	0	2411724800	43	4448
2026-01-08 11:05:34.12	20.54	29.66	-36.2	-37.9	22.3	0.00e+00	0	44	0	2416967680	43	4511
2026-01-08 11:05:35.27	20.24	29.52	-36.3	-38.0	22.2	0.00e+00	0	44	0	2423259136	43	4573
2026-01-08 11:05:36.13	20.01	29.42	-36.2	-37.8	22.3	0.00e+00	0	44	0	2427453440	43	4487
2026-01-08 11:05:37.69	19.61	29.23	-36.1	-37.8	22.3	0.00e+00	0	44	0	2436890624	43	4450
2026-01-08 11:05:38.31	19.45	29.16	-36.2	-37.8	22.3	0.00e+00	0	44	0	2440036352	43	4487
2026-01-08 11:05:39.88	19.05	28.97	-36.4	-38.1	22.1	0.00e+00	0	44	0	2449473536	43	4599
2026-01-08 11:05:40.47	18.90	28.90	-36.4	-38.1	22.1	0.00e+00	0	44	0	2452619264	43	4629
2026-01-08 11:05:42.05	18.51	28.71	-36.5	-38.2	22.0	0.00e+00	0	44	0	2461007872	43	4673
2026-01-08 11:05:42.65	18.36	28.64	-36.4	-38.1	22.1	0.00e+00	0	44	0	2465202176	43	4627
2026-01-08 11:05:44.23	17.97	28.45	-36.4	-38.0	22.1	0.00e+00	0	44	0	2473590784	43	4595
2026-01-08 11:05:44.80	17.83	28.39	-36.3	-38.0	22.1	0.00e+00	0	44	0	2476736512	43	4584
2026-01-08 11:05:46.42	17.44	28.19	-36.2	-37.9	22.2	0.00e+00	0	43	0	2486173696	43	4529
2026-01-08 11:05:47.00	17.30	28.12	-36.2	-37.9	22.3	0.00e+00	0	44	0	2489319424	43	4510
2026-01-08 11:05:48.59	16.92	27.93	-36.2	-37.8	22.3	0.00e+00	0	44	0	2497708032	43	4476
2026-01-08 11:05:49.16	16.79	27.86	-36.2	-37.9	22.3	0.00e+00	0	44	0	2500853760	43	4494
2026-01-08 11:05:51.07	16.34	27.64	-36.5	-38.2	22.1	0.00e+00	0	44	0	2512388096	43	4653
2026-01-08 11:05:51.65	16.20	27.57	-36.4	-38.1	22.1	0.00e+00	0	44	0	2515533824	43	4630
2026-01-08 11:05:53.66	15.74	27.33	-36.5	-38.2	22.0	0.00e+00	0	44	0	2527068160	43	4653
2026-01-08 11:05:54.23	15.61	27.26	-36.5	-38.1	22.1	0.00e+00	0	44	0	2530213888	43	4636
2026-01-08 11:05:55.80	15.26	27.07	-36.5	-38.1	22.0	0.00e+00	0	43	0	2538602496	43	4644
2026-01-08 11:05:56.39	15.13	27.00	-36.4	-38.1	22.1	0.00e+00	0	44	0	2541748224	43	4619
2026-01-08 11:05:57.97	14.78	26.81	-36.5	-38.2	22.1	0.00e+00	0	44	0	2551185408	43	4662
2026-01-08 11:05:58.54	14.65	26.74	-36.5	-38.2	22.0	0.00e+00	0	44	0	2554331136	43	4684
2026-01-08 11:06:00.13	14.30	26.55	-36.7	-38.4	22.0	0.00e+00	0	44	0	2562719744	44	4537
2026-01-08 11:06:00.71	14.18	26.48	-36.8	-38.4	22.0	0.00e+00	0	44	0	2565865472	44	4544
2026-01-08 11:06:02.51	13.79	26.27	-36.9	-38.6	21.9	0.00e+00	0	44	0	2576351232	44	4608
2026-01-08 11:06:03.08	13.67	26.20	-37.0	-38.7	21.8	0.00e+00	0	44	0	2579496960	44	4658
2026-01-08 11:06:04.72	13.33	26.01	-36.9	-38.6	21.8	0.00e+00	0	44	0	2588934144	44	4648
2026-01-08 11:06:05.29	13.21	25.94	-37.0	-38.7	21.7	0.00e+00	0	44	0	2592079872	44	4689
2026-01-08 11:06:06.90	12.87	25.75	-37.0	-38.7	21.7	0.00e+00	0	44	0	2601517056	44	4673
2026-01-08 11:06:07.47	12.76	25.68	-37.0	-38.7	21.7	0.00e+00	0	44	0	2604662784	44	4692
2026-01-08 11:06:09.05	12.43	25.49	-36.9	-38.6	21.8	0.00e+00	0	44	0	2613051392	44	4632
2026-01-08 11:06:09.65	12.31	25.42	-37.0	-38.7	21.7	0.00e+00	0	44	0	2616197120	44	4679
2026-01-08 11:06:11.23	11.99	25.23	-37.1	-38.7	21.7	0.00e+00	0	44	0	2625634304	44	4702
2026-01-08 11:06:11.82	11.88	25.16	-37.0	-38.7	21.7	0.00e+00	0	44	0	2628780032	44	4677
2026-01-08 11:06:13.44	11.56	24.97	-37.1	-38.8	21.6	0.00e+00	0	44	0	2638217216	44	4732
2026-01-08 11:06:14.02	11.44	24.90	-37.0	-38.7	21.7	0.00e+00	0	44	0	2641362944	44	4687
2026-01-08 11:06:15.62	11.13	24.72	-37.0	-38.7	21.7	0.00e+00	0	44	0	2649751552	44	4690
2026-01-08 11:06:16.58	10.95	24.60	-37.0	-38.7	21.7	0.00e+00	0	44	0	2654994432	44	4693
2026-01-08 11:06:17.58	10.76	24.49	-37.1	-38.8	21.7	0.00e+00	0	44	0	2661285888	44	4715
2026-01-08 11:06:18.58	10.57	24.37	-37.0	-38.7	21.7	0.00e+00	0	44	0	2666528768	44	4657
2026-01-08 11:06:19.59	10.38	24.25	-36.9	-38.6	21.8	0.00e+00	0	44	0	2672820224	44	4628
2026-01-08 11:06:20.59	10.19	24.13	-37.0	-38.6	21.8	0.00e+00	0	44	0	2678063104	44	4637
2026-01-08 11:06:21.67	9.99	24.01	-37.0	-38.7	21.7	0.00e+00	0	44	0	2684354560	44	4667
2026-01-08 11:06:22.56	9.83	23.91	-36.9	-38.6	21.8	0.00e+00	0	44	0	2689597440	44	4632
2026-01-08 11:06:23.70	9.62	23.77	-36.9	-38.6	21.8	0.00e+00	0	44	0	2695888896	44	4635
2026-01-08 11:06:24.56	9.47	23.67	-37.0	-38.6	21.8	0.00e+00	0	44	0	2700083200	44	4646
2026-01-08 11:06:25.71	9.26	23.54	-37.0	-38.7	21.7	0.00e+00	0	44	0	2707423232	44	4673
2026-01-08 11:06:26.68	9.09	23.43	-37.0	-38.7	21.8	0.00e+00	0	44	0	2712666112	44	4657
2026-01-08 11:06:27.88	8.88	23.29	-37.1	-38.9	21.6	0.00e+00	0	44	0	2718957568	44	4773
2026-01-08 11:06:28.77	8.72	23.19	-37.2	-38.9	21.6	0.00e+00	0	44	0	2724200448	45	4541
2026-01-08 11:06:30.08	8.49	23.04	-37.2	-38.9	21.6	0.00e+00	0	44	0	2731540480	45	4541
2026-01-08 11:06:30.80	8.37	22.96	-37.2	-39.0	21.5	0.00e+00	0	44	0	2735734784	45	4566
2026-01-08 11:06:32.09	8.15	22.81	-37.3	-39.1	21.4	0.00e+00	0	44	0	2743074816	45	4614
2026-01-08 11:06:32.81	8.03	22.73	-37.2	-38.9	21.6	0.00e+00	0	44	0	2747269120	45	4515
2026-01-08 11:06:34.10	7.81	22.58	-37.1	-38.8	21.6	0.00e+00	0	44	0	2754609152	45	4491
2026-01-08 11:06:34.82	7.69	22.50	-37.2	-38.9	21.6	0.00e+00	0	44	0	2757754880	45	4509
2026-01-08 11:06:36.10	7.48	22.35	-37.1	-38.8	21.7	0.00e+00	0	44	0	2765094912	45	4455
2026-01-08 11:06:36.82	7.36	22.27	-37.0	-38.7	21.7	0.00e+00	0	44	0	2769289216	45	4423
2026-01-08 11:06:38.11	7.15	22.13	-37.0	-38.7	21.7	0.00e+00	0	44	0	2776629248	45	4435
2026-01-08 11:06:38.83	7.03	22.04	-37.0	-38.7	21.7	0.00e+00	0	44	0	2780823552	45	4404
2026-01-08 11:06:40.12	6.82	21.90	-37.1	-38.8	21.6	0.00e+00	0	44	0	2788163584	45	4489
2026-01-08 11:06:41.11	6.66	21.79	-37.0	-38.7	21.7	0.00e+00	0	44	0	2793406464	45	4412
2026-01-08 11:06:42.11	6.50	21.68	-37.1	-38.8	21.6	0.00e+00	0	44	0	2799697920	45	4464
2026-01-08 11:06:43.46	6.29	21.53	-37.1	-38.8	21.6	0.00e+00	0	44	0	2807037952	45	4480
2026-01-08 11:06:44.21	6.17	21.44	-37.1	-38.8	21.5	0.00e+00	0	44	0	2811232256	45	4491
2026-01-08 11:06:45.50	5.97	21.30	-37.3	-39.0	21.4	0.00e+00	0	44	0	2818572288	45	4564
2026-01-08 11:06:46.22	5.86	21.22	-37.3	-39.1	21.4	0.00e+00	0	44	0	2822766592	45	4620
2026-01-08 11:06:47.51	5.67	21.08	-37.3	-39.1	21.4	0.00e+00	0	43	0	2829058048	45	4601
2026-01-08 11:06:48.23	5.56	21.00	-37.4	-39.2	21.3	0.00e+00	0	44	0	2833252352	45	4652
2026-01-08 11:06:49.52	5.36	20.86	-37.4	-39.2	21.3	0.00e+00	0	44	0	2840592384	45	4660
2026-01-08 11:06:50.23	5.26	20.78	-37.4	-39.1	21.3	0.00e+00	0	44	0	2844786688	45	4640
2026-01-08 11:06:51.52	5.07	20.64	-37.5	-39.3	21.2	0.00e+00	0	44	0	2852126720	45	4707
2026-01-08 11:06:52.23	4.96	20.56	-37.6	-39.3	21.2	0.00e+00	0	44	0	2856321024	45	4730
2026-01-08 11:06:53.53	4.77	20.42	-37.7	-39.4	21.1	0.00e+00	0	44	0	2863661056	46	4530
2026-01-08 11:06:54.24	4.67	20.34	-37.5	-39.3	21.2	0.00e+00	0	44	0	2866806784	46	4458
2026-01-08 11:06:55.53	4.48	20.20	-37.7	-39.4	21.1	0.00e+00	0	44	0	2874146816	46	4530
2026-01-08 11:06:56.25	4.38	20.12	-37.7	-39.4	21.1	0.00e+00	0	44	0	2878341120	46	4544
2026-01-08 11:06:57.70	4.17	19.97	-37.5	-39.2	21.3	0.00e+00	0	44	0	2886729728	46	4425
2026-01-08 11:06:58.69	4.03	19.86	-37.5	-39.2	21.3	0.00e+00	0	44	0	2891972608	46	4435
2026-01-08 11:07:00.01	3.85	19.72	-37.6	-39.4	21.1	0.00e+00	0	44	0	2900361216	46	4517
2026-01-08 11:07:00.72	3.75	19.65	-37.6	-39.4	21.1	0.00e+00	0	44	0	2903506944	46	4519
2026-01-08 11:07:02.01	3.57	19.51	-37.8	-39.6	21.0	0.00e+00	0	44	0	2910846976	46	4619
2026-01-08 11:07:02.73	3.48	19.43	-37.8	-39.6	21.0	0.00e+00	0	44	0	2915041280	46	4635
2026-01-08 11:07:04.02	3.30	19.30	-38.0	-39.7	20.8	0.00e+00	0	44	0	2922381312	46	4694
2026-01-08 11:07:04.73	3.21	19.22	-38.0	-39.7	20.9	0.00e+00	0	44	0	2926575616	46	4687
2026-01-08 11:07:06.04	3.03	19.08	-37.9	-39.7	20.9	0.00e+00	0	44	0	2933915648	46	4675
2026-01-08 11:07:06.75	2.94	19.01	-37.8	-39.6	21.0	0.00e+00	0	44	0	2938109952	46	4614
2026-01-08 11:07:08.04	2.77	18.87	-37.9	-39.7	20.9	0.00e+00	0	44	0	2944401408	46	4653
2026-01-08 11:07:08.76	2.67	18.80	-37.9	-39.7	20.9	0.00e+00	0	44	0	2948595712	46	4674
2026-01-08 11:07:10.18	2.49	18.65	-38.0	-39.8	20.8	0.00e+00	0	44	0	2956984320	46	4712
2026-01-08 11:07:10.89	2.40	18.58	-37.9	-39.7	20.9	0.00e+00	0	44	0	2961178624	46	4668
2026-01-08 11:07:12.28	2.22	18.43	-38.0	-39.7	20.8	0.00e+00	0	44	0	2968518656	46	4700
2026-01-08 11:07:13.00	2.13	18.36	-38.1	-39.8	20.7	0.00e+00	0	44	0	2972712960	46	4758
2026-01-08 11:07:14.28	1.97	18.23	-37.9	-39.6	20.9	0.00e+00	0	44	0	2980052992	46	4646
2026-01-08 11:07:15.00	1.88	18.15	-37.8	-39.5	21.0	0.00e+00	0	44	0	2984247296	46	4572
2026-01-08 11:07:16.29	1.71	18.02	-37.9	-39.6	20.9	0.00e+00	0	44	0	2991587328	46	4646
2026-01-08 11:07:17.01	1.63	17.95	-37.9	-39.7	20.9	0.00e+00	0	44	0	2995781632	46	4663
2026-01-08 11:07:18.30	1.47	17.82	-37.9	-39.7	20.9	0.00e+00	0	44	0	3003121664	46	4673
2026-01-08 11:07:19.01	1.38	17.74	-37.9	-39.6	20.9	0.00e+00	0	44	0	3006267392	46	4638
2026-01-08 11:07:20.30	1.23	17.61	-37.8	-39.6	21.0	0.00e+00	0	44	0	3013607424	46	4616
2026-01-08 11:07:21.08	1.13	17.53	-37.9	-39.7	20.9	0.00e+00	0	44	0	3017801728	46	4678
2026-01-08 11:07:22.69	0.94	17.37	-38.1	-39.9	20.7	0.00e+00	0	44	0	3027238912	46	4775
2026-01-08 11:07:23.26	0.87	17.31	-38.1	-40.0	20.6	0.00e+00	0	44	0	3030384640	46	4815
2026-01-08 11:07:25.04	0.66	17.14	-38.2	-40.0	20.6	0.00e+00	0	44	0	3040870400	47	4597
2026-01-08 11:07:25.62	0.60	17.08	-38.3	-40.1	20.6	0.00e+00	0	44	0	3044016128	47	4608
2026-01-08 11:07:27.20	0.41	16.92	-38.6	-40.4	20.2	0.00e+00	0	44	0	3052404736	47	4798
2026-01-08 11:07:27.80	0.34	16.86	-38.5	-40.3	20.3	0.00e+00	0	44	0	3056599040	47	4756
2026-01-08 11:07:29.37	0.17	16.71	-38.5	-40.4	20.3	0.00e+00	0	44	0	3064987648	47	4777
2026-01-08 11:07:29.98	0.10	16.65	-38.5	-40.3	20.3	0.00e+00	0	44	0	3068133376	47	4735
2026-01-08 11:07:31.55	359.92	16.49	-38.5	-40.4	20.2	0.00e+00	0	44	0	3077570560	47	4789
2026-01-08 11:07:32.12	359.86	16.44	-38.5	-40.3	20.2	0.00e+00	0	44	0	3080716288	47	4746
2026-01-08 11:07:33.72	359.68	16.28	-38.5	-40.4	20.2	0.00e+00	0	44	0	3089104896	47	4790
2026-01-08 11:07:34.41	359.60	16.21	-38.6	-40.4	20.2	0.00e+00	0	44	0	3093299200	47	4801
2026-01-08 11:07:35.75	359.46	16.09	-38.6	-40.5	20.1	0.00e+00	0	44	0	3100639232	47	4825
2026-01-08 11:07:36.63	359.36	16.00	-38.6	-40.4	20.2	0.00e+00	0	44	0	3105882112	47	4789
2026-01-08 11:07:38.11	359.20	15.86	-38.6	-40.4	20.2	0.00e+00	0	44	0	3114270720	47	4782
2026-01-08 11:07:38.83	359.13	15.79	-38.7	-40.5	20.2	0.00e+00	0	44	0	3118465024	47	4822
2026-01-08 11:07:40.12	358.99	15.67	-38.7	-40.5	20.3	0.00e+00	0	44	0	3125805056	48	4582
2026-01-08 11:07:40.84	358.92	15.60	-38.8	-40.6	20.3	0.00e+00	0	44	0	3128950784	48	4638
2026-01-08 11:07:42.13	358.78	15.47	-38.9	-40.7	20.2	0.00e+00	0	44	0	3136290816	48	4662
2026-01-08 11:07:42.97	358.69	15.39	-38.8	-40.6	20.2	0.00e+00	0	44	0	3141533696	48	4645
2026-01-08 11:07:44.12	358.58	15.29	-39.0	-40.8	20.1	0.00e+00	0	44	0	3147825152	48	4740
2026-01-08 11:07:45.22	358.46	15.18	-39.1	-40.9	20.0	0.00e+00	0	44	0	3154116608	48	4779
2026-01-08 11:07:46.25	358.36	15.09	-39.1	-41.0	20.0	0.00e+00	0	44	0	3160408064	48	4818
2026-01-08 11:07:47.25	358.26	14.99	-39.1	-40.9	20.0	0.00e+00	0	44	0	3165650944	48	4796
2026-01-08 11:07:48.25	358.16	14.90	-39.2	-41.1	19.8	0.00e+00	0	44	0	3170893824	49	4602
2026-01-08 11:07:49.26	358.06	14.80	-39.2	-41.1	19.9	0.00e+00	0	44	0	3177185280	49	4615
2026-01-08 11:07:50.26	357.96	14.71	-39.3	-41.2	19.7	0.00e+00	0	44	0	3182428160	49	4670
2026-01-08 11:07:51.26	357.86	14.62	-39.2	-41.1	19.8	0.00e+00	0	44	0	3187671040	49	4622
2026-01-08 11:07:52.27	357.76	14.53	-39.3	-41.1	19.8	0.00e+00	0	44	0	3193962496	49	4647
2026-01-08 11:07:53.27	357.66	14.43	-39.4	-41.2	19.7	0.00e+00	0	44	0	3199205376	49	4705
2026-01-08 11:07:54.27	357.57	14.34	-39.2	-41.1	19.8	0.00e+00	0	44	0	3205496832	49	4601
2026-01-08 11:07:55.28	357.47	14.25	-39.3	-41.2	19.7	0.00e+00	0	44	0	3210739712	49	4690
2026-01-08 11:07:56.28	357.38	14.16	-39.2	-41.1	19.7	0.00e+00	0	44	0	3215982592	49	4640
2026-01-08 11:07:57.28	357.28	14.07	-39.3	-41.2	19.7	0.00e+00	0	44	0	3222274048	49	4685
2026-01-08 11:07:58.30	357.19	13.97	-39.3	-41.2	19.7	0.00e+00	0	44	0	3227516928	49	4677
2026-01-08 11:07:59.30	357.09	13.88	-39.5	-41.3	19.5	0.00e+00	0	44	0	3233808384	49	4759
2026-01-08 11:08:00.37	356.99	13.79	-39.5	-41.4	19.5	0.00e+00	0	44	0	3239051264	49	4797
2026-01-08 11:08:01.25	356.91	13.71	-39.3	-41.2	19.7	0.00e+00	0	44	0	3244294144	49	4671
2026-01-08 11:08:02.39	356.81	13.61	-39.4	-41.2	19.7	0.00e+00	0	44	0	3250585600	49	4697
2026-01-08 11:08:03.25	356.73	13.53	-39.3	-41.2	19.6	0.00e+00	0	44	0	3255828480	49	4688
2026-01-08 11:08:04.40	356.62	13.43	-39.4	-41.2	19.6	0.00e+00	0	44	0	3262119936	49	4703
2026-01-08 11:08:05.26	356.55	13.35	-39.4	-41.3	19.6	0.00e+00	0	44	0	3267362816	49	4730
2026-01-08 11:08:06.41	356.44	13.25	-39.4	-41.3	19.6	0.00e+00	0	44	0	3273654272	49	4745
2026-01-08 11:08:07.26	356.37	13.17	-39.4	-41.3	19.6	0.00e+00	0	44	0	3277848576	49	4740
2026-01-08 11:08:08.41	356.27	13.07	-39.3	-41.2	19.7	0.00e+00	0	44	0	3284140032	49	4673
2026-01-08 11:08:09.27	356.19	12.99	-39.4	-41.3	19.6	0.00e+00	0	44	0	3289382912	49	4737
2026-01-08 11:08:10.42	356.09	12.89	-39.6	-41.5	19.4	0.00e+00	0	44	0	3295674368	49	4839
2026-01-08 11:08:11.27	356.02	12.82	-39.6	-41.5	19.4	0.00e+00	0	44	0	3300917248	49	4869
2026-01-08 11:08:12.42	355.92	12.72	-39.4	-41.4	19.5	0.00e+00	0	44	0	3307208704	49	4775
2026-01-08 11:08:13.28	355.85	12.64	-39.7	-41.7	19.2	0.00e+00	0	44	0	3311403008	49	4982
2026-01-08 11:08:14.43	355.75	12.55	-39.6	-41.6	19.2	0.00e+00	0	44	0	3318743040	49	4926
2026-01-08 11:08:15.29	355.68	12.47	-39.6	-41.7	19.2	0.00e+00	0	44	0	3322937344	50	4673
2026-01-08 11:08:16.43	355.58	12.37	-39.7	-41.8	19.1	0.00e+00	0	44	0	3329228800	50	4749
2026-01-08 11:08:17.29	355.51	12.30	-39.6	-41.7	19.2	0.00e+00	0	44	0	3334471680	50	4672
2026-01-08 11:08:18.44	355.41	12.20	-39.7	-41.8	19.1	0.00e+00	0	44	0	3340763136	50	4720
2026-01-08 11:08:19.30	355.34	12.13	-39.8	-41.9	19.0	0.00e+00	0	44	0	3346006016	50	4769
2026-01-08 11:08:20.44	355.25	12.03	-40.1	-42.0	18.8	0.00e+00	0	44	0	3352297472	50	4868
2026-01-08 11:08:21.30	355.18	11.96	-39.8	-41.8	19.0	0.00e+00	0	44	0	3357540352	50	4733
2026-01-08 11:08:22.45	355.09	11.86	-39.9	-41.8	19.0	0.00e+00	0	44	0	3363831808	50	4753
2026-01-08 11:08:23.31	355.02	11.79	-40.0	-41.9	19.0	0.00e+00	0	44	0	3368026112	50	4792
2026-01-08 11:08:24.46	354.92	11.69	-40.0	-41.9	19.0	0.00e+00	0	44	0	3375366144	50	4800
2026-01-08 11:08:25.32	354.86	11.62	-40.1	-42.0	18.9	0.00e+00	0	44	0	3379560448	50	4828
2026-01-08 11:08:26.46	354.77	11.52	-40.1	-42.0	18.9	0.00e+00	0	44	0	3385851904	50	4857
2026-01-08 11:08:27.32	354.70	11.45	-40.0	-41.9	19.0	0.00e+00	0	44	0	3391094784	50	4775
2026-01-08 11:08:28.47	354.61	11.35	-39.9	-41.8	19.0	0.00e+00	0	44	0	3397386240	50	4755
2026-01-08 11:08:29.33	354.54	11.28	-39.9	-41.8	19.0	0.00e+00	0	44	0	3402629120	50	4750
2026-01-08 11:08:30.47	354.45	11.19	-39.9	-41.9	19.0	0.00e+00	0	44	0	3408920576	50	4794
2026-01-08 11:08:31.33	354.39	11.12	-39.9	-42.0	18.9	0.00e+00	0	44	0	3413114880	50	4835
2026-01-08 11:08:32.48	354.30	11.02	-39.9	-42.1	18.9	0.00e+00	0	43	0	3419406336	50	4875
2026-01-08 11:08:33.34	354.23	10.95	-39.8	-42.0	19.0	0.00e+00	0	44	0	3424649216	50	4819
2026-01-08 11:08:34.48	354.15	10.86	-39.8	-42.1	18.9	0.00e+00	0	44	0	3430940672	50	4875
2026-01-08 11:08:35.34	354.08	10.79	-39.8	-42.0	18.9	0.00e+00	0	44	0	3436183552	50	4850
2026-01-08 11:08:36.49	354.00	10.69	-39.9	-42.2	18.7	0.00e+00	0	44	0	3442475008	50	4945
2026-01-08 11:08:37.35	353.94	10.62	-39.9	-42.2	18.7	0.00e+00	0	44	0	3447717888	50	4932
2026-01-08 11:08:38.50	353.85	10.53	-40.0	-42.2	18.6	0.00e+00	0	44	0	3454009344	50	4979
2026-01-08 11:08:39.36	353.79	10.46	-40.1	-42.2	18.7	0.00e+00	0	44	0	3458203648	50	4975
2026-01-08 11:08:40.50	353.70	10.37	-40.1	-42.2	18.7	0.00e+00	0	44	0	3465543680	50	4978
2026-01-08 11:08:41.36	353.64	10.30	-40.1	-42.3	18.6	0.00e+00	0	44	0	3469737984	51	4742
2026-01-08 11:08:42.51	353.56	10.21	-40.1	-42.4	18.6	0.00e+00	0	44	0	3476029440	51	4782
2026-01-08 11:08:43.37	353.50	10.14	-40.1	-42.3	18.6	0.00e+00	0	44	0	3481272320	51	4736
2026-01-08 11:08:44.51	353.42	10.05	-40.0	-42.2	18.7	0.00e+00	0	44	0	3487563776	51	4702
2026-01-08 11:08:45.37	353.36	9.98	-40.0	-42.4	18.6	0.00e+00	0	44	0	3492806656	51	4763
2026-01-08 11:08:46.52	353.28	9.89	-39.9	-42.3	18.6	0.00e+00	0	44	0	3499098112	51	4728
2026-01-08 11:08:47.38	353.22	9.82	-40.0	-42.5	18.4	0.00e+00	0	43	0	3503292416	51	4857
2026-01-08 11:08:48.53	353.14	9.73	-40.1	-42.7	18.2	0.00e+00	0	43	0	3510632448	51	4966
2026-01-08 11:08:49.39	353.08	9.66	-40.0	-42.6	18.2	0.00e+00	0	44	0	3514826752	51	4900
2026-01-08 11:08:50.53	353.00	9.57	-39.9	-42.5	18.4	0.00e+00	0	44	0	3521118208	51	4835
2026-01-08 11:08:51.39	352.94	9.50	-40.0	-42.5	18.3	0.00e+00	0	44	0	3526361088	51	4826
2026-01-08 11:08:52.54	352.86	9.41	-40.0	-42.4	18.4	0.00e+00	0	44	0	3532652544	51	4803
2026-01-08 11:08:53.40	352.80	9.35	-40.1	-42.5	18.4	0.00e+00	0	44	0	3537895424	51	4835
2026-01-08 11:08:54.54	352.73	9.26	-40.3	-42.7	18.2	0.00e+00	0	44	0	3544186880	51	4930
2026-01-08 11:08:55.40	352.67	9.19	-40.4	-42.8	18.1	0.00e+00	0	44	0	3549429760	51	4989
2026-01-08 11:08:56.55	352.59	9.10	-40.5	-42.9	17.9	0.00e+00	0	44	0	3555721216	51	5080
2026-01-08 11:08:57.41	352.54	9.04	-40.2	-42.5	18.3	0.00e+00	0	44	0	3559915520	51	4853
2026-01-08 11:08:58.56	352.46	8.95	-49.2	-62.1	3.8	8.47e-01	0	44	104	3564109824	69	16434
2026-01-08 11:08:59.42	352.40	8.88	-49.5	-62.6	3.8	8.46e-01	0	44	104	3564109824	69	17471
2026-01-08 11:09:00.57	352.33	8.79	-49.8	-62.7	3.8	8.47e-01	0	44	104	3564109824	71	15643
2026-01-08 11:09:01.43	352.27	8.73	-50.3	-62.8	3.8	8.48e-01	0	44	104	3564109824	71	15866
2026-01-08 11:09:02.57	352.20	8.64	-50.2	-62.9	3.8	8.46e-01	0	44	104	3564109824	71	16097
2026-01-08 11:09:03.43	352.15	8.58	-50.4	-63.0	3.8	8.48e-01	0	44	104	3564109824	71	16164
2026-01-08 11:09:04.58	352.07	8.49	-50.8	-62.9	3.8	8.47e-01	0	44	104	3564109824	72	15224
2026-01-08 11:09:05.44	352.02	8.42	-50.7	-63.0	3.8	8.47e-01	0	44	104	3564109824	72	15232
2026-01-08 11:09:06.59	351.95	8.34	-50.6	-63.0	3.8	8.47e-01	0	44	104	3564109824	72	15273
2026-01-08 11:09:07.45	351.89	8.27	-50.4	-63.0	3.8	8.46e-01	0	44	104	3564109824	72	15295
2026-01-08 11:09:08.60	351.82	8.19	-50.6	-63.0	3.8	8.48e-01	0	44	104	3564109824	72	15314
2026-01-08 11:09:09.46	351.77	8.12	-50.7	-63.0	3.8	8.47e-01	0	44	104	3564109824	72	15344
2026-01-08 11:09:10.62	351.70	8.04	-50.7	-63.0	3.8	8.45e-01	0	44	104	3564109824	72	15297
2026-01-08 11:09:11.49	351.64	7.97	-50.9	-63.0	3.8	8.47e-01	0	44	104	3564109824	72	15367
2026-01-08 11:09:12.63	351.57	7.89	-50.8	-63.0	3.8	8.47e-01	0	44	104	3564109824	72	15310
2026-01-08 11:09:13.49	351.52	7.82	-50.8	-63.0	3.8	8.47e-01	0	44	104	3564109824	72	15353
2026-01-08 11:09:14.64	351.45	7.74	-50.8	-63.0	3.8	8.47e-01	0	44	104	3564109824	72	15356
2026-01-08 11:09:15.50	351.40	7.67	-50.8	-63.0	3.8	8.48e-01	0	44	104	3564109824	72	15368
2026-01-08 11:09:16.65	351.33	7.59	-50.8	-63.1	3.8	8.47e-01	0	44	104	3564109824	72	15438
2026-01-08 11:09:17.51	351.28	7.53	-50.9	-63.0	3.8	8.46e-01	0	44	104	3564109824	72	15386
2026-01-08 11:09:18.66	351.22	7.44	-50.9	-63.0	3.8	8.47e-01	0	44	104	3564109824	72	15392
2026-01-08 11:09:19.52	351.17	7.38	-50.9	-63.0	3.8	8.47e-01	0	44	104	3564109824	72	15376
2026-01-08 11:09:20.67	351.10	7.30	-50.9	-63.0	3.8	8.48e-01	0	44	104	3564109824	72	15371
2026-01-08 11:09:21.53	351.05	7.23	-50.8	-63.0	3.8	8.47e-01	0	44	104	3564109824	72	15287
2026-01-08 11:09:22.68	350.98	7.15	-50.7	-63.0	3.8	8.48e-01	0	44	104	3564109824	72	15397
2026-01-08 11:09:23.54	350.93	7.09	-50.8	-63.0	3.8	8.47e-01	0	44	104	3564109824	72	15358
2026-01-08 11:09:24.72	350.87	7.00	-50.7	-63.0	3.8	8.47e-01	0	44	104	3564109824	72	15262
2026-01-08 11:09:25.58	350.82	6.94	-50.8	-63.0	3.8	8.48e-01	0	44	104	3564109824	72	15340
2026-01-08 11:09:26.73	350.75	6.86	-50.4	-63.0	3.8	8.48e-01	0	44	104	3564109824	72	15261
2026-01-08 11:09:27.59	350.70	6.80	-50.3	-63.0	3.8	8.46e-01	0	44	104	3564109824	72	15291
2026-01-08 11:09:28.74	350.64	6.71	-50.3	-63.0	3.8	8.47e-01	0	44	104	3564109824	72	15248
2026-01-08 11:09:29.60	350.59	6.65	-50.3	-63.0	3.8	8.47e-01	0	44	104	3564109824	72	15243
2026-01-08 11:09:30.74	350.53	6.57	-50.3	-63.0	3.8	8.48e-01	0	44	104	3564109824	72	15310
