passes_logs/2026/01/08/T1/T1__20260108_081823_SUOMI_NPP_rec.log

#Pass ID: 20260108_081823_SUOMI NPP
#Satellite: SUOMI NPP
#Configuration: NPP
#almurnet v.1.7.20251203
#Start time: 2026-01-08 08:18:23

#Version: 2.0.20230620
#Station: T1
#Location: 37.570604 lon 55.790049 lat
#TLE: 1 37849U 11061A   26005.94084933  .00000134  00000+0  84554-4 0  9990
#TLE: 2 37849  98.7803 308.0679 0002567  79.1029 281.0436 14.19522657735426

#Time	Az	El	Level	Level2	SNR	BER	BlckErr	Temp	State	Recorded	gain1	gain2
2026-01-08 08:18:23.41	106.47	4.98	-50.1	-65.3	3.8	1.49e+00	0	41	0	0	72	19843
2026-01-08 08:18:24.41	106.38	5.04	-50.1	-65.2	3.8	1.49e+00	0	41	104	0	72	19662
2026-01-08 08:18:25.41	106.30	5.10	-50.0	-65.2	3.8	1.49e+00	0	41	104	0	72	19792
2026-01-08 08:18:26.41	106.21	5.16	-50.1	-65.2	3.8	1.49e+00	0	42	104	0	72	19833
2026-01-08 08:18:27.41	106.13	5.22	-50.1	-65.2	3.8	1.49e+00	0	42	104	0	72	19736
2026-01-08 08:18:28.42	106.04	5.28	-50.1	-65.2	3.8	1.49e+00	0	42	104	0	72	19809
2026-01-08 08:18:29.42	105.96	5.34	-50.1	-65.2	3.8	1.49e+00	0	42	104	0	72	19789
2026-01-08 08:18:30.41	105.87	5.40	-50.0	-65.3	3.8	1.49e+00	0	42	104	0	72	19927
2026-01-08 08:18:31.41	105.78	5.46	-50.0	-65.3	3.8	1.49e+00	0	42	104	0	72	19906
2026-01-08 08:18:32.41	105.70	5.52	-50.0	-65.3	3.8	1.49e+00	0	42	104	0	72	19877
2026-01-08 08:18:33.40	105.61	5.58	-50.1	-65.3	3.8	1.49e+00	0	42	104	0	72	19889
2026-01-08 08:18:34.40	105.52	5.64	-50.0	-65.3	3.8	1.49e+00	0	42	104	0	72	19888
2026-01-08 08:18:35.40	105.43	5.70	-50.0	-65.3	3.8	1.49e+00	0	42	104	0	72	19900
2026-01-08 08:18:36.40	105.34	5.76	-50.1	-65.2	3.8	1.49e+00	0	42	104	0	72	19830
2026-01-08 08:18:37.40	105.26	5.83	-50.0	-65.2	3.8	1.49e+00	0	42	104	0	72	19787
2026-01-08 08:18:38.39	105.17	5.89	-50.1	-65.2	3.8	1.49e+00	0	42	104	0	72	19785
2026-01-08 08:18:39.39	105.08	5.95	-50.0	-65.2	3.8	1.49e+00	0	42	104	0	72	19781
2026-01-08 08:18:40.39	104.99	6.01	-50.0	-65.2	3.8	1.49e+00	0	42	104	0	72	19616
2026-01-08 08:18:41.38	104.90	6.07	-50.0	-65.1	3.8	1.49e+00	0	42	104	0	72	19582
2026-01-08 08:18:42.38	104.81	6.13	-50.0	-65.1	3.8	1.49e+00	0	42	104	0	72	19501
2026-01-08 08:18:43.38	104.71	6.19	-50.0	-65.0	3.8	1.49e+00	0	42	104	0	72	19339
2026-01-08 08:18:44.37	104.62	6.25	-50.0	-65.0	3.8	1.49e+00	0	42	104	0	72	19368
2026-01-08 08:18:45.37	104.53	6.31	-50.0	-65.1	3.8	1.49e+00	0	42	104	0	72	19482
2026-01-08 08:18:46.38	104.44	6.37	-50.0	-65.1	3.8	1.49e+00	0	42	104	0	72	19427
2026-01-08 08:18:47.38	104.34	6.44	-50.0	-65.1	3.8	1.49e+00	0	42	104	0	72	19472
2026-01-08 08:18:48.38	104.25	6.50	-50.0	-65.2	3.8	1.49e+00	0	42	104	0	72	19632
2026-01-08 08:18:49.38	104.16	6.56	-50.0	-65.2	3.8	1.49e+00	0	42	104	0	72	19626
2026-01-08 08:18:50.38	104.06	6.62	-50.0	-65.1	3.8	1.49e+00	0	42	104	0	72	19551
2026-01-08 08:18:51.39	103.97	6.68	-50.0	-65.1	3.8	1.49e+00	0	42	104	0	72	19577
2026-01-08 08:18:52.39	103.87	6.74	-50.0	-65.1	3.8	1.49e+00	0	42	104	0	72	19520
2026-01-08 08:18:53.39	103.78	6.81	-50.0	-65.1	3.8	1.49e+00	0	42	104	0	72	19469
2026-01-08 08:18:54.40	103.68	6.87	-50.0	-65.1	3.8	1.49e+00	0	42	104	0	72	19413
2026-01-08 08:18:55.40	103.58	6.93	-50.0	-65.0	3.8	1.49e+00	0	42	104	0	72	19324
2026-01-08 08:18:56.40	103.49	6.99	-50.0	-65.0	3.8	1.49e+00	0	42	104	0	72	19275
2026-01-08 08:18:57.40	103.39	7.05	-50.0	-65.0	3.8	1.49e+00	0	42	104	0	72	19311
2026-01-08 08:18:58.41	103.29	7.12	-50.0	-65.0	3.8	1.49e+00	0	43	104	0	72	19333
2026-01-08 08:18:59.41	103.19	7.18	-50.0	-65.1	3.8	1.49e+00	0	42	104	0	72	19416
2026-01-08 08:19:00.41	103.09	7.24	-50.0	-65.1	3.8	1.49e+00	0	43	104	0	72	19578
2026-01-08 08:19:01.41	102.99	7.30	-50.0	-65.2	3.8	1.49e+00	0	43	104	0	72	19684
2026-01-08 08:19:02.41	102.89	7.37	-50.0	-65.2	3.8	1.49e+00	0	43	104	0	72	19684
2026-01-08 08:19:03.41	102.79	7.43	-50.0	-65.2	3.8	1.49e+00	0	43	104	0	72	19661
2026-01-08 08:19:04.41	102.69	7.49	-50.0	-65.2	3.8	1.49e+00	0	43	104	0	71	20791
2026-01-08 08:19:05.42	102.59	7.56	-50.0	-65.0	3.8	1.49e+00	0	43	104	0	71	20485
2026-01-08 08:19:06.41	102.49	7.62	-50.0	-64.9	3.8	1.49e+00	0	42	104	0	71	20149
2026-01-08 08:19:07.42	102.39	7.68	-50.0	-64.6	3.8	1.49e+00	0	42	104	0	71	19465
2026-01-08 08:19:08.42	102.29	7.74	-50.0	-64.4	3.8	1.49e+00	0	43	104	0	71	18981
2026-01-08 08:19:09.42	102.19	7.81	-50.0	-64.4	3.8	1.49e+00	0	42	104	0	71	18987
2026-01-08 08:19:10.42	102.08	7.87	-50.0	-64.5	3.8	1.49e+00	0	43	104	0	71	19186
2026-01-08 08:19:11.42	101.98	7.93	-50.0	-65.0	3.8	1.49e+00	0	43	104	0	71	20308
2026-01-08 08:19:12.42	101.88	8.00	-50.0	-65.1	3.8	1.49e+00	0	43	104	0	71	20625
2026-01-08 08:19:13.42	101.77	8.06	-49.9	-64.0	3.8	1.49e+00	0	43	104	0	71	18230
2026-01-08 08:19:14.43	101.67	8.12	-49.7	-60.9	4.4	1.46e+00	0	43	0	0	71	12665
2026-01-08 08:19:15.43	101.56	8.19	-49.3	-57.6	6.3	3.47e-01	0	43	0	1048576	70	9254
2026-01-08 08:19:16.43	101.45	8.25	-48.6	-55.2	8.6	5.69e-02	0	43	0	3145728	69	7408
2026-01-08 08:19:17.43	101.35	8.31	-47.6	-52.7	10.9	1.22e-02	0	43	0	5242880	67	6271
2026-01-08 08:19:18.43	101.24	8.38	-47.1	-51.7	12.1	7.70e-04	0	43	0	7340032	66	5870
2026-01-08 08:19:19.43	101.13	8.44	-46.8	-51.0	12.8	9.15e-05	0	43	0	9437184	65	5769
2026-01-08 08:19:20.43	101.03	8.51	-46.5	-50.4	13.3	3.89e-05	0	43	0	10485760	65	5392
2026-01-08 08:19:21.43	100.92	8.57	-46.2	-50.0	13.8	8.30e-06	0	43	0	12582912	64	5451
2026-01-08 08:19:22.43	100.81	8.63	-46.4	-50.2	13.5	6.10e-06	0	43	0	14680064	64	5585
2026-01-08 08:19:23.43	100.70	8.70	-46.5	-50.4	13.4	1.75e-05	0	43	0	16777216	64	5705
2026-01-08 08:19:24.43	100.59	8.76	-47.0	-51.4	12.4	5.41e-05	0	43	0	18874368	64	6397
2026-01-08 08:19:25.43	100.48	8.83	-48.0	-53.6	10.1	1.23e-03	0	43	0	19922944	66	7347
2026-01-08 08:19:26.43	100.37	8.89	-48.6	-55.7	8.0	3.15e-02	0	43	0	22020096	67	8773
2026-01-08 08:19:27.43	100.26	8.95	-49.3	-58.1	6.1	1.70e-01	0	43	0	24117248	69	10383
2026-01-08 08:19:28.44	100.15	9.02	-49.7	-61.1	4.4	6.88e-01	0	43	0	26214400	70	13810
2026-01-08 08:19:29.44	100.03	9.08	-49.4	-58.3	5.7	1.39e+00	0	43	104	26214400	70	10023
2026-01-08 08:19:30.44	99.92	9.15	-49.5	-58.7	5.6	1.03e+00	0	43	0	27262976	70	10454
2026-01-08 08:19:31.45	99.81	9.21	-49.9	-61.8	4.2	6.50e-01	0	43	0	29360128	70	14989
2026-01-08 08:19:32.45	99.69	9.28	-49.8	-61.6	3.9	1.49e+00	0	43	104	29360128	70	14557
2026-01-08 08:19:33.45	99.58	9.34	-49.3	-57.5	6.8	1.28e-02	0	43	0	29360128	69	9705
2026-01-08 08:19:34.45	99.47	9.41	-50.0	-63.9	3.8	1.49e+00	0	43	104	30408704	70	19128
2026-01-08 08:19:35.46	99.35	9.47	-48.0	-53.2	10.8	2.25e-01	0	43	0	30408704	68	6256
2026-01-08 08:19:36.46	99.23	9.54	-47.7	-52.9	10.9	2.18e-03	0	43	0	32505856	67	6400
2026-01-08 08:19:37.46	99.12	9.60	-47.5	-52.4	11.4	1.11e-03	0	43	0	34603008	67	6039
2026-01-08 08:19:38.46	99.00	9.67	-47.3	-52.0	12.0	3.33e-04	0	43	0	36700160	66	6090
2026-01-08 08:19:39.46	98.88	9.73	-46.9	-51.3	12.7	1.29e-04	0	43	0	38797312	65	5942
2026-01-08 08:19:40.46	98.77	9.80	-46.6	-50.6	13.3	4.50e-05	0	43	0	39845888	65	5508
2026-01-08 08:19:41.46	98.65	9.86	-46.2	-49.9	14.0	9.90e-06	0	43	0	41943040	64	5370
2026-01-08 08:19:42.47	98.53	9.93	-45.9	-49.3	14.7	0.00e+00	0	43	0	44040192	63	5293
2026-01-08 08:19:43.47	98.41	9.99	-45.9	-49.4	14.6	0.00e+00	0	43	0	46137344	63	5342
2026-01-08 08:19:44.47	98.29	10.06	-46.3	-50.0	14.0	0.00e+00	0	43	0	47185920	63	5779
2026-01-08 08:19:45.47	98.17	10.12	-46.3	-50.0	14.1	3.00e-06	0	43	0	49283072	63	5729
2026-01-08 08:19:46.47	98.05	10.19	-46.1	-49.7	14.3	1.50e-06	0	43	0	51380224	63	5570
2026-01-08 08:19:47.47	97.92	10.25	-46.0	-49.4	14.7	0.00e+00	0	43	0	53477376	63	5376
2026-01-08 08:19:48.47	97.80	10.32	-45.8	-49.2	14.9	0.00e+00	0	43	0	55574528	63	5226
2026-01-08 08:19:49.47	97.68	10.38	-45.7	-49.0	15.1	0.00e+00	0	43	0	56623104	63	5121
2026-01-08 08:19:50.48	97.56	10.45	-45.7	-48.9	15.1	0.00e+00	0	43	0	58720256	63	5078
2026-01-08 08:19:51.48	97.43	10.51	-45.8	-49.2	14.8	0.00e+00	0	43	0	60817408	63	5237
2026-01-08 08:19:52.48	97.31	10.58	-46.2	-49.9	14.2	0.00e+00	0	43	0	62914560	63	5668
2026-01-08 08:19:53.49	97.18	10.65	-46.3	-50.0	14.1	1.50e-06	0	43	0	65011712	63	5744
2026-01-08 08:19:54.49	97.06	10.71	-46.1	-49.6	14.5	2.20e-06	0	43	0	66060288	63	5504
2026-01-08 08:19:55.49	96.93	10.78	-46.0	-49.5	14.6	0.00e+00	0	43	0	68157440	63	5452
2026-01-08 08:19:56.49	96.80	10.84	-45.6	-48.8	15.3	0.00e+00	0	43	0	70254592	63	5021
2026-01-08 08:19:57.49	96.68	10.91	-45.6	-48.8	15.2	0.00e+00	0	43	0	72351744	63	5037
2026-01-08 08:19:58.49	96.55	10.97	-45.6	-48.9	15.2	0.00e+00	0	43	0	73400320	63	5083
2026-01-08 08:19:59.49	96.42	11.04	-45.7	-49.0	15.0	0.00e+00	0	43	0	75497472	63	5142
2026-01-08 08:20:00.49	96.29	11.11	-46.1	-49.8	14.4	2.20e-06	0	43	0	77594624	63	5597
2026-01-08 08:20:01.49	96.16	11.17	-46.3	-50.1	14.1	0.00e+00	0	43	0	79691776	63	5815
2026-01-08 08:20:02.49	96.03	11.24	-46.4	-50.2	13.9	3.00e-06	0	43	0	81788928	63	5922
2026-01-08 08:20:03.49	95.90	11.30	-46.2	-49.8	14.3	2.20e-06	0	43	0	82837504	63	5632
2026-01-08 08:20:04.49	95.77	11.37	-46.1	-49.7	14.5	7.00e-07	0	43	0	84934656	63	5543
2026-01-08 08:20:05.49	95.64	11.44	-45.9	-49.4	14.7	1.50e-06	0	43	0	87031808	63	5360
2026-01-08 08:20:06.49	95.50	11.50	-46.0	-49.5	14.6	0.00e+00	0	43	0	89128960	63	5457
2026-01-08 08:20:07.50	95.37	11.57	-45.8	-49.2	14.9	0.00e+00	0	43	0	91226112	63	5245
2026-01-08 08:20:08.50	95.23	11.64	-46.1	-49.6	14.6	0.00e+00	0	43	0	92274688	63	5478
2026-01-08 08:20:09.50	95.10	11.70	-45.9	-49.4	14.8	7.00e-07	0	43	0	94371840	63	5344
2026-01-08 08:20:10.51	94.96	11.77	-45.8	-49.2	14.9	0.00e+00	0	43	0	96468992	63	5251
2026-01-08 08:20:11.51	94.83	11.83	-45.8	-49.1	15.0	0.00e+00	0	43	0	98566144	63	5185
2026-01-08 08:20:12.51	94.69	11.90	-45.4	-48.6	15.6	0.00e+00	0	43	0	100663296	62	5162
2026-01-08 08:20:13.51	94.56	11.97	-45.2	-48.2	15.9	0.00e+00	0	43	0	101711872	62	4973
2026-01-08 08:20:14.51	94.42	12.03	-45.2	-48.2	15.9	0.00e+00	0	43	0	103809024	62	4978
2026-01-08 08:20:15.51	94.28	12.10	-45.2	-48.2	15.9	0.00e+00	0	43	0	105906176	62	4927
2026-01-08 08:20:16.52	94.14	12.17	-45.3	-48.4	15.7	0.00e+00	0	43	0	108003328	62	5077
2026-01-08 08:20:17.52	94.00	12.23	-45.3	-48.3	15.7	0.00e+00	0	43	0	110100480	62	5036
2026-01-08 08:20:18.52	93.86	12.30	-45.1	-48.1	16.0	0.00e+00	0	43	0	111149056	62	4873
2026-01-08 08:20:19.52	93.72	12.37	-45.1	-48.1	16.0	0.00e+00	0	43	0	113246208	62	4906
2026-01-08 08:20:20.52	93.58	12.43	-45.2	-48.2	15.9	0.00e+00	0	43	0	115343360	62	4980
2026-01-08 08:20:21.53	93.43	12.50	-45.3	-48.4	15.8	0.00e+00	0	43	0	117440512	62	5052
2026-01-08 08:20:22.53	93.29	12.57	-45.3	-48.4	15.7	0.00e+00	0	43	0	119537664	62	5094
2026-01-08 08:20:23.53	93.15	12.63	-45.3	-48.4	15.8	0.00e+00	0	43	0	120586240	62	5045
2026-01-08 08:20:24.53	93.00	12.70	-45.1	-48.1	16.0	0.00e+00	0	43	0	122683392	62	4916
2026-01-08 08:20:25.54	92.86	12.76	-45.1	-48.0	16.0	0.00e+00	0	43	0	124780544	61	5159
2026-01-08 08:20:26.54	92.71	12.83	-45.2	-48.3	15.9	0.00e+00	0	43	0	126877696	61	5284
2026-01-08 08:20:27.54	92.57	12.90	-45.4	-48.5	15.7	0.00e+00	0	43	0	127926272	61	5429
2026-01-08 08:20:28.54	92.42	12.96	-45.6	-48.8	15.3	0.00e+00	0	43	0	130023424	62	5337
2026-01-08 08:20:29.54	92.27	13.03	-45.6	-48.8	15.4	0.00e+00	0	43	0	132120576	62	5286
2026-01-08 08:20:30.54	92.12	13.10	-45.5	-48.6	15.5	0.00e+00	0	43	0	134217728	62	5217
2026-01-08 08:20:31.55	91.97	13.16	-45.4	-48.5	15.7	0.00e+00	0	43	0	136314880	62	5156
2026-01-08 08:20:32.55	91.83	13.23	-45.3	-48.3	15.8	0.00e+00	0	43	0	137363456	62	5038
2026-01-08 08:20:33.55	91.68	13.30	-45.4	-48.5	15.6	0.00e+00	0	43	0	139460608	62	5138
2026-01-08 08:20:34.55	91.52	13.36	-45.4	-48.5	15.7	0.00e+00	0	43	0	141557760	62	5114
2026-01-08 08:20:35.55	91.37	13.43	-45.5	-48.7	15.5	0.00e+00	0	43	0	143654912	62	5251
2026-01-08 08:20:36.55	91.22	13.49	-45.5	-48.8	15.4	0.00e+00	0	43	0	145752064	62	5285
2026-01-08 08:20:37.56	91.07	13.56	-45.6	-48.8	15.3	0.00e+00	0	43	0	146800640	62	5340
2026-01-08 08:20:38.56	90.91	13.63	-45.5	-48.7	15.5	0.00e+00	0	43	0	148897792	62	5222
2026-01-08 08:20:39.56	90.76	13.69	-45.6	-48.8	15.3	0.00e+00	0	43	0	150994944	62	5313
2026-01-08 08:20:40.57	90.60	13.76	-45.4	-48.5	15.7	0.00e+00	0	43	0	153092096	62	5128
2026-01-08 08:20:41.57	90.45	13.83	-45.5	-48.7	15.5	0.00e+00	0	43	0	155189248	62	5270
2026-01-08 08:20:42.57	90.29	13.89	-45.7	-49.1	15.1	0.00e+00	0	43	0	156237824	62	5501
2026-01-08 08:20:43.57	90.13	13.96	-45.7	-49.2	15.0	0.00e+00	0	43	0	158334976	62	5534
2026-01-08 08:20:44.57	89.98	14.03	-45.8	-49.3	14.9	0.00e+00	0	43	0	160432128	62	5653
2026-01-08 08:20:45.57	89.82	14.09	-45.6	-48.9	15.3	0.00e+00	0	43	0	162529280	62	5391
2026-01-08 08:20:46.58	89.66	14.16	-45.4	-48.6	15.5	0.00e+00	0	43	0	164626432	62	5208
2026-01-08 08:20:47.58	89.50	14.22	-45.3	-48.4	15.8	0.00e+00	0	43	0	165675008	62	5095
2026-01-08 08:20:48.58	89.34	14.29	-45.1	-48.1	16.0	0.00e+00	0	43	0	167772160	62	4910
2026-01-08 08:20:49.58	89.18	14.36	-45.3	-48.4	15.8	0.00e+00	0	43	0	169869312	62	5086
2026-01-08 08:20:50.59	89.01	14.42	-45.3	-48.4	15.8	0.00e+00	0	43	0	171966464	62	5067
2026-01-08 08:20:51.59	88.85	14.49	-45.2	-48.4	15.8	0.00e+00	0	43	0	173015040	62	5060
2026-01-08 08:20:52.59	88.69	14.55	-45.3	-48.4	15.8	0.00e+00	0	43	0	175112192	62	5097
2026-01-08 08:20:53.60	88.52	14.62	-45.3	-48.5	15.7	0.00e+00	0	43	0	177209344	62	5124
2026-01-08 08:20:54.60	88.35	14.69	-45.3	-48.4	15.8	0.00e+00	0	43	0	179306496	62	5088
2026-01-08 08:20:55.60	88.19	14.75	-45.2	-48.3	15.8	0.00e+00	0	43	0	181403648	62	5001
2026-01-08 08:20:56.60	88.02	14.82	-45.3	-48.4	15.8	0.00e+00	0	43	0	182452224	62	5059
2026-01-08 08:20:57.60	87.86	14.88	-45.4	-48.6	15.6	0.00e+00	0	43	0	184549376	62	5196
2026-01-08 08:20:58.61	87.69	14.95	-45.6	-48.9	15.3	0.00e+00	0	43	0	186646528	62	5389
2026-01-08 08:20:59.61	87.52	15.01	-45.5	-48.8	15.4	0.00e+00	0	43	0	188743680	62	5326
2026-01-08 08:21:00.61	87.35	15.08	-45.4	-48.7	15.5	0.00e+00	0	43	0	190840832	62	5251
2026-01-08 08:21:01.61	87.18	15.14	-45.6	-48.9	15.2	0.00e+00	0	43	0	191889408	62	5402
2026-01-08 08:21:02.61	87.01	15.21	-45.8	-49.3	14.9	0.00e+00	0	43	0	193986560	62	5628
2026-01-08 08:21:03.61	86.83	15.27	-45.7	-49.1	15.1	0.00e+00	0	43	0	196083712	62	5510
2026-01-08 08:21:04.61	86.66	15.34	-45.7	-49.2	15.1	0.00e+00	0	43	0	198180864	62	5561
2026-01-08 08:21:05.61	86.49	15.40	-45.6	-49.0	15.2	0.00e+00	0	43	0	200278016	62	5432
2026-01-08 08:21:06.61	86.32	15.47	-45.6	-49.1	15.1	0.00e+00	0	43	0	201326592	62	5471
2026-01-08 08:21:07.61	86.14	15.53	-45.6	-49.0	15.2	0.00e+00	0	43	0	203423744	62	5436
2026-01-08 08:21:08.61	85.97	15.60	-45.3	-48.6	15.6	0.00e+00	0	43	0	205520896	62	5195
2026-01-08 08:21:09.61	85.79	15.66	-45.3	-48.7	15.6	0.00e+00	0	43	0	207618048	62	5222
2026-01-08 08:21:10.61	85.61	15.72	-44.9	-47.9	16.2	0.00e+00	0	43	0	209715200	61	5097
2026-01-08 08:21:11.62	85.43	15.79	-44.8	-47.8	16.3	0.00e+00	0	43	0	210763776	61	5008
2026-01-08 08:21:12.62	85.25	15.85	-44.6	-47.6	16.5	0.00e+00	0	43	0	212860928	61	4918
2026-01-08 08:21:13.62	85.07	15.92	-44.7	-47.7	16.4	0.00e+00	0	43	0	214958080	61	4946
2026-01-08 08:21:14.62	84.89	15.98	-44.8	-47.9	16.2	0.00e+00	0	43	0	217055232	61	5085
2026-01-08 08:21:15.62	84.71	16.04	-44.5	-47.5	16.6	0.00e+00	0	43	0	218103808	61	4826
2026-01-08 08:21:16.62	84.53	16.11	-44.3	-47.3	16.8	0.00e+00	0	43	0	220200960	60	4988
2026-01-08 08:21:17.62	84.35	16.17	-44.3	-47.3	16.9	0.00e+00	0	43	0	222298112	60	5005
2026-01-08 08:21:18.62	84.17	16.23	-44.1	-47.0	17.1	0.00e+00	0	43	0	224395264	60	4831
2026-01-08 08:21:19.62	83.98	16.30	-44.2	-47.1	17.0	0.00e+00	0	43	0	226492416	60	4881
2026-01-08 08:21:20.63	83.80	16.36	-44.2	-47.0	17.1	0.00e+00	0	43	0	227540992	60	4868
2026-01-08 08:21:21.63	83.61	16.42	-44.3	-47.1	17.0	0.00e+00	0	43	0	229638144	60	4913
2026-01-08 08:21:22.63	83.42	16.49	-44.2	-46.9	17.2	0.00e+00	0	43	0	231735296	60	4813
2026-01-08 08:21:23.64	83.24	16.55	-44.1	-46.8	17.3	0.00e+00	0	43	0	233832448	60	4715
2026-01-08 08:21:24.64	83.05	16.61	-44.1	-46.8	17.3	0.00e+00	0	43	0	235929600	60	4746
2026-01-08 08:21:25.64	82.86	16.67	-43.9	-46.6	17.5	0.00e+00	0	43	0	236978176	59	4874
2026-01-08 08:21:26.64	82.67	16.74	-44.1	-46.7	17.3	0.00e+00	0	43	0	239075328	59	4976
2026-01-08 08:21:27.64	82.48	16.80	-43.9	-46.5	17.5	0.00e+00	0	43	0	241172480	59	4870
2026-01-08 08:21:28.64	82.29	16.86	-43.8	-46.3	17.7	0.00e+00	0	43	0	243269632	59	4756
2026-01-08 08:21:29.65	82.09	16.92	-43.8	-46.4	17.7	0.00e+00	0	43	0	244318208	59	4775
2026-01-08 08:21:30.65	81.90	16.98	-43.7	-46.3	17.7	0.00e+00	0	43	0	246415360	59	4759
2026-01-08 08:21:31.65	81.71	17.04	-43.8	-46.4	17.6	0.00e+00	0	43	0	248512512	59	4806
2026-01-08 08:21:32.65	81.51	17.11	-43.8	-46.4	17.7	0.00e+00	0	43	0	250609664	59	4765
2026-01-08 08:21:33.65	81.32	17.17	-43.7	-46.3	17.7	0.00e+00	0	43	0	252706816	59	4722
2026-01-08 08:21:34.65	81.12	17.23	-43.7	-46.3	17.7	0.00e+00	0	43	0	253755392	59	4718
2026-01-08 08:21:35.66	80.93	17.29	-43.7	-46.3	17.7	0.00e+00	0	43	0	255852544	59	4717
2026-01-08 08:21:36.66	80.73	17.35	-43.7	-46.3	17.7	0.00e+00	0	43	0	257949696	59	4741
2026-01-08 08:21:37.66	80.53	17.41	-43.6	-46.1	17.9	0.00e+00	0	43	0	260046848	59	4644
2026-01-08 08:21:38.66	80.33	17.47	-43.6	-46.1	17.8	0.00e+00	0	43	0	262144000	59	4649
2026-01-08 08:21:39.66	80.13	17.53	-43.5	-46.0	18.0	0.00e+00	0	43	0	263192576	59	4570
2026-01-08 08:21:40.66	79.93	17.59	-43.5	-46.0	18.0	0.00e+00	0	43	0	265289728	58	4832
2026-01-08 08:21:41.66	79.73	17.65	-43.6	-46.1	17.9	0.00e+00	0	43	0	267386880	58	4876
2026-01-08 08:21:42.66	79.53	17.71	-43.6	-46.1	17.9	0.00e+00	0	43	0	269484032	58	4897
2026-01-08 08:21:43.66	79.32	17.76	-43.5	-46.0	18.0	0.00e+00	0	43	0	271581184	58	4840
2026-01-08 08:21:44.67	79.12	17.82	-43.5	-46.0	18.0	0.00e+00	0	43	0	272629760	58	4837
2026-01-08 08:21:45.67	78.91	17.88	-43.5	-46.0	18.0	0.00e+00	0	43	0	274726912	58	4822
2026-01-08 08:21:46.66	78.71	17.94	-43.5	-46.0	18.0	0.00e+00	0	43	0	276824064	58	4846
2026-01-08 08:21:47.67	78.50	18.00	-43.7	-46.2	17.8	0.00e+00	0	43	0	278921216	58	4965
2026-01-08 08:21:48.67	78.30	18.06	-44.1	-46.7	17.4	0.00e+00	0	43	0	281018368	58	5247
2026-01-08 08:21:49.67	78.09	18.11	-44.0	-46.6	17.5	0.00e+00	0	43	0	282066944	58	5180
2026-01-08 08:21:50.67	77.88	18.17	-44.0	-46.6	17.5	0.00e+00	0	43	0	284164096	58	5170
2026-01-08 08:21:51.67	77.67	18.23	-44.0	-46.6	17.5	0.00e+00	0	43	0	286261248	58	5180
2026-01-08 08:21:52.68	77.46	18.28	-43.8	-46.4	17.7	0.00e+00	0	43	0	288358400	59	4785
2026-01-08 08:21:53.68	77.25	18.34	-43.5	-46.2	17.6	0.00e+00	0	43	0	289406976	59	4680
2026-01-08 08:21:54.68	77.04	18.40	-43.7	-46.4	17.5	0.00e+00	0	43	0	291504128	59	4806
2026-01-08 08:21:55.68	76.82	18.45	-43.6	-46.3	17.6	0.00e+00	0	43	0	293601280	59	4727
2026-01-08 08:21:56.68	76.61	18.51	-43.6	-46.3	17.6	0.00e+00	0	43	0	295698432	59	4725
2026-01-08 08:21:57.68	76.40	18.56	-43.5	-46.2	17.7	0.00e+00	0	43	0	297795584	59	4661
2026-01-08 08:21:58.69	76.18	18.62	-43.6	-46.2	17.6	0.00e+00	0	43	0	298844160	59	4688
2026-01-08 08:21:59.69	75.96	18.67	-43.5	-46.1	17.7	0.00e+00	0	43	0	300941312	58	4920
2026-01-08 08:22:00.69	75.75	18.73	-43.3	-45.8	18.0	0.00e+00	0	43	0	303038464	58	4744
2026-01-08 08:22:01.69	75.53	18.78	-43.2	-45.8	18.1	0.00e+00	0	43	0	305135616	58	4720
2026-01-08 08:22:02.70	75.31	18.83	-43.1	-45.6	18.2	0.00e+00	0	43	0	307232768	58	4606
2026-01-08 08:22:03.70	75.09	18.89	-43.0	-45.4	18.4	0.00e+00	0	43	0	308281344	58	4540
2026-01-08 08:22:04.70	74.87	18.94	-42.8	-45.2	18.6	0.00e+00	0	43	0	310378496	57	4654
2026-01-08 08:22:05.70	74.65	18.99	-42.5	-44.9	18.9	0.00e+00	0	43	0	312475648	57	4510
2026-01-08 08:22:06.70	74.43	19.05	-42.4	-44.6	18.9	0.00e+00	0	43	0	314572800	56	4650
2026-01-08 08:22:07.70	74.21	19.10	-42.6	-44.9	18.9	0.00e+00	0	43	0	316669952	56	4779
2026-01-08 08:22:08.70	73.99	19.15	-42.6	-44.9	18.9	0.00e+00	0	43	0	317718528	56	4784
2026-01-08 08:22:09.70	73.76	19.20	-42.6	-45.0	18.8	0.00e+00	0	43	0	319815680	56	4832
2026-01-08 08:22:10.70	73.54	19.25	-42.8	-45.1	18.7	0.00e+00	0	43	0	321912832	56	4915
2026-01-08 08:22:11.71	73.31	19.30	-42.7	-45.1	18.7	0.00e+00	0	43	0	324009984	56	4883
2026-01-08 08:22:12.70	73.09	19.35	-42.9	-45.3	18.5	0.00e+00	0	43	0	325058560	56	5011
2026-01-08 08:22:13.71	72.86	19.40	-43.2	-45.7	18.2	0.00e+00	0	43	0	327155712	57	4947
2026-01-08 08:22:14.71	72.63	19.45	-43.1	-45.6	18.3	0.00e+00	0	43	0	329252864	57	4884
2026-01-08 08:22:15.71	72.41	19.50	-42.9	-45.3	18.5	0.00e+00	0	43	0	331350016	57	4754
2026-01-08 08:22:16.72	72.18	19.55	-43.0	-45.5	18.4	0.00e+00	0	43	0	333447168	57	4819
2026-01-08 08:22:17.71	71.95	19.60	-43.2	-45.8	18.2	0.00e+00	0	43	0	334495744	57	4986
2026-01-08 08:22:18.71	71.72	19.65	-43.3	-45.8	18.1	0.00e+00	0	43	0	336592896	57	5009
2026-01-08 08:22:19.71	71.49	19.69	-43.4	-46.0	17.9	0.00e+00	0	43	0	338690048	57	5152
2026-01-08 08:22:20.71	71.26	19.74	-43.4	-46.0	17.9	0.00e+00	0	43	0	340787200	57	5145
2026-01-08 08:22:21.71	71.03	19.79	-43.4	-46.0	17.9	0.00e+00	0	43	0	342884352	57	5123
2026-01-08 08:22:22.72	70.79	19.83	-43.3	-45.8	18.1	0.00e+00	0	43	0	343932928	57	5037
2026-01-08 08:22:23.72	70.56	19.88	-43.5	-46.1	17.8	0.00e+00	0	43	0	346030080	57	5193
2026-01-08 08:22:24.72	70.32	19.93	-43.3	-45.8	18.0	0.00e+00	0	43	0	348127232	57	5024
2026-01-08 08:22:25.72	70.09	19.97	-43.3	-45.8	18.0	0.00e+00	0	43	0	350224384	57	5026
2026-01-08 08:22:26.72	69.85	20.02	-43.1	-45.6	18.3	0.00e+00	0	43	0	352321536	57	4885
2026-01-08 08:22:27.72	69.62	20.06	-43.0	-45.5	18.4	0.00e+00	0	43	0	353370112	57	4835
2026-01-08 08:22:28.73	69.38	20.10	-43.1	-45.5	18.4	0.00e+00	0	43	0	355467264	57	4839
2026-01-08 08:22:29.73	69.14	20.15	-42.9	-45.4	18.5	0.00e+00	0	43	0	357564416	57	4765
2026-01-08 08:22:30.73	68.90	20.19	-42.8	-45.2	18.7	0.00e+00	0	43	0	359661568	57	4653
2026-01-08 08:22:31.73	68.66	20.23	-42.7	-45.0	18.8	0.00e+00	0	43	0	361758720	57	4593
2026-01-08 08:22:32.73	68.42	20.28	-42.8	-45.2	18.7	0.00e+00	0	43	0	362807296	57	4652
2026-01-08 08:22:33.73	68.18	20.32	-42.9	-45.3	18.6	0.00e+00	0	43	0	364904448	57	4748
2026-01-08 08:22:34.73	67.94	20.36	-42.7	-45.1	18.7	0.00e+00	0	43	0	367001600	57	4616
2026-01-08 08:22:35.73	67.70	20.40	-42.7	-45.1	18.7	0.00e+00	0	43	0	369098752	57	4614
2026-01-08 08:22:36.74	67.46	20.44	-42.6	-44.9	18.9	0.00e+00	0	43	0	370147328	57	4523
2026-01-08 08:22:37.74	67.21	20.48	-42.7	-45.0	18.8	0.00e+00	0	43	0	372244480	56	4836
2026-01-08 08:22:38.74	66.97	20.52	-42.9	-45.3	18.6	0.00e+00	0	43	0	374341632	56	4987
2026-01-08 08:22:39.75	66.72	20.56	-43.0	-45.4	18.5	0.00e+00	0	43	0	376438784	56	5087
2026-01-08 08:22:40.75	66.48	20.60	-43.0	-45.4	18.5	0.00e+00	0	43	0	378535936	56	5061
2026-01-08 08:22:41.75	66.23	20.63	-43.4	-45.9	18.1	0.00e+00	0	43	0	379584512	57	5045
2026-01-08 08:22:42.75	65.99	20.67	-43.6	-46.1	17.9	0.00e+00	0	43	0	381681664	58	4915
2026-01-08 08:22:43.75	65.74	20.71	-43.7	-46.3	17.7	0.00e+00	0	43	0	383778816	58	5007
2026-01-08 08:22:44.76	65.49	20.74	-44.0	-46.7	17.3	0.00e+00	0	43	0	385875968	58	5261
2026-01-08 08:22:45.75	65.25	20.78	-44.1	-46.8	17.3	0.00e+00	0	43	0	387973120	58	5287
2026-01-08 08:22:46.75	65.00	20.82	-44.2	-46.9	17.1	0.00e+00	0	43	0	389021696	59	5078
2026-01-08 08:22:47.75	64.75	20.85	-44.2	-46.9	17.1	0.00e+00	0	43	0	391118848	59	5084
2026-01-08 08:22:48.75	64.50	20.88	-44.3	-47.2	16.9	0.00e+00	0	43	0	393216000	59	5250
2026-01-08 08:22:49.75	64.25	20.92	-44.6	-47.5	16.6	0.00e+00	0	43	0	395313152	59	5423
2026-01-08 08:22:50.76	64.00	20.95	-44.8	-47.9	16.2	0.00e+00	0	43	0	397410304	60	5361
2026-01-08 08:22:51.76	63.75	20.98	-44.6	-47.7	16.4	0.00e+00	0	43	0	398458880	60	5244
2026-01-08 08:22:52.76	63.49	21.02	-44.7	-47.7	16.4	0.00e+00	0	43	0	400556032	60	5249
2026-01-08 08:22:53.77	63.24	21.05	-44.6	-47.6	16.4	0.00e+00	0	43	0	402653184	60	5211
2026-01-08 08:22:54.77	62.99	21.08	-44.5	-47.4	16.7	0.00e+00	0	43	0	404750336	60	5068
2026-01-08 08:22:55.76	62.74	21.11	-44.3	-47.2	16.9	0.00e+00	0	43	0	406847488	60	4941
2026-01-08 08:22:56.77	62.48	21.14	-44.2	-47.0	17.0	0.00e+00	0	43	0	407896064	60	4852
2026-01-08 08:22:57.77	62.23	21.17	-44.1	-47.0	17.1	0.00e+00	0	43	0	409993216	60	4831
2026-01-08 08:22:58.77	61.97	21.20	-44.0	-46.8	17.2	0.00e+00	0	43	0	412090368	60	4728
2026-01-08 08:22:59.77	61.72	21.23	-44.0	-46.8	17.2	0.00e+00	0	43	0	414187520	59	5016
2026-01-08 08:23:00.78	61.46	21.25	-44.3	-47.1	16.9	0.00e+00	0	43	0	415236096	59	5204
2026-01-08 08:23:01.78	61.20	21.28	-44.4	-47.3	16.7	0.00e+00	0	43	0	417333248	59	5307
2026-01-08 08:23:02.78	60.95	21.31	-44.5	-47.5	16.5	0.00e+00	0	43	0	419430400	59	5451
2026-01-08 08:23:03.78	60.69	21.33	-44.8	-47.9	16.2	0.00e+00	0	43	0	421527552	60	5401
2026-01-08 08:23:04.78	60.43	21.36	-44.8	-47.9	16.2	0.00e+00	0	43	0	423624704	60	5398
2026-01-08 08:23:05.78	60.18	21.38	-44.7	-47.8	16.4	0.00e+00	0	43	0	424673280	60	5310
2026-01-08 08:23:06.78	59.92	21.41	-44.3	-47.3	16.8	0.00e+00	0	43	0	426770432	60	4996
2026-01-08 08:23:07.78	59.66	21.43	-44.0	-46.8	17.2	0.00e+00	0	43	0	428867584	59	5020
2026-01-08 08:23:08.78	59.40	21.45	-44.2	-46.9	17.1	0.00e+00	0	43	0	430964736	59	5097
2026-01-08 08:23:09.79	59.14	21.48	-44.2	-47.0	17.1	0.00e+00	0	43	0	433061888	59	5135
2026-01-08 08:23:10.78	58.88	21.50	-44.4	-47.2	16.8	0.00e+00	0	43	0	434110464	59	5271
2026-01-08 08:23:11.79	58.62	21.52	-44.4	-47.2	16.9	0.00e+00	0	43	0	436207616	59	5248
2026-01-08 08:23:12.79	58.36	21.54	-44.5	-47.4	16.7	0.00e+00	0	43	0	438304768	59	5361
2026-01-08 08:23:13.79	58.10	21.56	-44.3	-47.2	16.9	0.00e+00	0	43	0	440401920	59	5250
2026-01-08 08:23:14.80	57.84	21.58	-44.2	-47.0	17.0	0.00e+00	0	43	0	442499072	59	5134
2026-01-08 08:23:15.79	57.58	21.60	-44.0	-46.7	17.3	0.00e+00	0	43	0	443547648	59	4952
2026-01-08 08:23:16.79	57.32	21.61	-43.9	-46.6	17.4	0.00e+00	0	43	0	445644800	59	4918
2026-01-08 08:23:17.79	57.06	21.63	-44.2	-47.0	17.1	0.00e+00	0	42	0	447741952	59	5117
2026-01-08 08:23:18.79	56.79	21.65	-44.4	-47.3	16.7	0.00e+00	0	43	0	449839104	59	5315
2026-01-08 08:23:19.79	56.53	21.66	-44.8	-48.0	16.2	0.00e+00	0	43	0	450887680	60	5433
2026-01-08 08:23:20.79	56.27	21.68	-44.9	-48.1	16.1	0.00e+00	0	43	0	452984832	60	5466
2026-01-08 08:23:21.79	56.01	21.69	-44.8	-48.0	16.2	0.00e+00	0	43	0	455081984	60	5441
2026-01-08 08:23:22.80	55.74	21.71	-44.8	-48.1	16.1	0.00e+00	0	43	0	457179136	60	5468
2026-01-08 08:23:23.80	55.48	21.72	-45.1	-48.4	15.8	0.00e+00	0	43	0	459276288	60	5711
2026-01-08 08:23:24.80	55.21	21.74	-45.2	-48.6	15.5	0.00e+00	0	43	0	460324864	61	5474
2026-01-08 08:23:25.80	54.95	21.75	-45.4	-48.9	15.2	0.00e+00	0	43	0	462422016	61	5697
2026-01-08 08:23:26.80	54.69	21.76	-45.2	-48.7	15.5	0.00e+00	0	43	0	464519168	61	5564
2026-01-08 08:23:27.81	54.42	21.77	-45.0	-48.3	15.9	0.00e+00	0	43	0	466616320	61	5307
2026-01-08 08:23:28.81	54.15	21.78	-45.0	-48.3	15.8	0.00e+00	0	43	0	468713472	61	5334
2026-01-08 08:23:29.81	53.89	21.79	-44.8	-48.0	16.1	0.00e+00	0	43	0	469762048	61	5107
2026-01-08 08:23:30.81	53.63	21.80	-44.6	-47.7	16.4	0.00e+00	0	43	0	471859200	61	4956
2026-01-08 08:23:31.82	53.36	21.81	-44.4	-47.4	16.7	0.00e+00	0	43	0	473956352	60	5053
2026-01-08 08:23:32.82	53.09	21.82	-44.1	-47.1	17.1	0.00e+00	0	43	0	476053504	60	4874
2026-01-08 08:23:33.82	52.83	21.82	-43.9	-46.7	17.3	0.00e+00	0	43	0	478150656	59	4944
2026-01-08 08:23:34.82	52.56	21.83	-43.6	-46.3	17.6	0.00e+00	0	43	0	479199232	59	4741
2026-01-08 08:23:35.82	52.30	21.84	-43.8	-46.5	17.4	0.00e+00	0	43	0	481296384	59	4843
2026-01-08 08:23:36.83	52.03	21.84	-43.8	-46.6	17.3	0.00e+00	0	43	0	483393536	59	4898
2026-01-08 08:23:37.83	51.76	21.85	-43.8	-46.5	17.4	0.00e+00	0	43	0	485490688	59	4870
2026-01-08 08:23:38.83	51.50	21.85	-43.6	-46.3	17.6	0.00e+00	0	43	0	487587840	59	4725
2026-01-08 08:23:39.83	51.23	21.85	-43.6	-46.3	17.6	0.00e+00	0	43	0	488636416	59	4754
2026-01-08 08:23:40.84	50.97	21.86	-43.5	-46.2	17.7	0.00e+00	0	43	0	490733568	59	4674
2026-01-08 08:23:41.84	50.70	21.86	-43.7	-46.3	17.6	0.00e+00	0	43	0	492830720	59	4756
2026-01-08 08:23:42.84	50.43	21.86	-44.0	-46.8	17.2	0.00e+00	0	43	0	494927872	59	5017
2026-01-08 08:23:43.84	50.17	21.86	-44.1	-47.0	17.0	0.00e+00	0	43	0	495976448	59	5109
2026-01-08 08:23:44.84	49.90	21.86	-44.2	-47.2	16.8	0.00e+00	0	43	0	498073600	59	5230
2026-01-08 08:23:45.84	49.64	21.86	-44.3	-47.2	16.8	0.00e+00	0	43	0	500170752	59	5252
2026-01-08 08:23:46.85	49.37	21.86	-44.1	-47.0	17.0	0.00e+00	0	43	0	502267904	59	5138
2026-01-08 08:23:47.85	49.10	21.86	-44.1	-47.0	17.1	0.00e+00	0	43	0	504365056	59	5126
2026-01-08 08:23:48.85	48.84	21.85	-44.2	-47.1	17.0	0.00e+00	0	43	0	505413632	59	5163
2026-01-08 08:23:49.86	48.57	21.85	-44.0	-46.8	17.2	0.00e+00	0	43	0	507510784	59	5003
2026-01-08 08:23:50.86	48.30	21.85	-43.7	-46.4	17.5	0.00e+00	0	43	0	509607936	59	4801
2026-01-08 08:23:51.86	48.04	21.84	-43.6	-46.2	17.7	0.00e+00	0	43	0	511705088	59	4698
2026-01-08 08:23:52.86	47.77	21.84	-43.3	-45.9	18.1	0.00e+00	0	43	0	513802240	58	4769
2026-01-08 08:23:53.86	47.51	21.83	-43.3	-45.8	18.1	0.00e+00	0	43	0	514850816	58	4752
2026-01-08 08:23:54.86	47.24	21.82	-43.4	-46.0	18.0	0.00e+00	0	43	0	516947968	58	4821
2026-01-08 08:23:55.86	46.98	21.82	-43.5	-46.0	17.9	0.00e+00	0	43	0	519045120	58	4855
2026-01-08 08:23:56.86	46.71	21.81	-43.4	-46.0	17.9	0.00e+00	0	43	0	521142272	58	4846
2026-01-08 08:23:57.86	46.45	21.80	-43.4	-45.9	18.0	0.00e+00	0	43	0	523239424	58	4785
2026-01-08 08:23:58.86	46.18	21.79	-43.3	-45.7	18.2	0.00e+00	0	43	0	524288000	58	4705
2026-01-08 08:23:59.87	45.92	21.78	-43.1	-45.6	18.3	0.00e+00	0	43	0	526385152	58	4624
2026-01-08 08:24:00.87	45.65	21.77	-43.0	-45.5	18.5	0.00e+00	0	43	0	528482304	58	4547
2026-01-08 08:24:01.87	45.39	21.76	-43.0	-45.5	18.5	0.00e+00	0	43	0	530579456	58	4556
2026-01-08 08:24:02.87	45.13	21.75	-43.3	-45.8	18.2	0.00e+00	0	43	0	532676608	58	4730
2026-01-08 08:24:03.87	44.86	21.73	-43.4	-45.9	18.0	0.00e+00	0	43	0	533725184	58	4804
2026-01-08 08:24:04.87	44.60	21.72	-43.2	-45.8	18.2	0.00e+00	0	43	0	535822336	58	4715
2026-01-08 08:24:05.88	44.33	21.71	-43.2	-45.7	18.2	0.00e+00	0	43	0	537919488	58	4673
2026-01-08 08:24:06.88	44.07	21.69	-43.0	-45.4	18.5	0.00e+00	0	43	0	540016640	58	4538
2026-01-08 08:24:07.88	43.81	21.68	-42.8	-45.1	18.8	0.00e+00	0	43	0	541065216	57	4644
2026-01-08 08:24:08.88	43.55	21.66	-42.7	-45.0	18.8	0.00e+00	0	43	0	543162368	57	4592
2026-01-08 08:24:09.88	43.28	21.65	-42.7	-45.1	18.8	0.00e+00	0	43	0	545259520	57	4632
2026-01-08 08:24:10.88	43.02	21.63	-42.7	-45.0	18.8	0.00e+00	0	43	0	547356672	57	4580
2026-01-08 08:24:11.88	42.76	21.61	-42.8	-45.2	18.7	0.00e+00	0	43	0	549453824	57	4689
2026-01-08 08:24:12.88	42.50	21.59	-42.9	-45.4	18.5	0.00e+00	0	43	0	550502400	57	4765
2026-01-08 08:24:13.88	42.24	21.58	-43.0	-45.4	18.5	0.00e+00	0	43	0	552599552	57	4792
2026-01-08 08:24:14.88	41.98	21.56	-43.1	-45.6	18.4	0.00e+00	0	43	0	554696704	57	4872
2026-01-08 08:24:15.88	41.72	21.54	-43.2	-45.7	18.2	0.00e+00	0	43	0	556793856	57	4950
2026-01-08 08:24:16.89	41.46	21.52	-43.1	-45.6	18.3	0.00e+00	0	43	0	558891008	57	4900
2026-01-08 08:24:17.89	41.20	21.49	-43.2	-45.6	18.3	0.00e+00	0	43	0	559939584	57	4902
2026-01-08 08:24:18.89	40.94	21.47	-43.0	-45.4	18.5	0.00e+00	0	43	0	562036736	57	4793
2026-01-08 08:24:19.89	40.68	21.45	-43.0	-45.4	18.6	0.00e+00	0	43	0	564133888	57	4762
2026-01-08 08:24:20.89	40.42	21.43	-42.7	-45.0	18.8	0.00e+00	0	43	0	566231040	57	4577
2026-01-08 08:24:21.89	40.16	21.40	-42.7	-45.1	18.8	0.00e+00	0	43	0	567279616	57	4616
2026-01-08 08:24:22.90	39.90	21.38	-42.7	-45.0	18.8	0.00e+00	0	43	0	569376768	57	4564
2026-01-08 08:24:23.90	39.65	21.36	-42.6	-44.9	19.0	0.00e+00	0	43	0	571473920	57	4498
2026-01-08 08:24:24.90	39.39	21.33	-42.6	-44.9	18.9	0.00e+00	0	43	0	573571072	57	4513
2026-01-08 08:24:25.91	39.13	21.30	-42.7	-45.0	18.8	0.00e+00	0	43	0	575668224	57	4570
2026-01-08 08:24:26.91	38.87	21.28	-42.9	-45.3	18.6	0.00e+00	0	43	0	577765376	57	4720
2026-01-08 08:24:27.91	38.62	21.25	-43.1	-45.6	18.3	0.00e+00	0	43	0	578813952	57	4886
2026-01-08 08:24:28.91	38.36	21.22	-43.6	-46.2	17.8	0.00e+00	0	43	0	580911104	57	5267
2026-01-08 08:24:29.92	38.11	21.19	-43.8	-46.4	17.6	0.00e+00	0	43	0	583008256	58	5069
2026-01-08 08:24:30.92	37.85	21.17	-43.7	-46.3	17.7	0.00e+00	0	43	0	585105408	58	5013
2026-01-08 08:24:31.92	37.60	21.14	-43.6	-46.2	17.7	0.00e+00	0	43	0	586153984	58	4972
2026-01-08 08:24:32.92	37.35	21.11	-43.4	-46.0	18.0	0.00e+00	0	43	0	588251136	58	4843
2026-01-08 08:24:33.92	37.09	21.08	-43.3	-45.8	18.1	0.00e+00	0	43	0	590348288	58	4738
2026-01-08 08:24:34.93	36.84	21.04	-43.3	-45.8	18.1	0.00e+00	0	43	0	592445440	58	4746
2026-01-08 08:24:35.93	36.59	21.01	-43.5	-46.0	17.9	0.00e+00	0	43	0	594542592	58	4865
2026-01-08 08:24:36.93	36.34	20.98	-43.8	-46.4	17.7	0.00e+00	0	43	0	595591168	58	5060
2026-01-08 08:24:37.94	36.09	20.95	-43.9	-46.6	17.4	0.00e+00	0	43	0	597688320	58	5199
2026-01-08 08:24:38.94	35.84	20.91	-44.0	-46.8	17.3	0.00e+00	0	43	0	599785472	58	5281
2026-01-08 08:24:39.94	35.59	20.88	-44.1	-46.9	17.2	0.00e+00	0	43	0	601882624	59	5062
2026-01-08 08:24:40.95	35.33	20.85	-44.3	-47.1	16.9	0.00e+00	0	43	0	603979776	59	5200
2026-01-08 08:24:41.95	35.09	20.81	-44.4	-47.3	16.8	0.00e+00	0	43	0	605028352	59	5313
2026-01-08 08:24:42.95	34.84	20.78	-44.8	-47.9	16.3	0.00e+00	0	43	0	607125504	60	5400
2026-01-08 08:24:43.95	34.59	20.74	-45.0	-48.2	15.9	0.00e+00	0	43	0	609222656	60	5586
2026-01-08 08:24:44.96	34.34	20.70	-44.8	-48.0	16.2	0.00e+00	0	43	0	611319808	60	5439
2026-01-08 08:24:45.96	34.10	20.67	-44.8	-48.0	16.1	0.00e+00	0	42	0	612368384	60	5453
2026-01-08 08:24:46.96	33.85	20.63	-44.7	-47.8	16.3	0.00e+00	0	43	0	614465536	60	5340
2026-01-08 08:24:47.97	33.61	20.59	-44.5	-47.6	16.6	0.00e+00	0	43	0	616562688	60	5194
2026-01-08 08:24:48.97	33.36	20.55	-44.3	-47.3	16.8	0.00e+00	0	43	0	618659840	60	5026
2026-01-08 08:24:49.97	33.12	20.52	-44.1	-47.1	17.0	0.00e+00	0	43	0	620756992	60	4907
2026-01-08 08:24:50.98	32.87	20.48	-44.1	-47.1	17.0	0.00e+00	0	43	0	622854144	60	4895
2026-01-08 08:24:51.98	32.63	20.44	-44.1	-47.0	17.0	0.00e+00	0	43	0	623902720	59	5151
2026-01-08 08:24:52.98	32.39	20.40	-44.1	-47.1	16.9	0.00e+00	0	43	0	625999872	59	5180
2026-01-08 08:24:53.98	32.15	20.36	-44.4	-47.5	16.6	0.00e+00	0	43	0	628097024	59	5432
2026-01-08 08:24:54.99	31.91	20.31	-44.5	-47.5	16.6	0.00e+00	0	43	0	630194176	59	5420
2026-01-08 08:24:55.99	31.67	20.27	-44.4	-47.4	16.6	0.00e+00	0	43	0	631242752	59	5357
2026-01-08 08:24:56.99	31.43	20.23	-44.2	-47.0	17.0	0.00e+00	0	43	0	633339904	59	5154
2026-01-08 08:24:57.99	31.19	20.19	-43.9	-46.6	17.4	0.00e+00	0	43	0	635437056	59	4878
2026-01-08 08:24:59.00	30.95	20.14	-43.8	-46.5	17.5	0.00e+00	0	43	0	637534208	59	4828
2026-01-08 08:25:00.00	30.71	20.10	-43.8	-46.4	17.5	0.00e+00	0	43	0	639631360	59	4811
2026-01-08 08:25:01.00	30.48	20.06	-43.5	-46.1	17.9	0.00e+00	0	43	0	640679936	59	4611
2026-01-08 08:25:02.00	30.24	20.01	-43.7	-46.3	17.6	0.00e+00	0	42	0	642777088	58	5021
2026-01-08 08:25:03.00	30.01	19.97	-43.5	-46.2	17.8	0.00e+00	0	42	0	644874240	58	4946
2026-01-08 08:25:04.00	29.77	19.92	-43.4	-46.1	17.8	0.00e+00	0	43	0	646971392	58	4881
2026-01-08 08:25:05.01	29.54	19.88	-43.5	-46.1	17.8	0.00e+00	0	42	0	649068544	58	4907
2026-01-08 08:25:06.01	29.31	19.83	-43.7	-46.4	17.6	0.00e+00	0	43	0	650117120	58	5047
2026-01-08 08:25:07.01	29.07	19.78	-43.7	-46.4	17.5	0.00e+00	0	43	0	652214272	58	5086
2026-01-08 08:25:08.01	28.84	19.74	-43.8	-46.5	17.4	0.00e+00	0	43	0	654311424	58	5146
2026-01-08 08:25:09.01	28.61	19.69	-44.1	-46.9	17.1	0.00e+00	0	43	0	656408576	58	5396
2026-01-08 08:25:10.01	28.38	19.64	-44.5	-47.5	16.6	0.00e+00	0	43	0	658505728	59	5422
2026-01-08 08:25:11.02	28.15	19.60	-44.7	-47.9	16.2	0.00e+00	0	43	0	659554304	60	5374
2026-01-08 08:25:12.02	27.92	19.55	-44.8	-48.0	16.1	0.00e+00	0	43	0	661651456	60	5453
2026-01-08 08:25:13.02	27.70	19.50	-44.8	-48.2	15.9	0.00e+00	0	42	0	663748608	60	5564
2026-01-08 08:25:14.02	27.47	19.45	-44.8	-48.2	16.0	0.00e+00	0	43	0	665845760	60	5532
2026-01-08 08:25:15.02	27.24	19.40	-44.7	-48.1	16.1	0.00e+00	0	42	0	667942912	60	5473
2026-01-08 08:25:16.03	27.02	19.35	-44.6	-48.0	16.1	0.00e+00	0	43	0	668991488	60	5420
2026-01-08 08:25:17.03	26.79	19.30	-44.9	-48.5	15.6	0.00e+00	0	43	0	671088640	60	5768
2026-01-08 08:25:18.03	26.57	19.25	-44.9	-48.6	15.6	0.00e+00	0	43	0	673185792	60	5810
2026-01-08 08:25:19.02	26.35	19.20	-45.3	-49.2	15.0	0.00e+00	0	43	0	675282944	61	5889
2026-01-08 08:25:20.03	26.12	19.15	-45.6	-49.7	14.5	0.00e+00	0	43	0	676331520	62	5893
2026-01-08 08:25:21.03	25.90	19.10	-45.8	-50.1	14.1	3.00e-06	0	43	0	678428672	62	6194
2026-01-08 08:25:22.03	25.68	19.04	-45.9	-50.3	14.0	1.50e-06	0	43	0	680525824	62	6322
2026-01-08 08:25:23.03	25.46	18.99	-45.6	-49.7	14.6	0.00e+00	0	43	0	682622976	62	5896
2026-01-08 08:25:24.04	25.24	18.94	-45.5	-49.5	14.8	7.00e-07	0	43	0	684720128	62	5756
2026-01-08 08:25:25.04	25.02	18.89	-45.1	-48.8	15.5	0.00e+00	0	43	0	685768704	62	5285
2026-01-08 08:25:26.04	24.80	18.83	-44.8	-48.2	15.9	0.00e+00	0	43	0	687865856	61	5264
2026-01-08 08:25:27.04	24.58	18.78	-44.6	-47.9	16.2	0.00e+00	0	43	0	689963008	61	5053
2026-01-08 08:25:28.04	24.37	18.72	-44.5	-47.6	16.6	0.00e+00	0	43	0	692060160	60	5180
2026-01-08 08:25:29.05	24.15	18.67	-43.9	-46.7	17.4	0.00e+00	0	43	0	694157312	59	4939
2026-01-08 08:25:30.05	23.94	18.62	-43.8	-46.5	17.5	0.00e+00	0	42	0	695205888	59	4837
2026-01-08 08:25:31.05	23.72	18.56	-43.6	-46.3	17.6	0.00e+00	0	43	0	697303040	59	4710
2026-01-08 08:25:32.05	23.51	18.51	-43.4	-46.1	17.9	0.00e+00	0	42	0	699400192	58	4874
2026-01-08 08:25:33.06	23.30	18.45	-43.4	-46.0	17.9	0.00e+00	0	42	0	701497344	58	4852
2026-01-08 08:25:34.06	23.08	18.39	-43.4	-46.0	18.0	0.00e+00	0	42	0	703594496	58	4845
2026-01-08 08:25:35.06	22.87	18.34	-43.5	-46.2	17.8	0.00e+00	0	43	0	704643072	58	4950
2026-01-08 08:25:36.07	22.66	18.28	-43.6	-46.3	17.7	0.00e+00	0	42	0	706740224	58	5040
2026-01-08 08:25:37.07	22.45	18.23	-43.5	-46.2	17.8	0.00e+00	0	42	0	708837376	58	4980
2026-01-08 08:25:38.07	22.24	18.17	-43.4	-46.1	17.7	0.00e+00	0	42	0	710934528	58	4921
2026-01-08 08:25:39.07	22.04	18.11	-43.6	-46.4	17.6	0.00e+00	0	43	0	713031680	58	5055
2026-01-08 08:25:40.07	21.83	18.06	-43.2	-45.9	18.0	0.00e+00	0	43	0	714080256	58	4807
2026-01-08 08:25:41.07	21.62	18.00	-43.1	-45.7	18.2	0.00e+00	0	42	0	716177408	58	4678
2026-01-08 08:25:42.08	21.42	17.94	-43.1	-45.7	18.2	0.00e+00	0	42	0	718274560	58	4672
2026-01-08 08:25:43.08	21.21	17.88	-43.1	-45.8	18.1	0.00e+00	0	42	0	720371712	58	4715
2026-01-08 08:25:44.08	21.01	17.82	-43.3	-45.9	18.0	0.00e+00	0	43	0	721420288	58	4810
2026-01-08 08:25:45.08	20.81	17.77	-43.7	-46.4	17.6	0.00e+00	0	43	0	723517440	58	5092
2026-01-08 08:25:46.08	20.60	17.71	-44.0	-46.9	17.1	0.00e+00	0	43	0	725614592	58	5353
2026-01-08 08:25:47.08	20.40	17.65	-44.4	-47.4	16.6	0.00e+00	0	42	0	727711744	59	5393
2026-01-08 08:25:48.08	20.20	17.59	-44.7	-47.9	16.3	0.00e+00	0	43	0	729808896	60	5349
2026-01-08 08:25:49.08	20.00	17.53	-44.9	-48.2	16.0	0.00e+00	0	42	0	730857472	60	5534
2026-01-08 08:25:50.08	19.81	17.47	-45.0	-48.4	15.7	0.00e+00	0	43	0	732954624	60	5722
2026-01-08 08:25:51.09	19.61	17.41	-44.9	-48.4	15.8	0.00e+00	0	42	0	735051776	60	5670
2026-01-08 08:25:52.09	19.41	17.35	-44.9	-48.4	15.8	0.00e+00	0	43	0	737148928	60	5692
2026-01-08 08:25:53.09	19.21	17.29	-44.6	-47.9	16.2	0.00e+00	0	42	0	739246080	60	5360
2026-01-08 08:25:54.09	19.02	17.23	-44.4	-47.6	16.6	0.00e+00	0	43	0	740294656	60	5174
2026-01-08 08:25:55.09	18.82	17.17	-44.2	-47.4	16.7	0.00e+00	0	42	0	742391808	60	5055
2026-01-08 08:25:56.09	18.63	17.11	-44.1	-47.2	16.9	0.00e+00	0	43	0	744488960	60	4961
2026-01-08 08:25:57.09	18.43	17.05	-44.0	-47.0	17.0	0.00e+00	0	42	0	746586112	59	5111
2026-01-08 08:25:58.09	18.24	16.99	-43.9	-46.8	17.2	0.00e+00	0	42	0	748683264	59	5012
2026-01-08 08:25:59.09	18.05	16.93	-43.8	-46.6	17.3	0.00e+00	0	42	0	749731840	59	4915
2026-01-08 08:26:00.10	17.86	16.86	-43.7	-46.4	17.5	0.00e+00	0	42	0	751828992	59	4803
2026-01-08 08:26:01.10	17.67	16.80	-43.6	-46.2	17.7	0.00e+00	0	42	0	753926144	59	4681
2026-01-08 08:26:02.10	17.48	16.74	-43.6	-46.2	17.7	0.00e+00	0	43	0	756023296	59	4704
2026-01-08 08:26:03.11	17.29	16.68	-43.8	-46.4	17.5	0.00e+00	0	43	0	757071872	59	4810
2026-01-08 08:26:04.11	17.10	16.62	-43.9	-46.6	17.4	0.00e+00	0	42	0	759169024	59	4887
2026-01-08 08:26:05.11	16.91	16.55	-44.1	-47.0	17.1	0.00e+00	0	42	0	761266176	59	5107
2026-01-08 08:26:06.11	16.73	16.49	-44.3	-47.2	16.9	0.00e+00	0	42	0	763363328	59	5236
2026-01-08 08:26:07.11	16.54	16.43	-44.5	-47.4	16.6	0.00e+00	0	43	0	765460480	59	5387
2026-01-08 08:26:08.12	16.36	16.37	-44.5	-47.5	16.6	0.00e+00	0	43	0	766509056	60	5128
2026-01-08 08:26:09.12	16.17	16.30	-44.5	-47.5	16.7	0.00e+00	0	43	0	768606208	60	5114
2026-01-08 08:26:10.12	15.99	16.24	-44.4	-47.4	16.7	0.00e+00	0	43	0	770703360	60	5079
2026-01-08 08:26:11.12	15.81	16.18	-44.2	-47.3	16.8	0.00e+00	0	42	0	772800512	60	4993
2026-01-08 08:26:12.12	15.63	16.11	-44.1	-47.2	16.9	0.00e+00	0	43	0	774897664	60	4959
2026-01-08 08:26:13.12	15.45	16.05	-44.1	-47.2	16.9	0.00e+00	0	42	0	775946240	59	5227
2026-01-08 08:26:14.12	15.27	15.99	-44.1	-47.3	16.8	0.00e+00	0	42	0	778043392	59	5297
2026-01-08 08:26:15.12	15.09	15.92	-44.1	-47.4	16.7	0.00e+00	0	43	0	780140544	59	5363
2026-01-08 08:26:16.12	14.91	15.86	-44.1	-47.4	16.7	0.00e+00	0	42	0	782237696	59	5364
2026-01-08 08:26:17.12	14.73	15.80	-44.1	-47.5	16.6	0.00e+00	0	43	0	784334848	59	5409
2026-01-08 08:26:18.13	14.55	15.73	-44.1	-47.4	16.6	0.00e+00	0	43	0	785383424	59	5394
2026-01-08 08:26:19.13	14.38	15.67	-44.2	-47.5	16.6	0.00e+00	0	42	0	787480576	59	5427
2026-01-08 08:26:20.13	14.20	15.60	-44.2	-47.5	16.6	0.00e+00	0	43	0	789577728	59	5436
2026-01-08 08:26:21.13	14.03	15.54	-44.2	-47.5	16.6	0.00e+00	0	42	0	791674880	59	5437
2026-01-08 08:26:22.14	13.85	15.47	-44.0	-47.3	16.8	0.00e+00	0	42	0	793772032	59	5297
2026-01-08 08:26:23.14	13.68	15.41	-43.9	-47.1	17.0	0.00e+00	0	43	0	794820608	59	5181
2026-01-08 08:26:24.14	13.51	15.35	-43.7	-46.9	17.1	0.00e+00	0	43	0	796917760	59	5044
2026-01-08 08:26:25.13	13.34	15.28	-43.5	-46.5	17.4	0.00e+00	0	42	0	799014912	59	4859
2026-01-08 08:26:26.13	13.17	15.22	-43.4	-46.4	17.6	0.00e+00	0	43	0	801112064	58	5058
2026-01-08 08:26:27.14	13.00	15.15	-43.3	-46.2	17.7	0.00e+00	0	43	0	802160640	58	4959
2026-01-08 08:26:28.14	12.83	15.09	-43.4	-46.3	17.6	0.00e+00	0	43	0	804257792	58	5020
2026-01-08 08:26:29.14	12.66	15.02	-43.5	-46.3	17.7	0.00e+00	0	42	0	806354944	58	5025
2026-01-08 08:26:30.14	12.49	14.96	-43.6	-46.4	17.5	0.00e+00	0	42	0	808452096	58	5100
2026-01-08 08:26:31.14	12.33	14.89	-43.7	-46.5	17.5	0.00e+00	0	42	0	810549248	58	5128
2026-01-08 08:26:32.14	12.16	14.83	-43.5	-46.1	17.8	0.00e+00	0	42	0	811597824	58	4906
2026-01-08 08:26:33.14	11.99	14.76	-43.4	-46.0	18.0	0.00e+00	0	42	0	813694976	58	4824
2026-01-08 08:26:34.15	11.83	14.70	-42.9	-45.4	18.4	0.00e+00	0	42	0	815792128	57	4800
2026-01-08 08:26:35.15	11.66	14.63	-42.8	-45.3	18.5	0.00e+00	0	42	0	817889280	57	4730
2026-01-08 08:26:36.15	11.50	14.56	-42.7	-45.2	18.6	0.00e+00	0	42	0	819986432	57	4681
2026-01-08 08:26:37.15	11.34	14.50	-42.6	-45.1	18.7	0.00e+00	0	43	0	821035008	57	4632
2026-01-08 08:26:38.15	11.18	14.43	-42.6	-45.2	18.7	0.00e+00	0	42	0	823132160	57	4668
2026-01-08 08:26:39.15	11.02	14.37	-42.7	-45.3	18.5	0.00e+00	0	43	0	825229312	57	4741
2026-01-08 08:26:40.15	10.86	14.30	-42.8	-45.5	18.4	0.00e+00	0	42	0	827326464	57	4845
2026-01-08 08:26:41.16	10.69	14.24	-43.1	-45.8	18.1	0.00e+00	0	42	0	828375040	57	5018
2026-01-08 08:26:42.16	10.54	14.17	-43.2	-45.9	18.0	0.00e+00	0	42	0	830472192	57	5051
2026-01-08 08:26:43.17	10.38	14.10	-43.2	-45.8	18.1	0.00e+00	0	43	0	832569344	57	5030
2026-01-08 08:26:44.17	10.22	14.04	-43.4	-46.1	17.8	0.00e+00	0	43	0	834666496	57	5217
2026-01-08 08:26:45.17	10.06	13.97	-43.3	-46.1	17.8	0.00e+00	0	43	0	836763648	57	5183
2026-01-08 08:26:46.17	9.91	13.91	-43.5	-46.4	17.6	0.00e+00	0	42	0	838860800	57	5352
2026-01-08 08:26:47.17	9.75	13.84	-43.5	-46.3	17.6	0.00e+00	0	42	0	839909376	57	5333
2026-01-08 08:26:48.17	9.60	13.78	-43.5	-46.4	17.6	0.00e+00	0	42	0	842006528	57	5356
2026-01-08 08:26:49.17	9.44	13.71	-43.3	-46.2	17.7	0.00e+00	0	42	0	844103680	57	5238
2026-01-08 08:26:50.17	9.29	13.64	-43.3	-46.1	17.9	0.00e+00	0	43	0	846200832	57	5166
2026-01-08 08:26:51.17	9.14	13.58	-43.1	-45.8	18.1	0.00e+00	0	42	0	847249408	57	5005
2026-01-08 08:26:52.18	8.98	13.51	-43.0	-45.6	18.2	0.00e+00	0	42	0	849346560	57	4925
2026-01-08 08:26:53.18	8.83	13.44	-43.0	-45.6	18.2	0.00e+00	0	42	0	851443712	57	4901
2026-01-08 08:26:54.18	8.68	13.38	-42.9	-45.5	18.4	0.00e+00	0	42	0	853540864	57	4831
2026-01-08 08:26:55.18	8.53	13.31	-42.9	-45.6	18.3	0.00e+00	0	42	0	855638016	57	4885
2026-01-08 08:26:56.19	8.38	13.25	-43.1	-45.9	18.0	0.00e+00	0	42	0	856686592	57	5082
2026-01-08 08:26:57.19	8.23	13.18	-43.3	-46.3	17.7	0.00e+00	0	42	0	858783744	57	5289
2026-01-08 08:26:58.18	8.09	13.11	-43.3	-46.4	17.5	0.00e+00	0	43	0	860880896	57	5360
2026-01-08 08:26:59.18	7.94	13.05	-43.5	-46.6	17.4	0.00e+00	0	42	0	862978048	57	5486
2026-01-08 08:27:00.19	7.79	12.98	-43.7	-46.8	17.2	0.00e+00	0	42	0	865075200	57	5642
2026-01-08 08:27:01.18	7.65	12.92	-43.7	-46.8	17.2	0.00e+00	0	42	0	866123776	58	5297
2026-01-08 08:27:02.19	7.50	12.85	-43.9	-47.0	17.0	0.00e+00	0	42	0	868220928	58	5460
2026-01-08 08:27:03.19	7.36	12.78	-43.9	-47.1	16.9	0.00e+00	0	43	0	870318080	58	5472
2026-01-08 08:27:04.19	7.22	12.72	-43.9	-47.1	16.9	0.00e+00	0	42	0	872415232	58	5481
2026-01-08 08:27:05.19	7.07	12.65	-43.7	-46.9	17.1	0.00e+00	0	42	0	873463808	58	5353
2026-01-08 08:27:06.20	6.93	12.58	-43.8	-46.9	17.1	0.00e+00	0	42	0	875560960	58	5354
2026-01-08 08:27:07.20	6.79	12.52	-43.8	-46.9	17.1	0.00e+00	0	42	0	877658112	58	5349
2026-01-08 08:27:08.20	6.65	12.45	-43.6	-46.5	17.4	0.00e+00	0	42	0	879755264	58	5147
2026-01-08 08:27:09.21	6.51	12.39	-43.5	-46.3	17.6	0.00e+00	0	43	0	881852416	58	5035
2026-01-08 08:27:10.21	6.37	12.32	-43.2	-45.8	18.1	0.00e+00	0	42	0	882900992	58	4749
2026-01-08 08:27:11.21	6.23	12.25	-43.2	-45.8	18.1	0.00e+00	0	43	0	884998144	58	4735
2026-01-08 08:27:12.21	6.09	12.19	-42.9	-45.5	18.4	0.00e+00	0	42	0	887095296	57	4818
2026-01-08 08:27:13.21	5.95	12.12	-42.9	-45.6	18.2	0.00e+00	0	42	0	889192448	57	4888
2026-01-08 08:27:14.21	5.81	12.06	-42.8	-45.5	18.3	0.00e+00	0	42	0	891289600	57	4827
2026-01-08 08:27:15.21	5.68	11.99	-43.1	-45.9	18.0	0.00e+00	0	43	0	892338176	57	5051
2026-01-08 08:27:16.22	5.54	11.92	-43.2	-46.0	17.9	0.00e+00	0	42	0	894435328	57	5137
2026-01-08 08:27:17.22	5.40	11.86	-43.4	-46.4	17.5	0.00e+00	0	42	0	896532480	57	5364
2026-01-08 08:27:18.22	5.27	11.79	-43.8	-46.9	17.0	0.00e+00	0	42	0	898629632	58	5389
2026-01-08 08:27:19.22	5.14	11.72	-44.2	-47.6	16.4	0.00e+00	0	42	0	900726784	59	5474
2026-01-08 08:27:20.22	5.00	11.66	-44.5	-48.0	16.0	0.00e+00	0	42	0	901775360	59	5788
2026-01-08 08:27:21.22	4.87	11.59	-44.4	-47.8	16.2	0.00e+00	0	42	0	903872512	59	5638
2026-01-08 08:27:22.22	4.74	11.53	-44.7	-48.1	16.0	0.00e+00	0	43	0	905969664	59	5838
2026-01-08 08:27:23.22	4.61	11.46	-44.6	-48.0	16.1	0.00e+00	0	42	0	908066816	60	5413
2026-01-08 08:27:24.22	4.48	11.40	-44.5	-47.6	16.4	0.00e+00	0	42	0	910163968	60	5214
2026-01-08 08:27:25.22	4.34	11.33	-44.5	-47.7	16.4	0.00e+00	0	43	0	911212544	60	5234
2026-01-08 08:27:26.22	4.22	11.26	-44.4	-47.6	16.4	0.00e+00	0	42	0	913309696	60	5172
2026-01-08 08:27:27.23	4.08	11.20	-44.4	-47.5	16.5	0.00e+00	0	42	0	915406848	60	5142
2026-01-08 08:27:28.23	3.96	11.13	-44.2	-47.3	16.7	0.00e+00	0	42	0	917504000	60	5014
2026-01-08 08:27:29.23	3.83	11.07	-44.4	-47.6	16.5	0.00e+00	0	42	0	918552576	60	5177
2026-01-08 08:27:30.23	3.70	11.00	-44.0	-47.1	16.9	0.00e+00	0	42	0	920649728	60	4890
2026-01-08 08:27:31.23	3.57	10.94	-44.1	-47.1	16.9	0.00e+00	0	42	0	922746880	59	5183
2026-01-08 08:27:32.23	3.45	10.87	-44.1	-47.0	16.9	0.00e+00	0	42	0	924844032	59	5141
2026-01-08 08:27:33.23	3.32	10.80	-44.0	-46.9	17.0	0.00e+00	0	42	0	926941184	59	5062
2026-01-08 08:27:34.23	3.20	10.74	-44.2	-47.0	16.9	0.00e+00	0	42	0	927989760	59	5141
2026-01-08 08:27:35.24	3.07	10.67	-44.2	-47.1	16.8	0.00e+00	0	42	0	930086912	59	5180
2026-01-08 08:27:36.24	2.95	10.61	-44.1	-47.1	16.8	0.00e+00	0	42	0	932184064	59	5177
2026-01-08 08:27:37.24	2.82	10.54	-44.0	-47.1	16.8	0.00e+00	0	43	0	934281216	59	5191
2026-01-08 08:27:38.24	2.70	10.48	-44.0	-47.4	16.6	0.00e+00	0	42	0	936378368	59	5346
2026-01-08 08:27:39.24	2.58	10.41	-43.8	-47.2	16.7	0.00e+00	0	42	0	937426944	59	5279
2026-01-08 08:27:40.24	2.46	10.35	-43.8	-47.4	16.5	0.00e+00	0	42	0	939524096	59	5369
2026-01-08 08:27:41.24	2.34	10.28	-44.0	-47.6	16.4	0.00e+00	0	42	0	941621248	59	5486
2026-01-08 08:27:42.25	2.22	10.22	-44.3	-47.7	16.3	0.00e+00	0	42	0	943718400	59	5575
2026-01-08 08:27:43.25	2.10	10.15	-44.4	-47.8	16.2	0.00e+00	0	43	0	945815552	59	5633
2026-01-08 08:27:44.25	1.98	10.09	-44.5	-47.8	16.2	0.00e+00	0	42	0	946864128	60	5323
2026-01-08 08:27:45.25	1.86	10.02	-44.7	-48.2	15.8	0.00e+00	0	42	0	948961280	60	5578
2026-01-08 08:27:46.25	1.74	9.96	-44.4	-47.9	16.1	0.00e+00	0	42	0	951058432	60	5367
2026-01-08 08:27:47.25	1.62	9.89	-44.5	-48.1	16.0	0.00e+00	0	42	0	953155584	60	5501
2026-01-08 08:27:48.26	1.50	9.83	-44.3	-48.0	16.0	0.00e+00	0	43	0	955252736	60	5427
2026-01-08 08:27:49.26	1.39	9.76	-44.1	-47.8	16.2	0.00e+00	0	42	0	956301312	60	5294
2026-01-08 08:27:50.26	1.27	9.70	-44.2	-48.0	16.1	0.00e+00	0	42	0	958398464	60	5431
2026-01-08 08:27:51.26	1.15	9.63	-44.1	-48.0	16.0	0.00e+00	0	42	0	960495616	60	5461
2026-01-08 08:27:52.26	1.04	9.57	-44.1	-48.2	15.8	0.00e+00	0	42	0	962592768	60	5532
2026-01-08 08:27:53.27	0.92	9.50	-44.3	-48.4	15.6	0.00e+00	0	43	0	963641344	60	5719
2026-01-08 08:27:54.27	0.81	9.44	-44.4	-48.6	15.4	0.00e+00	0	42	0	965738496	60	5814
2026-01-08 08:27:55.27	0.70	9.37	-44.5	-48.9	15.2	0.00e+00	0	42	0	967835648	60	6019
2026-01-08 08:27:56.27	0.58	9.31	-44.7	-49.2	14.9	0.00e+00	0	42	0	969932800	60	6239
2026-01-08 08:27:57.27	0.47	9.24	-44.8	-49.4	14.7	0.00e+00	0	42	0	972029952	60	6377
2026-01-08 08:27:58.27	0.36	9.18	-44.9	-49.4	14.7	7.00e-07	0	42	0	973078528	60	6390
2026-01-08 08:27:59.27	0.25	9.12	-44.9	-49.4	14.6	0.00e+00	0	42	0	975175680	60	6403
2026-01-08 08:28:00.27	0.14	9.05	-44.8	-49.3	14.8	7.00e-07	0	42	0	977272832	60	6282
2026-01-08 08:28:01.27	0.03	8.99	-44.7	-49.0	15.1	0.00e+00	0	42	0	979369984	60	6095
2026-01-08 08:28:02.27	359.92	8.92	-49.3	-64.5	3.8	7.20e-01	0	42	104	980418560	69	21677
2026-01-08 08:28:03.28	359.80	8.86	-50.0	-65.6	3.8	1.49e+00	0	42	104	980418560	70	23309
2026-01-08 08:28:04.27	359.70	8.80	-50.0	-65.8	3.8	1.49e+00	0	42	104	980418560	70	23840
2026-01-08 08:28:05.28	359.59	8.73	-50.1	-65.8	3.8	1.49e+00	0	42	104	980418560	71	22501
2026-01-08 08:28:06.28	359.48	8.67	-50.3	-65.9	3.8	1.49e+00	0	42	104	980418560	71	22680
2026-01-08 08:28:07.28	359.37	8.60	-50.4	-66.0	3.8	1.49e+00	0	42	104	980418560	71	22782
2026-01-08 08:28:08.28	359.26	8.54	-50.6	-66.0	3.8	1.49e+00	0	42	104	980418560	71	22866
2026-01-08 08:28:09.29	359.16	8.48	-50.6	-66.0	3.8	1.49e+00	0	42	104	980418560	72	21537
2026-01-08 08:28:10.29	359.05	8.41	-50.4	-65.9	3.8	1.49e+00	0	42	104	980418560	72	21461
2026-01-08 08:28:11.29	358.95	8.35	-50.4	-66.0	3.8	1.49e+00	0	42	104	980418560	72	21529
2026-01-08 08:28:12.29	358.84	8.29	-50.7	-66.0	3.8	1.49e+00	0	43	104	980418560	72	21581
2026-01-08 08:28:13.29	358.74	8.22	-50.6	-66.0	3.8	1.49e+00	0	42	104	980418560	72	21512
2026-01-08 08:28:14.30	358.63	8.16	-50.7	-66.0	3.8	1.49e+00	0	42	104	980418560	72	21624
2026-01-08 08:28:15.30	358.53	8.10	-50.7	-66.0	3.8	1.49e+00	0	42	104	980418560	72	21640
2026-01-08 08:28:16.30	358.42	8.03	-50.7	-66.0	3.8	1.49e+00	0	42	104	980418560	72	21697
2026-01-08 08:28:17.31	358.32	7.97	-50.7	-66.0	3.8	1.49e+00	0	42	104	980418560	72	21650
2026-01-08 08:28:18.31	358.22	7.91	-50.5	-66.0	3.8	1.49e+00	0	42	104	980418560	72	21712
2026-01-08 08:28:19.31	358.12	7.84	-50.6	-66.0	3.8	1.49e+00	0	42	104	980418560	72	21671
2026-01-08 08:28:20.31	358.01	7.78	-50.8	-66.0	3.8	1.49e+00	0	42	104	980418560	72	21682
2026-01-08 08:28:21.31	357.91	7.72	-50.8	-66.0	3.8	1.49e+00	0	42	104	980418560	72	21702
2026-01-08 08:28:22.31	357.81	7.66	-50.8	-66.0	3.8	1.49e+00	0	42	104	980418560	72	21563
2026-01-08 08:28:23.32	357.71	7.59	-50.8	-66.0	3.8	1.49e+00	0	42	104	980418560	72	21521
2026-01-08 08:28:24.32	357.61	7.53	-50.7	-66.0	3.8	1.49e+00	0	42	104	980418560	72	21584
2026-01-08 08:28:25.32	357.51	7.47	-50.6	-66.0	3.8	1.49e+00	0	42	104	980418560	72	21551
2026-01-08 08:28:26.32	357.41	7.41	-50.6	-66.0	3.8	1.49e+00	0	42	104	980418560	72	21541
2026-01-08 08:28:27.32	357.32	7.34	-50.8	-66.0	3.8	1.49e+00	0	42	104	980418560	72	21560
2026-01-08 08:28:28.32	357.22	7.28	-50.6	-65.9	3.8	1.49e+00	0	42	104	980418560	72	21472
2026-01-08 08:28:29.33	357.12	7.22	-50.7	-66.0	3.8	1.49e+00	0	42	104	980418560	72	21580
2026-01-08 08:28:30.33	357.02	7.16	-50.4	-66.0	3.8	1.49e+00	0	42	104	980418560	72	21553
2026-01-08 08:28:31.33	356.93	7.09	-50.2	-65.9	3.8	1.49e+00	0	42	104	980418560	72	21474
2026-01-08 08:28:32.33	356.83	7.03	-50.2	-66.0	3.8	1.49e+00	0	42	104	980418560	72	21537
2026-01-08 08:28:33.33	356.73	6.97	-50.2	-65.9	3.8	1.49e+00	0	42	104	980418560	72	21442
2026-01-08 08:28:34.33	356.64	6.91	-
