passes_logs/2026/01/08/T1/T1__20260108_080258_KHAYYAM_rec.log

#Pass ID: 20260108_080258_KHAYYAM
#Satellite: KHAYYAM
#Configuration: KHAYYAM_480M
#almurnet v.1.7.20251203
#Start time: 2026-01-08 08:02:58

#Version: 2.0.20230620
#Station: T1
#Location: 37.570604 lon 55.790049 lat
#TLE: 1 53370U 22096A   26005.63766736  .00008095  00000+0  32978-3 0  9997
#TLE: 2 53370  97.3565 272.8146 0001238  87.7645 272.3734 15.24731212189819

#Time	Az	El	Level	Level2	SNR	BER	BlckErr	Temp	State	Recorded	gain1	gain2
2026-01-08 08:02:58.20	171.07	4.97	-53.1	-57.8	3.5	0.00e+00	0	46	0	0	77	25163
2026-01-08 08:02:59.19	171.09	5.05	-48.0	-53.2	3.7	0.00e+00	0	46	104	0	66	28047
2026-01-08 08:03:00.20	171.11	5.13	-48.1	-53.3	3.7	0.00e+00	0	46	104	0	67	26803
2026-01-08 08:03:01.20	171.13	5.21	-48.0	-53.4	3.7	0.00e+00	0	46	104	0	67	27039
2026-01-08 08:03:02.20	171.15	5.29	-48.2	-53.4	3.7	0.00e+00	0	47	104	0	67	27137
2026-01-08 08:03:03.21	171.18	5.38	-48.2	-53.5	3.7	0.00e+00	0	47	104	0	67	27293
2026-01-08 08:03:04.21	171.20	5.46	-48.1	-53.3	3.7	0.00e+00	0	47	104	0	67	26694
2026-01-08 08:03:05.21	171.22	5.54	-48.1	-53.3	3.7	0.00e+00	0	47	104	0	67	26725
2026-01-08 08:03:06.21	171.24	5.63	-48.1	-53.3	3.7	0.00e+00	0	47	104	0	67	26889
2026-01-08 08:03:07.22	171.27	5.71	-48.1	-53.3	3.7	0.00e+00	0	47	104	0	67	26769
2026-01-08 08:03:08.22	171.29	5.80	-48.1	-53.4	3.7	0.00e+00	0	47	104	0	67	26947
2026-01-08 08:03:09.22	171.31	5.88	-48.0	-53.3	3.7	0.00e+00	0	47	104	0	67	26668
2026-01-08 08:03:10.23	171.34	5.97	-48.1	-53.3	3.7	0.00e+00	0	47	104	0	67	26782
2026-01-08 08:03:11.23	171.36	6.05	-48.1	-53.3	3.7	0.00e+00	0	47	104	0	67	26775
2026-01-08 08:03:12.23	171.39	6.14	-48.0	-53.3	3.7	0.00e+00	0	47	104	0	67	26616
2026-01-08 08:03:13.24	171.41	6.23	-48.1	-53.3	3.7	0.00e+00	0	47	104	0	67	26855
2026-01-08 08:03:14.24	171.43	6.31	-48.0	-53.3	3.7	0.00e+00	0	48	104	0	67	26766
2026-01-08 08:03:15.24	171.46	6.40	-48.0	-53.2	3.7	0.00e+00	0	48	104	0	67	26387
2026-01-08 08:03:16.24	171.48	6.49	-48.1	-53.4	3.7	0.00e+00	0	48	104	0	67	26942
2026-01-08 08:03:17.25	171.51	6.58	-48.2	-53.4	3.7	0.00e+00	0	48	104	0	67	27163
2026-01-08 08:03:18.25	171.53	6.67	-48.2	-53.4	3.7	0.00e+00	0	48	104	0	67	26974
2026-01-08 08:03:19.25	171.56	6.76	-48.3	-53.5	3.7	0.00e+00	0	48	104	0	67	27501
2026-01-08 08:03:20.25	171.58	6.84	-48.1	-53.4	3.7	0.00e+00	0	48	104	0	67	26943
2026-01-08 08:03:21.26	171.61	6.93	-48.3	-53.5	3.7	0.00e+00	0	48	104	0	67	27289
2026-01-08 08:03:22.26	171.63	7.02	-48.1	-53.3	3.7	0.00e+00	0	48	104	0	67	26883
2026-01-08 08:03:23.27	171.66	7.12	-48.1	-53.4	3.7	0.00e+00	0	48	104	0	67	27037
2026-01-08 08:03:24.27	171.69	7.21	-48.0	-53.3	3.7	0.00e+00	0	48	104	0	67	26783
2026-01-08 08:03:25.27	171.71	7.30	-48.2	-53.4	3.7	0.00e+00	0	48	104	0	67	27036
2026-01-08 08:03:26.28	171.74	7.39	-48.0	-53.2	3.7	0.00e+00	0	49	104	0	67	26283
2026-01-08 08:03:27.28	171.76	7.48	-48.0	-53.2	3.7	0.00e+00	0	48	104	0	67	26341
2026-01-08 08:03:28.28	171.79	7.58	-47.9	-53.3	3.7	0.00e+00	0	49	104	0	67	26635
2026-01-08 08:03:29.29	171.82	7.67	-47.9	-53.2	3.7	0.00e+00	0	49	104	0	67	26500
2026-01-08 08:03:30.29	171.85	7.76	-48.0	-53.1	3.7	0.00e+00	0	49	104	0	67	26199
2026-01-08 08:03:31.29	171.87	7.86	-47.9	-53.1	3.7	0.00e+00	0	49	104	0	67	26198
2026-01-08 08:03:32.29	171.90	7.95	-48.0	-53.3	3.7	0.00e+00	0	49	104	0	67	26615
2026-01-08 08:03:33.30	171.93	8.05	-47.8	-53.0	3.6	0.00e+00	0	49	104	0	67	25828
2026-01-08 08:03:34.30	171.96	8.14	-48.0	-53.1	3.7	0.00e+00	0	49	104	0	67	26246
2026-01-08 08:03:35.30	171.98	8.24	-48.0	-53.3	3.7	0.00e+00	0	49	104	0	67	26645
2026-01-08 08:03:36.31	172.01	8.34	-47.9	-53.2	3.7	0.00e+00	0	49	104	0	67	26524
2026-01-08 08:03:37.31	172.04	8.44	-47.9	-53.2	3.7	0.00e+00	0	49	104	0	67	26337
2026-01-08 08:03:38.31	172.07	8.53	-47.9	-53.2	3.7	0.00e+00	0	49	104	0	67	26420
2026-01-08 08:03:39.31	172.10	8.63	-47.9	-53.2	3.7	0.00e+00	0	49	104	0	67	26369
2026-01-08 08:03:40.31	172.13	8.73	-47.9	-53.2	3.7	0.00e+00	0	49	104	0	67	26295
2026-01-08 08:03:41.32	172.16	8.83	-47.8	-53.1	3.7	0.00e+00	0	49	104	0	67	26148
2026-01-08 08:03:42.32	172.19	8.93	-48.0	-53.2	3.7	0.00e+00	0	49	104	0	67	26422
2026-01-08 08:03:43.32	172.22	9.03	-47.9	-53.2	3.7	0.00e+00	0	49	104	0	67	26336
2026-01-08 08:03:44.32	172.25	9.13	-47.8	-53.1	3.7	0.00e+00	0	49	104	0	67	26158
2026-01-08 08:03:45.32	172.28	9.23	-47.4	-52.6	3.7	0.00e+00	0	50	104	0	66	26071
2026-01-08 08:03:46.33	172.31	9.33	-47.8	-52.9	3.7	0.00e+00	0	49	104	0	66	27145
2026-01-08 08:03:47.33	172.34	9.44	-47.0	-52.4	3.7	0.00e+00	0	49	104	0	66	25584
2026-01-08 08:03:48.33	172.37	9.54	-47.4	-52.6	3.7	0.00e+00	0	49	104	0	66	26128
2026-01-08 08:03:49.33	172.40	9.64	-47.4	-52.8	3.7	0.00e+00	0	50	104	0	66	26632
2026-01-08 08:03:50.33	172.43	9.75	-47.2	-52.5	3.7	0.00e+00	0	49	104	0	66	25763
2026-01-08 08:03:51.34	172.46	9.85	-47.3	-52.5	3.7	0.00e+00	0	50	104	0	66	25955
2026-01-08 08:03:52.34	172.49	9.96	-47.3	-52.6	3.7	0.00e+00	0	50	104	0	66	25989
2026-01-08 08:03:53.34	172.53	10.07	-47.6	-52.7	3.7	0.00e+00	0	50	104	0	66	26452
2026-01-08 08:03:54.34	172.56	10.17	-48.5	-53.6	3.7	0.00e+00	0	50	104	0	67	27787
2026-01-08 08:03:55.34	172.59	10.28	-48.5	-53.6	3.7	0.00e+00	0	50	104	0	68	26128
2026-01-08 08:03:56.35	172.63	10.39	-48.1	-53.2	3.7	0.00e+00	0	50	104	0	67	26561
2026-01-08 08:03:57.35	172.66	10.50	-48.9	-54.0	3.7	0.00e+00	0	50	104	0	69	25905
2026-01-08 08:03:58.36	172.69	10.61	-47.1	-52.4	3.6	0.00e+00	0	50	104	0	66	25497
2026-01-08 08:03:59.36	172.73	10.72	-47.2	-52.4	3.7	0.00e+00	0	50	104	0	66	25386
2026-01-08 08:04:00.36	172.76	10.83	-47.7	-52.8	3.7	0.00e+00	0	50	104	0	66	26803
2026-01-08 08:04:01.36	172.80	10.94	-48.2	-53.3	3.7	0.00e+00	0	50	104	0	67	26719
2026-01-08 08:04:02.36	172.83	11.05	-48.5	-53.5	3.7	0.00e+00	0	50	104	0	67	27469
2026-01-08 08:04:03.37	172.87	11.16	-49.1	-54.2	3.7	0.00e+00	0	50	104	0	69	26577
2026-01-08 08:04:04.37	172.90	11.28	-49.3	-54.4	3.7	0.00e+00	0	50	104	0	69	27007
2026-01-08 08:04:05.37	172.94	11.39	-49.4	-54.6	3.7	0.00e+00	0	50	104	0	69	27752
2026-01-08 08:04:06.38	172.97	11.51	-49.5	-54.7	3.7	0.00e+00	0	50	104	0	69	27996
2026-01-08 08:04:07.38	173.01	11.62	-49.2	-54.3	3.7	0.00e+00	0	50	104	0	69	26778
2026-01-08 08:04:08.38	173.05	11.74	-49.3	-54.5	3.7	0.00e+00	0	50	104	0	69	27242
2026-01-08 08:04:09.38	173.08	11.85	-49.4	-54.5	3.7	0.00e+00	0	50	104	0	69	27408
2026-01-08 08:04:10.39	173.12	11.97	-49.3	-54.4	3.7	0.00e+00	0	50	104	0	69	26984
2026-01-08 08:04:11.39	173.16	12.09	-49.3	-54.5	3.7	0.00e+00	0	50	104	0	69	27408
2026-01-08 08:04:12.39	173.20	12.21	-49.2	-54.3	3.7	0.00e+00	0	50	104	0	69	26885
2026-01-08 08:04:13.38	173.23	12.33	-49.3	-54.5	3.7	0.00e+00	0	50	104	0	69	27207
2026-01-08 08:04:14.39	173.27	12.45	-49.1	-54.2	3.7	0.00e+00	0	50	104	0	69	26484
2026-01-08 08:04:15.39	173.31	12.57	-49.5	-54.6	3.7	0.00e+00	0	50	104	0	70	26075
2026-01-08 08:04:16.40	173.35	12.69	-49.2	-54.3	3.7	0.00e+00	0	50	104	0	70	25271
2026-01-08 08:04:17.40	173.39	12.82	-49.5	-54.5	3.7	0.00e+00	0	50	104	0	70	25791
2026-01-08 08:04:18.40	173.43	12.94	-49.7	-54.8	3.7	0.00e+00	0	50	104	0	70	26729
2026-01-08 08:04:19.40	173.47	13.06	-50.5	-55.5	3.7	0.00e+00	0	50	104	0	71	27296
2026-01-08 08:04:20.40	173.51	13.19	-51.5	-56.1	3.7	0.00e+00	0	50	104	0	73	26219
2026-01-08 08:04:21.40	173.55	13.32	-51.7	-56.5	3.7	0.00e+00	0	50	104	0	73	27217
2026-01-08 08:04:22.39	173.59	13.44	-52.5	-57.1	3.7	0.00e+00	0	51	104	0	75	26038
2026-01-08 08:04:23.38	173.64	13.57	-52.6	-57.2	3.7	0.00e+00	0	51	104	0	76	24880
2026-01-08 08:04:24.38	173.68	13.70	-51.1	-56.0	3.7	0.00e+00	0	50	104	0	73	25721
2026-01-08 08:04:25.38	173.72	13.83	-51.7	-56.4	3.7	0.00e+00	0	51	104	0	74	25670
2026-01-08 08:04:26.37	173.76	13.96	-52.1	-56.8	3.7	0.00e+00	0	51	104	0	74	26671
2026-01-08 08:04:27.37	173.81	14.09	-52.3	-56.9	3.7	0.00e+00	0	51	104	0	75	25511
2026-01-08 08:04:28.37	173.85	14.22	-52.4	-57.0	3.7	0.00e+00	0	51	104	0	75	25892
2026-01-08 08:04:29.36	173.90	14.35	-52.7	-57.3	3.7	0.00e+00	0	51	104	0	75	26669
2026-01-08 08:04:30.36	173.94	14.49	-53.2	-57.7	3.7	0.00e+00	0	51	104	0	77	25087
2026-01-08 08:04:31.35	173.99	14.62	-52.8	-57.4	3.7	0.00e+00	0	51	104	0	77	24005
2026-01-08 08:04:32.35	174.03	14.76	-53.1	-57.6	3.7	0.00e+00	0	51	104	0	77	24636
2026-01-08 08:04:33.35	174.08	14.90	-52.7	-57.3	3.7	0.00e+00	0	51	104	0	77	23957
2026-01-08 08:04:34.35	174.12	15.03	-52.5	-57.2	3.7	0.00e+00	0	51	104	0	76	24977
2026-01-08 08:04:35.35	174.17	15.17	-52.8	-57.4	3.7	0.00e+00	0	51	104	0	77	24081
2026-01-08 08:04:36.35	174.22	15.31	-52.2	-56.7	3.7	0.00e+00	0	51	104	0	76	23662
2026-01-08 08:04:37.35	174.27	15.46	-52.2	-56.9	3.7	0.00e+00	0	51	104	0	76	24161
2026-01-08 08:04:38.34	174.32	15.60	-52.2	-56.9	3.7	0.00e+00	0	51	104	0	76	23971
2026-01-08 08:04:39.34	174.37	15.74	-52.1	-56.7	3.7	0.00e+00	0	51	104	0	76	23488
2026-01-08 08:04:40.34	174.42	15.89	-52.2	-56.7	3.7	0.00e+00	0	51	104	0	76	23493
2026-01-08 08:04:41.34	174.47	16.03	-52.3	-56.7	3.7	0.00e+00	0	50	104	0	76	23539
2026-01-08 08:04:42.34	174.52	16.18	-52.4	-56.8	3.7	0.00e+00	0	51	104	0	76	23749
2026-01-08 08:04:43.34	174.57	16.33	-52.5	-57.1	3.7	0.00e+00	0	50	104	0	76	24569
2026-01-08 08:04:44.34	174.62	16.48	-52.2	-56.9	3.7	0.00e+00	0	51	104	0	76	23968
2026-01-08 08:04:45.34	174.67	16.63	-52.2	-56.7	3.7	0.00e+00	0	51	104	0	76	23496
2026-01-08 08:04:46.34	174.73	16.78	-52.7	-57.5	3.7	0.00e+00	0	51	104	0	76	25794
2026-01-08 08:04:47.33	174.78	16.93	-52.6	-57.0	3.7	0.00e+00	0	51	104	0	76	24258
2026-01-08 08:04:48.33	174.83	17.08	-52.5	-56.9	3.7	0.00e+00	0	51	104	0	76	24206
2026-01-08 08:04:49.33	174.89	17.24	-52.4	-56.9	3.7	0.00e+00	0	51	104	0	76	23990
2026-01-08 08:04:50.33	174.94	17.40	-52.4	-56.9	3.7	0.00e+00	0	51	104	0	76	24064
2026-01-08 08:04:51.33	175.00	17.55	-52.6	-57.4	3.7	0.00e+00	0	51	104	0	76	25404
2026-01-08 08:04:52.32	175.06	17.71	-52.5	-57.0	3.7	0.00e+00	0	51	104	0	76	24418
2026-01-08 08:04:53.32	175.11	17.87	-52.9	-57.6	3.7	0.00e+00	0	51	104	0	76	26016
2026-01-08 08:04:54.32	175.17	18.03	-52.8	-57.2	3.7	0.00e+00	0	51	104	0	76	24932
2026-01-08 08:04:55.32	175.23	18.20	-52.5	-57.1	3.7	0.00e+00	0	51	104	0	76	24711
2026-01-08 08:04:56.32	175.29	18.36	-52.8	-57.3	3.7	0.00e+00	0	51	104	0	76	25109
2026-01-08 08:04:57.32	175.35	18.53	-52.8	-57.2	3.7	0.00e+00	0	51	104	0	76	24838
2026-01-08 08:04:58.32	175.41	18.70	-52.7	-57.0	3.7	0.00e+00	0	51	104	0	76	24507
2026-01-08 08:04:59.31	175.47	18.86	-52.7	-57.1	3.7	0.00e+00	0	51	104	0	76	24601
2026-01-08 08:05:00.31	175.54	19.03	-52.5	-56.8	3.7	0.00e+00	0	51	104	0	76	23953
2026-01-08 08:05:01.31	175.60	19.20	-52.7	-57.1	3.7	0.00e+00	0	51	104	0	76	24804
2026-01-08 08:05:02.30	175.66	19.38	-53.0	-57.5	3.7	0.00e+00	0	51	104	0	76	25709
2026-01-08 08:05:03.30	175.73	19.55	-52.8	-57.0	3.7	0.00e+00	0	51	104	0	76	24509
2026-01-08 08:05:04.30	175.80	19.73	-52.9	-57.4	3.7	0.00e+00	0	51	104	0	76	25385
2026-01-08 08:05:05.30	175.86	19.91	-52.4	-56.3	3.7	0.00e+00	0	51	104	0	76	22527
2026-01-08 08:05:06.29	175.93	20.08	-52.0	-55.8	3.7	0.00e+00	0	51	104	0	76	21251
2026-01-08 08:05:07.30	176.00	20.27	-51.9	-55.5	3.7	0.00e+00	0	51	104	0	75	21685
2026-01-08 08:05:08.29	176.07	20.45	-51.6	-54.9	3.7	0.00e+00	0	51	104	0	75	20256
2026-01-08 08:05:09.29	176.14	20.63	-52.3	-56.7	3.7	0.00e+00	0	51	104	0	75	25005
2026-01-08 08:05:10.29	176.21	20.82	-52.4	-56.5	3.7	0.00e+00	0	51	104	0	75	24295
2026-01-08 08:05:11.28	176.28	21.00	-52.8	-57.2	3.7	0.00e+00	0	51	104	0	76	25037
2026-01-08 08:05:12.28	176.35	21.19	-52.5	-56.6	3.7	0.00e+00	0	51	104	0	76	23181
2026-01-08 08:05:13.28	176.43	21.39	-51.4	-54.9	3.7	0.00e+00	0	51	104	0	74	21596
2026-01-08 08:05:14.28	176.50	21.58	-51.2	-54.6	3.7	0.00e+00	0	51	104	0	74	20791
2026-01-08 08:05:15.28	176.58	21.77	-51.3	-54.6	3.7	0.00e+00	0	51	104	0	74	20828
2026-01-08 08:05:16.28	176.65	21.97	-51.4	-54.6	3.7	0.00e+00	0	51	104	0	74	20858
2026-01-08 08:05:17.28	176.73	22.17	-51.4	-54.4	3.7	0.00e+00	0	51	104	0	74	20389
2026-01-08 08:05:18.27	176.81	22.37	-50.9	-53.8	3.7	0.00e+00	0	51	104	0	73	20135
2026-01-08 08:05:19.27	176.89	22.57	-52.8	-57.5	3.7	0.00e+00	0	51	104	0	76	25680
2026-01-08 08:05:20.27	176.97	22.78	-52.8	-57.2	3.7	0.00e+00	0	51	104	0	76	24890
2026-01-08 08:05:21.27	177.06	22.98	-52.2	-56.3	3.7	0.00e+00	0	51	104	0	75	23953
2026-01-08 08:05:22.27	177.14	23.19	-53.1	-57.7	3.7	0.00e+00	0	51	104	0	76	26494
2026-01-08 08:05:23.27	177.23	23.40	-52.3	-56.1	3.7	0.00e+00	0	51	104	0	76	21870
2026-01-08 08:05:24.27	177.31	23.61	-51.8	-55.4	3.7	0.00e+00	0	51	104	0	75	21379
2026-01-08 08:05:25.27	177.40	23.83	-51.4	-54.6	3.7	0.00e+00	0	51	104	0	74	20709
2026-01-08 08:05:26.27	177.49	24.05	-51.4	-54.3	3.8	0.00e+00	0	51	104	0	74	20113
2026-01-08 08:05:27.27	177.58	24.27	-52.8	-56.5	3.7	0.00e+00	0	51	104	0	77	21722
2026-01-08 08:05:28.26	177.67	24.48	-52.6	-56.5	3.7	0.00e+00	0	51	104	0	75	24279
2026-01-08 08:05:29.26	177.76	24.71	-53.0	-57.7	3.7	0.00e+00	0	51	104	0	76	26385
2026-01-08 08:05:30.26	177.86	24.93	-53.0	-57.1	3.7	0.00e+00	0	51	104	0	76	24567
2026-01-08 08:05:31.26	177.95	25.16	-51.8	-54.9	3.7	0.00e+00	0	51	104	0	75	20285
2026-01-08 08:05:32.26	178.05	25.39	-51.8	-54.9	3.7	0.00e+00	0	51	104	0	75	20255
2026-01-08 08:05:33.26	178.15	25.63	-51.8	-54.9	3.7	0.00e+00	0	51	104	0	75	20382
2026-01-08 08:05:34.25	178.25	25.86	-51.5	-54.5	3.7	0.00e+00	0	51	104	0	75	19351
2026-01-08 08:05:35.25	178.35	26.10	-51.4	-54.3	3.7	0.00e+00	0	51	104	0	74	20113
2026-01-08 08:05:36.25	178.45	26.34	-51.6	-54.5	3.7	0.00e+00	0	51	104	0	74	20446
2026-01-08 08:05:37.25	178.56	26.58	-53.0	-56.9	3.7	0.00e+00	0	51	104	0	76	24149
2026-01-08 08:05:38.25	178.67	26.83	-53.3	-57.8	3.7	0.00e+00	0	51	104	0	77	25304
2026-01-08 08:05:39.25	178.78	27.08	-53.4	-57.6	3.7	0.00e+00	0	51	104	0	77	24594
2026-01-08 08:05:40.25	178.89	27.33	-52.8	-56.2	3.7	0.00e+00	0	51	104	0	77	20988
2026-01-08 08:05:41.25	179.00	27.58	-52.7	-56.2	3.7	0.00e+00	0	51	104	0	77	20995
2026-01-08 08:05:42.25	179.12	27.84	-52.4	-55.9	3.7	0.00e+00	0	51	104	0	76	21448
2026-01-08 08:05:43.25	179.23	28.10	-52.4	-55.9	3.7	0.00e+00	0	51	104	0	76	21519
2026-01-08 08:05:44.25	179.35	28.36	-52.6	-56.0	3.7	0.00e+00	0	51	104	0	76	21816
2026-01-08 08:05:45.24	179.47	28.62	-52.9	-56.5	3.7	0.00e+00	0	51	104	0	77	21828
2026-01-08 08:05:46.25	179.59	28.89	-53.3	-57.4	3.7	0.00e+00	0	51	104	0	77	24166
2026-01-08 08:05:47.25	179.72	29.16	-53.4	-57.8	3.7	0.00e+00	0	51	104	0	77	25100
2026-01-08 08:05:48.24	179.85	29.43	-53.5	-57.8	3.7	0.00e+00	0	51	104	0	77	25305
2026-01-08 08:05:49.24	179.98	29.71	-53.4	-57.9	3.7	0.00e+00	0	51	104	0	77	25559
2026-01-08 08:05:50.24	180.11	29.99	-53.4	-57.8	3.7	0.00e+00	0	51	104	0	77	25319
2026-01-08 08:05:51.24	180.24	30.27	-53.5	-57.8	3.7	0.00e+00	0	51	104	0	77	25289
2026-01-08 08:05:52.24	180.38	30.56	-53.3	-57.7	3.7	0.00e+00	0	51	104	0	77	24997
2026-01-08 08:05:53.23	180.52	30.85	-53.4	-57.9	3.7	0.00e+00	0	51	104	0	77	25547
2026-01-08 08:05:54.23	180.66	31.14	-53.0	-57.6	3.7	0.00e+00	0	51	104	0	77	24742
2026-01-08 08:05:55.23	180.81	31.44	-53.4	-57.9	3.7	0.00e+00	0	51	104	0	77	25594
2026-01-08 08:05:56.23	180.95	31.74	-53.1	-57.5	3.7	0.00e+00	0	51	104	0	77	24328
2026-01-08 08:05:57.23	181.10	32.04	-53.2	-57.4	3.7	0.00e+00	0	51	104	0	77	24115
2026-01-08 08:05:58.23	181.26	32.35	-52.4	-56.1	3.7	0.00e+00	0	51	104	0	76	21990
2026-01-08 08:05:59.23	181.42	32.66	-53.5	-57.9	3.7	0.00e+00	0	51	104	0	77	25670
2026-01-08 08:06:00.22	181.57	32.97	-53.1	-57.1	3.7	0.00e+00	0	51	104	0	77	23387
2026-01-08 08:06:01.22	181.74	33.28	-52.2	-55.3	3.7	0.00e+00	0	51	104	0	75	21208
2026-01-08 08:06:02.22	181.90	33.61	-52.0	-55.0	3.7	0.00e+00	0	51	104	0	75	20489
2026-01-08 08:06:03.22	182.07	33.93	-51.9	-54.9	3.7	0.00e+00	0	51	104	0	75	20172
2026-01-08 08:06:04.22	182.25	34.26	-51.8	-54.7	3.7	0.00e+00	0	51	104	0	75	19876
2026-01-08 08:06:05.21	182.42	34.59	-51.6	-54.4	3.8	0.00e+00	0	51	104	0	75	19110
2026-01-08 08:06:06.21	182.61	34.92	-51.5	-54.4	3.7	0.00e+00	0	51	104	0	74	20222
2026-01-08 08:06:07.21	182.79	35.26	-52.8	-56.4	3.7	0.00e+00	0	51	104	0	76	22694
2026-01-08 08:06:08.21	182.98	35.61	-53.7	-58.1	3.7	0.00e+00	0	51	104	0	78	24741
2026-01-08 08:06:09.21	183.17	35.96	-53.2	-57.3	3.7	0.00e+00	0	51	104	0	78	22476
2026-01-08 08:06:10.20	183.37	36.31	-52.3	-55.8	3.7	0.00e+00	0	51	104	0	76	21222
2026-01-08 08:06:11.20	183.57	36.66	-52.2	-55.8	3.7	0.00e+00	0	51	104	0	76	21251
2026-01-08 08:06:12.20	183.78	37.02	-52.2	-55.8	3.7	0.00e+00	0	51	104	0	76	21128
2026-01-08 08:06:13.19	183.99	37.38	-52.4	-56.0	3.7	0.00e+00	0	51	104	0	76	21693
2026-01-08 08:06:14.19	184.21	37.75	-52.6	-56.2	3.7	0.00e+00	0	51	104	0	76	22320
2026-01-08 08:06:15.19	184.43	38.13	-52.7	-56.5	3.7	0.00e+00	0	51	104	0	76	23095
2026-01-08 08:06:16.19	184.66	38.50	-53.1	-57.4	3.7	0.00e+00	0	51	104	0	76	25658
2026-01-08 08:06:17.19	184.89	38.89	-53.2	-58.0	3.7	0.00e+00	0	51	104	0	77	25682
2026-01-08 08:06:18.18	185.13	39.27	-53.6	-58.1	3.7	0.00e+00	0	51	104	0	77	25982
2026-01-08 08:06:19.18	185.37	39.66	-53.7	-58.2	3.7	0.00e+00	0	51	104	0	78	25091
2026-01-08 08:06:20.17	185.62	40.05	-53.6	-58.0	3.7	0.00e+00	0	51	104	0	78	24265
2026-01-08 08:06:21.17	185.88	40.45	-53.7	-58.2	3.7	0.00e+00	0	51	104	0	78	25041
2026-01-08 08:06:22.17	186.14	40.86	-53.8	-58.3	3.7	0.00e+00	0	51	104	0	78	25107
2026-01-08 08:06:23.16	186.41	41.26	-53.8	-58.1	3.7	0.00e+00	0	51	104	0	78	24795
2026-01-08 08:06:24.17	186.69	41.68	-53.5	-57.5	3.7	0.00e+00	0	51	104	0	78	22969
2026-01-08 08:06:25.17	186.98	42.10	-53.9	-58.4	3.7	0.00e+00	0	51	104	0	78	25400
2026-01-08 08:06:26.16	187.27	42.51	-53.6	-57.9	3.7	0.00e+00	0	51	104	0	78	23967
2026-01-08 08:06:27.16	187.57	42.94	-52.8	-56.1	3.7	0.00e+00	0	51	104	0	77	20677
2026-01-08 08:06:28.16	187.88	43.37	-52.4	-55.5	3.7	0.00e+00	0	51	104	0	76	20505
2026-01-08 08:06:29.15	188.19	43.81	-52.3	-55.4	3.7	0.00e+00	0	51	104	0	76	20176
2026-01-08 08:06:30.15	188.52	44.25	-51.9	-54.8	3.8	0.00e+00	0	51	104	0	75	19935
2026-01-08 08:06:31.15	188.86	44.69	-51.6	-54.3	3.8	0.00e+00	0	52	104	0	75	18823
2026-01-08 08:06:32.15	189.21	45.15	-51.3	-53.8	3.8	0.00e+00	0	51	104	0	74	19019
2026-01-08 08:06:33.14	189.56	45.60	-51.7	-54.5	3.8	0.00e+00	0	51	104	0	74	20428
2026-01-08 08:06:34.14	189.93	46.06	-53.9	-58.2	3.7	0.00e+00	0	51	104	0	78	25040
2026-01-08 08:06:35.14	190.31	46.52	-53.2	-56.9	3.7	0.00e+00	0	51	104	0	78	21371
2026-01-08 08:06:36.14	190.70	46.99	-51.1	-53.8	3.8	0.00e+00	0	51	104	0	73	19935
2026-01-08 08:06:37.13	191.10	47.46	-51.2	-53.8	3.8	0.00e+00	0	51	104	0	73	20065
2026-01-08 08:06:38.13	191.51	47.94	-53.9	-58.2	3.7	0.00e+00	0	51	104	0	78	25002
2026-01-08 08:06:39.12	191.94	48.41	-53.9	-58.3	3.7	0.00e+00	0	51	104	0	78	25198
2026-01-08 08:06:40.12	192.38	48.90	-53.9	-58.4	3.7	0.00e+00	0	51	104	0	78	25414
2026-01-08 08:06:41.12	192.84	49.39	-54.0	-58.5	3.7	0.00e+00	0	51	104	0	78	25724
2026-01-08 08:06:42.12	193.31	49.89	-54.0	-58.4	3.7	0.00e+00	0	51	104	0	78	25549
2026-01-08 08:06:43.11	193.79	50.38	-53.9	-58.3	3.7	0.00e+00	0	51	104	0	78	25343
2026-01-08 08:06:44.11	194.30	50.88	-54.0	-58.3	3.7	0.00e+00	0	51	104	0	78	25370
2026-01-08 08:06:45.11	194.82	51.39	-53.8	-58.3	3.7	0.00e+00	0	51	104	0	78	25336
2026-01-08 08:06:46.11	195.36	51.90	-53.2	-58.0	3.7	0.00e+00	0	51	104	0	78	24450
2026-01-08 08:06:47.11	195.92	52.41	-53.4	-58.1	3.7	0.00e+00	0	52	104	0	78	24619
2026-01-08 08:06:48.10	196.50	52.92	-53.4	-58.1	3.7	0.00e+00	0	52	104	0	78	24611
2026-01-08 08:06:49.10	197.10	53.44	-54.0	-58.4	3.7	0.00e+00	0	51	104	0	78	25419
2026-01-08 08:06:50.10	197.72	53.97	-54.0	-58.4	3.7	0.00e+00	0	52	104	0	78	25467
2026-01-08 08:06:51.10	198.37	54.49	-54.0	-58.4	3.7	0.00e+00	0	51	104	0	78	25391
2026-01-08 08:06:52.10	199.04	55.02	-53.9	-58.3	3.7	0.00e+00	0	52	104	0	78	25198
2026-01-08 08:06:53.09	199.73	55.54	-53.8	-58.1	3.7	0.00e+00	0	52	104	0	78	24693
2026-01-08 08:06:54.09	200.46	56.07	-53.8	-58.1	3.7	0.00e+00	0	52	104	0	78	24624
2026-01-08 08:06:55.09	201.21	56.60	-53.8	-58.2	3.7	0.00e+00	0	51	104	0	78	24838
2026-01-08 08:06:56.09	201.99	57.13	-53.6	-58.0	3.7	0.00e+00	0	51	104	0	78	24514
2026-01-08 08:06:57.09	202.81	57.66	-53.9	-58.4	3.7	0.00e+00	0	52	104	0	78	25394
2026-01-08 08:06:58.09	203.65	58.20	-54.0	-58.3	3.7	0.00e+00	0	51	104	0	78	25348
2026-01-08 08:06:59.08	204.53	58.72	-53.9	-58.3	3.7	0.00e+00	0	52	104	0	78	25251
2026-01-08 08:07:00.08	205.44	59.25	-54.1	-58.4	3.7	0.00e+00	0	51	104	0	78	25673
2026-01-08 08:07:01.08	206.40	59.78	-53.7	-58.1	3.7	0.00e+00	0	52	104	0	78	24648
2026-01-08 08:07:02.08	207.39	60.31	-53.5	-57.9	3.7	0.00e+00	0	51	104	0	78	24241
2026-01-08 08:07:03.07	208.42	60.82	-53.4	-57.9	3.7	0.00e+00	0	51	104	0	78	24036
2026-01-08 08:07:04.07	209.50	61.34	-53.8	-58.2	3.7	0.00e+00	0	52	104	0	78	24887
2026-01-08 08:07:05.07	210.63	61.85	-53.8	-58.3	3.7	0.00e+00	0	52	104	0	78	25295
2026-01-08 08:07:06.07	211.81	62.36	-53.5	-58.1	3.7	0.00e+00	0	51	104	0	78	24699
2026-01-08 08:07:07.07	213.03	62.86	-53.4	-58.1	3.7	0.00e+00	0	51	104	0	78	24638
2026-01-08 08:07:08.07	214.31	63.36	-54.0	-58.4	3.7	0.00e+00	0	52	104	0	78	25485
2026-01-08 08:07:09.07	215.64	63.85	-53.9	-58.3	3.7	0.00e+00	0	52	104	0	78	25229
2026-01-08 08:07:10.07	217.03	64.32	-54.1	-58.5	3.7	0.00e+00	0	51	104	0	78	25727
2026-01-08 08:07:11.06	218.47	64.78	-54.1	-58.4	3.7	0.00e+00	0	51	104	0	78	25626
2026-01-08 08:07:12.06	219.97	65.24	-54.1	-58.5	3.7	0.00e+00	0	52	104	0	78	25891
2026-01-08 08:07:13.06	221.54	65.68	-53.8	-58.3	3.7	0.00e+00	0	51	104	0	78	25283
2026-01-08 08:07:14.06	223.18	66.10	-53.8	-58.3	3.7	0.00e+00	0	51	104	0	78	25298
2026-01-08 08:07:15.06	224.88	66.52	-53.9	-58.3	3.7	0.00e+00	0	51	104	0	78	25366
2026-01-08 08:07:16.05	226.62	66.91	-53.5	-58.2	3.7	0.00e+00	0	51	104	0	78	24992
2026-01-08 08:07:17.05	228.45	67.28	-53.9	-58.4	3.7	0.00e+00	0	51	104	0	78	25435
2026-01-08 08:07:18.05	230.34	67.64	-53.8	-58.3	3.7	0.00e+00	0	51	104	0	78	25337
2026-01-08 08:07:19.05	232.30	67.97	-53.8	-58.3	3.7	0.00e+00	0	52	104	0	78	25190
2026-01-08 08:07:20.05	234.33	68.28	-54.1	-58.5	3.7	0.00e+00	0	51	104	0	78	25923
2026-01-08 08:07:21.05	236.41	68.57	-53.9	-58.4	3.7	0.00e+00	0	52	104	0	78	25655
2026-01-08 08:07:22.05	238.55	68.83	-54.1	-58.6	3.7	0.00e+00	0	51	104	0	78	26048
2026-01-08 08:07:23.05	240.75	69.06	-54.1	-58.6	3.7	0.00e+00	0	51	104	0	78	25999
2026-01-08 08:07:24.05	243.00	69.27	-53.9	-58.5	3.7	0.00e+00	0	52	104	0	78	25749
2026-01-08 08:07:25.05	245.29	69.44	-53.7	-58.3	3.7	0.00e+00	0	52	104	0	78	25190
2026-01-08 08:07:26.05	247.62	69.59	-53.8	-58.4	3.7	0.00e+00	0	52	104	0	78	25497
2026-01-08 08:07:27.05	249.98	69.70	-53.9	-58.4	3.7	0.00e+00	0	52	104	0	78	25548
2026-01-08 08:07:28.04	252.35	69.78	-53.6	-58.3	3.7	0.00e+00	0	51	104	0	78	25242
2026-01-08 08:07:29.04	254.75	69.83	-53.6	-58.1	3.7	0.00e+00	0	51	104	0	78	24802
2026-01-08 08:07:30.04	257.16	69.85	-53.7	-58.3	3.7	0.00e+00	0	52	104	0	78	25095
2026-01-08 08:07:31.03	259.55	69.83	-53.7	-58.2	3.7	0.00e+00	0	52	104	0	78	25089
2026-01-08 08:07:32.03	261.95	69.78	-52.9	-57.9	3.7	0.00e+00	0	51	104	0	77	25603
2026-01-08 08:07:33.03	264.34	69.70	-53.7	-58.3	3.7	0.00e+00	0	52	104	0	78	25141
2026-01-08 08:07:34.03	266.70	69.58	-53.8	-58.2	3.7	0.00e+00	0	51	104	0	78	25038
2026-01-08 08:07:35.03	269.03	69.44	-53.8	-58.3	3.7	0.00e+00	0	51	104	0	78	25112
2026-01-08 08:07:36.03	271.32	69.26	-53.7	-58.1	3.7	0.00e+00	0	51	104	0	78	24578
2026-01-08 08:07:37.02	273.54	69.06	-53.7	-58.2	3.7	0.00e+00	0	52	104	0	78	24930
2026-01-08 08:07:38.02	275.73	68.82	-53.5	-58.0	3.7	0.00e+00	0	52	104	0	78	24362
2026-01-08 08:07:39.02	277.87	68.56	-53.5	-58.0	3.7	0.00e+00	0	52	104	0	78	24388
2026-01-08 08:07:40.02	279.95	68.28	-53.7	-58.0	3.7	0.00e+00	0	52	104	0	78	24484
2026-01-08 08:07:41.01	281.95	67.97	-53.7	-58.1	3.7	0.00e+00	0	51	104	0	78	24585
2026-01-08 08:07:42.01	283.91	67.64	-53.8	-58.0	3.7	0.00e+00	0	51	104	0	78	24337
2026-01-08 08:07:43.01	285.80	67.28	-53.9	-58.0	3.7	0.00e+00	0	52	104	0	78	24439
2026-01-08 08:07:44.00	287.61	66.91	-53.3	-57.7	3.7	0.00e+00	0	51	104	0	78	23421
2026-01-08 08:07:45.00	289.37	66.52	-53.4	-57.8	3.7	0.00e+00	0	52	104	0	78	23924
2026-01-08 08:07:45.99	291.05	66.11	-53.3	-57.8	3.7	0.00e+00	0	52	104	0	78	23834
2026-01-08 08:07:46.99	292.68	65.69	-53.3	-57.8	3.7	0.00e+00	0	52	104	0	78	23844
2026-01-08 08:07:47.99	294.25	65.25	-53.6	-57.9	3.7	0.00e+00	0	52	104	0	78	24204
2026-01-08 08:07:48.99	295.76	64.79	-53.7	-58.0	3.7	0.00e+00	0	52	104	0	78	24266
2026-01-08 08:07:49.99	297.20	64.33	-53.6	-58.1	3.7	0.00e+00	0	52	104	0	78	24649
2026-01-08 08:07:50.99	298.59	63.85	-53.6	-58.0	3.7	0.00e+00	0	52	104	0	78	24503
2026-01-08 08:07:51.99	299.92	63.37	-53.9	-58.2	3.7	0.00e+00	0	52	104	0	78	24895
2026-01-08 08:07:52.99	301.20	62.88	-53.7	-58.3	3.7	0.00e+00	0	52	104	0	78	25125
2026-01-08 08:07:53.99	302.42	62.38	-53.9	-58.4	3.7	0.00e+00	0	52	104	0	78	25473
2026-01-08 08:07:54.99	303.59	61.87	-53.9	-58.3	3.7	0.00e+00	0	52	104	0	78	25309
2026-01-08 08:07:55.99	304.72	61.36	-54.0	-58.4	3.7	0.00e+00	0	52	104	0	78	25525
2026-01-08 08:07:56.98	305.79	60.84	-53.9	-58.4	3.7	0.00e+00	0	52	104	0	78	25513
2026-01-08 08:07:57.98	306.83	60.32	-53.7	-58.3	3.7	0.00e+00	0	52	104	0	78	25352
2026-01-08 08:07:58.98	307.82	59.80	-53.8	-58.3	3.7	0.00e+00	0	52	104	0	78	25288
2026-01-08 08:07:59.98	308.77	59.27	-53.8	-58.4	3.7	0.00e+00	0	52	104	0	78	25397
2026-01-08 08:08:00.98	309.69	58.75	-53.9	-58.3	3.7	0.00e+00	0	52	104	0	78	25104
2026-01-08 08:08:01.98	310.57	58.22	-53.2	-57.8	3.7	0.00e+00	0	51	104	0	78	23697
2026-01-08 08:08:02.97	311.41	57.69	-53.4	-57.9	3.7	0.00e+00	0	52	104	0	78	24054
2026-01-08 08:08:03.97	312.22	57.16	-53.3	-57.8	3.7	0.00e+00	0	52	104	0	78	23873
2026-01-08 08:08:04.97	313.00	56.63	-53.7	-57.9	3.7	0.00e+00	0	52	104	0	78	24014
2026-01-08 08:08:05.97	313.75	56.10	-53.3	-57.5	3.7	0.00e+00	0	51	104	0	78	23141
2026-01-08 08:08:06.96	314.47	55.58	-53.4	-57.6	3.7	0.00e+00	0	52	104	0	78	23282
2026-01-08 08:08:07.96	315.17	55.05	-53.4	-57.6	3.7	0.00e+00	0	51	104	0	78	23411
2026-01-08 08:08:08.96	315.84	54.53	-53.6	-58.0	3.7	0.00e+00	0	52	104	0	78	24418
2026-01-08 08:08:09.95	316.48	54.01	-53.5	-57.9	3.7	0.00e+00	0	52	104	0	78	24033
2026-01-08 08:08:10.95	317.10	53.49	-53.7	-58.0	3.7	0.00e+00	0	52	104	0	78	24521
2026-01-08 08:08:11.95	317.70	52.97	-53.2	-57.6	3.7	0.00e+00	0	52	104	0	78	23395
2026-01-08 08:08:12.94	318.28	52.47	-53.6	-58.1	3.7	0.00e+00	0	52	104	0	78	24608
2026-01-08 08:08:13.94	318.84	51.95	-53.1	-57.8	3.7	0.00e+00	0	52	104	0	78	23868
2026-01-08 08:08:14.93	319.37	51.45	-53.2	-57.8	3.7	0.00e+00	0	51	104	0	78	23954
2026-01-08 08:08:15.93	319.89	50.95	-53.3	-57.9	3.7	0.00e+00	0	51	104	0	78	24175
2026-01-08 08:08:16.93	320.40	50.45	-53.4	-58.0	3.7	0.00e+00	0	51	104	0	78	24307
2026-01-08 08:08:17.92	320.88	49.95	-53.2	-57.8	3.7	0.00e+00	0	52	104	0	78	23881
2026-01-08 08:08:18.92	321.35	49.46	-53.1	-57.7	3.7	0.00e+00	0	52	104	0	78	23641
2026-01-08 08:08:19.92	321.81	48.97	-53.6	-58.0	3.7	0.00e+00	0	52	104	0	78	24315
2026-01-08 08:08:20.92	322.25	48.49	-53.6	-58.1	3.7	0.00e+00	0	52	104	0	78	24579
2026-01-08 08:08:21.92	322.68	48.01	-53.7	-58.2	3.7	0.00e+00	0	52	104	0	78	24999
2026-01-08 08:08:22.92	323.10	47.53	-53.6	-58.2	3.7	0.00e+00	0	52	104	0	78	24848
2026-01-08 08:08:23.91	323.50	47.06	-53.5	-58.2	3.7	0.00e+00	0	52	104	0	78	25007
2026-01-08 08:08:24.91	323.89	46.60	-53.0	-57.8	3.7	0.00e+00	0	52	104	0	78	23951
2026-01-08 08:08:25.91	324.27	46.13	-53.4	-58.0	3.7	0.00e+00	0	52	104	0	77	25682
2026-01-08 08:08:26.91	324.64	45.68	-52.9	-57.7	3.7	0.00e+00	0	52	104	0	77	24983
2026-01-08 08:08:27.91	324.99	45.22	-53.5	-58.0	3.7	0.00e+00	0	52	104	0	77	25911
2026-01-08 08:08:28.91	325.34	44.77	-53.6	-58.1	3.7	0.00e+00	0	52	104	0	77	26203
2026-01-08 08:08:29.91	325.68	44.33	-53.7	-58.3	3.7	0.00e+00	0	52	104	0	78	25144
2026-01-08 08:08:30.91	326.00	43.89	-53.6	-58.1	3.7	0.00e+00	0	52	104	0	78	24785
2026-01-08 08:08:31.91	326.32	43.46	-53.8	-58.3	3.7	0.00e+00	0	52	104	0	78	25267
2026-01-08 08:08:32.90	326.63	43.03	-53.8	-58.2	3.7	0.00e+00	0	52	104	0	78	25055
2026-01-08 08:08:33.90	326.93	42.60	-53.6	-58.2	3.7	0.00e+00	0	52	104	0	78	24909
2026-01-08 08:08:34.90	327.22	42.18	-53.7	-58.2	3.7	0.00e+00	0	52	104	0	78	24858
2026-01-08 08:08:35.90	327.51	41.77	-53.4	-58.0	3.7	0.00e+00	0	52	104	0	78	24397
2026-01-08 08:08:36.90	327.79	41.35	-53.3	-58.1	3.7	0.00e+00	0	52	104	0	78	24712
2026-01-08 08:08:37.91	328.06	40.94	-53.1	-58.0	3.7	0.00e+00	0	52	104	0	78	24282
2026-01-08 08:08:38.91	328.33	40.54	-53.1	-58.0	3.7	0.00e+00	0	52	104	0	78	24337
2026-01-08 08:08:39.91	328.58	40.14	-53.1	-58.0	3.7	0.00e+00	0	52	104	0	78	24311
2026-01-08 08:08:40.91	328.83	39.75	-53.1	-58.0	3.7	0.00e+00	0	51	104	0	78	24297
2026-01-08 08:08:41.91	329.08	39.36	-52.5	-57.6	3.7	0.00e+00	0	52	104	0	77	24758
2026-01-08 08:08:42.91	329.32	38.98	-52.9	-57.9	3.7	0.00e+00	0	52	104	0	76	26926
2026-01-08 08:08:43.91	329.55	38.59	-52.3	-57.5	3.7	0.00e+00	0	52	104	0	76	25693
2026-01-08 08:08:44.91	329.78	38.22	-52.3	-57.6	3.7	0.00e+00	0	52	104	0	76	25981
2026-01-08 08:08:45.91	330.00	37.85	-53.3	-58.1	3.7	0.00e+00	0	52	104	0	77	26056
2026-01-08 08:08:46.91	330.22	37.48	-52.8	-57.8	3.7	0.00e+00	0	52	104	0	77	25158
2026-01-08 08:08:47.91	330.43	37.12	-53.1	-58.0	3.7	0.00e+00	0	52	104	0	77	25833
2026-01-08 08:08:48.91	330.64	36.76	-53.2	-58.1	3.7	0.00e+00	0	52	104	0	77	26062
2026-01-08 08:08:49.91	330.84	36.40	-53.6	-58.1	3.7	0.00e+00	0	52	104	0	77	26150
2026-01-08 08:08:50.91	331.04	36.05	-53.3	-58.1	3.7	0.00e+00	0	52	104	0	77	26244
2026-01-08 08:08:51.91	331.23	35.71	-53.4	-57.9	3.7	0.00e+00	0	51	104	0	77	25626
2026-01-08 08:08:52.92	331.42	35.36	-53.3	-57.9	3.7	0.00e+00	0	52	104	0	77	25645
2026-01-08 08:08:53.91	331.60	35.03	-53.5	-57.8	3.7	0.00e+00	0	52	104	0	77	25326
2026-01-08 08:08:54.91	331.79	34.69	-53.3	-57.8	3.7	0.00e+00	0	52	104	0	77	25137
2026-01-08 08:08:55.92	331.97	34.36	-53.5	-57.8	3.7	0.00e+00	0	52	104	0	77	25253
2026-01-08 08:08:56.92	332.14	34.03	-53.6	-58.0	3.7	0.00e+00	0	52	104	0	77	25682
2026-01-08 08:08:57.92	332.31	33.71	-53.4	-57.9	3.7	0.00e+00	0	52	104	0	77	25448
2026-01-08 08:08:58.92	332.48	33.39	-53.4	-57.8	3.7	0.00e+00	0	52	104	0	77	25229
2026-01-08 08:08:59.93	332.64	33.07	-53.2	-57.6	3.7	0.00e+00	0	51	104	0	77	24544
2026-01-08 08:09:00.93	332.80	32.76	-52.8	-57.5	3.7	0.00e+00	0	52	104	0	77	24447
2026-01-08 08:09:01.93	332.96	32.45	-52.0	-57.2	3.7	0.00e+00	0	52	104	0	76	24822
2026-01-08 08:09:02.93	333.11	32.14	-52.4	-57.3	3.7	0.00e+00	0	52	104	0	75	26771
2026-01-08 08:09:03.94	333.26	31.84	-52.1	-57.1	3.7	0.00e+00	0	52	104	0	75	26237
2026-01-08 08:09:04.94	333.41	31.54	-52.4	-57.0	3.7	0.00e+00	0	52	104	0	75	25830
2026-01-08 08:09:05.94	333.56	31.24	-53.1	-57.5	3.7	0.00e+00	0	52	104	0	76	25818
2026-01-08 08:09:06.94	333.70	30.95	-52.8	-57.6	3.7	0.00e+00	0	52	104	0	76	25982
2026-01-08 08:09:07.94	333.84	30.66	-53.1	-57.7	3.7	0.00e+00	0	52	104	0	77	24819
2026-01-08 08:09:08.95	333.98	30.38	-52.8	-56.9	3.7	0.00e+00	0	52	104	0	77	22805
2026-01-08 08:09:09.95	334.11	30.09	-52.8	-57.0	3.7	0.00e+00	0	52	104	0	77	23055
2026-01-08 08:09:10.95	334.24	29.82	-52.5	-57.0	3.7	0.00e+00	0	52	104	0	77	22978
2026-01-08 08:09:11.95	334.37	29.54	-52.1	-56.8	3.7	0.00e+00	0	52	104	0	76	23912
2026-01-08 08:09:12.95	334.50	29.27	-51.7	-56.7	3.7	0.00e+00	0	52	104	0	75	25021
2026-01-08 08:09:13.94	334.63	29.00	-51.8	-57.0	3.7	0.00e+00	0	52	104	0	75	25854
2026-01-08 08:09:14.93	334.75	28.74	-52.1	-57.2	3.7	0.00e+00	0	52	104	0	75	26290
2026-01-08 08:09:15.93	334.87	28.47	-52.2	-57.2	3.7	0.00e+00	0	52	104	0	75	26353
2026-01-08 08:09:16.93	334.99	28.21	-52.6	-57.6	3.7	0.00e+00	0	51	104	0	75	27791
2026-01-08 08:09:17.93	335.10	27.95	-52.5	-57.5	3.7	0.00e+00	0	52	104	0	75	27236
2026-01-08 08:09:18.93	335.22	27.70	-52.6	-57.5	3.7	0.00e+00	0	52	104	0	75	27502
2026-01-08 08:09:19.93	335.33	27.45	-52.7	-57.6	3.7	0.00e+00	0	52	104	0	76	26080
2026-01-08 08:09:20.92	335.44	27.20	-53.4	-58.1	3.7	0.00e+00	0	52	104	0	77	26150
2026-01-08 08:09:21.93	335.55	26.95	-52.8	-57.9	3.7	0.00e+00	0	52	104	0	77	25401
2026-01-08 08:09:22.92	335.66	26.71	-53.4	-58.1	3.7	0.00e+00	0	52	104	0	77	26135
2026-01-08 08:09:23.92	335.76	26.47	-53.3	-57.8	3.7	0.00e+00	0	52	104	0	77	25378
2026-01-08 08:09:24.92	335.87	26.23	-53.4	-58.0	3.7	0.00e+00	0	52	104	0	77	25870
2026-01-08 08:09:25.92	335.97	25.99	-53.6	-58.2	3.7	0.00e+00	0	52	104	0	77	26282
2026-01-08 08:09:26.91	336.07	25.76	-53.4	-58.1	3.7	0.00e+00	0	52	104	0	77	26223
2026-01-08 08:09:27.91	336.17	25.53	-52.6	-57.5	3.7	0.00e+00	0	52	104	0	77	24401
2026-01-08 08:09:28.91	336.27	25.30	-51.8	-57.0	3.7	0.00e+00	0	52	104	0	75	25794
2026-01-08 08:09:29.90	336.36	25.07	-52.5	-57.4	3.7	0.00e+00	0	52	104	0	75	27061
2026-01-08 08:09:30.90	336.46	24.85	-51.8	-57.0	3.7	0.00e+00	0	51	104	0	75	25820
2026-01-08 08:09:31.90	336.55	24.62	-51.8	-57.0	3.7	0.00e+00	0	52	104	0	75	25924
2026-01-08 08:09:32.89	336.64	24.40	-52.1	-57.2	3.7	0.00e+00	0	52	104	0	75	26472
2026-01-08 08:09:33.89	336.73	24.19	-52.6	-57.5	3.7	0.00e+00	0	52	104	0	75	27327
2026-01-08 08:09:34.90	336.82	23.97	-53.2	-58.0	3.7	0.00e+00	0	52	104	0	77	25872
2026-01-08 08:09:35.89	336.91	23.76	-53.3	-58.1	3.7	0.00e+00	0	52	104	0	77	25979
2026-01-08 08:09:36.89	336.99	23.54	-53.3	-58.1	3.7	0.00e+00	0	52	104	0	77	26146
2026-01-08 08:09:37.89	337.08	23.33	-52.6	-57.5	3.7	0.00e+00	0	52	104	0	77	24457
2026-01-08 08:09:38.89	337.16	23.13	-53.1	-57.8	3.7	0.00e+00	0	52	104	0	77	25354
2026-01-08 08:09:39.89	337.25	22.92	-52.8	-57.7	3.7	0.00e+00	0	52	104	0	77	25062
2026-01-08 08:09:40.88	337.33	22.72	-52.3	-57.4	3.7	0.00e+00	0	52	104	0	76	25516
2026-01-08 08:09:41.88	337.41	22.52	-52.0	-57.2	3.7	0.00e+00	0	52	104	0	75	26486
2026-01-08 08:09:42.88	337.49	22.32	-52.2	-57.3	3.7	0.00e+00	0	52	104	0	75	26671
2026-01-08 08:09:43.87	337.57	22.12	-51.9	-57.2	3.7	0.00e+00	0	52	104	0	75	26441
2026-01-08 08:09:44.87	337.64	21.93	-52.0	-57.4	3.7	0.00e+00	0	52	104	0	75	27039
2026-01-08 08:09:45.87	337.72	21.73	-52.2	-57.6	3.7	0.00e+00	0	52	104	0	75	27566
2026-01-08 08:09:46.87	337.80	21.54	-51.9	-57.2	3.7	0.00e+00	0	52	104	0	75	26581
2026-01-08 08:09:47.87	337.87	21.35	-52.0	-57.4	3.7	0.00e+00	0	52	104	0	75	27052
2026-01-08 08:09:48.87	337.94	21.16	-52.6	-57.7	3.7	0.00e+00	0	52	104	0	75	27895
2026-01-08 08:09:49.87	338.02	20.97	-51.8	-57.3	3.7	0.00e+00	0	52	104	0	75	26702
2026-01-08 08:09:50.87	338.09	20.79	-52.3	-57.6	3.7	0.00e+00	0	52	104	0	75	27649
2026-01-08 08:09:51.86	338.16	20.61	-52.0	-57.2	3.7	0.00e+00	0	52	104	0	75	26517
2026-01-08 08:09:52.86	338.23	20.42	-51.7	-57.2	3.7	0.00e+00	0	51	104	0	75	26329
2026-01-08 08:09:53.85	338.29	20.24	-52.2	-57.5	3.7	0.00e+00	0	52	104	0	74	29057
2026-01-08 08:09:54.85	338.36	20.07	-51.6	-57.1	3.7	0.00e+00	0	52	104	0	74	27574
2026-01-08 08:09:55.85	338.43	19.89	-51.6	-57.2	3.7	0.00e+00	0	52	104	0	74	27953
2026-01-08 08:09:56.85	338.50	19.71	-52.0	-57.4	3.7	0.00e+00	0	52	104	0	74	28593
2026-01-08 08:09:57.84	338.56	19.54	-52.5	-57.7	3.7	0.00e+00	0	52	104	0	75	27857
2026-01-08 08:09:58.84	338.63	19.37	-52.8	-57.9	3.7	0.00e+00	0	52	104	0	76	27052
2026-01-08 08:09:59.83	338.69	19.20	-53.2	-58.0	3.7	0.00e+00	0	52	104	0	77	25926
2026-01-08 08:10:00.83	338.75	19.03	-53.2	-58.1	3.7	0.00e+00	0	52	104	0	77	26072
2026-01-08 08:10:01.83	338.81	18.86	-51.9	-57.3	3.7	0.00e+00	0	52	104	0	75	26585
2026-01-08 08:10:02.83	338.88	18.69	-52.1	-57.3	3.7	0.00e+00	0	52	104	0	75	26698
2026-01-08 08:10:03.83	338.94	18.53	-52.5	-57.6	3.7	0.00e+00	0	52	104	0	75	27833
2026-01-08 08:10:04.83	339.00	18.36	-52.9	-57.9	3.7	0.00e+00	0	52	104	0	76	27033
2026-01-08 08:10:05.83	339.06	18.20	-53.1	-58.0	3.7	0.00e+00	0	52	104	0	76	27370
2026-01-08 08:10:06.83	339.11	18.04	-53.3	-58.1	3.7	0.00e+00	0	52	104	0	77	26170
2026-01-08 08:10:07.82	339.17	17.88	-53.4	-58.2	3.7	0.00e+00	0	52	104	0	77	26490
2026-01-08 08:10:08.82	339.23	17.72	-53.2	-58.2	3.7	0.00e+00	0	52	104	0	77	26411
2026-01-08 08:10:09.82	339.29	17.56	-53.4	-58.2	3.7	0.00e+00	0	52	104	0	77	26335
2026-01-08 08:10:10.81	339.34	17.41	-53.2	-58.1	3.7	0.00e+00	0	52	104	0	77	26178
2026-01-08 08:10:11.81	339.40	17.26	-53.2	-58.2	3.7	0.00e+00	0	52	104	0	77	26346
2026-01-08 08:10:12.81	339.45	17.10	-53.4	-58.1	3.7	0.00e+00	0	52	104	0	77	26126
2026-01-08 08:10:13.81	339.51	16.95	-52.7	-57.6	3.7	0.00e+00	0	52	104	0	77	24669
2026-01-08 08:10:14.81	339.56	16.80	-53.5	-58.2	3.7	0.00e+00	0	52	104	0	77	26359
2026-01-08 08:10:15.81	339.61	16.65	-52.3	-57.4	3.7	0.00e+00	0	52	104	0	76	25622
2026-01-08 08:10:16.80	339.67	16.50	-52.0	-57.2	3.6	0.00e+00	0	52	104	0	75	26381
2026-01-08 08:10:17.80	339.72	16.35	-51.7	-57.0	3.7	0.00e+00	0	52	104	0	75	25766
2026-01-08 08:10:18.80	339.77	16.21	-51.7	-57.0	3.7	0.00e+00	0	52	104	0	75	25868
2026-01-08 08:10:19.80	339.82	16.06	-51.8	-57.1	3.7	0.00e+00	0	52	104	0	75	26238
2026-01-08 08:10:20.80	339.87	15.92	-51.9	-57.2	3.7	0.00e+00	0	52	104	0	75	26299
2026-01-08 08:10:21.80	339.92	15.77	-52.3	-57.4	3.7	0.00e+00	0	52	104	0	75	27097
2026-01-08 08:10:22.80	339.97	15.63	-52.4	-57.5	3.7	0.00e+00	0	52	104	0	75	27475
2026-01-08 08:10:23.79	340.02	15.49	-51.7	-57.0	3.7	0.00e+00	0	52	104	0	75	25745
2026-01-08 08:10:24.79	340.07	15.35	-51.3	-56.8	3.7	0.00e+00	0	52	104	0	74	26856
2026-01-08 08:10:25.79	340.11	15.21	-52.0	-57.2	3.7	0.00e+00	0	52	104	0	74	27921
2026-01-08 08:10:26.79	340.16	15.08	-51.9	-57.2	3.7	0.00e+00	0	52	104	0	75	26375
2026-01-08 08:10:27.79	340.21	14.94	-52.1	-57.3	3.7	0.00e+00	0	52	104	0	75	26699
2026-01-08 08:10:28.78	340.25	14.80	-52.2	-57.4	3.7	0.00e+00	0	52	104	0	75	26952
2026-01-08 08:10:29.78	340.30	14.67	-52.4	-57.5	3.6	0.00e+00	0	52	104	0	75	27403
2026-01-08 08:10:30.78	340.35	14.53	-52.0	-57.2	3.7	0.00e+00	0	52	104	0	75	26407
2026-01-08 08:10:31.77	340.39	14.40	-51.8	-57.1	3.7	0.00e+00	0	52	104	0	75	26251
2026-01-08 08:10:32.77	340.44	14.27	-50.6	-56.5	3.7	0.00e+00	0	52	104	0	72	28902
2026-01-08 08:10:33.77	340.48	14.14	-50.1	-56.1	3.7	0.00e+00	0	52	104	0	72	27534
2026-01-08 08:10:34.77	340.52	14.01	-51.4	-57.0	3.7	0.00e+00	0	52	104	0	73	29040
2026-01-08 08:10:35.77	340.57	13.88	-50.9	-56.6	3.7	0.00e+00	0	52	104	0	73	27803
2026-01-08 08:10:36.77	340.61	13.75	-51.3	-57.0	3.7	0.00e+00	0	52	104	0	73	28892
2026-01-08 08:10:37.77	340.65	13.62	-51.7	-57.2	3.7	0.00e+00	0	52	104	0	74	27978
2026-01-08 08:10:38.76	340.69	13.50	-52.1	-57.4	3.7	0.00e+00	0	52	104	0	74	28726
2026-01-08 08:10:39.76	340.74	13.37	-52.0	-57.2	3.7	0.00e+00	0	52	104	0	75	26546
2026-01-08 08:10:40.76	340.78	13.25	-52.3	-57.4	3.7	0.00e+00	0	52	104	0	75	27119
2026-01-08 08:10:41.76	340.82	13.12	-51.8	-57.1	3.7	0.00e+00	0	52	104	0	75	26259
2026-01-08 08:10:42.75	340.86	13.00	-49.8	-55.7	3.7	0.00e+00	0	52	104	0	71	28146
2026-01-08 08:10:43.75	340.90	12.88	-52.0	-57.2	3.7	0.00e+00	0	52	104	0	74	28077
2026-01-08 08:10:44.75	340.94	12.76	-49.6	-55.6	3.7	0.00e+00	0	52	104	0	71	27698
2026-01-08 08:10:45.75	340.98	12.64	-50.0	-56.0	3.7	0.00e+00	0	52	104	0	71	28858
2026-01-08 08:10:46.75	341.02	12.52	-50.2	-56.2	3.7	0.00e+00	0	52	104	0	71	29540
2026-01-08 08:10:47.75	341.06	12.40	-50.6	-56.4	3.7	0.00e+00	0	52	104	0	72	28563
2026-01-08 08:10:48.75	341.09	12.28	-50.3	-56.1	3.7	0.00e+00	0	52	104	0	72	27617
2026-01-08 08:10:49.74	341.13	12.16	-50.6	-56.4	3.7	0.00e+00	0	52	104	0	72	28603
2026-01-08 08:10:50.74	341.17	12.04	-49.9	-56.0	3.7	0.00e+00	0	52	104	0	71	28934
2026-01-08 08:10:51.74	341.21	11.93	-51.2	-56.7	3.7	0.00e+00	0	52	104	0	72	29771
2026-01-08 08:10:52.74	341.25	11.81	-50.0	-56.0	3.7	0.00e+00	0	52	104	0	72	27463
2026-01-08 08:10:53.73	341.28	11.70	-49.7	-55.9	3.7	0.00e+00	0	52	104	0	70	30384
2026-01-08 08:10:54.73	341.32	11.58	-50.1	-56.1	3.7	0.00e+00	0	52	104	0	70	31136
2026-01-08 08:10:55.73	341.35	11.47	-50.6	-56.6	3.7	0.00e+00	0	52	104	0	71	30915
2026-01-08 08:10:56.73	341.39	11.36	-50.8	-56.7	3.7	0.00e+00	0	52	104	0	72	29632
2026-01-08 08:10:57.73	341.43	11.25	-51.1	-56.8	3.7	0.00e+00	0	52	104	0	72	29917
2026-01-08 08:10:58.73	341.46	11.13	-51.1	-56.7	3.7	0.00e+00	0	52	104	0	72	29768
2026-01-08 08:10:59.73	341.50	11.02	-50.9	-56.7	3.7	0.00e+00	0	52	104	0	72	29819
2026-01-08 08:11:00.72	341.53	10.91	-51.0	-56.8	3.7	0.00e+00	0	52	104	0	73	28304
2026-01-08 08:11:01.72	341.57	10.81	-51.2	-57.1	3.7	0.00e+00	0	52	104	0	73	29385
2026-01-08 08:11:02.72	341.60	10.70	-51.5	-57.3	3.7	0.00e+00	0	52	104	0	73	30069
2026-01-08 08:11:03.72	341.63	10.59	-51.8	-57.5	3.7	0.00e+00	0	52	104	0	74	28998
2026-01-08 08:11:04.71	341.67	10.48	-52.1	-57.7	3.7	0.00e+00	0	52	104	0	74	29558
2026-01-08 08:11:05.71	341.70	10.38	-52.2	-57.7	3.7	0.00e+00	0	51	104	0	75	28030
2026-01-08 08:11:06.70	341.73	10.27	-52.2	-57.7	3.7	0.00e+00	0	52	104	0	75	27999
2026-01-08 08:11:07.70	341.77	10.16	-51.8	-57.2	3.7	0.00e+00	0	52	104	0	75	26325
2026-01-08 08:11:08.70	341.80	10.06	-52.1	-57.7	3.7	0.00e+00	0	52	104	0	75	27931
2026-01-08 08:11:09.70	341.83	9.95	-52.1	-57.3	3.7	0.00e+00	0	52	104	0	75	26863
2026-01-08 08:11:10.69	341.86	9.85	-51.3	-56.9	3.7	0.00e+00	0	52	104	0	74	27052
2026-01-08 08:11:11.69	341.90	9.75	-51.3	-57.0	3.7	0.00e+00	0	52	104	0	74	27226
2026-01-08 08:11:12.69	341.93	9.65	-51.1	-56.9	3.7	0.00e+00	0	52	104	0	74	27162
2026-01-08 08:11:13.69	341.96	9.54	-50.8	-56.9	3.7	0.00e+00	0	52	104	0	73	28494
2026-01-08 08:11:14.69	341.99	9.44	-50.5	-56.8	3.7	0.00e+00	0	52	104	0	72	30017
2026-01-08 08:11:15.68	342.02	9.34	-50.5	-56.9	3.7	0.00e+00	0	52	104	0	72	30234
2026-01-08 08:11:16.68	342.05	9.24	-50.3	-56.7	3.7	0.00e+00	0	52	104	0	72	29643
2026-01-08 08:11:17.68	342.08	9.14	-51.3	-57.0	3.7	0.00e+00	0	52	104	0	73	28872
2026-01-08 08:11:18.68	342.11	9.04	-51.3	-57.0	3.7	0.00e+00	0	52	104	0	73	29083
2026-01-08 08:11:19.67	342.14	8.94	-51.7	-57.1	3.7	0.00e+00	0	52	104	0	73	29342
2026-01-08 08:11:20.67	342.17	8.85	-49.7	-55.8	3.7	0.00e+00	0	52	104	0	71	28359
2026-01-08 08:11:21.67	342.20	8.75	-50.6	-56.3	3.7	0.00e+00	0	52	104	0	73	26847
2026-01-08 08:11:22.67	342.23	8.65	-52.5	-57.4	3.7	0.00e+00	0	52	104	0	76	25563
2026-01-08 08:11:23.66	342.26	8.55	-51.9	-57.3	3.7	0.00e+00	0	52	104	0	74	28423
2026-01-08 08:11:24.66	342.29	8.46	-51.9	-57.2	3.7	0.00e+00	0	52	104	0	76	25064
2026-01-08 08:11:25.66	342.32	8.36	-53.3	-58.1	3.7	0.00e+00	0	52	104	0	77	25991
2026-01-08 08:11:26.66	342.35	8.27	-52.7	-57.1	3.7	0.00e+00	0	52	104	0	76	24740
2026-01-08 08:11:27.65	342.37	8.17	-52.7	-57.3	3.7	0.00e+00	0	52	104	0	76	25166
2026-01-08 08:11:28.65	342.40	8.08	-53.7	-58.4	3.7	0.00e+00	0	52	104	0	78	25562
2026-01-08 08:11:29.65	342.43	7.98	-52.2	-57.4	3.7	0.00e+00	0	52	104	0	76	25616
2026-01-08 08:11:30.65	342.46	7.89	-53.7	-58.3	3.7	0.00e+00	0	52	104	0	78	25379
2026-01-08 08:11:31.65	342.49	7.80	-54.0	-58.6	3.7	0.00e+00	0	52	104	0	78	26041
2026-01-08 08:11:32.64	342.51	7.71	-53.1	-58.0	3.7	0.00e+00	0	52	104	0	78	24427
2026-01-08 08:11:33.64	342.54	7.61	-53.7	-58.3	3.7	0.00e+00	0	52	104	0	79	23910
2026-01-08 08:11:34.64	342.57	7.52	-53.4	-58.2	3.7	0.00e+00	0	52	104	0	78	24944
2026-01-08 08:11:35.64	342.59	7.43	-54.3	-58.7	3.7	0.00e+00	0	52	104	0	79	24991
2026-01-08 08:11:36.64	342.62	7.34	-54.3	-58.7	3.7	0.00e+00	0	52	104	0	79	24871
2026-01-08 08:11:37.64	342.65	7.25	-54.1	-58.5	3.7	0.00e+00	0	52	104	0	79	24360
2026-01-08 08:11:38.64	342.67	7.16	-54.1	-58.6	3.7	0.00e+00	0	52	104	0	79	24644
2026-01-08 08:11:39.63	342.70	7.07	-54.0	-58.6	3.7	0.00e+00	0	52	104	0	79	24679
2026-01-08 08:11:40.63	342.73	6.98	-53.7	-58.4	3.7	0.00e+00	0	52	104	0	79	24051
2026-01-08 08:11:41.63	342.75	6.89	-53.8	-58.4	3.7	0.00e+00	0	52	104	0	79	24115
2026-01-08 08:11:42.63	342.78	6.80	-53.9	-58.3	3.7	0.00e+00	0	52	104	0	79	23898
2026-01-08 08:11:43.63	342.80	6.72	-53.7	-58.2	3.7	0.00e+00	0	52	104	0	79	23427
2026-01-08 08:11:44.63	342.83	6.63	-53.4	-57.5	3.7	0.00e+00	0	52	104	0	78	23098
2026-01-08 08:11:45.63	342.85	6.54	-53.2	-57.6	3.7	0.00e+00	0	52	104	0	78	23288
2026-01-08 08:11:46.62	342.88	6.46	-52.8	-57.5	3.7	0.00e+00	0	52	104	0	77	24428
2026-01-08 08:11:47.62	342.90	6.37	-52.8	-57.5	3.7	0.00e+00	0	52	104	0	77	24366
2026-01-08 08:11:48.62	342.93	6.28	-52.8	-57.5	3.7	0.00e+00	0	52	104	0	77	24327
2026-01-08 08:11:49.62	342.95	6.20	-52.7	-57.4	3.7	0.00e+00	0	52	104	0	77	24236
2026-01-08 08:11:50.62	342.98	6.11	-52.8	-57.4	3.7	0.00e+00	0	52	104	0	77	24240
2026-01-08 08:11:51.61	343.00	6.03	-52.8	-57.5	3.7	0.00e+00	0	52	104	0	77	24343
2026-01-08 08:11:52.61	343.03	5.94	-52.7	-57.5	3.7	0.00e+00	0	52	104	0	77	24248
2026-01-08 08:11:53.61	343.05	5.86	-52.7	-57.5	3.7	0.00e+00	0	52	104	0	77	24347
2026-01-08 08:11:54.61	343.07	5.78	-52.7	-57.5	3.7	0.00e+00	0	52	104	0	77	24244
2026-01-08 08:11:55.60	343.10	5.69	-52.7	-57.5	3.7	0.00e+00	0	52	104	0	77	24273
2026-01-08 08:11:56.61	343.12	5.61	-52.7	-57.4	3.7	0.00e+00	0	52	104	0	77	24082
2026-01-08 08:11:57.60	343.14	5.53	-52.7	-57.4	3.7	0.00e+00	0	52	104	0	77	24102
2026-01-08 08:11:58.60	343.17	5.45	-52.7	-57.4	3.7	0.00e+00	0	52	104	0	77	24139
2026-01-08 08:11:59.60	343.19	5.36	-52.7	-57.4	3.7	0.00e+00	0	52	104	0	77	24138
2026-01-08 08:12:00.59	343.21	5.28	-52.7	-57.4	3.7	0.00e+00	0	52	104	0	77	24120
2026-01-08 08:12:01.59	343.24	5.20	-52.7	-57.4	3.7	0.00e+00	0	52	104	0	77	24098
2026-01-08 08:12:02.59	343.26	5.12	-52.7	-57.5	3.7	0.00e+00	0	52	104	0	77	24267
2026-01-08 08:12:03.59	343.28	5.04	-52.7	-57.4	3.7	0.00e+00	0	52	104	0	77	24131
2026-01-08 08:12:04.59	343.30	4.96	-52.7	-57.4	3.7	0.00e+00	0	52	104	0	77	24188

#Closed at: 2026-01-08 08:12:05
#Recorded file [0 MB]: D:/Data/31040_260108_110258.dat