passes_logs/2026/01/08/T1/T1__20260108_231754_NOAA_21_JPSS-2_rec.log

#Pass ID: 20260108_231754_NOAA 21 (JPSS-2)
#Satellite: NOAA 21 (JPSS-2)
#Configuration: NOAA 21
#almurnet v.1.7.20251203
#Start time: 2026-01-08 23:17:56

#Version: 2.0.20230620
#Station: T1
#Location: 37.570604 lon 55.790049 lat
#TLE: 1 54234U 22150A   26008.45757862  .00000119  00000+0  77172-4 0  9996
#TLE: 2 54234  98.7494 309.4367 0000894 328.2777  31.8345 14.19533328163889

#Time	Az	El	Level	Level2	SNR	BER	BlckErr	Temp	State	Recorded	gain1	gain2
2026-01-08 23:17:56.29	19.08	5.15	-47.2	-61.7	3.8	1.49e+00	0	41	104	0	65	19685
2026-01-08 23:17:57.29	19.10	5.22	-47.2	-61.7	3.8	1.49e+00	0	41	104	0	65	19815
2026-01-08 23:17:58.30	19.13	5.29	-47.2	-61.8	3.8	1.49e+00	0	41	104	0	65	19962
2026-01-08 23:17:59.30	19.15	5.36	-47.2	-61.8	3.8	1.49e+00	0	41	104	0	65	20003
2026-01-08 23:18:00.30	19.18	5.43	-47.2	-61.8	3.8	1.49e+00	0	41	104	0	65	19957
2026-01-08 23:18:01.31	19.21	5.50	-47.2	-61.7	3.8	1.49e+00	0	41	104	0	65	19674
2026-01-08 23:18:02.31	19.23	5.58	-47.2	-61.5	3.8	1.49e+00	0	41	104	0	65	19342
2026-01-08 23:18:03.32	19.26	5.65	-47.1	-61.3	3.8	1.49e+00	0	41	104	0	65	18787
2026-01-08 23:18:04.32	19.28	5.72	-47.1	-60.9	3.8	1.49e+00	0	41	104	0	65	18056
2026-01-08 23:18:05.33	19.31	5.79	-47.1	-60.6	3.8	1.49e+00	0	41	104	0	65	17408
2026-01-08 23:18:06.33	19.34	5.87	-47.1	-60.3	3.8	1.49e+00	0	42	104	0	65	16706
2026-01-08 23:18:07.33	19.36	5.94	-47.1	-60.1	3.8	1.49e+00	0	41	104	0	65	16366
2026-01-08 23:18:08.34	19.39	6.01	-47.0	-59.9	3.8	1.49e+00	0	42	104	0	65	15980
2026-01-08 23:18:09.34	19.42	6.08	-47.1	-59.6	3.9	1.49e+00	0	42	104	0	65	15421
2026-01-08 23:18:10.35	19.44	6.16	-47.1	-59.7	3.9	1.49e+00	0	42	104	0	65	15627
2026-01-08 23:18:11.35	19.47	6.23	-47.1	-59.8	3.9	1.49e+00	0	42	104	0	65	15845
2026-01-08 23:18:12.36	19.50	6.31	-47.1	-60.3	3.8	1.49e+00	0	41	104	0	65	16845
2026-01-08 23:18:13.36	19.52	6.38	-47.1	-60.5	3.8	1.49e+00	0	42	104	0	65	17104
2026-01-08 23:18:14.36	19.55	6.45	-47.1	-60.5	3.8	1.49e+00	0	42	104	0	65	17244
2026-01-08 23:18:15.36	19.58	6.53	-47.1	-60.5	3.8	1.49e+00	0	42	104	0	65	17144
2026-01-08 23:18:16.37	19.61	6.60	-47.1	-60.2	3.8	1.49e+00	0	41	104	0	65	16681
2026-01-08 23:18:17.37	19.63	6.68	-47.1	-59.5	3.9	1.49e+00	0	42	104	0	65	15286
2026-01-08 23:18:18.38	19.66	6.75	-47.0	-59.0	4.0	1.48e+00	0	42	104	0	65	14437
2026-01-08 23:18:19.38	19.69	6.83	-46.9	-58.6	3.9	1.48e+00	0	42	104	0	65	13791
2026-01-08 23:18:20.39	19.72	6.90	-46.9	-58.7	3.9	1.47e+00	0	42	104	0	65	14033
2026-01-08 23:18:21.39	19.74	6.98	-46.9	-58.5	3.9	1.47e+00	0	42	104	0	65	13679
2026-01-08 23:18:22.39	19.77	7.05	-46.9	-58.0	4.3	1.46e+00	0	42	104	0	65	12936
2026-01-08 23:18:23.40	19.80	7.13	-46.9	-58.3	4.2	1.47e+00	0	42	104	0	65	13375
2026-01-08 23:18:24.40	19.83	7.21	-47.0	-58.7	4.1	1.47e+00	0	42	104	0	65	14021
2026-01-08 23:18:25.41	19.86	7.28	-47.1	-59.9	3.8	1.49e+00	0	42	104	0	65	16076
2026-01-08 23:18:26.41	19.89	7.36	-47.2	-60.7	3.8	1.49e+00	0	42	104	0	65	17640
2026-01-08 23:18:27.41	19.91	7.44	-47.2	-61.6	3.8	1.49e+00	0	42	104	0	65	19432
2026-01-08 23:18:28.42	19.94	7.51	-47.2	-61.8	3.8	1.49e+00	0	42	104	0	65	20048
2026-01-08 23:18:29.42	19.97	7.59	-47.2	-61.4	3.8	1.49e+00	0	42	104	0	65	19149
2026-01-08 23:18:30.43	20.00	7.67	-47.1	-60.5	3.8	1.49e+00	0	42	104	0	65	17267
2026-01-08 23:18:31.43	20.03	7.75	-47.0	-58.8	4.1	1.48e+00	0	42	104	0	65	14086
2026-01-08 23:18:32.44	20.06	7.83	-46.9	-57.5	4.4	1.44e+00	0	42	104	0	65	12191
2026-01-08 23:18:33.44	20.09	7.90	-46.7	-57.1	4.0	8.71e-01	0	42	104	0	65	11623
2026-01-08 23:18:34.45	20.12	7.98	-46.6	-55.5	5.4	5.53e-01	0	42	0	0	65	9666
2026-01-08 23:18:35.45	20.15	8.06	-46.5	-55.0	5.8	4.06e-01	0	42	0	0	65	9113
2026-01-08 23:18:36.46	20.18	8.14	-46.4	-54.5	6.2	3.24e-01	0	42	0	0	64	9126
2026-01-08 23:18:37.46	20.21	8.22	-46.3	-54.2	6.4	2.58e-01	0	42	0	0	64	8772
2026-01-08 23:18:38.47	20.24	8.30	-46.3	-54.1	6.5	2.36e-01	0	42	0	0	64	8662
2026-01-08 23:18:39.47	20.27	8.38	-46.3	-54.0	6.6	2.07e-01	0	42	0	0	64	8598
2026-01-08 23:18:40.47	20.30	8.46	-46.3	-53.9	6.6	1.94e-01	0	42	0	0	64	8536
2026-01-08 23:18:41.48	20.33	8.54	-46.2	-53.6	6.9	1.68e-01	0	43	0	0	64	8177
2026-01-08 23:18:42.48	20.36	8.62	-46.2	-53.5	7.1	1.51e-01	0	43	0	0	64	8086
2026-01-08 23:18:43.49	20.39	8.70	-46.2	-53.3	7.2	1.42e-01	0	42	0	0	64	7927
2026-01-08 23:18:44.49	20.42	8.78	-46.0	-52.9	7.6	1.09e-01	0	43	0	0	64	7595
2026-01-08 23:18:45.50	20.46	8.87	-46.1	-52.9	7.7	8.74e-02	0	43	0	0	63	8050
2026-01-08 23:18:46.50	20.49	8.95	-46.0	-52.7	7.8	7.68e-02	0	43	0	0	63	7856
2026-01-08 23:18:47.51	20.52	9.03	-46.1	-52.7	7.9	7.55e-02	0	43	0	0	63	7823
2026-01-08 23:18:48.51	20.55	9.11	-46.2	-53.1	7.5	7.28e-02	0	43	0	0	63	8269
2026-01-08 23:18:49.51	20.58	9.19	-46.2	-53.2	7.4	1.67e-01	0	43	0	0	63	8292
2026-01-08 23:18:50.52	20.61	9.28	-46.2	-53.4	7.3	8.23e-02	0	42	0	0	63	8464
2026-01-08 23:18:51.52	20.65	9.36	-46.9	-58.2	3.9	4.37e-01	0	43	104	0	64	13926
2026-01-08 23:18:52.52	20.68	9.44	-45.8	-52.0	7.6	1.47e+00	0	43	104	0	63	7246
2026-01-08 23:18:53.52	20.71	9.53	-43.6	-46.9	13.8	4.50e-06	0	43	0	0	59	5087
2026-01-08 23:18:54.52	20.74	9.61	-43.3	-46.4	14.4	5.30e-06	0	43	0	0	58	5062
2026-01-08 23:18:55.53	20.78	9.69	-43.0	-46.1	14.7	7.00e-07	0	43	0	0	58	4882
2026-01-08 23:18:56.53	20.81	9.78	-42.9	-45.9	14.9	0.00e+00	0	43	0	0	57	5043
2026-01-08 23:18:57.53	20.84	9.86	-42.7	-45.6	15.2	0.00e+00	0	42	0	0	57	4889
2026-01-08 23:18:58.54	20.88	9.95	-42.6	-45.4	15.4	0.00e+00	0	43	0	0	57	4786
2026-01-08 23:18:59.54	20.91	10.03	-42.3	-45.0	15.8	0.00e+00	0	43	0	0	56	4844
2026-01-08 23:19:00.55	20.94	10.12	-42.0	-44.7	16.1	0.00e+00	0	43	0	0	56	4673
2026-01-08 23:19:01.55	20.98	10.20	-41.8	-44.4	16.2	0.00e+00	0	43	0	0	55	4770
2026-01-08 23:19:02.56	21.01	10.29	-41.7	-44.3	16.3	0.00e+00	0	43	0	0	55	4712
2026-01-08 23:19:03.56	21.04	10.38	-41.6	-44.1	16.5	0.00e+00	0	43	0	0	55	4633
2026-01-08 23:19:04.56	21.08	10.46	-41.5	-44.0	16.6	0.00e+00	0	43	0	0	55	4555
2026-01-08 23:19:05.57	21.11	10.55	-41.4	-43.8	16.8	0.00e+00	0	43	0	0	54	4754
2026-01-08 23:19:06.57	21.15	10.64	-41.5	-44.0	16.6	0.00e+00	0	43	0	0	54	4837
2026-01-08 23:19:07.57	21.18	10.72	-41.4	-43.9	16.7	0.00e+00	0	43	0	0	54	4785
2026-01-08 23:19:08.57	21.22	10.81	-41.4	-43.9	16.7	0.00e+00	0	43	0	0	54	4794
2026-01-08 23:19:09.57	21.25	10.90	-41.3	-43.7	16.9	0.00e+00	0	43	0	0	54	4684
2026-01-08 23:19:10.58	21.29	10.99	-41.4	-43.9	16.8	0.00e+00	0	43	0	0	54	4766
2026-01-08 23:19:11.58	21.32	11.08	-41.2	-43.6	17.1	0.00e+00	0	43	0	0	54	4624
2026-01-08 23:19:12.59	21.36	11.17	-41.2	-43.6	17.0	0.00e+00	0	43	0	0	54	4646
2026-01-08 23:19:13.59	21.40	11.26	-41.2	-43.6	17.1	0.00e+00	0	43	0	0	54	4600
2026-01-08 23:19:14.60	21.43	11.35	-41.2	-43.6	17.1	0.00e+00	0	43	0	0	54	4612
2026-01-08 23:19:15.60	21.47	11.44	-41.2	-43.6	17.1	0.00e+00	0	43	0	0	54	4605
2026-01-08 23:19:16.60	21.51	11.53	-41.1	-43.4	17.2	0.00e+00	0	43	0	0	54	4526
2026-01-08 23:19:17.85	21.55	11.64	-41.1	-43.4	17.3	0.00e+00	0	43	0	0	54	4515
2026-01-08 23:19:18.73	21.58	11.72	-41.1	-43.5	17.1	0.00e+00	0	43	0	0	54	4562
2026-01-08 23:19:19.87	21.63	11.82	-41.1	-43.4	17.3	0.00e+00	0	43	0	0	54	4541
2026-01-08 23:19:20.80	21.66	11.91	-41.1	-43.3	17.3	0.00e+00	0	43	0	0	54	4490
2026-01-08 23:19:21.98	21.70	12.02	-41.1	-43.3	17.4	0.00e+00	0	43	0	0	54	4483
2026-01-08 23:19:22.84	21.74	12.10	-41.1	-43.3	17.4	0.00e+00	0	43	0	0	54	4489
2026-01-08 23:19:23.98	21.78	12.20	-41.1	-43.3	17.4	0.00e+00	0	43	0	0	54	4463
2026-01-08 23:19:24.84	21.81	12.28	-41.1	-43.3	17.4	0.00e+00	0	43	0	0	54	4486
2026-01-08 23:19:25.99	21.86	12.39	-41.1	-43.2	17.4	0.00e+00	0	43	0	0	54	4437
2026-01-08 23:19:26.85	21.89	12.47	-41.2	-43.4	17.4	0.00e+00	0	43	0	0	54	4495
2026-01-08 23:19:27.99	21.93	12.58	-41.2	-43.4	17.4	0.00e+00	0	43	0	0	54	4496
2026-01-08 23:19:28.85	21.97	12.66	-41.2	-43.2	17.4	0.00e+00	0	43	0	0	54	4440
2026-01-08 23:19:30.00	22.01	12.77	-41.2	-43.3	17.4	0.00e+00	0	43	0	0	54	4492
2026-01-08 23:19:30.86	22.05	12.85	-41.2	-43.3	17.5	0.00e+00	0	43	0	0	54	4445
2026-01-08 23:19:32.00	22.09	12.96	-41.2	-43.2	17.5	0.00e+00	0	43	0	0	54	4428
2026-01-08 23:19:32.86	22.13	13.04	-41.3	-43.4	17.3	0.00e+00	0	43	0	0	54	4519
2026-01-08 23:19:34.01	22.17	13.15	-41.1	-43.1	17.6	0.00e+00	0	43	0	0	54	4373
2026-01-08 23:19:34.87	22.21	13.23	-41.2	-43.2	17.5	0.00e+00	0	43	0	0	54	4423
2026-01-08 23:19:36.01	22.25	13.34	-41.1	-43.1	17.6	0.00e+00	0	43	0	0	54	4359
2026-01-08 23:19:36.87	22.29	13.43	-41.0	-43.0	17.7	0.00e+00	0	43	0	0	53	4557
2026-01-08 23:19:38.02	22.34	13.54	-41.0	-43.0	17.7	0.00e+00	0	43	0	0	53	4561
2026-01-08 23:19:38.88	22.37	13.62	-40.9	-42.9	17.7	0.00e+00	0	43	0	0	53	4540
2026-01-08 23:19:40.02	22.42	13.74	-40.9	-42.9	17.8	0.00e+00	0	43	0	0	53	4499
2026-01-08 23:19:40.88	22.46	13.82	-40.9	-42.9	17.8	0.00e+00	0	43	0	0	53	4515
2026-01-08 23:19:42.03	22.50	13.93	-40.9	-42.9	17.7	0.00e+00	0	43	0	0	53	4525
2026-01-08 23:19:42.89	22.54	14.02	-40.9	-42.8	17.8	0.00e+00	0	43	0	0	53	4485
2026-01-08 23:19:44.04	22.59	14.14	-40.8	-42.8	17.9	0.00e+00	0	43	0	0	53	4448
2026-01-08 23:19:44.89	22.63	14.22	-40.8	-42.8	17.9	0.00e+00	0	43	0	0	53	4469
2026-01-08 23:19:46.04	22.68	14.34	-40.8	-42.8	17.8	0.00e+00	0	43	0	0	53	4473
2026-01-08 23:19:46.90	22.71	14.42	-40.8	-42.7	17.9	0.00e+00	0	43	0	0	53	4432
2026-01-08 23:19:48.04	22.76	14.54	-40.7	-42.7	18.0	0.00e+00	0	43	0	0	53	4409
2026-01-08 23:19:48.91	22.80	14.63	-40.7	-42.7	18.0	0.00e+00	0	43	0	0	53	4399
2026-01-08 23:19:50.05	22.85	14.74	-40.7	-42.7	17.9	0.00e+00	0	43	0	0	53	4424
2026-01-08 23:19:50.91	22.89	14.83	-40.8	-42.8	17.9	0.00e+00	0	43	0	0	53	4444
2026-01-08 23:19:52.06	22.94	14.95	-40.8	-42.8	17.9	0.00e+00	0	43	0	0	53	4466
2026-01-08 23:19:53.03	22.98	15.05	-40.7	-42.7	18.0	0.00e+00	0	43	0	0	53	4411
2026-01-08 23:19:54.03	23.03	15.16	-40.6	-42.6	18.1	0.00e+00	0	43	0	0	53	4370
2026-01-08 23:19:55.03	23.08	15.26	-40.6	-42.7	18.0	0.00e+00	0	43	0	0	53	4394
2026-01-08 23:19:56.04	23.12	15.37	-40.5	-42.5	18.2	0.00e+00	0	43	0	0	52	4563
2026-01-08 23:19:57.04	23.17	15.47	-40.5	-42.6	18.1	0.00e+00	0	43	0	0	52	4621
2026-01-08 23:19:58.04	23.21	15.58	-40.6	-42.6	18.1	0.00e+00	0	43	0	0	52	4645
2026-01-08 23:19:59.04	23.26	15.68	-40.6	-42.7	18.0	0.00e+00	0	43	0	0	52	4661
2026-01-08 23:20:00.04	23.31	15.79	-40.5	-42.6	18.1	0.00e+00	0	43	0	0	52	4619
2026-01-08 23:20:01.05	23.36	15.90	-40.6	-42.7	18.1	0.00e+00	0	43	0	0	52	4654
2026-01-08 23:20:02.05	23.40	16.01	-40.7	-42.8	18.0	0.00e+00	0	43	0	0	52	4722
2026-01-08 23:20:03.05	23.45	16.12	-40.7	-42.8	18.0	0.00e+00	0	43	0	0	52	4732
2026-01-08 23:20:04.06	23.50	16.23	-40.6	-42.7	18.1	0.00e+00	0	43	0	0	52	4671
2026-01-08 23:20:05.06	23.55	16.33	-40.7	-42.8	18.0	0.00e+00	0	43	0	0	52	4722
2026-01-08 23:20:06.06	23.60	16.44	-40.7	-42.8	18.0	0.00e+00	0	43	0	0	52	4721
2026-01-08 23:20:07.14	23.65	16.56	-40.7	-42.7	18.0	0.00e+00	0	43	0	0	52	4701
2026-01-08 23:20:08.04	23.70	16.66	-40.7	-42.8	17.9	0.00e+00	0	43	0	0	52	4731
2026-01-08 23:20:09.18	23.75	16.79	-40.8	-42.9	17.9	0.00e+00	0	43	0	0	52	4779
2026-01-08 23:20:10.04	23.80	16.89	-40.8	-42.9	17.9	0.00e+00	0	43	0	0	52	4780
2026-01-08 23:20:11.18	23.86	17.01	-40.9	-42.9	17.9	0.00e+00	0	43	0	0	52	4801
2026-01-08 23:20:12.04	23.90	17.11	-40.8	-42.8	17.9	0.00e+00	0	43	0	0	52	4742
2026-01-08 23:20:13.19	23.96	17.24	-40.8	-42.8	18.0	0.00e+00	0	43	0	0	52	4706
2026-01-08 23:20:14.05	24.00	17.34	-40.7	-42.7	18.1	0.00e+00	0	43	0	0	52	4689
2026-01-08 23:20:15.19	24.06	17.47	-40.8	-42.8	18.0	0.00e+00	0	43	0	0	52	4738
2026-01-08 23:20:16.05	24.11	17.57	-40.8	-42.8	18.0	0.00e+00	0	43	0	0	52	4723
2026-01-08 23:20:17.20	24.17	17.70	-40.9	-42.9	17.9	0.00e+00	0	43	0	0	52	4776
2026-01-08 23:20:18.06	24.21	17.80	-40.9	-42.9	17.9	0.00e+00	0	43	0	0	52	4785
2026-01-08 23:20:19.21	24.28	17.93	-40.9	-43.0	17.9	0.00e+00	0	43	0	0	52	4817
2026-01-08 23:20:20.41	24.34	18.07	-40.9	-42.9	17.9	0.00e+00	0	43	0	0	52	4790
2026-01-08 23:20:21.26	24.39	18.17	-40.9	-42.9	17.9	0.00e+00	0	43	0	0	52	4810
2026-01-08 23:20:22.41	24.45	18.31	-41.0	-43.0	17.8	0.00e+00	0	43	0	0	52	4833
2026-01-08 23:20:23.27	24.50	18.41	-41.0	-43.0	17.8	0.00e+00	0	43	0	0	52	4848
2026-01-08 23:20:24.42	24.56	18.55	-41.0	-43.0	17.8	0.00e+00	0	43	0	0	52	4868
2026-01-08 23:20:25.27	24.61	18.65	-41.1	-43.1	17.7	0.00e+00	0	43	0	0	52	4912
2026-01-08 23:20:26.42	24.67	18.79	-41.0	-43.0	17.8	0.00e+00	0	43	0	0	52	4858
2026-01-08 23:20:27.28	24.72	18.89	-40.9	-43.0	17.9	0.00e+00	0	43	0	0	52	4818
2026-01-08 23:20:28.47	24.79	19.03	-40.9	-42.9	17.9	0.00e+00	0	43	0	0	52	4787
2026-01-08 23:20:29.33	24.84	19.14	-40.9	-42.9	17.9	0.00e+00	0	43	0	0	52	4791
2026-01-08 23:20:30.48	24.91	19.28	-40.9	-42.9	17.9	0.00e+00	0	43	0	0	52	4810
2026-01-08 23:20:31.34	24.96	19.39	-40.9	-42.9	17.9	0.00e+00	0	43	0	0	52	4788
2026-01-08 23:20:32.49	25.03	19.53	-40.8	-42.8	17.9	0.00e+00	0	43	0	0	52	4751
2026-01-08 23:20:33.38	25.08	19.64	-40.7	-42.8	18.0	0.00e+00	0	43	0	0	52	4728
2026-01-08 23:20:34.52	25.15	19.78	-40.7	-42.7	18.0	0.00e+00	0	43	0	0	52	4689
2026-01-08 23:20:35.38	25.20	19.89	-40.6	-42.6	18.1	0.00e+00	0	44	0	0	52	4639
2026-01-08 23:20:36.53	25.27	20.03	-40.5	-42.6	18.2	0.00e+00	0	43	0	0	52	4620
2026-01-08 23:20:37.39	25.32	20.14	-40.5	-42.6	18.2	0.00e+00	0	43	0	0	52	4618
2026-01-08 23:20:38.53	25.39	20.29	-40.4	-42.4	18.3	0.00e+00	0	43	0	0	52	4533
2026-01-08 23:20:39.39	25.45	20.40	-40.3	-42.4	18.3	0.00e+00	0	43	0	0	52	4521
2026-01-08 23:20:40.54	25.52	20.55	-40.3	-42.4	18.3	0.00e+00	0	43	0	0	52	4530
2026-01-08 23:20:41.40	25.57	20.66	-40.3	-42.4	18.4	0.00e+00	0	43	0	0	52	4514
2026-01-08 23:20:42.54	25.65	20.80	-40.1	-42.1	18.6	0.00e+00	0	43	0	0	52	4367
2026-01-08 23:20:43.41	25.70	20.92	-40.0	-42.0	18.7	0.00e+00	0	43	0	0	51	4577
2026-01-08 23:20:44.55	25.78	21.07	-40.2	-42.2	18.6	0.00e+00	0	43	0	0	51	4665
2026-01-08 23:20:45.41	25.83	21.18	-40.0	-41.9	18.9	0.00e+00	0	43	0	0	51	4521
2026-01-08 23:20:46.56	25.91	21.33	-39.9	-41.8	19.0	0.00e+00	0	43	0	0	51	4464
2026-01-08 23:20:47.42	25.97	21.45	-40.0	-41.9	18.8	0.00e+00	0	43	0	0	51	4539
2026-01-08 23:20:48.57	26.04	21.60	-39.8	-41.7	19.1	0.00e+00	0	43	0	0	51	4395
2026-01-08 23:20:49.43	26.10	21.72	-39.7	-41.6	19.2	0.00e+00	0	43	0	0	51	4352
2026-01-08 23:20:50.58	26.18	21.87	-39.7	-41.5	19.2	0.00e+00	0	43	0	0	51	4325
2026-01-08 23:20:51.44	26.24	21.99	-39.6	-41.4	19.3	0.00e+00	0	43	0	0	51	4281
2026-01-08 23:20:52.58	26.32	22.14	-39.5	-41.2	19.5	0.00e+00	0	43	0	0	51	4187
2026-01-08 23:20:53.44	26.38	22.26	-39.6	-41.4	19.4	0.00e+00	0	43	0	0	51	4265
2026-01-08 23:20:54.59	26.46	22.42	-39.7	-41.5	19.3	0.00e+00	0	43	0	0	51	4331
2026-01-08 23:20:55.45	26.52	22.54	-39.7	-41.4	19.3	0.00e+00	0	43	0	0	51	4285
2026-01-08 23:20:56.60	26.60	22.70	-39.6	-41.4	19.4	0.00e+00	0	43	0	0	51	4271
2026-01-08 23:20:57.46	26.66	22.82	-39.5	-41.3	19.5	0.00e+00	0	43	0	0	51	4215
2026-01-08 23:20:58.61	26.75	22.98	-39.5	-41.2	19.5	0.00e+00	0	43	0	0	51	4184
2026-01-08 23:20:59.47	26.81	23.11	-39.4	-41.1	19.6	0.00e+00	0	43	0	0	50	4383
2026-01-08 23:21:00.62	26.90	23.27	-39.5	-41.2	19.5	0.00e+00	0	43	0	0	50	4417
2026-01-08 23:21:01.48	26.96	23.39	-39.6	-41.3	19.4	0.00e+00	0	43	0	0	50	4490
2026-01-08 23:21:02.62	27.05	23.56	-39.8	-41.5	19.2	0.00e+00	0	43	0	0	50	4598
2026-01-08 23:21:03.48	27.11	23.68	-39.7	-41.5	19.3	0.00e+00	0	43	0	0	50	4580
2026-01-08 23:21:04.63	27.20	23.85	-39.8	-41.5	19.3	0.00e+00	0	43	0	0	50	4595
2026-01-08 23:21:05.49	27.27	23.97	-39.6	-41.4	19.4	0.00e+00	0	43	0	0	50	4507
2026-01-08 23:21:06.64	27.36	24.14	-39.7	-41.5	19.2	0.00e+00	0	43	0	0	50	4583
2026-01-08 23:21:07.50	27.42	24.27	-39.8	-41.6	19.2	0.00e+00	0	43	0	0	50	4618
2026-01-08 23:21:08.65	27.51	24.44	-39.9	-41.7	19.1	0.00e+00	0	43	0	0	50	4664
2026-01-08 23:21:09.50	27.58	24.57	-39.8	-41.6	19.2	0.00e+00	0	43	0	0	50	4623
2026-01-08 23:21:10.65	27.68	24.74	-39.9	-41.7	19.1	0.00e+00	0	43	0	0	50	4675
2026-01-08 23:21:11.51	27.75	24.87	-39.9	-41.7	19.1	0.00e+00	0	44	0	0	50	4666
2026-01-08 23:21:12.66	27.84	25.04	-40.0	-41.8	19.0	0.00e+00	0	43	0	0	50	4714
2026-01-08 23:21:13.81	27.94	25.22	-40.0	-41.8	19.0	0.00e+00	0	43	0	0	50	4725
2026-01-08 23:21:14.84	28.02	25.38	-40.0	-41.8	18.9	0.00e+00	0	44	0	0	50	4755
2026-01-08 23:21:15.84	28.11	25.53	-40.1	-41.9	18.9	0.00e+00	0	43	0	0	50	4779
2026-01-08 23:21:16.84	28.19	25.69	-40.2	-42.0	18.8	0.00e+00	0	43	0	0	50	4847
2026-01-08 23:21:17.85	28.28	25.84	-40.3	-42.1	18.7	0.00e+00	0	43	0	0	51	4631
2026-01-08 23:21:18.85	28.37	26.00	-40.3	-42.1	18.7	0.00e+00	0	43	0	0	51	4621
2026-01-08 23:21:19.85	28.46	26.16	-40.5	-42.3	18.5	0.00e+00	0	43	0	0	51	4746
2026-01-08 23:21:20.85	28.55	26.32	-40.4	-42.3	18.5	0.00e+00	0	43	0	0	51	4746
2026-01-08 23:21:21.85	28.64	26.48	-40.5	-42.4	18.5	0.00e+00	0	43	0	0	51	4766
2026-01-08 23:21:22.86	28.73	26.64	-40.6	-42.5	18.3	0.00e+00	0	43	0	0	51	4861
2026-01-08 23:21:23.89	28.82	26.81	-40.7	-42.6	18.1	0.00e+00	0	43	0	0	52	4644
2026-01-08 23:21:24.89	28.91	26.97	-40.8	-42.8	18.0	0.00e+00	0	43	0	0	52	4756
2026-01-08 23:21:25.94	29.01	27.14	-40.8	-42.8	18.0	0.00e+00	0	43	0	0	52	4727
2026-01-08 23:21:26.82	29.10	27.28	-40.8	-42.8	18.0	0.00e+00	0	43	0	0	52	4716
2026-01-08 23:21:28.13	29.22	27.50	-40.9	-42.8	17.9	0.00e+00	0	43	0	0	52	4754
2026-01-08 23:21:28.84	29.29	27.62	-40.9	-42.9	17.9	0.00e+00	0	43	0	0	52	4773
2026-01-08 23:21:30.13	29.41	27.83	-40.9	-42.9	17.9	0.00e+00	0	43	0	0	52	4777
2026-01-08 23:21:30.85	29.49	27.95	-40.9	-42.9	17.9	0.00e+00	0	43	0	0	52	4793
2026-01-08 23:21:32.14	29.61	28.17	-40.9	-42.9	17.9	0.00e+00	0	43	0	0	52	4772
2026-01-08 23:21:32.86	29.69	28.29	-40.9	-42.9	17.9	0.00e+00	0	43	0	0	52	4801
2026-01-08 23:21:34.14	29.82	28.51	-40.8	-42.7	18.0	0.00e+00	0	43	0	0	52	4705
2026-01-08 23:21:34.86	29.89	28.64	-40.8	-42.8	18.0	0.00e+00	0	43	0	0	52	4721
2026-01-08 23:21:36.15	30.02	28.86	-40.8	-42.8	18.1	0.00e+00	0	43	0	0	52	4721
2026-01-08 23:21:36.87	30.10	28.98	-40.6	-42.6	18.3	0.00e+00	0	44	0	0	52	4602
2026-01-08 23:21:38.16	30.23	29.21	-40.5	-42.4	18.4	0.00e+00	0	43	0	0	52	4535
2026-01-08 23:21:38.88	30.31	29.34	-40.5	-42.4	18.5	0.00e+00	0	43	0	0	52	4525
2026-01-08 23:21:40.23	30.46	29.58	-40.7	-42.7	18.3	0.00e+00	0	43	0	0	52	4654
2026-01-08 23:21:40.95	30.54	29.70	-40.6	-42.5	18.4	0.00e+00	0	43	0	0	52	4594
2026-01-08 23:21:42.24	30.68	29.93	-40.5	-42.4	18.5	0.00e+00	0	44	0	0	52	4506
2026-01-08 23:21:42.95	30.76	30.06	-40.5	-42.5	18.5	0.00e+00	0	43	0	0	52	4554
2026-01-08 23:21:44.24	30.90	30.29	-40.4	-42.3	18.6	0.00e+00	0	43	0	0	52	4486
2026-01-08 23:21:44.96	30.98	30.43	-40.5	-42.4	18.5	0.00e+00	0	43	0	0	52	4504
2026-01-08 23:21:46.25	31.13	30.66	-40.4	-42.3	18.5	0.00e+00	0	43	0	0	52	4476
2026-01-08 23:21:46.97	31.22	30.79	-40.5	-42.4	18.5	0.00e+00	0	43	0	0	52	4507
2026-01-08 23:21:48.26	31.37	31.03	-40.5	-42.4	18.5	0.00e+00	0	43	0	0	52	4523
2026-01-08 23:21:49.07	31.46	31.18	-40.3	-42.2	18.6	0.00e+00	0	43	0	0	52	4423
2026-01-08 23:21:50.53	31.64	31.46	-40.4	-42.2	18.6	0.00e+00	0	43	0	0	52	4440
2026-01-08 23:21:51.25	31.73	31.59	-40.4	-42.2	18.6	0.00e+00	0	44	0	0	52	4431
2026-01-08 23:21:52.54	31.89	31.84	-40.5	-42.4	18.5	0.00e+00	0	43	0	0	52	4518
2026-01-08 23:21:53.26	31.98	31.97	-40.4	-42.2	18.6	0.00e+00	0	43	0	0	52	4421
2026-01-08 23:21:54.82	32.18	32.27	-40.5	-42.4	18.5	0.00e+00	0	43	0	0	52	4511
2026-01-08 23:21:55.53	32.27	32.41	-40.6	-42.5	18.4	0.00e+00	0	43	0	0	52	4555
2026-01-08 23:21:56.82	32.43	32.66	-40.6	-42.5	18.4	0.00e+00	0	43	0	0	52	4587
2026-01-08 23:21:57.53	32.53	32.80	-40.7	-42.6	18.3	0.00e+00	0	43	0	0	52	4639
2026-01-08 23:21:58.82	32.70	33.05	-40.6	-42.5	18.4	0.00e+00	0	43	0	0	52	4582
2026-01-08 23:21:59.54	32.80	33.20	-40.7	-42.6	18.3	0.00e+00	0	43	0	0	52	4628
2026-01-08 23:22:00.83	32.97	33.45	-40.8	-42.7	18.2	0.00e+00	0	43	0	0	52	4673
2026-01-08 23:22:01.54	33.07	33.60	-40.7	-42.6	18.2	0.00e+00	0	44	0	0	52	4637
2026-01-08 23:22:02.84	33.25	33.86	-40.8	-42.7	18.2	0.00e+00	0	43	0	0	52	4684
2026-01-08 23:22:03.55	33.35	34.00	-41.0	-42.9	18.0	0.00e+00	0	43	0	0	52	4788
2026-01-08 23:22:04.84	33.53	34.26	-41.0	-42.9	18.0	0.00e+00	0	43	0	0	52	4811
2026-01-08 23:22:05.68	33.65	34.43	-41.2	-43.2	17.8	0.00e+00	0	44	0	0	53	4664
2026-01-08 23:22:07.15	33.87	34.74	-41.5	-43.5	17.4	0.00e+00	0	43	0	0	53	4844
2026-01-08 23:22:07.87	33.98	34.89	-41.7	-43.7	17.2	0.00e+00	0	43	0	0	53	4968
2026-01-08 23:22:09.16	34.17	35.16	-41.8	-44.0	17.0	0.00e+00	0	43	0	0	54	4826
2026-01-08 23:22:09.87	34.28	35.30	-41.9	-44.1	16.8	0.00e+00	0	44	0	0	54	4915
2026-01-08 23:22:11.16	34.48	35.58	-42.2	-44.4	16.6	0.00e+00	0	43	0	0	55	4792
2026-01-08 23:22:11.88	34.59	35.73	-42.3	-44.6	16.4	0.00e+00	0	44	0	0	55	4905
2026-01-08 23:22:13.16	34.79	36.00	-42.5	-44.8	16.3	0.00e+00	0	44	0	0	55	5000
2026-01-08 23:22:13.88	34.91	36.16	-42.6	-44.9	16.1	0.00e+00	0	44	0	0	55	5081
2026-01-08 23:22:15.17	35.12	36.43	-42.9	-45.3	16.0	0.00e+00	0	43	0	0	56	4988
2026-01-08 23:22:16.09	35.27	36.63	-42.9	-45.2	16.0	0.00e+00	0	43	0	0	56	4959
2026-01-08 23:22:17.09	35.44	36.85	-42.7	-45.0	16.2	0.00e+00	0	44	0	0	56	4830
2026-01-08 23:22:18.45	35.67	37.15	-42.6	-44.8	16.4	0.00e+00	0	43	0	0	56	4718
2026-01-08 23:22:19.20	35.79	37.32	-42.5	-44.7	16.5	0.00e+00	0	43	0	0	56	4669
2026-01-08 23:22:20.49	36.02	37.60	-42.5	-44.7	16.5	0.00e+00	0	44	0	0	56	4681
2026-01-08 23:22:21.20	36.14	37.76	-42.5	-44.7	16.5	0.00e+00	0	43	0	0	56	4694
2026-01-08 23:22:22.49	36.38	38.05	-42.6	-44.8	16.4	0.00e+00	0	44	0	0	56	4730
2026-01-08 23:22:23.21	36.51	38.21	-42.6	-44.8	16.4	0.00e+00	0	44	0	0	56	4752
2026-01-08 23:22:24.50	36.74	38.51	-42.5	-44.8	16.4	0.00e+00	0	44	0	0	56	4710
2026-01-08 23:22:25.21	36.87	38.67	-42.6	-44.8	16.3	0.00e+00	0	43	0	0	56	4753
2026-01-08 23:22:26.50	37.12	38.96	-42.5	-44.7	16.5	0.00e+00	0	44	0	0	56	4697
2026-01-08 23:22:27.22	37.26	39.13	-42.3	-44.5	16.7	0.00e+00	0	44	0	0	56	4572
2026-01-08 23:22:28.51	37.51	39.43	-42.2	-44.3	16.9	0.00e+00	0	43	0	0	56	4452
2026-01-08 23:22:29.23	37.65	39.60	-42.1	-44.2	17.0	0.00e+00	0	43	0	0	56	4432
2026-01-08 23:22:30.64	37.93	39.93	-42.0	-44.1	17.1	0.00e+00	0	44	0	0	56	4342
2026-01-08 23:22:31.36	38.08	40.10	-42.0	-44.1	17.1	0.00e+00	0	44	0	0	56	4381
2026-01-08 23:22:32.65	38.34	40.40	-42.1	-44.2	17.0	0.00e+00	0	44	0	0	56	4419
2026-01-08 23:22:33.68	38.56	40.65	-42.3	-44.4	16.8	0.00e+00	0	44	0	0	56	4526
2026-01-08 23:22:35.00	38.84	40.96	-42.4	-44.6	16.6	0.00e+00	0	43	0	0	56	4604
2026-01-08 23:22:35.72	38.99	41.14	-42.3	-44.5	16.7	0.00e+00	0	43	0	0	56	4551
2026-01-08 23:22:37.00	39.27	41.44	-42.4	-44.5	16.7	0.00e+00	0	43	0	0	56	4574
2026-01-08 23:22:37.72	39.43	41.62	-42.3	-44.4	16.8	0.00e+00	0	43	0	0	56	4532
2026-01-08 23:22:39.01	39.73	41.93	-42.2	-44.3	16.9	0.00e+00	0	43	0	0	56	4442
2026-01-08 23:22:39.72	39.89	42.11	-42.2	-44.3	16.9	0.00e+00	0	44	0	0	56	4460
2026-01-08 23:22:41.04	40.20	42.43	-42.4	-44.5	16.7	0.00e+00	0	44	0	0	56	4565
2026-01-08 23:22:41.76	40.37	42.61	-42.7	-44.9	16.4	0.00e+00	0	43	0	0	56	4760
2026-01-08 23:22:43.10	40.69	42.95	-43.1	-45.4	15.9	0.00e+00	0	44	0	0	56	5067
2026-01-08 23:22:43.81	40.86	43.12	-43.2	-45.5	15.7	0.00e+00	0	44	0	0	57	4861
2026-01-08 23:22:45.15	41.19	43.46	-43.5	-45.9	15.4	0.00e+00	0	44	0	0	57	5057
2026-01-08 23:22:45.87	41.37	43.64	-43.6	-46.1	15.2	0.00e+00	0	44	0	0	57	5197
2026-01-08 23:22:47.24	41.72	43.99	-43.7	-46.3	15.0	0.00e+00	0	44	0	0	58	5006
2026-01-08 23:22:47.95	41.91	44.17	-43.9	-46.5	14.7	0.00e+00	0	44	0	0	58	5140
2026-01-08 23:22:49.24	42.25	44.50	-44.0	-46.7	14.6	7.00e-07	0	43	0	0	58	5253
2026-01-08 23:22:49.96	42.44	44.68	-43.9	-46.5	14.7	7.00e-07	0	43	0	0	58	5112
2026-01-08 23:22:51.25	42.80	45.01	-43.8	-46.3	14.9	0.00e+00	0	43	0	0	58	5023
2026-01-08 23:22:51.97	42.99	45.20	-43.8	-46.4	14.8	0.00e+00	0	44	0	0	58	5076
2026-01-08 23:22:53.26	43.36	45.53	-43.7	-46.3	14.9	0.00e+00	0	43	0	0	58	5005
2026-01-08 23:22:53.98	43.56	45.72	-43.8	-46.4	14.8	0.00e+00	0	43	0	0	58	5052
2026-01-08 23:22:55.26	43.94	46.06	-43.8	-46.4	14.8	0.00e+00	0	44	0	0	58	5065
2026-01-08 23:22:56.06	44.17	46.27	-43.9	-46.5	14.7	0.00e+00	0	43	0	0	58	5155
2026-01-08 23:22:57.21	44.52	46.57	-43.6	-46.2	15.0	0.00e+00	0	44	0	0	58	4943
2026-01-08 23:22:58.07	44.78	46.79	-43.2	-45.6	15.6	0.00e+00	0	43	0	0	58	4614
2026-01-08 23:22:59.22	45.14	47.10	-42.5	-44.7	16.4	0.00e+00	0	44	0	0	57	4408
2026-01-08 23:23:00.08	45.41	47.33	-42.3	-44.4	16.7	0.00e+00	0	43	0	0	56	4529
2026-01-08 23:23:01.22	45.78	47.63	-42.2	-44.3	16.8	0.00e+00	0	43	0	0	56	4443
2026-01-08 23:23:02.09	46.06	47.86	-42.1	-44.2	16.9	0.00e+00	0	44	0	0	56	4425
2026-01-08 23:23:03.23	46.44	48.17	-42.1	-44.2	16.9	0.00e+00	0	44	0	0	56	4411
2026-01-08 23:23:04.09	46.73	48.40	-42.2	-44.3	16.9	0.00e+00	0	44	0	0	56	4460
2026-01-08 23:23:05.32	47.16	48.73	-42.4	-44.5	16.7	0.00e+00	0	43	0	0	56	4580
2026-01-08 23:23:06.18	47.46	48.96	-42.7	-44.9	16.4	0.00e+00	0	44	0	0	56	4778
2026-01-08 23:23:07.41	47.90	49.29	-42.8	-45.0	16.3	0.00e+00	0	44	0	0	56	4850
2026-01-08 23:23:08.27	48.21	49.52	-42.9	-45.2	16.1	0.00e+00	0	43	0	0	56	4930
2026-01-08 23:23:09.42	48.64	49.84	-42.9	-45.2	15.9	0.00e+00	0	44	0	0	56	4967
2026-01-08 23:23:10.28	48.96	50.07	-42.8	-45.1	16.0	0.00e+00	0	43	0	0	56	4874
2026-01-08 23:23:11.43	49.40	50.38	-42.7	-44.9	16.2	0.00e+00	0	44	0	0	56	4803
2026-01-08 23:23:12.29	49.74	50.61	-42.5	-44.7	16.5	0.00e+00	0	43	0	0	56	4683
2026-01-08 23:23:13.62	50.27	50.98	-42.5	-44.7	16.4	0.00e+00	0	43	0	0	56	4682
2026-01-08 23:23:14.34	50.56	51.17	-42.3	-44.5	16.7	0.00e+00	0	43	0	0	56	4573
2026-01-08 23:23:15.82	51.17	51.57	-42.4	-44.5	16.7	0.00e+00	0	43	0	0	56	4588
2026-01-08 23:23:16.54	51.48	51.77	-42.3	-44.5	16.8	0.00e+00	0	44	0	0	56	4575
2026-01-08 23:23:17.83	52.03	52.12	-42.4	-44.6	16.6	0.00e+00	0	43	0	0	56	4628
2026-01-08 23:23:18.54	52.34	52.31	-42.2	-44.3	16.8	0.00e+00	0	44	0	0	56	4489
2026-01-08 23:23:19.83	52.92	52.66	-41.8	-43.9	17.2	0.00e+00	0	43	0	0	55	4499
2026-01-08 23:23:20.55	53.25	52.86	-41.5	-43.5	17.6	0.00e+00	0	44	0	0	54	4564
2026-01-08 23:23:21.84	53.84	53.21	-41.1	-43.0	18.1	0.00e+00	0	44	0	0	54	4320
2026-01-08 23:23:22.55	54.18	53.40	-40.9	-42.8	18.2	0.00e+00	0	43	0	0	53	4488
2026-01-08 23:23:23.84	54.80	53.75	-41.0	-42.9	18.1	0.00e+00	0	44	0	0	53	4494
2026-01-08 23:23:24.56	55.15	53.94	-41.0	-42.9	18.0	0.00e+00	0	43	0	0	53	4539
2026-01-08 23:23:25.85	55.79	54.29	-41.0	-42.9	18.1	0.00e+00	0	44	0	0	53	4523
2026-01-08 23:23:26.68	56.22	54.51	-40.9	-42.8	18.3	0.00e+00	0	44	0	0	53	4457
2026-01-08 23:23:27.83	56.81	54.82	-40.3	-42.1	18.9	0.00e+00	0	44	0	0	52	4345
2026-01-08 23:23:28.69	57.26	55.05	-40.1	-41.9	19.1	0.00e+00	0	44	0	0	52	4247
2026-01-08 23:23:29.84	57.88	55.36	-40.1	-41.8	19.1	0.00e+00	0	43	0	0	51	4481
2026-01-08 23:23:30.70	58.35	55.58	-40.1	-41.9	18.9	0.00e+00	0	44	0	0	51	4513
2026-01-08 23:23:31.84	58.99	55.88	-40.4	-42.2	18.8	0.00e+00	0	44	0	0	51	4676
2026-01-08 23:23:32.70	59.48	56.11	-40.5	-42.3	18.6	0.00e+00	0	44	0	0	51	4748
2026-01-08 23:23:33.85	60.14	56.41	-40.7	-42.5	18.2	0.00e+00	0	44	0	0	52	4586
2026-01-08 23:23:34.70	60.65	56.62	-40.6	-42.4	18.2	0.00e+00	0	44	0	0	52	4540
2026-01-08 23:23:35.85	61.34	56.92	-40.5	-42.4	18.3	0.00e+00	0	44	0	0	52	4526
2026-01-08 23:23:36.71	61.86	57.14	-40.5	-42.3	18.5	0.00e+00	0	44	0	0	52	4473
2026-01-08 23:23:37.86	62.58	57.43	-40.3	-42.1	18.7	0.00e+00	0	43	0	0	52	4389
2026-01-08 23:23:38.72	63.13	57.64	-40.2	-42.0	18.9	0.00e+00	0	43	0	0	52	4318
2026-01-08 23:23:39.86	63.87	57.93	-40.2	-42.0	18.9	0.00e+00	0	43	0	0	52	4325
2026-01-08 23:23:40.72	64.43	58.14	-40.3	-42.1	18.8	0.00e+00	0	44	0	0	52	4358
2026-01-08 23:23:41.87	65.21	58.42	-40.3	-42.2	18.6	0.00e+00	0	43	0	0	52	4401
2026-01-08 23:23:42.73	65.79	58.63	-40.3	-42.2	18.7	0.00e+00	0	44	0	0	52	4410
2026-01-08 23:23:43.88	66.59	58.90	-40.1	-41.9	19.0	0.00e+00	0	44	0	0	52	4256
2026-01-08 23:23:44.74	67.20	59.10	-39.9	-41.6	19.2	0.00e+00	0	44	0	0	51	4385
2026-01-08 23:23:45.91	68.05	59.37	-39.7	-41.4	19.4	0.00e+00	0	44	0	0	51	4280
2026-01-08 23:23:46.78	68.69	59.57	-39.7	-41.4	19.4	0.00e+00	0	43	0	0	51	4282
2026-01-08 23:23:47.92	69.54	59.83	-40.0	-41.8	19.1	0.00e+00	0	44	0	0	51	4488
2026-01-08 23:23:48.78	70.19	60.02	-40.0	-41.8	19.2	0.00e+00	0	43	0	0	51	4449
2026-01-08 23:23:49.93	71.08	60.27	-39.9	-41.7	19.4	0.00e+00	0	44	0	0	51	4405
2026-01-08 23:23:50.79	71.76	60.45	-39.5	-41.3	19.7	0.00e+00	0	44	0	0	51	4198
2026-01-08 23:23:52.12	72.83	60.73	-39.2	-40.9	20.0	0.00e+00	0	44	0	0	50	4262
2026-01-08 23:23:52.84	73.41	60.88	-39.2	-40.9	20.1	0.00e+00	0	44	0	0	50	4277
2026-01-08 23:23:54.13	74.48	61.13	-39.5	-41.2	19.8	0.00e+00	0	43	0	0	50	4404
2026-01-08 23:23:54.85	75.09	61.27	-39.6	-41.3	19.7	0.00e+00	0	43	0	0	50	4477
2026-01-08 23:23:56.14	76.19	61.52	-39.5	-41.2	19.6	0.00e+00	0	44	0	0	50	4414
2026-01-08 23:23:56.85	76.80	61.65	-39.5	-41.2	19.5	0.00e+00	0	44	0	0	50	4431
2026-01-08 23:23:58.14	77.94	61.88	-39.4	-41.1	19.7	0.00e+00	0	43	0	0	50	4360
2026-01-08 23:23:58.86	78.58	62.01	-39.3	-41.0	19.8	0.00e+00	0	44	0	0	50	4314
2026-01-08 23:24:00.15	79.75	62.23	-39.5	-41.2	19.7	0.00e+00	0	44	0	0	50	4408
2026-01-08 23:24:00.86	80.40	62.34	-39.6	-41.3	19.6	0.00e+00	0	44	0	0	50	4474
2026-01-08 23:24:02.15	81.60	62.55	-39.9	-41.7	19.3	0.00e+00	0	44	0	0	50	4654
2026-01-08 23:24:02.87	82.28	62.66	-40.0	-41.8	19.2	0.00e+00	0	43	0	0	50	4732
2026-01-08 23:24:04.16	83.51	62.84	-39.6	-41.4	19.6	0.00e+00	0	43	0	0	50	4506
2026-01-08 23:24:04.88	84.20	62.94	-39.4	-41.2	19.7	0.00e+00	0	44	0	0	50	4410
2026-01-08 23:24:06.28	85.57	63.13	-39.4	-41.2	19.6	0.00e+00	0	43	0	0	50	4411
2026-01-08 23:24:07.00	86.28	63.22	-39.6	-41.4	19.5	0.00e+00	0	44	0	0	50	4519
2026-01-08 23:24:08.29	87.57	63.37	-39.3	-41.1	19.9	0.00e+00	0	44	0	0	50	4360
2026-01-08 23:24:09.01	88.30	63.45	-39.1	-40.8	20.1	0.00e+00	0	43	0	0	50	4217
2026-01-08 23:24:10.29	89.60	63.58	-39.2	-40.9	19.9	0.00e+00	0	43	0	0	50	4264
2026-01-08 23:24:11.01	90.34	63.65	-39.2	-40.9	20.0	0.00e+00	0	43	0	0	50	4275
2026-01-08 23:24:12.30	91.67	63.77	-38.9	-40.6	20.3	0.00e+00	0	44	0	0	49	4345
2026-01-08 23:24:13.02	92.42	63.83	-38.7	-40.4	20.4	0.00e+00	0	43	0	0	49	4264
2026-01-08 23:24:14.31	93.78	63.92	-39.5	-41.3	19.6	0.00e+00	0	43	0	0	49	4740
2026-01-08 23:24:15.02	94.53	63.97	-39.9	-41.7	19.3	0.00e+00	0	44	0	0	50	4677
2026-01-08 23:24:16.31	95.90	64.05	-39.6	-41.4	19.6	0.00e+00	0	44	0	0	50	4524
2026-01-08 23:24:17.12	96.76	64.09	-39.4	-41.2	19.5	0.00e+00	0	43	0	0	50	4415
2026-01-08 23:24:18.27	97.99	64.14	-39.4	-41.2	19.5	0.00e+00	0	44	0	0	50	4421
2026-01-08 23:24:19.13	98.92	64.17	-39.4	-41.2	19.8	0.00e+00	0	44	0	0	50	4395
2026-01-08 23:24:20.28	100.16	64.20	-39.2	-40.9	20.1	0.00e+00	0	44	0	0	50	4280
2026-01-08 23:24:21.14	101.08	64.21	-39.2	-40.9	20.1	0.00e+00	0	44	0	0	50	4258
2026-01-08 23:24:22.28	102.32	64.22	-39.2	-40.8	19.9	0.00e+00	0	44	0	0	50	4238
2026-01-08 23:24:23.14	103.25	64.23	-39.1	-40.8	20.0	0.00e+00	0	44	0	0	50	4240
2026-01-08 23:24:24.35	104.56	64.22	-38.9	-40.5	20.4	0.00e+00	0	44	0	0	49	4335
2026-01-08 23:24:25.21	105.48	64.21	-39.1	-40.8	20.2	0.00e+00	0	44	0	0	49	4455
2026-01-08 23:24:26.36	106.72	64.18	-39.9	-41.6	19.5	0.00e+00	0	44	0	0	50	4648
2026-01-08 23:24:27.22	107.65	64.15	-40.3	-42.1	19.1	0.00e+00	0	44	0	0	51	4627
2026-01-08 23:24:28.36	108.87	64.11	-39.9	-41.8	19.4	0.00e+00	0	44	0	0	51	4442
2026-01-08 23:24:29.22	109.79	64.07	-39.4	-41.1	19.9	0.00e+00	0	44	0	0	50	4379
2026-01-08 23:24:30.37	111.02	64.01	-38.8	-40.5	20.5	0.00e+00	0	44	0	0	49	4302
2026-01-08 23:24:31.31	112.01	63.95	-38.6	-40.2	20.7	0.00e+00	0	43	0	0	49	4187
2026-01-08 23:24:32.49	113.25	63.86	-39.2	-40.9	20.1	0.00e+00	0	44	0	0	49	4495
2026-01-08 23:24:33.35	114.15	63.79	-39.4	-41.2	19.8	0.00e+00	0	44	0	0	49	4662
2026-01-08 23:24:34.49	115.34	63.70	-39.4	-41.2	19.8	0.00e+00	0	44	0	0	49	4655
2026-01-08 23:24:35.35	116.22	63.61	-39.2	-40.9	19.9	0.00e+00	0	43	0	0	49	4529
2026-01-08 23:24:36.50	117.40	63.50	-39.3	-41.0	19.9	0.00e+00	0	44	0	0	49	4597
2026-01-08 23:24:37.36	118.27	63.40	-39.5	-41.2	19.8	0.00e+00	0	44	0	0	49	4697
2026-01-08 23:24:38.51	119.42	63.27	-39.8	-41.5	19.5	0.00e+00	0	44	0	0	50	4577
2026-01-08 23:24:39.37	120.28	63.17	-39.7	-41.5	19.6	0.00e+00	0	44	0	0	50	4554
2026-01-08 23:24:40.51	121.40	63.02	-39.7	-41.4	19.5	0.00e+00	0	44	0	0	50	4521
2026-01-08 23:24:41.37	122.23	62.90	-39.5	-41.3	19.6	0.00e+00	0	44	0	0	50	4449
2026-01-08 23:24:42.52	123.34	62.74	-39.2	-40.9	20.0	0.00e+00	0	44	0	0	50	4260
2026-01-08 23:24:43.38	124.15	62.61	-38.8	-40.4	20.5	0.00e+00	0	44	0	0	49	4273
2026-01-08 23:24:44.54	125.24	62.43	-39.4	-41.1	19.9	0.00e+00	0	44	0	0	49	4601
2026-01-08 23:24:45.40	126.03	62.29	-39.9	-41.7	19.4	0.00e+00	0	44	0	0	50	4684
2026-01-08 23:24:46.55	127.08	62.10	-39.9	-41.7	19.4	0.00e+00	0	44	0	0	50	4653
2026-01-08 23:24:47.41	127.86	61.95	-39.6	-41.3	19.6	0.00e+00	0	44	0	0	50	4467
2026-01-08 23:24:48.56	128.88	61.75	-39.3	-40.9	19.9	0.00e+00	0	43	0	0	50	4288
2026-01-08 23:24:49.41	129.62	61.59	-39.6	-41.4	19.6	0.00e+00	0	44	0	0	50	4515
2026-01-08 23:24:50.56	130.61	61.37	-40.0	-41.8	19.4	0.00e+00	0	44	0	0	50	4717
2026-01-08 23:24:51.42	131.34	61.21	-40.6	-42.4	18.7	0.00e+00	0	44	0	0	51	4812
2026-01-08 23:24:52.57	132.30	60.98	-41.0	-43.0	18.1	0.00e+00	0	43	0	0	52	4838
2026-01-08 23:24:53.42	133.00	60.81	-40.7	-42.7	18.4	0.00e+00	0	43	0	0	52	4660
2026-01-08 23:24:54.57	133.93	60.57	-39.2	-40.9	20.0	0.00e+00	0	43	0	0	50	4281
2026-01-08 23:24:55.43	134.61	60.39	-38.6	-40.2	20.6	0.00e+00	0	43	0	0	49	4154
2026-01-08 23:24:56.58	135.51	60.14	-39.4	-41.1	19.8	0.00e+00	0	43	0	0	49	4625
2026-01-08 23:24:57.44	136.18	59.95	-40.0	-41.8	19.3	0.00e+00	0	44	0	0	50	4733
2026-01-08 23:24:58.59	137.05	59.69	-40.7	-42.6	18.5	0.00e+00	0	44	0	0	52	4644
2026-01-08 23:24:59.45	137.69	59.50	-40.5	-42.4	18.5	0.00e+00	0	43	0	0	52	4543
2026-01-08 23:25:00.60	138.53	59.23	-40.6	-42.5	18.5	0.00e+00	0	44	0	0	52	4573
2026-01-08 23:25:01.87	139.43	58.93	-39.2	-40.9	19.9	0.00e+00	0	43	0	0	50	4262
2026-01-08 23:25:02.59	139.94	58.76	-38.9	-40.5	20.2	0.00e+00	0	44	0	0	49	4340
2026-01-08 23:25:03.88	140.83	58.45	-39.4	-41.1	19.9	0.00e+00	0	43	0	0	49	4633
2026-01-08 23:25:04.59	141.31	58.28	-40.2	-42.0	19.1	0.00e+00	0	44	0	0	51	4553
2026-01-08 23:25:05.89	142.17	57.96	-41.4	-43.4	17.7	0.00e+00	0	43	0	0	53	4764
2026-01-08 23:25:06.60	142.64	57.79	-41.0	-43.0	17.8	0.00e+00	0	44	0	0	53	4574
2026-01-08 23:25:08.03	143.55	57.43	-39.9	-41.7	18.7	0.00e+00	0	43	0	0	51	4409
2026-01-08 23:25:08.75	144.01	57.25	-39.7	-41.4	19.1	0.00e+00	0	44	0	0	51	4276
2026-01-08 23:25:10.04	144.80	56.92	-39.2	-40.9	19.9	0.00e+00	0	44	0	0	50	4254
2026-01-08 23:25:10.75	145.23	56.73	-39.6	-41.3	19.6	0.00e+00	0	44	0	0	50	4459
2026-01-08 23:25:12.04	146.00	56.40	-40.8	-42.7	18.3	0.00e+00	0	44	0	0	52	4685
2026-01-08 23:25:12.76	146.42	56.21	-41.3	-43.3	17.8	0.00e+00	0	44	0	0	53	4714
2026-01-08 23:25:14.05	147.16	55.88	-42.0	-44.1	17.0	0.00e+00	0	44	0	0	54	4911
2026-01-08 23:25:14.77	147.56	55.69	-41.5	-43.6	17.4	0.00e+00	0	44	0	0	54	4619
2026-01-08 23:25:16.06	148.27	55.34	-40.9	-42.8	18.1	0.00e+00	0	44	0	0	53	4474
2026-01-08 23:25:16.77	148.65	55.16	-40.4	-42.3	18.7	0.00e+00	0	44	0	0	52	4448
2026-01-08 23:25:18.06	149.34	54.81	-41.0	-42.9	18.2	0.00e+00	0	44	0	0	52	4760
2026-01-08 23:25:18.78	149.71	54.62	-41.6	-43.6	17.5	0.00e+00	0	44	0	0	53	4917
2026-01-08 23:25:20.07	150.37	54.27	-41.9	-43.9	17.1	0.00e+00	0	44	0	0	54	4799
2026-01-08 23:25:21.01	150.85	54.02	-42.4	-44.5	16.5	0.00e+00	0	44	0	0	55	4861
2026-01-08 23:25:22.01	151.34	53.75	-42.2	-44.3	16.8	0.00e+00	0	44	0	0	55	4742
2026-01-08 23:25:23.02	151.83	53.47	-42.1	-44.2	16.8	0.00e+00	0	44	0	0	55	4696
2026-01-08 23:25:24.02	152.30	53.20	-41.4	-43.4	17.4	0.00e+00	0	44	0	0	54	4541
2026-01-08 23:25:25.02	152.76	52.93	-41.3	-43.3	17.5	0.00e+00	0	44	0	0	54	4449
2026-01-08 23:25:26.03	153.23	52.65	-41.6	-43.7	17.2	0.00e+00	0	43	0	0	54	4662
2026-01-08 23:25:27.03	153.67	52.38	-41.4	-43.3	17.7	0.00e+00	0	44	0	0	54	4492
2026-01-08 23:25:28.04	154.12	52.11	-42.6	-44.8	16.3	0.00e+00	0	44	0	0	55	5012
2026-01-08 23:25:29.04	154.55	51.83	-43.0	-45.3	16.0	0.00e+00	0	44	0	0	56	5039
2026-01-08 23:25:30.04	154.98	51.56	-43.6	-46.0	15.2	0.00e+00	0	44	0	0	57	5147
2026-01-08 23:25:31.05	155.40	51.28	-43.8	-46.5	14.4	7.00e-07	0	44	0	0	58	5114
2026-01-08 23:25:32.05	155.81	51.01	-43.6	-46.1	14.8	0.00e+00	0	44	0	0	58	4909
2026-01-08 23:25:33.05	156.21	50.74	-42.9	-45.2	16.0	0.00e+00	0	44	0	0	57	4655
2026-01-08 23:25:34.05	156.60	50.46	-42.2	-44.3	17.0	0.00e+00	0	44	0	0	56	4443
2026-01-08 23:25:35.06	157.00	50.19	-41.8	-43.9	17.2	0.00e+00	0	44	0	0	55	4507
2026-01-08 23:25:36.06	157.38	49.92	-42.3	-44.4	16.7	0.00e+00	0	44	0	0	55	4794
2026-01-08 23:25:37.06	157.75	49.64	-42.6	-44.7	16.4	0.00e+00	0	44	0	0	55	4974
2026-01-08 23:25:38.48	158.27	49.26	-42.5	-44.7	16.4	0.00e+00	0	44	0	0	55	4945
2026-01-08 23:25:39.23	158.54	49.06	-43.1	-45.4	16.0	0.00e+00	0	44	0	0	56	5048
2026-01-08 23:25:40.52	159.00	48.71	-43.2	-45.5	15.9	0.00e+00	0	44	0	0	57	4843
2026-01-08 23:25:41.30	159.27	48.50	-43.0	-45.3	16.0	0.00e+00	0	44	0	0	57	4754
2026-01-08 23:25:42.59	159.71	48.15	-42.3	-44.5	16.8	0.00e+00	0	44	0	0	56	4550
2026-01-08 23:25:43.40	159.98	47.93	-41.8	-43.8	17.4	0.00e+00	0	44	0	0	55	4478
2026-01-08 23:25:44.55	160.36	47.62	-41.5	-43.5	17.6	0.00e+00	0	44	0	0	54	4576
2026-01-08 23:25:45.41	160.64	47.39	-42.3	-44.4	16.6	0.00e+00	0	44	0	0	55	4781
2026-01-08 23:25:46.56	161.00	47.09	-43.4	-45.8	15.5	0.00e+00	0	44	0	0	57	4988
2026-01-08 23:25:47.42	161.27	46.86	-43.5	-46.0	15.2	0.00e+00	0	44	0	0	57	5104
2026-01-08 23:25:48.56	161.62	46.55	-43.3	-45.7	15.5	0.00e+00	0	44	0	0	57	4971
2026-01-08 23:25:49.42	161.88	46.33	-43.0	-45.3	15.8	0.00e+00	0	44	0	0	57	4749
2026-01-08 23:25:50.57	162.22	46.02	-42.9	-45.2	16.0	0.00e+00	0	44	0	0	57	4673
2026-01-08 23:25:51.43	162.48	45.80	-43.0	-45.3	15.9	0.00e+00	0	44	0	0	57	4719
2026-01-08 23:25:52.64	162.82	45.48	-43.2	-45.6	15.6	0.00e+00	0	44	0	0	57	4887
2026-01-08 23:25:53.50	163.07	45.26	-43.2	-45.5	15.7	0.00e+00	0	44	0	0	57	4867
2026-01-08 23:25:54.72	163.41	44.94	-43.3	-45.7	15.5	0.00e+00	0	44	0	0	57	4960
2026-01-08 23:25:55.58	163.64	44.72	-43.5	-45.9	15.3	0.00e+00	0	44	0	0	57	5096
2026-01-08 23:25:56.73	163.95	44.42	-43.2	-45.6	15.7	0.00e+00	0	44	0	0	57	4899
2026-01-08 23:25:57.59	164.18	44.20	-43.1	-45.4	15.9	0.00e+00	0	44	0	0	57	4809
2026-01-08 23:25:58.73	164.48	43.91	-43.2	-45.5	15.7	0.00e+00	0	44	0	0	57	4866
2026-01-08 23:25:59.63	164.71	43.68	-43.4	-45.8	15.4	0.00e+00	0	44	0	0	57	5018
2026-01-08 23:26:00.94	165.04	43.35	-43.5	-46.0	15.2	0.00e+00	0	44	0	0	57	5101
2026-01-08 23:26:01.66	165.22	43.17	-43.6	-46.2	15.1	0.00e+00	0	44	0	0	57	5223
2026-01-08 23:26:03.16	165.58	42.79	-42.7	-44.9	16.4	0.00e+00	0	44	0	0	57	4499
2026-01-08 23:26:03.88	165.76	42.61	-42.3	-44.4	16.9	0.00e+00	0	44	0	0	56	4527
2026-01-08 23:26:05.17	166.06	42.29	-42.3	-44.4	16.8	0.00e+00	0	44	0	0	56	4533
2026-01-08 23:26:05.89	166.23	42.11	-42.4	-44.5	16.8	0.00e+00	0	44	0	0	56	4553
2026-01-08 23:26:07.30	166.55	41.76	-42.6	-44.8	16.5	0.00e+00	0	44	0	0	56	4723
2026-01-08 23:26:08.02	166.71	41.59	-42.6	-44.8	16.4	0.00e+00	0	44	0	0	56	4743
2026-01-08 23:26:09.31	167.00	41.27	-42.7	-44.9	16.3	0.00e+00	0	44	0	0	56	4790
2026-01-08 23:26:10.03	167.16	41.10	-42.6	-44.8	16.3	0.00e+00	0	43	0	0	56	4745
2026-01-08 23:26:11.31	167.44	40.79	-42.9	-45.2	15.9	0.00e+00	0	44	0	0	56	4960
2026-01-08 23:26:12.03	167.59	40.62	-42.9	-45.2	16.0	0.00e+00	0	44	0	0	56	4958
2026-01-08 23:26:13.32	167.86	40.31	-42.8	-45.1	16.2	0.00e+00	0	43	0	0	56	4891
2026-01-08 23:26:14.04	168.01	40.14	-42.9	-45.1	16.2	0.00e+00	0	44	0	0	56	4917
2026-01-08 23:26:15.33	168.27	39.83	-42.9	-45.1	16.1	0.00e+00	0	44	0	0	56	4910
2026-01-08 23:26:16.08	168.42	39.65	-42.8	-45.0	16.2	0.00e+00	0	44	0	0	56	4849
2026-01-08 23:26:17.68	168.74	39.28	-43.2	-45.5	15.7	0.00e+00	0	44	0	0	57	4840
2026-01-08 23:26:18.51	168.90	39.08	-43.3	-45.6	15.6	0.00e+00	0	44	0	0	57	4915
2026-01-08 23:26:19.66	169.12	38.82	-43.1	-45.4	15.8	0.00e+00	0	44	0	0	57	4794
2026-01-08 23:26:20.52	169.28	38.62	-42.9	-45.2	16.1	0.00e+00	0	44	0	0	57	4664
2026-01-08 23:26:21.66	169.49	38.36	-42.5	-44.7	16.6	0.00e+00	0	44	0	0	57	4406
2026-01-08 23:26:22.52	169.65	38.16	-42.3	-44.4	16.8	0.00e+00	0	44	0	0	56	4522
2026-01-08 23:26:23.66	169.86	37.90	-42.4	-44.5	16.7	0.00e+00	0	44	0	0	56	4577
2026-01-08 23:26:24.52	170.01	37.71	-42.3	-44.5	16.6	0.00e+00	0	44	0	0	56	4580
2026-01-08 23:26:25.67	170.21	37.45	-42.3	-44.5	16.5	0.00e+00	0	44	0	0	56	4575
2026-01-08 23:26:26.66	170.38	37.23	-42.3	-44.4	16.4	0.00e+00	0	44	0	0	56	4544
2026-01-08 23:26:27.66	170.56	37.01	-42.2	-44.4	16.4	0.00e+00	0	44	0	0	56	4517
2026-01-08 23:26:28.87	170.76	36.74	-41.6	-43.7	17.1	0.00e+00	0	44	0	0	55	4415
2026-01-08 23:26:29.76	170.91	36.55	-41.3	-43.3	17.5	0.00e+00	0	44	0	0	54	4451
2026-01-08 23:26:30.90	171.10	36.30	-41.0	-42.9	17.8	0.00e+00	0	44	0	0	54	4290
2026-01-08 23:26:31.76	171.24	36.11	-41.1	-43.1	17.8	0.00e+00	0	44	0	0	54	4364
2026-01-08 23:26:33.13	171.45	35.82	-41.1	-43.0	17.9	0.00e+00	0	44	0	0	54	4332
2026-01-08 23:26:33.85	171.57	35.66	-41.0	-42.9	18.0	0.00e+00	0	44	0	0	54	4291
2026-01-08 23:26:35.14	171.77	35.39	-41.1	-43.0	17.9	0.00e+00	0	44	0	0	53	4577
2026-01-08 23:26:35.85	171.88	35.24	-41.1	-43.0	17.9	0.00e+00	0	44	0	0	53	4590
2026-01-08 23:26:37.14	172.07	34.97	-41.3	-43.3	17.7	0.00e+00	0	44	0	0	53	4756
2026-01-08 23:26:37.92	172.19	34.81	-41.3	-43.2	17.8	0.00e+00	0	44	0	0	53	4699
2026-01-08 23:26:39.21	172.38	34.54	-41.2	-43.2	17.9	0.00e+00	0	44	0	0	53	4652
2026-01-08 23:26:39.93	172.49	34.39	-41.1	-43.1	18.0	0.00e+00	0	44	0	0	53	4599
2026-01-08 23:26:41.22	172.67	34.12	-41.2	-43.2	17.8	0.00e+00	0	44	0	0	53	4663
2026-01-08 23:26:41.93	172.78	33.98	-41.5	-43.5	17.6	0.00e+00	0	44	0	0	53	4835
2026-01-08 23:26:43.22	172.96	33.71	-41.8	-43.9	17.2	0.00e+00	0	44	0	0	54	4781
2026-01-08 23:26:44.13	173.08	33.53	-42.0	-44.1	17.0	0.00e+00	0	44	0	0	54	4894
2026-01-08 23:26:45.14	173.22	33.33	-42.0	-44.1	17.0	0.00e+00	0	44	0	0	54	4886
2026-01-08 23:26:46.14	173.36	33.13	-42.0	-44.1	16.9	0.00e+00	0	44	0	0	54	4920
2026-01-08 23:26:47.14	173.49	32.93	-42.0	-44.1	16.9	0.00e+00	0	44	0	0	54	4913
2026-01-08 23:26:48.15	173.63	32.73	-41.9	-44.0	16.9	0.00e+00	0	44	0	0	54	4848
2026-01-08 23:26:49.15	173.76	32.53	-41.7	-43.7	17.2	0.00e+00	0	44	0	0	54	4696
2026-01-08 23:26:50.15	173.89	32.34	-41.0	-43.0	17.9	0.00e+00	0	44	0	0	54	4309
2026-01-08 23:26:51.19	174.02	32.14	-40.7	-42.5	18.2	0.00e+00	0	44	0	0	53	4340
2026-01-08 23:26:52.19	174.15	31.94	-40.7	-42.6	18.2	0.00e+00	0	44	0	0	53	4357
2026-01-08 23:26:53.25	174.28	31.74	-40.6	-42.5	18.2	0.00e+00	0	44	0	0	53	4333
2026-01-08 23:26:54.14	174.39	31.57	-40.5	-42.4	18.4	0.00e+00	0	44	0	0	53	4271
2026-01-08 23:26:55.15	174.51	31.38	-40.4	-42.3	18.5	0.00e+00	0	44	0	0	52	4465
2026-01-08 23:26:56.36	174.66	31.15	-40.4	-42.3	18.6	0.00e+00	0	44	0	0	52	4456
2026-01-08 23:26:57.25	174.77	30.98	-40.5	-42.3	18.5	0.00e+00	0	43	0	0	52	4485
2026-01-08 23:26:58.27	174.89	30.79	-40.3	-42.1	18.8	0.00e+00	0	44	0	0	52	4375
2026-01-08 23:26:59.47	175.03	30.57	-40.5	-42.4	18.6	0.00e+00	0	44	0	0	52	4494
2026-01-08 23:27:00.36	175.13	30.41	-40.4	-42.2	18.7	0.00e+00	0	44	0	0	52	4422
2026-01-08 23:27:01.39	175.25	30.22	-40.5	-42.3	18.6	0.00e+00	0	44	0	0	52	4490
2026-01-08 23:27:02.39	175.36	30.04	-40.4	-42.2	18.7	0.00e+00	0	44	0	0	52	4435
2026-01-08 23:27:03.39	175.47	29.85	-40.5	-42.4	18.6	0.00e+00	0	44	0	0	52	4513
2026-01-08 23:27:04.40	175.58	29.67	-40.6	-42.5	18.5	0.00e+00	0	43	0	0	52	4559
2026-01-08 23:27:05.40	175.69	29.49	-40.7	-42.6	18.4	0.00e+00	0	44	0	0	52	4622
2026-01-08 23:27:06.40	175.80	29.32	-40.9	-42.8	18.2	0.00e+00	0	43	0	0	52	4725
2026-01-08 23:27:07.41	175.91	29.14	-41.0	-43.0	18.0	0.00e+00	0	44	0	0	52	4832
2026-01-08 23:27:08.41	176.01	28.96	-41.0	-43.0	18.0	0.00e+00	0	44	0	0	52	4844
2026-01-08 23:27:09.41	176.12	28.79	-41.2	-43.2	17.8	0.00e+00	0	44	0	0	52	4938
2026-01-08 23:27:10.42	176.22	28.61	-41.2	-43.2	17.7	0.00e+00	0	44	0	0	53	4689
2026-01-08 23:27:11.42	176.32	28.44	-41.3	-43.3	17.7	0.00e+00	0	44	0	0	53	4731
2026-01-08 23:27:12.42	176.43	28.26	-41.3	-43.3	17.7	0.00e+00	0	44	0	0	53	4708
2026-01-08 23:27:13.43	176.53	28.09	-41.2	-43.2	17.7	0.00e+00	0	44	0	0	53	4667
2026-01-08 23:27:14.48	176.63	27.91	-41.1	-43.1	17.8	0.00e+00	0	44	0	0	53	4621
2026-01-08 23:27:15.40	176.72	27.76	-41.1	-43.0	17.9	0.00e+00	0	43	0	0	53	4592
2026-01-08 23:27:16.40	176.82	27.59	-40.9	-42.9	18.0	0.00e+00	0	43	0	0	53	4527
2026-01-08 23:27:17.40	176.92	27.42	-40.9	-42.9	18.0	0.00e+00	0	44	0	0	53	4499
2026-01-08 23:27:18.41	177.01	27.25	-40.8	-42.8	18.1	0.00e+00	0	44	0	0	53	4452
2026-01-08 23:27:19.41	177.11	27.09	-40.8	-42.8	18.1	0.00e+00	0	43	0	0	53	4448
2026-01-08 23:27:20.41	177.20	26.92	-40.6	-42.5	18.3	0.00e+00	0	44	0	0	53	4338
2026-01-08 23:27:21.42	177.29	26.76	-40.5	-42.4	18.4	0.00e+00	0	44	0	0	53	4275
2026-01-08 23:27:22.42	177.39	26.60	-40.4	-42.3	18.5	0.00e+00	0	44	0	0	52	4471
2026-01-08 23:27:23.42	177.48	26.44	-40.4	-42.3	18.6	0.00e+00	0	44	0	0	52	4442
2026-01-08 23:27:24.42	177.57	26.27	-40.3	-42.1	18.7	0.00e+00	0	44	0	0	52	4371
2026-01-08 23:27:25.43	177.66	26.11	-40.1	-41.9	18.9	0.00e+00	0	43	0	0	52	4276
2026-01-08 23:27:26.43	177.75	25.95	-40.0	-41.8	19.0	0.00e+00	0	44	0	0	52	4225
2026-01-08 23:27:27.44	177.83	25.79	-40.0	-41.8	19.0	0.00e+00	0	43	0	0	51	4478
2026-01-08 23:27:28.44	177.92	25.64	-39.9	-41.7	19.1	0.00e+00	0	44	0	0	51	4403
2026-01-08 23:27:29.50	178.01	25.47	-39.7	-41.4	19.4	0.00e+00	0	43	0	0	51	4264
2026-01-08 23:27:30.36	178.08	25.34	-39.6	-41.3	19.4	0.00e+00	0	44	0	0	51	4241
2026-01-08 23:27:31.51	178.18	25.16	-39.6	-41.3	19.4	0.00e+00	0	44	0	0	51	4215
2026-01-08 23:27:32.37	178.25	25.03	-39.7	-41.5	19.3	0.00e+00	0	44	0	0	51	4293
2026-01-08 23:27:33.52	178.35	24.85	-39.8	-41.6	19.2	0.00e+00	0	44	0	0	51	4367
2026-01-08 23:27:34.38	178.42	24.72	-39.9	-41.7	19.2	0.00e+00	0	43	0	0	51	4407
2026-01-08 23:27:35.52	178.51	24.55	-40.0	-41.8	19.1	0.00e+00	0	44	0	0	51	4461
2026-01-08 23:27:36.38	178.58	24.42	-40.0	-41.8	19.1	0.00e+00	0	44	0	0	51	4453
2026-01-08 23:27:37.53	178.67	24.24	-40.0	-41.8	19.1	0.00e+00	0	43	0	0	51	4477
2026-01-08 23:27:38.39	178.74	24.12	-40.0	-41.8	19.1	0.00e+00	0	44	0	0	51	4489
2026-01-08 23:27:39.54	178.83	23.95	-40.2	-42.0	18.9	0.00e+00	0	44	0	0	51	4563
2026-01-08 23:27:40.40	178.89	23.82	-40.2	-42.0	18.9	0.00e+00	0	44	0	0	51	4570
2026-01-08 23:27:41.54	178.98	23.65	-40.5	-42.3	18.6	0.00e+00	0	44	0	0	51	4745
2026-01-08 23:27:42.40	179.05	23.53	-40.3	-42.1	18.8	0.00e+00	0	44	0	0	51	4651
2026-01-08 23:27:43.66	179.14	23.34	-40.3	-42.1	18.8	0.00e+00	0	44	0	0	51	4647
2026-01-08 23:27:44.42	179.20	23.23	-40.4	-42.2	18.7	0.00e+00	0	44	0	0	51	4698
2026-01-08 23:27:45.71	179.30	23.05	-40.2	-42.1	18.8	0.00e+00	0	44	0	0	51	4605
2026-01-08 23:27:46.43	179.35	22.95	-40.3	-42.1	18.8	0.00e+00	0	44	0	0	51	4632
2026-01-08 23:27:47.72	179.44	22.76	-40.3	-42.2	18.7	0.00e+00	0	44	0	0	51	4680
2026-01-08 23:27:48.47	179.50	22.66	-40.3	-42.2	18.7	0.00e+00	0	43	0	0	51	4684
2026-01-08 23:27:49.76	179.59	22.48	-40.3	-42.2	18.7	0.00e+00	0	44	0	0	51	4661
2026-01-08 23:27:50.47	179.64	22.38	-40.4	-42.3	18.6	0.00e+00	0	44	0	0	51	4714
2026-01-08 23:27:51.76	179.73	22.20	-40.4	-42.3	18.6	0.00e+00	0	44	0	0	51	4712
2026-01-08 23:27:52.61	179.79	22.08	-40.4	-42.4	18.5	0.00e+00	0	44	0	0	51	4762
2026-01-08 23:27:53.75	179.87	21.92	-40.3	-42.2	18.6	0.00e+00	0	44	0	0	51	4701
2026-01-08 23:27:54.61	179.93	21.81	-40.4	-42.3	18.6	0.00e+00	0	44	0	0	51	4708
2026-01-08 23:27:55.76	180.00	21.65	-40.4	-42.3	18.5	0.00e+00	0	44	0	0	51	4749
2026-01-08 23:27:56.62	180.06	21.53	-40.4	-42.2	18.6	0.00e+00	0	44	0	0	51	4703
2026-01-08 23:27:57.77	180.14	21.38	-40.3	-42.2	18.6	0.00e+00	0	44	0	0	51	4696
2026-01-08 23:27:58.63	180.20	21.26	-40.3	-42.2	18.6	0.00e+00	0	44	0	0	51	4680
2026-01-08 23:27:59.77	180.27	21.11	-40.3	-42.1	18.7	0.00e+00	0	44	0	0	51	4638
2026-01-08 23:28:00.63	180.33	21.00	-40.2	-42.1	18.7	0.00e+00	0	44	0	0	51	4632
2026-01-08 23:28:01.78	180.40	20.84	-40.3	-42.2	18.7	0.00e+00	0	44	0	0	51	4668
2026-01-08 23:28:02.72	180.46	20.72	-40.3	-42.2	18.6	0.00e+00	0	44	0	0	51	4679
2026-01-08 23:28:03.90	180.54	20.57	-40.3	-42.2	18.7	0.00e+00	0	44	0	0	51	4652
2026-01-08 23:28:04.76	180.59	20.45	-40.4	-42.3	18.5	0.00e+00	0	44	0	0	51	4736
2026-01-08 23:28:06.11	180.67	20.28	-40.4	-42.3	18.5	0.00e+00	0	44	0	0	51	4711
2026-01-08 23:28:06.83	180.72	20.19	-40.4	-42.3	18.5	0.00e+00	0	44	0	0	51	4717
2026-01-08 23:28:08.12	180.80	20.02	-40.5	-42.5	18.4	0.00e+00	0	44	0	0	51	4815
2026-01-08 23:28:08.83	180.84	19.93	-40.4	-42.3	18.4	0.00e+00	0	44	0	0	51	4748
2026-01-08 23:28:10.12	180.92	19.77	-40.4	-42.4	18.4	0.00e+00	0	44	0	0	51	4774
2026-01-08 23:28:10.89	180.97	19.67	-40.5	-42.4	18.4	0.00e+00	0	44	0	0	51	4804
2026-01-08 23:28:12.18	181.04	19.51	-40.6	-42.6	18.2	0.00e+00	0	44	0	0	51	4880
2026-01-08 23:28:12.99	181.09	19.41	-40.6	-42.5	18.3	0.00e+00	0	44	0	0	51	4851
2026-01-08 23:28:14.13	181.16	19.26	-40.6	-42.5	18.3	0.00e+00	0	44	0	0	51	4828
2026-01-08 23:28:14.99	181.21	19.16	-40.6	-42.5	18.2	0.00e+00	0	44	0	0	51	4847
2026-01-08 23:28:16.14	181.27	19.02	-40.5	-42.4	18.3	0.00e+00	0	44	0	0	51	4782
2026-01-08 23:28:17.27	181.34	18.88	-40.6	-42.5	18.2	0.00e+00	0	44	0	0	51	4833
2026-01-08 23:28:18.13	181.39	18.77	-40.5	-42.4	18.3	0.00e+00	0	44	0	0	51	4796
2026-01-08 23:28:19.28	181.45	18.63	-40.4	-42.3	18.4	0.00e+00	0	44	0	0	51	4734
2026-01-08 23:28:20.14	181.50	18.53	-40.4	-42.3	18.3	0.00e+00	0	44	0	0	51	4746
2026-01-08 23:28:21.28	181.56	18.39	-40.4	-42.3	18.3	0.00e+00	0	44	0	0	51	4754
2026-01-08 23:28:22.41	181.63	18.26	-40.5	-42.4	18.2	0.00e+00	0	44	0	0	51	4796
2026-01-08 23:28:23.27	181.67	18.16	-40.4	-42.4	18.3	0.00e+00	0	44	0	0	51	4764
2026-01-08 23:28:24.42	181.73	18.02	-40.5	-42.4	18.3	0.00e+00	0	44	0	0	51	4768
2026-01-08 23:28:25.28	181.78	17.92	-40.6	-42.5	18.2	0.00e+00	0	44	0	0	51	4833
2026-01-08 23:28:26.42	181.84	17.78	-40.5	-42.5	18.2	0.00e+00	0	44	0	0	51	4827
2026-01-08 23:28:27.28	181.89	17.68	-40.6	-42.5	18.1	0.00e+00	0	44	0	0	51	4868
2026-01-08 23:28:28.43	181.95	17.55	-40.6	-42.5	18.2	0.00e+00	0	44	0	0	51	4853
2026-01-08 23:28:29.29	181.99	17.45	-40.6	-42.6	18.1	0.00e+00	0	44	0	0	52	4600
2026-01-08 23:28:30.43	182.05	17.32	-40.6	-42.5	18.2	0.00e+00	0	44	0	0	52	4571
2026-01-08 23:28:31.29	182.10	17.22	-40.5	-42.5	18.2	0.00e+00	0	44	0	0	52	4557
2026-01-08 23:28:32.53	182.16	17.08	-40.6	-42.5	18.2	0.00e+00	0	44	0	0	52	4588
2026-01-08 23:28:33.39	182.20	16.98	-40.7	-42.6	18.1	0.00e+00	0	44	0	0	52	4638
2026-01-08 23:28:34.53	182.26	16.85	-40.7	-42.6	18.1	0.00e+00	0	44	0	0	52	4642
2026-01-08 23:28:35.39	182.30	16.75	-40.6	-42.6	18.2	0.00e+00	0	44	0	0	52	4606
2026-01-08 23:28:36.54	182.36	16.63	-40.6	-42.6	18.2	0.00e+00	0	44	0	0	52	4611
2026-01-08 23:28:37.40	182.40	16.53	-40.7	-42.7	18.1	0.00e+00	0	44	0	0	52	4663
2026-01-08 23:28:38.55	182.46	16.40	-40.6	-42.6	18.2	0.00e+00	0	44	0	0	52	4628
2026-01-08 23:28:39.41	182.50	16.31	-40.7	-42.7	18.1	0.00e+00	0	44	0	0	52	4668
2026-01-08 23:28:40.55	182.56	16.18	-40.7	-42.7	18.1	0.00e+00	0	44	0	0	52	4665
2026-01-08 23:28:41.41	182.60	16.09	-40.6	-42.6	18.1	0.00e+00	0	44	0	0	52	4632
2026-01-08 23:28:42.56	182.65	15.96	-40.7	-42.7	18.1	0.00e+00	0	44	0	0	52	4669
2026-01-08 23:28:43.42	182.69	15.87	-40.7	-42.7	18.0	0.00e+00	0	44	0	0	52	4679
2026-01-08 23:28:44.57	182.75	15.74	-40.7	-42.7	18.0	0.00e+00	0	44	0	0	52	4690
2026-01-08 23:28:45.43	182.79	15.65	-40.7	-42.7	18.1	0.00e+00	0	44	0	0	52	4684
2026-01-08 23:28:46.58	182.84	15.53	-40.7	-42.7	18.0	0.00e+00	0	44	0	0	52	4702
2026-01-08 23:28:47.44	182.88	15.43	-40.8	-42.8	18.0	0.00e+00	0	44	0	0	52	4731
2026-01-08 23:28:48.58	182.93	15.31	-40.8	-42.9	17.8	0.00e+00	0	44	0	0	52	4780
2026-01-08 23:28:49.45	182.97	15.22	-40.8	-42.8	17.9	0.00e+00	0	44	0	0	52	4733
2026-01-08 23:28:50.59	183.03	15.10	-40.8	-42.9	17.9	0.00e+00	0	44	0	0	52	4778
2026-01-08 23:28:51.45	183.06	15.01	-40.9	-42.9	17.8	0.00e+00	0	44	0	0	52	4810
2026-01-08 23:28:52.60	183.12	14.89	-40.9	-43.0	17.7	0.00e+00	0	44	0	0	52	4857
2026-01-08 23:28:53.53	183.16	14.79	-40.9	-43.0	17.7	0.00e+00	0	44	0	0	52	4848
2026-01-08 23:28:54.54	183.20	14.69	-41.0	-43.1	17.7	0.00e+00	0	44	0	0	52	4892
2026-01-08 23:28:55.54	183.25	14.58	-41.0	-43.1	17.6	0.00e+00	0	44	0	0	52	4908
2026-01-08 23:28:56.54	183.29	14.48	-41.1	-43.2	17.5	0.00e+00	0	44	0	0	52	4951
2026-01-08 23:28:57.55	183.33	14.38	-41.2	-43.3	17.4	0.00e+00	0	44	0	0	53	4743
2026-01-08 23:28:58.55	183.38	14.28	-41.1	-43.3	17.4	0.00e+00	0	44	0	0	53	4718
2026-01-08 23:28:59.55	183.42	14.17	-41.3	-43.5	17.2	0.00e+00	0	44	0	0	53	4832
2026-01-08 23:29:00.56	183.46	14.07	-41.2	-43.4	17.3	0.00e+00	0	44	0	0	53	4797
2026-01-08 23:29:01.56	183.50	13.97	-41.3	-43.5	17.3	0.00e+00	0	44	0	0	53	4819
2026-01-08 23:29:02.57	183.55	13.87	-41.4	-43.6	17.1	0.00e+00	0	44	0	0	53	4914
2026-01-08 23:29:03.57	183.59	13.77	-41.4	-43.6	17.1	0.00e+00	0	43	0	0	53	4902
2026-01-08 23:29:04.58	183.63	13.67	-41.5	-43.7	17.0	0.00e+00	0	44	0	0	53	4974
2026-01-08 23:29:05.58	183.67	13.57	-41.5	-43.8	17.0	0.00e+00	0	44	0	0	53	4989
2026-01-08 23:29:06.58	183.71	13.47	-41.6	-43.9	16.9	0.00e+00	0	44	0	0	53	5054
2026-01-08 23:29:07.58	183.75	13.37	-41.5	-43.8	16.9	0.00e+00	0	44	0	0	53	5005
2026-01-08 23:29:08.58	183.79	13.27	-41.6	-43.8	16.9	0.00e+00	0	44	0	0	53	5035
2026-01-08 23:29:09.59	183.83	13.18	-41.5	-43.8	16.9	0.00e+00	0	44	0	0	53	5008
2026-01-08 23:29:10.59	183.87	13.08	-41.5	-43.8	16.9	0.00e+00	0	44	0	0	53	5003
2026-01-08 23:29:11.60	183.91	12.98	-41.6	-43.8	16.9	0.00e+00	0	44	0	0	53	5034
2026-01-08 23:29:12.60	183.95	12.88	-41.6	-43.9	16.9	0.00e+00	0	44	0	0	53	5045
2026-01-08 23:29:13.60	183.99	12.79	-41.6	-43.8	16.9	0.00e+00	0	44	0	0	53	5013
2026-01-08 23:29:14.61	184.03	12.69	-41.6	-43.9	16.9	0.00e+00	0	44	0	0	53	5044
2026-01-08 23:29:15.61	184.07	12.60	-41.6	-43.8	16.9	0.00e+00	0	44	0	0	53	5005
2026-01-08 23:29:16.61	184.11	12.50	-41.6	-43.9	16.8	0.00e+00	0	44	0	0	53	5048
2026-01-08 23:29:17.61	184.14	12.41	-41.6	-43.8	16.8	0.00e+00	0	44	0	0	53	5032
2026-01-08 23:29:18.62	184.18	12.31	-41.6	-43.9	16.8	0.00e+00	0	44	0	0	53	5062
2026-01-08 23:29:19.62	184.22	12.22	-41.7	-43.9	16.8	0.00e+00	0	44	0	0	54	4811
2026-01-08 23:29:20.69	184.26	12.12	-41.8	-44.1	16.6	0.00e+00	0	44	0	0	54	4904
2026-01-08 23:29:21.56	184.29	12.03	-41.6	-43.9	16.8	0.00e+00	0	44	0	0	54	4779
2026-01-08 23:29:22.71	184.34	11.93	-41.6	-43.9	16.8	0.00e+00	0	44	0	0	54	4778
2026-01-08 23:29:23.57	184.37	11.85	-41.7	-43.9	16.7	0.00e+00	0	44	0	0	54	4812
2026-01-08 23:29:24.71	184.41	11.74	-41.8	-44.0	16.7	0.00e+00	0	44	0	0	54	4850
2026-01-08 23:29:25.70	184.45	11.65	-41.7	-43.9	16.7	0.00e+00	0	44	0	0	54	4797
2026-01-08 23:29:26.70	184.48	11.56	-41.8	-44.0	16.6	0.00e+00	0	44	0	0	54	4859
2026-01-08 23:29:27.70	184.52	11.47	-41.8	-44.1	16.6	0.00e+00	0	44	0	0	54	4888
2026-01-08 23:29:28.98	184.56	11.35	-41.8	-44.0	16.6	0.00e+00	0	44	0	0	54	4847
2026-01-08 23:29:29.73	184.59	11.29	-41.7	-44.0	16.6	0.00e+00	0	44	0	0	54	4848
2026-01-08 23:29:31.02	184.64	11.17	-41.8	-44.1	16.5	0.00e+00	0	44	0	0	54	4878
2026-01-08 23:29:31.74	184.66	11.10	-41.8	-44.0	16.6	0.00e+00	0	44	0	0	54	4857
2026-01-08 23:29:33.02	184.71	10.99	-41.9	-44.2	16.4	0.00e+00	0	44	0	0	54	4939
2026-01-08 23:29:33.74	184.73	10.92	-41.8	-44.0	16.5	0.00e+00	0	44	0	0	54	4867
2026-01-08 23:29:35.03	184.78	10.81	-41.8	-44.1	16.5	0.00e+00	0	44	0	0	54	4881
2026-01-08 23:29:35.74	184.80	10.75	-41.9	-44.2	16.4	0.00e+00	0	44	0	0	54	4936
2026-01-08 23:29:37.03	184.84	10.63	-41.8	-44.1	16.5	0.00e+00	0	44	0	0	54	4911
2026-01-08 23:29:37.75	184.87	10.57	-41.8	-44.2	16.4	0.00e+00	0	44	0	0	54	4938
2026-01-08 23:29:39.09	184.91	10.45	-41.7	-44.0	16.5	0.00e+00	0	44	0	0	54	4852
2026-01-08 23:29:40.06	184.95	10.37	-41.9	-44.2	16.4	0.00e+00	0	44	0	0	54	4955
2026-01-08 23:29:41.06	184.98	10.28	-41.8	-44.1	16.4	0.00e+00	0	44	0	0	54	4914
2026-01-08 23:29:42.06	185.01	10.19	-41.8	-44.1	16.4	0.00e+00	0	44	0	0	54	4902
2026-01-08 23:29:43.07	185.05	10.11	-42.0	-44.3	16.2	0.00e+00	0	44	0	0	54	5037
2026-01-08 23:29:44.07	185.08	10.02	-41.9	-44.3	16.3	0.00e+00	0	44	0	0	54	4992
2026-01-08 23:29:45.07	185.11	9.93	-41.9	-44.3	16.3	0.00e+00	0	44	0	0	54	5002
2026-01-08 23:29:46.07	185.14	9.85	-41.8	-44.2	16.3	0.00e+00	0	44	0	0	54	4944
2026-01-08 23:29:47.08	185.18	9.76	-41.9	-44.2	16.3	0.00e+00	0	44	0	0	54	4975
2026-01-08 23:29:48.08	185.21	9.68	-41.9	-44.2	16.3	0.00e+00	0	44	0	0	54	4957
2026-01-08 23:29:49.18	185.25	9.58	-41.8	-44.2	16.4	0.00e+00	0	44	0	0	54	4955
2026-01-08 23:29:50.07	185.27	9.51	-41.8	-44.2	16.3	0.00e+00	0	44	0	0	54	4953
2026-01-08 23:29:51.21	185.31	9.41	-41.9	-44.2	16.3	0.00e+00	0	44	0	0	54	4974
2026-01-08 23:29:52.16	185.34	9.33	-41.9	-44.3	16.2	0.00e+00	0	44	0	0	54	5022
2026-01-08 23:29:53.17	185.37	9.25	-41.9	-44.3	16.2	0.00e+00	0	44	0	0	54	5040
2026-01-08 23:29:54.17	185.40	9.17	-41.9	-44.3	16.2	0.00e+00	0	44	0	0	54	5006
2026-01-08 23:29:55.17	185.43	9.08	-41.9	-44.3	16.2	0.00e+00	0	44	0	0	54	5009
2026-01-08 23:29:56.18	185.46	9.00	-42.0	-44.4	16.1	0.00e+00	0	44	0	0	54	5092
2026-01-08 23:29:57.18	185.50	8.92	-48.4	-61.8	3.8	2.77e-01	0	44	104	0	67	17846
2026-01-08 23:29:58.19	185.53	8.83	-48.8	-62.1	3.8	1.49e+00	0	44	104	0	68	17409
2026-01-08 23:29:59.19	185.56	8.75	-48.9	-62.3	3.8	1.49e+00	0	44	104	0	68	17880
2026-01-08 23:30:00.20	185.59	8.67	-49.0	-62.5	3.8	1.49e+00	0	44	104	0	68	18130
2026-01-08 23:30:01.22	185.62	8.59	-49.1	-62.5	3.8	1.49e+00	0	44	104	0	68	18250
2026-01-08 23:30:02.29	185.65	8.50	-49.4	-62.5	3.8	1.49e+00	0	44	104	0	69	17247
2026-01-08 23:30:03.21	185.68	8.43	-49.5	-62.5	3.8	1.49e+00	0	44	104	0	69	17276
2026-01-08 23:30:04.39	185.71	8.33	-49.6	-62.6	3.8	1.49e+00	0	44	104	0	69	17352
2026-01-08 23:30:05.27	185.74	8.26	-49.4	-62.6	3.8	1.49e+00	0	44	104	0	69	17394
2026-01-08 23:30:06.61	185.78	8.15	-49.6	-62.6	3.8	1.49e+00	0	44	104	0	69	17407
2026-01-08 23:30:07.33	185.80	8.09	-49.6	-62.6	3.8	1.49e+00	0	44	104	0	70	16450
2026-01-08 23:30:08.82	185.84	7.98	-49.6	-62.7	3.8	1.49e+00	0	44	104	0	70	16547
2026-01-08 23:30:09.54	185.86	7.92	-49.7	-62.7	3.8	1.49e+00	0	44	104	0	70	16508
2026-01-08 23:30:10.83	185.90	7.82	-49.6	-62.7	3.8	1.49e+00	0	44	104	0	70	16581
2026-01-08 23:30:11.55	185.92	7.76	-49.5	-62.6	3.8	1.49e+00	0	44	104	0	70	16485
2026-01-08 23:30:12.84	185.96	7.66	-49.7	-62.7	3.8	1.49e+00	0	44	104	0	70	16567
2026-01-08 23:30:13.56	185.98	7.60	-49.5	-62.6	3.8	1.49e+00	0	44	104	0	70	16502
2026-01-08 23:30:14.85	186.01	7.50	-49.4	-62.7	3.8	1.49e+00	0	44	104	0	70	16545
2026-01-08 23:30:15.57	186.03	7.45	-49.6	-62.7	3.8	1.49e+00	0	44	104	0	69	17490
2026-01-08 23:30:16.86	186.07	7.35	-49.7	-62.7	3.8	1.49e+00	0	44	104	0	70	16607
2026-01-08 23:30:17.58	186.09	7.29	-49.8	-62.7	3.8	1.49e+00	0	44	104	0	70	16620
2026-01-08 23:30:18.87	186.12	7.19	-49.6	-62.7	3.8	1.49e+00	0	44	104	0	70	16538
2026-01-08 23:30:19.59	186.14	7.13	-49.7	-62.7	3.8	1.49e+00	0	44	104	0	70	16560
2026-01-08 23:30:20.88	186.18	7.04	-49.7	-62.7	3.8	1.49e+00	0	44	104	0	70	16565
2026-01-08 23:30:21.60	186.20	6.98	-49.5	-62.7	3.8	1.49e+00	0	44	104	0	70	16533
2026-01-08 23:30:22.89	186.23	6.88	-49.4	-62.6	3.8	1.49e+00	0	44	104	0	70	16489
2026-01-08 23:30:23.60	186.25	6.83	-49.1	-62.7	3.8	1.49e+00	0	44	104	0	70	16525
2026-01-08 23:30:24.89	186.29	6.73	-49.4	-62.6	3.8	1.49e+00	0	44	104	0	70	16465
2026-01-08 23:30:25.61	186.31	6.68	-49.4	-62.6	3.8	1.49e+00	0	44	104	0	70	16469
2026-01-08 23:30:26.90	186.34	6.58	-49.4	-62.6	3.8	1.49e+00	0	44	104	0	70	16445
2026-01-08 23:30:27.62	186.36	6.53	-49.4	-62.6	3.8	1.49e+00	0	44	104	0	70	16436
2026-01-08 23:30:28.91	186.39	6.43	-49.4	-62.6	3.8	1.49e+00	0	44	104	0	70	16433
2026-01-08 23:30:29.63	186.41	6.37	-49.4	-62.7	3.8	1.49e+00	0	44	104	0	70	16511
2026-01-08 23:30:30.92	186.45	6.28	-49.4	-62.6	3.8	1.49e+00	0	44	104	0	70	16471
2026-01-08 23:30:31.64	186.47	6.22	-49.4	-62.6	3.8	1.49e+00	0	44	104	0	70	16494
2026-01-08 23:30:32.93	186.50	6.13	-49.3	-62.6	3.8	1.49e+00	0	44	104	0	70	16491
2026-01-08 23:30:33.64	186.52	6.08	-49.4	-62.6	3.8	1.49e+00	0	44	104	0	70	16433
2026-01-08 23:30:34.94	186.55	5.98	-49.4	-62.6	3.8	1.49e+00	0	44	104	0	70	16438
2026-01-08 23:30:35.65	186.57	5.93	-49.3	-62.6	3.8	1.49e+00	0	44	104	0	70	16448
2026-01-08 23:30:36.94	186.60	5.83	-49.4	-62.6	3.8	1.49e+00	0	44	104	0	70	16424
2026-01-08 23:30:37.66	186.62	5.78	-49.4	-62.6	3.8	1.49e+00	0	44	104	0	70	16459
2026-01-08 23:30:38.95	186.65	5.69	-49.4	-62.7	3.8	1.49e+00	0	44	104	0	70	16533
2026-01-08 23:30:39.67	186.67	5.64	-49.4	-62.6	3.8	1.49e+00	0	44	104	0	70	16447
2026-01-08 23:30:40.96	186.70	5.54	-49.4	-62.6	3.8	1.49e+00	0	44	104	0	70	16489
2026-01-08 23:30:41.68	186.72	5.49	-49.4	-62.6	3.8	1.49e+00	0	44	104	0	70	16477
2026-01-08 23:30:42.97	186.75	5.40	-49.4	-62.6	3.8	1.49e+00	0	44	104	0	70	16419
2026-01-08 23:30:43.69	186.77	5.35	-49.4	-62.6	3.8	1.49e+00	0	44	104	0	70	16405
