passes_logs/2026/01/08/T1/T1__20260108_042257_FENGYUN_3G_rec.log

#Pass ID: 20260108_042257_FENGYUN 3G
#Satellite: FENGYUN 3G
#Configuration: FENGYUN 3G
#almurnet v.1.7.20251203
#Start time: 2026-01-08 04:22:57

#Version: 2.0.20230620
#Station: T1
#Location: 37.570604 lon 55.790049 lat
#TLE: 1 56232U 23055A   26007.71558733  .00028049  00000+0  44465-3 0  9995
#TLE: 2 56232  49.9934  93.5057 0004287 353.6464   6.4448 15.53114396155060

#Time	Az	El	Level	Level2	SNR	BER	BlckErr	Temp	State	Recorded	gain1	gain2
2026-01-08 04:22:57.86	259.09	4.77	-50.4	-69.4	3.8	8.46e-01	0	38	0	0	71	33968
2026-01-08 04:22:58.85	258.96	4.83	-50.4	-69.3	3.8	8.38e-01	0	38	104	0	72	31714
2026-01-08 04:22:59.86	258.83	4.90	-50.4	-69.3	3.8	8.47e-01	0	39	104	0	72	31479
2026-01-08 04:23:00.86	258.70	4.96	-50.4	-69.3	3.8	8.47e-01	0	39	104	0	72	31528
2026-01-08 04:23:01.87	258.56	5.03	-50.4	-69.3	3.8	8.47e-01	0	39	104	0	72	31766
2026-01-08 04:23:02.87	258.43	5.10	-50.3	-69.3	3.8	8.47e-01	0	39	104	0	72	31637
2026-01-08 04:23:03.88	258.29	5.16	-50.4	-69.3	3.8	8.47e-01	0	39	104	0	72	31475
2026-01-08 04:23:04.88	258.16	5.23	-50.4	-69.2	3.8	8.47e-01	0	39	104	0	72	31401
2026-01-08 04:23:05.88	258.02	5.30	-50.4	-69.1	3.8	8.47e-01	0	39	104	0	72	30936
2026-01-08 04:23:06.89	257.88	5.36	-50.4	-69.0	3.8	8.47e-01	0	39	104	0	72	30619
2026-01-08 04:23:07.89	257.75	5.43	-50.4	-69.0	3.8	8.47e-01	0	39	104	0	72	30531
2026-01-08 04:23:08.90	257.61	5.50	-50.4	-69.0	3.8	8.47e-01	0	39	104	0	72	30658
2026-01-08 04:23:09.90	257.47	5.56	-50.3	-69.2	3.8	8.47e-01	0	39	104	0	72	31179
2026-01-08 04:23:10.90	257.33	5.63	-50.4	-69.3	3.8	8.47e-01	0	39	104	0	72	31509
2026-01-08 04:23:11.91	257.18	5.70	-50.4	-69.4	3.8	8.47e-01	0	39	104	0	72	31843
2026-01-08 04:23:12.91	257.04	5.77	-50.4	-69.4	3.8	8.47e-01	0	39	104	0	72	31872
2026-01-08 04:23:13.92	256.89	5.83	-50.4	-69.4	3.8	8.47e-01	0	39	104	0	72	31943
2026-01-08 04:23:14.92	256.75	5.90	-50.3	-69.4	3.8	8.47e-01	0	39	104	0	72	31906
2026-01-08 04:23:15.93	256.60	5.97	-50.4	-69.3	3.8	8.46e-01	0	39	104	0	72	31738
2026-01-08 04:23:16.93	256.46	6.04	-50.4	-69.2	3.8	8.47e-01	0	39	104	0	72	31424
2026-01-08 04:23:17.93	256.31	6.10	-50.4	-69.2	3.8	8.47e-01	0	39	104	0	72	31349
2026-01-08 04:23:18.94	256.16	6.17	-50.4	-69.2	3.8	8.47e-01	0	39	104	0	72	31135
2026-01-08 04:23:19.94	256.01	6.24	-50.4	-69.2	3.8	8.47e-01	0	39	104	0	72	31210
2026-01-08 04:23:20.95	255.86	6.31	-50.4	-69.3	3.8	8.47e-01	0	39	104	0	72	31515
2026-01-08 04:23:21.95	255.71	6.38	-50.4	-69.3	3.8	8.47e-01	0	39	104	0	72	31684
2026-01-08 04:23:22.96	255.55	6.45	-50.3	-69.3	3.8	8.47e-01	0	39	104	0	72	31764
2026-01-08 04:23:23.96	255.40	6.52	-50.3	-69.4	3.8	8.47e-01	0	39	104	0	72	31899
2026-01-08 04:23:24.97	255.24	6.59	-50.4	-69.4	3.8	8.47e-01	0	40	104	0	72	31856
2026-01-08 04:23:25.97	255.09	6.65	-50.3	-69.3	3.8	8.47e-01	0	39	104	0	72	31762
2026-01-08 04:23:26.97	254.93	6.72	-50.3	-69.3	3.8	8.46e-01	0	40	104	0	72	31674
2026-01-08 04:23:27.98	254.77	6.79	-50.3	-69.3	3.8	8.46e-01	0	39	104	0	72	31532
2026-01-08 04:23:28.98	254.61	6.86	-50.4	-69.2	3.8	8.47e-01	0	39	104	0	72	31434
2026-01-08 04:23:29.99	254.45	6.93	-50.3	-69.3	3.8	8.47e-01	0	40	104	0	72	31516
2026-01-08 04:23:30.99	254.29	7.00	-50.4	-69.3	3.8	8.47e-01	0	39	104	0	72	31528
2026-01-08 04:23:31.99	254.13	7.07	-50.4	-69.3	3.8	8.47e-01	0	40	104	0	72	31536
2026-01-08 04:23:33.00	253.96	7.14	-50.4	-69.3	3.8	8.46e-01	0	40	104	0	72	31494
2026-01-08 04:23:34.00	253.80	7.21	-50.3	-69.3	3.8	8.46e-01	0	40	104	0	72	31718
2026-01-08 04:23:35.01	253.63	7.28	-50.4	-69.3	3.8	8.48e-01	0	40	104	0	72	31741
2026-01-08 04:23:36.01	253.47	7.35	-50.4	-69.4	3.8	8.46e-01	0	40	104	0	72	31872
2026-01-08 04:23:37.02	253.30	7.42	-50.4	-69.3	3.8	8.46e-01	0	40	104	0	72	31602
2026-01-08 04:23:38.02	253.13	7.50	-50.4	-69.2	3.8	8.47e-01	0	40	104	0	72	31199
2026-01-08 04:23:39.03	252.96	7.57	-50.3	-69.2	3.8	8.47e-01	0	40	104	0	72	31266
2026-01-08 04:23:40.03	252.79	7.64	-50.3	-69.2	3.8	8.48e-01	0	40	104	0	72	31359
2026-01-08 04:23:41.04	252.61	7.71	-50.3	-69.3	3.8	8.48e-01	0	40	104	0	72	31472
2026-01-08 04:23:42.04	252.44	7.78	-50.3	-69.2	3.8	8.48e-01	0	40	104	0	72	31417
2026-01-08 04:23:43.05	252.26	7.85	-50.4	-69.1	3.8	8.46e-01	0	40	104	0	72	31086
2026-01-08 04:23:44.05	252.09	7.92	-50.4	-68.9	3.8	8.46e-01	0	40	104	0	72	30280
2026-01-08 04:23:45.05	251.91	7.99	-50.3	-68.7	3.8	8.47e-01	0	40	104	0	72	29447
2026-01-08 04:23:46.06	251.73	8.06	-50.3	-68.5	3.8	8.46e-01	0	40	104	0	72	29001
2026-01-08 04:23:47.06	251.55	8.14	-50.3	-68.6	3.8	8.46e-01	0	40	104	0	72	29179
2026-01-08 04:23:48.07	251.37	8.21	-50.3	-68.9	3.8	8.48e-01	0	40	104	0	72	30353
2026-01-08 04:23:49.07	251.19	8.28	-50.3	-69.2	3.8	8.48e-01	0	40	104	0	72	31398
2026-01-08 04:23:50.08	251.00	8.35	-50.4	-69.3	3.8	8.48e-01	0	40	104	0	72	31498
2026-01-08 04:23:51.08	250.82	8.42	-50.4	-69.1	3.8	8.47e-01	0	40	104	0	72	30974
2026-01-08 04:23:52.09	250.63	8.50	-50.3	-69.1	3.8	8.47e-01	0	40	104	0	72	30896
2026-01-08 04:23:53.09	250.44	8.57	-50.3	-69.2	3.8	8.47e-01	0	40	104	0	72	31106
2026-01-08 04:23:54.10	250.26	8.64	-50.4	-69.2	3.8	8.48e-01	0	40	104	0	72	31091
2026-01-08 04:23:55.10	250.07	8.71	-50.3	-68.7	3.8	8.46e-01	0	40	104	0	72	29607
2026-01-08 04:23:56.10	249.88	8.79	-50.3	-67.8	3.8	8.47e-01	0	40	104	0	72	26521
2026-01-08 04:23:57.11	249.68	8.86	-50.2	-65.1	4.3	8.47e-01	0	40	0	0	72	19422
2026-01-08 04:23:58.11	249.49	8.93	-50.0	-61.6	6.4	8.35e-01	0	40	0	0	72	13005
2026-01-08 04:23:59.12	249.29	9.00	-49.5	-58.0	10.0	3.01e-01	0	40	0	0	71	9154
2026-01-08 04:24:00.12	249.10	9.08	-48.8	-55.4	12.7	3.01e-01	0	40	0	0	69	7594
2026-01-08 04:24:01.13	248.90	9.15	-50.2	-65.1	4.6	3.39e-03	0	40	104	0	71	20754
2026-01-08 04:24:02.18	248.69	9.23	-49.7	-59.8	8.2	7.16e-01	0	40	0	0	70	11921
2026-01-08 04:24:03.07	248.51	9.29	-48.0	-53.2	15.0	7.16e-01	0	40	0	0	68	6232
2026-01-08 04:24:04.20	248.28	9.37	-44.6	-47.8	20.2	2.61e-02	0	40	0	0	61	4985
2026-01-08 04:24:05.06	248.11	9.43	-49.7	-60.4	7.8	3.16e-04	0	40	0	0	70	12778
2026-01-08 04:24:06.21	247.87	9.52	-44.4	-47.4	20.3	2.33e-02	0	40	0	0	60	5074
2026-01-08 04:24:07.07	247.70	9.58	-44.2	-47.1	20.8	2.33e-02	0	40	0	0	60	4918
2026-01-08 04:24:08.22	247.46	9.66	-44.3	-47.2	20.6	0.00e+00	0	40	0	0	60	4959
2026-01-08 04:24:09.08	247.28	9.73	-44.2	-47.1	20.8	0.00e+00	0	40	0	0	60	4873
2026-01-08 04:24:10.23	247.04	9.81	-43.7	-46.4	21.4	0.00e+00	0	40	0	0	59	4787
2026-01-08 04:24:11.09	246.86	9.87	-43.2	-45.8	21.9	0.00e+00	0	40	0	0	58	4754
2026-01-08 04:24:12.23	246.62	9.96	-42.9	-45.5	22.2	0.00e+00	0	40	0	0	57	4851
2026-01-08 04:24:13.09	246.43	10.02	-42.7	-45.4	22.3	0.00e+00	0	40	0	0	57	4785
2026-01-08 04:24:14.24	246.18	10.10	-42.6	-45.2	22.4	0.00e+00	0	40	0	0	57	4703
2026-01-08 04:24:15.10	246.00	10.17	-42.5	-45.2	22.4	0.00e+00	0	40	0	0	57	4675
2026-01-08 04:24:16.25	245.75	10.25	-42.6	-45.2	22.4	0.00e+00	0	40	0	0	57	4699
2026-01-08 04:24:17.11	245.56	10.31	-42.5	-45.1	22.6	0.00e+00	0	40	0	0	57	4629
2026-01-08 04:24:18.25	245.31	10.40	-42.4	-44.9	22.7	0.00e+00	0	40	0	0	56	4770
2026-01-08 04:24:19.11	245.11	10.46	-42.3	-44.7	22.9	0.00e+00	0	40	0	0	56	4700
2026-01-08 04:24:20.26	244.86	10.54	-42.3	-44.7	22.9	0.00e+00	0	40	0	0	56	4691
2026-01-08 04:24:21.12	244.66	10.61	-42.3	-44.6	23.0	0.00e+00	0	40	0	0	56	4634
2026-01-08 04:24:22.26	244.40	10.69	-42.2	-44.5	23.1	0.00e+00	0	40	0	0	56	4573
2026-01-08 04:24:23.12	244.21	10.75	-42.2	-44.5	23.1	0.00e+00	0	40	0	0	56	4582
2026-01-08 04:24:24.27	243.94	10.84	-42.1	-44.4	23.2	0.00e+00	0	40	0	0	56	4497
2026-01-08 04:24:25.13	243.74	10.90	-42.1	-44.4	23.1	0.00e+00	0	40	0	0	56	4526
2026-01-08 04:24:26.29	243.47	10.98	-42.0	-44.3	23.3	0.00e+00	0	40	0	0	56	4458
2026-01-08 04:24:27.15	243.27	11.05	-42.0	-44.3	23.2	0.00e+00	0	40	0	0	56	4448
2026-01-08 04:24:28.30	243.00	11.13	-41.9	-44.2	23.1	0.00e+00	0	40	0	0	55	4692
2026-01-08 04:24:29.16	242.79	11.19	-42.1	-44.5	23.0	0.00e+00	0	40	0	0	55	4815
2026-01-08 04:24:30.43	242.49	11.29	-42.0	-44.5	22.9	0.00e+00	0	40	0	0	55	4856
2026-01-08 04:24:31.15	242.31	11.34	-42.0	-44.5	23.0	0.00e+00	0	40	0	0	55	4823
2026-01-08 04:24:32.44	242.00	11.43	-42.0	-44.5	23.0	0.00e+00	0	40	0	0	55	4817
2026-01-08 04:24:33.16	241.82	11.48	-42.1	-44.5	22.9	0.00e+00	0	40	0	0	55	4868
2026-01-08 04:24:34.45	241.51	11.58	-41.8	-44.2	23.3	0.00e+00	0	40	0	0	55	4654
2026-01-08 04:24:35.17	241.33	11.63	-41.5	-43.8	23.5	0.00e+00	0	40	0	0	55	4483
2026-01-08 04:24:36.77	240.93	11.74	-41.4	-43.7	23.6	0.00e+00	0	40	0	0	54	4681
2026-01-08 04:24:37.35	240.78	11.79	-41.5	-43.8	23.5	0.00e+00	0	40	0	0	54	4733
2026-01-08 04:24:39.14	240.33	11.92	-41.4	-43.7	23.6	0.00e+00	0	40	0	0	54	4655
2026-01-08 04:24:39.72	240.18	11.96	-41.7	-43.9	23.4	0.00e+00	0	40	0	0	54	4789
2026-01-08 04:24:41.33	239.77	12.07	-41.8	-44.1	23.3	0.00e+00	0	40	0	0	54	4901
2026-01-08 04:24:41.90	239.62	12.11	-41.9	-44.2	23.2	0.00e+00	0	40	0	0	54	4932
2026-01-08 04:24:43.49	239.20	12.23	-41.9	-44.3	23.2	0.00e+00	0	40	0	0	54	4984
2026-01-08 04:24:44.06	239.05	12.27	-42.0	-44.3	23.1	0.00e+00	0	40	0	0	54	5008
2026-01-08 04:24:45.64	238.64	12.38	-41.9	-44.2	23.3	0.00e+00	0	40	0	0	54	4932
2026-01-08 04:24:46.23	238.48	12.42	-41.8	-44.1	23.3	0.00e+00	0	40	0	0	54	4886
2026-01-08 04:24:47.80	238.06	12.53	-41.4	-43.6	23.7	0.00e+00	0	40	0	0	54	4645
2026-01-08 04:24:48.57	237.85	12.59	-41.3	-43.5	23.8	0.00e+00	0	40	0	0	54	4577
2026-01-08 04:24:49.85	237.50	12.68	-41.3	-43.5	23.8	0.00e+00	0	40	0	0	54	4586
2026-01-08 04:24:50.57	237.30	12.73	-41.3	-43.5	23.8	0.00e+00	0	40	0	0	54	4586
2026-01-08 04:24:51.86	236.95	12.82	-41.1	-43.3	23.9	0.00e+00	0	40	0	0	54	4490
2026-01-08 04:24:52.58	236.75	12.87	-41.2	-43.5	23.8	0.00e+00	0	40	0	0	54	4552
2026-01-08 04:24:53.87	236.39	12.96	-41.4	-43.6	23.7	0.00e+00	0	40	0	0	54	4625
2026-01-08 04:24:54.58	236.19	13.00	-41.5	-43.8	23.5	0.00e+00	0	40	0	0	54	4730
2026-01-08 04:24:56.05	235.78	13.11	-41.5	-43.8	23.6	0.00e+00	0	40	0	0	54	4719
2026-01-08 04:24:56.77	235.57	13.15	-41.4	-43.7	23.6	0.00e+00	0	40	0	0	54	4678
2026-01-08 04:24:58.15	235.18	13.25	-41.6	-43.9	23.5	0.00e+00	0	41	0	0	54	4778
2026-01-08 04:24:59.15	234.89	13.32	-41.7	-44.0	23.4	0.00e+00	0	40	0	0	54	4828
2026-01-08 04:25:00.47	234.51	13.41	-41.6	-44.0	23.4	0.00e+00	0	40	0	0	54	4819
2026-01-08 04:25:01.19	234.30	13.45	-41.6	-44.0	23.4	0.00e+00	0	41	0	0	54	4817
2026-01-08 04:25:02.48	233.92	13.54	-41.4	-43.7	23.6	0.00e+00	0	41	0	0	54	4697
2026-01-08 04:25:03.20	233.71	13.59	-41.4	-43.7	23.7	0.00e+00	0	41	0	0	54	4658
2026-01-08 04:25:04.49	233.32	13.67	-41.4	-43.7	23.7	0.00e+00	0	40	0	0	54	4661
2026-01-08 04:25:05.21	233.11	13.72	-41.1	-43.3	23.9	0.00e+00	0	40	0	0	54	4482
2026-01-08 04:25:06.50	232.72	13.80	-41.0	-43.2	24.0	0.00e+00	0	41	0	0	53	4663
2026-01-08 04:25:07.21	232.51	13.85	-41.0	-43.2	24.0	0.00e+00	0	40	0	0	53	4673
2026-01-08 04:25:08.54	232.10	13.94	-41.0	-43.2	24.0	0.00e+00	0	41	0	0	53	4686
2026-01-08 04:25:09.26	231.88	13.98	-41.0	-43.2	24.0	0.00e+00	0	41	0	0	53	4684
2026-01-08 04:25:10.55	231.49	14.06	-41.0	-43.2	24.1	0.00e+00	0	40	0	0	53	4659
2026-01-08 04:25:11.26	231.27	14.11	-41.0	-43.1	24.1	0.00e+00	0	41	0	0	53	4647
2026-01-08 04:25:12.68	230.83	14.20	-41.0	-43.1	24.0	0.00e+00	0	41	0	0	53	4646
2026-01-08 04:25:13.67	230.52	14.26	-41.0	-43.1	24.1	0.00e+00	0	40	0	0	53	4639
2026-01-08 04:25:15.01	230.09	14.34	-41.0	-43.1	24.0	0.00e+00	0	40	0	0	53	4644
2026-01-08 04:25:15.72	229.87	14.39	-41.0	-43.2	24.0	0.00e+00	0	41	0	0	53	4655
2026-01-08 04:25:17.02	229.46	14.47	-41.0	-43.2	24.0	0.00e+00	0	41	0	0	53	4678
2026-01-08 04:25:17.73	229.23	14.51	-41.1	-43.2	24.0	0.00e+00	0	41	0	0	53	4696
2026-01-08 04:25:19.02	228.81	14.59	-41.0	-43.2	24.0	0.00e+00	0	41	0	0	53	4684
2026-01-08 04:25:19.74	228.58	14.63	-41.0	-43.2	24.0	0.00e+00	0	41	0	0	53	4672
2026-01-08 04:25:21.03	228.16	14.70	-40.8	-42.9	24.2	0.00e+00	0	41	0	0	53	4524
2026-01-08 04:25:21.74	227.93	14.75	-40.5	-42.6	24.4	0.00e+00	0	41	0	0	53	4390
2026-01-08 04:25:23.03	227.51	14.82	-40.3	-42.4	24.6	0.00e+00	0	41	0	0	52	4514
2026-01-08 04:25:23.75	227.27	14.86	-40.1	-42.2	24.7	0.00e+00	0	41	0	0	52	4409
2026-01-08 04:25:25.04	226.84	14.93	-39.9	-41.9	25.0	0.00e+00	0	40	0	0	51	4523
2026-01-08 04:25:25.76	226.60	14.97	-39.8	-41.8	25.0	0.00e+00	0	41	0	0	51	4484
2026-01-08 04:25:27.05	226.17	15.05	-39.8	-41.8	25.1	0.00e+00	0	41	0	0	51	4487
2026-01-08 04:25:27.76	225.93	15.08	-39.9	-41.9	25.0	0.00e+00	0	41	0	0	51	4529
2026-01-08 04:25:29.05	225.50	15.15	-40.2	-42.3	24.7	0.00e+00	0	40	0	0	51	4721
2026-01-08 04:25:29.76	225.26	15.19	-40.4	-42.5	24.6	0.00e+00	0	40	0	0	51	4854
2026-01-08 04:25:31.05	224.82	15.26	-40.6	-42.8	24.4	0.00e+00	0	40	0	0	51	4995
2026-01-08 04:25:31.90	224.53	15.30	-40.6	-42.7	24.4	0.00e+00	0	40	0	0	51	4964
2026-01-08 04:25:33.04	224.13	15.36	-40.5	-42.7	24.4	0.00e+00	0	41	0	0	52	4652
2026-01-08 04:25:33.90	223.84	15.41	-40.5	-42.6	24.5	0.00e+00	0	40	0	0	52	4599
2026-01-08 04:25:35.05	223.44	15.46	-40.5	-42.6	24.4	0.00e+00	0	41	0	0	52	4625
2026-01-08 04:25:35.91	223.14	15.51	-40.4	-42.5	24.5	0.00e+00	0	41	0	0	52	4598
2026-01-08 04:25:37.05	222.74	15.56	-40.5	-42.6	24.5	0.00e+00	0	41	0	0	52	4639
2026-01-08 04:25:37.91	222.44	15.60	-40.6	-42.7	24.4	0.00e+00	0	40	0	0	52	4695
2026-01-08 04:25:39.06	222.03	15.66	-40.8	-42.9	24.3	0.00e+00	0	41	0	0	52	4782
2026-01-08 04:25:39.92	221.73	15.70	-40.7	-42.8	24.3	0.00e+00	0	41	0	0	52	4756
2026-01-08 04:25:41.13	221.30	15.75	-40.8	-43.0	24.2	0.00e+00	0	40	0	0	52	4826
2026-01-08 04:25:41.99	220.99	15.79	-40.8	-43.0	24.2	0.00e+00	0	40	0	0	52	4824
2026-01-08 04:25:43.14	220.58	15.84	-40.7	-42.9	24.2	0.00e+00	0	41	0	0	52	4771
2026-01-08 04:25:44.00	220.27	15.88	-40.9	-43.1	24.1	0.00e+00	0	41	0	0	52	4887
2026-01-08 04:25:45.15	219.85	15.92	-41.1	-43.3	24.0	0.00e+00	0	41	0	0	52	4997
2026-01-08 04:25:46.01	219.54	15.96	-41.3	-43.4	23.8	0.00e+00	0	40	0	0	53	4813
2026-01-08 04:25:47.15	219.13	16.01	-41.2	-43.3	23.9	0.00e+00	0	41	0	0	53	4750
2026-01-08 04:25:48.03	218.81	16.04	-40.9	-43.0	24.1	0.00e+00	0	40	0	0	53	4594
2026-01-08 04:25:49.17	218.39	16.08	-40.7	-42.8	24.3	0.00e+00	0	41	0	0	53	4462
2026-01-08 04:25:50.13	218.04	16.12	-40.7	-42.9	24.3	0.00e+00	0	40	0	0	53	4497
2026-01-08 04:25:51.29	217.61	16.16	-40.5	-42.6	24.3	0.00e+00	0	41	0	0	53	4358
2026-01-08 04:25:52.15	217.29	16.19	-40.6	-42.7	24.4	0.00e+00	0	41	0	0	52	4678
2026-01-08 04:25:53.52	216.79	16.24	-41.1	-43.3	24.0	0.00e+00	0	40	0	0	52	5026
2026-01-08 04:25:54.24	216.52	16.26	-41.1	-43.4	23.9	0.00e+00	0	40	0	0	52	5042
2026-01-08 04:25:55.53	216.04	16.31	-41.2	-43.4	23.9	0.00e+00	0	40	0	0	52	5063
2026-01-08 04:25:56.24	215.77	16.33	-41.2	-43.4	23.9	0.00e+00	0	40	0	0	53	4785
2026-01-08 04:25:57.80	215.19	16.38	-41.1	-43.3	23.9	0.00e+00	0	41	0	0	53	4756
2026-01-08 04:25:58.51	214.92	16.40	-41.1	-43.3	23.9	0.00e+00	0	41	0	0	53	4707
2026-01-08 04:25:59.80	214.44	16.44	-40.9	-43.0	24.1	0.00e+00	0	40	0	0	53	4592
2026-01-08 04:26:00.52	214.16	16.46	-40.9	-43.1	24.1	0.00e+00	0	41	0	0	53	4604
2026-01-08 04:26:01.81	213.68	16.49	-40.8	-42.9	24.2	0.00e+00	0	40	0	0	53	4527
2026-01-08 04:26:02.52	213.41	16.51	-40.6	-42.7	24.4	0.00e+00	0	41	0	0	53	4434
2026-01-08 04:26:03.82	212.91	16.54	-40.5	-42.6	24.5	0.00e+00	0	41	0	0	52	4624
2026-01-08 04:26:04.53	212.64	16.56	-40.3	-42.4	24.6	0.00e+00	0	41	0	0	52	4502
2026-01-08 04:26:05.82	212.15	16.59	-40.2	-42.3	24.6	0.00e+00	0	41	0	0	52	4473
2026-01-08 04:26:06.54	211.87	16.60	-40.1	-42.2	24.7	0.00e+00	0	40	0	0	52	4430
2026-01-08 04:26:07.83	211.38	16.63	-40.1	-42.1	24.8	0.00e+00	0	40	0	0	52	4380
2026-01-08 04:26:08.54	211.11	16.64	-40.2	-42.2	24.7	0.00e+00	0	40	0	0	52	4438
2026-01-08 04:26:09.84	210.61	16.67	-40.4	-42.5	24.6	0.00e+00	0	40	0	0	52	4553
2026-01-08 04:26:10.55	210.33	16.68	-40.4	-42.5	24.6	0.00e+00	0	40	0	0	52	4547
2026-01-08 04:26:11.84	209.84	16.70	-40.3	-42.4	24.6	0.00e+00	0	40	0	0	52	4516
2026-01-08 04:26:12.56	209.56	16.71	-40.2	-42.3	24.7	0.00e+00	0	41	0	0	52	4452
2026-01-08 04:26:13.85	209.06	16.73	-40.2	-42.3	24.6	0.00e+00	0	40	0	0	52	4470
2026-01-08 04:26:14.56	208.79	16.74	-40.3	-42.4	24.6	0.00e+00	0	41	0	0	52	4506
2026-01-08 04:26:15.85	208.29	16.75	-40.0	-42.1	24.8	0.00e+00	0	41	0	0	52	4362
2026-01-08 04:26:16.57	208.01	16.76	-39.9	-41.9	24.9	0.00e+00	0	41	0	0	51	4540
2026-01-08 04:26:17.86	207.51	16.77	-39.7	-41.7	25.1	0.00e+00	0	40	0	0	51	4439
2026-01-08 04:26:18.61	207.22	16.78	-39.7	-41.7	25.1	0.00e+00	0	41	0	0	51	4426
2026-01-08 04:26:20.23	206.59	16.79	-39.4	-41.3	25.4	0.00e+00	0	41	0	0	50	4485
2026-01-08 04:26:20.80	206.36	16.79	-39.3	-41.3	25.4	0.00e+00	0	41	0	0	50	4462
2026-01-08 04:26:22.58	205.67	16.80	-39.2	-41.2	25.4	0.00e+00	0	41	0	0	50	4415
2026-01-08 04:26:23.15	205.45	16.80	-39.2	-41.2	25.4	0.00e+00	0	40	0	0	50	4400
2026-01-08 04:26:24.79	204.81	16.81	-39.2	-41.2	25.5	0.00e+00	0	41	0	0	50	4412
2026-01-08 04:26:25.36	204.59	16.81	-39.4	-41.4	25.3	0.00e+00	0	41	0	0	50	4528
2026-01-08 04:26:26.97	203.96	16.81	-40.0	-42.1	24.8	0.00e+00	0	41	0	0	50	4896
2026-01-08 04:26:27.54	203.74	16.81	-40.1	-42.1	24.8	0.00e+00	0	41	0	0	50	4925
2026-01-08 04:26:29.13	203.12	16.80	-40.5	-42.6	24.5	0.00e+00	0	40	0	0	51	4913
2026-01-08 04:26:29.70	202.90	16.80	-40.6	-42.7	24.5	0.00e+00	0	41	0	0	51	4937
2026-01-08 04:26:31.31	202.27	16.79	-40.5	-42.6	24.5	0.00e+00	0	40	0	0	51	4923
2026-01-08 04:26:31.95	202.02	16.79	-40.4	-42.5	24.5	0.00e+00	0	41	0	0	51	4846
2026-01-08 04:26:33.38	201.47	16.78	-40.3	-42.3	24.7	0.00e+00	0	41	0	0	51	4746
2026-01-08 04:26:34.15	201.17	16.77	-40.2	-42.3	24.7	0.00e+00	0	41	0	0	51	4707
2026-01-08 04:26:35.77	200.54	16.75	-40.1	-42.2	24.8	0.00e+00	0	41	0	0	51	4680
2026-01-08 04:26:36.34	200.32	16.75	-40.0	-42.0	24.9	0.00e+00	0	40	0	0	51	4593
2026-01-08 04:26:37.92	199.71	16.73	-40.0	-42.1	24.8	0.00e+00	0	40	0	0	51	4611
2026-01-08 04:26:38.51	199.48	16.72	-40.1	-42.2	24.8	0.00e+00	0	41	0	0	51	4682
2026-01-08 04:26:40.09	198.87	16.70	-39.9	-41.9	24.9	0.00e+00	0	40	0	0	51	4535
2026-01-08 04:26:40.77	198.61	16.69	-39.8	-41.8	25.0	0.00e+00	0	40	0	0	51	4478
2026-01-08 04:26:42.20	198.06	16.66	-39.9	-41.9	25.0	0.00e+00	0	41	0	0	51	4531
2026-01-08 04:26:42.92	197.78	16.65	-39.9	-41.9	24.9	0.00e+00	0	41	0	0	51	4520
2026-01-08 04:26:44.21	197.29	16.62	-39.8	-41.9	25.0	0.00e+00	0	41	0	0	51	4515
2026-01-08 04:26:44.92	197.01	16.61	-39.9	-42.0	24.9	0.00e+00	0	41	0	0	51	4567
2026-01-08 04:26:46.21	196.52	16.58	-39.9	-42.0	24.9	0.00e+00	0	41	0	0	51	4579
2026-01-08 04:26:46.93	196.24	16.57	-40.0	-42.1	24.9	0.00e+00	0	41	0	0	51	4626
2026-01-08 04:26:48.24	195.74	16.54	-40.1	-42.2	24.8	0.00e+00	0	41	0	0	51	4653
2026-01-08 04:26:48.95	195.47	16.52	-40.1	-42.2	24.8	0.00e+00	0	41	0	0	51	4657
2026-01-08 04:26:50.24	194.99	16.49	-40.1	-42.2	24.8	0.00e+00	0	41	0	0	51	4671
2026-01-08 04:26:50.96	194.71	16.47	-40.2	-42.3	24.7	0.00e+00	0	40	0	0	51	4723
2026-01-08 04:26:52.25	194.22	16.43	-40.2	-42.3	24.6	0.00e+00	0	40	0	0	51	4747
2026-01-08 04:26:52.97	193.95	16.41	-40.2	-42.3	24.6	0.00e+00	0	41	0	0	51	4735
2026-01-08 04:26:54.25	193.47	16.37	-40.3	-42.3	24.7	0.00e+00	0	41	0	0	51	4759
2026-01-08 04:26:54.97	193.20	16.35	-40.3	-42.3	24.6	0.00e+00	0	41	0	0	51	4755
2026-01-08 04:26:56.26	192.72	16.31	-40.4	-42.5	24.6	0.00e+00	0	41	0	0	51	4828
2026-01-08 04:26:57.09	192.41	16.28	-40.4	-42.5	24.5	0.00e+00	0	41	0	0	51	4836
2026-01-08 04:26:58.23	191.98	16.24	-40.3	-42.4	24.6	0.00e+00	0	41	0	0	51	4787
2026-01-08 04:26:59.09	191.67	16.21	-40.3	-42.4	24.7	0.00e+00	0	41	0	0	51	4769
2026-01-08 04:27:00.24	191.24	16.17	-40.6	-42.7	24.4	0.00e+00	0	41	0	0	51	4958
2026-01-08 04:27:01.10	190.92	16.14	-40.6	-42.7	24.4	0.00e+00	0	41	0	0	51	4964
2026-01-08 04:27:02.24	190.50	16.10	-40.7	-42.8	24.4	0.00e+00	0	41	0	0	51	5026
2026-01-08 04:27:03.10	190.19	16.07	-40.7	-42.8	24.2	0.00e+00	0	41	0	0	52	4757
2026-01-08 04:27:04.25	189.77	16.02	-40.4	-42.5	24.5	0.00e+00	0	41	0	0	52	4567
2026-01-08 04:27:05.11	189.45	15.99	-40.4	-42.6	24.4	0.00e+00	0	41	0	0	52	4608
2026-01-08 04:27:06.35	189.00	15.94	-40.5	-42.7	24.4	0.00e+00	0	41	0	0	52	4662
2026-01-08 04:27:07.20	188.70	15.90	-40.6	-42.8	24.3	0.00e+00	0	40	0	0	52	4726
2026-01-08 04:27:08.35	188.28	15.85	-41.2	-43.4	23.9	0.00e+00	0	40	0	0	52	5067
2026-01-08 04:27:09.21	187.97	15.82	-41.3	-43.6	23.7	0.00e+00	0	41	0	0	53	4898
2026-01-08 04:27:10.35	187.56	15.77	-41.3	-43.6	23.7	0.00e+00	0	41	0	0	53	4903
2026-01-08 04:27:11.21	187.26	15.73	-40.9	-43.2	24.0	0.00e+00	0	40	0	0	53	4657
2026-01-08 04:27:12.36	186.85	15.68	-40.6	-42.8	24.2	0.00e+00	0	41	0	0	53	4482
2026-01-08 04:27:13.22	186.55	15.64	-40.3	-42.5	24.5	0.00e+00	0	41	0	0	52	4546
2026-01-08 04:27:14.36	186.14	15.58	-40.5	-42.6	24.4	0.00e+00	0	41	0	0	52	4643
2026-01-08 04:27:15.22	185.84	15.54	-40.5	-42.7	24.4	0.00e+00	0	41	0	0	52	4658
2026-01-08 04:27:16.37	185.44	15.48	-40.8	-43.0	24.1	0.00e+00	0	40	0	0	52	4823
2026-01-08 04:27:17.22	185.14	15.44	-40.9	-43.1	24.0	0.00e+00	0	41	0	0	52	4917
2026-01-08 04:27:18.37	184.75	15.38	-41.0	-43.2	24.0	0.00e+00	0	41	0	0	52	4940
2026-01-08 04:27:19.22	184.45	15.34	-41.0	-43.2	24.0	0.00e+00	0	40	0	0	52	4956
2026-01-08 04:27:20.37	184.06	15.28	-40.9	-43.1	24.0	0.00e+00	0	40	0	0	52	4909
2026-01-08 04:27:21.23	183.76	15.24	-40.9	-43.1	23.9	0.00e+00	0	41	0	0	52	4905
2026-01-08 04:27:22.38	183.37	15.18	-40.7	-42.9	24.2	0.00e+00	0	41	0	0	52	4784
2026-01-08 04:27:23.24	183.08	15.13	-40.7	-42.9	24.2	0.00e+00	0	41	0	0	52	4797
2026-01-08 04:27:24.49	182.66	15.06	-40.8	-43.0	24.1	0.00e+00	0	41	0	0	52	4821
2026-01-08 04:27:25.24	182.41	15.02	-40.8	-43.0	24.1	0.00e+00	0	41	0	0	52	4830
2026-01-08 04:27:26.53	181.97	14.95	-40.8	-43.0	24.1	0.00e+00	0	40	0	0	52	4855
2026-01-08 04:27:27.24	181.74	14.91	-40.7	-42.9	24.2	0.00e+00	0	41	0	0	52	4762
2026-01-08 04:27:28.53	181.31	14.84	-40.7	-42.8	24.2	0.00e+00	0	41	0	0	52	4751
2026-01-08 04:27:29.25	181.07	14.79	-40.7	-42.8	24.3	0.00e+00	0	41	0	0	52	4743
2026-01-08 04:27:30.54	180.65	14.72	-40.6	-42.7	24.3	0.00e+00	0	40	0	0	52	4688
2026-01-08 04:27:31.26	180.42	14.68	-40.6	-42.7	24.3	0.00e+00	0	40	0	0	52	4697
2026-01-08 04:27:32.54	180.00	14.60	-40.5	-42.6	24.4	0.00e+00	0	41	0	0	52	4644
2026-01-08 04:27:33.26	179.77	14.56	-40.4	-42.6	24.4	2.20e-06	0	41	0	0	52	4601
2026-01-08 04:27:34.55	179.35	14.48	-40.3	-42.5	24.5	2.20e-06	0	41	0	0	52	4565
2026-01-08 04:27:35.27	179.12	14.44	-40.5	-42.6	24.3	0.00e+00	0	40	0	0	52	4650
2026-01-08 04:27:36.55	178.72	14.36	-40.5	-42.6	24.3	0.00e+00	0	40	0	0	52	4629
2026-01-08 04:27:37.27	178.49	14.32	-40.4	-42.5	24.4	0.00e+00	0	40	0	0	52	4595
2026-01-08 04:27:38.56	178.08	14.24	-40.4	-42.6	24.4	0.00e+00	0	41	0	0	52	4614
2026-01-08 04:27:39.27	177.86	14.19	-40.6	-42.7	24.3	0.00e+00	0	41	0	0	52	4692
2026-01-08 04:27:40.71	177.41	14.10	-41.1	-43.3	23.9	0.00e+00	0	41	0	0	52	4996
2026-01-08 04:27:41.42	177.19	14.06	-41.2	-43.4	23.8	0.00e+00	0	41	0	0	52	5070
2026-01-08 04:27:42.80	176.77	13.97	-41.5	-43.7	23.5	0.00e+00	0	41	0	0	53	4983
2026-01-08 04:27:43.51	176.55	13.92	-41.4	-43.7	23.6	0.00e+00	0	41	0	0	53	4933
2026-01-08 04:27:44.80	176.16	13.84	-41.4	-43.6	23.6	0.00e+00	0	41	0	0	53	4910
2026-01-08 04:27:45.52	175.94	13.79	-41.0	-43.2	23.9	0.00e+00	0	41	0	0	53	4661
2026-01-08 04:27:46.81	175.56	13.71	-40.8	-43.0	24.1	0.00e+00	0	40	0	0	53	4566
2026-01-08 04:27:47.53	175.34	13.66	-40.8	-43.0	24.1	0.00e+00	0	41	0	0	53	4553
2026-01-08 04:27:48.82	174.96	13.57	-40.9	-43.1	24.0	0.00e+00	0	40	0	0	53	4621
2026-01-08 04:27:49.53	174.75	13.53	-41.0	-43.1	24.0	0.00e+00	0	41	0	0	53	4648
2026-01-08 04:27:50.82	174.37	13.44	-41.2	-43.4	23.8	0.00e+00	0	41	0	0	53	4795
2026-01-08 04:27:51.53	174.16	13.39	-41.3	-43.5	23.7	0.00e+00	0	41	0	0	53	4837
2026-01-08 04:27:52.83	173.78	13.30	-41.6	-43.9	22.8	0.00e+00	0	41	0	0	53	5053
2026-01-08 04:27:53.54	173.58	13.26	-41.6	-43.9	23.4	0.00e+00	0	41	0	0	53	5067
2026-01-08 04:27:54.83	173.21	13.17	-41.4	-43.7	23.5	0.00e+00	0	41	0	0	53	4935
2026-01-08 04:27:55.55	173.00	13.12	-41.3	-43.5	23.7	0.00e+00	0	40	0	0	53	4842
2026-01-08 04:27:56.84	172.64	13.03	-40.9	-43.1	24.0	0.00e+00	0	41	0	0	53	4629
2026-01-08 04:27:57.55	172.44	12.98	-40.9	-43.1	24.0	0.00e+00	0	41	0	0	53	4629
2026-01-08 04:27:58.84	172.08	12.89	-40.9	-43.1	24.0	0.00e+00	0	41	0	0	53	4616
2026-01-08 04:27:59.56	171.88	12.84	-40.9	-43.1	24.0	0.00e+00	0	40	0	0	53	4642
2026-01-08 04:28:00.85	171.52	12.75	-41.0	-43.3	23.9	0.00e+00	0	41	0	0	53	4706
2026-01-08 04:28:01.56	171.33	12.70	-41.1	-43.3	23.8	0.00e+00	0	41	0	0	53	4749
2026-01-08 04:28:02.85	170.97	12.61	-41.3	-43.6	23.6	0.00e+00	0	41	0	0	53	4898
2026-01-08 04:28:03.57	170.78	12.56	-41.4	-43.7	23.6	0.00e+00	0	41	0	0	53	4948
2026-01-08 04:28:04.86	170.43	12.47	-41.7	-44.0	23.3	0.00e+00	0	40	0	0	53	5116
2026-01-08 04:28:05.58	170.24	12.42	-41.7	-44.0	23.3	0.00e+00	0	40	0	0	54	4850
2026-01-08 04:28:06.86	169.90	12.33	-41.8	-44.1	23.2	0.00e+00	0	40	0	0	54	4910
2026-01-08 04:28:07.58	169.71	12.28	-41.7	-44.0	23.3	0.00e+00	0	41	0	0	54	4854
2026-01-08 04:28:08.87	169.37	12.19	-41.7	-44.0	23.2	0.00e+00	0	41	0	0	54	4864
2026-01-08 04:28:09.59	169.18	12.13	-41.6	-43.9	23.2	0.00e+00	0	41	0	0	54	4802
2026-01-08 04:28:10.87	168.85	12.04	-41.5	-43.7	23.4	0.00e+00	0	41	0	0	54	4693
2026-01-08 04:28:11.59	168.66	11.99	-41.3	-43.6	23.6	0.00e+00	0	41	0	0	54	4630
2026-01-08 04:28:12.87	168.33	11.90	-41.2	-43.5	23.7	0.00e+00	0	41	0	0	54	4576
2026-01-08 04:28:13.59	168.15	11.85	-41.3	-43.5	23.6	0.00e+00	0	41	0	0	54	4595
2026-01-08 04:28:14.88	167.82	11.75	-41.7	-44.1	23.3	0.00e+00	0	41	0	0	54	4873
2026-01-08 04:28:15.60	167.64	11.70	-41.8	-44.2	23.1	0.00e+00	0	41	0	0	54	4940
2026-01-08 04:28:16.89	167.32	11.61	-41.9	-44.3	23.0	0.00e+00	0	41	0	0	54	5024
2026-01-08 04:28:17.60	167.14	11.56	-41.8	-44.1	23.2	0.00e+00	0	41	0	0	54	4914
2026-01-08 04:28:19.24	166.74	11.44	-41.6	-44.0	23.3	0.00e+00	0	41	0	0	54	4815
2026-01-08 04:28:19.82	166.60	11.40	-41.6	-43.9	23.3	0.00e+00	0	41	0	0	54	4788
2026-01-08 04:28:21.39	166.22	11.28	-41.6	-43.9	23.3	0.00e+00	0	41	0	0	54	4786
2026-01-08 04:28:21.98	166.07	11.24	-41.6	-43.9	23.4	0.00e+00	0	41	0	0	54	4775
2026-01-08 04:28:23.56	165.70	11.12	-41.9	-44.2	23.1	2.05e-05	0	40	0	0	54	4982
2026-01-08 04:28:24.13	165.56	11.08	-41.9	-44.3	23.0	0.00e+00	0	41	0	0	54	5032
2026-01-08 04:28:25.77	165.17	10.96	-42.2	-44.6	22.8	1.94e-03	0	40	0	0	55	4892
2026-01-08 04:28:26.34	165.04	10.92	-42.2	-44.7	22.7	1.94e-03	0	41	0	0	55	4948
2026-01-08 04:28:27.93	164.67	10.81	-42.3	-44.7	22.7	0.00e+00	0	40	0	0	55	4977
2026-01-08 04:28:28.51	164.54	10.76	-42.3	-44.8	22.6	3.30e-03	0	41	0	0	55	4989
2026-01-08 04:28:30.10	164.17	10.65	-42.1	-44.5	22.8	0.00e+00	0	41	0	0	55	4852
2026-01-08 04:28:30.97	163.98	10.58	-42.0	-44.4	22.9	0.00e+00	0	41	0	0	55	4806
2026-01-08 04:28:32.12	163.72	10.50	-42.1	-44.5	22.8	3.62e-03	0	41	0	0	55	4836
2026-01-08 04:28:33.35	163.44	10.41	-41.9	-44.3	23.1	0.00e+00	0	41	0	0	55	4707
2026-01-08 04:28:34.21	163.25	10.35	-42.0	-44.3	22.9	0.00e+00	0	41	0	0	55	4746
2026-01-08 04:28:35.70	162.92	10.24	-42.1	-44.4	22.8	2.74e-03	0	41	0	0	55	4808
2026-01-08 04:28:36.42	162.76	10.18	-42.2	-44.6	22.8	0.00e+00	0	41	0	0	55	4877
2026-01-08 04:28:37.71	162.48	10.09	-42.2	-44.5	22.8	5.70e-06	0	41	0	0	55	4863
2026-01-08 04:28:38.43	162.33	10.04	-42.2	-44.6	22.7	5.70e-06	0	41	0	0	55	4908
2026-01-08 04:28:39.71	162.05	9.94	-42.3	-44.7	22.7	0.00e+00	0	41	0	0	55	4934
2026-01-08 04:28:40.43	161.90	9.89	-42.3	-44.8	22.6	0.00e+00	0	41	0	0	55	4991
2026-01-08 04:28:41.72	161.63	9.80	-42.4	-44.8	22.4	0.00e+00	0	40	0	0	55	5028
2026-01-08 04:28:42.51	161.46	9.74	-42.5	-44.9	22.5	0.00e+00	0	41	0	0	55	5087
2026-01-08 04:28:43.66	161.22	9.65	-42.6	-45.0	22.4	0.00e+00	0	41	0	0	55	5155
2026-01-08 04:28:44.71	161.00	9.58	-42.8	-45.2	22.3	0.00e+00	0	40	0	0	56	4964
2026-01-08 04:28:45.75	160.79	9.50	-42.8	-45.2	22.3	0.00e+00	0	40	0	0	56	4968
2026-01-08 04:28:46.91	160.55	9.42	-42.7	-45.2	22.3	4.80e-05	0	41	0	0	56	4962
2026-01-08 04:28:47.76	160.38	9.36	-42.8	-45.2	22.3	0.00e+00	0	40	0	0	56	4979
2026-01-08 04:28:49.10	160.11	9.26	-42.8	-45.3	22.3	0.00e+00	0	40	0	0	56	5019
2026-01-08 04:28:49.82	159.96	9.21	-42.7	-45.2	22.4	0.00e+00	0	40	0	0	56	4945
2026-01-08 04:28:51.11	159.71	9.11	-42.7	-45.2	22.4	0.00e+00	0	41	0	0	56	4928
2026-01-08 04:28:51.82	159.57	9.06	-42.7	-45.1	22.4	0.00e+00	0	41	0	0	56	4925
2026-01-08 04:28:53.12	159.31	8.97	-50.2	-64.6	4.4	0.00e+00	0	40	0	0	71	19545
2026-01-08 04:28:53.83	159.17	8.91	-50.6	-69.2	3.8	1.35e-01	0	40	104	0	72	31299
2026-01-08 04:28:55.12	158.93	8.82	-50.3	-68.9	3.8	8.46e-01	0	41	104	0	72	30302
2026-01-08 04:28:55.95	158.77	8.76	-50.6	-69.4	3.8	8.46e-01	0	41	104	0	72	32135
2026-01-08 04:28:57.10	158.55	8.68	-50.8	-69.7	3.8	8.47e-01	0	41	104	0	72	33077
2026-01-08 04:28:57.96	158.38	8.62	-50.8	-69.7	3.8	8.47e-01	0	41	104	0	72	33232
2026-01-08 04:28:59.11	158.17	8.53	-50.6	-69.8	3.8	8.46e-01	0	41	104	0	72	33418
2026-01-08 04:29:00.24	157.96	8.45	-50.8	-69.8	3.8	8.46e-01	0	40	104	0	72	33471
2026-01-08 04:29:01.30	157.76	8.38	-51.0	-69.8	3.8	8.47e-01	0	41	104	0	72	33503
2026-01-08 04:29:02.35	157.57	8.30	-51.0	-69.9	3.8	8.47e-01	0	41	104	0	72	33721
2026-01-08 04:29:03.38	157.38	8.23	-51.0	-69.9	3.8	8.47e-01	0	41	104	0	72	33730
2026-01-08 04:29:04.38	157.20	8.16	-51.0	-69.9	3.8	8.47e-01	0	41	104	0	72	33702
2026-01-08 04:29:05.38	157.02	8.08	-51.1	-69.9	3.8	8.46e-01	0	40	104	0	72	33762
2026-01-08 04:29:06.39	156.84	8.01	-51.1	-69.9	3.8	8.46e-01	0	41	104	0	72	33816
2026-01-08 04:29:07.39	156.66	7.94	-51.0	-69.9	3.8	8.46e-01	0	41	104	0	72	33780
2026-01-08 04:29:08.39	156.48	7.87	-51.1	-69.9	3.8	8.47e-01	0	41	104	0	72	33741
2026-01-08 04:29:09.40	156.31	7.80	-50.8	-69.9	3.8	8.47e-01	0	41	104	0	72	33737
2026-01-08 04:29:10.40	156.13	7.73	-50.9	-69.9	3.8	8.47e-01	0	41	104	0	72	33696
2026-01-08 04:29:11.41	155.96	7.65	-51.1	-69.8	3.8	8.46e-01	0	41	104	0	72	33576
2026-01-08 04:29:12.41	155.78	7.58	-51.0	-69.9	3.8	8.47e-01	0	41	104	0	72	33738
2026-01-08 04:29:13.42	155.61	7.51	-51.1	-69.8	3.8	8.47e-01	0	41	104	0	72	33682
2026-01-08 04:29:14.45	155.44	7.44	-51.0	-69.8	3.8	8.47e-01	0	41	104	0	72	33520
2026-01-08 04:29:15.48	155.26	7.37	-50.8	-69.8	3.8	8.47e-01	0	41	104	0	72	33540
2026-01-08 04:29:16.52	155.09	7.29	-50.8	-69.8	3.8	8.47e-01	0	40	104	0	72	33567
2026-01-08 04:29:17.55	154.92	7.22	-50.5	-69.8	3.8	8.47e-01	0	41	104	0	72	33452
2026-01-08 04:29:18.55	154.75	7.15	-50.6	-69.8	3.8	8.47e-01	0	41	104	0	72	33472
2026-01-08 04:29:19.55	154.59	7.08	-50.6	-69.8	3.8	8.47e-01	0	41	104	0	72	33357
2026-01-08 04:29:20.56	154.43	7.01	-50.6	-69.8	3.8	8.47e-01	0	41	104	0	72	33389
2026-01-08 04:29:21.56	154.26	6.94	-50.5	-69.7	3.8	8.46e-01	0	40	104	0	72	33265
2026-01-08 04:29:22.56	154.10	6.87	-50.5	-69.8	3.8	8.47e-01	0	41	104	0	72	33320
2026-01-08 04:29:23.57	153.94	6.80	-50.5	-69.8	3.8	8.47e-01	0	41	104	0	72	33462
2026-01-08 04:29:24.57	153.78	6.73	-50.5	-69.8	3.8	8.47e-01	0	41	104	0	72	33338
2026-01-08 04:29:25.58	153.62	6.66	-50.5	-69.8	3.8	8.46e-01	0	41	104	0	72	33360
2026-01-08 04:29:26.58	153.47	6.59	-50.5	-69.7	3.8	8.46e-01	0	41	104	0	72	33298
2026-01-08 04:29:27.59	153.31	6.52	-50.5	-69.8	3.8	8.47e-01	0	41	104	0	72	33374
2026-01-08 04:29:28.59	153.16	6.46	-50.5	-69.7	3.8	8.47e-01	0	41	104	0	72	33246
2026-01-08 04:29:29.60	153.00	6.39	-50.5	-69.8	3.8	8.47e-01	0	41	104	0	72	33417
2026-01-08 04:29:30.60	152.85	6.32	-50.6	-69.8	3.8	8.47e-01	0	41	104	0	72	33411
2026-01-08 04:29:31.60	152.70	6.25	-50.5	-69.8	3.8	8.47e-01	0	41	104	0	72	33386
2026-01-08 04:29:32.61	152.55	6.18	-50.5	-69.8	3.8	8.48e-01	0	41	104	0	72	33436
2026-01-08 04:29:33.61	152.40	6.11	-50.5	-69.8	3.8	8.48e-01	0	41	104	0	72	33416
2026-01-08 04:29:34.62	152.25	6.04	-50.5	-69.8	3.8	8.47e-01	0	41	104	0	72	33346
2026-01-08 04:29:35.62	152.10	5.98	-50.5	-69.8	3.8	8.46e-01	0	41	104	0	72	33418
2026-01-08 04:29:36.62	151.95	5.91	-50.5	-69.8	3.8	8.46e-01	0	41	104	0	72	33380
2026-01-08 04:29:37.63	151.81	5.84	-50.5	-69.8	3.8	8.47e-01	0	40	104	0	72	33356
2026-01-08 04:29:38.63	151.66	5.77	-50.6	-69.8	3.8	8.46e-01	0	41	104	0	72	33430
2026-01-08 04:29:39.64	151.52	5.70	-50.5	-69.8	3.8	8.46e-01	0	41	104	0	72	33384
2026-01-08 04:29:40.64	151.38	5.64	-50.6	-69.8	3.8	8.45e-01	0	41	104	0	72	33429
2026-01-08 04:29:41.65	151.23	5.57	-50.6	-69.8	3.8	8.47e-01	0	41	104	0	72	33426
2026-01-08 04:29:42.65	151.09	5.50	-50.6	-69.8	3.8	8.47e-01	0	41	104	0	72	33361
2026-01-08 04:29:43.65	150.95	5.44	-50.6	-69.8	3.8	8.47e-01	0	41	104	0	72	33342
2026-01-08 04:29:44.66	150.81	5.37	-50.5	-69.8	3.8	8.47e-01	0	41	104	0	72	33354
2026-01-08 04:29:45.66	150.67	5.30	-50.6	-69.8	3.8	8.47e-01	0	41	104	0	72	33420
2026-01-08 04:29:46.67	150.54	5.24	-50.5	-69.7	3.8	8.47e-01	0	41	104	0	72	33276

#Closed at: 2026-01-08 04:29:47
#Recorded file [0 MB]: D:/Data/31040_260108_072257.dat