passes_logs/2026/01/08/T1/T1__20260108_220741_SUOMI_NPP_rec.log

#Pass ID: 20260108_220741_SUOMI NPP
#Satellite: SUOMI NPP
#Configuration: NPP
#almurnet v.1.7.20251203
#Start time: 2026-01-08 22:07:42

#Version: 2.0.20230620
#Station: T1
#Location: 37.570604 lon 55.790049 lat
#TLE: 1 37849U 11061A   26008.05542337  .00000108  00000+0  71976-4 0  9997
#TLE: 2 37849  98.7805 310.1641 0002540  75.6410 284.5048 14.19523335735721

#Time	Az	El	Level	Level2	SNR	BER	BlckErr	Temp	State	Recorded	gain1	gain2
2026-01-08 22:07:42.10	31.33	5.04	-46.8	-63.8	3.8	1.49e+00	0	39	0	0	65	25069
2026-01-08 22:07:43.10	31.42	5.09	-46.8	-63.8	3.8	1.49e+00	0	39	104	0	64	26496
2026-01-08 22:07:44.11	31.52	5.15	-46.7	-63.7	3.8	1.49e+00	0	39	104	0	64	26203
2026-01-08 22:07:45.11	31.61	5.21	-46.7	-63.8	3.8	1.49e+00	0	39	104	0	64	26478
2026-01-08 22:07:46.12	31.71	5.26	-46.8	-63.7	3.8	1.49e+00	0	39	104	0	64	26395
2026-01-08 22:07:47.12	31.81	5.32	-46.8	-63.8	3.8	1.49e+00	0	39	104	0	64	26559
2026-01-08 22:07:48.12	31.90	5.37	-46.8	-63.8	3.8	1.49e+00	0	39	104	0	64	26725
2026-01-08 22:07:49.13	32.00	5.43	-46.8	-63.8	3.8	1.49e+00	0	39	104	0	64	26520
2026-01-08 22:07:50.13	32.10	5.49	-46.8	-63.8	3.8	1.49e+00	0	40	104	0	64	26502
2026-01-08 22:07:51.14	32.19	5.54	-46.8	-63.7	3.8	1.49e+00	0	40	104	0	64	26263
2026-01-08 22:07:52.14	32.29	5.60	-46.8	-63.8	3.8	1.49e+00	0	39	104	0	64	26634
2026-01-08 22:07:53.15	32.39	5.66	-46.8	-63.8	3.8	1.49e+00	0	40	104	0	64	26751
2026-01-08 22:07:54.15	32.49	5.71	-46.7	-63.8	3.8	1.49e+00	0	40	104	0	64	26489
2026-01-08 22:07:55.15	32.59	5.77	-46.8	-63.7	3.8	1.49e+00	0	40	104	0	64	26459
2026-01-08 22:07:56.16	32.69	5.83	-46.7	-63.7	3.8	1.49e+00	0	40	104	0	64	26220
2026-01-08 22:07:57.16	32.78	5.88	-46.7	-63.7	3.8	1.49e+00	0	40	104	0	64	26381
2026-01-08 22:07:58.16	32.88	5.94	-46.8	-63.6	3.8	1.49e+00	0	40	104	0	64	26122
2026-01-08 22:07:59.17	32.98	6.00	-46.7	-63.7	3.8	1.49e+00	0	40	104	0	64	26392
2026-01-08 22:08:00.17	33.09	6.05	-46.8	-63.6	3.8	1.49e+00	0	40	104	0	64	26084
2026-01-08 22:08:01.18	33.19	6.11	-46.8	-63.7	3.8	1.49e+00	0	40	104	0	64	26327
2026-01-08 22:08:02.18	33.29	6.17	-46.7	-63.6	3.8	1.49e+00	0	40	104	0	64	26122
2026-01-08 22:08:03.19	33.39	6.23	-46.8	-63.7	3.8	1.49e+00	0	40	104	0	64	26392
2026-01-08 22:08:04.19	33.49	6.28	-46.7	-63.6	3.8	1.49e+00	0	40	104	0	64	25868
2026-01-08 22:08:05.20	33.60	6.34	-46.8	-63.6	3.8	1.49e+00	0	40	104	0	64	25902
2026-01-08 22:08:06.20	33.70	6.40	-46.7	-63.6	3.8	1.49e+00	0	40	104	0	64	26043
2026-01-08 22:08:07.20	33.80	6.45	-46.8	-63.5	3.8	1.49e+00	0	40	104	0	64	25839
2026-01-08 22:08:08.21	33.90	6.51	-46.7	-63.6	3.8	1.49e+00	0	40	104	0	64	26075
2026-01-08 22:08:09.21	34.01	6.57	-46.8	-63.6	3.8	1.49e+00	0	40	104	0	64	25874
2026-01-08 22:08:10.22	34.11	6.63	-46.7	-63.7	3.8	1.49e+00	0	40	104	0	64	26224
2026-01-08 22:08:11.22	34.22	6.68	-46.7	-63.6	3.8	1.49e+00	0	40	104	0	64	25869
2026-01-08 22:08:12.23	34.32	6.74	-46.7	-63.6	3.8	1.49e+00	0	40	104	0	64	26076
2026-01-08 22:08:13.23	34.43	6.80	-46.8	-63.7	3.8	1.49e+00	0	41	104	0	64	26267
2026-01-08 22:08:14.24	34.54	6.86	-46.7	-63.7	3.8	1.49e+00	0	40	104	0	64	26188
2026-01-08 22:08:15.24	34.64	6.92	-46.8	-63.7	3.8	1.49e+00	0	40	104	0	64	26192
2026-01-08 22:08:16.24	34.75	6.97	-46.7	-63.8	3.8	1.49e+00	0	40	104	0	64	26518
2026-01-08 22:08:17.25	34.86	7.03	-46.7	-63.7	3.8	1.49e+00	0	40	104	0	64	26404
2026-01-08 22:08:18.25	34.96	7.09	-46.8	-63.6	3.8	1.49e+00	0	40	104	0	64	26054
2026-01-08 22:08:19.26	35.07	7.15	-46.8	-63.7	3.8	1.49e+00	0	40	104	0	64	26275
2026-01-08 22:08:20.26	35.18	7.20	-46.8	-63.7	3.8	1.49e+00	0	41	104	0	64	26245
2026-01-08 22:08:21.27	35.29	7.26	-46.8	-63.7	3.8	1.49e+00	0	40	104	0	64	26179
2026-01-08 22:08:22.27	35.40	7.32	-46.8	-63.7	3.8	1.49e+00	0	40	104	0	64	26180
2026-01-08 22:08:23.28	35.51	7.38	-46.8	-63.5	3.8	1.49e+00	0	40	104	0	64	25737
2026-01-08 22:08:24.28	35.62	7.44	-46.8	-63.6	3.8	1.49e+00	0	41	104	0	64	25908
2026-01-08 22:08:25.28	35.73	7.50	-46.7	-63.6	3.8	1.49e+00	0	41	104	0	64	25951
2026-01-08 22:08:26.29	35.84	7.55	-46.7	-63.6	3.8	1.49e+00	0	41	104	0	64	25960
2026-01-08 22:08:27.29	35.95	7.61	-46.7	-63.7	3.8	1.49e+00	0	41	104	0	64	26198
2026-01-08 22:08:28.30	36.07	7.67	-46.7	-63.7	3.8	1.49e+00	0	41	104	0	64	26212
2026-01-08 22:08:29.30	36.18	7.73	-46.7	-63.6	3.8	1.49e+00	0	41	104	0	64	25882
2026-01-08 22:08:30.31	36.29	7.79	-46.8	-63.6	3.8	1.49e+00	0	41	104	0	64	26131
2026-01-08 22:08:31.31	36.40	7.85	-46.7	-63.5	3.8	1.49e+00	0	41	104	0	64	25576
2026-01-08 22:08:32.31	36.52	7.90	-46.8	-63.6	3.8	1.49e+00	0	41	104	0	64	25936
2026-01-08 22:08:33.32	36.63	7.96	-46.8	-63.6	3.8	1.49e+00	0	41	104	0	64	26093
2026-01-08 22:08:34.32	36.75	8.02	-46.8	-63.7	3.8	1.49e+00	0	41	104	0	64	26165
2026-01-08 22:08:35.33	36.86	8.08	-46.8	-63.6	3.8	1.49e+00	0	41	104	0	64	26006
2026-01-08 22:08:36.33	36.98	8.14	-46.8	-63.6	3.8	1.49e+00	0	41	104	0	64	25933
2026-01-08 22:08:37.33	37.09	8.20	-46.8	-63.6	3.8	1.49e+00	0	41	104	0	64	25952
2026-01-08 22:08:38.34	37.21	8.26	-46.7	-63.4	3.8	1.49e+00	0	41	104	0	64	25326
2026-01-08 22:08:39.34	37.32	8.31	-46.8	-63.1	3.8	1.49e+00	0	41	104	0	64	24659
2026-01-08 22:08:40.35	37.44	8.37	-46.7	-62.8	3.8	1.49e+00	0	41	104	0	64	23706
2026-01-08 22:08:41.35	37.56	8.43	-46.7	-62.3	3.8	1.49e+00	0	41	104	0	64	22453
2026-01-08 22:08:42.36	37.68	8.49	-46.7	-61.9	3.8	1.49e+00	0	41	104	0	64	21355
2026-01-08 22:08:43.36	37.80	8.55	-46.7	-61.7	3.8	1.49e+00	0	41	104	0	64	20918
2026-01-08 22:08:44.37	37.92	8.61	-46.7	-61.7	3.8	1.49e+00	0	41	104	0	64	20918
2026-01-08 22:08:45.37	38.04	8.67	-46.7	-61.9	3.8	1.49e+00	0	41	104	0	64	21409
2026-01-08 22:08:46.37	38.16	8.73	-46.8	-62.2	3.8	1.49e+00	0	41	104	0	64	22012
2026-01-08 22:08:47.38	38.28	8.79	-46.7	-62.0	3.8	1.49e+00	0	41	104	0	64	21599
2026-01-08 22:08:48.39	38.40	8.85	-46.7	-61.2	3.8	1.48e+00	0	41	104	0	64	19785
2026-01-08 22:08:49.39	38.52	8.91	-46.6	-60.2	4.2	1.47e+00	0	41	104	0	64	17531
2026-01-08 22:08:50.39	38.64	8.96	-46.5	-58.8	4.7	1.10e+00	0	41	0	1048576	64	14925
2026-01-08 22:08:51.40	38.76	9.02	-46.5	-58.0	5.1	6.47e-01	0	41	0	3145728	64	13623
2026-01-08 22:08:52.53	38.90	9.09	-47.0	-62.2	3.8	1.03e+00	0	41	104	4194304	64	22084
2026-01-08 22:08:53.39	39.01	9.14	-47.4	-62.3	3.8	1.49e+00	0	41	104	4194304	65	21102
2026-01-08 22:08:54.53	39.15	9.21	-47.3	-54.8	8.0	1.25e-02	0	41	0	5242880	65	8874
2026-01-08 22:08:55.39	39.25	9.26	-47.4	-55.1	7.3	2.64e-01	0	41	0	6291456	66	8674
2026-01-08 22:08:56.54	39.40	9.33	-45.5	-49.8	13.0	2.28e-05	0	41	0	8388608	62	5949
2026-01-08 22:08:57.40	39.50	9.38	-45.5	-49.7	13.0	4.27e-05	0	41	0	10485760	62	5916
2026-01-08 22:08:58.54	39.65	9.45	-45.1	-49.1	13.7	9.10e-06	0	41	0	12582912	62	5496
2026-01-08 22:08:59.40	39.76	9.50	-45.0	-49.0	13.8	1.22e-05	0	41	0	13631488	62	5461
2026-01-08 22:09:00.54	39.90	9.56	-45.1	-49.2	13.6	5.30e-06	0	41	0	16777216	62	5552
2026-01-08 22:09:01.40	40.01	9.61	-45.1	-49.1	13.7	3.80e-06	0	41	0	17825792	62	5500
2026-01-08 22:09:02.58	40.16	9.68	-45.1	-49.0	13.8	6.10e-06	0	41	0	19922944	62	5433
2026-01-08 22:09:03.44	40.27	9.74	-45.0	-48.9	13.9	1.50e-06	0	41	0	22020096	62	5362
2026-01-08 22:09:04.62	40.42	9.81	-44.7	-48.7	14.1	2.20e-06	0	41	0	24117248	61	5566
2026-01-08 22:09:05.48	40.53	9.86	-44.6	-48.8	14.0	1.50e-06	0	41	0	25165824	61	5620
2026-01-08 22:09:06.62	40.68	9.92	-44.4	-48.5	14.3	2.20e-06	0	41	0	27262976	60	5724
2026-01-08 22:09:07.48	40.79	9.98	-44.6	-48.7	14.1	1.50e-06	0	41	0	29360128	60	5898
2026-01-08 22:09:08.63	40.94	10.04	-44.5	-48.4	14.4	1.50e-06	0	41	0	31457280	60	5660
2026-01-08 22:09:09.49	41.05	10.09	-44.7	-48.6	14.3	7.00e-07	0	41	0	33554432	60	5798
2026-01-08 22:09:10.63	41.20	10.16	-44.9	-48.6	14.3	7.00e-07	0	41	0	35651584	60	5831
2026-01-08 22:09:11.60	41.33	10.22	-44.7	-48.4	14.5	1.50e-06	0	41	0	36700160	60	5671
2026-01-08 22:09:12.77	41.49	10.29	-44.7	-48.4	14.5	0.00e+00	0	41	0	38797312	60	5695
2026-01-08 22:09:13.66	41.60	10.34	-44.6	-48.2	14.7	7.00e-07	0	41	0	40894464	60	5544
2026-01-08 22:09:14.85	41.76	10.41	-44.4	-48.0	15.0	0.00e+00	0	41	0	42991616	60	5417
2026-01-08 22:09:15.73	41.88	10.47	-44.5	-48.0	14.9	0.00e+00	0	41	0	45088768	60	5446
2026-01-08 22:09:16.87	42.03	10.53	-44.5	-48.1	14.9	0.00e+00	0	41	0	47185920	60	5484
2026-01-08 22:09:17.80	42.16	10.59	-44.5	-48.1	14.8	0.00e+00	0	41	0	48234496	60	5491
2026-01-08 22:09:18.98	42.32	10.66	-44.4	-48.0	14.9	0.00e+00	0	41	0	51380224	60	5447
2026-01-08 22:09:19.87	42.44	10.71	-44.3	-48.0	14.9	0.00e+00	0	42	0	52428800	60	5403
2026-01-08 22:09:20.87	42.58	10.77	-44.1	-47.8	15.1	0.00e+00	0	41	0	54525952	60	5282
2026-01-08 22:09:21.88	42.72	10.83	-44.2	-47.9	15.0	0.00e+00	0	41	0	56623104	60	5370
2026-01-08 22:09:22.88	42.85	10.89	-44.3	-47.9	14.9	0.00e+00	0	41	0	58720256	60	5399
2026-01-08 22:09:23.88	42.99	10.95	-44.3	-47.9	15.0	7.00e-07	0	42	0	59768832	60	5349
2026-01-08 22:09:24.88	43.13	11.01	-44.2	-47.6	15.2	0.00e+00	0	41	0	61865984	60	5214
2026-01-08 22:09:25.89	43.27	11.07	-44.5	-48.0	14.8	0.00e+00	0	41	0	63963136	60	5461
2026-01-08 22:09:26.89	43.41	11.13	-44.3	-47.8	15.1	0.00e+00	0	42	0	66060288	60	5340
2026-01-08 22:09:27.89	43.55	11.19	-44.3	-47.8	15.1	0.00e+00	0	41	0	67108864	60	5315
2026-01-08 22:09:28.90	43.70	11.25	-44.4	-48.0	15.0	0.00e+00	0	41	0	69206016	60	5425
2026-01-08 22:09:29.95	43.84	11.31	-44.4	-47.9	15.0	7.00e-07	0	42	0	71303168	60	5383
2026-01-08 22:09:30.91	43.98	11.37	-44.5	-48.0	14.9	0.00e+00	0	42	0	73400320	60	5459
2026-01-08 22:09:31.91	44.12	11.43	-44.7	-48.4	14.6	7.00e-07	0	41	0	75497472	60	5658
2026-01-08 22:09:32.92	44.27	11.49	-44.5	-48.1	14.9	7.00e-07	0	41	0	76546048	60	5473
2026-01-08 22:09:33.92	44.41	11.55	-44.4	-47.9	15.0	0.00e+00	0	41	0	78643200	60	5376
2026-01-08 22:09:34.92	44.56	11.61	-44.6	-48.1	14.8	0.00e+00	0	42	0	80740352	60	5501
2026-01-08 22:09:35.93	44.70	11.67	-44.6	-48.2	14.8	0.00e+00	0	42	0	82837504	60	5550
2026-01-08 22:09:36.93	44.85	11.73	-44.4	-47.8	15.1	0.00e+00	0	42	0	84934656	60	5332
2026-01-08 22:09:37.93	45.00	11.79	-44.5	-47.9	15.0	0.00e+00	0	41	0	85983232	60	5398
2026-01-08 22:09:38.94	45.14	11.85	-44.2	-47.6	15.4	0.00e+00	0	42	0	88080384	60	5169
2026-01-08 22:09:39.94	45.29	11.91	-44.2	-47.6	15.3	0.00e+00	0	41	0	90177536	60	5213
2026-01-08 22:09:40.94	45.44	11.96	-44.3	-47.7	15.2	0.00e+00	0	42	0	92274688	60	5261
2026-01-08 22:09:41.95	45.59	12.02	-44.3	-47.7	15.3	0.00e+00	0	42	0	94371840	60	5267
2026-01-08 22:09:43.00	45.75	12.09	-44.2	-47.6	15.3	0.00e+00	0	42	0	95420416	60	5192
2026-01-08 22:09:43.90	45.88	12.14	-44.4	-47.8	15.2	0.00e+00	0	41	0	97517568	60	5301
2026-01-08 22:09:44.92	46.03	12.20	-44.4	-47.8	15.1	0.00e+00	0	42	0	99614720	60	5307
2026-01-08 22:09:45.92	46.19	12.26	-44.4	-47.8	15.1	0.00e+00	0	42	0	101711872	60	5339
2026-01-08 22:09:46.93	46.34	12.32	-44.3	-47.7	15.2	0.00e+00	0	41	0	103809024	60	5267
2026-01-08 22:09:47.93	46.49	12.38	-44.4	-47.8	15.1	0.00e+00	0	42	0	104857600	60	5338
2026-01-08 22:09:48.93	46.64	12.44	-44.2	-47.6	15.4	0.00e+00	0	41	0	106954752	60	5171
2026-01-08 22:09:49.93	46.80	12.50	-44.1	-47.4	15.6	0.00e+00	0	41	0	109051904	60	5063
2026-01-08 22:09:50.94	46.95	12.56	-44.0	-47.2	15.8	0.00e+00	0	42	0	111149056	59	5219
2026-01-08 22:09:51.94	47.11	12.61	-43.8	-47.0	15.9	0.00e+00	0	42	0	112197632	59	5110
2026-01-08 22:09:52.95	47.26	12.67	-43.7	-46.8	16.1	0.00e+00	0	42	0	114294784	59	4993
2026-01-08 22:09:53.95	47.42	12.73	-43.7	-46.7	16.2	0.00e+00	0	42	0	116391936	59	4962
2026-01-08 22:09:54.95	47.58	12.79	-43.7	-46.8	16.1	0.00e+00	0	42	0	118489088	59	4984
2026-01-08 22:09:55.95	47.73	12.85	-43.8	-46.9	16.0	0.00e+00	0	42	0	120586240	59	5059
2026-01-08 22:09:56.96	47.89	12.91	-43.8	-47.0	15.9	0.00e+00	0	42	0	121634816	59	5106
2026-01-08 22:09:57.96	48.05	12.97	-43.9	-47.1	15.8	0.00e+00	0	42	0	123731968	59	5212
2026-01-08 22:09:58.97	48.21	13.03	-44.1	-47.3	15.6	0.00e+00	0	42	0	125829120	59	5339
2026-01-08 22:09:59.97	48.37	13.09	-44.3	-47.6	15.3	0.00e+00	0	42	0	127926272	59	5521
2026-01-08 22:10:00.97	48.53	13.14	-44.1	-47.3	15.6	0.00e+00	0	41	0	130023424	59	5330
2026-01-08 22:10:01.97	48.69	13.20	-44.1	-47.4	15.5	0.00e+00	0	42	0	131072000	59	5398
2026-01-08 22:10:02.98	48.85	13.26	-44.1	-47.4	15.5	0.00e+00	0	41	0	133169152	59	5402
2026-01-08 22:10:03.98	49.01	13.32	-44.0	-47.3	15.7	0.00e+00	0	42	0	135266304	59	5295
2026-01-08 22:10:04.98	49.18	13.38	-44.0	-47.2	15.8	0.00e+00	0	42	0	137363456	59	5242
2026-01-08 22:10:05.99	49.34	13.44	-43.8	-47.0	16.0	0.00e+00	0	42	0	139460608	59	5124
2026-01-08 22:10:06.99	49.51	13.50	-43.7	-46.8	16.2	0.00e+00	0	42	0	140509184	59	4995
2026-01-08 22:10:07.99	49.67	13.55	-43.7	-46.8	16.2	0.00e+00	0	42	0	142606336	59	4997
2026-01-08 22:10:08.99	49.83	13.61	-43.7	-46.8	16.2	0.00e+00	0	42	0	144703488	59	5019
2026-01-08 22:10:09.99	50.00	13.67	-43.6	-46.6	16.3	0.00e+00	0	42	0	146800640	59	4919
2026-01-08 22:10:11.00	50.17	13.73	-43.6	-46.7	16.3	0.00e+00	0	42	0	148897792	59	4930
2026-01-08 22:10:12.00	50.33	13.78	-43.6	-46.6	16.3	0.00e+00	0	42	0	149946368	59	4917
2026-01-08 22:10:13.00	50.50	13.84	-43.7	-46.8	16.1	0.00e+00	0	42	0	152043520	59	5037
2026-01-08 22:10:14.01	50.67	13.90	-43.7	-46.7	16.2	0.00e+00	0	42	0	154140672	59	4962
2026-01-08 22:10:15.01	50.84	13.96	-43.6	-46.6	16.3	0.00e+00	0	42	0	156237824	59	4918
2026-01-08 22:10:16.01	51.01	14.02	-43.7	-46.7	16.2	0.00e+00	0	42	0	158334976	59	4970
2026-01-08 22:10:17.02	51.18	14.07	-43.5	-46.5	16.4	0.00e+00	0	42	0	159383552	59	4864
2026-01-08 22:10:18.02	51.35	14.13	-43.7	-46.8	16.2	0.00e+00	0	42	0	161480704	59	4996
2026-01-08 22:10:19.03	51.53	14.19	-43.7	-46.8	16.2	0.00e+00	0	42	0	163577856	59	5029
2026-01-08 22:10:20.02	51.70	14.24	-43.8	-46.9	16.0	0.00e+00	0	42	0	165675008	59	5081
2026-01-08 22:10:21.03	51.87	14.30	-43.8	-46.9	16.1	0.00e+00	0	42	0	166723584	59	5060
2026-01-08 22:10:22.03	52.04	14.36	-43.8	-47.0	16.0	0.00e+00	0	42	0	168820736	59	5114
2026-01-08 22:10:23.04	52.22	14.42	-43.8	-46.9	16.1	0.00e+00	0	42	0	170917888	59	5046
2026-01-08 22:10:24.04	52.39	14.47	-43.7	-46.8	16.2	0.00e+00	0	42	0	173015040	59	4991
2026-01-08 22:10:25.04	52.57	14.53	-43.8	-46.9	16.2	0.00e+00	0	42	0	175112192	59	5042
2026-01-08 22:10:26.04	52.75	14.58	-43.7	-46.8	16.2	0.00e+00	0	42	0	176160768	59	5014
2026-01-08 22:10:27.05	52.92	14.64	-43.6	-46.6	16.4	0.00e+00	0	42	0	178257920	59	4884
2026-01-08 22:10:28.05	53.10	14.70	-43.5	-46.6	16.4	0.00e+00	0	42	0	180355072	59	4876
2026-01-08 22:10:29.05	53.28	14.75	-43.6	-46.7	16.3	0.00e+00	0	42	0	182452224	59	4945
2026-01-08 22:10:30.05	53.46	14.81	-43.7	-46.8	16.2	0.00e+00	0	42	0	184549376	59	5039
2026-01-08 22:10:31.06	53.64	14.87	-43.7	-46.8	16.2	0.00e+00	0	42	0	185597952	59	5010
2026-01-08 22:10:32.06	53.82	14.92	-43.9	-47.1	16.0	0.00e+00	0	42	0	187695104	59	5182
2026-01-08 22:10:33.45	54.07	15.00	-44.2	-47.5	15.5	0.00e+00	0	42	0	190840832	59	5446
2026-01-08 22:10:34.19	54.20	15.04	-44.2	-47.5	15.6	0.00e+00	0	42	0	191889408	59	5403
2026-01-08 22:10:35.48	54.44	15.11	-44.1	-47.4	15.7	0.00e+00	0	42	0	193986560	59	5379
2026-01-08 22:10:36.20	54.57	15.15	-44.1	-47.3	15.7	0.00e+00	0	42	0	196083712	59	5312
2026-01-08 22:10:37.49	54.81	15.22	-44.1	-47.4	15.6	0.00e+00	0	42	0	198180864	59	5382
2026-01-08 22:10:38.21	54.94	15.26	-44.1	-47.4	15.6	0.00e+00	0	42	0	199229440	59	5396
2026-01-08 22:10:39.50	55.18	15.33	-44.2	-47.6	15.5	7.00e-07	0	42	0	201326592	59	5496
2026-01-08 22:10:40.21	55.31	15.37	-44.1	-47.4	15.6	0.00e+00	0	42	0	203423744	59	5402
2026-01-08 22:10:41.50	55.55	15.44	-44.4	-47.9	15.2	0.00e+00	0	42	0	205520896	59	5694
2026-01-08 22:10:42.22	55.68	15.48	-44.3	-47.8	15.3	0.00e+00	0	42	0	206569472	59	5639
2026-01-08 22:10:43.57	55.94	15.55	-44.4	-47.9	15.2	0.00e+00	0	42	0	209715200	59	5711
2026-01-08 22:10:44.28	56.07	15.59	-44.6	-48.2	14.9	0.00e+00	0	42	0	210763776	59	5896
2026-01-08 22:10:45.64	56.33	15.66	-44.5	-48.1	15.1	0.00e+00	0	42	0	212860928	59	5792
2026-01-08 22:10:46.35	56.46	15.70	-44.4	-47.9	15.3	0.00e+00	0	42	0	214958080	59	5667
2026-01-08 22:10:47.64	56.70	15.77	-44.5	-47.9	15.3	0.00e+00	0	42	0	217055232	59	5673
2026-01-08 22:10:48.68	56.90	15.82	-44.4	-47.8	15.3	0.00e+00	0	42	0	219152384	59	5652
2026-01-08 22:10:49.99	57.15	15.89	-44.5	-47.9	15.2	0.00e+00	0	42	0	221249536	59	5690
2026-01-08 22:10:50.71	57.29	15.93	-44.5	-48.0	15.1	7.00e-07	0	42	0	223346688	59	5753
2026-01-08 22:10:52.00	57.54	16.00	-44.4	-47.9	15.3	0.00e+00	0	42	0	225443840	59	5666
2026-01-08 22:10:52.72	57.68	16.03	-44.5	-47.9	15.2	0.00e+00	0	42	0	226492416	59	5706
2026-01-08 22:10:54.01	57.93	16.10	-44.4	-47.8	15.3	0.00e+00	0	42	0	229638144	59	5650
2026-01-08 22:10:54.73	58.07	16.14	-44.4	-47.8	15.3	0.00e+00	0	42	0	230686720	59	5642
2026-01-08 22:10:56.02	58.32	16.21	-44.5	-48.0	15.1	0.00e+00	0	42	0	232783872	59	5777
2026-01-08 22:10:56.73	58.46	16.24	-44.6	-48.2	15.0	0.00e+00	0	42	0	233832448	59	5871
2026-01-08 22:10:58.02	58.72	16.31	-44.7	-48.3	14.9	0.00e+00	0	42	0	236978176	60	5629
2026-01-08 22:10:58.74	58.86	16.34	-44.7	-48.3	14.9	0.00e+00	0	42	0	238026752	60	5618
2026-01-08 22:11:00.16	59.14	16.42	-44.7	-48.2	15.0	0.00e+00	0	42	0	240123904	60	5565
2026-01-08 22:11:00.88	59.28	16.45	-44.6	-48.1	15.1	0.00e+00	0	42	0	242221056	60	5497
2026-01-08 22:11:02.23	59.55	16.52	-44.7	-48.2	15.0	0.00e+00	0	42	0	244318208	60	5559
2026-01-08 22:11:02.94	59.70	16.56	-44.4	-47.8	15.4	0.00e+00	0	42	0	245366784	60	5336
2026-01-08 22:11:04.23	59.95	16.62	-44.5	-48.1	15.1	0.00e+00	0	42	0	248512512	60	5471
2026-01-08 22:11:04.95	60.10	16.66	-44.5	-48.0	15.3	0.00e+00	0	42	0	249561088	60	5413
2026-01-08 22:11:06.24	60.36	16.72	-44.6	-48.1	15.2	0.00e+00	0	42	0	251658240	60	5518
2026-01-08 22:11:06.95	60.50	16.75	-44.6	-48.2	15.0	0.00e+00	0	42	0	253755392	60	5591
2026-01-08 22:11:08.24	60.77	16.82	-44.9	-48.6	14.5	7.00e-07	0	42	0	255852544	60	5833
2026-01-08 22:11:08.96	60.91	16.85	-44.9	-48.7	14.5	0.00e+00	0	42	0	256901120	60	5872
2026-01-08 22:11:10.25	61.18	16.91	-44.8	-48.4	14.8	7.00e-07	0	42	0	258998272	60	5693
2026-01-08 22:11:11.06	61.34	16.95	-44.7	-48.2	15.0	0.00e+00	0	42	0	261095424	60	5588
2026-01-08 22:11:12.52	61.65	17.02	-44.6	-48.1	15.1	0.00e+00	0	42	0	264241152	60	5499
2026-01-08 22:11:13.24	61.79	17.06	-44.5	-47.9	15.4	0.00e+00	0	42	0	265289728	60	5361
2026-01-08 22:11:14.74	62.11	17.13	-44.5	-47.9	15.3	0.00e+00	0	42	0	268435456	60	5385
2026-01-08 22:11:15.45	62.25	17.16	-44.4	-47.8	15.4	0.00e+00	0	42	0	269484032	60	5299
2026-01-08 22:11:16.74	62.52	17.22	-44.5	-47.9	15.4	0.00e+00	0	42	0	271581184	60	5341
2026-01-08 22:11:17.46	62.67	17.26	-44.5	-47.9	15.4	0.00e+00	0	42	0	272629760	60	5366
2026-01-08 22:11:18.75	62.95	17.31	-44.3	-47.6	15.6	0.00e+00	0	42	0	275775488	60	5196
2026-01-08 22:11:19.47	63.10	17.35	-44.3	-47.5	15.7	0.00e+00	0	42	0	276824064	60	5140
2026-01-08 22:11:20.76	63.37	17.41	-44.3	-47.5	15.7	0.00e+00	0	42	0	278921216	60	5144
2026-01-08 22:11:21.47	63.52	17.44	-44.3	-47.6	15.7	0.00e+00	0	42	0	281018368	60	5167
2026-01-08 22:11:22.76	63.80	17.50	-44.3	-47.6	15.7	0.00e+00	0	42	0	283115520	60	5190
2026-01-08 22:11:23.48	63.95	17.53	-44.4	-47.7	15.5	0.00e+00	0	42	0	284164096	60	5275
2026-01-08 22:11:24.77	64.23	17.59	-44.5	-47.9	15.4	0.00e+00	0	42	0	286261248	60	5367
2026-01-08 22:11:25.48	64.38	17.62	-44.8	-48.3	15.0	0.00e+00	0	42	0	288358400	60	5618
2026-01-08 22:11:26.77	64.66	17.67	-44.7	-48.1	15.2	0.00e+00	0	42	0	290455552	60	5510
2026-01-08 22:11:27.49	64.81	17.70	-44.5	-47.8	15.5	0.00e+00	0	42	0	291504128	60	5326
2026-01-08 22:11:28.78	65.09	17.76	-44.5	-47.8	15.4	0.00e+00	0	42	0	294649856	60	5299
2026-01-08 22:11:29.49	65.24	17.79	-44.0	-47.1	16.1	0.00e+00	0	42	0	295698432	60	4914
2026-01-08 22:11:30.79	65.53	17.85	-43.9	-46.8	16.4	0.00e+00	0	42	0	297795584	59	5038
2026-01-08 22:11:31.50	65.68	17.88	-43.9	-46.9	16.3	0.00e+00	0	42	0	298844160	59	5071
2026-01-08 22:11:32.79	65.96	17.93	-44.0	-47.0	16.3	0.00e+00	0	42	0	301989888	59	5110
2026-01-08 22:11:33.50	66.12	17.96	-43.8	-46.8	16.4	0.00e+00	0	42	0	303038464	59	5018
2026-01-08 22:11:34.79	66.40	18.01	-44.1	-47.2	16.0	0.00e+00	0	42	0	305135616	59	5258
2026-01-08 22:11:35.51	66.56	18.04	-44.3	-47.4	15.9	0.00e+00	0	42	0	307232768	59	5366
2026-01-08 22:11:36.80	66.85	18.09	-44.2	-47.3	15.9	0.00e+00	0	42	0	309329920	59	5292
2026-01-08 22:11:37.51	67.01	18.12	-44.2	-47.3	16.0	0.00e+00	0	42	0	310378496	59	5296
2026-01-08 22:11:38.81	67.30	18.17	-44.0	-47.0	16.3	0.00e+00	0	42	0	313524224	59	5129
2026-01-08 22:11:39.63	67.48	18.21	-44.0	-47.1	16.2	0.00e+00	0	42	0	314572800	59	5180
2026-01-08 22:11:41.12	67.81	18.26	-44.0	-47.0	16.2	0.00e+00	0	42	0	317718528	59	5157
2026-01-08 22:11:41.83	67.97	18.29	-44.0	-47.0	16.2	0.00e+00	0	42	0	318767104	59	5138
2026-01-08 22:11:43.12	68.26	18.34	-43.9	-46.8	16.3	0.00e+00	0	42	0	320864256	59	5040
2026-01-08 22:11:43.84	68.42	18.37	-44.0	-47.0	16.2	0.00e+00	0	42	0	322961408	59	5150
2026-01-08 22:11:45.13	68.71	18.42	-43.8	-46.7	16.4	0.00e+00	0	42	0	325058560	59	4982
2026-01-08 22:11:45.90	68.89	18.44	-43.5	-46.2	16.9	0.00e+00	0	42	0	326107136	59	4700
2026-01-08 22:11:47.19	69.18	18.49	-43.2	-45.8	17.4	0.00e+00	0	42	0	329252864	58	4752
2026-01-08 22:11:47.91	69.35	18.52	-43.2	-45.9	17.3	0.00e+00	0	42	0	330301440	58	4769
2026-01-08 22:11:49.20	69.64	18.56	-43.4	-46.1	17.1	0.00e+00	0	42	0	332398592	58	4917
2026-01-08 22:11:50.05	69.83	18.59	-43.3	-46.1	17.1	0.00e+00	0	42	0	334495744	58	4898
2026-01-08 22:11:51.20	70.10	18.64	-43.5	-46.3	16.8	0.00e+00	0	42	0	336592896	58	5041
2026-01-08 22:11:52.31	70.35	18.67	-43.6	-46.5	16.7	0.00e+00	0	42	0	338690048	58	5135
2026-01-08 22:11:53.35	70.59	18.71	-43.5	-46.4	16.8	0.00e+00	0	42	0	340787200	58	5045
2026-01-08 22:11:54.34	70.82	18.74	-43.4	-46.2	17.0	0.00e+00	0	42	0	341835776	58	4976
2026-01-08 22:11:55.34	71.05	18.78	-43.2	-46.0	17.2	0.00e+00	0	42	0	343932928	58	4826
2026-01-08 22:11:56.35	71.29	18.81	-43.3	-46.1	17.2	0.00e+00	0	42	0	346030080	58	4876
2026-01-08 22:11:57.35	71.52	18.84	-43.4	-46.2	17.0	0.00e+00	0	42	0	348127232	58	4983
2026-01-08 22:11:58.35	71.75	18.87	-43.5	-46.3	16.9	0.00e+00	0	42	0	350224384	58	5014
2026-01-08 22:11:59.36	71.99	18.91	-43.6	-46.4	16.8	0.00e+00	0	42	0	351272960	58	5093
2026-01-08 22:12:00.36	72.22	18.94	-43.5	-46.4	16.8	0.00e+00	0	42	0	353370112	58	5053
2026-01-08 22:12:01.37	72.46	18.97	-43.2	-46.0	17.2	0.00e+00	0	42	0	355467264	58	4825
2026-01-08 22:12:02.37	72.69	19.00	-43.3	-46.0	17.2	0.00e+00	0	42	0	357564416	58	4851
2026-01-08 22:12:03.37	72.93	19.03	-43.4	-46.2	17.0	0.00e+00	0	42	0	359661568	58	4950
2026-01-08 22:12:04.38	73.17	19.06	-43.4	-46.1	17.1	0.00e+00	0	42	0	360710144	58	4907
2026-01-08 22:12:05.38	73.40	19.09	-43.5	-46.3	17.0	0.00e+00	0	42	0	362807296	58	5008
2026-01-08 22:12:06.47	73.66	19.12	-43.5	-46.3	17.0	0.00e+00	0	42	0	364904448	58	5004
2026-01-08 22:12:07.35	73.87	19.14	-43.4	-46.2	17.0	0.00e+00	0	42	0	367001600	58	4978
2026-01-08 22:12:08.49	74.14	19.18	-43.1	-45.8	17.4	0.00e+00	0	42	0	369098752	58	4748
2026-01-08 22:12:09.36	74.35	19.20	-43.2	-45.9	17.4	0.00e+00	0	42	0	370147328	58	4768
2026-01-08 22:12:10.50	74.62	19.23	-43.1	-45.8	17.4	0.00e+00	0	42	0	372244480	57	5018
2026-01-08 22:12:11.36	74.82	19.25	-43.2	-45.9	17.3	0.00e+00	0	42	0	374341632	57	5086
2026-01-08 22:12:12.51	75.10	19.28	-43.5	-46.3	16.9	0.00e+00	0	42	0	376438784	57	5340
2026-01-08 22:12:13.37	75.31	19.30	-43.8	-46.8	16.5	0.00e+00	0	42	0	377487360	58	5284
2026-01-08 22:12:14.51	75.58	19.33	-44.0	-47.1	16.1	0.00e+00	0	42	0	379584512	58	5481
2026-01-08 22:12:15.37	75.79	19.35	-44.0	-47.0	16.3	0.00e+00	0	42	0	381681664	58	5403
2026-01-08 22:12:16.52	76.06	19.38	-43.9	-46.9	16.3	0.00e+00	0	42	0	383778816	58	5401
2026-01-08 22:12:17.38	76.27	19.40	-43.9	-46.9	16.4	0.00e+00	0	42	0	385875968	58	5358
2026-01-08 22:12:18.53	76.55	19.43	-44.0	-47.1	16.3	0.00e+00	0	42	0	387973120	58	5473
2026-01-08 22:12:19.39	76.76	19.45	-44.0	-47.2	16.1	0.00e+00	0	42	0	389021696	58	5532
2026-01-08 22:12:20.53	77.03	19.47	-44.3	-47.5	15.7	0.00e+00	0	42	0	391118848	59	5456
2026-01-08 22:12:21.39	77.24	19.49	-44.5	-47.7	15.6	0.00e+00	0	42	0	393216000	59	5563
2026-01-08 22:12:22.63	77.54	19.52	-44.6	-47.8	15.4	0.00e+00	0	42	0	395313152	59	5634
2026-01-08 22:12:23.49	77.75	19.54	-44.3	-47.4	15.8	0.00e+00	0	42	0	396361728	59	5393
2026-01-08 22:12:24.64	78.03	19.56	-44.0	-47.1	16.2	0.00e+00	0	42	0	399507456	59	5168
2026-01-08 22:12:25.49	78.24	19.58	-44.0	-46.9	16.4	0.00e+00	0	42	0	400556032	59	5054
2026-01-08 22:12:26.64	78.52	19.60	-43.8	-46.7	16.6	0.00e+00	0	42	0	402653184	59	4946
2026-01-08 22:12:27.51	78.73	19.61	-43.9	-46.8	16.5	0.00e+00	0	42	0	404750336	59	4996
2026-01-08 22:12:28.65	79.01	19.64	-43.9	-46.8	16.5	0.00e+00	0	42	0	406847488	59	5005
2026-01-08 22:12:29.51	79.22	19.65	-43.9	-46.8	16.5	0.00e+00	0	42	0	407896064	59	5017
2026-01-08 22:12:30.66	79.50	19.67	-43.9	-46.8	16.4	0.00e+00	0	42	0	409993216	59	5032
2026-01-08 22:12:31.52	79.71	19.69	-43.7	-46.6	16.6	0.00e+00	0	42	0	412090368	59	4913
2026-01-08 22:12:32.67	80.00	19.70	-43.7	-46.6	16.7	0.00e+00	0	42	0	414187520	59	4906
2026-01-08 22:12:33.53	80.21	19.72	-43.6	-46.4	16.8	0.00e+00	0	42	0	415236096	59	4777
2026-01-08 22:12:34.67	80.49	19.73	-43.8	-46.7	16.6	0.00e+00	0	42	0	417333248	59	4928
2026-01-08 22:12:35.53	80.70	19.75	-43.8	-46.6	16.6	0.00e+00	0	42	0	419430400	59	4905
2026-01-08 22:12:36.68	80.99	19.76	-44.0	-46.9	16.3	0.00e+00	0	42	0	421527552	59	5074
2026-01-08 22:12:37.54	81.20	19.77	-44.3	-47.4	15.9	0.00e+00	0	42	0	423624704	59	5369
2026-01-08 22:12:38.69	81.48	19.79	-44.4	-47.6	15.7	0.00e+00	0	42	0	425721856	59	5482
2026-01-08 22:12:39.55	81.70	19.80	-44.3	-47.5	15.7	0.00e+00	0	42	0	426770432	59	5434
2026-01-08 22:12:40.69	81.98	19.81	-44.2	-47.5	15.8	0.00e+00	0	42	0	428867584	59	5403
2026-01-08 22:12:41.55	82.19	19.82	-44.3	-47.5	15.8	0.00e+00	0	42	0	430964736	59	5463
2026-01-08 22:12:42.70	82.48	19.84	-44.5	-47.8	15.5	0.00e+00	0	42	0	433061888	59	5622
2026-01-08 22:12:43.70	82.73	19.85	-44.5	-47.8	15.5	0.00e+00	0	42	0	435159040	59	5631
2026-01-08 22:12:44.88	83.02	19.86	-44.5	-47.7	15.6	0.00e+00	0	42	0	437256192	59	5561
2026-01-08 22:12:45.74	83.23	19.87	-44.3	-47.4	15.9	0.00e+00	0	42	0	438304768	59	5351
2026-01-08 22:12:47.10	83.57	19.88	-44.0	-47.0	16.3	0.00e+00	0	42	0	441450496	59	5127
2026-01-08 22:12:47.81	83.75	19.88	-44.0	-47.0	16.3	0.00e+00	0	42	0	442499072	59	5121
2026-01-08 22:12:49.10	84.07	19.89	-43.8	-46.8	16.5	0.00e+00	0	42	0	444596224	59	4998
2026-01-08 22:12:50.29	84.37	19.90	-43.9	-46.9	16.3	0.00e+00	0	42	0	446693376	59	5082
2026-01-08 22:12:51.15	84.58	19.91	-44.2	-47.3	16.0	0.00e+00	0	42	0	448790528	59	5315
2026-01-08 22:12:52.30	84.87	19.91	-44.4	-47.6	15.7	0.00e+00	0	42	0	450887680	59	5495
2026-01-08 22:12:53.16	85.08	19.92	-44.4	-47.6	15.7	0.00e+00	0	42	0	452984832	59	5472
2026-01-08 22:12:54.35	85.38	19.93	-44.4	-47.5	15.7	0.00e+00	0	42	0	455081984	59	5449
2026-01-08 22:12:55.21	85.59	19.93	-44.2	-47.3	15.9	0.00e+00	0	42	0	456130560	59	5310
2026-01-08 22:12:56.42	85.90	19.93	-44.2	-47.3	15.9	0.00e+00	0	42	0	458227712	59	5327
2026-01-08 22:12:57.28	86.11	19.94	-44.3	-47.5	15.8	0.00e+00	0	42	0	460324864	59	5410
2026-01-08 22:12:58.43	86.40	19.94	-44.4	-47.7	15.6	0.00e+00	0	42	0	462422016	59	5542
2026-01-08 22:12:59.29	86.61	19.94	-44.5	-47.8	15.5	0.00e+00	0	42	0	463470592	59	5627
2026-01-08 22:13:00.43	86.90	19.94	-44.5	-47.8	15.5	0.00e+00	0	42	0	466616320	59	5647
2026-01-08 22:13:01.29	87.11	19.94	-44.3	-47.4	15.8	0.00e+00	0	42	0	467664896	59	5394
2026-01-08 22:13:02.44	87.40	19.94	-44.2	-47.3	15.9	0.00e+00	0	42	0	469762048	59	5315
2026-01-08 22:13:03.30	87.62	19.94	-44.2	-47.2	16.0	0.00e+00	0	42	0	471859200	59	5267
2026-01-08 22:13:04.45	87.90	19.94	-44.2	-47.2	16.1	0.00e+00	0	42	0	473956352	59	5267
2026-01-08 22:13:05.31	88.12	19.94	-44.4	-47.5	15.8	0.00e+00	0	42	0	475004928	59	5431
2026-01-08 22:13:06.45	88.40	19.94	-44.6	-47.8	15.5	0.00e+00	0	42	0	477102080	59	5593
2026-01-08 22:13:07.31	88.62	19.94	-44.5	-47.7	15.6	0.00e+00	0	42	0	479199232	59	5549
2026-01-08 22:13:08.46	88.91	19.94	-44.4	-47.6	15.7	0.00e+00	0	42	0	481296384	59	5474
2026-01-08 22:13:09.32	89.12	19.93	-44.4	-47.5	15.8	0.00e+00	0	42	0	482344960	59	5428
2026-01-08 22:13:10.47	89.41	19.93	-44.1	-47.1	16.2	0.00e+00	0	42	0	484442112	59	5205
2026-01-08 22:13:11.33	89.62	19.92	-44.1	-47.0	16.3	0.00e+00	0	42	0	486539264	59	5147
2026-01-08 22:13:12.48	89.91	19.92	-43.9	-46.8	16.5	0.00e+00	0	42	0	488636416	59	5022
2026-01-08 22:13:13.34	90.13	19.91	-43.8	-46.7	16.6	0.00e+00	0	42	0	490733568	59	4974
2026-01-08 22:13:14.49	90.41	19.91	-43.9	-46.9	16.5	0.00e+00	0	42	0	492830720	59	5043
2026-01-08 22:13:15.35	90.63	19.90	-43.8	-46.7	16.6	0.00e+00	0	42	0	493879296	59	4935
2026-01-08 22:13:16.65	90.95	19.89	-43.9	-46.8	16.6	0.00e+00	0	42	0	497025024	59	4984
2026-01-08 22:13:17.37	91.13	19.89	-44.1	-47.0	16.3	0.00e+00	0	42	0	498073600	59	5124
2026-01-08 22:13:18.66	91.45	19.88	-44.2	-47.2	16.2	0.00e+00	0	42	0	500170752	59	5231
2026-01-08 22:13:19.38	91.63	19.87	-44.3	-47.3	16.0	0.00e+00	0	42	0	501219328	59	5312
2026-01-08 22:13:20.67	91.95	19.86	-44.4	-47.6	15.8	0.00e+00	0	42	0	504365056	59	5485
2026-01-08 22:13:21.39	92.13	19.85	-44.5	-47.6	15.8	0.00e+00	0	42	0	505413632	59	5500
2026-01-08 22:13:22.68	92.45	19.84	-44.5	-47.6	15.7	0.00e+00	0	42	0	507510784	59	5488
2026-01-08 22:13:23.54	92.67	19.83	-44.2	-47.2	16.1	0.00e+00	0	42	0	509607936	59	5256
2026-01-08 22:13:24.68	92.95	19.81	-44.0	-47.0	16.3	0.00e+00	0	42	0	511705088	59	5106
2026-01-08 22:13:25.76	93.22	19.80	-44.1	-47.0	16.3	0.00e+00	0	42	0	513802240	59	5111
2026-01-08 22:13:26.81	93.48	19.79	-44.0	-46.9	16.4	0.00e+00	0	42	0	515899392	59	5074
2026-01-08 22:13:27.89	93.74	19.77	-44.2	-47.1	16.2	0.00e+00	0	42	0	517996544	59	5195
2026-01-08 22:13:28.75	93.96	19.76	-44.1	-47.0	16.3	0.00e+00	0	42	0	519045120	59	5128
2026-01-08 22:13:29.90	94.24	19.75	-44.2	-47.1	16.2	0.00e+00	0	42	0	521142272	59	5169
2026-01-08 22:13:30.76	94.45	19.73	-44.2	-47.1	16.2	0.00e+00	0	42	0	523239424	59	5204
2026-01-08 22:13:31.91	94.74	19.72	-44.1	-47.1	16.2	0.00e+00	0	42	0	525336576	59	5174
2026-01-08 22:13:32.76	94.95	19.70	-43.8	-46.7	16.6	0.00e+00	0	42	0	526385152	59	4941
2026-01-08 22:13:33.91	95.23	19.68	-43.8	-46.7	16.6	0.00e+00	0	42	0	528482304	59	4929
2026-01-08 22:13:34.77	95.44	19.67	-43.8	-46.6	16.6	0.00e+00	0	42	0	530579456	59	4920
2026-01-08 22:13:35.95	95.73	19.65	-43.9	-46.7	16.6	0.00e+00	0	42	0	532676608	59	4972
2026-01-08 22:13:36.81	95.94	19.63	-44.0	-46.9	16.4	0.00e+00	0	42	0	534773760	59	5061
2026-01-08 22:13:38.04	96.24	19.61	-43.9	-46.8	16.5	0.00e+00	0	42	0	536870912	59	5007
2026-01-08 22:13:38.90	96.45	19.60	-44.1	-47.1	16.2	0.00e+00	0	42	0	537919488	59	5192
2026-01-08 22:13:40.04	96.73	19.57	-44.1	-47.0	16.3	0.00e+00	0	42	0	540016640	59	5113
2026-01-08 22:13:40.90	96.94	19.56	-44.1	-47.0	16.2	0.00e+00	0	42	0	542113792	59	5129
2026-01-08 22:13:42.05	97.22	19.53	-44.0	-46.9	16.4	0.00e+00	0	43	0	544210944	59	5044
2026-01-08 22:13:42.91	97.43	19.51	-44.2	-47.2	15.9	0.00e+00	0	42	0	546308096	59	5233
2026-01-08 22:13:44.05	97.71	19.49	-44.2	-47.2	16.1	0.00e+00	0	42	0	547356672	59	5257
2026-01-08 22:13:44.91	97.92	19.47	-44.5	-47.7	15.7	0.00e+00	0	42	0	549453824	59	5535
2026-01-08 22:13:46.06	98.20	19.45	-44.6	-47.8	15.5	0.00e+00	0	42	0	551550976	59	5605
2026-01-08 22:13:46.92	98.41	19.43	-44.7	-47.9	15.4	0.00e+00	0	42	0	553648128	60	5370
2026-01-08 22:13:48.07	98.69	19.40	-44.7	-48.0	15.4	0.00e+00	0	42	0	555745280	60	5422
2026-01-08 22:13:48.93	98.89	19.38	-44.5	-47.6	15.7	0.00e+00	0	42	0	556793856	60	5202
2026-01-08 22:13:50.07	99.17	19.35	-44.2	-47.2	16.1	0.00e+00	0	42	0	558891008	60	4969
2026-01-08 22:13:50.93	99.38	19.33	-43.9	-46.7	16.5	0.00e+00	0	42	0	560988160	59	4981
2026-01-08 22:13:52.09	99.65	19.30	-43.8	-46.6	16.7	0.00e+00	0	42	0	563085312	59	4873
2026-01-08 22:13:52.95	99.86	19.28	-43.7	-46.5	16.7	0.00e+00	0	42	0	564133888	59	4864
2026-01-08 22:13:54.09	100.13	19.25	-43.7	-46.5	16.8	0.00e+00	0	42	0	566231040	59	4849
2026-01-08 22:13:54.95	100.34	19.23	-44.0	-46.8	16.5	0.00e+00	0	42	0	568328192	59	5026
2026-01-08 22:13:56.10	100.61	19.20	-44.1	-47.0	16.4	0.00e+00	0	42	0	570425344	59	5120
2026-01-08 22:13:57.04	100.84	19.17	-44.2	-47.1	16.2	0.00e+00	0	42	0	572522496	59	5201
2026-01-08 22:13:58.04	101.08	19.14	-43.7	-46.5	16.8	0.00e+00	0	42	0	574619648	59	4823
2026-01-08 22:13:59.05	101.32	19.11	-43.7	-46.4	16.8	0.00e+00	0	42	0	575668224	59	4786
2026-01-08 22:14:00.05	101.55	19.08	-43.6	-46.3	17.0	0.00e+00	0	42	0	577765376	58	4998
2026-01-08 22:14:01.05	101.79	19.05	-43.6	-46.4	16.9	0.00e+00	0	42	0	579862528	58	5063
2026-01-08 22:14:02.05	102.03	19.03	-43.8	-46.6	16.7	0.00e+00	0	42	0	581959680	58	5194
2026-01-08 22:14:03.05	102.26	19.00	-43.8	-46.6	16.7	0.00e+00	0	42	0	584056832	58	5180
2026-01-08 22:14:04.06	102.50	18.96	-43.8	-46.6	16.7	0.00e+00	0	42	0	585105408	58	5166
2026-01-08 22:14:05.06	102.74	18.93	-43.7	-46.5	16.8	0.00e+00	0	42	0	587202560	58	5156
2026-01-08 22:14:06.07	102.97	18.90	-43.7	-46.5	16.8	0.00e+00	0	42	0	589299712	58	5113
2026-01-08 22:14:07.07	103.21	18.87	-43.5	-46.3	17.0	0.00e+00	0	42	0	591396864	58	4986
2026-01-08 22:14:08.07	103.44	18.84	-43.5	-46.2	17.0	0.00e+00	0	42	0	592445440	58	4963
2026-01-08 22:14:09.08	103.68	18.80	-43.4	-46.1	17.1	0.00e+00	0	42	0	594542592	58	4907
2026-01-08 22:14:10.08	103.91	18.77	-43.1	-45.8	17.5	0.00e+00	0	42	0	596639744	58	4713
2026-01-08 22:14:11.08	104.14	18.74	-43.3	-46.0	17.2	0.00e+00	0	42	0	598736896	58	4853
2026-01-08 22:14:12.09	104.37	18.70	-43.3	-46.0	17.2	0.00e+00	0	42	0	600834048	58	4835
2026-01-08 22:14:13.09	104.60	18.67	-43.5	-46.2	17.0	0.00e+00	0	42	0	601882624	58	4961
2026-01-08 22:14:14.09	104.84	18.63	-43.6	-46.3	17.0	0.00e+00	0	42	0	603979776	58	5024
2026-01-08 22:14:15.10	105.07	18.60	-43.7	-46.5	16.8	0.00e+00	0	42	0	606076928	58	5126
2026-01-08 22:14:16.10	105.30	18.56	-43.7	-46.5	16.8	0.00e+00	0	42	0	608174080	58	5133
2026-01-08 22:14:17.10	105.53	18.53	-43.5	-46.3	16.9	0.00e+00	0	42	0	610271232	58	5019
2026-01-08 22:14:18.10	105.75	18.49	-43.6	-46.4	16.8	0.00e+00	0	42	0	611319808	58	5065
2026-01-08 22:14:19.10	105.98	18.45	-43.5	-46.3	16.9	0.00e+00	0	42	0	613416960	58	5038
2026-01-08 22:14:20.11	106.21	18.42	-43.7	-46.5	16.8	0.00e+00	0	42	0	615514112	58	5125
2026-01-08 22:14:21.11	106.44	18.38	-44.0	-46.9	16.4	0.00e+00	0	42	0	617611264	58	5385
2026-01-08 22:14:22.11	106.67	18.34	-44.0	-47.0	16.3	0.00e+00	0	42	0	619708416	59	5112
2026-01-08 22:14:23.12	106.89	18.30	-44.0	-46.9	16.3	0.00e+00	0	42	0	620756992	59	5091
2026-01-08 22:14:24.12	107.12	18.26	-43.8	-46.7	16.6	0.00e+00	0	42	0	622854144	59	4927
2026-01-08 22:14:25.12	107.34	18.22	-43.7	-46.6	16.6	0.00e+00	0	42	0	624951296	59	4917
2026-01-08 22:14:26.15	107.57	18.18	-43.6	-46.4	16.8	0.00e+00	0	42	0	627048448	59	4797
2026-01-08 22:14:27.17	107.80	18.14	-43.7	-46.6	16.7	0.00e+00	0	42	0	629145600	59	4903
2026-01-08 22:14:28.17	108.02	18.10	-43.7	-46.5	16.7	0.00e+00	0	42	0	630194176	59	4870
2026-01-08 22:14:29.25	108.26	18.06	-43.6	-46.4	16.9	0.00e+00	0	42	0	632291328	59	4794
2026-01-08 22:14:30.14	108.46	18.02	-43.7	-46.5	16.7	0.00e+00	0	42	0	634388480	59	4858
2026-01-08 22:14:31.15	108.69	17.98	-43.9	-46.7	16.5	0.00e+00	0	42	0	636485632	59	4964
2026-01-08 22:14:32.35	108.95	17.93	-43.9	-46.7	16.5	0.00e+00	0	42	0	638582784	59	4970
2026-01-08 22:14:33.25	109.15	17.89	-44.0	-46.9	16.3	0.00e+00	0	42	0	639631360	59	5084
2026-01-08 22:14:34.39	109.40	17.84	-44.4	-47.4	15.9	0.00e+00	0	42	0	642777088	59	5395
2026-01-08 22:14:35.25	109.59	17.81	-44.4	-47.5	15.8	0.00e+00	0	42	0	643825664	59	5444
2026-01-08 22:14:36.39	109.83	17.76	-44.4	-47.6	15.7	0.00e+00	0	42	0	645922816	59	5471
2026-01-08 22:14:37.25	110.02	17.72	-44.5	-47.6	15.7	0.00e+00	0	42	0	648019968	59	5486
2026-01-08 22:14:38.40	110.27	17.67	-44.4	-47.4	15.9	0.00e+00	0	42	0	650117120	59	5392
2026-01-08 22:14:39.26	110.46	17.63	-44.4	-47.6	15.7	0.00e+00	0	42	0	651165696	59	5469
2026-01-08 22:14:40.41	110.70	17.58	-44.4	-47.5	15.8	0.00e+00	0	42	0	653262848	59	5416
2026-01-08 22:14:41.27	110.89	17.55	-44.4	-47.5	15.7	0.00e+00	0	42	0	655360000	59	5436
2026-01-08 22:14:42.41	111.13	17.49	-44.6	-47.9	15.5	0.00e+00	0	42	0	657457152	60	5350
2026-01-08 22:14:43.27	111.32	17.46	-44.5	-47.7	15.6	0.00e+00	0	42	0	658505728	60	5259
2026-01-08 22:14:44.50	111.58	17.40	-44.5	-47.6	15.7	0.00e+00	0	42	0	661651456	60	5217
2026-01-08 22:14:45.36	111.76	17.36	-44.3	-47.3	16.0	0.00e+00	0	43	0	662700032	60	5033
2026-01-08 22:14:46.50	112.00	17.31	-44.4	-47.6	15.8	0.00e+00	0	42	0	664797184	60	5161
2026-01-08 22:14:47.36	112.19	17.27	-44.2	-47.2	16.1	0.00e+00	0	42	0	666894336	60	4945
2026-01-08 22:14:48.51	112.43	17.21	-44.3	-47.4	16.0	0.00e+00	0	42	0	668991488	60	5048
2026-01-08 22:14:49.37	112.61	17.17	-44.3	-47.4	15.9	0.00e+00	0	42	0	670040064	60	5071
2026-01-08 22:14:50.69	112.89	17.11	-44.6	-47.8	15.5	0.00e+00	0	43	0	673185792	60	5324
2026-01-08 22:14:51.40	113.03	17.08	-44.8	-48.2	15.1	0.00e+00	0	42	0	674234368	60	5529
2026-01-08 22:14:52.70	113.30	17.02	-45.1	-48.5	14.8	0.00e+00	0	42	0	676331520	60	5730
2026-01-08 22:14:53.41	113.45	16.98	-45.1	-48.5	14.9	0.00e+00	0	42	0	678428672	60	5730
2026-01-08 22:14:54.70	113.72	16.92	-45.0	-48.3	15.0	7.00e-07	0	42	0	680525824	60	5651
2026-01-08 22:14:55.48	113.88	16.88	-44.9	-48.2	15.2	0.00e+00	0	42	0	681574400	60	5570
2026-01-08 22:14:56.77	114.14	16.82	-44.9	-48.2	15.1	0.00e+00	0	42	0	684720128	60	5532
2026-01-08 22:14:57.49	114.29	16.78	-44.8	-48.1	15.2	0.00e+00	0	42	0	685768704	60	5485
2026-01-08 22:14:58.78	114.55	16.72	-44.7	-48.0	15.3	0.00e+00	0	42	0	687865856	60	5421
2026-01-08 22:14:59.62	114.72	16.68	-44.8	-48.1	15.2	0.00e+00	0	42	0	689963008	60	5483
2026-01-08 22:15:00.76	114.96	16.62	-44.8	-48.1	15.1	0.00e+00	0	42	0	692060160	60	5524
2026-01-08 22:15:01.62	115.13	16.58	-44.8	-48.1	15.2	0.00e+00	0	42	0	693108736	60	5485
2026-01-08 22:15:02.77	115.36	16.52	-44.8	-48.0	15.3	0.00e+00	0	42	0	695205888	60	5445
2026-01-08 22:15:03.63	115.53	16.48	-44.7	-48.0	15.3	0.00e+00	0	42	0	697303040	60	5425
2026-01-08 22:15:04.78	115.76	16.42	-44.5	-47.6	15.7	0.00e+00	0	42	0	699400192	60	5174
2026-01-08 22:15:05.63	115.93	16.38	-44.5	-47.6	15.7	0.00e+00	0	42	0	700448768	60	5194
2026-01-08 22:15:06.78	116.16	16.32	-44.4	-47.5	15.7	0.00e+00	0	42	0	702545920	60	5157
2026-01-08 22:15:07.64	116.33	16.27	-44.7	-47.9	15.4	0.00e+00	0	42	0	704643072	60	5374
2026-01-08 22:15:08.90	116.58	16.21	-44.8	-48.1	15.2	0.00e+00	0	42	0	706740224	60	5488
2026-01-08 22:15:09.64	116.73	16.17	-45.1	-48.5	14.8	0.00e+00	0	42	0	708837376	60	5756
2026-01-08 22:15:10.93	116.98	16.10	-45.5	-49.2	14.1	1.50e-06	0	42	0	710934528	61	5864
2026-01-08 22:15:11.65	117.12	16.06	-45.3	-49.0	14.3	0.00e+00	0	42	0	711983104	61	5732
2026-01-08 22:15:12.94	117.37	16.00	-45.3	-49.0	14.1	2.20e-06	0	42	0	714080256	61	5774
2026-01-08 22:15:13.67	117.51	15.96	-45.1	-48.7	14.5	7.00e-07	0	42	0	716177408	61	5544
2026-01-08 22:15:15.28	117.82	15.87	-44.9	-48.4	14.7	0.00e+00	0	42	0	719323136	61	5341
2026-01-08 22:15:15.85	117.93	15.84	-44.7	-48.2	14.8	0.00e+00	0	42	0	720371712	61	5229
2026-01-08 22:15:17.44	118.24	15.76	-44.7	-48.1	15.0	0.00e+00	0	42	0	722468864	61	5180
2026-01-08 22:15:18.02	118.35	15.73	-44.9	-48.4	14.7	7.00e-07	0	42	0	724566016	61	5370
2026-01-08 22:15:19.61	118.65	15.64	-44.7	-48.0	15.2	0.00e+00	0	43	0	726663168	61	5146
2026-01-08 22:15:20.37	118.80	15.60	-44.8	-48.1	15.1	0.00e+00	0	42	0	728760320	61	5205
2026-01-08 22:15:21.66	119.04	15.53	-44.5	-47.7	15.5	0.00e+00	0	42	0	730857472	61	4975
2026-01-08 22:15:22.38	119.18	15.49	-44.5	-47.6	15.7	0.00e+00	0	42	0	731906048	60	5186
2026-01-08 22:15:23.67	119.42	15.42	-44.3	-47.3	16.0	0.00e+00	0	42	0	735051776	60	5015
2026-01-08 22:15:24.38	119.55	15.38	-44.3	-47.3	15.9	0.00e+00	0	42	0	736100352	60	5017
2026-01-08 22:15:25.68	119.79	15.31	-44.4	-47.5	15.8	0.00e+00	0	42	0	738197504	60	5140
2026-01-08 22:15:26.39	119.93	15.27	-44.4	-47.5	15.8	0.00e+00	0	42	0	739246080	60	5112
2026-01-08 22:15:27.80	120.19	15.19	-44.5	-47.6	15.7	0.00e+00	0	42	0	742391808	60	5178
2026-01-08 22:15:28.51	120.32	15.16	-44.6	-47.9	15.4	0.00e+00	0	43	0	743440384	60	5348
2026-01-08 22:15:29.80	120.55	15.08	-44.5	-47.7	15.5	0.00e+00	0	42	0	746586112	60	5242
2026-01-08 22:15:30.52	120.69	15.04	-44.6	-47.8	15.5	0.00e+00	0	42	0	747634688	60	5296
2026-01-08 22:15:31.81	120.92	14.97	-44.6	-47.8	15.4	0.00e+00	0	42	0	749731840	60	5321
2026-01-08 22:15:32.52	121.05	14.93	-44.6	-47.8	15.5	7.00e-07	0	42	0	750780416	60	5313
2026-01-08 22:15:33.81	121.28	14.86	-44.4	-47.6	15.7	0.00e+00	0	42	0	753926144	60	5179
2026-01-08 22:15:34.53	121.41	14.82	-44.5	-47.7	15.6	0.00e+00	0	42	0	754974720	60	5245
2026-01-08 22:15:35.81	121.64	14.75	-44.7	-48.0	15.3	0.00e+00	0	42	0	757071872	60	5432
2026-01-08 22:15:36.59	121.78	14.70	-44.7	-48.0	15.3	0.00e+00	0	42	0	759169024	60	5419
2026-01-08 22:15:37.88	122.01	14.63	-44.8	-48.1	15.1	0.00e+00	0	42	0	761266176	60	5501
2026-01-08 22:15:38.61	122.14	14.59	-44.7	-47.9	15.3	0.00e+00	0	42	0	762314752	60	5398
2026-01-08 22:15:39.90	122.37	14.52	-44.7	-47.9	15.3	0.00e+00	0	42	0	765460480	60	5387
2026-01-08 22:15:40.62	122.50	14.48	-44.7	-48.0	15.3	0.00e+00	0	42	0	766509056	60	5423
2026-01-08 22:15:41.91	122.72	14.40	-44.5	-47.7	15.5	0.00e+00	0	42	0	768606208	60	5270
2026-01-08 22:15:42.62	122.85	14.36	-44.5	-47.7	15.6	0.00e+00	0	42	0	770703360	60	5241
2026-01-08 22:15:43.92	123.07	14.29	-44.4	-47.6	15.6	0.00e+00	0	43	0	772800512	60	5184
2026-01-08 22:15:44.63	123.20	14.25	-44.6	-47.8	15.4	0.00e+00	0	42	0	773849088	60	5322
2026-01-08 22:15:46.03	123.44	14.17	-44.7	-47.9	15.4	0.00e+00	0	42	0	776994816	60	5391
2026-01-08 22:15:46.75	123.56	14.13	-44.7	-48.0	15.2	0.00e+00	0	42	0	778043392	60	5449
2026-01-08 22:15:48.10	123.80	14.05	-44.6	-47.9	15.4	0.00e+00	0	42	0	780140544	60	5341
2026-01-08 22:15:48.81	123.92	14.01	-44.7	-48.0	15.3	0.00e+00	0	42	0	782237696	60	5412
2026-01-08 22:15:50.18	124.15	13.93	-44.4	-47.5	15.7	0.00e+00	0	42	0	784334848	60	5154
2026-01-08 22:15:51.17	124.32	13.87	-44.3	-47.4	15.9	0.00e+00	0	43	0	786432000	60	5058
2026-01-08 22:15:52.49	124.54	13.79	-44.0	-46.9	16.3	0.00e+00	0	42	0	788529152	59	5048
2026-01-08 22:15:53.20	124.66	13.75	-43.8	-46.6	16.5	0.00e+00	0	42	0	790626304	59	4917
2026-01-08 22:15:54.85	124.94	13.66	-44.3	-47.3	15.9	0.00e+00	0	42	0	792723456	59	5329
2026-01-08 22:15:55.42	125.03	13.62	-44.2	-47.2	16.0	0.00e+00	0	42	0	793772032	59	5222
2026-01-08 22:15:57.11	125.31	13.52	-44.6	-47.8	15.4	0.00e+00	0	42	0	796917760	59	5619
2026-01-08 22:15:57.69	125.41	13.49	-44.7	-48.1	15.2	0.00e+00	0	43	0	797966336	60	5472
2026-01-08 22:15:59.30	125.67	13.40	-45.0	-48.5	14.8	0.00e+00	0	42	0	801112064	60	5749
2026-01-08 22:15:59.87	125.77	13.36	-45.1	-48.6	14.7	0.00e+00	0	42	0	802160640	60	5821
2026-01-08 22:16:01.52	126.03	13.26	-44.8	-48.3	15.0	0.00e+00	0	43	0	805306368	60	5593
2026-01-08 22:16:02.09	126.13	13.23	-44.8	-48.2	15.0	0.00e+00	0	42	0	806354944	60	5564
2026-01-08 22:16:04.01	126.44	13.12	-44.4	-47.5	15.8	7.00e-07	0	42	0	810549248	60	5112
2026-01-08 22:16:04.58	126.53	13.08	-44.2	-47.3	15.9	0.00e+00	0	43	0	811597824	60	5016
2026-01-08 22:16:06.17	126.78	12.99	-43.9	-46.8	16.3	0.00e+00	0	42	0	814743552	59	5009
2026-01-08 22:16:06.74	126.87	12.96	-43.8	-46.6	16.6	0.00e+00	0	42	0	815792128	59	4891
2026-01-08 22:16:08.32	127.13	12.86	-43.8	-46.6	16.6	0.00e+00	0	42	0	818937856	59	4881
2026-01-08 22:16:08.92	127.22	12.83	-43.8	-46.7	16.5	0.00e+00	0	43	0	819986432	59	4931
2026-01-08 22:16:10.49	127.47	12.73	-43.9	-46.7	16.4	0.00e+00	0	43	0	822083584	59	4972
2026-01-08 22:16:11.10	127.56	12.70	-44.0	-46.9	16.2	0.00e+00	0	43	0	823132160	59	5087
2026-01-08 22:16:12.67	127.81	12.61	-44.0	-47.0	16.2	0.00e+00	0	43	0	826277888	59	5121
2026-01-08 22:16:13.29	127.91	12.57	-44.0	-46.9	16.2	0.00e+00	0	42	0	827326464	59	5082
2026-01-08 22:16:14.91	128.16	12.47	-44.2	-47.3	15.8	0.00e+00	0	42	0	830472192	59	5339
2026-01-08 22:16:15.49	128.25	12.44	-44.0	-47.1	16.1	0.00e+00	0	42	0	831520768	59	5168
2026-01-08 22:16:17.06	128.49	12.34	-44.2	-47.3	15.9	0.00e+00	0	42	0	834666496	59	5296
2026-01-08 22:16:17.64	128.58	12.31	-44.2	-47.4	15.8	0.00e+00	0	43	0	835715072	59	5343
2026-01-08 22:16:19.21	128.81	12.22	-44.5	-47.8	15.4	0.00e+00	0	42	0	838860800	59	5613
2026-01-08 22:16:19.82	128.91	12.18	-44.7	-48.2	15.1	0.00e+00	0	42	0	839909376	60	5534
2026-01-08 22:16:21.39	129.14	12.09	-44.9	-48.3	14.9	0.00e+00	0	42	0	843055104	60	5646
2026-01-08 22:16:21.99	129.23	12.05	-44.9	-48.4	14.9	0.00e+00	0	42	0	844103680	60	5658
2026-01-08 22:16:23.57	129.47	11.95	-45.0	-48.5	14.7	0.00e+00	0	43	0	847249408	60	5757
2026-01-08 22:16:24.19	129.56	11.92	-44.9	-48.4	14.8	0.00e+00	0	42	0	848297984	60	5690
2026-01-08 22:16:25.77	129.80	11.82	-44.8	-48.1	15.0	0.00e+00	0	42	0	851443712	60	5521
2026-01-08 22:16:26.48	129.90	11.78	-44.7	-48.1	15.1	0.00e+00	0	42	0	852492288	60	5491
2026-01-08 22:16:27.77	130.09	11.70	-44.6	-47.8	15.4	0.00e+00	0	42	0	854589440	60	5311
2026-01-08 22:16:28.49	130.20	11.66	-44.6	-47.8	15.3	0.00e+00	0	42	0	856686592	60	5310
2026-01-08 22:16:29.78	130.39	11.58	-44.7	-48.0	15.2	0.00e+00	0	42	0	858783744	60	5431
2026-01-08 22:16:30.69	130.52	11.53	-44.8	-48.2	15.0	0.00e+00	0	42	0	859832320	60	5554
2026-01-08 22:16:31.99	130.71	11.45	-44.8	-48.3	14.9	0.00e+00	0	42	0	862978048	60	5599
2026-01-08 22:16:32.71	130.81	11.41	-44.8	-48.3	14.9	0.00e+00	0	42	0	864026624	60	5625
2026-01-08 22:16:34.00	130.99	11.33	-44.7	-48.0	15.1	0.00e+00	0	42	0	866123776	60	5461
2026-01-08 22:16:34.72	131.10	11.29	-44.6	-47.9	15.3	0.00e+00	0	42	0	868220928	60	5348
2026-01-08 22:16:36.00	131.28	11.21	-44.4	-47.6	15.5	0.00e+00	0	42	0	870318080	60	5197
2026-01-08 22:16:36.72	131.38	11.17	-44.3	-47.5	15.5	0.00e+00	0	42	0	871366656	60	5141
2026-01-08 22:16:38.01	131.56	11.09	-44.2	-47.3	15.8	0.00e+00	0	43	0	874512384	60	5019
2026-01-08 22:16:38.72	131.66	11.05	-44.0	-47.1	16.0	0.00e+00	0	42	0	875560960	60	4919
2026-01-08 22:16:40.01	131.84	10.97	-44.1	-47.2	15.8	0.00e+00	0	43	0	877658112	59	5267
2026-01-08 22:16:40.73	131.94	10.93	-44.0	-47.0	16.0	0.00e+00	0	42	0	878706688	59	5133
2026-01-08 22:16:42.02	132.12	10.85	-44.1	-47.2	15.8	0.00e+00	0	43	0	881852416	59	5272
2026-01-08 22:16:42.74	132.22	10.80	-44.2	-47.3	15.7	0.00e+00	0	42	0	882900992	59	5318
2026-01-08 22:16:44.02	132.40	10.73	-44.5	-47.7	15.4	0.00e+00	0	43	0	884998144	59	5553
2026-01-08 22:16:44.74	132.50	10.68	-44.6	-47.9	15.2	0.00e+00	0	43	0	887095296	59	5694
2026-01-08 22:16:46.03	132.68	10.61	-44.6	-47.9	15.1	0.00e+00	0	43	0	889192448	59	5671
2026-01-08 22:16:46.75	132.77	10.56	-44.6	-47.9	15.1	7.00e-07	0	43	0	890241024	59	5684
2026-01-08 22:16:48.04	132.95	10.49	-44.7	-48.0	15.1	0.00e+00	0	42	0	892338176	59	5745
2026-01-08 22:16:48.75	133.04	10.44	-44.6	-47.9	15.2	0.00e+00	0	42	0	894435328	60	5348
2026-01-08 22:16:50.04	133.22	10.37	-44.6	-47.9	15.1	0.00e+00	0	43	0	896532480	60	5394
2026-01-08 22:16:50.76	133.32	10.32	-44.6	-47.9	15.1	0.00e+00	0	42	0	897581056	60	5401
2026-01-08 22:16:52.12	133.50	10.24	-44.7	-48.1	15.0	0.00e+00	0	43	0	900726784	60	5482
2026-01-08 22:16:52.84	133.59	10.20	-44.7	-48.2	14.9	0.00e+00	0	43	0	901775360	60	5542
2026-01-08 22:16:54.17	133.77	10.12	-44.6	-48.1	15.0	0.00e+00	0	43	0	903872512	60	5466
2026-01-08 22:16:55.17	133.90	10.06	-44.8	-48.4	14.7	0.00e+00	0	42	0	905969664	60	5665
2026-01-08 22:16:56.48	134.07	9.98	-45.1	-48.8	14.3	7.00e-07	0	42	0	909115392	60	5924
2026-01-08 22:16:57.19	134.17	9.94	-45.1	-48.8	14.2	0.00e+00	0	42	0	910163968	60	5985
2026-01-08 22:16:58.48	134.33	9.86	-45.1	-48.8	14.3	7.00e-07	0	43	0	912261120	61	5609
2026-01-08 22:16:59.20	134.43	9.82	-45.2	-48.8	14.2	1.50e-06	0	43	0	914358272	61	5640
2026-01-08 22:17:00.48	134.59	9.74	-44.9	-48.4	14.6	0.00e+00	0	42	0	916455424	61	5358
2026-01-08 22:17:01.20	134.68	9.70	-44.9	-48.4	14.7	0.00e+00	0	43	0	917504000	61	5342
2026-01-08 22:17:02.49	134.85	9.62	-44.4	-47.7	15.3	0.00e+00	0	43	0	919601152	60	5253
2026-01-08 22:17:03.21	134.94	9.58	-44.5	-47.8	15.2	0.00e+00	0	43	0	921698304	60	5281
2026-01-08 22:17:04.53	135.11	9.50	-44.2	-47.3	15.7	0.00e+00	0	42	0	923795456	60	5038
2026-01-08 22:17:05.24	135.20	9.45	-43.5	-46.8	16.0	0.00e+00	0	42	0	924844032	59	5003
2026-01-08 22:17:06.53	135.36	9.38	-44.0	-47.0	15.9	0.00e+00	0	42	0	927989760	59	5147
2026-01-08 22:17:07.25	135.45	9.33	-44.0	-47.1	15.9	0.00e+00	0	43	0	929038336	59	5164
2026-01-08 22:17:08.54	135.61	9.26	-44.1	-47.1	15.9	0.00e+00	0	43	0	931135488	59	5179
2026-01-08 22:17:09.25	135.70	9.21	-44.2	-47.3	15.7	0.00e+00	0	42	0	932184064	59	5297
2026-01-08 22:17:10.77	135.89	9.12	-44.4	-47.6	15.3	0.00e+00	0	42	0	935329792	59	5497
2026-01-08 22:17:11.48	135.98	9.08	-44.6	-47.9	15.1	0.00e+00	0	42	0	936378368	59	5664
2026-01-08 22:17:12.77	136.14	9.00	-48.5	-58.7	5.5	1.22e-05	0	42	0	939524096	67	12489
2026-01-08 22:17:13.49	136.23	8.96	-49.3	-64.5	3.8	1.49e+00	0	42	104	939524096	69	21581
2026-01-08 22:17:14.78	136.38	8.88	-49.4	-64.7	3.8	1.49e+00	0	42	104	939524096	69	22236
2026-01-08 22:17:15.50	136.47	8.84	-49.4	-64.7	3.8	1.49e+00	0	42	104	939524096	69	22167
2026-01-08 22:17:16.79	136.63	8.76	-49.4	-64.8	3.8	1.49e+00	0	43	104	939524096	69	22420
2026-01-08 22:17:17.51	136.71	8.72	-49.5	-64.8	3.8	1.49e+00	0	43	104	939524096	69	22519
2026-01-08 22:17:18.80	136.87	8.65	-49.7	-64.9	3.8	1.49e+00	0	43	104	939524096	70	21387
2026-01-08 22:17:19.52	136.95	8.60	-49.6	-64.9	3.8	1.49e+00	0	42	104	939524096	70	21374
2026-01-08 22:17:20.81	137.11	8.53	-49.7	-64.9	3.8	1.49e+00	0	42	104	939524096	70	21289
2026-01-08 22:17:21.53	137.19	8.48	-49.7	-64.9	3.8	1.49e+00	0	43	104	939524096	70	21416
2026-01-08 22:17:22.82	137.35	8.41	-49.8	-65.0	3.8	1.49e+00	0	42	104	939524096	70	21556
2026-01-08 22:17:23.54	137.43	8.36	-49.7	-65.0	3.8	1.49e+00	0	43	104	939524096	70	21558
2026-01-08 22:17:24.84	137.58	8.29	-49.8	-65.0	3.8	1.49e+00	0	43	104	939524096	70	21660
2026-01-08 22:17:25.56	137.67	8.24	-49.7	-65.0	3.8	1.49e+00	0	43	104	939524096	70	21666
2026-01-08 22:17:26.85	137.82	8.17	-49.7	-65.0	3.8	1.49e+00	0	42	104	939524096	70	21614
2026-01-08 22:17:27.57	137.90	8.13	-49.8	-65.0	3.8	1.49e+00	0	42	104	939524096	70	21590
2026-01-08 22:17:28.86	138.05	8.05	-49.4	-65.0	3.8	1.49e+00	0	42	104	939524096	70	21630
2026-01-08 22:17:29.58	138.13	8.01	-49.5	-65.0	3.8	1.49e+00	0	43	104	939524096	70	21606
2026-01-08 22:17:30.87	138.28	7.93	-49.3	-65.0	3.8	1.49e+00	0	42	104	939524096	70	21601
2026-01-08 22:17:31.59	138.36	7.89	-49.4	-65.0	3.8	1.49e+00	0	43	104	939524096	70	21665
2026-01-08 22:17:32.88	138.51	7.81	-49.5	-65.0	3.8	1.49e+00	0	43	104	939524096	70	21670
2026-01-08 22:17:33.59	138.59	7.77	-49.5	-65.0	3.8	1.49e+00	0	43	104	939524096	70	21566
2026-01-08 22:17:34.89	138.74	7.69	-49.5	-65.0	3.8	1.49e+00	0	43	104	939524096	70	21577
2026-01-08 22:17:35.60	138.82	7.65	-49.5	-65.0	3.8	1.49e+00	0	43	104	939524096	70	21550
2026-01-08 22:17:36.90	138.96	7.58	-49.5	-65.0	3.8	1.49e+00	0	43	104	939524096	70	21541
2026-01-08 22:17:37.61	139.04	7.53	-49.5	-65.0	3.8	1.49e+00	0	43	104	939524096	70	21557
2026-01-08 22:17:38.90	139.18	7.46	-49.5	-65.0	3.8	1.49e+00	0	42	104	939524096	70	21573
2026-01-08 22:17:39.62	139.26	7.42	-49.5	-64.9	3.8	1.49e+00	0	43	104	939524096	70	21470
2026-01-08 22:17:40.91	139.41	7.34	-49.4	-65.0	3.8	1.49e+00	0	43	104	939524096	70	21593
2026-01-08 22:17:41.63	139.49	7.30	-49.5	-64.9	3.8	1.49e+00	0	43	104	939524096	70	21450
2026-01-08 22:17:42.92	139.63	7.22	-49.5	-65.0	3.8	1.49e+00	0	43	104	939524096	70	21529
2026-01-08 22:17:43.64	139.70	7.18	-49.5	-64.9	3.8	1.49e+00	0	43	104	939524096	70	21454
2026-01-08 22:17:44.93	139.84	7.11	-49.4	-64.9	3.8	1.49e+00	0	43	104	939524096	70	21462
2026-01-08 22:17:45.65	139.92	7.06	-49.5	-64.9	3.8	1.49e+00	0	43	104	939524096	70	21473
2026-01-08 22:17:46.94	140.06	6.99	-49.5	-64.9	3.8	1.49e+00	0	43	104	939524096	70	21490
2026-01-08 22:17:47.66	140.14	6.95	-49.5	-65.0	3.8	1.49e+00	0	43	104	939524096	70	21527
2026-01-08 22:17:48.95	140.28	6.87	-49.5	-65.0	3.8	1.49e+00	0	42	104	939524096	70	21529
2026-01-08 22:17:49.66	140.35	6.83	-49.5	-64.9	3.8	1.49e+00	0	43	104	939524096	70	21468
2026-01-08 22:17:50.96	140.49	6.75	-49.5	-65.0	3.8	1.49e+00	0	43	104	939524096	70	21513
2026-01-08 22:17:51.67	140.56	6.71	-49.5	-65.0	3.8	1.49e+00	0	43	104	939524096	70	21512
2026-01-08 22:17:52.96	140.70	6.64	-49.4	-64.9	3.8	1.49e+00	0	43	104	939524096	70	21449
2026-01-08 22:17:53.68	140.78	6.60	-49.4	-64.9	3.8	1.49e+00	0	42	104	939524096	70	21418
2026-01-08 22:17:54.97	140.91	6.52	-49.4	-64.9	3.8	1.49e+00	0	43	104	939524096	70	21451
2026-01-08 22:17:55.69	140.99	6.48	-49.4	-64.9	3.8	1.49e+00	0	42	104	939524096	70	21486
2026-01-08 22:17:56.98	141.12	6.41	-49.4	-64.9	3.8	1.49e+00	0	42	104	939524096	70	21497
2026-01-08 22:17:57.70	141.19	6.36	-49.4	-64.9	3.8	1.49e+00	0	43	104	939524096	70	21407
2026-01-08 22:17:58.99	141.33	6.29	-49.5	-64.9	3.8	1.49e+00	0	43	104	939524096	70	21388
2026-01-08 22:17:59.71	141.40	6.25	-49.4	-64.9	3.8	1.49e+00	0	42	104	939524096	70	21473
2026-01-08 22:18:01.00	141.53	6.17	-49.4	-64.9	3.8	1.49e+00	0	43	104	939524096	70	21432
2026-01-08 22:18:01.72	141.60	6.13	-49.4	-64.9	3.8	1.49e+00	0	42	104	939524096	70	21447
2026-01-08 22:18:03.01	141.73	6.06	-49.4	-64.9	3.8	1.49e+00	0	43	104	939524096	70	21505
2026-01-08 22:18:03.72	141.81	6.02	-49.4	-64.9	3.8	1.49e+00	0	42	104	939524096	70	21407
2026-01-08 22:18:05.02	141.94	5.94	-49.4	-64.9	3.8	1.49e+00	0	43	104	939524096	70	21470
2026-01-08 22:18:05.73	142.01	5.90	-49.4	-64.9	3.8	1.49e+00	0	43	104	939524096	70	21440
2026-01-08 22:18:07.02	142.14	5.83	-49.4	-64.9	3.8	1.49e+00	0	43	104	939524096	70	21442
2026-01-08 22:18:07.74	142.21	5.79	-49.5	-64.9	3.8	1.49e+00	0	43	104	939524096	70	21485
2026-01-08 22:18:09.03	142.34	5.71	-49.5	-64.9	3.8	1.49e+00	0	43	104	939524096	70	21494
2026-01-08 22:18:09.75	142.41	5.67	-49.5	-64.9	3.8	1.49e+00	0	43	104	939524096	70	21506
2026-01-08 22:18:11.04	142.53	5.60	-49.4	-64.9	3.8	1.49e+00	0	43	104	939524096	70	21499
2026-01-08 22:18:11.76	142.60	5.56	-49.4	-64.9	3.8	1.49e+00	0	43	104	939524096	70	21466
2026-01-08 22:18:13.05	142.73	5.48	-49.4	-64.9	3.8	1.49e+00	0	43	104	939524096	70	21414
2026-01-08 22:18:13.77	142.80	5.44	-49.4	-64.9	3.8	1.49e+00	0	43	104	939524096	70	21466
2026-01-08 22:18:15.06	142.92	5.37	-49.4	-64.9	3.8	1.49e+00	0	43	104	939524096	70	21491
2026-01-08 22:18:15.78	142.99	5.33	-49.4	-64.9	3.8	1.49e+00	0	43	104	939524096	70	21431
2026-01-08 22:18:17.07	143.12	5.26	-49.4	-64.9	3.8	1.49e+00	0	43	104	939524096	70	21437
2026-01-08 22:18:17.79	143.19	5.22	-49.4	-64.9	3.8	1.49e+00	0	43	104	939524096	70	21440
2026-01-08 22:18:19.08	143.31	5.14	-49.4	-64.9	3.8	1.49e+00	0	43	104	939524096	70	21336
2026-01-08 22:18:19.79	143.38	5.10	-49.4	-64.9	3.8	1.49e+00	0	43	104	939524096	70	21407
2026-01-08 22:18:21.09	143.50	5.03	-49.4	-64.9	3.8	1.49e+00	0	43	104	939524096	70	21352
2026-01-08 22:18:21.80	143.57	4.99	-49.4	-64.9	3.8	1.49e+00	0	43	104	939524096	70	21431

#Closed at: 2026-01-08 22:18:23
#Recorded file [939 MB]: D:/Data/31040_260109_010742.dat