passes_logs/2026/01/08/T1/T1__20260108_160603_FENGYUN_3E_rec.log

#Pass ID: 20260108_160603_FENGYUN 3E
#Satellite: FENGYUN 3E
#Configuration: FENGYUN 3E
#almurnet v.1.7.20251203
#Start time: 2026-01-08 16:06:04

#Version: 2.0.20230620
#Station: T1
#Location: 37.570604 lon 55.790049 lat
#TLE: 1 49008U 21062A   26007.88844255 -.00000338  00000+0 -13865-3 0  9992
#TLE: 2 49008  98.7481  13.0996 0001694 151.5348 208.5921 14.19883289233834

#Time	Az	El	Level	Level2	SNR	BER	BlckErr	Temp	State	Recorded	gain1	gain2
2026-01-08 16:06:04.06	224.11	4.99	-49.0	-60.3	3.8	8.46e-01	0	41	0	0	67	14026
2026-01-08 16:06:05.06	224.21	5.04	-49.0	-60.3	3.8	8.47e-01	0	41	104	0	67	14039
2026-01-08 16:06:06.07	224.32	5.09	-49.0	-60.3	3.8	8.49e-01	0	41	104	0	67	13894
2026-01-08 16:06:07.07	224.42	5.15	-49.2	-60.3	3.8	8.48e-01	0	41	104	0	67	13980
2026-01-08 16:06:08.08	224.53	5.20	-49.0	-60.3	3.8	8.46e-01	0	42	104	0	67	13999
2026-01-08 16:06:09.08	224.64	5.25	-49.1	-60.3	3.8	8.47e-01	0	41	104	0	67	13939
2026-01-08 16:06:10.09	224.74	5.30	-48.9	-60.4	3.8	8.47e-01	0	41	104	0	67	14049
2026-01-08 16:06:11.09	224.85	5.36	-48.7	-60.3	3.8	8.46e-01	0	41	104	0	67	13942
2026-01-08 16:06:12.09	224.96	5.41	-48.9	-60.3	3.8	8.47e-01	0	42	104	0	67	13988
2026-01-08 16:06:13.10	225.07	5.46	-48.6	-60.3	3.8	8.46e-01	0	41	104	0	67	13986
2026-01-08 16:06:14.10	225.17	5.51	-49.2	-60.3	3.8	8.48e-01	0	42	104	0	67	13915
2026-01-08 16:06:15.11	225.28	5.57	-49.1	-60.2	3.8	8.46e-01	0	42	104	0	67	13862
2026-01-08 16:06:16.11	225.39	5.62	-49.0	-60.2	3.8	8.46e-01	0	42	104	0	67	13815
2026-01-08 16:06:17.11	225.50	5.67	-49.0	-60.1	3.8	8.46e-01	0	42	104	0	67	13674
2026-01-08 16:06:18.12	225.61	5.73	-48.6	-60.1	3.8	8.47e-01	0	42	104	0	67	13625
2026-01-08 16:06:19.12	225.72	5.78	-48.9	-60.1	3.8	8.46e-01	0	42	104	0	67	13696
2026-01-08 16:06:20.13	225.83	5.83	-48.9	-60.2	3.8	8.46e-01	0	42	104	0	67	13734
2026-01-08 16:06:21.13	225.94	5.88	-49.0	-60.1	3.8	8.46e-01	0	42	104	0	67	13669
2026-01-08 16:06:22.14	226.06	5.94	-49.2	-60.2	3.8	8.47e-01	0	42	104	0	67	13879
2026-01-08 16:06:23.14	226.17	5.99	-48.9	-60.2	3.8	8.47e-01	0	42	104	0	67	13881
2026-01-08 16:06:24.14	226.28	6.04	-48.9	-60.2	3.8	8.47e-01	0	42	104	0	67	13797
2026-01-08 16:06:25.15	226.39	6.10	-48.9	-60.2	3.8	8.47e-01	0	42	104	0	67	13868
2026-01-08 16:06:26.15	226.50	6.15	-48.9	-60.3	3.8	8.47e-01	0	42	104	0	67	13886
2026-01-08 16:06:27.16	226.62	6.20	-49.1	-60.3	3.8	8.46e-01	0	42	104	0	67	13938
2026-01-08 16:06:28.16	226.73	6.25	-48.9	-60.3	3.8	8.46e-01	0	42	104	0	67	13945
2026-01-08 16:06:29.16	226.85	6.31	-49.0	-60.2	3.8	8.47e-01	0	42	104	0	67	13880
2026-01-08 16:06:30.17	226.96	6.36	-49.1	-60.3	3.8	8.46e-01	0	42	104	0	67	13911
2026-01-08 16:06:31.17	227.08	6.41	-48.8	-60.2	3.8	8.47e-01	0	42	104	0	67	13805
2026-01-08 16:06:32.17	227.19	6.46	-49.1	-60.2	3.8	8.47e-01	0	42	104	0	67	13828
2026-01-08 16:06:33.18	227.31	6.52	-49.1	-60.1	3.8	8.47e-01	0	42	104	0	67	13700
2026-01-08 16:06:34.18	227.42	6.57	-48.8	-60.0	3.8	8.48e-01	0	42	104	0	67	13549
2026-01-08 16:06:35.19	227.54	6.62	-49.1	-59.9	3.8	8.47e-01	0	42	104	0	67	13341
2026-01-08 16:06:36.19	227.66	6.68	-49.0	-59.8	3.8	8.45e-01	0	42	104	0	67	13189
2026-01-08 16:06:37.20	227.77	6.73	-48.9	-59.7	3.8	8.47e-01	0	42	104	0	67	12995
2026-01-08 16:06:38.20	227.89	6.78	-48.6	-59.6	3.8	8.46e-01	0	42	104	0	67	12924
2026-01-08 16:06:39.21	228.01	6.84	-48.8	-59.4	3.8	8.47e-01	0	42	104	0	67	12664
2026-01-08 16:06:40.21	228.13	6.89	-48.8	-59.4	3.8	8.45e-01	0	43	104	0	67	12550
2026-01-08 16:06:41.21	228.25	6.94	-48.8	-59.3	3.8	8.47e-01	0	43	104	0	67	12384
2026-01-08 16:06:42.22	228.37	6.99	-48.9	-59.1	3.8	8.46e-01	0	43	104	0	67	12133
2026-01-08 16:06:43.22	228.49	7.05	-48.9	-59.3	3.8	8.46e-01	0	42	104	0	67	12466
2026-01-08 16:06:44.23	228.61	7.10	-48.8	-59.7	3.8	8.47e-01	0	43	104	0	67	12983
2026-01-08 16:06:45.23	228.73	7.15	-48.9	-60.0	3.8	8.45e-01	0	43	104	0	67	13502
2026-01-08 16:06:46.24	228.85	7.21	-49.0	-60.2	3.8	8.48e-01	0	42	104	0	67	13856
2026-01-08 16:06:47.24	228.97	7.26	-48.9	-60.0	3.8	8.47e-01	0	43	104	0	67	13478
2026-01-08 16:06:48.25	229.09	7.31	-48.7	-59.6	3.8	8.47e-01	0	43	104	0	67	12867
2026-01-08 16:06:49.25	229.22	7.37	-48.8	-59.2	3.8	8.47e-01	0	43	104	0	67	12313
2026-01-08 16:06:50.26	229.34	7.42	-48.9	-59.1	3.8	8.46e-01	0	43	104	0	67	12167
2026-01-08 16:06:51.26	229.46	7.47	-48.6	-59.4	3.8	8.48e-01	0	43	104	0	67	12538
2026-01-08 16:06:52.26	229.59	7.52	-48.8	-59.7	3.8	8.48e-01	0	43	104	0	67	12976
2026-01-08 16:06:53.27	229.71	7.58	-48.8	-60.1	3.8	8.48e-01	0	43	104	0	67	13652
2026-01-08 16:06:54.27	229.84	7.63	-48.7	-60.2	3.8	8.46e-01	0	43	104	0	67	13792
2026-01-08 16:06:55.28	229.96	7.68	-48.6	-60.1	3.8	8.47e-01	0	43	104	0	67	13590
2026-01-08 16:06:56.28	230.09	7.74	-48.5	-59.7	3.8	8.47e-01	0	43	104	0	67	13012
2026-01-08 16:06:57.28	230.21	7.79	-48.6	-59.3	3.8	8.48e-01	0	43	104	0	67	12421
2026-01-08 16:06:58.29	230.34	7.84	-48.7	-59.0	3.8	8.47e-01	0	43	104	0	67	12034
2026-01-08 16:06:59.29	230.47	7.90	-48.6	-59.1	3.8	8.46e-01	0	43	104	0	67	12140
2026-01-08 16:07:00.30	230.59	7.95	-49.0	-59.5	3.8	8.48e-01	0	43	104	0	67	12757
2026-01-08 16:07:01.30	230.72	8.00	-48.8	-60.1	3.8	8.47e-01	0	43	104	0	67	13591
2026-01-08 16:07:02.30	230.85	8.05	-48.8	-60.0	3.8	8.47e-01	0	43	104	0	67	13441
2026-01-08 16:07:03.31	230.98	8.11	-48.5	-58.9	3.8	8.47e-01	0	43	104	0	67	11920
2026-01-08 16:07:04.31	231.11	8.16	-48.6	-57.6	3.9	8.46e-01	0	43	104	0	67	10226
2026-01-08 16:07:05.32	231.24	8.21	-48.4	-57.0	4.1	8.40e-01	0	43	0	0	66	10070
2026-01-08 16:07:06.32	231.37	8.27	-48.7	-57.9	3.9	8.43e-01	0	43	104	0	67	10604
2026-01-08 16:07:07.33	231.50	8.32	-48.8	-59.9	3.8	8.46e-01	0	43	104	0	67	13285
2026-01-08 16:07:08.33	231.63	8.37	-48.7	-59.2	3.8	8.47e-01	0	43	104	0	67	12285
2026-01-08 16:07:09.33	231.76	8.42	-47.6	-53.7	5.7	7.60e-01	0	43	0	0	66	6887
2026-01-08 16:07:10.34	231.89	8.48	-46.1	-49.6	9.6	3.58e-02	0	43	0	6291456	62	5411
2026-01-08 16:07:11.34	232.02	8.53	-44.3	-46.6	12.6	9.19e-04	0	43	0	13631488	59	4555
2026-01-08 16:07:12.35	232.16	8.58	-42.8	-44.6	14.6	1.10e-06	0	43	0	20971520	56	4308
2026-01-08 16:07:13.35	232.29	8.64	-41.3	-42.8	16.2	0.00e+00	0	43	0	28311552	53	4178
2026-01-08 16:07:14.35	232.42	8.69	-40.7	-42.0	17.1	0.00e+00	0	43	0	35651584	52	4017
2026-01-08 16:07:15.36	232.56	8.74	-40.4	-41.7	17.4	0.00e+00	0	43	0	42991616	51	4129
2026-01-08 16:07:16.36	232.69	8.79	-40.6	-41.9	17.3	0.00e+00	0	43	0	50331648	51	4202
2026-01-08 16:07:17.36	232.83	8.85	-41.1	-42.5	16.7	0.00e+00	0	43	0	56623104	51	4499
2026-01-08 16:07:18.37	232.96	8.90	-41.8	-43.3	15.8	0.00e+00	0	43	0	65011712	53	4420
2026-01-08 16:07:19.37	233.10	8.95	-42.6	-44.4	14.7	0.00e+00	0	43	0	72351744	54	4714
2026-01-08 16:07:20.38	233.23	9.00	-44.2	-46.3	12.9	2.05e-05	0	43	0	78643200	57	4954
2026-01-08 16:07:21.38	233.37	9.06	-44.1	-46.1	13.1	2.40e-04	0	43	0	85983232	58	4577
2026-01-08 16:07:22.38	233.51	9.11	-48.8	-57.7	3.8	8.46e-01	0	43	104	88080384	67	10295
2026-01-08 16:07:23.39	233.65	9.16	-43.0	-44.7	14.4	0.00e+00	0	43	0	91226112	55	4615
2026-01-08 16:07:24.45	233.79	9.22	-46.6	-50.4	8.7	7.06e-02	0	43	0	98566144	63	5610
2026-01-08 16:07:25.35	233.92	9.26	-45.6	-48.8	9.9	8.09e-02	0	43	0	104857600	62	4967
2026-01-08 16:07:26.49	234.08	9.32	-44.2	-46.4	12.8	1.25e-04	0	43	0	113246208	58	4722
2026-01-08 16:07:27.35	234.20	9.37	-44.1	-46.2	13.0	4.92e-05	0	43	0	119537664	58	4617
2026-01-08 16:07:28.49	234.36	9.43	-43.9	-46.0	13.3	2.63e-05	0	43	0	127926272	58	4505
2026-01-08 16:07:29.35	234.48	9.47	-43.5	-45.3	13.9	9.10e-06	0	43	0	134217728	57	4435
2026-01-08 16:07:30.50	234.64	9.53	-43.2	-45.0	14.3	1.10e-06	0	43	0	142606336	56	4500
2026-01-08 16:07:31.36	234.76	9.58	-43.0	-44.7	14.5	1.10e-06	0	43	0	148897792	56	4370
2026-01-08 16:07:32.50	234.92	9.64	-42.8	-44.5	14.7	0.00e+00	0	43	0	157286400	55	4501
2026-01-08 16:07:33.36	235.04	9.68	-42.9	-44.6	14.5	0.00e+00	0	43	0	162529280	55	4554
2026-01-08 16:07:34.51	235.21	9.74	-42.3	-43.8	15.4	0.00e+00	0	43	0	170917888	55	4167
2026-01-08 16:07:35.37	235.33	9.78	-41.7	-43.1	16.0	0.00e+00	0	43	0	177209344	54	4093
2026-01-08 16:07:36.53	235.50	9.84	-41.1	-42.5	16.7	0.00e+00	0	43	0	185597952	53	4010
2026-01-08 16:07:37.40	235.62	9.89	-41.0	-42.4	16.8	0.00e+00	0	43	0	191889408	52	4196
2026-01-08 16:07:38.60	235.80	9.95	-40.7	-42.0	17.2	0.00e+00	0	43	0	200278016	51	4246
2026-01-08 16:07:39.46	235.92	10.00	-40.8	-42.1	17.2	0.00e+00	0	43	0	206569472	51	4301
2026-01-08 16:07:40.61	236.09	10.06	-40.7	-41.9	17.3	0.00e+00	0	43	0	214958080	51	4219
2026-01-08 16:07:41.47	236.22	10.10	-40.2	-41.4	17.8	0.00e+00	0	43	0	221249536	51	3996
2026-01-08 16:07:42.62	236.38	10.16	-40.6	-41.9	17.4	0.00e+00	0	43	0	229638144	51	4195
2026-01-08 16:07:43.48	236.51	10.20	-40.8	-42.1	17.2	0.00e+00	0	43	0	235929600	51	4305
2026-01-08 16:07:44.62	236.68	10.26	-40.1	-41.2	18.0	0.00e+00	0	43	0	244318208	50	4133
2026-01-08 16:07:45.48	236.81	10.31	-39.9	-41.1	18.2	0.00e+00	0	43	0	250609664	50	4064
2026-01-08 16:07:46.63	236.98	10.36	-39.9	-41.0	18.2	0.00e+00	0	43	0	258998272	50	4037
2026-01-08 16:07:47.49	237.11	10.41	-39.8	-41.0	18.3	0.00e+00	0	43	0	265289728	50	4013
2026-01-08 16:07:48.64	237.28	10.47	-40.0	-41.1	18.1	0.00e+00	0	44	0	273678336	50	4088
2026-01-08 16:07:49.50	237.41	10.51	-39.9	-41.1	18.2	0.00e+00	0	43	0	279969792	50	4060
2026-01-08 16:07:50.64	237.58	10.57	-39.9	-41.0	18.2	0.00e+00	0	43	0	287309824	50	4036
2026-01-08 16:07:51.50	237.71	10.61	-39.8	-40.9	18.4	0.00e+00	0	43	0	293601280	50	3977
2026-01-08 16:07:52.65	237.88	10.67	-39.4	-40.5	18.7	0.00e+00	0	43	0	301989888	49	4045
2026-01-08 16:07:53.51	238.02	10.71	-39.4	-40.5	18.8	0.00e+00	0	43	0	308281344	49	4011
2026-01-08 16:07:54.65	238.19	10.77	-39.3	-40.4	18.8	0.00e+00	0	44	0	316669952	49	3969
2026-01-08 16:07:55.51	238.32	10.81	-39.2	-40.2	19.0	0.00e+00	0	44	0	322961408	49	3909
2026-01-08 16:07:56.66	238.50	10.87	-39.2	-40.3	19.0	0.00e+00	0	43	0	331350016	48	4160
2026-01-08 16:07:57.52	238.63	10.92	-39.1	-40.1	19.1	0.00e+00	0	43	0	337641472	48	4098
2026-01-08 16:07:58.66	238.81	10.97	-39.0	-40.0	19.2	0.00e+00	0	43	0	346030080	48	4049
2026-01-08 16:07:59.53	238.94	11.02	-39.0	-40.1	19.2	0.00e+00	0	43	0	352321536	48	4062
2026-01-08 16:08:00.67	239.12	11.07	-39.0	-40.1	19.2	0.00e+00	0	43	0	360710144	48	4053
2026-01-08 16:08:01.53	239.26	11.12	-39.1	-40.2	19.1	0.00e+00	0	43	0	365953024	48	4102
2026-01-08 16:08:02.67	239.43	11.17	-38.9	-40.0	19.2	0.00e+00	0	43	0	374341632	48	4028
2026-01-08 16:08:03.53	239.57	11.22	-39.0	-40.1	19.2	0.00e+00	0	43	0	380633088	48	4061
2026-01-08 16:08:04.68	239.75	11.27	-38.9	-40.0	19.2	0.00e+00	0	44	0	389021696	48	4036
2026-01-08 16:08:05.54	239.89	11.32	-39.0	-40.1	19.2	0.00e+00	0	43	0	395313152	48	4056
2026-01-08 16:08:06.69	240.07	11.37	-38.8	-39.9	19.4	0.00e+00	0	43	0	403701760	48	3988
2026-01-08 16:08:07.55	240.21	11.42	-38.9	-39.9	19.3	0.00e+00	0	44	0	409993216	48	3997
2026-01-08 16:08:08.69	240.39	11.47	-38.8	-39.8	19.4	0.00e+00	0	43	0	418381824	48	3950
2026-01-08 16:08:09.55	240.53	11.51	-38.8	-39.9	19.4	0.00e+00	0	43	0	424673280	48	3979
2026-01-08 16:08:10.70	240.71	11.57	-38.9	-40.0	19.3	0.00e+00	0	43	0	432013312	48	4031
2026-01-08 16:08:11.61	240.86	11.62	-38.8	-39.9	19.4	0.00e+00	0	43	0	439353344	48	3961
2026-01-08 16:08:12.77	241.05	11.67	-38.7	-39.8	19.5	0.00e+00	0	43	0	447741952	48	3933
2026-01-08 16:08:13.63	241.19	11.71	-38.7	-39.8	19.5	0.00e+00	0	44	0	454033408	48	3937
2026-01-08 16:08:14.78	241.38	11.77	-38.7	-39.8	19.5	0.00e+00	0	43	0	462422016	48	3932
2026-01-08 16:08:15.64	241.52	11.81	-38.6	-39.7	19.5	0.00e+00	0	43	0	468713472	48	3905
2026-01-08 16:08:16.78	241.70	11.87	-38.6	-39.6	19.6	0.00e+00	0	43	0	476053504	48	3856
2026-01-08 16:08:17.80	241.87	11.92	-38.7	-39.7	19.6	0.00e+00	0	44	0	483393536	48	3890
2026-01-08 16:08:18.98	242.07	11.97	-38.7	-39.8	19.5	0.00e+00	0	43	0	492830720	48	3934
2026-01-08 16:08:19.84	242.21	12.02	-38.5	-39.6	19.5	0.00e+00	0	43	0	498073600	47	4053
2026-01-08 16:08:20.98	242.40	12.07	-38.5	-39.6	19.5	0.00e+00	0	43	0	506462208	47	4055
2026-01-08 16:08:21.84	242.54	12.11	-38.5	-39.6	19.4	0.00e+00	0	43	0	512753664	47	4064
2026-01-08 16:08:22.99	242.74	12.17	-38.6	-39.7	19.3	0.00e+00	0	43	0	521142272	47	4111
2026-01-08 16:08:23.85	242.88	12.21	-38.5	-39.6	19.4	0.00e+00	0	44	0	527433728	47	4089
2026-01-08 16:08:24.99	243.07	12.26	-38.5	-39.6	19.4	0.00e+00	0	43	0	535822336	47	4066
2026-01-08 16:08:25.85	243.22	12.30	-38.4	-39.5	19.5	0.00e+00	0	43	0	542113792	47	4022
2026-01-08 16:08:27.00	243.41	12.36	-38.6	-39.6	19.4	0.00e+00	0	44	0	550502400	47	4086
2026-01-08 16:08:27.86	243.56	12.40	-38.4	-39.5	19.6	0.00e+00	0	43	0	556793856	47	4011
2026-01-08 16:08:29.01	243.76	12.45	-38.4	-39.5	19.5	0.00e+00	0	44	0	564133888	47	4017
2026-01-08 16:08:29.86	243.90	12.49	-38.3	-39.3	19.7	0.00e+00	0	44	0	571473920	47	3956
2026-01-08 16:08:31.01	244.10	12.54	-38.3	-39.3	19.7	0.00e+00	0	44	0	578813952	47	3940
2026-01-08 16:08:31.87	244.25	12.58	-38.3	-39.4	19.6	0.00e+00	0	43	0	585105408	47	3976
2026-01-08 16:08:33.13	244.47	12.64	-38.4	-39.4	19.6	0.00e+00	0	43	0	594542592	47	3993
2026-01-08 16:08:33.88	244.60	12.68	-38.3	-39.4	19.6	0.00e+00	0	43	0	599785472	47	3979
2026-01-08 16:08:35.17	244.82	12.74	-38.5	-39.5	19.5	0.00e+00	0	43	0	609222656	47	4029
2026-01-08 16:08:35.88	244.95	12.77	-38.3	-39.3	19.7	0.00e+00	0	44	0	614465536	47	3950
2026-01-08 16:08:37.18	245.17	12.83	-38.3	-39.3	19.7	0.00e+00	0	43	0	623902720	47	3957
2026-01-08 16:08:37.89	245.30	12.86	-38.2	-39.3	19.7	0.00e+00	0	43	0	629145600	47	3917
2026-01-08 16:08:39.18	245.52	12.92	-38.2	-39.3	19.8	0.00e+00	0	43	0	638582784	47	3915
2026-01-08 16:08:39.90	245.65	12.95	-38.1	-39.2	19.8	0.00e+00	0	43	0	643825664	47	3879
2026-01-08 16:08:41.19	245.88	13.01	-38.1	-39.2	19.8	0.00e+00	0	44	0	652214272	46	4133
2026-01-08 16:08:41.91	246.01	13.04	-38.1	-39.2	19.8	0.00e+00	0	43	0	657457152	46	4115
2026-01-08 16:08:43.20	246.24	13.10	-38.2	-39.3	19.8	0.00e+00	0	43	0	666894336	46	4147
2026-01-08 16:08:43.91	246.37	13.13	-38.3	-39.4	19.7	0.00e+00	0	43	0	672137216	46	4210
2026-01-08 16:08:45.20	246.60	13.19	-38.2	-39.3	19.8	0.00e+00	0	44	0	681574400	46	4171
2026-01-08 16:08:45.92	246.73	13.22	-38.3	-39.4	19.7	0.00e+00	0	43	0	686817280	46	4194
2026-01-08 16:08:47.21	246.96	13.28	-38.2	-39.3	19.8	0.00e+00	0	43	0	696254464	46	4150
2026-01-08 16:08:47.92	247.09	13.31	-38.2	-39.2	19.8	0.00e+00	0	43	0	701497344	46	4126
2026-01-08 16:08:49.29	247.34	13.37	-38.3	-39.3	19.8	0.00e+00	0	43	0	710934528	46	4173
2026-01-08 16:08:50.01	247.47	13.40	-38.1	-39.1	19.9	0.00e+00	0	43	0	716177408	46	4081
2026-01-08 16:08:51.30	247.70	13.46	-38.1	-39.1	19.9	0.00e+00	0	44	0	725614592	46	4085
2026-01-08 16:08:52.01	247.83	13.49	-38.0	-39.0	20.1	0.00e+00	0	43	0	730857472	46	4022
2026-01-08 16:08:53.30	248.07	13.54	-38.0	-39.1	20.0	0.00e+00	0	43	0	740294656	46	4066
2026-01-08 16:08:54.02	248.20	13.57	-38.1	-39.2	19.9	0.00e+00	0	43	0	745537536	46	4105
2026-01-08 16:08:55.31	248.44	13.63	-38.0	-39.1	19.9	0.00e+00	0	43	0	754974720	46	4068
2026-01-08 16:08:56.02	248.57	13.66	-38.0	-39.0	20.0	0.00e+00	0	44	0	760217600	46	4036
2026-01-08 16:08:57.31	248.81	13.71	-37.9	-39.0	20.1	0.00e+00	0	43	0	768606208	46	4018
2026-01-08 16:08:58.03	248.94	13.74	-38.0	-39.0	20.0	0.00e+00	0	44	0	773849088	46	4023
2026-01-08 16:08:59.32	249.18	13.80	-37.9	-38.9	20.2	0.00e+00	0	44	0	783286272	46	3966
2026-01-08 16:09:00.03	249.32	13.82	-37.9	-38.9	20.1	0.00e+00	0	43	0	788529152	46	3975
2026-01-08 16:09:01.33	249.56	13.88	-37.8	-38.8	20.3	0.00e+00	0	43	0	797966336	46	3924
2026-01-08 16:09:02.04	249.69	13.91	-37.8	-38.8	20.3	0.00e+00	0	44	0	803209216	46	3920
2026-01-08 16:09:03.33	249.94	13.96	-38.0	-39.0	20.1	0.00e+00	0	43	0	812646400	46	4010
2026-01-08 16:09:04.05	250.07	13.99	-37.7	-38.7	20.3	0.00e+00	0	43	0	817889280	46	3912
2026-01-08 16:09:05.33	250.32	14.04	-37.7	-38.7	20.3	0.00e+00	0	44	0	827326464	46	3907
2026-01-08 16:09:06.05	250.45	14.07	-37.8	-38.8	20.2	0.00e+00	0	44	0	832569344	46	3934
2026-01-08 16:09:07.47	250.72	14.13	-37.9	-38.8	20.2	0.00e+00	0	43	0	843055104	46	3958
2026-01-08 16:09:08.18	250.86	14.15	-37.8	-38.8	20.2	0.00e+00	0	44	0	847249408	46	3951
2026-01-08 16:09:09.52	251.12	14.21	-37.8	-38.8	20.2	0.00e+00	0	43	0	857735168	46	3948
2026-01-08 16:09:10.24	251.25	14.24	-37.8	-38.8	20.2	0.00e+00	0	43	0	861929472	46	3949
2026-01-08 16:09:11.63	251.52	14.29	-37.6	-38.6	20.4	0.00e+00	0	43	0	872415232	46	3859
2026-01-08 16:09:12.35	251.66	14.32	-37.7	-38.7	20.4	0.00e+00	0	44	0	877658112	46	3873
2026-01-08 16:09:13.64	251.91	14.37	-37.7	-38.7	20.3	0.00e+00	0	43	0	887095296	46	3913
2026-01-08 16:09:14.67	252.11	14.41	-37.8	-38.8	20.3	0.00e+00	0	44	0	894435328	46	3943
2026-01-08 16:09:15.99	252.37	14.46	-38.0	-39.0	20.1	0.00e+00	0	43	0	903872512	46	4019
2026-01-08 16:09:16.71	252.51	14.48	-37.9	-38.9	20.1	0.00e+00	0	44	0	909115392	46	3999
2026-01-08 16:09:18.33	252.83	14.54	-37.9	-39.0	20.1	0.00e+00	0	43	0	920649728	46	4005
2026-01-08 16:09:18.90	252.94	14.57	-37.9	-38.9	20.1	0.00e+00	0	44	0	924844032	46	3995
2026-01-08 16:09:20.49	253.25	14.62	-37.9	-38.9	20.1	0.00e+00	0	43	0	936378368	46	3999
2026-01-08 16:09:21.07	253.37	14.64	-37.9	-38.9	20.1	0.00e+00	0	44	0	940572672	46	3988
2026-01-08 16:09:22.74	253.70	14.71	-37.9	-38.9	20.2	0.00e+00	0	43	0	952107008	46	3985
2026-01-08 16:09:23.31	253.81	14.73	-38.0	-39.0	20.0	0.00e+00	0	43	0	956301312	46	4039
2026-01-08 16:09:24.91	254.13	14.78	-37.8	-38.8	20.3	0.00e+00	0	44	0	967835648	46	3926
2026-01-08 16:09:25.48	254.24	14.80	-37.8	-38.8	20.3	0.00e+00	0	43	0	972029952	46	3930
2026-01-08 16:09:27.06	254.56	14.86	-37.9	-38.9	20.2	0.00e+00	0	43	0	983564288	46	3987
2026-01-08 16:09:27.66	254.68	14.88	-38.0	-39.0	20.1	0.00e+00	0	44	0	987758592	46	4037
2026-01-08 16:09:29.23	254.99	14.93	-37.9	-38.9	20.2	0.00e+00	0	44	0	999292928	46	3967
2026-01-08 16:09:30.07	255.16	14.96	-37.8	-38.8	20.3	0.00e+00	0	43	0	1005584384	46	3946
2026-01-08 16:09:31.65	255.48	15.02	-37.9	-38.9	20.2	0.00e+00	0	43	0	1017118720	46	3971
2026-01-08 16:09:32.27	255.61	15.04	-37.9	-38.9	20.2	0.00e+00	0	43	0	1021313024	46	3979
2026-01-08 16:09:33.85	255.93	15.09	-37.9	-38.9	20.2	0.00e+00	0	44	0	1032847360	46	3967
2026-01-08 16:09:34.43	256.04	15.11	-37.8	-38.8	20.3	0.00e+00	0	43	0	1037041664	46	3928
2026-01-08 16:09:36.01	256.37	15.16	-37.6	-38.6	20.4	0.00e+00	0	43	0	1048576000	45	4087
2026-01-08 16:09:36.64	256.50	15.18	-37.7	-38.7	20.4	0.00e+00	0	43	0	1052770304	45	4111
2026-01-08 16:09:38.23	256.82	15.23	-37.6	-38.6	20.4	0.00e+00	0	43	0	1064304640	45	4080
2026-01-08 16:09:38.91	256.96	15.25	-37.7	-38.7	20.4	0.00e+00	0	44	0	1069547520	45	4099
2026-01-08 16:09:40.35	257.26	15.30	-37.6	-38.6	20.4	0.00e+00	0	43	0	1080033280	45	4080
2026-01-08 16:09:41.06	257.40	15.32	-37.7	-38.7	20.4	0.00e+00	0	43	0	1084227584	45	4102
2026-01-08 16:09:42.35	257.67	15.36	-37.6	-38.6	20.5	0.00e+00	0	43	0	1093664768	45	4069
2026-01-08 16:09:43.07	257.82	15.38	-37.5	-38.5	20.5	0.00e+00	0	44	0	1099956224	45	4020
2026-01-08 16:09:44.36	258.09	15.42	-37.6	-38.5	20.5	0.00e+00	0	43	0	1108344832	45	4048
2026-01-08 16:09:45.07	258.23	15.44	-37.5	-38.5	20.5	0.00e+00	0	44	0	1113587712	45	4031
2026-01-08 16:09:46.38	258.51	15.48	-37.6	-38.5	20.5	0.00e+00	0	44	0	1123024896	45	4048
2026-01-08 16:09:47.10	258.66	15.50	-37.6	-38.5	20.5	0.00e+00	0	43	0	1128267776	45	4046
2026-01-08 16:09:48.46	258.94	15.54	-37.6	-38.6	20.5	0.00e+00	0	43	0	1138753536	45	4061
2026-01-08 16:09:49.18	259.09	15.56	-37.7	-38.7	20.4	0.00e+00	0	43	0	1143996416	45	4107
2026-01-08 16:09:50.55	259.38	15.59	-37.7	-38.7	20.3	0.00e+00	0	43	0	1153433600	45	4141
2026-01-08 16:09:51.27	259.53	15.61	-37.7	-38.7	20.4	0.00e+00	0	44	0	1158676480	45	4112
2026-01-08 16:09:52.56	259.80	15.65	-37.7	-38.7	20.4	0.00e+00	0	43	0	1168113664	45	4119
2026-01-08 16:09:53.28	259.95	15.67	-37.6	-38.6	20.4	0.00e+00	0	44	0	1173356544	45	4082
2026-01-08 16:09:54.57	260.23	15.70	-37.6	-38.5	20.5	0.00e+00	0	44	0	1182793728	45	4042
2026-01-08 16:09:55.28	260.38	15.72	-37.6	-38.6	20.5	0.00e+00	0	43	0	1188036608	45	4059
2026-01-08 16:09:56.57	260.65	15.75	-37.3	-38.3	20.7	0.00e+00	0	44	0	1197473792	45	3939
2026-01-08 16:09:57.29	260.80	15.77	-37.3	-38.3	20.7	0.00e+00	0	44	0	1201668096	45	3932
2026-01-08 16:09:58.58	261.08	15.81	-37.3	-38.3	20.7	0.00e+00	0	43	0	1211105280	45	3939
2026-01-08 16:09:59.30	261.23	15.82	-37.4	-38.4	20.6	0.00e+00	0	43	0	1216348160	45	3985
2026-01-08 16:10:00.59	261.51	15.86	-37.5	-38.5	20.5	0.00e+00	0	43	0	1225785344	45	4038
2026-01-08 16:10:01.46	261.69	15.88	-37.4	-38.4	20.6	0.00e+00	0	43	0	1232076800	45	3972
2026-01-08 16:10:02.61	261.94	15.90	-37.5	-38.5	20.5	0.00e+00	0	43	0	1240465408	45	4025
2026-01-08 16:10:03.47	262.12	15.92	-37.5	-38.4	20.6	0.00e+00	0	43	0	1246756864	45	3997
2026-01-08 16:10:04.62	262.37	15.95	-37.7	-38.7	20.4	0.00e+00	0	44	0	1255145472	45	4107
2026-01-08 16:10:05.47	262.55	15.97	-37.6	-38.6	20.6	0.00e+00	0	43	0	1261436928	45	4055
2026-01-08 16:10:06.62	262.80	15.99	-37.7	-38.6	20.5	0.00e+00	0	43	0	1269825536	45	4093
2026-01-08 16:10:07.48	262.99	16.01	-37.7	-38.6	20.5	0.00e+00	0	43	0	1276116992	45	4094
2026-01-08 16:10:08.62	263.23	16.04	-37.6	-38.6	20.6	0.00e+00	0	43	0	1283457024	45	4057
2026-01-08 16:10:09.48	263.42	16.06	-37.6	-38.5	20.7	0.00e+00	0	43	0	1289748480	45	4051
2026-01-08 16:10:10.63	263.67	16.08	-37.6	-38.6	20.6	0.00e+00	0	44	0	1298137088	45	4079
2026-01-08 16:10:11.49	263.85	16.10	-37.6	-38.6	20.5	0.00e+00	0	43	0	1304428544	45	4067
2026-01-08 16:10:12.63	264.10	16.12	-37.6	-38.5	20.6	0.00e+00	0	43	0	1312817152	45	4032
2026-01-08 16:10:13.54	264.30	16.14	-37.5	-38.5	20.6	0.00e+00	0	43	0	1319108608	45	4022
2026-01-08 16:10:14.56	264.52	16.16	-37.5	-38.5	20.6	0.00e+00	0	43	0	1326448640	45	4031
2026-01-08 16:10:15.57	264.74	16.18	-37.6	-38.6	20.5	0.00e+00	0	43	0	1333788672	45	4066
2026-01-08 16:10:16.57	264.96	16.20	-37.7	-38.7	20.4	0.00e+00	0	43	0	1341128704	45	4105
2026-01-08 16:10:17.57	265.18	16.21	-37.7	-38.6	20.4	0.00e+00	0	43	0	1348468736	45	4083
2026-01-08 16:10:18.58	265.40	16.23	-38.1	-39.1	20.0	1.10e-06	0	43	0	1355808768	47	3856
2026-01-08 16:10:19.58	265.62	16.25	-38.1	-39.2	20.0	0.00e+00	0	43	0	1363148800	46	4101
2026-01-08 16:10:21.00	265.93	16.27	-37.6	-38.5	20.5	0.00e+00	0	43	0	1373634560	45	4050
2026-01-08 16:10:21.71	266.08	16.29	-37.5	-38.5	20.5	0.00e+00	0	43	0	1377828864	45	4034
2026-01-08 16:10:23.00	266.37	16.31	-37.3	-38.3	20.8	0.00e+00	0	43	0	1387266048	45	3933
2026-01-08 16:10:23.71	266.52	16.32	-37.4	-38.4	20.7	0.00e+00	0	43	0	1392508928	45	3976
2026-01-08 16:10:25.00	266.81	16.34	-37.3	-38.3	20.8	0.00e+00	0	43	0	1401946112	45	3923
2026-01-08 16:10:25.72	266.97	16.35	-37.4	-38.3	20.8	0.00e+00	0	43	0	1407188992	45	3936
2026-01-08 16:10:27.01	267.25	16.37	-37.4	-38.3	20.8	0.00e+00	0	43	0	1416626176	45	3956
2026-01-08 16:10:27.73	267.41	16.38	-37.5	-38.4	20.7	0.00e+00	0	43	0	1421869056	45	3991
2026-01-08 16:10:29.06	267.70	16.40	-37.4	-38.4	20.7	0.00e+00	0	43	0	1431306240	45	3963
2026-01-08 16:10:29.78	267.86	16.41	-37.4	-38.4	20.7	0.00e+00	0	43	0	1436549120	45	3983
2026-01-08 16:10:31.07	268.15	16.42	-37.3	-38.3	20.8	0.00e+00	0	43	0	1445986304	45	3932
2026-01-08 16:10:32.12	268.38	16.43	-37.4	-38.4	20.7	0.00e+00	0	44	0	1453326336	45	3977
2026-01-08 16:10:32.99	268.57	16.45	-37.5	-38.5	20.6	0.00e+00	0	43	0	1459617792	45	4025
2026-01-08 16:10:34.14	268.83	16.46	-37.6	-38.6	20.5	0.00e+00	0	43	0	1468006400	45	4053
2026-01-08 16:10:35.00	269.02	16.47	-37.5	-38.5	20.6	0.00e+00	0	43	0	1474297856	45	4009
2026-01-08 16:10:36.15	269.28	16.48	-37.5	-38.5	20.5	0.00e+00	0	43	0	1482686464	45	4035
2026-01-08 16:10:37.01	269.47	16.49	-37.5	-38.5	20.6	0.00e+00	0	43	0	1488977920	45	4006
2026-01-08 16:10:38.15	269.72	16.50	-37.5	-38.5	20.6	0.00e+00	0	43	0	1497366528	45	4014
2026-01-08 16:10:39.01	269.91	16.51	-37.5	-38.4	20.6	0.00e+00	0	44	0	1502609408	45	3994
2026-01-08 16:10:40.16	270.17	16.52	-37.5	-38.4	20.6	0.00e+00	0	43	0	1510998016	45	3989
2026-01-08 16:10:41.02	270.36	16.53	-37.5	-38.5	20.6	0.00e+00	0	43	0	1518338048	45	4009
2026-01-08 16:10:42.16	270.62	16.54	-37.3	-38.3	20.7	0.00e+00	0	43	0	1525678080	45	3933
2026-01-08 16:10:43.20	270.85	16.55	-37.3	-38.3	20.8	0.00e+00	0	44	0	1533018112	45	3930
2026-01-08 16:10:44.37	271.11	16.56	-37.2	-38.2	20.8	0.00e+00	0	43	0	1542455296	45	3872
2026-01-08 16:10:45.23	271.30	16.56	-37.2	-38.2	20.9	0.00e+00	0	44	0	1547698176	45	3888
2026-01-08 16:10:46.60	271.61	16.57	-37.2	-38.2	20.9	0.00e+00	0	43	0	1558183936	45	3880
2026-01-08 16:10:47.32	271.77	16.57	-37.3	-38.2	20.8	0.00e+00	0	43	0	1563426816	45	3894
2026-01-08 16:10:48.82	272.10	16.58	-37.3	-38.3	20.8	0.00e+00	0	43	0	1573912576	45	3923
2026-01-08 16:10:49.53	272.26	16.59	-37.3	-38.3	20.8	0.00e+00	0	43	0	1579155456	45	3922
2026-01-08 16:10:50.82	272.55	16.59	-37.3	-38.2	20.8	0.00e+00	0	43	0	1588592640	45	3909
2026-01-08 16:10:51.54	272.71	16.60	-37.4	-38.3	20.7	0.00e+00	0	43	0	1593835520	45	3935
2026-01-08 16:10:52.83	273.00	16.60	-37.5	-38.4	20.6	0.00e+00	0	43	0	1603272704	45	3998
2026-01-08 16:10:53.55	273.16	16.60	-37.5	-38.5	20.6	0.00e+00	0	43	0	1608515584	45	4009
2026-01-08 16:10:54.84	273.45	16.61	-37.4	-38.4	20.7	0.00e+00	0	43	0	1617952768	45	3963
2026-01-08 16:10:55.57	273.62	16.61	-37.5	-38.4	20.6	0.00e+00	0	43	0	1623195648	45	4003
2026-01-08 16:10:56.86	273.90	16.61	-37.5	-38.5	20.6	0.00e+00	0	43	0	1631584256	45	4011
2026-01-08 16:10:57.58	274.07	16.62	-37.5	-38.5	20.6	0.00e+00	0	43	0	1636827136	45	4017
2026-01-08 16:10:58.87	274.36	16.62	-37.4	-38.4	20.7	0.00e+00	0	43	0	1646264320	45	3977
2026-01-08 16:10:59.68	274.54	16.62	-37.4	-38.3	20.7	0.00e+00	0	43	0	1652555776	45	3953
2026-01-08 16:11:01.14	274.86	16.62	-37.5	-38.5	20.6	0.00e+00	0	43	0	1663041536	45	4018
2026-01-08 16:11:02.26	275.12	16.62	-37.5	-38.5	20.6	0.00e+00	0	43	0	1670381568	45	4011
2026-01-08 16:11:03.12	275.31	16.62	-37.4	-38.3	20.7	0.00e+00	0	43	0	1677721600	45	3946
2026-01-08 16:11:04.27	275.57	16.62	-37.4	-38.3	20.7	0.00e+00	0	43	0	1686110208	45	3952
2026-01-08 16:11:05.13	275.76	16.62	-37.4	-38.4	20.7	0.00e+00	0	43	0	1691353088	45	3974
2026-01-08 16:11:06.28	276.02	16.62	-37.3	-38.3	20.8	0.00e+00	0	43	0	1699741696	45	3923
2026-01-08 16:11:07.14	276.21	16.61	-37.3	-38.2	20.8	0.00e+00	0	43	0	1706033152	45	3909
2026-01-08 16:11:08.43	276.50	16.61	-37.3	-38.2	20.8	0.00e+00	0	43	0	1715470336	45	3902
2026-01-08 16:11:09.14	276.66	16.61	-37.2	-38.2	20.9	0.00e+00	0	43	0	1720713216	45	3881
2026-01-08 16:11:10.43	276.95	16.60	-37.1	-38.0	21.0	0.00e+00	0	43	0	1730150400	45	3821
2026-01-08 16:11:11.15	277.11	16.60	-37.2	-38.1	20.9	0.00e+00	0	43	0	1735393280	45	3845
2026-01-08 16:11:12.44	277.40	16.60	-37.3	-38.2	20.8	0.00e+00	0	43	0	1744830464	45	3900
2026-01-08 16:11:13.15	277.56	16.59	-37.2	-38.1	20.9	0.00e+00	0	43	0	1750073344	45	3855
2026-01-08 16:11:14.45	277.85	16.59	-37.3	-38.2	20.8	0.00e+00	0	43	0	1758461952	45	3892
2026-01-08 16:11:15.16	278.00	16.58	-37.3	-38.3	20.8	0.00e+00	0	43	0	1763704832	45	3929
2026-01-08 16:11:16.45	278.29	16.58	-37.4	-38.4	20.7	0.00e+00	0	43	0	1773142016	45	3963
2026-01-08 16:11:17.17	278.45	16.57	-37.4	-38.3	20.7	0.00e+00	0	43	0	1778384896	45	3955
2026-01-08 16:11:18.45	278.74	16.56	-37.5	-38.5	20.6	0.00e+00	0	43	0	1787822080	45	4005
2026-01-08 16:11:19.17	278.90	16.56	-37.5	-38.5	20.6	0.00e+00	0	43	0	1793064960	45	4015
2026-01-08 16:11:20.46	279.19	16.55	-37.7	-38.6	20.4	0.00e+00	0	43	0	1802502144	45	4093
2026-01-08 16:11:21.17	279.35	16.54	-37.5	-38.5	20.6	0.00e+00	0	43	0	1807745024	45	4029
2026-01-08 16:11:22.64	279.67	16.53	-37.5	-38.5	20.6	0.00e+00	0	43	0	1818230784	45	4025
2026-01-08 16:11:23.36	279.83	16.52	-37.5	-38.5	20.6	0.00e+00	0	43	0	1823473664	45	4009
2026-01-08 16:11:24.65	280.12	16.51	-37.5	-38.5	20.6	0.00e+00	0	43	0	1832910848	45	4028
2026-01-08 16:11:25.36	280.28	16.51	-37.6	-38.6	20.5	0.00e+00	0	43	0	1838153728	45	4075
2026-01-08 16:11:26.78	280.60	16.49	-37.5	-38.4	20.6	0.00e+00	0	43	0	1847590912	45	4000
2026-01-08 16:11:27.50	280.76	16.48	-37.5	-38.4	20.7	0.00e+00	0	43	0	1852833792	45	3988
2026-01-08 16:11:28.79	281.04	16.47	-37.4	-38.4	20.6	0.00e+00	0	43	0	1862270976	45	3970
2026-01-08 16:11:29.51	281.20	16.46	-37.5	-38.4	20.6	0.00e+00	0	43	0	1867513856	45	3988
2026-01-08 16:11:30.80	281.49	16.45	-37.5	-38.4	20.6	0.00e+00	0	43	0	1876951040	45	3987
2026-01-08 16:11:31.51	281.65	16.44	-37.4	-38.4	20.7	0.00e+00	0	43	0	1882193920	45	3962
2026-01-08 16:11:32.80	281.93	16.42	-37.6	-38.5	20.6	0.00e+00	0	43	0	1891631104	45	4038
2026-01-08 16:11:33.52	282.09	16.41	-37.6	-38.6	20.5	0.00e+00	0	43	0	1896873984	45	4058
2026-01-08 16:11:34.81	282.37	16.40	-37.5	-38.4	20.6	0.00e+00	0	43	0	1906311168	45	3995
2026-01-08 16:11:35.52	282.53	16.39	-37.6	-38.5	20.5	0.00e+00	0	43	0	1911554048	45	4048
2026-01-08 16:11:36.81	282.82	16.37	-37.5	-38.5	20.6	0.00e+00	0	43	0	1919942656	45	4029
2026-01-08 16:11:37.53	282.97	16.36	-37.7	-38.7	20.4	0.00e+00	0	43	0	1925185536	45	4111
2026-01-08 16:11:38.82	283.26	16.34	-37.5	-38.4	20.5	0.00e+00	0	43	0	1934622720	45	4003
2026-01-08 16:11:39.53	283.41	16.33	-37.6	-38.6	20.5	0.00e+00	0	43	0	1939865600	45	4066
2026-01-08 16:11:40.82	283.70	16.31	-37.7	-38.7	20.4	0.00e+00	0	43	0	1949302784	45	4106
2026-01-08 16:11:41.54	283.86	16.30	-37.7	-38.7	20.4	0.00e+00	0	43	0	1954545664	45	4103
2026-01-08 16:11:42.83	284.14	16.28	-37.4	-38.4	20.7	0.00e+00	0	43	0	1963982848	45	3964
2026-01-08 16:11:43.55	284.30	16.26	-37.5	-38.4	20.6	0.00e+00	0	43	0	1969225728	45	4000
2026-01-08 16:11:44.84	284.58	16.24	-37.4	-38.4	20.6	0.00e+00	0	43	0	1978662912	45	3981
2026-01-08 16:11:45.55	284.73	16.23	-37.5	-38.5	20.6	0.00e+00	0	43	0	1983905792	45	4020
2026-01-08 16:11:46.84	285.02	16.21	-37.5	-38.4	20.6	0.00e+00	0	43	0	1993342976	45	4004
2026-01-08 16:11:47.56	285.17	16.19	-37.5	-38.4	20.6	0.00e+00	0	43	0	1997537280	45	3997
2026-01-08 16:11:48.84	285.45	16.17	-37.5	-38.5	20.5	0.00e+00	0	43	0	2006974464	45	4024
2026-01-08 16:11:49.56	285.61	16.16	-37.7	-38.7	20.2	0.00e+00	0	44	0	2012217344	45	4128
2026-01-08 16:11:50.86	285.89	16.13	-37.7	-38.7	20.4	0.00e+00	0	43	0	2021654528	45	4105
2026-01-08 16:11:51.70	286.07	16.11	-37.6	-38.6	20.4	0.00e+00	0	43	0	2027945984	45	4086
2026-01-08 16:11:52.84	286.32	16.09	-37.6	-38.6	20.5	0.00e+00	0	43	0	2036334592	45	4074
2026-01-08 16:11:53.70	286.50	16.07	-37.7	-38.7	20.3	0.00e+00	0	43	0	2042626048	45	4130
2026-01-08 16:11:54.85	286.75	16.05	-37.6	-38.6	20.5	0.00e+00	0	43	0	2051014656	45	4072
2026-01-08 16:11:55.71	286.94	16.03	-37.7	-38.7	20.4	0.00e+00	0	43	0	2056257536	45	4109
2026-01-08 16:11:56.85	287.18	16.01	-37.8	-38.8	20.3	0.00e+00	0	43	0	2064646144	45	4159
2026-01-08 16:11:57.71	287.37	15.99	-37.7	-38.7	20.4	0.00e+00	0	43	0	2070937600	45	4122
2026-01-08 16:11:58.85	287.61	15.96	-37.8	-38.8	20.2	0.00e+00	0	43	0	2079326208	45	4173
2026-01-08 16:11:59.72	287.80	15.94	-37.8	-38.8	20.3	0.00e+00	0	43	0	2085617664	45	4150
2026-01-08 16:12:01.00	288.07	15.91	-37.8	-38.8	20.3	0.00e+00	0	43	0	2095054848	45	4170
2026-01-08 16:12:01.72	288.23	15.90	-37.8	-38.8	20.3	0.00e+00	0	43	0	2100297728	45	4161
2026-01-08 16:12:03.23	288.55	15.86	-37.9	-38.9	20.1	0.00e+00	0	43	0	2110783488	45	4221
2026-01-08 16:12:03.95	288.70	15.84	-37.9	-38.9	20.1	0.00e+00	0	43	0	2116026368	45	4217
2026-01-08 16:12:05.28	288.99	15.81	-37.9	-38.9	20.2	0.00e+00	0	43	0	2126512128	45	4207
2026-01-08 16:12:06.27	289.20	15.78	-37.8	-38.8	20.3	0.00e+00	0	43	0	2132803584	45	4163
2026-01-08 16:12:07.59	289.48	15.75	-37.9	-38.8	20.2	0.00e+00	0	43	0	2142240768	45	4191
2026-01-08 16:12:08.31	289.63	15.73	-37.7	-38.6	20.4	0.00e+00	0	43	0	2147483648	45	4087
2026-01-08 16:12:09.60	289.90	15.70	-37.7	-38.7	20.4	0.00e+00	0	43	0	2156920832	45	4099
2026-01-08 16:12:10.31	290.05	15.68	-37.7	-38.7	20.3	0.00e+00	0	43	0	2162163712	45	4109
2026-01-08 16:12:11.61	290.32	15.65	-37.8	-38.7	20.3	0.00e+00	0	43	0	2171600896	45	4134
2026-01-08 16:12:12.51	290.51	15.62	-37.8	-38.7	20.3	0.00e+00	0	43	0	2177892352	45	4130
2026-01-08 16:12:13.52	290.72	15.59	-37.8	-38.8	20.3	0.00e+00	0	43	0	2185232384	45	4174
2026-01-08 16:12:14.52	290.93	15.57	-37.9	-38.9	20.2	0.00e+00	0	43	0	2192572416	45	4194
2026-01-08 16:12:15.52	291.14	15.54	-37.9	-38.8	20.2	0.00e+00	0	43	0	2199912448	45	4190
2026-01-08 16:12:16.52	291.35	15.51	-37.8	-38.7	20.3	0.00e+00	0	43	0	2207252480	45	4142
2026-01-08 16:12:17.53	291.56	15.48	-37.9	-38.8	20.2	0.00e+00	0	43	0	2214592512	45	4191
2026-01-08 16:12:18.53	291.77	15.45	-37.8	-38.8	20.2	0.00e+00	0	43	0	2221932544	45	4176
2026-01-08 16:12:19.53	291.98	15.42	-38.0	-39.0	20.1	0.00e+00	0	43	0	2229272576	45	4245
2026-01-08 16:12:20.54	292.18	15.39	-37.9	-38.9	20.1	0.00e+00	0	43	0	2236612608	45	4200
2026-01-08 16:12:21.54	292.39	15.36	-38.1	-39.1	19.9	0.00e+00	0	43	0	2242904064	45	4308
2026-01-08 16:12:22.54	292.60	15.33	-37.9	-38.9	20.1	0.00e+00	0	43	0	2250244096	45	4225
2026-01-08 16:12:23.55	292.80	15.30	-38.0	-39.0	20.0	0.00e+00	0	43	0	2257584128	45	4278
2026-01-08 16:12:24.55	293.01	15.27	-38.1	-39.1	19.9	0.00e+00	0	43	0	2264924160	45	4338
2026-01-08 16:12:25.55	293.21	15.24	-38.2	-39.2	19.8	0.00e+00	0	43	0	2272264192	45	4382
2026-01-08 16:12:26.56	293.42	15.21	-38.3	-39.3	19.8	0.00e+00	0	43	0	2279604224	45	4416
2026-01-08 16:12:27.56	293.62	15.18	-38.3	-39.3	19.7	0.00e+00	0	43	0	2286944256	46	4178
2026-01-08 16:12:28.56	293.83	15.14	-38.2	-39.2	19.8	0.00e+00	0	43	0	2294284288	46	4122
2026-01-08 16:12:29.56	294.03	15.11	-38.2	-39.2	19.9	0.00e+00	0	43	0	2300575744	46	4114
2026-01-08 16:12:30.56	294.23	15.08	-38.2	-39.2	19.9	0.00e+00	0	43	0	2308964352	46	4114
2026-01-08 16:12:31.57	294.44	15.05	-38.1	-39.1	19.8	0.00e+00	0	43	0	2316304384	46	4055
2026-01-08 16:12:32.57	294.64	15.01	-38.1	-39.1	19.9	0.00e+00	0	43	0	2322595840	46	4085
2026-01-08 16:12:33.58	294.84	14.98	-38.0	-39.0	20.0	0.00e+00	0	43	0	2329935872	46	4034
2026-01-08 16:12:34.58	295.04	14.94	-38.1	-39.1	19.9	0.00e+00	0	43	0	2337275904	46	4082
2026-01-08 16:12:35.58	295.24	14.91	-38.1	-39.1	19.8	0.00e+00	0	43	0	2344615936	46	4098
2026-01-08 16:12:36.58	295.44	14.88	-38.0	-39.0	19.9	0.00e+00	0	43	0	2351955968	46	4039
2026-01-08 16:12:37.59	295.65	14.84	-38.1	-39.1	19.9	0.00e+00	0	43	0	2359296000	46	4064
2026-01-08 16:12:38.59	295.84	14.81	-38.2	-39.2	19.8	0.00e+00	0	43	0	2366636032	46	4126
2026-01-08 16:12:39.59	296.04	14.77	-38.3	-39.3	19.7	0.00e+00	0	43	0	2373976064	46	4166
2026-01-08 16:12:40.59	296.24	14.74	-38.4	-39.4	19.7	0.00e+00	0	43	0	2381316096	46	4195
2026-01-08 16:12:41.60	296.44	14.70	-38.2	-39.2	19.8	0.00e+00	0	43	0	2387607552	46	4142
2026-01-08 16:12:42.60	296.64	14.66	-38.2	-39.2	19.8	0.00e+00	0	43	0	2394947584	46	4131
2026-01-08 16:12:43.60	296.83	14.63	-38.2	-39.2	19.8	0.00e+00	0	43	0	2402287616	46	4121
2026-01-08 16:12:44.61	297.03	14.59	-38.3	-39.3	19.8	0.00e+00	0	43	0	2409627648	46	4153
2026-01-08 16:12:45.95	297.29	14.54	-38.2	-39.2	19.8	0.00e+00	0	43	0	2419064832	46	4112
2026-01-08 16:12:46.70	297.44	14.51	-38.2	-39.2	19.8	0.00e+00	0	43	0	2425356288	46	4144
2026-01-08 16:12:48.30	297.75	14.45	-38.3	-39.3	19.7	0.00e+00	0	43	0	2436890624	46	4161
2026-01-08 16:12:48.88	297.86	14.43	-38.3	-39.4	19.6	0.00e+00	0	43	0	2441084928	46	4195
2026-01-08 16:12:50.46	298.17	14.37	-38.4	-39.4	19.6	0.00e+00	0	43	0	2451570688	46	4229
2026-01-08 16:12:51.03	298.28	14.35	-38.4	-39.4	19.6	0.00e+00	0	43	0	2455764992	46	4231
2026-01-08 16:12:52.62	298.59	14.29	-38.5	-39.5	19.5	0.00e+00	0	43	0	2467299328	46	4272
2026-01-08 16:12:53.32	298.72	14.26	-38.5	-39.5	19.4	0.00e+00	0	43	0	2472542208	46	4290
2026-01-08 16:12:54.64	298.97	14.21	-38.6	-39.6	19.4	0.00e+00	0	43	0	2481979392	46	4326
2026-01-08 16:12:55.36	299.11	14.18	-38.6	-39.6	19.4	0.00e+00	0	43	0	2487222272	46	4329
2026-01-08 16:12:56.65	299.36	14.13	-38.7	-39.7	19.3	0.00e+00	0	43	0	2496659456	46	4374
2026-01-08 16:12:57.36	299.49	14.10	-38.7	-39.8	19.3	0.00e+00	0	43	0	2501902336	46	4395
2026-01-08 16:12:58.65	299.74	14.05	-38.6	-39.7	19.4	0.00e+00	0	43	0	2511339520	46	4347
2026-01-08 16:12:59.37	299.87	14.02	-38.7	-39.8	19.2	0.00e+00	0	43	0	2516582400	46	4422
2026-01-08 16:13:00.76	300.13	13.97	-38.8	-39.9	19.1	0.00e+00	0	43	0	2526019584	47	4218
2026-01-08 16:13:01.48	300.27	13.94	-38.8	-39.8	19.1	0.00e+00	0	43	0	2531262464	47	4189
2026-01-08 16:13:02.77	300.51	13.89	-38.7	-39.8	19.2	0.00e+00	0	43	0	2540699648	47	4156
2026-01-08 16:13:03.48	300.64	13.86	-38.6	-39.6	19.4	0.00e+00	0	43	0	2545942528	47	4070
2026-01-08 16:13:04.77	300.88	13.80	-38.6	-39.7	19.3	0.00e+00	0	43	0	2555379712	47	4118
2026-01-08 16:13:05.49	301.02	13.77	-38.6	-39.7	19.3	0.00e+00	0	43	0	2560622592	47	4100
2026-01-08 16:13:06.78	301.26	13.72	-38.7	-39.7	19.2	0.00e+00	0	43	0	2570059776	47	4136
2026-01-08 16:13:07.50	301.39	13.69	-38.5	-39.5	19.4	0.00e+00	0	43	0	2575302656	47	4037
2026-01-08 16:13:08.79	301.63	13.64	-38.5	-39.5	19.5	0.00e+00	0	43	0	2584739840	47	4030
2026-01-08 16:13:09.62	301.78	13.60	-38.5	-39.6	19.4	0.00e+00	0	43	0	2591031296	47	4054
2026-01-08 16:13:10.77	301.99	13.55	-38.5	-39.5	19.5	0.00e+00	0	43	0	2598371328	47	4021
2026-01-08 16:13:11.63	302.15	13.52	-38.5	-39.6	19.4	0.00e+00	0	43	0	2604662784	47	4058
2026-01-08 16:13:12.77	302.36	13.47	-38.5	-39.6	19.4	0.00e+00	0	43	0	2613051392	47	4056
2026-01-08 16:13:13.63	302.51	13.43	-38.5	-39.6	19.4	0.00e+00	0	43	0	2619342848	47	4054
2026-01-08 16:13:14.78	302.72	13.38	-38.6	-39.6	19.3	0.00e+00	0	43	0	2627731456	47	4093
2026-01-08 16:13:15.64	302.88	13.34	-38.6	-39.7	19.3	0.00e+00	0	43	0	2634022912	47	4115
2026-01-08 16:13:16.78	303.08	13.29	-38.6	-39.7	19.3	0.00e+00	0	43	0	2642411520	47	4112
2026-01-08 16:13:17.64	303.24	13.26	-38.5	-39.6	19.4	0.00e+00	0	43	0	2648702976	47	4057
2026-01-08 16:13:18.95	303.47	13.20	-38.5	-39.5	19.4	0.00e+00	0	43	0	2658140160	47	4041
2026-01-08 16:13:19.67	303.60	13.17	-38.4	-39.5	19.5	0.00e+00	0	43	0	2663383040	47	4019
2026-01-08 16:13:20.96	303.83	13.11	-38.5	-39.6	19.4	0.00e+00	0	43	0	2671771648	47	4061
2026-01-08 16:13:21.67	303.95	13.08	-38.5	-39.6	19.4	0.00e+00	0	43	0	2677014528	47	4068
2026-01-08 16:13:22.96	304.18	13.02	-38.6	-39.7	19.3	0.00e+00	0	43	0	2686451712	47	4124
2026-01-08 16:13:23.68	304.31	12.99	-38.6	-39.7	19.3	0.00e+00	0	43	0	2691694592	47	4114
2026-01-08 16:13:25.27	304.59	12.92	-38.7	-39.8	19.1	0.00e+00	0	43	0	2703228928	47	4181
2026-01-08 16:13:25.84	304.69	12.89	-38.9	-40.0	19.0	0.00e+00	0	43	0	2707423232	47	4247
2026-01-08 16:13:27.42	304.97	12.82	-38.9	-40.0	19.0	0.00e+00	0	43	0	2718957568	47	4269
2026-01-08 16:13:28.04	305.07	12.79	-38.8	-39.9	19.1	0.00e+00	0	43	0	2723151872	47	4222
2026-01-08 16:13:29.61	305.35	12.72	-38.9	-40.0	19.0	0.00e+00	0	43	0	2734686208	47	4266
2026-01-08 16:13:30.28	305.46	12.69	-39.0	-40.1	18.9	0.00e+00	0	43	0	2739929088	47	4297
2026-01-08 16:13:31.71	305.71	12.63	-38.9	-40.0	18.9	0.00e+00	0	43	0	2749366272	47	4281
2026-01-08 16:13:32.47	305.84	12.59	-39.0	-40.1	18.9	0.00e+00	0	43	0	2755657728	47	4306
2026-01-08 16:13:33.76	306.06	12.53	-38.9	-39.9	19.0	0.00e+00	0	43	0	2764046336	47	4242
2026-01-08 16:13:34.48	306.18	12.50	-38.8	-39.9	19.0	0.00e+00	0	43	0	2770337792	47	4225
2026-01-08 16:13:35.76	306.40	12.44	-38.9	-40.0	19.0	0.00e+00	0	43	0	2778726400	47	4244
2026-01-08 16:13:36.48	306.52	12.41	-38.8	-39.9	19.1	0.00e+00	0	43	0	2783969280	47	4202
2026-01-08 16:13:37.77	306.74	12.35	-38.9	-39.9	19.0	0.00e+00	0	43	0	2793406464	47	4240
2026-01-08 16:13:38.49	306.86	12.31	-38.8	-39.9	19.1	0.00e+00	0	43	0	2798649344	47	4194
2026-01-08 16:13:39.84	307.09	12.25	-38.9	-40.0	19.0	0.00e+00	0	43	0	2808086528	47	4274
2026-01-08 16:13:40.56	307.21	12.21	-39.0	-40.1	18.9	0.00e+00	0	43	0	2813329408	47	4312
2026-01-08 16:13:41.85	307.43	12.15	-39.0	-40.0	18.9	0.00e+00	0	43	0	2822766592	47	4283
2026-01-08 16:13:42.57	307.55	12.12	-38.9	-40.0	19.0	0.00e+00	0	43	0	2828009472	47	4245
2026-01-08 16:13:43.86	307.76	12.06	-39.0	-40.1	18.8	0.00e+00	0	43	0	2837446656	47	4319
2026-01-08 16:13:44.57	307.88	12.02	-39.0	-40.1	18.8	0.00e+00	0	43	0	2842689536	47	4327
2026-01-08 16:13:45.86	308.09	11.96	-39.1	-40.2	18.7	0.00e+00	0	43	0	2852126720	47	4371
2026-01-08 16:13:46.58	308.21	11.93	-39.1	-40.2	18.7	0.00e+00	0	43	0	2857369600	47	4380
2026-01-08 16:13:47.87	308.42	11.87	-39.1	-40.2	18.7	0.00e+00	0	43	0	2866806784	47	4390
2026-01-08 16:13:48.58	308.54	11.83	-39.0	-40.1	18.8	0.00e+00	0	43	0	2872049664	47	4319
2026-01-08 16:13:49.88	308.75	11.77	-39.1	-40.3	18.7	0.00e+00	0	43	0	2881486848	47	4401
2026-01-08 16:13:50.59	308.86	11.74	-39.0	-40.1	18.8	0.00e+00	0	43	0	2885681152	47	4323
2026-01-08 16:13:51.88	309.07	11.67	-39.0	-40.2	18.8	0.00e+00	0	43	0	2895118336	47	4341
2026-01-08 16:13:52.60	309.19	11.64	-39.0	-40.1	18.8	0.00e+00	0	43	0	2900361216	47	4323
2026-01-08 16:13:53.89	309.40	11.58	-39.1	-40.2	18.8	0.00e+00	0	43	0	2909798400	47	4349
2026-01-08 16:13:54.61	309.51	11.54	-39.2	-40.3	18.6	0.00e+00	0	43	0	2915041280	47	4397
2026-01-08 16:13:55.90	309.72	11.48	-39.2	-40.3	18.6	0.00e+00	0	43	0	2924478464	47	4407
2026-01-08 16:13:56.61	309.83	11.44	-39.2	-40.3	18.7	0.00e+00	0	43	0	2929721344	47	4402
2026-01-08 16:13:57.90	310.04	11.38	-39.1	-40.2	18.7	0.00e+00	0	43	0	2939158528	47	4389
2026-01-08 16:13:58.62	310.15	11.34	-39.2	-40.3	18.6	0.00e+00	0	43	0	2944401408	47	4401
2026-01-08 16:13:59.91	310.35	11.28	-39.5	-40.6	18.6	0.00e+00	0	43	0	2952790016	48	4321
2026-01-08 16:14:00.62	310.46	11.25	-39.4	-40.5	18.6	0.00e+00	0	43	0	2959081472	48	4287
2026-01-08 16:14:02.28	310.72	11.16	-39.4	-40.5	18.6	0.00e+00	0	43	0	2970615808	48	4289
2026-01-08 16:14:02.85	310.81	11.14	-39.4	-40.6	18.6	0.00e+00	0	43	0	2974810112	48	4298
2026-01-08 16:14:04.46	311.06	11.06	-39.4	-40.5	18.6	0.00e+00	0	43	0	2986344448	48	4277
2026-01-08 16:14:05.03	311.15	11.03	-39.4	-40.5	18.7	0.00e+00	0	43	0	2990538752	48	4245
2026-01-08 16:14:06.62	311.40	10.95	-39.4	-40.5	18.7	0.00e+00	0	43	0	3002073088	48	4269
2026-01-08 16:14:07.19	311.48	10.92	-39.4	-40.5	18.6	0.00e+00	0	43	0	3006267392	48	4279
2026-01-08 16:14:08.77	311.73	10.84	-39.2	-40.3	18.9	0.00e+00	0	43	0	3017801728	48	4163
2026-01-08 16:14:09.39	311.82	10.81	-39.3	-40.4	18.8	0.00e+00	0	43	0	3021996032	48	4202
2026-01-08 16:14:10.97	312.06	10.73	-39.2	-40.3	18.9	0.00e+00	0	43	0	3033530368	48	4150
2026-01-08 16:14:11.56	312.15	10.70	-39.2	-40.3	18.9	0.00e+00	0	43	0	3037724672	48	4169
2026-01-08 16:14:13.13	312.39	10.62	-39.2	-40.3	18.8	0.00e+00	0	43	0	3049259008	48	4190
2026-01-08 16:14:14.04	312.53	10.58	-39.1	-40.3	18.8	0.00e+00	0	43	0	3055550464	48	4166
2026-01-08 16:14:15.04	312.68	10.53	-39.3	-40.5	18.6	0.00e+00	0	43	0	3062890496	48	4271
2026-01-08 16:14:16.05	312.83	10.48	-39.3	-40.5	18.6	0.00e+00	0	43	0	3070230528	48	4263
2026-01-08 16:14:17.05	312.98	10.42	-39.4	-40.6	18.5	0.00e+00	0	43	0	3077570560	48	4331
2026-01-08 16:14:18.05	313.12	10.37	-39.6	-40.8	18.3	0.00e+00	0	43	0	3083862016	48	4437
2026-01-08 16:14:19.05	313.27	10.32	-39.5	-40.7	18.4	0.00e+00	0	43	0	3091202048	48	4389
2026-01-08 16:14:20.05	313.42	10.27	-39.7	-40.9	18.2	0.00e+00	0	43	0	3098542080	48	4490
2026-01-08 16:14:21.06	313.57	10.22	-39.6	-40.7	18.4	0.00e+00	0	43	0	3105882112	48	4386
2026-01-08 16:14:22.06	313.71	10.17	-39.7	-40.9	18.2	0.00e+00	0	43	0	3113222144	48	4487
2026-01-08 16:14:23.06	313.86	10.12	-39.8	-41.0	18.1	0.00e+00	0	43	0	3120562176	49	4270
2026-01-08 16:14:24.07	314.01	10.07	-39.8	-41.0	18.1	0.00e+00	0	43	0	3127902208	49	4283
2026-01-08 16:14:25.07	314.15	10.02	-39.9	-41.1	18.1	0.00e+00	0	43	0	3135242240	49	4304
2026-01-08 16:14:26.08	314.30	9.97	-39.7	-40.9	18.2	0.00e+00	0	43	0	3142582272	49	4221
2026-01-08 16:14:27.08	314.44	9.91	-39.7	-40.9	18.2	0.00e+00	0	43	0	3149922304	49	4208
2026-01-08 16:14:28.08	314.59	9.86	-39.7	-40.9	18.3	0.00e+00	0	43	0	3157262336	49	4196
2026-01-08 16:14:29.09	314.73	9.81	-39.6	-40.8	18.3	0.00e+00	0	43	0	3163553792	49	4159
2026-01-08 16:14:30.09	314.87	9.76	-39.5	-40.7	18.4	0.00e+00	0	43	0	3170893824	49	4132
2026-01-08 16:14:31.09	315.01	9.71	-39.6	-40.7	18.4	0.00e+00	0	43	0	3178233856	49	4131
2026-01-08 16:14:32.09	315.16	9.66	-39.4	-40.6	18.5	0.00e+00	0	43	0	3185573888	49	4057
2026-01-08 16:14:33.10	315.30	9.61	-39.3	-40.4	18.7	0.00e+00	0	43	0	3192913920	49	3988
2026-01-08 16:14:34.18	315.45	9.55	-39.4	-40.5	18.6	0.00e+00	0	43	0	3201302528	49	4025
2026-01-08 16:14:35.04	315.57	9.51	-39.3	-40.4	18.7	0.00e+00	0	43	0	3206545408	49	3965
2026-01-08 16:14:36.18	315.73	9.45	-39.3	-40.4	18.7	0.00e+00	0	43	0	3214934016	49	3967
2026-01-08 16:14:37.04	315.85	9.40	-39.3	-40.4	18.7	0.00e+00	0	43	0	3221225472	49	3969
2026-01-08 16:14:38.19	316.01	9.34	-39.3	-40.4	18.6	0.00e+00	0	43	0	3229614080	49	4003
2026-01-08 16:14:39.05	316.13	9.30	-39.5	-40.7	18.4	0.00e+00	0	43	0	3235905536	49	4116
2026-01-08 16:14:40.20	316.29	9.24	-39.6	-40.7	18.3	0.00e+00	0	43	0	3244294144	49	4137
2026-01-08 16:14:41.34	316.44	9.18	-39.6	-40.8	18.3	0.00e+00	0	43	0	3252682752	49	4180
2026-01-08 16:14:42.20	316.56	9.14	-39.8	-41.0	18.1	0.00e+00	0	43	0	3258974208	49	4256
2026-01-08 16:14:43.35	316.72	9.08	-39.7	-40.9	18.2	0.00e+00	0	43	0	3267362816	49	4226
2026-01-08 16:14:44.21	316.83	9.03	-39.8	-41.0	18.1	0.00e+00	0	43	0	3272605696	49	4245
2026-01-08 16:14:45.36	316.99	8.97	-49.5	-59.6	3.8	8.46e-01	0	43	104	3277848576	68	12183
2026-01-08 16:14:46.22	317.11	8.93	-49.2	-60.6	3.8	8.48e-01	0	43	104	3277848576	68	13662
2026-01-08 16:14:47.37	317.26	8.87	-49.6	-60.8	3.8	8.47e-01	0	43	104	3277848576	68	13929
2026-01-08 16:14:48.23	317.38	8.82	-49.9	-60.8	3.8	8.47e-01	0	43	104	3277848576	69	13215
2026-01-08 16:14:49.37	317.53	8.77	-50.1	-61.0	3.8	8.48e-01	0	43	104	3277848576	69	13448
2026-01-08 16:14:50.24	317.64	8.72	-50.1	-61.0	3.8	8.47e-01	0	43	104	3277848576	69	13557
2026-01-08 16:14:51.43	317.80	8.66	-49.8	-61.0	3.8	8.47e-01	0	43	104	3277848576	69	13458
2026-01-08 16:14:52.29	317.91	8.61	-50.0	-61.0	3.8	8.47e-01	0	43	104	3277848576	69	13527
2026-01-08 16:14:53.47	318.07	8.55	-50.1	-61.0	3.8	8.47e-01	0	43	104	3277848576	69	13525
2026-01-08 16:14:54.33	318.18	8.51	-50.2	-61.0	3.8	8.46e-01	0	43	104	3277848576	69	13520
2026-01-08 16:14:55.51	318.34	8.45	-50.2	-61.1	3.8	8.47e-01	0	43	104	3277848576	69	13626
2026-01-08 16:14:56.37	318.45	8.40	-50.2	-61.1	3.8	8.46e-01	0	43	104	3277848576	69	13575
2026-01-08 16:14:57.54	318.60	8.34	-50.2	-61.0	3.8	8.47e-01	0	43	104	3277848576	70	12791
2026-01-08 16:14:58.40	318.71	8.30	-50.4	-61.1	3.8	8.46e-01	0	43	104	3277848576	70	12815
2026-01-08 16:14:59.59	318.86	8.23	-50.2	-61.1	3.8	8.48e-01	0	43	104	3277848576	70	12812
2026-01-08 16:15:00.46	318.98	8.19	-50.2	-61.1	3.8	8.47e-01	0	43	104	3277848576	70	12828
2026-01-08 16:15:01.65	319.13	8.13	-50.1	-61.1	3.8	8.46e-01	0	43	104	3277848576	70	12828
2026-01-08 16:15:02.51	319.24	8.08	-50.1	-61.1	3.8	8.46e-01	0	43	104	3277848576	70	12848
2026-01-08 16:15:03.69	319.39	8.02	-50.0	-61.0	3.8	8.47e-01	0	43	104	3277848576	70	12783
2026-01-08 16:15:04.55	319.50	7.98	-50.0	-61.0	3.8	8.46e-01	0	43	104	3277848576	70	12775
2026-01-08 16:15:05.73	319.65	7.91	-49.8	-61.0	3.8	8.47e-01	0	43	104	3277848576	70	12726
2026-01-08 16:15:06.59	319.75	7.87	-49.8	-61.0	3.8	8.46e-01	0	43	104	3277848576	70	12676
2026-01-08 16:15:07.74	319.90	7.81	-49.7	-61.0	3.8	8.47e-01	0	43	104	3277848576	70	12678
2026-01-08 16:15:08.60	320.01	7.76	-49.8	-61.0	3.8	8.45e-01	0	43	104	3277848576	70	12750
2026-01-08 16:15:09.75	320.15	7.70	-49.7	-60.9	3.8	8.48e-01	0	43	104	3277848576	70	12663
2026-01-08 16:15:10.61	320.26	7.66	-49.8	-60.9	3.8	8.47e-01	0	43	104	3277848576	70	12611
2026-01-08 16:15:11.76	320.40	7.60	-49.7	-60.9	3.8	8.46e-01	0	43	104	3277848576	70	12647
2026-01-08 16:15:12.62	320.50	7.55	-49.8	-61.0	3.8	8.47e-01	0	43	104	3277848576	70	12698
2026-01-08 16:15:13.77	320.64	7.49	-49.7	-60.9	3.8	8.47e-01	0	43	104	3277848576	70	12555
2026-01-08 16:15:14.63	320.75	7.45	-49.7	-60.9	3.8	8.46e-01	0	43	104	3277848576	70	12601
2026-01-08 16:15:15.77	320.89	7.39	-49.7	-60.9	3.8	8.46e-01	0	43	104	3277848576	70	12550
2026-01-08 16:15:16.63	320.99	7.35	-49.7	-60.9	3.8	8.48e-01	0	43	104	3277848576	70	12622
2026-01-08 16:15:17.78	321.13	7.29	-49.7	-60.9	3.8	8.47e-01	0	43	104	3277848576	70	12625
2026-01-08 16:15:18.65	321.24	7.24	-49.8	-60.9	3.8	8.47e-01	0	43	104	3277848576	70	12571
2026-01-08 16:15:19.79	321.37	7.18	-49.8	-60.9	3.8	8.47e-01	0	43	104	3277848576	70	12597
2026-01-08 16:15:20.65	321.48	7.14	-49.7	-60.9	3.8	8.47e-01	0	43	104	3277848576	70	12656
2026-01-08 16:15:21.80	321.61	7.08	-49.7	-60.9	3.8	8.46e-01	0	43	104	3277848576	70	12635
2026-01-08 16:15:22.66	321.72	7.03	-49.7	-60.9	3.8	8.46e-01	0	43	104	3277848576	70	12616
2026-01-08 16:15:23.81	321.85	6.97	-49.7	-60.9	3.8	8.48e-01	0	43	104	3277848576	70	12570
2026-01-08 16:15:24.67	321.95	6.93	-49.7	-60.9	3.8	8.46e-01	0	43	104	3277848576	70	12585
2026-01-08 16:15:25.82	322.09	6.87	-49.7	-60.9	3.8	8.46e-01	0	43	104	3277848576	70	12655
2026-01-08 16:15:26.68	322.19	6.82	-49.7	-60.9	3.8	8.46e-01	0	43	104	3277848576	70	12609
2026-01-08 16:15:27.83	322.32	6.76	-49.7	-60.8	3.8	8.48e-01	0	43	104	3277848576	70	12497
2026-01-08 16:15:28.69	322.43	6.72	-49.7	-60.9	3.8	8.46e-01	0	43	104	3277848576	70	12590
2026-01-08 16:15:29.84	322.56	6.66	-49.7	-60.9	3.8	8.47e-01	0	43	104	3277848576	70	12564
2026-01-08 16:15:30.70	322.66	6.61	-49.7	-60.9	3.8	8.48e-01	0	43	104	3277848576	70	12654
2026-01-08 16:15:31.84	322.79	6.55	-49.7	-60.9	3.8	8.46e-01	0	43	104	3277848576	70	12616
2026-01-08 16:15:32.70	322.89	6.51	-49.7	-61.0	3.8	8.47e-01	0	43	104	3277848576	70	12697
2026-01-08 16:15:33.85	323.02	6.45	-49.7	-60.8	3.8	8.47e-01	0	43	104	3277848576	70	12500
2026-01-08 16:15:34.71	323.12	6.40	-49.7	-60.9	3.8	8.47e-01	0	43	104	3277848576	70	12609
2026-01-08 16:15:35.86	323.25	6.34	-49.7	-60.9	3.8	8.47e-01	0	43	104	3277848576	70	12618
2026-01-08 16:15:36.72	323.35	6.30	-49.7	-60.9	3.8	8.47e-01	0	43	104	3277848576	70	12617
2026-01-08 16:15:37.87	323.48	6.24	-49.7	-61.0	3.8	8.47e-01	0	43	104	3277848576	70	12688
2026-01-08 16:15:38.73	323.57	6.19	-49.7	-60.9	3.8	8.46e-01	0	43	104	3277848576	70	12617
2026-01-08 16:15:39.88	323.70	6.13	-49.7	-60.9	3.8	8.46e-01	0	43	104	3277848576	70	12572
2026-01-08 16:15:40.73	323.80	6.09	-49.8	-61.0	3.8	8.47e-01	0	43	104	3277848576	70	12667
2026-01-08 16:15:41.88	323.93	6.03	-49.7	-60.9	3.8	8.48e-01	0	43	104	3277848576	70	12596
2026-01-08 16:15:42.75	324.02	5.98	-49.7	-61.0	3.8	8.47e-01	0	43	104	3277848576	70	12679
2026-01-08 16:15:43.89	324.15	5.92	-49.8	-60.9	3.8	8.49e-01	0	43	104	3277848576	70	12599
2026-01-08 16:15:44.75	324.24	5.88	-49.8	-60.9	3.8	8.48e-01	0	43	104	3277848576	70	12644
2026-01-08 16:15:45.90	324.37	5.82	-49.7	-60.9	3.8	8.45e-01	0	43	104	3277848576	70	12579
2026-01-08 16:15:46.76	324.46	5.78	-49.8	-60.9	3.8	8.47e-01	0	43	104	3277848576	70	12596
2026-01-08 16:15:47.91	324.59	5.72	-49.7	-60.9	3.8	8.47e-01	0	43	104	3277848576	70	12634
2026-01-08 16:15:48.77	324.68	5.67	-49.7	-60.9	3.8	8.47e-01	0	43	104	3277848576	70	12625
2026-01-08 16:15:49.92	324.81	5.61	-49.8	-60.9	3.8	8.46e-01	0	43	104	3277848576	70	12539
2026-01-08 16:15:50.78	324.90	5.57	-49.8	-60.9	3.8	8.46e-01	0	43	104	3277848576	70	12537
2026-01-08 16:15:51.93	325.02	5.51	-49.7	-60.9	3.8	8.46e-01	0	43	104	3277848576	70	12570
2026-01-08 16:15:52.78	325.11	5.46	-49.7	-60.9	3.8	8.47e-01	0	43	104	3277848576	70	12611
2026-01-08 16:15:53.93	325.24	5.40	-49.7	-60.9	3.8	8.47e-01	0	43	104	3277848576	70	12586
2026-01-08 16:15:54.80	325.33	5.36	-49.8	-60.9	3.8	8.47e-01	0	43	104	3277848576	70	12599
2026-01-08 16:15:55.94	325.45	5.30	-49.7	-60.9	3.8	8.47e-01	0	43	104	3277848576	70	12583
2026-01-08 16:15:56.80	325.54	5.26	-49.7	-60.8	3.8	8.46e-01	0	43	104	3277848576	70	12484
2026-01-08 16:15:57.95	325.66	5.20	-49.7	-60.9	3.8	8.48e-01	0	43	104	3277848576	70	12533
2026-01-08 16:15:58.81	325.75	5.15	-49.7	-60.9	3.8	8.46e-01	0	43	104	3277848576	70	12570
2026-01-08 16:15:59.96	325.87	5.09	-49.7	-60.9	3.8	8.48e-01	0	43	104	3277848576	70	12597
2026-01-08 16:16:00.82	325.96	5.05	-49.7	-60.9	3.8	8.46e-01	0	43	104	3277848576	70	12578
2026-01-08 16:16:01.97	326.08	4.99	-49.7	-60.9	3.8	8.46e-01	0	43	104	3277848576	70	12638

#Closed at: 2026-01-08 16:16:02
#Recorded file [3277 MB]: D:/Data/31040_260108_190604.dat