passes_logs/2026/01/08/T1/T1__20260108_061359_FENGYUN_3E_rec.log

#Pass ID: 20260108_061359_FENGYUN 3E
#Satellite: FENGYUN 3E
#Configuration: FENGYUN 3E
#almurnet v.1.7.20251203
#Start time: 2026-01-08 06:13:59

#Version: 2.0.20230620
#Station: T1
#Location: 37.570604 lon 55.790049 lat
#TLE: 1 49008U 21062A   26006.26767912  .00000427  00000+0  22170-3 0  9993
#TLE: 2 49008  98.7475  11.4982 0001602 156.1158 204.0093 14.19885456233607

#Time	Az	El	Level	Level2	SNR	BER	BlckErr	Temp	State	Recorded	gain1	gain2
2026-01-08 06:13:59.03	3.06	5.00	-50.5	-61.9	3.8	8.47e-01	0	40	0	0	71	13366
2026-01-08 06:14:00.03	2.95	5.05	-48.2	-61.5	3.8	8.47e-01	0	40	104	0	66	16908
2026-01-08 06:14:01.03	2.85	5.10	-46.1	-61.6	3.8	8.46e-01	0	40	104	0	62	21565
2026-01-08 06:14:02.03	2.74	5.15	-46.1	-61.6	3.8	8.47e-01	0	40	104	0	62	21516
2026-01-08 06:14:03.04	2.64	5.21	-46.1	-61.6	3.8	8.46e-01	0	40	104	0	62	21576
2026-01-08 06:14:04.04	2.53	5.26	-46.1	-61.6	3.8	8.47e-01	0	40	104	0	62	21606
2026-01-08 06:14:05.05	2.42	5.31	-46.1	-61.6	3.8	8.46e-01	0	40	104	0	62	21595
2026-01-08 06:14:06.05	2.32	5.36	-46.1	-61.6	3.8	8.47e-01	0	40	104	0	62	21532
2026-01-08 06:14:07.06	2.21	5.41	-46.1	-61.6	3.8	8.46e-01	0	40	104	0	62	21550
2026-01-08 06:14:08.06	2.10	5.46	-46.1	-61.6	3.8	8.47e-01	0	40	104	0	62	21530
2026-01-08 06:14:09.06	1.99	5.52	-46.1	-61.5	3.8	8.47e-01	0	40	104	0	62	21486
2026-01-08 06:14:10.07	1.88	5.57	-46.1	-61.5	3.8	8.46e-01	0	40	104	0	62	21454
2026-01-08 06:14:11.07	1.77	5.62	-46.1	-61.6	3.8	8.47e-01	0	40	104	0	62	21544
2026-01-08 06:14:12.08	1.66	5.67	-46.1	-61.5	3.8	8.46e-01	0	41	104	0	62	21344
2026-01-08 06:14:13.08	1.56	5.72	-46.1	-61.5	3.8	8.48e-01	0	41	104	0	62	21329
2026-01-08 06:14:14.08	1.45	5.77	-46.2	-61.5	3.8	8.47e-01	0	41	104	0	62	21460
2026-01-08 06:14:15.09	1.33	5.83	-46.2	-61.5	3.8	8.47e-01	0	41	104	0	62	21473
2026-01-08 06:14:16.09	1.22	5.88	-46.1	-61.5	3.8	8.47e-01	0	41	104	0	62	21377
2026-01-08 06:14:17.10	1.11	5.93	-46.1	-61.5	3.8	8.46e-01	0	41	104	0	62	21502
2026-01-08 06:14:18.10	1.00	5.98	-46.1	-61.5	3.8	8.48e-01	0	41	104	0	62	21478
2026-01-08 06:14:19.11	0.89	6.03	-46.1	-61.5	3.8	8.47e-01	0	41	104	0	62	21431
2026-01-08 06:14:20.11	0.77	6.09	-46.2	-61.5	3.8	8.46e-01	0	41	104	0	62	21422
2026-01-08 06:14:21.11	0.66	6.14	-46.1	-61.6	3.8	8.46e-01	0	41	104	0	62	21545
2026-01-08 06:14:22.12	0.55	6.19	-46.1	-61.5	3.8	8.46e-01	0	41	104	0	62	21501
2026-01-08 06:14:23.12	0.43	6.24	-46.2	-61.5	3.8	8.47e-01	0	41	104	0	62	21389
2026-01-08 06:14:24.13	0.32	6.29	-46.2	-61.6	3.8	8.47e-01	0	41	104	0	62	21542
2026-01-08 06:14:25.13	0.20	6.34	-46.2	-61.6	3.8	8.47e-01	0	41	104	0	62	21541
2026-01-08 06:14:26.14	0.09	6.40	-46.2	-61.5	3.8	8.47e-01	0	41	104	0	62	21444
2026-01-08 06:14:27.14	359.97	6.45	-46.2	-61.6	3.8	8.47e-01	0	41	104	0	62	21576
2026-01-08 06:14:28.15	359.85	6.50	-46.2	-61.6	3.8	8.47e-01	0	41	104	0	62	21520
2026-01-08 06:14:29.15	359.74	6.55	-46.2	-61.5	3.8	8.47e-01	0	41	104	0	62	21422
2026-01-08 06:14:30.15	359.62	6.60	-46.2	-61.5	3.8	8.47e-01	0	41	104	0	62	21360
2026-01-08 06:14:31.16	359.50	6.65	-46.2	-61.4	3.8	8.47e-01	0	41	104	0	62	21188
2026-01-08 06:14:32.16	359.39	6.70	-46.2	-61.4	3.8	8.48e-01	0	41	104	0	62	21218
2026-01-08 06:14:33.16	359.27	6.76	-46.2	-61.4	3.8	8.46e-01	0	41	104	0	62	21144
2026-01-08 06:14:34.17	359.15	6.81	-46.2	-61.5	3.8	8.46e-01	0	41	104	0	62	21328
2026-01-08 06:14:35.17	359.03	6.86	-46.2	-61.5	3.8	8.46e-01	0	41	104	0	62	21304
2026-01-08 06:14:36.18	358.91	6.91	-46.2	-61.5	3.8	8.47e-01	0	41	104	0	62	21486
2026-01-08 06:14:37.18	358.79	6.96	-46.2	-61.5	3.8	8.48e-01	0	41	104	0	62	21405
2026-01-08 06:14:38.19	358.67	7.01	-46.2	-61.5	3.8	8.46e-01	0	42	104	0	62	21468
2026-01-08 06:14:39.19	358.55	7.07	-46.2	-61.5	3.8	8.46e-01	0	41	104	0	62	21419
2026-01-08 06:14:40.20	358.43	7.12	-46.2	-61.5	3.8	8.47e-01	0	41	104	0	62	21378
2026-01-08 06:14:41.20	358.30	7.17	-46.2	-61.5	3.8	8.47e-01	0	42	104	0	62	21374
2026-01-08 06:14:42.20	358.18	7.22	-46.2	-61.5	3.8	8.46e-01	0	42	104	0	62	21435
2026-01-08 06:14:43.21	358.06	7.27	-46.2	-61.5	3.8	8.47e-01	0	41	104	0	62	21472
2026-01-08 06:14:44.21	357.94	7.32	-46.2	-61.4	3.8	8.47e-01	0	42	104	0	62	21164
2026-01-08 06:14:45.22	357.81	7.37	-46.2	-61.4	3.8	8.47e-01	0	42	104	0	62	21050
2026-01-08 06:14:46.22	357.69	7.43	-46.1	-61.4	3.8	8.47e-01	0	42	104	0	62	21020
2026-01-08 06:14:47.23	357.56	7.48	-46.2	-61.4	3.8	8.47e-01	0	42	104	0	62	21038
2026-01-08 06:14:48.23	357.44	7.53	-46.2	-61.5	3.8	8.46e-01	0	42	104	0	62	21385
2026-01-08 06:14:49.23	357.31	7.58	-46.2	-61.5	3.8	8.48e-01	0	42	104	0	62	21425
2026-01-08 06:14:50.24	357.19	7.63	-46.2	-61.5	3.8	8.46e-01	0	42	104	0	62	21476
2026-01-08 06:14:51.24	357.06	7.68	-46.2	-61.5	3.8	8.46e-01	0	42	104	0	62	21428
2026-01-08 06:14:52.25	356.93	7.73	-46.2	-61.3	3.8	8.47e-01	0	42	104	0	62	20896
2026-01-08 06:14:53.25	356.81	7.78	-46.2	-61.2	3.8	8.48e-01	0	42	104	0	62	20645
2026-01-08 06:14:54.26	356.68	7.84	-46.2	-61.1	3.8	8.48e-01	0	42	104	0	62	20518
2026-01-08 06:14:55.26	356.55	7.89	-46.2	-61.2	3.8	8.47e-01	0	42	104	0	62	20676
2026-01-08 06:14:56.27	356.42	7.94	-46.2	-61.2	3.8	8.47e-01	0	42	104	0	62	20747
2026-01-08 06:14:57.27	356.29	7.99	-46.2	-61.2	3.8	8.46e-01	0	42	104	0	62	20688
2026-01-08 06:14:58.27	356.16	8.04	-46.2	-61.1	3.8	8.46e-01	0	42	104	0	62	20495
2026-01-08 06:14:59.28	356.03	8.09	-46.2	-61.1	3.8	8.47e-01	0	42	104	0	62	20537
2026-01-08 06:15:00.28	355.90	8.14	-46.2	-61.2	3.8	8.47e-01	0	42	104	0	62	20751
2026-01-08 06:15:01.29	355.77	8.19	-46.2	-61.4	3.8	8.47e-01	0	42	104	0	62	21187
2026-01-08 06:15:02.29	355.64	8.24	-46.2	-61.5	3.8	8.46e-01	0	42	104	0	62	21355
2026-01-08 06:15:03.30	355.51	8.29	-46.2	-61.4	3.8	8.47e-01	0	42	104	0	62	21167
2026-01-08 06:15:04.30	355.38	8.35	-46.1	-60.9	3.8	8.47e-01	0	42	104	0	62	20070
2026-01-08 06:15:05.31	355.24	8.40	-46.1	-60.3	3.8	8.45e-01	0	42	104	0	62	18703
2026-01-08 06:15:06.31	355.11	8.45	-46.1	-59.6	3.8	8.46e-01	0	42	104	0	62	17164
2026-01-08 06:15:07.31	354.98	8.50	-46.0	-58.9	3.9	8.43e-01	0	42	104	0	62	15815
2026-01-08 06:15:08.32	354.84	8.55	-46.0	-58.0	4.2	8.40e-01	0	42	0	0	62	14330
2026-01-08 06:15:09.32	354.71	8.60	-45.9	-57.3	4.4	8.30e-01	0	42	0	0	62	13248
2026-01-08 06:15:10.33	354.57	8.65	-45.9	-56.6	4.7	8.13e-01	0	42	0	0	62	12141
2026-01-08 06:15:11.33	354.43	8.70	-45.8	-55.8	5.1	7.66e-01	0	42	0	0	62	11092
2026-01-08 06:15:12.33	354.30	8.75	-45.7	-54.8	5.8	6.61e-01	0	43	0	0	62	9915
2026-01-08 06:15:13.34	354.16	8.80	-45.5	-53.6	6.7	2.28e-01	0	42	0	7340032	61	9120
2026-01-08 06:15:14.34	354.02	8.85	-45.2	-52.1	8.1	8.43e-02	0	42	0	14680064	61	7679
2026-01-08 06:15:15.35	353.89	8.90	-44.7	-50.4	9.9	1.80e-02	0	42	0	22020096	60	6684
2026-01-08 06:15:16.35	353.75	8.95	-44.2	-48.6	11.6	1.16e-03	0	42	0	29360128	59	5759
2026-01-08 06:15:17.36	353.61	9.00	-43.4	-47.0	13.3	6.75e-05	0	42	0	36700160	57	5370
2026-01-08 06:15:18.36	353.47	9.05	-42.8	-45.8	14.5	0.00e+00	0	42	0	44040192	56	4975
2026-01-08 06:15:19.36	353.33	9.10	-43.8	-47.4	12.9	1.10e-06	0	42	0	51380224	56	5991
2026-01-08 06:15:20.37	353.19	9.15	-46.0	-51.6	8.4	8.18e-01	0	43	0	55574528	62	6841
2026-01-08 06:15:21.37	353.05	9.20	-41.7	-43.9	16.3	0.00e+00	0	42	0	61865984	53	4722
2026-01-08 06:15:22.37	352.91	9.25	-43.0	-45.6	14.7	9.95e-05	0	42	0	69206016	57	4550
2026-01-08 06:15:23.38	352.77	9.30	-40.3	-41.9	18.3	0.00e+00	0	42	0	76546048	51	4210
2026-01-08 06:15:24.38	352.62	9.35	-40.3	-41.9	18.2	0.00e+00	0	42	0	83886080	51	4221
2026-01-08 06:15:25.38	352.48	9.40	-40.5	-42.1	18.0	0.00e+00	0	42	0	91226112	51	4327
2026-01-08 06:15:26.39	352.34	9.45	-40.4	-42.0	18.1	0.00e+00	0	42	0	98566144	51	4254
2026-01-08 06:15:27.39	352.20	9.50	-40.4	-42.0	18.2	0.00e+00	0	42	0	105906176	51	4257
2026-01-08 06:15:28.39	352.05	9.55	-40.4	-42.0	18.1	0.00e+00	0	42	0	113246208	51	4277
2026-01-08 06:15:29.39	351.91	9.60	-40.5	-42.2	18.0	0.00e+00	0	43	0	120586240	51	4342
2026-01-08 06:15:30.40	351.76	9.64	-40.6	-42.1	18.0	0.00e+00	0	42	0	127926272	51	4335
2026-01-08 06:15:31.40	351.62	9.69	-40.6	-42.2	18.0	0.00e+00	0	42	0	135266304	51	4361
2026-01-08 06:15:32.40	351.47	9.74	-40.7	-42.2	18.0	0.00e+00	0	42	0	141557760	51	4364
2026-01-08 06:15:33.40	351.33	9.79	-40.7	-42.2	18.0	0.00e+00	0	42	0	148897792	51	4355
2026-01-08 06:15:34.41	351.18	9.84	-40.8	-42.2	17.9	0.00e+00	0	43	0	156237824	51	4382
2026-01-08 06:15:35.41	351.03	9.89	-40.9	-42.3	17.9	0.00e+00	0	43	0	163577856	51	4415
2026-01-08 06:15:36.41	350.88	9.94	-41.0	-42.3	17.9	0.00e+00	0	43	0	170917888	51	4435
2026-01-08 06:15:37.42	350.73	9.99	-40.9	-42.3	17.9	0.00e+00	0	42	0	178257920	51	4416
2026-01-08 06:15:38.42	350.58	10.03	-40.8	-42.2	18.0	0.00e+00	0	42	0	185597952	51	4370
2026-01-08 06:15:39.47	350.43	10.08	-40.7	-42.1	18.1	0.00e+00	0	42	0	192937984	51	4323
2026-01-08 06:15:40.35	350.30	10.13	-40.6	-42.0	18.2	0.00e+00	0	42	0	199229440	51	4261
2026-01-08 06:15:41.50	350.12	10.18	-40.5	-41.9	18.3	0.00e+00	0	42	0	207618048	51	4227
2026-01-08 06:15:42.35	350.00	10.22	-40.5	-42.0	18.2	0.00e+00	0	42	0	213909504	51	4253
2026-01-08 06:15:43.50	349.82	10.28	-40.4	-41.8	18.4	0.00e+00	0	42	0	222298112	51	4179
2026-01-08 06:15:44.36	349.69	10.32	-40.4	-41.9	18.3	0.00e+00	0	42	0	228589568	51	4201
2026-01-08 06:15:45.51	349.52	10.37	-40.2	-41.7	18.5	0.00e+00	0	42	0	236978176	51	4127
2026-01-08 06:15:46.37	349.39	10.41	-40.2	-41.6	18.6	0.00e+00	0	43	0	243269632	51	4078
2026-01-08 06:15:47.51	349.21	10.47	-40.1	-41.6	18.6	0.00e+00	0	42	0	250609664	51	4075
2026-01-08 06:15:48.37	349.08	10.51	-40.2	-41.6	18.6	0.00e+00	0	43	0	256901120	51	4087
2026-01-08 06:15:49.52	348.90	10.56	-40.2	-41.6	18.6	0.00e+00	0	43	0	265289728	51	4090
2026-01-08 06:15:50.38	348.77	10.60	-40.3	-41.7	18.5	0.00e+00	0	43	0	271581184	51	4105
2026-01-08 06:15:51.52	348.59	10.66	-40.4	-41.8	18.5	0.00e+00	0	43	0	279969792	51	4151
2026-01-08 06:15:52.39	348.46	10.70	-40.4	-41.7	18.5	0.00e+00	0	43	0	286261248	51	4126
2026-01-08 06:15:53.53	348.28	10.75	-40.4	-41.8	18.4	0.00e+00	0	42	0	294649856	51	4174
2026-01-08 06:15:54.39	348.14	10.79	-40.3	-41.7	18.5	0.00e+00	0	43	0	300941312	51	4126
2026-01-08 06:15:55.54	347.96	10.84	-40.3	-41.8	18.5	0.00e+00	0	43	0	309329920	51	4155
2026-01-08 06:15:56.40	347.83	10.88	-40.3	-41.8	18.5	0.00e+00	0	43	0	315621376	51	4146
2026-01-08 06:15:57.54	347.65	10.94	-40.3	-41.8	18.4	0.00e+00	0	42	0	324009984	51	4176
2026-01-08 06:15:58.40	347.51	10.98	-40.3	-41.8	18.4	0.00e+00	0	43	0	329252864	51	4157
2026-01-08 06:15:59.55	347.33	11.03	-40.4	-41.9	18.4	0.00e+00	0	43	0	337641472	51	4200
2026-01-08 06:16:00.41	347.19	11.07	-40.4	-41.9	18.4	0.00e+00	0	42	0	343932928	51	4204
2026-01-08 06:16:01.55	347.01	11.12	-40.2	-41.6	18.6	0.00e+00	0	43	0	352321536	51	4093
2026-01-08 06:16:02.42	346.87	11.16	-40.1	-41.4	18.8	0.00e+00	0	42	0	358612992	50	4239
2026-01-08 06:16:03.56	346.68	11.21	-40.1	-41.4	18.8	0.00e+00	0	43	0	367001600	50	4242
2026-01-08 06:16:04.42	346.54	11.25	-40.1	-41.5	18.7	0.00e+00	0	43	0	373293056	50	4270
2026-01-08 06:16:05.57	346.36	11.30	-39.8	-41.2	19.0	0.00e+00	0	43	0	381681664	50	4113
2026-01-08 06:16:06.43	346.22	11.34	-39.8	-41.2	19.0	0.00e+00	0	43	0	387973120	50	4129
2026-01-08 06:16:07.57	346.03	11.39	-39.9	-41.3	18.9	0.00e+00	0	43	0	395313152	50	4175
2026-01-08 06:16:08.43	345.89	11.43	-39.9	-41.3	18.9	0.00e+00	0	43	0	402653184	50	4164
2026-01-08 06:16:09.58	345.70	11.48	-40.0	-41.3	18.9	0.00e+00	0	43	0	411041792	50	4185
2026-01-08 06:16:10.44	345.56	11.52	-40.1	-41.3	18.9	0.00e+00	0	43	0	416284672	50	4193
2026-01-08 06:16:11.59	345.37	11.57	-40.2	-41.5	18.8	0.00e+00	0	43	0	424673280	50	4245
2026-01-08 06:16:12.60	345.20	11.62	-40.3	-41.5	18.8	0.00e+00	0	42	0	432013312	50	4258
2026-01-08 06:16:13.78	345.00	11.67	-40.2	-41.4	18.8	0.00e+00	0	42	0	441450496	50	4223
2026-01-08 06:16:14.64	344.86	11.71	-40.2	-41.5	18.8	0.00e+00	0	42	0	446693376	50	4248
2026-01-08 06:16:15.99	344.63	11.76	-40.3	-41.5	18.8	0.00e+00	0	43	0	457179136	50	4268
2026-01-08 06:16:16.71	344.51	11.80	-40.3	-41.5	18.8	0.00e+00	0	43	0	461373440	50	4246
2026-01-08 06:16:18.00	344.30	11.85	-40.2	-41.4	18.8	0.00e+00	0	43	0	470810624	50	4223
2026-01-08 06:16:18.72	344.17	11.88	-40.3	-41.5	18.8	0.00e+00	0	43	0	476053504	50	4260
2026-01-08 06:16:20.28	343.91	11.95	-40.2	-41.4	18.9	0.00e+00	0	43	0	487587840	50	4222
2026-01-08 06:16:21.19	343.75	11.99	-40.2	-41.4	18.8	0.00e+00	0	43	0	493879296	50	4238
2026-01-08 06:16:22.19	343.58	12.03	-40.2	-41.4	18.8	0.00e+00	0	43	0	501219328	50	4238
2026-01-08 06:16:23.19	343.41	12.07	-40.3	-41.5	18.7	0.00e+00	0	42	0	508559360	50	4273
2026-01-08 06:16:24.19	343.24	12.12	-40.3	-41.5	18.8	0.00e+00	0	43	0	515899392	50	4249
2026-01-08 06:16:25.20	343.07	12.16	-40.2	-41.3	18.9	0.00e+00	0	43	0	523239424	50	4190
2026-01-08 06:16:26.20	342.89	12.20	-40.1	-41.3	18.9	0.00e+00	0	42	0	530579456	50	4173
2026-01-08 06:16:27.20	342.72	12.24	-40.0	-41.2	19.1	0.00e+00	0	42	0	537919488	50	4102
2026-01-08 06:16:28.21	342.54	12.28	-40.0	-41.1	19.1	0.00e+00	0	43	0	545259520	50	4074
2026-01-08 06:16:29.27	342.36	12.33	-39.9	-41.0	19.2	0.00e+00	0	43	0	552599552	50	4040
2026-01-08 06:16:30.13	342.21	12.36	-39.8	-41.0	19.2	0.00e+00	0	43	0	558891008	50	4018
2026-01-08 06:16:31.28	342.01	12.41	-39.8	-41.0	19.3	0.00e+00	0	43	0	567279616	50	4011
2026-01-08 06:16:32.14	341.86	12.44	-39.8	-41.0	19.2	0.00e+00	0	43	0	573571072	50	4038
2026-01-08 06:16:33.29	341.65	12.49	-39.7	-40.8	19.4	0.00e+00	0	43	0	581959680	50	3954
2026-01-08 06:16:34.15	341.50	12.53	-39.7	-40.8	19.4	0.00e+00	0	43	0	588251136	50	3956
2026-01-08 06:16:35.30	341.30	12.57	-39.8	-40.9	19.3	0.00e+00	0	43	0	596639744	50	3993
2026-01-08 06:16:36.15	341.15	12.61	-39.7	-40.9	19.3	0.00e+00	0	42	0	601882624	50	3988
2026-01-08 06:16:37.30	340.94	12.65	-39.8	-41.0	19.2	0.00e+00	0	43	0	610271232	50	4044
2026-01-08 06:16:38.16	340.79	12.68	-39.8	-41.0	19.2	0.00e+00	0	43	0	616562688	50	4045
2026-01-08 06:16:39.31	340.58	12.73	-39.7	-41.0	19.3	0.00e+00	0	43	0	624951296	50	4005
2026-01-08 06:16:40.17	340.43	12.76	-39.7	-41.0	19.2	0.00e+00	0	43	0	631242752	50	4026
2026-01-08 06:16:41.31	340.22	12.81	-39.8	-41.1	19.1	0.00e+00	0	42	0	639631360	50	4077
2026-01-08 06:16:42.17	340.07	12.84	-39.8	-41.0	19.2	0.00e+00	0	43	0	645922816	50	4044
2026-01-08 06:16:43.32	339.86	12.88	-39.9	-41.1	19.2	0.00e+00	0	43	0	654311424	50	4057
2026-01-08 06:16:44.18	339.70	12.92	-40.0	-41.2	19.1	0.00e+00	0	43	0	660602880	50	4102
2026-01-08 06:16:45.49	339.46	12.97	-40.0	-41.2	19.1	0.00e+00	0	43	0	670040064	50	4107
2026-01-08 06:16:46.20	339.33	12.99	-39.9	-41.0	19.2	0.00e+00	0	43	0	675282944	50	4049
2026-01-08 06:16:47.49	339.10	13.04	-39.8	-41.0	19.3	0.00e+00	0	43	0	684720128	50	4024
2026-01-08 06:16:48.20	338.97	13.07	-39.7	-40.9	19.3	0.00e+00	0	43	0	688914432	50	4004
2026-01-08 06:16:49.77	338.68	13.13	-39.6	-40.8	19.4	0.00e+00	0	43	0	700448768	49	4187
2026-01-08 06:16:50.34	338.57	13.15	-39.6	-40.9	19.3	0.00e+00	0	43	0	704643072	49	4220
2026-01-08 06:16:51.92	338.28	13.20	-39.7	-40.9	19.3	0.00e+00	0	43	0	716177408	49	4212
2026-01-08 06:16:52.49	338.17	13.23	-39.8	-40.9	19.3	0.00e+00	0	43	0	720371712	49	4234
2026-01-08 06:16:54.07	337.88	13.28	-39.9	-41.1	19.2	0.00e+00	0	43	0	731906048	49	4307
2026-01-08 06:16:54.81	337.74	13.31	-39.9	-41.1	19.2	0.00e+00	0	43	0	737148928	49	4300
2026-01-08 06:16:56.08	337.50	13.35	-40.0	-41.1	19.1	0.00e+00	0	43	0	746586112	49	4315
2026-01-08 06:16:56.82	337.36	13.38	-39.9	-41.1	19.2	0.00e+00	0	43	0	751828992	49	4294
2026-01-08 06:16:58.12	337.12	13.42	-40.0	-41.2	19.1	0.00e+00	0	43	0	761266176	49	4375
2026-01-08 06:16:58.83	336.99	13.45	-39.9	-41.0	19.2	0.00e+00	0	43	0	766509056	49	4287
2026-01-08 06:17:00.12	336.74	13.49	-39.8	-41.0	19.3	0.00e+00	0	43	0	775946240	49	4252
2026-01-08 06:17:00.84	336.60	13.52	-39.8	-40.9	19.3	0.00e+00	0	43	0	780140544	49	4229
2026-01-08 06:17:02.13	336.36	13.56	-39.6	-40.7	19.5	0.00e+00	0	43	0	789577728	49	4132
2026-01-08 06:17:02.84	336.22	13.58	-39.7	-40.8	19.5	0.00e+00	0	43	0	794820608	49	4154
2026-01-08 06:17:04.21	335.96	13.63	-39.7	-40.8	19.4	0.00e+00	0	43	0	805306368	49	4151
2026-01-08 06:17:04.93	335.83	13.65	-39.7	-40.7	19.5	0.00e+00	0	43	0	810549248	49	4143
2026-01-08 06:17:06.25	335.57	13.70	-39.8	-40.8	19.4	0.00e+00	0	43	0	819986432	49	4191
2026-01-08 06:17:06.97	335.43	13.72	-39.8	-40.8	19.4	0.00e+00	0	43	0	825229312	49	4182
2026-01-08 06:17:08.26	335.19	13.76	-39.8	-40.9	19.3	0.00e+00	0	43	0	834666496	49	4215
2026-01-08 06:17:08.98	335.05	13.78	-39.8	-40.9	19.4	0.00e+00	0	43	0	839909376	49	4199
2026-01-08 06:17:10.27	334.80	13.83	-39.9	-41.0	19.3	0.00e+00	0	43	0	848297984	49	4254
2026-01-08 06:17:10.98	334.66	13.85	-39.9	-41.1	19.2	0.00e+00	0	43	0	853540864	49	4295
2026-01-08 06:17:12.27	334.41	13.89	-39.8	-40.9	19.4	0.00e+00	0	43	0	862978048	49	4195
2026-01-08 06:17:13.00	334.27	13.91	-39.8	-40.9	19.4	0.00e+00	0	43	0	868220928	49	4198
2026-01-08 06:17:14.29	334.01	13.95	-39.7	-40.8	19.4	0.00e+00	0	43	0	877658112	49	4180
2026-01-08 06:17:15.06	333.86	13.97	-39.7	-40.7	19.5	0.00e+00	0	43	0	882900992	49	4137
2026-01-08 06:17:16.35	333.61	14.01	-39.6	-40.7	19.5	0.00e+00	0	43	0	892338176	49	4117
2026-01-08 06:17:17.15	333.45	14.03	-39.5	-40.5	19.6	0.00e+00	0	43	0	898629632	49	4050
2026-01-08 06:17:18.61	333.17	14.08	-39.6	-40.6	19.6	0.00e+00	0	43	0	909115392	49	4091
2026-01-08 06:17:19.32	333.03	14.10	-39.6	-40.6	19.6	0.00e+00	0	43	0	914358272	49	4082
2026-01-08 06:17:20.61	332.77	14.13	-39.4	-40.5	19.7	0.00e+00	0	43	0	923795456	49	4029
2026-01-08 06:17:21.33	332.63	14.15	-39.4	-40.5	19.8	0.00e+00	0	43	0	929038336	49	4006
2026-01-08 06:17:22.62	332.37	14.19	-39.3	-40.4	19.8	0.00e+00	0	43	0	937426944	49	3963
2026-01-08 06:17:23.33	332.23	14.21	-39.3	-40.4	19.8	0.00e+00	0	43	0	942669824	49	3980
2026-01-08 06:17:24.62	331.98	14.25	-39.3	-40.4	19.8	0.00e+00	0	43	0	952107008	49	3968
2026-01-08 06:17:25.44	331.81	14.27	-39.4	-40.4	19.8	0.00e+00	0	43	0	958398464	49	3978
2026-01-08 06:17:26.59	331.58	14.30	-39.5	-40.5	19.7	0.00e+00	0	43	0	966787072	49	4036
2026-01-08 06:17:27.44	331.41	14.32	-39.4	-40.4	19.8	0.00e+00	0	43	0	973078528	49	3987
2026-01-08 06:17:28.59	331.18	14.35	-39.4	-40.4	19.8	0.00e+00	0	43	0	980418560	49	3974
2026-01-08 06:17:29.45	331.01	14.37	-39.3	-40.4	19.8	0.00e+00	0	43	0	986710016	49	3963
2026-01-08 06:17:30.60	330.78	14.40	-39.4	-40.4	19.8	0.00e+00	0	43	0	995098624	49	4003
2026-01-08 06:17:31.46	330.60	14.42	-39.4	-40.4	19.8	0.00e+00	0	43	0	1001390080	49	4000
2026-01-08 06:17:32.60	330.37	14.45	-39.3	-40.4	19.8	0.00e+00	0	43	0	1009778688	49	3982
2026-01-08 06:17:33.46	330.20	14.47	-39.4	-40.5	19.7	0.00e+00	0	43	0	1016070144	49	4005
2026-01-08 06:17:34.61	329.97	14.50	-39.3	-40.3	19.9	0.00e+00	0	43	0	1024458752	49	3937
2026-01-08 06:17:35.47	329.79	14.52	-39.2	-40.3	19.9	0.00e+00	0	43	0	1030750208	49	3915
2026-01-08 06:17:36.62	329.56	14.55	-39.1	-40.1	20.0	0.00e+00	0	43	0	1039138816	49	3866
2026-01-08 06:17:37.48	329.38	14.57	-39.1	-40.1	20.1	0.00e+00	0	43	0	1045430272	49	3828
2026-01-08 06:17:38.62	329.15	14.59	-39.0	-40.0	20.2	0.00e+00	0	43	0	1053818880	48	4033
2026-01-08 06:17:39.48	328.97	14.61	-39.0	-40.0	20.1	0.00e+00	0	43	0	1059061760	48	4035
2026-01-08 06:17:40.63	328.74	14.64	-39.0	-40.0	20.2	0.00e+00	0	43	0	1067450368	48	4020
2026-01-08 06:17:41.49	328.56	14.65	-39.0	-40.0	20.2	0.00e+00	0	43	0	1073741824	48	4037
2026-01-08 06:17:42.64	328.33	14.68	-39.0	-40.0	20.2	0.00e+00	0	43	0	1082130432	48	4034
2026-01-08 06:17:43.79	328.09	14.70	-39.0	-40.0	20.1	0.00e+00	0	43	0	1090519040	48	4041
2026-01-08 06:17:44.82	327.88	14.72	-39.0	-40.0	20.1	0.00e+00	0	43	0	1097859072	48	4031
2026-01-08 06:17:45.82	327.67	14.74	-39.0	-40.0	20.2	0.00e+00	0	43	0	1105199104	48	4037
2026-01-08 06:17:46.82	327.46	14.76	-39.1	-40.1	20.1	0.00e+00	0	43	0	1112539136	48	4072
2026-01-08 06:17:47.83	327.26	14.78	-39.2	-40.2	19.9	0.00e+00	0	43	0	1119879168	48	4125
2026-01-08 06:17:48.83	327.05	14.80	-39.1	-40.2	20.0	0.00e+00	0	43	0	1127219200	48	4101
2026-01-08 06:17:49.83	326.84	14.82	-39.1	-40.1	20.1	0.00e+00	0	43	0	1134559232	48	4074
2026-01-08 06:17:50.83	326.63	14.84	-39.1	-40.1	20.1	0.00e+00	0	43	0	1141899264	48	4090
2026-01-08 06:17:51.83	326.43	14.86	-39.2	-40.2	20.0	0.00e+00	0	43	0	1149239296	48	4133
2026-01-08 06:17:52.84	326.22	14.88	-39.2	-40.2	20.0	0.00e+00	0	43	0	1155530752	48	4139
2026-01-08 06:17:53.84	326.01	14.89	-39.2	-40.2	20.0	0.00e+00	0	43	0	1162870784	48	4138
2026-01-08 06:17:54.84	325.80	14.91	-39.0	-40.1	20.1	0.00e+00	0	43	0	1170210816	48	4066
2026-01-08 06:17:55.85	325.59	14.93	-39.0	-40.0	20.2	0.00e+00	0	43	0	1177550848	48	4045
2026-01-08 06:17:56.85	325.38	14.94	-39.0	-40.0	20.2	0.00e+00	0	43	0	1184890880	48	4038
2026-01-08 06:17:57.85	325.17	14.96	-38.8	-39.9	20.3	0.00e+00	0	43	0	1192230912	48	3978
2026-01-08 06:17:58.85	324.96	14.97	-38.9	-39.9	20.3	0.00e+00	0	43	0	1199570944	48	3994
2026-01-08 06:17:59.86	324.75	14.99	-38.9	-39.9	20.3	0.00e+00	0	43	0	1206910976	48	3982
2026-01-08 06:18:00.86	324.54	15.00	-38.8	-39.8	20.4	0.00e+00	0	43	0	1214251008	48	3938
2026-01-08 06:18:01.86	324.33	15.02	-38.8	-39.8	20.4	0.00e+00	0	43	0	1221591040	48	3933
2026-01-08 06:18:02.87	324.11	15.03	-38.9	-39.9	20.3	0.00e+00	0	43	0	1228931072	48	3967
2026-01-08 06:18:03.87	323.90	15.04	-38.9	-39.8	20.3	0.00e+00	0	43	0	1235222528	48	3956
2026-01-08 06:18:04.88	323.69	15.06	-38.8	-39.8	20.4	0.00e+00	0	43	0	1242562560	48	3914
2026-01-08 06:18:05.88	323.48	15.07	-39.0	-39.9	20.3	0.00e+00	0	43	0	1249902592	48	3998
2026-01-08 06:18:06.88	323.27	15.08	-39.1	-40.1	20.1	0.00e+00	0	43	0	1257242624	48	4057
2026-01-08 06:18:07.95	323.04	15.10	-39.2	-40.2	20.0	0.00e+00	0	43	0	1264582656	48	4102
2026-01-08 06:18:08.84	322.85	15.11	-39.2	-40.2	20.0	0.00e+00	0	43	0	1271922688	48	4109
2026-01-08 06:18:09.98	322.61	15.12	-39.2	-40.2	20.0	0.00e+00	0	43	0	1279262720	48	4100
2026-01-08 06:18:10.84	322.43	15.13	-39.2	-40.2	20.0	0.00e+00	0	43	0	1285554176	48	4110
2026-01-08 06:18:11.99	322.19	15.14	-39.2	-40.2	20.0	0.00e+00	0	43	0	1293942784	48	4132
2026-01-08 06:18:12.85	322.01	15.15	-39.1	-40.1	20.1	0.00e+00	0	43	0	1300234240	48	4084
2026-01-08 06:18:13.99	321.76	15.16	-39.0	-40.0	20.2	0.00e+00	0	43	0	1308622848	48	4051
2026-01-08 06:18:14.85	321.58	15.17	-38.9	-39.9	20.2	0.00e+00	0	43	0	1314914304	48	3998
2026-01-08 06:18:16.00	321.34	15.18	-38.9	-39.9	20.3	0.00e+00	0	43	0	1323302912	48	3981
2026-01-08 06:18:16.86	321.15	15.18	-38.9	-39.9	20.3	0.00e+00	0	43	0	1329594368	48	3992
2026-01-08 06:18:18.00	320.91	15.19	-39.0	-40.0	20.2	0.00e+00	0	43	0	1337982976	48	4007
2026-01-08 06:18:18.86	320.73	15.20	-38.9	-39.8	20.3	0.00e+00	0	43	0	1344274432	48	3956
2026-01-08 06:18:20.01	320.48	15.21	-38.8	-39.7	20.4	0.00e+00	0	43	0	1352663040	48	3899
2026-01-08 06:18:20.87	320.30	15.21	-38.8	-39.8	20.4	0.00e+00	0	43	0	1357905920	48	3925
2026-01-08 06:18:22.08	320.04	15.22	-38.8	-39.8	20.4	0.00e+00	0	43	0	1367343104	48	3949
2026-01-08 06:18:22.94	319.86	15.23	-38.8	-39.8	20.4	0.00e+00	0	43	0	1373634560	48	3929
2026-01-08 06:18:24.09	319.61	15.23	-38.8	-39.8	20.4	0.00e+00	0	43	0	1382023168	48	3946
2026-01-08 06:18:24.95	319.43	15.24	-38.9	-39.9	20.3	0.00e+00	0	43	0	1387266048	48	3966
2026-01-08 06:18:26.09	319.18	15.24	-38.8	-39.8	20.4	0.00e+00	0	43	0	1395654656	48	3920
2026-01-08 06:18:26.95	319.00	15.25	-38.8	-39.9	20.3	0.00e+00	0	43	0	1401946112	48	3964
2026-01-08 06:18:28.09	318.76	15.25	-38.8	-39.7	20.4	0.00e+00	0	43	0	1410334720	48	3911
2026-01-08 06:18:28.95	318.57	15.25	-38.8	-39.8	20.4	0.00e+00	0	43	0	1416626176	48	3928
2026-01-08 06:18:30.10	318.33	15.26	-38.8	-39.8	20.3	0.00e+00	0	43	0	1425014784	48	3948
2026-01-08 06:18:30.96	318.14	15.26	-38.8	-39.8	20.4	0.00e+00	0	43	0	1431306240	48	3946
2026-01-08 06:18:32.10	317.90	15.26	-38.9	-39.9	20.3	0.00e+00	0	43	0	1439694848	48	3974
2026-01-08 06:18:32.97	317.71	15.27	-39.1	-40.0	20.2	0.00e+00	0	43	0	1445986304	48	4051
2026-01-08 06:18:34.11	317.47	15.27	-39.1	-40.1	20.1	0.00e+00	0	43	0	1454374912	48	4073
2026-01-08 06:18:34.97	317.29	15.27	-39.2	-40.2	20.0	0.00e+00	0	43	0	1460666368	48	4118
2026-01-08 06:18:36.12	317.04	15.27	-39.2	-40.2	20.0	0.00e+00	0	43	0	1468006400	48	4124
2026-01-08 06:18:36.98	316.86	15.27	-39.2	-40.2	20.0	0.00e+00	0	43	0	1474297856	48	4136
2026-01-08 06:18:38.13	316.61	15.27	-39.3	-40.3	19.9	0.00e+00	0	43	0	1482686464	48	4158
2026-01-08 06:18:39.00	316.42	15.27	-39.3	-40.3	19.9	0.00e+00	0	43	0	1488977920	48	4163
2026-01-08 06:18:40.14	316.18	15.27	-39.1	-40.1	20.1	0.00e+00	0	43	0	1497366528	48	4089
2026-01-08 06:18:41.10	315.97	15.27	-39.2	-40.1	20.1	0.00e+00	0	43	0	1504706560	48	4098
2026-01-08 06:18:42.28	315.72	15.26	-39.1	-40.1	20.1	0.00e+00	0	43	0	1513095168	48	4076
2026-01-08 06:18:43.14	315.54	15.26	-39.1	-40.1	20.1	0.00e+00	0	43	0	1519386624	48	4071
2026-01-08 06:18:44.49	315.25	15.26	-39.1	-40.1	20.1	0.00e+00	0	43	0	1528823808	48	4061
2026-01-08 06:18:45.21	315.09	15.26	-39.2	-40.2	20.0	0.00e+00	0	43	0	1534066688	48	4103
2026-01-08 06:18:46.50	314.82	15.25	-39.1	-40.1	20.1	0.00e+00	0	43	0	1543503872	48	4055
2026-01-08 06:18:47.22	314.66	15.25	-39.1	-40.1	20.0	0.00e+00	0	43	0	1548746752	48	4088
2026-01-08 06:18:48.77	314.33	15.24	-39.1	-40.2	20.1	0.00e+00	0	43	0	1560281088	48	4105
2026-01-08 06:18:49.48	314.18	15.24	-39.0	-40.0	20.2	0.00e+00	0	43	0	1564475392	48	4044
2026-01-08 06:18:50.77	313.90	15.23	-39.0	-40.0	20.1	0.00e+00	0	43	0	1573912576	48	4050
2026-01-08 06:18:51.49	313.75	15.23	-38.9	-40.0	20.2	0.00e+00	0	43	0	1579155456	48	4008
2026-01-08 06:18:52.78	313.48	15.22	-38.8	-39.9	20.3	0.00e+00	0	43	0	1588592640	48	3959
2026-01-08 06:18:53.50	313.32	15.22	-38.9	-39.9	20.3	0.00e+00	0	43	0	1593835520	48	3967
2026-01-08 06:18:54.79	313.05	15.21	-38.8	-39.8	20.4	0.00e+00	0	43	0	1603272704	48	3943
2026-01-08 06:18:55.55	312.88	15.20	-38.8	-39.8	20.3	0.00e+00	0	43	0	1608515584	48	3947
2026-01-08 06:18:56.84	312.61	15.19	-38.8	-39.8	20.4	0.00e+00	0	43	0	1617952768	48	3921
2026-01-08 06:18:57.62	312.44	15.19	-38.9	-39.8	20.3	0.00e+00	0	43	0	1623195648	48	3953
2026-01-08 06:18:59.25	312.10	15.17	-38.8	-39.8	20.4	0.00e+00	0	43	0	1635778560	48	3931
2026-01-08 06:18:59.82	311.98	15.17	-38.8	-39.7	20.4	0.00e+00	0	43	0	1639972864	48	3913
2026-01-08 06:19:01.64	311.59	15.15	-38.9	-39.8	20.3	0.00e+00	0	43	0	1652555776	48	3942
2026-01-08 06:19:02.21	311.47	15.15	-38.9	-39.9	20.3	0.00e+00	0	43	0	1656750080	48	3978
2026-01-08 06:19:03.79	311.13	15.13	-38.8	-39.8	20.4	0.00e+00	0	43	0	1668284416	48	3934
2026-01-08 06:19:04.39	311.00	15.13	-38.8	-39.8	20.4	0.00e+00	0	43	0	1672478720	48	3918
2026-01-08 06:19:05.97	310.67	15.11	-38.8	-39.7	20.4	0.00e+00	0	43	0	1684013056	48	3904
2026-01-08 06:19:06.57	310.54	15.10	-38.8	-39.7	20.4	0.00e+00	0	43	0	1688207360	48	3910
2026-01-08 06:19:08.42	310.15	15.08	-38.8	-39.8	20.3	0.00e+00	0	43	0	1701838848	48	3946
2026-01-08 06:19:08.99	310.03	15.07	-38.8	-39.8	20.4	0.00e+00	0	43	0	1706033152	48	3935
2026-01-08 06:19:10.59	309.69	15.05	-38.9	-39.9	20.3	0.00e+00	0	43	0	1717567488	48	3987
2026-01-08 06:19:11.54	309.49	15.04	-39.0	-40.0	20.2	0.00e+00	0	43	0	1723858944	48	4005
2026-01-08 06:19:12.55	309.28	15.03	-39.0	-39.9	20.2	0.00e+00	0	43	0	1731198976	48	4002
2026-01-08 06:19:13.55	309.07	15.01	-39.0	-39.9	20.2	0.00e+00	0	43	0	1738539008	48	4000
2026-01-08 06:19:14.55	308.86	15.00	-38.9	-39.9	20.3	0.00e+00	0	43	0	1745879040	48	3971
2026-01-08 06:19:15.56	308.65	14.98	-39.1	-40.1	20.1	0.00e+00	0	43	0	1753219072	48	4060
2026-01-08 06:19:16.56	308.44	14.97	-39.0	-40.0	20.1	0.00e+00	0	43	0	1760559104	48	4038
2026-01-08 06:19:17.56	308.23	14.95	-39.1	-40.1	20.1	0.00e+00	0	43	0	1767899136	48	4058
2026-01-08 06:19:18.57	308.01	14.94	-39.2	-40.2	20.0	0.00e+00	0	43	0	1775239168	48	4129
2026-01-08 06:19:19.68	307.78	14.92	-39.2	-40.2	20.0	0.00e+00	0	43	0	1782579200	48	4125
2026-01-08 06:19:20.54	307.60	14.90	-39.2	-40.2	20.0	0.00e+00	0	43	0	1788870656	48	4124
2026-01-08 06:19:21.69	307.36	14.88	-39.2	-40.2	20.0	0.00e+00	0	43	0	1797259264	48	4101
2026-01-08 06:19:22.55	307.18	14.87	-39.3	-40.2	19.9	0.00e+00	0	43	0	1803550720	48	4145
2026-01-08 06:19:23.70	306.94	14.85	-39.2	-40.1	20.0	0.00e+00	0	43	0	1811939328	48	4097
2026-01-08 06:19:24.56	306.76	14.83	-39.2	-40.2	20.0	0.00e+00	0	43	0	1818230784	48	4127
2026-01-08 06:19:25.70	306.53	14.81	-39.2	-40.2	20.0	0.00e+00	0	43	0	1826619392	48	4115
2026-01-08 06:19:26.57	306.35	14.79	-39.1	-40.1	20.1	0.00e+00	0	43	0	1832910848	48	4067
2026-01-08 06:19:27.71	306.11	14.77	-39.1	-40.1	20.1	0.00e+00	0	43	0	1840250880	48	4068
2026-01-08 06:19:28.57	305.93	14.76	-39.1	-40.1	20.1	0.00e+00	0	43	0	1847590912	48	4066
2026-01-08 06:19:29.72	305.69	14.73	-39.2	-40.1	20.0	0.00e+00	0	43	0	1854930944	48	4091
2026-01-08 06:19:30.57	305.52	14.72	-39.2	-40.2	20.0	0.00e+00	0	43	0	1861222400	48	4135
2026-01-08 06:19:31.72	305.28	14.69	-39.3	-40.2	19.9	0.00e+00	0	43	0	1869611008	48	4145
2026-01-08 06:19:32.59	305.10	14.67	-39.3	-40.3	19.9	0.00e+00	0	43	0	1875902464	48	4148
2026-01-08 06:19:33.87	304.84	14.65	-39.3	-40.4	19.8	0.00e+00	0	43	0	1885339648	48	4196
2026-01-08 06:19:34.59	304.69	14.63	-39.3	-40.3	19.9	0.00e+00	0	43	0	1890582528	48	4160
2026-01-08 06:19:35.88	304.43	14.60	-39.4	-40.4	19.8	0.00e+00	0	43	0	1900019712	48	4220
2026-01-08 06:19:36.60	304.28	14.59	-39.3	-40.4	19.8	0.00e+00	0	43	0	1905262592	48	4200
2026-01-08 06:19:37.89	304.02	14.56	-39.4	-40.4	19.8	0.00e+00	0	43	0	1914699776	48	4204
2026-01-08 06:19:38.61	303.87	14.54	-39.2	-40.2	19.9	0.00e+00	0	43	0	1918894080	48	4141
2026-01-08 06:19:40.23	303.54	14.50	-39.3	-40.3	19.9	0.00e+00	0	43	0	1931476992	48	4151
2026-01-08 06:19:40.81	303.42	14.49	-39.3	-40.3	19.9	0.00e+00	0	43	0	1935671296	48	4159
2026-01-08 06:19:42.38	303.10	14.45	-39.4	-40.4	19.8	0.00e+00	0	43	0	1947205632	48	4202
2026-01-08 06:19:42.97	302.98	14.44	-39.3	-40.3	19.9	0.00e+00	0	43	0	1951399936	48	4167
2026-01-08 06:19:44.55	302.66	14.40	-39.4	-40.4	19.8	0.00e+00	0	43	0	1961885696	48	4202
2026-01-08 06:19:45.12	302.55	14.38	-39.3	-40.3	19.9	0.00e+00	0	43	0	1966080000	48	4173
2026-01-08 06:19:46.76	302.22	14.34	-39.4	-40.4	19.8	0.00e+00	0	43	0	1978662912	48	4199
2026-01-08 06:19:47.34	302.10	14.32	-39.4	-40.4	19.8	0.00e+00	0	43	0	1982857216	48	4231
2026-01-08 06:19:48.93	301.78	14.28	-39.4	-40.5	19.7	0.00e+00	0	43	0	1994391552	48	4245
2026-01-08 06:19:49.50	301.67	14.27	-39.5	-40.5	19.6	0.00e+00	0	43	0	1997537280	48	4287
2026-01-08 06:19:51.08	301.35	14.22	-39.4	-40.4	19.7	0.00e+00	0	43	0	2009071616	48	4242
2026-01-08 06:19:51.97	301.17	14.20	-39.4	-40.4	19.7	0.00e+00	0	43	0	2016411648	48	4240
2026-01-08 06:19:53.11	300.95	14.17	-39.4	-40.4	19.8	0.00e+00	0	43	0	2024800256	48	4201
2026-01-08 06:19:54.31	300.71	14.13	-39.3	-40.3	19.9	0.00e+00	0	43	0	2032140288	48	4167
2026-01-08 06:19:55.34	300.50	14.11	-39.4	-40.4	19.7	0.00e+00	0	43	0	2040528896	48	4231
2026-01-08 06:19:56.34	300.31	14.08	-39.4	-40.4	19.8	0.00e+00	0	43	0	2047868928	48	4218
2026-01-08 06:19:57.34	300.11	14.05	-39.4	-40.4	19.8	0.00e+00	0	43	0	2054160384	48	4223
2026-01-08 06:19:58.35	299.91	14.02	-39.4	-40.4	19.7	0.00e+00	0	43	0	2061500416	48	4218
2026-01-08 06:19:59.35	299.71	13.99	-39.5	-40.5	19.6	0.00e+00	0	43	0	2068840448	48	4275
2026-01-08 06:20:00.35	299.52	13.96	-39.6	-40.6	19.6	0.00e+00	0	43	0	2076180480	48	4306
2026-01-08 06:20:01.36	299.32	13.93	-39.7	-40.7	19.5	0.00e+00	0	43	0	2083520512	48	4368
2026-01-08 06:20:02.36	299.12	13.90	-39.7	-40.7	19.4	0.00e+00	0	43	0	2090860544	48	4384
2026-01-08 06:20:03.36	298.93	13.87	-39.8	-40.8	19.3	0.00e+00	0	43	0	2098200576	49	4186
2026-01-08 06:20:04.37	298.73	13.83	-40.0	-41.0	19.2	0.00e+00	0	43	0	2105540608	49	4274
2026-01-08 06:20:05.37	298.54	13.80	-39.8	-40.8	19.4	0.00e+00	0	43	0	2112880640	49	4167
2026-01-08 06:20:06.37	298.34	13.77	-39.7	-40.8	19.4	0.00e+00	0	43	0	2120220672	49	4152
2026-01-08 06:20:07.38	298.15	13.74	-39.7	-40.7	19.5	0.00e+00	0	43	0	2127560704	49	4104
2026-01-08 06:20:08.38	297.96	13.71	-39.6	-40.6	19.6	0.00e+00	0	43	0	2134900736	49	4088
2026-01-08 06:20:09.38	297.76	13.67	-39.6	-40.6	19.5	0.00e+00	0	43	0	2141192192	49	4087
2026-01-08 06:20:10.38	297.57	13.64	-39.6	-40.6	19.6	0.00e+00	0	43	0	2148532224	49	4063
2026-01-08 06:20:11.39	297.38	13.61	-39.6	-40.6	19.6	0.00e+00	0	43	0	2155872256	49	4071
2026-01-08 06:20:12.39	297.19	13.57	-39.7	-40.7	19.5	0.00e+00	0	43	0	2163212288	49	4102
2026-01-08 06:20:13.39	296.99	13.54	-39.7	-40.7	19.5	0.00e+00	0	43	0	2170552320	49	4117
2026-01-08 06:20:14.40	296.80	13.51	-39.7	-40.7	19.5	0.00e+00	0	43	0	2177892352	49	4132
2026-01-08 06:20:15.40	296.61	13.47	-39.7	-40.7	19.5	0.00e+00	0	43	0	2185232384	49	4128
2026-01-08 06:20:16.40	296.42	13.44	-39.7	-40.7	19.4	0.00e+00	0	43	0	2192572416	49	4141
2026-01-08 06:20:17.41	296.23	13.40	-39.7	-40.7	19.4	0.00e+00	0	43	0	2199912448	49	4129
2026-01-08 06:20:18.41	296.04	13.37	-39.7	-40.7	19.4	0.00e+00	0	43	0	2207252480	49	4133
2026-01-08 06:20:19.45	295.85	13.33	-39.8	-40.8	19.4	0.00e+00	0	43	0	2214592512	49	4163
2026-01-08 06:20:20.47	295.66	13.29	-39.8	-40.8	19.4	0.00e+00	0	43	0	2221932544	49	4170
2026-01-08 06:20:21.48	295.47	13.26	-39.8	-40.9	19.3	0.00e+00	0	43	0	2229272576	49	4205
2026-01-08 06:20:22.53	295.27	13.22	-39.8	-40.8	19.4	0.00e+00	0	43	0	2236612608	49	4166
2026-01-08 06:20:23.39	295.11	13.19	-39.8	-40.8	19.4	0.00e+00	0	43	0	2242904064	49	4154
2026-01-08 06:20:24.54	294.90	13.15	-39.7	-40.7	19.5	0.00e+00	0	43	0	2251292672	49	4129
2026-01-08 06:20:25.39	294.74	13.12	-39.7	-40.7	19.5	0.00e+00	0	43	0	2257584128	49	4115
2026-01-08 06:20:26.54	294.53	13.07	-39.7	-40.7	19.5	0.00e+00	0	43	0	2264924160	49	4127
2026-01-08 06:20:27.40	294.37	13.04	-39.6	-40.6	19.5	0.00e+00	0	43	0	2271215616	49	4096
2026-01-08 06:20:28.55	294.16	13.00	-39.7	-40.7	19.4	0.00e+00	0	43	0	2279604224	49	4136
2026-01-08 06:20:29.41	294.00	12.97	-39.7	-40.8	19.4	0.00e+00	0	43	0	2285895680	49	4150
2026-01-08 06:20:30.56	293.79	12.92	-39.9	-40.9	19.3	0.00e+00	0	43	0	2294284288	49	4203
2026-01-08 06:20:31.42	293.63	12.89	-39.9	-41.0	19.2	0.00e+00	0	43	0	2300575744	49	4246
2026-01-08 06:20:32.56	293.42	12.85	-40.0	-41.0	19.1	0.00e+00	0	43	0	2308964352	49	4283
2026-01-08 06:20:33.42	293.27	12.81	-40.0	-41.0	19.1	0.00e+00	0	43	0	2315255808	49	4280
2026-01-08 06:20:34.58	293.06	12.77	-40.0	-41.0	19.1	0.00e+00	0	43	0	2323644416	49	4285
2026-01-08 06:20:35.44	292.90	12.73	-40.0	-41.1	19.1	0.00e+00	0	43	0	2329935872	49	4303
2026-01-08 06:20:36.59	292.69	12.69	-39.9	-41.0	19.2	0.00e+00	0	43	0	2338324480	49	4245
2026-01-08 06:20:37.45	292.54	12.66	-40.0	-41.0	19.2	0.00e+00	0	43	0	2344615936	49	4261
2026-01-08 06:20:38.59	292.34	12.61	-40.1	-41.2	19.1	0.00e+00	0	43	0	2351955968	49	4347
2026-01-08 06:20:39.46	292.18	12.58	-40.0	-41.0	19.2	0.00e+00	0	43	0	2358247424	49	4281
2026-01-08 06:20:40.60	291.98	12.53	-39.9	-40.9	19.2	0.00e+00	0	43	0	2366636032	49	4235
2026-01-08 06:20:41.46	291.82	12.50	-39.9	-40.9	19.2	0.00e+00	0	43	0	2372927488	49	4234
2026-01-08 06:20:42.61	291.62	12.45	-39.9	-41.0	19.2	0.00e+00	0	43	0	2381316096	49	4247
2026-01-08 06:20:43.47	291.47	12.41	-39.9	-40.9	19.3	0.00e+00	0	43	0	2387607552	49	4214
2026-01-08 06:20:44.62	291.27	12.37	-40.0	-41.1	19.1	0.00e+00	0	43	0	2395996160	49	4311
2026-01-08 06:20:45.48	291.11	12.33	-40.1	-41.2	19.0	0.00e+00	0	43	0	2402287616	49	4347
2026-01-08 06:20:46.62	290.91	12.28	-40.1	-41.1	19.0	0.00e+00	0	43	0	2410676224	49	4316
2026-01-08 06:20:47.48	290.76	12.25	-40.2	-41.2	19.0	0.00e+00	0	43	0	2416967680	49	4369
2026-01-08 06:20:48.63	290.56	12.20	-40.2	-41.3	18.9	0.00e+00	0	43	0	2425356288	49	4404
2026-01-08 06:20:49.49	290.41	12.16	-40.2	-41.3	18.9	0.00e+00	0	43	0	2430599168	50	4170
2026-01-08 06:20:50.63	290.22	12.12	-40.2	-41.2	18.9	0.00e+00	0	43	0	2438987776	50	4142
2026-01-08 06:20:51.59	290.05	12.08	-40.2	-41.2	18.9	0.00e+00	0	43	0	2446327808	50	4143
2026-01-08 06:20:52.75	289.85	12.03	-40.2	-41.3	18.8	0.00e+00	0	43	0	2454716416	50	4159
2026-01-08 06:20:53.64	289.70	11.99	-40.2	-41.3	18.9	0.00e+00	0	43	0	2461007872	50	4153
2026-01-08 06:20:54.78	289.50	11.94	-40.2	-41.2	18.9	0.00e+00	0	43	0	2469396480	50	4141
2026-01-08 06:20:55.64	289.36	11.90	-40.3	-41.3	18.8	0.00e+00	0	43	0	2475687936	50	4188
2026-01-08 06:20:56.78	289.16	11.85	-40.3	-41.4	18.8	0.00e+00	0	43	0	2484076544	50	4194
2026-01-08 06:20:57.80	288.99	11.81	-40.3	-41.3	18.8	0.00e+00	0	43	0	2491416576	50	4188
2026-01-08 06:20:58.98	288.79	11.76	-40.3	-41.3	18.9	0.00e+00	0	43	0	2499805184	50	4181
2026-01-08 06:20:59.84	288.64	11.72	-40.3	-41.3	18.9	0.00e+00	0	43	0	2506096640	50	4182
2026-01-08 06:21:00.98	288.45	11.67	-40.4	-41.4	18.8	0.00e+00	0	43	0	2514485248	50	4238
2026-01-08 06:21:01.84	288.31	11.63	-40.4	-41.4	18.8	0.00e+00	0	43	0	2520776704	50	4239
2026-01-08 06:21:02.99	288.12	11.58	-40.3	-41.3	18.9	0.00e+00	0	43	0	2528116736	50	4188
2026-01-08 06:21:03.85	287.97	11.54	-40.4	-41.4	18.8	0.00e+00	0	43	0	2534408192	50	4231
2026-01-08 06:21:04.99	287.78	11.49	-40.3	-41.3	18.9	0.00e+00	0	43	0	2542796800	50	4183
2026-01-08 06:21:05.86	287.64	11.45	-40.3	-41.4	18.9	0.00e+00	0	43	0	2549088256	50	4200
2026-01-08 06:21:07.00	287.45	11.40	-40.3	-41.3	18.9	0.00e+00	0	43	0	2557476864	50	4181
2026-01-08 06:21:07.86	287.31	11.37	-40.2	-41.2	19.0	0.00e+00	0	43	0	2563768320	50	4122
2026-01-08 06:21:09.01	287.12	11.31	-40.2	-41.2	18.9	0.00e+00	0	43	0	2572156928	50	4139
2026-01-08 06:21:09.87	286.98	11.27	-40.2	-41.2	19.0	0.00e+00	0	43	0	2578448384	50	4140
2026-01-08 06:21:11.01	286.80	11.22	-40.1	-41.2	19.0	0.00e+00	0	43	0	2586836992	50	4108
2026-01-08 06:21:11.87	286.66	11.18	-40.2	-41.3	18.9	0.00e+00	0	43	0	2593128448	50	4147
2026-01-08 06:21:13.12	286.45	11.13	-40.1	-41.1	19.0	0.00e+00	0	43	0	2601517056	50	4093
2026-01-08 06:21:13.97	286.32	11.09	-40.1	-41.1	19.1	0.00e+00	0	43	0	2607808512	50	4072
2026-01-08 06:21:15.15	286.13	11.03	-40.2	-41.3	18.9	0.00e+00	0	43	0	2616197120	50	4150
2026-01-08 06:21:16.01	285.99	10.99	-40.2	-41.2	18.9	0.00e+00	0	43	0	2622488576	50	4144
2026-01-08 06:21:17.15	285.81	10.94	-40.2	-41.3	18.9	0.00e+00	0	43	0	2630877184	50	4171
2026-01-08 06:21:18.02	285.67	10.90	-40.2	-41.2	18.9	0.00e+00	0	43	0	2637168640	50	4134
2026-01-08 06:21:19.16	285.49	10.85	-40.3	-41.3	18.8	0.00e+00	0	43	0	2645557248	50	4190
2026-01-08 06:21:20.02	285.35	10.81	-40.3	-41.4	18.8	0.00e+00	0	43	0	2651848704	50	4228
2026-01-08 06:21:21.17	285.17	10.75	-40.4	-41.5	18.7	0.00e+00	0	43	0	2660237312	50	4259
2026-01-08 06:21:22.03	285.03	10.71	-40.5	-41.6	18.6	0.00e+00	0	43	0	2666528768	50	4314
2026-01-08 06:21:23.18	284.85	10.66	-40.5	-41.6	18.6	0.00e+00	0	43	0	2673868800	50	4332
2026-01-08 06:21:24.04	284.72	10.62	-40.4	-41.5	18.7	0.00e+00	0	43	0	2680160256	50	4276
2026-01-08 06:21:25.18	284.54	10.57	-40.6	-41.7	18.5	0.00e+00	0	43	0	2688548864	50	4349
2026-01-08 06:21:26.05	284.41	10.52	-40.5	-41.6	18.5	0.00e+00	0	43	0	2694840320	50	4324
2026-01-08 06:21:27.19	284.23	10.47	-40.5	-41.6	18.6	0.00e+00	0	43	0	2703228928	50	4308
2026-01-08 06:21:28.05	284.10	10.43	-40.4	-41.4	18.7	0.00e+00	0	43	0	2709520384	50	4240
2026-01-08 06:21:29.20	283.92	10.38	-40.6	-41.7	18.5	0.00e+00	0	43	0	2717908992	50	4347
2026-01-08 06:21:30.06	283.79	10.33	-40.4	-41.5	18.6	0.00e+00	0	43	0	2724200448	50	4269
2026-01-08 06:21:31.28	283.60	10.28	-40.3	-41.4	18.7	0.00e+00	0	43	0	2732589056	50	4221
2026-01-08 06:21:32.14	283.47	10.23	-40.4	-41.5	18.6	0.00e+00	0	43	0	2738880512	50	4253
2026-01-08 06:21:33.34	283.29	10.18	-40.5	-41.6	18.6	0.00e+00	0	43	0	2747269120	50	4314
2026-01-08 06:21:34.20	283.16	10.14	-40.4	-41.5	18.7	0.00e+00	0	43	0	2753560576	50	4254
2026-01-08 06:21:35.42	282.98	10.08	-40.3	-41.4	18.7	0.00e+00	0	43	0	2762997760	50	4226
2026-01-08 06:21:36.28	282.85	10.04	-40.4	-41.4	18.7	0.00e+00	0	43	0	2769289216	50	4237
2026-01-08 06:21:37.43	282.67	9.98	-40.3	-41.3	18.8	0.00e+00	0	43	0	2777677824	50	4186
2026-01-08 06:21:38.29	282.55	9.94	-40.4	-41.5	18.6	0.00e+00	0	43	0	2782920704	50	4269
2026-01-08 06:21:39.44	282.38	9.88	-40.3	-41.4	18.7	0.00e+00	0	43	0	2791309312	50	4202
2026-01-08 06:21:40.30	282.25	9.84	-40.3	-41.3	18.8	0.00e+00	0	43	0	2797600768	50	4182
2026-01-08 06:21:41.45	282.08	9.78	-40.4	-41.5	18.7	0.00e+00	0	43	0	2805989376	50	4254
2026-01-08 06:21:42.35	281.95	9.74	-40.4	-41.5	18.7	0.00e+00	0	43	0	2812280832	50	4252
2026-01-08 06:21:43.35	281.80	9.69	-40.4	-41.5	18.6	0.00e+00	0	43	0	2819620864	50	4283
2026-01-08 06:21:44.36	281.65	9.64	-40.6	-41.7	18.5	0.00e+00	0	43	0	2826960896	50	4343
2026-01-08 06:21:45.36	281.51	9.59	-40.6	-41.7	18.4	0.00e+00	0	43	0	2834300928	50	4373
2026-01-08 06:21:46.36	281.36	9.54	-40.7	-41.8	18.3	0.00e+00	0	43	0	2841640960	50	4428
2026-01-08 06:21:47.36	281.22	9.49	-40.7	-41.9	18.3	0.00e+00	0	43	0	2848980992	50	4455
2026-01-08 06:21:48.37	281.07	9.44	-40.7	-41.8	18.3	0.00e+00	0	43	0	2856321024	50	4438
2026-01-08 06:21:49.37	280.93	9.40	-40.7	-41.8	18.3	0.00e+00	0	43	0	2863661056	50	4410
2026-01-08 06:21:50.37	280.78	9.35	-40.7	-41.9	18.3	0.00e+00	0	43	0	2871001088	50	4444
2026-01-08 06:21:51.38	280.64	9.30	-40.7	-41.9	18.3	0.00e+00	0	43	0	2878341120	50	4453
2026-01-08 06:21:52.38	280.50	9.25	-40.7	-41.9	18.3	0.00e+00	0	43	0	2885681152	51	4208
2026-01-08 06:21:53.38	280.36	9.20	-40.8	-41.9	18.2	0.00e+00	0	43	0	2891972608	51	4221
2026-01-08 06:21:54.38	280.22	9.15	-40.8	-42.0	18.2	0.00e+00	0	43	0	2899312640	51	4243
2026-01-08 06:21:55.39	280.07	9.10	-40.8	-41.9	18.2	0.00e+00	0	43	0	2906652672	51	4230
2026-01-08 06:21:56.39	279.93	9.05	-40.7	-41.8	18.3	0.00e+00	0	43	0	2913992704	51	4178
2026-01-08 06:21:57.40	279.79	9.00	-40.8	-41.9	18.2	0.00e+00	0	43	0	2921332736	51	4222
2026-01-08 06:21:58.40	279.65	8.95	-50.6	-61.1	3.8	8.45e-01	0	43	104	2924478464	70	12899
2026-01-08 06:21:59.41	279.51	8.90	-51.0	-61.9	3.8	8.46e-01	0	43	104	2924478464	71	13266
2026-01-08 06:22:00.41	279.37	8.85	-51.1	-62.0	3.8	8.47e-01	0	43	104	2924478464	71	13438
2026-01-08 06:22:01.41	279.24	8.80	-50.9	-62.0	3.8	8.46e-01	0	43	104	2924478464	71	13488
2026-01-08 06:22:02.42	279.10	8.74	-51.1	-62.1	3.8	8.46e-01	0	43	104	2924478464	71	13615
2026-01-08 06:22:03.43	278.96	8.69	-51.2	-62.1	3.9	8.47e-01	0	43	104	2924478464	72	12934
2026-01-08 06:22:04.43	278.82	8.64	-51.2	-62.1	3.8	8.47e-01	0	43	104	2924478464	72	12902
2026-01-08 06:22:05.43	278.69	8.59	-51.1	-62.2	3.8	8.47e-01	0	43	104	2924478464	72	13051
2026-01-08 06:22:06.44	278.55	8.54	-51.1	-62.1	3.8	8.47e-01	0	43	104	2924478464	72	12950
2026-01-08 06:22:07.44	278.42	8.49	-51.4	-62.2	3.8	8.47e-01	0	43	104	2924478464	72	13053
2026-01-08 06:22:08.48	278.28	8.44	-51.3	-62.2	3.8	8.47e-01	0	43	104	2924478464	72	13069
2026-01-08 06:22:09.51	278.14	8.39	-51.2	-62.1	3.8	8.47e-01	0	43	104	2924478464	72	12943
2026-01-08 06:22:10.54	278.00	8.33	-51.2	-62.2	3.8	8.47e-01	0	43	104	2924478464	72	13055
2026-01-08 06:22:11.54	277.87	8.28	-51.3	-62.2	3.8	8.46e-01	0	43	104	2924478464	72	12999
2026-01-08 06:22:12.54	277.74	8.23	-51.2	-62.2	3.8	8.45e-01	0	43	104	2924478464	72	13003
2026-01-08 06:22:13.54	277.60	8.18	-51.2	-62.1	3.8	8.46e-01	0	43	104	2924478464	72	12887
2026-01-08 06:22:14.55	277.47	8.13	-51.3	-62.1	3.8	8.47e-01	0	43	104	2924478464	72	12854
2026-01-08 06:22:15.55	277.34	8.08	-51.2	-62.1	3.8	8.48e-01	0	43	104	2924478464	72	12911
2026-01-08 06:22:16.56	277.21	8.03	-51.1	-62.1	3.8	8.46e-01	0	43	104	2924478464	72	12890
2026-01-08 06:22:17.56	277.08	7.98	-51.0	-62.1	3.8	8.47e-01	0	43	104	2924478464	72	12847
2026-01-08 06:22:18.57	276.95	7.93	-50.9	-62.1	3.8	8.46e-01	0	43	104	2924478464	72	12879
2026-01-08 06:22:19.57	276.82	7.88	-50.7	-62.1	3.8	8.48e-01	0	43	104	2924478464	72	12831
2026-01-08 06:22:20.57	276.69	7.82	-50.7	-62.0	3.8	8.46e-01	0	43	104	2924478464	72	12729
2026-01-08 06:22:21.58	276.56	7.77	-50.7	-62.0	3.8	8.46e-01	0	43	104	2924478464	72	12793
2026-01-08 06:22:22.58	276.43	7.72	-50.7	-62.0	3.8	8.47e-01	0	43	104	2924478464	72	12766
2026-01-08 06:22:23.59	276.30	7.67	-50.7	-62.0	3.8	8.48e-01	0	43	104	2924478464	72	12739
2026-01-08