passes_logs/2026/01/08/T1/T1__20260108_120048_NOAA_20_JPSS-1_rec.log

#Pass ID: 20260108_120048_NOAA 20 (JPSS-1)
#Satellite: NOAA 20 (JPSS-1)
#Configuration: NOAA 20
#almurnet v.1.7.20251203
#Start time: 2026-01-08 12:00:48

#Version: 2.0.20230620
#Station: T1
#Location: 37.570604 lon 55.790049 lat
#TLE: 1 43013U 17073A   26006.30790171  .00000126  00000+0  80695-4 0  9991
#TLE: 2 43013  98.7629 307.3394 0001808  51.8724 308.2615 14.19533762421505

#Time	Az	El	Level	Level2	SNR	BER	BlckErr	Temp	State	Recorded	gain1	gain2
2026-01-08 12:00:48.31	231.93	5.00	-49.9	-65.4	3.8	1.49e+00	0	41	0	0	71	21373
2026-01-08 12:00:49.31	232.04	5.05	-49.9	-65.3	3.8	1.49e+00	0	41	104	0	71	21238
2026-01-08 12:00:50.32	232.16	5.09	-49.8	-65.4	3.8	1.49e+00	0	41	104	0	71	21355
2026-01-08 12:00:51.32	232.28	5.14	-49.9	-65.4	3.8	1.49e+00	0	41	104	0	71	21344
2026-01-08 12:00:52.33	232.39	5.19	-49.9	-65.4	3.8	1.49e+00	0	41	104	0	71	21308
2026-01-08 12:00:53.33	232.51	5.24	-49.9	-65.4	3.8	1.49e+00	0	41	104	0	71	21330
2026-01-08 12:00:54.34	232.63	5.28	-49.9	-65.4	3.8	1.49e+00	0	41	104	0	71	21417
2026-01-08 12:00:55.34	232.74	5.33	-49.9	-65.4	3.8	1.49e+00	0	41	104	0	71	21367
2026-01-08 12:00:56.34	232.86	5.38	-49.9	-65.4	3.8	1.49e+00	0	41	104	0	71	21339
2026-01-08 12:00:57.35	232.98	5.43	-49.8	-65.4	3.8	1.49e+00	0	42	104	0	71	21351
2026-01-08 12:00:58.35	233.10	5.47	-49.8	-65.4	3.8	1.49e+00	0	42	104	0	71	21333
2026-01-08 12:00:59.36	233.21	5.52	-49.8	-65.4	3.8	1.49e+00	0	42	104	0	71	21310
2026-01-08 12:01:00.36	233.33	5.57	-49.8	-65.4	3.8	1.49e+00	0	42	104	0	71	21279
2026-01-08 12:01:01.36	233.45	5.62	-49.9	-65.4	3.8	1.49e+00	0	42	104	0	71	21310
2026-01-08 12:01:02.37	233.57	5.66	-49.9	-65.4	3.8	1.49e+00	0	42	104	0	71	21354
2026-01-08 12:01:03.38	233.69	5.71	-49.9	-65.4	3.8	1.49e+00	0	42	104	0	71	21346
2026-01-08 12:01:04.38	233.81	5.76	-49.9	-65.4	3.8	1.49e+00	0	42	104	0	71	21344
2026-01-08 12:01:05.38	233.93	5.81	-49.9	-65.4	3.8	1.49e+00	0	42	104	0	71	21340
2026-01-08 12:01:06.39	234.06	5.85	-49.9	-65.4	3.8	1.49e+00	0	42	104	0	71	21343
2026-01-08 12:01:07.39	234.18	5.90	-49.8	-65.4	3.8	1.49e+00	0	42	104	0	71	21318
2026-01-08 12:01:08.40	234.30	5.95	-49.9	-65.4	3.8	1.49e+00	0	42	104	0	71	21288
2026-01-08 12:01:09.40	234.42	5.99	-49.9	-65.4	3.8	1.49e+00	0	42	104	0	71	21322
2026-01-08 12:01:10.41	234.55	6.04	-49.9	-65.3	3.8	1.49e+00	0	42	104	0	71	21211
2026-01-08 12:01:11.41	234.67	6.09	-49.8	-65.3	3.8	1.49e+00	0	42	104	0	71	21237
2026-01-08 12:01:12.42	234.79	6.14	-49.9	-65.3	3.8	1.49e+00	0	42	104	0	71	21151
2026-01-08 12:01:13.42	234.92	6.18	-49.9	-65.3	3.8	1.49e+00	0	42	104	0	71	21227
2026-01-08 12:01:14.42	235.04	6.23	-49.8	-65.3	3.8	1.49e+00	0	42	104	0	71	21218
2026-01-08 12:01:15.43	235.16	6.28	-49.8	-65.4	3.8	1.49e+00	0	42	104	0	71	21265
2026-01-08 12:01:16.43	235.29	6.32	-49.8	-65.3	3.8	1.49e+00	0	42	104	0	71	21139
2026-01-08 12:01:17.44	235.42	6.37	-49.8	-65.3	3.8	1.49e+00	0	42	104	0	71	21224
2026-01-08 12:01:18.44	235.54	6.42	-49.8	-65.3	3.8	1.49e+00	0	42	104	0	71	21048
2026-01-08 12:01:19.45	235.67	6.47	-49.8	-65.2	3.8	1.49e+00	0	42	104	0	71	20943
2026-01-08 12:01:20.45	235.79	6.51	-49.9	-65.2	3.8	1.49e+00	0	42	104	0	71	20970
2026-01-08 12:01:21.46	235.92	6.56	-49.9	-65.2	3.8	1.49e+00	0	42	104	0	71	20963
2026-01-08 12:01:22.46	236.05	6.61	-49.9	-65.2	3.8	1.49e+00	0	42	104	0	71	20899
2026-01-08 12:01:23.47	236.18	6.65	-49.9	-65.3	3.8	1.49e+00	0	42	104	0	71	21029
2026-01-08 12:01:24.47	236.31	6.70	-49.9	-65.3	3.8	1.49e+00	0	42	104	0	71	21088
2026-01-08 12:01:25.47	236.43	6.75	-49.8	-65.3	3.8	1.49e+00	0	42	104	0	71	21031
2026-01-08 12:01:26.48	236.56	6.79	-49.9	-65.3	3.8	1.49e+00	0	42	104	0	71	21032
2026-01-08 12:01:27.48	236.69	6.84	-49.8	-65.3	3.8	1.49e+00	0	42	104	0	71	21046
2026-01-08 12:01:28.48	236.82	6.89	-49.8	-65.3	3.8	1.49e+00	0	43	104	0	71	21082
2026-01-08 12:01:29.49	236.95	6.93	-49.8	-65.3	3.8	1.49e+00	0	43	104	0	71	21047
2026-01-08 12:01:30.49	237.08	6.98	-49.8	-65.3	3.8	1.49e+00	0	42	104	0	71	21028
2026-01-08 12:01:31.49	237.21	7.03	-49.8	-65.3	3.8	1.49e+00	0	43	104	0	71	21061
2026-01-08 12:01:32.50	237.35	7.07	-49.8	-65.3	3.8	1.49e+00	0	42	104	0	71	21084
2026-01-08 12:01:33.50	237.48	7.12	-49.8	-65.2	3.8	1.49e+00	0	43	104	0	71	20989
2026-01-08 12:01:34.51	237.61	7.17	-49.8	-65.3	3.8	1.49e+00	0	43	104	0	71	21026
2026-01-08 12:01:35.51	237.74	7.21	-49.9	-65.2	3.8	1.49e+00	0	43	104	0	71	20978
2026-01-08 12:01:36.52	237.88	7.26	-49.8	-65.3	3.8	1.49e+00	0	43	104	0	71	21077
2026-01-08 12:01:37.52	238.01	7.31	-49.8	-65.2	3.8	1.49e+00	0	43	104	0	71	20941
2026-01-08 12:01:38.53	238.14	7.35	-49.8	-65.2	3.8	1.49e+00	0	43	104	0	71	20934
2026-01-08 12:01:39.53	238.28	7.40	-49.8	-65.1	3.8	1.49e+00	0	43	104	0	71	20766
2026-01-08 12:01:40.53	238.41	7.44	-49.8	-65.1	3.8	1.49e+00	0	43	104	0	71	20714
2026-01-08 12:01:41.54	238.55	7.49	-49.8	-65.2	3.8	1.49e+00	0	43	104	0	71	20886
2026-01-08 12:01:42.55	238.68	7.54	-49.8	-65.2	3.8	1.49e+00	0	43	104	0	71	20967
2026-01-08 12:01:43.55	238.82	7.58	-49.8	-65.2	3.8	1.49e+00	0	43	104	0	71	21016
2026-01-08 12:01:44.55	238.96	7.63	-49.8	-65.2	3.8	1.49e+00	0	43	104	0	71	20814
2026-01-08 12:01:45.56	239.09	7.67	-49.8	-65.0	3.8	1.49e+00	0	43	104	0	71	20536
2026-01-08 12:01:46.56	239.23	7.72	-49.8	-65.0	3.8	1.49e+00	0	43	104	0	71	20369
2026-01-08 12:01:47.57	239.37	7.77	-49.7	-65.0	3.8	1.49e+00	0	43	104	0	71	20410
2026-01-08 12:01:48.57	239.51	7.81	-49.8	-65.0	3.8	1.49e+00	0	43	104	0	71	20513
2026-01-08 12:01:49.58	239.65	7.86	-49.8	-65.2	3.8	1.49e+00	0	43	104	0	71	20943
2026-01-08 12:01:50.58	239.78	7.90	-49.8	-65.3	3.8	1.49e+00	0	43	104	0	71	21148
2026-01-08 12:01:51.59	239.92	7.95	-49.8	-65.3	3.8	1.49e+00	0	43	104	0	71	21069
2026-01-08 12:01:52.59	240.06	7.99	-49.8	-65.3	3.8	1.49e+00	0	43	104	0	71	21037
2026-01-08 12:01:53.59	240.20	8.04	-49.8	-65.2	3.8	1.49e+00	0	43	104	0	71	20832
2026-01-08 12:01:54.60	240.34	8.08	-49.8	-65.2	3.8	1.49e+00	0	43	104	0	71	20828
2026-01-08 12:01:55.60	240.48	8.13	-49.9	-65.3	3.8	1.49e+00	0	43	104	0	71	21056
2026-01-08 12:01:56.61	240.63	8.17	-49.8	-65.2	3.8	1.49e+00	0	43	104	0	71	21009
2026-01-08 12:01:57.61	240.77	8.22	-49.8	-64.9	3.8	1.49e+00	0	43	104	0	71	20243
2026-01-08 12:01:58.61	240.91	8.26	-49.7	-64.2	3.8	1.49e+00	0	43	104	0	71	18569
2026-01-08 12:01:59.62	241.05	8.31	-49.7	-63.4	3.8	1.49e+00	0	43	104	0	71	17033
2026-01-08 12:02:00.62	241.20	8.35	-49.7	-63.1	3.8	1.48e+00	0	43	104	0	71	16350
2026-01-08 12:02:01.63	241.34	8.40	-49.7	-63.7	3.8	1.49e+00	0	43	104	0	71	17508
2026-01-08 12:02:02.63	241.48	8.44	-49.8	-64.7	3.8	1.49e+00	0	43	104	0	71	19650
2026-01-08 12:02:03.64	241.63	8.49	-49.7	-63.3	3.8	1.49e+00	0	43	104	0	71	16728
2026-01-08 12:02:04.64	241.77	8.53	-49.3	-58.7	5.6	1.29e+00	0	43	0	0	70	10468
2026-01-08 12:02:05.64	241.92	8.58	-48.4	-55.0	8.9	6.99e-02	0	43	0	2097152	68	7688
2026-01-08 12:02:06.65	242.06	8.62	-47.3	-52.2	11.7	3.59e-03	0	43	0	4194304	66	6223
2026-01-08 12:02:07.65	242.21	8.67	-46.4	-50.5	13.4	1.11e-04	0	43	0	6291456	64	5752
2026-01-08 12:02:08.66	242.36	8.71	-45.9	-49.6	14.4	2.20e-06	0	43	0	8388608	63	5497
2026-01-08 12:02:09.66	242.50	8.76	-45.7	-49.3	14.7	2.20e-06	0	43	0	9437184	63	5327
2026-01-08 12:02:10.67	242.65	8.80	-45.9	-49.6	14.4	7.00e-07	0	43	0	11534336	63	5518
2026-01-08 12:02:11.67	242.80	8.84	-46.5	-50.6	13.4	1.50e-06	0	43	0	13631488	63	6182
2026-01-08 12:02:12.68	242.95	8.89	-47.0	-51.6	12.3	8.23e-05	0	43	0	15728640	64	6530
2026-01-08 12:02:13.68	243.10	8.93	-47.7	-53.3	10.6	1.32e-03	0	43	0	17825792	66	7069
2026-01-08 12:02:14.68	243.25	8.98	-48.4	-55.1	8.7	1.32e-02	0	43	0	18874368	67	8197
2026-01-08 12:02:15.69	243.40	9.02	-49.0	-57.3	6.8	1.36e-01	0	43	0	20971520	68	9964
2026-01-08 12:02:16.69	243.55	9.06	-46.8	-52.0	11.8	1.75e-01	0	43	0	23068672	65	6457
2026-01-08 12:02:17.85	243.72	9.11	-49.2	-60.8	4.6	3.92e-01	0	43	0	25165824	69	14118
2026-01-08 12:02:18.74	243.85	9.15	-48.2	-56.5	7.5	3.82e-01	0	43	0	26214400	68	9101
2026-01-08 12:02:19.88	244.02	9.20	-46.7	-51.6	12.3	5.73e-02	0	43	0	28311552	65	6136
2026-01-08 12:02:20.81	244.17	9.24	-48.5	-60.0	4.9	4.43e-03	0	43	0	30408704	67	14452
2026-01-08 12:02:21.97	244.34	9.29	-46.8	-51.5	12.4	2.82e-01	0	43	0	32505856	65	6131
2026-01-08 12:02:22.83	244.47	9.33	-46.1	-50.2	13.7	2.82e-05	0	43	0	33554432	64	5548
2026-01-08 12:02:23.98	244.65	9.38	-45.4	-49.0	15.0	0.00e+00	0	43	0	35651584	62	5430
2026-01-08 12:02:24.84	244.78	9.41	-44.8	-48.0	16.0	0.00e+00	0	43	0	37748736	61	5125
2026-01-08 12:02:25.98	244.95	9.46	-44.5	-47.6	16.4	0.00e+00	0	43	0	39845888	61	4895
2026-01-08 12:02:26.84	245.09	9.50	-44.5	-47.6	16.4	0.00e+00	0	43	0	41943040	60	5213
2026-01-08 12:02:27.99	245.26	9.55	-44.4	-47.6	16.4	0.00e+00	0	43	0	44040192	60	5202
2026-01-08 12:02:28.85	245.40	9.58	-44.3	-47.5	16.5	0.00e+00	0	43	0	45088768	60	5130
2026-01-08 12:02:29.99	245.57	9.63	-44.2	-47.4	16.6	0.00e+00	0	43	0	47185920	60	5100
2026-01-08 12:02:30.85	245.71	9.67	-44.2	-47.5	16.5	0.00e+00	0	43	0	49283072	60	5107
2026-01-08 12:02:32.02	245.89	9.71	-44.2	-47.5	16.5	0.00e+00	0	43	0	51380224	60	5132
2026-01-08 12:02:32.88	246.02	9.75	-44.2	-47.5	16.5	0.00e+00	0	43	0	52428800	60	5125
2026-01-08 12:02:34.02	246.20	9.80	-44.4	-47.6	16.4	0.00e+00	0	43	0	54525952	60	5193
2026-01-08 12:02:34.88	246.34	9.83	-44.5	-47.6	16.4	0.00e+00	0	43	0	56623104	60	5191
2026-01-08 12:02:36.03	246.52	9.88	-44.6	-47.7	16.3	0.00e+00	0	43	0	58720256	60	5263
2026-01-08 12:02:36.89	246.66	9.92	-44.7	-47.8	16.2	0.00e+00	0	43	0	60817408	60	5318
2026-01-08 12:02:38.03	246.84	9.96	-44.6	-47.8	16.3	0.00e+00	0	43	0	61865984	60	5306
2026-01-08 12:02:38.90	246.97	10.00	-44.5	-47.7	16.3	0.00e+00	0	43	0	63963136	60	5278
2026-01-08 12:02:40.04	247.16	10.05	-44.4	-47.8	16.3	0.00e+00	0	44	0	66060288	60	5286
2026-01-08 12:02:40.90	247.29	10.08	-44.4	-47.8	16.3	0.00e+00	0	43	0	68157440	60	5304
2026-01-08 12:02:42.05	247.48	10.13	-44.6	-48.0	16.1	0.00e+00	0	43	0	70254592	60	5420
2026-01-08 12:02:42.90	247.61	10.16	-44.3	-47.6	16.4	0.00e+00	0	43	0	71303168	60	5200
2026-01-08 12:02:44.05	247.80	10.21	-44.4	-47.6	16.5	0.00e+00	0	44	0	73400320	60	5175
2026-01-08 12:02:44.91	247.94	10.24	-44.5	-47.7	16.3	0.00e+00	0	44	0	75497472	60	5256
2026-01-08 12:02:46.09	248.13	10.29	-44.6	-47.7	16.3	0.00e+00	0	44	0	77594624	60	5268
2026-01-08 12:02:46.94	248.27	10.32	-44.8	-47.9	16.1	0.00e+00	0	43	0	78643200	60	5381
2026-01-08 12:02:48.09	248.46	10.37	-44.9	-48.1	16.0	0.00e+00	0	43	0	81788928	60	5483
2026-01-08 12:02:48.95	248.60	10.40	-44.7	-47.9	16.2	0.00e+00	0	44	0	82837504	60	5362
2026-01-08 12:02:50.10	248.78	10.45	-44.8	-47.9	16.1	0.00e+00	0	43	0	84934656	60	5391
2026-01-08 12:02:50.97	248.93	10.48	-44.7	-47.9	16.1	0.00e+00	0	43	0	87031808	60	5384
2026-01-08 12:02:52.12	249.12	10.53	-44.8	-48.0	16.1	0.00e+00	0	43	0	89128960	60	5422
2026-01-08 12:02:53.06	249.27	10.56	-44.8	-48.0	16.0	0.00e+00	0	44	0	90177536	60	5439
2026-01-08 12:02:54.26	249.47	10.61	-45.0	-48.2	15.9	0.00e+00	0	43	0	93323264	60	5541
2026-01-08 12:02:55.15	249.62	10.65	-45.0	-48.1	16.0	0.00e+00	0	43	0	94371840	60	5504
2026-01-08 12:02:56.29	249.81	10.69	-45.0	-48.2	15.9	0.00e+00	0	43	0	96468992	60	5541
2026-01-08 12:02:57.21	249.96	10.72	-44.9	-48.1	16.0	0.00e+00	0	43	0	98566144	60	5489
2026-01-08 12:02:58.37	250.16	10.77	-44.9	-48.0	16.1	0.00e+00	0	43	0	100663296	60	5445
2026-01-08 12:02:59.23	250.30	10.80	-44.9	-48.2	15.9	0.00e+00	0	43	0	101711872	60	5538
2026-01-08 12:03:00.38	250.49	10.85	-44.9	-48.2	15.9	0.00e+00	0	43	0	103809024	60	5576
2026-01-08 12:03:01.23	250.64	10.88	-44.9	-48.2	15.9	0.00e+00	0	44	0	105906176	60	5589
2026-01-08 12:03:02.38	250.83	10.92	-45.0	-48.3	15.8	0.00e+00	0	43	0	108003328	60	5629
2026-01-08 12:03:03.24	250.98	10.95	-45.1	-48.4	15.7	0.00e+00	0	44	0	110100480	60	5677
2026-01-08 12:03:04.39	251.17	11.00	-45.1	-48.4	15.7	0.00e+00	0	43	0	112197632	60	5720
2026-01-08 12:03:05.25	251.32	11.03	-45.2	-48.5	15.6	0.00e+00	0	44	0	113246208	61	5450
2026-01-08 12:03:06.40	251.51	11.07	-45.3	-48.6	15.5	0.00e+00	0	43	0	115343360	61	5488
2026-01-08 12:03:07.25	251.66	11.10	-45.3	-48.6	15.5	0.00e+00	0	44	0	117440512	61	5493
2026-01-08 12:03:08.40	251.86	11.14	-45.2	-48.4	15.7	0.00e+00	0	43	0	119537664	61	5380
2026-01-08 12:03:09.26	252.00	11.17	-45.1	-48.4	15.7	0.00e+00	0	44	0	120586240	61	5381
2026-01-08 12:03:10.41	252.20	11.22	-45.1	-48.4	15.7	0.00e+00	0	44	0	122683392	61	5371
2026-01-08 12:03:11.27	252.35	11.25	-45.1	-48.4	15.8	0.00e+00	0	43	0	124780544	61	5341
2026-01-08 12:03:12.42	252.55	11.29	-45.1	-48.3	15.8	0.00e+00	0	43	0	126877696	61	5319
2026-01-08 12:03:13.27	252.70	11.32	-45.2	-48.5	15.7	0.00e+00	0	43	0	128974848	61	5404
2026-01-08 12:03:14.42	252.90	11.36	-45.4	-48.6	15.6	0.00e+00	0	44	0	131072000	61	5476
2026-01-08 12:03:15.28	253.05	11.39	-45.4	-48.7	15.5	0.00e+00	0	44	0	132120576	61	5532
2026-01-08 12:03:16.63	253.28	11.44	-45.4	-48.6	15.5	0.00e+00	0	44	0	135266304	61	5503
2026-01-08 12:03:17.35	253.41	11.46	-45.5	-48.7	15.4	0.00e+00	0	43	0	136314880	61	5579
2026-01-08 12:03:18.64	253.64	11.51	-45.4	-48.7	15.5	0.00e+00	0	43	0	138412032	61	5544
2026-01-08 12:03:19.35	253.76	11.53	-45.5	-48.7	15.4	0.00e+00	0	44	0	139460608	61	5575
2026-01-08 12:03:20.65	253.99	11.58	-45.3	-48.5	15.6	0.00e+00	0	44	0	142606336	61	5425
2026-01-08 12:03:21.36	254.12	11.60	-45.3	-48.5	15.7	0.00e+00	0	44	0	143654912	61	5406
2026-01-08 12:03:22.65	254.34	11.64	-45.3	-48.5	15.7	0.00e+00	0	44	0	145752064	61	5424
2026-01-08 12:03:23.49	254.49	11.67	-45.2	-48.4	15.8	0.00e+00	0	44	0	147849216	61	5364
2026-01-08 12:03:24.64	254.70	11.71	-45.1	-48.3	15.8	0.00e+00	0	43	0	149946368	61	5321
2026-01-08 12:03:25.71	254.89	11.75	-45.2	-48.4	15.7	0.00e+00	0	44	0	152043520	61	5355
2026-01-08 12:03:26.74	255.07	11.78	-45.1	-48.3	15.8	0.00e+00	0	44	0	154140672	61	5323
2026-01-08 12:03:27.74	255.25	11.81	-45.0	-48.2	16.0	0.00e+00	0	44	0	155189248	61	5251
2026-01-08 12:03:28.74	255.43	11.85	-45.2	-48.4	15.8	0.00e+00	0	44	0	157286400	61	5373
2026-01-08 12:03:29.75	255.61	11.88	-45.2	-48.4	15.7	0.00e+00	0	43	0	159383552	61	5359
2026-01-08 12:03:30.75	255.79	11.91	-45.3	-48.5	15.7	0.00e+00	0	44	0	161480704	61	5420
2026-01-08 12:03:31.75	255.98	11.94	-45.3	-48.5	15.6	0.00e+00	0	44	0	163577856	61	5456
2026-01-08 12:03:32.75	256.16	11.97	-45.4	-48.6	15.5	0.00e+00	0	44	0	164626432	61	5512
2026-01-08 12:03:33.76	256.34	12.01	-45.4	-48.6	15.5	0.00e+00	0	44	0	166723584	61	5513
2026-01-08 12:03:34.76	256.52	12.04	-45.5	-48.8	15.4	0.00e+00	0	44	0	168820736	61	5618
2026-01-08 12:03:35.76	256.70	12.07	-45.5	-48.8	15.3	0.00e+00	0	44	0	170917888	61	5640
2026-01-08 12:03:36.84	256.90	12.10	-45.5	-48.8	15.4	0.00e+00	0	44	0	173015040	61	5611
2026-01-08 12:03:37.73	257.06	12.13	-45.5	-48.8	15.4	0.00e+00	0	44	0	174063616	61	5630
2026-01-08 12:03:38.88	257.28	12.16	-45.5	-48.8	15.4	0.00e+00	0	44	0	176160768	61	5598
2026-01-08 12:03:39.74	257.43	12.19	-45.4	-48.7	15.5	0.00e+00	0	44	0	178257920	61	5546
2026-01-08 12:03:40.88	257.64	12.22	-45.5	-48.8	15.4	0.00e+00	0	44	0	180355072	61	5594
2026-01-08 12:03:41.74	257.80	12.25	-45.5	-48.7	15.5	0.00e+00	0	44	0	181403648	61	5590
2026-01-08 12:03:42.89	258.01	12.28	-45.4	-48.7	15.5	0.00e+00	0	44	0	184549376	61	5546
2026-01-08 12:03:43.75	258.17	12.31	-45.6	-48.9	15.3	7.00e-07	0	44	0	185597952	61	5692
2026-01-08 12:03:44.90	258.39	12.34	-45.4	-48.7	15.5	0.00e+00	0	44	0	187695104	61	5550
2026-01-08 12:03:45.76	258.55	12.37	-45.4	-48.7	15.5	0.00e+00	0	44	0	189792256	61	5537
2026-01-08 12:03:46.90	258.76	12.40	-45.3	-48.5	15.6	0.00e+00	0	44	0	191889408	61	5464
2026-01-08 12:03:47.76	258.92	12.42	-45.2	-48.4	15.8	0.00e+00	0	43	0	192937984	61	5388
2026-01-08 12:03:48.99	259.15	12.46	-45.3	-48.6	15.6	0.00e+00	0	43	0	195035136	61	5467
2026-01-08 12:03:49.85	259.31	12.48	-45.4	-48.7	15.5	0.00e+00	0	44	0	197132288	61	5535
2026-01-08 12:03:51.09	259.54	12.52	-45.5	-48.9	15.3	0.00e+00	0	44	0	199229440	61	5679
2026-01-08 12:03:51.95	259.71	12.54	-45.5	-48.9	15.3	0.00e+00	0	43	0	201326592	61	5697
2026-01-08 12:03:53.09	259.92	12.57	-45.5	-49.0	15.2	0.00e+00	0	44	0	203423744	61	5756
2026-01-08 12:03:53.95	260.08	12.59	-45.5	-48.9	15.3	0.00e+00	0	44	0	204472320	61	5689
2026-01-08 12:03:55.10	260.30	12.63	-45.5	-48.9	15.3	0.00e+00	0	44	0	206569472	61	5703
2026-01-08 12:03:56.01	260.47	12.65	-45.5	-48.9	15.3	0.00e+00	0	44	0	208666624	61	5700
2026-01-08 12:03:57.01	260.66	12.68	-45.3	-48.5	15.7	0.00e+00	0	44	0	210763776	61	5405
2026-01-08 12:03:58.02	260.85	12.70	-45.2	-48.3	15.9	0.00e+00	0	44	0	212860928	61	5319
2026-01-08 12:03:59.02	261.04	12.73	-45.2	-48.3	15.9	0.00e+00	0	44	0	213909504	61	5328
2026-01-08 12:04:00.02	261.24	12.75	-45.2	-48.2	15.9	0.00e+00	0	44	0	216006656	61	5277
2026-01-08 12:04:01.02	261.43	12.78	-45.0	-48.0	16.2	0.00e+00	0	44	0	218103808	61	5116
2026-01-08 12:04:02.03	261.62	12.80	-45.1	-48.1	16.1	0.00e+00	0	44	0	220200960	61	5166
2026-01-08 12:04:03.03	261.81	12.83	-45.0	-48.0	16.2	0.00e+00	0	44	0	221249536	61	5141
2026-01-08 12:04:04.04	262.00	12.85	-44.9	-47.9	16.3	0.00e+00	0	44	0	223346688	61	5075
2026-01-08 12:04:05.04	262.20	12.87	-45.0	-47.9	16.2	0.00e+00	0	44	0	225443840	61	5097
2026-01-08 12:04:06.04	262.39	12.90	-45.0	-48.0	16.2	0.00e+00	0	44	0	227540992	61	5141
2026-01-08 12:04:07.05	262.58	12.92	-45.0	-48.0	16.2	0.00e+00	0	44	0	229638144	61	5101
2026-01-08 12:04:08.05	262.78	12.94	-45.0	-48.0	16.2	0.00e+00	0	43	0	231735296	61	5134
2026-01-08 12:04:09.05	262.97	12.97	-45.0	-48.0	16.2	0.00e+00	0	44	0	232783872	61	5108
2026-01-08 12:04:10.05	263.16	12.99	-44.9	-48.0	16.3	0.00e+00	0	43	0	234881024	61	5101
2026-01-08 12:04:11.05	263.36	13.01	-44.9	-47.9	16.2	0.00e+00	0	44	0	236978176	61	5095
2026-01-08 12:04:12.34	263.61	13.04	-44.9	-47.9	16.3	0.00e+00	0	44	0	239075328	61	5091
2026-01-08 12:04:13.09	263.75	13.06	-44.9	-47.9	16.2	0.00e+00	0	44	0	241172480	61	5079
2026-01-08 12:04:14.38	264.01	13.08	-44.7	-47.7	16.5	0.00e+00	0	44	0	243269632	61	4949
2026-01-08 12:04:15.16	264.16	13.10	-44.7	-47.6	16.6	0.00e+00	0	44	0	244318208	61	4905
2026-01-08 12:04:16.67	264.45	13.13	-44.6	-47.4	16.8	0.00e+00	0	44	0	247463936	61	4792
2026-01-08 12:04:17.76	264.67	13.15	-44.5	-47.3	16.8	0.00e+00	0	44	0	249561088	61	4754
2026-01-08 12:04:18.62	264.84	13.17	-44.6	-47.4	16.7	0.00e+00	0	44	0	250609664	61	4809
2026-01-08 12:04:19.76	265.06	13.19	-44.7	-47.6	16.6	0.00e+00	0	44	0	252706816	61	4877
2026-01-08 12:04:20.62	265.23	13.21	-44.8	-47.7	16.4	0.00e+00	0	44	0	254803968	61	4957
2026-01-08 12:04:21.77	265.45	13.23	-44.8	-47.7	16.5	0.00e+00	0	44	0	256901120	61	4973
2026-01-08 12:04:22.63	265.62	13.25	-44.9	-47.9	16.4	0.00e+00	0	44	0	258998272	61	5046
2026-01-08 12:04:23.77	265.85	13.27	-44.9	-47.9	16.3	0.00e+00	0	44	0	261095424	61	5083
2026-01-08 12:04:24.63	266.02	13.29	-45.1	-48.1	16.1	0.00e+00	0	44	0	262144000	61	5172
2026-01-08 12:04:26.00	266.29	13.31	-45.2	-48.2	16.0	0.00e+00	0	44	0	265289728	61	5268
2026-01-08 12:04:26.72	266.43	13.32	-45.3	-48.3	15.9	0.00e+00	0	44	0	266338304	61	5333
2026-01-08 12:04:28.23	266.73	13.35	-45.3	-48.4	15.8	0.00e+00	0	44	0	269484032	61	5358
2026-01-08 12:04:28.95	266.87	13.36	-45.3	-48.4	15.8	0.00e+00	0	43	0	270532608	61	5402
2026-01-08 12:04:30.24	267.13	13.38	-45.3	-48.5	15.7	0.00e+00	0	44	0	272629760	61	5420
2026-01-08 12:04:30.96	267.27	13.40	-45.3	-48.5	15.7	0.00e+00	0	44	0	273678336	61	5406
2026-01-08 12:04:32.25	267.53	13.42	-45.2	-48.4	15.8	0.00e+00	0	44	0	276824064	61	5385
2026-01-08 12:04:32.97	267.67	13.43	-45.3	-48.5	15.8	0.00e+00	0	44	0	277872640	61	5411
2026-01-08 12:04:34.25	267.93	13.45	-45.2	-48.4	15.8	0.00e+00	0	44	0	279969792	61	5355
2026-01-08 12:04:34.97	268.07	13.46	-45.3	-48.5	15.7	0.00e+00	0	44	0	282066944	61	5406
2026-01-08 12:04:36.26	268.33	13.48	-45.4	-48.6	15.6	0.00e+00	0	44	0	284164096	61	5494
2026-01-08 12:04:36.98	268.47	13.49	-45.4	-48.5	15.7	0.00e+00	0	44	0	285212672	61	5464
2026-01-08 12:04:38.27	268.73	13.51	-45.5	-48.6	15.6	0.00e+00	0	44	0	288358400	61	5513
2026-01-08 12:04:39.11	268.90	13.52	-45.5	-48.7	15.5	7.00e-07	0	44	0	289406976	61	5562
2026-01-08 12:04:40.26	269.13	13.53	-45.5	-48.8	15.4	0.00e+00	0	44	0	291504128	61	5616
2026-01-08 12:04:41.32	269.34	13.55	-45.5	-48.7	15.5	0.00e+00	0	44	0	293601280	61	5569
2026-01-08 12:04:42.36	269.55	13.56	-45.5	-48.7	15.5	0.00e+00	0	44	0	295698432	61	5584
2026-01-08 12:04:43.35	269.75	13.57	-45.5	-48.7	15.5	0.00e+00	0	44	0	297795584	61	5575
2026-01-08 12:04:44.36	269.96	13.59	-45.5	-48.7	15.5	0.00e+00	0	44	0	298844160	61	5562
2026-01-08 12:04:45.37	270.16	13.60	-45.4	-48.7	15.5	0.00e+00	0	44	0	300941312	61	5562
2026-01-08 12:04:46.37	270.36	13.61	-45.4	-48.7	15.5	0.00e+00	0	44	0	303038464	61	5569
2026-01-08 12:04:47.37	270.56	13.62	-45.4	-48.6	15.6	0.00e+00	0	44	0	305135616	61	5517
2026-01-08 12:04:48.38	270.77	13.63	-45.4	-48.6	15.6	0.00e+00	0	44	0	307232768	61	5512
2026-01-08 12:04:49.38	270.97	13.64	-45.4	-48.6	15.6	0.00e+00	0	44	0	308281344	61	5507
2026-01-08 12:04:50.38	271.17	13.65	-45.5	-48.7	15.6	0.00e+00	0	44	0	310378496	61	5540
2026-01-08 12:04:51.38	271.37	13.66	-45.3	-48.5	15.7	0.00e+00	0	44	0	312475648	61	5409
2026-01-08 12:04:52.39	271.58	13.67	-45.3	-48.4	15.9	0.00e+00	0	44	0	314572800	61	5349
2026-01-08 12:04:53.39	271.78	13.68	-45.2	-48.3	15.9	0.00e+00	0	44	0	316669952	61	5292
2026-01-08 12:04:54.39	271.98	13.69	-45.2	-48.3	15.9	0.00e+00	0	44	0	317718528	61	5306
2026-01-08 12:04:55.40	272.19	13.70	-45.2	-48.3	15.9	0.00e+00	0	44	0	319815680	61	5300
2026-01-08 12:04:56.40	272.39	13.71	-45.3	-48.4	15.9	0.00e+00	0	44	0	321912832	61	5350
2026-01-08 12:04:57.40	272.59	13.72	-45.2	-48.3	15.9	0.00e+00	0	44	0	324009984	61	5326
2026-01-08 12:04:58.40	272.80	13.72	-45.4	-48.5	15.7	0.00e+00	0	44	0	326107136	61	5463
2026-01-08 12:04:59.41	273.00	13.73	-45.4	-48.5	15.7	0.00e+00	0	44	0	327155712	61	5445
2026-01-08 12:05:00.41	273.21	13.74	-45.3	-48.4	15.8	0.00e+00	0	44	0	329252864	61	5371
2026-01-08 12:05:01.41	273.41	13.75	-45.2	-48.3	15.9	0.00e+00	0	44	0	331350016	61	5310
2026-01-08 12:05:02.42	273.62	13.75	-45.2	-48.2	16.0	0.00e+00	0	44	0	333447168	61	5274
2026-01-08 12:05:03.42	273.82	13.76	-45.2	-48.2	16.0	0.00e+00	0	44	0	334495744	61	5279
2026-01-08 12:05:04.42	274.02	13.76	-45.2	-48.2	16.0	0.00e+00	0	44	0	336592896	61	5255
2026-01-08 12:05:05.46	274.23	13.77	-45.2	-48.2	16.1	0.00e+00	0	44	0	338690048	61	5249
2026-01-08 12:05:06.49	274.44	13.77	-45.2	-48.2	16.0	0.00e+00	0	44	0	340787200	61	5255
2026-01-08 12:05:07.49	274.65	13.78	-45.2	-48.2	16.0	0.00e+00	0	44	0	342884352	61	5249
2026-01-08 12:05:08.56	274.87	13.78	-45.0	-47.9	16.2	0.00e+00	0	44	0	344981504	61	5099
2026-01-08 12:05:09.42	275.04	13.79	-45.0	-47.9	16.3	0.00e+00	0	44	0	346030080	61	5080
2026-01-08 12:05:10.56	275.27	13.79	-45.0	-48.0	16.2	0.00e+00	0	44	0	348127232	61	5145
2026-01-08 12:05:11.42	275.45	13.79	-44.9	-47.9	16.3	0.00e+00	0	44	0	350224384	61	5064
2026-01-08 12:05:12.57	275.68	13.80	-45.1	-48.1	16.1	0.00e+00	0	44	0	352321536	61	5204
2026-01-08 12:05:13.43	275.86	13.80	-45.0	-48.0	16.2	0.00e+00	0	44	0	353370112	61	5159
2026-01-08 12:05:14.58	276.09	13.80	-45.0	-48.1	16.1	0.00e+00	0	44	0	355467264	61	5168
2026-01-08 12:05:15.44	276.27	13.80	-45.0	-48.0	16.2	0.00e+00	0	44	0	357564416	61	5155
2026-01-08 12:05:16.58	276.50	13.81	-45.0	-48.0	16.3	0.00e+00	0	44	0	359661568	61	5103
2026-01-08 12:05:17.44	276.68	13.81	-45.0	-48.0	16.2	0.00e+00	0	44	0	361758720	61	5114
2026-01-08 12:05:18.59	276.91	13.81	-44.9	-47.8	16.4	0.00e+00	0	43	0	363855872	61	5026
2026-01-08 12:05:19.45	277.09	13.81	-44.8	-47.7	16.5	0.00e+00	0	44	0	364904448	61	4981
2026-01-08 12:05:20.64	277.33	13.81	-44.8	-47.7	16.5	0.00e+00	0	44	0	367001600	61	4981
2026-01-08 12:05:21.50	277.51	13.81	-44.7	-47.6	16.6	0.00e+00	0	44	0	369098752	61	4904
2026-01-08 12:05:22.65	277.74	13.81	-44.5	-47.4	16.8	0.00e+00	0	44	0	371195904	61	4760
2026-01-08 12:05:23.51	277.92	13.81	-44.6	-47.4	16.9	0.00e+00	0	44	0	372244480	61	4764
2026-01-08 12:05:24.65	278.15	13.81	-44.5	-47.3	16.9	0.00e+00	0	44	0	374341632	61	4738
2026-01-08 12:05:25.51	278.33	13.81	-44.6	-47.4	16.8	0.00e+00	0	44	0	376438784	61	4795
2026-01-08 12:05:26.66	278.56	13.80	-44.6	-47.4	16.8	0.00e+00	0	44	0	378535936	61	4813
2026-01-08 12:05:27.52	278.74	13.80	-44.6	-47.5	16.7	0.00e+00	0	44	0	380633088	61	4828
2026-01-08 12:05:28.66	278.97	13.80	-44.6	-47.5	16.7	0.00e+00	0	44	0	382730240	61	4842
2026-01-08 12:05:29.81	279.20	13.80	-44.7	-47.6	16.6	0.00e+00	0	44	0	384827392	61	4905
2026-01-08 12:05:30.85	279.42	13.79	-44.5	-47.3	16.9	0.00e+00	0	44	0	386924544	61	4737
2026-01-08 12:05:31.84	279.62	13.79	-44.5	-47.3	17.0	0.00e+00	0	44	0	387973120	60	4991
2026-01-08 12:05:32.85	279.82	13.79	-44.4	-47.2	17.0	0.00e+00	0	44	0	390070272	60	4928
2026-01-08 12:05:33.85	280.03	13.78	-44.3	-47.0	17.2	0.00e+00	0	44	0	392167424	60	4842
2026-01-08 12:05:34.85	280.23	13.78	-44.2	-46.9	17.2	0.00e+00	0	43	0	394264576	60	4798
2026-01-08 12:05:35.85	280.44	13.77	-44.1	-46.8	17.4	0.00e+00	0	43	0	396361728	60	4712
2026-01-08 12:05:36.86	280.64	13.77	-44.1	-46.7	17.4	0.00e+00	0	44	0	397410304	60	4700
2026-01-08 12:05:37.86	280.84	13.76	-44.2	-46.8	17.4	0.00e+00	0	44	0	399507456	60	4726
2026-01-08 12:05:38.86	281.05	13.76	-44.3	-47.0	17.2	0.00e+00	0	44	0	401604608	60	4842
2026-01-08 12:05:39.86	281.25	13.75	-44.4	-47.1	17.1	0.00e+00	0	44	0	403701760	60	4907
2026-01-08 12:05:40.88	281.46	13.74	-44.4	-47.2	17.0	0.00e+00	0	44	0	404750336	60	4938
2026-01-08 12:05:41.89	281.66	13.74	-44.5	-47.2	17.0	0.00e+00	0	44	0	406847488	60	4958
2026-01-08 12:05:42.96	281.88	13.73	-44.5	-47.2	17.0	0.00e+00	0	44	0	408944640	60	4972
2026-01-08 12:05:43.85	282.06	13.72	-44.3	-47.0	17.2	0.00e+00	0	44	0	411041792	60	4819
2026-01-08 12:05:44.99	282.29	13.71	-44.1	-46.8	17.3	0.00e+00	0	43	0	413138944	60	4739
2026-01-08 12:05:45.85	282.47	13.71	-44.2	-46.9	17.3	0.00e+00	0	44	0	414187520	60	4772
2026-01-08 12:05:46.99	282.70	13.70	-44.2	-46.8	17.3	0.00e+00	0	44	0	416284672	60	4755
2026-01-08 12:05:47.85	282.87	13.69	-44.2	-46.8	17.3	0.00e+00	0	44	0	418381824	60	4759
2026-01-08 12:05:49.00	283.11	13.68	-44.2	-46.9	17.3	0.00e+00	0	43	0	420478976	60	4780
2026-01-08 12:05:49.86	283.28	13.67	-44.1	-46.7	17.5	0.00e+00	0	44	0	422576128	60	4666
2026-01-08 12:05:51.01	283.51	13.66	-44.1	-46.7	17.5	0.00e+00	0	44	0	424673280	60	4680
2026-01-08 12:05:51.87	283.69	13.65	-44.1	-46.7	17.5	0.00e+00	0	44	0	425721856	60	4665
2026-01-08 12:05:53.01	283.92	13.64	-44.1	-46.7	17.4	0.00e+00	0	43	0	427819008	60	4703
2026-01-08 12:05:53.87	284.09	13.63	-44.1	-46.7	17.4	0.00e+00	0	44	0	429916160	60	4691
2026-01-08 12:05:55.02	284.32	13.62	-43.9	-46.5	17.6	0.00e+00	0	44	0	432013312	59	4838
2026-01-08 12:05:55.88	284.49	13.61	-43.9	-46.5	17.6	0.00e+00	0	43	0	433061888	59	4843
2026-01-08 12:05:57.02	284.72	13.60	-43.9	-46.5	17.6	0.00e+00	0	44	0	435159040	59	4845
2026-01-08 12:05:57.89	284.90	13.59	-44.0	-46.6	17.5	0.00e+00	0	43	0	437256192	59	4876
2026-01-08 12:05:59.03	285.13	13.57	-44.1	-46.7	17.4	0.00e+00	0	44	0	439353344	59	4973
2026-01-08 12:05:59.89	285.30	13.56	-44.2	-46.8	17.3	0.00e+00	0	44	0	441450496	59	5033
2026-01-08 12:06:01.04	285.53	13.55	-44.3	-47.0	17.1	0.00e+00	0	43	0	442499072	59	5140
2026-01-08 12:06:01.89	285.70	13.53	-44.3	-47.0	17.2	0.00e+00	0	44	0	444596224	59	5126
2026-01-08 12:06:03.04	285.93	13.52	-44.3	-47.0	17.1	0.00e+00	0	44	0	446693376	59	5139
2026-01-08 12:06:03.90	286.10	13.51	-44.4	-47.1	17.1	0.00e+00	0	44	0	448790528	59	5179
2026-01-08 12:06:05.04	286.33	13.49	-44.5	-47.2	17.0	0.00e+00	0	44	0	450887680	59	5221
2026-01-08 12:06:05.90	286.50	13.48	-44.5	-47.2	16.9	0.00e+00	0	43	0	451936256	59	5262
2026-01-08 12:06:07.05	286.73	13.46	-44.5	-47.2	16.9	0.00e+00	0	44	0	454033408	59	5261
2026-01-08 12:06:07.91	286.90	13.45	-44.5	-47.2	16.9	0.00e+00	0	44	0	456130560	59	5225
2026-01-08 12:06:09.06	287.13	13.43	-44.4	-47.1	17.0	0.00e+00	0	44	0	458227712	59	5205
2026-01-08 12:06:10.32	287.38	13.41	-44.5	-47.2	16.9	0.00e+00	0	44	0	460324864	59	5263
2026-01-08 12:06:11.24	287.57	13.40	-44.4	-47.1	17.0	0.00e+00	0	44	0	462422016	59	5213
2026-01-08 12:06:12.24	287.76	13.38	-44.5	-47.3	16.8	0.00e+00	0	44	0	464519168	59	5297
2026-01-08 12:06:13.25	287.96	13.36	-44.6	-47.5	16.7	0.00e+00	0	43	0	465567744	59	5410
2026-01-08 12:06:14.25	288.16	13.35	-44.6	-47.4	16.7	0.00e+00	0	44	0	467664896	60	5098
2026-01-08 12:06:15.25	288.36	13.33	-44.4	-47.2	17.0	0.00e+00	0	43	0	469762048	60	4934
2026-01-08 12:06:16.25	288.56	13.31	-44.3	-47.0	17.2	0.00e+00	0	44	0	471859200	60	4843
2026-01-08 12:06:17.30	288.76	13.29	-44.3	-47.0	17.2	0.00e+00	0	43	0	473956352	60	4826
2026-01-08 12:06:18.18	288.94	13.28	-44.3	-47.1	17.1	0.00e+00	0	43	0	475004928	60	4880
2026-01-08 12:06:19.52	289.20	13.25	-44.3	-47.0	17.2	0.00e+00	0	44	0	478150656	60	4864
2026-01-08 12:06:20.23	289.34	13.24	-44.3	-47.0	17.2	0.00e+00	0	43	0	479199232	60	4832
2026-01-08 12:06:21.75	289.64	13.21	-44.5	-47.3	16.9	0.00e+00	0	43	0	482344960	60	4996
2026-01-08 12:06:22.46	289.78	13.20	-44.7	-47.5	16.7	0.00e+00	0	43	0	483393536	60	5110
2026-01-08 12:06:23.75	290.03	13.17	-44.8	-47.7	16.4	0.00e+00	0	43	0	485490688	60	5275
2026-01-08 12:06:24.47	290.17	13.16	-44.9	-47.8	16.4	0.00e+00	0	44	0	486539264	60	5282
2026-01-08 12:06:25.75	290.42	13.13	-45.0	-47.9	16.3	0.00e+00	0	44	0	489684992	60	5390
2026-01-08 12:06:26.47	290.56	13.11	-44.9	-47.7	16.4	0.00e+00	0	43	0	490733568	60	5275
2026-01-08 12:06:27.76	290.81	13.09	-44.6	-47.4	16.8	0.00e+00	0	43	0	492830720	60	5068
2026-01-08 12:06:28.48	290.95	13.07	-44.6	-47.4	16.8	0.00e+00	0	43	0	494927872	60	5068
2026-01-08 12:06:29.77	291.20	13.04	-44.5	-47.2	16.9	0.00e+00	0	44	0	497025024	60	4968
2026-01-08 12:06:30.48	291.34	13.03	-44.5	-47.3	16.9	0.00e+00	0	43	0	498073600	60	4992
2026-01-08 12:06:31.77	291.59	13.00	-44.4	-47.0	17.1	0.00e+00	0	43	0	500170752	60	4868
2026-01-08 12:06:32.49	291.73	12.98	-44.3	-47.0	17.2	0.00e+00	0	44	0	502267904	60	4817
2026-01-08 12:06:33.78	291.98	12.96	-44.3	-47.0	17.1	0.00e+00	0	44	0	504365056	60	4832
2026-01-08 12:06:34.50	292.12	12.94	-44.2	-46.9	17.2	0.00e+00	0	44	0	505413632	60	4798
2026-01-08 12:06:35.79	292.36	12.91	-44.3	-47.0	17.1	0.00e+00	0	44	0	508559360	60	4849
2026-01-08 12:06:36.51	292.50	12.89	-44.2	-46.8	17.3	0.00e+00	0	43	0	509607936	60	4753
2026-01-08 12:06:37.79	292.75	12.86	-44.2	-46.8	17.3	0.00e+00	0	43	0	511705088	60	4734
2026-01-08 12:06:38.51	292.89	12.85	-44.1	-46.8	17.3	0.00e+00	0	43	0	513802240	60	4711
2026-01-08 12:06:39.80	293.13	12.81	-44.2	-46.9	17.3	0.00e+00	0	43	0	515899392	60	4764
2026-01-08 12:06:40.52	293.27	12.80	-44.1	-46.7	17.3	0.00e+00	0	43	0	516947968	60	4695
2026-01-08 12:06:41.81	293.52	12.76	-44.2	-46.9	17.2	0.00e+00	0	43	0	519045120	60	4789
2026-01-08 12:06:42.53	293.65	12.75	-44.3	-47.0	17.1	0.00e+00	0	43	0	521142272	60	4863
2026-01-08 12:06:43.81	293.90	12.71	-44.5	-47.3	16.9	0.00e+00	0	43	0	523239424	60	4993
2026-01-08 12:06:44.53	294.03	12.70	-44.6	-47.3	16.8	0.00e+00	0	43	0	524288000	60	5039
2026-01-08 12:06:45.82	294.28	12.66	-44.6	-47.4	16.8	0.00e+00	0	43	0	527433728	60	5044
2026-01-08 12:06:46.67	294.44	12.64	-44.5	-47.3	16.8	0.00e+00	0	44	0	528482304	60	5037
2026-01-08 12:06:48.13	294.71	12.60	-44.5	-47.3	16.9	0.00e+00	0	43	0	531628032	60	4994
2026-01-08 12:06:48.85	294.85	12.58	-44.5	-47.3	16.9	0.00e+00	0	43	0	532676608	60	4989
2026-01-08 12:06:50.14	295.09	12.55	-44.5	-47.3	16.9	0.00e+00	0	44	0	534773760	60	4991
2026-01-08 12:06:50.86	295.22	12.53	-44.4	-47.1	17.0	0.00e+00	0	43	0	536870912	60	4914
2026-01-08 12:06:52.15	295.47	12.49	-44.3	-47.0	17.2	0.00e+00	0	43	0	538968064	60	4817
2026-01-08 12:06:52.90	295.61	12.47	-44.2	-46.9	17.2	0.00e+00	0	43	0	540016640	60	4800
2026-01-08 12:06:54.19	295.85	12.44	-44.2	-46.9	17.2	0.00e+00	0	43	0	543162368	60	4773
2026-01-08 12:06:54.91	295.98	12.42	-44.2	-46.9	17.2	0.00e+00	0	43	0	544210944	60	4797
2026-01-08 12:06:56.19	296.22	12.38	-44.2	-46.8	17.3	0.00e+00	0	43	0	546308096	60	4739
2026-01-08 12:06:56.91	296.35	12.36	-44.3	-47.0	17.1	0.00e+00	0	43	0	547356672	60	4833
2026-01-08 12:06:58.20	296.59	12.32	-44.4	-47.1	17.0	0.00e+00	0	43	0	550502400	60	4885
2026-01-08 12:06:58.92	296.72	12.30	-44.4	-47.2	16.9	0.00e+00	0	43	0	551550976	60	4966
2026-01-08 12:07:00.25	296.97	12.26	-44.3	-47.1	17.0	0.00e+00	0	43	0	553648128	60	4899
2026-01-08 12:07:00.97	297.10	12.24	-44.3	-47.1	17.0	0.00e+00	0	43	0	555745280	60	4898
2026-01-08 12:07:02.26	297.34	12.20	-44.5	-47.3	16.8	0.00e+00	0	43	0	557842432	60	5013
2026-01-08 12:07:02.98	297.47	12.18	-44.7	-47.5	16.6	0.00e+00	0	43	0	558891008	60	5159
2026-01-08 12:07:04.27	297.70	12.14	-44.8	-47.7	16.4	0.00e+00	0	43	0	562036736	60	5247
2026-01-08 12:07:04.98	297.83	12.12	-44.8	-47.7	16.4	0.00e+00	0	44	0	563085312	60	5243
2026-01-08 12:07:06.28	298.07	12.08	-44.6	-47.4	16.7	0.00e+00	0	44	0	565182464	60	5091
2026-01-08 12:07:07.00	298.20	12.06	-44.6	-47.5	16.6	0.00e+00	0	43	0	566231040	60	5107
2026-01-08 12:07:08.28	298.43	12.02	-44.6	-47.4	16.7	0.00e+00	0	43	0	569376768	60	5076
2026-01-08 12:07:09.10	298.58	11.99	-44.6	-47.4	16.7	0.00e+00	0	43	0	570425344	60	5061
2026-01-08 12:07:10.25	298.79	11.96	-44.5	-47.3	16.8	0.00e+00	0	43	0	572522496	60	5005
2026-01-08 12:07:11.31	298.98	11.92	-44.8	-47.6	16.5	0.00e+00	0	43	0	574619648	60	5209
2026-01-08 12:07:12.35	299.17	11.89	-44.6	-47.5	16.6	0.00e+00	0	43	0	576716800	60	5101
2026-01-08 12:07:13.34	299.34	11.86	-44.5	-47.3	16.7	0.00e+00	0	43	0	578813952	60	5040
2026-01-08 12:07:14.35	299.52	11.83	-44.6	-47.4	16.7	0.00e+00	0	43	0	580911104	60	5076
2026-01-08 12:07:15.35	299.70	11.79	-44.7	-47.6	16.5	0.00e+00	0	43	0	581959680	60	5189
2026-01-08 12:07:16.35	299.88	11.76	-44.6	-47.5	16.6	0.00e+00	0	43	0	584056832	60	5123
2026-01-08 12:07:17.36	300.06	11.73	-44.5	-47.3	16.7	0.00e+00	0	43	0	586153984	60	5023
2026-01-08 12:07:18.36	300.24	11.70	-44.5	-47.2	16.8	0.00e+00	0	43	0	588251136	60	4978
2026-01-08 12:07:19.36	300.41	11.66	-44.5	-47.4	16.7	0.00e+00	0	43	0	590348288	60	5053
2026-01-08 12:07:20.37	300.59	11.63	-44.6	-47.5	16.6	0.00e+00	0	43	0	591396864	60	5122
2026-01-08 12:07:21.37	300.77	11.59	-44.7	-47.6	16.4	0.00e+00	0	43	0	593494016	60	5212
2026-01-08 12:07:22.38	300.95	11.56	-44.8	-47.8	16.3	0.00e+00	0	43	0	595591168	60	5297
2026-01-08 12:07:23.39	301.12	11.53	-44.8	-47.7	16.4	0.00e+00	0	43	0	597688320	60	5221
2026-01-08 12:07:24.40	301.30	11.49	-44.9	-47.8	16.2	0.00e+00	0	43	0	599785472	60	5334
2026-01-08 12:07:25.40	301.47	11.46	-44.9	-47.9	16.2	0.00e+00	0	43	0	600834048	60	5345
2026-01-08 12:07:26.57	301.68	11.42	-45.1	-48.2	15.9	0.00e+00	0	43	0	602931200	60	5549
2026-01-08 12:07:27.43	301.83	11.39	-45.1	-48.1	15.9	0.00e+00	0	43	0	605028352	60	5517
2026-01-08 12:07:28.57	302.03	11.35	-45.1	-48.2	15.9	0.00e+00	0	43	0	607125504	60	5560
2026-01-08 12:07:29.43	302.17	11.32	-45.2	-48.3	15.8	0.00e+00	0	43	0	609222656	61	5301
2026-01-08 12:07:30.58	302.37	11.27	-45.3	-48.4	15.7	0.00e+00	0	43	0	611319808	61	5368
2026-01-08 12:07:31.44	302.52	11.24	-45.3	-48.4	15.7	0.00e+00	0	43	0	612368384	61	5360
2026-01-08 12:07:32.59	302.72	11.20	-45.4	-48.6	15.5	0.00e+00	0	43	0	614465536	61	5488
2026-01-08 12:07:33.45	302.87	11.17	-45.4	-48.6	15.5	0.00e+00	0	43	0	616562688	61	5524
2026-01-08 12:07:34.60	303.06	11.13	-45.5	-48.9	15.2	0.00e+00	0	43	0	618659840	61	5693
2026-01-08 12:07:35.76	303.26	11.09	-45.6	-49.1	15.0	7.00e-07	0	43	0	620756992	61	5804
2026-01-08 12:07:36.81	303.44	11.05	-45.7	-49.2	15.0	0.00e+00	0	43	0	622854144	62	5551
2026-01-08 12:07:37.83	303.61	11.01	-45.8	-49.2	14.9	0.00e+00	0	43	0	624951296	62	5568
2026-01-08 12:07:39.01	303.81	10.97	-45.8	-49.3	14.8	0.00e+00	0	43	0	627048448	62	5639
2026-01-08 12:07:39.87	303.95	10.94	-45.9	-49.4	14.7	0.00e+00	0	43	0	628097024	62	5690
2026-01-08 12:07:41.01	304.15	10.89	-45.8	-49.2	14.9	0.00e+00	0	43	0	630194176	62	5591
2026-01-08 12:07:41.87	304.29	10.86	-45.8	-49.2	14.9	0.00e+00	0	43	0	632291328	62	5567
2026-01-08 12:07:43.02	304.48	10.82	-45.7	-49.1	15.0	0.00e+00	0	43	0	634388480	62	5507
2026-01-08 12:07:43.88	304.63	10.79	-45.7	-49.1	15.0	0.00e+00	0	43	0	635437056	62	5484
2026-01-08 12:07:45.02	304.82	10.74	-45.8	-49.2	15.0	0.00e+00	0	43	0	637534208	62	5540
2026-01-08 12:07:45.88	304.96	10.71	-45.8	-49.2	14.9	7.00e-07	0	43	0	639631360	62	5574
2026-01-08 12:07:47.03	305.15	10.67	-46.0	-49.5	14.7	0.00e+00	0	43	0	641728512	62	5728
2026-01-08 12:07:47.89	305.29	10.63	-46.0	-49.5	14.6	0.00e+00	0	43	0	643825664	62	5778
2026-01-08 12:07:49.04	305.48	10.59	-46.2	-49.8	14.3	7.00e-07	0	43	0	645922816	63	5604
2026-01-08 12:07:49.90	305.62	10.56	-46.3	-49.9	14.2	1.50e-06	0	43	0	646971392	63	5716
2026-01-08 12:07:51.05	305.81	10.51	-46.2	-49.9	14.2	7.00e-07	0	43	0	649068544	63	5713
2026-01-08 12:07:51.90	305.95	10.48	-46.4	-50.2	13.9	3.00e-06	0	43	0	651165696	63	5878
2026-01-08 12:07:53.05	306.14	10.43	-46.4	-50.2	13.9	2.20e-06	0	44	0	653262848	63	5910
2026-01-08 12:07:53.91	306.28	10.40	-46.4	-50.3	13.9	3.00e-06	0	43	0	654311424	63	5948
2026-01-08 12:07:55.05	306.46	10.36	-46.6	-50.6	13.4	1.29e-05	0	43	0	656408576	64	5840
2026-01-08 12:07:55.91	306.60	10.32	-46.7	-50.8	13.3	1.06e-05	0	44	0	658505728	64	5935
2026-01-08 12:07:57.06	306.79	10.28	-47.0	-51.3	12.7	6.56e-05	0	43	0	660602880	64	6318
2026-01-08 12:07:58.13	306.96	10.23	-47.0	-51.4	12.6	1.38e-04	0	43	0	662700032	64	6361
2026-01-08 12:07:59.16	307.12	10.19	-47.1	-51.6	12.4	1.17e-04	0	43	0	664797184	64	6509
2026-01-08 12:08:00.35	307.31	10.15	-47.1	-51.7	12.3	1.56e-04	0	43	0	666894336	64	6607
2026-01-08 12:08:01.24	307.46	10.11	-47.1	-51.6	12.4	1.75e-04	0	43	0	667942912	64	6533
2026-01-08 12:08:02.28	307.62	10.07	-47.0	-51.6	12.4	1.49e-04	0	43	0	670040064	64	6525
2026-01-08 12:08:03.27	307.78	10.03	-46.9	-51.5	12.4	1.43e-04	0	43	0	672137216	64	6489
2026-01-08 12:08:04.28	307.94	9.99	-46.7	-51.1	12.9	4.95e-05	0	43	0	674234368	64	6162
2026-01-08 12:08:05.28	308.10	9.95	-46.6	-50.8	13.2	2.89e-05	0	43	0	676331520	64	5954
2026-01-08 12:08:06.56	308.30	9.89	-46.6	-50.8	13.2	1.90e-05	0	43	0	678428672	64	5952
2026-01-08 12:08:07.29	308.41	9.86	-46.6	-50.9	13.1	2.51e-05	0	43	0	679477248	64	6003
2026-01-08 12:08:08.58	308.61	9.81	-46.5	-50.7	13.3	1.52e-05	0	43	0	682622976	64	5883
2026-01-08 12:08:09.30	308.73	9.78	-46.5	-50.5	13.4	1.06e-05	0	43	0	683671552	64	5788
2026-01-08 12:08:10.59	308.93	9.73	-46.5	-50.6	13.4	1.44e-05	0	43	0	685768704	64	5823
2026-01-08 12:08:11.30	309.04	9.70	-46.5	-50.6	13.4	1.52e-05	0	43	0	686817280	64	5802
2026-01-08 12:08:12.59	309.24	9.65	-46.4	-50.4	13.5	9.10e-06	0	43	0	689963008	64	5719
2026-01-08 12:08:13.50	309.38	9.61	-46.4	-50.4	13.6	1.06e-05	0	43	0	691011584	64	5661
2026-01-08 12:08:14.51	309.53	9.57	-46.5	-50.6	13.4	1.06e-05	0	43	0	693108736	64	5831
2026-01-08 12:08:15.51	309.69	9.52	-46.6	-50.7	13.3	1.52e-05	0	43	0	695205888	64	5917
2026-01-08 12:08:16.51	309.84	9.48	-46.8	-51.0	12.9	3.50e-05	0	43	0	697303040	64	6128
2026-01-08 12:08:17.52	309.99	9.44	-46.8	-51.2	12.8	5.87e-05	0	43	0	699400192	64	6248
2026-01-08 12:08:18.52	310.15	9.40	-46.8	-51.1	12.8	3.73e-05	0	43	0	700448768	64	6183
2026-01-08 12:08:19.52	310.30	9.36	-46.9	-51.4	12.6	8.46e-05	0	43	0	702545920	64	6369
2026-01-08 12:08:20.52	310.45	9.31	-46.9	-51.4	12.5	1.40e-04	0	43	0	704643072	64	6391
2026-01-08 12:08:21.53	310.60	9.27	-46.9	-51.4	12.5	1.67e-04	0	43	0	706740224	64	6403
2026-01-08 12:08:22.53	310.75	9.23	-46.9	-51.3	12.6	1.02e-04	0	43	0	707788800	64	6335
2026-01-08 12:08:23.53	310.90	9.18	-46.7	-51.0	12.9	7.01e-05	0	43	0	709885952	64	6090
2026-01-08 12:08:24.54	311.05	9.14	-46.7	-51.0	13.0	5.34e-05	0	43	0	711983104	64	6074
2026-01-08 12:08:25.54	311.20	9.10	-46.5	-50.6	13.3	1.98e-05	0	43	0	714080256	64	5827
2026-01-08 12:08:26.54	311.35	9.06	-46.4	-50.4	13.5	1.14e-05	0	43	0	716177408	64	5720
2026-01-08 12:08:27.55	311.50	9.01	-47.2	-51.8	12.4	8.30e-06	0	43	0	718274560	64	6700
2026-01-08 12:08:28.55	311.65	8.97	-49.8	-65.5	3.8	1.49e+00	0	43	104	718274560	70	22892
2026-01-08 12:08:29.56	311.80	8.93	-50.3	-65.6	3.8	1.49e+00	0	43	104	718274560	71	21929
2026-01-08 12:08:30.56	311.94	8.88	-50.4	-65.7	3.8	1.49e+00	0	43	104	718274560	71	22238
2026-01-08 12:08:31.57	312.09	8.84	-50.6	-65.8	3.8	1.49e+00	0	43	104	718274560	71	22480
2026-01-08 12:08:32.57	312.24	8.80	-50.5	-65.9	3.8	1.49e+00	0	43	104	718274560	71	22630
2026-01-08 12:08:33.57	312.38	8.75	-50.5	-66.0	3.8	1.49e+00	0	43	104	718274560	71	22806
2026-01-08 12:08:34.58	312.53	8.71	-50.4	-66.0	3.8	1.49e+00	0	43	104	718274560	71	22883
2026-01-08 12:08:35.58	312.68	8.66	-50.4	-66.0	3.8	1.49e+00	0	43	104	718274560	71	22866
2026-01-08 12:08:36.59	312.82	8.62	-50.6	-65.9	3.8	1.49e+00	0	43	104	718274560	72	21483
2026-01-08 12:08:37.59	312.97	8.58	-50.6	-65.9	3.8	1.49e+00	0	43	104	718274560	72	21380
2026-01-08 12:08:38.59	313.11	8.53	-50.6	-66.0	3.8	1.49e+00	0	43	104	718274560	72	21544
2026-01-08 12:08:39.60	313.25	8.49	-50.7	-65.9	3.8	1.49e+00	0	43	104	718274560	72	21444
2026-01-08 12:08:40.61	313.40	8.44	-50.6	-65.9	3.8	1.49e+00	0	43	104	718274560	72	21453
2026-01-08 12:08:41.61	313.54	8.40	-50.7	-65.9	3.8	1.49e+00	0	43	104	718274560	72	21461
2026-01-08 12:08:42.61	313.68	8.36	-50.7	-66.0	3.8	1.49e+00	0	43	104	718274560	72	21542
2026-01-08 12:08:43.62	313.83	8.31	-50.7	-65.9	3.8	1.49e+00	0	43	104	718274560	72	21402
2026-01-08 12:08:44.62	313.97	8.27	-50.6	-65.9	3.8	1.49e+00	0	43	104	718274560	72	21435
2026-01-08 12:08:45.63	314.11	8.22	-50.6	-65.9	3.8	1.49e+00	0	43	104	718274560	72	21383
2026-01-08 12:08:46.63	314.25	8.18	-50.5	-65.9	3.8	1.49e+00	0	43	104	718274560	72	21372
2026-01-08 12:08:47.63	314.39	8.13	-50.4	-65.9	3.8	1.49e+00	0	43	104	718274560	72	21280
2026-01-08 12:08:48.64	314.53	8.09	-50.2	-65.9	3.8	1.49e+00	0	43	104	718274560	72	21278
2026-01-08 12:08:49.64	314.67	8.04	-50.2	-65.9	3.8	1.49e+00	0	43	104	718274560	72	21356
2026-01-08 12:08:50.65	314.81	8.00	-50.2	-65.9	3.8	1.49e+00	0	43	104	718274560	72	21282
2026-01-08 12:08:51.65	314.95	7.95	-50.2	-65.9	3.8	1.49e+00	0	43	104	718274560	72	21392
2026-01-08 12:08:52.66	315.09	7.91	-50.2	-65.9	3.8	1.49e+00	0	43	104	718274560	72	21268
2026-01-08 12:08:53.66	315.22	7.86	-50.2	-65.9	3.8	1.49e+00	0	43	104	718274560	72	21270
2026-01-08 12:08:54.66	315.36	7.82	-50.2	-65.9	3.8	1.49e+00	0	43	104	718274560	72	21308
2026-01-08 12:08:55.67	315.50	7.77	-50.2	-65.8	3.8	1.49e+00	0	43	104	718274560	72	21187
2026-01-08 12:08:56.67	315.63	7.73	-50.2	-65.8	3.8	1.49e+00	0	43	104	718274560	72	21216
2026-01-08 12:08:57.68	315.77	7.68	-50.2	-65.8	3.8	1.49e+00	0	43	104	718274560	72	21238
2026-01-08 12:08:58.68	315.91	7.64	-50.2	-65.8	3.8	1.49e+00	0	43	104	718274560	72	21234
2026-01-08 12:08:59.69	316.04	7.59	-50.2	-65.9	3.8	1.49e+00	0	43	104	718274560	72	21282
2026-01-08 12:09:00.69	316.18	7.55	-50.2	-65.9	3.8	1.49e+00	0	43	104	718274560	72	21351
2026-01-08 12:09:01.70	316.31	7.50	-50.2	-65.8	3.8	1.49e+00	0	43	104	718274560	72	21220
2026-01-08 12:09:02.70	316.45	7.45	-50.2	-65.9	3.8	1.49e+00	0	43	104	718274560	72	21268
2026-01-08 12:09:03.70	316.58	7.41	-50.2	-65.9	3.8	1.49e+00	0	43	104	718274560	72	21312
2026-01-08 12:09:04.71	316.71	7.36	-50.2	-65.9	3.8	1.49e+00	0	43	104	718274560	72	21322
2026-01-08 12:09:05.71	316.85	7.32	-50.2	-65.9	3.8	1.49e+00	0	43	104	718274560	72	21263
2026-01-08 12:09:06.72	316.98	7.27	-50.2	-65.9	3.8	1.49e+00	0	43	104	718274560	72	21275
2026-01-08 12:09:07.72	317.11	7.23	-50.2	-65.9	3.8	1.49e+00	0	43	104	718274560	72	21314
2026-01-08 12:09:08.72	317.24	7.18	-50.2	-65.9	3.8	1.49e+00	0	43	104	718274560	72	21304
2026-01-08 12:09:09.73	317.38	7.13	-50.2	-65.8	3.8	1.49e+00	0	43	104	718274560	72	21237
2026-01-08 12:09:10.73	317.51	7.09	-50.2	-65.9	3.8	1.49e+00	0	43	104	718274560	72	21270
2026-01-08 12:09:11.74	317.64	7.04	-50.2	-65.9	3.8	1.49e+00	0	43	104	718274560	72	21398
2026-01-08 12:09:12.74	317.77	7.00	-50.2	-65.9	3.8	1.49e+00	0	43	104	718274560	72	21283
2026-01-08 12:09:13.75	317.90	6.95	-50.2	-65.8	3.8	1.49e+00	0	43	104	718274560	72	21237
2026-01-08 12:09:14.75	318.03	6.90	-50.2	-65.8	3.8	1.49e+00	0	43	104	718274560	72	21256
2