passes_logs/2026/01/08/T1/T1__20260108_122358_AQUA_rec.log

#Pass ID: 20260108_122358_AQUA
#Satellite: AQUA
#Configuration: AQUA
#almurnet v.1.7.20251203
#Start time: 2026-01-08 12:23:58

#Version: 2.0.20230620
#Station: T1
#Location: 37.570604 lon 55.790049 lat
#TLE: 1 27424U 02022A   26004.96787593  .00001598  00000+0  32997-3 0  9996
#TLE: 2 27424  98.4069 331.2279 0002002  90.2377   0.6092 14.61798176259425

#Time	Az	El	Level	Level2	SNR	BER	BlckErr	Temp	State	Recorded	gain1	gain2
2026-01-08 12:23:58.96	186.15	5.01	-50.1	-71.7	3.8	7.43e-01	0	38	0	0	71	44362
2026-01-08 12:23:59.96	186.21	5.09	-49.5	-71.4	3.8	7.48e-01	0	38	104	0	70	44940
2026-01-08 12:24:00.96	186.26	5.16	-49.6	-71.1	3.8	7.46e-01	0	38	104	0	70	43529
2026-01-08 12:24:01.97	186.31	5.23	-49.5	-70.7	3.8	7.44e-01	0	38	104	0	70	41662
2026-01-08 12:24:02.97	186.37	5.30	-49.5	-70.3	3.8	7.46e-01	0	39	104	0	70	39736
2026-01-08 12:24:03.98	186.42	5.38	-49.5	-69.8	3.8	7.47e-01	0	38	104	0	70	37650
2026-01-08 12:24:04.98	186.47	5.45	-49.5	-69.4	3.8	7.47e-01	0	39	104	0	70	35728
2026-01-08 12:24:05.98	186.53	5.52	-49.5	-68.9	4.0	7.43e-01	0	39	104	0	70	34007
2026-01-08 12:24:06.99	186.58	5.60	-49.5	-69.2	3.8	7.45e-01	0	39	104	0	70	35187
2026-01-08 12:24:07.99	186.64	5.67	-49.4	-69.6	3.8	7.46e-01	0	39	104	0	70	36569
2026-01-08 12:24:08.99	186.69	5.75	-49.6	-69.8	3.8	7.45e-01	0	39	104	0	70	37781
2026-01-08 12:24:10.00	186.75	5.82	-49.5	-70.5	3.8	7.46e-01	0	39	104	0	70	40915
2026-01-08 12:24:11.00	186.80	5.90	-49.6	-70.9	3.8	7.48e-01	0	39	104	0	70	42870
2026-01-08 12:24:12.01	186.86	5.97	-49.5	-71.3	3.8	7.46e-01	0	39	104	0	70	44704
2026-01-08 12:24:13.01	186.91	6.05	-49.6	-71.3	3.8	7.47e-01	0	39	104	0	70	44909
2026-01-08 12:24:14.02	186.97	6.12	-49.5	-71.2	3.8	7.48e-01	0	39	104	0	70	43933
2026-01-08 12:24:15.02	187.03	6.20	-49.5	-70.9	3.8	7.42e-01	0	39	104	0	70	42433
2026-01-08 12:24:16.02	187.08	6.27	-49.5	-70.4	3.8	7.48e-01	0	39	104	0	70	40439
2026-01-08 12:24:17.03	187.14	6.35	-49.5	-70.4	3.8	7.44e-01	0	39	104	0	70	40376
2026-01-08 12:24:18.03	187.20	6.42	-49.4	-70.6	3.8	7.45e-01	0	39	104	0	70	41044
2026-01-08 12:24:19.04	187.26	6.50	-49.3	-70.9	3.8	7.43e-01	0	39	104	0	70	42887
2026-01-08 12:24:20.04	187.31	6.58	-49.4	-71.2	3.8	7.43e-01	0	39	104	0	70	44382
2026-01-08 12:24:21.05	187.37	6.65	-49.4	-71.2	3.8	7.47e-01	0	39	104	0	70	44215
2026-01-08 12:24:22.05	187.43	6.73	-49.4	-70.4	3.8	7.44e-01	0	39	104	0	70	40471
2026-01-08 12:24:23.05	187.49	6.81	-49.4	-68.9	4.0	7.45e-01	0	39	104	0	70	33754
2026-01-08 12:24:24.06	187.55	6.89	-49.3	-66.8	4.6	7.21e-01	0	39	104	0	70	26646
2026-01-08 12:24:25.06	187.61	6.96	-49.4	-65.6	5.2	7.05e-01	0	39	0	0	70	23237
2026-01-08 12:24:26.07	187.67	7.04	-49.3	-65.0	5.6	6.95e-01	0	39	0	524288	70	21655
2026-01-08 12:24:27.07	187.73	7.12	-49.3	-64.8	5.7	6.91e-01	0	40	0	1572864	70	21117
2026-01-08 12:24:28.07	187.79	7.20	-49.4	-65.5	5.3	7.04e-01	0	40	0	2097152	70	22837
2026-01-08 12:24:29.08	187.85	7.28	-49.5	-67.2	4.0	7.37e-01	0	40	104	2621440	70	27750
2026-01-08 12:24:30.08	187.91	7.36	-49.4	-66.9	4.5	7.25e-01	0	39	104	2621440	70	26930
2026-01-08 12:24:31.09	187.98	7.44	-49.3	-64.3	6.0	6.85e-01	0	40	0	2621440	70	19948
2026-01-08 12:24:32.09	188.04	7.52	-49.1	-60.9	9.3	6.31e-01	0	40	0	4718592	70	13434
2026-01-08 12:24:33.10	188.10	7.60	-48.6	-57.6	12.6	6.11e-01	0	39	0	6291456	69	9796
2026-01-08 12:24:34.10	188.16	7.68	-48.1	-55.2	15.1	6.09e-01	0	40	0	8388608	68	7834
2026-01-08 12:24:35.11	188.23	7.76	-47.3	-53.2	17.1	6.06e-01	0	40	0	9961472	66	6975
2026-01-08 12:24:36.11	188.29	7.84	-46.6	-51.6	18.6	6.05e-01	0	40	0	12058624	65	6139
2026-01-08 12:24:37.11	188.35	7.92	-46.0	-50.3	19.8	6.08e-01	0	40	0	14155776	63	5971
2026-01-08 12:24:38.12	188.42	8.00	-45.6	-49.7	20.4	6.09e-01	0	40	0	15728640	63	5586
2026-01-08 12:24:39.12	188.48	8.08	-45.3	-49.2	21.0	6.08e-01	0	40	0	17825792	62	5551
2026-01-08 12:24:40.13	188.55	8.16	-45.3	-49.1	21.0	6.07e-01	0	40	0	19398656	62	5522
2026-01-08 12:24:41.13	188.61	8.24	-45.2	-49.1	21.0	6.06e-01	0	40	0	21495808	62	5503
2026-01-08 12:24:42.13	188.68	8.33	-45.6	-49.6	20.6	6.08e-01	0	40	0	23068672	62	5849
2026-01-08 12:24:43.14	188.75	8.41	-46.0	-50.4	19.9	6.07e-01	0	40	0	25165824	62	6348
2026-01-08 12:24:44.15	188.81	8.49	-46.5	-51.3	19.0	6.07e-01	0	40	0	27262976	63	6667
2026-01-08 12:24:45.15	188.88	8.57	-46.9	-52.3	18.0	6.05e-01	0	40	0	28835840	64	7084
2026-01-08 12:24:46.15	188.95	8.66	-47.5	-53.7	16.6	6.06e-01	0	40	0	30932992	65	7847
2026-01-08 12:24:47.16	189.02	8.74	-48.0	-55.5	14.9	6.10e-01	0	40	0	32505856	66	9094
2026-01-08 12:24:48.16	189.08	8.82	-48.5	-57.0	13.3	6.08e-01	0	40	0	34603008	67	10285
2026-01-08 12:24:49.16	189.15	8.91	-48.9	-58.7	11.6	6.13e-01	0	40	0	36700160	68	11748
2026-01-08 12:24:50.17	189.22	8.99	-49.1	-60.2	10.1	6.23e-01	0	40	0	38273024	68	13973
2026-01-08 12:24:51.17	189.29	9.08	-49.1	-61.4	8.7	6.36e-01	0	40	0	40370176	69	15214
2026-01-08 12:24:52.18	189.36	9.16	-47.9	-55.3	15.0	6.08e-01	0	40	0	41943040	67	8381
2026-01-08 12:24:53.18	189.43	9.25	-48.2	-56.4	14.4	6.07e-01	0	40	0	44040192	67	9516
2026-01-08 12:24:54.18	189.50	9.33	-49.2	-63.5	6.7	6.68e-01	0	40	0	46137344	69	19219
2026-01-08 12:24:55.19	189.57	9.42	-48.7	-59.3	10.7	6.19e-01	0	40	0	47710208	69	11888
2026-01-08 12:24:56.37	189.66	9.52	-48.1	-54.7	15.5	6.08e-01	0	40	0	49807360	67	7868
2026-01-08 12:24:57.26	189.72	9.60	-48.0	-54.7	15.7	6.06e-01	0	40	0	51904512	67	7831
2026-01-08 12:24:58.40	189.80	9.70	-48.0	-54.6	15.6	6.08e-01	0	40	0	54001664	67	7740
2026-01-08 12:24:59.26	189.87	9.77	-48.0	-54.5	15.7	6.06e-01	0	40	0	55574528	67	7705
2026-01-08 12:25:00.41	189.95	9.87	-48.0	-54.4	15.9	6.06e-01	0	40	0	57671680	67	7603
2026-01-08 12:25:01.40	190.02	9.96	-47.9	-54.4	16.1	6.08e-01	0	40	0	59244544	67	7611
2026-01-08 12:25:02.40	190.10	10.05	-47.8	-54.0	16.5	6.07e-01	0	40	0	61341696	67	7230
2026-01-08 12:25:03.67	190.19	10.16	-47.5	-53.5	16.9	6.04e-01	0	40	0	63963136	66	7258
2026-01-08 12:25:04.39	190.25	10.22	-47.3	-53.0	17.4	6.07e-01	0	40	0	65011712	66	6848
2026-01-08 12:25:05.68	190.34	10.33	-47.2	-53.0	17.4	6.05e-01	0	40	0	67633152	66	6846
2026-01-08 12:25:06.39	190.40	10.40	-47.4	-53.5	16.9	6.08e-01	0	40	0	68681728	66	7214
2026-01-08 12:25:07.68	190.50	10.51	-46.6	-51.7	18.7	6.05e-01	0	40	0	71303168	65	6240
2026-01-08 12:25:08.56	190.56	10.59	-46.4	-51.4	18.9	6.08e-01	0	40	0	72876032	64	6406
2026-01-08 12:25:09.71	190.65	10.70	-46.2	-50.8	19.4	6.07e-01	0	40	0	74973184	64	5988
2026-01-08 12:25:10.57	190.72	10.77	-46.4	-51.3	19.1	6.06e-01	0	40	0	76546048	64	6307
2026-01-08 12:25:11.71	190.81	10.88	-46.5	-51.4	19.0	6.08e-01	0	40	0	78643200	64	6410
2026-01-08 12:25:12.57	190.88	10.95	-46.4	-51.2	19.1	6.07e-01	0	40	0	80216064	64	6274
2026-01-08 12:25:13.72	190.97	11.06	-45.8	-50.1	20.2	6.08e-01	0	40	0	82313216	63	5821
2026-01-08 12:25:14.58	191.04	11.14	-45.3	-49.2	21.1	6.08e-01	0	40	0	84410368	62	5574
2026-01-08 12:25:15.73	191.13	11.24	-45.2	-49.0	21.4	6.08e-01	0	40	0	86507520	62	5418
2026-01-08 12:25:16.59	191.20	11.32	-45.0	-48.6	21.7	6.06e-01	0	40	0	88080384	62	5192
2026-01-08 12:25:17.73	191.29	11.43	-45.0	-48.3	21.9	6.08e-01	0	40	0	90177536	61	5334
2026-01-08 12:25:18.59	191.36	11.51	-45.0	-48.4	21.9	6.05e-01	0	40	0	91750400	61	5369
2026-01-08 12:25:19.74	191.46	11.62	-44.7	-47.8	22.4	6.07e-01	0	40	0	93847552	61	5036
2026-01-08 12:25:20.59	191.53	11.70	-44.8	-47.9	22.4	6.06e-01	0	40	0	95420416	61	5077
2026-01-08 12:25:21.74	191.63	11.80	-44.7	-47.8	22.5	6.07e-01	0	40	0	97517568	61	4994
2026-01-08 12:25:22.60	191.70	11.89	-44.8	-47.8	22.5	6.08e-01	0	40	0	99090432	61	5022
2026-01-08 12:25:23.75	191.80	11.99	-44.7	-47.8	22.5	6.06e-01	0	40	0	101187584	61	5024
2026-01-08 12:25:24.61	191.87	12.08	-44.5	-47.7	22.6	6.07e-01	0	40	0	102760448	61	4928
2026-01-08 12:25:26.10	192.00	12.22	-44.6	-47.7	22.6	6.06e-01	0	40	0	105906176	60	5246
2026-01-08 12:25:26.82	192.06	12.29	-44.7	-47.8	22.6	6.07e-01	0	40	0	106954752	60	5294
2026-01-08 12:25:28.11	192.17	12.41	-44.6	-47.7	22.6	6.07e-01	0	40	0	109576192	60	5248
2026-01-08 12:25:28.82	192.24	12.48	-44.6	-47.6	22.6	6.07e-01	0	40	0	110624768	60	5216
2026-01-08 12:25:30.11	192.35	12.61	-44.6	-47.6	22.6	6.05e-01	0	40	0	113246208	60	5201
2026-01-08 12:25:30.88	192.42	12.68	-44.6	-47.6	22.7	6.07e-01	0	40	0	114819072	60	5197
2026-01-08 12:25:32.17	192.54	12.81	-44.5	-47.5	22.7	6.06e-01	0	40	0	116916224	60	5146
2026-01-08 12:25:32.88	192.60	12.88	-44.5	-47.6	22.7	6.06e-01	0	40	0	118489088	60	5171
2026-01-08 12:25:34.17	192.72	13.00	-44.5	-47.6	22.7	6.06e-01	0	40	0	121110528	60	5198
2026-01-08 12:25:34.88	192.78	13.07	-44.5	-47.6	22.7	6.09e-01	0	40	0	122159104	60	5201
2026-01-08 12:25:36.17	192.90	13.20	-44.5	-47.5	22.8	6.07e-01	0	40	0	124780544	60	5139
2026-01-08 12:25:36.89	192.97	13.27	-44.5	-47.5	22.7	6.04e-01	0	40	0	125829120	60	5146
2026-01-08 12:25:38.18	193.09	13.40	-44.4	-47.5	22.8	6.07e-01	0	40	0	128450560	60	5136
2026-01-08 12:25:38.90	193.16	13.48	-44.4	-47.5	22.7	6.07e-01	0	40	0	129499136	60	5148
2026-01-08 12:25:40.27	193.29	13.61	-44.3	-47.4	22.8	6.07e-01	0	40	0	132120576	60	5098
2026-01-08 12:25:41.24	193.38	13.71	-44.4	-47.5	22.8	6.08e-01	0	40	0	134217728	60	5112
2026-01-08 12:25:42.24	193.48	13.81	-44.3	-47.4	22.9	6.05e-01	0	40	0	135790592	60	5055
2026-01-08 12:25:43.24	193.57	13.92	-44.4	-47.4	22.9	6.08e-01	0	40	0	137887744	60	5070
2026-01-08 12:25:44.24	193.67	14.02	-44.3	-47.2	23.0	6.06e-01	0	40	0	139984896	60	4975
2026-01-08 12:25:45.25	193.77	14.12	-44.3	-47.2	23.0	6.08e-01	0	40	0	141557760	60	4978
2026-01-08 12:25:46.25	193.87	14.23	-44.3	-47.3	23.0	6.07e-01	0	40	0	143654912	60	4997
2026-01-08 12:25:47.25	193.97	14.33	-44.3	-47.3	23.0	6.11e-01	0	40	0	145227776	60	4997
2026-01-08 12:25:48.26	194.07	14.44	-44.4	-47.3	22.9	6.08e-01	0	40	0	147324928	60	5009
2026-01-08 12:25:49.26	194.17	14.54	-44.3	-47.2	23.1	6.06e-01	0	40	0	149422080	60	4960
2026-01-08 12:25:50.26	194.28	14.65	-44.3	-47.2	23.1	6.08e-01	0	40	0	150994944	60	4939
2026-01-08 12:25:51.26	194.38	14.75	-44.3	-47.1	23.1	6.06e-01	0	40	0	153092096	60	4918
2026-01-08 12:25:52.27	194.48	14.86	-44.2	-47.0	23.3	6.07e-01	0	40	0	154664960	60	4855
2026-01-08 12:25:53.27	194.59	14.96	-44.1	-46.9	23.3	6.06e-01	0	40	0	156762112	60	4792
2026-01-08 12:25:54.27	194.69	15.07	-44.0	-46.8	23.4	6.07e-01	0	40	0	158334976	60	4744
2026-01-08 12:25:55.28	194.80	15.18	-44.1	-46.9	23.4	6.06e-01	0	41	0	160432128	60	4772
2026-01-08 12:25:56.28	194.91	15.29	-44.1	-46.9	23.3	6.08e-01	0	41	0	162529280	60	4806
2026-01-08 12:25:57.28	195.01	15.40	-44.2	-47.0	23.2	6.11e-01	0	40	0	164102144	60	4855
2026-01-08 12:25:58.28	195.12	15.50	-44.3	-47.1	23.1	6.07e-01	0	41	0	166199296	60	4903
2026-01-08 12:25:59.28	195.23	15.61	-44.3	-47.1	23.1	6.07e-01	0	40	0	167772160	60	4923
2026-01-08 12:26:00.28	195.34	15.72	-44.2	-47.0	23.2	6.07e-01	0	40	0	169869312	60	4852
2026-01-08 12:26:01.29	195.45	15.83	-44.3	-47.1	23.1	6.07e-01	0	41	0	171966464	60	4920
2026-01-08 12:26:02.29	195.57	15.94	-44.2	-47.0	23.3	6.07e-01	0	40	0	173539328	60	4824
2026-01-08 12:26:03.29	195.68	16.06	-44.2	-47.0	23.3	6.07e-01	0	41	0	175636480	60	4832
2026-01-08 12:26:04.30	195.79	16.17	-44.2	-47.0	23.2	6.08e-01	0	40	0	177209344	60	4869
2026-01-08 12:26:05.37	195.92	16.29	-44.1	-46.9	23.3	6.08e-01	0	40	0	179306496	60	4794
2026-01-08 12:26:06.26	196.02	16.39	-44.1	-46.8	23.4	6.06e-01	0	40	0	180879360	60	4759
2026-01-08 12:26:07.40	196.15	16.52	-44.2	-46.9	23.4	6.06e-01	0	41	0	182976512	60	4766
2026-01-08 12:26:08.26	196.25	16.61	-44.2	-47.0	23.3	6.05e-01	0	40	0	184549376	60	4817
2026-01-08 12:26:09.40	196.39	16.74	-44.3	-47.1	23.2	6.06e-01	0	40	0	186646528	60	4880
2026-01-08 12:26:10.26	196.49	16.84	-44.2	-46.9	23.3	6.08e-01	0	40	0	188743680	60	4788
2026-01-08 12:26:11.41	196.63	16.97	-44.2	-46.9	23.3	6.07e-01	0	40	0	190840832	60	4796
2026-01-08 12:26:12.27	196.73	17.07	-44.2	-46.9	23.3	6.08e-01	0	41	0	192413696	60	4778
2026-01-08 12:26:13.41	196.87	17.20	-44.2	-46.9	23.3	6.07e-01	0	41	0	194510848	60	4808
2026-01-08 12:26:14.27	196.97	17.30	-44.2	-46.9	23.3	6.07e-01	0	41	0	196083712	60	4807
2026-01-08 12:26:15.42	197.12	17.44	-44.2	-46.9	23.4	6.07e-01	0	41	0	198180864	60	4760
2026-01-08 12:26:16.28	197.22	17.54	-44.3	-46.9	23.4	6.08e-01	0	40	0	199753728	60	4811
2026-01-08 12:26:17.43	197.37	17.67	-44.3	-46.9	23.3	6.07e-01	0	40	0	201850880	60	4797
2026-01-08 12:26:18.29	197.48	17.78	-44.4	-47.0	23.3	6.07e-01	0	41	0	203423744	60	4843
2026-01-08 12:26:19.53	197.64	17.92	-44.3	-46.9	23.3	6.06e-01	0	40	0	206045184	60	4809
2026-01-08 12:26:20.39	197.75	18.03	-44.2	-46.8	23.4	6.07e-01	0	41	0	207618048	60	4751
2026-01-08 12:26:21.61	197.91	18.17	-44.2	-46.9	23.4	6.06e-01	0	40	0	209715200	60	4765
2026-01-08 12:26:22.47	198.02	18.27	-44.1	-46.7	23.5	6.07e-01	0	40	0	211288064	60	4703
2026-01-08 12:26:23.62	198.17	18.41	-44.2	-46.9	23.4	6.06e-01	0	40	0	213385216	60	4761
2026-01-08 12:26:24.48	198.28	18.52	-44.2	-46.9	23.4	6.05e-01	0	40	0	214958080	60	4780
2026-01-08 12:26:25.63	198.44	18.66	-44.4	-47.0	23.2	6.07e-01	0	40	0	217579520	60	4859
2026-01-08 12:26:26.49	198.56	18.76	-44.3	-46.9	23.3	6.05e-01	0	40	0	219152384	60	4797
2026-01-08 12:26:27.63	198.71	18.90	-44.3	-47.0	23.3	6.07e-01	0	40	0	221249536	60	4819
2026-01-08 12:26:28.50	198.83	19.01	-44.4	-47.0	23.3	6.08e-01	0	41	0	222822400	60	4848
2026-01-08 12:26:29.64	198.99	19.15	-44.2	-46.8	23.4	6.07e-01	0	41	0	224919552	60	4729
2026-01-08 12:26:30.73	199.14	19.29	-44.2	-46.9	23.0	6.09e-01	0	41	0	227016704	60	4768
2026-01-08 12:26:31.59	199.26	19.40	-44.4	-47.0	23.3	6.06e-01	0	40	0	228589568	60	4862
2026-01-08 12:26:33.09	199.48	19.58	-44.3	-46.9	23.4	6.06e-01	0	41	0	231211008	60	4814
2026-01-08 12:26:33.80	199.58	19.67	-44.4	-47.1	23.2	6.08e-01	0	41	0	232783872	60	4891
2026-01-08 12:26:35.29	199.80	19.86	-44.3	-47.0	23.3	6.08e-01	0	41	0	235405312	60	4821
2026-01-08 12:26:36.27	199.94	19.99	-44.3	-46.9	23.4	6.06e-01	0	40	0	237502464	60	4777
2026-01-08 12:26:37.28	200.09	20.12	-44.4	-47.0	23.3	6.06e-01	0	41	0	239075328	60	4840
2026-01-08 12:26:38.28	200.24	20.24	-44.4	-47.1	23.3	6.05e-01	0	41	0	241172480	60	4871
2026-01-08 12:26:39.28	200.39	20.37	-44.4	-47.0	23.3	6.07e-01	0	40	0	242745344	60	4822
2026-01-08 12:26:40.29	200.54	20.50	-44.5	-47.1	23.2	6.06e-01	0	41	0	244842496	60	4910
2026-01-08 12:26:41.29	200.70	20.63	-44.4	-47.1	23.3	6.08e-01	0	41	0	246939648	60	4876
2026-01-08 12:26:42.29	200.85	20.77	-44.5	-47.1	23.2	6.05e-01	0	41	0	248512512	60	4921
2026-01-08 12:26:43.30	201.01	20.90	-44.4	-47.0	23.3	6.07e-01	0	41	0	250609664	60	4854
2026-01-08 12:26:44.30	201.17	21.03	-44.4	-47.1	23.3	6.07e-01	0	41	0	252182528	60	4871
2026-01-08 12:26:45.38	201.34	21.17	-44.5	-47.1	23.2	6.05e-01	0	41	0	254279680	60	4915
2026-01-08 12:26:46.24	201.48	21.29	-44.5	-47.1	23.2	6.07e-01	0	40	0	255852544	60	4925
2026-01-08 12:26:47.61	201.70	21.47	-44.6	-47.3	23.0	6.07e-01	0	41	0	258473984	60	5016
2026-01-08 12:26:48.33	201.82	21.57	-44.7	-47.4	23.0	6.06e-01	0	40	0	260046848	60	5046
2026-01-08 12:26:49.62	202.03	21.74	-44.6	-47.2	23.1	6.08e-01	0	40	0	262144000	60	4974
2026-01-08 12:26:50.34	202.15	21.84	-44.4	-47.0	23.3	6.09e-01	0	40	0	263716864	60	4819
2026-01-08 12:26:51.63	202.37	22.01	-44.4	-47.1	23.2	6.07e-01	0	41	0	266338304	60	4877
2026-01-08 12:26:52.35	202.49	22.11	-44.4	-47.0	23.3	6.08e-01	0	41	0	267386880	60	4850
2026-01-08 12:26:53.64	202.71	22.29	-44.5	-47.2	23.2	6.05e-01	0	41	0	270008320	60	4945
2026-01-08 12:26:54.35	202.83	22.39	-44.5	-47.1	23.1	6.07e-01	0	41	0	271056896	60	4925
2026-01-08 12:26:55.64	203.06	22.56	-44.6	-47.3	23.1	6.06e-01	0	40	0	273678336	60	4986
2026-01-08 12:26:56.57	203.22	22.69	-44.5	-47.1	23.2	6.07e-01	0	41	0	275251200	60	4925
2026-01-08 12:26:57.57	203.40	22.83	-44.4	-47.1	23.2	6.06e-01	0	41	0	277348352	60	4872
2026-01-08 12:26:58.57	203.57	22.97	-44.5	-47.2	23.1	6.07e-01	0	41	0	278921216	60	4948
2026-01-08 12:26:59.58	203.76	23.11	-44.5	-47.2	23.1	6.08e-01	0	41	0	281018368	60	4982
2026-01-08 12:27:00.58	203.94	23.25	-44.5	-47.2	23.1	6.07e-01	0	41	0	283115520	60	4981
2026-01-08 12:27:01.58	204.12	23.40	-44.4	-47.1	23.2	6.08e-01	0	41	0	284688384	60	4876
2026-01-08 12:27:02.59	204.31	23.54	-44.4	-47.0	22.8	6.05e-01	0	41	0	286785536	60	4860
2026-01-08 12:27:03.59	204.50	23.68	-44.4	-47.0	23.3	6.06e-01	0	41	0	288358400	60	4869
2026-01-08 12:27:04.60	204.69	23.83	-44.3	-47.0	23.3	6.08e-01	0	41	0	290455552	60	4855
2026-01-08 12:27:05.60	204.88	23.97	-44.3	-47.0	23.3	6.05e-01	0	41	0	292028416	60	4846
2026-01-08 12:27:06.60	205.07	24.11	-44.4	-47.0	23.3	6.08e-01	0	41	0	294125568	60	4868
2026-01-08 12:27:07.75	205.30	24.28	-44.4	-47.0	23.3	6.04e-01	0	41	0	296222720	60	4864
2026-01-08 12:27:08.63	205.47	24.41	-44.6	-47.2	23.1	6.08e-01	0	41	0	297795584	60	4966
2026-01-08 12:27:09.95	205.73	24.60	-44.6	-47.2	23.1	6.08e-01	0	41	0	300417024	60	4961
2026-01-08 12:27:10.67	205.88	24.71	-44.6	-47.2	23.1	6.07e-01	0	41	0	301989888	60	4967
2026-01-08 12:27:12.18	206.18	24.93	-44.4	-46.9	23.4	6.07e-01	0	40	0	304611328	60	4813
2026-01-08 12:27:12.90	206.33	25.03	-44.4	-46.9	23.4	6.06e-01	0	40	0	306184192	60	4809
2026-01-08 12:27:14.25	206.61	25.23	-44.5	-47.1	23.2	6.05e-01	0	41	0	308281344	60	4901
2026-01-08 12:27:14.97	206.76	25.34	-44.5	-47.1	23.2	6.07e-01	0	41	0	309854208	60	4906
2026-01-08 12:27:16.26	207.03	25.53	-44.4	-47.0	23.4	6.08e-01	0	40	0	312475648	60	4829
2026-01-08 12:27:16.97	207.18	25.64	-44.4	-47.0	23.3	6.07e-01	0	40	0	313524224	60	4838
2026-01-08 12:27:18.26	207.46	25.83	-44.4	-47.0	23.3	6.07e-01	0	40	0	316145664	60	4849
2026-01-08 12:27:18.98	207.62	25.94	-44.5	-47.1	23.3	6.06e-01	0	40	0	317194240	60	4876
2026-01-08 12:27:20.27	207.90	26.14	-44.5	-47.2	23.2	6.07e-01	0	41	0	319815680	60	4928
2026-01-08 12:27:20.98	208.06	26.24	-44.4	-47.0	23.3	6.06e-01	0	40	0	321388544	60	4860
2026-01-08 12:27:22.27	208.35	26.44	-44.5	-47.1	23.2	6.09e-01	0	40	0	323485696	60	4921
2026-01-08 12:27:22.99	208.51	26.55	-44.5	-47.2	23.2	6.05e-01	0	40	0	325058560	60	4939
2026-01-08 12:27:24.28	208.80	26.75	-44.4	-47.1	23.3	6.07e-01	0	40	0	327155712	60	4886
2026-01-08 12:27:25.09	208.99	26.87	-44.4	-47.1	23.3	6.08e-01	0	40	0	328728576	60	4873
2026-01-08 12:27:26.24	209.26	27.05	-44.4	-47.1	23.2	6.09e-01	0	41	0	330825728	60	4893
2026-01-08 12:27:27.10	209.46	27.18	-44.4	-47.1	23.3	6.08e-01	0	41	0	332398592	60	4894
2026-01-08 12:27:28.25	209.73	27.36	-44.4	-47.1	23.3	6.05e-01	0	41	0	334495744	60	4882
2026-01-08 12:27:29.11	209.94	27.49	-44.3	-47.0	23.4	6.06e-01	0	41	0	336592896	60	4823
2026-01-08 12:27:30.25	210.21	27.67	-44.3	-47.0	23.4	6.06e-01	0	40	0	338690048	60	4825
2026-01-08 12:27:31.11	210.42	27.81	-44.4	-47.1	23.3	6.06e-01	0	40	0	340262912	60	4886
2026-01-08 12:27:32.32	210.72	28.00	-44.5	-47.1	23.3	6.06e-01	0	41	0	342360064	60	4877
2026-01-08 12:27:33.18	210.94	28.13	-44.5	-47.1	23.3	6.06e-01	0	40	0	343932928	60	4893
2026-01-08 12:27:34.39	211.24	28.32	-44.7	-47.3	23.1	6.06e-01	0	41	0	346030080	60	5001
2026-01-08 12:27:35.25	211.46	28.46	-44.5	-47.0	23.3	6.08e-01	0	40	0	348127232	60	4856
2026-01-08 12:27:36.40	211.76	28.64	-44.4	-47.0	23.3	6.07e-01	0	41	0	350224384	60	4847
2026-01-08 12:27:37.26	211.98	28.78	-44.4	-47.0	23.3	6.06e-01	0	41	0	351797248	60	4846
2026-01-08 12:27:38.41	212.28	28.96	-44.5	-47.1	23.3	6.08e-01	0	40	0	353894400	60	4878
2026-01-08 12:27:39.27	212.51	29.10	-44.3	-46.9	23.4	6.05e-01	0	41	0	355467264	60	4784
2026-01-08 12:27:40.62	212.87	29.31	-44.4	-47.0	23.3	6.08e-01	0	40	0	358088704	60	4846
2026-01-08 12:27:41.34	213.07	29.43	-44.4	-47.0	23.3	6.08e-01	0	41	0	359137280	60	4845
2026-01-08 12:27:42.63	213.42	29.64	-44.5	-47.1	23.3	6.05e-01	0	40	0	361758720	60	4890
2026-01-08 12:27:43.34	213.62	29.75	-44.4	-47.0	23.3	6.07e-01	0	41	0	362807296	60	4857
2026-01-08 12:27:44.64	213.98	29.96	-44.4	-47.0	23.3	6.07e-01	0	40	0	365428736	60	4839
2026-01-08 12:27:45.35	214.18	30.07	-44.4	-47.0	23.3	6.08e-01	0	41	0	367001600	60	4861
2026-01-08 12:27:46.64	214.55	30.28	-44.3	-47.0	23.4	6.05e-01	0	41	0	369098752	60	4820
2026-01-08 12:27:47.46	214.79	30.41	-44.3	-47.0	23.3	6.07e-01	0	40	0	370671616	60	4840
2026-01-08 12:27:48.60	215.12	30.60	-44.4	-47.0	23.4	6.06e-01	0	41	0	372768768	60	4842
2026-01-08 12:27:49.46	215.37	30.74	-44.5	-47.1	23.3	6.06e-01	0	40	0	374341632	60	4875
2026-01-08 12:27:50.61	215.71	30.92	-44.6	-47.2	23.2	6.07e-01	0	41	0	376963072	60	4952
2026-01-08 12:27:51.47	215.97	31.06	-44.5	-47.1	23.2	6.08e-01	0	41	0	378535936	60	4909
2026-01-08 12:27:52.61	216.32	31.25	-44.4	-47.0	23.3	6.09e-01	0	40	0	380633088	60	4843
2026-01-08 12:27:53.83	216.69	31.45	-44.6	-47.3	23.1	6.08e-01	0	41	0	382730240	60	4996
2026-01-08 12:27:54.86	217.01	31.61	-44.5	-47.0	23.3	6.07e-01	0	41	0	384827392	60	4861
2026-01-08 12:27:55.86	217.33	31.78	-44.5	-47.0	23.4	6.08e-01	0	41	0	386400256	60	4853
2026-01-08 12:27:56.86	217.64	31.94	-44.5	-47.1	23.3	6.07e-01	0	41	0	388497408	60	4878
2026-01-08 12:27:57.86	217.96	32.10	-44.4	-47.0	23.3	6.07e-01	0	40	0	390594560	60	4869
2026-01-08 12:27:58.87	218.29	32.27	-44.6	-47.2	23.1	6.06e-01	0	41	0	392167424	60	4981
2026-01-08 12:27:59.87	218.62	32.43	-44.5	-47.2	23.1	6.06e-01	0	41	0	394264576	60	4976
2026-01-08 12:28:00.87	218.95	32.59	-44.3	-46.9	23.4	6.08e-01	0	40	0	395837440	60	4785
2026-01-08 12:28:01.87	219.28	32.76	-44.3	-47.0	23.4	6.08e-01	0	41	0	397934592	60	4830
2026-01-08 12:28:02.88	219.62	32.92	-44.6	-47.3	23.1	6.07e-01	0	41	0	399507456	60	5031
2026-01-08 12:28:03.88	219.96	33.08	-44.7	-47.3	23.1	6.08e-01	0	40	0	401604608	60	5030
2026-01-08 12:28:04.88	220.30	33.24	-44.6	-47.2	23.2	6.07e-01	0	41	0	403701760	60	4941
2026-01-08 12:28:05.95	220.68	33.42	-44.8	-47.4	23.0	6.08e-01	0	41	0	405274624	60	5098
2026-01-08 12:28:06.84	220.99	33.56	-44.7	-47.4	23.0	6.07e-01	0	40	0	407371776	60	5069
2026-01-08 12:28:07.98	221.39	33.75	-44.8	-47.5	22.9	6.08e-01	0	41	0	409468928	60	5136
2026-01-08 12:28:08.84	221.70	33.89	-44.7	-47.4	23.0	6.09e-01	0	41	0	411041792	60	5064
2026-01-08 12:28:09.99	222.11	34.07	-44.8	-47.5	23.0	6.06e-01	0	40	0	413138944	60	5110
2026-01-08 12:28:10.85	222.43	34.21	-44.8	-47.5	22.9	6.07e-01	0	41	0	414711808	60	5143
2026-01-08 12:28:12.00	222.85	34.39	-45.0	-47.8	22.7	6.05e-01	0	41	0	416808960	60	5301
2026-01-08 12:28:12.86	223.17	34.53	-44.8	-47.5	22.9	6.09e-01	0	41	0	418381824	60	5153
2026-01-08 12:28:14.00	223.60	34.71	-44.8	-47.5	22.9	6.10e-01	0	41	0	420478976	60	5144
2026-01-08 12:28:14.86	223.93	34.85	-45.0	-47.7	22.8	6.09e-01	0	41	0	422051840	60	5255
2026-01-08 12:28:16.00	224.37	35.03	-45.1	-47.8	22.6	6.07e-01	0	41	0	424148992	60	5322
2026-01-08 12:28:16.86	224.70	35.16	-44.9	-47.7	22.8	6.06e-01	0	41	0	425721856	60	5236
2026-01-08 12:28:18.01	225.15	35.35	-44.8	-47.6	22.9	6.07e-01	0	41	0	428343296	60	5189
2026-01-08 12:28:18.87	225.49	35.48	-44.9	-47.7	22.8	6.07e-01	0	41	0	429916160	60	5227
2026-01-08 12:28:20.02	225.95	35.66	-44.9	-47.6	22.8	6.07e-01	0	41	0	432013312	60	5196
2026-01-08 12:28:20.88	226.30	35.79	-44.8	-47.5	22.9	6.08e-01	0	41	0	433586176	60	5138
2026-01-08 12:28:22.02	226.76	35.97	-44.9	-47.6	22.9	6.06e-01	0	41	0	435683328	60	5200
2026-01-08 12:28:22.88	227.11	36.10	-45.0	-47.6	22.8	6.07e-01	0	41	0	437256192	60	5204
2026-01-08 12:28:24.03	227.59	36.28	-44.7	-47.3	23.1	6.07e-01	0	41	0	439353344	60	5033
2026-01-08 12:28:24.89	227.95	36.41	-44.7	-47.4	23.0	6.06e-01	0	41	0	440926208	60	5073
2026-01-08 12:28:26.04	228.43	36.58	-44.7	-47.4	23.0	6.09e-01	0	41	0	443023360	60	5050
2026-01-08 12:28:26.90	228.80	36.71	-44.8	-47.5	22.9	6.06e-01	0	40	0	444596224	60	5159
2026-01-08 12:28:28.04	229.29	36.88	-44.8	-47.5	23.0	6.04e-01	0	41	0	446693376	60	5117
2026-01-08 12:28:28.90	229.67	37.01	-44.8	-47.5	22.9	6.06e-01	0	41	0	448266240	60	5130
2026-01-08 12:28:30.05	230.17	37.18	-44.7	-47.4	23.0	6.06e-01	0	41	0	450887680	60	5042
2026-01-08 12:28:30.91	230.55	37.30	-44.7	-47.3	23.1	6.07e-01	0	40	0	452460544	60	5004
2026-01-08 12:28:32.05	231.06	37.47	-44.9	-47.6	22.9	6.07e-01	0	41	0	454557696	60	5172
2026-01-08 12:28:32.91	231.45	37.59	-44.9	-47.6	22.8	6.06e-01	0	41	0	456130560	60	5173
2026-01-08 12:28:34.12	232.00	37.76	-44.7	-47.3	23.1	6.07e-01	0	41	0	458227712	60	5029
2026-01-08 12:28:34.98	232.39	37.88	-44.9	-47.7	22.9	6.07e-01	0	41	0	459800576	60	5233
2026-01-08 12:28:36.13	232.92	38.04	-44.8	-47.6	22.8	6.07e-01	0	41	0	461897728	60	5161
2026-01-08 12:28:36.99	233.32	38.16	-44.7	-47.5	23.0	6.07e-01	0	41	0	463470592	60	5106
2026-01-08 12:28:38.14	233.87	38.32	-44.7	-47.4	23.0	6.09e-01	0	40	0	465567744	60	5048
2026-01-08 12:28:39.00	234.27	38.43	-44.6	-47.3	23.1	6.05e-01	0	40	0	467664896	60	5012
2026-01-08 12:28:40.14	234.82	38.58	-44.5	-47.1	23.3	6.07e-01	0	41	0	469762048	60	4887
2026-01-08 12:28:41.00	235.23	38.70	-44.7	-47.3	23.1	6.08e-01	0	41	0	471334912	60	5028
2026-01-08 12:28:42.15	235.79	38.84	-44.6	-47.2	23.1	6.05e-01	0	41	0	473432064	60	4967
2026-01-08 12:28:43.25	236.33	38.99	-44.7	-47.3	23.1	6.07e-01	0	41	0	475529216	60	5003
2026-01-08 12:28:44.11	236.76	39.09	-44.7	-47.3	23.1	6.07e-01	0	40	0	477102080	60	5033
2026-01-08 12:28:45.26	237.33	39.24	-44.7	-47.3	23.1	6.07e-01	0	41	0	479199232	60	5016
2026-01-08 12:28:46.11	237.76	39.34	-44.8	-47.5	22.9	6.08e-01	0	40	0	480772096	60	5105
2026-01-08 12:28:47.26	238.34	39.48	-44.4	-47.0	23.4	6.06e-01	0	41	0	482869248	60	4836
2026-01-08 12:28:48.12	238.78	39.58	-44.4	-46.9	23.4	6.08e-01	0	40	0	484442112	60	4799
2026-01-08 12:28:49.30	239.39	39.72	-44.5	-47.1	23.2	6.04e-01	0	41	0	486539264	60	4904
2026-01-08 12:28:50.16	239.83	39.81	-44.2	-46.8	23.5	6.08e-01	0	41	0	488112128	60	4718
2026-01-08 12:28:51.35	240.45	39.95	-44.4	-47.0	23.3	6.07e-01	0	40	0	490733568	60	4828
2026-01-08 12:28:52.21	240.90	40.04	-44.3	-46.8	23.5	6.05e-01	0	41	0	492306432	60	4749
2026-01-08 12:28:53.43	241.55	40.17	-44.3	-46.8	23.5	6.07e-01	0	41	0	494403584	60	4759
2026-01-08 12:28:54.30	242.01	40.26	-44.3	-46.7	23.6	6.04e-01	0	41	0	495976448	60	4702
2026-01-08 12:28:55.51	242.66	40.39	-44.7	-47.4	23.0	6.07e-01	0	41	0	498597888	60	5042
2026-01-08 12:28:56.37	243.12	40.47	-44.2	-46.7	23.6	6.05e-01	0	41	0	500170752	60	4687
2026-01-08 12:28:57.52	243.74	40.58	-44.3	-46.9	23.4	6.08e-01	0	41	0	502267904	60	4794
2026-01-08 12:28:58.37	244.21	40.66	-44.2	-46.7	23.6	6.07e-01	0	41	0	503840768	60	4691
2026-01-08 12:28:59.65	244.91	40.78	-44.3	-46.9	23.5	6.06e-01	0	41	0	505937920	60	4776
2026-01-08 12:29:00.36	245.30	40.84	-44.4	-47.0	23.4	6.06e-01	0	41	0	507510784	60	4817
2026-01-08 12:29:01.65	246.02	40.95	-44.1	-46.6	23.7	6.06e-01	0	40	0	510132224	60	4642
2026-01-08 12:29:02.37	246.42	41.01	-44.2	-46.8	23.6	6.06e-01	0	40	0	511180800	60	4722
2026-01-08 12:29:03.66	247.14	41.12	-44.1	-46.6	23.7	6.06e-01	0	40	0	513802240	60	4608
2026-01-08 12:29:04.37	247.54	41.17	-44.4	-47.0	23.4	6.07e-01	0	40	0	514850816	60	4823
2026-01-08 12:29:05.67	248.28	41.27	-44.1	-46.6	23.7	6.08e-01	0	41	0	517472256	60	4628
2026-01-08 12:29:06.49	248.74	41.33	-44.2	-46.7	23.7	6.07e-01	0	41	0	519045120	59	4970
2026-01-08 12:29:07.64	249.40	41.41	-44.2	-46.7	23.7	6.08e-01	0	40	0	521142272	59	4971
2026-01-08 12:29:08.50	249.90	41.47	-44.2	-46.7	23.7	6.07e-01	0	41	0	522715136	59	4943
2026-01-08 12:29:09.65	250.56	41.54	-44.3	-46.9	23.5	6.08e-01	0	41	0	524812288	59	5045
2026-01-08 12:29:10.51	251.05	41.59	-44.2	-46.7	23.8	6.04e-01	0	41	0	526385152	59	4949
2026-01-08 12:29:11.65	251.72	41.66	-44.2	-46.7	23.7	6.07e-01	0	41	0	528482304	59	4948
2026-01-08 12:29:12.51	252.22	41.70	-44.2	-46.7	23.7	6.06e-01	0	40	0	530055168	59	4977
2026-01-08 12:29:13.66	252.89	41.76	-44.1	-46.5	23.9	6.07e-01	0	41	0	532676608	59	4844
2026-01-08 12:29:14.52	253.39	41.80	-44.4	-46.9	23.6	6.09e-01	0	41	0	534249472	59	5058
2026-01-08 12:29:15.67	254.07	41.85	-44.2	-46.7	23.7	6.07e-01	0	40	0	536346624	59	4978
2026-01-08 12:29:16.53	254.58	41.89	-44.2	-46.7	23.7	6.06e-01	0	41	0	537919488	59	4954
2026-01-08 12:29:17.67	255.25	41.93	-44.4	-46.9	23.5	6.08e-01	0	40	0	540016640	59	5075
2026-01-08 12:29:18.61	255.81	41.96	-44.3	-46.8	23.6	6.04e-01	0	41	0	541589504	59	5027
2026-01-08 12:29:19.79	256.51	42.00	-44.4	-46.9	23.5	6.06e-01	0	40	0	543686656	59	5089
2026-01-08 12:29:20.65	257.02	42.02	-44.3	-46.8	23.6	6.05e-01	0	41	0	545259520	59	5034
2026-01-08 12:29:22.00	257.82	42.06	-44.5	-47.1	23.4	6.09e-01	0	40	0	547880960	59	5175
2026-01-08 12:29:22.72	258.25	42.07	-44.5	-47.1	23.3	6.08e-01	0	41	0	549453824	60	4912
2026-01-08 12:29:24.23	259.15	42.10	-44.3	-46.9	23.5	6.06e-01	0	41	0	552075264	60	4766
2026-01-08 12:29:24.95	259.58	42.10	-44.4	-46.9	23.5	6.06e-01	0	41	0	553648128	60	4792
2026-01-08 12:29:26.27	260.37	42.12	-44.6	-47.3	23.2	6.06e-01	0	40	0	556269568	60	4991
2026-01-08 12:29:27.28	260.98	42.12	-44.1	-46.7	23.6	6.07e-01	0	41	0	557842432	60	4668
2026-01-08 12:29:28.28	261.57	42.12	-44.2	-46.8	23.5	6.05e-01	0	41	0	559939584	60	4721
2026-01-08 12:29:29.28	262.17	42.12	-44.4	-47.0	23.3	6.08e-01	0	41	0	561512448	60	4853
2026-01-08 12:29:30.29	262.78	42.12	-44.7	-47.3	23.2	6.07e-01	0	41	0	563609600	60	5023
2026-01-08 12:29:31.29	263.38	42.11	-44.2	-46.8	23.6	6.07e-01	0	40	0	565706752	60	4726
2026-01-08 12:29:32.29	263.97	42.10	-44.0	-46.6	23.7	6.07e-01	0	40	0	567279616	60	4613
2026-01-08 12:29:33.30	264.58	42.08	-44.4	-46.9	23.5	6.07e-01	0	41	0	569376768	59	5080
2026-01-08 12:29:34.30	265.17	42.07	-44.3	-46.8	23.6	6.06e-01	0	41	0	570949632	59	5019
2026-01-08 12:29:35.37	265.81	42.04	-44.4	-46.9	23.5	6.06e-01	0	40	0	573046784	59	5089
2026-01-08 12:29:36.26	266.34	42.02	-44.2	-46.7	23.7	6.07e-01	0	40	0	574619648	59	4948
2026-01-08 12:29:37.30	266.96	41.99	-44.3	-46.9	23.6	6.05e-01	0	41	0	576716800	59	5050
2026-01-08 12:29:38.45	267.64	41.95	-44.6	-47.2	23.2	6.07e-01	0	40	0	578813952	59	5261
2026-01-08 12:29:39.31	268.15	41.92	-44.2	-46.7	23.7	6.06e-01	0	40	0	580386816	59	4974
2026-01-08 12:29:40.46	268.83	41.88	-44.3	-46.9	23.5	6.05e-01	0	40	0	582483968	59	5042
2026-01-08 12:29:41.32	269.33	41.84	-44.3	-46.8	23.5	6.07e-01	0	40	0	584056832	59	5018
2026-01-08 12:29:42.47	270.01	41.79	-44.3	-46.9	23.6	6.06e-01	0	40	0	586678272	59	5044
2026-01-08 12:29:43.33	270.51	41.75	-44.6	-47.2	23.3	6.07e-01	0	40	0	588251136	59	5228
2026-01-08 12:29:44.48	271.18	41.69	-44.3	-46.8	23.7	6.06e-01	0	41	0	590348288	59	4996
2026-01-08 12:29:45.34	271.68	41.65	-44.3	-46.9	23.6	6.07e-01	0	41	0	591921152	59	5066
2026-01-08 12:29:46.48	272.34	41.58	-44.6	-47.2	23.3	6.05e-01	0	40	0	594018304	59	5227
2026-01-08 12:29:47.34	272.84	41.53	-44.3	-46.9	23.6	6.05e-01	0	41	0	595591168	59	5049
2026-01-08 12:29:48.49	273.50	41.45	-44.6	-47.2	23.3	6.06e-01	0	41	0	597688320	59	5227
2026-01-08 12:29:49.35	273.99	41.40	-44.6	-47.2	23.2	6.07e-01	0	41	0	599261184	60	4945
2026-01-08 12:29:50.50	274.65	41.32	-44.5	-47.2	23.2	6.05e-01	0	41	0	601358336	60	4934
2026-01-08 12:29:51.36	275.13	41.25	-44.7	-47.4	23.0	6.10e-01	0	41	0	602931200	60	5051
2026-01-08 12:29:52.63	275.85	41.16	-44.4	-47.0	23.4	6.08e-01	0	40	0	605552640	60	4860
2026-01-08 12:29:53.35	276.25	41.10	-44.3	-46.9	23.5	6.06e-01	0	41	0	606601216	60	4760
2026-01-08 12:29:54.83	277.08	40.98	-44.3	-46.9	23.4	6.06e-01	0	41	0	609746944	60	4812
2026-01-08 12:29:55.55	277.48	40.92	-44.4	-47.0	23.4	6.05e-01	0	41	0	610795520	60	4817
2026-01-08 12:29:56.84	278.19	40.81	-44.6	-47.3	23.1	6.05e-01	0	40	0	613416960	60	4987
2026-01-08 12:29:57.56	278.59	40.74	-44.7	-47.3	23.1	6.07e-01	0	40	0	614465536	60	5027
2026-01-08 12:29:58.85	279.30	40.62	-44.4	-46.9	23.4	6.08e-01	0	41	0	617086976	60	4809
2026-01-08 12:29:59.56	279.68	40.56	-44.4	-47.0	23.4	6.06e-01	0	41	0	618659840	60	4848
2026-01-08 12:30:00.85	280.38	40.43	-44.4	-47.1	23.3	6.04e-01	0	41	0	620756992	60	4888
2026-01-08 12:30:01.57	280.76	40.36	-44.5	-47.2	23.2	6.07e-01	0	41	0	622329856	60	4940
2026-01-08 12:30:02.86	281.45	40.23	-44.4	-46.9	23.5	6.08e-01	0	41	0	624951296	60	4796
2026-01-08 12:30:03.58	281.83	40.15	-44.6	-47.1	23.3	6.06e-01	0	40	0	625999872	60	4921
2026-01-08 12:30:04.86	282.51	40.01	-44.4	-47.1	23.3	6.05e-01	0	40	0	628621312	60	4871
2026-01-08 12:30:05.58	282.88	39.94	-44.4	-47.0	23.4	6.07e-01	0	40	0	629669888	60	4828
2026-01-08 12:30:06.87	283.55	39.79	-44.4	-47.1	23.3	6.09e-01	0	41	0	632291328	60	4883
2026-01-08 12:30:07.58	283.92	39.71	-44.3	-46.9	23.4	6.07e-01	0	40	0	633339904	60	4799
2026-01-08 12:30:08.87	284.58	39.56	-44.5	-47.2	23.3	6.05e-01	0	41	0	635961344	60	4933
2026-01-08 12:30:09.59	284.94	39.48	-44.7	-47.3	23.1	6.08e-01	0	41	0	637534208	60	5017
2026-01-08 12:30:10.88	285.59	39.32	-44.5	-47.1	23.3	6.06e-01	0	41	0	639631360	60	4889
2026-01-08 12:30:11.60	285.95	39.23	-44.3	-46.9	23.5	6.06e-01	0	41	0	641204224	60	4761
2026-01-08 12:30:13.08	286.69	39.05	-44.7	-47.4	23.0	6.08e-01	0	41	0	643825664	60	5090
2026-01-08 12:30:14.07	287.18	38.93	-44.7	-47.4	23.0	6.08e-01	0	41	0	645922816	60	5072
2026-01-08 12:30:15.39	287.82	38.76	-44.5	-47.1	23.3	6.06e-01	0	41	0	648019968	60	4903
2026-01-08 12:30:16.11	288.17	38.66	-44.4	-47.0	23.4	6.04e-01	0	41	0	649592832	60	4818
2026-01-08 12:30:17.40	288.78	38.49	-44.5	-47.2	23.2	6.04e-01	0	40	0	651689984	60	4930
2026-01-08 12:30:18.12	289.13	38.40	-44.6	-47.3	23.1	6.07e-01	0	40	0	653262848	60	5009
2026-01-08 12:30:19.41	289.73	38.22	-44.6	-47.3	23.1	6.08e-01	0	41	0	655884288	60	5026
2026-01-08 12:30:20.13	290.07	38.13	-44.6	-47.2	23.2	6.06e-01	0	40	0	656932864	60	4948
2026-01-08 12:30:21.42	290.67	37.95	-44.6	-47.3	23.2	6.07e-01	0	40	0	659554304	60	4995
2026-01-08 12:30:22.13	290.99	37.85	-44.6	-47.3	23.1	6.09e-01	0	41	0	660602880	60	5016
2026-01-08 12:30:23.42	291.58	37.67	-44.3	-47.0	23.4	6.07e-01	0	40	0	663224320	60	4816
2026-01-08 12:30:24.14	291.91	37.57	-44.1	-46.8	23.6	6.07e-01	0	40	0	664797184	60	4709
2026-01-08 12:30:25.57	292.54	37.36	-44.2	-46.8	23.6	6.07e-01	0	40	0	667418624	60	4721
2026-01-08 12:30:26.29	292.86	37.26	-44.2	-46.8	23.5	6.11e-01	0	40	0	668467200	60	4730
2026-01-08 12:30:27.63	293.45	37.06	-44.2	-46.8	23.6	6.07e-01	0	40	0	671088640	60	4726
2026-01-08 12:30:28.66	293.90	36.91	-44.1	-46.7	23.7	6.07e-01	0	41	0	673185792	60	4653
2026-01-08 12:30:29.96	294.46	36.72	-44.1	-46.7	23.7	6.06e-01	0	40	0	675282944	59	4975
2026-01-08 12:30:30.71	294.77	36.61	-44.1	-46.8	23.6	6.07e-01	0	40	0	676855808	59	4984
2026-01-08 12:30:32.00	295.32	36.41	-44.1	-46.8	23.7	6.06e-01	0	40	0	679477248	59	4993
2026-01-08 12:30:32.71	295.61	36.31	-44.2	-46.8	23.7	6.08e-01	0	40	0	680525824	59	5015
2026-01-08 12:30:34.01	296.15	36.11	-44.3	-46.9	23.6	6.07e-01	0	41	0	683147264	59	5050
2026-01-08 12:30:34.72	296.44	36.00	-44.2	-46.8	23.7	6.05e-01	0	40	0	684195840	59	4989
2026-01-08 12:30:36.01	296.96	35.80	-44.2	-46.8	23.6	6.05e-01	0	40	0	686817280	59	5027
2026-01-08 12:30:36.72	297.25	35.69	-44.0	-46.6	23.8	6.06e-01	0	40	0	688390144	59	4913
2026-01-08 12:30:38.06	297.78	35.48	-43.9	-46.5	23.9	6.07e-01	0	41	0	690487296	59	4836
2026-01-08 12:30:38.78	298.07	35.37	-44.0	-46.6	23.8	6.08e-01	0	40	0	692060160	59	4871
2026-01-08 12:30:40.06	298.57	35.17	-43.9	-46.4	24.0	6.07e-01	0	40	0	694681600	59	4793
2026-01-08 12:30:41.10	298.97	35.01	-43.9	-46.5	23.9	6.06e-01	0	40	0	696254464	59	4830
2026-01-08 12:30:42.46	299.48	34.79	-43.6	-46.1	24.2	6.06e-01	0	40	0	698875904	59	4623
2026-01-08 12:30:43.18	299.76	34.68	-43.5	-46.0	24.3	6.05e-01	0	41	0	700448768	59	4573
2026-01-08 12:30:44.47	300.24	34.48	-43.5	-46.0	24.3	6.06e-01	0	40	0	702545920	58	4849
2026-01-08 12:30:45.19	300.50	34.36	-43.5	-46.1	24.3	6.07e-01	0	40	0	704118784	58	4878
2026-01-08 12:30:46.48	300.98	34.16	-43.5	-46.0	24.3	6.05e-01	0	41	0	706215936	58	4845
2026-01-08 12:30:47.19	301.23	34.04	-43.5	-46.0	24.3	6.06e-01	0	40	0	707788800	58	4858
2026-01-08 12:30:48.48	301.70	33.84	-43.5	-46.0	24.3	6.07e-01	0	40	0	710410240	58	4858
2026-01-08 12:30:49.20	301.95	33.72	-43.5	-46.0	24.3	6.07e-01	0	41	0	711458816	58	4830
2026-01-08 12:30:50.58	302.44	33.50	-43.5	-46.0	24.3	6.07e-01	0	41	0	714080256	58	4842
2026-01-08 12:30:51.30	302.69	33.38	-43.3	-45.7	24.5	6.07e-01	0	40	0	715653120	58	4696
2026-01-08 12:30:52.59	303.13	33.17	-43.2	-45.6	24.6	6.07e-01	0	40	0	717750272	58	4646
2026-01-08 12:30:53.30	303.37	33.06	-43.4	-45.8	24.5	6.07e-01	0	40	0	719323136	58	4743
2026-01-08 12:30:54.74	303.86	32.83	-43.4	-45.9	24.4	6.04e-01	0	40	0	721944576	58	4761
2026-01-08 12:30:55.45	304.10	32.71	-43.3	-45.8	24.5	6.05e-01	0	40	0	722993152	58	4706
2026-01-08 12:30:56.74	304.52	32.50	-43.4	-45.8	24.5	6.05e-01	0	40	0	725614592	58	4707
2026-01-08 12:30:57.46	304.76	32.39	-43.3	-45.7	24.5	6.06e-01	0	41	0	727187456	58	4683
2026-01-08 12:30:58.75	305.17	32.18	-43.3	-45.7	24.5	6.08e-01	0	41	0	729284608	58	4674
2026-01-08 12:30:59.46	305.40	32.06	-43.3	-45.7	24.5	6.07e-01	0	40	0	730857472	58	4681
2026-01-08 12:31:00.75	305.81	31.86	-43.3	-45.7	24.5	6.07e-01	0	41	0	732954624	58	4700
2026-01-08 12:31:01.46	306.03	31.74	-43.4	-45.8	24.5	6.06e-01	0	41	0	734527488	58	4732
2026-01-08 12:31:02.75	306.43	31.53	-43.4	-45.9	24.4	6.05e-01	0	40	0	737148928	58	4771
2026-01-08 12:31:03.47	306.66	31.42	-43.4	-45.9	24.4	6.06e-01	0	41	0	738197504	58	4775
2026-01-08 12:31:04.76	307.05	31.21	-43.5	-45.9	24.3	6.06e-01	0	41	0	740818944	58	4811
2026-01-08 12:31:05.47	307.26	31.09	-43.3	-45.7	24.5	6.09e-01	0	41	0	741867520	58	4680
2026-01-08 12:31:06.77	307.65	30.88	-43.2	-45.6	24.6	6.04e-01	0	41	0	744488960	58	4621
2026-01-08 12:31:07.61	307.90	30.75	-43.3	-45.7	24.5	6.07e-01	0	40	0	746061824	58	4679
2026-01-08 12:31:09.09	308.33	30.51	-43.3	-45.7	24.5	6.05e-01	0	41	0	748683264	58	4700
2026-01-08 12:31:09.81	308.54	30.39	-43.3	-45.7	24.5	6.08e-01	0	41	0	750256128	58	4665
2026-01-08 12:31:11.10	308.90	30.19	-43.4	-45.8	24.5	6.07e-01	0	41	0	752353280	58	4710
2026-01-08 12:31:11.82	309.11	30.07	-43.4	-45.8	24.5	6.08e-01	0	41	0	753926144	58	4740
2026-01-08 12:31:13.10	309.47	29.87	-43.6	-46.0	24.3	6.06e-01	0	41	0	756547584	58	4832
2026-01-08 12:31:13.88	309.68	29.74	-43.7	-46.1	24.2	6.07e-01	0	41	0	757596160	58	4917
2026-01-08 12:31:15.17	310.04	29.54	-43.7	-46.1	24.2	6.05e-01	0	40	0	760217600	58	4921
2026-01-08 12:31:15.98	310.25	29.41	-43.6	-46.0	24.2	6.06e-01	0	40	0	761790464	58	4858
2026-01-08 12:31:17.12	310.56	29.23	-43.6	-46.0	24.3	6.05e-01	0	40	0	763887616	58	4839
2026-01-08 12:31:18.21	310.85	29.05	-43.5	-45.9	24.4	6.08e-01	0	40	0	765984768	58	4804
2026-01-08 12:31:19.24	311.12	28.89	-43.5	-45.9	24.4	6.06e-01	0	40	0	768081920	58	4789
2026-01-08 12:31:20.24	311.38	28.73	-43.6	-46.0	24.3	6.09e-01	0	40	0	769654784	58	4830
2026-01-08 12:31:21.25	311.64	28.57	-43.6	-46.1	24.1	6.05e-01	0	41	0	771751936	58	4890
2026-01-08 12:31:22.25	311.90	28.42	-43.7	-46.1	24.1	6.06e-01	0	41	0	773324800	58	4910
2026-01-08 12:31:23.25	312.15	28.26	-43.5	-46.0	24.3	6.06e-01	0	41	0	775421952	58	4854
2026-01-08 12:31:24.26	312.40	28.10	-43.6	-46.1	24.2	6.06e-01	0	40	0	776994816	58	4919
2026-01-08 12:31:25.26	312.65	27.95	-43.5	-46.2	24.2	6.06e-01	0	40	0	779091968	58	4929
2026-01-08 12:31:26.26	312.89	27.79	-43.5	-46.1	24.2	6.05e-01	0	41	0	781189120	58	4921
2026-01-08 12:31:27.26	313.13	27.64	-43.5	-46.2	24.1	6.08e-01	0	41	0	782761984	58	4967
2026-01-08 12:31:28.26	313.37	27.48	-43.4	-46.2	24.1	6.07e-01	0	41	0	784859136	58	4955
2026-01-08 12:31:29.26	313.61	27.33	-43.5	-46.3	24.0	6.04e-01	0	40	0	786956288	58	5000
2026-01-08 12:31:30.29	313.85	27.17	-43.6	-46.4	24.0	6.07e-01	0	41	0	788529152	58	5053
2026-01-08 12:31:31.29	314.09	27.02	-43.7	-46.5	23.8	6.07e-01	0	40	0	790626304	58	5143
2026-01-08 12:31:32.34	314.33	26.86	-43.8	-46.5	23.9	6.06e-01	0	41	0	792199168	58	5133
2026-01-08 12:31:33.20	314.53	26.72	-43.9	-46.5	23.8	6.08e-01	0	40	0	793772032	58	5139
2026-01-08 12:31:34.60	314.84	26.51	-44.0	-46.6	23.8	6.05e-01	0	40	0	796393472	58	5196
2026-01-08 12:31:35.32	315.00	26.40	-44.0	-46.6	23.8	6.07e-01	0	41	0	797966336	58	5175
2026-01-08 12:31:36.61	315.29	26.21	-43.9	-46.5	23.9	6.06e-01	0	40	0	800587776	58	5113
2026-01-08 12:31:37.32	315.44	26.10	-43.9	-46.4	23.9	6.06e-01	0	40	0	801636352	58	5080
2026-01-08 12:31:38.61	315.72	25.91	-43.9	-46.5	23.9	6.08e-01	0	41	0	804257792	58	5129
2026-01-08 12:31:39.36	315.89	25.80	-44.0	-46.6	23.8	6.06e-01	0	40	0	805830656	58	5172
2026-01-08 12:31:40.65	316.16	25.60	-44.0	-46.6	23.8	6.08e-01	0	40	0	807927808	58	5190
2026-01-08 12:31:41.37	316.31	25.50	-44.0	-46.6	23.7	6.08e-01	0	40	0	809500672	58	5203
2026-01-08 12:31:42.66	316.58	25.31	-44.0	-46.6	23.7	6.07e-01	0	41	0	811597824	58	5200
2026-01-08 12:31:43.37	316.73	25.20	-44.1	-46.7	23.7	6.06e-01	0	40	0	813170688	58	5263
2026-01-08 12:31:44.66	316.99	25.01	-44.1	-46.8	23.6	6.06e-01	0	41	0	815792128	58	5282
2026-01-08 12:31:45.38	317.14	24.91	-44.0	-46.7	23.7	6.07e-01	0	40	0	816840704	58	5230
2026-01-08 12:31:46.67	317.40	24.72	-44.0	-46.7	23.7	6.07e-01	0	40	0	819462144	58	5224
2026-01-08 12:31:47.38	317.54	24.62	-44.1	-46.8	23.6	6.07e-01	0	40	0	820510720	58	5285
2026-01-08 12:31:48.67	317.80	24.43	-43.9	-46.6	23.8	6.07e-01	0	41	0	823132160	58	5165
2026-01-08 12:31:49.39	317.94	24.33	-44.0	-46.7	23.7	6.07e-01	0	41	0	824180736	58	5223
2026-01-08 12:31:50.79	318.21	24.13	-44.0	-46.6	23.7	6.05e-01	0	41	0	826802176	58	5193
2026-01-08 12:31:51.51	318.35	24.02	-43.8	-46.5	23.8	6.05e-01	0	40	0	828375040	58	5105
2026-01-08 12:31:52.79	318.59	23.84	-44.0	-46.7	23.7	6.06e-01	0	40	0	830996480	58	5244
2026-01-08 12:31:53.51	318.72	23.74	-43.9	-46.5	23.8	6.08e-01	0	40	0	832045056	58	5131
2026-01-08 12:31:54.80	318.97	23.56	-43.9	-46.5	23.8	6.08e-01	0	40	0	834666496	58	5159
2026-01-08 12:31:55.52	319.10	23.45	-44.0	-46.7	23.7	6.07e-01	0	41	0	835715072	58	5228
2026-01-08 12:31:56.81	319.33	23.27	-44.0	-46.7	23.7	6.06e-01	0	41	0	838336512	58	5252
2026-01-08 12:31:57.52	319.46	23.17	-44.0	-46.8	23.6	6.06e-01	0	40	0	839909376	58	5291
2026-01-08 12:31:58.81	319.69	23.00	-43.9	-46.8	23.6	6.06e-01	0	41	0	842006528	58	5291
2026-01-08 12:31:59.56	319.83	22.89	-43.9	-46.9	23.5	6.08e-01	0	40	0	843579392	58	5341
2026-01-08 12:32:00.85	320.06	22.71	-43.9	-46.8	23.6	6.07e-01	0	40	0	845676544	58	5296
2026-01-08 12:32:01.56	320.18	22.62	-43.9	-46.7	23.6	6.08e-01	0	41	0	847249408	58	5240
2026-01-08 12:32:02.85	320.40	22.44	-43.9	-46.7	23.6	6.07e-01	0	40	0	849870848	58	5245
2026-01-08 12:32:03.57	320.53	22.34	-43.8	-46.6	23.8	6.09e-01	0	40	0	850919424	58	5162
2026-01-08 12:32:04.86	320.75	22.17	-43.9	-46.6	23.7	6.07e-01	0	40	0	853540864	58	5193
2026-01-08 12:32:05.58	320.87	22.07	-43.9	-46.6	23.7	6.06e-01	0	41	0	854589440	58	5195
2026-01-08 12:32:06.86	321.08	21.90	-43.6	-46.4	23.9	6.07e-01	0	41	0	857210880	58	5056
2026-01-08 12:32:07.58	321.20	21.80	-43.7	-46.5	23.8	6.07e-01	0	40	0	858783744	58	5108
2026-01-08 12:32:08.87	321.41	21.63	-43.7	-46.5	23.8	6.08e-01	0	40	0	860880896	58	5129
2026-01-08 12:32:09.59	321.53	21.53	-43.7	-46.6	23.7	6.07e-01	0	40	0	862453760	58	5164
2026-01-08 12:32:11.07	321.77	21.34	-43.8	-46.5	23.8	6.07e-01	0	40	0	865075200	58	5157
2026-01-08 12:32:11.78	321.88	21.24	-43.7	-46.4	23.8	6.08e-01	0	40	0	866648064	58	5094
2026-01-08 12:32:13.15	322.10	21.06	-43.8	-46.5	23.8	6.07e-01	0	40	0	868745216	58	5129
2026-01-08 12:32:13.87	322.21	20.97	-43.9	-46.5	23.8	6.07e-01	0	41	0	870318080	58	5137
2026-01-08 12:32:15.16	322.41	20.80	-43.8	-46.4	23.9	6.06e-01	0	40	0	872939520	58	5089
2026-01-08 12:32:16.21	322.57	20.66	-43.8	-46.4	23.8	6.04e-01	0	40	0	874512384	58	5089
2026-01-08 12:32:17.13	322.71	20.55	-43.9	-46.6	23.8	6.08e-01	0	41	0	876609536	58	5161
2026-01-08 12:32:18.13	322.87	20.42	-43.9	-46.5	23.8	6.07e-01	0	41	0	878182400	58	5134
2026-01-08 12:32:19.13	323.02	20.29	-43.9	-46.5	23.8	6.08e-01	0	40	0	880279552	58	5115
2026-01-08 12:32:20.14	323.17	20.16	-44.0	-46.7	23.7	6.06e-01	0	41	0	881852416	58	5221
2026-01-08 12:32:21.14	323.31	20.03	-43.8	-46.4	23.8	6.08e-01	0	41	0	883949568	58	5099
2026-01-08 12:32:22.17	323.46	19.90	-43.8	-46.5	23.9	6.05e-01	0	40	0	886046720	58	5101
2026-01-08 12:32:23.20	323.61	19.77	-43.7	-46.4	23.8	6.06e-01	0	40	0	887619584	58	5099
2026-01-08 12:32:24.21	323.76	19.65	-43.7	-46.5	23.8	6.06e-01	0	40	0	889716736	58	5144
2026-01-08 12:32:25.28	323.91	19.51	-43.7	-46.6	23.7	6.07e-01	0	40	0	891813888	58	5169
2026-01-08 12:32:26.18	324.04	19.40	-43.5	-46.4	23.9	6.07e-01	0	40	0	893386752	58	5045
2026-01-08 12:32:27.19	324.18	19.28	-43.6	-46.4	23.9	6.08e-01	0	41	0	895483904	58	5050
2026-01-08 12:32:28.19	324.32	19.15	-43.5	-46.2	24.0	6.09e-01	0	40	0	897056768	58	4976
2026-01-08 12:32:29.19	324.46	19.03	-43.6	-46.2	24.0	6.07e-01	0	40	0	899153920	58	4963
2026-01-08 12:32:30.44	324.63	18.88	-43.7	-46.3	24.0	6.08e-01	0	40	0	901251072	58	4987
2026-01-08 12:32:31.34	324.75	18.77	-43.8	-46.2	24.0	6.07e-01	0	40	0	902823936	58	4983
2026-01-08 12:32:32.34	324.88	18.65	-43.7	-46.2	24.0	6.06e-01	0	40	0	904921088	58	4975
2026-01-08 12:32:33.55	325.05	18.50	-43.8	-46.4	23.9	6.07e-01	0	41	0	907018240	58	5042
2026-01-08 12:32:34.44	325.16	18.40	-43.8	-46.3	23.9	6.06e-01	0	41	0	909115392	58	5021
2026-01-08 12:32:35.58	325.31	18.26	-43.8	-46.4	23.8	6.06e-01	0	40	0	911212544	58	5069
2026-01-08 12:32:36.44	325.42	18.16	-43.8	-46.5	23.7	6.07e-01	0	40	0	912785408	58	5117
2026-01-08 12:32:37.59	325.57	18.02	-43.7	-46.4	23.9	6.09e-01	0	41	0	914882560	58	5059
2026-01-08 12:32:38.45	325.68	17.92	-43.7	-46.4	23.8	6.07e-01	0	41	0	916455424	58	5085
2026-01-08 12:32:39.60	325.83	17.78	-43.6	-46.4	23.8	6.06e-01	0	40	0	918552576	58	5064
2026-01-08 12:32:40.65	325.96	17.66	-43.6	-46.4	23.8	6.07e-01	0	41	0	920649728	58	5078
2026-01-08 12:32:41.52	326.07	17.56	-43.6	-46.4	23.8	6.08e-01	0	41	0	922222592	58	5093
2026-01-08 12:32:42.67	326.21	17.43	-43.5	-46.4	23.8	6.06e-01	0	40	0	924319744	58	5054
2026-01-08 12:32:43.82	326.35	17.30	-43.6	-46.4	23.8	6.09e-01	0	40	0	926416896	58	5081
2026-01-08 12:32:44.85	326.48	17.18	-43.6	-46.4	23.8	6.05e-01	0	40	0	928514048	58	5092
2026-01-08 12:32:45.85	326.60	17.06	-43.6	-46.5	23.8	6.04e-01	0	40	0	930086912	58	5119
2026-01-08 12:32:46.85	326.72	16.95	-43.6	-46.5	23.7	6.04e-01	0	40	0	932184064	58	5143
2026-01-08 12:32:47.86	326.84	16.83	-43.4	-46.4	23.8	6.03e-01	0	40	0	933756928	58	5052
2026-01-08 12:32:48.86	326.96	16.72	-43.5	-46.4	23.8	6.02e-01	0	40	0	935854080	58	5080
2026-01-08 12:32:49.86	327.07	16.61	-43.5	-46.6	23.7	6.02e-01	0	40	0	937951232	58	5166
2026-01-08 12:32:50.86	327.19	16.50	-43.4	-46.4	23.8	6.02e-01	0	40	0	939524096	58	5084
2026-01-08 12:32:51.86	327.31	16.39	-43.4	-46.4	23.8	6.00e-01	0	41	0	941621248	58	5076
2026-01-08 12:32:52.87	327.42	16.27	-43.4	-46.3	23.9	6.03e-01	0	40	0	943718400	58	5018
2026-01-08 12:32:53.87	327.53	16.16	-43.5	-46.4	23.8	6.03e-01	0	40	0	945291264	58	5062
2026-01-08 12:32:54.87	327.65	16.05	-43.7	-46.5	23.7	6.03e-01	0	41	0	947388416	58	5114
2026-01-08 12:32:55.88	327.76	15.94	-43.7	-46.4	23.8	6.03e-01	0	40	0	948961280	58	5092
2026-01-08 12:32:56.88	327.87	15.83	-43.6	-46.3	23.9	6.03e-01	0	40	0	951058432	58	5015
2026-01-08 12:32:57.88	327.98	15.72	-43.7	-46.4	23.8	6.03e-01	0	40	0	952631296	58	5061
2026-01-08 12:32:58.88	328.09	15.62	-43.9	-46.4	23.8	6.02e-01	0	40	0	954728448	58	5094
2026-01-08 12:32:59.89	328.20	15.51	-43.8	-46.3	23.9	6.02e-01	0	40	0	956825600	58	5030
2026-01-08 12:33:00.89	328.31	15.40	-43.8	-46.3	23.9	6.02e-01	0	40	0	958398464	58	5018
2026-01-08 12:33:01.90	328.42	15.29	-43.9	-46.4	23.8	6.01e-01	0	40	0	960495616	58	5057
2026-01-08 12:33:02.90	328.52	15.18	-43.9	-46.4	23.8	6.02e-01	0	40	0	962068480	58	5072
2026-01-08 12:33:03.90	328.63	15.08	-43.9	-46.5	23.7	6.05e-01	0	40	0	964165632	58	5105
2026-01-08 12:33:04.91	328.73	14.97	-43.8	-46.4	23.7	6.05e-01	0	40	0	965738496	58	5060
2026-01-08 12:33:05.91	328.84	14.87	-43.8	-46.4	23.8	6.03e-01	0	41	0	967835648	58	5066
2026-01-08 12:33:06.92	328.94	14.76	-43.9	-46.5	23.7	6.03e-01	0	40	0	969932800	58	5156
2026-01-08 12:33:07.92	329.04	14.66	-43.8	-46.4	23.7	6.05e-01	0	40	0	971505664	58	5073
2026-01-08 12:33:08.92	329.14	14.55	-43.9	-46.6	23.6	6.05e-01	0	40	0	973602816	58	5160
2026-01-08 12:33:09.97	329.25	14.44	-43.9	-46.6	23.6	6.03e-01	0	40	0	975699968	58	5184
2026-01-08 12:33:10.86	329.34	14.35	-43.9	-46.7	23.5	6.05e-01	0	40	0	977272832	58	5222
2026-01-08 12:33:12.00	329.45	14.23	-43.9	-46.7	23.5	6.04e-01	0	40	0	979369984	58	5258
2026-01-08 12:33:12.86	329.54	14.15	-43.8	-46.6	23.6	6.03e-01	0	40	0	980942848	58	5179
2026-01-08 12:33:14.01	329.65	14.03	-43.8	-46.5	23.7	6.06e-01	0	40	0	983040000	58	5130
2026-01-08 12:33:14.86	329.73	13.94	-43.8	-46.5	23.7	6.06e-01	0	40	0	984612864	58	5131
2026-01-08 12:33:16.01	329.85	13.83	-43.9	-46.6	23.6	6.02e-01	0	40	0	986710016	58	5189
2026-01-08 12:33:16.87	329.93	13.74	-44.0	-46.7	23.5	6.04e-01	0	40	0	988282880	58	5249
2026-01-08 12:33:18.01	330.04	13.63	-44.0	-46.7	23.5	6.07e-01	0	40	0	990380032	58	5262
2026-01-08 12:33:18.88	330.12	13.54	-44.0	-46.7	23.5	6.04e-01	0	40	0	991952896	58	5244
2026-01-08 12:33:20.02	330.23	13.43	-44.1	-46.9	23.4	6.05e-01	0	40	0	994574336	58	5364
2026-01-08 12:33:20.88	330.31	13.34	-44.0	-46.8	23.4	6.05e-01	0	41	0	996147200	58	5282
2026-01-08 12:33:22.11	330.42	13.22	-44.0	-46.8	23.2	6.05e-01	0	40	0	998244352	58	5305
2026-01-08 12:33:22.97	330.50	13.13	-44.1	-46.8	23.3	6.04e-01	0	40	0	999817216	58	5333
2026-01-08 12:33:24.12	330.61	13.02	-44.1	-46.8	23.4	6.05e-01	0	40	0	1001914368	58	5334
2026-01-08 12:33:24.98	330.68	12.94	-44.0	-46.8	23.3	6.01e-01	0	40	0	1003487232	58	5320
2026-01-08 12:33:26.12	330.79	12.83	-43.9	-46.7	23.5	6.04e-01	0	40	0	1005584384	58	5223
2026-01-08 12:33:27.01	330.87	12.74	-44.0	-46.7	23.4	6.04e-01	0	41	0	1007681536	58	5277
2026-01-08 12:33:28.15	330.97	12.63	-44.0	-46.7	23.4	6.06e-01	0	41	0	1009778688	58	5276
2026-01-08 12:33:29.01	331.04	12.55	-44.0	-46.7	23.4	6.06e-01	0	40	0	1011351552	58	5272
2026-01-08 12:33:30.16	331.14	12.44	-44.1	-46.8	23.4	6.04e-01	0	40	0	1013448704	58	5285
2026-01-08 12:33:31.02	331.22	12.36	-44.1	-46.8	23.4	6.04e-01	0	40	0	1015021568	58	5281
2026-01-08 12:33:32.16	331.32	12.25	-44.0	-46.7	23.5	6.04e-01	0	40	0	1017118720	59	4957
2026-01-08 12:33:33.02	331.39	12.17	-44.1	-46.8	23.3	6.05e-01	0	41	0	1018691584	59	5038
2026-01-08 12:33:34.17	331.49	12.06	-44.1	-46.8	23.4	6.03e-01	0	40	0	1020788736	59	5023
2026-01-08 12:33:35.03	331.56	11.98	-44.3	-47.0	23.2	6.02e-01	0	40	0	1022361600	59	5109
2026-01-08 12:33:36.18	331.66	11.87	-44.4	-47.1	23.1	6.03e-01	0	40	0	1024458752	59	5191
2026-01-08 12:33:37.04	331.73	11.79	-44.3	-47.0	23.2	6.01e-01	0	40	0	1026031616	59	5136
2026-01-08 12:33:38.19	331.83	11.68	-44.2	-46.9	23.3	6.03e-01	0	40	0	1028653056	59	5070
2026-01-08 12:33:39.05	331.90	11.60	-44.3	-47.0	23.2	6.02e-01	0	40	0	1030225920	59	5138
2026-01-08 12:33:40.23	332.00	11.49	-44.3	-47.0	23.2	6.05e-01	0	40	0	1032323072	59	5139
2026-01-08 12:33:41.08	332.07	11.42	-44.2	-47.0	23.2	6.01e-01	0	40	0	1033895936	59	5114
2026-01-08 12:33:42.33	332.17	11.30	-44.1	-46.9	22.1	6.01e-01	0	40	0	1035993088	59	5063
2026-01-08 12:33:43.18	332.24	11.23	-44.2	-46.9	23.2	6.04e-01	0	40	0	1037565952	59	5098
2026-01-08 12:33:44.39	332.33	11.12	-44.2	-47.1	23.1	6.03e-01	0	40	0	1040187392	59	5186
2026-01-08 12:33:45.25	332.40	11.04	-44.2	-47.1	23.1	6.03e-01	0	40	0	1041760256	59	5198
2026-01-08 12:33:46.40	332.49	10.93	-44.4	-47.4	22.8	6.05e-01	0	40	0	1043857408	59	5349
2026-01-08 12:33:47.26	332.56	10.86	-44.4	-47.3	22.9	6.02e-01	0	40	0	1045430272	59	5284
2026-01-08 12:33:48.53	332.66	10.74	-44.3	-47.2	23.0	6.03e-01	0	40	0	1048051712	59	5259
2026-01-08 12:33:49.25	332.72	10.68	-44.4	-47.4	22.9	6.04e-01	0	40	0	1049100288	59	5343
2026-01-08 12:33:50.74	332.83	10.55	-44.4	-47.3	22.8	6.04e-01	0	40	0	1051721728	59	5311
2026-01-08 12:33:51.46	332.89	10.48	-44.3	-47.2	23.0	6.03e-01	0	40	0	1053294592	59	5219
2026-01-08 12:33:52.75	332.98	10.37	-44.4	-47.4	22.8	6.04e-01	0	40	0	1055916032	59	5361
2026-01-08 12:33:53.47	333.04	10.31	-44.4	-47.4	22.7	6.03e-01	0	41	0	1056964608	59	5363
2026-01-08 12:33:54.76	333.14	10.19	-44.6	-47.7	22.5	6.01e-01	0	40	0	1059586048	59	5546
2026-01-08 12:33:55.48	333.19	10.13	-44.4	-47.5	22.7	6.03e-01	0	40	0	1060634624	59	5430
2026-01-08 12:33:56.77	333.29	10.02	-44.4	-47.6	22.6	6.05e-01	0	40	0	1063256064	59	5503
2026-01-08 12:33:57.48	333.34	9.96	-44.4	-47.7	22.5	6.05e-01	0	40	0	1064828928	59	5568
2026-01-08 12:33:58.78	333.43	9.85	-44.4	-47.7	22.5	6.03e-01	0	40	0	1066926080	59	5570
2026-01-08 12:33:59.49	333.48	9.78	-44.4	-47.7	22.5	6.05e-01	0	40	0	1068498944	59	5553
2026-01-08 12:34:00.78	333.58	9.67	-44.6	-48.0	22.3	6.03e-01	0	40	0	1070596096	59	5729
2026-01-08 12:34:01.50	333.63	9.61	-44.6	-47.9	22.3	6.02e-01	0	40	0	1072168960	59	5697
2026-01-08 12:34:02.79	333.72	9.50	-44.5	-47.8	22.3	6.03e-01	0	40	0	1074266112	60	5314
2026-01-08 12:34:03.51	333.77	9.44	-44.6	-47.7	22.3	6.04e-01	0	40	0	1075838976	60	5271
2026-01-08 12:34:04.80	333.86	9.33	-44.7	-47.9	22.2	6.05e-01	0	40	0	1078460416	60	5352
2026-01-08 12:34:05.72	333.93	9.25	-44.6	-47.7	22.4	6.04e-01	0	40	0	1080033280	60	5241
2026-01-08 12:34:06.73	334.00	9.17	-44.7	-47.8	22.3	6.02e-01	0	40	0	1082130432	60	5289
2026-01-08 12:34:07.73	334.07	9.09	-44.7	-47.9	22.2	6.04e-01	0	40	0	1083703296	60	5346
2026-01-08 12:34:08.73	334.14	9.00	-46.8	-51.5	19.3	6.04e-01	0	40	0	1085800448	64	6467
2026-01-08 12:34:09.74	334.21	8.92	-50.9	-71.1	3.9	7.48e-01	0	40	104	1086324736	72	38959
2026-01-08 12:34:10.74	334.28	8.84	-50.2	-71.4	3.8	7.44e-01	0	40	104	1086324736	72	40297
2026-01-08 12:34:11.75	334.35	8.75	-50.0	-71.8	3.7	7.45e-01	0	40	104	1086324736	72	42327
2026-01-08 12:34:12.75	334.41	8.67	-51.3	-71.9	3.9	7.44e-01	0	40	104	1086324736	73	40177
2026-01-08 12:34:13.76	334.48	8.59	-51.3	-72.0	3.9	7.43e-01	0	40	104	1086324736	73	40704
2026-01-08 12:34:14.76	334.55	8.51	-50.9	-72.0	3.8	7.48e-01	0	40	104	1086324736	72	42968
2026-01-08 12:34:15.77	334.61	8.42	-51.2	-72.0	3.8	7.48e-01	0	40	104	1086324736	72	43328
2026-01-08 12:34:16.77	334.68	8.34	-50.6	-72.1	3.8	7.45e-01	0	40	104	1086324736	73	41051
2026-01-08 12:34:17.77	334.75	8.26	-51.3	-72.1	3.8	7.49e-01	0	40	104	1086324736	73	41128
2026-01-08 12:34:18.78	334.81	8.18	-51.9	-72.1	3.8	7.44e-01	0	40	104	1086324736	74	38920
2026-01-08 12:34:19.78	334.88	8.10	-51.5	-72.1	3.8	7.45e-01	0	40	104	1086324736	74	39020
2026-01-08 12:34:20.79	334.94	8.02	-51.4	-72.1	3.8	7.47e-01	0	40	104	1086324736	74	39021
2026-01-08 12:34:21.79	335.01	7.94	-51.5	-72.1	3.8	7.45e-01	0	40	104	1086324736	74	39102
2026-01-08 12:34:22.80	335.07	7.86	-52.2	-72.1	3.8	7.46e-01	0	41	104	1086324736	75	36891
2026-01-08 12:34:23.80	335.13	7.78	-52.4	-72.1	3.8	7.45e-01	0	41	104	1086324736	75	36858
2026-01-08 12:34:24.80	335.20	7.70	-52.4	-72.2	3.8	7.47e-01	0	40	104	1086324736	75	36967
2026-01-08 12:34:25.81	335.26	7.62	-52.3	-72.1	3.8	7.46e-01	0	41	104	1086324736	75	36887
2026-01-08 12:34:26.81	335.32	7.54	-52.2	-72.1	3.8	7.48e-01	0	41	104	1086324736	75	36853
2026-01-08 12:34:27.82	335.39	7.46	-52.2	-72.1	3.8	7.49e-01	0	40	104	1086324736	75	36833
2026-01-08 12:34:28.82	335.45	7.39	-51.8	-72.1	3.8	7.46e-01	0	41	104	1086324736	75	36715
2026-01-08 12:34:29.82	335.51	7.31	-51.9	-72.1	3.8	7.49e-01	0	41	104	1086324736	75	36637
2026-01-08 12:34:30.83	335.57	7.23	-51.9	-72.1	3.8	7.46e-01	0	41	104	1086324736	75	36596
2026-01-08 12:34:31.83	335.63	7.15	-51.7	-72.1	3.8	7.48e-01	0	40	104	1086324736	75	36634
2026-01-08 12:34:32.84	335.69	7.07	-50.9	-71.9	3.8	7.49e-01	0	40	104	1086324736	73	40331
2026-01-08 12:34:33.84	335.75	7.00	-50.9	-72.1	3.8	7.46e-01	0	40	104	1086324736	73	41016
2026-01-08 12:34:34.85	335.81	6.92	-50.9	-72.0	3.8	7.45e-01	0	41	104	1086324736	73	40875
2026-01-08 12:34:35.85	335.87	6.84	-50.9	-72.0	3.8	7.46e-01	0	40	104	1086324736	73	40824
2026-01-08 12:34:36.85	335.93	6.77	-50.9	-72.0	3.8	7.50e-01	0	40	104	1086324736	73	40917
2026-01-08 12:34:37.86	335.99	6.69	-50.9	-72.0	3.8	7.45e-01	0	41	104	1086324736	73	40875
2026-01-08 12:34:38.86	336.05	6.62	-50.9	-72.0	3.8	7.46e-01	0	41	104	1086324736	73	40897
2026-01-08 12:34:39.86	336.11	6.54	-50.9	-72.0	3.8	7.48e-01	0	41	104	1086324736	73	40837
2026-01-08 12:34:40.87	336.17	6.46	-50.9	-72.0	3.8	7.44e-01	0	41	104	1086324736	73	40880
2026-01-08 12:34:41.87	336.22	6.39	-50.9	-72.0	3.8	7.45e-01	0	41	104	1086324736	73	40893
2026-01-08 12:34:42.88	336.28	6.31	-50.9	-72.0	3.8	7.47e-01	0	40	104	1086324736	73	40803
2026-01-08 12:34:43.88	336.34	6.24	-50.9	-72.0	3.8	7.45e-01	0	40	104	1086324736	73	40811
2026-01-08 12:34:44.88	336.40	6.16	-50.9	-72.0	3.8	7.46e-01	0	41	104	1086324736	73	40818
2026-01-08 12:34:45.89	336.45	6.09	-50.9	-72.0	3.8	7.48e-01	0	40	104	1086324736	73	40881
2026-01-08 12:34:46.89	336.51	6.02	-50.9	-72.0	3.8	7.43e-01	0	41	104	1086324736	73	40920
2026-01-08 12:34:47.89	336.56	5.94	-50.9	-72.0	3.8	7.45e-01	0	40	104	1086324736	73	40838
2026-01-08 12:34:48.90	336.62	5.87	-50.8	-72.0	3.8	7.46e-01	0	41	104	1086324736	73	40781
2026-01-08 12:34:49.90	336.68	5.79	-50.8	-72.0	3.8	7.48e-01	0	41	104	1086324736	73	40756
2026-01-08 12:34:50.91	336.73	5.72	-50.8	-72.0	3.8	7.44e-01	0	40	104	1086324736	73	40736
2026-01-08 12:34:51.91	336.79	5.65	-50.8	-72.0	3.8	7.47e-01	0	40	104	1086324736	73	40817
2026-01-08 12:34:52.92	336.84	5.57	-50.8	-72.0	3.8	7.47e-01	0	41	104	1086324736	73	40933
2026-01-08 12:34:53.92	336.90	5.50	-50.8	-72.0	3.8	7.47e-01	0	40	104	1086324736	73	40816
2026-01-08 12:34:54.93	336.95	5.43	-50.9	-72.0	3.8	7.43e-01	0	41	104	1086324736	73	40760
2026-01-08 12:34:55.93	337.00	5.36	-50.8	-72.0	3.8	7.43e-01	0	41	104	1086324736	73	40809
2026-01-08 12:34:56.93	337.06	5.28	-50.9	-72.0	3.8	7.45e-01	0	40	104	1086324736	73	40806
2026-01-08 12:34:57.94	337.11	5.21	-50.9	-72.0	3.8	7.47e-01	0	41	104	1086324736	73	40885
2026-01-08 12:34:58.94	337.16	5.14	-50.9	-72.0	3.8	7.47e-01	0	40	104	1086324736	73	40763
2026-01-08 12:34:59.95	337.22	5.07	-50.8	-72.0	3.8	7.46e-01	0	41	104	1086324736	73	40876
2026-01-08 12:35:00.95	337.27	5.00	-50.8	-72.0	3.8	7.47e-01	0	41	104	1086324736	73	40749

#Closed at: 2026-01-08 12:35:01
#Recorded file [1086 MB]: D:/Data/31040_260108_152358.dat