passes_logs/2026/01/08/T1/T1__20260108_024701_FENGYUN_3D_rec.log

#Pass ID: 20260108_024701_FENGYUN 3D
#Satellite: FENGYUN 3D
#Configuration: FENGYUN 3D
#almurnet v.1.7.20251203
#Start time: 2026-01-08 02:47:02

#Version: 2.0.20230620
#Station: T1
#Location: 37.570604 lon 55.790049 lat
#TLE: 1 43010U 17072A   26007.88538054  .00000150  00000+0  92867-4 0  9992
#TLE: 2 43010  98.9932 339.5913 0002105 121.8756 238.2625 14.19694026422245

#Time	Az	El	Level	Level2	SNR	BER	BlckErr	Temp	State	Recorded	gain1	gain2
2026-01-08 02:47:02.86	10.58	5.07	-49.3	-63.0	3.8	8.47e-01	0	40	0	0	69	18195
2026-01-08 02:47:03.86	10.53	5.14	-49.3	-63.0	3.8	8.46e-01	0	40	104	0	69	18123
2026-01-08 02:47:04.86	10.48	5.20	-49.3	-63.0	3.8	8.47e-01	0	40	104	0	69	18211
2026-01-08 02:47:05.87	10.43	5.27	-49.4	-63.0	3.8	8.47e-01	0	41	104	0	69	18196
2026-01-08 02:47:06.87	10.38	5.34	-49.3	-63.0	3.8	8.46e-01	0	41	104	0	69	18169
2026-01-08 02:47:07.87	10.33	5.41	-49.4	-63.0	3.8	8.46e-01	0	41	104	0	69	18117
2026-01-08 02:47:08.88	10.28	5.48	-49.4	-63.0	3.8	8.47e-01	0	41	104	0	69	18279
2026-01-08 02:47:09.88	10.23	5.55	-49.3	-63.0	3.8	8.46e-01	0	41	104	0	69	18205
2026-01-08 02:47:10.89	10.17	5.61	-49.4	-63.0	3.8	8.47e-01	0	41	104	0	69	18241
2026-01-08 02:47:11.89	10.12	5.68	-49.3	-63.0	3.8	8.47e-01	0	41	104	0	69	18099
2026-01-08 02:47:12.89	10.07	5.75	-49.4	-63.0	3.8	8.48e-01	0	41	104	0	69	18099
2026-01-08 02:47:13.90	10.02	5.82	-49.4	-63.0	3.8	8.46e-01	0	41	104	0	69	18184
2026-01-08 02:47:14.90	9.97	5.89	-49.4	-62.9	3.8	8.46e-01	0	41	104	0	69	18067
2026-01-08 02:47:15.91	9.91	5.96	-49.3	-63.0	3.8	8.46e-01	0	41	104	0	69	18142
2026-01-08 02:47:16.91	9.86	6.03	-49.3	-62.9	3.8	8.48e-01	0	41	104	0	69	18036
2026-01-08 02:47:17.92	9.81	6.10	-49.3	-62.9	3.8	8.47e-01	0	41	104	0	69	18037
2026-01-08 02:47:18.92	9.75	6.17	-49.3	-63.0	3.8	8.48e-01	0	41	104	0	69	18171
2026-01-08 02:47:19.93	9.70	6.24	-49.3	-63.0	3.8	8.46e-01	0	41	104	0	69	18123
2026-01-08 02:47:20.93	9.64	6.31	-49.3	-63.0	3.8	8.47e-01	0	41	104	0	69	18147
2026-01-08 02:47:21.93	9.59	6.38	-49.4	-62.9	3.8	8.46e-01	0	41	104	0	69	18004
2026-01-08 02:47:22.94	9.53	6.45	-49.3	-62.9	3.8	8.47e-01	0	41	104	0	69	18018
2026-01-08 02:47:23.94	9.48	6.52	-49.3	-62.9	3.8	8.46e-01	0	41	104	0	69	17986
2026-01-08 02:47:24.95	9.42	6.60	-49.3	-62.8	3.8	8.47e-01	0	41	104	0	69	17769
2026-01-08 02:47:25.95	9.37	6.67	-49.3	-62.6	3.8	8.48e-01	0	41	104	0	69	17453
2026-01-08 02:47:26.96	9.31	6.74	-49.3	-62.3	3.8	8.47e-01	0	41	104	0	69	16829
2026-01-08 02:47:27.96	9.26	6.81	-49.3	-61.9	3.8	8.46e-01	0	41	104	0	69	16089
2026-01-08 02:47:28.96	9.20	6.88	-49.2	-61.4	3.8	8.48e-01	0	41	104	0	69	15166
2026-01-08 02:47:29.97	9.14	6.95	-49.2	-60.8	3.9	8.45e-01	0	41	104	0	69	14101
2026-01-08 02:47:30.97	9.09	7.03	-49.1	-60.2	4.0	8.43e-01	0	42	104	0	69	13181
2026-01-08 02:47:31.98	9.03	7.10	-49.1	-59.6	4.2	8.39e-01	0	42	0	0	69	12243
2026-01-08 02:47:32.98	8.97	7.17	-49.0	-59.0	4.3	8.35e-01	0	42	0	0	69	11543
2026-01-08 02:47:33.99	8.91	7.24	-49.0	-58.8	4.4	8.29e-01	0	42	0	0	69	11223
2026-01-08 02:47:34.99	8.85	7.32	-48.9	-58.6	4.5	8.24e-01	0	42	0	0	69	10986
2026-01-08 02:47:36.00	8.79	7.39	-48.9	-58.7	4.4	8.24e-01	0	42	0	0	69	11082
2026-01-08 02:47:37.00	8.74	7.46	-49.0	-58.9	4.3	8.30e-01	0	42	0	0	69	11403
2026-01-08 02:47:38.00	8.68	7.54	-49.1	-59.4	4.2	8.34e-01	0	42	0	0	69	12051
2026-01-08 02:47:39.01	8.62	7.61	-49.1	-60.1	4.0	8.42e-01	0	42	0	0	69	13031
2026-01-08 02:47:40.01	8.56	7.68	-49.2	-60.9	3.8	8.44e-01	0	42	104	0	69	14347
2026-01-08 02:47:41.02	8.50	7.76	-49.3	-61.5	3.8	8.47e-01	0	42	104	0	69	15268
2026-01-08 02:47:42.02	8.44	7.83	-49.3	-61.6	3.8	8.46e-01	0	42	104	0	69	15490
2026-01-08 02:47:43.02	8.37	7.91	-49.3	-61.1	3.8	8.45e-01	0	42	104	0	69	14685
2026-01-08 02:47:44.03	8.31	7.98	-49.1	-60.1	3.9	8.44e-01	0	42	104	0	69	13106
2026-01-08 02:47:45.03	8.25	8.05	-49.0	-58.6	4.5	8.26e-01	0	42	0	0	69	10994
2026-01-08 02:47:46.04	8.19	8.13	-48.7	-57.0	5.3	7.64e-01	0	42	0	0	69	9128
2026-01-08 02:47:47.04	8.13	8.20	-48.3	-55.4	6.4	3.86e-01	0	42	0	3145728	68	8074
2026-01-08 02:47:48.05	8.06	8.28	-47.8	-53.9	7.7	1.31e-01	0	42	0	8388608	67	7141
2026-01-08 02:47:49.05	8.00	8.36	-47.3	-52.6	9.0	4.70e-02	0	42	0	14680064	66	6558
2026-01-08 02:47:50.05	7.94	8.43	-46.7	-51.4	10.2	9.78e-03	0	42	0	19922944	65	6002
2026-01-08 02:47:51.06	7.87	8.51	-46.3	-50.5	11.2	3.17e-03	0	42	0	25165824	64	5748
2026-01-08 02:47:52.06	7.81	8.58	-46.0	-49.9	11.9	7.21e-04	0	42	0	31457280	63	5667
2026-01-08 02:47:53.06	7.75	8.66	-45.7	-49.3	12.5	2.97e-04	0	42	0	36700160	63	5327
2026-01-08 02:47:54.07	7.68	8.74	-45.6	-49.2	12.6	1.70e-04	0	42	0	42991616	63	5267
2026-01-08 02:47:55.07	7.62	8.81	-45.6	-49.2	12.6	1.44e-04	0	42	0	48234496	63	5253
2026-01-08 02:47:56.08	7.55	8.89	-45.8	-49.6	12.2	2.79e-04	0	42	0	54525952	63	5490
2026-01-08 02:47:57.08	7.48	8.97	-46.1	-50.1	11.6	5.72e-04	0	42	0	59768832	63	5838
2026-01-08 02:47:58.08	7.42	9.04	-46.3	-50.4	11.3	1.94e-03	0	42	0	65011712	63	6036
2026-01-08 02:47:59.09	7.35	9.12	-46.3	-50.4	11.5	7.89e-05	0	42	0	71303168	63	5996
2026-01-08 02:48:00.09	7.28	9.20	-48.1	-54.8	6.7	8.24e-01	0	42	0	73400320	67	7936
2026-01-08 02:48:01.09	7.22	9.28	-43.1	-45.6	16.2	0.00e+00	0	42	0	79691776	58	4608
2026-01-08 02:48:02.09	7.15	9.35	-42.3	-44.6	17.2	0.00e+00	0	42	0	84934656	56	4603
2026-01-08 02:48:03.10	7.08	9.43	-46.1	-49.8	11.8	1.31e-02	0	42	0	90177536	64	5332
2026-01-08 02:48:04.10	7.01	9.51	-42.1	-44.3	17.5	0.00e+00	0	42	0	96468992	56	4473
2026-01-08 02:48:05.10	6.94	9.59	-41.6	-43.8	17.8	0.00e+00	0	42	0	101711872	55	4458
2026-01-08 02:48:06.20	6.87	9.67	-41.4	-43.5	18.1	0.00e+00	0	42	0	108003328	54	4574
2026-01-08 02:48:07.09	6.81	9.74	-41.3	-43.4	18.2	0.00e+00	0	42	0	113246208	54	4530
2026-01-08 02:48:08.23	6.73	9.83	-41.3	-43.5	18.1	0.00e+00	0	42	0	119537664	54	4547
2026-01-08 02:48:09.09	6.67	9.90	-41.3	-43.5	18.1	0.00e+00	0	42	0	123731968	54	4572
2026-01-08 02:48:10.24	6.59	9.99	-41.1	-43.3	18.3	0.00e+00	0	42	0	131072000	54	4468
2026-01-08 02:48:11.09	6.53	10.06	-41.1	-43.3	18.3	0.00e+00	0	42	0	135266304	54	4454
2026-01-08 02:48:12.24	6.44	10.15	-41.2	-43.4	18.2	0.00e+00	0	42	0	141557760	54	4506
2026-01-08 02:48:13.10	6.38	10.22	-41.2	-43.3	18.3	0.00e+00	0	42	0	146800640	54	4477
2026-01-08 02:48:14.25	6.30	10.31	-41.1	-43.3	18.4	0.00e+00	0	43	0	153092096	54	4450
2026-01-08 02:48:15.11	6.24	10.38	-41.0	-43.2	18.4	0.00e+00	0	42	0	158334976	54	4430
2026-01-08 02:48:16.25	6.15	10.48	-41.0	-43.2	18.5	0.00e+00	0	42	0	164626432	54	4423
2026-01-08 02:48:17.11	6.09	10.55	-41.0	-43.2	18.5	0.00e+00	0	42	0	168820736	54	4404
2026-01-08 02:48:18.25	6.00	10.64	-41.1	-43.3	18.4	0.00e+00	0	42	0	176160768	53	4731
2026-01-08 02:48:19.11	5.94	10.71	-41.0	-43.2	18.4	0.00e+00	0	42	0	180355072	53	4661
2026-01-08 02:48:20.26	5.85	10.80	-41.0	-43.2	18.5	0.00e+00	0	42	0	187695104	53	4657
2026-01-08 02:48:21.12	5.79	10.87	-41.0	-43.2	18.5	0.00e+00	0	42	0	191889408	53	4666
2026-01-08 02:48:22.27	5.70	10.97	-41.0	-43.2	18.4	0.00e+00	0	43	0	198180864	53	4700
2026-01-08 02:48:23.13	5.64	11.04	-41.0	-43.2	18.5	0.00e+00	0	43	0	203423744	53	4672
2026-01-08 02:48:24.28	5.55	11.13	-40.9	-43.1	18.5	0.00e+00	0	42	0	209715200	53	4640
2026-01-08 02:48:25.13	5.48	11.20	-40.9	-43.1	18.5	0.00e+00	0	42	0	214958080	53	4628
2026-01-08 02:48:26.28	5.39	11.30	-41.0	-43.1	18.5	0.00e+00	0	42	0	221249536	53	4643
2026-01-08 02:48:27.14	5.33	11.37	-40.9	-43.1	18.6	0.00e+00	0	43	0	225443840	53	4615
2026-01-08 02:48:28.29	5.24	11.46	-41.0	-43.1	18.6	0.00e+00	0	42	0	231735296	53	4619
2026-01-08 02:48:29.15	5.17	11.54	-40.9	-43.0	18.7	0.00e+00	0	42	0	236978176	53	4565
2026-01-08 02:48:30.29	5.08	11.63	-40.8	-42.9	18.8	0.00e+00	0	43	0	243269632	53	4515
2026-01-08 02:48:31.15	5.01	11.70	-40.8	-42.9	18.7	0.00e+00	0	42	0	248512512	53	4544
2026-01-08 02:48:32.30	4.92	11.80	-40.8	-42.9	18.8	0.00e+00	0	42	0	254803968	53	4513
2026-01-08 02:48:33.16	4.85	11.87	-40.6	-42.7	19.0	0.00e+00	0	42	0	260046848	53	4402
2026-01-08 02:48:34.37	4.75	11.98	-40.6	-42.6	19.0	0.00e+00	0	42	0	266338304	53	4388
2026-01-08 02:48:35.23	4.68	12.05	-40.7	-42.7	19.0	0.00e+00	0	42	0	271581184	53	4419
2026-01-08 02:48:36.45	4.58	12.15	-40.5	-42.6	19.1	0.00e+00	0	42	0	277872640	53	4347
2026-01-08 02:48:37.31	4.51	12.23	-40.6	-42.6	19.0	0.00e+00	0	43	0	283115520	53	4386
2026-01-08 02:48:38.46	4.41	12.33	-40.5	-42.5	19.1	0.00e+00	0	42	0	289406976	52	4591
2026-01-08 02:48:39.32	4.34	12.40	-40.7	-42.7	19.0	0.00e+00	0	42	0	294649856	52	4677
2026-01-08 02:48:40.56	4.23	12.51	-40.7	-42.6	19.0	0.00e+00	0	42	0	300941312	52	4641
2026-01-08 02:48:41.41	4.16	12.58	-40.7	-42.6	19.0	0.00e+00	0	42	0	306184192	52	4649
2026-01-08 02:48:42.64	4.06	12.69	-40.6	-42.6	19.1	0.00e+00	0	42	0	312475648	52	4627
2026-01-08 02:48:43.50	3.98	12.76	-40.6	-42.6	19.1	0.00e+00	0	42	0	317718528	52	4622
2026-01-08 02:48:44.65	3.88	12.86	-40.6	-42.6	19.1	0.00e+00	0	43	0	324009984	52	4619
2026-01-08 02:48:45.51	3.81	12.94	-40.5	-42.5	19.2	0.00e+00	0	42	0	329252864	52	4555
2026-01-08 02:48:46.83	3.69	13.05	-40.5	-42.4	19.2	0.00e+00	0	43	0	336592896	52	4532
2026-01-08 02:48:47.55	3.63	13.12	-40.5	-42.4	19.2	0.00e+00	0	43	0	340787200	52	4541
2026-01-08 02:48:49.05	3.49	13.25	-40.5	-42.4	19.2	0.00e+00	0	43	0	349175808	52	4533
2026-01-08 02:48:49.76	3.43	13.31	-40.4	-42.4	19.3	0.00e+00	0	43	0	353370112	52	4498
2026-01-08 02:48:51.05	3.31	13.43	-40.5	-42.4	19.2	0.00e+00	0	43	0	360710144	52	4525
2026-01-08 02:48:51.77	3.25	13.49	-40.3	-42.2	19.4	0.00e+00	0	42	0	364904448	52	4428
2026-01-08 02:48:53.06	3.13	13.60	-40.3	-42.1	19.4	0.00e+00	0	43	0	371195904	52	4379
2026-01-08 02:48:53.77	3.07	13.67	-40.3	-42.1	19.4	0.00e+00	0	43	0	375390208	52	4379
2026-01-08 02:48:55.06	2.95	13.78	-40.3	-42.1	19.4	0.00e+00	0	43	0	382730240	52	4389
2026-01-08 02:48:55.78	2.88	13.85	-40.2	-42.1	19.5	0.00e+00	0	43	0	386924544	52	4373
2026-01-08 02:48:57.07	2.76	13.97	-40.3	-42.2	19.4	0.00e+00	0	43	0	394264576	52	4408
2026-01-08 02:48:57.78	2.69	14.03	-40.2	-42.1	19.4	0.00e+00	0	43	0	398458880	52	4378
2026-01-08 02:48:59.08	2.57	14.15	-40.3	-42.2	19.4	0.00e+00	0	43	0	405798912	52	4413
2026-01-08 02:48:59.79	2.50	14.21	-40.3	-42.2	19.4	0.00e+00	0	43	0	408944640	52	4404
2026-01-08 02:49:01.08	2.38	14.33	-40.3	-42.2	19.4	0.00e+00	0	43	0	416284672	52	4427
2026-01-08 02:49:01.80	2.31	14.40	-40.2	-42.1	19.4	0.00e+00	0	43	0	420478976	52	4382
2026-01-08 02:49:03.09	2.18	14.52	-40.3	-42.2	19.4	0.00e+00	0	43	0	427819008	52	4403
2026-01-08 02:49:03.80	2.11	14.58	-40.2	-42.1	19.4	0.00e+00	0	43	0	432013312	52	4371
2026-01-08 02:49:05.09	1.98	14.70	-40.2	-42.1	19.5	0.00e+00	0	43	0	439353344	52	4357
2026-01-08 02:49:05.81	1.91	14.77	-40.2	-42.1	19.5	0.00e+00	0	43	0	443547648	52	4369
2026-01-08 02:49:07.10	1.78	14.89	-40.2	-42.1	19.4	0.00e+00	0	43	0	450887680	52	4374
2026-01-08 02:49:07.81	1.71	14.95	-40.1	-42.1	19.5	0.00e+00	0	43	0	455081984	52	4344
2026-01-08 02:49:09.36	1.56	15.10	-40.1	-42.1	19.5	0.00e+00	0	43	0	463470592	52	4357
2026-01-08 02:49:10.07	1.48	15.16	-40.2	-42.2	19.3	0.00e+00	0	43	0	467664896	52	4413
2026-01-08 02:49:11.36	1.35	15.29	-40.3	-42.2	19.3	0.00e+00	0	43	0	473956352	52	4424
2026-01-08 02:49:12.44	1.24	15.39	-40.2	-42.2	19.4	0.00e+00	0	43	0	480247808	52	4403
2026-01-08 02:49:13.30	1.15	15.47	-40.0	-42.0	19.5	0.00e+00	0	43	0	485490688	52	4313
2026-01-08 02:49:14.44	1.03	15.58	-40.0	-41.9	19.6	0.00e+00	0	42	0	491782144	51	4543
2026-01-08 02:49:15.31	0.94	15.66	-40.0	-42.0	19.5	0.00e+00	0	43	0	497025024	51	4558
2026-01-08 02:49:16.45	0.82	15.77	-39.9	-41.9	19.6	0.00e+00	0	43	0	503316480	51	4505
2026-01-08 02:49:17.31	0.73	15.85	-39.8	-41.7	19.8	0.00e+00	0	43	0	508559360	51	4427
2026-01-08 02:49:18.46	0.60	15.96	-39.7	-41.6	19.9	0.00e+00	0	43	0	514850816	51	4356
2026-01-08 02:49:19.32	0.51	16.04	-39.7	-41.6	19.9	0.00e+00	0	43	0	519045120	51	4361
2026-01-08 02:49:20.46	0.38	16.15	-39.7	-41.6	20.0	0.00e+00	0	43	0	526385152	51	4350
2026-01-08 02:49:21.33	0.29	16.24	-39.6	-41.5	20.1	0.00e+00	0	43	0	530579456	51	4306
2026-01-08 02:49:22.47	0.16	16.35	-39.6	-41.5	20.0	0.00e+00	0	43	0	536870912	51	4314
2026-01-08 02:49:23.33	0.07	16.43	-39.6	-41.4	20.1	0.00e+00	0	43	0	542113792	51	4287
2026-01-08 02:49:24.48	359.94	16.55	-39.6	-41.5	20.0	0.00e+00	0	43	0	548405248	51	4323
2026-01-08 02:49:25.34	359.84	16.63	-39.5	-41.4	20.1	0.00e+00	0	43	0	553648128	51	4269
2026-01-08 02:49:26.49	359.71	16.74	-39.6	-41.5	20.0	0.00e+00	0	43	0	559939584	51	4304
2026-01-08 02:49:27.35	359.61	16.83	-39.5	-41.4	20.1	0.00e+00	0	43	0	564133888	50	4519
2026-01-08 02:49:28.49	359.48	16.94	-39.5	-41.4	20.1	0.00e+00	0	43	0	570425344	50	4505
2026-01-08 02:49:29.35	359.38	17.03	-39.5	-41.3	20.2	0.00e+00	0	43	0	575668224	50	4479
2026-01-08 02:49:30.50	359.25	17.14	-39.4	-41.2	20.2	0.00e+00	0	43	0	581959680	50	4424
2026-01-08 02:49:31.36	359.15	17.23	-39.4	-41.3	20.2	0.00e+00	0	43	0	587202560	50	4458
2026-01-08 02:49:32.66	358.99	17.36	-39.4	-41.2	20.3	0.00e+00	0	43	0	594542592	50	4409
2026-01-08 02:49:33.38	358.91	17.43	-39.3	-41.2	20.3	0.00e+00	0	43	0	598736896	50	4394
2026-01-08 02:49:34.86	358.73	17.58	-39.3	-41.1	20.4	0.00e+00	0	43	0	607125504	50	4353
2026-01-08 02:49:35.58	358.64	17.65	-39.3	-41.1	20.4	0.00e+00	0	43	0	611319808	50	4354
2026-01-08 02:49:36.98	358.47	17.79	-39.3	-41.1	20.4	0.00e+00	0	43	0	618659840	50	4369
2026-01-08 02:49:37.69	358.38	17.86	-39.3	-41.2	20.3	0.00e+00	0	43	0	622854144	50	4394
2026-01-08 02:49:38.98	358.22	17.99	-39.3	-41.1	20.4	0.00e+00	0	43	0	630194176	50	4376
2026-01-08 02:49:39.70	358.13	18.07	-39.2	-41.1	20.4	0.00e+00	0	43	0	634388480	50	4350
2026-01-08 02:49:40.99	357.97	18.20	-39.3	-41.2	20.3	0.00e+00	0	43	0	640679936	50	4409
2026-01-08 02:49:41.70	357.88	18.27	-39.2	-41.0	20.5	0.00e+00	0	43	0	644874240	50	4321
2026-01-08 02:49:42.99	357.72	18.41	-39.2	-41.0	20.5	0.00e+00	0	43	0	652214272	50	4314
2026-01-08 02:49:43.71	357.63	18.48	-39.2	-41.0	20.5	0.00e+00	0	43	0	656408576	50	4309
2026-01-08 02:49:45.00	357.46	18.61	-39.2	-41.0	20.5	0.00e+00	0	43	0	663748608	50	4316
2026-01-08 02:49:45.72	357.37	18.69	-39.2	-41.0	20.5	0.00e+00	0	43	0	667942912	50	4324
2026-01-08 02:49:47.01	357.20	18.82	-39.1	-40.9	20.5	0.00e+00	0	43	0	675282944	50	4266
2026-01-08 02:49:47.72	357.11	18.90	-39.2	-41.0	20.4	0.00e+00	0	43	0	679477248	50	4337
2026-01-08 02:49:49.01	356.93	19.03	-39.1	-40.9	20.5	0.00e+00	0	43	0	686817280	50	4286
2026-01-08 02:49:49.73	356.84	19.11	-39.0	-40.8	20.6	0.00e+00	0	43	0	689963008	50	4233
2026-01-08 02:49:51.02	356.66	19.24	-39.0	-40.9	20.6	0.00e+00	0	43	0	697303040	50	4252
2026-01-08 02:49:51.74	356.57	19.32	-38.9	-40.7	20.7	0.00e+00	0	43	0	701497344	49	4438
2026-01-08 02:49:53.03	356.39	19.45	-38.9	-40.7	20.7	0.00e+00	0	43	0	708837376	49	4407
2026-01-08 02:49:54.02	356.26	19.56	-38.8	-40.6	20.8	0.00e+00	0	43	0	714080256	49	4355
2026-01-08 02:49:55.02	356.12	19.67	-38.7	-40.5	20.9	0.00e+00	0	43	0	720371712	49	4313
2026-01-08 02:49:56.02	355.98	19.77	-38.6	-40.4	21.0	0.00e+00	0	43	0	725614592	49	4245
2026-01-08 02:49:57.03	355.84	19.88	-38.6	-40.3	21.1	0.00e+00	0	43	0	731906048	49	4224
2026-01-08 02:49:58.03	355.69	19.99	-38.6	-40.3	21.1	0.00e+00	0	43	0	737148928	49	4220
2026-01-08 02:49:59.03	355.55	20.10	-38.7	-40.4	21.0	0.00e+00	0	43	0	742391808	49	4254
2026-01-08 02:50:00.04	355.41	20.20	-38.5	-40.2	21.2	0.00e+00	0	43	0	748683264	48	4408
2026-01-08 02:50:01.04	355.26	20.31	-38.5	-40.3	21.1	0.00e+00	0	43	0	753926144	48	4447
2026-01-08 02:50:02.04	355.12	20.42	-38.7	-40.4	21.1	0.00e+00	0	43	0	759169024	48	4499
2026-01-08 02:50:03.12	354.96	20.54	-38.6	-40.3	21.1	0.00e+00	0	43	0	765460480	48	4488
2026-01-08 02:50:03.98	354.83	20.63	-38.7	-40.4	21.1	0.00e+00	0	43	0	770703360	48	4512
2026-01-08 02:50:05.13	354.66	20.76	-38.7	-40.5	21.0	0.00e+00	0	43	0	776994816	48	4546
2026-01-08 02:50:05.99	354.53	20.85	-38.9	-40.6	20.9	0.00e+00	0	43	0	782237696	48	4628
2026-01-08 02:50:07.13	354.36	20.98	-38.8	-40.6	20.9	0.00e+00	0	43	0	788529152	48	4607
2026-01-08 02:50:07.99	354.23	21.07	-38.9	-40.7	20.8	0.00e+00	0	43	0	792723456	48	4660
2026-01-08 02:50:09.14	354.05	21.20	-38.8	-40.6	20.9	0.00e+00	0	43	0	799014912	48	4620
2026-01-08 02:50:10.00	353.92	21.29	-38.8	-40.6	20.9	0.00e+00	0	43	0	804257792	48	4621
2026-01-08 02:50:11.14	353.74	21.42	-38.9	-40.6	20.9	0.00e+00	0	43	0	810549248	48	4643
2026-01-08 02:50:12.01	353.60	21.51	-38.7	-40.5	21.0	0.00e+00	0	43	0	815792128	48	4561
2026-01-08 02:50:13.15	353.42	21.64	-38.5	-40.2	21.2	0.00e+00	0	43	0	822083584	48	4435
2026-01-08 02:50:14.01	353.29	21.74	-38.3	-40.0	21.4	0.00e+00	0	43	0	827326464	48	4325
2026-01-08 02:50:15.16	353.10	21.86	-38.2	-39.9	21.5	0.00e+00	0	43	0	833617920	48	4262
2026-01-08 02:50:16.02	352.97	21.96	-38.1	-39.8	21.6	0.00e+00	0	43	0	838860800	48	4237
2026-01-08 02:50:17.28	352.76	22.10	-38.2	-39.9	21.5	0.00e+00	0	43	0	845152256	48	4260
2026-01-08 02:50:18.00	352.64	22.18	-38.2	-39.9	21.5	0.00e+00	0	43	0	849346560	48	4264
2026-01-08 02:50:19.28	352.43	22.33	-38.1	-39.8	21.6	0.00e+00	0	43	0	856686592	48	4236
2026-01-08 02:50:20.00	352.31	22.41	-38.1	-39.8	21.6	0.00e+00	0	43	0	860880896	48	4215
2026-01-08 02:50:21.29	352.10	22.55	-38.2	-39.9	21.5	0.00e+00	0	43	0	868220928	48	4256
2026-01-08 02:50:22.01	351.97	22.64	-38.1	-39.8	21.6	0.00e+00	0	43	0	872415232	48	4216
2026-01-08 02:50:23.30	351.75	22.78	-38.0	-39.7	21.7	0.00e+00	0	43	0	878706688	48	4166
2026-01-08 02:50:24.01	351.63	22.86	-38.1	-39.8	21.7	0.00e+00	0	43	0	882900992	48	4199
2026-01-08 02:50:25.30	351.41	23.01	-37.9	-39.6	21.6	0.00e+00	0	43	0	890241024	47	4363
2026-01-08 02:50:26.02	351.29	23.09	-37.9	-39.6	21.6	0.00e+00	0	43	0	894435328	47	4347
2026-01-08 02:50:27.31	351.06	23.24	-37.9	-39.6	21.6	0.00e+00	0	43	0	901775360	47	4385
2026-01-08 02:50:28.03	350.93	23.32	-37.9	-39.7	21.5	0.00e+00	0	43	0	905969664	47	4403
2026-01-08 02:50:29.32	350.70	23.47	-38.0	-39.8	21.4	0.00e+00	0	43	0	913309696	47	4448
2026-01-08 02:50:30.03	350.58	23.55	-38.0	-39.8	21.4	0.00e+00	0	43	0	917504000	47	4445
2026-01-08 02:50:31.32	350.34	23.70	-38.1	-39.9	21.3	0.00e+00	0	43	0	924844032	47	4525
2026-01-08 02:50:32.42	350.14	23.83	-38.0	-39.8	21.4	0.00e+00	0	43	0	930086912	47	4465
2026-01-08 02:50:33.60	349.93	23.97	-38.1	-39.8	21.4	0.00e+00	0	43	0	937426944	47	4489
2026-01-08 02:50:34.46	349.77	24.07	-38.0	-39.8	21.4	0.00e+00	0	43	0	941621248	47	4476
2026-01-08 02:50:35.61	349.55	24.20	-38.1	-39.8	21.4	0.00e+00	0	43	0	947912704	47	4491
2026-01-08 02:50:36.47	349.39	24.30	-38.1	-39.9	21.3	0.00e+00	0	43	0	953155584	47	4518
2026-01-08 02:50:37.61	349.17	24.43	-38.0	-39.7	21.5	0.00e+00	0	43	0	959447040	47	4437
2026-01-08 02:50:38.47	349.01	24.53	-38.0	-39.7	21.5	0.00e+00	0	43	0	964689920	47	4434
2026-01-08 02:50:39.62	348.79	24.67	-38.0	-39.7	21.5	0.00e+00	0	43	0	970981376	47	4416
2026-01-08 02:50:40.48	348.62	24.77	-37.9	-39.6	21.6	0.00e+00	0	43	0	976224256	47	4366
2026-01-08 02:50:41.63	348.40	24.90	-37.8	-39.6	21.6	0.00e+00	0	43	0	982515712	47	4343
2026-01-08 02:50:42.49	348.23	25.00	-37.8	-39.5	21.7	0.00e+00	0	43	0	986710016	47	4318
2026-01-08 02:50:43.76	347.98	25.15	-37.6	-39.3	21.8	0.00e+00	0	43	0	994050048	47	4231
2026-01-08 02:50:44.49	347.83	25.24	-37.8	-39.5	21.7	0.00e+00	0	43	0	998244352	47	4297
2026-01-08 02:50:45.97	347.53	25.41	-37.6	-39.3	21.8	0.00e+00	0	43	0	1006632960	47	4217
2026-01-08 02:50:46.69	347.39	25.50	-37.6	-39.3	21.8	0.00e+00	0	43	0	1010827264	47	4222
2026-01-08 02:50:47.98	347.12	25.65	-37.6	-39.4	21.8	0.00e+00	0	43	0	1018167296	47	4247
2026-01-08 02:50:48.70	346.97	25.74	-37.6	-39.3	21.8	0.00e+00	0	43	0	1022361600	47	4223
2026-01-08 02:50:49.98	346.71	25.89	-37.6	-39.3	21.8	0.00e+00	0	43	0	1029701632	47	4230
2026-01-08 02:50:50.70	346.56	25.97	-37.6	-39.3	21.8	0.00e+00	0	43	0	1032847360	47	4227
2026-01-08 02:50:51.99	346.28	26.13	-37.5	-39.2	21.9	0.00e+00	0	43	0	1040187392	47	4149
2026-01-08 02:50:52.71	346.13	26.21	-37.5	-39.2	21.9	0.00e+00	0	43	0	1044381696	46	4402
2026-01-08 02:50:54.00	345.86	26.36	-37.6	-39.3	21.9	0.00e+00	0	43	0	1051721728	46	4449
2026-01-08 02:50:54.72	345.70	26.45	-37.4	-39.1	22.0	0.00e+00	0	43	0	1055916032	46	4358
2026-01-08 02:50:56.01	345.42	26.60	-37.4	-39.1	22.0	0.00e+00	0	43	0	1063256064	46	4369
2026-01-08 02:50:56.75	345.26	26.69	-37.5	-39.1	22.0	0.00e+00	0	43	0	1067450368	46	4384
2026-01-08 02:50:58.04	344.97	26.84	-37.3	-39.0	22.0	0.00e+00	0	43	0	1074790400	46	4338
2026-01-08 02:50:58.76	344.81	26.93	-37.3	-39.0	22.1	0.00e+00	0	43	0	1078984704	46	4301
2026-01-08 02:51:00.05	344.52	27.08	-37.4	-39.1	22.0	0.00e+00	0	43	0	1086324736	46	4381
2026-01-08 02:51:00.77	344.36	27.17	-37.4	-39.1	22.0	0.00e+00	0	43	0	1090519040	46	4363
2026-01-08 02:51:02.06	344.07	27.32	-37.3	-39.0	22.1	0.00e+00	0	43	0	1096810496	46	4322
2026-01-08 02:51:02.78	343.90	27.41	-37.3	-39.0	22.1	0.00e+00	0	43	0	1101004800	46	4298
2026-01-08 02:51:04.06	343.60	27.56	-37.4	-39.1	22.0	0.00e+00	0	43	0	1108344832	46	4364
2026-01-08 02:51:04.78	343.44	27.65	-37.5	-39.2	21.9	0.00e+00	0	43	0	1112539136	46	4405
2026-01-08 02:51:06.07	343.13	27.80	-37.4	-39.1	22.0	0.00e+00	0	43	0	1119879168	46	4351
2026-01-08 02:51:06.79	342.96	27.89	-37.5	-39.2	21.9	0.00e+00	0	43	0	1124073472	46	4411
2026-01-08 02:51:08.08	342.65	28.04	-37.4	-39.1	22.0	0.00e+00	0	43	0	1131413504	46	4355
2026-01-08 02:51:08.80	342.48	28.13	-37.4	-39.1	22.0	0.00e+00	0	43	0	1134559232	46	4356
2026-01-08 02:51:10.09	342.17	28.28	-37.4	-39.1	22.0	0.00e+00	0	43	0	1141899264	46	4361
2026-01-08 02:51:10.80	342.00	28.36	-37.4	-39.1	22.0	0.00e+00	0	43	0	1146093568	46	4356
2026-01-08 02:51:12.41	341.60	28.56	-37.4	-39.1	22.0	0.00e+00	0	43	0	1155530752	46	4353
2026-01-08 02:51:12.98	341.46	28.62	-37.3	-39.0	22.1	0.00e+00	0	43	0	1158676480	46	4305
2026-01-08 02:51:14.78	341.01	28.84	-37.2	-38.9	22.2	0.00e+00	0	43	0	1169162240	46	4252
2026-01-08 02:51:15.36	340.86	28.91	-37.2	-38.8	22.2	0.00e+00	0	43	0	1172307968	46	4237
2026-01-08 02:51:16.96	340.45	29.10	-37.2	-38.9	22.1	0.00e+00	0	43	0	1180696576	46	4259
2026-01-08 02:51:17.53	340.31	29.16	-37.2	-38.9	22.1	0.00e+00	0	43	0	1183842304	46	4267
2026-01-08 02:51:19.11	339.90	29.35	-37.1	-38.8	22.2	0.00e+00	0	43	0	1193279488	46	4198
2026-01-08 02:51:19.70	339.75	29.42	-37.1	-38.8	22.2	0.00e+00	0	43	0	1196425216	46	4202
2026-01-08 02:51:21.27	339.33	29.60	-37.2	-38.9	22.1	0.00e+00	0	43	0	1205862400	46	4271
2026-01-08 02:51:21.86	339.18	29.67	-37.3	-39.0	22.1	0.00e+00	0	43	0	1209008128	46	4296
2026-01-08 02:51:23.60	338.71	29.88	-37.3	-39.0	22.0	0.00e+00	0	43	0	1218445312	46	4315
2026-01-08 02:51:24.17	338.56	29.94	-37.3	-39.0	22.0	0.00e+00	0	43	0	1221591040	46	4320
2026-01-08 02:51:25.75	338.13	30.13	-37.4	-39.1	22.0	0.00e+00	0	43	0	1229979648	46	4348
2026-01-08 02:51:26.32	337.97	30.19	-37.3	-39.0	22.0	0.00e+00	0	43	0	1234173952	46	4323
2026-01-08 02:51:27.90	337.54	30.38	-37.3	-39.0	22.1	0.00e+00	0	43	0	1242562560	46	4316
2026-01-08 02:51:28.84	337.27	30.49	-37.3	-39.0	22.0	0.00e+00	0	43	0	1247805440	46	4321
2026-01-08 02:51:30.29	336.87	30.65	-37.2	-38.9	22.1	0.00e+00	0	43	0	1256194048	46	4280
2026-01-08 02:51:31.00	336.67	30.74	-37.1	-38.8	22.2	0.00e+00	0	43	0	1260388352	46	4236
2026-01-08 02:51:32.29	336.30	30.88	-37.1	-38.8	22.2	0.00e+00	0	43	0	1267728384	46	4237
2026-01-08 02:51:33.01	336.09	30.97	-37.1	-38.9	22.1	0.00e+00	0	43	0	1270874112	46	4252
2026-01-08 02:51:34.30	335.72	31.11	-37.0	-38.7	22.3	0.00e+00	0	43	0	1278214144	46	4179
2026-01-08 02:51:35.02	335.51	31.19	-37.0	-38.7	22.3	0.00e+00	0	43	0	1282408448	46	4158
2026-01-08 02:51:36.31	335.13	31.34	-37.0	-38.7	22.3	0.00e+00	0	43	0	1289748480	46	4163
2026-01-08 02:51:37.02	334.92	31.42	-36.9	-38.6	22.3	0.00e+00	0	43	0	1293942784	45	4341
2026-01-08 02:51:38.43	334.50	31.58	-37.0	-38.7	22.3	0.00e+00	0	43	0	1302331392	45	4399
2026-01-08 02:51:39.43	334.20	31.69	-36.9	-38.6	22.4	0.00e+00	0	43	0	1307574272	45	4358
2026-01-08 02:51:40.43	333.90	31.80	-36.9	-38.6	22.4	0.00e+00	0	43	0	1312817152	45	4356
2026-01-08 02:51:41.44	333.59	31.91	-36.8	-38.5	22.4	0.00e+00	0	43	0	1319108608	45	4325
2026-01-08 02:51:42.44	333.28	32.02	-36.9	-38.5	22.4	0.00e+00	0	43	0	1324351488	45	4334
2026-01-08 02:51:43.44	332.97	32.13	-36.9	-38.6	22.4	0.00e+00	0	43	0	1329594368	45	4341
2026-01-08 02:51:44.45	332.66	32.24	-36.8	-38.5	22.4	0.00e+00	0	43	0	1335885824	45	4310
2026-01-08 02:51:45.45	332.35	32.35	-36.8	-38.5	22.4	0.00e+00	0	43	0	1341128704	45	4303
2026-01-08 02:51:46.49	332.02	32.47	-36.7	-38.4	22.5	0.00e+00	0	43	0	1347420160	45	4279
2026-01-08 02:51:47.52	331.69	32.58	-36.7	-38.4	22.5	0.00e+00	0	43	0	1352663040	45	4264
2026-01-08 02:51:48.52	331.37	32.68	-36.7	-38.4	22.5	0.00e+00	0	43	0	1358954496	45	4274
2026-01-08 02:51:49.59	331.03	32.80	-36.7	-38.4	22.5	0.00e+00	0	43	0	1364197376	45	4250
2026-01-08 02:51:50.48	330.74	32.89	-36.8	-38.4	22.4	0.00e+00	0	43	0	1369440256	45	4291
2026-01-08 02:51:51.51	330.40	33.00	-36.7	-38.4	22.5	0.00e+00	0	43	0	1375731712	45	4261
2026-01-08 02:51:52.51	330.08	33.10	-36.7	-38.4	22.5	0.00e+00	0	43	0	1380974592	45	4257
2026-01-08 02:51:53.52	329.74	33.21	-36.7	-38.3	22.6	0.00e+00	0	43	0	1387266048	45	4215
2026-01-08 02:51:54.52	329.41	33.31	-36.6	-38.2	22.6	0.00e+00	0	43	0	1392508928	45	4171
2026-01-08 02:51:55.52	329.08	33.41	-36.6	-38.2	22.6	0.00e+00	0	43	0	1397751808	45	4183
2026-01-08 02:51:56.53	328.74	33.51	-36.6	-38.3	22.5	0.00e+00	0	43	0	1404043264	45	4214
2026-01-08 02:51:57.53	328.40	33.61	-36.7	-38.3	22.5	0.00e+00	0	43	0	1409286144	45	4233
2026-01-08 02:51:58.53	328.06	33.71	-36.8	-38.4	22.5	0.00e+00	0	43	0	1414529024	45	4280
2026-01-08 02:51:59.54	327.71	33.81	-36.9	-38.5	22.4	0.00e+00	0	43	0	1420820480	45	4332
2026-01-08 02:52:00.54	327.37	33.91	-36.8	-38.5	22.4	0.00e+00	0	43	0	1426063360	45	4306
2026-01-08 02:52:01.54	327.02	34.01	-36.9	-38.5	22.4	0.00e+00	0	43	0	1431306240	45	4334
2026-01-08 02:52:02.59	326.65	34.11	-36.8	-38.5	22.4	0.00e+00	0	43	0	1437597696	45	4327
2026-01-08 02:52:03.52	326.33	34.20	-36.8	-38.5	22.4	0.00e+00	0	43	0	1442840576	45	4323
2026-01-08 02:52:04.52	325.97	34.29	-36.7	-38.4	22.5	0.00e+00	0	43	0	1449132032	45	4263
2026-01-08 02:52:05.70	325.55	34.40	-36.6	-38.2	22.6	0.00e+00	0	43	0	1455423488	45	4181
2026-01-08 02:52:06.59	325.23	34.48	-36.5	-38.2	22.7	0.00e+00	0	43	0	1460666368	45	4167
2026-01-08 02:52:07.84	324.78	34.60	-36.6	-38.3	22.6	0.00e+00	0	43	0	1466957824	45	4206
2026-01-08 02:52:08.70	324.47	34.68	-36.7	-38.3	22.6	0.00e+00	0	43	0	1472200704	45	4240
2026-01-08 02:52:09.84	324.06	34.78	-36.6	-38.3	22.6	0.00e+00	0	43	0	1478492160	45	4201
2026-01-08 02:52:10.70	323.74	34.85	-36.5	-38.2	22.7	0.00e+00	0	43	0	1483735040	45	4163
2026-01-08 02:52:11.85	323.32	34.95	-36.6	-38.3	22.6	0.00e+00	0	43	0	1490026496	45	4195
2026-01-08 02:52:12.71	323.00	35.03	-36.5	-38.2	22.7	0.00e+00	0	43	0	1494220800	45	4159
2026-01-08 02:52:13.85	322.58	35.12	-36.7	-38.3	22.6	0.00e+00	0	43	0	1500512256	45	4240
2026-01-08 02:52:14.87	322.20	35.21	-36.7	-38.4	22.5	0.00e+00	0	43	0	1506803712	45	4246
2026-01-08 02:52:16.05	321.75	35.30	-36.7	-38.3	22.6	0.00e+00	0	43	0	1513095168	45	4217
2026-01-08 02:52:16.91	321.43	35.37	-36.7	-38.4	22.5	0.00e+00	0	43	0	1518338048	45	4259
2026-01-08 02:52:18.25	320.92	35.48	-36.8	-38.4	22.5	0.00e+00	0	43	0	1525678080	45	4284
2026-01-08 02:52:18.97	320.64	35.54	-36.9	-38.6	22.4	0.00e+00	0	43	0	1529872384	45	4346
2026-01-08 02:52:20.25	320.15	35.63	-36.8	-38.5	22.5	0.00e+00	0	43	0	1537212416	45	4302
2026-01-08 02:52:20.97	319.87	35.69	-36.8	-38.5	22.5	0.00e+00	0	43	0	1541406720	45	4297
2026-01-08 02:52:22.26	319.37	35.78	-36.8	-38.5	22.5	0.00e+00	0	43	0	1548746752	45	4308
2026-01-08 02:52:22.98	319.09	35.84	-36.9	-38.5	22.4	0.00e+00	0	43	0	1552941056	45	4327
2026-01-08 02:52:24.27	318.59	35.93	-37.0	-38.7	22.3	0.00e+00	0	43	0	1560281088	45	4394
2026-01-08 02:52:24.98	318.31	35.98	-37.0	-38.6	22.4	0.00e+00	0	43	0	1563426816	45	4386
2026-01-08 02:52:26.27	317.80	36.07	-36.8	-38.4	22.5	0.00e+00	0	43	0	1570766848	45	4274
2026-01-08 02:52:26.99	317.52	36.12	-36.7	-38.4	22.6	0.00e+00	0	43	0	1574961152	45	4246
2026-01-08 02:52:28.28	317.00	36.20	-36.6	-38.3	22.6	0.00e+00	0	43	0	1582301184	45	4205
2026-01-08 02:52:29.00	316.72	36.25	-36.7	-38.3	22.6	0.00e+00	0	43	0	1586495488	45	4241
2026-01-08 02:52:30.29	316.20	36.33	-36.6	-38.3	22.6	0.00e+00	0	43	0	1593835520	45	4201
2026-01-08 02:52:31.01	315.91	36.37	-36.6	-38.3	22.6	0.00e+00	0	43	0	1596981248	45	4195
2026-01-08 02:52:32.30	315.39	36.45	-36.6	-38.3	22.6	0.00e+00	0	43	0	1604321280	45	4207
2026-01-08 02:52:33.01	315.10	36.49	-36.6	-38.3	22.6	0.00e+00	0	43	0	1608515584	45	4215
2026-01-08 02:52:34.31	314.57	36.57	-36.7	-38.3	22.6	0.00e+00	0	43	0	1615855616	45	4232
2026-01-08 02:52:35.02	314.28	36.60	-36.6	-38.2	22.7	0.00e+00	0	43	0	1620049920	45	4187
2026-01-08 02:52:36.31	313.75	36.67	-36.5	-38.1	22.8	0.00e+00	0	43	0	1627389952	45	4126
2026-01-08 02:52:37.02	313.46	36.71	-36.5	-38.1	22.7	0.00e+00	0	43	0	1631584256	45	4139
2026-01-08 02:52:38.31	312.93	36.78	-36.5	-38.1	22.8	0.00e+00	0	43	0	1638924288	44	4389
2026-01-08 02:52:39.03	312.63	36.81	-36.6	-38.2	22.7	0.00e+00	0	43	0	1643118592	44	4441
2026-01-08 02:52:40.32	312.09	36.87	-36.6	-38.2	22.7	0.00e+00	0	43	0	1650458624	44	4427
2026-01-08 02:52:41.03	311.80	36.90	-36.5	-38.1	22.7	0.00e+00	0	43	0	1653604352	44	4366
2026-01-08 02:52:42.32	311.26	36.96	-36.5	-38.1	22.7	0.00e+00	0	43	0	1660944384	44	4385
2026-01-08 02:52:43.04	310.96	36.99	-36.5	-38.1	22.7	0.00e+00	0	43	0	1665138688	44	4377
2026-01-08 02:52:44.33	310.42	37.04	-36.5	-38.2	22.7	0.00e+00	0	43	0	1672478720	44	4410
2026-01-08 02:52:45.05	310.11	37.07	-36.6	-38.2	22.7	0.00e+00	0	43	0	1676673024	44	4437
2026-01-08 02:52:46.43	309.53	37.12	-36.5	-38.1	22.8	0.00e+00	0	43	0	1684013056	44	4363
2026-01-08 02:52:47.15	309.23	37.15	-36.4	-38.0	22.8	0.00e+00	0	43	0	1688207360	44	4308
2026-01-08 02:52:48.50	308.66	37.19	-36.4	-38.0	22.8	0.00e+00	0	43	0	1695547392	44	4320
2026-01-08 02:52:49.22	308.35	37.22	-36.4	-38.0	22.8	0.00e+00	0	43	0	1699741696	44	4318
2026-01-08 02:52:50.51	307.80	37.26	-36.6	-38.3	22.6	0.00e+00	0	43	0	1707081728	44	4467
2026-01-08 02:52:51.23	307.50	37.28	-36.7	-38.4	22.5	0.00e+00	0	43	0	1711276032	44	4504
2026-01-08 02:52:52.51	306.95	37.31	-36.8	-38.4	22.4	0.00e+00	0	43	0	1718616064	44	4537
2026-01-08 02:52:53.23	306.64	37.33	-36.7	-38.3	22.6	0.00e+00	0	43	0	1722810368	44	4482
2026-01-08 02:52:54.52	306.09	37.36	-36.7	-38.3	22.5	0.00e+00	0	43	0	1730150400	44	4488
2026-01-08 02:52:55.23	305.78	37.37	-36.7	-38.3	22.5	0.00e+00	0	43	0	1734344704	44	4482
2026-01-08 02:52:56.52	305.23	37.40	-36.6	-38.3	22.6	0.00e+00	0	43	0	1741684736	44	4450
2026-01-08 02:52:57.30	304.90	37.41	-36.8	-38.4	22.5	0.00e+00	0	43	0	1745879040	44	4529
2026-01-08 02:52:58.59	304.34	37.43	-36.9	-38.5	22.3	0.00e+00	0	43	0	1753219072	44	4597
2026-01-08 02:52:59.40	303.99	37.44	-36.8	-38.5	22.4	0.00e+00	0	43	0	1757413376	44	4564
2026-01-08 02:53:00.86	303.36	37.46	-36.6	-38.2	22.6	0.00e+00	0	43	0	1765801984	44	4416
2026-01-08 02:53:01.58	303.05	37.46	-36.6	-38.3	22.5	0.00e+00	0	43	0	1769996288	44	4449
2026-01-08 02:53:02.86	302.50	37.47	-36.5	-38.1	22.6	0.00e+00	0	43	0	1777336320	44	4361
2026-01-08 02:53:03.58	302.19	37.48	-36.4	-38.1	22.7	0.00e+00	0	43	0	1780482048	44	4346
2026-01-08 02:53:04.87	301.63	37.48	-36.5	-38.1	22.6	0.00e+00	0	43	0	1787822080	44	4383
2026-01-08 02:53:05.59	301.32	37.48	-36.5	-38.1	22.6	0.00e+00	0	43	0	1792016384	44	4387
2026-01-08 02:53:06.88	300.76	37.48	-36.5	-38.1	22.6	0.00e+00	0	43	0	1799356416	44	4380
2026-01-08 02:53:07.72	300.40	37.48	-36.5	-38.2	22.6	0.00e+00	0	43	0	1804599296	44	4406
2026-01-08 02:53:08.86	299.91	37.48	-36.7	-38.4	22.4	0.00e+00	0	43	0	1810890752	44	4508
2026-01-08 02:53:09.97	299.43	37.47	-36.7	-38.3	22.4	0.00e+00	0	43	0	1817182208	44	4487
2026-01-08 02:53:11.00	298.98	37.46	-36.5	-38.1	22.6	0.00e+00	0	43	0	1822425088	44	4375
2026-01-08 02:53:11.99	298.56	37.45	-36.4	-38.1	22.6	0.00e+00	0	43	0	1827667968	44	4349
2026-01-08 02:53:13.00	298.12	37.44	-36.4	-38.0	22.6	0.00e+00	0	43	0	1833959424	44	4339
2026-01-08 02:53:14.00	297.69	37.43	-36.4	-38.0	22.7	0.00e+00	0	43	0	1839202304	44	4314
2026-01-08 02:53:15.00	297.26	37.41	-36.3	-38.0	22.7	0.00e+00	0	43	0	1844445184	44	4302
2026-01-08 02:53:16.01	296.82	37.39	-36.3	-38.0	22.7	0.00e+00	0	43	0	1850736640	44	4292
2026-01-08 02:53:17.01	296.40	37.37	-36.3	-38.0	22.7	0.00e+00	0	43	0	1855979520	44	4298
2026-01-08 02:53:18.01	295.97	37.35	-36.3	-37.9	22.7	0.00e+00	0	43	0	1862270976	44	4288
2026-01-08 02:53:19.02	295.53	37.33	-36.4	-38.0	22.7	0.00e+00	0	43	0	1867513856	44	4333
2026-01-08 02:53:20.02	295.11	37.31	-36.3	-37.9	22.7	0.00e+00	0	43	0	1873805312	44	4273
2026-01-08 02:53:21.03	294.67	37.28	-36.2	-37.9	22.8	0.00e+00	0	43	0	1879048192	44	4247
2026-01-08 02:53:22.03	294.25	37.25	-36.3	-37.9	22.7	0.00e+00	0	43	0	1884291072	44	4267
2026-01-08 02:53:23.03	293.82	37.22	-36.3	-37.9	22.7	0.00e+00	0	43	0	1890582528	44	4269
2026-01-08 02:53:24.04	293.39	37.19	-36.3	-37.9	22.7	0.00e+00	0	43	0	1895825408	44	4270
2026-01-08 02:53:25.07	292.96	37.16	-36.3	-37.9	22.7	0.00e+00	0	43	0	1902116864	44	4277
2026-01-08 02:53:26.12	292.51	37.12	-36.2	-37.8	22.8	0.00e+00	0	43	0	1907359744	44	4220
2026-01-08 02:53:26.99	292.14	37.09	-36.1	-37.8	22.8	0.00e+00	0	43	0	1912602624	44	4200
2026-01-08 02:53:28.33	291.58	37.03	-36.3	-37.9	22.7	0.00e+00	0	43	0	1919942656	44	4282
2026-01-08 02:53:29.05	291.28	37.01	-36.3	-37.9	22.7	0.00e+00	0	43	0	1924136960	44	4289
2026-01-08 02:53:30.34	290.74	36.95	-36.3	-38.0	22.7	0.00e+00	0	43	0	1931476992	44	4293
2026-01-08 02:53:31.06	290.44	36.92	-36.3	-37.9	22.7	0.00e+00	0	43	0	1935671296	44	4283
2026-01-08 02:53:32.35	289.90	36.86	-36.2	-37.8	22.8	0.00e+00	0	43	0	1943011328	44	4237
2026-01-08 02:53:33.06	289.60	36.83	-36.3	-37.9	22.7	0.00e+00	0	43	0	1947205632	44	4262
2026-01-08 02:53:34.35	289.07	36.76	-36.2	-37.9	22.7	0.00e+00	0	43	0	1953497088	44	4251
2026-01-08 02:53:35.15	288.74	36.72	-36.1	-37.7	22.8	0.00e+00	0	43	0	1958739968	44	4158
2026-01-08 02:53:36.30	288.26	36.66	-35.8	-37.4	23.0	0.00e+00	0	43	0	1965031424	43	4277
2026-01-08 02:53:37.16	287.91	36.62	-35.9	-37.5	22.9	0.00e+00	0	43	0	1969225728	43	4303
2026-01-08 02:53:38.30	287.44	36.55	-35.8	-37.4	23.0	0.00e+00	0	43	0	1975517184	43	4258
2026-01-08 02:53:39.16	287.09	36.50	-35.7	-37.3	23.0	0.00e+00	0	43	0	1980760064	43	4211
2026-01-08 02:53:40.31	286.63	36.44	-35.7	-37.4	23.0	0.00e+00	0	43	0	1987051520	43	4255
2026-01-08 02:53:41.17	286.28	36.39	-35.7	-37.3	23.0	0.00e+00	0	43	0	1992294400	43	4241
2026-01-08 02:53:42.32	285.81	36.31	-35.9	-37.6	22.8	0.00e+00	0	43	0	1998585856	43	4357
2026-01-08 02:53:43.18	285.47	36.26	-35.9	-37.6	22.8	0.00e+00	0	43	0	2003828736	43	4357
2026-01-08 02:53:44.32	285.01	36.19	-35.8	-37.5	22.9	0.00e+00	0	43	0	2010120192	43	4302
2026-01-08 02:53:45.18	284.67	36.13	-35.9	-37.6	22.8	0.00e+00	0	43	0	2014314496	43	4349
2026-01-08 02:53:46.33	284.21	36.05	-35.9	-37.6	22.8	0.00e+00	0	43	0	2021654528	43	4346
2026-01-08 02:53:47.25	283.85	35.99	-35.9	-37.6	22.8	0.00e+00	0	43	0	2025848832	43	4344
2026-01-08 02:53:48.26	283.45	35.92	-35.9	-37.6	22.8	0.00e+00	0	43	0	2032140288	43	4349
2026-01-08 02:53:49.27	283.06	35.85	-36.0	-37.6	22.8	0.00e+00	0	43	0	2037383168	43	4387
2026-01-08 02:53:50.27	282.67	35.77	-36.1	-37.7	22.7	0.00e+00	0	43	0	2043674624	43	4422
2026-01-08 02:53:51.27	282.28	35.70	-35.9	-37.5	22.8	0.00e+00	0	43	0	2048917504	43	4337
2026-01-08 02:53:52.28	281.89	35.62	-35.8	-37.4	23.0	0.00e+00	0	43	0	2055208960	43	4261
2026-01-08 02:53:53.28	281.50	35.55	-35.7	-37.3	23.0	0.00e+00	0	43	0	2060451840	43	4230
2026-01-08 02:53:54.28	281.12	35.47	-36.0	-37.6	22.8	0.00e+00	0	43	0	2065694720	43	4368
2026-01-08 02:53:55.29	280.73	35.39	-35.8	-37.5	22.9	0.00e+00	0	43	0	2071986176	43	4306
2026-01-08 02:53:56.29	280.36	35.31	-35.7	-37.4	23.0	0.00e+00	0	43	0	2077229056	43	4247
2026-01-08 02:53:57.29	279.98	35.22	-35.7	-37.3	23.0	0.00e+00	0	43	0	2082471936	43	4210
2026-01-08 02:53:58.30	279.60	35.14	-35.7	-37.3	23.0	0.00e+00	0	43	0	2088763392	43	4222
2026-01-08 02:53:59.30	279.23	35.06	-35.8	-37.4	22.9	0.00e+00	0	43	0	2094006272	43	4274
2026-01-08 02:54:00.31	278.85	34.97	-35.8	-37.4	22.9	0.00e+00	0	43	0	2099249152	43	4284
2026-01-08 02:54:01.31	278.48	34.88	-35.8	-37.4	22.9	0.00e+00	0	43	0	2105540608	43	4285
2026-01-08 02:54:02.49	278.05	34.78	-35.8	-37.4	22.9	0.00e+00	0	43	0	2111832064	43	4266
2026-01-08 02:54:03.38	277.72	34.70	-35.9	-37.5	22.8	0.00e+00	0	43	0	2117074944	43	4333
2026-01-08 02:54:04.52	277.31	34.60	-36.0	-37.6	22.7	0.00e+00	0	43	0	2123366400	43	4381
2026-01-08 02:54:05.44	276.97	34.51	-36.0	-37.6	22.8	0.00e+00	0	43	0	2128609280	43	4374
2026-01-08 02:54:06.62	276.55	34.40	-36.0	-37.6	22.8	0.00e+00	0	43	0	2135949312	43	4364
2026-01-08 02:54:07.55	276.22	34.32	-36.0	-37.7	22.7	0.00e+00	0	43	0	2140143616	43	4396
2026-01-08 02:54:08.73	275.80	34.21	-35.9	-37.5	22.8	0.00e+00	0	43	0	2147483648	43	4323
2026-01-08 02:54:09.59	275.50	34.12	-35.7	-37.3	23.0	0.00e+00	0	43	0	2151677952	43	4211
2026-01-08 02:54:10.74	275.09	34.01	-35.5	-37.1	23.1	0.00e+00	0	43	0	2159017984	43	4137
2026-01-08 02:54:11.59	274.80	33.93	-35.7	-37.3	23.0	0.00e+00	0	43	0	2163212288	43	4207
2026-01-08 02:54:12.74	274.40	33.82	-35.8	-37.4	22.9	0.00e+00	0	43	0	2169503744	43	4263
2026-01-08 02:54:13.60	274.10	33.73	-35.8	-37.4	22.9	0.00e+00	0	43	0	2174746624	43	4288
2026-01-08 02:54:14.75	273.71	33.62	-35.7	-37.3	23.0	0.00e+00	0	43	0	2181038080	43	4227
2026-01-08 02:54:15.61	273.42	33.53	-35.8	-37.4	22.9	0.00e+00	0	43	0	2186280960	43	4263
2026-01-08 02:54:16.75	273.03	33.42	-35.9	-37.5	22.9	0.00e+00	0	43	0	2192572416	43	4317
2026-01-08 02:54:17.61	272.74	33.33	-36.0	-37.6	22.8	0.00e+00	0	44	0	2197815296	43	4390
2026-01-08 02:54:18.77	272.36	33.21	-35.7	-37.4	22.9	0.00e+00	0	43	0	2204106752	43	4252
2026-01-08 02:54:19.63	272.07	33.12	-35.7	-37.3	23.0	0.00e+00	0	43	0	2208301056	43	4236
2026-01-08 02:54:20.78	271.69	33.00	-35.8	-37.5	22.9	0.00e+00	0	43	0	2214592512	43	4297
2026-01-08 02:54:21.64	271.41	32.91	-35.9	-37.5	22.8	0.00e+00	0	43	0	2219835392	43	4326
2026-01-08 02:54:22.78	271.04	32.79	-35.9	-37.5	22.8	0.00e+00	0	43	0	2226126848	43	4325
2026-01-08 02:54:23.64	270.76	32.70	-35.9	-37.5	22.9	0.00e+00	0	43	0	2231369728	43	4307
2026-01-08 02:54:24.79	270.39	32.58	-35.9	-37.5	22.8	0.00e+00	0	43	0	2237661184	43	4339
2026-01-08 02:54:25.65	270.12	32.48	-35.9	-37.5	22.8	0.00e+00	0	43	0	2241855488	43	4326
2026-01-08 02:54:26.79	269.76	32.36	-36.0	-37.6	22.8	0.00e+00	0	43	0	2249195520	43	4364
2026-01-08 02:54:27.65	269.49	32.27	-36.1	-37.7	22.6	0.00e+00	0	43	0	2253389824	43	4435
2026-01-08 02:54:28.80	269.13	32.14	-36.0	-37.6	22.8	0.00e+00	0	43	0	2259681280	43	4377
2026-01-08 02:54:29.66	268.86	32.04	-36.0	-37.6	22.8	0.00e+00	0	43	0	2264924160	43	4368
2026-01-08 02:54:30.81	268.50	31.92	-36.0	-37.6	22.8	0.00e+00	0	43	0	2271215616	43	4381
2026-01-08 02:54:32.00	268.14	31.79	-35.9	-37.5	22.8	0.00e+00	0	43	0	2278555648	43	4336
2026-01-08 02:54:32.86	267.88	31.69	-36.0	-37.6	22.7	0.00e+00	0	43	0	2282749952	43	4386
2026-01-08 02:54:34.01	267.53	31.56	-36.0	-37.6	22.8	0.00e+00	0	43	0	2290089984	43	4358
2026-01-08 02:54:34.87	267.28	31.46	-35.9	-37.6	22.8	0.00e+00	0	43	0	2294284288	43	4351
2026-01-08 02:54:36.02	266.93	31.33	-36.1	-37.7	22.7	0.00e+00	0	43	0	2300575744	43	4421
2026-01-08 02:54:36.87	266.68	31.24	-36.2	-37.8	22.6	0.00e+00	0	43	0	2305818624	43	4477
2026-01-08 02:54:38.02	266.35	31.11	-36.2	-37.8	22.6	0.00e+00	0	43	0	2312110080	43	4474
2026-01-08 02:54:38.88	266.09	31.01	-36.2	-37.8	22.6	0.00e+00	0	43	0	2317352960	43	4482
2026-01-08 02:54:40.03	265.76	30.88	-36.2	-37.9	22.6	0.00e+00	0	43	0	2323644416	43	4498
2026-01-08 02:54:40.89	265.52	30.78	-36.0	-37.7	22.7	0.00e+00	0	43	0	2327838720	43	4399
2026-01-08 02:54:42.03	265.19	30.64	-36.0	-37.6	22.7	0.00e+00	0	43	0	2334130176	43	4389
2026-01-08 02:54:42.89	264.95	30.54	-36.1	-37.7	22.6	0.00e+00	0	43	0	2339373056	43	4438
2026-01-08 02:54:44.03	264.63	30.41	-36.1	-37.7	22.6	0.00e+00	0	43	0	2345664512	43	4436
2026-01-08 02:54:44.89	264.39	30.31	-36.0	-37.6	22.7	0.00e+00	0	43	0	2350907392	43	4385
2026-01-08 02:54:46.04	264.07	30.18	-36.0	-37.6	22.8	0.00e+00	0	43	0	2357198848	43	4358
2026-01-08 02:54:46.90	263.83	30.08	-36.0	-37.6	22.7	0.00e+00	0	43	0	2361393152	43	4386
2026-01-08 02:54:48.05	263.52	29.94	-36.1	-37.7	22.7	0.00e+00	0	43	0	2368733184	43	4410
2026-01-08 02:54:48.91	263.29	29.84	-36.2	-37.9	22.6	0.00e+00	0	43	0	2372927488	43	4500
2026-01-08 02:54:50.06	262.98	29.71	-36.3	-38.0	22.5	0.00e+00	0	43	0	2379218944	43	4554
2026-01-08 02:54:50.92	262.75	29.61	-36.2	-37.9	22.5	0.00e+00	0	43	0	2384461824	43	4516
2026-01-08 02:54:52.07	262.44	29.47	-36.2	-37.9	22.6	0.00e+00	0	43	0	2390753280	43	4498
2026-01-08 02:54:52.93	262.22	29.37	-36.1	-37.8	22.6	0.00e+00	0	43	0	2395996160	43	4457
2026-01-08 02:54:54.07	261.92	29.23	-36.2	-37.8	22.6	0.00e+00	0	43	0	2402287616	43	4487
2026-01-08 02:54:54.93	261.70	29.13	-36.2	-37.8	22.6	0.00e+00	0	43	0	2407530496	43	4481
2026-01-08 02:54:56.14	261.39	28.99	-36.1	-37.7	22.7	0.00e+00	0	43	0	2413821952	43	4409
2026-01-08 02:54:57.00	261.17	28.88	-36.1	-37.7	22.6	0.00e+00	0	43	0	2419064832	43	4430
2026-01-08 02:54:58.15	260.87	28.75	-36.0	-37.6	22.7	0.00e+00	0	43	0	2425356288	43	4390
2026-01-08 02:54:59.01	260.66	28.64	-36.0	-37.7	22.7	0.00e+00	0	43	0	2430599168	43	4392
2026-01-08 02:55:00.16	260.37	28.51	-36.1	-37.8	22.7	0.00e+00	0	43	0	2436890624	43	4456
2026-01-08 02:55:01.01	260.16	28.41	-36.3	-37.9	22.5	0.00e+00	0	43	0	2441084928	43	4529
2026-01-08 02:55:02.35	259.83	28.25	-36.3	-37.9	22.5	0.00e+00	0	43	0	2448424960	43	4529
2026-01-08 02:55:03.07	259.66	28.16	-36.3	-37.9	22.5	0.00e+00	0	43	0	2452619264	43	4533
2026-01-08 02:55:04.36	259.35	28.01	-36.2	-37.9	22.6	0.00e+00	0	43	0	2459959296	43	4507
2026-01-08 02:55:05.08	259.17	27.92	-36.3	-37.9	22.5	0.00e+00	0	43	0	2464153600	43	4517
2026-01-08 02:55:06.37	258.86	27.77	-36.3	-37.9	22.5	0.00e+00	0	43	0	2471493632	43	4518
2026-01-08 02:55:07.13	258.69	27.67	-36.3	-37.9	22.5	0.00e+00	0	43	0	2475687936	43	4525
2026-01-08 02:55:08.42	258.38	27.52	-36.4	-38.1	22.4	0.00e+00	0	43	0	2483027968	43	4622
2026-01-08 02:55:09.13	258.22	27.43	-36.4	-38.0	22.4	0.00e+00	0	43	0	2487222272	43	4578
2026-01-08 02:55:10.42	257.92	27.28	-36.4	-38.1	22.4	0.00e+00	0	43	0	2494562304	43	4607
2026-01-08 02:55:11.14	257.75	27.19	-36.4	-38.1	22.4	0.00e+00	0	43	0	2498756608	43	4601
2026-01-08 02:55:12.43	257.46	27.04	-36.5	-38.2	22.3	0.00e+00	0	43	0	2506096640	43	4657
2026-01-08 02:55:13.15	257.30	26.95	-36.4	-38.1	22.4	0.00e+00	0	43	0	2509242368	43	4622
2026-01-08 02:55:14.44	257.01	26.80	-36.5	-38.2	22.3	0.00e+00	0	43	0	2516582400	43	4667
2026-01-08 02:55:15.43	256.79	26.68	-36.5	-38.1	22.3	0.00e+00	0	43	0	2522873856	43	4640
2026-01-08 02:55:16.43	256.57	26.56	-36.6	-38.2	22.3	0.00e+00	0	43	0	2528116736	43	4686
2026-01-08 02:55:17.43	256.35	26.44	-36.6	-38.3	22.2	0.00e+00	0	44	0	2533359616	43	4724
2026-01-08 02:55:18.43	256.13	26.32	-36.6	-38.3	22.2	0.00e+00	0	43	0	2539651072	43	4726
2026-01-08 02:55:19.43	255.92	26.20	-36.9	-38.5	22.1	0.00e+00	0	43	0	2544893952	44	4594
2026-01-08 02:55:20.43	255.70	26.08	-36.9	-38.6	22.1	0.00e+00	0	43	0	2550136832	44	4624
2026-01-08 02:55:21.44	255.49	25.96	-37.1	-38.8	21.9	0.00e+00	0	43	0	2556428288	44	4737
2026-01-08 02:55:22.44	255.28	25.84	-37.1	-38.8	21.9	0.00e+00	0	43	0	2561671168	44	4741
2026-01-08 02:55:23.51	255.05	25.72	-37.0	-38.7	22.0	0.00e+00	0	43	0	2567962624	45	4421
2026-01-08 02:55:24.40	254.87	25.61	-36.9	-38.5	22.1	0.00e+00	0	43	0	2573205504	45	4333
2026-01-08 02:55:25.64	254.61	25.46	-37.0	-38.6	22.1	0.00e+00	0	43	0	2579496960	45	4368
2026-01-08 02:55:26.49	254.44	25.36	-37.0	-38.6	22.0	0.00e+00	0	43	0	2584739840	45	4380
2026-01-08 02:55:27.77	254.18	25.21	-37.1	-38.8	21.9	0.00e+00	0	43	0	2592079872	45	4461
2026-01-08 02:55:28.49	254.04	25.13	-37.2	-38.9	21.9	0.00e+00	0	43	0	2596274176	45	4507
2026-01-08 02:55:29.78	253.78	24.97	-37.3	-39.0	21.8	0.00e+00	0	43	0	2603614208	45	4560
2026-01-08 02:55:30.50	253.64	24.89	-37.2	-39.0	21.8	0.00e+00	0	43	0	2606759936	45	4559
2026-01-08 02:55:31.79	253.38	24.74	-37.2	-39.0	21.8	0.00e+00	0	43	0	2614099968	45	4546
2026-01-08 02:55:32.50	253.24	24.65	-37.2	-38.9	21.8	0.00e+00	0	43	0	2618294272	45	4505
2026-01-08 02:55:33.79	252.99	24.50	-37.1	-38.9	21.8	0.00e+00	0	43	0	2625634304	45	4497
2026-01-08 02:55:34.51	252.86	24.42	-37.1	-38.8	21.9	0.00e+00	0	44	0	2629828608	45	4484
2026-01-08 02:55:35.80	252.61	24.27	-37.2	-38.9	21.8	0.00e+00	0	43	0	2637168640	45	4505
2026-01-08 02:55:36.51	252.48	24.18	-37.2	-38.9	21.8	0.00e+00	0	43	0	2641362944	45	4516
2026-01-08 02:55:37.80	252.23	24.03	-37.2	-38.9	21.8	0.00e+00	0	43	0	2648702976	45	4513
2026-01-08 02:55:38.76	252.05	23.92	-37.2	-38.9	21.8	0.00e+00	0	43	0	2653945856	45	4525
2026-01-08 02:55:39.76	251.87	23.80	-37.2	-38.9	21.9	0.00e+00	0	43	0	2659188736	45	4499
2026-01-08 02:55:40.77	251.68	23.69	-37.2	-38.9	21.8	0.00e+00	0	43	0	2665480192	45	4505
2026-01-08 02:55:41.77	251.50	23.57	-37.3	-39.0	21.7	0.00e+00	0	43	0	2670723072	45	4560
2026-01-08 02:55:42.77	251.32	23.46	-37.3	-39.0	21.8	0.00e+00	0	43	0	2675965952	45	4565
2026-01-08 02:55:43.78	251.14	23.34	-37.3	-39.0	21.7	0.00e+00	0	43	0	2682257408	45	4583
2026-01-08 02:55:44.78	250.96	23.22	-37.3	-39.1	21.7	0.00e+00	0	43	0	2687500288	45	4606
2026-01-08 02:55:45.79	250.78	23.11	-37.4	-39.2	21.6	0.00e+00	0	43	0	2692743168	45	4659
2026-01-08 02:55:46.79	250.61	22.99	-37.5	-39.2	21.5	0.00e+00	0	43	0	2699034624	45	4672
2026-01-08 02:55:47.79	250.43	22.88	-37.4	-39.0	21.7	0.00e+00	0	43	0	2704277504	45	4596
2026-01-08 02:55:48.79	250.26	22.76	-37.3	-39.0	21.7	0.00e+00	0	43	0	2710568960	45	4573
2026-01-08 02:55:49.80	250.09	22.65	-37.4	-39.1	21.7	0.00e+00	0	43	0	2715811840	45	4599
2026-01-08 02:55:50.80	249.92	22.53	-37.3	-39.0	21.7	0.00e+00	0	43	0	2721054720	45	4577
2026-01-08 02:55:51.81	249.75	22.42	-37.3	-39.0	21.7	0.00e+00	0	44	0	2727346176	45	4567
2026-01-08 02:55:53.10	249.53	22.27	-37.2	-38.9	21.8	0.00e+00	0	43	0	2734686208	45	4527
2026-01-08 02:55:53.86	249.40	22.19	-37.2	-39.0	21.8	0.00e+00	0	43	0	2738880512	45	4547
2026-01-08 02:55:55.49	249.14	22.00	-37.2	-38.9	21.8	0.00e+00	0	43	0	2747269120	45	4506
2026-01-08 02:55:56.06	249.04	21.94	-37.2	-38.9	21.8	0.00e+00	0	44	0	2751463424	45	4531
2026-01-08 02:55:57.65	248.78	21.76	-37.2	-39.0	21.7	0.00e+00	0	44	0	2759852032	45	4550
2026-01-08 02:55:58.24	248.69	21.69	-37.2	-38.9	21.7	0.00e+00	0	43	0	2762997760	45	4534
2026-01-08 02:55:59.81	248.44	21.52	-37.2	-39.0	21.7	0.00e+00	0	43	0	2772434944	45	4558
2026-01-08 02:56:00.40	248.34	21.45	-37.3	-39.0	21.7	0.00e+00	0	43	0	2775580672	45	4588
2026-01-08 02:56:01.98	248.10	21.28	-37.2	-38.9	21.8	0.00e+00	0	43	0	2783969280	45	4515
2026-01-08 02:56:02.60	248.00	21.21	-37.2	-38.9	21.7	0.00e+00	0	43	0	2788163584	45	4539
2026-01-08 02:56:04.17	247.76	21.03	-37.2	-38.9	21.8	0.00e+00	0	43	0	2796552192	45	4533
2026-01-08 02:56:04.76	247.67	20.97	-37.2	-38.9	21.7	0.00e+00	0	44	0	2799697920	45	4543
2026-01-08 02:56:06.34	247.43	20.79	-37.4	-39.1	21.6	0.00e+00	0	44	0	2809135104	45	4619
2026-01-08 02:56:06.91	247.34	20.73	-37.4	-39.1	21.6	0.00e+00	0	43	0	2812280832	45	4648
2026-01-08 02:56:08.50	247.10	20.56	-37.5	-39.2	21.5	0.00e+00	0	43	0	2820669440	45	4693
2026-01-08 02:56:09.19	247.00	20.48	-37.6	-39.3	21.4	0.00e+00	0	43	0	2824863744	45	4740
2026-01-08 02:56:10.62	246.79	20.32	-37.6	-39.3	21.4	0.00e+00	0	43	0	2833252352	45	4742
2026-01-08 02:56:11.34	246.68	20.25	-37.6	-39.3	21.4	0.00e+00	0	43	0	2836398080	45	4755
2026-01-08 02:56:12.63	246.49	20.11	-37.7	-39.4	21.3	0.00e+00	0	44	0	2843738112	46	4526
2026-01-08 02:56:13.34	246.39	20.03	-37.7	-39.5	21.3	0.00e+00	0	43	0	2847932416	46	4546
2026-01-08 02:56:14.63	246.21	19.89	-37.7	-39.4	21.3	0.00e+00	0	43	0	2855272448	46	4536
2026-01-08 02:56:15.35	246.10	19.81	-37.7	-39.5	21.3	0.00e+00	0	43	0	2859466752	46	4547
2026-01-08 02:56:16.64	245.92	19.67	-37.7	-39.5	21.3	0.00e+00	0	43	0	2866806784	46	4548
2026-01-08 02:56:17.36	245.82	19.60	-37.8	-39.5	21.2	0.00e+00	0	43	0	2871001088	46	4594
2026-01-08 02:56:18.74	245.63	19.45	-37.8	-39.5	21.2	0.00e+00	0	43	0	2878341120	46	4577
2026-01-08 02:56:19.46	245.53	19.37	-37.7	-39.4	21.3	0.00e+00	0	43	0	2882535424	46	4519
2026-01-08 02:56:20.75	245.35	19.24	-37.8	-39.5	21.3	0.00e+00	0	44	0	2889875456	46	4567
2026-01-08 02:56:21.47	245.25	19.16	-37.8	-39.5	21.2	0.00e+00	0	43	0	2894069760	46	4564
2026-01-08 02:56:22.76	245.08	19.02	-37.8	-39.6	21.2	0.00e+00	0	44	0	2901409792	46	4599
2026-01-08 02:56:23.47	244.98	18.95	-37.8	-39.5	21.2	0.00e+00	0	43	0	2905604096	46	4576
2026-01-08 02:56:24.76	244.81	18.81	-37.8	-39.5	21.3	0.00e+00	0	43	0	2912944128	46	4578
2026-01-08 02:56:25.48	244.72	18.74	-37.8	-39.6	21.2	0.00e+00	0	43	0	2916089856	46	4602
2026-01-08 02:56:26.77	244.55	18.60	-37.9	-39.7	21.1	0.00e+00	0	43	0	2923429888	46	4661
2026-01-08 02:56:27.49	244.45	18.53	-38.0	-39.7	21.0	0.00e+00	0	43	0	2927624192	46	4683
2026-01-08 02:56:28.78	244.28	18.40	-38.1	-39.9	20.9	0.00e+00	0	43	0	2934964224	46	4773
2026-01-08 02:56:29.49	244.19	18.32	-38.1	-39.9	20.9	0.00e+00	0	43	0	2939158528	46	4782
2026-01-08 02:56:30.78	244.03	18.19	-38.2	-40.0	20.8	0.00e+00	0	43	0	2946498560	47	4553
2026-01-08 02:56:31.50	243.94	18.11	-38.2	-39.9	20.9	0.00e+00	0	43	0	2950692864	47	4532
2026-01-08 02:56:32.79	243.77	17.98	-38.2	-40.0	20.8	0.00e+00	0	43	0	2958032896	47	4555
2026-01-08 02:56:33.52	243.68	17.91	-38.3	-40.0	20.8	0.00e+00	0	43	0	2962227200	47	4571
2026-01-08 02:56:34.81	243.52	17.77	-38.3	-40.0	20.7	0.00e+00	0	43	0	2969567232	47	4569
2026-01-08 02:56:35.53	243.43	17.70	-38.3	-40.0	20.8	0.00e+00	0	43	0	2972712960	47	4576
2026-01-08 02:56:36.93	243.26	17.56	-38.4	-40.1	20.6	0.00e+00	0	44	0	2981101568	47	4643
2026-01-08 02:56:37.90	243.14	17.46	-38.4	-40.1	20.6	0.00e+00	0	43	0	2986344448	47	4650
2026-01-08 02:56:39.21	242.98	17.33	-38.6	-40.3	20.5	0.00e+00	0	43	0	2993684480	47	4743
2026-01-08 02:56:39.96	242.89	17.25	-38.6	-40.4	20.4	0.00e+00	0	43	0	2997878784	47	4760
2026-01-08 02:56:41.25	242.74	17.12	-38.6	-40.4	20.4	0.00e+00	0	44	0	3005218816	47	4763
2026-01-08 02:56:41.96	242.66	17.05	-38.5	-40.3	20.5	0.00e+00	0	44	0	3009413120	47	4747
2026-01-08 02:56:43.25	242.50	16.92	-38.5	-40.4	20.5	0.00e+00	0	43	0	3016753152	47	4760
2026-01-08 02:56:43.97	242.42	16.85	-38.6	-40.4	20.4	0.00e+00	0	44	0	3020947456	47	4814
2026-01-08 02:56:45.26	242.27	16.72	-38.6	-40.5	20.4	0.00e+00	0	43	0	3027238912	47	4816
2026-01-08 02:56:45.97	242.19	16.65	-38.8	-40.6	20.5	0.00e+00	0	43	0	3031433216	48	4600
2026-01-08 02:56:47.27	242.04	16.53	-38.6	-40.4	20.6	0.00e+00	0	43	0	3038773248	48	4525
2026-01-08 02:56:47.98	241.96	16.46	-38.7	-40.5	20.6	0.00e+00	0	43	0	3042967552	48	4557
2026-01-08 02:56:49.33	241.81	16.32	-38.7	-40.5	20.6	0.00e+00	0	43	0	3050307584	48	4561
2026-01-08 02:56:50.32	241.70	16.23	-38.7	-40.5	20.5	0.00e+00	0	43	0	3056599040	48	4567
2026-01-08 02:56:51.33	241.58	16.13	-38.8	-40.6	20.4	0.00e+00	0	43	0	3061841920	48	4628
2026-01-08 02:56:52.33	241.47	16.03	-38.9	-40.6	20.5	0.00e+00	0	43	0	3067084800	48	4628
2026-01-08 02:56:53.33	241.36	15.93	-38.9	-40.7	20.4	0.00e+00	0	43	0	3073376256	48	4672
2026-01-08 02:56:54.33	241.25	15.84	-39.0	-40.7	20.3	0.00e+00	0	43	0	3078619136	48	4694
2026-01-08 02:56:55.34	241.15	15.74	-38.9	-40.6	20.4	0.00e+00	0	43	0	3084910592	48	4642
2026-01-08 02:56:56.34	241.04	15.64	-39.0	-40.8	20.3	0.00e+00	0	43	0	3090153472	48	4722
2026-01-08 02:56:57.34	240.93	15.55	-39.0	-40.8	20.3	0.00e+00	0	43	0	3095396352	48	4714
2026-01-08 02:56:58.35	240.82	15.45	-38.9	-40.7	20.3	0.00e+00	0	43	0	3101687808	48	4685
2026-01-08 02:56:59.49	240.70	15.34	-39.0	-40.8	20.3	0.00e+00	0	43	0	3107979264	48	4707
2026-01-08 02:57:00.39	240.61	15.26	-39.1	-40.9	20.2	0.00e+00	0	43	0	3113222144	48	4777
2026-01-08 02:57:01.53	240.49	15.15	-39.1	-40.9	20.1	0.00e+00	0	43	0	3119513600	49	4540
2026-01-08 02:57:02.45	240.40	15.06	-39.1	-40.9	20.1	0.00e+00	0	43	0	3124756480	49	4538
2026-01-08 02:57:03.63	240.27	14.95	-39.1	-40.9	20.2	0.00e+00	0	43	0	3131047936	49	4507
2026-01-08 02:57:04.49	240.19	14.87	-39.1	-40.9	20.2	0.00e+00	0	43	0	3136290816	49	4503
2026-01-08 02:57:05.86	240.05	14.74	-39.0	-40.9	20.2	0.00e+00	0	44	0	3143630848	49	4498
2026-01-08 02:57:06.57	239.98	14.68	-39.0	-40.8	20.2	0.00e+00	0	43	0	3147825152	49	4486
2026-01-08 02:57:07.87	239.85	14.56	-39.1	-40.9	20.2	0.00e+00	0	43	0	3155165184	49	4502
2026-01-08 02:57:08.58	239.78	14.49	-39.1	-40.9	20.1	0.00e+00	0	43	0	3159359488	49	4531
2026-01-08 02:57:09.87	239.65	14.37	-39.1	-41.0	20.1	0.00e+00	0	43	0	3166699520	49	4552
2026-01-08 02:57:10.64	239.57	14.30	-39.2	-41.0	20.1	0.00e+00	0	44	0	3170893824	49	4551
2026-01-08 02:57:11.92	239.45	14.18	-39.3	-41.1	20.0	0.00e+00	0	43	0	3178233856	49	4603
2026-01-08 02:57:12.72	239.37	14.11	-39.2	-41.0	20.0	0.00e+00	0	43	0	3182428160	49	4595
2026-01-08 02:57:13.86	239.26	14.01	-39.3	-41.1	19.9	0.00e+00	0	43	0	3188719616	49	4633
2026-01-08 02:57:14.72	239.18	13.93	-39.4	-41.2	19.9	0.00e+00	0	44	0	3193962496	49	4676
2026-01-08 02:57:15.87	239.07	13.82	-39.4	-41.2	19.8	0.00e+00	0	44	0	3200253952	49	4687
2026-01-08 02:57:16.73	238.99	13.74	-39.5	-41.3	19.8	0.00e+00	0	43	0	3204448256	49	4724
2026-01-08 02:57:17.87	238.88	13.64	-39.6	-41.4	19.7	0.00e+00	0	43	0	3210739712	49	4781
2026-01-08 02:57:18.73	238.80	13.56	-39.5	-41.3	19.7	0.00e+00	0	43	0	3215982592	49	4752
2026-01-08 02:57:19.90	238.69	13.46	-39.6	-41.4	19.6	0.00e+00	0	43	0	3222274048	49	4801
2026-01-08 02:57:20.76	238.61	13.38	-39.6	-41.4	19.6	0.00e+00	0	43	0	3227516928	49	4801
2026-01-08 02:57:21.90	238.51	13.28	-39.6	-41.4	19.6	0.00e+00	0	43	0	3233808384	49	4811
2026-01-08 02:57:22.76	238.43	13.20	-39.7	-41.5	19.5	0.00e+00	0	43	0	3239051264	50	4589
2026-01-08 02:57:23.90	238.33	13.10	-39.7	-41.5	19.6	0.00e+00	0	43	0	3245342720	50	4562
2026-01-08 02:57:24.77	238.25	13.03	-39.7	-41.5	19.6	0.00e+00	0	43	0	3249537024	50	4571
2026-01-08 02:57:25.91	238.15	12.92	-39.7	-41.5	19.6	0.00e+00	0	43	0	3256877056	50	4578
2026-01-08 02:57:26.88	238.06	12.84	-39.8	-41.6	19.5	0.00e+00	0	43	0	3262119936	50	4616
2026-01-08 02:57:27.89	237.97	12.75	-39.8	-41.7	19.4	0.00e+00	0	44	0	3267362816	50	4669
2026-01-08 02:57:29.10	237.87	12.64	-39.7	-41.6	19.5	0.00e+00	0	43	0	3274702848	50	4600
2026-01-08 02:57:29.99	237.79	12.57	-39.8	-41.6	19.5	0.00e+00	0	43	0	3278897152	50	4629
2026-01-08 02:57:31.13	237.69	12.47	-39.8	-41.6	19.4	0.00e+00	0	43	0	3286237184	50	4646
2026-01-08 02:57:32.06	237.61	12.39	-39.8	-41.7	19.4	0.00e+00	0	43	0	3290431488	50	4657
2026-01-08 02:57:33.06	237.53	12.30	-39.9	-41.7	19.4	0.00e+00	0	43	0	3296722944	50	4666
2026-01-08 02:57:34.06	237.44	12.21	-39.8	-41.6	19.5	0.00e+00	0	43	0	3301965824	50	4618
2026-01-08 02:57:35.07	237.36	12.13	-39.8	-41.6	19.4	0.00e+00	0	43	0	3308257280	50	4642
2026-01-08 02:57:36.07	237.27	12.04	-39.8	-41.7	19.4	0.00e+00	0	43	0	3313500160	50	4657
2026-01-08 02:57:37.07	237.19	11.96	-39.8	-41.6	19.4	0.00e+00	0	43	0	3318743040	50	4650
2026-01-08 02:57:38.07	237.10	11.87	-39.8	-41.6	19.4	0.00e+00	0	43	0	3325034496	50	4645
2026-01-08 02:57:39.08	237.02	11.78	-39.8	-41.7	19.4	0.00e+00	0	43	0	3330277376	50	4668
2026-01-08 02:57:40.08	236.94	11.70	-39.9	-41.8	19.3	0.00e+00	0	43	0	3336568832	50	4707
2026-01-08 02:57:41.08	236.86	11.62	-39.9	-41.7	19.3	0.00e+00	0	44	0	3341811712	50	4694
2026-01-08 02:57:42.09	236.78	11.53	-39.9	-41.8	19.3	0.00e+00	0	43	0	3347054592	50	4714
2026-01-08 02:57:43.11	236.69	11.44	-39.9	-41.8	19.2	0.00e+00	0	43	0	3353346048	50	4736
2026-01-08 02:57:44.14	236.61	11.36	-40.0	-41.9	19.2	0.00e+00	0	43	0	3358588928	50	4765
2026-01-08 02:57:45.14	236.53	11.27	-40.1	-42.0	19.0	0.00e+00	0	43	0	3364880384	50	4857
2026-01-08 02:57:46.21	236.45	11.19	-40.1	-42.0	19.1	0.00e+00	0	43	0	3370123264	50	4834
2026-01-08 02:57:47.10	236.38	11.11	-40.7	-42.5	19.0	0.00e+00	0	43	0	3375366144	51	4851
2026-01-08 02:57:48.12	236.30	11.03	-40.2	-42.1	18.9	0.00e+00	0	43	0	3381657600	51	4649
2026-01-08 02:57:49.31	236.21	10.93	-40.1	-42.0	19.0	0.00e+00	0	43	0	3387949056	51	4597
2026-01-08 02:57:50.18	236.14	10.86	-40.3	-42.2	18.9	0.00e+00	0	43	0	3393191936	51	4662
2026-01-08 02:57:51.32	236.05	10.76	-40.2	-42.1	19.0	0.00e+00	0	43	0	3399483392	51	4600
2026-01-08 02:57:52.18	235.99	10.69	-40.1	-42.0	19.0	0.00e+00	0	43	0	3403677696	51	4584
2026-01-08 02:57:53.33	235.90	10.60	-40.2	-42.1	18.9	0.00e+00	0	43	0	3411017728	51	4623
2026-01-08 02:57:54.19	235.83	10.53	-40.2	-42.1	18.9	0.00e+00	0	43	0	3415212032	51	4625
2026-01-08 02:57:55.33	235.75	10.44	-40.2	-42.1	18.9	0.00e+00	0	43	0	3421503488	51	4640
2026-01-08 02:57:56.19	235.68	10.37	-40.3	-42.2	18.8	0.00e+00	0	43	0	3426746368	51	4676
2026-01-08 02:57:57.34	235.60	10.27	-40.4	-42.4	18.7	0.00e+00	0	43	0	3433037824	51	4764
2026-01-08 02:57:58.49	235.51	10.18	-40.3	-42.2	18.8	0.00e+00	0	44	0	3439329280	51	4697
2026-01-08 02:57:59.35	235.45	10.11	-40.3	-42.3	18.8	0.00e+00	0	43	0	3444572160	51	4709
2026-01-08 02:58:00.50	235.37	10.02	-40.3	-42.2	18.8	0.00e+00	0	43	0	3450863616	51	4691
2026-01-08 02:58:01.36	235.30	9.95	-40.4	-42.4	18.7	0.00e+00	0	43	0	3456106496	51	4765
2026-01-08 02:58:02.51	235.22	9.86	-40.3	-42.3	18.7	0.00e+00	0	44	0	3462397952	51	4711
2026-01-08 02:58:03.36	235.16	9.79	-40.3	-42.3	18.7	0.00e+00	0	43	0	3467640832	51	4720
2026-01-08 02:58:04.51	235.08	9.70	-40.5	-42.5	18.5	0.00e+00	0	44	0	3473932288	51	4829
2026-01-08 02:58:05.37	235.02	9.63	-40.4	-42.4	18.6	0.00e+00	0	43	0	3478126592	51	4778
2026-01-08 02:58:06.52	234.94	9.54	-40.4	-42.3	18.7	0.00e+00	0	43	0	3484418048	51	4728
2026-01-08 02:58:07.38	234.88	9.47	-40.5	-42.4	18.6	0.00e+00	0	44	0	3489660928	51	4791
2026-01-08 02:58:08.52	234.80	9.38	-40.4	-42.3	18.7	0.00e+00	0	43	0	3495952384	51	4745
2026-01-08 02:58:09.38	234.74	9.32	-40.4	-42.3	18.7	0.00e+00	0	43	0	3501195264	51	4717
2026-01-08 02:58:10.53	234.66	9.23	-40.4	-42.3	18.7	0.00e+00	0	43	0	3507486720	51	4741
2026-01-08 02:58:11.39	234.60	9.16	-40.5	-42.4	18.6	0.00e+00	0	43	0	3511681024	51	4782
2026-01-08 02:58:12.53	234.52	9.07	-40.4	-42.3	18.6	0.00e+00	0	43	0	3519021056	51	4735
2026-01-08 02:58:13.40	234.46	9.00	-44.0	-46.5	14.9	0.00e+00	0	44	0	3523215360	58	5129
2026-01-08 02:58:14.54	234.39	8.91	-50.5	-62.7	3.8	8.46e-01	0	44	104	3524263936	71	15626
2026-01-08 02:58:15.40	234.33	8.85	-50.6	-62.9	3.8	8.47e-01	0	44	104	3524263936	71	16069
2026-01-08 02:58:16.55	234.25	8.76	-50.6	-63.0	3.8	8.46e-01	0	44	104	3524263936	72	15258
2026-01-08 02:58:17.41	234.20	8.69	-50.8	-63.0	3.8	8.49e-01	0	43	104	3524263936	72	15327
2026-01-08 02:58:18.56	234.12	8.61	-50.7	-63.1	3.8	8.45e-01	0	43	104	3524263936	72	15434
2026-01-08 02:58:19.42	234.06	8.54	-50.9	-63.1	3.8	8.47e-01	0	44	104	3524263936	72	15521
2026-01-08 02:58:20.57	233.99	8.45	-51.0	-63.1	3.8	8.47e-01	0	43	104	3524263936	72	15572
2026-01-08 02:58:21.43	233.93	8.39	-50.9	-63.1	3.8	8.47e-01	0	44	104	3524263936	72	15563
2026-01-08 02:58:22.58	233.86	8.30	-51.0	-63.1	3.8	8.46e-01	0	43	104	3524263936	72	15546
2026-01-08 02:58:23.44	233.80	8.24	-50.9	-63.1	3.8	8.47e-01	0	43	104	3524263936	72	15570
2026-01-08 02:58:24.59	233.73	8.15	-50.8	-63.1	3.8	8.47e-01	0	43	104	3524263936	72	15528
2026-01-08 02:58:25.45	233.68	8.08	-50.9	-63.1	3.8	8.47e-01	0	43	104	3524263936	72	15567
2026-01-08 02:58:26.60	233.60	8.00	-50.9	-63.1	3.8	8.47e-01	0	43	104	3524263936	72	15501
2026-01-08 02:58:27.46	233.55	7.93	-50.9	-63.1	3.8	8.46e-01	0	43	104	3524263936	72	15530
2026-01-08 02:58:28.61	233.48	7.85	-50.9	-63.1	3.8	8.47e-01	0	43	104	3524263936	72	15560
2026-01-08 02:58:29.47	233.42	7.78	-50.9	-63.1	3.8	8.47e-01	0	44	104	3524263936	72	15571
2026-01-08 02:58:30.61	233.35	7.70	-50.8	-63.1	3.8	8.47e-01	0	43	104	3524263936	72	15541
2026-01-08 02:58:31.48	233.30	7.63	-50.8	-63.1	3.8	8.46e-01	0	43	104	3524263936	72	15470
2026-01-08 02:58:32.62	233.23	7.55	-50.7	-63.1	3.8	8.47e-01	0	43	104	3524263936	72	15507
2026-01-08 02:58:33.48	233.18	7.49	-50.6	-63.1	3.8	8.48e-01	0	43	104	3524263936	72	15496
2026-01-08 02:58:34.63	233.11	7.40	-50.5	-63.1	3.8	8.47e-01	0	43	104	3524263936	72	15502
2026-01-08 02:58:35.49	233.06	7.34	-50.5	-63.1	3.8	8.47e-01	0	44	104	3524263936	72	15417
2026-01-08 02:58:36.64	232.99	7.26	-50.5	-63.0	3.8	8.47e-01	0	43	104	3524263936	72	15391
2026-01-08 02:58:37.50	232.94	7.19	-50.5	-63.0	3.8	8.48e-01	0	43	104	3524263936	72	15399
2026-01-08 02:58:38.65	232.87	7.11	-50.5	-63.1	3.8	8.48e-01	0	44	104	3524263936	72	15431
2026-01-08 02:58:39.51	232.82	7.05	-50.5	-63.1	3.8	8.48e-01	0	44	104	3524263936	72	15404
2026-01-08 02:58:40.66	232.75	6.96	-50.5	-63.1	3.8	8.47e-01	0	44	104	3524263936	72	15404
