passes_logs/2026/01/08/T1/T1__20260108_043307_FENGYUN_3E_rec.log

#Pass ID: 20260108_043307_FENGYUN 3E
#Satellite: FENGYUN 3E
#Configuration: FENGYUN 3E
#almurnet v.1.7.20251203
#Start time: 2026-01-08 04:33:08

#Version: 2.0.20230620
#Station: T1
#Location: 37.570604 lon 55.790049 lat
#TLE: 1 49008U 21062A   26007.88844255 -.00000338  00000+0 -13865-3 0  9992
#TLE: 2 49008  98.7481  13.0996 0001694 151.5348 208.5921 14.19883289233834

#Time	Az	El	Level	Level2	SNR	BER	BlckErr	Temp	State	Recorded	gain1	gain2
2026-01-08 04:33:08.08	12.65	5.05	-48.6	-61.6	3.8	8.46e-01	0	39	0	0	68	15240
2026-01-08 04:33:09.08	12.62	5.12	-48.5	-61.4	3.8	8.48e-01	0	39	104	0	66	16767
2026-01-08 04:33:10.09	12.59	5.19	-48.5	-61.3	3.8	8.46e-01	0	39	104	0	66	16678
2026-01-08 04:33:11.09	12.56	5.26	-48.5	-61.3	3.8	8.47e-01	0	38	104	0	66	16618
2026-01-08 04:33:12.10	12.54	5.33	-48.5	-61.3	3.8	8.48e-01	0	39	104	0	66	16633
2026-01-08 04:33:13.10	12.51	5.40	-48.5	-61.3	3.8	8.47e-01	0	39	104	0	66	16583
2026-01-08 04:33:14.10	12.48	5.47	-48.5	-61.3	3.8	8.47e-01	0	39	104	0	66	16595
2026-01-08 04:33:15.11	12.45	5.54	-48.5	-61.3	3.8	8.46e-01	0	39	104	0	66	16513
2026-01-08 04:33:16.11	12.42	5.61	-48.5	-61.3	3.8	8.47e-01	0	39	104	0	66	16533
2026-01-08 04:33:17.12	12.40	5.69	-48.5	-61.2	3.8	8.47e-01	0	39	104	0	66	16477
2026-01-08 04:33:18.12	12.37	5.76	-48.5	-61.2	3.8	8.47e-01	0	39	104	0	66	16423
2026-01-08 04:33:19.13	12.34	5.83	-48.4	-61.3	3.8	8.46e-01	0	39	104	0	66	16531
2026-01-08 04:33:20.13	12.31	5.90	-48.5	-61.2	3.8	8.47e-01	0	39	104	0	66	16493
2026-01-08 04:33:21.13	12.28	5.98	-48.5	-61.2	3.8	8.46e-01	0	39	104	0	66	16490
2026-01-08 04:33:22.14	12.25	6.05	-48.4	-61.2	3.8	8.46e-01	0	39	104	0	66	16338
2026-01-08 04:33:23.15	12.22	6.12	-48.4	-61.2	3.8	8.47e-01	0	39	104	0	66	16336
2026-01-08 04:33:24.15	12.19	6.20	-48.4	-61.0	3.8	8.48e-01	0	39	104	0	66	16080
2026-01-08 04:33:25.15	12.16	6.27	-48.4	-61.0	3.8	8.47e-01	0	39	104	0	66	15989
2026-01-08 04:33:26.16	12.13	6.34	-48.4	-60.7	3.8	8.46e-01	0	39	104	0	66	15507
2026-01-08 04:33:27.16	12.10	6.42	-48.4	-60.5	3.8	8.46e-01	0	39	104	0	66	15148
2026-01-08 04:33:28.17	12.07	6.49	-48.4	-60.1	3.8	8.47e-01	0	39	104	0	66	14398
2026-01-08 04:33:29.17	12.04	6.56	-48.3	-59.7	3.8	8.47e-01	0	39	104	0	66	13780
2026-01-08 04:33:30.18	12.01	6.64	-48.3	-59.3	3.8	8.45e-01	0	39	104	0	66	13144
2026-01-08 04:33:31.18	11.98	6.71	-48.3	-58.8	4.0	8.45e-01	0	39	104	0	66	12442
2026-01-08 04:33:32.19	11.95	6.79	-48.2	-58.3	4.1	8.43e-01	0	40	104	0	66	11715
2026-01-08 04:33:33.19	11.91	6.86	-48.2	-58.1	4.2	8.39e-01	0	40	0	0	66	11430
2026-01-08 04:33:34.20	11.88	6.94	-48.2	-57.8	4.2	8.35e-01	0	39	0	0	66	11139
2026-01-08 04:33:35.20	11.85	7.02	-48.2	-57.8	4.2	8.35e-01	0	40	0	0	66	11069
2026-01-08 04:33:36.20	11.82	7.09	-48.2	-57.7	4.2	8.36e-01	0	39	0	0	66	11020
2026-01-08 04:33:37.21	11.79	7.17	-48.2	-57.9	4.2	8.38e-01	0	40	0	0	66	11201
2026-01-08 04:33:38.21	11.75	7.24	-48.2	-57.9	4.2	8.38e-01	0	40	0	0	66	11238
2026-01-08 04:33:39.22	11.72	7.32	-48.2	-58.0	4.2	8.39e-01	0	40	0	0	66	11415
2026-01-08 04:33:40.22	11.69	7.40	-48.2	-58.3	4.1	8.42e-01	0	40	0	0	66	11741
2026-01-08 04:33:41.23	11.66	7.47	-48.2	-58.2	4.1	8.42e-01	0	40	0	0	66	11581
2026-01-08 04:33:42.23	11.62	7.55	-48.2	-57.9	4.2	8.36e-01	0	40	0	0	66	11175
2026-01-08 04:33:43.23	11.59	7.63	-48.1	-57.4	4.3	8.35e-01	0	40	0	0	66	10602
2026-01-08 04:33:44.24	11.56	7.71	-48.0	-56.6	4.7	8.15e-01	0	40	0	0	66	9695
2026-01-08 04:33:45.24	11.52	7.78	-47.9	-56.0	5.0	7.79e-01	0	40	0	0	66	8985
2026-01-08 04:33:46.24	11.49	7.86	-47.7	-55.0	5.6	7.28e-01	0	40	0	0	66	8025
2026-01-08 04:33:47.25	11.45	7.94	-47.4	-53.9	6.4	2.92e-01	0	40	0	6291456	65	7488
2026-01-08 04:33:48.25	11.42	8.02	-47.2	-53.0	7.1	1.57e-01	0	40	0	12582912	65	6781
2026-01-08 04:33:49.26	11.39	8.10	-46.8	-51.9	8.2	6.52e-02	0	40	0	19922944	64	6320
2026-01-08 04:33:50.26	11.35	8.17	-46.6	-51.3	9.0	3.35e-02	0	40	0	27262976	63	6238
2026-01-08 04:33:51.27	11.32	8.25	-46.2	-50.4	9.9	1.37e-02	0	40	0	34603008	63	5613
2026-01-08 04:33:52.27	11.28	8.33	-46.0	-49.9	10.4	4.86e-03	0	40	0	41943040	62	5608
2026-01-08 04:33:53.28	11.24	8.41	-45.7	-49.2	11.2	2.10e-03	0	40	0	49283072	62	5174
2026-01-08 04:33:54.28	11.21	8.49	-45.4	-48.8	11.6	7.90e-04	0	40	0	56623104	61	5233
2026-01-08 04:33:55.29	11.17	8.57	-45.2	-48.4	12.0	4.58e-04	0	40	0	63963136	61	5001
2026-01-08 04:33:56.29	11.14	8.65	-45.2	-48.4	12.0	3.67e-04	0	40	0	71303168	61	4987
2026-01-08 04:33:57.29	11.10	8.73	-45.3	-48.5	11.9	2.83e-04	0	40	0	78643200	61	5053
2026-01-08 04:33:58.30	11.06	8.82	-45.3	-48.5	11.8	3.23e-04	0	40	0	85983232	61	5096
2026-01-08 04:33:59.30	11.03	8.90	-45.5	-48.9	11.5	7.20e-04	0	40	0	93323264	61	5292
2026-01-08 04:34:00.31	10.99	8.98	-45.7	-49.4	11.0	1.61e-03	0	40	0	99614720	61	5593
2026-01-08 04:34:01.31	10.95	9.06	-45.9	-49.8	10.5	4.87e-03	0	40	0	106954752	61	5878
2026-01-08 04:34:02.31	10.92	9.14	-46.4	-50.6	9.7	1.89e-03	0	40	0	114294784	62	6125
2026-01-08 04:34:03.31	10.88	9.22	-48.1	-56.7	4.1	8.45e-01	0	40	104	116391936	66	9756
2026-01-08 04:34:04.37	10.84	9.31	-42.3	-44.2	16.0	0.00e+00	0	40	0	120586240	55	4350
2026-01-08 04:34:05.30	10.80	9.39	-41.6	-43.3	16.9	0.00e+00	0	40	0	127926272	54	4179
2026-01-08 04:34:06.30	10.77	9.47	-46.8	-52.5	7.8	8.85e-02	0	40	0	135266304	63	7133
2026-01-08 04:34:07.31	10.73	9.55	-45.6	-49.5	10.8	4.17e-03	0	40	0	142606336	62	5379
2026-01-08 04:34:08.31	10.69	9.64	-44.9	-48.0	12.4	3.71e-04	0	40	0	148897792	60	5066
2026-01-08 04:34:09.31	10.65	9.72	-43.8	-46.2	14.1	9.10e-06	0	40	0	156237824	58	4644
2026-01-08 04:34:10.32	10.61	9.80	-43.1	-45.2	15.1	0.00e+00	0	40	0	163577856	57	4366
2026-01-08 04:34:11.32	10.57	9.89	-42.4	-44.2	16.0	0.00e+00	0	40	0	170917888	55	4377
2026-01-08 04:34:12.32	10.53	9.97	-42.4	-44.2	15.9	0.00e+00	0	40	0	178257920	54	4637
2026-01-08 04:34:13.32	10.49	10.06	-42.2	-44.0	16.2	0.00e+00	0	40	0	185597952	54	4526
2026-01-08 04:34:14.32	10.45	10.14	-41.8	-43.5	16.7	0.00e+00	0	40	0	192937984	54	4248
2026-01-08 04:34:15.32	10.41	10.23	-41.7	-43.3	16.9	0.00e+00	0	40	0	200278016	54	4188
2026-01-08 04:34:16.32	10.37	10.31	-41.4	-43.0	17.1	0.00e+00	0	40	0	207618048	53	4277
2026-01-08 04:34:17.34	10.33	10.40	-41.3	-42.9	17.3	0.00e+00	0	40	0	214958080	53	4196
2026-01-08 04:34:18.38	10.28	10.49	-41.4	-43.0	17.2	0.00e+00	0	40	0	222298112	53	4267
2026-01-08 04:34:19.37	10.24	10.57	-41.5	-43.1	17.1	0.00e+00	0	40	0	228589568	53	4305
2026-01-08 04:34:20.44	10.20	10.66	-41.4	-42.9	17.3	0.00e+00	0	40	0	236978176	53	4232
2026-01-08 04:34:21.33	10.16	10.74	-41.2	-42.6	17.5	0.00e+00	0	40	0	243269632	53	4097
2026-01-08 04:34:22.47	10.11	10.84	-41.2	-42.6	17.5	0.00e+00	0	40	0	251658240	52	4311
2026-01-08 04:34:23.33	10.08	10.92	-41.0	-42.5	17.7	0.00e+00	0	40	0	257949696	52	4247
2026-01-08 04:34:24.70	10.02	11.04	-40.7	-42.0	18.1	0.00e+00	0	40	0	267386880	52	4040
2026-01-08 04:34:25.42	9.99	11.10	-40.6	-41.9	18.4	0.00e+00	0	40	0	272629760	51	4221
2026-01-08 04:34:26.70	9.93	11.21	-40.5	-41.8	18.4	0.00e+00	0	40	0	282066944	51	4171
2026-01-08 04:34:27.42	9.90	11.28	-40.5	-41.7	18.5	0.00e+00	0	40	0	287309824	51	4144
2026-01-08 04:34:28.71	9.84	11.39	-40.4	-41.7	18.5	0.00e+00	0	40	0	296747008	51	4128
2026-01-08 04:34:29.42	9.81	11.45	-40.1	-41.3	18.9	0.00e+00	0	40	0	301989888	50	4170
2026-01-08 04:34:30.71	9.75	11.57	-40.1	-41.3	18.9	0.00e+00	0	40	0	311427072	50	4188
2026-01-08 04:34:31.43	9.72	11.63	-40.1	-41.3	18.9	0.00e+00	0	40	0	315621376	50	4161
2026-01-08 04:34:32.71	9.66	11.75	-40.1	-41.3	18.9	0.00e+00	0	40	0	325058560	50	4178
2026-01-08 04:34:33.43	9.63	11.81	-39.9	-41.1	19.1	0.00e+00	0	40	0	330301440	50	4067
2026-01-08 04:34:34.74	9.57	11.93	-39.8	-41.0	19.2	0.00e+00	0	40	0	340787200	50	4010
2026-01-08 04:34:35.45	9.54	12.00	-39.8	-41.0	19.2	0.00e+00	0	40	0	344981504	50	4036
2026-01-08 04:34:36.74	9.48	12.12	-39.7	-40.9	19.3	0.00e+00	0	40	0	354418688	50	3993
2026-01-08 04:34:37.46	9.44	12.18	-39.8	-40.9	19.3	0.00e+00	0	40	0	359661568	50	3995
2026-01-08 04:34:38.75	9.38	12.30	-39.6	-40.8	19.5	0.00e+00	0	40	0	369098752	50	3922
2026-01-08 04:34:39.47	9.35	12.37	-39.7	-40.9	19.3	0.00e+00	0	40	0	374341632	50	3983
2026-01-08 04:34:40.76	9.29	12.49	-39.7	-40.9	19.3	0.00e+00	0	40	0	383778816	50	3977
2026-01-08 04:34:41.47	9.25	12.55	-39.7	-40.8	19.4	0.00e+00	0	40	0	389021696	50	3948
2026-01-08 04:34:42.76	9.19	12.67	-39.8	-40.9	19.3	0.00e+00	0	40	0	398458880	50	3996
2026-01-08 04:34:43.47	9.16	12.74	-39.5	-40.7	19.5	0.00e+00	0	40	0	402653184	49	4111
2026-01-08 04:34:44.76	9.09	12.86	-39.6	-40.7	19.4	0.00e+00	0	41	0	412090368	49	4135
2026-01-08 04:34:45.56	9.05	12.94	-39.5	-40.6	19.5	0.00e+00	0	41	0	418381824	49	4095
2026-01-08 04:34:46.71	9.00	13.04	-39.6	-40.7	19.5	0.00e+00	0	40	0	426770432	49	4129
2026-01-08 04:34:47.75	8.94	13.14	-39.7	-40.8	19.4	0.00e+00	0	40	0	434110464	49	4168
2026-01-08 04:34:48.94	8.88	13.26	-39.4	-40.5	19.7	0.00e+00	0	41	0	442499072	49	4023
2026-01-08 04:34:49.83	8.84	13.34	-39.5	-40.6	19.5	0.00e+00	0	41	0	448790528	49	4086
2026-01-08 04:34:50.86	8.79	13.44	-39.5	-40.5	19.6	0.00e+00	0	40	0	456130560	49	4044
2026-01-08 04:34:51.86	8.73	13.54	-39.5	-40.5	19.7	0.00e+00	0	40	0	463470592	49	4043
2026-01-08 04:34:52.86	8.68	13.63	-39.5	-40.5	19.7	0.00e+00	0	41	0	470810624	49	4033
2026-01-08 04:34:53.87	8.63	13.73	-39.4	-40.5	19.7	0.00e+00	0	40	0	478150656	49	4029
2026-01-08 04:34:54.87	8.58	13.83	-39.5	-40.5	19.6	0.00e+00	0	41	0	485490688	49	4049
2026-01-08 04:34:55.88	8.52	13.93	-39.5	-40.5	19.7	0.00e+00	0	41	0	492830720	49	4035
2026-01-08 04:34:56.88	8.47	14.03	-39.5	-40.6	19.6	0.00e+00	0	40	0	500170752	49	4057
2026-01-08 04:34:57.88	8.42	14.13	-39.6	-40.6	19.6	0.00e+00	0	40	0	507510784	49	4079
2026-01-08 04:34:58.89	8.36	14.23	-39.3	-40.3	19.9	0.00e+00	0	40	0	514850816	49	3935
2026-01-08 04:34:59.89	8.31	14.33	-39.3	-40.3	19.8	0.00e+00	0	40	0	522190848	49	3955
2026-01-08 04:35:00.94	8.25	14.43	-39.4	-40.4	19.8	0.00e+00	0	40	0	529530880	49	3981
2026-01-08 04:35:01.85	8.20	14.52	-39.4	-40.4	19.7	0.00e+00	0	40	0	535822336	49	4000
2026-01-08 04:35:02.87	8.14	14.62	-39.2	-40.2	19.9	0.00e+00	0	40	0	543162368	49	3907
2026-01-08 04:35:03.87	8.08	14.73	-39.1	-40.1	20.0	0.00e+00	0	41	0	550502400	49	3863
2026-01-08 04:35:04.87	8.03	14.83	-39.0	-40.0	20.1	0.00e+00	0	41	0	557842432	48	4047
2026-01-08 04:35:05.87	7.97	14.93	-39.1	-40.1	20.0	0.00e+00	0	41	0	565182464	48	4089
2026-01-08 04:35:06.87	7.91	15.03	-39.2	-40.2	20.0	0.00e+00	0	40	0	572522496	48	4118
2026-01-08 04:35:07.88	7.85	15.13	-39.1	-40.1	20.1	0.00e+00	0	41	0	578813952	48	4068
2026-01-08 04:35:08.88	7.80	15.24	-39.0	-40.0	20.2	0.00e+00	0	40	0	586153984	48	4009
2026-01-08 04:35:09.88	7.74	15.34	-38.9	-39.8	20.3	0.00e+00	0	40	0	593494016	48	3957
2026-01-08 04:35:10.89	7.68	15.45	-38.8	-39.8	20.3	0.00e+00	0	41	0	600834048	48	3947
2026-01-08 04:35:11.89	7.62	15.55	-38.8	-39.8	20.3	0.00e+00	0	41	0	608174080	48	3949
2026-01-08 04:35:12.96	7.55	15.66	-38.9	-39.8	20.3	0.00e+00	0	41	0	615514112	48	3953
2026-01-08 04:35:13.86	7.50	15.76	-38.8	-39.8	20.4	0.00e+00	0	40	0	622854144	48	3934
2026-01-08 04:35:15.02	7.43	15.88	-38.9	-39.9	20.2	0.00e+00	0	41	0	631242752	48	3991
2026-01-08 04:35:15.88	7.38	15.97	-39.0	-40.0	20.2	0.00e+00	0	41	0	636485632	48	4021
2026-01-08 04:35:17.02	7.30	16.09	-38.7	-39.7	20.4	0.00e+00	0	41	0	644874240	48	3905
2026-01-08 04:35:17.88	7.25	16.18	-38.8	-39.7	20.4	0.00e+00	0	41	0	651165696	48	3911
2026-01-08 04:35:19.03	7.18	16.31	-38.9	-39.9	20.3	0.00e+00	0	41	0	659554304	48	3960
2026-01-08 04:35:19.89	7.12	16.40	-38.6	-39.6	20.6	0.00e+00	0	41	0	665845760	48	3836
2026-01-08 04:35:21.04	7.05	16.52	-38.7	-39.7	20.5	0.00e+00	0	41	0	674234368	48	3889
2026-01-08 04:35:21.90	7.00	16.62	-38.7	-39.6	20.5	0.00e+00	0	41	0	680525824	48	3867
2026-01-08 04:35:23.04	6.92	16.74	-38.7	-39.7	20.5	0.00e+00	0	40	0	688914432	48	3871
2026-01-08 04:35:23.90	6.87	16.84	-38.5	-39.5	20.4	0.00e+00	0	41	0	695205888	47	4032
2026-01-08 04:35:25.05	6.79	16.96	-38.6	-39.6	20.3	0.00e+00	0	41	0	703594496	47	4081
2026-01-08 04:35:25.91	6.73	17.06	-38.3	-39.3	20.6	0.00e+00	0	41	0	709885952	47	3923
2026-01-08 04:35:27.06	6.66	17.18	-38.4	-39.4	20.5	0.00e+00	0	41	0	718274560	47	3991
2026-01-08 04:35:27.92	6.60	17.28	-38.5	-39.5	20.4	0.00e+00	0	41	0	723517440	47	4030
2026-01-08 04:35:29.07	6.52	17.41	-38.4	-39.4	20.5	0.00e+00	0	41	0	731906048	47	3959
2026-01-08 04:35:29.93	6.46	17.51	-38.4	-39.4	20.5	0.00e+00	0	41	0	738197504	47	3971
2026-01-08 04:35:31.07	6.38	17.63	-38.3	-39.2	20.6	0.00e+00	0	41	0	746586112	47	3913
2026-01-08 04:35:32.04	6.31	17.74	-38.4	-39.4	20.5	0.00e+00	0	41	0	753926144	47	3961
2026-01-08 04:35:33.05	6.24	17.86	-38.3	-39.2	20.6	0.00e+00	0	40	0	761266176	47	3906
2026-01-08 04:35:34.05	6.17	17.97	-38.3	-39.3	20.6	0.00e+00	0	41	0	768606208	47	3921
2026-01-08 04:35:35.05	6.10	18.09	-38.3	-39.3	20.6	0.00e+00	0	41	0	775946240	47	3932
2026-01-08 04:35:36.06	6.03	18.20	-38.3	-39.2	20.6	0.00e+00	0	41	0	783286272	47	3907
2026-01-08 04:35:37.06	5.96	18.32	-38.4	-39.3	20.5	0.00e+00	0	41	0	789577728	47	3950
2026-01-08 04:35:38.06	5.88	18.44	-38.1	-39.0	20.8	0.00e+00	0	41	0	796917760	46	4040
2026-01-08 04:35:39.06	5.81	18.55	-38.0	-39.0	20.9	0.00e+00	0	41	0	804257792	46	4009
2026-01-08 04:35:40.06	5.74	18.67	-38.1	-39.1	20.8	0.00e+00	0	41	0	811597824	46	4057
2026-01-08 04:35:41.07	5.66	18.79	-38.0	-38.9	20.9	0.00e+00	0	41	0	818937856	46	3985
2026-01-08 04:35:42.07	5.58	18.91	-38.0	-39.0	20.9	0.00e+00	0	41	0	826277888	46	4009
2026-01-08 04:35:43.09	5.51	19.03	-38.0	-38.9	20.9	0.00e+00	0	41	0	833617920	46	3991
2026-01-08 04:35:44.09	5.43	19.15	-38.0	-38.9	20.9	0.00e+00	0	41	0	840957952	46	3993
2026-01-08 04:35:45.18	5.35	19.28	-38.0	-39.0	20.9	0.00e+00	0	41	0	848297984	46	4017
2026-01-08 04:35:46.04	5.28	19.38	-38.0	-38.9	20.9	0.00e+00	0	41	0	854589440	46	3991
2026-01-08 04:35:47.18	5.19	19.52	-38.1	-39.0	20.8	0.00e+00	0	41	0	862978048	46	4049
2026-01-08 04:35:48.14	5.11	19.64	-38.1	-39.1	20.8	0.00e+00	0	41	0	870318080	46	4062
2026-01-08 04:35:49.14	5.03	19.76	-38.1	-39.0	20.8	0.00e+00	0	41	0	877658112	46	4041
2026-01-08 04:35:50.15	4.95	19.88	-38.1	-39.0	20.8	0.00e+00	0	41	0	884998144	46	4043
2026-01-08 04:35:51.15	4.87	20.00	-38.1	-39.0	20.9	0.00e+00	0	41	0	891289600	46	4026
2026-01-08 04:35:52.46	4.76	20.17	-38.0	-39.0	20.9	0.00e+00	0	41	0	900726784	46	4023
2026-01-08 04:35:53.21	4.70	20.26	-38.1	-39.1	20.8	0.00e+00	0	41	0	907018240	46	4059
2026-01-08 04:35:54.49	4.59	20.42	-38.0	-39.0	20.9	0.00e+00	0	41	0	916455424	46	4026
2026-01-08 04:35:55.21	4.53	20.51	-38.1	-39.1	20.8	0.00e+00	0	41	0	920649728	46	4064
2026-01-08 04:35:56.50	4.42	20.67	-38.2	-39.1	20.8	0.00e+00	0	41	0	930086912	46	4094
2026-01-08 04:35:57.21	4.36	20.76	-38.0	-39.0	20.9	0.00e+00	0	41	0	935329792	46	4015
2026-01-08 04:35:58.50	4.25	20.93	-38.2	-39.2	20.7	0.00e+00	0	41	0	944766976	46	4126
2026-01-08 04:35:59.22	4.19	21.02	-38.2	-39.1	20.8	0.00e+00	0	41	0	950009856	46	4086
2026-01-08 04:36:00.51	4.07	21.18	-38.2	-39.2	20.8	0.00e+00	0	41	0	959447040	46	4106
2026-01-08 04:36:01.22	4.01	21.27	-38.1	-39.0	20.9	0.00e+00	0	41	0	964689920	46	4050
2026-01-08 04:36:02.51	3.90	21.44	-38.1	-39.1	20.8	0.00e+00	0	41	0	974127104	46	4075
2026-01-08 04:36:03.23	3.83	21.53	-38.1	-39.1	20.8	0.00e+00	0	41	0	978321408	46	4076
2026-01-08 04:36:04.71	3.70	21.73	-38.0	-39.0	20.9	0.00e+00	0	41	0	989855744	46	4047
2026-01-08 04:36:05.42	3.63	21.82	-38.0	-38.9	21.0	0.00e+00	0	41	0	995098624	46	4001
2026-01-08 04:36:06.71	3.51	21.99	-37.9	-38.9	21.0	0.00e+00	0	41	0	1004535808	46	3989
2026-01-08 04:36:07.43	3.44	22.09	-38.0	-39.0	21.0	0.00e+00	0	41	0	1008730112	46	4009
2026-01-08 04:36:08.72	3.32	22.26	-37.9	-38.8	21.1	0.00e+00	0	41	0	1018167296	46	3943
2026-01-08 04:36:09.43	3.25	22.35	-37.9	-38.9	21.0	0.00e+00	0	41	0	1023410176	46	3973
2026-01-08 04:36:10.72	3.13	22.53	-37.8	-38.8	21.1	0.00e+00	0	41	0	1032847360	46	3920
2026-01-08 04:36:11.44	3.06	22.62	-37.8	-38.7	21.2	0.00e+00	0	41	0	1038090240	46	3911
2026-01-08 04:36:12.73	2.93	22.80	-37.8	-38.7	21.2	0.00e+00	0	41	0	1047527424	46	3884
2026-01-08 04:36:13.45	2.86	22.90	-37.7	-38.6	21.3	0.00e+00	0	41	0	1052770304	46	3861
2026-01-08 04:36:14.74	2.73	23.07	-37.7	-38.6	21.3	0.00e+00	0	41	0	1062207488	45	4082
2026-01-08 04:36:15.56	2.65	23.19	-37.7	-38.6	21.2	0.00e+00	0	41	0	1067450368	45	4087
2026-01-08 04:36:16.71	2.53	23.34	-37.7	-38.6	21.3	0.00e+00	0	41	0	1075838976	45	4081
2026-01-08 04:36:17.81	2.42	23.50	-37.6	-38.5	21.3	0.00e+00	0	41	0	1084227584	45	4043
2026-01-08 04:36:18.85	2.31	23.64	-37.5	-38.4	21.5	0.00e+00	0	41	0	1091567616	45	3972
2026-01-08 04:36:19.84	2.21	23.78	-37.6	-38.5	21.4	0.00e+00	0	41	0	1098907648	45	4018
2026-01-08 04:36:20.85	2.10	23.92	-37.5	-38.4	21.4	0.00e+00	0	41	0	1106247680	45	3991
2026-01-08 04:36:21.85	2.00	24.07	-37.5	-38.4	21.5	0.00e+00	0	41	0	1113587712	45	3976
2026-01-08 04:36:22.85	1.89	24.21	-37.4	-38.3	21.5	0.00e+00	0	40	0	1120927744	45	3931
2026-01-08 04:36:23.85	1.78	24.35	-37.4	-38.3	21.5	0.00e+00	0	41	0	1128267776	45	3956
2026-01-08 04:36:24.85	1.67	24.49	-37.6	-38.5	21.4	0.00e+00	0	40	0	1134559232	45	4018
2026-01-08 04:36:25.85	1.56	24.64	-37.4	-38.3	21.5	0.00e+00	0	41	0	1141899264	45	3955
2026-01-08 04:36:26.86	1.45	24.78	-37.4	-38.3	21.6	0.00e+00	0	41	0	1149239296	45	3935
2026-01-08 04:36:27.86	1.33	24.93	-37.4	-38.3	21.6	0.00e+00	0	41	0	1156579328	45	3935
2026-01-08 04:36:28.87	1.22	25.08	-37.2	-38.1	21.7	0.00e+00	0	41	0	1163919360	45	3830
2026-01-08 04:36:29.87	1.10	25.22	-37.2	-38.1	21.7	0.00e+00	0	41	0	1171259392	45	3836
2026-01-08 04:36:30.87	0.99	25.37	-37.2	-38.1	21.8	0.00e+00	0	41	0	1178599424	45	3834
2026-01-08 04:36:31.91	0.86	25.53	-37.2	-38.1	21.8	0.00e+00	0	41	0	1185939456	44	4053
2026-01-08 04:36:32.94	0.74	25.68	-37.3	-38.2	21.7	0.00e+00	0	41	0	1193279488	44	4112
2026-01-08 04:36:33.97	0.62	25.83	-37.3	-38.2	21.6	0.00e+00	0	41	0	1200619520	44	4127
2026-01-08 04:36:35.00	0.50	25.99	-37.4	-38.3	21.6	0.00e+00	0	40	0	1207959552	44	4146
2026-01-08 04:36:36.01	0.37	26.14	-37.3	-38.2	21.6	0.00e+00	0	41	0	1215299584	44	4129
2026-01-08 04:36:37.01	0.25	26.29	-37.4	-38.3	21.6	0.00e+00	0	41	0	1222639616	44	4168
2026-01-08 04:36:38.01	0.12	26.45	-37.2	-38.1	21.7	0.00e+00	0	41	0	1229979648	44	4089
2026-01-08 04:36:39.02	360.00	26.60	-37.2	-38.1	21.7	0.00e+00	0	41	0	1237319680	44	4090
2026-01-08 04:36:40.02	359.87	26.76	-37.3	-38.2	21.7	0.00e+00	0	41	0	1244659712	44	4104
2026-01-08 04:36:41.03	359.74	26.91	-37.5	-38.4	21.5	0.00e+00	0	41	0	1251999744	44	4218
2026-01-08 04:36:42.03	359.61	27.07	-37.2	-38.1	21.7	0.00e+00	0	41	0	1259339776	44	4088
2026-01-08 04:36:43.03	359.48	27.22	-37.2	-38.1	21.7	0.00e+00	0	41	0	1265631232	44	4093
2026-01-08 04:36:44.04	359.35	27.38	-37.2	-38.1	21.8	0.00e+00	0	41	0	1274019840	44	4063
2026-01-08 04:36:45.04	359.21	27.54	-37.6	-38.5	21.4	0.00e+00	0	41	0	1281359872	44	4274
2026-01-08 04:36:46.04	359.08	27.70	-37.2	-38.1	21.7	0.00e+00	0	40	0	1287651328	44	4088
2026-01-08 04:36:47.04	358.94	27.86	-37.3	-38.2	21.6	0.00e+00	0	41	0	1294991360	44	4130
2026-01-08 04:36:48.05	358.80	28.02	-37.2	-38.1	21.8	0.00e+00	0	41	0	1302331392	44	4062
2026-01-08 04:36:49.05	358.66	28.18	-37.1	-38.0	21.8	0.00e+00	0	41	0	1309671424	44	4036
2026-01-08 04:36:50.05	358.52	28.34	-37.3	-38.2	21.7	0.00e+00	0	41	0	1317011456	44	4102
2026-01-08 04:36:51.05	358.38	28.50	-37.1	-38.0	21.8	0.00e+00	0	41	0	1324351488	44	4021
2026-01-08 04:36:52.05	358.24	28.67	-37.1	-38.0	21.9	0.00e+00	0	41	0	1331691520	44	4008
2026-01-08 04:36:53.06	358.09	28.83	-37.2	-38.1	21.8	0.00e+00	0	41	0	1339031552	44	4052
2026-01-08 04:36:54.06	357.94	29.00	-37.1	-38.0	21.8	0.00e+00	0	41	0	1346371584	44	4016
2026-01-08 04:36:55.06	357.79	29.16	-37.1	-38.0	21.8	0.00e+00	0	41	0	1352663040	44	4031
2026-01-08 04:36:56.07	357.64	29.33	-37.2	-38.1	21.8	0.00e+00	0	41	0	1360003072	44	4071
2026-01-08 04:36:57.07	357.49	29.50	-37.1	-38.0	21.9	0.00e+00	0	41	0	1367343104	44	4017
2026-01-08 04:36:58.07	357.34	29.66	-37.1	-38.0	21.8	0.00e+00	0	40	0	1374683136	44	4020
2026-01-08 04:36:59.08	357.18	29.83	-37.1	-37.9	21.9	0.00e+00	0	41	0	1382023168	44	4002
2026-01-08 04:37:00.08	357.03	30.00	-37.2	-38.1	21.8	0.00e+00	0	40	0	1389363200	44	4074
2026-01-08 04:37:01.08	356.87	30.17	-37.2	-38.1	21.8	0.00e+00	0	41	0	1396703232	44	4076
2026-01-08 04:37:02.57	356.63	30.43	-37.2	-38.1	21.0	0.00e+00	0	41	0	1407188992	44	4081
2026-01-08 04:37:03.28	356.51	30.55	-37.2	-38.1	21.8	0.00e+00	0	41	0	1412431872	44	4060
2026-01-08 04:37:04.57	356.30	30.77	-37.3	-38.2	21.7	0.00e+00	0	41	0	1421869056	44	4113
2026-01-08 04:37:05.29	356.18	30.90	-37.2	-38.1	21.8	0.00e+00	0	41	0	1427111936	44	4064
2026-01-08 04:37:06.58	355.97	31.12	-37.3	-38.1	21.7	0.00e+00	0	40	0	1436549120	44	4091
2026-01-08 04:37:07.46	355.82	31.27	-37.2	-38.1	21.8	0.00e+00	0	41	0	1442840576	44	4070
2026-01-08 04:37:08.60	355.62	31.47	-37.1	-38.0	21.8	0.00e+00	0	41	0	1451229184	44	4034
2026-01-08 04:37:09.70	355.43	31.67	-37.2	-38.1	21.8	0.00e+00	0	41	0	1458569216	44	4058
2026-01-08 04:37:10.74	355.25	31.85	-37.3	-38.2	21.7	0.00e+00	0	41	0	1465909248	44	4126
2026-01-08 04:37:11.73	355.07	32.03	-37.2	-38.1	21.8	0.00e+00	0	41	0	1473249280	44	4054
2026-01-08 04:37:12.93	354.86	32.24	-37.1	-38.0	21.9	0.00e+00	0	41	0	1481637888	44	4011
2026-01-08 04:37:13.84	354.69	32.41	-37.0	-37.9	21.9	0.00e+00	0	41	0	1488977920	44	3986
2026-01-08 04:37:14.84	354.51	32.59	-37.0	-37.8	22.0	0.00e+00	0	41	0	1496317952	44	3947
2026-01-08 04:37:15.84	354.32	32.77	-36.9	-37.7	22.1	0.00e+00	0	41	0	1503657984	44	3903
2026-01-08 04:37:16.85	354.13	32.95	-36.6	-37.4	22.2	0.00e+00	0	41	0	1509949440	43	3991
2026-01-08 04:37:17.85	353.94	33.13	-36.5	-37.3	22.3	0.00e+00	0	41	0	1517289472	43	3938
2026-01-08 04:37:18.85	353.75	33.32	-36.5	-37.3	22.3	0.00e+00	0	41	0	1524629504	43	3950
2026-01-08 04:37:19.85	353.55	33.50	-36.3	-37.2	22.4	0.00e+00	0	41	0	1531969536	43	3892
2026-01-08 04:37:20.85	353.36	33.69	-36.4	-37.2	22.4	0.00e+00	0	41	0	1539309568	43	3902
2026-01-08 04:37:21.86	353.16	33.87	-36.3	-37.2	22.4	0.00e+00	0	41	0	1546649600	43	3889
2026-01-08 04:37:22.86	352.95	34.06	-36.6	-37.5	22.2	0.00e+00	0	41	0	1553989632	43	4014
2026-01-08 04:37:23.87	352.75	34.25	-36.6	-37.5	22.2	0.00e+00	0	41	0	1561329664	43	4031
2026-01-08 04:37:24.87	352.54	34.44	-36.7	-37.6	22.1	0.00e+00	0	41	0	1568669696	43	4080
2026-01-08 04:37:25.87	352.33	34.62	-36.8	-37.6	22.0	0.00e+00	0	41	0	1574961152	43	4089
2026-01-08 04:37:26.88	352.12	34.82	-36.4	-37.2	22.3	0.00e+00	0	41	0	1582301184	43	3912
2026-01-08 04:37:27.88	351.90	35.01	-37.0	-37.8	22.0	0.00e+00	0	41	0	1589641216	44	3952
2026-01-08 04:37:28.88	351.69	35.20	-37.0	-37.8	22.0	0.00e+00	0	41	0	1596981248	44	3952
2026-01-08 04:37:29.89	351.47	35.39	-36.9	-37.7	22.1	0.00e+00	0	41	0	1604321280	44	3896
2026-01-08 04:37:30.89	351.25	35.58	-36.8	-37.6	22.2	0.00e+00	0	41	0	1611661312	44	3867
2026-01-08 04:37:31.90	351.02	35.77	-36.4	-37.2	22.3	0.00e+00	0	41	0	1619001344	43	3909
2026-01-08 04:37:32.90	350.79	35.97	-36.4	-37.3	22.4	0.00e+00	0	41	0	1626341376	43	3916
2026-01-08 04:37:33.90	350.56	36.16	-36.5	-37.4	22.3	0.00e+00	0	41	0	1633681408	43	3962
2026-01-08 04:37:34.90	350.33	36.36	-36.5	-37.3	22.3	0.00e+00	0	41	0	1641021440	43	3951
2026-01-08 04:37:35.91	350.09	36.55	-36.6	-37.4	22.2	0.00e+00	0	41	0	1648361472	43	3999
2026-01-08 04:37:36.91	349.85	36.75	-36.6	-37.5	22.2	0.00e+00	0	41	0	1655701504	43	4017
2026-01-08 04:37:37.91	349.61	36.94	-36.8	-37.6	22.0	0.00e+00	0	41	0	1661992960	43	4095
2026-01-08 04:37:38.98	349.35	37.16	-36.9	-37.8	21.9	0.00e+00	0	41	0	1670381568	43	4147
2026-01-08 04:37:39.89	349.12	37.34	-36.8	-37.7	22.0	0.00e+00	0	41	0	1676673024	43	4127
2026-01-08 04:37:40.89	348.87	37.53	-36.9	-37.8	21.9	0.00e+00	0	41	0	1684013056	43	4192
2026-01-08 04:37:41.89	348.62	37.73	-36.8	-37.7	22.0	0.00e+00	0	41	0	1691353088	43	4132
2026-01-08 04:37:42.90	348.36	37.93	-36.8	-37.7	22.0	0.00e+00	0	41	0	1698693120	43	4123
2026-01-08 04:37:43.90	348.10	38.13	-36.8	-37.7	22.0	0.00e+00	0	41	0	1706033152	43	4131
2026-01-08 04:37:44.90	347.84	38.33	-36.8	-37.7	22.0	0.00e+00	0	41	0	1713373184	43	4107
2026-01-08 04:37:45.90	347.57	38.53	-36.7	-37.6	22.1	0.00e+00	0	41	0	1719664640	43	4061
2026-01-08 04:37:46.90	347.30	38.73	-36.7	-37.6	22.1	0.00e+00	0	40	0	1727004672	43	4068
2026-01-08 04:37:47.91	347.03	38.94	-36.6	-37.5	22.2	0.00e+00	0	41	0	1734344704	43	4025
2026-01-08 04:37:48.91	346.75	39.14	-36.8	-37.7	22.0	0.00e+00	0	41	0	1741684736	43	4103
2026-01-08 04:37:49.95	346.46	39.35	-36.8	-37.7	22.1	0.00e+00	0	40	0	1749024768	43	4102
2026-01-08 04:37:50.97	346.17	39.56	-36.8	-37.7	22.0	0.00e+00	0	41	0	1756364800	43	4113
2026-01-08 04:37:51.98	345.88	39.76	-36.9	-37.8	22.0	0.00e+00	0	40	0	1763704832	43	4147
2026-01-08 04:37:52.98	345.59	39.96	-36.3	-37.1	22.4	0.00e+00	0	41	0	1771044864	43	3866
2026-01-08 04:37:53.98	345.29	40.17	-37.0	-37.9	21.8	0.00e+00	0	41	0	1778384896	43	4232
2026-01-08 04:37:54.98	344.99	40.37	-37.1	-38.0	21.7	0.00e+00	0	41	0	1785724928	43	4284
2026-01-08 04:37:55.99	344.69	40.58	-37.3	-38.2	21.6	0.00e+00	0	41	0	1793064960	43	4343
2026-01-08 04:37:56.99	344.38	40.78	-37.3	-38.2	21.7	0.00e+00	0	41	0	1800404992	44	4119
2026-01-08 04:37:57.99	344.07	40.99	-37.3	-38.1	21.8	0.00e+00	0	41	0	1807745024	44	4087
2026-01-08 04:37:58.99	343.76	41.19	-37.4	-38.3	21.6	0.00e+00	0	41	0	1815085056	45	3943
2026-01-08 04:37:59.99	343.44	41.40	-37.4	-38.3	21.6	0.00e+00	0	41	0	1822425088	45	3952
2026-01-08 04:38:00.98	343.12	41.60	-37.4	-38.3	21.6	0.00e+00	0	41	0	1828716544	45	3936
2026-01-08 04:38:01.98	342.79	41.81	-37.3	-38.2	21.7	0.00e+00	0	41	0	1836056576	45	3893
2026-01-08 04:38:02.99	342.46	42.01	-37.4	-38.3	21.6	0.00e+00	0	41	0	1843396608	44	4151
2026-01-08 04:38:03.99	342.12	42.22	-37.1	-38.0	21.9	0.00e+00	0	41	0	1850736640	44	4019
2026-01-08 04:38:04.99	341.78	42.43	-37.2	-38.1	21.8	0.00e+00	0	41	0	1858076672	44	4083
2026-01-08 04:38:06.00	341.44	42.63	-37.2	-38.1	21.8	0.00e+00	0	41	0	1865416704	44	4073
2026-01-08 04:38:07.00	341.09	42.84	-37.2	-38.1	21.8	0.00e+00	0	40	0	1872756736	44	4075
2026-01-08 04:38:08.00	340.74	43.04	-37.1	-38.0	21.9	0.00e+00	0	40	0	1880096768	44	4023
2026-01-08 04:38:09.01	340.37	43.25	-37.2	-38.1	21.8	0.00e+00	0	41	0	1886388224	44	4090
2026-01-08 04:38:10.01	340.01	43.46	-37.1	-38.0	21.9	0.00e+00	0	40	0	1893728256	44	4047
2026-01-08 04:38:11.01	339.65	43.66	-37.0	-37.9	22.0	0.00e+00	0	41	0	1901068288	44	3986
2026-01-08 04:38:12.02	339.27	43.87	-37.1	-38.0	22.0	0.00e+00	0	41	0	1908408320	44	4015
2026-01-08 04:38:13.02	338.89	44.07	-37.1	-38.0	21.9	0.00e+00	0	41	0	1915748352	44	4041
2026-01-08 04:38:14.02	338.51	44.28	-37.3	-38.1	21.8	0.00e+00	0	41	0	1923088384	44	4094
2026-01-08 04:38:15.02	338.12	44.48	-37.3	-38.2	21.8	0.00e+00	0	41	0	1930428416	44	4120
2026-01-08 04:38:16.02	337.73	44.68	-37.4	-38.3	21.7	0.00e+00	0	40	0	1937768448	44	4163
2026-01-08 04:38:17.03	337.33	44.89	-37.5	-38.4	21.6	0.00e+00	0	41	0	1945108480	44	4217
2026-01-08 04:38:18.03	336.93	45.09	-37.7	-38.5	21.4	0.00e+00	0	41	0	1951399936	44	4291
2026-01-08 04:38:19.04	336.52	45.30	-37.6	-38.5	21.5	0.00e+00	0	41	0	1959788544	44	4261
2026-01-08 04:38:20.04	336.11	45.50	-37.4	-38.3	21.7	0.00e+00	0	41	0	1967128576	44	4172
2026-01-08 04:38:21.04	335.69	45.70	-37.3	-38.1	21.8	0.00e+00	0	41	0	1973420032	44	4084
2026-01-08 04:38:22.05	335.26	45.90	-37.2	-38.1	21.8	0.00e+00	0	41	0	1980760064	44	4083
2026-01-08 04:38:23.05	334.83	46.10	-37.2	-38.0	21.9	0.00e+00	0	41	0	1988100096	44	4050
2026-01-08 04:38:24.05	334.40	46.30	-36.9	-37.7	22.1	0.00e+00	0	41	0	1995440128	44	3904
2026-01-08 04:38:25.06	333.96	46.50	-37.5	-38.4	21.5	0.00e+00	0	40	0	2002780160	44	4228
2026-01-08 04:38:26.06	333.51	46.69	-37.6	-38.5	21.4	0.00e+00	0	40	0	2010120192	45	4051
2026-01-08 04:38:27.35	332.93	46.94	-37.7	-38.6	21.4	0.00e+00	0	41	0	2019557376	45	4076
2026-01-08 04:38:28.10	332.58	47.09	-37.8	-38.7	21.3	0.00e+00	0	41	0	2024800256	45	4108
2026-01-08 04:38:29.39	331.99	47.34	-38.0	-38.9	21.1	0.00e+00	0	41	0	2034237440	45	4218
2026-01-08 04:38:30.17	331.62	47.49	-38.2	-39.2	20.9	0.00e+00	0	41	0	2039480320	46	4114
2026-01-08 04:38:31.69	330.90	47.78	-38.4	-39.3	20.8	0.00e+00	0	41	0	2051014656	46	4178
2026-01-08 04:38:32.40	330.55	47.91	-38.6	-39.5	20.6	0.00e+00	0	41	0	2056257536	46	4272
2026-01-08 04:38:33.69	329.92	48.15	-38.4	-39.3	20.8	0.00e+00	0	41	0	2065694720	46	4180
2026-01-08 04:38:34.41	329.57	48.29	-38.3	-39.2	21.0	0.00e+00	0	41	0	2069889024	46	4116
2026-01-08 04:38:35.70	328.92	48.52	-38.2	-39.1	21.0	0.00e+00	0	40	0	2079326208	46	4071
2026-01-08 04:38:36.42	328.56	48.66	-38.1	-39.1	21.0	0.00e+00	0	40	0	2084569088	46	4058
2026-01-08 04:38:37.70	327.90	48.89	-37.9	-38.9	21.2	0.00e+00	0	41	0	2094006272	46	3964
2026-01-08 04:38:38.52	327.47	49.03	-38.0	-38.9	21.2	0.00e+00	0	41	0	2100297728	46	3979
2026-01-08 04:38:39.66	326.88	49.24	-38.2	-39.1	21.0	0.00e+00	0	40	0	2107637760	46	4085
2026-01-08 04:38:40.74	326.30	49.43	-38.4	-39.4	20.8	0.00e+00	0	41	0	2116026368	46	4208
2026-01-08 04:38:41.60	325.84	49.57	-38.7	-39.6	20.5	0.00e+00	0	41	0	2122317824	46	4333
2026-01-08 04:38:42.75	325.21	49.77	-39.0	-39.9	20.2	0.00e+00	0	41	0	2130706432	47	4231
2026-01-08 04:38:43.61	324.74	49.92	-38.9	-39.8	20.3	0.00e+00	0	41	0	2136997888	47	4187
2026-01-08 04:38:44.76	324.10	50.11	-39.0	-40.0	20.2	0.00e+00	0	41	0	2145386496	47	4275
2026-01-08 04:38:45.62	323.62	50.25	-38.8	-39.7	20.4	0.00e+00	0	41	0	2150629376	47	4140
2026-01-08 04:38:46.76	322.97	50.43	-38.6	-39.6	20.5	0.00e+00	0	41	0	2159017984	47	4067
2026-01-08 04:38:47.62	322.47	50.57	-38.5	-39.5	20.6	0.00e+00	0	41	0	2165309440	47	4033
2026-01-08 04:38:48.77	321.81	50.75	-38.4	-39.4	20.8	0.00e+00	0	41	0	2173698048	47	3959
2026-01-08 04:38:49.62	321.31	50.88	-38.4	-39.3	20.8	0.00e+00	0	41	0	2179989504	46	4190
2026-01-08 04:38:50.77	320.62	51.06	-38.4	-39.4	20.8	0.00e+00	0	41	0	2188378112	46	4209
2026-01-08 04:38:51.63	320.11	51.19	-38.5	-39.5	20.7	0.00e+00	0	41	0	2194669568	46	4257
2026-01-08 04:38:52.77	319.42	51.35	-38.6	-39.5	20.6	0.00e+00	0	41	0	2203058176	46	4279
2026-01-08 04:38:53.64	318.89	51.48	-38.7	-39.7	20.5	0.00e+00	0	41	0	2209349632	46	4362
2026-01-08 04:38:54.78	318.18	51.64	-38.7	-39.7	20.4	0.00e+00	0	41	0	2216689664	47	4127
2026-01-08 04:38:55.64	317.65	51.75	-38.8	-39.8	20.3	0.00e+00	0	41	0	2224029696	47	4179
2026-01-08 04:38:56.78	316.93	51.91	-39.1	-40.1	20.1	0.00e+00	0	41	0	2232418304	47	4306
2026-01-08 04:38:57.65	316.38	52.02	-39.1	-40.1	20.1	0.00e+00	0	40	0	2237661184	47	4306
2026-01-08 04:38:58.79	315.65	52.16	-38.7	-39.6	20.5	0.00e+00	0	40	0	2246049792	47	4092
2026-01-08 04:38:59.65	315.10	52.27	-38.7	-39.6	20.5	0.00e+00	0	41	0	2252341248	47	4096
2026-01-08 04:39:00.79	314.35	52.41	-38.3	-39.2	20.9	0.00e+00	0	41	0	2260729856	46	4138
2026-01-08 04:39:01.65	313.79	52.51	-38.2	-39.1	20.9	0.00e+00	0	41	0	2267021312	46	4071
2026-01-08 04:39:02.90	312.96	52.65	-38.6	-39.6	20.5	0.00e+00	0	41	0	2276458496	46	4308
2026-01-08 04:39:03.75	312.40	52.74	-38.7	-39.6	20.5	0.00e+00	0	41	0	2281701376	46	4329
2026-01-08 04:39:04.90	311.62	52.86	-38.6	-39.5	20.6	0.00e+00	0	41	0	2290089984	46	4291
2026-01-08 04:39:05.76	311.04	52.95	-38.3	-39.2	20.8	0.00e+00	0	41	0	2296381440	46	4145
2026-01-08 04:39:07.03	310.18	53.07	-37.9	-38.8	21.3	0.00e+00	0	41	0	2305818624	46	3955
2026-01-08 04:39:07.75	309.68	53.14	-37.8	-38.7	21.3	0.00e+00	0	40	0	2311061504	46	3874
2026-01-08 04:39:09.28	308.63	53.28	-38.0	-38.9	21.2	0.00e+00	0	40	0	2321547264	46	3988
2026-01-08 04:39:10.00	308.12	53.34	-38.3	-39.2	20.9	0.00e+00	0	41	0	2326790144	46	4131
2026-01-08 04:39:11.28	307.23	53.44	-38.9	-39.9	20.3	0.00e+00	0	41	0	2336227328	47	4235
2026-01-08 04:39:12.00	306.72	53.49	-38.9	-39.8	20.3	0.00e+00	0	41	0	2341470208	47	4180
2026-01-08 04:39:13.29	305.81	53.58	-38.9	-39.9	20.3	0.00e+00	0	41	0	2350907392	47	4202
2026-01-08 04:39:14.01	305.30	53.63	-38.6	-39.6	20.6	0.00e+00	0	40	0	2356150272	47	4059
2026-01-08 04:39:15.30	304.38	53.71	-38.4	-39.3	20.8	0.00e+00	0	41	0	2365587456	47	3953
2026-01-08 04:39:16.01	303.87	53.75	-38.2	-39.1	21.0	0.00e+00	0	40	0	2370830336	47	3853
2026-01-08 04:39:17.30	302.94	53.82	-38.2	-39.1	21.0	0.00e+00	0	41	0	2380267520	46	4098
2026-01-08 04:39:18.02	302.42	53.86	-38.2	-39.1	21.0	0.00e+00	0	41	0	2384461824	46	4084
2026-01-08 04:39:19.31	301.49	53.91	-38.3	-39.2	20.9	0.00e+00	0	41	0	2393899008	46	4141
2026-01-08 04:39:20.12	300.90	53.95	-38.4	-39.3	20.8	0.00e+00	0	41	0	2400190464	46	4172
2026-01-08 04:39:21.27	300.06	53.99	-38.1	-39.0	21.0	0.00e+00	0	41	0	2408579072	46	4038
2026-01-08 04:39:22.13	299.44	54.01	-38.0	-38.9	21.1	0.00e+00	0	41	0	2414870528	46	3978
2026-01-08 04:39:23.28	298.60	54.04	-37.9	-38.8	21.3	0.00e+00	0	41	0	2423259136	46	3929
2026-01-08 04:39:24.41	297.77	54.06	-38.1	-39.1	21.0	0.00e+00	0	41	0	2431647744	46	4054
2026-01-08 04:39:25.27	297.14	54.08	-38.3	-39.3	20.8	0.00e+00	0	41	0	2436890624	46	4166
2026-01-08 04:39:26.42	296.29	54.09	-38.2	-39.2	21.0	0.00e+00	0	41	0	2445279232	46	4111
2026-01-08 04:39:27.28	295.66	54.09	-38.1	-39.0	21.1	0.00e+00	0	41	0	2451570688	46	4016
2026-01-08 04:39:28.42	294.82	54.09	-38.3	-39.2	20.9	0.00e+00	0	41	0	2459959296	46	4124
2026-01-08 04:39:29.29	294.18	54.09	-38.3	-39.2	20.9	0.00e+00	0	40	0	2466250752	46	4136
2026-01-08 04:39:30.43	293.35	54.08	-38.5	-39.4	20.7	0.00e+00	0	40	0	2474639360	46	4220
2026-01-08 04:39:31.29	292.71	54.07	-38.2	-39.1	21.0	0.00e+00	0	40	0	2480930816	46	4065
2026-01-08 04:39:32.44	291.87	54.05	-38.2	-39.2	20.9	0.00e+00	0	41	0	2489319424	46	4099
2026-01-08 04:39:33.30	291.24	54.03	-38.3	-39.2	20.9	0.00e+00	0	40	0	2495610880	46	4109
2026-01-08 04:39:34.54	290.34	53.99	-38.4	-39.3	20.8	0.00e+00	0	41	0	2503999488	46	4180
2026-01-08 04:39:35.39	289.72	53.97	-38.4	-39.3	20.8	0.00e+00	0	41	0	2510290944	46	4184
2026-01-08 04:39:36.54	288.88	53.92	-38.3	-39.2	20.9	0.00e+00	0	41	0	2518679552	46	4128
2026-01-08 04:39:37.40	288.25	53.89	-38.1	-39.0	21.1	0.00e+00	0	41	0	2524971008	46	4021
2026-01-08 04:39:38.55	287.42	53.83	-37.8	-38.7	21.4	0.00e+00	0	41	0	2533359616	46	3879
2026-01-08 04:39:39.40	286.81	53.79	-37.8	-38.7	21.3	0.00e+00	0	41	0	2539651072	46	3886
2026-01-08 04:39:40.55	285.98	53.73	-38.0	-38.9	21.2	0.00e+00	0	41	0	2548039680	46	3977
2026-01-08 04:39:41.41	285.37	53.67	-38.2	-39.2	20.9	0.00e+00	0	41	0	2554331136	46	4107
2026-01-08 04:39:42.56	284.55	53.60	-38.5	-39.5	20.7	0.00e+00	0	40	0	2562719744	46	4249
2026-01-08 04:39:43.42	283.94	53.54	-38.3	-39.2	20.9	0.00e+00	0	41	0	2567962624	46	4139
2026-01-08 04:39:44.56	283.14	53.46	-38.1	-39.0	21.1	0.00e+00	0	40	0	2576351232	46	4028
2026-01-08 04:39:45.42	282.53	53.39	-38.0	-38.9	21.2	0.00e+00	0	40	0	2582642688	46	3986
2026-01-08 04:39:46.56	281.74	53.30	-37.8	-38.7	21.4	0.00e+00	0	41	0	2591031296	46	3893
2026-01-08 04:39:47.42	281.14	53.22	-37.8	-38.7	21.3	0.00e+00	0	40	0	2597322752	46	3892
2026-01-08 04:39:48.57	280.35	53.12	-38.2	-39.1	21.0	0.00e+00	0	40	0	2605711360	46	4091
2026-01-08 04:39:49.43	279.76	53.04	-38.4	-39.4	20.8	0.00e+00	0	40	0	2612002816	46	4219
2026-01-08 04:39:50.58	278.97	52.92	-38.3	-39.2	20.9	0.00e+00	0	41	0	2620391424	46	4141
2026-01-08 04:39:51.44	278.39	52.84	-38.0	-38.9	21.1	0.00e+00	0	41	0	2626682880	46	4001
2026-01-08 04:39:52.65	277.58	52.71	-37.8	-38.7	21.4	0.00e+00	0	41	0	2635071488	46	3870
2026-01-08 04:39:53.51	277.01	52.61	-37.8	-38.7	21.3	0.00e+00	0	40	0	2641362944	46	3899
2026-01-08 04:39:54.65	276.25	52.48	-38.1	-39.1	21.0	0.00e+00	0	40	0	2649751552	46	4059
2026-01-08 04:39:55.51	275.69	52.38	-38.3	-39.2	20.9	0.00e+00	0	41	0	2656043008	46	4144
2026-01-08 04:39:56.66	274.94	52.24	-38.2	-39.1	21.0	0.00e+00	0	41	0	2664431616	46	4083
2026-01-08 04:39:57.52	274.39	52.14	-37.9	-38.8	21.3	0.00e+00	0	41	0	2669674496	46	3930
2026-01-08 04:39:58.67	273.65	51.99	-37.6	-38.4	21.6	0.00e+00	0	40	0	2678063104	45	3994
2026-01-08 04:39:59.53	273.10	51.87	-37.7	-38.6	21.4	0.00e+00	0	41	0	2684354560	45	4069
2026-01-08 04:40:00.67	272.39	51.72	-37.9	-38.8	21.2	0.00e+00	0	41	0	2692743168	45	4184
2026-01-08 04:40:01.75	271.72	51.57	-38.2	-39.1	20.9	0.00e+00	0	41	0	2701131776	46	4082
2026-01-08 04:40:02.79	271.08	51.42	-38.5	-39.5	20.7	0.00e+00	0	41	0	2708471808	46	4265
2026-01-08 04:40:03.79	270.47	51.28	-38.5	-39.5	20.7	0.00e+00	0	40	0	2715811840	46	4248
2026-01-08 04:40:04.79	269.86	51.13	-38.2	-39.2	20.9	0.00e+00	0	41	0	2723151872	46	4103
2026-01-08 04:40:05.79	269.26	50.98	-38.2	-39.2	21.0	0.00e+00	0	40	0	2730491904	46	4099
2026-01-08 04:40:06.80	268.67	50.83	-38.0	-38.9	21.2	0.00e+00	0	41	0	2736783360	46	3979
2026-01-08 04:40:07.80	268.08	50.67	-37.9	-38.8	21.3	0.00e+00	0	40	0	2744123392	46	3917
2026-01-08 04:40:08.80	267.50	50.51	-38.1	-39.0	21.0	0.00e+00	0	40	0	2751463424	46	4011
2026-01-08 04:40:09.80	266.93	50.35	-38.3	-39.2	20.9	0.00e+00	0	41	0	2758803456	46	4137
2026-01-08 04:40:10.80	266.36	50.19	-38.5	-39.4	20.7	0.00e+00	0	41	0	2766143488	46	4222
2026-01-08 04:40:11.86	265.76	50.01	-38.2	-39.1	21.0	0.00e+00	0	41	0	2773483520	46	4093
2026-01-08 04:40:12.76	265.26	49.86	-37.8	-38.7	21.3	0.00e+00	0	41	0	2779774976	46	3906
2026-01-08 04:40:13.97	264.60	49.66	-38.0	-38.9	21.0	0.00e+00	0	41	0	2789212160	46	3970
2026-01-08 04:40:14.84	264.13	49.51	-37.9	-38.7	21.3	0.00e+00	0	40	0	2795503616	46	3913
2026-01-08 04:40:15.99	263.51	49.30	-38.1	-39.0	21.0	0.00e+00	0	40	0	2803892224	46	4039
2026-01-08 04:40:16.85	263.06	49.15	-38.4	-39.3	20.8	0.00e+00	0	41	0	2810183680	46	4171
2026-01-08 04:40:18.00	262.45	48.95	-38.3	-39.2	20.9	0.00e+00	0	41	0	2818572288	46	4144
2026-01-08 04:40:18.86	262.01	48.79	-38.2	-39.1	21.0	0.00e+00	0	40	0	2823815168	46	4076
2026-01-08 04:40:20.00	261.43	48.58	-37.9	-38.8	21.3	0.00e+00	0	40	0	2832203776	46	3918
2026-01-08 04:40:20.86	260.99	48.43	-37.6	-38.5	21.5	0.00e+00	0	41	0	2838495232	46	3786
2026-01-08 04:40:22.01	260.42	48.21	-37.4	-38.3	21.7	0.00e+00	0	41	0	2846883840	45	3915
2026-01-08 04:40:22.86	260.00	48.05	-37.4	-38.3	21.6	0.00e+00	0	41	0	2853175296	45	3942
2026-01-08 04:40:24.01	259.44	47.84	-37.6	-38.5	21.4	0.00e+00	0	41	0	2861563904	45	4019
2026-01-08 04:40:24.87	259.02	47.67	-37.8	-38.7	21.3	0.00e+00	0	41	0	2867855360	45	4138
2026-01-08 04:40:26.02	258.47	47.45	-37.9	-38.8	21.2	0.00e+00	0	40	0	2876243968	45	4172
2026-01-08 04:40:26.88	258.07	47.29	-37.9	-38.8	21.2	0.00e+00	0	41	0	2881486848	45	4182
2026-01-08 04:40:28.03	257.54	47.06	-37.7	-38.7	21.3	0.00e+00	0	41	0	2889875456	45	4099
2026-01-08 04:40:28.89	257.14	46.90	-37.4	-38.3	21.6	0.00e+00	0	41	0	2897215488	45	3949
2026-01-08 04:40:30.03	256.63	46.67	-37.4	-38.3	21.7	0.00e+00	0	40	0	2904555520	45	3922
2026-01-08 04:40:30.89	256.24	46.50	-37.3	-38.2	21.8	0.00e+00	0	40	0	2910846976	45	3902
2026-01-08 04:40:32.04	255.74	46.28	-37.2	-38.1	21.8	0.00e+00	0	41	0	2919235584	45	3856
2026-01-08 04:40:32.90	255.36	46.11	-37.2	-38.1	21.8	0.00e+00	0	41	0	2925527040	45	3847
2026-01-08 04:40:34.04	254.87	45.88	-37.4	-38.2	21.7	0.00e+00	0	40	0	2933915648	45	3910
2026-01-08 04:40:34.90	254.51	45.71	-37.4	-38.3	21.4	0.00e+00	0	40	0	2940207104	45	3951
2026-01-08 04:40:36.05	254.02	45.47	-37.7	-38.6	21.4	0.00e+00	0	40	0	2948595712	45	4092
2026-01-08 04:40:36.91	253.67	45.30	-37.6	-38.6	21.4	0.00e+00	0	40	0	2954887168	45	4064
2026-01-08 04:40:38.13	253.17	45.05	-37.4	-38.3	21.6	0.00e+00	0	40	0	2963275776	45	3936
2026-01-08 04:40:38.99	252.82	44.88	-37.2	-38.1	21.9	0.00e+00	0	40	0	2969567232	45	3833
2026-01-08 04:40:40.14	252.37	44.64	-37.2	-38.1	21.7	0.00e+00	0	41	0	2977955840	44	4062
2026-01-08 04:40:41.00	252.03	44.47	-37.3	-38.1	21.8	0.00e+00	0	41	0	2984247296	44	4092
2026-01-08 04:40:42.15	251.58	44.23	-37.4	-38.4	21.6	0.00e+00	0	40	0	2992635904	44	4196
2026-01-08 04:40:43.12	251.21	44.03	-37.5	-38.4	21.6	0.00e+00	0	41	0	2998927360	44	4235
2026-01-08 04:40:44.29	250.77	43.79	-37.3	-38.2	21.8	0.00e+00	0	40	0	3008364544	44	4106
2026-01-08 04:40:45.16	250.45	43.62	-37.2	-38.1	21.7	0.00e+00	0	41	0	3013607424	44	4057
2026-01-08 04:40:46.51	249.95	43.34	-36.9	-37.8	22.1	0.00e+00	0	40	0	3024093184	44	3928
2026-01-08 04:40:47.22	249.69	43.19	-36.9	-37.8	22.1	0.00e+00	0	40	0	3029336064	44	3934
2026-01-08 04:40:48.52	249.23	42.92	-37.0	-37.9	22.0	0.00e+00	0	40	0	3038773248	44	3981
2026-01-08 04:40:49.23	248.98	42.78	-37.1	-38.0	21.9	0.00e+00	0	41	0	3042967552	44	4027
2026-01-08 04:40:50.52	248.53	42.51	-37.2	-38.1	21.8	0.00e+00	0	41	0	3052404736	44	4077
2026-01-08 04:40:51.24	248.28	42.36	-37.4	-38.3	21.6	0.00e+00	0	40	0	3057647616	44	4190
2026-01-08 04:40:52.52	247.85	42.10	-37.3	-38.2	21.7	0.00e+00	0	41	0	3067084800	44	4139
2026-01-08 04:40:53.24	247.61	41.95	-37.2	-38.0	21.8	0.00e+00	0	41	0	3072327680	44	4050
2026-01-08 04:40:54.53	247.18	41.68	-37.0	-37.9	22.0	0.00e+00	0	41	0	3081764864	44	3990
2026-01-08 04:40:55.24	246.95	41.54	-37.0	-37.8	22.1	0.00e+00	0	41	0	3087007744	44	3953
2026-01-08 04:40:56.54	246.53	41.27	-37.0	-37.9	22.0	0.00e+00	0	41	0	3096444928	44	3971
2026-01-08 04:40:57.25	246.30	41.12	-37.1	-38.0	21.9	0.00e+00	0	40	0	3101687808	44	4013
2026-01-08 04:40:58.59	245.88	40.84	-37.2	-38.1	21.8	0.00e+00	0	41	0	3111124992	44	4052
2026-01-08 04:40:59.31	245.66	40.70	-37.1	-38.0	21.9	0.00e+00	0	41	0	3116367872	44	4025
2026-01-08 04:41:00.66	245.24	40.42	-37.0	-37.9	22.0	0.00e+00	0	41	0	3125805056	44	3965
2026-01-08 04:41:01.37	245.03	40.27	-36.9	-37.8	22.0	0.00e+00	0	41	0	3131047936	44	3931
2026-01-08 04:41:02.66	244.65	40.01	-36.8	-37.7	22.1	0.00e+00	0	40	0	3140485120	44	3891
2026-01-08 04:41:03.38	244.43	39.86	-36.9	-37.8	22.0	0.00e+00	0	40	0	3145728000	44	3932
2026-01-08 04:41:04.80	244.02	39.57	-37.0	-37.8	22.0	0.00e+00	0	40	0	3156213760	44	3952
2026-01-08 04:41:05.52	243.82	39.43	-37.1	-37.9	21.9	0.00e+00	0	41	0	3161456640	44	3997
2026-01-08 04:41:06.81	243.45	39.16	-37.1	-38.0	21.8	0.00e+00	0	41	0	3170893824	44	4041
2026-01-08 04:41:07.52	243.25	39.02	-37.2	-38.1	21.8	0.00e+00	0	40	0	3175088128	44	4064
2026-01-08 04:41:08.81	242.90	38.76	-37.3	-38.2	21.7	0.00e+00	0	40	0	3184525312	44	4107
2026-01-08 04:41:09.53	242.70	38.61	-37.3	-38.2	21.7	0.00e+00	0	40	0	3189768192	44	4110
2026-01-08 04:41:10.82	242.35	38.35	-37.3	-38.2	21.7	0.00e+00	0	40	0	3199205376	44	4132
2026-01-08 04:41:11.53	242.17	38.21	-37.2	-38.0	21.8	0.00e+00	0	40	0	3204448256	44	4047
2026-01-08 04:41:12.82	241.83	37.95	-37.0	-37.8	22.0	0.00e+00	0	40	0	3213885440	44	3943
2026-01-08 04:41:13.54	241.64	37.81	-36.7	-37.5	22.3	0.00e+00	0	40	0	3219128320	44	3816
2026-01-08 04:41:14.83	241.31	37.55	-36.3	-37.1	22.4	0.00e+00	0	41	0	3228565504	43	3864
2026-01-08 04:41:15.55	241.13	37.40	-36.3	-37.1	22.4	0.00e+00	0	41	0	3233808384	43	3861
2026-01-08 04:41:16.83	240.81	37.15	-36.6	-37.4	22.2	0.00e+00	0	40	0	3243245568	43	3989
2026-01-08 04:41:17.55	240.63	37.01	-36.8	-37.6	22.0	0.00e+00	0	40	0	3247439872	43	4090
2026-01-08 04:41:18.84	240.32	36.75	-37.0	-37.9	21.8	0.00e+00	0	41	0	3256877056	43	4204
2026-01-08 04:41:19.56	240.14	36.61	-37.1	-38.0	21.7	0.00e+00	0	40	0	3262119936	43	4261
2026-01-08 04:41:20.85	239.84	36.36	-37.0	-37.9	21.8	0.00e+00	0	40	0	3271557120	43	4199
2026-01-08 04:41:21.56	239.67	36.22	-36.9	-37.8	21.8	0.00e+00	0	40	0	3276800000	43	4180
2026-01-08 04:41:22.85	239.37	35.97	-36.7	-37.6	22.1	0.00e+00	0	41	0	3286237184	43	4068
2026-01-08 04:41:23.57	239.21	35.83	-36.7	-37.6	22.0	0.00e+00	0	40	0	3291480064	43	4072
2026-01-08 04:41:24.86	238.91	35.58	-36.8	-37.6	22.0	0.00e+00	0	40	0	3300917248	43	4089
2026-01-08 04:41:25.58	238.75	35.44	-36.7	-37.6	22.1	0.00e+00	0	40	0	3306160128	43	4052
2026-01-08 04:41:26.87	238.47	35.19	-36.6	-37.4	21.8	0.00e+00	0	40	0	3315597312	43	3992
2026-01-08 04:41:27.58	238.31	35.06	-36.5	-37.4	22.1	0.00e+00	0	40	0	3320840192	43	3959
2026-01-08 04:41:28.87	238.03	34.81	-36.4	-37.3	22.3	0.00e+00	0	40	0	3329228800	43	3931
2026-01-08 04:41:29.59	237.88	34.67	-36.4	-37.3	22.3	0.00e+00	0	41	0	3334471680	43	3935
2026-01-08 04:41:30.88	237.61	34.43	-36.5	-37.3	22.3	0.00e+00	0	40	0	3343908864	43	3949
2026-01-08 04:41:31.59	237.46	34.29	-36.4	-37.3	22.3	0.00e+00	0	41	0	3349151744	43	3925
2026-01-08 04:41:32.88	237.19	34.05	-36.5	-37.3	22.2	0.00e+00	0	40	0	3358588928	43	3944
2026-01-08 04:41:33.60	237.05	33.92	-36.6	-37.4	22.1	0.00e+00	0	41	0	3363831808	43	3997
2026-01-08 04:41:34.89	236.79	33.68	-36.5	-37.4	22.2	0.00e+00	0	40	0	3373268992	43	3974
2026-01-08 04:41:35.61	236.64	33.54	-36.5	-37.4	22.2	0.00e+00	0	40	0	3378511872	43	3993
2026-01-08 04:41:36.90	236.39	33.30	-36.5	-37.3	22.0	0.00e+00	0	41	0	3387949056	43	3955
2026-01-08 04:41:37.61	236.25	33.17	-36.5	-37.3	22.0	0.00e+00	0	40	0	3393191936	43	3954
2026-01-08 04:41:38.91	236.00	32.93	-36.5	-37.4	22.1	0.00e+00	0	40	0	3401580544	43	3996
2026-01-08 04:41:39.62	235.87	32.80	-36.6	-37.4	22.2	0.00e+00	0	41	0	3406823424	43	3996
2026-01-08 04:41:41.26	235.56	32.50	-36.7	-37.5	22.0	0.00e+00	0	40	0	3419406336	43	4047
2026-01-08 04:41:41.84	235.45	32.40	-36.7	-37.5	22.1	0.00e+00	0	41	0	3423600640	43	4051
2026-01-08 04:41:43.44	235.16	32.11	-36.6	-37.5	22.1	0.00e+00	0	40	0	3435134976	43	4036
2026-01-08 04:41:44.02	235.06	32.01	-36.6	-37.5	22.1	0.00e+00	0	40	0	3439329280	43	4039
2026-01-08 04:41:45.59	234.77	31.73	-36.6	-37.5	22.1	0.00e+00	0	40	0	3450863616	43	4008
2026-01-08 04:41:46.23	234.66	31.61	-36.6	-37.4	22.1	0.00e+00	0	40	0	3455057920	43	4003
2026-01-08 04:41:47.69	234.41	31.35	-36.5	-37.4	22.1	0.00e+00	0	40	0	3465543680	43	3976
2026-01-08 04:41:48.47	234.27	31.22	-36.6	-37.4	22.1	0.00e+00	0	40	0	3470786560	43	4004
2026-01-08 04:41:49.65	234.07	31.01	-36.6	-37.5	22.1	0.00e+00	0	41	0	3479175168	43	4021
2026-01-08 04:41:50.51	233.93	30.86	-36.6	-37.4	22.1	0.00e+00	0	40	0	3485466624	43	3997
2026-01-08 04:41:51.66	233.74	30.66	-36.6	-37.5	22.1	0.00e+00	0	40	0	3493855232	43	4027
2026-01-08 04:41:52.52	233.59	30.51	-36.7	-37.5	22.0	0.00e+00	0	40	0	3500146688	43	4051
2026-01-08 04:41:53.67	233.41	30.31	-36.7	-37.6	22.0	0.00e+00	0	40	0	3508535296	43	4081
2026-01-08 04:41:54.53	233.27	30.16	-36.8	-37.7	21.9	0.00e+00	0	40	0	3514826752	43	4115
2026-01-08 04:41:55.67	233.09	29.97	-36.8	-37.7	21.9	0.00e+00	0	40	0	3523215360	43	4143
2026-01-08 04:41:56.53	232.95	29.82	-36.9	-37.8	21.8	0.00e+00	0	41	0	3529506816	43	4189
2026-01-08 04:41:57.68	232.77	29.63	-36.9	-37.8	21.8	0.00e+00	0	40	0	3537895424	43	4180
2026-01-08 04:41:58.53	232.64	29.48	-36.9	-37.8	21.8	0.00e+00	0	40	0	3544186880	43	4158
2026-01-08 04:41:59.68	232.46	29.29	-36.9	-37.8	21.8	0.00e+00	0	40	0	3551526912	43	4165
2026-01-08 04:42:00.54	232.33	29.15	-36.9	-37.8	21.8	0.00e+00	0	40	0	3558866944	43	4171
2026-01-08 04:42:01.69	232.16	28.96	-37.0	-37.9	21.7	0.00e+00	0	40	0	3566206976	43	4199
2026-01-08 04:42:02.63	232.02	28.80	-36.9	-37.8	21.8	0.00e+00	0	40	0	3573547008	43	4162
2026-01-08 04:42:03.80	231.85	28.61	-37.1	-37.9	21.7	0.00e+00	0	41	0	3581935616	43	4237
2026-01-08 04:42:04.66	231.73	28.47	-37.0	-37.9	21.7	0.00e+00	0	40	0	3588227072	43	4225
2026-01-08 04:42:06.03	231.53	28.24	-37.0	-37.9	21.7	0.00e+00	0	40	0	3597664256	43	4238
2026-01-08 04:42:06.75	231.43	28.13	-37.0	-37.9	21.7	0.00e+00	0	40	0	3602907136	43	4218
2026-01-08 04:42:08.04	231.25	27.92	-37.0	-37.9	21.5	0.00e+00	0	41	0	3612344320	43	4226
2026-01-08 04:42:08.75	231.15	27.80	-37.0	-37.9	21.7	0.00e+00	0	41	0	3617587200	43	4212
2026-01-08 04:42:10.04	230.97	27.60	-37.0	-37.9	21.7	0.00e+00	0	40	0	3627024384	43	4219
2026-01-08 04:42:10.76	230.87	27.48	-36.9	-37.8	21.8	0.00e+00	0	40	0	3632267264	43	4177
2026-01-08 04:42:12.05	230.70	27.28	-36.9	-37.8	21.7	0.00e+00	0	40	0	3641704448	43	4173
2026-01-08 04:42:12.77	230.60	27.16	-36.9	-37.8	21.8	0.00e+00	0	41	0	3646947328	43	4167
2026-01-08 04:42:14.05	230.44	26.96	-37.0	-37.9	21.7	0.00e+00	0	40	0	3655335936	43	4213
2026-01-08 04:42:14.77	230.34	26.85	-37.0	-37.9	21.7	0.00e+00	0	40	0	3660578816	43	4223
2026-01-08 04:42:16.06	230.17	26.65	-37.1	-38.0	21.6	0.00e+00	0	40	0	3670016000	43	4275
2026-01-08 04:42:16.78	230.08	26.54	-37.1	-38.0	21.6	0.00e+00	0	40	0	3675258880	43	4271
2026-01-08 04:42:18.17	229.91	26.32	-37.2	-38.1	21.5	0.00e+00	0	40	0	3685744640	43	4334
2026-01-08 04:42:18.88	229.82	26.22	-37.2	-38.1	21.6	0.00e+00	0	40	0	3689938944	43	4322
2026-01-08 04:42:20.17	229.66	26.02	-37.2	-38.1	21.6	0.00e+00	0	40	0	3699376128	43	4322
2026-01-08 04:42:20.89	229.57	25.91	-37.2	-38.2	21.5	0.00e+00	0	40	0	3705667584	43	4347
2026-01-08 04:42:22.18	229.41	25.71	-37.2	-38.1	21.6	0.00e+00	0	40	0	3714056192	43	4307
2026-01-08 04:42:22.90	229.33	25.61	-37.0	-38.0	21.7	0.00e+00	0	41	0	3719299072	43	4247
2026-01-08 04:42:24.19	229.17	25.41	-37.1	-38.0	21.6	0.00e+00	0	40	0	3728736256	43	4273
2026-01-08 04:42:24.90	229.09	25.31	-37.1	-38.0	21.7	0.00e+00	0	40	0	3733979136	43	4256
2026-01-08 04:42:26.19	228.94	25.12	-37.2	-38.1	21.6	0.00e+00	0	40	0	3743416320	43	4298
2026-01-08 04:42:26.97	228.85	25.00	-37.1	-38.0	21.6	0.00e+00	0	40	0	3748659200	43	4265
2026-01-08 04:42:28.26	228.70	24.81	-37.0	-37.9	21.7	0.00e+00	0	41	0	3758096384	43	4230
2026-01-08 04:42:29.07	228.61	24.69	-37.0	-37.9	21.7	0.00e+00	0	40	0	3764387840	43	4198
2026-01-08 04:42:30.54	228.44	24.48	-36.9	-37.8	21.8	0.00e+00	0	40	0	3774873600	43	4169
2026-01-08 04:42:31.25	228.36	24.38	-36.9	-37.7	21.8	0.00e+00	0	40	0	3780116480	43	4143
2026-01-08 04:42:32.75	228.20	24.16	-36.9	-37.8	21.8	0.00e+00	0	40	0	3790602240	43	4153
2026-01-08 04:42:33.47	228.12	24.06	-37.0	-37.9	21.7	0.00e+00	0	40	0	3795845120	43	4205
2026-01-08 04:42:34.75	227.98	23.87	-37.1	-38.0	21.6	0.00e+00	0	40	0	3805282304	43	4245
2026-01-08 04:42:35.47	227.90	23.77	-37.2	-38.1	21.5	0.00e+00	0	40	0	3810525184	43	4309
2026-01-08 04:42:36.76	227.76	23.59	-37.4	-38.3	21.5	0.00e+00	0	40	0	3819962368	44	4153
2026-01-08 04:42:37.48	227.69	23.49	-37.5	-38.4	21.4	0.00e+00	0	40	0	3825205248	44	4237
2026-01-08 04:42:38.77	227.55	23.31	-37.6	-38.5	21.3	0.00e+00	0	40	0	3833593856	44	4255
2026-01-08 04:42:39.49	227.48	23.21	-37.5	-38.4	21.3	0.00e+00	0	40	0	3839885312	44	4242
2026-01-08 04:42:40.78	227.35	23.03	-37.6	-38.5	21.3	0.00e+00	0	40	0	3848273920	44	4291
2026-01-08 04:42:41.49	227.28	22.93	-37.7	-38.6	21.3	0.00e+00	0	40	0	3853516800	44	4307
2026-01-08 04:42:42.78	227.15	22.75	-37.7	-38.6	21.2	0.00e+00	0	41	0	3862953984	44	4316
2026-01-08 04:42:43.50	227.08	22.66	-37.7	-38.6	21.2	0.00e+00	0	40	0	3868196864	44	4310
2026-01-08 04:42:44.78	226.95	22.48	-37.6	-38.5	21.3	0.00e+00	0	40	0	3877634048	44	4267
2026-01-08 04:42:45.68	226.86	22.36	-37.6	-38.5	21.3	0.00e+00	0	40	0	3883925504	44	4288
2026-01-08 04:42:46.73	226.76	22.22	-37.5	-38.4	21.4	0.00e+00	0	41	0	3891265536	44	4199
2026-01-08 04:42:47.60	226.68	22.10	-37.5	-38.4	21.4	0.00e+00	0	40	0	3897556992	44	4206
2026-01-08 04:42:48.75	226.57	21.95	-37.5	-38.4	21.4	0.00e+00	0	40	0	3905945600	44	4222
2026-01-08 04:42:49.61	226.49	21.83	-37.4	-38.3	21.4	0.00e+00	0	40	0	3912237056	44	4165
2026-01-08 04:42:50.75	226.38	21.68	-37.4	-38.3	21.5	0.00e+00	0	41	0	3920625664	44	4167
2026-01-08 04:42:51.61	226.30	21.57	-37.4	-38.3	21.5	0.00e+00	0	41	0	3926917120	44	4167
2026-01-08 04:42:52.90	226.18	21.40	-37.3	-38.2	21.5	0.00e+00	0	40	0	3936354304	44	4130
2026-01-08 04:42:53.62	226.12	21.31	-37.4	-38.2	21.5	0.00e+00	0	40	0	3941597184	44	4142
2026-01-08 04:42:54.90	226.00	21.14	-37.4	-38.3	21.4	0.00e+00	0	40	0	3951034368	44	4163
2026-01-08 04:42:55.62	225.94	21.05	-37.4	-38.3	21.4	0.00e+00	0	40	0	3955228672	44	4188
2026-01-08 04:42:56.91	225.82	20.88	-37.6	-38.5	21.3	0.00e+00	0	40	0	3964665856	44	4250
2026-01-08 04:42:57.63	225.76	20.79	-37.7	-38.6	21.2	0.00e+00	0	40	0	3969908736	44	4319
2026-01-08 04:42:59.25	225.62	20.58	-37.8	-38.7	21.1	0.00e+00	0	40	0	3982491648	44	4357
2026-01-08 04:42:59.83	225.57	20.51	-37.8	-38.7	21.1	0.00e+00	0	40	0	3985637376	44	4353
2026-01-08 04:43:01.45	225.43	20.30	-37.9	-38.9	21.0	0.00e+00	0	40	0	3998220288	45	4207
2026-01-08 04:43:02.02	225.38	20.23	-37.9	-38.9	21.0	0.00e+00	0	40	0	4002414592	45	4198
2026-01-08 04:43:03.66	225.24	20.03	-38.2	-39.1	20.7	0.00e+00	0	40	0	4013948928	45	4320
2026-01-08 04:43:04.23	225.20	19.96	-38.2	-39.1	20.7	0.00e+00	0	40	0	4018143232	45	4323
2026-01-08 04:43:05.83	225.06	19.76	-38.2	-39.2	20.6	0.00e+00	0	40	0	4029677568	45	4376
2026-01-08 04:43:06.40	225.02	19.69	-38.2	-39.2	20.6	0.00e+00	0	40	0	4033871872	46	4114
2026-01-08 04:43:07.97	224.89	19.50	-38.3	-39.3	20.6	0.00e+00	0	40	0	4045406208	46	4157
2026-01-08 04:43:08.55	224.84	19.43	-38.3	-39.3	20.6	0.00e+00	0	41	0	4049600512	46	4153
2026-01-08 04:43:10.13	224.72	19.23	-38.3	-39.3	20.6	0.00e+00	0	40	0	4060086272	46	4178
2026-01-08 04:43:10.77	224.67	19.16	-38.3	-39.3	20.5	0.00e+00	0	40	0	4065329152	46	4177
2026-01-08 04:43:12.21	224.55	18.98	-38.4	-39.3	20.6	0.00e+00	0	40	0	4075814912	46	4192
2026-01-08 04:43:12.93	224.50	18.90	-38.4	-39.4	20.5	0.00e+00	0	40	0	4081057792	46	4200
2026-01-08 04:43:14.26	224.40	18.74	-38.5	-39.4	20.5	0.00e+00	0	41	0	4090494976	46	4235
2026-01-08 04:43:14.98	224.34	18.65	-38.4	-39.4	20.5	0.00e+00	0	40	0	4095737856	46	4224
2026-01-08 04:43:16.27	224.24	18.50	-38.4	-39.3	20.6	0.00e+00	0	40	0	4105175040	46	4190
2026-01-08 04:43:16.99	224.19	18.42	-38.4	-39.3	20.5	0.00e+00	0	40	0	4110417920	46	4169
2026-01-08 04:43:18.28	224.09	18.27	-38.3	-39.3	20.6	0.00e+00	0	40	0	4118806528	46	4155
2026-01-08 04:43:18.99	224.04	18.18	-38.3	-39.3	20.6	0.00e+00	0	40	0	4125097984	46	4163
2026-01-08 04:43:20.28	223.95	18.03	-38.4	-39.4	20.5	0.00e+00	0	40	0	4133486592	46	4216
2026-01-08 04:43:21.00	223.90	17.95	-38.5	-39.4	20.4	0.00e+00	0	41	0	4138729472	46	4221
2026-01-08 04:43:22.29	223.80	17.80	-38.2	-39.2	20.7	0.00e+00	0	41	0	4148166656	46	4103
2026-01-08 04:43:23.00	223.75	17.72	-38.2	-39.2	20.6	0.00e+00	0	40	0	4153409536	46	4109
2026-01-08 04:43:24.29	223.66	17.57	-38.3	-39.3	20.6	0.00e+00	0	40	0	4162846720	46	4160
2026-01-08 04:43:25.01	223.61	17.49	-38.3	-39.2	20.7	0.00e+00	0	41	0	4168089600	46	4118
2026-01-08 04:43:26.30	223.52	17.35	-38.2	-39.1	20.7	0.00e+00	0	41	0	4177526784	46	4077
2026-01-08 04:43:27.02	223.47	17.27	-38.2	-39.1	20.7	0.00e+00	0	41	0	4182769664	46	4093
2026-01-08 04:43:28.31	223.38	17.12	-38.3	-39.2	20.6	0.00e+00	0	41	0	4192206848	46	4131
2026-01-08 04:43:29.02	223.33	17.04	-38.2	-39.2	20.7	0.00e+00	0	41	0	4196401152	46	4103
2026-01-08 04:43:30.31	223.25	16.90	-38.3	-39.2	20.5	0.00e+00	0	41	0	4205838336	46	4142
2026-01-08 04:43:31.03	223.20	16.82	-38.3	-39.2	20.6	0.00e+00	0	41	0	4211081216	46	4134
2026-01-08 04:43:32.32	223.11	16.68	-38.3	-39.2	20.6	0.00e+00	0	41	0	4220518400	46	4124
2026-01-08 04:43:33.04	223.06	16.60	-38.3	-39.2	20.6	0.00e+00	0	40	0	4225761280	46	4119
2026-01-08 04:43:34.33	222.98	16.46	-38.3	-39.3	20.6	0.00e+00	0	40	0	4235198464	46	4157
2026-01-08 04:43:35.04	222.93	16.38	-38.3	-39.3	20.6	0.00e+00	0	40	0	4240441344	46	4154
2026-01-08 04:43:36.33	222.85	16.24	-38.4	-39.3	20.5	0.00e+00	0	40	0	4249878528	46	4185
2026-01-08 04:43:37.05	222.80	16.16	-38.4	-39.4	20.5	0.00e+00	0	41	0	4255121408	46	4194
2026-01-08 04:43:38.34	222.72	16.02	-38.4	-39.4	20.4	0.00e+00	0	40	0	4264558592	46	4207
2026-01-08 04:43:39.21	222.67	15.93	-38.5	-39.4	20.4	0.00e+00	0	40	0	4270850048	46	4241
2026-01-08 04:43:40.36	222.59	15.81	-38.5	-39.5	20.4	0.00e+00	0	41	0	4279238656	46	4248
2026-01-08 04:43:41.22	222.54	15.71	-38.5	-39.5	20.3	0.00e+00	0	40	0	4284481536	46	4267
2026-01-08 04:43:42.37	222.47	15.59	-38.6	-39.6	20.3	0.00e+00	0	40	0	4292870144	46	4295
2026-01-08 04:43:43.22	222.42	15.50	-38.7	-39.7	20.2	0.00e+00	0	40	0	4299161600	46	4360
2026-01-08 04:43:44.36	222.35	15.38	-38.8	-39.8	20.1	0.00e+00	0	40	0	4307550208	47	4155
2026-01-08 04:43:45.23	222.29	15.29	-38.8	-39.8	20.0	0.00e+00	0	40	0	4313841664	47	4174
2026-01-08 04:43:46.37	222.23	15.17	-38.8	-39.8	20.0	0.00e+00	0	41	0	4322230272	47	4178
2026-01-08 04:43:47.23	222.18	15.08	-38.7	-39.7	20.1	0.00e+00	0	40	0	4328521728	47	4114
2026-01-08 04:43:48.46	222.10	14.96	-38.8	-39.8	20.1	0.00e+00	0	40	0	4336910336	47	4151
2026-01-08 04:43:49.32	222.05	14.87	-38.8	-39.8	20.1	0.00e+00	0	41	0	4343201792	47	4153
2026-01-08 04:43:50.47	221.98	14.75	-38.9	-39.9	20.0	0.00e+00	0	40	0	4351590400	47	4196
2026-01-08 04:43:51.33	221.94	14.66	-38.9	-39.8	19.9	0.00e+00	0	40	0	4357881856	47	4193
2026-01-08 04:43:52.48	221.87	14.55	-38.9	-39.9	19.8	0.00e+00	0	41	0	4366270464	47	4239
2026-01-08 04:43:53.34	221.82	14.46	-39.0	-40.0	19.9	0.00e+00	0	40	0	4372561920	47	4269
2026-01-08 04:43:54.48	221.76	14.34	-39.0	-40.0	19.8	0.00e+00	0	40	0	4380950528	47	4291
2026-01-08 04:43:55.34	221.71	14.26	-39.0	-40.1	19.8	0.00e+00	0	40	0	4387241984	47	4295
2026-01-08 04:43:56.49	221.64	14.14	-39.2	-40.2	19.7	0.00e+00	0	40	0	4395630592	47	4351
2026-01-08 04:43:57.35	221.60	14.06	-39.4	-40.4	19.8	0.00e+00	0	41	0	4401922048	48	4212
2026-01-08 04:43:58.50	221.53	13.94	-39.4	-40.4	19.7	0.00e+00	0	41	0	4409262080	48	4206
2026-01-08 04:43:59.35	221.49	13.86	-39.5	-40.5	19.6	0.00e+00	0	40	0	4415553536	48	4282
2026-01-08 04:44:00.50	221.42	13.75	-39.5	-40.5	19.7	0.00e+00	0	40	0	4423942144	48	4262
2026-01-08 04:44:01.36	221.38	13.66	-39.4	-40.4	19.7	0.00e+00	0	41	0	4430233600	48	4225
2026-01-08 04:44:02.50	221.32	13.55	-39.5	-40.5	19.6	0.00e+00	0	40	0	4438622208	48	4269
2026-01-08 04:44:03.36	221.27	13.47	-39.5	-40.5	19.6	0.00e+00	0	40	0	4444913664	48	4291
2026-01-08 04:44:04.51	221.21	13.35	-39.7	-40.7	19.5	0.00e+00	0	41	0	4453302272	48	4367
2026-01-08 04:44:05.37	221.16	13.27	-39.6	-40.6	19.5	0.00e+00	0	41	0	4459593728	48	4334
2026-01-08 04:44:06.52	221.10	13.16	-39.6	-40.6	19.5	0.00e+00	0	41	0	4467982336	48	4331
2026-01-08 04:44:07.40	221.06	13.08	-39.6	-40.7	19.5	0.00e+00	0	40	0	4474273792	48	4359
2026-01-08 04:44:08.54	221.00	12.97	-39.7	-40.8	19.4	0.00e+00	0	40	0	4482662400	48	4403
2026-01-08 04:44:09.40	220.96	12.88	-39.7	-40.7	19.4	0.00e+00	0	40	0	4488953856	48	4378
2026-01-08 04:44:10.55	220.90	12.78	-39.7	-40.8	19.3	0.00e+00	0	40	0	4496293888	48	4409
2026-01-08 04:44:11.41	220.85	12.69	-39.8	-40.8	19.3	0.00e+00	0	41	0	4502585344	49	4176
2026-01-08 04:44:12.56	220.80	12.59	-39.8	-40.9	19.3	0.00e+00	0	41	0	4510973952	49	4203
2026-01-08 04:44:13.42	220.75	12.50	-39.8	-40.8	19.2	0.00e+00	0	40	0	4517265408	49	4192
2026-01-08 04:44:14.56	220.70	12.40	-39.8	-40.9	19.3	0.00e+00	0	40	0	4525654016	49	4200
2026-01-08 04:44:15.42	220.66	12.32	-39.8	-40.9	19.3	0.00e+00	0	41	0	4531945472	49	4216
2026-01-08 04:44:16.57	220.60	12.21	-40.0	-41.0	19.1	0.00e+00	0	40	0	4540334080	49	4276
2026-01-08 04:44:17.43	220.56	12.13	-39.9	-41.0	19.2	0.00e+00	0	40	0	4546625536	49	4267
2026-01-08 04:44:18.64	220.50	12.02	-40.0	-41.1	19.1	0.00e+00	0	40	0	4555014144	49	4293
2026-01-08 04:44:19.50	220.46	11.94	-40.0	-41.0	19.1	0.00e+00	0	40	0	4561305600	49	4282
2026-01-08 04:44:20.71	220.40	11.83	-40.1	-41.2	18.9	0.00e+00	0	40	0	4569694208	49	4351
2026-01-08 04:44:21.57	220.36	11.75	-40.2	-41.2	18.9	0.00e+00	0	40	0	4575985664	49	4388
2026-01-08 04:44:22.72	220.31	11.65	-40.1	-41.2	18.9	0.00e+00	0	40	0	4584374272	49	4345
2026-01-08 04:44:23.57	220.27	11.57	-40.3	-41.4	18.8	0.00e+00	0	40	0	4590665728	49	4442
2026-01-08 04:44:24.72	220.22	11.47	-40.3	-41.4	18.8	0.00e+00	0	40	0	4599054336	50	4201
2026-01-08 04:44:25.63	220.17	11.38	-40.4	-41.4	18.7	0.00e+00	0	40	0	4605345792	50	4241
2026-01-08 04:44:26.82	220.12	11.28	-40.3	-41.4	18.7	0.00e+00	0	40	0	4613734400	50	4219
2026-01-08 04:44:27.68	220.08	11.20	-40.4	-41.5	18.7	0.00e+00	0	40	0	4621074432	50	4247
2026-01-08 04:44:29.03	220.02	11.08	-40.3	-41.4	18.7	0.00e+00	0	40	0	4630511616	50	4238
2026-01-08 04:44:29.75	219.99	11.02	-40.4	-41.5	18.6	0.00e+00	0	40	0	4635754496	50	4258
2026-01-08 04:44:31.04	219.93	10.90	-40.5	-41.6	18.5	0.00e+00	0	40	0	4645191680	50	4323
2026-01-08 04:44:31.76	219.90	10.84	-40.5	-41.7	18.4	0.00e+00	0	40	0	4649385984	50	4366
2026-01-08 04:44:33.05	219.84	10.73	-40.5	-41.7	18.4	0.00e+00	0	40	0	4658823168	50	4343
2026-01-08 04:44:33.76	219.81	10.66	-40.5	-41.8	18.4	0.00e+00	0	40	0	4664066048	50	4393
2026-01-08 04:44:35.05	219.76	10.55	-40.5	-41.8	18.4	0.00e+00	0	40	0	4673503232	50	4392
2026-01-08 04:44:35.76	219.73	10.49	-40.7	-42.0	18.2	0.00e+00	0	40	0	4678746112	50	4504
2026-01-08 04:44:37.06	219.67	10.38	-40.6	-41.9	18.2	0.00e+00	0	40	0	4688183296	50	4451
2026-01-08 04:44:37.77	219.64	10.32	-40.6	-41.8	18.3	0.00e+00	0	41	0	4693426176	50	4439
2026-01-08 04:44:39.06	219.59	10.21	-40.6	-41.9	18.2	0.00e+00	0	40	0	4702863360	50	4454
2026-01-08 04:44:39.78	219.56	10.14	-40.7	-41.9	18.2	0.00e+00	0	41	0	4707057664	50	4480
2026-01-08 04:44:41.17	219.50	10.02	-40.7	-41.9	18.2	0.00e+00	0	41	0	4717543424	50	4466
2026-01-08 04:44:42.17	219.46	9.94	-40.8	-41.9	18.1	0.00e+00	0	41	0	4724883456	51	4232
2026-01-08 04:44:43.49	219.40	9.83	-40.7	-41.8	18.2	0.00e+00	0	41	0	4734320640	51	4185
