passes_logs/2026/01/08/T1/T1__20260108_142328_FENGYUN_3E_rec.log

#Pass ID: 20260108_142328_FENGYUN 3E
#Satellite: FENGYUN 3E
#Configuration: FENGYUN 3E
#almurnet v.1.7.20251203
#Start time: 2026-01-08 14:23:30

#Version: 2.0.20230620
#Station: T1
#Location: 37.570604 lon 55.790049 lat
#TLE: 1 49008U 21062A   26007.88844255 -.00000338  00000+0 -13865-3 0  9992
#TLE: 2 49008  98.7481  13.0996 0001694 151.5348 208.5921 14.19883289233834

#Time	Az	El	Level	Level2	SNR	BER	BlckErr	Temp	State	Recorded	gain1	gain2
2026-01-08 14:23:30.30	166.05	5.11	-49.0	-60.2	3.8	8.46e-01	0	40	0	0	67	13810
2026-01-08 14:23:31.29	166.06	5.18	-48.4	-59.6	3.8	8.46e-01	0	40	104	0	67	12842
2026-01-08 14:23:32.30	166.07	5.25	-48.4	-59.6	3.8	8.46e-01	0	40	104	0	67	12918
2026-01-08 14:23:33.30	166.08	5.33	-48.4	-59.7	3.8	8.47e-01	0	41	104	0	67	13026
2026-01-08 14:23:34.30	166.10	5.40	-48.4	-59.8	3.8	8.46e-01	0	41	104	0	67	13193
2026-01-08 14:23:35.31	166.11	5.47	-48.4	-60.1	3.8	8.47e-01	0	41	104	0	67	13600
2026-01-08 14:23:36.31	166.12	5.55	-48.4	-60.3	3.8	8.46e-01	0	41	104	0	67	14028
2026-01-08 14:23:37.32	166.13	5.62	-48.5	-60.6	3.8	8.46e-01	0	41	104	0	67	14418
2026-01-08 14:23:38.32	166.14	5.69	-48.5	-60.7	3.8	8.46e-01	0	41	104	0	67	14654
2026-01-08 14:23:39.33	166.16	5.77	-48.4	-60.7	3.8	8.47e-01	0	41	104	0	67	14678
2026-01-08 14:23:40.33	166.17	5.84	-48.5	-60.6	3.8	8.48e-01	0	41	104	0	67	14443
2026-01-08 14:23:41.34	166.18	5.92	-48.5	-60.3	3.8	8.47e-01	0	41	104	0	67	13955
2026-01-08 14:23:42.34	166.19	5.99	-48.4	-59.8	3.8	8.47e-01	0	41	104	0	67	13216
2026-01-08 14:23:43.34	166.21	6.07	-48.3	-59.3	3.8	8.48e-01	0	41	104	0	67	12427
2026-01-08 14:23:44.35	166.22	6.14	-48.3	-58.9	3.8	8.45e-01	0	41	104	0	67	11912
2026-01-08 14:23:45.35	166.23	6.22	-48.2	-58.5	3.8	8.45e-01	0	41	104	0	67	11328
2026-01-08 14:23:46.36	166.24	6.29	-48.2	-58.0	4.0	8.45e-01	0	41	104	0	67	10726
2026-01-08 14:23:47.36	166.26	6.37	-48.2	-57.9	4.0	8.44e-01	0	41	104	0	67	10587
2026-01-08 14:23:48.37	166.27	6.44	-48.1	-57.8	4.1	8.42e-01	0	41	0	0	67	10442
2026-01-08 14:23:49.37	166.28	6.52	-48.1	-57.8	4.1	8.45e-01	0	41	104	0	66	11055
2026-01-08 14:23:50.37	166.29	6.59	-48.0	-58.1	3.9	8.42e-01	0	41	104	0	66	11458
2026-01-08 14:23:51.38	166.31	6.67	-48.1	-58.2	3.9	8.45e-01	0	41	104	0	66	11661
2026-01-08 14:23:52.38	166.32	6.75	-48.1	-58.4	3.9	8.46e-01	0	41	104	0	66	11900
2026-01-08 14:23:53.39	166.33	6.83	-48.1	-58.6	3.8	8.46e-01	0	41	104	0	66	12222
2026-01-08 14:23:54.39	166.35	6.90	-48.2	-58.9	3.8	8.45e-01	0	41	104	0	66	12631
2026-01-08 14:23:55.39	166.36	6.98	-48.2	-59.0	3.8	8.46e-01	0	41	104	0	66	12708
2026-01-08 14:23:56.40	166.37	7.06	-48.3	-59.0	3.8	8.46e-01	0	41	104	0	66	12683
2026-01-08 14:23:57.41	166.38	7.14	-48.2	-58.6	3.8	8.45e-01	0	41	104	0	66	12221
2026-01-08 14:23:58.41	166.40	7.21	-48.1	-58.0	3.9	8.46e-01	0	42	104	0	66	11393
2026-01-08 14:23:59.41	166.41	7.29	-48.0	-57.2	4.2	8.41e-01	0	42	0	0	66	10401
2026-01-08 14:24:00.42	166.42	7.37	-47.8	-56.3	4.5	8.26e-01	0	42	0	0	66	9301
2026-01-08 14:24:01.42	166.44	7.45	-47.6	-55.0	4.3	7.99e-01	0	42	104	0	66	8057
2026-01-08 14:24:02.43	166.45	7.53	-47.2	-53.7	6.0	4.10e-01	0	42	0	2097152	65	7329
2026-01-08 14:24:03.43	166.46	7.61	-47.0	-52.7	6.8	2.14e-01	0	42	0	9437184	64	6950
2026-01-08 14:24:04.43	166.48	7.69	-46.5	-51.3	8.2	6.96e-02	0	42	0	15728640	63	6240
2026-01-08 14:24:05.44	166.49	7.77	-46.1	-50.4	9.1	2.90e-02	0	42	0	23068672	63	5644
2026-01-08 14:24:06.44	166.51	7.85	-45.7	-49.7	9.9	1.23e-02	0	42	0	30408704	62	5475
2026-01-08 14:24:07.45	166.52	7.93	-45.2	-48.8	10.7	3.86e-03	0	42	0	37748736	61	5265
2026-01-08 14:24:08.45	166.53	8.01	-44.9	-48.2	11.4	1.66e-03	0	42	0	45088768	60	5217
2026-01-08 14:24:09.46	166.55	8.09	-44.7	-48.1	11.6	8.56e-04	0	42	0	52428800	60	5110
2026-01-08 14:24:10.46	166.56	8.17	-44.6	-47.6	11.9	4.67e-04	0	42	0	59768832	59	5145
2026-01-08 14:24:11.46	166.58	8.25	-44.7	-47.8	11.7	4.61e-04	0	42	0	67108864	59	5260
2026-01-08 14:24:12.47	166.59	8.33	-44.8	-48.0	11.5	6.84e-04	0	42	0	74448896	59	5346
2026-01-08 14:24:13.47	166.60	8.42	-44.9	-48.2	11.4	1.07e-03	0	42	0	81788928	60	5199
2026-01-08 14:24:14.48	166.62	8.50	-45.4	-49.0	10.6	3.01e-03	0	42	0	89128960	60	5692
2026-01-08 14:24:15.48	166.63	8.58	-45.7	-49.6	10.0	6.89e-03	0	42	0	95420416	60	6092
2026-01-08 14:24:16.48	166.65	8.66	-46.2	-50.7	8.8	2.76e-02	0	42	0	102760448	61	6500
2026-01-08 14:24:17.49	166.66	8.75	-46.7	-51.8	7.7	6.77e-02	0	42	0	110100480	62	7025
2026-01-08 14:24:18.49	166.67	8.83	-47.2	-53.3	6.2	1.81e-01	0	42	0	117440512	64	7449
2026-01-08 14:24:19.50	166.69	8.91	-47.7	-55.3	5.0	7.48e-01	0	42	0	121634816	64	9302
2026-01-08 14:24:20.50	166.70	9.00	-48.1	-57.3	4.1	8.31e-01	0	42	0	121634816	65	11130
2026-01-08 14:24:21.51	166.72	9.08	-48.4	-58.4	3.8	8.46e-01	0	42	104	121634816	67	11162
2026-01-08 14:24:22.51	166.73	9.17	-48.4	-60.3	3.8	8.46e-01	0	42	104	121634816	67	13998
2026-01-08 14:24:23.51	166.75	9.25	-48.6	-58.5	3.8	8.47e-01	0	42	104	121634816	67	11313
2026-01-08 14:24:24.51	166.76	9.34	-46.3	-50.3	9.3	5.44e-02	0	42	0	125829120	63	5537
2026-01-08 14:24:25.51	166.78	9.42	-48.8	-59.9	3.8	1.07e-01	0	42	0	131072000	66	14092
2026-01-08 14:24:26.52	166.79	9.51	-48.8	-60.5	3.8	8.46e-01	0	42	104	131072000	67	14289
2026-01-08 14:24:27.52	166.81	9.59	-46.5	-51.0	8.5	3.89e-02	0	42	0	133169152	63	6034
2026-01-08 14:24:28.52	166.82	9.68	-46.6	-51.4	8.3	4.63e-02	0	42	0	140509184	63	6309
2026-01-08 14:24:29.53	166.84	9.76	-46.6	-51.5	8.2	5.16e-02	0	42	0	147849216	63	6387
2026-01-08 14:24:30.53	166.85	9.85	-46.5	-51.5	8.1	4.43e-02	0	42	0	155189248	63	6367
2026-01-08 14:24:31.53	166.87	9.94	-46.2	-51.1	8.5	3.38e-02	0	42	0	162529280	63	6119
2026-01-08 14:24:32.53	166.88	10.02	-45.8	-50.3	9.4	2.19e-02	0	42	0	169869312	62	5864
2026-01-08 14:24:33.54	166.90	10.11	-45.3	-49.5	10.1	6.76e-03	0	42	0	176160768	61	5695
2026-01-08 14:24:34.54	166.92	10.20	-45.3	-49.4	10.4	5.34e-03	0	42	0	183500800	60	5950
2026-01-08 14:24:35.54	166.93	10.29	-44.8	-48.5	11.3	2.06e-03	0	42	0	190840832	60	5347
2026-01-08 14:24:36.55	166.95	10.38	-45.0	-48.6	11.0	1.84e-03	0	42	0	198180864	59	5775
2026-01-08 14:24:37.54	166.96	10.47	-44.7	-48.1	11.6	9.15e-04	0	42	0	205520896	59	5407
2026-01-08 14:24:38.55	166.98	10.56	-44.6	-47.9	10.3	8.39e-04	0	42	0	212860928	59	5283
2026-01-08 14:24:39.55	166.99	10.64	-44.6	-47.8	11.9	5.47e-04	0	42	0	220200960	59	5277
2026-01-08 14:24:40.55	167.01	10.73	-44.5	-47.7	12.0	3.50e-04	0	42	0	227540992	59	5191
2026-01-08 14:24:41.56	167.03	10.82	-44.7	-47.9	11.8	4.44e-04	0	42	0	234881024	59	5301
2026-01-08 14:24:42.56	167.04	10.92	-44.8	-48.1	11.7	3.22e-04	0	42	0	242221056	59	5417
2026-01-08 14:24:43.57	167.06	11.01	-44.6	-47.6	12.2	6.77e-04	0	42	0	249561088	59	5110
2026-01-08 14:24:44.57	167.08	11.10	-44.5	-47.3	12.5	2.67e-04	0	43	0	256901120	59	4951
2026-01-08 14:24:45.57	167.09	11.19	-44.2	-46.9	12.9	2.68e-04	0	42	0	263192576	59	4721
2026-01-08 14:24:46.58	167.11	11.28	-44.1	-46.7	13.0	9.84e-05	0	43	0	270532608	59	4610
2026-01-08 14:24:47.58	167.12	11.37	-44.6	-47.4	12.3	6.75e-05	0	43	0	277872640	59	5001
2026-01-08 14:24:48.58	167.14	11.47	-44.4	-47.0	12.8	4.23e-05	0	42	0	285212672	58	5059
2026-01-08 14:24:49.58	167.16	11.56	-43.7	-46.0	13.8	1.02e-05	0	43	0	292552704	57	4814
2026-01-08 14:24:50.59	167.18	11.65	-43.6	-45.9	13.9	4.50e-06	0	43	0	299892736	57	4736
2026-01-08 14:24:51.59	167.19	11.75	-43.2	-45.3	14.5	0.00e+00	0	43	0	307232768	56	4680
2026-01-08 14:24:52.59	167.21	11.84	-43.2	-45.2	14.6	0.00e+00	0	42	0	314572800	56	4648
2026-01-08 14:24:53.60	167.23	11.93	-43.6	-45.8	14.0	5.70e-06	0	42	0	321912832	57	4667
2026-01-08 14:24:54.60	167.24	12.03	-43.8	-46.0	13.7	2.20e-06	0	43	0	329252864	57	4802
2026-01-08 14:24:55.60	167.26	12.12	-43.7	-45.8	14.0	1.10e-06	0	43	0	336592896	57	4679
2026-01-08 14:24:56.61	167.28	12.22	-43.4	-45.5	14.3	6.80e-06	0	43	0	343932928	57	4528
2026-01-08 14:24:57.71	167.30	12.32	-43.5	-45.6	14.2	3.40e-06	0	43	0	351272960	57	4583
2026-01-08 14:24:58.60	167.31	12.41	-43.3	-45.3	14.4	2.20e-06	0	43	0	357564416	56	4679
2026-01-08 14:24:59.92	167.34	12.54	-42.7	-44.6	15.0	0.00e+00	0	43	0	367001600	55	4576
2026-01-08 14:25:00.63	167.35	12.61	-42.7	-44.5	15.1	0.00e+00	0	43	0	372244480	55	4541
2026-01-08 14:25:01.92	167.37	12.73	-42.8	-44.7	15.0	0.00e+00	0	43	0	381681664	55	4618
2026-01-08 14:25:02.64	167.39	12.80	-42.3	-44.1	15.5	0.00e+00	0	43	0	386924544	55	4319
2026-01-08 14:25:03.93	167.41	12.93	-41.9	-43.7	16.0	0.00e+00	0	43	0	396361728	54	4344
2026-01-08 14:25:04.66	167.42	13.00	-41.9	-43.7	16.0	0.00e+00	0	43	0	401604608	54	4347
2026-01-08 14:25:06.27	167.45	13.16	-42.5	-44.3	15.4	0.00e+00	0	43	0	413138944	54	4667
2026-01-08 14:25:06.84	167.46	13.21	-42.7	-44.6	15.1	0.00e+00	0	43	0	417333248	54	4815
2026-01-08 14:25:08.44	167.49	13.37	-41.9	-43.6	16.1	0.00e+00	0	43	0	428867584	53	4581
2026-01-08 14:25:09.01	167.50	13.43	-41.3	-42.9	16.7	0.00e+00	0	43	0	433061888	53	4222
2026-01-08 14:25:10.61	167.53	13.59	-41.7	-43.4	16.2	0.00e+00	0	43	0	444596224	53	4490
2026-01-08 14:25:11.19	167.54	13.65	-41.7	-43.4	16.3	0.00e+00	0	43	0	448790528	53	4452
2026-01-08 14:25:12.78	167.57	13.81	-41.0	-42.7	17.0	0.00e+00	0	42	0	460324864	52	4343
2026-01-08 14:25:13.35	167.58	13.87	-41.1	-42.7	16.9	0.00e+00	0	43	0	464519168	52	4382
2026-01-08 14:25:14.93	167.62	14.03	-40.8	-42.4	17.3	0.00e+00	0	43	0	475004928	51	4485
2026-01-08 14:25:15.55	167.63	14.09	-41.1	-42.8	17.0	0.00e+00	0	43	0	480247808	51	4658
2026-01-08 14:25:17.12	167.66	14.26	-40.9	-42.5	17.2	0.00e+00	0	43	0	491782144	51	4521
2026-01-08 14:25:17.71	167.67	14.32	-40.6	-42.1	17.5	0.00e+00	0	43	0	495976448	51	4331
2026-01-08 14:25:19.28	167.70	14.48	-41.0	-42.6	17.1	0.00e+00	0	43	0	506462208	51	4582
2026-01-08 14:25:19.86	167.71	14.54	-40.4	-41.9	17.8	0.00e+00	0	43	0	511705088	51	4213
2026-01-08 14:25:21.56	167.75	14.72	-40.2	-41.7	18.0	0.00e+00	0	43	0	523239424	50	4343
2026-01-08 14:25:22.14	167.76	14.78	-40.2	-41.7	17.9	0.00e+00	0	43	0	527433728	50	4379
2026-01-08 14:25:23.77	167.79	14.96	-39.7	-41.2	18.4	0.00e+00	0	43	0	538968064	50	4111
2026-01-08 14:25:24.35	167.80	15.02	-39.8	-41.3	18.3	0.00e+00	0	43	0	544210944	50	4157
2026-01-08 14:25:25.96	167.84	15.19	-39.6	-41.1	18.6	0.00e+00	0	43	0	555745280	49	4304
2026-01-08 14:25:26.54	167.85	15.25	-39.8	-41.3	18.3	0.00e+00	0	43	0	558891008	49	4412
2026-01-08 14:25:28.11	167.88	15.42	-39.4	-40.9	18.7	0.00e+00	0	43	0	570425344	49	4206
2026-01-08 14:25:28.94	167.90	15.51	-39.4	-40.8	18.8	0.00e+00	0	43	0	576716800	49	4178
2026-01-08 14:25:30.09	167.92	15.64	-39.4	-40.8	18.7	0.00e+00	0	43	0	585105408	49	4192
2026-01-08 14:25:30.95	167.94	15.73	-39.0	-40.4	19.1	0.00e+00	0	43	0	591396864	48	4238
2026-01-08 14:25:32.09	167.97	15.86	-39.1	-40.6	19.0	0.00e+00	0	43	0	599785472	48	4302
2026-01-08 14:25:33.34	167.99	16.00	-39.2	-40.6	18.9	0.00e+00	0	43	0	608174080	48	4318
2026-01-08 14:25:34.19	168.01	16.09	-38.8	-40.2	19.3	0.00e+00	0	43	0	614465536	48	4107
2026-01-08 14:25:35.34	168.04	16.22	-38.8	-40.2	19.3	0.00e+00	0	43	0	622854144	48	4115
2026-01-08 14:25:36.20	168.05	16.32	-38.8	-40.2	19.3	0.00e+00	0	43	0	629145600	48	4132
2026-01-08 14:25:37.34	168.08	16.45	-38.7	-40.1	19.3	0.00e+00	0	43	0	637534208	48	4080
2026-01-08 14:25:38.20	168.10	16.55	-38.9	-40.3	19.2	0.00e+00	0	43	0	643825664	48	4159
2026-01-08 14:25:39.35	168.12	16.68	-38.5	-40.0	19.2	0.00e+00	0	43	0	652214272	47	4250
2026-01-08 14:25:40.20	168.14	16.77	-38.2	-39.6	19.5	0.00e+00	0	43	0	658505728	47	4074
2026-01-08 14:25:41.35	168.17	16.91	-38.3	-39.7	19.5	0.00e+00	0	43	0	666894336	47	4117
2026-01-08 14:25:42.22	168.19	17.01	-38.2	-39.6	19.5	0.00e+00	0	43	0	672137216	46	4313
2026-01-08 14:25:43.36	168.22	17.14	-38.3	-39.7	19.5	0.00e+00	0	43	0	680525824	46	4375
2026-01-08 14:25:44.22	168.24	17.24	-37.9	-39.3	19.8	0.00e+00	0	43	0	686817280	46	4152
2026-01-08 14:25:45.59	168.27	17.40	-38.1	-39.5	19.7	0.00e+00	0	43	0	696254464	46	4248
2026-01-08 14:25:46.31	168.29	17.49	-37.7	-39.1	20.0	0.00e+00	0	43	0	702545920	46	4077
2026-01-08 14:25:47.60	168.32	17.64	-37.5	-38.8	20.2	0.00e+00	0	43	0	711983104	45	4180
2026-01-08 14:25:48.32	168.33	17.73	-37.6	-39.0	20.1	0.00e+00	0	43	0	716177408	45	4272
2026-01-08 14:25:49.60	168.36	17.88	-37.2	-38.6	20.4	0.00e+00	0	43	0	725614592	45	4066
2026-01-08 14:25:50.32	168.38	17.97	-37.4	-38.7	20.3	0.00e+00	0	43	0	730857472	45	4127
2026-01-08 14:25:51.61	168.41	18.12	-37.3	-38.7	20.3	0.00e+00	0	43	0	740294656	45	4110
2026-01-08 14:25:52.33	168.43	18.21	-37.3	-38.6	20.4	0.00e+00	0	43	0	745537536	45	4093
2026-01-08 14:25:53.62	168.46	18.37	-37.2	-38.5	20.5	0.00e+00	0	43	0	754974720	44	4283
2026-01-08 14:25:54.34	168.48	18.45	-37.0	-38.3	20.6	0.00e+00	0	43	0	760217600	44	4183
2026-01-08 14:25:55.63	168.51	18.61	-36.9	-38.2	20.7	0.00e+00	0	43	0	769654784	44	4139
2026-01-08 14:25:56.34	168.53	18.70	-37.0	-38.3	20.7	0.00e+00	0	43	0	774897664	44	4148
2026-01-08 14:25:57.63	168.56	18.86	-36.9	-38.2	20.7	0.00e+00	0	43	0	783286272	44	4117
2026-01-08 14:25:58.35	168.58	18.95	-37.0	-38.3	20.6	0.00e+00	0	43	0	789577728	44	4190
2026-01-08 14:25:59.75	168.62	19.13	-36.8	-38.0	20.9	0.00e+00	0	43	0	799014912	44	4045
2026-01-08 14:26:00.47	168.64	19.22	-36.6	-37.9	21.0	0.00e+00	0	43	0	804257792	44	3999
2026-01-08 14:26:01.76	168.67	19.38	-36.6	-37.9	20.9	0.00e+00	0	43	0	813694976	44	3999
2026-01-08 14:26:02.47	168.69	19.48	-36.8	-38.1	20.8	0.00e+00	0	43	0	818937856	44	4080
2026-01-08 14:26:03.76	168.72	19.64	-36.6	-37.9	20.8	0.00e+00	0	43	0	828375040	43	4227
2026-01-08 14:26:04.47	168.74	19.73	-36.4	-37.7	21.1	0.00e+00	0	43	0	833617920	43	4101
2026-01-08 14:26:05.76	168.78	19.90	-36.5	-37.8	20.9	0.00e+00	0	43	0	843055104	43	4157
2026-01-08 14:26:06.48	168.80	19.99	-36.5	-37.8	20.9	0.00e+00	0	43	0	847249408	43	4150
2026-01-08 14:26:07.77	168.83	20.16	-36.3	-37.6	21.1	0.00e+00	0	43	0	856686592	43	4074
2026-01-08 14:26:08.49	168.85	20.26	-36.5	-37.8	20.9	0.00e+00	0	43	0	861929472	43	4168
2026-01-08 14:26:09.77	168.89	20.43	-36.5	-37.8	20.9	0.00e+00	0	43	0	871366656	43	4157
2026-01-08 14:26:10.63	168.91	20.54	-36.4	-37.7	21.0	0.00e+00	0	43	0	877658112	43	4117
2026-01-08 14:26:12.10	168.95	20.74	-36.3	-37.6	21.0	0.00e+00	0	43	0	888143872	43	4074
2026-01-08 14:26:12.82	168.97	20.84	-36.4	-37.7	20.9	0.00e+00	0	43	0	893386752	43	4128
2026-01-08 14:26:14.11	169.01	21.01	-36.4	-37.8	20.8	0.00e+00	0	43	0	902823936	43	4176
2026-01-08 14:26:14.82	169.03	21.11	-36.4	-37.7	20.9	0.00e+00	0	43	0	908066816	43	4138
2026-01-08 14:26:16.11	169.07	21.29	-36.4	-37.7	20.9	0.00e+00	0	43	0	917504000	43	4132
2026-01-08 14:26:16.83	169.09	21.39	-36.5	-37.8	20.8	0.00e+00	0	43	0	922746880	43	4191
2026-01-08 14:26:18.12	169.13	21.57	-36.4	-37.8	20.8	0.00e+00	0	43	0	932184064	43	4163
2026-01-08 14:26:18.99	169.16	21.69	-36.5	-37.9	20.8	0.00e+00	0	43	0	937426944	43	4202
2026-01-08 14:26:20.14	169.19	21.85	-36.5	-37.9	20.7	0.00e+00	0	43	0	945815552	43	4235
2026-01-08 14:26:21.21	169.22	22.00	-36.6	-38.0	20.7	0.00e+00	0	43	0	954204160	43	4257
2026-01-08 14:26:22.24	169.26	22.15	-36.6	-38.0	20.6	0.00e+00	0	43	0	961544192	43	4272
2026-01-08 14:26:23.24	169.29	22.29	-36.5	-38.0	20.6	0.00e+00	0	43	0	968884224	43	4259
2026-01-08 14:26:24.24	169.32	22.43	-36.4	-37.8	20.8	0.00e+00	0	43	0	976224256	43	4187
2026-01-08 14:26:25.24	169.35	22.58	-36.5	-37.9	20.7	0.00e+00	0	43	0	982515712	43	4239
2026-01-08 14:26:26.24	169.38	22.72	-36.5	-37.9	20.7	0.00e+00	0	43	0	989855744	43	4221
2026-01-08 14:26:27.25	169.41	22.87	-36.5	-38.0	20.7	0.00e+00	0	43	0	998244352	43	4245
2026-01-08 14:26:28.54	169.46	23.06	-36.4	-37.9	20.8	0.00e+00	0	43	0	1006632960	43	4211
2026-01-08 14:26:29.27	169.48	23.17	-36.4	-37.8	20.8	0.00e+00	0	43	0	1011875840	43	4171
2026-01-08 14:26:30.56	169.52	23.36	-36.4	-37.8	20.8	0.00e+00	0	43	0	1021313024	43	4175
2026-01-08 14:26:31.28	169.55	23.47	-36.2	-37.6	21.0	0.00e+00	0	43	0	1026555904	43	4084
2026-01-08 14:26:32.57	169.59	23.66	-36.2	-37.6	21.0	0.00e+00	0	43	0	1035993088	43	4093
2026-01-08 14:26:33.29	169.61	23.77	-36.1	-37.5	21.0	0.00e+00	0	43	0	1041235968	42	4273
2026-01-08 14:26:34.57	169.66	23.96	-35.9	-37.3	21.2	0.00e+00	0	43	0	1050673152	42	4177
2026-01-08 14:26:35.29	169.68	24.07	-36.0	-37.4	21.1	0.00e+00	0	43	0	1055916032	42	4239
2026-01-08 14:26:36.58	169.73	24.27	-35.9	-37.3	21.0	0.00e+00	0	43	0	1065353216	42	4178
2026-01-08 14:26:37.30	169.75	24.38	-36.0	-37.4	21.1	0.00e+00	0	43	0	1070596096	42	4218
2026-01-08 14:26:38.61	169.80	24.59	-36.0	-37.4	21.2	0.00e+00	0	43	0	1080033280	42	4208
2026-01-08 14:26:39.32	169.82	24.70	-36.0	-37.4	21.2	0.00e+00	0	43	0	1085276160	42	4200
2026-01-08 14:26:40.61	169.87	24.90	-36.0	-37.4	21.2	0.00e+00	0	43	0	1093664768	42	4227
2026-01-08 14:26:41.33	169.90	25.02	-36.0	-37.4	21.2	0.00e+00	0	43	0	1098907648	42	4213
2026-01-08 14:26:42.76	169.95	25.25	-35.9	-37.2	21.3	0.00e+00	0	43	0	1109393408	42	4145
2026-01-08 14:26:43.74	169.99	25.40	-35.8	-37.2	21.4	0.00e+00	0	43	0	1116733440	42	4100
2026-01-08 14:26:44.74	170.02	25.56	-35.9	-37.3	21.3	0.00e+00	0	43	0	1124073472	42	4154
2026-01-08 14:26:45.74	170.06	25.73	-35.8	-37.1	21.5	0.00e+00	0	43	0	1131413504	42	4071
2026-01-08 14:26:46.75	170.10	25.89	-35.9	-37.2	21.4	0.00e+00	0	43	0	1138753536	42	4143
2026-01-08 14:26:47.75	170.14	26.06	-35.9	-37.3	21.4	0.00e+00	0	43	0	1146093568	42	4158
2026-01-08 14:26:48.75	170.18	26.22	-35.5	-36.8	21.8	0.00e+00	0	43	0	1153433600	41	4165
2026-01-08 14:26:49.75	170.22	26.39	-35.7	-37.0	21.6	0.00e+00	0	43	0	1159725056	41	4291
2026-01-08 14:26:50.79	170.26	26.56	-35.9	-37.2	21.4	0.00e+00	0	43	0	1167065088	41	4374
2026-01-08 14:26:51.79	170.30	26.73	-35.9	-37.2	21.5	0.00e+00	0	43	0	1174405120	41	4358
2026-01-08 14:26:52.85	170.34	26.91	-35.8	-37.1	21.5	0.00e+00	0	43	0	1182793728	41	4310
2026-01-08 14:26:53.74	170.38	27.07	-35.8	-37.1	21.5	0.00e+00	0	43	0	1189085184	41	4325
2026-01-08 14:26:54.89	170.42	27.26	-35.7	-37.0	21.6	0.00e+00	0	43	0	1197473792	41	4287
2026-01-08 14:26:55.81	170.46	27.42	-35.9	-37.2	21.5	0.00e+00	0	43	0	1203765248	41	4352
2026-01-08 14:26:56.99	170.51	27.63	-35.6	-36.9	21.7	0.00e+00	0	43	0	1212153856	41	4208
2026-01-08 14:26:57.85	170.55	27.78	-35.5	-36.7	21.8	0.00e+00	0	43	0	1218445312	41	4142
2026-01-08 14:26:58.99	170.60	27.98	-35.5	-36.7	21.9	0.00e+00	0	43	0	1226833920	41	4137
2026-01-08 14:26:59.85	170.64	28.13	-35.4	-36.6	22.0	0.00e+00	0	43	0	1233125376	41	4089
2026-01-08 14:27:01.00	170.69	28.34	-35.4	-36.7	21.9	0.00e+00	0	43	0	1241513984	41	4106
2026-01-08 14:27:01.86	170.72	28.49	-35.5	-36.8	21.8	0.00e+00	0	43	0	1247805440	41	4166
2026-01-08 14:27:03.00	170.78	28.70	-35.4	-36.7	21.9	0.00e+00	0	43	0	1256194048	41	4118
2026-01-08 14:27:03.87	170.81	28.86	-35.5	-36.7	21.9	0.00e+00	0	43	0	1262485504	41	4140
2026-01-08 14:27:05.01	170.87	29.07	-35.5	-36.8	21.8	0.00e+00	0	43	0	1269825536	41	4147
2026-01-08 14:27:05.87	170.91	29.23	-35.6	-36.9	21.7	0.00e+00	0	43	0	1276116992	41	4230
2026-01-08 14:27:07.02	170.96	29.44	-35.6	-36.9	21.7	0.00e+00	0	43	0	1284505600	41	4202
2026-01-08 14:27:07.88	171.00	29.60	-35.6	-36.9	21.7	0.00e+00	0	43	0	1290797056	41	4201
2026-01-08 14:27:09.03	171.06	29.82	-35.6	-36.9	21.7	0.00e+00	0	43	0	1299185664	41	4200
2026-01-08 14:27:09.88	171.10	29.98	-35.6	-36.9	21.7	0.00e+00	0	43	0	1305477120	41	4201
2026-01-08 14:27:11.03	171.15	30.20	-35.5	-36.8	21.8	0.00e+00	0	43	0	1313865728	41	4163
2026-01-08 14:27:11.89	171.20	30.36	-35.5	-36.8	21.8	0.00e+00	0	43	0	1320157184	41	4147
2026-01-08 14:27:13.04	171.25	30.58	-35.5	-36.7	21.8	0.00e+00	0	43	0	1328545792	41	4142
2026-01-08 14:27:13.90	171.30	30.75	-35.2	-36.5	21.9	0.00e+00	0	43	0	1334837248	41	4008
2026-01-08 14:27:15.04	171.36	30.98	-35.3	-36.6	21.8	0.00e+00	0	43	0	1342177280	41	4079
2026-01-08 14:27:15.90	171.40	31.14	-35.2	-36.5	21.9	0.00e+00	0	43	0	1348468736	41	4011
2026-01-08 14:27:17.05	171.46	31.37	-35.4	-36.7	21.7	0.00e+00	0	43	0	1356857344	41	4128
2026-01-08 14:27:17.91	171.51	31.54	-35.4	-36.8	21.6	0.00e+00	0	43	0	1363148800	41	4149
2026-01-08 14:27:19.06	171.57	31.78	-35.4	-36.8	21.6	0.00e+00	0	43	0	1371537408	41	4156
2026-01-08 14:27:19.91	171.61	31.95	-35.5	-36.9	21.2	0.00e+00	0	43	0	1377828864	41	4204
2026-01-08 14:27:21.06	171.68	32.18	-35.4	-36.7	21.6	0.00e+00	0	43	0	1386217472	41	4137
2026-01-08 14:27:21.92	171.72	32.36	-35.4	-36.8	21.5	0.00e+00	0	43	0	1392508928	41	4164
2026-01-08 14:27:23.06	171.79	32.60	-35.5	-36.9	21.4	0.00e+00	0	43	0	1400897536	41	4209
2026-01-08 14:27:24.00	171.84	32.79	-35.5	-36.9	21.4	0.00e+00	0	43	0	1407188992	41	4216
2026-01-08 14:27:25.01	171.90	33.00	-35.6	-37.0	21.3	0.00e+00	0	43	0	1414529024	41	4261
2026-01-08 14:27:26.01	171.96	33.21	-35.5	-37.0	21.4	0.00e+00	0	43	0	1421869056	41	4254
2026-01-08 14:27:27.01	172.02	33.43	-35.6	-37.0	21.3	0.00e+00	0	43	0	1429209088	41	4289
2026-01-08 14:27:28.01	172.08	33.64	-35.7	-37.2	21.2	0.00e+00	0	43	0	1436549120	41	4347
2026-01-08 14:27:29.02	172.14	33.86	-35.8	-37.3	21.1	0.00e+00	0	43	0	1443889152	41	4395
2026-01-08 14:27:30.02	172.20	34.07	-35.6	-37.1	21.3	0.00e+00	0	43	0	1451229184	41	4306
2026-01-08 14:27:31.02	172.26	34.29	-35.7	-37.1	21.3	0.00e+00	0	43	0	1457520640	41	4327
2026-01-08 14:27:32.03	172.32	34.51	-35.6	-36.9	21.5	0.00e+00	0	43	0	1464860672	41	4242
2026-01-08 14:27:33.03	172.39	34.74	-35.5	-36.8	21.7	0.00e+00	0	43	0	1472200704	41	4183
2026-01-08 14:27:34.03	172.45	34.96	-35.4	-36.7	21.8	0.00e+00	0	43	0	1479540736	41	4119
2026-01-08 14:27:35.04	172.52	35.19	-35.5	-36.8	21.7	0.00e+00	0	43	0	1486880768	41	4184
2026-01-08 14:27:36.04	172.58	35.41	-35.5	-36.9	21.7	0.00e+00	0	43	0	1494220800	41	4196
2026-01-08 14:27:37.04	172.65	35.64	-35.6	-36.9	21.7	0.00e+00	0	43	0	1501560832	41	4218
2026-01-08 14:27:38.04	172.72	35.87	-35.5	-36.9	21.8	0.00e+00	0	43	0	1508900864	41	4203
2026-01-08 14:27:39.04	172.79	36.10	-35.6	-36.9	21.8	0.00e+00	0	43	0	1516240896	41	4206
2026-01-08 14:27:40.04	172.86	36.33	-35.6	-36.9	21.8	0.00e+00	0	43	0	1522532352	41	4207
2026-01-08 14:27:41.05	172.93	36.57	-35.5	-36.8	21.9	0.00e+00	0	43	0	1530920960	41	4152
2026-01-08 14:27:42.05	173.00	36.80	-35.6	-36.9	21.8	0.00e+00	0	43	0	1538260992	41	4215
2026-01-08 14:27:43.06	173.08	37.04	-35.6	-37.0	21.7	0.00e+00	0	43	0	1544552448	41	4244
2026-01-08 14:27:44.51	173.18	37.39	-35.8	-37.2	21.5	0.00e+00	0	43	0	1555038208	41	4344
2026-01-08 14:27:45.22	173.24	37.56	-35.8	-37.1	21.5	0.00e+00	0	43	0	1560281088	41	4339
2026-01-08 14:27:46.87	173.36	37.96	-35.8	-37.2	21.5	0.00e+00	0	43	0	1572864000	41	4355
2026-01-08 14:27:47.44	173.41	38.10	-35.7	-37.1	21.5	0.00e+00	0	43	0	1576009728	41	4307
2026-01-08 14:27:49.04	173.53	38.50	-35.6	-37.0	21.6	0.00e+00	0	43	0	1587544064	41	4271
2026-01-08 14:27:49.62	173.58	38.64	-35.6	-37.0	21.6	0.00e+00	0	43	0	1591738368	41	4259
2026-01-08 14:27:51.22	173.71	39.04	-35.5	-36.8	21.7	0.00e+00	0	43	0	1604321280	41	4183
2026-01-08 14:27:51.80	173.76	39.19	-35.4	-36.7	21.9	0.00e+00	0	43	0	1608515584	41	4118
2026-01-08 14:27:53.39	173.89	39.60	-35.4	-36.7	21.8	0.00e+00	0	43	0	1619001344	41	4133
2026-01-08 14:27:53.96	173.94	39.74	-35.5	-36.8	21.7	0.00e+00	0	43	0	1623195648	41	4161
2026-01-08 14:27:55.55	174.08	40.15	-35.7	-37.0	21.5	0.00e+00	0	43	0	1634729984	41	4285
2026-01-08 14:27:56.12	174.13	40.30	-35.8	-37.1	21.5	0.00e+00	0	43	0	1638924288	41	4324
2026-01-08 14:27:57.76	174.27	40.73	-35.8	-37.1	21.5	0.00e+00	0	43	0	1651507200	41	4309
2026-01-08 14:27:58.33	174.33	40.88	-35.8	-37.1	21.5	0.00e+00	0	43	0	1654652928	41	4314
2026-01-08 14:27:59.91	174.47	41.31	-35.8	-37.2	21.5	0.00e+00	0	43	0	1666187264	41	4342
2026-01-08 14:28:00.48	174.53	41.46	-35.9	-37.2	21.5	0.00e+00	0	43	0	1670381568	41	4364
2026-01-08 14:28:02.07	174.68	41.89	-36.1	-37.4	21.4	0.00e+00	0	43	0	1681915904	41	4459
2026-01-08 14:28:02.74	174.75	42.07	-35.8	-37.1	21.6	0.00e+00	0	43	0	1687158784	41	4292
2026-01-08 14:28:04.18	174.89	42.47	-36.1	-37.4	21.4	0.00e+00	0	43	0	1697644544	41	4445
2026-01-08 14:28:04.89	174.96	42.67	-36.0	-37.3	21.5	0.00e+00	0	43	0	1701838848	41	4394
2026-01-08 14:28:06.18	175.10	43.03	-35.9	-37.2	21.6	0.00e+00	0	43	0	1711276032	41	4347
2026-01-08 14:28:07.11	175.19	43.29	-36.0	-37.3	21.4	0.00e+00	0	43	0	1718616064	41	4427
2026-01-08 14:28:08.11	175.30	43.57	-36.1	-37.4	21.3	0.00e+00	0	43	0	1725956096	41	4493
2026-01-08 14:28:09.12	175.41	43.86	-36.2	-37.5	21.3	0.00e+00	0	43	0	1733296128	42	4275
2026-01-08 14:28:10.12	175.52	44.15	-36.3	-37.6	21.2	0.00e+00	0	43	0	1740636160	42	4321
2026-01-08 14:28:11.12	175.63	44.44	-36.5	-37.9	20.9	0.00e+00	0	43	0	1747976192	42	4447
2026-01-08 14:28:12.12	175.75	44.73	-36.6	-38.0	20.9	0.00e+00	0	43	0	1754267648	42	4516
2026-01-08 14:28:13.13	175.87	45.03	-37.2	-38.1	21.4	0.00e+00	0	43	0	1761607680	43	4332
2026-01-08 14:28:14.16	175.99	45.33	-37.0	-37.9	21.7	0.00e+00	0	43	0	1769996288	44	4000
2026-01-08 14:28:15.19	176.11	45.64	-36.9	-37.8	21.8	0.00e+00	0	43	0	1776287744	44	3951
2026-01-08 14:28:16.19	176.24	45.94	-36.8	-37.7	21.9	0.00e+00	0	43	0	1783627776	44	3903
2026-01-08 14:28:17.25	176.37	46.26	-37.0	-37.9	21.7	0.00e+00	0	43	0	1792016384	44	3971
2026-01-08 14:28:18.14	176.48	46.53	-37.0	-37.9	21.7	0.00e+00	0	43	0	1798307840	44	3968
2026-01-08 14:28:19.28	176.63	46.88	-37.1	-38.0	21.6	0.00e+00	0	43	0	1806696448	44	4029
2026-01-08 14:28:20.14	176.75	47.14	-37.0	-37.9	21.7	0.00e+00	0	43	0	1811939328	44	3988
2026-01-08 14:28:21.56	176.94	47.58	-37.1	-37.9	21.7	0.00e+00	0	43	0	1822425088	44	3999
2026-01-08 14:28:22.28	177.04	47.81	-37.0	-37.8	21.8	0.00e+00	0	43	0	1827667968	44	3955
2026-01-08 14:28:23.79	177.25	48.29	-37.2	-38.1	21.6	0.00e+00	0	43	0	1839202304	44	4084
2026-01-08 14:28:24.51	177.36	48.51	-36.9	-37.7	21.9	0.00e+00	0	43	0	1844445184	44	3900
2026-01-08 14:28:25.80	177.55	48.93	-37.3	-38.2	21.5	0.00e+00	0	43	0	1853882368	44	4126
2026-01-08 14:28:26.51	177.66	49.16	-37.4	-38.3	21.4	0.00e+00	0	43	0	1859125248	44	4172
2026-01-08 14:28:27.80	177.86	49.57	-37.3	-38.2	21.4	0.00e+00	0	43	0	1867513856	44	4131
2026-01-08 14:28:28.51	177.97	49.81	-37.3	-38.2	21.4	0.00e+00	0	43	0	1872756736	44	4134
2026-01-08 14:28:29.80	178.18	50.23	-37.2	-38.0	21.6	0.00e+00	0	43	0	1882193920	44	4050
2026-01-08 14:28:30.52	178.29	50.47	-37.2	-38.1	21.6	0.00e+00	0	43	0	1887436800	44	4079
2026-01-08 14:28:31.80	178.51	50.89	-37.5	-38.3	21.3	0.00e+00	0	43	0	1896873984	44	4193
2026-01-08 14:28:32.52	178.63	51.13	-37.7	-38.6	21.1	0.00e+00	0	43	0	1902116864	44	4319
2026-01-08 14:28:33.81	178.86	51.57	-38.0	-39.0	20.8	0.00e+00	0	43	0	1911554048	45	4260
2026-01-08 14:28:34.53	178.99	51.81	-37.9	-38.9	20.9	0.00e+00	0	43	0	1916796928	46	3964
2026-01-08 14:28:35.82	179.23	52.25	-37.8	-38.7	21.0	0.00e+00	0	43	0	1926234112	45	4142
2026-01-08 14:28:36.54	179.36	52.50	-37.8	-38.7	21.0	0.00e+00	0	44	0	1930428416	45	4111
2026-01-08 14:28:37.82	179.61	52.94	-37.6	-38.5	21.2	0.00e+00	0	43	0	1939865600	45	4014
2026-01-08 14:28:38.54	179.75	53.19	-37.7	-38.6	21.1	0.00e+00	0	43	0	1945108480	45	4077
2026-01-08 14:28:39.83	180.01	53.64	-37.9	-38.8	21.0	0.00e+00	0	43	0	1954545664	45	4169
2026-01-08 14:28:40.55	180.16	53.90	-38.0	-39.0	20.8	0.00e+00	0	43	0	1959788544	46	4005
2026-01-08 14:28:41.84	180.43	54.35	-37.9	-38.8	20.9	0.00e+00	0	43	0	1969225728	46	3955
2026-01-08 14:28:42.55	180.58	54.61	-37.9	-38.8	20.9	0.00e+00	0	43	0	1974468608	46	3951
2026-01-08 14:28:43.85	180.87	55.07	-37.9	-38.8	20.9	0.00e+00	0	43	0	1983905792	46	3956
2026-01-08 14:28:44.56	181.03	55.33	-37.7	-38.7	21.0	0.00e+00	0	43	0	1989148672	46	3871
2026-01-08 14:28:45.85	181.33	55.79	-38.0	-39.0	20.8	0.00e+00	0	43	0	1998585856	45	4245
2026-01-08 14:28:46.57	181.51	56.05	-37.7	-38.6	21.1	0.00e+00	0	43	0	2003828736	45	4084
2026-01-08 14:28:47.86	181.82	56.53	-37.5	-38.4	21.3	0.00e+00	0	43	0	2013265920	45	3964
2026-01-08 14:28:48.58	182.01	56.79	-37.4	-38.3	21.3	0.00e+00	0	43	0	2017460224	45	3946
2026-01-08 14:28:49.87	182.34	57.27	-37.8	-38.7	21.0	0.00e+00	0	43	0	2026897408	45	4137
2026-01-08 14:28:50.58	182.53	57.53	-38.4	-39.4	20.5	0.00e+00	0	43	0	2032140288	46	4198
2026-01-08 14:28:51.87	182.88	58.01	-37.8	-38.8	21.0	0.00e+00	0	43	0	2041577472	46	3914
2026-01-08 14:28:52.59	183.08	58.28	-37.7	-38.7	21.1	0.00e+00	0	43	0	2046820352	46	3872
2026-01-08 14:28:53.88	183.46	58.77	-37.4	-38.3	21.3	0.00e+00	0	43	0	2056257536	45	3956
2026-01-08 14:28:54.59	183.67	59.04	-37.4	-38.3	21.4	0.00e+00	0	43	0	2061500416	45	3955
2026-01-08 14:28:55.88	184.06	59.53	-37.3	-38.2	21.5	0.00e+00	0	43	0	2070937600	45	3876
2026-01-08 14:28:56.60	184.29	59.80	-37.4	-38.3	21.3	0.00e+00	0	43	0	2076180480	45	3947
2026-01-08 14:28:57.88	184.70	60.29	-37.4	-38.4	21.3	0.00e+00	0	43	0	2084569088	45	3963
2026-01-08 14:28:58.60	184.94	60.57	-37.5	-38.4	21.3	0.00e+00	0	43	0	2090860544	45	3983
2026-01-08 14:28:59.89	185.39	61.07	-37.6	-38.5	21.2	0.00e+00	0	43	0	2099249152	45	4017
2026-01-08 14:29:00.61	185.64	61.35	-37.9	-38.8	20.9	0.00e+00	0	43	0	2104492032	45	4175
2026-01-08 14:29:01.90	186.11	61.85	-37.5	-38.4	21.3	0.00e+00	0	43	0	2113929216	45	3979
2026-01-08 14:29:02.61	186.38	62.12	-37.2	-38.1	21.6	0.00e+00	0	43	0	2119172096	45	3841
2026-01-08 14:29:03.91	186.89	62.63	-37.2	-38.1	21.6	0.00e+00	0	43	0	2128609280	44	4070
2026-01-08 14:29:04.62	187.17	62.91	-37.2	-38.1	21.6	0.00e+00	0	43	0	2133852160	44	4063
2026-01-08 14:29:05.91	187.71	63.42	-36.9	-37.8	21.6	0.00e+00	0	43	0	2143289344	43	4162
2026-01-08 14:29:06.63	188.02	63.70	-36.2	-37.1	22.3	0.00e+00	0	43	0	2148532224	43	3842
2026-01-08 14:29:07.91	188.59	64.21	-36.4	-37.3	22.1	0.00e+00	0	43	0	2157969408	43	3949
2026-01-08 14:29:08.63	188.92	64.49	-36.4	-37.3	22.2	0.00e+00	0	43	0	2162163712	43	3922
2026-01-08 14:29:09.92	189.53	65.00	-36.3	-37.1	22.3	0.00e+00	0	43	0	2171600896	43	3868
2026-01-08 14:29:10.64	189.89	65.29	-36.3	-37.2	22.3	0.00e+00	0	43	0	2176843776	43	3882
2026-01-08 14:29:11.93	190.55	65.80	-36.1	-36.9	22.2	0.00e+00	0	43	0	2186280960	42	3986
2026-01-08 14:29:12.65	190.93	66.09	-36.2	-37.0	22.4	0.00e+00	0	43	0	2191523840	42	4038
2026-01-08 14:29:13.94	191.64	66.60	-36.7	-37.6	21.9	0.00e+00	0	43	0	2200961024	42	4295
2026-01-08 14:29:14.65	192.04	66.88	-36.6	-37.5	22.0	0.00e+00	0	43	0	2206203904	42	4265
2026-01-08 14:29:15.94	192.81	67.40	-36.1	-37.0	22.4	0.00e+00	0	43	0	2215641088	42	4005
2026-01-08 14:29:16.66	193.25	67.68	-36.2	-37.0	22.4	0.00e+00	0	43	0	2220883968	42	4042
2026-01-08 14:29:17.95	194.08	68.19	-35.9	-36.7	22.7	0.00e+00	0	43	0	2230321152	42	3889
2026-01-08 14:29:18.67	194.55	68.48	-36.0	-36.9	22.5	0.00e+00	0	43	0	2235564032	42	3985
2026-01-08 14:29:19.95	195.44	68.98	-36.1	-36.9	22.5	0.00e+00	0	43	0	2243952640	42	3993
2026-01-08 14:29:20.67	195.96	69.26	-36.0	-36.8	22.6	0.00e+00	0	43	0	2249195520	42	3947
2026-01-08 14:29:21.96	196.93	69.77	-36.3	-37.1	22.3	0.00e+00	0	43	0	2258632704	42	4092
2026-01-08 14:29:22.68	197.49	70.05	-36.4	-37.3	21.8	0.00e+00	0	43	0	2263875584	42	4164
2026-01-08 14:29:23.96	198.53	70.55	-36.2	-37.0	22.4	0.00e+00	0	43	0	2273312768	42	4046
2026-01-08 14:29:24.68	199.14	70.82	-36.2	-37.1	22.2	0.00e+00	0	43	0	2278555648	42	4070
2026-01-08 14:29:25.97	200.29	71.32	-36.2	-37.1	22.4	0.00e+00	0	43	0	2287992832	42	4070
2026-01-08 14:29:26.69	200.95	71.59	-36.2	-37.1	22.3	0.00e+00	0	43	0	2293235712	42	4062
2026-01-08 14:29:27.98	202.20	72.07	-35.9	-36.7	22.6	0.00e+00	0	43	0	2302672896	42	3897
2026-01-08 14:29:28.70	202.93	72.34	-36.0	-36.9	22.5	0.00e+00	0	43	0	2306867200	42	3972
2026-01-08 14:29:30.34	204.68	72.95	-36.0	-36.9	22.5	0.00e+00	0	43	0	2319450112	42	3966
2026-01-08 14:29:30.91	205.31	73.15	-35.9	-36.8	22.6	0.00e+00	0	43	0	2323644416	42	3922
2026-01-08 14:29:32.50	207.18	73.72	-36.1	-37.0	22.4	0.00e+00	0	43	0	2335178752	42	4013
2026-01-08 14:29:33.08	207.90	73.92	-36.0	-36.8	22.4	0.00e+00	0	43	0	2339373056	42	3956
2026-01-08 14:29:34.66	209.94	74.47	-35.3	-36.2	23.1	0.00e+00	0	43	0	2350907392	41	3876
2026-01-08 14:29:35.25	210.74	74.66	-35.5	-36.3	23.0	0.00e+00	0	43	0	2355101696	41	3946
2026-01-08 14:29:36.84	213.01	75.18	-35.1	-35.9	23.3	0.00e+00	0	43	0	2365587456	40	3993
2026-01-08 14:29:37.41	213.87	75.37	-35.2	-36.0	23.3	0.00e+00	0	43	0	2370830336	40	4026
2026-01-08 14:29:39.00	216.37	75.85	-35.0	-35.8	23.4	0.00e+00	0	43	0	2382364672	40	3952
2026-01-08 14:29:39.58	217.33	76.03	-34.9	-35.8	23.4	0.00e+00	0	43	0	2385510400	40	3923
2026-01-08 14:29:41.16	220.06	76.48	-35.0	-35.9	23.4	0.00e+00	0	43	0	2397044736	40	3962
2026-01-08 14:29:41.74	221.11	76.64	-34.8	-35.6	23.5	0.00e+00	0	44	0	2401239040	40	3868
2026-01-08 14:29:43.32	224.09	77.04	-34.9	-35.8	23.4	0.00e+00	0	43	0	2412773376	40	3920
2026-01-08 14:29:43.94	225.32	77.19	-35.0	-35.8	23.4	0.00e+00	0	43	0	2416967680	40	3952
2026-01-08 14:29:45.52	228.57	77.55	-35.0	-35.9	23.4	0.00e+00	0	43	0	2428502016	40	3980
2026-01-08 14:29:46.12	229.85	77.68	-34.8	-35.6	23.5	0.00e+00	0	43	0	2433744896	40	3863
2026-01-08 14:29:47.69	233.33	77.98	-34.7	-35.5	23.6	0.00e+00	0	43	0	2444230656	39	4051
2026-01-08 14:29:48.38	234.92	78.09	-34.7	-35.5	23.7	0.00e+00	0	43	0	2449473536	39	4044
2026-01-08 14:29:49.82	238.32	78.31	-35.1	-36.0	23.3	0.00e+00	0	43	0	2459959296	39	4247
2026-01-08 14:29:50.53	240.05	78.40	-35.1	-35.9	23.4	0.00e+00	0	43	0	2465202176	39	4218
2026-01-08 14:29:51.82	243.25	78.54	-35.0	-35.8	23.5	0.00e+00	0	44	0	2474639360	39	4168
2026-01-08 14:29:52.54	245.06	78.60	-34.8	-35.6	23.7	0.00e+00	0	43	0	2479882240	39	4066
2026-01-08 14:29:53.83	248.36	78.69	-34.8	-35.7	23.6	0.00e+00	0	43	0	2489319424	39	4106
2026-01-08 14:29:54.55	250.22	78.72	-34.8	-35.6	23.7	0.00e+00	0	43	0	2493513728	39	4076
2026-01-08 14:29:55.84	253.57	78.74	-34.7	-35.6	23.7	0.00e+00	0	44	0	2502950912	39	4061
2026-01-08 14:29:56.55	255.41	78.74	-34.8	-35.6	23.6	0.00e+00	0	43	0	2508193792	39	4082
2026-01-08 14:29:57.84	258.76	78.71	-34.9	-35.8	23.5	0.00e+00	0	43	0	2517630976	39	4151
2026-01-08 14:29:58.56	260.61	78.67	-34.9	-35.8	23.5	0.00e+00	0	43	0	2522873856	39	4160
2026-01-08 14:29:59.85	263.90	78.58	-34.9	-35.8	23.5	0.00e+00	0	44	0	2532311040	39	4152
2026-01-08 14:30:00.56	265.69	78.52	-34.9	-35.7	23.5	0.00e+00	0	44	0	2537553920	39	4125
2026-01-08 14:30:01.85	268.87	78.37	-34.9	-35.8	23.5	0.00e+00	0	43	0	2546991104	39	4150
2026-01-08 14:30:02.57	270.61	78.28	-34.8	-35.6	23.6	0.00e+00	0	44	0	2552233984	39	4080
2026-01-08 14:30:03.86	273.64	78.08	-34.8	-35.6	23.6	0.00e+00	0	43	0	2561671168	39	4082
2026-01-08 14:30:04.59	275.31	77.95	-34.7	-35.5	23.7	0.00e+00	0	43	0	2566914048	39	4033
2026-01-08 14:30:05.89	278.20	77.71	-35.2	-36.0	23.2	0.00e+00	0	43	0	2575302656	39	4271
2026-01-08 14:30:06.60	279.72	77.56	-35.3	-36.1	23.2	0.00e+00	0	43	0	2581594112	39	4338
2026-01-08 14:30:07.89	282.39	77.27	-35.0	-35.8	23.4	0.00e+00	0	44	0	2589982720	40	3939
2026-01-08 14:30:08.61	283.83	77.10	-34.8	-35.6	23.6	0.00e+00	0	43	0	2595225600	40	3858
2026-01-08 14:30:09.90	286.30	76.77	-35.1	-35.9	23.4	0.00e+00	0	43	0	2604662784	40	3988
2026-01-08 14:30:10.61	287.61	76.58	-35.2	-36.0	23.2	0.00e+00	0	43	0	2609905664	40	4020
2026-01-08 14:30:11.90	289.88	76.22	-35.5	-36.4	22.9	0.00e+00	0	43	0	2619342848	40	4218
2026-01-08 14:30:12.62	291.10	76.01	-35.7	-36.6	22.6	0.00e+00	0	43	0	2624585728	40	4314
2026-01-08 14:30:13.91	293.19	75.63	-35.6	-36.5	22.9	0.00e+00	0	43	0	2634022912	41	4017
2026-01-08 14:30:14.63	294.31	75.40	-35.5	-36.4	22.9	0.00e+00	0	43	0	2639265792	41	3979
2026-01-08 14:30:15.92	296.22	74.99	-35.5	-36.3	22.9	0.00e+00	0	43	0	2648702976	41	3941
2026-01-08 14:30:16.64	297.24	74.75	-35.5	-36.3	23.0	0.00e+00	0	43	0	2652897280	41	3951
2026-01-08 14:30:17.92	298.97	74.32	-35.7	-36.5	22.8	0.00e+00	0	43	0	2662334464	41	4043
2026-01-08 14:30:18.64	299.90	74.08	-35.8	-36.7	22.7	0.00e+00	0	43	0	2667577344	41	4104
2026-01-08 14:30:20.28	301.91	73.50	-36.0	-36.9	22.5	0.00e+00	0	43	0	2680160256	41	4206
2026-01-08 14:30:20.86	302.59	73.30	-36.4	-37.3	22.2	0.00e+00	0	43	0	2684354560	42	4150
2026-01-08 14:30:22.43	304.34	72.73	-36.6	-37.5	22.0	0.00e+00	0	43	0	2694840320	42	4278
2026-01-08 14:30:23.02	304.96	72.51	-36.5	-37.4	22.1	0.00e+00	0	43	0	2700083200	42	4217
2026-01-08 14:30:24.60	306.56	71.92	-36.7	-37.6	21.9	0.00e+00	0	43	0	2711617536	42	4312
2026-01-08 14:30:25.19	307.13	71.70	-36.9	-37.8	21.4	0.00e+00	0	43	0	2714763264	43	4147
2026-01-08 14:30:26.76	308.57	71.11	-36.8	-37.7	21.7	0.00e+00	0	43	0	2726297600	43	4138
2026-01-08 14:30:27.35	309.09	70.88	-36.6	-37.5	21.9	0.00e+00	0	43	0	2730491904	43	4012
2026-01-08 14:30:28.93	310.41	70.27	-36.4	-37.3	22.1	0.00e+00	0	43	0	2742026240	43	3939
2026-01-08 14:30:29.53	310.89	70.04	-36.6	-37.5	22.0	0.00e+00	0	43	0	2746220544	43	4037
2026-01-08 14:30:31.11	312.10	69.42	-36.6	-37.5	22.0	0.00e+00	0	43	0	2757754880	43	4034
2026-01-08 14:30:31.71	312.54	69.19	-36.5	-37.4	22.1	0.00e+00	0	43	0	2761949184	43	3976
2026-01-08 14:30:33.46	313.76	68.50	-36.2	-37.1	22.3	0.00e+00	0	43	0	2774532096	43	3843
2026-01-08 14:30:34.03	314.14	68.28	-36.2	-37.1	22.3	0.00e+00	0	43	0	2778726400	43	3838
2026-01-08 14:30:35.63	315.17	67.64	-36.1	-37.0	22.4	0.00e+00	0	43	0	2790260736	42	4010
2026-01-08 14:30:36.20	315.52	67.42	-36.1	-37.0	22.4	0.00e+00	0	43	0	2794455040	42	4013
2026-01-08 14:30:37.79	316.45	66.79	-36.3	-37.2	22.2	0.00e+00	0	43	0	2805989376	42	4101
2026-01-08 14:30:38.37	316.78	66.56	-36.4	-37.3	22.2	0.00e+00	0	43	0	2810183680	42	4156
2026-01-08 14:30:39.94	317.63	65.94	-36.3	-37.2	22.3	0.00e+00	0	43	0	2821718016	42	4113
2026-01-08 14:30:40.53	317.94	65.70	-36.2	-37.1	22.3	0.00e+00	0	43	0	2825912320	42	4083
2026-01-08 14:30:42.11	318.74	65.08	-35.9	-36.7	22.6	0.00e+00	0	43	0	2837446656	42	3911
2026-01-08 14:30:42.95	319.14	64.74	-35.9	-36.8	22.6	0.00e+00	0	43	0	2843738112	42	3919
2026-01-08 14:30:44.10	319.68	64.29	-36.4	-37.3	22.0	0.00e+00	0	43	0	2852126720	42	4170
2026-01-08 14:30:44.96	320.06	63.95	-36.5	-37.4	22.1	0.00e+00	0	43	0	2858418176	42	4201
2026-01-08 14:30:46.10	320.56	63.50	-36.6	-37.5	21.9	0.00e+00	0	43	0	2866806784	42	4264
2026-01-08 14:30:46.96	320.92	63.16	-36.7	-37.6	21.9	0.00e+00	0	43	0	2872049664	43	4079
2026-01-08 14:30:48.14	321.40	62.70	-36.8	-37.7	21.8	0.00e+00	0	43	0	2880438272	43	4103
2026-01-08 14:30:49.00	321.74	62.37	-37.0	-37.9	21.5	0.00e+00	0	43	0	2887778304	43	4226
2026-01-08 14:30:50.15	322.18	61.92	-37.7	-38.7	21.1	0.00e+00	0	43	0	2895118336	44	4350
2026-01-08 14:30:51.01	322.50	61.59	-38.0	-38.9	20.7	0.00e+00	0	44	0	2901409792	45	4219
2026-01-08 14:30:52.16	322.91	61.14	-38.1	-39.0	20.7	0.00e+00	0	43	0	2909798400	45	4290
2026-01-08 14:30:53.11	323.24	60.77	-37.7	-38.6	20.9	0.00e+00	0	43	0	2917138432	45	4089
2026-01-08 14:30:54.29	323.63	60.32	-37.5	-38.4	21.2	0.00e+00	0	43	0	2925527040	45	3994
2026-01-08 14:30:55.15	323.91	59.99	-37.4	-38.3	21.4	0.00e+00	0	43	0	2931818496	45	3937
2026-01-08 14:30:56.51	324.34	59.48	-37.5	-38.5	21.1	0.00e+00	0	43	0	2941255680	45	4005
2026-01-08 14:30:57.22	324.56	59.21	-37.6	-38.6	21.1	0.00e+00	0	43	0	2946498560	45	4060
2026-01-08 14:30:58.52	324.95	58.72	-37.5	-38.4	21.2	0.00e+00	0	43	0	2955935744	45	3991
2026-01-08 14:30:59.23	325.15	58.45	-37.5	-38.4	21.3	0.00e+00	0	43	0	2961178624	45	3985
2026-01-08 14:31:00.52	325.52	57.97	-37.6	-38.5	21.2	0.00e+00	0	43	0	2970615808	45	4018
2026-01-08 14:31:01.24	325.71	57.70	-37.7	-38.7	21.1	0.00e+00	0	43	0	2975858688	45	4111
2026-01-08 14:31:02.53	326.06	57.22	-38.1	-39.1	20.7	0.00e+00	0	43	0	2984247296	45	4331
2026-01-08 14:31:03.24	326.24	56.96	-38.3	-39.3	20.5	0.00e+00	0	43	0	2989490176	46	4163
2026-01-08 14:31:04.53	326.57	56.49	-38.3	-39.3	20.5	0.00e+00	0	43	0	2998927360	46	4163
2026-01-08 14:31:05.25	326.74	56.22	-38.3	-39.2	20.6	0.00e+00	0	43	0	3004170240	46	4135
2026-01-08 14:31:06.55	327.06	55.75	-38.2	-39.1	20.7	0.00e+00	0	43	0	3013607424	46	4087
2026-01-08 14:31:07.27	327.22	55.49	-38.1	-39.0	20.7	0.00e+00	0	43	0	3018850304	46	4041
2026-01-08 14:31:08.55	327.52	55.03	-38.2	-39.1	20.6	0.00e+00	0	43	0	3028287488	46	4097
2026-01-08 14:31:09.27	327.68	54.78	-38.1	-39.1	20.6	0.00e+00	0	44	0	3033530368	46	4085
2026-01-08 14:31:10.56	327.96	54.32	-37.9	-38.8	21.0	0.00e+00	0	44	0	3042967552	46	3931
2026-01-08 14:31:11.28	328.11	54.07	-37.6	-38.6	21.2	0.00e+00	0	43	0	3048210432	46	3833
2026-01-08 14:31:12.74	328.41	53.55	-37.4	-38.3	21.4	0.00e+00	0	43	0	3058696192	45	3941
2026-01-08 14:31:13.46	328.55	53.30	-37.5	-38.4	21.3	0.00e+00	0	43	0	3063939072	45	3983
2026-01-08 14:31:14.80	328.82	52.84	-37.6	-38.6	21.1	0.00e+00	0	43	0	3073376256	45	4054
2026-01-08 14:31:15.51	328.95	52.60	-37.6	-38.5	21.3	0.00e+00	0	43	0	3078619136	45	4019
2026-01-08 14:31:16.81	329.20	52.15	-37.6	-38.5	21.2	0.00e+00	0	43	0	3088056320	45	4017
2026-01-08 14:31:17.52	329.33	51.91	-37.4	-38.3	20.8	0.00e+00	0	44	0	3093299200	45	3929
2026-01-08 14:31:18.81	329.56	51.48	-37.6	-38.5	21.2	0.00e+00	0	43	0	3102736384	45	4015
2026-01-08 14:31:19.53	329.68	51.23	-37.6	-38.5	21.1	0.00e+00	0	43	0	3106930688	45	4027
2026-01-08 14:31:20.82	329.90	50.80	-37.7	-38.6	21.0	0.00e+00	0	43	0	3116367872	45	4092
2026-01-08 14:31:21.54	330.02	50.57	-37.8	-38.7	21.0	0.00e+00	0	43	0	3121610752	45	4127
2026-01-08 14:31:22.83	330.24	50.14	-37.7	-38.6	21.0	0.00e+00	0	44	0	3131047936	45	4086
2026-01-08 14:31:23.54	330.35	49.91	-37.8	-38.7	21.0	0.00e+00	0	44	0	3136290816	45	4141
2026-01-08 14:31:24.83	330.55	49.49	-37.8	-38.7	20.9	0.00e+00	0	43	0	3145728000	45	4143
2026-01-08 14:31:25.55	330.66	49.26	-37.6	-38.6	21.1	0.00e+00	0	43	0	3150970880	45	4060
2026-01-08 14:31:26.83	330.86	48.85	-37.3	-38.2	21.5	0.00e+00	0	43	0	3160408064	45	3877
2026-01-08 14:31:27.55	330.96	48.62	-37.3	-38.2	21.3	0.00e+00	0	43	0	3165650944	45	3885
2026-01-08 14:31:28.84	331.15	48.21	-37.1	-38.0	21.5	0.00e+00	0	43	0	3175088128	44	4038
2026-01-08 14:31:29.56	331.25	47.98	-37.2	-38.0	21.7	0.00e+00	0	43	0	3180331008	44	4050
2026-01-08 14:31:30.85	331.43	47.58	-37.2	-38.1	21.6	0.00e+00	0	43	0	3189768192	44	4056
2026-01-08 14:31:31.56	331.53	47.36	-37.2	-38.2	21.6	0.00e+00	0	43	0	3193962496	44	4099
2026-01-08 14:31:32.85	331.70	46.96	-37.1	-38.0	21.7	0.00e+00	0	43	0	3203399680	44	4031
2026-01-08 14:31:33.57	331.80	46.74	-37.1	-38.0	21.7	0.00e+00	0	43	0	3208642560	44	4020
2026-01-08 14:31:34.86	331.96	46.35	-36.9	-37.8	21.9	0.00e+00	0	43	0	3218079744	44	3939
2026-01-08 14:31:35.58	332.05	46.14	-36.9	-37.8	21.7	0.00e+00	0	43	0	3223322624	44	3951
2026-01-08 14:31:36.87	332.21	45.75	-36.6	-37.5	22.1	0.00e+00	0	44	0	3232759808	44	3797
2026-01-08 14:31:37.58	332.30	45.54	-36.3	-37.2	22.2	0.00e+00	0	43	0	3238002688	43	3903
2026-01-08 14:31:38.87	332.45	45.16	-36.3	-37.2	22.2	0.00e+00	0	43	0	3247439872	42	4101
2026-01-08 14:31:39.59	332.54	44.95	-36.2	-37.0	22.4	0.00e+00	0	43	0	3252682752	42	4031
2026-01-08 14:31:40.88	332.69	44.57	-36.2	-37.0	22.4	0.00e+00	0	43	0	3261071360	42	4047
2026-01-08 14:31:41.60	332.77	44.36	-36.2	-37.1	22.3	0.00e+00	0	43	0	3267362816	42	4061
2026-01-08 14:31:42.89	332.91	43.99	-36.3	-37.1	22.3	0.00e+00	0	43	0	3275751424	42	4090
2026-01-08 14:31:43.60	332.99	43.79	-36.3	-37.1	22.2	0.00e+00	0	43	0	3280994304	42	4097
2026-01-08 14:31:44.89	333.13	43.43	-36.3	-37.2	22.2	0.00e+00	0	43	0	3290431488	42	4130
2026-01-08 14:31:45.61	333.21	43.22	-36.3	-37.2	22.3	0.00e+00	0	43	0	3295674368	42	4131
2026-01-08 14:31:46.89	333.34	42.87	-36.3	-37.2	22.2	0.00e+00	0	43	0	3305111552	42	4101
2026-01-08 14:31:47.61	333.41	42.67	-36.1	-37.0	22.5	0.00e+00	0	44	0	3310354432	42	4005
2026-01-08 14:31:48.90	333.54	42.31	-36.0	-36.9	22.2	0.00e+00	0	43	0	3319791616	42	3972
2026-01-08 14:31:49.62	333.62	42.11	-35.9	-36.8	22.3	0.00e+00	0	43	0	3325034496	42	3929
2026-01-08 14:31:51.16	333.77	41.70	-35.8	-36.7	22.7	0.00e+00	0	43	0	3335520256	42	3890
2026-01-08 14:31:51.87	333.83	41.51	-35.9	-36.7	22.7	0.00e+00	0	43	0	3340763136	42	3903
2026-01-08 14:31:53.16	333.96	41.16	-35.9	-36.7	22.6	0.00e+00	0	43	0	3350200320	42	3908
2026-01-08 14:31:54.23	334.05	40.88	-36.0	-36.9	21.7	0.00e+00	0	43	0	3357540352	42	3968
2026-01-08 14:31:55.09	334.13	40.65	-36.1	-37.0	22.4	0.00e+00	0	43	0	3363831808	42	4023
2026-01-08 14:31:56.23	334.23	40.35	-36.2	-37.1	22.3	0.00e+00	0	43	0	3372220416	42	4075
2026-01-08 14:31:57.09	334.31	40.13	-36.3	-37.2	22.2	0.00e+00	0	43	0	3378511872	42	4139
2026-01-08 14:31:58.24	334.41	39.84	-36.4	-37.3	22.1	0.00e+00	0	43	0	3386900480	42	4169
2026-01-08 14:31:59.10	334.48	39.62	-36.5	-37.4	21.9	0.00e+00	0	43	0	3393191936	42	4223
2026-01-08 14:32:00.24	334.58	39.33	-36.5	-37.4	22.0	0.00e+00	0	43	0	3401580544	42	4242
2026-01-08 14:32:01.11	334.65	39.11	-36.5	-37.3	22.1	0.00e+00	0	43	0	3407872000	42	4193
2026-01-08 14:32:02.44	334.76	38.77	-36.5	-37.4	22.0	0.00e+00	0	43	0	3417309184	42	4216
2026-01-08 14:32:03.16	334.82	38.60	-36.5	-37.4	22.0	0.00e+00	0	43	0	3422552064	42	4233
2026-01-08 14:32:04.45	334.92	38.28	-36.5	-37.3	22.0	0.00e+00	0	43	0	3431989248	42	4186
2026-01-08 14:32:05.17	334.98	38.10	-36.3	-37.1	22.3	0.00e+00	0	43	0	3437232128	42	4086
2026-01-08 14:32:06.75	335.10	37.72	-36.1	-37.0	22.4	0.00e+00	0	43	0	3447717888	42	4015
2026-01-08 14:32:07.32	335.14	37.58	-36.1	-36.9	22.5	0.00e+00	0	43	0	3452960768	42	4002
2026-01-08 14:32:08.91	335.26	37.20	-36.0	-36.9	22.5	0.00e+00	0	43	0	3464495104	42	3979
2026-01-08 14:32:09.49	335.30	37.06	-35.9	-36.8	22.6	0.00e+00	0	43	0	3467640832	42	3936
2026-01-08 14:32:11.07	335.42	36.69	-35.8	-36.6	22.7	0.00e+00	0	43	0	3479175168	42	3856
2026-01-08 14:32:11.66	335.46	36.55	-35.8	-36.6	22.7	0.00e+00	0	43	0	3484418048	42	3861
2026-01-08 14:32:13.23	335.57	36.19	-35.8	-36.7	22.7	0.00e+00	0	43	0	3494903808	42	3882
2026-01-08 14:32:13.82	335.61	36.05	-35.8	-36.7	22.7	0.00e+00	0	44	0	3499098112	42	3880
2026-01-08 14:32:15.40	335.72	35.69	-35.9	-36.8	22.6	0.00e+00	0	43	0	3510632448	42	3919
2026-01-08 14:32:15.97	335.76	35.56	-35.8	-36.7	22.7	0.00e+00	0	43	0	3514826752	42	3891
2026-01-08 14:32:17.55	335.86	35.21	-35.8	-36.7	22.7	0.00e+00	0	43	0	3526361088	42	3894
2026-01-08 14:32:18.15	335.90	35.07	-35.9	-36.8	22.6	0.00e+00	0	43	0	3530555392	42	3931
2026-01-08 14:32:19.73	336.00	34.72	-35.9	-36.7	22.3	0.00e+00	0	43	0	3542089728	42	3906
2026-01-08 14:32:20.60	336.06	34.53	-35.8	-36.7	22.7	0.00e+00	0	43	0	3548381184	42	3890
2026-01-08 14:32:22.16	336.16	34.19	-35.8	-36.6	22.7	0.00e+00	0	43	0	3559915520	42	3863
2026-01-08 14:32:22.87	336.20	34.04	-35.8	-36.6	22.7	0.00e+00	0	43	0	3565158400	42	3867
2026-01-08 14:32:24.37	336.29	33.72	-35.8	-36.6	22.7	0.00e+00	0	43	0	3575644160	42	3859
2026-01-08 14:32:25.08	336.33	33.57	-35.8	-36.7	22.7	0.00e+00	0	43	0	3580887040	42	3877
2026-01-08 14:32:26.45	336.42	33.28	-35.7	-36.6	22.8	0.00e+00	0	43	0	3590324224	42	3835
2026-01-08 14:32:27.17	336.46	33.12	-35.7	-36.6	22.8	0.00e+00	0	43	0	3595567104	42	3832
2026-01-08 14:32:28.52	336.54	32.84	-35.8	-36.6	22.7	0.00e+00	0	43	0	3606052864	42	3861
2026-01-08 14:32:29.24	336.58	32.69	-35.8	-36.6	22.7	0.00e+00	0	43	0	3610247168	42	3858
2026-01-08 14:32:30.64	336.66	32.41	-35.8	-36.7	22.7	0.00e+00	0	44	0	3620732928	42	3872
2026-01-08 14:32:31.36	336.70	32.26	-35.8	-36.7	22.7	0.00e+00	0	43	0	3625975808	42	3882
2026-01-08 14:32:32.65	336.77	32.00	-35.9	-36.7	22.6	0.00e+00	0	44	0	3635412992	42	3912
2026-01-08 14:32:33.38	336.81	31.85	-35.9	-36.7	22.6	0.00e+00	0	43	0	3640655872	42	3909
2026-01-08 14:32:34.67	336.88	31.59	-36.1	-37.0	22.4	0.00e+00	0	43	0	3650093056	42	4013
2026-01-08 14:32:35.39	336.92	31.45	-36.0	-36.9	22.4	0.00e+00	0	43	0	3655335936	42	4002
2026-01-08 14:32:36.68	336.98	31.20	-36.1	-37.0	22.4	0.00e+00	0	43	0	3664773120	42	4017
2026-01-08 14:32:37.40	337.02	31.05	-36.0	-36.9	22.4	0.00e+00	0	43	0	3670016000	42	3999
2026-01-08 14:32:38.68	337.09	30.80	-36.0	-36.9	22.4	0.00e+00	0	43	0	3678404608	42	3994
2026-01-08 14:32:39.40	337.12	30.67	-36.1	-37.0	22.3	0.00e+00	0	43	0	3684696064	42	4018
2026-01-08 14:32:40.69	337.19	30.42	-36.1	-37.0	22.1	0.00e+00	0	43	0	3693084672	42	4018
2026-01-08 14:32:41.40	337.22	30.28	-36.1	-37.0	22.3	0.00e+00	0	43	0	3698327552	42	4030
2026-01-08 14:32:42.69	337.29	30.04	-36.2	-37.1	22.3	0.00e+00	0	43	0	3707764736	42	4065
2026-01-08 14:32:43.41	337.32	29.90	-36.1	-37.0	22.3	0.00e+00	0	43	0	3713007616	42	4016
2026-01-08 14:32:44.70	337.38	29.66	-36.2	-37.0	22.3	0.00e+00	0	43	0	3722444800	42	4048
2026-01-08 14:32:45.41	337.42	29.53	-36.1	-37.0	22.4	0.00e+00	0	44	0	3727687680	42	4028
2026-01-08 14:32:46.80	337.48	29.27	-36.2	-37.1	22.2	0.00e+00	0	43	0	3737124864	42	4091
2026-01-08 14:32:47.52	337.52	29.14	-36.2	-37.1	22.3	0.00e+00	0	43	0	3742367744	42	4069
2026-01-08 14:32:48.80	337.58	28.91	-36.3	-37.1	22.2	0.00e+00	0	43	0	3751804928	42	4096
2026-01-08 14:32:49.52	337.61	28.78	-36.3	-37.2	22.2	0.00e+00	0	43	0	3757047808	42	4119
2026-01-08 14:32:50.81	337.67	28.54	-36.3	-37.2	22.0	0.00e+00	0	43	0	3766484992	42	4124
2026-01-08 14:32:51.53	337.70	28.41	-36.3	-37.2	22.2	0.00e+00	0	44	0	3771727872	42	4117
2026-01-08 14:32:52.82	337.76	28.19	-36.4	-37.2	22.1	0.00e+00	0	43	0	3781165056	42	4140
2026-01-08 14:32:53.54	337.79	28.06	-36.4	-37.3	22.1	0.00e+00	0	43	0	3786407936	42	4178
2026-01-08 14:32:54.83	337.84	27.83	-36.5	-37.4	22.0	0.00e+00	0	43	0	3795845120	42	4201
2026-01-08 14:32:55.54	337.87	27.71	-36.4	-37.3	22.1	0.00e+00	0	43	0	3800039424	42	4166
2026-01-08 14:32:56.83	337.93	27.48	-36.5	-37.4	22.0	0.00e+00	0	43	0	3809476608	42	4216
2026-01-08 14:32:57.63	337.96	27.35	-36.4	-37.3	22.1	0.00e+00	0	43	0	3815768064	42	4186
2026-01-08 14:32:59.13	338.03	27.09	-36.5	-37.4	21.9	0.00e+00	0	43	0	3826253824	42	4211
2026-01-08 14:32:59.84	338.06	26.97	-36.5	-37.5	21.9	0.00e+00	0	43	0	3831496704	42	4256
2026-01-08 14:33:01.13	338.11	26.75	-36.5	-37.4	22.0	0.00e+00	0	43	0	3840933888	42	4217
2026-01-08 14:33:01.85	338.14	26.63	-36.5	-37.4	22.0	0.00e+00	0	43	0	3846176768	42	4231
2026-01-08 14:33:03.14	338.19	26.42	-36.5	-37.4	21.8	0.00e+00	0	44	0	3855613952	42	4213
2026-01-08 14:33:03.90	338.22	26.29	-36.3	-37.2	22.2	0.00e+00	0	43	0	3860856832	42	4127
2026-01-08 14:33:05.19	338.27	26.08	-36.3	-37.2	22.1	0.00e+00	0	43	0	3870294016	42	4132
2026-01-08 14:33:05.97	338.30	25.95	-36.3	-37.2	22.2	0.00e+00	0	43	0	3875536896	42	4118
2026-01-08 14:33:07.26	338.35	25.74	-36.3	-37.2	22.1	0.00e+00	0	43	0	3884974080	42	4117
2026-01-08 14:33:08.07	338.38	25.61	-36.4	-37.2	22.1	0.00e+00	0	43	0	3891265536	42	4142
2026-01-08 14:33:09.53	338.44	25.38	-36.1	-37.0	22.3	0.00e+00	0	43	0	3901751296	42	4038
2026-01-08 14:33:10.25	338.46	25.26	-36.2	-37.1	22.2	0.00e+00	0	43	0	3906994176	42	4072
2026-01-08 14:33:11.75	338.52	25.02	-36.2	-37.1	22.1	0.00e+00	0	43	0	3917479936	42	4073
2026-01-08 14:33:12.46	338.54	24.91	-36.2	-37.1	22.2	0.00e+00	0	43	0	3922722816	42	4074
2026-01-08 14:33:13.75	338.59	24.71	-36.1	-37.0	22.3	0.00e+00	0	43	0	3932160000	42	4012
2026-01-08 14:33:14.47	338.62	24.60	-36.3	-37.1	22.2	0.00e+00	0	43	0	3937402880	42	4098
2026-01-08 14:33:15.75	338.66	24.40	-36.3	-37.1	22.2	0.00e+00	0	43	0	3946840064	42	4098
2026-01-08 14:33:16.47	338.69	24.29	-36.2	-37.1	22.2	0.00e+00	0	43	0	3952082944	42	4084
2026-01-08 14:33:17.76	338.73	24.09	-36.2	-37.1	22.3	0.00e+00	0	43	0	3961520128	42	4084
2026-01-08 14:33:18.48	338.76	23.98	-36.2	-37.1	22.2	0.00e+00	0	43	0	3965714432	42	4087
2026-01-08 14:33:19.77	338.80	23.79	-36.3	-37.2	22.2	0.00e+00	0	43	0	3975151616	42	4108
2026-01-08 14:33:20.48	338.83	23.68	-36.3	-37.2	22.2	0.00e+00	0	43	0	3980394496	42	4118
2026-01-08 14:33:21.77	338.87	23.49	-36.2	-37.1	22.2	0.00e+00	0	43	0	3989831680	42	4093
2026-01-08 14:33:22.52	338.90	23.38	-36.3	-37.2	22.2	0.00e+00	0	43	0	3995074560	42	4133
2026-01-08 14:33:23.80	338.94	23.19	-36.4	-37.3	22.1	0.00e+00	0	43	0	4004511744	42	4146
2026-01-08 14:33:24.58	338.96	23.08	-36.4	-37.2	22.1	0.00e+00	0	43	0	4009754624	42	4145
2026-01-08 14:33:25.87	339.01	22.89	-36.3	-37.2	22.1	0.00e+00	0	44	0	4019191808	42	4125
2026-01-08 14:33:26.64	339.03	22.78	-36.3	-37.2	22.2	0.00e+00	0	43	0	4024434688	42	4117
2026-01-08 14:33:28.25	339.08	22.54	-36.4	-37.2	22.1	0.00e+00	0	43	0	4037017600	42	4145
2026-01-08 14:33:28.82	339.10	22.46	-36.4	-37.2	22.1	0.00e+00	0	43	0	4041211904	42	4145
2026-01-08 14:33:30.62	339.16	22.21	-36.4	-37.3	22.0	0.00e+00	0	43	0	4053794816	42	4188
2026-01-08 14:33:31.19	339.18	22.13	-36.4	-37.3	22.1	0.00e+00	0	43	0	4057989120	42	4166
2026-01-08 14:33:32.78	339.23	21.90	-36.4	-37.3	22.0	0.00e+00	0	43	0	4069523456	42	4191
2026-01-08 14:33:33.37	339.24	21.82	-36.4	-37.3	22.0	0.00e+00	0	43	0	4073717760	42	4175
2026-01-08 14:33:34.95	339.29	21.60	-36.5	-37.4	22.0	0.00e+00	0	43	0	4085252096	42	4214
2026-01-08 14:33:35.54	339.31	21.52	-36.5	-37.4	21.9	0.00e+00	0	44	0	4089446400	42	4220
2026-01-08 14:33:37.11	339.36	21.31	-36.6	-37.5	21.9	0.00e+00	0	43	0	4100980736	42	4272
2026-01-08 14:33:37.95	339.38	21.19	-36.6	-37.5	21.8	0.00e+00	0	43	0	4107272192	42	4283
2026-01-08 14:33:39.10	339.42	21.04	-36.7	-37.6	21.7	0.00e+00	0	43	0	4115660800	42	4327
2026-01-08 14:33:39.96	339.44	20.92	-36.8	-37.7	21.7	0.00e+00	0	43	0	4120903680	42	4361
2026-01-08 14:33:41.11	339.48	20.77	-36.8	-37.7	21.7	0.00e+00	0	43	0	4129292288	43	4138
2026-01-08 14:33:42.35	339.51	20.60	-36.9	-37.8	21.6	0.00e+00	0	43	0	4138729472	43	4179
2026-01-08 14:33:43.20	339.54	20.49	-36.9	-37.8	21.5	0.00e+00	0	43	0	4145020928	43	4186
2026-01-08 14:33:44.34	339.57	20.34	-37.0	-38.0	21.4	0.00e+00	0	43	0	4152360960	43	4243
2026-01-08 14:33:45.20	339.59	20.22	-37.1	-38.0	21.3	0.00e+00	0	43	0	4159700992	43	4270
2026-01-08 14:33:46.35	339.62	20.07	-37.1	-38.0	21.3	0.00e+00	0	44	0	4167041024	43	4290
2026-01-08 14:33:47.21	339.65	19.96	-37.1	-38.0	21.3	0.00e+00	0	43	0	4173332480	43	4288
2026-01-08 14:33:48.36	339.68	19.81	-37.2	-38.1	21.3	0.00e+00	0	43	0	4181721088	43	4331
2026-01-08 14:33:49.21	339.70	19.71	-37.2	-38.1	21.3	0.00e+00	0	44	0	4188012544	43	4336
2026-01-08 14:33:50.44	339.74	19.55	-37.4	-38.4	21.2	0.00e+00	0	43	0	4196401152	44	4218
2026-01-08 14:33:51.30	339.76	19.44	-37.5	-38.4	21.1	0.00e+00	0	43	0	4203741184	44	4232
2026-01-08 14:33:52.51	339.79	19.29	-37.4	-38.4	21.1	0.00e+00	0	43	0	4212129792	44	4219
2026-01-08 14:33:53.37	339.82	19.18	-37.5	-38.4	20.9	0.00e+00	0	43	0	4218421248	44	4237
2026-01-08 14:33:54.51	339.85	19.04	-37.5	-38.5	21.1	0.00e+00	0	43	0	4226809856	44	4261
2026-01-08 14:33:55.37	339.87	18.93	-37.5	-38.4	21.1	0.00e+00	0	43	0	4232052736	44	4235
2026-01-08 14:33:56.66	339.90	18.77	-37.5	-38.5	21.0	0.00e+00	0	43	0	4241489920	44	4257
2026-01-08 14:33:57.38	339.92	18.68	-37.5	-38.5	21.1	0.00e+00	0	43	0	4246732800	44	4256
2026-01-08 14:33:58.67	339.95	18.52	-37.6	-38.5	21.1	0.00e+00	0	44	0	4256169984	44	4267
2026-01-08 14:33:59.38	339.97	18.44	-37.6	-38.6	21.0	0.00e+00	0	43	0	4261412864	44	4308
2026-01-08 14:34:00.67	340.00	18.28	-37.7	-38.7	20.9	0.00e+00	0	43	0	4270850048	44	4355
2026-01-08 14:34:01.39	340.02	18.19	-37.6	-38.5	21.1	0.00e+00	0	43	0	4276092928	44	4270
2026-01-08 14:34:02.68	340.05	18.04	-37.7	-38.6	20.9	0.00e+00	0	43	0	4285530112	44	4325
2026-01-08 14:34:03.49	340.07	17.94	-37.6	-38.6	21.0	0.00e+00	0	44	0	4290772992	44	4303
2026-01-08 14:34:04.64	340.10	17.80	-37.6	-38.5	21.0	0.00e+00	0	43	0	4299161600	44	4269
2026-01-08 14:34:05.50	340.12	17.70	-37.6	-38.6	20.9	0.00e+00	0	43	0	4305453056	44	4315
2026-01-08 14:34:06.64	340.15	17.57	-37.7	-38.6	20.9	0.00e+00	0	44	0	4313841664	44	4329
2026-01-08 14:34:07.50	340.17	17.47	-37.6	-38.6	21.0	0.00e+00	0	43	0	4320133120	44	4317
2026-01-08 14:34:08.65	340.20	17.33	-37.6	-38.6	21.0	0.00e+00	0	43	0	4328521728	44	4316
2026-01-08 14:34:09.85	340.23	17.19	-37.7	-38.7	20.9	0.00e+00	0	43	0	4336910336	44	4345
2026-01-08 14:34:10.71	340.25	17.09	-37.7	-38.7	20.9	0.00e+00	0	44	0	4343201792	44	4356
2026-01-08 14:34:11.86	340.28	16.96	-37.8	-38.8	20.8	0.00e+00	0	43	0	4351590400	44	4392
2026-01-08 14:34:12.71	340.30	16.86	-37.7	-38.7	20.8	0.00e+00	0	44	0	4357881856	45	4121
2026-01-08 14:34:13.86	340.32	16.73	-37.7	-38.7	20.9	0.00e+00	0	43	0	4366270464	45	4101
2026-01-08 14:34:14.72	340.34	16.64	-37.6	-38.6	21.0	0.00e+00	0	43	0	4372561920	45	4052
2026-01-08 14:34:15.86	340.37	16.51	-37.7	-38.7	20.9	0.00e+00	0	43	0	4380950528	45	4106
2026-01-08 14:34:16.72	340.39	16.41	-37.7	-38.6	20.8	0.00e+00	0	43	0	4386193408	45	4095
2026-01-08 14:34:17.93	340.42	16.28	-37.8	-38.7	20.8	0.00e+00	0	44	0	4395630592	45	4144
2026-01-08 14:34:18.79	340.44	16.18	-37.8	-38.7	20.8	0.00e+00	0	44	0	4400873472	45	4145
2026-01-08 14:34:20.00	340.46	16.05	-37.7	-38.7	20.9	0.00e+00	0	43	0	4410310656	45	4105
2026-01-08 14:34:20.86	340.48	15.95	-37.8	-38.8	20.7	0.00e+00	0	44	0	4416602112	45	4179
2026-01-08 14:34:22.01	340.51	15.83	-37.8	-38.8	20.7	0.00e+00	0	44	0	4424990720	45	4185
2026-01-08 14:34:22.87	340.53	15.73	-37.8	-38.8	20.8	0.00e+00	0	44	0	4431282176	45	4170
2026-01-08 14:34:24.14	340.55	15.59	-37.9	-38.9	20.6	0.00e+00	0	44	0	4439670784	45	4234
2026-01-08 14:34:24.86	340.57	15.52	-37.8	-38.9	20.6	0.00e+00	0	44	0	4444913664	45	4195
2026-01-08 14:34:26.15	340.60	15.38	-37.9	-38.9	20.6	0.00e+00	0	44	0	4454350848	45	4227
2026-01-08 14:34:26.86	340.61	15.30	-38.0	-39.1	20.5	0.00e+00	0	44	0	4459593728	45	4309
2026-01-08 14:34:28.15	340.64	15.16	-38.0	-39.1	20.4	0.00e+00	0	44	0	4469030912	45	4296
2026-01-08 14:34:28.88	340.66	15.08	-38.0	-39.1	20.5	0.00e+00	0	43	0	4474273792	45	4309
2026-01-08 14:34:30.17	340.68	14.95	-38.1	-39.2	20.4	0.00e+00	0	43	0	4483710976	45	4341
2026-01-08 14:34:30.98	340.70	14.86	-38.1	-39.2	20.4	0.00e+00	0	43	0	4488953856	45	4342
2026-01-08 14:34:32.13	340.72	14.74	-38.2	-39.2	20.4	0.00e+00	0	43	0	4497342464	45	4353
2026-01-08 14:34:32.99	340.74	14.65	-38.3	-39.3	20.3	0.00e+00	0	43	0	4503633920	46	4169
2026-01-08 14:34:34.14	340.77	14.53	-38.3	-39.3	20.2	0.00e+00	0	43	0	4512022528	46	4169
2026-01-08 14:34:35.34	340.79	14.41	-38.3	-39.4	20.2	0.00e+00	0	44	0	4520411136	46	4194
2026-01-08 14:34:36.37	340.81	14.30	-38.4	-39.5	20.1	0.00e+00	0	44	0	4528799744	46	4257
2026-01-08 14:34:37.36	340.83	14.20	-38.5	-39.5	20.0	0.00e+00	0	43	0	4536139776	46	4288
2026-01-08 14:34:38.37	340.85	14.10	-38.5	-39.5	20.0	0.00e+00	0	44	0	4542431232	46	4276
2026-01-08 14:34:39.37	340.87	14.00	-38.6	-39.7	19.9	0.00e+00	0	44	0	4549771264	46	4357
2026-01-08 14:34:40.38	340.89	13.89	-38.5	-39.6	20.0	0.00e+00	0	43	0	4557111296	46	4312
2026-01-08 14:34:41.38	340.91	13.79	-38.6	-39.6	19.9	0.00e+00	0	43	0	4564451328	46	4339
2026-01-08 14:34:42.39	340.93	13.69	-38.6	-39.7	19.8	0.00e+00	0	44	0	4571791360	46	4388
2026-01-08 14:34:43.39	340.95	13.59	-38.8	-39.9	19.7	0.00e+00	0	43	0	4579131392	46	4456
2026-01-08 14:34:44.39	340.97	13.49	-38.6	-39.7	19.8	0.00e+00	0	44	0	4586471424	46	4378
2026-01-08 14:34:45.40	340.99	13.39	-38.8	-40.0	19.6	0.00e+00	0	43	0	4593811456	46	4494
2026-01-08 14:34:46.40	341.01	13.29	-38.7	-39.9	19.7	0.00e+00	0	43	0	4601151488	47	4203
2026-01-08 14:34:47.45	341.03	13.19	-38.7	-39.9	19.6	0.00e+00	0	44	0	4608491520	47	4217
2026-01-08 14:34:48.37	341.05	13.10	-38.7	-39.9	19.6	0.00e+00	0	44	0	4614782976	47	4242
2026-01-08 14:34:49.38	341.07	13.00	-38.8	-40.0	19.6	0.00e+00	0	43	0	4622123008	47	4268
2026-01-08 14:34:50.38	341.09	12.90	-38.8	-40.0	19.5	0.00e+00	0	43	0	4629463040	47	4260
2026-01-08 14:34:51.38	341.11	12.81	-38.9	-40.1	19.4	0.00e+00	0	44	0	4636803072	47	4326
2026-01-08 14:34:52.38	341.12	12.71	-38.9	-40.1	19.4	0.00e+00	0	43	0	4644143104	47	4338
2026-01-08 14:34:53.39	341.14	12.61	-39.0	-40.2	19.4	0.00e+00	0	43	0	4651483136	47	4345
2026-01-08 14:34:54.39	341.16	12.52	-39.1	-40.3	19.2	0.00e+00	0	43	0	4658823168	47	4407
2026-01-08 14:34:55.39	341.18	12.42	-39.1	-40.3	19.2	0.00e+00	0	43	0	4665114624	47	4411
2026-01-08 14:34:56.40	341.20	12.33	-39.0	-40.1	19.4	0.00e+00	0	44	0	4672454656	47	4330
2026-01-08 14:34:57.40	341.22	12.23	-39.1	-40.3	19.2	0.00e+00	0	43	0	4680843264	47	4394
2026-01-08 14:34:58.40	341.23	12.14	-39.1	-40.3	19.2	0.00e+00	0	44	0	4687134720	47	4396
2026-01-08 14:34:59.40	341.25	12.04	-39.3	-40.5	19.1	0.00e+00	0	44	0	4694474752	47	4505
2026-01-08 14:35:00.41	341.27	11.95	-39.0	-40.2	19.3	0.00e+00	0	43	0	4701814784	47	4380
2026-01-08 14:35:01.47	341.29	11.85	-38.9	-40.1	19.4	0.00e+00	0	44	0	4709154816	47	4330
2026-01-08 14:35:02.36	341.31	11.77	-39.0	-40.3	19.3	0.00e+00	0	44	0	4716494848	47	4399
2026-01-08 14:35:03.50	341.33	11.66	-39.1	-40.3	19.2	0.00e+00	0	44	0	4724883456	47	4412
2026-01-08 14:35:04.42	341.34	11.58	-39.1	-40.4	19.1	0.00e+00	0	43	0	4731174912	47	4445
2026-01-08 14:35:05.43	341.36	11.49	-39.2	-40.4	19.1	0.00e+00	0	43	0	4738514944	47	4468
2026-01-08 14:35:06.43	341.38	11.39	-39.5	-40.7	19.1	0.00e+00	0	43	0	4744806400	48	4378
2026-01-08 14:35:07.43	341.39	11.30	-39.4	-40.6	19.2	0.00e+00	0	44	0	4752146432	48	4309
2026-01-08 14:35:08.44	341.41	11.21	-39.3	-40.5	19.2	0.00e+00	0	43	0	4759486464	48	4277
2026-01-08 14:35:09.44	341.43	11.12	-39.4	-40.5	19.2	0.00e+00	0	44	0	4766826496	48	4289
