passes_logs/2026/01/08/T1/T1__20260108_213834_NOAA_21_JPSS-2_rec.log

#Pass ID: 20260108_213834_NOAA 21 (JPSS-2)
#Satellite: NOAA 21 (JPSS-2)
#Configuration: NOAA 21
#almurnet v.1.7.20251203
#Start time: 2026-01-08 21:38:35

#Version: 2.0.20230620
#Station: T1
#Location: 37.570604 lon 55.790049 lat
#TLE: 1 54234U 22150A   26008.45757862  .00000119  00000+0  77172-4 0  9996
#TLE: 2 54234  98.7494 309.4367 0000894 328.2777  31.8345 14.19533328163889

#Time	Az	El	Level	Level2	SNR	BER	BlckErr	Temp	State	Recorded	gain1	gain2
2026-01-08 21:38:35.55	37.80	5.05	-48.4	-61.6	3.8	1.49e+00	0	36	0	0	67	17327
2026-01-08 21:38:36.55	37.92	5.10	-48.4	-61.6	3.8	1.49e+00	0	37	104	0	67	17349
2026-01-08 21:38:37.55	38.03	5.14	-48.4	-61.6	3.8	1.49e+00	0	37	104	0	67	17319
2026-01-08 21:38:38.56	38.15	5.19	-48.4	-61.6	3.8	1.49e+00	0	37	104	0	67	17295
2026-01-08 21:38:39.56	38.27	5.24	-48.4	-61.6	3.8	1.49e+00	0	37	104	0	67	17330
2026-01-08 21:38:40.56	38.39	5.28	-48.4	-61.5	3.8	1.49e+00	0	37	104	0	67	17209
2026-01-08 21:38:41.57	38.51	5.33	-48.4	-61.6	3.8	1.49e+00	0	37	104	0	67	17364
2026-01-08 21:38:42.57	38.62	5.37	-48.0	-61.5	3.8	1.49e+00	0	37	104	0	67	17267
2026-01-08 21:38:43.58	38.74	5.42	-48.4	-61.5	3.8	1.49e+00	0	37	104	0	67	17255
2026-01-08 21:38:44.58	38.86	5.46	-47.9	-61.7	3.8	1.49e+00	0	37	104	0	67	17613
2026-01-08 21:38:45.59	38.98	5.51	-48.4	-61.5	3.8	1.49e+00	0	37	104	0	67	17271
2026-01-08 21:38:46.59	39.10	5.56	-48.4	-61.6	3.8	1.49e+00	0	37	104	0	67	17328
2026-01-08 21:38:47.59	39.22	5.60	-48.4	-61.6	3.8	1.49e+00	0	37	104	0	67	17304
2026-01-08 21:38:48.60	39.34	5.65	-48.9	-61.9	3.7	1.49e+00	0	37	104	0	67	18076
2026-01-08 21:38:49.60	39.46	5.69	-48.4	-61.5	3.8	1.49e+00	0	37	104	0	67	17245
2026-01-08 21:38:50.61	39.59	5.74	-48.4	-61.5	3.8	1.49e+00	0	37	104	0	67	17223
2026-01-08 21:38:51.61	39.71	5.78	-48.4	-61.5	3.8	1.49e+00	0	37	104	0	67	17145
2026-01-08 21:38:52.62	39.83	5.83	-48.4	-61.5	3.8	1.49e+00	0	37	104	0	67	17179
2026-01-08 21:38:53.62	39.95	5.87	-48.4	-61.6	3.8	1.49e+00	0	37	104	0	67	17307
2026-01-08 21:38:54.62	40.07	5.92	-48.4	-61.5	3.8	1.49e+00	0	38	104	0	67	17180
2026-01-08 21:38:55.63	40.20	5.97	-48.4	-61.5	3.8	1.49e+00	0	37	104	0	67	17191
2026-01-08 21:38:56.63	40.32	6.01	-48.4	-61.5	3.8	1.49e+00	0	37	104	0	67	17213
2026-01-08 21:38:57.64	40.45	6.06	-48.2	-61.5	3.8	1.49e+00	0	37	104	0	67	17213
2026-01-08 21:38:58.64	40.57	6.10	-48.4	-61.5	3.8	1.49e+00	0	37	104	0	67	17276
2026-01-08 21:38:59.65	40.69	6.15	-48.4	-61.5	3.8	1.49e+00	0	37	104	0	67	17215
2026-01-08 21:39:00.61	40.81	6.19	-48.4	-61.6	3.8	1.49e+00	0	38	104	0	67	17354
2026-01-08 21:39:01.61	40.94	6.24	-48.4	-61.6	3.8	1.49e+00	0	37	104	0	67	17390
2026-01-08 21:39:02.62	41.07	6.28	-48.4	-61.5	3.8	1.49e+00	0	38	104	0	67	17251
2026-01-08 21:39:03.62	41.19	6.33	-48.4	-61.6	3.8	1.49e+00	0	37	104	0	67	17286
2026-01-08 21:39:04.63	41.32	6.37	-48.4	-61.5	3.8	1.49e+00	0	38	104	0	67	17190
2026-01-08 21:39:05.63	41.45	6.42	-48.3	-61.5	3.8	1.49e+00	0	38	104	0	67	17274
2026-01-08 21:39:06.64	41.57	6.46	-48.4	-61.5	3.8	1.49e+00	0	38	104	0	67	17206
2026-01-08 21:39:07.64	41.70	6.51	-48.4	-61.6	3.8	1.49e+00	0	38	104	0	67	17330
2026-01-08 21:39:08.65	41.83	6.55	-48.4	-61.6	3.8	1.49e+00	0	38	104	0	67	17362
2026-01-08 21:39:09.65	41.96	6.60	-48.4	-61.5	3.8	1.49e+00	0	38	104	0	67	17263
2026-01-08 21:39:10.66	42.09	6.64	-48.3	-61.5	3.8	1.49e+00	0	38	104	0	67	17248
2026-01-08 21:39:11.66	42.22	6.69	-48.4	-61.5	3.8	1.49e+00	0	38	104	0	67	17268
2026-01-08 21:39:12.66	42.34	6.73	-48.3	-61.5	3.8	1.49e+00	0	38	104	0	67	17200
2026-01-08 21:39:13.67	42.48	6.78	-48.4	-61.5	3.8	1.49e+00	0	38	104	0	67	17225
2026-01-08 21:39:14.67	42.61	6.82	-48.4	-61.5	3.8	1.49e+00	0	38	104	0	67	17226
2026-01-08 21:39:15.68	42.74	6.87	-48.4	-61.5	3.8	1.49e+00	0	38	104	0	67	17205
2026-01-08 21:39:16.68	42.87	6.91	-48.3	-61.5	3.8	1.49e+00	0	38	104	0	67	17275
2026-01-08 21:39:17.68	43.00	6.95	-48.4	-61.5	3.8	1.49e+00	0	38	104	0	67	17243
2026-01-08 21:39:18.69	43.13	7.00	-48.4	-61.5	3.8	1.49e+00	0	38	104	0	67	17237
2026-01-08 21:39:19.69	43.26	7.04	-48.4	-61.5	3.8	1.49e+00	0	38	104	0	67	17226
2026-01-08 21:39:20.70	43.40	7.09	-48.4	-61.5	3.9	1.49e+00	0	38	104	0	67	17262
2026-01-08 21:39:21.70	43.53	7.13	-48.4	-61.5	3.8	1.49e+00	0	38	104	0	67	17199
2026-01-08 21:39:22.70	43.66	7.18	-48.4	-61.5	3.8	1.49e+00	0	38	104	0	67	17206
2026-01-08 21:39:23.71	43.80	7.22	-48.4	-61.5	3.8	1.49e+00	0	38	104	0	67	17225
2026-01-08 21:39:24.71	43.93	7.27	-48.4	-61.5	3.8	1.49e+00	0	38	104	0	67	17269
2026-01-08 21:39:25.72	44.07	7.31	-48.4	-61.5	3.8	1.49e+00	0	38	104	0	67	17269
2026-01-08 21:39:26.72	44.20	7.35	-48.4	-61.5	3.8	1.49e+00	0	38	104	0	67	17264
2026-01-08 21:39:27.72	44.34	7.40	-48.4	-61.5	3.8	1.49e+00	0	38	104	0	67	17247
2026-01-08 21:39:28.73	44.47	7.44	-48.4	-61.5	3.8	1.49e+00	0	38	104	0	67	17266
2026-01-08 21:39:29.73	44.61	7.49	-48.4	-61.5	3.8	1.49e+00	0	38	104	0	67	17223
2026-01-08 21:39:30.74	44.75	7.53	-48.4	-61.6	3.8	1.49e+00	0	38	104	0	67	17336
2026-01-08 21:39:31.74	44.88	7.57	-47.2	-61.1	3.8	1.49e+00	0	38	104	0	66	17378
2026-01-08 21:39:32.74	45.02	7.62	-48.4	-61.6	3.8	1.49e+00	0	38	104	0	67	17284
2026-01-08 21:39:33.75	45.16	7.66	-48.4	-61.5	3.8	1.49e+00	0	38	104	0	67	17277
2026-01-08 21:39:34.75	45.29	7.71	-48.4	-61.6	3.8	1.49e+00	0	38	104	0	67	17291
2026-01-08 21:39:35.76	45.43	7.75	-48.4	-61.5	3.9	1.49e+00	0	39	104	0	67	17231
2026-01-08 21:39:36.76	45.57	7.79	-48.3	-61.5	3.8	1.49e+00	0	38	104	0	67	17155
2026-01-08 21:39:37.77	45.71	7.84	-48.4	-61.5	3.8	1.49e+00	0	38	104	0	67	17139
2026-01-08 21:39:38.77	45.85	7.88	-48.4	-61.5	3.8	1.49e+00	0	38	104	0	67	17134
2026-01-08 21:39:39.77	45.99	7.92	-48.4	-61.5	3.8	1.49e+00	0	39	104	0	67	17140
2026-01-08 21:39:40.78	46.13	7.97	-48.4	-61.5	3.8	1.49e+00	0	38	104	0	67	17126
2026-01-08 21:39:41.78	46.27	8.01	-48.4	-61.4	3.8	1.49e+00	0	38	104	0	67	17042
2026-01-08 21:39:42.79	46.42	8.05	-48.4	-61.4	3.8	1.49e+00	0	39	104	0	67	17031
2026-01-08 21:39:43.79	46.56	8.09	-48.4	-61.4	3.8	1.49e+00	0	38	104	0	67	17012
2026-01-08 21:39:44.80	46.70	8.14	-48.2	-61.4	3.8	1.49e+00	0	39	104	0	67	16995
2026-01-08 21:39:45.80	46.84	8.18	-48.4	-61.4	3.8	1.49e+00	0	39	104	0	67	17075
2026-01-08 21:39:46.81	46.99	8.22	-48.1	-61.5	3.8	1.49e+00	0	38	104	0	67	17087
2026-01-08 21:39:47.81	47.13	8.27	-48.4	-61.4	3.8	1.49e+00	0	39	104	0	67	17030
2026-01-08 21:39:48.81	47.27	8.31	-48.2	-61.4	3.8	1.49e+00	0	39	104	0	67	16935
2026-01-08 21:39:49.82	47.42	8.35	-48.4	-61.3	3.8	1.49e+00	0	39	104	0	67	16777
2026-01-08 21:39:50.82	47.56	8.39	-44.8	-61.5	3.8	1.49e+00	0	38	104	0	65	19264
2026-01-08 21:39:51.83	47.71	8.44	-48.4	-61.3	3.8	1.49e+00	0	39	104	0	67	16855
2026-01-08 21:39:52.83	47.85	8.48	-48.0	-61.5	3.8	1.49e+00	0	39	104	0	67	17097
2026-01-08 21:39:53.84	48.00	8.52	-48.4	-61.5	3.8	1.49e+00	0	38	104	0	67	17141
2026-01-08 21:39:54.84	48.15	8.56	-48.3	-61.5	3.8	1.49e+00	0	39	104	0	67	17085
2026-01-08 21:39:55.84	48.29	8.61	-48.1	-61.4	3.8	1.49e+00	0	39	104	0	67	16915
2026-01-08 21:39:56.85	48.44	8.65	-48.4	-61.1	3.8	1.49e+00	0	39	104	0	67	16488
2026-01-08 21:39:57.85	48.59	8.69	-48.4	-60.9	3.8	1.49e+00	0	39	104	0	67	16013
2026-01-08 21:39:58.86	48.74	8.73	-48.3	-60.5	3.8	1.49e+00	0	39	104	0	67	15377
2026-01-08 21:39:59.86	48.88	8.77	-48.3	-60.5	3.8	1.49e+00	0	39	104	0	67	15377
2026-01-08 21:40:00.86	49.03	8.81	-48.3	-60.3	3.8	1.49e+00	0	39	104	0	67	14981
2026-01-08 21:40:01.87	49.18	8.86	-48.3	-60.7	3.8	1.49e+00	0	39	104	0	67	15619
2026-01-08 21:40:02.87	49.33	8.90	-48.4	-60.7	3.8	1.49e+00	0	39	104	0	67	15623
2026-01-08 21:40:03.88	49.48	8.94	-48.1	-59.7	3.8	1.49e+00	0	39	104	0	67	13994
2026-01-08 21:40:04.88	49.63	8.98	-48.0	-57.6	4.3	1.47e+00	0	39	104	0	67	10995
2026-01-08 21:40:05.89	49.78	9.02	-47.6	-55.5	5.2	1.02e+00	0	39	0	0	65	9675
2026-01-08 21:40:06.89	49.94	9.06	-46.2	-50.6	10.0	2.80e-03	0	39	0	0	63	6158
2026-01-08 21:40:07.89	50.09	9.10	-48.4	-61.3	3.8	8.57e-01	0	39	104	0	67	16870
2026-01-08 21:40:08.90	50.24	9.14	-46.0	-50.3	9.9	7.38e-01	0	39	104	0	64	5652
2026-01-08 21:40:09.90	50.39	9.18	-47.4	-54.2	6.4	1.88e-01	0	39	0	0	65	8288
2026-01-08 21:40:10.90	50.54	9.22	-43.9	-46.7	13.7	6.18e-03	0	39	0	0	59	4966
2026-01-08 21:40:11.91	50.70	9.26	-43.6	-46.3	14.2	0.00e+00	0	39	0	0	57	5310
2026-01-08 21:40:12.91	50.85	9.30	-43.1	-45.7	14.8	0.00e+00	0	39	0	0	57	4963
2026-01-08 21:40:13.91	51.00	9.34	-43.1	-45.7	14.8	0.00e+00	0	39	0	0	57	4965
2026-01-08 21:40:14.91	51.16	9.38	-42.9	-45.5	15.1	0.00e+00	0	39	0	0	57	4822
2026-01-08 21:40:15.93	51.32	9.43	-43.2	-45.8	14.8	0.00e+00	0	39	0	0	57	5014
2026-01-08 21:40:16.93	51.47	9.47	-43.2	-46.1	14.4	0.00e+00	0	39	0	0	57	5210
2026-01-08 21:40:17.94	51.63	9.51	-43.4	-46.0	14.5	1.50e-06	0	39	0	0	58	4861
2026-01-08 21:40:18.94	51.78	9.54	-43.2	-45.8	14.7	0.00e+00	0	39	0	0	57	5018
2026-01-08 21:40:19.94	51.94	9.58	-43.3	-46.0	14.6	7.00e-07	0	39	0	0	57	5126
2026-01-08 21:40:20.95	52.10	9.62	-42.9	-45.5	15.1	0.00e+00	0	39	0	0	57	4818
2026-01-08 21:40:21.95	52.25	9.66	-43.1	-45.6	14.9	0.00e+00	0	39	0	0	57	4914
2026-01-08 21:40:22.95	52.41	9.70	-43.1	-45.7	14.8	0.00e+00	0	39	0	0	57	4961
2026-01-08 21:40:23.96	52.57	9.74	-42.7	-45.2	15.4	0.00e+00	0	39	0	0	57	4666
2026-01-08 21:40:24.96	52.73	9.78	-42.9	-45.4	15.2	0.00e+00	0	39	0	0	56	5049
2026-01-08 21:40:25.96	52.89	9.82	-42.8	-45.3	15.3	0.00e+00	0	39	0	0	56	4990
2026-01-08 21:40:26.96	53.05	9.86	-42.5	-44.9	15.5	0.00e+00	0	39	0	0	55	5047
2026-01-08 21:40:27.97	53.21	9.90	-42.4	-44.8	15.5	0.00e+00	0	39	0	0	55	5037
2026-01-08 21:40:28.97	53.37	9.93	-42.3	-44.7	15.7	0.00e+00	0	39	0	0	55	4968
2026-01-08 21:40:29.97	53.53	9.97	-42.4	-44.8	15.6	0.00e+00	0	39	0	0	55	5017
2026-01-08 21:40:30.97	53.69	10.01	-42.5	-44.9	15.5	0.00e+00	0	39	0	0	55	5046
2026-01-08 21:40:31.97	53.85	10.05	-42.3	-44.7	15.7	0.00e+00	0	39	0	0	55	4955
2026-01-08 21:40:32.98	54.01	10.09	-42.4	-44.8	15.7	0.00e+00	0	39	0	0	55	4994
2026-01-08 21:40:33.98	54.17	10.12	-42.3	-44.7	15.7	0.00e+00	0	39	0	0	55	4942
2026-01-08 21:40:34.98	54.34	10.16	-42.2	-44.5	15.9	0.00e+00	0	39	0	0	55	4839
2026-01-08 21:40:35.99	54.50	10.20	-42.2	-44.5	15.9	0.00e+00	0	39	0	0	55	4854
2026-01-08 21:40:36.99	54.66	10.23	-42.3	-44.6	15.8	0.00e+00	0	39	0	0	55	4911
2026-01-08 21:40:37.99	54.83	10.27	-42.0	-44.4	16.0	0.00e+00	0	39	0	0	55	4807
2026-01-08 21:40:39.00	54.99	10.31	-42.2	-44.5	15.9	0.00e+00	0	39	0	0	55	4858
2026-01-08 21:40:40.00	55.16	10.35	-42.2	-44.5	15.9	0.00e+00	0	39	0	0	55	4831
2026-01-08 21:40:41.01	55.32	10.38	-42.3	-44.6	15.8	0.00e+00	0	39	0	0	55	4891
2026-01-08 21:40:42.01	55.49	10.42	-42.2	-44.5	15.9	0.00e+00	0	39	0	0	55	4844
2026-01-08 21:40:43.01	55.65	10.45	-42.1	-44.4	16.0	0.00e+00	0	39	0	0	55	4812
2026-01-08 21:40:44.02	55.82	10.49	-42.2	-44.5	16.0	0.00e+00	0	39	0	0	55	4844
2026-01-08 21:40:45.02	55.99	10.53	-42.1	-44.4	16.1	0.00e+00	0	39	0	0	55	4779
2026-01-08 21:40:46.02	56.15	10.56	-42.0	-44.3	16.1	0.00e+00	0	39	0	0	54	5037
2026-01-08 21:40:47.03	56.32	10.60	-42.2	-44.5	15.9	0.00e+00	0	39	0	0	55	4844
2026-01-08 21:40:48.03	56.49	10.63	-42.0	-44.3	16.2	0.00e+00	0	39	0	0	55	4724
2026-01-08 21:40:49.03	56.66	10.67	-42.1	-44.4	16.1	0.00e+00	0	39	0	0	55	4786
2026-01-08 21:40:50.04	56.83	10.70	-42.0	-44.3	16.2	0.00e+00	0	39	0	0	55	4729
2026-01-08 21:40:51.04	57.00	10.74	-42.1	-44.4	16.1	0.00e+00	0	39	0	0	55	4771
2026-01-08 21:40:52.04	57.17	10.77	-42.2	-44.5	15.9	0.00e+00	0	39	0	0	55	4850
2026-01-08 21:40:53.05	57.34	10.81	-42.1	-44.4	16.0	0.00e+00	0	39	0	0	55	4791
2026-01-08 21:40:54.05	57.51	10.84	-42.1	-44.4	16.0	0.00e+00	0	39	0	0	55	4795
2026-01-08 21:40:55.05	57.68	10.88	-42.2	-44.5	15.9	0.00e+00	0	39	0	0	55	4848
2026-01-08 21:40:56.05	57.85	10.91	-42.1	-44.4	16.0	0.00e+00	0	39	0	0	55	4800
2026-01-08 21:40:57.06	58.02	10.95	-42.3	-44.7	15.8	0.00e+00	0	39	0	0	55	4942
2026-01-08 21:40:58.06	58.19	10.98	-42.3	-44.6	15.9	0.00e+00	0	39	0	0	55	4898
2026-01-08 21:40:59.07	58.36	11.01	-42.2	-44.5	16.0	0.00e+00	0	39	0	0	55	4830
2026-01-08 21:41:00.07	58.54	11.05	-42.1	-44.5	16.0	0.00e+00	0	39	0	0	55	4827
2026-01-08 21:41:01.06	58.71	11.08	-42.2	-44.5	15.9	0.00e+00	0	39	0	0	55	4866
2026-01-08 21:41:02.07	58.88	11.11	-42.2	-44.5	16.0	0.00e+00	0	39	0	0	55	4828
2026-01-08 21:41:03.07	59.05	11.14	-42.1	-44.4	16.1	0.00e+00	0	39	0	0	55	4791
2026-01-08 21:41:04.07	59.23	11.18	-42.1	-44.4	16.1	0.00e+00	0	39	0	0	55	4804
2026-01-08 21:41:05.08	59.40	11.21	-42.2	-44.5	16.0	0.00e+00	0	39	0	0	55	4839
2026-01-08 21:41:06.08	59.58	11.24	-42.2	-44.5	16.0	0.00e+00	0	39	0	0	55	4842
2026-01-08 21:41:07.08	59.75	11.27	-42.3	-44.6	15.9	0.00e+00	0	39	0	0	55	4878
2026-01-08 21:41:08.09	59.93	11.31	-42.1	-44.4	16.2	0.00e+00	0	39	0	0	55	4764
2026-01-08 21:41:09.09	60.11	11.34	-42.1	-44.4	16.1	0.00e+00	0	39	0	0	55	4791
2026-01-08 21:41:10.17	60.30	11.37	-42.1	-44.4	16.1	0.00e+00	0	39	0	0	55	4802
2026-01-08 21:41:11.03	60.45	11.40	-42.2	-44.5	16.0	0.00e+00	0	39	0	0	55	4836
2026-01-08 21:41:12.18	60.65	11.43	-42.1	-44.4	16.1	0.00e+00	0	39	0	0	54	5072
2026-01-08 21:41:13.04	60.80	11.46	-42.0	-44.3	16.2	0.00e+00	0	39	0	0	54	5010
2026-01-08 21:41:14.19	61.01	11.50	-42.0	-44.3	16.2	0.00e+00	0	39	0	0	54	4990
2026-01-08 21:41:15.05	61.16	11.52	-42.0	-44.3	16.2	0.00e+00	0	39	0	0	54	5013
2026-01-08 21:41:16.19	61.36	11.56	-42.0	-44.3	16.2	0.00e+00	0	39	0	0	54	5013
2026-01-08 21:41:17.05	61.52	11.58	-42.0	-44.3	16.2	0.00e+00	0	39	0	0	54	5029
2026-01-08 21:41:18.20	61.72	11.62	-42.3	-44.6	16.0	0.00e+00	0	39	0	0	55	4885
2026-01-08 21:41:19.06	61.88	11.64	-42.1	-44.4	16.1	0.00e+00	0	39	0	0	55	4764
2026-01-08 21:41:20.28	62.09	11.68	-42.0	-44.2	16.3	0.00e+00	0	39	0	0	55	4679
2026-01-08 21:41:21.14	62.25	11.70	-41.9	-44.1	16.4	0.00e+00	0	39	0	0	55	4641
2026-01-08 21:41:22.29	62.46	11.74	-41.9	-44.1	16.4	0.00e+00	0	39	0	0	54	4902
2026-01-08 21:41:23.15	62.61	11.76	-41.9	-44.2	16.3	0.00e+00	0	39	0	0	54	4937
2026-01-08 21:41:24.43	62.84	11.80	-42.0	-44.3	16.2	0.00e+00	0	39	0	0	54	5005
2026-01-08 21:41:25.14	62.97	11.82	-42.1	-44.4	16.2	0.00e+00	0	39	0	0	54	5058
2026-01-08 21:41:26.64	63.24	11.86	-41.9	-44.2	16.4	0.00e+00	0	39	0	0	54	4946
2026-01-08 21:41:27.36	63.38	11.88	-41.8	-44.1	16.4	0.00e+00	0	39	0	0	54	4887
2026-01-08 21:41:28.65	63.61	11.91	-41.9	-44.2	16.4	0.00e+00	0	39	0	0	54	4940
2026-01-08 21:41:29.72	63.81	11.94	-41.8	-44.0	16.5	0.00e+00	0	39	0	0	54	4870
2026-01-08 21:41:30.57	63.96	11.96	-41.8	-44.0	16.5	0.00e+00	0	40	0	0	54	4850
2026-01-08 21:41:31.71	64.17	12.00	-42.0	-44.2	16.3	0.00e+00	0	39	0	0	54	4973
2026-01-08 21:41:32.57	64.33	12.02	-41.7	-44.4	16.2	0.00e+00	0	39	0	0	54	5070
2026-01-08 21:41:33.72	64.54	12.05	-42.0	-44.3	16.3	0.00e+00	0	39	0	0	55	4748
2026-01-08 21:41:34.58	64.70	12.07	-42.0	-44.3	16.3	0.00e+00	0	39	0	0	55	4733
2026-01-08 21:41:35.72	64.91	12.10	-42.1	-44.3	16.3	0.00e+00	0	39	0	0	54	5013
2026-01-08 21:41:36.58	65.07	12.12	-42.1	-44.3	16.3	0.00e+00	0	39	0	0	54	5036
2026-01-08 21:41:37.73	65.28	12.15	-41.9	-44.1	16.4	0.00e+00	0	40	0	0	55	4644
2026-01-08 21:41:38.59	65.44	12.17	-41.9	-44.1	16.5	0.00e+00	0	39	0	0	54	4886
2026-01-08 21:41:39.73	65.65	12.20	-41.8	-44.0	16.6	0.00e+00	0	39	0	0	54	4815
2026-01-08 21:41:40.60	65.82	12.22	-41.8	-44.0	16.5	0.00e+00	0	39	0	0	54	4864
2026-01-08 21:41:41.74	66.03	12.25	-41.9	-44.1	16.4	0.00e+00	0	39	0	0	54	4898
2026-01-08 21:41:42.61	66.19	12.27	-41.9	-44.1	16.4	0.00e+00	0	39	0	0	54	4913
2026-01-08 21:41:43.75	66.40	12.30	-41.9	-44.2	16.4	0.00e+00	0	39	0	0	54	4931
2026-01-08 21:41:44.61	66.56	12.32	-41.9	-44.1	16.4	0.00e+00	0	39	0	0	54	4905
2026-01-08 21:41:45.76	66.78	12.34	-41.9	-44.2	16.4	0.00e+00	0	39	0	0	54	4932
2026-01-08 21:41:46.62	66.94	12.36	-41.9	-44.1	16.4	0.00e+00	0	39	0	0	54	4905
2026-01-08 21:41:47.77	67.16	12.39	-41.8	-44.0	16.6	0.00e+00	0	39	0	0	54	4853
2026-01-08 21:41:48.63	67.32	12.41	-41.6	-43.8	16.8	0.00e+00	0	39	0	0	54	4715
2026-01-08 21:41:49.88	67.56	12.44	-41.9	-44.1	16.5	0.00e+00	0	40	0	0	54	4905
2026-01-08 21:41:50.62	67.70	12.45	-41.7	-43.9	16.8	0.00e+00	0	39	0	0	54	4762
2026-01-08 21:41:52.13	67.98	12.49	-41.7	-43.9	16.7	0.00e+00	0	40	0	0	54	4761
2026-01-08 21:41:52.84	68.12	12.50	-41.8	-44.0	16.6	0.00e+00	0	39	0	0	54	4853
2026-01-08 21:41:54.14	68.37	12.53	-41.8	-44.0	16.6	0.00e+00	0	39	0	0	54	4835
2026-01-08 21:41:54.85	68.50	12.54	-41.9	-44.1	16.4	0.00e+00	0	39	0	0	54	4914
2026-01-08 21:41:56.14	68.75	12.57	-41.9	-44.2	16.3	0.00e+00	0	39	0	0	54	4953
2026-01-08 21:41:56.86	68.88	12.59	-42.0	-44.3	16.3	0.00e+00	0	39	0	0	54	4990
2026-01-08 21:41:58.15	69.13	12.61	-41.9	-44.2	16.4	0.00e+00	0	40	0	0	54	4932
2026-01-08 21:41:58.86	69.27	12.62	-42.0	-44.2	16.3	0.00e+00	0	39	0	0	54	4979
2026-01-08 21:42:00.15	69.51	12.65	-41.8	-44.0	16.5	0.00e+00	0	39	0	0	54	4845
2026-01-08 21:42:00.96	69.67	12.67	-41.8	-44.0	16.6	0.00e+00	0	39	0	0	54	4835
2026-01-08 21:42:02.11	69.89	12.69	-41.7	-43.8	16.7	0.00e+00	0	40	0	0	54	4754
2026-01-08 21:42:03.20	70.10	12.71	-41.6	-43.7	16.8	0.00e+00	0	40	0	0	54	4675
2026-01-08 21:42:04.06	70.27	12.72	-41.5	-43.7	16.9	0.00e+00	0	40	0	0	54	4655
2026-01-08 21:42:05.60	70.56	12.75	-41.6	-43.7	16.8	0.00e+00	0	39	0	0	53	4968
2026-01-08 21:42:06.31	70.70	12.76	-41.7	-43.8	16.7	0.00e+00	0	39	0	0	54	4736
2026-01-08 21:42:07.60	70.95	12.79	-41.6	-43.8	16.8	0.00e+00	0	39	0	0	54	4707
2026-01-08 21:42:08.32	71.09	12.80	-41.7	-43.8	16.7	0.00e+00	0	40	0	0	54	4757
2026-01-08 21:42:09.61	71.34	12.82	-41.7	-43.9	16.6	0.00e+00	0	40	0	0	54	4788
2026-01-08 21:42:10.32	71.48	12.83	-40.9	-44.0	16.6	0.00e+00	0	39	0	0	54	4838
2026-01-08 21:42:11.61	71.73	12.85	-41.9	-44.1	16.5	0.00e+00	0	40	0	0	54	4884
2026-01-08 21:42:12.43	71.89	12.87	-41.9	-44.1	16.4	0.00e+00	0	39	0	0	54	4912
2026-01-08 21:42:13.57	72.11	12.88	-42.0	-44.2	16.4	0.00e+00	0	39	0	0	54	4960
2026-01-08 21:42:14.43	72.28	12.90	-41.8	-44.0	16.6	0.00e+00	0	40	0	0	54	4825
2026-01-08 21:42:15.58	72.50	12.91	-41.9	-44.0	16.5	0.00e+00	0	40	0	0	54	4859
2026-01-08 21:42:16.44	72.67	12.93	-41.9	-44.1	16.5	0.00e+00	0	39	0	0	54	4887
2026-01-08 21:42:17.58	72.89	12.94	-41.9	-44.1	16.5	0.00e+00	0	39	0	0	54	4878
2026-01-08 21:42:18.44	73.06	12.96	-41.8	-43.9	16.7	0.00e+00	0	40	0	0	54	4811
2026-01-08 21:42:19.59	73.29	12.97	-41.7	-43.9	16.7	0.00e+00	0	39	0	0	54	4790
2026-01-08 21:42:20.45	73.45	12.98	-41.9	-44.1	16.4	0.00e+00	0	40	0	0	54	4880
2026-01-08 21:42:21.68	73.70	13.00	-41.9	-44.1	16.5	0.00e+00	0	39	0	0	54	4903
2026-01-08 21:42:22.54	73.86	13.01	-41.8	-44.0	16.6	0.00e+00	0	39	0	0	54	4836
2026-01-08 21:42:23.69	74.09	13.03	-41.5	-44.0	16.6	0.00e+00	0	39	0	0	54	4829
2026-01-08 21:42:24.55	74.26	13.04	-41.8	-44.0	16.7	0.00e+00	0	39	0	0	54	4828
2026-01-08 21:42:25.69	74.48	13.05	-41.8	-44.0	16.6	0.00e+00	0	39	0	0	54	4845
2026-01-08 21:42:26.63	74.67	13.06	-41.8	-43.9	16.7	0.00e+00	0	39	0	0	54	4798
2026-01-08 21:42:27.64	74.87	13.07	-41.7	-43.9	16.7	0.00e+00	0	40	0	0	54	4795
2026-01-08 21:42:28.84	75.11	13.09	-41.7	-43.8	16.8	0.00e+00	0	39	0	0	54	4750
2026-01-08 21:42:29.74	75.28	13.10	-41.6	-43.7	16.9	0.00e+00	0	40	0	0	54	4672
2026-01-08 21:42:30.98	75.53	13.11	-41.7	-43.8	16.7	0.00e+00	0	40	0	0	54	4749
2026-01-08 21:42:31.83	75.70	13.12	-41.6	-43.7	16.9	0.00e+00	0	39	0	0	54	4699
2026-01-08 21:42:32.98	75.92	13.13	-41.5	-43.7	16.9	0.00e+00	0	39	0	0	54	4673
2026-01-08 21:42:33.84	76.10	13.14	-41.5	-43.7	16.9	0.00e+00	0	40	0	0	54	4664
2026-01-08 21:42:34.98	76.32	13.15	-41.5	-43.6	17.0	0.00e+00	0	40	0	0	54	4639
2026-01-08 21:42:35.84	76.49	13.15	-41.5	-43.6	17.0	0.00e+00	0	40	0	0	54	4637
2026-01-08 21:42:36.99	76.72	13.16	-41.5	-43.7	16.9	0.00e+00	0	40	0	0	54	4670
2026-01-08 21:42:37.85	76.89	13.17	-41.5	-43.7	16.9	0.00e+00	0	40	0	0	54	4675
2026-01-08 21:42:39.00	77.12	13.18	-41.5	-43.6	17.0	0.00e+00	0	40	0	0	54	4650
2026-01-08 21:42:39.86	77.29	13.19	-41.6	-43.8	16.9	0.00e+00	0	39	0	0	54	4711
2026-01-08 21:42:41.00	77.52	13.20	-41.6	-43.8	16.8	0.00e+00	0	40	0	0	54	4729
2026-01-08 21:42:41.86	77.69	13.20	-41.6	-43.8	16.8	0.00e+00	0	40	0	0	54	4717
2026-01-08 21:42:43.01	77.92	13.21	-41.6	-43.8	16.8	0.00e+00	0	40	0	0	54	4730
2026-01-08 21:42:43.87	78.09	13.22	-41.7	-43.9	16.7	0.00e+00	0	40	0	0	54	4792
2026-01-08 21:42:45.02	78.32	13.22	-41.7	-43.8	16.8	0.00e+00	0	40	0	0	54	4746
2026-01-08 21:42:45.88	78.49	13.23	-41.7	-43.9	16.8	0.00e+00	0	40	0	0	54	4780
2026-01-08 21:42:47.02	78.72	13.23	-41.7	-43.9	16.8	0.00e+00	0	40	0	0	54	4772
2026-01-08 21:42:47.88	78.89	13.24	-41.6	-43.8	16.9	0.00e+00	0	40	0	0	54	4713
2026-01-08 21:42:49.03	79.12	13.24	-41.6	-43.7	16.9	0.00e+00	0	40	0	0	54	4691
2026-01-08 21:42:49.88	79.29	13.25	-41.6	-43.7	17.0	0.00e+00	0	40	0	0	54	4674
2026-01-08 21:42:51.03	79.52	13.25	-41.5	-43.7	17.0	0.00e+00	0	40	0	0	54	4654
2026-01-08 21:42:51.89	79.69	13.26	-41.5	-43.6	17.1	0.00e+00	0	40	0	0	54	4623
2026-01-08 21:42:53.04	79.92	13.26	-41.6	-43.7	17.0	0.00e+00	0	40	0	0	54	4666
2026-01-08 21:42:53.90	80.09	13.26	-41.5	-43.5	17.2	0.00e+00	0	40	0	0	54	4586
2026-01-08 21:42:55.04	80.32	13.27	-41.6	-43.7	17.0	0.00e+00	0	39	0	0	54	4684
2026-01-08 21:42:55.90	80.49	13.27	-41.6	-43.7	17.0	0.00e+00	0	40	0	0	53	4953
2026-01-08 21:42:57.10	80.73	13.27	-41.6	-43.8	16.9	0.00e+00	0	40	0	0	53	5013
2026-01-08 21:42:57.96	80.90	13.27	-41.7	-43.9	16.8	0.00e+00	0	40	0	0	54	4784
2026-01-08 21:42:59.10	81.13	13.27	-41.7	-43.9	16.8	0.00e+00	0	40	0	0	54	4784
2026-01-08 21:42:59.96	81.30	13.28	-41.6	-43.8	16.9	0.00e+00	0	40	0	0	54	4722
2026-01-08 21:43:01.11	81.53	13.28	-41.2	-43.5	17.2	0.00e+00	0	39	0	0	54	4571
2026-01-08 21:43:02.05	81.72	13.28	-41.3	-43.5	17.2	0.00e+00	0	40	0	0	53	4847
2026-01-08 21:43:03.05	81.92	13.28	-41.3	-43.5	17.2	0.00e+00	0	40	0	0	53	4849
2026-01-08 21:43:04.06	82.12	13.28	-41.4	-43.6	17.1	0.00e+00	0	40	0	0	53	4892
2026-01-08 21:43:05.06	82.32	13.28	-41.4	-43.5	17.1	0.00e+00	0	40	0	0	53	4869
2026-01-08 21:43:06.35	82.58	13.28	-41.5	-43.6	17.1	0.00e+00	0	40	0	0	53	4911
2026-01-08 21:43:07.10	82.73	13.28	-41.3	-43.6	17.1	0.00e+00	0	40	0	0	53	4926
2026-01-08 21:43:08.39	82.99	13.27	-41.6	-43.8	16.9	0.00e+00	0	40	0	0	53	4992
2026-01-08 21:43:09.10	83.13	13.27	-41.6	-43.8	16.9	0.00e+00	0	40	0	0	53	5009
2026-01-08 21:43:10.39	83.39	13.27	-41.6	-43.8	16.9	0.00e+00	0	40	0	0	53	4984
2026-01-08 21:43:11.11	83.54	13.27	-41.6	-43.8	16.9	0.00e+00	0	40	0	0	53	5039
2026-01-08 21:43:12.83	83.88	13.26	-41.7	-44.0	16.7	0.00e+00	0	40	0	0	54	4835
2026-01-08 21:43:13.40	83.99	13.26	-41.8	-44.0	16.7	0.00e+00	0	40	0	0	54	4865
2026-01-08 21:43:15.02	84.32	13.26	-41.7	-43.9	16.8	0.00e+00	0	40	0	0	54	4802
2026-01-08 21:43:15.60	84.43	13.25	-41.8	-44.1	16.6	0.00e+00	0	40	0	0	54	4888
2026-01-08 21:43:17.18	84.75	13.25	-41.7	-43.9	16.8	0.00e+00	0	40	0	0	54	4805
2026-01-08 21:43:17.76	84.87	13.25	-41.8	-44.0	16.7	0.00e+00	0	40	0	0	54	4848
2026-01-08 21:43:19.33	85.18	13.24	-41.7	-43.9	16.8	0.00e+00	0	40	0	0	54	4783
2026-01-08 21:43:19.92	85.30	13.23	-41.7	-43.9	16.7	0.00e+00	0	40	0	0	54	4808
2026-01-08 21:43:21.50	85.61	13.23	-41.7	-43.9	16.8	0.00e+00	0	40	0	0	54	4798
2026-01-08 21:43:22.09	85.73	13.22	-41.6	-43.8	16.9	0.00e+00	0	40	0	0	54	4731
2026-01-08 21:43:23.66	86.04	13.21	-41.4	-43.8	16.9	0.00e+00	0	40	0	0	54	4711
2026-01-08 21:43:24.59	86.23	13.21	-41.6	-43.8	16.9	0.00e+00	0	40	0	0	54	4715
2026-01-08 21:43:25.59	86.43	13.20	-41.5	-43.7	17.0	0.00e+00	0	40	0	0	54	4677
2026-01-08 21:43:26.59	86.63	13.19	-41.6	-43.7	16.9	0.00e+00	0	40	0	0	53	4980
2026-01-08 21:43:27.60	86.83	13.19	-41.8	-44.0	16.7	0.00e+00	0	40	0	0	54	4828
2026-01-08 21:43:28.60	87.03	13.18	-41.6	-43.8	16.9	0.00e+00	0	40	0	0	54	4713
2026-01-08 21:43:29.60	87.23	13.17	-41.6	-43.8	16.9	0.00e+00	0	40	0	0	54	4750
2026-01-08 21:43:30.69	87.44	13.16	-41.6	-43.7	16.9	0.00e+00	0	40	0	0	54	4698
2026-01-08 21:43:31.55	87.61	13.15	-41.8	-44.0	16.7	0.00e+00	0	40	0	0	54	4840
2026-01-08 21:43:32.70	87.84	13.14	-41.7	-43.9	16.8	0.00e+00	0	40	0	0	54	4799
2026-01-08 21:43:33.56	88.01	13.13	-41.7	-43.9	16.8	0.00e+00	0	40	0	0	54	4776
2026-01-08 21:43:34.70	88.24	13.12	-41.5	-43.6	17.1	0.00e+00	0	40	0	0	54	4626
2026-01-08 21:43:35.74	88.45	13.11	-41.6	-43.7	16.9	0.00e+00	0	40	0	0	53	4963
2026-01-08 21:43:36.94	88.68	13.10	-41.4	-43.4	17.2	0.00e+00	0	40	0	0	53	4812
2026-01-08 21:43:37.83	88.86	13.09	-41.6	-43.7	17.0	0.00e+00	0	40	0	0	53	4953
2026-01-08 21:43:39.15	89.12	13.08	-41.5	-43.7	16.9	0.00e+00	0	40	0	0	53	4970
2026-01-08 21:43:39.86	89.26	13.07	-41.5	-43.6	17.1	0.00e+00	0	40	0	0	53	4900
2026-01-08 21:43:41.15	89.52	13.05	-41.5	-43.6	17.1	0.00e+00	0	40	0	0	53	4903
2026-01-08 21:43:41.87	89.66	13.04	-41.5	-43.7	17.1	0.00e+00	0	40	0	0	53	4939
2026-01-08 21:43:43.16	89.91	13.03	-41.5	-43.6	17.1	0.00e+00	0	40	0	0	53	4878
2026-01-08 21:43:43.97	90.07	13.02	-41.6	-43.8	17.0	0.00e+00	0	40	0	0	53	5000
2026-01-08 21:43:45.12	90.30	13.00	-41.6	-43.8	16.9	0.00e+00	0	40	0	0	53	4998
2026-01-08 21:43:46.22	90.52	12.99	-41.4	-43.5	17.2	0.00e+00	0	40	0	0	53	4859
2026-01-08 21:43:47.25	90.72	12.98	-41.7	-43.8	16.9	0.00e+00	0	40	0	0	53	5016
2026-01-08 21:43:48.25	90.91	12.96	-41.8	-43.9	16.8	0.00e+00	0	40	0	0	54	4791
2026-01-08 21:43:49.25	91.11	12.95	-41.7	-43.8	16.9	0.00e+00	0	40	0	0	54	4715
2026-01-08 21:43:50.26	91.31	12.93	-41.7	-43.9	16.9	0.00e+00	0	40	0	0	54	4761
2026-01-08 21:43:51.56	91.56	12.91	-41.8	-44.0	16.8	0.00e+00	0	40	0	0	54	4817
2026-01-08 21:43:52.28	91.70	12.90	-41.5	-43.6	17.1	0.00e+00	0	40	0	0	54	4638
2026-01-08 21:43:53.57	91.96	12.88	-41.5	-43.6	17.2	0.00e+00	0	40	0	0	53	4876
2026-01-08 21:43:54.28	92.09	12.87	-41.5	-43.6	17.1	0.00e+00	0	40	0	0	53	4912
2026-01-08 21:43:55.57	92.35	12.85	-41.5	-43.6	17.1	0.00e+00	0	40	0	0	53	4900
2026-01-08 21:43:56.29	92.49	12.84	-41.6	-43.7	17.1	0.00e+00	0	40	0	0	53	4928
2026-01-08 21:43:57.58	92.74	12.82	-41.6	-43.7	17.1	0.00e+00	0	40	0	0	53	4941
2026-01-08 21:43:58.29	92.88	12.81	-41.6	-43.7	17.0	0.00e+00	0	40	0	0	53	4982
2026-01-08 21:43:59.59	93.13	12.78	-41.5	-43.6	17.1	0.00e+00	0	40	0	0	53	4914
2026-01-08 21:44:00.30	93.27	12.77	-41.6	-43.7	17.0	0.00e+00	0	40	0	0	53	4936
2026-01-08 21:44:01.74	93.54	12.75	-41.7	-43.8	16.9	0.00e+00	0	40	0	0	54	4751
2026-01-08 21:44:02.45	93.68	12.73	-41.8	-43.9	16.8	0.00e+00	0	40	0	0	54	4796
2026-01-08 21:44:03.74	93.93	12.71	-41.9	-44.1	16.6	0.00e+00	0	40	0	0	54	4889
2026-01-08 21:44:04.46	94.07	12.70	-41.9	-44.1	16.7	0.00e+00	0	40	0	0	54	4884
2026-01-08 21:44:05.75	94.32	12.67	-41.9	-44.0	16.7	0.00e+00	0	40	0	0	54	4869
2026-01-08 21:44:06.47	94.46	12.66	-41.8	-43.9	16.8	0.00e+00	0	40	0	0	54	4796
2026-01-08 21:44:07.75	94.70	12.63	-41.8	-44.0	16.8	0.00e+00	0	40	0	0	54	4815
2026-01-08 21:44:08.47	94.84	12.62	-41.9	-44.0	16.7	0.00e+00	0	40	0	0	54	4845
2026-01-08 21:44:09.76	95.09	12.59	-41.7	-43.8	16.9	0.00e+00	0	40	0	0	54	4725
2026-01-08 21:44:10.49	95.23	12.58	-41.7	-43.8	16.9	0.00e+00	0	40	0	0	54	4747
2026-01-08 21:44:11.78	95.48	12.55	-41.7	-43.8	17.0	0.00e+00	0	40	0	0	54	4728
2026-01-08 21:44:12.56	95.63	12.54	-41.7	-43.8	17.0	0.00e+00	0	40	0	0	54	4733
2026-01-08 21:44:13.85	95.87	12.51	-41.6	-43.7	17.0	0.00e+00	0	40	0	0	54	4680
2026-01-08 21:44:14.57	96.01	12.49	-41.7	-43.8	16.9	0.00e+00	0	40	0	0	54	4726
2026-01-08 21:44:15.86	96.25	12.47	-41.7	-43.8	16.9	0.00e+00	0	40	0	0	54	4741
2026-01-08 21:44:16.57	96.39	12.45	-41.8	-44.0	16.8	0.00e+00	0	40	0	0	54	4815
2026-01-08 21:44:17.86	96.63	12.42	-41.8	-43.9	16.8	0.00e+00	0	40	0	0	54	4804
2026-01-08 21:44:18.58	96.77	12.41	-41.7	-43.9	16.9	0.00e+00	0	40	0	0	54	4775
2026-01-08 21:44:19.87	97.01	12.38	-41.9	-44.1	16.6	0.00e+00	0	40	0	0	54	4896
2026-01-08 21:44:20.59	97.15	12.36	-41.9	-44.1	16.7	0.00e+00	0	40	0	0	54	4879
2026-01-08 21:44:21.87	97.39	12.33	-42.0	-44.1	16.6	0.00e+00	0	40	0	0	54	4923
2026-01-08 21:44:22.59	97.53	12.31	-41.9	-44.1	16.6	0.00e+00	0	40	0	0	54	4910
2026-01-08 21:44:23.88	97.77	12.28	-42.1	-44.3	16.4	0.00e+00	0	40	0	0	54	4994
2026-01-08 21:44:24.59	97.90	12.27	-41.9	-44.1	16.6	0.00e+00	0	40	0	0	54	4892
2026-01-08 21:44:26.14	98.19	12.23	-41.8	-44.1	16.6	0.00e+00	0	40	0	0	54	4881
2026-01-08 21:44:26.85	98.33	12.21	-42.0	-44.1	16.6	0.00e+00	0	40	0	0	54	4915
2026-01-08 21:44:28.18	98.57	12.18	-42.0	-44.3	16.5	0.00e+00	0	40	0	0	54	4984
2026-01-08 21:44:28.90	98.71	12.16	-41.9	-44.1	16.6	0.00e+00	0	40	0	0	54	4911
2026-01-08 21:44:30.25	98.96	12.13	-42.0	-44.2	16.5	0.00e+00	0	40	0	0	54	4955
2026-01-08 21:44:31.27	99.15	12.10	-41.9	-44.1	16.6	0.00e+00	0	40	0	0	54	4912
2026-01-08 21:44:32.27	99.33	12.07	-41.9	-44.1	16.6	0.00e+00	0	40	0	0	54	4919
2026-01-08 21:44:33.28	99.52	12.05	-41.9	-44.1	16.6	0.00e+00	0	40	0	0	54	4904
2026-01-08 21:44:34.28	99.71	12.02	-41.9	-44.1	16.6	0.00e+00	0	40	0	0	54	4909
2026-01-08 21:44:35.28	99.89	11.99	-41.9	-44.2	16.5	0.00e+00	0	40	0	0	54	4944
2026-01-08 21:44:36.29	100.08	11.97	-41.9	-44.1	16.6	0.00e+00	0	40	0	0	54	4909
2026-01-08 21:44:37.29	100.26	11.94	-42.0	-44.2	16.5	0.00e+00	0	40	0	0	54	4934
2026-01-08 21:44:38.29	100.44	11.91	-41.9	-44.0	16.6	0.00e+00	0	40	0	0	54	4863
2026-01-08 21:44:39.33	100.63	11.88	-41.9	-44.1	16.6	0.00e+00	0	40	0	0	54	4887
2026-01-08 21:44:40.37	100.82	11.86	-41.9	-44.1	16.6	0.00e+00	0	40	0	0	54	4901
2026-01-08 21:44:41.28	100.99	11.83	-41.9	-44.1	16.6	0.00e+00	0	40	0	0	54	4885
2026-01-08 21:44:42.28	101.17	11.80	-41.8	-43.9	16.7	0.00e+00	0	40	0	0	54	4813
2026-01-08 21:44:43.29	101.36	11.77	-42.0	-44.2	16.5	0.00e+00	0	40	0	0	54	4936
2026-01-08 21:44:44.29	101.54	11.74	-42.0	-44.3	16.4	0.00e+00	0	40	0	0	54	4984
2026-01-08 21:44:45.29	101.72	11.72	-41.9	-44.3	16.3	0.00e+00	0	40	0	0	54	5024
2026-01-08 21:44:46.29	101.90	11.69	-42.1	-44.3	16.4	0.00e+00	0	40	0	0	54	4995
2026-01-08 21:44:47.30	102.08	11.66	-42.0	-44.3	16.4	0.00e+00	0	40	0	0	54	4987
2026-01-08 21:44:48.30	102.26	11.63	-41.9	-44.1	16.5	0.00e+00	0	40	0	0	54	4893
2026-01-08 21:44:49.30	102.44	11.60	-41.9	-44.1	16.6	0.00e+00	0	40	0	0	54	4887
2026-01-08 21:44:50.30	102.62	11.57	-41.8	-44.1	16.5	0.00e+00	0	40	0	0	54	4917
2026-01-08 21:44:51.31	102.80	11.54	-41.9	-44.1	16.5	0.00e+00	0	40	0	0	54	4911
2026-01-08 21:44:52.31	102.98	11.51	-41.9	-44.1	16.5	0.00e+00	0	40	0	0	54	4893
2026-01-08 21:44:53.36	103.17	11.47	-41.9	-44.1	16.5	0.00e+00	0	40	0	0	54	4887
2026-01-08 21:44:54.29	103.33	11.45	-41.7	-43.9	16.7	0.00e+00	0	40	0	0	54	4799
2026-01-08 21:44:55.29	103.51	11.42	-41.7	-43.9	16.7	0.00e+00	0	40	0	0	54	4772
2026-01-08 21:44:56.29	103.69	11.38	-41.8	-44.0	16.6	0.00e+00	0	40	0	0	54	4817
2026-01-08 21:44:57.30	103.87	11.35	-41.8	-44.0	16.6	0.00e+00	0	40	0	0	54	4826
2026-01-08 21:44:58.30	104.04	11.32	-41.8	-43.9	16.7	0.00e+00	0	40	0	0	54	4810
2026-01-08 21:44:59.31	104.22	11.29	-41.9	-44.1	16.5	0.00e+00	0	40	0	0	54	4895
2026-01-08 21:45:00.31	104.40	11.26	-42.0	-44.2	16.5	0.00e+00	0	40	0	0	54	4928
2026-01-08 21:45:01.31	104.57	11.22	-41.9	-44.1	16.5	0.00e+00	0	40	0	0	54	4894
2026-01-08 21:45:02.32	104.75	11.19	-41.9	-44.1	16.5	0.00e+00	0	40	0	0	54	4922
2026-01-08 21:45:03.32	104.92	11.16	-42.0	-44.2	16.4	0.00e+00	0	40	0	0	54	4966
2026-01-08 21:45:04.33	105.10	11.13	-42.1	-44.3	16.3	0.00e+00	0	40	0	0	54	5015
2026-01-08 21:45:05.38	105.28	11.09	-42.1	-44.3	16.2	0.00e+00	0	40	0	0	54	5030
2026-01-08 21:45:06.30	105.44	11.06	-42.0	-44.3	16.3	0.00e+00	0	40	0	0	54	4985
2026-01-08 21:45:07.30	105.62	11.03	-42.0	-44.2	16.3	0.00e+00	0	40	0	0	54	4974
2026-01-08 21:45:08.30	105.79	10.99	-42.1	-44.4	16.1	0.00e+00	0	40	0	0	54	5070
2026-01-08 21:45:09.31	105.96	10.96	-42.1	-44.4	16.2	0.00e+00	0	40	0	0	54	5083
2026-01-08 21:45:10.31	106.14	10.92	-42.2	-44.4	16.2	0.00e+00	0	40	0	0	54	5080
2026-01-08 21:45:11.31	106.31	10.89	-42.0	-44.3	16.3	0.00e+00	0	40	0	0	54	5000
2026-01-08 21:45:12.32	106.48	10.86	-42.0	-44.2	16.3	0.00e+00	0	40	0	0	54	4973
2026-01-08 21:45:13.32	106.65	10.82	-42.0	-44.3	16.3	0.00e+00	0	40	0	0	53	5306
2026-01-08 21:45:14.33	106.82	10.79	-42.1	-44.3	16.2	0.00e+00	0	40	0	0	54	5039
2026-01-08 21:45:15.33	106.99	10.75	-42.0	-44.3	16.3	0.00e+00	0	40	0	0	54	5023
2026-01-08 21:45:16.33	107.16	10.72	-42.2	-44.4	16.2	0.00e+00	0	40	0	0	54	5092
2026-01-08 21:45:17.33	107.33	10.68	-42.2	-44.5	16.1	0.00e+00	0	40	0	0	55	4823
2026-01-08 21:45:18.34	107.50	10.65	-42.2	-44.6	16.0	0.00e+00	0	40	0	0	55	4873
2026-01-08 21:45:19.34	107.67	10.61	-42.3	-44.6	15.9	0.00e+00	0	40	0	0	55	4899
2026-01-08 21:45:20.39	107.85	10.57	-42.3	-44.6	15.9	0.00e+00	0	40	0	0	55	4926
2026-01-08 21:45:21.29	108.00	10.54	-42.5	-44.8	15.8	0.00e+00	0	40	0	0	55	5010
2026-01-08 21:45:22.49	108.20	10.50	-42.5	-44.8	15.7	0.00e+00	0	40	0	0	55	5019
2026-01-08 21:45:23.35	108.34	10.47	-42.4	-44.7	15.8	0.00e+00	0	40	0	0	55	4980
2026-01-08 21:45:24.49	108.53	10.42	-42.4	-44.7	15.8	0.00e+00	0	40	0	0	55	4947
2026-01-08 21:45:25.35	108.67	10.39	-42.4	-44.7	15.8	0.00e+00	0	40	0	0	55	4963
2026-01-08 21:45:26.50	108.87	10.35	-42.4	-44.7	15.8	0.00e+00	0	40	0	0	55	4941
2026-01-08 21:45:27.36	109.01	10.32	-42.5	-44.8	15.7	0.00e+00	0	40	0	0	55	5027
2026-01-08 21:45:28.51	109.20	10.28	-42.4	-44.7	15.8	0.00e+00	0	40	0	0	55	4957
2026-01-08 21:45:29.36	109.34	10.24	-42.3	-44.7	15.9	0.00e+00	0	40	0	0	55	4948
2026-01-08 21:45:30.51	109.53	10.20	-42.4	-44.8	15.7	0.00e+00	0	40	0	0	55	4997
2026-01-08 21:45:31.37	109.67	10.17	-42.5	-44.9	15.7	0.00e+00	0	40	0	0	55	5045
2026-01-08 21:45:32.52	109.85	10.13	-42.4	-44.8	15.7	0.00e+00	0	40	0	0	55	5004
2026-01-08 21:45:33.38	109.99	10.09	-42.6	-44.9	15.6	0.00e+00	0	40	0	0	55	5086
2026-01-08 21:45:34.52	110.18	10.05	-42.4	-44.8	15.7	0.00e+00	0	40	0	0	55	5005
2026-01-08 21:45:35.38	110.32	10.02	-42.3	-44.7	15.9	0.00e+00	0	40	0	0	55	4932
2026-01-08 21:45:36.53	110.50	9.97	-42.5	-44.9	15.7	0.00e+00	0	40	0	0	55	5042
2026-01-08 21:45:37.39	110.64	9.94	-42.5	-44.9	15.6	0.00e+00	0	40	0	0	55	5089
2026-01-08 21:45:38.54	110.83	9.90	-42.6	-45.0	15.5	0.00e+00	0	40	0	0	55	5121
2026-01-08 21:45:39.40	110.97	9.86	-42.9	-45.3	15.4	0.00e+00	0	40	0	0	56	5018
2026-01-08 21:45:40.54	111.15	9.82	-42.6	-45.0	15.4	0.00e+00	0	40	0	0	55	5147
2026-01-08 21:45:41.40	111.29	9.79	-43.0	-45.4	15.2	0.00e+00	0	40	0	0	56	5096
2026-01-08 21:45:42.55	111.47	9.74	-42.9	-45.4	15.3	0.00e+00	0	40	0	0	56	5046
2026-01-08 21:45:43.41	111.61	9.71	-42.9	-45.4	15.3	0.00e+00	0	40	0	0	56	5061
2026-01-08 21:45:44.56	111.79	9.66	-42.9	-45.4	15.3	0.00e+00	0	40	0	0	56	5060
2026-01-08 21:45:45.42	111.92	9.63	-42.9	-45.3	15.3	0.00e+00	0	40	0	0	56	5038
2026-01-08 21:45:46.56	112.10	9.58	-42.9	-45.3	15.3	0.00e+00	0	40	0	0	56	5039
2026-01-08 21:45:47.42	112.24	9.55	-42.7	-45.1	15.4	0.00e+00	0	40	0	0	55	5186
2026-01-08 21:45:48.57	112.42	9.50	-42.8	-45.2	15.5	0.00e+00	0	40	0	0	56	4951
2026-01-08 21:45:49.43	112.55	9.47	-42.9	-45.4	15.3	0.00e+00	0	40	0	0	56	5052
2026-01-08 21:45:50.59	112.73	9.42	-42.9	-45.3	15.4	0.00e+00	0	40	0	0	56	4996
2026-01-08 21:45:51.45	112.87	9.39	-43.0	-45.4	15.2	7.00e-07	0	40	0	0	56	5076
2026-01-08 21:45:52.60	113.04	9.34	-42.8	-45.3	15.4	0.00e+00	0	40	0	0	56	4984
2026-01-08 21:45:53.46	113.18	9.31	-42.9	-45.4	15.3	0.00e+00	0	40	0	0	56	5044
2026-01-08 21:45:54.60	113.35	9.26	-43.0	-45.5	15.1	0.00e+00	0	40	0	0	56	5148
2026-01-08 21:45:55.46	113.49	9.23	-43.0	-45.5	15.1	1.50e-06	0	40	0	0	56	5126
2026-01-08 21:45:56.61	113.66	9.18	-42.6	-45.7	14.9	0.00e+00	0	40	0	0	56	5261
2026-01-08 21:45:57.47	113.79	9.14	-43.1	-45.6	15.0	0.00e+00	0	40	0	0	56	5191
2026-01-08 21:45:58.62	113.97	9.10	-43.1	-45.6	15.0	0.00e+00	0	40	0	0	56	5207
2026-01-08 21:45:59.47	114.10	9.06	-43.0	-45.6	15.0	0.00e+00	0	40	0	0	56	5179
2026-01-08 21:46:00.62	114.27	9.01	-44.4	-47.5	13.3	0.00e+00	0	40	0	0	59	5447
2026-01-08 21:46:01.48	114.40	8.98	-49.1	-62.2	3.8	1.49e+00	0	40	104	0	68	17591
2026-01-08 21:46:02.63	114.58	8.93	-49.4	-62.4	3.8	1.49e+00	0	40	104	0	69	17016
2026-01-08 21:46:03.49	114.71	8.90	-49.3	-62.5	3.8	1.49e+00	0	40	104	0	69	17241
2026-01-08 21:46:04.64	114.88	8.85	-49.4	-62.6	3.8	1.49e+00	0	40	104	0	69	17380
2026-01-08 21:46:05.50	115.01	8.81	-49.6	-62.6	3.8	1.49e+00	0	40	104	0	69	17428
2026-01-08 21:46:06.66	115.18	8.76	-49.6	-62.7	3.8	1.49e+00	0	40	104	0	69	17544
2026-01-08 21:46:07.53	115.31	8.73	-49.6	-62.7	3.8	1.49e+00	0	40	104	0	69	17568
2026-01-08 21:46:08.67	115.48	8.68	-49.5	-62.7	3.8	1.49e+00	0	40	104	0	69	17574
2026-01-08 21:46:09.53	115.61	8.64	-49.1	-62.7	3.8	1.49e+00	0	40	104	0	69	17646
2026-01-08 21:46:10.68	115.78	8.59	-49.3	-62.7	3.8	1.49e+00	0	40	104	0	69	17612
2026-01-08 21:46:11.54	115.90	8.56	-49.4	-62.8	3.7	1.49e+00	0	40	104	0	69	17830
2026-01-08 21:46:12.69	116.07	8.51	-49.4	-62.7	3.8	1.49e+00	0	40	104	0	69	17679
2026-01-08 21:46:13.55	116.20	8.47	-49.3	-62.7	3.8	1.49e+00	0	40	104	0	69	17677
2026-01-08 21:46:14.70	116.36	8.42	-49.4	-62.7	3.8	1.49e+00	0	40	104	0	69	17597
2026-01-08 21:46:15.56	116.49	8.39	-49.3	-62.8	3.8	1.49e+00	0	40	104	0	69	17700
2026-01-08 21:46:16.71	116.66	8.34	-49.4	-62.8	3.8	1.49e+00	0	40	104	0	69	17724
2026-01-08 21:46:17.57	116.78	8.30	-49.2	-62.8	3.8	1.49e+00	0	40	104	0	69	17738
2026-01-08 21:46:18.72	116.95	8.25	-49.3	-62.7	3.8	1.49e+00	0	40	104	0	69	17678
2026-01-08 21:46:19.58	117.07	8.22	-49.2	-62.8	3.8	1.49e+00	0	40	104	0	69	17712
2026-01-08 21:46:20.72	117.23	8.17	-49.3	-62.8	3.8	1.49e+00	0	40	104	0	69	17692
2026-01-08 21:46:21.58	117.36	8.13	-49.5	-62.7	3.8	1.49e+00	0	40	104	0	69	17674
2026-01-08 21:46:22.73	117.52	8.08	-49.5	-62.7	3.8	1.49e+00	0	40	104	0	69	17663
2026-01-08 21:46:23.59	117.64	8.04	-49.4	-62.7	3.8	1.49e+00	0	40	104	0	69	17595
2026-01-08 21:46:24.74	117.81	7.99	-49.2	-62.7	3.8	1.49e+00	0	40	104	0	69	17666
2026-01-08 21:46:25.60	117.93	7.96	-49.5	-62.8	3.8	1.49e+00	0	40	104	0	69	17739
2026-01-08 21:46:26.75	118.09	7.90	-49.4	-62.7	3.8	1.49e+00	0	40	104	0	69	17659
2026-01-08 21:46:27.61	118.21	7.87	-49.4	-62.7	3.8	1.49e+00	0	40	104	0	69	17578
2026-01-08 21:46:28.76	118.37	7.82	-48.5	-62.7	3.8	1.49e+00	0	40	104	0	69	17657
2026-01-08 21:46:29.62	118.49	7.78	-49.4	-62.8	3.8	1.49e+00	0	40	104	0	69	17858
2026-01-08 21:46:30.76	118.65	7.73	-49.4	-62.7	3.8	1.49e+00	0	40	104	0	69	17602
2026-01-08 21:46:31.62	118.77	7.69	-49.4	-62.7	3.8	1.49e+00	0	40	104	0	69	17650
2026-01-08 21:46:32.77	118.93	7.64	-49.4	-62.7	3.8	1.49e+00	0	40	104	0	69	17602
2026-01-08 21:46:33.63	119.05	7.60	-49.2	-62.7	3.8	1.49e+00	0	40	104	0	69	17643
2026-01-08 21:46:34.78	119.21	7.55	-49.4	-62.7	3.8	1.49e+00	0	40	104	0	69	17678
2026-01-08 21:46:35.64	119.32	7.51	-49.4	-62.7	3.8	1.49e+00	0	40	104	0	69	17654
2026-01-08 21:46:36.79	119.48	7.46	-49.4	-62.7	3.8	1.49e+00	0	40	104	0	69	17653
2026-01-08 21:46:37.65	119.60	7.43	-49.4	-62.7	3.8	1.49e+00	0	40	104	0	69	17607
2026-01-08 21:46:38.80	119.76	7.38	-49.4	-62.7	3.8	1.49e+00	0	40	104	0	69	17593
2026-01-08 21:46:39.66	119.87	7.34	-49.3	-62.8	3.8	1.49e+00	0	40	104	0	69	17689
2026-01-08 21:46:40.81	120.03	7.29	-49.4	-62.7	3.8	1.49e+00	0	40	104	0	69	17578
2026-01-08 21:46:41.67	120.14	7.25	-48.4	-62.7	3.8	1.49e+00	0	40	104	0	69	17598
2026-01-08 21:46:42.82	120.30	7.20	-47.5	-62.7	3.8	1.49e+00	0	40	104	0	69	17574
2026-01-08 21:46:43.68	120.41	7.16	-49.4	-62.7	3.8	1.49e+00	0	40	104	0	69	17624
2026-01-08 21:46:44.82	120.57	7.11	-49.4	-62.7	3.8	1.49e+00	0	40	104	0	69	17623
2026-01-08 21:46:45.69	120.68	7.07	-49.4	-62.7	3.8	1.49e+00	0	40	104	0	69	17617
2026-01-08 21:46:46.83	120.83	7.02	-49.4	-62.7	3.8	1.49e+00	0	40	104	0	69	17600
2026-01-08 21:46:47.69	120.95	6.98	-49.4	-62.7	3.9	1.49e+00	0	40	104	0	69	17583
2026-01-08 21:46:48.84	121.10	6.93	-49.3	-62.7	3.8	1.49e+00	0	40	104	0	69	17594
2026-01-08 21:46:49.70	121.21	6.89	-49.4	-62.7	3.9	1.49e+00	0	40	104	0	69	17579
2026-01-08 21:46:50.85	121.36	6.84	-49.4	-62.7	3.8	1.49e+00	0	40	104	0	69	17640
2026-01-08 21:46:51.71	121.48	6.80	-49.4	-62.7	3.8	1.49e+00	0	40	104	0	69	17620
2026-01-08 21:46:52.86	121.63	6.75	-49.4	-62.7	3.9	1.49e+00	0	40	104	0	69	17596
2026-01-08 21:46:53.72	121.74	6.71	-49.4	-62.7	3.8	1.49e+00	0	40	104	0	69	17539
2026-01-08 21:46:54.87	121.89	6.66	-49.4	-62.7	3.8	1.49e+00	0	40	104	0	69	17617
2026-01-08 21:46:55.73	122.00	6.62	-49.4	-62.7	3.8	1.49e+00	0	40	104	0	69	17609
2026-01-08 21:46:56.86	122.15	6.57	-49.4	-62.5	3.8	1.49e+00	0	40	104	0	68	18114
2026-01-08 21:46:57.72	122.26	6.53	-49.4	-62.7	3.8	1.49e+00	0	40	104	0	69	17635
2026-01-08 21:46:58.87	122.40	6.47	-49.4	-62.7	3.8	1.49e+00	0	40	104	0	69	17608
2026-01-08 21:46:59.73	122.51	6.44	-49.4	-62.7	3.8	1.49e+00	0	40	104	0	69	17580
2026-01-08 21:47:00.88	122.66	6.38	-44.7	-62.6	3.8	1.49e+00	0	40	104	0	68	18433
2026-01-08 21:47:01.74	122.77	6.34	-49.4	-62.7	3.8	1.49e+00	0	40	104	0	69	17589
2026-01-08 21:47:02.88	122.91	6.29	-49.4	-62.7	3.9	1.49e+00	0	40	104	0	69	17654
2026-01-08 21:47:03.75	123.02	6.25	-49.3	-62.7	3.8	1.49e+00	0	40	104	0	69	17603
2026-01-08 21:47:04.90	123.17	6.20	-49.4	-62.7	3.8	1.49e+00	0	40	104	0	69	17610
2026-01-08 21:47:05.75	123.28	6.16	-49.4	-62.7	3.8	1.49e+00	0	40	104	0	69	17642
2026-01-08 21:47:06.90	123.42	6.11	-49.4	-62.7	3.8	1.49e+00	0	40	104	0	69	17594
2026-01-08 21:47:07.76	123.53	6.07	-49.4	-62.7	3.8	1.49e+00	0	41	104	0	69	17554
2026-01-08 21:47:08.91	123.67	6.02	-49.4	-62.7	3.8	1.49e+00	0	40	104	0	69	17626
2026-01-08 21:47:09.77	123.78	5.98	-49.4	-62.7	3.8	1.49e+00	0	40	104	0	69	17638
2026-01-08 21:47:10.92	123.92	5.92	-49.4	-62.7	3.8	1.49e+00	0	40	104	0	69	17635
2026-01-08 21:47:11.78	124.02	5.89	-49.4	-62.7	3.8	1.49e+00	0	40	104	0	69	17621
2026-01-08 21:47:12.93	124.17	5.83	-49.4	-62.7	3.8	1.49e+00	0	40	104	0	69	17659
2026-01-08 21:47:13.79	124.27	5.79	-49.4	-62.7	3.8	1.49e+00	0	40	104	0	69	17610
2026-01-08 21:47:14.94	124.41	5.74	-49.4	-62.7	3.8	1.49e+00	0	40	104	0	69	17595
2026-01-08 21:47:15.80	124.52	5.70	-49.2	-62.7	3.8	1.49e+00	0	40	104	0	69	17652
2026-01-08 21:47:16.95	124.66	5.65	-49.4	-62.7	3.8	1.49e+00	0	40	104	0	69	17643
2026-01-08 21:47:17.81	124.76	5.61	-45.1	-62.9	3.8	1.49e+00	0	40	104	0	69	17969
2026-01-08 21:47:18.96	124.90	5.56	-49.4	-62.7	3.8	1.49e+00	0	40	104	0	69	17639
2026-01-08 21:47:19.82	125.00	5.52	-49.4	-62.7	3.8	1.49e+00	0	40	104	0	69	17609
2026-01-08 21:47:20.97	125.14	5.46	-49.4	-62.7	3.8	1.49e+00	0	40	104	0	69	17622
2026-01-08 21:47:21.83	125.24	5.42	-49.4	-62.7	3.8	1.49e+00	0	40	104	0	69	17619
2026-01-08 21:47:22.98	125.38	5.37	-49.3	-62.7	3.8	1.49e+00	0	40	104	0	69	17633
2026-01-08 21:47:23.83	125.48	5.33	-49.4	-62.7	3.8	1.49e+00	0	40	104	0	69	17651
2026-01-08 21:47:24.98	125.62	5.28	-49.4	-62.7	3.8	1.49e+00	0	41	104	0	69	17563
2026-01-08 21:47:25.84	125.72	5.24	-49.4	-62.7	3.8	1.49e+00	0	40	104	0	69	17511
2026-01-08 21:47:26.99	125.85	5.19	-49.1	-62.7	3.8	1.49e+00	0	40	104	0	69	17618
2026-01-08 21:47:27.85	125.96	5.15	-49.3	-62.7	3.8	1.49e+00	0	40	104	0	69	17623
2026-01-08 21:47:29.00	126.09	5.09	-49.4	-62.7	3.8	1.49e+00	0	40	104	0	69	17580
2026-01-08 21:47:29.86	126.19	5.05	-49.4	-62.7	3.8	1.49e+00	0	40	104	0	69	17549
2026-01-08 21:47:31.01	126.32	5.00	-49.4	-62.7	3.7	1.49e+00	0	40	104	0	69	17618

#Closed at: 2026-01-08 21:47:31
#Recorded file [0 MB]: D:/Data/31040_260109_003835.dat