passes_logs/2026/01/08/T1/T1__20260108_083822_NOAA_20_JPSS-1_rec.log

#Pass ID: 20260108_083822_NOAA 20 (JPSS-1)
#Satellite: NOAA 20 (JPSS-1)
#Configuration: NOAA 20
#almurnet v.1.7.20251203
#Start time: 2026-01-08 08:38:22

#Version: 2.0.20230620
#Station: T1
#Location: 37.570604 lon 55.790049 lat
#TLE: 1 43013U 17073A   26006.30790171  .00000126  00000+0  80695-4 0  9991
#TLE: 2 43013  98.7629 307.3394 0001808  51.8724 308.2615 14.19533762421505

#Time	Az	El	Level	Level2	SNR	BER	BlckErr	Temp	State	Recorded	gain1	gain2
2026-01-08 08:38:22.36	119.72	4.97	-50.0	-65.2	3.8	1.49e+00	0	38	0	0	71	20840
2026-01-08 08:38:23.36	119.65	5.03	-49.9	-65.2	3.8	1.49e+00	0	38	104	0	71	20892
2026-01-08 08:38:24.36	119.58	5.10	-50.0	-65.2	3.8	1.49e+00	0	38	104	0	71	20798
2026-01-08 08:38:25.36	119.52	5.16	-50.0	-65.2	3.8	1.49e+00	0	38	104	0	71	20838
2026-01-08 08:38:26.36	119.45	5.23	-49.9	-65.2	3.8	1.49e+00	0	38	104	0	71	20794
2026-01-08 08:38:27.36	119.39	5.29	-50.0	-65.1	3.8	1.49e+00	0	39	104	0	71	20775
2026-01-08 08:38:28.37	119.32	5.36	-50.0	-65.1	3.8	1.49e+00	0	39	104	0	71	20733
2026-01-08 08:38:29.37	119.25	5.42	-49.9	-65.1	3.8	1.49e+00	0	39	104	0	71	20700
2026-01-08 08:38:30.37	119.18	5.49	-50.0	-65.1	3.8	1.49e+00	0	39	104	0	71	20731
2026-01-08 08:38:31.37	119.11	5.56	-50.0	-65.1	3.8	1.49e+00	0	39	104	0	71	20687
2026-01-08 08:38:32.37	119.05	5.62	-49.9	-65.1	3.8	1.49e+00	0	39	104	0	71	20671
2026-01-08 08:38:33.38	118.98	5.69	-50.0	-65.1	3.8	1.49e+00	0	39	104	0	71	20718
2026-01-08 08:38:34.38	118.91	5.75	-49.9	-65.1	3.8	1.49e+00	0	39	104	0	71	20658
2026-01-08 08:38:35.38	118.84	5.82	-49.9	-65.2	3.8	1.49e+00	0	39	104	0	71	20805
2026-01-08 08:38:36.38	118.77	5.89	-50.0	-65.2	3.8	1.49e+00	0	39	104	0	71	20855
2026-01-08 08:38:37.39	118.70	5.95	-49.9	-65.2	3.8	1.49e+00	0	39	104	0	71	20800
2026-01-08 08:38:38.39	118.63	6.02	-49.9	-65.1	3.8	1.49e+00	0	39	104	0	71	20756
2026-01-08 08:38:39.39	118.56	6.09	-50.0	-65.1	3.8	1.49e+00	0	39	104	0	71	20679
2026-01-08 08:38:40.39	118.49	6.15	-49.9	-65.1	3.8	1.49e+00	0	39	104	0	71	20737
2026-01-08 08:38:41.39	118.42	6.22	-50.0	-65.1	3.8	1.49e+00	0	39	104	0	71	20720
2026-01-08 08:38:42.40	118.34	6.29	-50.0	-65.1	3.8	1.49e+00	0	39	104	0	71	20625
2026-01-08 08:38:43.40	118.27	6.36	-49.9	-65.1	3.8	1.49e+00	0	39	104	0	71	20640
2026-01-08 08:38:44.40	118.20	6.42	-50.0	-65.1	3.8	1.49e+00	0	39	104	0	71	20603
2026-01-08 08:38:45.40	118.13	6.49	-50.0	-65.1	3.8	1.49e+00	0	39	104	0	71	20560
2026-01-08 08:38:46.40	118.05	6.56	-49.9	-65.1	3.8	1.49e+00	0	39	104	0	71	20611
2026-01-08 08:38:47.41	117.98	6.63	-50.0	-65.1	3.8	1.49e+00	0	39	104	0	71	20612
2026-01-08 08:38:48.41	117.91	6.70	-50.0	-65.0	3.8	1.49e+00	0	39	104	0	71	20519
2026-01-08 08:38:49.41	117.83	6.76	-49.9	-65.1	3.8	1.49e+00	0	39	104	0	71	20725
2026-01-08 08:38:50.41	117.76	6.83	-49.9	-65.1	3.8	1.49e+00	0	39	104	0	71	20726
2026-01-08 08:38:51.42	117.68	6.90	-50.0	-65.1	3.8	1.49e+00	0	39	104	0	71	20765
2026-01-08 08:38:52.42	117.61	6.97	-49.9	-65.2	3.8	1.49e+00	0	39	104	0	71	20870
2026-01-08 08:38:53.42	117.53	7.04	-50.0	-65.1	3.8	1.49e+00	0	39	104	0	71	20721
2026-01-08 08:38:54.42	117.46	7.11	-50.0	-65.2	3.8	1.49e+00	0	39	104	0	71	20859
2026-01-08 08:38:55.43	117.38	7.18	-49.9	-65.1	3.8	1.49e+00	0	40	104	0	71	20578
2026-01-08 08:38:56.43	117.30	7.25	-50.0	-65.0	3.8	1.49e+00	0	40	104	0	71	20379
2026-01-08 08:38:57.43	117.23	7.32	-49.9	-64.9	3.8	1.49e+00	0	40	104	0	71	20196
2026-01-08 08:38:58.44	117.15	7.39	-49.9	-64.8	3.8	1.49e+00	0	40	104	0	71	19919
2026-01-08 08:38:59.44	117.07	7.46	-49.9	-64.9	3.8	1.49e+00	0	39	104	0	71	20109
2026-01-08 08:39:00.44	116.99	7.53	-49.9	-64.9	3.8	1.49e+00	0	40	104	0	71	20232
2026-01-08 08:39:01.44	116.91	7.59	-50.0	-65.1	3.8	1.49e+00	0	40	104	0	71	20560
2026-01-08 08:39:02.44	116.84	7.66	-49.9	-64.7	3.8	1.49e+00	0	40	104	0	71	19719
2026-01-08 08:39:03.44	116.76	7.73	-49.9	-63.5	3.8	1.49e+00	0	40	104	0	71	17253
2026-01-08 08:39:04.45	116.68	7.81	-49.7	-61.0	4.4	1.40e+00	0	40	0	0	71	12826
2026-01-08 08:39:05.45	116.60	7.88	-49.3	-58.4	5.7	7.29e-01	0	40	0	1048576	70	10070
2026-01-08 08:39:06.45	116.52	7.95	-48.8	-56.0	7.8	2.26e-01	0	40	0	3145728	69	8114
2026-01-08 08:39:07.45	116.43	8.02	-48.2	-54.2	9.6	2.47e-02	0	40	0	5242880	68	7032
2026-01-08 08:39:08.45	116.35	8.09	-47.4	-52.4	11.2	4.28e-03	0	40	0	7340032	66	6410
2026-01-08 08:39:09.46	116.27	8.16	-47.0	-51.5	12.2	4.45e-04	0	40	0	9437184	66	5776
2026-01-08 08:39:10.46	116.19	8.23	-46.2	-50.1	13.7	9.10e-06	0	40	0	10485760	64	5472
2026-01-08 08:39:11.46	116.11	8.30	-45.8	-49.4	14.5	1.50e-06	0	40	0	12582912	63	5357
2026-01-08 08:39:12.47	116.02	8.37	-45.8	-49.3	14.5	0.00e+00	0	40	0	14680064	63	5311
2026-01-08 08:39:13.47	115.94	8.45	-45.9	-49.6	14.3	7.00e-07	0	40	0	16777216	63	5477
2026-01-08 08:39:14.47	115.86	8.52	-46.1	-49.8	14.0	7.00e-07	0	40	0	18874368	63	5623
2026-01-08 08:39:15.47	115.77	8.59	-46.7	-50.9	13.0	1.14e-05	0	40	0	19922944	63	6354
2026-01-08 08:39:16.48	115.69	8.66	-47.0	-51.6	12.2	7.40e-05	0	40	0	22020096	64	6565
2026-01-08 08:39:17.48	115.60	8.73	-47.6	-52.9	10.8	1.33e-03	0	40	0	24117248	65	7176
2026-01-08 08:39:18.48	115.52	8.81	-48.2	-54.3	9.3	9.09e-03	0	40	0	26214400	67	7512
2026-01-08 08:39:19.49	115.43	8.88	-48.8	-56.3	7.5	4.34e-02	0	40	0	28311552	68	8952
2026-01-08 08:39:20.49	115.34	8.95	-49.2	-58.2	5.9	2.87e-01	0	40	0	29360128	69	10509
2026-01-08 08:39:21.49	115.26	9.02	-49.5	-60.7	4.5	6.72e-01	0	40	0	31457280	69	13976
2026-01-08 08:39:22.50	115.17	9.10	-49.3	-58.4	4.7	1.43e+00	0	40	104	31457280	70	10083
2026-01-08 08:39:23.49	115.08	9.17	-47.9	-53.5	10.3	3.36e-03	0	40	0	32505856	66	7219
2026-01-08 08:39:24.49	114.99	9.24	-49.5	-59.9	5.1	5.63e-02	0	40	0	34603008	69	12698
2026-01-08 08:39:25.49	114.90	9.32	-49.9	-63.4	3.8	1.49e+00	0	40	104	34603008	70	17991
2026-01-08 08:39:26.49	114.81	9.39	-48.4	-54.7	9.3	4.90e-02	0	40	0	35651584	68	7432
2026-01-08 08:39:27.49	114.73	9.46	-48.8	-56.1	7.6	4.42e-01	0	40	0	36700160	69	8219
2026-01-08 08:39:28.50	114.63	9.54	-48.1	-53.9	10.0	1.10e-02	0	40	0	38797312	68	6744
2026-01-08 08:39:29.50	114.54	9.61	-47.6	-52.8	11.0	3.89e-03	0	40	0	40894464	67	6294
2026-01-08 08:39:30.50	114.45	9.69	-47.1	-51.6	12.3	7.53e-04	0	40	0	42991616	66	5821
2026-01-08 08:39:31.51	114.36	9.76	-46.5	-50.7	13.2	2.28e-05	0	40	0	44040192	65	5563
2026-01-08 08:39:32.51	114.27	9.84	-46.3	-50.3	13.6	9.90e-06	0	40	0	46137344	64	5619
2026-01-08 08:39:33.51	114.18	9.91	-46.2	-49.9	14.0	6.10e-06	0	40	0	48234496	64	5384
2026-01-08 08:39:34.52	114.08	9.99	-46.1	-49.8	14.1	1.50e-06	0	40	0	50331648	64	5329
2026-01-08 08:39:35.52	113.99	10.06	-46.1	-49.8	14.2	2.20e-06	0	40	0	52428800	64	5303
2026-01-08 08:39:36.52	113.90	10.13	-45.9	-49.4	14.7	7.00e-07	0	40	0	54525952	63	5365
2026-01-08 08:39:37.52	113.80	10.21	-45.9	-49.4	14.7	0.00e+00	0	40	0	55574528	63	5341
2026-01-08 08:39:38.52	113.71	10.29	-46.0	-49.5	14.6	7.00e-07	0	40	0	57671680	63	5416
2026-01-08 08:39:39.53	113.61	10.36	-46.1	-49.7	14.4	7.00e-07	0	40	0	59768832	63	5536
2026-01-08 08:39:40.53	113.51	10.44	-45.8	-49.2	14.9	7.00e-07	0	40	0	61865984	63	5244
2026-01-08 08:39:41.53	113.42	10.51	-45.8	-49.2	14.9	0.00e+00	0	40	0	62914560	63	5220
2026-01-08 08:39:42.53	113.32	10.59	-45.7	-49.0	15.1	0.00e+00	0	40	0	65011712	63	5127
2026-01-08 08:39:43.53	113.22	10.66	-45.8	-49.2	14.9	0.00e+00	0	40	0	67108864	63	5245
2026-01-08 08:39:44.53	113.13	10.74	-45.7	-48.9	15.1	0.00e+00	0	40	0	69206016	63	5092
2026-01-08 08:39:45.53	113.03	10.82	-45.7	-49.0	15.1	0.00e+00	0	40	0	71303168	63	5135
2026-01-08 08:39:46.53	112.93	10.89	-45.7	-49.1	15.0	0.00e+00	0	40	0	72351744	63	5162
2026-01-08 08:39:47.53	112.83	10.97	-45.8	-49.1	15.0	0.00e+00	0	40	0	74448896	63	5208
2026-01-08 08:39:48.53	112.73	11.05	-45.7	-49.0	15.1	0.00e+00	0	40	0	76546048	63	5144
2026-01-08 08:39:49.53	112.63	11.12	-45.8	-49.3	14.8	0.00e+00	0	40	0	78643200	63	5286
2026-01-08 08:39:50.53	112.53	11.20	-45.8	-49.2	14.9	0.00e+00	0	40	0	80740352	63	5277
2026-01-08 08:39:51.54	112.43	11.28	-45.7	-49.2	15.0	0.00e+00	0	40	0	81788928	63	5223
2026-01-08 08:39:52.54	112.32	11.36	-45.7	-49.1	14.9	0.00e+00	0	40	0	83886080	63	5215
2026-01-08 08:39:53.54	112.22	11.43	-45.6	-49.0	15.2	0.00e+00	0	40	0	85983232	63	5107
2026-01-08 08:39:54.54	112.12	11.51	-45.6	-49.0	15.2	0.00e+00	0	40	0	88080384	62	5403
2026-01-08 08:39:55.54	112.01	11.59	-45.6	-48.9	15.2	0.00e+00	0	40	0	89128960	62	5372
2026-01-08 08:39:56.54	111.91	11.67	-45.7	-48.9	15.2	0.00e+00	0	40	0	91226112	62	5402
2026-01-08 08:39:57.54	111.80	11.75	-45.6	-48.9	15.2	0.00e+00	0	40	0	93323264	62	5383
2026-01-08 08:39:58.54	111.70	11.82	-45.6	-48.9	15.2	0.00e+00	0	40	0	95420416	62	5374
2026-01-08 08:39:59.54	111.59	11.90	-45.6	-48.9	15.3	0.00e+00	0	40	0	97517568	62	5372
2026-01-08 08:40:00.54	111.49	11.98	-45.6	-48.9	15.2	0.00e+00	0	40	0	98566144	62	5370
2026-01-08 08:40:01.55	111.38	12.06	-45.7	-49.0	15.1	0.00e+00	0	40	0	100663296	62	5450
2026-01-08 08:40:02.54	111.27	12.14	-45.7	-49.0	15.2	0.00e+00	0	41	0	102760448	62	5431
2026-01-08 08:40:03.54	111.16	12.22	-45.6	-48.8	15.3	0.00e+00	0	40	0	104857600	62	5333
2026-01-08 08:40:04.54	111.05	12.30	-45.4	-48.6	15.6	0.00e+00	0	40	0	106954752	62	5175
2026-01-08 08:40:05.54	110.94	12.38	-45.4	-48.6	15.6	0.00e+00	0	40	0	108003328	62	5169
2026-01-08 08:40:06.54	110.83	12.46	-45.3	-48.4	15.7	0.00e+00	0	40	0	110100480	62	5078
2026-01-08 08:40:07.55	110.72	12.54	-45.4	-48.6	15.6	0.00e+00	0	40	0	112197632	62	5173
2026-01-08 08:40:08.54	110.61	12.62	-45.2	-48.3	15.9	0.00e+00	0	41	0	114294784	62	5030
2026-01-08 08:40:09.55	110.50	12.70	-45.6	-48.8	15.4	0.00e+00	0	40	0	116391936	62	5284
2026-01-08 08:40:10.55	110.39	12.78	-45.5	-48.7	15.5	0.00e+00	0	40	0	117440512	62	5227
2026-01-08 08:40:11.55	110.27	12.86	-45.3	-48.4	15.7	0.00e+00	0	40	0	119537664	62	5085
2026-01-08 08:40:12.55	110.16	12.94	-45.4	-48.5	15.6	0.00e+00	0	41	0	121634816	62	5148
2026-01-08 08:40:13.55	110.04	13.02	-45.4	-48.6	15.6	0.00e+00	0	40	0	123731968	62	5185
2026-01-08 08:40:14.55	109.93	13.10	-45.5	-48.7	15.5	0.00e+00	0	40	0	124780544	62	5254
2026-01-08 08:40:15.55	109.81	13.18	-45.6	-48.8	15.4	0.00e+00	0	40	0	126877696	62	5315
2026-01-08 08:40:16.56	109.70	13.26	-45.3	-48.4	15.8	0.00e+00	0	40	0	128974848	62	5099
2026-01-08 08:40:17.56	109.58	13.34	-45.3	-48.4	15.8	0.00e+00	0	40	0	131072000	62	5067
2026-01-08 08:40:18.56	109.46	13.43	-45.3	-48.4	15.8	0.00e+00	0	40	0	133169152	62	5058
2026-01-08 08:40:19.56	109.34	13.51	-45.2	-48.3	15.9	0.00e+00	0	40	0	135266304	62	5019
2026-01-08 08:40:20.56	109.22	13.59	-45.4	-48.6	15.6	0.00e+00	0	40	0	136314880	62	5182
2026-01-08 08:40:21.56	109.10	13.67	-45.5	-48.6	15.6	0.00e+00	0	41	0	138412032	62	5212
2026-01-08 08:40:22.57	108.98	13.75	-45.5	-48.6	15.6	0.00e+00	0	40	0	140509184	62	5192
2026-01-08 08:40:23.57	108.86	13.84	-45.4	-48.5	15.7	0.00e+00	0	40	0	142606336	62	5104
2026-01-08 08:40:24.57	108.74	13.92	-45.3	-48.3	15.9	0.00e+00	0	40	0	143654912	62	5026
2026-01-08 08:40:25.57	108.62	14.00	-45.4	-48.4	15.8	0.00e+00	0	40	0	145752064	62	5098
2026-01-08 08:40:26.57	108.49	14.08	-45.2	-48.2	16.0	0.00e+00	0	40	0	147849216	62	4959
2026-01-08 08:40:27.57	108.37	14.17	-45.2	-48.2	16.0	0.00e+00	0	40	0	149946368	62	4977
2026-01-08 08:40:28.57	108.24	14.25	-45.3	-48.3	15.9	0.00e+00	0	40	0	152043520	62	5021
2026-01-08 08:40:29.57	108.12	14.33	-45.3	-48.4	15.9	0.00e+00	0	41	0	153092096	62	5051
2026-01-08 08:40:30.57	107.99	14.42	-45.2	-48.2	16.0	0.00e+00	0	40	0	155189248	62	4979
2026-01-08 08:40:31.57	107.87	14.50	-45.1	-48.1	16.1	0.00e+00	0	41	0	157286400	62	4893
2026-01-08 08:40:32.57	107.74	14.58	-45.0	-48.0	16.2	0.00e+00	0	40	0	159383552	62	4865
2026-01-08 08:40:33.58	107.61	14.67	-45.0	-48.0	16.2	0.00e+00	0	40	0	161480704	62	4856
2026-01-08 08:40:34.58	107.48	14.75	-44.9	-47.8	16.4	0.00e+00	0	40	0	162529280	61	5007
2026-01-08 08:40:35.58	107.35	14.83	-44.8	-47.8	16.4	0.00e+00	0	40	0	164626432	61	4999
2026-01-08 08:40:36.58	107.22	14.92	-44.9	-47.9	16.3	0.00e+00	0	40	0	166723584	61	5060
2026-01-08 08:40:37.59	107.09	15.00	-44.9	-47.9	16.3	0.00e+00	0	41	0	168820736	61	5070
2026-01-08 08:40:38.59	106.95	15.09	-45.0	-47.9	16.2	0.00e+00	0	41	0	169869312	61	5092
2026-01-08 08:40:39.59	106.82	15.17	-44.9	-47.8	16.4	0.00e+00	0	41	0	171966464	61	5021
2026-01-08 08:40:40.59	106.69	15.26	-44.8	-47.7	16.5	0.00e+00	0	41	0	174063616	61	4953
2026-01-08 08:40:41.59	106.55	15.34	-44.8	-47.7	16.5	0.00e+00	0	40	0	176160768	61	4975
2026-01-08 08:40:42.60	106.42	15.43	-44.7	-47.5	16.7	0.00e+00	0	40	0	178257920	61	4845
2026-01-08 08:40:43.60	106.28	15.51	-44.8	-47.7	16.5	0.00e+00	0	41	0	179306496	61	4927
2026-01-08 08:40:44.60	106.14	15.60	-44.9	-47.9	16.3	0.00e+00	0	41	0	181403648	61	5045
2026-01-08 08:40:45.60	106.01	15.68	-44.8	-47.7	16.4	0.00e+00	0	40	0	183500800	61	4982
2026-01-08 08:40:46.60	105.87	15.77	-44.7	-47.5	16.7	0.00e+00	0	41	0	185597952	61	4827
2026-01-08 08:40:47.60	105.73	15.85	-44.7	-47.6	16.6	0.00e+00	0	40	0	187695104	61	4872
2026-01-08 08:40:48.60	105.59	15.94	-44.6	-47.4	16.8	0.00e+00	0	40	0	188743680	61	4766
2026-01-08 08:40:49.60	105.45	16.03	-44.5	-47.3	16.9	0.00e+00	0	40	0	190840832	61	4725
2026-01-08 08:40:50.60	105.31	16.11	-44.6	-47.5	16.7	0.00e+00	0	41	0	192937984	61	4823
2026-01-08 08:40:51.61	105.16	16.20	-44.4	-47.1	17.0	0.00e+00	0	41	0	195035136	60	4914
2026-01-08 08:40:52.61	105.02	16.28	-44.5	-47.2	17.0	0.00e+00	0	41	0	197132288	60	4955
2026-01-08 08:40:53.61	104.88	16.37	-44.5	-47.2	17.0	0.00e+00	0	40	0	198180864	60	4954
2026-01-08 08:40:54.61	104.73	16.46	-44.5	-47.3	16.9	0.00e+00	0	41	0	200278016	60	5006
2026-01-08 08:40:55.61	104.59	16.54	-44.5	-47.3	16.9	0.00e+00	0	41	0	202375168	60	5014
2026-01-08 08:40:56.61	104.44	16.63	-44.6	-47.5	16.7	0.00e+00	0	41	0	204472320	60	5114
2026-01-08 08:40:57.62	104.29	16.72	-44.7	-47.5	16.7	0.00e+00	0	40	0	206569472	60	5128
2026-01-08 08:40:58.62	104.14	16.81	-44.7	-47.5	16.7	0.00e+00	0	40	0	207618048	60	5135
2026-01-08 08:40:59.61	103.99	16.89	-44.6	-47.4	16.8	0.00e+00	0	41	0	209715200	60	5044
2026-01-08 08:41:00.62	103.84	16.98	-44.5	-47.2	17.0	0.00e+00	0	40	0	211812352	60	4960
2026-01-08 08:41:01.62	103.69	17.07	-44.5	-47.3	16.9	0.00e+00	0	41	0	213909504	60	5023
2026-01-08 08:41:02.62	103.54	17.15	-44.7	-47.5	16.7	0.00e+00	0	41	0	214958080	60	5110
2026-01-08 08:41:03.62	103.39	17.24	-44.6	-47.4	16.8	0.00e+00	0	41	0	217055232	60	5080
2026-01-08 08:41:04.62	103.23	17.33	-44.6	-47.3	16.9	0.00e+00	0	40	0	219152384	60	5030
2026-01-08 08:41:05.62	103.08	17.42	-44.6	-47.4	16.8	0.00e+00	0	40	0	221249536	60	5063
2026-01-08 08:41:06.62	102.92	17.50	-44.6	-47.4	16.8	0.00e+00	0	41	0	223346688	60	5072
2026-01-08 08:41:07.62	102.77	17.59	-44.6	-47.3	16.9	0.00e+00	0	41	0	224395264	60	5038
2026-01-08 08:41:08.62	102.61	17.68	-44.5	-47.2	17.0	0.00e+00	0	41	0	226492416	60	4962
2026-01-08 08:41:09.62	102.45	17.77	-44.6	-47.3	16.8	0.00e+00	0	41	0	228589568	60	5041
2026-01-08 08:41:10.62	102.29	17.86	-44.5	-47.2	17.0	0.00e+00	0	41	0	230686720	60	4961
2026-01-08 08:41:11.62	102.13	17.94	-44.4	-47.1	17.1	0.00e+00	0	41	0	232783872	60	4908
2026-01-08 08:41:12.62	101.97	18.03	-44.5	-47.3	16.9	0.00e+00	0	41	0	233832448	60	5012
2026-01-08 08:41:13.62	101.81	18.12	-44.6	-47.3	16.9	0.00e+00	0	41	0	235929600	60	5036
2026-01-08 08:41:14.62	101.65	18.21	-44.6	-47.3	16.9	0.00e+00	0	40	0	238026752	60	5014
2026-01-08 08:41:15.62	101.48	18.30	-44.5	-47.3	17.0	0.00e+00	0	41	0	240123904	60	4988
2026-01-08 08:41:16.62	101.32	18.39	-44.5	-47.2	17.0	0.00e+00	0	41	0	242221056	60	4980
2026-01-08 08:41:17.62	101.15	18.48	-44.5	-47.3	16.9	0.00e+00	0	41	0	243269632	60	5014
2026-01-08 08:41:18.63	100.98	18.57	-44.6	-47.4	16.9	0.00e+00	0	41	0	245366784	60	5053
2026-01-08 08:41:19.63	100.82	18.65	-44.8	-47.6	16.7	0.00e+00	0	41	0	247463936	60	5185
2026-01-08 08:41:20.63	100.65	18.74	-44.7	-47.6	16.7	0.00e+00	0	40	0	249561088	60	5174
2026-01-08 08:41:21.63	100.48	18.83	-44.7	-47.5	16.7	0.00e+00	0	41	0	250609664	60	5139
2026-01-08 08:41:22.63	100.31	18.92	-44.9	-47.7	16.6	0.00e+00	0	40	0	252706816	60	5279
2026-01-08 08:41:23.63	100.14	19.01	-44.9	-47.7	16.6	0.00e+00	0	41	0	254803968	60	5253
2026-01-08 08:41:24.64	99.96	19.10	-44.9	-47.7	16.6	0.00e+00	0	41	0	256901120	60	5249
2026-01-08 08:41:25.64	99.79	19.19	-44.9	-47.8	16.4	0.00e+00	0	41	0	258998272	60	5324
2026-01-08 08:41:26.64	99.61	19.28	-44.9	-47.7	16.5	0.00e+00	0	41	0	260046848	60	5265
2026-01-08 08:41:27.65	99.44	19.37	-44.9	-47.7	16.5	0.00e+00	0	41	0	262144000	60	5269
2026-01-08 08:41:28.65	99.26	19.46	-44.9	-47.8	16.5	0.00e+00	0	40	0	264241152	60	5286
2026-01-08 08:41:29.65	99.08	19.55	-44.8	-47.6	16.7	0.00e+00	0	41	0	266338304	60	5196
2026-01-08 08:41:30.65	98.90	19.64	-44.8	-47.7	16.6	0.00e+00	0	41	0	268435456	60	5243
2026-01-08 08:41:31.65	98.72	19.73	-44.7	-47.5	16.7	0.00e+00	0	41	0	269484032	60	5148
2026-01-08 08:41:32.65	98.54	19.81	-44.7	-47.6	16.7	0.00e+00	0	41	0	271581184	60	5180
2026-01-08 08:41:33.66	98.36	19.91	-44.7	-47.5	16.8	0.00e+00	0	41	0	273678336	60	5130
2026-01-08 08:41:34.66	98.17	19.99	-44.6	-47.4	16.8	0.00e+00	0	41	0	275775488	60	5085
2026-01-08 08:41:35.66	97.99	20.08	-44.6	-47.4	16.9	0.00e+00	0	41	0	276824064	60	5076
2026-01-08 08:41:36.66	97.80	20.17	-44.6	-47.4	16.9	0.00e+00	0	41	0	278921216	60	5068
2026-01-08 08:41:37.66	97.62	20.26	-44.5	-47.3	17.0	0.00e+00	0	41	0	281018368	60	5015
2026-01-08 08:41:38.66	97.43	20.35	-44.6	-47.3	16.9	0.00e+00	0	40	0	283115520	60	5035
2026-01-08 08:41:39.66	97.24	20.44	-44.6	-47.3	16.9	0.00e+00	0	41	0	285212672	60	5034
2026-01-08 08:41:40.66	97.05	20.53	-44.4	-47.1	17.1	0.00e+00	0	41	0	287309824	60	4910
2026-01-08 08:41:41.66	96.86	20.62	-44.5	-47.2	17.0	0.00e+00	0	41	0	288358400	60	4971
2026-01-08 08:41:42.66	96.67	20.71	-44.6	-47.4	16.9	0.00e+00	0	41	0	290455552	60	5061
2026-01-08 08:41:43.66	96.47	20.80	-44.6	-47.3	16.9	0.00e+00	0	41	0	292552704	60	5037
2026-01-08 08:41:44.66	96.28	20.89	-44.6	-47.4	16.9	0.00e+00	0	41	0	294649856	60	5052
2026-01-08 08:41:45.66	96.08	20.98	-44.5	-47.2	17.1	0.00e+00	0	41	0	295698432	60	4956
2026-01-08 08:41:46.67	95.88	21.07	-44.4	-47.0	17.2	0.00e+00	0	41	0	297795584	60	4861
2026-01-08 08:41:47.67	95.69	21.16	-44.4	-47.1	17.2	0.00e+00	0	41	0	299892736	60	4878
2026-01-08 08:41:48.67	95.49	21.25	-44.3	-47.0	17.3	0.00e+00	0	41	0	301989888	60	4848
2026-01-08 08:41:49.67	95.29	21.34	-44.2	-46.9	17.4	0.00e+00	0	41	0	304087040	60	4779
2026-01-08 08:41:50.67	95.09	21.42	-44.1	-46.7	17.5	0.00e+00	0	41	0	305135616	60	4679
2026-01-08 08:41:51.67	94.88	21.51	-44.1	-46.7	17.5	0.00e+00	0	41	0	307232768	60	4681
2026-01-08 08:41:52.67	94.68	21.60	-44.1	-46.7	17.5	0.00e+00	0	41	0	309329920	60	4695
2026-01-08 08:41:53.67	94.48	21.69	-44.2	-46.8	17.5	0.00e+00	0	41	0	311427072	60	4733
2026-01-08 08:41:54.67	94.27	21.78	-44.1	-46.7	17.6	0.00e+00	0	41	0	313524224	60	4683
2026-01-08 08:41:55.67	94.06	21.87	-44.0	-46.5	17.6	0.00e+00	0	41	0	314572800	59	4858
2026-01-08 08:41:56.67	93.85	21.96	-44.1	-46.6	17.6	0.00e+00	0	41	0	316669952	59	4920
2026-01-08 08:41:57.68	93.64	22.05	-44.1	-46.8	17.5	0.00e+00	0	41	0	318767104	59	4987
2026-01-08 08:41:58.68	93.43	22.13	-43.8	-46.4	17.8	0.00e+00	0	41	0	320864256	59	4763
2026-01-08 08:41:59.68	93.22	22.22	-43.9	-46.4	17.8	0.00e+00	0	41	0	322961408	59	4771
2026-01-08 08:42:00.69	93.00	22.31	-43.6	-46.1	18.1	0.00e+00	0	40	0	324009984	59	4604
2026-01-08 08:42:01.69	92.79	22.40	-43.5	-46.0	18.2	0.00e+00	0	41	0	326107136	59	4554
2026-01-08 08:42:02.69	92.57	22.49	-43.5	-46.0	18.2	0.00e+00	0	41	0	328204288	59	4576
2026-01-08 08:42:03.69	92.36	22.57	-43.4	-45.9	18.3	0.00e+00	0	41	0	330301440	58	4763
2026-01-08 08:42:04.70	92.14	22.66	-43.5	-45.9	18.2	0.00e+00	0	41	0	331350016	58	4788
2026-01-08 08:42:05.69	91.92	22.75	-43.5	-46.0	18.2	0.00e+00	0	41	0	333447168	58	4838
2026-01-08 08:42:06.70	91.70	22.84	-43.6	-46.1	18.1	0.00e+00	0	41	0	335544320	58	4888
2026-01-08 08:42:07.70	91.48	22.92	-43.7	-46.2	17.9	0.00e+00	0	41	0	337641472	58	4980
2026-01-08 08:42:08.70	91.25	23.01	-43.6	-46.1	18.1	0.00e+00	0	41	0	339738624	58	4915
2026-01-08 08:42:09.70	91.03	23.10	-43.4	-45.8	18.4	0.00e+00	0	41	0	340787200	58	4718
2026-01-08 08:42:10.70	90.80	23.19	-43.4	-45.8	18.3	0.00e+00	0	41	0	342884352	58	4718
2026-01-08 08:42:11.70	90.58	23.27	-43.4	-45.8	18.3	0.00e+00	0	41	0	344981504	58	4759
2026-01-08 08:42:12.70	90.35	23.36	-43.2	-45.6	18.6	0.00e+00	0	40	0	347078656	58	4623
2026-01-08 08:42:13.71	90.12	23.44	-43.2	-45.7	18.5	0.00e+00	0	41	0	349175808	58	4657
2026-01-08 08:42:14.71	89.88	23.53	-43.2	-45.6	18.5	0.00e+00	0	41	0	350224384	58	4649
2026-01-08 08:42:15.71	89.65	23.62	-43.2	-45.7	18.5	0.00e+00	0	41	0	352321536	58	4669
2026-01-08 08:42:16.71	89.42	23.70	-43.2	-45.7	18.5	0.00e+00	0	40	0	354418688	58	4668
2026-01-08 08:42:17.71	89.18	23.79	-43.3	-45.8	18.4	0.00e+00	0	41	0	356515840	58	4725
2026-01-08 08:42:18.71	88.95	23.87	-43.3	-45.7	18.5	0.00e+00	0	41	0	358612992	58	4673
2026-01-08 08:42:19.71	88.71	23.96	-43.2	-45.7	18.5	0.00e+00	0	40	0	359661568	58	4667
2026-01-08 08:42:20.71	88.47	24.04	-43.3	-45.8	18.4	0.00e+00	0	41	0	361758720	58	4711
2026-01-08 08:42:21.71	88.23	24.12	-43.4	-45.8	18.4	0.00e+00	0	41	0	363855872	58	4748
2026-01-08 08:42:22.71	87.99	24.21	-43.4	-45.9	18.3	0.00e+00	0	41	0	365953024	58	4803
2026-01-08 08:42:23.71	87.75	24.29	-43.5	-46.0	18.2	0.00e+00	0	41	0	368050176	58	4853
2026-01-08 08:42:24.72	87.51	24.37	-43.6	-46.1	18.1	0.00e+00	0	41	0	369098752	58	4903
2026-01-08 08:42:25.72	87.26	24.46	-43.5	-46.0	18.2	0.00e+00	0	41	0	371195904	58	4864
2026-01-08 08:42:26.71	87.02	24.54	-43.6	-46.2	18.1	0.00e+00	0	41	0	373293056	58	4927
2026-01-08 08:42:27.71	86.77	24.62	-43.7	-46.3	18.0	0.00e+00	0	41	0	375390208	58	4993
2026-01-08 08:42:28.71	86.52	24.70	-43.6	-46.2	18.0	0.00e+00	0	41	0	376438784	58	4953
2026-01-08 08:42:29.71	86.27	24.78	-43.6	-46.1	18.1	0.00e+00	0	41	0	378535936	58	4915
2026-01-08 08:42:30.71	86.02	24.87	-43.7	-46.3	18.0	0.00e+00	0	41	0	380633088	58	4986
2026-01-08 08:42:31.72	85.76	24.95	-43.6	-46.1	18.1	0.00e+00	0	41	0	382730240	58	4919
2026-01-08 08:42:32.72	85.51	25.03	-43.7	-46.3	17.9	0.00e+00	0	41	0	384827392	58	5001
2026-01-08 08:42:33.72	85.25	25.11	-43.7	-46.3	18.0	0.00e+00	0	41	0	385875968	58	4989
2026-01-08 08:42:34.73	85.00	25.19	-43.6	-46.2	18.1	0.00e+00	0	40	0	387973120	58	4928
2026-01-08 08:42:35.73	84.74	25.27	-43.6	-46.2	18.0	0.00e+00	0	41	0	390070272	58	4939
2026-01-08 08:42:36.73	84.48	25.35	-43.6	-46.2	18.0	0.00e+00	0	41	0	392167424	58	4969
2026-01-08 08:42:37.73	84.22	25.43	-43.7	-46.3	18.0	0.00e+00	0	41	0	394264576	58	4994
2026-01-08 08:42:38.73	83.96	25.50	-43.7	-46.3	17.9	0.00e+00	0	41	0	395313152	58	5019
2026-01-08 08:42:39.74	83.69	25.58	-43.9	-46.6	17.7	0.00e+00	0	41	0	397410304	58	5177
2026-01-08 08:42:40.74	83.43	25.66	-44.1	-46.8	17.5	0.00e+00	0	41	0	399507456	58	5281
2026-01-08 08:42:41.74	83.16	25.74	-44.1	-46.8	17.5	0.00e+00	0	41	0	401604608	59	5013
2026-01-08 08:42:42.74	82.89	25.81	-44.1	-46.8	17.5	0.00e+00	0	41	0	402653184	59	5005
2026-01-08 08:42:43.74	82.63	25.89	-44.1	-46.7	17.5	0.00e+00	0	40	0	404750336	59	4967
2026-01-08 08:42:44.74	82.36	25.96	-44.0	-46.7	17.6	0.00e+00	0	41	0	406847488	59	4946
2026-01-08 08:42:45.75	82.08	26.04	-44.1	-46.8	17.5	0.00e+00	0	41	0	408944640	59	4994
2026-01-08 08:42:46.75	81.81	26.11	-43.8	-46.3	17.9	0.00e+00	0	41	0	411041792	59	4754
2026-01-08 08:42:47.75	81.54	26.19	-43.7	-46.2	18.0	0.00e+00	0	41	0	412090368	59	4696
2026-01-08 08:42:48.75	81.26	26.26	-43.7	-46.3	18.0	0.00e+00	0	41	0	414187520	59	4713
2026-01-08 08:42:49.74	80.99	26.33	-43.7	-46.2	18.0	0.00e+00	0	41	0	416284672	59	4675
2026-01-08 08:42:50.75	80.71	26.41	-43.7	-46.2	18.0	0.00e+00	0	41	0	418381824	59	4692
2026-01-08 08:42:51.75	80.43	26.48	-43.7	-46.2	18.1	0.00e+00	0	41	0	420478976	59	4680
2026-01-08 08:42:52.75	80.15	26.55	-43.6	-46.1	18.1	0.00e+00	0	41	0	421527552	59	4633
2026-01-08 08:42:53.75	79.87	26.62	-43.7	-46.1	18.1	0.00e+00	0	41	0	423624704	59	4642
2026-01-08 08:42:54.75	79.59	26.69	-43.7	-46.2	18.1	0.00e+00	0	41	0	425721856	59	4656
2026-01-08 08:42:55.76	79.30	26.76	-43.7	-46.2	18.0	0.00e+00	0	41	0	427819008	59	4695
2026-01-08 08:42:56.76	79.02	26.83	-43.9	-46.4	17.8	0.00e+00	0	41	0	429916160	59	4794
2026-01-08 08:42:57.76	78.73	26.90	-43.9	-46.5	17.8	0.00e+00	0	40	0	430964736	59	4840
2026-01-08 08:42:58.76	78.45	26.96	-44.0	-46.5	17.8	0.00e+00	0	40	0	433061888	59	4836
2026-01-08 08:42:59.76	78.16	27.03	-44.0	-46.6	17.7	0.00e+00	0	41	0	435159040	59	4879
2026-01-08 08:43:00.76	77.87	27.10	-43.9	-46.5	17.8	0.00e+00	0	41	0	437256192	59	4816
2026-01-08 08:43:01.77	77.57	27.16	-44.0	-46.5	17.7	0.00e+00	0	41	0	439353344	59	4866
2026-01-08 08:43:02.77	77.28	27.23	-43.9	-46.4	17.8	0.00e+00	0	41	0	440401920	59	4799
2026-01-08 08:43:03.77	76.99	27.29	-43.9	-46.5	17.8	0.00e+00	0	41	0	442499072	59	4827
2026-01-08 08:43:04.77	76.69	27.36	-43.9	-46.4	17.8	0.00e+00	0	40	0	444596224	59	4814
2026-01-08 08:43:05.77	76.40	27.42	-44.0	-46.6	17.6	0.00e+00	0	41	0	446693376	59	4924
2026-01-08 08:43:06.78	76.10	27.48	-44.2	-46.9	17.4	0.00e+00	0	40	0	447741952	59	5069
2026-01-08 08:43:07.78	75.80	27.54	-44.2	-46.8	17.5	0.00e+00	0	41	0	449839104	59	4988
2026-01-08 08:43:08.78	75.50	27.60	-44.2	-46.7	17.5	0.00e+00	0	41	0	451936256	59	4979
2026-01-08 08:43:09.79	75.20	27.67	-44.2	-46.8	17.4	0.00e+00	0	40	0	454033408	59	5028
2026-01-08 08:43:10.79	74.90	27.72	-44.3	-46.9	17.4	0.00e+00	0	40	0	456130560	59	5090
2026-01-08 08:43:11.79	74.60	27.78	-44.3	-46.9	17.4	0.00e+00	0	40	0	457179136	59	5086
2026-01-08 08:43:12.79	74.29	27.84	-44.3	-46.9	17.4	0.00e+00	0	40	0	459276288	59	5064
2026-01-08 08:43:13.80	73.99	27.90	-44.5	-47.2	17.1	0.00e+00	0	40	0	461373440	59	5226
2026-01-08 08:43:14.80	73.68	27.95	-44.7	-47.4	16.9	0.00e+00	0	41	0	463470592	60	5077
2026-01-08 08:43:15.79	73.38	28.01	-44.7	-47.4	17.0	0.00e+00	0	40	0	465567744	60	5075
2026-01-08 08:43:16.80	73.07	28.07	-44.8	-47.5	16.9	0.00e+00	0	41	0	466616320	60	5136
2026-01-08 08:43:17.80	72.76	28.12	-44.7	-47.5	16.9	0.00e+00	0	41	0	468713472	60	5105
2026-01-08 08:43:18.80	72.45	28.17	-44.8	-47.7	16.7	0.00e+00	0	41	0	470810624	60	5225
2026-01-08 08:43:19.81	72.13	28.22	-44.8	-47.6	16.8	0.00e+00	0	40	0	472907776	60	5195
2026-01-08 08:43:20.81	71.82	28.28	-44.7	-47.5	16.9	0.00e+00	0	41	0	475004928	60	5141
2026-01-08 08:43:21.81	71.51	28.33	-44.7	-47.5	16.9	0.00e+00	0	41	0	476053504	60	5101
2026-01-08 08:43:22.81	71.19	28.38	-44.8	-47.6	16.8	0.00e+00	0	40	0	478150656	60	5166
2026-01-08 08:43:23.81	70.88	28.42	-44.9	-47.7	16.6	0.00e+00	0	41	0	480247808	60	5276
2026-01-08 08:43:24.81	70.56	28.47	-45.0	-47.9	16.5	0.00e+00	0	41	0	482344960	60	5350
2026-01-08 08:43:25.81	70.25	28.52	-44.8	-47.6	16.8	0.00e+00	0	41	0	483393536	60	5181
2026-01-08 08:43:26.81	69.93	28.57	-44.8	-47.6	16.7	0.00e+00	0	41	0	485490688	60	5218
2026-01-08 08:43:27.81	69.61	28.61	-44.8	-47.6	16.9	0.00e+00	0	41	0	487587840	60	5162
2026-01-08 08:43:28.81	69.29	28.65	-44.9	-47.7	16.7	0.00e+00	0	41	0	489684992	60	5236
2026-01-08 08:43:29.81	68.97	28.70	-44.9	-47.7	16.7	0.00e+00	0	41	0	491782144	60	5256
2026-01-08 08:43:30.81	68.65	28.74	-45.0	-47.9	16.5	0.00e+00	0	41	0	492830720	60	5347
2026-01-08 08:43:31.81	68.33	28.78	-45.0	-47.9	16.5	0.00e+00	0	40	0	494927872	61	5075
2026-01-08 08:43:32.81	68.01	28.82	-45.1	-47.9	16.5	0.00e+00	0	40	0	497025024	61	5078
2026-01-08 08:43:33.81	67.68	28.86	-44.9	-47.8	16.6	0.00e+00	0	41	0	499122176	61	4984
2026-01-08 08:43:34.82	67.36	28.90	-44.8	-47.5	16.9	0.00e+00	0	40	0	501219328	61	4845
2026-01-08 08:43:35.82	67.03	28.94	-44.9	-47.7	16.7	0.00e+00	0	41	0	502267904	61	4956
2026-01-08 08:43:36.81	66.71	28.97	-45.0	-47.9	16.5	0.00e+00	0	41	0	504365056	61	5075
2026-01-08 08:43:37.82	66.38	29.01	-45.2	-48.1	16.3	0.00e+00	0	40	0	506462208	61	5190
2026-01-08 08:43:38.82	66.05	29.04	-45.3	-48.2	16.2	0.00e+00	0	41	0	508559360	61	5263
2026-01-08 08:43:39.82	65.72	29.08	-45.2	-48.2	16.3	0.00e+00	0	41	0	510656512	61	5251
2026-01-08 08:43:40.82	65.39	29.11	-45.3	-48.3	16.1	0.00e+00	0	41	0	511705088	61	5291
2026-01-08 08:43:41.83	65.06	29.14	-45.3	-48.2	16.1	0.00e+00	0	41	0	513802240	61	5253
2026-01-08 08:43:42.83	64.73	29.17	-45.3	-48.2	16.3	0.00e+00	0	41	0	515899392	61	5243
2026-01-08 08:43:43.83	64.40	29.20	-45.5	-48.5	16.0	0.00e+00	0	41	0	517996544	61	5423
2026-01-08 08:43:44.84	64.07	29.23	-45.7	-48.8	15.7	0.00e+00	0	41	0	520093696	61	5619
2026-01-08 08:43:45.84	63.74	29.26	-45.7	-48.8	15.6	0.00e+00	0	41	0	521142272	62	5337
2026-01-08 08:43:46.84	63.40	29.29	-45.7	-48.8	15.8	0.00e+00	0	40	0	523239424	62	5310
2026-01-08 08:43:47.84	63.07	29.31	-45.6	-48.7	15.7	0.00e+00	0	41	0	525336576	62	5271
2026-01-08 08:43:48.84	62.74	29.33	-45.7	-48.8	15.6	0.00e+00	0	41	0	527433728	62	5320
2026-01-08 08:43:49.85	62.40	29.36	-45.7	-48.9	15.6	0.00e+00	0	41	0	528482304	62	5379
2026-01-08 08:43:50.85	62.07	29.38	-45.6	-48.8	15.7	0.00e+00	0	41	0	530579456	62	5289
2026-01-08 08:43:51.85	61.73	29.40	-45.4	-48.5	15.9	0.00e+00	0	41	0	532676608	62	5128
2026-01-08 08:43:52.85	61.40	29.42	-45.5	-48.6	15.9	0.00e+00	0	41	0	534773760	62	5187
2026-01-08 08:43:53.85	61.06	29.44	-45.4	-48.5	16.0	0.00e+00	0	40	0	536870912	62	5116
2026-01-08 08:43:54.86	60.72	29.46	-45.7	-48.8	15.7	0.00e+00	0	41	0	537919488	62	5332
2026-01-08 08:43:55.86	60.39	29.47	-45.8	-49.0	15.4	0.00e+00	0	41	0	540016640	62	5428
2026-01-08 08:43:56.86	60.05	29.49	-45.8	-48.9	15.5	0.00e+00	0	41	0	542113792	62	5401
2026-01-08 08:43:57.86	59.71	29.50	-45.7	-48.9	15.6	0.00e+00	0	41	0	544210944	62	5353
2026-01-08 08:43:58.86	59.38	29.52	-45.7	-48.9	15.6	0.00e+00	0	41	0	546308096	62	5356
2026-01-08 08:43:59.87	59.03	29.53	-45.6	-48.7	15.7	0.00e+00	0	41	0	547356672	62	5277
2026-01-08 08:44:00.86	58.70	29.54	-45.6	-48.7	15.8	0.00e+00	0	41	0	549453824	62	5236
2026-01-08 08:44:01.87	58.36	29.55	-45.6	-48.7	15.8	0.00e+00	0	41	0	551550976	62	5222
2026-01-08 08:44:02.87	58.02	29.56	-45.7	-48.8	15.7	0.00e+00	0	41	0	553648128	62	5307
2026-01-08 08:44:03.87	57.68	29.57	-45.7	-48.8	15.6	0.00e+00	0	41	0	555745280	62	5315
2026-01-08 08:44:04.87	57.34	29.57	-45.7	-48.9	15.6	0.00e+00	0	40	0	556793856	62	5341
2026-01-08 08:44:05.87	57.01	29.58	-45.7	-48.8	15.7	0.00e+00	0	40	0	558891008	62	5286
2026-01-08 08:44:06.88	56.66	29.58	-45.6	-48.7	15.8	0.00e+00	0	41	0	560988160	62	5242
2026-01-08 08:44:07.88	56.33	29.59	-45.5	-48.5	16.0	0.00e+00	0	40	0	563085312	62	5128
2026-01-08 08:44:08.88	55.99	29.59	-45.5	-48.6	15.9	0.00e+00	0	40	0	565182464	62	5168
2026-01-08 08:44:09.88	55.65	29.59	-45.6	-48.7	15.8	0.00e+00	0	40	0	566231040	62	5219
2026-01-08 08:44:10.89	55.31	29.59	-45.5	-48.6	15.9	0.00e+00	0	41	0	568328192	62	5169
2026-01-08 08:44:11.89	54.97	29.59	-45.4	-48.4	16.1	0.00e+00	0	41	0	570425344	62	5066
2026-01-08 08:44:12.89	54.63	29.59	-45.2	-48.2	16.3	0.00e+00	0	40	0	572522496	62	4928
2026-01-08 08:44:13.90	54.29	29.58	-45.2	-48.1	16.4	0.00e+00	0	40	0	573571072	62	4871
2026-01-08 08:44:14.90	53.95	29.58	-45.1	-48.0	16.5	0.00e+00	0	41	0	575668224	62	4835
2026-01-08 08:44:15.90	53.61	29.57	-45.2	-48.1	16.3	0.00e+00	0	41	0	577765376	62	4917
2026-01-08 08:44:16.90	53.27	29.57	-45.2	-48.2	16.3	0.00e+00	0	41	0	579862528	62	4934
2026-01-08 08:44:17.90	52.93	29.56	-45.2	-48.2	16.3	0.00e+00	0	40	0	581959680	62	4927
2026-01-08 08:44:18.90	52.60	29.55	-44.9	-47.8	16.6	0.00e+00	0	40	0	583008256	61	5011
2026-01-08 08:44:19.91	52.26	29.54	-44.8	-47.6	16.8	0.00e+00	0	40	0	585105408	61	4898
2026-01-08 08:44:20.91	51.92	29.53	-44.6	-47.4	17.0	0.00e+00	0	40	0	587202560	61	4778
2026-01-08 08:44:21.91	51.58	29.52	-44.7	-47.5	16.9	0.00e+00	0	41	0	589299712	61	4842
2026-01-08 08:44:22.92	51.24	29.50	-44.7	-47.5	16.9	0.00e+00	0	41	0	591396864	61	4823
2026-01-08 08:44:23.92	50.90	29.49	-44.8	-47.7	16.7	0.00e+00	0	41	0	592445440	61	4939
2026-01-08 08:44:24.92	50.57	29.47	-44.8	-47.7	16.8	0.00e+00	0	41	0	594542592	61	4928
2026-01-08 08:44:25.92	50.23	29.46	-44.9	-47.8	16.7	0.00e+00	0	41	0	596639744	61	4998
2026-01-08 08:44:26.92	49.90	29.44	-44.9	-47.7	16.7	0.00e+00	0	41	0	598736896	61	4963
2026-01-08 08:44:27.93	49.56	29.42	-44.8	-47.6	16.8	0.00e+00	0	41	0	600834048	61	4922
2026-01-08 08:44:28.93	49.22	29.40	-44.8	-47.7	16.7	0.00e+00	0	41	0	601882624	61	4950
2026-01-08 08:44:29.92	48.89	29.38	-44.7	-47.5	16.8	0.00e+00	0	41	0	603979776	61	4869
2026-01-08 08:44:30.93	48.55	29.36	-44.8	-47.5	16.9	0.00e+00	0	41	0	606076928	61	4869
2026-01-08 08:44:31.93	48.22	29.33	-44.7	-47.4	17.0	0.00e+00	0	41	0	608174080	61	4798
2026-01-08 08:44:32.92	47.89	29.31	-44.6	-47.3	17.1	0.00e+00	0	40	0	610271232	61	4723
2026-01-08 08:44:33.93	47.56	29.28	-44.7	-47.4	17.0	0.00e+00	0	41	0	611319808	61	4811
2026-01-08 08:44:34.93	47.22	29.26	-44.6	-47.4	17.0	0.00e+00	0	41	0	613416960	61	4775
2026-01-08 08:44:35.94	46.89	29.23	-44.6	-47.3	17.1	0.00e+00	0	40	0	615514112	61	4715
2026-01-08 08:44:36.94	46.56	29.20	-44.7	-47.4	17.0	0.00e+00	0	41	0	617611264	61	4794
2026-01-08 08:44:37.94	46.23	29.17	-44.9	-47.7	16.7	0.00e+00	0	41	0	618659840	61	4968
2026-01-08 08:44:38.94	45.90	29.14	-44.8	-47.7	16.7	0.00e+00	0	40	0	620756992	61	4966
2026-01-08 08:44:39.95	45.57	29.11	-44.7	-47.6	16.9	0.00e+00	0	41	0	622854144	61	4879
2026-01-08 08:44:40.95	45.24	29.08	-44.5	-47.2	17.1	0.00e+00	0	41	0	624951296	61	4704
2026-01-08 08:44:41.95	44.91	29.04	-44.4	-47.0	17.4	0.00e+00	0	41	0	627048448	60	4845
2026-01-08 08:44:42.95	44.59	29.01	-44.4	-47.1	17.3	0.00e+00	0	41	0	628097024	60	4897
2026-01-08 08:44:43.95	44.26	28.97	-44.6	-47.3	17.1	0.00e+00	0	41	0	630194176	60	5027
2026-01-08 08:44:44.95	43.93	28.94	-44.7	-47.5	16.9	0.00e+00	0	41	0	632291328	60	5120
2026-01-08 08:44:45.96	43.61	28.90	-44.7	-47.5	16.9	0.00e+00	0	41	0	634388480	60	5124
2026-01-08 08:44:46.96	43.28	28.86	-44.7	-47.5	16.9	0.00e+00	0	40	0	636485632	60	5123
2026-01-08 08:44:47.96	42.96	28.82	-44.8	-47.7	16.8	0.00e+00	0	40	0	637534208	60	5235
2026-01-08 08:44:48.97	42.64	28.78	-45.0	-47.9	16.6	0.00e+00	0	41	0	639631360	60	5347
2026-01-08 08:44:49.97	42.31	28.74	-45.1	-48.0	16.5	0.00e+00	0	41	0	641728512	60	5427
2026-01-08 08:44:50.97	41.99	28.70	-45.3	-48.2	16.2	0.00e+00	0	41	0	643825664	61	5270
2026-01-08 08:44:51.97	41.67	28.65	-45.4	-48.4	16.0	0.00e+00	0	41	0	645922816	61	5380
2026-01-08 08:44:52.97	41.36	28.61	-45.5	-48.5	16.0	0.00e+00	0	41	0	646971392	61	5428
2026-01-08 08:44:53.97	41.04	28.56	-45.5	-48.5	16.0	0.00e+00	0	41	0	649068544	61	5422
2026-01-08 08:44:54.98	40.72	28.52	-45.5	-48.5	15.9	0.00e+00	0	40	0	651165696	61	5458
2026-01-08 08:44:55.98	40.40	28.47	-45.5	-48.5	15.9	0.00e+00	0	40	0	653262848	61	5448
2026-01-08 08:44:56.98	40.09	28.42	-45.4	-48.5	16.0	0.00e+00	0	40	0	655360000	61	5424
2026-01-08 08:44:57.98	39.77	28.37	-45.4	-48.5	16.0	0.00e+00	0	41	0	656408576	61	5429
2026-01-08 08:44:58.99	39.46	28.32	-45.5	-48.6	15.9	0.00e+00	0	40	0	658505728	61	5486
2026-01-08 08:44:59.99	39.15	28.27	-45.4	-48.6	15.9	0.00e+00	0	41	0	660602880	61	5469
2026-01-08 08:45:00.99	38.83	28.22	-45.5	-48.6	15.8	0.00e+00	0	41	0	662700032	61	5506
2026-01-08 08:45:02.00	38.52	28.17	-45.5	-48.7	15.8	0.00e+00	0	41	0	663748608	61	5530
2026-01-08 08:45:03.00	38.21	28.12	-45.4	-48.5	15.9	0.00e+00	0	40	0	665845760	61	5430
2026-01-08 08:45:04.00	37.90	28.06	-45.5	-48.6	15.8	0.00e+00	0	41	0	667942912	61	5501
2026-01-08 08:45:05.00	37.60	28.01	-45.5	-48.6	15.8	0.00e+00	0	41	0	670040064	61	5526
2026-01-08 08:45:06.00	37.29	27.95	-45.7	-48.8	15.6	0.00e+00	0	41	0	672137216	61	5649
2026-01-08 08:45:07.00	36.99	27.90	-45.8	-49.0	15.5	0.00e+00	0	41	0	673185792	62	5415
2026-01-08 08:45:08.00	36.68	27.84	-45.8	-49.0	15.5	0.00e+00	0	40	0	675282944	62	5431
2026-01-08 08:45:09.01	36.38	27.78	-45.8	-48.9	15.5	0.00e+00	0	41	0	677380096	62	5393
2026-01-08 08:45:10.01	36.08	27.72	-45.8	-49.0	15.5	0.00e+00	0	41	0	679477248	62	5416
2026-01-08 08:45:11.01	35.78	27.66	-45.7	-48.8	15.6	0.00e+00	0	41	0	681574400	62	5333
2026-01-08 08:45:12.01	35.48	27.60	-45.8	-49.0	15.5	0.00e+00	0	41	0	682622976	62	5412
2026-01-08 08:45:13.01	35.18	27.54	-45.7	-48.9	15.6	0.00e+00	0	40	0	684720128	62	5396
2026-01-08 08:45:14.02	34.88	27.48	-45.5	-48.6	15.8	0.00e+00	0	41	0	686817280	62	5210
2026-01-08 08:45:15.02	34.58	27.42	-45.4	-48.5	16.0	0.00e+00	0	41	0	688914432	62	5101
2026-01-08 08:45:16.02	34.29	27.36	-45.4	-48.4	16.0	0.00e+00	0	41	0	691011584	62	5074
2026-01-08 08:45:17.03	33.99	27.29	-45.3	-48.3	16.1	0.00e+00	0	41	0	692060160	62	5016
2026-01-08 08:45:18.03	33.70	27.23	-45.3	-48.3	16.1	0.00e+00	0	41	0	694157312	62	5016
2026-01-08 08:45:19.02	33.41	27.16	-45.4	-48.4	16.1	0.00e+00	0	41	0	696254464	62	5067
2026-01-08 08:45:20.02	33.12	27.10	-45.4	-48.5	16.0	0.00e+00	0	41	0	698351616	62	5121
2026-01-08 08:45:21.02	32.84	27.03	-45.5	-48.7	15.8	0.00e+00	0	41	0	700448768	62	5240
2026-01-08 08:45:22.02	32.55	26.96	-45.4	-48.5	16.0	0.00e+00	0	40	0	701497344	62	5118
2026-01-08 08:45:23.02	32.26	26.90	-45.3	-48.4	16.0	0.00e+00	0	41	0	703594496	62	5093
2026-01-08 08:45:24.02	31.98	26.83	-45.3	-48.4	16.1	0.00e+00	0	41	0	705691648	62	5072
2026-01-08 08:45:25.02	31.69	26.76	-45.2	-48.2	16.3	0.00e+00	0	41	0	707788800	62	4937
2026-01-08 08:45:26.02	31.41	26.69	-45.0	-47.8	16.6	0.00e+00	0	41	0	708837376	61	5027
2026-01-08 08:45:27.03	31.13	26.62	-44.9	-47.8	16.7	0.00e+00	0	40	0	710934528	61	4984
2026-01-08 08:45:28.03	30.85	26.55	-45.0	-47.9	16.5	0.00e+00	0	41	0	713031680	61	5077
2026-01-08 08:45:29.03	30.57	26.48	-44.8	-47.8	16.7	0.00e+00	0	41	0	715128832	61	5001
2026-01-08 08:45:30.03	30.29	26.41	-44.7	-47.7	16.8	0.00e+00	0	41	0	717225984	61	4933
2026-01-08 08:45:31.03	30.02	26.34	-44.9	-48.0	16.4	0.00e+00	0	41	0	718274560	61	5150
2026-01-08 08:45:32.03	29.74	26.26	-44.9	-48.1	16.4	0.00e+00	0	41	0	720371712	61	5163
2026-01-08 08:45:33.03	29.47	26.19	-45.0	-48.0	16.4	0.00e+00	0	41	0	722468864	61	5117
2026-01-08 08:45:34.04	29.19	26.12	-44.8	-47.7	16.7	0.00e+00	0	41	0	724566016	61	4933
2026-01-08 08:45:35.04	28.92	26.04	-44.8	-47.6	16.8	0.00e+00	0	40	0	726663168	61	4925
2026-01-08 08:45:36.04	28.65	25.97	-44.8	-47.6	16.8	0.00e+00	0	41	0	727711744	61	4884
2026-01-08 08:45:37.04	28.38	25.89	-44.7	-47.5	16.9	0.00e+00	0	41	0	729808896	61	4827
2026-01-08 08:45:38.04	28.12	25.82	-44.6	-47.3	17.1	0.00e+00	0	41	0	731906048	61	4730
2026-01-08 08:45:39.04	27.85	25.74	-44.7	-47.5	17.0	0.00e+00	0	41	0	734003200	61	4832
2026-01-08 08:45:40.04	27.59	25.66	-44.5	-47.2	17.2	0.00e+00	0	41	0	736100352	61	4686
2026-01-08 08:45:41.04	27.32	25.59	-44.4	-47.1	17.3	0.00e+00	0	41	0	737148928	60	4912
2026-01-08 08:45:42.04	27.06	25.51	-44.4	-47.1	17.3	0.00e+00	0	41	0	739246080	60	4907
2026-01-08 08:45:43.04	26.80	25.43	-44.4	-47.1	17.3	0.00e+00	0	40	0	741343232	60	4893
2026-01-08 08:45:44.04	26.54	25.35	-44.5	-47.2	17.3	0.00e+00	0	41	0	743440384	60	4929
2026-01-08 08:45:45.04	26.28	25.27	-44.3	-47.0	17.4	0.00e+00	0	41	0	744488960	60	4846
2026-01-08 08:45:46.05	26.03	25.19	-44.2	-46.9	17.5	0.00e+00	0	40	0	746586112	60	4761
2026-01-08 08:45:47.05	25.77	25.12	-44.2	-46.8	17.6	0.00e+00	0	41	0	748683264	60	4720
2026-01-08 08:45:48.05	25.52	25.04	-44.0	-46.7	17.7	0.00e+00	0	41	0	750780416	60	4652
2026-01-08 08:45:49.06	25.26	24.95	-44.0	-46.7	17.7	0.00e+00	0	41	0	752877568	60	4672
2026-01-08 08:45:50.06	25.01	24.87	-44.0	-46.6	17.7	0.00e+00	0	41	0	753926144	59	4881
2026-01-08 08:45:51.06	24.76	24.79	-44.0	-46.6	17.6	0.00e+00	0	41	0	756023296	59	4917
2026-01-08 08:45:52.07	24.51	24.71	-43.9	-46.5	17.8	0.00e+00	0	40	0	758120448	59	4833
2026-01-08 08:45:53.07	24.26	24.63	-43.8	-46.4	17.9	0.00e+00	0	41	0	760217600	59	4792
2026-01-08 08:45:54.07	24.01	24.55	-43.8	-46.4	17.9	0.00e+00	0	41	0	762314752	59	4806
2026-01-08 08:45:55.07	23.77	24.47	-43.7	-46.3	18.0	0.00e+00	0	41	0	763363328	59	4726
2026-01-08 08:45:56.07	23.53	24.38	-43.7	-46.3	18.0	0.00e+00	0	40	0	765460480	59	4730
2026-01-08 08:45:57.07	23.28	24.30	-43.7	-46.2	18.0	0.00e+00	0	41	0	767557632	59	4698
2026-01-08 08:45:58.07	23.04	24.22	-43.5	-46.0	18.2	0.00e+00	0	40	0	769654784	59	4567
2026-01-08 08:45:59.08	22.80	24.13	-43.3	-45.8	18.5	0.00e+00	0	41	0	771751936	58	4721
2026-01-08 08:46:00.08	22.56	24.05	-43.4	-45.8	18.4	0.00e+00	0	41	0	772800512	58	4755
2026-01-08 08:46:01.08	22.32	23.96	-43.3	-45.8	18.5	0.00e+00	0	41	0	774897664	58	4723
2026-01-08 08:46:02.08	22.09	23.88	-43.2	-45.7	18.6	0.00e+00	0	41	0	776994816	58	4659
2026-01-08 08:46:03.09	21.85	23.80	-43.1	-45.5	18.7	0.00e+00	0	41	0	779091968	58	4585
2026-01-08 08:46:04.09	21.62	23.71	-43.0	-45.4	18.8	0.00e+00	0	41	0	781189120	58	4511
2026-01-08 08:46:05.10	21.38	23.62	-43.1	-45.5	18.7	0.00e+00	0	41	0	782237696	58	4552
2026-01-08 08:46:06.09	21.16	23.54	-43.0	-45.4	18.8	0.00e+00	0	40	0	784334848	58	4517
2026-01-08 08:46:07.10	20.92	23.45	-43.1	-45.4	18.8	0.00e+00	0	40	0	786432000	58	4531
2026-01-08 08:46:08.10	20.70	23.37	-43.1	-45.5	18.8	0.00e+00	0	41	0	788529152	58	4546
2026-01-08 08:46:09.10	20.47	23.28	-43.2	-45.6	18.7	0.00e+00	0	41	0	789577728	58	4608
2026-01-08 08:46:10.10	20.24	23.20	-43.0	-45.4	18.7	0.00e+00	0	40	0	791674880	58	4541
2026-01-08 08:46:11.11	20.02	23.11	-42.9	-45.3	18.9	0.00e+00	0	41	0	793772032	57	4724
2026-01-08 08:46:12.11	19.79	23.02	-42.7	-45.0	19.2	0.00e+00	0	40	0	795869184	57	4562
2026-01-08 08:46:13.11	19.57	22.94	-42.6	-44.8	19.3	0.00e+00	0	40	0	797966336	57	4469
2026-01-08 08:46:14.12	19.35	22.85	-42.5	-44.8	19.4	0.00e+00	0	41	0	799014912	56	4717
2026-01-08 08:46:15.12	19.13	22.76	-42.4	-44.6	19.5	0.00e+00	0	40	0	801112064	56	4623
2026-01-08 08:46:16.12	18.91	22.68	-42.3	-44.5	19.6	0.00e+00	0	41	0	803209216	56	4568
2026-01-08 08:46:17.12	18.69	22.59	-42.2	-44.4	19.7	0.00e+00	0	40	0	805306368	56	4505
2026-01-08 08:46:18.12	18.48	22.50	-42.3	-44.5	19.6	0.00e+00	0	41	0	807403520	56	4582
2026-01-08 08:46:19.12	18.26	22.41	-42.3	-44.5	19.6	0.00e+00	0	40	0	808452096	56	4586
2026-01-08 08:46:20.12	18.05	22.33	-42.4	-44.7	19.4	0.00e+00	0	41	0	810549248	56	4679
2026-01-08 08:46:21.12	17.84	22.24	-42.5	-44.7	19.4	0.00e+00	0	41	0	812646400	56	4689
2026-01-08 08:46:22.12	17.63	22.15	-42.4	-44.7	19.5	0.00e+00	0	40	0	814743552	56	4665
2026-01-08 08:46:23.12	17.42	22.06	-42.3	-44.6	19.5	0.00e+00	0	41	0	816840704	56	4612
2026-01-08 08:46:24.12	17.21	21.97	-42.4	-44.6	19.5	0.00e+00	0	41	0	817889280	56	4619
2026-01-08 08:46:25.13	17.00	21.89	-42.3	-44.5	19.6	0.00e+00	0	41	0	819986432	56	4557
2026-01-08 08:46:26.13	16.79	21.80	-42.2	-44.4	19.7	0.00e+00	0	41	0	822083584	56	4505
2026-01-08 08:46:27.13	16.59	21.71	-42.2	-44.4	19.6	0.00e+00	0	40	0	824180736	56	4541
2026-01-08 08:46:28.13	16.39	21.62	-42.2	-44.4	19.7	0.00e+00	0	41	0	826277888	56	4533
2026-01-08 08:46:29.13	16.18	21.53	-42.3	-44.6	19.6	0.00e+00	0	40	0	827326464	56	4605
2026-01-08 08:46:30.13	15.98	21.44	-42.3	-44.6	19.6	0.00e+00	0	40	0	829423616	56	4599
2026-01-08 08:46:31.13	15.78	21.36	-42.5	-44.8	19.4	0.00e+00	0	41	0	831520768	56	4716
2026-01-08 08:46:32.13	15.58	21.27	-42.6	-44.8	19.3	0.00e+00	0	40	0	833617920	56	4752
2026-01-08 08:46:33.13	15.39	21.18	-42.6	-44.9	19.2	0.00e+00	0	41	0	834666496	56	4808
2026-01-08 08:46:34.13	15.19	21.09	-42.6	-44.9	19.2	0.00e+00	0	41	0	836763648	56	4773
2026-01-08 08:46:35.13	14.99	21.00	-42.6	-44.9	19.3	0.00e+00	0	41	0	838860800	56	4782
2026-01-08 08:46:36.13	14.80	20.91	-42.6	-44.8	19.3	0.00e+00	0	41	0	840957952	56	4737
2026-01-08 08:46:37.13	14.61	20.82	-42.7	-44.9	19.2	0.00e+00	0	40	0	843055104	56	4808
2026-01-08 08:46:38.14	14.41	20.73	-42.8	-45.0	19.1	0.00e+00	0	40	0	844103680	56	4850
2026-01-08 08:46:39.14	14.22	20.64	-42.8	-45.1	19.1	0.00e+00	0	40	0	846200832	56	4901
2026-01-08 08:46:40.14	14.03	20.56	-42.8	-45.1	19.1	0.00e+00	0	41	0	848297984	56	4906
2026-01-08 08:46:41.15	13.84	20.47	-43.0	-45.2	19.0	0.00e+00	0	40	0	850395136	56	4978
2026-01-08 08:46:42.15	13.65	20.38	-43.0	-45.2	19.0	0.00e+00	0	40	0	852492288	56	4982
2026-01-08 08:46:43.15	13.47	20.29	-42.9	-45.2	18.9	0.00e+00	0	41	0	853540864	56	4964
2026-01-08 08:46:44.15	13.28	20.20	-42.9	-45.3	18.9	0.00e+00	0	40	0	855638016	56	4984
2026-01-08 08:46:45.15	13.10	20.11	-42.9	-45.2	19.0	0.00e+00	0	41	0	857735168	56	4970
2026-01-08 08:46:46.15	12.91	20.02	-42.8	-45.2	19.0	0.00e+00	0	41	0	859832320	56	4953
2026-01-08 08:46:47.16	12.73	19.93	-42.9	-45.3	18.9	0.00e+00	0	40	0	861929472	56	5022
2026-01-08 08:46:48.16	12.55	19.84	-42.9	-45.4	18.8	0.00e+00	0	41	0	862978048	56	5087
2026-01-08 08:46:49.16	12.37	19.75	-43.1	-45.6	18.6	0.00e+00	0	41	0	865075200	56	5200
2026-01-08 08:46:50.17	12.19	19.66	-43.3	-45.8	18.4	0.00e+00	0	41	0	867172352	57	5015
2026-01-08 08:46:51.16	12.01	19.57	-43.4	-46.0	18.2	0.00e+00	0	41	0	869269504	57	5115
2026-01-08 08:46:52.16	11.84	19.49	-43.4	-45.9	18.3	0.00e+00	0	41	0	871366656	57	5097
2026-01-08 08:46:53.16	11.66	19.40	-43.5	-46.0	18.2	0.00e+00	0	41	0	872415232	57	5141
2026-01-08 08:46:54.16	11.49	19.31	-43.6	-46.2	18.1	0.00e+00	0	40	0	874512384	57	5221
2026-01-08 08:46:55.16	11.31	19.22	-43.5	-46.1	18.1	0.00e+00	0	41	0	876609536	58	4912
2026-01-08 08:46:56.15	11.14	19.13	-43.4	-45.9	18.3	0.00e+00	0	40	0	878706688	58	4811
2026-01-08 08:46:57.15	10.97	19.04	-43.4	-46.1	18.1	0.00e+00	0	40	0	879755264	58	4897
2026-01-08 08:46:58.15	10.80	18.95	-43.5	-46.1	18.1	0.00e+00	0	40	0	881852416	58	4926
2026-01-08 08:46:59.15	10.63	18.87	-43.5	-46.2	18.0	0.00e+00	0	40	0	883949568	58	4965
2026-01-08 08:47:00.15	10.46	18.78	-43.5	-46.2	18.0	0.00e+00	0	41	0	886046720	58	4972
2026-01-08 08:47:01.15	10.29	18.69	-43.7	-46.4	17.8	0.00e+00	0	40	0	888143872	58	5061
2026-01-08 08:47:02.16	10.12	18.60	-43.7	-46.4	17.9	0.00e+00	0	41	0	889192448	58	5061
2026-01-08 08:47:03.16	9.96	18.51	-43.7	-46.3	17.9	0.00e+00	0	41	0	891289600	58	5023
2026-01-08 08:47:04.15	9.80	18.42	-43.7	-46.4	17.9	0.00e+00	0	40	0	893386752	58	5064
2026-01-08 08:47:05.16	9.63	18.34	-43.8	-46.5	17.8	0.00e+00	0	41	0	895483904	58	5108
2026-01-08 08:47:06.16	9.47	18.25	-43.9	-46.6	17.7	0.00e+00	0	41	0	897581056	58	5176
2026-01-08 08:47:07.16	9.31	18.16	-43.8	-46.6	17.7	0.00e+00	0	41	0	898629632	58	5170
2026-01-08 08:47:08.16	9.15	18.07	-43.8	-46.6	17.7	0.00e+00	0	41	0	900726784	58	5184
2026-01-08 08:47:09.16	8.99	17.98	-43.7	-46.5	17.8	0.00e+00	0	40	0	902823936	58	5138
2026-01-08 08:47:10.16	8.83	17.90	-43.7	-46.5	17.7	0.00e+00	0	41	0	904921088	58	5142
2026-01-08 08:47:11.17	8.67	17.81	-43.7	-46.6	17.7	0.00e+00	0	40	0	907018240	58	5170
2026-01-08 08:47:12.17	8.51	17.72	-43.8	-46.7	17.6	0.00e+00	0	40	0	908066816	58	5240
2026-01-08 08:47:13.17	8.35	17.63	-43.9	-46.7	17.6	0.00e+00	0	41	0	910163968	58	5233
2026-01-08 08:47:14.17	8.20	17.54	-43.9	-46.7	17.6	0.00e+00	0	41	0	912261120	58	5224
2026-01-08 08:47:15.18	8.04	17.46	-44.0	-46.8	17.5	0.00e+00	0	41	0	914358272	58	5289
2026-01-08 08:47:16.17	7.89	17.37	-44.0	-46.7	17.6	0.00e+00	0	41	0	915406848	58	5261
2026-01-08 08:47:17.18	7.74	17.28	-44.0	-46.7	17.6	0.00e+00	0	41	0	917504000	58	5224
2026-01-08 08:47:18.18	7.59	17.19	-44.0	-46.7	17.6	0.00e+00	0	40	0	919601152	58	5266
2026-01-08 08:47:19.18	7.44	17.11	-44.0	-46.7	17.5	0.00e+00	0	40	0	921698304	58	5268
2026-01-08 08:47:20.18	7.29	17.02	-43.9	-46.7	17.6	0.00e+00	0	40	0	923795456	58	5238
2026-01-08 08:47:21.18	7.14	16.93	-44.0	-46.7	17.5	0.00e+00	0	40	0	924844032	58	5278
2026-01-08 08:47:22.18	6.99	16.85	-44.1	-46.9	17.4	0.00e+00	0	41	0	926941184	58	5358
2026-01-08 08:47:23.18	6.84	16.76	-44.1	-46.9	17.4	0.00e+00	0	40	0	929038336	58	5368
2026-01-08 08:47:24.19	6.69	16.67	-44.2	-47.0	17.2	0.00e+00	0	40	0	931135488	59	5156
2026-01-08 08:47:25.19	6.55	16.59	-44.3	-47.1	17.2	0.00e+00	0	41	0	933232640	59	5181
2026-01-08 08:47:26.19	6.40	16.50	-44.3	-47.2	17.1	0.00e+00	0	40	0	934281216	59	5243
2026-01-08 08:47:27.19	6.26	16.42	-44.4	-47.2	17.1	0.00e+00	0	40	0	936378368	59	5260
2026-01-08 08:47:28.19	6.12	16.33	-44.5	-47.4	16.9	0.00e+00	0	40	0	938475520	59	5360
2026-01-08 08:47:29.20	5.97	16.24	-44.5	-47.4	16.8	0.00e+00	0	40	0	940572672	59	5398
2026-01-08 08:47:30.20	5.83	16.16	-44.4	-47.4	16.9	0.00e+00	0	40	0	942669824	59	5363
2026-01-08 08:47:31.20	5.69	16.07	-44.4	-47.4	16.9	0.00e+00	0	40	0	943718400	59	5371
2026-01-08 08:47:32.20	5.55	15.99	-44.4	-47.4	16.9	0.00e+00	0	40	0	945815552	59	5348
2026-01-08 08:47:33.20	5.41	15.90	-44.4	-47.4	16.9	0.00e+00	0	40	0	947912704	59	5351
2026-01-08 08:47:34.20	5.28	15.82	-44.5	-47.5	16.8	0.00e+00	0	40	0	950009856	59	5403
2026-01-08 08:47:35.20	5.14	15.73	-44.5	-47.5	16.8	0.00e+00	0	40	0	952107008	59	5419
2026-01-08 08:47:36.21	5.00	15.64	-44.6	-47.6	16.7	0.00e+00	0	40	0	953155584	59	5499
2026-01-08 08:47:37.21	4.87	15.56	-44.6	-47.6	16.7	0.00e+00	0	40	0	955252736	59	5487
2026-01-08 08:47:38.21	4.73	15.48	-44.6	-47.6	16.6	0.00e+00	0	40	0	957349888	59	5518
2026-01-08 08:47:39.20	4.60	15.39	-44.6	-47.7	16.6	0.00e+00	0	40	0	959447040	59	5578
2026-01-08 08:47:40.21	4.46	15.31	-44.6	-47.8	16.5	0.00e+00	0	40	0	960495616	59	5607
2026-01-08 08:47:41.21	4.33	15.22	-44.7	-47.9	16.4	0.00e+00	0	40	0	962592768	60	5388
2026-01-08 08:47:42.21	4.20	15.14	-44.7	-47.9	16.4	0.00e+00	0	40	0	964689920	60	5394
2026-01-08 08:47:43.21	4.07	15.05	-44.6	-47.7	16.6	0.00e+00	0	41	0	966787072	60	5266
2026-01-08 08:47:44.21	3.94	14.97	-44.8	-47.9	16.4	0.00e+00	0	40	0	968884224	60	5385
2026-01-08 08:47:45.22	3.81	14.89	-44.8	-47.8	16.5	0.00e+00	0	40	0	969932800	60	5330
2026-01-08 08:47:46.22	3.68	14.80	-44.8	-47.8	16.5	0.00e+00	0	40	0	972029952	60	5312
2026-01-08 08:47:47.22	3.55	14.72	-44.8	-47.8	16.5	0.00e+00	0	41	0	974127104	60	5328
2026-01-08 08:47:48.22	3.42	14.64	-44.7	-47.8	16.6	0.00e+00	0	40	0	976224256	60	5286
2026-01-08 08:47:49.22	3.30	14.55	-44.7	-47.8	16.5	0.00e+00	0	40	0	978321408	60	5320
2026-01-08 08:47:50.22	3.17	14.47	-44.7	-47.9	16.5	0.00e+00	0	40	0	979369984	60	5343
2026-01-08 08:47:51.22	3.05	14.39	-44.6	-47.9	16.5	0.00e+00	0	40	0	981467136	60	5346
2026-01-08 08:47:52.22	2.92	14.30	-44.6	-47.9	16.4	0.00e+00	0	40	0	983564288	60	5376
2026-01-08 08:47:53.22	2.80	14.22	-44.8	-48.0	16.3	0.00e+00	0	41	0	985661440	60	5424
2026-01-08 08:47:54.22	2.68	14.14	-44.8	-48.0	16.4	0.00e+00	0	40	0	986710016	60	5414
2026-01-08 08:47:55.22	2.55	14.06	-44.9	-48.0	16.3	0.00e+00	0	40	0	988807168	60	5444
2026-01-08 08:47:56.22	2.43	13.97	-44.9	-48.0	16.3	0.00e+00	0	40	0	990904320	60	5455
2026-01-08 08:47:57.22	2.31	13.89	-44.9	-47.9	16.4	0.00e+00	0	40	0	993001472	60	5351
2026-01-08 08:47:58.22	2.19	13.81	-44.9	-47.9	16.4	0.00e+00	0	40	0	995098624	60	5377
2026-01-08 08:47:59.22	2.07	13.73	-44.9	-47.9	16.4	0.00e+00	0	40	0	996147200	60	5351
2026-01-08 08:48:00.23	1.95	13.65	-44.9	-47.9	16.4	0.00e+00	0	41	0	998244352	60	5364
2026-01-08 08:48:01.23	1.83	13.57	-44.8	-47.8	16.5	0.00e+00	0	40	0	1000341504	60	5319
2026-01-08 08:48:02.23	1.72	13.48	-44.8	-47.8	16.5	0.00e+00	0	40	0	1002438656	60	5317
2026-01-08 08:48:03.23	1.60	13.40	-44.9	-48.0	16.4	0.00e+00	0	40	0	1004535808	60	5403
2026-01-08 08:48:04.23	1.48	13.32	-44.9	-47.9	16.4	0.00e+00	0	40	0	1005584384	60	5401
2026-01-08 08:48:05.23	1.37	13.24	-45.1	-48.2	16.1	0.00e+00	0	40	0	1007681536	60	5568
2026-01-08 08:48:06.23	1.25	13.16	-45.1	-48.2	16.1	0.00e+00	0	40	0	1009778688	60	5562
2026-01-08 08:48:07.24	1.14	13.08	-45.1	-48.3	16.0	0.00e+00	0	40	0	1011875840	60	5639
2026-01-08 08:48:08.24	1.02	13.00	-45.2	-48.4	15.9	0.00e+00	0	40	0	1013972992	61	5396
2026-01-08 08:48:09.24	0.91	12.92	-45.3	-48.6	15.7	0.00e+00	0	40	0	1015021568	61	5498
2026-01-08 08:48:10.24	0.80	12.84	-45.3	-48.6	15.7	0.00e+00	0	40	0	1017118720	61	5505
2026-01-08 08:48:11.25	0.69	12.76	-45.3	-48.6	15.7	0.00e+00	0	41	0	1019215872	61	5521
2026-01-08 08:48:12.24	0.58	12.68	-45.2	-48.6	15.7	0.00e+00	0	41	0	1021313024	61	5518
2026-01-08 08:48:13.25	0.47	12.60	-45.0	-48.6	15.7	0.00e+00	0	40	0	1023410176	61	5505
2026-01-08 08:48:14.25	0.36	12.52	-45.0	-48.8	15.6	0.00e+00	0	40	0	1024458752	61	5609
2026-01-08 08:48:15.25	0.25	12.44	-44.7	-48.5	15.8	0.00e+00	0	40	0	1026555904	61	5446
2026-01-08 08:48:16.25	0.14	12.36	-44.6	-48.3	16.0	0.00e+00	0	40	0	1028653056	61	5338
2026-01-08 08:48:17.26	0.03	12.28	-44.7	-48.6	15.7	0.00e+00	0	40	0	1030750208	61	5465
2026-01-08 08:48:18.26	359.92	12.20	-44.9	-48.7	15.6	0.00e+00	0	40	0	1031798784	61	5544
2026-01-08 08:48:19.26	359.82	12.12	-44.9	-48.7	15.6	0.00e+00	0	40	0	1033895936	61	5542
2026-01-08 08:48:20.27	359.71	12.04	-45.1	-48.7	15.6	0.00e+00	0	40	0	1035993088	61	5557
2026-01-08 08:48:21.27	359.60	11.97	-45.1	-48.7	15.6	0.00e+00	0	40	0	1038090240	61	5561
2026-01-08 08:48:22.27	359.50	11.89	-45.3	-49.0	15.3	0.00e+00	0	40	0	1040187392	61	5747
2026-01-08 08:48:23.28	359.39	11.81	-45.4	-49.0	15.3	0.00e+00	0	40	0	1041235968	61	5766
2026-01-08 08:48:24.28	359.29	11.73	-45.4	-49.0	15.2	0.00e+00	0	41	0	1043333120	61	5787
2026-01-08 08:48:25.28	359.18	11.65	-45.5	-49.2	15.1	0.00e+00	0	40	0	1045430272	61	5877
2026-01-08 08:48:26.28	359.08	11.58	-45.4	-49.1	15.3	0.00e+00	0	40	0	1047527424	61	5789
2026-01-08 08:48:27.28	358.98	11.50	-45.4	-49.1	15.2	0.00e+00	0	41	0	1049624576	61	5830
2026-01-08 08:48:28.28	358.88	11.42	-45.4	-49.2	15.1	0.00e+00	0	40	0	1050673152	61	5903
2026-01-08 08:48:29.29	358.78	11.34	-45.2	-49.1	15.2	0.00e+00	0	40	0	1052770304	61	5819
2026-01-08 08:48:30.29	358.68	11.27	-45.2	-49.2	15.1	0.00e+00	0	40	0	1054867456	61	5874
2026-01-08 08:48:31.29	358.58	11.19	-45.2	-49.0	15.2	0.00e+00	0	40	0	1056964608	61	5765
2026-01-08 08:48:32.29	358.48	11.11	-45.1	-49.0	15.2	0.00e+00	0	41	0	1059061760	61	5749
2026-01-08 08:48:33.29	358.38	11.04	-45.2	-49.1	15.1	0.00e+00	0	40	0	1060110336	61	5825
2026-01-08 08:48:34.29	358.28	10.96	-45.2	-48.9	15.3	0.00e+00	0	40	0	1062207488	61	5719
2026-01-08 08:48:35.30	358.18	10.88	-45.2	-48.8	15.5	0.00e+00	0	40	0	1064304640	61	5620
2026-01-08 08:48:36.30	358.08	10.81	-45.2	-48.7	15.5	0.00e+00	0	40	0	1066401792	61	5587
2026-01-08 08:48:37.30	357.99	10.73	-45.4	-49.0	15.3	0.00e+00	0	40	0	1068498944	61	5723
2026-01-08 08:48:38.31	357.89	10.66	-45.3	-48.8	15.4	0.00e+00	0	40	0	1069547520	61	5640
2026-01-08 08:48:39.31	357.79	10.58	-45.3	-48.8	15.4	0.00e+00	0	40	0	1071644672	61	5639
2026-01-08 08:48:40.31	357.70	10.50	-45.5	-48.9	15.4	7.00e-07	0	40	0	1073741824	61	5685
2026-01-08 08:48:41.30	357.61	10.43	-45.5	-48.9	15.4	0.00e+00	0	40	0	1075838976	61	5673
2026-01-08 08:48:42.30	357.51	10.36	-45.7	-49.1	15.1	0.00e+00	0	40	0	1076887552	61	5841
2026-01-08 08:48:43.31	357.42	10.28	-45.7	-49.1	15.1	0.00e+00	0	40	0	1078984704	62	5502
2026-01-08 08:48:44.31	357.32	10.20	-45.7	-49.2	15.1	0.00e+00	0	40	0	1081081856	62	5556
2026-01-08 08:48:45.31	357.23	10.13	-45.6	-49.1	15.1	7.00e-07	0	40	0	1083179008	62	5490
2026-01-08 08:48:46.32	357.14	10.05	-45.6	-49.3	15.0	1.50e-06	0	40	0	1085276160	62	5594
2026-01-08 08:48:47.32	357.05	9.98	-45.6	-49.2	15.0	0.00e+00	0	40	0	1086324736	62	5555
2026-01-08 08:48:48.32	356.95	9.91	-45.6	-49.4	14.8	7.00e-07	0	40	0	1088421888	62	5680
2026-01-08 08:48:49.32	356.86	9.83	-45.4	-49.2	15.0	0.00e+00	0	40	0	1090519040	62	5573
2026-01-08 08:48:50.32	356.77	9.76	-45.4	-49.2	15.1	0.00e+00	0	40	0	1092616192	62	5540
2026-01-08 08:48:51.32	356.68	9.68	-45.5	-49.4	14.8	0.00e+00	0	40	0	1094713344	62	5721
2026-01-08 08:48:52.32	356.59	9.61	-45.3	-49.5	14.7	0.00e+00	0	40	0	1095761920	62	5753
2026-01-08 08:48:53.32	356.51	9.54	-45.2	-49.6	14.7	0.00e+00	0	40	0	1097859072	62	5798
2026-01-08 08:48:54.32	356.42	9.46	-44.8	-49.6	14.6	7.00e-07	0	40	0	1099956224	61	6176
2026-01-08 08:48:55.32	356.33	9.39	-44.1	-49.6	14.6	0.00e+00	0	40	0	1102053376	60	6549
2026-01-08 08:48:56.33	356.24	9.32	-44.2	-49.8	14.4	7.00e-07	0	40	0	1104150528	59	7087
2026-01-08 08:48:57.33	356.15	9.24	-43.8	-49.8	14.3	0.00e+00	0	41	0	1105199104	59	7093
2026-01-08 08:48:58.33	356.07	9.17	-43.8	-50.0	14.2	7.00e-07	0	40	0	1107296256	59	7212
2026-01-08 08:48:59.34	355.98	9.10	-43.7	-50.0	14.2	1.50e-06	0	40	0	1109393408	59	7209
2026-01-08 08:49:00.34	355.89	9.03	-43.7	-49.9	14.2	2.20e-06	0	40	0	1111490560	59	7184
2026-01-08 08:49:01.34	355.81	8.95	-49.7	-65.3	3.8	9.09e-02	0	40	104	1112539136	69	23739
2026-01-08 08:49:02.34	355.72	8.88	-50.1	-65.6	3.9	1.49e+00	0	40	104	1112539136	70	23242
2026-01-08 08:49:03.34	355.64	8.81	-50.2	-65.8	3.8	1.49e+00	0	40	104	1112539136	71	22284
2026-01-08 08:49:04.35	355.56	8.74	-50.0	-65.8	3.8	1.49e+00	0	40	104	1112539136	71	22504
2026-01-08 08:49:05.35	355.47	8.67	-50.2	-65.9	3.8	1.49e+00	0	40	104	1112539136	71	22703
2026-01-08 08:49:06.35	355.39	8.59	-50.6	-65.9	3.8	1.49e+00	0	40	104	1112539136	71	22648
2026-01-08 08:49:07.35	355.31	8.52	-50.5	-66.0	3.8	1.49e+00	0	40	104	1112539136	71	22931
2026-01-08 08:49:08.35	355.22	8.45	-50.6	-65.9	3.8	1.49e+00	0	40	104	1112539136	72	21414
2026-01-08 08:49:09.35	355.14	8.38	-50.2	-66.0	3.8	1.49e+00	0	40	104	1112539136	72	21573
2026-01-08 08:49:10.36	355.06	8.31	-50.5	-66.0	3.8	1.49e+00	0	40	104	1112539136	72	21573
2026-01-08 08:49:11.36	354.98	8.24	-50.7	-66.0	3.8	1.49e+00	0	40	104	1112539136	72	21539
2026-01-08 08:49:12.36	354.90	8.17	-50.7	-66.0	3.8	1.49e+00	0	40	104	1112539136	72	21702
2026-01-08 08:49:13.36	354.82	8.10	-50.5	-66.0	3.8	1.49e+00	0	40	104	1112539136	72	21658
2026-01-08 08:49:14.36	354.74	8.03	-50.7	-66.0	3.8	1.49e+00	0	40	104	1112539136	72	21661
2026-01-08 08:49:15.37	354.66	7.96	-50.7	-66.0	3.8	1.49e+00	0	40	104	1112539136	72	21600
2026-01-08 08:49:16.37	354.58	7.89	-50.4	-66.0	3.8	1.49e+00	0	40	104	1112539136	72	21641
2026-01-08 08:49:17.37	354.50	7.82	-50.7	-66.0	3.8	1.49e+00	0	40	104	1112539136	72	21692
2026-01-08 08:49:18.37	354.42	7.75	-50.5	-66.0	3.8	1.49e+00	0	40	104	1112539136	72	21692
2026-01-08 08:49:19.38	354.35	7.67	-50.8	-66.0	3.8	1.49e+00	0	40	104	1112539136	72	21730
2026-01-08 08:49:20.38	354.27	7.61	-50.8	-66.0	3.8	1.49e+00	0	40	104	1112539136	72	21649
2026-01-08 08:49:21.38	354.19	7.54	-50.6	-66.1	3.8	1.49e+00	0	40	104	1112539136	72	21780
2026-01-08 08:49:22.38	354.11	7.47	-50.7	-66.0	3.8	1.49e+00	0	40	104	1112539136	72	21737
2026-01-08 08:49:23.38	354.04	7.40	-50.8	-66.0	3.8	1.49e+00	0	40	104	1112539136	72	21719
2026-01-08 08:49:24.39	353.96	7.33	-50.7	-66.0	3.8	1.49e+00	0	41	104	1112539136	72	21603
2026-01-08 08:49:25.39	353.89	7.26	-50.6	-66.0	3.8	1.49e+00	0	40	104	1112539136	72	21647
2026-01-08 08:49:26.39	353.81	7.19	-50.6	-66.0	3.8	1.49e+00	0	40	104	1112539136	72	21624
2026-01-08 08:49:27.39	353.74	7.12	-50.7	-66.0	3.8	1.49e+00	0	40	104	1112539136	72	21650
2026-01-08 08:49:28.39	353.66	7.05	-50.7	-66.0	3.8	1.49e+00	0	40	104	1112539136	72	21630
2026-01-08 08:49:29.40	353.59	6.98	-50.5	-66.0	3.8	1.49e+00	0	40	104	1112539136	72	21610
2026-01-08 08:49:30.40	353.51	6.92	-50.3	-66.0	3.8	1.49e+00	0	40	104	1112539136	72	21512
2026-01-08 08:49:31.40	353.44	6.85	-50.2	-65.9	3.8	1.49e+00	0	41	104	1112539136	72	21470
2026-01-08 08:49:32.40	353.37	6.78	-50.3	-66.0	3.8	1.49e+00	0	40	104	1112539136	72	21611
2026-01-08 08:49:33.40	353.30	6.71	-50.2	-66.0	3.8	1.49e+00	0	40	104	1112539136	72	21614
2026-01-08 08:49:34.40	353.22	6.64	-50.2	-66.0	3.8	1.49e+00	0	40	104	1112539136	72	21532
2026-01-08 08:49:35.40	353.15	6.58	-50.2	-66.0	3.8	1.49e+00	0	40	104	1112539136	72	21618
2026-01-08 08:49:36.40	353.08	6.51	-50.2	-66.0	3.8	1.49e+00	0	40	104	1112539136	72	21565
2026-01-08 08:49:37.40	353.01	6.44	-50.2	-65.9	3.8	1.49e+00	0	40	104	1112539136	72	21396
2026-01-08 08:49:38.40	352.94	6.38	-50.2	-66.0	3.8	1.49e+00	0	40	104	1112539136	72	21587
2026-01-08 08:49:39.41	352.87	6.31	-50.2	-65.9	3.8	1.49e+00	0	40	104	1112539136	72	21504
2026-01-08 08:49:40.41	352.80	6.24	-50.2	-66.0	3.8	1.49e+00	0	40	104	1112539136	72	21508
2026-01-08 08:49:41.41	352.73	6.17	-50.2	-66.0	3.8	1.49e+00	0	40	104	1112539136	72	21522
2026-01-08 08:49:42.41	352.66	6.11	-50.2	-65.9	3.8	1.49e+00	0	40	104	1112539136	72	21429
2026-01-08 08:49:43.41	352.59	6.04	-50.2	-66.0	3.8	1.49e+00	0	40	104	1112539136	72	21533
2026-01-08 08:49:44.42	352.52	5.97	-50.2	-65.9	3.8	1.49e+00	0	40	104	1112539136	72	21484
2026-01-08 08:49:45.42	352.45	5.91	-50.3	-65.9	3.8	1.49e+00	0	40	104	1112539136	72	21468
2026-01-08 08:49:46.42	352.38	5.84	-50.2	-65.9	3.8	1.49e+00	0	40	104	1112539136	72	21398
2026-01-08 08:49:47.42	352.32	5.78	-50.2	-65.9	3.8	1.49e+00	0	40	104	1112539136	72	21491
2026-01-08 08:49:48.42	352.25	5.71	-50.2	-65.9	3.8	1.49e+00	0	40	104	1112539136	72	21465
2026-01-08 08:49:49.42	352.18	5.64	-50.2	-66.0	3.8	1.49e+00	0	41	104	1112539136	72	21564
2026-01-08 08:49:50.43	352.11	5.58	-50.3	-66.0	3.8	1.49e+00	0	40	104	1112539136	72	21519
2026-01-08 08:49:51.43	352.05	5.51	-50.2	-65.9	3.8	1.49e+00	0	41	104	1112539136	72	21454
2026-01-08 08:49:52.43	351.98	5.45	-50.3	-66.0	3.8	1.49e+00	0	40	104	1112539136	72	21522
2026-01-08 08:49:53.43	351.91	5.38	-50.2	-66.0	3.8	1.49e+00	0	40	104	1112539136	72	21523
2026-01-08 08:49:54.44	351.85	5.32	-50.2	-65.9	3.8	1.49e+00	0	40	104	1112539136	72	21435
