passes_logs/2026/01/08/T1/T1__20260108_014706_SUOMI_NPP_rec.log

#Pass ID: 20260108_014706_SUOMI NPP
#Satellite: SUOMI NPP
#Configuration: NPP
#almurnet v.1.7.20251203
#Start time: 2026-01-08 01:47:06

#Version: 2.0.20230620
#Station: T1
#Location: 37.570604 lon 55.790049 lat
#TLE: 1 37849U 11061A   26005.94084933  .00000134  00000+0  84554-4 0  9990
#TLE: 2 37849  98.7803 308.0679 0002567  79.1029 281.0436 14.19522657735426

#Time	Az	El	Level	Level2	SNR	BER	BlckErr	Temp	State	Recorded	gain1	gain2
2026-01-08 01:47:06.03	4.65	4.97	-52.2	-67.7	3.8	1.49e+00	0	36	0	0	75	22028
2026-01-08 01:47:07.03	4.56	5.03	-51.1	-67.4	3.8	1.49e+00	0	36	104	0	73	24087
2026-01-08 01:47:08.03	4.46	5.09	-50.5	-67.3	3.8	1.49e+00	0	36	104	0	73	23805
2026-01-08 01:47:09.04	4.36	5.14	-50.5	-67.4	3.8	1.49e+00	0	36	104	0	72	25280
2026-01-08 01:47:10.04	4.27	5.20	-50.4	-67.4	3.8	1.49e+00	0	36	104	0	72	25327
2026-01-08 01:47:11.04	4.17	5.25	-50.4	-67.3	3.8	1.49e+00	0	36	104	0	72	25262
2026-01-08 01:47:12.05	4.08	5.31	-50.4	-67.4	3.8	1.49e+00	0	36	104	0	72	25352
2026-01-08 01:47:13.05	3.98	5.36	-50.4	-67.4	3.8	1.49e+00	0	36	104	0	72	25269
2026-01-08 01:47:14.06	3.88	5.42	-50.4	-67.3	3.8	1.49e+00	0	37	104	0	72	25263
2026-01-08 01:47:15.06	3.78	5.48	-50.4	-67.3	3.8	1.49e+00	0	37	104	0	72	25237
2026-01-08 01:47:16.06	3.69	5.53	-50.4	-67.3	3.8	1.49e+00	0	37	104	0	72	25246
2026-01-08 01:47:17.07	3.59	5.59	-50.4	-67.3	3.8	1.49e+00	0	37	104	0	72	25176
2026-01-08 01:47:18.07	3.49	5.65	-50.4	-67.3	3.8	1.49e+00	0	37	104	0	72	25092
2026-01-08 01:47:19.07	3.39	5.70	-50.4	-67.3	3.8	1.49e+00	0	37	104	0	72	25117
2026-01-08 01:47:20.08	3.29	5.76	-50.4	-67.3	3.8	1.49e+00	0	37	104	0	72	25104
2026-01-08 01:47:21.09	3.19	5.81	-50.4	-67.3	3.8	1.49e+00	0	37	104	0	72	25132
2026-01-08 01:47:22.09	3.09	5.87	-50.4	-67.3	3.8	1.49e+00	0	37	104	0	72	25047
2026-01-08 01:47:23.09	2.99	5.93	-50.4	-67.3	3.8	1.49e+00	0	37	104	0	72	24982
2026-01-08 01:47:24.10	2.88	5.98	-50.4	-67.3	3.8	1.49e+00	0	37	104	0	72	25094
2026-01-08 01:47:25.10	2.78	6.04	-50.4	-67.3	3.8	1.49e+00	0	37	104	0	72	25177
2026-01-08 01:47:26.10	2.68	6.10	-50.4	-67.3	3.8	1.49e+00	0	37	104	0	72	25212
2026-01-08 01:47:27.11	2.58	6.15	-50.4	-67.3	3.8	1.49e+00	0	37	104	0	72	25131
2026-01-08 01:47:28.11	2.47	6.21	-50.4	-67.3	3.8	1.49e+00	0	37	104	0	72	25192
2026-01-08 01:47:29.11	2.37	6.27	-50.4	-67.3	3.8	1.49e+00	0	37	104	0	72	25207
2026-01-08 01:47:30.12	2.27	6.32	-50.4	-67.3	3.8	1.49e+00	0	37	104	0	72	25209
2026-01-08 01:47:31.12	2.16	6.38	-50.4	-67.3	3.8	1.49e+00	0	37	104	0	72	25188
2026-01-08 01:47:32.13	2.06	6.44	-50.4	-67.3	3.8	1.49e+00	0	37	104	0	72	25226
2026-01-08 01:47:33.13	1.95	6.49	-50.4	-67.3	3.8	1.49e+00	0	37	104	0	72	25231
2026-01-08 01:47:34.14	1.85	6.55	-50.4	-67.4	3.8	1.49e+00	0	37	104	0	72	25330
2026-01-08 01:47:35.14	1.74	6.61	-50.4	-67.3	3.8	1.49e+00	0	37	104	0	72	25243
2026-01-08 01:47:36.14	1.63	6.66	-50.4	-67.4	3.8	1.49e+00	0	37	104	0	72	25454
2026-01-08 01:47:37.14	1.53	6.72	-50.4	-67.4	3.8	1.49e+00	0	37	104	0	72	25276
2026-01-08 01:47:38.15	1.42	6.78	-50.4	-67.4	3.8	1.49e+00	0	37	104	0	72	25365
2026-01-08 01:47:39.15	1.31	6.83	-50.4	-67.4	3.8	1.49e+00	0	37	104	0	72	25350
2026-01-08 01:47:40.15	1.20	6.89	-50.4	-67.4	3.8	1.49e+00	0	38	104	0	72	25331
2026-01-08 01:47:41.16	1.10	6.95	-50.4	-67.4	3.8	1.49e+00	0	38	104	0	72	25345
2026-01-08 01:47:42.16	0.99	7.00	-50.4	-67.4	3.8	1.49e+00	0	38	104	0	72	25282
2026-01-08 01:47:43.16	0.88	7.06	-50.4	-67.3	3.8	1.49e+00	0	38	104	0	72	25222
2026-01-08 01:47:44.17	0.77	7.12	-50.4	-67.4	3.8	1.49e+00	0	38	104	0	72	25346
2026-01-08 01:47:45.17	0.66	7.17	-50.4	-67.3	3.8	1.49e+00	0	38	104	0	72	25120
2026-01-08 01:47:46.17	0.55	7.23	-50.4	-67.3	3.8	1.49e+00	0	38	104	0	72	25166
2026-01-08 01:47:47.18	0.43	7.29	-50.5	-67.3	3.8	1.49e+00	0	38	104	0	72	25067
2026-01-08 01:47:48.18	0.32	7.34	-50.4	-67.3	3.8	1.49e+00	0	38	104	0	72	25247
2026-01-08 01:47:49.18	0.21	7.40	-50.4	-67.3	3.8	1.49e+00	0	38	104	0	72	25255
2026-01-08 01:47:50.19	0.10	7.46	-50.4	-67.3	3.8	1.49e+00	0	38	104	0	72	25218
2026-01-08 01:47:51.19	359.99	7.52	-50.4	-67.4	3.8	1.49e+00	0	38	104	0	72	25314
2026-01-08 01:47:52.19	359.87	7.57	-50.4	-67.4	3.8	1.49e+00	0	38	104	0	72	25459
2026-01-08 01:47:53.19	359.76	7.63	-50.5	-67.4	3.8	1.49e+00	0	38	104	0	72	25527
2026-01-08 01:47:54.20	359.64	7.69	-50.5	-67.5	3.8	1.49e+00	0	38	104	0	72	25589
2026-01-08 01:47:55.20	359.53	7.74	-50.5	-67.5	3.8	1.49e+00	0	38	104	0	72	25675
2026-01-08 01:47:56.20	359.41	7.80	-50.5	-67.5	3.8	1.49e+00	0	38	104	0	72	25588
2026-01-08 01:47:57.21	359.30	7.86	-50.5	-67.4	3.8	1.49e+00	0	38	104	0	72	25542
2026-01-08 01:47:58.21	359.18	7.92	-50.5	-67.4	3.8	1.49e+00	0	38	104	0	72	25479
2026-01-08 01:47:59.21	359.06	7.97	-50.5	-67.4	3.8	1.49e+00	0	38	104	0	72	25543
2026-01-08 01:48:00.22	358.95	8.03	-50.5	-67.4	3.8	1.49e+00	0	38	104	0	72	25377
2026-01-08 01:48:01.22	358.83	8.09	-50.6	-67.3	3.8	1.49e+00	0	38	104	0	72	25104
2026-01-08 01:48:02.22	358.71	8.15	-50.6	-67.1	3.8	1.49e+00	0	38	104	0	72	24524
2026-01-08 01:48:03.22	358.59	8.20	-50.6	-66.8	3.8	1.49e+00	0	38	104	0	72	23776
2026-01-08 01:48:04.22	358.47	8.26	-50.6	-66.6	3.8	1.49e+00	0	38	104	0	72	23297
2026-01-08 01:48:05.23	358.35	8.32	-50.5	-66.5	3.8	1.49e+00	0	38	104	0	72	22876
2026-01-08 01:48:06.23	358.23	8.37	-50.5	-66.3	3.8	1.49e+00	0	38	104	0	72	22516
2026-01-08 01:48:07.23	358.11	8.43	-50.5	-66.2	3.8	1.49e+00	0	38	104	0	72	22078
2026-01-08 01:48:08.24	357.99	8.49	-50.5	-66.0	3.8	1.49e+00	0	38	104	0	72	21565
2026-01-08 01:48:09.24	357.87	8.55	-50.5	-65.4	3.8	1.49e+00	0	38	104	0	72	20229
2026-01-08 01:48:10.24	357.75	8.60	-50.5	-64.7	3.9	1.48e+00	0	38	104	0	72	18712
2026-01-08 01:48:11.24	357.63	8.66	-50.4	-63.6	4.3	1.38e+00	0	38	0	0	72	16380
2026-01-08 01:48:12.25	357.50	8.72	-50.3	-62.2	4.9	9.69e-01	0	38	0	1048576	72	13997
2026-01-08 01:48:13.25	357.38	8.78	-50.2	-60.8	5.7	6.04e-01	0	38	0	3145728	72	11927
2026-01-08 01:48:14.26	357.25	8.83	-50.0	-59.5	6.8	2.36e-01	0	38	0	5242880	72	10269
2026-01-08 01:48:15.26	357.13	8.89	-49.8	-58.3	7.9	1.20e-01	0	38	0	7340032	71	9483
2026-01-08 01:48:16.26	357.01	8.95	-49.7	-57.5	8.8	5.33e-02	0	38	0	8388608	71	8594
2026-01-08 01:48:17.26	356.88	9.01	-49.4	-56.7	9.5	2.37e-02	0	38	0	10485760	70	8313
2026-01-08 01:48:18.27	356.75	9.06	-49.5	-56.8	9.6	1.02e-02	0	38	0	12582912	70	8397
2026-01-08 01:48:19.27	356.63	9.12	-49.8	-58.2	8.2	2.11e-02	0	38	0	14680064	70	9838
2026-01-08 01:48:20.27	356.50	9.18	-50.4	-64.0	3.9	1.18e+00	0	38	104	14680064	72	17244
2026-01-08 01:48:21.27	356.37	9.24	-46.7	-52.7	13.4	1.29e-05	0	38	0	15728640	65	6964
2026-01-08 01:48:22.27	356.24	9.29	-47.3	-54.3	11.7	3.06e-03	0	38	0	16777216	66	7971
2026-01-08 01:48:23.27	356.12	9.35	-46.9	-53.3	12.9	1.75e-05	0	38	0	18874368	65	7502
2026-01-08 01:48:24.27	355.99	9.41	-46.7	-52.5	13.5	1.06e-05	0	38	0	20971520	65	6856
2026-01-08 01:48:25.27	355.86	9.46	-46.6	-52.3	13.7	6.10e-06	0	39	0	23068672	65	6716
2026-01-08 01:48:26.28	355.73	9.52	-46.8	-52.5	13.7	3.80e-06	0	38	0	24117248	65	6858
2026-01-08 01:48:27.28	355.60	9.58	-46.8	-52.3	13.8	7.60e-06	0	38	0	26214400	65	6701
2026-01-08 01:48:28.28	355.47	9.64	-46.7	-52.1	14.0	3.00e-06	0	38	0	28311552	65	6558
2026-01-08 01:48:29.29	355.33	9.69	-46.6	-51.9	14.3	1.50e-06	0	38	0	30408704	64	6740
2026-01-08 01:48:30.29	355.20	9.75	-46.8	-51.9	14.3	7.00e-07	0	38	0	32505856	64	6728
2026-01-08 01:48:31.29	355.07	9.81	-46.5	-51.6	14.5	0.00e+00	0	39	0	34603008	64	6499
2026-01-08 01:48:32.29	354.94	9.86	-46.7	-51.6	14.5	0.00e+00	0	39	0	35651584	64	6534
2026-01-08 01:48:33.30	354.80	9.92	-46.9	-51.7	14.5	7.00e-07	0	39	0	37748736	64	6575
2026-01-08 01:48:34.30	354.67	9.98	-46.9	-51.8	14.4	7.00e-07	0	39	0	39845888	64	6676
2026-01-08 01:48:35.30	354.53	10.04	-46.9	-51.6	14.5	7.00e-07	0	39	0	41943040	64	6555
2026-01-08 01:48:36.30	354.40	10.09	-47.0	-51.8	14.3	0.00e+00	0	38	0	42991616	64	6679
2026-01-08 01:48:37.30	354.26	10.15	-47.1	-51.8	14.4	7.00e-07	0	39	0	45088768	64	6663
2026-01-08 01:48:38.30	354.12	10.21	-47.0	-51.5	14.6	1.50e-06	0	39	0	47185920	64	6483
2026-01-08 01:48:39.31	353.99	10.27	-46.8	-51.3	14.8	7.00e-07	0	39	0	49283072	64	6323
2026-01-08 01:48:40.31	353.85	10.32	-46.9	-51.3	14.9	0.00e+00	0	39	0	51380224	64	6278
2026-01-08 01:48:41.31	353.71	10.38	-46.7	-51.1	15.0	0.00e+00	0	39	0	52428800	64	6150
2026-01-08 01:48:42.31	353.57	10.44	-46.6	-51.2	15.0	0.00e+00	0	39	0	54525952	64	6211
2026-01-08 01:48:43.31	353.43	10.49	-46.6	-51.1	15.1	0.00e+00	0	39	0	56623104	64	6178
2026-01-08 01:48:44.30	353.29	10.55	-46.4	-51.2	14.9	0.00e+00	0	39	0	58720256	64	6274
2026-01-08 01:48:45.30	353.15	10.61	-46.4	-51.4	14.8	7.00e-07	0	39	0	60817408	64	6392
2026-01-08 01:48:46.31	353.01	10.66	-46.5	-51.5	14.6	1.50e-06	0	39	0	61865984	64	6476
2026-01-08 01:48:47.31	352.87	10.72	-46.4	-51.8	14.4	7.00e-07	0	39	0	63963136	64	6659
2026-01-08 01:48:48.31	352.73	10.78	-46.3	-51.6	14.6	0.00e+00	0	39	0	66060288	64	6515
2026-01-08 01:48:49.32	352.59	10.83	-46.3	-51.7	14.5	0.00e+00	0	39	0	68157440	64	6588
2026-01-08 01:48:50.32	352.44	10.89	-46.2	-51.5	14.7	7.00e-07	0	39	0	69206016	64	6421
2026-01-08 01:48:51.32	352.30	10.95	-46.3	-51.3	14.8	0.00e+00	0	39	0	71303168	64	6329
2026-01-08 01:48:52.32	352.16	11.00	-46.2	-51.0	15.1	0.00e+00	0	39	0	73400320	64	6084
2026-01-08 01:48:53.32	352.01	11.06	-46.3	-51.0	15.2	0.00e+00	0	39	0	75497472	64	6076
2026-01-08 01:48:54.32	351.87	11.12	-46.5	-50.9	15.2	0.00e+00	0	39	0	77594624	64	6057
2026-01-08 01:48:55.32	351.72	11.17	-46.6	-51.0	15.2	0.00e+00	0	39	0	78643200	64	6063
2026-01-08 01:48:56.32	351.57	11.23	-46.7	-51.0	15.1	7.00e-07	0	39	0	80740352	64	6130
2026-01-08 01:48:57.33	351.42	11.28	-47.0	-51.0	15.2	0.00e+00	0	39	0	82837504	64	6082
2026-01-08 01:48:58.33	351.28	11.34	-47.1	-51.3	14.9	0.00e+00	0	39	0	84934656	64	6281
2026-01-08 01:48:59.33	351.13	11.40	-47.3	-51.4	14.8	0.00e+00	0	39	0	87031808	65	6049
2026-01-08 01:49:00.33	350.98	11.45	-47.4	-51.6	14.6	0.00e+00	0	39	0	88080384	65	6194
2026-01-08 01:49:01.33	350.83	11.51	-47.2	-51.4	14.9	0.00e+00	0	39	0	90177536	65	6018
2026-01-08 01:49:02.33	350.68	11.56	-47.2	-51.4	14.8	0.00e+00	0	39	0	92274688	65	6034
2026-01-08 01:49:03.33	350.53	11.62	-47.1	-51.4	14.7	0.00e+00	0	39	0	94371840	65	6036
2026-01-08 01:49:04.33	350.38	11.68	-47.1	-51.3	14.9	0.00e+00	0	39	0	96468992	65	5970
2026-01-08 01:49:05.34	350.23	11.73	-47.1	-51.2	15.0	7.00e-07	0	39	0	97517568	65	5914
2026-01-08 01:49:06.34	350.07	11.79	-47.1	-51.2	15.0	0.00e+00	0	39	0	99614720	65	5889
2026-01-08 01:49:07.34	349.92	11.84	-47.1	-51.1	15.1	0.00e+00	0	39	0	101711872	65	5836
2026-01-08 01:49:08.34	349.77	11.90	-47.3	-51.4	14.8	7.00e-07	0	39	0	103809024	65	6004
2026-01-08 01:49:09.34	349.61	11.95	-47.5	-51.7	14.5	0.00e+00	0	39	0	105906176	65	6203
2026-01-08 01:49:10.33	349.46	12.01	-47.7	-52.0	14.2	7.00e-07	0	39	0	106954752	66	6096
2026-01-08 01:49:11.33	349.31	12.06	-47.6	-52.0	14.3	2.20e-06	0	39	0	109051904	66	6075
2026-01-08 01:49:12.33	349.15	12.12	-47.6	-52.0	14.2	2.20e-06	0	39	0	111149056	66	6118
2026-01-08 01:49:13.33	348.99	12.17	-47.5	-51.9	14.3	7.00e-07	0	39	0	113246208	66	6028
2026-01-08 01:49:14.33	348.84	12.23	-47.5	-52.0	14.2	0.00e+00	0	39	0	114294784	66	6103
2026-01-08 01:49:15.33	348.68	12.28	-47.3	-51.7	14.5	0.00e+00	0	39	0	116391936	66	5891
2026-01-08 01:49:16.33	348.52	12.34	-47.3	-51.6	14.6	0.00e+00	0	39	0	118489088	66	5854
2026-01-08 01:49:17.33	348.36	12.39	-47.1	-51.3	14.8	0.00e+00	0	39	0	120586240	66	5653
2026-01-08 01:49:18.33	348.20	12.45	-47.1	-51.3	14.9	7.00e-07	0	39	0	122683392	66	5616
2026-01-08 01:49:19.33	348.04	12.50	-47.2	-51.3	15.0	0.00e+00	0	39	0	123731968	66	5615
2026-01-08 01:49:20.33	347.88	12.56	-47.4	-51.5	14.8	0.00e+00	0	39	0	125829120	66	5757
2026-01-08 01:49:21.34	347.72	12.61	-47.5	-51.4	14.8	0.00e+00	0	39	0	127926272	66	5701
2026-01-08 01:49:22.34	347.56	12.67	-47.8	-51.5	14.7	0.00e+00	0	39	0	130023424	66	5786
2026-01-08 01:49:23.34	347.39	12.72	-47.7	-51.5	14.8	0.00e+00	0	39	0	132120576	66	5756
2026-01-08 01:49:24.34	347.23	12.77	-47.8	-51.6	14.6	7.00e-07	0	39	0	133169152	66	5850
2026-01-08 01:49:25.34	347.07	12.83	-47.5	-51.2	14.9	7.00e-07	0	39	0	135266304	66	5579
2026-01-08 01:49:26.35	346.90	12.88	-47.5	-51.3	15.0	0.00e+00	0	39	0	137363456	66	5601
2026-01-08 01:49:27.35	346.74	12.94	-47.5	-51.3	15.0	0.00e+00	0	39	0	139460608	66	5634
2026-01-08 01:49:28.35	346.57	12.99	-47.3	-51.0	15.2	0.00e+00	0	39	0	141557760	66	5461
2026-01-08 01:49:29.35	346.41	13.04	-47.3	-51.2	15.1	0.00e+00	0	39	0	142606336	66	5560
2026-01-08 01:49:30.36	346.24	13.10	-47.2	-51.0	15.3	7.00e-07	0	39	0	144703488	66	5447
2026-01-08 01:49:31.36	346.07	13.15	-47.4	-51.4	14.9	0.00e+00	0	39	0	146800640	66	5689
2026-01-08 01:49:32.36	345.90	13.20	-47.6	-51.7	14.6	1.50e-06	0	39	0	148897792	66	5898
2026-01-08 01:49:33.36	345.73	13.26	-47.6	-51.6	14.6	0.00e+00	0	39	0	149946368	66	5819
2026-01-08 01:49:34.37	345.56	13.31	-47.5	-51.4	14.9	0.00e+00	0	39	0	152043520	66	5671
2026-01-08 01:49:35.37	345.39	13.36	-47.3	-51.0	15.3	0.00e+00	0	39	0	154140672	66	5419
2026-01-08 01:49:36.37	345.22	13.41	-47.2	-50.7	15.5	0.00e+00	0	39	0	156237824	66	5252
2026-01-08 01:49:37.37	345.05	13.47	-46.9	-50.2	16.0	0.00e+00	0	39	0	158334976	65	5264
2026-01-08 01:49:38.38	344.88	13.52	-46.7	-50.0	16.2	0.00e+00	0	39	0	159383552	65	5101
2026-01-08 01:49:39.38	344.71	13.57	-46.5	-49.7	16.5	0.00e+00	0	39	0	161480704	64	5220
2026-01-08 01:49:40.38	344.53	13.62	-46.5	-49.6	16.6	0.00e+00	0	39	0	163577856	64	5201
2026-01-08 01:49:41.38	344.36	13.68	-46.6	-49.8	16.4	0.00e+00	0	39	0	165675008	64	5300
2026-01-08 01:49:42.39	344.18	13.73	-46.6	-50.0	16.2	0.00e+00	0	39	0	167772160	64	5414
2026-01-08 01:49:43.38	344.01	13.78	-46.4	-49.8	16.4	0.00e+00	0	39	0	168820736	64	5288
2026-01-08 01:49:44.39	343.83	13.83	-46.3	-49.7	16.4	0.00e+00	0	39	0	170917888	64	5262
2026-01-08 01:49:45.39	343.66	13.88	-46.0	-49.4	16.7	0.00e+00	0	39	0	173015040	64	5087
2026-01-08 01:49:46.39	343.48	13.93	-46.1	-49.5	16.8	0.00e+00	0	39	0	175112192	63	5412
2026-01-08 01:49:47.39	343.30	13.98	-46.0	-49.3	16.9	0.00e+00	0	39	0	177209344	63	5327
2026-01-08 01:49:48.39	343.13	14.03	-46.0	-49.1	17.0	0.00e+00	0	39	0	178257920	63	5206
2026-01-08 01:49:49.38	342.95	14.08	-45.9	-48.9	17.3	0.00e+00	0	39	0	180355072	63	5088
2026-01-08 01:49:50.38	342.77	14.13	-46.0	-49.1	17.1	0.00e+00	0	39	0	182452224	63	5175
2026-01-08 01:49:51.38	342.59	14.18	-46.0	-49.0	17.2	0.00e+00	0	39	0	184549376	63	5135
2026-01-08 01:49:52.38	342.41	14.23	-46.0	-49.2	17.0	0.00e+00	0	39	0	185597952	63	5231
2026-01-08 01:49:53.39	342.23	14.28	-46.1	-49.3	16.9	0.00e+00	0	39	0	187695104	63	5335
2026-01-08 01:49:54.39	342.05	14.33	-46.1	-49.4	16.8	0.00e+00	0	39	0	189792256	63	5375
2026-01-08 01:49:55.39	341.86	14.38	-46.3	-49.6	16.7	0.00e+00	0	39	0	191889408	63	5490
2026-01-08 01:49:56.39	341.68	14.43	-46.3	-49.6	16.6	0.00e+00	0	39	0	193986560	63	5495
2026-01-08 01:49:57.39	341.50	14.48	-46.2	-49.4	16.8	0.00e+00	0	39	0	195035136	63	5384
2026-01-08 01:49:58.40	341.31	14.53	-46.2	-49.3	16.9	0.00e+00	0	39	0	197132288	63	5305
2026-01-08 01:49:59.40	341.13	14.58	-46.2	-49.2	16.9	0.00e+00	0	39	0	199229440	63	5265
2026-01-08 01:50:00.40	340.94	14.63	-46.3	-49.3	16.9	0.00e+00	0	39	0	201326592	63	5323
2026-01-08 01:50:01.40	340.76	14.68	-46.2	-49.4	16.9	0.00e+00	0	39	0	203423744	63	5364
2026-01-08 01:50:02.40	340.57	14.72	-46.3	-49.6	16.5	0.00e+00	0	39	0	204472320	63	5528
2026-01-08 01:50:03.40	340.38	14.77	-46.3	-49.9	16.4	0.00e+00	0	39	0	206569472	63	5662
2026-01-08 01:50:04.40	340.19	14.82	-46.4	-50.2	16.0	0.00e+00	0	39	0	208666624	63	5888
2026-01-08 01:50:05.40	340.01	14.87	-46.5	-50.3	16.0	0.00e+00	0	39	0	210763776	63	5977
2026-01-08 01:50:06.41	339.82	14.91	-46.4	-50.1	16.1	0.00e+00	0	39	0	212860928	63	5843
2026-01-08 01:50:07.41	339.63	14.96	-46.3	-49.8	16.4	0.00e+00	0	39	0	213909504	63	5653
2026-01-08 01:50:08.41	339.44	15.01	-46.1	-49.4	16.8	0.00e+00	0	39	0	216006656	63	5395
2026-01-08 01:50:09.42	339.24	15.05	-45.9	-49.1	17.1	0.00e+00	0	39	0	218103808	63	5175
2026-01-08 01:50:10.42	339.05	15.10	-45.7	-48.7	17.4	0.00e+00	0	39	0	220200960	63	4946
2026-01-08 01:50:11.42	338.86	15.15	-45.4	-48.2	17.9	0.00e+00	0	39	0	222298112	62	4946
2026-01-08 01:50:12.42	338.67	15.19	-45.3	-48.1	18.0	0.00e+00	0	39	0	223346688	62	4904
2026-01-08 01:50:13.43	338.47	15.24	-45.3	-48.2	17.8	0.00e+00	0	39	0	225443840	62	4957
2026-01-08 01:50:14.43	338.28	15.28	-45.6	-48.6	17.5	0.00e+00	0	39	0	227540992	62	5196
2026-01-08 01:50:15.43	338.08	15.33	-45.6	-48.7	17.5	0.00e+00	0	39	0	229638144	62	5262
2026-01-08 01:50:16.43	337.89	15.37	-45.9	-48.9	17.3	0.00e+00	0	39	0	230686720	62	5390
2026-01-08 01:50:17.43	337.69	15.42	-46.0	-49.0	17.2	0.00e+00	0	39	0	232783872	62	5440
2026-01-08 01:50:18.43	337.50	15.46	-45.9	-48.8	17.4	0.00e+00	0	39	0	234881024	62	5292
2026-01-08 01:50:19.44	337.30	15.51	-46.0	-48.8	17.4	0.00e+00	0	39	0	236978176	62	5292
2026-01-08 01:50:20.44	337.10	15.55	-46.0	-48.7	17.5	0.00e+00	0	39	0	239075328	62	5256
2026-01-08 01:50:21.44	336.90	15.59	-46.0	-48.8	17.4	0.00e+00	0	39	0	240123904	62	5327
2026-01-08 01:50:22.44	336.70	15.64	-46.2	-49.1	17.2	0.00e+00	0	39	0	242221056	62	5478
2026-01-08 01:50:23.44	336.51	15.68	-46.2	-49.0	17.1	0.00e+00	0	39	0	244318208	63	5155
2026-01-08 01:50:24.44	336.31	15.72	-46.3	-49.3	16.9	0.00e+00	0	39	0	246415360	63	5315
2026-01-08 01:50:25.44	336.11	15.76	-46.3	-49.2	17.0	0.00e+00	0	39	0	248512512	63	5279
2026-01-08 01:50:26.44	335.90	15.81	-46.2	-49.2	17.0	0.00e+00	0	39	0	249561088	63	5257
2026-01-08 01:50:27.45	335.70	15.85	-46.0	-48.9	17.3	0.00e+00	0	39	0	251658240	63	5089
2026-01-08 01:50:28.44	335.50	15.89	-45.8	-48.6	17.6	0.00e+00	0	39	0	253755392	63	4892
2026-01-08 01:50:29.45	335.30	15.93	-45.6	-48.3	17.9	0.00e+00	0	39	0	255852544	62	5031
2026-01-08 01:50:30.45	335.09	15.97	-45.5	-48.1	18.0	0.00e+00	0	39	0	257949696	62	4902
2026-01-08 01:50:31.45	334.89	16.01	-45.4	-48.1	18.1	0.00e+00	0	39	0	258998272	62	4873
2026-01-08 01:50:32.46	334.68	16.05	-45.5	-48.1	18.0	0.00e+00	0	39	0	261095424	62	4925
2026-01-08 01:50:33.46	334.48	16.09	-45.6	-48.2	18.0	0.00e+00	0	39	0	263192576	62	4965
2026-01-08 01:50:34.46	334.27	16.13	-45.6	-48.3	17.8	0.00e+00	0	39	0	265289728	62	5011
2026-01-08 01:50:35.46	334.07	16.17	-45.7	-48.5	17.7	0.00e+00	0	39	0	267386880	62	5129
2026-01-08 01:50:36.46	333.86	16.21	-45.8	-48.6	17.6	0.00e+00	0	39	0	268435456	62	5175
2026-01-08 01:50:37.46	333.65	16.25	-45.7	-48.5	17.7	0.00e+00	0	39	0	270532608	62	5106
2026-01-08 01:50:38.47	333.44	16.29	-45.5	-48.3	17.9	0.00e+00	0	39	0	272629760	62	4999
2026-01-08 01:50:39.47	333.24	16.33	-45.5	-48.2	18.0	0.00e+00	0	39	0	274726912	62	4971
2026-01-08 01:50:40.47	333.03	16.37	-45.4	-48.0	18.1	0.00e+00	0	39	0	275775488	62	4851
2026-01-08 01:50:41.47	332.82	16.40	-45.5	-48.2	18.0	0.00e+00	0	39	0	277872640	62	4955
2026-01-08 01:50:42.48	332.61	16.44	-45.8	-48.5	17.7	0.00e+00	0	39	0	279969792	62	5151
2026-01-08 01:50:43.48	332.40	16.48	-45.9	-48.7	17.6	0.00e+00	0	39	0	282066944	62	5222
2026-01-08 01:50:44.48	332.19	16.51	-46.1	-49.0	17.2	0.00e+00	0	39	0	284164096	62	5456
2026-01-08 01:50:45.49	331.97	16.55	-46.4	-49.4	16.8	0.00e+00	0	39	0	285212672	63	5398
2026-01-08 01:50:46.49	331.76	16.59	-46.5	-49.5	16.7	0.00e+00	0	39	0	287309824	63	5463
2026-01-08 01:50:47.49	331.55	16.62	-46.4	-49.4	16.8	0.00e+00	0	39	0	289406976	63	5371
2026-01-08 01:50:48.49	331.33	16.66	-46.3	-49.3	16.9	0.00e+00	0	39	0	291504128	63	5324
2026-01-08 01:50:49.50	331.12	16.69	-46.2	-49.1	17.2	0.00e+00	0	39	0	293601280	63	5186
2026-01-08 01:50:50.50	330.91	16.73	-46.2	-49.1	17.2	0.00e+00	0	39	0	294649856	63	5192
2026-01-08 01:50:51.50	330.69	16.76	-46.0	-48.8	17.4	0.00e+00	0	39	0	296747008	63	5012
2026-01-08 01:50:52.50	330.48	16.79	-45.9	-48.6	17.5	0.00e+00	0	39	0	298844160	63	4902
2026-01-08 01:50:53.50	330.26	16.83	-45.8	-48.5	17.8	0.00e+00	0	39	0	300941312	63	4832
2026-01-08 01:50:54.50	330.05	16.86	-45.8	-48.5	17.7	0.00e+00	0	39	0	303038464	63	4832
2026-01-08 01:50:55.50	329.83	16.89	-45.7	-48.3	17.9	0.00e+00	0	39	0	304087040	63	4750
2026-01-08 01:50:56.51	329.61	16.92	-45.5	-48.1	18.0	0.00e+00	0	39	0	306184192	63	4617
2026-01-08 01:50:57.51	329.39	16.96	-45.4	-47.9	18.2	0.00e+00	0	39	0	308281344	62	4769
2026-01-08 01:50:58.51	329.18	16.99	-45.2	-47.6	18.5	0.00e+00	0	39	0	310378496	62	4646
2026-01-08 01:50:59.51	328.96	17.02	-44.8	-47.1	18.9	0.00e+00	0	39	0	312475648	61	4635
2026-01-08 01:51:00.51	328.74	17.05	-44.6	-47.0	19.0	0.00e+00	0	39	0	313524224	61	4565
2026-01-08 01:51:01.51	328.52	17.08	-44.7	-47.1	18.9	0.00e+00	0	39	0	315621376	61	4623
2026-01-08 01:51:02.51	328.30	17.11	-44.8	-47.2	18.8	0.00e+00	0	39	0	317718528	61	4699
2026-01-08 01:51:03.51	328.08	17.14	-44.8	-47.3	18.7	0.00e+00	0	39	0	319815680	61	4731
2026-01-08 01:51:04.51	327.86	17.17	-45.1	-47.7	18.4	0.00e+00	0	39	0	320864256	61	4949
2026-01-08 01:51:05.52	327.64	17.20	-45.2	-47.9	18.3	0.00e+00	0	39	0	322961408	61	5044
2026-01-08 01:51:06.52	327.42	17.23	-45.1	-47.8	18.3	0.00e+00	0	39	0	325058560	61	5005
2026-01-08 01:51:07.52	327.19	17.25	-45.3	-48.1	18.0	0.00e+00	0	39	0	327155712	61	5174
2026-01-08 01:51:08.52	326.97	17.28	-45.5	-48.2	18.0	0.00e+00	0	39	0	329252864	61	5240
2026-01-08 01:51:09.52	326.75	17.31	-45.4	-48.1	18.1	0.00e+00	0	39	0	330301440	61	5170
2026-01-08 01:51:10.52	326.53	17.33	-45.4	-48.0	18.1	0.00e+00	0	39	0	332398592	61	5141
2026-01-08 01:51:11.53	326.30	17.36	-45.4	-48.1	18.0	0.00e+00	0	39	0	334495744	61	5202
2026-01-08 01:51:12.53	326.08	17.39	-45.6	-48.3	17.9	0.00e+00	0	39	0	336592896	61	5309
2026-01-08 01:51:13.53	325.85	17.41	-45.7	-48.5	17.8	0.00e+00	0	39	0	338690048	62	5117
2026-01-08 01:51:14.53	325.63	17.44	-45.9	-48.7	17.5	0.00e+00	0	39	0	339738624	62	5271
2026-01-08 01:51:15.54	325.40	17.46	-46.2	-49.0	17.2	0.00e+00	0	39	0	341835776	63	5146
2026-01-08 01:51:16.54	325.18	17.49	-46.3	-49.2	17.1	0.00e+00	0	39	0	343932928	63	5235
2026-01-08 01:51:17.54	324.95	17.51	-46.5	-49.3	16.9	0.00e+00	0	39	0	346030080	63	5325
2026-01-08 01:51:18.54	324.73	17.53	-46.5	-49.4	16.9	0.00e+00	0	39	0	348127232	63	5365
2026-01-08 01:51:19.54	324.50	17.55	-46.6	-49.5	16.8	0.00e+00	0	39	0	349175808	64	5121
2026-01-08 01:51:20.55	324.27	17.58	-46.3	-49.1	17.1	0.00e+00	0	39	0	351272960	64	4918
2026-01-08 01:51:21.55	324.04	17.60	-46.3	-49.1	17.1	0.00e+00	0	39	0	353370112	64	4877
2026-01-08 01:51:22.55	323.82	17.62	-46.1	-48.9	17.3	0.00e+00	0	39	0	355467264	64	4781
2026-01-08 01:51:23.55	323.59	17.64	-46.2	-49.2	17.1	0.00e+00	0	39	0	357564416	64	4937
2026-01-08 01:51:24.55	323.36	17.66	-46.2	-49.2	17.0	0.00e+00	0	39	0	358612992	64	4961
2026-01-08 01:51:25.55	323.13	17.68	-46.3	-49.3	16.9	0.00e+00	0	39	0	360710144	64	5032
2026-01-08 01:51:26.56	322.90	17.70	-46.2	-49.1	17.0	0.00e+00	0	39	0	362807296	64	4919
2026-01-08 01:51:27.56	322.67	17.72	-46.2	-49.1	17.1	0.00e+00	0	39	0	364904448	64	4873
2026-01-08 01:51:28.56	322.44	17.74	-46.0	-48.8	17.4	0.00e+00	0	39	0	365953024	64	4750
2026-01-08 01:51:29.56	322.21	17.76	-45.9	-48.6	17.6	0.00e+00	0	39	0	368050176	63	4903
2026-01-08 01:51:30.56	321.98	17.78	-45.8	-48.4	17.7	0.00e+00	0	39	0	370147328	63	4810
2026-01-08 01:51:31.56	321.75	17.79	-45.9	-48.5	17.8	0.00e+00	0	39	0	372244480	63	4833
2026-01-08 01:51:32.56	321.52	17.81	-45.8	-48.3	17.9	0.00e+00	0	39	0	374341632	63	4747
2026-01-08 01:51:33.56	321.29	17.83	-45.7	-48.3	17.9	0.00e+00	0	39	0	375390208	63	4717
2026-01-08 01:51:34.56	321.06	17.84	-45.8	-48.4	17.9	0.00e+00	0	39	0	377487360	63	4770
2026-01-08 01:51:35.57	320.83	17.86	-45.8	-48.4	17.8	0.00e+00	0	39	0	379584512	63	4810
2026-01-08 01:51:36.57	320.60	17.87	-45.7	-48.3	17.9	0.00e+00	0	39	0	381681664	63	4735
2026-01-08 01:51:37.57	320.37	17.89	-45.7	-48.4	17.8	0.00e+00	0	39	0	383778816	63	4813
2026-01-08 01:51:38.57	320.14	17.90	-45.8	-48.6	17.6	0.00e+00	0	39	0	384827392	63	4903
2026-01-08 01:51:39.57	319.90	17.92	-46.0	-49.0	17.3	0.00e+00	0	39	0	386924544	63	5102
2026-01-08 01:51:40.57	319.67	17.93	-46.1	-49.0	17.2	0.00e+00	0	39	0	389021696	63	5153
2026-01-08 01:51:41.57	319.44	17.94	-46.3	-49.3	16.9	0.00e+00	0	39	0	391118848	63	5320
2026-01-08 01:51:42.57	319.21	17.95	-46.5	-49.6	16.7	0.00e+00	0	39	0	393216000	63	5469
2026-01-08 01:51:43.57	318.97	17.96	-46.6	-49.7	16.6	0.00e+00	0	39	0	394264576	63	5542
2026-01-08 01:51:44.57	318.74	17.98	-46.7	-49.8	16.4	0.00e+00	0	39	0	396361728	64	5320
2026-01-08 01:51:45.58	318.51	17.99	-47.0	-50.3	16.0	0.00e+00	0	39	0	398458880	64	5595
2026-01-08 01:51:46.58	318.27	18.00	-47.0	-50.3	15.9	0.00e+00	0	39	0	400556032	64	5632
2026-01-08 01:51:47.58	318.04	18.01	-47.0	-50.3	15.9	0.00e+00	0	39	0	402653184	64	5638
2026-01-08 01:51:48.58	317.81	18.02	-46.9	-50.3	16.0	0.00e+00	0	39	0	403701760	64	5595
2026-01-08 01:51:49.58	317.57	18.02	-47.0	-50.3	15.9	0.00e+00	0	39	0	405798912	64	5653
2026-01-08 01:51:50.59	317.34	18.03	-46.8	-50.2	16.1	0.00e+00	0	39	0	407896064	64	5534
2026-01-08 01:51:51.59	317.10	18.04	-46.9	-50.2	15.9	0.00e+00	0	39	0	409993216	64	5589
2026-01-08 01:51:52.59	316.87	18.05	-47.0	-50.4	15.8	0.00e+00	0	39	0	411041792	64	5715
2026-01-08 01:51:53.59	316.63	18.05	-47.0	-50.4	15.9	0.00e+00	0	39	0	413138944	64	5670
2026-01-08 01:51:54.60	316.40	18.06	-46.9	-50.1	16.1	0.00e+00	0	39	0	415236096	64	5518
2026-01-08 01:51:55.60	316.16	18.07	-46.7	-49.7	16.5	0.00e+00	0	39	0	417333248	64	5270
2026-01-08 01:51:56.60	315.93	18.07	-46.5	-49.5	16.7	0.00e+00	0	39	0	419430400	64	5130
2026-01-08 01:51:57.60	315.69	18.08	-46.3	-49.2	17.0	0.00e+00	0	39	0	420478976	64	4939
2026-01-08 01:51:58.60	315.46	18.08	-46.1	-49.0	17.2	0.00e+00	0	39	0	422576128	64	4833
2026-01-08 01:51:59.60	315.22	18.09	-46.2	-49.1	17.2	0.00e+00	0	39	0	424673280	63	5163
2026-01-08 01:52:00.60	314.99	18.09	-46.0	-48.8	17.4	0.00e+00	0	39	0	426770432	63	5009
2026-01-08 01:52:01.60	314.76	18.09	-45.9	-48.7	17.5	0.00e+00	0	39	0	428867584	63	4943
2026-01-08 01:52:02.61	314.52	18.09	-45.7	-48.4	17.7	0.00e+00	0	39	0	429916160	63	4813
2026-01-08 01:52:03.60	314.29	18.10	-45.8	-48.5	17.7	0.00e+00	0	39	0	432013312	63	4858
2026-01-08 01:52:04.60	314.05	18.10	-45.9	-48.7	17.5	0.00e+00	0	40	0	434110464	63	4940
2026-01-08 01:52:05.60	313.82	18.10	-46.1	-48.9	17.3	0.00e+00	0	39	0	436207616	63	5097
2026-01-08 01:52:06.61	313.58	18.10	-46.0	-48.8	17.4	0.00e+00	0	39	0	438304768	63	5038
2026-01-08 01:52:07.61	313.34	18.10	-46.2	-49.0	17.3	0.00e+00	0	39	0	439353344	63	5115
2026-01-08 01:52:08.61	313.11	18.10	-46.4	-49.3	17.0	0.00e+00	0	39	0	441450496	63	5313
2026-01-08 01:52:09.61	312.87	18.10	-46.5	-49.4	16.9	0.00e+00	0	39	0	443547648	63	5355
2026-01-08 01:52:10.61	312.64	18.09	-46.5	-49.4	16.8	0.00e+00	0	39	0	445644800	64	5084
2026-01-08 01:52:11.62	312.40	18.09	-46.6	-49.5	16.7	0.00e+00	0	39	0	446693376	64	5138
2026-01-08 01:52:12.62	312.17	18.09	-46.5	-49.4	16.8	0.00e+00	0	39	0	448790528	64	5050
2026-01-08 01:52:13.62	311.93	18.09	-46.3	-49.2	17.0	0.00e+00	0	39	0	450887680	64	4932
2026-01-08 01:52:14.62	311.70	18.08	-46.4	-49.3	16.9	0.00e+00	0	39	0	452984832	64	5014
2026-01-08 01:52:15.61	311.46	18.08	-46.5	-49.3	16.8	0.00e+00	0	39	0	455081984	64	5014
2026-01-08 01:52:16.61	311.23	18.07	-46.4	-49.3	16.9	0.00e+00	0	39	0	456130560	64	5009
2026-01-08 01:52:17.61	311.00	18.07	-46.3	-49.2	17.0	0.00e+00	0	39	0	458227712	64	4951
2026-01-08 01:52:18.61	310.76	18.06	-46.3	-49.3	16.9	0.00e+00	0	39	0	460324864	64	4984
2026-01-08 01:52:19.62	310.52	18.06	-46.3	-49.2	17.0	0.00e+00	0	40	0	462422016	64	4935
2026-01-08 01:52:20.62	310.29	18.05	-46.3	-49.3	16.9	0.00e+00	0	40	0	464519168	64	4985
2026-01-08 01:52:21.62	310.06	18.04	-46.5	-49.5	16.7	0.00e+00	0	39	0	465567744	64	5145
2026-01-08 01:52:22.63	309.82	18.04	-46.5	-49.7	16.5	0.00e+00	0	39	0	467664896	64	5219
2026-01-08 01:52:23.63	309.58	18.03	-46.9	-50.1	16.1	0.00e+00	0	39	0	469762048	64	5519
2026-01-08 01:52:24.63	309.35	18.02	-47.1	-50.5	15.8	0.00e+00	0	39	0	471859200	64	5737
2026-01-08 01:52:25.63	309.12	18.01	-47.3	-50.7	15.6	0.00e+00	0	39	0	472907776	65	5564
2026-01-08 01:52:26.63	308.88	18.00	-47.3	-50.7	15.6	0.00e+00	0	40	0	475004928	65	5587
2026-01-08 01:52:27.63	308.65	17.99	-47.3	-50.6	15.6	0.00e+00	0	40	0	477102080	65	5505
2026-01-08 01:52:28.63	308.42	17.98	-47.3	-50.5	15.7	0.00e+00	0	39	0	479199232	65	5438
2026-01-08 01:52:29.64	308.18	17.97	-47.1	-50.2	16.0	0.00e+00	0	39	0	481296384	65	5239
2026-01-08 01:52:30.64	307.95	17.96	-46.8	-49.9	16.3	0.00e+00	0	40	0	483393536	65	5068
2026-01-08 01:52:31.64	307.72	17.95	-46.8	-49.9	16.4	0.00e+00	0	39	0	484442112	65	5064
2026-01-08 01:52:32.64	307.48	17.93	-46.5	-49.4	16.8	0.00e+00	0	39	0	486539264	64	5081
2026-01-08 01:52:33.64	307.25	17.92	-46.2	-49.0	17.2	0.00e+00	0	39	0	488636416	64	4835
2026-01-08 01:52:34.64	307.02	17.91	-46.0	-48.7	17.3	0.00e+00	0	40	0	490733568	64	4703
2026-01-08 01:52:35.65	306.78	17.89	-46.0	-48.7	17.5	0.00e+00	0	40	0	491782144	63	4948
2026-01-08 01:52:36.65	306.55	17.88	-46.1	-48.9	17.4	0.00e+00	0	39	0	493879296	63	5043
2026-01-08 01:52:37.65	306.32	17.87	-46.2	-49.0	17.2	0.00e+00	0	39	0	495976448	63	5120
2026-01-08 01:52:38.66	306.09	17.85	-46.2	-49.0	17.3	0.00e+00	0	40	0	498073600	63	5109
2026-01-08 01:52:39.66	305.86	17.83	-46.1	-48.8	17.4	0.00e+00	0	39	0	500170752	63	5036
2026-01-08 01:52:40.66	305.63	17.82	-46.1	-48.8	17.4	0.00e+00	0	39	0	501219328	63	5013
2026-01-08 01:52:41.66	305.39	17.80	-46.3	-48.9	17.5	0.00e+00	0	39	0	503316480	63	5061
2026-01-08 01:52:42.67	305.16	17.78	-46.3	-48.9	17.4	0.00e+00	0	39	0	505413632	63	5064
2026-01-08 01:52:43.67	304.93	17.77	-46.1	-48.7	17.6	0.00e+00	0	39	0	507510784	63	4942
2026-01-08 01:52:44.67	304.70	17.75	-46.2	-48.7	17.6	0.00e+00	0	39	0	509607936	63	4955
2026-01-08 01:52:45.67	304.47	17.73	-46.2	-48.7	17.5	0.00e+00	0	39	0	510656512	63	4976
2026-01-08 01:52:46.67	304.24	17.71	-46.0	-48.5	17.7	0.00e+00	0	39	0	512753664	63	4840
2026-01-08 01:52:47.67	304.01	17.69	-46.1	-48.7	17.6	0.00e+00	0	39	0	514850816	63	4938
2026-01-08 01:52:48.67	303.79	17.67	-45.8	-48.2	18.0	0.00e+00	0	39	0	516947968	63	4675
2026-01-08 01:52:49.68	303.56	17.65	-45.9	-48.3	18.0	0.00e+00	0	39	0	517996544	63	4723
2026-01-08 01:52:50.68	303.33	17.63	-45.4	-47.8	18.4	0.00e+00	0	39	0	520093696	62	4719
2026-01-08 01:52:51.68	303.10	17.61	-45.3	-47.7	18.5	0.00e+00	0	40	0	522190848	62	4652
2026-01-08 01:52:52.68	302.87	17.59	-45.3	-47.5	18.6	0.00e+00	0	40	0	524288000	62	4596
2026-01-08 01:52:53.68	302.64	17.56	-45.3	-47.6	18.6	0.00e+00	0	40	0	526385152	62	4621
2026-01-08 01:52:54.69	302.42	17.54	-45.4	-47.7	18.5	0.00e+00	0	39	0	528482304	62	4683
2026-01-08 01:52:55.69	302.19	17.52	-45.4	-47.7	18.4	0.00e+00	0	40	0	529530880	62	4704
2026-01-08 01:52:56.69	301.96	17.50	-45.6	-48.0	18.2	0.00e+00	0	40	0	531628032	62	4815
2026-01-08 01:52:57.70	301.74	17.47	-45.7	-48.2	18.1	0.00e+00	0	40	0	533725184	62	4935
2026-01-08 01:52:58.70	301.51	17.45	-45.7	-48.2	18.0	0.00e+00	0	40	0	535822336	62	4938
2026-01-08 01:52:59.70	301.29	17.42	-45.8	-48.3	17.9	0.00e+00	0	40	0	536870912	62	4999
2026-01-08 01:53:00.70	301.06	17.40	-45.8	-48.3	17.9	0.00e+00	0	40	0	538968064	62	5028
2026-01-08 01:53:01.71	300.83	17.37	-46.2	-48.7	17.5	0.00e+00	0	40	0	541065216	63	4973
2026-01-08 01:53:02.71	300.61	17.35	-46.1	-48.7	17.6	0.00e+00	0	39	0	543162368	63	4952
2026-01-08 01:53:03.71	300.39	17.32	-46.3	-48.9	17.4	0.00e+00	0	40	0	545259520	63	5042
2026-01-08 01:53:04.71	300.16	17.29	-46.3	-48.9	17.4	0.00e+00	0	40	0	546308096	63	5071
2026-01-08 01:53:05.72	299.94	17.26	-46.3	-48.9	17.4	0.00e+00	0	40	0	548405248	63	5096
2026-01-08 01:53:06.72	299.72	17.24	-46.3	-48.9	17.3	0.00e+00	0	39	0	550502400	63	5077
2026-01-08 01:53:07.72	299.49	17.21	-46.4	-49.0	17.3	0.00e+00	0	40	0	552599552	63	5121
2026-01-08 01:53:08.72	299.27	17.18	-46.5	-49.1	17.2	0.00e+00	0	40	0	554696704	63	5204
2026-01-08 01:53:09.72	299.05	17.15	-46.4	-49.1	17.2	0.00e+00	0	40	0	555745280	63	5179
2026-01-08 01:53:10.72	298.83	17.12	-46.5	-49.1	17.2	0.00e+00	0	40	0	557842432	63	5193
2026-01-08 01:53:11.72	298.61	17.09	-46.6	-49.3	17.0	0.00e+00	0	39	0	559939584	63	5289
2026-01-08 01:53:12.72	298.39	17.06	-46.6	-49.2	17.1	0.00e+00	0	40	0	562036736	63	5273
2026-01-08 01:53:13.72	298.17	17.03	-46.5	-49.2	17.0	0.00e+00	0	40	0	563085312	64	4967
2026-01-08 01:53:14.72	297.95	17.00	-46.8	-49.6	16.7	0.00e+00	0	40	0	565182464	64	5191
2026-01-08 01:53:15.72	297.74	16.97	-46.7	-49.5	16.8	0.00e+00	0	40	0	567279616	64	5126
2026-01-08 01:53:16.72	297.52	16.94	-46.8	-49.6	16.7	0.00e+00	0	40	0	569376768	64	5164
2026-01-08 01:53:17.72	297.30	16.91	-46.9	-49.7	16.6	0.00e+00	0	40	0	571473920	64	5237
2026-01-08 01:53:18.72	297.08	16.87	-46.7	-49.5	16.8	0.00e+00	0	40	0	572522496	64	5117
2026-01-08 01:53:19.72	296.87	16.84	-46.5	-49.1	17.1	0.00e+00	0	39	0	574619648	64	4923
2026-01-08 01:53:20.72	296.65	16.81	-46.8	-49.6	16.7	0.00e+00	0	40	0	576716800	64	5171
2026-01-08 01:53:21.73	296.43	16.77	-46.8	-49.6	16.7	0.00e+00	0	40	0	578813952	64	5190
2026-01-08 01:53:22.73	296.22	16.74	-46.8	-49.5	16.8	0.00e+00	0	40	0	580911104	64	5155
2026-01-08 01:53:23.73	296.00	16.71	-46.7	-49.4	16.9	0.00e+00	0	39	0	581959680	64	5042
2026-01-08 01:53:24.74	295.79	16.67	-46.7	-49.4	16.8	0.00e+00	0	39	0	584056832	64	5098
2026-01-08 01:53:25.74	295.57	16.64	-46.6	-49.3	16.9	0.00e+00	0	39	0	586153984	64	5018
2026-01-08 01:53:26.74	295.36	16.60	-46.7	-49.4	16.8	0.00e+00	0	40	0	588251136	64	5060
2026-01-08 01:53:27.74	295.15	16.56	-46.8	-49.5	16.7	0.00e+00	0	40	0	590348288	64	5134
2026-01-08 01:53:28.74	294.94	16.53	-46.7	-49.4	16.8	0.00e+00	0	40	0	591396864	64	5073
2026-01-08 01:53:29.75	294.72	16.49	-46.9	-49.6	16.6	0.00e+00	0	40	0	593494016	64	5216
2026-01-08 01:53:30.75	294.51	16.46	-47.1	-50.0	16.3	0.00e+00	0	40	0	595591168	64	5416
2026-01-08 01:53:31.75	294.30	16.42	-47.1	-50.0	16.3	0.00e+00	0	39	0	597688320	64	5439
2026-01-08 01:53:32.75	294.09	16.38	-47.2	-50.2	16.1	0.00e+00	0	39	0	599785472	65	5231
2026-01-08 01:53:33.75	293.88	16.34	-47.0	-49.9	16.4	0.00e+00	0	39	0	600834048	65	5049
2026-01-08 01:53:34.76	293.67	16.30	-47.0	-49.8	16.5	0.00e+00	0	40	0	602931200	65	5040
2026-01-08 01:53:35.76	293.46	16.27	-47.0	-49.8	16.5	0.00e+00	0	40	0	605028352	65	4986
2026-01-08 01:53:36.76	293.25	16.23	-46.9	-49.6	16.6	0.00e+00	0	40	0	607125504	65	4909
2026-01-08 01:53:37.77	293.04	16.19	-47.0	-49.8	16.5	0.00e+00	0	40	0	608174080	65	4988
2026-01-08 01:53:38.77	292.84	16.15	-46.8	-49.6	16.7	0.00e+00	0	40	0	610271232	65	4897
2026-01-08 01:53:39.77	292.63	16.11	-46.8	-49.6	16.6	0.00e+00	0	40	0	612368384	65	4892
2026-01-08 01:53:40.77	292.43	16.07	-46.7	-49.3	16.9	0.00e+00	0	40	0	614465536	65	4746
2026-01-08 01:53:41.78	292.22	16.03	-46.6	-49.3	16.9	0.00e+00	0	40	0	616562688	65	4745
2026-01-08 01:53:42.78	292.01	15.99	-46.6	-49.3	17.0	0.00e+00	0	40	0	617611264	65	4717
2026-01-08 01:53:43.78	291.81	15.95	-46.5	-49.1	17.1	0.00e+00	0	40	0	619708416	64	4915
2026-01-08 01:53:44.78	291.61	15.91	-46.5	-49.1	17.1	0.00e+00	0	40	0	621805568	64	4909
2026-01-08 01:53:45.78	291.40	15.86	-46.5	-49.2	17.1	0.00e+00	0	40	0	623902720	64	4927
2026-01-08 01:53:46.78	291.20	15.82	-46.3	-48.9	17.3	0.00e+00	0	39	0	625999872	64	4769
2026-01-08 01:53:47.78	291.00	15.78	-46.0	-48.5	17.6	0.00e+00	0	40	0	627048448	64	4586
2026-01-08 01:53:48.78	290.80	15.74	-46.0	-48.5	17.7	0.00e+00	0	40	0	629145600	63	4849
2026-01-08 01:53:49.78	290.60	15.70	-46.0	-48.4	17.8	0.00e+00	0	39	0	631242752	63	4806
2026-01-08 01:53:50.78	290.40	15.65	-45.9	-48.3	17.9	0.00e+00	0	40	0	633339904	63	4749
2026-01-08 01:53:51.79	290.20	15.61	-45.9	-48.4	17.9	0.00e+00	0	40	0	635437056	63	4775
2026-01-08 01:53:52.79	290.00	15.57	-46.1	-48.6	17.6	0.00e+00	0	40	0	636485632	63	4922
2026-01-08 01:53:53.79	289.80	15.52	-45.9	-48.4	17.8	0.00e+00	0	40	0	638582784	63	4766
2026-01-08 01:53:54.80	289.60	15.48	-46.0	-48.4	17.8	0.00e+00	0	40	0	640679936	63	4808
2026-01-08 01:53:55.79	289.40	15.43	-45.9	-48.3	17.9	0.00e+00	0	40	0	642777088	63	4757
2026-01-08 01:53:56.80	289.21	15.39	-45.8	-48.3	17.9	0.00e+00	0	40	0	644874240	63	4728
2026-01-08 01:53:57.80	289.01	15.34	-46.1	-48.7	17.6	0.00e+00	0	40	0	645922816	63	4931
2026-01-08 01:53:58.80	288.81	15.30	-46.2	-48.8	17.5	0.00e+00	0	40	0	648019968	63	4994
2026-01-08 01:53:59.80	288.62	15.25	-46.6	-49.3	16.9	0.00e+00	0	40	0	650117120	64	5016
2026-01-08 01:54:00.80	288.43	15.21	-46.8	-49.6	16.6	0.00e+00	0	40	0	652214272	64	5180
2026-01-08 01:54:01.80	288.23	15.16	-47.1	-50.0	16.2	0.00e+00	0	40	0	653262848	64	5462
2026-01-08 01:54:02.80	288.04	15.12	-47.2	-50.1	16.2	0.00e+00	0	40	0	655360000	65	5189
2026-01-08 01:54:03.81	287.84	15.07	-47.4	-50.4	16.0	0.00e+00	0	40	0	657457152	65	5348
2026-01-08 01:54:04.81	287.65	15.02	-47.2	-50.1	16.2	0.00e+00	0	39	0	659554304	65	5171
2026-01-08 01:54:05.81	287.46	14.98	-47.0	-49.8	16.5	0.00e+00	0	40	0	661651456	65	5014
2026-01-08 01:54:06.82	287.27	14.93	-47.0	-49.9	16.4	0.00e+00	0	40	0	662700032	65	5045
2026-01-08 01:54:07.81	287.08	14.88	-46.7	-49.5	16.8	0.00e+00	0	40	0	664797184	65	4824
2026-01-08 01:54:08.82	286.89	14.84	-46.7	-49.4	16.8	0.00e+00	0	40	0	666894336	65	4797
2026-01-08 01:54:09.82	286.70	14.79	-46.8	-49.5	16.7	0.00e+00	0	40	0	668991488	65	4848
2026-01-08 01:54:10.82	286.51	14.74	-46.8	-49.6	16.6	0.00e+00	0	40	0	671088640	65	4894
2026-01-08 01:54:11.82	286.33	14.69	-47.0	-49.8	16.5	0.00e+00	0	40	0	672137216	65	4993
2026-01-08 01:54:12.82	286.14	14.64	-46.9	-49.7	16.6	0.00e+00	0	40	0	674234368	65	4959
2026-01-08 01:54:13.82	285.95	14.60	-47.1	-50.0	16.2	0.00e+00	0	40	0	676331520	65	5152
2026-01-08 01:54:14.83	285.76	14.55	-47.2	-50.2	16.1	0.00e+00	0	40	0	678428672	65	5231
2026-01-08 01:54:15.83	285.58	14.50	-47.2	-50.1	16.2	0.00e+00	0	40	0	680525824	65	5206
2026-01-08 01:54:16.82	285.40	14.45	-47.1	-50.0	16.3	0.00e+00	0	40	0	681574400	65	5123
2026-01-08 01:54:17.83	285.21	14.40	-47.2	-50.1	16.2	0.00e+00	0	40	0	683671552	65	5181
2026-01-08 01:54:18.83	285.03	14.35	-46.9	-49.7	16.6	0.00e+00	0	40	0	685768704	65	4947
2026-01-08 01:54:19.83	284.85	14.30	-47.2	-50.0	16.2	0.00e+00	0	40	0	687865856	65	5158
2026-01-08 01:54:20.83	284.66	14.25	-47.1	-49.9	16.3	0.00e+00	0	40	0	688914432	65	5078
2026-01-08 01:54:21.83	284.48	14.20	-47.2	-50.1	16.2	0.00e+00	0	40	0	691011584	65	5184
2026-01-08 01:54:22.83	284.30	14.15	-47.0	-49.9	16.4	0.00e+00	0	40	0	693108736	65	5068
2026-01-08 01:54:23.84	284.12	14.10	-46.9	-49.7	16.5	0.00e+00	0	40	0	695205888	65	4973
2026-01-08 01:54:24.84	283.94	14.05	-46.6	-49.3	16.9	0.00e+00	0	40	0	697303040	65	4742
2026-01-08 01:54:25.84	283.76	14.00	-46.6	-49.2	17.0	0.00e+00	0	40	0	699400192	65	4697
2026-01-08 01:54:26.84	283.58	13.95	-46.5	-49.2	17.0	0.00e+00	0	40	0	700448768	65	4673
2026-01-08 01:54:27.85	283.40	13.90	-46.4	-49.0	17.2	0.00e+00	0	40	0	702545920	64	4845
2026-01-08 01:54:28.85	283.23	13.84	-46.5	-49.1	17.0	0.00e+00	0	40	0	704643072	64	4907
2026-01-08 01:54:29.85	283.05	13.79	-46.8	-49.5	16.6	0.00e+00	0	40	0	706740224	64	5116
2026-01-08 01:54:30.85	282.87	13.74	-46.9	-49.7	16.5	0.00e+00	0	40	0	707788800	64	5240
2026-01-08 01:54:31.85	282.70	13.69	-46.8	-49.5	16.7	0.00e+00	0	40	0	709885952	64	5159
2026-01-08 01:54:32.86	282.52	13.64	-47.0	-49.9	16.4	0.00e+00	0	40	0	711983104	64	5357
2026-01-08 01:54:33.86	282.35	13.59	-47.0	-49.9	16.4	0.00e+00	0	40	0	714080256	64	5346
2026-01-08 01:54:34.86	282.18	13.53	-47.0	-49.8	16.4	0.00e+00	0	40	0	716177408	64	5304
2026-01-08 01:54:35.86	282.00	13.48	-46.8	-49.7	16.6	0.00e+00	0	40	0	717225984	64	5224
2026-01-08 01:54:36.86	281.83	13.43	-46.9	-49.7	16.6	0.00e+00	0	40	0	719323136	64	5247
2026-01-08 01:54:37.86	281.66	13.38	-47.0	-49.9	16.4	0.00e+00	0	40	0	721420288	64	5364
2026-01-08 01:54:38.87	281.49	13.32	-46.8	-49.6	16.7	0.00e+00	0	40	0	723517440	64	5169
2026-01-08 01:54:39.87	281.32	13.27	-47.1	-50.0	16.3	0.00e+00	0	40	0	725614592	64	5409
2026-01-08 01:54:40.87	281.15	13.22	-46.9	-49.7	16.5	0.00e+00	0	40	0	726663168	64	5231
2026-01-08 01:54:41.87	280.98	13.16	-47.1	-49.9	16.3	0.00e+00	0	40	0	728760320	64	5388
2026-01-08 01:54:42.88	280.81	13.11	-47.2	-50.1	16.1	0.00e+00	0	40	0	730857472	65	5187
2026-01-08 01:54:43.88	280.64	13.06	-47.6	-50.7	15.5	0.00e+00	0	40	0	732954624	65	5573
2026-01-08 01:54:44.88	280.47	13.00	-47.9	-51.2	15.1	0.00e+00	0	40	0	734003200	66	5554
2026-01-08 01:54:45.88	280.31	12.95	-48.4	-51.9	14.4	0.00e+00	0	40	0	736100352	67	5714
2026-01-08 01:54:46.88	280.14	12.90	-49.0	-52.9	13.6	4.50e-06	0	40	0	738197504	68	5994
2026-01-08 01:54:47.89	279.97	12.84	-49.1	-53.1	13.4	1.22e-05	0	40	0	740294656	69	5826
2026-01-08 01:54:48.89	279.81	12.79	-49.4	-53.8	12.8	3.12e-05	0	40	0	742391808	69	6287
2026-01-08 01:54:49.89	279.64	12.73	-49.5	-53.9	12.6	8.54e-05	0	40	0	744488960	69	6418
2026-01-08 01:54:50.89	279.48	12.68	-49.3	-53.6	12.9	6.40e-05	0	40	0	745537536	69	6159
2026-01-08 01:54:51.89	279.32	12.63	-49.2	-53.4	13.1	2.51e-05	0	40	0	747634688	69	6057
2026-01-08 01:54:52.90	279.15	12.57	-49.2	-53.4	13.1	9.10e-06	0	40	0	749731840	69	6029
2026-01-08 01:54:53.90	278.99	12.52	-48.9	-52.8	13.7	9.90e-06	0	40	0	751828992	69	5621
2026-01-08 01:54:54.90	278.83	12.46	-48.9	-52.7	13.8	7.00e-07	0	40	0	752877568	69	5591
2026-01-08 01:54:55.90	278.67	12.41	-48.8	-52.6	13.9	3.00e-06	0	40	0	754974720	69	5506
2026-01-08 01:54:56.90	278.51	12.35	-48.7	-52.5	14.0	5.30e-06	0	40	0	757071872	69	5437
2026-01-08 01:54:57.90	278.35	12.30	-48.6	-52.3	14.2	4.50e-06	0	40	0	759169024	69	5283
2026-01-08 01:54:58.90	278.19	12.24	-48.5	-52.0	14.4	7.00e-07	0	40	0	761266176	68	5463
2026-01-08 01:54:59.90	278.03	12.19	-48.2	-51.7	14.8	0.00e+00	0	40	0	762314752	68	5250
2026-01-08 01:55:00.90	277.88	12.13	-47.8	-51.1	15.2	0.00e+00	0	40	0	764411904	67	5183
2026-01-08 01:55:01.90	277.72	12.08	-47.7	-50.9	15.3	0.00e+00	0	40	0	766509056	67	5089
2026-01-08 01:55:02.91	277.56	12.02	-47.5	-50.7	15.6	0.00e+00	0	40	0	768606208	66	5232
2026-01-08 01:55:03.91	277.41	11.97	-47.5	-50.7	15.5	0.00e+00	0	40	0	770703360	66	5273
2026-01-08 01:55:04.91	277.25	11.91	-47.5	-50.7	15.6	0.00e+00	0	40	0	771751936	66	5226
2026-01-08 01:55:05.92	277.10	11.85	-47.7	-51.0	15.3	0.00e+00	0	40	0	773849088	66	5412
2026-01-08 01:55:06.92	276.94	11.80	-47.9	-51.2	15.1	0.00e+00	0	40	0	775946240	66	5547
2026-01-08 01:55:07.92	276.79	11.74	-47.9	-51.3	15.0	0.00e+00	0	40	0	778043392	66	5607
2026-01-08 01:55:08.92	276.64	11.69	-48.0	-51.4	14.8	0.00e+00	0	40	0	779091968	66	5680
2026-01-08 01:55:09.92	276.48	11.63	-47.9	-51.1	15.1	0.00e+00	0	40	0	781189120	66	5514
2026-01-08 01:55:10.92	276.33	11.57	-47.8	-50.9	15.3	0.00e+00	0	40	0	783286272	66	5394
2026-01-08 01:55:11.93	276.18	11.52	-47.6	-50.7	15.6	0.00e+00	0	40	0	785383424	66	5245
2026-01-08 01:55:12.93	276.03	11.46	-47.5	-50.6	15.6	0.00e+00	0	40	0	787480576	66	5179
2026-01-08 01:55:13.93	275.88	11.41	-47.3	-50.2	16.0	0.00e+00	0	40	0	788529152	66	4970
2026-01-08 01:55:14.93	275.73	11.35	-47.2	-50.2	16.0	0.00e+00	0	40	0	790626304	66	4927
2026-01-08 01:55:15.93	275.58	11.29	-47.1	-50.0	16.2	0.00e+00	0	40	0	792723456	66	4856
2026-01-08 01:55:16.93	275.43	11.24	-47.0	-49.9	16.3	0.00e+00	0	40	0	794820608	65	5073
2026-01-08 01:55:17.94	275.28	11.18	-46.9	-49.8	16.3	0.00e+00	0	40	0	796917760	65	5021
2026-01-08 01:55:18.94	275.14	11.12	-46.9	-49.8	16.3	0.00e+00	0	40	0	797966336	65	5036
2026-01-08 01:55:19.94	274.99	11.07	-47.0	-49.9	16.2	0.00e+00	0	40	0	800063488	65	5052
2026-01-08 01:55:20.94	274.84	11.01	-47.0	-49.9	16.2	0.00e+00	0	40	0	802160640	65	5093
2026-01-08 01:55:21.95	274.70	10.95	-47.1	-50.1	16.1	0.00e+00	0	40	0	804257792	65	5180
2026-01-08 01:55:22.95	274.55	10.90	-47.1	-50.0	16.1	0.00e+00	0	40	0	806354944	65	5150
2026-01-08 01:55:23.95	274.41	10.84	-47.4	-50.4	15.8	0.00e+00	0	40	0	807403520	65	5365
2026-01-08 01:55:24.95	274.27	10.78	-47.5	-50.6	15.6	0.00e+00	0	40	0	809500672	65	5487
2026-01-08 01:55:25.95	274.12	10.73	-47.6	-50.7	15.5	0.00e+00	0	40	0	811597824	65	5542
2026-01-08 01:55:26.95	273.98	10.67	-47.6	-50.8	15.4	0.00e+00	0	40	0	813694976	65	5602
2026-01-08 01:55:27.95	273.84	10.61	-47.6	-50.8	15.4	0.00e+00	0	40	0	815792128	66	5316
2026-01-08 01:55:28.95	273.70	10.56	-47.6	-50.7	15.4	0.00e+00	0	40	0	816840704	66	5268
2026-01-08 01:55:29.95	273.56	10.50	-47.5	-50.7	15.5	0.00e+00	0	40	0	818937856	66	5230
2026-01-08 01:55:30.95	273.42	10.44	-47.6	-50.8	15.4	0.00e+00	0	40	0	821035008	66	5290
2026-01-08 01:55:31.95	273.28	10.39	-47.4	-50.6	15.6	0.00e+00	0	40	0	823132160	66	5179
2026-01-08 01:55:32.96	273.14	10.33	-47.4	-50.6	15.6	0.00e+00	0	40	0	824180736	66	5174
2026-01-08 01:55:33.96	273.00	10.27	-47.4	-50.6	15.5	0.00e+00	0	40	0	826277888	66	5213
2026-01-08 01:55:34.96	272.86	10.21	-47.4	-50.7	15.5	0.00e+00	0	40	0	828375040	66	5228
2026-01-08 01:55:35.96	272.72	10.16	-47.3	-50.5	15.7	0.00e+00	0	40	0	830472192	66	5129
2026-01-08 01:55:36.97	272.58	10.10	-47.1	-50.2	15.9	0.00e+00	0	40	0	832569344	66	4976
2026-01-08 01:55:37.97	272.45	10.04	-46.9	-49.9	16.1	0.00e+00	0	40	0	833617920	65	5083
2026-01-08 01:55:38.97	272.31	9.98	-46.7	-49.7	16.4	0.00e+00	0	40	0	835715072	65	4941
2026-01-08 01:55:39.98	272.18	9.93	-46.6	-49.5	16.6	0.00e+00	0	40	0	837812224	65	4837
2026-01-08 01:55:40.97	272.04	9.87	-46.3	-49.2	16.8	0.00e+00	0	40	0	839909376	64	4945
2026-01-08 01:55:41.98	271.91	9.81	-46.1	-48.9	17.1	0.00e+00	0	40	0	842006528	64	4800
2026-01-08 01:55:42.98	271.77	9.76	-46.0	-48.8	17.2	0.00e+00	0	40	0	843055104	64	4735
2026-01-08 01:55:43.98	271.64	9.70	-46.0	-48.8	17.3	0.00e+00	0	40	0	845152256	63	5025
2026-01-08 01:55:44.98	271.51	9.64	-46.0	-48.8	17.3	0.00e+00	0	40	0	847249408	63	4993
2026-01-08 01:55:45.98	271.38	9.58	-46.1	-48.8	17.2	0.00e+00	0	40	0	849346560	63	5009
2026-01-08 01:55:46.99	271.24	9.53	-46.2	-49.0	17.1	0.00e+00	0	40	0	851443712	63	5131
2026-01-08 01:55:47.99	271.11	9.47	-46.4	-49.2	16.9	0.00e+00	0	40	0	852492288	63	5243
2026-01-08 01:55:48.99	270.98	9.41	-46.5	-49.3	16.8	0.00e+00	0	40	0	854589440	63	5307
2026-01-08 01:55:49.99	270.85	9.35	-46.6	-49.4	16.7	0.00e+00	0	40	0	856686592	63	5399
2026-01-08 01:55:50.99	270.72	9.30	-46.6	-49.3	16.8	0.00e+00	0	40	0	858783744	63	5338
2026-01-08 01:55:52.00	270.59	9.24	-46.5	-49.3	16.7	0.00e+00	0	40	0	860880896	63	5340
2026-01-08 01:55:52.99	270.46	9.18	-46.5	-49.3	16.8	0.00e+00	0	40	0	861929472	63	5284
2026-01-08 01:55:54.00	270.33	9.12	-46.4	-49.1	17.0	0.00e+00	0	40	0	864026624	63	5195
2026-01-08 01:55:55.00	270.21	9.07	-46.3	-49.0	17.1	0.00e+00	0	40	0	866123776	63	5140
2026-01-08 01:55:56.00	270.08	9.01	-46.3	-49.0	17.1	0.00e+00	0	40	0	868220928	63	5105
2026-01-08 01:55:57.01	269.95	8.95	-52.2	-64.8	3.9	7.00e-07	0	40	104	869269504	75	15942
2026-01-08 01:55:58.01	269.83	8.89	-52.4	-67.6	3.8	1.49e+00	0	40	104	869269504	75	21891
2026-01-08 01:55:59.01	269.70	8.84	-52.7	-67.9	3.8	1.49e+00	0	40	104	869269504	76	21486
2026-01-08 01:56:00.01	269.58	8.78	-52.8	-68.0	3.8	1.49e+00	0	40	104	869269504	76	21733
2026-01-08 01:56:01.01	269.45	8.72	-52.9	-68.1	3.8	1.49e+00	0	40	104	869269504	76	21769
2026-01-08 01:56:02.01	269.33	8.66	-52.7	-68.1	3.8	1.49e+00	0	40	104	869269504	76	21820
2026-01-08 01:56:03.02	269.20	8.61	-52.8	-68.1	3.8	1.49e+00	0	40	104	869269504	76	21975
2026-01-08 01:56:04.02	269.08	8.55	-52.8	-68.2	3.8	1.49e+00	0	40	104	869269504	76	22009
2026-01-08 01:56:05.01	268.96	8.49	-52.8	-68.2	3.8	1.49e+00	0	40	104	869269504	76	22044
2026-01-08 01:56:06.02	268.84	8.43	-53.0	-68.1	3.8	1.49e+00	0	40	104	869269504	76	21972
2026-01-08 01:56:07.02	268.72	8.38	-53.0	-68.2	3.8	1.49e+00	0	40	104	869269504	76	22117
2026-01-08 01:56:08.02	268.59	8.32	-53.0	-68.2	3.8	1.49e+00	0	40	104	869269504	76	22088
2026-01-08 01:56:09.02	268.47	8.26	-53.0	-68.2	3.8	1.49e+00	0	40	104	869269504	76	22082
2026-01-08 01:56:10.02	268.35	8.20	-52.9	-68.0	3.8	1.49e+00	0	40	104	869269504	76	21722
2026-01-08 01:56:11.02	268.23	8.15	-52.9	-68.0	3.8	1.49e+00	0	40	104	869269504	76	21696
2026-01-08 01:56:12.02	268.12	8.09	-52.9	-68.0	3.8	1.49e+00	0	40	104	869269504	76	21699
2026-01-08 01:56:13.02	268.00	8.03	-52.8	-68.0	3.8	1.49e+00	0	40	104	869269504	76	21722
2026-01-08 01:56:14.02	267.88	7.98	-52.9	-68.0	3.8	1.49e+00	0	40	104	869269504	76	21627
2026-01-08 01:56:15.03	267.76	7.92	-52.8	-68.0	3.8	1.49e+00	0	40	104	869269504	76	21671
2026-01-08 01:56:16.03	267.64	7.86	-52.8	-68.1	3.8	1.49e+00	0	40	104	869269504	76	21757
2026-01-08 01:56:17.03	267.53	7.80	-52.8	-68.0	3.8	1.49e+00	0	40	104	869269504	76	21708
2026-01-08 01:56:18.03	267.41	7.75	-52.8	-68.0	3.8	1.49e+00	0	40	104	869269504	76	21709
2026-01-08 01:56:19.03	267.29	7.69	-52.8	-68.0	3.8	1.49e+00	0	40	104	869269504	76	21644
2026-01-08 01:56:20.03	267.18	7.63	-52.8	-68.0	3.8	1.49e+00	0	40	104	869269504	76	21595
2026-01-08 01:56:21.03	267.06	7.57	-52.8	-68.0	3.8	1.49e+00	0	40	104	869269504	76	21666
2026-01-08 01:56:22.03	266.95	7.52	-52.8	-68.0	3.8	1.49e+00	0	40	104	869269504	76	21537
2026-01-08 01:56:23.04	266.84	7.46	-52.8	-68.0	3.8	1.49e+00	0	40	104	869269504	76	21539
2026-01-08 01:56:24.04	266.72	7.40	-52.8	-67.9	3.8	1.49e+00	0	40	104	869269504	76	21433
2026-01-08 01:56:25.04	266.61	7.35	-52.8	-68.0	3.8	1.49e+00	0	40	104	869269504	76	21594
2026-01-08 01:56:26.04	266.50	7.29	-52.7	-68.0	3.8	1.49e+00	0	40	104	869269504	76	21584
2026-01-08 01:56:27.05	266.38	7.23	-52.8	-67.9	3.8	1.49e+00	0	40	104	869269504	76	21505
2026-01-08 01:56:28.05	266.27	7.17	-52.7	-68.0	3.8	1.49e+00	0	40	104	869269504	76	21535
2026-01-08 01:56:29.05	266.16	7.12	-52.7	-67.9	3.8	1.49e+00	0	40	104	869269504	76	21445
2026-01-08 01:56:30.05	266.05	7.06	-52.7	-67.9	3.8	1.49e+00	0	40	104	869269504	76	21367
2026-01-08 01:56:31.06	265.94	7.00	-52.6	-67.9	3.8	1.49e+00	0	40	104	869269504	76	21414
2026-01-08 01:56:32.06	265.83	6.95	-52.5	-67.9	3.8	1.49e+00	0	40	104	869269504	76	21440
2026-01-08 01:56:33.06	265.72	6.89	-52.5	-67.9	3.8	1.49e+00	0	40	104	869269504	76	21404
2026-01-08 01:56:34.06	265.61	6.83	-52.4	-67.9	3.8	1.49e+00	0	40	104	869269504	76	21349
2026-01-08 01:56:35.07	265.50	6.78	-52.3	-67.9	3.8	1.49e+00	0	40	104	869269504	76	21261
2026-01-08 01:56:36.07	265.39	6.72	-52.3	-67.8	3.8	1.49e+00	0	40	104	869269504	76	21238
2026-01-08 01:56:37.07	265.28	6.66	-52.3	-67.8	3.8	1.49e+00	0	40	104	869269504	76	21180
2026-01-08 01:56:38.08	265.18	6.60	-52.2	-67.8	3.8	1.49e+00	0	40	104	869269504	76	21103
2026-01-08 01:56:39.08	265.07	6.55	-52.2	-67.8	3.8	1.49e+00	0	40	104	869269504	76	21020
2026-01-08 01:56:40.08	264.96	6.49	-52.2	-67.7	3.8	1.49e+00	0	40	104	869269504	76	21010
2026-01-08 01:56:41.08	264.86	6.43	-52.2	-67.7	3.8	1.49e+00	0	40	104	869269504	76	20990
2026-01-08 01:56:42.09	264.75	6.38	-52.2	-67.7	3.8	1.49e+00	0	40	104	869269504	76	20953
2026-01-08 01:56:43.09	264.65	6.32	-52.2	-67.7	3.8	1.49e+00	0	40	104	869269504	76	20902
2026-01-08 01:56:44.09	264.54	6.26	-52.2	-67.7	3.8	1.49e+00	0	40	104	869269504	76	20964
2026-01-08 01:56:45.10	264.44	6.21	-52.2	-67.7	3.8	1.49e+00	0	40	104	869269504	76	20972
2026-01-08 01:56:46.10	264.33	6.15	-52.1	-67.7	3.8	1.49e+00	0	40	104	869269504	76	20895
2026-01-08 01:56:47.10	264.23	6.09	-52.1	-67.7	3.8	1.49e+00	0	40	104	869269504	76	20819
2026-01-08 01:56:48.10	264.13	6.04	-52.2	-67.7	3.8	1.49e+00	0	40	104	869269504	76	20860
2026-01-08 01:56:49.11	264.02	5.98	-52.1	-67.6	3.8	1.49e+00	0	40	104	869269504	76	20726
2026-01-08 01:56:50.11	263.92	5.93	-52.1	-67.7	3.8	1.49e+00	0	40	104	869269504	76	20898
2026-01-08 01:56:51.11	263.82	5.87	-52.1	-67.7	3.8	1.49e+00	0	40	104	869269504	76	20812
2026-01-08 01:56:52.11	263.72	5.81	-52.1	-67.6	3.8	1.49e+00	0	40	104	869269504	76	20772
2026-01-08 01:56:53.12	263.61	5.76	-52.1	-67.6	3.8	1.49e+00	0	40	104	869269504	76	20744
2026-01-08 01:56:54.12	263.51	5.70	-52.1	-67.7	3.8	1.49e+00	0	40	104	869269504	76	20799
2026-01-08 01:56:55.12	263.41	5.64	-52.1	-67.7	3.8	1.49e+00	0	40	104	869269504	76	20808
2026-01-08 01:56:56.13	263.31	5.59	-52.1	-67.7	3.8	1.49e+00	0	40	104	869269504	76	20780
2026-01-08 01:56:57.13	263.21	5.53	-52.1	-67.6	3.8	1.49e+00	0	40	104	869269504	76	20723
2026-01-08 01:56:58.13	263.11	5.48	-52.1	-67.7	3.8	1.49e+00	0	40	104	869269504	76	20786
2026-01-08 01:56:59.13	263.01	5.42	-52.1	-67.6	3.8	1.49e+00	0	40	104	869269504	76	20745
2026-01-08 01:57:00.14	262.92	5.36	-52.1	-67.7	3.8	1.49e+00	0	40	104	869269504	76	20791
2026-01-08 01:57:01.14	262.82	5.31	-52.1	-67.6	3.8	1.49e+00	0	40	104	869269504	76	20744
2026-01-08 01:57:02.14	262.72	5.25	-52.1	-67.6	3.8	1.49e+00	0	40	104	869269504	76	20724
2026-01-08 01:57:03.14	262.62	5.20	-52.1	-67.6	3.8	1.49e+00	0	40	104	869269504	76	20698
2026-01-08 01:57:04.15	262.53	5.14	-52.1	-67.6	3.8	1.49e+00	0	40	104	869269504	76	20769
2026-01-08 01:57:05.15	262.43	5.08	-52.1	-67.6	3.8	1.49e+00	0	40	104	869269504	76	20669
2026-01-08 01:57:06.15	262.33	5.03	-52.0	-67.6	3.8	1.49e+00	0	40	104	869269504	76	20601
2026-01-08 01:57:07.15	262.24	4.97	-52.0	-67.6	3.8	1.49e+00	0	40	104	869269504	76	20677

#Closed at: 2026-01-08 01:57:08
#Recorded file [869 MB]: D:/Data/31040_260108_044706.dat