passes_logs/2026/01/08/T1/T1__20260108_074944_NOAA_21_JPSS-2_rec.log

#Pass ID: 20260108_074944_NOAA 21 (JPSS-2)
#Satellite: NOAA 21 (JPSS-2)
#Configuration: NOAA 21
#almurnet v.1.7.20251203
#Start time: 2026-01-08 07:49:45

#Version: 2.0.20230620
#Station: T1
#Location: 37.570604 lon 55.790049 lat
#TLE: 1 54234U 22150A   26005.56767909  .00000152  00000+0  92756-4 0  9990
#TLE: 2 54234  98.7490 306.5820 0001036 340.2747  19.8389 14.19532370163472

#Time	Az	El	Level	Level2	SNR	BER	BlckErr	Temp	State	Recorded	gain1	gain2
2026-01-08 07:49:45.82	92.69	5.07	-49.8	-63.2	3.8	1.49e+00	0	41	0	0	71	16513
2026-01-08 07:49:46.82	92.59	5.13	-49.8	-63.2	3.8	1.49e+00	0	41	104	0	71	16536
2026-01-08 07:49:47.82	92.49	5.18	-49.8	-63.1	3.8	1.49e+00	0	41	104	0	71	16475
2026-01-08 07:49:48.82	92.39	5.23	-49.8	-63.1	3.8	1.49e+00	0	41	104	0	71	16485
2026-01-08 07:49:49.83	92.28	5.29	-49.8	-63.2	3.8	1.49e+00	0	41	104	0	71	16514
2026-01-08 07:49:50.83	92.18	5.34	-49.8	-63.2	3.8	1.49e+00	0	41	104	0	71	16563
2026-01-08 07:49:51.83	92.07	5.39	-49.8	-63.2	3.8	1.49e+00	0	41	104	0	71	16549
2026-01-08 07:49:52.83	91.97	5.45	-49.8	-63.2	3.8	1.49e+00	0	42	104	0	71	16506
2026-01-08 07:49:53.84	91.86	5.50	-49.8	-63.1	3.8	1.49e+00	0	42	104	0	71	16481
2026-01-08 07:49:54.84	91.76	5.55	-49.8	-63.2	3.8	1.49e+00	0	42	104	0	71	16529
2026-01-08 07:49:55.85	91.65	5.61	-49.8	-63.1	3.8	1.49e+00	0	42	104	0	71	16444
2026-01-08 07:49:56.85	91.54	5.66	-49.8	-63.1	3.8	1.49e+00	0	42	104	0	71	16481
2026-01-08 07:49:57.85	91.44	5.71	-49.8	-63.1	3.8	1.49e+00	0	42	104	0	71	16407
2026-01-08 07:49:58.85	91.33	5.77	-49.8	-63.1	3.8	1.49e+00	0	42	104	0	71	16395
2026-01-08 07:49:59.85	91.22	5.82	-49.8	-63.1	3.8	1.49e+00	0	42	104	0	71	16378
2026-01-08 07:50:00.86	91.11	5.88	-49.8	-63.1	3.8	1.49e+00	0	42	104	0	71	16377
2026-01-08 07:50:01.86	91.01	5.93	-49.8	-63.1	3.8	1.49e+00	0	42	104	0	71	16346
2026-01-08 07:50:02.86	90.90	5.98	-49.8	-63.1	3.8	1.49e+00	0	42	104	0	71	16339
2026-01-08 07:50:03.86	90.79	6.04	-49.7	-63.1	3.8	1.49e+00	0	42	104	0	71	16375
2026-01-08 07:50:04.86	90.68	6.09	-49.8	-63.1	3.8	1.49e+00	0	42	104	0	71	16328
2026-01-08 07:50:05.87	90.57	6.14	-49.8	-63.1	3.8	1.49e+00	0	42	104	0	71	16399
2026-01-08 07:50:06.87	90.46	6.20	-49.8	-63.1	3.8	1.49e+00	0	42	104	0	71	16367
2026-01-08 07:50:07.88	90.35	6.25	-49.8	-63.1	3.8	1.49e+00	0	42	104	0	71	16429
2026-01-08 07:50:08.88	90.23	6.30	-49.8	-63.1	3.8	1.49e+00	0	42	104	0	71	16443
2026-01-08 07:50:09.88	90.12	6.36	-49.8	-63.1	3.8	1.49e+00	0	42	104	0	71	16456
2026-01-08 07:50:10.89	90.01	6.41	-49.8	-63.1	3.8	1.49e+00	0	42	104	0	71	16451
2026-01-08 07:50:11.89	89.90	6.47	-49.8	-63.2	3.8	1.49e+00	0	42	104	0	71	16520
2026-01-08 07:50:12.89	89.78	6.52	-49.8	-63.1	3.8	1.49e+00	0	42	104	0	71	16466
2026-01-08 07:50:13.90	89.67	6.57	-49.8	-63.1	3.8	1.49e+00	0	42	104	0	71	16428
2026-01-08 07:50:14.90	89.56	6.63	-49.8	-63.1	3.8	1.49e+00	0	42	104	0	71	16458
2026-01-08 07:50:15.90	89.44	6.68	-49.8	-63.1	3.8	1.49e+00	0	42	104	0	71	16315
2026-01-08 07:50:16.91	89.33	6.73	-49.8	-62.9	3.8	1.49e+00	0	42	104	0	71	16069
2026-01-08 07:50:17.91	89.21	6.79	-49.8	-62.8	3.8	1.49e+00	0	42	104	0	71	15858
2026-01-08 07:50:18.91	89.10	6.84	-49.7	-62.7	3.8	1.49e+00	0	42	104	0	71	15607
2026-01-08 07:50:19.91	88.98	6.90	-49.7	-62.5	3.8	1.49e+00	0	42	104	0	71	15340
2026-01-08 07:50:20.92	88.86	6.95	-49.7	-62.4	3.8	1.49e+00	0	42	104	0	71	15207
2026-01-08 07:50:21.92	88.75	7.00	-49.7	-62.4	3.8	1.49e+00	0	42	104	0	71	15203
2026-01-08 07:50:22.92	88.63	7.06	-49.7	-62.5	3.8	1.49e+00	0	42	104	0	71	15299
2026-01-08 07:50:23.93	88.51	7.11	-49.7	-62.5	3.8	1.49e+00	0	42	104	0	71	15242
2026-01-08 07:50:24.93	88.39	7.17	-49.7	-62.5	3.8	1.49e+00	0	42	104	0	71	15302
2026-01-08 07:50:25.93	88.27	7.22	-49.7	-62.6	3.8	1.49e+00	0	43	104	0	71	15402
2026-01-08 07:50:26.94	88.15	7.27	-49.7	-62.5	3.8	1.49e+00	0	43	104	0	71	15390
2026-01-08 07:50:27.94	88.03	7.33	-49.7	-62.6	3.8	1.49e+00	0	42	104	0	71	15407
2026-01-08 07:50:28.94	87.92	7.38	-49.7	-62.5	3.8	1.49e+00	0	43	104	0	71	15370
2026-01-08 07:50:29.94	87.79	7.43	-49.7	-62.5	3.8	1.49e+00	0	42	104	0	71	15364
2026-01-08 07:50:30.95	87.67	7.49	-49.7	-62.5	3.8	1.49e+00	0	42	104	0	71	15327
2026-01-08 07:50:31.95	87.55	7.54	-49.7	-62.5	3.8	1.49e+00	0	43	104	0	71	15286
2026-01-08 07:50:32.95	87.43	7.60	-49.7	-62.6	3.8	1.49e+00	0	43	104	0	71	15503
2026-01-08 07:50:33.96	87.31	7.65	-49.8	-62.8	3.8	1.49e+00	0	43	104	0	71	15773
2026-01-08 07:50:34.96	87.18	7.70	-49.8	-63.0	3.8	1.49e+00	0	43	104	0	71	16192
2026-01-08 07:50:35.96	87.06	7.76	-49.8	-63.1	3.8	1.49e+00	0	43	104	0	71	16407
2026-01-08 07:50:36.97	86.94	7.81	-49.8	-63.1	3.8	1.49e+00	0	43	104	0	71	16356
2026-01-08 07:50:37.97	86.81	7.86	-49.7	-63.0	3.8	1.49e+00	0	43	104	0	71	16179
2026-01-08 07:50:38.97	86.69	7.92	-49.7	-62.7	3.8	1.49e+00	0	43	104	0	71	15649
2026-01-08 07:50:39.97	86.56	7.97	-49.7	-62.3	3.8	1.49e+00	0	43	104	0	71	14990
2026-01-08 07:50:40.97	86.44	8.02	-49.6	-61.9	3.8	1.49e+00	0	43	104	0	71	14217
2026-01-08 07:50:41.98	86.31	8.08	-49.6	-60.9	3.9	1.49e+00	0	43	104	0	71	12746
2026-01-08 07:50:42.98	86.19	8.13	-49.6	-61.0	3.9	1.48e+00	0	43	104	0	71	12882
2026-01-08 07:50:43.98	86.06	8.19	-49.6	-61.3	3.9	1.49e+00	0	43	104	0	71	13391
2026-01-08 07:50:44.99	85.93	8.24	-49.7	-62.2	3.8	1.49e+00	0	43	104	0	71	14773
2026-01-08 07:50:45.99	85.80	8.29	-49.7	-62.4	3.8	1.49e+00	0	43	104	0	71	15146
2026-01-08 07:50:46.99	85.67	8.35	-49.4	-59.1	4.4	1.49e+00	0	43	104	0	70	10947
2026-01-08 07:50:48.00	85.54	8.40	-48.5	-54.8	7.1	2.64e-01	0	43	0	0	68	7498
2026-01-08 07:50:49.00	85.42	8.45	-47.0	-51.4	10.2	1.08e-02	0	43	0	0	66	5716
2026-01-08 07:50:50.00	85.29	8.51	-45.6	-48.9	12.9	9.30e-05	0	43	0	0	63	5072
2026-01-08 07:50:51.01	85.15	8.56	-44.5	-47.2	14.6	1.50e-06	0	43	0	0	61	4684
2026-01-08 07:50:52.01	85.02	8.61	-43.6	-46.0	15.8	0.00e+00	0	43	0	0	59	4561
2026-01-08 07:50:53.01	84.89	8.67	-43.4	-45.7	16.1	0.00e+00	0	43	0	0	58	4662
2026-01-08 07:50:54.02	84.76	8.72	-43.4	-45.8	16.0	0.00e+00	0	43	0	0	58	4732
2026-01-08 07:50:55.02	84.63	8.77	-44.1	-46.6	15.2	0.00e+00	0	43	0	0	58	5186
2026-01-08 07:50:56.02	84.50	8.83	-44.8	-47.7	14.2	7.00e-07	0	43	0	0	60	5246
2026-01-08 07:50:57.02	84.36	8.88	-46.1	-49.7	12.2	4.80e-05	0	43	0	0	62	5866
2026-01-08 07:50:58.03	84.23	8.93	-47.2	-51.9	9.8	3.82e-03	0	43	0	0	65	6372
2026-01-08 07:50:59.03	84.09	8.99	-48.4	-54.9	6.8	9.65e-02	0	43	0	0	67	8065
2026-01-08 07:51:00.03	83.96	9.04	-49.3	-59.2	4.0	8.58e-01	0	43	104	0	69	11777
2026-01-08 07:51:01.03	83.82	9.09	-49.4	-58.9	4.0	7.36e-01	0	43	104	0	69	11413
2026-01-08 07:51:02.04	83.69	9.15	-48.3	-54.7	7.2	8.14e-03	0	43	0	0	67	7815
2026-01-08 07:51:03.04	83.55	9.20	-49.7	-63.1	3.8	1.49e+00	0	43	104	0	70	17286
2026-01-08 07:51:04.04	83.42	9.25	-45.5	-48.7	13.3	1.14e-03	0	43	0	0	63	4973
2026-01-08 07:51:05.04	83.28	9.30	-49.7	-62.8	3.8	1.49e+00	0	43	104	0	69	17881
2026-01-08 07:51:06.05	83.14	9.36	-45.8	-49.2	12.8	9.41e-04	0	43	0	0	63	5219
2026-01-08 07:51:07.05	83.00	9.41	-44.6	-47.3	14.6	1.50e-06	0	43	0	0	61	4737
2026-01-08 07:51:08.04	82.86	9.46	-43.8	-46.2	15.7	0.00e+00	0	43	0	0	59	4669
2026-01-08 07:51:09.04	82.73	9.52	-43.1	-45.3	16.5	0.00e+00	0	43	0	0	58	4479
2026-01-08 07:51:10.03	82.59	9.57	-43.2	-45.4	16.5	0.00e+00	0	43	0	0	58	4499
2026-01-08 07:51:11.03	82.45	9.62	-43.3	-45.5	16.3	0.00e+00	0	43	0	0	58	4576
2026-01-08 07:51:12.03	82.31	9.67	-42.9	-45.1	16.8	0.00e+00	0	43	0	0	57	4601
2026-01-08 07:51:13.02	82.17	9.72	-42.9	-45.0	16.8	0.00e+00	0	43	0	0	57	4596
2026-01-08 07:51:14.02	82.03	9.78	-43.0	-45.1	16.7	0.00e+00	0	43	0	0	57	4650
2026-01-08 07:51:15.01	81.89	9.83	-42.9	-45.0	16.8	0.00e+00	0	43	0	0	57	4595
2026-01-08 07:51:16.01	81.74	9.88	-42.9	-45.0	16.8	0.00e+00	0	43	0	0	57	4581
2026-01-08 07:51:17.01	81.60	9.93	-42.9	-45.1	16.8	0.00e+00	0	43	0	0	57	4613
2026-01-08 07:51:18.00	81.46	9.98	-43.0	-45.2	16.6	0.00e+00	0	43	0	0	57	4696
2026-01-08 07:51:19.00	81.31	10.04	-42.9	-45.0	16.8	0.00e+00	0	43	0	0	57	4591
2026-01-08 07:51:20.00	81.17	10.09	-42.8	-44.9	16.9	0.00e+00	0	43	0	0	57	4545
2026-01-08 07:51:21.00	81.02	10.14	-42.8	-44.9	17.0	0.00e+00	0	43	0	0	57	4519
2026-01-08 07:51:22.00	80.88	10.19	-42.8	-44.9	17.0	0.00e+00	0	43	0	0	57	4513
2026-01-08 07:51:23.00	80.73	10.24	-42.9	-45.0	16.8	0.00e+00	0	43	0	0	57	4582
2026-01-08 07:51:24.00	80.59	10.29	-42.8	-44.9	16.9	0.00e+00	0	43	0	0	57	4531
2026-01-08 07:51:25.00	80.44	10.35	-42.9	-45.0	16.9	0.00e+00	0	44	0	0	57	4587
2026-01-08 07:51:26.00	80.29	10.40	-42.8	-44.9	17.0	0.00e+00	0	43	0	0	57	4535
2026-01-08 07:51:27.00	80.14	10.45	-43.0	-45.1	16.8	0.00e+00	0	43	0	0	57	4620
2026-01-08 07:51:28.00	79.99	10.50	-42.9	-45.0	16.9	0.00e+00	0	43	0	0	57	4571
2026-01-08 07:51:29.00	79.84	10.55	-42.7	-44.8	17.0	0.00e+00	0	43	0	0	57	4482
2026-01-08 07:51:30.00	79.69	10.60	-42.8	-44.8	17.0	0.00e+00	0	43	0	0	57	4490
2026-01-08 07:51:31.01	79.54	10.65	-42.6	-44.7	17.2	0.00e+00	0	43	0	0	57	4403
2026-01-08 07:51:32.01	79.39	10.71	-42.6	-44.7	17.2	0.00e+00	0	43	0	0	57	4408
2026-01-08 07:51:33.01	79.24	10.76	-42.6	-44.7	17.2	0.00e+00	0	43	0	0	57	4394
2026-01-08 07:51:34.01	79.09	10.81	-42.7	-44.8	17.1	0.00e+00	0	43	0	0	57	4456
2026-01-08 07:51:35.01	78.94	10.86	-42.6	-44.7	17.2	0.00e+00	0	43	0	0	57	4408
2026-01-08 07:51:36.00	78.78	10.91	-42.6	-44.6	17.3	0.00e+00	0	43	0	0	57	4369
2026-01-08 07:51:37.01	78.63	10.96	-42.7	-44.8	17.1	0.00e+00	0	43	0	0	57	4469
2026-01-08 07:51:38.00	78.48	11.01	-42.4	-44.4	17.5	0.00e+00	0	43	0	0	56	4520
2026-01-08 07:51:39.00	78.32	11.06	-42.3	-44.3	17.6	0.00e+00	0	43	0	0	56	4469
2026-01-08 07:51:40.00	78.17	11.11	-42.4	-44.3	17.5	0.00e+00	0	43	0	0	56	4488
2026-01-08 07:51:41.00	78.01	11.16	-42.3	-44.3	17.6	0.00e+00	0	43	0	0	56	4457
2026-01-08 07:51:42.00	77.85	11.21	-42.5	-44.6	17.3	0.00e+00	0	43	0	0	56	4604
2026-01-08 07:51:43.00	77.70	11.26	-42.5	-44.5	17.3	0.00e+00	0	43	0	0	56	4592
2026-01-08 07:51:44.00	77.54	11.31	-42.6	-44.7	17.2	0.00e+00	0	43	0	0	56	4657
2026-01-08 07:51:45.00	77.38	11.36	-42.6	-44.7	17.2	0.00e+00	0	43	0	0	56	4665
2026-01-08 07:51:46.00	77.22	11.41	-42.7	-44.8	17.0	0.00e+00	0	43	0	0	56	4739
2026-01-08 07:51:47.00	77.07	11.46	-42.6	-44.7	17.1	0.00e+00	0	43	0	0	56	4688
2026-01-08 07:51:48.00	76.91	11.51	-42.5	-44.5	17.4	0.00e+00	0	43	0	0	56	4591
2026-01-08 07:51:49.00	76.75	11.56	-42.4	-44.4	17.4	0.00e+00	0	43	0	0	56	4539
2026-01-08 07:51:50.00	76.59	11.61	-42.4	-44.4	17.5	0.00e+00	0	43	0	0	56	4508
2026-01-08 07:51:51.00	76.42	11.66	-42.4	-44.4	17.5	0.00e+00	0	43	0	0	56	4519
2026-01-08 07:51:51.99	76.26	11.70	-42.3	-44.2	17.7	0.00e+00	0	43	0	0	56	4426
2026-01-08 07:51:52.99	76.10	11.75	-42.3	-44.3	17.5	0.00e+00	0	43	0	0	56	4474
2026-01-08 07:51:53.99	75.94	11.80	-42.3	-44.3	17.6	0.00e+00	0	43	0	0	56	4458
2026-01-08 07:51:54.99	75.78	11.85	-42.4	-44.4	17.5	0.00e+00	0	43	0	0	56	4515
2026-01-08 07:51:55.99	75.61	11.90	-42.4	-44.4	17.5	0.00e+00	0	43	0	0	56	4528
2026-01-08 07:51:56.99	75.45	11.95	-42.4	-44.4	17.5	0.00e+00	0	43	0	0	56	4538
2026-01-08 07:51:57.99	75.28	12.00	-42.3	-44.3	17.6	0.00e+00	0	43	0	0	56	4446
2026-01-08 07:51:58.99	75.12	12.04	-42.2	-44.2	17.7	0.00e+00	0	43	0	0	56	4398
2026-01-08 07:51:59.99	74.95	12.09	-42.1	-44.1	17.8	0.00e+00	0	44	0	0	56	4355
2026-01-08 07:52:00.99	74.78	12.14	-42.0	-43.9	18.0	0.00e+00	0	44	0	0	56	4266
2026-01-08 07:52:01.99	74.62	12.19	-41.8	-43.7	18.0	0.00e+00	0	44	0	0	55	4440
2026-01-08 07:52:02.99	74.45	12.23	-41.8	-43.7	18.0	0.00e+00	0	43	0	0	55	4430
2026-01-08 07:52:03.98	74.28	12.28	-41.8	-43.7	18.0	0.00e+00	0	44	0	0	55	4409
2026-01-08 07:52:04.97	74.12	12.33	-41.9	-43.8	17.9	0.00e+00	0	43	0	0	55	4490
2026-01-08 07:52:05.98	73.95	12.38	-41.9	-43.8	17.9	0.00e+00	0	43	0	0	55	4469
2026-01-08 07:52:06.97	73.78	12.42	-41.9	-43.8	17.9	0.00e+00	0	43	0	0	55	4453
2026-01-08 07:52:07.97	73.61	12.47	-41.9	-43.8	17.9	0.00e+00	0	43	0	0	55	4484
2026-01-08 07:52:08.97	73.44	12.52	-41.9	-43.8	17.9	0.00e+00	0	43	0	0	55	4471
2026-01-08 07:52:09.97	73.26	12.56	-41.8	-43.7	18.0	0.00e+00	0	43	0	0	55	4435
2026-01-08 07:52:10.97	73.09	12.61	-41.9	-43.8	17.9	0.00e+00	0	43	0	0	55	4492
2026-01-08 07:52:11.97	72.92	12.65	-41.9	-43.9	17.9	0.00e+00	0	43	0	0	55	4508
2026-01-08 07:52:12.97	72.75	12.70	-42.0	-43.9	17.8	0.00e+00	0	43	0	0	55	4529
2026-01-08 07:52:13.97	72.57	12.75	-41.9	-43.8	17.9	0.00e+00	0	43	0	0	55	4490
2026-01-08 07:52:14.96	72.40	12.79	-41.8	-43.7	18.0	0.00e+00	0	43	0	0	55	4407
2026-01-08 07:52:15.96	72.23	12.84	-41.8	-43.7	18.0	0.00e+00	0	44	0	0	55	4398
2026-01-08 07:52:16.96	72.05	12.88	-41.8	-43.7	18.0	0.00e+00	0	43	0	0	55	4435
2026-01-08 07:52:17.95	71.88	12.93	-41.7	-43.6	18.1	0.00e+00	0	43	0	0	55	4357
2026-01-08 07:52:18.95	71.70	12.97	-41.8	-43.7	17.9	0.00e+00	0	43	0	0	55	4430
2026-01-08 07:52:19.95	71.52	13.01	-41.8	-43.7	18.0	0.00e+00	0	44	0	0	55	4412
2026-01-08 07:52:20.95	71.35	13.06	-41.9	-43.8	17.9	0.00e+00	0	44	0	0	55	4473
2026-01-08 07:52:21.95	71.17	13.10	-41.9	-43.8	17.9	0.00e+00	0	44	0	0	55	4466
2026-01-08 07:52:22.95	70.99	13.15	-41.9	-43.9	17.8	0.00e+00	0	43	0	0	55	4520
2026-01-08 07:52:23.95	70.81	13.19	-42.0	-43.9	17.8	0.00e+00	0	43	0	0	55	4538
2026-01-08 07:52:24.95	70.63	13.24	-42.0	-44.0	17.8	0.00e+00	0	44	0	0	55	4557
2026-01-08 07:52:25.94	70.45	13.28	-42.2	-44.1	17.6	0.00e+00	0	43	0	0	55	4636
2026-01-08 07:52:26.95	70.27	13.32	-42.1	-44.1	17.7	0.00e+00	0	44	0	0	55	4618
2026-01-08 07:52:27.94	70.09	13.36	-42.0	-44.0	17.8	0.00e+00	0	43	0	0	55	4559
2026-01-08 07:52:28.94	69.91	13.41	-42.1	-44.1	17.7	0.00e+00	0	44	0	0	55	4606
2026-01-08 07:52:29.94	69.73	13.45	-42.0	-44.0	17.8	0.00e+00	0	44	0	0	55	4556
2026-01-08 07:52:30.94	69.54	13.49	-42.0	-44.0	17.7	0.00e+00	0	44	0	0	55	4555
2026-01-08 07:52:31.93	69.36	13.53	-41.9	-43.9	17.8	0.00e+00	0	43	0	0	55	4517
2026-01-08 07:52:32.93	69.18	13.58	-42.0	-43.9	17.8	0.00e+00	0	44	0	0	55	4518
2026-01-08 07:52:33.92	69.00	13.62	-41.9	-43.8	17.9	0.00e+00	0	43	0	0	55	4479
2026-01-08 07:52:34.92	68.81	13.66	-41.8	-43.7	18.0	0.00e+00	0	44	0	0	55	4433
2026-01-08 07:52:35.92	68.63	13.70	-41.8	-43.7	18.0	0.00e+00	0	43	0	0	55	4435
2026-01-08 07:52:36.92	68.44	13.74	-41.9	-43.8	17.9	0.00e+00	0	44	0	0	55	4482
2026-01-08 07:52:37.91	68.26	13.78	-41.8	-43.7	18.0	0.00e+00	0	43	0	0	55	4435
2026-01-08 07:52:38.91	68.07	13.82	-41.8	-43.7	18.0	0.00e+00	0	44	0	0	55	4435
2026-01-08 07:52:39.91	67.88	13.86	-41.8	-43.7	18.0	0.00e+00	0	44	0	0	55	4422
2026-01-08 07:52:40.91	67.69	13.90	-41.8	-43.7	18.0	0.00e+00	0	43	0	0	55	4416
2026-01-08 07:52:41.91	67.51	13.94	-41.8	-43.7	18.1	0.00e+00	0	44	0	0	55	4409
2026-01-08 07:52:42.91	67.32	13.98	-41.8	-43.8	17.9	0.00e+00	0	44	0	0	55	4445
2026-01-08 07:52:43.91	67.13	14.02	-41.9	-43.8	17.8	0.00e+00	0	44	0	0	55	4481
2026-01-08 07:52:44.91	66.94	14.06	-41.9	-43.9	17.9	0.00e+00	0	44	0	0	55	4506
2026-01-08 07:52:45.91	66.75	14.10	-41.9	-43.9	17.9	0.00e+00	0	43	0	0	55	4503
2026-01-08 07:52:46.91	66.56	14.14	-41.9	-43.9	17.9	0.00e+00	0	44	0	0	55	4507
2026-01-08 07:52:47.91	66.36	14.18	-42.0	-44.0	17.8	0.00e+00	0	43	0	0	55	4563
2026-01-08 07:52:48.91	66.17	14.22	-41.9	-43.9	17.9	0.00e+00	0	44	0	0	55	4512
2026-01-08 07:52:49.91	65.98	14.25	-41.9	-43.9	17.9	0.00e+00	0	44	0	0	55	4496
2026-01-08 07:52:50.91	65.79	14.29	-42.1	-44.0	17.7	0.00e+00	0	43	0	0	55	4591
2026-01-08 07:52:51.92	65.59	14.33	-42.0	-44.0	17.4	0.00e+00	0	43	0	0	55	4546
2026-01-08 07:52:52.91	65.40	14.37	-41.9	-43.9	17.6	0.00e+00	0	43	0	0	55	4510
2026-01-08 07:52:53.91	65.21	14.40	-41.9	-43.8	17.8	0.00e+00	0	43	0	0	55	4470
2026-01-08 07:52:54.92	65.01	14.44	-41.8	-43.7	18.0	0.00e+00	0	43	0	0	55	4420
2026-01-08 07:52:55.91	64.82	14.47	-41.9	-43.9	17.9	0.00e+00	0	43	0	0	55	4499
2026-01-08 07:52:56.92	64.62	14.51	-41.9	-43.9	17.8	0.00e+00	0	43	0	0	55	4502
2026-01-08 07:52:57.92	64.42	14.55	-41.9	-43.8	17.8	0.00e+00	0	44	0	0	55	4479
2026-01-08 07:52:58.92	64.22	14.58	-41.8	-43.7	17.9	0.00e+00	0	44	0	0	55	4428
2026-01-08 07:52:59.92	64.03	14.62	-41.6	-43.5	18.3	0.00e+00	0	43	0	0	55	4294
2026-01-08 07:53:00.92	63.83	14.65	-41.6	-43.4	18.3	0.00e+00	0	44	0	0	55	4275
2026-01-08 07:53:01.92	63.63	14.69	-41.6	-43.4	18.2	0.00e+00	0	44	0	0	55	4290
2026-01-08 07:53:02.92	63.43	14.72	-41.6	-43.5	18.2	0.00e+00	0	43	0	0	55	4336
2026-01-08 07:53:03.92	63.23	14.75	-41.6	-43.5	18.2	0.00e+00	0	44	0	0	55	4330
2026-01-08 07:53:04.92	63.03	14.79	-41.6	-43.5	18.2	0.00e+00	0	44	0	0	55	4340
2026-01-08 07:53:05.92	62.83	14.82	-41.7	-43.6	18.2	0.00e+00	0	44	0	0	55	4351
2026-01-08 07:53:06.91	62.64	14.85	-41.6	-43.5	18.2	0.00e+00	0	44	0	0	55	4325
2026-01-08 07:53:07.91	62.44	14.89	-41.7	-43.6	18.2	0.00e+00	0	43	0	0	55	4356
2026-01-08 07:53:08.91	62.23	14.92	-41.6	-43.5	18.2	0.00e+00	0	43	0	0	55	4312
2026-01-08 07:53:09.91	62.03	14.95	-41.6	-43.4	18.3	0.00e+00	0	43	0	0	55	4288
2026-01-08 07:53:10.91	61.83	14.98	-41.5	-43.4	18.4	0.00e+00	0	43	0	0	55	4251
2026-01-08 07:53:11.90	61.63	15.01	-41.5	-43.3	18.4	0.00e+00	0	43	0	0	54	4472
2026-01-08 07:53:12.90	61.43	15.05	-41.4	-43.3	18.3	0.00e+00	0	44	0	0	54	4474
2026-01-08 07:53:13.89	61.23	15.08	-41.4	-43.3	18.3	0.00e+00	0	44	0	0	54	4469
2026-01-08 07:53:14.90	61.02	15.11	-41.5	-43.4	18.3	0.00e+00	0	44	0	0	54	4528
2026-01-08 07:53:15.90	60.81	15.14	-41.6	-43.5	18.3	0.00e+00	0	43	0	0	54	4547
2026-01-08 07:53:16.89	60.61	15.17	-41.7	-43.6	18.2	0.00e+00	0	44	0	0	54	4626
2026-01-08 07:53:17.89	60.41	15.20	-41.8	-43.7	18.1	0.00e+00	0	43	0	0	54	4678
2026-01-08 07:53:18.89	60.20	15.23	-41.7	-43.6	18.1	0.00e+00	0	44	0	0	54	4612
2026-01-08 07:53:19.88	60.00	15.25	-41.7	-43.6	18.1	0.00e+00	0	43	0	0	54	4629
2026-01-08 07:53:20.87	59.79	15.28	-41.7	-43.6	18.1	0.00e+00	0	44	0	0	54	4643
2026-01-08 07:53:21.87	59.59	15.31	-41.8	-43.7	18.1	0.00e+00	0	43	0	0	54	4670
2026-01-08 07:53:22.87	59.38	15.34	-41.8	-43.8	18.0	0.00e+00	0	44	0	0	54	4710
2026-01-08 07:53:23.87	59.17	15.37	-41.8	-43.8	18.0	0.00e+00	0	43	0	0	54	4715
2026-01-08 07:53:24.87	58.96	15.39	-41.5	-43.4	18.3	0.00e+00	0	44	0	0	54	4530
2026-01-08 07:53:25.87	58.76	15.42	-41.5	-43.4	18.3	0.00e+00	0	43	0	0	54	4508
2026-01-08 07:53:26.87	58.55	15.45	-41.3	-43.2	18.5	0.00e+00	0	44	0	0	54	4418
2026-01-08 07:53:27.87	58.34	15.47	-41.3	-43.2	18.5	0.00e+00	0	43	0	0	54	4403
2026-01-08 07:53:28.87	58.13	15.50	-41.3	-43.2	18.5	0.00e+00	0	43	0	0	54	4394
2026-01-08 07:53:29.87	57.92	15.52	-41.3	-43.1	18.6	0.00e+00	0	44	0	0	54	4374
2026-01-08 07:53:30.87	57.71	15.55	-41.3	-43.2	18.5	0.00e+00	0	44	0	0	54	4392
2026-01-08 07:53:31.87	57.50	15.57	-41.3	-43.2	18.5	0.00e+00	0	44	0	0	54	4413
2026-01-08 07:53:32.87	57.29	15.60	-41.4	-43.2	18.5	0.00e+00	0	44	0	0	54	4438
2026-01-08 07:53:33.87	57.08	15.62	-41.4	-43.2	18.5	0.00e+00	0	44	0	0	54	4421
2026-01-08 07:53:34.87	56.87	15.65	-41.3	-43.1	18.6	0.00e+00	0	44	0	0	54	4369
2026-01-08 07:53:35.86	56.66	15.67	-41.3	-43.2	18.5	0.00e+00	0	44	0	0	54	4400
2026-01-08 07:53:36.86	56.44	15.69	-41.4	-43.3	18.4	0.00e+00	0	44	0	0	54	4444
2026-01-08 07:53:37.85	56.23	15.71	-41.3	-43.1	18.6	0.00e+00	0	44	0	0	54	4382
2026-01-08 07:53:38.86	56.02	15.74	-41.4	-43.2	18.5	0.00e+00	0	44	0	0	54	4414
2026-01-08 07:53:39.86	55.81	15.76	-41.5	-43.3	18.4	0.00e+00	0	44	0	0	54	4482
2026-01-08 07:53:40.86	55.59	15.78	-41.3	-43.1	18.6	0.00e+00	0	44	0	0	54	4361
2026-01-08 07:53:41.86	55.38	15.80	-41.3	-43.2	18.5	0.00e+00	0	44	0	0	54	4410
2026-01-08 07:53:42.86	55.17	15.82	-41.4	-43.2	18.5	0.00e+00	0	44	0	0	54	4439
2026-01-08 07:53:43.86	54.95	15.84	-41.4	-43.3	18.4	0.00e+00	0	44	0	0	54	4453
2026-01-08 07:53:44.86	54.74	15.86	-41.4	-43.2	18.5	0.00e+00	0	44	0	0	54	4419
2026-01-08 07:53:45.86	54.52	15.88	-41.4	-43.2	18.5	0.00e+00	0	44	0	0	54	4430
2026-01-08 07:53:46.87	54.30	15.90	-41.4	-43.3	18.5	0.00e+00	0	44	0	0	54	4448
2026-01-08 07:53:47.87	54.09	15.92	-41.3	-43.2	18.6	0.00e+00	0	44	0	0	54	4419
2026-01-08 07:53:48.87	53.87	15.94	-41.5	-43.4	18.4	0.00e+00	0	43	0	0	54	4496
2026-01-08 07:53:49.87	53.66	15.95	-41.3	-43.1	18.6	0.00e+00	0	43	0	0	54	4383
2026-01-08 07:53:50.87	53.44	15.97	-41.3	-43.2	18.5	0.00e+00	0	44	0	0	54	4401
2026-01-08 07:53:51.88	53.22	15.99	-41.3	-43.1	18.6	0.00e+00	0	44	0	0	54	4382
2026-01-08 07:53:52.88	53.01	16.00	-41.3	-43.1	18.5	0.00e+00	0	43	0	0	54	4375
2026-01-08 07:53:53.88	52.79	16.02	-41.4	-43.2	18.5	0.00e+00	0	44	0	0	54	4428
2026-01-08 07:53:54.88	52.57	16.04	-41.1	-43.0	18.7	0.00e+00	0	44	0	0	54	4301
2026-01-08 07:53:55.89	52.35	16.05	-41.0	-42.8	18.8	0.00e+00	0	44	0	0	54	4238
2026-01-08 07:53:56.89	52.14	16.07	-41.1	-43.0	18.7	0.00e+00	0	44	0	0	54	4300
2026-01-08 07:53:57.89	51.92	16.08	-41.3	-43.1	18.5	0.00e+00	0	44	0	0	54	4387
2026-01-08 07:53:58.89	51.70	16.10	-41.5	-43.3	18.4	0.00e+00	0	44	0	0	54	4481
2026-01-08 07:53:59.89	51.48	16.11	-41.5	-43.4	18.3	0.00e+00	0	43	0	0	54	4532
2026-01-08 07:54:00.89	51.26	16.12	-41.6	-43.4	18.3	0.00e+00	0	44	0	0	54	4544
2026-01-08 07:54:01.89	51.05	16.14	-41.7	-43.6	18.1	0.00e+00	0	44	0	0	54	4607
2026-01-08 07:54:02.89	50.83	16.15	-41.7	-43.6	18.1	0.00e+00	0	44	0	0	54	4622
2026-01-08 07:54:03.90	50.61	16.16	-41.8	-43.7	18.0	0.00e+00	0	44	0	0	54	4696
2026-01-08 07:54:04.90	50.39	16.17	-41.8	-43.8	18.0	0.00e+00	0	44	0	0	54	4717
2026-01-08 07:54:05.90	50.17	16.18	-41.7	-43.6	18.2	0.00e+00	0	44	0	0	54	4608
2026-01-08 07:54:06.90	49.95	16.19	-41.7	-43.6	18.2	0.00e+00	0	44	0	0	54	4601
2026-01-08 07:54:07.90	49.73	16.20	-41.5	-43.4	18.3	0.00e+00	0	44	0	0	54	4509
2026-01-08 07:54:08.90	49.51	16.21	-41.6	-43.5	18.2	0.00e+00	0	44	0	0	54	4587
2026-01-08 07:54:09.91	49.29	16.22	-41.7	-43.6	18.2	0.00e+00	0	43	0	0	54	4624
2026-01-08 07:54:10.90	49.07	16.23	-41.7	-43.6	18.2	0.00e+00	0	44	0	0	54	4616
2026-01-08 07:54:11.90	48.85	16.24	-41.7	-43.6	18.1	0.00e+00	0	44	0	0	54	4635
2026-01-08 07:54:12.90	48.63	16.25	-41.8	-43.7	18.1	0.00e+00	0	44	0	0	54	4669
2026-01-08 07:54:13.90	48.41	16.26	-41.8	-43.7	18.1	0.00e+00	0	44	0	0	54	4665
2026-01-08 07:54:14.90	48.19	16.27	-41.9	-43.8	18.1	0.00e+00	0	44	0	0	54	4715
2026-01-08 07:54:15.91	47.97	16.27	-41.7	-43.6	18.2	0.00e+00	0	44	0	0	54	4638
2026-01-08 07:54:16.91	47.75	16.28	-41.6	-43.5	18.2	0.00e+00	0	44	0	0	54	4584
2026-01-08 07:54:17.91	47.53	16.29	-41.6	-43.5	18.3	0.00e+00	0	44	0	0	54	4557
2026-01-08 07:54:18.91	47.30	16.29	-41.5	-43.4	18.4	0.00e+00	0	43	0	0	54	4505
2026-01-08 07:54:19.91	47.08	16.30	-41.5	-43.4	18.3	0.00e+00	0	44	0	0	54	4513
2026-01-08 07:54:20.91	46.86	16.30	-41.5	-43.3	18.4	0.00e+00	0	44	0	0	54	4482
2026-01-08 07:54:21.91	46.64	16.31	-41.5	-43.3	18.4	0.00e+00	0	44	0	0	54	4478
2026-01-08 07:54:22.91	46.42	16.31	-41.5	-43.4	18.3	0.00e+00	0	44	0	0	54	4497
2026-01-08 07:54:23.91	46.20	16.31	-41.5	-43.4	18.3	0.00e+00	0	44	0	0	54	4518
2026-01-08 07:54:24.91	45.98	16.32	-41.6	-43.5	18.3	0.00e+00	0	44	0	0	54	4559
2026-01-08 07:54:25.91	45.76	16.32	-41.6	-43.5	18.2	0.00e+00	0	44	0	0	54	4562
2026-01-08 07:54:26.92	45.53	16.32	-41.6	-43.4	18.3	0.00e+00	0	44	0	0	54	4545
2026-01-08 07:54:27.92	45.31	16.32	-41.6	-43.5	18.3	0.00e+00	0	44	0	0	54	4555
2026-01-08 07:54:28.93	45.09	16.32	-41.6	-43.5	18.2	0.00e+00	0	44	0	0	54	4567
2026-01-08 07:54:29.93	44.87	16.33	-41.7	-43.6	18.1	0.00e+00	0	44	0	0	54	4613
2026-01-08 07:54:30.93	44.65	16.33	-41.6	-43.5	18.2	0.00e+00	0	44	0	0	54	4587
2026-01-08 07:54:31.93	44.43	16.33	-41.5	-43.4	18.3	0.00e+00	0	44	0	0	54	4533
2026-01-08 07:54:32.93	44.20	16.33	-41.5	-43.4	18.3	0.00e+00	0	44	0	0	54	4539
2026-01-08 07:54:33.94	43.98	16.32	-41.4	-43.2	18.5	0.00e+00	0	44	0	0	54	4417
2026-01-08 07:54:34.94	43.76	16.32	-41.4	-43.3	18.4	0.00e+00	0	44	0	0	54	4452
2026-01-08 07:54:35.94	43.54	16.32	-41.4	-43.2	18.5	0.00e+00	0	44	0	0	54	4437
2026-01-08 07:54:36.94	43.32	16.32	-41.4	-43.2	18.5	0.00e+00	0	44	0	0	54	4428
2026-01-08 07:54:37.94	43.10	16.32	-41.3	-43.1	18.5	0.00e+00	0	44	0	0	54	4387
2026-01-08 07:54:38.94	42.88	16.31	-41.3	-43.2	18.5	0.00e+00	0	44	0	0	54	4398
2026-01-08 07:54:39.94	42.65	16.31	-41.3	-43.1	18.5	0.00e+00	0	44	0	0	54	4386
2026-01-08 07:54:40.94	42.43	16.31	-41.3	-43.1	18.5	0.00e+00	0	44	0	0	54	4385
2026-01-08 07:54:41.94	42.21	16.30	-41.3	-43.2	18.5	0.00e+00	0	44	0	0	54	4394
2026-01-08 07:54:42.94	41.99	16.30	-41.3	-43.1	18.6	0.00e+00	0	44	0	0	54	4374
2026-01-08 07:54:43.94	41.77	16.29	-41.5	-43.3	18.3	0.00e+00	0	44	0	0	54	4493
2026-01-08 07:54:44.94	41.55	16.29	-41.3	-43.1	18.5	0.00e+00	0	44	0	0	54	4385
2026-01-08 07:54:45.94	41.33	16.28	-41.5	-43.3	18.4	0.00e+00	0	44	0	0	54	4471
2026-01-08 07:54:46.94	41.11	16.28	-41.6	-43.4	18.3	0.00e+00	0	44	0	0	54	4545
2026-01-08 07:54:47.94	40.89	16.27	-41.4	-43.2	18.5	0.00e+00	0	44	0	0	54	4438
2026-01-08 07:54:48.94	40.67	16.26	-41.2	-43.1	18.6	0.00e+00	0	44	0	0	54	4348
2026-01-08 07:54:49.94	40.45	16.25	-41.3	-43.2	18.5	0.00e+00	0	44	0	0	54	4409
2026-01-08 07:54:50.94	40.23	16.25	-41.4	-43.3	18.4	0.00e+00	0	44	0	0	54	4442
2026-01-08 07:54:51.94	40.01	16.24	-41.4	-43.2	18.5	0.00e+00	0	44	0	0	54	4430
2026-01-08 07:54:52.94	39.79	16.23	-41.2	-43.1	18.6	0.00e+00	0	44	0	0	54	4348
2026-01-08 07:54:53.94	39.57	16.22	-41.3	-43.1	18.6	0.00e+00	0	44	0	0	54	4364
2026-01-08 07:54:54.94	39.35	16.21	-41.3	-43.1	18.6	0.00e+00	0	44	0	0	54	4368
2026-01-08 07:54:55.94	39.13	16.20	-41.1	-43.0	18.7	0.00e+00	0	44	0	0	54	4302
2026-01-08 07:54:56.94	38.91	16.19	-41.0	-42.9	18.7	0.00e+00	0	44	0	0	54	4249
2026-01-08 07:54:57.94	38.69	16.18	-41.1	-43.0	18.7	0.00e+00	0	44	0	0	54	4298
2026-01-08 07:54:58.94	38.47	16.17	-41.3	-43.2	18.5	0.00e+00	0	44	0	0	54	4392
2026-01-08 07:54:59.94	38.25	16.15	-41.4	-43.3	18.4	0.00e+00	0	43	0	0	54	4449
2026-01-08 07:55:00.94	38.04	16.14	-41.5	-43.4	18.3	0.00e+00	0	44	0	0	54	4498
2026-01-08 07:55:01.95	37.82	16.13	-41.6	-43.5	18.2	0.00e+00	0	44	0	0	54	4553
2026-01-08 07:55:02.95	37.60	16.12	-41.6	-43.5	18.2	0.00e+00	0	44	0	0	54	4586
2026-01-08 07:55:03.95	37.38	16.10	-41.5	-43.4	18.3	0.00e+00	0	44	0	0	54	4516
2026-01-08 07:55:04.95	37.16	16.09	-41.5	-43.4	18.3	0.00e+00	0	44	0	0	54	4499
2026-01-08 07:55:05.95	36.94	16.07	-41.3	-43.2	18.5	0.00e+00	0	44	0	0	54	4421
2026-01-08 07:55:06.95	36.73	16.06	-41.3	-43.2	18.5	0.00e+00	0	44	0	0	54	4419
2026-01-08 07:55:07.95	36.51	16.04	-41.3	-43.1	18.6	0.00e+00	0	44	0	0	54	4385
2026-01-08 07:55:08.96	36.29	16.03	-41.2	-43.1	18.6	0.00e+00	0	44	0	0	54	4366
2026-01-08 07:55:09.96	36.07	16.01	-41.3	-43.1	18.6	0.00e+00	0	44	0	0	54	4376
2026-01-08 07:55:10.96	35.86	16.00	-41.4	-43.3	18.5	0.00e+00	0	44	0	0	54	4444
2026-01-08 07:55:11.96	35.64	15.98	-41.4	-43.3	18.5	0.00e+00	0	44	0	0	54	4457
2026-01-08 07:55:12.96	35.43	15.96	-41.5	-43.4	18.3	0.00e+00	0	44	0	0	54	4537
2026-01-08 07:55:13.96	35.21	15.94	-41.6	-43.5	18.2	0.00e+00	0	44	0	0	54	4585
2026-01-08 07:55:14.96	35.00	15.93	-41.6	-43.6	18.2	0.00e+00	0	44	0	0	54	4608
2026-01-08 07:55:15.96	34.78	15.91	-41.7	-43.6	18.2	0.00e+00	0	44	0	0	54	4619
2026-01-08 07:55:16.96	34.57	15.89	-41.5	-43.4	18.3	0.00e+00	0	44	0	0	54	4531
2026-01-08 07:55:17.96	34.35	15.87	-41.5	-43.4	18.4	0.00e+00	0	44	0	0	54	4500
2026-01-08 07:55:18.97	34.13	15.85	-41.3	-43.2	18.6	0.00e+00	0	44	0	0	54	4401
2026-01-08 07:55:19.96	33.92	15.83	-41.3	-43.2	18.5	0.00e+00	0	44	0	0	54	4396
2026-01-08 07:55:20.97	33.71	15.81	-41.3	-43.2	18.5	0.00e+00	0	44	0	0	54	4420
2026-01-08 07:55:21.97	33.49	15.79	-41.4	-43.3	18.5	0.00e+00	0	44	0	0	54	4442
2026-01-08 07:55:22.97	33.28	15.77	-41.3	-43.2	18.5	0.00e+00	0	44	0	0	54	4423
2026-01-08 07:55:23.97	33.07	15.75	-41.4	-43.2	18.5	0.00e+00	0	44	0	0	54	4429
2026-01-08 07:55:24.97	32.86	15.72	-41.4	-43.2	18.5	0.00e+00	0	44	0	0	54	4437
2026-01-08 07:55:25.97	32.64	15.70	-41.3	-43.2	18.6	0.00e+00	0	44	0	0	54	4401
2026-01-08 07:55:26.98	32.43	15.68	-41.4	-43.3	18.5	0.00e+00	0	44	0	0	54	4442
2026-01-08 07:55:27.97	32.22	15.66	-41.3	-43.2	18.6	0.00e+00	0	44	0	0	54	4402
2026-01-08 07:55:28.98	32.01	15.63	-41.4	-43.3	18.4	0.00e+00	0	44	0	0	54	4468
2026-01-08 07:55:29.98	31.80	15.61	-41.4	-43.4	18.4	0.00e+00	0	44	0	0	54	4508
2026-01-08 07:55:30.98	31.59	15.58	-41.4	-43.4	18.4	0.00e+00	0	44	0	0	54	4496
2026-01-08 07:55:31.98	31.38	15.56	-41.4	-43.3	18.4	0.00e+00	0	44	0	0	54	4469
2026-01-08 07:55:32.98	31.17	15.54	-41.4	-43.3	18.4	0.00e+00	0	44	0	0	54	4466
2026-01-08 07:55:33.98	30.96	15.51	-41.2	-43.1	18.6	0.00e+00	0	44	0	0	54	4344
2026-01-08 07:55:34.98	30.75	15.48	-41.2	-43.1	18.6	0.00e+00	0	44	0	0	54	4346
2026-01-08 07:55:35.99	30.54	15.46	-41.1	-42.9	18.7	0.00e+00	0	44	0	0	54	4279
2026-01-08 07:55:36.99	30.33	15.43	-41.2	-43.0	18.7	0.00e+00	0	44	0	0	54	4310
2026-01-08 07:55:37.99	30.12	15.41	-41.2	-43.1	18.6	0.00e+00	0	44	0	0	54	4351
2026-01-08 07:55:39.00	29.91	15.38	-41.3	-43.1	18.6	0.00e+00	0	44	0	0	54	4367
2026-01-08 07:55:40.00	29.70	15.35	-41.3	-43.1	18.6	0.00e+00	0	44	0	0	54	4384
2026-01-08 07:55:41.00	29.50	15.32	-41.3	-43.2	18.5	0.00e+00	0	44	0	0	54	4412
2026-01-08 07:55:42.00	29.29	15.29	-41.2	-43.1	18.5	0.00e+00	0	44	0	0	54	4378
2026-01-08 07:55:43.00	29.09	15.27	-41.3	-43.2	18.5	0.00e+00	0	44	0	0	54	4435
2026-01-08 07:55:44.00	28.88	15.24	-41.3	-43.2	18.5	0.00e+00	0	44	0	0	54	4415
2026-01-08 07:55:45.01	28.67	15.21	-41.4	-43.4	18.4	0.00e+00	0	44	0	0	54	4496
2026-01-08 07:55:46.01	28.47	15.18	-41.4	-43.4	18.4	0.00e+00	0	44	0	0	54	4498
2026-01-08 07:55:47.01	28.26	15.15	-41.5	-43.4	18.3	0.00e+00	0	43	0	0	54	4533
2026-01-08 07:55:48.01	28.06	15.12	-41.5	-43.5	18.3	0.00e+00	0	43	0	0	54	4547
2026-01-08 07:55:49.01	27.86	15.09	-41.4	-43.4	18.3	0.00e+00	0	44	0	0	54	4522
2026-01-08 07:55:50.01	27.65	15.06	-41.4	-43.4	18.3	0.00e+00	0	44	0	0	54	4534
2026-01-08 07:55:51.01	27.45	15.03	-41.4	-43.3	18.4	0.00e+00	0	44	0	0	54	4476
2026-01-08 07:55:52.01	27.25	15.00	-41.3	-43.2	18.5	0.00e+00	0	44	0	0	54	4439
2026-01-08 07:55:53.01	27.05	14.96	-41.3	-43.2	18.5	0.00e+00	0	44	0	0	54	4426
2026-01-08 07:55:54.01	26.85	14.93	-41.3	-43.2	18.5	0.00e+00	0	44	0	0	54	4425
2026-01-08 07:55:55.01	26.65	14.90	-41.3	-43.2	18.6	0.00e+00	0	44	0	0	54	4393
2026-01-08 07:55:56.01	26.45	14.87	-41.3	-43.2	18.5	0.00e+00	0	44	0	0	54	4425
2026-01-08 07:55:57.01	26.25	14.83	-41.4	-43.3	18.5	0.00e+00	0	44	0	0	54	4461
2026-01-08 07:55:58.02	26.04	14.80	-41.4	-43.4	18.4	0.00e+00	0	44	0	0	54	4496
2026-01-08 07:55:59.02	25.84	14.77	-41.4	-43.3	18.4	0.00e+00	0	44	0	0	54	4493
2026-01-08 07:56:00.01	25.65	14.73	-41.5	-43.4	18.3	0.00e+00	0	44	0	0	54	4521
2026-01-08 07:56:01.01	25.45	14.70	-41.5	-43.4	18.3	0.00e+00	0	44	0	0	54	4524
2026-01-08 07:56:02.01	25.25	14.67	-41.4	-43.3	18.4	0.00e+00	0	44	0	0	54	4477
2026-01-08 07:56:03.01	25.06	14.63	-41.5	-43.4	18.3	0.00e+00	0	44	0	0	54	4501
2026-01-08 07:56:04.01	24.86	14.60	-41.5	-43.4	18.3	0.00e+00	0	44	0	0	54	4516
2026-01-08 07:56:05.01	24.66	14.56	-41.4	-43.3	18.4	0.00e+00	0	44	0	0	54	4478
2026-01-08 07:56:06.02	24.46	14.53	-41.4	-43.3	18.4	0.00e+00	0	44	0	0	54	4477
2026-01-08 07:56:07.02	24.27	14.49	-41.5	-43.4	18.3	0.00e+00	0	44	0	0	54	4516
2026-01-08 07:56:08.02	24.07	14.45	-41.5	-43.5	18.3	0.00e+00	0	44	0	0	54	4558
2026-01-08 07:56:09.02	23.88	14.42	-41.5	-43.4	18.3	0.00e+00	0	44	0	0	54	4527
2026-01-08 07:56:10.02	23.69	14.38	-41.6	-43.5	18.3	0.00e+00	0	44	0	0	54	4560
2026-01-08 07:56:11.03	23.49	14.34	-41.5	-43.4	18.3	0.00e+00	0	44	0	0	54	4542
2026-01-08 07:56:12.03	23.30	14.31	-41.7	-43.6	18.2	0.00e+00	0	44	0	0	54	4615
2026-01-08 07:56:13.03	23.11	14.27	-41.8	-43.7	18.1	0.00e+00	0	44	0	0	54	4687
2026-01-08 07:56:14.03	22.91	14.23	-41.8	-43.8	18.0	0.00e+00	0	44	0	0	54	4713
2026-01-08 07:56:15.03	22.72	14.19	-41.6	-43.5	18.2	0.00e+00	0	44	0	0	54	4592
2026-01-08 07:56:16.03	22.53	14.15	-41.5	-43.4	18.3	0.00e+00	0	44	0	0	54	4512
2026-01-08 07:56:17.03	22.34	14.12	-41.5	-43.4	18.3	0.00e+00	0	44	0	0	54	4533
2026-01-08 07:56:18.04	22.15	14.08	-41.5	-43.4	18.3	0.00e+00	0	44	0	0	54	4508
2026-01-08 07:56:19.04	21.96	14.04	-41.5	-43.3	18.3	0.00e+00	0	44	0	0	54	4489
2026-01-08 07:56:20.04	21.77	14.00	-41.4	-43.3	18.3	0.00e+00	0	44	0	0	54	4481
2026-01-08 07:56:21.04	21.58	13.96	-41.5	-43.4	18.3	0.00e+00	0	44	0	0	54	4515
2026-01-08 07:56:22.04	21.40	13.92	-41.7	-43.6	18.1	0.00e+00	0	44	0	0	54	4649
2026-01-08 07:56:23.04	21.21	13.88	-41.8	-43.8	17.9	0.00e+00	0	44	0	0	54	4755
2026-01-08 07:56:24.04	21.02	13.84	-41.7	-43.7	18.0	0.00e+00	0	44	0	0	54	4696
2026-01-08 07:56:25.04	20.84	13.80	-41.7	-43.8	17.9	0.00e+00	0	44	0	0	54	4720
2026-01-08 07:56:26.04	20.65	13.76	-41.5	-43.5	18.2	0.00e+00	0	44	0	0	54	4586
2026-01-08 07:56:27.05	20.46	13.72	-41.4	-43.5	18.3	0.00e+00	0	44	0	0	54	4548
2026-01-08 07:56:28.04	20.28	13.68	-41.4	-43.4	18.3	0.00e+00	0	44	0	0	54	4514
2026-01-08 07:56:29.05	20.09	13.63	-41.3	-43.3	18.4	0.00e+00	0	44	0	0	54	4478
2026-01-08 07:56:30.05	19.91	13.59	-41.3	-43.2	18.5	0.00e+00	0	44	0	0	54	4439
2026-01-08 07:56:31.05	19.73	13.55	-41.3	-43.2	18.5	0.00e+00	0	44	0	0	54	4431
2026-01-08 07:56:32.05	19.54	13.51	-41.3	-43.3	18.4	0.00e+00	0	44	0	0	54	4449
2026-01-08 07:56:33.05	19.36	13.47	-41.3	-43.2	18.5	0.00e+00	0	44	0	0	54	4408
2026-01-08 07:56:34.04	19.18	13.42	-41.4	-43.3	18.4	0.00e+00	0	44	0	0	54	4457
2026-01-08 07:56:35.05	19.00	13.38	-41.5	-43.4	18.3	0.00e+00	0	44	0	0	54	4519
2026-01-08 07:56:36.05	18.82	13.34	-41.6	-43.5	18.2	0.00e+00	0	44	0	0	54	4568
2026-01-08 07:56:37.05	18.64	13.30	-41.7	-43.6	18.1	0.00e+00	0	43	0	0	54	4634
2026-01-08 07:56:38.05	18.46	13.25	-41.8	-43.7	18.0	0.00e+00	0	44	0	0	54	4668
2026-01-08 07:56:39.05	18.28	13.21	-41.7	-43.6	18.1	0.00e+00	0	44	0	0	54	4644
2026-01-08 07:56:40.05	18.10	13.17	-41.8	-43.7	18.1	0.00e+00	0	44	0	0	54	4681
2026-01-08 07:56:41.05	17.93	13.12	-41.7	-43.7	18.1	0.00e+00	0	44	0	0	54	4652
2026-01-08 07:56:42.05	17.75	13.08	-41.8	-43.7	18.0	0.00e+00	0	44	0	0	54	4690
2026-01-08 07:56:43.05	17.57	13.03	-41.8	-43.7	18.1	0.00e+00	0	44	0	0	54	4665
2026-01-08 07:56:44.05	17.40	12.99	-41.8	-43.7	18.0	0.00e+00	0	44	0	0	54	4677
2026-01-08 07:56:45.05	17.22	12.94	-41.8	-43.8	18.0	0.00e+00	0	44	0	0	54	4711
2026-01-08 07:56:46.06	17.04	12.90	-41.8	-43.8	17.9	0.00e+00	0	43	0	0	54	4755
2026-01-08 07:56:47.06	16.87	12.85	-41.9	-43.9	17.9	0.00e+00	0	44	0	0	54	4804
2026-01-08 07:56:48.06	16.69	12.81	-42.0	-44.2	17.7	0.00e+00	0	44	0	0	54	4934
2026-01-08 07:56:49.06	16.52	12.76	-42.1	-44.3	17.5	0.00e+00	0	44	0	0	54	5009
2026-01-08 07:56:50.07	16.35	12.72	-42.1	-44.4	17.4	0.00e+00	0	44	0	0	55	4793
2026-01-08 07:56:51.07	16.17	12.67	-42.1	-44.4	17.4	0.00e+00	0	44	0	0	55	4773
2026-01-08 07:56:52.07	16.00	12.63	-42.1	-44.5	17.3	0.00e+00	0	44	0	0	55	4817
2026-01-08 07:56:53.07	15.83	12.58	-42.1	-44.4	17.4	0.00e+00	0	44	0	0	55	4781
2026-01-08 07:56:54.07	15.66	12.53	-42.0	-44.2	17.5	0.00e+00	0	44	0	0	55	4695
2026-01-08 07:56:55.07	15.49	12.49	-41.8	-44.0	17.7	0.00e+00	0	44	0	0	55	4575
2026-01-08 07:56:56.07	15.32	12.44	-41.8	-44.0	17.7	0.00e+00	0	44	0	0	55	4564
2026-01-08 07:56:57.08	15.15	12.39	-41.8	-44.0	17.7	0.00e+00	0	44	0	0	55	4589
2026-01-08 07:56:58.08	14.98	12.35	-41.6	-43.8	17.9	0.00e+00	0	44	0	0	55	4443
2026-01-08 07:56:59.08	14.81	12.30	-41.5	-43.6	18.1	0.00e+00	0	44	0	0	55	4369
2026-01-08 07:57:00.08	14.65	12.25	-41.5	-43.6	18.1	0.00e+00	0	44	0	0	54	4628
2026-01-08 07:57:01.08	14.48	12.21	-41.6	-43.7	18.0	0.00e+00	0	44	0	0	54	4677
2026-01-08 07:57:02.08	14.31	12.16	-41.6	-43.7	18.0	0.00e+00	0	44	0	0	54	4687
2026-01-08 07:57:03.08	14.15	12.11	-41.6	-43.6	18.1	0.00e+00	0	44	0	0	54	4645
2026-01-08 07:57:04.08	13.98	12.06	-41.6	-43.6	18.1	0.00e+00	0	44	0	0	54	4631
2026-01-08 07:57:05.08	13.82	12.02	-41.7	-43.7	18.1	0.00e+00	0	44	0	0	54	4666
2026-01-08 07:57:06.08	13.65	11.97	-41.7	-43.7	18.0	0.00e+00	0	44	0	0	54	4689
2026-01-08 07:57:07.09	13.49	11.92	-41.8	-43.8	17.9	0.00e+00	0	44	0	0	54	4736
2026-01-08 07:57:08.08	13.33	11.87	-41.9	-43.9	17.8	0.00e+00	0	44	0	0	54	4782
2026-01-08 07:57:09.08	13.16	11.82	-41.9	-44.0	17.7	0.00e+00	0	44	0	0	54	4842
2026-01-08 07:57:10.09	13.00	11.77	-42.0	-44.1	17.6	0.00e+00	0	44	0	0	54	4911
2026-01-08 07:57:11.09	12.84	11.73	-42.0	-44.2	17.5	0.00e+00	0	44	0	0	54	4934
2026-01-08 07:57:12.09	12.68	11.68	-42.2	-44.4	17.3	0.00e+00	0	44	0	0	55	4765
2026-01-08 07:57:13.09	12.52	11.63	-42.1	-44.2	17.4	0.00e+00	0	44	0	0	55	4696
2026-01-08 07:57:14.09	12.36	11.58	-42.1	-44.3	17.4	0.00e+00	0	44	0	0	55	4741
2026-01-08 07:57:15.09	12.20	11.53	-42.1	-44.3	17.4	0.00e+00	0	44	0	0	55	4739
2026-01-08 07:57:16.09	12.04	11.48	-42.1	-44.2	17.4	0.00e+00	0	44	0	0	55	4691
2026-01-08 07:57:17.09	11.88	11.43	-42.2	-44.4	17.3	0.00e+00	0	44	0	0	55	4786
2026-01-08 07:57:18.10	11.72	11.38	-42.1	-44.3	17.4	0.00e+00	0	44	0	0	55	4709
2026-01-08 07:57:19.10	11.57	11.33	-41.9	-44.1	17.5	0.00e+00	0	44	0	0	55	4651
2026-01-08 07:57:20.10	11.41	11.28	-42.0	-44.3	17.4	0.00e+00	0	44	0	0	55	4758
2026-01-08 07:57:21.10	11.25	11.23	-42.0	-44.4	17.4	0.00e+00	0	44	0	0	55	4774
2026-01-08 07:57:22.11	11.10	11.18	-42.0	-44.4	17.4	0.00e+00	0	44	0	0	55	4760
2026-01-08 07:57:23.10	10.94	11.13	-42.1	-44.5	17.3	0.00e+00	0	44	0	0	55	4845
2026-01-08 07:57:24.10	10.79	11.08	-42.1	-44.5	17.3	0.00e+00	0	44	0	0	55	4836
2026-01-08 07:57:25.10	10.63	11.03	-42.2	-44.6	17.1	0.00e+00	0	44	0	0	55	4925
2026-01-08 07:57:26.10	10.48	10.98	-42.3	-44.7	17.1	0.00e+00	0	44	0	0	55	4937
2026-01-08 07:57:27.10	10.33	10.93	-42.2	-44.6	17.2	0.00e+00	0	44	0	0	55	4891
2026-01-08 07:57:28.10	10.18	10.88	-42.2	-44.7	17.2	0.00e+00	0	44	0	0	55	4929
2026-01-08 07:57:29.10	10.02	10.83	-42.1	-44.6	17.2	0.00e+00	0	44	0	0	55	4890
2026-01-08 07:57:30.10	9.87	10.78	-42.1	-44.7	17.1	0.00e+00	0	44	0	0	55	4966
2026-01-08 07:57:31.10	9.72	10.73	-42.1	-44.7	17.1	0.00e+00	0	44	0	0	55	4982
2026-01-08 07:57:32.10	9.57	10.68	-41.9	-44.6	17.2	0.00e+00	0	44	0	0	55	4901
2026-01-08 07:57:33.10	9.42	10.63	-41.9	-44.6	17.2	0.00e+00	0	44	0	0	55	4922
2026-01-08 07:57:34.10	9.27	10.58	-41.9	-44.6	17.2	0.00e+00	0	44	0	0	55	4897
2026-01-08 07:57:35.10	9.13	10.52	-42.1	-44.7	17.0	0.00e+00	0	44	0	0	55	4980
2026-01-08 07:57:36.10	8.98	10.47	-42.2	-44.8	17.0	0.00e+00	0	44	0	0	55	5016
2026-01-08 07:57:37.10	8.83	10.42	-42.4	-45.0	16.7	0.00e+00	0	44	0	0	55	5150
2026-01-08 07:57:38.10	8.68	10.37	-42.3	-44.8	17.0	0.00e+00	0	44	0	0	55	5007
2026-01-08 07:57:39.11	8.54	10.32	-42.3	-44.9	16.9	0.00e+00	0	44	0	0	55	5043
2026-01-08 07:57:40.11	8.39	10.27	-42.3	-44.8	17.0	0.00e+00	0	44	0	0	55	5020
2026-01-08 07:57:41.11	8.24	10.22	-42.2	-44.6	17.1	0.00e+00	0	44	0	0	55	4922
2026-01-08 07:57:42.11	8.10	10.16	-42.1	-44.4	17.3	0.00e+00	0	44	0	0	55	4784
2026-01-08 07:57:43.11	7.96	10.11	-42.1	-44.4	17.3	0.00e+00	0	44	0	0	55	4777
2026-01-08 07:57:44.11	7.81	10.06	-42.3	-44.6	17.1	0.00e+00	0	44	0	0	55	4887
2026-01-08 07:57:45.11	7.67	10.01	-42.2	-44.4	17.3	0.00e+00	0	44	0	0	55	4791
2026-01-08 07:57:46.11	7.53	9.96	-42.1	-44.3	17.4	0.00e+00	0	44	0	0	55	4717
2026-01-08 07:57:47.11	7.38	9.90	-42.2	-44.4	17.4	0.00e+00	0	44	0	0	55	4767
2026-01-08 07:57:48.12	7.24	9.85	-42.1	-44.3	17.4	0.00e+00	0	44	0	0	55	4729
2026-01-08 07:57:49.12	7.10	9.80	-42.1	-44.4	17.4	0.00e+00	0	44	0	0	55	4766
2026-01-08 07:57:50.12	6.96	9.75	-42.2	-44.4	17.4	0.00e+00	0	44	0	0	55	4785
2026-01-08 07:57:51.12	6.82	9.70	-42.2	-44.5	17.2	0.00e+00	0	44	0	0	55	4837
2026-01-08 07:57:52.12	6.68	9.64	-42.2	-44.5	17.2	0.00e+00	0	44	0	0	55	4846
2026-01-08 07:57:53.12	6.54	9.59	-42.1	-44.5	17.3	0.00e+00	0	44	0	0	55	4823
2026-01-08 07:57:54.12	6.40	9.54	-42.2	-44.5	17.2	0.00e+00	0	44	0	0	55	4862
2026-01-08 07:57:55.13	6.26	9.49	-42.2	-44.6	17.2	0.00e+00	0	44	0	0	55	4883
2026-01-08 07:57:56.13	6.13	9.43	-42.1	-44.6	17.1	0.00e+00	0	44	0	0	55	4877
2026-01-08 07:57:57.13	5.99	9.38	-42.0	-44.4	17.2	0.00e+00	0	44	0	0	55	4808
2026-01-08 07:57:58.13	5.85	9.33	-42.1	-44.6	17.1	0.00e+00	0	44	0	0	55	4895
2026-01-08 07:57:59.13	5.72	9.28	-42.1	-44.4	17.2	0.00e+00	0	44	0	0	55	4811
2026-01-08 07:58:00.13	5.58	9.22	-42.2	-44.5	17.2	0.00e+00	0	44	0	0	55	4853
2026-01-08 07:58:01.13	5.45	9.17	-42.3	-44.7	17.0	0.00e+00	0	44	0	0	55	4932
2026-01-08 07:58:02.13	5.31	9.12	-42.2	-44.5	17.2	0.00e+00	0	44	0	0	55	4847
2026-01-08 07:58:03.13	5.18	9.07	-42.3	-44.5	17.2	0.00e+00	0	44	0	0	55	4861
2026-01-08 07:58:04.13	5.04	9.01	-42.3	-44.5	17.2	0.00e+00	0	44	0	0	55	4843
2026-01-08 07:58:05.13	4.91	8.96	-48.0	-61.6	3.8	5.26e-01	0	44	104	0	66	18375
2026-01-08 07:58:06.13	4.78	8.91	-49.2	-63.5	3.8	1.49e+00	0	44	104	0	69	19388
2026-01-08 07:58:07.14	4.64	8.85	-49.8	-63.7	3.8	1.49e+00	0	44	104	0	70	18523
2026-01-08 07:58:08.14	4.51	8.80	-49.7	-63.7	3.8	1.49e+00	0	44	104	0	70	18680
2026-01-08 07:58:09.14	4.38	8.75	-50.3	-63.8	3.8	1.49e+00	0	44	104	0	71	17791
2026-01-08 07:58:10.15	4.25	8.69	-50.7	-63.8	3.8	1.49e+00	0	44	104	0	72	16770
2026-01-08 07:58:11.15	4.12	8.64	-50.6	-63.8	3.8	1.49e+00	0	44	104	0	72	16857
2026-01-08 07:58:12.15	3.99	8.59	-50.8	-63.8	3.8	1.49e+00	0	44	104	0	72	16870
2026-01-08 07:58:13.15	3.86	8.53	-50.5	-63.9	3.8	1.49e+00	0	44	104	0	72	16946
2026-01-08 07:58:14.16	3.73	8.48	-50.8	-63.9	3.8	1.49e+00	0	44	104	0	72	16972
2026-01-08 07:58:15.16	3.60	8.43	-50.8	-63.9	3.8	1.49e+00	0	44	104	0	72	17025
2026-01-08 07:58:16.16	3.48	8.37	-50.7	-63.9	3.8	1.49e+00	0	44	104	0	72	17033
2026-01-08 07:58:17.17	3.35	8.32	-50.8	-63.9	3.8	1.49e+00	0	44	104	0	72	17066
2026-01-08 07:58:18.17	3.22	8.27	-50.8	-64.0	3.8	1.49e+00	0	44	104	0	72	17129
2026-01-08 07:58:19.17	3.09	8.21	-50.6	-63.9	3.8	1.49e+00	0	44	104	0	72	17080
2026-01-08 07:58:20.17	2.97	8.16	-50.7	-63.9	3.8	1.49e+00	0	44	104	0	72	17012
2026-01-08 07:58:21.18	2.84	8.11	-50.6	-63.9	3.8	1.49e+00	0	44	104	0	72	17012
2026-01-08 07:58:22.18	2.72	8.05	-50.9	-63.9	3.8	1.49e+00	0	44	104	0	72	16972
2026-01-08 07:58:23.19	2.59	8.00	-50.9	-63.9	3.8	1.49e+00	0	44	104	0	72	17033
2026-01-08 07:58:24.19	2.47	7.95	-50.8	-63.9	3.8	1.49e+00	0	44	104	0	72	17046
2026-01-08 07:58:25.19	2.34	7.89	-50.9	-63.9	3.8	1.49e+00	0	44	104	0	72	16970
2026-01-08 07:58:26.19	2.22	7.84	-50.8	-63.9	3.8	1.49e+00	0	44	104	0	72	16997
2026-01-08 07:58:27.20	2.10	7.79	-50.7	-63.9	3.8	1.49e+00	0	44	104	0	72	16974
2026-01-08 07:58:28.20	1.98	7.73	-50.7	-63.9	3.8	1.49e+00	0	44	104	0	72	16977
2026-01-08 07:58:29.20	1.85	7.68	-50.7	-63.9	3.8	1.49e+00	0	44	104	0	72	16907
2026-01-08 07:58:30.20	1.73	7.63	-50.7	-63.9	3.8	1.49e+00	0	44	104	0	72	16944
2026-01-08 07:58:31.21	1.61	7.57	-50.7	-63.9	3.8	1.49e+00	0	44	104	0	72	16932
2026-01-08 07:58:32.21	1.49	7.52	-50.6	-63.9	3.8	1.49e+00	0	44	104	0	72	16962
2026-01-08 07:58:33.21	1.37	7.47	-50.3	-63.9	3.8	1.49e+00	0	44	104	0	72	16900
2026-01-08 07:58:34.21	1.25	7.41	-50.3	-63.9	3.8	1.49e+00	0	44	104	0	72	16898
2026-01-08 07:58:35.21	1.13	7.36	-50.3	-63.9	3.8	1.49e+00	0	44	104	0	72	16905
2026-01-08 07:58:36.22	1.01	7.30	-50.3	-63.9	3.8	1.49e+00	0	44	104	0	72	16888
2026-01-08 07:58:37.22	0.90	7.25	-50.3	-63.8	3.8	1.49e+00	0	44	104	0	72	16841
2026-01-08 07:58:38.22	0.78	7.20	-50.3	-63.8	3.8	1.49e+00	0	44	104	0	72	16835
2026-01-08 07:58:39.22	0.66	7.14	-50.3	-63.8	3.8	1.49e+00	0	44	104	0	72	16845
2026-01-08 07:58:40.23	0.54	7.09	-50.3	-63.8	3.8	1.49e+00	0	44	104	0	72	16798
2026-01-08 07:58:41.23	0.43	7.04	-50.3	-63.8	3.8	1.49e+00	0	44	104	0	72	16830
2026-01-08 07:58:42.23	0.31	6.98	-50.3	-63.8	3.8	1.49e+00	0	44	104	0	72	16868
2026-01-08 07:58:43.24	0.20	6.93	-50.3	-63.8	3.8	1.49e+00	0	44	104	0	72	16874
2026-01-08 07:58:44.24	0.08	6.88	-50.3	-63.8	3.8	1.49e+00	0	44	104	0	72	16852
2026-01-08 07:58:45.24	359.97	6.82	-50.3	-63.8	3.8	1.49e+00	0	44	104	0	72	16859
2026-01-08 07:58:46.25	359.85	6.77	-50.3	-63.8	3.8	1.49e+00	0	44	104	0	72	16878
2026-01-08 07:58:47.25	359.74	6.71	-50.3	-63.8	3.8	1.49e+00	0	44	104	0	72	16840
2026-01-08 07:58:48.25	359.62	6.66	-50.3	-63.8	3.8	1.49e+00	0	44	104	0	72	16874
2026-01-08 07:58:49.26	359.51	6.61	-50.3	-63.8	3.8	1.49e+00	0	44	104	0	72	16787
2026-01-08 07:58:50.26	359.40	6.55	-50.3	-63.8	3.8	1.49e+00	0	44	104	0	72	16867
2026-01-08 07:58:51.26	359.29	6.50	-50.3	-63.8	3.8	1.49e+00	0	44	104	0	72	16765
2026-01-08 07:58:52.26	359.18	6.45	-50.3	-63.8	3.8	1.49e+00	0	44	104	0	72	16825
2026-01-08 07:58:53.27	359.06	6.39	-50.3	-63.8	3.8	1.49e+00	0	44	104	0	72	16859
2026-01-08 07:58:54.27	358.95	6.34	-50.3	-63.8	3.8	1.49e+00	0	44	104	0	72	16836
2026-01-08 07:58:55.27	358.84	6.29	-50.3	-63.8	3.8	1.49e+00	0	44	104	0	72	16820
2026-01-08 07:58:56.27	358.73	6.23	-50.3	-63.8	3.8	1.49e+00	0	44	104	0	72	16843
2026-01-08 07:58:57.28	358.62	6.18	-50.3	-63.8	3.8	1.49e+00	0	44	104	0	72	16836
2026-01-08 07:58:58.28	358.51	6.13	-50.3	-63.8	3.8	1.49e+00	0	44	104	0	72	16814
2026-01-08 07:58:59.28	358.41	6.07	-50.3	-63.8	3.8	1.49e+00	0	44	104	0	72	16751
2026-01-08 07:59:00.28	358.30	6.02	-50.3	-63.8	3.8	1.49e+00	0	44	104	0	72	16786
2026-01-08 07:59:01.29	358.19	5.97	-50.3	-63.8	3.8	1.49e+00	0	44	104	0	72	16827
2026-01-08 07:59:02.29	358.08	5.91	-50.3	-63.8	3.8	1.49e+00	0	44	104	0	72	16820
2026-01-08 07:59:03.29	357.97	5.86	-50.3	-63.8	3.8	1.49e+00	0	44	104	0	72	16786
2026-01-08 07:59:04.29	357.87	5.81	-50.3	-63.8	3.8	1.49e+00	0	44	104	0	72	16772
2026-01-08 07:59:05.30	357.76	5.75	-50.3	-63.8	3.8	1.49e+00	0	44	104	0	72	16798
2026-01-08 07:59:06.30	357.66	5.70	-50.3	-63.8	3.8	1.49e+00	0	44	104	0	72	16817
2026-01-08 07:59:07.30	357.55	5.65	-50.3	-63.8	3.8	1.49e+00	0	44	104	0	72	16733
2026-01-08 07:59:08.30	357.45	5.59	-50.3	-63.8	3.8	1.49e+00	0	44	104	0	72	16821
2026-01-08 07:59:09.30	357.34	5.54	-50.3	-63.8	3.8	1.49e+00	0	44	104	0	72	16789
2026-01-08 07:59:10.30	357.24	5.49	-50.3	-63.8	3.8	1.49e+00	0	44	104	0	72	16783
2026-01-08 07:59:11.31	357.13	5.43	-50.3	-63.8	3.8	1.49e+00	0	44	104	0	72	16768
2026-01-08 07:59:12.31	357.03	5.38	-50.3	-63.8	3.8	1.49e+00	0	44	104	0	72	16801
2026-01-08 07:59:13.31	356.93	5.33	-50.3	-63.8	3.8	1.49e+00	0	44	104	0	72	16872
2026-01-08 07:59:14.31	356.82	5.27	-50.3	-63.8	3.8	1.49e+00	0	44	104	0	72	16810
2026-01-08 07:59:15.31	356.72	5.22	-50.3	-63.8	3.8	1.49e+00	0	44	104	0	72	16787
2026-01-08 07:59:16.32	356.62	5.17	-50.3	-63.8	3.8	1.49e+00	0	44	104	0	72	16801
2026-01-08 07:59:17.32	356.52	5.11	-50.3	-63.8	3.8	1.49e+00	0	44	104	0	72	16813
2026-01-08 07:59:18.32	356.42	5.06	-50.3	-63.8	3.8	1.49e+00	0	44	104	0	72	16750
2026-01-08 07:59:19.32	356.32	5.01	-50.3	-63.8	3.8	1.49e+00	0	44	104	0	72	16763
2026-01-08 07:59:20.33	356.21	4.95	-50.3	-63.8	3.8	1.49e+00	0	44	104	0	72	16785

#Closed at: 2026-01-08 07:59:21
#Recorded file [0 MB]: D:/Data/31040_260108_104945.dat