passes_logs/2026/01/08/T1/T1__20260108_234729_SUOMI_NPP_rec.log

#Pass ID: 20260108_234729_SUOMI NPP
#Satellite: SUOMI NPP
#Configuration: NPP
#almurnet v.1.7.20251203
#Start time: 2026-01-08 23:47:29

#Version: 2.0.20230620
#Station: T1
#Location: 37.570604 lon 55.790049 lat
#TLE: 1 37849U 11061A   26008.05542337  .00000108  00000+0  71976-4 0  9997
#TLE: 2 37849  98.7805 310.1641 0002540  75.6410 284.5048 14.19523335735721

#Time	Az	El	Level	Level2	SNR	BER	BlckErr	Temp	State	Recorded	gain1	gain2
2026-01-08 23:47:29.78	16.20	5.00	-48.4	-64.0	3.8	1.49e+00	0	41	0	0	67	22837
2026-01-08 23:47:30.78	16.20	5.07	-48.0	-63.8	3.8	1.49e+00	0	41	104	0	66	23606
2026-01-08 23:47:31.78	16.21	5.14	-48.0	-63.8	3.8	1.49e+00	0	41	104	0	66	23663
2026-01-08 23:47:32.79	16.21	5.21	-48.0	-63.8	3.8	1.49e+00	0	41	104	0	66	23646
2026-01-08 23:47:33.79	16.21	5.29	-48.1	-63.7	3.8	1.49e+00	0	41	104	0	66	23436
2026-01-08 23:47:34.79	16.21	5.36	-48.0	-63.7	3.8	1.49e+00	0	41	104	0	66	23323
2026-01-08 23:47:35.80	16.21	5.43	-48.0	-63.5	3.8	1.49e+00	0	41	104	0	66	22906
2026-01-08 23:47:36.80	16.22	5.50	-48.0	-63.4	3.8	1.49e+00	0	41	104	0	66	22618
2026-01-08 23:47:37.81	16.22	5.58	-48.0	-63.3	3.8	1.49e+00	0	41	104	0	66	22349
2026-01-08 23:47:38.81	16.22	5.65	-48.0	-63.2	3.8	1.49e+00	0	42	104	0	66	22060
2026-01-08 23:47:39.81	16.22	5.72	-48.0	-63.0	3.8	1.49e+00	0	41	104	0	66	21623
2026-01-08 23:47:40.82	16.23	5.80	-48.0	-63.0	3.8	1.49e+00	0	41	104	0	66	21584
2026-01-08 23:47:41.82	16.23	5.87	-48.0	-63.0	3.8	1.49e+00	0	41	104	0	66	21619
2026-01-08 23:47:42.82	16.23	5.94	-48.0	-63.0	3.8	1.49e+00	0	42	104	0	66	21517
2026-01-08 23:47:43.83	16.23	6.02	-48.0	-63.1	3.8	1.49e+00	0	42	104	0	66	21805
2026-01-08 23:47:44.84	16.24	6.09	-48.0	-63.1	3.8	1.49e+00	0	42	104	0	66	21855
2026-01-08 23:47:45.84	16.24	6.17	-48.0	-63.1	3.8	1.49e+00	0	42	104	0	66	21904
2026-01-08 23:47:46.84	16.24	6.24	-48.0	-63.1	3.8	1.49e+00	0	42	104	0	66	21893
2026-01-08 23:47:47.85	16.24	6.32	-47.9	-63.0	3.8	1.49e+00	0	42	104	0	66	21529
2026-01-08 23:47:48.85	16.24	6.39	-48.0	-62.9	3.8	1.49e+00	0	42	104	0	66	21478
2026-01-08 23:47:49.86	16.25	6.47	-48.0	-62.8	3.8	1.49e+00	0	42	104	0	66	21057
2026-01-08 23:47:50.86	16.25	6.54	-47.9	-62.7	3.8	1.49e+00	0	42	104	0	66	20942
2026-01-08 23:47:51.87	16.25	6.62	-47.9	-62.7	3.8	1.49e+00	0	42	104	0	66	20936
2026-01-08 23:47:52.87	16.25	6.70	-48.0	-62.7	3.8	1.49e+00	0	42	104	0	66	20818
2026-01-08 23:47:53.88	16.26	6.77	-48.0	-62.9	3.8	1.49e+00	0	42	104	0	66	21397
2026-01-08 23:47:54.88	16.26	6.85	-48.0	-63.0	3.8	1.49e+00	0	42	104	0	66	21580
2026-01-08 23:47:55.88	16.26	6.93	-48.1	-63.2	3.8	1.49e+00	0	42	104	0	66	22155
2026-01-08 23:47:56.89	16.26	7.00	-48.1	-63.5	3.8	1.49e+00	0	42	104	0	66	23035
2026-01-08 23:47:57.89	16.26	7.08	-48.0	-63.8	3.8	1.49e+00	0	42	104	0	66	23607
2026-01-08 23:47:58.90	16.27	7.16	-48.1	-63.8	3.8	1.49e+00	0	42	104	0	66	23849
2026-01-08 23:47:59.90	16.27	7.24	-48.1	-63.7	3.8	1.49e+00	0	42	104	0	66	23467
2026-01-08 23:48:00.90	16.27	7.31	-48.1	-63.4	3.8	1.49e+00	0	42	104	0	66	22660
2026-01-08 23:48:01.91	16.27	7.39	-48.0	-62.4	3.8	1.49e+00	0	42	104	0	66	20089
2026-01-08 23:48:02.91	16.27	7.47	-47.9	-61.2	4.0	1.48e+00	0	42	104	0	66	17562
2026-01-08 23:48:03.92	16.28	7.55	-47.9	-60.7	4.1	1.42e+00	0	42	0	0	66	16579
2026-01-08 23:48:04.92	16.28	7.63	-47.7	-59.6	4.4	1.28e+00	0	42	0	0	66	14571
2026-01-08 23:48:05.93	16.28	7.71	-47.7	-58.9	4.7	9.38e-01	0	42	0	2097152	66	13509
2026-01-08 23:48:06.93	16.28	7.79	-47.6	-58.1	5.2	6.73e-01	0	43	0	4194304	66	12297
2026-01-08 23:48:07.93	16.29	7.87	-47.5	-57.7	5.4	5.55e-01	0	43	0	6291456	66	11746
2026-01-08 23:48:08.94	16.29	7.95	-47.4	-57.3	5.7	4.33e-01	0	43	0	7340032	66	11197
2026-01-08 23:48:09.94	16.29	8.03	-47.4	-57.0	5.9	3.74e-01	0	43	0	9437184	66	10866
2026-01-08 23:48:10.95	16.29	8.11	-47.3	-56.4	6.4	2.57e-01	0	43	0	11534336	66	10074
2026-01-08 23:48:11.95	16.29	8.19	-47.3	-56.3	6.4	2.59e-01	0	42	0	13631488	66	10018
2026-01-08 23:48:12.95	16.30	8.27	-47.2	-56.0	6.7	2.16e-01	0	43	0	15728640	66	9688
2026-01-08 23:48:13.96	16.30	8.35	-47.1	-55.7	7.0	1.68e-01	0	43	0	16777216	66	9324
2026-01-08 23:48:14.96	16.30	8.43	-47.1	-55.5	7.2	1.50e-01	0	43	0	18874368	66	9107
2026-01-08 23:48:15.97	16.30	8.51	-47.1	-55.5	7.2	1.34e-01	0	43	0	20971520	66	9158
2026-01-08 23:48:16.97	16.30	8.59	-47.1	-55.4	7.3	1.25e-01	0	43	0	23068672	66	9054
2026-01-08 23:48:17.97	16.30	8.68	-47.1	-55.4	7.3	1.20e-01	0	43	0	25165824	66	9009
2026-01-08 23:48:18.98	16.31	8.76	-47.2	-55.8	7.0	1.22e-01	0	43	0	26214400	66	9393
2026-01-08 23:48:19.98	16.31	8.84	-47.2	-55.7	7.1	1.36e-01	0	43	0	28311552	66	9298
2026-01-08 23:48:20.99	16.31	8.93	-47.2	-55.6	7.1	1.37e-01	0	43	0	30408704	66	9178
2026-01-08 23:48:21.99	16.31	9.01	-47.3	-56.2	6.5	2.16e-01	0	43	0	32505856	66	9939
2026-01-08 23:48:23.00	16.31	9.09	-47.5	-56.6	6.4	3.04e-01	0	43	0	34603008	66	10352
2026-01-08 23:48:24.00	16.32	9.18	-47.5	-55.9	7.0	1.50e-01	0	43	0	35651584	66	9591
2026-01-08 23:48:25.00	16.32	9.26	-47.9	-60.2	4.2	4.98e-01	0	43	0	37748736	66	15694
2026-01-08 23:48:26.00	16.32	9.34	-48.2	-60.6	4.2	1.42e+00	0	43	104	37748736	67	15424
2026-01-08 23:48:27.01	16.32	9.43	-45.9	-51.5	11.5	6.61e-01	0	43	0	38797312	63	6810
2026-01-08 23:48:28.01	16.32	9.51	-48.2	-60.1	4.3	4.12e-01	0	43	0	40894464	66	15463
2026-01-08 23:48:29.01	16.32	9.60	-48.2	-59.4	4.5	1.23e+00	0	43	0	41943040	67	13529
2026-01-08 23:48:30.01	16.33	9.68	-48.2	-59.8	4.4	1.14e+00	0	43	0	44040192	67	14085
2026-01-08 23:48:31.01	16.33	9.77	-48.2	-59.2	4.6	1.01e+00	0	43	0	45088768	67	13210
2026-01-08 23:48:32.02	16.33	9.86	-48.1	-59.2	4.6	8.94e-01	0	43	0	47185920	67	13198
2026-01-08 23:48:33.02	16.33	9.94	-47.2	-54.8	8.0	4.36e-01	0	43	0	49283072	66	8373
2026-01-08 23:48:34.02	16.33	10.03	-47.9	-59.9	4.3	1.22e-01	0	43	0	51380224	66	15160
2026-01-08 23:48:35.03	16.33	10.12	-48.2	-60.4	4.2	1.30e+00	0	43	0	52428800	67	15152
2026-01-08 23:48:36.03	16.34	10.20	-45.9	-51.3	11.7	1.36e-01	0	43	0	54525952	63	6690
2026-01-08 23:48:37.03	16.34	10.29	-45.9	-51.3	11.6	5.02e-04	0	43	0	55574528	63	6685
2026-01-08 23:48:38.04	16.34	10.38	-45.7	-51.0	11.9	4.38e-04	0	43	0	57671680	63	6475
2026-01-08 23:48:39.04	16.34	10.47	-45.7	-50.8	12.2	3.62e-04	0	43	0	59768832	63	6295
2026-01-08 23:48:40.04	16.34	10.56	-45.8	-50.7	12.2	1.75e-04	0	43	0	61865984	63	6274
2026-01-08 23:48:41.05	16.34	10.65	-45.4	-50.2	12.8	1.14e-04	0	43	0	63963136	62	6219
2026-01-08 23:48:42.05	16.35	10.74	-45.7	-50.6	12.5	1.17e-04	0	43	0	65011712	62	6532
2026-01-08 23:48:43.05	16.35	10.83	-45.5	-50.4	12.6	1.29e-04	0	43	0	67108864	62	6356
2026-01-08 23:48:44.06	16.35	10.92	-45.4	-50.2	13.0	1.11e-04	0	43	0	69206016	62	6230
2026-01-08 23:48:45.09	16.35	11.01	-45.5	-50.3	12.7	6.17e-05	0	43	0	71303168	62	6287
2026-01-08 23:48:46.09	16.35	11.10	-45.2	-49.8	13.1	5.95e-05	0	43	0	73400320	62	5968
2026-01-08 23:48:47.17	16.35	11.20	-45.4	-50.1	12.8	3.89e-05	0	43	0	74448896	62	6169
2026-01-08 23:48:48.07	16.35	11.28	-45.0	-49.4	13.7	2.44e-05	0	43	0	76546048	61	6054
2026-01-08 23:48:49.21	16.36	11.38	-45.5	-50.2	12.9	3.73e-05	0	43	0	78643200	61	6599
2026-01-08 23:48:50.07	16.36	11.46	-45.2	-49.8	13.1	2.89e-05	0	43	0	80740352	61	6311
2026-01-08 23:48:51.22	16.36	11.57	-45.5	-50.2	12.9	2.28e-05	0	43	0	82837504	61	6581
2026-01-08 23:48:52.08	16.36	11.65	-45.0	-49.4	13.5	2.44e-05	0	43	0	83886080	61	6030
2026-01-08 23:48:53.22	16.36	11.75	-45.3	-49.7	13.3	2.21e-05	0	43	0	85983232	61	6273
2026-01-08 23:48:54.31	16.36	11.85	-45.3	-49.7	13.5	1.52e-05	0	43	0	88080384	61	6214
2026-01-08 23:48:55.34	16.36	11.95	-45.2	-49.6	13.4	1.75e-05	0	43	0	90177536	61	6141
2026-01-08 23:48:56.34	16.37	12.04	-45.3	-49.6	13.5	6.10e-06	0	43	0	92274688	61	6179
2026-01-08 23:48:57.34	16.37	12.14	-45.0	-49.2	13.8	1.14e-05	0	43	0	94371840	61	5902
2026-01-08 23:48:58.35	16.37	12.23	-44.9	-49.1	13.9	1.06e-05	0	43	0	96468992	61	5797
2026-01-08 23:48:59.35	16.37	12.33	-44.8	-48.8	14.2	3.00e-06	0	43	0	97517568	61	5614
2026-01-08 23:49:00.35	16.37	12.43	-44.9	-49.0	14.1	3.80e-06	0	43	0	99614720	61	5735
2026-01-08 23:49:01.35	16.37	12.52	-44.9	-48.9	14.1	7.00e-07	0	43	0	101711872	61	5678
2026-01-08 23:49:02.36	16.37	12.62	-44.9	-48.9	14.2	1.50e-06	0	43	0	103809024	61	5679
2026-01-08 23:49:03.36	16.37	12.71	-44.7	-48.6	14.4	1.50e-06	0	43	0	104857600	61	5527
2026-01-08 23:49:04.37	16.38	12.81	-44.6	-48.4	14.7	2.20e-06	0	43	0	106954752	61	5369
2026-01-08 23:49:05.37	16.38	12.91	-44.6	-48.4	14.6	0.00e+00	0	43	0	109051904	61	5369
2026-01-08 23:49:06.37	16.38	13.01	-44.5	-48.3	14.8	0.00e+00	0	43	0	111149056	61	5303
2026-01-08 23:49:07.47	16.38	13.12	-44.6	-48.4	14.6	0.00e+00	0	43	0	113246208	60	5686
2026-01-08 23:49:08.35	16.38	13.20	-44.7	-48.5	14.6	0.00e+00	0	43	0	114294784	60	5780
2026-01-08 23:49:09.50	16.38	13.32	-44.3	-47.9	15.1	0.00e+00	0	43	0	116391936	60	5378
2026-01-08 23:49:10.42	16.38	13.41	-44.4	-48.0	15.1	0.00e+00	0	43	0	118489088	60	5443
2026-01-08 23:49:11.43	16.38	13.51	-44.3	-47.9	15.1	0.00e+00	0	43	0	120586240	60	5368
2026-01-08 23:49:12.43	16.38	13.61	-44.3	-47.8	15.2	0.00e+00	0	43	0	122683392	59	5623
2026-01-08 23:49:13.44	16.38	13.71	-44.1	-47.5	15.5	0.00e+00	0	43	0	124780544	59	5406
2026-01-08 23:49:14.44	16.39	13.81	-44.1	-47.4	15.6	0.00e+00	0	43	0	125829120	59	5373
2026-01-08 23:49:15.44	16.39	13.91	-44.2	-47.6	15.5	0.00e+00	0	43	0	127926272	59	5465
2026-01-08 23:49:16.44	16.39	14.01	-43.9	-47.2	15.8	0.00e+00	0	43	0	130023424	59	5258
2026-01-08 23:49:17.45	16.39	14.12	-43.8	-47.1	16.0	0.00e+00	0	43	0	132120576	59	5175
2026-01-08 23:49:18.45	16.39	14.22	-43.9	-47.2	15.8	0.00e+00	0	43	0	133169152	59	5266
2026-01-08 23:49:19.45	16.39	14.32	-43.9	-47.1	15.9	0.00e+00	0	43	0	135266304	59	5204
2026-01-08 23:49:20.46	16.39	14.43	-43.7	-47.0	16.0	0.00e+00	0	43	0	137363456	59	5112
2026-01-08 23:49:21.46	16.39	14.53	-43.7	-46.9	16.2	0.00e+00	0	43	0	139460608	59	5048
2026-01-08 23:49:22.46	16.39	14.64	-43.6	-46.7	16.4	0.00e+00	0	43	0	141557760	59	4949
2026-01-08 23:49:23.47	16.39	14.74	-43.6	-46.8	16.3	0.00e+00	0	43	0	142606336	59	4996
2026-01-08 23:49:24.47	16.39	14.85	-43.5	-46.6	16.4	0.00e+00	0	43	0	144703488	59	4900
2026-01-08 23:49:25.47	16.39	14.95	-43.3	-46.2	16.8	0.00e+00	0	43	0	146800640	58	4971
2026-01-08 23:49:26.48	16.40	15.06	-43.4	-46.4	16.6	0.00e+00	0	43	0	148897792	58	5073
2026-01-08 23:49:27.48	16.40	15.17	-43.4	-46.4	16.6	0.00e+00	0	43	0	150994944	58	5074
2026-01-08 23:49:28.48	16.40	15.28	-43.4	-46.3	16.7	0.00e+00	0	43	0	152043520	58	5019
2026-01-08 23:49:29.48	16.40	15.38	-43.3	-46.3	16.7	0.00e+00	0	44	0	154140672	58	5027
2026-01-08 23:49:30.49	16.40	15.49	-43.4	-46.4	16.7	0.00e+00	0	43	0	156237824	58	5064
2026-01-08 23:49:31.49	16.40	15.60	-43.5	-46.5	16.5	0.00e+00	0	43	0	158334976	58	5136
2026-01-08 23:49:32.49	16.40	15.71	-43.5	-46.5	16.5	0.00e+00	0	43	0	160432128	58	5142
2026-01-08 23:49:33.49	16.40	15.82	-43.5	-46.5	16.6	0.00e+00	0	43	0	161480704	58	5101
2026-01-08 23:49:34.50	16.40	15.93	-43.5	-46.5	16.6	0.00e+00	0	43	0	163577856	58	5132
2026-01-08 23:49:35.50	16.40	16.04	-43.5	-46.5	16.5	0.00e+00	0	43	0	165675008	58	5127
2026-01-08 23:49:36.51	16.40	16.15	-43.4	-46.4	16.6	0.00e+00	0	43	0	167772160	58	5056
2026-01-08 23:49:37.57	16.40	16.27	-43.4	-46.3	16.7	0.00e+00	0	44	0	169869312	58	5038
2026-01-08 23:49:38.43	16.40	16.37	-43.3	-46.2	16.8	0.00e+00	0	43	0	170917888	58	4967
2026-01-08 23:49:39.58	16.40	16.50	-43.2	-46.2	16.9	0.00e+00	0	44	0	173015040	58	4939
2026-01-08 23:49:40.44	16.40	16.60	-43.3	-46.2	16.8	0.00e+00	0	43	0	175112192	58	4951
2026-01-08 23:49:41.58	16.40	16.73	-43.3	-46.3	16.8	0.00e+00	0	44	0	177209344	58	4985
2026-01-08 23:49:42.62	16.40	16.85	-43.3	-46.2	16.8	0.00e+00	0	44	0	179306496	58	4973
2026-01-08 23:49:43.79	16.40	16.98	-43.2	-46.1	16.9	0.00e+00	0	44	0	181403648	58	4903
2026-01-08 23:49:44.65	16.40	17.08	-43.3	-46.2	16.8	0.00e+00	0	43	0	182452224	58	4981
2026-01-08 23:49:46.01	16.40	17.24	-43.1	-46.0	17.1	0.00e+00	0	44	0	185597952	58	4816
2026-01-08 23:49:46.72	16.40	17.32	-43.1	-46.0	17.1	0.00e+00	0	44	0	186646528	58	4830
2026-01-08 23:49:48.24	16.40	17.50	-43.2	-46.2	16.9	0.00e+00	0	44	0	189792256	58	4933
2026-01-08 23:49:48.95	16.40	17.58	-43.1	-45.9	17.1	0.00e+00	0	44	0	190840832	58	4801
2026-01-08 23:49:50.29	16.40	17.74	-43.1	-46.0	17.0	0.00e+00	0	44	0	192937984	57	5144
2026-01-08 23:49:51.01	16.40	17.83	-43.1	-46.0	17.0	0.00e+00	0	44	0	195035136	57	5137
2026-01-08 23:49:52.30	16.40	17.98	-43.1	-46.0	17.1	0.00e+00	0	44	0	197132288	57	5127
2026-01-08 23:49:53.01	16.40	18.07	-43.1	-46.0	17.1	0.00e+00	0	44	0	198180864	57	5126
2026-01-08 23:49:54.31	16.40	18.23	-43.1	-46.0	17.0	0.00e+00	0	44	0	201326592	57	5158
2026-01-08 23:49:55.02	16.40	18.31	-43.1	-46.0	17.0	0.00e+00	0	44	0	202375168	57	5147
2026-01-08 23:49:56.31	16.40	18.47	-43.2	-46.1	16.9	0.00e+00	0	44	0	204472320	57	5209
2026-01-08 23:49:57.03	16.40	18.56	-43.2	-46.1	16.9	0.00e+00	0	44	0	205520896	57	5195
2026-01-08 23:49:58.32	16.40	18.72	-43.2	-46.2	16.9	0.00e+00	0	43	0	208666624	57	5249
2026-01-08 23:49:59.17	16.40	18.82	-43.3	-46.2	16.9	0.00e+00	0	43	0	209715200	57	5273
2026-01-08 23:50:00.63	16.40	19.00	-43.4	-46.4	16.7	0.00e+00	0	44	0	212860928	57	5357
2026-01-08 23:50:01.34	16.40	19.09	-43.3	-46.3	16.8	0.00e+00	0	43	0	213909504	57	5337
2026-01-08 23:50:02.64	16.40	19.26	-43.3	-46.3	16.8	0.00e+00	0	44	0	216006656	57	5318
2026-01-08 23:50:03.35	16.40	19.35	-43.4	-46.5	16.7	0.00e+00	0	44	0	218103808	57	5422
2026-01-08 23:50:04.64	16.40	19.51	-43.3	-46.3	16.8	0.00e+00	0	43	0	220200960	57	5299
2026-01-08 23:50:05.36	16.40	19.60	-43.4	-46.4	16.6	0.00e+00	0	43	0	221249536	57	5401
2026-01-08 23:50:06.64	16.40	19.77	-43.4	-46.4	16.7	0.00e+00	0	43	0	224395264	57	5379
2026-01-08 23:50:07.36	16.40	19.86	-43.4	-46.4	16.7	0.00e+00	0	44	0	225443840	57	5370
2026-01-08 23:50:08.65	16.40	20.03	-43.3	-46.4	16.7	0.00e+00	0	43	0	227540992	57	5378
2026-01-08 23:50:09.37	16.40	20.12	-43.2	-46.3	16.8	0.00e+00	0	44	0	228589568	57	5287
2026-01-08 23:50:10.66	16.39	20.29	-43.3	-46.3	16.8	0.00e+00	0	43	0	231735296	57	5325
2026-01-08 23:50:11.37	16.39	20.39	-43.3	-46.3	16.8	0.00e+00	0	44	0	232783872	57	5331
2026-01-08 23:50:12.66	16.39	20.56	-43.3	-46.3	16.8	0.00e+00	0	44	0	234881024	57	5313
2026-01-08 23:50:13.38	16.39	20.66	-43.3	-46.3	16.8	0.00e+00	0	44	0	236978176	57	5307
2026-01-08 23:50:14.78	16.39	20.84	-43.2	-46.2	16.9	0.00e+00	0	44	0	239075328	57	5259
2026-01-08 23:50:15.50	16.39	20.94	-43.3	-46.3	16.8	0.00e+00	0	43	0	240123904	57	5307
2026-01-08 23:50:16.79	16.39	21.12	-43.4	-46.4	16.7	0.00e+00	0	44	0	243269632	57	5389
2026-01-08 23:50:17.51	16.39	21.22	-43.4	-46.4	16.7	0.00e+00	0	44	0	244318208	57	5400
2026-01-08 23:50:18.80	16.39	21.39	-43.3	-46.4	16.7	0.00e+00	0	44	0	246415360	57	5365
2026-01-08 23:50:19.51	16.39	21.49	-43.6	-46.7	16.5	0.00e+00	0	44	0	248512512	57	5565
2026-01-08 23:50:20.80	16.38	21.67	-43.7	-46.8	16.4	0.00e+00	0	44	0	250609664	57	5629
2026-01-08 23:50:21.52	16.38	21.77	-43.6	-46.7	16.5	0.00e+00	0	44	0	251658240	58	5243
2026-01-08 23:50:22.81	16.38	21.95	-43.7	-46.8	16.3	0.00e+00	0	44	0	254803968	58	5329
2026-01-08 23:50:23.53	16.38	22.05	-43.7	-46.8	16.3	0.00e+00	0	44	0	255852544	58	5317
2026-01-08 23:50:24.81	16.38	22.24	-43.7	-46.8	16.4	0.00e+00	0	44	0	257949696	58	5315
2026-01-08 23:50:25.53	16.38	22.34	-43.6	-46.8	16.4	0.00e+00	0	44	0	258998272	58	5304
2026-01-08 23:50:26.82	16.38	22.52	-43.6	-46.7	16.5	0.00e+00	0	44	0	262144000	58	5250
2026-01-08 23:50:27.70	16.37	22.65	-43.5	-46.6	16.5	0.00e+00	0	43	0	263192576	58	5193
2026-01-08 23:50:28.85	16.37	22.82	-43.5	-46.6	16.5	0.00e+00	0	43	0	265289728	58	5210
2026-01-08 23:50:29.70	16.37	22.94	-43.4	-46.5	16.7	0.00e+00	0	43	0	267386880	58	5107
2026-01-08 23:50:30.85	16.37	23.11	-43.4	-46.4	16.7	0.00e+00	0	44	0	269484032	58	5093
2026-01-08 23:50:31.71	16.37	23.24	-43.4	-46.5	16.6	0.00e+00	0	44	0	270532608	58	5153
2026-01-08 23:50:32.86	16.37	23.41	-43.6	-46.7	16.5	0.00e+00	0	44	0	272629760	58	5242
2026-01-08 23:50:33.72	16.36	23.54	-43.4	-46.5	16.7	0.00e+00	0	44	0	274726912	58	5122
2026-01-08 23:50:34.93	16.36	23.72	-43.5	-46.6	16.6	0.00e+00	0	43	0	276824064	58	5166
2026-01-08 23:50:35.79	16.36	23.85	-43.6	-46.7	16.5	0.00e+00	0	44	0	278921216	58	5234
2026-01-08 23:50:37.00	16.36	24.04	-43.7	-46.9	16.3	0.00e+00	0	44	0	281018368	58	5349
2026-01-08 23:50:37.86	16.36	24.17	-43.6	-46.7	16.5	0.00e+00	0	43	0	282066944	58	5247
2026-01-08 23:50:39.13	16.35	24.36	-43.6	-46.7	16.4	0.00e+00	0	44	0	285212672	58	5239
2026-01-08 23:50:39.85	16.35	24.47	-43.7	-46.7	16.5	0.00e+00	0	44	0	286261248	58	5266
2026-01-08 23:50:41.14	16.35	24.68	-43.6	-46.6	16.6	0.00e+00	0	43	0	288358400	58	5173
2026-01-08 23:50:41.86	16.35	24.79	-43.6	-46.6	16.6	0.00e+00	0	44	0	290455552	58	5217
2026-01-08 23:50:43.14	16.34	24.99	-43.3	-46.3	16.9	0.00e+00	0	44	0	292552704	58	5024
2026-01-08 23:50:43.87	16.34	25.11	-43.4	-46.4	16.7	0.00e+00	0	44	0	293601280	58	5093
2026-01-08 23:50:45.16	16.34	25.31	-43.4	-46.4	16.8	0.00e+00	0	44	0	295698432	58	5069
2026-01-08 23:50:45.98	16.34	25.45	-43.3	-46.3	16.9	0.00e+00	0	44	0	297795584	58	5029
2026-01-08 23:50:47.12	16.33	25.63	-43.2	-46.2	17.0	0.00e+00	0	44	0	299892736	58	4948
2026-01-08 23:50:48.22	16.33	25.81	-43.4	-46.4	16.7	0.00e+00	0	43	0	301989888	58	5094
2026-01-08 23:50:49.26	16.33	25.98	-43.4	-46.4	16.8	0.00e+00	0	44	0	304087040	58	5095
2026-01-08 23:50:50.26	16.33	26.15	-43.6	-46.7	16.4	0.00e+00	0	44	0	306184192	58	5245
2026-01-08 23:50:51.26	16.32	26.31	-43.7	-46.8	16.4	0.00e+00	0	44	0	307232768	58	5320
2026-01-08 23:50:52.26	16.32	26.48	-43.6	-46.7	16.5	0.00e+00	0	44	0	309329920	58	5236
2026-01-08 23:50:53.27	16.32	26.65	-43.8	-47.0	16.2	0.00e+00	0	44	0	311427072	58	5446
2026-01-08 23:50:54.27	16.31	26.82	-43.5	-46.6	16.6	0.00e+00	0	44	0	313524224	58	5189
2026-01-08 23:50:55.27	16.31	26.99	-43.6	-46.7	16.5	0.00e+00	0	44	0	315621376	58	5250
2026-01-08 23:50:56.27	16.31	27.16	-43.7	-46.8	16.4	0.00e+00	0	43	0	316669952	58	5318
2026-01-08 23:50:57.28	16.30	27.34	-43.7	-46.8	16.4	0.00e+00	0	44	0	318767104	58	5338
2026-01-08 23:50:58.28	16.30	27.51	-43.7	-46.7	16.5	0.00e+00	0	44	0	320864256	58	5261
2026-01-08 23:50:59.29	16.30	27.69	-43.7	-46.7	16.5	0.00e+00	0	44	0	322961408	58	5247
2026-01-08 23:51:00.29	16.29	27.86	-43.5	-46.5	16.7	0.00e+00	0	44	0	325058560	58	5141
2026-01-08 23:51:01.29	16.29	28.04	-44.1	-47.4	15.9	0.00e+00	0	44	0	326107136	58	5667
2026-01-08 23:51:02.30	16.29	28.22	-43.8	-46.9	16.3	0.00e+00	0	44	0	328204288	58	5395
2026-01-08 23:51:03.30	16.28	28.40	-44.1	-47.3	16.0	0.00e+00	0	44	0	330301440	58	5614
2026-01-08 23:51:04.31	16.28	28.58	-44.4	-47.8	15.4	0.00e+00	0	44	0	332398592	59	5643
2026-01-08 23:51:05.31	16.27	28.76	-44.4	-47.8	15.4	0.00e+00	0	44	0	334495744	59	5639
2026-01-08 23:51:06.31	16.27	28.95	-44.5	-48.0	15.3	0.00e+00	0	43	0	335544320	59	5780
2026-01-08 23:51:07.32	16.26	29.13	-44.7	-48.3	15.0	0.00e+00	0	44	0	337641472	60	5648
2026-01-08 23:51:08.32	16.26	29.32	-44.7	-48.4	14.9	7.00e-07	0	44	0	339738624	60	5659
2026-01-08 23:51:09.32	16.26	29.50	-45.0	-48.9	14.4	7.00e-07	0	44	0	341835776	60	6025
2026-01-08 23:51:10.32	16.25	29.69	-44.9	-48.6	14.7	7.00e-07	0	44	0	342884352	60	5843
2026-01-08 23:51:11.33	16.25	29.88	-44.8	-48.5	14.9	0.00e+00	0	44	0	344981504	60	5731
2026-01-08 23:51:12.33	16.24	30.07	-44.8	-48.6	14.7	7.00e-07	0	44	0	347078656	60	5845
2026-01-08 23:51:13.34	16.24	30.27	-44.7	-48.5	14.9	0.00e+00	0	44	0	349175808	60	5736
2026-01-08 23:51:14.34	16.23	30.46	-44.7	-48.4	15.0	0.00e+00	0	44	0	351272960	60	5693
2026-01-08 23:51:15.35	16.23	30.66	-44.6	-48.4	15.0	7.00e-07	0	44	0	352321536	60	5658
2026-01-08 23:51:16.40	16.22	30.86	-44.8	-48.7	14.7	0.00e+00	0	44	0	354418688	60	5860
2026-01-08 23:51:17.29	16.22	31.04	-44.6	-48.4	15.0	0.00e+00	0	44	0	356515840	60	5685
2026-01-08 23:51:18.60	16.21	31.30	-44.9	-48.8	14.5	0.00e+00	0	44	0	358612992	60	5976
2026-01-08 23:51:19.32	16.21	31.44	-44.9	-48.7	14.6	1.50e-06	0	44	0	360710144	60	5900
2026-01-08 23:51:20.61	16.20	31.70	-44.7	-48.5	14.9	7.00e-07	0	44	0	362807296	60	5741
2026-01-08 23:51:21.32	16.19	31.84	-44.7	-48.4	14.9	0.00e+00	0	44	0	363855872	60	5714
2026-01-08 23:51:22.61	16.19	32.11	-44.4	-47.9	15.4	0.00e+00	0	44	0	365953024	60	5375
2026-01-08 23:51:23.36	16.18	32.26	-44.4	-47.9	15.5	0.00e+00	0	44	0	368050176	60	5343
2026-01-08 23:51:24.65	16.17	32.53	-44.6	-48.1	15.2	7.00e-07	0	44	0	370147328	60	5487
2026-01-08 23:51:25.37	16.17	32.68	-44.5	-47.9	15.5	0.00e+00	0	44	0	371195904	60	5365
2026-01-08 23:51:26.65	16.16	32.95	-44.7	-48.3	15.0	0.00e+00	0	44	0	374341632	60	5636
2026-01-08 23:51:27.51	16.16	33.13	-44.6	-48.2	15.0	0.00e+00	0	44	0	375390208	60	5589
2026-01-08 23:51:28.66	16.15	33.37	-44.8	-48.5	14.9	0.00e+00	0	44	0	377487360	60	5729
2026-01-08 23:51:29.52	16.14	33.56	-44.8	-48.5	14.7	1.50e-06	0	44	0	379584512	60	5781
2026-01-08 23:51:30.67	16.13	33.81	-44.4	-47.8	15.5	0.00e+00	0	44	0	381681664	60	5302
2026-01-08 23:51:31.53	16.13	33.99	-44.4	-47.9	15.6	0.00e+00	0	44	0	382730240	60	5353
2026-01-08 23:51:32.67	16.12	34.24	-44.2	-47.5	15.8	0.00e+00	0	44	0	384827392	60	5135
2026-01-08 23:51:33.53	16.11	34.43	-43.9	-47.0	16.3	0.00e+00	0	44	0	386924544	59	5101
2026-01-08 23:51:34.68	16.11	34.69	-43.7	-46.7	16.6	0.00e+00	0	44	0	389021696	59	4931
2026-01-08 23:51:35.54	16.10	34.88	-43.7	-46.7	16.6	0.00e+00	0	44	0	391118848	59	4932
2026-01-08 23:51:36.68	16.09	35.14	-43.4	-46.2	17.0	0.00e+00	0	44	0	393216000	58	4970
2026-01-08 23:51:37.54	16.08	35.33	-43.5	-46.4	16.9	0.00e+00	0	44	0	394264576	58	5071
2026-01-08 23:51:38.69	16.07	35.60	-42.9	-45.6	17.7	0.00e+00	0	44	0	396361728	57	4913
2026-01-08 23:51:39.55	16.07	35.79	-43.0	-45.7	17.5	0.00e+00	0	44	0	398458880	57	4970
2026-01-08 23:51:40.69	16.06	36.06	-42.7	-45.4	17.7	0.00e+00	0	44	0	400556032	57	4797
2026-01-08 23:51:41.55	16.05	36.26	-42.4	-45.0	18.3	0.00e+00	0	44	0	401604608	56	4823
2026-01-08 23:51:42.70	16.04	36.53	-42.2	-44.8	18.4	0.00e+00	0	44	0	403701760	56	4711
2026-01-08 23:51:43.56	16.03	36.73	-42.2	-44.8	18.3	0.00e+00	0	44	0	405798912	56	4744
2026-01-08 23:51:44.71	16.02	37.01	-42.2	-44.8	18.3	0.00e+00	0	44	0	407896064	56	4753
2026-01-08 23:51:45.82	16.01	37.28	-42.1	-44.6	18.5	0.00e+00	0	44	0	409993216	56	4649
2026-01-08 23:51:46.68	16.00	37.49	-41.9	-44.4	18.6	0.00e+00	0	44	0	412090368	55	4784
2026-01-08 23:51:47.83	15.99	37.77	-42.0	-44.5	18.4	0.00e+00	0	44	0	414187520	55	4869
2026-01-08 23:51:48.69	15.98	37.98	-42.0	-44.5	18.4	0.00e+00	0	44	0	415236096	55	4870
2026-01-08 23:51:49.84	15.97	38.26	-41.9	-44.5	18.5	0.00e+00	0	44	0	417333248	55	4817
2026-01-08 23:51:50.70	15.96	38.48	-41.7	-44.3	18.6	0.00e+00	0	44	0	419430400	55	4713
2026-01-08 23:51:51.84	15.95	38.77	-41.7	-44.3	18.7	0.00e+00	0	44	0	421527552	55	4710
2026-01-08 23:51:52.70	15.94	38.98	-41.7	-44.2	18.7	0.00e+00	0	44	0	422576128	55	4695
2026-01-08 23:51:53.94	15.93	39.30	-41.7	-44.2	18.7	0.00e+00	0	44	0	425721856	55	4694
2026-01-08 23:51:54.80	15.92	39.52	-42.2	-44.9	18.1	0.00e+00	0	44	0	426770432	55	5056
2026-01-08 23:51:55.94	15.90	39.82	-42.3	-45.0	18.0	0.00e+00	0	44	0	428867584	55	5154
2026-01-08 23:51:56.80	15.89	40.04	-42.2	-44.9	18.0	0.00e+00	0	44	0	430964736	55	5069
2026-01-08 23:51:58.11	15.88	40.39	-42.4	-45.2	18.0	0.00e+00	0	44	0	433061888	56	4948
2026-01-08 23:51:58.83	15.87	40.58	-42.5	-45.3	17.8	0.00e+00	0	44	0	434110464	56	5037
2026-01-08 23:52:00.11	15.85	40.92	-42.7	-45.5	17.7	0.00e+00	0	44	0	437256192	56	5148
2026-01-08 23:52:00.83	15.84	41.12	-42.4	-45.2	18.0	0.00e+00	0	44	0	438304768	56	4934
2026-01-08 23:52:02.12	15.83	41.47	-42.6	-45.4	17.9	0.00e+00	0	44	0	440401920	56	5064
2026-01-08 23:52:02.88	15.81	41.68	-42.6	-45.5	17.7	0.00e+00	0	44	0	442499072	56	5124
2026-01-08 23:52:04.17	15.80	42.03	-42.7	-45.4	17.7	0.00e+00	0	44	0	444596224	56	5096
2026-01-08 23:52:04.98	15.79	42.26	-42.7	-45.5	17.7	0.00e+00	0	44	0	445644800	56	5102
2026-01-08 23:52:06.13	15.77	42.58	-42.8	-45.7	17.6	0.00e+00	0	44	0	447741952	56	5226
2026-01-08 23:52:07.23	15.75	42.89	-43.1	-45.9	17.3	0.00e+00	0	44	0	449839104	56	5394
2026-01-08 23:52:08.26	15.74	43.18	-43.0	-45.8	17.4	0.00e+00	0	44	0	451936256	57	5025
2026-01-08 23:52:09.26	15.72	43.47	-43.1	-46.0	17.2	0.00e+00	0	44	0	454033408	57	5138
2026-01-08 23:52:10.26	15.71	43.76	-43.0	-45.8	17.5	0.00e+00	0	44	0	456130560	57	4997
2026-01-08 23:52:11.26	15.69	44.05	-43.1	-45.9	17.4	0.00e+00	0	44	0	457179136	57	5087
2026-01-08 23:52:12.27	15.67	44.35	-43.1	-46.0	17.2	0.00e+00	0	44	0	459276288	57	5122
2026-01-08 23:52:13.27	15.66	44.64	-43.2	-46.1	17.2	0.00e+00	0	44	0	461373440	57	5205
2026-01-08 23:52:14.27	15.64	44.94	-43.5	-46.6	16.6	0.00e+00	0	44	0	463470592	58	5180
2026-01-08 23:52:15.28	15.62	45.25	-44.0	-47.3	16.0	0.00e+00	0	44	0	465567744	58	5593
2026-01-08 23:52:16.28	15.60	45.55	-44.2	-47.6	15.7	0.00e+00	0	44	0	466616320	59	5469
2026-01-08 23:52:17.28	15.58	45.85	-44.6	-48.2	15.2	0.00e+00	0	44	0	468713472	59	5903
2026-01-08 23:52:18.28	15.56	46.16	-44.8	-48.6	14.6	0.00e+00	0	44	0	470810624	60	5805
2026-01-08 23:52:19.28	15.54	46.47	-44.4	-47.9	15.5	0.00e+00	0	44	0	472907776	60	5373
2026-01-08 23:52:20.29	15.52	46.79	-44.4	-47.8	15.5	0.00e+00	0	44	0	475004928	60	5311
2026-01-08 23:52:21.34	15.50	47.12	-44.4	-48.0	15.4	0.00e+00	0	44	0	477102080	60	5429
2026-01-08 23:52:22.20	15.48	47.39	-44.5	-48.1	15.3	0.00e+00	0	44	0	478150656	60	5469
2026-01-08 23:52:23.60	15.45	47.84	-44.4	-48.1	15.2	0.00e+00	0	44	0	481296384	60	5485
2026-01-08 23:52:24.32	15.44	48.07	-45.0	-49.1	14.2	7.00e-07	0	44	0	482344960	60	6198
2026-01-08 23:52:25.61	15.41	48.49	-45.1	-49.2	14.1	2.20e-06	0	44	0	484442112	60	6252
2026-01-08 23:52:26.33	15.39	48.72	-45.0	-49.1	14.4	0.00e+00	0	44	0	485490688	60	6148
2026-01-08 23:52:27.62	15.36	49.15	-44.8	-48.8	14.6	0.00e+00	0	44	0	488636416	60	5953
2026-01-08 23:52:28.33	15.34	49.38	-44.7	-48.5	14.9	0.00e+00	0	44	0	489684992	60	5727
2026-01-08 23:52:29.63	15.31	49.82	-44.6	-48.2	15.2	0.00e+00	0	44	0	491782144	60	5548
2026-01-08 23:52:30.34	15.29	50.05	-44.2	-47.6	15.7	0.00e+00	0	44	0	493879296	60	5177
2026-01-08 23:52:31.63	15.26	50.49	-43.8	-47.0	16.2	0.00e+00	0	44	0	495976448	59	5127
2026-01-08 23:52:32.35	15.24	50.74	-43.2	-46.2	17.1	0.00e+00	0	44	0	497025024	58	4941
2026-01-08 23:52:33.64	15.20	51.18	-43.0	-45.9	17.3	0.00e+00	0	44	0	499122176	57	5086
2026-01-08 23:52:34.61	15.18	51.52	-42.7	-45.5	17.8	0.00e+00	0	44	0	501219328	57	4826
2026-01-08 23:52:35.61	15.15	51.87	-42.6	-45.4	17.8	0.00e+00	0	44	0	503316480	57	4772
2026-01-08 23:52:36.95	15.11	52.34	-42.9	-45.7	17.5	0.00e+00	0	44	0	505413632	57	4956
2026-01-08 23:52:37.68	15.08	52.60	-43.3	-46.2	17.0	0.00e+00	0	44	0	507510784	57	5254
2026-01-08 23:52:39.29	15.03	53.18	-42.7	-45.3	18.0	0.00e+00	0	44	0	510656512	57	4723
2026-01-08 23:52:40.10	15.01	53.47	-42.5	-45.1	18.1	0.00e+00	0	44	0	511705088	56	4886
2026-01-08 23:52:41.25	14.97	53.89	-41.4	-43.7	19.2	0.00e+00	0	44	0	513802240	54	4682
2026-01-08 23:52:42.11	14.94	54.21	-41.4	-43.7	19.3	0.00e+00	0	44	0	515899392	54	4661
2026-01-08 23:52:43.32	14.89	54.65	-41.9	-44.3	18.7	0.00e+00	0	44	0	517996544	54	5028
2026-01-08 23:52:44.18	14.86	54.97	-42.2	-44.8	18.3	0.00e+00	0	44	0	519045120	55	4985
2026-01-08 23:52:45.32	14.82	55.40	-42.8	-45.5	17.7	0.00e+00	0	44	0	521142272	56	5145
2026-01-08 23:52:46.18	14.78	55.72	-43.0	-45.8	17.5	0.00e+00	0	44	0	523239424	56	5301
2026-01-08 23:52:47.33	14.74	56.16	-42.6	-45.3	17.9	0.00e+00	0	44	0	525336576	56	5029
2026-01-08 23:52:48.19	14.70	56.49	-42.6	-45.3	18.0	0.00e+00	0	44	0	527433728	56	5020
2026-01-08 23:52:49.33	14.65	56.93	-42.8	-45.5	17.8	0.00e+00	0	44	0	529530880	56	5142
2026-01-08 23:52:50.19	14.61	57.26	-42.7	-45.4	17.9	0.00e+00	0	44	0	530579456	56	5051
2026-01-08 23:52:51.59	14.55	57.81	-42.9	-45.7	17.6	0.00e+00	0	44	0	533725184	56	5234
2026-01-08 23:52:52.31	14.52	58.09	-42.9	-45.6	17.7	0.00e+00	0	44	0	534773760	56	5182
2026-01-08 23:52:53.60	14.45	58.61	-43.6	-46.7	16.6	0.00e+00	0	44	0	536870912	57	5569
2026-01-08 23:52:54.32	14.42	58.89	-44.1	-47.4	15.9	0.00e+00	0	44	0	537919488	58	5689
2026-01-08 23:52:55.60	14.35	59.41	-44.3	-47.8	15.4	0.00e+00	0	44	0	541065216	59	5603
2026-01-08 23:52:56.32	14.31	59.70	-43.9	-47.1	16.2	0.00e+00	0	44	0	542113792	59	5195
2026-01-08 23:52:57.61	14.24	60.22	-43.8	-46.9	16.5	0.00e+00	0	44	0	544210944	59	5077
2026-01-08 23:52:58.32	14.20	60.52	-43.7	-46.7	16.6	0.00e+00	0	44	0	546308096	59	4980
2026-01-08 23:52:59.62	14.12	61.05	-43.9	-47.0	16.3	0.00e+00	0	44	0	548405248	59	5124
2026-01-08 23:53:00.33	14.07	61.35	-43.6	-46.6	16.6	0.00e+00	0	44	0	549453824	59	4914
2026-01-08 23:53:01.62	13.99	61.88	-42.7	-45.4	17.8	0.00e+00	0	44	0	551550976	57	4760
2026-01-08 23:53:02.61	13.92	62.30	-42.1	-44.6	18.6	0.00e+00	0	44	0	553648128	56	4614
2026-01-08 23:53:03.61	13.86	62.72	-41.5	-43.9	19.2	0.00e+00	0	44	0	555745280	54	4773
2026-01-08 23:53:04.96	13.76	63.30	-40.8	-43.1	19.8	0.00e+00	0	44	0	557842432	53	4606
2026-01-08 23:53:05.68	13.70	63.61	-40.7	-42.9	20.0	0.00e+00	0	44	0	559939584	53	4508
2026-01-08 23:53:06.97	13.60	64.16	-41.0	-43.2	19.7	0.00e+00	0	44	0	562036736	53	4699
2026-01-08 23:53:07.69	13.54	64.48	-41.6	-44.0	18.9	0.00e+00	0	44	0	563085312	53	5148
2026-01-08 23:53:08.98	13.43	65.04	-41.7	-44.1	18.9	0.00e+00	0	44	0	566231040	54	4905
2026-01-08 23:53:09.69	13.37	65.35	-41.8	-44.2	18.9	0.00e+00	0	44	0	567279616	54	4938
2026-01-08 23:53:10.98	13.25	65.92	-41.8	-44.1	18.8	0.00e+00	0	44	0	569376768	54	4900
2026-01-08 23:53:11.70	13.18	66.24	-42.4	-44.9	18.2	0.00e+00	0	44	0	571473920	55	5084
2026-01-08 23:53:13.07	13.05	66.85	-43.4	-46.2	17.1	0.00e+00	0	44	0	573571072	57	5239
2026-01-08 23:53:13.78	12.97	67.17	-43.5	-46.3	16.9	0.00e+00	0	44	0	574619648	57	5311
2026-01-08 23:53:15.07	12.83	67.75	-43.6	-46.4	16.9	0.00e+00	0	44	0	577765376	58	5100
2026-01-08 23:53:16.12	12.71	68.23	-44.1	-47.1	16.2	0.00e+00	0	44	0	578813952	59	5205
2026-01-08 23:53:17.01	12.60	68.63	-44.6	-48.0	15.4	0.00e+00	0	44	0	580911104	61	5133
2026-01-08 23:53:18.16	12.45	69.16	-45.8	-50.0	13.5	8.30e-06	0	44	0	583008256	62	6066
2026-01-08 23:53:19.02	12.34	69.55	-46.3	-50.9	12.5	2.36e-05	0	44	0	585105408	63	6352
2026-01-08 23:53:20.16	12.18	70.08	-47.1	-52.6	10.9	4.76e-03	0	44	0	587202560	65	6890
2026-01-08 23:53:21.02	12.05	70.48	-47.0	-52.4	11.0	3.09e-03	0	44	0	588251136	65	6778
2026-01-08 23:53:22.17	11.87	71.02	-46.4	-51.0	12.3	3.19e-04	0	44	0	590348288	64	6075
2026-01-08 23:53:23.03	11.73	71.42	-46.1	-50.3	13.1	4.95e-05	0	44	0	592445440	63	5955
2026-01-08 23:53:24.17	11.53	71.96	-46.1	-50.4	13.0	1.60e-05	0	44	0	594542592	63	6019
2026-01-08 23:53:25.04	11.37	72.37	-46.0	-50.3	13.1	8.23e-05	0	44	0	595591168	63	5988
2026-01-08 23:53:26.18	11.15	72.91	-45.8	-49.9	13.4	4.73e-05	0	44	0	597688320	63	5722
2026-01-08 23:53:27.16	10.95	73.38	-45.2	-48.8	14.6	7.00e-07	0	44	0	599785472	62	5320
2026-01-08 23:53:28.35	10.68	73.94	-44.8	-48.3	15.0	0.00e+00	0	44	0	601882624	61	5290
2026-01-08 23:53:29.24	10.47	74.37	-45.1	-48.8	14.7	0.00e+00	0	44	0	603979776	61	5596
2026-01-08 23:53:30.38	10.18	74.92	-45.0	-48.6	14.9	0.00e+00	0	44	0	606076928	61	5474
2026-01-08 23:53:31.24	9.95	75.34	-44.6	-48.0	15.2	0.00e+00	0	44	0	607125504	61	5117
2026-01-08 23:53:32.38	9.62	75.89	-44.7	-48.1	15.3	0.00e+00	0	44	0	610271232	60	5484
2026-01-08 23:53:33.24	9.35	76.31	-46.0	-50.2	13.3	0.00e+00	0	44	0	611319808	62	6216
2026-01-08 23:53:34.39	8.96	76.87	-46.7	-51.8	11.4	6.04e-04	0	44	0	613416960	64	6689
2026-01-08 23:53:35.25	8.65	77.29	-46.3	-51.2	12.1	3.55e-04	0	44	0	615514112	64	6215
2026-01-08 23:53:36.40	8.20	77.85	-46.0	-50.5	12.9	3.20e-05	0	44	0	617611264	63	6076
2026-01-08 23:53:37.26	7.83	78.27	-46.7	-52.2	11.1	1.62e-04	0	44	0	618659840	64	7040
2026-01-08 23:53:38.40	7.30	78.83	-46.5	-51.8	11.4	1.71e-03	0	44	0	620756992	64	6702
2026-01-08 23:53:39.26	6.86	79.25	-46.1	-50.6	12.6	1.26e-03	0	44	0	622854144	64	5849
2026-01-08 23:53:40.44	6.20	79.83	-45.5	-49.4	14.0	9.10e-06	0	44	0	624951296	63	5365
2026-01-08 23:53:41.30	5.66	80.26	-44.6	-47.9	15.4	7.00e-07	0	44	0	625999872	61	5058
2026-01-08 23:53:42.51	4.83	80.85	-44.9	-48.3	15.2	0.00e+00	0	44	0	629145600	60	5595
2026-01-08 23:53:43.37	4.16	81.27	-45.9	-50.2	13.2	0.00e+00	0	44	0	630194176	62	6203
2026-01-08 23:53:44.52	3.16	81.84	-45.5	-49.3	13.9	1.98e-05	0	44	0	632291328	63	5332
2026-01-08 23:53:45.38	2.31	82.26	-44.3	-47.5	16.0	0.00e+00	0	44	0	634388480	60	5109
2026-01-08 23:53:46.65	0.88	82.88	-43.6	-46.6	16.9	0.00e+00	0	44	0	636485632	58	5160
2026-01-08 23:53:47.37	359.95	83.23	-43.4	-46.3	17.0	0.00e+00	0	44	0	637534208	58	5016
2026-01-08 23:53:48.65	358.03	83.85	-42.6	-45.2	17.9	0.00e+00	0	44	0	640679936	57	4656
2026-01-08 23:53:49.37	356.78	84.19	-42.4	-44.9	18.3	0.00e+00	0	44	0	641728512	56	4811
2026-01-08 23:53:50.66	354.10	84.80	-42.4	-45.0	18.2	0.00e+00	0	44	0	643825664	56	4827
2026-01-08 23:53:51.38	352.32	85.14	-42.5	-45.0	18.2	0.00e+00	0	44	0	645922816	56	4860
2026-01-08 23:53:52.66	348.47	85.72	-42.9	-45.6	17.7	0.00e+00	0	44	0	648019968	56	5214
2026-01-08 23:53:53.38	345.81	86.03	-43.1	-45.8	17.4	0.00e+00	0	44	0	649068544	57	4995
2026-01-08 23:53:54.67	339.83	86.58	-44.0	-47.0	16.3	0.00e+00	0	44	0	651165696	58	5461
2026-01-08 23:53:55.39	335.62	86.86	-45.1	-48.7	14.6	0.00e+00	0	44	0	653262848	61	5585
2026-01-08 23:53:56.67	326.06	87.31	-44.5	-47.8	15.6	0.00e+00	0	44	0	655360000	60	5289
2026-01-08 23:53:57.39	319.28	87.52	-45.6	-49.8	13.6	0.00e+00	0	44	0	656408576	61	6314
2026-01-08 23:53:58.74	303.58	87.79	-46.6	-52.1	10.7	1.74e-02	0	44	0	659554304	65	6520
2026-01-08 23:53:59.46	293.92	87.86	-45.6	-49.7	13.8	3.58e-04	0	44	0	660602880	62	5878
2026-01-08 23:54:00.75	276.19	87.82	-45.9	-50.5	12.9	1.29e-05	0	44	0	662700032	62	6488
2026-01-08 23:54:01.46	267.15	87.72	-45.7	-50.2	12.9	1.10e-04	0	44	0	663748608	63	5881
2026-01-08 23:54:02.75	253.30	87.40	-43.6	-46.6	16.7	0.00e+00	0	44	0	666894336	59	4877
2026-01-08 23:54:03.47	247.11	87.18	-44.1	-47.2	16.1	0.00e+00	0	44	0	667942912	59	5276
2026-01-08 23:54:04.76	238.37	86.70	-44.4	-47.9	15.5	7.00e-07	0	44	0	670040064	60	5380
2026-01-08 23:54:05.47	234.60	86.41	-44.0	-47.2	16.1	0.00e+00	0	44	0	672137216	60	4969
2026-01-08 23:54:06.76	229.14	85.86	-43.0	-45.7	17.6	0.00e+00	0	44	0	674234368	58	4665
2026-01-08 23:54:07.57	226.41	85.50	-42.5	-45.0	18.2	0.00e+00	0	44	0	675282944	56	4819
2026-01-08 23:54:08.72	223.23	84.97	-43.0	-45.7	17.6	0.00e+00	0	44	0	677380096	56	5227
2026-01-08 23:54:09.58	221.26	84.56	-43.4	-46.4	17.1	0.00e+00	0	44	0	679477248	57	5342
2026-01-08 23:54:10.73	219.05	84.02	-42.7	-45.3	17.9	0.00e+00	0	44	0	681574400	57	4739
2026-01-08 23:54:11.86	217.24	83.47	-41.9	-44.4	18.7	0.00e+00	0	44	0	683671552	55	4762
2026-01-08 23:54:12.72	216.06	83.06	-41.5	-43.9	19.1	0.00e+00	0	44	0	685768704	55	4511
2026-01-08 23:54:13.86	214.69	82.50	-41.8	-44.2	18.8	0.00e+00	0	44	0	687865856	54	4944
2026-01-08 23:54:14.72	213.79	82.08	-42.5	-45.0	18.1	0.00e+00	0	44	0	688914432	55	5112
2026-01-08 23:54:15.87	212.73	81.52	-44.1	-47.2	16.1	0.00e+00	0	44	0	691011584	58	5533
2026-01-08 23:54:16.73	212.03	81.09	-43.4	-46.2	17.0	0.00e+00	0	44	0	693108736	58	4966
2026-01-08 23:54:17.89	211.18	80.52	-42.8	-45.4	17.7	0.00e+00	0	44	0	695205888	57	4796
2026-01-08 23:54:18.75	210.61	80.10	-43.7	-46.6	16.8	0.00e+00	0	44	0	696254464	57	5482
2026-01-08 23:54:19.90	209.93	79.53	-42.9	-45.5	17.7	0.00e+00	0	44	0	698351616	57	4823
2026-01-08 23:54:20.76	209.46	79.11	-43.5	-46.3	16.9	0.00e+00	0	44	0	700448768	57	5339
2026-01-08 23:54:22.05	208.83	78.47	-43.7	-46.6	16.7	0.00e+00	0	44	0	702545920	58	5186
2026-01-08 23:54:22.76	208.52	78.13	-43.7	-46.6	16.7	0.00e+00	0	44	0	704643072	58	5181
2026-01-08 23:54:24.26	207.91	77.39	-43.1	-45.8	17.6	0.00e+00	0	44	0	706740224	58	4710
2026-01-08 23:54:24.98	207.64	77.04	-42.5	-45.0	18.2	0.00e+00	0	44	0	708837376	57	4582
2026-01-08 23:54:26.26	207.20	76.41	-42.9	-45.5	17.7	0.00e+00	0	44	0	710934528	56	5113
2026-01-08 23:54:26.98	206.97	76.06	-42.8	-45.4	17.9	0.00e+00	0	44	0	711983104	56	5053
2026-01-08 23:54:28.27	206.59	75.44	-43.4	-46.1	17.2	0.00e+00	0	44	0	714080256	57	5180
2026-01-08 23:54:28.99	206.39	75.09	-43.6	-46.4	17.1	0.00e+00	0	44	0	716177408	59	4813
2026-01-08 23:54:30.28	206.05	74.47	-43.6	-46.4	17.2	0.00e+00	0	44	0	718274560	58	5095
2026-01-08 23:54:31.00	205.88	74.12	-43.0	-45.6	17.7	0.00e+00	0	44	0	719323136	57	4899
2026-01-08 23:54:32.29	205.59	73.50	-44.2	-47.2	16.1	0.00e+00	0	44	0	722468864	59	5247
2026-01-08 23:54:33.00	205.44	73.16	-44.1	-47.1	16.2	0.00e+00	0	44	0	723517440	59	5169
2026-01-08 23:54:34.29	205.18	72.55	-44.7	-48.0	15.4	0.00e+00	0	44	0	725614592	60	5433
2026-01-08 23:54:35.01	205.04	72.21	-44.8	-48.3	15.1	0.00e+00	0	44	0	726663168	60	5593
2026-01-08 23:54:36.30	204.81	71.60	-45.7	-49.7	13.8	2.20e-06	0	44	0	729808896	62	5881
2026-01-08 23:54:37.21	204.66	71.17	-45.9	-50.1	13.0	4.27e-05	0	44	0	730857472	63	5849
2026-01-08 23:54:38.21	204.50	70.70	-46.3	-50.5	13.0	4.80e-05	0	44	0	732954624	63	6089
2026-01-08 23:54:39.21	204.35	70.23	-46.6	-51.2	12.3	1.08e-04	0	44	0	735051776	63	6609
2026-01-08 23:54:40.22	204.20	69.76	-46.6	-51.2	12.0	1.82e-03	0	44	0	737148928	65	5909
2026-01-08 23:54:41.22	204.06	69.30	-45.9	-49.8	13.7	3.44e-04	0	44	0	739246080	63	5608
2026-01-08 23:54:42.23	203.93	68.84	-46.0	-49.8	13.2	9.10e-06	0	44	0	740294656	63	5609
2026-01-08 23:54:43.23	203.81	68.38	-47.0	-51.9	11.5	4.10e-04	0	44	0	742391808	64	6739
2026-01-08 23:54:44.26	203.69	67.91	-44.9	-48.2	15.2	1.95e-04	0	44	0	744488960	61	5225
2026-01-08 23:54:45.29	203.57	67.44	-44.3	-47.2	16.3	0.00e+00	0	44	0	746586112	60	4976
2026-01-08 23:54:46.30	203.46	66.99	-44.9	-48.1	15.4	0.00e+00	0	44	0	748683264	60	5491
2026-01-08 23:54:47.36	203.35	66.51	-44.0	-46.9	16.6	0.00e+00	0	44	0	750780416	60	4770
2026-01-08 23:54:48.25	203.26	66.12	-43.4	-46.0	17.3	0.00e+00	0	44	0	751828992	58	4854
2026-01-08 23:54:49.27	203.17	65.66	-43.6	-46.4	17.0	0.00e+00	0	44	0	753926144	58	5045
2026-01-08 23:54:50.47	203.06	65.14	-43.4	-46.1	17.1	0.00e+00	0	44	0	756023296	58	4925
2026-01-08 23:54:51.36	202.98	64.75	-42.9	-45.5	17.8	0.00e+00	0	44	0	758120448	57	4826
2026-01-08 23:54:52.50	202.89	64.25	-44.0	-47.0	16.4	0.00e+00	0	44	0	760217600	58	5413
2026-01-08 23:54:53.41	202.81	63.85	-44.4	-47.6	15.8	0.00e+00	0	44	0	761266176	60	5181
2026-01-08 23:54:54.41	202.74	63.42	-43.7	-46.5	16.9	0.00e+00	0	44	0	763363328	59	4840
2026-01-08 23:54:55.41	202.66	62.99	-43.4	-46.2	17.2	0.00e+00	0	44	0	765460480	58	4948
2026-01-08 23:54:56.42	202.59	62.56	-43.5	-46.3	17.2	0.00e+00	0	44	0	767557632	58	5019
2026-01-08 23:54:57.42	202.52	62.14	-42.5	-45.0	18.3	0.00e+00	0	44	0	769654784	56	4816
2026-01-08 23:54:58.43	202.45	61.72	-41.3	-43.5	19.4	0.00e+00	0	44	0	770703360	54	4578
2026-01-08 23:54:59.43	202.39	61.30	-41.3	-43.6	19.4	0.00e+00	0	44	0	772800512	53	4873
2026-01-08 23:55:00.43	202.33	60.88	-43.0	-45.7	17.6	0.00e+00	0	44	0	774897664	56	5242
2026-01-08 23:55:01.43	202.27	60.47	-42.8	-45.3	17.9	0.00e+00	0	44	0	776994816	57	4732
2026-01-08 23:55:02.44	202.21	60.05	-42.5	-44.9	18.3	0.00e+00	0	44	0	779091968	56	4810
2026-01-08 23:55:03.44	202.15	59.65	-41.8	-44.0	19.1	0.00e+00	0	44	0	780140544	55	4563
2026-01-08 23:55:04.45	202.10	59.24	-41.5	-43.6	19.3	0.00e+00	0	44	0	782237696	55	4384
2026-01-08 23:55:05.45	202.05	58.84	-42.5	-44.9	18.2	0.00e+00	0	44	0	784334848	55	5050
2026-01-08 23:55:06.50	201.99	58.42	-43.4	-46.0	17.4	0.00e+00	0	44	0	786432000	57	5115
2026-01-08 23:55:07.40	201.95	58.06	-43.9	-46.6	16.7	0.00e+00	0	44	0	787480576	58	5200
2026-01-08 23:55:08.41	201.90	57.66	-43.3	-45.9	17.4	0.00e+00	0	44	0	789577728	58	4804
2026-01-08 23:55:09.41	201.86	57.27	-43.0	-45.6	17.7	0.00e+00	0	44	0	791674880	58	4602
2026-01-08 23:55:10.42	201.81	56.87	-43.0	-45.5	17.8	0.00e+00	0	44	0	793772032	57	4838
2026-01-08 23:55:11.42	201.77	56.49	-42.9	-45.4	17.8	0.00e+00	0	44	0	795869184	57	4795
2026-01-08 23:55:12.42	201.73	56.10	-43.2	-45.9	17.4	0.00e+00	0	44	0	796917760	57	5047
2026-01-08 23:55:13.42	201.69	55.72	-43.3	-46.0	17.3	0.00e+00	0	44	0	799014912	57	5103
2026-01-08 23:55:14.42	201.65	55.34	-42.7	-45.2	18.0	0.00e+00	0	44	0	801112064	57	4652
2026-01-08 23:55:15.43	201.61	54.96	-42.4	-44.8	18.5	0.00e+00	0	44	0	803209216	56	4737
2026-01-08 23:55:16.43	201.57	54.59	-42.4	-44.7	18.6	0.00e+00	0	44	0	805306368	56	4695
2026-01-08 23:55:17.43	201.53	54.22	-42.5	-44.9	18.3	0.00e+00	0	44	0	806354944	56	4802
2026-01-08 23:55:18.44	201.50	53.85	-43.8	-46.6	16.8	0.00e+00	0	44	0	808452096	58	5170
2026-01-08 23:55:19.45	201.46	53.48	-43.8	-46.6	16.7	0.00e+00	0	44	0	810549248	59	4902
2026-01-08 23:55:20.45	201.43	53.12	-42.8	-45.3	17.9	0.00e+00	0	44	0	812646400	57	4733
2026-01-08 23:55:21.45	201.40	52.76	-42.7	-45.1	18.2	0.00e+00	0	44	0	814743552	57	4621
2026-01-08 23:55:22.46	201.36	52.39	-43.9	-46.8	16.6	0.00e+00	0	44	0	815792128	58	5289
2026-01-08 23:55:23.46	201.33	52.04	-44.8	-48.1	15.6	0.00e+00	0	44	0	817889280	60	5474
2026-01-08 23:55:24.46	201.30	51.69	-44.7	-47.9	15.5	0.00e+00	0	44	0	819986432	60	5358
2026-01-08 23:55:25.46	201.27	51.34	-45.1	-48.5	14.9	7.00e-07	0	44	0	822083584	61	5432
2026-01-08 23:55:26.46	201.25	50.99	-45.6	-49.4	14.0	7.00e-07	0	44	0	823132160	61	6032
2026-01-08 23:55:27.47	201.22	50.64	-45.8	-49.8	13.6	7.00e-07	0	44	0	825229312	62	5949
2026-01-08 23:55:28.47	201.19	50.30	-44.8	-48.2	15.2	0.00e+00	0	44	0	827326464	61	5226
2026-01-08 23:55:29.47	201.16	49.96	-45.1	-48.8	14.7	0.00e+00	0	44	0	829423616	61	5598
2026-01-08 23:55:30.48	201.14	49.62	-45.3	-49.1	14.3	7.00e-07	0	44	0	831520768	61	5792
2026-01-08 23:55:31.48	201.11	49.28	-46.0	-50.1	13.2	6.80e-06	0	44	0	833617920	62	6199
2026-01-08 23:55:32.48	201.09	48.95	-46.1	-50.4	13.0	7.60e-06	0	44	0	834666496	62	6381
2026-01-08 23:55:33.49	201.06	48.62	-46.9	-52.2	11.1	2.49e-04	0	44	0	836763648	64	6990
2026-01-08 23:55:34.49	201.04	48.29	-46.6	-51.7	11.5	8.12e-04	0	44	0	838860800	64	6635
2026-01-08 23:55:35.49	201.02	47.97	-46.6	-51.7	11.7	1.43e-03	0	44	0	840957952	64	6597
2026-01-08 23:55:36.50	201.00	47.64	-45.3	-48.9	14.5	8.30e-06	0	44	0	842006528	62	5400
2026-01-08 23:55:37.50	200.97	47.32	-44.5	-47.6	15.8	0.00e+00	0	44	0	844103680	61	4891
2026-01-08 23:55:38.50	200.95	47.00	-43.6	-46.3	17.0	0.00e+00	0	44	0	846200832	59	4743
2026-01-08 23:55:39.50	200.93	46.69	-43.3	-45.9	17.4	0.00e+00	0	44	0	848297984	58	4790
2026-01-08 23:55:40.51	200.91	46.37	-43.6	-46.3	17.1	0.00e+00	0	44	0	850395136	58	5024
2026-01-08 23:55:41.51	200.89	46.06	-43.9	-46.7	16.6	0.00e+00	0	44	0	851443712	58	5270
2026-01-08 23:55:42.51	200.87	45.75	-44.1	-47.0	16.3	0.00e+00	0	44	0	853540864	58	5447
2026-01-08 23:55:43.52	200.85	45.44	-44.9	-48.2	15.0	0.00e+00	0	44	0	855638016	60	5552
2026-01-08 23:55:44.52	200.83	45.14	-46.0	-49.9	13.5	9.10e-06	0	44	0	857735168	63	5713
2026-01-08 23:55:45.52	200.82	44.84	-46.5	-50.9	12.5	7.78e-05	0	44	0	859832320	63	6402
2026-01-08 23:55:46.53	200.80	44.54	-46.3	-50.6	12.6	2.79e-04	0	44	0	860880896	64	5820
2026-01-08 23:55:47.53	200.78	44.24	-45.6	-49.3	14.0	3.35e-05	0	44	0	862978048	63	5330
2026-01-08 23:55:48.54	200.76	43.94	-45.2	-48.7	14.7	7.00e-07	0	44	0	865075200	62	5250
2026-01-08 23:55:49.54	200.75	43.65	-44.2	-47.2	16.1	0.00e+00	0	44	0	867172352	60	4975
2026-01-08 23:55:50.54	200.73	43.36	-44.1	-47.0	16.4	0.00e+00	0	44	0	869269504	60	4832
2026-01-08 23:55:51.54	200.71	43.07	-44.0	-46.8	16.5	0.00e+00	0	44	0	870318080	59	5005
2026-01-08 23:55:52.55	200.70	42.78	-43.4	-46.1	17.2	0.00e+00	0	44	0	872415232	58	4879
2026-01-08 23:55:53.55	200.68	42.50	-43.4	-46.1	17.2	0.00e+00	0	44	0	874512384	58	4894
2026-01-08 23:55:54.55	200.67	42.22	-44.2	-47.2	16.2	0.00e+00	0	44	0	876609536	59	5227
2026-01-08 23:55:55.55	200.65	41.94	-44.9	-48.1	15.2	0.00e+00	0	44	0	878706688	60	5509
2026-01-08 23:55:56.55	200.64	41.66	-45.6	-49.3	14.0	0.00e+00	0	44	0	879755264	61	5991
2026-01-08 23:55:57.56	200.63	41.38	-45.7	-49.5	13.8	3.00e-06	0	44	0	881852416	62	5784
2026-01-08 23:55:58.56	200.61	41.11	-45.3	-48.8	14.7	7.00e-07	0	44	0	883949568	62	5280
2026-01-08 23:55:59.56	200.60	40.84	-44.6	-47.8	15.5	0.00e+00	0	44	0	886046720	61	4986
2026-01-08 23:56:00.57	200.59	40.57	-44.4	-47.5	16.0	0.00e+00	0	44	0	887095296	60	5102
2026-01-08 23:56:01.57	200.57	40.30	-45.1	-48.5	14.9	0.00e+00	0	44	0	889192448	60	5739
2026-01-08 23:56:02.57	200.56	40.04	-44.7	-48.0	15.5	0.00e+00	0	44	0	891289600	60	5425
2026-01-08 23:56:03.58	200.55	39.77	-45.1	-48.6	14.9	0.00e+00	0	44	0	893386752	60	5802
2026-01-08 23:56:04.58	200.54	39.51	-45.1	-48.5	14.9	0.00e+00	0	44	0	895483904	61	5459
2026-01-08 23:56:05.58	200.52	39.25	-45.1	-48.5	14.9	0.00e+00	0	44	0	896532480	61	5440
2026-01-08 23:56:06.59	200.51	38.99	-44.8	-48.1	15.3	7.00e-07	0	44	0	898629632	61	5201
2026-01-08 23:56:07.59	200.50	38.74	-45.8	-49.7	13.8	7.00e-07	0	44	0	900726784	62	5865
2026-01-08 23:56:08.59	200.49	38.48	-45.9	-50.1	13.4	3.00e-06	0	44	0	902823936	62	6135
2026-01-08 23:56:09.59	200.48	38.23	-45.8	-49.8	13.5	1.44e-05	0	44	0	904921088	62	5967
2026-01-08 23:56:10.60	200.47	37.98	-46.0	-50.1	13.2	3.20e-05	0	44	0	905969664	63	5848
2026-01-08 23:56:11.76	200.46	37.69	-45.8	-49.8	13.6	1.06e-05	0	44	0	908066816	63	5607
2026-01-08 23:56:12.65	200.45	37.47	-45.4	-49.0	14.3	1.50e-06	0	44	0	910163968	62	5464
2026-01-08 23:56:13.70	200.44	37.22	-45.2	-48.7	14.7	0.00e+00	0	44	0	912261120	61	5555
2026-01-08 23:56:14.59	200.43	37.00	-45.5	-49.1	14.3	0.00e+00	0	44	0	914358272	61	5825
2026-01-08 23:56:15.73	200.42	36.73	-45.4	-49.0	14.3	5.30e-06	0	44	0	916455424	62	5430
2026-01-08 23:56:16.59	200.41	36.52	-45.8	-49.6	13.8	2.20e-06	0	44	0	917504000	62	5840
2026-01-08 23:56:17.74	200.40	36.25	-46.0	-50.0	13.3	2.36e-05	0	44	0	919601152	63	5781
2026-01-08 23:56:18.60	200.39	36.05	-45.8	-49.6	13.8	1.06e-05	0	44	0	921698304	63	5504
2026-01-08 23:56:19.75	200.38	35.78	-45.2	-48.7	14.7	2.20e-06	0	44	0	923795456	62	5247
2026-01-08 23:56:20.61	200.37	35.58	-44.9	-48.2	15.1	7.00e-07	0	44	0	924844032	61	5259
2026-01-08 23:56:21.75	200.36	35.32	-44.3	-47.3	16.1	0.00e+00	0	44	0	926941184	60	4984
2026-01-08 23:56:22.61	200.35	35.12	-44.4	-47.4	16.0	0.00e+00	0	44	0	929038336	60	5070
2026-01-08 23:56:23.90	200.34	34.83	-45.1	-48.5	14.9	0.00e+00	0	44	0	931135488	60	5754
2026-01-08 23:56:24.61	200.34	34.67	-45.4	-49.0	14.4	7.00e-07	0	44	0	932184064	61	5766
2026-01-08 23:56:25.90	200.33	34.38	-46.5	-51.0	12.4	3.50e-05	0	44	0	935329792	63	6492
2026-01-08 23:56:26.62	200.32	34.22	-47.1	-52.3	10.9	1.13e-03	0	44	0	936378368	64	7084
2026-01-08 23:56:27.91	200.31	33.94	-47.6	-53.6	9.6	1.69e-02	0	44	0	938475520	66	7329
2026-01-08 23:56:28.63	200.31	33.78	-47.9	-54.7	8.4	2.45e-02	0	44	0	940572672	66	8294
2026-01-08 23:56:29.91	200.30	33.50	-47.7	-54.1	9.1	3.26e-02	0	44	0	942669824	66	7764
2026-01-08 23:56:30.63	200.29	33.35	-47.2	-52.5	10.7	9.25e-03	0	44	0	943718400	66	6478
2026-01-08 23:56:31.92	200.28	33.07	-46.2	-50.5	12.8	2.44e-04	0	44	0	946864128	64	5787
2026-01-08 23:56:32.64	200.28	32.92	-45.9	-49.9	13.4	2.89e-05	0	44	0	947912704	63	5702
2026-01-08 23:56:33.93	200.27	32.64	-45.2	-48.7	14.6	2.20e-06	0	44	0	950009856	62	5239
2026-01-08 23:56:34.64	200.26	32.50	-44.5	-47.7	15.6	0.00e+00	0	44	0	951058432	61	4954
2026-01-08 23:56:35.93	200.25	32.23	-44.0	-47.1	16.2	0.00e+00	0	44	0	954204160	60	4872
2026-01-08 23:56:36.65	200.25	32.08	-44.2	-47.3	16.0	0.00e+00	0	44	0	955252736	60	5023
2026-01-08 23:56:38.10	200.24	31.78	-44.2	-47.3	16.0	0.00e+00	0	44	0	958398464	60	5029
2026-01-08 23:56:39.15	200.23	31.57	-44.3	-47.5	15.8	0.00e+00	0	44	0	959447040	60	5114
2026-01-08 23:56:40.03	200.23	31.39	-44.5	-47.8	15.6	0.00e+00	0	44	0	961544192	60	5299
2026-01-08 23:56:41.17	200.22	31.16	-44.8	-48.2	15.1	0.00e+00	0	44	0	963641344	60	5587
2026-01-08 23:56:42.03	200.22	30.99	-44.6	-47.9	15.5	0.00e+00	0	44	0	965738496	60	5367
2026-01-08 23:56:43.18	200.21	30.76	-44.6	-47.8	15.5	0.00e+00	0	44	0	967835648	60	5338
2026-01-08 23:56:44.04	200.20	30.59	-44.6	-47.9	15.4	0.00e+00	0	44	0	968884224	60	5387
2026-01-08 23:56:45.19	200.20	30.37	-44.7	-48.0	15.3	0.00e+00	0	44	0	970981376	60	5447
2026-01-08 23:56:46.05	200.19	30.20	-44.6	-47.9	15.4	0.00e+00	0	44	0	973078528	60	5369
2026-01-08 23:56:47.19	200.19	29.98	-44.7	-48.0	15.3	0.00e+00	0	44	0	975175680	60	5458
2026-01-08 23:56:48.12	200.18	29.80	-44.8	-48.1	15.2	7.00e-07	0	44	0	976224256	60	5525
2026-01-08 23:56:49.30	200.18	29.58	-45.2	-48.7	14.4	1.50e-06	0	44	0	979369984	61	5570
2026-01-08 23:56:50.15	200.17	29.42	-45.8	-49.7	13.7	7.00e-07	0	44	0	980418560	62	5902
2026-01-08 23:56:51.30	200.17	29.20	-46.2	-50.4	12.9	2.36e-05	0	44	0	982515712	62	6411
2026-01-08 23:56:52.16	200.16	29.04	-46.2	-50.6	12.7	5.87e-05	0	44	0	984612864	63	6172
2026-01-08 23:56:53.31	200.16	28.83	-46.2	-50.5	12.9	4.80e-05	0	44	0	986710016	63	6108
2026-01-08 23:56:54.17	200.15	28.67	-45.8	-49.9	13.4	2.21e-05	0	44	0	987758592	63	5681
2026-01-08 23:56:55.31	200.15	28.46	-45.5	-49.4	13.9	2.20e-06	0	44	0	989855744	63	5362
2026-01-08 23:56:56.17	200.14	28.31	-45.2	-48.9	14.4	0.00e+00	0	44	0	991952896	62	5346
2026-01-08 23:56:57.32	200.14	28.10	-44.7	-48.0	15.3	7.00e-07	0	44	0	994050048	61	5128
2026-01-08 23:56:58.18	200.13	27.95	-44.5	-47.8	15.7	0.00e+00	0	44	0	996147200	60	5304
2026-01-08 23:56:59.33	200.13	27.74	-43.7	-46.6	16.7	0.00e+00	0	44	0	998244352	59	4875
2026-01-08 23:57:00.20	200.13	27.59	-43.6	-46.4	16.9	0.00e+00	0	44	0	999292928	59	4768
2026-01-08 23:57:01.41	200.12	27.38	-43.4	-46.1	17.1	0.00e+00	0	44	0	1001390080	58	4895
2026-01-08 23:57:02.26	200.12	27.23	-43.1	-45.7	17.5	0.00e+00	0	44	0	1003487232	58	4693
2026-01-08 23:57:03.41	200.11	27.03	-43.1	-45.7	17.5	0.00e+00	0	44	0	1005584384	58	4687
2026-01-08 23:57:04.27	200.11	26.88	-42.9	-45.5	17.7	0.00e+00	0	44	0	1006632960	57	4862
2026-01-08 23:57:05.55	200.10	26.66	-42.9	-45.4	17.7	0.00e+00	0	44	0	1009778688	57	4811
2026-01-08 23:57:06.26	200.10	26.54	-42.7	-45.2	17.8	0.00e+00	0	44	0	1010827264	57	4698
2026-01-08 23:57:07.75	200.10	26.29	-42.9	-45.5	17.7	0.00e+00	0	44	0	1013972992	57	4815
2026-01-08 23:57:08.46	200.09	26.17	-43.0	-45.6	17.5	0.00e+00	0	44	0	1015021568	57	4911
2026-01-08 23:57:09.80	200.09	25.95	-43.3	-45.9	17.2	0.00e+00	0	44	0	1017118720	57	5097
2026-01-08 23:57:10.52	200.09	25.83	-43.4	-46.2	17.0	0.00e+00	0	44	0	1019215872	57	5230
2026-01-08 23:57:11.81	200.08	25.62	-43.9	-46.8	16.4	0.00e+00	0	44	0	1021313024	58	5293
2026-01-08 23:57:12.52	200.08	25.50	-43.9	-46.9	16.3	0.00e+00	0	44	0	1022361600	58	5367
2026-01-08 23:57:13.82	200.08	25.29	-44.1	-47.1	16.1	0.00e+00	0	44	0	1024458752	59	5204
2026-01-08 23:57:14.53	200.07	25.17	-44.2	-47.2	16.0	0.00e+00	0	44	0	1026555904	59	5250
2026-01-08 23:57:15.82	200.07	24.97	-43.8	-46.6	16.6	0.00e+00	0	44	0	1028653056	59	4922
2026-01-08 23:57:16.54	200.07	24.85	-43.8	-46.7	16.5	0.00e+00	0	44	0	1029701632	59	4964
2026-01-08 23:57:17.82	200.06	24.65	-43.7	-46.6	16.6	0.00e+00	0	44	0	1032847360	59	4892
2026-01-08 23:57:18.60	200.06	24.53	-43.2	-45.9	17.3	0.00e+00	0	44	0	1033895936	58	4788
2026-01-08 23:57:19.89	200.06	24.33	-43.0	-45.6	17.6	0.00e+00	0	44	0	1035993088	57	4878
2026-01-08 23:57:20.67	200.06	24.20	-42.8	-45.4	17.7	0.00e+00	0	44	0	1038090240	57	4785
2026-01-08 23:57:22.28	200.05	23.96	-42.6	-45.1	18.1	0.00e+00	0	44	0	1041235968	56	4890
2026-01-08 23:57:23.12	200.05	23.83	-42.6	-45.1	18.1	0.00e+00	0	44	0	1042284544	56	4896
2026-01-08 23:57:24.27	200.05	23.65	-42.5	-45.0	18.1	0.00e+00	0	44	0	1044381696	56	4852
2026-01-08 23:57:25.13	200.04	23.52	-42.7	-45.2	18.0	0.00e+00	0	44	0	1046478848	56	4941
2026-01-08 23:57:26.27	200.04	23.35	-42.8	-45.4	17.7	0.00e+00	0	44	0	1048576000	56	5076
2026-01-08 23:57:27.13	200.04	23.22	-43.0	-45.6	17.6	0.00e+00	0	44	0	1049624576	56	5183
2026-01-08 23:57:28.43	200.04	23.03	-43.1	-45.8	17.3	0.00e+00	0	44	0	1052770304	57	5003
2026-01-08 23:57:29.14	200.03	22.92	-43.4	-46.1	17.0	0.00e+00	0	44	0	1053818880	57	5206
2026-01-08 23:57:30.43	200.03	22.73	-43.5	-46.3	16.9	0.00e+00	0	44	0	1055916032	58	5020
2026-01-08 23:57:31.15	200.03	22.63	-43.7	-46.5	16.7	0.00e+00	0	44	0	1056964608	58	5147
2026-01-08 23:57:32.44	200.03	22.44	-43.8	-46.7	16.5	0.00e+00	0	44	0	1060110336	58	5238
2026-01-08 23:57:33.16	200.02	22.33	-43.8	-46.7	16.6	0.00e+00	0	44	0	1061158912	58	5223
2026-01-08 23:57:34.45	200.02	22.15	-43.8	-46.7	16.5	0.00e+00	0	44	0	1063256064	58	5247
2026-01-08 23:57:35.16	200.02	22.05	-43.6	-46.5	16.7	0.00e+00	0	44	0	1065353216	58	5110
2026-01-08 23:57:36.45	200.02	21.86	-43.4	-46.1	17.0	0.00e+00	0	44	0	1067450368	58	4894
2026-01-08 23:57:37.17	200.02	21.76	-43.4	-46.2	17.0	0.00e+00	0	44	0	1068498944	58	4932
2026-01-08 23:57:38.49	200.01	21.58	-43.3	-46.0	17.2	0.00e+00	0	44	0	1071644672	58	4832
2026-01-08 23:57:39.20	200.01	21.48	-43.1	-45.8	17.4	0.00e+00	0	44	0	1072693248	58	4710
2026-01-08 23:57:40.56	200.01	21.29	-43.3	-45.9	17.2	0.00e+00	0	44	0	1074790400	58	4810
2026-01-08 23:57:41.27	200.01	21.19	-43.4	-46.1	17.0	0.00e+00	0	44	0	1076887552	58	4917
2026-01-08 23:57:42.56	200.01	21.01	-43.3	-46.1	17.1	0.00e+00	0	44	0	1078984704	58	4878
2026-01-08 23:57:43.28	200.00	20.91	-43.3	-46.0	17.2	0.00e+00	0	44	0	1080033280	58	4844
2026-01-08 23:57:44.70	200.00	20.72	-43.3	-46.0	17.2	0.00e+00	0	44	0	1083179008	58	4830
2026-01-08 23:57:45.69	200.00	20.59	-43.4	-46.2	17.0	0.00e+00	0	44	0	1084227584	58	4927
2026-01-08 23:57:46.99	200.00	20.41	-43.4	-46.2	17.0	0.00e+00	0	44	0	1087373312	58	4952
2026-01-08 23:57:47.73	200.00	20.31	-43.6	-46.5	16.6	0.00e+00	0	44	0	1088421888	58	5134
2026-01-08 23:57:49.01	200.00	20.14	-43.8	-46.8	16.4	0.00e+00	0	44	0	1090519040	58	5314
2026-01-08 23:57:49.73	199.99	20.05	-43.8	-46.8	16.4	0.00e+00	0	44	0	1092616192	58	5291
2026-01-08 23:57:51.02	199.99	19.88	-43.8	-46.8	16.4	0.00e+00	0	44	0	1094713344	58	5315
2026-01-08 23:57:51.74	199.99	19.78	-43.9	-46.9	16.3	0.00e+00	0	44	0	1095761920	58	5396
2026-01-08 23:57:53.02	199.99	19.62	-43.9	-47.0	16.2	0.00e+00	0	44	0	1098907648	58	5420
2026-01-08 23:57:53.74	199.99	19.52	-44.0	-47.1	16.1	0.00e+00	0	44	0	1099956224	58	5511
2026-01-08 23:57:55.05	199.99	19.36	-44.0	-47.1	16.1	0.00e+00	0	44	0	1102053376	59	5206
2026-01-08 23:57:55.76	199.99	19.27	-44.0	-47.1	16.0	0.00e+00	0	44	0	1103101952	59	5200
2026-01-08 23:57:57.13	199.98	19.09	-44.4	-47.6	15.5	0.00e+00	0	44	0	1106247680	59	5515
2026-01-08 23:57:57.85	199.98	19.00	-44.3	-47.6	15.6	0.00e+00	0	44	0	1107296256	59	5494
2026-01-08 23:57:59.17	199.98	18.83	-44.4	-47.8	15.4	0.00e+00	0	44	0	1110441984	59	5615
2026-01-08 23:57:59.88	199.98	18.74	-44.6	-48.2	15.0	0.00e+00	0	44	0	1111490560	60	5561
2026-01-08 23:58:01.21	199.98	18.58	-44.7	-48.2	15.0	7.00e-07	0	44	0	1113587712	60	5579
2026-01-08 23:58:01.92	199.98	18.49	-44.9	-48.5	14.6	0.00e+00	0	44	0	1114636288	60	5745
2026-01-08 23:58:03.26	199.98	18.33	-45.3	-49.1	14.1	2.20e-06	0	44	0	1117782016	61	5846
2026-01-08 23:58:03.97	199.98	18.24	-45.3	-49.1	14.1	3.00e-06	0	44	0	1118830592	61	5819
2026-01-08 23:58:05.26	199.98	18.08	-45.5	-49.5	13.7	2.20e-06	0	44	0	1120927744	61	6119
2026-01-08 23:58:05.98	199.98	17.99	-45.7	-49.9	13.3	1.29e-05	0	44	0	1123024896	62	6050
2026-01-08 23:58:07.27	199.97	17.84	-45.7	-49.9	13.3	1.67e-05	0	44	0	1125122048	62	6033
2026-01-08 23:58:07.98	199.97	17.75	-46.0	-50.4	13.1	1.22e-05	0	44	0	1126170624	62	6358
2026-01-08 23:58:09.27	199.97	17.60	-45.8	-50.1	13.1	3.28e-05	0	44	0	1129316352	62	6155
2026-01-08 23:58:09.98	199.97	17.51	-45.8	-50.0	13.3	2.36e-05	0	44	0	1130364928	62	6079
2026-01-08 23:58:11.28	199.97	17.36	-45.7	-49.8	13.4	2.89e-05	0	44	0	1132462080	62	5984
2026-01-08 23:58:11.99	199.97	17.27	-45.7	-49.7	13.5	1.44e-05	0	44	0	1134559232	62	5922
2026-01-08 23:58:13.28	199.97	17.12	-45.4	-49.3	13.9	7.60e-06	0	44	0	1136656384	62	5636
2026-01-08 23:58:14.08	199.97	17.03	-45.2	-49.1	14.2	3.00e-06	0	44	0	1137704960	62	5473
2026-01-08 23:58:15.54	199.97	16.86	-45.2	-49.0	14.3	3.00e-06	0	44	0	1140850688	62	5417
2026-01-08 23:58:16.26	199.97	16.78	-45.2	-49.0	14.3	7.00e-07	0	44	0	1141899264	62	5407
2026-01-08 23:58:17.55	199.97	16.63	-45.1	-48.9	14.3	0.00e+00	0	44	0	1143996416	62	5348
2026-01-08 23:58:18.27	199.97	16.55	-45.0	-48.6	14.5	0.00e+00	0	44	0	1146093568	62	5187
2026-01-08 23:58:19.56	199.97	16.40	-44.9	-48.5	14.6	0.00e+00	0	44	0	1148190720	61	5451
2026-01-08 23:58:20.29	199.97	16.32	-44.9	-48.6	14.6	7.00e-07	0	44	0	1149239296	61	5474
2026-01-08 23:58:21.58	199.96	16.17	-44.8	-48.3	14.9	0.00e+00	0	44	0	1152385024	61	5329
2026-01-08 23:58:22.29	199.96	16.09	-44.6	-48.1	15.1	0.00e+00	0	44	0	1153433600	60	5491
2026-01-08 23:58:23.59	199.96	15.94	-44.4	-47.8	15.3	0.00e+00	0	44	0	1155530752	60	5326
2026-01-08 23:58:24.30	199.96	15.87	-44.6	-48.0	15.2	0.00e+00	0	44	0	1156579328	60	5420
2026-01-08 23:58:25.59	199.96	15.72	-44.5	-47.9	15.3	0.00e+00	0	44	0	1159725056	60	5342
2026-01-08 23:58:26.31	199.96	15.64	-44.4	-47.7	15.4	0.00e+00	0	44	0	1160773632	60	5261
2026-01-08 23:58:27.60	199.96	15.50	-44.4	-47.7	15.4	0.00e+00	0	44	0	1162870784	60	5278
2026-01-08 23:58:28.32	199.96	15.42	-44.4	-47.8	15.4	0.00e+00	0	44	0	1164967936	60	5309
2026-01-08 23:58:29.67	199.96	15.28	-44.3	-47.7	15.5	0.00e+00	0	44	0	1167065088	60	5227
2026-01-08 23:58:30.39	199.96	15.20	-44.5	-47.9	15.2	0.00e+00	0	44	0	1168113664	60	5371
2026-01-08 23:58:31.68	199.96	15.06	-44.5	-48.0	15.2	0.00e+00	0	44	0	1171259392	60	5416
2026-01-08 23:58:32.40	199.96	14.98	-44.4	-47.7	15.4	0.00e+00	0	44	0	1172307968	60	5260
2026-01-08 23:58:33.68	199.96	14.84	-44.6	-48.0	15.1	0.00e+00	0	44	0	1174405120	60	5462
2026-01-08 23:58:34.40	199.96	14.77	-44.5	-47.9	15.1	0.00e+00	0	44	0	1176502272	60	5402
2026-01-08 23:58:35.69	199.96	14.63	-44.7	-48.2	14.9	0.00e+00	0	44	0	1178599424	60	5568
2026-01-08 23:58:36.41	199.96	14.55	-44.8	-48.3	14.9	0.00e+00	0	44	0	1179648000	60	5629
2026-01-08 23:58:37.70	199.96	14.42	-44.6	-48.0	15.1	0.00e+00	0	44	0	1181745152	60	5459
2026-01-08 23:58:38.42	199.96	14.34	-44.7	-48.2	14.9	7.00e-07	0	44	0	1183842304	60	5553
2026-01-08 23:58:39.70	199.96	14.21	-44.7	-48.2	14.9	0.00e+00	0	44	0	1185939456	60	5564
2026-01-08 23:58:40.53	199.96	14.12	-44.7	-48.2	14.9	0.00e+00	0	44	0	1188036608	60	5551
2026-01-08 23:58:41.68	199.96	14.01	-44.6	-48.0	15.1	0.00e+00	0	44	0	1190133760	60	5434
2026-01-08 23:58:42.54	199.96	13.92	-44.6	-48.0	15.1	0.00e+00	0	44	0	1191182336	60	5419
2026-01-08 23:58:43.69	199.96	13.80	-44.6	-48.1	15.0	0.00e+00	0	44	0	1193279488	60	5495
2026-01-08 23:58:44.55	199.96	13.71	-44.6	-48.1	15.0	0.00e+00	0	44	0	1195376640	60	5512
2026-01-08 23:58:45.71	199.96	13.59	-44.5	-47.9	15.3	0.00e+00	0	44	0	1197473792	60	5353
2026-01-08 23:58:46.57	199.96	13.51	-44.6	-48.0	15.2	0.00e+00	0	44	0	1198522368	60	5422
2026-01-08 23:58:47.72	199.96	13.39	-44.7	-48.2	15.0	0.00e+00	0	44	0	1200619520	60	5540
2026-01-08 23:58:48.58	199.96	13.31	-44.7	-48.1	14.9	0.00e+00	0	44	0	1202716672	60	5527
2026-01-08 23:58:49.72	199.96	13.19	-44.5	-48.0	15.1	0.00e+00	0	44	0	1204813824	60	5409
2026-01-08 23:58:50.63	199.96	13.10	-44.7	-48.2	14.9	0.00e+00	0	44	0	1206910976	60	5543
2026-01-08 23:58:51.81	199.96	12.98	-44.6	-48.0	15.1	0.00e+00	0	44	0	1209008128	60	5439
2026-01-08 23:58:52.67	199.96	12.90	-44.5	-47.9	15.1	0.00e+00	0	44	0	1210056704	60	5399
2026-01-08 23:58:54.04	199.96	12.76	-44.6	-48.2	14.9	0.00e+00	0	44	0	1213202432	60	5578
2026-01-08 23:58:54.76	199.96	12.69	-44.6	-48.1	15.0	0.00e+00	0	44	0	1214251008	60	5512
2026-01-08 23:58:56.05	199.96	12.57	-44.6	-48.1	14.9	0.00e+00	0	44	0	1216348160	60	5524
2026-01-08 23:58:56.76	199.96	12.50	-44.5	-47.9	15.1	0.00e+00	0	44	0	1218445312	60	5396
2026-01-08 23:58:58.06	199.96	12.37	-44.5	-48.0	15.1	0.00e+00	0	44	0	1220542464	60	5426
2026-01-08 23:58:58.77	199.96	12.31	-44.5	-48.1	14.9	0.00e+00	0	44	0	1221591040	60	5477
2026-01-08 23:59:00.06	199.96	12.18	-44.6	-48.2	14.9	0.00e+00	0	44	0	1223688192	60	5534
2026-01-08 23:59:00.77	199.96	12.12	-44.6	-48.2	14.9	0.00e+00	0	44	0	1225785344	60	5573
2026-01-08 23:59:02.07	199.96	11.99	-44.8	-48.5	14.5	0.00e+00	0	44	0	1227882496	60	5763
2026-01-08 23:59:02.78	199.96	11.92	-44.6	-48.3	14.8	0.00e+00	0	44	0	1228931072	60	5607
2026-01-08 23:59:04.07	199.96	11.80	-44.8	-48.5	14.5	0.00e+00	0	44	0	1232076800	60	5750
2026-01-08 23:59:04.79	199.96	11.73	-44.7	-48.4	14.7	0.00e+00	0	44	0	1233125376	60	5674
2026-01-08 23:59:06.17	199.96	11.61	-44.6	-48.2	14.8	0.00e+00	0	44	0	1235222528	60	5555
2026-01-08 23:59:07.17	199.96	11.51	-44.8	-48.6	14.4	7.00e-07	0	44	0	1237319680	60	5827
2026-01-08 23:59:08.50	199.96	11.39	-44.7	-48.5	14.6	0.00e+00	0	44	0	1240465408	60	5724
2026-01-08 23:59:09.21	199.96	11.32	-44.7	-48.3	14.7	0.00e+00	0	44	0	1241513984	60	5649
2026-01-08 23:59:10.50	199.97	11.21	-44.6	-48.2	14.9	0.00e+00	0	44	0	1243611136	60	5542
