passes_logs/2026/01/08/T1/T1__20260108_095651_SUOMI_NPP_rec.log

#Pass ID: 20260108_095651_SUOMI NPP
#Satellite: SUOMI NPP
#Configuration: NPP
#almurnet v.1.7.20251203
#Start time: 2026-01-08 09:56:51

#Version: 2.0.20230620
#Station: T1
#Location: 37.570604 lon 55.790049 lat
#TLE: 1 37849U 11061A   26005.94084933  .00000134  00000+0  84554-4 0  9990
#TLE: 2 37849  98.7803 308.0679 0002567  79.1029 281.0436 14.19522657735426

#Time	Az	El	Level	Level2	SNR	BER	BlckErr	Temp	State	Recorded	gain1	gain2
2026-01-08 09:56:51.98	158.64	5.02	-50.0	-65.3	3.8	1.49e+00	0	39	0	0	71	21222
2026-01-08 09:56:52.97	158.64	5.09	-49.9	-65.1	3.8	1.49e+00	0	39	104	0	71	20553
2026-01-08 09:56:53.98	158.64	5.17	-49.9	-65.0	3.8	1.49e+00	0	39	104	0	71	20385
2026-01-08 09:56:54.99	158.64	5.24	-49.9	-65.0	3.8	1.49e+00	0	39	104	0	71	20377
2026-01-08 09:56:55.99	158.64	5.31	-49.9	-65.0	3.8	1.49e+00	0	40	104	0	71	20493
2026-01-08 09:56:56.99	158.64	5.38	-49.9	-65.1	3.8	1.49e+00	0	39	104	0	71	20716
2026-01-08 09:56:58.00	158.63	5.46	-49.9	-65.1	3.8	1.49e+00	0	39	104	0	71	20743
2026-01-08 09:56:59.00	158.63	5.53	-49.9	-65.2	3.8	1.49e+00	0	40	104	0	71	20845
2026-01-08 09:57:00.01	158.63	5.61	-49.8	-65.2	3.8	1.49e+00	0	40	104	0	71	20892
2026-01-08 09:57:01.01	158.63	5.68	-49.9	-65.2	3.8	1.49e+00	0	40	104	0	71	20968
2026-01-08 09:57:02.01	158.63	5.75	-49.9	-65.2	3.8	1.49e+00	0	40	104	0	71	20857
2026-01-08 09:57:03.02	158.63	5.83	-49.8	-65.1	3.8	1.49e+00	0	40	104	0	71	20656
2026-01-08 09:57:04.02	158.63	5.90	-49.9	-64.9	3.8	1.49e+00	0	40	104	0	71	20206
2026-01-08 09:57:05.03	158.62	5.98	-49.8	-64.8	3.8	1.49e+00	0	40	104	0	71	19920
2026-01-08 09:57:06.03	158.62	6.05	-49.8	-64.6	3.8	1.49e+00	0	40	104	0	71	19468
2026-01-08 09:57:07.04	158.62	6.13	-49.8	-64.5	3.8	1.49e+00	0	40	104	0	71	19219
2026-01-08 09:57:08.04	158.62	6.20	-49.8	-64.3	3.8	1.49e+00	0	40	104	0	71	18821
2026-01-08 09:57:09.05	158.62	6.28	-49.8	-64.2	3.8	1.49e+00	0	40	104	0	71	18724
2026-01-08 09:57:10.05	158.62	6.35	-49.8	-64.2	3.8	1.49e+00	0	40	104	0	71	18590
2026-01-08 09:57:11.05	158.62	6.43	-49.8	-64.1	3.8	1.49e+00	0	40	104	0	71	18442
2026-01-08 09:57:12.06	158.61	6.51	-49.8	-64.1	3.8	1.49e+00	0	40	104	0	71	18459
2026-01-08 09:57:13.06	158.61	6.58	-49.8	-64.2	3.8	1.49e+00	0	40	104	0	71	18707
2026-01-08 09:57:14.07	158.61	6.66	-49.8	-64.5	3.8	1.49e+00	0	40	104	0	71	19267
2026-01-08 09:57:15.07	158.61	6.74	-49.8	-64.5	3.8	1.49e+00	0	40	104	0	71	19301
2026-01-08 09:57:16.08	158.61	6.81	-49.8	-64.6	3.8	1.49e+00	0	40	104	0	71	19550
2026-01-08 09:57:17.08	158.61	6.89	-49.8	-64.7	3.8	1.49e+00	0	40	104	0	71	19632
2026-01-08 09:57:18.08	158.60	6.97	-49.8	-64.6	3.8	1.49e+00	0	40	104	0	71	19573
2026-01-08 09:57:19.09	158.60	7.05	-49.8	-64.5	3.8	1.49e+00	0	40	104	0	71	19276
2026-01-08 09:57:20.09	158.60	7.12	-49.8	-64.2	3.8	1.49e+00	0	40	104	0	71	18536
2026-01-08 09:57:21.09	158.60	7.20	-49.7	-63.7	3.8	1.49e+00	0	40	104	0	71	17526
2026-01-08 09:57:22.10	158.60	7.28	-49.7	-63.1	3.8	1.49e+00	0	40	104	0	71	16456
2026-01-08 09:57:23.10	158.60	7.36	-49.7	-62.6	3.9	1.48e+00	0	41	104	0	71	15470
2026-01-08 09:57:24.11	158.59	7.44	-49.6	-61.7	4.2	1.47e+00	0	40	0	0	71	13917
2026-01-08 09:57:25.11	158.59	7.52	-49.5	-60.5	4.5	1.29e+00	0	40	0	1048576	71	12209
2026-01-08 09:57:26.11	158.59	7.60	-49.4	-59.7	5.0	7.51e-01	0	41	0	2097152	70	11721
2026-01-08 09:57:27.12	158.59	7.68	-49.3	-59.1	5.3	5.43e-01	0	41	0	4194304	70	10916
2026-01-08 09:57:28.12	158.59	7.76	-49.1	-57.7	6.3	3.67e-01	0	41	0	6291456	70	9348
2026-01-08 09:57:29.13	158.58	7.84	-48.9	-56.9	6.9	2.33e-01	0	41	0	8388608	69	9043
2026-01-08 09:57:30.13	158.58	7.92	-48.8	-56.6	7.2	1.40e-01	0	41	0	10485760	69	8739
2026-01-08 09:57:31.14	158.58	8.00	-48.7	-56.1	7.7	8.46e-02	0	41	0	11534336	69	8178
2026-01-08 09:57:32.14	158.58	8.08	-48.6	-55.7	8.1	8.78e-02	0	41	0	13631488	69	7865
2026-01-08 09:57:33.15	158.58	8.16	-48.5	-55.2	8.6	3.67e-02	0	41	0	15728640	68	7856
2026-01-08 09:57:34.15	158.57	8.25	-48.4	-55.0	8.7	4.41e-02	0	41	0	17825792	68	7706
2026-01-08 09:57:35.15	158.57	8.33	-48.5	-55.3	8.4	3.64e-02	0	41	0	19922944	68	7972
2026-01-08 09:57:36.16	158.57	8.41	-48.4	-55.1	8.7	3.22e-02	0	41	0	20971520	68	7769
2026-01-08 09:57:37.16	158.57	8.49	-48.5	-55.5	8.3	5.81e-02	0	41	0	23068672	68	8099
2026-01-08 09:57:38.17	158.57	8.58	-48.7	-56.2	7.6	7.44e-02	0	41	0	25165824	68	8762
2026-01-08 09:57:39.17	158.56	8.66	-48.9	-56.9	7.0	1.10e-01	0	41	0	27262976	68	9533
2026-01-08 09:57:40.18	158.56	8.74	-49.0	-57.5	6.4	2.20e-01	0	41	0	28311552	68	10247
2026-01-08 09:57:41.18	158.56	8.82	-49.2	-58.6	5.6	3.65e-01	0	41	0	30408704	69	10923
2026-01-08 09:57:42.18	158.56	8.91	-49.4	-60.0	4.8	5.05e-01	0	41	0	32505856	69	12878
2026-01-08 09:57:43.19	158.55	8.99	-49.5	-61.2	4.3	1.06e+00	0	41	0	34603008	69	14737
2026-01-08 09:57:44.19	158.55	9.08	-49.6	-62.3	3.9	1.40e+00	0	41	104	34603008	69	16808
2026-01-08 09:57:45.20	158.55	9.16	-48.5	-55.0	9.0	1.84e-01	0	41	0	35651584	68	7677
2026-01-08 09:57:46.20	158.55	9.25	-49.8	-64.8	3.8	1.49e+00	0	41	104	35651584	70	21243
2026-01-08 09:57:47.20	158.55	9.33	-49.2	-57.7	6.1	8.19e-01	0	41	0	35651584	70	9361
2026-01-08 09:57:48.27	158.54	9.42	-47.5	-52.4	11.5	4.17e-03	0	41	0	37748736	66	6386
2026-01-08 09:57:49.16	158.54	9.50	-49.9	-65.1	3.8	7.74e-01	0	41	104	37748736	70	21758
2026-01-08 09:57:50.29	158.54	9.60	-48.4	-54.4	9.5	2.82e-01	0	41	0	37748736	68	7197
2026-01-08 09:57:51.15	158.54	9.67	-48.4	-54.5	9.3	1.64e-02	0	41	0	39845888	68	7228
2026-01-08 09:57:52.52	158.53	9.79	-48.5	-54.7	9.3	1.10e-02	0	41	0	41943040	68	7435
2026-01-08 09:57:53.24	158.53	9.85	-47.7	-52.8	11.0	4.77e-03	0	41	0	42991616	67	6343
2026-01-08 09:57:54.53	158.53	9.96	-47.8	-53.3	10.6	2.85e-02	0	41	0	46137344	67	6659
2026-01-08 09:57:55.24	158.52	10.03	-47.5	-52.6	11.3	2.75e-03	0	41	0	47185920	67	6153
2026-01-08 09:57:56.53	158.52	10.14	-47.6	-52.8	11.0	1.11e-03	0	41	0	49283072	66	6679
2026-01-08 09:57:57.25	158.52	10.20	-47.6	-52.7	11.1	1.13e-03	0	41	0	51380224	66	6631
2026-01-08 09:57:58.53	158.52	10.32	-47.5	-52.5	11.3	2.21e-03	0	41	0	53477376	66	6448
2026-01-08 09:57:59.25	158.51	10.38	-47.7	-52.9	11.0	1.66e-03	0	41	0	54525952	66	6770
2026-01-08 09:58:00.54	158.51	10.49	-47.4	-52.3	11.6	2.41e-02	0	41	0	56623104	66	6321
2026-01-08 09:58:01.26	158.51	10.56	-47.5	-52.5	11.3	7.73e-04	0	41	0	58720256	66	6454
2026-01-08 09:58:02.55	158.50	10.67	-47.4	-52.4	11.5	1.20e-03	0	41	0	60817408	66	6355
2026-01-08 09:58:03.26	158.50	10.74	-47.3	-52.1	11.7	1.93e-02	0	41	0	61865984	66	6195
2026-01-08 09:58:04.63	158.50	10.86	-47.1	-51.7	12.2	2.25e-04	0	41	0	65011712	66	5918
2026-01-08 09:58:05.35	158.50	10.93	-47.1	-51.7	12.3	2.68e-04	0	41	0	66060288	66	5884
2026-01-08 09:58:06.64	158.49	11.04	-47.1	-51.7	12.4	3.51e-04	0	41	0	68157440	65	6238
2026-01-08 09:58:07.65	158.49	11.14	-47.2	-51.9	12.0	2.71e-04	0	42	0	70254592	65	6395
2026-01-08 09:58:08.96	158.49	11.26	-47.1	-51.7	12.1	1.62e-02	0	41	0	72351744	65	6265
2026-01-08 09:58:09.71	158.48	11.33	-47.0	-51.5	12.4	2.48e-04	0	42	0	74448896	65	6088
2026-01-08 09:58:11.00	158.48	11.45	-46.5	-50.6	13.4	2.67e-05	0	42	0	76546048	65	5470
2026-01-08 09:58:11.72	158.48	11.51	-46.6	-50.6	13.3	1.37e-05	0	41	0	77594624	64	5840
2026-01-08 09:58:13.01	158.47	11.63	-46.4	-50.3	13.7	1.52e-05	0	41	0	80740352	64	5618
2026-01-08 09:58:13.72	158.47	11.70	-46.2	-50.1	14.0	9.90e-06	0	41	0	81788928	64	5482
2026-01-08 09:58:15.01	158.47	11.82	-46.2	-50.0	14.0	1.91e-02	0	41	0	83886080	64	5462
2026-01-08 09:58:15.73	158.46	11.89	-46.1	-49.9	14.2	3.80e-06	0	41	0	85983232	64	5350
2026-01-08 09:58:17.05	158.46	12.01	-46.1	-49.7	14.3	0.00e+00	0	41	0	88080384	63	5569
2026-01-08 09:58:17.77	158.46	12.08	-45.8	-49.3	14.8	1.93e-02	0	41	0	89128960	63	5303
2026-01-08 09:58:19.06	158.45	12.21	-45.7	-49.0	15.0	0.00e+00	0	41	0	92274688	63	5150
2026-01-08 09:58:20.12	158.45	12.31	-45.5	-48.9	15.2	0.00e+00	0	41	0	93323264	63	5058
2026-01-08 09:58:20.98	158.44	12.39	-45.3	-48.5	15.6	0.00e+00	0	42	0	95420416	62	5104
2026-01-08 09:58:22.12	158.44	12.50	-45.0	-48.1	16.0	0.00e+00	0	42	0	97517568	62	4883
2026-01-08 09:58:22.98	158.44	12.58	-45.0	-48.0	16.0	0.00e+00	0	42	0	99614720	61	5145
2026-01-08 09:58:24.16	158.43	12.70	-44.7	-47.6	16.3	0.00e+00	0	42	0	101711872	61	4900
2026-01-08 09:58:25.02	158.43	12.78	-44.8	-47.7	16.3	0.00e+00	0	42	0	102760448	61	4954
2026-01-08 09:58:26.17	158.43	12.90	-44.6	-47.5	16.5	1.29e-02	0	41	0	104857600	61	4841
2026-01-08 09:58:27.03	158.42	12.98	-44.6	-47.4	16.6	0.00e+00	0	42	0	106954752	61	4808
2026-01-08 09:58:28.18	158.42	13.09	-44.6	-47.4	16.5	0.00e+00	0	42	0	109051904	61	4814
2026-01-08 09:58:29.10	158.41	13.19	-44.6	-47.5	16.5	1.79e-02	0	42	0	110100480	61	4834
2026-01-08 09:58:30.27	158.41	13.30	-44.6	-47.5	16.5	0.00e+00	0	42	0	113246208	61	4840
2026-01-08 09:58:31.14	158.41	13.39	-44.6	-47.5	16.4	0.00e+00	0	42	0	114294784	61	4862
2026-01-08 09:58:32.49	158.40	13.53	-44.8	-47.7	16.3	0.00e+00	0	42	0	117440512	61	4956
2026-01-08 09:58:33.21	158.40	13.60	-44.7	-47.6	16.4	0.00e+00	0	42	0	118489088	61	4898
2026-01-08 09:58:34.50	158.39	13.73	-44.8	-47.7	16.3	0.00e+00	0	42	0	120586240	61	4964
2026-01-08 09:58:35.22	158.39	13.80	-44.8	-47.8	16.3	0.00e+00	0	42	0	121634816	61	4989
2026-01-08 09:58:36.51	158.38	13.93	-44.7	-47.6	16.4	0.00e+00	0	42	0	124780544	61	4915
2026-01-08 09:58:37.22	158.38	14.01	-44.7	-47.6	16.4	0.00e+00	0	42	0	125829120	61	4910
2026-01-08 09:58:38.51	158.37	14.14	-44.7	-47.6	16.5	0.00e+00	0	42	0	127926272	61	4886
2026-01-08 09:58:39.23	158.37	14.22	-44.7	-47.7	16.3	0.00e+00	0	42	0	130023424	61	4963
2026-01-08 09:58:40.52	158.37	14.35	-44.7	-47.6	16.4	2.81e-03	0	42	0	132120576	61	4924
2026-01-08 09:58:41.23	158.36	14.42	-44.6	-47.4	16.6	0.00e+00	0	42	0	133169152	61	4810
2026-01-08 09:58:42.52	158.36	14.56	-44.4	-47.3	16.8	0.00e+00	0	41	0	135266304	60	4996
2026-01-08 09:58:43.24	158.35	14.64	-44.5	-47.3	16.7	0.00e+00	0	42	0	137363456	60	5032
2026-01-08 09:58:44.55	158.35	14.78	-44.4	-47.2	16.9	0.00e+00	0	42	0	139460608	60	4934
2026-01-08 09:58:45.26	158.34	14.85	-44.4	-47.1	16.9	0.00e+00	0	42	0	140509184	60	4917
2026-01-08 09:58:46.55	158.34	14.99	-44.2	-46.9	17.1	8.62e-04	0	42	0	143654912	60	4800
2026-01-08 09:58:47.27	158.33	15.07	-44.3	-47.0	17.0	0.00e+00	0	42	0	144703488	60	4838
2026-01-08 09:58:48.68	158.33	15.22	-44.1	-46.7	17.3	0.00e+00	0	42	0	147849216	60	4702
2026-01-08 09:58:49.65	158.32	15.32	-44.1	-46.8	17.2	0.00e+00	0	42	0	148897792	59	5002
2026-01-08 09:58:50.96	158.32	15.47	-44.0	-46.6	17.4	0.00e+00	0	42	0	152043520	59	4905
2026-01-08 09:58:51.73	158.31	15.55	-43.9	-46.5	17.5	0.00e+00	0	42	0	153092096	59	4825
2026-01-08 09:58:53.01	158.31	15.69	-44.0	-46.7	17.3	0.00e+00	0	42	0	155189248	59	4935
2026-01-08 09:58:53.73	158.30	15.77	-43.9	-46.6	17.3	0.00e+00	0	42	0	157286400	59	4915
2026-01-08 09:58:55.02	158.29	15.92	-43.9	-46.6	17.3	5.26e-04	0	42	0	159383552	59	4900
2026-01-08 09:58:55.74	158.29	16.00	-43.9	-46.6	17.4	0.00e+00	0	42	0	160432128	59	4891
2026-01-08 09:58:57.02	158.28	16.14	-43.7	-46.4	17.5	0.00e+00	0	42	0	162529280	59	4767
2026-01-08 09:58:57.74	158.28	16.22	-43.8	-46.5	17.5	0.00e+00	0	42	0	164626432	59	4820
2026-01-08 09:58:59.03	158.27	16.37	-43.8	-46.4	17.5	0.00e+00	0	41	0	166723584	59	4812
2026-01-08 09:58:59.75	158.27	16.45	-43.7	-46.3	17.6	0.00e+00	0	42	0	167772160	59	4754
2026-01-08 09:59:01.04	158.26	16.60	-43.7	-46.4	17.6	2.25e-04	0	42	0	170917888	59	4765
2026-01-08 09:59:01.76	158.26	16.68	-43.7	-46.3	17.6	0.00e+00	0	42	0	171966464	59	4745
2026-01-08 09:59:03.17	158.25	16.84	-43.7	-46.2	17.7	0.00e+00	0	42	0	174063616	59	4703
2026-01-08 09:59:04.16	158.24	16.96	-43.6	-46.2	17.7	0.00e+00	0	42	0	176160768	59	4676
2026-01-08 09:59:05.48	158.24	17.11	-43.5	-46.0	18.0	0.00e+00	0	42	0	179306496	59	4547
2026-01-08 09:59:06.20	158.23	17.20	-43.7	-46.3	17.7	0.00e+00	0	42	0	180355072	59	4716
2026-01-08 09:59:07.49	158.22	17.35	-43.6	-46.1	17.9	0.00e+00	0	42	0	182452224	59	4616
2026-01-08 09:59:08.21	158.22	17.43	-43.5	-46.0	17.9	0.00e+00	0	42	0	183500800	59	4592
2026-01-08 09:59:09.50	158.21	17.59	-43.8	-46.3	17.6	8.92e-05	0	42	0	186646528	59	4738
2026-01-08 09:59:10.21	158.21	17.67	-43.7	-46.2	17.7	0.00e+00	0	42	0	187695104	59	4705
2026-01-08 09:59:11.50	158.20	17.83	-43.7	-46.2	17.8	0.00e+00	0	42	0	189792256	59	4695
2026-01-08 09:59:12.22	158.19	17.91	-43.6	-46.1	17.8	0.00e+00	0	42	0	191889408	59	4639
2026-01-08 09:59:13.54	158.19	18.07	-43.7	-46.3	17.7	0.00e+00	0	42	0	193986560	59	4708
2026-01-08 09:59:14.26	158.18	18.16	-43.7	-46.2	17.7	0.00e+00	0	42	0	195035136	59	4699
2026-01-08 09:59:15.55	158.17	18.32	-43.6	-46.2	17.8	0.00e+00	0	42	0	198180864	59	4653
2026-01-08 09:59:16.27	158.17	18.41	-43.6	-46.1	17.8	0.00e+00	0	42	0	199229440	59	4626
2026-01-08 09:59:17.55	158.16	18.57	-43.6	-46.0	17.9	0.00e+00	0	42	0	201326592	59	4593
2026-01-08 09:59:18.27	158.15	18.66	-43.5	-45.9	18.0	5.79e-05	0	42	0	202375168	58	4807
2026-01-08 09:59:19.56	158.14	18.82	-43.6	-46.1	17.9	0.00e+00	0	42	0	205520896	58	4875
2026-01-08 09:59:20.28	158.14	18.91	-43.5	-45.9	18.0	0.00e+00	0	42	0	206569472	58	4812
2026-01-08 09:59:21.57	158.13	19.07	-43.5	-45.9	18.0	0.00e+00	0	42	0	208666624	58	4809
2026-01-08 09:59:22.29	158.13	19.16	-43.4	-45.9	18.1	0.00e+00	0	42	0	210763776	58	4761
2026-01-08 09:59:23.57	158.12	19.33	-43.6	-46.1	17.9	0.00e+00	0	42	0	212860928	58	4872
2026-01-08 09:59:24.29	158.11	19.42	-43.6	-46.0	18.0	0.00e+00	0	42	0	213909504	58	4865
2026-01-08 09:59:25.58	158.10	19.58	-43.6	-46.2	17.8	0.00e+00	0	42	0	217055232	58	4943
2026-01-08 09:59:26.30	158.10	19.68	-43.7	-46.2	17.8	0.00e+00	0	42	0	218103808	58	4963
2026-01-08 09:59:27.59	158.09	19.85	-43.7	-46.3	17.7	0.00e+00	0	42	0	220200960	58	5016
2026-01-08 09:59:28.56	158.08	19.97	-43.8	-46.4	17.7	0.00e+00	0	42	0	222298112	58	5062
2026-01-08 09:59:29.56	158.07	20.11	-43.8	-46.5	17.5	0.00e+00	0	42	0	224395264	58	5101
2026-01-08 09:59:30.56	158.06	20.24	-44.1	-46.8	17.3	0.00e+00	0	42	0	225443840	58	5280
2026-01-08 09:59:31.57	158.05	20.37	-44.0	-46.7	17.4	0.00e+00	0	42	0	227540992	58	5232
2026-01-08 09:59:32.57	158.05	20.51	-44.0	-46.7	17.3	0.00e+00	0	42	0	229638144	58	5252
2026-01-08 09:59:33.57	158.04	20.64	-44.1	-46.9	17.2	0.00e+00	0	42	0	231735296	59	5045
2026-01-08 09:59:34.58	158.03	20.78	-44.1	-46.8	17.3	0.00e+00	0	42	0	233832448	59	5018
2026-01-08 09:59:35.58	158.02	20.91	-44.0	-46.7	17.4	0.00e+00	0	42	0	234881024	59	4956
2026-01-08 09:59:36.58	158.01	21.05	-44.3	-47.1	17.0	0.00e+00	0	42	0	236978176	59	5187
2026-01-08 09:59:37.59	158.00	21.19	-44.1	-46.8	17.2	0.00e+00	0	42	0	239075328	59	5039
2026-01-08 09:59:38.59	157.99	21.33	-44.2	-46.9	17.2	0.00e+00	0	42	0	241172480	59	5057
2026-01-08 09:59:39.59	157.99	21.47	-44.2	-46.9	17.2	0.00e+00	0	42	0	243269632	59	5051
2026-01-08 09:59:40.60	157.98	21.61	-44.2	-46.9	17.2	0.00e+00	0	42	0	244318208	59	5063
2026-01-08 09:59:41.60	157.97	21.75	-44.0	-46.7	17.3	0.00e+00	0	42	0	246415360	59	4954
2026-01-08 09:59:42.60	157.96	21.89	-44.1	-46.8	17.3	0.00e+00	0	42	0	248512512	59	5004
2026-01-08 09:59:43.61	157.95	22.04	-44.3	-47.0	17.1	0.00e+00	0	42	0	250609664	59	5112
2026-01-08 09:59:44.61	157.94	22.18	-44.3	-47.0	17.1	0.00e+00	0	42	0	251658240	59	5121
2026-01-08 09:59:45.61	157.93	22.32	-44.2	-46.9	17.2	0.00e+00	0	42	0	253755392	59	5061
2026-01-08 09:59:46.62	157.92	22.47	-44.5	-47.2	16.9	0.00e+00	0	42	0	255852544	59	5275
2026-01-08 09:59:47.62	157.91	22.61	-44.2	-46.8	17.2	0.00e+00	0	42	0	257949696	59	5028
2026-01-08 09:59:48.62	157.90	22.76	-44.1	-46.7	17.3	0.00e+00	0	42	0	260046848	59	4978
2026-01-08 09:59:49.64	157.89	22.91	-44.1	-46.7	17.4	0.00e+00	0	42	0	262144000	59	4953
2026-01-08 09:59:50.64	157.88	23.06	-44.1	-46.6	17.4	0.00e+00	0	42	0	263192576	59	4925
2026-01-08 09:59:51.69	157.87	23.22	-43.9	-46.5	17.6	0.00e+00	0	42	0	265289728	59	4842
2026-01-08 09:59:52.58	157.86	23.35	-44.0	-46.6	17.5	0.00e+00	0	42	0	267386880	59	4891
2026-01-08 09:59:53.90	157.85	23.55	-44.0	-46.5	17.5	0.00e+00	0	42	0	269484032	59	4863
2026-01-08 09:59:54.62	157.84	23.66	-43.9	-46.5	17.6	0.00e+00	0	42	0	270532608	59	4830
2026-01-08 09:59:55.91	157.83	23.85	-43.7	-46.2	17.8	0.00e+00	0	42	0	273678336	59	4696
2026-01-08 09:59:56.62	157.82	23.96	-43.9	-46.4	17.7	0.00e+00	0	42	0	274726912	59	4790
2026-01-08 09:59:57.92	157.80	24.16	-43.9	-46.4	17.7	0.00e+00	0	42	0	276824064	59	4796
2026-01-08 09:59:58.66	157.80	24.28	-43.8	-46.4	17.7	0.00e+00	0	42	0	278921216	59	4761
2026-01-08 10:00:00.26	157.78	24.53	-44.1	-46.7	17.4	0.00e+00	0	42	0	281018368	59	4950
2026-01-08 10:00:00.83	157.77	24.62	-44.0	-46.5	17.5	0.00e+00	0	42	0	283115520	59	4857
2026-01-08 10:00:02.41	157.75	24.87	-44.1	-46.7	17.5	0.00e+00	0	42	0	285212672	59	4944
2026-01-08 10:00:03.04	157.75	24.97	-44.0	-46.6	17.5	0.00e+00	0	42	0	286261248	59	4892
2026-01-08 10:00:04.47	157.73	25.20	-44.0	-46.6	17.4	0.00e+00	0	42	0	289406976	59	4890
2026-01-08 10:00:05.19	157.72	25.32	-44.0	-46.6	17.5	0.00e+00	0	42	0	290455552	59	4916
2026-01-08 10:00:06.48	157.70	25.53	-43.9	-46.5	17.6	0.00e+00	0	42	0	293601280	59	4824
2026-01-08 10:00:07.20	157.69	25.64	-43.7	-46.2	17.8	0.00e+00	0	42	0	294649856	59	4693
2026-01-08 10:00:08.48	157.68	25.85	-43.6	-46.1	17.9	0.00e+00	0	42	0	296747008	58	4920
2026-01-08 10:00:09.20	157.67	25.97	-43.6	-46.1	17.9	0.00e+00	0	42	0	297795584	58	4907
2026-01-08 10:00:10.49	157.65	26.19	-43.7	-46.2	17.9	0.00e+00	0	42	0	300941312	58	4931
2026-01-08 10:00:11.21	157.64	26.31	-43.5	-45.9	18.1	0.00e+00	0	42	0	301989888	58	4770
2026-01-08 10:00:12.68	157.62	26.56	-43.5	-46.0	18.1	0.00e+00	0	42	0	305135616	58	4834
2026-01-08 10:00:13.39	157.61	26.68	-43.7	-46.2	17.8	0.00e+00	0	42	0	306184192	58	4974
2026-01-08 10:00:14.76	157.60	26.91	-44.0	-46.6	17.5	0.00e+00	0	42	0	308281344	58	5164
2026-01-08 10:00:15.48	157.59	27.04	-43.9	-46.4	17.6	0.00e+00	0	42	0	310378496	58	5075
2026-01-08 10:00:16.77	157.57	27.26	-44.4	-47.1	17.0	0.00e+00	0	42	0	312475648	59	5203
2026-01-08 10:00:17.48	157.56	27.38	-44.3	-47.0	17.1	0.00e+00	0	42	0	313524224	59	5137
2026-01-08 10:00:18.77	157.54	27.61	-44.5	-47.3	16.9	0.00e+00	0	42	0	316669952	59	5307
2026-01-08 10:00:19.49	157.53	27.74	-44.4	-47.2	16.9	0.00e+00	0	42	0	317718528	59	5244
2026-01-08 10:00:20.78	157.51	27.97	-44.5	-47.3	16.8	0.00e+00	0	42	0	319815680	59	5292
2026-01-08 10:00:21.50	157.50	28.10	-44.4	-47.1	17.0	0.00e+00	0	42	0	320864256	59	5214
2026-01-08 10:00:22.79	157.48	28.33	-44.4	-47.1	17.0	0.00e+00	0	42	0	324009984	59	5197
2026-01-08 10:00:23.57	157.47	28.47	-44.3	-47.0	17.1	0.00e+00	0	42	0	325058560	59	5148
2026-01-08 10:00:24.86	157.45	28.71	-44.4	-47.2	17.0	0.00e+00	0	42	0	327155712	59	5229
2026-01-08 10:00:25.58	157.44	28.84	-44.2	-46.9	17.2	0.00e+00	0	42	0	329252864	59	5084
2026-01-08 10:00:26.86	157.42	29.07	-44.4	-47.1	17.0	0.00e+00	0	42	0	331350016	59	5180
2026-01-08 10:00:27.68	157.40	29.23	-44.7	-47.6	16.7	0.00e+00	0	42	0	332398592	60	5167
2026-01-08 10:00:29.13	157.38	29.50	-44.6	-47.4	16.8	0.00e+00	0	42	0	335544320	60	5057
2026-01-08 10:00:30.27	157.36	29.72	-45.1	-48.0	16.2	0.00e+00	0	42	0	337641472	60	5446
2026-01-08 10:00:31.13	157.34	29.88	-45.1	-48.1	16.2	0.00e+00	0	42	0	339738624	61	5194
2026-01-08 10:00:32.28	157.32	30.10	-45.0	-48.1	16.2	0.00e+00	0	42	0	341835776	61	5182
2026-01-08 10:00:33.14	157.31	30.27	-45.1	-48.2	16.1	0.00e+00	0	42	0	342884352	61	5226
2026-01-08 10:00:34.32	157.29	30.50	-45.3	-48.5	15.8	0.00e+00	0	42	0	344981504	61	5436
2026-01-08 10:00:35.18	157.27	30.66	-45.2	-48.4	15.9	0.00e+00	0	42	0	347078656	61	5343
2026-01-08 10:00:36.32	157.25	30.89	-45.1	-48.3	16.0	0.00e+00	0	42	0	349175808	61	5289
2026-01-08 10:00:37.18	157.24	31.06	-45.2	-48.4	15.9	0.00e+00	0	42	0	351272960	61	5358
2026-01-08 10:00:38.32	157.21	31.29	-45.7	-49.0	15.3	0.00e+00	0	42	0	353370112	62	5449
2026-01-08 10:00:39.18	157.20	31.46	-45.8	-49.1	15.2	0.00e+00	0	42	0	354418688	62	5528
2026-01-08 10:00:40.59	157.17	31.75	-46.4	-50.1	14.3	1.50e-06	0	42	0	357564416	63	5805
2026-01-08 10:00:41.31	157.16	31.89	-46.7	-50.6	13.8	7.00e-07	0	42	0	358612992	63	6166
2026-01-08 10:00:42.60	157.13	32.16	-46.4	-50.1	14.1	5.30e-06	0	42	0	360710144	64	5517
2026-01-08 10:00:43.31	157.12	32.31	-47.0	-51.1	13.2	1.44e-05	0	42	0	361758720	64	6168
2026-01-08 10:00:44.60	157.09	32.58	-47.0	-51.0	13.3	3.28e-05	0	42	0	364904448	65	5775
2026-01-08 10:00:45.31	157.07	32.72	-46.8	-50.7	13.6	2.28e-05	0	42	0	365953024	65	5545
2026-01-08 10:00:46.60	157.05	33.00	-46.8	-50.8	13.5	1.98e-05	0	42	0	368050176	65	5617
2026-01-08 10:00:47.32	157.03	33.15	-47.0	-51.1	13.2	2.13e-05	0	42	0	370147328	65	5846
2026-01-08 10:00:48.61	157.00	33.43	-46.9	-50.9	13.4	1.44e-05	0	42	0	372244480	65	5716
2026-01-08 10:00:49.33	156.99	33.58	-47.0	-51.1	13.2	1.44e-05	0	42	0	373293056	65	5849
2026-01-08 10:00:50.62	156.96	33.86	-46.7	-50.6	13.6	3.80e-06	0	42	0	376438784	65	5501
2026-01-08 10:00:51.33	156.94	34.02	-46.5	-50.2	14.1	6.10e-06	0	42	0	377487360	64	5551
2026-01-08 10:00:52.67	156.91	34.32	-46.3	-49.9	14.4	7.00e-07	0	42	0	379584512	64	5363
2026-01-08 10:00:53.39	156.89	34.48	-46.3	-49.9	14.3	7.00e-07	0	42	0	381681664	64	5399
2026-01-08 10:00:54.74	156.86	34.78	-45.7	-48.8	15.5	0.00e+00	0	42	0	383778816	63	5037
2026-01-08 10:00:55.46	156.84	34.94	-45.1	-48.1	16.2	0.00e+00	0	42	0	384827392	62	4879
2026-01-08 10:00:56.75	156.81	35.23	-44.7	-47.5	16.8	0.00e+00	0	42	0	387973120	61	4834
2026-01-08 10:00:57.46	156.79	35.40	-44.5	-47.2	17.0	0.00e+00	0	42	0	389021696	61	4699
2026-01-08 10:00:58.76	156.76	35.70	-44.5	-47.1	17.1	0.00e+00	0	42	0	391118848	60	4923
2026-01-08 10:00:59.47	156.74	35.86	-44.2	-46.8	17.4	0.00e+00	0	42	0	392167424	60	4735
2026-01-08 10:01:00.76	156.71	36.16	-44.0	-46.6	17.6	0.00e+00	0	42	0	395313152	59	4882
2026-01-08 10:01:01.47	156.69	36.33	-43.9	-46.4	17.7	0.00e+00	0	42	0	396361728	59	4767
2026-01-08 10:01:02.76	156.65	36.64	-43.7	-46.1	18.0	0.00e+00	0	42	0	398458880	59	4628
2026-01-08 10:01:03.47	156.64	36.81	-43.5	-45.9	18.1	0.00e+00	0	42	0	399507456	59	4514
2026-01-08 10:01:04.77	156.60	37.12	-43.0	-45.4	18.7	0.00e+00	0	42	0	402653184	58	4497
2026-01-08 10:01:05.58	156.58	37.32	-42.9	-45.2	18.8	0.00e+00	0	42	0	403701760	57	4678
2026-01-08 10:01:06.72	156.54	37.60	-42.9	-45.2	18.8	0.00e+00	0	42	0	405798912	57	4658
2026-01-08 10:01:07.81	156.51	37.86	-42.5	-44.7	19.2	0.00e+00	0	42	0	407896064	56	4669
2026-01-08 10:01:08.82	156.48	38.11	-42.5	-44.7	19.2	0.00e+00	0	42	0	409993216	56	4671
2026-01-08 10:01:10.01	156.44	38.41	-42.8	-45.0	18.9	0.00e+00	0	42	0	412090368	56	4857
2026-01-08 10:01:10.86	156.42	38.63	-42.9	-45.2	18.8	0.00e+00	0	42	0	414187520	56	4959
2026-01-08 10:01:12.01	156.38	38.92	-43.4	-45.8	18.3	0.00e+00	0	42	0	416284672	57	5018
2026-01-08 10:01:12.87	156.35	39.14	-43.3	-45.6	18.4	0.00e+00	0	42	0	417333248	57	4917
2026-01-08 10:01:14.02	156.31	39.44	-43.3	-45.6	18.4	0.00e+00	0	42	0	419430400	57	4919
2026-01-08 10:01:14.87	156.29	39.66	-43.4	-45.8	18.3	0.00e+00	0	42	0	421527552	57	4991
2026-01-08 10:01:16.02	156.25	39.96	-43.2	-45.4	18.4	0.00e+00	0	42	0	423624704	57	4812
2026-01-08 10:01:16.88	156.22	40.19	-43.2	-45.5	18.5	0.00e+00	0	42	0	425721856	57	4832
2026-01-08 10:01:18.03	156.18	40.49	-43.2	-45.4	18.6	0.00e+00	0	42	0	427819008	57	4800
2026-01-08 10:01:18.89	156.15	40.72	-43.2	-45.5	18.5	0.00e+00	0	42	0	428867584	57	4839
2026-01-08 10:01:20.03	156.10	41.03	-43.0	-45.2	18.8	0.00e+00	0	42	0	430964736	57	4683
2026-01-08 10:01:20.89	156.07	41.26	-43.6	-46.0	18.1	0.00e+00	0	42	0	433061888	57	5110
2026-01-08 10:01:22.04	156.03	41.58	-43.9	-46.4	17.8	0.00e+00	0	42	0	435159040	58	5044
2026-01-08 10:01:22.90	155.99	41.82	-44.0	-46.5	17.7	0.00e+00	0	42	0	436207616	58	5114
2026-01-08 10:01:24.04	155.95	42.13	-44.2	-46.7	17.5	0.00e+00	0	42	0	438304768	59	4974
2026-01-08 10:01:24.90	155.92	42.37	-44.5	-47.1	17.2	0.00e+00	0	42	0	440401920	59	5181
2026-01-08 10:01:26.05	155.87	42.70	-44.3	-46.8	17.3	0.00e+00	0	42	0	442499072	59	5028
2026-01-08 10:01:26.91	155.83	42.94	-44.0	-46.5	17.6	0.00e+00	0	42	0	443547648	59	4835
2026-01-08 10:01:28.06	155.78	43.27	-44.1	-46.6	17.5	0.00e+00	0	42	0	445644800	59	4917
2026-01-08 10:01:28.92	155.75	43.52	-44.3	-46.9	17.3	0.00e+00	0	42	0	447741952	59	5058
2026-01-08 10:01:30.06	155.70	43.85	-44.5	-47.2	17.1	0.00e+00	0	42	0	449839104	60	4941
2026-01-08 10:01:30.92	155.66	44.10	-45.0	-47.9	16.4	0.00e+00	0	42	0	451936256	60	5355
2026-01-08 10:01:32.10	155.60	44.45	-45.2	-48.1	16.3	0.00e+00	0	42	0	454033408	61	5198
2026-01-08 10:01:32.96	155.56	44.71	-44.9	-47.7	16.6	0.00e+00	0	42	0	455081984	61	4951
2026-01-08 10:01:34.11	155.51	45.05	-45.0	-47.8	16.6	0.00e+00	0	42	0	457179136	61	5027
2026-01-08 10:01:34.97	155.47	45.31	-44.8	-47.6	16.7	0.00e+00	0	42	0	459276288	61	4883
2026-01-08 10:01:36.11	155.41	45.66	-44.8	-47.5	16.8	0.00e+00	0	42	0	461373440	60	5130
2026-01-08 10:01:36.97	155.37	45.92	-44.8	-47.5	16.8	0.00e+00	0	42	0	462422016	60	5132
2026-01-08 10:01:38.12	155.31	46.28	-45.5	-48.5	15.9	0.00e+00	0	42	0	464519168	61	5425
2026-01-08 10:01:38.98	155.26	46.54	-45.8	-49.0	15.4	0.00e+00	0	42	0	466616320	62	5410
2026-01-08 10:01:40.12	155.20	46.90	-46.4	-49.9	14.6	7.00e-07	0	42	0	468713472	63	5675
2026-01-08 10:01:40.98	155.15	47.17	-46.7	-50.4	14.0	7.00e-07	0	42	0	470810624	64	5661
2026-01-08 10:01:42.13	155.09	47.54	-46.4	-50.0	14.4	7.00e-07	0	42	0	472907776	64	5442
2026-01-08 10:01:43.24	155.02	47.90	-45.9	-49.2	15.3	0.00e+00	0	42	0	475004928	63	5245
2026-01-08 10:01:44.10	154.97	48.17	-45.3	-48.4	16.1	0.00e+00	0	42	0	476053504	62	5045
2026-01-08 10:01:45.25	154.90	48.55	-45.5	-48.6	15.8	0.00e+00	0	42	0	478150656	62	5161
2026-01-08 10:01:46.11	154.85	48.83	-45.3	-48.3	16.0	0.00e+00	0	42	0	480247808	62	5018
2026-01-08 10:01:47.25	154.78	49.21	-45.3	-48.3	16.1	7.00e-07	0	42	0	482344960	62	4995
2026-01-08 10:01:48.11	154.72	49.49	-45.1	-48.0	16.3	0.00e+00	0	42	0	483393536	62	4839
2026-01-08 10:01:49.26	154.64	49.88	-44.3	-46.9	17.3	0.00e+00	0	42	0	485490688	60	4796
2026-01-08 10:01:50.12	154.59	50.17	-44.1	-46.6	17.6	0.00e+00	0	42	0	487587840	59	4895
2026-01-08 10:01:51.32	154.50	50.58	-43.5	-45.8	18.3	0.00e+00	0	42	0	489684992	59	4487
2026-01-08 10:01:52.18	154.44	50.87	-43.5	-45.9	18.2	0.00e+00	0	42	0	491782144	59	4501
2026-01-08 10:01:53.40	154.35	51.29	-43.6	-46.1	18.1	0.00e+00	0	42	0	493879296	58	4874
2026-01-08 10:01:54.25	154.29	51.59	-43.8	-46.3	17.9	0.00e+00	0	42	0	494927872	58	5040
2026-01-08 10:01:55.40	154.20	51.99	-43.9	-46.4	17.8	0.00e+00	0	42	0	497025024	59	4782
2026-01-08 10:01:56.26	154.13	52.30	-43.8	-46.3	17.9	0.00e+00	0	42	0	499122176	59	4715
2026-01-08 10:01:57.40	154.04	52.70	-43.9	-46.4	17.7	0.00e+00	0	42	0	501219328	59	4800
2026-01-08 10:01:58.27	153.97	53.01	-44.7	-47.4	16.9	0.00e+00	0	42	0	502267904	60	5079
2026-01-08 10:01:59.61	153.86	53.49	-44.8	-47.6	16.6	0.00e+00	0	42	0	505413632	60	5181
2026-01-08 10:02:00.32	153.79	53.75	-44.6	-47.2	17.1	0.00e+00	0	42	0	506462208	60	4977
2026-01-08 10:02:01.61	153.68	54.22	-43.6	-46.0	18.1	0.00e+00	0	42	0	508559360	59	4551
2026-01-08 10:02:02.33	153.61	54.49	-43.2	-45.4	18.6	0.00e+00	0	42	0	510656512	58	4527
2026-01-08 10:02:03.62	153.49	54.97	-42.9	-45.1	18.9	0.00e+00	0	42	0	512753664	57	4638
2026-01-08 10:02:04.34	153.42	55.24	-43.3	-45.7	18.4	0.00e+00	0	42	0	513802240	57	4931
2026-01-08 10:02:05.63	153.29	55.72	-44.1	-46.6	17.6	0.00e+00	0	42	0	516947968	58	5204
2026-01-08 10:02:06.34	153.22	55.99	-44.1	-46.6	17.6	0.00e+00	0	42	0	517996544	59	4899
2026-01-08 10:02:07.64	153.08	56.49	-43.6	-46.0	18.2	0.00e+00	0	42	0	520093696	59	4546
2026-01-08 10:02:08.58	152.98	56.85	-43.9	-46.4	17.8	0.00e+00	0	42	0	522190848	59	4777
2026-01-08 10:02:09.58	152.87	57.23	-44.6	-47.3	16.9	0.00e+00	0	43	0	524288000	59	5300
2026-01-08 10:02:10.58	152.75	57.62	-45.4	-48.4	16.0	0.00e+00	0	42	0	526385152	61	5344
2026-01-08 10:02:11.58	152.63	58.01	-46.2	-49.6	14.8	0.00e+00	0	42	0	527433728	62	5838
2026-01-08 10:02:12.99	152.46	58.57	-46.1	-49.5	14.9	0.00e+00	0	42	0	530579456	63	5431
2026-01-08 10:02:13.70	152.37	58.85	-45.5	-48.5	15.9	0.00e+00	0	42	0	531628032	62	5139
2026-01-08 10:02:14.99	152.20	59.37	-45.6	-48.7	15.5	0.00e+00	0	42	0	533725184	62	5249
2026-01-08 10:02:15.71	152.10	59.66	-45.6	-48.7	15.7	0.00e+00	0	42	0	535822336	62	5240
2026-01-08 10:02:17.00	151.92	60.18	-45.2	-48.1	16.3	0.00e+00	0	42	0	537919488	62	4896
2026-01-08 10:02:17.71	151.82	60.47	-45.2	-48.1	16.2	0.00e+00	0	42	0	538968064	62	4914
2026-01-08 10:02:19.03	151.63	61.01	-45.5	-48.6	15.9	0.00e+00	0	42	0	542113792	62	5183
2026-01-08 10:02:19.75	151.51	61.30	-45.2	-48.2	16.1	0.00e+00	0	42	0	543162368	62	4942
2026-01-08 10:02:21.04	151.31	61.84	-44.8	-47.7	16.7	0.00e+00	0	42	0	545259520	61	4938
2026-01-08 10:02:21.75	151.19	62.13	-44.5	-47.2	17.1	0.00e+00	0	42	0	546308096	61	4680
2026-01-08 10:02:23.17	150.95	62.73	-43.3	-45.7	18.4	0.00e+00	0	42	0	549453824	58	4675
2026-01-08 10:02:23.89	150.82	63.03	-43.1	-45.4	18.6	0.00e+00	0	42	0	550502400	58	4544
2026-01-08 10:02:25.24	150.57	63.60	-42.8	-45.1	19.0	0.00e+00	0	42	0	553648128	57	4599
2026-01-08 10:02:25.96	150.43	63.91	-42.3	-44.5	19.4	0.00e+00	0	42	0	554696704	56	4585
2026-01-08 10:02:27.24	150.18	64.46	-42.0	-44.1	19.6	0.00e+00	0	42	0	556793856	55	4609
2026-01-08 10:02:27.96	150.03	64.77	-42.0	-44.1	19.6	0.00e+00	0	42	0	558891008	55	4648
2026-01-08 10:02:29.25	149.75	65.33	-43.1	-45.4	18.7	0.00e+00	0	42	0	560988160	56	5064
2026-01-08 10:02:29.97	149.59	65.64	-43.4	-45.8	18.4	0.00e+00	0	42	0	562036736	57	5009
2026-01-08 10:02:31.25	149.29	66.20	-44.4	-47.1	17.2	0.00e+00	0	42	0	564133888	59	5182
2026-01-08 10:02:31.97	149.11	66.52	-45.1	-48.1	16.3	0.00e+00	0	42	0	566231040	60	5474
2026-01-08 10:02:33.26	148.79	67.09	-45.9	-49.3	15.2	0.00e+00	0	42	0	568328192	62	5602
2026-01-08 10:02:34.07	148.57	67.44	-45.6	-48.6	15.7	0.00e+00	0	42	0	569376768	62	5201
2026-01-08 10:02:35.54	148.16	68.10	-45.8	-49.0	15.5	0.00e+00	0	42	0	572522496	62	5443
2026-01-08 10:02:36.25	147.96	68.41	-46.4	-50.2	14.2	0.00e+00	0	43	0	573571072	63	5880
2026-01-08 10:02:37.55	147.56	69.00	-46.3	-50.1	14.2	4.50e-06	0	42	0	576716800	64	5508
2026-01-08 10:02:38.26	147.33	69.32	-45.7	-48.9	15.4	0.00e+00	0	42	0	577765376	63	5074
2026-01-08 10:02:39.55	146.90	69.90	-45.1	-48.1	16.3	0.00e+00	0	42	0	579862528	61	5163
2026-01-08 10:02:40.27	146.64	70.23	-45.3	-48.3	16.0	0.00e+00	0	42	0	581959680	61	5339
2026-01-08 10:02:41.56	146.16	70.81	-45.7	-49.1	15.3	0.00e+00	0	42	0	584056832	62	5465
2026-01-08 10:02:42.27	145.89	71.14	-45.3	-48.4	16.0	0.00e+00	0	43	0	585105408	62	5070
2026-01-08 10:02:43.56	145.36	71.72	-43.9	-46.4	17.7	0.00e+00	0	42	0	587202560	59	4792
2026-01-08 10:02:44.28	145.04	72.05	-42.8	-45.1	18.8	0.00e+00	0	42	0	589299712	57	4617
2026-01-08 10:02:45.57	144.45	72.65	-42.4	-44.6	19.2	0.00e+00	0	42	0	591396864	56	4646
2026-01-08 10:02:46.28	144.11	72.97	-42.6	-44.9	19.0	0.00e+00	0	42	0	592445440	56	4800
2026-01-08 10:02:47.58	143.44	73.57	-43.9	-46.5	17.5	0.00e+00	0	42	0	595591168	59	4849
2026-01-08 10:02:48.29	143.06	73.90	-43.7	-46.2	17.8	0.00e+00	0	42	0	596639744	59	4694
2026-01-08 10:02:49.58	142.31	74.49	-44.0	-46.5	17.6	0.00e+00	0	42	0	598736896	58	5147
2026-01-08 10:02:50.29	141.87	74.82	-45.0	-48.0	16.3	0.00e+00	0	42	0	600834048	60	5409
2026-01-08 10:02:51.58	141.03	75.41	-46.6	-50.6	13.7	3.80e-06	0	42	0	602931200	64	5850
2026-01-08 10:02:52.30	140.52	75.74	-46.0	-49.4	15.0	3.00e-06	0	42	0	603979776	63	5350
2026-01-08 10:02:53.76	139.42	76.41	-45.7	-49.0	15.5	0.00e+00	0	42	0	607125504	62	5437
2026-01-08 10:02:54.48	138.84	76.74	-46.6	-50.5	13.7	7.00e-07	0	42	0	608174080	63	6114
2026-01-08 10:02:55.83	137.66	77.36	-46.0	-49.5	14.8	4.65e-05	0	43	0	610271232	63	5416
2026-01-08 10:02:56.55	136.98	77.69	-45.7	-49.0	15.3	0.00e+00	0	42	0	612368384	63	5145
2026-01-08 10:02:57.84	135.66	78.27	-46.7	-50.7	13.7	2.20e-06	0	42	0	614465536	63	6231
2026-01-08 10:02:58.55	134.87	78.59	-46.8	-51.1	13.2	1.67e-05	0	42	0	615514112	64	6167
2026-01-08 10:02:59.84	133.33	79.17	-46.3	-50.0	14.3	7.00e-07	0	43	0	618659840	63	5786
2026-01-08 10:03:00.56	132.39	79.49	-46.8	-51.0	13.2	6.80e-06	0	42	0	619708416	64	6085
2026-01-08 10:03:01.85	130.56	80.05	-46.0	-49.7	14.6	7.00e-07	0	42	0	621805568	63	5589
2026-01-08 10:03:02.57	129.45	80.36	-45.7	-49.3	15.1	0.00e+00	0	42	0	622854144	62	5596
2026-01-08 10:03:03.86	127.25	80.91	-46.2	-50.1	14.3	7.00e-07	0	42	0	625999872	63	5834
2026-01-08 10:03:04.57	125.93	81.21	-45.4	-48.7	15.5	7.00e-07	0	42	0	627048448	62	5252
2026-01-08 10:03:05.86	123.27	81.73	-42.5	-44.9	18.9	0.00e+00	0	42	0	629145600	57	4497
2026-01-08 10:03:06.58	121.64	82.02	-42.5	-44.9	18.9	0.00e+00	0	42	0	631242752	56	4809
2026-01-08 10:03:07.87	118.41	82.51	-42.8	-45.3	18.6	0.00e+00	0	42	0	633339904	56	5009
2026-01-08 10:03:08.59	116.41	82.78	-41.6	-43.9	19.6	0.00e+00	0	42	0	634388480	55	4507
2026-01-08 10:03:09.88	112.45	83.23	-42.2	-44.5	19.1	0.00e+00	0	42	0	637534208	55	4869
2026-01-08 10:03:10.60	110.00	83.47	-42.8	-45.3	18.6	0.00e+00	0	42	0	638582784	56	4994
2026-01-08 10:03:11.89	105.17	83.86	-42.5	-44.9	19.0	0.00e+00	0	42	0	640679936	56	4768
2026-01-08 10:03:12.60	102.24	84.05	-42.5	-44.9	19.1	0.00e+00	0	43	0	641728512	56	4775
2026-01-08 10:03:14.05	95.67	84.40	-42.6	-45.0	18.9	0.00e+00	0	42	0	644874240	56	4844
2026-01-08 10:03:14.77	92.12	84.54	-42.5	-44.9	19.0	0.00e+00	0	42	0	645922816	56	4803
2026-01-08 10:03:16.06	85.33	84.74	-43.3	-46.0	18.0	0.00e+00	0	43	0	649068544	57	5106
2026-01-08 10:03:16.77	81.40	84.82	-42.7	-45.0	18.7	0.00e+00	0	42	0	650117120	57	4579
2026-01-08 10:03:18.07	73.97	84.89	-42.4	-44.6	19.2	0.00e+00	0	42	0	652214272	56	4629
2026-01-08 10:03:19.18	67.55	84.89	-43.1	-45.6	18.4	0.00e+00	0	42	0	654311424	57	4871
2026-01-08 10:03:20.36	60.82	84.82	-41.6	-43.7	19.8	0.00e+00	0	42	0	656408576	55	4422
2026-01-08 10:03:21.22	56.09	84.72	-41.9	-44.1	19.5	0.00e+00	0	42	0	658505728	54	4885
2026-01-08 10:03:22.37	50.08	84.53	-44.2	-47.0	17.2	0.00e+00	0	42	0	660602880	59	5111
2026-01-08 10:03:23.23	45.88	84.36	-44.1	-46.8	17.4	0.00e+00	0	42	0	661651456	59	4989
2026-01-08 10:03:24.38	40.69	84.08	-44.8	-47.8	16.6	0.00e+00	0	42	0	663748608	60	5284
2026-01-08 10:03:25.23	37.18	83.85	-44.4	-47.3	16.9	0.00e+00	0	42	0	665845760	60	5021
2026-01-08 10:03:26.38	32.85	83.50	-42.9	-45.2	18.8	0.00e+00	0	42	0	667942912	57	4698
2026-01-08 10:03:27.24	29.92	83.22	-43.7	-46.2	17.8	0.00e+00	0	42	0	670040064	58	4978
2026-01-08 10:03:28.39	26.37	82.82	-43.7	-46.4	17.7	0.00e+00	0	42	0	672137216	59	4760
2026-01-08 10:03:29.25	23.98	82.50	-44.0	-46.7	17.4	0.00e+00	0	42	0	673185792	59	4964
2026-01-08 10:03:30.40	21.09	82.06	-45.4	-48.8	15.4	0.00e+00	0	43	0	675282944	61	5644
2026-01-08 10:03:31.26	19.13	81.72	-45.3	-48.5	15.8	0.00e+00	0	43	0	677380096	62	5143
2026-01-08 10:03:32.40	16.78	81.26	-45.7	-49.1	15.2	0.00e+00	0	43	0	679477248	61	5854
2026-01-08 10:03:33.31	15.08	80.88	-46.6	-50.8	13.5	3.80e-06	0	42	0	680525824	64	5933
2026-01-08 10:03:34.50	13.06	80.37	-45.5	-48.9	15.5	0.00e+00	0	42	0	683671552	62	5351
2026-01-08 10:03:35.36	11.74	80.00	-46.1	-49.7	14.6	0.00e+00	0	42	0	684720128	62	5875
2026-01-08 10:03:36.51	10.11	79.50	-46.3	-50.3	13.9	9.10e-06	0	42	0	686817280	64	5597
2026-01-08 10:03:37.37	9.00	79.12	-46.3	-50.2	14.1	1.50e-06	0	42	0	688914432	64	5549
2026-01-08 10:03:38.52	7.63	78.60	-47.7	-53.1	11.0	1.95e-03	0	42	0	691011584	66	6933
2026-01-08 10:03:39.38	6.68	78.22	-46.5	-50.8	13.2	2.48e-04	0	42	0	692060160	65	5597
2026-01-08 10:03:40.52	5.53	77.70	-45.3	-48.3	16.1	0.00e+00	0	42	0	694157312	62	5027
2026-01-08 10:03:41.38	4.72	77.31	-45.2	-48.2	16.1	0.00e+00	0	42	0	696254464	61	5264
2026-01-08 10:03:42.53	3.71	76.79	-45.5	-48.7	15.6	0.00e+00	0	42	0	698351616	62	5275
2026-01-08 10:03:43.39	3.01	76.39	-44.9	-47.9	16.3	0.00e+00	0	43	0	699400192	62	4812
2026-01-08 10:03:44.53	2.15	75.87	-45.8	-49.1	15.3	0.00e+00	0	42	0	702545920	62	5518
2026-01-08 10:03:45.39	1.54	75.47	-45.4	-48.5	15.8	0.00e+00	0	42	0	703594496	62	5112
2026-01-08 10:03:46.60	0.74	74.92	-44.2	-46.8	17.4	0.00e+00	0	42	0	705691648	59	5006
2026-01-08 10:03:47.46	0.21	74.52	-44.3	-46.9	17.3	0.00e+00	0	42	0	707788800	59	5094
2026-01-08 10:03:48.61	359.54	73.99	-44.8	-47.8	16.5	0.00e+00	0	42	0	709885952	60	5290
2026-01-08 10:03:49.47	359.07	73.60	-44.0	-46.6	17.6	0.00e+00	0	42	0	710934528	59	4893
2026-01-08 10:03:50.61	358.48	73.08	-43.3	-45.6	18.4	0.00e+00	0	42	0	713031680	58	4645
2026-01-08 10:03:51.47	358.06	72.68	-42.7	-45.0	18.8	0.00e+00	0	43	0	715128832	57	4569
2026-01-08 10:03:52.62	357.53	72.15	-43.9	-46.5	17.7	0.00e+00	0	43	0	717225984	58	5122
2026-01-08 10:03:53.48	357.15	71.76	-44.5	-47.3	17.0	0.00e+00	0	43	0	719323136	59	5316
2026-01-08 10:03:54.63	356.68	71.24	-45.1	-48.1	16.3	0.00e+00	0	42	0	721420288	61	5187
2026-01-08 10:03:55.61	356.29	70.79	-45.9	-49.3	15.2	0.00e+00	0	42	0	722468864	62	5627
2026-01-08 10:03:56.78	355.86	70.26	-45.4	-48.6	15.7	0.00e+00	0	43	0	724566016	62	5195
2026-01-08 10:03:57.65	355.55	69.87	-44.8	-47.7	16.5	0.00e+00	0	42	0	726663168	61	4977
2026-01-08 10:03:58.99	355.11	69.26	-44.6	-47.4	16.9	0.00e+00	0	42	0	728760320	60	5088
2026-01-08 10:03:59.71	354.88	68.94	-44.3	-46.9	17.3	0.00e+00	0	42	0	730857472	60	4812
2026-01-08 10:04:01.20	354.43	68.28	-45.1	-48.2	16.1	0.00e+00	0	42	0	732954624	60	5533
2026-01-08 10:04:01.92	354.22	67.96	-46.4	-50.2	14.1	0.00e+00	0	42	0	735051776	63	5917
2026-01-08 10:04:03.21	353.87	67.38	-45.4	-48.7	15.6	0.00e+00	0	43	0	737148928	62	5254
2026-01-08 10:04:03.93	353.68	67.07	-44.8	-47.9	16.4	0.00e+00	0	42	0	738197504	61	5052
2026-01-08 10:04:05.22	353.35	66.50	-45.5	-49.0	15.3	0.00e+00	0	42	0	740294656	62	5426
2026-01-08 10:04:05.94	353.18	66.18	-45.7	-49.2	15.2	0.00e+00	0	42	0	742391808	62	5589
2026-01-08 10:04:07.22	352.88	65.63	-45.1	-48.4	15.7	0.00e+00	0	43	0	744488960	62	5062
2026-01-08 10:04:07.99	352.71	65.29	-45.1	-48.4	15.7	0.00e+00	0	42	0	745537536	61	5398
2026-01-08 10:04:09.28	352.43	64.74	-44.9	-48.1	16.1	0.00e+00	0	42	0	748683264	61	5201
2026-01-08 10:04:10.00	352.28	64.43	-45.1	-48.4	16.0	0.00e+00	0	42	0	749731840	61	5375
2026-01-08 10:04:11.29	352.03	63.88	-45.5	-49.1	15.4	0.00e+00	0	43	0	751828992	61	5818
2026-01-08 10:04:12.00	351.89	63.58	-45.8	-49.6	14.8	0.00e+00	0	43	0	753926144	62	5821
2026-01-08 10:04:13.29	351.66	63.03	-44.7	-47.8	16.6	0.00e+00	0	42	0	756023296	61	5017
2026-01-08 10:04:14.01	351.53	62.73	-44.4	-47.3	16.9	0.00e+00	0	43	0	757071872	60	5034
2026-01-08 10:04:15.30	351.31	62.19	-43.3	-45.8	18.3	0.00e+00	0	43	0	760217600	58	4723
2026-01-08 10:04:16.01	351.19	61.89	-42.8	-45.2	18.7	0.00e+00	0	42	0	761266176	57	4684
2026-01-08 10:04:17.30	350.98	61.36	-41.5	-43.7	19.8	0.00e+00	0	43	0	763363328	55	4419
2026-01-08 10:04:18.01	350.88	61.07	-42.0	-44.3	19.2	0.00e+00	0	42	0	764411904	55	4740
2026-01-08 10:04:19.30	350.68	60.54	-42.5	-44.9	19.0	0.00e+00	0	43	0	767557632	55	5054
2026-01-08 10:04:20.02	350.58	60.25	-42.8	-45.1	18.9	0.00e+00	0	43	0	768606208	56	4902
2026-01-08 10:04:21.31	350.40	59.73	-42.4	-44.6	19.2	0.00e+00	0	42	0	770703360	56	4637
2026-01-08 10:04:22.12	350.29	59.40	-41.7	-43.8	19.7	0.00e+00	0	43	0	772800512	55	4484
2026-01-08 10:04:23.26	350.14	58.95	-41.6	-43.8	19.8	0.00e+00	0	43	0	774897664	54	4725
2026-01-08 10:04:24.12	350.03	58.61	-43.1	-45.5	18.6	0.00e+00	0	42	0	775946240	56	5148
2026-01-08 10:04:25.27	349.89	58.16	-44.6	-47.5	16.8	0.00e+00	0	43	0	778043392	59	5462
2026-01-08 10:04:26.13	349.79	57.82	-44.4	-47.3	16.9	0.00e+00	0	42	0	780140544	60	5034
2026-01-08 10:04:27.27	349.65	57.38	-43.8	-46.5	17.6	0.00e+00	0	42	0	782237696	59	4840
2026-01-08 10:04:28.13	349.56	57.05	-43.3	-45.8	18.2	0.00e+00	0	42	0	784334848	58	4749
2026-01-08 10:04:29.31	349.43	56.59	-43.4	-46.0	18.0	0.00e+00	0	42	0	786432000	58	4823
2026-01-08 10:04:30.17	349.34	56.27	-43.7	-46.3	17.7	0.00e+00	0	42	0	787480576	58	5032
2026-01-08 10:04:31.31	349.22	55.84	-43.5	-46.1	17.8	0.00e+00	0	43	0	789577728	58	4924
2026-01-08 10:04:32.17	349.13	55.51	-43.3	-46.0	18.0	0.00e+00	0	42	0	791674880	58	4818
2026-01-08 10:04:33.32	349.02	55.08	-42.7	-45.2	18.7	0.00e+00	0	42	0	793772032	57	4657
2026-01-08 10:04:34.18	348.94	54.76	-42.4	-44.8	19.0	0.00e+00	0	43	0	794820608	57	4466
2026-01-08 10:04:35.52	348.81	54.27	-42.6	-45.0	19.0	0.00e+00	0	42	0	797966336	56	4833
2026-01-08 10:04:36.23	348.75	54.01	-43.4	-46.1	18.0	0.00e+00	0	42	0	799014912	57	5168
2026-01-08 10:04:37.52	348.64	53.54	-44.0	-46.8	17.4	0.00e+00	0	42	0	801112064	58	5300
2026-01-08 10:04:38.24	348.58	53.28	-43.8	-46.6	17.5	0.00e+00	0	42	0	803209216	58	5186
2026-01-08 10:04:39.53	348.47	52.82	-42.9	-45.4	18.4	0.00e+00	0	42	0	805306368	57	4811
2026-01-08 10:04:40.24	348.41	52.57	-43.8	-46.6	17.7	0.00e+00	0	42	0	806354944	58	5184
2026-01-08 10:04:41.53	348.31	52.12	-44.9	-48.2	16.1	0.00e+00	0	43	0	808452096	60	5566
2026-01-08 10:04:42.24	348.26	51.87	-45.5	-49.1	15.1	0.00e+00	0	42	0	810549248	61	5824
2026-01-08 10:04:43.54	348.16	51.42	-45.9	-49.9	14.5	7.00e-07	0	42	0	812646400	62	5993
2026-01-08 10:04:44.25	348.11	51.17	-46.0	-50.1	14.2	0.00e+00	0	42	0	813694976	62	6169
2026-01-08 10:04:45.54	348.01	50.73	-45.1	-48.6	15.6	0.00e+00	0	42	0	816840704	62	5166
2026-01-08 10:04:46.25	347.96	50.49	-44.9	-48.1	16.1	0.00e+00	0	43	0	817889280	61	5198
2026-01-08 10:04:47.65	347.87	50.01	-45.2	-48.6	15.6	0.00e+00	0	42	0	819986432	61	5511
2026-01-08 10:04:48.37	347.82	49.77	-45.7	-49.3	14.9	0.00e+00	0	43	0	822083584	62	5629
2026-01-08 10:04:49.74	347.73	49.32	-45.4	-48.9	15.3	0.00e+00	0	43	0	824180736	62	5365
2026-01-08 10:04:50.46	347.69	49.08	-45.7	-49.3	14.9	0.00e+00	0	43	0	825229312	62	5633
2026-01-08 10:04:51.75	347.61	48.66	-46.7	-51.3	13.0	4.50e-06	0	43	0	828375040	64	6295
2026-01-08 10:04:52.46	347.56	48.43	-47.6	-53.4	10.8	1.13e-03	0	43	0	829423616	65	7597
2026-01-08 10:04:53.75	347.49	48.01	-47.1	-52.2	12.2	5.40e-04	0	43	0	831520768	66	6227
2026-01-08 10:04:54.47	347.44	47.78	-46.3	-50.5	13.7	1.19e-04	0	43	0	833617920	64	5734
2026-01-08 10:04:55.75	347.37	47.37	-44.0	-46.8	17.4	0.00e+00	0	42	0	835715072	60	4735
2026-01-08 10:04:56.47	347.33	47.14	-43.6	-46.2	17.9	0.00e+00	0	43	0	836763648	59	4663
2026-01-08 10:04:57.76	347.26	46.74	-43.6	-46.2	17.9	0.00e+00	0	42	0	838860800	58	4969
2026-01-08 10:04:58.48	347.22	46.52	-44.1	-46.9	17.3	0.00e+00	0	42	0	840957952	59	5057
2026-01-08 10:04:59.77	347.16	46.12	-44.9	-48.0	16.4	0.00e+00	0	43	0	843055104	60	5404
2026-01-08 10:05:00.61	347.11	45.86	-45.7	-49.3	15.2	0.00e+00	0	43	0	845152256	61	5929
2026-01-08 10:05:02.09	347.04	45.41	-47.4	-52.6	11.9	9.53e-05	0	43	0	847249408	65	6932
2026-01-08 10:05:02.81	347.01	45.20	-48.3	-55.2	9.1	2.78e-03	0	42	0	848297984	67	8365
2026-01-08 10:05:04.28	346.94	44.76	-47.4	-52.9	11.4	9.31e-03	0	43	0	851443712	66	6755
2026-01-08 10:05:04.99	346.90	44.55	-46.9	-51.8	12.6	1.08e-03	0	43	0	852492288	65	6302
2026-01-08 10:05:06.28	346.84	44.17	-44.6	-47.7	16.5	0.00e+00	0	42	0	855638016	61	4947
2026-01-08 10:05:07.00	346.81	43.96	-44.0	-46.9	17.2	0.00e+00	0	42	0	856686592	60	4788
2026-01-08 10:05:08.29	346.76	43.58	-44.2	-47.1	17.1	0.00e+00	0	43	0	858783744	59	5184
2026-01-08 10:05:09.00	346.72	43.38	-44.6	-47.6	16.7	0.00e+00	0	43	0	860880896	59	5490
2026-01-08 10:05:10.29	346.67	43.01	-44.7	-47.7	16.5	0.00e+00	0	43	0	862978048	60	5259
2026-01-08 10:05:11.00	346.64	42.81	-45.0	-48.3	16.0	0.00e+00	0	43	0	864026624	60	5604
2026-01-08 10:05:12.30	346.59	42.44	-46.0	-49.9	14.5	0.00e+00	0	42	0	866123776	62	6025
2026-01-08 10:05:13.03	346.56	42.24	-47.0	-52.0	12.3	1.90e-05	0	43	0	868220928	64	6864
2026-01-08 10:05:14.32	346.51	41.88	-47.5	-53.4	10.9	4.89e-03	0	43	0	870318080	66	7128
2026-01-08 10:05:15.08	346.48	41.67	-47.5	-53.3	10.8	1.89e-03	0	42	0	871366656	66	7098
2026-01-08 10:05:16.67	346.42	41.24	-47.3	-53.0	11.2	4.57e-03	0	42	0	874512384	66	6829
2026-01-08 10:05:17.25	346.40	41.08	-46.7	-51.5	12.7	1.33e-03	0	43	0	875560960	65	6128
2026-01-08 10:05:18.82	346.34	40.66	-45.4	-49.0	15.3	0.00e+00	0	43	0	878706688	62	5405
2026-01-08 10:05:19.41	346.32	40.51	-44.4	-47.5	16.7	0.00e+00	0	42	0	879755264	60	5144
2026-01-08 10:05:20.99	346.27	40.09	-43.5	-46.1	17.9	0.00e+00	0	42	0	882900992	58	4921
2026-01-08 10:05:21.56	346.25	39.94	-43.4	-46.0	18.0	0.00e+00	0	43	0	883949568	58	4870
2026-01-08 10:05:23.16	346.19	39.52	-44.4	-47.4	16.7	0.00e+00	0	42	0	887095296	59	5370
2026-01-08 10:05:23.73	346.18	39.38	-44.9	-48.2	16.1	0.00e+00	0	42	0	888143872	60	5547
2026-01-08 10:05:25.34	346.12	38.97	-45.8	-49.7	14.5	0.00e+00	0	43	0	891289600	62	5873
2026-01-08 10:05:25.91	346.11	38.82	-46.3	-50.6	13.7	0.00e+00	0	42	0	892338176	63	6179
2026-01-08 10:05:27.49	346.06	38.43	-46.8	-51.8	12.4	1.46e-04	0	42	0	895483904	64	6712
2026-01-08 10:05:28.06	346.04	38.28	-46.2	-50.7	13.6	6.33e-05	0	42	0	896532480	64	5860
2026-01-08 10:05:30.04	345.98	37.79	-46.2	-50.8	13.3	2.28e-05	0	43	0	899678208	64	5951
2026-01-08 10:05:30.61	345.97	37.65	-46.2	-50.8	13.3	1.52e-05	0	43	0	900726784	63	6294
2026-01-08 10:05:32.20	345.92	37.27	-45.7	-49.9	14.2	1.50e-06	0	43	0	903872512	63	5699
2026-01-08 10:05:32.78	345.90	37.13	-45.6	-49.7	14.5	7.00e-07	0	43	0	904921088	63	5542
2026-01-08 10:05:34.36	345.86	36.75	-45.3	-49.0	15.2	0.00e+00	0	42	0	908066816	62	5430
2026-01-08 10:05:34.97	345.84	36.61	-45.2	-48.7	15.5	0.00e+00	0	43	0	909115392	62	5239
2026-01-08 10:05:36.55	345.80	36.23	-45.0	-48.4	15.7	0.00e+00	0	43	0	912261120	61	5366
2026-01-08 10:05:37.17	345.79	36.09	-45.0	-48.3	15.8	0.00e+00	0	43	0	913309696	61	5324
2026-01-08 10:05:38.87	345.74	35.70	-44.8	-48.1	16.0	0.00e+00	0	42	0	916455424	61	5196
2026-01-08 10:05:39.45	345.73	35.56	-44.6	-47.8	16.3	0.00e+00	0	43	0	917504000	60	5337
2026-01-08 10:05:41.04	345.69	35.20	-44.8	-48.1	16.0	0.00e+00	0	43	0	920649728	60	5514
2026-01-08 10:05:41.61	345.68	35.07	-45.4	-49.2	15.0	0.00e+00	0	43	0	921698304	61	5880
2026-01-08 10:05:43.19	345.64	34.72	-46.7	-51.5	12.8	1.52e-05	0	42	0	924844032	63	6825
2026-01-08 10:05:43.84	345.62	34.57	-46.8	-51.9	12.3	9.68e-05	0	43	0	925892608	64	6751
2026-01-08 10:05:45.27	345.59	34.26	-47.8	-54.5	9.7	6.25e-03	0	42	0	927989760	66	8103
2026-01-08 10:05:45.99	345.57	34.10	-47.9	-55.2	9.0	1.38e-02	0	43	0	930086912	66	8836
2026-01-08 10:05:47.27	345.55	33.82	-47.9	-55.3	8.8	2.41e-02	0	42	0	932184064	66	8895
2026-01-08 10:05:47.99	345.53	33.66	-47.4	-53.7	10.4	5.62e-03	0	43	0	933232640	66	7448
2026-01-08 10:05:49.29	345.50	33.39	-46.6	-51.7	12.5	6.15e-04	0	43	0	936378368	65	6250
2026-01-08 10:05:50.00	345.49	33.23	-46.1	-50.5	13.7	6.79e-05	0	43	0	937426944	64	5784
2026-01-08 10:05:51.29	345.46	32.96	-45.6	-49.5	14.8	0.00e+00	0	43	0	939524096	63	5449
2026-01-08 10:05:52.01	345.45	32.81	-45.4	-49.2	15.1	0.00e+00	0	43	0	940572672	62	5575
2026-01-08 10:05:53.30	345.42	32.54	-45.4	-49.0	15.3	0.00e+00	0	43	0	943718400	62	5464
2026-01-08 10:05:54.02	345.40	32.39	-45.3	-48.9	15.4	0.00e+00	0	43	0	944766976	62	5366
2026-01-08 10:05:55.31	345.38	32.13	-45.5	-49.0	15.3	0.00e+00	0	43	0	946864128	62	5456
2026-01-08 10:05:56.02	345.37	31.98	-45.8	-49.5	14.8	0.00e+00	0	43	0	948961280	62	5783
2026-01-08 10:05:57.31	345.34	31.72	-45.9	-49.6	14.8	7.00e-07	0	43	0	951058432	62	5848
2026-01-08 10:05:58.03	345.33	31.57	-45.8	-49.5	14.8	0.00e+00	0	43	0	952107008	62	5778
2026-01-08 10:05:59.32	345.30	31.32	-45.4	-48.9	15.5	0.00e+00	0	42	0	955252736	62	5357
2026-01-08 10:06:00.03	345.29	31.17	-45.2	-48.6	15.7	0.00e+00	0	43	0	956301312	62	5177
2026-01-08 10:06:01.33	345.27	30.92	-45.3	-48.9	15.5	0.00e+00	0	43	0	958398464	62	5346
2026-01-08 10:06:02.04	345.25	30.78	-45.4	-49.0	15.3	0.00e+00	0	42	0	959447040	62	5405
2026-01-08 10:06:03.33	345.23	30.53	-45.9	-49.6	14.7	0.00e+00	0	43	0	962592768	62	5835
2026-01-08 10:06:04.11	345.22	30.38	-46.1	-49.8	14.5	0.00e+00	0	42	0	963641344	62	5974
2026-01-08 10:06:05.40	345.20	30.13	-46.5	-50.6	13.8	2.20e-06	0	43	0	965738496	63	6188
2026-01-08 10:06:06.12	345.18	29.99	-46.8	-51.3	13.1	7.60e-06	0	42	0	967835648	64	6298
2026-01-08 10:06:07.41	345.16	29.75	-47.0	-51.9	12.4	5.03e-05	0	42	0	969932800	64	6757
2026-01-08 10:06:08.12	345.15	29.61	-47.0	-52.2	12.2	1.63e-04	0	42	0	970981376	64	6978
2026-01-08 10:06:09.42	345.13	29.37	-46.8	-51.9	12.5	1.38e-04	0	42	0	974127104	64	6746
2026-01-08 10:06:10.13	345.12	29.24	-46.7	-51.7	12.7	1.26e-04	0	43	0	975175680	64	6589
2026-01-08 10:06:11.43	345.10	29.00	-46.0	-50.3	14.0	3.66e-05	0	43	0	977272832	64	5656
2026-01-08 10:06:12.14	345.09	28.87	-46.1	-50.6	13.7	3.80e-06	0	43	0	978321408	64	5801
2026-01-08 10:06:13.49	345.07	28.62	-45.8	-49.7	14.7	0.00e+00	0	42	0	981467136	63	5564
2026-01-08 10:06:14.21	345.06	28.49	-45.3	-48.7	15.7	0.00e+00	0	42	0	982515712	62	5228
2026-01-08 10:06:15.50	345.04	28.26	-44.8	-47.9	16.2	0.00e+00	0	42	0	984612864	61	5050
2026-01-08 10:06:16.22	345.03	28.13	-44.8	-47.8	16.4	0.00e+00	0	43	0	986710016	61	5029
2026-01-08 10:06:17.64	345.01	27.88	-44.3	-47.2	17.0	0.00e+00	0	43	0	988807168	60	4938
2026-01-08 10:06:18.36	345.00	27.75	-44.3	-47.1	17.1	0.00e+00	0	42	0	990904320	59	5210
2026-01-08 10:06:19.65	344.98	27.53	-44.1	-46.9	17.3	0.00e+00	0	43	0	993001472	59	5073
2026-01-08 10:06:20.36	344.97	27.40	-43.9	-46.7	17.4	0.00e+00	0	43	0	994050048	59	4963
2026-01-08 10:06:21.79	344.95	27.16	-43.7	-46.6	17.6	0.00e+00	0	43	0	997195776	59	4871
2026-01-08 10:06:22.51	344.94	27.03	-43.8	-46.6	17.5	0.00e+00	0	43	0	998244352	59	4889
2026-01-08 10:06:23.80	344.93	26.81	-43.9	-46.8	17.3	0.00e+00	0	43	0	1000341504	59	4999
2026-01-08 10:06:24.52	344.92	26.69	-43.9	-46.6	17.5	0.00e+00	0	43	0	1002438656	59	4923
2026-01-08 10:06:25.80	344.90	26.48	-44.1	-46.9	17.3	0.00e+00	0	43	0	1004535808	59	5067
2026-01-08 10:06:26.52	344.89	26.35	-44.1	-46.9	17.3	0.00e+00	0	43	0	1005584384	59	5053
2026-01-08 10:06:27.81	344.88	26.14	-44.3	-47.1	17.1	0.00e+00	0	43	0	1007681536	59	5201
2026-01-08 10:06:28.53	344.87	26.02	-44.2	-47.1	17.1	0.00e+00	0	42	0	1009778688	59	5165
2026-01-08 10:06:29.81	344.85	25.81	-44.4	-47.3	16.9	0.00e+00	0	43	0	1011875840	59	5290
2026-01-08 10:06:30.53	344.84	25.69	-44.7	-47.7	16.5	0.00e+00	0	43	0	1012924416	60	5277
2026-01-08 10:06:31.82	344.83	25.48	-44.8	-48.0	16.3	0.00e+00	0	42	0	1016070144	60	5408
2026-01-08 10:06:32.53	344.82	25.37	-44.8	-48.0	16.2	0.00e+00	0	43	0	1017118720	60	5450
2026-01-08 10:06:33.83	344.80	25.16	-45.2	-48.7	15.7	0.00e+00	0	43	0	1019215872	61	5553
2026-01-08 10:06:34.54	344.80	25.05	-45.3	-48.8	15.4	0.00e+00	0	43	0	1021313024	61	5646
2026-01-08 10:06:35.83	344.78	24.84	-45.3	-48.9	15.4	0.00e+00	0	43	0	1023410176	61	5693
2026-01-08 10:06:36.55	344.77	24.73	-45.3	-48.9	15.4	0.00e+00	0	43	0	1024458752	61	5693
2026-01-08 10:06:37.84	344.76	24.53	-45.0	-48.4	15.9	0.00e+00	0	42	0	1026555904	61	5382
2026-01-08 10:06:38.56	344.75	24.42	-44.9	-48.2	16.0	0.00e+00	0	43	0	1028653056	61	5260
2026-01-08 10:06:39.85	344.74	24.22	-44.6	-47.9	16.4	0.00e+00	0	42	0	1030750208	61	5053
2026-01-08 10:06:40.57	344.73	24.11	-44.4	-47.5	16.7	0.00e+00	0	43	0	1031798784	60	5115
2026-01-08 10:06:41.86	344.72	23.91	-44.1	-47.1	17.1	0.00e+00	0	42	0	1034944512	60	4896
2026-01-08 10:06:42.57	344.71	23.80	-44.2	-47.2	17.0	0.00e+00	0	43	0	1035993088	60	4931
2026-01-08 10:06:43.86	344.70	23.61	-43.9	-46.7	17.4	0.00e+00	0	42	0	1038090240	59	4934
2026-01-08 10:06:44.58	344.69	23.50	-43.8	-46.5	17.5	0.00e+00	0	43	0	1040187392	59	4868
2026-01-08 10:06:45.87	344.68	23.31	-43.9	-46.8	17.3	0.00e+00	0	42	0	1042284544	59	5009
2026-01-08 10:06:46.59	344.67	23.20	-43.6	-46.5	17.5	0.00e+00	0	43	0	1043333120	59	4837
2026-01-08 10:06:47.88	344.66	23.01	-43.6	-46.5	17.6	0.00e+00	0	43	0	1045430272	58	5113
2026-01-08 10:06:48.59	344.65	22.91	-43.6	-46.6	17.4	0.00e+00	0	43	0	1047527424	58	5182
2026-01-08 10:06:49.88	344.64	22.72	-43.4	-46.4	17.7	0.00e+00	0	43	0	1049624576	58	5074
2026-01-08 10:06:50.60	344.64	22.61	-43.3	-46.3	17.8	0.00e+00	0	43	0	1050673152	58	5004
2026-01-08 10:06:51.89	344.62	22.43	-43.2	-46.1	17.9	0.00e+00	0	43	0	1053818880	58	4918
2026-01-08 10:06:52.60	344.62	22.33	-42.8	-45.6	18.4	0.00e+00	0	43	0	1054867456	57	4889
2026-01-08 10:06:54.10	344.60	22.11	-42.8	-45.4	18.5	0.00e+00	0	43	0	1056964608	57	4790
2026-01-08 10:06:54.82	344.60	22.01	-42.5	-45.1	18.8	0.00e+00	0	43	0	1059061760	57	4605
2026-01-08 10:06:56.17	344.59	21.82	-42.4	-44.9	18.9	0.00e+00	0	43	0	1061158912	56	4794
2026-01-08 10:06:56.88	344.58	21.72	-42.6	-45.1	18.8	0.00e+00	0	42	0	1062207488	56	4894
2026-01-08 10:06:58.17	344.57	21.54	-42.5	-44.9	19.0	0.00e+00	0	42	0	1065353216	56	4770
2026-01-08 10:06:58.89	344.56	21.44	-42.3	-44.7	19.1	0.00e+00	0	42	0	1066401792	56	4662
2026-01-08 10:07:00.18	344.55	21.26	-42.5	-44.9	19.0	0.00e+00	0	43	0	1068498944	56	4771
2026-01-08 10:07:00.90	344.55	21.17	-42.4	-44.8	19.0	0.00e+00	0	42	0	1070596096	56	4708
2026-01-08 10:07:02.19	344.54	20.99	-42.7	-45.2	18.7	0.00e+00	0	43	0	1072693248	56	4949
2026-01-08 10:07:02.90	344.53	20.89	-42.9	-45.4	18.5	0.00e+00	0	43	0	1073741824	56	5071
2026-01-08 10:07:04.19	344.52	20.72	-43.1	-45.7	18.3	0.00e+00	0	43	0	1076887552	56	5236
2026-01-08 10:07:04.99	344.52	20.61	-43.3	-46.0	18.0	0.00e+00	0	43	0	1077936128	57	5106
2026-01-08 10:07:06.14	344.51	20.46	-43.5	-46.3	17.8	0.00e+00	0	42	0	1080033280	57	5282
2026-01-08 10:07:07.22	344.50	20.32	-43.4	-46.2	17.8	0.00e+00	0	43	0	1082130432	57	5232
2026-01-08 10:07:08.25	344.49	20.18	-43.8	-46.6	17.4	0.00e+00	0	43	0	1084227584	58	5210
2026-01-08 10:07:09.25	344.49	20.05	-43.9	-46.8	17.2	0.00e+00	0	43	0	1086324736	58	5330
2026-01-08 10:07:10.46	344.48	19.89	-44.0	-47.0	17.1	0.00e+00	0	43	0	1088421888	58	5428
2026-01-08 10:07:11.35	344.47	19.78	-44.2	-47.3	16.8	0.00e+00	0	43	0	1089470464	59	5289
2026-01-08 10:07:12.49	344.46	19.63	-44.4	-47.5	16.6	0.00e+00	0	43	0	1091567616	59	5424
2026-01-08 10:07:13.35	344.46	19.52	-44.3	-47.4	16.7	0.00e+00	0	43	0	1093664768	59	5387
2026-01-08 10:07:14.50	344.45	19.37	-44.6	-47.8	16.3	0.00e+00	0	43	0	1095761920	59	5616
2026-01-08 10:07:15.36	344.45	19.26	-44.6	-47.7	16.4	0.00e+00	0	43	0	1096810496	59	5566
2026-01-08 10:07:16.50	344.44	19.12	-44.7	-47.9	16.3	0.00e+00	0	42	0	1099956224	60	5376
2026-01-08 10:07:17.36	344.43	19.01	-44.9	-48.3	15.9	0.00e+00	0	43	0	1101004800	60	5614
2026-01-08 10:07:18.51	344.43	18.87	-44.8	-48.1	16.1	0.00e+00	0	43	0	1103101952	60	5502
2026-01-08 10:07:19.37	344.42	18.76	-44.8	-48.2	16.0	0.00e+00	0	43	0	1105199104	60	5564
2026-01-08 10:07:20.52	344.41	18.62	-44.9	-48.5	15.7	0.00e+00	0	43	0	1107296256	60	5782
2026-01-08 10:07:21.38	344.41	18.51	-44.8	-48.4	15.8	0.00e+00	0	43	0	1108344832	60	5718
2026-01-08 10:07:22.52	344.40	18.37	-44.8	-48.6	15.6	0.00e+00	0	42	0	1110441984	60	5827
2026-01-08 10:07:23.38	344.40	18.27	-44.8	-48.6	15.6	0.00e+00	0	43	0	1112539136	60	5822
2026-01-08 10:07:24.53	344.39	18.13	-44.8	-48.5	15.7	0.00e+00	0	43	0	1114636288	60	5744
2026-01-08 10:07:25.39	344.39	18.03	-44.9	-48.7	15.5	0.00e+00	0	43	0	1115684864	60	5884
2026-01-08 10:07:26.54	344.38	17.89	-44.8	-48.5	15.7	0.00e+00	0	42	0	1118830592	60	5740
2026-01-08 10:07:27.40	344.37	17.79	-44.9	-48.4	15.8	0.00e+00	0	42	0	1119879168	60	5701
2026-01-08 10:07:28.54	344.37	17.65	-45.0	-48.5	15.7	0.00e+00	0	43	0	1121976320	60	5726
2026-01-08 10:07:29.40	344.36	17.55	-45.0	-48.4	15.7	0.00e+00	0	43	0	1124073472	60	5710
2026-01-08 10:07:30.55	344.36	17.41	-45.0	-48.4	15.8	0.00e+00	0	43	0	1126170624	60	5663
2026-01-08 10:07:31.41	344.35	17.31	-44.8	-48.1	16.0	0.00e+00	0	42	0	1127219200	60	5525
2026-01-08 10:07:32.56	344.35	17.18	-44.6	-47.8	16.3	0.00e+00	0	43	0	1129316352	60	5328
2026-01-08 10:07:33.42	344.34	17.08	-44.6	-47.9	16.2	0.00e+00	0	43	0	1131413504	60	5389
2026-01-08 10:07:34.57	344.34	16.95	-44.5	-47.9	16.3	0.00e+00	0	43	0	1133510656	60	5369
2026-01-08 10:07:35.43	344.33	16.85	-44.6	-48.0	16.1	0.00e+00	0	42	0	1134559232	60	5450
2026-01-08 10:07:36.57	344.33	16.72	-44.3	-47.8	16.3	0.00e+00	0	42	0	1136656384	60	5336
2026-01-08 10:07:37.44	344.32	16.62	-44.3	-48.0	16.1	0.00e+00	0	43	0	1138753536	60	5444
2026-01-08 10:07:38.58	344.32	16.49	-44.2	-47.8	16.3	0.00e+00	0	43	0	1140850688	59	5598
2026-01-08 10:07:39.44	344.31	16.39	-44.2	-47.9	16.2	0.00e+00	0	42	0	1142947840	59	5689
2026-01-08 10:07:40.58	344.31	16.26	-44.3	-48.0	16.1	0.00e+00	0	43	0	1145044992	59	5760
2026-01-08 10:07:41.44	344.30	16.17	-44.4	-48.1	15.9	0.00e+00	0	42	0	1146093568	59	5841
2026-01-08 10:07:42.59	344.30	16.04	-44.4	-48.2	15.9	0.00e+00	0	43	0	1148190720	59	5885
2026-01-08 10:07:43.45	344.29	15.94	-44.5	-48.2	15.9	0.00e+00	0	43	0	1150287872	59	5878
2026-01-08 10:07:44.60	344.29	15.82	-44.5	-48.3	15.8	0.00e+00	0	43	0	1152385024	60	5651
2026-01-08 10:07:45.46	344.29	15.72	-44.5	-48.2	15.9	0.00e+00	0	43	0	1153433600	60	5565
2026-01-08 10:07:46.61	344.28	15.60	-44.5	-48.2	15.9	0.00e+00	0	43	0	1155530752	60	5546
2026-01-08 10:07:47.72	344.28	15.48	-44.8	-48.6	15.5	0.00e+00	0	42	0	1157627904	60	5802
2026-01-08 10:07:48.75	344.27	15.37	-44.9	-48.7	15.5	0.00e+00	0	43	0	1159725056	60	5892
2026-01-08 10:07:49.75	344.27	15.26	-45.0	-48.7	15.4	0.00e+00	0	43	0	1161822208	60	5903
2026-01-08 10:07:50.96	344.26	15.13	-45.0	-48.9	15.3	0.00e+00	0	43	0	1163919360	60	6011
2026-01-08 10:07:51.87	344.26	15.03	-45.0	-48.8	15.4	0.00e+00	0	43	0	1166016512	60	5969
2026-01-08 10:07:52.87	344.26	14.92	-45.0	-49.0	15.2	0.00e+00	0	43	0	1168113664	60	6076
2026-01-08 10:07:53.87	344.25	14.82	-45.0	-49.1	15.0	0.00e+00	0	43	0	1169162240	60	6159
2026-01-08 10:07:54.88	344.25	14.71	-45.0	-49.1	15.0	0.00e+00	0	42	0	1171259392	60	6175
2026-01-08 10:07:55.88	344.24	14.61	-44.9	-49.1	15.1	0.00e+00	0	42	0	1173356544	60	6166
2026-01-08 10:07:56.88	344.24	14.50	-44.8	-49.0	14.9	0.00e+00	0	43	0	1175453696	60	6091
2026-01-08 10:07:57.89	344.24	14.40	-44.8	-49.0	15.2	0.00e+00	0	43	0	1177550848	60	6090
2026-01-08 10:07:58.89	344.23	14.30	-44.8	-49.1	15.0	0.00e+00	0	43	0	1178599424	60	6174
2026-01-08 10:07:59.89	344.23	14.19	-44.8	-49.0	15.2	0.00e+00	0	43	0	1180696576	60	6079
2026-01-08 10:08:00.90	344.23	14.09	-44.8	-49.0	15.1	0.00e+00	0	43	0	1182793728	60	6083
2026-01-08 10:08:01.90	344.22	13.99	-45.0	-49.1	15.0	7.00e-07	0	42	0	1184890880	60	6200
2026-01-08 10:08:02.90	344.22	13.88	-44.9	-49.0	15.1	0.00e+00	0	43	0	1186988032	60	6104
2026-01-08 10:08:03.99	344.22	13.77	-45.0	-49.0	15.1	0.00e+00	0	42	0	1188036608	60	6126
2026-01-08 10:08:04.88	344.21	13.68	-45.0	-49.0	15.1	0.00e+00	0	42	0	1190133760	60	6064
2026-01-08 10:08:06.02	344.21	13.57	-44.9	-48.8	15.3	0.00e+00	0	43	0	1192230912	60	5964
2026-01-08 10:08:06.88	344.21	13.48	-44.9	-48.7	15.4	0.00e+00	0	43	0	1194328064	60	5881
2026-01-08 10:08:08.03	344.20	13.37	-45.0	-48.8	15.3	0.00e+00	0	43	0	1196425216	60	5934
2026-01-08 10:08:08.89	344.20	13.28	-45.1	-48.8	15.3	0.00e+00	0	43	0	1197473792	61	5641
2026-01-08 10:08:10.03	344.20	13.17	-44.9	-48.5	15.6	0.00e+00	0	43	0	1199570944	61	5442
2026-01-08 10:08:10.89	344.20	13.09	-44.9	-48.6	15.5	0.00e+00	0	43	0	1201668096	61	5469
2026-01-08 10:08:12.03	344.19	12.97	-44.8	-48.4	15.7	0.00e+00	0	42	0	1203765248	61	5346
2026-01-08 10:08:12.90	344.19	12.89	-44.8	-48.4	15.8	0.00e+00	0	43	0	1204813824	61	5365
2026-01-08 10:08:14.04	344.19	12.78	-44.7	-48.2	15.8	0.00e+00	0	43	0	1206910976	61	5270
2026-01-08 10:08:14.90	344.18	12.70	-44.7	-48.3	15.8	0.00e+00	0	43	0	1209008128	61	5314
2026-01-08 10:08:16.05	344.18	12.59	-44.6	-48.2	15.8	0.00e+00	0	43	0	1211105280	61	5262
2026-01-08 10:08:16.91	344.18	12.50	-44.5	-48.1	15.9	0.00e+00	0	43	0	1213202432	61	5214
2026-01-08 10:08:18.05	344.18	12.39	-44.5	-48.0	16.0	0.00e+00	0	43	0	1215299584	60	5454
2026-01-08 10:08:18.91	344.17	12.31	-44.5	-48.1	15.9	0.00e+00	0	42	0	1216348160	60	5522
2026-01-08 10:08:20.06	344.17	12.20	-44.4	-48.0	16.1	0.00e+00	0	42	0	1218445312	60	5406
2026-01-08 10:08:20.92	344.17	12.12	-44.5	-48.1	16.0	0.00e+00	0	43	0	1220542464	60	5518
2026-01-08 10:08:22.06	344.17	12.01	-44.4	-47.9	16.1	0.00e+00	0	43	0	1222639616	60	5387
2026-01-08 10:08:22.92	344.16	11.93	-44.4	-47.8	16.2	0.00e+00	0	43	0	1223688192	60	5326
2026-01-08 10:08:24.07	344.16	11.83	-44.6	-48.1	15.9	0.00e+00	0	43	0	1225785344	60	5494
2026-01-08 10:08:24.93	344.16	11.75	-44.4	-47.9	16.1	0.00e+00	0	43	0	1227882496	60	5367
2026-01-08 10:08:26.07	344.16	11.64	-44.4	-47.8	16.2	0.00e+00	0	43	0	1229979648	60	5299
2026-01-08 10:08:26.93	344.15	11.56	-44.5	-47.9	16.1	0.00e+00	0	43	0	1232076800	60	5391
2026-01-08 10:08:28.08	344.15	11.45	-44.4	-47.9	16.2	0.00e+00	0	43	0	1233125376	60	5350
2026-01-08 10:08:28.94	344.15	11.38	-44.5	-48.1	16.0	0.00e+00	0	43	0	1235222528	60	5465
2026-01-08 10:08:30.16	344.15	11.26	-44.3	-47.8	16.2	0.00e+00	0	43	0	1237319680	60	5331
2026-01-08 10:08:31.44	344.14	11.15	-44.3	-47.8	16.1	0.00e+00	0	42	0	1240465408	60	5328
2026-01-08 10:08:32.15	344.14	11.08	-44.3	-47.9	16.1	0.00e+00	0	43	0	1241513984	60	5360
