passes_logs/2026/01/08/T1/T1__20260108_011230_AQUA_rec.log

#Pass ID: 20260108_011230_AQUA
#Satellite: AQUA
#Configuration: AQUA
#almurnet v.1.7.20251203
#Start time: 2026-01-08 01:12:31

#Version: 2.0.20230620
#Station: T1
#Location: 37.570604 lon 55.790049 lat
#TLE: 1 27424U 02022A   26004.96787593  .00001598  00000+0  32997-3 0  9996
#TLE: 2 27424  98.4069 331.2279 0002002  90.2377   0.6092 14.61798176259425

#Time	Az	El	Level	Level2	SNR	BER	BlckErr	Temp	State	Recorded	gain1	gain2
2026-01-08 01:12:31.19	17.12	5.04	-51.9	-73.5	3.8	7.45e-01	0	37	0	0	74	45899
2026-01-08 01:12:32.18	17.14	5.11	-51.9	-73.6	3.8	7.45e-01	0	37	104	0	74	46500
2026-01-08 01:12:33.18	17.15	5.19	-51.9	-73.6	3.8	7.47e-01	0	37	104	0	74	46480
2026-01-08 01:12:34.18	17.16	5.26	-52.0	-73.6	3.8	7.45e-01	0	37	104	0	74	46085
2026-01-08 01:12:35.18	17.18	5.34	-52.0	-73.5	3.8	7.46e-01	0	37	104	0	74	45487
2026-01-08 01:12:36.17	17.19	5.41	-52.0	-73.4	3.8	7.48e-01	0	37	104	0	74	45040
2026-01-08 01:12:37.17	17.20	5.49	-52.0	-73.2	3.8	7.45e-01	0	37	104	0	74	44145
2026-01-08 01:12:38.16	17.22	5.57	-52.0	-73.1	3.8	7.45e-01	0	37	104	0	74	43495
2026-01-08 01:12:39.16	17.23	5.64	-52.0	-72.9	3.8	7.44e-01	0	37	104	0	74	42597
2026-01-08 01:12:40.16	17.25	5.72	-52.0	-72.8	3.8	7.47e-01	0	37	104	0	74	42215
2026-01-08 01:12:41.16	17.26	5.79	-52.0	-72.7	3.8	7.44e-01	0	37	104	0	74	41584
2026-01-08 01:12:42.16	17.27	5.87	-52.0	-72.6	3.8	7.47e-01	0	37	104	0	74	41097
2026-01-08 01:12:43.16	17.29	5.95	-52.0	-72.5	3.8	7.47e-01	0	37	104	0	74	40616
2026-01-08 01:12:44.16	17.30	6.03	-52.0	-72.4	3.8	7.46e-01	0	37	104	0	74	40407
2026-01-08 01:12:45.17	17.32	6.11	-52.0	-72.4	3.8	7.43e-01	0	38	104	0	74	40246
2026-01-08 01:12:46.17	17.33	6.18	-52.0	-72.5	3.8	7.46e-01	0	37	104	0	74	40668
2026-01-08 01:12:47.17	17.35	6.26	-52.0	-72.6	3.8	7.45e-01	0	37	104	0	74	41050
2026-01-08 01:12:48.17	17.36	6.34	-52.0	-72.7	3.8	7.44e-01	0	38	104	0	74	41580
2026-01-08 01:12:49.17	17.37	6.42	-52.0	-72.9	3.8	7.46e-01	0	38	104	0	74	42681
2026-01-08 01:12:50.17	17.39	6.50	-52.1	-73.1	3.8	7.44e-01	0	37	104	0	74	43899
2026-01-08 01:12:51.18	17.40	6.58	-52.1	-73.4	3.8	7.44e-01	0	37	104	0	74	45067
2026-01-08 01:12:52.18	17.42	6.66	-52.1	-73.5	3.8	7.46e-01	0	38	104	0	74	45973
2026-01-08 01:12:53.18	17.43	6.74	-52.1	-73.5	3.8	7.44e-01	0	38	104	0	74	45849
2026-01-08 01:12:54.19	17.45	6.82	-52.1	-73.2	3.8	7.47e-01	0	38	104	0	74	44323
2026-01-08 01:12:55.19	17.46	6.90	-52.0	-72.6	3.8	7.49e-01	0	38	104	0	74	41363
2026-01-08 01:12:56.19	17.48	6.98	-52.0	-71.6	3.9	7.39e-01	0	38	104	0	74	36723
2026-01-08 01:12:57.19	17.49	7.06	-52.0	-70.9	3.9	7.44e-01	0	38	104	0	74	33778
2026-01-08 01:12:58.19	17.51	7.14	-52.0	-69.8	3.9	7.48e-01	0	38	104	0	74	30020
2026-01-08 01:12:59.19	17.52	7.22	-51.9	-68.5	4.9	7.12e-01	0	38	104	0	74	25815
2026-01-08 01:13:00.20	17.54	7.31	-51.9	-67.8	5.3	7.02e-01	0	38	0	0	74	23629
2026-01-08 01:13:01.20	17.55	7.39	-51.9	-67.1	5.8	6.89e-01	0	38	0	524288	74	21882
2026-01-08 01:13:02.20	17.57	7.47	-51.9	-66.6	6.1	6.82e-01	0	38	0	2097152	74	20573
2026-01-08 01:13:03.21	17.58	7.55	-51.9	-66.2	6.5	6.76e-01	0	38	0	4194304	74	19707
2026-01-08 01:13:04.21	17.60	7.64	-51.9	-65.9	6.7	6.71e-01	0	38	0	5767168	74	19088
2026-01-08 01:13:05.21	17.62	7.72	-51.9	-65.7	6.9	6.66e-01	0	38	0	7864320	74	18644
2026-01-08 01:13:06.21	17.63	7.81	-51.9	-65.6	7.0	6.61e-01	0	38	0	9437184	74	18399
2026-01-08 01:13:07.21	17.65	7.89	-51.9	-65.6	7.0	6.66e-01	0	38	0	11534336	74	18444
2026-01-08 01:13:08.22	17.66	7.97	-51.9	-65.6	6.9	6.65e-01	0	38	0	13631488	74	18517
2026-01-08 01:13:09.22	17.68	8.06	-51.9	-65.7	6.9	6.67e-01	0	38	0	15204352	74	18656
2026-01-08 01:13:10.22	17.69	8.14	-51.9	-65.7	6.9	6.67e-01	0	38	0	17301504	74	18699
2026-01-08 01:13:11.21	17.71	8.23	-51.9	-65.9	6.7	6.72e-01	0	38	0	18874368	74	19014
2026-01-08 01:13:12.21	17.73	8.31	-51.9	-65.8	6.9	6.65e-01	0	38	0	20971520	74	18804
2026-01-08 01:13:13.21	17.74	8.40	-51.9	-65.7	6.9	6.65e-01	0	38	0	22544384	74	18622
2026-01-08 01:13:14.21	17.76	8.49	-51.9	-65.3	7.3	6.58e-01	0	38	0	24641536	74	17738
2026-01-08 01:13:15.20	17.77	8.57	-51.9	-64.8	7.8	6.51e-01	0	38	0	26738688	74	16830
2026-01-08 01:13:16.20	17.79	8.66	-51.8	-64.3	8.2	6.42e-01	0	38	0	28311552	74	15924
2026-01-08 01:13:17.20	17.81	8.75	-51.7	-63.6	9.0	6.31e-01	0	38	0	30408704	74	14548
2026-01-08 01:13:18.19	17.82	8.83	-51.7	-62.8	9.7	6.24e-01	0	38	0	31981568	74	13414
2026-01-08 01:13:19.19	17.84	8.92	-51.5	-62.0	10.7	6.17e-01	0	39	0	34078720	74	12146
2026-01-08 01:13:20.19	17.86	9.01	-51.5	-61.4	11.2	6.13e-01	0	38	0	35651584	74	11398
2026-01-08 01:13:21.19	17.87	9.10	-51.4	-61.0	11.7	6.11e-01	0	38	0	37748736	74	10893
2026-01-08 01:13:22.18	17.89	9.19	-51.8	-61.4	11.4	6.15e-01	0	39	0	39321600	74	11348
2026-01-08 01:13:23.18	17.91	9.28	-52.1	-64.2	8.2	6.41e-01	0	38	0	41418752	75	14798
2026-01-08 01:13:24.18	17.92	9.36	-51.2	-62.5	10.4	6.19e-01	0	38	0	43515904	74	12883
2026-01-08 01:13:25.18	17.94	9.46	-51.6	-69.6	4.2	7.26e-01	0	38	104	44564480	74	29185
2026-01-08 01:13:26.18	17.96	9.55	-49.4	-53.5	19.3	6.05e-01	0	39	0	45613056	70	5763
2026-01-08 01:13:27.18	17.98	9.64	-49.3	-53.4	19.4	6.06e-01	0	39	0	47710208	70	5684
2026-01-08 01:13:28.18	17.99	9.73	-48.5	-51.9	20.8	6.07e-01	0	39	0	49807360	69	5051
2026-01-08 01:13:29.18	18.01	9.82	-47.7	-50.9	21.6	6.04e-01	0	39	0	51380224	67	5066
2026-01-08 01:13:30.18	18.03	9.91	-47.5	-50.7	21.9	6.03e-01	0	39	0	53477376	67	4930
2026-01-08 01:13:31.19	18.05	10.00	-47.6	-50.6	21.9	6.04e-01	0	39	0	55050240	67	4924
2026-01-08 01:13:32.19	18.06	10.10	-47.4	-50.4	22.1	6.05e-01	0	39	0	57147392	66	5096
2026-01-08 01:13:33.19	18.08	10.19	-47.5	-50.6	22.0	6.05e-01	0	39	0	59244544	66	5162
2026-01-08 01:13:34.19	18.10	10.28	-47.4	-50.5	22.0	6.04e-01	0	39	0	60817408	66	5139
2026-01-08 01:13:35.20	18.12	10.38	-47.4	-50.4	22.1	6.05e-01	0	39	0	62914560	66	5093
2026-01-08 01:13:36.20	18.14	10.47	-47.3	-50.4	22.2	6.06e-01	0	39	0	64487424	66	5062
2026-01-08 01:13:37.20	18.15	10.57	-47.2	-50.3	22.2	6.04e-01	0	39	0	66584576	66	5037
2026-01-08 01:13:38.20	18.17	10.66	-47.2	-50.3	22.2	6.02e-01	0	39	0	68681728	66	5028
2026-01-08 01:13:39.20	18.19	10.76	-47.2	-50.4	22.2	6.05e-01	0	39	0	70254592	66	5060
2026-01-08 01:13:40.20	18.21	10.85	-47.1	-50.3	22.3	6.04e-01	0	39	0	72351744	66	5003
2026-01-08 01:13:41.20	18.23	10.95	-47.1	-50.4	22.1	6.03e-01	0	39	0	73924608	66	5075
2026-01-08 01:13:42.20	18.25	11.05	-47.0	-50.2	22.3	6.04e-01	0	39	0	76021760	66	4959
2026-01-08 01:13:43.21	18.26	11.14	-47.0	-50.2	22.4	6.06e-01	0	39	0	77594624	66	4943
2026-01-08 01:13:44.21	18.28	11.24	-47.1	-50.2	22.4	6.03e-01	0	39	0	79691776	66	4945
2026-01-08 01:13:45.21	18.30	11.34	-47.3	-50.3	22.3	6.03e-01	0	39	0	81788928	66	4988
2026-01-08 01:13:46.21	18.32	11.44	-47.2	-50.2	22.4	6.05e-01	0	39	0	83361792	66	4951
2026-01-08 01:13:47.21	18.34	11.54	-47.3	-50.2	22.3	6.05e-01	0	39	0	85458944	66	4963
2026-01-08 01:13:48.21	18.36	11.64	-47.2	-50.1	22.4	6.04e-01	0	39	0	87031808	66	4925
2026-01-08 01:13:49.21	18.38	11.74	-47.1	-50.0	22.5	6.03e-01	0	39	0	89128960	66	4847
2026-01-08 01:13:50.22	18.40	11.84	-47.2	-50.1	22.4	6.03e-01	0	39	0	91226112	66	4922
2026-01-08 01:13:51.21	18.42	11.94	-47.2	-50.0	22.6	6.03e-01	0	39	0	92798976	66	4852
2026-01-08 01:13:52.22	18.44	12.04	-47.2	-50.0	22.6	6.05e-01	0	39	0	94896128	66	4850
2026-01-08 01:13:53.22	18.46	12.14	-47.2	-50.1	22.5	6.03e-01	0	39	0	96468992	66	4876
2026-01-08 01:13:54.21	18.48	12.24	-47.3	-50.1	22.4	6.02e-01	0	39	0	98566144	66	4907
2026-01-08 01:13:55.22	18.50	12.35	-47.3	-50.1	22.4	6.05e-01	0	39	0	100139008	66	4910
2026-01-08 01:13:56.21	18.52	12.45	-47.2	-50.1	22.5	6.04e-01	0	39	0	102236160	66	4888
2026-01-08 01:13:57.21	18.54	12.55	-47.3	-50.1	22.4	6.05e-01	0	39	0	104333312	66	4909
2026-01-08 01:13:58.22	18.56	12.66	-47.2	-50.1	22.5	6.06e-01	0	39	0	105906176	66	4882
2026-01-08 01:13:59.22	18.58	12.76	-47.3	-50.2	22.4	6.04e-01	0	39	0	108003328	66	4931
2026-01-08 01:14:00.22	18.60	12.87	-47.2	-50.0	22.6	6.02e-01	0	39	0	109576192	66	4865
2026-01-08 01:14:01.22	18.62	12.97	-47.1	-49.9	22.7	6.05e-01	0	39	0	111673344	66	4813
2026-01-08 01:14:02.22	18.64	13.08	-47.2	-50.1	22.5	6.03e-01	0	39	0	113246208	66	4871
2026-01-08 01:14:03.22	18.66	13.19	-47.1	-49.9	22.7	6.05e-01	0	39	0	115343360	66	4801
2026-01-08 01:14:04.22	18.69	13.29	-47.1	-49.9	22.7	6.05e-01	0	39	0	117440512	66	4792
2026-01-08 01:14:05.22	18.71	13.40	-47.1	-49.9	22.7	6.04e-01	0	39	0	119013376	66	4806
2026-01-08 01:14:06.23	18.73	13.51	-47.0	-49.8	22.8	6.02e-01	0	39	0	121110528	66	4752
2026-01-08 01:14:07.23	18.75	13.62	-47.0	-49.8	22.8	6.04e-01	0	39	0	122683392	66	4742
2026-01-08 01:14:08.23	18.77	13.73	-47.0	-49.9	22.5	6.04e-01	0	39	0	124780544	66	4788
2026-01-08 01:14:09.24	18.79	13.84	-47.0	-49.9	22.4	6.05e-01	0	39	0	126353408	66	4765
2026-01-08 01:14:10.24	18.82	13.95	-46.9	-49.7	22.9	6.05e-01	0	39	0	128450560	65	4954
2026-01-08 01:14:11.24	18.84	14.06	-46.8	-49.8	22.7	6.02e-01	0	39	0	130547712	65	4984
2026-01-08 01:14:12.24	18.86	14.17	-46.7	-49.7	22.6	6.03e-01	0	39	0	132120576	65	4950
2026-01-08 01:14:13.24	18.88	14.28	-46.5	-49.5	22.4	6.04e-01	0	39	0	134217728	65	4858
2026-01-08 01:14:14.24	18.91	14.40	-46.5	-49.5	21.9	6.04e-01	0	39	0	135790592	65	4839
2026-01-08 01:14:15.24	18.93	14.51	-46.4	-49.4	21.6	6.05e-01	0	39	0	137887744	64	5093
2026-01-08 01:14:16.24	18.95	14.62	-46.4	-49.6	21.2	6.04e-01	0	39	0	139984896	64	5161
2026-01-08 01:14:17.24	18.98	14.74	-46.3	-49.5	21.4	6.02e-01	0	39	0	141557760	64	5113
2026-01-08 01:14:18.24	19.00	14.85	-46.3	-49.5	22.0	6.04e-01	0	39	0	143654912	64	5124
2026-01-08 01:14:19.23	19.02	14.97	-46.4	-49.6	22.3	6.04e-01	0	39	0	145227776	64	5188
2026-01-08 01:14:20.23	19.05	15.08	-46.2	-49.5	21.5	6.03e-01	0	39	0	147324928	64	5126
2026-01-08 01:14:21.23	19.07	15.20	-46.0	-49.4	20.4	6.08e-01	0	39	0	148897792	64	5090
2026-01-08 01:14:22.23	19.09	15.32	-46.2	-49.4	21.7	6.02e-01	0	39	0	150994944	64	5089
2026-01-08 01:14:23.23	19.12	15.43	-46.2	-49.4	22.3	6.05e-01	0	39	0	153092096	64	5067
2026-01-08 01:14:24.23	19.14	15.55	-46.1	-49.5	21.1	6.03e-01	0	39	0	154664960	64	5136
2026-01-08 01:14:25.23	19.17	15.67	-46.2	-49.6	21.1	6.04e-01	0	39	0	156762112	64	5166
2026-01-08 01:14:26.23	19.19	15.79	-46.1	-49.4	22.1	6.06e-01	0	39	0	158334976	64	5074
2026-01-08 01:14:27.23	19.22	15.91	-46.3	-49.4	22.8	6.03e-01	0	39	0	160432128	64	5096
2026-01-08 01:14:28.24	19.24	16.04	-46.4	-49.4	23.1	6.03e-01	0	39	0	162004992	64	5093
2026-01-08 01:14:29.24	19.27	16.16	-46.4	-49.4	23.2	6.03e-01	0	39	0	164102144	64	5053
2026-01-08 01:14:30.24	19.29	16.28	-46.4	-49.4	23.2	6.04e-01	0	39	0	166199296	64	5064
2026-01-08 01:14:31.24	19.32	16.40	-46.3	-49.4	22.8	6.04e-01	0	39	0	167772160	64	5050
2026-01-08 01:14:32.24	19.34	16.53	-46.3	-49.3	22.9	6.02e-01	0	39	0	169869312	64	4997
2026-01-08 01:14:33.24	19.37	16.65	-46.4	-49.4	23.1	6.06e-01	0	39	0	171442176	64	5059
2026-01-08 01:14:34.23	19.39	16.78	-46.5	-49.4	23.2	6.05e-01	0	39	0	173539328	64	5079
2026-01-08 01:14:35.23	19.42	16.90	-46.5	-49.4	23.2	6.04e-01	0	39	0	175112192	64	5081
2026-01-08 01:14:36.23	19.45	17.03	-46.6	-49.5	23.1	6.02e-01	0	39	0	177209344	64	5101
2026-01-08 01:14:37.23	19.47	17.16	-46.4	-49.3	23.3	6.05e-01	0	39	0	179306496	64	4986
2026-01-08 01:14:38.23	19.50	17.29	-46.4	-49.2	23.3	6.03e-01	0	39	0	180879360	64	4963
2026-01-08 01:14:39.23	19.53	17.41	-46.5	-49.2	23.3	6.01e-01	0	39	0	182976512	64	4978
2026-01-08 01:14:40.23	19.56	17.54	-46.6	-49.3	23.3	6.03e-01	0	39	0	184549376	64	5013
2026-01-08 01:14:41.22	19.58	17.67	-46.5	-49.3	23.3	6.02e-01	0	39	0	186646528	64	4998
2026-01-08 01:14:42.22	19.61	17.81	-46.6	-49.4	23.2	6.02e-01	0	39	0	188219392	64	5054
2026-01-08 01:14:43.22	19.64	17.94	-46.7	-49.4	23.2	6.05e-01	0	39	0	190316544	64	5058
2026-01-08 01:14:44.22	19.67	18.07	-46.7	-49.4	23.2	6.04e-01	0	39	0	192413696	64	5042
2026-01-08 01:14:45.21	19.69	18.20	-46.7	-49.4	23.0	6.06e-01	0	39	0	193986560	64	5049
2026-01-08 01:14:46.22	19.72	18.34	-46.6	-49.3	23.2	6.05e-01	0	39	0	196083712	64	5001
2026-01-08 01:14:47.22	19.75	18.47	-46.7	-49.4	23.2	6.05e-01	0	39	0	197656576	64	5043
2026-01-08 01:14:48.22	19.78	18.61	-46.6	-49.3	23.2	6.06e-01	0	39	0	199753728	64	5012
2026-01-08 01:14:49.21	19.81	18.75	-46.6	-49.3	23.2	6.05e-01	0	39	0	201850880	64	5036
2026-01-08 01:14:50.21	19.84	18.88	-46.6	-49.3	23.3	6.03e-01	0	39	0	203423744	64	5027
2026-01-08 01:14:51.21	19.87	19.02	-46.6	-49.3	23.3	6.05e-01	0	39	0	205520896	64	5005
2026-01-08 01:14:52.21	19.90	19.16	-46.6	-49.3	23.3	6.02e-01	0	39	0	207093760	64	5036
2026-01-08 01:14:53.21	19.93	19.30	-46.5	-49.3	23.2	6.03e-01	0	39	0	209190912	64	5019
2026-01-08 01:14:54.20	19.96	19.44	-46.4	-49.3	23.3	6.03e-01	0	39	0	210763776	64	4997
2026-01-08 01:14:55.20	19.99	19.58	-46.5	-49.4	23.2	6.03e-01	0	39	0	212860928	64	5051
2026-01-08 01:14:56.20	20.02	19.73	-46.4	-49.3	23.2	6.03e-01	0	39	0	214958080	64	5032
2026-01-08 01:14:57.20	20.05	19.87	-46.4	-49.4	23.2	6.01e-01	0	39	0	216530944	64	5065
2026-01-08 01:14:58.20	20.09	20.02	-46.3	-49.3	23.3	6.05e-01	0	39	0	218628096	64	5002
2026-01-08 01:14:59.20	20.12	20.16	-46.4	-49.3	23.3	6.01e-01	0	39	0	220200960	64	4987
2026-01-08 01:15:00.19	20.15	20.31	-46.4	-49.4	23.2	6.05e-01	0	39	0	222298112	64	5048
2026-01-08 01:15:01.19	20.18	20.45	-46.4	-49.2	23.3	6.03e-01	0	39	0	223870976	64	4961
2026-01-08 01:15:02.19	20.22	20.60	-46.4	-49.2	23.3	6.04e-01	0	39	0	225968128	64	4966
2026-01-08 01:15:03.19	20.25	20.75	-46.5	-49.3	23.3	6.04e-01	0	39	0	227540992	64	4985
2026-01-08 01:15:04.18	20.28	20.90	-46.4	-49.1	23.4	6.04e-01	0	39	0	229638144	64	4902
2026-01-08 01:15:05.19	20.32	21.05	-46.4	-49.1	23.4	6.04e-01	0	39	0	231735296	64	4898
2026-01-08 01:15:06.18	20.35	21.20	-46.5	-49.3	23.3	6.03e-01	0	39	0	233308160	64	5014
2026-01-08 01:15:07.18	20.38	21.36	-46.5	-49.3	23.3	6.03e-01	0	39	0	235405312	64	5002
2026-01-08 01:15:08.18	20.42	21.51	-46.5	-49.3	23.3	6.04e-01	0	39	0	236978176	64	5011
2026-01-08 01:15:09.18	20.45	21.67	-46.6	-49.4	23.2	6.07e-01	0	39	0	239075328	64	5068
2026-01-08 01:15:10.18	20.49	21.82	-46.6	-49.5	23.1	6.04e-01	0	39	0	240648192	64	5110
2026-01-08 01:15:11.17	20.52	21.98	-46.6	-49.4	23.2	6.04e-01	0	39	0	242745344	64	5100
2026-01-08 01:15:12.17	20.56	22.14	-46.7	-49.6	23.0	6.07e-01	0	39	0	244842496	64	5205
2026-01-08 01:15:13.17	20.60	22.30	-46.7	-49.6	23.0	6.04e-01	0	39	0	246415360	64	5204
2026-01-08 01:15:14.17	20.63	22.46	-46.7	-49.5	23.1	6.06e-01	0	39	0	248512512	64	5142
2026-01-08 01:15:15.17	20.67	22.62	-46.8	-49.5	23.1	6.04e-01	0	39	0	250085376	64	5158
2026-01-08 01:15:16.17	20.71	22.78	-46.8	-49.6	23.1	6.03e-01	0	39	0	252182528	64	5161
2026-01-08 01:15:17.16	20.75	22.95	-46.8	-49.6	23.0	6.04e-01	0	39	0	253755392	64	5197
2026-01-08 01:15:18.16	20.78	23.11	-46.9	-49.6	23.0	6.05e-01	0	39	0	255852544	64	5207
2026-01-08 01:15:19.16	20.82	23.28	-46.9	-49.7	23.0	6.05e-01	0	39	0	257949696	64	5230
2026-01-08 01:15:20.16	20.86	23.45	-46.9	-49.7	23.0	6.05e-01	0	39	0	259522560	64	5242
2026-01-08 01:15:21.16	20.90	23.62	-46.9	-49.8	22.9	6.03e-01	0	39	0	261619712	64	5306
2026-01-08 01:15:22.16	20.94	23.79	-46.8	-49.7	22.9	6.02e-01	0	39	0	263192576	64	5274
2026-01-08 01:15:23.16	20.98	23.96	-46.6	-49.7	22.9	6.04e-01	0	39	0	265289728	64	5279
2026-01-08 01:15:24.15	21.02	24.13	-46.5	-49.7	23.0	6.03e-01	0	39	0	267386880	64	5244
2026-01-08 01:15:25.16	21.06	24.30	-46.4	-49.7	23.0	6.04e-01	0	39	0	268959744	64	5249
2026-01-08 01:15:26.15	21.10	24.48	-46.4	-49.6	23.0	6.05e-01	0	39	0	271056896	64	5216
2026-01-08 01:15:27.15	21.14	24.65	-46.3	-49.5	23.1	6.06e-01	0	39	0	272629760	64	5159
2026-01-08 01:15:28.15	21.19	24.83	-46.3	-49.5	23.1	6.04e-01	0	39	0	274726912	64	5156
2026-01-08 01:15:29.14	21.23	25.01	-46.3	-49.5	23.1	6.03e-01	0	39	0	276299776	64	5145
2026-01-08 01:15:30.14	21.27	25.19	-46.4	-49.5	23.1	6.04e-01	0	39	0	278396928	64	5124
2026-01-08 01:15:31.14	21.32	25.37	-46.4	-49.5	23.1	6.04e-01	0	39	0	279969792	64	5118
2026-01-08 01:15:32.14	21.36	25.55	-46.5	-49.6	23.0	6.06e-01	0	39	0	282066944	64	5189
2026-01-08 01:15:33.13	21.40	25.73	-46.5	-49.5	23.0	6.02e-01	0	39	0	284164096	64	5153
2026-01-08 01:15:34.13	21.45	25.92	-46.6	-49.5	23.1	6.05e-01	0	39	0	285736960	64	5158
2026-01-08 01:15:35.13	21.49	26.11	-46.6	-49.5	23.1	6.04e-01	0	39	0	287834112	64	5107
2026-01-08 01:15:36.13	21.54	26.29	-46.6	-49.5	23.1	6.07e-01	0	39	0	289406976	64	5150
2026-01-08 01:15:37.13	21.59	26.48	-46.6	-49.6	23.1	6.06e-01	0	39	0	291504128	64	5160
2026-01-08 01:15:38.12	21.63	26.67	-46.6	-49.5	23.1	6.05e-01	0	39	0	293076992	64	5139
2026-01-08 01:15:39.12	21.68	26.87	-46.6	-49.5	23.1	6.04e-01	0	39	0	295174144	64	5142
2026-01-08 01:15:40.12	21.73	27.06	-46.5	-49.3	23.3	6.03e-01	0	39	0	297271296	64	5035
2026-01-08 01:15:41.11	21.78	27.25	-46.4	-49.2	23.4	6.05e-01	0	39	0	298844160	64	4939
2026-01-08 01:15:42.11	21.83	27.45	-46.5	-49.2	23.4	6.05e-01	0	39	0	300941312	64	4948
2026-01-08 01:15:43.11	21.88	27.65	-46.6	-49.2	23.4	6.03e-01	0	39	0	302514176	64	4965
2026-01-08 01:15:44.11	21.93	27.85	-46.7	-49.4	23.3	6.06e-01	0	39	0	304611328	64	5056
2026-01-08 01:15:45.10	21.98	28.05	-46.7	-49.3	23.3	6.05e-01	0	39	0	306184192	64	5019
2026-01-08 01:15:46.10	22.03	28.25	-46.6	-49.2	23.4	6.02e-01	0	39	0	308281344	64	4958
2026-01-08 01:15:47.10	22.08	28.46	-46.6	-49.2	23.4	6.06e-01	0	39	0	310378496	64	4979
2026-01-08 01:15:48.10	22.14	28.66	-46.5	-49.0	23.6	6.08e-01	0	39	0	311951360	64	4854
2026-01-08 01:15:49.09	22.19	28.87	-46.2	-48.7	23.8	6.04e-01	0	39	0	314048512	64	4688
2026-01-08 01:15:50.09	22.24	29.08	-46.1	-48.7	23.1	6.01e-01	0	39	0	315621376	64	4660
2026-01-08 01:15:51.09	22.30	29.29	-46.2	-48.8	23.7	6.06e-01	0	39	0	317718528	64	4733
2026-01-08 01:15:52.09	22.36	29.50	-46.3	-49.0	23.6	6.03e-01	0	39	0	319291392	64	4830
2026-01-08 01:15:53.09	22.41	29.72	-46.2	-48.9	23.7	6.03e-01	0	39	0	321388544	64	4787
2026-01-08 01:15:54.09	22.47	29.93	-46.3	-48.9	23.6	6.05e-01	0	39	0	322961408	64	4814
2026-01-08 01:15:55.08	22.53	30.15	-46.2	-48.8	23.7	6.05e-01	0	39	0	325058560	64	4740
2026-01-08 01:15:56.08	22.59	30.37	-46.1	-48.6	23.8	6.03e-01	0	39	0	327155712	64	4643
2026-01-08 01:15:57.08	22.65	30.59	-46.1	-48.6	23.8	6.05e-01	0	39	0	328728576	64	4641
2026-01-08 01:15:58.07	22.71	30.81	-46.3	-48.9	23.7	6.06e-01	0	39	0	330825728	64	4775
2026-01-08 01:15:59.07	22.77	31.04	-46.5	-49.0	23.5	6.04e-01	0	39	0	332398592	64	4861
2026-01-08 01:16:00.07	22.83	31.27	-46.4	-48.9	23.6	6.05e-01	0	39	0	334495744	64	4787
2026-01-08 01:16:01.07	22.89	31.50	-46.3	-48.9	23.6	6.03e-01	0	39	0	336068608	64	4779
2026-01-08 01:16:02.06	22.95	31.72	-46.2	-48.8	23.7	6.03e-01	0	39	0	338165760	64	4742
2026-01-08 01:16:03.06	23.02	31.96	-46.2	-48.8	23.7	6.05e-01	0	39	0	340262912	64	4734
2026-01-08 01:16:04.07	23.09	32.19	-46.2	-48.8	23.7	6.03e-01	0	39	0	341835776	64	4753
2026-01-08 01:16:05.06	23.15	32.43	-46.3	-49.0	23.5	6.03e-01	0	39	0	343932928	64	4835
2026-01-08 01:16:06.06	23.22	32.67	-46.4	-49.1	23.1	6.04e-01	0	39	0	345505792	64	4873
2026-01-08 01:16:07.06	23.29	32.91	-46.3	-49.0	23.6	6.03e-01	0	39	0	347602944	64	4830
2026-01-08 01:16:08.06	23.36	33.15	-46.4	-49.2	23.4	6.07e-01	0	39	0	349700096	64	4928
2026-01-08 01:16:09.06	23.43	33.40	-46.4	-49.3	23.3	6.04e-01	0	39	0	351272960	64	5025
2026-01-08 01:16:10.06	23.50	33.64	-46.5	-49.4	23.2	6.05e-01	0	39	0	353370112	64	5096
2026-01-08 01:16:11.06	23.57	33.89	-46.7	-49.6	23.0	6.03e-01	0	39	0	354942976	64	5178
2026-01-08 01:16:12.06	23.64	34.14	-46.7	-49.5	23.1	6.04e-01	0	39	0	357040128	64	5116
2026-01-08 01:16:13.06	23.72	34.40	-46.9	-49.7	22.9	6.05e-01	0	39	0	358612992	64	5242
2026-01-08 01:16:14.05	23.79	34.65	-47.1	-49.8	22.9	5.99e-01	0	39	0	360710144	64	5311
2026-01-08 01:16:15.05	23.87	34.91	-47.2	-50.0	22.7	6.03e-01	0	39	0	362807296	65	5104
2026-01-08 01:16:16.05	23.95	35.17	-47.0	-49.7	22.9	6.04e-01	0	39	0	364380160	65	4976
2026-01-08 01:16:17.05	24.03	35.43	-46.9	-49.7	23.0	6.05e-01	0	39	0	366477312	65	4962
2026-01-08 01:16:18.05	24.11	35.70	-47.0	-49.9	22.8	6.03e-01	0	39	0	368050176	65	5058
2026-01-08 01:16:19.06	24.19	35.97	-47.1	-50.1	22.7	6.03e-01	0	39	0	370147328	65	5181
2026-01-08 01:16:20.05	24.28	36.23	-47.4	-50.6	22.2	6.04e-01	0	39	0	371720192	65	5491
2026-01-08 01:16:21.05	24.36	36.50	-47.4	-50.6	22.2	6.03e-01	0	39	0	373817344	65	5500
2026-01-08 01:16:22.06	24.45	36.78	-47.4	-50.7	22.2	6.05e-01	0	39	0	375914496	65	5537
2026-01-08 01:16:23.06	24.54	37.06	-47.6	-50.8	22.0	6.03e-01	0	39	0	377487360	65	5637
2026-01-08 01:16:24.06	24.62	37.34	-47.6	-50.7	22.0	6.05e-01	0	39	0	379584512	65	5591
2026-01-08 01:16:25.05	24.71	37.61	-47.6	-50.7	22.0	6.05e-01	0	39	0	381157376	66	5273
2026-01-08 01:16:26.05	24.81	37.90	-47.7	-50.8	22.0	6.02e-01	0	39	0	383254528	66	5296
2026-01-08 01:16:27.05	24.90	38.18	-47.9	-51.2	21.7	6.05e-01	0	39	0	384827392	66	5559
2026-01-08 01:16:28.05	25.00	38.47	-47.9	-51.0	21.8	6.02e-01	0	39	0	386924544	66	5464
2026-01-08 01:16:29.04	25.09	38.76	-48.0	-51.1	21.8	6.08e-01	0	39	0	389021696	66	5494
2026-01-08 01:16:30.04	25.19	39.05	-48.1	-51.1	21.7	6.04e-01	0	39	0	390594560	66	5517
2026-01-08 01:16:31.03	25.29	39.35	-48.3	-51.3	21.6	6.03e-01	0	39	0	392691712	67	5285
2026-01-08 01:16:32.03	25.39	39.65	-48.3	-51.2	21.7	6.04e-01	0	39	0	394264576	67	5266
2026-01-08 01:16:33.03	25.50	39.95	-48.3	-51.3	21.6	6.03e-01	0	39	0	396361728	67	5313
2026-01-08 01:16:34.03	25.60	40.25	-48.0	-51.0	21.9	6.02e-01	0	39	0	397934592	67	5116
2026-01-08 01:16:35.03	25.71	40.56	-47.8	-50.8	22.0	6.02e-01	0	39	0	400031744	67	5025
2026-01-08 01:16:36.02	25.82	40.87	-47.8	-50.8	22.0	6.07e-01	0	40	0	401604608	67	5005
2026-01-08 01:16:37.02	25.93	41.18	-47.9	-50.8	22.1	6.05e-01	0	39	0	403701760	67	5009
2026-01-08 01:16:38.02	26.05	41.49	-47.8	-50.7	22.1	6.05e-01	0	39	0	405798912	67	4977
2026-01-08 01:16:39.02	26.16	41.81	-47.6	-50.6	22.2	6.05e-01	0	39	0	407371776	67	4876
2026-01-08 01:16:40.02	26.28	42.13	-47.2	-50.1	22.6	6.05e-01	0	39	0	409468928	66	4906
2026-01-08 01:16:41.02	26.40	42.46	-46.8	-49.6	23.1	6.06e-01	0	39	0	411041792	65	4898
2026-01-08 01:16:42.01	26.52	42.78	-46.7	-49.5	23.1	6.05e-01	0	39	0	413138944	65	4834
2026-01-08 01:16:43.01	26.65	43.11	-46.5	-49.4	23.2	6.04e-01	0	39	0	414711808	65	4804
2026-01-08 01:16:44.01	26.78	43.44	-46.5	-49.3	23.3	6.05e-01	0	39	0	416808960	64	5013
2026-01-08 01:16:45.01	26.91	43.78	-46.3	-49.0	23.6	6.04e-01	0	39	0	418906112	64	4831
2026-01-08 01:16:46.01	27.05	44.11	-46.0	-48.7	23.8	6.04e-01	0	39	0	420478976	64	4663
2026-01-08 01:16:47.00	27.18	44.45	-46.2	-48.9	23.7	6.05e-01	0	40	0	422576128	64	4782
2026-01-08 01:16:48.00	27.32	44.79	-46.3	-49.0	23.6	6.04e-01	0	39	0	424148992	64	4829
2026-01-08 01:16:49.00	27.46	45.14	-46.2	-48.9	23.6	6.05e-01	0	39	0	426246144	64	4808
2026-01-08 01:16:50.00	27.61	45.49	-46.1	-48.8	23.7	6.04e-01	0	39	0	428343296	64	4738
2026-01-08 01:16:51.00	27.76	45.84	-46.0	-48.7	23.8	6.01e-01	0	39	0	429916160	64	4679
2026-01-08 01:16:51.99	27.91	46.20	-46.3	-49.1	23.5	6.05e-01	0	39	0	432013312	64	4886
2026-01-08 01:16:52.99	28.07	46.56	-46.3	-48.9	23.6	6.01e-01	0	39	0	433586176	64	4805
2026-01-08 01:16:53.99	28.23	46.92	-46.2	-48.7	23.5	6.03e-01	0	39	0	435683328	64	4690
2026-01-08 01:16:54.97	28.39	47.28	-46.3	-48.9	23.6	6.03e-01	0	39	0	437256192	64	4793
2026-01-08 01:16:55.97	28.55	47.64	-46.4	-49.0	23.5	6.04e-01	0	39	0	439353344	64	4852
2026-01-08 01:16:56.97	28.73	48.02	-46.2	-48.9	23.6	6.06e-01	0	39	0	440926208	64	4797
2026-01-08 01:16:57.96	28.90	48.39	-46.3	-49.0	23.5	6.04e-01	0	39	0	443023360	64	4869
2026-01-08 01:16:58.96	29.08	48.76	-46.1	-48.9	23.6	6.04e-01	0	39	0	445120512	64	4760
2026-01-08 01:16:59.96	29.26	49.14	-46.3	-49.1	23.5	6.05e-01	0	40	0	446693376	64	4881
2026-01-08 01:17:00.95	29.45	49.52	-46.6	-49.6	23.1	6.04e-01	0	39	0	448790528	64	5173
2026-01-08 01:17:01.95	29.64	49.91	-46.3	-49.1	23.4	6.06e-01	0	39	0	450363392	64	4904
2026-01-08 01:17:02.95	29.84	50.30	-46.1	-48.8	23.6	6.05e-01	0	39	0	452460544	64	4739
2026-01-08 01:17:03.95	30.04	50.70	-45.8	-48.4	24.1	6.03e-01	0	40	0	454033408	63	4774
2026-01-08 01:17:04.95	30.25	51.09	-46.0	-48.5	24.1	6.04e-01	0	39	0	456130560	63	4831
2026-01-08 01:17:05.95	30.47	51.49	-46.0	-48.5	24.1	6.04e-01	0	39	0	458227712	63	4822
2026-01-08 01:17:06.95	30.69	51.89	-45.9	-48.4	24.1	6.04e-01	0	39	0	459800576	63	4794
2026-01-08 01:17:07.95	30.91	52.30	-45.8	-48.4	24.1	6.05e-01	0	40	0	461897728	63	4794
2026-01-08 01:17:08.94	31.14	52.70	-45.7	-48.2	24.3	6.05e-01	0	39	0	463470592	63	4693
2026-01-08 01:17:09.94	31.38	53.12	-45.6	-48.0	24.4	6.04e-01	0	39	0	465567744	63	4575
2026-01-08 01:17:10.94	31.63	53.53	-45.9	-48.3	24.2	6.03e-01	0	39	0	467140608	63	4753
2026-01-08 01:17:11.94	31.88	53.95	-45.9	-48.4	24.1	6.06e-01	0	40	0	469237760	63	4788
2026-01-08 01:17:12.94	32.14	54.37	-45.9	-48.4	24.1	6.03e-01	0	40	0	471334912	63	4785
2026-01-08 01:17:13.93	32.41	54.79	-45.9	-48.4	24.1	6.04e-01	0	39	0	472907776	63	4775
2026-01-08 01:17:14.93	32.68	55.22	-46.0	-48.5	24.0	6.02e-01	0	40	0	475004928	63	4830
2026-01-08 01:17:15.93	32.97	55.65	-46.1	-48.7	23.9	6.02e-01	0	39	0	476577792	63	4949
2026-01-08 01:17:16.92	33.26	56.08	-46.6	-49.2	23.4	6.02e-01	0	39	0	478674944	63	5263
2026-01-08 01:17:17.92	33.56	56.51	-46.5	-49.0	23.6	6.09e-01	0	40	0	480247808	63	5139
2026-01-08 01:17:18.92	33.87	56.95	-46.8	-49.5	23.2	6.05e-01	0	39	0	482344960	64	5117
2026-01-08 01:17:19.92	34.20	57.39	-46.7	-49.4	23.2	6.05e-01	0	40	0	483917824	64	5065
2026-01-08 01:17:20.92	34.53	57.84	-47.0	-49.9	22.8	6.04e-01	0	39	0	486014976	64	5364
2026-01-08 01:17:21.92	34.87	58.28	-47.1	-50.0	22.7	6.04e-01	0	39	0	488112128	65	5121
2026-01-08 01:17:22.91	35.23	58.73	-47.4	-50.2	22.5	6.04e-01	0	39	0	489684992	65	5275
2026-01-08 01:17:23.91	35.60	59.18	-47.4	-50.1	22.6	6.05e-01	0	40	0	491782144	65	5191
2026-01-08 01:17:24.91	35.98	59.63	-47.7	-50.6	22.2	6.04e-01	0	40	0	493355008	66	5188
2026-01-08 01:17:25.91	36.37	60.09	-47.7	-50.7	21.7	6.03e-01	0	40	0	495452160	66	5227
2026-01-08 01:17:26.91	36.78	60.55	-47.8	-50.7	22.2	6.05e-01	0	40	0	497025024	66	5230
2026-01-08 01:17:27.91	37.20	61.01	-48.0	-51.0	21.9	6.03e-01	0	39	0	499122176	66	5416
2026-01-08 01:17:28.90	37.64	61.47	-48.3	-51.3	21.6	6.05e-01	0	39	0	501219328	67	5318
2026-01-08 01:17:29.90	38.09	61.93	-48.6	-51.8	21.1	6.02e-01	0	40	0	502792192	67	5632
2026-01-08 01:17:30.90	38.57	62.40	-48.6	-51.8	21.2	6.05e-01	0	40	0	504889344	67	5602
2026-01-08 01:17:31.90	39.06	62.87	-49.0	-52.2	20.8	6.03e-01	0	39	0	506462208	68	5591
2026-01-08 01:17:32.89	39.57	63.33	-49.5	-53.0	20.1	6.03e-01	0	39	0	508559360	69	5754
2026-01-08 01:17:33.89	40.10	63.80	-49.2	-52.5	20.6	6.05e-01	0	40	0	510656512	69	5454
2026-01-08 01:17:34.89	40.65	64.28	-49.6	-53.3	19.9	6.02e-01	0	39	0	512229376	69	5970
2026-01-08 01:17:35.89	41.23	64.75	-49.9	-53.7	19.5	6.03e-01	0	40	0	514326528	70	5898
2026-01-08 01:17:36.89	41.83	65.22	-49.9	-53.7	19.5	6.05e-01	0	39	0	515899392	70	5867
2026-01-08 01:17:37.89	42.46	65.70	-50.0	-53.7	19.5	6.06e-01	0	39	0	517996544	70	5876
2026-01-08 01:17:38.89	43.12	66.17	-50.5	-54.4	18.8	6.07e-01	0	40	0	519569408	71	6021
2026-01-08 01:17:39.88	43.80	66.64	-50.3	-54.3	18.9	6.04e-01	0	39	0	521666560	71	5964
2026-01-08 01:17:40.88	44.51	67.12	-50.5	-54.9	18.3	6.03e-01	0	40	0	523763712	71	6357
2026-01-08 01:17:41.88	45.26	67.59	-50.4	-54.6	18.6	6.04e-01	0	40	0	525336576	71	6190
2026-01-08 01:17:42.87	46.04	68.06	-50.9	-55.3	17.9	6.06e-01	0	39	0	527433728	72	6279
2026-01-08 01:17:43.87	46.86	68.53	-50.8	-55.0	18.2	6.03e-01	0	40	0	529006592	72	6071
2026-01-08 01:17:44.87	47.72	69.00	-51.0	-55.6	17.6	6.04e-01	0	39	0	531103744	72	6532
2026-01-08 01:17:45.87	48.63	69.47	-50.7	-55.3	17.8	6.05e-01	0	39	0	532676608	72	6314
2026-01-08 01:17:46.86	49.57	69.93	-50.4	-54.7	18.4	6.04e-01	0	39	0	534773760	72	5879
2026-01-08 01:17:47.86	50.56	70.39	-51.2	-55.9	17.3	6.04e-01	0	40	0	536346624	72	6771
2026-01-08 01:17:48.86	51.61	70.85	-50.4	-54.3	18.8	6.05e-01	0	40	0	538443776	72	5623
2026-01-08 01:17:49.86	52.71	71.30	-49.8	-53.5	19.5	6.03e-01	0	39	0	540540928	71	5453
2026-01-08 01:17:50.86	53.87	71.75	-50.0	-54.0	19.0	6.04e-01	0	40	0	542113792	71	5787
2026-01-08 01:17:51.85	55.08	72.19	-49.8	-53.5	19.7	6.03e-01	0	40	0	544210944	71	5429
2026-01-08 01:17:52.86	56.38	72.63	-49.6	-53.0	20.0	6.02e-01	0	40	0	545783808	71	5138
2026-01-08 01:17:53.85	57.73	73.06	-49.5	-52.9	20.1	6.04e-01	0	39	0	547880960	71	5094
2026-01-08 01:17:54.85	59.16	73.48	-49.4	-52.9	20.2	6.05e-01	0	40	0	549453824	70	5348
2026-01-08 01:17:55.85	60.67	73.90	-48.9	-52.1	20.9	6.04e-01	0	40	0	551550976	69	5212
2026-01-08 01:17:56.84	62.24	74.30	-48.7	-52.0	21.0	6.03e-01	0	40	0	553648128	69	5140
2026-01-08 01:17:57.83	63.90	74.69	-49.0	-52.3	20.8	6.05e-01	0	40	0	555220992	69	5306
2026-01-08 01:17:58.83	65.67	75.07	-49.0	-52.2	20.8	6.02e-01	0	39	0	557318144	69	5263
2026-01-08 01:17:59.83	67.53	75.44	-49.1	-52.3	20.7	6.04e-01	0	39	0	558891008	69	5305
2026-01-08 01:18:00.82	69.47	75.79	-49.0	-52.2	20.8	6.06e-01	0	40	0	560988160	69	5230
2026-01-08 01:18:01.82	71.53	76.13	-49.2	-52.5	20.5	6.05e-01	0	39	0	562561024	69	5424
2026-01-08 01:18:02.82	73.69	76.45	-48.8	-51.9	21.1	6.05e-01	0	39	0	564658176	69	5082
2026-01-08 01:18:03.81	75.94	76.75	-48.6	-51.7	21.2	6.02e-01	0	39	0	566231040	69	4976
2026-01-08 01:18:04.81	78.31	77.04	-48.4	-51.4	21.6	6.04e-01	0	39	0	568328192	68	5067
2026-01-08 01:18:05.81	80.79	77.30	-48.5	-51.6	21.4	6.03e-01	0	39	0	570425344	68	5204
2026-01-08 01:18:06.81	83.37	77.53	-47.5	-50.5	22.3	6.07e-01	0	39	0	571998208	67	4824
2026-01-08 01:18:07.81	86.05	77.74	-48.3	-51.7	21.2	6.02e-01	0	39	0	574095360	67	5575
2026-01-08 01:18:08.81	88.82	77.93	-47.3	-50.4	22.4	6.03e-01	0	39	0	575668224	66	5061
2026-01-08 01:18:09.81	91.67	78.09	-47.5	-50.4	22.3	6.02e-01	0	39	0	577765376	66	5071
2026-01-08 01:18:10.80	94.56	78.21	-47.9	-51.0	21.8	6.05e-01	0	39	0	579338240	66	5434
2026-01-08 01:18:11.80	97.54	78.31	-47.9	-50.9	21.9	6.05e-01	0	39	0	581435392	66	5397
2026-01-08 01:18:12.80	100.56	78.38	-47.5	-50.4	22.3	6.04e-01	0	39	0	583532544	66	5084
2026-01-08 01:18:13.80	103.60	78.41	-48.0	-51.2	21.6	6.03e-01	0	39	0	585105408	66	5567
2026-01-08 01:18:14.80	106.66	78.42	-47.7	-51.0	21.9	6.01e-01	0	39	0	587202560	66	5405
2026-01-08 01:18:15.80	109.71	78.39	-47.8	-50.8	22.1	6.04e-01	0	39	0	588775424	66	5295
2026-01-08 01:18:16.80	112.74	78.32	-48.2	-51.3	21.6	6.03e-01	0	40	0	590872576	67	5298
2026-01-08 01:18:17.80	115.73	78.23	-47.9	-51.1	21.8	6.06e-01	0	40	0	592969728	67	5165
2026-01-08 01:18:18.80	118.66	78.11	-47.6	-50.7	22.1	6.05e-01	0	40	0	594542592	67	4948
2026-01-08 01:18:19.80	121.52	77.96	-48.3	-51.5	21.5	6.03e-01	0	40	0	596639744	67	5436
2026-01-08 01:18:20.80	124.30	77.78	-47.7	-50.5	22.3	6.06e-01	0	39	0	598212608	67	4851
2026-01-08 01:18:21.80	127.00	77.57	-48.0	-51.0	21.9	6.04e-01	0	39	0	600309760	67	5106
2026-01-08 01:18:22.80	129.60	77.33	-48.0	-50.9	22.0	6.02e-01	0	39	0	601882624	67	5069
2026-01-08 01:18:23.79	132.07	77.08	-48.6	-51.8	21.1	6.04e-01	0	40	0	603979776	67	5620
2026-01-08 01:18:24.79	134.46	76.80	-48.4	-51.4	21.5	6.04e-01	0	39	0	606076928	67	5397
2026-01-08 01:18:25.79	136.75	76.50	-49.2	-52.5	20.7	6.04e-01	0	39	0	607649792	68	5724
2026-01-08 01:18:26.79	138.93	76.18	-48.6	-51.6	21.4	6.02e-01	0	39	0	609746944	69	4919
2026-01-08 01:18:27.79	141.01	75.85	-49.3	-52.7	20.5	6.04e-01	0	39	0	611319808	69	5538
2026-01-08 01:18:28.79	142.99	75.49	-49.2	-52.5	20.7	6.04e-01	0	39	0	613416960	69	5407
2026-01-08 01:18:29.79	144.86	75.12	-48.8	-51.9	21.2	6.03e-01	0	40	0	614989824	69	5075
2026-01-08 01:18:30.78	146.63	74.75	-48.8	-52.1	20.9	6.06e-01	0	39	0	617086976	69	5198
2026-01-08 01:18:31.78	148.32	74.35	-48.9	-52.3	20.8	6.04e-01	0	39	0	619184128	69	5310
2026-01-08 01:18:32.77	149.91	73.95	-48.8	-52.1	21.0	6.07e-01	0	39	0	620756992	69	5176
2026-01-08 01:18:33.77	151.43	73.54	-48.7	-51.9	21.2	6.04e-01	0	39	0	622854144	69	5044
2026-01-08 01:18:34.76	152.86	73.12	-49.0	-52.2	20.9	6.07e-01	0	39	0	624427008	69	5250
2026-01-08 01:18:35.76	154.22	72.69	-49.2	-52.6	20.6	6.04e-01	0	40	0	626524160	69	5474
2026-01-08 01:18:36.76	155.52	72.25	-48.8	-51.9	21.2	6.05e-01	0	40	0	628097024	69	5088
2026-01-08 01:18:37.76	156.76	71.81	-49.3	-52.6	20.5	6.06e-01	0	39	0	630194176	69	5517
2026-01-08 01:18:38.76	157.93	71.36	-49.6	-53.0	20.1	6.04e-01	0	39	0	631767040	69	5777
2026-01-08 01:18:39.76	159.04	70.90	-49.4	-52.7	20.5	6.05e-01	0	39	0	633864192	69	5554
2026-01-08 01:18:40.76	160.09	70.45	-49.8	-53.2	20.0	6.03e-01	0	40	0	635961344	70	5559
2026-01-08 01:18:41.76	161.10	69.98	-49.6	-53.0	20.3	6.05e-01	0	39	0	637534208	70	5442
2026-01-08 01:18:42.76	162.05	69.52	-49.9	-53.4	19.9	6.04e-01	0	40	0	639631360	70	5687
2026-01-08 01:18:43.75	162.96	69.05	-49.9	-53.5	19.7	6.05e-01	0	39	0	641204224	71	5420
2026-01-08 01:18:44.75	163.82	68.58	-49.7	-53.3	19.9	6.04e-01	0	39	0	643301376	71	5292
2026-01-08 01:18:45.75	164.65	68.11	-49.5	-53.1	20.1	6.04e-01	0	39	0	644874240	70	5468
2026-01-08 01:18:46.75	165.44	67.64	-49.5	-53.0	20.2	6.03e-01	0	39	0	646971392	70	5454
2026-01-08 01:18:47.74	166.19	67.17	-49.4	-52.8	20.4	6.04e-01	0	39	0	649068544	70	5320
2026-01-08 01:18:48.73	166.90	66.70	-49.3	-52.5	20.6	6.05e-01	0	39	0	650641408	70	5154
2026-01-08 01:18:49.73	167.59	66.22	-48.9	-52.1	21.0	6.05e-01	0	40	0	652738560	69	5187
2026-01-08 01:18:50.73	168.25	65.75	-49.0	-52.3	20.8	6.03e-01	0	39	0	654311424	69	5308
2026-01-08 01:18:51.73	168.89	65.27	-48.9	-52.5	20.7	6.06e-01	0	39	0	656408576	69	5411
2026-01-08 01:18:52.72	169.49	64.80	-48.8	-52.3	20.8	6.01e-01	0	39	0	657981440	69	5297
2026-01-08 01:18:53.72	170.07	64.33	-48.6	-51.8	21.3	6.03e-01	0	40	0	660078592	69	4995
2026-01-08 01:18:54.72	170.63	63.85	-48.6	-51.6	21.6	6.03e-01	0	39	0	661651456	69	4877
2026-01-08 01:18:55.72	171.16	63.38	-48.6	-51.5	21.6	6.04e-01	0	39	0	663748608	69	4868
2026-01-08 01:18:56.71	171.67	62.91	-48.5	-51.5	21.6	6.05e-01	0	39	0	665845760	69	4830
2026-01-08 01:18:57.72	172.17	62.44	-48.3	-51.2	21.9	6.04e-01	0	40	0	667418624	68	4944
2026-01-08 01:18:58.71	172.65	61.97	-47.4	-50.1	22.6	6.03e-01	0	39	0	669515776	66	4912
2026-01-08 01:18:59.71	173.11	61.51	-47.9	-50.7	22.2	6.04e-01	0	39	0	671088640	66	5264
2026-01-08 01:19:00.71	173.55	61.04	-47.7	-50.6	22.3	6.04e-01	0	39	0	673185792	66	5197
2026-01-08 01:19:01.70	173.97	60.59	-47.7	-50.5	22.4	6.03e-01	0	40	0	675282944	66	5131
2026-01-08 01:19:02.69	174.38	60.13	-47.3	-50.0	22.8	6.04e-01	0	39	0	676855808	66	4840
2026-01-08 01:19:03.69	174.77	59.67	-47.3	-49.9	22.9	6.03e-01	0	39	0	678952960	66	4777
2026-01-08 01:19:04.69	175.16	59.22	-47.2	-49.8	23.0	6.04e-01	0	39	0	680525824	66	4721
2026-01-08 01:19:05.69	175.53	58.76	-47.1	-49.7	23.1	6.04e-01	0	40	0	682622976	66	4656
2026-01-08 01:19:06.69	175.88	58.31	-47.1	-49.7	23.1	6.06e-01	0	39	0	684195840	65	4928
2026-01-08 01:19:07.69	176.23	57.86	-47.1	-49.7	23.1	6.07e-01	0	39	0	686292992	65	4976
2026-01-08 01:19:08.68	176.56	57.42	-47.1	-49.7	23.1	6.04e-01	0	39	0	688390144	65	4943
2026-01-08 01:19:09.68	176.89	56.98	-47.3	-50.0	22.8	6.06e-01	0	39	0	689963008	65	5137
2026-01-08 01:19:10.68	177.20	56.54	-46.6	-49.1	23.5	6.03e-01	0	39	0	692060160	65	4644
2026-01-08 01:19:11.68	177.50	56.10	-46.5	-49.0	23.6	6.05e-01	0	39	0	693633024	65	4563
2026-01-08 01:19:12.68	177.80	55.66	-46.5	-49.1	23.6	6.04e-01	0	40	0	695730176	64	4879
2026-01-08 01:19:13.67	178.08	55.24	-46.3	-48.9	23.7	6.05e-01	0	39	0	697303040	64	4804
2026-01-08 01:19:14.67	178.36	54.81	-46.0	-48.4	24.2	6.06e-01	0	39	0	699400192	63	4809
2026-01-08 01:19:15.67	178.63	54.38	-46.1	-48.6	24.1	6.04e-01	0	39	0	700973056	63	4904
2026-01-08 01:19:16.67	178.89	53.96	-46.2	-48.8	23.9	6.02e-01	0	40	0	703070208	63	4984
2026-01-08 01:19:17.66	179.14	53.54	-46.3	-48.8	23.9	6.05e-01	0	39	0	705167360	63	5034
2026-01-08 01:19:18.66	179.39	53.13	-46.3	-48.7	24.0	6.03e-01	0	39	0	706740224	63	4963
2026-01-08 01:19:19.66	179.63	52.71	-46.2	-48.7	24.0	6.04e-01	0	39	0	708837376	63	4935
2026-01-08 01:19:20.65	179.86	52.31	-46.3	-48.7	23.9	6.03e-01	0	39	0	710410240	63	4976
2026-01-08 01:19:21.65	180.09	51.90	-46.3	-48.7	24.0	6.05e-01	0	39	0	712507392	63	4943
2026-01-08 01:19:22.65	180.31	51.49	-46.4	-48.9	23.8	6.05e-01	0	40	0	714080256	63	5065
2026-01-08 01:19:23.65	180.52	51.09	-46.5	-49.0	23.7	6.05e-01	0	39	0	716177408	63	5118
2026-01-08 01:19:24.65	180.73	50.69	-46.5	-48.9	23.8	6.06e-01	0	40	0	718274560	63	5079
2026-01-08 01:19:25.65	180.94	50.30	-46.8	-49.4	23.3	6.02e-01	0	39	0	719847424	64	5052
2026-01-08 01:19:26.64	181.14	49.91	-47.0	-49.6	23.1	6.07e-01	0	39	0	721944576	64	5211
2026-01-08 01:19:27.65	181.33	49.52	-46.9	-49.5	23.1	6.03e-01	0	39	0	723517440	64	5153
2026-01-08 01:19:28.64	181.52	49.14	-47.0	-49.7	23.0	6.04e-01	0	39	0	725614592	64	5251
2026-01-08 01:19:29.64	181.70	48.75	-47.1	-49.8	22.9	6.04e-01	0	40	0	727187456	64	5283
2026-01-08 01:19:30.63	181.88	48.38	-46.8	-49.4	23.2	6.07e-01	0	39	0	729284608	64	5091
2026-01-08 01:19:31.63	182.06	48.00	-46.6	-49.2	23.4	6.05e-01	0	39	0	731381760	64	4946
2026-01-08 01:19:32.63	182.23	47.63	-46.7	-49.3	23.4	6.05e-01	0	39	0	732954624	64	5001
2026-01-08 01:19:33.63	182.40	47.26	-46.8	-49.4	23.2	6.07e-01	0	39	0	735051776	64	5079
2026-01-08 01:19:34.63	182.56	46.89	-46.9	-49.5	23.2	6.05e-01	0	39	0	736624640	64	5134
2026-01-08 01:19:35.63	182.72	46.53	-46.9	-49.5	23.2	6.02e-01	0	39	0	738721792	64	5128
2026-01-08 01:19:36.63	182.88	46.17	-47.0	-49.6	23.1	6.05e-01	0	39	0	740818944	64	5183
2026-01-08 01:19:37.63	183.03	45.81	-47.1	-49.7	22.9	6.04e-01	0	39	0	742391808	64	5256
2026-01-08 01:19:38.62	183.18	45.46	-47.0	-49.7	23.0	6.07e-01	0	39	0	744488960	64	5238
2026-01-08 01:19:39.62	183.33	45.11	-46.9	-49.5	23.1	6.03e-01	0	39	0	746061824	64	5154
2026-01-08 01:19:40.62	183.47	44.76	-46.9	-49.5	23.1	6.05e-01	0	39	0	748158976	64	5116
2026-01-08 01:19:41.61	183.61	44.41	-46.9	-49.5	23.1	6.05e-01	0	39	0	749731840	64	5139
2026-01-08 01:19:42.61	183.74	44.07	-47.0	-49.7	23.0	6.04e-01	0	39	0	751828992	64	5225
2026-01-08 01:19:43.61	183.88	43.73	-47.1	-49.7	22.9	6.03e-01	0	39	0	753401856	64	5272
2026-01-08 01:19:44.61	184.01	43.40	-47.0	-49.6	23.0	6.05e-01	0	39	0	755499008	64	5192
2026-01-08 01:19:45.61	184.14	43.06	-47.0	-49.7	23.0	6.05e-01	0	39	0	757596160	64	5222
2026-01-08 01:19:46.60	184.26	42.73	-47.2	-49.9	22.7	6.05e-01	0	39	0	759169024	65	5087
2026-01-08 01:19:47.60	184.39	42.41	-47.2	-50.0	22.7	6.04e-01	0	39	0	761266176	65	5115
2026-01-08 01:19:48.60	184.51	42.08	-47.2	-49.9	22.7	6.04e-01	0	39	0	762839040	65	5095
2026-01-08 01:19:49.60	184.63	41.76	-47.2	-50.0	22.7	6.05e-01	0	39	0	764936192	65	5102
2026-01-08 01:19:50.60	184.75	41.44	-47.3	-50.0	22.7	6.06e-01	0	39	0	766509056	65	5114
2026-01-08 01:19:51.60	184.86	41.12	-47.4	-50.1	22.6	6.06e-01	0	39	0	768606208	65	5180
2026-01-08 01:19:52.60	184.97	40.81	-47.5	-50.3	22.5	6.04e-01	0	39	0	770703360	65	5281
2026-01-08 01:19:53.59	185.08	40.50	-47.6	-50.4	22.3	6.07e-01	0	39	0	772276224	65	5386
2026-01-08 01:19:54.59	185.19	40.19	-47.8	-50.7	22.1	6.04e-01	0	40	0	774373376	66	5233
2026-01-08 01:19:55.58	185.29	39.89	-47.8	-50.6	22.1	6.07e-01	0	39	0	775946240	66	5212
2026-01-08 01:19:56.58	185.40	39.59	-47.5	-50.4	22.3	6.03e-01	0	39	0	778043392	66	5069
2026-01-08 01:19:57.58	185.50	39.29	-47.5	-50.4	22.3	6.04e-01	0	40	0	779616256	66	5049
2026-01-08 01:19:58.58	185.60	38.99	-47.5	-50.4	22.3	6.02e-01	0	40	0	781713408	66	5058
2026-01-08 01:19:59.58	185.70	38.69	-47.6	-50.6	22.1	6.03e-01	0	39	0	783810560	66	5167
2026-01-08 01:20:00.58	185.80	38.40	-47.7	-50.6	22.1	6.06e-01	0	39	0	785383424	66	5185
2026-01-08 01:20:01.58	185.89	38.11	-47.7	-50.6	22.1	6.09e-01	0	40	0	787480576	66	5172
2026-01-08 01:20:02.58	185.99	37.82	-47.7	-50.6	22.1	6.04e-01	0	39	0	789053440	66	5193
2026-01-08 01:20:03.58	186.08	37.54	-47.8	-50.6	22.0	6.04e-01	0	40	0	791150592	66	5215
2026-01-08 01:20:04.57	186.17	37.26	-47.4	-50.2	22.5	6.05e-01	0	39	0	792723456	66	4938
2026-01-08 01:20:05.57	186.26	36.98	-47.2	-50.0	22.5	6.03e-01	0	39	0	794820608	66	4848
2026-01-08 01:20:06.57	186.34	36.70	-46.9	-49.6	23.0	6.03e-01	0	39	0	796393472	65	4880
2026-01-08 01:20:07.57	186.43	36.42	-46.8	-49.5	23.0	6.04e-01	0	39	0	798490624	65	4866
2026-01-08 01:20:08.57	186.51	36.15	-46.8	-49.5	23.0	6.02e-01	0	40	0	800587776	65	4865
2026-01-08 01:20:09.56	186.60	35.88	-46.6	-49.3	23.1	6.03e-01	0	39	0	802160640	65	4727
2026-01-08 01:20:10.56	186.68	35.62	-46.4	-49.1	23.2	6.05e-01	0	39	0	804257792	64	4881
2026-01-08 01:20:11.56	186.76	35.35	-46.5	-49.2	23.2	6.01e-01	0	39	0	805830656	64	4941
2026-01-08 01:20:12.56	186.84	35.09	-46.3	-48.9	23.4	6.02e-01	0	39	0	807927808	64	4788
2026-01-08 01:20:13.55	186.92	34.83	-46.2	-48.8	23.4	6.06e-01	0	40	0	809500672	64	4741
2026-01-08 01:20:14.55	186.99	34.57	-46.2	-48.9	23.3	6.03e-01	0	39	0	811597824	64	4768
2026-01-08 01:20:15.54	187.07	34.31	-46.2	-48.8	23.4	6.04e-01	0	39	0	813694976	64	4740
2026-01-08 01:20:16.54	187.14	34.06	-46.2	-48.8	23.4	6.04e-01	0	39	0	815267840	64	4719
2026-01-08 01:20:17.54	187.22	33.81	-46.2	-48.8	23.4	6.05e-01	0	39	0	817364992	64	4713
2026-01-08 01:20:18.54	187.29	33.56	-46.0	-48.5	23.7	6.03e-01	0	40	0	818937856	63	4848
2026-01-08 01:20:19.54	187.36	33.31	-45.8	-48.3	23.9	6.03e-01	0	40	0	821035008	63	4715
2026-01-08 01:20:20.54	187.43	33.06	-45.7	-48.2	23.9	6.04e-01	0	40	0	823132160	63	4652
2026-01-08 01:20:21.54	187.50	32.82	-45.5	-48.0	24.1	6.07e-01	0	39	0	824705024	63	4569
2026-01-08 01:20:22.54	187.57	32.58	-45.5	-48.0	24.1	6.06e-01	0	39	0	826802176	63	4554
2026-01-08 01:20:23.53	187.63	32.34	-45.4	-47.8	24.3	6.03e-01	0	39	0	828375040	62	4718
2026-01-08 01:20:24.52	187.70	32.10	-45.3	-47.7	24.3	6.02e-01	0	40	0	830472192	62	4673
2026-01-08 01:20:25.52	187.76	31.87	-45.3	-47.7	24.2	6.05e-01	0	40	0	832045056	62	4704
2026-01-08 01:20:26.52	187.83	31.63	-45.4	-47.9	24.1	6.03e-01	0	39	0	834142208	62	4766
2026-01-08 01:20:27.52	187.89	31.40	-45.4	-47.8	24.1	6.04e-01	0	39	0	835715072	62	4744
2026-01-08 01:20:28.51	187.95	31.17	-45.4	-47.8	24.1	6.04e-01	0	39	0	837812224	62	4751
2026-01-08 01:20:29.51	188.02	30.94	-45.4	-47.9	24.1	6.06e-01	0	39	0	839909376	62	4770
2026-01-08 01:20:30.51	188.08	30.72	-45.4	-47.8	24.1	6.03e-01	0	40	0	841482240	62	4748
2026-01-08 01:20:31.51	188.14	30.49	-45.3	-47.8	24.2	6.05e-01	0	39	0	843579392	62	4717
2026-01-08 01:20:32.50	188.20	30.27	-45.3	-47.8	24.2	6.04e-01	0	39	0	845152256	62	4728
2026-01-08 01:20:33.50	188.25	30.05	-45.4	-47.8	24.1	6.03e-01	0	39	0	847249408	62	4743
2026-01-08 01:20:34.50	188.31	29.83	-45.4	-47.8	24.1	6.04e-01	0	40	0	848822272	62	4756
2026-01-08 01:20:35.50	188.37	29.61	-45.5	-48.0	24.0	6.04e-01	0	39	0	850919424	62	4848
2026-01-08 01:20:36.50	188.43	29.40	-45.5	-48.0	24.0	6.05e-01	0	39	0	853016576	62	4836
2026-01-08 01:20:37.50	188.48	29.18	-45.5	-48.0	23.9	6.02e-01	0	39	0	854589440	62	4842
2026-01-08 01:20:38.50	188.54	28.97	-45.5	-48.0	24.0	6.05e-01	0	39	0	856686592	62	4830
2026-01-08 01:20:39.50	188.59	28.76	-45.5	-48.0	24.0	6.05e-01	0	40	0	858259456	62	4856
2026-01-08 01:20:40.49	188.64	28.55	-45.5	-48.0	23.9	6.08e-01	0	40	0	860356608	62	4842
2026-01-08 01:20:41.49	188.70	28.35	-45.4	-47.8	24.1	6.04e-01	0	39	0	861929472	62	4741
2026-01-08 01:20:42.48	188.75	28.14	-45.4	-47.9	24.0	6.07e-01	0	39	0	864026624	62	4760
2026-01-08 01:20:43.48	188.80	27.94	-45.4	-47.9	24.0	6.03e-01	0	39	0	866123776	62	4763
2026-01-08 01:20:44.48	188.85	27.74	-45.4	-47.9	24.0	6.02e-01	0	39	0	867696640	62	4763
2026-01-08 01:20:45.47	188.90	27.54	-45.5	-48.0	23.8	6.04e-01	0	39	0	869793792	62	4858
2026-01-08 01:20:46.47	188.95	27.34	-45.5	-48.0	23.8	6.05e-01	0	39	0	871366656	62	4868
2026-01-08 01:20:47.47	189.00	27.14	-45.6	-48.1	23.7	6.06e-01	0	39	0	873463808	62	4922
2026-01-08 01:20:48.47	189.05	26.94	-45.7	-48.3	23.6	6.02e-01	0	39	0	875036672	62	5007
2026-01-08 01:20:49.47	189.09	26.75	-45.8	-48.3	23.6	6.02e-01	0	40	0	877133824	62	5032
2026-01-08 01:20:50.47	189.14	26.56	-45.7	-48.3	23.6	6.05e-01	0	39	0	878706688	62	5012
2026-01-08 01:20:51.47	189.19	26.36	-45.8	-48.3	23.6	6.05e-01	0	39	0	880803840	62	5029
2026-01-08 01:20:52.47	189.23	26.17	-45.8	-48.4	23.5	6.04e-01	0	39	0	882900992	62	5069
2026-01-08 01:20:53.47	189.28	25.98	-45.8	-48.4	23.5	6.02e-01	0	39	0	884473856	62	5072
2026-01-08 01:20:54.47	189.33	25.80	-45.9	-48.4	23.5	6.04e-01	0	39	0	886571008	62	5089
2026-01-08 01:20:55.46	189.37	25.61	-45.9	-48.5	23.4	6.04e-01	0	39	0	888143872	62	5142
2026-01-08 01:20:56.47	189.41	25.42	-46.0	-48.7	23.3	6.06e-01	0	39	0	890241024	62	5220
2026-01-08 01:20:57.46	189.46	25.24	-46.0	-48.8	23.1	6.04e-01	0	39	0	891813888	62	5306
2026-01-08 01:20:58.46	189.50	25.06	-46.1	-48.8	23.1	6.04e-01	0	39	0	893911040	62	5327
2026-01-08 01:20:59.46	189.54	24.88	-46.2	-48.9	23.0	6.05e-01	0	40	0	896008192	62	5387
2026-01-08 01:21:00.46	189.59	24.70	-46.2	-48.9	23.0	6.06e-01	0	39	0	897581056	63	5070
2026-01-08 01:21:01.46	189.63	24.52	-46.3	-49.0	22.9	6.02e-01	0	39	0	899678208	63	5102
2026-01-08 01:21:02.45	189.67	24.35	-46.2	-48.9	23.0	6.04e-01	0	39	0	901251072	63	5070
2026-01-08 01:21:03.45	189.71	24.17	-46.3	-49.0	22.9	6.05e-01	0	39	0	903348224	63	5128
2026-01-08 01:21:04.45	189.75	24.00	-46.2	-48.9	22.9	6.03e-01	0	40	0	904921088	63	5092
2026-01-08 01:21:05.45	189.79	23.82	-46.3	-49.0	22.9	6.06e-01	0	39	0	907018240	63	5110
2026-01-08 01:21:06.45	189.83	23.65	-46.3	-49.0	22.9	6.04e-01	0	39	0	909115392	63	5142
2026-01-08 01:21:07.44	189.87	23.48	-46.1	-48.9	23.0	6.05e-01	0	39	0	910688256	63	5043
2026-01-08 01:21:08.44	189.91	23.31	-46.2	-48.9	22.9	6.05e-01	0	39	0	912785408	63	5097
2026-01-08 01:21:09.44	189.95	23.15	-46.1	-48.9	22.9	6.03e-01	0	40	0	914358272	63	5071
2026-01-08 01:21:10.44	189.98	22.98	-46.2	-49.0	22.8	6.05e-01	0	39	0	916455424	63	5138
2026-01-08 01:21:11.44	190.02	22.81	-46.2	-49.0	22.9	6.04e-01	0	39	0	918552576	63	5107
2026-01-08 01:21:12.44	190.06	22.65	-46.1	-48.9	22.9	6.04e-01	0	39	0	920125440	63	5046
2026-01-08 01:21:13.44	190.10	22.48	-46.0	-48.7	23.0	6.03e-01	0	39	0	922222592	63	4968
2026-01-08 01:21:14.43	190.13	22.32	-45.9	-48.7	23.1	6.02e-01	0	40	0	923795456	63	4938
2026-01-08 01:21:15.44	190.17	22.16	-45.9	-48.6	23.1	6.04e-01	0	39	0	925892608	63	4899
2026-01-08 01:21:16.43	190.20	22.00	-45.9	-48.7	23.1	6.03e-01	0	39	0	927465472	63	4931
2026-01-08 01:21:17.43	190.24	21.84	-45.8	-48.6	23.1	6.01e-01	0	39	0	929562624	63	4880
2026-01-08 01:21:18.42	190.27	21.68	-45.7	-48.4	23.2	6.03e-01	0	39	0	931659776	63	4809
2026-01-08 01:21:19.42	190.31	21.53	-45.8	-48.5	23.2	6.02e-01	0	39	0	933232640	63	4820
2026-01-08 01:21:20.42	190.34	21.37	-45.7	-48.4	23.2	6.04e-01	0	39	0	935329792	63	4780
2026-01-08 01:21:21.41	190.38	21.22	-45.7	-48.4	23.3	6.04e-01	0	39	0	936902656	63	4775
2026-01-08 01:21:22.41	190.41	21.06	-45.6	-48.3	23.3	6.05e-01	0	39	0	938999808	63	4759
2026-01-08 01:21:23.42	190.45	20.91	-45.7	-48.4	23.3	6.04e-01	0	39	0	940572672	63	4782
2026-01-08 01:21:24.42	190.48	20.76	-45.7	-48.4	23.2	6.04e-01	0	39	0	942669824	63	4808
2026-01-08 01:21:25.41	190.51	20.61	-45.7	-48.4	23.3	6.03e-01	0	39	0	944242688	63	4785
2026-01-08 01:21:26.41	190.54	20.46	-45.8	-48.6	23.1	6.06e-01	0	40	0	946339840	63	4877
2026-01-08 01:21:27.41	190.58	20.31	-45.7	-48.5	23.2	6.05e-01	0	40	0	948436992	63	4818
2026-01-08 01:21:28.41	190.61	20.16	-45.6	-48.3	23.3	6.06e-01	0	39	0	950009856	63	4747
2026-01-08 01:21:29.40	190.64	20.01	-45.6	-48.3	23.3	6.06e-01	0	40	0	952107008	63	4733
2026-01-08 01:21:30.41	190.67	19.87	-45.7	-48.4	23.2	6.04e-01	0	39	0	953679872	63	4787
2026-01-08 01:21:31.40	190.70	19.72	-45.6	-48.3	23.3	6.05e-01	0	39	0	955777024	63	4742
2026-01-08 01:21:32.40	190.73	19.58	-45.7	-48.4	23.2	6.03e-01	0	39	0	957349888	63	4806
2026-01-08 01:21:33.40	190.76	19.44	-45.7	-48.5	23.2	6.03e-01	0	39	0	959447040	63	4815
2026-01-08 01:21:34.40	190.79	19.29	-45.7	-48.6	23.1	6.04e-01	0	39	0	961544192	63	4878
2026-01-08 01:21:35.40	190.82	19.15	-45.7	-48.5	23.1	6.04e-01	0	39	0	963117056	63	4835
2026-01-08 01:21:36.40	190.85	19.01	-45.8	-48.6	23.0	6.04e-01	0	39	0	965214208	63	4917
2026-01-08 01:21:37.40	190.88	18.87	-45.7	-48.5	23.1	6.03e-01	0	40	0	966787072	63	4839
2026-01-08 01:21:38.39	190.91	18.73	-45.7	-48.5	23.1	6.02e-01	0	40	0	968884224	63	4856
2026-01-08 01:21:39.39	190.94	18.59	-45.6	-48.4	23.2	6.06e-01	0	40	0	970457088	63	4806
2026-01-08 01:21:40.39	190.97	18.46	-45.6	-48.5	23.1	6.01e-01	0	39	0	972554240	63	4825
2026-01-08 01:21:41.38	191.00	18.32	-45.6	-48.4	23.1	6.05e-01	0	39	0	974651392	63	4804
2026-01-08 01:21:42.38	191.03	18.19	-45.6	-48.4	23.2	6.04e-01	0	39	0	976224256	63	4801
2026-01-08 01:21:43.39	191.05	18.05	-45.6	-48.5	23.1	6.04e-01	0	40	0	978321408	63	4825
2026-01-08 01:21:44.39	191.08	17.92	-45.7	-48.5	23.0	6.04e-01	0	39	0	979894272	63	4867
2026-01-08 01:21:45.38	191.11	17.78	-45.7	-48.6	23.0	6.06e-01	0	40	0	981991424	63	4907
2026-01-08 01:21:46.39	191.14	17.65	-45.8	-48.6	23.0	6.04e-01	0	40	0	984088576	63	4924
2026-01-08 01:21:47.39	191.16	17.52	-45.8	-48.7	22.9	6.04e-01	0	39	0	985661440	63	4927
2026-01-08 01:21:48.39	191.19	17.39	-45.8	-48.6	22.9	6.06e-01	0	39	0	987758592	63	4900
2026-01-08 01:21:49.39	191.22	17.26	-45.8	-48.6	22.9	6.04e-01	0	39	0	989331456	63	4909
2026-01-08 01:21:50.39	191.24	17.13	-45.8	-48.6	23.0	6.03e-01	0	39	0	991428608	63	4919
2026-01-08 01:21:51.40	191.27	17.00	-45.8	-48.6	22.9	6.06e-01	0	39	0	993001472	63	4924
2026-01-08 01:21:52.39	191.30	16.87	-45.8	-48.6	22.9	6.02e-01	0	39	0	995098624	63	4922
2026-01-08 01:21:53.39	191.32	16.74	-45.7	-48.6	23.0	6.01e-01	0	39	0	997195776	63	4897
2026-01-08 01:21:54.39	191.35	16.62	-45.7	-48.6	23.0	6.04e-01	0	39	0	998768640	63	4891
2026-01-08 01:21:55.39	191.37	16.49	-45.8	-48.6	22.9	6.03e-01	0	39	0	1000865792	63	4924
2026-01-08 01:21:56.39	191.40	16.37	-45.8	-48.7	22.9	6.05e-01	0	39	0	1002438656	63	4969
2026-01-08 01:21:57.38	191.42	16.24	-45.7	-48.6	22.9	6.03e-01	0	39	0	1004535808	63	4900
2026-01-08 01:21:58.39	191.45	16.12	-45.7	-48.6	23.0	6.02e-01	0	39	0	1006108672	63	4892
2026-01-08 01:21:59.39	191.47	15.99	-45.6	-48.5	23.0	6.02e-01	0	39	0	1008205824	63	4855
2026-01-08 01:22:00.39	191.50	15.87	-45.6	-48.5	23.0	6.04e-01	0	39	0	1010302976	63	4844
2026-01-08 01:22:01.39	191.52	15.75	-45.5	-48.5	23.0	6.05e-01	0	39	0	1011875840	63	4829
2026-01-08 01:22:02.39	191.55	15.63	-45.5	-48.5	23.1	6.04e-01	0	40	0	1013972992	63	4821
2026-01-08 01:22:03.38	191.57	15.51	-45.5	-48.4	23.1	6.05e-01	0	39	0	1015545856	63	4790
2026-01-08 01:22:04.38	191.59	15.39	-45.5	-48.4	23.1	6.03e-01	0	39	0	1017643008	63	4813
2026-01-08 01:22:05.38	191.62	15.27	-45.5	-48.4	23.1	6.04e-01	0	40	0	1019215872	63	4800
2026-01-08 01:22:06.38	191.64	15.15	-45.5	-48.4	23.1	6.03e-01	0	39	0	1021313024	63	4787
2026-01-08 01:22:07.38	191.66	15.03	-45.5	-48.4	23.1	6.02e-01	0	40	0	1023410176	63	4766
2026-01-08 01:22:08.38	191.69	14.92	-45.6	-48.5	23.0	6.04e-01	0	40	0	1024983040	63	4831
2026-01-08 01:22:09.37	191.71	14.80	-45.6	-48.4	23.1	6.05e-01	0	39	0	1027080192	63	4804
2026-01-08 01:22:10.37	191.73	14.69	-45.6	-48.4	23.1	6.04e-01	0	40	0	1028653056	63	4807
2026-01-08 01:22:11.36	191.75	14.57	-45.5	-48.3	23.1	6.04e-01	0	40	0	1030750208	63	4752
2026-01-08 01:22:12.36	191.78	14.46	-45.5	-48.3	23.1	6.02e-01	0	40	0	1032323072	63	4758
2026-01-08 01:22:13.36	191.80	14.34	-45.5	-48.4	23.1	6.04e-01	0	40	0	1034420224	63	4763
2026-01-08 01:22:14.36	191.82	14.23	-45.4	-48.3	23.2	6.04e-01	0	39	0	1035993088	62	4992
2026-01-08 01:22:15.36	191.84	14.12	-45.5	-48.4	23.2	6.04e-01	0	40	0	1038090240	62	5060
2026-01-08 01:22:16.35	191.86	14.00	-45.8	-48.7	22.9	6.05e-01	0	39	0	1040187392	62	5219
2026-01-08 01:22:17.35	191.89	13.89	-45.6	-48.5	23.1	6.04e-01	0	39	0	1041760256	62	5108
2026-01-08 01:22:18.35	191.91	13.78	-45.7	-48.5	23.0	6.04e-01	0	39	0	1043857408	62	5137
2026-01-08 01:22:19.35	191.93	13.67	-45.7	-48.6	23.0	6.04e-01	0	39	0	1045430272	62	5160
2026-01-08 01:22:20.35	191.95	13.56	-45.7	-48.5	23.0	6.06e-01	0	39	0	1047527424	62	5151
2026-01-08 01:22:21.35	191.97	13.45	-45.7	-48.6	22.9	6.01e-01	0	40	0	1049624576	62	5190
2026-01-08 01:22:22.35	191.99	13.34	-45.7	-48.6	23.0	6.04e-01	0	39	0	1051197440	62	5180
2026-01-08 01:22:23.35	192.01	13.23	-45.7	-48.6	23.0	6.04e-01	0	40	0	1053294592	62	5168
2026-01-08 01:22:24.35	192.03	13.13	-45.5	-48.4	23.1	6.05e-01	0	39	0	1054867456	62	5047
2026-01-08 01:22:25.35	192.05	13.02	-45.5	-48.4	23.1	6.04e-01	0	40	0	1056964608	62	5093
2026-01-08 01:22:26.34	192.07	12.91	-45.6	-48.5	23.0	6.02e-01	0	40	0	1058537472	62	5134
2026-01-08 01:22:27.34	192.09	12.81	-45.6	-48.6	22.9	6.06e-01	0	39	0	1060634624	62	5209
2026-01-08 01:22:28.34	192.11	12.70	-45.6	-48.6	23.0	6.04e-01	0	40	0	1062731776	62	5179
2026-01-08 01:22:29.33	192.13	12.60	-45.7	-48.7	22.9	6.04e-01	0	39	0	1064304640	62	5233
2026-01-08 01:22:30.33	192.15	12.49	-45.6	-48.7	22.9	6.05e-01	0	40	0	1066401792	62	5230
2026-01-08 01:22:31.33	192.17	12.39	-45.7	-48.7	22.9	6.03e-01	0	40	0	1067974656	62	5259
2026-01-08 01:22:32.34	192.19	12.28	-45.6	-48.6	22.9	6.04e-01	0	40	0	1070071808	62	5210
2026-01-08 01:22:33.33	192.21	12.18	-45.7	-48.7	22.8	6.04e-01	0	40	0	1071644672	62	5253
2026-01-08 01:22:34.33	192.23	12.08	-45.8	-48.8	22.7	6.06e-01	0	39	0	1073741824	62	5302
2026-01-08 01:22:35.33	192.25	11.97	-45.9	-48.9	22.7	6.05e-01	0	39	0	1075838976	62	5377
2026-01-08 01:22:36.32	192.27	11.87	-45.8	-48.8	22.8	6.02e-01	0	39	0	1077411840	62	5288
2026-01-08 01:22:37.32	192.29	11.77	-45.8	-48.8	22.8	6.03e-01	0	39	0	1079508992	62	5308
2026-01-08 01:22:38.32	192.31	11.67	-45.9	-48.9	22.7	6.05e-01	0	39	0	1081081856	62	5350
2026-01-08 01:22:39.32	192.33	11.57	-45.9	-48.9	22.7	6.04e-01	0	39	0	1083179008	62	5374
2026-01-08 01:22:40.32	192.34	11.47	-45.9	-49.0	22.7	6.03e-01	0	39	0	1084751872	62	5408
2026-01-08 01:22:41.32	192.36	11.37	-45.8	-48.8	22.7	6.05e-01	0	39	0	1086849024	62	5335
2026-01-08 01:22:42.32	192.38	11.27	-45.8	-48.9	22.7	6.02e-01	0	40	0	1088421888	62	5356
2026-01-08 01:22:43.32	192.40	11.17	-45.8	-48.8	22.8	6.04e-01	0	39	0	1090519040	62	5327
2026-01-08 01:22:44.32	192.42	11.07	-45.9	-48.9	22.7	6.02e-01	0	39	0	1092616192	62	5389
2026-01-08 01:22:45.31	192.44	10.98	-45.8	-48.9	22.7	6.04e-01	0	39	0	1094189056	62	5363
2026-01-08 01:22:46.31	192.45	10.88	-45.8	-48.9	22.7	6.06e-01	0	40	0	1096286208	62	5345
2026-01-08 01:22:47.31	192.47	10.78	-45.9	-49.0	22.6	6.04e-01	0	40	0	1097859072	62	5403
2026-01-08 01:22:48.31	192.49	10.68	-45.9	-49.0	22.6	6.05e-01	0	39	0	1099956224	62	5428
2026-01-08 01:22:49.31	192.51	10.59	-45.9	-49.0	22.6	6.04e-01	0	39	0	1101529088	62	5431
2026-01-08 01:22:50.31	192.52	10.49	-46.0	-49.1	22.5	6.04e-01	0	39	0	1103626240	62	5520
2026-01-08 01:22:51.31	192.54	10.40	-45.9	-49.0	22.5	6.04e-01	0	40	0	1105723392	62	5462
2026-01-08 01:22:52.31	192.56	10.30	-46.0	-49.1	22.5	6.03e-01	0	39	0	1107296256	62	5500
2026-01-08 01:22:53.30	192.58	10.21	-46.0	-49.2	22.4	6.03e-01	0	39	0	1109393408	62	5529
2026-01-08 01:22:54.30	192.59	10.11	-46.0	-49.2	22.4	6.06e-01	0	39	0	1110966272	62	5545
2026-01-08 01:22:55.30	192.61	10.02	-46.0	-49.2	22.4	6.04e-01	0	39	0	1113063424	62	5574
2026-01-08 01:22:56.30	192.63	9.93	-46.0	-49.2	22.3	6.02e-01	0	39	0	1114636288	62	5582
2026-01-08 01:22:57.30	192.64	9.83	-46.0	-49.2	22.4	6.04e-01	0	39	0	1116733440	62	5549
2026-01-08 01:22:58.30	192.66	9.74	-46.1	-49.3	22.3	6.03e-01	0	39	0	1118830592	62	5609
2026-01-08 01:22:59.30	192.68	9.65	-46.1	-49.4	22.2	6.03e-01	0	39	0	1120403456	62	5676
2026-01-08 01:23:00.29	192.69	9.56	-46.2	-49.5	22.1	6.02e-01	0	39	0	1122500608	63	5414
2026-01-08 01:23:01.29	192.71	9.47	-46.2	-49.4	22.2	6.02e-01	0	40	0	1124073472	63	5392
2026-01-08 01:23:02.29	192.73	9.38	-46.3	-49.5	22.1	6.05e-01	0	39	0	1126170624	63	5461
2026-01-08 01:23:03.28	192.74	9.29	-46.2	-49.5	22.1	6.03e-01	0	39	0	1128267776	63	5458
2026-01-08 01:23:04.28	192.76	9.20	-46.1	-49.4	22.1	6.06e-01	0	39	0	1129840640	63	5378
2026-01-08 01:23:05.28	192.77	9.11	-46.2	-49.6	22.0	6.06e-01	0	40	0	1131937792	63	5467
2026-01-08 01:23:06.28	192.79	9.02	-46.2	-49.5	22.0	6.05e-01	0	39	0	1133510656	63	5426
2026-01-08 01:23:07.28	192.81	8.93	-50.9	-70.5	3.6	7.41e-01	0	40	104	1135083520	72	36375
2026-01-08 01:23:08.28	192.82	8.84	-52.2	-73.0	3.8	7.48e-01	0	39	104	1135083520	75	40598
2026-01-08 01:23:09.28	192.84	8.75	-52.8	-73.5	3.8	7.47e-01	0	40	104	1135083520	76	40619
2026-01-08 01:23:10.27	192.85	8.66	-53.1	-73.5	3.8	7.47e-01	0	39	104	1135083520	76	40968
2026-01-08 01:23:11.27	192.87	8.57	-53.3	-73.6	3.8	7.48e-01	0	39	104	1135083520	77	38940
2026-01-08 01:23:12.28	192.89	8.49	-53.3	-73.7	3.8	7.49e-01	0	40	104	1135083520	77	39222
2026-01-08 01:23:13.28	192.90	8.40	-53.2	-73.7	3.8	7.50e-01	0	40	104	1135083520	77	39345
2026-01-08 01:23:14.29	192.92	8.31	-53.4	-73.7	3.8	7.46e-01	0	40	104	1135083520	77	39522
2026-01-08 01:23:15.29	192.93	8.22	-53.2	-73.7	3.8	7.46e-01	0	40	104	1135083520	77	39488
2026-01-08 01:23:16.29	192.95	8.14	-53.4	-73.7	3.8	7.47e-01	0	40	104	1135083520	77	39585
2026-01-08 01:23:17.29	192.96	8.05	-53.4	-73.7	3.8	7.48e-01	0	40	104	1135083520	77	39512
2026-01-08 01:23:18.30	192.98	7.97	-53.5	-73.7	3.8	7.48e-01	0	39	104	1135083520	78	37325
2026-01-08 01:23:19.30	192.99	7.88	-53.1	-73.8	3.8	7.48e-01	0	40	104	1135083520	78	37376
2026-01-08 01:23:20.31	193.01	7.79	-53.7	-73.7	3.8	7.45e-01	0	40	104	1135083520	78	37331
2026-01-08 01:23:21.31	193.02	7.71	-53.6	-73.7	3.8	7.49e-01	0	39	104	1135083520	78	37334
2026-01-08 01:23:22.31	193.04	7.63	-53.7	-73.7	3.8	7.47e-01	0	39	104	1135083520	78	37358
2026-01-08 01:23:23.31	193.05	7.54	-53.3	-73.7	3.8	7.43e-01	0	40	104	1135083520	78	37269
2026-01-08 01:23:24.32	193.07	7.46	-53.4	-73.7	3.8	7.49e-01	0	39	104	1135083520	78	37197
2026-01-08 01:23:25.32	193.08	7.37	-53.8	-73.7	3.8	7.47e-01	0	40	104	1135083520	78	37337
2026-01-08 01:23:26.32	193.09	7.29	-53.6	-73.7	3.8	7.43e-01	0	40	104	1135083520	78	37228
2026-01-08 01:23:27.32	193.11	7.21	-53.6	-73.7	3.8	7.47e-01	0	40	104	1135083520	78	37291
2026-01-08 01:23:28.33	193.12	7.12	-53.4	-73.7	3.8	7.43e-01	0	40	104	1135083520	78	37175
2026-01-08 01:23:29.33	193.14	7.04	-53.0	-73.7	3.8	7.46e-01	0	39	104	1135083520	78	37217
2026-01-08 01:23:30.33	193.15	6.96	-52.7	-73.7	3.8	7.46e-01	0	40	104	1135083520	77	39384
2026-01-08 01:23:31.34	193.17	6.88	-52.5	-73.7	3.8	7.45e-01	0	39	104	1135083520	77	39193
2026-01-08 01:23:32.34	193.18	6.80	-52.5	-73.7	3.8	7.46e-01	0	39	104	1135083520	76	41554
2026-01-08 01:23:33.34	193.19	6.72	-52.5	-73.7	3.8	7.45e-01	0	40	104	1135083520	76	41500
2026-01-08 01:23:34.34	193.21	6.64	-52.5	-73.6	3.8	7.43e-01	0	39	104	1135083520	76	41454
2026-01-08 01:23:35.35	193.22	6.55	-52.5	-73.7	3.8	7.43e-01	0	39	104	1135083520	76	41547
2026-01-08 01:23:36.35	193.23	6.47	-52.5	-73.7	3.8	7.46e-01	0	40	104	1135083520	76	41497
2026-01-08 01:23:37.35	193.25	6.39	-52.4	-73.7	3.8	7.46e-01	0	40	104	1135083520	76	41510
2026-01-08 01:23:38.35	193.26	6.31	-52.5	-73.6	3.8	7.48e-01	0	40	104	1135083520	76	41396
2026-01-08 01:23:39.35	193.28	6.23	-52.5	-73.6	3.8	7.45e-01	0	40	104	1135083520	76	41438
2026-01-08 01:23:40.36	193.29	6.15	-52.5	-73.6	3.8	7.46e-01	0	39	104	1135083520	76	41325
2026-01-08 01:23:41.36	193.30	6.08	-52.4	-73.6	3.8	7.48e-01	0	39	104	1135083520	76	41242
2026-01-08 01:23:42.36	193.32	6.00	-52.4	-73.6	3.8	7.49e-01	0	40	104	1135083520	76	41430
2026-01-08 01:23:43.37	193.33	5.92	-52.4	-73.6	3.8	7.44e-01	0	40	104	1135083520	76	41379
2026-01-08 01:23:44.37	193.34	5.84	-52.4	-73.6	3.8	7.44e-01	0	40	104	1135083520	76	41413
2026-01-08 01:23:45.37	193.36	5.76	-52.4	-73.6	3.8	7.44e-01	0	39	104	1135083520	76	41395
2026-01-08 01:23:46.37	193.37	5.69	-52.4	-73.6	3.8	7.43e-01	0	40	104	1135083520	76	41240
2026-01-08 01:23:47.38	193.38	5.61	-52.4	-73.6	3.8	7.41e-01	0	40	104	1135083520	76	41403
2026-01-08 01:23:48.38	193.39	5.53	-52.4	-73.6	3.8	7.47e-01	0	40	104	1135083520	76	41377
2026-01-08 01:23:49.38	193.41	5.45	-52.4	-73.6	3.8	7.47e-01	0	40	104	1135083520	76	41442
2026-01-08 01:23:50.38	193.42	5.38	-52.4	-73.6	3.8	7.47e-01	0	40	104	1135083520	76	41408
2026-01-08 01:23:51.38	193.43	5.30	-52.4	-73.6	3.8	7.45e-01	0	40	104	1135083520	76	41344
2026-01-08 01:23:52.39	193.45	5.22	-52.4	-73.6	3.8	7.46e-01	0	40	104	1135083520	76	41337
2026-01-08 01:23:53.39	193.46	5.15	-52.4	-73.6	3.8	7.47e-01	0	40	104	1135083520	76	41232
2026-01-08 01:23:54.39	193.47	5.07	-52.4	-73.6	3.8	7.45e-01	0	40	104	1135083520	76	41348
2026-01-08 01:23:55.39	193.48	5.00	-52.4	-73.6	3.8	7.45e-01	0	40	104	1135083520	76	41305

#Closed at: 2026-01-08 01:23:56
#Recorded file [1135 MB]: D:/Data/31040_260108_041231.dat