passes_logs/2026/01/08/T1/T1__20260108_063044_KHAYYAM_rec.log

#Pass ID: 20260108_063044_KHAYYAM
#Satellite: KHAYYAM
#Configuration: KHAYYAM_480M
#almurnet v.1.7.20251203
#Start time: 2026-01-08 06:30:43

#Version: 2.0.20230620
#Station: T1
#Location: 37.570604 lon 55.790049 lat
#TLE: 1 53370U 22096A   26005.63766736  .00008095  00000+0  32978-3 0  9997
#TLE: 2 53370  97.3565 272.8146 0001238  87.7645 272.3734 15.24731212189819

#Time	Az	El	Level	Level2	SNR	BER	BlckErr	Temp	State	Recorded	gain1	gain2
2026-01-08 06:30:43.83	110.00	4.98	-53.2	-57.7	3.6	0.00e+00	0	45	0	0	78	23575
2026-01-08 06:30:44.83	109.87	5.04	-53.2	-57.7	3.7	0.00e+00	0	45	104	0	77	24881
2026-01-08 06:30:45.84	109.74	5.11	-53.2	-57.7	3.7	0.00e+00	0	45	104	0	77	24863
2026-01-08 06:30:46.84	109.61	5.17	-53.2	-57.7	3.7	0.00e+00	0	45	104	0	77	24935
2026-01-08 06:30:47.85	109.48	5.24	-53.2	-57.7	3.7	0.00e+00	0	45	104	0	77	24943
2026-01-08 06:30:48.85	109.34	5.31	-53.2	-57.7	3.7	0.00e+00	0	45	104	0	77	24953
2026-01-08 06:30:49.85	109.21	5.37	-53.2	-57.7	3.7	0.00e+00	0	45	104	0	77	24904
2026-01-08 06:30:50.86	109.07	5.44	-53.2	-57.7	3.7	0.00e+00	0	46	104	0	77	24904
2026-01-08 06:30:51.86	108.94	5.50	-53.2	-57.7	3.7	0.00e+00	0	46	104	0	77	24901
2026-01-08 06:30:52.87	108.80	5.57	-53.2	-57.7	3.7	0.00e+00	0	46	104	0	77	24816
2026-01-08 06:30:53.87	108.66	5.63	-53.2	-57.7	3.7	0.00e+00	0	46	104	0	77	24909
2026-01-08 06:30:54.88	108.52	5.70	-53.2	-57.7	3.7	0.00e+00	0	46	104	0	77	24900
2026-01-08 06:30:55.88	108.39	5.77	-53.2	-57.7	3.7	0.00e+00	0	46	104	0	77	24881
2026-01-08 06:30:56.88	108.25	5.83	-53.2	-57.7	3.7	0.00e+00	0	46	104	0	77	24924
2026-01-08 06:30:57.89	108.10	5.90	-53.2	-57.7	3.7	0.00e+00	0	46	104	0	77	24879
2026-01-08 06:30:58.89	107.96	5.97	-53.2	-57.7	3.7	0.00e+00	0	46	104	0	77	24895
2026-01-08 06:30:59.90	107.82	6.03	-53.2	-57.7	3.7	0.00e+00	0	46	104	0	77	24857
2026-01-08 06:31:00.90	107.68	6.10	-53.1	-57.7	3.7	0.00e+00	0	46	104	0	77	24876
2026-01-08 06:31:01.91	107.53	6.17	-53.1	-57.7	3.7	0.00e+00	0	47	104	0	77	24827
2026-01-08 06:31:02.91	107.39	6.23	-53.1	-57.7	3.7	0.00e+00	0	47	104	0	77	24824
2026-01-08 06:31:03.91	107.24	6.30	-53.1	-57.6	3.7	0.00e+00	0	47	104	0	77	24732
2026-01-08 06:31:04.92	107.10	6.37	-53.1	-57.6	3.7	0.00e+00	0	47	104	0	77	24778
2026-01-08 06:31:05.92	106.95	6.43	-53.1	-57.6	3.7	0.00e+00	0	47	104	0	77	24754
2026-01-08 06:31:06.93	106.80	6.50	-53.1	-57.6	3.7	0.00e+00	0	47	104	0	77	24753
2026-01-08 06:31:07.93	106.65	6.57	-53.1	-57.6	3.7	0.00e+00	0	47	104	0	77	24761
2026-01-08 06:31:08.93	106.50	6.64	-53.1	-57.6	3.7	0.00e+00	0	47	104	0	77	24722
2026-01-08 06:31:09.94	106.35	6.70	-53.1	-57.6	3.7	0.00e+00	0	47	104	0	77	24748
2026-01-08 06:31:10.95	106.20	6.77	-53.1	-57.6	3.7	0.00e+00	0	47	104	0	77	24780
2026-01-08 06:31:11.95	106.04	6.84	-53.1	-57.6	3.7	0.00e+00	0	47	104	0	77	24678
2026-01-08 06:31:12.95	105.89	6.91	-53.1	-57.6	3.7	0.00e+00	0	47	104	0	77	24745
2026-01-08 06:31:13.96	105.73	6.97	-53.1	-57.6	3.7	0.00e+00	0	48	104	0	77	24744
2026-01-08 06:31:14.96	105.58	7.04	-53.1	-57.6	3.7	0.00e+00	0	47	104	0	77	24717
2026-01-08 06:31:15.96	105.42	7.11	-53.1	-57.6	3.7	0.00e+00	0	48	104	0	77	24756
2026-01-08 06:31:16.97	105.26	7.18	-53.1	-57.6	3.7	0.00e+00	0	48	104	0	77	24676
2026-01-08 06:31:17.97	105.11	7.25	-53.1	-57.6	3.7	0.00e+00	0	48	104	0	77	24716
2026-01-08 06:31:18.98	104.95	7.31	-53.1	-57.6	3.7	0.00e+00	0	48	104	0	77	24693
2026-01-08 06:31:19.98	104.79	7.38	-53.1	-57.6	3.7	0.00e+00	0	48	104	0	77	24768
2026-01-08 06:31:20.98	104.63	7.45	-53.1	-57.6	3.7	0.00e+00	0	48	104	0	77	24771
2026-01-08 06:31:21.99	104.46	7.52	-53.1	-57.6	3.7	0.00e+00	0	48	104	0	77	24703
2026-01-08 06:31:22.99	104.30	7.59	-53.1	-57.6	3.7	0.00e+00	0	48	104	0	77	24731
2026-01-08 06:31:24.00	104.13	7.66	-53.1	-57.6	3.7	0.00e+00	0	48	104	0	77	24650
2026-01-08 06:31:25.00	103.97	7.72	-53.1	-57.6	3.7	0.00e+00	0	48	104	0	77	24763
2026-01-08 06:31:26.01	103.80	7.79	-53.1	-57.6	3.7	0.00e+00	0	48	104	0	77	24723
2026-01-08 06:31:27.01	103.64	7.86	-53.1	-57.6	3.7	0.00e+00	0	48	104	0	77	24745
2026-01-08 06:31:28.02	103.47	7.93	-53.1	-57.6	3.7	0.00e+00	0	48	104	0	77	24749
2026-01-08 06:31:29.02	103.30	8.00	-53.1	-57.6	3.7	0.00e+00	0	48	104	0	77	24743
2026-01-08 06:31:30.02	103.13	8.07	-53.1	-57.6	3.7	0.00e+00	0	48	104	0	77	24725
2026-01-08 06:31:31.03	102.96	8.14	-53.1	-57.6	3.7	0.00e+00	0	48	104	0	77	24706
2026-01-08 06:31:32.03	102.78	8.21	-53.1	-57.6	3.7	0.00e+00	0	48	104	0	77	24658
2026-01-08 06:31:33.04	102.61	8.28	-53.1	-57.6	3.7	0.00e+00	0	49	104	0	77	24688
2026-01-08 06:31:34.04	102.44	8.34	-53.1	-57.6	3.7	0.00e+00	0	48	104	0	77	24676
2026-01-08 06:31:35.05	102.26	8.41	-53.1	-57.6	3.7	0.00e+00	0	48	104	0	77	24714
2026-01-08 06:31:36.05	102.08	8.48	-53.1	-57.6	3.7	0.00e+00	0	48	104	0	77	24713
2026-01-08 06:31:37.06	101.90	8.55	-53.1	-57.6	3.7	0.00e+00	0	49	104	0	77	24689
2026-01-08 06:31:38.06	101.73	8.62	-53.1	-57.6	3.7	0.00e+00	0	49	104	0	77	24660
2026-01-08 06:31:39.07	101.55	8.69	-53.1	-57.6	3.7	0.00e+00	0	49	104	0	77	24724
2026-01-08 06:31:40.07	101.37	8.76	-53.1	-57.6	3.7	0.00e+00	0	49	104	0	77	24745
2026-01-08 06:31:41.07	101.18	8.83	-53.1	-57.6	3.7	0.00e+00	0	49	104	0	77	24742
2026-01-08 06:31:42.08	101.00	8.90	-53.1	-57.6	3.7	0.00e+00	0	49	104	0	77	24699
2026-01-08 06:31:43.08	100.82	8.97	-53.1	-57.6	3.7	0.00e+00	0	49	104	0	77	24731
2026-01-08 06:31:44.09	100.63	9.04	-53.1	-57.6	3.7	0.00e+00	0	49	104	0	77	24664
2026-01-08 06:31:45.09	100.44	9.11	-53.3	-57.7	3.7	0.00e+00	0	49	104	0	77	24969
2026-01-08 06:31:46.36	100.21	9.19	-53.3	-57.8	3.7	0.00e+00	0	49	104	0	77	25248
2026-01-08 06:31:47.11	100.07	9.25	-53.2	-57.7	3.7	0.00e+00	0	49	104	0	77	24876
2026-01-08 06:31:48.40	99.82	9.34	-53.4	-57.9	3.6	0.00e+00	0	49	104	0	77	25392
2026-01-08 06:31:49.12	99.69	9.39	-53.3	-57.7	3.7	0.00e+00	0	49	104	0	77	25055
2026-01-08 06:31:50.85	99.35	9.51	-53.3	-57.8	3.7	0.00e+00	0	49	104	0	77	25192
2026-01-08 06:31:51.43	99.24	9.55	-53.3	-57.8	3.7	0.00e+00	0	49	104	0	77	25154
2026-01-08 06:31:53.01	98.93	9.65	-53.3	-57.7	3.7	0.00e+00	0	49	104	0	77	25040
2026-01-08 06:31:53.61	98.82	9.70	-53.3	-57.8	3.7	0.00e+00	0	49	104	0	77	25137
2026-01-08 06:31:55.19	98.51	9.81	-53.3	-57.7	3.7	0.00e+00	0	49	104	0	77	24924
2026-01-08 06:31:55.92	98.36	9.86	-53.3	-57.8	3.7	0.00e+00	0	49	104	0	77	25096
2026-01-08 06:31:57.20	98.11	9.94	-53.4	-57.8	3.7	0.00e+00	0	49	104	0	77	25253
2026-01-08 06:31:57.92	97.96	9.99	-53.3	-57.7	3.7	0.00e+00	0	49	104	0	77	24936
2026-01-08 06:31:59.21	97.70	10.08	-53.3	-57.7	3.7	0.00e+00	0	49	104	0	77	25005
2026-01-08 06:32:00.15	97.51	10.15	-53.3	-57.7	3.7	0.00e+00	0	49	104	0	77	24869
2026-01-08 06:32:01.47	97.24	10.24	-53.3	-57.7	3.7	0.00e+00	0	49	104	0	77	25016
2026-01-08 06:32:02.19	97.09	10.29	-53.3	-57.7	3.7	0.00e+00	0	49	104	0	77	24982
2026-01-08 06:32:03.48	96.83	10.38	-53.3	-57.8	3.7	0.00e+00	0	49	104	0	77	25105
2026-01-08 06:32:04.20	96.68	10.43	-53.3	-57.7	3.7	0.00e+00	0	49	104	0	77	25059
2026-01-08 06:32:05.48	96.41	10.52	-53.3	-57.8	3.7	0.00e+00	0	49	104	0	77	25117
2026-01-08 06:32:06.20	96.26	10.57	-53.2	-57.6	3.7	0.00e+00	0	49	104	0	77	24738
2026-01-08 06:32:07.49	95.98	10.65	-53.3	-57.8	3.7	0.00e+00	0	49	104	0	77	25099
2026-01-08 06:32:08.21	95.83	10.70	-53.3	-57.8	3.7	0.00e+00	0	49	104	0	77	25143
2026-01-08 06:32:09.50	95.56	10.79	-53.3	-57.7	3.7	0.00e+00	0	49	104	0	77	24978
2026-01-08 06:32:10.21	95.40	10.84	-53.1	-57.5	3.7	0.00e+00	0	49	104	0	77	24404
2026-01-08 06:32:11.58	95.11	10.93	-53.3	-57.6	3.7	0.00e+00	0	49	104	0	77	24792
2026-01-08 06:32:12.57	94.89	11.00	-53.2	-57.6	3.7	0.00e+00	0	49	104	0	77	24677
2026-01-08 06:32:13.57	94.67	11.07	-53.3	-57.7	3.7	0.00e+00	0	50	104	0	77	25078
2026-01-08 06:32:14.58	94.45	11.14	-53.4	-57.8	3.7	0.00e+00	0	49	104	0	77	25355
2026-01-08 06:32:15.58	94.22	11.21	-53.5	-57.9	3.7	0.00e+00	0	50	104	0	77	25570
2026-01-08 06:32:16.58	94.00	11.28	-53.5	-57.9	3.7	0.00e+00	0	49	104	0	77	25619
2026-01-08 06:32:17.58	93.78	11.34	-53.4	-57.8	3.6	0.00e+00	0	49	104	0	77	25271
2026-01-08 06:32:18.59	93.55	11.41	-53.3	-57.7	3.7	0.00e+00	0	49	104	0	77	25052
2026-01-08 06:32:19.59	93.32	11.48	-53.3	-57.8	3.7	0.00e+00	0	50	104	0	77	25156
2026-01-08 06:32:20.64	93.08	11.55	-53.3	-57.8	3.7	0.00e+00	0	50	104	0	77	25156
2026-01-08 06:32:21.54	92.87	11.61	-53.3	-57.8	3.7	0.00e+00	0	50	104	0	77	25307
2026-01-08 06:32:22.55	92.64	11.68	-53.4	-57.8	3.7	0.00e+00	0	50	104	0	77	25196
2026-01-08 06:32:23.55	92.41	11.75	-53.3	-57.8	3.7	0.00e+00	0	50	104	0	77	25331
2026-01-08 06:32:24.55	92.18	11.81	-53.3	-57.8	3.7	0.00e+00	0	50	104	0	77	25303
2026-01-08 06:32:25.56	91.94	11.88	-53.2	-57.6	3.7	0.00e+00	0	50	104	0	77	24673
2026-01-08 06:32:26.56	91.70	11.95	-53.0	-57.4	3.7	0.00e+00	0	50	104	0	77	24081
2026-01-08 06:32:27.57	91.46	12.02	-53.0	-57.5	3.7	0.00e+00	0	50	104	0	77	24310
2026-01-08 06:32:28.57	91.22	12.08	-53.2	-57.6	3.7	0.00e+00	0	50	104	0	77	24680
2026-01-08 06:32:29.57	90.98	12.15	-53.2	-57.5	3.7	0.00e+00	0	50	104	0	77	24245
2026-01-08 06:32:30.58	90.74	12.21	-53.1	-57.5	3.7	0.00e+00	0	50	104	0	77	24249
2026-01-08 06:32:31.58	90.50	12.28	-53.1	-57.4	3.7	0.00e+00	0	50	104	0	77	24055
2026-01-08 06:32:32.59	90.25	12.35	-53.0	-57.4	3.7	0.00e+00	0	50	104	0	77	24054
2026-01-08 06:32:33.59	90.00	12.41	-52.9	-57.5	3.7	0.00e+00	0	50	104	0	77	24254
2026-01-08 06:32:34.59	89.76	12.48	-52.7	-57.4	3.7	0.00e+00	0	50	104	0	77	24105
2026-01-08 06:32:35.60	89.51	12.54	-52.6	-57.3	3.7	0.00e+00	0	50	104	0	77	23895
2026-01-08 06:32:36.74	89.22	12.62	-52.6	-57.3	3.7	0.00e+00	0	50	104	0	77	23962
2026-01-08 06:32:37.63	89.00	12.67	-52.7	-57.3	3.7	0.00e+00	0	50	104	0	77	23853
2026-01-08 06:32:38.77	88.71	12.75	-52.6	-57.2	3.7	0.00e+00	0	50	104	0	77	23526
2026-01-08 06:32:39.70	88.48	12.81	-52.6	-57.2	3.7	0.00e+00	0	50	104	0	77	23531
2026-01-08 06:32:40.87	88.18	12.88	-52.6	-57.2	3.7	0.00e+00	0	50	104	0	77	23618
2026-01-08 06:32:41.73	87.96	12.94	-52.8	-57.3	3.7	0.00e+00	0	50	104	0	77	23748
2026-01-08 06:32:43.10	87.60	13.02	-52.6	-57.0	3.7	0.00e+00	0	50	104	0	77	22991
2026-01-08 06:32:43.82	87.42	13.07	-52.7	-57.2	3.7	0.00e+00	0	50	104	0	77	23658
2026-01-08 06:32:45.11	87.08	13.15	-52.5	-56.9	3.7	0.00e+00	0	50	104	0	77	22776
2026-01-08 06:32:45.83	86.89	13.19	-52.4	-56.9	3.7	0.00e+00	0	50	104	0	76	24125
2026-01-08 06:32:47.12	86.55	13.27	-52.1	-56.4	3.7	0.00e+00	0	50	104	0	76	22868
2026-01-08 06:32:47.84	86.36	13.32	-52.0	-56.4	3.7	0.00e+00	0	50	104	0	76	22737
2026-01-08 06:32:49.12	86.02	13.40	-51.9	-56.2	3.7	0.00e+00	0	50	104	0	75	23683
2026-01-08 06:32:49.84	85.83	13.44	-52.3	-57.1	3.7	0.00e+00	0	50	104	0	75	26040
2026-01-08 06:32:51.13	85.48	13.52	-52.0	-56.6	3.7	0.00e+00	0	50	104	0	75	24599
2026-01-08 06:32:52.00	85.25	13.57	-51.9	-56.6	3.7	0.00e+00	0	50	104	0	75	24553
2026-01-08 06:32:53.15	84.93	13.64	-51.8	-56.5	3.7	0.00e+00	0	50	104	0	75	24397
2026-01-08 06:32:54.01	84.70	13.69	-51.9	-56.5	3.7	0.00e+00	0	50	104	0	75	24362
2026-01-08 06:32:55.16	84.38	13.76	-51.9	-56.4	3.7	0.00e+00	0	50	104	0	75	24196
2026-01-08 06:32:56.02	84.15	13.81	-51.8	-56.5	3.7	0.00e+00	0	50	104	0	75	24521
2026-01-08 06:32:57.17	83.83	13.88	-52.0	-56.9	3.7	0.00e+00	0	50	104	0	75	25513
2026-01-08 06:32:58.36	83.50	13.95	-51.8	-56.9	3.7	0.00e+00	0	50	104	0	75	25621
2026-01-08 06:32:59.22	83.26	14.00	-51.9	-57.1	3.7	0.00e+00	0	50	104	0	75	26161
2026-01-08 06:33:00.37	82.93	14.06	-51.9	-56.9	3.7	0.00e+00	0	50	104	0	75	25456
2026-01-08 06:33:01.23	82.69	14.11	-52.1	-56.9	3.7	0.00e+00	0	50	104	0	75	25615
2026-01-08 06:33:02.38	82.36	14.18	-52.3	-57.0	3.7	0.00e+00	0	50	104	0	75	25863
2026-01-08 06:33:03.24	82.12	14.23	-52.6	-57.2	3.7	0.00e+00	0	50	104	0	75	26452
2026-01-08 06:33:04.38	81.79	14.29	-52.8	-57.5	3.7	0.00e+00	0	50	104	0	76	25887
2026-01-08 06:33:05.24	81.54	14.34	-52.8	-57.5	3.7	0.00e+00	0	50	104	0	76	25784
2026-01-08 06:33:06.42	81.20	14.40	-51.9	-56.0	3.7	0.00e+00	0	50	104	0	75	23102
2026-01-08 06:33:07.28	80.95	14.45	-52.0	-56.2	3.7	0.00e+00	0	50	104	0	75	23550
2026-01-08 06:33:08.43	80.62	14.51	-51.9	-56.0	3.7	0.00e+00	0	50	104	0	75	23138
2026-01-08 06:33:09.29	80.37	14.56	-52.2	-56.6	3.7	0.00e+00	0	50	104	0	75	24550
2026-01-08 06:33:10.44	80.03	14.62	-52.8	-57.2	3.7	0.00e+00	0	50	104	0	76	24962
2026-01-08 06:33:11.30	79.77	14.66	-53.1	-57.6	3.7	0.00e+00	0	50	104	0	76	26073
2026-01-08 06:33:12.44	79.44	14.72	-53.3	-57.9	3.7	0.00e+00	0	50	104	0	77	25385
2026-01-08 06:33:13.30	79.18	14.77	-53.3	-57.8	3.7	0.00e+00	0	50	104	0	77	25262
2026-01-08 06:33:14.45	78.84	14.82	-53.2	-57.7	3.7	0.00e+00	0	50	104	0	77	24998
2026-01-08 06:33:15.31	78.58	14.87	-53.2	-57.6	3.7	0.00e+00	0	50	104	0	77	24739
2026-01-08 06:33:16.45	78.23	14.92	-53.4	-58.0	3.7	0.00e+00	0	50	104	0	77	25853
2026-01-08 06:33:17.31	77.97	14.97	-53.4	-57.9	3.7	0.00e+00	0	50	104	0	77	25425
2026-01-08 06:33:18.46	77.63	15.02	-53.4	-58.1	3.7	0.00e+00	0	50	104	0	77	26034
2026-01-08 06:33:19.32	77.36	15.06	-53.3	-57.7	3.7	0.00e+00	0	50	104	0	77	25026
2026-01-08 06:33:20.47	77.01	15.12	-53.1	-57.5	3.7	0.00e+00	0	50	104	0	77	24493
2026-01-08 06:33:21.33	76.75	15.16	-53.3	-57.7	3.7	0.00e+00	0	50	104	0	77	25080
2026-01-08 06:33:22.47	76.40	15.21	-53.0	-57.7	3.7	0.00e+00	0	50	104	0	77	24922
2026-01-08 06:33:23.34	76.13	15.25	-53.2	-57.8	3.7	0.00e+00	0	50	104	0	77	25244
2026-01-08 06:33:24.48	75.77	15.30	-53.2	-57.8	3.7	0.00e+00	0	50	104	0	77	25272
2026-01-08 06:33:25.34	75.50	15.34	-53.1	-57.8	3.7	0.00e+00	0	50	104	0	77	25272
2026-01-08 06:33:26.49	75.14	15.39	-53.5	-57.9	3.7	0.00e+00	0	50	104	0	77	25393
2026-01-08 06:33:27.35	74.87	15.43	-53.6	-58.0	3.6	0.00e+00	0	50	104	0	77	25709
2026-01-08 06:33:28.69	74.45	15.48	-53.6	-57.9	3.7	0.00e+00	0	50	104	0	77	25620
2026-01-08 06:33:29.40	74.23	15.51	-53.5	-57.9	3.7	0.00e+00	0	50	104	0	77	25633
2026-01-08 06:33:30.69	73.82	15.57	-53.4	-58.1	3.7	0.00e+00	0	50	104	0	77	26111
2026-01-08 06:33:31.41	73.59	15.60	-53.5	-58.1	3.7	0.00e+00	0	50	104	0	77	26229
2026-01-08 06:33:32.70	73.18	15.65	-53.4	-58.1	3.7	0.00e+00	0	50	104	0	77	26020
2026-01-08 06:33:33.41	72.95	15.67	-53.4	-58.0	3.7	0.00e+00	0	50	104	0	77	25945
2026-01-08 06:33:34.70	72.54	15.72	-53.4	-57.8	3.7	0.00e+00	0	50	104	0	77	25276
2026-01-08 06:33:35.42	72.30	15.75	-53.4	-57.8	3.7	0.00e+00	0	50	104	0	77	25134
2026-01-08 06:33:36.71	71.89	15.80	-53.5	-57.9	3.7	0.00e+00	0	50	104	0	77	25422
2026-01-08 06:33:37.43	71.65	15.82	-53.5	-57.9	3.7	0.00e+00	0	50	104	0	77	25408
2026-01-08 06:33:38.72	71.23	15.87	-53.4	-57.9	3.7	0.00e+00	0	50	104	0	77	25645
2026-01-08 06:33:39.43	71.00	15.89	-53.2	-57.8	3.7	0.00e+00	0	50	104	0	77	25234
2026-01-08 06:33:40.80	70.56	15.94	-53.1	-57.7	3.6	0.00e+00	0	50	104	0	77	24881
2026-01-08 06:33:41.52	70.32	15.96	-53.2	-57.7	3.7	0.00e+00	0	50	104	0	77	24999
2026-01-08 06:33:42.81	69.90	16.01	-53.5	-58.1	3.7	0.00e+00	0	50	104	0	77	26028
2026-01-08 06:33:43.53	69.66	16.03	-53.5	-57.9	3.7	0.00e+00	0	50	104	0	77	25632
2026-01-08 06:33:44.81	69.24	16.07	-53.5	-57.9	3.7	0.00e+00	0	50	104	0	77	25552
2026-01-08 06:33:45.53	69.00	16.09	-53.4	-57.6	3.7	0.00e+00	0	50	104	0	77	24784
2026-01-08 06:33:46.82	68.57	16.13	-53.5	-57.8	3.7	0.00e+00	0	50	104	0	77	25354
2026-01-08 06:33:47.54	68.33	16.15	-53.4	-57.9	3.7	0.00e+00	0	50	104	0	77	25389
2026-01-08 06:33:48.83	67.90	16.18	-53.4	-57.8	3.7	0.00e+00	0	51	104	0	77	25240
2026-01-08 06:33:49.54	67.66	16.20	-53.5	-57.9	3.7	0.00e+00	0	50	104	0	77	25569
2026-01-08 06:33:50.83	67.23	16.24	-53.5	-58.0	3.7	0.00e+00	0	50	104	0	77	25799
2026-01-08 06:33:51.55	66.99	16.25	-53.5	-57.9	3.7	0.00e+00	0	50	104	0	77	25482
2026-01-08 06:33:52.84	66.56	16.28	-53.4	-57.7	3.7	0.00e+00	0	50	104	0	77	24965
2026-01-08 06:33:53.56	66.32	16.30	-53.2	-57.5	3.7	0.00e+00	0	50	104	0	77	24457
2026-01-08 06:33:54.85	65.88	16.33	-52.8	-56.7	3.7	0.00e+00	0	51	104	0	77	22140
2026-01-08 06:33:55.56	65.64	16.35	-53.4	-57.5	3.7	0.00e+00	0	50	104	0	77	24466
2026-01-08 06:33:56.85	65.20	16.37	-53.3	-57.5	3.7	0.00e+00	0	51	104	0	77	24332
2026-01-08 06:33:57.56	64.96	16.39	-53.4	-57.7	3.7	0.00e+00	0	50	104	0	77	24879
2026-01-08 06:33:58.86	64.52	16.41	-53.7	-58.1	3.7	0.00e+00	0	50	104	0	77	26205
2026-01-08 06:33:59.57	64.28	16.42	-53.6	-58.1	3.7	0.00e+00	0	50	104	0	77	26114
2026-01-08 06:34:00.86	63.84	16.45	-53.5	-57.9	3.7	0.00e+00	0	50	104	0	77	25493
2026-01-08 06:34:01.61	63.59	16.46	-53.4	-57.8	3.7	0.00e+00	0	50	104	0	77	25265
2026-01-08 06:34:02.90	63.15	16.48	-53.4	-57.8	3.7	0.00e+00	0	50	104	0	77	25355
2026-01-08 06:34:03.68	62.88	16.49	-53.4	-57.6	3.7	0.00e+00	0	50	104	0	77	24586
2026-01-08 06:34:05.29	62.33	16.51	-53.5	-57.9	3.7	0.00e+00	0	50	104	0	77	25388
2026-01-08 06:34:05.88	62.13	16.52	-53.4	-58.0	3.7	0.00e+00	0	50	104	0	77	25965
2026-01-08 06:34:07.45	61.59	16.54	-53.4	-57.9	3.7	0.00e+00	0	51	104	0	77	25502
2026-01-08 06:34:08.04	61.39	16.54	-53.5	-58.0	3.7	0.00e+00	0	50	104	0	77	25895
2026-01-08 06:34:09.62	60.85	16.56	-53.4	-57.6	3.7	0.00e+00	0	51	104	0	77	24779
2026-01-08 06:34:10.36	60.59	16.57	-53.4	-57.8	3.7	0.00e+00	0	50	104	0	77	25163
2026-01-08 06:34:11.66	60.15	16.58	-53.4	-57.9	3.7	0.00e+00	0	50	104	0	77	25678
2026-01-08 06:34:12.37	59.90	16.58	-53.4	-57.9	3.7	0.00e+00	0	50	104	0	77	25481
2026-01-08 06:34:13.66	59.46	16.59	-53.3	-57.9	3.7	0.00e+00	0	50	104	0	77	25637
2026-01-08 06:34:14.38	59.21	16.59	-53.3	-57.8	3.7	0.00e+00	0	51	104	0	77	25374
2026-01-08 06:34:15.67	58.77	16.60	-53.4	-57.9	3.7	0.00e+00	0	50	104	0	77	25625
2026-01-08 06:34:16.39	58.52	16.60	-53.5	-58.0	3.7	0.00e+00	0	51	104	0	77	25750
2026-01-08 06:34:17.78	58.04	16.60	-53.5	-57.7	3.7	0.00e+00	0	50	104	0	77	24992
2026-01-08 06:34:18.49	57.79	16.60	-53.4	-57.7	3.7	0.00e+00	0	50	104	0	77	25036
2026-01-08 06:34:19.78	57.35	16.60	-53.4	-57.8	3.7	0.00e+00	0	50	104	0	77	25169
2026-01-08 06:34:20.50	57.10	16.60	-53.5	-57.9	3.7	0.00e+00	0	51	104	0	77	25588
2026-01-08 06:34:21.79	56.66	16.60	-53.4	-57.9	3.7	0.00e+00	0	50	104	0	77	25481
2026-01-08 06:34:22.51	56.41	16.60	-53.5	-58.0	3.7	0.00e+00	0	51	104	0	77	25787
2026-01-08 06:34:23.80	55.97	16.60	-53.5	-57.9	3.7	0.00e+00	0	51	104	0	77	25548
2026-01-08 06:34:24.51	55.72	16.59	-53.5	-57.9	3.7	0.00e+00	0	51	104	0	77	25664
2026-01-08 06:34:25.80	55.28	16.59	-53.6	-57.9	3.7	0.00e+00	0	50	104	0	77	25659
2026-01-08 06:34:26.52	55.03	16.58	-53.5	-58.0	3.7	0.00e+00	0	50	104	0	77	25879
2026-01-08 06:34:27.81	54.59	16.57	-53.5	-58.1	3.7	0.00e+00	0	50	104	0	77	26047
2026-01-08 06:34:28.67	54.29	16.57	-53.5	-57.9	3.7	0.00e+00	0	51	104	0	77	25666
2026-01-08 06:34:30.13	53.79	16.55	-53.5	-58.0	3.7	0.00e+00	0	50	104	0	77	25966
2026-01-08 06:34:30.85	53.54	16.55	-53.4	-57.9	3.7	0.00e+00	0	51	104	0	77	25452
2026-01-08 06:34:32.14	53.10	16.53	-53.4	-57.9	3.7	0.00e+00	0	51	104	0	77	25677
2026-01-08 06:34:32.85	52.86	16.52	-53.4	-57.8	3.7	0.00e+00	0	51	104	0	77	25179
2026-01-08 06:34:34.14	52.42	16.51	-53.2	-57.8	3.7	0.00e+00	0	51	104	0	77	25300
2026-01-08 06:34:34.86	52.17	16.50	-53.0	-57.5	3.7	0.00e+00	0	51	104	0	77	24253
2026-01-08 06:34:36.15	51.73	16.48	-53.1	-57.6	3.7	0.00e+00	0	51	104	0	77	24715
2026-01-08 06:34:36.87	51.49	16.47	-52.9	-57.1	3.7	0.00e+00	0	50	104	0	77	23200
2026-01-08 06:34:38.16	51.05	16.45	-52.8	-56.7	3.7	0.00e+00	0	51	104	0	76	23487
2026-01-08 06:34:38.87	50.81	16.43	-52.6	-56.4	3.7	0.00e+00	0	50	104	0	76	22778
2026-01-08 06:34:40.16	50.37	16.41	-53.1	-57.3	3.7	0.00e+00	0	51	104	0	76	25140
2026-01-08 06:34:40.88	50.12	16.40	-53.1	-57.3	3.7	0.00e+00	0	51	104	0	76	25369
2026-01-08 06:34:42.17	49.69	16.37	-53.1	-57.3	3.7	0.00e+00	0	51	104	0	76	25137
2026-01-08 06:34:43.16	49.35	16.35	-53.1	-57.3	3.7	0.00e+00	0	51	104	0	76	25167
2026-01-08 06:34:44.48	48.91	16.32	-53.1	-57.1	3.7	0.00e+00	0	51	104	0	77	23353
2026-01-08 06:34:45.19	48.67	16.31	-52.8	-56.6	3.7	0.00e+00	0	50	104	0	77	21914
2026-01-08 06:34:46.48	48.24	16.28	-53.2	-57.3	3.7	0.00e+00	0	51	104	0	77	23887
2026-01-08 06:34:47.20	48.00	16.26	-53.0	-57.0	3.7	0.00e+00	0	51	104	0	77	22934
2026-01-08 06:34:48.49	47.56	16.23	-53.3	-57.5	3.7	0.00e+00	0	51	104	0	77	24382
2026-01-08 06:34:49.20	47.33	16.21	-53.3	-57.6	3.7	0.00e+00	0	50	104	0	77	24561
2026-01-08 06:34:50.50	46.89	16.17	-53.3	-57.5	3.7	0.00e+00	0	51	104	0	77	24463
2026-01-08 06:34:51.21	46.66	16.15	-53.2	-57.4	3.7	0.00e+00	0	51	104	0	77	24162
2026-01-08 06:34:52.53	46.22	16.12	-53.3	-57.5	3.7	0.00e+00	0	51	104	0	77	24404
2026-01-08 06:34:53.25	45.98	16.10	-53.5	-57.8	3.7	0.00e+00	0	51	104	0	77	25277
2026-01-08 06:34:54.54	45.56	16.06	-52.1	-55.6	3.7	0.00e+00	0	51	104	0	76	20668
2026-01-08 06:34:55.26	45.32	16.03	-51.2	-54.1	3.7	0.00e+00	0	50	104	0	74	19644
2026-01-08 06:34:56.55	44.90	15.99	-50.7	-53.5	3.7	0.00e+00	0	50	104	0	73	19378
2026-01-08 06:34:57.27	44.66	15.97	-50.0	-52.6	3.7	0.00e+00	0	51	104	0	72	18539
2026-01-08 06:34:58.55	44.24	15.93	-50.4	-53.2	3.7	0.00e+00	0	50	104	0	72	19760
2026-01-08 06:34:59.27	44.01	15.90	-50.9	-53.8	3.7	0.00e+00	0	50	104	0	72	21140
2026-01-08 06:35:00.56	43.59	15.86	-53.3	-57.7	3.7	0.00e+00	0	51	104	0	77	24905
2026-01-08 06:35:01.28	43.36	15.83	-53.2	-57.7	3.7	0.00e+00	0	51	104	0	77	24926
2026-01-08 06:35:02.57	42.94	15.79	-52.3	-55.9	3.7	0.00e+00	0	51	104	0	76	21603
2026-01-08 06:35:03.29	42.71	15.76	-52.0	-55.6	3.7	0.00e+00	0	50	104	0	76	20688
2026-01-08 06:35:04.58	42.29	15.71	-52.9	-56.9	3.7	0.00e+00	0	51	104	0	76	23992
2026-01-08 06:35:05.29	42.07	15.69	-53.3	-57.8	3.7	0.00e+00	0	50	104	0	77	25095
2026-01-08 06:35:06.58	41.65	15.64	-53.0	-57.1	3.7	0.00e+00	0	51	104	0	77	23164
2026-01-08 06:35:07.48	41.37	15.60	-52.9	-56.7	3.7	0.00e+00	0	51	104	0	77	22303
2026-01-08 06:35:08.51	41.04	15.56	-53.2	-57.1	3.7	0.00e+00	0	51	104	0	77	23366
2026-01-08 06:35:09.51	40.73	15.52	-53.5	-57.6	3.7	0.00e+00	0	51	104	0	77	24736
2026-01-08 06:35:10.51	40.41	15.48	-53.4	-57.6	3.7	0.00e+00	0	50	104	0	77	24760
2026-01-08 06:35:11.52	40.09	15.43	-53.2	-57.9	3.7	0.00e+00	0	51	104	0	77	25450
2026-01-08 06:35:12.52	39.78	15.39	-52.3	-56.3	3.7	0.00e+00	0	51	104	0	76	22603
2026-01-08 06:35:13.52	39.47	15.35	-51.6	-54.9	3.7	0.00e+00	0	50	104	0	75	20231
2026-01-08 06:35:14.53	39.16	15.30	-51.4	-54.5	3.7	0.00e+00	0	50	104	0	74	20456
2026-01-08 06:35:15.58	38.83	15.26	-50.5	-53.1	3.7	0.00e+00	0	51	104	0	73	18545
2026-01-08 06:35:16.47	38.56	15.22	-49.3	-51.6	3.6	0.00e+00	0	50	104	0	70	18410
2026-01-08 06:35:17.60	38.21	15.16	-49.2	-51.5	3.6	0.00e+00	0	51	104	0	70	18312
2026-01-08 06:35:18.46	37.95	15.12	-50.1	-52.6	3.6	0.00e+00	0	51	104	0	70	20731
2026-01-08 06:35:19.61	37.60	15.07	-49.8	-52.2	3.7	0.00e+00	0	51	104	0	71	18796
2026-01-08 06:35:20.47	37.33	15.03	-48.8	-50.9	3.7	0.00e+00	0	50	104	0	69	18095
2026-01-08 06:35:21.62	36.99	14.97	-47.1	-49.0	3.8	0.00e+00	0	50	104	0	66	17175
2026-01-08 06:35:22.48	36.73	14.93	-47.5	-49.3	3.8	0.00e+00	0	51	104	0	67	16939
2026-01-08 06:35:23.63	36.38	14.87	-47.2	-49.0	3.8	0.00e+00	0	51	104	0	65	18205
2026-01-08 06:35:24.49	36.13	14.83	-48.1	-50.0	3.8	0.00e+00	0	51	104	0	66	19467
2026-01-08 06:35:25.64	35.78	14.77	-49.7	-52.1	3.8	0.00e+00	0	50	104	0	70	19610
2026-01-08 06:35:26.85	35.43	14.71	-49.9	-52.5	3.7	0.00e+00	0	51	104	0	71	19459
2026-01-08 06:35:27.71	35.17	14.67	-49.4	-51.8	3.6	0.00e+00	0	50	104	0	70	18932
2026-01-08 06:35:28.85	34.84	14.61	-50.2	-52.8	3.6	0.00e+00	0	50	104	0	71	20105
2026-01-08 06:35:29.71	34.59	14.56	-51.9	-55.6	3.7	0.00e+00	0	50	104	0	75	21909
2026-01-08 06:35:30.86	34.25	14.50	-51.7	-55.0	3.7	0.00e+00	0	50	104	0	73	23105
2026-01-08 06:35:31.72	34.00	14.45	-49.0	-51.3	3.6	0.00e+00	0	51	104	0	69	18876
2026-01-08 06:35:32.86	33.67	14.39	-51.2	-54.1	3.7	0.00e+00	0	50	104	0	72	22067
2026-01-08 06:35:33.72	33.43	14.35	-52.4	-56.0	3.7	0.00e+00	0	50	104	0	75	22954
2026-01-08 06:35:34.93	33.08	14.28	-52.7	-56.7	3.7	0.00e+00	0	51	104	0	76	23430
2026-01-08 06:35:35.80	32.83	14.23	-52.7	-56.7	3.7	0.00e+00	0	51	104	0	76	23645
2026-01-08 06:35:36.94	32.51	14.17	-52.7	-56.9	3.7	0.00e+00	0	51	104	0	76	24058
2026-01-08 06:35:37.80	32.27	14.12	-52.1	-56.2	3.7	0.00e+00	0	51	104	0	76	22326
2026-01-08 06:35:39.09	31.90	14.04	-52.2	-55.8	3.7	0.00e+00	0	51	104	0	75	22373
2026-01-08 06:35:39.81	31.70	14.00	-50.7	-53.7	3.7	0.00e+00	0	51	104	0	73	19933
2026-01-08 06:35:41.29	31.29	13.92	-52.1	-56.9	3.7	0.00e+00	0	50	104	0	75	25423
2026-01-08 06:35:42.01	31.09	13.88	-51.5	-55.9	3.7	0.00e+00	0	51	104	0	75	22693
2026-01-08 06:35:43.29	30.74	13.80	-52.3	-57.2	3.7	0.00e+00	0	51	104	0	75	26351
2026-01-08 06:35:44.01	30.54	13.76	-52.6	-57.4	3.7	0.00e+00	0	51	104	0	75	27069
2026-01-08 06:35:45.30	30.19	13.68	-52.2	-56.1	3.7	0.00e+00	0	51	104	0	75	23312
2026-01-08 06:35:46.02	30.00	13.64	-51.9	-55.3	3.7	0.00e+00	0	51	104	0	75	21302
2026-01-08 06:35:47.31	29.65	13.56	-52.7	-56.7	3.7	0.00e+00	0	50	104	0	75	24894
2026-01-08 06:35:48.02	29.46	13.52	-51.5	-55.1	3.7	0.00e+00	0	51	104	0	75	20692
2026-01-08 06:35:49.31	29.12	13.44	-52.2	-56.3	3.7	0.00e+00	0	51	104	0	75	23880
2026-01-08 06:35:50.08	28.91	13.40	-51.7	-55.4	3.7	0.00e+00	0	50	104	0	75	21580
2026-01-08 06:35:51.37	28.57	13.32	-52.1	-56.3	3.7	0.00e+00	0	51	104	0	75	23701
2026-01-08 06:35:52.08	28.38	13.27	-52.3	-56.7	3.7	0.00e+00	0	51	104	0	75	24841
2026-01-08 06:35:53.38	28.04	13.19	-52.4	-57.1	3.7	0.00e+00	0	51	104	0	75	26163
2026-01-08 06:35:54.24	27.82	13.14	-52.5	-57.0	3.7	0.00e+00	0	51	104	0	75	25794
2026-01-08 06:35:55.71	27.44	13.05	-51.9	-56.2	3.7	0.00e+00	0	50	104	0	75	23527
2026-01-08 06:35:56.43	27.25	13.00	-51.8	-56.2	3.7	0.00e+00	0	51	104	0	75	23575
2026-01-08 06:35:57.72	26.92	12.92	-52.0	-56.4	3.7	0.00e+00	0	51	104	0	75	24117
2026-01-08 06:35:58.44	26.74	12.88	-51.7	-55.9	3.7	0.00e+00	0	51	104	0	75	22687
2026-01-08 06:35:59.73	26.41	12.79	-51.1	-54.8	3.7	0.00e+00	0	51	104	0	74	21245
2026-01-08 06:36:00.44	26.24	12.75	-51.1	-54.8	3.7	0.00e+00	0	51	104	0	74	21169
2026-01-08 06:36:01.73	25.91	12.67	-51.4	-55.0	3.7	0.00e+00	0	50	104	0	74	21702
2026-01-08 06:36:02.45	25.73	12.62	-51.5	-55.3	3.7	0.00e+00	0	51	104	0	74	22371
2026-01-08 06:36:03.73	25.42	12.54	-51.8	-55.9	3.7	0.00e+00	0	51	104	0	74	24052
2026-01-08 06:36:04.45	25.24	12.49	-51.8	-56.0	3.7	0.00e+00	0	51	104	0	74	24516
2026-01-08 06:36:05.74	24.92	12.41	-52.0	-56.7	3.7	0.00e+00	0	51	104	0	74	26292
2026-01-08 06:36:06.46	24.75	12.36	-52.0	-56.8	3.7	0.00e+00	0	51	104	0	74	26646
2026-01-08 06:36:07.75	24.44	12.28	-51.8	-55.9	3.7	0.00e+00	0	51	104	0	74	24132
2026-01-08 06:36:08.46	24.26	12.23	-51.7	-55.9	3.7	0.00e+00	0	51	104	0	74	24166
2026-01-08 06:36:09.75	23.96	12.14	-51.9	-56.0	3.7	0.00e+00	0	51	104	0	74	24352
2026-01-08 06:36:10.47	23.78	12.10	-52.2	-56.3	3.7	0.00e+00	0	51	104	0	75	23722
2026-01-08 06:36:11.76	23.48	12.01	-52.6	-56.7	3.7	0.00e+00	0	51	104	0	75	24903
2026-01-08 06:36:12.48	23.31	11.96	-52.8	-56.9	3.7	0.00e+00	0	51	104	0	76	24099
2026-01-08 06:36:13.77	23.01	11.88	-52.9	-56.8	3.7	0.00e+00	0	51	104	0	76	23803
2026-01-08 06:36:14.61	22.81	11.82	-52.8	-56.7	3.7	0.00e+00	0	51	104	0	76	23616
2026-01-08 06:36:16.09	22.47	11.72	-52.5	-56.7	3.7	0.00e+00	0	51	104	0	75	24936
2026-01-08 06:36:16.81	22.30	11.68	-52.5	-57.3	3.7	0.00e+00	0	51	104	0	75	26669
2026-01-08 06:36:18.29	21.96	11.58	-52.1	-55.9	3.7	0.00e+00	0	51	104	0	75	22730
2026-01-08 06:36:19.00	21.80	11.53	-52.4	-56.6	3.7	0.00e+00	0	51	104	0	75	24749
2026-01-08 06:36:20.30	21.51	11.44	-52.3	-57.3	3.7	0.00e+00	0	50	104	0	75	26732
2026-01-08 06:36:21.01	21.35	11.39	-52.0	-57.1	3.7	0.00e+00	0	51	104	0	75	26191
2026-01-08 06:36:22.30	21.06	11.31	-51.2	-56.1	3.7	0.00e+00	0	51	104	0	74	24791
2026-01-08 06:36:23.02	20.90	11.26	-50.7	-55.6	3.7	0.00e+00	0	51	104	0	73	24583
2026-01-08 06:36:24.31	20.62	11.17	-50.0	-54.8	3.7	0.00e+00	0	51	104	0	71	25107
2026-01-08 06:36:25.11	20.44	11.12	-49.3	-53.7	3.7	0.00e+00	0	51	104	0	70	23463
2026-01-08 06:36:26.55	20.13	11.02	-48.4	-53.0	3.7	0.00e+00	0	51	104	0	69	23020
2026-01-08 06:36:27.27	19.97	10.97	-49.9	-54.6	3.7	0.00e+00	0	51	104	0	70	26173
2026-01-08 06:36:28.56	19.69	10.88	-49.9	-53.6	3.7	0.00e+00	0	51	104	0	70	23200
2026-01-08 06:36:29.28	19.54	10.83	-50.3	-53.9	3.7	0.00e+00	0	51	104	0	71	22724
2026-01-08 06:36:30.57	19.27	10.74	-50.9	-54.4	3.7	0.00e+00	0	51	104	0	72	22882
2026-01-08 06:36:31.28	19.12	10.70	-51.5	-55.2	3.7	0.00e+00	0	51	104	0	73	23514
2026-01-08 06:36:32.57	18.84	10.61	-51.8	-55.7	3.7	0.00e+00	0	51	104	0	74	23611
2026-01-08 06:36:33.29	18.69	10.56	-52.0	-56.1	3.7	0.00e+00	0	51	104	0	74	24622
2026-01-08 06:36:34.58	18.43	10.47	-50.7	-53.9	3.7	0.00e+00	0	51	104	0	73	20284
2026-01-08 06:36:35.30	18.28	10.42	-50.9	-54.1	3.7	0.00e+00	0	51	104	0	73	20683
2026-01-08 06:36:36.59	18.01	10.33	-52.1	-56.3	3.7	0.00e+00	0	51	104	0	75	23950
2026-01-08 06:36:37.30	17.87	10.28	-51.4	-55.1	3.7	0.00e+00	0	51	104	0	74	22078
2026-01-08 06:36:38.64	17.59	10.19	-51.6	-55.5	3.7	0.00e+00	0	50	104	0	74	23058
2026-01-08 06:36:39.36	17.45	10.14	-51.8	-55.7	3.7	0.00e+00	0	51	104	0	74	23465
2026-01-08 06:36:40.74	17.17	10.05	-52.2	-56.1	3.7	0.00e+00	0	51	104	0	74	24603
2026-01-08 06:36:41.46	17.03	10.00	-52.2	-56.3	3.7	0.00e+00	0	51	104	0	75	23726
2026-01-08 06:36:42.75	16.77	9.91	-51.9	-56.7	3.7	0.00e+00	0	50	104	0	75	24870
2026-01-08 06:36:43.47	16.63	9.86	-50.9	-56.1	3.7	0.00e+00	0	51	104	0	73	26271
2026-01-08 06:36:44.76	16.38	9.77	-50.1	-55.5	3.7	0.00e+00	0	51	104	0	72	25868
2026-01-08 06:36:45.47	16.24	9.72	-50.3	-55.8	3.7	0.00e+00	0	51	104	0	71	28232
2026-01-08 06:36:46.76	15.99	9.63	-50.0	-54.9	3.7	0.00e+00	0	51	104	0	71	25635
2026-01-08 06:36:47.48	15.85	9.58	-50.1	-55.0	3.7	0.00e+00	0	51	104	0	71	25834
2026-01-08 06:36:48.77	15.61	9.50	-50.3	-55.4	3.7	0.00e+00	0	51	104	0	71	27005
2026-01-08 06:36:49.57	15.45	9.44	-50.4	-55.7	3.7	0.00e+00	0	51	104	0	71	27864
2026-01-08 06:36:50.71	15.24	9.36	-50.6	-55.9	3.7	0.00e+00	0	51	104	0	71	28676
2026-01-08 06:36:51.76	15.04	9.29	-50.8	-56.0	3.7	0.00e+00	0	51	104	0	72	27394
2026-01-08 06:36:52.62	14.88	9.23	-50.5	-55.8	3.7	0.00e+00	0	51	104	0	72	26588
2026-01-08 06:36:53.77	14.67	9.15	-50.7	-56.0	3.7	0.00e+00	0	51	104	0	72	27420
2026-01-08 06:36:54.63	14.51	9.09	-51.0	-56.3	3.7	0.00e+00	0	51	104	0	72	28388
2026-01-08 06:36:55.78	14.30	9.01	-50.5	-55.8	3.7	0.00e+00	0	51	104	0	72	26784
2026-01-08 06:36:56.64	14.14	8.95	-51.0	-56.3	3.7	0.00e+00	0	51	104	0	72	28168
2026-01-08 06:36:57.79	13.93	8.88	-52.2	-57.0	3.7	0.00e+00	0	51	104	0	76	24407
2026-01-08 06:36:58.65	13.78	8.82	-52.8	-57.1	3.7	0.00e+00	0	51	104	0	76	24709
2026-01-08 06:36:59.80	13.57	8.74	-52.8	-57.4	3.7	0.00e+00	0	51	104	0	76	25484
2026-01-08 06:37:00.66	13.42	8.68	-51.3	-55.1	3.7	0.00e+00	0	51	104	0	74	22018
2026-01-08 06:37:01.81	13.22	8.60	-53.5	-58.0	3.7	0.00e+00	0	51	104	0	77	25825
2026-01-08 06:37:02.67	13.07	8.54	-53.3	-57.8	3.7	0.00e+00	0	51	104	0	77	25100
2026-01-08 06:37:03.82	12.87	8.46	-53.4	-58.0	3.7	0.00e+00	0	51	104	0	77	25683
2026-01-08 06:37:04.68	12.72	8.40	-52.8	-57.1	3.7	0.00e+00	0	51	104	0	77	23251
2026-01-08 06:37:05.83	12.52	8.32	-53.9	-58.4	3.7	0.00e+00	0	51	104	0	78	25627
2026-01-08 06:37:06.69	12.37	8.27	-53.6	-58.2	3.7	0.00e+00	0	51	104	0	78	24907
2026-01-08 06:37:07.83	12.18	8.19	-53.5	-57.7	3.7	0.00e+00	0	51	104	0	78	23633
2026-01-08 06:37:08.70	12.03	8.13	-53.4	-57.8	3.7	0.00e+00	0	51	104	0	78	23840
2026-01-08 06:37:09.84	11.84	8.05	-54.1	-58.4	3.7	0.00e+00	0	51	104	0	78	25600
2026-01-08 06:37:10.70	11.69	7.99	-54.0	-58.4	3.7	0.00e+00	0	51	104	0	79	24117
2026-01-08 06:37:11.85	11.50	7.91	-53.4	-58.2	3.7	0.00e+00	0	51	104	0	78	24875
2026-01-08 06:37:12.71	11.36	7.86	-54.0	-58.5	3.7	0.00e+00	0	51	104	0	79	24505
2026-01-08 06:37:13.86	11.17	7.78	-54.0	-58.6	3.7	0.00e+00	0	51	104	0	79	24654
2026-01-08 06:37:14.72	11.03	7.72	-54.1	-58.6	3.7	0.00e+00	0	51	104	0	79	24620
2026-01-08 06:37:15.87	10.84	7.64	-54.1	-58.5	3.7	0.00e+00	0	51	104	0	79	24310
2026-01-08 06:37:16.73	10.71	7.58	-53.7	-58.3	3.7	0.00e+00	0	51	104	0	79	23881
2026-01-08 06:37:17.88	10.52	7.50	-53.7	-58.3	3.7	0.00e+00	0	51	104	0	78	25275
2026-01-08 06:37:18.74	10.38	7.45	-53.7	-58.1	3.7	0.00e+00	0	51	104	0	78	24531
2026-01-08 06:37:19.89	10.20	7.37	-53.4	-57.7	3.7	0.00e+00	0	51	104	0	78	23609
2026-01-08 06:37:20.75	10.07	7.31	-52.7	-57.4	3.7	0.00e+00	0	51	104	0	77	24168
2026-01-08 06:37:21.89	9.89	7.23	-52.6	-57.4	3.7	0.00e+00	0	51	104	0	77	23983
2026-01-08 06:37:22.76	9.75	7.18	-52.6	-57.4	3.7	0.00e+00	0	51	104	0	77	24061
2026-01-08 06:37:23.91	9.57	7.10	-52.6	-57.4	3.7	0.00e+00	0	51	104	0	77	24044
2026-01-08 06:37:24.77	9.44	7.04	-52.6	-57.4	3.7	0.00e+00	0	51	104	0	77	24061
2026-01-08 06:37:25.91	9.27	6.96	-52.6	-57.4	3.7	0.00e+00	0	51	104	0	77	24063
2026-01-08 06:37:26.77	9.14	6.91	-52.6	-57.4	3.7	0.00e+00	0	51	104	0	77	24051
2026-01-08 06:37:27.92	8.96	6.83	-52.6	-57.4	3.7	0.00e+00	0	51	104	0	77	23968
2026-01-08 06:37:28.78	8.83	6.77	-52.6	-57.4	3.7	0.00e+00	0	51	104	0	77	24037
2026-01-08 06:37:29.93	8.66	6.69	-52.6	-57.4	3.7	0.00e+00	0	51	104	0	77	23992
2026-01-08 06:37:30.79	8.54	6.64	-52.6	-57.4	3.7	0.00e+00	0	51	104	0	77	24076
2026-01-08 06:37:31.94	8.37	6.56	-52.6	-57.3	3.7	0.00e+00	0	51	104	0	77	23933
2026-01-08 06:37:32.80	8.24	6.50	-52.6	-57.3	3.7	0.00e+00	0	51	104	0	77	23882
2026-01-08 06:37:33.95	8.07	6.43	-52.6	-57.3	3.7	0.00e+00	0	51	104	0	77	23934
2026-01-08 06:37:34.81	7.95	6.37	-52.6	-57.3	3.7	0.00e+00	0	51	104	0	77	23922
2026-01-08 06:37:35.96	7.78	6.29	-52.6	-57.3	3.7	0.00e+00	0	51	104	0	77	23911
2026-01-08 06:37:36.82	7.66	6.24	-52.6	-57.4	3.7	0.00e+00	0	51	104	0	77	24006
2026-01-08 06:37:37.97	7.49	6.16	-52.6	-57.3	3.7	0.00e+00	0	51	104	0	77	23916
2026-01-08 06:37:38.83	7.37	6.10	-52.6	-57.4	3.7	0.00e+00	0	51	104	0	77	23973
2026-01-08 06:37:39.98	7.21	6.03	-52.6	-57.3	3.7	0.00e+00	0	51	104	0	77	23849
2026-01-08 06:37:40.84	7.09	5.97	-52.6	-57.3	3.7	0.00e+00	0	51	104	0	77	23878
2026-01-08 06:37:41.99	6.93	5.90	-52.6	-57.3	3.7	0.00e+00	0	51	104	0	77	23941
2026-01-08 06:37:42.85	6.81	5.84	-52.6	-57.3	3.7	0.00e+00	0	51	104	0	77	23961
2026-01-08 06:37:44.00	6.65	5.76	-52.6	-57.3	3.7	0.00e+00	0	51	104	0	77	23930
2026-01-08 06:37:44.86	6.54	5.71	-52.6	-57.3	3.7	0.00e+00	0	51	104	0	77	23866
2026-01-08 06:37:46.00	6.38	5.63	-52.6	-57.3	3.7	0.00e+00	0	51	104	0	77	23926
2026-01-08 06:37:46.87	6.27	5.58	-52.6	-57.3	3.7	0.00e+00	0	51	104	0	77	23812
2026-01-08 06:37:48.01	6.11	5.50	-52.6	-57.3	3.7	0.00e+00	0	51	104	0	77	23953
2026-01-08 06:37:48.88	6.00	5.45	-52.6	-57.3	3.7	0.00e+00	0	51	104	0	77	23865
2026-01-08 06:37:50.02	5.84	5.37	-52.6	-57.3	3.7	0.00e+00	0	51	104	0	77	23947
2026-01-08 06:37:50.88	5.73	5.32	-52.6	-57.3	3.7	0.00e+00	0	51	104	0	77	23863
2026-01-08 06:37:52.03	5.58	5.24	-52.6	-57.3	3.7	0.00e+00	0	51	104	0	77	23925
2026-01-08 06:37:52.89	5.47	5.19	-52.6	-57.3	3.7	0.00e+00	0	51	104	0	77	23960
2026-01-08 06:37:54.04	5.32	5.11	-52.6	-57.3	3.7	0.00e+00	0	51	104	0	77	23937
2026-01-08 06:37:54.90	5.21	5.06	-52.6	-57.4	3.7	0.00e+00	0	51	104	0	77	23978
2026-01-08 06:37:56.05	5.06	4.98	-52.6	-57.3	3.7	0.00e+00	0	51	104	0	77	23942

#Closed at: 2026-01-08 06:37:56
#Recorded file [0 MB]: D:/Data/31040_260108_093043.dat