passes_logs/2026/01/08/T1/T1__20260108_092725_NOAA_21_JPSS-2_rec.log

#Pass ID: 20260108_092725_NOAA 21 (JPSS-2)
#Satellite: NOAA 21 (JPSS-2)
#Configuration: NOAA 21
#almurnet v.1.7.20251203
#Start time: 2026-01-08 09:27:26

#Version: 2.0.20230620
#Station: T1
#Location: 37.570604 lon 55.790049 lat
#TLE: 1 54234U 22150A   26005.56767909  .00000152  00000+0  92756-4 0  9990
#TLE: 2 54234  98.7490 306.5820 0001036 340.2747  19.8389 14.19532370163472

#Time	Az	El	Level	Level2	SNR	BER	BlckErr	Temp	State	Recorded	gain1	gain2
2026-01-08 09:27:26.40	145.60	5.04	-49.6	-62.6	3.8	1.49e+00	0	36	0	0	71	15547
2026-01-08 09:27:27.39	145.57	5.11	-49.6	-62.5	3.8	1.49e+00	0	36	104	0	71	15258
2026-01-08 09:27:28.40	145.55	5.19	-49.6	-62.4	3.8	1.49e+00	0	37	104	0	71	15210
2026-01-08 09:27:29.40	145.53	5.26	-49.6	-62.4	3.8	1.49e+00	0	37	104	0	71	15152
2026-01-08 09:27:30.40	145.50	5.33	-49.6	-62.5	3.8	1.49e+00	0	36	104	0	71	15268
2026-01-08 09:27:31.41	145.48	5.40	-49.6	-62.5	3.8	1.49e+00	0	37	104	0	71	15319
2026-01-08 09:27:32.41	145.45	5.47	-49.6	-62.5	3.8	1.49e+00	0	37	104	0	71	15364
2026-01-08 09:27:33.42	145.43	5.55	-49.6	-62.6	3.8	1.49e+00	0	37	104	0	71	15461
2026-01-08 09:27:34.42	145.40	5.62	-49.6	-62.6	3.8	1.49e+00	0	37	104	0	71	15413
2026-01-08 09:27:35.43	145.38	5.69	-49.6	-62.4	3.8	1.49e+00	0	37	104	0	71	15216
2026-01-08 09:27:36.43	145.35	5.77	-49.6	-62.4	3.8	1.49e+00	0	37	104	0	71	15195
2026-01-08 09:27:37.44	145.33	5.84	-49.6	-62.3	3.8	1.49e+00	0	37	104	0	71	14948
2026-01-08 09:27:38.44	145.30	5.91	-49.6	-62.1	3.8	1.49e+00	0	37	104	0	71	14695
2026-01-08 09:27:39.44	145.28	5.99	-49.6	-62.0	3.8	1.49e+00	0	37	104	0	71	14443
2026-01-08 09:27:40.45	145.25	6.06	-49.6	-62.0	3.8	1.49e+00	0	37	104	0	71	14386
2026-01-08 09:27:41.45	145.23	6.13	-49.6	-61.9	3.8	1.49e+00	0	37	104	0	71	14268
2026-01-08 09:27:42.46	145.20	6.21	-49.6	-61.9	3.8	1.49e+00	0	37	104	0	71	14309
2026-01-08 09:27:43.46	145.17	6.28	-49.6	-62.1	3.8	1.49e+00	0	37	104	0	71	14650
2026-01-08 09:27:44.47	145.15	6.36	-49.6	-62.2	3.8	1.49e+00	0	37	104	0	71	14869
2026-01-08 09:27:45.47	145.12	6.43	-49.6	-62.5	3.8	1.49e+00	0	37	104	0	71	15235
2026-01-08 09:27:46.47	145.09	6.51	-49.6	-62.7	3.8	1.49e+00	0	37	104	0	71	15629
2026-01-08 09:27:47.48	145.07	6.58	-49.7	-62.8	3.8	1.49e+00	0	38	104	0	71	15940
2026-01-08 09:27:48.48	145.04	6.66	-49.6	-62.9	3.8	1.49e+00	0	37	104	0	71	15955
2026-01-08 09:27:49.49	145.01	6.74	-49.7	-62.8	3.8	1.49e+00	0	37	104	0	71	15905
2026-01-08 09:27:50.49	144.99	6.81	-49.6	-62.6	3.8	1.49e+00	0	38	104	0	71	15466
2026-01-08 09:27:51.50	144.96	6.89	-49.6	-62.3	3.8	1.49e+00	0	38	104	0	71	15015
2026-01-08 09:27:52.50	144.93	6.97	-49.5	-61.9	3.8	1.49e+00	0	37	104	0	71	14254
2026-01-08 09:27:53.51	144.90	7.04	-49.5	-61.4	3.8	1.49e+00	0	38	104	0	71	13417
2026-01-08 09:27:54.51	144.88	7.12	-49.4	-60.8	3.9	1.49e+00	0	37	104	0	70	13338
2026-01-08 09:27:55.52	144.85	7.20	-49.3	-60.0	3.9	1.47e+00	0	38	104	0	70	12155
2026-01-08 09:27:56.52	144.82	7.27	-49.2	-58.3	4.5	1.31e+00	0	38	104	0	70	10025
2026-01-08 09:27:57.52	144.79	7.35	-48.9	-57.2	5.1	6.68e-01	0	38	0	0	69	9296
2026-01-08 09:27:58.52	144.76	7.43	-48.6	-55.5	6.2	3.79e-01	0	38	0	0	69	7708
2026-01-08 09:27:59.53	144.73	7.51	-48.2	-54.3	7.3	1.42e-01	0	38	0	0	68	7051
2026-01-08 09:28:00.53	144.71	7.59	-47.6	-52.8	8.6	5.38e-02	0	38	0	0	67	6290
2026-01-08 09:28:01.54	144.68	7.66	-47.1	-51.7	9.7	1.36e-02	0	38	0	0	66	5909
2026-01-08 09:28:02.54	144.65	7.74	-46.6	-50.6	10.8	3.19e-03	0	38	0	0	65	5527
2026-01-08 09:28:03.54	144.62	7.82	-46.2	-49.9	11.6	8.66e-04	0	38	0	0	64	5359
2026-01-08 09:28:04.55	144.59	7.90	-45.5	-48.8	12.9	1.39e-04	0	38	0	0	63	4991
2026-01-08 09:28:05.55	144.56	7.98	-45.4	-48.6	13.1	3.50e-05	0	38	0	0	62	5165
2026-01-08 09:28:06.56	144.53	8.06	-44.9	-47.9	13.7	7.60e-06	0	38	0	0	61	5081
2026-01-08 09:28:07.56	144.50	8.14	-44.9	-47.9	13.7	8.30e-06	0	38	0	0	61	5054
2026-01-08 09:28:08.57	144.47	8.22	-44.7	-47.6	14.0	0.00e+00	0	38	0	0	61	4915
2026-01-08 09:28:09.57	144.44	8.30	-44.8	-47.7	13.9	1.50e-06	0	38	0	0	61	4959
2026-01-08 09:28:10.57	144.41	8.38	-45.0	-48.0	13.7	7.00e-07	0	38	0	0	61	5106
2026-01-08 09:28:11.58	144.38	8.46	-45.2	-48.3	13.3	2.36e-05	0	38	0	0	61	5302
2026-01-08 09:28:12.58	144.35	8.54	-45.4	-48.6	13.1	3.73e-05	0	38	0	0	61	5484
2026-01-08 09:28:13.59	144.31	8.63	-46.1	-49.7	11.9	4.58e-04	0	38	0	0	62	5908
2026-01-08 09:28:14.59	144.28	8.71	-46.7	-50.8	10.8	1.93e-03	0	38	0	0	63	6326
2026-01-08 09:28:15.60	144.25	8.79	-47.2	-51.9	9.5	6.91e-03	0	38	0	0	64	6781
2026-01-08 09:28:16.60	144.22	8.87	-47.7	-53.1	8.3	3.42e-02	0	38	0	0	65	7334
2026-01-08 09:28:17.60	144.19	8.95	-48.2	-54.6	6.9	1.20e-01	0	38	0	0	67	7792
2026-01-08 09:28:18.61	144.16	9.04	-48.9	-56.8	5.3	4.24e-01	0	38	0	0	68	9488
2026-01-08 09:28:19.61	144.12	9.12	-48.6	-55.7	6.1	1.30e+00	0	38	104	0	68	8310
2026-01-08 09:28:20.61	144.09	9.20	-49.1	-58.2	4.7	5.76e-01	0	38	0	0	68	11088
2026-01-08 09:28:21.61	144.06	9.29	-48.9	-57.2	5.1	1.47e+00	0	38	0	0	69	9297
2026-01-08 09:28:22.62	144.03	9.37	-46.5	-50.5	10.9	3.42e-01	0	38	0	0	65	5447
2026-01-08 09:28:23.62	143.99	9.46	-49.4	-60.7	3.8	3.54e-02	0	38	104	0	69	13888
2026-01-08 09:28:24.62	143.96	9.54	-48.1	-54.6	4.4	1.49e+00	0	38	104	0	68	7371
2026-01-08 09:28:25.63	143.93	9.62	-44.5	-47.3	14.5	3.00e-06	0	38	0	0	61	4714
2026-01-08 09:28:26.69	143.89	9.71	-44.4	-47.0	14.8	0.00e+00	0	38	0	0	60	4835
2026-01-08 09:28:27.60	143.86	9.79	-44.1	-46.6	15.1	0.00e+00	0	38	0	0	60	4634
2026-01-08 09:28:28.78	143.82	9.89	-44.0	-46.5	15.2	7.00e-07	0	38	0	0	59	4832
2026-01-08 09:28:29.64	143.79	9.97	-44.0	-46.5	15.3	0.00e+00	0	38	0	0	59	4830
2026-01-08 09:28:31.01	143.74	10.08	-43.9	-46.4	15.3	0.00e+00	0	38	0	0	59	4783
2026-01-08 09:28:31.72	143.72	10.14	-43.6	-46.0	15.7	0.00e+00	0	38	0	0	59	4566
2026-01-08 09:28:33.01	143.67	10.26	-42.9	-45.1	16.6	0.00e+00	0	38	0	0	57	4606
2026-01-08 09:28:33.73	143.65	10.32	-42.6	-44.7	16.9	0.00e+00	0	38	0	0	57	4431
2026-01-08 09:28:35.02	143.60	10.43	-42.6	-44.7	17.0	0.00e+00	0	38	0	0	56	4663
2026-01-08 09:28:35.75	143.58	10.50	-42.6	-44.7	17.0	0.00e+00	0	39	0	0	56	4698
2026-01-08 09:28:37.04	143.53	10.61	-42.3	-44.3	17.4	0.00e+00	0	39	0	0	56	4469
2026-01-08 09:28:37.76	143.50	10.67	-42.1	-44.1	17.6	0.00e+00	0	38	0	0	56	4347
2026-01-08 09:28:39.04	143.46	10.78	-41.7	-43.7	17.8	0.00e+00	0	38	0	0	55	4415
2026-01-08 09:28:39.76	143.43	10.85	-41.8	-43.8	17.7	0.00e+00	0	38	0	0	55	4468
2026-01-08 09:28:41.05	143.38	10.96	-41.7	-43.7	17.8	0.00e+00	0	39	0	0	55	4420
2026-01-08 09:28:41.76	143.36	11.03	-41.7	-43.7	17.8	0.00e+00	0	38	0	0	55	4403
2026-01-08 09:28:43.05	143.31	11.14	-41.6	-43.6	17.9	0.00e+00	0	38	0	0	55	4349
2026-01-08 09:28:44.09	143.27	11.24	-41.5	-43.4	18.1	0.00e+00	0	38	0	0	55	4261
2026-01-08 09:28:45.09	143.23	11.33	-41.6	-43.5	18.0	0.00e+00	0	38	0	0	55	4337
2026-01-08 09:28:46.09	143.19	11.42	-41.5	-43.5	18.0	0.00e+00	0	39	0	0	55	4295
2026-01-08 09:28:47.10	143.16	11.51	-41.7	-43.6	17.9	0.00e+00	0	39	0	0	55	4374
2026-01-08 09:28:48.10	143.12	11.60	-41.4	-43.3	18.2	0.00e+00	0	38	0	0	54	4456
2026-01-08 09:28:49.10	143.08	11.69	-41.4	-43.3	18.2	0.00e+00	0	39	0	0	54	4467
2026-01-08 09:28:50.10	143.04	11.78	-41.5	-43.4	18.1	0.00e+00	0	39	0	0	54	4498
2026-01-08 09:28:51.15	143.00	11.88	-41.4	-43.3	18.2	0.00e+00	0	39	0	0	54	4472
2026-01-08 09:28:52.06	142.96	11.96	-41.3	-43.1	18.3	0.00e+00	0	39	0	0	54	4386
2026-01-08 09:28:53.06	142.92	12.06	-41.3	-43.1	18.4	0.00e+00	0	39	0	0	54	4387
2026-01-08 09:28:54.26	142.87	12.17	-41.2	-43.0	18.5	0.00e+00	0	39	0	0	54	4308
2026-01-08 09:28:55.15	142.84	12.25	-41.3	-43.2	18.3	0.00e+00	0	39	0	0	54	4405
2026-01-08 09:28:56.18	142.80	12.35	-41.2	-43.0	18.5	0.00e+00	0	39	0	0	54	4326
2026-01-08 09:28:57.18	142.76	12.44	-41.2	-43.0	18.5	0.00e+00	0	39	0	0	54	4325
2026-01-08 09:28:58.18	142.71	12.54	-41.2	-43.0	18.5	0.00e+00	0	39	0	0	54	4312
2026-01-08 09:28:59.19	142.67	12.63	-41.3	-43.2	18.3	0.00e+00	0	39	0	0	54	4419
2026-01-08 09:29:00.46	142.62	12.75	-41.2	-43.1	18.5	0.00e+00	0	39	0	0	54	4351
2026-01-08 09:29:01.21	142.59	12.83	-41.3	-43.1	18.4	0.00e+00	0	39	0	0	54	4381
2026-01-08 09:29:02.50	142.53	12.95	-40.9	-42.8	18.7	0.00e+00	0	39	0	0	53	4446
2026-01-08 09:29:03.22	142.50	13.02	-41.1	-42.9	18.6	0.00e+00	0	39	0	0	53	4509
2026-01-08 09:29:04.51	142.45	13.14	-41.1	-43.0	18.5	0.00e+00	0	39	0	0	53	4547
2026-01-08 09:29:05.22	142.42	13.21	-41.0	-42.8	18.7	0.00e+00	0	39	0	0	53	4454
2026-01-08 09:29:06.51	142.36	13.34	-40.9	-42.8	18.7	0.00e+00	0	39	0	0	53	4445
2026-01-08 09:29:07.23	142.33	13.41	-40.9	-42.7	18.7	0.00e+00	0	39	0	0	53	4427
2026-01-08 09:29:08.57	142.27	13.54	-40.9	-42.8	18.7	0.00e+00	0	39	0	0	53	4448
2026-01-08 09:29:09.28	142.24	13.61	-40.9	-42.7	18.7	0.00e+00	0	39	0	0	53	4415
2026-01-08 09:29:10.57	142.18	13.74	-40.9	-42.8	18.7	0.00e+00	0	39	0	0	53	4451
2026-01-08 09:29:11.29	142.15	13.81	-41.0	-42.8	18.6	0.00e+00	0	39	0	0	53	4493
2026-01-08 09:29:12.58	142.09	13.94	-41.1	-43.0	18.4	0.00e+00	0	39	0	0	53	4571
2026-01-08 09:29:13.69	142.04	14.05	-41.0	-42.8	18.6	0.00e+00	0	39	0	0	53	4482
2026-01-08 09:29:14.55	142.00	14.14	-40.9	-42.8	18.6	0.00e+00	0	39	0	0	53	4447
2026-01-08 09:29:15.70	141.94	14.25	-41.0	-42.8	18.6	0.00e+00	0	39	0	0	53	4474
2026-01-08 09:29:16.56	141.90	14.34	-41.1	-42.9	18.5	0.00e+00	0	39	0	0	53	4526
2026-01-08 09:29:17.71	141.85	14.46	-41.0	-42.9	18.6	0.00e+00	0	39	0	0	53	4495
2026-01-08 09:29:18.57	141.81	14.55	-41.0	-42.9	18.5	0.00e+00	0	39	0	0	53	4509
2026-01-08 09:29:19.71	141.75	14.66	-41.1	-43.0	18.5	0.00e+00	0	39	0	0	53	4551
2026-01-08 09:29:20.57	141.71	14.75	-41.0	-42.8	18.6	0.00e+00	0	39	0	0	53	4475
2026-01-08 09:29:21.72	141.66	14.87	-41.1	-42.9	18.5	0.00e+00	0	39	0	0	53	4531
2026-01-08 09:29:22.64	141.61	14.97	-41.1	-42.9	18.5	0.00e+00	0	39	0	0	53	4539
2026-01-08 09:29:23.65	141.56	15.07	-41.2	-43.1	18.3	0.00e+00	0	39	0	0	53	4633
2026-01-08 09:29:24.86	141.50	15.20	-41.1	-42.9	18.5	7.32e-05	0	39	0	0	53	4526
2026-01-08 09:29:25.75	141.46	15.29	-41.3	-43.1	18.4	0.00e+00	0	39	0	0	53	4642
2026-01-08 09:29:27.08	141.39	15.43	-41.2	-43.0	18.4	0.00e+00	0	39	0	0	53	4592
2026-01-08 09:29:27.80	141.35	15.51	-41.2	-43.1	18.4	0.00e+00	0	39	0	0	53	4617
2026-01-08 09:29:29.09	141.29	15.65	-41.3	-43.2	18.3	0.00e+00	0	39	0	0	53	4665
2026-01-08 09:29:29.81	141.25	15.73	-41.3	-43.2	18.3	0.00e+00	0	39	0	0	53	4657
2026-01-08 09:29:31.10	141.18	15.86	-41.2	-43.1	18.4	0.00e+00	0	39	0	0	53	4631
2026-01-08 09:29:31.88	141.14	15.95	-41.3	-43.2	18.3	0.00e+00	0	39	0	0	53	4679
2026-01-08 09:29:33.17	141.07	16.09	-41.3	-43.2	18.4	0.00e+00	0	39	0	0	53	4679
2026-01-08 09:29:33.98	141.03	16.18	-41.3	-43.2	18.4	0.00e+00	0	39	0	0	53	4652
2026-01-08 09:29:35.13	140.97	16.30	-41.3	-43.3	18.3	0.00e+00	0	39	0	0	53	4706
2026-01-08 09:29:35.99	140.92	16.40	-41.4	-43.3	18.3	0.00e+00	0	39	0	0	53	4748
2026-01-08 09:29:37.13	140.86	16.52	-41.4	-43.3	18.3	0.00e+00	0	39	0	0	53	4735
2026-01-08 09:29:38.00	140.81	16.62	-41.2	-43.1	18.4	0.00e+00	0	39	0	0	53	4635
2026-01-08 09:29:39.14	140.75	16.75	-41.3	-43.2	18.4	0.00e+00	0	39	0	0	53	4662
2026-01-08 09:29:40.00	140.70	16.84	-41.3	-43.1	18.4	0.00e+00	0	39	0	0	53	4650
2026-01-08 09:29:41.15	140.63	16.97	-41.2	-43.1	18.5	0.00e+00	0	39	0	0	53	4605
2026-01-08 09:29:42.01	140.59	17.07	-41.3	-43.2	18.4	0.00e+00	0	39	0	0	53	4653
2026-01-08 09:29:43.15	140.52	17.20	-41.2	-43.1	18.5	0.00e+00	0	39	0	0	53	4620
2026-01-08 09:29:44.01	140.47	17.30	-41.3	-43.2	18.4	0.00e+00	0	39	0	0	53	4655
2026-01-08 09:29:45.16	140.40	17.43	-41.3	-43.2	18.4	0.00e+00	0	39	0	0	53	4689
2026-01-08 09:29:46.02	140.35	17.53	-41.3	-43.1	18.5	0.00e+00	0	39	0	0	53	4632
2026-01-08 09:29:47.17	140.29	17.66	-41.4	-43.3	18.3	0.00e+00	0	39	0	0	53	4716
2026-01-08 09:29:48.11	140.23	17.77	-41.3	-43.1	18.5	0.00e+00	0	39	0	0	53	4643
2026-01-08 09:29:49.29	140.16	17.91	-41.2	-43.1	18.5	0.00e+00	0	39	0	0	53	4636
2026-01-08 09:29:50.14	140.11	18.01	-41.3	-43.2	18.4	0.00e+00	0	39	0	0	53	4698
2026-01-08 09:29:51.50	140.02	18.17	-41.4	-43.2	18.4	0.00e+00	0	39	0	0	53	4695
2026-01-08 09:29:52.21	139.98	18.25	-41.4	-43.3	18.3	0.00e+00	0	39	0	0	53	4719
2026-01-08 09:29:53.50	139.90	18.40	-41.4	-43.3	18.3	0.00e+00	0	39	0	0	53	4728
2026-01-08 09:29:54.22	139.86	18.49	-41.5	-43.4	18.3	0.00e+00	0	39	0	0	53	4784
2026-01-08 09:29:55.51	139.77	18.64	-41.4	-43.4	18.3	0.00e+00	0	39	0	0	53	4766
2026-01-08 09:29:56.22	139.73	18.73	-41.4	-43.3	18.4	0.00e+00	0	39	0	0	53	4711
2026-01-08 09:29:57.51	139.65	18.88	-41.3	-43.3	18.4	0.00e+00	0	39	0	0	53	4710
2026-01-08 09:29:58.23	139.60	18.97	-41.3	-43.2	18.4	0.00e+00	0	39	0	0	53	4698
2026-01-08 09:29:59.52	139.52	19.13	-41.3	-43.2	18.4	0.00e+00	0	39	0	0	53	4671
2026-01-08 09:30:00.24	139.47	19.22	-41.3	-43.2	18.4	0.00e+00	0	39	0	0	53	4688
2026-01-08 09:30:01.53	139.38	19.38	-41.3	-43.2	18.4	0.00e+00	0	39	0	0	53	4672
2026-01-08 09:30:02.25	139.33	19.47	-41.3	-43.2	18.4	0.00e+00	0	39	0	0	53	4662
2026-01-08 09:30:03.63	139.24	19.64	-41.2	-43.1	18.5	0.00e+00	0	39	0	0	53	4609
2026-01-08 09:30:04.35	139.19	19.73	-41.1	-43.0	18.6	0.00e+00	0	39	0	0	53	4553
2026-01-08 09:30:05.75	139.10	19.90	-41.1	-43.0	18.6	0.00e+00	0	39	0	0	53	4568
2026-01-08 09:30:06.47	139.05	19.99	-41.1	-42.9	18.6	0.00e+00	0	39	0	0	53	4544
2026-01-08 09:30:07.76	138.96	20.16	-41.1	-42.9	18.7	0.00e+00	0	39	0	0	53	4516
2026-01-08 09:30:08.47	138.91	20.25	-40.9	-42.7	18.8	0.00e+00	0	39	0	0	53	4436
2026-01-08 09:30:09.76	138.81	20.41	-41.0	-42.8	18.7	0.00e+00	0	39	0	0	53	4478
2026-01-08 09:30:10.48	138.76	20.50	-41.1	-42.9	18.7	0.00e+00	0	39	0	0	53	4538
2026-01-08 09:30:11.77	138.67	20.67	-40.8	-42.6	18.9	0.00e+00	0	39	0	0	53	4382
2026-01-08 09:30:12.48	138.62	20.76	-40.8	-42.6	19.0	0.00e+00	0	39	0	0	53	4362
2026-01-08 09:30:13.77	138.52	20.93	-40.8	-42.6	19.0	0.00e+00	0	39	0	0	53	4361
2026-01-08 09:30:14.49	138.47	21.03	-40.8	-42.6	19.0	0.00e+00	0	39	0	0	53	4357
2026-01-08 09:30:15.78	138.37	21.20	-40.6	-42.4	19.1	0.00e+00	0	39	0	0	53	4272
2026-01-08 09:30:16.50	138.32	21.29	-40.5	-42.2	19.3	0.00e+00	0	39	0	0	52	4425
2026-01-08 09:30:17.79	138.22	21.46	-40.4	-42.2	19.3	0.00e+00	0	39	0	0	52	4400
2026-01-08 09:30:18.50	138.17	21.56	-40.4	-42.2	19.3	0.00e+00	0	39	0	0	52	4404
2026-01-08 09:30:19.79	138.07	21.73	-40.3	-42.1	19.4	0.00e+00	0	40	0	0	52	4357
2026-01-08 09:30:20.51	138.01	21.83	-40.1	-41.9	19.6	0.00e+00	0	39	0	0	52	4250
2026-01-08 09:30:21.80	137.91	22.00	-40.1	-41.8	19.6	0.00e+00	0	40	0	0	52	4232
2026-01-08 09:30:22.52	137.85	22.10	-40.2	-41.9	19.5	0.00e+00	0	40	0	0	52	4261
2026-01-08 09:30:23.80	137.75	22.28	-40.0	-41.7	19.7	0.00e+00	0	39	0	0	52	4177
2026-01-08 09:30:24.52	137.69	22.38	-40.0	-41.7	19.6	0.00e+00	0	39	0	0	52	4190
2026-01-08 09:30:25.81	137.58	22.55	-40.0	-41.7	19.7	0.00e+00	0	39	0	0	52	4178
2026-01-08 09:30:26.52	137.52	22.65	-40.0	-41.7	19.7	0.00e+00	0	39	0	0	51	4430
2026-01-08 09:30:27.82	137.41	22.83	-39.9	-41.6	19.8	0.00e+00	0	39	0	0	51	4388
2026-01-08 09:30:28.53	137.35	22.93	-40.0	-41.7	19.8	0.00e+00	0	39	0	0	51	4395
2026-01-08 09:30:29.82	137.24	23.12	-39.9	-41.6	19.8	0.00e+00	0	39	0	0	51	4344
2026-01-08 09:30:30.53	137.18	23.22	-39.9	-41.6	19.8	0.00e+00	0	39	0	0	51	4352
2026-01-08 09:30:31.82	137.07	23.40	-39.9	-41.6	19.8	0.00e+00	0	39	0	0	51	4351
2026-01-08 09:30:32.54	137.01	23.50	-39.9	-41.6	19.8	0.00e+00	0	39	0	0	51	4364
2026-01-08 09:30:33.83	136.90	23.69	-40.0	-41.7	19.8	0.00e+00	0	39	0	0	51	4407
2026-01-08 09:30:34.55	136.83	23.79	-40.0	-41.7	19.7	0.00e+00	0	40	0	0	51	4426
2026-01-08 09:30:35.84	136.71	23.98	-40.0	-41.7	19.8	0.00e+00	0	39	0	0	51	4414
2026-01-08 09:30:36.68	136.64	24.10	-40.0	-41.7	19.7	0.00e+00	0	39	0	0	51	4434
2026-01-08 09:30:38.15	136.50	24.32	-40.0	-41.7	19.8	0.00e+00	0	40	0	0	51	4407
2026-01-08 09:30:39.28	136.40	24.49	-40.1	-41.7	19.7	0.00e+00	0	39	0	0	51	4437
2026-01-08 09:30:40.14	136.32	24.61	-40.1	-41.8	19.7	0.00e+00	0	39	0	0	51	4466
2026-01-08 09:30:41.29	136.21	24.79	-40.2	-41.9	19.6	0.00e+00	0	39	0	0	51	4531
2026-01-08 09:30:42.15	136.13	24.92	-40.2	-41.9	19.7	0.00e+00	0	40	0	0	51	4507
2026-01-08 09:30:43.29	136.01	25.09	-40.3	-42.0	19.5	0.00e+00	0	39	0	0	51	4591
2026-01-08 09:30:44.15	135.93	25.22	-40.3	-42.0	19.5	0.00e+00	0	39	0	0	51	4573
2026-01-08 09:30:45.42	135.81	25.41	-40.3	-42.1	19.5	0.00e+00	0	39	0	0	51	4601
2026-01-08 09:30:46.14	135.73	25.52	-40.4	-42.1	19.5	0.00e+00	0	39	0	0	51	4612
2026-01-08 09:30:47.43	135.60	25.72	-40.3	-42.0	19.5	0.00e+00	0	39	0	0	51	4596
2026-01-08 09:30:48.15	135.53	25.83	-40.4	-42.1	19.4	0.00e+00	0	39	0	0	51	4641
2026-01-08 09:30:49.44	135.40	26.03	-40.6	-42.4	19.2	0.00e+00	0	39	0	0	51	4779
2026-01-08 09:30:50.16	135.32	26.15	-40.7	-42.4	19.2	0.00e+00	0	40	0	0	51	4799
2026-01-08 09:30:51.81	135.15	26.41	-40.7	-42.4	19.1	0.00e+00	0	39	0	0	52	4538
2026-01-08 09:30:52.39	135.09	26.50	-40.7	-42.5	19.0	0.00e+00	0	39	0	0	52	4561
2026-01-08 09:30:53.97	134.92	26.75	-40.8	-42.6	18.9	0.00e+00	0	39	0	0	52	4634
2026-01-08 09:30:54.57	134.85	26.85	-41.0	-42.8	18.8	0.00e+00	0	39	0	0	52	4718
2026-01-08 09:30:56.14	134.68	27.10	-41.1	-42.9	18.6	0.00e+00	0	40	0	0	52	4795
2026-01-08 09:30:56.72	134.62	27.19	-41.0	-42.8	18.7	0.00e+00	0	39	0	0	52	4743
2026-01-08 09:30:58.40	134.43	27.47	-41.0	-42.8	18.8	0.00e+00	0	39	0	0	52	4757
2026-01-08 09:30:58.98	134.36	27.56	-41.0	-42.8	18.8	0.00e+00	0	40	0	0	52	4744
2026-01-08 09:31:00.57	134.18	27.82	-41.0	-42.8	18.9	0.00e+00	0	40	0	0	52	4719
2026-01-08 09:31:01.14	134.11	27.92	-40.9	-42.7	19.0	0.00e+00	0	39	0	0	52	4658
2026-01-08 09:31:02.72	133.92	28.18	-40.8	-42.6	19.0	0.00e+00	0	40	0	0	52	4607
2026-01-08 09:31:03.31	133.85	28.28	-40.8	-42.6	19.0	0.00e+00	0	39	0	0	52	4638
2026-01-08 09:31:05.13	133.63	28.59	-40.8	-42.6	19.1	0.00e+00	0	39	0	0	52	4614
2026-01-08 09:31:05.70	133.57	28.69	-40.8	-42.5	19.1	0.00e+00	0	40	0	0	52	4580
2026-01-08 09:31:07.29	133.37	28.96	-40.8	-42.6	19.0	0.00e+00	0	40	0	0	52	4615
2026-01-08 09:31:07.87	133.30	29.06	-40.7	-42.5	19.1	0.00e+00	0	39	0	0	52	4562
2026-01-08 09:31:09.44	133.10	29.33	-40.7	-42.4	19.1	0.00e+00	0	40	0	0	52	4523
2026-01-08 09:31:10.03	133.02	29.43	-40.6	-42.4	19.2	0.00e+00	0	40	0	0	52	4498
2026-01-08 09:31:11.61	132.82	29.71	-40.7	-42.5	19.1	0.00e+00	0	40	0	0	52	4550
2026-01-08 09:31:12.20	132.74	29.81	-40.7	-42.5	19.1	0.00e+00	0	39	0	0	52	4548
2026-01-08 09:31:13.77	132.53	30.09	-40.8	-42.6	18.9	0.00e+00	0	39	0	0	52	4637
2026-01-08 09:31:14.49	132.43	30.22	-40.9	-42.7	18.9	0.00e+00	0	40	0	0	52	4679
2026-01-08 09:31:15.78	132.26	30.45	-40.9	-42.7	18.9	0.00e+00	0	40	0	0	52	4690
2026-01-08 09:31:16.49	132.16	30.57	-40.9	-42.7	18.9	0.00e+00	0	39	0	0	52	4684
2026-01-08 09:31:17.79	131.98	30.81	-40.9	-42.8	18.9	0.00e+00	0	40	0	0	52	4722
2026-01-08 09:31:18.50	131.88	30.94	-40.8	-42.7	19.0	0.00e+00	0	39	0	0	52	4658
2026-01-08 09:31:19.79	131.70	31.17	-40.7	-42.5	19.1	0.00e+00	0	40	0	0	52	4579
2026-01-08 09:31:20.51	131.59	31.30	-40.7	-42.5	19.1	0.00e+00	0	40	0	0	52	4572
2026-01-08 09:31:21.79	131.41	31.54	-40.6	-42.4	19.2	0.00e+00	0	39	0	0	52	4499
2026-01-08 09:31:22.51	131.30	31.67	-40.7	-42.5	19.1	0.00e+00	0	40	0	0	52	4561
2026-01-08 09:31:23.80	131.11	31.91	-40.8	-42.5	19.0	0.00e+00	0	40	0	0	52	4597
2026-01-08 09:31:24.52	131.00	32.05	-40.8	-42.5	19.0	0.00e+00	0	40	0	0	52	4582
2026-01-08 09:31:25.81	130.80	32.29	-40.9	-42.7	18.8	0.00e+00	0	40	0	0	52	4689
2026-01-08 09:31:26.52	130.69	32.42	-41.0	-42.8	18.8	0.00e+00	0	40	0	0	52	4714
2026-01-08 09:31:27.81	130.49	32.67	-41.1	-43.0	18.6	0.00e+00	0	40	0	0	52	4815
2026-01-08 09:31:28.59	130.37	32.82	-41.2	-43.1	18.6	0.00e+00	0	40	0	0	53	4604
2026-01-08 09:31:29.89	130.16	33.07	-41.3	-43.2	18.5	0.00e+00	0	40	0	0	53	4655
2026-01-08 09:31:30.67	130.03	33.22	-41.5	-43.4	18.4	0.00e+00	0	40	0	0	53	4761
2026-01-08 09:31:32.28	129.77	33.53	-41.5	-43.4	18.4	0.00e+00	0	40	0	0	53	4766
2026-01-08 09:31:32.85	129.67	33.64	-41.5	-43.4	18.4	0.00e+00	0	40	0	0	53	4773
2026-01-08 09:31:34.44	129.40	33.95	-41.6	-43.5	18.3	0.00e+00	0	40	0	0	53	4841
2026-01-08 09:31:35.01	129.31	34.07	-41.5	-43.3	18.4	0.00e+00	0	40	0	0	53	4753
2026-01-08 09:31:36.59	129.03	34.38	-41.5	-43.4	18.4	0.00e+00	0	40	0	0	53	4768
2026-01-08 09:31:37.32	128.90	34.52	-41.4	-43.3	18.5	0.00e+00	0	40	0	0	53	4722
2026-01-08 09:31:38.61	128.67	34.78	-41.6	-43.5	18.3	0.00e+00	0	40	0	0	53	4823
2026-01-08 09:31:39.32	128.55	34.93	-41.6	-43.5	18.2	0.00e+00	0	40	0	0	53	4833
2026-01-08 09:31:40.61	128.31	35.19	-41.7	-43.5	18.2	0.00e+00	0	40	0	0	53	4862
2026-01-08 09:31:41.33	128.18	35.33	-41.8	-43.7	18.1	0.00e+00	0	40	0	0	54	4672
2026-01-08 09:31:42.62	127.93	35.60	-41.9	-43.8	17.9	0.00e+00	0	40	0	0	54	4739
2026-01-08 09:31:43.34	127.80	35.74	-42.0	-43.9	17.9	0.00e+00	0	39	0	0	54	4790
2026-01-08 09:31:44.63	127.55	36.01	-42.0	-44.0	17.8	0.00e+00	0	40	0	0	54	4820
2026-01-08 09:31:45.68	127.35	36.23	-42.0	-43.9	17.9	0.00e+00	0	40	0	0	54	4774
2026-01-08 09:31:46.90	127.10	36.48	-42.0	-44.0	17.8	0.00e+00	0	40	0	0	54	4820
2026-01-08 09:31:47.76	126.93	36.66	-42.0	-44.0	17.8	0.00e+00	0	40	0	0	54	4827
2026-01-08 09:31:48.91	126.70	36.90	-42.0	-44.0	17.8	0.00e+00	0	40	0	0	54	4829
2026-01-08 09:31:49.77	126.52	37.08	-42.1	-44.1	17.7	0.00e+00	0	40	0	0	54	4889
2026-01-08 09:31:50.92	126.28	37.33	-42.2	-44.2	17.6	0.00e+00	0	40	0	0	55	4665
2026-01-08 09:31:51.77	126.10	37.51	-42.0	-43.9	17.8	0.00e+00	0	40	0	0	55	4529
2026-01-08 09:31:52.92	125.85	37.75	-42.2	-44.1	17.7	0.00e+00	0	40	0	0	55	4641
2026-01-08 09:31:53.78	125.67	37.94	-42.2	-44.1	17.6	0.00e+00	0	40	0	0	55	4645
2026-01-08 09:31:54.93	125.41	38.19	-42.3	-44.3	17.4	0.00e+00	0	40	0	0	55	4756
2026-01-08 09:31:55.79	125.22	38.37	-42.5	-44.5	17.3	0.00e+00	0	40	0	0	55	4846
2026-01-08 09:31:57.02	124.94	38.64	-42.6	-44.7	17.2	0.00e+00	0	40	0	0	55	4939
2026-01-08 09:31:57.88	124.75	38.83	-42.6	-44.6	17.2	0.00e+00	0	40	0	0	55	4907
2026-01-08 09:31:59.09	124.46	39.09	-42.6	-44.6	17.2	0.00e+00	0	40	0	0	55	4905
2026-01-08 09:31:59.95	124.26	39.28	-42.8	-44.9	17.1	0.00e+00	0	40	0	0	56	4782
2026-01-08 09:32:01.10	123.99	39.54	-42.7	-44.7	17.3	0.00e+00	0	40	0	0	56	4696
2026-01-08 09:32:01.95	123.78	39.73	-42.9	-45.0	17.1	0.00e+00	0	40	0	0	56	4837
2026-01-08 09:32:03.10	123.50	39.98	-42.8	-44.9	17.2	0.00e+00	0	40	0	0	56	4778
2026-01-08 09:32:04.01	123.27	40.18	-42.7	-44.8	17.3	0.00e+00	0	40	0	0	56	4721
2026-01-08 09:32:05.03	123.01	40.41	-42.7	-44.7	17.4	0.00e+00	0	40	0	0	56	4661
2026-01-08 09:32:06.03	122.76	40.64	-42.6	-44.6	17.5	0.00e+00	0	40	0	0	56	4630
2026-01-08 09:32:07.03	122.50	40.86	-42.6	-44.6	17.5	0.00e+00	0	40	0	0	56	4623
2026-01-08 09:32:08.03	122.23	41.09	-42.6	-44.6	17.5	0.00e+00	0	40	0	0	56	4608
2026-01-08 09:32:09.04	121.96	41.32	-42.5	-44.5	17.6	0.00e+00	0	40	0	0	56	4569
2026-01-08 09:32:10.04	121.69	41.55	-42.8	-44.8	17.4	0.00e+00	0	40	0	0	56	4727
2026-01-08 09:32:11.04	121.42	41.78	-42.8	-44.8	17.3	0.00e+00	0	40	0	0	56	4740
2026-01-08 09:32:12.05	121.13	42.01	-43.0	-45.1	17.0	0.00e+00	0	40	0	0	56	4874
2026-01-08 09:32:13.05	120.85	42.24	-43.2	-45.3	16.9	0.00e+00	0	40	0	0	56	5003
2026-01-08 09:32:14.05	120.56	42.47	-43.3	-45.4	16.7	0.00e+00	0	40	0	0	57	4789
2026-01-08 09:32:15.05	120.27	42.70	-43.4	-45.6	16.6	0.00e+00	0	40	0	0	57	4875
2026-01-08 09:32:16.05	119.98	42.93	-43.3	-45.5	16.7	0.00e+00	0	40	0	0	57	4840
2026-01-08 09:32:17.05	119.68	43.16	-43.3	-45.4	16.7	0.00e+00	0	40	0	0	57	4802
2026-01-08 09:32:18.15	119.34	43.42	-43.1	-45.2	16.9	0.00e+00	0	40	0	0	57	4688
2026-01-08 09:32:19.03	119.07	43.62	-43.1	-45.2	16.8	0.00e+00	0	40	0	0	57	4701
2026-01-08 09:32:20.18	118.71	43.89	-43.5	-45.7	16.4	0.00e+00	0	40	0	0	57	4972
2026-01-08 09:32:21.13	118.40	44.11	-43.5	-45.7	16.5	0.00e+00	0	40	0	0	57	4969
2026-01-08 09:32:22.14	118.08	44.35	-43.7	-45.9	16.3	0.00e+00	0	40	0	0	58	4802
2026-01-08 09:32:23.14	117.75	44.59	-43.8	-46.0	16.2	0.00e+00	0	40	0	0	58	4856
2026-01-08 09:32:24.14	117.42	44.82	-43.9	-46.2	16.0	0.00e+00	0	40	0	0	58	4952
2026-01-08 09:32:25.15	117.07	45.06	-43.8	-46.1	16.1	0.00e+00	0	40	0	0	58	4884
2026-01-08 09:32:26.15	116.73	45.29	-43.5	-45.6	16.5	0.00e+00	0	40	0	0	58	4640
2026-01-08 09:32:27.15	116.38	45.53	-43.1	-45.2	16.9	0.00e+00	0	40	0	0	58	4409
2026-01-08 09:32:28.15	116.03	45.77	-43.4	-45.5	16.6	0.00e+00	0	40	0	0	58	4570
2026-01-08 09:32:29.16	115.67	46.00	-43.4	-45.5	16.5	0.00e+00	0	40	0	0	58	4588
2026-01-08 09:32:30.16	115.30	46.24	-43.4	-45.5	16.5	0.00e+00	0	40	0	0	58	4597
2026-01-08 09:32:31.16	114.93	46.48	-43.4	-45.6	16.5	0.00e+00	0	40	0	0	58	4613
2026-01-08 09:32:32.17	114.55	46.72	-43.5	-45.7	16.4	0.00e+00	0	40	0	0	58	4662
2026-01-08 09:32:33.17	114.17	46.95	-43.4	-45.6	16.5	0.00e+00	0	40	0	0	58	4607
2026-01-08 09:32:34.19	113.77	47.19	-43.4	-45.5	16.6	0.00e+00	0	40	0	0	58	4596
2026-01-08 09:32:35.24	113.36	47.44	-43.5	-45.6	16.4	0.00e+00	0	40	0	0	58	4645
2026-01-08 09:32:36.17	112.99	47.66	-43.3	-45.4	16.7	0.00e+00	0	40	0	0	58	4533
2026-01-08 09:32:37.17	112.58	47.90	-43.5	-45.7	16.4	0.00e+00	0	40	0	0	58	4681
2026-01-08 09:32:38.35	112.10	48.17	-43.5	-45.7	16.5	0.00e+00	0	40	0	0	58	4668
2026-01-08 09:32:39.24	111.73	48.38	-43.5	-45.7	16.5	0.00e+00	0	40	0	0	58	4677
2026-01-08 09:32:40.38	111.24	48.65	-43.6	-45.8	16.4	0.00e+00	0	40	0	0	58	4725
2026-01-08 09:32:41.29	110.85	48.86	-43.9	-46.2	16.0	0.00e+00	0	40	0	0	58	4962
2026-01-08 09:32:42.50	110.32	49.14	-43.9	-46.2	16.0	0.00e+00	0	40	0	0	58	4969
2026-01-08 09:32:43.35	109.94	49.34	-43.6	-45.8	16.4	0.00e+00	0	40	0	0	58	4713
2026-01-08 09:32:44.50	109.42	49.61	-43.2	-45.3	16.9	0.00e+00	0	40	0	0	58	4442
2026-01-08 09:32:45.37	109.02	49.81	-42.9	-44.9	17.2	0.00e+00	0	40	0	0	57	4526
2026-01-08 09:32:46.51	108.48	50.07	-43.1	-45.2	16.9	0.00e+00	0	40	0	0	57	4672
2026-01-08 09:32:47.37	108.08	50.27	-43.4	-45.7	16.5	0.00e+00	0	40	0	0	57	4934
2026-01-08 09:32:48.52	107.52	50.53	-43.6	-45.8	16.4	0.00e+00	0	40	0	0	57	5021
2026-01-08 09:32:49.38	107.10	50.73	-43.3	-45.4	16.7	0.00e+00	0	40	0	0	57	4810
2026-01-08 09:32:50.53	106.53	50.99	-42.7	-44.7	17.4	0.00e+00	0	40	0	0	57	4439
2026-01-08 09:32:51.39	106.10	51.18	-42.4	-44.4	17.7	0.00e+00	0	40	0	0	56	4508
2026-01-08 09:32:52.53	105.51	51.44	-42.5	-44.4	17.6	0.00e+00	0	40	0	0	56	4530
2026-01-08 09:32:53.39	105.07	51.63	-42.7	-44.7	17.3	0.00e+00	0	40	0	0	56	4682
2026-01-08 09:32:54.54	104.46	51.88	-42.7	-44.7	17.3	0.00e+00	0	40	0	0	56	4693
2026-01-08 09:32:55.40	104.00	52.07	-42.6	-44.6	17.5	0.00e+00	0	40	0	0	56	4603
2026-01-08 09:32:56.64	103.33	52.34	-42.4	-44.4	17.7	0.00e+00	0	40	0	0	56	4494
2026-01-08 09:32:57.50	102.85	52.53	-42.1	-44.0	18.0	0.00e+00	0	40	0	0	56	4339
2026-01-08 09:32:58.71	102.17	52.78	-42.2	-44.1	17.9	0.00e+00	0	40	0	0	56	4372
2026-01-08 09:32:59.57	101.69	52.97	-42.3	-44.3	17.8	0.00e+00	0	40	0	0	56	4442
2026-01-08 09:33:00.71	101.03	53.21	-42.3	-44.3	17.8	0.00e+00	0	40	0	0	56	4451
2026-01-08 09:33:01.57	100.52	53.38	-42.2	-44.1	18.0	0.00e+00	0	40	0	0	56	4380
2026-01-08 09:33:02.72	99.84	53.62	-41.6	-43.4	18.5	0.00e+00	0	40	0	0	55	4281
2026-01-08 09:33:03.63	99.29	53.80	-41.3	-43.1	18.7	0.00e+00	0	40	0	0	54	4369
2026-01-08 09:33:04.82	98.57	54.04	-41.3	-43.1	18.7	0.00e+00	0	40	0	0	54	4347
2026-01-08 09:33:05.68	98.03	54.21	-41.2	-43.0	18.6	0.00e+00	0	40	0	0	54	4339
2026-01-08 09:33:06.83	97.31	54.44	-41.3	-43.1	18.6	0.00e+00	0	40	0	0	54	4373
2026-01-08 09:33:07.69	96.76	54.60	-41.2	-43.0	18.6	0.00e+00	0	40	0	0	54	4334
2026-01-08 09:33:09.12	95.84	54.87	-41.0	-42.9	18.7	0.00e+00	0	40	0	0	54	4255
2026-01-08 09:33:09.84	95.36	55.01	-41.0	-42.8	18.7	0.00e+00	0	40	0	0	53	4491
2026-01-08 09:33:11.12	94.51	55.24	-41.2	-43.1	18.5	0.00e+00	0	40	0	0	53	4607
2026-01-08 09:33:11.84	94.03	55.37	-41.3	-43.2	18.4	0.00e+00	0	40	0	0	53	4659
2026-01-08 09:33:13.13	93.15	55.59	-41.1	-43.0	18.8	0.00e+00	0	40	0	0	53	4549
2026-01-08 09:33:13.98	92.56	55.74	-41.1	-42.9	18.8	0.00e+00	0	40	0	0	53	4535
2026-01-08 09:33:15.12	91.76	55.93	-41.3	-43.1	18.7	0.00e+00	0	40	0	0	53	4641
2026-01-08 09:33:16.22	90.98	56.11	-41.2	-43.0	18.7	0.00e+00	0	40	0	0	53	4594
2026-01-08 09:33:17.26	90.24	56.28	-41.2	-43.0	18.8	0.00e+00	0	40	0	0	53	4583
2026-01-08 09:33:18.25	89.52	56.43	-41.1	-42.9	18.9	0.00e+00	0	40	0	0	53	4521
2026-01-08 09:33:19.26	88.78	56.59	-40.9	-42.8	18.8	0.00e+00	0	40	0	0	53	4455
2026-01-08 09:33:20.26	88.03	56.73	-40.9	-42.7	18.8	0.00e+00	0	40	0	0	53	4438
2026-01-08 09:33:21.27	87.28	56.88	-40.8	-42.6	19.0	0.00e+00	0	40	0	0	53	4370
2026-01-08 09:33:22.27	86.52	57.02	-40.8	-42.7	18.8	0.00e+00	0	40	0	0	53	4408
2026-01-08 09:33:23.27	85.75	57.15	-40.9	-42.7	18.8	0.00e+00	0	40	0	0	53	4433
2026-01-08 09:33:24.27	84.98	57.28	-40.6	-42.4	19.0	0.00e+00	0	40	0	0	53	4252
2026-01-08 09:33:25.27	84.20	57.41	-40.6	-42.4	19.0	0.00e+00	0	40	0	0	53	4286
2026-01-08 09:33:26.28	83.40	57.53	-40.6	-42.3	19.2	0.00e+00	0	40	0	0	52	4488
2026-01-08 09:33:27.28	82.61	57.64	-40.8	-42.6	19.0	0.00e+00	0	40	0	0	52	4629
2026-01-08 09:33:28.28	81.81	57.75	-40.8	-42.6	19.1	0.00e+00	0	40	0	0	52	4618
2026-01-08 09:33:29.29	80.99	57.86	-40.6	-42.3	19.2	0.00e+00	0	40	0	0	52	4491
2026-01-08 09:33:30.29	80.18	57.96	-41.0	-42.8	18.9	0.00e+00	0	40	0	0	52	4756
2026-01-08 09:33:31.38	79.29	58.06	-41.0	-42.8	18.9	0.00e+00	0	40	0	0	52	4754
2026-01-08 09:33:32.27	78.55	58.14	-40.9	-42.7	19.1	0.00e+00	0	40	0	0	52	4677
2026-01-08 09:33:33.41	77.60	58.23	-40.6	-42.3	19.4	0.00e+00	0	40	0	0	52	4481
2026-01-08 09:33:34.27	76.89	58.30	-40.5	-42.3	19.4	0.00e+00	0	40	0	0	52	4450
2026-01-08 09:33:35.41	75.93	58.38	-40.5	-42.3	19.5	0.00e+00	0	40	0	0	52	4461
2026-01-08 09:33:36.27	75.20	58.44	-40.6	-42.3	19.4	0.00e+00	0	40	0	0	52	4482
2026-01-08 09:33:37.42	74.23	58.51	-40.5	-42.3	19.5	0.00e+00	0	40	0	0	52	4454
2026-01-08 09:33:38.28	73.49	58.55	-40.5	-42.2	19.5	0.00e+00	0	40	0	0	52	4414
2026-01-08 09:33:39.42	72.52	58.61	-40.7	-42.5	19.3	0.00e+00	0	40	0	0	52	4564
2026-01-08 09:33:40.29	71.77	58.65	-40.7	-42.5	19.2	0.00e+00	0	40	0	0	52	4571
2026-01-08 09:33:41.43	70.79	58.69	-40.7	-42.4	19.2	0.00e+00	0	40	0	0	52	4541
2026-01-08 09:33:42.29	70.05	58.72	-40.7	-42.5	19.1	0.00e+00	0	40	0	0	52	4572
2026-01-08 09:33:43.43	69.06	58.74	-40.9	-42.7	18.9	0.00e+00	0	40	0	0	52	4670
2026-01-08 09:33:44.29	68.32	58.76	-40.6	-42.4	19.2	0.00e+00	0	40	0	0	52	4508
2026-01-08 09:33:45.54	67.23	58.77	-40.1	-41.7	19.6	0.00e+00	0	40	0	0	52	4191
2026-01-08 09:33:46.39	66.49	58.78	-40.2	-41.8	19.5	0.00e+00	0	40	0	0	52	4240
2026-01-08 09:33:47.54	65.50	58.78	-40.8	-42.6	18.8	0.00e+00	0	40	0	0	52	4633
2026-01-08 09:33:48.40	64.75	58.77	-40.9	-42.7	18.9	0.00e+00	0	40	0	0	52	4673
2026-01-08 09:33:49.54	63.76	58.76	-40.6	-42.4	19.2	0.00e+00	0	40	0	0	52	4501
2026-01-08 09:33:50.40	63.02	58.74	-40.4	-42.1	19.4	0.00e+00	0	40	0	0	52	4355
2026-01-08 09:33:51.55	62.02	58.71	-40.7	-42.4	19.2	0.00e+00	0	40	0	0	52	4545
2026-01-08 09:33:52.41	61.28	58.69	-40.8	-42.6	19.1	0.00e+00	0	40	0	0	52	4648
2026-01-08 09:33:53.55	60.30	58.64	-40.7	-42.5	19.2	0.00e+00	0	40	0	0	52	4550
2026-01-08 09:33:54.41	59.56	58.61	-40.5	-42.3	19.4	0.00e+00	0	40	0	0	52	4456
2026-01-08 09:33:55.56	58.58	58.55	-40.3	-42.0	19.5	0.00e+00	0	40	0	0	52	4327
2026-01-08 09:33:56.42	57.84	58.50	-40.5	-42.2	19.4	0.00e+00	0	40	0	0	52	4412
2026-01-08 09:33:57.57	56.87	58.44	-40.7	-42.5	19.1	0.00e+00	0	40	0	0	52	4561
2026-01-08 09:33:58.43	56.14	58.38	-40.9	-42.7	18.9	0.00e+00	0	40	0	0	52	4666
2026-01-08 09:33:59.58	55.18	58.30	-41.0	-42.8	18.8	0.00e+00	0	40	0	0	53	4491
2026-01-08 09:34:00.44	54.46	58.23	-41.1	-42.9	18.8	0.00e+00	0	40	0	0	53	4522
2026-01-08 09:34:01.59	53.51	58.13	-41.1	-42.9	18.9	0.00e+00	0	40	0	0	53	4499
2026-01-08 09:34:02.45	52.80	58.06	-41.0	-42.8	18.9	0.00e+00	0	40	0	0	53	4451
2026-01-08 09:34:03.59	51.86	57.95	-40.9	-42.6	18.9	0.00e+00	0	40	0	0	53	4377
2026-01-08 09:34:04.45	51.17	57.86	-40.9	-42.7	19.0	0.00e+00	0	40	0	0	53	4396
2026-01-08 09:34:05.60	50.24	57.74	-41.2	-43.0	18.7	0.00e+00	0	40	0	0	53	4567
2026-01-08 09:34:06.46	49.55	57.65	-41.1	-43.0	18.8	0.00e+00	0	40	0	0	53	4561
2026-01-08 09:34:07.61	48.64	57.52	-40.7	-42.4	19.3	0.00e+00	0	40	0	0	53	4281
2026-01-08 09:34:08.63	47.84	57.39	-40.7	-42.5	19.2	0.00e+00	0	40	0	0	53	4315
2026-01-08 09:34:09.80	46.93	57.25	-40.7	-42.4	19.3	0.00e+00	0	40	0	0	53	4279
2026-01-08 09:34:10.66	46.26	57.13	-40.8	-42.6	19.1	0.00e+00	0	40	0	0	53	4365
2026-01-08 09:34:12.00	45.24	56.95	-41.1	-42.9	18.9	0.00e+00	0	40	0	0	53	4544
2026-01-08 09:34:12.72	44.70	56.85	-41.3	-43.1	18.8	0.00e+00	0	40	0	0	53	4620
2026-01-08 09:34:14.26	43.55	56.63	-41.2	-43.0	18.8	0.00e+00	0	40	0	0	53	4562
2026-01-08 09:34:14.97	43.03	56.52	-41.0	-42.8	18.9	0.00e+00	0	40	0	0	53	4463
2026-01-08 09:34:16.27	42.08	56.32	-40.8	-42.5	19.3	0.00e+00	0	40	0	0	53	4310
2026-01-08 09:34:16.98	41.57	56.21	-40.7	-42.4	19.3	0.00e+00	0	40	0	0	53	4283
2026-01-08 09:34:18.27	40.65	56.00	-41.5	-43.4	18.5	0.00e+00	0	40	0	0	53	4775
2026-01-08 09:34:18.99	40.15	55.88	-41.9	-43.8	18.1	0.00e+00	0	40	0	0	54	4730
2026-01-08 09:34:20.28	39.25	55.66	-41.6	-43.5	18.3	0.00e+00	0	40	0	0	54	4580
2026-01-08 09:34:20.99	38.76	55.54	-41.4	-43.3	18.5	0.00e+00	0	40	0	0	54	4457
2026-01-08 09:34:22.28	37.89	55.31	-41.2	-43.0	18.8	0.00e+00	0	40	0	0	54	4324
2026-01-08 09:34:23.00	37.41	55.19	-41.2	-43.0	18.8	0.00e+00	0	40	0	0	54	4336
2026-01-08 09:34:24.29	36.55	54.95	-41.4	-43.2	18.7	0.00e+00	0	40	0	0	54	4413
2026-01-08 09:34:25.12	36.01	54.79	-41.9	-43.8	18.0	0.00e+00	0	40	0	0	54	4746
2026-01-08 09:34:26.60	35.06	54.51	-42.2	-44.1	17.6	0.00e+00	0	40	0	0	55	4645
2026-01-08 09:34:27.32	34.61	54.38	-41.7	-43.6	18.1	0.00e+00	0	40	0	0	55	4359
2026-01-08 09:34:28.61	33.80	54.12	-41.4	-43.3	18.5	0.00e+00	0	40	0	0	54	4461
2026-01-08 09:34:29.32	33.37	53.98	-41.7	-43.6	18.2	0.00e+00	0	40	0	0	54	4627
2026-01-08 09:34:30.61	32.58	53.72	-42.9	-45.0	17.1	0.00e+00	0	40	0	0	56	4853
2026-01-08 09:34:31.33	32.15	53.58	-43.4	-45.6	16.6	0.00e+00	0	40	0	0	57	4900
2026-01-08 09:34:32.62	31.39	53.31	-43.9	-46.3	16.0	0.00e+00	0	40	0	0	58	4997
2026-01-08 09:34:33.33	30.98	53.17	-43.5	-45.8	16.5	0.00e+00	0	40	0	0	58	4710
2026-01-08 09:34:34.63	30.23	52.89	-42.3	-44.2	17.8	0.00e+00	0	40	0	0	56	4414
2026-01-08 09:34:35.34	29.83	52.74	-41.5	-43.3	18.4	0.00e+00	0	40	0	0	55	4217
2026-01-08 09:34:36.63	29.11	52.47	-40.8	-42.6	19.1	0.00e+00	0	40	0	0	53	4346
2026-01-08 09:34:37.35	28.72	52.31	-41.2	-43.0	18.8	0.00e+00	0	40	0	0	53	4595
2026-01-08 09:34:38.66	28.01	52.03	-43.1	-45.2	17.0	0.00e+00	0	40	0	0	56	4961
2026-01-08 09:34:39.37	27.63	51.87	-44.0	-46.4	15.8	0.00e+00	0	40	0	0	58	5061
2026-01-08 09:34:40.66	26.96	51.59	-43.5	-45.7	16.1	0.00e+00	0	40	0	0	58	4669
2026-01-08 09:34:41.38	26.59	51.43	-42.8	-44.9	16.7	0.00e+00	0	40	0	0	57	4536
2026-01-08 09:34:42.80	25.86	51.11	-42.7	-44.8	16.9	0.00e+00	0	40	0	0	57	4462
2026-01-08 09:34:43.51	25.51	50.95	-42.8	-44.9	16.9	0.00e+00	0	40	0	0	57	4497
2026-01-08 09:34:44.80	24.87	50.66	-42.6	-44.6	17.1	0.00e+00	0	40	0	0	56	4624
2026-01-08 09:34:45.52	24.52	50.50	-42.7	-44.7	17.2	0.00e+00	0	40	0	0	56	4656
2026-01-08 09:34:46.81	23.91	50.20	-43.0	-45.0	17.0	0.00e+00	0	40	0	0	56	4853
2026-01-08 09:34:47.52	23.57	50.04	-43.6	-45.8	16.4	0.00e+00	0	40	0	0	57	5010
2026-01-08 09:34:48.82	22.97	49.74	-43.9	-46.3	15.8	0.00e+00	0	40	0	0	58	4989
2026-01-08 09:34:49.53	22.65	49.58	-43.5	-45.8	16.1	0.00e+00	0	40	0	0	58	4708
2026-01-08 09:34:50.82	22.07	49.28	-42.5	-44.5	17.4	0.00e+00	0	40	0	0	57	4310
2026-01-08 09:34:51.54	21.75	49.11	-42.3	-44.3	17.7	0.00e+00	0	40	0	0	56	4442
2026-01-08 09:34:52.83	21.18	48.81	-42.5	-44.5	17.6	0.00e+00	0	40	0	0	56	4572
2026-01-08 09:34:53.55	20.88	48.64	-43.1	-45.2	17.0	0.00e+00	0	40	0	0	56	4936
2026-01-08 09:34:54.84	20.33	48.34	-43.5	-45.7	16.5	0.00e+00	0	40	0	0	57	4945
2026-01-08 09:34:55.55	20.03	48.18	-43.5	-45.7	16.6	0.00e+00	0	40	0	0	57	4942
2026-01-08 09:34:56.84	19.50	47.87	-43.6	-45.8	16.4	0.00e+00	0	40	0	0	57	5035
2026-01-08 09:34:57.56	19.21	47.71	-43.7	-46.0	16.2	0.00e+00	0	40	0	0	58	4832
2026-01-08 09:34:58.85	18.70	47.40	-42.8	-44.8	17.2	0.00e+00	0	40	0	0	57	4479
2026-01-08 09:34:59.56	18.42	47.24	-42.2	-44.1	17.9	0.00e+00	0	40	0	0	56	4363
2026-01-08 09:35:00.85	17.92	46.93	-41.5	-43.4	18.4	0.00e+00	0	40	0	0	54	4494
2026-01-08 09:35:01.57	17.65	46.76	-41.6	-43.5	18.4	0.00e+00	0	40	0	0	54	4557
2026-01-08 09:35:02.86	17.17	46.46	-42.9	-45.0	17.2	0.00e+00	0	40	0	0	56	4841
2026-01-08 09:35:03.57	16.91	46.29	-43.8	-46.0	16.2	0.00e+00	0	40	0	0	58	4847
2026-01-08 09:35:04.87	16.43	45.99	-44.8	-47.4	14.8	0.00e+00	0	40	0	0	60	5092
2026-01-08 09:35:05.68	16.14	45.80	-44.8	-47.3	14.7	0.00e+00	0	40	0	0	60	5041
2026-01-08 09:35:07.14	15.63	45.45	-43.9	-46.2	15.8	0.00e+00	0	40	0	0	59	4674
2026-01-08 09:35:07.86	15.38	45.28	-43.6	-45.8	16.2	0.00e+00	0	40	0	0	59	4447
2026-01-08 09:35:09.15	14.94	44.98	-43.1	-45.2	16.7	0.00e+00	0	40	0	0	58	4403
2026-01-08 09:35:09.86	14.71	44.82	-42.5	-44.5	17.4	0.00e+00	0	40	0	0	57	4307
2026-01-08 09:35:11.15	14.28	44.51	-41.8	-43.6	18.1	0.00e+00	0	40	0	0	55	4374
2026-01-08 09:35:11.89	14.04	44.34	-41.7	-43.5	18.2	0.00e+00	0	40	0	0	55	4328
2026-01-08 09:35:13.18	13.62	44.04	-42.9	-44.9	17.2	0.00e+00	0	40	0	0	56	4803
2026-01-08 09:35:13.89	13.40	43.87	-43.8	-46.0	16.2	0.00e+00	0	40	0	0	58	4869
2026-01-08 09:35:15.18	13.00	43.57	-45.3	-48.3	14.0	0.00e+00	0	40	0	0	61	5295
2026-01-08 09:35:15.90	12.78	43.41	-45.3	-48.2	13.5	4.50e-06	0	40	0	0	61	5242
2026-01-08 09:35:17.19	12.39	43.11	-44.1	-46.5	14.8	0.00e+00	0	40	0	0	60	4573
2026-01-08 09:35:18.13	12.11	42.89	-43.5	-45.7	15.7	0.00e+00	0	40	0	0	59	4424
2026-01-08 09:35:19.13	11.81	42.66	-43.3	-45.5	16.3	0.00e+00	0	40	0	0	58	4554
2026-01-08 09:35:20.13	11.53	42.43	-43.3	-45.4	16.6	0.00e+00	0	40	0	0	58	4500
2026-01-08 09:35:21.14	11.24	42.20	-43.4	-45.6	16.5	0.00e+00	0	40	0	0	58	4625
2026-01-08 09:35:22.56	10.84	41.88	-43.7	-46.0	16.2	0.00e+00	0	40	0	0	58	4858
2026-01-08 09:35:23.27	10.64	41.71	-43.8	-46.1	16.2	0.00e+00	0	40	0	0	58	4893
2026-01-08 09:35:24.56	10.29	41.42	-43.7	-46.0	16.3	0.00e+00	0	40	0	0	58	4853
2026-01-08 09:35:25.28	10.10	41.26	-43.6	-45.9	16.3	0.00e+00	0	40	0	0	58	4805
2026-01-08 09:35:26.56	9.76	40.97	-43.5	-45.8	16.4	0.00e+00	0	40	0	0	58	4722
2026-01-08 09:35:27.28	9.57	40.81	-43.2	-45.4	16.8	0.00e+00	0	40	0	0	58	4531
2026-01-08 09:35:28.57	9.24	40.52	-42.9	-45.0	17.1	0.00e+00	0	40	0	0	57	4584
2026-01-08 09:35:29.29	9.06	40.36	-42.5	-44.6	17.4	0.00e+00	0	41	0	0	57	4341
2026-01-08 09:35:30.58	8.74	40.07	-41.6	-43.5	18.1	0.00e+00	0	40	0	0	55	4308
2026-01-08 09:35:31.30	8.56	39.91	-41.3	-43.1	18.5	0.00e+00	0	40	0	0	54	4377
2026-01-08 09:35:32.69	8.22	39.60	-41.1	-42.9	18.7	0.00e+00	0	40	0	0	54	4251
2026-01-08 09:35:33.40	8.05	39.45	-41.5	-43.4	18.3	0.00e+00	0	40	0	0	54	4502
2026-01-08 09:35:34.79	7.73	39.14	-42.4	-44.4	17.5	0.00e+00	0	40	0	0	55	4787
2026-01-08 09:35:35.50	7.56	38.99	-43.1	-45.3	16.9	0.00e+00	0	40	0	0	56	4987
2026-01-08 09:35:36.79	7.27	38.71	-44.0	-46.3	15.9	0.00e+00	0	40	0	0	58	5024
2026-01-08 09:35:37.51	7.10	38.55	-43.9	-46.2	16.0	0.00e+00	0	40	0	0	58	4963
2026-01-08 09:35:38.80	6.81	38.27	-43.4	-45.5	16.6	0.00e+00	0	40	0	0	58	4591
2026-01-08 09:35:39.51	6.66	38.12	-43.1	-45.3	16.9	0.00e+00	0	40	0	0	58	4444
2026-01-08 09:35:40.80	6.38	37.84	-42.7	-44.7	17.4	0.00e+00	0	40	0	0	57	4435
2026-01-08 09:35:41.52	6.22	37.69	-42.6	-44.6	17.6	0.00e+00	0	40	0	0	57	4341
2026-01-08 09:35:42.81	5.95	37.42	-42.3	-44.3	17.8	0.00e+00	0	40	0	0	56	4452
2026-01-08 09:35:43.53	5.80	37.27	-42.3	-44.3	17.8	0.00e+00	0	40	0	0	56	4445
2026-01-08 09:35:44.82	5.53	36.99	-41.6	-43.4	18.4	0.00e+00	0	40	0	0	55	4283
2026-01-08 09:35:45.53	5.39	36.85	-41.4	-43.2	18.5	0.00e+00	0	40	0	0	54	4427
2026-01-08 09:35:46.83	5.13	36.57	-41.0	-42.8	18.7	0.00e+00	0	40	0	0	54	4226
2026-01-08 09:35:47.54	4.99	36.43	-40.9	-42.7	18.8	0.00e+00	0	40	0	0	53	4428
2026-01-08 09:35:48.83	4.74	36.16	-40.9	-42.7	18.8	0.00e+00	0	40	0	0	53	4433
2026-01-08 09:35:49.55	4.60	36.01	-41.0	-42.8	18.8	0.00e+00	0	40	0	0	53	4489
2026-01-08 09:35:50.84	4.35	35.75	-41.3	-43.2	18.6	0.00e+00	0	40	0	0	53	4675
2026-01-08 09:35:51.55	4.22	35.60	-41.7	-43.6	18.2	0.00e+00	0	40	0	0	53	4880
2026-01-08 09:35:52.85	3.98	35.34	-42.2	-44.2	17.7	0.00e+00	0	40	0	0	55	4682
2026-01-08 09:35:53.56	3.85	35.20	-42.2	-44.2	17.7	0.00e+00	0	40	0	0	55	4674
2026-01-08 09:35:54.85	3.61	34.94	-42.3	-44.3	17.6	0.00e+00	0	40	0	0	55	4734
2026-01-08 09:35:55.60	3.48	34.79	-42.2	-44.2	17.7	0.00e+00	0	40	0	0	55	4673
2026-01-08 09:35:56.89	3.25	34.53	-42.0	-43.9	17.9	0.00e+00	0	40	0	0	55	4543
2026-01-08 09:35:57.61	3.12	34.39	-41.8	-43.7	18.1	0.00e+00	0	40	0	0	55	4429
2026-01-08 09:35:58.90	2.90	34.13	-41.4	-43.3	18.4	0.00e+00	0	40	0	0	54	4470
2026-01-08 09:35:59.61	2.78	33.99	-41.2	-43.0	18.7	0.00e+00	0	40	0	0	54	4339
2026-01-08 09:36:00.91	2.56	33.74	-41.3	-43.1	18.6	0.00e+00	0	40	0	0	54	4367
2026-01-08 09:36:01.62	2.45	33.60	-41.1	-42.9	18.7	0.00e+00	0	40	0	0	54	4274
2026-01-08 09:36:02.91	2.23	33.35	-41.3	-43.2	18.5	0.00e+00	0	40	0	0	54	4414
2026-01-08 09:36:03.63	2.12	33.22	-41.5	-43.4	18.3	0.00e+00	0	40	0	0	54	4520
2026-01-08 09:36:04.92	1.91	32.97	-41.6	-43.6	18.1	0.00e+00	0	40	0	0	54	4603
2026-01-08 09:36:05.63	1.80	32.83	-41.5	-43.5	18.2	0.00e+00	0	40	0	0	54	4557
2026-01-08 09:36:06.92	1.60	32.59	-41.4	-43.4	18.3	0.00e+00	0	40	0	0	54	4498
2026-01-08 09:36:07.64	1.49	32.45	-41.4	-43.3	18.3	0.00e+00	0	40	0	0	54	4483
2026-01-08 09:36:08.93	1.29	32.21	-41.4	-43.3	18.4	0.00e+00	0	40	0	0	54	4487
2026-01-08 09:36:09.65	1.18	32.08	-41.5	-43.4	18.4	0.00e+00	0	40	0	0	54	4497
2026-01-08 09:36:10.94	0.99	31.84	-41.2	-43.1	18.6	0.00e+00	0	40	0	0	54	4362
2026-01-08 09:36:11.65	0.88	31.71	-41.0	-42.8	18.9	0.00e+00	0	40	0	0	54	4215
2026-01-08 09:36:12.94	0.70	31.47	-40.8	-42.5	19.1	0.00e+00	0	40	0	0	53	4340
2026-01-08 09:36:13.66	0.59	31.34	-40.8	-42.6	19.0	0.00e+00	0	40	0	0	53	4385
2026-01-08 09:36:14.95	0.41	31.10	-40.8	-42.6	19.1	0.00e+00	0	40	0	0	53	4381
2026-01-08 09:36:15.66	0.31	30.98	-40.9	-42.7	19.0	0.00e+00	0	40	0	0	53	4423
2026-01-08 09:36:16.95	0.13	30.74	-40.9	-42.7	18.9	0.00e+00	0	40	0	0	53	4436
2026-01-08 09:36:17.67	0.03	30.61	-40.9	-42.7	18.9	0.00e+00	0	40	0	0	53	4417
2026-01-08 09:36:18.96	359.85	30.38	-41.1	-42.9	18.7	0.00e+00	0	40	0	0	53	4533
2026-01-08 09:36:19.68	359.76	30.26	-41.1	-42.9	18.7	0.00e+00	0	40	0	0	53	4519
2026-01-08 09:36:20.97	359.59	30.03	-41.2	-43.1	18.6	0.00e+00	0	40	0	0	53	4618
2026-01-08 09:36:21.68	359.49	29.90	-41.3	-43.2	18.5	0.00e+00	0	40	0	0	53	4683
2026-01-08 09:36:22.97	359.33	29.68	-41.4	-43.3	18.4	0.00e+00	0	41	0	0	53	4749
2026-01-08 09:36:23.69	359.23	29.55	-41.4	-43.4	18.4	0.00e+00	0	40	0	0	53	4765
2026-01-08 09:36:25.30	359.03	29.28	-41.6	-43.5	18.3	0.00e+00	0	40	0	0	53	4864
2026-01-08 09:36:25.87	358.96	29.18	-41.7	-43.6	18.2	0.00e+00	0	40	0	0	53	4904
2026-01-08 09:36:27.47	358.76	28.91	-41.6	-43.5	18.3	0.00e+00	0	40	0	0	53	4833
2026-01-08 09:36:28.04	358.69	28.81	-41.6	-43.5	18.3	0.00e+00	0	40	0	0	53	4855
2026-01-08 09:36:29.63	358.50	28.54	-41.7	-43.6	18.2	0.00e+00	0	40	0	0	54	4623
2026-01-08 09:36:30.21	358.43	28.44	-41.7	-43.6	18.2	0.00e+00	0	40	0	0	54	4610
2026-01-08 09:36:31.83	358.24	28.17	-41.6	-43.5	18.3	0.00e+00	0	40	0	0	54	4561
2026-01-08 09:36:32.41	358.17	28.08	-41.5	-43.4	18.3	0.00e+00	0	40	0	0	54	4543
2026-01-08 09:36:34.01	357.98	27.81	-41.4	-43.3	18.4	0.00e+00	0	40	0	0	54	4483
2026-01-08 09:36:34.59	357.92	27.72	-41.3	-43.2	18.5	0.00e+00	0	40	0	0	54	4407
2026-01-08 09:36:36.18	357.74	27.46	-41.2	-43.1	18.6	0.00e+00	0	41	0	0	54	4367
2026-01-08 09:36:37.10	357.64	27.31	-41.1	-42.9	18.8	0.00e+00	0	40	0	0	54	4282
2026-01-08 09:36:38.11	357.52	27.15	-40.8	-42.6	19.1	0.00e+00	0	41	0	0	53	4383
2026-01-08 09:36:39.11	357.42	26.99	-40.4	-42.2	19.4	0.00e+00	0	40	0	0	52	4407
2026-01-08 09:36:40.11	357.31	26.83	-40.1	-41.8	19.8	0.00e+00	0	40	0	0	52	4227
2026-01-08 09:36:41.17	357.19	26.66	-40.0	-41.7	19.9	0.00e+00	0	40	0	0	51	4410
2026-01-08 09:36:42.07	357.10	26.52	-39.9	-41.5	20.1	0.00e+00	0	40	0	0	51	4329
2026-01-08 09:36:43.09	356.99	26.36	-39.9	-41.6	20.1	0.00e+00	0	41	0	0	51	4355
2026-01-08 09:36:44.09	356.89	26.20	-39.9	-41.6	20.1	0.00e+00	0	40	0	0	51	4349
2026-01-08 09:36:45.09	356.79	26.04	-40.0	-41.7	20.0	0.00e+00	0	41	0	0	51	4400
2026-01-08 09:36:46.10	356.68	25.89	-39.9	-41.6	20.1	0.00e+00	0	40	0	0	51	4361
2026-01-08 09:36:47.10	356.58	25.73	-40.0	-41.7	20.0	0.00e+00	0	40	0	0	51	4412
2026-01-08 09:36:48.10	356.48	25.58	-40.1	-41.8	19.9	0.00e+00	0	40	0	0	51	4444
2026-01-08 09:36:49.11	356.38	25.43	-40.1	-41.8	19.9	0.00e+00	0	40	0	0	51	4467
2026-01-08 09:36:50.11	356.29	25.28	-40.2	-41.9	19.8	0.00e+00	0	40	0	0	51	4522
2026-01-08 09:36:51.11	356.19	25.13	-40.3	-42.0	19.8	0.00e+00	0	40	0	0	51	4553
2026-01-08 09:36:52.12	356.09	24.97	-40.4	-42.1	19.6	0.00e+00	0	40	0	0	51	4609
2026-01-08 09:36:53.57	355.96	24.76	-40.4	-42.1	19.6	0.00e+00	0	40	0	0	51	4647
2026-01-08 09:36:54.29	355.89	24.65	-40.5	-42.3	19.5	0.00e+00	0	41	0	0	51	4730
2026-01-08 09:36:55.57	355.77	24.46	-40.6	-42.4	19.3	0.00e+00	0	40	0	0	51	4793
2026-01-08 09:36:56.29	355.70	24.36	-40.6	-42.4	19.3	0.00e+00	0	41	0	0	51	4805
2026-01-08 09:36:57.58	355.59	24.17	-40.6	-42.4	19.3	0.00e+00	0	41	0	0	51	4814
2026-01-08 09:36:58.29	355.52	24.07	-40.6	-42.4	19.3	0.00e+00	0	40	0	0	51	4793
2026-01-08 09:36:59.58	355.41	23.88	-40.7	-42.6	19.1	0.00e+00	0	40	0	0	52	4633
2026-01-08 09:37:00.29	355.35	23.78	-40.8	-42.7	19.0	0.00e+00	0	40	0	0	52	4652
2026-01-08 09:37:01.60	355.23	23.59	-40.9	-42.8	18.9	0.00e+00	0	40	0	0	52	4717
2026-01-08 09:37:02.59	355.15	23.45	-41.0	-42.8	18.8	0.00e+00	0	41	0	0	52	4756
2026-01-08 09:37:03.59	355.06	23.31	-41.1	-42.9	18.7	0.00e+00	0	40	0	0	52	4810
2026-01-08 09:37:04.60	354.97	23.16	-41.0	-42.9	18.8	0.00e+00	0	40	0	0	52	4781
2026-01-08 09:37:05.60	354.89	23.02	-41.1	-43.0	18.7	0.00e+00	0	41	0	0	52	4826
2026-01-08 09:37:06.61	354.81	22.88	-41.0	-42.9	18.8	0.00e+00	0	41	0	0	52	4770
2026-01-08 09:37:07.61	354.72	22.74	-41.0	-42.8	18.8	0.00e+00	0	40	0	0	52	4750
2026-01-08 09:37:08.61	354.64	22.61	-41.0	-42.8	18.8	0.00e+00	0	40	0	0	52	4742
2026-01-08 09:37:09.62	354.56	22.47	-41.0	-42.9	18.8	0.00e+00	0	40	0	0	52	4796
2026-01-08 09:37:10.70	354.47	22.32	-40.9	-42.8	18.9	0.00e+00	0	40	0	0	52	4709
2026-01-08 09:37:11.56	354.41	22.20	-40.9	-42.8	18.9	0.00e+00	0	41	0	0	52	4727
2026-01-08 09:37:12.70	354.32	22.05	-40.9	-42.8	18.9	0.00e+00	0	40	0	0	52	4717
2026-01-08 09:37:13.66	354.24	21.92	-41.0	-42.9	18.8	0.00e+00	0	40	0	0	52	4790
2026-01-08 09:37:14.85	354.15	21.76	-40.9	-42.8	18.8	0.00e+00	0	40	0	0	52	4742
2026-01-08 09:37:15.75	354.08	21.64	-40.9	-42.8	18.9	0.00e+00	0	40	0	0	52	4726
2026-01-08 09:37:16.77	354.00	21.50	-40.9	-42.7	18.9	0.00e+00	0	40	0	0	52	4703
2026-01-08 09:37:17.96	353.91	21.35	-40.8	-42.6	19.0	0.00e+00	0	41	0	0	52	4639
2026-01-08 09:37:18.85	353.85	21.23	-40.8	-42.6	19.0	0.00e+00	0	40	0	0	52	4639
2026-01-08 09:37:19.99	353.76	21.08	-40.8	-42.6	19.1	0.00e+00	0	40	0	0	52	4602
2026-01-08 09:37:20.85	353.70	20.97	-40.6	-42.4	19.2	0.00e+00	0	41	0	0	52	4528
2026-01-08 09:37:22.00	353.62	20.82	-40.7	-42.5	19.2	0.00e+00	0	40	0	0	52	4548
2026-01-08 09:37:22.86	353.56	20.71	-40.6	-42.4	19.2	0.00e+00	0	41	0	0	52	4533
2026-01-08 09:37:24.00	353.47	20.56	-40.6	-42.4	19.3	0.00e+00	0	40	0	0	52	4498
2026-01-08 09:37:24.86	353.41	20.45	-40.6	-42.4	19.2	0.00e+00	0	41	0	0	52	4517
2026-01-08 09:37:26.01	353.33	20.31	-40.7	-42.5	19.2	0.00e+00	0	41	0	0	52	4552
2026-01-08 09:37:26.87	353.27	20.20	-40.7	-42.5	19.2	0.00e+00	0	40	0	0	52	4560
2026-01-08 09:37:28.02	353.19	20.05	-40.8	-42.6	19.0	0.00e+00	0	41	0	0	52	4638
2026-01-08 09:37:28.88	353.14	19.95	-40.9	-42.7	18.9	0.00e+00	0	41	0	0	52	4695
2026-01-08 09:37:30.02	353.06	19.80	-40.7	-42.6	19.0	0.00e+00	0	40	0	0	52	4631
2026-01-08 09:37:30.88	353.00	19.70	-40.7	-42.6	19.0	0.00e+00	0	41	0	0	52	4632
2026-01-08 09:37:32.15	352.92	19.54	-40.8	-42.7	18.9	0.00e+00	0	41	0	0	52	4692
2026-01-08 09:37:33.28	352.84	19.40	-40.7	-42.7	19.0	0.00e+00	0	41	0	0	52	4658
2026-01-08 09:37:34.44	352.77	19.26	-40.8	-42.8	18.9	0.00e+00	0	41	0	0	52	4707
2026-01-08 09:37:35.30	352.71	19.16	-40.9	-42.8	18.8	0.00e+00	0	41	0	0	52	4754
2026-01-08 09:37:36.45	352.64	19.02	-41.0	-42.9	18.8	0.00e+00	0	41	0	0	52	4796
2026-01-08 09:37:37.31	352.58	18.91	-41.0	-43.0	18.7	0.00e+00	0	41	0	0	52	4818
2026-01-08 09:37:38.45	352.51	18.78	-41.0	-43.0	18.7	0.00e+00	0	41	0	0	52	4817
2026-01-08 09:37:39.31	352.46	18.67	-41.0	-43.0	18.7	0.00e+00	0	40	0	0	52	4820
2026-01-08 09:37:40.46	352.39	18.54	-41.0	-43.0	18.7	0.00e+00	0	40	0	0	52	4815
2026-01-08 09:37:41.32	352.33	18.43	-41.0	-43.0	18.7	0.00e+00	0	41	0	0	52	4833
2026-01-08 09:37:42.50	352.26	18.30	-41.1	-43.0	18.6	0.00e+00	0	41	0	0	52	4870
2026-01-08 09:37:43.36	352.21	18.20	-41.0	-42.9	18.7	0.00e+00	0	41	0	0	52	4794
2026-01-08 09:37:44.60	352.14	18.05	-41.0	-43.0	18.7	0.00e+00	0	41	0	0	52	4816
2026-01-08 09:37:45.46	352.09	17.95	-41.0	-42.9	18.6	0.00e+00	0	40	0	0	52	4810
2026-01-08 09:37:46.60	352.02	17.82	-41.0	-42.9	18.6	0.00e+00	0	41	0	0	52	4811
2026-01-08 09:37:47.47	351.97	17.72	-41.0	-42.9	18.7	0.00e+00	0	41	0	0	52	4798
2026-01-08 09:37:48.61	351.90	17.59	-41.0	-43.0	18.6	0.00e+00	0	40	0	0	52	4837
2026-01-08 09:37:49.47	351.85	17.49	-41.0	-43.0	18.6	0.00e+00	0	41	0	0	52	4823
2026-01-08 09:37:50.62	351.79	17.36	-41.1	-43.0	18.5	0.00e+00	0	40	0	0	52	4868
2026-01-08 09:37:51.61	351.73	17.25	-41.1	-43.0	18.6	0.00e+00	0	40	0	0	52	4861
2026-01-08 09:37:52.61	351.68	17.13	-41.1	-43.1	18.6	0.00e+00	0	40	0	0	52	4876
2026-01-08 09:37:53.87	351.61	16.99	-41.4	-43.3	18.3	0.00e+00	0	41	0	0	53	4750
2026-01-08 09:37:54.63	351.56	16.91	-41.3	-43.2	18.4	0.00e+00	0	41	0	0	53	4654
2026-01-08 09:37:55.92	351.49	16.77	-41.3	-43.2	18.4	0.00e+00	0	40	0	0	53	4671
2026-01-08 09:37:56.64	351.45	16.69	-41.4	-43.3	18.3	0.00e+00	0	41	0	0	53	4751
2026-01-08 09:37:58.30	351.36	16.50	-41.5	-43.5	18.1	0.00e+00	0	41	0	0	53	4851
2026-01-08 09:37:59.14	351.32	16.41	-41.5	-43.4	18.2	0.00e+00	0	41	0	0	53	4797
2026-01-08 09:38:00.27	351.26	16.29	-41.6	-43.5	18.1	0.00e+00	0	41	0	0	53	4870
2026-01-08 09:38:01.12	351.22	16.20	-41.6	-43.5	18.1	0.00e+00	0	41	0	0	53	4861
2026-01-08 09:38:02.30	351.15	16.07	-41.6	-43.6	18.1	0.00e+00	0	40	0	0	53	4921
2026-01-08 09:38:03.15	351.11	15.98	-41.5	-43.5	18.1	0.00e+00	0	41	0	0	53	4869
2026-01-08 09:38:04.35	351.05	15.85	-41.7	-43.7	18.0	0.00e+00	0	40	0	0	53	4939
2026-01-08 09:38:05.21	351.01	15.76	-41.7	-43.8	17.9	0.00e+00	0	41	0	0	54	4720
2026-01-08 09:38:06.36	350.95	15.63	-41.8	-43.8	17.9	0.00e+00	0	41	0	0	54	4733
2026-01-08 09:38:07.22	350.91	15.54	-41.7	-43.7	18.0	0.00e+00	0	40	0	0	54	4681
2026-01-08 09:38:08.53	350.84	15.41	-41.8	-43.8	17.9	0.00e+00	0	40	0	0	54	4737
2026-01-08 09:38:09.24	350.81	15.33	-41.7	-43.8	17.9	0.00e+00	0	41	0	0	54	4716
2026-01-08 09:38:10.54	350.74	15.20	-41.8	-43.9	17.8	0.00e+00	0	40	0	0	54	4783
2026-01-08 09:38:11.25	350.71	15.12	-41.8	-43.8	17.9	0.00e+00	0	41	0	0	54	4750
2026-01-08 09:38:12.54	350.65	14.99	-41.7	-43.8	17.9	0.00e+00	0	40	0	0	54	4724
2026-01-08 09:38:13.26	350.61	14.91	-41.8	-43.9	17.8	0.00e+00	0	41	0	0	54	4778
2026-01-08 09:38:14.55	350.55	14.78	-41.8	-43.9	17.8	0.00e+00	0	41	0	0	54	4789
2026-01-08 09:38:15.27	350.52	14.71	-41.8	-43.9	17.8	0.00e+00	0	41	0	0	54	4797
2026-01-08 09:38:16.55	350.46	14.58	-41.9	-44.0	17.7	0.00e+00	0	40	0	0	54	4831
2026-01-08 09:38:17.27	350.42	14.50	-42.0	-44.0	17.7	0.00e+00	0	40	0	0	54	4868
2026-01-08 09:38:18.56	350.36	14.37	-41.9	-44.0	17.7	0.00e+00	0	40	0	0	54	4846
2026-01-08 09:38:19.28	350.33	14.30	-42.0	-44.0	17.7	0.00e+00	0	41	0	0	54	4867
2026-01-08 09:38:20.57	350.27	14.17	-41.9	-44.0	17.7	0.00e+00	0	41	0	0	54	4843
2026-01-08 09:38:21.28	350.24	14.10	-42.0	-44.1	17.7	0.00e+00	0	41	0	0	54	4884
2026-01-08 09:38:22.69	350.18	13.96	-41.9	-44.0	17.6	0.00e+00	0	41	0	0	54	4851
2026-01-08 09:38:23.67	350.13	13.86	-41.7	-43.8	17.9	0.00e+00	0	41	0	0	54	4713
2026-01-08 09:38:24.99	350.08	13.73	-41.6	-43.6	18.1	0.00e+00	0	41	0	0	54	4605
2026-01-08 09:38:25.71	350.05	13.66	-41.6	-43.6	18.1	0.00e+00	0	41	0	0	54	4614
2026-01-08 09:38:27.00	349.99	13.54	-41.5	-43.5	18.1	0.00e+00	0	41	0	0	54	4588
2026-01-08 09:38:27.71	349.96	13.47	-41.6	-43.6	18.0	0.00e+00	0	41	0	0	54	4615
2026-01-08 09:38:29.00	349.90	13.34	-41.5	-43.5	18.1	0.00e+00	0	41	0	0	54	4598
2026-01-08 09:38:29.72	349.87	13.27	-41.6	-43.7	18.0	0.00e+00	0	41	0	0	54	4653
2026-01-08 09:38:31.01	349.82	13.15	-41.5	-43.6	18.0	0.00e+00	0	40	0	0	54	4630
2026-01-08 09:38:31.73	349.79	13.08	-41.5	-43.7	18.0	0.00e+00	0	40	0	0	54	4668
2026-01-08 09:38:33.01	349.74	12.96	-41.4	-43.7	17.9	0.00e+00	0	41	0	0	54	4676
2026-01-08 09:38:33.73	349.71	12.89	-41.4	-43.7	17.9	0.00e+00	0	41	0	0	54	4655
2026-01-08 09:38:35.02	349.65	12.76	-41.4	-43.7	17.9	0.00e+00	0	41	0	0	54	4687
2026-01-08 09:38:35.74	349.63	12.70	-41.4	-43.7	17.9	0.00e+00	0	40	0	0	54	4679
2026-01-08 09:38:37.03	349.57	12.57	-41.3	-43.6	18.1	0.00e+00	0	41	0	0	54	4605
2026-01-08 09:38:37.75	349.54	12.51	-41.4	-43.6	18.0	0.00e+00	0	41	0	0	54	4640
2026-01-08 09:38:39.04	349.49	12.39	-41.5	-43.8	17.9	0.00e+00	0	41	0	0	54	4724
2026-01-08 09:38:39.75	349.47	12.32	-41.5	-43.7	17.9	0.00e+00	0	41	0	0	54	4676
2026-01-08 09:38:41.04	349.41	12.20	-41.5	-43.7	18.0	0.00e+00	0	40	0	0	54	4679
2026-01-08 09:38:41.76	349.39	12.13	-41.6	-43.8	17.8	0.00e+00	0	41	0	0	54	4742
2026-01-08 09:38:43.04	349.34	12.02	-41.6	-43.8	17.9	0.00e+00	0	41	0	0	54	4711
2026-01-08 09:38:43.76	349.31	11.95	-41.7	-43.9	17.7	0.00e+00	0	41	0	0	54	4797
2026-01-08 09:38:45.05	349.26	11.83	-41.6	-43.7	17.9	0.00e+00	0	41	0	0	54	4703
2026-01-08 09:38:45.76	349.23	11.77	-41.6	-43.8	17.9	0.00e+00	0	41	0	0	54	4716
2026-01-08 09:38:47.05	349.19	11.65	-41.6	-43.9	17.7	0.00e+00	0	41	0	0	54	4803
2026-01-08 09:38:47.77	349.16	11.58	-41.7	-44.0	17.6	0.00e+00	0	40	0	0	54	4866
2026-01-08 09:38:49.17	349.11	11.46	-41.7	-44.2	17.5	0.00e+00	0	41	0	0	54	4930
2026-01-08 09:38:49.89	349.08	11.39	-41.7	-44.1	17.6	0.00e+00	0	41	0	0	54	4894
2026-01-08 09:38:51.24	349.03	11.27	-41.6	-44.0	17.6	0.00e+00	0	41	0	0	54	4869
2026-01-08 09:38:51.96	349.01	11.21	-41.6	-44.1	17.5	0.00e+00	0	41	0	0	54	4886
2026-01-08 09:38:53.25	348.96	11.09	-41.6	-44.0	17.6	0.00e+00	0	40	0	0	54	4830
2026-01-08 09:38:53.97	348.93	11.03	-41.7	-44.2	17.5	0.00e+00	0	41	0	0	54	4934
2026-01-08 09:38:55.26	348.89	10.92	-41.7	-44.1	17.5	0.00e+00	0	40	0	0	54	4915
2026-01-08 09:38:55.97	348.86	10.85	-41.8	-44.2	17.4	0.00e+00	0	41	0	0	54	4967
2026-01-08 09:38:57.26	348.82	10.74	-41.8	-44.1	17.5	0.00e+00	0	41	0	0	54	4914
2026-01-08 09:38:57.98	348.79	10.68	-41.7	-44.1	17.5	0.00e+00	0	41	0	0	54	4880
2026-01-08 09:38:59.27	348.75	10.57	-41.7	-44.1	17.6	0.00e+00	0	41	0	0	54	4873
2026-01-08 09:38:59.99	348.72	10.50	-41.7	-44.1	17.5	0.00e+00	0	41	0	0	54	4891
2026-01-08 09:39:01.28	348.68	10.39	-41.7	-44.1	17.4	0.00e+00	0	41	0	0	54	4921
2026-01-08 09:39:01.99	348.65	10.33	-41.6	-44.1	17.5	0.00e+00	0	41	0	0	54	4872
2026-01-08 09:39:03.28	348.61	10.22	-41.6	-44.1	17.5	0.00e+00	0	41	0	0	54	4899
2026-01-08 09:39:04.00	348.59	10.16	-41.6	-44.1	17.5	0.00e+00	0	41	0	0	54	4907
2026-01-08 09:39:05.29	348.54	10.05	-41.8	-44.3	17.3	0.00e+00	0	41	0	0	54	5013
2026-01-08 09:39:06.01	348.52	9.99	-41.7	-44.2	17.4	0.00e+00	0	41	0	0	54	4976
2026-01-08 09:39:07.30	348.48	9.88	-41.8	-44.2	17.3	0.00e+00	0	41	0	0	54	4961
2026-01-08 09:39:08.01	348.45	9.82	-41.8	-44.2	17.4	0.00e+00	0	41	0	0	54	4956
2026-01-08 09:39:09.30	348.41	9.71	-42.0	-44.4	17.1	0.00e+00	0	41	0	0	54	5094
2026-01-08 09:39:10.02	348.39	9.65	-42.0	-44.3	17.2	0.00e+00	0	41	0	0	54	5029
2026-01-08 09:39:11.31	348.35	9.54	-42.0	-44.4	17.2	0.00e+00	0	41	0	0	54	5044
2026-01-08 09:39:12.02	348.33	9.48	-42.1	-44.4	17.1	0.00e+00	0	41	0	0	54	5075
2026-01-08 09:39:13.31	348.29	9.37	-42.3	-44.5	17.0	0.00e+00	0	41	0	0	55	4870
2026-01-08 09:39:14.03	348.26	9.31	-42.0	-44.3	17.2	0.00e+00	0	41	0	0	55	4735
2026-01-08 09:39:15.32	348.22	9.21	-42.0	-44.4	17.1	0.00e+00	0	41	0	0	55	4785
2026-01-08 09:39:16.03	348.20	9.15	-42.0	-44.4	17.1	0.00e+00	0	41	0	0	55	4779
2026-01-08 09:39:17.32	348.16	9.04	-42.2	-44.7	16.8	0.00e+00	0	41	0	0	55	4939
2026-01-08 09:39:18.04	348.14	8.98	-47.5	-60.3	4.2	8.39e-05	0	41	0	0	65	16745
2026-01-08 09:39:19.33	348.10	8.88	-49.5	-63.4	3.8	1.49e+00	0	41	104	0	69	19144
2026-01-08 09:39:20.05	348.08	8.82	-49.6	-63.5	3.8	1.49e+00	0	41	104	0	70	18136
2026-01-08 09:39:21.34	348.04	8.72	-50.5	-63.6	3.8	1.49e+00	0	41	104	0	71	17445
2026-01-08 09:39:22.06	348.02	8.66	-50.3	-63.6	3.8	1.49e+00	0	41	104	0	71	17471
2026-01-08 09:39:23.35	347.98	8.55	-50.5	-63.7	3.8	1.49e+00	0	41	104	0	71	17547
2026-01-08 09:39:24.07	347.96	8.50	-50.6	-63.7	3.8	1.49e+00	0	41	104	0	71	17605
2026-01-08 09:39:25.36	347.92	8.39	-50.3	-63.7	3.8	1.49e+00	0	41	104	0	71	17631
2026-01-08 09:39:26.07	347.90	8.34	-50.5	-63.8	3.8	1.49e+00	0	41	104	0	71	17700
2026-01-08 09:39:27.37	347.86	8.23	-50.7	-63.8	3.8	1.49e+00	0	41	104	0	71	17754
2026-01-08 09:39:28.17	347.84	8.17	-50.6	-63.8	3.8	1.49e+00	0	41	104	0	72	16740
2026-01-08 09:39:29.63	347.80	8.05	-50.5	-63.7	3.8	1.49e+00	0	41	104	0	72	16655
2026-01-08 09:39:30.34	347.78	8.00	-50.6	-63.7	3.8	1.49e+00	0	41	104	0	72	16692
2026-01-08 09:39:31.84	347.74	7.88	-50.6	-63.8	3.8	1.49e+00	0	41	104	0	72	16709
2026-01-08 09:39:32.56	347.72	7.82	-50.7	-63.8	3.8	1.49e+00	0	41	104	0	72	16725
2026-01-08 09:39:33.85	347.68	7.72	-50.6	-63.8	3.8	1.49e+00	0	41	104	0	72	16709
2026-01-08 09:39:34.57	347.66	7.67	-50.6	-63.8	3.8	1.49e+00	0	41	104	0	72	16712
2026-01-08 09:39:35.86	347.63	7.57	-50.7	-63.8	3.8	1.49e+00	0	41	104	0	72	16720
2026-01-08 09:39:36.58	347.61	7.51	-50.8	-63.8	3.8	1.49e+00	0	41	104	0	72	16732
2026-01-08 09:39:37.87	347.57	7.41	-50.7	-63.8	3.8	1.49e+00	0	41	104	0	72	16699
2026-01-08 09:39:38.59	347.55	7.36	-50.7	-63.7	3.8	1.49e+00	0	41	104	0	72	16685
2026-01-08 09:39:39.88	347.52	7.26	-50.7	-63.8	3.8	1.49e+00	0	41	104	0	72	16718
2026-01-08 09:39:40.60	347.50	7.20	-50.5	-63.8	3.8	1.49e+00	0	41	104	0	72	16708
2026-01-08 09:39:41.89	347.46	7.11	-50.6	-63.8	3.8	1.49e+00	0	41	104	0	72	16724
2026-01-08 09:39:42.60	347.45	7.05	-50.7	-63.8	3.8	1.49e+00	0	41	104	0	72	16703
2026-01-08 09:39:43.90	347.41	6.95	-50.6	-63.8	3.8	1.49e+00	0	41	104	0	72	16720
2026-01-08 09:39:44.61	347.39	6.90	-50.6	-63.7	3.8	1.49e+00	0	41	104	0	72	16669
2026-01-08 09:39:45.90	347.36	6.80	-50.2	-63.7	3.8	1.49e+00	0	41	104	0	72	16649
2026-01-08 09:39:46.62	347.34	6.75	-50.2	-63.7	3.8	1.49e+00	0	41	104	0	72	16627
2026-01-08 09:39:47.92	347.31	6.65	-50.2	-63.7	3.8	1.49e+00	0	41	104	0	72	16653
2026-01-08 09:39:48.63	347.29	6.60	-50.2	-63.8	3.8	1.49e+00	0	41	104	0	72	16702
2026-01-08 09:39:49.92	347.26	6.50	-50.2	-63.7	3.8	1.49e+00	0	41	104	0	72	16655
2026-01-08 09:39:50.64	347.24	6.45	-50.2	-63.7	3.8	1.49e+00	0	41	104	0	72	16575
2026-01-08 09:39:51.93	347.21	6.35	-50.2	-63.7	3.8	1.49e+00	0	41	104	0	72	16629
2026-01-08 09:39:52.65	347.19	6.30	-50.2	-63.7	3.8	1.49e+00	0	41	104	0	72	16665
2026-01-08 09:39:53.94	347.16	6.21	-50.2	-63.7	3.8	1.49e+00	0	41	104	0	72	16636
2026-01-08 09:39:54.66	347.14	6.15	-50.2	-63.7	3.8	1.49e+00	0	41	104	0	72	16620
2026-01-08 09:39:55.95	347.11	6.06	-50.2	-63.7	3.8	1.49e+00	0	41	104	0	72	16575
2026-01-08 09:39:56.67	347.09	6.01	-50.2	-63.7	3.8	1.49e+00	0	41	104	0	72	16608
2026-01-08 09:39:57.96	347.06	5.91	-50.2	-63.7	3.8	1.49e+00	0	41	104	0	72	16645
2026-01-08 09:39:58.67	347.04	5.86	-50.2	-63.7	3.8	1.49e+00	0	41	104	0	72	16586
2026-01-08 09:39:59.97	347.01	5.77	-50.2	-63.7	3.8	1.49e+00	0	41	104	0	72	16642
2026-01-08 09:40:00.69	347.00	5.71	-50.2	-63.7	3.8	1.49e+00	0	41	104	0	72	16647
2026-01-08 09:40:01.98	346.97	5.62	-50.2	-63.7	3.8	1.49e+00	0	41	104	0	72	16592
2026-01-08 09:40:02.70	346.95	5.57	-50.2	-63.7	3.8	1.49e+00	0	41	104	0	72	16634
2026-01-08 09:40:03.99	346.92	5.48	-50.2	-63.7	3.8	1.49e+00	0	41	104	0	72	16587
2026-01-08 09:40:04.71	346.90	5.43	-50.2	-63.7	3.8	1.49e+00	0	41	104	0	72	16599
2026-01-08 09:40:06.00	346.87	5.33	-50.2	-63.7	3.8	1.49e+00	0	41	104	0	72	16592
2026-01-08 09:40:06.72	346.86	5.28	-50.2	-63.7	3.8	1.49e+00	0	41	104	0	72	16614
2026-01-08 09:40:08.01	346.83	5.19	-50.2	-63.7	3.8	1.49e+00	0	41	104	0	72	16626
2026-01-08 09:40:08.73	346.81	5.14	-50.2	-63.7	3.8	1.49e+00	0	41	104	0	72	16653
2026-01-08 09:40:10.02	346.78	5.05	-50.2	-63.7	3.8	1.49e+00	0	41	104	0	72	16617
2026-01-08 09:40:10.73	346.77	5.00	-50.2	-63.7	3.8	1.49e+00	0	41	104	0	72	16600

#Closed at: 2026-01-08 09:40:12
#Recorded file [0 MB]: D:/Data/31040_260108_122726.dat