passes_logs/2026/01/08/T1/T1__20260108_222808_NOAA_20_JPSS-1_rec.log

#Pass ID: 20260108_222808_NOAA 20 (JPSS-1)
#Satellite: NOAA 20 (JPSS-1)
#Configuration: NOAA 20
#almurnet v.1.7.20251203
#Start time: 2026-01-08 22:28:10

#Version: 2.0.20230620
#Station: T1
#Location: 37.570604 lon 55.790049 lat
#TLE: 1 43013U 17073A   26008.42245989  .00000120  00000+0  77990-4 0  9996
#TLE: 2 43013  98.7631 309.4315 0001737  48.7960 311.3365 14.19534455421802

#Time	Az	El	Level	Level2	SNR	BER	BlckErr	Temp	State	Recorded	gain1	gain2
2026-01-08 22:28:10.64	26.46	5.14	-48.4	-64.1	3.8	1.49e+00	0	40	0	0	68	21998
2026-01-08 22:28:11.64	26.53	5.20	-48.2	-64.0	3.8	1.49e+00	0	40	104	0	67	22801
2026-01-08 22:28:12.65	26.60	5.27	-48.2	-64.0	3.8	1.49e+00	0	40	104	0	67	22898
2026-01-08 22:28:13.65	26.67	5.33	-48.2	-64.0	3.8	1.49e+00	0	40	104	0	67	22881
2026-01-08 22:28:14.65	26.75	5.39	-48.2	-64.0	3.8	1.49e+00	0	40	104	0	67	22857
2026-01-08 22:28:15.66	26.82	5.46	-48.2	-64.0	3.8	1.49e+00	0	41	104	0	67	22884
2026-01-08 22:28:16.66	26.89	5.52	-48.2	-64.0	3.8	1.49e+00	0	40	104	0	67	22899
2026-01-08 22:28:17.67	26.97	5.59	-48.2	-64.0	3.8	1.49e+00	0	41	104	0	67	22926
2026-01-08 22:28:18.67	27.04	5.65	-48.2	-64.0	3.8	1.49e+00	0	41	104	0	67	22916
2026-01-08 22:28:19.68	27.12	5.72	-48.2	-64.0	3.8	1.49e+00	0	41	104	0	67	22881
2026-01-08 22:28:20.68	27.19	5.78	-48.2	-64.0	3.8	1.49e+00	0	41	104	0	67	22852
2026-01-08 22:28:21.68	27.27	5.84	-48.2	-64.0	3.8	1.49e+00	0	41	104	0	67	22933
2026-01-08 22:28:22.69	27.34	5.91	-48.2	-64.0	3.8	1.49e+00	0	41	104	0	67	22877
2026-01-08 22:28:23.69	27.42	5.97	-48.2	-64.0	3.8	1.49e+00	0	41	104	0	67	22894
2026-01-08 22:28:24.70	27.49	6.04	-48.2	-64.0	3.8	1.49e+00	0	41	104	0	67	22931
2026-01-08 22:28:25.70	27.57	6.10	-48.2	-64.0	3.8	1.49e+00	0	41	104	0	67	22816
2026-01-08 22:28:26.70	27.64	6.17	-48.2	-64.0	3.8	1.49e+00	0	41	104	0	67	22789
2026-01-08 22:28:27.71	27.72	6.23	-48.2	-64.0	3.8	1.49e+00	0	41	104	0	67	22784
2026-01-08 22:28:28.71	27.80	6.30	-48.2	-64.0	3.8	1.49e+00	0	41	104	0	67	22824
2026-01-08 22:28:29.72	27.88	6.36	-48.2	-64.0	3.8	1.49e+00	0	41	104	0	67	22888
2026-01-08 22:28:30.72	27.95	6.43	-48.2	-64.0	3.8	1.49e+00	0	41	104	0	67	22923
2026-01-08 22:28:31.73	28.03	6.50	-48.2	-64.0	3.8	1.49e+00	0	41	104	0	67	22846
2026-01-08 22:28:32.73	28.11	6.56	-48.2	-64.0	3.8	1.49e+00	0	41	104	0	67	22881
2026-01-08 22:28:33.73	28.19	6.63	-48.2	-64.0	3.8	1.49e+00	0	41	104	0	67	22861
2026-01-08 22:28:34.74	28.27	6.69	-48.2	-64.0	3.8	1.49e+00	0	41	104	0	67	22916
2026-01-08 22:28:35.74	28.35	6.76	-48.2	-63.9	3.8	1.49e+00	0	41	104	0	67	22645
2026-01-08 22:28:36.75	28.43	6.83	-48.2	-63.9	3.8	1.49e+00	0	41	104	0	67	22711
2026-01-08 22:28:37.75	28.51	6.89	-48.2	-63.9	3.8	1.49e+00	0	41	104	0	67	22665
2026-01-08 22:28:38.75	28.59	6.96	-48.2	-63.9	3.8	1.49e+00	0	41	104	0	67	22622
2026-01-08 22:28:39.76	28.67	7.03	-48.2	-63.9	3.8	1.49e+00	0	41	104	0	67	22577
2026-01-08 22:28:40.76	28.75	7.09	-48.2	-63.9	3.8	1.49e+00	0	41	104	0	67	22704
2026-01-08 22:28:41.77	28.83	7.16	-48.2	-63.9	3.8	1.49e+00	0	41	104	0	67	22669
2026-01-08 22:28:42.77	28.92	7.23	-48.2	-63.9	3.8	1.49e+00	0	41	104	0	67	22657
2026-01-08 22:28:43.78	29.00	7.29	-48.2	-63.9	3.8	1.49e+00	0	41	104	0	67	22703
2026-01-08 22:28:44.78	29.08	7.36	-48.2	-64.0	3.8	1.49e+00	0	41	104	0	67	22792
2026-01-08 22:28:45.78	29.16	7.43	-48.2	-64.0	3.8	1.49e+00	0	42	104	0	67	22817
2026-01-08 22:28:46.79	29.25	7.50	-48.2	-64.0	3.8	1.49e+00	0	42	104	0	67	22914
2026-01-08 22:28:47.79	29.33	7.56	-48.2	-64.0	3.8	1.49e+00	0	41	104	0	67	22790
2026-01-08 22:28:48.80	29.42	7.63	-48.2	-63.9	3.8	1.49e+00	0	42	104	0	67	22726
2026-01-08 22:28:49.80	29.50	7.70	-48.2	-63.9	3.8	1.49e+00	0	42	104	0	67	22664
2026-01-08 22:28:50.80	29.59	7.77	-48.2	-63.9	3.8	1.49e+00	0	42	104	0	67	22593
2026-01-08 22:28:51.81	29.67	7.84	-48.2	-63.9	3.8	1.49e+00	0	41	104	0	67	22591
2026-01-08 22:28:52.81	29.76	7.91	-48.2	-64.0	3.8	1.49e+00	0	42	104	0	67	22853
2026-01-08 22:28:53.82	29.84	7.97	-48.2	-63.9	3.8	1.49e+00	0	42	104	0	67	22594
2026-01-08 22:28:54.82	29.93	8.04	-48.2	-63.7	3.8	1.49e+00	0	42	104	0	67	22126
2026-01-08 22:28:55.83	30.02	8.11	-48.2	-63.3	3.8	1.49e+00	0	42	104	0	67	21040
2026-01-08 22:28:56.83	30.10	8.18	-48.1	-62.7	3.8	1.49e+00	0	41	104	0	67	19679
2026-01-08 22:28:57.83	30.19	8.25	-48.1	-61.8	3.8	1.49e+00	0	42	104	0	67	17787
2026-01-08 22:28:58.84	30.28	8.32	-48.0	-61.3	4.0	1.47e+00	0	42	104	0	67	16802
2026-01-08 22:28:59.84	30.37	8.39	-48.0	-60.9	3.9	1.44e+00	0	42	104	0	67	16042
2026-01-08 22:29:00.85	30.46	8.46	-47.9	-60.4	4.2	1.42e+00	0	42	0	0	67	15126
2026-01-08 22:29:01.85	30.55	8.53	-47.9	-60.2	4.2	1.38e+00	0	42	0	0	67	14852
2026-01-08 22:29:02.85	30.63	8.60	-48.0	-60.5	4.2	1.39e+00	0	42	0	0	67	15228
2026-01-08 22:29:03.86	30.73	8.67	-48.0	-60.6	4.1	1.42e+00	0	42	0	0	67	15544
2026-01-08 22:29:04.87	30.82	8.74	-48.0	-60.6	4.2	1.41e+00	0	42	0	0	67	15419
2026-01-08 22:29:05.87	30.91	8.81	-48.0	-60.0	4.3	1.35e+00	0	42	0	0	67	14408
2026-01-08 22:29:06.87	31.00	8.88	-47.9	-59.0	4.7	1.08e+00	0	42	0	1048576	67	12940
2026-01-08 22:29:07.88	31.09	8.95	-47.7	-58.0	5.2	7.71e-01	0	42	0	3145728	67	11450
2026-01-08 22:29:08.88	31.18	9.02	-47.7	-57.2	5.7	4.02e-01	0	42	0	5242880	67	10507
2026-01-08 22:29:09.89	31.27	9.09	-47.6	-57.1	5.8	3.08e-01	0	42	0	7340032	67	10354
2026-01-08 22:29:10.89	31.37	9.16	-48.4	-63.5	3.8	7.84e-01	0	42	104	8388608	67	21554
2026-01-08 22:29:11.89	31.46	9.23	-46.2	-51.4	11.1	8.13e-01	0	42	104	8388608	64	6410
2026-01-08 22:29:12.90	31.55	9.30	-47.3	-54.9	7.8	1.28e-02	0	42	0	9437184	65	9052
2026-01-08 22:29:13.90	31.65	9.37	-45.1	-49.2	13.7	2.44e-02	0	42	0	11534336	62	5575
2026-01-08 22:29:14.90	31.74	9.45	-44.8	-48.7	14.4	0.00e+00	0	42	0	13631488	61	5530
2026-01-08 22:29:15.95	31.84	9.52	-44.8	-48.5	14.5	7.00e-07	0	42	0	15728640	61	5442
2026-01-08 22:29:16.83	31.93	9.58	-44.6	-48.2	14.8	0.00e+00	0	42	0	16777216	61	5223
2026-01-08 22:29:17.97	32.04	9.67	-44.4	-48.0	15.1	0.00e+00	0	42	0	18874368	60	5409
2026-01-08 22:29:18.83	32.12	9.73	-44.4	-48.0	15.1	0.00e+00	0	42	0	20971520	60	5427
2026-01-08 22:29:19.98	32.23	9.81	-44.4	-48.0	15.1	0.00e+00	0	42	0	23068672	60	5417
2026-01-08 22:29:20.84	32.31	9.87	-44.3	-48.0	15.1	0.00e+00	0	42	0	24117248	60	5416
2026-01-08 22:29:21.98	32.42	9.95	-44.4	-48.1	14.9	7.00e-07	0	42	0	27262976	60	5501
2026-01-08 22:29:22.84	32.51	10.02	-44.4	-48.1	15.0	7.00e-07	0	42	0	28311552	60	5486
2026-01-08 22:29:23.99	32.62	10.10	-44.5	-48.1	15.0	0.00e+00	0	42	0	30408704	60	5490
2026-01-08 22:29:24.85	32.71	10.16	-44.6	-48.3	14.7	0.00e+00	0	42	0	32505856	60	5617
2026-01-08 22:29:26.00	32.82	10.25	-44.5	-48.1	15.0	0.00e+00	0	42	0	34603008	60	5499
2026-01-08 22:29:26.86	32.91	10.31	-44.5	-48.1	15.0	7.00e-07	0	42	0	35651584	60	5473
2026-01-08 22:29:28.00	33.02	10.39	-44.5	-48.1	15.0	0.00e+00	0	42	0	37748736	60	5506
2026-01-08 22:29:28.87	33.11	10.46	-44.6	-48.3	14.7	0.00e+00	0	42	0	39845888	60	5598
2026-01-08 22:29:30.11	33.23	10.55	-44.5	-48.2	14.9	1.50e-06	0	42	0	41943040	60	5547
2026-01-08 22:29:30.96	33.32	10.61	-44.3	-47.9	15.2	0.00e+00	0	42	0	44040192	60	5350
2026-01-08 22:29:32.10	33.44	10.69	-44.5	-48.0	15.0	0.00e+00	0	42	0	46137344	60	5464
2026-01-08 22:29:32.97	33.53	10.76	-44.5	-48.1	15.0	0.00e+00	0	42	0	47185920	60	5465
2026-01-08 22:29:34.11	33.64	10.84	-44.5	-47.9	15.2	0.00e+00	0	42	0	49283072	60	5399
2026-01-08 22:29:35.02	33.74	10.91	-44.6	-48.0	15.1	0.00e+00	0	42	0	51380224	60	5424
2026-01-08 22:29:36.05	33.85	10.98	-44.5	-47.9	15.3	0.00e+00	0	42	0	53477376	60	5348
2026-01-08 22:29:37.05	33.95	11.06	-44.4	-47.8	15.3	0.00e+00	0	42	0	55574528	60	5309
2026-01-08 22:29:38.05	34.06	11.13	-44.4	-47.8	15.3	0.00e+00	0	42	0	56623104	60	5289
2026-01-08 22:29:39.05	34.16	11.21	-44.3	-47.7	15.4	0.00e+00	0	42	0	58720256	60	5260
2026-01-08 22:29:40.06	34.27	11.28	-44.2	-47.5	15.6	0.00e+00	0	42	0	60817408	60	5141
2026-01-08 22:29:41.42	34.42	11.39	-44.2	-47.5	15.6	0.00e+00	0	42	0	62914560	60	5129
2026-01-08 22:29:42.19	34.50	11.44	-44.1	-47.3	15.8	0.00e+00	0	42	0	65011712	60	5014
2026-01-08 22:29:43.48	34.64	11.54	-44.2	-47.4	15.7	0.00e+00	0	42	0	67108864	60	5074
2026-01-08 22:29:44.20	34.72	11.60	-44.2	-47.4	15.8	0.00e+00	0	42	0	68157440	60	5044
2026-01-08 22:29:45.49	34.86	11.69	-44.1	-47.3	15.9	0.00e+00	0	42	0	71303168	60	4990
2026-01-08 22:29:46.20	34.93	11.75	-44.2	-47.3	15.8	0.00e+00	0	42	0	72351744	60	5033
2026-01-08 22:29:47.49	35.08	11.84	-44.1	-47.3	15.9	0.00e+00	0	42	0	74448896	60	4998
2026-01-08 22:29:48.21	35.16	11.90	-44.2	-47.3	15.8	0.00e+00	0	42	0	75497472	60	5028
2026-01-08 22:29:49.53	35.30	12.00	-44.1	-47.2	16.0	0.00e+00	0	42	0	78643200	60	4963
2026-01-08 22:29:50.25	35.38	12.05	-44.2	-47.4	15.8	0.00e+00	0	42	0	79691776	60	5044
2026-01-08 22:29:51.54	35.53	12.15	-44.1	-47.2	15.9	0.00e+00	0	42	0	81788928	60	4971
2026-01-08 22:29:52.26	35.61	12.21	-44.0	-47.2	16.0	0.00e+00	0	42	0	83886080	60	4966
2026-01-08 22:29:53.54	35.76	12.31	-44.1	-47.3	15.9	0.00e+00	0	42	0	85983232	60	4995
2026-01-08 22:29:54.26	35.84	12.36	-44.0	-47.1	16.1	0.00e+00	0	42	0	87031808	60	4924
2026-01-08 22:29:55.55	35.99	12.46	-44.0	-47.1	16.1	0.00e+00	0	42	0	90177536	59	5167
2026-01-08 22:29:56.27	36.07	12.52	-44.0	-47.1	16.0	0.00e+00	0	42	0	91226112	59	5215
2026-01-08 22:29:57.56	36.22	12.62	-43.9	-47.0	16.2	0.00e+00	0	42	0	93323264	59	5112
2026-01-08 22:29:58.27	36.30	12.67	-43.9	-47.1	16.1	0.00e+00	0	42	0	94371840	59	5167
2026-01-08 22:29:59.56	36.45	12.77	-44.0	-47.2	16.0	0.00e+00	0	43	0	97517568	59	5221
2026-01-08 22:30:00.28	36.54	12.83	-44.0	-47.1	16.0	0.00e+00	0	43	0	98566144	59	5201
2026-01-08 22:30:01.57	36.69	12.93	-44.1	-47.3	15.9	0.00e+00	0	42	0	100663296	59	5311
2026-01-08 22:30:02.28	36.77	12.98	-44.2	-47.4	15.7	0.00e+00	0	43	0	102760448	59	5381
2026-01-08 22:30:03.57	36.93	13.08	-44.2	-47.5	15.7	0.00e+00	0	42	0	104857600	59	5426
2026-01-08 22:30:04.29	37.01	13.14	-44.2	-47.5	15.7	0.00e+00	0	43	0	105906176	59	5444
2026-01-08 22:30:05.64	37.18	13.25	-44.2	-47.5	15.6	0.00e+00	0	42	0	109051904	59	5464
2026-01-08 22:30:06.36	37.26	13.30	-44.2	-47.4	15.8	0.00e+00	0	43	0	110100480	59	5374
2026-01-08 22:30:07.65	37.42	13.40	-44.2	-47.4	15.7	0.00e+00	0	43	0	112197632	59	5389
2026-01-08 22:30:08.37	37.51	13.46	-44.2	-47.5	15.7	0.00e+00	0	42	0	114294784	59	5414
2026-01-08 22:30:09.78	37.68	13.57	-44.0	-47.2	16.0	0.00e+00	0	43	0	116391936	59	5225
2026-01-08 22:30:10.50	37.77	13.63	-44.1	-47.2	16.0	0.00e+00	0	43	0	117440512	59	5264
2026-01-08 22:30:11.79	37.93	13.73	-44.1	-47.2	16.0	0.00e+00	0	42	0	120586240	59	5247
2026-01-08 22:30:12.51	38.02	13.79	-44.0	-47.1	16.1	0.00e+00	0	43	0	121634816	59	5195
2026-01-08 22:30:13.80	38.19	13.89	-44.0	-47.0	16.2	0.00e+00	0	42	0	123731968	59	5138
2026-01-08 22:30:14.51	38.28	13.95	-44.1	-47.1	16.1	0.00e+00	0	42	0	125829120	59	5189
2026-01-08 22:30:15.81	38.44	14.05	-44.0	-47.0	16.2	0.00e+00	0	42	0	127926272	59	5135
2026-01-08 22:30:16.52	38.53	14.11	-44.0	-47.0	16.2	0.00e+00	0	42	0	128974848	59	5143
2026-01-08 22:30:17.81	38.70	14.21	-44.1	-47.1	16.2	0.00e+00	0	42	0	131072000	59	5162
2026-01-08 22:30:18.53	38.79	14.27	-44.1	-47.1	16.1	0.00e+00	0	42	0	133169152	59	5212
2026-01-08 22:30:19.82	38.96	14.37	-44.0	-47.1	16.1	0.00e+00	0	43	0	135266304	59	5167
2026-01-08 22:30:20.66	39.07	14.44	-44.1	-47.1	16.1	0.00e+00	0	42	0	137363456	59	5211
2026-01-08 22:30:22.13	39.26	14.56	-44.0	-47.1	16.1	0.00e+00	0	43	0	139460608	59	5185
2026-01-08 22:30:22.85	39.36	14.62	-43.9	-46.9	16.3	0.00e+00	0	43	0	140509184	59	5094
2026-01-08 22:30:24.13	39.53	14.72	-43.9	-46.8	16.3	0.00e+00	0	43	0	143654912	59	5033
2026-01-08 22:30:24.85	39.62	14.78	-43.9	-46.8	16.4	0.00e+00	0	43	0	144703488	59	5010
2026-01-08 22:30:26.14	39.80	14.88	-43.8	-46.7	16.5	0.00e+00	0	43	0	146800640	59	4967
2026-01-08 22:30:26.92	39.90	14.95	-43.8	-46.7	16.5	0.00e+00	0	43	0	148897792	59	4976
2026-01-08 22:30:28.21	40.08	15.05	-43.8	-46.7	16.5	0.00e+00	0	42	0	150994944	59	4971
2026-01-08 22:30:28.93	40.18	15.11	-43.9	-46.8	16.4	0.00e+00	0	42	0	152043520	59	5007
2026-01-08 22:30:30.22	40.35	15.22	-44.0	-46.9	16.3	0.00e+00	0	43	0	155189248	59	5069
2026-01-08 22:30:31.07	40.47	15.29	-43.9	-46.9	16.3	0.00e+00	0	43	0	156237824	59	5051
2026-01-08 22:30:32.53	40.67	15.41	-44.0	-46.9	16.3	0.00e+00	0	43	0	159383552	59	5091
2026-01-08 22:30:33.25	40.77	15.47	-44.0	-47.0	16.2	0.00e+00	0	42	0	160432128	59	5116
2026-01-08 22:30:34.73	40.98	15.59	-43.9	-46.9	16.4	0.00e+00	0	43	0	163577856	59	5047
2026-01-08 22:30:35.44	41.08	15.65	-43.9	-46.8	16.4	0.00e+00	0	42	0	164626432	59	5036
2026-01-08 22:30:36.73	41.27	15.75	-43.9	-46.8	16.4	0.00e+00	0	42	0	166723584	59	5005
2026-01-08 22:30:37.45	41.37	15.81	-43.9	-46.8	16.4	0.00e+00	0	43	0	168820736	59	5038
2026-01-08 22:30:38.74	41.55	15.92	-43.9	-46.8	16.4	0.00e+00	0	42	0	170917888	59	4999
2026-01-08 22:30:39.45	41.66	15.98	-43.8	-46.7	16.5	0.00e+00	0	42	0	171966464	59	4935
2026-01-08 22:30:40.75	41.84	16.09	-43.8	-46.6	16.6	0.00e+00	0	42	0	174063616	59	4915
2026-01-08 22:30:41.46	41.95	16.15	-43.7	-46.5	16.7	0.00e+00	0	42	0	176160768	59	4869
2026-01-08 22:30:42.75	42.14	16.25	-43.7	-46.6	16.6	0.00e+00	0	42	0	178257920	59	4908
2026-01-08 22:30:43.56	42.26	16.32	-43.7	-46.5	16.7	0.00e+00	0	43	0	179306496	59	4863
2026-01-08 22:30:44.71	42.43	16.42	-43.6	-46.4	16.8	0.00e+00	0	43	0	182452224	59	4774
2026-01-08 22:30:45.76	42.58	16.50	-43.7	-46.5	16.7	0.00e+00	0	43	0	183500800	59	4840
2026-01-08 22:30:46.62	42.71	16.58	-43.7	-46.5	16.7	0.00e+00	0	43	0	185597952	59	4838
2026-01-08 22:30:47.77	42.89	16.67	-43.6	-46.4	16.8	0.00e+00	0	43	0	187695104	59	4780
2026-01-08 22:30:48.63	43.02	16.74	-43.6	-46.4	16.8	0.00e+00	0	43	0	188743680	59	4784
2026-01-08 22:30:49.78	43.19	16.84	-43.6	-46.4	16.8	0.00e+00	0	43	0	191889408	59	4779
2026-01-08 22:30:50.64	43.32	16.91	-43.6	-46.4	16.7	0.00e+00	0	43	0	192937984	59	4773
2026-01-08 22:30:51.78	43.50	17.01	-43.6	-46.5	16.7	0.00e+00	0	43	0	195035136	59	4818
2026-01-08 22:30:52.64	43.63	17.08	-43.5	-46.3	16.9	0.00e+00	0	43	0	197132288	59	4744
2026-01-08 22:30:53.79	43.81	17.18	-43.6	-46.4	16.8	0.00e+00	0	43	0	199229440	59	4766
2026-01-08 22:30:54.65	43.95	17.25	-43.5	-46.3	16.9	0.00e+00	0	43	0	200278016	59	4738
2026-01-08 22:30:55.89	44.14	17.36	-43.6	-46.4	16.8	0.00e+00	0	42	0	202375168	58	5051
2026-01-08 22:30:56.74	44.28	17.43	-43.5	-46.3	16.9	0.00e+00	0	43	0	204472320	58	5027
2026-01-08 22:30:57.89	44.46	17.53	-43.5	-46.3	17.0	0.00e+00	0	43	0	206569472	58	4992
2026-01-08 22:30:58.75	44.60	17.60	-43.5	-46.2	17.0	0.00e+00	0	43	0	208666624	58	4964
2026-01-08 22:31:00.03	44.81	17.71	-43.4	-46.1	17.1	0.00e+00	0	43	0	210763776	58	4905
2026-01-08 22:31:00.74	44.92	17.77	-43.4	-46.1	17.1	0.00e+00	0	43	0	211812352	58	4905
2026-01-08 22:31:02.03	45.13	17.88	-43.4	-46.1	17.1	0.00e+00	0	43	0	213909504	58	4905
2026-01-08 22:31:02.75	45.25	17.94	-43.3	-46.0	17.2	0.00e+00	0	43	0	216006656	58	4846
2026-01-08 22:31:04.04	45.46	18.05	-43.3	-46.0	17.3	0.00e+00	0	42	0	218103808	58	4829
2026-01-08 22:31:04.76	45.58	18.11	-43.3	-46.0	17.2	0.00e+00	0	43	0	219152384	58	4865
2026-01-08 22:31:06.05	45.80	18.22	-43.3	-45.9	17.3	0.00e+00	0	43	0	222298112	58	4811
2026-01-08 22:31:06.76	45.91	18.28	-43.2	-45.9	17.4	0.00e+00	0	43	0	223346688	58	4769
2026-01-08 22:31:08.05	46.13	18.39	-43.3	-46.0	17.3	0.00e+00	0	43	0	225443840	58	4836
2026-01-08 22:31:08.77	46.25	18.45	-43.2	-45.8	17.5	0.00e+00	0	43	0	227540992	58	4728
2026-01-08 22:31:10.06	46.47	18.56	-43.1	-45.8	17.5	0.00e+00	0	43	0	229638144	58	4712
2026-01-08 22:31:11.08	46.65	18.65	-43.2	-45.9	17.4	0.00e+00	0	43	0	231735296	58	4769
2026-01-08 22:31:12.40	46.88	18.76	-43.3	-45.9	17.4	0.00e+00	0	43	0	233832448	58	4790
2026-01-08 22:31:13.12	47.00	18.83	-43.2	-45.9	17.4	0.00e+00	0	43	0	234881024	58	4761
2026-01-08 22:31:14.73	47.28	18.96	-43.2	-45.8	17.5	0.00e+00	0	43	0	238026752	58	4734
2026-01-08 22:31:15.30	47.38	19.01	-43.1	-45.7	17.6	0.00e+00	0	43	0	239075328	58	4685
2026-01-08 22:31:16.88	47.66	19.15	-43.1	-45.7	17.5	0.00e+00	0	43	0	242221056	58	4699
2026-01-08 22:31:17.46	47.76	19.20	-43.1	-45.6	17.7	0.00e+00	0	43	0	243269632	58	4648
2026-01-08 22:31:19.05	48.05	19.34	-43.0	-45.6	17.7	0.00e+00	0	43	0	246415360	58	4614
2026-01-08 22:31:19.62	48.15	19.39	-43.1	-45.7	17.6	0.00e+00	0	43	0	247463936	58	4668
2026-01-08 22:31:21.22	48.44	19.52	-43.1	-45.7	17.6	0.00e+00	0	43	0	250609664	58	4671
2026-01-08 22:31:21.79	48.54	19.57	-43.1	-45.7	17.6	0.00e+00	0	43	0	251658240	58	4681
2026-01-08 22:31:23.38	48.83	19.71	-43.2	-45.8	17.6	0.00e+00	0	43	0	254803968	58	4721
2026-01-08 22:31:23.95	48.94	19.76	-43.1	-45.7	17.6	0.00e+00	0	43	0	255852544	58	4678
2026-01-08 22:31:25.53	49.23	19.89	-43.2	-45.8	17.6	0.00e+00	0	43	0	257949696	58	4709
2026-01-08 22:31:26.13	49.34	19.95	-43.0	-45.6	17.8	0.00e+00	0	43	0	260046848	58	4628
2026-01-08 22:31:27.71	49.64	20.08	-43.0	-45.5	17.8	0.00e+00	0	43	0	262144000	57	4845
2026-01-08 22:31:28.55	49.80	20.15	-42.9	-45.4	17.9	0.00e+00	0	43	0	264241152	57	4787
2026-01-08 22:31:29.70	50.02	20.25	-42.8	-45.3	18.0	0.00e+00	0	43	0	266338304	57	4755
2026-01-08 22:31:30.56	50.18	20.33	-42.8	-45.3	18.1	0.00e+00	0	43	0	267386880	57	4708
2026-01-08 22:31:31.71	50.40	20.43	-42.8	-45.3	18.1	0.00e+00	0	43	0	270532608	57	4708
2026-01-08 22:31:32.57	50.57	20.50	-42.7	-45.2	18.1	0.00e+00	0	43	0	271581184	57	4695
2026-01-08 22:31:33.71	50.79	20.60	-42.7	-45.1	18.3	0.00e+00	0	43	0	273678336	57	4625
2026-01-08 22:31:34.57	50.96	20.67	-42.7	-45.2	18.2	0.00e+00	0	43	0	275775488	57	4661
2026-01-08 22:31:35.72	51.18	20.77	-42.8	-45.3	18.1	0.00e+00	0	43	0	277872640	57	4721
2026-01-08 22:31:36.64	51.36	20.85	-42.8	-45.3	18.0	0.00e+00	0	43	0	278921216	57	4738
2026-01-08 22:31:37.65	51.56	20.94	-42.9	-45.5	17.9	0.00e+00	0	43	0	281018368	57	4818
2026-01-08 22:31:38.65	51.76	21.02	-42.9	-45.5	17.9	0.00e+00	0	43	0	283115520	57	4825
2026-01-08 22:31:39.65	51.96	21.11	-43.0	-45.6	17.8	0.00e+00	0	43	0	285212672	57	4910
2026-01-08 22:31:40.66	52.17	21.20	-42.9	-45.5	17.9	0.00e+00	0	43	0	287309824	57	4833
2026-01-08 22:31:41.66	52.37	21.28	-42.8	-45.4	18.0	0.00e+00	0	43	0	288358400	57	4775
2026-01-08 22:31:42.66	52.57	21.37	-42.8	-45.4	18.0	0.00e+00	0	43	0	290455552	57	4765
2026-01-08 22:31:43.66	52.78	21.45	-42.8	-45.4	18.0	0.00e+00	0	43	0	292552704	57	4762
2026-01-08 22:31:44.67	52.99	21.54	-42.8	-45.3	18.1	0.00e+00	0	43	0	294649856	57	4718
2026-01-08 22:31:45.67	53.19	21.63	-42.9	-45.5	17.9	0.00e+00	0	43	0	295698432	57	4834
2026-01-08 22:31:46.67	53.40	21.71	-43.0	-45.6	17.8	0.00e+00	0	43	0	297795584	57	4880
2026-01-08 22:31:47.74	53.63	21.80	-43.0	-45.6	17.8	0.00e+00	0	43	0	299892736	57	4882
2026-01-08 22:31:48.62	53.81	21.88	-42.9	-45.4	17.9	0.00e+00	0	43	0	301989888	57	4804
2026-01-08 22:31:49.94	54.09	21.99	-42.9	-45.5	17.9	0.00e+00	0	43	0	304087040	57	4849
2026-01-08 22:31:50.66	54.24	22.05	-42.9	-45.5	17.9	0.00e+00	0	42	0	305135616	57	4826
2026-01-08 22:31:51.95	54.52	22.16	-42.8	-45.4	18.0	0.00e+00	0	43	0	308281344	57	4784
2026-01-08 22:31:52.66	54.67	22.22	-42.8	-45.4	18.0	0.00e+00	0	43	0	309329920	57	4789
2026-01-08 22:31:53.95	54.95	22.33	-42.7	-45.2	18.2	0.00e+00	0	43	0	311427072	57	4667
2026-01-08 22:31:54.67	55.11	22.39	-42.6	-45.1	18.2	0.00e+00	0	43	0	313524224	57	4644
2026-01-08 22:31:55.96	55.39	22.50	-42.6	-45.1	18.3	0.00e+00	0	43	0	315621376	57	4619
2026-01-08 22:31:56.68	55.55	22.56	-42.7	-45.2	18.2	0.00e+00	0	43	0	316669952	57	4659
2026-01-08 22:31:57.97	55.83	22.67	-42.5	-45.0	18.4	0.00e+00	0	43	0	318767104	57	4553
2026-01-08 22:31:58.69	55.99	22.73	-42.6	-45.1	18.3	0.00e+00	0	43	0	320864256	57	4618
2026-01-08 22:31:59.97	56.28	22.84	-42.7	-45.2	18.2	0.00e+00	0	43	0	322961408	57	4671
2026-01-08 22:32:00.69	56.44	22.90	-42.9	-45.4	18.0	0.00e+00	0	43	0	324009984	57	4779
2026-01-08 22:32:02.06	56.75	23.01	-42.9	-45.4	18.0	0.00e+00	0	43	0	327155712	57	4795
2026-01-08 22:32:02.78	56.91	23.07	-43.0	-45.5	17.9	0.00e+00	0	43	0	328204288	57	4847
2026-01-08 22:32:04.13	57.22	23.18	-43.0	-45.5	17.9	0.00e+00	0	43	0	330301440	57	4857
2026-01-08 22:32:04.85	57.39	23.24	-43.0	-45.5	17.9	0.00e+00	0	43	0	332398592	57	4869
2026-01-08 22:32:06.24	57.71	23.36	-43.0	-45.5	17.9	0.00e+00	0	43	0	334495744	57	4854
2026-01-08 22:32:06.95	57.87	23.42	-43.0	-45.5	17.8	0.00e+00	0	43	0	336592896	57	4868
2026-01-08 22:32:08.24	58.17	23.52	-43.2	-45.8	17.7	0.00e+00	0	43	0	338690048	57	4997
2026-01-08 22:32:08.96	58.34	23.58	-43.2	-45.8	17.6	0.00e+00	0	42	0	339738624	57	5021
2026-01-08 22:32:10.25	58.65	23.69	-43.3	-46.0	17.5	0.00e+00	0	43	0	341835776	57	5113
2026-01-08 22:32:10.96	58.82	23.74	-43.5	-46.2	17.2	0.00e+00	0	43	0	343932928	57	5220
2026-01-08 22:32:12.25	59.12	23.85	-43.4	-46.1	17.3	0.00e+00	0	43	0	346030080	57	5173
2026-01-08 22:32:12.97	59.30	23.91	-43.4	-46.1	17.3	0.00e+00	0	43	0	347078656	57	5212
2026-01-08 22:32:14.26	59.61	24.01	-43.5	-46.3	17.2	0.00e+00	0	43	0	350224384	57	5296
2026-01-08 22:32:14.98	59.78	24.07	-43.6	-46.3	17.1	0.00e+00	0	43	0	351272960	57	5330
2026-01-08 22:32:16.27	60.09	24.17	-43.5	-46.2	17.2	0.00e+00	0	43	0	353370112	57	5270
2026-01-08 22:32:16.98	60.27	24.23	-43.5	-46.3	17.2	0.00e+00	0	43	0	354418688	57	5280
2026-01-08 22:32:18.27	60.58	24.33	-43.5	-46.2	17.3	0.00e+00	0	43	0	357564416	57	5220
2026-01-08 22:32:18.99	60.76	24.39	-43.4	-46.1	17.3	0.00e+00	0	43	0	358612992	57	5190
2026-01-08 22:32:20.28	61.08	24.49	-43.4	-46.1	17.3	0.00e+00	0	43	0	360710144	57	5195
2026-01-08 22:32:21.00	61.26	24.55	-43.4	-46.0	17.4	0.00e+00	0	43	0	362807296	57	5146
2026-01-08 22:32:22.29	61.58	24.65	-43.5	-46.2	17.3	0.00e+00	0	43	0	364904448	57	5238
2026-01-08 22:32:23.27	61.83	24.72	-43.6	-46.4	17.1	0.00e+00	0	43	0	367001600	57	5341
2026-01-08 22:32:24.27	62.08	24.80	-43.7	-46.5	17.0	0.00e+00	0	43	0	369098752	58	5115
2026-01-08 22:32:25.28	62.34	24.88	-43.8	-46.7	16.8	0.00e+00	0	43	0	370147328	58	5220
2026-01-08 22:32:26.28	62.59	24.96	-43.9	-46.7	16.8	0.00e+00	0	43	0	372244480	58	5243
2026-01-08 22:32:27.28	62.85	25.03	-44.0	-46.8	16.6	0.00e+00	0	43	0	374341632	58	5318
2026-01-08 22:32:28.29	63.11	25.11	-44.0	-46.9	16.6	0.00e+00	0	43	0	376438784	58	5383
2026-01-08 22:32:29.29	63.37	25.19	-44.2	-47.1	16.4	0.00e+00	0	43	0	377487360	59	5169
2026-01-08 22:32:30.30	63.63	25.26	-44.2	-47.1	16.4	0.00e+00	0	43	0	379584512	59	5190
2026-01-08 22:32:31.30	63.90	25.34	-44.3	-47.2	16.3	0.00e+00	0	43	0	381681664	59	5254
2026-01-08 22:32:32.30	64.16	25.41	-44.2	-47.1	16.4	0.00e+00	0	43	0	383778816	59	5174
2026-01-08 22:32:33.31	64.43	25.49	-44.1	-47.0	16.5	0.00e+00	0	43	0	385875968	59	5140
2026-01-08 22:32:34.39	64.71	25.57	-44.2	-47.1	16.4	0.00e+00	0	43	0	387973120	59	5174
2026-01-08 22:32:35.25	64.94	25.63	-44.2	-47.1	16.4	0.00e+00	0	43	0	389021696	59	5199
2026-01-08 22:32:36.60	65.30	25.73	-44.3	-47.3	16.2	0.00e+00	0	43	0	392167424	59	5317
2026-01-08 22:32:37.32	65.50	25.78	-44.5	-47.5	16.0	0.00e+00	0	43	0	393216000	59	5412
2026-01-08 22:32:38.61	65.84	25.87	-44.5	-47.6	15.9	0.00e+00	0	43	0	395313152	59	5472
2026-01-08 22:32:39.32	66.04	25.92	-44.6	-47.7	15.7	0.00e+00	0	43	0	396361728	59	5585
2026-01-08 22:32:40.62	66.39	26.02	-44.7	-47.9	15.7	0.00e+00	0	43	0	399507456	60	5358
2026-01-08 22:32:41.40	66.61	26.07	-44.8	-47.9	15.6	0.00e+00	0	43	0	400556032	60	5393
2026-01-08 22:32:42.68	66.96	26.16	-44.8	-48.0	15.6	0.00e+00	0	43	0	402653184	60	5425
2026-01-08 22:32:43.46	67.17	26.21	-44.8	-48.0	15.5	0.00e+00	0	43	0	404750336	60	5445
2026-01-08 22:32:44.75	67.53	26.30	-44.8	-48.0	15.5	0.00e+00	0	43	0	406847488	60	5462
2026-01-08 22:32:45.47	67.73	26.35	-44.9	-48.1	15.4	0.00e+00	0	43	0	407896064	60	5507
2026-01-08 22:32:46.76	68.09	26.44	-44.9	-48.1	15.4	0.00e+00	0	43	0	411041792	60	5519
2026-01-08 22:32:47.60	68.33	26.50	-45.0	-48.3	15.3	0.00e+00	0	43	0	412090368	60	5604
2026-01-08 22:32:48.75	68.66	26.57	-45.1	-48.5	15.1	0.00e+00	0	43	0	414187520	60	5735
2026-01-08 22:32:49.61	68.90	26.63	-45.1	-48.5	15.1	7.00e-07	0	43	0	416284672	60	5757
2026-01-08 22:32:50.76	69.23	26.71	-45.2	-48.6	15.0	0.00e+00	0	43	0	418381824	61	5476
2026-01-08 22:32:51.62	69.47	26.76	-45.1	-48.5	15.1	0.00e+00	0	43	0	419430400	61	5435
2026-01-08 22:32:52.76	69.80	26.83	-45.1	-48.4	15.1	0.00e+00	0	43	0	421527552	61	5381
2026-01-08 22:32:53.62	70.05	26.89	-45.0	-48.2	15.3	0.00e+00	0	43	0	423624704	61	5279
2026-01-08 22:32:54.77	70.38	26.96	-45.0	-48.3	15.2	0.00e+00	0	43	0	425721856	61	5297
2026-01-08 22:32:55.63	70.63	27.02	-45.1	-48.3	15.2	0.00e+00	0	43	0	427819008	61	5339
2026-01-08 22:32:56.77	70.96	27.09	-45.1	-48.5	15.0	0.00e+00	0	43	0	429916160	61	5438
2026-01-08 22:32:57.63	71.21	27.14	-45.2	-48.6	15.0	0.00e+00	0	43	0	430964736	61	5479
2026-01-08 22:32:58.78	71.55	27.21	-45.2	-48.7	14.9	0.00e+00	0	43	0	433061888	61	5537
2026-01-08 22:32:59.64	71.81	27.26	-45.3	-48.7	14.8	0.00e+00	0	43	0	435159040	61	5565
2026-01-08 22:33:00.95	72.19	27.34	-45.3	-48.7	14.8	7.00e-07	0	43	0	437256192	61	5592
2026-01-08 22:33:01.66	72.41	27.38	-45.1	-48.5	15.0	0.00e+00	0	43	0	438304768	61	5438
2026-01-08 22:33:02.95	72.79	27.45	-44.9	-48.2	15.3	0.00e+00	0	43	0	441450496	61	5255
2026-01-08 22:33:03.66	73.00	27.49	-44.9	-48.1	15.5	0.00e+00	0	43	0	442499072	61	5167
2026-01-08 22:33:05.26	73.48	27.58	-45.0	-48.3	15.2	0.00e+00	0	43	0	445644800	61	5320
2026-01-08 22:33:05.83	73.66	27.61	-45.1	-48.5	15.1	0.00e+00	0	43	0	446693376	61	5404
2026-01-08 22:33:07.44	74.14	27.70	-45.5	-49.0	14.5	7.00e-07	0	43	0	449839104	61	5781
2026-01-08 22:33:08.01	74.32	27.73	-45.7	-49.4	14.1	7.00e-07	0	43	0	450887680	62	5710
2026-01-08 22:33:09.59	74.80	27.82	-45.9	-49.8	13.8	3.00e-06	0	43	0	454033408	62	5925
2026-01-08 22:33:10.34	75.03	27.86	-46.0	-49.9	13.7	6.80e-06	0	43	0	455081984	62	6016
2026-01-08 22:33:11.63	75.42	27.92	-46.1	-50.2	13.4	1.22e-05	0	43	0	457179136	62	6244
2026-01-08 22:33:12.34	75.64	27.96	-46.1	-50.1	13.4	1.75e-05	0	43	0	458227712	63	5849
2026-01-08 22:33:13.63	76.04	28.02	-46.0	-50.0	13.5	1.22e-05	0	43	0	461373440	63	5788
2026-01-08 22:33:14.35	76.27	28.06	-46.0	-50.0	13.5	1.06e-05	0	43	0	462422016	63	5751
2026-01-08 22:33:15.74	76.70	28.12	-46.0	-49.9	13.6	7.60e-06	0	43	0	465567744	63	5697
2026-01-08 22:33:16.45	76.92	28.16	-45.8	-49.7	13.9	6.10e-06	0	43	0	466616320	63	5547
2026-01-08 22:33:17.74	77.32	28.22	-45.6	-49.4	14.2	3.00e-06	0	43	0	468713472	63	5360
2026-01-08 22:33:18.45	77.55	28.25	-45.5	-49.2	14.3	4.50e-06	0	43	0	469762048	63	5269
2026-01-08 22:33:19.74	77.95	28.31	-45.4	-49.1	14.5	7.00e-07	0	43	0	472907776	62	5489
2026-01-08 22:33:20.46	78.18	28.34	-45.4	-49.0	14.5	7.00e-07	0	43	0	473956352	62	5459
2026-01-08 22:33:21.75	78.59	28.40	-45.3	-48.8	14.7	0.00e+00	0	43	0	476053504	62	5324
2026-01-08 22:33:22.46	78.81	28.43	-45.3	-48.8	14.8	0.00e+00	0	43	0	478150656	62	5292
2026-01-08 22:33:23.75	79.22	28.48	-45.3	-48.8	14.7	0.00e+00	0	43	0	480247808	62	5333
2026-01-08 22:33:24.50	79.46	28.51	-45.3	-48.8	14.7	7.00e-07	0	43	0	481296384	62	5334
2026-01-08 22:33:25.79	79.88	28.56	-45.4	-49.0	14.5	0.00e+00	0	43	0	483393536	62	5458
2026-01-08 22:33:26.50	80.10	28.59	-45.6	-49.4	14.2	3.00e-06	0	43	0	485490688	62	5694
2026-01-08 22:33:27.79	80.52	28.64	-45.8	-49.7	13.8	3.00e-06	0	43	0	487587840	62	5899
2026-01-08 22:33:28.61	80.78	28.67	-46.0	-50.0	13.5	5.30e-06	0	43	0	489684992	62	6119
2026-01-08 22:33:29.75	81.15	28.71	-46.0	-50.1	13.4	9.90e-06	0	43	0	491782144	62	6190
2026-01-08 22:33:30.82	81.50	28.74	-46.0	-50.1	13.4	1.50e-06	0	43	0	493879296	62	6197
2026-01-08 22:33:31.85	81.83	28.78	-45.8	-49.9	13.7	1.52e-05	0	43	0	494927872	62	6025
2026-01-08 22:33:32.85	82.15	28.81	-45.8	-49.8	13.7	5.30e-06	0	43	0	497025024	62	5973
2026-01-08 22:33:33.85	82.48	28.84	-45.8	-49.7	13.8	4.50e-06	0	43	0	499122176	62	5917
2026-01-08 22:33:34.85	82.81	28.88	-45.5	-49.4	14.2	2.20e-06	0	43	0	501219328	62	5658
2026-01-08 22:33:35.86	83.14	28.91	-45.5	-49.3	14.3	7.00e-07	0	43	0	503316480	62	5594
2026-01-08 22:33:36.86	83.46	28.93	-45.2	-48.9	14.7	0.00e+00	0	43	0	504365056	62	5387
2026-01-08 22:33:37.86	83.79	28.96	-45.2	-48.9	14.6	0.00e+00	0	43	0	506462208	62	5380
2026-01-08 22:33:38.86	84.12	28.99	-45.3	-49.0	14.7	0.00e+00	0	43	0	508559360	62	5410
2026-01-08 22:33:39.86	84.45	29.02	-45.3	-48.9	14.7	7.00e-07	0	43	0	510656512	62	5377
2026-01-08 22:33:40.87	84.78	29.04	-45.2	-48.8	14.8	0.00e+00	0	43	0	511705088	62	5321
2026-01-08 22:33:41.87	85.11	29.07	-45.3	-48.9	14.7	0.00e+00	0	43	0	513802240	62	5344
2026-01-08 22:33:42.88	85.45	29.09	-45.2	-48.8	14.8	0.00e+00	0	43	0	515899392	62	5306
2026-01-08 22:33:43.88	85.78	29.11	-45.4	-49.0	14.6	0.00e+00	0	43	0	517996544	62	5459
2026-01-08 22:33:44.88	86.11	29.13	-45.4	-49.1	14.5	1.50e-06	0	43	0	520093696	62	5503
2026-01-08 22:33:45.97	86.47	29.15	-45.3	-49.0	14.6	0.00e+00	0	43	0	522190848	62	5433
2026-01-08 22:33:46.83	86.76	29.17	-45.0	-48.6	15.0	7.00e-07	0	43	0	523239424	62	5172
2026-01-08 22:33:47.97	87.14	29.19	-44.7	-48.1	15.5	0.00e+00	0	43	0	525336576	61	5195
2026-01-08 22:33:48.83	87.42	29.21	-44.6	-47.9	15.6	0.00e+00	0	43	0	527433728	61	5094
2026-01-08 22:33:49.98	87.81	29.22	-44.6	-47.8	15.8	0.00e+00	0	43	0	529530880	61	5018
2026-01-08 22:33:50.84	88.10	29.24	-44.7	-48.0	15.6	0.00e+00	0	43	0	530579456	61	5120
2026-01-08 22:33:51.98	88.48	29.25	-45.1	-48.5	15.1	0.00e+00	0	43	0	532676608	61	5453
2026-01-08 22:33:52.84	88.76	29.26	-45.4	-49.1	14.6	0.00e+00	0	43	0	534773760	61	5792
2026-01-08 22:33:53.99	89.15	29.28	-45.6	-49.3	14.3	7.00e-07	0	43	0	536870912	61	5985
2026-01-08 22:33:54.85	89.44	29.29	-45.4	-49.1	14.5	7.00e-07	0	43	0	538968064	61	5795
2026-01-08 22:33:56.00	89.82	29.30	-45.3	-48.8	14.7	0.00e+00	0	43	0	541065216	61	5650
2026-01-08 22:33:56.86	90.11	29.31	-45.1	-48.6	15.0	0.00e+00	0	43	0	542113792	61	5467
2026-01-08 22:33:58.00	90.49	29.31	-44.9	-48.2	15.4	0.00e+00	0	43	0	544210944	61	5250
2026-01-08 22:33:58.86	90.78	29.32	-44.7	-48.0	15.6	0.00e+00	0	43	0	546308096	61	5104
2026-01-08 22:34:00.01	91.17	29.33	-44.6	-47.8	15.7	0.00e+00	0	43	0	548405248	61	5036
2026-01-08 22:34:00.87	91.46	29.33	-44.6	-47.8	15.7	7.00e-07	0	43	0	549453824	61	5007
2026-01-08 22:34:02.02	91.84	29.33	-44.6	-47.7	15.8	0.00e+00	0	43	0	551550976	61	4981
2026-01-08 22:34:02.88	92.13	29.34	-44.7	-47.9	15.7	0.00e+00	0	43	0	553648128	61	5047
2026-01-08 22:34:04.02	92.52	29.34	-44.9	-48.2	15.4	0.00e+00	0	43	0	555745280	61	5252
2026-01-08 22:34:04.89	92.81	29.34	-45.0	-48.4	15.3	0.00e+00	0	43	0	556793856	61	5341
2026-01-08 22:34:06.03	93.19	29.34	-45.0	-48.4	15.2	0.00e+00	0	43	0	558891008	61	5393
2026-01-08 22:34:06.89	93.48	29.33	-45.1	-48.6	14.9	0.00e+00	0	43	0	560988160	61	5513
2026-01-08 22:34:08.04	93.87	29.33	-44.9	-48.4	15.2	0.00e+00	0	43	0	563085312	61	5347
2026-01-08 22:34:08.90	94.16	29.33	-44.6	-47.8	15.7	0.00e+00	0	43	0	565182464	61	5037
2026-01-08 22:34:10.04	94.54	29.32	-44.4	-47.6	16.0	0.00e+00	0	43	0	567279616	60	5165
2026-01-08 22:34:10.90	94.83	29.32	-44.5	-47.5	16.0	0.00e+00	0	43	0	568328192	60	5154
2026-01-08 22:34:12.05	95.22	29.31	-44.6	-47.7	15.8	0.00e+00	0	43	0	570425344	60	5273
2026-01-08 22:34:12.90	95.50	29.30	-44.9	-48.1	15.4	0.00e+00	0	43	0	572522496	60	5508
2026-01-08 22:34:14.05	95.89	29.29	-45.3	-48.8	14.8	0.00e+00	0	43	0	574619648	61	5596
2026-01-08 22:34:14.91	96.17	29.28	-45.5	-49.1	14.5	0.00e+00	0	43	0	575668224	61	5830
2026-01-08 22:34:16.06	96.56	29.27	-45.9	-49.8	13.7	1.50e-06	0	43	0	577765376	62	5977
2026-01-08 22:34:16.92	96.85	29.26	-45.8	-49.7	13.9	6.10e-06	0	43	0	579862528	62	5885
2026-01-08 22:34:18.07	97.23	29.24	-45.6	-49.3	14.3	2.20e-06	0	43	0	581959680	62	5602
2026-01-08 22:34:18.93	97.52	29.23	-45.3	-48.9	14.7	0.00e+00	0	43	0	584056832	62	5346
2026-01-08 22:34:20.07	97.90	29.21	-45.1	-48.6	15.0	0.00e+00	0	43	0	586153984	62	5161
2026-01-08 22:34:20.94	98.19	29.20	-44.9	-48.2	15.3	0.00e+00	0	43	0	587202560	61	5236
2026-01-08 22:34:22.08	98.57	29.18	-45.0	-48.4	15.2	0.00e+00	0	43	0	589299712	61	5370
2026-01-08 22:34:22.94	98.86	29.16	-45.2	-48.5	15.0	0.00e+00	0	43	0	591396864	61	5462
2026-01-08 22:34:24.09	99.24	29.14	-45.6	-49.3	14.2	1.50e-06	0	43	0	593494016	61	5969
2026-01-08 22:34:24.95	99.53	29.12	-46.1	-50.2	13.3	1.50e-06	0	43	0	594542592	62	6243
2026-01-08 22:34:26.10	99.91	29.10	-46.5	-50.9	12.6	7.17e-05	0	43	0	596639744	63	6407
2026-01-08 22:34:26.96	100.19	29.08	-46.4	-50.9	12.7	1.10e-04	0	43	0	598736896	63	6370
2026-01-08 22:34:28.10	100.57	29.05	-46.1	-50.2	13.3	3.66e-05	0	43	0	600834048	63	5890
2026-01-08 22:34:28.96	100.85	29.03	-45.9	-49.9	13.7	8.30e-06	0	43	0	602931200	63	5682
2026-01-08 22:34:30.11	101.23	29.00	-45.6	-49.3	14.2	4.50e-06	0	43	0	605028352	63	5298
2026-01-08 22:34:30.97	101.52	28.98	-45.7	-49.4	14.2	7.00e-07	0	43	0	606076928	63	5384
2026-01-08 22:34:32.14	101.90	28.94	-45.8	-49.6	14.0	7.00e-07	0	43	0	608174080	63	5482
2026-01-08 22:34:33.00	102.18	28.92	-45.9	-49.7	13.9	1.50e-06	0	43	0	610271232	63	5560
2026-01-08 22:34:34.14	102.56	28.89	-45.7	-49.5	14.1	1.50e-06	0	43	0	612368384	63	5416
2026-01-08 22:34:35.00	102.84	28.86	-45.5	-49.1	14.5	0.00e+00	0	43	0	613416960	62	5492
2026-01-08 22:34:36.15	103.21	28.82	-45.2	-48.6	15.0	0.00e+00	0	43	0	615514112	62	5201
2026-01-08 22:34:37.01	103.49	28.79	-45.1	-48.5	15.1	0.00e+00	0	43	0	617611264	62	5113
2026-01-08 22:34:38.16	103.87	28.76	-45.3	-48.7	14.8	0.00e+00	0	43	0	619708416	62	5265
2026-01-08 22:34:39.02	104.15	28.73	-45.5	-49.1	14.5	0.00e+00	0	43	0	620756992	62	5477
2026-01-08 22:34:40.17	104.52	28.69	-45.7	-49.5	14.1	1.50e-06	0	43	0	623902720	62	5743
2026-01-08 22:34:41.03	104.80	28.65	-45.7	-49.5	14.1	1.50e-06	0	43	0	624951296	62	5730
2026-01-08 22:34:42.17	105.16	28.61	-45.5	-49.2	14.3	1.50e-06	0	43	0	627048448	62	5550
2026-01-08 22:34:43.03	105.44	28.58	-45.3	-48.8	14.8	7.00e-07	0	43	0	629145600	62	5288
2026-01-08 22:34:44.18	105.81	28.53	-44.9	-48.2	15.3	0.00e+00	0	43	0	631242752	61	5247
2026-01-08 22:34:45.04	106.09	28.50	-44.8	-48.1	15.5	0.00e+00	0	43	0	632291328	61	5188
2026-01-08 22:34:46.18	106.45	28.45	-44.7	-47.9	15.7	0.00e+00	0	43	0	634388480	61	5085
2026-01-08 22:34:47.05	106.73	28.42	-44.6	-47.7	15.8	0.00e+00	0	43	0	636485632	61	4976
2026-01-08 22:34:48.19	107.09	28.37	-44.4	-47.5	16.0	0.00e+00	0	43	0	638582784	60	5122
2026-01-08 22:34:49.05	107.36	28.33	-44.3	-47.4	16.1	0.00e+00	0	43	0	639631360	60	5070
2026-01-08 22:34:50.20	107.72	28.28	-44.3	-47.3	16.2	0.00e+00	0	43	0	642777088	60	5034
2026-01-08 22:34:51.11	108.01	28.24	-44.2	-47.3	16.3	0.00e+00	0	43	0	643825664	60	4985
2026-01-08 22:34:52.30	108.38	28.18	-44.4	-47.5	16.1	0.00e+00	0	43	0	645922816	60	5134
2026-01-08 22:34:53.16	108.65	28.14	-44.4	-47.4	16.1	0.00e+00	0	43	0	648019968	60	5100
2026-01-08 22:34:54.50	109.07	28.08	-44.6	-47.7	15.9	0.00e+00	0	43	0	650117120	60	5269
2026-01-08 22:34:55.22	109.30	28.04	-44.6	-47.7	15.8	0.00e+00	0	43	0	651165696	60	5272
2026-01-08 22:34:56.51	109.70	27.98	-44.7	-47.9	15.7	0.00e+00	0	43	0	654311424	60	5342
2026-01-08 22:34:57.22	109.92	27.94	-44.6	-47.6	16.0	0.00e+00	0	43	0	655360000	60	5207
2026-01-08 22:34:58.82	110.41	27.86	-44.4	-47.4	16.1	0.00e+00	0	43	0	658505728	60	5081
2026-01-08 22:34:59.39	110.59	27.83	-44.3	-47.3	16.3	0.00e+00	0	43	0	659554304	60	5012
2026-01-08 22:35:01.00	111.08	27.75	-44.3	-47.3	16.3	0.00e+00	0	43	0	662700032	60	5016
2026-01-08 22:35:01.57	111.25	27.72	-44.1	-47.0	16.5	0.00e+00	0	43	0	663748608	60	4868
2026-01-08 22:35:03.19	111.74	27.63	-43.8	-46.6	16.9	0.00e+00	0	43	0	666894336	59	4903
2026-01-08 22:35:03.86	111.95	27.59	-43.9	-46.7	16.8	0.00e+00	0	43	0	667942912	59	4951
2026-01-08 22:35:05.30	112.38	27.51	-44.1	-47.0	16.6	0.00e+00	0	43	0	671088640	59	5119
2026-01-08 22:35:06.08	112.62	27.46	-44.3	-47.2	16.3	0.00e+00	0	43	0	672137216	59	5261
2026-01-08 22:35:07.68	113.10	27.37	-44.7	-47.9	15.7	0.00e+00	0	43	0	675282944	60	5376
2026-01-08 22:35:08.53	113.35	27.32	-44.8	-48.1	15.5	0.00e+00	0	43	0	676331520	60	5475
2026-01-08 22:35:09.67	113.69	27.25	-44.8	-48.1	15.5	0.00e+00	0	43	0	678428672	60	5476
2026-01-08 22:35:10.53	113.94	27.20	-44.8	-48.1	15.5	0.00e+00	0	43	0	680525824	60	5478
2026-01-08 22:35:11.68	114.28	27.13	-45.0	-48.3	15.3	0.00e+00	0	43	0	682622976	60	5617
2026-01-08 22:35:12.55	114.54	27.08	-44.9	-48.2	15.4	0.00e+00	0	43	0	683671552	60	5545
2026-01-08 22:35:13.69	114.87	27.01	-44.9	-48.1	15.5	0.00e+00	0	43	0	685768704	60	5490
2026-01-08 22:35:14.55	115.12	26.95	-44.8	-48.0	15.6	0.00e+00	0	43	0	687865856	60	5427
2026-01-08 22:35:15.70	115.45	26.88	-44.5	-47.6	16.0	0.00e+00	0	43	0	689963008	60	5165
2026-01-08 22:35:16.56	115.70	26.83	-44.5	-47.6	16.0	0.00e+00	0	43	0	692060160	60	5161
2026-01-08 22:35:17.71	116.03	26.75	-44.3	-47.3	16.3	0.00e+00	0	43	0	694157312	60	4994
2026-01-08 22:35:18.63	116.30	26.69	-44.3	-47.2	16.3	0.00e+00	0	43	0	695205888	60	4979
2026-01-08 22:35:19.81	116.63	26.61	-44.4	-47.3	16.3	0.00e+00	0	43	0	697303040	60	5021
2026-01-08 22:35:20.67	116.88	26.56	-44.5	-47.5	16.0	0.00e+00	0	43	0	699400192	60	5149
2026-01-08 22:35:22.04	117.27	26.46	-44.7	-47.8	15.7	0.00e+00	0	43	0	701497344	60	5339
2026-01-08 22:35:22.75	117.47	26.42	-44.8	-48.0	15.6	0.00e+00	0	43	0	703594496	60	5415
2026-01-08 22:35:24.27	117.89	26.31	-44.9	-48.1	15.4	0.00e+00	0	43	0	705691648	60	5499
2026-01-08 22:35:24.98	118.09	26.26	-44.9	-48.1	15.4	0.00e+00	0	43	0	707788800	60	5499
2026-01-08 22:35:26.27	118.45	26.17	-44.9	-48.2	15.4	0.00e+00	0	43	0	709885952	60	5541
2026-01-08 22:35:26.99	118.65	26.12	-44.9	-48.1	15.5	0.00e+00	0	43	0	710934528	60	5516
2026-01-08 22:35:28.27	119.00	26.03	-44.9	-48.2	15.3	0.00e+00	0	43	0	714080256	60	5588
2026-01-08 22:35:28.99	119.20	25.98	-44.8	-48.0	15.5	0.00e+00	0	43	0	715128832	60	5456
2026-01-08 22:35:30.28	119.55	25.89	-44.8	-48.0	15.6	0.00e+00	0	43	0	717225984	60	5425
2026-01-08 22:35:31.00	119.75	25.84	-44.5	-47.6	15.9	0.00e+00	0	43	0	718274560	60	5200
2026-01-08 22:35:32.29	120.10	25.74	-44.4	-47.4	16.2	0.00e+00	0	43	0	721420288	60	5067
2026-01-08 22:35:33.07	120.31	25.69	-44.3	-47.3	16.3	0.00e+00	0	43	0	722468864	60	5024
2026-01-08 22:35:34.67	120.74	25.57	-44.3	-47.2	16.4	0.00e+00	0	43	0	725614592	60	4971
2026-01-08 22:35:35.25	120.89	25.53	-44.0	-46.8	16.7	0.00e+00	0	43	0	726663168	60	4752
2026-01-08 22:35:37.04	121.37	25.39	-43.9	-46.6	16.8	0.00e+00	0	43	0	729808896	59	4924
2026-01-08 22:35:37.62	121.52	25.35	-43.9	-46.6	16.9	0.00e+00	0	43	0	730857472	59	4908
2026-01-08 22:35:39.20	121.94	25.23	-43.7	-46.4	17.0	0.00e+00	0	43	0	734003200	59	4797
2026-01-08 22:35:39.78	122.09	25.19	-43.8	-46.5	17.0	0.00e+00	0	43	0	735051776	59	4846
2026-01-08 22:35:41.36	122.50	25.07	-44.2	-47.1	16.4	0.00e+00	0	43	0	738197504	59	5215
2026-01-08 22:35:41.96	122.65	25.02	-44.4	-47.4	16.1	0.00e+00	0	43	0	739246080	59	5398
2026-01-08 22:35:43.54	123.06	24.90	-44.2	-47.1	16.4	0.00e+00	0	43	0	742391808	59	5185
2026-01-08 22:35:44.12	123.21	24.85	-44.0	-46.9	16.6	0.00e+00	0	43	0	743440384	59	5054
2026-01-08 22:35:45.69	123.61	24.73	-43.8	-46.6	16.9	0.00e+00	0	43	0	746586112	59	4897
2026-01-08 22:35:46.30	123.76	24.68	-43.9	-46.7	16.8	0.00e+00	0	43	0	747634688	59	4949
2026-01-08 22:35:47.87	124.16	24.56	-44.2	-47.1	16.3	0.00e+00	0	43	0	750780416	59	5216
2026-01-08 22:35:48.46	124.31	24.51	-44.2	-47.1	16.3	0.00e+00	0	43	0	751828992	59	5204
2026-01-08 22:35:50.04	124.70	24.39	-44.0	-46.9	16.6	0.00e+00	0	43	0	753926144	59	5066
2026-01-08 22:35:50.64	124.85	24.34	-43.9	-46.7	16.8	0.00e+00	0	43	0	756023296	59	4938
2026-01-08 22:35:52.47	125.30	24.19	-43.6	-46.3	17.1	0.00e+00	0	43	0	759169024	59	4741
2026-01-08 22:35:53.05	125.44	24.15	-43.6	-46.3	17.2	0.00e+00	0	43	0	760217600	59	4724
2026-01-08 22:35:54.64	125.83	24.02	-44.0	-46.9	16.6	0.00e+00	0	43	0	763363328	59	5050
2026-01-08 22:35:55.58	126.06	23.94	-44.2	-47.1	16.4	0.00e+00	0	43	0	764411904	59	5202
2026-01-08 22:35:56.58	126.30	23.86	-44.3	-47.3	16.1	0.00e+00	0	43	0	766509056	59	5335
2026-01-08 22:35:57.58	126.54	23.78	-44.2	-47.2	16.3	0.00e+00	0	43	0	768606208	59	5226
2026-01-08 22:35:58.59	126.78	23.70	-44.1	-47.0	16.4	0.00e+00	0	43	0	770703360	59	5137
2026-01-08 22:35:59.59	127.02	23.61	-43.7	-46.5	17.0	0.00e+00	0	43	0	772800512	59	4838
2026-01-08 22:36:00.59	127.25	23.53	-43.6	-46.4	17.1	0.00e+00	0	43	0	773849088	59	4790
2026-01-08 22:36:01.75	127.52	23.44	-44.0	-46.9	16.5	0.00e+00	0	43	0	775946240	59	5095
2026-01-08 22:36:02.65	127.73	23.36	-44.4	-47.5	15.9	0.00e+00	0	43	0	778043392	59	5450
2026-01-08 22:36:03.79	128.00	23.27	-45.0	-48.3	15.2	0.00e+00	0	43	0	780140544	60	5655
2026-01-08 22:36:04.65	128.20	23.19	-45.1	-48.5	15.0	0.00e+00	0	43	0	782237696	60	5761
2026-01-08 22:36:05.80	128.46	23.10	-44.8	-48.1	15.4	0.00e+00	0	43	0	784334848	60	5491
2026-01-08 22:36:06.66	128.66	23.03	-44.6	-47.7	15.8	0.00e+00	0	43	0	785383424	60	5262
2026-01-08 22:36:08.10	128.99	22.91	-44.3	-47.3	16.2	0.00e+00	0	43	0	788529152	60	5013
2026-01-08 22:36:08.82	129.15	22.84	-44.4	-47.4	16.1	0.00e+00	0	43	0	789577728	60	5060
2026-01-08 22:36:10.11	129.44	22.74	-44.7	-47.8	15.7	0.00e+00	0	43	0	791674880	60	5321
2026-01-08 22:36:10.83	129.60	22.68	-44.9	-48.1	15.4	0.00e+00	0	43	0	793772032	60	5507
2026-01-08 22:36:12.12	129.89	22.57	-45.0	-48.4	15.1	0.00e+00	0	43	0	795869184	60	5675
2026-01-08 22:36:12.84	130.05	22.51	-44.8	-48.1	15.4	0.00e+00	0	43	0	796917760	60	5468
2026-01-08 22:36:14.13	130.33	22.40	-44.1	-47.1	16.4	0.00e+00	0	43	0	800063488	60	4896
2026-01-08 22:36:14.85	130.49	22.33	-43.7	-46.5	16.9	0.00e+00	0	43	0	801112064	59	4844
2026-01-08 22:36:16.13	130.77	22.23	-43.5	-46.2	17.2	0.00e+00	0	43	0	803209216	59	4677
2026-01-08 22:36:16.85	130.92	22.16	-43.6	-46.3	17.2	0.00e+00	0	43	0	804257792	58	4993
2026-01-08 22:36:18.14	131.20	22.05	-43.9	-46.8	16.7	0.00e+00	0	43	0	807403520	58	5303
2026-01-08 22:36:18.86	131.35	21.99	-44.3	-47.3	16.2	0.00e+00	0	43	0	808452096	59	5287
2026-01-08 22:36:20.24	131.65	21.87	-44.7	-48.0	15.5	0.00e+00	0	43	0	810549248	60	5409
2026-01-08 22:36:20.96	131.80	21.81	-44.8	-48.1	15.4	0.00e+00	0	43	0	812646400	60	5507
2026-01-08 22:36:22.30	132.08	21.70	-44.3	-47.5	16.1	0.00e+00	0	43	0	814743552	60	5101
2026-01-08 22:36:23.01	132.23	21.64	-44.2	-47.2	16.2	0.00e+00	0	43	0	815792128	60	4983
2026-01-08 22:36:24.30	132.50	21.52	-44.2	-47.2	16.3	0.00e+00	0	43	0	818937856	60	4978
2026-01-08 22:36:25.02	132.65	21.46	-44.2	-47.2	16.3	0.00e+00	0	43	0	819986432	60	4947
2026-01-08 22:36:26.31	132.91	21.35	-44.4	-47.5	16.0	0.00e+00	0	43	0	822083584	60	5150
2026-01-08 22:36:27.03	133.06	21.29	-44.6	-47.8	15.7	0.00e+00	0	43	0	824180736	60	5325
2026-01-08 22:36:28.32	133.33	21.18	-45.0	-48.4	15.2	0.00e+00	0	43	0	826277888	60	5660
2026-01-08 22:36:29.04	133.47	21.12	-44.9	-48.3	15.2	7.00e-07	0	43	0	827326464	60	5629
2026-01-08 22:36:30.33	133.73	21.00	-44.7	-47.9	15.6	0.00e+00	0	43	0	829423616	60	5390
2026-01-08 22:36:31.05	133.88	20.94	-44.5	-47.8	15.7	0.00e+00	0	43	0	831520768	60	5284
2026-01-08 22:36:32.34	134.13	20.83	-44.2	-47.2	16.3	0.00e+00	0	43	0	833617920	60	4957
2026-01-08 22:36:33.18	134.30	20.76	-43.9	-46.8	16.6	0.00e+00	0	43	0	835715072	59	5033
2026-01-08 22:36:34.33	134.53	20.66	-43.7	-46.5	17.0	0.00e+00	0	43	0	837812224	59	4833
2026-01-08 22:36:35.19	134.69	20.58	-43.7	-46.5	16.9	0.00e+00	0	43	0	838860800	59	4839
2026-01-08 22:36:36.33	134.92	20.48	-43.9	-46.8	16.6	0.00e+00	0	43	0	840957952	59	5027
2026-01-08 22:36:37.20	135.09	20.41	-44.0	-46.9	16.5	0.00e+00	0	43	0	843055104	59	5051
2026-01-08 22:36:38.34	135.31	20.31	-44.1	-47.0	16.4	0.00e+00	0	43	0	845152256	59	5120
2026-01-08 22:36:39.20	135.47	20.23	-44.0	-46.9	16.6	0.00e+00	0	43	0	846200832	59	5055
2026-01-08 22:36:40.34	135.69	20.14	-43.8	-46.6	16.9	0.00e+00	0	43	0	848297984	59	4871
2026-01-08 22:36:41.20	135.85	20.06	-43.6	-46.4	17.0	0.00e+00	0	43	0	850395136	59	4771
2026-01-08 22:36:42.43	136.08	19.95	-43.6	-46.3	17.1	0.00e+00	0	43	0	852492288	59	4732
2026-01-08 22:36:43.29	136.24	19.88	-43.6	-46.4	17.1	0.00e+00	0	43	0	854589440	59	4764
2026-01-08 22:36:44.50	136.47	19.77	-43.8	-46.6	16.8	0.00e+00	0	43	0	856686592	59	4881
2026-01-08 22:36:45.36	136.63	19.70	-43.9	-46.7	16.7	0.00e+00	0	43	0	857735168	59	4966
2026-01-08 22:36:46.50	136.84	19.60	-44.0	-46.9	16.6	0.00e+00	0	43	0	859832320	59	5057
2026-01-08 22:36:47.37	137.00	19.52	-44.0	-46.9	16.5	0.00e+00	0	43	0	861929472	59	5066
2026-01-08 22:36:48.64	137.23	19.41	-43.8	-46.7	16.7	0.00e+00	0	43	0	864026624	59	4940
2026-01-08 22:36:49.37	137.36	19.35	-43.9	-46.7	16.7	0.00e+00	0	43	0	866123776	59	4974
2026-01-08 22:36:50.85	137.63	19.22	-43.7	-46.4	17.0	0.00e+00	0	43	0	868220928	59	4806
2026-01-08 22:36:51.57	137.76	19.16	-43.6	-46.4	17.0	0.00e+00	0	43	0	869269504	59	4770
2026-01-08 22:36:52.86	137.99	19.05	-43.6	-46.4	17.0	0.00e+00	0	43	0	872415232	59	4767
2026-01-08 22:36:53.58	138.12	18.99	-43.5	-46.2	17.1	0.00e+00	0	43	0	873463808	59	4692
2026-01-08 22:36:54.87	138.34	18.87	-43.3	-46.0	17.4	0.00e+00	0	43	0	875560960	58	4832
2026-01-08 22:36:55.58	138.47	18.81	-43.4	-46.1	17.3	0.00e+00	0	43	0	877658112	58	4902
2026-01-08 22:36:56.87	138.69	18.70	-43.3	-46.0	17.4	0.00e+00	0	43	0	879755264	58	4824
2026-01-08 22:36:57.59	138.82	18.64	-43.2	-45.9	17.5	0.00e+00	0	43	0	880803840	58	4771
2026-01-08 22:36:59.16	139.09	18.50	-43.1	-45.7	17.7	0.00e+00	0	43	0	883949568	58	4653
2026-01-08 22:36:59.77	139.19	18.45	-43.0	-45.6	17.8	0.00e+00	0	43	0	884998144	58	4611
2026-01-08 22:37:01.34	139.46	18.31	-42.9	-45.5	17.9	0.00e+00	0	43	0	888143872	57	4816
2026-01-08 22:37:02.11	139.59	18.25	-42.9	-45.5	17.9	0.00e+00	0	43	0	889192448	57	4830
2026-01-08 22:37:03.40	139.80	18.14	-43.1	-45.7	17.7	0.00e+00	0	43	0	892338176	57	4940
2026-01-08 22:37:04.12	139.92	18.07	-43.2	-45.8	17.5	0.00e+00	0	43	0	893386752	57	5023
2026-01-08 22:37:05.41	140.14	17.96	-43.3	-45.9	17.4	0.00e+00	0	43	0	895483904	57	5075
2026-01-08 22:37:06.12	140.26	17.90	-43.3	-46.0	17.4	0.00e+00	0	43	0	897581056	57	5108
2026-01-08 22:37:07.41	140.47	17.79	-43.5	-46.2	17.2	0.00e+00	0	43	0	899678208	57	5255
2026-01-08 22:37:08.13	140.59	17.73	-43.6	-46.3	17.1	0.00e+00	0	43	0	900726784	57	5306
2026-01-08 22:37:09.42	140.80	17.62	-43.7	-46.5	16.8	0.00e+00	0	43	0	902823936	58	5149
2026-01-08 22:37:10.13	140.91	17.56	-43.7	-46.5	16.9	0.00e+00	0	43	0	904921088	58	5132
2026-01-08 22:37:11.62	141.15	17.43	-43.8	-46.6	16.8	0.00e+00	0	43	0	907018240	58	5205
2026-01-08 22:37:12.33	141.26	17.37	-43.8	-46.6	16.8	0.00e+00	0	43	0	909115392	58	5202
2026-01-08 22:37:13.70	141.48	17.25	-43.6	-46.3	17.0	0.00e+00	0	43	0	911212544	58	5029
2026-01-08 22:37:14.67	141.63	17.17	-43.4	-46.1	17.2	0.00e+00	0	43	0	913309696	58	4912
2026-01-08 22:37:16.00	141.84	17.06	-43.3	-46.0	17.4	0.00e+00	0	43	0	915406848	58	4850
2026-01-08 22:37:16.71	141.95	17.00	-43.3	-46.0	17.3	0.00e+00	0	43	0	916455424	58	4844
2026-01-08 22:37:18.01	142.15	16.89	-43.3	-46.0	17.4	0.00e+00	0	43	0	919601152	58	4847
2026-01-08 22:37:18.72	142.26	16.83	-43.2	-45.9	17.4	0.00e+00	0	43	0	920649728	58	4778
2026-01-08 22:37:20.01	142.46	16.72	-43.3	-46.1	17.3	0.00e+00	0	43	0	922746880	58	4876
2026-01-08 22:37:20.73	142.57	16.66	-43.4	-46.3	17.1	0.00e+00	0	43	0	924844032	58	4992
2026-01-08 22:37:22.02	142.77	16.55	-43.4	-46.3	17.1	0.00e+00	0	43	0	926941184	58	4999
2026-01-08 22:37:22.73	142.87	16.49	-43.5	-46.3	17.0	0.00e+00	0	43	0	927989760	58	5023
2026-01-08 22:37:24.02	143.07	16.38	-43.7	-46.6	16.8	0.00e+00	0	43	0	931135488	58	5196
2026-01-08 22:37:24.74	143.17	16.32	-43.8	-46.7	16.6	0.00e+00	0	43	0	932184064	58	5276
2026-01-08 22:37:26.19	143.39	16.20	-43.9	-46.9	16.5	0.00e+00	0	43	0	934281216	58	5341
2026-01-08 22:37:26.91	143.50	16.13	-43.7	-46.6	16.7	0.00e+00	0	43	0	936378368	58	5201
2026-01-08 22:37:28.26	143.69	16.02	-43.8	-46.7	16.7	0.00e+00	0	43	0	938475520	58	5225
2026-01-08 22:37:28.98	143.80	15.96	-43.8	-46.7	16.6	0.00e+00	0	43	0	939524096	58	5253
2026-01-08 22:37:30.32	143.99	15.85	-44.0	-46.9	16.4	0.00e+00	0	43	0	942669824	58	5378
2026-01-08 22:37:31.03	144.09	15.79	-44.1	-47.1	16.3	0.00e+00	0	43	0	943718400	58	5465
2026-01-08 22:37:32.32	144.28	15.68	-44.2	-47.2	16.2	0.00e+00	0	43	0	945815552	58	5532
2026-01-08 22:37:33.03	144.38	15.62	-44.2	-47.2	16.2	0.00e+00	0	43	0	947912704	59	5224
2026-01-08 22:37:34.32	144.56	15.52	-44.3	-47.4	15.9	0.00e+00	0	43	0	950009856	59	5363
2026-01-08 22:37:35.04	144.67	15.46	-44.3	-47.4	15.9	0.00e+00	0	43	0	951058432	59	5366
2026-01-08 22:37:36.33	144.85	15.35	-44.3	-47.3	16.0	0.00e+00	0	43	0	954204160	59	5317
2026-01-08 22:37:37.05	144.95	15.29	-44.4	-47.5	15.8	0.00e+00	0	43	0	955252736	59	5435
2026-01-08 22:37:38.33	145.12	15.18	-44.3	-47.3	15.9	0.00e+00	0	43	0	957349888	59	5333
2026-01-08 22:37:39.05	145.22	15.12	-44.3	-47.3	16.0	0.00e+00	0	43	0	958398464	59	5326
2026-01-08 22:37:40.34	145.40	15.02	-44.3	-47.4	15.9	0.00e+00	0	43	0	961544192	59	5367
2026-01-08 22:37:41.05	145.50	14.96	-44.3	-47.4	15.8	0.00e+00	0	43	0	962592768	59	5394
2026-01-08 22:37:42.35	145.67	14.85	-44.5	-47.6	15.7	0.00e+00	0	43	0	964689920	59	5509
2026-01-08 22:37:43.06	145.77	14.79	-44.5	-47.6	15.7	0.00e+00	0	43	0	966787072	59	5510
2026-01-08 22:37:44.35	145.94	14.69	-44.5	-47.7	15.5	0.00e+00	0	43	0	968884224	59	5568
2026-01-08 22:37:45.07	146.04	14.63	-44.7	-47.9	15.3	0.00e+00	0	43	0	969932800	59	5709
2026-01-08 22:37:46.36	146.21	14.52	-44.7	-48.0	15.3	0.00e+00	0	43	0	972029952	60	5430
2026-01-08 22:37:47.07	146.31	14.47	-44.7	-48.0	15.3	7.00e-07	0	43	0	974127104	60	5430
2026-01-08 22:37:48.36	146.48	14.36	-44.8	-48.2	15.1	0.00e+00	0	43	0	976224256	60	5554
2026-01-08 22:37:49.08	146.57	14.30	-44.8	-48.2	15.1	0.00e+00	0	43	0	977272832	60	5583
2026-01-08 22:37:50.37	146.74	14.20	-44.8	-48.3	15.0	7.00e-07	0	43	0	980418560	60	5643
2026-01-08 22:37:51.09	146.83	14.14	-44.8	-48.3	15.0	0.00e+00	0	43	0	981467136	60	5605
2026-01-08 22:37:52.68	147.04	14.01	-44.8	-48.3	15.0	0.00e+00	0	43	0	984612864	60	5635
2026-01-08 22:37:53.53	147.14	13.94	-44.7	-48.2	15.1	0.00e+00	0	43	0	985661440	60	5550
2026-01-08 22:37:54.68	147.29	13.85	-44.7	-48.1	15.2	0.00e+00	0	43	0	987758592	60	5500
2026-01-08 22:37:55.54	147.40	13.78	-44.6	-48.0	15.3	0.00e+00	0	43	0	989855744	60	5411
2026-01-08 22:37:56.68	147.54	13.69	-44.5	-47.8	15.5	0.00e+00	0	43	0	991952896	60	5283
2026-01-08 22:37:57.54	147.65	13.62	-44.5	-47.7	15.6	0.00e+00	0	43	0	993001472	60	5245
2026-01-08 22:37:58.69	147.79	13.53	-44.5	-47.7	15.6	0.00e+00	0	43	0	995098624	60	5229
2026-01-08 22:37:59.55	147.90	13.46	-44.4	-47.5	15.7	0.00e+00	0	43	0	997195776	60	5158
2026-01-08 22:38:00.69	148.04	13.37	-44.5	-47.7	15.5	0.00e+00	0	43	0	999292928	60	5261
2026-01-08 22:38:01.55	148.15	13.30	-44.4	-47.7	15.5	0.00e+00	0	43	0	1001390080	60	5242
2026-01-08 22:38:02.70	148.29	13.21	-44.4	-47.6	15.6	0.00e+00	0	43	0	1003487232	60	5199
2026-01-08 22:38:03.56	148.39	13.14	-44.4	-47.7	15.6	0.00e+00	0	43	0	1004535808	60	5227
2026-01-08 22:38:04.70	148.53	13.05	-44.5	-47.9	15.4	0.00e+00	0	43	0	1006632960	60	5347
2026-01-08 22:38:05.56	148.63	12.98	-44.5	-47.9	15.4	0.00e+00	0	43	0	1008730112	60	5342
2026-01-08 22:38:06.71	148.77	12.89	-44.7	-48.1	15.1	0.00e+00	0	43	0	1010827264	60	5504
2026-01-08 22:38:07.57	148.87	12.82	-44.7	-48.1	15.1	0.00e+00	0	43	0	1011875840	60	5525
2026-01-08 22:38:08.72	149.01	12.73	-44.8	-48.2	15.0	0.00e+00	0	43	0	1013972992	60	5574
2026-01-08 22:38:09.58	149.11	12.67	-44.8	-48.3	15.0	0.00e+00	0	43	0	1016070144	60	5597
2026-01-08 22:38:10.72	149.24	12.58	-44.8	-48.2	15.0	0.00e+00	0	43	0	1018167296	60	5583
2026-01-08 22:38:11.59	149.34	12.51	-44.7	-48.0	15.2	0.00e+00	0	43	0	1020264448	60	5454
2026-01-08 22:38:12.73	149.47	12.42	-44.8	-48.2	15.0	0.00e+00	0	43	0	1022361600	60	5533
2026-01-08 22:38:13.59	149.57	12.35	-44.5	-47.8	15.4	0.00e+00	0	43	0	1023410176	60	5322
2026-01-08 22:38:14.96	149.73	12.25	-44.4	-47.6	15.6	0.00e+00	0	43	0	1026555904	60	5190
2026-01-08 22:38:15.68	149.81	12.19	-44.3	-47.5	15.7	0.00e+00	0	43	0	1027604480	60	5130
2026-01-08 22:38:16.97	149.96	12.09	-44.3	-47.5	15.7	0.00e+00	0	43	0	1029701632	60	5130
2026-01-08 22:38:17.69	150.04	12.04	-44.2	-47.4	15.8	0.00e+00	0	43	0	1030750208	60	5073
2026-01-08 22:38:19.25	150.22	11.92	-44.0	-47.2	16.0	0.00e+00	0	43	0	1033895936	60	4963
2026-01-08 22:38:19.84	150.28	11.87	-44.1	-47.3	15.8	0.00e+00	0	43	0	1034944512	60	5039
2026-01-08 22:38:21.61	150.48	11.74	-44.2	-47.5	15.7	0.00e+00	0	43	0	1039138816	60	5117
2026-01-08 22:38:22.18	150.54	11.69	-44.2	-47.4	15.8	0.00e+00	0	43	0	1039138816	60	5062
2026-01-08 22:38:23.77	150.71	11.57	-44.3	-47.6	15.6	0.00e+00	0	43	0	1042284544	60	5181
2026-01-08 22:38:24.34	150.78	11.53	-44.4	-47.6	15.5	0.00e+00	0	43	0	1043333120	60	5218
2026-01-08 22:38:25.92	150.95	11.41	-44.5	-47.8	15.4	0.00e+00	0	43	0	1046478848	60	5335
2026-01-08 22:38:26.51	151.01	11.36	-44.6	-47.9	15.3	0.00e+00	0	43	0	1047527424	60	5373
2026-01-08 22:38:28.09	151.18	11.24	-44.6	-48.0	15.2	0.00e+00	0	43	0	1050673152	60	5440
2026-01-08 22:38:29.02	151.28	11.17	-44.8	-48.2	15.0	0.00e+00	0	43	0	1052770304	60	5565
2026-01-08 22:38:30.03	151.39	11.10	-44.7	-48.1	15.1	0.00e+00	0	43	0	1054867456	60	5501
2026-01-08 22:38:31.03	151.49	11.02	-44.6	-48.1	15.1	0.00e+00	0	43	0	1055916032	60	5485
2026-01-08 22:38:32.03	151.60	10.95	-44.5	-47.8	15.3	0.00e+00	0	43	0	1058013184	60	5339
2026-01-08 22:38:33.03	151.70	10.87	-44.5	-47.9	15.3	0.00e+00	0	43	0	1060110336	60	5381
2026-01-08 22:38:34.04	151.81	10.79	-44.3	-47.7	15.5	0.00e+00	0	43	0	1062207488	60	5234
2026-01-08 22:38:35.04	151.91	10.72	-44.3	-47.5	15.5	0.00e+00	0	43	0	1063256064	60	5159
2026-01-08 22:38:36.04	152.01	10.65	-44.3	-47.6	15.5	0.00e+00	0	43	0	1065353216	60	5212
2026-01-08 22:38:37.04	152.12	10.57	-44.2	-47.4	15.7	0.00e+00	0	43	0	1067450368	60	5082
2026-01-08 22:38:38.05	152.22	10.50	-44.2	-47.4	15.7	0.00e+00	0	43	0	1069547520	60	5082
2026-01-08 22:38:39.05	152.32	10.42	-44.2	-47.5	15.6	3.58e-05	0	43	0	1071644672	60	5137
2026-01-08 22:38:40.05	152.42	10.35	-44.2	-47.5	15.6	0.00e+00	0	43	0	1073741824	60	5125
2026-01-08 22:38:41.05	152.52	10.27	-44.3	-47.6	15.5	0.00e+00	0	43	0	1074790400	60	5177
2026-01-08 22:38:42.06	152.62	10.20	-44.3	-47.6	15.5	0.00e+00	0	43	0	1076887552	60	5218
2026-01-08 22:38:43.06	152.72	10.13	-44.4	-47.7	15.4	0.00e+00	0	43	0	1078984704	60	5276
2026-01-08 22:38:44.06	152.82	10.05	-44.3	-47.8	15.3	0.00e+00	0	43	0	1081081856	60	5289
2026-01-08 22:38:45.07	152.92	9.98	-44.4	-47.9	15.2	0.00e+00	0	43	0	1082130432	60	5375
2026-01-08 22:38:46.52	153.06	9.87	-44.3	-47.8	15.3	0.00e+00	0	43	0	1085276160	60	5322
2026-01-08 22:38:47.23	153.13	9.82	-44.5	-48.1	15.0	0.00e+00	0	43	0	1086324736	60	5527
2026-01-08 22:38:48.87	153.29	9.70	-44.6	-48.3	14.8	7.00e-07	0	43	0	1089470464	60	5642
2026-01-08 22:38:49.45	153.35	9.66	-44.6	-48.3	14.7	0.00e+00	0	43	0	1090519040	60	5630
2026-01-08 22:38:51.02	153.50	9.55	-44.6	-48.2	14.8	0.00e+00	0	43	0	1093664768	60	5578
2026-01-08 22:38:51.61	153.56	9.50	-44.6	-48.2	14.8	0.00e+00	0	43	0	1094713344	60	5577
2026-01-08 22:38:53.19	153.71	9.39	-44.6	-48.3	14.7	7.00e-07	0	43	0	1097859072	60	5608
2026-01-08 22:38:53.86	153.77	9.34	-44.6	-48.2	14.8	0.00e+00	0	43	0	1098907648	60	5549
2026-01-08 22:38:55.29	153.90	9.24	-44.8	-48.5	14.5	0.00e+00	0	43	0	1102053376	60	5761
2026-01-08 22:38:56.01	153.97	9.19	-44.8	-48.4	14.5	7.00e-07	0	43	0	1103101952	60	5721
2026-01-08 22:38:57.30	154.09	9.09	-44.7	-48.4	14.7	0.00e+00	0	43	0	1105199104	60	5657
2026-01-08 22:38:58.02	154.16	9.04	-44.8	-48.5	14.5	7.00e-07	0	43	0	1107296256	60	5736
2026-01-08 22:38:59.31	154.28	8.95	-48.7	-63.9	3.8	1.08e+00	0	43	104	1109393408	67	22555
2026-01-08 22:39:00.03	154.34	8.90	-49.0	-64.3	3.8	1.49e+00	0	43	104	1109393408	68	22459
2026-01-08 22:39:01.34	154.46	8.81	-49.3	-64.6	3.8	1.49e+00	0	43	104	1109393408	69	21797
2026-01-08 22:39:02.06	154.53	8.76	-49.4	-64.6	3.8	1.49e+00	0	43	104	1109393408	69	21980
2026-01-08 22:39:03.35	154.64	8.67	-48.9	-64.8	3.8	1.49e+00	0	43	104	1109393408	69	22488
2026-01-08 22:39:04.07	154.71	8.61	-49.5	-64.9	3.8	1.49e+00	0	43	104	1109393408	69	22642
2026-01-08 22:39:05.36	154.82	8.52	-49.6	-64.9	3.8	1.49e+00	0	43	104	1109393408	70	21464
2026-01-08 22:39:06.08	154.89	8.47	-49.7	-65.0	3.8	1.49e+00	0	43	104	1109393408	70	21509
2026-01-08 22:39:07.37	155.00	8.38	-49.6	-65.0	3.8	1.49e+00	0	43	104	1109393408	70	21569
2026-01-08 22:39:08.10	155.07	8.33	-49.8	-65.0	3.8	1.49e+00	0	43	104	1109393408	70	21644
2026-01-08 22:39:09.39	155.18	8.24	-49.8	-65.0	3.8	1.49e+00	0	43	104	1109393408	70	21581
2026-01-08 22:39:10.19	155.25	8.19	-49.8	-65.0	3.8	1.49e+00	0	43	104	1109393408	70	21695
2026-01-08 22:39:11.66	155.38	8.08	-49.8	-65.0	3.8	1.49e+00	0	43	104	1109393408	70	21748
2026-01-08 22:39:12.38	155.44	8.03	-49.7	-65.0	3.8	1.49e+00	0	43	104	1109393408	70	21743
2026-01-08 22:39:13.67	155.55	7.94	-49.5	-65.1	3.8	1.49e+00	0	43	104	1109393408	70	21790
2026-01-08 22:39:14.39	155.61	7.89	-49.9	-65.1	3.8	1.49e+00	0	43	104	1109393408	70	21765
2026-01-08 22:39:15.68	155.72	7.81	-49.8	-65.1	3.8	1.49e+00	0	43	104	1109393408	70	21758
2026-01-08 22:39:16.40	155.79	7.76	-49.9	-65.0	3.8	1.49e+00	0	43	104	1109393408	70	21737
2026-01-08 22:39:17.69	155.90	7.67	-49.8	-65.0	3.8	1.49e+00	0	43	104	1109393408	70	21702
2026-01-08 22:39:18.40	155.95	7.62	-49.7	-65.0	3.8	1.49e+00	0	43	104	1109393408	70	21714
2026-01-08 22:39:19.70	156.06	7.53	-49.7	-65.0	3.8	1.49e+00	0	43	104	1109393408	70	21674
2026-01-08 22:39:20.41	156.12	7.48	-49.8	-65.0	3.8	1.49e+00	0	43	104	1109393408	70	21699
2026-01-08 22:39:21.72	156.23	7.39	-49.3	-65.0	3.8	1.49e+00	0	43	104	1109393408	70	21689
2026-01-08 22:39:22.44	156.29	7.34	-49.5	-65.0	3.8	1.49e+00	0	43	104	1109393408	70	21571
2026-01-08 22:39:23.78	156.40	7.25	-49.5	-65.0	3.8	1.49e+00	0	43	104	1109393408	70	21655
2026-01-08 22:39:24.49	156.46	7.20	-49.5	-65.0	3.8	1.49e+00	0	43	104	1109393408	70	21583
2026-01-08 22:39:25.79	156.57	7.12	-49.5	-65.0	3.8	1.49e+00	0	43	104	1109393408	70	21527
2026-01-08 22:39:26.50	156.62	7.07	-49.5	-65.0	3.8	1.49e+00	0	43	104	1109393408	70	21550
2026-01-08 22:39:27.79	156.73	6.98	-49.5	-65.0	3.8	1.49e+00	0	43	104	1109393408	70	21545
2026-01-08 22:39:28.51	156.79	6.93	-49.5	-65.0	3.8	1.49e+00	0	43	104	1109393408	70	21573
2026-01-08 22:39:29.80	156.89	6.85	-49.5	-65.0	3.8	1.49e+00	0	43	104	1109393408	70	21621
2026-01-08 22:39:30.52	156.95	6.80	-49.5	-65.0	3.8	1.49e+00	0	43	104	1109393408	70	21549
2026-01-08 22:39:31.81	157.05	6.71	-49.5	-65.0	3.8	1.49e+00	0	43	104	1109393408	70	21547
2026-01-08 22:39:32.53	157.11	6.66	-49.5	-65.0	3.8	1.49e+00	0	43	104	1109393408	70	21565
2026-01-08 22:39:33.82	157.21	6.58	-49.5	-65.0	3.8	1.49e+00	0	43	104	1109393408	70	21524
2026-01-08 22:39:34.53	157.26	6.53	-49.5	-65.0	3.8	1.49e+00	0	43	104	1109393408	70	21520
2026-01-08 22:39:35.82	157.37	6.44	-49.5	-64.9	3.8	1.49e+00	0	43	104	1109393408	70	21477
2026-01-08 22:39:36.54	157.42	6.40	-49.5	-64.9	3.8	1.49e+00	0	43	104	1109393408	70	21479
2026-01-08 22:39:37.83	157.52	6.31	-49.5	-64.9	3.8	1.49e+00	0	43	104	1109393408	70	21472
2026-01-08 22:39:38.55	157.58	6.26	-49.5	-65.0	3.8	1.49e+00	0	43	104	1109393408	70	21522
2026-01-08 22:39:39.84	157.68	6.18	-49.4	-64.9	3.8	1.49e+00	0	43	104	1109393408	70	21503
2026-01-08 22:39:40.56	157.73	6.13	-49.5	-65.0	3.8	1.49e+00	0	43	104	1109393408	70	21530
2026-01-08 22:39:41.85	157.83	6.05	-49.5	-65.0	3.8	1.49e+00	0	43	104	1109393408	70	21521
2026-01-08 22:39:42.57	157.88	6.00	-49.4	-64.9	3.8	1.49e+00	0	43	104	1109393408	70	21493
2026-01-08 22:39:43.86	157.98	5.92	-49.4	-64.9	3.8	1.49e+00	0	43	104	1109393408	70	21466
2026-01-08 22:39:44.58	158.04	5.87	-49.4	-64.9	3.8	1.49e+00	0	43	104	1109393408	70	21491
2026-01-08 22:39:45.87	158.13	5.79	-49.5	-65.0	3.8	1.49e+00	0	43	104	1109393408	70	21550
2026-01-08 22:39:46.59	158.19	5.74	-49.4	-65.0	3.8	1.49e+00	0	43	104	1109393408	70	21514
2026-01-08 22:39:47.88	158.28	5.65	-49.5	-64.9	3.8	1.49e+00	0	43	104	1109393408	70	21483
2026-01-08 22:39:48.59	158.33	5.61	-49.4	-64.9	3.8	1.49e+00	0	43	104	1109393408	70	21453
2026-01-08 22:39:49.88	158.43	5.53	-49.4	-64.9	3.8	1.49e+00	0	43	104	1109393408	70	21421
2026-01-08 22:39:50.60	158.48	5.48	-49.4	-64.9	3.8	1.49e+00	0	43	104	1109393408	70	21367
2026-01-08 22:39:51.89	158.58	5.40	-49.4	-64.9	3.8	1.49e+00	0	43	104	1109393408	70	21474
2026-01-08 22:39:52.61	158.63	5.35	-49.4	-64.9	3.8	1.49e+00	0	43	104	1109393408	70	21433
2026-01-08 22:39:53.90	158.72	5.27	-49.4	-64.9	3.8	1.49e+00	0	43	104	1109393408	70	21413
2026-01-08 22:39:54.62	158.77	5.22	-49.5	-64.9	3.8	1.49e+00	0	43	104	1109393408	70	21392
2026-01-08 22:39:55.91	158.87	5.14	-49.4	-64.9	3.8	1.49e+00	0	43	104	1109393408	70	21454
2026-01-08 22:39:56.63	158.92	5.09	-49.4	-64.9	3.8	1.49e+00	0	43	104	1109393408	70	21454
2026-01-08 22:39:57.92	159.01	5.01	-49.4	-64.9	3.8	1.49e+00	0	43	104	1109393408	70	21423
2026-01-08 22:39:58.63	159.06	4.97	-49.4	-64.9	3.8	1.49e+00	0	43	104	1109393408	70	21434

