passes_logs/2026/01/03/T1/T1__20260103_070311_FENGYUN_3G_rec.log

#Pass ID: 20260103_070311_FENGYUN 3G
#Satellite: FENGYUN 3G
#Configuration: FENGYUN 3G
#almurnet v.1.7.20251203
#Start time: 2026-01-03 07:03:14

#Version: 2.0.20230620
#Station: T1
#Location: 37.570604 lon 55.790049 lat
#TLE: 1 56232U 23055A   26002.31058000  .00046172  00000+0  73618-3 0  9997
#TLE: 2 56232  49.9934 121.3649 0004156 328.0230  32.0484 15.52711916154221

#Time	Az	El	Level	Level2	SNR	BER	BlckErr	Temp	State	Recorded	gain1	gain2
2026-01-03 07:03:14.17	253.49	5.17	-52.5	-71.5	3.8	8.46e-01	0	38	0	0	76	32246
2026-01-03 07:03:15.16	253.32	5.22	-52.4	-71.5	3.8	8.38e-01	0	38	104	0	76	32321
2026-01-03 07:03:16.17	253.14	5.28	-52.3	-71.4	3.8	8.47e-01	0	38	104	0	76	31839
2026-01-03 07:03:17.17	252.97	5.33	-52.3	-71.3	3.8	8.46e-01	0	38	104	0	76	31710
2026-01-03 07:03:18.18	252.79	5.39	-52.3	-71.3	3.8	8.46e-01	0	38	104	0	76	31714
2026-01-03 07:03:19.18	252.61	5.44	-52.3	-71.3	3.9	8.45e-01	0	39	104	0	75	33334
2026-01-03 07:03:20.19	252.43	5.49	-52.0	-71.0	3.8	8.46e-01	0	38	104	0	74	34101
2026-01-03 07:03:21.19	252.25	5.55	-52.2	-71.2	3.8	8.46e-01	0	38	104	0	75	33084
2026-01-03 07:03:22.19	252.08	5.60	-52.5	-71.5	3.8	8.47e-01	0	38	104	0	75	34139
2026-01-03 07:03:23.20	251.89	5.66	-52.4	-71.4	3.8	8.47e-01	0	38	104	0	75	34027
2026-01-03 07:03:24.20	251.71	5.71	-52.5	-71.6	3.8	8.47e-01	0	38	104	0	75	34576
2026-01-03 07:03:25.21	251.53	5.76	-52.4	-71.4	3.8	8.47e-01	0	38	104	0	75	34045
2026-01-03 07:03:26.21	251.35	5.82	-52.5	-71.6	3.8	8.46e-01	0	38	104	0	75	34530
2026-01-03 07:03:27.22	251.16	5.87	-52.3	-71.5	3.8	8.48e-01	0	38	104	0	75	34317
2026-01-03 07:03:28.22	250.98	5.93	-52.4	-71.5	3.8	8.48e-01	0	38	104	0	75	34113
2026-01-03 07:03:29.22	250.79	5.98	-52.3	-71.4	3.8	8.45e-01	0	38	104	0	75	33748
2026-01-03 07:03:30.23	250.60	6.03	-52.3	-71.4	3.8	8.46e-01	0	38	104	0	75	33723
2026-01-03 07:03:31.23	250.41	6.09	-52.0	-71.0	3.8	8.46e-01	0	38	104	0	75	32467
2026-01-03 07:03:32.24	250.22	6.14	-52.3	-71.2	3.8	8.48e-01	0	38	104	0	75	33026
2026-01-03 07:03:33.24	250.03	6.19	-51.9	-71.0	3.8	8.47e-01	0	38	104	0	75	32276
2026-01-03 07:03:34.24	249.84	6.25	-52.1	-71.1	3.8	8.47e-01	0	39	104	0	74	34544
2026-01-03 07:03:35.25	249.65	6.30	-52.1	-71.1	3.8	8.46e-01	0	38	104	0	74	34566
2026-01-03 07:03:36.25	249.46	6.35	-52.0	-71.0	3.8	8.46e-01	0	38	104	0	74	34226
2026-01-03 07:03:37.26	249.26	6.41	-52.1	-71.2	3.8	8.46e-01	0	38	104	0	75	33128
2026-01-03 07:03:38.26	249.07	6.46	-51.9	-71.0	3.8	8.46e-01	0	38	104	0	75	32380
2026-01-03 07:03:39.27	248.87	6.51	-51.9	-70.9	3.8	8.47e-01	0	39	104	0	75	32158
2026-01-03 07:03:40.27	248.67	6.57	-51.9	-70.9	3.8	8.47e-01	0	38	104	0	75	32118
2026-01-03 07:03:41.28	248.47	6.62	-51.9	-70.8	3.8	8.47e-01	0	38	104	0	75	31802
2026-01-03 07:03:42.28	248.28	6.67	-52.1	-71.1	3.8	8.46e-01	0	38	104	0	75	32744
2026-01-03 07:03:43.28	248.08	6.72	-52.2	-71.2	3.8	8.47e-01	0	38	104	0	75	33031
2026-01-03 07:03:44.29	247.87	6.78	-52.2	-71.2	3.8	8.47e-01	0	38	104	0	75	33117
2026-01-03 07:03:45.29	247.67	6.83	-52.2	-71.2	3.8	8.47e-01	0	38	104	0	75	33294
2026-01-03 07:03:46.30	247.47	6.88	-52.2	-71.2	3.8	8.47e-01	0	38	104	0	75	33287
2026-01-03 07:03:47.30	247.26	6.93	-52.1	-71.1	3.8	8.47e-01	0	38	104	0	75	32921
2026-01-03 07:03:48.30	247.06	6.99	-52.1	-71.1	3.8	8.47e-01	0	38	104	0	75	32899
2026-01-03 07:03:49.31	246.85	7.04	-51.9	-70.8	3.8	8.46e-01	0	38	104	0	75	31501
2026-01-03 07:03:50.32	246.64	7.09	-51.9	-70.6	3.8	8.46e-01	0	38	104	0	75	31083
2026-01-03 07:03:51.32	246.43	7.14	-51.9	-70.6	3.8	8.47e-01	0	38	104	0	75	30814
2026-01-03 07:03:52.32	246.23	7.20	-51.9	-70.6	3.8	8.47e-01	0	38	104	0	75	31072
2026-01-03 07:03:53.33	246.01	7.25	-51.9	-70.7	3.8	8.47e-01	0	39	104	0	75	31334
2026-01-03 07:03:54.33	245.80	7.30	-51.9	-70.8	3.8	8.47e-01	0	39	104	0	75	31532
2026-01-03 07:03:55.34	245.59	7.35	-51.9	-70.8	3.8	8.48e-01	0	39	104	0	75	31518
2026-01-03 07:03:56.34	245.38	7.40	-51.9	-70.8	3.8	8.47e-01	0	39	104	0	75	31671
2026-01-03 07:03:57.35	245.16	7.45	-51.9	-70.8	3.8	8.47e-01	0	39	104	0	75	31787
2026-01-03 07:03:58.35	244.94	7.50	-51.9	-70.8	3.8	8.45e-01	0	38	104	0	75	31756
2026-01-03 07:03:59.36	244.73	7.55	-51.9	-70.7	3.8	8.47e-01	0	38	104	0	75	31294
2026-01-03 07:04:00.36	244.51	7.61	-51.9	-70.6	3.8	8.47e-01	0	39	104	0	75	31023
2026-01-03 07:04:01.36	244.29	7.66	-51.9	-70.7	3.8	8.48e-01	0	39	104	0	75	31138
2026-01-03 07:04:02.37	244.07	7.71	-51.9	-70.7	3.8	8.48e-01	0	39	104	0	75	31260
2026-01-03 07:04:03.37	243.85	7.76	-51.9	-70.7	3.8	8.48e-01	0	38	104	0	75	31307
2026-01-03 07:04:04.38	243.63	7.81	-51.9	-70.7	3.8	8.47e-01	0	39	104	0	75	31118
2026-01-03 07:04:05.38	243.40	7.86	-51.9	-70.7	3.8	8.47e-01	0	38	104	0	75	31382
2026-01-03 07:04:06.39	243.18	7.91	-51.9	-70.8	3.8	8.47e-01	0	39	104	0	75	31797
2026-01-03 07:04:07.39	242.95	7.96	-52.0	-70.9	3.8	8.47e-01	0	39	104	0	75	32138
2026-01-03 07:04:08.40	242.73	8.01	-51.9	-70.9	3.8	8.47e-01	0	39	104	0	75	32154
2026-01-03 07:04:09.40	242.50	8.06	-51.9	-71.0	3.8	8.47e-01	0	39	104	0	75	32182
2026-01-03 07:04:10.41	242.27	8.10	-51.9	-70.9	3.8	8.46e-01	0	39	104	0	75	32137
2026-01-03 07:04:11.41	242.04	8.15	-51.9	-70.9	3.8	8.47e-01	0	39	104	0	75	32167
2026-01-03 07:04:12.41	241.81	8.20	-51.9	-70.9	3.8	8.47e-01	0	39	104	0	75	32132
2026-01-03 07:04:13.42	241.58	8.25	-51.9	-70.9	3.8	8.47e-01	0	39	104	0	75	31927
2026-01-03 07:04:14.42	241.35	8.30	-51.9	-70.6	3.8	8.47e-01	0	39	104	0	75	30959
2026-01-03 07:04:15.42	241.11	8.35	-51.9	-70.1	3.8	8.48e-01	0	39	104	0	75	29343
2026-01-03 07:04:16.43	240.88	8.39	-51.9	-69.8	3.8	8.48e-01	0	39	104	0	75	28072
2026-01-03 07:04:17.43	240.64	8.44	-51.9	-70.2	3.8	8.46e-01	0	39	104	0	75	29354
2026-01-03 07:04:18.44	240.40	8.49	-51.9	-70.7	3.8	8.47e-01	0	39	104	0	75	31089
2026-01-03 07:04:19.44	240.17	8.54	-51.9	-70.7	3.8	8.47e-01	0	39	104	0	75	31398
2026-01-03 07:04:20.45	239.93	8.58	-52.0	-70.4	3.8	8.46e-01	0	39	104	0	75	30296
2026-01-03 07:04:21.45	239.69	8.63	-51.9	-70.4	3.8	8.46e-01	0	39	104	0	75	30312
2026-01-03 07:04:22.45	239.45	8.68	-52.0	-70.7	3.8	8.46e-01	0	39	104	0	75	31216
2026-01-03 07:04:23.46	239.20	8.72	-52.0	-70.6	3.8	8.47e-01	0	39	104	0	75	30963
2026-01-03 07:04:24.46	238.96	8.77	-52.0	-70.6	3.8	8.47e-01	0	38	104	0	75	30787
2026-01-03 07:04:25.47	238.71	8.82	-52.0	-70.8	3.8	8.47e-01	0	39	104	0	75	31684
2026-01-03 07:04:26.47	238.47	8.86	-51.9	-70.0	3.8	8.49e-01	0	39	104	0	75	28891
2026-01-03 07:04:27.47	238.22	8.91	-51.8	-67.1	4.2	8.47e-01	0	39	0	0	75	20648
2026-01-03 07:04:28.48	237.98	8.95	-51.6	-63.4	6.2	7.72e-01	0	39	0	0	75	13558
2026-01-03 07:04:29.49	237.73	9.00	-51.1	-59.9	9.6	7.72e-01	0	39	0	0	74	9567
2026-01-03 07:04:30.49	237.48	9.04	-50.4	-57.0	12.7	1.01e-01	0	39	0	0	72	7688
2026-01-03 07:04:31.49	237.23	9.08	-51.0	-58.9	11.5	3.56e-04	0	39	0	0	72	9582
2026-01-03 07:04:32.50	236.97	9.13	-51.0	-59.2	10.0	3.56e-04	0	39	0	0	73	9340
2026-01-03 07:04:33.50	236.72	9.17	-48.1	-51.8	18.0	7.05e-02	0	39	0	0	68	5308
2026-01-03 07:04:34.50	236.47	9.21	-49.0	-53.5	17.5	1.10e-06	0	39	0	0	68	6462
2026-01-03 07:04:35.50	236.22	9.26	-49.9	-55.2	12.9	1.10e-06	0	39	0	0	71	6642
2026-01-03 07:04:36.50	235.96	9.30	-45.9	-48.7	21.4	2.36e-01	0	39	0	0	63	4935
2026-01-03 07:04:37.50	235.71	9.34	-46.0	-48.9	21.2	0.00e+00	0	39	0	0	63	5051
2026-01-03 07:04:38.51	235.45	9.38	-45.5	-48.3	21.5	0.00e+00	0	39	0	0	63	4711
2026-01-03 07:04:39.51	235.19	9.42	-45.0	-47.6	22.1	0.00e+00	0	38	0	0	62	4643
2026-01-03 07:04:40.51	234.93	9.47	-45.7	-48.4	21.4	0.00e+00	0	39	0	0	62	5089
2026-01-03 07:04:41.51	234.67	9.51	-45.2	-47.8	22.1	0.00e+00	0	38	0	0	62	4729
2026-01-03 07:04:42.52	234.41	9.55	-45.1	-47.7	22.2	0.00e+00	0	39	0	0	62	4692
2026-01-03 07:04:43.52	234.14	9.59	-44.9	-47.4	22.7	0.00e+00	0	39	0	0	61	4780
2026-01-03 07:04:44.52	233.88	9.63	-44.3	-46.8	23.0	0.00e+00	0	39	0	0	60	4707
2026-01-03 07:04:45.53	233.62	9.67	-44.4	-46.9	22.8	0.00e+00	0	39	0	0	60	4798
2026-01-03 07:04:46.53	233.35	9.71	-44.0	-46.4	23.4	0.00e+00	0	39	0	0	60	4526
2026-01-03 07:04:47.53	233.09	9.75	-44.1	-46.5	23.3	0.00e+00	0	39	0	0	59	4865
2026-01-03 07:04:48.53	232.82	9.78	-44.3	-46.8	23.2	0.00e+00	0	39	0	0	59	4986
2026-01-03 07:04:49.54	232.55	9.82	-44.1	-46.5	23.4	0.00e+00	0	38	0	0	59	4844
2026-01-03 07:04:50.54	232.28	9.86	-44.2	-46.6	23.2	1.10e-06	0	39	0	0	58	5183
2026-01-03 07:04:51.54	232.01	9.90	-44.3	-46.7	23.2	1.10e-06	0	39	0	0	59	4980
2026-01-03 07:04:52.54	231.74	9.93	-43.8	-46.2	23.5	0.00e+00	0	39	0	0	59	4696
2026-01-03 07:04:53.55	231.47	9.97	-44.2	-46.6	23.6	0.00e+00	0	39	0	0	59	4910
2026-01-03 07:04:54.55	231.20	10.01	-44.2	-46.5	23.7	0.00e+00	0	39	0	0	59	4850
2026-01-03 07:04:55.55	230.92	10.04	-44.5	-46.9	23.5	0.00e+00	0	38	0	0	59	5088
2026-01-03 07:04:56.55	230.65	10.08	-44.5	-46.9	23.4	0.00e+00	0	38	0	0	59	5057
2026-01-03 07:04:57.56	230.37	10.11	-44.6	-47.0	23.5	0.00e+00	0	39	0	0	59	5141
2026-01-03 07:04:58.56	230.10	10.15	-44.5	-46.8	23.6	0.00e+00	0	38	0	0	59	5029
2026-01-03 07:04:59.57	229.82	10.18	-44.2	-46.6	23.8	0.00e+00	0	39	0	0	59	4876
2026-01-03 07:05:00.57	229.54	10.21	-44.2	-46.5	23.9	0.00e+00	0	39	0	0	59	4839
2026-01-03 07:05:01.57	229.26	10.25	-44.3	-46.6	23.9	0.00e+00	0	39	0	0	59	4906
2026-01-03 07:05:02.57	228.98	10.28	-43.9	-46.2	24.1	0.00e+00	0	39	0	0	59	4697
2026-01-03 07:05:03.58	228.70	10.31	-44.0	-46.2	24.1	0.00e+00	0	38	0	0	59	4699
2026-01-03 07:05:04.58	228.42	10.34	-44.0	-46.3	24.0	0.00e+00	0	38	0	0	59	4729
2026-01-03 07:05:05.58	228.14	10.37	-44.1	-46.4	23.9	0.00e+00	0	38	0	0	59	4797
2026-01-03 07:05:06.58	227.85	10.40	-44.2	-46.5	23.7	0.00e+00	0	38	0	0	59	4854
2026-01-03 07:05:07.98	227.46	10.45	-43.9	-46.2	23.7	0.00e+00	0	39	0	0	59	4690
2026-01-03 07:05:08.70	227.25	10.47	-44.5	-46.9	23.5	0.00e+00	0	39	0	0	59	5057
2026-01-03 07:05:09.99	226.89	10.51	-44.5	-46.9	23.3	0.00e+00	0	39	0	0	59	5070
2026-01-03 07:05:10.70	226.68	10.53	-44.5	-46.9	23.4	0.00e+00	0	39	0	0	59	5066
2026-01-03 07:05:11.99	226.31	10.56	-44.1	-46.5	23.6	0.00e+00	0	38	0	0	59	4828
2026-01-03 07:05:12.71	226.11	10.58	-44.2	-46.5	23.6	0.00e+00	0	39	0	0	59	4855
2026-01-03 07:05:14.00	225.74	10.62	-43.7	-46.0	24.1	0.00e+00	0	38	0	0	59	4566
2026-01-03 07:05:14.71	225.53	10.64	-43.6	-45.8	24.3	0.00e+00	0	39	0	0	58	4734
2026-01-03 07:05:16.08	225.13	10.67	-43.3	-45.5	24.5	0.00e+00	0	39	0	0	58	4560
2026-01-03 07:05:16.80	224.93	10.69	-43.5	-45.7	24.4	0.00e+00	0	38	0	0	58	4689
2026-01-03 07:05:18.17	224.53	10.72	-43.3	-45.5	24.3	0.00e+00	0	38	0	0	58	4592
2026-01-03 07:05:18.89	224.32	10.74	-43.6	-45.9	24.0	0.00e+00	0	39	0	0	58	4799
2026-01-03 07:05:20.24	223.92	10.77	-43.5	-45.7	24.3	0.00e+00	0	39	0	0	58	4702
2026-01-03 07:05:20.96	223.71	10.79	-43.2	-45.5	24.5	0.00e+00	0	38	0	0	58	4548
2026-01-03 07:05:22.25	223.33	10.82	-43.4	-45.6	24.4	0.00e+00	0	39	0	0	58	4647
2026-01-03 07:05:22.97	223.12	10.84	-43.4	-45.7	24.3	0.00e+00	0	39	0	0	58	4670
2026-01-03 07:05:24.25	222.74	10.86	-43.7	-46.0	23.9	0.00e+00	0	38	0	0	58	4870
2026-01-03 07:05:24.97	222.53	10.88	-44.0	-46.3	23.7	0.00e+00	0	39	0	0	58	5040
2026-01-03 07:05:26.26	222.15	10.91	-44.0	-46.5	23.5	0.00e+00	0	38	0	0	59	4824
2026-01-03 07:05:26.98	221.94	10.92	-43.8	-46.2	23.8	0.00e+00	0	39	0	0	59	4654
2026-01-03 07:05:28.27	221.55	10.95	-43.3	-45.6	24.2	0.00e+00	0	39	0	0	58	4631
2026-01-03 07:05:28.99	221.34	10.96	-43.4	-45.7	24.1	0.00e+00	0	39	0	0	58	4682
2026-01-03 07:05:30.27	220.96	10.98	-43.8	-46.1	23.9	1.10e-06	0	39	0	0	58	4920
2026-01-03 07:05:30.99	220.74	11.00	-43.9	-46.3	23.8	1.10e-06	0	39	0	0	58	5003
2026-01-03 07:05:32.28	220.36	11.02	-43.8	-46.2	23.9	1.10e-06	0	39	0	0	58	4948
2026-01-03 07:05:33.00	220.14	11.03	-43.8	-46.2	23.9	0.00e+00	0	39	0	0	58	4945
2026-01-03 07:05:34.29	219.76	11.05	-43.9	-46.2	23.9	0.00e+00	0	39	0	0	58	4954
2026-01-03 07:05:35.01	219.54	11.06	-43.6	-45.9	24.2	0.00e+00	0	39	0	0	58	4785
2026-01-03 07:05:36.29	219.16	11.08	-43.6	-45.8	24.3	0.00e+00	0	38	0	0	58	4742
2026-01-03 07:05:37.01	218.94	11.09	-43.6	-45.8	24.2	0.00e+00	0	39	0	0	58	4743
2026-01-03 07:05:38.30	218.55	11.11	-43.3	-45.5	24.4	0.00e+00	0	39	0	0	58	4583
2026-01-03 07:05:39.01	218.34	11.12	-43.4	-45.7	24.3	0.00e+00	0	39	0	0	58	4652
2026-01-03 07:05:40.30	217.95	11.14	-43.3	-45.5	24.4	0.00e+00	0	39	0	0	58	4585
2026-01-03 07:05:41.02	217.73	11.14	-43.3	-45.5	24.3	0.00e+00	0	39	0	0	58	4586
2026-01-03 07:05:42.30	217.34	11.16	-43.2	-45.4	24.5	0.00e+00	0	39	0	0	58	4529
2026-01-03 07:05:43.02	217.12	11.17	-43.1	-45.3	24.5	0.00e+00	0	39	0	0	58	4486
2026-01-03 07:05:44.31	216.73	11.18	-43.5	-45.7	24.3	0.00e+00	0	38	0	0	58	4679
2026-01-03 07:05:45.02	216.52	11.19	-43.6	-45.9	24.2	0.00e+00	0	39	0	0	58	4763
2026-01-03 07:05:46.31	216.12	11.20	-43.5	-45.7	24.4	0.00e+00	0	39	0	0	58	4684
2026-01-03 07:05:47.03	215.91	11.20	-43.5	-45.8	24.4	0.00e+00	0	39	0	0	58	4726
2026-01-03 07:05:48.31	215.52	11.21	-43.5	-45.7	24.3	0.00e+00	0	38	0	0	58	4701
2026-01-03 07:05:49.03	215.30	11.22	-43.7	-45.9	24.2	0.00e+00	0	39	0	0	58	4785
2026-01-03 07:05:50.32	214.90	11.23	-43.6	-45.8	24.4	0.00e+00	0	39	0	0	58	4732
2026-01-03 07:05:51.04	214.68	11.23	-43.4	-45.6	24.5	0.00e+00	0	39	0	0	58	4646
2026-01-03 07:05:52.33	214.29	11.24	-43.3	-45.4	24.7	0.00e+00	0	39	0	0	58	4536
2026-01-03 07:05:53.05	214.07	11.24	-43.3	-45.5	24.6	0.00e+00	0	38	0	0	58	4583
2026-01-03 07:05:54.33	213.68	11.25	-43.5	-45.7	24.3	0.00e+00	0	39	0	0	58	4695
2026-01-03 07:05:55.05	213.46	11.25	-43.4	-45.6	24.3	0.00e+00	0	39	0	0	58	4632
2026-01-03 07:05:56.34	213.06	11.25	-43.0	-45.2	24.6	0.00e+00	0	39	0	0	58	4441
2026-01-03 07:05:57.07	212.84	11.25	-42.9	-45.1	24.5	0.00e+00	0	38	0	0	57	4641
2026-01-03 07:05:58.68	212.35	11.26	-43.5	-45.8	24.2	0.00e+00	0	39	0	0	57	5006
2026-01-03 07:05:59.53	212.09	11.26	-43.7	-46.0	24.0	0.00e+00	0	39	0	0	58	4838
2026-01-03 07:06:00.67	211.74	11.26	-43.6	-45.9	24.0	0.00e+00	0	39	0	0	58	4794
2026-01-03 07:06:01.53	211.48	11.26	-43.5	-45.8	24.2	0.00e+00	0	39	0	0	58	4724
2026-01-03 07:06:02.68	211.13	11.25	-43.5	-45.8	24.2	0.00e+00	0	39	0	0	58	4721
2026-01-03 07:06:03.54	210.86	11.25	-43.6	-45.9	24.0	0.00e+00	0	39	0	0	58	4787
2026-01-03 07:06:04.68	210.51	11.25	-43.6	-46.0	23.8	0.00e+00	0	39	0	0	58	4823
2026-01-03 07:06:05.54	210.25	11.25	-43.8	-46.1	23.8	0.00e+00	0	38	0	0	58	4897
2026-01-03 07:06:06.69	209.90	11.24	-43.7	-46.0	24.1	0.00e+00	0	39	0	0	58	4821
2026-01-03 07:06:07.55	209.64	11.24	-43.6	-45.9	24.2	0.00e+00	0	39	0	0	58	4761
2026-01-03 07:06:08.69	209.29	11.23	-43.8	-46.1	23.9	0.00e+00	0	39	0	0	58	4899
2026-01-03 07:06:09.71	208.98	11.23	-43.9	-46.2	23.8	0.00e+00	0	39	0	0	58	4968
2026-01-03 07:06:10.89	208.62	11.22	-43.8	-46.1	23.7	0.00e+00	0	39	0	0	58	4926
2026-01-03 07:06:11.75	208.36	11.21	-43.6	-45.9	23.9	0.00e+00	0	39	0	0	58	4774
2026-01-03 07:06:13.10	207.95	11.20	-43.4	-45.7	24.0	0.00e+00	0	39	0	0	58	4670
2026-01-03 07:06:13.82	207.73	11.20	-43.5	-45.8	24.1	0.00e+00	0	39	0	0	58	4709
2026-01-03 07:06:15.11	207.33	11.19	-43.7	-46.0	24.0	0.00e+00	0	39	0	0	58	4817
2026-01-03 07:06:15.82	207.12	11.18	-43.4	-45.6	24.4	0.00e+00	0	39	0	0	58	4637
2026-01-03 07:06:17.11	206.73	11.17	-43.2	-45.4	24.5	0.00e+00	0	38	0	0	58	4539
2026-01-03 07:06:17.91	206.48	11.16	-43.2	-45.5	24.5	0.00e+00	0	39	0	0	58	4565
2026-01-03 07:06:19.08	206.13	11.14	-43.4	-45.7	24.3	0.00e+00	0	38	0	0	58	4653
2026-01-03 07:06:20.10	205.82	11.13	-43.4	-45.6	24.2	0.00e+00	0	38	0	0	58	4651
2026-01-03 07:06:21.28	205.46	11.12	-43.2	-45.4	24.4	0.00e+00	0	39	0	0	58	4537
2026-01-03 07:06:22.14	205.20	11.11	-43.2	-45.4	24.4	0.00e+00	0	39	0	0	58	4515
2026-01-03 07:06:23.49	204.80	11.09	-43.2	-45.4	24.4	0.00e+00	0	39	0	0	58	4526
2026-01-03 07:06:24.21	204.58	11.08	-43.2	-45.4	24.4	0.00e+00	0	38	0	0	58	4531
2026-01-03 07:06:25.50	204.19	11.06	-43.2	-45.5	24.3	0.00e+00	0	39	0	0	58	4552
2026-01-03 07:06:26.22	203.98	11.05	-43.2	-45.5	24.3	0.00e+00	0	38	0	0	58	4574
2026-01-03 07:06:27.77	203.51	11.02	-43.0	-45.2	24.6	0.00e+00	0	39	0	0	58	4423
2026-01-03 07:06:28.48	203.30	11.01	-43.2	-45.5	24.3	0.00e+00	0	39	0	0	58	4578
2026-01-03 07:06:29.78	202.91	10.98	-43.4	-45.7	24.1	0.00e+00	0	38	0	0	58	4686
2026-01-03 07:06:30.49	202.70	10.97	-43.6	-45.9	24.0	0.00e+00	0	39	0	0	58	4802
2026-01-03 07:06:31.78	202.31	10.95	-43.7	-46.0	24.0	0.00e+00	0	38	0	0	58	4836
2026-01-03 07:06:32.50	202.10	10.93	-43.5	-45.8	24.1	0.00e+00	0	38	0	0	58	4725
2026-01-03 07:06:33.79	201.72	10.91	-43.4	-45.7	24.1	0.00e+00	0	39	0	0	58	4680
2026-01-03 07:06:34.51	201.50	10.89	-43.6	-45.9	24.0	0.00e+00	0	38	0	0	58	4777
2026-01-03 07:06:35.80	201.12	10.87	-43.7	-46.0	23.9	0.00e+00	0	39	0	0	58	4852
2026-01-03 07:06:36.52	200.91	10.85	-43.7	-46.1	23.8	0.00e+00	0	38	0	0	58	4875
2026-01-03 07:06:37.81	200.53	10.82	-43.7	-46.0	23.8	0.00e+00	0	39	0	0	58	4866
2026-01-03 07:06:38.68	200.27	10.80	-43.5	-45.8	24.1	0.00e+00	0	39	0	0	58	4728
2026-01-03 07:06:40.14	199.85	10.77	-43.3	-45.6	24.1	0.00e+00	0	39	0	0	58	4643
2026-01-03 07:06:41.26	199.52	10.74	-43.2	-45.5	24.3	0.00e+00	0	39	0	0	58	4560
2026-01-03 07:06:42.12	199.27	10.72	-43.1	-45.4	24.4	0.00e+00	0	39	0	0	58	4511
2026-01-03 07:06:43.26	198.94	10.69	-43.1	-45.3	24.4	0.00e+00	0	38	0	0	58	4489
2026-01-03 07:06:44.12	198.69	10.67	-42.8	-45.0	24.6	0.00e+00	0	38	0	0	57	4579
2026-01-03 07:06:45.35	198.33	10.64	-42.7	-45.0	24.6	0.00e+00	0	39	0	0	57	4558
2026-01-03 07:06:46.21	198.08	10.61	-42.9	-45.2	24.4	0.00e+00	0	39	0	0	57	4664
2026-01-03 07:06:47.36	197.75	10.58	-43.0	-45.3	24.3	0.00e+00	0	39	0	0	57	4749
2026-01-03 07:06:48.21	197.51	10.56	-43.0	-45.3	24.5	0.00e+00	0	39	0	0	57	4728
2026-01-03 07:06:49.36	197.18	10.53	-43.4	-45.7	24.2	0.00e+00	0	38	0	0	57	4970
2026-01-03 07:06:50.22	196.93	10.50	-43.5	-45.8	24.0	0.00e+00	0	38	0	0	57	5041
2026-01-03 07:06:51.36	196.60	10.47	-43.5	-45.9	24.1	0.00e+00	0	39	0	0	57	5060
2026-01-03 07:06:52.30	196.34	10.44	-43.6	-45.9	24.0	0.00e+00	0	39	0	0	57	5096
2026-01-03 07:06:53.48	196.00	10.41	-43.6	-46.0	23.9	0.00e+00	0	39	0	0	58	4827
2026-01-03 07:06:54.34	195.76	10.38	-43.4	-45.7	24.1	0.00e+00	0	39	0	0	58	4703
2026-01-03 07:06:55.49	195.43	10.34	-43.3	-45.6	24.2	0.00e+00	0	38	0	0	58	4614
2026-01-03 07:06:56.35	195.19	10.32	-43.3	-45.6	24.2	0.00e+00	0	39	0	0	58	4619
2026-01-03 07:06:57.49	194.87	10.28	-43.2	-45.6	24.2	0.00e+00	0	39	0	0	58	4601
2026-01-03 07:06:58.35	194.63	10.25	-43.2	-45.5	24.3	0.00e+00	0	39	0	0	58	4560
2026-01-03 07:06:59.50	194.31	10.21	-43.2	-45.5	24.2	0.00e+00	0	39	0	0	58	4582
2026-01-03 07:07:00.35	194.07	10.19	-43.2	-45.6	24.1	0.00e+00	0	39	0	0	58	4606
2026-01-03 07:07:01.50	193.75	10.15	-43.0	-45.3	24.3	0.00e+00	0	38	0	0	58	4467
2026-01-03 07:07:02.36	193.52	10.12	-43.0	-45.3	24.4	0.00e+00	0	38	0	0	58	4479
2026-01-03 07:07:03.50	193.20	10.08	-43.3	-45.6	24.0	0.00e+00	0	39	0	0	58	4639
2026-01-03 07:07:04.37	192.96	10.05	-43.3	-45.7	24.0	0.00e+00	0	39	0	0	58	4685
2026-01-03 07:07:05.51	192.65	10.01	-43.6	-46.0	23.7	0.00e+00	0	38	0	0	58	4869
2026-01-03 07:07:06.37	192.42	9.98	-43.8	-46.2	23.6	0.00e+00	0	38	0	0	58	4940
2026-01-03 07:07:07.52	192.10	9.93	-43.8	-46.3	23.5	0.00e+00	0	38	0	0	58	5008
2026-01-03 07:07:08.38	191.87	9.90	-43.9	-46.5	23.4	0.00e+00	0	39	0	0	58	5101
2026-01-03 07:07:09.67	191.52	9.85	-43.8	-46.4	23.5	0.00e+00	0	38	0	0	58	5069
2026-01-03 07:07:10.39	191.33	9.83	-43.7	-46.3	23.6	0.00e+00	0	38	0	0	58	4995
2026-01-03 07:07:11.68	190.98	9.78	-43.7	-46.2	23.8	0.00e+00	0	39	0	0	58	4930
2026-01-03 07:07:12.39	190.79	9.75	-43.7	-46.1	23.8	0.00e+00	0	39	0	0	58	4919
2026-01-03 07:07:13.68	190.45	9.70	-43.9	-46.3	23.7	0.00e+00	0	38	0	0	58	5038
2026-01-03 07:07:14.40	190.26	9.67	-43.9	-46.4	23.7	0.00e+00	0	39	0	0	58	5054
2026-01-03 07:07:15.69	189.92	9.62	-43.9	-46.3	23.7	0.00e+00	0	38	0	0	58	5026
2026-01-03 07:07:16.40	189.73	9.59	-43.9	-46.3	23.7	0.00e+00	0	38	0	0	58	5014
2026-01-03 07:07:17.69	189.39	9.54	-43.8	-46.2	23.8	0.00e+00	0	38	0	0	58	4948
2026-01-03 07:07:18.57	189.16	9.51	-43.8	-46.2	23.8	0.00e+00	0	39	0	0	58	4958
2026-01-03 07:07:19.72	188.86	9.46	-43.9	-46.3	23.7	0.00e+00	0	39	0	0	58	5025
2026-01-03 07:07:20.83	188.57	9.41	-43.9	-46.3	23.7	0.00e+00	0	38	0	0	58	5025
2026-01-03 07:07:21.69	188.35	9.38	-43.9	-46.3	23.7	0.00e+00	0	39	0	0	58	5016
2026-01-03 07:07:23.17	187.97	9.32	-44.0	-46.5	23.5	0.00e+00	0	38	0	0	58	5109
2026-01-03 07:07:23.89	187.79	9.28	-44.0	-46.4	23.5	0.00e+00	0	38	0	0	58	5065
2026-01-03 07:07:25.17	187.46	9.23	-44.1	-46.5	23.5	0.00e+00	0	38	0	0	58	5148
2026-01-03 07:07:25.89	187.28	9.20	-44.0	-46.4	23.6	0.00e+00	0	38	0	0	58	5068
2026-01-03 07:07:27.18	186.95	9.14	-43.9	-46.3	23.7	0.00e+00	0	39	0	0	58	5002
2026-01-03 07:07:27.97	186.75	9.11	-43.9	-46.3	23.6	0.00e+00	0	39	0	0	58	5015
2026-01-03 07:07:29.12	186.46	9.06	-44.0	-46.4	23.6	0.00e+00	0	39	0	0	58	5044
2026-01-03 07:07:30.21	186.19	9.01	-44.1	-46.4	23.5	0.00e+00	0	39	0	0	58	5091
2026-01-03 07:07:31.24	185.94	8.96	-51.9	-70.4	3.8	0.00e+00	0	38	104	0	74	31915
2026-01-03 07:07:32.41	185.65	8.91	-52.0	-70.9	3.8	5.94e-01	0	39	104	0	75	32168
2026-01-03 07:07:33.31	185.42	8.87	-52.5	-71.5	3.8	5.94e-01	0	38	104	0	75	34103
2026-01-03 07:07:34.52	185.13	8.82	-52.5	-71.5	3.8	8.46e-01	0	38	104	0	75	34192
2026-01-03 07:07:35.38	184.92	8.78	-52.8	-71.6	3.9	8.47e-01	0	39	104	0	76	32558
2026-01-03 07:07:36.70	184.60	8.72	-52.8	-71.7	3.8	8.47e-01	0	38	104	0	76	32942
2026-01-03 07:07:37.42	184.42	8.68	-52.8	-71.7	3.8	8.47e-01	0	38	104	0	76	33119
2026-01-03 07:07:38.71	184.11	8.62	-52.9	-71.7	3.8	8.48e-01	0	38	104	0	76	33004
2026-01-03 07:07:39.43	183.94	8.59	-52.9	-71.7	3.8	8.48e-01	0	38	104	0	76	33212
2026-01-03 07:07:40.72	183.63	8.53	-53.0	-71.7	3.8	8.48e-01	0	39	104	0	76	33132
2026-01-03 07:07:41.44	183.46	8.50	-53.0	-71.7	3.8	8.47e-01	0	39	104	0	76	33193
2026-01-03 07:07:42.73	183.15	8.43	-53.0	-71.7	3.8	8.46e-01	0	39	104	0	76	33246
2026-01-03 07:07:43.44	182.98	8.40	-52.9	-71.7	3.8	8.46e-01	0	39	104	0	76	33038
2026-01-03 07:07:44.74	182.68	8.34	-53.0	-71.7	3.8	8.47e-01	0	39	104	0	76	33104
2026-01-03 07:07:45.45	182.51	8.30	-52.8	-71.7	3.8	8.46e-01	0	38	104	0	76	32980
2026-01-03 07:07:46.75	182.21	8.24	-53.0	-71.7	3.8	8.46e-01	0	38	104	0	76	32963
2026-01-03 07:07:47.46	182.05	8.21	-52.9	-71.6	3.8	8.46e-01	0	38	104	0	76	32920
2026-01-03 07:07:48.77	181.74	8.14	-52.8	-71.6	3.8	8.47e-01	0	39	104	0	76	32926
2026-01-03 07:07:49.49	181.58	8.11	-52.9	-71.7	3.8	8.46e-01	0	38	104	0	76	33077
2026-01-03 07:07:50.87	181.26	8.04	-53.0	-71.7	3.8	8.46e-01	0	38	104	0	76	33143
2026-01-03 07:07:51.59	181.10	8.01	-53.0	-71.7	3.8	8.47e-01	0	38	104	0	76	33107
2026-01-03 07:07:52.88	180.81	7.94	-52.8	-71.7	3.8	8.48e-01	0	39	104	0	76	33206
2026-01-03 07:07:53.60	180.64	7.91	-52.9	-71.7	3.8	8.48e-01	0	38	104	0	76	33202
2026-01-03 07:07:54.89	180.36	7.84	-53.0	-71.7	3.8	8.46e-01	0	39	104	0	76	33165
2026-01-03 07:07:55.61	180.19	7.81	-52.9	-71.7	3.8	8.47e-01	0	39	104	0	76	33273
2026-01-03 07:07:56.90	179.91	7.74	-52.8	-71.7	3.8	8.46e-01	0	38	104	0	76	33000
2026-01-03 07:07:57.62	179.75	7.71	-52.7	-71.6	3.8	8.46e-01	0	39	104	0	76	32877
2026-01-03 07:07:58.91	179.46	7.64	-52.7	-71.6	3.8	8.47e-01	0	38	104	0	76	32770
2026-01-03 07:07:59.63	179.31	7.60	-52.7	-71.6	3.8	8.47e-01	0	39	104	0	76	32881
2026-01-03 07:08:00.92	179.03	7.54	-52.7	-71.6	3.8	8.48e-01	0	39	104	0	76	32883
2026-01-03 07:08:01.64	178.87	7.50	-52.7	-71.6	3.8	8.48e-01	0	38	104	0	76	32894
2026-01-03 07:08:02.93	178.59	7.44	-52.7	-71.6	3.8	8.46e-01	0	38	104	0	76	32919
2026-01-03 07:08:03.64	178.44	7.40	-52.7	-71.6	3.8	8.46e-01	0	39	104	0	76	32890
2026-01-03 07:08:04.94	178.16	7.33	-52.7	-71.6	3.8	8.48e-01	0	38	104	0	76	32887
2026-01-03 07:08:05.65	178.01	7.30	-52.7	-71.6	3.8	8.47e-01	0	39	104	0	76	32845
2026-01-03 07:08:06.94	177.74	7.23	-52.7	-71.6	3.8	8.46e-01	0	39	104	0	76	32927
2026-01-03 07:08:07.66	177.59	7.19	-52.7	-71.7	3.8	8.46e-01	0	38	104	0	76	32931
2026-01-03 07:08:08.95	177.31	7.13	-52.7	-71.6	3.8	8.46e-01	0	38	104	0	76	32860
2026-01-03 07:08:09.67	177.16	7.09	-52.7	-71.7	3.8	8.46e-01	0	39	104	0	76	32984
2026-01-03 07:08:10.96	176.90	7.02	-52.7	-71.6	3.8	8.46e-01	0	39	104	0	76	32843
2026-01-03 07:08:11.68	176.75	6.98	-52.7	-71.6	3.8	8.47e-01	0	39	104	0	76	32817
2026-01-03 07:08:12.97	176.48	6.92	-52.7	-71.7	3.8	8.46e-01	0	39	104	0	76	32937
2026-01-03 07:08:13.69	176.34	6.88	-52.7	-71.6	3.8	8.46e-01	0	38	104	0	76	32826
2026-01-03 07:08:14.98	176.07	6.81	-52.7	-71.6	3.8	8.47e-01	0	38	104	0	76	32871
2026-01-03 07:08:15.70	175.93	6.77	-52.7	-71.6	3.8	8.47e-01	0	39	104	0	76	32925
2026-01-03 07:08:16.99	175.67	6.71	-52.7	-71.6	3.8	8.47e-01	0	38	104	0	76	32825
2026-01-03 07:08:17.71	175.52	6.67	-52.7	-71.6	3.8	8.47e-01	0	39	104	0	76	32831
2026-01-03 07:08:19.00	175.27	6.60	-52.7	-71.6	3.8	8.48e-01	0	39	104	0	76	32803
2026-01-03 07:08:19.72	175.12	6.56	-52.7	-71.6	3.8	8.48e-01	0	39	104	0	76	32901
2026-01-03 07:08:21.01	174.87	6.49	-52.7	-71.6	3.8	8.47e-01	0	38	104	0	76	32789
2026-01-03 07:08:21.73	174.73	6.46	-52.7	-71.6	3.8	8.46e-01	0	39	104	0	76	32831
2026-01-03 07:08:23.02	174.48	6.39	-52.7	-71.6	3.8	8.47e-01	0	39	104	0	76	32886
2026-01-03 07:08:23.73	174.34	6.35	-52.7	-71.6	3.8	8.47e-01	0	39	104	0	76	32697
2026-01-03 07:08:25.02	174.09	6.28	-52.7	-71.7	3.8	8.46e-01	0	38	104	0	76	32941
2026-01-03 07:08:25.74	173.95	6.24	-52.7	-71.6	3.8	8.46e-01	0	39	104	0	76	32870
2026-01-03 07:08:27.03	173.70	6.17	-52.7	-71.6	3.8	8.46e-01	0	39	104	0	76	32826
2026-01-03 07:08:27.75	173.57	6.14	-52.7	-71.6	3.8	8.48e-01	0	39	104	0	76	32859
2026-01-03 07:08:29.04	173.32	6.07	-52.7	-71.6	3.8	8.46e-01	0	38	104	0	76	32721
2026-01-03 07:08:29.76	173.18	6.03	-52.7	-71.6	3.8	8.46e-01	0	38	104	0	76	32734
2026-01-03 07:08:31.05	172.94	5.96	-52.7	-71.6	3.8	8.48e-01	0	39	104	0	76	32810
2026-01-03 07:08:31.77	172.81	5.92	-52.7	-71.6	3.8	8.47e-01	0	39	104	0	76	32850
2026-01-03 07:08:33.06	172.57	5.85	-52.7	-71.6	3.8	8.47e-01	0	39	104	0	76	32739
2026-01-03 07:08:33.78	172.44	5.81	-52.7	-71.6	3.8	8.47e-01	0	39	104	0	76	32817
2026-01-03 07:08:35.07	172.20	5.74	-52.7	-71.6	3.8	8.48e-01	0	38	104	0	76	32922
2026-01-03 07:08:35.78	172.07	5.70	-52.7	-71.6	3.8	8.48e-01	0	39	104	0	76	32775
2026-01-03 07:08:37.07	171.83	5.64	-52.7	-71.6	3.8	8.47e-01	0	39	104	0	76	32615
2026-01-03 07:08:37.79	171.70	5.60	-52.7	-71.6	3.8	8.46e-01	0	38	104	0	76	32662
2026-01-03 07:08:39.08	171.47	5.53	-52.7	-71.6	3.8	8.47e-01	0	39	104	0	76	32794
2026-01-03 07:08:39.80	171.34	5.49	-52.7	-71.6	3.8	8.47e-01	0	39	104	0	76	32812
2026-01-03 07:08:41.09	171.11	5.42	-52.7	-71.6	3.8	8.47e-01	0	39	104	0	76	32927
2026-01-03 07:08:41.81	170.99	5.38	-52.7	-71.6	3.8	8.47e-01	0	39	104	0	76	32799
2026-01-03 07:08:43.10	170.76	5.31	-52.7	-71.6	3.8	8.46e-01	0	39	104	0	76	32703
2026-01-03 07:08:43.82	170.63	5.27	-52.7	-71.6	3.8	8.47e-01	0	39	104	0	76	32692
2026-01-03 07:08:45.11	170.41	5.20	-52.7	-71.6	3.8	8.47e-01	0	39	104	0	76	32681
2026-01-03 07:08:45.83	170.28	5.16	-52.7	-71.6	3.8	8.47e-01	0	39	104	0	76	32611
2026-01-03 07:08:47.12	170.06	5.09	-52.7	-71.6	3.8	8.47e-01	0	39	104	0	76	32626
2026-01-03 07:08:47.84	169.94	5.05	-52.7	-71.6	3.8	8.47e-01	0	39	104	0	76	32802
2026-01-03 07:08:49.13	169.72	4.98	-52.7	-71.6	3.8	8.47e-01	0	39	104	0	76	32652
2026-01-03 07:08:49.84	169.60	4.95	-52.7	-71.6	3.8	8.47e-01	0	39	104	0	76	32782

#Closed at: 2026-01-03 07:08:51
#Recorded file [0 MB]: D:/Data/31040_260103_100314.dat