passes_logs/2026/01/03/T1/T1__20260103_060921_FENGYUN_3E_rec.log

#Pass ID: 20260103_060921_FENGYUN 3E
#Satellite: FENGYUN 3E
#Configuration: FENGYUN 3E
#almurnet v.1.7.20251203
#Start time: 2026-01-03 06:09:22

#Version: 2.0.20230620
#Station: T1
#Location: 37.570604 lon 55.790049 lat
#TLE: 1 49008U 21062A   26002.32147302  .00000239  00000+0  13357-3 0  9999
#TLE: 2 49008  98.7477   7.5995 0001398 164.3382 195.7838 14.19884140233041

#Time	Az	El	Level	Level2	SNR	BER	BlckErr	Temp	State	Recorded	gain1	gain2
2026-01-03 06:09:22.84	3.39	5.07	-52.1	-64.4	3.8	8.47e-01	0	38	0	0	74	14931
2026-01-03 06:09:23.84	3.29	5.13	-48.3	-64.2	3.8	8.46e-01	0	38	104	0	65	24494
2026-01-03 06:09:24.84	3.18	5.18	-48.3	-64.3	3.8	8.47e-01	0	38	104	0	66	23385
2026-01-03 06:09:25.84	3.08	5.23	-48.2	-64.2	3.8	8.47e-01	0	39	104	0	66	23082
2026-01-03 06:09:26.84	2.98	5.29	-48.2	-64.1	3.8	8.47e-01	0	39	104	0	66	22921
2026-01-03 06:09:27.85	2.87	5.34	-48.2	-64.1	3.8	8.46e-01	0	39	104	0	66	22883
2026-01-03 06:09:28.85	2.77	5.39	-48.1	-64.1	3.8	8.48e-01	0	39	104	0	66	22883
2026-01-03 06:09:29.85	2.66	5.44	-48.1	-64.1	3.8	8.46e-01	0	39	104	0	66	22788
2026-01-03 06:09:30.85	2.56	5.50	-48.2	-64.1	3.8	8.47e-01	0	39	104	0	66	22885
2026-01-03 06:09:31.86	2.45	5.55	-48.1	-64.0	3.8	8.47e-01	0	39	104	0	66	22578
2026-01-03 06:09:32.86	2.35	5.60	-48.2	-64.1	3.8	8.46e-01	0	39	104	0	66	22808
2026-01-03 06:09:33.86	2.24	5.66	-48.1	-64.0	3.8	8.47e-01	0	39	104	0	66	22658
2026-01-03 06:09:34.86	2.14	5.71	-48.1	-64.0	3.8	8.47e-01	0	39	104	0	66	22606
2026-01-03 06:09:35.86	2.03	5.76	-48.0	-64.0	3.8	8.46e-01	0	39	104	0	66	22522
2026-01-03 06:09:36.86	1.92	5.82	-48.1	-64.0	3.8	8.47e-01	0	39	104	0	66	22624
2026-01-03 06:09:37.87	1.81	5.87	-48.1	-64.1	3.8	8.47e-01	0	39	104	0	66	22856
2026-01-03 06:09:38.86	1.71	5.92	-48.2	-64.2	3.8	8.47e-01	0	39	104	0	66	23157
2026-01-03 06:09:39.87	1.60	5.97	-48.3	-64.2	3.8	8.46e-01	0	39	104	0	66	23081
2026-01-03 06:09:40.87	1.49	6.03	-48.3	-64.3	3.8	8.48e-01	0	39	104	0	66	23321
2026-01-03 06:09:41.87	1.38	6.08	-48.4	-64.4	3.8	8.46e-01	0	39	104	0	66	23582
2026-01-03 06:09:42.87	1.27	6.13	-48.4	-64.4	3.8	8.47e-01	0	39	104	0	66	23607
2026-01-03 06:09:43.87	1.16	6.19	-48.4	-64.3	3.8	8.47e-01	0	39	104	0	66	23502
2026-01-03 06:09:44.87	1.05	6.24	-48.4	-64.3	3.8	8.47e-01	0	39	104	0	66	23579
2026-01-03 06:09:45.87	0.94	6.29	-48.4	-64.2	3.8	8.47e-01	0	39	104	0	66	23242
2026-01-03 06:09:46.87	0.83	6.35	-48.4	-64.3	3.8	8.47e-01	0	39	104	0	66	23433
2026-01-03 06:09:47.87	0.72	6.40	-48.4	-64.2	3.8	8.46e-01	0	39	104	0	66	23302
2026-01-03 06:09:48.87	0.60	6.45	-48.4	-64.2	3.8	8.47e-01	0	39	104	0	66	23141
2026-01-03 06:09:49.88	0.49	6.51	-48.3	-64.2	3.8	8.46e-01	0	39	104	0	66	23145
2026-01-03 06:09:50.88	0.38	6.56	-48.1	-64.0	3.8	8.47e-01	0	40	104	0	66	22679
2026-01-03 06:09:51.88	0.26	6.61	-48.3	-64.2	3.8	8.46e-01	0	40	104	0	66	23197
2026-01-03 06:09:52.88	0.15	6.66	-48.3	-64.3	3.8	8.47e-01	0	40	104	0	66	23314
2026-01-03 06:09:53.88	0.04	6.72	-48.4	-64.2	3.8	8.47e-01	0	40	104	0	66	23211
2026-01-03 06:09:54.88	359.92	6.77	-48.3	-64.2	3.8	8.48e-01	0	39	104	0	66	23181
2026-01-03 06:09:55.89	359.81	6.82	-48.3	-64.2	3.8	8.46e-01	0	40	104	0	66	23143
2026-01-03 06:09:56.89	359.69	6.88	-48.3	-64.1	3.8	8.46e-01	0	40	104	0	66	22810
2026-01-03 06:09:57.89	359.57	6.93	-48.3	-64.1	3.8	8.47e-01	0	40	104	0	66	22966
2026-01-03 06:09:58.89	359.46	6.98	-48.3	-64.1	3.8	8.47e-01	0	40	104	0	66	22912
2026-01-03 06:09:59.89	359.34	7.04	-48.3	-64.0	3.8	8.47e-01	0	40	104	0	66	22717
2026-01-03 06:10:00.89	359.22	7.09	-48.3	-64.1	3.8	8.47e-01	0	40	104	0	66	22897
2026-01-03 06:10:01.90	359.11	7.14	-48.2	-64.0	3.8	8.48e-01	0	40	104	0	66	22612
2026-01-03 06:10:02.89	358.99	7.20	-48.2	-64.0	3.8	8.48e-01	0	40	104	0	66	22668
2026-01-03 06:10:03.90	358.87	7.25	-48.3	-64.0	3.8	8.47e-01	0	40	104	0	66	22751
2026-01-03 06:10:04.90	358.75	7.30	-48.2	-64.1	3.8	8.46e-01	0	40	104	0	66	22941
2026-01-03 06:10:05.90	358.63	7.36	-48.3	-64.1	3.8	8.47e-01	0	40	104	0	66	22893
2026-01-03 06:10:06.90	358.51	7.41	-48.2	-64.0	3.8	8.47e-01	0	40	104	0	66	22750
2026-01-03 06:10:07.90	358.39	7.46	-48.2	-64.0	3.8	8.47e-01	0	40	104	0	66	22677
2026-01-03 06:10:08.90	358.27	7.51	-48.4	-64.2	3.8	8.48e-01	0	40	104	0	66	23187
2026-01-03 06:10:09.91	358.15	7.57	-48.4	-64.3	3.8	8.46e-01	0	40	104	0	66	23449
2026-01-03 06:10:10.91	358.02	7.62	-48.4	-64.3	3.8	8.46e-01	0	40	104	0	66	23434
2026-01-03 06:10:11.91	357.90	7.67	-48.2	-64.2	3.8	8.47e-01	0	40	104	0	66	23072
2026-01-03 06:10:12.91	357.78	7.73	-48.2	-64.0	3.8	8.46e-01	0	40	104	0	66	22675
2026-01-03 06:10:13.91	357.66	7.78	-48.2	-63.8	3.8	8.46e-01	0	40	104	0	66	22178
2026-01-03 06:10:14.91	357.53	7.83	-48.1	-63.6	3.8	8.46e-01	0	40	104	0	66	21657
2026-01-03 06:10:15.91	357.41	7.89	-48.1	-63.5	3.8	8.48e-01	0	40	104	0	66	21504
2026-01-03 06:10:16.92	357.28	7.94	-48.1	-63.5	3.8	8.47e-01	0	40	104	0	66	21362
2026-01-03 06:10:17.91	357.16	7.99	-48.0	-63.6	3.8	8.46e-01	0	40	104	0	66	21557
2026-01-03 06:10:18.92	357.03	8.04	-48.0	-63.8	3.8	8.46e-01	0	40	104	0	66	22104
2026-01-03 06:10:19.92	356.91	8.10	-48.1	-64.0	3.8	8.46e-01	0	40	104	0	66	22528
2026-01-03 06:10:20.92	356.78	8.15	-48.1	-63.8	3.8	8.47e-01	0	40	104	0	66	22037
2026-01-03 06:10:21.92	356.65	8.20	-48.1	-63.6	3.8	8.46e-01	0	40	104	0	66	21540
2026-01-03 06:10:22.92	356.53	8.26	-48.1	-63.5	3.8	8.47e-01	0	40	104	0	66	21467
2026-01-03 06:10:23.93	356.40	8.31	-48.1	-63.6	3.8	8.47e-01	0	40	104	0	66	21754
2026-01-03 06:10:24.93	356.27	8.36	-48.1	-63.8	3.8	8.47e-01	0	40	104	0	66	22187
2026-01-03 06:10:25.93	356.14	8.41	-48.1	-63.4	3.8	8.46e-01	0	40	104	0	66	21215
2026-01-03 06:10:26.93	356.01	8.47	-48.1	-62.0	3.8	8.46e-01	0	40	104	0	66	18045
2026-01-03 06:10:27.93	355.88	8.52	-48.0	-59.9	4.4	8.37e-01	0	40	0	0	66	14107
2026-01-03 06:10:28.94	355.75	8.57	-47.9	-58.1	5.3	7.66e-01	0	40	0	0	66	11434
2026-01-03 06:10:29.94	355.62	8.63	-47.7	-56.4	6.5	2.68e-01	0	40	0	4194304	66	9451
2026-01-03 06:10:30.94	355.49	8.68	-47.4	-55.1	7.7	1.13e-01	0	41	0	11534336	65	8604
2026-01-03 06:10:31.94	355.36	8.73	-47.2	-53.9	9.0	4.00e-02	0	40	0	18874368	65	7492
2026-01-03 06:10:32.94	355.22	8.78	-46.8	-52.6	10.2	8.51e-03	0	40	0	26214400	64	6876
2026-01-03 06:10:33.94	355.09	8.84	-46.5	-51.6	11.4	1.64e-03	0	40	0	32505856	63	6440
2026-01-03 06:10:34.94	354.96	8.89	-46.0	-50.4	12.6	1.42e-04	0	40	0	40894464	62	5968
2026-01-03 06:10:35.94	354.83	8.94	-45.5	-49.3	13.7	1.25e-05	0	40	0	48234496	62	5261
2026-01-03 06:10:36.95	354.69	8.99	-45.3	-48.8	14.3	1.10e-06	0	40	0	54525952	61	5253
2026-01-03 06:10:37.95	354.56	9.04	-45.1	-48.5	14.6	1.10e-06	0	40	0	61865984	60	5352
2026-01-03 06:10:38.95	354.42	9.10	-45.4	-49.1	14.0	1.10e-06	0	40	0	69206016	60	5757
2026-01-03 06:10:39.95	354.28	9.15	-46.4	-50.5	12.5	6.63e-05	0	40	0	76546048	62	6042
2026-01-03 06:10:40.95	354.15	9.20	-45.5	-49.3	13.8	0.00e+00	0	40	0	83886080	61	5548
2026-01-03 06:10:41.95	354.01	9.25	-50.2	-61.6	4.0	8.27e-01	0	40	0	89128960	69	14500
2026-01-03 06:10:42.95	353.88	9.31	-43.3	-45.1	17.8	0.00e+00	0	40	0	91226112	57	4295
2026-01-03 06:10:43.95	353.74	9.36	-43.1	-44.9	18.0	0.00e+00	0	41	0	98566144	57	4232
2026-01-03 06:10:44.95	353.60	9.41	-43.3	-44.9	18.0	0.00e+00	0	40	0	105906176	57	4235
2026-01-03 06:10:45.95	353.46	9.46	-43.0	-44.8	18.2	0.00e+00	0	40	0	113246208	56	4397
2026-01-03 06:10:46.95	353.32	9.51	-42.9	-44.7	18.4	0.00e+00	0	40	0	120586240	56	4341
2026-01-03 06:10:47.95	353.18	9.56	-42.9	-44.7	18.3	0.00e+00	0	40	0	127926272	56	4368
2026-01-03 06:10:48.95	353.04	9.62	-42.8	-44.6	18.4	0.00e+00	0	40	0	134217728	56	4298
2026-01-03 06:10:49.95	352.90	9.67	-42.9	-44.6	18.4	0.00e+00	0	41	0	141557760	56	4314
2026-01-03 06:10:50.95	352.76	9.72	-42.8	-44.6	18.4	0.00e+00	0	40	0	148897792	56	4293
2026-01-03 06:10:51.95	352.62	9.77	-42.9	-44.6	18.4	0.00e+00	0	40	0	156237824	56	4306
2026-01-03 06:10:52.95	352.48	9.82	-43.1	-44.7	18.4	0.00e+00	0	40	0	163577856	56	4382
2026-01-03 06:10:53.95	352.33	9.87	-43.1	-44.6	18.6	0.00e+00	0	40	0	170917888	56	4307
2026-01-03 06:10:54.95	352.19	9.93	-43.3	-44.7	18.5	0.00e+00	0	41	0	178257920	56	4346
2026-01-03 06:10:55.95	352.05	9.98	-43.2	-44.6	18.6	0.00e+00	0	41	0	185597952	56	4292
2026-01-03 06:10:56.95	351.90	10.03	-43.1	-44.4	18.7	0.00e+00	0	40	0	192937984	56	4235
2026-01-03 06:10:57.95	351.76	10.08	-43.2	-44.4	18.7	0.00e+00	0	40	0	199229440	56	4232
2026-01-03 06:10:58.95	351.61	10.13	-43.3	-44.6	18.6	0.00e+00	0	41	0	206569472	56	4330
2026-01-03 06:10:59.95	351.47	10.18	-43.2	-44.6	18.6	0.00e+00	0	40	0	213909504	56	4292
2026-01-03 06:11:00.94	351.32	10.23	-43.3	-44.7	18.4	0.00e+00	0	41	0	221249536	56	4379
2026-01-03 06:11:01.95	351.17	10.28	-43.2	-44.6	18.6	0.00e+00	0	41	0	228589568	56	4324
2026-01-03 06:11:02.95	351.03	10.33	-43.3	-44.7	18.5	0.00e+00	0	41	0	235929600	56	4380
2026-01-03 06:11:03.95	350.88	10.38	-43.2	-44.7	18.6	0.00e+00	0	40	0	243269632	56	4370
2026-01-03 06:11:04.95	350.73	10.43	-43.5	-45.0	18.5	0.00e+00	0	41	0	250609664	56	4505
2026-01-03 06:11:05.95	350.58	10.48	-43.2	-44.8	18.4	4.50e-06	0	40	0	257949696	56	4428
2026-01-03 06:11:06.95	350.43	10.54	-43.3	-44.9	18.4	0.00e+00	0	41	0	264241152	56	4471
2026-01-03 06:11:07.96	350.28	10.59	-43.4	-45.0	18.3	0.00e+00	0	41	0	271581184	56	4517
2026-01-03 06:11:08.96	350.13	10.64	-43.5	-45.1	18.2	0.00e+00	0	41	0	278921216	56	4547
2026-01-03 06:11:09.96	349.98	10.69	-43.4	-44.9	18.3	0.00e+00	0	41	0	286261248	56	4475
2026-01-03 06:11:10.96	349.83	10.74	-43.5	-45.0	18.2	0.00e+00	0	41	0	293601280	56	4511
2026-01-03 06:11:11.96	349.67	10.79	-43.6	-45.1	18.1	0.00e+00	0	41	0	300941312	56	4572
2026-01-03 06:11:12.96	349.52	10.84	-43.7	-45.1	18.2	0.00e+00	0	41	0	308281344	57	4313
2026-01-03 06:11:13.96	349.37	10.89	-43.7	-45.2	18.2	0.00e+00	0	41	0	315621376	57	4341
2026-01-03 06:11:14.96	349.22	10.94	-43.5	-44.8	18.4	0.00e+00	0	41	0	321912832	57	4193
2026-01-03 06:11:15.96	349.06	10.99	-43.4	-44.7	18.4	0.00e+00	0	40	0	329252864	57	4141
2026-01-03 06:11:16.96	348.91	11.03	-43.4	-44.8	18.5	0.00e+00	0	41	0	336592896	57	4148
2026-01-03 06:11:17.96	348.75	11.08	-43.3	-44.6	18.6	0.00e+00	0	41	0	343932928	57	4094
2026-01-03 06:11:18.96	348.60	11.13	-43.2	-44.5	18.7	0.00e+00	0	41	0	351272960	57	4018
2026-01-03 06:11:19.96	348.44	11.18	-43.2	-44.6	18.7	0.00e+00	0	41	0	358612992	57	4058
2026-01-03 06:11:20.96	348.28	11.23	-43.1	-44.4	18.7	0.00e+00	0	41	0	365953024	57	4003
2026-01-03 06:11:21.95	348.13	11.28	-42.9	-44.3	18.9	0.00e+00	0	41	0	373293056	56	4164
2026-01-03 06:11:22.95	347.97	11.33	-43.1	-44.5	18.9	0.00e+00	0	41	0	380633088	56	4252
2026-01-03 06:11:23.95	347.81	11.38	-43.2	-44.6	18.8	0.00e+00	0	41	0	386924544	56	4339
2026-01-03 06:11:24.96	347.65	11.43	-43.2	-44.7	18.8	0.00e+00	0	41	0	394264576	56	4356
2026-01-03 06:11:25.96	347.49	11.47	-43.2	-44.6	18.8	0.00e+00	0	41	0	401604608	56	4336
2026-01-03 06:11:26.96	347.33	11.52	-43.0	-44.5	18.9	1.10e-06	0	41	0	408944640	56	4260
2026-01-03 06:11:27.96	347.17	11.57	-43.3	-44.8	18.9	0.00e+00	0	41	0	416284672	56	4398
2026-01-03 06:11:28.96	347.01	11.62	-43.6	-45.1	18.8	0.00e+00	0	41	0	423624704	56	4559
2026-01-03 06:11:29.96	346.85	11.67	-43.5	-44.9	19.0	0.00e+00	0	41	0	430964736	56	4469
2026-01-03 06:11:30.96	346.68	11.72	-43.6	-45.0	18.9	0.00e+00	0	41	0	438304768	56	4525
2026-01-03 06:11:31.96	346.52	11.76	-43.7	-45.1	18.9	0.00e+00	0	41	0	445644800	56	4559
2026-01-03 06:11:32.96	346.36	11.81	-43.6	-45.0	18.9	0.00e+00	0	41	0	451936256	56	4534
2026-01-03 06:11:33.96	346.19	11.86	-43.6	-45.0	18.9	0.00e+00	0	41	0	459276288	56	4515
2026-01-03 06:11:34.96	346.03	11.91	-43.7	-45.0	19.0	0.00e+00	0	41	0	466616320	56	4506
2026-01-03 06:11:35.96	345.86	11.95	-43.5	-44.8	19.1	0.00e+00	0	41	0	473956352	56	4411
2026-01-03 06:11:36.97	345.70	12.00	-43.4	-44.6	19.3	0.00e+00	0	41	0	481296384	56	4336
2026-01-03 06:11:37.97	345.53	12.05	-42.8	-44.0	19.3	0.00e+00	0	41	0	488636416	56	4038
2026-01-03 06:11:38.97	345.36	12.09	-42.7	-43.9	19.4	0.00e+00	0	41	0	495976448	56	3992
2026-01-03 06:11:39.97	345.20	12.14	-42.8	-44.0	19.4	0.00e+00	0	41	0	503316480	56	4019
2026-01-03 06:11:40.98	345.03	12.19	-42.9	-44.1	19.4	0.00e+00	0	41	0	509607936	56	4086
2026-01-03 06:11:41.97	344.86	12.23	-42.9	-44.2	19.3	0.00e+00	0	41	0	516947968	56	4112
2026-01-03 06:11:42.98	344.69	12.28	-42.9	-44.2	19.3	0.00e+00	0	41	0	524288000	56	4131
2026-01-03 06:11:43.98	344.52	12.32	-43.0	-44.2	19.2	0.00e+00	0	41	0	531628032	56	4142
2026-01-03 06:11:44.98	344.35	12.37	-43.0	-44.2	19.2	0.00e+00	0	41	0	538968064	56	4145
2026-01-03 06:11:45.98	344.18	12.42	-43.1	-44.4	19.2	0.00e+00	0	41	0	546308096	56	4198
2026-01-03 06:11:46.98	344.01	12.46	-43.3	-44.4	19.1	0.00e+00	0	41	0	553648128	56	4223
2026-01-03 06:11:47.98	343.84	12.51	-43.3	-44.4	19.1	0.00e+00	0	41	0	560988160	56	4224
2026-01-03 06:11:48.99	343.66	12.55	-43.3	-44.4	19.1	0.00e+00	0	41	0	568328192	56	4237
2026-01-03 06:11:49.99	343.49	12.60	-43.3	-44.4	19.1	0.00e+00	0	41	0	574619648	56	4225
2026-01-03 06:11:50.99	343.32	12.64	-43.3	-44.4	19.2	0.00e+00	0	41	0	581959680	56	4228
2026-01-03 06:11:51.99	343.14	12.69	-43.2	-44.4	19.3	0.00e+00	0	41	0	590348288	56	4215
2026-01-03 06:11:52.99	342.97	12.73	-43.3	-44.4	19.3	0.00e+00	0	41	0	596639744	56	4240
2026-01-03 06:11:53.99	342.80	12.78	-43.2	-44.4	19.3	0.00e+00	0	41	0	603979776	56	4235
2026-01-03 06:11:54.99	342.62	12.82	-43.1	-44.4	19.3	0.00e+00	0	41	0	611319808	56	4214
2026-01-03 06:11:55.99	342.44	12.86	-43.1	-44.4	19.3	0.00e+00	0	41	0	618659840	56	4213
2026-01-03 06:11:56.99	342.27	12.91	-43.0	-44.3	19.3	0.00e+00	0	41	0	625999872	56	4153
2026-01-03 06:11:58.00	342.09	12.95	-42.9	-44.2	19.2	0.00e+00	0	41	0	633339904	56	4118
2026-01-03 06:11:59.00	341.91	12.99	-42.9	-44.1	19.3	0.00e+00	0	41	0	640679936	56	4079
2026-01-03 06:12:00.00	341.73	13.04	-43.0	-44.2	19.3	0.00e+00	0	41	0	648019968	56	4118
2026-01-03 06:12:01.00	341.56	13.08	-42.8	-44.0	19.4	0.00e+00	0	41	0	654311424	56	4037
2026-01-03 06:12:02.00	341.38	13.12	-42.7	-43.9	19.6	0.00e+00	0	41	0	661651456	56	3979
2026-01-03 06:12:02.99	341.20	13.16	-42.8	-44.0	19.5	0.00e+00	0	41	0	668991488	56	4034
2026-01-03 06:12:03.99	341.02	13.21	-42.7	-43.9	19.6	0.00e+00	0	41	0	676331520	56	3981
2026-01-03 06:12:05.00	340.84	13.25	-42.8	-44.0	19.6	0.00e+00	0	41	0	683671552	56	4009
2026-01-03 06:12:06.00	340.66	13.29	-42.8	-43.9	19.7	0.00e+00	0	41	0	691011584	56	3990
2026-01-03 06:12:07.00	340.47	13.33	-42.8	-43.9	19.7	0.00e+00	0	41	0	698351616	56	3981
2026-01-03 06:12:08.01	340.29	13.37	-42.8	-43.9	19.7	0.00e+00	0	41	0	705691648	56	3984
2026-01-03 06:12:09.00	340.11	13.42	-42.9	-44.0	19.6	0.00e+00	0	41	0	713031680	56	4020
2026-01-03 06:12:10.00	339.93	13.46	-43.0	-44.0	19.6	0.00e+00	0	41	0	719323136	56	4048
2026-01-03 06:12:11.00	339.74	13.50	-42.9	-44.0	19.6	0.00e+00	0	41	0	726663168	56	4018
2026-01-03 06:12:12.00	339.56	13.54	-42.9	-44.0	19.6	0.00e+00	0	41	0	734003200	56	4045
2026-01-03 06:12:13.01	339.37	13.58	-42.9	-44.0	19.6	0.00e+00	0	41	0	741343232	56	4028
2026-01-03 06:12:14.01	339.19	13.62	-43.0	-44.1	19.5	0.00e+00	0	41	0	748683264	56	4064
2026-01-03 06:12:15.01	339.00	13.66	-42.8	-43.9	19.7	0.00e+00	0	41	0	756023296	56	4004
2026-01-03 06:12:16.01	338.81	13.70	-43.0	-44.1	19.6	0.00e+00	0	41	0	763363328	56	4084
2026-01-03 06:12:17.01	338.63	13.74	-43.0	-44.1	19.6	0.00e+00	0	41	0	770703360	56	4052
2026-01-03 06:12:18.01	338.44	13.78	-43.0	-44.0	19.6	0.00e+00	0	41	0	778043392	56	4044
2026-01-03 06:12:19.01	338.25	13.82	-42.9	-44.0	19.7	0.00e+00	0	41	0	784334848	56	4018
2026-01-03 06:12:20.01	338.06	13.85	-42.9	-44.0	19.7	0.00e+00	0	41	0	791674880	56	4011
2026-01-03 06:12:21.01	337.88	13.89	-42.9	-44.0	19.7	0.00e+00	0	41	0	799014912	56	4011
2026-01-03 06:12:22.01	337.69	13.93	-42.9	-44.0	19.7	0.00e+00	0	41	0	806354944	56	4033
2026-01-03 06:12:23.02	337.49	13.97	-42.8	-44.0	19.7	0.00e+00	0	41	0	813694976	56	4019
2026-01-03 06:12:24.01	337.31	14.01	-42.8	-44.0	19.7	0.00e+00	0	41	0	821035008	56	4026
2026-01-03 06:12:25.02	337.11	14.04	-42.9	-44.0	19.6	0.00e+00	0	41	0	828375040	56	4035
2026-01-03 06:12:26.02	336.92	14.08	-42.9	-44.0	19.6	0.00e+00	0	41	0	835715072	56	4028
2026-01-03 06:12:27.02	336.73	14.12	-42.9	-44.0	19.7	0.00e+00	0	41	0	842006528	56	4030
2026-01-03 06:12:28.02	336.54	14.15	-42.9	-44.0	19.7	0.00e+00	0	41	0	849346560	56	4032
2026-01-03 06:12:29.02	336.35	14.19	-43.1	-44.2	19.6	0.00e+00	0	41	0	856686592	56	4101
2026-01-03 06:12:30.02	336.15	14.23	-43.1	-44.2	19.6	0.00e+00	0	41	0	864026624	56	4112
2026-01-03 06:12:31.03	335.96	14.26	-43.0	-44.0	19.7	0.00e+00	0	41	0	871366656	56	4031
2026-01-03 06:12:32.03	335.76	14.30	-43.1	-44.1	19.6	0.00e+00	0	41	0	878706688	56	4066
2026-01-03 06:12:33.03	335.57	14.33	-43.0	-44.0	19.7	0.00e+00	0	41	0	886046720	56	4037
2026-01-03 06:12:34.03	335.37	14.37	-42.7	-43.7	19.9	0.00e+00	0	41	0	893386752	56	3898
2026-01-03 06:12:35.03	335.18	14.40	-42.8	-43.9	19.7	0.00e+00	0	41	0	900726784	56	3978
2026-01-03 06:12:36.04	334.98	14.44	-42.9	-43.9	19.8	0.00e+00	0	41	0	907018240	56	3992
2026-01-03 06:12:37.04	334.78	14.47	-42.8	-43.8	19.9	0.00e+00	0	41	0	914358272	56	3941
2026-01-03 06:12:38.04	334.59	14.51	-42.8	-43.9	19.8	0.00e+00	0	41	0	921698304	56	3976
2026-01-03 06:12:39.04	334.39	14.54	-42.7	-43.7	19.9	0.00e+00	0	41	0	929038336	56	3891
2026-01-03 06:12:40.04	334.19	14.57	-42.8	-43.8	19.9	0.00e+00	0	41	0	936378368	56	3953
2026-01-03 06:12:41.05	333.99	14.61	-42.8	-43.8	19.9	0.00e+00	0	41	0	943718400	56	3940
2026-01-03 06:12:42.05	333.79	14.64	-42.8	-43.8	19.9	0.00e+00	0	41	0	951058432	56	3955
2026-01-03 06:12:43.05	333.59	14.67	-43.0	-43.9	19.8	0.00e+00	0	41	0	958398464	56	4004
2026-01-03 06:12:44.04	333.39	14.70	-42.7	-43.7	19.9	0.00e+00	0	41	0	965738496	56	3898
2026-01-03 06:12:45.05	333.19	14.74	-42.8	-43.8	19.8	0.00e+00	0	41	0	973078528	56	3933
2026-01-03 06:12:46.05	332.99	14.77	-42.8	-43.8	19.8	0.00e+00	0	41	0	980418560	56	3924
2026-01-03 06:12:47.05	332.79	14.80	-42.7	-43.7	19.9	0.00e+00	0	41	0	987758592	56	3888
2026-01-03 06:12:48.05	332.59	14.83	-42.7	-43.7	19.9	0.00e+00	0	41	0	994050048	56	3883
2026-01-03 06:12:49.06	332.39	14.86	-42.7	-43.7	20.0	0.00e+00	0	41	0	1001390080	56	3883
2026-01-03 06:12:50.06	332.18	14.89	-42.7	-43.8	19.9	0.00e+00	0	41	0	1008730112	56	3918
2026-01-03 06:12:51.06	331.98	14.92	-42.4	-43.4	20.1	0.00e+00	0	41	0	1016070144	55	4000
2026-01-03 06:12:52.07	331.78	14.95	-42.4	-43.4	20.0	0.00e+00	0	41	0	1023410176	55	4000
2026-01-03 06:12:53.07	331.57	14.98	-42.5	-43.5	20.0	0.00e+00	0	41	0	1030750208	55	4012
2026-01-03 06:12:54.06	331.37	15.01	-42.5	-43.5	20.0	0.00e+00	0	41	0	1038090240	55	4037
2026-01-03 06:12:55.07	331.16	15.04	-42.6	-43.7	19.8	0.00e+00	0	41	0	1045430272	55	4104
2026-01-03 06:12:56.07	330.96	15.06	-42.5	-43.5	20.0	0.00e+00	0	41	0	1051721728	55	4026
2026-01-03 06:12:57.07	330.75	15.09	-42.4	-43.4	20.1	0.00e+00	0	41	0	1059061760	55	3970
2026-01-03 06:12:58.07	330.55	15.12	-42.5	-43.5	19.9	0.00e+00	0	41	0	1066401792	55	4029
2026-01-03 06:12:59.07	330.34	15.15	-42.4	-43.4	20.0	0.00e+00	0	41	0	1073741824	55	3992
2026-01-03 06:13:00.07	330.14	15.17	-42.3	-43.3	20.1	0.00e+00	0	41	0	1081081856	55	3955
2026-01-03 06:13:01.07	329.93	15.20	-42.4	-43.4	20.0	0.00e+00	0	41	0	1088421888	55	3985
2026-01-03 06:13:02.08	329.72	15.23	-42.4	-43.4	20.0	0.00e+00	0	41	0	1095761920	55	3985
2026-01-03 06:13:03.08	329.51	15.25	-42.4	-43.4	20.1	0.00e+00	0	41	0	1103101952	55	3971
2026-01-03 06:13:04.07	329.31	15.28	-42.3	-43.3	20.2	0.00e+00	0	41	0	1110441984	55	3928
2026-01-03 06:13:05.08	329.10	15.30	-42.2	-43.1	20.3	0.00e+00	0	41	0	1116733440	55	3858
2026-01-03 06:13:06.08	328.89	15.33	-42.0	-43.0	20.3	0.00e+00	0	41	0	1124073472	54	4026
2026-01-03 06:13:07.07	328.68	15.35	-42.0	-43.0	20.3	0.00e+00	0	41	0	1131413504	54	4010
2026-01-03 06:13:08.08	328.47	15.38	-42.0	-43.0	20.3	0.00e+00	0	41	0	1138753536	54	4023
2026-01-03 06:13:09.08	328.26	15.40	-42.0	-43.0	20.4	0.00e+00	0	41	0	1146093568	54	4005
2026-01-03 06:13:10.08	328.05	15.42	-42.0	-43.0	20.4	0.00e+00	0	41	0	1153433600	54	4026
2026-01-03 06:13:11.08	327.84	15.44	-42.0	-43.0	20.4	0.00e+00	0	41	0	1160773632	54	4033
2026-01-03 06:13:12.08	327.63	15.47	-41.9	-42.9	20.5	0.00e+00	0	41	0	1168113664	54	3985
2026-01-03 06:13:13.08	327.42	15.49	-41.9	-42.9	20.5	0.00e+00	0	41	0	1174405120	54	3992
2026-01-03 06:13:14.08	327.21	15.51	-41.8	-42.9	20.5	0.00e+00	0	41	0	1181745152	54	3969
2026-01-03 06:13:15.08	327.00	15.53	-41.9	-42.9	20.4	0.00e+00	0	41	0	1189085184	54	3991
2026-01-03 06:13:16.08	326.79	15.55	-41.9	-43.0	20.4	0.00e+00	0	41	0	1196425216	54	4007
2026-01-03 06:13:17.08	326.57	15.57	-42.0	-43.0	20.4	0.00e+00	0	41	0	1203765248	54	4023
2026-01-03 06:13:18.08	326.36	15.59	-41.9	-43.0	20.4	0.00e+00	0	41	0	1211105280	54	4015
2026-01-03 06:13:19.09	326.15	15.62	-41.9	-42.9	20.4	0.00e+00	0	41	0	1218445312	54	3987
2026-01-03 06:13:20.09	325.93	15.63	-41.9	-43.0	20.4	0.00e+00	0	41	0	1225785344	54	4008
2026-01-03 06:13:21.09	325.72	15.65	-41.9	-43.0	20.4	0.00e+00	0	41	0	1233125376	54	4006
2026-01-03 06:13:22.09	325.51	15.67	-41.9	-42.9	20.5	0.00e+00	0	41	0	1239416832	54	3977
2026-01-03 06:13:23.09	325.29	15.69	-41.9	-42.9	20.4	0.00e+00	0	41	0	1247805440	54	4004
2026-01-03 06:13:24.10	325.08	15.71	-41.9	-42.9	20.5	0.00e+00	0	41	0	1255145472	54	3980
2026-01-03 06:13:25.10	324.86	15.73	-41.9	-42.9	20.5	0.00e+00	0	41	0	1261436928	54	3975
2026-01-03 06:13:26.10	324.65	15.74	-41.8	-42.8	20.6	0.00e+00	0	41	0	1268776960	54	3939
2026-01-03 06:13:27.10	324.43	15.76	-41.7	-42.7	20.7	0.00e+00	0	41	0	1276116992	54	3894
2026-01-03 06:13:28.10	324.22	15.78	-41.7	-42.7	20.6	0.00e+00	0	41	0	1283457024	54	3905
2026-01-03 06:13:29.11	324.00	15.79	-41.7	-42.6	20.8	0.00e+00	0	41	0	1290797056	54	3853
2026-01-03 06:13:30.11	323.79	15.81	-41.6	-42.5	20.8	0.00e+00	0	41	0	1298137088	54	3818
2026-01-03 06:13:31.11	323.57	15.82	-41.5	-42.5	20.8	0.00e+00	0	41	0	1305477120	53	4010
2026-01-03 06:13:32.12	323.35	15.84	-41.6	-42.5	20.9	0.00e+00	0	41	0	1312817152	53	4015
2026-01-03 06:13:33.12	323.14	15.85	-41.5	-42.4	20.9	0.00e+00	0	41	0	1320157184	53	3999
2026-01-03 06:13:34.12	322.92	15.87	-41.6	-42.5	20.8	0.00e+00	0	41	0	1326448640	53	4035
2026-01-03 06:13:35.12	322.70	15.88	-41.7	-42.6	20.7	0.00e+00	0	41	0	1333788672	53	4090
2026-01-03 06:13:36.12	322.49	15.89	-41.7	-42.7	20.7	0.00e+00	0	41	0	1341128704	53	4103
2026-01-03 06:13:37.13	322.27	15.91	-41.8	-42.8	20.6	0.00e+00	0	41	0	1348468736	53	4154
2026-01-03 06:13:38.13	322.05	15.92	-41.9	-42.9	20.6	0.00e+00	0	41	0	1355808768	53	4209
2026-01-03 06:13:39.13	321.83	15.93	-42.1	-43.1	20.4	0.00e+00	0	41	0	1363148800	53	4298
2026-01-03 06:13:40.13	321.62	15.94	-42.0	-42.9	20.5	0.00e+00	0	41	0	1370488832	53	4236
2026-01-03 06:13:41.13	321.40	15.95	-42.0	-43.0	20.5	0.00e+00	0	41	0	1377828864	53	4263
2026-01-03 06:13:42.13	321.18	15.96	-41.9	-42.9	20.6	0.00e+00	0	41	0	1384120320	53	4197
2026-01-03 06:13:43.13	320.96	15.98	-41.9	-42.8	20.6	0.00e+00	0	41	0	1391460352	53	4169
2026-01-03 06:13:44.13	320.74	15.99	-41.8	-42.8	20.7	0.00e+00	0	41	0	1398800384	53	4154
2026-01-03 06:13:45.13	320.53	15.99	-41.7	-42.6	20.8	0.00e+00	0	41	0	1406140416	53	4088
2026-01-03 06:13:46.13	320.31	16.00	-41.8	-42.7	20.7	0.00e+00	0	41	0	1413480448	53	4145
2026-01-03 06:13:47.13	320.09	16.01	-41.7	-42.7	20.8	0.00e+00	0	41	0	1420820480	53	4119
2026-01-03 06:13:48.13	319.87	16.02	-41.8	-42.7	20.7	0.00e+00	0	41	0	1428160512	53	4138
2026-01-03 06:13:49.14	319.65	16.03	-41.8	-42.8	20.6	0.00e+00	0	41	0	1435500544	53	4162
2026-01-03 06:13:50.14	319.43	16.04	-41.5	-42.5	20.8	0.00e+00	0	41	0	1442840576	53	4033
2026-01-03 06:13:51.14	319.21	16.04	-41.3	-42.3	20.9	0.00e+00	0	41	0	1449132032	53	3925
2026-01-03 06:13:52.14	318.99	16.05	-41.2	-42.2	20.9	0.00e+00	0	41	0	1457520640	53	3874
2026-01-03 06:13:53.14	318.77	16.06	-41.1	-42.1	20.9	0.00e+00	0	41	0	1464860672	53	3831
2026-01-03 06:13:54.14	318.55	16.06	-41.1	-42.0	21.0	0.00e+00	0	41	0	1471152128	52	4027
2026-01-03 06:13:55.15	318.33	16.07	-41.1	-42.1	20.9	0.00e+00	0	41	0	1478492160	52	4063
2026-01-03 06:13:56.15	318.11	16.07	-41.0	-42.0	21.0	0.00e+00	0	41	0	1485832192	52	4005
2026-01-03 06:13:57.15	317.89	16.08	-41.0	-42.0	21.1	0.00e+00	0	41	0	1493172224	52	4012
2026-01-03 06:13:58.15	317.67	16.08	-41.0	-41.9	21.1	0.00e+00	0	41	0	1500512256	52	3999
2026-01-03 06:13:59.15	317.45	16.08	-41.0	-42.0	21.0	0.00e+00	0	41	0	1507852288	52	4011
2026-01-03 06:14:00.15	317.23	16.09	-41.1	-42.0	20.9	0.00e+00	0	41	0	1515192320	52	4039
2026-01-03 06:14:01.15	317.01	16.09	-41.1	-42.0	20.9	0.00e+00	0	41	0	1522532352	52	4043
2026-01-03 06:14:02.15	316.79	16.09	-41.2	-42.1	20.9	0.00e+00	0	41	0	1529872384	52	4079
2026-01-03 06:14:03.15	316.57	16.09	-41.3	-42.2	20.7	0.00e+00	0	41	0	1536163840	52	4133
2026-01-03 06:14:04.16	316.35	16.09	-41.3	-42.2	20.8	0.00e+00	0	41	0	1543503872	52	4130
2026-01-03 06:14:05.16	316.13	16.10	-41.5	-42.4	20.6	0.00e+00	0	41	0	1550843904	52	4230
2026-01-03 06:14:06.15	315.91	16.10	-41.5	-42.5	20.5	0.00e+00	0	41	0	1558183936	52	4252
2026-01-03 06:14:07.15	315.69	16.10	-41.4	-42.4	20.6	0.00e+00	0	41	0	1565523968	52	4215
2026-01-03 06:14:08.15	315.47	16.10	-41.4	-42.4	20.6	0.00e+00	0	41	0	1572864000	52	4203
2026-01-03 06:14:09.15	315.25	16.10	-41.4	-42.4	20.6	0.00e+00	0	41	0	1580204032	52	4215
2026-01-03 06:14:10.16	315.03	16.09	-41.4	-42.4	20.5	0.00e+00	0	41	0	1587544064	52	4218
2026-01-03 06:14:11.16	314.81	16.09	-41.5	-42.4	20.5	0.00e+00	0	41	0	1593835520	52	4238
2026-01-03 06:14:12.15	314.59	16.09	-41.4	-42.4	20.5	0.00e+00	0	41	0	1601175552	52	4219
2026-01-03 06:14:13.15	314.37	16.09	-41.4	-42.4	20.5	0.00e+00	0	41	0	1608515584	52	4220
2026-01-03 06:14:14.15	314.15	16.09	-41.6	-42.6	20.4	0.00e+00	0	41	0	1615855616	52	4299
2026-01-03 06:14:15.15	313.93	16.08	-41.5	-42.4	20.5	0.00e+00	0	41	0	1623195648	52	4238
2026-01-03 06:14:16.16	313.71	16.08	-41.5	-42.5	20.5	0.00e+00	0	41	0	1630535680	52	4260
2026-01-03 06:14:17.16	313.49	16.07	-41.4	-42.4	20.5	0.00e+00	0	41	0	1637875712	52	4219
2026-01-03 06:14:18.16	313.27	16.07	-41.5	-42.4	20.5	0.00e+00	0	41	0	1645215744	52	4240
2026-01-03 06:14:19.16	313.05	16.06	-41.4	-42.4	20.5	0.00e+00	0	41	0	1652555776	52	4212
2026-01-03 06:14:20.16	312.83	16.06	-41.5	-42.5	20.4	0.00e+00	0	41	0	1658847232	52	4256
2026-01-03 06:14:21.16	312.61	16.05	-41.3	-42.3	20.6	0.00e+00	0	41	0	1666187264	52	4176
2026-01-03 06:14:22.17	312.39	16.05	-41.4	-42.3	20.5	0.00e+00	0	41	0	1673527296	52	4183
2026-01-03 06:14:23.17	312.17	16.04	-41.1	-42.1	20.7	0.00e+00	0	41	0	1680867328	52	4074
2026-01-03 06:14:24.17	311.95	16.03	-41.0	-41.9	20.9	0.00e+00	0	41	0	1688207360	52	4003
2026-01-03 06:14:25.17	311.73	16.03	-41.0	-41.9	20.9	0.00e+00	0	41	0	1695547392	52	4004
2026-01-03 06:14:26.17	311.52	16.02	-41.0	-41.9	20.9	0.00e+00	0	41	0	1702887424	52	3998
2026-01-03 06:14:27.17	311.30	16.01	-41.0	-42.0	20.9	0.00e+00	0	41	0	1710227456	52	4008
2026-01-03 06:14:28.17	311.08	16.00	-41.1	-42.0	20.9	0.00e+00	0	41	0	1717567488	52	4022
2026-01-03 06:14:29.18	310.86	15.99	-41.1	-42.1	20.8	0.00e+00	0	41	0	1723858944	52	4060
2026-01-03 06:14:30.18	310.64	15.98	-41.2	-42.1	20.7	0.00e+00	0	41	0	1731198976	52	4081
2026-01-03 06:14:31.18	310.42	15.97	-41.2	-42.2	20.7	0.00e+00	0	41	0	1738539008	52	4106
2026-01-03 06:14:32.18	310.20	15.96	-41.2	-42.1	20.7	0.00e+00	0	41	0	1745879040	52	4095
2026-01-03 06:14:33.18	309.98	15.95	-41.2	-42.2	20.7	0.00e+00	0	41	0	1753219072	52	4106
2026-01-03 06:14:34.18	309.77	15.94	-41.1	-42.0	20.9	0.00e+00	0	41	0	1760559104	52	4047
2026-01-03 06:14:35.19	309.55	15.93	-41.1	-42.0	20.9	0.00e+00	0	41	0	1767899136	52	4036
2026-01-03 06:14:36.19	309.33	15.92	-41.1	-42.0	20.9	0.00e+00	0	41	0	1775239168	52	4040
2026-01-03 06:14:37.19	309.11	15.90	-41.0	-41.9	21.0	0.00e+00	0	41	0	1782579200	52	3998
2026-01-03 06:14:38.19	308.89	15.89	-41.0	-42.0	20.9	0.00e+00	0	41	0	1789919232	52	4015
2026-01-03 06:14:39.20	308.67	15.88	-41.1	-42.0	20.9	0.00e+00	0	41	0	1797259264	52	4033
2026-01-03 06:14:40.20	308.46	15.86	-41.0	-42.0	20.9	0.00e+00	0	41	0	1803550720	52	4008
2026-01-03 06:14:41.20	308.24	15.85	-41.1	-42.0	20.9	0.00e+00	0	41	0	1810890752	52	4031
2026-01-03 06:14:42.20	308.02	15.83	-41.2	-42.1	20.8	0.00e+00	0	41	0	1818230784	52	4093
2026-01-03 06:14:43.20	307.81	15.82	-41.2	-42.2	20.7	0.00e+00	0	41	0	1825570816	52	4108
2026-01-03 06:14:44.21	307.59	15.80	-41.2	-42.2	20.7	0.00e+00	0	41	0	1832910848	52	4110
2026-01-03 06:14:45.21	307.37	15.79	-41.2	-42.2	20.6	0.00e+00	0	41	0	1840250880	52	4108
2026-01-03 06:14:46.21	307.16	15.77	-41.4	-42.3	20.5	0.00e+00	0	41	0	1847590912	52	4172
2026-01-03 06:14:47.21	306.94	15.76	-41.4	-42.3	20.5	0.00e+00	0	41	0	1854930944	52	4175
2026-01-03 06:14:48.21	306.73	15.74	-41.4	-42.3	20.5	0.00e+00	0	41	0	1862270976	52	4181
2026-01-03 06:14:49.21	306.51	15.72	-41.3	-42.3	20.5	0.00e+00	0	41	0	1868562432	52	4153
2026-01-03 06:14:50.21	306.30	15.70	-41.2	-42.2	20.6	0.00e+00	0	41	0	1875902464	52	4105
2026-01-03 06:14:51.21	306.09	15.69	-41.4	-42.3	20.5	0.00e+00	0	41	0	1883242496	52	4185
2026-01-03 06:14:52.20	305.87	15.67	-41.4	-42.4	20.4	0.00e+00	0	41	0	1890582528	52	4202
2026-01-03 06:14:53.21	305.66	15.65	-41.5	-42.4	20.4	0.00e+00	0	41	0	1897922560	52	4231
2026-01-03 06:14:54.21	305.44	15.63	-41.3	-42.3	20.4	0.00e+00	0	41	0	1905262592	52	4173
2026-01-03 06:14:55.21	305.23	15.61	-41.4	-42.3	20.4	0.00e+00	0	41	0	1912602624	52	4176
2026-01-03 06:14:56.22	305.02	15.59	-41.3	-42.3	20.5	0.00e+00	0	41	0	1919942656	52	4154
2026-01-03 06:14:57.22	304.80	15.57	-41.3	-42.2	20.5	0.00e+00	0	41	0	1926234112	52	4135
2026-01-03 06:14:58.22	304.59	15.55	-41.3	-42.3	20.4	0.00e+00	0	41	0	1933574144	52	4154
2026-01-03 06:14:59.22	304.38	15.53	-41.3	-42.2	20.5	0.00e+00	0	41	0	1940914176	52	4145
2026-01-03 06:15:00.22	304.17	15.50	-41.5	-42.4	20.4	0.00e+00	0	41	0	1948254208	52	4241
2026-01-03 06:15:01.22	303.96	15.48	-41.5	-42.4	20.4	0.00e+00	0	41	0	1955594240	52	4226
2026-01-03 06:15:02.23	303.74	15.46	-41.6	-42.5	20.3	0.00e+00	0	41	0	1962934272	52	4286
2026-01-03 06:15:03.23	303.53	15.44	-41.5	-42.5	20.4	0.00e+00	0	41	0	1970274304	52	4259
2026-01-03 06:15:04.23	303.32	15.41	-41.5	-42.4	20.4	0.00e+00	0	41	0	1977614336	52	4230
2026-01-03 06:15:05.23	303.11	15.39	-41.5	-42.4	20.3	0.00e+00	0	41	0	1984954368	52	4240
2026-01-03 06:15:06.23	302.90	15.37	-41.5	-42.4	20.4	0.00e+00	0	41	0	1991245824	52	4216
2026-01-03 06:15:07.24	302.69	15.34	-41.4	-42.4	20.4	0.00e+00	0	41	0	1998585856	52	4212
2026-01-03 06:15:08.24	302.48	15.32	-41.4	-42.4	20.3	0.00e+00	0	41	0	2005925888	52	4213
2026-01-03 06:15:09.24	302.27	15.29	-41.6	-42.6	20.2	0.00e+00	0	41	0	2013265920	52	4307
2026-01-03 06:15:10.24	302.06	15.27	-41.6	-42.5	20.3	0.00e+00	0	41	0	2020605952	52	4272
2026-01-03 06:15:11.24	301.85	15.24	-41.5	-42.5	20.3	0.00e+00	0	41	0	2027945984	52	4262
2026-01-03 06:15:12.24	301.65	15.22	-41.6	-42.6	20.3	0.00e+00	0	41	0	2035286016	52	4298
2026-01-03 06:15:13.24	301.44	15.19	-41.6	-42.5	20.3	0.00e+00	0	41	0	2042626048	52	4285
2026-01-03 06:15:14.24	301.23	15.16	-41.6	-42.6	20.2	0.00e+00	0	41	0	2049966080	52	4317
2026-01-03 06:15:15.24	301.03	15.14	-41.6	-42.6	20.2	0.00e+00	0	41	0	2057306112	52	4302
2026-01-03 06:15:16.24	300.82	15.11	-41.7	-42.6	20.1	0.00e+00	0	41	0	2064646144	52	4339
2026-01-03 06:15:17.25	300.61	15.08	-41.6	-42.6	20.2	0.00e+00	0	41	0	2071986176	52	4319
2026-01-03 06:15:18.25	300.41	15.05	-41.7	-42.6	20.2	0.00e+00	0	41	0	2078277632	52	4326
2026-01-03 06:15:19.25	300.20	15.03	-41.8	-42.7	20.0	0.00e+00	0	41	0	2085617664	52	4388
2026-01-03 06:15:20.25	300.00	15.00	-41.6	-42.6	20.2	0.00e+00	0	41	0	2092957696	53	4066
2026-01-03 06:15:21.24	299.79	14.97	-41.6	-42.5	20.2	0.00e+00	0	41	0	2100297728	53	4049
2026-01-03 06:15:22.25	299.59	14.94	-41.8	-42.7	20.0	0.00e+00	0	41	0	2107637760	53	4130
2026-01-03 06:15:23.25	299.38	14.91	-41.7	-42.6	20.1	0.00e+00	0	41	0	2114977792	53	4085
2026-01-03 06:15:24.25	299.18	14.88	-41.5	-42.4	20.3	0.00e+00	0	41	0	2122317824	53	4000
2026-01-03 06:15:25.25	298.98	14.85	-41.5	-42.5	20.3	0.00e+00	0	41	0	2129657856	53	4008
2026-01-03 06:15:26.25	298.78	14.82	-41.7	-42.7	20.2	0.00e+00	0	41	0	2135949312	53	4099
2026-01-03 06:15:27.25	298.57	14.79	-41.7	-42.7	20.2	0.00e+00	0	41	0	2143289344	53	4100
2026-01-03 06:15:28.25	298.37	14.76	-41.9	-42.8	20.1	0.00e+00	0	41	0	2150629376	53	4177
2026-01-03 06:15:29.26	298.17	14.72	-42.0	-43.0	20.0	0.00e+00	0	41	0	2157969408	53	4245
2026-01-03 06:15:30.26	297.97	14.69	-42.0	-43.0	19.9	0.00e+00	0	41	0	2165309440	53	4255
2026-01-03 06:15:31.26	297.77	14.66	-42.0	-43.0	19.9	0.00e+00	0	41	0	2172649472	53	4286
2026-01-03 06:15:32.26	297.57	14.63	-42.0	-43.0	19.9	0.00e+00	0	41	0	2179989504	53	4248
2026-01-03 06:15:33.26	297.37	14.59	-41.9	-42.9	19.9	0.00e+00	0	41	0	2187329536	53	4223
2026-01-03 06:15:34.26	297.17	14.56	-41.9	-42.9	20.0	0.00e+00	0	41	0	2194669568	53	4223
2026-01-03 06:15:35.26	296.97	14.53	-41.8	-42.7	20.1	0.00e+00	0	41	0	2200961024	53	4144
2026-01-03 06:15:36.26	296.78	14.49	-41.7	-42.7	20.2	0.00e+00	0	41	0	2208301056	53	4102
2026-01-03 06:15:37.27	296.58	14.46	-41.7	-42.7	20.2	0.00e+00	0	41	0	2215641088	53	4124
2026-01-03 06:15:38.27	296.38	14.43	-41.8	-42.8	20.1	0.00e+00	0	41	0	2222981120	53	4164
2026-01-03 06:15:39.27	296.18	14.39	-41.8	-42.7	20.1	0.00e+00	0	41	0	2230321152	53	4125
2026-01-03 06:15:40.27	295.99	14.36	-41.9	-42.9	20.0	0.00e+00	0	41	0	2237661184	53	4221
2026-01-03 06:15:41.28	295.79	14.32	-41.9	-42.9	20.0	0.00e+00	0	41	0	2245001216	53	4204
2026-01-03 06:15:42.28	295.59	14.29	-41.8	-42.8	19.9	0.00e+00	0	41	0	2252341248	53	4162
2026-01-03 06:15:43.28	295.40	14.25	-42.0	-43.0	19.8	0.00e+00	0	41	0	2259681280	53	4273
2026-01-03 06:15:44.28	295.20	14.21	-42.0	-43.0	19.8	0.00e+00	0	41	0	2265972736	53	4268
2026-01-03 06:15:45.28	295.01	14.18	-42.1	-43.1	19.8	0.00e+00	0	41	0	2273312768	53	4324
2026-01-03 06:15:46.28	294.82	14.14	-42.3	-43.3	19.8	0.00e+00	0	41	0	2280652800	54	4162
2026-01-03 06:15:47.29	294.62	14.10	-42.3	-43.3	19.8	0.00e+00	0	41	0	2287992832	54	4170
2026-01-03 06:15:48.29	294.43	14.07	-42.1	-43.1	20.0	0.00e+00	0	41	0	2295332864	54	4081
2026-01-03 06:15:49.29	294.24	14.03	-42.0	-43.0	20.0	0.00e+00	0	41	0	2302672896	54	4035
2026-01-03 06:15:50.30	294.05	13.99	-41.9	-42.9	20.0	0.00e+00	0	41	0	2310012928	54	3988
2026-01-03 06:15:51.29	293.86	13.95	-41.6	-42.5	20.2	3.40e-06	0	41	0	2317352960	53	4035
2026-01-03 06:15:52.29	293.67	13.92	-41.7	-42.6	20.1	0.00e+00	0	41	0	2324692992	53	4084
2026-01-03 06:15:53.30	293.47	13.88	-41.6	-42.6	20.1	0.00e+00	0	41	0	2332033024	53	4054
2026-01-03 06:15:54.30	293.28	13.84	-41.7	-42.7	20.0	0.00e+00	0	41	0	2339373056	53	4111
2026-01-03 06:15:55.30	293.10	13.80	-41.8	-42.8	20.0	0.00e+00	0	41	0	2345664512	53	4170
2026-01-03 06:15:56.30	292.91	13.76	-42.0	-42.9	19.9	0.00e+00	0	41	0	2353004544	53	4237
2026-01-03 06:15:57.30	292.72	13.72	-42.1	-43.1	19.7	0.00e+00	0	41	0	2360344576	53	4311
2026-01-03 06:15:58.30	292.53	13.68	-41.9	-42.9	19.8	0.00e+00	0	41	0	2367684608	53	4232
2026-01-03 06:15:59.29	292.35	13.64	-41.9	-42.9	19.7	0.00e+00	0	41	0	2375024640	53	4236
2026-01-03 06:16:00.30	292.16	13.60	-42.0	-42.9	19.7	0.00e+00	0	41	0	2382364672	53	4239
2026-01-03 06:16:01.30	291.97	13.56	-42.1	-43.1	19.7	0.00e+00	0	41	0	2389704704	53	4329
2026-01-03 06:16:02.30	291.79	13.52	-42.0	-43.1	19.6	0.00e+00	0	41	0	2397044736	53	4292
2026-01-03 06:16:03.29	291.60	13.48	-42.0	-43.0	19.7	0.00e+00	0	41	0	2403336192	53	4243
2026-01-03 06:16:04.29	291.42	13.44	-42.0	-43.0	19.7	0.00e+00	0	41	0	2410676224	53	4261
2026-01-03 06:16:05.29	291.24	13.40	-42.0	-43.0	19.7	0.00e+00	0	41	0	2418016256	53	4252
2026-01-03 06:16:06.29	291.05	13.36	-42.0	-43.0	19.8	0.00e+00	0	41	0	2425356288	53	4244
2026-01-03 06:16:07.28	290.87	13.32	-42.0	-43.0	19.8	0.00e+00	0	41	0	2431647744	53	4257
2026-01-03 06:16:08.29	290.69	13.27	-42.0	-43.0	19.8	0.00e+00	0	41	0	2440036352	53	4284
2026-01-03 06:16:09.29	290.51	13.23	-42.1	-43.0	19.7	0.00e+00	0	41	0	2446327808	53	4291
2026-01-03 06:16:10.29	290.33	13.19	-42.0	-43.0	19.7	4.50e-06	0	41	0	2453667840	53	4263
2026-01-03 06:16:11.29	290.14	13.15	-42.1	-43.1	19.6	0.00e+00	0	41	0	2461007872	53	4317
2026-01-03 06:16:12.28	289.97	13.11	-42.3	-43.3	19.5	0.00e+00	0	41	0	2468347904	54	4155
2026-01-03 06:16:13.29	289.78	13.06	-42.2	-43.3	19.5	1.10e-06	0	41	0	2475687936	54	4151
2026-01-03 06:16:14.29	289.61	13.02	-42.3	-43.3	19.5	0.00e+00	0	41	0	2483027968	54	4191
2026-01-03 06:16:15.29	289.43	12.98	-42.3	-43.3	19.5	1.10e-06	0	41	0	2490368000	54	4180
2026-01-03 06:16:16.29	289.25	12.93	-42.4	-43.4	19.5	0.00e+00	0	41	0	2497708032	54	4200
2026-01-03 06:16:17.29	289.07	12.89	-42.4	-43.4	19.5	0.00e+00	0	41	0	2505048064	54	4226
2026-01-03 06:16:18.29	288.89	12.84	-42.4	-43.4	19.5	0.00e+00	0	41	0	2511339520	54	4213
2026-01-03 06:16:19.29	288.72	12.80	-42.5	-43.5	19.4	0.00e+00	0	41	0	2519728128	54	4265
2026-01-03 06:16:20.29	288.54	12.76	-42.4	-43.4	19.5	0.00e+00	0	41	0	2527068160	54	4216
2026-01-03 06:16:21.29	288.37	12.71	-42.5	-43.5	19.4	0.00e+00	0	41	0	2533359616	54	4275
2026-01-03 06:16:22.29	288.19	12.67	-42.4	-43.4	19.5	0.00e+00	0	41	0	2540699648	54	4215
2026-01-03 06:16:23.29	288.02	12.62	-42.5	-43.5	19.4	0.00e+00	0	41	0	2548039680	54	4259
2026-01-03 06:16:24.29	287.84	12.58	-42.6	-43.6	19.4	0.00e+00	0	41	0	2555379712	54	4304
2026-01-03 06:16:25.34	287.66	12.53	-42.4	-43.4	19.5	0.00e+00	0	41	0	2562719744	54	4232
2026-01-03 06:16:26.32	287.49	12.49	-42.7	-43.7	19.4	0.00e+00	0	41	0	2570059776	54	4354
2026-01-03 06:16:27.32	287.32	12.44	-42.5	-43.6	19.4	0.00e+00	0	41	0	2577399808	54	4301
2026-01-03 06:16:28.47	287.12	12.39	-42.5	-43.6	19.4	0.00e+00	0	41	0	2585788416	54	4304
2026-01-03 06:16:29.34	286.97	12.35	-42.5	-43.5	19.4	0.00e+00	0	41	0	2592079872	54	4275
2026-01-03 06:16:30.71	286.74	12.28	-42.5	-43.5	19.4	0.00e+00	0	41	0	2601517056	54	4290
2026-01-03 06:16:31.43	286.62	12.25	-42.5	-43.5	19.4	0.00e+00	0	41	0	2606759936	54	4267
2026-01-03 06:16:32.70	286.40	12.19	-42.4	-43.4	19.5	0.00e+00	0	41	0	2616197120	54	4232
2026-01-03 06:16:33.43	286.28	12.16	-42.4	-43.4	19.5	0.00e+00	0	41	0	2621440000	54	4223
2026-01-03 06:16:34.72	286.06	12.10	-42.3	-43.3	19.6	0.00e+00	0	41	0	2630877184	54	4185
2026-01-03 06:16:35.47	285.94	12.06	-42.2	-43.2	19.7	0.00e+00	0	41	0	2636120064	54	4131
2026-01-03 06:16:36.75	285.72	12.00	-42.3	-43.3	19.7	0.00e+00	0	41	0	2645557248	54	4155
2026-01-03 06:16:37.47	285.60	11.97	-42.3	-43.3	19.6	0.00e+00	0	41	0	2650800128	54	4184
2026-01-03 06:16:38.75	285.39	11.91	-42.3	-43.3	19.6	0.00e+00	0	41	0	2660237312	54	4180
2026-01-03 06:16:39.47	285.27	11.88	-42.4	-43.4	19.6	0.00e+00	0	41	0	2664431616	54	4208
2026-01-03 06:16:40.76	285.06	11.81	-42.2	-43.2	19.7	0.00e+00	0	41	0	2673868800	54	4109
2026-01-03 06:16:41.48	284.94	11.78	-42.1	-43.1	19.8	0.00e+00	0	41	0	2679111680	54	4089
2026-01-03 06:16:42.76	284.73	11.72	-42.2	-43.2	19.6	0.00e+00	0	41	0	2688548864	54	4134
2026-01-03 06:16:43.48	284.61	11.68	-42.3	-43.3	19.5	0.00e+00	0	41	0	2693791744	54	4162
2026-01-03 06:16:44.77	284.40	11.62	-42.4	-43.5	19.4	0.00e+00	0	41	0	2703228928	54	4252
2026-01-03 06:16:45.48	284.29	11.59	-42.4	-43.5	19.3	0.00e+00	0	41	0	2708471808	54	4259
2026-01-03 06:16:46.77	284.08	11.53	-42.5	-43.6	19.2	0.00e+00	0	41	0	2717908992	54	4297
2026-01-03 06:16:47.48	283.96	11.49	-42.6	-43.6	19.2	0.00e+00	0	41	0	2723151872	54	4328
2026-01-03 06:16:48.77	283.76	11.43	-42.6	-43.7	19.2	0.00e+00	0	41	0	2731540480	54	4346
2026-01-03 06:16:49.55	283.63	11.39	-42.6	-43.7	19.2	0.00e+00	0	41	0	2737831936	54	4358
2026-01-03 06:16:50.83	283.43	11.33	-42.6	-43.6	19.2	0.00e+00	0	40	0	2747269120	54	4335
2026-01-03 06:16:51.56	283.31	11.29	-42.6	-43.6	19.2	0.00e+00	0	41	0	2752512000	54	4335
2026-01-03 06:16:52.84	283.11	11.23	-42.7	-43.8	19.1	0.00e+00	0	41	0	2761949184	54	4394
2026-01-03 06:16:53.56	282.99	11.19	-42.6	-43.7	19.2	0.00e+00	0	41	0	2766143488	55	4102
2026-01-03 06:16:54.85	282.79	11.13	-42.6	-43.6	19.2	0.00e+00	0	41	0	2775580672	55	4066
2026-01-03 06:16:55.56	282.68	11.10	-42.6	-43.6	19.2	0.00e+00	0	41	0	2780823552	55	4091
2026-01-03 06:16:56.85	282.48	11.03	-42.5	-43.5	19.3	0.00e+00	0	41	0	2790260736	55	4043
2026-01-03 06:16:57.57	282.36	11.00	-42.5	-43.6	19.2	0.00e+00	0	41	0	2795503616	55	4062
2026-01-03 06:16:58.86	282.16	10.93	-42.5	-43.6	19.1	0.00e+00	0	40	0	2804940800	55	4068
2026-01-03 06:16:59.58	282.05	10.90	-42.6	-43.6	19.2	0.00e+00	0	41	0	2810183680	55	4091
2026-01-03 06:17:00.86	281.86	10.83	-42.4	-43.4	19.3	0.00e+00	0	41	0	2819620864	55	3996
2026-01-03 06:17:01.58	281.74	10.80	-42.5	-43.5	19.3	0.00e+00	0	41	0	2824863744	55	4049
2026-01-03 06:17:02.87	281.55	10.73	-42.6	-43.6	19.4	0.00e+00	0	41	0	2833252352	55	4070
2026-01-03 06:17:03.63	281.43	10.69	-42.6	-43.6	19.3	0.00e+00	0	41	0	2839543808	55	4073
2026-01-03 06:17:05.22	281.19	10.61	-42.5	-43.5	19.3	0.00e+00	0	41	0	2851078144	55	4019
2026-01-03 06:17:05.80	281.10	10.58	-42.5	-43.5	19.3	0.00e+00	0	41	0	2855272448	55	4026
2026-01-03 06:17:07.37	280.86	10.50	-42.6	-43.6	19.2	0.00e+00	0	41	0	2865758208	55	4077
2026-01-03 06:17:07.96	280.78	10.48	-42.6	-43.6	19.1	0.00e+00	0	41	0	2871001088	55	4081
2026-01-03 06:17:09.53	280.54	10.40	-42.7	-43.7	19.1	0.00e+00	0	41	0	2882535424	55	4140
2026-01-03 06:17:10.13	280.45	10.37	-42.8	-43.8	19.0	0.00e+00	0	41	0	2886729728	55	4186
2026-01-03 06:17:11.73	280.21	10.28	-42.7	-43.8	18.9	0.00e+00	0	41	0	2897215488	55	4165
2026-01-03 06:17:12.30	280.13	10.25	-42.8	-43.8	18.9	0.00e+00	0	41	0	2902458368	55	4181
2026-01-03 06:17:13.88	279.90	10.17	-42.7	-43.7	18.9	0.00e+00	0	41	0	2912944128	55	4144
2026-01-03 06:17:14.45	279.81	10.14	-42.7	-43.7	18.9	0.00e+00	0	41	0	2917138432	55	4135
2026-01-03 06:17:16.02	279.58	10.06	-42.8	-43.9	18.8	1.10e-06	0	41	0	2928672768	55	4214
2026-01-03 06:17:16.64	279.49	10.03	-42.7	-43.8	18.9	0.00e+00	0	41	0	2932867072	55	4155
2026-01-03 06:17:18.48	279.22	9.94	-42.7	-43.8	18.9	0.00e+00	0	41	0	2946498560	55	4172
2026-01-03 06:17:19.05	279.14	9.91	-42.8	-43.9	18.9	0.00e+00	0	41	0	2950692864	55	4199
2026-01-03 06:17:20.64	278.91	9.83	-42.9	-44.0	18.8	0.00e+00	0	41	0	2962227200	55	4272
2026-01-03 06:17:21.24	278.83	9.80	-44.3	-45.5	17.4	0.00e+00	0	41	0	2966421504	58	4282
2026-01-03 06:17:22.82	278.60	9.71	-42.9	-43.9	19.0	0.00e+00	0	41	0	2977955840	56	4001
2026-01-03 06:17:23.44	278.51	9.68	-43.0	-44.0	18.9	0.00e+00	0	41	0	2982150144	56	4041
2026-01-03 06:17:25.01	278.29	9.60	-42.7	-43.7	19.3	0.00e+00	0	41	0	2993684480	56	3896
2026-01-03 06:17:25.63	278.20	9.57	-42.7	-43.7	19.1	2.20e-06	0	41	0	2997878784	56	3905
2026-01-03 06:17:27.34	277.96	9.48	-42.5	-43.6	19.1	2.20e-06	0	41	0	3010461696	55	4059
2026-01-03 06:17:27.91	277.88	9.45	-42.5	-43.6	19.2	1.10e-06	0	41	0	3014656000	55	4053
2026-01-03 06:17:29.57	277.65	9.36	-42.6	-43.6	19.1	0.00e+00	0	40	0	3026190336	55	4085
2026-01-03 06:17:30.14	277.57	9.33	-42.6	-43.6	19.1	0.00e+00	0	41	0	3030384640	55	4076
2026-01-03 06:17:32.11	277.30	9.23	-42.4	-43.4	19.2	1.10e-06	0	41	0	3045064704	55	4000
2026-01-03 06:17:33.12	277.16	9.18	-42.4	-43.4	19.2	0.00e+00	0	41	0	3052404736	55	3983
2026-01-03 06:17:34.12	277.02	9.13	-42.5	-43.5	19.1	0.00e+00	0	41	0	3059744768	55	4030
2026-01-03 06:17:35.12	276.89	9.07	-42.5	-43.6	19.0	0.00e+00	0	41	0	3066036224	55	4059
2026-01-03 06:17:36.17	276.74	9.02	-42.4	-43.4	19.1	0.00e+00	0	41	0	3074424832	55	3994
2026-01-03 06:17:37.09	276.62	8.97	-53.0	-62.9	3.8	6.61e-01	0	41	104	3079667712	75	11856
2026-01-03 06:17:38.09	276.48	8.92	-53.3	-64.2	3.8	8.47e-01	0	41	104	3079667712	75	13747
2026-01-03 06:17:39.09	276.35	8.87	-53.4	-64.3	3.8	8.46e-01	0	41	104	3079667712	76	13164
2026-01-03 06:17:40.10	276.21	8.81	-53.2	-64.4	3.8	8.47e-01	0	41	104	3079667712	76	13339
2026-01-03 06:17:41.10	276.08	8.76	-53.5	-64.5	3.8	8.46e-01	0	41	104	3079667712	76	13428
2026-01-03 06:17:42.10	275.95	8.71	-53.6	-64.5	3.8	8.47e-01	0	41	104	3079667712	76	13527
2026-01-03 06:17:43.10	275.81	8.66	-53.8	-64.7	3.8	8.47e-01	0	41	104	3079667712	77	13049
2026-01-03 06:17:44.11	275.68	8.60	-53.5	-64.7	3.8	8.47e-01	0	41	104	3079667712	77	13062
2026-01-03 06:17:45.11	275.55	8.55	-53.8	-64.7	3.8	8.47e-01	0	41	104	3079667712	77	12971
2026-01-03 06:17:46.11	275.42	8.50	-53.8	-64.7	3.8	8.47e-01	0	41	104	3079667712	77	13082
2026-01-03 06:17:47.12	275.29	8.44	-53.7	-64.8	3.8	8.46e-01	0	41	104	3079667712	77	13140
2026-01-03 06:17:48.12	275.16	8.39	-53.9	-64.8	3.8	8.46e-01	0	41	104	3079667712	77	13217
2026-01-03 06:17:49.12	275.03	8.34	-53.9	-64.8	3.8	8.47e-01	0	41	104	3079667712	77	13192
2026-01-03 06:17:50.12	274.90	8.28	-53.8	-64.6	3.8	8.47e-01	0	41	104	3079667712	77	12852
2026-01-03 06:17:51.12	274.77	8.23	-53.6	-64.7	3.8	8.47e-01	0	41	104	3079667712	77	12966
2026-01-03 06:17:52.12	274.64	8.18	-53.6	-64.5	3.8	8.47e-01	0	41	104	3079667712	77	12738
2026-01-03 06:17:53.22	274.50	8.12	-53.6	-64.6	3.8	8.46e-01	0	41	104	3079667712	77	12851
2026-01-03 06:17:54.15	274.38	8.07	-53.7	-64.5	3.8	8.47e-01	0	41	104	3079667712	77	12726
2026-01-03 06:17:55.33	274.23	8.01	-53.7	-64.7	3.8	8.47e-01	0	41	104	3079667712	77	13000
2026-01-03 06:17:56.20	274.12	7.96	-53.6	-64.5	3.8	8.46e-01	0	41	104	3079667712	77	12730
2026-01-03 06:17:57.56	273.95	7.89	-53.5	-64.6	3.8	8.47e-01	0	41	104	3079667712	77	12873
2026-01-03 06:17:58.27	273.86	7.85	-53.5	-64.6	3.8	8.46e-01	0	41	104	3079667712	77	12925
2026-01-03 06:17:59.77	273.67	7.77	-53.4	-64.6	3.8	8.48e-01	0	41	104	3079667712	77	12882
2026-01-03 06:18:00.49	273.59	7.74	-53.5	-64.6	3.8	8.47e-01	0	41	104	3079667712	77	12900
2026-01-03 06:18:01.78	273.43	7.67	-53.4	-64.6	3.8	8.47e-01	0	41	104	3079667712	77	12875
2026-01-03 06:18:02.49	273.34	7.63	-53.4	-64.6	3.8	8.47e-01	0	41	104	3079667712	77	12949
2026-01-03 06:18:03.78	273.18	7.56	-53.4	-64.5	3.8	8.47e-01	0	41	104	3079667712	77	12809
2026-01-03 06:18:04.50	273.09	7.52	-53.4	-64.5	3.8	8.48e-01	0	41	104	3079667712	77	12806
2026-01-03 06:18:05.79	272.93	7.45	-53.4	-64.6	3.8	8.47e-01	0	41	104	3079667712	77	12897
2026-01-03 06:18:06.51	272.85	7.42	-53.4	-64.5	3.8	8.46e-01	0	41	104	3079667712	77	12760
2026-01-03 06:18:07.80	272.69	7.35	-53.4	-64.5	3.8	8.47e-01	0	41	104	3079667712	77	12749
2026-01-03 06:18:08.52	272.60	7.31	-53.4	-64.6	3.8	8.46e-01	0	41	104	3079667712	77	12883
2026-01-03 06:18:09.81	272.45	7.24	-53.4	-64.5	3.8	8.47e-01	0	41	104	3079667712	77	12789
2026-01-03 06:18:10.52	272.36	7.20	-53.4	-64.5	3.8	8.47e-01	0	41	104	3079667712	77	12780
2026-01-03 06:18:11.82	272.21	7.13	-53.4	-64.5	3.8	8.47e-01	0	41	104	3079667712	77	12744
2026-01-03 06:18:12.53	272.12	7.09	-53.4	-64.5	3.8	8.46e-01	0	41	104	3079667712	77	12803
2026-01-03 06:18:13.82	271.97	7.03	-53.3	-64.5	3.8	8.46e-01	0	41	104	3079667712	77	12805
2026-01-03 06:18:14.54	271.89	6.99	-53.4	-64.5	3.8	8.46e-01	0	41	104	3079667712	77	12757
2026-01-03 06:18:15.83	271.73	6.92	-53.4	-64.6	3.8	8.47e-01	0	41	104	3079667712	77	12841
2026-01-03 06:18:16.55	271.65	6.88	-53.3	-64.5	3.8	8.47e-01	0	41	104	3079667712	77	12707
2026-01-03 06:18:17.84	271.50	6.81	-53.4	-64.5	3.8	8.46e-01	0	41	104	3079667712	77	12787
2026-01-03 06:18:18.55	271.42	6.77	-53.4	-64.5	3.8	8.46e-01	0	41	104	3079667712	77	12743
2026-01-03 06:18:19.85	271.27	6.71	-53.3	-64.5	3.8	8.47e-01	0	41	104	3079667712	77	12743
2026-01-03 06:18:20.56	271.18	6.67	-53.3	-64.5	3.8	8.48e-01	0	41	104	3079667712	77	12721
2026-01-03 06:18:21.85	271.04	6.60	-53.3	-64.5	3.8	8.47e-01	0	41	104	3079667712	77	12678
2026-01-03 06:18:22.57	270.95	6.56	-53.3	-64.5	3.8	8.46e-01	0	41	104	3079667712	77	12725
2026-01-03 06:18:23.86	270.81	6.49	-53.3	-64.5	3.8	8.47e-01	0	41	104	3079667712	77	12766
2026-01-03 06:18:24.58	270.72	6.45	-53.3	-64.5	3.8	8.47e-01	0	41	104	3079667712	77	12742
2026-01-03 06:18:25.87	270.58	6.38	-53.4	-64.5	3.8	8.48e-01	0	41	104	3079667712	77	12751
2026-01-03 06:18:26.59	270.50	6.35	-53.4	-64.6	3.8	8.46e-01	0	41	104	3079667712	77	12866
2026-01-03 06:18:27.88	270.35	6.28	-53.4	-64.5	3.8	8.47e-01	0	41	104	3079667712	77	12759
2026-01-03 06:18:28.60	270.27	6.24	-53.4	-64.6	3.8	8.47e-01	0	41	104	3079667712	77	12884
2026-01-03 06:18:29.89	270.13	6.17	-53.5	-64.6	3.8	8.46e-01	0	41	104	3079667712	77	12852
2026-01-03 06:18:30.60	270.05	6.13	-53.4	-64.5	3.8	8.46e-01	0	41	104	3079667712	77	12765
2026-01-03 06:18:31.89	269.91	6.06	-53.4	-64.5	3.8	8.47e-01	0	41	104	3079667712	77	12803
2026-01-03 06:18:32.61	269.83	6.03	-53.4	-64.6	3.8	8.48e-01	0	41	104	3079667712	77	12837
2026-01-03 06:18:33.90	269.68	5.96	-53.4	-64.6	3.8	8.47e-01	0	41	104	3079667712	77	12928
2026-01-03 06:18:34.62	269.61	5.92	-53.3	-64.5	3.8	8.46e-01	0	41	104	3079667712	77	12710
2026-01-03 06:18:35.91	269.47	5.85	-53.3	-64.6	3.8	8.47e-01	0	41	104	3079667712	77	12822
2026-01-03 06:18:36.63	269.39	5.81	-53.4	-64.6	3.8	8.47e-01	0	41	104	3079667712	77	12851
2026-01-03 06:18:37.92	269.25	5.74	-53.4	-64.5	3.8	8.48e-01	0	41	104	3079667712	77	12757
2026-01-03 06:18:38.64	269.17	5.71	-53.3	-64.5	3.8	8.48e-01	0	41	104	3079667712	77	12782
2026-01-03 06:18:39.93	269.03	5.64	-53.4	-64.5	3.8	8.47e-01	0	41	104	3079667712	77	12746
2026-01-03 06:18:40.64	268.95	5.60	-53.4	-64.5	3.8	8.47e-01	0	41	104	3079667712	77	12774
2026-01-03 06:18:41.94	268.82	5.53	-53.4	-64.6	3.8	8.47e-01	0	41	104	3079667712	77	12861
2026-01-03 06:18:42.65	268.74	5.49	-53.4	-64.5	3.8	8.47e-01	0	41	104	3079667712	77	12786
2026-01-03 06:18:43.95	268.60	5.42	-53.4	-64.5	3.8	8.47e-01	0	41	104	3079667712	77	12798
2026-01-03 06:18:44.66	268.53	5.39	-53.5	-64.7	3.8	8.47e-01	0	41	104	3079667712	77	13025
2026-01-03 06:18:45.95	268.39	5.32	-53.4	-64.7	3.8	8.47e-01	0	41	104	3079667712	77	12963
2026-01-03 06:18:46.67	268.32	5.28	-53.3	-64.4	3.8	8.45e-01	0	41	104	3079667712	77	12631
2026-01-03 06:18:47.96	268.18	5.21	-53.2	-64.4	3.8	8.46e-01	0	41	104	3079667712	77	12594
2026-01-03 06:18:48.68	268.11	5.17	-53.2	-64.4	3.8	8.46e-01	0	40	104	3079667712	77	12602
2026-01-03 06:18:49.97	267.97	5.11	-53.2	-64.4	3.8	8.47e-01	0	41	104	3079667712	77	12569
2026-01-03 06:18:50.69	267.90	5.07	-53.3	-64.5	3.8	8.46e-01	0	41	104	3079667712	77	12722
2026-01-03 06:18:51.98	267.77	5.00	-53.3	-64.3	3.8	8.47e-01	0	41	104	3079667712	77	12509

#Closed at: 2026-01-03 06:18:52
#Recorded file [3079 MB]: D:/Data/31040_260103_090922.dat