passes_logs/2026/01/03/T1/T1__20260103_083212_NOAA_20_JPSS-1_rec.log

#Pass ID: 20260103_083212_NOAA 20 (JPSS-1)
#Satellite: NOAA 20 (JPSS-1)
#Configuration: NOAA 20
#almurnet v.1.7.20251203
#Start time: 2026-01-03 08:32:12

#Version: 2.0.20230620
#Station: T1
#Location: 37.570604 lon 55.790049 lat
#TLE: 1 43013U 17073A   26002.92460628  .00000184  00000+0  10833-3 0  9996
#TLE: 2 43013  98.7623 303.9923 0001887  56.9179 303.2178 14.19532741421028

#Time	Az	El	Level	Level2	SNR	BER	BlckErr	Temp	State	Recorded	gain1	gain2
2026-01-03 08:32:12.30	116.41	4.99	-52.8	-68.0	3.8	1.49e+00	0	41	0	0	77	20499
2026-01-03 08:32:13.29	116.34	5.05	-52.6	-67.9	3.8	1.49e+00	0	41	104	0	77	20096
2026-01-03 08:32:14.29	116.27	5.11	-52.6	-67.9	3.8	1.49e+00	0	41	104	0	77	20144
2026-01-03 08:32:15.29	116.20	5.18	-52.6	-67.8	3.8	1.49e+00	0	42	104	0	77	20063
2026-01-03 08:32:16.29	116.13	5.24	-52.6	-67.9	3.8	1.49e+00	0	42	104	0	77	20198
2026-01-03 08:32:17.29	116.05	5.31	-52.6	-67.8	3.8	1.49e+00	0	42	104	0	77	20038
2026-01-03 08:32:18.28	115.98	5.37	-52.6	-67.8	3.8	1.49e+00	0	42	104	0	77	20032
2026-01-03 08:32:19.28	115.91	5.43	-52.5	-67.8	3.8	1.49e+00	0	41	104	0	77	19946
2026-01-03 08:32:20.28	115.84	5.50	-52.6	-67.9	3.8	1.49e+00	0	42	104	0	77	20123
2026-01-03 08:32:21.28	115.77	5.56	-52.5	-67.8	3.8	1.49e+00	0	42	104	0	77	19939
2026-01-03 08:32:22.27	115.69	5.63	-52.5	-67.8	3.8	1.49e+00	0	42	104	0	77	20010
2026-01-03 08:32:23.27	115.62	5.69	-52.6	-67.9	3.8	1.49e+00	0	42	104	0	77	20086
2026-01-03 08:32:24.27	115.55	5.76	-52.9	-68.1	3.8	1.49e+00	0	42	104	0	77	20723
2026-01-03 08:32:25.26	115.47	5.82	-52.6	-67.9	3.8	1.49e+00	0	42	104	0	77	20283
2026-01-03 08:32:26.26	115.40	5.89	-52.6	-67.9	3.8	1.49e+00	0	42	104	0	77	20129
2026-01-03 08:32:27.26	115.32	5.95	-52.6	-67.9	3.8	1.49e+00	0	42	104	0	77	20280
2026-01-03 08:32:28.26	115.25	6.02	-52.6	-67.8	3.8	1.49e+00	0	42	104	0	77	20048
2026-01-03 08:32:29.26	115.17	6.08	-52.6	-67.8	3.8	1.49e+00	0	42	104	0	77	20030
2026-01-03 08:32:30.26	115.09	6.15	-52.5	-67.8	3.8	1.49e+00	0	42	104	0	77	20008
2026-01-03 08:32:31.26	115.02	6.21	-52.6	-67.9	3.8	1.49e+00	0	42	104	0	77	20148
2026-01-03 08:32:32.26	114.94	6.28	-52.6	-67.8	3.8	1.49e+00	0	42	104	0	77	20066
2026-01-03 08:32:33.26	114.86	6.34	-52.5	-67.8	3.8	1.49e+00	0	42	104	0	77	19920
2026-01-03 08:32:34.26	114.79	6.41	-52.5	-67.8	3.8	1.49e+00	0	42	104	0	77	20056
2026-01-03 08:32:35.26	114.71	6.48	-52.6	-67.8	3.8	1.49e+00	0	42	104	0	77	20055
2026-01-03 08:32:36.26	114.63	6.54	-52.6	-67.8	3.8	1.49e+00	0	42	104	0	77	19917
2026-01-03 08:32:37.25	114.55	6.61	-52.5	-67.7	3.8	1.49e+00	0	42	104	0	77	19781
2026-01-03 08:32:38.26	114.47	6.68	-52.6	-67.7	3.8	1.49e+00	0	42	104	0	77	19734
2026-01-03 08:32:39.26	114.39	6.74	-52.5	-67.7	3.8	1.49e+00	0	42	104	0	77	19714
2026-01-03 08:32:40.26	114.31	6.81	-53.0	-68.1	3.8	1.49e+00	0	42	104	0	77	20723
2026-01-03 08:32:41.26	114.23	6.88	-52.8	-67.9	3.8	1.49e+00	0	42	104	0	77	20231
2026-01-03 08:32:42.26	114.15	6.94	-52.7	-67.9	3.8	1.49e+00	0	42	104	0	77	20199
2026-01-03 08:32:43.26	114.07	7.01	-52.6	-67.8	3.8	1.49e+00	0	42	104	0	77	19909
2026-01-03 08:32:44.26	113.99	7.08	-52.5	-67.7	3.8	1.49e+00	0	42	104	0	77	19810
2026-01-03 08:32:45.26	113.91	7.15	-52.6	-67.7	3.8	1.49e+00	0	42	104	0	77	19766
2026-01-03 08:32:46.27	113.83	7.21	-52.6	-67.7	3.8	1.49e+00	0	42	104	0	77	19826
2026-01-03 08:32:47.27	113.74	7.28	-52.6	-67.7	3.8	1.49e+00	0	42	104	0	77	19818
2026-01-03 08:32:48.27	113.66	7.35	-52.6	-67.6	3.8	1.49e+00	0	42	104	0	77	19401
2026-01-03 08:32:49.26	113.58	7.42	-52.5	-67.4	3.8	1.49e+00	0	42	104	0	77	19110
2026-01-03 08:32:50.27	113.49	7.49	-52.5	-67.3	3.8	1.49e+00	0	42	104	0	77	18867
2026-01-03 08:32:51.27	113.41	7.55	-52.6	-67.3	3.8	1.49e+00	0	42	104	0	77	18839
2026-01-03 08:32:52.27	113.33	7.62	-52.5	-67.3	3.8	1.49e+00	0	42	104	0	77	18846
2026-01-03 08:32:53.27	113.24	7.69	-52.5	-67.2	3.8	1.49e+00	0	42	104	0	77	18618
2026-01-03 08:32:54.27	113.16	7.76	-52.5	-66.8	3.8	1.49e+00	0	42	104	0	77	17874
2026-01-03 08:32:55.27	113.07	7.83	-52.8	-65.8	3.8	1.49e+00	0	42	104	0	76	16882
2026-01-03 08:32:56.27	112.98	7.90	-52.4	-63.2	4.6	1.36e+00	0	43	0	0	76	12453
2026-01-03 08:32:57.26	112.90	7.96	-51.9	-60.7	6.1	6.02e-01	0	42	0	2097152	75	9838
2026-01-03 08:32:58.26	112.81	8.03	-51.3	-58.3	8.2	9.14e-02	0	42	0	4194304	74	7938
2026-01-03 08:32:59.26	112.72	8.10	-50.8	-56.4	10.1	1.36e-02	0	43	0	5242880	73	6796
2026-01-03 08:33:00.27	112.64	8.17	-50.1	-55.1	11.6	2.18e-03	0	43	0	7340032	72	6134
2026-01-03 08:33:01.26	112.55	8.24	-49.8	-54.0	12.9	2.49e-04	0	43	0	9437184	71	5781
2026-01-03 08:33:02.26	112.46	8.31	-49.2	-53.1	13.8	7.60e-06	0	42	0	11534336	70	5484
2026-01-03 08:33:03.26	112.37	8.38	-48.9	-52.6	14.2	2.20e-06	0	43	0	13631488	69	5504
2026-01-03 08:33:04.25	112.28	8.45	-48.7	-52.3	14.4	7.00e-07	0	43	0	14680064	69	5321
2026-01-03 08:33:05.26	112.19	8.52	-48.8	-52.4	14.4	0.00e+00	0	43	0	16777216	69	5354
2026-01-03 08:33:06.26	112.10	8.59	-49.0	-52.8	13.9	2.20e-06	0	43	0	18874368	69	5608
2026-01-03 08:33:07.26	112.01	8.66	-49.4	-53.6	13.1	1.06e-05	0	43	0	20971520	69	6183
2026-01-03 08:33:08.26	111.92	8.73	-50.1	-54.9	11.9	1.08e-04	0	43	0	23068672	70	6725
2026-01-03 08:33:09.26	111.83	8.80	-50.7	-56.2	10.3	2.47e-03	0	43	0	24117248	72	7033
2026-01-03 08:33:10.25	111.74	8.87	-51.6	-58.5	8.4	2.02e-02	0	43	0	26214400	73	8584
2026-01-03 08:33:11.25	111.64	8.94	-52.0	-60.9	6.1	1.35e-01	0	43	0	28311552	74	10680
2026-01-03 08:33:12.25	111.55	9.01	-52.3	-63.3	4.5	8.28e-01	0	43	0	30408704	75	13328
2026-01-03 08:33:13.25	111.46	9.08	-52.4	-64.9	3.9	1.44e+00	0	43	104	30408704	75	16029
2026-01-03 08:33:14.25	111.36	9.15	-51.8	-59.4	7.1	8.67e-02	0	43	0	31457280	74	9057
2026-01-03 08:33:15.25	111.27	9.22	-52.5	-64.4	4.2	3.46e-01	0	43	0	32505856	75	15115
2026-01-03 08:33:16.24	111.17	9.30	-52.5	-67.0	3.8	1.49e+00	0	43	104	32505856	75	20391
2026-01-03 08:33:17.24	111.08	9.37	-51.1	-57.2	9.4	1.85e-02	0	43	0	33554432	73	7432
2026-01-03 08:33:18.24	110.98	9.44	-52.6	-67.1	3.8	1.33e+00	0	43	104	33554432	75	20624
2026-01-03 08:33:19.24	110.89	9.51	-51.1	-57.1	9.4	2.89e-02	0	43	0	33554432	74	6933
2026-01-03 08:33:20.25	110.79	9.58	-51.2	-57.3	9.4	2.18e-02	0	43	0	35651584	74	7083
2026-01-03 08:33:21.25	110.69	9.65	-50.7	-55.9	10.8	6.78e-03	0	43	0	37748736	73	6394
2026-01-03 08:33:22.25	110.59	9.73	-50.3	-55.0	11.8	1.37e-03	0	43	0	38797312	72	6079
2026-01-03 08:33:23.25	110.49	9.80	-50.0	-54.4	12.5	1.81e-04	0	43	0	40894464	71	5999
2026-01-03 08:33:24.24	110.40	9.87	-49.6	-53.7	13.1	6.10e-05	0	43	0	42991616	71	5542
2026-01-03 08:33:25.24	110.30	9.94	-49.7	-53.8	13.0	2.82e-05	0	43	0	45088768	71	5599
2026-01-03 08:33:26.24	110.20	10.02	-49.6	-53.7	13.1	4.27e-05	0	43	0	46137344	71	5559
2026-01-03 08:33:27.24	110.10	10.09	-49.6	-53.5	13.6	1.75e-05	0	43	0	48234496	71	5406
2026-01-03 08:33:28.24	110.00	10.16	-49.3	-52.9	14.0	4.50e-06	0	43	0	50331648	70	5402
2026-01-03 08:33:29.24	109.90	10.23	-49.3	-53.0	14.0	3.00e-06	0	43	0	52428800	70	5419
2026-01-03 08:33:30.24	109.79	10.31	-48.9	-52.3	14.5	0.00e+00	0	43	0	54525952	69	5340
2026-01-03 08:33:31.24	109.69	10.38	-48.5	-51.8	15.1	0.00e+00	0	43	0	55574528	69	5007
2026-01-03 08:33:32.24	109.59	10.45	-48.3	-51.5	15.4	0.00e+00	0	43	0	57671680	68	5110
2026-01-03 08:33:33.24	109.48	10.53	-48.2	-51.3	15.7	0.00e+00	0	43	0	59768832	68	4987
2026-01-03 08:33:34.24	109.38	10.60	-48.2	-51.3	15.6	0.00e+00	0	43	0	61865984	68	4997
2026-01-03 08:33:35.24	109.28	10.67	-48.3	-51.5	15.5	0.00e+00	0	43	0	63963136	68	5112
2026-01-03 08:33:36.24	109.17	10.75	-48.2	-51.4	15.6	0.00e+00	0	43	0	65011712	68	5047
2026-01-03 08:33:37.24	109.06	10.82	-48.2	-51.3	15.6	0.00e+00	0	43	0	67108864	68	5025
2026-01-03 08:33:38.24	108.96	10.90	-48.1	-51.1	15.8	0.00e+00	0	43	0	69206016	68	4906
2026-01-03 08:33:39.24	108.85	10.97	-48.1	-51.2	15.8	0.00e+00	0	43	0	71303168	68	4932
2026-01-03 08:33:40.24	108.74	11.04	-48.0	-51.1	15.9	0.00e+00	0	43	0	72351744	68	4872
2026-01-03 08:33:41.24	108.64	11.12	-48.3	-51.4	15.8	0.00e+00	0	43	0	74448896	68	5067
2026-01-03 08:33:42.24	108.53	11.19	-48.4	-51.5	15.5	0.00e+00	0	43	0	76546048	68	5146
2026-01-03 08:33:43.24	108.42	11.27	-48.2	-51.3	15.7	0.00e+00	0	43	0	78643200	68	4994
2026-01-03 08:33:44.23	108.31	11.34	-48.2	-51.2	15.9	0.00e+00	0	43	0	80740352	68	4945
2026-01-03 08:33:45.23	108.20	11.42	-48.1	-51.1	15.8	0.00e+00	0	43	0	81788928	68	4912
2026-01-03 08:33:46.23	108.09	11.49	-48.1	-51.1	15.8	0.00e+00	0	43	0	83886080	68	4924
2026-01-03 08:33:47.23	107.98	11.57	-48.2	-51.3	15.6	0.00e+00	0	43	0	85983232	68	5010
2026-01-03 08:33:48.23	107.87	11.64	-48.2	-51.3	15.7	0.00e+00	0	43	0	88080384	68	4995
2026-01-03 08:33:49.23	107.75	11.72	-48.0	-51.1	15.8	0.00e+00	0	43	0	90177536	68	4916
2026-01-03 08:33:50.23	107.64	11.79	-48.2	-51.4	15.7	0.00e+00	0	43	0	91226112	68	5042
2026-01-03 08:33:51.23	107.53	11.87	-48.2	-51.3	15.7	0.00e+00	0	43	0	93323264	68	5005
2026-01-03 08:33:52.23	107.41	11.95	-48.1	-51.1	15.9	0.00e+00	0	43	0	95420416	68	4919
2026-01-03 08:33:53.22	107.30	12.02	-47.8	-50.8	16.1	0.00e+00	0	43	0	97517568	67	5001
2026-01-03 08:33:54.22	107.18	12.10	-48.2	-51.2	16.0	0.00e+00	0	43	0	99614720	67	5271
2026-01-03 08:33:55.22	107.07	12.17	-48.1	-51.1	15.9	0.00e+00	0	43	0	100663296	67	5206
2026-01-03 08:33:56.22	106.95	12.25	-48.0	-51.1	15.9	0.00e+00	0	43	0	102760448	67	5166
2026-01-03 08:33:57.22	106.83	12.33	-47.9	-51.0	15.9	0.00e+00	0	43	0	104857600	67	5109
2026-01-03 08:33:58.22	106.72	12.40	-47.9	-51.0	15.9	0.00e+00	0	43	0	106954752	67	5135
2026-01-03 08:33:59.22	106.60	12.48	-47.9	-50.9	16.0	0.00e+00	0	43	0	108003328	67	5068
2026-01-03 08:34:00.22	106.48	12.56	-47.8	-50.8	16.1	0.00e+00	0	43	0	110100480	67	5029
2026-01-03 08:34:01.22	106.36	12.63	-47.7	-50.6	16.2	0.00e+00	0	43	0	112197632	67	4924
2026-01-03 08:34:02.22	106.24	12.71	-47.6	-50.5	16.4	0.00e+00	0	43	0	114294784	67	4862
2026-01-03 08:34:03.22	106.12	12.79	-47.6	-50.5	16.4	0.00e+00	0	43	0	116391936	67	4853
2026-01-03 08:34:04.22	106.00	12.87	-47.6	-50.5	16.4	0.00e+00	0	43	0	117440512	67	4847
2026-01-03 08:34:05.22	105.87	12.94	-47.7	-50.6	16.2	0.00e+00	0	43	0	119537664	67	4926
2026-01-03 08:34:06.22	105.75	13.02	-47.7	-50.7	16.2	0.00e+00	0	43	0	121634816	67	4961
2026-01-03 08:34:07.22	105.63	13.10	-47.8	-50.8	16.1	0.00e+00	0	43	0	123731968	67	5005
2026-01-03 08:34:08.22	105.50	13.18	-47.8	-50.8	16.2	0.00e+00	0	43	0	125829120	67	4984
2026-01-03 08:34:09.22	105.38	13.25	-47.6	-50.5	16.3	0.00e+00	0	43	0	126877696	67	4867
2026-01-03 08:34:10.21	105.25	13.33	-48.0	-50.9	16.3	0.00e+00	0	43	0	128974848	67	5082
2026-01-03 08:34:11.21	105.13	13.41	-47.8	-50.7	16.4	0.00e+00	0	43	0	131072000	67	4952
2026-01-03 08:34:12.22	105.00	13.49	-47.8	-50.7	16.4	0.00e+00	0	43	0	133169152	67	4961
2026-01-03 08:34:13.22	104.87	13.57	-47.7	-50.6	16.3	0.00e+00	0	43	0	134217728	67	4921
2026-01-03 08:34:14.22	104.74	13.64	-47.9	-50.8	16.3	0.00e+00	0	43	0	136314880	67	4998
2026-01-03 08:34:15.22	104.61	13.72	-47.6	-50.4	16.5	0.00e+00	0	43	0	138412032	67	4799
2026-01-03 08:34:16.22	104.48	13.80	-47.5	-50.3	16.6	0.00e+00	0	43	0	140509184	67	4754
2026-01-03 08:34:17.22	104.35	13.88	-47.6	-50.5	16.6	0.00e+00	0	43	0	142606336	66	5101
2026-01-03 08:34:18.22	104.22	13.96	-47.5	-50.3	16.7	0.00e+00	0	43	0	143654912	66	5010
2026-01-03 08:34:19.22	104.09	14.04	-47.3	-50.1	16.8	0.00e+00	0	43	0	145752064	66	4892
2026-01-03 08:34:20.22	103.96	14.12	-47.4	-50.1	16.8	0.00e+00	0	43	0	147849216	66	4916
2026-01-03 08:34:21.22	103.82	14.20	-47.3	-50.0	16.9	0.00e+00	0	43	0	149946368	66	4862
2026-01-03 08:34:22.22	103.69	14.28	-47.2	-50.0	16.9	0.00e+00	0	43	0	152043520	66	4827
2026-01-03 08:34:23.22	103.56	14.36	-47.3	-50.1	16.8	0.00e+00	0	43	0	153092096	66	4877
2026-01-03 08:34:24.22	103.42	14.44	-47.6	-50.4	16.8	0.00e+00	0	43	0	155189248	66	5058
2026-01-03 08:34:25.22	103.28	14.51	-47.7	-50.5	16.7	0.00e+00	0	43	0	157286400	66	5106
2026-01-03 08:34:26.22	103.15	14.59	-47.5	-50.3	16.7	0.00e+00	0	43	0	159383552	66	5000
2026-01-03 08:34:27.22	103.01	14.67	-47.5	-50.3	16.8	0.00e+00	0	43	0	161480704	66	4999
2026-01-03 08:34:28.22	102.87	14.75	-47.3	-50.0	16.9	0.00e+00	0	43	0	162529280	66	4852
2026-01-03 08:34:29.22	102.73	14.83	-47.3	-50.0	17.0	0.00e+00	0	43	0	164626432	66	4866
2026-01-03 08:34:30.21	102.59	14.91	-47.4	-50.1	16.8	0.00e+00	0	43	0	166723584	66	4924
2026-01-03 08:34:31.21	102.45	14.99	-47.3	-50.1	16.8	0.00e+00	0	43	0	168820736	66	4909
2026-01-03 08:34:32.21	102.31	15.07	-47.4	-50.1	16.8	0.00e+00	0	43	0	169869312	66	4916
2026-01-03 08:34:33.21	102.17	15.15	-47.4	-50.2	16.9	0.00e+00	0	43	0	171966464	66	4934
2026-01-03 08:34:34.21	102.02	15.23	-47.1	-49.8	17.2	0.00e+00	0	43	0	174063616	66	4728
2026-01-03 08:34:35.21	101.88	15.32	-47.2	-49.8	17.2	0.00e+00	0	43	0	176160768	66	4756
2026-01-03 08:34:36.21	101.74	15.40	-47.2	-49.9	17.1	0.00e+00	0	43	0	178257920	66	4773
2026-01-03 08:34:37.21	101.59	15.48	-47.1	-49.8	17.2	0.00e+00	0	43	0	179306496	66	4724
2026-01-03 08:34:38.21	101.44	15.56	-47.6	-50.3	17.1	0.00e+00	0	43	0	181403648	66	4993
2026-01-03 08:34:39.21	101.30	15.64	-47.5	-50.2	17.0	0.00e+00	0	43	0	183500800	66	4974
2026-01-03 08:34:40.21	101.15	15.72	-47.2	-49.8	17.2	0.00e+00	0	43	0	185597952	66	4750
2026-01-03 08:34:41.21	101.00	15.80	-47.2	-49.8	17.2	0.00e+00	0	43	0	187695104	66	4751
2026-01-03 08:34:42.21	100.85	15.88	-47.1	-49.7	17.3	0.00e+00	0	43	0	188743680	65	4958
2026-01-03 08:34:43.21	100.70	15.96	-47.0	-49.7	17.3	0.00e+00	0	43	0	190840832	65	4961
2026-01-03 08:34:44.21	100.55	16.04	-46.9	-49.5	17.4	0.00e+00	0	43	0	192937984	65	4860
2026-01-03 08:34:45.20	100.40	16.12	-47.1	-49.7	17.3	0.00e+00	0	43	0	195035136	65	4958
2026-01-03 08:34:46.21	100.24	16.21	-47.1	-49.8	17.3	0.00e+00	0	43	0	196083712	65	4984
2026-01-03 08:34:47.21	100.09	16.29	-47.0	-49.7	17.3	0.00e+00	0	43	0	198180864	65	4943
2026-01-03 08:34:48.21	99.94	16.37	-47.2	-49.8	17.2	0.00e+00	0	43	0	200278016	65	5033
2026-01-03 08:34:49.21	99.78	16.45	-47.2	-49.8	17.1	0.00e+00	0	43	0	202375168	65	5039
2026-01-03 08:34:50.21	99.63	16.53	-47.3	-50.0	17.0	0.00e+00	0	43	0	204472320	65	5135
2026-01-03 08:34:51.21	99.47	16.61	-47.3	-50.1	16.9	0.00e+00	0	43	0	205520896	65	5173
2026-01-03 08:34:52.21	99.31	16.70	-47.8	-50.5	16.9	0.00e+00	0	43	0	207618048	66	5128
2026-01-03 08:34:53.21	99.15	16.78	-47.5	-50.2	16.9	0.00e+00	0	43	0	209715200	66	4974
2026-01-03 08:34:54.21	98.99	16.86	-47.4	-50.2	16.9	0.00e+00	0	43	0	211812352	66	4954
2026-01-03 08:34:55.21	98.83	16.94	-47.5	-50.2	16.8	0.00e+00	0	43	0	213909504	66	4981
2026-01-03 08:34:56.21	98.67	17.02	-47.4	-50.2	17.0	0.00e+00	0	43	0	214958080	66	4928
2026-01-03 08:34:57.20	98.51	17.10	-47.2	-49.9	17.1	0.00e+00	0	43	0	217055232	66	4779
2026-01-03 08:34:58.20	98.35	17.19	-47.2	-49.9	17.1	0.00e+00	0	43	0	219152384	66	4796
2026-01-03 08:34:59.20	98.18	17.27	-47.2	-49.9	17.0	0.00e+00	0	43	0	221249536	66	4814
2026-01-03 08:35:00.19	98.02	17.35	-47.3	-50.1	16.9	0.00e+00	0	43	0	222298112	66	4897
2026-01-03 08:35:01.16	97.86	17.43	-47.3	-50.0	17.0	0.00e+00	0	43	0	224395264	66	4858
2026-01-03 08:35:02.16	97.69	17.51	-47.3	-50.1	17.0	0.00e+00	0	43	0	226492416	66	4874
2026-01-03 08:35:03.16	97.52	17.59	-47.3	-50.0	17.0	0.00e+00	0	43	0	228589568	66	4842
2026-01-03 08:35:04.16	97.35	17.67	-47.7	-50.4	16.9	0.00e+00	0	43	0	230686720	66	5078
2026-01-03 08:35:05.16	97.18	17.76	-47.7	-50.5	16.7	0.00e+00	0	43	0	231735296	66	5147
2026-01-03 08:35:06.16	97.01	17.84	-47.5	-50.2	16.8	0.00e+00	0	44	0	233832448	66	4967
2026-01-03 08:35:07.16	96.84	17.92	-47.2	-49.9	17.2	0.00e+00	0	43	0	235929600	66	4766
2026-01-03 08:35:08.16	96.67	18.00	-47.2	-49.9	17.2	0.00e+00	0	43	0	238026752	66	4775
2026-01-03 08:35:09.16	96.50	18.08	-47.2	-49.8	17.2	0.00e+00	0	43	0	240123904	66	4738
2026-01-03 08:35:10.16	96.32	18.17	-47.2	-49.9	17.1	0.00e+00	0	43	0	241172480	66	4791
2026-01-03 08:35:11.16	96.15	18.25	-47.3	-50.0	17.0	0.00e+00	0	43	0	243269632	66	4833
2026-01-03 08:35:12.16	95.97	18.33	-47.3	-50.0	17.0	0.00e+00	0	43	0	245366784	66	4866
2026-01-03 08:35:13.16	95.79	18.41	-47.4	-50.1	16.9	0.00e+00	0	43	0	247463936	66	4900
2026-01-03 08:35:14.16	95.62	18.50	-47.5	-50.3	16.7	0.00e+00	0	43	0	248512512	66	5010
2026-01-03 08:35:15.16	95.44	18.58	-47.6	-50.4	16.7	0.00e+00	0	43	0	250609664	66	5047
2026-01-03 08:35:16.16	95.26	18.66	-47.6	-50.5	16.6	0.00e+00	0	43	0	252706816	66	5107
2026-01-03 08:35:17.16	95.08	18.74	-47.7	-50.6	16.6	0.00e+00	0	43	0	254803968	66	5171
2026-01-03 08:35:18.16	94.89	18.82	-47.6	-50.5	16.7	0.00e+00	0	43	0	256901120	66	5106
2026-01-03 08:35:19.16	94.71	18.91	-47.6	-50.4	16.7	0.00e+00	0	43	0	257949696	66	5078
2026-01-03 08:35:20.16	94.53	18.99	-47.4	-50.2	16.9	0.00e+00	0	43	0	260046848	66	4965
2026-01-03 08:35:21.15	94.34	19.07	-47.4	-50.2	16.9	0.00e+00	0	43	0	262144000	66	4935
2026-01-03 08:35:22.15	94.16	19.15	-47.4	-50.1	16.9	0.00e+00	0	43	0	264241152	66	4912
2026-01-03 08:35:23.15	93.97	19.23	-47.3	-50.0	17.0	0.00e+00	0	43	0	266338304	66	4869
2026-01-03 08:35:24.16	93.78	19.32	-47.3	-50.1	16.9	0.00e+00	0	43	0	267386880	66	4884
2026-01-03 08:35:25.15	93.59	19.40	-47.4	-50.1	16.9	0.00e+00	0	43	0	269484032	66	4907
2026-01-03 08:35:26.15	93.40	19.48	-47.4	-50.1	16.9	0.00e+00	0	43	0	271581184	66	4916
2026-01-03 08:35:27.15	93.21	19.56	-47.4	-50.2	16.8	0.00e+00	0	43	0	273678336	66	4950
2026-01-03 08:35:28.15	93.02	19.64	-47.1	-49.8	17.2	0.00e+00	0	43	0	274726912	66	4711
2026-01-03 08:35:29.14	92.83	19.72	-47.0	-49.6	17.4	0.00e+00	0	43	0	276824064	66	4636
2026-01-03 08:35:30.14	92.63	19.80	-46.9	-49.6	17.4	0.00e+00	0	43	0	278921216	65	4874
2026-01-03 08:35:31.14	92.44	19.88	-47.3	-49.9	17.5	0.00e+00	0	43	0	281018368	65	5061
2026-01-03 08:35:32.14	92.24	19.97	-46.9	-49.5	17.7	0.00e+00	0	43	0	283115520	65	4836
2026-01-03 08:35:33.13	92.05	20.05	-46.8	-49.4	17.7	0.00e+00	0	43	0	284164096	65	4804
2026-01-03 08:35:34.13	91.85	20.13	-46.8	-49.4	17.7	0.00e+00	0	43	0	286261248	65	4789
2026-01-03 08:35:35.13	91.65	20.21	-46.8	-49.3	17.7	0.00e+00	0	43	0	288358400	65	4747
2026-01-03 08:35:36.12	91.45	20.29	-46.8	-49.4	17.7	0.00e+00	0	43	0	290455552	65	4766
2026-01-03 08:35:37.12	91.25	20.37	-46.7	-49.2	17.9	0.00e+00	0	43	0	292552704	65	4677
2026-01-03 08:35:38.11	91.05	20.45	-46.5	-49.0	18.0	0.00e+00	0	43	0	293601280	65	4593
2026-01-03 08:35:39.11	90.84	20.53	-46.5	-49.0	18.1	0.00e+00	0	43	0	295698432	64	4830
2026-01-03 08:35:40.11	90.64	20.61	-46.4	-48.9	18.1	0.00e+00	0	43	0	297795584	64	4771
2026-01-03 08:35:41.11	90.43	20.69	-46.4	-48.9	18.1	0.00e+00	0	43	0	299892736	64	4799
2026-01-03 08:35:42.11	90.23	20.77	-46.2	-48.7	18.3	0.00e+00	0	43	0	300941312	64	4683
2026-01-03 08:35:43.10	90.02	20.85	-46.1	-48.6	18.4	0.00e+00	0	43	0	303038464	64	4624
2026-01-03 08:35:44.10	89.81	20.93	-46.2	-48.7	18.3	0.00e+00	0	43	0	305135616	64	4677
2026-01-03 08:35:45.10	89.60	21.01	-46.1	-48.6	18.4	0.00e+00	0	43	0	307232768	64	4608
2026-01-03 08:35:46.09	89.39	21.09	-46.0	-48.4	18.7	0.00e+00	0	43	0	309329920	63	4771
2026-01-03 08:35:47.10	89.18	21.17	-46.4	-48.8	18.6	0.00e+00	0	43	0	310378496	63	4993
2026-01-03 08:35:48.09	88.97	21.25	-45.9	-48.2	18.9	0.00e+00	0	43	0	312475648	63	4682
2026-01-03 08:35:49.09	88.75	21.32	-45.8	-48.2	19.0	0.00e+00	0	43	0	314572800	63	4664
2026-01-03 08:35:50.09	88.54	21.40	-45.7	-48.1	19.0	0.00e+00	0	43	0	316669952	63	4607
2026-01-03 08:35:51.09	88.32	21.48	-45.6	-47.9	19.2	0.00e+00	0	43	0	317718528	63	4531
2026-01-03 08:35:52.08	88.10	21.56	-45.5	-47.8	19.3	0.00e+00	0	43	0	319815680	63	4446
2026-01-03 08:35:53.08	87.89	21.64	-45.6	-47.9	19.2	0.00e+00	0	43	0	321912832	63	4497
2026-01-03 08:35:54.07	87.67	21.71	-45.5	-47.8	19.2	0.00e+00	0	43	0	324009984	62	4728
2026-01-03 08:35:55.07	87.45	21.79	-45.5	-47.8	19.3	0.00e+00	0	43	0	326107136	62	4721
2026-01-03 08:35:56.07	87.22	21.87	-45.6	-47.9	19.2	0.00e+00	0	43	0	327155712	62	4794
2026-01-03 08:35:57.06	87.00	21.95	-45.6	-47.9	19.2	0.00e+00	0	43	0	329252864	62	4798
2026-01-03 08:35:58.06	86.78	22.02	-45.5	-47.8	19.3	0.00e+00	0	43	0	331350016	62	4732
2026-01-03 08:35:59.05	86.56	22.10	-45.4	-47.7	19.3	0.00e+00	0	43	0	333447168	62	4703
2026-01-03 08:36:00.05	86.33	22.18	-45.5	-47.8	19.3	0.00e+00	0	43	0	334495744	62	4725
2026-01-03 08:36:01.05	86.10	22.25	-45.6	-47.9	19.2	0.00e+00	0	43	0	336592896	62	4762
2026-01-03 08:36:02.05	85.87	22.33	-45.6	-47.9	19.2	0.00e+00	0	43	0	338690048	62	4764
2026-01-03 08:36:03.05	85.64	22.40	-45.4	-47.7	19.3	0.00e+00	0	43	0	340787200	62	4693
2026-01-03 08:36:04.05	85.41	22.48	-45.4	-47.7	19.3	0.00e+00	0	43	0	342884352	62	4687
2026-01-03 08:36:05.05	85.18	22.56	-45.7	-47.9	19.3	0.00e+00	0	43	0	343932928	62	4814
2026-01-03 08:36:06.05	84.94	22.63	-45.7	-48.0	19.2	0.00e+00	0	43	0	346030080	62	4837
2026-01-03 08:36:07.05	84.71	22.71	-45.5	-47.8	19.4	0.00e+00	0	43	0	348127232	62	4740
2026-01-03 08:36:08.04	84.48	22.78	-45.4	-47.7	19.4	0.00e+00	0	43	0	350224384	62	4676
2026-01-03 08:36:09.04	84.24	22.85	-45.4	-47.8	19.3	0.00e+00	0	43	0	352321536	62	4727
2026-01-03 08:36:10.04	84.00	22.93	-45.3	-47.6	19.5	0.00e+00	0	43	0	353370112	62	4651
2026-01-03 08:36:11.04	83.76	23.00	-45.3	-47.6	19.5	0.00e+00	0	43	0	355467264	62	4621
2026-01-03 08:36:12.05	83.52	23.07	-45.4	-47.7	19.4	0.00e+00	0	43	0	357564416	62	4660
2026-01-03 08:36:13.05	83.28	23.15	-45.4	-47.7	19.5	0.00e+00	0	43	0	359661568	62	4658
2026-01-03 08:36:14.05	83.03	23.22	-45.4	-47.6	19.5	0.00e+00	0	43	0	360710144	62	4633
2026-01-03 08:36:15.05	82.79	23.29	-45.5	-47.7	19.4	0.00e+00	0	43	0	362807296	62	4702
2026-01-03 08:36:16.05	82.55	23.36	-45.7	-48.0	19.3	0.00e+00	0	43	0	364904448	62	4837
2026-01-03 08:36:17.04	82.30	23.43	-45.7	-48.0	19.2	0.00e+00	0	43	0	367001600	62	4868
2026-01-03 08:36:18.04	82.06	23.51	-45.7	-48.1	19.1	0.00e+00	0	43	0	369098752	62	4882
2026-01-03 08:36:19.05	81.81	23.58	-45.7	-48.0	19.1	0.00e+00	0	43	0	370147328	62	4856
2026-01-03 08:36:20.05	81.56	23.65	-45.8	-48.2	18.9	0.00e+00	0	43	0	372244480	62	4964
2026-01-03 08:36:21.05	81.31	23.72	-45.7	-48.1	19.0	0.00e+00	0	43	0	374341632	62	4885
2026-01-03 08:36:22.05	81.05	23.79	-45.8	-48.1	19.0	0.00e+00	0	43	0	376438784	62	4915
2026-01-03 08:36:23.05	80.80	23.85	-45.7	-48.0	19.1	0.00e+00	0	43	0	378535936	62	4853
2026-01-03 08:36:24.04	80.55	23.92	-45.9	-48.2	19.0	0.00e+00	0	43	0	379584512	62	4963
2026-01-03 08:36:25.04	80.29	23.99	-45.8	-48.1	19.0	0.00e+00	0	43	0	381681664	62	4882
2026-01-03 08:36:26.04	80.04	24.06	-45.9	-48.2	19.0	0.00e+00	0	43	0	383778816	62	4927
2026-01-03 08:36:27.04	79.78	24.13	-45.8	-48.1	19.0	0.00e+00	0	43	0	385875968	62	4898
2026-01-03 08:36:28.04	79.52	24.19	-45.6	-47.8	19.2	0.00e+00	0	43	0	387973120	62	4740
2026-01-03 08:36:29.04	79.26	24.26	-45.5	-47.8	19.3	0.00e+00	0	43	0	389021696	62	4717
2026-01-03 08:36:30.03	79.01	24.32	-45.6	-47.9	19.2	0.00e+00	0	43	0	391118848	62	4774
2026-01-03 08:36:31.03	78.74	24.39	-45.5	-47.8	19.3	0.00e+00	0	43	0	393216000	62	4713
2026-01-03 08:36:32.03	78.48	24.45	-45.9	-48.1	19.3	0.00e+00	0	43	0	395313152	62	4921
2026-01-03 08:36:33.03	78.22	24.52	-45.8	-48.1	19.2	0.00e+00	0	43	0	396361728	62	4883
2026-01-03 08:36:34.02	77.96	24.58	-45.6	-47.9	19.4	0.00e+00	0	43	0	398458880	62	4783
2026-01-03 08:36:35.02	77.69	24.65	-45.5	-47.8	19.3	0.00e+00	0	43	0	400556032	62	4730
2026-01-03 08:36:36.02	77.42	24.71	-45.5	-47.8	19.3	0.00e+00	0	43	0	402653184	62	4736
2026-01-03 08:36:37.02	77.16	24.77	-45.6	-47.8	19.3	0.00e+00	0	43	0	404750336	62	4757
2026-01-03 08:36:38.01	76.89	24.83	-45.4	-47.7	19.5	0.00e+00	0	43	0	405798912	62	4669
2026-01-03 08:36:39.01	76.62	24.89	-45.3	-47.5	19.6	0.00e+00	0	43	0	407896064	62	4586
2026-01-03 08:36:40.01	76.35	24.95	-45.4	-47.6	19.5	0.00e+00	0	43	0	409993216	62	4634
2026-01-03 08:36:41.01	76.08	25.01	-45.4	-47.6	19.6	0.00e+00	0	43	0	412090368	62	4625
2026-01-03 08:36:42.00	75.81	25.07	-45.3	-47.5	19.6	0.00e+00	0	43	0	413138944	62	4598
2026-01-03 08:36:43.00	75.53	25.13	-45.4	-47.6	19.6	0.00e+00	0	43	0	415236096	62	4606
2026-01-03 08:36:44.00	75.26	25.19	-45.5	-47.7	19.5	0.00e+00	0	43	0	417333248	62	4672
2026-01-03 08:36:45.00	74.98	25.25	-45.3	-47.5	19.6	0.00e+00	0	43	0	419430400	62	4592
2026-01-03 08:36:46.00	74.70	25.31	-45.6	-47.8	19.6	0.00e+00	0	43	0	421527552	62	4725
2026-01-03 08:36:47.00	74.42	25.36	-45.6	-47.8	19.5	0.00e+00	0	43	0	422576128	62	4729
2026-01-03 08:36:47.99	74.15	25.42	-45.5	-47.7	19.5	0.00e+00	0	43	0	424673280	62	4677
2026-01-03 08:36:48.99	73.87	25.47	-45.5	-47.8	19.4	0.00e+00	0	43	0	426770432	62	4708
2026-01-03 08:36:49.99	73.59	25.53	-45.7	-48.0	19.2	0.00e+00	0	43	0	428867584	62	4823
2026-01-03 08:36:50.99	73.30	25.58	-45.8	-48.1	19.1	0.00e+00	0	43	0	430964736	62	4917
2026-01-03 08:36:51.99	73.02	25.63	-45.8	-48.1	19.1	0.00e+00	0	43	0	432013312	62	4878
2026-01-03 08:36:52.99	72.74	25.69	-45.9	-48.2	19.1	0.00e+00	0	43	0	434110464	62	4943
2026-01-03 08:36:53.98	72.46	25.74	-46.0	-48.3	18.9	0.00e+00	0	43	0	436207616	62	5037
2026-01-03 08:36:54.98	72.17	25.79	-46.1	-48.4	18.8	0.00e+00	0	43	0	438304768	62	5086
2026-01-03 08:36:55.97	71.89	25.84	-46.2	-48.5	18.7	0.00e+00	0	43	0	440401920	63	4854
2026-01-03 08:36:56.97	71.60	25.89	-46.2	-48.5	18.6	0.00e+00	0	43	0	441450496	63	4861
2026-01-03 08:36:57.97	71.31	25.94	-46.2	-48.5	18.7	0.00e+00	0	43	0	443547648	63	4862
2026-01-03 08:36:58.97	71.02	25.99	-46.1	-48.4	18.8	0.00e+00	0	43	0	445644800	63	4794
2026-01-03 08:36:59.97	70.73	26.04	-46.2	-48.6	18.6	0.00e+00	0	43	0	447741952	63	4910
2026-01-03 08:37:00.96	70.44	26.08	-46.3	-48.7	18.5	0.00e+00	0	43	0	448790528	63	4961
2026-01-03 08:37:01.96	70.15	26.13	-46.7	-49.2	18.2	0.00e+00	0	43	0	450887680	64	4928
2026-01-03 08:37:02.96	69.86	26.17	-46.7	-49.1	18.2	0.00e+00	0	43	0	452984832	64	4909
2026-01-03 08:37:03.97	69.56	26.22	-46.6	-49.0	18.3	0.00e+00	0	43	0	455081984	64	4849
2026-01-03 08:37:04.96	69.27	26.26	-46.6	-49.0	18.2	0.00e+00	0	43	0	457179136	64	4866
2026-01-03 08:37:05.96	68.97	26.31	-46.5	-49.0	18.2	0.00e+00	0	43	0	458227712	64	4818
2026-01-03 08:37:06.97	68.67	26.35	-46.8	-49.3	17.9	0.00e+00	0	43	0	460324864	64	4993
2026-01-03 08:37:07.96	68.38	26.39	-46.7	-49.2	18.1	0.00e+00	0	43	0	462422016	64	4943
2026-01-03 08:37:08.96	68.08	26.43	-46.9	-49.4	17.8	0.00e+00	0	43	0	464519168	64	5067
2026-01-03 08:37:09.96	67.78	26.47	-46.7	-49.2	18.0	0.00e+00	0	43	0	466616320	64	4945
2026-01-03 08:37:10.96	67.48	26.51	-46.9	-49.4	17.8	0.00e+00	0	43	0	467664896	64	5063
2026-01-03 08:37:11.96	67.18	26.55	-47.0	-49.5	17.7	0.00e+00	0	43	0	469762048	64	5144
2026-01-03 08:37:12.96	66.88	26.59	-47.0	-49.6	17.6	0.00e+00	0	43	0	471859200	64	5196
2026-01-03 08:37:13.96	66.58	26.63	-47.3	-49.8	17.6	0.00e+00	0	43	0	473956352	65	5040
2026-01-03 08:37:14.96	66.28	26.66	-47.2	-49.8	17.4	0.00e+00	0	43	0	475004928	65	5030
2026-01-03 08:37:15.96	65.98	26.70	-47.2	-49.7	17.5	0.00e+00	0	43	0	477102080	65	4981
2026-01-03 08:37:16.96	65.67	26.73	-47.1	-49.8	17.4	0.00e+00	0	43	0	479199232	65	4990
2026-01-03 08:37:17.96	65.37	26.77	-47.1	-49.6	17.7	0.00e+00	0	43	0	481296384	65	4909
2026-01-03 08:37:18.96	65.06	26.80	-47.1	-49.6	17.7	0.00e+00	0	43	0	483393536	65	4904
2026-01-03 08:37:19.96	64.76	26.83	-47.1	-49.7	17.6	0.00e+00	0	43	0	484442112	65	4927
2026-01-03 08:37:20.96	64.45	26.86	-47.2	-49.8	17.4	0.00e+00	0	43	0	486539264	65	5034
2026-01-03 08:37:21.96	64.14	26.89	-47.3	-49.9	17.4	0.00e+00	0	43	0	488636416	65	5070
2026-01-03 08:37:22.95	63.84	26.92	-47.1	-49.7	17.5	0.00e+00	0	43	0	490733568	65	4950
2026-01-03 08:37:23.95	63.53	26.95	-47.1	-49.7	17.5	0.00e+00	0	43	0	492830720	65	4938
2026-01-03 08:37:24.95	63.22	26.98	-47.2	-49.9	17.3	0.00e+00	0	43	0	493879296	65	5053
2026-01-03 08:37:25.95	62.92	27.00	-47.4	-50.1	17.1	0.00e+00	0	43	0	495976448	65	5202
2026-01-03 08:37:26.95	62.61	27.03	-47.5	-50.2	17.0	0.00e+00	0	43	0	498073600	65	5272
2026-01-03 08:37:27.95	62.30	27.06	-47.5	-50.2	17.0	0.00e+00	0	43	0	500170752	65	5236
2026-01-03 08:37:28.95	61.99	27.08	-47.4	-50.1	17.1	7.00e-07	0	43	0	501219328	65	5196
2026-01-03 08:37:29.95	61.68	27.10	-47.7	-50.4	17.1	0.00e+00	0	43	0	503316480	66	5080
2026-01-03 08:37:30.95	61.36	27.12	-47.5	-50.2	17.2	0.00e+00	0	43	0	505413632	66	4961
2026-01-03 08:37:31.94	61.06	27.15	-47.5	-50.2	17.1	0.00e+00	0	43	0	507510784	66	4972
2026-01-03 08:37:32.94	60.74	27.17	-47.3	-50.0	17.3	0.00e+00	0	43	0	509607936	66	4848
2026-01-03 08:37:33.94	60.43	27.19	-47.4	-50.1	17.2	0.00e+00	0	43	0	510656512	66	4889
2026-01-03 08:37:34.94	60.12	27.20	-47.4	-50.2	17.1	0.00e+00	0	43	0	512753664	66	4930
2026-01-03 08:37:35.94	59.81	27.22	-47.6	-50.4	16.9	0.00e+00	0	43	0	514850816	66	5062
2026-01-03 08:37:36.94	59.49	27.24	-47.7	-50.5	16.8	0.00e+00	0	43	0	516947968	66	5122
2026-01-03 08:37:37.94	59.18	27.25	-47.6	-50.4	16.9	0.00e+00	0	43	0	519045120	66	5046
2026-01-03 08:37:38.94	58.86	27.27	-47.6	-50.3	16.9	0.00e+00	0	43	0	520093696	66	5036
2026-01-03 08:37:39.94	58.55	27.28	-47.5	-50.2	17.1	0.00e+00	0	43	0	522190848	66	4963
2026-01-03 08:37:40.94	58.24	27.30	-47.5	-50.2	17.1	0.00e+00	0	43	0	524288000	66	4937
2026-01-03 08:37:41.94	57.92	27.31	-47.2	-49.8	17.4	0.00e+00	0	43	0	526385152	66	4749
2026-01-03 08:37:42.94	57.61	27.32	-46.9	-49.5	17.7	0.00e+00	0	43	0	527433728	65	4830
2026-01-03 08:37:43.94	57.29	27.33	-46.9	-49.4	17.8	0.00e+00	0	43	0	529530880	65	4786
2026-01-03 08:37:44.94	56.98	27.34	-46.9	-49.4	17.7	0.00e+00	0	43	0	531628032	65	4813
2026-01-03 08:37:45.94	56.66	27.35	-46.9	-49.5	17.8	0.00e+00	0	43	0	533725184	65	4818
2026-01-03 08:37:46.94	56.34	27.35	-47.0	-49.5	17.7	0.00e+00	0	43	0	535822336	65	4866
2026-01-03 08:37:47.94	56.03	27.36	-46.9	-49.4	17.8	0.00e+00	0	43	0	536870912	65	4798
2026-01-03 08:37:48.94	55.71	27.36	-47.0	-49.5	17.9	0.00e+00	0	44	0	538968064	65	4830
2026-01-03 08:37:49.94	55.40	27.37	-46.9	-49.3	17.9	0.00e+00	0	43	0	541065216	65	4759
2026-01-03 08:37:50.94	55.08	27.37	-46.8	-49.2	18.1	0.00e+00	0	43	0	543162368	65	4702
2026-01-03 08:37:51.94	54.76	27.37	-46.9	-49.4	18.0	7.00e-07	0	43	0	545259520	65	4775
2026-01-03 08:37:52.94	54.45	27.38	-46.8	-49.3	18.0	0.00e+00	0	43	0	546308096	65	4733
2026-01-03 08:37:53.94	54.13	27.38	-46.8	-49.3	18.0	0.00e+00	0	43	0	548405248	65	4731
2026-01-03 08:37:54.94	53.82	27.38	-46.8	-49.3	18.1	0.00e+00	0	43	0	550502400	65	4706
2026-01-03 08:37:55.94	53.50	27.37	-46.6	-49.1	18.2	0.00e+00	0	43	0	552599552	65	4627
2026-01-03 08:37:56.94	53.18	27.37	-46.7	-49.1	18.2	0.00e+00	0	43	0	553648128	65	4641
2026-01-03 08:37:57.94	52.87	27.37	-46.7	-49.2	18.1	0.00e+00	0	43	0	555745280	65	4656
2026-01-03 08:37:58.94	52.55	27.36	-46.6	-49.0	18.3	0.00e+00	0	43	0	557842432	65	4577
2026-01-03 08:37:59.94	52.24	27.36	-46.7	-49.2	18.1	0.00e+00	0	43	0	559939584	65	4680
2026-01-03 08:38:00.94	51.92	27.35	-46.5	-48.9	18.3	0.00e+00	0	43	0	562036736	64	4802
2026-01-03 08:38:01.94	51.60	27.35	-46.6	-49.0	18.2	0.00e+00	0	44	0	563085312	64	4865
2026-01-03 08:38:02.94	51.29	27.34	-46.4	-48.8	18.3	0.00e+00	0	43	0	565182464	64	4756
2026-01-03 08:38:03.94	50.97	27.33	-46.4	-48.8	18.4	0.00e+00	0	43	0	567279616	64	4744
2026-01-03 08:38:04.94	50.66	27.32	-46.2	-48.5	18.7	0.00e+00	0	43	0	569376768	64	4579
2026-01-03 08:38:05.93	50.35	27.31	-46.1	-48.5	18.8	0.00e+00	0	43	0	571473920	64	4548
2026-01-03 08:38:06.93	50.03	27.29	-46.0	-48.3	19.0	0.00e+00	0	43	0	572522496	63	4754
2026-01-03 08:38:07.92	49.72	27.28	-46.0	-48.3	19.0	0.00e+00	0	43	0	574619648	63	4727
2026-01-03 08:38:08.92	49.41	27.27	-46.2	-48.5	19.1	0.00e+00	0	43	0	576716800	63	4815
2026-01-03 08:38:09.92	49.09	27.25	-46.0	-48.3	19.1	0.00e+00	0	43	0	578813952	63	4724
2026-01-03 08:38:10.91	48.78	27.24	-46.0	-48.3	19.2	0.00e+00	0	43	0	580911104	63	4710
2026-01-03 08:38:11.91	48.47	27.22	-46.0	-48.3	19.1	0.00e+00	0	43	0	581959680	63	4740
2026-01-03 08:38:12.91	48.16	27.20	-46.1	-48.4	18.9	0.00e+00	0	43	0	584056832	63	4801
2026-01-03 08:38:13.90	47.85	27.18	-46.0	-48.3	19.0	0.00e+00	0	44	0	586153984	63	4732
2026-01-03 08:38:14.90	47.54	27.17	-45.8	-48.1	19.2	0.00e+00	0	44	0	588251136	63	4611
2026-01-03 08:38:15.90	47.22	27.14	-45.8	-48.0	19.3	0.00e+00	0	43	0	589299712	63	4577
2026-01-03 08:38:16.90	46.91	27.12	-45.7	-47.9	19.4	0.00e+00	0	43	0	591396864	63	4526
2026-01-03 08:38:17.90	46.60	27.10	-45.6	-47.9	19.4	0.00e+00	0	43	0	593494016	63	4511
2026-01-03 08:38:18.89	46.29	27.08	-45.9	-48.1	19.3	0.00e+00	0	43	0	595591168	63	4642
2026-01-03 08:38:19.89	45.98	27.05	-46.0	-48.3	19.1	0.00e+00	0	43	0	597688320	63	4711
2026-01-03 08:38:20.89	45.67	27.03	-46.0	-48.4	19.0	0.00e+00	0	43	0	598736896	63	4761
2026-01-03 08:38:21.88	45.37	27.00	-46.0	-48.3	19.1	0.00e+00	0	43	0	600834048	63	4747
2026-01-03 08:38:22.88	45.06	26.98	-46.1	-48.4	19.0	0.00e+00	0	43	0	602931200	63	4782
2026-01-03 08:38:23.88	44.75	26.95	-46.1	-48.4	19.0	0.00e+00	0	43	0	605028352	63	4790
2026-01-03 08:38:24.87	44.45	26.92	-46.0	-48.4	19.0	0.00e+00	0	43	0	606076928	63	4764
2026-01-03 08:38:25.87	44.14	26.89	-46.0	-48.4	19.0	0.00e+00	0	43	0	608174080	63	4765
2026-01-03 08:38:26.87	43.84	26.86	-46.1	-48.4	19.0	0.00e+00	0	43	0	610271232	63	4789
2026-01-03 08:38:27.86	43.53	26.83	-46.0	-48.3	19.0	0.00e+00	0	43	0	612368384	63	4758
2026-01-03 08:38:28.86	43.23	26.80	-46.0	-48.3	19.0	0.00e+00	0	43	0	614465536	63	4712
2026-01-03 08:38:29.86	42.92	26.77	-46.0	-48.3	19.0	0.00e+00	0	43	0	615514112	63	4724
2026-01-03 08:38:30.86	42.62	26.73	-46.1	-48.4	18.8	0.00e+00	0	43	0	617611264	63	4813
2026-01-03 08:38:31.85	42.32	26.70	-46.3	-48.7	18.7	0.00e+00	0	43	0	619708416	63	4930
2026-01-03 08:38:32.85	42.02	26.66	-46.3	-48.7	18.7	0.00e+00	0	43	0	621805568	63	4938
2026-01-03 08:38:33.85	41.72	26.63	-46.4	-48.8	18.6	0.00e+00	0	43	0	622854144	63	4990
2026-01-03 08:38:34.85	41.42	26.59	-46.5	-48.9	18.5	0.00e+00	0	43	0	624951296	63	5050
2026-01-03 08:38:35.84	41.12	26.55	-46.8	-49.2	18.5	0.00e+00	0	43	0	627048448	64	4968
2026-01-03 08:38:36.84	40.82	26.51	-46.6	-49.0	18.4	0.00e+00	0	43	0	629145600	64	4853
2026-01-03 08:38:37.84	40.52	26.47	-46.6	-49.1	18.3	0.00e+00	0	43	0	631242752	64	4886
2026-01-03 08:38:38.84	40.22	26.43	-46.6	-49.1	18.3	0.00e+00	0	43	0	632291328	64	4898
2026-01-03 08:38:39.83	39.93	26.39	-46.7	-49.2	18.2	0.00e+00	0	43	0	634388480	64	4928
2026-01-03 08:38:40.83	39.63	26.35	-46.8	-49.3	18.1	0.00e+00	0	43	0	636485632	64	5017
2026-01-03 08:38:41.83	39.34	26.31	-46.9	-49.4	18.0	0.00e+00	0	43	0	638582784	64	5093
2026-01-03 08:38:42.83	39.04	26.27	-47.0	-49.5	17.9	0.00e+00	0	43	0	640679936	64	5121
2026-01-03 08:38:43.83	38.75	26.22	-47.0	-49.5	17.9	0.00e+00	0	43	0	641728512	64	5132
2026-01-03 08:38:44.83	38.45	26.18	-47.0	-49.5	17.9	0.00e+00	0	43	0	643825664	64	5135
2026-01-03 08:38:45.83	38.16	26.13	-47.1	-49.7	17.6	0.00e+00	0	43	0	645922816	64	5250
2026-01-03 08:38:46.83	37.87	26.08	-47.2	-49.8	17.5	0.00e+00	0	43	0	648019968	65	5022
2026-01-03 08:38:47.82	37.58	26.04	-47.3	-49.9	17.4	0.00e+00	0	43	0	650117120	65	5082
2026-01-03 08:38:48.82	37.29	25.99	-47.2	-49.9	17.4	0.00e+00	0	43	0	651165696	65	5073
2026-01-03 08:38:49.82	37.00	25.94	-47.4	-50.0	17.3	0.00e+00	0	43	0	653262848	65	5150
2026-01-03 08:38:50.82	36.72	25.89	-47.4	-50.1	17.3	0.00e+00	0	43	0	655360000	65	5179
2026-01-03 08:38:51.82	36.43	25.84	-47.3	-50.0	17.3	0.00e+00	0	43	0	657457152	65	5133
2026-01-03 08:38:52.82	36.14	25.79	-47.3	-50.0	17.4	0.00e+00	0	43	0	658505728	65	5107
2026-01-03 08:38:53.82	35.86	25.74	-47.3	-50.1	17.3	0.00e+00	0	43	0	660602880	65	5160
2026-01-03 08:38:54.81	35.58	25.69	-47.4	-50.1	17.2	0.00e+00	0	43	0	662700032	65	5215
2026-01-03 08:38:55.81	35.29	25.64	-47.4	-50.2	17.1	0.00e+00	0	43	0	664797184	65	5264
2026-01-03 08:38:56.81	35.01	25.58	-47.9	-50.7	17.0	0.00e+00	0	43	0	666894336	66	5253
2026-01-03 08:38:57.81	34.73	25.53	-47.8	-50.6	16.9	0.00e+00	0	43	0	667942912	66	5192
2026-01-03 08:38:58.81	34.45	25.48	-47.6	-50.4	17.1	0.00e+00	0	43	0	670040064	66	5075
2026-01-03 08:38:59.80	34.17	25.42	-47.5	-50.3	17.1	0.00e+00	0	43	0	672137216	66	4992
2026-01-03 08:39:00.80	33.89	25.37	-47.4	-50.1	17.3	0.00e+00	0	43	0	674234368	66	4922
2026-01-03 08:39:01.79	33.62	25.31	-47.4	-50.2	17.2	0.00e+00	0	43	0	675282944	66	4959
2026-01-03 08:39:02.79	33.34	25.25	-47.3	-50.1	17.3	0.00e+00	0	43	0	677380096	66	4906
2026-01-03 08:39:03.79	33.07	25.19	-47.3	-50.0	17.3	0.00e+00	0	43	0	679477248	66	4860
2026-01-03 08:39:04.79	32.79	25.14	-47.4	-50.1	17.3	0.00e+00	0	43	0	681574400	66	4913
2026-01-03 08:39:05.78	32.52	25.08	-47.4	-50.1	17.2	0.00e+00	0	43	0	683671552	66	4905
2026-01-03 08:39:06.78	32.25	25.02	-47.4	-50.1	17.2	0.00e+00	0	43	0	684720128	66	4914
2026-01-03 08:39:07.78	31.98	24.96	-47.4	-50.1	17.3	0.00e+00	0	43	0	686817280	66	4875
2026-01-03 08:39:08.78	31.71	24.90	-47.4	-50.0	17.3	0.00e+00	0	43	0	688914432	66	4867
2026-01-03 08:39:09.78	31.44	24.84	-47.4	-50.1	17.2	0.00e+00	0	43	0	691011584	66	4893
2026-01-03 08:39:10.78	31.17	24.78	-47.3	-50.0	17.3	0.00e+00	0	43	0	693108736	66	4838
2026-01-03 08:39:11.77	30.91	24.71	-47.1	-49.8	17.5	0.00e+00	0	43	0	694157312	66	4737
2026-01-03 08:39:12.77	30.64	24.65	-47.2	-49.8	17.5	0.00e+00	0	43	0	696254464	66	4754
2026-01-03 08:39:13.77	30.38	24.59	-47.1	-49.7	17.7	0.00e+00	0	43	0	698351616	66	4667
2026-01-03 08:39:14.77	30.11	24.52	-47.2	-49.8	17.5	0.00e+00	0	43	0	700448768	66	4734
2026-01-03 08:39:15.77	29.85	24.46	-47.3	-49.9	17.6	0.00e+00	0	43	0	701497344	66	4801
2026-01-03 08:39:16.77	29.59	24.40	-47.3	-49.9	17.5	0.00e+00	0	43	0	703594496	66	4774
2026-01-03 08:39:17.77	29.33	24.33	-47.3	-49.9	17.5	0.00e+00	0	43	0	705691648	66	4813
2026-01-03 08:39:18.77	29.07	24.27	-47.2	-49.7	17.7	0.00e+00	0	43	0	707788800	66	4702
2026-01-03 08:39:19.76	28.81	24.20	-46.9	-49.5	17.9	0.00e+00	0	43	0	709885952	65	4815
2026-01-03 08:39:20.76	28.56	24.13	-46.9	-49.4	17.9	0.00e+00	0	43	0	710934528	65	4809
2026-01-03 08:39:21.76	28.30	24.07	-46.9	-49.4	17.9	0.00e+00	0	43	0	713031680	65	4812
2026-01-03 08:39:22.76	28.04	24.00	-46.9	-49.4	17.9	0.00e+00	0	43	0	715128832	65	4778
2026-01-03 08:39:23.76	27.79	23.93	-46.8	-49.3	18.1	0.00e+00	0	43	0	717225984	65	4713
2026-01-03 08:39:24.75	27.54	23.86	-46.9	-49.4	18.0	0.00e+00	0	43	0	719323136	65	4778
2026-01-03 08:39:25.75	27.29	23.79	-46.6	-49.1	18.2	0.00e+00	0	43	0	720371712	65	4626
2026-01-03 08:39:26.75	27.04	23.73	-46.6	-49.1	18.2	0.00e+00	0	43	0	722468864	65	4637
2026-01-03 08:39:27.75	26.79	23.66	-46.7	-49.2	18.1	0.00e+00	0	43	0	724566016	65	4674
2026-01-03 08:39:28.74	26.54	23.59	-46.5	-49.0	18.3	0.00e+00	0	43	0	726663168	65	4558
2026-01-03 08:39:29.74	26.30	23.52	-46.2	-48.6	18.7	0.00e+00	0	43	0	727711744	64	4626
2026-01-03 08:39:30.74	26.05	23.45	-46.2	-48.5	18.7	0.00e+00	0	43	0	729808896	64	4589
2026-01-03 08:39:31.73	25.81	23.38	-46.2	-48.5	18.7	0.00e+00	0	43	0	731906048	64	4598
2026-01-03 08:39:32.73	25.56	23.30	-46.2	-48.6	18.6	0.00e+00	0	43	0	734003200	64	4636
2026-01-03 08:39:33.73	25.32	23.23	-46.3	-48.7	18.7	0.00e+00	0	43	0	736100352	64	4701
2026-01-03 08:39:34.73	25.08	23.16	-46.3	-48.8	18.6	0.00e+00	0	43	0	737148928	64	4712
2026-01-03 08:39:35.72	24.84	23.09	-46.1	-48.5	18.9	0.00e+00	0	43	0	739246080	64	4569
2026-01-03 08:39:36.72	24.60	23.02	-46.0	-48.4	18.9	0.00e+00	0	43	0	741343232	64	4540
2026-01-03 08:39:37.72	24.36	22.94	-46.1	-48.5	18.9	0.00e+00	0	43	0	743440384	63	4821
2026-01-03 08:39:38.71	24.13	22.87	-46.2	-48.6	18.8	0.00e+00	0	43	0	745537536	63	4892
2026-01-03 08:39:39.71	23.89	22.80	-46.1	-48.5	18.9	0.00e+00	0	43	0	746586112	63	4849
2026-01-03 08:39:40.71	23.66	22.72	-46.1	-48.5	18.9	0.00e+00	0	43	0	748683264	63	4825
2026-01-03 08:39:41.70	23.43	22.65	-46.1	-48.6	18.8	0.00e+00	0	43	0	750780416	63	4886
2026-01-03 08:39:42.70	23.19	22.57	-46.3	-48.8	18.5	0.00e+00	0	43	0	752877568	63	5024
2026-01-03 08:39:43.70	22.96	22.50	-46.2	-48.7	18.7	0.00e+00	0	43	0	753926144	63	4930
2026-01-03 08:39:44.70	22.73	22.42	-46.2	-48.7	18.7	0.00e+00	0	43	0	756023296	63	4929
2026-01-03 08:39:45.70	22.50	22.35	-46.1	-48.5	18.8	0.00e+00	0	43	0	758120448	63	4865
2026-01-03 08:39:46.69	22.28	22.27	-46.0	-48.4	18.9	0.00e+00	0	43	0	760217600	63	4788
2026-01-03 08:39:47.69	22.05	22.20	-45.9	-48.2	19.1	0.00e+00	0	43	0	762314752	63	4696
2026-01-03 08:39:48.69	21.82	22.12	-45.8	-48.1	19.2	0.00e+00	0	43	0	763363328	63	4640
2026-01-03 08:39:49.69	21.60	22.04	-45.8	-48.1	19.2	0.00e+00	0	43	0	765460480	63	4631
2026-01-03 08:39:50.69	21.38	21.97	-45.8	-48.1	19.3	0.00e+00	0	43	0	767557632	63	4613
2026-01-03 08:39:51.69	21.15	21.89	-46.0	-48.3	19.3	0.00e+00	0	43	0	769654784	63	4748
2026-01-03 08:39:52.69	20.93	21.81	-45.9	-48.2	19.3	0.00e+00	0	43	0	770703360	63	4656
2026-01-03 08:39:53.68	20.71	21.74	-45.8	-48.0	19.3	0.00e+00	0	43	0	772800512	63	4596
2026-01-03 08:39:54.68	20.50	21.66	-45.6	-47.9	19.5	0.00e+00	0	43	0	774897664	63	4513
2026-01-03 08:39:55.68	20.28	21.58	-45.6	-47.9	19.5	0.00e+00	0	43	0	776994816	63	4494
2026-01-03 08:39:56.68	20.06	21.50	-45.5	-47.8	19.6	0.00e+00	0	43	0	779091968	63	4465
2026-01-03 08:39:57.67	19.85	21.42	-45.5	-47.8	19.6	0.00e+00	0	43	0	780140544	63	4443
2026-01-03 08:39:58.67	19.63	21.35	-45.4	-47.6	19.7	0.00e+00	0	43	0	782237696	62	4635
2026-01-03 08:39:59.67	19.42	21.27	-45.4	-47.7	19.7	0.00e+00	0	43	0	784334848	62	4664
2026-01-03 08:40:00.67	19.21	21.19	-45.4	-47.7	19.6	0.00e+00	0	43	0	786432000	62	4691
2026-01-03 08:40:01.67	18.99	21.11	-45.3	-47.6	19.8	0.00e+00	0	43	0	788529152	62	4601
2026-01-03 08:40:02.66	18.79	21.03	-45.2	-47.4	19.9	0.00e+00	0	43	0	789577728	62	4516
2026-01-03 08:40:03.66	18.58	20.95	-45.1	-47.4	19.9	0.00e+00	0	43	0	791674880	62	4505
2026-01-03 08:40:04.67	18.37	20.87	-45.0	-47.2	20.1	0.00e+00	0	43	0	793772032	62	4419
2026-01-03 08:40:05.66	18.16	20.79	-45.0	-47.1	20.1	0.00e+00	0	43	0	795869184	61	4641
2026-01-03 08:40:06.66	17.96	20.71	-44.8	-47.0	20.2	0.00e+00	0	43	0	797966336	61	4571
2026-01-03 08:40:07.66	17.75	20.63	-44.7	-46.9	20.4	0.00e+00	0	43	0	799014912	61	4514
2026-01-03 08:40:08.66	17.55	20.55	-44.8	-46.9	20.3	0.00e+00	0	43	0	801112064	61	4527
2026-01-03 08:40:09.65	17.35	20.47	-44.7	-46.9	20.4	0.00e+00	0	43	0	803209216	61	4512
2026-01-03 08:40:10.65	17.15	20.39	-44.8	-46.9	20.3	0.00e+00	0	43	0	805306368	61	4544
2026-01-03 08:40:11.65	16.95	20.31	-44.8	-47.0	20.3	0.00e+00	0	43	0	806354944	61	4547
2026-01-03 08:40:12.65	16.75	20.23	-45.3	-47.5	20.1	0.00e+00	0	43	0	808452096	61	4829
2026-01-03 08:40:13.65	16.55	20.15	-45.1	-47.2	20.2	0.00e+00	0	43	0	810549248	61	4704
2026-01-03 08:40:14.64	16.35	20.07	-45.0	-47.1	20.2	0.00e+00	0	43	0	812646400	61	4635
2026-01-03 08:40:15.64	16.16	19.99	-44.9	-47.1	20.2	0.00e+00	0	43	0	814743552	61	4629
2026-01-03 08:40:16.64	15.96	19.91	-45.0	-47.2	20.1	0.00e+00	0	43	0	815792128	61	4664
2026-01-03 08:40:17.63	15.77	19.83	-45.2	-47.3	20.0	0.00e+00	0	43	0	817889280	61	4746
2026-01-03 08:40:18.64	15.57	19.75	-45.1	-47.3	20.0	0.00e+00	0	43	0	819986432	61	4706
2026-01-03 08:40:19.64	15.38	19.67	-45.1	-47.2	20.1	0.00e+00	0	43	0	822083584	61	4693
2026-01-03 08:40:20.63	15.19	19.59	-45.1	-47.2	20.1	0.00e+00	0	43	0	823132160	61	4677
2026-01-03 08:40:21.63	15.00	19.51	-45.1	-47.2	20.2	0.00e+00	0	43	0	825229312	61	4676
2026-01-03 08:40:22.63	14.81	19.42	-45.1	-47.2	20.1	0.00e+00	0	43	0	827326464	61	4675
2026-01-03 08:40:23.63	14.62	19.34	-45.1	-47.2	20.1	0.00e+00	0	43	0	829423616	61	4686
2026-01-03 08:40:24.63	14.44	19.26	-45.0	-47.1	20.2	0.00e+00	0	43	0	831520768	61	4610
2026-01-03 08:40:25.63	14.25	19.18	-45.0	-47.1	20.1	0.00e+00	0	43	0	832569344	61	4640
2026-01-03 08:40:26.63	14.07	19.10	-45.0	-47.2	20.1	0.00e+00	0	43	0	834666496	61	4672
2026-01-03 08:40:27.63	13.88	19.02	-45.1	-47.3	19.9	0.00e+00	0	43	0	836763648	61	4711
2026-01-03 08:40:28.63	13.70	18.94	-45.2	-47.4	19.9	0.00e+00	0	43	0	838860800	61	4781
2026-01-03 08:40:29.63	13.52	18.85	-45.0	-47.3	19.9	0.00e+00	0	43	0	840957952	61	4711
2026-01-03 08:40:30.62	13.34	18.77	-45.1	-47.3	19.9	0.00e+00	0	43	0	842006528	61	4758
2026-01-03 08:40:31.62	13.16	18.69	-45.3	-47.5	19.7	0.00e+00	0	43	0	844103680	61	4862
2026-01-03 08:40:32.62	12.98	18.61	-45.3	-47.6	19.7	0.00e+00	0	43	0	846200832	61	4901
2026-01-03 08:40:33.62	12.80	18.53	-46.3	-48.3	19.6	0.00e+00	0	43	0	848297984	62	5000
2026-01-03 08:40:34.62	12.62	18.45	-45.7	-48.0	19.5	0.00e+00	0	43	0	849346560	62	4856
2026-01-03 08:40:35.61	12.45	18.37	-45.6	-47.9	19.4	0.00e+00	0	43	0	851443712	62	4808
2026-01-03 08:40:36.61	12.27	18.28	-45.7	-48.0	19.3	0.00e+00	0	43	0	853540864	62	4842
2026-01-03 08:40:37.61	12.10	18.20	-45.5	-47.8	19.5	0.00e+00	0	43	0	855638016	62	4750
2026-01-03 08:40:38.60	11.93	18.12	-45.6	-48.0	19.3	0.00e+00	0	43	0	857735168	62	4834
2026-01-03 08:40:39.60	11.76	18.04	-45.5	-47.9	19.4	0.00e+00	0	43	0	858783744	62	4799
2026-01-03 08:40:40.60	11.59	17.96	-45.6	-48.1	19.3	0.00e+00	0	43	0	860880896	62	4883
2026-01-03 08:40:41.59	11.42	17.88	-45.6	-48.2	19.1	0.00e+00	0	43	0	862978048	62	4956
2026-01-03 08:40:42.59	11.25	17.80	-45.6	-48.1	19.1	0.00e+00	0	43	0	865075200	62	4920
2026-01-03 08:40:43.59	11.08	17.71	-45.8	-48.3	18.9	0.00e+00	0	43	0	866123776	62	5034
2026-01-03 08:40:44.59	10.91	17.63	-45.9	-48.4	18.9	0.00e+00	0	43	0	868220928	62	5063
2026-01-03 08:40:45.59	10.74	17.55	-46.0	-48.5	18.8	0.00e+00	0	43	0	870318080	62	5137
2026-01-03 08:40:46.58	10.58	17.47	-46.1	-48.5	18.8	0.00e+00	0	43	0	872415232	62	5143
2026-01-03 08:40:47.58	10.42	17.39	-46.1	-48.5	18.8	0.00e+00	0	43	0	874512384	62	5157
2026-01-03 08:40:48.58	10.25	17.31	-46.0	-48.5	18.8	0.00e+00	0	43	0	875560960	62	5123
2026-01-03 08:40:49.58	10.09	17.22	-46.1	-48.7	18.6	0.00e+00	0	43	0	877658112	62	5241
2026-01-03 08:40:50.58	9.93	17.14	-46.1	-48.7	18.6	0.00e+00	0	43	0	879755264	62	5245
2026-01-03 08:40:51.57	9.77	17.06	-46.0	-48.6	18.6	0.00e+00	0	43	0	881852416	62	5218
2026-01-03 08:40:52.57	9.61	16.98	-46.1	-48.7	18.6	0.00e+00	0	43	0	883949568	62	5245
2026-01-03 08:40:53.57	9.45	16.90	-46.1	-48.7	18.7	0.00e+00	0	43	0	884998144	63	4948
2026-01-03 08:40:54.57	9.29	16.82	-46.2	-48.8	18.8	3.80e-06	0	43	0	887095296	63	4988
2026-01-03 08:40:55.57	9.13	16.74	-46.2	-48.6	18.8	6.80e-06	0	43	0	889192448	63	4915
2026-01-03 08:40:56.57	8.97	16.65	-46.3	-48.8	18.7	0.00e+00	0	43	0	891289600	63	4984
2026-01-03 08:40:57.57	8.82	16.57	-46.3	-48.7	18.8	0.00e+00	0	43	0	893386752	63	4957
2026-01-03 08:40:58.56	8.66	16.49	-46.3	-48.8	18.6	0.00e+00	0	43	0	894435328	63	4994
2026-01-03 08:40:59.56	8.51	16.41	-46.4	-48.9	18.4	0.00e+00	0	43	0	896532480	63	5078
2026-01-03 08:41:00.56	8.36	16.33	-46.4	-49.0	18.4	0.00e+00	0	43	0	898629632	63	5102
2026-01-03 08:41:01.56	8.20	16.25	-46.3	-49.0	18.4	0.00e+00	0	43	0	900726784	63	5101
2026-01-03 08:41:02.55	8.05	16.17	-46.4	-49.1	18.2	0.00e+00	0	43	0	901775360	63	5201
2026-01-03 08:41:03.55	7.90	16.09	-46.3	-49.0	18.3	0.00e+00	0	43	0	903872512	63	5122
2026-01-03 08:41:04.55	7.75	16.01	-46.3	-49.0	18.2	0.00e+00	0	43	0	905969664	63	5154
2026-01-03 08:41:05.54	7.60	15.93	-46.3	-49.0	18.2	0.00e+00	0	43	0	908066816	63	5126
2026-01-03 08:41:06.54	7.46	15.85	-46.4	-49.0	18.2	0.00e+00	0	43	0	910163968	63	5130
2026-01-03 08:41:07.54	7.31	15.77	-46.4	-49.0	18.3	0.00e+00	0	43	0	911212544	63	5110
2026-01-03 08:41:08.54	7.16	15.69	-46.4	-49.1	18.2	0.00e+00	0	43	0	913309696	63	5164
2026-01-03 08:41:09.54	7.01	15.61	-46.5	-49.2	18.0	0.00e+00	0	43	0	915406848	63	5264
2026-01-03 08:41:10.54	6.87	15.53	-46.5	-49.2	18.2	0.00e+00	0	43	0	917504000	64	4944
2026-01-03 08:41:11.54	6.72	15.45	-46.4	-49.0	18.3	0.00e+00	0	43	0	918552576	64	4869
2026-01-03 08:41:12.53	6.58	15.37	-46.4	-49.1	18.1	0.00e+00	0	43	0	920649728	64	4912
2026-01-03 08:41:13.53	6.44	15.29	-46.4	-49.1	18.1	0.00e+00	0	43	0	922746880	64	4922
2026-01-03 08:41:14.53	6.30	15.21	-46.4	-49.2	18.0	0.00e+00	0	43	0	924844032	64	4948
2026-01-03 08:41:15.52	6.16	15.13	-46.4	-49.1	18.0	0.00e+00	0	43	0	926941184	64	4926
2026-01-03 08:41:16.52	6.02	15.05	-46.6	-49.3	18.0	0.00e+00	0	43	0	927989760	64	4993
2026-01-03 08:41:17.52	5.88	14.97	-46.7	-49.4	17.9	0.00e+00	0	43	0	930086912	64	5064
2026-01-03 08:41:18.52	5.74	14.89	-46.8	-49.4	17.9	0.00e+00	0	43	0	932184064	64	5075
2026-01-03 08:41:19.52	5.60	14.81	-46.8	-49.5	17.7	0.00e+00	0	43	0	934281216	64	5149
2026-01-03 08:41:20.51	5.46	14.73	-46.7	-49.4	17.8	0.00e+00	0	43	0	936378368	64	5082
2026-01-03 08:41:21.51	5.33	14.65	-46.8	-49.4	17.8	0.00e+00	0	43	0	937426944	64	5087
2026-01-03 08:41:22.50	5.19	14.57	-46.7	-49.3	17.9	0.00e+00	0	43	0	939524096	64	5031
2026-01-03 08:41:23.50	5.06	14.49	-46.8	-49.5	17.8	0.00e+00	0	43	0	941621248	64	5103
2026-01-03 08:41:24.49	4.92	14.41	-46.7	-49.4	17.7	0.00e+00	0	43	0	943718400	64	5063
2026-01-03 08:41:25.49	4.79	14.33	-46.8	-49.4	17.7	0.00e+00	0	43	0	944766976	64	5092
2026-01-03 08:41:26.49	4.66	14.25	-46.8	-49.5	17.6	0.00e+00	0	43	0	946864128	64	5145
2026-01-03 08:41:27.48	4.53	14.18	-46.9	-49.6	17.5	0.00e+00	0	43	0	948961280	64	5208
2026-01-03 08:41:28.48	4.39	14.10	-46.9	-49.7	17.4	0.00e+00	0	43	0	951058432	64	5240
2026-01-03 08:41:29.48	4.26	14.02	-47.0	-49.7	17.4	0.00e+00	0	43	0	953155584	64	5275
2026-01-03 08:41:30.47	4.13	13.94	-47.0	-49.8	17.3	0.00e+00	0	43	0	954204160	64	5321
2026-01-03 08:41:31.48	4.00	13.86	-47.1	-50.0	17.4	0.00e+00	0	43	0	956301312	65	5149
2026-01-03 08:41:32.48	3.88	13.78	-47.0	-50.0	17.3	0.00e+00	0	43	0	958398464	65	5159
2026-01-03 08:41:33.47	3.75	13.71	-47.0	-50.0	17.2	0.00e+00	0	43	0	960495616	65	5153
2026-01-03 08:41:34.47	3.62	13.63	-47.0	-50.1	17.2	0.00e+00	0	43	0	962592768	65	5162
2026-01-03 08:41:35.47	3.49	13.55	-47.1	-50.2	17.0	0.00e+00	0	43	0	963641344	65	5248
2026-01-03 08:41:36.47	3.37	13.47	-47.4	-50.4	16.8	0.00e+00	0	43	0	965738496	65	5387
2026-01-03 08:41:37.46	3.24	13.40	-47.5	-50.5	16.7	0.00e+00	0	43	0	967835648	65	5404
2026-01-03 08:41:38.45	3.12	13.32	-47.6	-50.5	16.7	0.00e+00	0	43	0	969932800	65	5438
2026-01-03 08:41:39.45	3.00	13.24	-47.6	-50.5	16.6	0.00e+00	0	43	0	970981376	65	5461
2026-01-03 08:41:40.45	2.87	13.16	-47.7	-50.7	16.6	0.00e+00	0	43	0	973078528	66	5220
2026-01-03 08:41:41.44	2.75	13.09	-47.6	-50.5	16.7	0.00e+00	0	43	0	975175680	66	5122
2026-01-03 08:41:42.44	2.63	13.01	-47.5	-50.4	16.7	0.00e+00	0	43	0	977272832	66	5097
2026-01-03 08:41:43.44	2.51	12.93	-47.5	-50.4	16.7	0.00e+00	0	43	0	979369984	66	5088
2026-01-03 08:41:44.45	2.39	12.85	-47.4	-50.4	16.7	0.00e+00	0	43	0	980418560	66	5098
2026-01-03 08:41:45.45	2.27	12.78	-47.4	-50.4	16.8	0.00e+00	0	43	0	982515712	66	5070
2026-01-03 08:41:46.44	2.15	12.70	-47.3	-50.3	16.8	0.00e+00	0	43	0	984612864	66	5020
2026-01-03 08:41:47.44	2.03	12.62	-47.6	-50.6	16.8	0.00e+00	0	43	0	986710016	66	5171
2026-01-03 08:41:48.44	1.91	12.55	-47.5	-50.5	16.8	0.00e+00	0	43	0	987758592	66	5110
2026-01-03 08:41:49.44	1.79	12.47	-47.4	-50.4	16.8	0.00e+00	0	43	0	989855744	66	5092
2026-01-03 08:41:50.44	1.68	12.40	-47.5	-50.5	16.7	0.00e+00	0	43	0	991952896	66	5143
2026-01-03 08:41:51.44	1.56	12.32	-47.6	-50.6	16.7	0.00e+00	0	43	0	994050048	66	5185
2026-01-03 08:41:52.43	1.45	12.24	-47.6	-50.6	16.6	0.00e+00	0	43	0	996147200	66	5208
2026-01-03 08:41:53.43	1.33	12.17	-47.6	-50.7	16.5	0.00e+00	0	43	0	997195776	66	5253
2026-01-03 08:41:54.43	1.22	12.09	-47.6	-50.8	16.4	0.00e+00	0	43	0	999292928	66	5288
2026-01-03 08:41:55.43	1.10	12.02	-47.3	-50.7	16.4	0.00e+00	0	43	0	1001390080	66	5254
2026-01-03 08:41:56.42	0.99	11.94	-47.3	-50.8	16.4	0.00e+00	0	43	0	1003487232	66	5286
2026-01-03 08:41:57.42	0.88	11.87	-47.3	-50.8	16.3	0.00e+00	0	43	0	1005584384	66	5322
2026-01-03 08:41:58.42	0.76	11.79	-47.3	-50.7	16.4	0.00e+00	0	43	0	1006632960	66	5269
2026-01-03 08:41:59.42	0.65	11.72	-47.5	-50.8	16.3	0.00e+00	0	43	0	1008730112	66	5321
2026-01-03 08:42:00.42	0.54	11.64	-47.4	-50.6	16.5	0.00e+00	0	43	0	1010827264	66	5215
2026-01-03 08:42:01.42	0.43	11.57	-47.5	-50.7	16.4	0.00e+00	0	43	0	1012924416	66	5259
2026-01-03 08:42:02.42	0.32	11.49	-47.5	-50.7	16.5	0.00e+00	0	43	0	1013972992	66	5227
2026-01-03 08:42:03.42	0.21	11.42	-47.4	-50.5	16.6	0.00e+00	0	43	0	1016070144	66	5152
2026-01-03 08:42:04.42	0.10	11.34	-47.5	-50.7	16.5	0.00e+00	0	43	0	1018167296	66	5221
2026-01-03 08:42:05.41	360.00	11.27	-47.5	-50.7	16.4	0.00e+00	0	43	0	1020264448	66	5250
2026-01-03 08:42:06.41	359.89	11.19	-47.5	-50.7	16.4	0.00e+00	0	43	0	1022361600	66	5273
2026-01-03 08:42:07.41	359.78	11.12	-47.8	-51.0	16.4	0.00e+00	0	43	0	1023410176	66	5421
2026-01-03 08:42:08.41	359.68	11.05	-47.8	-51.2	16.1	0.00e+00	0	43	0	1025507328	66	5538
2026-01-03 08:42:09.41	359.57	10.97	-47.8	-51.1	16.2	0.00e+00	0	43	0	1027604480	66	5492
2026-01-03 08:42:10.41	359.47	10.90	-47.9	-51.2	16.0	0.00e+00	0	43	0	1029701632	66	5560
2026-01-03 08:42:11.41	359.36	10.82	-48.0	-51.3	15.9	0.00e+00	0	43	0	1031798784	66	5626
2026-01-03 08:42:12.41	359.26	10.75	-48.0	-51.4	15.8	0.00e+00	0	43	0	1032847360	66	5668
2026-01-03 08:42:13.41	359.15	10.68	-47.9	-51.3	15.8	0.00e+00	0	43	0	1034944512	66	5618
2026-01-03 08:42:14.41	359.05	10.60	-47.8	-51.2	15.9	0.00e+00	0	43	0	1037041664	66	5532
2026-01-03 08:42:15.40	358.95	10.53	-47.9	-51.2	15.9	0.00e+00	0	43	0	1039138816	66	5548
2026-01-03 08:42:16.40	358.85	10.46	-47.8	-51.2	15.9	0.00e+00	0	43	0	1040187392	66	5555
2026-01-03 08:42:17.40	358.75	10.38	-48.0	-51.4	15.7	0.00e+00	0	43	0	1042284544	66	5677
2026-01-03 08:42:18.40	358.64	10.31	-48.0	-51.4	15.7	0.00e+00	0	43	0	1044381696	66	5660
2026-01-03 08:42:19.40	358.54	10.24	-48.0	-51.3	15.8	0.00e+00	0	44	0	1046478848	66	5626
2026-01-03 08:42:20.40	358.44	10.17	-48.2	-51.5	15.6	0.00e+00	0	43	0	1048576000	66	5767
2026-01-03 08:42:21.39	358.35	10.09	-48.3	-51.6	15.5	0.00e+00	0	43	0	1049624576	67	5496
2026-01-03 08:42:22.39	358.25	10.02	-48.2	-51.6	15.5	0.00e+00	0	43	0	1051721728	67	5500
2026-01-03 08:42:23.39	358.15	9.95	-48.3	-51.8	15.3	0.00e+00	0	43	0	1053818880	67	5624
2026-01-03 08:42:24.39	358.05	9.88	-48.3	-51.9	15.1	0.00e+00	0	43	0	1055916032	67	5715
2026-01-03 08:42:25.39	357.95	9.81	-48.3	-51.9	15.2	0.00e+00	0	43	0	1058013184	67	5717
2026-01-03 08:42:26.39	357.86	9.73	-48.2	-52.0	15.1	0.00e+00	0	43	0	1059061760	67	5740
2026-01-03 08:42:27.39	357.76	9.66	-48.4	-52.4	14.9	0.00e+00	0	43	0	1061158912	67	6057
2026-01-03 08:42:28.39	357.66	9.59	-48.2	-52.3	14.9	0.00e+00	0	43	0	1063256064	67	5968
2026-01-03 08:42:29.38	357.57	9.52	-48.1	-52.3	14.9	0.00e+00	0	43	0	1065353216	67	5950
2026-01-03 08:42:30.39	357.47	9.45	-47.8	-52.0	15.0	0.00e+00	0	43	0	1066401792	67	5768
2026-01-03 08:42:31.39	357.38	9.38	-47.6	-52.1	14.9	0.00e+00	0	43	0	1068498944	67	5810
2026-01-03 08:42:32.38	357.29	9.31	-47.5	-51.9	15.1	0.00e+00	0	43	0	1070596096	67	5700
2026-01-03 08:42:33.38	357.19	9.24	-47.3	-51.9	15.1	0.00e+00	0	43	0	1072693248	66	6020
2026-01-03 08:42:34.38	357.10	9.17	-47.0	-51.7	15.3	0.00e+00	0	43	0	1074790400	66	5859
2026-01-03 08:42:35.38	357.01	9.09	-46.9	-51.7	15.3	0.00e+00	0	43	0	1075838976	65	6261
2026-01-03 08:42:36.38	356.92	9.02	-46.7	-51.6	15.4	0.00e+00	0	43	0	1077936128	65	6155
2026-01-03 08:42:37.38	356.82	8.95	-51.9	-68.1	3.8	2.84e-02	0	44	104	1078984704	74	24510
2026-01-03 08:42:38.38	356.73	8.88	-52.9	-68.5	3.9	1.49e+00	0	43	104	1078984704	76	22926
2026-01-03 08:42:39.38	356.64	8.81	-53.1	-68.6	3.8	1.49e+00	0	43	104	1078984704	77	21878
2026-01-03 08:42:40.38	356.55	8.74	-53.2	-68.6	3.8	1.49e+00	0	43	104	1078984704	77	21996
2026-01-03 08:42:41.38	356.46	8.67	-53.0	-68.7	3.8	1.49e+00	0	43	104	1078984704	77	22014
2026-01-03 08:42:42.38	356.37	8.60	-53.4	-68.7	3.8	1.49e+00	0	43	104	1078984704	77	22197
2026-01-03 08:42:43.38	356.28	8.53	-53.6	-68.7	3.8	1.49e+00	0	43	104	1078984704	77	22252
2026-01-03 08:42:44.38	356.19	8.46	-53.6	-68.8	3.8	1.49e+00	0	44	104	1078984704	78	21114
2026-01-03 08:42:45.38	356.11	8.39	-53.7	-69.0	3.8	1.49e+00	0	44	104	1078984704	78	21568
2026-01-03 08:42:46.38	356.02	8.33	-53.6	-68.9	3.8	1.49e+00	0	44	104	1078984704	78	21390
2026-01-03 08:42:47.38	355.93	8.26	-53.9	-68.9	3.8	1.49e+00	0	43	104	1078984704	78	21502
2026-01-03 08:42:48.38	355.84	8.19	-53.7	-68.9	3.8	1.49e+00	0	43	104	1078984704	78	21468
2026-01-03 08:42:49.38	355.76	8.12	-53.7	-68.9	3.8	1.49e+00	0	44	104	1078984704	78	21310
2026-01-03 08:42:50.37	355.67	8.05	-53.7	-68.9	3.8	1.49e+00	0	43	104	1078984704	78	21323
2026-01-03 08:42:51.37	355.59	7.98	-53.8	-68.9	3.8	1.49e+00	0	43	104	1078984704	78	21441
2026-01-03 08:42:52.37	355.50	7.91	-53.7	-68.9	3.8	1.49e+00	0	43	104	1078984704	78	21352
2026-01-03 08:42:53.38	355.42	7.84	-53.5	-68.9	3.8	1.49e+00	0	43	104	1078984704	78	21504
2026-01-03 08:42:54.38	355.33	7.78	-53.8	-69.0	3.8	1.49e+00	0	43	104	1078984704	78	21648
2026-01-03 08:42:55.38	355.25	7.71	-53.9	-68.9	3.8	1.49e+00	0	43	104	1078984704	78	21472
2026-01-03 08:42:56.38	355.17	7.64	-53.9	-68.9	3.8	1.49e+00	0	43	104	1078984704	78	21480
2026-01-03 08:42:57.38	355.08	7.57	-53.7	-68.9	3.8	1.49e+00	0	43	104	1078984704	78	21394
2026-01-03 08:42:58.38	355.00	7.50	-53.7	-68.9	3.8	1.49e+00	0	43	104	1078984704	78	21379
2026-01-03 08:42:59.38	354.92	7.44	-53.7	-68.9	3.8	1.49e+00	0	43	104	1078984704	78	21417
2026-01-03 08:43:00.37	354.84	7.37	-53.8	-68.9	3.8	1.49e+00	0	43	104	1078984704	78	21387
2026-01-03 08:43:01.37	354.76	7.30	-53.6	-69.0	3.8	1.49e+00	0	43	104	1078984704	78	21520
2026-01-03 08:43:02.37	354.67	7.23	-53.7	-68.9	3.8	1.49e+00	0	44	104	1078984704	78	21376
2026-01-03 08:43:03.36	354.60	7.17	-53.8	-68.9	3.8	1.49e+00	0	43	104	1078984704	78	21377
2026-01-03 08:43:04.36	354.51	7.10	-53.6	-68.9	3.8	1.49e+00	0	44	104	1078984704	78	21375
2026-01-03 08:43:05.36	354.43	7.03	-54.1	-69.3	3.8	1.49e+00	0	44	104	1078984704	79	21133
2026-01-03 08:43:06.36	354.36	6.97	-53.8	-69.0	3.8	1.49e+00	0	44	104	1078984704	79	20512
2026-01-03 08:43:07.36	354.28	6.90	-53.7	-68.9	3.8	1.49e+00	0	43	104	1078984704	79	20272
2026-01-03 08:43:08.36	354.20	6.83	-53.7	-68.9	3.8	1.49e+00	0	43	104	1078984704	79	20223
2026-01-03 08:43:09.35	354.12	6.77	-53.7	-68.9	3.8	1.49e+00	0	43	104	1078984704	79	20272
2026-01-03 08:43:10.35	354.04	6.70	-53.6	-68.9	3.8	1.49e+00	0	43	104	1078984704	79	20119
2026-01-03 08:43:11.35	353.96	6.64	-53.7	-68.9	3.8	1.49e+00	0	44	104	1078984704	79	20204
2026-01-03 08:43:12.35	353.89	6.57	-53.6	-68.8	3.8	1.49e+00	0	44	104	1078984704	79	20024
2026-01-03 08:43:13.35	353.81	6.50	-53.7	-68.9	3.8	1.49e+00	0	43	104	1078984704	79	20227
2026-01-03 08:43:14.35	353.73	6.44	-53.7	-69.0	3.8	1.49e+00	0	44	104	1078984704	79	20323
2026-01-03 08:43:15.35	353.66	6.37	-53.7	-69.0	3.8	1.49e+00	0	44	104	1078984704	79	20316
2026-01-03 08:43:16.34	353.58	6.31	-53.7	-68.9	3.8	1.49e+00	0	43	104	1078984704	79	20222
2026-01-03 08:43:17.34	353.51	6.24	-53.7	-68.9	3.8	1.49e+00	0	43	104	1078984704	79	20209
2026-01-03 08:43:18.34	353.43	6.18	-53.7	-68.9	3.8	1.49e+00	0	43	104	1078984704	79	20156
2026-01-03 08:43:19.33	353.36	6.11	-53.6	-68.9	3.8	1.49e+00	0	44	104	1078984704	79	20107
2026-01-03 08:43:20.33	353.28	6.05	-53.7	-68.9	3.8	1.49e+00	0	44	104	1078984704	79	20089
2026-01-03 08:43:21.33	353.21	5.98	-53.7	-68.9	3.8	1.49e+00	0	43	104	1078984704	79	20273
2026-01-03 08:43:22.32	353.14	5.92	-53.6	-68.8	3.8	1.49e+00	0	44	104	1078984704	79	20047
2026-01-03 08:43:23.32	353.06	5.85	-53.6	-68.8	3.8	1.49e+00	0	43	104	1078984704	79	20023
2026-01-03 08:43:24.32	352.99	5.79	-53.6	-68.8	3.8	1.49e+00	0	43	104	1078984704	79	19999
2026-01-03 08:43:25.32	352.92	5.72	-53.6	-68.9	3.8	1.49e+00	0	43	104	1078984704	79	20153
2026-01-03 08:43:26.31	352.85	5.66	-53.6	-68.9	3.8	1.49e+00	0	43	104	1078984704	79	20091
2026-01-03 08:43:27.31	352.77	5.59	-53.6	-68.9	3.8	1.49e+00	0	43	104	1078984704	79	20082
2026-01-03 08:43:28.31	352.70	5.53	-53.6	-68.9	3.8	1.49e+00	0	43	104	1078984704	79	20114
2026-01-03 08:43:29.31	352.63	5.47	-53.6	-68.8	3.8	1.49e+00	0	43	104	1078984704	79	20026
2026-01-03 08:43:30.30	352.56	5.40	-53.7	-68.9	3.8	1.49e+00	0	44	104	1078984704	79	20227
2026-01-03 08:43:31.30	352.49	5.34	-53.6	-68.8	3.8	1.49e+00	0	44	104	1078984704	79	19994
2026-01-03 08:43:32.30	352.42	5.27	-53.9	-69.1	3.8	1.49e+00	0	43	104	1078984704	79	20714
2026-01-03 08:43:33.30	352.35	5.21	-53.8	-69.1	3.8	1.49e+00	0	44	104	1078984704	79	20631
2026-01-03 08:43:34.30	352.28	5.15	-53.8	-69.0	3.8	1.49e+00	0	43	104	1078984704	79	20481
2026-01-03 08:43:35.30	352.21	5.08	-53.7	-68.9	3.8	1.49e+00	0	44	104	1078984704	79	20156
2026-01-03 08:43:36.29	352.14	5.02	-53.7	-68.9	3.8	1.49e+00	0	44	104	1078984704	79	20261
2026-01-03 08:43:37.29	352.07	4.96	-53.7	-68.9	3.8	1.49e+00	0	43	104	1078984704	79	20236

#Closed at: 2026-01-03 08:43:38
#Recorded file [1078 MB]: D:/Data/31040_260103_113212.dat