passes_logs/2026/01/03/T1/T1__20260103_105113_AQUA_rec.log

#Pass ID: 20260103_105113_AQUA
#Satellite: AQUA
#Configuration: AQUA
#almurnet v.1.7.20251203
#Start time: 2026-01-03 10:51:15

#Version: 2.0.20230620
#Station: T1
#Location: 37.570604 lon 55.790049 lat
#TLE: 1 27424U 02022A   25365.92641127  .00002078  00000+0  42628-3 0  9999
#TLE: 2 27424  98.4058 327.1196 0001962  94.7781 340.6230 14.61783896258835

#Time	Az	El	Level	Level2	SNR	BER	BlckErr	Temp	State	Recorded	gain1	gain2
2026-01-03 10:51:15.97	134.02	5.16	-53.9	-73.6	3.8	7.43e-01	0	36	0	0	79	34566
2026-01-03 10:51:16.97	133.97	5.23	-53.9	-74.2	3.8	7.50e-01	0	36	104	0	78	39168
2026-01-03 10:51:17.98	133.92	5.30	-53.9	-74.3	3.8	7.46e-01	0	37	104	0	78	39920
2026-01-03 10:51:18.98	133.86	5.38	-53.9	-74.3	3.8	7.48e-01	0	37	104	0	78	39983
2026-01-03 10:51:19.98	133.81	5.45	-53.9	-74.3	3.8	7.46e-01	0	36	104	0	78	39986
2026-01-03 10:51:20.99	133.76	5.52	-54.3	-74.7	3.8	7.45e-01	0	37	104	0	79	39429
2026-01-03 10:51:21.99	133.70	5.60	-54.0	-74.4	3.8	7.45e-01	0	37	104	0	79	38196
2026-01-03 10:51:23.00	133.65	5.67	-54.0	-74.4	3.8	7.47e-01	0	37	104	0	79	38201
2026-01-03 10:51:24.00	133.59	5.74	-54.0	-74.4	3.8	7.46e-01	0	37	104	0	79	38245
2026-01-03 10:51:25.00	133.54	5.82	-54.0	-74.5	3.8	7.45e-01	0	37	104	0	79	38369
2026-01-03 10:51:26.01	133.48	5.89	-54.0	-74.5	3.8	7.43e-01	0	37	104	0	79	38530
2026-01-03 10:51:27.01	133.43	5.97	-53.9	-74.5	3.8	7.45e-01	0	37	104	0	79	38549
2026-01-03 10:51:28.02	133.37	6.04	-53.9	-74.4	3.8	7.45e-01	0	37	104	0	79	38085
2026-01-03 10:51:29.02	133.31	6.12	-53.9	-74.2	3.8	7.49e-01	0	37	104	0	79	37084
2026-01-03 10:51:30.02	133.26	6.19	-53.9	-73.8	3.8	7.47e-01	0	37	104	0	79	35536
2026-01-03 10:51:31.03	133.20	6.27	-53.9	-73.4	3.8	7.44e-01	0	37	104	0	79	33927
2026-01-03 10:51:32.03	133.14	6.34	-53.9	-72.9	3.8	7.47e-01	0	37	104	0	79	32135
2026-01-03 10:51:33.04	133.08	6.42	-53.9	-72.6	3.8	7.45e-01	0	37	104	0	79	30770
2026-01-03 10:51:34.04	133.02	6.50	-53.9	-72.4	3.8	7.43e-01	0	37	104	0	79	30321
2026-01-03 10:51:35.04	132.97	6.57	-53.9	-72.4	3.8	7.43e-01	0	37	104	0	79	30173
2026-01-03 10:51:36.05	132.91	6.65	-53.9	-72.5	3.9	7.42e-01	0	37	104	0	79	30633
2026-01-03 10:51:37.06	132.85	6.73	-53.9	-72.9	3.9	7.43e-01	0	37	104	0	79	32130
2026-01-03 10:51:38.06	132.79	6.80	-54.2	-74.1	3.8	7.44e-01	0	37	104	0	79	36748
2026-01-03 10:51:39.06	132.73	6.88	-54.1	-74.5	3.8	7.45e-01	0	37	104	0	79	38562
2026-01-03 10:51:40.07	132.67	6.96	-54.0	-74.6	3.8	7.47e-01	0	37	104	0	79	39066
2026-01-03 10:51:41.07	132.61	7.04	-54.0	-74.0	3.8	7.44e-01	0	37	104	0	79	36195
2026-01-03 10:51:42.08	132.54	7.12	-54.0	-72.4	4.0	7.41e-01	0	38	104	0	79	30081
2026-01-03 10:51:43.08	132.48	7.19	-53.9	-70.7	4.1	7.27e-01	0	38	104	0	79	24742
2026-01-03 10:51:44.09	132.42	7.27	-53.9	-69.2	4.9	7.12e-01	0	38	0	0	79	20844
2026-01-03 10:51:45.09	132.36	7.35	-53.8	-68.0	5.6	6.93e-01	0	38	0	0	79	18202
2026-01-03 10:51:46.10	132.30	7.43	-53.7	-66.6	6.8	6.71e-01	0	38	0	2097152	79	15461
2026-01-03 10:51:47.10	132.23	7.51	-53.5	-64.9	8.3	6.43e-01	0	38	0	3670016	79	12788
2026-01-03 10:51:48.10	132.17	7.59	-53.3	-62.9	10.4	6.21e-01	0	37	0	5767168	78	10725
2026-01-03 10:51:49.11	132.10	7.67	-52.8	-60.8	12.6	6.13e-01	0	37	0	7864320	77	8900
2026-01-03 10:51:50.11	132.04	7.75	-52.2	-58.7	14.8	6.08e-01	0	38	0	9437184	76	7377
2026-01-03 10:51:51.11	131.98	7.83	-51.5	-56.9	16.6	6.07e-01	0	38	0	11534336	75	6386
2026-01-03 10:51:52.12	131.91	7.91	-50.8	-55.4	18.1	6.08e-01	0	38	0	13107200	73	6011
2026-01-03 10:51:53.12	131.85	7.99	-49.9	-53.8	19.6	6.07e-01	0	38	0	15204352	71	5651
2026-01-03 10:51:54.13	131.78	8.07	-49.4	-52.9	20.5	6.05e-01	0	38	0	17301504	70	5397
2026-01-03 10:51:55.13	131.71	8.15	-48.8	-52.1	21.3	6.08e-01	0	38	0	18874368	69	5209
2026-01-03 10:51:56.14	131.65	8.23	-48.9	-52.1	21.8	6.06e-01	0	38	0	20971520	69	5199
2026-01-03 10:51:57.14	131.58	8.32	-48.7	-51.8	21.9	6.06e-01	0	38	0	22544384	69	5027
2026-01-03 10:51:58.14	131.51	8.40	-48.7	-51.9	21.8	6.08e-01	0	38	0	24641536	69	5053
2026-01-03 10:51:59.15	131.44	8.48	-49.0	-52.3	21.3	6.08e-01	0	38	0	26738688	69	5329
2026-01-03 10:52:00.15	131.38	8.56	-49.5	-53.0	20.6	6.08e-01	0	38	0	28311552	69	5780
2026-01-03 10:52:01.16	131.31	8.65	-50.2	-54.1	19.5	6.08e-01	0	38	0	30408704	70	6198
2026-01-03 10:52:02.16	131.24	8.73	-50.9	-55.6	18.0	6.09e-01	0	38	0	31981568	72	6530
2026-01-03 10:52:03.17	131.17	8.81	-51.8	-57.6	16.0	6.09e-01	0	38	0	34078720	74	7293
2026-01-03 10:52:04.17	131.10	8.90	-52.6	-59.9	13.7	6.08e-01	0	38	0	35651584	75	8974
2026-01-03 10:52:05.18	131.03	8.98	-53.3	-62.8	10.7	6.19e-01	0	38	0	37748736	77	11279
2026-01-03 10:52:06.18	130.95	9.06	-53.6	-65.7	7.7	6.52e-01	0	38	0	39845888	77	15615
2026-01-03 10:52:07.18	130.88	9.15	-53.5	-64.6	8.7	6.38e-01	0	38	0	41418752	77	13777
2026-01-03 10:52:08.19	130.81	9.23	-51.5	-56.8	17.2	6.08e-01	0	38	0	43515904	73	7092
2026-01-03 10:52:09.19	130.74	9.32	-54.0	-72.5	3.8	7.45e-01	0	38	104	44040192	78	32385
2026-01-03 10:52:10.19	130.67	9.40	-51.8	-57.6	15.7	6.06e-01	0	38	0	45088768	75	6890
2026-01-03 10:52:11.19	130.59	9.49	-52.0	-58.3	15.1	6.08e-01	0	38	0	46661632	74	7948
2026-01-03 10:52:12.20	130.52	9.57	-51.5	-56.3	17.8	6.06e-01	0	38	0	48758784	73	6660
2026-01-03 10:52:13.20	130.44	9.66	-51.2	-55.9	17.9	6.05e-01	0	38	0	50331648	73	6381
2026-01-03 10:52:14.20	130.37	9.75	-50.7	-55.0	18.6	6.08e-01	0	38	0	52428800	73	5781
2026-01-03 10:52:15.21	130.29	9.83	-49.8	-53.6	20.0	6.07e-01	0	38	0	54001664	71	5526
2026-01-03 10:52:16.21	130.22	9.92	-49.1	-52.4	21.2	6.08e-01	0	38	0	56098816	70	5048
2026-01-03 10:52:17.21	130.14	10.01	-48.5	-51.6	22.0	6.08e-01	0	38	0	58195968	69	4872
2026-01-03 10:52:18.21	130.07	10.09	-48.0	-50.9	22.6	6.10e-01	0	38	0	59768832	68	4799
2026-01-03 10:52:19.22	129.99	10.18	-47.7	-50.5	23.0	6.07e-01	0	38	0	61865984	67	4821
2026-01-03 10:52:20.22	129.91	10.27	-47.6	-50.3	23.2	6.06e-01	0	38	0	63438848	67	4739
2026-01-03 10:52:21.22	129.83	10.36	-47.5	-50.2	23.3	6.07e-01	0	38	0	65536000	67	4659
2026-01-03 10:52:22.22	129.75	10.45	-47.4	-50.2	23.3	6.05e-01	0	38	0	67633152	66	4928
2026-01-03 10:52:23.22	129.67	10.54	-47.3	-49.9	23.5	6.07e-01	0	38	0	69206016	66	4812
2026-01-03 10:52:24.23	129.59	10.63	-47.2	-49.9	23.6	6.07e-01	0	38	0	71303168	66	4762
2026-01-03 10:52:25.24	129.51	10.72	-47.3	-50.0	23.5	6.07e-01	0	38	0	72876032	66	4840
2026-01-03 10:52:26.24	129.43	10.81	-47.2	-49.8	23.6	6.08e-01	0	38	0	74973184	66	4753
2026-01-03 10:52:27.24	129.35	10.90	-47.1	-49.8	23.7	6.06e-01	0	38	0	77070336	66	4707
2026-01-03 10:52:28.24	129.27	10.99	-47.1	-49.8	23.7	6.08e-01	0	38	0	78643200	66	4719
2026-01-03 10:52:29.24	129.18	11.08	-47.6	-50.3	23.7	6.06e-01	0	38	0	80740352	66	5018
2026-01-03 10:52:30.25	129.10	11.17	-47.4	-50.1	23.7	6.04e-01	0	38	0	82313216	66	4884
2026-01-03 10:52:31.25	129.02	11.26	-47.3	-50.0	23.6	6.05e-01	0	38	0	84410368	66	4835
2026-01-03 10:52:32.25	128.93	11.35	-47.2	-49.9	23.7	6.05e-01	0	38	0	85983232	66	4813
2026-01-03 10:52:33.25	128.85	11.44	-47.3	-50.0	23.5	6.07e-01	0	38	0	88080384	66	4856
2026-01-03 10:52:34.26	128.76	11.54	-47.1	-49.8	23.7	6.05e-01	0	38	0	90177536	66	4744
2026-01-03 10:52:35.26	128.67	11.63	-47.0	-49.7	23.9	6.09e-01	0	38	0	91750400	65	4938
2026-01-03 10:52:36.26	128.59	11.72	-46.9	-49.6	23.9	6.07e-01	0	38	0	93847552	65	4916
2026-01-03 10:52:37.27	128.50	11.82	-46.9	-49.6	23.9	6.10e-01	0	38	0	95420416	65	4893
2026-01-03 10:52:38.27	128.41	11.91	-47.0	-49.7	23.9	6.07e-01	0	38	0	97517568	65	4937
2026-01-03 10:52:39.27	128.32	12.01	-46.9	-49.5	24.0	6.08e-01	0	38	0	99614720	65	4855
2026-01-03 10:52:40.28	128.23	12.10	-47.0	-49.7	23.9	6.08e-01	0	38	0	101187584	65	4952
2026-01-03 10:52:41.28	128.14	12.20	-47.1	-49.8	23.8	6.05e-01	0	38	0	103284736	65	4991
2026-01-03 10:52:42.29	128.05	12.29	-47.1	-49.7	23.8	6.07e-01	0	39	0	104857600	65	4978
2026-01-03 10:52:43.29	127.96	12.39	-47.0	-49.7	23.8	6.06e-01	0	38	0	106954752	65	4935
2026-01-03 10:52:44.29	127.87	12.48	-46.8	-49.4	24.1	6.07e-01	0	38	0	109051904	65	4792
2026-01-03 10:52:45.30	127.78	12.58	-46.7	-49.3	24.2	6.09e-01	0	38	0	110624768	65	4726
2026-01-03 10:52:46.30	127.68	12.68	-47.3	-49.8	24.2	6.07e-01	0	38	0	112721920	65	5030
2026-01-03 10:52:47.30	127.59	12.77	-47.1	-49.7	24.1	6.07e-01	0	38	0	114294784	65	4964
2026-01-03 10:52:48.31	127.49	12.87	-47.0	-49.5	24.2	6.07e-01	0	38	0	116391936	65	4863
2026-01-03 10:52:49.31	127.40	12.97	-47.0	-49.5	24.1	6.05e-01	0	39	0	117964800	65	4859
2026-01-03 10:52:50.31	127.30	13.07	-46.9	-49.4	24.2	6.06e-01	0	38	0	120061952	65	4797
2026-01-03 10:52:51.31	127.21	13.16	-46.7	-49.1	24.4	6.06e-01	0	39	0	122159104	65	4649
2026-01-03 10:52:52.32	127.11	13.26	-46.6	-49.1	24.5	6.09e-01	0	39	0	123731968	65	4624
2026-01-03 10:52:53.32	127.01	13.36	-46.6	-49.1	24.3	6.08e-01	0	38	0	125829120	65	4623
2026-01-03 10:52:54.32	126.91	13.46	-46.7	-49.2	24.4	6.08e-01	0	38	0	127401984	65	4654
2026-01-03 10:52:55.32	126.81	13.56	-46.6	-49.1	24.5	6.08e-01	0	38	0	129499136	65	4604
2026-01-03 10:52:56.32	126.71	13.66	-46.6	-49.1	24.5	6.06e-01	0	39	0	131072000	65	4610
2026-01-03 10:52:57.33	126.61	13.76	-46.6	-49.0	24.5	6.05e-01	0	39	0	133169152	65	4582
2026-01-03 10:52:58.33	126.51	13.86	-46.6	-49.0	24.6	6.08e-01	0	39	0	135266304	65	4568
2026-01-03 10:52:59.33	126.41	13.96	-46.6	-49.0	24.5	6.06e-01	0	38	0	136839168	65	4598
2026-01-03 10:53:00.34	126.30	14.07	-46.5	-48.9	24.6	6.07e-01	0	38	0	138936320	65	4541
2026-01-03 10:53:01.34	126.20	14.17	-46.5	-48.9	24.7	6.08e-01	0	38	0	141033472	65	4529
2026-01-03 10:53:02.34	126.09	14.27	-46.9	-49.3	24.7	6.05e-01	0	39	0	142606336	65	4755
2026-01-03 10:53:03.35	125.99	14.37	-46.6	-49.0	24.7	6.08e-01	0	38	0	144703488	65	4598
2026-01-03 10:53:04.35	125.88	14.48	-46.6	-49.0	24.6	6.06e-01	0	38	0	146276352	65	4578
2026-01-03 10:53:05.35	125.77	14.58	-46.6	-49.0	24.6	6.06e-01	0	39	0	148373504	65	4582
2026-01-03 10:53:06.35	125.66	14.69	-46.6	-49.0	24.6	6.06e-01	0	39	0	149946368	65	4589
2026-01-03 10:53:07.35	125.56	14.79	-46.5	-48.9	24.8	6.06e-01	0	38	0	152043520	65	4529
2026-01-03 10:53:08.36	125.44	14.90	-46.5	-49.0	24.7	6.06e-01	0	38	0	154140672	65	4552
2026-01-03 10:53:09.36	125.33	15.00	-46.6	-49.1	24.5	6.06e-01	0	39	0	155713536	65	4610
2026-01-03 10:53:10.36	125.22	15.11	-46.7	-49.2	24.5	6.06e-01	0	38	0	157810688	65	4655
2026-01-03 10:53:11.37	125.11	15.21	-46.6	-49.0	24.6	6.06e-01	0	39	0	159383552	65	4588
2026-01-03 10:53:12.37	125.00	15.32	-46.6	-49.0	24.6	6.07e-01	0	38	0	161480704	65	4580
2026-01-03 10:53:13.38	124.88	15.43	-46.6	-49.0	24.6	6.07e-01	0	39	0	163577856	65	4594
2026-01-03 10:53:14.37	124.77	15.53	-46.6	-49.0	24.6	6.06e-01	0	39	0	165150720	65	4587
2026-01-03 10:53:15.38	124.65	15.64	-46.6	-49.0	24.6	6.09e-01	0	38	0	167247872	65	4592
2026-01-03 10:53:16.38	124.53	15.75	-46.5	-48.9	24.7	6.08e-01	0	38	0	168820736	65	4529
2026-01-03 10:53:17.38	124.42	15.86	-46.5	-49.0	24.7	6.06e-01	0	39	0	170917888	64	4818
2026-01-03 10:53:18.38	124.30	15.97	-46.5	-48.9	24.7	6.07e-01	0	39	0	173015040	64	4810
2026-01-03 10:53:19.39	124.18	16.08	-46.4	-48.8	24.8	6.06e-01	0	38	0	174587904	64	4752
2026-01-03 10:53:20.39	124.06	16.19	-46.9	-49.3	24.9	6.07e-01	0	39	0	176685056	64	5003
2026-01-03 10:53:21.40	123.93	16.30	-46.5	-48.9	24.8	6.06e-01	0	38	0	178257920	64	4782
2026-01-03 10:53:22.40	123.81	16.41	-46.4	-48.7	25.0	6.04e-01	0	38	0	180355072	64	4696
2026-01-03 10:53:23.40	123.69	16.52	-46.4	-48.8	25.0	6.07e-01	0	38	0	181927936	64	4710
2026-01-03 10:53:24.40	123.56	16.63	-46.5	-48.9	24.9	6.08e-01	0	39	0	184025088	64	4793
2026-01-03 10:53:25.40	123.44	16.74	-46.5	-48.9	24.8	6.04e-01	0	39	0	186122240	64	4776
2026-01-03 10:53:26.41	123.31	16.85	-46.6	-49.0	24.8	6.06e-01	0	38	0	187695104	64	4850
2026-01-03 10:53:27.41	123.18	16.97	-46.6	-49.0	24.7	6.07e-01	0	39	0	189792256	64	4823
2026-01-03 10:53:28.41	123.06	17.08	-46.5	-48.8	24.9	6.05e-01	0	39	0	191365120	64	4756
2026-01-03 10:53:29.42	122.92	17.19	-46.4	-48.8	24.9	6.04e-01	0	39	0	193462272	64	4728
2026-01-03 10:53:30.42	122.79	17.31	-46.8	-49.2	24.9	6.07e-01	0	39	0	195035136	64	4931
2026-01-03 10:53:31.42	122.66	17.42	-46.6	-48.9	24.9	6.05e-01	0	39	0	197132288	64	4811
2026-01-03 10:53:32.42	122.53	17.54	-46.6	-49.0	24.8	6.07e-01	0	39	0	199229440	64	4852
2026-01-03 10:53:33.43	122.39	17.65	-46.6	-49.0	24.8	6.08e-01	0	39	0	200802304	64	4821
2026-01-03 10:53:34.43	122.26	17.77	-46.4	-48.8	24.9	6.08e-01	0	39	0	202899456	64	4748
2026-01-03 10:53:35.43	122.12	17.89	-46.4	-48.8	24.9	6.07e-01	0	39	0	204472320	64	4733
2026-01-03 10:53:36.43	121.99	18.00	-46.6	-49.0	24.8	6.06e-01	0	39	0	206569472	64	4822
2026-01-03 10:53:37.44	121.85	18.12	-46.6	-49.0	24.8	6.06e-01	0	39	0	208666624	64	4820
2026-01-03 10:53:38.44	121.71	18.24	-46.4	-48.8	24.9	6.07e-01	0	39	0	210239488	64	4733
2026-01-03 10:53:39.45	121.57	18.36	-46.5	-48.9	24.9	6.08e-01	0	39	0	212336640	64	4766
2026-01-03 10:53:40.45	121.42	18.48	-46.5	-48.9	24.8	6.07e-01	0	39	0	213909504	64	4801
2026-01-03 10:53:41.45	121.28	18.59	-46.4	-48.8	24.9	6.08e-01	0	39	0	216006656	64	4745
2026-01-03 10:53:42.46	121.14	18.71	-46.3	-48.7	25.0	6.10e-01	0	39	0	218103808	64	4691
2026-01-03 10:53:43.46	120.99	18.83	-46.3	-48.7	25.0	6.06e-01	0	39	0	219676672	64	4673
2026-01-03 10:53:44.46	120.84	18.95	-46.3	-48.7	25.0	6.08e-01	0	39	0	221773824	64	4672
2026-01-03 10:53:45.47	120.69	19.08	-46.8	-49.2	25.0	6.06e-01	0	38	0	223346688	64	4963
2026-01-03 10:53:46.47	120.54	19.20	-46.7	-49.1	24.9	6.06e-01	0	39	0	225443840	64	4889
2026-01-03 10:53:47.47	120.39	19.32	-46.6	-49.0	24.7	6.08e-01	0	38	0	227016704	64	4854
2026-01-03 10:53:48.48	120.24	19.44	-46.4	-48.8	25.0	6.06e-01	0	39	0	229113856	64	4736
2026-01-03 10:53:49.48	120.09	19.56	-46.5	-48.9	24.9	6.08e-01	0	38	0	231211008	64	4760
2026-01-03 10:53:50.48	119.93	19.69	-46.6	-49.0	24.8	6.05e-01	0	38	0	232783872	64	4864
2026-01-03 10:53:51.49	119.78	19.81	-46.6	-49.0	24.8	6.07e-01	0	39	0	234881024	64	4868
2026-01-03 10:53:52.49	119.62	19.93	-46.7	-49.1	24.7	6.07e-01	0	39	0	236453888	64	4903
2026-01-03 10:53:53.49	119.46	20.06	-46.6	-49.1	24.7	6.06e-01	0	39	0	238551040	64	4877
2026-01-03 10:53:54.49	119.30	20.18	-46.7	-49.2	24.7	6.06e-01	0	39	0	240648192	64	4941
2026-01-03 10:53:55.49	119.14	20.31	-46.7	-49.1	24.7	6.06e-01	0	39	0	242221056	64	4918
2026-01-03 10:53:56.50	118.98	20.44	-46.6	-49.0	24.8	6.06e-01	0	39	0	244318208	64	4857
2026-01-03 10:53:57.50	118.81	20.56	-46.6	-49.0	24.8	6.06e-01	0	39	0	245891072	64	4821
2026-01-03 10:53:58.50	118.65	20.69	-46.6	-49.0	24.7	6.06e-01	0	39	0	247988224	64	4862
2026-01-03 10:53:59.50	118.48	20.82	-47.0	-49.5	24.7	6.06e-01	0	39	0	249561088	64	5131
2026-01-03 10:54:00.51	118.31	20.94	-47.0	-49.5	24.5	6.08e-01	0	39	0	251658240	64	5127
2026-01-03 10:54:01.51	118.14	21.07	-46.8	-49.2	24.6	6.05e-01	0	39	0	253755392	64	4976
2026-01-03 10:54:02.51	117.97	21.20	-46.7	-49.2	24.6	6.08e-01	0	39	0	255328256	64	4945
2026-01-03 10:54:03.52	117.79	21.33	-46.7	-49.2	24.7	6.06e-01	0	39	0	257425408	64	4955
2026-01-03 10:54:04.52	117.62	21.46	-46.7	-49.2	24.7	6.08e-01	0	39	0	258998272	64	4947
2026-01-03 10:54:05.52	117.44	21.59	-46.6	-49.0	24.9	6.05e-01	0	39	0	261095424	64	4849
2026-01-03 10:54:06.52	117.27	21.72	-46.6	-49.0	24.9	6.04e-01	0	39	0	263192576	64	4840
2026-01-03 10:54:07.53	117.08	21.85	-46.7	-49.1	24.8	6.06e-01	0	39	0	264765440	64	4913
2026-01-03 10:54:08.53	116.90	21.98	-46.5	-49.0	24.9	6.06e-01	0	39	0	266862592	64	4818
2026-01-03 10:54:09.53	116.72	22.11	-46.5	-48.9	24.9	6.08e-01	0	39	0	268435456	64	4788
2026-01-03 10:54:10.53	116.54	22.24	-46.5	-48.9	24.9	6.06e-01	0	39	0	270532608	64	4784
2026-01-03 10:54:11.53	116.35	22.38	-46.5	-48.9	24.8	6.06e-01	0	39	0	272629760	64	4810
2026-01-03 10:54:12.54	116.16	22.51	-47.0	-49.4	24.8	6.05e-01	0	39	0	274202624	64	5086
2026-01-03 10:54:13.54	115.97	22.64	-46.9	-49.4	24.7	6.07e-01	0	39	0	276299776	64	5059
2026-01-03 10:54:14.54	115.78	22.78	-47.0	-49.5	24.5	6.04e-01	0	39	0	277872640	64	5126
2026-01-03 10:54:15.54	115.59	22.91	-46.9	-49.4	24.6	6.07e-01	0	39	0	279969792	64	5056
2026-01-03 10:54:16.55	115.39	23.05	-47.0	-49.5	24.5	6.08e-01	0	39	0	281542656	64	5123
2026-01-03 10:54:17.55	115.20	23.18	-46.9	-49.4	24.5	6.06e-01	0	39	0	283639808	64	5050
2026-01-03 10:54:18.55	115.00	23.32	-47.0	-49.5	24.4	6.08e-01	0	39	0	285736960	64	5126
2026-01-03 10:54:19.56	114.80	23.45	-46.9	-49.4	24.5	6.06e-01	0	39	0	287309824	64	5054
2026-01-03 10:54:20.56	114.60	23.59	-46.9	-49.3	24.5	6.05e-01	0	39	0	289406976	64	5037
2026-01-03 10:54:21.56	114.39	23.73	-46.7	-49.2	24.7	6.06e-01	0	39	0	290979840	64	4951
2026-01-03 10:54:22.56	114.19	23.86	-46.8	-49.2	24.6	6.06e-01	0	39	0	293076992	64	4971
2026-01-03 10:54:23.57	113.98	24.00	-46.7	-49.1	24.7	6.08e-01	0	39	0	295174144	64	4917
2026-01-03 10:54:24.57	113.77	24.14	-46.7	-49.1	24.7	6.05e-01	0	39	0	296747008	64	4923
2026-01-03 10:54:25.57	113.56	24.28	-46.7	-49.2	24.6	6.05e-01	0	39	0	298844160	64	4929
2026-01-03 10:54:26.57	113.34	24.42	-46.5	-48.9	24.9	6.07e-01	0	39	0	300417024	64	4786
2026-01-03 10:54:27.57	113.13	24.56	-47.0	-49.4	24.9	6.05e-01	0	39	0	302514176	64	5089
2026-01-03 10:54:28.58	112.91	24.70	-46.9	-49.4	24.6	6.07e-01	0	39	0	304611328	64	5049
2026-01-03 10:54:29.58	112.69	24.84	-46.9	-49.4	24.5	6.06e-01	0	39	0	306184192	64	5072
2026-01-03 10:54:30.58	112.47	24.98	-46.6	-49.1	24.7	6.06e-01	0	39	0	308281344	64	4915
2026-01-03 10:54:31.59	112.24	25.12	-46.6	-49.1	24.8	6.07e-01	0	39	0	309854208	64	4901
2026-01-03 10:54:32.59	112.02	25.26	-46.7	-49.2	24.7	6.06e-01	0	39	0	311951360	64	4957
2026-01-03 10:54:33.59	111.79	25.40	-46.7	-49.1	24.8	6.07e-01	0	39	0	313524224	64	4901
2026-01-03 10:54:34.59	111.56	25.54	-46.7	-49.2	24.7	6.07e-01	0	39	0	315621376	64	4948
2026-01-03 10:54:35.60	111.33	25.68	-46.7	-49.1	24.8	6.06e-01	0	39	0	317718528	64	4917
2026-01-03 10:54:36.60	111.09	25.83	-46.7	-49.1	24.9	6.06e-01	0	39	0	319291392	64	4914
2026-01-03 10:54:37.60	110.86	25.97	-46.7	-49.1	24.9	6.10e-01	0	39	0	321388544	64	4892
2026-01-03 10:54:38.60	110.62	26.11	-46.6	-49.0	24.9	6.06e-01	0	39	0	322961408	64	4840
2026-01-03 10:54:39.61	110.37	26.25	-46.5	-48.9	25.1	6.06e-01	0	39	0	325058560	64	4772
2026-01-03 10:54:40.61	110.13	26.40	-46.5	-48.9	25.0	6.06e-01	0	39	0	326631424	64	4799
2026-01-03 10:54:41.61	109.89	26.54	-46.9	-49.3	25.0	6.07e-01	0	39	0	328728576	64	5013
2026-01-03 10:54:42.62	109.64	26.69	-46.7	-49.1	24.9	6.06e-01	0	39	0	330825728	64	4916
2026-01-03 10:54:43.62	109.39	26.83	-46.6	-49.0	25.0	6.07e-01	0	39	0	332398592	64	4851
2026-01-03 10:54:44.62	109.13	26.97	-46.5	-48.9	25.0	6.07e-01	0	39	0	334495744	64	4780
2026-01-03 10:54:45.63	108.88	27.12	-46.6	-48.9	25.0	6.07e-01	0	39	0	336592896	64	4796
2026-01-03 10:54:46.63	108.62	27.26	-46.5	-48.8	25.1	6.07e-01	0	39	0	338165760	64	4749
2026-01-03 10:54:47.63	108.36	27.41	-46.3	-48.7	25.3	6.07e-01	0	39	0	340262912	64	4657
2026-01-03 10:54:48.63	108.10	27.55	-46.4	-48.8	25.1	6.06e-01	0	39	0	341835776	64	4731
2026-01-03 10:54:49.64	107.83	27.70	-46.2	-48.5	25.3	6.06e-01	0	39	0	343932928	64	4598
2026-01-03 10:54:50.64	107.56	27.84	-46.2	-48.5	25.3	6.06e-01	0	39	0	345505792	64	4586
2026-01-03 10:54:51.64	107.29	27.99	-46.3	-48.6	25.3	6.05e-01	0	39	0	347602944	64	4637
2026-01-03 10:54:52.65	107.02	28.14	-46.2	-48.6	25.3	6.07e-01	0	39	0	349700096	64	4613
2026-01-03 10:54:53.65	106.74	28.28	-46.2	-48.5	25.4	6.07e-01	0	39	0	351272960	64	4596
2026-01-03 10:54:54.65	106.47	28.43	-46.2	-48.5	25.3	6.06e-01	0	39	0	353370112	64	4586
2026-01-03 10:54:55.66	106.18	28.57	-46.0	-48.4	25.5	6.06e-01	0	39	0	354942976	64	4500
2026-01-03 10:54:56.66	105.90	28.72	-46.0	-48.3	25.5	6.08e-01	0	39	0	357040128	64	4482
2026-01-03 10:54:57.66	105.62	28.87	-46.2	-48.5	25.4	6.05e-01	0	39	0	358612992	64	4563
2026-01-03 10:54:58.66	105.33	29.01	-46.6	-48.9	25.4	6.06e-01	0	39	0	360710144	64	4792
2026-01-03 10:54:59.66	105.04	29.16	-46.7	-49.0	25.3	6.06e-01	0	39	0	362807296	64	4853
2026-01-03 10:55:00.67	104.74	29.31	-46.4	-48.7	25.5	6.09e-01	0	39	0	364380160	64	4672
2026-01-03 10:55:01.67	104.44	29.45	-46.0	-48.4	25.5	6.06e-01	0	39	0	366477312	64	4499
2026-01-03 10:55:02.67	104.14	29.60	-46.0	-48.3	25.6	6.06e-01	0	39	0	368050176	63	4742
2026-01-03 10:55:03.67	103.84	29.74	-46.0	-48.3	25.6	6.07e-01	0	39	0	370147328	63	4749
2026-01-03 10:55:04.68	103.53	29.89	-46.0	-48.3	25.6	6.06e-01	0	39	0	372244480	63	4715
2026-01-03 10:55:05.68	103.23	30.04	-46.5	-48.8	25.5	6.07e-01	0	39	0	373817344	63	5007
2026-01-03 10:55:06.69	102.91	30.18	-46.5	-48.8	25.5	6.07e-01	0	39	0	375914496	63	4988
2026-01-03 10:55:07.69	102.60	30.33	-46.3	-48.6	25.4	6.05e-01	0	39	0	377487360	63	4912
2026-01-03 10:55:08.69	102.28	30.47	-46.1	-48.4	25.6	6.06e-01	0	39	0	379584512	63	4804
2026-01-03 10:55:09.69	101.96	30.62	-46.1	-48.4	25.6	6.06e-01	0	39	0	381681664	63	4791
2026-01-03 10:55:10.69	101.64	30.76	-46.1	-48.4	25.5	6.06e-01	0	39	0	383254528	63	4791
2026-01-03 10:55:11.70	101.31	30.91	-45.9	-48.3	25.7	6.05e-01	0	39	0	385351680	63	4712
2026-01-03 10:55:12.70	100.98	31.05	-46.0	-48.3	25.7	6.07e-01	0	39	0	386924544	63	4715
2026-01-03 10:55:13.70	100.65	31.20	-46.1	-48.4	25.6	6.06e-01	0	39	0	389021696	63	4781
2026-01-03 10:55:14.70	100.32	31.34	-46.1	-48.4	25.6	6.07e-01	0	39	0	390594560	63	4813
2026-01-03 10:55:15.71	99.97	31.49	-46.1	-48.4	25.6	6.09e-01	0	39	0	392691712	63	4779
2026-01-03 10:55:16.71	99.63	31.63	-46.1	-48.4	25.5	6.08e-01	0	39	0	394788864	63	4807
2026-01-03 10:55:17.71	99.29	31.77	-46.0	-48.3	25.6	6.06e-01	0	39	0	396361728	63	4727
2026-01-03 10:55:18.72	98.94	31.91	-46.1	-48.4	25.6	6.09e-01	0	39	0	398458880	63	4786
2026-01-03 10:55:19.72	98.59	32.06	-46.1	-48.4	25.5	6.07e-01	0	39	0	400031744	63	4801
2026-01-03 10:55:20.72	98.23	32.20	-46.1	-48.4	25.5	6.06e-01	0	39	0	402128896	63	4797
2026-01-03 10:55:21.73	97.87	32.34	-45.9	-48.2	25.7	6.06e-01	0	39	0	404226048	63	4677
2026-01-03 10:55:22.73	97.51	32.48	-46.5	-48.8	25.7	6.05e-01	0	39	0	405798912	63	4996
2026-01-03 10:55:23.74	97.15	32.62	-46.6	-49.0	25.5	6.05e-01	0	39	0	407896064	63	5109
2026-01-03 10:55:24.74	96.78	32.76	-46.5	-48.9	25.1	6.06e-01	0	39	0	409468928	64	4783
2026-01-03 10:55:25.74	96.41	32.90	-46.3	-48.7	25.2	6.07e-01	0	39	0	411566080	64	4667
2026-01-03 10:55:26.75	96.03	33.04	-46.4	-48.7	25.2	6.06e-01	0	39	0	413663232	64	4693
2026-01-03 10:55:27.75	95.66	33.17	-46.2	-48.5	25.4	6.06e-01	0	39	0	415236096	64	4573
2026-01-03 10:55:28.76	95.28	33.31	-46.2	-48.5	25.4	6.06e-01	0	39	0	417333248	64	4563
2026-01-03 10:55:29.76	94.89	33.45	-46.3	-48.6	25.3	6.08e-01	0	39	0	418906112	64	4649
2026-01-03 10:55:30.76	94.51	33.58	-46.4	-48.8	25.1	6.06e-01	0	39	0	421003264	64	4724
2026-01-03 10:55:31.77	94.11	33.72	-46.4	-48.9	25.1	6.06e-01	0	39	0	422576128	64	4780
2026-01-03 10:55:32.77	93.72	33.85	-46.5	-49.0	24.9	6.06e-01	0	39	0	424673280	64	4834
2026-01-03 10:55:33.77	93.32	33.98	-46.5	-48.9	25.0	6.09e-01	0	39	0	426770432	64	4774
2026-01-03 10:55:34.78	92.92	34.12	-46.5	-48.9	22.7	6.07e-01	0	39	0	428343296	64	4803
2026-01-03 10:55:35.78	92.52	34.25	-46.6	-49.0	24.9	6.08e-01	0	39	0	430440448	64	4855
2026-01-03 10:55:36.78	92.11	34.37	-46.8	-49.2	24.8	6.07e-01	0	39	0	432013312	64	4975
2026-01-03 10:55:37.79	91.70	34.50	-46.6	-49.1	24.9	6.08e-01	0	39	0	434110464	64	4880
2026-01-03 10:55:38.79	91.29	34.63	-46.6	-49.0	25.0	6.05e-01	0	39	0	436207616	64	4850
2026-01-03 10:55:39.79	90.87	34.76	-46.7	-49.2	24.9	6.04e-01	0	39	0	437780480	64	4935
2026-01-03 10:55:40.80	90.45	34.88	-47.3	-49.7	24.8	6.06e-01	0	39	0	439877632	65	4981
2026-01-03 10:55:41.80	90.03	35.01	-47.3	-49.8	24.7	6.07e-01	0	39	0	441450496	65	5009
2026-01-03 10:55:42.80	89.60	35.13	-46.8	-49.3	24.8	6.05e-01	0	39	0	443547648	65	4712
2026-01-03 10:55:43.80	89.17	35.25	-46.7	-49.2	24.7	6.09e-01	0	39	0	445644800	65	4699
2026-01-03 10:55:44.81	88.73	35.37	-46.7	-49.3	24.8	6.06e-01	0	39	0	447217664	65	4711
2026-01-03 10:55:45.81	88.30	35.49	-46.9	-49.5	24.5	6.06e-01	0	39	0	449314816	65	4851
2026-01-03 10:55:46.82	87.85	35.61	-46.7	-49.3	24.7	6.07e-01	0	39	0	450887680	65	4715
2026-01-03 10:55:47.82	87.41	35.72	-46.7	-49.2	24.8	6.06e-01	0	39	0	452984832	65	4681
2026-01-03 10:55:48.82	86.97	35.84	-46.8	-49.3	24.6	6.06e-01	0	39	0	454557696	65	4758
2026-01-03 10:55:49.82	86.52	35.95	-46.9	-49.6	24.5	6.04e-01	0	39	0	456654848	65	4880
2026-01-03 10:55:50.82	86.07	36.06	-46.7	-49.3	24.6	6.07e-01	0	39	0	458752000	65	4759
2026-01-03 10:55:51.83	85.61	36.17	-46.8	-49.5	24.5	6.07e-01	0	39	0	460324864	65	4825
2026-01-03 10:55:52.83	85.15	36.28	-47.0	-49.6	24.4	6.05e-01	0	39	0	462422016	65	4917
2026-01-03 10:55:53.83	84.69	36.38	-47.0	-49.6	24.4	6.05e-01	0	39	0	463994880	65	4890
2026-01-03 10:55:54.83	84.23	36.49	-47.5	-50.1	24.4	6.07e-01	0	39	0	466092032	65	5203
2026-01-03 10:55:55.83	83.76	36.59	-47.6	-50.2	24.3	6.06e-01	0	39	0	468189184	65	5274
2026-01-03 10:55:56.83	83.29	36.69	-47.4	-50.1	24.0	6.08e-01	0	39	0	469762048	65	5197
2026-01-03 10:55:57.83	82.82	36.79	-47.2	-49.8	24.2	6.08e-01	0	39	0	471859200	65	5038
2026-01-03 10:55:58.84	82.33	36.89	-47.2	-49.8	24.3	6.05e-01	0	39	0	473432064	65	5011
2026-01-03 10:55:59.84	81.86	36.98	-47.2	-49.7	24.4	6.08e-01	0	39	0	475529216	65	4983
2026-01-03 10:56:00.84	81.37	37.08	-47.7	-50.3	24.0	6.06e-01	0	39	0	477102080	66	5012
2026-01-03 10:56:01.85	80.89	37.17	-47.6	-50.2	24.2	6.06e-01	0	39	0	479199232	66	4946
2026-01-03 10:56:02.85	80.40	37.26	-47.7	-50.2	24.1	6.06e-01	0	39	0	481296384	66	4952
2026-01-03 10:56:03.85	79.91	37.34	-47.6	-50.2	24.0	6.06e-01	0	39	0	482869248	66	4968
2026-01-03 10:56:04.86	79.41	37.43	-47.5	-50.1	24.1	6.09e-01	0	39	0	484966400	66	4883
2026-01-03 10:56:05.86	78.92	37.51	-47.6	-50.2	24.0	6.07e-01	0	39	0	486539264	66	4966
2026-01-03 10:56:06.87	78.41	37.59	-47.2	-49.7	24.4	6.06e-01	0	39	0	488636416	66	4657
2026-01-03 10:56:07.87	77.91	37.67	-47.3	-49.8	24.4	6.06e-01	0	39	0	490733568	66	4721
2026-01-03 10:56:08.87	77.41	37.75	-47.5	-50.1	24.1	6.07e-01	0	39	0	492306432	66	4874
2026-01-03 10:56:09.88	76.90	37.82	-47.6	-50.2	24.0	6.08e-01	0	39	0	494403584	66	4957
2026-01-03 10:56:10.88	76.39	37.89	-47.3	-49.9	24.3	6.06e-01	0	39	0	495976448	66	4803
2026-01-03 10:56:11.89	75.88	37.96	-47.9	-50.5	24.1	6.08e-01	0	39	0	498073600	66	5117
2026-01-03 10:56:12.89	75.37	38.03	-48.0	-50.6	24.0	6.05e-01	0	39	0	500170752	66	5173
2026-01-03 10:56:13.90	74.85	38.09	-47.6	-50.2	23.9	6.08e-01	0	39	0	501743616	66	4959
2026-01-03 10:56:14.90	74.33	38.16	-47.4	-50.0	24.1	6.05e-01	0	39	0	503840768	66	4821
2026-01-03 10:56:15.90	73.81	38.22	-47.4	-50.0	24.1	6.05e-01	0	39	0	505413632	66	4823
2026-01-03 10:56:16.90	73.30	38.27	-47.6	-50.1	24.0	6.06e-01	0	39	0	507510784	66	4917
2026-01-03 10:56:17.91	72.77	38.33	-47.5	-50.0	24.2	6.08e-01	0	39	0	509083648	66	4855
2026-01-03 10:56:18.91	72.25	38.38	-47.5	-50.0	24.2	6.07e-01	0	39	0	511180800	66	4832
2026-01-03 10:56:19.92	71.72	38.43	-47.5	-50.0	24.1	6.09e-01	0	39	0	513277952	66	4854
2026-01-03 10:56:20.92	71.19	38.47	-47.5	-50.1	24.0	6.09e-01	0	39	0	514850816	66	4899
2026-01-03 10:56:21.92	70.66	38.52	-47.3	-49.9	24.2	6.05e-01	0	39	0	516947968	66	4783
2026-01-03 10:56:22.92	70.13	38.56	-47.4	-50.0	24.2	6.05e-01	0	39	0	518520832	66	4836
2026-01-03 10:56:23.92	69.60	38.60	-47.5	-50.0	24.1	6.04e-01	0	39	0	520617984	66	4866
2026-01-03 10:56:24.93	69.06	38.63	-47.4	-50.0	24.2	6.09e-01	0	39	0	522715136	66	4816
2026-01-03 10:56:25.93	68.53	38.66	-48.1	-50.6	24.1	6.07e-01	0	39	0	524288000	66	5200
2026-01-03 10:56:26.93	68.00	38.69	-47.8	-50.3	24.1	6.06e-01	0	39	0	526385152	66	5029
2026-01-03 10:56:27.94	67.46	38.72	-47.4	-49.9	24.2	6.06e-01	0	39	0	527958016	66	4795
2026-01-03 10:56:28.94	66.92	38.75	-47.3	-49.8	24.3	6.06e-01	0	39	0	530055168	66	4711
2026-01-03 10:56:29.94	66.39	38.77	-47.4	-49.8	24.3	6.07e-01	0	39	0	532152320	66	4744
2026-01-03 10:56:30.94	65.85	38.79	-47.3	-49.8	24.3	6.07e-01	0	39	0	533725184	66	4721
2026-01-03 10:56:31.94	65.31	38.80	-47.6	-50.1	23.9	6.06e-01	0	39	0	535822336	66	4916
2026-01-03 10:56:32.94	64.77	38.82	-47.3	-49.8	24.3	6.07e-01	0	39	0	537395200	66	4734
2026-01-03 10:56:33.95	64.23	38.83	-47.4	-49.9	24.2	6.05e-01	0	39	0	539492352	66	4781
2026-01-03 10:56:34.95	63.69	38.83	-47.4	-49.9	24.2	6.08e-01	0	39	0	541065216	66	4801
2026-01-03 10:56:35.95	63.15	38.84	-47.3	-49.9	24.2	6.06e-01	0	39	0	543162368	66	4766
2026-01-03 10:56:36.96	62.61	38.84	-47.2	-49.7	24.4	6.08e-01	0	39	0	545259520	66	4673
2026-01-03 10:56:37.96	62.07	38.84	-47.3	-49.9	24.2	6.07e-01	0	39	0	546832384	66	4762
2026-01-03 10:56:38.96	61.53	38.84	-47.4	-50.0	24.1	6.06e-01	0	39	0	548929536	66	4827
2026-01-03 10:56:39.96	60.99	38.83	-47.4	-49.8	24.2	6.07e-01	0	39	0	550502400	66	4755
2026-01-03 10:56:40.96	60.45	38.82	-47.3	-49.7	24.4	6.08e-01	0	39	0	552599552	66	4692
2026-01-03 10:56:41.96	59.91	38.81	-47.4	-49.9	24.3	6.08e-01	0	39	0	554172416	66	4768
2026-01-03 10:56:42.97	59.37	38.79	-48.1	-50.7	24.0	6.08e-01	0	39	0	556269568	66	5221
2026-01-03 10:56:43.97	58.83	38.77	-47.6	-50.2	24.1	6.08e-01	0	39	0	558366720	66	4931
2026-01-03 10:56:44.97	58.30	38.75	-47.4	-49.9	24.1	6.07e-01	0	39	0	559939584	66	4810
2026-01-03 10:56:45.97	57.76	38.73	-47.2	-49.8	24.3	6.06e-01	0	39	0	562036736	66	4711
2026-01-03 10:56:46.97	57.23	38.70	-47.2	-49.8	24.3	6.07e-01	0	39	0	563609600	66	4716
2026-01-03 10:56:47.98	56.69	38.67	-47.4	-50.0	24.2	6.07e-01	0	39	0	565706752	66	4821
2026-01-03 10:56:48.98	56.15	38.64	-47.4	-49.9	24.2	6.06e-01	0	39	0	567803904	66	4773
2026-01-03 10:56:49.98	55.62	38.61	-47.1	-49.7	24.4	6.06e-01	0	39	0	569376768	66	4653
2026-01-03 10:56:50.98	55.09	38.57	-47.5	-50.1	24.0	6.07e-01	0	39	0	571473920	66	4873
2026-01-03 10:56:51.99	54.56	38.53	-47.5	-50.1	24.0	6.06e-01	0	39	0	573046784	66	4891
2026-01-03 10:56:52.99	54.03	38.49	-47.6	-50.1	24.0	6.08e-01	0	39	0	575143936	66	4919
2026-01-03 10:56:54.00	53.50	38.44	-47.3	-49.8	24.2	6.09e-01	0	39	0	577241088	66	4731
2026-01-03 10:56:55.00	52.97	38.39	-47.2	-49.7	24.3	6.05e-01	0	39	0	578813952	66	4705
2026-01-03 10:56:56.00	52.45	38.34	-47.2	-49.8	24.3	6.07e-01	0	39	0	580911104	66	4708
2026-01-03 10:56:57.00	51.93	38.29	-47.4	-49.9	24.2	6.06e-01	0	39	0	582483968	66	4792
2026-01-03 10:56:58.00	51.41	38.24	-47.8	-50.2	24.1	6.08e-01	0	39	0	584581120	66	4963
2026-01-03 10:56:59.01	50.89	38.18	-47.6	-50.1	24.3	6.07e-01	0	39	0	586153984	66	4913
2026-01-03 10:57:00.00	50.38	38.12	-47.4	-50.1	24.2	6.08e-01	0	39	0	588251136	66	4898
2026-01-03 10:57:01.01	49.86	38.05	-47.6	-50.2	24.0	6.07e-01	0	39	0	590348288	66	4979
2026-01-03 10:57:02.01	49.35	37.99	-47.5	-50.1	24.0	6.08e-01	0	39	0	591921152	66	4895
2026-01-03 10:57:03.01	48.84	37.92	-47.2	-49.7	24.4	6.06e-01	0	39	0	594018304	66	4686
2026-01-03 10:57:04.01	48.33	37.85	-47.3	-49.8	24.3	6.06e-01	0	39	0	595591168	66	4743
2026-01-03 10:57:05.01	47.83	37.78	-47.5	-50.1	24.1	6.07e-01	0	39	0	597688320	66	4878
2026-01-03 10:57:06.01	47.32	37.70	-47.6	-50.1	24.0	6.04e-01	0	39	0	599261184	66	4906
2026-01-03 10:57:07.02	46.82	37.62	-47.6	-50.1	24.1	6.05e-01	0	39	0	601358336	66	4889
2026-01-03 10:57:08.02	46.32	37.54	-47.5	-50.1	24.1	6.06e-01	0	39	0	603455488	66	4890
2026-01-03 10:57:09.02	45.83	37.46	-47.4	-50.0	24.1	6.08e-01	0	39	0	605028352	66	4826
2026-01-03 10:57:10.02	45.33	37.38	-47.6	-50.3	23.8	6.08e-01	0	39	0	607125504	66	4984
2026-01-03 10:57:11.03	44.84	37.29	-47.6	-50.2	23.9	6.07e-01	0	39	0	609222656	66	4947
2026-01-03 10:57:12.03	44.35	37.20	-47.3	-49.9	24.2	6.06e-01	0	39	0	610795520	66	4778
2026-01-03 10:57:13.03	43.87	37.11	-47.3	-49.8	24.3	6.08e-01	0	39	0	612892672	66	4728
2026-01-03 10:57:14.03	43.38	37.02	-47.6	-50.1	23.9	6.06e-01	0	39	0	614465536	66	4919
2026-01-03 10:57:15.03	42.91	36.93	-47.8	-50.4	24.2	6.06e-01	0	39	0	616562688	66	5069
2026-01-03 10:57:16.03	42.43	36.83	-47.5	-50.1	24.3	6.06e-01	0	39	0	618135552	66	4879
2026-01-03 10:57:17.04	41.95	36.73	-47.6	-50.2	23.9	6.07e-01	0	39	0	620232704	66	4975
2026-01-03 10:57:18.04	41.48	36.63	-47.9	-59.9	3.8	7.46e-01	0	39	104	620232704	66	15167
2026-01-03 10:57:19.04	41.02	36.53	-47.8	-59.6	3.9	7.42e-01	0	39	104	620232704	66	14556
2026-01-03 10:57:20.05	40.55	36.43	-47.8	-59.6	3.8	7.47e-01	0	39	104	620232704	66	14605
2026-01-03 10:57:21.05	40.09	36.32	-48.1	-60.2	3.8	7.49e-01	0	39	104	620232704	67	14758
2026-01-03 10:57:22.05	39.63	36.22	-49.5	-61.8	3.8	7.50e-01	0	39	104	620232704	69	15793
2026-01-03 10:57:23.06	39.17	36.11	-54.7	-74.1	3.8	7.44e-01	0	39	104	620232704	80	34811
2026-01-03 10:57:24.06	38.72	36.00	-50.4	-63.1	3.8	7.49e-01	0	39	104	620232704	72	15461
2026-01-03 10:57:25.06	38.27	35.88	-52.7	-67.5	3.8	7.45e-01	0	39	104	620232704	75	21565
2026-01-03 10:57:26.07	37.82	35.77	-49.4	-61.8	3.8	7.46e-01	0	39	104	620232704	70	14946
2026-01-03 10:57:27.06	37.38	35.66	-49.2	-61.3	3.9	7.41e-01	0	39	104	620232704	70	14163
2026-01-03 10:57:28.07	36.94	35.54	-48.4	-60.2	3.8	7.44e-01	0	39	104	620232704	68	13939
2026-01-03 10:57:29.07	36.50	35.42	-49.2	-61.4	3.9	7.40e-01	0	39	104	620232704	69	15215
2026-01-03 10:57:30.07	36.07	35.30	-49.9	-62.8	3.7	7.46e-01	0	39	104	620232704	70	16725
2026-01-03 10:57:31.08	35.64	35.18	-49.0	-61.9	3.8	7.47e-01	0	39	104	620232704	68	16984
2026-01-03 10:57:32.08	35.21	35.06	-53.8	-74.2	3.8	7.46e-01	0	39	104	620232704	78	39195
2026-01-03 10:57:33.08	34.79	34.94	-49.4	-62.9	3.7	7.46e-01	0	39	104	620232704	70	17017
2026-01-03 10:57:34.09	34.37	34.81	-51.4	-67.3	3.6	7.50e-01	0	39	104	620232704	73	23757
2026-01-03 10:57:35.09	33.95	34.69	-48.8	-61.6	3.4	7.58e-01	0	39	104	620232704	69	15558
2026-01-03 10:57:36.10	33.53	34.56	-48.5	-61.3	3.4	7.57e-01	0	39	104	620232704	68	15821
2026-01-03 10:57:37.10	33.12	34.43	-48.3	-60.7	3.8	7.63e-01	0	39	104	620232704	68	14818
2026-01-03 10:57:38.10	32.72	34.30	-48.1	-59.9	4.1	7.35e-01	0	39	104	620232704	68	13513
2026-01-03 10:57:39.10	32.32	34.18	-49.4	-61.8	4.1	7.34e-01	0	39	104	620232704	69	15901
2026-01-03 10:57:40.10	31.92	34.05	-48.9	-61.4	3.5	7.61e-01	0	39	104	620232704	68	16068
2026-01-03 10:57:41.11	31.52	33.91	-53.6	-74.1	3.8	7.43e-01	0	39	104	620232704	77	41408
2026-01-03 10:57:42.11	31.12	33.78	-50.4	-63.0	3.8	7.49e-01	0	39	104	620232704	72	15372
2026-01-03 10:57:43.12	30.73	33.65	-52.6	-66.8	3.8	7.48e-01	0	39	104	620232704	75	19891
2026-01-03 10:57:44.12	30.34	33.51	-48.8	-61.1	3.8	7.40e-01	0	39	104	620232704	69	14657
2026-01-03 10:57:45.12	29.96	33.38	-48.8	-61.1	3.8	7.44e-01	0	39	104	620232704	69	14541
2026-01-03 10:57:46.13	29.58	33.24	-48.2	-60.3	3.8	7.44e-01	0	39	104	620232704	68	14113
2026-01-03 10:57:47.13	29.20	33.10	-48.3	-60.4	3.8	7.44e-01	0	39	104	620232704	68	14268
2026-01-03 10:57:48.13	28.83	32.97	-48.7	-60.9	3.8	7.45e-01	0	39	104	620232704	68	15106
2026-01-03 10:57:49.14	28.46	32.83	-48.8	-61.4	3.8	7.46e-01	0	39	104	620232704	68	15971
2026-01-03 10:57:50.14	28.09	32.69	-54.3	-74.1	3.8	7.45e-01	0	39	104	620232704	79	36657
2026-01-03 10:57:51.14	27.73	32.55	-50.0	-63.1	3.8	7.48e-01	0	39	104	620232704	71	16418
2026-01-03 10:57:52.15	27.36	32.41	-51.7	-65.8	3.8	7.43e-01	0	39	104	620232704	74	18790
2026-01-03 10:57:53.15	27.01	32.27	-48.7	-60.8	3.8	7.46e-01	0	39	104	620232704	69	14125
2026-01-03 10:57:54.15	26.65	32.13	-48.4	-60.7	3.8	7.45e-01	0	39	104	620232704	68	14849
2026-01-03 10:57:55.16	26.30	31.99	-48.3	-60.5	3.8	7.44e-01	0	39	104	620232704	68	14434
2026-01-03 10:57:56.16	25.95	31.85	-47.7	-59.7	3.8	7.44e-01	0	39	104	620232704	67	13996
2026-01-03 10:57:57.16	25.61	31.71	-51.3	-64.9	3.8	7.45e-01	0	39	104	620232704	73	17900
2026-01-03 10:57:58.17	25.26	31.56	-49.0	-61.4	3.8	7.47e-01	0	39	104	620232704	69	15176
2026-01-03 10:57:59.17	24.93	31.42	-54.0	-74.3	3.8	7.47e-01	0	39	104	620232704	78	39786
2026-01-03 10:58:00.17	24.59	31.28	-49.7	-62.7	3.8	7.43e-01	0	39	104	620232704	71	15632
2026-01-03 10:58:01.17	24.26	31.13	-51.6	-65.3	3.8	7.45e-01	0	39	104	620232704	73	18787
2026-01-03 10:58:02.18	23.93	30.99	-48.4	-60.4	3.8	7.48e-01	0	39	104	620232704	68	14242
2026-01-03 10:58:03.18	23.60	30.84	-48.0	-60.0	3.8	7.47e-01	0	39	104	620232704	68	13629
2026-01-03 10:58:04.19	23.28	30.70	-47.8	-59.9	3.8	7.46e-01	0	39	104	620232704	67	14266
2026-01-03 10:58:05.19	22.96	30.55	-48.0	-60.3	3.8	7.45e-01	0	39	104	620232704	67	15003
2026-01-03 10:58:06.19	22.64	30.41	-48.8	-61.0	3.8	7.45e-01	0	39	104	620232704	68	15248
2026-01-03 10:58:07.20	22.33	30.26	-48.7	-60.6	3.8	7.44e-01	0	39	104	620232704	67	15545
2026-01-03 10:58:08.20	22.02	30.12	-54.4	-74.2	3.8	7.46e-01	0	39	104	620232704	79	36974
2026-01-03 10:58:09.20	21.71	29.97	-49.9	-62.6	3.8	7.46e-01	0	39	104	620232704	71	15511
2026-01-03 10:58:10.20	21.40	29.83	-51.0	-64.6	3.8	7.45e-01	0	39	104	620232704	72	18432
2026-01-03 10:58:11.21	21.10	29.68	-48.9	-61.1	3.8	7.46e-01	0	39	104	620232704	68	15446
2026-01-03 10:58:12.21	20.80	29.54	-48.7	-60.8	3.8	7.45e-01	0	39	104	620232704	68	15023
2026-01-03 10:58:13.21	20.50	29.39	-47.6	-59.5	3.8	7.44e-01	0	39	104	620232704	67	13648
2026-01-03 10:58:14.22	20.21	29.25	-47.2	-58.8	3.8	7.48e-01	0	39	104	620232704	66	13380
2026-01-03 10:58:15.22	19.92	29.10	-48.3	-60.5	3.8	7.45e-01	0	39	104	620232704	67	15315
2026-01-03 10:58:16.23	19.62	28.95	-49.1	-61.5	3.8	7.46e-01	0	39	104	620232704	68	16224
2026-01-03 10:58:17.23	19.34	28.81	-54.5	-74.4	3.8	7.46e-01	0	39	104	620232704	79	38217
2026-01-03 10:58:18.23	19.06	28.66	-49.6	-62.3	3.8	7.42e-01	0	39	104	620232704	71	14906
2026-01-03 10:58:19.24	18.77	28.52	-50.4	-63.4	3.8	7.45e-01	0	39	104	620232704	72	16065
2026-01-03 10:58:20.24	18.50	28.37	-48.4	-60.7	3.8	7.42e-01	0	39	104	620232704	68	14861
2026-01-03 10:58:21.24	18.22	28.23	-47.8	-60.2	3.8	7.46e-01	0	39	104	620232704	67	14877
2026-01-03 10:58:22.25	17.95	28.08	-47.4	-59.5	3.8	7.45e-01	0	39	104	620232704	66	14505
2026-01-03 10:58:23.25	17.68	27.94	-47.3	-59.1	3.8	7.46e-01	0	39	104	620232704	66	13785
2026-01-03 10:58:24.26	17.41	27.79	-47.5	-59.4	3.8	7.43e-01	0	39	104	620232704	66	14248
2026-01-03 10:58:25.26	17.14	27.65	-49.1	-61.8	3.8	7.48e-01	0	39	104	620232704	68	16857
2026-01-03 10:58:26.26	16.88	27.50	-54.2	-75.0	3.8	7.47e-01	0	39	104	620232704	79	40775
2026-01-03 10:58:27.27	16.62	27.36	-50.0	-62.5	3.8	7.45e-01	0	39	104	620232704	72	14489
2026-01-03 10:58:28.27	16.36	27.21	-50.6	-63.4	3.8	7.44e-01	0	39	104	620232704	72	15962
2026-01-03 10:58:29.28	16.11	27.07	-48.5	-60.5	3.8	7.44e-01	0	39	104	620232704	68	14426
2026-01-03 10:58:30.28	15.85	26.93	-48.1	-60.1	3.8	7.45e-01	0	39	104	620232704	68	13879
2026-01-03 10:58:31.29	15.60	26.78	-48.2	-60.1	3.8	7.46e-01	0	39	104	620232704	68	13875
2026-01-03 10:58:32.29	15.35	26.64	-48.1	-60.0	3.8	7.44e-01	0	39	104	620232704	68	13644
2026-01-03 10:58:33.29	15.11	26.49	-48.4	-60.5	3.8	7.46e-01	0	39	104	620232704	68	14501
2026-01-03 10:58:34.29	14.87	26.35	-49.3	-62.1	3.8	7.46e-01	0	39	104	620232704	69	16405
2026-01-03 10:58:35.30	14.62	26.21	-54.5	-74.4	3.8	7.48e-01	0	39	104	620232704	79	38089
2026-01-03 10:58:36.30	14.39	26.07	-49.8	-62.5	3.9	7.49e-01	0	39	104	620232704	71	15345
2026-01-03 10:58:37.30	14.15	25.93	-49.9	-63.0	3.8	7.45e-01	0	39	104	620232704	71	16270
2026-01-03 10:58:38.31	13.91	25.78	-48.4	-60.7	3.8	7.45e-01	0	39	104	620232704	68	14713
2026-01-03 10:58:39.31	13.68	25.64	-48.1	-60.3	3.8	7.47e-01	0	39	104	620232704	68	14052
2026-01-03 10:58:40.31	13.45	25.50	-47.9	-60.1	3.8	7.45e-01	0	39	104	620232704	67	14597
2026-01-03 10:58:41.32	13.22	25.36	-48.1	-60.2	3.8	7.44e-01	0	39	104	620232704	67	14804
2026-01-03 10:58:42.32	13.00	25.22	-47.9	-59.9	3.8	7.43e-01	0	39	104	620232704	67	14243
2026-01-03 10:58:43.32	12.78	25.08	-50.0	-62.6	3.8	7.42e-01	0	39	104	620232704	70	16442
2026-01-03 10:58:44.33	12.55	24.94	-54.0	-73.6	3.8	7.44e-01	0	39	104	620232704	78	36680
2026-01-03 10:58:45.33	12.33	24.80	-49.3	-62.0	3.8	7.46e-01	0	39	104	620232704	70	15320
2026-01-03 10:58:46.33	12.12	24.66	-49.6	-63.0	3.8	7.47e-01	0	39	104	620232704	71	16161
2026-01-03 10:58:47.34	11.90	24.52	-48.5	-60.9	3.8	7.42e-01	0	39	104	620232704	68	15184
2026-01-03 10:58:48.34	11.69	24.38	-48.2	-60.3	3.8	7.45e-01	0	39	104	620232704	68	14193
2026-01-03 10:58:49.34	11.48	24.25	-47.7	-59.8	3.8	7.47e-01	0	39	104	620232704	67	14053
2026-01-03 10:58:50.35	11.27	24.11	-47.7	-59.6	3.8	7.43e-01	0	39	104	620232704	67	13805
2026-01-03 10:58:51.35	11.06	23.97	-48.6	-61.0	3.8	7.42e-01	0	39	104	620232704	69	14403
2026-01-03 10:58:52.35	10.85	23.83	-49.6	-62.3	3.8	7.45e-01	0	39	104	620232704	69	16700
2026-01-03 10:58:53.36	10.65	23.70	-53.9	-73.9	3.8	7.45e-01	0	39	104	620232704	78	37925
2026-01-03 10:58:54.36	10.45	23.56	-49.2	-62.0	3.9	7.43e-01	0	39	104	620232704	70	15358
2026-01-03 10:58:55.36	10.25	23.43	-49.8	-62.6	3.8	7.47e-01	0	39	104	620232704	71	15500
2026-01-03 10:58:56.37	10.05	23.29	-48.2	-60.5	3.8	7.46e-01	0	39	104	620232704	68	14493
2026-01-03 10:58:57.37	9.85	23.16	-48.8	-61.2	3.8	7.44e-01	0	39	104	620232704	68	15599
2026-01-03 10:58:58.38	9.66	23.02	-48.5	-60.6	3.8	7.45e-01	0	39	104	620232704	68	14678
2026-01-03 10:58:59.38	9.47	22.89	-48.2	-60.4	3.8	7.47e-01	0	39	104	620232704	68	14258
2026-01-03 10:59:00.38	9.27	22.75	-48.4	-60.6	3.8	7.49e-01	0	39	104	620232704	68	14641
2026-01-03 10:59:01.39	9.08	22.62	-50.3	-63.4	3.8	7.46e-01	0	39	104	620232704	71	17065
2026-01-03 10:59:02.39	8.90	22.49	-53.8	-73.2	3.9	7.45e-01	0	39	104	620232704	78	35128
2026-01-03 10:59:03.39	8.71	22.36	-49.2	-61.7	3.9	7.48e-01	0	39	104	620232704	70	14808
2026-01-03 10:59:04.40	8.53	22.22	-49.0	-61.5	3.8	7.46e-01	0	39	104	620232704	69	15344
2026-01-03 10:59:05.40	8.34	22.09	-47.9	-59.9	3.8	7.44e-01	0	39	104	620232704	67	14308
2026-01-03 10:59:06.41	8.16	21.96	-47.6	-59.8	3.8	7.42e-01	0	39	104	620232704	67	14063
2026-01-03 10:59:07.41	7.98	21.83	-47.5	-60.1	3.8	7.47e-01	0	39	104	620232704	67	14559
2026-01-03 10:59:08.41	7.81	21.70	-47.7	-60.5	3.8	7.48e-01	0	39	104	620232704	66	16181
2026-01-03 10:59:09.42	7.63	21.57	-47.6	-60.5	3.8	7.46e-01	0	39	104	620232704	66	16229
2026-01-03 10:59:10.42	7.46	21.44	-49.1	-62.7	3.8	7.48e-01	0	39	104	620232704	68	18686
2026-01-03 10:59:11.42	7.28	21.31	-51.9	-71.1	4.0	7.38e-01	0	39	104	620232704	75	32672
2026-01-03 10:59:12.43	7.11	21.18	-48.2	-61.1	3.9	7.46e-01	0	39	104	620232704	68	15460
2026-01-03 10:59:13.43	6.94	21.06	-48.7	-61.2	3.8	7.45e-01	0	39	104	620232704	69	14851
2026-01-03 10:59:14.44	6.77	20.93	-47.7	-59.9	3.8	7.47e-01	0	39	104	620232704	67	14334
2026-01-03 10:59:15.44	6.60	20.80	-47.3	-59.4	3.8	7.44e-01	0	39	104	620232704	66	14348
2026-01-03 10:59:16.44	6.44	20.68	-47.1	-59.3	3.8	7.44e-01	0	39	104	620232704	66	14075
2026-01-03 10:59:17.45	6.27	20.55	-47.0	-59.2	3.8	7.45e-01	0	39	104	620232704	66	14036
2026-01-03 10:59:18.45	6.11	20.42	-47.2	-59.8	3.9	7.45e-01	0	39	104	620232704	66	14899
2026-01-03 10:59:19.45	5.95	20.30	-49.8	-64.0	3.8	7.48e-01	0	39	104	620232704	70	19182
2026-01-03 10:59:20.46	5.79	20.17	-52.2	-71.1	3.9	7.43e-01	0	39	104	620232704	76	30796
2026-01-03 10:59:21.46	5.63	20.05	-47.9	-61.0	3.8	7.45e-01	0	39	104	620232704	68	15356
2026-01-03 10:59:22.46	5.48	19.93	-48.4	-61.0	3.8	7.44e-01	0	39	104	620232704	68	15365
2026-01-03 10:59:23.47	5.32	19.80	-48.2	-60.4	3.8	7.44e-01	0	39	104	620232704	67	15167
2026-01-03 10:59:24.47	5.17	19.68	-47.9	-60.0	3.8	7.42e-01	0	39	104	620232704	67	14393
2026-01-03 10:59:25.48	5.01	19.56	-47.3	-59.5	3.8	7.46e-01	0	39	104	620232704	66	14400
2026-01-03 10:59:26.48	4.86	19.44	-47.1	-59.5	3.8	7.43e-01	0	39	104	620232704	66	14412
2026-01-03 10:59:27.48	4.71	19.32	-47.4	-59.9	3.8	7.44e-01	0	39	104	620232704	66	15068
2026-01-03 10:59:28.49	4.56	19.19	-50.5	-64.1	3.8	7.45e-01	0	39	104	620232704	71	18413
2026-01-03 10:59:29.49	4.41	19.07	-52.3	-68.7	3.9	7.44e-01	0	39	104	620232704	76	23453
2026-01-03 10:59:30.49	4.27	18.95	-47.7	-60.3	3.8	7.41e-01	0	39	104	620232704	67	15051
2026-01-03 10:59:31.50	4.12	18.83	-48.0	-60.4	3.8	7.44e-01	0	39	104	620232704	68	14229
2026-01-03 10:59:32.50	3.98	18.71	-47.6	-59.8	3.8	7.44e-01	0	39	104	620232704	66	14909
2026-01-03 10:59:33.50	3.84	18.60	-47.4	-59.5	3.8	7.43e-01	0	39	104	620232704	66	14519
2026-01-03 10:59:34.51	3.69	18.48	-47.5	-59.6	3.8	7.45e-01	0	39	104	620232704	66	14670
2026-01-03 10:59:35.51	3.55	18.36	-47.3	-59.6	3.8	7.46e-01	0	39	104	620232704	66	14615
2026-01-03 10:59:36.52	3.41	18.24	-47.4	-59.8	3.8	7.48e-01	0	39	104	620232704	66	14922
2026-01-03 10:59:37.52	3.28	18.12	-50.7	-64.1	3.8	7.46e-01	0	39	104	620232704	71	18324
2026-01-03 10:59:38.52	3.14	18.01	-52.3	-67.5	4.0	7.40e-01	0	39	104	620232704	76	20433
2026-01-03 10:59:39.53	3.00	17.89	-47.6	-60.0	3.9	7.45e-01	0	39	104	620232704	67	14484
2026-01-03 10:59:40.53	2.87	17.78	-48.4	-60.5	3.8	7.42e-01	0	39	104	620232704	67	15391
2026-01-03 10:59:41.54	2.73	17.66	-48.0	-60.0	3.8	7.40e-01	0	39	104	620232704	67	14513
2026-01-03 10:59:42.54	2.60	17.55	-47.6	-59.7	3.8	7.45e-01	0	39	104	620232704	67	14015
2026-01-03 10:59:43.55	2.47	17.43	-47.4	-59.6	3.8	7.46e-01	0	39	104	620232704	66	14577
2026-01-03 10:59:44.55	2.34	17.32	-47.3	-59.5	3.8	7.46e-01	0	39	104	620232704	66	14519
2026-01-03 10:59:45.55	2.21	17.20	-47.4	-59.6	3.8	7.44e-01	0	39	104	620232704	66	14637
2026-01-03 10:59:46.56	2.08	17.09	-51.4	-65.5	3.8	7.46e-01	0	39	104	620232704	73	19285
2026-01-03 10:59:47.56	1.95	16.98	-52.5	-67.7	3.9	7.43e-01	0	39	104	620232704	77	19668
2026-01-03 10:59:48.56	1.83	16.87	-47.5	-59.8	3.9	7.45e-01	0	39	104	620232704	67	14148
2026-01-03 10:59:49.56	1.70	16.76	-47.6	-59.8	3.8	7.45e-01	0	39	104	620232704	66	15023
2026-01-03 10:59:50.57	1.58	16.64	-47.3	-59.5	3.8	7.44e-01	0	39	104	620232704	66	14478
2026-01-03 10:59:51.57	1.46	16.53	-47.4	-59.7	3.8	7.49e-01	0	39	104	620232704	66	14709
2026-01-03 10:59:52.58	1.33	16.42	-47.5	-59.8	3.8	7.45e-01	0	39	104	620232704	66	15049
2026-01-03 10:59:53.58	1.21	16.31	-47.3	-59.7	3.8	7.43e-01	0	39	104	620232704	66	14736
2026-01-03 10:59:54.58	1.09	16.20	-47.5	-59.9	3.8	7.43e-01	0	39	104	620232704	66	15147
2026-01-03 10:59:55.59	0.97	16.09	-51.9	-66.9	3.8	7.49e-01	0	39	104	620232704	74	21371
2026-01-03 10:59:56.59	0.85	15.98	-52.3	-67.0	4.0	7.44e-01	0	39	104	620232704	76	19346
2026-01-03 10:59:57.59	0.74	15.88	-47.8	-60.3	3.8	7.45e-01	0	39	104	620232704	67	14923
2026-01-03 10:59:58.59	0.62	15.77	-47.3	-60.2	3.8	7.46e-01	0	39	104	620232704	66	15609
2026-01-03 10:59:59.60	0.51	15.66	-46.9	-59.6	3.8	7.45e-01	0	39	104	620232704	65	15548
2026-01-03 11:00:00.60	0.39	15.55	-47.0	-59.5	3.9	7.45e-01	0	39	104	620232704	65	15311
2026-01-03 11:00:01.60	0.28	15.45	-47.1	-59.3	3.8	7.46e-01	0	39	104	620232704	65	15011
2026-01-03 11:00:02.61	0.16	15.34	-47.2	-59.4	3.8	7.43e-01	0	39	104	620232704	65	15110
2026-01-03 11:00:03.61	0.05	15.24	-47.6	-59.8	3.8	7.50e-01	0	39	104	620232704	65	15786
2026-01-03 11:00:04.62	359.94	15.13	-50.6	-65.9	3.8	7.51e-01	0	39	104	620232704	71	22571
2026-01-03 11:00:05.62	359.83	15.02	-51.2	-66.7	4.0	7.42e-01	0	39	104	620232704	73	22262
2026-01-03 11:00:06.62	359.72	14.92	-47.9	-60.1	3.9	7.46e-01	0	39	104	620232704	68	13782
2026-01-03 11:00:07.63	359.61	14.82	-47.6	-59.8	3.8	7.43e-01	0	39	104	620232704	67	14097
2026-01-03 11:00:08.63	359.51	14.71	-47.4	-59.6	3.8	7.44e-01	0	39	104	620232704	66	14682
2026-01-03 11:00:09.63	359.40	14.61	-47.5	-59.7	3.8	7.46e-01	0	39	104	620232704	66	14837
2026-01-03 11:00:10.64	359.29	14.50	-47.5	-59.6	3.8	7.46e-01	0	39	104	620232704	66	14569
2026-01-03 11:00:11.64	359.19	14.40	-47.7	-59.8	3.8	7.45e-01	0	39	104	620232704	66	14920
2026-01-03 11:00:12.65	359.08	14.30	-47.9	-59.9	3.8	7.42e-01	0	39	104	620232704	66	15093
2026-01-03 11:00:13.65	358.98	14.20	-52.8	-68.2	3.8	7.48e-01	0	39	104	620232704	76	22251
2026-01-03 11:00:14.65	358.88	14.10	-52.3	-67.1	3.9	7.47e-01	0	39	104	620232704	76	19499
2026-01-03 11:00:15.65	358.77	14.00	-47.8	-59.7	3.8	7.41e-01	0	39	104	620232704	67	13929
2026-01-03 11:00:16.66	358.67	13.89	-47.8	-59.9	3.8	7.48e-01	0	39	104	620232704	67	14355
2026-01-03 11:00:17.66	358.57	13.79	-47.5	-59.8	3.8	7.46e-01	0	39	104	620232704	67	14079
2026-01-03 11:00:18.66	358.47	13.69	-47.5	-59.9	3.8	7.44e-01	0	39	104	620232704	67	14252
2026-01-03 11:00:19.67	358.37	13.59	-47.4	-59.9	3.8	7.47e-01	0	39	104	620232704	66	15186
2026-01-03 11:00:20.67	358.28	13.49	-47.3	-59.8	3.8	7.45e-01	0	39	104	620232704	66	14990
2026-01-03 11:00:21.67	358.18	13.40	-47.8	-60.3	3.8	7.44e-01	0	39	104	620232704	66	15813
2026-01-03 11:00:22.68	358.08	13.30	-52.8	-69.2	3.8	7.49e-01	0	39	104	620232704	76	24975
2026-01-03 11:00:23.68	357.98	13.20	-51.7	-66.8	3.9	7.44e-01	0	39	104	620232704	75	19992
2026-01-03 11:00:24.68	357.89	13.10	-47.5	-59.8	3.9	7.44e-01	0	39	104	620232704	67	14083
2026-01-03 11:00:25.69	357.79	13.00	-47.5	-59.8	3.8	7.47e-01	0	39	104	620232704	66	15039
2026-01-03 11:00:26.69	357.70	12.91	-47.4	-59.6	3.8	7.45e-01	0	39	104	620232704	66	14598
2026-01-03 11:00:27.69	357.61	12.81	-47.4	-59.6	3.8	7.42e-01	0	39	104	620232704	66	14703
2026-01-03 11:00:28.70	357.51	12.71	-48.0	-60.1	3.9	7.43e-01	0	39	104	620232704	66	15530
2026-01-03 11:00:29.70	357.42	12.62	-47.8	-60.0	3.8	7.44e-01	0	39	104	620232704	66	15267
2026-01-03 11:00:30.70	357.33	12.52	-47.9	-60.2	3.8	7.46e-01	0	39	104	620232704	66	15675
2026-01-03 11:00:31.71	357.24	12.43	-52.5	-69.3	3.7	7.49e-01	0	39	104	620232704	75	26599
2026-01-03 11:00:32.71	357.15	12.33	-51.6	-67.0	3.9	7.45e-01	0	39	104	620232704	75	20360
2026-01-03 11:00:33.71	357.06	12.24	-47.4	-59.8	3.9	7.50e-01	0	39	104	620232704	66	15020
2026-01-03 11:00:34.72	356.97	12.14	-47.4	-59.9	3.8	7.46e-01	0	39	104	620232704	66	15158
2026-01-03 11:00:35.72	356.88	12.05	-47.4	-59.8	3.8	7.47e-01	0	39	104	620232704	66	14997
2026-01-03 11:00:36.72	356.80	11.95	-47.4	-59.9	3.8	7.44e-01	0	39	104	620232704	66	15205
2026-01-03 11:00:37.73	356.71	11.86	-48.0	-60.5	3.8	7.47e-01	0	39	104	620232704	66	16265
2026-01-03 11:00:38.73	356.62	11.77	-47.9	-60.6	3.8	7.46e-01	0	39	104	620232704	66	16461
2026-01-03 11:00:39.73	356.54	11.68	-47.9	-60.7	3.8	7.46e-01	0	39	104	620232704	66	16580
2026-01-03 11:00:40.73	356.45	11.58	-52.1	-69.9	3.7	7.56e-01	0	39	104	620232704	74	30161
2026-01-03 11:00:41.74	356.37	11.49	-51.5	-67.2	3.9	7.43e-01	0	39	104	620232704	75	20873
2026-01-03 11:00:42.74	356.29	11.40	-47.4	-59.9	3.8	7.46e-01	0	39	104	620232704	66	15163
2026-01-03 11:00:43.74	356.20	11.31	-47.4	-60.0	3.8	7.46e-01	0	39	104	620232704	66	15300
2026-01-03 11:00:44.74	356.12	11.22	-47.4	-60.0	3.8	7.44e-01	0	39	104	620232704	66	15381
2026-01-03 11:00:45.75	356.04	11.13	-47.4	-60.1	3.8	7.44e-01	0	39	104	620232704	66	15576
2026-01-03 11:00:46.75	355.96	11.04	-47.2	-60.0	3.8	7.45e-01	0	39	104	620232704	66	15251
2026-01-03 11:00:47.76	355.87	10.95	-47.2	-60.2	3.9	7.48e-01	0	39	104	620232704	66	15712
2026-01-03 11:00:48.76	355.79	10.86	-47.7	-61.1	3.8	7.45e-01	0	39	104	620232704	66	17285
2026-01-03 11:00:49.76	355.71	10.77	-51.8	-69.6	3.8	7.48e-01	0	39	104	620232704	74	29080
2026-01-03 11:00:50.77	355.64	10.68	-51.1	-67.5	3.8	7.44e-01	0	39	104	620232704	73	24337
2026-01-03 11:00:51.77	355.56	10.59	-47.0	-60.8	3.9	7.45e-01	0	39	104	620232704	66	16743
2026-01-03 11:00:52.77	355.48	10.50	-46.7	-60.4	3.8	7.45e-01	0	39	104	620232704	65	17035
2026-01-03 11:00:53.78	355.40	10.41	-46.4	-60.1	3.8	7.45e-01	0	39	104	620232704	64	17433
2026-01-03 11:00:54.78	355.32	10.32	-46.3	-60.1	3.8	7.44e-01	0	39	104	620232704	64	17283
2026-01-03 11:00:55.78	355.25	10.24	-46.3	-60.2	3.8	7.46e-01	0	39	104	620232704	64	17530
2026-01-03 11:00:56.79	355.17	10.15	-46.4	-60.4	3.8	7.46e-01	0	39	104	620232704	64	18014
2026-01-03 11:00:57.79	355.10	10.06	-46.7	-60.7	3.8	7.45e-01	0	39	104	620232704	64	18700
2026-01-03 11:00:58.80	355.02	9.97	-48.9	-69.5	3.7	7.52e-01	0	39	104	620232704	68	40857
2026-01-03 11:00:59.80	354.95	9.89	-46.3	-60.3	3.8	7.46e-01	0	39	104	620232704	64	17789
2026-01-03 11:01:00.80	354.87	9.80	-48.4	-65.6	3.7	7.47e-01	0	39	104	620232704	67	27552
2026-01-03 11:01:01.81	354.80	9.72	-46.3	-60.7	3.9	7.45e-01	0	39	104	620232704	64	18676
2026-01-03 11:01:02.81	354.72	9.63	-46.0	-60.5	3.8	7.46e-01	0	39	104	620232704	63	19184
2026-01-03 11:01:03.82	354.65	9.54	-46.0	-60.6	3.8	7.43e-01	0	39	104	620232704	63	19493
2026-01-03 11:01:04.82	354.58	9.46	-46.0	-60.7	3.8	7.48e-01	0	39	104	620232704	63	19644
2026-01-03 11:01:05.82	354.51	9.37	-48.3	-63.4	3.8	7.49e-01	0	39	104	620232704	67	21264
2026-01-03 11:01:06.83	354.44	9.29	-46.9	-61.5	3.8	7.45e-01	0	39	104	620232704	65	19178
2026-01-03 11:01:07.83	354.37	9.21	-49.4	-70.9	3.7	7.51e-01	0	39	104	620232704	69	45301
2026-01-03 11:01:08.83	354.30	9.12	-47.0	-60.9	3.8	7.46e-01	0	39	104	620232704	65	17943
2026-01-03 11:01:09.84	354.23	9.04	-47.7	-65.9	3.7	7.48e-01	0	39	104	620232704	66	30169
2026-01-03 11:01:10.84	354.16	8.95	-49.2	-74.1	3.8	7.46e-01	0	39	104	620232704	69	65277
2026-01-03 11:01:11.85	354.09	8.87	-52.7	-75.2	3.8	7.43e-01	0	39	104	620232704	76	49659
2026-01-03 11:01:12.85	354.02	8.79	-54.1	-75.4	3.8	7.47e-01	0	39	104	620232704	79	42424
2026-01-03 11:01:13.86	353.95	8.71	-54.3	-75.4	3.8	7.46e-01	0	39	104	620232704	79	42785
2026-01-03 11:01:14.86	353.88	8.62	-54.5	-75.5	3.8	7.47e-01	0	39	104	620232704	80	40616
2026-01-03 11:01:15.86	353.82	8.54	-53.2	-75.6	3.8	7.45e-01	0	39	104	620232704	77	48767
2026-01-03 11:01:16.87	353.75	8.46	-54.8	-75.6	3.8	7.44e-01	0	39	104	620232704	80	41123
2026-01-03 11:01:17.87	353.68	8.38	-54.7	-75.6	3.8	7.46e-01	0	39	104	620232704	81	38696
2026-01-03 11:01:18.88	353.62	8.30	-55.4	-76.0	3.8	7.45e-01	0	39	104	620232704	82	38656
2026-01-03 11:01:19.88	353.55	8.22	-54.8	-75.8	3.8	7.47e-01	0	39	104	620232704	81	39
