passes_logs/2026/01/03/T1/T1__20260103_160115_FENGYUN_3E_rec.log

#Pass ID: 20260103_160115_FENGYUN 3E
#Satellite: FENGYUN 3E
#Configuration: FENGYUN 3E
#almurnet v.1.7.20251203
#Start time: 2026-01-03 16:01:15

#Version: 2.0.20230620
#Station: T1
#Location: 37.570604 lon 55.790049 lat
#TLE: 1 49008U 21062A   26002.95568549 -.00000227  00000+0 -86494-4 0  9990
#TLE: 2 49008  98.7475   8.2258 0001442 163.3458 196.7766 14.19882681233131

#Time	Az	El	Level	Level2	SNR	BER	BlckErr	Temp	State	Recorded	gain1	gain2
2026-01-03 16:01:15.19	221.00	4.97	-53.7	-64.8	3.8	8.48e-01	0	40	0	0	77	13179
2026-01-03 16:01:16.19	221.10	5.02	-53.8	-64.8	3.8	8.46e-01	0	40	104	0	78	12447
2026-01-03 16:01:17.19	221.20	5.08	-53.7	-64.7	3.8	8.46e-01	0	40	104	0	78	12374
2026-01-03 16:01:18.20	221.30	5.13	-53.7	-64.8	3.8	8.47e-01	0	40	104	0	78	12398
2026-01-03 16:01:19.20	221.40	5.19	-53.7	-64.8	3.8	8.47e-01	0	40	104	0	78	12417
2026-01-03 16:01:20.21	221.50	5.24	-53.7	-64.7	3.8	8.47e-01	0	41	104	0	78	12296
2026-01-03 16:01:21.21	221.61	5.30	-53.7	-64.8	3.8	8.46e-01	0	40	104	0	78	12426
2026-01-03 16:01:22.21	221.71	5.35	-53.8	-64.8	3.8	8.47e-01	0	41	104	0	77	13137
2026-01-03 16:01:23.22	221.81	5.40	-53.7	-64.7	3.8	8.47e-01	0	41	104	0	77	13106
2026-01-03 16:01:24.22	221.92	5.46	-53.8	-64.8	3.8	8.47e-01	0	41	104	0	77	13132
2026-01-03 16:01:25.23	222.02	5.51	-53.6	-64.7	3.8	8.47e-01	0	41	104	0	77	13041
2026-01-03 16:01:26.23	222.12	5.57	-53.8	-64.7	3.8	8.46e-01	0	41	104	0	77	13040
2026-01-03 16:01:27.24	222.23	5.62	-53.7	-64.8	3.8	8.48e-01	0	41	104	0	77	13147
2026-01-03 16:01:28.24	222.33	5.68	-53.6	-64.7	3.8	8.47e-01	0	41	104	0	77	13047
2026-01-03 16:01:29.24	222.44	5.73	-53.7	-64.7	3.8	8.46e-01	0	41	104	0	77	13074
2026-01-03 16:01:30.25	222.55	5.79	-53.7	-64.6	3.8	8.47e-01	0	41	104	0	77	12938
2026-01-03 16:01:31.25	222.65	5.84	-53.8	-64.8	3.8	8.46e-01	0	41	104	0	77	13114
2026-01-03 16:01:32.25	222.76	5.90	-53.6	-64.7	3.8	8.47e-01	0	41	104	0	77	13029
2026-01-03 16:01:33.26	222.87	5.95	-53.6	-64.7	3.8	8.46e-01	0	41	104	0	77	12970
2026-01-03 16:01:34.26	222.97	6.00	-53.7	-64.8	3.8	8.46e-01	0	41	104	0	77	13149
2026-01-03 16:01:35.27	223.08	6.06	-53.7	-64.8	3.8	8.47e-01	0	41	104	0	77	13112
2026-01-03 16:01:36.27	223.19	6.11	-53.7	-64.7	3.8	8.46e-01	0	41	104	0	77	13100
2026-01-03 16:01:37.28	223.30	6.17	-53.7	-64.7	3.8	8.47e-01	0	41	104	0	77	13060
2026-01-03 16:01:38.28	223.41	6.22	-53.7	-64.7	3.8	8.47e-01	0	41	104	0	77	13022
2026-01-03 16:01:39.29	223.52	6.28	-53.8	-64.7	3.8	8.46e-01	0	41	104	0	77	13064
2026-01-03 16:01:40.29	223.63	6.33	-53.7	-64.6	3.8	8.48e-01	0	41	104	0	77	12919
2026-01-03 16:01:41.29	223.74	6.39	-53.7	-64.6	3.8	8.48e-01	0	41	104	0	77	12891
2026-01-03 16:01:42.30	223.85	6.44	-53.5	-64.5	3.8	8.48e-01	0	41	104	0	77	12750
2026-01-03 16:01:43.30	223.96	6.50	-53.7	-64.5	3.8	8.46e-01	0	41	104	0	77	12694
2026-01-03 16:01:44.31	224.07	6.56	-53.6	-64.4	3.8	8.47e-01	0	41	104	0	77	12594
2026-01-03 16:01:45.31	224.18	6.61	-53.6	-64.3	3.8	8.46e-01	0	42	104	0	77	12477
2026-01-03 16:01:46.31	224.29	6.66	-53.5	-64.2	3.8	8.46e-01	0	42	104	0	77	12279
2026-01-03 16:01:47.32	224.41	6.72	-53.5	-64.1	3.8	8.47e-01	0	41	104	0	77	12141
2026-01-03 16:01:48.32	224.52	6.78	-53.6	-64.0	3.8	8.47e-01	0	42	104	0	77	12075
2026-01-03 16:01:49.33	224.64	6.83	-53.6	-64.1	3.8	8.46e-01	0	42	104	0	77	12145
2026-01-03 16:01:50.33	224.75	6.89	-53.6	-64.2	3.8	8.48e-01	0	42	104	0	77	12372
2026-01-03 16:01:51.34	224.86	6.94	-53.7	-64.5	3.8	8.47e-01	0	42	104	0	77	12672
2026-01-03 16:01:52.34	224.98	7.00	-53.7	-64.5	3.8	8.47e-01	0	42	104	0	77	12795
2026-01-03 16:01:53.34	225.09	7.05	-53.6	-64.6	3.8	8.47e-01	0	42	104	0	77	12884
2026-01-03 16:01:54.35	225.21	7.11	-53.7	-64.6	3.8	8.46e-01	0	41	104	0	77	12869
2026-01-03 16:01:55.35	225.32	7.16	-53.7	-64.5	3.8	8.47e-01	0	42	104	0	77	12764
2026-01-03 16:01:56.36	225.44	7.22	-53.6	-64.4	3.8	8.47e-01	0	42	104	0	77	12549
2026-01-03 16:01:57.36	225.56	7.27	-53.7	-64.4	3.8	8.47e-01	0	42	104	0	77	12528
2026-01-03 16:01:58.37	225.68	7.33	-53.7	-64.4	3.8	8.47e-01	0	42	104	0	77	12552
2026-01-03 16:01:59.37	225.79	7.38	-53.7	-64.3	3.8	8.47e-01	0	42	104	0	77	12512
2026-01-03 16:02:00.38	225.91	7.44	-53.7	-64.3	3.8	8.47e-01	0	42	104	0	77	12506
2026-01-03 16:02:01.38	226.03	7.50	-53.7	-64.4	3.8	8.47e-01	0	42	104	0	77	12564
2026-01-03 16:02:02.38	226.15	7.55	-53.7	-64.2	3.8	8.46e-01	0	42	104	0	77	12252
2026-01-03 16:02:03.39	226.27	7.61	-53.6	-64.0	3.8	8.46e-01	0	42	104	0	77	12054
2026-01-03 16:02:04.39	226.39	7.66	-53.6	-64.0	3.8	8.47e-01	0	42	104	0	77	11963
2026-01-03 16:02:05.40	226.51	7.72	-53.7	-64.0	3.8	8.46e-01	0	42	104	0	77	11991
2026-01-03 16:02:06.40	226.63	7.77	-53.7	-64.2	3.8	8.47e-01	0	42	104	0	77	12370
2026-01-03 16:02:07.40	226.75	7.83	-53.7	-64.5	3.8	8.47e-01	0	42	104	0	77	12761
2026-01-03 16:02:08.41	226.87	7.88	-53.7	-64.7	3.8	8.46e-01	0	42	104	0	77	13071
2026-01-03 16:02:09.41	227.00	7.94	-53.7	-64.4	3.8	8.47e-01	0	42	104	0	77	12524
2026-01-03 16:02:10.41	227.12	8.00	-53.6	-63.7	3.8	8.47e-01	0	42	104	0	77	11611
2026-01-03 16:02:11.42	227.24	8.05	-53.5	-63.1	3.8	8.46e-01	0	42	104	0	77	10857
2026-01-03 16:02:12.43	227.37	8.11	-53.6	-63.3	3.8	8.46e-01	0	42	104	0	77	11114
2026-01-03 16:02:13.43	227.49	8.16	-53.7	-64.2	3.8	8.46e-01	0	42	104	0	77	12324
2026-01-03 16:02:14.43	227.61	8.22	-53.6	-63.8	3.8	8.47e-01	0	42	104	0	77	11772
2026-01-03 16:02:15.44	227.74	8.27	-53.0	-59.6	4.8	8.39e-01	0	42	0	0	76	7681
2026-01-03 16:02:16.44	227.86	8.33	-51.4	-55.2	8.2	1.02e-01	0	42	0	4194304	73	5520
2026-01-03 16:02:17.45	227.99	8.39	-49.3	-51.7	12.0	2.19e-03	0	42	0	11534336	69	4608
2026-01-03 16:02:18.45	228.12	8.44	-47.4	-49.2	14.4	5.70e-06	0	42	0	18874368	65	4352
2026-01-03 16:02:19.45	228.24	8.50	-46.1	-47.5	16.2	0.00e+00	0	42	0	26214400	63	4009
2026-01-03 16:02:20.46	228.37	8.55	-45.1	-46.4	17.2	0.00e+00	0	42	0	33554432	61	3963
2026-01-03 16:02:21.46	228.50	8.61	-44.6	-45.8	17.8	0.00e+00	0	42	0	40894464	60	3953
2026-01-03 16:02:22.46	228.63	8.66	-44.7	-45.9	17.7	0.00e+00	0	42	0	48234496	60	3971
2026-01-03 16:02:23.47	228.76	8.72	-45.2	-46.4	17.2	0.00e+00	0	42	0	54525952	60	4220
2026-01-03 16:02:24.47	228.88	8.77	-45.9	-47.3	16.3	0.00e+00	0	42	0	61865984	61	4433
2026-01-03 16:02:25.47	229.01	8.83	-47.2	-48.8	14.8	0.00e+00	0	42	0	69206016	63	4678
2026-01-03 16:02:26.48	229.14	8.89	-48.4	-50.5	13.0	1.94e-05	0	42	0	76546048	66	4782
2026-01-03 16:02:27.48	229.27	8.94	-50.0	-52.7	10.9	7.91e-04	0	42	0	83886080	69	5192
2026-01-03 16:02:28.49	229.41	9.00	-51.2	-54.8	8.7	2.57e-02	0	42	0	91226112	71	5887
2026-01-03 16:02:29.49	229.54	9.05	-51.6	-55.5	8.2	9.13e-02	0	43	0	98566144	72	6010
2026-01-03 16:02:30.50	229.67	9.11	-50.2	-52.9	10.3	8.25e-01	0	42	104	99614720	71	4731
2026-01-03 16:02:31.50	229.80	9.16	-51.8	-56.3	7.1	8.38e-01	0	43	104	99614720	74	5868
2026-01-03 16:02:32.50	229.93	9.22	-49.4	-51.7	11.9	1.38e-02	0	42	0	105906176	69	4612
2026-01-03 16:02:33.51	230.07	9.28	-50.6	-53.7	10.1	3.08e-05	0	42	0	113246208	70	5483
2026-01-03 16:02:34.51	230.20	9.33	-51.3	-55.0	8.2	7.99e-01	0	43	0	116391936	73	5399
2026-01-03 16:02:35.51	230.34	9.39	-46.7	-48.3	15.3	0.00e+00	0	43	0	123731968	64	4171
2026-01-03 16:02:36.51	230.47	9.44	-45.1	-46.4	17.3	0.00e+00	0	42	0	131072000	61	3962
2026-01-03 16:02:37.52	230.61	9.50	-44.2	-45.3	18.2	0.00e+00	0	43	0	138412032	59	3948
2026-01-03 16:02:38.52	230.74	9.55	-43.7	-44.8	18.7	0.00e+00	0	42	0	145752064	58	3942
2026-01-03 16:02:39.52	230.88	9.61	-43.8	-44.8	18.6	0.00e+00	0	42	0	153092096	58	3957
2026-01-03 16:02:40.53	231.02	9.66	-43.6	-44.7	18.8	0.00e+00	0	43	0	160432128	58	3898
2026-01-03 16:02:41.53	231.15	9.72	-43.7	-44.8	18.7	0.00e+00	0	42	0	166723584	58	3957
2026-01-03 16:02:42.53	231.29	9.77	-43.7	-44.9	18.6	0.00e+00	0	42	0	174063616	57	4200
2026-01-03 16:02:43.53	231.43	9.83	-43.7	-44.8	18.6	0.00e+00	0	43	0	181403648	57	4188
2026-01-03 16:02:44.53	231.57	9.88	-43.6	-44.7	18.8	0.00e+00	0	43	0	188743680	57	4116
2026-01-03 16:02:45.54	231.71	9.94	-43.5	-44.6	18.8	0.00e+00	0	43	0	196083712	57	4096
2026-01-03 16:02:46.54	231.85	10.00	-43.5	-44.6	18.8	0.00e+00	0	43	0	203423744	57	4074
2026-01-03 16:02:47.54	231.99	10.05	-43.3	-44.4	19.0	0.00e+00	0	43	0	210763776	57	3984
2026-01-03 16:02:48.55	232.13	10.11	-43.2	-44.3	19.1	0.00e+00	0	42	0	218103808	57	3929
2026-01-03 16:02:49.55	232.27	10.16	-43.3	-44.3	19.1	0.00e+00	0	43	0	225443840	57	3952
2026-01-03 16:02:50.55	232.41	10.22	-43.2	-44.2	19.2	0.00e+00	0	43	0	232783872	57	3908
2026-01-03 16:02:51.55	232.55	10.27	-43.1	-44.1	19.3	0.00e+00	0	43	0	240123904	56	4093
2026-01-03 16:02:52.55	232.70	10.33	-43.1	-44.2	19.2	0.00e+00	0	43	0	247463936	56	4103
2026-01-03 16:02:53.55	232.84	10.38	-43.1	-44.2	19.3	0.00e+00	0	43	0	253755392	56	4104
2026-01-03 16:02:54.56	232.98	10.44	-43.1	-44.2	19.3	0.00e+00	0	43	0	261095424	56	4119
2026-01-03 16:02:55.56	233.13	10.49	-43.2	-44.3	19.2	0.00e+00	0	43	0	268435456	56	4163
2026-01-03 16:02:56.56	233.27	10.55	-43.3	-44.4	19.1	0.00e+00	0	43	0	275775488	56	4197
2026-01-03 16:02:57.57	233.42	10.60	-43.4	-44.5	19.0	0.00e+00	0	43	0	283115520	56	4243
2026-01-03 16:02:58.57	233.57	10.66	-43.1	-44.2	19.3	0.00e+00	0	43	0	290455552	56	4109
2026-01-03 16:02:59.57	233.71	10.71	-43.1	-44.1	19.3	0.00e+00	0	42	0	297795584	56	4089
2026-01-03 16:03:00.58	233.86	10.77	-43.1	-44.2	19.3	0.00e+00	0	43	0	305135616	56	4104
2026-01-03 16:03:01.58	234.01	10.82	-43.1	-44.1	19.3	0.00e+00	0	43	0	311427072	56	4092
2026-01-03 16:03:02.58	234.16	10.88	-43.2	-44.2	19.2	0.00e+00	0	43	0	318767104	56	4115
2026-01-03 16:03:03.58	234.30	10.93	-43.0	-44.0	19.5	0.00e+00	0	42	0	326107136	56	4016
2026-01-03 16:03:04.59	234.45	10.99	-42.8	-43.8	19.6	0.00e+00	0	43	0	333447168	56	3949
2026-01-03 16:03:05.59	234.60	11.04	-42.8	-43.8	19.6	0.00e+00	0	43	0	340787200	56	3952
2026-01-03 16:03:06.59	234.75	11.09	-42.7	-43.7	19.7	0.00e+00	0	43	0	348127232	56	3887
2026-01-03 16:03:07.60	234.91	11.15	-42.8	-43.8	19.6	0.00e+00	0	43	0	355467264	56	3937
2026-01-03 16:03:08.60	235.06	11.20	-42.7	-43.7	19.6	0.00e+00	0	43	0	362807296	56	3909
2026-01-03 16:03:09.61	235.21	11.26	-42.8	-43.8	19.6	0.00e+00	0	43	0	370147328	56	3931
2026-01-03 16:03:10.61	235.36	11.31	-42.7	-43.8	19.6	0.00e+00	0	43	0	377487360	56	3918
2026-01-03 16:03:11.61	235.52	11.37	-42.7	-43.8	19.6	0.00e+00	0	43	0	384827392	56	3914
2026-01-03 16:03:12.62	235.67	11.42	-42.7	-43.7	19.7	0.00e+00	0	43	0	392167424	56	3897
2026-01-03 16:03:13.62	235.82	11.47	-42.7	-43.7	19.7	0.00e+00	0	43	0	398458880	56	3879
2026-01-03 16:03:14.62	235.98	11.53	-42.7	-43.7	19.7	0.00e+00	0	43	0	405798912	56	3903
2026-01-03 16:03:15.62	236.13	11.58	-42.7	-43.6	19.7	0.00e+00	0	43	0	413138944	56	3863
2026-01-03 16:03:16.63	236.29	11.64	-42.5	-43.5	19.8	0.00e+00	0	43	0	420478976	55	4029
2026-01-03 16:03:17.63	236.45	11.69	-42.5	-43.5	19.8	0.00e+00	0	43	0	427819008	55	4026
2026-01-03 16:03:18.63	236.60	11.74	-42.6	-43.6	19.7	0.00e+00	0	43	0	435159040	55	4077
2026-01-03 16:03:19.63	236.76	11.80	-42.4	-43.4	19.9	0.00e+00	0	43	0	442499072	55	3974
2026-01-03 16:03:20.64	236.92	11.85	-42.5	-43.4	19.8	0.00e+00	0	43	0	449839104	55	3997
2026-01-03 16:03:21.64	237.08	11.91	-42.5	-43.5	19.9	0.00e+00	0	43	0	457179136	55	4016
2026-01-03 16:03:22.64	237.24	11.96	-42.5	-43.5	19.8	0.00e+00	0	43	0	464519168	55	4039
2026-01-03 16:03:23.65	237.40	12.01	-42.6	-43.6	19.8	0.00e+00	0	43	0	471859200	55	4080
2026-01-03 16:03:24.65	237.56	12.07	-42.4	-43.4	19.9	0.00e+00	0	43	0	479199232	55	3985
2026-01-03 16:03:25.65	237.72	12.12	-42.4	-43.3	20.0	0.00e+00	0	43	0	485490688	55	3954
2026-01-03 16:03:26.66	237.88	12.17	-42.4	-43.4	19.9	0.00e+00	0	43	0	492830720	55	3985
2026-01-03 16:03:27.66	238.04	12.22	-42.4	-43.4	20.0	0.00e+00	0	43	0	500170752	55	3968
2026-01-03 16:03:28.66	238.20	12.28	-42.3	-43.2	20.0	0.00e+00	0	43	0	507510784	55	3913
2026-01-03 16:03:29.67	238.37	12.33	-42.4	-43.4	19.9	0.00e+00	0	43	0	514850816	55	3973
2026-01-03 16:03:30.67	238.53	12.38	-42.3	-43.3	20.0	0.00e+00	0	43	0	522190848	55	3926
2026-01-03 16:03:31.67	238.70	12.44	-42.2	-43.2	20.1	0.00e+00	0	43	0	529530880	55	3887
2026-01-03 16:03:32.68	238.86	12.49	-42.3	-43.3	20.1	0.00e+00	0	43	0	536870912	55	3921
2026-01-03 16:03:33.68	239.03	12.54	-42.3	-43.2	20.1	0.00e+00	0	43	0	543162368	55	3902
2026-01-03 16:03:34.68	239.19	12.59	-42.3	-43.2	20.1	0.00e+00	0	43	0	550502400	55	3911
2026-01-03 16:03:35.69	239.36	12.65	-42.3	-43.2	20.1	0.00e+00	0	43	0	557842432	55	3907
2026-01-03 16:03:36.69	239.53	12.70	-42.3	-43.2	20.1	0.00e+00	0	43	0	565182464	55	3906
2026-01-03 16:03:37.69	239.69	12.75	-42.3	-43.3	20.0	0.00e+00	0	43	0	572522496	55	3937
2026-01-03 16:03:38.70	239.86	12.80	-42.2	-43.2	20.1	0.00e+00	0	43	0	579862528	55	3874
2026-01-03 16:03:39.70	240.03	12.85	-42.3	-43.3	20.0	0.00e+00	0	43	0	587202560	55	3936
2026-01-03 16:03:40.70	240.20	12.90	-42.3	-43.3	20.0	0.00e+00	0	43	0	594542592	55	3938
2026-01-03 16:03:41.71	240.37	12.96	-42.4	-43.4	19.9	0.00e+00	0	43	0	601882624	55	3990
2026-01-03 16:03:42.71	240.54	13.01	-42.4	-43.4	19.9	0.00e+00	0	43	0	609222656	55	3985
2026-01-03 16:03:43.72	240.72	13.06	-42.4	-43.4	19.9	0.00e+00	0	43	0	616562688	55	4004
2026-01-03 16:03:44.72	240.89	13.11	-42.3	-43.3	20.0	0.00e+00	0	43	0	623902720	55	3927
2026-01-03 16:03:45.73	241.06	13.16	-42.1	-43.1	20.2	0.00e+00	0	43	0	630194176	55	3856
2026-01-03 16:03:46.73	241.23	13.21	-42.0	-43.0	20.3	0.00e+00	0	43	0	637534208	54	4022
2026-01-03 16:03:47.73	241.41	13.26	-42.0	-43.0	20.3	0.00e+00	0	43	0	644874240	54	4025
2026-01-03 16:03:48.73	241.58	13.31	-42.1	-43.1	20.2	0.00e+00	0	43	0	652214272	54	4057
2026-01-03 16:03:49.73	241.75	13.36	-42.1	-43.1	20.1	0.00e+00	0	43	0	659554304	54	4083
2026-01-03 16:03:50.74	241.93	13.42	-42.2	-43.2	20.1	0.00e+00	0	43	0	666894336	54	4123
2026-01-03 16:03:51.74	242.11	13.47	-42.3	-43.2	20.1	0.00e+00	0	43	0	674234368	54	4140
2026-01-03 16:03:52.74	242.28	13.52	-42.4	-43.4	19.9	0.00e+00	0	43	0	681574400	54	4210
2026-01-03 16:03:53.75	242.46	13.57	-42.2	-43.2	20.1	0.00e+00	0	43	0	688914432	54	4103
2026-01-03 16:03:54.75	242.64	13.61	-42.1	-43.0	20.3	0.00e+00	0	43	0	696254464	54	4028
2026-01-03 16:03:55.75	242.82	13.66	-42.0	-43.0	20.3	0.00e+00	0	43	0	703594496	54	4006
2026-01-03 16:03:56.76	243.00	13.71	-41.9	-42.8	20.5	0.00e+00	0	43	0	709885952	54	3943
2026-01-03 16:03:57.76	243.17	13.76	-41.9	-42.9	20.4	0.00e+00	0	43	0	717225984	54	3967
2026-01-03 16:03:58.76	243.35	13.81	-42.0	-42.9	20.3	0.00e+00	0	43	0	724566016	54	3990
2026-01-03 16:03:59.76	243.53	13.86	-41.9	-42.9	20.3	0.00e+00	0	43	0	731906048	54	3982
2026-01-03 16:04:00.77	243.72	13.91	-41.9	-42.9	20.4	0.00e+00	0	43	0	739246080	54	4000
2026-01-03 16:04:01.77	243.90	13.96	-42.0	-43.0	20.3	0.00e+00	0	43	0	746586112	54	4013
2026-01-03 16:04:02.77	244.08	14.01	-41.9	-42.9	20.3	0.00e+00	0	43	0	753926144	54	4002
2026-01-03 16:04:03.78	244.26	14.06	-41.9	-42.9	20.4	0.00e+00	0	43	0	761266176	54	3977
2026-01-03 16:04:04.78	244.45	14.10	-42.0	-43.0	20.4	0.00e+00	0	43	0	768606208	54	4012
2026-01-03 16:04:05.78	244.63	14.15	-41.9	-42.8	20.5	0.00e+00	0	43	0	774897664	54	3948
2026-01-03 16:04:06.79	244.82	14.20	-41.8	-42.7	20.6	0.00e+00	0	43	0	782237696	54	3907
2026-01-03 16:04:07.79	245.00	14.25	-41.9	-42.8	20.6	0.00e+00	0	43	0	789577728	54	3926
2026-01-03 16:04:08.79	245.19	14.29	-41.8	-42.8	20.6	0.00e+00	0	43	0	796917760	54	3916
2026-01-03 16:04:09.79	245.37	14.34	-41.8	-42.8	20.5	0.00e+00	0	43	0	804257792	54	3930
2026-01-03 16:04:10.80	245.56	14.39	-41.9	-42.9	20.4	0.00e+00	0	43	0	811597824	54	3962
2026-01-03 16:04:11.80	245.75	14.44	-41.7	-42.7	20.6	0.00e+00	0	43	0	818937856	54	3883
2026-01-03 16:04:12.80	245.93	14.48	-41.8	-42.8	20.6	0.00e+00	0	43	0	826277888	54	3932
2026-01-03 16:04:13.80	246.12	14.53	-41.8	-42.8	20.6	0.00e+00	0	43	0	833617920	54	3922
2026-01-03 16:04:14.81	246.31	14.58	-41.8	-42.8	20.6	0.00e+00	0	43	0	840957952	54	3921
2026-01-03 16:04:15.81	246.50	14.62	-41.7	-42.6	20.7	0.00e+00	0	43	0	848297984	54	3867
2026-01-03 16:04:16.81	246.69	14.67	-41.7	-42.7	20.7	0.00e+00	0	43	0	855638016	54	3871
2026-01-03 16:04:17.81	246.88	14.71	-41.8	-42.7	20.6	0.00e+00	0	43	0	861929472	54	3913
2026-01-03 16:04:18.81	247.07	14.76	-41.8	-42.8	20.6	0.00e+00	0	43	0	869269504	54	3921
2026-01-03 16:04:19.82	247.27	14.80	-41.8	-42.8	20.5	0.00e+00	0	43	0	876609536	54	3916
2026-01-03 16:04:20.82	247.46	14.85	-41.9	-42.9	20.5	0.00e+00	0	43	0	883949568	54	3968
2026-01-03 16:04:21.82	247.65	14.89	-41.9	-42.8	20.5	0.00e+00	0	43	0	891289600	54	3946
2026-01-03 16:04:22.82	247.84	14.94	-42.0	-43.0	20.3	0.00e+00	0	43	0	898629632	54	4038
2026-01-03 16:04:23.83	248.04	14.98	-41.8	-42.7	20.5	0.00e+00	0	43	0	905969664	54	3909
2026-01-03 16:04:24.83	248.23	15.03	-41.7	-42.6	20.6	0.00e+00	0	43	0	913309696	54	3863
2026-01-03 16:04:25.83	248.43	15.07	-41.7	-42.6	20.7	0.00e+00	0	43	0	919601152	54	3855
2026-01-03 16:04:26.84	248.63	15.11	-41.6	-42.5	20.7	0.00e+00	0	43	0	926941184	54	3808
2026-01-03 16:04:27.84	248.82	15.16	-41.5	-42.4	20.8	0.00e+00	0	43	0	935329792	53	3984
2026-01-03 16:04:28.85	249.02	15.20	-41.6	-42.5	20.7	0.00e+00	0	43	0	941621248	53	4038
2026-01-03 16:04:29.85	249.22	15.24	-41.5	-42.4	20.8	0.00e+00	0	43	0	948961280	53	4003
2026-01-03 16:04:30.85	249.41	15.29	-41.5	-42.4	20.8	0.00e+00	0	43	0	956301312	53	3986
2026-01-03 16:04:31.85	249.61	15.33	-41.6	-42.5	20.8	0.00e+00	0	43	0	963641344	53	4037
2026-01-03 16:04:32.85	249.81	15.37	-41.6	-42.5	20.7	0.00e+00	0	43	0	970981376	53	4051
2026-01-03 16:04:33.85	250.01	15.41	-41.6	-42.5	20.7	0.00e+00	0	43	0	978321408	53	4037
2026-01-03 16:04:34.85	250.21	15.45	-41.6	-42.6	20.7	0.00e+00	0	43	0	985661440	53	4055
2026-01-03 16:04:35.86	250.41	15.50	-41.6	-42.5	20.7	0.00e+00	0	43	0	993001472	53	4030
2026-01-03 16:04:36.86	250.61	15.54	-41.6	-42.5	20.8	0.00e+00	0	43	0	1000341504	53	4025
2026-01-03 16:04:37.86	250.81	15.58	-41.5	-42.4	20.9	0.00e+00	0	43	0	1006632960	53	3966
2026-01-03 16:04:38.87	251.02	15.62	-41.4	-42.3	20.9	0.00e+00	0	43	0	1013972992	53	3956
2026-01-03 16:04:39.87	251.22	15.66	-41.5	-42.4	20.8	0.00e+00	0	43	0	1021313024	53	4000
2026-01-03 16:04:40.87	251.42	15.70	-41.6	-42.5	20.8	0.00e+00	0	43	0	1028653056	53	4030
2026-01-03 16:04:41.88	251.63	15.74	-41.7	-42.6	20.7	0.00e+00	0	43	0	1035993088	53	4075
2026-01-03 16:04:42.88	251.83	15.78	-41.5	-42.5	20.8	0.00e+00	0	43	0	1043333120	53	4012
2026-01-03 16:04:43.88	252.04	15.82	-41.7	-42.6	20.7	0.00e+00	0	43	0	1050673152	53	4074
2026-01-03 16:04:44.89	252.24	15.86	-41.7	-42.6	20.7	0.00e+00	0	43	0	1058013184	53	4078
2026-01-03 16:04:45.89	252.45	15.89	-41.6	-42.5	20.8	0.00e+00	0	43	0	1065353216	53	4045
2026-01-03 16:04:46.89	252.66	15.93	-41.6	-42.5	20.8	0.00e+00	0	43	0	1071644672	53	4025
2026-01-03 16:04:47.89	252.86	15.97	-41.5	-42.5	20.8	0.00e+00	0	43	0	1080033280	53	4007
2026-01-03 16:04:48.90	253.07	16.01	-41.5	-42.5	20.8	0.00e+00	0	43	0	1087373312	53	4012
2026-01-03 16:04:49.90	253.28	16.05	-41.6	-42.5	20.8	0.00e+00	0	43	0	1093664768	53	4024
2026-01-03 16:04:50.90	253.49	16.08	-41.5	-42.4	20.9	0.00e+00	0	43	0	1101004800	53	3970
2026-01-03 16:04:51.91	253.70	16.12	-41.5	-42.4	20.9	0.00e+00	0	43	0	1108344832	53	3983
2026-01-03 16:04:52.91	253.91	16.16	-41.5	-42.4	20.9	0.00e+00	0	43	0	1115684864	53	3995
2026-01-03 16:04:53.91	254.12	16.19	-41.6	-42.5	20.8	0.00e+00	0	43	0	1123024896	53	4048
2026-01-03 16:04:54.92	254.33	16.23	-41.6	-42.5	20.9	0.00e+00	0	43	0	1130364928	53	4020
2026-01-03 16:04:55.92	254.54	16.26	-41.5	-42.5	20.8	0.00e+00	0	43	0	1137704960	53	4010
2026-01-03 16:04:56.93	254.75	16.30	-41.5	-42.4	20.9	0.00e+00	0	43	0	1145044992	53	3972
2026-01-03 16:04:57.93	254.96	16.34	-41.4	-42.3	21.0	0.00e+00	0	43	0	1151336448	53	3926
2026-01-03 16:04:58.93	255.18	16.37	-41.4	-42.3	21.0	0.00e+00	0	43	0	1158676480	53	3928
2026-01-03 16:04:59.93	255.39	16.40	-41.2	-42.1	21.1	0.00e+00	0	43	0	1166016512	53	3861
2026-01-03 16:05:00.94	255.60	16.44	-41.3	-42.2	21.0	0.00e+00	0	43	0	1173356544	53	3903
2026-01-03 16:05:01.94	255.82	16.47	-41.3	-42.2	21.1	0.00e+00	0	43	0	1180696576	53	3880
2026-01-03 16:05:02.94	256.03	16.51	-41.4	-42.3	20.9	0.00e+00	0	43	0	1188036608	53	3949
2026-01-03 16:05:03.94	256.25	16.54	-41.4	-42.3	21.0	0.00e+00	0	43	0	1195376640	53	3927
2026-01-03 16:05:04.95	256.46	16.57	-41.3	-42.2	21.1	0.00e+00	0	43	0	1202716672	53	3888
2026-01-03 16:05:05.95	256.68	16.60	-41.2	-42.1	21.2	0.00e+00	0	43	0	1210056704	53	3844
2026-01-03 16:05:06.95	256.89	16.64	-41.3	-42.2	21.1	0.00e+00	0	43	0	1217396736	53	3885
2026-01-03 16:05:07.96	257.11	16.67	-41.2	-42.1	21.2	0.00e+00	0	43	0	1224736768	53	3844
2026-01-03 16:05:08.96	257.33	16.70	-41.2	-42.1	21.2	0.00e+00	0	43	0	1232076800	53	3852
2026-01-03 16:05:09.96	257.54	16.73	-41.3	-42.2	21.1	0.00e+00	0	43	0	1238368256	53	3888
2026-01-03 16:05:10.96	257.76	16.76	-41.1	-42.0	21.2	0.00e+00	0	43	0	1245708288	53	3812
2026-01-03 16:05:11.97	257.98	16.79	-41.1	-42.0	21.2	0.00e+00	0	43	0	1253048320	52	4047
2026-01-03 16:05:12.97	258.20	16.82	-41.1	-42.0	21.2	0.00e+00	0	43	0	1260388352	52	4051
2026-01-03 16:05:13.97	258.42	16.85	-41.2	-42.1	21.1	0.00e+00	0	43	0	1267728384	52	4070
2026-01-03 16:05:14.97	258.64	16.88	-41.2	-42.1	21.1	0.00e+00	0	43	0	1275068416	52	4083
2026-01-03 16:05:15.98	258.86	16.91	-41.1	-42.1	21.2	0.00e+00	0	43	0	1282408448	52	4056
2026-01-03 16:05:16.98	259.08	16.94	-41.3	-42.2	21.0	0.00e+00	0	43	0	1289748480	52	4138
2026-01-03 16:05:17.98	259.30	16.96	-41.3	-42.2	21.0	0.00e+00	0	43	0	1296039936	52	4135
2026-01-03 16:05:18.99	259.52	16.99	-41.1	-42.0	21.2	0.00e+00	0	43	0	1303379968	52	4032
2026-01-03 16:05:19.99	259.74	17.02	-41.2	-42.1	21.1	0.00e+00	0	43	0	1310720000	52	4084
2026-01-03 16:05:20.99	259.97	17.05	-41.2	-42.0	21.2	0.00e+00	0	43	0	1318060032	52	4049
2026-01-03 16:05:22.00	260.19	17.07	-41.2	-42.2	21.1	0.00e+00	0	43	0	1325400064	52	4105
2026-01-03 16:05:23.00	260.41	17.10	-41.1	-42.1	21.1	0.00e+00	0	43	0	1332740096	52	4053
2026-01-03 16:05:24.00	260.63	17.12	-41.1	-42.1	21.2	0.00e+00	0	43	0	1340080128	52	4053
2026-01-03 16:05:25.00	260.86	17.15	-41.2	-42.1	21.1	0.00e+00	0	43	0	1347420160	52	4057
2026-01-03 16:05:26.01	261.08	17.17	-41.1	-42.0	21.2	0.00e+00	0	43	0	1354760192	52	4025
2026-01-03 16:05:27.01	261.31	17.20	-41.1	-42.0	21.2	0.00e+00	0	43	0	1362100224	52	4044
2026-01-03 16:05:28.01	261.53	17.22	-41.2	-42.1	21.1	0.00e+00	0	43	0	1369440256	52	4066
2026-01-03 16:05:29.01	261.75	17.25	-41.3	-42.2	21.0	0.00e+00	0	43	0	1376780288	52	4126
2026-01-03 16:05:30.02	261.98	17.27	-41.4	-42.3	21.0	0.00e+00	0	43	0	1383071744	52	4177
2026-01-03 16:05:31.02	262.21	17.29	-41.5	-42.4	20.9	0.00e+00	0	43	0	1390411776	52	4217
2026-01-03 16:05:32.02	262.43	17.32	-41.4	-42.3	21.0	0.00e+00	0	43	0	1397751808	52	4168
2026-01-03 16:05:33.02	262.66	17.34	-41.3	-42.2	21.1	0.00e+00	0	43	0	1405091840	52	4107
2026-01-03 16:05:34.03	262.89	17.36	-41.4	-42.3	21.0	0.00e+00	0	43	0	1412431872	52	4186
2026-01-03 16:05:35.03	263.11	17.38	-41.2	-42.2	21.1	0.00e+00	0	43	0	1419771904	52	4108
2026-01-03 16:05:36.03	263.34	17.40	-41.2	-42.1	21.1	0.00e+00	0	43	0	1427111936	52	4092
2026-01-03 16:05:37.04	263.57	17.42	-41.4	-42.3	21.0	0.00e+00	0	43	0	1434451968	52	4163
2026-01-03 16:05:38.04	263.80	17.44	-41.4	-42.3	20.9	0.00e+00	0	43	0	1441792000	52	4192
2026-01-03 16:05:39.04	264.02	17.46	-41.6	-42.5	20.8	0.00e+00	0	43	0	1449132032	52	4266
2026-01-03 16:05:40.05	264.25	17.48	-41.6	-42.5	20.8	0.00e+00	0	43	0	1456472064	52	4268
2026-01-03 16:05:41.05	264.48	17.50	-41.6	-42.5	20.8	0.00e+00	0	43	0	1463812096	52	4278
2026-01-03 16:05:42.05	264.71	17.52	-41.5	-42.4	20.9	0.00e+00	0	43	0	1470103552	52	4214
2026-01-03 16:05:43.06	264.94	17.54	-41.5	-42.4	20.9	0.00e+00	0	43	0	1477443584	52	4215
2026-01-03 16:05:44.06	265.17	17.55	-41.4	-42.4	20.9	0.00e+00	0	43	0	1484783616	52	4197
2026-01-03 16:05:45.06	265.40	17.57	-41.2	-42.1	21.2	0.00e+00	0	43	0	1492123648	52	4057
2026-01-03 16:05:46.06	265.63	17.59	-41.1	-42.0	21.3	0.00e+00	0	43	0	1499463680	52	4014
2026-01-03 16:05:47.06	265.86	17.60	-41.0	-41.9	21.4	0.00e+00	0	43	0	1506803712	52	3989
2026-01-03 16:05:48.07	266.09	17.62	-40.9	-41.8	21.5	0.00e+00	0	43	0	1514143744	52	3914
2026-01-03 16:05:49.07	266.32	17.63	-41.0	-41.9	21.4	0.00e+00	0	43	0	1521483776	52	3960
2026-01-03 16:05:50.08	266.55	17.65	-40.9	-41.8	21.4	0.00e+00	0	43	0	1527775232	52	3938
2026-01-03 16:05:51.08	266.78	17.66	-41.0	-41.9	21.3	0.00e+00	0	43	0	1535115264	52	3995
2026-01-03 16:05:52.08	267.01	17.68	-41.0	-41.9	21.3	0.00e+00	0	43	0	1542455296	52	3988
2026-01-03 16:05:53.09	267.25	17.69	-41.2	-42.1	21.2	0.00e+00	0	43	0	1549795328	52	4052
2026-01-03 16:05:54.09	267.48	17.70	-41.1	-42.0	21.3	0.00e+00	0	43	0	1557135360	52	4019
2026-01-03 16:05:55.09	267.71	17.72	-41.2	-42.1	21.2	0.00e+00	0	43	0	1564475392	52	4065
2026-01-03 16:05:56.10	267.94	17.73	-41.1	-42.0	21.2	0.00e+00	0	43	0	1571815424	52	4043
2026-01-03 16:05:57.10	268.17	17.74	-41.2	-42.1	21.2	0.00e+00	0	43	0	1579155456	52	4054
2026-01-03 16:05:58.11	268.41	17.75	-41.2	-42.1	21.2	0.00e+00	0	43	0	1586495488	52	4062
2026-01-03 16:05:59.11	268.64	17.76	-41.2	-42.2	21.1	0.00e+00	0	43	0	1593835520	52	4099
2026-01-03 16:06:00.11	268.87	17.77	-41.3	-42.2	21.1	0.00e+00	0	43	0	1601175552	52	4105
2026-01-03 16:06:01.12	269.11	17.78	-41.3	-42.2	21.1	0.00e+00	0	43	0	1608515584	52	4109
2026-01-03 16:06:02.12	269.34	17.79	-41.2	-42.1	21.2	0.00e+00	0	43	0	1614807040	52	4063
2026-01-03 16:06:03.12	269.57	17.80	-41.2	-42.1	21.1	0.00e+00	0	43	0	1622147072	52	4079
2026-01-03 16:06:04.12	269.80	17.81	-41.0	-41.9	21.3	0.00e+00	0	43	0	1629487104	52	4003
2026-01-03 16:06:05.12	270.04	17.82	-41.0	-41.9	21.3	0.00e+00	0	43	0	1636827136	52	3984
2026-01-03 16:06:06.13	270.27	17.83	-41.0	-41.9	21.3	0.00e+00	0	43	0	1644167168	52	3989
2026-01-03 16:06:07.13	270.50	17.83	-41.1	-42.0	21.3	0.00e+00	0	43	0	1651507200	52	4027
2026-01-03 16:06:08.13	270.74	17.84	-41.0	-41.9	21.4	0.00e+00	0	43	0	1658847232	52	4002
2026-01-03 16:06:09.13	270.97	17.85	-40.9	-41.8	21.4	0.00e+00	0	43	0	1666187264	52	3943
2026-01-03 16:06:10.14	271.21	17.85	-41.1	-42.0	21.3	0.00e+00	0	43	0	1673527296	52	4014
2026-01-03 16:06:11.14	271.44	17.86	-41.0	-41.9	21.4	0.00e+00	0	43	0	1679818752	52	3995
2026-01-03 16:06:12.14	271.67	17.86	-41.1	-42.0	21.3	0.00e+00	0	43	0	1688207360	52	4035
2026-01-03 16:06:13.14	271.91	17.87	-41.2	-42.0	21.2	0.00e+00	0	43	0	1695547392	52	4047
2026-01-03 16:06:14.15	272.14	17.87	-41.2	-42.1	21.2	0.00e+00	0	43	0	1701838848	52	4057
2026-01-03 16:06:15.15	272.38	17.88	-41.1	-42.0	21.2	0.00e+00	0	43	0	1709178880	52	4028
2026-01-03 16:06:16.15	272.61	17.88	-41.1	-42.0	21.3	0.00e+00	0	43	0	1716518912	52	4017
2026-01-03 16:06:17.16	272.84	17.88	-41.1	-42.0	21.2	0.00e+00	0	43	0	1723858944	52	4029
2026-01-03 16:06:18.16	273.08	17.88	-41.1	-42.0	21.2	0.00e+00	0	43	0	1731198976	52	4033
2026-01-03 16:06:19.16	273.31	17.89	-41.1	-42.0	21.3	0.00e+00	0	43	0	1738539008	52	4033
2026-01-03 16:06:20.16	273.55	17.89	-41.1	-42.1	21.2	0.00e+00	0	43	0	1745879040	52	4057
2026-01-03 16:06:21.16	273.78	17.89	-41.2	-42.1	21.2	0.00e+00	0	43	0	1753219072	52	4064
2026-01-03 16:06:22.17	274.02	17.89	-41.2	-42.1	21.2	0.00e+00	0	44	0	1759510528	52	4055
2026-01-03 16:06:23.17	274.25	17.89	-41.2	-42.0	21.2	0.00e+00	0	43	0	1766850560	52	4048
2026-01-03 16:06:24.17	274.48	17.89	-41.0	-41.9	21.4	0.00e+00	0	43	0	1774190592	52	3968
2026-01-03 16:06:25.18	274.72	17.89	-41.0	-41.9	21.4	0.00e+00	0	43	0	1781530624	52	3966
2026-01-03 16:06:26.18	274.95	17.88	-40.9	-41.7	21.5	0.00e+00	0	43	0	1788870656	52	3912
2026-01-03 16:06:27.18	275.19	17.88	-40.9	-41.8	21.5	0.00e+00	0	43	0	1796210688	52	3941
2026-01-03 16:06:28.19	275.42	17.88	-40.9	-41.7	21.5	0.00e+00	0	43	0	1803550720	52	3913
2026-01-03 16:06:29.19	275.66	17.88	-40.9	-41.8	21.5	0.00e+00	0	43	0	1810890752	52	3924
2026-01-03 16:06:30.20	275.89	17.87	-40.9	-41.8	21.6	0.00e+00	0	43	0	1818230784	52	3915
2026-01-03 16:06:31.20	276.13	17.87	-41.0	-41.8	21.4	0.00e+00	0	43	0	1825570816	52	3956
2026-01-03 16:06:32.20	276.36	17.87	-41.0	-41.8	21.4	0.00e+00	0	43	0	1832910848	52	3953
2026-01-03 16:06:33.21	276.59	17.86	-41.0	-41.9	21.4	0.00e+00	0	43	0	1840250880	52	3975
2026-01-03 16:06:34.21	276.83	17.86	-41.1	-42.0	21.3	0.00e+00	0	43	0	1846542336	52	4013
2026-01-03 16:06:35.21	277.06	17.85	-41.1	-42.0	21.3	0.00e+00	0	43	0	1853882368	52	4011
2026-01-03 16:06:36.22	277.30	17.84	-41.1	-41.9	21.3	0.00e+00	0	43	0	1861222400	52	3999
2026-01-03 16:06:37.22	277.53	17.84	-41.1	-42.0	21.2	0.00e+00	0	43	0	1868562432	52	4038
2026-01-03 16:06:38.22	277.76	17.83	-41.2	-42.1	21.2	0.00e+00	0	43	0	1875902464	52	4065
2026-01-03 16:06:39.23	278.00	17.82	-41.3	-42.2	21.1	0.00e+00	0	43	0	1883242496	52	4127
2026-01-03 16:06:40.23	278.23	17.82	-41.4	-42.3	21.0	0.00e+00	0	43	0	1890582528	52	4164
2026-01-03 16:06:41.23	278.46	17.81	-41.3	-42.2	21.0	0.00e+00	0	43	0	1897922560	52	4134
2026-01-03 16:06:42.24	278.70	17.80	-41.3	-42.2	21.1	0.00e+00	0	43	0	1904214016	52	4108
2026-01-03 16:06:43.24	278.93	17.79	-41.2	-42.1	21.2	0.00e+00	0	43	0	1911554048	52	4061
2026-01-03 16:06:44.24	279.16	17.78	-41.2	-42.1	21.2	0.00e+00	0	43	0	1918894080	52	4063
2026-01-03 16:06:45.24	279.39	17.77	-41.3	-42.2	21.1	0.00e+00	0	43	0	1926234112	52	4112
2026-01-03 16:06:46.24	279.62	17.76	-41.3	-42.2	21.1	0.00e+00	0	43	0	1933574144	52	4118
2026-01-03 16:06:47.24	279.86	17.75	-41.2	-42.1	21.1	0.00e+00	0	43	0	1940914176	52	4079
2026-01-03 16:06:48.25	280.09	17.74	-41.2	-42.1	21.2	0.00e+00	0	43	0	1948254208	52	4062
2026-01-03 16:06:49.25	280.32	17.72	-41.1	-42.1	21.2	0.00e+00	0	43	0	1955594240	52	4053
2026-01-03 16:06:50.26	280.55	17.71	-41.1	-42.0	21.3	0.00e+00	0	43	0	1962934272	52	4008
2026-01-03 16:06:51.26	280.79	17.70	-41.1	-42.0	21.3	0.00e+00	0	43	0	1970274304	52	4024
2026-01-03 16:06:52.26	281.02	17.69	-41.2	-42.1	21.2	0.00e+00	0	43	0	1977614336	52	4078
2026-01-03 16:06:53.26	281.25	17.67	-41.2	-42.1	21.2	0.00e+00	0	43	0	1984954368	52	4092
2026-01-03 16:06:54.27	281.48	17.66	-41.2	-42.1	21.2	0.00e+00	0	43	0	1991245824	52	4095
2026-01-03 16:06:55.27	281.71	17.64	-41.3	-42.2	21.1	0.00e+00	0	43	0	1998585856	52	4108
2026-01-03 16:06:56.27	281.94	17.63	-41.3	-42.2	21.1	0.00e+00	0	43	0	2005925888	52	4136
2026-01-03 16:06:57.28	282.17	17.61	-41.2	-42.1	21.1	0.00e+00	0	43	0	2013265920	52	4088
2026-01-03 16:06:58.28	282.40	17.60	-41.2	-42.1	21.2	0.00e+00	0	43	0	2020605952	52	4057
2026-01-03 16:06:59.28	282.63	17.58	-41.1	-42.0	21.2	0.00e+00	0	43	0	2027945984	52	4035
2026-01-03 16:07:00.28	282.86	17.56	-41.1	-42.0	21.3	0.00e+00	0	44	0	2035286016	52	4019
2026-01-03 16:07:01.29	283.09	17.55	-41.1	-42.0	21.2	0.00e+00	0	43	0	2042626048	52	4032
2026-01-03 16:07:02.29	283.32	17.53	-41.2	-42.1	21.1	0.00e+00	0	43	0	2049966080	52	4081
2026-01-03 16:07:03.29	283.54	17.51	-41.2	-42.1	21.1	0.00e+00	0	44	0	2057306112	52	4075
2026-01-03 16:07:04.30	283.77	17.49	-41.2	-42.1	21.2	0.00e+00	0	43	0	2064646144	52	4062
2026-01-03 16:07:05.30	284.00	17.47	-41.2	-42.1	21.2	0.00e+00	0	43	0	2071986176	52	4067
2026-01-03 16:07:06.30	284.23	17.45	-41.4	-42.3	21.0	0.00e+00	0	43	0	2078277632	52	4153
2026-01-03 16:07:07.31	284.46	17.43	-41.4	-42.3	21.0	0.00e+00	0	43	0	2085617664	52	4167
2026-01-03 16:07:08.31	284.68	17.41	-41.4	-42.4	20.9	0.00e+00	0	43	0	2092957696	52	4194
2026-01-03 16:07:09.31	284.91	17.39	-41.5	-42.5	20.8	0.00e+00	0	43	0	2100297728	52	4248
2026-01-03 16:07:10.31	285.14	17.37	-41.4	-42.4	20.9	0.00e+00	0	43	0	2107637760	52	4200
2026-01-03 16:07:11.32	285.36	17.35	-41.5	-42.5	20.8	0.00e+00	0	43	0	2114977792	52	4243
2026-01-03 16:07:12.32	285.59	17.33	-41.5	-42.5	20.8	0.00e+00	0	43	0	2122317824	52	4253
2026-01-03 16:07:13.32	285.82	17.31	-41.4	-42.3	21.0	0.00e+00	0	44	0	2129657856	52	4169
2026-01-03 16:07:14.33	286.04	17.28	-41.4	-42.3	21.0	0.00e+00	0	43	0	2135949312	52	4162
2026-01-03 16:07:15.33	286.27	17.26	-41.3	-42.2	21.0	0.00e+00	0	44	0	2143289344	52	4135
2026-01-03 16:07:16.33	286.49	17.24	-41.2	-42.1	21.2	0.00e+00	0	43	0	2150629376	52	4072
2026-01-03 16:07:17.34	286.72	17.21	-41.2	-42.1	21.1	0.00e+00	0	43	0	2157969408	52	4078
2026-01-03 16:07:18.34	286.94	17.19	-41.3	-42.2	21.1	0.00e+00	0	43	0	2165309440	52	4122
2026-01-03 16:07:19.35	287.16	17.16	-41.3	-42.2	21.0	0.00e+00	0	43	0	2172649472	52	4134
2026-01-03 16:07:20.35	287.39	17.14	-41.4	-42.3	21.0	0.00e+00	0	43	0	2179989504	52	4155
2026-01-03 16:07:21.35	287.61	17.11	-41.4	-42.3	21.0	0.00e+00	0	43	0	2187329536	52	4178
2026-01-03 16:07:22.36	287.83	17.09	-41.4	-42.3	21.0	0.00e+00	0	43	0	2194669568	52	4169
2026-01-03 16:07:23.36	288.05	17.06	-41.4	-42.3	21.0	0.00e+00	0	43	0	2202009600	52	4182
2026-01-03 16:07:24.36	288.28	17.03	-41.5	-42.4	20.9	0.00e+00	0	43	0	2209349632	52	4205
2026-01-03 16:07:25.36	288.50	17.01	-41.4	-42.3	20.9	0.00e+00	0	43	0	2216689664	52	4153
2026-01-03 16:07:26.36	288.72	16.98	-41.4	-42.3	21.0	0.00e+00	0	43	0	2222981120	52	4154
2026-01-03 16:07:27.37	288.94	16.95	-41.3	-42.2	21.0	0.00e+00	0	43	0	2230321152	52	4144
2026-01-03 16:07:28.37	289.16	16.93	-41.4	-42.3	20.9	0.00e+00	0	44	0	2237661184	52	4153
2026-01-03 16:07:29.37	289.38	16.90	-41.4	-42.4	20.9	0.00e+00	0	43	0	2245001216	52	4197
2026-01-03 16:07:30.38	289.60	16.87	-41.4	-42.3	20.9	0.00e+00	0	43	0	2252341248	52	4164
2026-01-03 16:07:31.38	289.82	16.84	-41.6	-42.5	20.8	0.00e+00	0	43	0	2259681280	52	4278
2026-01-03 16:07:32.38	290.03	16.81	-41.6	-42.5	20.8	0.00e+00	0	43	0	2267021312	52	4290
2026-01-03 16:07:33.39	290.25	16.78	-41.5	-42.4	20.9	0.00e+00	0	43	0	2274361344	52	4198
2026-01-03 16:07:34.39	290.47	16.75	-41.5	-42.4	20.8	0.00e+00	0	43	0	2281701376	52	4214
2026-01-03 16:07:35.39	290.69	16.72	-41.4	-42.4	20.8	0.00e+00	0	43	0	2287992832	52	4194
2026-01-03 16:07:36.39	290.90	16.69	-41.5	-42.4	20.9	0.00e+00	0	43	0	2296381440	52	4213
2026-01-03 16:07:37.40	291.12	16.66	-41.5	-42.5	20.8	0.00e+00	0	44	0	2303721472	52	4245
2026-01-03 16:07:38.40	291.34	16.62	-41.6	-42.5	20.7	0.00e+00	0	43	0	2310012928	52	4283
2026-01-03 16:07:39.40	291.55	16.59	-41.6	-42.6	20.7	0.00e+00	0	43	0	2317352960	52	4297
2026-01-03 16:07:40.40	291.77	16.56	-41.7	-42.7	20.6	0.00e+00	0	43	0	2324692992	53	4108
2026-01-03 16:07:41.41	291.98	16.53	-41.7	-42.7	20.7	0.00e+00	0	43	0	2332033024	53	4099
2026-01-03 16:07:42.41	292.19	16.49	-41.8	-42.7	20.5	0.00e+00	0	43	0	2339373056	53	4140
2026-01-03 16:07:43.41	292.41	16.46	-41.7	-42.7	20.6	0.00e+00	0	43	0	2346713088	53	4107
2026-01-03 16:07:44.42	292.62	16.43	-41.7	-42.6	20.7	0.00e+00	0	43	0	2354053120	53	4068
2026-01-03 16:07:45.42	292.83	16.39	-41.7	-42.6	20.6	0.00e+00	0	43	0	2361393152	53	4078
2026-01-03 16:07:46.42	293.05	16.36	-41.8	-42.7	20.6	0.00e+00	0	43	0	2367684608	53	4120
2026-01-03 16:07:47.42	293.26	16.33	-41.7	-42.6	20.6	0.00e+00	0	43	0	2375024640	53	4094
2026-01-03 16:07:48.42	293.47	16.29	-41.6	-42.5	20.7	0.00e+00	0	43	0	2382364672	53	4051
2026-01-03 16:07:49.42	293.68	16.26	-41.7	-42.6	20.6	0.00e+00	0	43	0	2389704704	53	4078
2026-01-03 16:07:50.42	293.89	16.22	-41.7	-42.7	20.6	0.00e+00	0	43	0	2397044736	53	4109
2026-01-03 16:07:51.43	294.10	16.18	-41.7	-42.6	20.6	0.00e+00	0	43	0	2404384768	53	4091
2026-01-03 16:07:52.43	294.31	16.15	-41.7	-42.6	20.6	0.00e+00	0	43	0	2411724800	53	4085
2026-01-03 16:07:53.44	294.52	16.11	-41.7	-42.6	20.6	0.00e+00	0	43	0	2419064832	53	4089
2026-01-03 16:07:54.44	294.72	16.07	-41.7	-42.7	20.6	0.00e+00	0	43	0	2426404864	53	4105
2026-01-03 16:07:55.45	294.93	16.04	-41.6	-42.6	20.7	0.00e+00	0	43	0	2433744896	53	4058
2026-01-03 16:07:56.45	295.14	16.00	-41.7	-42.7	20.5	0.00e+00	0	43	0	2441084928	53	4110
2026-01-03 16:07:57.45	295.35	15.96	-41.8	-42.7	20.6	0.00e+00	0	43	0	2448424960	53	4125
2026-01-03 16:07:58.46	295.55	15.92	-41.8	-42.7	20.5	0.00e+00	0	43	0	2454716416	53	4133
2026-01-03 16:07:59.46	295.76	15.89	-41.8	-42.7	20.5	0.00e+00	0	43	0	2462056448	53	4124
2026-01-03 16:08:00.46	295.96	15.85	-41.7	-42.7	20.6	0.00e+00	0	43	0	2469396480	53	4100
2026-01-03 16:08:01.47	296.17	15.81	-41.8	-42.7	20.5	0.00e+00	0	43	0	2476736512	53	4132
2026-01-03 16:08:02.47	296.37	15.77	-41.7	-42.7	20.6	0.00e+00	0	43	0	2484076544	53	4101
2026-01-03 16:08:03.48	296.58	15.73	-41.7	-42.7	20.6	0.00e+00	0	43	0	2491416576	53	4102
2026-01-03 16:08:04.48	296.78	15.69	-41.8	-42.7	20.6	0.00e+00	0	43	0	2498756608	53	4121
2026-01-03 16:08:05.48	296.98	15.65	-41.8	-42.7	20.6	0.00e+00	0	43	0	2506096640	53	4126
2026-01-03 16:08:06.48	297.18	15.61	-41.9	-42.8	20.4	0.00e+00	0	43	0	2512388096	53	4171
2026-01-03 16:08:07.48	297.38	15.57	-41.9	-42.8	20.4	0.00e+00	0	43	0	2519728128	53	4188
2026-01-03 16:08:08.48	297.59	15.53	-42.0	-42.9	20.3	0.00e+00	0	43	0	2527068160	53	4236
2026-01-03 16:08:09.49	297.79	15.49	-42.1	-43.0	20.3	0.00e+00	0	43	0	2534408192	53	4283
2026-01-03 16:08:10.49	297.99	15.45	-42.1	-43.1	20.2	0.00e+00	0	43	0	2541748224	53	4302
2026-01-03 16:08:11.49	298.18	15.41	-42.2	-43.1	20.1	0.00e+00	0	43	0	2549088256	53	4330
2026-01-03 16:08:12.50	298.39	15.36	-42.2	-43.2	20.1	0.00e+00	0	43	0	2556428288	53	4348
2026-01-03 16:08:13.50	298.58	15.32	-42.4	-43.3	20.0	0.00e+00	0	43	0	2563768320	54	4178
2026-01-03 16:08:14.50	298.78	15.28	-42.3	-43.3	20.1	0.00e+00	0	43	0	2571108352	54	4150
2026-01-03 16:08:15.51	298.98	15.24	-42.4	-43.4	19.9	0.00e+00	0	43	0	2578448384	54	4206
2026-01-03 16:08:16.51	299.17	15.19	-42.4	-43.4	19.9	0.00e+00	0	43	0	2585788416	54	4221
2026-01-03 16:08:17.51	299.37	15.15	-42.4	-43.3	20.0	0.00e+00	0	43	0	2593128448	54	4186
2026-01-03 16:08:18.51	299.56	15.11	-42.5	-43.5	19.8	0.00e+00	0	43	0	2599419904	54	4269
2026-01-03 16:08:19.52	299.76	15.06	-42.4	-43.3	19.9	0.00e+00	0	43	0	2606759936	54	4184
2026-01-03 16:08:20.52	299.95	15.02	-42.4	-43.4	19.9	0.00e+00	0	43	0	2614099968	54	4207
2026-01-03 16:08:21.52	300.15	14.98	-42.3	-43.3	20.0	0.00e+00	0	43	0	2621440000	54	4161
2026-01-03 16:08:22.53	300.34	14.93	-42.2	-43.2	20.1	0.00e+00	0	43	0	2628780032	54	4133
2026-01-03 16:08:23.53	300.53	14.89	-42.3	-43.2	20.0	0.00e+00	0	43	0	2636120064	54	4143
2026-01-03 16:08:24.53	300.73	14.84	-42.3	-43.2	20.0	0.00e+00	0	43	0	2643460096	54	4144
2026-01-03 16:08:25.53	300.92	14.80	-42.4	-43.4	19.8	0.00e+00	0	43	0	2650800128	54	4232
2026-01-03 16:08:26.54	301.11	14.75	-42.3	-43.2	20.1	0.00e+00	0	43	0	2658140160	54	4136
2026-01-03 16:08:27.54	301.30	14.71	-42.3	-43.2	20.0	0.00e+00	0	43	0	2664431616	54	4130
2026-01-03 16:08:28.54	301.49	14.66	-42.3	-43.2	20.0	0.00e+00	0	43	0	2671771648	54	4137
2026-01-03 16:08:29.54	301.68	14.62	-42.3	-43.3	19.9	0.00e+00	0	43	0	2679111680	54	4153
2026-01-03 16:08:30.54	301.87	14.57	-42.4	-43.3	19.9	0.00e+00	0	43	0	2686451712	54	4185
2026-01-03 16:08:31.55	302.05	14.53	-42.3	-43.2	20.0	0.00e+00	0	43	0	2693791744	54	4141
2026-01-03 16:08:32.55	302.24	14.48	-42.3	-43.2	19.9	0.00e+00	0	43	0	2701131776	54	4138
2026-01-03 16:08:33.56	302.43	14.43	-42.3	-43.3	19.6	0.00e+00	0	43	0	2708471808	54	4170
2026-01-03 16:08:34.56	302.62	14.39	-42.3	-43.2	19.7	0.00e+00	0	43	0	2715811840	54	4145
2026-01-03 16:08:35.56	302.80	14.34	-42.3	-43.2	19.6	0.00e+00	0	43	0	2723151872	54	4141
2026-01-03 16:08:36.56	302.99	14.29	-42.3	-43.3	19.8	1.25e-05	0	43	0	2730491904	54	4156
2026-01-03 16:08:37.56	303.17	14.25	-42.4	-43.4	19.4	3.40e-06	0	43	0	2737831936	54	4230
2026-01-03 16:08:38.56	303.35	14.20	-42.4	-43.4	19.1	8.14e-04	0	44	0	2744123392	54	4212
2026-01-03 16:08:39.57	303.54	14.15	-42.4	-43.4	19.4	1.10e-06	0	43	0	2751463424	54	4230
2026-01-03 16:08:40.57	303.72	14.10	-42.5	-43.5	19.6	1.02e-05	0	44	0	2758803456	54	4254
2026-01-03 16:08:41.57	303.90	14.06	-42.5	-43.5	19.1	1.48e-05	0	43	0	2766143488	54	4273
2026-01-03 16:08:42.58	304.09	14.01	-42.7	-43.7	19.4	0.00e+00	0	43	0	2773483520	54	4355
2026-01-03 16:08:43.58	304.27	13.96	-42.6	-43.7	19.7	0.00e+00	0	43	0	2780823552	54	4341
2026-01-03 16:08:44.58	304.45	13.91	-42.7	-43.7	19.7	0.00e+00	0	43	0	2788163584	54	4343
2026-01-03 16:08:45.58	304.63	13.86	-42.7	-43.8	19.6	0.00e+00	0	43	0	2795503616	54	4393
2026-01-03 16:08:46.59	304.81	13.82	-42.7	-43.7	19.7	0.00e+00	0	43	0	2802843648	54	4373
2026-01-03 16:08:47.59	304.99	13.77	-42.6	-43.6	19.7	0.00e+00	0	43	0	2809135104	54	4330
2026-01-03 16:08:48.59	305.16	13.72	-42.6	-43.6	19.8	0.00e+00	0	43	0	2816475136	54	4319
2026-01-03 16:08:49.59	305.34	13.67	-42.6	-43.6	19.8	0.00e+00	0	43	0	2824863744	54	4312
2026-01-03 16:08:50.59	305.52	13.62	-42.5	-43.5	19.9	0.00e+00	0	43	0	2831155200	54	4265
2026-01-03 16:08:51.60	305.70	13.57	-42.5	-43.5	19.9	0.00e+00	0	43	0	2838495232	54	4256
2026-01-03 16:08:52.60	305.87	13.52	-42.6	-43.5	19.8	0.00e+00	0	43	0	2845835264	54	4283
2026-01-03 16:08:53.60	306.05	13.47	-42.6	-43.5	19.8	0.00e+00	0	43	0	2853175296	54	4277
2026-01-03 16:08:54.61	306.22	13.42	-42.6	-43.6	19.8	0.00e+00	0	43	0	2860515328	54	4301
2026-01-03 16:08:55.61	306.40	13.37	-42.7	-43.7	19.7	0.00e+00	0	43	0	2867855360	54	4366
2026-01-03 16:08:56.62	306.57	13.32	-42.8	-43.8	19.6	0.00e+00	0	43	0	2875195392	55	4163
2026-01-03 16:08:57.62	306.74	13.27	-42.8	-43.7	19.6	0.00e+00	0	43	0	2882535424	55	4145
2026-01-03 16:08:58.62	306.92	13.22	-42.9	-43.9	19.5	0.00e+00	0	43	0	2888826880	55	4220
2026-01-03 16:08:59.62	307.09	13.17	-43.0	-44.0	19.4	0.00e+00	0	43	0	2896166912	55	4260
2026-01-03 16:09:00.63	307.26	13.12	-43.0	-44.0	19.3	0.00e+00	0	43	0	2903506944	55	4284
2026-01-03 16:09:01.64	307.43	13.07	-43.1	-44.1	19.2	0.00e+00	0	43	0	2910846976	55	4323
2026-01-03 16:09:02.63	307.60	13.02	-43.1	-44.1	19.3	0.00e+00	0	44	0	2918187008	55	4306
2026-01-03 16:09:03.64	307.77	12.97	-43.1	-44.2	19.3	0.00e+00	0	43	0	2925527040	55	4344
2026-01-03 16:09:04.64	307.94	12.92	-43.2	-44.3	19.3	0.00e+00	0	43	0	2932867072	55	4401
2026-01-03 16:09:05.65	308.11	12.86	-43.1	-44.1	19.3	0.00e+00	0	43	0	2940207104	55	4329
2026-01-03 16:09:06.65	308.28	12.81	-43.1	-44.2	19.2	0.00e+00	0	43	0	2947547136	55	4360
2026-01-03 16:09:07.65	308.44	12.76	-43.2	-44.2	19.2	0.00e+00	0	43	0	2954887168	55	4390
2026-01-03 16:09:08.65	308.61	12.71	-43.1	-44.2	19.2	0.00e+00	0	43	0	2962227200	55	4354
2026-01-03 16:09:09.66	308.78	12.66	-43.2	-44.3	19.1	0.00e+00	0	43	0	2969567232	55	4415
2026-01-03 16:09:10.66	308.94	12.61	-43.5	-44.6	19.0	0.00e+00	0	43	0	2975858688	56	4325
2026-01-03 16:09:11.66	309.11	12.56	-43.5	-44.5	19.1	0.00e+00	0	43	0	2983198720	56	4282
2026-01-03 16:09:12.66	309.27	12.50	-43.5	-44.6	19.0	0.00e+00	0	43	0	2990538752	56	4293
2026-01-03 16:09:13.67	309.44	12.45	-43.7	-44.8	18.9	0.00e+00	0	43	0	2997878784	56	4399
2026-01-03 16:09:14.67	309.60	12.40	-43.5	-44.6	19.0	0.00e+00	0	43	0	3005218816	56	4302
2026-01-03 16:09:15.67	309.76	12.35	-43.7	-44.7	18.9	0.00e+00	0	43	0	3012558848	56	4379
2026-01-03 16:09:16.67	309.92	12.29	-43.4	-44.5	19.1	0.00e+00	0	43	0	3019898880	56	4264
2026-01-03 16:09:17.67	310.09	12.24	-43.4	-44.4	19.1	0.00e+00	0	43	0	3027238912	56	4241
2026-01-03 16:09:18.68	310.25	12.19	-43.4	-44.4	19.1	0.00e+00	0	43	0	3034578944	56	4216
2026-01-03 16:09:19.68	310.41	12.14	-43.4	-44.4	19.1	0.00e+00	0	43	0	3040870400	56	4237
2026-01-03 16:09:20.68	310.57	12.08	-43.4	-44.4	19.1	0.00e+00	0	43	0	3048210432	56	4224
2026-01-03 16:09:21.69	310.73	12.03	-43.3	-44.4	19.2	0.00e+00	0	43	0	3055550464	56	4198
2026-01-03 16:09:22.69	310.89	11.98	-43.2	-44.3	19.2	0.00e+00	0	43	0	3062890496	56	4163
2026-01-03 16:09:23.69	311.05	11.93	-43.3	-44.3	19.2	0.00e+00	0	43	0	3070230528	56	4186
2026-01-03 16:09:24.70	311.20	11.87	-43.2	-44.2	19.2	0.00e+00	0	43	0	3077570560	56	4141
2026-01-03 16:09:25.70	311.36	11.82	-43.2	-44.3	19.2	0.00e+00	0	43	0	3084910592	56	4149
2026-01-03 16:09:26.70	311.52	11.77	-43.3	-44.3	19.1	0.00e+00	0	43	0	3092250624	56	4181
2026-01-03 16:09:27.71	311.68	11.71	-43.3	-44.4	19.1	0.00e+00	0	43	0	3099590656	56	4212
2026-01-03 16:09:28.71	311.83	11.66	-43.4	-44.5	18.9	0.00e+00	0	43	0	3106930688	56	4269
2026-01-03 16:09:29.71	311.99	11.61	-43.6	-44.7	18.8	0.00e+00	0	43	0	3114270720	56	4343
2026-01-03 16:09:30.71	312.14	11.55	-43.6	-44.7	18.8	0.00e+00	0	43	0	3120562176	56	4363
2026-01-03 16:09:31.72	312.29	11.50	-43.5	-44.6	18.8	0.00e+00	0	43	0	3127902208	56	4323
2026-01-03 16:09:32.72	312.45	11.45	-43.5	-44.6	18.8	0.00e+00	0	44	0	3135242240	56	4326
2026-01-03 16:09:33.72	312.60	11.39	-43.5	-44.6	18.9	0.00e+00	0	43	0	3142582272	56	4317
2026-01-03 16:09:34.73	312.75	11.34	-43.6	-44.7	18.8	0.00e+00	0	43	0	3149922304	56	4353
2026-01-03 16:09:35.73	312.90	11.28	-43.7	-44.8	18.7	0.00e+00	0	44	0	3157262336	56	4409
2026-01-03 16:09:36.74	313.06	11.23	-43.6	-44.7	18.8	0.00e+00	0	44	0	3164602368	56	4344
2026-01-03 16:09:37.74	313.21	11.18	-43.5	-44.6	18.9	0.00e+00	0	43	0	3171942400	56	4298
2026-01-03 16:09:38.74	313.36	11.12	-43.6	-44.7	18.8	0.00e+00	0	44	0	3179282432	56	4350
2026-01-03 16:09:39.74	313.51	11.07	-43.4	-44.5	19.0	0.00e+00	0	43	0	3185573888	56	4264
2026-01-03 16:09:40.75	313.66	11.01	-43.3	-44.4	19.1	0.00e+00	0	44	0	3193962496	56	4211
2026-01-03 16:09:41.75	313.81	10.96	-43.4	-44.4	19.0	0.00e+00	0	43	0	3201302528	56	4240
2026-01-03 16:09:42.75	313.95	10.91	-43.1	-44.2	19.2	0.00e+00	0	43	0	3207593984	56	4112
2026-01-03 16:09:43.75	314.10	10.85	-43.2	-44.2	19.2	0.00e+00	0	44	0	3214934016	56	4131
2026-01-03 16:09:44.76	314.25	10.80	-43.1	-44.2	19.2	0.00e+00	0	43	0	3222274048	56	4105
2026-01-03 16:09:45.76	314.39	10.74	-43.2	-44.2	19.2	0.00e+00	0	43	0	3229614080	56	4133
2026-01-03 16:09:46.76	314.54	10.69	-43.2	-44.2	19.1	0.00e+00	0	43	0	3236954112	56	4139
2026-01-03 16:09:47.77	314.69	10.64	-43.3	-44.4	19.1	0.00e+00	0	43	0	3244294144	56	4203
2026-01-03 16:09:48.77	314.83	10.58	-43.2	-44.3	19.1	0.00e+00	0	43	0	3251634176	56	4165
2026-01-03 16:09:49.77	314.98	10.53	-43.3	-44.3	19.1	0.00e+00	0	43	0	3258974208	56	4179
2026-01-03 16:09:50.77	315.12	10.47	-43.4	-44.4	19.0	0.00e+00	0	43	0	3265265664	56	4221
2026-01-03 16:09:51.78	315.26	10.42	-43.4	-44.5	18.9	0.00e+00	0	43	0	3272605696	56	4268
2026-01-03 16:09:52.78	315.41	10.36	-43.5	-44.6	18.8	0.00e+00	0	43	0	3279945728	56	4329
2026-01-03 16:09:53.78	315.55	10.31	-43.6	-44.7	18.7	0.00e+00	0	43	0	3287285760	56	4373
2026-01-03 16:09:54.79	315.69	10.25	-43.7	-44.8	18.7	0.00e+00	0	43	0	3294625792	56	4401
2026-01-03 16:09:55.79	315.83	10.20	-43.9	-45.0	18.4	0.00e+00	0	43	0	3301965824	57	4252
2026-01-03 16:09:56.79	315.97	10.14	-43.9	-45.0	18.4	0.00e+00	0	43	0	3309305856	57	4287
2026-01-03 16:09:57.79	316.11	10.09	-44.0	-45.1	18.3	0.00e+00	0	43	0	3316645888	57	4335
2026-01-03 16:09:58.80	316.25	10.03	-43.9	-45.1	18.3	0.00e+00	0	44	0	3323985920	57	4318
2026-01-03 16:09:59.79	316.39	9.98	-44.0	-45.2	18.2	0.00e+00	0	43	0	3331325952	57	4347
2026-01-03 16:10:00.80	316.53	9.93	-44.0	-45.1	18.3	0.00e+00	0	43	0	3338665984	57	4338
2026-01-03 16:10:01.80	316.67	9.87	-44.0	-45.2	18.2	0.00e+00	0	43	0	3346006016	57	4369
2026-01-03 16:10:02.80	316.80	9.82	-44.0	-45.1	18.3	0.00e+00	0	43	0	3352297472	57	4332
2026-01-03 16:10:03.80	316.94	9.76	-44.0	-45.2	18.2	0.00e+00	0	43	0	3359637504	57	4348
2026-01-03 16:10:04.81	317.08	9.71	-43.9	-45.1	18.2	0.00e+00	0	43	0	3366977536	57	4319
2026-01-03 16:10:05.81	317.22	9.65	-43.8	-45.0	18.4	0.00e+00	0	43	0	3374317568	57	4255
2026-01-03 16:10:06.81	317.35	9.60	-43.7	-44.8	18.5	0.00e+00	0	44	0	3381657600	57	4191
2026-01-03 16:10:07.81	317.49	9.54	-43.8	-45.0	18.4	0.00e+00	0	43	0	3388997632	57	4246
2026-01-03 16:10:08.81	317.62	9.49	-43.6	-44.7	18.6	0.00e+00	0	43	0	3396337664	57	4130
2026-01-03 16:10:09.82	317.76	9.43	-43.5	-44.6	18.7	0.00e+00	0	43	0	3403677696	57	4084
2026-01-03 16:10:10.82	317.89	9.38	-43.5	-44.7	18.7	0.00e+00	0	43	0	3411017728	57	4108
2026-01-03 16:10:11.82	318.02	9.32	-43.5	-44.6	18.7	0.00e+00	0	44	0	3417309184	57	4095
2026-01-03 16:10:12.83	318.16	9.27	-43.6	-44.7	18.6	0.00e+00	0	43	0	3424649216	57	4128
2026-01-03 16:10:13.83	318.29	9.21	-43.7	-44.8	18.6	0.00e+00	0	43	0	3431989248	57	4171
2026-01-03 16:10:14.83	318.42	9.16	-43.6	-44.7	18.7	0.00e+00	0	43	0	3439329280	57	4125
2026-01-03 16:10:15.84	318.55	9.10	-43.6	-44.7	18.7	0.00e+00	0	43	0	3446669312	57	4125
2026-01-03 16:10:16.84	318.68	9.05	-43.7	-44.8	18.6	0.00e+00	0	43	0	3454009344	57	4186
2026-01-03 16:10:17.84	318.81	8.99	-51.9	-58.0	6.1	2.12e-03	0	43	0	3461349376	73	7567
2026-01-03 16:10:18.85	318.94	8.94	-53.7	-64.8	3.8	8.46e-01	0	43	104	3461349376	77	13169
2026-01-03 16:10:19.85	319.07	8.88	-53.7	-65.0	3.8	8.47e-01	0	43	104	3461349376	77	13462
2026-01-03 16:10:20.85	319.20	8.83	-54.2	-65.2	3.8	8.47e-01	0	44	104	3461349376	78	13052
2026-01-03 16:10:21.86	319.33	8.77	-54.2	-65.2	3.8	8.46e-01	0	43	104	3461349376	78	13055
2026-01-03 16:10:22.86	319.46	8.72	-54.3	-65.2	3.8	8.46e-01	0	43	104	3461349376	78	13058
2026-01-03 16:10:23.87	319.59	8.66	-54.4	-65.4	3.8	8.47e-01	0	43	104	3461349376	78	13273
2026-01-03 16:10:24.87	319.71	8.61	-54.5	-65.4	3.8	8.48e-01	0	43	104	3461349376	78	13295
2026-01-03 16:10:25.88	319.84	8.55	-54.5	-65.4	3.8	8.47e-01	0	44	104	3461349376	78	13320
2026-01-03 16:10:26.88	319.97	8.50	-54.6	-65.5	3.8	8.47e-01	0	44	104	3461349376	78	13425
2026-01-03 16:10:27.89	320.09	8.44	-54.4	-65.3	3.8	8.45e-01	0	44	104	3461349376	78	13217
2026-01-03 16:10:28.89	320.22	8.39	-54.6	-65.4	3.8	8.46e-01	0	43	104	3461349376	78	13281
2026-01-03 16:10:29.89	320.34	8.33	-54.5	-65.4	3.8	8.47e-01	0	43	104	3461349376	78	13324
2026-01-03 16:10:30.89	320.47	8.28	-54.5	-65.4	3.8	8.47e-01	0	44	104	3461349376	78	13288
2026-01-03 16:10:31.90	320.59	8.22	-54.7	-65.4	3.8	8.46e-01	0	44	104	3461349376	78	13378
2026-01-03 16:10:32.90	320.72	8.17	-54.5	-65.4	3.8	8.46e-01	0	43	104	3461349376	78	13314
2026-01-03 16:10:33.90	320.84	8.11	-54.5	-65.3	3.8	8.47e-01	0	43	104	3461349376	78	13241
2026-01-03 16:10:34.91	320.96	8.06	-54.6	-65.4	3.8	8.46e-01	0	43	104	3461349376	78	13359
2026-01-03 16:10:35.91	321.08	8.00	-54.4	-65.3	3.8	8.47e-01	0	43	104	3461349376	78	13214
2026-01-03 16:10:36.92	321.21	7.95	-54.3	-65.3	3.8	8.47e-01	0	43	104	3461349376	78	13201
2026-01-03 16:10:37.92	321.33	7.89	-54.2	-65.3	3.8	8.46e-01	0	43	104	3461349376	78	13222
2026-01-03 16:10:38.92	321.45	7.84	-54.2	-65.3	3.8	8.46e-01	0	44	104	3461349376	78	13126
2026-01-03 16:10:39.93	321.57	7.78	-54.2	-65.3	3.8	8.47e-01	0	43	104	3461349376	78	13154
2026-01-03 16:10:40.93	321.69	7.73	-54.2	-65.2	3.8	8.47e-01	0	44	104	3461349376	78	13086
2026-01-03 16:10:41.94	321.81	7.67	-54.2	-65.2	3.8	8.47e-01	0	44	104	3461349376	78	13075
2026-01-03 16:10:42.94	321.93	7.62	-54.2	-65.2	3.8	8.47e-01	0	43	104	3461349376	78	13049
2026-01-03 16:10:43.95	322.05	7.56	-54.2	-65.3	3.8	8.47e-01	0	43	104	3461349376	78	13177
2026-01-03 16:10:44.95	322.17	7.51	-54.2	-65.3	3.8	8.47e-01	0	43	104	3461349376	78	13130
2026-01-03 16:10:45.96	322.29	7.45	-54.2	-65.3	3.8	8.47e-01	0	44	104	3461349376	78	13138
2026-01-03 16:10:46.96	322.40	7.40	-54.2	-65.3	3.8	8.47e-01	0	44	104	3461349376	78	13166
2026-01-03 16:10:47.96	322.52	7.34	-54.2	-65.3	3.8	8.47e-01	0	43	104	3461349376	78	13114
2026-01-03 16:10:48.97	322.64	7.29	-54.2	-65.3	3.8	8.45e-01	0	43	104	3461349376	78	13147
2026-01-03 16:10:49.97	322.75	7.23	-54.2	-65.3	3.8	8.46e-01	0	43	104	3461349376	78	13173
2026-01-03 16:10:50.98	322.87	7.18	-54.2	-65.3	3.8	8.47e-01	0	44	104	3461349376	78	13184
2026-01-03 16:10:51.98	322.98	7.12	-54.2	-65.3	3.8	8.47e-01	0	43	104	3461349376	78	13120
2026-01-03 16:10:52.99	323.10	7.07	-54.1	-65.3	3.8	8.46e-01	0	44	104	3461349376	78	13188
2026-01-03 16:10:53.99	323.21	7.01	-54.2	-65.3	3.8	8.47e-01	0	44	104	3461349376	78	13171
2026-01-03 16:10:54.99	323.33	6.96	-54.1	-65.3	3.8	8.47e-01	0	43	104	3461349376	78	13254
2026-01-03 16:10:56.00	323.44	6.91	-54.1	-65.2	3.8	8.46e-01	0	43	104	3461349376	78	13003
2026-01-03 16:10:57.00	323.55	6.85	-54.1	-65.2	3.8	8.47e-01	0	44	104	3461349376	78	12996
2026-01-03 16:10:58.01	323.67	6.80	-54.1	-65.2	3.8	8.47e-01	0	43	104	3461349376	78	13067
2026-01-03 16:10:59.01	323.78	6.74	-54.1	-65.2	3.8	8.46e-01	0	44	104	3461349376	78	13109
2026-01-03 16:11:00.02	323.89	6.69	-54.2	-65.3	3.8	8.47e-01	0	43	104	3461349376	78	13112
2026-01-03 16:11:01.02	324.00	6.63	-54.2	-65.3	3.8	8.47e-01	0	44	104	3461349376	78	13206
2026-01-03 16:11:02.02	324.12	6.58	-54.1	-65.2	3.8	8.46e-01	0	44	104	3461349376	78	13013
2026-01-03 16:11:03.03	324.23	6.52	-54.2	-65.2	3.8	8.47e-01	0	43	104	3461349376	78	13038
2026-01-03 16:11:04.03	324.34	6.47	-54.1	-65.2	3.8	8.46e-01	0	44	104	3461349376	78	13090
2026-01-03 16:11:05.04	324.45	6.41	-54.1	-65.3	3.8	8.46e-01	0	44	104	3461349376	78	13112
2026-01-03 16:11:06.04	324.56	6.36	-54.1	-65.3	3.8	8.47e-01	0	44	104	3461349376	78	13115
2026-01-03 16:11:07.05	324.67	6.31	-54.1	-65.3	3.8	8.48e-01	0	44	104	3461349376	78	13134
2026-01-03 16:11:08.05	324.78	6.25	-54.2	-65.2	3.8	8.48e-01	0	43	104	3461349376	78	13094
2026-01-03 16:11:09.05	324.88	6.20	-54.2	-65.3	3.8	8.48e-01	0	44	104	3461349376	78	13121
2026-01-03 16:11:10.06	324.99	6.14	-54.2	-65.2	3.8	8.46e-01	0	44	104	3461349376	78	13071
2026-01-03 16:11:11.06	325.10	6.09	-54.2	-65.3	3.8	8.46e-01	0	44	104	3461349376	78	13149
2026-01-03 16:11:12.06	325.21	6.04	-54.1	-65.2	3.8	8.46e-01	0	44	104	3461349376	78	13102
2026-01-03 16:11:13.07	325.32	5.98	-54.1	-65.2	3.8	8.46e-01	0	44	104	3461349376	78	13009
2026-01-03 16:11:14.08	325.42	5.93	-54.2	-65.3	3.8	8.47e-01	0	44	104	3461349376	78	13123
2026-01-03 16:11:15.08	325.53	5.87	-54.2	-65.2	3.8	8.47e-01	0	44	104	3461349376	78	13062
2026-01-03 16:11:16.08	325.63	5.82	-54.2	-65.2	3.8	8.48e-01	0	43	104	3461349376	78	13061
2026-01-03 16:11:17.09	325.74	5.76	-54.2	-65.3	3.8	8.47e-01	0	44	104	3461349376	78	13187
2026-01-03 16:11:18.09	325.85	5.71	-54.2	-65.3	3.8	8.47e-01	0	44	104	3461349376	78	13177
2026-01-03 16:11:19.10	325.95	5.66	-54.2	-65.3	3.8	8.47e-01	0	44	104	3461349376	78	13143
2026-01-03 16:11:20.10	326.06	5.60	-54.2	-65.3	3.8	8.46e-01	0	44	104	3461349376	78	13156
2026-01-03 16:11:21.10	326.16	5.55	-54.1	-65.2	3.8	8.47e-01	0	44	104	3461349376	78	13067
2026-01-03 16:11:22.11	326.26	5.49	-54.1	-65.2	3.8	8.46e-01	0	44	104	3461349376	78	13011
2026-01-03 16:11:23.11	326.37	5.44	-54.1	-65.2	3.8	8.46e-01	0	44	104	3461349376	78	13073
2026-01-03 16:11:24.12	326.47	5.39	-54.1	-65.3	3.8	8.47e-01	0	44	104	3461349376	78	13156
2026-01-03 16:11:25.12	326.57	5.33	-54.2	-65.3	3.8	8.46e-01	0	44	104	3461349376	78	13110
2026-01-03 16:11:26.12	326.67	5.28	-54.2	-65.3	3.8	8.46e-01	0	44	104	3461349376	78	13186
2026-01-03 16:11:27.13	326.78	5.23	-54.1	-65.3	3.8	8.46e-01	0	44	104	3461349376	78	13117
2026-01-03 16:11:28.13	326.88	5.17	-54.1	-65.3	3.8	8.47e-01	0	44	104	3461349376	78	13114
2026-01-03 16:11:29.14	326.98	5.12	-54.1	-65.3	3.8	8.46e-01	0	44	104	3461349376	78	13150
2026-01-03 16:11:30.14	327.08	5.07	-54.2	-65.2	3.8	8.48e-01	0	44	104	3461349376	78	13095
2026-01-03 16:11:31.14	327.18	5.01	-54.2	-65.2	3.8	8.46e-01	0	44	104	3461349376	78	13107

#Closed at: 2026-01-03 16:11:32
#Recorded file [3461 MB]: D:/Data/31040_260103_190115.dat