passes_logs/2026/01/03/T1/T1__20260103_220123_SUOMI_NPP_rec.log

#Pass ID: 20260103_220123_SUOMI NPP
#Satellite: SUOMI NPP
#Configuration: NPP
#almurnet v.1.7.20251203
#Start time: 2026-01-03 22:01:24

#Version: 2.0.20230620
#Station: T1
#Location: 37.570604 lon 55.790049 lat
#TLE: 1 37849U 11061A   26001.07732418  .00000182  00000+0  10735-3 0  9990
#TLE: 2 37849  98.7795 303.2470 0002580  87.2016 272.9455 14.19520779734739

#Time	Az	El	Level	Level2	SNR	BER	BlckErr	Temp	State	Recorded	gain1	gain2
2026-01-03 22:01:24.58	32.81	5.05	-53.2	-68.6	3.8	1.49e+00	0	37	0	0	77	21835
2026-01-03 22:01:25.58	32.91	5.11	-53.3	-68.6	3.8	1.49e+00	0	37	104	0	77	21801
2026-01-03 22:01:26.58	33.01	5.16	-53.1	-68.5	3.8	1.49e+00	0	37	104	0	77	21514
2026-01-03 22:01:27.59	33.11	5.21	-53.3	-68.7	3.8	1.49e+00	0	37	104	0	77	22010
2026-01-03 22:01:28.59	33.21	5.27	-53.4	-68.7	3.8	1.49e+00	0	37	104	0	77	22125
2026-01-03 22:01:29.60	33.31	5.32	-53.3	-68.6	3.8	1.49e+00	0	37	104	0	77	21978
2026-01-03 22:01:30.60	33.42	5.37	-53.3	-68.6	3.8	1.49e+00	0	37	104	0	77	21844
2026-01-03 22:01:31.60	33.52	5.43	-53.4	-68.7	3.8	1.49e+00	0	38	104	0	77	22059
2026-01-03 22:01:32.61	33.62	5.48	-53.5	-68.8	3.8	1.49e+00	0	37	104	0	77	22378
2026-01-03 22:01:33.61	33.72	5.54	-53.3	-68.6	3.8	1.49e+00	0	38	104	0	77	22006
2026-01-03 22:01:34.62	33.83	5.59	-53.3	-68.6	3.8	1.49e+00	0	38	104	0	77	21803
2026-01-03 22:01:35.62	33.93	5.65	-53.3	-68.6	3.8	1.49e+00	0	38	104	0	77	21791
2026-01-03 22:01:36.63	34.04	5.70	-53.3	-68.6	3.8	1.49e+00	0	38	104	0	77	21968
2026-01-03 22:01:37.63	34.14	5.75	-53.2	-68.5	3.8	1.49e+00	0	38	104	0	77	21645
2026-01-03 22:01:38.64	34.25	5.81	-53.5	-68.9	3.8	1.49e+00	0	38	104	0	77	22667
2026-01-03 22:01:39.64	34.35	5.86	-53.4	-68.7	3.8	1.49e+00	0	38	104	0	77	22131
2026-01-03 22:01:40.64	34.46	5.92	-53.3	-68.7	3.8	1.49e+00	0	38	104	0	77	22054
2026-01-03 22:01:41.65	34.56	5.97	-53.3	-68.7	3.8	1.49e+00	0	38	104	0	77	22074
2026-01-03 22:01:42.66	34.67	6.03	-53.4	-68.7	3.8	1.49e+00	0	38	104	0	77	22038
2026-01-03 22:01:43.66	34.78	6.08	-53.4	-68.7	3.8	1.49e+00	0	38	104	0	77	22129
2026-01-03 22:01:44.66	34.88	6.13	-53.3	-68.7	3.8	1.49e+00	0	38	104	0	77	22114
2026-01-03 22:01:45.67	34.99	6.19	-53.5	-68.8	3.8	1.49e+00	0	38	104	0	77	22484
2026-01-03 22:01:46.67	35.10	6.24	-53.5	-68.9	3.8	1.49e+00	0	38	104	0	77	22533
2026-01-03 22:01:47.67	35.21	6.30	-53.4	-68.8	3.8	1.49e+00	0	38	104	0	77	22302
2026-01-03 22:01:48.68	35.32	6.35	-53.4	-68.8	3.8	1.49e+00	0	38	104	0	77	22297
2026-01-03 22:01:49.68	35.43	6.41	-53.4	-68.7	3.8	1.49e+00	0	38	104	0	77	22249
2026-01-03 22:01:50.69	35.54	6.46	-53.4	-68.7	3.8	1.49e+00	0	38	104	0	77	22136
2026-01-03 22:01:51.69	35.65	6.52	-53.4	-68.7	3.8	1.49e+00	0	38	104	0	77	22149
2026-01-03 22:01:52.70	35.76	6.57	-53.4	-68.8	3.8	1.49e+00	0	38	104	0	77	22295
2026-01-03 22:01:53.70	35.87	6.63	-53.4	-68.8	3.8	1.49e+00	0	38	104	0	77	22266
2026-01-03 22:01:54.71	35.98	6.68	-53.5	-68.8	3.8	1.49e+00	0	38	104	0	77	22287
2026-01-03 22:01:55.71	36.09	6.74	-53.5	-68.8	3.8	1.49e+00	0	38	104	0	77	22269
2026-01-03 22:01:56.71	36.20	6.79	-53.4	-68.7	3.8	1.49e+00	0	38	104	0	77	22041
2026-01-03 22:01:57.72	36.31	6.85	-53.6	-68.8	3.8	1.49e+00	0	38	104	0	77	22314
2026-01-03 22:01:58.72	36.43	6.90	-53.4	-68.7	3.8	1.49e+00	0	38	104	0	77	22115
2026-01-03 22:01:59.73	36.54	6.96	-53.5	-68.7	3.8	1.49e+00	0	38	104	0	77	22219
2026-01-03 22:02:00.73	36.65	7.01	-53.5	-68.8	3.8	1.49e+00	0	38	104	0	77	22467
2026-01-03 22:02:01.74	36.77	7.07	-53.4	-68.7	3.8	1.49e+00	0	38	104	0	77	22142
2026-01-03 22:02:02.74	36.88	7.12	-53.3	-68.6	3.8	1.49e+00	0	39	104	0	77	21828
2026-01-03 22:02:03.75	37.00	7.18	-53.4	-68.7	3.8	1.49e+00	0	39	104	0	77	22178
2026-01-03 22:02:04.75	37.11	7.23	-53.4	-68.7	3.8	1.49e+00	0	39	104	0	77	22145
2026-01-03 22:02:05.75	37.23	7.29	-53.5	-68.8	3.8	1.49e+00	0	38	104	0	77	22435
2026-01-03 22:02:06.76	37.35	7.34	-53.5	-68.8	3.8	1.49e+00	0	39	104	0	77	22489
2026-01-03 22:02:07.76	37.46	7.40	-53.4	-68.7	3.8	1.49e+00	0	38	104	0	77	22262
2026-01-03 22:02:08.77	37.58	7.45	-53.5	-68.8	3.8	1.49e+00	0	39	104	0	77	22363
2026-01-03 22:02:09.77	37.70	7.51	-53.4	-68.7	3.8	1.49e+00	0	39	104	0	77	22224
2026-01-03 22:02:10.77	37.81	7.56	-53.5	-68.8	3.8	1.49e+00	0	39	104	0	78	21214
2026-01-03 22:02:11.78	37.93	7.62	-53.4	-68.7	3.8	1.49e+00	0	39	104	0	78	20919
2026-01-03 22:02:12.79	38.05	7.67	-53.5	-68.8	3.8	1.49e+00	0	39	104	0	78	21201
2026-01-03 22:02:13.79	38.17	7.73	-53.5	-68.8	3.8	1.49e+00	0	39	104	0	78	21113
2026-01-03 22:02:14.79	38.29	7.78	-53.5	-68.8	3.8	1.49e+00	0	39	104	0	78	21205
2026-01-03 22:02:15.80	38.41	7.84	-53.5	-68.7	3.8	1.49e+00	0	39	104	0	78	20993
2026-01-03 22:02:16.80	38.53	7.89	-53.4	-68.5	3.8	1.49e+00	0	39	104	0	78	20441
2026-01-03 22:02:17.81	38.65	7.95	-53.5	-68.5	3.8	1.49e+00	0	39	104	0	78	20432
2026-01-03 22:02:18.81	38.77	8.00	-53.5	-68.4	3.8	1.49e+00	0	39	104	0	78	20231
2026-01-03 22:02:19.81	38.89	8.06	-53.4	-68.5	3.8	1.49e+00	0	39	104	0	78	20390
2026-01-03 22:02:20.82	39.02	8.11	-53.4	-68.6	3.8	1.49e+00	0	39	104	0	78	20593
2026-01-03 22:02:21.82	39.14	8.17	-53.4	-68.6	3.8	1.49e+00	0	39	104	0	78	20630
2026-01-03 22:02:22.83	39.26	8.23	-53.4	-68.7	3.8	1.49e+00	0	39	104	0	78	20916
2026-01-03 22:02:23.83	39.39	8.28	-53.4	-68.7	3.8	1.49e+00	0	39	104	0	78	20803
2026-01-03 22:02:24.84	39.51	8.34	-53.4	-68.7	3.8	1.49e+00	0	39	104	0	78	20851
2026-01-03 22:02:25.84	39.63	8.39	-53.5	-68.7	3.8	1.49e+00	0	39	104	0	78	20873
2026-01-03 22:02:26.84	39.76	8.45	-53.6	-68.8	3.8	1.49e+00	0	39	104	0	78	21115
2026-01-03 22:02:27.85	39.89	8.50	-53.4	-68.5	3.8	1.49e+00	0	39	104	0	78	20309
2026-01-03 22:02:28.85	40.01	8.56	-53.5	-68.4	3.8	1.49e+00	0	39	104	0	78	20092
2026-01-03 22:02:29.86	40.14	8.61	-53.5	-68.0	3.8	1.49e+00	0	39	104	0	78	19350
2026-01-03 22:02:30.86	40.26	8.67	-53.4	-67.7	3.8	1.49e+00	0	39	104	0	78	18682
2026-01-03 22:02:31.87	40.39	8.72	-53.4	-67.6	3.8	1.49e+00	0	39	104	0	78	18432
2026-01-03 22:02:32.87	40.52	8.78	-53.4	-67.5	3.8	1.49e+00	0	39	104	0	78	18211
2026-01-03 22:02:33.87	40.65	8.84	-53.5	-67.5	3.8	1.49e+00	0	39	104	0	78	18138
2026-01-03 22:02:34.88	40.78	8.89	-53.4	-66.7	3.8	1.49e+00	0	39	104	0	78	16631
2026-01-03 22:02:35.88	40.90	8.95	-53.1	-64.7	4.3	1.43e+00	0	39	104	0	78	13216
2026-01-03 22:02:36.89	41.04	9.00	-52.8	-62.3	5.5	7.43e-01	0	39	0	1048576	77	10615
2026-01-03 22:02:37.89	41.16	9.06	-52.9	-62.4	5.4	3.84e-01	0	39	0	3145728	77	10745
2026-01-03 22:02:38.89	41.29	9.11	-53.4	-67.0	3.8	1.44e+00	0	39	104	4194304	77	18148
2026-01-03 22:02:39.90	41.43	9.17	-51.9	-58.0	9.3	5.90e-01	0	39	0	4194304	75	7271
2026-01-03 22:02:40.90	41.56	9.22	-53.5	-67.7	3.8	4.05e-01	0	39	104	5242880	77	19773
2026-01-03 22:02:41.90	41.69	9.28	-50.0	-53.9	13.7	1.08e+00	0	39	0	5242880	72	5359
2026-01-03 22:02:42.91	41.82	9.33	-50.0	-53.9	13.8	5.30e-06	0	39	0	7340032	71	5683
2026-01-03 22:02:43.94	41.96	9.39	-49.7	-53.4	14.3	3.00e-06	0	39	0	9437184	71	5389
2026-01-03 22:02:44.97	42.10	9.45	-49.7	-53.4	14.3	7.00e-07	0	39	0	10485760	71	5358
2026-01-03 22:02:45.97	42.23	9.50	-49.9	-53.7	14.1	2.20e-06	0	39	0	12582912	71	5553
2026-01-03 22:02:46.98	42.36	9.56	-49.7	-53.4	14.3	3.00e-06	0	39	0	14680064	71	5384
2026-01-03 22:02:47.98	42.50	9.61	-49.7	-53.5	14.2	7.00e-07	0	39	0	16777216	71	5410
2026-01-03 22:02:48.98	42.63	9.67	-49.6	-53.4	14.2	1.50e-06	0	39	0	18874368	71	5367
2026-01-03 22:02:49.98	42.77	9.72	-49.6	-53.4	14.4	3.00e-06	0	39	0	19922944	71	5346
2026-01-03 22:02:50.99	42.91	9.78	-49.4	-53.0	14.6	7.00e-07	0	39	0	22020096	70	5431
2026-01-03 22:02:51.99	43.04	9.84	-49.4	-52.9	14.8	0.00e+00	0	39	0	24117248	70	5381
2026-01-03 22:02:52.99	43.18	9.89	-49.1	-52.5	15.2	0.00e+00	0	39	0	26214400	70	5145
2026-01-03 22:02:53.99	43.32	9.95	-49.0	-52.3	15.3	0.00e+00	0	39	0	28311552	69	5335
2026-01-03 22:02:54.99	43.45	10.00	-48.9	-52.1	15.5	0.00e+00	0	39	0	29360128	69	5216
2026-01-03 22:02:55.99	43.59	10.06	-48.8	-52.0	15.6	0.00e+00	0	39	0	31457280	69	5150
2026-01-03 22:02:57.00	43.73	10.11	-48.8	-51.9	15.7	0.00e+00	0	39	0	33554432	69	5088
2026-01-03 22:02:58.00	43.87	10.17	-48.5	-51.7	15.8	0.00e+00	0	39	0	35651584	69	4938
2026-01-03 22:02:59.00	44.01	10.22	-48.7	-51.9	15.6	0.00e+00	0	39	0	37748736	69	5099
2026-01-03 22:03:00.00	44.15	10.28	-48.5	-51.5	16.2	0.00e+00	0	39	0	38797312	69	4849
2026-01-03 22:03:01.00	44.29	10.33	-48.4	-51.4	16.2	0.00e+00	0	39	0	40894464	68	5082
2026-01-03 22:03:02.00	44.44	10.39	-48.5	-51.6	16.1	0.00e+00	0	39	0	42991616	68	5202
2026-01-03 22:03:03.01	44.58	10.44	-48.2	-51.2	16.4	0.00e+00	0	39	0	45088768	68	4946
2026-01-03 22:03:04.01	44.72	10.50	-48.3	-51.2	16.4	0.00e+00	0	39	0	46137344	68	4976
2026-01-03 22:03:05.01	44.86	10.55	-48.2	-51.2	16.6	0.00e+00	0	39	0	48234496	68	4944
2026-01-03 22:03:06.02	45.01	10.61	-48.2	-51.1	16.7	0.00e+00	0	39	0	50331648	68	4897
2026-01-03 22:03:07.02	45.15	10.66	-47.8	-50.6	17.0	0.00e+00	0	39	0	52428800	67	4887
2026-01-03 22:03:08.02	45.30	10.72	-47.8	-50.5	17.3	7.60e-06	0	39	0	54525952	66	5133
2026-01-03 22:03:09.02	45.44	10.77	-47.4	-50.1	17.4	1.50e-06	0	39	0	55574528	66	4881
2026-01-03 22:03:10.03	45.59	10.83	-47.2	-49.8	17.6	0.00e+00	0	39	0	57671680	66	4722
2026-01-03 22:03:11.03	45.74	10.88	-47.3	-49.9	17.5	0.00e+00	0	39	0	59768832	66	4804
2026-01-03 22:03:12.03	45.88	10.93	-47.4	-50.0	17.6	1.50e-06	0	39	0	61865984	66	4832
2026-01-03 22:03:13.03	46.03	10.99	-47.4	-50.0	17.7	0.00e+00	0	39	0	63963136	66	4841
2026-01-03 22:03:14.03	46.18	11.04	-47.3	-50.0	17.6	0.00e+00	0	39	0	65011712	66	4834
2026-01-03 22:03:15.03	46.33	11.10	-47.6	-50.3	17.4	0.00e+00	0	39	0	67108864	66	4994
2026-01-03 22:03:16.03	46.48	11.15	-47.7	-50.4	17.2	0.00e+00	0	39	0	69206016	66	5077
2026-01-03 22:03:17.03	46.62	11.21	-47.7	-50.5	17.1	0.00e+00	0	39	0	71303168	66	5133
2026-01-03 22:03:18.04	46.78	11.26	-47.7	-50.5	17.1	0.00e+00	0	39	0	73400320	66	5121
2026-01-03 22:03:19.05	46.93	11.32	-47.6	-50.4	17.2	7.00e-07	0	39	0	74448896	66	5055
2026-01-03 22:03:20.04	47.08	11.37	-47.6	-50.4	17.2	0.00e+00	0	39	0	76546048	66	5042
2026-01-03 22:03:21.05	47.23	11.42	-47.7	-50.4	17.3	0.00e+00	0	39	0	78643200	66	5088
2026-01-03 22:03:22.05	47.38	11.48	-47.5	-50.2	17.2	1.14e-05	0	39	0	80740352	66	4970
2026-01-03 22:03:23.05	47.54	11.53	-47.3	-50.0	17.4	0.00e+00	0	39	0	82837504	66	4863
2026-01-03 22:03:24.05	47.69	11.59	-47.4	-50.1	17.4	0.00e+00	0	39	0	83886080	66	4900
2026-01-03 22:03:25.05	47.84	11.64	-47.4	-50.1	17.4	0.00e+00	0	39	0	85983232	66	4897
2026-01-03 22:03:26.06	48.00	11.69	-47.3	-50.0	17.5	0.00e+00	0	39	0	88080384	66	4840
2026-01-03 22:03:27.06	48.15	11.75	-47.4	-50.1	17.5	0.00e+00	0	39	0	90177536	66	4894
2026-01-03 22:03:28.14	48.32	11.81	-47.3	-50.0	17.4	0.00e+00	0	40	0	92274688	66	4859
2026-01-03 22:03:29.05	48.46	11.86	-47.3	-50.0	17.7	0.00e+00	0	39	0	93323264	66	4833
2026-01-03 22:03:30.06	48.62	11.91	-47.4	-50.0	17.6	0.00e+00	0	39	0	95420416	66	4863
2026-01-03 22:03:31.28	48.81	11.97	-47.3	-50.0	17.6	1.50e-06	0	39	0	97517568	66	4852
2026-01-03 22:03:32.13	48.95	12.02	-47.3	-50.0	17.5	0.00e+00	0	39	0	99614720	66	4830
2026-01-03 22:03:33.49	49.16	12.09	-47.1	-49.7	17.7	0.00e+00	0	39	0	101711872	66	4681
2026-01-03 22:03:34.20	49.27	12.13	-47.2	-49.9	17.7	0.00e+00	0	39	0	102760448	66	4787
2026-01-03 22:03:35.73	49.52	12.21	-47.2	-49.9	17.5	0.00e+00	0	39	0	105906176	66	4802
2026-01-03 22:03:36.45	49.63	12.25	-47.4	-50.1	17.4	0.00e+00	0	39	0	106954752	66	4900
2026-01-03 22:03:37.73	49.84	12.32	-47.2	-49.9	17.6	0.00e+00	0	39	0	110100480	66	4786
2026-01-03 22:03:38.45	49.96	12.36	-47.3	-50.0	17.4	0.00e+00	0	40	0	111149056	66	4853
2026-01-03 22:03:39.74	50.16	12.42	-47.4	-50.2	17.3	0.00e+00	0	39	0	113246208	66	4944
2026-01-03 22:03:40.46	50.28	12.46	-47.4	-50.2	17.3	0.00e+00	0	39	0	115343360	66	4933
2026-01-03 22:03:41.75	50.49	12.53	-47.5	-50.3	17.4	0.00e+00	0	39	0	117440512	66	4995
2026-01-03 22:03:42.46	50.61	12.57	-47.7	-50.5	17.2	0.00e+00	0	39	0	118489088	66	5144
2026-01-03 22:03:43.75	50.82	12.63	-47.5	-50.2	17.5	0.00e+00	0	39	0	121634816	66	4939
2026-01-03 22:03:44.47	50.94	12.67	-47.2	-50.0	17.6	0.00e+00	0	39	0	122683392	66	4821
2026-01-03 22:03:45.76	51.15	12.74	-47.3	-50.0	17.5	0.00e+00	0	40	0	124780544	66	4869
2026-01-03 22:03:46.47	51.27	12.78	-47.3	-50.0	17.5	0.00e+00	0	39	0	125829120	66	4851
2026-01-03 22:03:47.76	51.48	12.84	-47.3	-50.0	17.6	0.00e+00	0	39	0	128974848	66	4838
2026-01-03 22:03:48.68	51.64	12.89	-47.5	-50.3	17.3	0.00e+00	0	39	0	130023424	66	5021
2026-01-03 22:03:49.68	51.80	12.94	-47.5	-50.3	17.3	0.00e+00	0	39	0	132120576	66	5026
2026-01-03 22:03:50.69	51.97	12.99	-47.6	-50.4	17.1	5.30e-06	0	40	0	134217728	66	5073
2026-01-03 22:03:51.69	52.14	13.05	-47.9	-50.8	16.9	7.00e-07	0	40	0	136314880	66	5305
2026-01-03 22:03:52.69	52.31	13.10	-47.9	-50.9	16.8	0.00e+00	0	39	0	138412032	66	5343
2026-01-03 22:03:53.70	52.48	13.15	-47.8	-50.7	16.7	0.00e+00	0	39	0	139460608	66	5261
2026-01-03 22:03:54.70	52.65	13.20	-47.9	-50.8	16.9	0.00e+00	0	39	0	141557760	67	5030
2026-01-03 22:03:55.70	52.83	13.25	-47.9	-50.7	16.9	7.00e-07	0	39	0	143654912	67	4976
2026-01-03 22:03:56.78	53.01	13.31	-47.8	-50.6	17.0	0.00e+00	0	39	0	145752064	67	4911
2026-01-03 22:03:57.64	53.16	13.35	-47.6	-50.4	17.2	7.00e-07	0	40	0	146800640	67	4768
2026-01-03 22:03:58.99	53.39	13.42	-47.7	-50.6	16.9	0.00e+00	0	39	0	149946368	67	4915
2026-01-03 22:03:59.71	53.52	13.46	-47.6	-50.5	16.9	0.00e+00	0	40	0	150994944	67	4832
2026-01-03 22:04:01.00	53.74	13.52	-47.6	-50.5	16.8	7.00e-07	0	40	0	153092096	67	4864
2026-01-03 22:04:01.72	53.87	13.56	-47.7	-50.7	16.7	0.00e+00	0	39	0	155189248	67	4940
2026-01-03 22:04:03.00	54.09	13.62	-48.0	-51.1	16.4	5.11e-05	0	40	0	157286400	67	5197
2026-01-03 22:04:03.72	54.22	13.66	-47.9	-50.9	16.6	9.10e-06	0	39	0	158334976	66	5360
2026-01-03 22:04:05.00	54.44	13.72	-47.7	-50.7	16.5	2.59e-05	0	39	0	161480704	66	5241
2026-01-03 22:04:05.72	54.57	13.76	-48.0	-51.1	16.4	2.21e-05	0	39	0	162529280	66	5496
2026-01-03 22:04:07.01	54.80	13.82	-47.8	-50.8	16.6	3.00e-06	0	39	0	164626432	67	4990
2026-01-03 22:04:07.73	54.93	13.86	-47.8	-50.7	16.7	0.00e+00	0	39	0	165675008	67	4956
2026-01-03 22:04:09.01	55.16	13.92	-47.9	-50.9	16.5	0.00e+00	0	39	0	168820736	67	5052
2026-01-03 22:04:09.73	55.29	13.95	-47.9	-50.8	16.6	0.00e+00	0	40	0	169869312	67	5030
2026-01-03 22:04:11.01	55.52	14.02	-47.6	-50.4	16.9	0.00e+00	0	39	0	171966464	66	5064
2026-01-03 22:04:11.73	55.65	14.05	-47.6	-50.5	16.9	7.00e-07	0	39	0	173015040	66	5133
2026-01-03 22:04:13.02	55.88	14.11	-47.5	-50.4	16.9	1.29e-05	0	40	0	176160768	66	5052
2026-01-03 22:04:13.74	56.01	14.15	-47.6	-50.5	16.8	0.00e+00	0	39	0	177209344	66	5110
2026-01-03 22:04:15.02	56.24	14.21	-47.7	-50.7	16.6	0.00e+00	0	39	0	179306496	66	5225
2026-01-03 22:04:15.74	56.38	14.25	-47.7	-50.6	16.8	1.67e-05	0	40	0	181403648	66	5194
2026-01-03 22:04:17.02	56.61	14.31	-47.8	-50.8	16.6	0.00e+00	0	40	0	183500800	66	5306
2026-01-03 22:04:17.74	56.74	14.34	-47.9	-50.9	16.6	0.00e+00	0	39	0	184549376	66	5354
2026-01-03 22:04:19.02	56.98	14.40	-47.9	-50.9	16.5	0.00e+00	0	39	0	187695104	66	5371
2026-01-03 22:04:19.73	57.11	14.44	-48.1	-51.2	16.3	0.00e+00	0	39	0	188743680	67	5248
2026-01-03 22:04:21.06	57.36	14.50	-48.2	-51.3	16.1	0.00e+00	0	40	0	190840832	67	5321
2026-01-03 22:04:21.77	57.49	14.53	-48.2	-51.3	16.2	1.50e-06	0	39	0	191889408	67	5287
2026-01-03 22:04:23.11	57.74	14.60	-48.0	-51.1	16.3	0.00e+00	0	39	0	195035136	67	5181
2026-01-03 22:04:23.83	57.87	14.63	-48.0	-51.0	16.5	0.00e+00	0	39	0	196083712	67	5118
2026-01-03 22:04:25.12	58.12	14.69	-47.7	-50.7	16.7	8.30e-06	0	39	0	198180864	67	4937
2026-01-03 22:04:26.18	58.32	14.74	-47.7	-50.6	16.7	0.00e+00	0	39	0	200278016	66	5200
2026-01-03 22:04:27.36	58.54	14.79	-47.6	-50.5	16.8	0.00e+00	0	40	0	202375168	66	5140
2026-01-03 22:04:28.42	58.74	14.84	-48.0	-51.0	16.3	0.00e+00	0	39	0	204472320	66	5445
2026-01-03 22:04:29.28	58.90	14.88	-47.9	-50.9	16.4	0.00e+00	0	40	0	206569472	66	5400
2026-01-03 22:04:30.43	59.12	14.93	-48.1	-51.1	16.2	0.00e+00	0	39	0	208666624	66	5526
2026-01-03 22:04:31.28	59.29	14.97	-48.1	-51.1	16.2	0.00e+00	0	40	0	210763776	67	5204
2026-01-03 22:04:32.43	59.51	15.02	-48.2	-51.3	16.1	0.00e+00	0	40	0	212860928	67	5295
2026-01-03 22:04:33.28	59.67	15.06	-48.2	-51.3	16.0	0.00e+00	0	39	0	213909504	67	5338
2026-01-03 22:04:34.43	59.89	15.11	-48.2	-51.4	16.0	0.00e+00	0	39	0	216006656	67	5359
2026-01-03 22:04:35.29	60.06	15.15	-48.2	-51.3	16.1	0.00e+00	0	39	0	218103808	67	5316
2026-01-03 22:04:36.50	60.30	15.20	-48.4	-51.6	15.9	0.00e+00	0	39	0	220200960	67	5496
2026-01-03 22:04:37.36	60.46	15.24	-48.4	-51.7	15.8	7.00e-07	0	40	0	221249536	67	5537
2026-01-03 22:04:38.50	60.69	15.29	-48.5	-51.7	15.9	0.00e+00	0	39	0	223346688	68	5235
2026-01-03 22:04:39.36	60.86	15.33	-48.6	-51.8	15.7	0.00e+00	0	40	0	225443840	68	5335
2026-01-03 22:04:40.50	61.08	15.38	-48.5	-51.7	15.8	0.00e+00	0	39	0	227540992	68	5278
2026-01-03 22:04:41.36	61.25	15.41	-48.4	-51.5	16.1	0.00e+00	0	39	0	229638144	68	5147
2026-01-03 22:04:42.51	61.48	15.46	-48.4	-51.4	16.4	0.00e+00	0	40	0	231735296	68	5092
2026-01-03 22:04:43.37	61.65	15.50	-47.8	-50.7	16.6	0.00e+00	0	39	0	232783872	67	4954
2026-01-03 22:04:44.51	61.88	15.55	-48.0	-50.9	16.6	0.00e+00	0	40	0	234881024	67	5051
2026-01-03 22:04:45.37	62.05	15.58	-47.8	-50.7	16.7	0.00e+00	0	40	0	236978176	66	5243
2026-01-03 22:04:46.52	62.28	15.63	-47.8	-50.8	16.5	0.00e+00	0	40	0	239075328	66	5336
2026-01-03 22:04:47.38	62.45	15.67	-48.1	-51.2	16.4	5.30e-06	0	40	0	240123904	67	5223
2026-01-03 22:04:48.52	62.68	15.71	-48.4	-51.6	16.0	0.00e+00	0	40	0	242221056	67	5467
2026-01-03 22:04:49.38	62.85	15.75	-48.2	-51.2	16.3	0.00e+00	0	40	0	244318208	67	5278
2026-01-03 22:04:50.53	63.08	15.79	-48.3	-51.3	16.3	0.00e+00	0	40	0	246415360	67	5306
2026-01-03 22:04:51.39	63.26	15.83	-47.9	-50.9	16.4	0.00e+00	0	40	0	247463936	67	5058
2026-01-03 22:04:52.53	63.49	15.87	-47.7	-50.6	16.7	4.50e-06	0	39	0	249561088	67	4906
2026-01-03 22:04:53.39	63.67	15.91	-47.6	-50.5	16.9	0.00e+00	0	39	0	251658240	67	4817
2026-01-03 22:04:54.54	63.90	15.95	-47.6	-50.4	16.9	0.00e+00	0	39	0	253755392	67	4807
2026-01-03 22:04:55.40	64.08	15.99	-47.4	-50.2	17.2	0.00e+00	0	40	0	255852544	66	4941
2026-01-03 22:04:56.54	64.31	16.03	-47.5	-50.2	17.2	0.00e+00	0	39	0	257949696	66	4982
2026-01-03 22:04:57.40	64.49	16.07	-47.3	-50.1	17.2	0.00e+00	0	39	0	258998272	66	4895
2026-01-03 22:04:58.55	64.73	16.11	-47.4	-50.1	17.3	0.00e+00	0	40	0	261095424	66	4899
2026-01-03 22:04:59.41	64.90	16.14	-47.3	-50.0	17.2	0.00e+00	0	40	0	263192576	66	4862
2026-01-03 22:05:00.55	65.14	16.19	-47.3	-49.9	17.4	5.30e-06	0	40	0	265289728	66	4808
2026-01-03 22:05:01.41	65.32	16.22	-47.2	-49.9	17.4	0.00e+00	0	39	0	266338304	66	4795
2026-01-03 22:05:02.55	65.56	16.26	-47.2	-49.9	17.6	0.00e+00	0	40	0	268435456	66	4773
2026-01-03 22:05:03.41	65.74	16.29	-47.3	-49.9	17.6	0.00e+00	0	39	0	270532608	66	4774
2026-01-03 22:05:04.56	65.98	16.33	-47.2	-49.8	17.5	0.00e+00	0	39	0	272629760	66	4731
2026-01-03 22:05:05.42	66.16	16.37	-47.4	-50.1	17.4	0.00e+00	0	40	0	274726912	66	4898
2026-01-03 22:05:06.57	66.40	16.41	-47.3	-49.9	17.4	0.00e+00	0	39	0	276824064	66	4797
2026-01-03 22:05:07.42	66.58	16.44	-47.4	-50.0	17.4	0.00e+00	0	40	0	277872640	66	4870
2026-01-03 22:05:08.62	66.83	16.48	-47.1	-49.7	17.6	0.00e+00	0	39	0	279969792	66	4694
2026-01-03 22:05:09.48	67.02	16.51	-47.2	-49.8	17.6	0.00e+00	0	39	0	282066944	66	4752
2026-01-03 22:05:10.62	67.26	16.55	-47.0	-49.7	17.7	0.00e+00	0	40	0	284164096	66	4653
2026-01-03 22:05:11.48	67.44	16.58	-47.0	-49.6	17.8	0.00e+00	0	40	0	285212672	66	4607
2026-01-03 22:05:12.63	67.69	16.62	-47.2	-49.9	17.5	0.00e+00	0	40	0	287309824	65	5078
2026-01-03 22:05:13.48	67.87	16.65	-47.4	-50.1	17.3	0.00e+00	0	40	0	289406976	65	5197
2026-01-03 22:05:14.63	68.12	16.68	-47.5	-50.2	17.2	0.00e+00	0	40	0	291504128	66	4969
2026-01-03 22:05:15.49	68.30	16.71	-47.6	-50.4	17.0	0.00e+00	0	40	0	293601280	66	5087
2026-01-03 22:05:16.63	68.55	16.75	-47.7	-50.5	16.9	0.00e+00	0	39	0	295698432	66	5138
2026-01-03 22:05:17.50	68.73	16.78	-47.8	-50.7	16.7	0.00e+00	0	39	0	296747008	66	5227
2026-01-03 22:05:18.64	68.98	16.81	-48.0	-50.9	16.7	0.00e+00	0	40	0	298844160	67	5043
2026-01-03 22:05:19.50	69.17	16.84	-47.9	-50.7	16.7	0.00e+00	0	39	0	300941312	67	4967
2026-01-03 22:05:20.68	69.42	16.88	-47.8	-50.7	16.7	0.00e+00	0	40	0	303038464	67	4958
2026-01-03 22:05:21.54	69.61	16.91	-48.1	-51.0	16.5	0.00e+00	0	40	0	304087040	67	5151
2026-01-03 22:05:22.71	69.87	16.94	-48.0	-50.8	16.7	0.00e+00	0	39	0	306184192	67	5021
2026-01-03 22:05:23.57	70.05	16.97	-47.7	-50.4	17.2	0.00e+00	0	40	0	308281344	67	4789
2026-01-03 22:05:24.72	70.31	17.00	-47.6	-50.3	17.3	0.00e+00	0	40	0	310378496	67	4724
2026-01-03 22:05:25.58	70.49	17.03	-47.3	-49.9	17.6	0.00e+00	0	39	0	312475648	66	4810
2026-01-03 22:05:26.72	70.75	17.06	-47.1	-49.7	17.9	0.00e+00	0	40	0	314572800	66	4668
2026-01-03 22:05:27.58	70.93	17.08	-47.2	-49.7	17.9	0.00e+00	0	39	0	315621376	66	4705
2026-01-03 22:05:28.73	71.19	17.12	-47.4	-50.0	17.9	0.00e+00	0	39	0	317718528	65	5135
2026-01-03 22:05:29.62	71.39	17.14	-47.5	-50.1	17.7	0.00e+00	0	40	0	319815680	65	5217
2026-01-03 22:05:30.76	71.64	17.17	-48.0	-50.7	17.2	0.00e+00	0	39	0	321912832	66	5270
2026-01-03 22:05:31.72	71.85	17.20	-48.0	-50.8	17.1	0.00e+00	0	40	0	324009984	66	5326
2026-01-03 22:05:32.72	72.07	17.23	-47.8	-50.5	17.2	3.89e-05	0	40	0	325058560	66	5127
2026-01-03 22:05:33.95	72.35	17.26	-47.5	-50.2	17.3	0.00e+00	0	39	0	328204288	66	4978
2026-01-03 22:05:34.84	72.55	17.28	-47.6	-50.3	17.5	0.00e+00	0	40	0	329252864	66	4996
2026-01-03 22:05:35.98	72.80	17.31	-47.3	-49.9	17.6	0.00e+00	0	40	0	331350016	66	4803
2026-01-03 22:05:36.84	72.99	17.33	-47.3	-49.9	17.6	0.00e+00	0	39	0	333447168	66	4811
2026-01-03 22:05:37.99	73.25	17.36	-47.6	-50.3	17.2	0.00e+00	0	40	0	335544320	66	5026
2026-01-03 22:05:38.85	73.44	17.38	-47.8	-50.6	17.0	0.00e+00	0	39	0	336592896	66	5210
2026-01-03 22:05:39.99	73.70	17.41	-47.8	-50.5	17.0	0.00e+00	0	40	0	338690048	67	4858
2026-01-03 22:05:40.85	73.89	17.43	-47.6	-50.3	17.2	0.00e+00	0	40	0	340787200	67	4759
2026-01-03 22:05:42.00	74.15	17.46	-47.3	-49.9	17.6	0.00e+00	0	40	0	342884352	66	4813
2026-01-03 22:05:42.86	74.35	17.48	-47.3	-49.9	17.5	0.00e+00	0	40	0	343932928	66	4802
2026-01-03 22:05:44.01	74.61	17.50	-47.3	-49.9	17.8	0.00e+00	0	39	0	347078656	66	4787
2026-01-03 22:05:44.87	74.80	17.52	-47.2	-49.8	17.7	0.00e+00	0	40	0	348127232	66	4748
2026-01-03 22:05:46.01	75.06	17.55	-47.7	-50.4	17.3	0.00e+00	0	40	0	350224384	66	5065
2026-01-03 22:05:46.87	75.26	17.56	-47.7	-50.4	17.2	0.00e+00	0	40	0	352321536	66	5057
2026-01-03 22:05:48.02	75.52	17.59	-47.6	-50.3	17.3	0.00e+00	0	39	0	354418688	66	5022
2026-01-03 22:05:48.87	75.71	17.60	-47.7	-50.4	17.2	0.00e+00	0	39	0	355467264	66	5051
2026-01-03 22:05:50.02	75.98	17.63	-47.5	-50.1	17.6	0.00e+00	0	40	0	357564416	66	4897
2026-01-03 22:05:50.88	76.17	17.64	-47.4	-49.9	17.7	0.00e+00	0	40	0	359661568	66	4787
2026-01-03 22:05:52.02	76.43	17.67	-47.3	-49.9	17.8	0.00e+00	0	40	0	361758720	66	4773
2026-01-03 22:05:52.88	76.63	17.68	-47.7	-50.3	17.5	0.00e+00	0	40	0	362807296	66	5024
2026-01-03 22:05:54.03	76.89	17.70	-47.8	-50.5	17.3	0.00e+00	0	40	0	364904448	66	5134
2026-01-03 22:05:54.89	77.09	17.72	-48.6	-51.5	16.5	0.00e+00	0	40	0	367001600	67	5424
2026-01-03 22:05:56.03	77.35	17.74	-49.0	-51.9	16.2	0.00e+00	0	40	0	369098752	68	5360
2026-01-03 22:05:56.89	77.55	17.75	-48.7	-51.7	16.2	0.00e+00	0	40	0	371195904	69	4933
2026-01-03 22:05:58.15	77.84	17.77	-48.9	-51.8	16.1	0.00e+00	0	40	0	373293056	69	5040
2026-01-03 22:05:58.88	78.01	17.79	-48.9	-51.8	16.1	0.00e+00	0	40	0	374341632	69	5037
2026-01-03 22:06:00.17	78.31	17.81	-48.9	-51.9	16.1	0.00e+00	0	40	0	376438784	69	5045
2026-01-03 22:06:00.88	78.47	17.82	-48.9	-51.9	16.1	0.00e+00	0	40	0	378535936	69	5045
2026-01-03 22:06:02.17	78.77	17.83	-49.0	-52.1	15.9	0.00e+00	0	40	0	380633088	69	5164
2026-01-03 22:06:02.98	78.96	17.85	-49.0	-52.0	15.9	0.00e+00	0	40	0	382730240	69	5141
2026-01-03 22:06:04.13	79.23	17.86	-48.8	-51.8	16.2	0.00e+00	0	40	0	383778816	69	5021
2026-01-03 22:06:05.21	79.48	17.88	-48.6	-51.5	16.4	0.00e+00	0	40	0	385875968	69	4857
2026-01-03 22:06:06.06	79.67	17.89	-48.8	-51.6	16.6	0.00e+00	0	40	0	387973120	69	4882
2026-01-03 22:06:07.21	79.94	17.90	-48.5	-51.2	16.9	0.00e+00	0	40	0	390070272	68	4968
2026-01-03 22:06:08.07	80.14	17.91	-48.4	-51.1	16.9	3.96e-05	0	40	0	392167424	68	4894
2026-01-03 22:06:09.21	80.41	17.93	-48.6	-51.4	16.8	0.00e+00	0	40	0	394264576	68	5044
2026-01-03 22:06:10.07	80.61	17.93	-48.2	-51.0	16.9	0.00e+00	0	40	0	395313152	68	4827
2026-01-03 22:06:11.21	80.87	17.95	-48.2	-50.9	17.2	0.00e+00	0	40	0	397410304	68	4793
2026-01-03 22:06:12.08	81.08	17.96	-48.1	-50.8	17.1	0.00e+00	0	40	0	399507456	68	4717
2026-01-03 22:06:13.22	81.34	17.97	-47.8	-50.5	17.2	0.00e+00	0	40	0	401604608	67	4849
2026-01-03 22:06:14.08	81.54	17.97	-47.8	-50.5	17.3	0.00e+00	0	40	0	402653184	67	4848
2026-01-03 22:06:15.22	81.81	17.98	-48.0	-50.7	17.2	0.00e+00	0	40	0	404750336	67	4957
2026-01-03 22:06:16.08	82.01	17.99	-47.9	-50.7	17.0	0.00e+00	0	40	0	406847488	67	4975
2026-01-03 22:06:17.43	82.33	18.00	-48.2	-51.0	16.8	0.00e+00	0	40	0	408944640	67	5127
2026-01-03 22:06:18.15	82.50	18.01	-48.3	-51.1	16.8	0.00e+00	0	40	0	411041792	67	5205
2026-01-03 22:06:19.44	82.80	18.02	-48.1	-50.9	16.8	0.00e+00	0	40	0	413138944	67	5076
2026-01-03 22:06:20.15	82.97	18.02	-48.1	-50.8	16.9	0.00e+00	0	40	0	414187520	67	5019
2026-01-03 22:06:21.44	83.27	18.03	-48.0	-50.7	17.1	2.20e-06	0	40	0	417333248	67	4944
2026-01-03 22:06:22.16	83.44	18.03	-47.9	-50.6	17.1	8.30e-06	0	40	0	418381824	67	4924
2026-01-03 22:06:23.77	83.81	18.04	-48.0	-50.9	16.8	0.00e+00	0	40	0	421527552	67	5077
2026-01-03 22:06:24.34	83.95	18.04	-48.0	-50.9	16.7	0.00e+00	0	40	0	422576128	67	5097
2026-01-03 22:06:25.93	84.32	18.05	-48.3	-51.3	16.5	0.00e+00	0	40	0	424673280	67	5307
2026-01-03 22:06:26.51	84.46	18.05	-48.4	-51.5	16.3	0.00e+00	0	39	0	426770432	67	5415
2026-01-03 22:06:28.11	84.83	18.06	-48.0	-50.9	16.9	0.00e+00	0	40	0	428867584	67	5084
2026-01-03 22:06:28.70	84.97	18.06	-48.1	-51.0	16.8	0.00e+00	0	40	0	429916160	67	5111
2026-01-03 22:06:30.27	85.34	18.06	-47.8	-50.5	17.3	0.00e+00	0	39	0	433061888	67	4854
2026-01-03 22:06:30.93	85.50	18.06	-47.5	-50.1	17.6	0.00e+00	0	39	0	434110464	66	4898
2026-01-03 22:06:32.36	85.83	18.06	-47.4	-50.0	17.7	0.00e+00	0	40	0	437256192	66	4848
2026-01-03 22:06:33.08	86.00	18.06	-47.5	-50.2	17.4	0.00e+00	0	39	0	438304768	66	4964
2026-01-03 22:06:34.36	86.30	18.06	-47.7	-50.4	17.3	0.00e+00	0	40	0	441450496	66	5074
2026-01-03 22:06:35.17	86.49	18.06	-47.9	-50.7	17.0	0.00e+00	0	39	0	442499072	66	5266
2026-01-03 22:06:36.32	86.77	18.06	-47.9	-50.7	17.0	0.00e+00	0	40	0	444596224	66	5233
2026-01-03 22:06:37.39	87.02	18.06	-48.0	-50.9	16.8	0.00e+00	0	40	0	446693376	67	5054
2026-01-03 22:06:38.44	87.26	18.06	-47.9	-50.7	17.0	0.00e+00	0	39	0	448790528	67	4949
2026-01-03 22:06:39.34	87.48	18.06	-48.1	-51.0	16.8	0.00e+00	0	40	0	450887680	67	5114
2026-01-03 22:06:40.34	87.71	18.05	-48.3	-51.2	16.5	0.00e+00	0	39	0	451936256	67	5247
2026-01-03 22:06:41.35	87.95	18.05	-48.3	-51.3	16.4	0.00e+00	0	40	0	454033408	67	5308
2026-01-03 22:06:42.34	88.18	18.05	-48.6	-51.6	16.2	0.00e+00	0	39	0	456130560	67	5471
2026-01-03 22:06:43.35	88.42	18.04	-48.8	-51.8	16.2	0.00e+00	0	40	0	458227712	68	5321
2026-01-03 22:06:44.34	88.65	18.04	-49.0	-52.0	16.0	0.00e+00	0	40	0	459276288	68	5461
2026-01-03 22:06:45.34	88.89	18.03	-48.9	-52.0	15.9	0.00e+00	0	40	0	461373440	68	5427
2026-01-03 22:06:46.35	89.12	18.03	-48.9	-52.0	16.0	0.00e+00	0	40	0	463470592	68	5452
2026-01-03 22:06:47.38	89.36	18.02	-48.9	-52.0	16.2	0.00e+00	0	40	0	465567744	68	5408
2026-01-03 22:06:48.38	89.60	18.01	-48.7	-51.7	16.2	0.00e+00	0	39	0	467664896	68	5233
2026-01-03 22:06:49.45	89.85	18.00	-48.6	-51.6	16.4	0.00e+00	0	40	0	469762048	68	5179
2026-01-03 22:06:50.34	90.06	18.00	-48.6	-51.6	16.4	0.00e+00	0	40	0	470810624	68	5178
2026-01-03 22:06:51.48	90.33	17.99	-48.4	-51.3	16.6	0.00e+00	0	40	0	472907776	68	5025
2026-01-03 22:06:52.40	90.54	17.98	-48.3	-51.1	16.8	0.00e+00	0	40	0	475004928	68	4881
2026-01-03 22:06:53.40	90.77	17.97	-48.2	-50.9	17.0	0.00e+00	0	40	0	477102080	68	4791
2026-01-03 22:06:54.41	91.01	17.96	-47.6	-50.3	17.4	0.00e+00	0	39	0	478150656	67	4710
2026-01-03 22:06:55.41	91.24	17.95	-47.7	-50.3	17.6	0.00e+00	0	40	0	480247808	67	4716
2026-01-03 22:06:56.41	91.48	17.94	-47.6	-50.2	17.7	0.00e+00	0	40	0	482344960	67	4652
2026-01-03 22:06:57.42	91.71	17.93	-47.1	-49.5	18.1	0.00e+00	0	40	0	484442112	66	4582
2026-01-03 22:06:58.42	91.95	17.92	-47.1	-49.6	18.1	0.00e+00	0	39	0	486539264	66	4599
2026-01-03 22:06:59.42	92.18	17.91	-46.9	-49.4	18.1	0.00e+00	0	39	0	487587840	65	4785
2026-01-03 22:07:00.42	92.41	17.90	-47.2	-49.7	17.9	0.00e+00	0	40	0	489684992	65	4951
2026-01-03 22:07:01.43	92.65	17.88	-47.4	-49.9	17.7	0.00e+00	0	40	0	491782144	65	5072
2026-01-03 22:07:02.43	92.88	17.87	-47.7	-50.4	17.2	0.00e+00	0	40	0	493879296	66	5059
2026-01-03 22:07:03.43	93.11	17.86	-48.0	-50.7	17.0	0.00e+00	0	40	0	495976448	66	5231
2026-01-03 22:07:04.49	93.36	17.84	-47.9	-50.6	16.9	0.00e+00	0	39	0	497025024	66	5191
2026-01-03 22:07:05.37	93.56	17.83	-48.2	-50.9	16.8	0.00e+00	0	39	0	499122176	67	5083
2026-01-03 22:07:06.72	93.88	17.81	-48.4	-51.2	16.6	0.00e+00	0	40	0	501219328	67	5230
2026-01-03 22:07:07.43	94.04	17.80	-48.3	-51.1	16.6	0.00e+00	0	40	0	503316480	67	5180
2026-01-03 22:07:08.72	94.34	17.78	-48.7	-51.6	16.2	0.00e+00	0	40	0	505413632	68	5211
2026-01-03 22:07:09.44	94.50	17.77	-48.6	-51.5	16.5	0.00e+00	0	40	0	506462208	68	5106
2026-01-03 22:07:10.72	94.80	17.74	-48.6	-51.4	16.5	0.00e+00	0	39	0	509607936	68	5092
2026-01-03 22:07:11.44	94.97	17.73	-48.4	-51.2	16.7	0.00e+00	0	40	0	510656512	68	4964
2026-01-03 22:07:12.73	95.26	17.71	-48.2	-50.9	17.0	0.00e+00	0	39	0	512753664	68	4791
2026-01-03 22:07:13.45	95.43	17.70	-48.1	-50.8	17.1	0.00e+00	0	40	0	513802240	68	4713
2026-01-03 22:07:14.75	95.73	17.67	-47.7	-50.3	17.3	1.50e-06	0	40	0	516947968	67	4748
2026-01-03 22:07:15.46	95.89	17.66	-47.6	-50.2	17.5	0.00e+00	0	39	0	517996544	67	4657
2026-01-03 22:07:16.75	96.19	17.63	-47.9	-50.5	17.4	0.00e+00	0	40	0	520093696	67	4833
2026-01-03 22:07:17.71	96.41	17.62	-47.9	-50.5	17.4	0.00e+00	0	40	0	522190848	67	4829
2026-01-03 22:07:18.71	96.63	17.60	-47.8	-50.5	17.2	0.00e+00	0	40	0	524288000	67	4831
2026-01-03 22:07:19.71	96.86	17.58	-47.8	-50.4	17.1	2.20e-06	0	39	0	526385152	67	4811
2026-01-03 22:07:20.71	97.09	17.55	-47.8	-50.5	17.0	7.00e-07	0	40	0	527433728	67	4828
2026-01-03 22:07:21.72	97.32	17.53	-47.8	-50.5	17.1	0.00e+00	0	40	0	529530880	67	4847
2026-01-03 22:07:22.71	97.55	17.51	-47.7	-50.4	17.2	0.00e+00	0	40	0	531628032	67	4776
2026-01-03 22:07:23.72	97.78	17.49	-47.6	-50.2	17.3	0.00e+00	0	40	0	533725184	67	4700
2026-01-03 22:07:24.72	98.00	17.47	-47.7	-50.3	17.4	0.00e+00	0	40	0	535822336	67	4743
2026-01-03 22:07:25.72	98.23	17.44	-47.5	-50.0	17.6	0.00e+00	0	39	0	536870912	66	4835
2026-01-03 22:07:26.85	98.48	17.42	-47.6	-50.2	17.6	1.83e-05	0	40	0	538968064	66	4933
2026-01-03 22:07:27.71	98.68	17.40	-47.6	-50.2	17.6	0.00e+00	0	40	0	541065216	66	4958
2026-01-03 22:07:29.10	98.99	17.36	-47.4	-49.9	17.6	0.00e+00	0	39	0	543162368	66	4794
2026-01-03 22:07:29.81	99.15	17.34	-47.3	-49.9	17.6	0.00e+00	0	40	0	545259520	66	4790
2026-01-03 22:07:31.10	99.44	17.31	-47.3	-49.9	17.6	0.00e+00	0	39	0	547356672	66	4789
2026-01-03 22:07:31.81	99.60	17.29	-47.3	-49.9	17.5	5.30e-06	0	40	0	548405248	66	4792
2026-01-03 22:07:33.10	99.89	17.26	-47.1	-49.7	17.8	2.51e-05	0	39	0	551550976	65	4929
2026-01-03 22:07:33.90	100.07	17.24	-47.1	-49.6	17.9	0.00e+00	0	40	0	552599552	65	4899
2026-01-03 22:07:35.04	100.32	17.21	-46.8	-49.3	18.1	0.00e+00	0	40	0	554696704	65	4720
2026-01-03 22:07:35.90	100.51	17.18	-47.0	-49.5	18.0	0.00e+00	0	40	0	556793856	65	4839
2026-01-03 22:07:37.05	100.77	17.15	-47.0	-49.5	18.0	0.00e+00	0	40	0	558891008	65	4837
2026-01-03 22:07:37.91	100.96	17.13	-46.9	-49.3	18.1	0.00e+00	0	40	0	559939584	65	4751
2026-01-03 22:07:39.05	101.21	17.10	-47.0	-49.5	18.0	0.00e+00	0	40	0	562036736	65	4818
2026-01-03 22:07:39.91	101.40	17.07	-47.2	-49.7	17.9	0.00e+00	0	40	0	564133888	65	4962
2026-01-03 22:07:41.10	101.66	17.04	-47.1	-49.6	18.0	0.00e+00	0	40	0	566231040	65	4881
2026-01-03 22:07:41.96	101.85	17.01	-47.2	-49.7	17.9	0.00e+00	0	40	0	567279616	65	4937
2026-01-03 22:07:43.10	102.10	16.98	-47.0	-49.5	18.1	0.00e+00	0	40	0	570425344	65	4817
2026-01-03 22:07:43.96	102.29	16.95	-47.1	-49.5	18.1	0.00e+00	0	40	0	571473920	65	4842
2026-01-03 22:07:45.10	102.54	16.92	-47.0	-49.5	18.1	0.00e+00	0	40	0	573571072	65	4849
2026-01-03 22:07:45.96	102.73	16.89	-47.0	-49.5	18.0	0.00e+00	0	39	0	575668224	65	4831
2026-01-03 22:07:47.11	102.98	16.86	-47.2	-49.6	17.9	0.00e+00	0	39	0	577765376	65	4923
2026-01-03 22:07:47.97	103.17	16.83	-47.2	-49.7	17.8	0.00e+00	0	40	0	578813952	65	4931
2026-01-03 22:07:49.12	103.42	16.79	-47.1	-49.6	17.9	0.00e+00	0	39	0	580911104	65	4914
2026-01-03 22:07:50.10	103.63	16.76	-47.1	-49.6	17.9	0.00e+00	0	40	0	583008256	65	4890
2026-01-03 22:07:51.28	103.89	16.72	-47.1	-49.6	18.0	0.00e+00	0	40	0	585105408	65	4877
2026-01-03 22:07:52.14	104.07	16.69	-47.2	-49.7	17.9	0.00e+00	0	40	0	587202560	65	4945
2026-01-03 22:07:53.49	104.36	16.65	-47.3	-49.9	17.6	0.00e+00	0	40	0	589299712	65	5076
2026-01-03 22:07:54.20	104.52	16.62	-47.1	-49.7	17.7	7.00e-07	0	39	0	590348288	65	4932
2026-01-03 22:07:55.50	104.79	16.58	-47.3	-49.8	17.6	0.00e+00	0	40	0	593494016	65	5040
2026-01-03 22:07:56.21	104.95	16.55	-47.2	-49.8	17.6	0.00e+00	0	40	0	594542592	65	5005
2026-01-03 22:07:57.50	105.22	16.51	-47.2	-49.8	17.6	0.00e+00	0	40	0	596639744	65	4986
2026-01-03 22:07:58.22	105.37	16.48	-47.0	-49.5	17.9	0.00e+00	0	40	0	598736896	65	4864
2026-01-03 22:07:59.51	105.65	16.44	-46.8	-49.2	18.1	0.00e+00	0	39	0	600834048	65	4705
2026-01-03 22:08:00.22	105.80	16.41	-46.7	-49.2	18.2	0.00e+00	0	39	0	601882624	65	4661
2026-01-03 22:08:01.51	106.07	16.37	-46.9	-49.4	18.0	0.00e+00	0	40	0	603979776	65	4785
2026-01-03 22:08:02.23	106.22	16.34	-47.1	-49.6	17.8	0.00e+00	0	40	0	606076928	65	4899
2026-01-03 22:08:03.52	106.49	16.29	-47.3	-49.9	17.6	0.00e+00	0	40	0	608174080	65	5069
2026-01-03 22:08:04.23	106.64	16.27	-47.4	-50.0	17.5	0.00e+00	0	40	0	609222656	65	5150
2026-01-03 22:08:05.58	106.93	16.22	-47.2	-49.8	17.6	0.00e+00	0	40	0	612368384	65	5031
2026-01-03 22:08:06.30	107.08	16.19	-47.2	-49.8	17.8	0.00e+00	0	40	0	613416960	65	4994
2026-01-03 22:08:07.58	107.34	16.14	-47.1	-49.7	17.8	0.00e+00	0	40	0	615514112	65	4949
2026-01-03 22:08:08.30	107.49	16.11	-47.0	-49.5	17.9	0.00e+00	0	40	0	617611264	65	4847
2026-01-03 22:08:09.59	107.76	16.06	-47.3	-49.8	17.6	0.00e+00	0	40	0	619708416	65	5041
2026-01-03 22:08:10.30	107.91	16.04	-47.4	-50.0	17.5	0.00e+00	0	40	0	620756992	65	5141
2026-01-03 22:08:11.86	108.23	15.98	-48.0	-50.7	16.9	0.00e+00	0	40	0	623902720	66	5270
2026-01-03 22:08:12.57	108.38	15.95	-48.1	-51.0	16.6	0.00e+00	0	39	0	624951296	66	5430
2026-01-03 22:08:13.86	108.64	15.90	-48.4	-51.3	16.2	0.00e+00	0	39	0	627048448	67	5326
2026-01-03 22:08:14.57	108.79	15.87	-48.4	-51.3	16.2	0.00e+00	0	40	0	629145600	67	5320
2026-01-03 22:08:15.86	109.05	15.82	-48.2	-51.1	16.4	0.00e+00	0	40	0	631242752	67	5201
2026-01-03 22:08:16.58	109.20	15.79	-48.4	-51.3	16.3	0.00e+00	0	40	0	632291328	67	5300
2026-01-03 22:08:17.87	109.46	15.73	-48.0	-50.7	16.9	0.00e+00	0	39	0	635437056	67	4948
2026-01-03 22:08:18.58	109.60	15.70	-47.8	-50.5	17.0	0.00e+00	0	40	0	636485632	67	4843
2026-01-03 22:08:19.87	109.86	15.65	-47.7	-50.3	17.2	0.00e+00	0	40	0	638582784	67	4757
2026-01-03 22:08:20.58	110.00	15.62	-47.6	-50.2	17.2	0.00e+00	0	40	0	640679936	67	4703
2026-01-03 22:08:22.26	110.34	15.55	-47.5	-50.1	17.4	0.00e+00	0	39	0	643825664	66	4914
2026-01-03 22:08:22.83	110.46	15.53	-47.1	-49.7	17.8	0.00e+00	0	39	0	643825664	66	4660
2026-01-03 22:08:24.43	110.77	15.46	-47.1	-49.7	17.7	0.00e+00	0	39	0	646971392	66	4656
2026-01-03 22:08:25.01	110.89	15.43	-47.3	-49.9	17.6	0.00e+00	0	40	0	648019968	66	4788
2026-01-03 22:08:26.63	111.21	15.36	-47.4	-50.0	17.5	0.00e+00	0	40	0	651165696	66	4817
2026-01-03 22:08:27.20	111.32	15.34	-47.4	-50.0	17.4	0.00e+00	0	40	0	652214272	66	4823
2026-01-03 22:08:28.78	111.64	15.27	-47.8	-50.6	17.0	0.00e+00	0	39	0	655360000	66	5184
2026-01-03 22:08:29.37	111.75	15.24	-48.2	-51.0	16.6	0.00e+00	0	39	0	656408576	67	5136
2026-01-03 22:08:30.94	112.06	15.17	-48.8	-51.8	16.1	0.00e+00	0	40	0	659554304	68	5285
2026-01-03 22:08:31.54	112.18	15.15	-48.8	-51.9	15.9	0.00e+00	0	40	0	660602880	68	5345
2026-01-03 22:08:33.12	112.48	15.08	-49.3	-52.5	15.3	0.00e+00	0	40	0	663748608	69	5460
2026-01-03 22:08:33.73	112.60	15.05	-49.3	-52.6	15.2	0.00e+00	0	40	0	664797184	69	5505
2026-01-03 22:08:35.30	112.91	14.98	-49.1	-52.4	15.3	0.00e+00	0	40	0	667942912	69	5367
2026-01-03 22:08:35.89	113.02	14.95	-49.1	-52.3	15.4	0.00e+00	0	40	0	668991488	69	5290
2026-01-03 22:08:37.46	113.32	14.88	-48.8	-51.8	16.0	0.00e+00	0	40	0	672137216	69	5029
2026-01-03 22:08:38.04	113.43	14.85	-48.9	-51.8	16.3	0.00e+00	0	39	0	673185792	69	5008
2026-01-03 22:08:39.63	113.74	14.78	-48.7	-51.6	16.4	0.00e+00	0	40	0	676331520	69	4887
2026-01-03 22:08:40.20	113.84	14.76	-48.6	-51.4	16.6	0.00e+00	0	40	0	677380096	69	4800
2026-01-03 22:08:41.87	114.16	14.68	-48.4	-51.1	16.8	0.00e+00	0	40	0	680525824	68	4916
2026-01-03 22:08:42.45	114.27	14.65	-47.9	-50.6	17.0	0.00e+00	0	40	0	681574400	67	4873
2026-01-03 22:08:44.04	114.57	14.58	-47.8	-50.5	17.0	0.00e+00	0	40	0	683671552	67	4839
2026-01-03 22:08:44.61	114.68	14.55	-47.8	-50.5	17.0	0.00e+00	0	40	0	684720128	67	4834
2026-01-03 22:08:46.55	115.04	14.46	-47.8	-50.5	17.0	0.00e+00	0	40	0	688914432	67	4827
2026-01-03 22:08:47.13	115.15	14.43	-47.8	-50.5	17.0	0.00e+00	0	40	0	689963008	67	4842
2026-01-03 22:08:48.75	115.45	14.35	-48.7	-51.6	16.2	0.00e+00	0	40	0	693108736	68	5192
2026-01-03 22:08:49.32	115.55	14.32	-48.7	-51.6	16.2	0.00e+00	0	40	0	694157312	68	5182
2026-01-03 22:08:50.97	115.86	14.24	-48.9	-51.9	15.7	0.00e+00	0	40	0	697303040	68	5401
2026-01-03 22:08:51.54	115.96	14.22	-48.8	-51.8	16.0	0.00e+00	0	40	0	698351616	68	5323
2026-01-03 22:08:53.12	116.25	14.14	-48.9	-51.9	15.8	0.00e+00	0	39	0	701497344	68	5381
2026-01-03 22:08:53.89	116.39	14.10	-48.8	-51.8	15.9	0.00e+00	0	40	0	702545920	68	5286
2026-01-03 22:08:55.18	116.63	14.04	-48.6	-51.5	16.2	0.00e+00	0	40	0	704643072	68	5115
2026-01-03 22:08:55.90	116.76	14.00	-48.5	-51.4	16.2	0.00e+00	0	40	0	706740224	68	5060
2026-01-03 22:08:57.18	116.99	13.94	-48.2	-51.1	16.5	0.00e+00	0	40	0	708837376	68	4900
2026-01-03 22:08:57.90	117.12	13.91	-48.4	-51.3	16.4	0.00e+00	0	40	0	709885952	68	4992
2026-01-03 22:08:59.19	117.35	13.84	-48.2	-51.0	16.6	0.00e+00	0	40	0	713031680	68	4851
2026-01-03 22:08:59.90	117.48	13.81	-48.3	-51.2	16.3	0.00e+00	0	40	0	714080256	68	4968
2026-01-03 22:09:01.19	117.71	13.74	-48.2	-51.1	16.6	0.00e+00	0	39	0	716177408	68	4878
2026-01-03 22:09:01.92	117.84	13.70	-47.8	-50.6	16.9	0.00e+00	0	40	0	717225984	67	4871
2026-01-03 22:09:03.21	118.07	13.64	-47.8	-50.6	16.8	0.00e+00	0	40	0	720371712	67	4885
2026-01-03 22:09:03.92	118.19	13.60	-47.7	-50.4	16.9	0.00e+00	0	40	0	721420288	67	4799
2026-01-03 22:09:05.20	118.42	13.54	-47.8	-50.5	16.9	0.00e+00	0	40	0	723517440	67	4869
2026-01-03 22:09:05.92	118.54	13.50	-48.1	-50.9	16.6	0.00e+00	0	39	0	725614592	67	5070
2026-01-03 22:09:07.21	118.77	13.44	-48.1	-51.0	16.5	0.00e+00	0	39	0	727711744	67	5122
2026-01-03 22:09:07.92	118.89	13.40	-48.2	-51.1	16.4	0.00e+00	0	40	0	728760320	67	5196
2026-01-03 22:09:09.21	119.12	13.34	-48.3	-51.3	16.2	0.00e+00	0	39	0	730857472	67	5287
2026-01-03 22:09:09.93	119.24	13.30	-48.4	-51.3	16.2	0.00e+00	0	39	0	732954624	67	5323
2026-01-03 22:09:11.22	119.46	13.23	-48.6	-51.6	15.9	0.00e+00	0	40	0	735051776	67	5501
2026-01-03 22:09:12.21	119.63	13.18	-48.5	-51.4	16.2	0.00e+00	0	40	0	737148928	67	5384
2026-01-03 22:09:13.21	119.80	13.13	-48.3	-51.1	16.5	0.00e+00	0	39	0	739246080	67	5207
2026-01-03 22:09:14.21	119.98	13.08	-47.9	-50.6	17.0	0.00e+00	0	40	0	740294656	67	4889
2026-01-03 22:09:15.21	120.15	13.03	-47.7	-50.3	17.3	0.00e+00	0	39	0	742391808	67	4748
2026-01-03 22:09:16.21	120.32	12.97	-47.6	-50.2	17.4	0.00e+00	0	40	0	744488960	67	4682
2026-01-03 22:09:17.21	120.48	12.92	-47.7	-50.3	17.2	0.00e+00	0	40	0	746586112	67	4751
2026-01-03 22:09:18.21	120.65	12.87	-47.8	-50.5	17.0	0.00e+00	0	40	0	748683264	67	4856
2026-01-03 22:09:19.21	120.82	12.82	-47.7	-50.3	17.2	0.00e+00	0	40	0	749731840	67	4747
2026-01-03 22:09:20.26	121.00	12.76	-47.9	-50.6	16.9	0.00e+00	0	40	0	751828992	67	4918
2026-01-03 22:09:21.20	121.15	12.71	-47.8	-50.5	17.0	0.00e+00	0	40	0	753926144	67	4861
2026-01-03 22:09:22.36	121.34	12.65	-47.8	-50.6	16.9	0.00e+00	0	40	0	756023296	67	4921
2026-01-03 22:09:23.25	121.49	12.60	-48.1	-50.8	16.7	0.00e+00	0	39	0	758120448	67	5038
2026-01-03 22:09:24.61	121.72	12.53	-48.1	-50.9	16.5	0.00e+00	0	40	0	760217600	67	5084
2026-01-03 22:09:25.32	121.83	12.49	-48.1	-51.0	16.6	0.00e+00	0	39	0	761266176	67	5112
2026-01-03 22:09:26.60	122.04	12.43	-47.9	-50.7	16.9	0.00e+00	0	40	0	764411904	67	4928
2026-01-03 22:09:27.32	122.16	12.39	-48.1	-50.8	16.7	0.00e+00	0	40	0	765460480	67	5017
2026-01-03 22:09:28.61	122.37	12.32	-48.1	-50.8	16.7	0.00e+00	0	40	0	767557632	67	5037
2026-01-03 22:09:29.33	122.49	12.28	-48.0	-50.7	16.8	0.00e+00	0	39	0	768606208	67	4980
2026-01-03 22:09:30.61	122.69	12.21	-47.9	-50.6	16.9	0.00e+00	0	39	0	771751936	67	4909
2026-01-03 22:09:31.33	122.81	12.17	-47.9	-50.7	16.8	0.00e+00	0	40	0	772800512	67	4941
2026-01-03 22:09:32.62	123.01	12.11	-47.7	-50.3	17.1	0.00e+00	0	40	0	774897664	67	4746
2026-01-03 22:09:33.34	123.13	12.07	-47.4	-50.1	17.2	0.00e+00	0	39	0	776994816	66	4909
2026-01-03 22:09:34.67	123.34	12.00	-47.2	-49.8	17.5	0.00e+00	0	40	0	779091968	66	4743
2026-01-03 22:09:35.72	123.51	11.94	-47.1	-49.7	17.6	0.00e+00	0	40	0	781189120	66	4671
2026-01-03 22:09:36.60	123.65	11.89	-47.1	-49.6	17.6	0.00e+00	0	40	0	782237696	65	4894
2026-01-03 22:09:37.74	123.83	11.83	-47.1	-49.6	17.6	0.00e+00	0	40	0	785383424	65	4914
2026-01-03 22:09:38.60	123.96	11.78	-47.1	-49.7	17.6	0.00e+00	0	40	0	786432000	65	4962
2026-01-03 22:09:39.75	124.14	11.72	-47.2	-49.9	17.4	0.00e+00	0	39	0	788529152	65	5072
2026-01-03 22:09:40.61	124.27	11.67	-47.4	-50.0	17.3	0.00e+00	0	40	0	790626304	65	5117
2026-01-03 22:09:41.90	124.47	11.60	-47.4	-50.1	17.2	0.00e+00	0	40	0	792723456	65	5207
2026-01-03 22:09:42.62	124.58	11.56	-47.7	-50.4	16.9	0.00e+00	0	40	0	793772032	66	5088
2026-01-03 22:09:43.91	124.78	11.49	-47.9	-50.7	16.7	0.00e+00	0	39	0	796917760	66	5237
2026-01-03 22:09:44.62	124.89	11.46	-47.8	-50.6	16.8	0.00e+00	0	40	0	797966336	66	5188
2026-01-03 22:09:45.90	125.09	11.39	-47.6	-50.3	17.1	0.00e+00	0	39	0	800063488	66	4992
2026-01-03 22:09:46.67	125.20	11.34	-47.4	-50.1	17.2	0.00e+00	0	40	0	801112064	66	4885
2026-01-03 22:09:48.28	125.45	11.26	-47.6	-50.3	17.1	0.00e+00	0	39	0	804257792	66	5019
2026-01-03 22:09:48.85	125.53	11.22	-47.5	-50.2	17.2	0.00e+00	0	40	0	805306368	66	4948
2026-01-03 22:09:50.44	125.77	11.14	-47.6	-50.3	17.1	0.00e+00	0	39	0	808452096	66	4994
2026-01-03 22:09:51.03	125.86	11.11	-47.6	-50.3	17.0	0.00e+00	0	40	0	809500672	66	5015
2026-01-03 22:09:52.60	126.10	11.02	-47.9	-50.7	16.7	0.00e+00	0	40	0	812646400	66	5224
2026-01-03 22:09:53.21	126.19	10.99	-47.8	-50.6	16.7	0.00e+00	0	40	0	813694976	66	5196
2026-01-03 22:09:54.78	126.42	10.90	-48.0	-50.8	16.5	0.00e+00	0	40	0	816840704	66	5328
2026-01-03 22:09:55.38	126.51	10.87	-47.9	-50.8	16.5	0.00e+00	0	39	0	817889280	66	5304
2026-01-03 22:09:56.96	126.74	10.78	-47.9	-50.7	16.6	0.00e+00	0	40	0	821035008	66	5250
2026-01-03 22:09:57.56	126.83	10.75	-47.7	-50.5	16.8	0.00e+00	0	39	0	822083584	66	5131
2026-01-03 22:09:59.13	127.06	10.66	-47.8	-50.5	16.7	0.00e+00	0	40	0	825229312	66	5147
2026-01-03 22:09:59.77	127.15	10.62	-47.7	-50.4	16.8	0.00e+00	0	39	0	826277888	66	5068
2026-01-03 22:10:01.21	127.36	10.54	-47.8	-50.5	16.8	0.00e+00	0	39	0	828375040	66	5148
2026-01-03 22:10:01.93	127.46	10.50	-47.8	-50.6	16.7	0.00e+00	0	39	0	830472192	66	5203
2026-01-03 22:10:03.29	127.66	10.43	-48.0	-50.8	16.5	0.00e+00	0	39	0	832569344	66	5334
2026-01-03 22:10:04.01	127.76	10.39	-48.2	-51.1	16.2	0.00e+00	0	40	0	833617920	66	5506
2026-01-03 22:10:05.30	127.94	10.32	-48.3	-51.4	16.0	0.00e+00	0	40	0	836763648	67	5356
2026-01-03 22:10:06.02	128.04	10.28	-48.6	-51.8	15.6	0.00e+00	0	39	0	837812224	67	5620
2026-01-03 22:10:07.30	128.23	10.21	-48.9	-52.2	15.4	0.00e+00	0	39	0	839909376	68	5543
2026-01-03 22:10:08.02	128.33	10.17	-48.8	-52.1	15.5	0.00e+00	0	40	0	842006528	68	5466
2026-01-03 22:10:09.30	128.51	10.10	-49.1	-52.4	15.2	0.00e+00	0	40	0	844103680	68	5690
2026-01-03 22:10:10.02	128.61	10.06	-48.9	-52.1	15.4	0.00e+00	0	39	0	845152256	68	5515
2026-01-03 22:10:11.31	128.79	9.98	-48.8	-52.1	15.4	0.00e+00	0	40	0	848297984	68	5478
2026-01-03 22:10:12.02	128.89	9.94	-48.7	-51.9	15.5	0.00e+00	0	40	0	849346560	68	5387
2026-01-03 22:10:13.31	129.06	9.87	-48.5	-51.6	15.7	0.00e+00	0	40	0	851443712	68	5206
2026-01-03 22:10:14.03	129.16	9.83	-48.6	-51.8	15.6	0.00e+00	0	39	0	852492288	68	5315
2026-01-03 22:10:15.31	129.34	9.76	-48.7	-51.9	15.5	0.00e+00	0	40	0	855638016	68	5364
2026-01-03 22:10:16.03	129.44	9.72	-48.5	-51.7	15.6	0.00e+00	0	40	0	856686592	68	5262
2026-01-03 22:10:17.32	129.61	9.65	-48.7	-51.9	15.4	0.00e+00	0	39	0	858783744	68	5390
2026-01-03 22:10:18.04	129.71	9.61	-48.7	-51.9	15.4	0.00e+00	0	40	0	860880896	68	5392
2026-01-03 22:10:19.32	129.88	9.54	-48.9	-52.2	15.1	0.00e+00	0	40	0	862978048	68	5580
2026-01-03 22:10:20.04	129.98	9.50	-48.7	-51.8	15.5	0.00e+00	0	40	0	864026624	68	5324
2026-01-03 22:10:21.33	130.15	9.43	-48.7	-51.9	15.5	0.00e+00	0	39	0	866123776	68	5373
2026-01-03 22:10:22.04	130.25	9.39	-48.6	-51.7	15.6	0.00e+00	0	40	0	868220928	68	5270
2026-01-03 22:10:23.33	130.42	9.31	-48.6	-51.7	15.6	0.00e+00	0	40	0	870318080	68	5266
2026-01-03 22:10:24.05	130.52	9.27	-48.7	-51.8	15.6	0.00e+00	0	39	0	871366656	68	5304
2026-01-03 22:10:25.34	130.69	9.20	-48.6	-51.7	15.6	0.00e+00	0	40	0	874512384	68	5268
2026-01-03 22:10:26.05	130.78	9.16	-48.6	-51.8	15.6	0.00e+00	0	39	0	875560960	68	5291
2026-01-03 22:10:27.33	130.95	9.09	-48.8	-52.0	15.3	0.00e+00	0	40	0	877658112	68	5440
2026-01-03 22:10:28.16	131.06	9.04	-48.7	-52.0	15.3	0.00e+00	0	40	0	879755264	68	5419
2026-01-03 22:10:29.31	131.21	8.98	-53.5	-68.6	3.8	1.36e+00	0	40	104	880803840	77	21987
2026-01-03 22:10:30.17	131.32	8.93	-53.8	-69.0	3.8	1.49e+00	0	40	104	880803840	78	21585
2026-01-03 22:10:31.32	131.47	8.87	-53.9	-69.1	3.8	1.49e+00	0	40	104	880803840	78	21801
2026-01-03 22:10:32.18	131.58	8.82	-53.9	-69.1	3.8	1.49e+00	0	40	104	880803840	78	21920
2026-01-03 22:10:33.34	131.73	8.76	-54.1	-69.2	3.8	1.49e+00	0	40	104	880803840	78	22071
2026-01-03 22:10:34.20	131.84	8.71	-54.0	-69.3	3.8	1.49e+00	0	40	104	880803840	79	21089
2026-01-03 22:10:35.43	131.99	8.64	-54.0	-69.2	3.8	1.49e+00	0	40	104	880803840	79	21002
2026-01-03 22:10:36.29	132.10	8.59	-53.9	-69.2	3.8	1.49e+00	0	40	104	880803840	79	20936
2026-01-03 22:10:37.48	132.25	8.52	-54.2	-69.3	3.8	1.49e+00	0	39	104	880803840	79	21185
2026-01-03 22:10:38.34	132.36	8.48	-54.2	-69.3	3.8	1.49e+00	0	40	104	880803840	79	21185
2026-01-03 22:10:39.57	132.51	8.41	-54.1	-69.4	3.8	1.49e+00	0	40	104	880803840	79	21476
2026-01-03 22:10:40.43	132.62	8.36	-54.2	-69.5	3.8	1.49e+00	0	40	104	880803840	79	21577
2026-01-03 22:10:41.64	132.77	8.29	-54.1	-69.5	3.8	1.49e+00	0	40	104	880803840	79	21577
2026-01-03 22:10:42.50	132.88	8.24	-53.9	-69.3	3.8	1.49e+00	0	40	104	880803840	79	21243
2026-01-03 22:10:43.71	133.03	8.18	-54.0	-69.3	3.8	1.49e+00	0	40	104	880803840	79	21209
2026-01-03 22:10:44.57	133.13	8.13	-54.0	-69.4	3.8	1.49e+00	0	40	104	880803840	79	21320
2026-01-03 22:10:45.71	133.27	8.06	-54.0	-69.5	3.8	1.49e+00	0	40	104	880803840	79	21619
2026-01-03 22:10:46.58	133.38	8.02	-53.9	-69.4	3.8	1.49e+00	0	40	104	880803840	79	21337
2026-01-03 22:10:47.72	133.52	7.95	-53.9	-69.4	3.8	1.49e+00	0	40	104	880803840	79	21379
2026-01-03 22:10:48.58	133.62	7.90	-54.0	-69.5	3.8	1.49e+00	0	40	104	880803840	79	21602
2026-01-03 22:10:49.73	133.76	7.84	-54.0	-69.4	3.8	1.49e+00	0	40	104	880803840	79	21273
2026-01-03 22:10:50.59	133.87	7.79	-54.0	-69.4	3.8	1.49e+00	0	40	104	880803840	79	21390
2026-01-03 22:10:51.74	134.00	7.73	-54.0	-69.5	3.8	1.49e+00	0	40	104	880803840	79	21533
2026-01-03 22:10:52.60	134.11	7.68	-54.0	-69.4	3.8	1.49e+00	0	40	104	880803840	79	21476
2026-01-03 22:10:53.75	134.24	7.62	-54.0	-69.4	3.8	1.49e+00	0	40	104	880803840	79	21374
2026-01-03 22:10:54.61	134.34	7.57	-54.0	-69.4	3.8	1.49e+00	0	40	104	880803840	79	21470
2026-01-03 22:10:55.76	134.48	7.51	-54.0	-69.4	3.8	1.49e+00	0	39	104	880803840	79	21471
2026-01-03 22:10:56.62	134.58	7.46	-54.0	-69.4	3.8	1.49e+00	0	40	104	880803840	79	21271
2026-01-03 22:10:57.77	134.72	7.39	-53.9	-69.3	3.8	1.49e+00	0	40	104	880803840	79	21113
2026-01-03 22:10:58.63	134.82	7.35	-53.9	-69.3	3.8	1.49e+00	0	39	104	880803840	79	21140
2026-01-03 22:10:59.77	134.95	7.28	-53.9	-69.2	3.8	1.49e+00	0	40	104	880803840	79	20961
2026-01-03 22:11:00.63	135.05	7.23	-53.8	-69.2	3.8	1.49e+00	0	40	104	880803840	79	21013
2026-01-03 22:11:01.78	135.18	7.17	-53.8	-69.2	3.8	1.49e+00	0	40	104	880803840	79	20892
2026-01-03 22:11:02.64	135.28	7.12	-53.8	-69.2	3.8	1.49e+00	0	40	104	880803840	79	20836
2026-01-03 22:11:03.79	135.41	7.06	-53.8	-69.2	3.8	1.49e+00	0	40	104	880803840	79	20804
2026-01-03 22:11:04.65	135.51	7.01	-53.8	-69.2	3.8	1.49e+00	0	40	104	880803840	79	20917
2026-01-03 22:11:05.80	135.64	6.95	-53.8	-69.2	3.8	1.49e+00	0	39	104	880803840	79	21005
2026-01-03 22:11:06.66	135.74	6.90	-53.8	-69.2	3.8	1.49e+00	0	40	104	880803840	79	20934
2026-01-03 22:11:07.81	135.87	6.84	-54.0	-69.4	3.8	1.49e+00	0	40	104	880803840	79	21328
2026-01-03 22:11:08.67	135.97	6.79	-53.9	-69.4	3.8	1.49e+00	0	39	104	880803840	79	21264
2026-01-03 22:11:09.82	136.10	6.73	-53.9	-69.2	3.8	1.49e+00	0	40	104	880803840	79	20924
2026-01-03 22:11:10.68	136.19	6.68	-54.0	-69.3	3.8	1.49e+00	0	40	104	880803840	79	21215
2026-01-03 22:11:11.82	136.32	6.62	-53.9	-69.3	3.8	1.49e+00	0	40	104	880803840	79	21181
2026-01-03 22:11:12.69	136.41	6.57	-54.0	-69.3	3.8	1.49e+00	0	40	104	880803840	79	21254
2026-01-03 22:11:13.83	136.54	6.50	-53.9	-69.3	3.8	1.49e+00	0	40	104	880803840	79	21217
2026-01-03 22:11:14.70	136.64	6.46	-53.9	-69.3	3.8	1.49e+00	0	39	104	880803840	79	21088
2026-01-03 22:11:15.84	136.76	6.39	-53.9	-69.2	3.8	1.49e+00	0	40	104	880803840	79	20992
2026-01-03 22:11:16.70	136.86	6.35	-53.9	-69.3	3.8	1.49e+00	0	39	104	880803840	79	21082
2026-01-03 22:11:17.85	136.98	6.28	-53.8	-69.2	3.8	1.49e+00	0	40	104	880803840	79	20956
2026-01-03 22:11:18.71	137.07	6.24	-54.0	-69.4	3.8	1.49e+00	0	40	104	880803840	79	21334
2026-01-03 22:11:19.86	137.20	6.17	-53.9	-69.3	3.8	1.49e+00	0	40	104	880803840	79	21153
2026-01-03 22:11:20.72	137.29	6.13	-53.9	-69.3	3.8	1.49e+00	0	40	104	880803840	79	21038
2026-01-03 22:11:21.87	137.41	6.06	-54.0	-69.4	3.8	1.49e+00	0	40	104	880803840	79	21374
2026-01-03 22:11:22.73	137.51	6.01	-53.9	-69.3	3.8	1.49e+00	0	40	104	880803840	79	21136
2026-01-03 22:11:23.88	137.63	5.95	-53.9	-69.3	3.8	1.49e+00	0	40	104	880803840	79	21205
2026-01-03 22:11:24.74	137.72	5.90	-53.9	-69.3	3.8	1.49e+00	0	40	104	880803840	79	21106
2026-01-03 22:11:25.89	137.84	5.84	-53.9	-69.2	3.8	1.49e+00	0	40	104	880803840	79	20979
2026-01-03 22:11:26.75	137.93	5.79	-53.9	-69.3	3.8	1.49e+00	0	40	104	880803840	79	21145
2026-01-03 22:11:27.89	138.05	5.73	-53.9	-69.3	3.8	1.49e+00	0	40	104	880803840	79	21048
2026-01-03 22:11:28.75	138.14	5.69	-53.9	-69.3	3.8	1.49e+00	0	40	104	880803840	79	21070
2026-01-03 22:11:29.90	138.26	5.62	-53.8	-69.3	3.8	1.49e+00	0	40	104	880803840	79	21053
2026-01-03 22:11:30.76	138.35	5.58	-53.9	-69.3	3.8	1.49e+00	0	40	104	880803840	79	21151
2026-01-03 22:11:31.91	138.47	5.51	-54.0	-69.3	3.8	1.49e+00	0	40	104	880803840	79	21247
2026-01-03 22:11:32.77	138.56	5.47	-53.9	-69.3	3.8	1.49e+00	0	40	104	880803840	79	21078
2026-01-03 22:11:33.92	138.68	5.40	-53.9	-69.3	3.8	1.49e+00	0	40	104	880803840	79	21213
2026-01-03 22:11:34.78	138.77	5.36	-53.9	-69.3	3.8	1.49e+00	0	40	104	880803840	79	21246
2026-01-03 22:11:35.93	138.88	5.29	-53.9	-69.3	3.8	1.49e+00	0	40	104	880803840	79	21126
2026-01-03 22:11:36.79	138.97	5.25	-53.9	-69.3	3.8	1.49e+00	0	40	104	880803840	79	21256
2026-01-03 22:11:37.94	139.09	5.18	-53.9	-69.3	3.8	1.49e+00	0	40	104	880803840	79	21250
2026-01-03 22:11:38.80	139.17	5.14	-54.0	-69.3	3.8	1.49e+00	0	40	104	880803840	79	21248
2026-01-03 22:11:39.95	139.29	5.08	-53.9	-69.3	3.8	1.49e+00	0	40	104	880803840	79	21245
2026-01-03 22:11:40.81	139.38	5.03	-54.0	-69.4	3.8	1.49e+00	0	40	104	880803840	79	21395
2026-01-03 22:11:41.96	139.49	4.97	-54.0	-69.4	3.8	1.49e+00	0	40	104	880803840	79	21443

#Closed at: 2026-01-03 22:11:42
#Recorded file [880 MB]: D:/Data/31040_260104_010124.dat