passes_logs/2026/01/03/T1/T1__20260103_011704_AQUA_rec.log

#Pass ID: 20260103_011704_AQUA
#Satellite: AQUA
#Configuration: AQUA
#almurnet v.1.7.20251203
#Start time: 2026-01-03 01:17:04

#Version: 2.0.20230620
#Station: T1
#Location: 37.570604 lon 55.790049 lat
#TLE: 1 27424U 02022A   25365.92641127  .00002078  00000+0  42628-3 0  9999
#TLE: 2 27424  98.4058 327.1196 0001962  94.7781 340.6230 14.61783896258835

#Time	Az	El	Level	Level2	SNR	BER	BlckErr	Temp	State	Recorded	gain1	gain2
2026-01-03 01:17:04.06	16.33	4.99	-47.6	-70.7	3.8	7.47e-01	0	41	0	0	67	49835
2026-01-03 01:17:05.06	16.34	5.06	-47.4	-70.7	3.8	7.44e-01	0	41	104	0	65	55625
2026-01-03 01:17:06.07	16.34	5.14	-47.4	-70.7	3.8	7.44e-01	0	41	104	0	65	55877
2026-01-03 01:17:07.07	16.35	5.21	-47.5	-70.7	3.8	7.46e-01	0	41	104	0	65	55850
2026-01-03 01:17:08.07	16.36	5.29	-47.5	-70.7	3.8	7.45e-01	0	41	104	0	65	55769
2026-01-03 01:17:09.08	16.37	5.36	-47.5	-70.7	3.8	7.45e-01	0	41	104	0	65	55701
2026-01-03 01:17:10.08	16.38	5.44	-47.5	-70.7	3.8	7.47e-01	0	41	104	0	65	55483
2026-01-03 01:17:11.08	16.38	5.51	-47.4	-70.7	3.8	7.46e-01	0	41	104	0	65	55287
2026-01-03 01:17:12.09	16.39	5.59	-47.4	-70.6	3.8	7.43e-01	0	41	104	0	65	55075
2026-01-03 01:17:13.09	16.40	5.67	-47.4	-70.6	3.8	7.46e-01	0	41	104	0	65	54837
2026-01-03 01:17:14.09	16.41	5.74	-47.4	-70.5	3.8	7.46e-01	0	41	104	0	65	54584
2026-01-03 01:17:15.10	16.41	5.82	-47.4	-70.5	3.8	7.45e-01	0	41	104	0	65	54530
2026-01-03 01:17:16.10	16.42	5.90	-47.4	-70.5	3.8	7.46e-01	0	41	104	0	65	54489
2026-01-03 01:17:17.11	16.43	5.98	-47.4	-70.5	3.8	7.49e-01	0	41	104	0	65	54601
2026-01-03 01:17:18.11	16.44	6.06	-47.4	-70.6	3.8	7.47e-01	0	41	104	0	65	54810
2026-01-03 01:17:19.11	16.45	6.13	-47.4	-70.6	3.8	7.44e-01	0	41	104	0	65	55146
2026-01-03 01:17:20.12	16.45	6.21	-47.4	-70.7	3.8	7.47e-01	0	42	104	0	65	55379
2026-01-03 01:17:21.12	16.46	6.29	-47.4	-70.7	3.8	7.46e-01	0	41	104	0	65	55552
2026-01-03 01:17:22.13	16.47	6.37	-47.4	-70.7	3.8	7.46e-01	0	41	104	0	65	55743
2026-01-03 01:17:23.13	16.48	6.45	-47.5	-70.7	3.8	7.45e-01	0	42	104	0	65	55783
2026-01-03 01:17:24.13	16.49	6.53	-47.5	-70.7	3.8	7.46e-01	0	41	104	0	65	55602
2026-01-03 01:17:25.14	16.49	6.61	-47.4	-70.7	3.8	7.48e-01	0	42	104	0	65	55386
2026-01-03 01:17:26.14	16.50	6.69	-47.4	-70.6	3.8	7.49e-01	0	42	104	0	65	55252
2026-01-03 01:17:27.14	16.51	6.77	-47.4	-70.6	3.8	7.45e-01	0	42	104	0	65	54969
2026-01-03 01:17:28.15	16.52	6.85	-47.4	-70.6	3.8	7.43e-01	0	42	104	0	65	54947
2026-01-03 01:17:29.15	16.53	6.93	-47.4	-70.6	3.8	7.44e-01	0	42	104	0	65	55013
2026-01-03 01:17:30.16	16.54	7.01	-47.4	-70.6	3.8	7.49e-01	0	42	104	0	65	55038
2026-01-03 01:17:31.16	16.54	7.10	-47.4	-70.6	3.8	7.43e-01	0	42	104	0	65	55008
2026-01-03 01:17:32.17	16.55	7.18	-47.4	-70.5	3.8	7.44e-01	0	42	104	0	65	54519
2026-01-03 01:17:33.17	16.56	7.26	-47.4	-70.3	3.8	7.43e-01	0	42	104	0	65	53320
2026-01-03 01:17:34.17	16.57	7.34	-47.4	-70.0	3.8	7.45e-01	0	42	104	0	65	51296
2026-01-03 01:17:35.18	16.58	7.43	-47.4	-69.5	3.8	7.45e-01	0	42	104	0	65	48620
2026-01-03 01:17:36.18	16.59	7.51	-47.3	-69.0	3.8	7.48e-01	0	42	104	0	65	45660
2026-01-03 01:17:37.18	16.59	7.59	-47.3	-68.5	3.8	7.42e-01	0	42	104	0	65	42985
2026-01-03 01:17:38.19	16.60	7.68	-47.2	-67.9	3.8	7.47e-01	0	42	104	0	65	40331
2026-01-03 01:17:39.19	16.61	7.76	-47.1	-67.4	3.8	7.46e-01	0	42	104	0	65	38015
2026-01-03 01:17:40.20	16.62	7.84	-47.1	-67.0	3.8	7.45e-01	0	42	104	0	65	36258
2026-01-03 01:17:41.20	16.63	7.93	-47.0	-66.6	3.8	7.43e-01	0	42	104	0	65	34680
2026-01-03 01:17:42.21	16.64	8.01	-47.0	-66.3	3.8	7.47e-01	0	42	104	0	65	33538
2026-01-03 01:17:43.21	16.64	8.10	-47.0	-66.1	3.8	7.49e-01	0	42	104	0	65	32918
2026-01-03 01:17:44.22	16.65	8.19	-46.9	-66.0	3.8	7.47e-01	0	42	104	0	65	32295
2026-01-03 01:17:45.22	16.66	8.27	-46.9	-65.9	3.8	7.46e-01	0	42	104	0	65	31904
2026-01-03 01:17:46.23	16.67	8.36	-46.8	-65.8	3.8	7.44e-01	0	42	104	0	65	31631
2026-01-03 01:17:47.23	16.68	8.44	-46.9	-65.7	3.8	7.47e-01	0	42	104	0	65	31342
2026-01-03 01:17:48.23	16.69	8.53	-46.9	-65.7	3.8	7.44e-01	0	42	104	0	65	31139
2026-01-03 01:17:49.24	16.70	8.62	-46.8	-65.6	3.8	7.46e-01	0	42	104	0	65	30739
2026-01-03 01:17:50.24	16.71	8.71	-46.9	-65.5	3.8	7.47e-01	0	42	104	0	65	30672
2026-01-03 01:17:51.25	16.71	8.79	-46.9	-65.6	3.8	7.47e-01	0	43	104	0	65	31018
2026-01-03 01:17:52.25	16.72	8.88	-46.9	-65.7	3.8	7.46e-01	0	42	104	0	65	31409
2026-01-03 01:17:53.25	16.73	8.97	-46.9	-66.0	3.8	7.47e-01	0	42	104	0	65	32337
2026-01-03 01:17:54.26	16.74	9.06	-47.0	-66.4	3.8	7.46e-01	0	42	104	0	65	33847
2026-01-03 01:17:55.26	16.75	9.15	-47.3	-67.8	3.8	7.44e-01	0	42	104	0	65	40025
2026-01-03 01:17:56.26	16.76	9.24	-48.1	-70.6	3.8	7.43e-01	0	42	104	0	67	49261
2026-01-03 01:17:57.26	16.77	9.33	-44.8	-59.2	3.8	7.46e-01	0	43	104	0	61	18552
2026-01-03 01:17:58.27	16.78	9.42	-45.3	-60.1	3.8	7.47e-01	0	43	104	0	62	19506
2026-01-03 01:17:59.27	16.79	9.51	-45.3	-60.9	3.9	7.45e-01	0	43	104	0	62	21475
2026-01-03 01:18:00.29	16.79	9.60	-46.0	-61.1	3.8	7.46e-01	0	43	104	0	62	21897
2026-01-03 01:18:01.30	16.80	9.70	-45.7	-60.6	3.8	7.49e-01	0	43	104	0	62	20686
2026-01-03 01:18:02.36	16.81	9.79	-45.4	-60.2	3.8	7.48e-01	0	43	104	0	62	19745
2026-01-03 01:18:03.26	16.82	9.88	-45.1	-59.6	3.8	7.44e-01	0	43	104	0	62	18444
2026-01-03 01:18:04.29	16.83	9.97	-44.8	-58.9	3.8	7.44e-01	0	43	104	0	61	17892
2026-01-03 01:18:05.29	16.84	10.06	-45.6	-60.0	3.8	7.48e-01	0	42	104	0	61	20335
2026-01-03 01:18:06.29	16.85	10.16	-49.9	-70.7	3.8	7.46e-01	0	42	104	0	70	41593
2026-01-03 01:18:07.56	16.86	10.28	-45.0	-58.9	3.8	7.51e-01	0	43	104	0	62	16900
2026-01-03 01:18:08.28	16.87	10.34	-45.9	-61.1	3.9	7.42e-01	0	43	104	0	62	21983
2026-01-03 01:18:09.57	16.88	10.46	-44.7	-58.5	3.8	7.44e-01	0	43	104	0	61	17126
2026-01-03 01:18:10.29	16.89	10.53	-44.5	-58.2	3.8	7.48e-01	0	42	104	0	60	17639
2026-01-03 01:18:11.57	16.90	10.65	-44.4	-57.8	3.8	7.46e-01	0	42	104	0	60	16867
2026-01-03 01:18:12.29	16.91	10.72	-44.3	-57.7	3.8	7.48e-01	0	43	104	0	60	16588
2026-01-03 01:18:13.58	16.92	10.85	-44.8	-58.2	3.8	7.43e-01	0	43	104	0	60	17595
2026-01-03 01:18:14.30	16.92	10.92	-46.2	-60.2	3.8	7.48e-01	0	43	104	0	62	19687
2026-01-03 01:18:15.67	16.94	11.05	-48.2	-63.6	3.9	7.44e-01	0	42	104	0	68	20644
2026-01-03 01:18:16.39	16.94	11.12	-46.6	-60.8	3.8	7.45e-01	0	43	104	0	65	17766
2026-01-03 01:18:17.74	16.96	11.25	-46.5	-60.9	3.8	7.46e-01	0	43	104	0	65	18039
2026-01-03 01:18:18.45	16.96	11.32	-46.3	-60.4	3.8	7.42e-01	0	42	104	0	64	18024
2026-01-03 01:18:19.74	16.98	11.45	-46.0	-59.9	3.8	7.45e-01	0	43	104	0	63	17973
2026-01-03 01:18:20.46	16.98	11.52	-46.1	-59.8	3.8	7.47e-01	0	43	104	0	63	17807
2026-01-03 01:18:21.75	17.00	11.65	-45.6	-58.9	3.8	7.45e-01	0	43	104	0	62	16949
2026-01-03 01:18:22.46	17.00	11.72	-45.5	-58.6	3.8	7.43e-01	0	43	104	0	62	16464
2026-01-03 01:18:23.75	17.02	11.85	-50.1	-70.1	3.6	7.48e-01	0	43	104	0	70	39124
2026-01-03 01:18:24.47	17.02	11.92	-49.6	-67.2	4.0	7.43e-01	0	43	104	0	71	26280
2026-01-03 01:18:25.76	17.04	12.05	-45.9	-59.2	3.8	7.44e-01	0	43	104	0	63	16654
2026-01-03 01:18:26.47	17.04	12.13	-46.0	-59.4	3.8	7.40e-01	0	43	104	0	63	16952
2026-01-03 01:18:27.76	17.06	12.26	-45.4	-58.4	3.8	7.46e-01	0	43	104	0	62	16106
2026-01-03 01:18:28.48	17.06	12.33	-45.4	-58.3	3.9	7.41e-01	0	43	104	0	62	15800
2026-01-03 01:18:29.76	17.08	12.46	-45.4	-58.4	3.8	7.50e-01	0	43	104	0	62	15956
2026-01-03 01:18:30.67	17.09	12.56	-44.9	-48.3	21.5	6.04e-01	0	43	0	0	61	5312
2026-01-03 01:18:32.00	17.10	12.70	-45.0	-48.4	21.3	6.05e-01	0	43	0	2621440	61	5367
2026-01-03 01:18:32.72	17.11	12.77	-44.8	-48.1	21.6	6.04e-01	0	43	0	3670016	61	5182
2026-01-03 01:18:34.01	17.12	12.91	-44.0	-47.0	22.7	6.04e-01	0	43	0	6291456	60	4859
2026-01-03 01:18:34.73	17.13	12.99	-44.3	-47.3	22.6	6.04e-01	0	43	0	7864320	59	5283
2026-01-03 01:18:36.01	17.14	13.12	-43.7	-46.6	23.3	6.04e-01	0	43	0	9961472	59	4876
2026-01-03 01:18:36.73	17.15	13.20	-43.5	-46.3	23.5	6.04e-01	0	43	0	11534336	59	4751
2026-01-03 01:18:38.02	17.16	13.34	-43.3	-46.0	23.8	6.05e-01	0	43	0	13631488	58	4852
2026-01-03 01:18:38.74	17.17	13.42	-43.2	-45.9	23.9	6.02e-01	0	43	0	15204352	58	4811
2026-01-03 01:18:40.06	17.18	13.56	-43.1	-45.8	24.0	6.04e-01	0	43	0	17825792	58	4749
2026-01-03 01:18:40.78	17.19	13.64	-43.0	-45.7	24.1	6.05e-01	0	43	0	18874368	58	4702
2026-01-03 01:18:42.13	17.21	13.79	-43.0	-45.7	24.2	6.03e-01	0	43	0	21495808	58	4673
2026-01-03 01:18:42.84	17.21	13.87	-43.0	-45.7	24.2	6.03e-01	0	43	0	23068672	58	4672
2026-01-03 01:18:44.13	17.23	14.01	-43.1	-45.7	24.1	6.01e-01	0	43	0	25165824	58	4679
2026-01-03 01:18:44.85	17.24	14.09	-43.0	-45.6	24.2	6.06e-01	0	43	0	26738688	58	4613
2026-01-03 01:18:46.26	17.25	14.25	-43.0	-45.5	24.3	6.02e-01	0	43	0	29360128	58	4576
2026-01-03 01:18:47.23	17.26	14.36	-43.0	-45.6	24.2	6.03e-01	0	43	0	30932992	57	4897
2026-01-03 01:18:48.23	17.27	14.47	-42.9	-45.5	24.4	6.04e-01	0	43	0	33030144	57	4831
2026-01-03 01:18:49.24	17.28	14.58	-42.9	-45.4	24.4	6.02e-01	0	43	0	35127296	57	4810
2026-01-03 01:18:50.24	17.30	14.70	-43.0	-45.5	24.3	6.04e-01	0	43	0	36700160	57	4864
2026-01-03 01:18:51.24	17.31	14.81	-43.0	-45.5	24.4	6.06e-01	0	43	0	38797312	57	4853
2026-01-03 01:18:52.25	17.32	14.93	-43.0	-45.5	24.3	6.03e-01	0	43	0	40370176	57	4866
2026-01-03 01:18:53.28	17.33	15.05	-43.0	-45.5	24.4	6.05e-01	0	43	0	42467328	57	4853
2026-01-03 01:18:54.28	17.34	15.17	-43.1	-45.6	24.3	6.06e-01	0	43	0	44564480	57	4881
2026-01-03 01:18:55.35	17.35	15.29	-43.1	-45.7	24.2	6.01e-01	0	43	0	46137344	57	4930
2026-01-03 01:18:56.20	17.36	15.40	-43.1	-45.7	24.2	6.05e-01	0	43	0	47710208	57	4954
2026-01-03 01:18:57.57	17.38	15.56	-43.0	-45.6	24.3	6.03e-01	0	43	0	50331648	57	4900
2026-01-03 01:18:58.29	17.39	15.64	-43.0	-45.6	24.3	6.05e-01	0	43	0	51904512	57	4900
2026-01-03 01:18:59.58	17.40	15.80	-43.1	-45.7	24.2	6.01e-01	0	43	0	54525952	57	4944
2026-01-03 01:19:00.30	17.41	15.89	-43.1	-45.8	24.2	6.06e-01	0	43	0	55574528	57	4992
2026-01-03 01:19:01.59	17.43	16.04	-43.1	-45.6	24.2	6.03e-01	0	43	0	58195968	57	4924
2026-01-03 01:19:02.30	17.44	16.13	-43.0	-45.6	24.3	6.06e-01	0	43	0	59244544	57	4892
2026-01-03 01:19:03.59	17.45	16.29	-43.1	-45.7	24.2	6.03e-01	0	43	0	61865984	57	4930
2026-01-03 01:19:04.40	17.46	16.39	-43.0	-45.5	24.4	6.06e-01	0	43	0	63438848	57	4863
2026-01-03 01:19:05.55	17.48	16.53	-42.8	-45.4	24.5	6.04e-01	0	43	0	65536000	57	4779
2026-01-03 01:19:06.41	17.49	16.64	-42.8	-45.4	24.5	6.03e-01	0	43	0	67108864	57	4785
2026-01-03 01:19:07.55	17.50	16.78	-42.9	-45.4	24.5	6.04e-01	0	43	0	69206016	57	4806
2026-01-03 01:19:08.41	17.51	16.89	-42.8	-45.3	24.5	6.01e-01	0	43	0	70778880	57	4758
2026-01-03 01:19:09.56	17.53	17.04	-42.7	-45.3	24.6	6.04e-01	0	43	0	72876032	57	4735
2026-01-03 01:19:10.42	17.54	17.15	-42.8	-45.4	24.5	6.05e-01	0	43	0	74448896	57	4814
2026-01-03 01:19:11.56	17.55	17.30	-42.7	-45.4	24.5	6.03e-01	0	43	0	76546048	57	4782
2026-01-03 01:19:12.42	17.56	17.41	-42.7	-45.4	24.5	6.03e-01	0	43	0	78118912	57	4786
2026-01-03 01:19:13.59	17.58	17.56	-42.6	-45.2	24.7	6.01e-01	0	43	0	80740352	57	4697
2026-01-03 01:19:14.44	17.59	17.67	-42.5	-45.2	24.7	6.05e-01	0	43	0	82313216	57	4692
2026-01-03 01:19:15.59	17.60	17.82	-42.5	-45.2	24.6	6.05e-01	0	43	0	84410368	57	4692
2026-01-03 01:19:16.45	17.61	17.94	-42.5	-45.3	24.6	6.01e-01	0	43	0	85983232	57	4710
2026-01-03 01:19:17.60	17.63	18.09	-42.6	-45.4	24.5	6.04e-01	0	43	0	88080384	57	4780
2026-01-03 01:19:18.46	17.64	18.21	-42.6	-45.4	24.5	6.02e-01	0	43	0	89653248	57	4808
2026-01-03 01:19:19.61	17.66	18.36	-42.6	-45.4	24.4	6.05e-01	0	43	0	91750400	57	4775
2026-01-03 01:19:20.47	17.67	18.48	-42.7	-45.4	24.5	6.04e-01	0	43	0	93323264	57	4808
2026-01-03 01:19:21.62	17.68	18.64	-42.7	-45.4	24.5	6.05e-01	0	43	0	95420416	57	4794
2026-01-03 01:19:22.62	17.70	18.77	-42.7	-45.5	24.5	6.06e-01	0	43	0	97517568	57	4825
2026-01-03 01:19:23.62	17.71	18.91	-42.7	-45.4	24.6	6.04e-01	0	43	0	99614720	57	4772
2026-01-03 01:19:24.85	17.73	19.08	-42.8	-45.5	24.4	6.05e-01	0	43	0	101711872	57	4837
2026-01-03 01:19:25.74	17.74	19.21	-42.8	-45.5	24.4	6.05e-01	0	43	0	103284736	57	4831
2026-01-03 01:19:26.88	17.76	19.37	-42.8	-45.4	24.5	6.03e-01	0	43	0	105381888	57	4807
2026-01-03 01:19:27.75	17.77	19.49	-42.8	-45.5	24.5	6.04e-01	0	43	0	106954752	57	4821
2026-01-03 01:19:28.89	17.78	19.66	-42.8	-45.5	24.5	6.02e-01	0	43	0	109051904	57	4859
2026-01-03 01:19:29.75	17.80	19.78	-42.8	-45.5	24.4	6.04e-01	0	43	0	110624768	57	4858
2026-01-03 01:19:30.90	17.81	19.95	-42.7	-45.4	24.5	6.04e-01	0	43	0	112721920	57	4797
2026-01-03 01:19:31.76	17.83	20.07	-42.6	-45.4	24.5	6.03e-01	0	43	0	114819072	57	4810
2026-01-03 01:19:32.91	17.84	20.24	-42.6	-45.4	24.5	6.03e-01	0	43	0	116916224	57	4806
2026-01-03 01:19:33.77	17.86	20.37	-42.7	-45.5	24.5	6.04e-01	0	43	0	118489088	57	4821
2026-01-03 01:19:34.91	17.87	20.54	-42.7	-45.4	24.4	6.05e-01	0	43	0	120586240	57	4806
2026-01-03 01:19:35.78	17.89	20.67	-42.7	-45.4	24.5	6.03e-01	0	43	0	122159104	57	4807
2026-01-03 01:19:36.93	17.90	20.84	-42.8	-45.5	24.5	6.03e-01	0	43	0	124256256	57	4819
2026-01-03 01:19:37.78	17.92	20.97	-42.8	-45.4	24.5	6.06e-01	0	43	0	125829120	57	4811
2026-01-03 01:19:39.04	17.93	21.16	-42.8	-45.5	24.5	6.04e-01	0	43	0	128450560	57	4836
2026-01-03 01:19:39.80	17.95	21.28	-42.9	-45.6	24.4	6.05e-01	0	43	0	129499136	57	4886
2026-01-03 01:19:41.09	17.97	21.48	-43.0	-45.8	24.2	6.03e-01	0	43	0	132120576	57	4991
2026-01-03 01:19:41.81	17.98	21.59	-43.0	-45.7	24.3	6.03e-01	0	43	0	133169152	57	4970
2026-01-03 01:19:43.10	18.00	21.80	-43.1	-45.9	24.1	6.05e-01	0	43	0	135790592	57	5064
2026-01-03 01:19:43.81	18.01	21.91	-43.1	-45.9	24.1	6.03e-01	0	43	0	137363456	57	5069
2026-01-03 01:19:45.10	18.03	22.11	-43.0	-45.8	24.2	6.04e-01	0	43	0	139460608	57	5019
2026-01-03 01:19:45.88	18.04	22.24	-43.1	-46.0	24.1	6.07e-01	0	43	0	141033472	57	5114
2026-01-03 01:19:47.17	18.06	22.45	-43.0	-45.8	24.3	6.04e-01	0	43	0	143654912	57	4989
2026-01-03 01:19:47.89	18.08	22.56	-43.0	-45.7	24.3	6.03e-01	0	43	0	144703488	57	4965
2026-01-03 01:19:49.18	18.10	22.77	-43.0	-45.8	24.2	6.02e-01	0	43	0	147324928	57	4995
2026-01-03 01:19:49.90	18.11	22.89	-43.0	-45.7	24.1	6.02e-01	0	43	0	148373504	57	4964
2026-01-03 01:19:51.18	18.13	23.11	-43.0	-45.7	24.2	6.05e-01	0	43	0	150994944	57	4981
2026-01-03 01:19:51.90	18.14	23.23	-43.0	-45.7	24.3	6.04e-01	0	43	0	152567808	57	4958
2026-01-03 01:19:53.19	18.17	23.44	-43.1	-45.7	24.3	6.03e-01	0	43	0	154664960	57	4979
2026-01-03 01:19:53.91	18.18	23.57	-43.0	-45.7	24.3	6.05e-01	0	43	0	156237824	57	4950
2026-01-03 01:19:55.29	18.20	23.80	-43.1	-45.7	24.3	6.03e-01	0	43	0	158859264	57	4966
2026-01-03 01:19:56.01	18.22	23.93	-43.1	-45.7	24.3	6.05e-01	0	43	0	159907840	57	4964
2026-01-03 01:19:57.30	18.24	24.15	-43.0	-45.6	24.4	6.03e-01	0	43	0	162529280	57	4926
2026-01-03 01:19:58.01	18.25	24.27	-43.0	-45.7	24.4	6.03e-01	0	43	0	163577856	57	4938
2026-01-03 01:19:59.30	18.27	24.50	-43.1	-45.8	24.2	6.05e-01	0	43	0	166199296	57	5008
2026-01-03 01:20:00.02	18.29	24.63	-43.1	-45.9	24.2	6.03e-01	0	43	0	167772160	57	5044
2026-01-03 01:20:01.31	18.31	24.86	-43.1	-45.9	24.1	6.01e-01	0	43	0	169869312	57	5098
2026-01-03 01:20:02.05	18.33	24.99	-43.1	-45.9	24.1	6.04e-01	0	43	0	171442176	57	5078
2026-01-03 01:20:03.66	18.36	25.28	-43.0	-45.9	24.1	6.04e-01	0	43	0	174587904	57	5086
2026-01-03 01:20:04.52	18.37	25.44	-43.0	-45.9	24.2	6.05e-01	0	43	0	176160768	57	5060
2026-01-03 01:20:05.67	18.39	25.65	-43.0	-45.9	24.1	6.04e-01	0	43	0	178257920	57	5064
2026-01-03 01:20:06.52	18.41	25.81	-43.1	-45.8	24.2	6.04e-01	0	43	0	179830784	57	5036
2026-01-03 01:20:07.67	18.43	26.03	-43.0	-45.8	24.2	6.04e-01	0	43	0	181927936	57	5007
2026-01-03 01:20:08.53	18.45	26.19	-43.1	-45.9	24.1	6.03e-01	0	43	0	183500800	57	5047
2026-01-03 01:20:09.68	18.47	26.41	-43.0	-45.8	24.3	6.03e-01	0	43	0	185597952	57	4984
2026-01-03 01:20:10.54	18.49	26.57	-42.9	-45.7	24.3	6.03e-01	0	43	0	187170816	57	4954
2026-01-03 01:20:11.68	18.52	26.79	-42.9	-45.8	24.2	6.06e-01	0	43	0	189267968	57	5011
2026-01-03 01:20:12.54	18.53	26.96	-42.7	-45.5	24.5	6.02e-01	0	43	0	190840832	57	4838
2026-01-03 01:20:13.69	18.56	27.19	-42.7	-45.5	24.6	6.03e-01	0	43	0	193462272	57	4815
2026-01-03 01:20:14.72	18.58	27.39	-42.6	-45.4	24.6	6.03e-01	0	43	0	195035136	57	4775
2026-01-03 01:20:15.90	18.60	27.63	-42.6	-45.3	24.7	6.04e-01	0	43	0	197132288	57	4721
2026-01-03 01:20:16.76	18.62	27.80	-42.5	-45.2	24.8	6.03e-01	0	43	0	198705152	57	4672
2026-01-03 01:20:18.11	18.65	28.07	-42.6	-45.3	24.8	6.02e-01	0	43	0	201326592	57	4709
2026-01-03 01:20:18.83	18.67	28.22	-42.6	-45.2	24.8	6.06e-01	0	43	0	202899456	57	4680
2026-01-03 01:20:20.12	18.70	28.49	-42.5	-45.1	24.9	6.05e-01	0	43	0	205520896	56	4892
2026-01-03 01:20:20.84	18.71	28.64	-42.5	-45.1	24.9	6.02e-01	0	43	0	206569472	56	4924
2026-01-03 01:20:22.12	18.74	28.90	-42.3	-45.0	25.0	6.04e-01	0	43	0	209190912	56	4842
2026-01-03 01:20:22.89	18.76	29.07	-42.3	-44.9	25.1	6.05e-01	0	43	0	210239488	56	4814
2026-01-03 01:20:24.17	18.79	29.34	-42.3	-45.0	25.1	6.05e-01	0	43	0	212860928	56	4815
2026-01-03 01:20:24.99	18.81	29.52	-42.4	-45.0	25.0	6.02e-01	0	43	0	214433792	56	4832
2026-01-03 01:20:26.13	18.84	29.76	-42.5	-45.1	24.9	6.04e-01	0	43	0	216530944	56	4907
2026-01-03 01:20:26.99	18.86	29.95	-42.5	-45.1	24.9	6.05e-01	0	43	0	218103808	56	4883
2026-01-03 01:20:28.14	18.89	30.21	-42.5	-45.0	25.0	6.06e-01	0	43	0	220200960	56	4845
2026-01-03 01:20:29.00	18.91	30.40	-42.6	-45.0	25.0	6.04e-01	0	43	0	221773824	56	4859
2026-01-03 01:20:30.14	18.94	30.65	-42.4	-44.9	25.1	6.05e-01	0	43	0	223870976	56	4777
2026-01-03 01:20:31.00	18.96	30.85	-42.5	-44.9	25.1	6.05e-01	0	43	0	225443840	56	4801
2026-01-03 01:20:32.15	18.99	31.11	-42.6	-45.1	24.9	6.05e-01	0	43	0	228065280	56	4882
2026-01-03 01:20:33.01	19.01	31.31	-42.6	-45.1	25.0	6.02e-01	0	43	0	229638144	56	4874
2026-01-03 01:20:34.15	19.04	31.57	-42.7	-45.2	24.8	6.05e-01	0	43	0	231735296	56	4927
2026-01-03 01:20:35.01	19.06	31.77	-42.5	-45.0	25.0	6.05e-01	0	43	0	233308160	56	4864
2026-01-03 01:20:36.16	19.10	32.04	-42.6	-45.1	25.0	6.04e-01	0	43	0	235405312	56	4884
2026-01-03 01:20:37.01	19.12	32.24	-42.7	-45.2	24.9	6.02e-01	0	43	0	236978176	56	4946
2026-01-03 01:20:38.16	19.15	32.52	-42.7	-45.2	24.8	6.04e-01	0	43	0	239075328	56	4969
2026-01-03 01:20:39.02	19.18	32.73	-42.7	-45.2	24.9	6.02e-01	0	43	0	240648192	56	4961
2026-01-03 01:20:40.17	19.21	33.01	-42.7	-45.3	24.8	6.02e-01	0	43	0	242745344	56	4986
2026-01-03 01:20:41.03	19.23	33.22	-42.8	-45.4	24.7	6.04e-01	0	43	0	244318208	56	5050
2026-01-03 01:20:42.18	19.27	33.51	-42.9	-45.5	24.6	6.04e-01	0	43	0	246415360	56	5121
2026-01-03 01:20:43.04	19.29	33.72	-43.1	-45.6	24.5	6.02e-01	0	43	0	247988224	56	5196
2026-01-03 01:20:44.19	19.33	34.01	-43.2	-45.8	24.4	6.04e-01	0	43	0	250609664	57	5000
2026-01-03 01:20:45.05	19.35	34.23	-43.2	-45.8	24.3	6.00e-01	0	43	0	252182528	57	5020
2026-01-03 01:20:46.19	19.39	34.52	-43.2	-45.8	24.3	6.03e-01	0	43	0	254279680	57	5021
2026-01-03 01:20:47.05	19.42	34.75	-43.2	-45.8	24.3	6.05e-01	0	43	0	255852544	57	5020
2026-01-03 01:20:48.19	19.45	35.05	-43.3	-46.0	24.1	6.04e-01	0	43	0	257949696	57	5131
2026-01-03 01:20:49.06	19.48	35.28	-43.5	-46.2	23.9	6.02e-01	0	43	0	259522560	57	5274
2026-01-03 01:20:50.20	19.52	35.58	-43.6	-46.4	23.8	6.05e-01	0	43	0	261619712	57	5362
2026-01-03 01:20:51.13	19.55	35.83	-43.7	-46.4	23.7	6.04e-01	0	43	0	263192576	58	5087
2026-01-03 01:20:52.31	19.59	36.15	-43.7	-46.5	23.7	6.05e-01	0	43	0	265814016	58	5114
2026-01-03 01:20:53.17	19.62	36.39	-43.7	-46.4	23.8	6.03e-01	0	43	0	267386880	58	5067
2026-01-03 01:20:54.52	19.67	36.76	-43.8	-46.6	23.6	6.05e-01	0	43	0	270008320	58	5178
2026-01-03 01:20:55.24	19.69	36.96	-43.9	-46.7	23.5	6.05e-01	0	43	0	271056896	58	5260
2026-01-03 01:20:56.75	19.75	37.39	-44.3	-47.2	23.0	6.03e-01	0	43	0	273678336	59	5264
2026-01-03 01:20:57.47	19.78	37.59	-44.4	-47.5	22.8	6.02e-01	0	43	0	275251200	59	5411
2026-01-03 01:20:58.85	19.83	37.99	-44.4	-47.5	22.7	6.05e-01	0	43	0	277872640	59	5443
2026-01-03 01:20:59.57	19.85	38.20	-44.4	-47.5	22.7	6.03e-01	0	43	0	279445504	59	5428
2026-01-03 01:21:00.86	19.91	38.58	-44.4	-47.5	22.7	6.04e-01	0	43	0	281542656	59	5460
2026-01-03 01:21:01.58	19.93	38.79	-44.6	-47.7	22.6	6.05e-01	0	43	0	283115520	59	5537
2026-01-03 01:21:02.87	19.99	39.17	-44.6	-47.6	22.7	6.06e-01	0	43	0	285212672	59	5478
2026-01-03 01:21:03.59	20.02	39.39	-44.6	-47.6	22.7	6.05e-01	0	43	0	286785536	59	5479
2026-01-03 01:21:05.08	20.08	39.85	-44.5	-47.5	22.8	6.03e-01	0	43	0	289406976	59	5419
2026-01-03 01:21:05.80	20.11	40.07	-44.5	-47.4	22.8	6.03e-01	0	43	0	290979840	59	5365
2026-01-03 01:21:07.17	20.17	40.49	-44.4	-47.2	23.0	6.05e-01	0	43	0	293601280	59	5245
2026-01-03 01:21:08.14	20.21	40.80	-44.4	-47.2	23.0	6.06e-01	0	43	0	295174144	59	5257
2026-01-03 01:21:09.45	20.27	41.21	-44.4	-47.2	23.1	6.05e-01	0	43	0	297795584	59	5224
2026-01-03 01:21:10.16	20.30	41.44	-44.2	-46.9	23.3	6.05e-01	0	43	0	298844160	59	5074
2026-01-03 01:21:11.46	20.36	41.86	-43.9	-46.6	23.6	6.05e-01	0	43	0	301465600	59	4886
2026-01-03 01:21:12.17	20.40	42.09	-43.6	-46.2	23.9	6.04e-01	0	43	0	303038464	59	4695
2026-01-03 01:21:13.46	20.46	42.52	-43.5	-46.1	24.0	6.03e-01	0	43	0	305135616	59	4632
2026-01-03 01:21:14.17	20.50	42.75	-43.7	-46.4	23.7	6.03e-01	0	43	0	306708480	59	4804
2026-01-03 01:21:15.46	20.56	43.19	-43.4	-46.0	24.2	6.02e-01	0	43	0	308805632	58	4839
2026-01-03 01:21:16.18	20.60	43.43	-43.3	-45.9	24.2	6.03e-01	0	43	0	310378496	58	4808
2026-01-03 01:21:17.47	20.67	43.87	-43.0	-45.6	24.5	6.02e-01	0	43	0	312999936	58	4626
2026-01-03 01:21:18.18	20.71	44.12	-43.1	-45.6	24.6	6.02e-01	0	43	0	314048512	58	4627
2026-01-03 01:21:19.58	20.78	44.60	-42.9	-45.4	24.6	6.06e-01	0	43	0	316669952	57	4809
2026-01-03 01:21:20.57	20.84	44.95	-43.0	-45.5	24.6	6.03e-01	0	43	0	318767104	57	4859
2026-01-03 01:21:21.57	20.90	45.31	-43.0	-45.6	24.5	6.03e-01	0	43	0	320339968	57	4888
2026-01-03 01:21:22.58	20.96	45.67	-42.7	-45.2	24.8	6.04e-01	0	43	0	322437120	57	4682
2026-01-03 01:21:23.58	21.02	46.03	-42.7	-45.3	24.9	6.04e-01	0	44	0	324534272	57	4709
2026-01-03 01:21:24.58	21.08	46.40	-43.0	-45.7	24.4	6.06e-01	0	43	0	326107136	57	4970
2026-01-03 01:21:25.59	21.14	46.77	-42.9	-45.6	24.5	6.04e-01	0	43	0	328204288	57	4895
2026-01-03 01:21:26.59	21.21	47.14	-42.8	-45.4	24.7	6.06e-01	0	44	0	329777152	57	4778
2026-01-03 01:21:27.60	21.27	47.52	-42.9	-45.4	24.8	6.04e-01	0	43	0	331874304	57	4771
2026-01-03 01:21:28.60	21.34	47.90	-42.9	-45.4	24.7	6.02e-01	0	43	0	333447168	57	4784
2026-01-03 01:21:29.60	21.41	48.29	-42.9	-45.5	24.6	6.04e-01	0	43	0	335544320	57	4828
2026-01-03 01:21:30.70	21.49	48.71	-42.8	-45.3	24.7	6.05e-01	0	43	0	337641472	57	4735
2026-01-03 01:21:31.56	21.55	49.05	-42.8	-45.2	24.8	6.02e-01	0	43	0	339214336	57	4704
2026-01-03 01:21:32.71	21.63	49.50	-42.9	-45.4	24.7	6.04e-01	0	43	0	341311488	57	4796
2026-01-03 01:21:33.66	21.71	49.88	-43.0	-45.5	24.5	6.02e-01	0	43	0	342884352	57	4870
2026-01-03 01:21:34.66	21.78	50.28	-42.4	-44.8	25.3	6.01e-01	0	43	0	344981504	56	4708
2026-01-03 01:21:35.67	21.87	50.69	-42.4	-44.8	25.2	6.04e-01	0	43	0	347078656	56	4747
2026-01-03 01:21:36.67	21.95	51.10	-42.5	-45.0	25.1	6.02e-01	0	43	0	348651520	56	4858
2026-01-03 01:21:37.94	22.06	51.62	-42.3	-44.8	25.2	6.02e-01	0	43	0	351272960	56	4748
2026-01-03 01:21:38.72	22.12	51.95	-42.2	-44.7	25.4	6.03e-01	0	43	0	352845824	56	4666
2026-01-03 01:21:40.01	22.24	52.49	-42.4	-44.8	25.3	6.04e-01	0	43	0	354942976	56	4724
2026-01-03 01:21:40.73	22.31	52.80	-42.4	-44.9	25.2	6.02e-01	0	43	0	356515840	56	4765
2026-01-03 01:21:42.02	22.43	53.35	-42.1	-44.6	25.5	6.04e-01	0	43	0	359137280	56	4613
2026-01-03 01:21:42.73	22.50	53.66	-42.1	-44.6	25.5	6.03e-01	0	43	0	360185856	56	4605
2026-01-03 01:21:44.03	22.63	54.22	-41.9	-44.3	25.6	6.04e-01	0	44	0	362807296	55	4726
2026-01-03 01:21:44.74	22.70	54.53	-42.0	-44.5	25.4	6.04e-01	0	44	0	363855872	55	4829
2026-01-03 01:21:46.03	22.84	55.11	-42.0	-44.5	25.4	6.04e-01	0	43	0	366477312	55	4827
2026-01-03 01:21:46.75	22.92	55.43	-42.2	-44.7	25.3	6.05e-01	0	44	0	367525888	55	4927
2026-01-03 01:21:48.04	23.07	56.01	-42.6	-45.1	25.0	6.04e-01	0	43	0	370147328	55	5184
2026-01-03 01:21:48.76	23.15	56.34	-42.9	-45.5	24.6	6.04e-01	0	43	0	371195904	56	5139
2026-01-03 01:21:50.05	23.31	56.93	-43.0	-45.5	24.6	6.01e-01	0	43	0	373817344	56	5150
2026-01-03 01:21:50.76	23.40	57.26	-43.0	-45.6	24.6	6.02e-01	0	43	0	375390208	56	5161
2026-01-03 01:21:52.05	23.56	57.86	-43.4	-46.2	24.1	6.04e-01	0	43	0	377487360	57	5221
2026-01-03 01:21:52.77	23.66	58.20	-43.5	-46.4	23.9	6.02e-01	0	43	0	379060224	57	5341
2026-01-03 01:21:54.06	23.84	58.81	-43.5	-46.2	23.9	6.05e-01	0	43	0	381157376	57	5279
2026-01-03 01:21:54.77	23.94	59.15	-43.8	-46.6	23.6	6.04e-01	0	43	0	382730240	58	5189
2026-01-03 01:21:56.06	24.13	59.77	-43.8	-46.5	23.7	6.05e-01	0	44	0	385351680	58	5143
2026-01-03 01:21:56.97	24.28	60.21	-43.8	-46.5	23.8	6.05e-01	0	43	0	386924544	58	5107
2026-01-03 01:21:57.98	24.44	60.70	-44.1	-46.9	23.3	6.05e-01	0	43	0	389021696	58	5389
2026-01-03 01:21:58.98	24.60	61.20	-44.1	-47.0	23.2	6.03e-01	0	43	0	390594560	58	5454
2026-01-03 01:21:59.98	24.78	61.69	-44.1	-47.0	23.2	6.03e-01	0	43	0	392691712	58	5437
2026-01-03 01:22:00.98	24.96	62.19	-44.5	-47.5	22.7	6.04e-01	0	43	0	394264576	60	5120
2026-01-03 01:22:01.99	25.15	62.70	-44.7	-47.6	22.6	6.04e-01	0	44	0	396361728	60	5176
2026-01-03 01:22:02.99	25.35	63.21	-45.0	-48.0	22.1	6.04e-01	0	43	0	397934592	60	5447
2026-01-03 01:22:03.99	25.55	63.72	-45.1	-48.1	22.1	6.03e-01	0	43	0	400031744	60	5501
2026-01-03 01:22:04.99	25.76	64.24	-45.7	-49.0	21.3	6.07e-01	0	43	0	402128896	62	5427
2026-01-03 01:22:05.99	25.99	64.75	-46.1	-49.6	20.6	6.06e-01	0	43	0	403701760	62	5820
2026-01-03 01:22:07.00	26.22	65.28	-46.0	-49.3	20.9	6.03e-01	0	43	0	405798912	63	5327
2026-01-03 01:22:08.00	26.47	65.80	-46.3	-49.8	20.5	6.03e-01	0	43	0	407371776	63	5598
2026-01-03 01:22:09.00	26.73	66.33	-46.7	-50.5	19.7	6.03e-01	0	43	0	409468928	64	5759
2026-01-03 01:22:10.00	27.00	66.86	-46.5	-50.0	20.2	6.04e-01	0	43	0	411041792	64	5455
2026-01-03 01:22:11.00	27.28	67.40	-46.8	-50.5	19.7	6.05e-01	0	43	0	413138944	64	5726
2026-01-03 01:22:12.01	27.58	67.94	-46.8	-50.6	19.6	6.03e-01	0	43	0	415236096	64	5798
2026-01-03 01:22:13.01	27.90	68.48	-47.1	-51.1	19.2	6.04e-01	0	43	0	416808960	64	6134
2026-01-03 01:22:14.01	28.23	69.02	-46.7	-50.4	19.7	6.07e-01	0	43	0	418906112	64	5664
2026-01-03 01:22:15.02	28.59	69.57	-47.1	-50.9	19.3	6.05e-01	0	43	0	421003264	64	6043
2026-01-03 01:22:16.02	28.96	70.12	-46.9	-50.6	19.6	6.04e-01	0	43	0	422576128	64	5825
2026-01-03 01:22:17.02	29.35	70.67	-47.2	-51.2	19.1	6.04e-01	0	43	0	424673280	64	6231
2026-01-03 01:22:18.03	29.78	71.23	-46.6	-50.3	19.9	6.03e-01	0	43	0	426246144	65	5313
2026-01-03 01:22:19.03	30.22	71.78	-46.4	-50.0	20.2	6.01e-01	0	43	0	428343296	64	5430
2026-01-03 01:22:20.03	30.70	72.34	-46.7	-50.4	19.7	6.00e-01	0	44	0	429916160	64	5722
2026-01-03 01:22:21.02	31.20	72.89	-46.0	-49.4	20.9	6.03e-01	0	43	0	432013312	63	5353
2026-01-03 01:22:22.03	31.75	73.46	-45.8	-48.9	21.3	6.05e-01	0	43	0	434110464	63	5078
2026-01-03 01:22:23.03	32.34	74.02	-46.0	-49.4	20.8	6.00e-01	0	43	0	435683328	63	5372
2026-01-03 01:22:24.04	32.97	74.59	-45.3	-48.5	21.7	6.05e-01	0	43	0	437780480	62	5143
2026-01-03 01:22:25.04	33.65	75.15	-45.5	-48.8	21.5	6.03e-01	0	43	0	439353344	62	5322
2026-01-03 01:22:26.04	34.39	75.71	-45.4	-48.6	21.6	6.04e-01	0	43	0	441450496	62	5174
2026-01-03 01:22:27.04	35.18	76.28	-45.5	-48.6	21.6	6.02e-01	0	44	0	443023360	62	5189
2026-01-03 01:22:28.04	36.05	76.84	-45.2	-48.1	22.1	6.03e-01	0	43	0	445120512	62	4908
2026-01-03 01:22:29.05	37.01	77.41	-45.2	-48.2	21.9	6.04e-01	0	44	0	447217664	62	4954
2026-01-03 01:22:30.05	38.05	77.97	-44.7	-47.6	22.5	6.04e-01	0	43	0	448790528	61	4891
2026-01-03 01:22:31.05	39.19	78.53	-45.0	-47.9	22.2	6.04e-01	0	43	0	450887680	61	5061
2026-01-03 01:22:32.06	40.46	79.09	-44.3	-47.1	23.1	6.03e-01	0	43	0	452460544	60	4871
2026-01-03 01:22:33.06	41.86	79.64	-44.5	-47.3	22.7	6.04e-01	0	43	0	454557696	60	5011
2026-01-03 01:22:34.06	43.42	80.18	-44.1	-46.9	23.3	6.06e-01	0	43	0	456130560	59	5059
2026-01-03 01:22:35.07	45.18	80.73	-43.8	-46.4	23.7	6.04e-01	0	43	0	458227712	59	4812
2026-01-03 01:22:36.46	47.98	81.46	-43.6	-46.1	24.1	6.04e-01	0	44	0	460849152	59	4635
2026-01-03 01:22:37.18	49.63	81.84	-43.8	-46.3	23.9	6.05e-01	0	43	0	462422016	59	4747
2026-01-03 01:22:38.83	54.03	82.67	-43.1	-45.5	24.6	6.04e-01	0	43	0	465567744	57	4846
2026-01-03 01:22:39.41	55.82	82.95	-43.4	-46.0	24.2	6.04e-01	0	43	0	466616320	58	4827
2026-01-03 01:22:41.00	61.53	83.67	-42.9	-45.4	24.7	6.05e-01	0	43	0	469237760	57	4780
2026-01-03 01:22:41.57	63.90	83.92	-43.2	-45.8	24.3	6.05e-01	0	43	0	470286336	57	5025
2026-01-03 01:22:43.15	71.54	84.53	-43.3	-45.9	24.3	6.06e-01	0	43	0	473432064	58	4762
2026-01-03 01:22:43.77	75.00	84.74	-43.3	-45.8	24.3	6.04e-01	0	43	0	474480640	58	4743
2026-01-03 01:22:45.34	84.99	85.18	-43.5	-46.1	23.9	6.02e-01	0	43	0	477626368	58	4920
2026-01-03 01:22:45.95	89.32	85.30	-43.6	-46.3	23.1	6.03e-01	0	43	0	478674944	58	5038
2026-01-03 01:22:47.52	101.32	85.49	-43.3	-46.0	24.1	6.04e-01	0	43	0	481820672	58	4831
2026-01-03 01:22:48.11	106.01	85.51	-43.4	-46.0	24.1	6.04e-01	0	43	0	482869248	58	4855
2026-01-03 01:22:49.69	118.42	85.41	-42.8	-45.4	24.7	6.02e-01	0	43	0	485490688	57	4760
2026-01-03 01:22:50.29	122.92	85.32	-43.3	-45.9	24.2	6.04e-01	0	43	0	487063552	57	5074
2026-01-03 01:22:51.86	133.66	84.96	-43.2	-45.7	24.5	6.05e-01	0	43	0	489684992	57	4938
2026-01-03 01:22:52.51	137.61	84.76	-43.0	-45.5	24.6	6.03e-01	0	43	0	490733568	57	4857
2026-01-03 01:22:53.95	145.29	84.25	-43.1	-45.7	24.5	6.05e-01	0	43	0	493879296	57	4958
2026-01-03 01:22:54.66	148.57	83.96	-43.5	-46.1	24.0	6.03e-01	0	43	0	494927872	58	4920
2026-01-03 01:22:56.08	154.23	83.34	-43.4	-46.0	24.2	6.04e-01	0	43	0	497549312	58	4822
2026-01-03 01:22:57.06	157.54	82.88	-43.6	-46.3	23.9	6.03e-01	0	43	0	499646464	58	5011
2026-01-03 01:22:58.38	161.36	82.23	-43.7	-46.3	23.8	6.03e-01	0	43	0	502267904	58	5030
2026-01-03 01:22:59.10	163.17	81.86	-43.4	-46.0	24.2	6.05e-01	0	43	0	503316480	58	4822
2026-01-03 01:23:00.75	166.77	81.00	-43.7	-46.4	23.8	6.06e-01	0	44	0	506462208	58	5067
2026-01-03 01:23:01.33	167.87	80.69	-43.7	-46.3	23.9	6.05e-01	0	43	0	507510784	58	5015
2026-01-03 01:23:02.90	170.51	79.84	-43.9	-46.5	23.8	6.05e-01	0	43	0	510656512	58	5112
2026-01-03 01:23:03.52	171.43	79.50	-43.8	-46.4	23.8	6.03e-01	0	43	0	511705088	58	5085
2026-01-03 01:23:05.10	173.52	78.62	-43.9	-46.6	23.6	6.02e-01	0	43	0	514850816	58	5217
2026-01-03 01:23:05.75	174.29	78.26	-44.6	-47.5	22.8	6.04e-01	0	43	0	515899392	59	5445
2026-01-03 01:23:07.19	175.83	77.45	-44.5	-47.4	22.8	6.04e-01	0	43	0	518520832	60	5054
2026-01-03 01:23:07.98	176.59	77.01	-45.0	-48.0	22.3	5.99e-01	0	43	0	520093696	60	5411
2026-01-03 01:23:09.13	177.61	76.36	-45.1	-48.2	22.0	6.02e-01	0	43	0	522190848	60	5591
2026-01-03 01:23:10.22	178.49	75.75	-45.3	-48.6	21.6	6.03e-01	0	43	0	524288000	61	5488
2026-01-03 01:23:11.08	179.13	75.26	-45.3	-48.5	21.7	6.02e-01	0	43	0	525860864	61	5413
2026-01-03 01:23:12.61	180.16	74.40	-46.1	-49.4	20.8	6.04e-01	0	43	0	528482304	62	5695
2026-01-03 01:23:13.33	180.61	73.99	-46.2	-49.7	20.7	6.06e-01	0	43	0	530055168	63	5530
2026-01-03 01:23:14.61	181.35	73.27	-45.1	-48.0	22.2	6.05e-01	0	43	0	532152320	62	4850
2026-01-03 01:23:15.33	181.74	72.87	-45.5	-48.5	21.7	6.04e-01	0	43	0	533725184	62	5129
2026-01-03 01:23:16.62	182.39	72.15	-45.8	-49.2	21.1	6.04e-01	0	43	0	536346624	62	5533
2026-01-03 01:23:17.33	182.72	71.75	-45.7	-48.8	21.4	6.02e-01	0	44	0	537395200	62	5322
2026-01-03 01:23:18.62	183.29	71.04	-45.4	-48.4	21.8	6.04e-01	0	44	0	540016640	62	5064
2026-01-03 01:23:19.34	183.59	70.64	-45.8	-49.1	21.2	6.04e-01	0	43	0	541065216	62	5470
2026-01-03 01:23:20.63	184.09	69.93	-46.2	-49.7	20.6	6.04e-01	0	43	0	543686656	63	5564
2026-01-03 01:23:21.35	184.36	69.53	-46.2	-49.5	20.8	6.03e-01	0	44	0	545259520	63	5431
2026-01-03 01:23:22.67	184.82	68.81	-46.2	-49.4	20.9	6.04e-01	0	44	0	547356672	63	5370
2026-01-03 01:23:23.39	185.06	68.42	-46.7	-50.3	20.1	6.05e-01	0	44	0	548929536	63	5934
2026-01-03 01:23:24.74	185.48	67.69	-46.3	-50.2	20.1	6.04e-01	0	43	0	551550976	64	5543
2026-01-03 01:23:25.46	185.69	67.30	-46.4	-50.4	19.7	6.05e-01	0	43	0	552599552	64	5703
2026-01-03 01:23:26.75	186.05	66.61	-45.8	-49.1	21.1	6.04e-01	0	43	0	555220992	63	5208
2026-01-03 01:23:27.47	186.24	66.23	-45.7	-49.1	21.2	6.04e-01	0	43	0	556793856	63	5164
2026-01-03 01:23:28.75	186.56	65.56	-45.7	-49.0	21.3	6.03e-01	0	43	0	558891008	63	5122
2026-01-03 01:23:29.47	186.74	65.18	-45.8	-49.1	21.2	6.03e-01	0	43	0	560463872	63	5179
2026-01-03 01:23:30.76	187.04	64.50	-45.1	-48.3	22.0	6.04e-01	0	43	0	562561024	62	4986
2026-01-03 01:23:31.48	187.20	64.13	-44.7	-47.7	22.5	6.04e-01	0	43	0	564133888	61	4962
2026-01-03 01:23:32.77	187.47	63.47	-44.1	-46.9	23.3	6.05e-01	0	43	0	566755328	60	4796
2026-01-03 01:23:33.49	187.61	63.10	-44.2	-46.9	23.2	6.02e-01	0	43	0	567803904	60	4804
2026-01-03 01:23:34.78	187.86	62.44	-44.5	-47.3	23.0	6.05e-01	0	44	0	570425344	60	4994
2026-01-03 01:23:35.49	188.00	62.09	-44.4	-47.1	22.9	6.05e-01	0	43	0	571473920	60	4920
2026-01-03 01:23:36.78	188.23	61.44	-44.1	-46.7	23.5	6.06e-01	0	43	0	574095360	59	4970
2026-01-03 01:23:37.50	188.35	61.08	-44.2	-46.8	23.5	6.04e-01	0	43	0	575143936	59	4994
2026-01-03 01:23:38.79	188.56	60.45	-44.1	-46.7	23.5	6.04e-01	0	43	0	577765376	59	4969
2026-01-03 01:23:39.50	188.68	60.10	-44.0	-46.6	23.6	6.04e-01	0	44	0	579338240	59	4903
2026-01-03 01:23:40.79	188.87	59.47	-44.2	-46.9	23.4	6.04e-01	0	43	0	581435392	59	5055
2026-01-03 01:23:41.51	188.98	59.12	-44.0	-46.7	23.5	6.04e-01	0	43	0	583008256	59	4961
2026-01-03 01:23:42.79	189.16	58.51	-43.6	-46.1	24.1	6.03e-01	0	44	0	585105408	59	4625
2026-01-03 01:23:43.51	189.26	58.17	-43.7	-46.2	24.0	6.02e-01	0	43	0	586678272	59	4672
2026-01-03 01:23:44.80	189.43	57.56	-44.0	-46.6	23.7	6.04e-01	0	43	0	588775424	59	4881
2026-01-03 01:23:45.52	189.53	57.23	-43.9	-46.5	23.8	6.07e-01	0	43	0	590348288	59	4817
2026-01-03 01:23:46.80	189.68	56.64	-43.3	-45.8	24.3	6.04e-01	0	43	0	592969728	58	4745
2026-01-03 01:23:47.52	189.77	56.30	-42.8	-45.2	24.9	6.03e-01	0	43	0	594018304	57	4685
2026-01-03 01:23:48.80	189.92	55.72	-42.6	-44.9	25.2	6.03e-01	0	43	0	596639744	57	4527
2026-01-03 01:23:49.52	190.00	55.40	-42.6	-44.9	25.2	6.05e-01	0	43	0	597688320	57	4535
2026-01-03 01:23:50.81	190.14	54.82	-42.8	-45.2	24.9	6.02e-01	0	43	0	600309760	57	4663
2026-01-03 01:23:51.70	190.24	54.42	-42.4	-44.7	25.3	6.04e-01	0	43	0	601882624	56	4693
2026-01-03 01:23:52.84	190.35	53.92	-42.2	-44.6	25.5	6.03e-01	0	43	0	603979776	56	4602
2026-01-03 01:23:53.70	190.44	53.55	-42.2	-44.6	25.5	6.05e-01	0	43	0	605552640	56	4642
2026-01-03 01:23:54.84	190.55	53.06	-42.0	-44.5	25.6	6.04e-01	0	43	0	607649792	56	4549
2026-01-03 01:23:55.71	190.63	52.68	-41.9	-44.3	25.7	6.04e-01	0	43	0	609222656	55	4712
2026-01-03 01:23:56.85	190.73	52.20	-42.2	-44.6	25.3	6.02e-01	0	43	0	611844096	55	4879
2026-01-03 01:23:57.71	190.81	51.84	-42.3	-44.7	25.3	6.03e-01	0	43	0	613416960	55	4928
2026-01-03 01:23:58.92	190.92	51.33	-42.6	-44.9	25.1	6.05e-01	0	43	0	615514112	55	5081
2026-01-03 01:23:59.78	190.99	50.98	-42.9	-45.3	24.9	6.04e-01	0	44	0	617086976	56	5010
2026-01-03 01:24:00.92	191.08	50.51	-43.1	-45.5	24.7	6.06e-01	0	43	0	619184128	56	5145
2026-01-03 01:24:01.78	191.15	50.16	-43.1	-45.6	24.5	6.05e-01	0	43	0	620756992	56	5208
2026-01-03 01:24:02.93	191.24	49.70	-43.1	-45.5	24.6	6.04e-01	0	43	0	622854144	56	5156
2026-01-03 01:24:03.78	191.30	49.36	-42.9	-45.3	24.8	6.03e-01	0	43	0	624427008	56	5010
2026-01-03 01:24:04.93	191.39	48.91	-43.1	-45.6	24.6	6.04e-01	0	43	0	627048448	56	5164
2026-01-03 01:24:05.79	191.45	48.57	-43.3	-45.8	23.5	6.04e-01	0	43	0	628621312	57	5026
2026-01-03 01:24:06.94	191.53	48.12	-43.5	-46.0	24.2	6.03e-01	0	43	0	630718464	57	5125
2026-01-03 01:24:07.80	191.59	47.79	-43.4	-46.0	24.2	6.04e-01	0	43	0	632291328	57	5112
2026-01-03 01:24:08.94	191.67	47.36	-43.3	-45.8	24.3	6.04e-01	0	43	0	634388480	57	5040
2026-01-03 01:24:09.80	191.72	47.04	-43.3	-45.8	24.4	6.04e-01	0	43	0	635961344	57	4991
2026-01-03 01:24:10.94	191.80	46.61	-43.3	-45.8	24.4	6.02e-01	0	43	0	638058496	57	4985
2026-01-03 01:24:11.80	191.85	46.29	-43.3	-45.9	24.3	6.05e-01	0	43	0	639631360	57	5042
2026-01-03 01:24:13.06	191.93	45.83	-43.4	-46.0	24.2	6.02e-01	0	43	0	642252800	57	5105
2026-01-03 01:24:13.79	191.97	45.57	-43.2	-45.7	24.5	6.06e-01	0	43	0	643301376	57	4941
2026-01-03 01:24:15.08	192.04	45.10	-43.2	-45.7	24.5	6.05e-01	0	43	0	645922816	57	4937
2026-01-03 01:24:15.80	192.09	44.85	-43.2	-45.6	24.5	6.05e-01	0	43	0	646971392	57	4920
2026-01-03 01:24:17.09	192.16	44.39	-43.2	-45.7	24.5	6.04e-01	0	43	0	649592832	57	4958
2026-01-03 01:24:17.89	192.20	44.11	-43.2	-45.7	24.4	6.03e-01	0	43	0	651165696	57	4959
2026-01-03 01:24:19.03	192.26	43.72	-43.4	-45.9	24.2	6.03e-01	0	43	0	653262848	57	5074
2026-01-03 01:24:19.89	192.31	43.42	-43.6	-46.1	24.0	6.02e-01	0	43	0	654835712	57	5212
2026-01-03 01:24:21.04	192.37	43.03	-43.5	-46.1	24.1	6.03e-01	0	43	0	656932864	57	5170
2026-01-03 01:24:21.90	192.41	42.74	-43.3	-45.9	24.3	6.02e-01	0	43	0	658505728	57	5042
2026-01-03 01:24:23.05	192.47	42.36	-43.3	-45.8	24.3	6.04e-01	0	43	0	660602880	57	5033
2026-01-03 01:24:23.91	192.51	42.07	-43.4	-46.0	24.2	6.04e-01	0	43	0	662175744	57	5130
2026-01-03 01:24:25.12	192.57	41.67	-43.8	-46.4	23.8	6.03e-01	0	43	0	664797184	58	5091
2026-01-03 01:24:25.97	192.61	41.40	-44.0	-46.7	23.5	6.03e-01	0	44	0	666370048	58	5273
2026-01-03 01:24:27.12	192.66	41.03	-44.4	-47.1	23.1	6.04e-01	0	43	0	668467200	59	5192
2026-01-03 01:24:27.98	192.70	40.76	-44.4	-47.1	23.1	6.06e-01	0	43	0	670040064	59	5209
2026-01-03 01:24:29.13	192.75	40.39	-44.2	-46.9	23.3	6.05e-01	0	43	0	672137216	59	5058
2026-01-03 01:24:29.99	192.79	40.12	-44.1	-46.8	23.4	6.04e-01	0	43	0	673710080	59	4991
2026-01-03 01:24:31.13	192.83	39.77	-43.9	-46.7	23.5	6.03e-01	0	43	0	675807232	59	4930
2026-01-03 01:24:31.99	192.87	39.51	-44.0	-46.8	23.4	6.06e-01	0	43	0	677380096	59	5020
2026-01-03 01:24:33.14	192.92	39.16	-44.2	-47.0	23.2	6.06e-01	0	43	0	679477248	59	5149
2026-01-03 01:24:34.30	192.96	38.81	-44.3	-47.2	23.0	6.05e-01	0	43	0	682098688	59	5220
2026-01-03 01:24:35.35	193.01	38.50	-44.3	-47.2	23.1	6.07e-01	0	43	0	683671552	59	5222
2026-01-03 01:24:36.27	193.04	38.23	-44.2	-47.0	23.2	6.05e-01	0	43	0	685768704	59	5127
2026-01-03 01:24:37.27	193.08	37.93	-44.3	-47.2	23.0	6.03e-01	0	43	0	687341568	59	5224
2026-01-03 01:24:38.27	193.12	37.64	-44.3	-47.1	23.2	6.06e-01	0	43	0	689438720	59	5165
2026-01-03 01:24:39.28	193.15	37.35	-44.2	-46.9	23.2	6.03e-01	0	43	0	691011584	59	5090
2026-01-03 01:24:40.28	193.19	37.07	-44.1	-46.8	23.4	6.02e-01	0	43	0	693108736	59	4989
2026-01-03 01:24:41.28	193.23	36.79	-43.9	-46.5	23.6	6.02e-01	0	43	0	695205888	59	4860
2026-01-03 01:24:42.29	193.26	36.50	-43.9	-46.5	23.6	6.03e-01	0	44	0	696778752	59	4864
2026-01-03 01:24:43.29	193.30	36.23	-43.8	-46.4	23.7	6.01e-01	0	43	0	698875904	59	4795
2026-01-03 01:24:44.29	193.33	35.95	-43.7	-46.3	23.9	6.03e-01	0	43	0	700448768	59	4720
2026-01-03 01:24:45.36	193.37	35.66	-43.6	-46.2	23.9	6.06e-01	0	43	0	702545920	59	4698
2026-01-03 01:24:46.25	193.40	35.42	-43.4	-46.0	24.2	6.04e-01	0	43	0	704118784	58	4823
2026-01-03 01:24:47.40	193.43	35.12	-43.3	-45.8	24.4	6.05e-01	0	43	0	706215936	58	4740
2026-01-03 01:24:48.26	193.46	34.89	-43.5	-46.0	24.2	6.04e-01	0	43	0	707788800	58	4849
2026-01-03 01:24:49.62	193.50	34.53	-43.5	-46.1	24.1	6.01e-01	0	43	0	710410240	58	4873
2026-01-03 01:24:50.34	193.53	34.34	-43.3	-45.8	24.3	6.05e-01	0	43	0	711983104	58	4724
2026-01-03 01:24:51.83	193.57	33.96	-42.9	-45.4	24.7	6.03e-01	0	43	0	714604544	57	4782
2026-01-03 01:24:52.55	193.59	33.78	-42.8	-45.3	24.8	6.03e-01	0	43	0	716177408	57	4708
2026-01-03 01:24:53.84	193.63	33.45	-42.7	-45.1	24.2	6.03e-01	0	43	0	718274560	57	4647
2026-01-03 01:24:54.55	193.65	33.27	-42.6	-45.0	25.0	6.05e-01	0	43	0	719847424	57	4598
2026-01-03 01:24:55.84	193.69	32.95	-42.4	-44.7	25.3	6.03e-01	0	43	0	722468864	56	4697
2026-01-03 01:24:56.56	193.71	32.78	-42.3	-44.7	25.3	6.03e-01	0	43	0	723517440	56	4672
2026-01-03 01:24:57.85	193.75	32.46	-42.3	-44.7	25.3	6.04e-01	0	43	0	726138880	56	4669
2026-01-03 01:24:58.56	193.77	32.29	-42.3	-44.7	25.3	6.03e-01	0	43	0	727187456	56	4684
2026-01-03 01:24:59.85	193.80	31.98	-42.3	-44.7	25.3	6.03e-01	0	43	0	729808896	56	4657
2026-01-03 01:25:00.66	193.82	31.79	-42.3	-44.7	25.3	6.05e-01	0	43	0	731381760	56	4701
2026-01-03 01:25:02.12	193.86	31.45	-42.5	-44.9	25.1	6.06e-01	0	43	0	734003200	56	4793
2026-01-03 01:25:02.84	193.88	31.28	-42.4	-44.9	25.2	6.04e-01	0	43	0	735576064	56	4767
2026-01-03 01:25:04.12	193.91	30.98	-42.4	-44.8	25.2	6.02e-01	0	43	0	737673216	56	4718
2026-01-03 01:25:04.84	193.93	30.82	-42.3	-44.7	25.3	6.02e-01	0	44	0	739246080	56	4676
2026-01-03 01:25:06.13	193.97	30.52	-42.3	-44.7	25.3	6.04e-01	0	43	0	741343232	56	4673
2026-01-03 01:25:06.84	193.98	30.36	-42.4	-44.7	25.2	6.03e-01	0	43	0	742916096	56	4693
2026-01-03 01:25:08.13	194.01	30.08	-42.3	-44.6	25.3	6.04e-01	0	43	0	745537536	56	4632
2026-01-03 01:25:08.85	194.03	29.92	-42.3	-44.6	25.4	6.03e-01	0	43	0	746586112	56	4632
2026-01-03 01:25:10.14	194.06	29.63	-42.4	-44.8	25.2	6.03e-01	0	43	0	749207552	56	4732
2026-01-03 01:25:10.85	194.08	29.48	-42.4	-44.8	25.2	6.05e-01	0	44	0	750256128	56	4723
2026-01-03 01:25:12.14	194.11	29.20	-42.5	-44.9	25.2	6.05e-01	0	43	0	752877568	56	4765
2026-01-03 01:25:12.86	194.13	29.04	-42.5	-44.9	25.1	6.03e-01	0	43	0	753926144	56	4775
2026-01-03 01:25:14.15	194.16	28.77	-42.6	-45.0	25.0	6.03e-01	0	44	0	756547584	56	4815
2026-01-03 01:25:14.86	194.17	28.62	-42.5	-44.8	25.1	6.03e-01	0	44	0	758120448	56	4758
2026-01-03 01:25:16.28	194.20	28.32	-42.4	-44.8	25.1	6.04e-01	0	44	0	760741888	56	4707
2026-01-03 01:25:16.99	194.22	28.18	-42.4	-44.7	25.2	6.05e-01	0	44	0	761790464	56	4704
2026-01-03 01:25:18.28	194.25	27.91	-42.5	-44.9	25.1	6.03e-01	0	43	0	764411904	56	4775
2026-01-03 01:25:19.00	194.26	27.76	-42.4	-44.9	25.1	6.02e-01	0	43	0	765460480	56	4767
2026-01-03 01:25:20.28	194.29	27.51	-42.5	-45.0	25.0	6.02e-01	0	44	0	768081920	56	4833
2026-01-03 01:25:21.00	194.31	27.36	-42.6	-45.1	24.9	6.04e-01	0	44	0	769654784	56	4871
2026-01-03 01:25:22.29	194.33	27.10	-42.7	-45.2	24.9	6.04e-01	0	43	0	771751936	56	4929
2026-01-03 01:25:23.00	194.35	26.96	-42.7	-45.2	24.8	6.05e-01	0	43	0	773324800	56	4965
2026-01-03 01:25:24.29	194.37	26.71	-42.8	-45.3	24.8	6.06e-01	0	43	0	775421952	56	5011
2026-01-03 01:25:25.01	194.39	26.57	-42.9	-45.4	24.7	6.06e-01	0	43	0	776994816	56	5050
2026-01-03 01:25:26.29	194.41	26.32	-43.0	-45.5	24.5	6.03e-01	0	43	0	779091968	56	5130
2026-01-03 01:25:27.01	194.43	26.18	-43.0	-45.5	24.6	6.03e-01	0	43	0	780664832	56	5127
2026-01-03 01:25:28.30	194.45	25.94	-42.9	-45.4	24.6	6.02e-01	0	44	0	783286272	56	5099
2026-01-03 01:25:29.01	194.47	25.81	-43.0	-45.5	24.5	6.04e-01	0	43	0	784334848	56	5152
2026-01-03 01:25:30.30	194.49	25.56	-43.1	-45.6	24.4	6.06e-01	0	44	0	786956288	56	5195
2026-01-03 01:25:31.01	194.50	25.43	-43.1	-45.7	24.4	6.06e-01	0	43	0	788004864	56	5243
2026-01-03 01:25:32.32	194.53	25.19	-43.2	-45.8	24.3	6.04e-01	0	43	0	790626304	56	5310
2026-01-03 01:25:33.03	194.54	25.06	-43.2	-45.9	24.2	6.03e-01	0	43	0	792199168	57	5060
2026-01-03 01:25:34.32	194.57	24.83	-43.3	-45.9	24.1	6.02e-01	0	43	0	794296320	57	5090
2026-01-03 01:25:35.04	194.58	24.70	-43.2	-45.9	24.1	6.04e-01	0	44	0	795869184	57	5088
2026-01-03 01:25:36.33	194.60	24.46	-43.3	-46.1	24.0	6.03e-01	0	43	0	797966336	57	5173
2026-01-03 01:25:37.05	194.61	24.34	-43.3	-46.1	24.0	6.03e-01	0	44	0	799539200	57	5164
2026-01-03 01:25:38.33	194.64	24.11	-43.4	-46.1	23.9	6.03e-01	0	43	0	802160640	57	5196
2026-01-03 01:25:39.16	194.65	23.97	-43.4	-46.2	23.9	6.03e-01	0	43	0	803209216	57	5219
2026-01-03 01:25:40.64	194.68	23.71	-43.2	-46.0	24.0	6.02e-01	0	44	0	806354944	57	5107
2026-01-03 01:25:41.36	194.69	23.58	-43.2	-45.9	24.0	6.03e-01	0	43	0	807403520	57	5070
2026-01-03 01:25:42.65	194.71	23.36	-43.3	-46.0	24.0	6.02e-01	0	43	0	810024960	57	5130
2026-01-03 01:25:43.38	194.72	23.24	-43.3	-46.0	24.0	6.02e-01	0	43	0	811597824	57	5132
2026-01-03 01:25:44.66	194.74	23.02	-43.3	-46.0	24.0	6.03e-01	0	43	0	813694976	57	5138
2026-01-03 01:25:45.38	194.76	22.90	-43.2	-46.0	24.0	6.04e-01	0	44	0	815267840	57	5106
2026-01-03 01:25:46.67	194.78	22.69	-43.2	-45.9	24.1	6.05e-01	0	44	0	817364992	57	5088
2026-01-03 01:25:47.38	194.79	22.57	-43.2	-45.9	24.1	6.04e-01	0	44	0	818937856	57	5100
2026-01-03 01:25:48.67	194.81	22.36	-43.1	-45.8	24.1	6.02e-01	0	44	0	821559296	57	5027
2026-01-03 01:25:49.39	194.82	22.24	-43.2	-45.9	24.1	6.04e-01	0	44	0	822607872	57	5054
2026-01-03 01:25:50.68	194.84	22.03	-43.1	-45.8	24.2	6.04e-01	0	44	0	825229312	57	5024
2026-01-03 01:25:51.40	194.85	21.92	-43.1	-45.8	24.2	6.03e-01	0	43	0	826277888	57	5031
2026-01-03 01:25:52.78	194.87	21.70	-43.1	-45.8	24.2	6.05e-01	0	43	0	828899328	57	5035
2026-01-03 01:25:53.50	194.89	21.59	-43.1	-45.8	24.2	6.03e-01	0	43	0	830472192	57	5024
2026-01-03 01:25:54.85	194.91	21.37	-43.1	-45.8	24.2	6.03e-01	0	43	0	833093632	57	5020
2026-01-03 01:25:55.57	194.92	21.26	-43.1	-45.8	24.2	6.06e-01	0	43	0	834142208	57	5010
2026-01-03 01:25:56.86	194.94	21.06	-43.1	-45.8	24.2	6.06e-01	0	44	0	836763648	57	5023
2026-01-03 01:25:57.57	194.95	20.95	-43.0	-45.8	24.2	6.03e-01	0	43	0	837812224	57	4984
2026-01-03 01:25:58.86	194.97	20.75	-43.1	-45.9	24.1	6.00e-01	0	43	0	840433664	57	5042
2026-01-03 01:25:59.58	194.98	20.65	-43.1	-45.8	24.2	6.04e-01	0	44	0	842006528	57	5023
2026-01-03 01:26:00.87	194.99	20.45	-43.1	-45.8	24.1	6.04e-01	0	43	0	844103680	57	5027
2026-01-03 01:26:01.58	195.00	20.34	-43.1	-45.8	24.2	6.05e-01	0	43	0	845676544	57	5020
2026-01-03 01:26:02.88	195.02	20.15	-43.1	-45.8	24.1	6.03e-01	0	44	0	847773696	57	5019
2026-01-03 01:26:03.73	195.04	20.02	-43.1	-45.8	24.1	6.04e-01	0	44	0	849346560	57	5030
2026-01-03 01:26:04.88	195.05	19.86	-43.1	-45.8	24.2	6.04e-01	0	44	0	851968000	57	5025
2026-01-03 01:26:05.74	195.06	19.73	-43.1	-45.9	24.1	6.04e-01	0	43	0	853540864	57	5060
2026-01-03 01:26:06.88	195.08	19.56	-43.1	-45.8	24.1	6.05e-01	0	44	0	855638016	57	5008
2026-01-03 01:26:07.74	195.09	19.44	-43.0	-45.7	24.2	6.02e-01	0	43	0	857210880	57	4967
2026-01-03 01:26:08.89	195.11	19.28	-43.0	-45.8	24.2	6.02e-01	0	43	0	859308032	57	4998
2026-01-03 01:26:09.74	195.12	19.16	-43.1	-45.8	24.1	6.03e-01	0	43	0	860880896	57	5031
2026-01-03 01:26:10.88	195.13	18.99	-43.0	-45.7	24.2	6.03e-01	0	44	0	862978048	57	4976
2026-01-03 01:26:11.74	195.14	18.87	-42.9	-45.7	24.3	6.02e-01	0	43	0	864550912	57	4934
2026-01-03 01:26:12.89	195.16	18.71	-43.0	-45.7	24.2	6.04e-01	0	44	0	866648064	57	4971
2026-01-03 01:26:13.74	195.17	18.59	-43.1	-45.9	24.1	6.04e-01	0	44	0	868220928	57	5049
2026-01-03 01:26:14.89	195.19	18.44	-43.0	-45.7	24.2	6.05e-01	0	43	0	870318080	57	4957
2026-01-03 01:26:15.81	195.20	18.31	-43.0	-45.8	24.2	6.05e-01	0	44	0	871890944	57	4984
2026-01-03 01:26:16.99	195.21	18.15	-43.0	-45.7	24.2	6.05e-01	0	44	0	874512384	57	4977
2026-01-03 01:26:17.85	195.22	18.03	-42.9	-45.7	24.2	6.04e-01	0	44	0	876085248	57	4953
2026-01-03 01:26:18.99	195.24	17.88	-42.9	-45.7	24.2	6.04e-01	0	43	0	878182400	57	4961
2026-01-03 01:26:19.85	195.25	17.76	-43.0	-45.8	24.2	6.05e-01	0	43	0	879755264	57	4988
2026-01-03 01:26:21.00	195.26	17.61	-43.0	-45.9	24.0	6.04e-01	0	43	0	881852416	57	5070
2026-01-03 01:26:21.85	195.27	17.50	-43.1	-46.0	24.0	6.04e-01	0	44	0	883425280	57	5106
2026-01-03 01:26:23.00	195.29	17.35	-43.0	-45.9	24.0	6.06e-01	0	44	0	885522432	57	5090
2026-01-03 01:26:23.86	195.30	17.24	-43.0	-45.8	24.1	6.04e-01	0	43	0	887095296	57	5018
2026-01-03 01:26:25.04	195.31	17.08	-42.9	-45.8	24.1	6.05e-01	0	44	0	889716736	57	5015
2026-01-03 01:26:25.90	195.32	16.97	-43.0	-45.8	24.1	6.05e-01	0	43	0	891289600	57	5039
2026-01-03 01:26:27.16	195.34	16.81	-43.0	-45.8	24.1	6.02e-01	0	43	0	893386752	57	5018
2026-01-03 01:26:27.90	195.35	16.72	-43.0	-45.9	24.0	6.03e-01	0	43	0	894959616	57	5043
2026-01-03 01:26:29.19	195.36	16.55	-43.0	-45.8	24.0	6.04e-01	0	44	0	897056768	57	5028
2026-01-03 01:26:29.91	195.37	16.46	-43.0	-45.8	24.0	6.05e-01	0	43	0	898629632	57	5014
2026-01-03 01:26:31.20	195.38	16.30	-43.0	-45.8	24.1	6.02e-01	0	43	0	901251072	57	5010
2026-01-03 01:26:31.98	195.39	16.20	-43.0	-45.8	24.0	6.01e-01	0	44	0	902299648	57	5039
2026-01-03 01:26:33.26	195.41	16.04	-43.0	-45.8	24.1	6.04e-01	0	43	0	904921088	57	5012
2026-01-03 01:26:33.98	195.42	15.95	-42.9	-45.7	24.1	6.02e-01	0	44	0	906493952	57	4962
2026-01-03 01:26:35.27	195.43	15.80	-42.9	-45.7	24.1	6.05e-01	0	43	0	908591104	57	4954
2026-01-03 01:26:35.99	195.44	15.71	-42.9	-45.7	24.1	6.03e-01	0	44	0	910163968	57	4961
2026-01-03 01:26:37.28	195.45	15.55	-42.9	-45.7	24.1	6.02e-01	0	44	0	912261120	57	4970
2026-01-03 01:26:37.99	195.46	15.47	-42.8	-45.6	24.2	6.06e-01	0	43	0	913833984	57	4920
2026-01-03 01:26:39.28	195.47	15.31	-42.8	-45.6	24.2	6.02e-01	0	43	0	916455424	57	4895
2026-01-03 01:26:40.00	195.48	15.23	-42.9	-45.6	24.2	6.07e-01	0	43	0	917504000	57	4923
2026-01-03 01:26:41.29	195.50	15.07	-42.8	-45.6	24.3	6.07e-01	0	43	0	920125440	57	4885
2026-01-03 01:26:42.00	195.50	14.99	-42.8	-45.6	24.3	6.04e-01	0	44	0	921174016	57	4877
2026-01-03 01:26:43.29	195.52	14.84	-42.9	-45.7	24.1	6.05e-01	0	44	0	923795456	57	4937
2026-01-03 01:26:44.01	195.53	14.76	-42.9	-45.7	24.1	6.05e-01	0	43	0	924844032	57	4947
2026-01-03 01:26:45.30	195.54	14.61	-42.8	-45.6	24.2	6.03e-01	0	43	0	927465472	57	4896
2026-01-03 01:26:46.01	195.55	14.52	-42.9	-45.7	24.2	6.04e-01	0	43	0	928514048	57	4928
2026-01-03 01:26:47.30	195.56	14.38	-42.8	-45.6	24.2	6.05e-01	0	43	0	931135488	57	4892
2026-01-03 01:26:48.10	195.57	14.28	-42.8	-45.6	24.2	6.02e-01	0	44	0	932708352	57	4908
2026-01-03 01:26:49.24	195.58	14.15	-42.7	-45.5	24.3	6.03e-01	0	43	0	934805504	57	4836
2026-01-03 01:26:50.31	195.59	14.03	-42.8	-45.6	24.2	6.03e-01	0	44	0	936902656	57	4889
2026-01-03 01:26:51.34	195.60	13.92	-42.8	-45.6	24.2	6.05e-01	0	43	0	938999808	57	4886
2026-01-03 01:26:52.34	195.61	13.81	-42.7	-45.4	24.4	6.03e-01	0	43	0	940572672	57	4795
2026-01-03 01:26:53.35	195.62	13.69	-42.7	-45.4	24.4	6.04e-01	0	43	0	942669824	57	4797
2026-01-03 01:26:54.35	195.63	13.58	-42.8	-45.5	24.2	6.03e-01	0	43	0	944242688	57	4854
2026-01-03 01:26:55.35	195.64	13.47	-42.7	-45.4	24.4	6.03e-01	0	43	0	946339840	57	4809
2026-01-03 01:26:56.35	195.65	13.36	-42.6	-45.4	24.4	6.05e-01	0	44	0	948436992	57	4783
2026-01-03 01:26:57.36	195.66	13.25	-42.7	-45.4	24.3	6.03e-01	0	44	0	950009856	57	4810
2026-01-03 01:26:58.36	195.67	13.15	-42.7	-45.4	24.4	6.04e-01	0	43	0	952107008	57	4790
2026-01-03 01:26:59.36	195.68	13.04	-42.8	-45.5	24.3	6.03e-01	0	43	0	953679872	57	4834
2026-01-03 01:27:00.37	195.69	12.93	-42.8	-45.5	24.3	6.03e-01	0	43	0	955777024	57	4857
2026-01-03 01:27:01.37	195.70	12.82	-42.8	-45.5	24.2	6.03e-01	0	43	0	957874176	57	4866
2026-01-03 01:27:02.37	195.71	12.72	-42.8	-45.5	24.2	6.02e-01	0	43	0	959447040	57	4859
2026-01-03 01:27:03.37	195.72	12.61	-42.8	-45.6	24.2	6.03e-01	0	43	0	961544192	57	4879
2026-01-03 01:27:04.47	195.73	12.49	-42.9	-45.7	24.1	6.05e-01	0	43	0	963641344	57	4935
2026-01-03 01:27:05.36	195.74	12.40	-42.9	-45.6	24.2	6.03e-01	0	43	0	965214208	57	4909
2026-01-03 01:27:06.51	195.75	12.28	-42.9	-45.6	24.1	6.04e-01	0	43	0	967311360	57	4911
2026-01-03 01:27:07.37	195.76	12.19	-42.9	-45.7	24.1	6.04e-01	0	43	0	968884224	57	4950
2026-01-03 01:27:08.72	195.77	12.05	-42.9	-45.7	24.0	6.06e-01	0	43	0	971505664	57	4969
2026-01-03 01:27:09.43	195.78	11.98	-42.9	-45.7	24.0	6.07e-01	0	43	0	972554240	57	4978
2026-01-03 01:27:10.72	195.79	11.85	-43.0	-45.8	24.0	6.02e-01	0	43	0	975175680	57	4996
2026-01-03 01:27:11.44	195.80	11.77	-43.0	-45.8	23.9	6.04e-01	0	43	0	976748544	57	5033
2026-01-03 01:27:12.73	195.81	11.64	-43.1	-46.0	23.7	6.02e-01	0	44	0	978845696	57	5111
2026-01-03 01:27:13.44	195.81	11.57	-43.1	-46.0	23.8	6.01e-01	0	43	0	980418560	57	5108
2026-01-03 01:27:14.73	195.82	11.44	-43.0	-45.9	23.8	6.03e-01	0	43	0	982515712	57	5094
2026-01-03 01:27:15.45	195.83	11.37	-43.0	-45.9	23.8	6.04e-01	0	43	0	984088576	57	5095
2026-01-03 01:27:16.74	195.84	11.24	-43.1	-46.0	23.7	6.03e-01	0	44	0	986185728	57	5158
2026-01-03 01:27:17.45	195.85	11.17	-43.1	-46.1	23.7	6.04e-01	0	44	0	987758592	57	5189
2026-01-03 01:27:18.74	195.86	11.04	-43.2	-46.1	23.6	6.03e-01	0	43	0	990380032	57	5218
2026-01-03 01:27:19.70	195.87	10.95	-43.2	-46.1	23.6	6.04e-01	0	43	0	991952896	57	5196
2026-01-03 01:27:21.02	195.88	10.82	-43.3	-46.2	23.5	6.03e-01	0	44	0	994574336	57	5261
2026-01-03 01:27:21.78	195.89	10.75	-43.2	-46.1	23.6	6.04e-01	0	44	0	996147200	57	5212
2026-01-03 01:27:23.07	195.90	10.62	-43.3	-46.2	23.4	6.04e-01	0	43	0	998244352	57	5273
2026-01-03 01:27:23.88	195.91	10.54	-43.3	-46.3	23.5	6.04e-01	0	44	0	999817216	57	5284
2026-01-03 01:27:25.03	195.91	10.43	-43.3	-46.3	23.5	6.04e-01	0	43	0	1001914368	57	5290
2026-01-03 01:27:25.89	195.92	10.35	-43.3	-46.2	23.5	6.04e-01	0	43	0	1003487232	57	5269
2026-01-03 01:27:27.03	195.93	10.24	-43.4	-46.3	23.4	6.06e-01	0	44	0	1005584384	57	5314
2026-01-03 01:27:27.89	195.94	10.16	-43.4	-46.4	23.4	6.06e-01	0	44	0	1007157248	57	5355
2026-01-03 01:27:29.04	195.95	10.05	-43.4	-46.4	23.3	6.02e-01	0	43	0	1009254400	57	5344
2026-01-03 01:27:29.90	195.96	9.97	-43.4	-46.4	23.3	6.05e-01	0	43	0	1010827264	57	5353
2026-01-03 01:27:31.04	195.97	9.87	-43.4	-46.4	23.3	6.05e-01	0	43	0	1013448704	57	5359
2026-01-03 01:27:31.89	195.97	9.79	-43.5	-46.5	23.2	6.04e-01	0	44	0	1015021568	57	5423
2026-01-03 01:27:33.04	195.98	9.68	-43.6	-46.5	23.2	6.04e-01	0	44	0	1017118720	57	5457
2026-01-03 01:27:33.90	195.99	9.60	-43.5	-46.4	23.3	6.04e-01	0	43	0	1018691584	57	5382
2026-01-03 01:27:35.04	196.00	9.50	-43.5	-46.5	23.2	6.02e-01	0	43	0	1020788736	57	5433
2026-01-03 01:27:35.90	196.01	9.42	-43.6	-46.6	23.1	6.02e-01	0	43	0	1022361600	57	5483
2026-01-03 01:27:37.05	196.01	9.31	-43.7	-46.7	23.0	6.05e-01	0	43	0	1024458752	58	5236
2026-01-03 01:27:37.91	196.02	9.24	-43.6	-46.6	23.1	6.04e-01	0	43	0	1026031616	58	5172
2026-01-03 01:27:39.05	196.03	9.13	-43.8	-46.7	23.0	6.05e-01	0	43	0	1028128768	58	5270
2026-01-03 01:27:39.91	196.04	9.06	-43.8	-46.8	22.9	6.05e-01	0	43	0	1029701632	58	5294
2026-01-03 01:27:41.06	196.05	8.95	-49.2	-62.4	4.0	7.18e-01	0	43	104	1031798784	69	16925
2026-01-03 01:27:41.92	196.05	8.88	-49.5	-69.8	3.8	7.49e-01	0	43	104	1031798784	69	39600
2026-01-03 01:27:43.07	196.06	8.77	-49.7	-71.2	3.8	7.47e-01	0	44	104	1031798784	70	43988
2026-01-03 01:27:43.93	196.07	8.70	-50.4	-71.3	3.8	7.46e-01	0	43	104	1031798784	71	42026
2026-01-03 01:27:45.07	196.08	8.60	-50.2	-71.3	3.8	7.45e-01	0	43	104	1031798784	71	42298
2026-01-03 01:27:45.94	196.08	8.52	-50.2	-71.3	3.8	7.46e-01	0	43	104	1031798784	72	39894
2026-01-03 01:27:47.08	196.09	8.42	-51.0	-71.4	3.8	7.47e-01	0	44	104	1031798784	72	40053
2026-01-03 01:27:47.94	196.10	8.35	-50.8	-71.4	3.8	7.47e-01	0	43	104	1031798784	72	40126
2026-01-03 01:27:49.09	196.11	8.25	-51.1	-71.4	3.9	7.47e-01	0	43	104	1031798784	73	38021
2026-01-03 01:27:49.95	196.12	8.17	-50.7	-71.4	3.8	7.46e-01	0	43	104	1031798784	73	38079
2026-01-03 01:27:51.10	196.12	8.07	-50.7	-71.4	3.8	7.43e-01	0	43	104	1031798784	73	38059
2026-01-03 01:27:51.96	196.13	8.00	-50.2	-71.4	3.8	7.45e-01	0	43	104	1031798784	72	40414
2026-01-03 01:27:53.10	196.14	7.90	-51.2	-71.4	3.8	7.48e-01	0	44	104	1031798784	73	38128
2026-01-03 01:27:53.96	196.15	7.83	-50.9	-71.4	3.8	7.47e-01	0	44	104	1031798784	73	38195
2026-01-03 01:27:55.11	196.15	7.73	-51.2	-71.4	3.8	7.46e-01	0	44	104	1031798784	73	38193
2026-01-03 01:27:56.45	196.16	7.62	-50.9	-71.4	3.8	7.46e-01	0	43	104	1031798784	73	38083
2026-01-03 01:27:57.17	196.17	7.56	-50.3	-71.4	3.8	7.47e-01	0	44	104	1031798784	72	40495
2026-01-03 01:27:58.46	196.18	7.45	-51.3	-71.4	3.8	7.43e-01	0	44	104	1031798784	73	38145
2026-01-03 01:27:59.18	196.19	7.39	-51.2	-71.4	3.8	7.47e-01	0	44	104	1031798784	73	38126
2026-01-03 01:28:00.52	196.19	7.28	-51.0	-71.4	3.8	7.46e-01	0	44	104	1031798784	73	38108
2026-01-03 01:28:01.23	196.20	7.22	-50.9	-71.4	3.8	7.45e-01	0	44	104	1031798784	73	38203
2026-01-03 01:28:02.60	196.21	7.10	-50.7	-71.4	3.8	7.45e-01	0	44	104	1031798784	73	38146
2026-01-03 01:28:03.32	196.22	7.04	-50.6	-71.4	3.8	7.47e-01	0	44	104	1031798784	72	40418
2026-01-03 01:28:04.69	196.23	6.93	-50.3	-71.4	3.8	7.49e-01	0	43	104	1031798784	72	40208
2026-01-03 01:28:05.40	196.23	6.87	-50.3	-71.4	3.8	7.48e-01	0	44	104	1031798784	72	40146
2026-01-03 01:28:06.76	196.24	6.76	-50.4	-71.4	3.8	7.47e-01	0	43	104	1031798784	72	40169
2026-01-03 01:28:07.48	196.25	6.71	-50.4	-71.4	3.8	7.46e-01	0	44	104	1031798784	72	40056
2026-01-03 01:28:08.77	196.25	6.60	-50.3	-71.4	3.8	7.46e-01	0	44	104	1031798784	72	40070
2026-01-03 01:28:09.49	196.26	6.54	-50.4	-71.3	3.8	7.45e-01	0	44	104	1031798784	72	40038
2026-01-03 01:28:10.78	196.27	6.44	-50.4	-71.4	3.8	7.46e-01	0	44	104	1031798784	72	40067
2026-01-03 01:28:11.49	196.27	6.38	-50.4	-71.4	3.8	7.45e-01	0	44	104	1031798784	72	40050
2026-01-03 01:28:12.79	196.28	6.28	-50.4	-71.4	3.8	7.46e-01	0	43	104	1031798784	72	40158
2026-01-03 01:28:13.50	196.29	6.22	-50.4	-71.4	3.8	7.48e-01	0	44	104	1031798784	72	40163
2026-01-03 01:28:14.79	196.30	6.12	-50.4	-71.4	3.8	7.44e-01	0	44	104	1031798784	72	40067
2026-01-03 01:28:15.51	196.30	6.06	-50.4	-71.4	3.8	7.45e-01	0	43	104	1031798784	72	40167
2026-01-03 01:28:16.80	196.31	5.96	-50.4	-71.4	3.8	7.45e-01	0	43	104	1031798784	72	40136
2026-01-03 01:28:17.52	196.32	5.91	-50.4	-71.3	3.8	7.46e-01	0	44	104	1031798784	72	40021
2026-01-03 01:28:18.81	196.32	5.81	-50.3	-71.4	3.8	7.45e-01	0	44	104	1031798784	72	40100
2026-01-03 01:28:19.53	196.33	5.75	-50.4	-71.4	3.8	7.43e-01	0	44	104	1031798784	72	40062
2026-01-03 01:28:20.82	196.34	5.65	-50.4	-71.4	3.8	7.43e-01	0	44	104	1031798784	72	40078
2026-01-03 01:28:21.53	196.34	5.59	-50.4	-71.4	3.8	7.42e-01	0	43	104	1031798784	72	40095
2026-01-03 01:28:22.82	196.35	5.50	-50.3	-71.4	3.8	7.46e-01	0	43	104	1031798784	72	40115
2026-01-03 01:28:23.54	196.36	5.44	-50.4	-71.4	3.8	7.48e-01	0	44	104	1031798784	72	40084
2026-01-03 01:28:24.83	196.36	5.34	-50.3	-71.3	3.8	7.49e-01	0	43	104	1031798784	72	40038
2026-01-03 01:28:25.55	196.37	5.29	-50.4	-71.4	3.8	7.46e-01	0	43	104	1031798784	72	40096
2026-01-03 01:28:26.84	196.38	5.19	-50.4	-71.4	3.8	7.49e-01	0	43	104	1031798784	72	40142
2026-01-03 01:28:27.56	196.38	5.13	-50.4	-71.3	3.8	7.46e-01	0	44	104	1031798784	72	40030
2026-01-03 01:28:28.85	196.39	5.04	-50.3	-71.3	3.8	7.47e-01	0	44	104	1031798784	72	40030
2026-01-03 01:28:29.57	196.40	4.98	-50.3	-71.3	3.8	7.44e-01	0	44	104	1031798784	72	40016

#Closed at: 2026-01-03 01:28:30
#Recorded file [1031 MB]: D:/Data/31040_260103_041704.dat