passes_logs/2026/01/03/T1/T1__20260103_110433_FENGYUN_3E_rec.log

#Pass ID: 20260103_110433_FENGYUN 3E
#Satellite: FENGYUN 3E
#Configuration: FENGYUN 3E
#almurnet v.1.7.20251203
#Start time: 2026-01-03 11:04:35

#Version: 2.0.20230620
#Station: T1
#Location: 37.570604 lon 55.790049 lat
#TLE: 1 49008U 21062A   26002.95568549 -.00000227  00000+0 -86494-4 0  9990
#TLE: 2 49008  98.7475   8.2258 0001442 163.3458 196.7766 14.19882681233131

#Time	Az	El	Level	Level2	SNR	BER	BlckErr	Temp	State	Recorded	gain1	gain2
2026-01-03 11:04:35.34	53.78	5.05	-53.7	-64.7	3.8	8.46e-01	0	37	0	0	78	12291
2026-01-03 11:04:36.33	53.64	5.08	-54.2	-65.1	3.8	8.48e-01	0	37	104	0	78	12892
2026-01-03 11:04:37.34	53.50	5.11	-53.9	-64.9	3.8	8.46e-01	0	37	104	0	78	12563
2026-01-03 11:04:38.34	53.36	5.14	-53.8	-64.7	3.8	8.47e-01	0	37	104	0	78	12321
2026-01-03 11:04:39.35	53.22	5.17	-53.8	-64.8	3.8	8.47e-01	0	38	104	0	78	12432
2026-01-03 11:04:40.35	53.08	5.19	-53.8	-64.7	3.8	8.47e-01	0	38	104	0	78	12341
2026-01-03 11:04:41.36	52.94	5.22	-53.8	-64.7	3.8	8.46e-01	0	37	104	0	78	12326
2026-01-03 11:04:42.36	52.80	5.25	-53.7	-64.7	3.8	8.47e-01	0	37	104	0	78	12282
2026-01-03 11:04:43.36	52.66	5.28	-53.8	-64.8	3.8	8.48e-01	0	38	104	0	78	12388
2026-01-03 11:04:44.37	52.52	5.31	-53.8	-64.7	3.8	8.47e-01	0	38	104	0	78	12287
2026-01-03 11:04:45.37	52.38	5.34	-53.8	-64.8	3.8	8.47e-01	0	38	104	0	78	12378
2026-01-03 11:04:46.38	52.23	5.36	-53.7	-64.7	3.8	8.47e-01	0	38	104	0	78	12260
2026-01-03 11:04:47.38	52.09	5.39	-53.7	-64.7	3.8	8.47e-01	0	38	104	0	78	12268
2026-01-03 11:04:48.39	51.95	5.42	-54.2	-65.2	3.8	8.47e-01	0	38	104	0	78	13003
2026-01-03 11:04:49.39	51.81	5.45	-54.1	-65.1	3.8	8.45e-01	0	38	104	0	78	12835
2026-01-03 11:04:50.40	51.66	5.47	-53.8	-64.8	3.8	8.46e-01	0	38	104	0	78	12445
2026-01-03 11:04:51.40	51.52	5.50	-53.8	-64.7	3.8	8.46e-01	0	38	104	0	78	12249
2026-01-03 11:04:52.40	51.38	5.53	-53.8	-64.7	3.8	8.47e-01	0	38	104	0	78	12308
2026-01-03 11:04:53.41	51.23	5.55	-53.8	-64.7	3.8	8.47e-01	0	38	104	0	78	12324
2026-01-03 11:04:54.41	51.09	5.58	-53.7	-64.7	3.8	8.47e-01	0	38	104	0	78	12315
2026-01-03 11:04:55.42	50.94	5.61	-53.7	-64.7	3.8	8.46e-01	0	38	104	0	78	12281
2026-01-03 11:04:56.42	50.80	5.63	-53.7	-64.7	3.8	8.47e-01	0	38	104	0	78	12320
2026-01-03 11:04:57.43	50.65	5.66	-53.7	-64.6	3.8	8.47e-01	0	38	104	0	78	12227
2026-01-03 11:04:58.43	50.51	5.68	-53.7	-64.7	3.8	8.47e-01	0	38	104	0	78	12335
2026-01-03 11:04:59.44	50.36	5.71	-53.7	-64.7	3.8	8.46e-01	0	38	104	0	78	12246
2026-01-03 11:05:00.44	50.22	5.74	-54.2	-65.2	3.8	8.46e-01	0	38	104	0	78	13109
2026-01-03 11:05:01.44	50.07	5.76	-54.1	-65.0	3.8	8.47e-01	0	38	104	0	78	12707
2026-01-03 11:05:02.45	49.93	5.79	-53.8	-64.8	3.8	8.47e-01	0	38	104	0	78	12483
2026-01-03 11:05:03.45	49.78	5.81	-53.8	-64.7	3.8	8.48e-01	0	38	104	0	78	12342
2026-01-03 11:05:04.46	49.63	5.84	-53.7	-64.6	3.8	8.45e-01	0	38	104	0	78	12205
2026-01-03 11:05:05.46	49.49	5.86	-53.7	-64.7	3.8	8.47e-01	0	38	104	0	78	12307
2026-01-03 11:05:06.47	49.34	5.89	-53.7	-64.6	3.8	8.46e-01	0	38	104	0	78	12230
2026-01-03 11:05:07.47	49.19	5.91	-53.7	-64.7	3.8	8.47e-01	0	38	104	0	78	12260
2026-01-03 11:05:08.47	49.04	5.94	-53.7	-64.7	3.8	8.47e-01	0	38	104	0	78	12288
2026-01-03 11:05:09.48	48.90	5.96	-53.7	-64.7	3.8	8.48e-01	0	38	104	0	78	12336
2026-01-03 11:05:10.48	48.75	5.99	-53.8	-64.8	3.8	8.48e-01	0	38	104	0	78	12382
2026-01-03 11:05:11.49	48.60	6.01	-53.8	-64.7	3.8	8.47e-01	0	38	104	0	78	12374
2026-01-03 11:05:12.49	48.45	6.03	-53.7	-64.7	3.8	8.47e-01	0	38	104	0	78	12339
2026-01-03 11:05:13.50	48.30	6.06	-53.7	-64.7	3.8	8.46e-01	0	39	104	0	78	12256
2026-01-03 11:05:14.50	48.15	6.08	-53.8	-64.7	3.8	8.46e-01	0	38	104	0	78	12251
2026-01-03 11:05:15.50	48.00	6.11	-53.8	-64.7	3.8	8.47e-01	0	38	104	0	78	12358
2026-01-03 11:05:16.51	47.85	6.13	-54.3	-65.2	3.8	8.46e-01	0	39	104	0	78	13042
2026-01-03 11:05:17.51	47.70	6.15	-54.0	-65.0	3.8	8.47e-01	0	39	104	0	78	12697
2026-01-03 11:05:18.52	47.55	6.17	-53.8	-64.8	3.8	8.47e-01	0	39	104	0	78	12406
2026-01-03 11:05:19.52	47.40	6.20	-53.8	-64.7	3.8	8.46e-01	0	39	104	0	78	12314
2026-01-03 11:05:20.53	47.25	6.22	-53.8	-64.7	3.8	8.46e-01	0	38	104	0	78	12314
2026-01-03 11:05:21.53	47.10	6.24	-54.2	-65.2	3.8	8.46e-01	0	38	104	0	78	13055
2026-01-03 11:05:22.54	46.95	6.27	-53.9	-64.7	3.8	8.46e-01	0	38	104	0	78	12362
2026-01-03 11:05:23.54	46.80	6.29	-53.8	-64.7	3.8	8.47e-01	0	38	104	0	78	12367
2026-01-03 11:05:24.54	46.65	6.31	-53.8	-64.7	3.8	8.46e-01	0	39	104	0	78	12368
2026-01-03 11:05:25.55	46.49	6.33	-53.8	-64.7	3.8	8.47e-01	0	39	104	0	78	12313
2026-01-03 11:05:26.56	46.34	6.35	-53.8	-64.8	3.8	8.46e-01	0	39	104	0	78	12420
2026-01-03 11:05:27.56	46.19	6.37	-53.7	-64.7	3.8	8.47e-01	0	38	104	0	78	12323
2026-01-03 11:05:28.56	46.04	6.40	-53.8	-64.7	3.8	8.46e-01	0	39	104	0	78	12309
2026-01-03 11:05:29.57	45.88	6.42	-53.8	-64.7	3.8	8.46e-01	0	39	104	0	78	12372
2026-01-03 11:05:30.57	45.73	6.44	-53.9	-64.8	3.8	8.46e-01	0	39	104	0	78	12437
2026-01-03 11:05:31.58	45.58	6.46	-53.9	-64.9	3.8	8.48e-01	0	39	104	0	78	12533
2026-01-03 11:05:32.58	45.42	6.48	-53.8	-64.8	3.8	8.47e-01	0	39	104	0	78	12435
2026-01-03 11:05:33.58	45.27	6.50	-53.8	-64.8	3.8	8.46e-01	0	39	104	0	78	12389
2026-01-03 11:05:34.59	45.12	6.52	-54.3	-65.2	3.8	8.46e-01	0	39	104	0	78	13070
2026-01-03 11:05:35.59	44.96	6.54	-54.2	-65.2	3.8	8.47e-01	0	39	104	0	78	12996
2026-01-03 11:05:36.60	44.81	6.56	-53.9	-64.8	3.8	8.46e-01	0	39	104	0	78	12448
2026-01-03 11:05:37.60	44.65	6.58	-53.8	-64.7	3.8	8.46e-01	0	39	104	0	78	12357
2026-01-03 11:05:38.61	44.50	6.60	-53.8	-64.8	3.8	8.46e-01	0	39	104	0	78	12389
2026-01-03 11:05:39.61	44.34	6.62	-53.8	-64.8	3.8	8.46e-01	0	39	104	0	78	12386
2026-01-03 11:05:40.61	44.19	6.64	-53.8	-64.7	3.8	8.47e-01	0	39	104	0	78	12355
2026-01-03 11:05:41.62	44.03	6.66	-53.8	-64.7	3.8	8.46e-01	0	39	104	0	78	12351
2026-01-03 11:05:42.62	43.88	6.68	-53.8	-64.7	3.8	8.47e-01	0	39	104	0	78	12279
2026-01-03 11:05:43.63	43.72	6.69	-53.7	-64.7	3.8	8.48e-01	0	39	104	0	78	12280
2026-01-03 11:05:44.63	43.57	6.71	-53.8	-64.8	3.8	8.47e-01	0	39	104	0	78	12421
2026-01-03 11:05:45.64	43.41	6.73	-53.8	-64.8	3.8	8.46e-01	0	39	104	0	78	12397
2026-01-03 11:05:46.64	43.25	6.75	-53.8	-64.7	3.8	8.47e-01	0	39	104	0	78	12372
2026-01-03 11:05:47.65	43.10	6.77	-53.8	-64.8	3.8	8.47e-01	0	39	104	0	78	12387
2026-01-03 11:05:48.65	42.94	6.79	-53.7	-64.7	3.8	8.47e-01	0	39	104	0	78	12237
2026-01-03 11:05:49.65	42.78	6.80	-54.4	-65.3	3.8	8.48e-01	0	39	104	0	78	13147
2026-01-03 11:05:50.66	42.63	6.82	-53.9	-64.9	3.8	8.46e-01	0	39	104	0	78	12584
2026-01-03 11:05:51.66	42.47	6.84	-53.8	-64.7	3.8	8.47e-01	0	39	104	0	78	12247
2026-01-03 11:05:52.67	42.31	6.85	-53.8	-64.7	3.8	8.46e-01	0	39	104	0	78	12348
2026-01-03 11:05:53.67	42.15	6.87	-53.7	-64.7	3.8	8.48e-01	0	39	104	0	78	12304
2026-01-03 11:05:54.67	42.00	6.89	-53.7	-64.7	3.8	8.46e-01	0	39	104	0	78	12361
2026-01-03 11:05:55.68	41.84	6.90	-53.7	-64.7	3.8	8.47e-01	0	39	104	0	78	12316
2026-01-03 11:05:56.68	41.68	6.92	-53.7	-64.7	3.8	8.47e-01	0	39	104	0	78	12320
2026-01-03 11:05:57.69	41.52	6.94	-53.8	-64.7	3.8	8.48e-01	0	39	104	0	78	12289
2026-01-03 11:05:58.69	41.36	6.95	-53.7	-64.7	3.8	8.46e-01	0	39	104	0	78	12346
2026-01-03 11:05:59.70	41.20	6.97	-53.8	-64.7	3.8	8.46e-01	0	39	104	0	78	12336
2026-01-03 11:06:00.70	41.04	6.98	-53.7	-64.7	3.8	8.46e-01	0	39	104	0	78	12314
2026-01-03 11:06:01.70	40.89	7.00	-53.8	-64.7	3.8	8.46e-01	0	39	104	0	78	12333
2026-01-03 11:06:02.71	40.73	7.01	-54.4	-65.3	3.8	8.47e-01	0	39	104	0	78	13186
2026-01-03 11:06:03.71	40.57	7.03	-53.9	-64.8	3.8	8.47e-01	0	39	104	0	78	12459
2026-01-03 11:06:04.72	40.41	7.04	-53.8	-64.8	3.8	8.47e-01	0	39	104	0	78	12418
2026-01-03 11:06:05.72	40.25	7.06	-53.8	-64.8	3.8	8.47e-01	0	39	104	0	78	12382
2026-01-03 11:06:06.72	40.09	7.07	-53.7	-64.7	3.8	8.47e-01	0	39	104	0	78	12281
2026-01-03 11:06:07.73	39.93	7.09	-53.7	-64.7	3.8	8.47e-01	0	39	104	0	78	12266
2026-01-03 11:06:08.73	39.77	7.10	-53.7	-64.7	3.8	8.47e-01	0	39	104	0	78	12364
2026-01-03 11:06:09.74	39.61	7.11	-53.7	-64.6	3.8	8.47e-01	0	39	104	0	78	12182
2026-01-03 11:06:10.74	39.45	7.13	-53.7	-64.7	3.8	8.47e-01	0	39	104	0	78	12337
2026-01-03 11:06:11.75	39.28	7.14	-53.7	-64.7	3.8	8.47e-01	0	39	104	0	78	12270
2026-01-03 11:06:12.75	39.12	7.15	-53.7	-64.7	3.8	8.46e-01	0	39	104	0	78	12244
2026-01-03 11:06:13.76	38.96	7.17	-53.7	-64.7	3.8	8.47e-01	0	39	104	0	78	12289
2026-01-03 11:06:14.76	38.80	7.18	-54.2	-65.1	3.8	8.47e-01	0	39	104	0	78	12948
2026-01-03 11:06:15.76	38.64	7.19	-54.0	-65.0	3.8	8.47e-01	0	39	104	0	78	12729
2026-01-03 11:06:16.77	38.48	7.20	-53.8	-64.7	3.8	8.47e-01	0	39	104	0	78	12317
2026-01-03 11:06:17.77	38.32	7.22	-53.8	-64.7	3.8	8.47e-01	0	39	104	0	78	12329
2026-01-03 11:06:18.77	38.16	7.23	-53.8	-64.7	3.8	8.46e-01	0	39	104	0	78	12257
2026-01-03 11:06:19.78	37.99	7.24	-53.8	-64.7	3.8	8.45e-01	0	39	104	0	78	12270
2026-01-03 11:06:20.78	37.83	7.25	-53.7	-64.7	3.8	8.46e-01	0	39	104	0	78	12270
2026-01-03 11:06:21.79	37.67	7.26	-53.7	-64.7	3.8	8.47e-01	0	39	104	0	78	12325
2026-01-03 11:06:22.79	37.51	7.27	-53.7	-64.7	3.8	8.47e-01	0	39	104	0	78	12257
2026-01-03 11:06:23.80	37.35	7.28	-53.7	-64.7	3.8	8.47e-01	0	39	104	0	78	12248
2026-01-03 11:06:24.80	37.18	7.29	-53.7	-64.7	3.8	8.46e-01	0	39	104	0	78	12318
2026-01-03 11:06:25.80	37.02	7.30	-53.7	-64.6	3.8	8.47e-01	0	39	104	0	78	12221
2026-01-03 11:06:26.81	36.86	7.31	-53.7	-64.6	3.8	8.46e-01	0	39	104	0	78	12222
2026-01-03 11:06:27.81	36.70	7.32	-53.8	-64.7	3.8	8.47e-01	0	39	104	0	78	12320
2026-01-03 11:06:28.82	36.53	7.33	-54.3	-65.2	3.8	8.48e-01	0	39	104	0	78	13044
2026-01-03 11:06:29.82	36.37	7.34	-53.9	-64.8	3.8	8.46e-01	0	39	104	0	78	12406
2026-01-03 11:06:30.83	36.21	7.35	-53.8	-64.7	3.8	8.47e-01	0	39	104	0	78	12351
2026-01-03 11:06:31.83	36.04	7.36	-53.8	-64.8	3.8	8.46e-01	0	39	104	0	78	12442
2026-01-03 11:06:32.84	35.88	7.37	-53.8	-64.7	3.8	8.47e-01	0	39	104	0	78	12329
2026-01-03 11:06:33.84	35.72	7.38	-53.7	-64.7	3.8	8.46e-01	0	39	104	0	78	12247
2026-01-03 11:06:34.84	35.55	7.39	-53.7	-64.7	3.8	8.47e-01	0	39	104	0	78	12320
2026-01-03 11:06:35.85	35.39	7.40	-53.7	-64.7	3.8	8.48e-01	0	39	104	0	78	12278
2026-01-03 11:06:36.85	35.23	7.40	-53.7	-64.7	3.8	8.46e-01	0	39	104	0	78	12262
2026-01-03 11:06:37.86	35.06	7.41	-53.7	-64.7	3.8	8.46e-01	0	39	104	0	78	12251
2026-01-03 11:06:38.86	34.90	7.42	-53.7	-64.7	3.8	8.47e-01	0	39	104	0	78	12276
2026-01-03 11:06:39.86	34.74	7.43	-53.7	-64.8	3.8	8.47e-01	0	39	104	0	78	12426
2026-01-03 11:06:40.87	34.57	7.43	-53.7	-64.6	3.8	8.48e-01	0	39	104	0	78	12210
2026-01-03 11:06:41.87	34.41	7.44	-54.2	-65.2	3.8	8.48e-01	0	39	104	0	78	13010
2026-01-03 11:06:42.88	34.24	7.45	-54.2	-65.1	3.8	8.47e-01	0	39	104	0	78	12877
2026-01-03 11:06:43.88	34.08	7.45	-54.0	-65.0	3.8	8.46e-01	0	40	104	0	78	12702
2026-01-03 11:06:44.89	33.91	7.46	-53.8	-64.7	3.8	8.46e-01	0	39	104	0	78	12361
2026-01-03 11:06:45.89	33.75	7.47	-53.8	-64.7	3.8	8.46e-01	0	39	104	0	78	12285
2026-01-03 11:06:46.90	33.58	7.47	-53.8	-64.7	3.8	8.46e-01	0	39	104	0	78	12372
2026-01-03 11:06:47.90	33.42	7.48	-53.8	-64.8	3.8	8.47e-01	0	39	104	0	78	12436
2026-01-03 11:06:48.90	33.26	7.48	-53.8	-64.7	3.8	8.47e-01	0	39	104	0	78	12350
2026-01-03 11:06:49.91	33.09	7.49	-53.8	-64.7	3.8	8.47e-01	0	40	104	0	78	12317
2026-01-03 11:06:50.91	32.93	7.49	-53.8	-64.7	3.8	8.47e-01	0	39	104	0	78	12286
2026-01-03 11:06:51.92	32.76	7.50	-53.7	-64.7	3.8	8.48e-01	0	40	104	0	78	12268
2026-01-03 11:06:52.92	32.60	7.50	-53.8	-64.7	3.8	8.47e-01	0	39	104	0	78	12351
2026-01-03 11:06:53.93	32.43	7.51	-53.8	-64.7	3.8	8.47e-01	0	39	104	0	78	12339
2026-01-03 11:06:54.93	32.27	7.51	-53.8	-64.7	3.8	8.47e-01	0	39	104	0	78	12315
2026-01-03 11:06:55.94	32.10	7.51	-53.7	-64.6	3.8	8.46e-01	0	40	104	0	78	12216
2026-01-03 11:06:56.94	31.94	7.52	-54.3	-65.2	3.8	8.47e-01	0	40	104	0	78	13106
2026-01-03 11:06:57.94	31.77	7.52	-53.9	-64.9	3.8	8.47e-01	0	39	104	0	78	12600
2026-01-03 11:06:58.95	31.61	7.52	-53.8	-64.8	3.8	8.47e-01	0	40	104	0	78	12423
2026-01-03 11:06:59.95	31.44	7.53	-53.8	-64.7	3.8	8.46e-01	0	40	104	0	78	12316
2026-01-03 11:07:00.96	31.28	7.53	-53.8	-64.7	3.8	8.47e-01	0	39	104	0	78	12315
2026-01-03 11:07:01.96	31.11	7.53	-53.7	-64.7	3.8	8.47e-01	0	39	104	0	78	12305
2026-01-03 11:07:02.97	30.95	7.53	-53.8	-64.6	3.8	8.46e-01	0	40	104	0	78	12193
2026-01-03 11:07:03.97	30.78	7.54	-53.7	-64.7	3.8	8.48e-01	0	39	104	0	78	12338
2026-01-03 11:07:04.97	30.62	7.54	-53.8	-64.7	3.8	8.47e-01	0	39	104	0	78	12305
2026-01-03 11:07:05.98	30.45	7.54	-53.8	-64.7	3.8	8.48e-01	0	39	104	0	78	12305
2026-01-03 11:07:06.98	30.29	7.54	-53.7	-64.7	3.8	8.46e-01	0	39	104	0	78	12323
2026-01-03 11:07:07.99	30.12	7.54	-53.8	-64.7	3.8	8.48e-01	0	39	104	0	78	12349
2026-01-03 11:07:08.99	29.96	7.54	-53.8	-64.7	3.8	8.47e-01	0	39	104	0	78	12340
2026-01-03 11:07:10.00	29.79	7.54	-53.7	-64.7	3.8	8.46e-01	0	40	104	0	78	12341
2026-01-03 11:07:11.00	29.63	7.54	-53.7	-64.7	3.8	8.47e-01	0	40	104	0	78	12360
2026-01-03 11:07:12.01	29.46	7.54	-53.7	-64.7	3.8	8.46e-01	0	40	104	0	78	12299
2026-01-03 11:07:13.01	29.29	7.54	-53.7	-64.6	3.8	8.47e-01	0	40	104	0	78	12202
2026-01-03 11:07:14.02	29.13	7.54	-53.7	-64.7	3.8	8.47e-01	0	40	104	0	78	12315
2026-01-03 11:07:15.02	28.96	7.54	-53.8	-64.7	3.8	8.47e-01	0	39	104	0	78	12325
2026-01-03 11:07:16.02	28.80	7.54	-54.3	-65.2	3.8	8.47e-01	0	40	104	0	78	13098
2026-01-03 11:07:17.03	28.63	7.54	-53.9	-64.9	3.8	8.46e-01	0	39	104	0	78	12557
2026-01-03 11:07:18.04	28.47	7.54	-53.8	-64.7	3.8	8.46e-01	0	40	104	0	78	12326
2026-01-03 11:07:19.04	28.30	7.54	-53.7	-64.7	3.8	8.47e-01	0	40	104	0	78	12242
2026-01-03 11:07:20.04	28.14	7.54	-53.7	-64.7	3.8	8.46e-01	0	40	104	0	78	12240
2026-01-03 11:07:21.05	27.97	7.54	-53.7	-64.6	3.8	8.47e-01	0	40	104	0	78	12230
2026-01-03 11:07:22.05	27.81	7.53	-53.7	-64.7	3.8	8.47e-01	0	40	104	0	78	12280
2026-01-03 11:07:23.06	27.64	7.53	-53.7	-64.7	3.8	8.46e-01	0	40	104	0	78	12274
2026-01-03 11:07:24.06	27.48	7.53	-53.7	-64.7	3.8	8.46e-01	0	40	104	0	78	12297
2026-01-03 11:07:25.07	27.31	7.53	-53.7	-64.7	3.8	8.48e-01	0	40	104	0	78	12245
2026-01-03 11:07:26.07	27.15	7.52	-53.7	-64.6	3.8	8.47e-01	0	40	104	0	78	12226
2026-01-03 11:07:27.08	26.98	7.52	-53.7	-64.7	3.8	8.47e-01	0	40	104	0	78	12344
2026-01-03 11:07:28.08	26.82	7.52	-53.8	-64.6	3.8	8.46e-01	0	39	104	0	78	12223
2026-01-03 11:07:29.08	26.65	7.51	-53.8	-64.7	3.8	8.46e-01	0	40	104	0	78	12314
2026-01-03 11:07:30.09	26.49	7.51	-53.8	-64.7	3.8	8.46e-01	0	40	104	0	78	12362
2026-01-03 11:07:31.09	26.32	7.51	-53.8	-64.7	3.8	8.48e-01	0	40	104	0	78	12313
2026-01-03 11:07:32.10	26.16	7.50	-53.8	-64.7	3.8	8.46e-01	0	40	104	0	78	12321
2026-01-03 11:07:33.10	25.99	7.50	-53.7	-64.6	3.8	8.47e-01	0	40	104	0	78	12172
2026-01-03 11:07:34.10	25.83	7.49	-54.3	-65.2	3.8	8.48e-01	0	40	104	0	78	13081
2026-01-03 11:07:35.11	25.66	7.49	-54.1	-65.1	3.8	8.47e-01	0	40	104	0	78	12896
2026-01-03 11:07:36.11	25.50	7.48	-53.8	-64.8	3.8	8.47e-01	0	40	104	0	78	12454
2026-01-03 11:07:37.12	25.33	7.48	-53.8	-64.8	3.8	8.47e-01	0	40	104	0	78	12427
2026-01-03 11:07:38.12	25.17	7.47	-53.8	-64.8	3.8	8.46e-01	0	40	104	0	78	12424
2026-01-03 11:07:39.13	25.00	7.47	-53.8	-64.7	3.8	8.46e-01	0	39	104	0	78	12326
2026-01-03 11:07:40.13	24.84	7.46	-53.8	-64.7	3.8	8.47e-01	0	40	104	0	78	12293
2026-01-03 11:07:41.13	24.68	7.45	-53.8	-64.8	3.8	8.47e-01	0	40	104	0	78	12383
2026-01-03 11:07:42.14	24.51	7.45	-53.7	-64.7	3.8	8.46e-01	0	39	104	0	78	12369
2026-01-03 11:07:43.14	24.35	7.44	-53.7	-64.7	3.8	8.47e-01	0	39	104	0	78	12318
2026-01-03 11:07:44.15	24.18	7.43	-53.7	-64.7	3.8	8.47e-01	0	39	104	0	78	12302
2026-01-03 11:07:45.15	24.02	7.43	-53.7	-64.7	3.8	8.48e-01	0	39	104	0	78	12355
2026-01-03 11:07:46.15	23.86	7.42	-53.7	-64.7	3.8	8.48e-01	0	40	104	0	78	12267
2026-01-03 11:07:47.16	23.69	7.41	-53.8	-64.7	3.8	8.47e-01	0	39	104	0	78	12316
2026-01-03 11:07:48.16	23.53	7.41	-53.8	-64.8	3.8	8.48e-01	0	40	104	0	78	12431
2026-01-03 11:07:49.17	23.37	7.40	-54.3	-65.3	3.8	8.46e-01	0	40	104	0	78	13168
2026-01-03 11:07:50.17	23.20	7.39	-54.1	-65.0	3.8	8.47e-01	0	40	104	0	78	12784
2026-01-03 11:07:51.18	23.04	7.38	-53.8	-64.8	3.8	8.47e-01	0	40	104	0	78	12387
2026-01-03 11:07:52.18	22.88	7.37	-53.8	-64.7	3.8	8.47e-01	0	40	104	0	78	12329
2026-01-03 11:07:53.18	22.71	7.36	-53.8	-64.7	3.8	8.47e-01	0	40	104	0	78	12271
2026-01-03 11:07:54.19	22.55	7.35	-53.8	-64.7	3.8	8.46e-01	0	40	104	0	78	12341
2026-01-03 11:07:55.19	22.39	7.34	-53.8	-64.7	3.8	8.48e-01	0	40	104	0	78	12242
2026-01-03 11:07:56.19	22.22	7.34	-53.7	-64.7	3.8	8.47e-01	0	40	104	0	78	12311
2026-01-03 11:07:57.20	22.06	7.33	-53.7	-64.7	3.8	8.47e-01	0	39	104	0	78	12268
2026-01-03 11:07:58.20	21.90	7.32	-53.8	-64.7	3.8	8.47e-01	0	39	104	0	78	12374
2026-01-03 11:07:59.21	21.74	7.31	-53.8	-64.7	3.8	8.47e-01	0	40	104	0	78	12289
2026-01-03 11:08:00.21	21.57	7.30	-53.8	-64.8	3.8	8.47e-01	0	39	104	0	78	12424
2026-01-03 11:08:01.22	21.41	7.29	-53.8	-64.7	3.8	8.48e-01	0	39	104	0	78	12291
2026-01-03 11:08:02.22	21.25	7.27	-53.8	-64.7	3.8	8.47e-01	0	40	104	0	78	12307
2026-01-03 11:08:03.23	21.09	7.26	-53.7	-64.7	3.8	8.48e-01	0	39	104	0	78	12290
2026-01-03 11:08:04.23	20.92	7.25	-54.2	-65.2	3.8	8.46e-01	0	40	104	0	78	13051
2026-01-03 11:08:05.23	20.76	7.24	-54.0	-64.9	3.8	8.48e-01	0	40	104	0	78	12638
2026-01-03 11:08:06.24	20.60	7.23	-53.8	-64.7	3.8	8.47e-01	0	40	104	0	78	12347
2026-01-03 11:08:07.24	20.44	7.22	-53.8	-64.7	3.8	8.47e-01	0	40	104	0	78	12297
2026-01-03 11:08:08.24	20.28	7.21	-53.8	-64.7	3.8	8.46e-01	0	40	104	0	78	12319
2026-01-03 11:08:09.25	20.12	7.19	-53.8	-64.8	3.8	8.45e-01	0	40	104	0	78	12381
2026-01-03 11:08:10.25	19.96	7.18	-53.8	-64.7	3.8	8.46e-01	0	40	104	0	78	12350
2026-01-03 11:08:11.25	19.80	7.17	-53.8	-64.8	3.8	8.46e-01	0	40	104	0	78	12407
2026-01-03 11:08:12.26	19.63	7.16	-53.8	-64.8	3.8	8.46e-01	0	40	104	0	78	12422
2026-01-03 11:08:13.26	19.47	7.14	-53.8	-64.7	3.8	8.47e-01	0	40	104	0	78	12339
2026-01-03 11:08:14.27	19.31	7.13	-53.8	-64.7	3.8	8.48e-01	0	40	104	0	78	12336
2026-01-03 11:08:15.27	19.15	7.12	-53.8	-64.7	3.8	8.47e-01	0	40	104	0	78	12367
2026-01-03 11:08:16.27	18.99	7.10	-53.8	-64.8	3.8	8.48e-01	0	40	104	0	78	12405
2026-01-03 11:08:17.28	18.83	7.09	-53.8	-64.8	3.8	8.46e-01	0	40	104	0	78	12433
2026-01-03 11:08:18.28	18.67	7.07	-53.8	-64.8	3.8	8.46e-01	0	40	104	0	78	12392
2026-01-03 11:08:19.29	18.51	7.06	-54.3	-65.2	3.8	8.46e-01	0	40	104	0	78	13103
2026-01-03 11:08:20.29	18.35	7.05	-54.3	-65.3	3.8	8.46e-01	0	40	104	0	78	13246
2026-01-03 11:08:21.30	18.19	7.03	-53.9	-64.8	3.8	8.46e-01	0	40	104	0	78	12455
2026-01-03 11:08:22.30	18.04	7.02	-53.8	-64.7	3.8	8.47e-01	0	39	104	0	78	12355
2026-01-03 11:08:23.31	17.88	7.00	-53.8	-64.7	3.8	8.48e-01	0	39	104	0	78	12359
2026-01-03 11:08:24.31	17.72	6.99	-53.8	-64.7	3.8	8.46e-01	0	40	104	0	78	12347
2026-01-03 11:08:25.32	17.56	6.97	-53.8	-64.7	3.8	8.47e-01	0	40	104	0	78	12306
2026-01-03 11:08:26.32	17.40	6.96	-53.8	-64.7	3.8	8.46e-01	0	40	104	0	78	12354
2026-01-03 11:08:27.33	17.24	6.94	-53.8	-64.7	3.8	8.47e-01	0	40	104	0	78	12354
2026-01-03 11:08:28.33	17.08	6.92	-53.8	-64.7	3.8	8.46e-01	0	39	104	0	78	12279
2026-01-03 11:08:29.33	16.93	6.91	-53.8	-64.7	3.8	8.47e-01	0	39	104	0	78	12313
2026-01-03 11:08:30.34	16.77	6.89	-53.8	-64.7	3.8	8.47e-01	0	40	104	0	78	12347
2026-01-03 11:08:31.34	16.61	6.87	-54.3	-65.2	3.8	8.48e-01	0	40	104	0	78	13070
2026-01-03 11:08:32.35	16.45	6.86	-53.9	-64.9	3.8	8.47e-01	0	40	104	0	78	12614
2026-01-03 11:08:33.35	16.29	6.84	-53.8	-64.7	3.8	8.47e-01	0	40	104	0	78	12338
2026-01-03 11:08:34.35	16.14	6.82	-53.8	-64.7	3.8	8.47e-01	0	40	104	0	78	12350
2026-01-03 11:08:35.36	15.98	6.81	-53.8	-64.7	3.8	8.48e-01	0	39	104	0	78	12291
2026-01-03 11:08:36.36	15.82	6.79	-53.8	-64.8	3.8	8.47e-01	0	39	104	0	78	12394
2026-01-03 11:08:37.37	15.67	6.77	-53.8	-64.7	3.8	8.46e-01	0	40	104	0	78	12364
2026-01-03 11:08:38.37	15.51	6.75	-53.7	-64.7	3.8	8.47e-01	0	40	104	0	78	12369
2026-01-03 11:08:39.37	15.36	6.74	-53.8	-64.8	3.8	8.47e-01	0	40	104	0	78	12406
2026-01-03 11:08:40.38	15.20	6.72	-53.8	-64.8	3.8	8.47e-01	0	40	104	0	78	12392
2026-01-03 11:08:41.38	15.04	6.70	-53.8	-64.7	3.8	8.47e-01	0	40	104	0	78	12315
2026-01-03 11:08:42.39	14.89	6.68	-54.3	-65.2	3.8	8.47e-01	0	40	104	0	78	13063
2026-01-03 11:08:43.39	14.73	6.66	-54.0	-65.0	3.8	8.47e-01	0	39	104	0	78	12763
2026-01-03 11:08:44.40	14.58	6.64	-53.8	-64.8	3.8	8.46e-01	0	39	104	0	78	12458
2026-01-03 11:08:45.40	14.42	6.62	-53.8	-64.8	3.8	8.47e-01	0	40	104	0	78	12407
2026-01-03 11:08:46.41	14.27	6.60	-53.8	-64.7	3.8	8.47e-01	0	40	104	0	78	12354
2026-01-03 11:08:47.41	14.11	6.58	-53.8	-64.7	3.8	8.47e-01	0	40	104	0	78	12281
2026-01-03 11:08:48.41	13.96	6.56	-53.8	-64.7	3.8	8.47e-01	0	39	104	0	78	12306
2026-01-03 11:08:49.42	13.80	6.54	-53.8	-64.7	3.8	8.48e-01	0	40	104	0	78	12366
2026-01-03 11:08:50.42	13.65	6.52	-54.0	-65.0	3.8	8.48e-01	0	39	104	0	78	12726
2026-01-03 11:08:51.43	13.50	6.50	-53.8	-64.8	3.8	8.47e-01	0	39	104	0	78	12502
2026-01-03 11:08:52.43	13.34	6.48	-53.8	-64.8	3.8	8.46e-01	0	40	104	0	78	12385
2026-01-03 11:08:53.43	13.19	6.46	-53.8	-64.8	3.8	8.47e-01	0	40	104	0	78	12382
2026-01-03 11:08:54.44	13.04	6.44	-53.7	-64.6	3.8	8.45e-01	0	40	104	0	78	12230
2026-01-03 11:08:55.44	12.88	6.42	-53.7	-64.8	3.8	8.46e-01	0	39	104	0	78	12385
2026-01-03 11:08:56.45	12.73	6.40	-53.7	-64.7	3.8	8.48e-01	0	39	104	0	78	12270
2026-01-03 11:08:57.45	12.58	6.38	-53.7	-64.7	3.8	8.47e-01	0	39	104	0	78	12310
2026-01-03 11:08:58.45	12.43	6.36	-53.7	-64.7	3.8	8.46e-01	0	40	104	0	78	12267
2026-01-03 11:08:59.46	12.28	6.34	-53.8	-64.7	3.8	8.47e-01	0	40	104	0	78	12350
2026-01-03 11:09:00.47	12.12	6.31	-53.7	-64.6	3.8	8.47e-01	0	39	104	0	78	12233
2026-01-03 11:09:01.47	11.97	6.29	-53.7	-64.7	3.8	8.47e-01	0	40	104	0	78	12284
2026-01-03 11:09:02.47	11.82	6.27	-53.8	-64.7	3.8	8.46e-01	0	40	104	0	78	12341
2026-01-03 11:09:03.48	11.67	6.25	-53.8	-64.7	3.8	8.46e-01	0	40	104	0	78	12344
2026-01-03 11:09:04.48	11.52	6.23	-54.3	-65.3	3.8	8.46e-01	0	40	104	0	78	13205
2026-01-03 11:09:05.49	11.37	6.20	-54.0	-65.0	3.8	8.46e-01	0	40	104	0	78	12784
2026-01-03 11:09:06.49	11.22	6.18	-53.9	-64.9	3.8	8.47e-01	0	40	104	0	78	12563
2026-01-03 11:09:07.49	11.07	6.16	-53.8	-64.7	3.8	8.47e-01	0	40	104	0	78	12348
2026-01-03 11:09:08.50	10.92	6.13	-53.8	-64.8	3.8	8.47e-01	0	40	104	0	78	12479
2026-01-03 11:09:09.51	10.77	6.11	-53.8	-64.7	3.8	8.47e-01	0	39	104	0	78	12359
2026-01-03 11:09:10.51	10.62	6.09	-53.8	-64.8	3.8	8.46e-01	0	40	104	0	78	12381
2026-01-03 11:09:11.51	10.47	6.06	-53.8	-64.8	3.8	8.48e-01	0	40	104	0	78	12421
2026-01-03 11:09:12.52	10.32	6.04	-53.8	-64.7	3.8	8.47e-01	0	40	104	0	78	12301
2026-01-03 11:09:13.52	10.17	6.02	-53.8	-64.7	3.8	8.48e-01	0	40	104	0	78	12352
2026-01-03 11:09:14.53	10.02	5.99	-53.8	-64.8	3.8	8.46e-01	0	40	104	0	78	12403
2026-01-03 11:09:15.53	9.88	5.97	-53.8	-64.7	3.8	8.47e-01	0	40	104	0	78	12347
2026-01-03 11:09:16.53	9.73	5.94	-53.8	-64.8	3.8	8.46e-01	0	40	104	0	78	12385
2026-01-03 11:09:17.54	9.58	5.92	-54.2	-65.2	3.8	8.47e-01	0	40	104	0	78	13022
2026-01-03 11:09:18.54	9.44	5.89	-54.0	-64.9	3.8	8.47e-01	0	39	104	0	78	12624
2026-01-03 11:09:19.55	9.29	5.87	-53.9	-64.8	3.8	8.47e-01	0	39	104	0	78	12476
2026-01-03 11:09:20.55	9.14	5.84	-53.8	-64.8	3.8	8.47e-01	0	40	104	0	78	12502
2026-01-03 11:09:21.56	8.99	5.82	-53.8	-64.7	3.8	8.47e-01	0	40	104	0	78	12316
2026-01-03 11:09:22.56	8.85	5.79	-53.8	-64.7	3.8	8.47e-01	0	39	104	0	78	12321
2026-01-03 11:09:23.57	8.70	5.77	-53.8	-64.7	3.8	8.47e-01	0	40	104	0	78	12358
2026-01-03 11:09:24.57	8.56	5.74	-53.8	-64.8	3.8	8.48e-01	0	40	104	0	78	12393
2026-01-03 11:09:25.58	8.41	5.72	-53.8	-64.7	3.8	8.46e-01	0	40	104	0	78	12252
2026-01-03 11:09:26.58	8.27	5.69	-53.8	-64.7	3.8	8.47e-01	0	40	104	0	78	12274
2026-01-03 11:09:27.59	8.12	5.66	-53.8	-64.7	3.8	8.47e-01	0	40	104	0	78	12308
2026-01-03 11:09:28.59	7.98	5.64	-53.8	-64.8	3.8	8.48e-01	0	40	104	0	78	12401
2026-01-03 11:09:29.59	7.83	5.61	-53.8	-64.8	3.8	8.47e-01	0	39	104	0	78	12385
2026-01-03 11:09:30.60	7.69	5.59	-54.3	-65.2	3.8	8.47e-01	0	39	104	0	78	13070
2026-01-03 11:09:31.60	7.54	5.56	-54.0	-65.0	3.8	8.46e-01	0	40	104	0	78	12705
2026-01-03 11:09:32.61	7.40	5.53	-53.9	-64.8	3.8	8.47e-01	0	40	104	0	78	12485
2026-01-03 11:09:33.61	7.26	5.51	-53.8	-64.7	3.8	8.46e-01	0	40	104	0	78	12331
2026-01-03 11:09:34.61	7.11	5.48	-53.8	-64.8	3.8	8.46e-01	0	40	104	0	78	12390
2026-01-03 11:09:35.62	6.97	5.45	-53.8	-64.8	3.8	8.46e-01	0	39	104	0	78	12439
2026-01-03 11:09:36.62	6.83	5.42	-53.8	-64.8	3.8	8.47e-01	0	40	104	0	78	12434
2026-01-03 11:09:37.63	6.69	5.40	-53.8	-64.7	3.8	8.47e-01	0	40	104	0	78	12311
2026-01-03 11:09:38.63	6.55	5.37	-53.8	-64.8	3.8	8.47e-01	0	40	104	0	78	12384
2026-01-03 11:09:39.64	6.40	5.34	-53.8	-64.7	3.8	8.48e-01	0	40	104	0	78	12342
2026-01-03 11:09:40.64	6.26	5.31	-53.8	-64.6	3.8	8.47e-01	0	40	104	0	78	12206
2026-01-03 11:09:41.65	6.12	5.29	-53.7	-64.7	3.8	8.46e-01	0	40	104	0	78	12274
2026-01-03 11:09:42.65	5.98	5.26	-53.7	-64.7	3.8	8.47e-01	0	40	104	0	78	12294
2026-01-03 11:09:43.65	5.84	5.23	-53.7	-64.6	3.8	8.46e-01	0	40	104	0	78	12213
2026-01-03 11:09:44.66	5.70	5.20	-53.7	-64.7	3.8	8.47e-01	0	40	104	0	78	12297
2026-01-03 11:09:45.66	5.56	5.17	-53.8	-64.7	3.8	8.46e-01	0	40	104	0	78	12355
2026-01-03 11:09:46.67	5.42	5.14	-54.1	-65.1	3.8	8.46e-01	0	40	104	0	78	12834
2026-01-03 11:09:47.67	5.28	5.12	-54.0	-65.0	3.8	8.47e-01	0	40	104	0	78	12712
2026-01-03 11:09:48.68	5.14	5.09	-54.0	-64.9	3.8	8.47e-01	0	40	104	0	78	12662
2026-01-03 11:09:49.68	5.00	5.06	-53.8	-64.8	3.8	8.47e-01	0	39	104	0	78	12410
2026-01-03 11:09:50.69	4.86	5.03	-53.8	-64.8	3.8	8.47e-01	0	40	104	0	78	12452
2026-01-03 11:09:51.69	4.73	5.00	-53.8	-64.7	3.8	8.47e-01	0	40	104	0	78	12340

#Closed at: 2026-01-03 11:09:52
#Recorded file [0 MB]: D:/Data/31040_260103_140435.dat