passes_logs/2026/01/03/T1/T1__20260103_024129_FENGYUN_3D_rec.log

#Pass ID: 20260103_024129_FENGYUN 3D
#Satellite: FENGYUN 3D
#Configuration: FENGYUN 3D
#almurnet v.1.7.20251203
#Start time: 2026-01-03 02:41:30

#Version: 2.0.20230620
#Station: T1
#Location: 37.570604 lon 55.790049 lat
#TLE: 1 43010U 17072A   26002.31768531  .00000715  00000+0  35975-3 0  9993
#TLE: 2 43010  98.9910 333.9388 0001871 131.0716 229.0622 14.19693418421454

#Time	Az	El	Level	Level2	SNR	BER	BlckErr	Temp	State	Recorded	gain1	gain2
2026-01-03 02:41:30.57	11.02	5.10	-48.9	-61.1	3.8	8.47e-01	0	37	0	0	68	15434
2026-01-03 02:41:31.56	10.98	5.17	-48.8	-61.0	3.8	8.47e-01	0	37	104	0	69	14498
2026-01-03 02:41:32.57	10.93	5.24	-48.8	-61.0	3.8	8.48e-01	0	37	104	0	69	14537
2026-01-03 02:41:33.58	10.88	5.30	-48.8	-61.0	3.8	8.46e-01	0	37	104	0	69	14511
2026-01-03 02:41:34.58	10.84	5.37	-48.8	-61.1	3.8	8.47e-01	0	37	104	0	69	14549
2026-01-03 02:41:35.58	10.79	5.44	-48.8	-61.0	3.8	8.47e-01	0	37	104	0	69	14526
2026-01-03 02:41:36.59	10.74	5.51	-48.8	-61.0	3.8	8.47e-01	0	37	104	0	69	14508
2026-01-03 02:41:37.59	10.70	5.58	-48.8	-61.0	3.8	8.46e-01	0	37	104	0	69	14501
2026-01-03 02:41:38.60	10.65	5.65	-48.7	-61.0	3.8	8.48e-01	0	37	104	0	69	14514
2026-01-03 02:41:39.60	10.60	5.72	-48.7	-61.0	3.8	8.46e-01	0	37	104	0	69	14507
2026-01-03 02:41:40.60	10.55	5.79	-48.7	-61.0	3.8	8.47e-01	0	37	104	0	69	14514
2026-01-03 02:41:41.61	10.50	5.86	-48.7	-61.0	3.8	8.47e-01	0	37	104	0	69	14503
2026-01-03 02:41:42.61	10.46	5.93	-48.7	-61.1	3.8	8.47e-01	0	37	104	0	69	14548
2026-01-03 02:41:43.61	10.41	6.00	-48.7	-61.0	3.8	8.47e-01	0	37	104	0	69	14540
2026-01-03 02:41:44.62	10.36	6.07	-48.7	-61.1	3.8	8.47e-01	0	37	104	0	69	14556
2026-01-03 02:41:45.63	10.31	6.14	-48.7	-61.0	3.8	8.46e-01	0	37	104	0	69	14494
2026-01-03 02:41:46.63	10.26	6.21	-48.7	-61.0	3.8	8.48e-01	0	37	104	0	69	14515
2026-01-03 02:41:47.63	10.21	6.28	-48.7	-61.1	3.8	8.47e-01	0	37	104	0	69	14563
2026-01-03 02:41:48.64	10.16	6.36	-48.7	-61.0	3.8	8.46e-01	0	37	104	0	69	14532
2026-01-03 02:41:49.64	10.11	6.43	-48.7	-61.0	3.8	8.47e-01	0	38	104	0	69	14488
2026-01-03 02:41:50.65	10.06	6.50	-48.7	-61.0	3.8	8.48e-01	0	38	104	0	69	14500
2026-01-03 02:41:51.65	10.01	6.57	-48.7	-61.0	3.8	8.47e-01	0	38	104	0	69	14515
2026-01-03 02:41:52.66	9.96	6.64	-48.7	-61.0	3.8	8.47e-01	0	38	104	0	69	14530
2026-01-03 02:41:53.66	9.91	6.71	-48.7	-61.0	3.8	8.45e-01	0	38	104	0	69	14480
2026-01-03 02:41:54.67	9.85	6.79	-48.7	-61.0	3.8	8.48e-01	0	38	104	0	69	14517
2026-01-03 02:41:55.67	9.80	6.86	-48.6	-61.0	3.8	8.47e-01	0	38	104	0	69	14477
2026-01-03 02:41:56.67	9.75	6.93	-48.7	-61.1	3.8	8.46e-01	0	38	104	0	69	14551
2026-01-03 02:41:57.68	9.70	7.01	-48.7	-61.0	3.8	8.45e-01	0	38	104	0	69	14523
2026-01-03 02:41:58.68	9.65	7.08	-48.6	-61.0	3.8	8.47e-01	0	38	104	0	69	14497
2026-01-03 02:41:59.68	9.59	7.15	-48.6	-61.0	3.8	8.48e-01	0	38	104	0	69	14471
2026-01-03 02:42:00.69	9.54	7.23	-48.6	-61.0	3.8	8.47e-01	0	38	104	0	69	14481
2026-01-03 02:42:01.69	9.49	7.30	-48.6	-61.0	3.8	8.48e-01	0	38	104	0	69	14490
2026-01-03 02:42:02.69	9.43	7.37	-48.7	-61.0	3.8	8.47e-01	0	38	104	0	69	14518
2026-01-03 02:42:03.70	9.38	7.45	-48.6	-61.1	3.8	8.47e-01	0	38	104	0	69	14553
2026-01-03 02:42:04.70	9.32	7.52	-48.6	-61.0	3.8	8.47e-01	0	38	104	0	69	14523
2026-01-03 02:42:05.71	9.27	7.60	-48.6	-61.0	3.8	8.48e-01	0	38	104	0	69	14493
2026-01-03 02:42:06.71	9.21	7.67	-48.6	-61.0	3.8	8.47e-01	0	38	104	0	69	14519
2026-01-03 02:42:07.72	9.16	7.74	-48.6	-61.0	3.8	8.47e-01	0	38	104	0	69	14529
2026-01-03 02:42:08.72	9.10	7.82	-48.7	-61.0	3.8	8.47e-01	0	38	104	0	69	14517
2026-01-03 02:42:09.73	9.05	7.90	-48.7	-61.0	3.8	8.47e-01	0	38	104	0	69	14491
2026-01-03 02:42:10.73	8.99	7.97	-48.7	-61.0	3.8	8.48e-01	0	38	104	0	69	14461
2026-01-03 02:42:11.73	8.93	8.05	-48.7	-61.0	3.8	8.47e-01	0	38	104	0	69	14498
2026-01-03 02:42:12.74	8.88	8.12	-48.7	-61.0	3.8	8.48e-01	0	38	104	0	69	14486
2026-01-03 02:42:13.74	8.82	8.20	-48.7	-61.0	3.8	8.48e-01	0	38	104	0	69	14475
2026-01-03 02:42:14.74	8.76	8.27	-48.7	-61.0	3.8	8.47e-01	0	38	104	0	69	14509
2026-01-03 02:42:15.75	8.70	8.35	-48.7	-61.0	3.8	8.48e-01	0	38	104	0	69	14505
2026-01-03 02:42:16.75	8.65	8.43	-48.7	-61.0	3.8	8.48e-01	0	38	104	0	69	14475
2026-01-03 02:42:17.75	8.59	8.50	-48.7	-61.0	3.8	8.47e-01	0	38	104	0	69	14498
2026-01-03 02:42:18.75	8.53	8.58	-48.7	-61.0	3.8	8.47e-01	0	38	104	0	69	14516
2026-01-03 02:42:19.76	8.47	8.66	-48.7	-61.0	3.8	8.46e-01	0	39	104	0	69	14539
2026-01-03 02:42:20.76	8.41	8.73	-48.7	-61.0	3.8	8.47e-01	0	38	104	0	69	14482
2026-01-03 02:42:21.77	8.35	8.81	-48.7	-61.0	3.8	8.48e-01	0	38	104	0	69	14513
2026-01-03 02:42:22.77	8.29	8.89	-48.7	-61.0	3.8	8.47e-01	0	38	104	0	69	14499
2026-01-03 02:42:23.77	8.23	8.97	-48.7	-61.0	3.8	8.46e-01	0	38	104	0	69	14501
2026-01-03 02:42:24.78	8.17	9.05	-48.7	-61.0	3.8	8.47e-01	0	39	104	0	69	14494
2026-01-03 02:42:25.78	8.11	9.12	-48.7	-61.0	3.8	8.47e-01	0	39	104	0	69	14481
2026-01-03 02:42:26.79	8.05	9.20	-48.7	-61.0	3.8	8.47e-01	0	38	104	0	69	14528
2026-01-03 02:42:27.79	7.98	9.28	-48.7	-61.0	3.8	8.47e-01	0	38	104	0	69	14480
2026-01-03 02:42:28.80	7.92	9.36	-48.7	-61.0	3.8	8.46e-01	0	38	104	0	69	14538
2026-01-03 02:42:29.80	7.86	9.44	-48.7	-61.0	3.8	8.48e-01	0	39	104	0	69	14520
2026-01-03 02:42:30.81	7.80	9.52	-48.8	-61.0	3.8	8.47e-01	0	39	104	0	69	14517
2026-01-03 02:42:31.81	7.73	9.60	-48.8	-61.0	3.8	8.47e-01	0	39	104	0	69	14535
2026-01-03 02:42:32.81	7.67	9.68	-48.8	-61.0	3.8	8.47e-01	0	38	104	0	69	14473
2026-01-03 02:42:33.82	7.60	9.76	-48.8	-61.1	3.8	8.49e-01	0	39	104	0	69	14542
2026-01-03 02:42:34.82	7.54	9.84	-48.8	-61.0	3.8	8.46e-01	0	39	104	0	69	14513
2026-01-03 02:42:35.83	7.48	9.92	-48.8	-61.0	3.8	8.46e-01	0	39	104	0	69	14509
2026-01-03 02:42:36.83	7.41	10.00	-48.8	-61.1	3.8	8.47e-01	0	39	104	0	69	14571
2026-01-03 02:42:37.84	7.34	10.08	-48.8	-61.0	3.8	8.46e-01	0	39	104	0	69	14527
2026-01-03 02:42:38.84	7.28	10.16	-48.8	-61.0	3.8	8.47e-01	0	39	104	0	69	14496
2026-01-03 02:42:39.85	7.21	10.25	-48.8	-61.0	3.8	8.47e-01	0	39	104	0	69	14519
2026-01-03 02:42:40.85	7.15	10.33	-48.8	-61.0	3.8	8.47e-01	0	39	104	0	69	14482
2026-01-03 02:42:41.85	7.08	10.41	-48.8	-61.1	3.8	8.47e-01	0	39	104	0	69	14560
2026-01-03 02:42:42.86	7.01	10.49	-48.8	-61.0	3.8	8.46e-01	0	39	104	0	69	14475
2026-01-03 02:42:43.86	6.94	10.57	-48.8	-61.0	3.8	8.47e-01	0	39	104	0	69	14494
2026-01-03 02:42:44.87	6.87	10.66	-48.8	-61.0	3.8	8.46e-01	0	39	104	0	69	14458
2026-01-03 02:42:45.87	6.80	10.74	-48.8	-61.0	3.8	8.47e-01	0	39	104	0	69	14530
2026-01-03 02:42:46.88	6.74	10.82	-48.8	-61.1	3.8	8.48e-01	0	39	104	0	69	14549
2026-01-03 02:42:47.88	6.67	10.91	-48.8	-61.0	3.8	8.47e-01	0	39	104	0	69	14524
2026-01-03 02:42:48.89	6.60	10.99	-48.8	-61.0	3.8	8.47e-01	0	39	104	0	69	14500
2026-01-03 02:42:49.89	6.53	11.07	-48.8	-61.0	3.8	8.47e-01	0	39	104	0	69	14504
2026-01-03 02:42:50.89	6.45	11.16	-48.8	-61.0	3.8	8.47e-01	0	39	104	0	69	14481
2026-01-03 02:42:51.90	6.38	11.24	-48.8	-61.0	3.8	8.46e-01	0	39	104	0	69	14459
2026-01-03 02:42:52.90	6.31	11.33	-48.8	-61.0	3.8	8.47e-01	0	39	104	0	69	14461
2026-01-03 02:42:53.91	6.24	11.41	-48.8	-61.1	3.8	8.47e-01	0	39	104	0	69	14547
2026-01-03 02:42:54.91	6.17	11.50	-48.9	-61.0	3.8	8.47e-01	0	39	104	0	69	14536
2026-01-03 02:42:55.92	6.09	11.58	-48.8	-61.0	3.8	8.46e-01	0	39	104	0	69	14501
2026-01-03 02:42:56.92	6.02	11.67	-48.8	-61.0	3.8	8.47e-01	0	39	104	0	69	14493
2026-01-03 02:42:57.92	5.95	11.75	-48.8	-61.0	3.8	8.47e-01	0	39	104	0	69	14511
2026-01-03 02:42:58.93	5.87	11.84	-48.8	-61.0	3.8	8.46e-01	0	39	104	0	69	14535
2026-01-03 02:42:59.93	5.80	11.93	-48.8	-61.1	3.8	8.47e-01	0	39	104	0	69	14544
2026-01-03 02:43:00.94	5.72	12.01	-48.8	-61.0	3.8	8.47e-01	0	39	104	0	69	14523
2026-01-03 02:43:01.94	5.64	12.10	-48.8	-61.0	3.8	8.47e-01	0	39	104	0	69	14511
2026-01-03 02:43:02.95	5.57	12.19	-48.8	-61.0	3.8	8.46e-01	0	39	104	0	69	14496
2026-01-03 02:43:03.95	5.49	12.27	-48.8	-61.0	3.8	8.47e-01	0	39	104	0	69	14490
2026-01-03 02:43:04.95	5.41	12.36	-48.8	-61.1	3.8	8.47e-01	0	39	104	0	69	14560
2026-01-03 02:43:05.96	5.34	12.45	-48.8	-61.0	3.8	8.46e-01	0	39	104	0	69	14507
2026-01-03 02:43:06.96	5.26	12.54	-48.8	-61.0	3.8	8.48e-01	0	39	104	0	69	14498
2026-01-03 02:43:07.97	5.18	12.63	-48.8	-61.0	3.8	8.47e-01	0	39	104	0	69	14500
2026-01-03 02:43:08.97	5.10	12.72	-48.8	-61.0	3.8	8.48e-01	0	39	104	0	69	14499
2026-01-03 02:43:09.98	5.02	12.81	-48.8	-61.0	3.8	8.46e-01	0	39	104	0	69	14510
2026-01-03 02:43:10.98	4.94	12.89	-48.8	-61.0	3.8	8.47e-01	0	39	104	0	69	14533
2026-01-03 02:43:11.98	4.86	12.98	-48.8	-61.1	3.8	8.48e-01	0	39	104	0	69	14564
2026-01-03 02:43:12.99	4.78	13.07	-48.9	-61.0	3.8	8.46e-01	0	39	104	0	69	14534
2026-01-03 02:43:13.99	4.70	13.16	-48.8	-61.0	3.8	8.47e-01	0	39	104	0	69	14506
2026-01-03 02:43:15.00	4.61	13.25	-48.8	-61.1	3.8	8.47e-01	0	39	104	0	69	14546
2026-01-03 02:43:16.00	4.53	13.34	-48.8	-61.0	3.8	8.46e-01	0	39	104	0	69	14493
2026-01-03 02:43:17.00	4.45	13.44	-48.8	-61.1	3.8	8.47e-01	0	39	104	0	69	14541
2026-01-03 02:43:18.01	4.36	13.53	-48.8	-61.0	3.8	8.48e-01	0	39	104	0	69	14532
2026-01-03 02:43:19.01	4.28	13.62	-48.8	-61.0	3.8	8.47e-01	0	39	104	0	69	14475
2026-01-03 02:43:20.02	4.19	13.71	-48.8	-61.0	3.8	8.48e-01	0	39	104	0	69	14467
2026-01-03 02:43:21.02	4.11	13.80	-48.8	-61.0	3.8	8.46e-01	0	39	104	0	69	14515
2026-01-03 02:43:22.02	4.02	13.89	-48.8	-61.0	3.8	8.48e-01	0	39	104	0	69	14453
2026-01-03 02:43:23.03	3.93	13.99	-48.8	-61.0	3.8	8.47e-01	0	39	104	0	69	14509
2026-01-03 02:43:24.03	3.85	14.08	-48.8	-61.0	3.8	8.48e-01	0	39	104	0	69	14506
2026-01-03 02:43:25.04	3.76	14.17	-48.8	-61.0	3.8	8.46e-01	0	39	104	0	69	14488
2026-01-03 02:43:26.04	3.67	14.27	-48.8	-61.1	3.8	8.46e-01	0	39	104	0	69	14555
2026-01-03 02:43:27.04	3.58	14.36	-48.8	-61.0	3.8	8.47e-01	0	39	104	0	69	14519
2026-01-03 02:43:28.05	3.49	14.45	-48.9	-61.0	3.8	8.47e-01	0	39	104	0	69	14533
2026-01-03 02:43:29.05	3.40	14.55	-48.8	-61.0	3.8	8.48e-01	0	39	104	0	69	14481
2026-01-03 02:43:30.05	3.31	14.64	-48.8	-61.0	3.8	8.47e-01	0	39	104	0	69	14476
2026-01-03 02:43:31.06	3.22	14.74	-48.8	-61.0	3.8	8.47e-01	0	39	104	0	69	14455
2026-01-03 02:43:32.06	3.13	14.83	-48.8	-61.0	3.8	8.46e-01	0	39	104	0	69	14500
2026-01-03 02:43:33.06	3.04	14.93	-48.8	-61.0	3.8	8.46e-01	0	39	104	0	69	14497
2026-01-03 02:43:34.07	2.94	15.02	-48.8	-61.0	3.8	8.46e-01	0	39	104	0	69	14515
2026-01-03 02:43:35.07	2.85	15.12	-48.9	-61.0	3.8	8.47e-01	0	39	104	0	69	14492
2026-01-03 02:43:36.07	2.75	15.22	-48.9	-61.0	3.8	8.48e-01	0	39	104	0	69	14509
2026-01-03 02:43:37.08	2.66	15.31	-48.9	-61.0	3.8	8.48e-01	0	39	104	0	69	14491
2026-01-03 02:43:38.08	2.56	15.41	-48.9	-61.0	3.8	8.47e-01	0	39	104	0	69	14512
2026-01-03 02:43:39.09	2.47	15.51	-48.9	-61.0	3.8	8.46e-01	0	39	104	0	69	14514
2026-01-03 02:43:40.09	2.37	15.61	-48.8	-61.0	3.8	8.47e-01	0	39	104	0	69	14434
2026-01-03 02:43:41.09	2.27	15.70	-48.8	-61.0	3.8	8.47e-01	0	39	104	0	69	14486
2026-01-03 02:43:42.10	2.17	15.80	-48.9	-61.0	3.8	8.48e-01	0	39	104	0	69	14500
2026-01-03 02:43:43.10	2.07	15.90	-48.9	-61.0	3.8	8.47e-01	0	39	104	0	69	14460
2026-01-03 02:43:44.11	1.97	16.00	-48.9	-61.0	3.8	8.47e-01	0	39	104	0	69	14488
2026-01-03 02:43:45.11	1.87	16.10	-48.9	-61.0	3.8	8.46e-01	0	39	104	0	69	14445
2026-01-03 02:43:46.12	1.77	16.20	-48.9	-61.0	3.8	8.47e-01	0	39	104	0	69	14483
2026-01-03 02:43:47.12	1.67	16.30	-48.9	-61.0	3.8	8.48e-01	0	39	104	0	69	14521
2026-01-03 02:43:48.13	1.57	16.40	-48.9	-61.0	3.8	8.47e-01	0	40	104	0	69	14498
2026-01-03 02:43:49.13	1.46	16.50	-48.9	-61.0	3.8	8.46e-01	0	39	104	0	69	14499
2026-01-03 02:43:50.13	1.36	16.60	-48.9	-61.0	3.8	8.48e-01	0	39	104	0	69	14501
2026-01-03 02:43:51.14	1.26	16.70	-48.9	-61.0	3.8	8.47e-01	0	39	104	0	69	14462
2026-01-03 02:43:52.14	1.15	16.80	-48.9	-61.0	3.8	8.47e-01	0	39	104	0	69	14493
2026-01-03 02:43:53.15	1.04	16.90	-48.8	-61.0	3.8	8.46e-01	0	39	104	0	69	14499
2026-01-03 02:43:54.15	0.94	17.01	-48.9	-61.0	3.8	8.47e-01	0	39	104	0	69	14487
2026-01-03 02:43:55.16	0.83	17.11	-48.9	-61.0	3.8	8.47e-01	0	39	104	0	69	14491
2026-01-03 02:43:56.16	0.72	17.21	-48.9	-61.0	3.8	8.47e-01	0	39	104	0	69	14513
2026-01-03 02:43:57.17	0.61	17.31	-48.9	-61.0	3.8	8.47e-01	0	39	104	0	69	14515
2026-01-03 02:43:58.17	0.50	17.42	-48.9	-61.0	3.8	8.47e-01	0	39	104	0	69	14491
2026-01-03 02:43:59.17	0.39	17.52	-48.9	-61.0	3.8	8.47e-01	0	39	104	0	69	14500
2026-01-03 02:44:00.18	0.28	17.63	-48.9	-61.0	3.8	8.46e-01	0	39	104	0	69	14494
2026-01-03 02:44:01.18	0.17	17.73	-48.9	-61.0	3.8	8.47e-01	0	39	104	0	69	14446
2026-01-03 02:44:02.18	0.05	17.83	-48.9	-61.0	3.8	8.47e-01	0	39	104	0	69	14510
2026-01-03 02:44:03.19	359.94	17.94	-48.9	-61.0	3.8	8.46e-01	0	39	104	0	69	14445
2026-01-03 02:44:04.19	359.82	18.04	-48.9	-61.0	3.8	8.46e-01	0	40	104	0	69	14472
2026-01-03 02:44:05.19	359.71	18.15	-48.9	-61.0	3.8	8.47e-01	0	39	104	0	69	14490
2026-01-03 02:44:06.20	359.59	18.26	-48.9	-61.0	3.8	8.47e-01	0	40	104	0	69	14470
2026-01-03 02:44:07.20	359.48	18.36	-48.9	-61.0	3.8	8.48e-01	0	39	104	0	69	14479
2026-01-03 02:44:08.21	359.36	18.47	-48.9	-61.0	3.8	8.47e-01	0	39	104	0	69	14505
2026-01-03 02:44:09.21	359.24	18.58	-48.8	-61.0	3.8	8.47e-01	0	39	104	0	69	14495
2026-01-03 02:44:10.22	359.12	18.68	-48.8	-61.0	3.8	8.47e-01	0	39	104	0	69	14507
2026-01-03 02:44:11.22	359.00	18.79	-48.9	-61.0	3.8	8.46e-01	0	39	104	0	69	14516
2026-01-03 02:44:12.23	358.87	18.90	-48.9	-61.0	3.8	8.47e-01	0	39	104	0	69	14488
2026-01-03 02:44:13.23	358.75	19.01	-48.8	-61.0	3.8	8.48e-01	0	39	104	0	69	14449
2026-01-03 02:44:14.23	358.63	19.12	-48.8	-61.0	3.8	8.46e-01	0	39	104	0	69	14450
2026-01-03 02:44:15.24	358.50	19.23	-48.8	-61.0	3.8	8.46e-01	0	40	104	0	69	14511
2026-01-03 02:44:16.24	358.38	19.33	-48.8	-61.0	3.8	8.46e-01	0	39	104	0	69	14496
2026-01-03 02:44:17.24	358.25	19.44	-48.8	-61.0	3.8	8.47e-01	0	39	104	0	69	14449
2026-01-03 02:44:18.25	358.13	19.55	-48.8	-61.0	3.8	8.45e-01	0	39	104	0	69	14472
2026-01-03 02:44:19.25	358.00	19.66	-48.8	-61.0	3.8	8.47e-01	0	39	104	0	69	14473
2026-01-03 02:44:20.26	357.87	19.78	-48.8	-61.0	3.8	8.47e-01	0	40	104	0	69	14431
2026-01-03 02:44:21.26	357.74	19.89	-48.8	-61.0	3.8	8.46e-01	0	39	104	0	69	14424
2026-01-03 02:44:22.27	357.61	20.00	-48.8	-61.0	3.8	8.47e-01	0	40	104	0	69	14487
2026-01-03 02:44:23.27	357.48	20.11	-48.8	-61.0	3.8	8.49e-01	0	39	104	0	69	14493
2026-01-03 02:44:24.27	357.34	20.22	-48.8	-61.0	3.8	8.47e-01	0	39	104	0	69	14434
2026-01-03 02:44:25.28	357.21	20.33	-48.8	-61.0	3.8	8.46e-01	0	39	104	0	69	14472
2026-01-03 02:44:26.28	357.07	20.45	-48.8	-61.0	3.8	8.47e-01	0	40	104	0	69	14475
2026-01-03 02:44:27.29	356.94	20.56	-48.7	-61.0	3.8	8.48e-01	0	40	104	0	69	14481
2026-01-03 02:44:28.29	356.80	20.67	-48.7	-61.0	3.8	8.47e-01	0	39	104	0	69	14472
2026-01-03 02:44:29.29	356.66	20.79	-48.7	-61.0	3.8	8.47e-01	0	39	104	0	69	14501
2026-01-03 02:44:30.30	356.52	20.90	-48.7	-61.0	3.8	8.46e-01	0	39	104	0	69	14471
2026-01-03 02:44:31.30	356.38	21.01	-48.7	-61.0	3.8	8.47e-01	0	39	104	0	69	14443
2026-01-03 02:44:32.30	356.24	21.13	-48.7	-61.0	3.8	8.47e-01	0	39	104	0	69	14505
2026-01-03 02:44:33.31	356.10	21.24	-48.7	-61.0	3.8	8.47e-01	0	39	104	0	69	14499
2026-01-03 02:44:34.31	355.96	21.36	-48.7	-61.0	3.8	8.47e-01	0	39	104	0	69	14434
2026-01-03 02:44:35.31	355.81	21.47	-48.7	-61.0	3.8	8.48e-01	0	39	104	0	69	14427
2026-01-03 02:44:36.32	355.67	21.59	-48.7	-61.0	3.8	8.47e-01	0	39	104	0	69	14453
2026-01-03 02:44:37.32	355.52	21.71	-48.7	-61.0	3.8	8.47e-01	0	39	104	0	69	14415
2026-01-03 02:44:38.32	355.37	21.82	-48.7	-61.0	3.8	8.47e-01	0	39	104	0	69	14449
2026-01-03 02:44:39.33	355.22	21.94	-48.7	-61.0	3.8	8.48e-01	0	39	104	0	69	14494
2026-01-03 02:44:40.33	355.07	22.06	-48.7	-61.0	3.8	8.48e-01	0	39	104	0	69	14430
2026-01-03 02:44:41.33	354.92	22.18	-48.7	-61.0	3.8	8.47e-01	0	39	104	0	69	14457
2026-01-03 02:44:42.34	354.77	22.29	-48.7	-61.0	3.8	8.48e-01	0	39	104	0	69	14488
2026-01-03 02:44:43.34	354.62	22.41	-48.7	-61.0	3.8	8.47e-01	0	39	104	0	69	14459
2026-01-03 02:44:44.34	354.46	22.53	-48.7	-61.0	3.8	8.47e-01	0	39	104	0	69	14488
2026-01-03 02:44:45.35	354.31	22.65	-48.7	-61.0	3.8	8.47e-01	0	39	104	0	69	14459
2026-01-03 02:44:46.35	354.15	22.77	-48.7	-61.0	3.8	8.47e-01	0	39	104	0	69	14487
2026-01-03 02:44:47.36	353.99	22.89	-48.7	-61.0	3.8	8.48e-01	0	39	104	0	69	14448
2026-01-03 02:44:48.36	353.83	23.01	-48.7	-61.0	3.8	8.48e-01	0	39	104	0	69	14427
2026-01-03 02:44:49.37	353.67	23.13	-48.7	-61.0	3.8	8.47e-01	0	40	104	0	69	14433
2026-01-03 02:44:50.37	353.51	23.25	-48.7	-61.0	3.8	8.45e-01	0	39	104	0	69	14410
2026-01-03 02:44:51.37	353.34	23.37	-48.7	-61.0	3.8	8.46e-01	0	39	104	0	69	14430
2026-01-03 02:44:52.38	353.18	23.49	-48.7	-61.0	3.8	8.47e-01	0	40	104	0	69	14501
2026-01-03 02:44:53.38	353.01	23.61	-48.7	-61.0	3.8	8.48e-01	0	40	104	0	69	14446
2026-01-03 02:44:54.38	352.85	23.73	-48.7	-61.0	3.8	8.47e-01	0	39	104	0	69	14467
2026-01-03 02:44:55.39	352.68	23.86	-48.7	-61.0	3.8	8.47e-01	0	39	104	0	69	14430
2026-01-03 02:44:56.39	352.51	23.98	-48.7	-61.0	3.8	8.48e-01	0	40	104	0	69	14416
2026-01-03 02:44:57.40	352.33	24.10	-48.7	-61.0	3.8	8.47e-01	0	39	104	0	69	14455
2026-01-03 02:44:58.40	352.16	24.23	-48.7	-61.0	3.8	8.47e-01	0	39	104	0	69	14450
2026-01-03 02:44:59.40	351.99	24.35	-48.7	-61.0	3.8	8.47e-01	0	39	104	0	69	14448
2026-01-03 02:45:00.41	351.81	24.47	-48.7	-61.0	3.8	8.47e-01	0	39	104	0	69	14418
2026-01-03 02:45:01.41	351.63	24.60	-48.7	-61.0	3.8	8.47e-01	0	39	104	0	69	14495
2026-01-03 02:45:02.41	351.46	24.72	-48.7	-61.0	3.8	8.47e-01	0	39	104	0	69	14482
2026-01-03 02:45:03.41	351.28	24.84	-48.7	-61.0	3.8	8.47e-01	0	39	104	0	69	14444
2026-01-03 02:45:04.41	351.10	24.97	-48.7	-61.0	3.8	8.47e-01	0	39	104	0	69	14445
2026-01-03 02:45:05.41	350.91	25.09	-48.7	-61.0	3.8	8.47e-01	0	40	104	0	69	14443
2026-01-03 02:45:06.42	350.73	25.22	-48.7	-61.0	3.8	8.46e-01	0	39	104	0	69	14421
2026-01-03 02:45:07.42	350.54	25.34	-48.7	-61.0	3.8	8.47e-01	0	39	104	0	69	14416
2026-01-03 02:45:08.42	350.36	25.47	-48.7	-61.0	3.8	8.47e-01	0	39	104	0	69	14439
2026-01-03 02:45:09.43	350.17	25.60	-48.7	-61.0	3.8	8.47e-01	0	39	104	0	69	14439
2026-01-03 02:45:10.43	349.98	25.72	-48.7	-61.0	3.8	8.47e-01	0	40	104	0	69	14467
2026-01-03 02:45:11.44	349.78	25.85	-48.7	-61.0	3.8	8.47e-01	0	39	104	0	69	14452
2026-01-03 02:45:12.44	349.59	25.98	-48.7	-61.0	3.8	8.46e-01	0	39	104	0	69	14467
2026-01-03 02:45:13.45	349.39	26.10	-48.7	-61.0	3.8	8.47e-01	0	39	104	0	69	14476
2026-01-03 02:45:14.45	349.20	26.23	-48.7	-61.0	3.8	8.47e-01	0	40	104	0	69	14491
2026-01-03 02:45:15.45	349.00	26.36	-48.7	-61.0	3.8	8.47e-01	0	40	104	0	69	14449
2026-01-03 02:45:16.46	348.80	26.49	-48.7	-61.0	3.8	8.48e-01	0	40	104	0	69	14414
2026-01-03 02:45:17.46	348.60	26.61	-48.7	-61.0	3.8	8.47e-01	0	39	104	0	69	14498
2026-01-03 02:45:18.47	348.39	26.74	-48.7	-61.0	3.8	8.46e-01	0	39	104	0	69	14406
2026-01-03 02:45:19.47	348.19	26.87	-48.6	-61.0	3.8	8.48e-01	0	39	104	0	69	14392
2026-01-03 02:45:20.47	347.98	27.00	-48.6	-61.0	3.8	8.47e-01	0	39	104	0	69	14483
2026-01-03 02:45:21.48	347.77	27.13	-48.6	-61.0	3.8	8.46e-01	0	40	104	0	69	14393
2026-01-03 02:45:22.48	347.56	27.26	-48.6	-61.0	3.8	8.48e-01	0	40	104	0	69	14463
2026-01-03 02:45:23.49	347.35	27.39	-48.6	-61.0	3.8	8.46e-01	0	39	104	0	69	14402
2026-01-03 02:45:24.49	347.14	27.52	-48.6	-61.0	3.8	8.47e-01	0	40	104	0	69	14454
2026-01-03 02:45:25.49	346.92	27.64	-48.6	-61.0	3.8	8.46e-01	0	40	104	0	69	14432
2026-01-03 02:45:26.50	346.70	27.78	-48.6	-61.0	3.8	8.47e-01	0	39	104	0	69	14428
2026-01-03 02:45:27.50	346.49	27.90	-48.6	-61.0	3.8	8.47e-01	0	39	104	0	69	14392
2026-01-03 02:45:28.51	346.26	28.04	-48.6	-61.0	3.8	8.47e-01	0	39	104	0	69	14409
2026-01-03 02:45:29.51	346.04	28.16	-48.6	-61.0	3.8	8.47e-01	0	39	104	0	69	14459
2026-01-03 02:45:30.51	345.82	28.29	-48.6	-61.0	3.8	8.48e-01	0	40	104	0	69	14410
2026-01-03 02:45:31.52	345.59	28.43	-48.6	-61.0	3.8	8.46e-01	0	39	104	0	69	14455
2026-01-03 02:45:32.52	345.36	28.56	-48.6	-61.0	3.8	8.47e-01	0	40	104	0	69	14458
2026-01-03 02:45:33.53	345.13	28.69	-48.5	-61.0	3.8	8.47e-01	0	40	104	0	69	14437
2026-01-03 02:45:34.53	344.90	28.82	-48.5	-61.0	3.8	8.46e-01	0	40	104	0	69	14440
2026-01-03 02:45:35.53	344.67	28.95	-48.5	-61.0	3.8	8.46e-01	0	39	104	0	69	14497
2026-01-03 02:45:36.54	344.43	29.08	-48.5	-61.0	3.8	8.46e-01	0	40	104	0	69	14396
2026-01-03 02:45:37.54	344.19	29.21	-48.5	-61.0	3.8	8.46e-01	0	40	104	0	69	14461
2026-01-03 02:45:38.54	343.95	29.34	-48.5	-61.0	3.8	8.47e-01	0	40	104	0	69	14414
2026-01-03 02:45:39.55	343.71	29.47	-48.5	-61.0	3.8	8.47e-01	0	40	104	0	69	14424
2026-01-03 02:45:40.55	343.47	29.60	-48.5	-61.0	3.8	8.47e-01	0	40	104	0	69	14399
2026-01-03 02:45:41.55	343.22	29.73	-48.5	-61.0	3.8	8.47e-01	0	40	104	0	69	14451
2026-01-03 02:45:42.56	342.97	29.86	-48.5	-61.0	3.8	8.48e-01	0	40	104	0	69	14421
2026-01-03 02:45:43.56	342.73	29.99	-48.5	-61.0	3.8	8.48e-01	0	39	104	0	69	14432
2026-01-03 02:45:44.57	342.47	30.13	-48.5	-61.0	3.8	8.47e-01	0	39	104	0	69	14432
2026-01-03 02:45:45.57	342.22	30.26	-48.5	-61.0	3.8	8.48e-01	0	40	104	0	69	14412
2026-01-03 02:45:46.57	341.96	30.39	-48.5	-61.0	3.8	8.46e-01	0	40	104	0	69	14453
2026-01-03 02:45:47.58	341.70	30.52	-48.5	-61.0	3.8	8.46e-01	0	40	104	0	69	14408
2026-01-03 02:45:48.58	341.44	30.65	-48.5	-61.0	3.8	8.47e-01	0	39	104	0	69	14382
2026-01-03 02:45:49.59	341.18	30.78	-48.5	-61.0	3.8	8.48e-01	0	40	104	0	69	14377
2026-01-03 02:45:50.59	340.92	30.91	-48.5	-61.0	3.8	8.47e-01	0	39	104	0	69	14425
2026-01-03 02:45:51.59	340.65	31.04	-48.5	-61.0	3.8	8.47e-01	0	39	104	0	69	14464
2026-01-03 02:45:52.60	340.38	31.17	-48.5	-61.0	3.8	8.47e-01	0	40	104	0	69	14422
2026-01-03 02:45:53.60	340.11	31.30	-48.5	-61.0	3.8	8.47e-01	0	40	104	0	69	14428
2026-01-03 02:45:54.61	339.83	31.43	-48.5	-61.0	3.8	8.47e-01	0	40	104	0	69	14398
2026-01-03 02:45:55.61	339.56	31.56	-48.5	-61.0	3.8	8.47e-01	0	40	104	0	69	14415
2026-01-03 02:45:56.61	339.28	31.69	-48.5	-61.0	3.8	8.47e-01	0	39	104	0	69	14435
2026-01-03 02:45:57.62	339.00	31.82	-48.5	-61.0	3.8	8.47e-01	0	40	104	0	69	14414
2026-01-03 02:45:58.62	338.72	31.95	-48.5	-61.0	3.8	8.47e-01	0	40	104	0	69	14437
2026-01-03 02:45:59.63	338.43	32.08	-48.5	-60.9	3.8	8.46e-01	0	40	104	0	69	14361
2026-01-03 02:46:00.63	338.15	32.21	-48.5	-61.0	3.8	8.47e-01	0	40	104	0	69	14445
2026-01-03 02:46:01.63	337.86	32.33	-48.5	-61.0	3.8	8.48e-01	0	39	104	0	69	14449
2026-01-03 02:46:02.64	337.57	32.46	-48.5	-61.0	3.8	8.47e-01	0	40	104	0	69	14406
2026-01-03 02:46:03.64	337.27	32.59	-48.5	-61.0	3.8	8.47e-01	0	40	104	0	69	14462
2026-01-03 02:46:04.65	336.97	32.72	-48.5	-61.0	3.8	8.47e-01	0	40	104	0	69	14425
2026-01-03 02:46:05.65	336.68	32.85	-48.5	-61.0	3.8	8.47e-01	0	40	104	0	69	14433
2026-01-03 02:46:06.65	336.38	32.97	-48.5	-61.0	3.8	8.46e-01	0	40	104	0	69	14393
2026-01-03 02:46:07.66	336.07	33.10	-48.5	-61.0	3.8	8.46e-01	0	39	104	0	69	14439
2026-01-03 02:46:08.66	335.77	33.23	-48.5	-61.0	3.8	8.46e-01	0	39	104	0	69	14468
2026-01-03 02:46:09.67	335.46	33.35	-48.5	-61.0	3.8	8.46e-01	0	40	104	0	69	14402
2026-01-03 02:46:10.67	335.15	33.48	-48.5	-61.0	3.8	8.46e-01	0	40	104	0	69	14415
2026-01-03 02:46:11.67	334.84	33.60	-48.5	-61.0	3.8	8.46e-01	0	39	104	0	69	14421
2026-01-03 02:46:12.68	334.52	33.73	-48.5	-61.0	3.8	8.47e-01	0	40	104	0	69	14427
2026-01-03 02:46:13.68	334.20	33.85	-48.5	-61.0	3.8	8.48e-01	0	40	104	0	69	14424
2026-01-03 02:46:14.69	333.88	33.97	-48.5	-61.0	3.8	8.46e-01	0	40	104	0	69	14443
2026-01-03 02:46:15.69	333.56	34.10	-48.5	-61.0	3.8	8.47e-01	0	40	104	0	69	14408
2026-01-03 02:46:16.70	333.23	34.22	-48.5	-61.0	3.8	8.47e-01	0	40	104	0	69	14447
2026-01-03 02:46:17.70	332.90	34.34	-48.5	-61.0	3.8	8.46e-01	0	40	104	0	69	14445
2026-01-03 02:46:18.71	332.57	34.46	-48.5	-61.0	3.8	8.47e-01	0	40	104	0	68	15303
2026-01-03 02:46:19.71	332.24	34.58	-48.5	-61.0	3.8	8.47e-01	0	39	104	0	68	15267
2026-01-03 02:46:20.71	331.91	34.70	-48.5	-61.0	3.8	8.48e-01	0	40	104	0	68	15241
2026-01-03 02:46:21.72	331.57	34.82	-48.5	-61.0	3.8	8.47e-01	0	40	104	0	68	15299
2026-01-03 02:46:22.72	331.23	34.94	-48.5	-61.0	3.8	8.47e-01	0	40	104	0	68	15305
2026-01-03 02:46:23.73	330.88	35.06	-48.5	-61.0	3.8	8.47e-01	0	40	104	0	68	15260
2026-01-03 02:46:24.73	330.54	35.17	-48.5	-61.0	3.8	8.46e-01	0	40	104	0	68	15290
2026-01-03 02:46:25.74	330.19	35.29	-48.5	-61.0	3.8	8.47e-01	0	39	104	0	68	15257
2026-01-03 02:46:26.74	329.84	35.41	-48.5	-61.0	3.8	8.47e-01	0	40	104	0	68	15280
2026-01-03 02:46:27.75	329.48	35.52	-48.5	-61.0	3.8	8.48e-01	0	40	104	0	68	15329
2026-01-03 02:46:28.75	329.13	35.64	-48.5	-61.0	3.8	8.47e-01	0	40	104	0	68	15304
2026-01-03 02:46:29.75	328.77	35.75	-48.5	-61.0	3.8	8.47e-01	0	40	104	0	68	15350
2026-01-03 02:46:30.76	328.41	35.86	-48.5	-61.0	3.8	8.48e-01	0	39	104	0	68	15320
2026-01-03 02:46:31.76	328.05	35.97	-48.5	-61.0	3.8	8.48e-01	0	40	104	0	68	15279
2026-01-03 02:46:32.75	327.69	36.08	-48.5	-60.9	3.8	8.48e-01	0	40	104	0	68	15215
2026-01-03 02:46:33.75	327.32	36.19	-48.5	-61.0	3.8	8.47e-01	0	40	104	0	68	15278
2026-01-03 02:46:34.76	326.95	36.30	-48.5	-61.0	3.8	8.47e-01	0	40	104	0	68	15318
2026-01-03 02:46:35.76	326.58	36.40	-48.5	-61.0	3.8	8.47e-01	0	40	104	0	68	15306
2026-01-03 02:46:36.77	326.20	36.51	-48.5	-60.9	3.8	8.47e-01	0	40	104	0	68	15207
2026-01-03 02:46:37.77	325.83	36.62	-48.5	-61.0	3.8	8.47e-01	0	39	104	0	68	15264
2026-01-03 02:46:38.77	325.45	36.72	-48.5	-61.0	3.8	8.46e-01	0	39	104	0	68	15297
2026-01-03 02:46:39.78	325.06	36.82	-48.5	-61.0	3.8	8.48e-01	0	40	104	0	68	15291
2026-01-03 02:46:40.78	324.68	36.93	-48.5	-61.0	3.8	8.47e-01	0	40	104	0	68	15287
2026-01-03 02:46:41.79	324.29	37.03	-48.5	-61.0	3.8	8.47e-01	0	40	104	0	68	15311
2026-01-03 02:46:42.79	323.90	37.13	-48.5	-61.0	3.8	8.48e-01	0	40	104	0	68	15316
2026-01-03 02:46:43.80	323.51	37.22	-48.5	-61.0	3.8	8.47e-01	0	40	104	0	68	15299
2026-01-03 02:46:44.80	323.11	37.32	-48.5	-61.0	3.8	8.48e-01	0	39	104	0	68	15316
2026-01-03 02:46:45.80	322.72	37.42	-48.5	-61.0	3.8	8.47e-01	0	39	104	0	68	15349
2026-01-03 02:46:46.81	322.31	37.51	-48.5	-61.0	3.8	8.47e-01	0	40	104	0	68	15245
2026-01-03 02:46:47.81	321.91	37.60	-48.5	-61.0	3.8	8.48e-01	0	39	104	0	68	15310
2026-01-03 02:46:48.82	321.51	37.70	-48.5	-61.0	3.8	8.46e-01	0	40	104	0	68	15282
2026-01-03 02:46:49.82	321.10	37.79	-48.5	-61.0	3.8	8.47e-01	0	40	104	0	68	15264
2026-01-03 02:46:50.82	320.70	37.87	-48.5	-61.0	3.8	8.46e-01	0	40	104	0	68	15292
2026-01-03 02:46:51.83	320.28	37.96	-48.5	-61.0	3.8	8.48e-01	0	39	104	0	68	15334
2026-01-03 02:46:52.83	319.87	38.05	-48.5	-61.0	3.8	8.47e-01	0	40	104	0	68	15286
2026-01-03 02:46:53.84	319.45	38.13	-48.5	-61.0	3.8	8.47e-01	0	39	104	0	68	15248
2026-01-03 02:46:54.84	319.04	38.22	-48.5	-61.0	3.8	8.48e-01	0	39	104	0	68	15274
2026-01-03 02:46:55.85	318.62	38.30	-48.5	-61.0	3.8	8.47e-01	0	40	104	0	68	15242
2026-01-03 02:46:56.85	318.20	38.38	-48.5	-61.0	3.8	8.47e-01	0	40	104	0	68	15283
2026-01-03 02:46:57.85	317.77	38.46	-48.5	-60.9	3.8	8.46e-01	0	39	104	0	68	15192
2026-01-03 02:46:58.86	317.35	38.53	-48.5	-61.0	3.8	8.47e-01	0	40	104	0	68	15281
2026-01-03 02:46:59.86	316.92	38.61	-48.5	-61.0	3.8	8.47e-01	0	40	104	0	68	15319
2026-01-03 02:47:00.87	316.49	38.68	-48.5	-61.0	3.8	8.47e-01	0	39	104	0	68	15256
2026-01-03 02:47:01.87	316.06	38.75	-48.5	-61.0	3.8	8.46e-01	0	40	104	0	68	15244
2026-01-03 02:47:02.88	315.62	38.82	-48.5	-61.0	3.8	8.48e-01	0	40	104	0	68	15275
2026-01-03 02:47:03.88	315.19	38.89	-48.5	-61.0	3.8	8.46e-01	0	39	104	0	68	15302
2026-01-03 02:47:04.88	314.75	38.96	-48.5	-61.0	3.8	8.47e-01	0	39	104	0	68	15261
2026-01-03 02:47:05.89	314.31	39.02	-48.5	-61.0	3.8	8.46e-01	0	40	104	0	68	15288
2026-01-03 02:47:06.89	313.87	39.09	-48.5	-61.0	3.8	8.47e-01	0	40	104	0	68	15240
2026-01-03 02:47:07.90	313.43	39.15	-48.5	-61.0	3.8	8.47e-01	0	40	104	0	68	15239
2026-01-03 02:47:08.90	312.98	39.21	-48.5	-61.0	3.8	8.46e-01	0	40	104	0	68	15290
2026-01-03 02:47:09.91	312.53	39.26	-48.5	-61.0	3.8	8.46e-01	0	39	104	0	68	15234
2026-01-03 02:47:10.91	312.09	39.32	-48.5	-61.0	3.8	8.47e-01	0	40	104	0	68	15260
2026-01-03 02:47:11.92	311.64	39.37	-48.5	-61.0	3.8	8.46e-01	0	39	104	0	68	15275
2026-01-03 02:47:12.92	311.19	39.42	-48.5	-61.0	3.8	8.46e-01	0	40	104	0	68	15229
2026-01-03 02:47:13.93	310.73	39.47	-48.5	-61.0	3.8	8.46e-01	0	39	104	0	68	15228
2026-01-03 02:47:14.93	310.28	39.52	-48.5	-61.0	3.8	8.47e-01	0	39	104	0	68	15238
2026-01-03 02:47:15.93	309.83	39.57	-48.5	-61.0	3.8	8.47e-01	0	40	104	0	68	15269
2026-01-03 02:47:16.94	309.37	39.61	-48.5	-61.0	3.8	8.47e-01	0	39	104	0	68	15288
2026-01-03 02:47:17.94	308.92	39.65	-48.4	-61.0	3.8	8.46e-01	0	40	104	0	68	15248
2026-01-03 02:47:18.95	308.46	39.69	-48.4	-61.0	3.8	8.46e-01	0	40	104	0	68	15289
2026-01-03 02:47:19.95	308.00	39.73	-48.4	-61.0	3.8	8.47e-01	0	40	104	0	68	15302
2026-01-03 02:47:20.96	307.53	39.77	-48.4	-60.9	3.8	8.47e-01	0	40	104	0	68	15210
2026-01-03 02:47:21.96	307.08	39.80	-48.4	-61.0	3.8	8.47e-01	0	39	104	0	68	15268
2026-01-03 02:47:22.97	306.61	39.83	-48.4	-60.9	3.8	8.46e-01	0	39	104	0	68	15181
2026-01-03 02:47:23.97	306.15	39.86	-48.4	-61.0	3.8	8.47e-01	0	39	104	0	68	15233
2026-01-03 02:47:24.98	305.68	39.89	-48.4	-61.0	3.8	8.47e-01	0	39	104	0	68	15243
2026-01-03 02:47:25.98	305.22	39.91	-48.3	-61.0	3.8	8.47e-01	0	40	104	0	68	15241
2026-01-03 02:47:26.98	304.76	39.94	-48.3	-61.0	3.8	8.47e-01	0	40	104	0	68	15233
2026-01-03 02:47:27.99	304.29	39.96	-48.3	-61.0	3.8	8.46e-01	0	39	104	0	68	15241
2026-01-03 02:47:28.99	303.82	39.98	-48.3	-61.0	3.8	8.47e-01	0	40	104	0	68	15292
2026-01-03 02:47:30.00	303.35	39.99	-48.3	-61.0	3.8	8.47e-01	0	40	104	0	68	15287
2026-01-03 02:47:31.00	302.89	40.01	-48.3	-61.0	3.8	8.46e-01	0	40	104	0	68	15249
2026-01-03 02:47:32.01	302.41	40.02	-48.3	-61.0	3.8	8.46e-01	0	39	104	0	68	15291
2026-01-03 02:47:33.01	301.95	40.03	-48.3	-61.0	3.8	8.48e-01	0	40	104	0	68	15236
2026-01-03 02:47:34.02	301.48	40.04	-48.2	-61.0	3.8	8.47e-01	0	40	104	0	68	15262
2026-01-03 02:47:35.02	301.01	40.04	-48.2	-60.9	3.8	8.46e-01	0	40	104	0	68	15224
2026-01-03 02:47:36.02	300.54	40.05	-48.2	-61.0	3.8	8.47e-01	0	39	104	0	68	15231
2026-01-03 02:47:37.03	300.07	40.05	-48.2	-61.0	3.8	8.47e-01	0	40	104	0	68	15245
2026-01-03 02:47:38.03	299.60	40.05	-48.2	-60.9	3.8	8.47e-01	0	40	104	0	68	15207
2026-01-03 02:47:39.04	299.13	40.04	-48.2	-61.0	3.8	8.47e-01	0	40	104	0	68	15241
2026-01-03 02:47:40.04	298.66	40.04	-48.2	-61.0	3.8	8.46e-01	0	40	104	0	68	15252
2026-01-03 02:47:41.05	298.19	40.03	-48.2	-61.0	3.8	8.48e-01	0	40	104	0	68	15284
2026-01-03 02:47:42.05	297.73	40.02	-48.1	-60.9	3.8	8.47e-01	0	40	104	0	68	15221
2026-01-03 02:47:43.06	297.25	40.01	-48.1	-61.0	3.8	8.47e-01	0	40	104	0	68	15253
2026-01-03 02:47:44.06	296.79	40.00	-48.1	-60.9	3.8	8.47e-01	0	40	104	0	68	15181
2026-01-03 02:47:45.06	296.32	39.98	-48.1	-61.0	3.8	8.46e-01	0	39	104	0	68	15255
2026-01-03 02:47:46.07	295.85	39.96	-48.1	-60.9	3.8	8.46e-01	0	40	104	0	68	15213
2026-01-03 02:47:47.07	295.39	39.94	-48.1	-61.0	3.8	8.46e-01	0	40	104	0	68	15227
2026-01-03 02:47:48.08	294.92	39.92	-48.1	-61.0	3.8	8.48e-01	0	40	104	0	68	15228
2026-01-03 02:47:49.08	294.46	39.89	-48.1	-60.9	3.8	8.47e-01	0	40	104	0	68	15199
2026-01-03 02:47:50.09	293.99	39.87	-48.1	-61.0	3.8	8.48e-01	0	40	104	0	68	15230
2026-01-03 02:47:51.09	293.53	39.84	-48.0	-61.0	3.8	8.47e-01	0	40	104	0	68	15259
2026-01-03 02:47:52.09	293.07	39.81	-48.0	-61.0	3.8	8.47e-01	0	40	104	0	68	15255
2026-01-03 02:47:53.10	292.60	39.77	-48.0	-61.0	3.8	8.46e-01	0	40	104	0	68	15268
2026-01-03 02:47:54.10	292.14	39.74	-48.0	-61.0	3.8	8.47e-01	0	40	104	0	68	15252
2026-01-03 02:47:55.11	291.68	39.70	-48.0	-61.0	3.8	8.46e-01	0	40	104	0	68	15250
2026-01-03 02:47:56.11	291.22	39.66	-48.0	-61.0	3.8	8.46e-01	0	40	104	0	68	15264
2026-01-03 02:47:57.12	290.76	39.62	-48.0	-61.0	3.8	8.47e-01	0	40	104	0	68	15275
2026-01-03 02:47:58.12	290.31	39.58	-48.0	-61.0	3.8	8.47e-01	0	40	104	0	68	15266
2026-01-03 02:47:59.13	289.85	39.53	-48.0	-61.0	3.8	8.46e-01	0	39	104	0	68	15243
2026-01-03 02:48:00.13	289.40	39.49	-48.0	-61.0	3.8	8.47e-01	0	40	104	0	68	15233
2026-01-03 02:48:01.13	288.94	39.44	-48.0	-60.9	3.8	8.47e-01	0	40	104	0	68	15224
2026-01-03 02:48:02.14	288.49	39.39	-48.0	-61.0	3.8	8.46e-01	0	40	104	0	68	15226
2026-01-03 02:48:03.14	288.04	39.33	-48.0	-61.0	3.8	8.46e-01	0	40	104	0	68	15289
2026-01-03 02:48:04.15	287.59	39.28	-48.0	-61.0	3.8	8.47e-01	0	39	104	0	68	15268
2026-01-03 02:48:05.15	287.15	39.22	-48.0	-61.0	3.8	8.47e-01	0	40	104	0	68	15267
2026-01-03 02:48:06.16	286.70	39.16	-48.0	-61.0	3.8	8.48e-01	0	39	104	0	68	15231
2026-01-03 02:48:07.16	286.26	39.10	-48.0	-60.9	3.8	8.47e-01	0	40	104	0	68	15214
2026-01-03 02:48:08.17	285.81	39.04	-48.0	-61.0	3.8	8.48e-01	0	40	104	0	68	15245
2026-01-03 02:48:09.17	285.37	38.97	-48.0	-60.9	3.8	8.47e-01	0	40	104	0	68	15214
2026-01-03 02:48:10.17	284.94	38.91	-48.1	-60.9	3.8	8.48e-01	0	40	104	0	68	15213
2026-01-03 02:48:11.18	284.50	38.84	-48.1	-61.0	3.8	8.47e-01	0	39	104	0	68	15240
2026-01-03 02:48:12.18	284.06	38.77	-48.1	-61.0	3.8	8.47e-01	0	40	104	0	68	15255
2026-01-03 02:48:13.19	283.63	38.70	-48.1	-60.9	3.8	8.47e-01	0	40	104	0	68	15196
2026-01-03 02:48:14.19	283.20	38.63	-48.1	-61.0	3.8	8.47e-01	0	40	104	0	68	15239
2026-01-03 02:48:15.19	282.77	38.55	-48.1	-60.9	3.8	8.48e-01	0	40	104	0	68	15130
2026-01-03 02:48:16.20	282.34	38.47	-48.1	-60.9	3.8	8.46e-01	0	40	104	0	68	15195
2026-01-03 02:48:17.20	281.92	38.40	-48.1	-61.0	3.8	8.48e-01	0	39	104	0	68	15265
2026-01-03 02:48:18.21	281.49	38.32	-48.1	-61.0	3.8	8.47e-01	0	40	104	0	68	15245
2026-01-03 02:48:19.21	281.07	38.24	-48.1	-61.0	3.8	8.47e-01	0	40	104	0	68	15298
2026-01-03 02:48:20.22	280.65	38.15	-48.1	-61.0	3.8	8.47e-01	0	40	104	0	68	15231
2026-01-03 02:48:21.22	280.24	38.07	-48.1	-61.0	3.8	8.47e-01	0	40	104	0	68	15269
2026-01-03 02:48:22.23	279.82	37.98	-48.2	-60.9	3.8	8.47e-01	0	40	104	0	68	15182
2026-01-03 02:48:23.23	279.41	37.89	-48.2	-61.0	3.8	8.47e-01	0	40	104	0	68	15235
2026-01-03 02:48:24.23	279.00	37.81	-48.2	-60.9	3.8	8.46e-01	0	40	104	0	68	15186
2026-01-03 02:48:25.24	278.59	37.72	-48.2	-61.0	3.8	8.47e-01	0	40	104	0	68	15256
2026-01-03 02:48:26.24	278.19	37.62	-48.2	-61.0	3.8	8.47e-01	0	40	104	0	68	15239
2026-01-03 02:48:27.25	277.78	37.53	-48.2	-60.9	3.8	8.49e-01	0	39	104	0	68	15186
2026-01-03 02:48:28.25	277.38	37.44	-48.2	-60.9	3.8	8.48e-01	0	40	104	0	68	15190
2026-01-03 02:48:29.26	276.98	37.34	-48.2	-60.9	3.8	8.46e-01	0	40	104	0	68	15213
2026-01-03 02:48:30.26	276.58	37.24	-48.2	-60.9	3.8	8.47e-01	0	39	104	0	68	15138
2026-01-03 02:48:31.27	276.19	37.14	-48.2	-60.9	3.8	8.48e-01	0	40	104	0	68	15211
2026-01-03 02:48:32.27	275.80	37.05	-48.2	-60.9	3.8	8.47e-01	0	40	104	0	68	15220
2026-01-03 02:48:33.28	275.41	36.94	-48.3	-61.0	3.8	8.47e-01	0	40	104	0	68	15234
2026-01-03 02:48:34.28	275.02	36.84	-48.3	-61.0	3.8	8.47e-01	0	40	104	0	68	15257
2026-01-03 02:48:35.29	274.64	36.74	-48.3	-61.0	3.8	8.47e-01	0	40	104	0	68	15265
2026-01-03 02:48:36.29	274.25	36.64	-48.3	-60.9	3.8	8.46e-01	0	40	104	0	68	15197
2026-01-03 02:48:37.29	273.88	36.53	-48.3	-61.0	3.8	8.47e-01	0	40	104	0	68	15262
2026-01-03 02:48:38.29	273.50	36.42	-48.3	-61.0	3.8	8.49e-01	0	40	104	0	68	15226
2026-01-03 02:48:39.30	273.12	36.32	-48.3	-60.9	3.8	8.46e-01	0	39	104	0	68	15178
2026-01-03 02:48:40.30	272.75	36.21	-48.3	-60.9	3.8	8.46e-01	0	40	104	0	68	15186
2026-01-03 02:48:41.30	272.39	36.10	-48.3	-61.0	3.8	8.47e-01	0	40	104	0	68	15238
2026-01-03 02:48:42.31	272.02	35.99	-48.3	-60.9	3.8	8.47e-01	0	40	104	0	68	15166
2026-01-03 02:48:43.31	271.65	35.88	-48.3	-60.9	3.8	8.46e-01	0	39	104	0	68	15176
2026-01-03 02:48:44.31	271.29	35.77	-48.3	-61.0	3.8	8.46e-01	0	39	104	0	68	15251
2026-01-03 02:48:45.31	270.93	35.65	-48.3	-60.9	3.8	8.47e-01	0	40	104	0	68	15205
2026-01-03 02:48:46.32	270.58	35.54	-48.3	-60.9	3.8	8.48e-01	0	40	104	0	68	15195
2026-01-03 02:48:47.32	270.22	35.42	-48.3	-60.9	3.8	8.46e-01	0	40	104	0	68	15176
2026-01-03 02:48:48.32	269.87	35.31	-48.3	-60.9	3.8	8.47e-01	0	39	104	0	68	15193
2026-01-03 02:48:49.33	269.52	35.19	-48.3	-60.9	3.8	8.46e-01	0	40	104	0	68	15193
2026-01-03 02:48:50.33	269.17	35.07	-48.3	-60.9	3.8	8.47e-01	0	40	104	0	68	15200
2026-01-03 02:48:51.33	268.83	34.96	-48.3	-60.9	3.8	8.47e-01	0	40	104	0	68	15154
2026-01-03 02:48:52.34	268.49	34.84	-48.4	-60.9	3.8	8.46e-01	0	40	104	0	68	15165
2026-01-03 02:48:53.34	268.15	34.72	-48.4	-60.9	3.8	8.48e-01	0	39	104	0	68	15223
2026-01-03 02:48:54.35	267.81	34.60	-48.4	-60.9	3.8	8.47e-01	0	40	104	0	68	15196
2026-01-03 02:48:55.35	267.48	34.48	-48.4	-60.9	3.8	8.48e-01	0	39	104	0	68	15150
2026-01-03 02:48:56.36	267.14	34.36	-48.4	-60.9	3.8	8.46e-01	0	40	104	0	68	15188
2026-01-03 02:48:57.36	266.81	34.23	-48.4	-60.9	3.8	8.47e-01	0	40	104	0	68	15135
2026-01-03 02:48:58.37	266.48	34.11	-48.4	-60.9	3.8	8.47e-01	0	40	104	0	68	15201
2026-01-03 02:48:59.37	266.16	33.99	-48.4	-60.9	3.8	8.46e-01	0	40	104	0	68	15082
2026-01-03 02:49:00.37	265.84	33.86	-48.4	-60.9	3.8	8.48e-01	0	40	104	0	68	15141
2026-01-03 02:49:01.38	265.52	33.74	-48.4	-60.9	3.8	8.46e-01	0	40	104	0	68	15184
2026-01-03 02:49:02.38	265.20	33.62	-48.4	-60.9	3.8	8.46e-01	0	40	104	0	68	15140
2026-01-03 02:49:03.39	264.88	33.49	-48.4	-60.9	3.8	8.46e-01	0	40	104	0	68	15171
2026-01-03 02:49:04.39	264.57	33.36	-48.4	-60.9	3.8	8.47e-01	0	40	104	0	68	15171
2026-01-03 02:49:05.40	264.26	33.24	-48.4	-60.9	3.8	8.48e-01	0	40	104	0	68	15219
2026-01-03 02:49:06.40	263.96	33.11	-48.4	-60.9	3.8	8.47e-01	0	40	104	0	68	15124
2026-01-03 02:49:07.40	263.65	32.98	-48.4	-60.9	3.8	8.47e-01	0	40	104	0	68	15198
2026-01-03 02:49:08.41	263.35	32.86	-48.4	-60.9	3.8	8.47e-01	0	40	104	0	68	15217
2026-01-03 02:49:09.41	263.05	32.73	-48.4	-60.9	3.8	8.46e-01	0	40	104	0	68	15181
2026-01-03 02:49:10.42	262.75	32.60	-48.4	-60.9	3.8	8.46e-01	0	40	104	0	68	15079
2026-01-03 02:49:11.42	262.45	32.47	-48.4	-60.9	3.8	8.46e-01	0	39	104	0	68	15212
2026-01-03 02:49:12.42	262.16	32.34	-48.5	-60.9	3.8	8.48e-01	0	40	104	0	68	15216
2026-01-03 02:49:13.43	261.87	32.21	-48.4	-60.9	3.8	8.47e-01	0	40	104	0	68	15192
2026-01-03 02:49:14.44	261.58	32.08	-48.4	-61.0	3.8	8.46e-01	0	40	104	0	68	15229
2026-01-03 02:49:15.44	261.29	31.96	-48.4	-60.9	3.8	8.46e-01	0	40	104	0	68	15154
2026-01-03 02:49:16.44	261.01	31.83	-48.5	-60.9	3.8	8.47e-01	0	39	104	0	68	15165
2026-01-03 02:49:17.45	260.73	31.69	-48.4	-60.9	3.8	8.47e-01	0	40	104	0	68	15164
2026-01-03 02:49:18.45	260.45	31.57	-48.4	-60.9	3.8	8.48e-01	0	40	104	0	68	15163
2026-01-03 02:49:19.46	260.17	31.43	-48.4	-60.9	3.8	8.48e-01	0	40	104	0	68	15097
2026-01-03 02:49:20.46	259.89	31.30	-48.4	-60.9	3.8	8.47e-01	0	40	104	0	68	15165
2026-01-03 02:49:21.46	259.62	31.17	-48.4	-60.9	3.8	8.47e-01	0	40	104	0	68	15168
2026-01-03 02:49:22.47	259.35	31.04	-48.4	-60.9	3.8	8.48e-01	0	40	104	0	68	15137
2026-01-03 02:49:23.47	259.08	30.91	-48.4	-60.9	3.8	8.46e-01	0	40	104	0	68	15182
2026-01-03 02:49:24.48	258.81	30.78	-48.4	-60.9	3.8	8.47e-01	0	40	104	0	68	15161
2026-01-03 02:49:25.48	258.55	30.65	-48.4	-60.9	3.8	8.48e-01	0	40	104	0	68	15224
2026-01-03 02:49:26.48	258.29	30.52	-48.4	-60.9	3.8	8.47e-01	0	40	104	0	68	15147
2026-01-03 02:49:27.49	258.03	30.39	-48.4	-60.9	3.8	8.47e-01	0	40	104	0	68	15154
2026-01-03 02:49:28.49	257.77	30.25	-48.4	-60.9	3.8	8.47e-01	0	40	104	0	68	15114
2026-01-03 02:49:29.49	257.52	30.12	-48.4	-60.9	3.8	8.47e-01	0	40	104	0	68	15154
2026-01-03 02:49:30.50	257.26	29.99	-48.4	-60.9	3.8	8.47e-01	0	40	104	0	68	15141
2026-01-03 02:49:31.50	257.01	29.86	-48.4	-60.9	3.8	8.47e-01	0	40	104	0	68	15148
2026-01-03 02:49:32.51	256.76	29.73	-48.4	-60.9	3.8	8.46e-01	0	40	104	0	68	15128
2026-01-03 02:49:33.51	256.51	29.60	-48.4	-60.9	3.8	8.46e-01	0	40	104	0	68	15133
2026-01-03 02:49:34.51	256.27	29.47	-48.4	-60.9	3.8	8.47e-01	0	40	104	0	68	15173
2026-01-03 02:49:35.52	256.02	29.33	-48.4	-60.9	3.8	8.47e-01	0	39	104	0	68	15169
2026-01-03 02:49:36.52	255.78	29.20	-48.4	-60.9	3.8	8.47e-01	0	40	104	0	68	15162
2026-01-03 02:49:37.53	255.54	29.07	-48.4	-60.9	3.8	8.47e-01	0	39	104	0	68	15169
2026-01-03 02:49:38.53	255.31	28.94	-48.4	-60.9	3.8	8.48e-01	0	40	104	0	68	15129
2026-01-03 02:49:39.54	255.07	28.81	-48.4	-60.9	3.8	8.46e-01	0	40	104	0	68	15160
2026-01-03 02:49:40.54	254.84	28.68	-48.4	-60.9	3.8	8.47e-01	0	40	104	0	68	15127
2026-01-03 02:49:41.55	254.60	28.54	-48.4	-60.9	3.8	8.48e-01	0	40	104	0	68	15135
2026-01-03 02:49:42.55	254.38	28.41	-48.4	-60.9	3.8	8.47e-01	0	40	104	0	68	15161
2026-01-03 02:49:43.55	254.15	28.28	-48.4	-60.9	3.8	8.46e-01	0	39	104	0	68	15153
2026-01-03 02:49:44.56	253.92	28.15	-48.4	-60.9	3.8	8.46e-01	0	40	104	0	68	15180
2026-01-03 02:49:45.56	253.70	28.02	-48.4	-60.9	3.8	8.46e-01	0	40	104	0	68	15128
2026-01-03 02:49:46.57	253.47	27.89	-48.4	-60.9	3.8	8.47e-01	0	40	104	0	68	15155
2026-01-03 02:49:47.57	253.25	27.76	-48.4	-60.9	3.8	8.46e-01	0	40	104	0	68	15142
2026-01-03 02:49:48.57	253.04	27.63	-48.4	-60.9	3.8	8.47e-01	0	40	104	0	68	15101
2026-01-03 02:49:49.58	252.82	27.50	-48.4	-60.9	3.8	8.47e-01	0	40	104	0	68	15155
2026-01-03 02:49:50.58	252.60	27.37	-48.4	-60.9	3.8	8.47e-01	0	40	104	0	68	15153
2026-01-03 02:49:51.59	252.39	27.24	-48.4	-60.9	3.8	8.46e-01	0	39	104	0	68	15106
2026-01-03 02:49:52.59	252.18	27.11	-48.4	-60.9	3.8	8.47e-01	0	40	104	0	68	15157
2026-01-03 02:49:53.60	251.97	26.98	-48.4	-60.9	3.8	8.46e-01	0	40	104	0	68	15156
2026-01-03 02:49:54.60	251.76	26.85	-48.4	-60.8	3.8	8.46e-01	0	40	104	0	68	15049
2026-01-03 02:49:55.60	251.55	26.72	-48.4	-60.9	3.8	8.47e-01	0	40	104	0	68	15082
2026-01-03 02:49:56.61	251.35	26.59	-48.4	-60.9	3.8	8.46e-01	0	40	104	0	68	15060
2026-01-03 02:49:57.61	251.15	26.47	-48.4	-60.9	3.8	8.46e-01	0	40	104	0	68	15168
2026-01-03 02:49:58.62	250.94	26.34	-48.4	-60.9	3.8	8.46e-01	0	40	104	0	68	15144
2026-01-03 02:49:59.62	250.74	26.21	-48.4	-60.9	3.8	8.47e-01	0	40	104	0	68	15133
2026-01-03 02:50:00.62	250.55	26.08	-48.4	-60.9	3.8	8.46e-01	0	40	104	0	68	15129
2026-01-03 02:50:01.63	250.35	25.95	-48.4	-60.9	3.8	8.47e-01	0	39	104	0	68	15125
2026-01-03 02:50:02.63	250.15	25.83	-48.4	-60.9	3.8	8.47e-01	0	40	104	0	68	15074
2026-01-03 02:50:03.64	249.96	25.70	-48.4	-60.9	3.8	8.46e-01	0	40	104	0	68	15078
2026-01-03 02:50:04.64	249.77	25.57	-48.4	-60.9	3.8	8.46e-01	0	40	104	0	68	15141
2026-01-03 02:50:05.65	249.58	25.44	-48.4	-60.9	3.8	8.48e-01	0	40	104	0	68	15108
2026-01-03 02:50:06.65	249.39	25.32	-48.4	-60.9	3.8	8.47e-01	0	40	104	0	68	15081
2026-01-03 02:50:07.65	249.20	25.19	-48.4	-60.9	3.8	8.46e-01	0	40	104	0	68	15059
2026-01-03 02:50:08.66	249.02	25.06	-48.4	-60.9	3.8	8.48e-01	0	40	104	0	68	15166
2026-01-03 02:50:09.66	248.83	24.94	-48.4	-60.9	3.8	8.46e-01	0	40	104	0	68	15128
2026-01-03 02:50:10.67	248.65	24.81	-48.4	-60.9	3.8	8.46e-01	0	40	104	0	68	15156
2026-01-03 02:50:11.67	248.47	24.69	-48.4	-60.9	3.8	8.47e-01	0	40	104	0	68	15145
2026-01-03 02:50:12.68	248.29	24.56	-48.4	-60.9	3.8	8.46e-01	0	40	104	0	68	15152
2026-01-03 02:50:13.68	248.11	24.44	-48.4	-60.9	3.8	8.47e-01	0	40	104	0	68	15111
2026-01-03 02:50:14.69	247.93	24.31	-48.4	-60.9	3.8	8.47e-01	0	40	104	0	68	15114
2026-01-03 02:50:15.69	247.76	24.19	-48.4	-60.9	3.8	8.46e-01	0	40	104	0	68	15088
2026-01-03 02:50:16.69	247.58	24.07	-48.4	-60.9	3.8	8.46e-01	0	40	104	0	68	15108
2026-01-03 02:50:17.70	247.41	23.94	-48.4	-60.9	3.8	8.49e-01	0	40	104	0	68	15102
2026-01-03 02:50:18.70	247.24	23.82	-48.4	-60.9	3.8	8.47e-01	0	40	104	0	68	15088
2026-01-03 02:50:19.71	247.07	23.70	-48.4	-60.9	3.8	8.47e-01	0	40	104	0	68	15120
2026-01-03 02:50:20.71	246.90	23.57	-48.4	-60.9	3.8	8.46e-01	0	40	104	0	68	15172
2026-01-03 02:50:21.71	246.73	23.45	-48.4	-60.9	3.8	8.46e-01	0	40	104	0	68	15142
2026-01-03 02:50:22.72	246.56	23.33	-48.4	-60.9	3.8	8.48e-01	0	40	104	0	68	15071
2026-01-03 02:50:23.72	246.40	23.21	-48.4	-60.9	3.8	8.47e-01	0	40	104	0	68	15105
2026-01-03 02:50:24.73	246.23	23.09	-48.4	-60.9	3.8	8.47e-01	0	40	104	0	68	15083
2026-01-03 02:50:25.73	246.07	22.97	-48.4	-60.8	3.8	8.46e-01	0	40	104	0	68	15049
2026-01-03 02:50:26.73	245.91	22.85	-48.4	-60.9	3.8	8.47e-01	0	40	104	0	68	15088
2026-01-03 02:50:27.74	245.75	22.73	-48.4	-60.9	3.8	8.47e-01	0	40	104	0	68	15114
2026-01-03 02:50:28.74	245.59	22.61	-48.4	-60.9	3.8	8.47e-01	0	40	104	0	68	15078
2026-01-03 02:50:29.75	245.44	22.49	-48.4	-60.9	3.8	8.47e-01	0	40	104	0	68	15080
2026-01-03 02:50:30.75	245.28	22.37	-48.4	-60.9	3.8	8.47e-01	0	40	104	0	68	15085
2026-01-03 02:50:31.76	245.12	22.25	-48.4	-60.9	3.8	8.48e-01	0	40	104	0	68	15088
2026-01-03 02:50:32.76	244.97	22.13	-48.4	-60.9	3.8	8.48e-01	0	40	104	0	68	15118
2026-01-03 02:50:33.76	244.82	22.01	-48.4	-60.9	3.8	8.47e-01	0	40	104	0	68	15103
2026-01-03 02:50:34.77	244.67	21.89	-48.4	-60.9	3.8	8.46e-01	0	40	104	0	68	15103
2026-01-03 02:50:35.77	244.52	21.78	-48.4	-60.9	3.8	8.47e-01	0	39	104	0	68	15148
2026-01-03 02:50:36.78	244.37	21.66	-48.4	-60.9	3.8	8.47e-01	0	39	104	0	68	15135
2026-01-03 02:50:37.78	244.22	21.54	-48.4	-60.9	3.8	8.46e-01	0	40	104	0	68	15082
2026-01-03 02:50:38.78	244.07	21.42	-48.4	-60.9	3.8	8.47e-01	0	40	104	0	68	15099
2026-01-03 02:50:39.79	243.93	21.31	-48.4	-60.9	3.8	8.46e-01	0	40	104	0	68	15150
2026-01-03 02:50:40.79	243.78	21.19	-48.4	-60.9	3.8	8.47e-01	0	39	104	0	68	15054
2026-01-03 02:50:41.80	243.64	21.08	-48.4	-60.8	3.8	8.48e-01	0	40	104	0	68	15041
2026-01-03 02:50:42.80	243.50	20.96	-48.4	-60.9	3.8	8.47e-01	0	40	104	0	68	15053
2026-01-03 02:50:43.80	243.36	20.85	-48.4	-60.8	3.8	8.47e-01	0	40	104	0	68	15015
2026-01-03 02:50:44.80	243.22	20.73	-48.4	-60.9	3.8	8.48e-01	0	40	104	0	68	15058
2026-01-03 02:50:45.81	243.08	20.62	-48.4	-60.9	3.8	8.47e-01	0	40	104	0	68	15071
2026-01-03 02:50:46.81	242.94	20.50	-48.4	-60.9	3.8	8.46e-01	0	40	104	0	68	15089
2026-01-03 02:50:47.81	242.80	20.39	-48.4	-60.9	3.8	8.46e-01	0	40	104	0	68	15058
2026-01-03 02:50:48.82	242.67	20.28	-48.4	-60.9	3.8	8.46e-01	0	39	104	0	68	15063
2026-01-03 02:50:49.82	242.53	20.16	-48.4	-60.9	3.8	8.46e-01	0	40	104	0	68	15082
2026-01-03 02:50:50.83	242.40	20.05	-48.4	-60.9	3.8	8.47e-01	0	40	104	0	68	15089
2026-01-03 02:50:51.83	242.26	19.94	-48.4	-60.9	3.8	8.47e-01	0	40	104	0	68	15122
2026-01-03 02:50:52.83	242.13	19.83	-48.4	-60.9	3.8	8.48e-01	0	40	104	0	68	15093
2026-01-03 02:50:53.84	242.00	19.72	-48.4	-60.9	3.8	8.48e-01	0	40	104	0	68	15095
2026-01-03 02:50:54.84	241.87	19.60	-48.4	-60.9	3.8	8.47e-01	0	40	104	0	68	15069
2026-01-03 02:50:55.85	241.74	19.49	-48.4	-60.9	3.8	8.48e-01	0	40	104	0	68	15069
2026-01-03 02:50:56.85	241.61	19.38	-48.4	-60.9	3.8	8.48e-01	0	40	104	0	68	15073
2026-01-03 02:50:57.86	241.48	19.27	-48.4	-60.9	3.8	8.46e-01	0	40	104	0	68	15101
2026-01-03 02:50:58.86	241.36	19.16	-48.4	-60.9	3.8	8.47e-01	0	40	104	0	68	15093
2026-01-03 02:50:59.87	241.23	19.05	-48.4	-60.8	3.8	8.47e-01	0	40	104	0	68	15047
2026-01-03 02:51:00.87	241.11	18.94	-48.4	-60.8	3.8	8.47e-01	0	40	104	0	68	15044
2026-01-03 02:51:01.87	240.99	18.83	-48.4	-60.8	3.8	8.46e-01	0	40	104	0	68	15038
2026-01-03 02:51:02.88	240.86	18.73	-48.4	-60.8	3.8	8.48e-01	0	40	104	0	68	15016
2026-01-03 02:51:03.88	240.74	18.62	-48.4	-60.8	3.8	8.47e-01	0	40	104	0	68	15007
2026-01-03 02:51:04.89	240.62	18.51	-48.4	-60.9	3.8	8.47e-01	0	40	104	0	68	15111
2026-01-03 02:51:05.89	240.50	18.40	-48.4	-60.8	3.8	8.47e-01	0	40	104	0	68	15035
2026-01-03 02:51:06.89	240.38	18.30	-48.4	-60.8	3.8	8.47e-01	0	40	104	0	68	15038
2026-01-03 02:51:07.90	240.26	18.19	-48.4	-60.8	3.8	8.45e-01	0	40	104	0	68	15045
2026-01-03 02:51:08.90	240.14	18.08	-48.4	-60.9	3.8	8.47e-01	0	40	104	0	68	15101
2026-01-03 02:51:09.91	240.03	17.98	-48.4	-60.8	3.8	8.47e-01	0	40	104	0	68	15029
2026-01-03 02:51:10.91	239.91	17.87	-48.4	-60.9	3.8	8.47e-01	0	40	104	0	68	15092
2026-01-03 02:51:11.92	239.80	17.76	-48.4	-60.9	3.8	8.47e-01	0	40	104	0	68	15095
2026-01-03 02:51:12.92	239.68	17.66	-48.4	-60.9	3.8	8.48e-01	0	40	104	0	68	15092
2026-01-03 02:51:13.92	239.57	17.55	-48.4	-60.9	3.8	8.47e-01	0	40	104	0	68	15062
2026-01-03 02:51:14.93	239.46	17.45	-48.4	-60.9	3.8	8.46e-01	0	40	104	0	68	15083
2026-01-03 02:51:15.93	239.34	17.35	-48.4	-60.9	3.8	8.48e-01	0	40	104	0	68	15061
2026-01-03 02:51:16.94	239.23	17.24	-48.4	-60.8	3.8	8.47e-01	0	40	104	0	68	15029
2026-01-03 02:51:17.94	239.12	17.14	-48.4	-60.9	3.8	8.47e-01	0	40	104	0	68	15108
2026-01-03 02:51:18.95	239.01	17.03	-48.4	-60.8	3.8	8.46e-01	0	40	104	0	68	15024
2026-01-03 02:51:19.95	238.90	16.93	-48.4	-60.8	3.8	8.48e-01	0	40	104	0	68	15011
2026-01-03 02:51:20.96	238.79	16.83	-48.4	-60.8	3.8	8.47e-01	0	40	104	0	68	14999
2026-01-03 02:51:21.96	238.69	16.73	-48.4	-60.9	3.8	8.47e-01	0	40	104	0	68	15057
2026-01-03 02:51:22.96	238.58	16.63	-48.4	-60.9	3.8	8.47e-01	0	40	104	0	68	15055
2026-01-03 02:51:23.97	238.48	16.52	-48.4	-60.8	3.8	8.46e-01	0	40	104	0	68	15045
2026-01-03 02:51:24.97	238.37	16.42	-48.4	-60.9	3.8	8.47e-01	0	40	104	0	68	15098
2026-01-03 02:51:25.98	238.27	16.32	-48.4	-60.9	3.8	8.47e-01	0	40	104	0	68	15116
2026-01-03 02:51:26.98	238.16	16.22	-48.4	-60.8	3.8	8.47e-01	0	39	104	0	68	15032
2026-01-03 02:51:27.98	238.06	16.12	-48.4	-60.9	3.8	8.47e-01	0	40	104	0	68	15067
2026-01-03 02:51:28.99	237.96	16.02	-48.5	-60.9	3.8	8.45e-01	0	40	104	0	68	15058
2026-01-03 02:51:29.99	237.86	15.92	-48.4	-60.8	3.8	8.47e-01	0	40	104	0	68	15049
2026-01-03 02:51:31.00	237.75	15.82	-48.4	-60.8	3.8	8.46e-01	0	39	104	0	68	15013
2026-01-03 02:51:32.00	237.65	15.72	-48.4	-60.9	3.8	8.47e-01	0	40	104	0	68	15060
2026-01-03 02:51:33.01	237.55	15.62	-48.4	-60.8	3.8	8.47e-01	0	40	104	0	68	15030
2026-01-03 02:51:34.01	237.46	15.53	-48.5	-60.9	3.8	8.48e-01	0	40	104	0	68	15075
2026-01-03 02:51:35.01	237.36	15.43	-48.4	-60.8	3.8	8.47e-01	0	40	104	0	68	15023
2026-01-03 02:51:36.02	237.26	15.33	-48.4	-60.8	3.8	8.46e-01	0	40	104	0	68	14999
2026-01-03 02:51:37.02	237.16	15.23	-48.4	-60.9	3.8	8.48e-01	0	40	104	0	68	15125
2026-01-03 02:51:38.02	237.07	15.14	-48.4	-60.9	3.8	8.48e-01	0	40	104	0	68	15056
2026-01-03 02:51:39.03	236.97	15.04	-48.4	-60.8	3.8	8.47e-01	0	40	104	0	68	15025
2026-01-03 02:51:40.03	236.88	14.94	-48.4	-60.8	3.8	8.47e-01	0	40	104	0	68	14945
2026-01-03 02:51:41.04	236.78	14.84	-48.4	-60.8	3.8	8.47e-01	0	40	104	0	68	15018
2026-01-03 02:51:42.04	236.69	14.75	-48.4	-60.8	3.8	8.48e-01	0	39	104	0	68	15042
2026-01-03 02:51:43.05	236.60	14.65	-48.4	-60.8	3.8	8.47e-01	0	40	104	0	68	15005
2026-01-03 02:51:44.05	236.50	14.56	-48.4	-60.8	3.8	8.47e-01	0	40	104	0	68	15030
2026-01-03 02:51:45.06	236.41	14.46	-48.4	-60.9	3.8	8.46e-01	0	40	104	0	68	15052
2026-01-03 02:51:46.06	236.32	14.37	-48.4	-60.8	3.8	8.47e-01	0	39	104	0	68	15009
2026-01-03 02:51:47.07	236.23	14.27	-48.4	-60.8	3.8	8.47e-01	0	39	104	0	68	14974
2026-01-03 02:51:48.07	236.14	14.18	-48.4	-60.8	3.8	8.47e-01	0	40	104	0	68	15039
2026-01-03 02:51:49.07	236.05	14.09	-48.4	-60.9	3.8	8.47e-01	0	40	104	0	68	15081
2026-01-03 02:51:50.08	235.96	13.99	-48.4	-60.8	3.8	8.46e-01	0	40	104	0	68	14961
2026-01-03 02:51:51.08	235.87	13.90	-48.4	-60.8	3.8	8.47e-01	0	40	104	0	68	14964
2026-01-03 02:51:52.09	235.78	13.81	-48.4	-60.8	3.8	8.47e-01	0	40	104	0	68	15046
2026-01-03 02:51:53.09	235.70	13.71	-48.4	-60.8	3.8	8.48e-01	0	40	104	0	68	15001
2026-01-03 02:51:54.10	235.61	13.62	-48.3	-60.8	3.8	8.47e-01	0	40	104	0	68	15026
2026-01-03 02:51:55.10	235.52	13.53	-48.3	-60.8	3.8	8.47e-01	0	39	104	0	68	15022
2026-01-03 02:51:56.10	235.44	13.44	-48.3	-60.8	3.8	8.47e-01	0	40	104	0	68	15008
2026-01-03 02:51:57.11	235.35	13.34	-48.3	-60.8	3.8	8.47e-01	0	40	104	0	68	15025
2026-01-03 02:51:58.11	235.27	13.25	-48.3	-60.8	3.8	8.47e-01	0	40	104	0	68	15001
2026-01-03 02:51:59.12	235.18	13.16	-48.3	-60.8	3.8	8.47e-01	0	40	104	0	68	15027
2026-01-03 02:52:00.12	235.10	13.07	-48.3	-60.8	3.8	8.47e-01	0	40	104	0	68	14941
2026-01-03 02:52:01.13	235.02	12.98	-48.3	-60.8	3.8	8.48e-01	0	40	104	0	68	14980
2026-01-03 02:52:02.13	234.94	12.89	-48.3	-60.8	3.8	8.47e-01	0	40	104	0	68	14993
2026-01-03 02:52:03.14	234.85	12.80	-48.3	-60.8	3.8	8.45e-01	0	39	104	0	68	15033
2026-01-03 02:52:04.14	234.77	12.71	-48.3	-60.8	3.8	8.46e-01	0	40	104	0	68	15022
2026-01-03 02:52:05.15	234.69	12.62	-48.3	-60.8	3.8	8.48e-01	0	40	104	0	68	15014
2026-01-03 02:52:06.15	234.61	12.53	-48.3	-60.8	3.8	8.46e-01	0	39	104	0	68	14965
2026-01-03 02:52:07.15	234.53	12.44	-48.3	-60.8	3.8	8.47e-01	0	40	104	0	68	14996
2026-01-03 02:52:08.16	234.45	12.35	-48.3	-60.8	3.8	8.48e-01	0	40	104	0	68	15007
2026-01-03 02:52:09.16	234.37	12.27	-48.3	-60.8	3.8	8.48e-01	0	40	104	0	68	14997
2026-01-03 02:52:10.17	234.29	12.18	-48.4	-60.8	3.8	8.47e-01	0	39	104	0	68	14960
2026-01-03 02:52:11.17	234.22	12.09	-48.4	-60.8	3.8	8.46e-01	0	39	104	0	68	15016
2026-01-03 02:52:12.18	234.14	12.00	-48.4	-60.8	3.8	8.46e-01	0	40	104	0	68	14981
2026-01-03 02:52:13.18	234.06	11.92	-48.4	-60.8	3.8	8.46e-01	0	39	104	0	68	15022
2026-01-03 02:52:14.18	233.99	11.83	-48.4	-60.8	3.8	8.46e-01	0	40	104	0	68	14974
2026-01-03 02:52:15.19	233.91	11.74	-48.4	-60.8	3.8	8.48e-01	0	39	104	0	68	15016
2026-01-03 02:52:16.19	233.83	11.66	-48.4	-60.8	3.8	8.47e-01	0	40	104	0	68	14972
2026-01-03 02:52:17.20	233.76	11.57	-48.4	-60.8	3.8	8.47e-01	0	40	104	0	68	14995
2026-01-03 02:52:18.20	233.69	11.48	-48.4	-60.8	3.8	8.46e-01	0	40	104	0	68	14985
2026-01-03 02:52:19.20	233.61	11.40	-48.4	-60.8	3.8	8.47e-01	0	39	104	0	68	15009
2026-01-03 02:52:20.21	233.54	11.31	-48.4	-60.8	3.8	8.46e-01	0	40	104	0	68	14948
2026-01-03 02:52:21.22	233.46	11.23	-48.4	-60.8	3.8	8.47e-01	0	40	104	0	68	14950
2026-01-03 02:52:22.22	233.39	11.14	-48.4	-60.8	3.8	8.47e-01	0	40	104	0	68	14977
2026-01-03 02:52:23.22	233.32	11.06	-48.4	-60.8	3.8	8.46e-01	0	39	104	0	68	15039
2026-01-03 02:52:24.23	233.25	10.97	-48.4	-60.8	3.8	8.46e-01	0	39	104	0	68	14978
2026-01-03 02:52:25.23	233.17	10.89	-48.4	-60.8	3.8	8.47e-01	0	40	104	0	68	14996
2026-01-03 02:52:26.24	233.10	10.80	-48.3	-60.8	3.8	8.48e-01	0	40	104	0	68	14937
2026-01-03 02:52:27.24	233.03	10.72	-47.7	-60.5	3.8	8.48e-01	0	40	104	0	67	15353
2026-01-03 02:52:28.25	232.96	10.64	-47.4	-60.0	3.8	8.47e-01	0	40	104	0	66	15378
2026-01-03 02:52:29.25	232.89	10.55	-47.4	-60.4	3.8	8.46e-01	0	39	104	0	66	15972
2026-01-03 02:52:30.26	232.82	10.47	-48.1	-60.3	3.8	8.47e-01	0	40	104	0	66	15901
2026-01-03 02:52:31.26	232.75	10.39	-47.7	-60.3	3.8	8.46e-01	0	39	104	0	66	15842
2026-01-03 02:52:32.26	232.69	10.31	-47.9	-60.5	3.8	8.47e-01	0	40	104	0	67	15375
2026-01-03 02:52:33.27	232.62	10.22	-47.7	-60.2	3.8	8.47e-01	0	40	104	0	65	16685
2026-01-03 02:52:34.27	232.55	10.14	-48.0	-60.4	3.8	8.47e-01	0	39	104	0	66	16089
2026-01-03 02:52:35.28	232.48	10.06	-48.0	-60.2	3.8	8.47e-01	0	39	104	0	67	14811
2026-01-03 02:52:36.28	232.41	9.98	-48.4	-59.6	3.8	8.46e-01	0	40	104	0	67	13873
2026-01-03 02:52:37.28	232.35	9.90	-44.9	-48.8	10.9	4.46e-02	0	40	0	3145728	61	5593
2026-01-03 02:52:38.29	232.28	9.81	-44.5	-48.1	11.6	1.14e-03	0	40	0	8388608	60	5486
2026-01-03 02:52:39.32	232.21	9.73	-45.2	-49.2	10.3	3.24e-02	0	40	0	14680064	62	5574
2026-01-03 02:52:40.35	232.15	9.65	-44.7	-48.3	11.3	1.91e-02	0	39	0	19922944	61	5291
2026-01-03 02:52:41.38	232.08	9.57	-46.1	-51.0	8.4	4.64e-02	0	40	0	26214400	63	6466
2026-01-03 02:52:42.38	232.01	9.49	-45.6	-49.8	9.6	7.58e-02	0	40	0	31457280	63	5607
2026-01-03 02:52:43.45	231.95	9.40	-41.2	-43.5	16.1	0.00e+00	0	40	0	37748736	54	4574
2026-01-03 02:52:44.34	231.89	9.33	-41.0	-43.2	16.3	0.00e+00	0	40	0	41943040	54	4437
2026-01-03 02:52:45.48	231.82	9.24	-40.2	-42.3	17.2	0.00e+00	0	40	0	49283072	52	4485
2026-01-03 02:52:46.34	231.76	9.17	-39.9	-42.0	17.6	0.00e+00	0	40	0	53477376	51	4556
2026-01-03 02:52:47.48	231.69	9.08	-39.9	-42.0	17.6	0.00e+00	0	40	0	59768832	51	4597
2026-01-03 02:52:48.34	231.64	9.02	-39.9	-42.0	17.7	0.00e+00	0	40	0	65011712	51	4564
2026-01-03 02:52:49.49	231.57	8.92	-48.4	-60.6	3.8	8.47e-01	0	40	104	68157440	67	15447
2026-01-03 02:52:50.35	231.51	8.86	-48.6	-61.2	3.8	8.47e-01	0	40	104	68157440	68	15631
2026-01-03 02:52:51.49	231.44	8.77	-48.6	-61.3	3.8	8.47e-01	0	40	104	68157440	68	15858
2026-01-03 02:52:52.35	231.39	8.70	-48.9	-61.4	3.8	8.47e-01	0	40	104	68157440	68	16003
2026-01-03 02:52:53.50	231.32	8.61	-49.2	-61.4	3.8	8.46e-01	0	40	104	68157440	69	15134
2026-01-03 02:52:54.36	231.27	8.55	-49.2	-61.4	3.8	8.47e-01	0	40	104	68157440	69	15187
2026-01-03 02:52:55.53	231.20	8.46	-49.2	-61.5	3.8	8.46e-01	0	40	104	68157440	69	15262
2026-01-03 02:52:56.39	231.15	8.39	-49.1	-61.5	3.8	8.47e-01	0	40	104	68157440	69	15315
2026-01-03 02:52:57.60	231.08	8.30	-49.4	-61.5	3.8	8.48e-01	0	39	104	68157440	69	15288
2026-01-03 02:52:58.46	231.02	8.23	-49.4	-61.5	3.8	8.46e-01	0	40	104	68157440	69	15256
2026-01-03 02:52:59.67	230.95	8.14	-49.2	-61.5	3.8	8.46e-01	0	40	104	68157440	69	15290
2026-01-03 02:53:00.53	230.90	8.07	-49.4	-61.5	3.8	8.47e-01	0	40	104	68157440	69	15314
2026-01-03 02:53:01.68	230.84	7.99	-49.4	-61.5	3.8	8.48e-01	0	40	104	68157440	69	15337
2026-01-03 02:53:02.54	230.79	7.92	-49.3	-61.5	3.8	8.48e-01	0	40	104	68157440	69	15325
2026-01-03 02:53:03.68	230.72	7.84	-49.3	-61.5	3.8	8.46e-01	0	40	104	68157440	69	15333
2026-01-03 02:53:04.54	230.67	7.77	-49.4	-61.5	3.8	8.45e-01	0	40	104	68157440	69	15331
2026-01-03 02:53:05.69	230.61	7.68	-49.3	-61.5	3.8	8.47e-01	0	40	104	68157440	69	15315
2026-01-03 02:53:06.55	230.56	7.62	-49.3	-61.5	3.8	8.47e-01	0	40	104	68157440	69	15285
2026-01-03 02:53:07.69	230.49	7.53	-49.2	-61.5	3.8	8.46e-01	0	40	104	68157440	69	15302
2026-01-03 02:53:08.55	230.45	7.47	-49.2	-61.5	3.8	8.46e-01	0	40	104	68157440	69	15278
2026-01-03 02:53:09.70	230.38	7.39	-49.2	-61.4	3.8	8.48e-01	0	40	104	68157440	69	15211
2026-01-03 02:53:10.56	230.34	7.32	-49.1	-61.4	3.8	8.46e-01	0	39	104	68157440	69	15218
2026-01-03 02:53:11.71	230.27	7.24	-49.1	-61.4	3.8	8.47e-01	0	40	104	68157440	69	15212
2026-01-03 02:53:12.57	230.22	7.17	-49.2	-61.4	3.8	8.48e-01	0	40	104	68157440	69	15221
2026-01-03 02:53:13.72	230.16	7.09	-49.1	-61.5	3.8	8.47e-01	0	39	104	68157440	69	15270
2026-01-03 02:53:14.58	230.12	7.03	-49.1	-61.4	3.8	8.46e-01	0	40	104	68157440	69	15214
2026-01-03 02:53:15.73	230.05	6.94	-49.2	-61.4	3.8	8.48e-01	0	40	104	68157440	69	15208
2026-01-03 02:53:16.59	230.01	6.88	-49.1	-61.4	3.8	8.47e-01	0	40	104	68157440	69	15181
2026-01-03 02:53:17.73	229.95	6.80	-49.1	-61.5	3.8	8.47e-01	0	40	104	68157440	69	15237
2026-01-03 02:53:18.60	229.90	6.73	-49.1	-61.5	3.8	8.46e-01	0	39	104	68157440	69	15228
2026-01-03 02:53:19.74	229.84	6.65	-49.1	-61.4	3.8	8.47e-01	0	39	104	68157440	69	15175
2026-01-03 02:53:20.60	229.80	6.59	-49.1	-61.5	3.8	8.46e-01	0	40	104	68157440	69	15226
2026-01-03 02:53:21.75	229.74	6.51	-49.1	-61.4	3.8	8.46e-01	0	39	104	68157440	69	15179
2026-01-03 02:53:22.61	229.69	6.44	-49.1	-61.5	3.8	8.47e-01	0	39	104	68157440	69	15273
2026-01-03 02:53:23.76	229.63	6.36	-49.1	-61.4	3.8	8.45e-01	0	39	104	68157440	69	15209
2026-01-03 02:53:24.62	229.59	6.30	-49.1	-61.4	3.8	8.47e-01	0	39	104	68157440	69	15213
2026-01-03 02:53:25.77	229.53	6.22	-49.2	-61.4	3.8	8.46e-01	0	40	104	68157440	69	15211
2026-01-03 02:53:26.63	229.49	6.16	-49.1	-61.4	3.8	8.48e-01	0	39	104	68157440	69	15180
2026-01-03 02:53:27.78	229.43	6.07	-49.1	-61.5	3.8	8.47e-01	0	39	104	68157440	69	15285
2026-01-03 02:53:28.64	229.38	6.01	-49.1	-61.4	3.8	8.47e-01	0	40	104	68157440	69	15221
2026-01-03 02:53:29.79	229.33	5.93	-49.1	-61.4	3.8	8.47e-01	0	40	104	68157440	69	15171
2026-01-03 02:53:30.65	229.28	5.87	-49.1	-61.4	3.8	8.47e-01	0	40	104	68157440	69	15196
2026-01-03 02:53:31.79	229.23	5.79	-49.1	-61.5	3.8	8.47e-01	0	39	104	68157440	69	15257
2026-01-03 02:53:32.65	229.18	5.73	-49.1	-61.4	3.8	8.46e-01	0	39	104	68157440	69	15209
2026-01-03 02:53:33.80	229.13	5.65	-49.1	-61.4	3.8	8.47e-01	0	40	104	68157440	69	15194
2026-01-03 02:53:34.66	229.09	5.59	-49.1	-61.5	3.8	8.47e-01	0	39	104	68157440	69	15233
2026-01-03 02:53:35.81	229.03	5.51	-49.1	-61.4	3.8	8.47e-01	0	40	104	68157440	69	15158
2026-01-03 02:53:36.67	228.99	5.45	-49.1	-61.4	3.8	8.46e-01	0	39	104	68157440	69	15197
2026-01-03 02:53:37.82	228.93	5.37	-49.1	-61.4	3.8	8.46e-01	0	39	104	68157440	69	15164
2026-01-03 02:53:38.68	228.89	5.31	-49.1	-61.5	3.8	8.47e-01	0	39	104	68157440	69	15266
2026-01-03 02:53:39.83	228.84	5.23	-49.1	-61.4	3.8	8.47e-01	0	39	104	68157440	69	15183
2026-01-03 02:53:40.69	228.80	5.17	-49.1	-61.4	3.8	8.48e-01	0	39	104	68157440	69	15171
2026-01-03 02:53:41.84	228.74	5.09	-49.1	-61.4	3.8	8.47e-01	0	39	104	68157440	69	15164
2026-01-03 02:53:42.70	228.70	5.04	-49.1	-61.4	3.8	8.48e-01	0	39	104	68157440	69	15191
2026-01-03 02:53:43.84	228.65	4.96	-49.1	-61.4	3.8	8.48e-01	0	40	104	68157440	69	15183

#Closed at: 2026-01-03 02:53:44
#Recorded file [68 MB]: D:/Data/31040_260103_054130.dat