passes_logs/2026/01/03/T1/T1__20260103_042830_FENGYUN_3E_rec.log

#Pass ID: 20260103_042830_FENGYUN 3E
#Satellite: FENGYUN 3E
#Configuration: FENGYUN 3E
#almurnet v.1.7.20251203
#Start time: 2026-01-03 04:28:31

#Version: 2.0.20230620
#Station: T1
#Location: 37.570604 lon 55.790049 lat
#TLE: 1 49008U 21062A   26002.32147302  .00000239  00000+0  13357-3 0  9999
#TLE: 2 49008  98.7477   7.5995 0001398 164.3382 195.7838 14.19884140233041

#Time	Az	El	Level	Level2	SNR	BER	BlckErr	Temp	State	Recorded	gain1	gain2
2026-01-03 04:28:31.10	13.12	5.00	-52.7	-64.2	3.8	8.47e-01	0	40	0	0	75	13841
2026-01-03 04:28:32.10	13.10	5.07	-51.9	-64.2	3.8	8.46e-01	0	40	104	0	73	15557
2026-01-03 04:28:33.10	13.07	5.14	-51.6	-63.8	3.8	8.45e-01	0	41	104	0	73	14870
2026-01-03 04:28:34.10	13.05	5.21	-51.4	-63.7	3.8	8.47e-01	0	40	104	0	73	14548
2026-01-03 04:28:35.10	13.03	5.28	-52.0	-64.3	3.8	8.47e-01	0	41	104	0	73	15620
2026-01-03 04:28:36.11	13.00	5.35	-52.1	-64.3	3.8	8.46e-01	0	40	104	0	73	15628
2026-01-03 04:28:37.11	12.98	5.42	-51.5	-63.7	3.8	8.46e-01	0	41	104	0	73	14612
2026-01-03 04:28:38.12	12.95	5.50	-51.7	-64.0	3.8	8.47e-01	0	41	104	0	73	15084
2026-01-03 04:28:39.12	12.93	5.57	-51.7	-63.9	3.8	8.47e-01	0	41	104	0	73	15002
2026-01-03 04:28:40.13	12.90	5.64	-51.9	-64.2	3.8	8.46e-01	0	41	104	0	73	15470
2026-01-03 04:28:41.13	12.88	5.71	-51.9	-64.1	3.8	8.47e-01	0	41	104	0	73	15264
2026-01-03 04:28:42.13	12.86	5.78	-52.0	-64.1	3.8	8.47e-01	0	41	104	0	73	15356
2026-01-03 04:28:43.14	12.83	5.86	-51.5	-63.6	3.8	8.48e-01	0	41	104	0	73	14404
2026-01-03 04:28:44.14	12.81	5.93	-51.9	-63.9	3.8	8.47e-01	0	41	104	0	73	14887
2026-01-03 04:28:45.15	12.78	6.00	-51.9	-63.9	3.8	8.47e-01	0	41	104	0	73	14900
2026-01-03 04:28:46.15	12.76	6.08	-52.0	-63.8	3.8	8.46e-01	0	41	104	0	73	14856
2026-01-03 04:28:47.15	12.73	6.15	-51.9	-63.7	3.8	8.46e-01	0	41	104	0	73	14579
2026-01-03 04:28:48.16	12.70	6.22	-51.9	-63.6	3.8	8.47e-01	0	41	104	0	73	14446
2026-01-03 04:28:49.17	12.68	6.30	-51.5	-63.0	3.8	8.47e-01	0	41	104	0	73	13517
2026-01-03 04:28:50.17	12.65	6.37	-51.7	-63.1	3.8	8.46e-01	0	41	104	0	73	13580
2026-01-03 04:28:51.17	12.63	6.45	-51.4	-62.7	3.8	8.46e-01	0	41	104	0	73	13098
2026-01-03 04:28:52.18	12.60	6.52	-51.4	-62.6	3.8	8.46e-01	0	41	104	0	73	12812
2026-01-03 04:28:53.18	12.57	6.60	-51.3	-62.5	3.8	8.46e-01	0	41	104	0	73	12695
2026-01-03 04:28:54.18	12.55	6.67	-51.3	-62.5	3.8	8.46e-01	0	42	104	0	73	12733
2026-01-03 04:28:55.19	12.52	6.75	-51.4	-62.7	3.8	8.47e-01	0	41	104	0	73	13048
2026-01-03 04:28:56.19	12.49	6.82	-51.5	-62.9	3.8	8.47e-01	0	41	104	0	73	13305
2026-01-03 04:28:57.20	12.47	6.90	-51.5	-63.1	3.8	8.47e-01	0	42	104	0	73	13616
2026-01-03 04:28:58.20	12.44	6.97	-51.6	-63.5	3.8	8.47e-01	0	42	104	0	73	14285
2026-01-03 04:28:59.20	12.41	7.05	-51.7	-63.8	3.8	8.46e-01	0	42	104	0	73	14844
2026-01-03 04:29:00.21	12.39	7.13	-51.7	-64.0	3.8	8.46e-01	0	42	104	0	73	15064
2026-01-03 04:29:01.21	12.36	7.20	-51.7	-64.1	3.8	8.46e-01	0	41	104	0	73	15244
2026-01-03 04:29:02.22	12.33	7.28	-51.8	-64.0	3.8	8.46e-01	0	42	104	0	73	15103
2026-01-03 04:29:03.22	12.30	7.36	-51.7	-63.5	3.8	8.46e-01	0	42	104	0	73	14226
2026-01-03 04:29:04.22	12.27	7.43	-51.7	-62.7	3.8	8.46e-01	0	42	104	0	73	13101
2026-01-03 04:29:05.23	12.25	7.51	-51.6	-61.7	4.0	8.45e-01	0	42	104	0	73	11569
2026-01-03 04:29:06.23	12.22	7.59	-51.2	-60.3	4.2	8.39e-01	0	42	0	0	72	10426
2026-01-03 04:29:07.24	12.19	7.67	-50.9	-59.1	4.6	8.17e-01	0	42	0	0	72	9142
2026-01-03 04:29:08.24	12.16	7.74	-50.8	-58.0	5.3	7.37e-01	0	42	0	0	72	7991
2026-01-03 04:29:09.24	12.13	7.82	-50.3	-56.4	6.3	3.41e-01	0	42	0	4194304	71	7065
2026-01-03 04:29:10.25	12.10	7.90	-50.2	-55.5	7.2	1.48e-01	0	42	0	11534336	70	6767
2026-01-03 04:29:11.25	12.07	7.98	-49.8	-54.5	8.3	6.40e-02	0	42	0	18874368	70	6002
2026-01-03 04:29:12.25	12.04	8.06	-49.2	-53.2	9.6	2.36e-02	0	42	0	26214400	69	5512
2026-01-03 04:29:13.26	12.01	8.14	-49.0	-52.5	10.5	5.19e-03	0	42	0	33554432	68	5376
2026-01-03 04:29:14.26	11.98	8.22	-47.9	-51.0	11.5	1.50e-03	0	42	0	40894464	66	5095
2026-01-03 04:29:15.27	11.95	8.30	-47.7	-50.6	12.1	3.51e-04	0	42	0	48234496	66	4825
2026-01-03 04:29:16.27	11.92	8.38	-47.5	-50.1	12.8	9.95e-05	0	42	0	54525952	65	4870
2026-01-03 04:29:17.28	11.89	8.46	-47.2	-49.7	13.2	4.80e-05	0	42	0	61865984	65	4628
2026-01-03 04:29:18.28	11.86	8.54	-47.0	-49.3	13.6	6.80e-06	0	42	0	69206016	64	4702
2026-01-03 04:29:19.28	11.83	8.62	-46.7	-49.1	13.7	3.18e-04	0	42	0	76546048	64	4549
2026-01-03 04:29:20.29	11.80	8.70	-47.0	-49.3	13.7	2.20e-06	0	42	0	83886080	64	4691
2026-01-03 04:29:21.29	11.77	8.78	-47.2	-49.6	13.4	1.60e-05	0	42	0	91226112	64	4870
2026-01-03 04:29:22.30	11.74	8.86	-47.2	-49.8	13.0	1.25e-04	0	42	0	98566144	64	4953
2026-01-03 04:29:23.30	11.71	8.94	-47.8	-50.7	12.1	1.50e-04	0	42	0	105906176	65	5202
2026-01-03 04:29:24.30	11.67	9.02	-48.3	-51.5	11.2	1.36e-03	0	42	0	113246208	65	5703
2026-01-03 04:29:25.31	11.64	9.11	-48.9	-52.9	9.6	6.90e-03	0	42	0	120586240	67	5927
2026-01-03 04:29:26.31	11.61	9.19	-50.4	-56.4	6.3	1.62e-01	0	42	0	127926272	70	7477
2026-01-03 04:29:27.32	11.58	9.27	-50.7	-56.6	6.2	7.84e-01	0	42	0	130023424	72	6865
2026-01-03 04:29:28.32	11.54	9.36	-44.9	-46.7	16.2	0.00e+00	0	43	0	137363456	60	4359
2026-01-03 04:29:29.32	11.51	9.44	-43.8	-45.3	17.6	0.00e+00	0	42	0	144703488	57	4399
2026-01-03 04:29:30.33	11.48	9.52	-49.1	-53.4	9.3	2.07e-01	0	42	0	150994944	69	5629
2026-01-03 04:29:31.39	11.44	9.61	-43.5	-45.0	17.9	0.00e+00	0	42	0	159383552	57	4262
2026-01-03 04:29:32.30	11.41	9.69	-43.3	-44.7	18.1	0.00e+00	0	42	0	165675008	57	4133
2026-01-03 04:29:33.48	11.37	9.79	-43.1	-44.6	18.0	0.00e+00	0	42	0	174063616	57	4067
2026-01-03 04:29:34.34	11.34	9.86	-43.2	-44.6	18.1	0.00e+00	0	42	0	180355072	56	4334
2026-01-03 04:29:35.71	11.30	9.97	-43.2	-44.6	18.2	0.00e+00	0	43	0	190840832	56	4334
2026-01-03 04:29:36.43	11.27	10.04	-43.0	-44.5	18.4	0.00e+00	0	42	0	195035136	56	4246
2026-01-03 04:29:37.72	11.23	10.15	-43.0	-44.4	18.4	0.00e+00	0	42	0	204472320	56	4219
2026-01-03 04:29:38.44	11.20	10.21	-43.0	-44.4	18.4	0.00e+00	0	42	0	209715200	56	4221
2026-01-03 04:29:39.72	11.16	10.32	-42.9	-44.3	18.5	0.00e+00	0	42	0	219152384	56	4177
2026-01-03 04:29:40.47	11.13	10.38	-43.0	-44.5	18.4	0.00e+00	0	42	0	224395264	56	4249
2026-01-03 04:29:41.76	11.09	10.49	-42.2	-43.5	18.9	0.00e+00	0	42	0	233832448	55	4037
2026-01-03 04:29:42.48	11.06	10.56	-42.5	-43.8	18.9	0.00e+00	0	42	0	239075328	55	4186
2026-01-03 04:29:43.77	11.01	10.67	-42.6	-44.0	18.7	0.00e+00	0	42	0	248512512	55	4254
2026-01-03 04:29:44.58	10.98	10.74	-42.3	-43.7	18.7	0.00e+00	0	43	0	254803968	55	4108
2026-01-03 04:29:45.72	10.94	10.84	-42.5	-43.9	18.9	0.00e+00	0	43	0	262144000	55	4199
2026-01-03 04:29:46.82	10.90	10.94	-42.3	-43.6	19.1	0.00e+00	0	43	0	270532608	55	4082
2026-01-03 04:29:47.85	10.86	11.03	-42.8	-44.1	18.7	0.00e+00	0	42	0	277872640	55	4312
2026-01-03 04:29:48.85	10.83	11.11	-42.2	-43.4	19.3	0.00e+00	0	42	0	285212672	54	4239
2026-01-03 04:29:49.85	10.79	11.20	-42.3	-43.5	19.3	0.00e+00	0	43	0	292552704	54	4277
2026-01-03 04:29:50.85	10.75	11.29	-42.1	-43.4	19.5	0.00e+00	0	43	0	299892736	54	4213
2026-01-03 04:29:51.86	10.71	11.38	-41.8	-43.1	19.5	0.00e+00	0	43	0	307232768	54	4056
2026-01-03 04:29:52.86	10.67	11.47	-41.9	-43.1	19.4	0.00e+00	0	43	0	314572800	54	4095
2026-01-03 04:29:53.86	10.64	11.56	-41.8	-43.0	19.6	8.58e-05	0	43	0	321912832	54	4022
2026-01-03 04:29:54.87	10.60	11.65	-41.9	-43.1	19.5	0.00e+00	0	43	0	328204288	54	4080
2026-01-03 04:29:55.87	10.56	11.75	-42.2	-43.4	19.6	0.00e+00	0	43	0	335544320	54	4204
2026-01-03 04:29:56.87	10.52	11.84	-41.6	-42.8	19.9	0.00e+00	0	43	0	342884352	54	3932
2026-01-03 04:29:57.87	10.48	11.93	-42.0	-43.1	19.8	0.00e+00	0	43	0	350224384	54	4098
2026-01-03 04:29:58.94	10.44	12.03	-42.0	-43.1	19.9	0.00e+00	0	43	0	357564416	54	4072
2026-01-03 04:29:59.85	10.40	12.11	-41.7	-42.8	19.9	0.00e+00	0	43	0	364904448	54	3935
2026-01-03 04:30:00.85	10.36	12.20	-41.7	-42.9	19.9	0.00e+00	0	43	0	372244480	54	3963
2026-01-03 04:30:01.85	10.32	12.29	-41.6	-42.7	20.0	0.00e+00	0	43	0	379584512	54	3898
2026-01-03 04:30:02.85	10.28	12.39	-41.6	-42.7	20.0	0.00e+00	0	43	0	385875968	53	4115
2026-01-03 04:30:03.86	10.24	12.48	-41.7	-42.8	20.1	0.00e+00	0	43	0	393216000	53	4176
2026-01-03 04:30:04.86	10.20	12.58	-41.3	-42.4	20.3	0.00e+00	0	43	0	400556032	53	3970
2026-01-03 04:30:05.86	10.15	12.67	-41.3	-42.4	20.3	0.00e+00	0	43	0	407896064	53	3991
2026-01-03 04:30:06.86	10.11	12.76	-41.3	-42.4	20.3	0.00e+00	0	43	0	415236096	53	3975
2026-01-03 04:30:07.86	10.07	12.86	-41.4	-42.5	20.2	0.00e+00	0	43	0	422576128	53	4028
2026-01-03 04:30:08.86	10.03	12.95	-41.3	-42.4	20.3	0.00e+00	0	43	0	429916160	53	3980
2026-01-03 04:30:09.87	9.98	13.05	-41.5	-42.6	20.1	0.00e+00	0	43	0	437256192	53	4072
2026-01-03 04:30:10.89	9.94	13.15	-41.7	-42.8	20.0	0.00e+00	0	43	0	444596224	53	4161
2026-01-03 04:30:11.91	9.89	13.25	-41.4	-42.5	20.3	0.00e+00	0	43	0	451936256	53	4032
2026-01-03 04:30:12.94	9.85	13.35	-41.6	-42.6	20.2	0.00e+00	0	43	0	459276288	53	4098
2026-01-03 04:30:13.96	9.80	13.45	-41.4	-42.5	20.6	0.00e+00	0	43	0	466616320	53	4018
2026-01-03 04:30:14.99	9.76	13.55	-41.2	-42.3	20.5	0.00e+00	0	43	0	473956352	53	3933
2026-01-03 04:30:15.99	9.71	13.64	-41.3	-42.3	20.5	0.00e+00	0	43	0	481296384	53	3952
2026-01-03 04:30:16.99	9.67	13.74	-41.2	-42.2	20.6	0.00e+00	0	43	0	488636416	53	3912
2026-01-03 04:30:18.00	9.62	13.84	-41.2	-42.2	20.6	0.00e+00	0	43	0	495976448	53	3892
2026-01-03 04:30:19.00	9.58	13.94	-41.4	-42.4	20.6	0.00e+00	0	43	0	503316480	53	4004
2026-01-03 04:30:20.00	9.53	14.04	-41.3	-42.4	20.6	0.00e+00	0	43	0	510656512	53	3976
2026-01-03 04:30:21.00	9.48	14.14	-41.2	-42.2	20.6	0.00e+00	0	43	0	516947968	53	3901
2026-01-03 04:30:22.01	9.44	14.24	-41.3	-42.3	20.6	0.00e+00	0	43	0	524288000	53	3936
2026-01-03 04:30:23.01	9.39	14.34	-41.3	-42.3	20.7	0.00e+00	0	43	0	531628032	52	4166
2026-01-03 04:30:24.01	9.34	14.44	-41.0	-42.1	20.7	0.00e+00	0	43	0	538968064	52	4061
2026-01-03 04:30:25.01	9.29	14.54	-41.3	-42.3	20.6	0.00e+00	0	43	0	546308096	52	4162
2026-01-03 04:30:26.02	9.24	14.65	-41.5	-42.5	20.6	0.00e+00	0	43	0	553648128	52	4261
2026-01-03 04:30:27.02	9.19	14.75	-41.6	-42.6	20.6	0.00e+00	0	43	0	560988160	52	4313
2026-01-03 04:30:28.02	9.15	14.85	-41.6	-42.6	20.5	0.00e+00	0	43	0	568328192	52	4320
2026-01-03 04:30:29.03	9.10	14.95	-41.6	-42.6	20.5	0.00e+00	0	43	0	575668224	52	4334
2026-01-03 04:30:30.03	9.05	15.06	-41.5	-42.5	20.6	0.00e+00	0	43	0	581959680	52	4270
2026-01-03 04:30:31.03	9.00	15.16	-41.6	-42.6	20.6	0.00e+00	0	43	0	589299712	52	4328
2026-01-03 04:30:32.03	8.95	15.27	-41.6	-42.6	20.6	0.00e+00	0	43	0	596639744	52	4313
2026-01-03 04:30:33.04	8.89	15.37	-41.6	-42.6	20.6	0.00e+00	0	43	0	603979776	52	4323
2026-01-03 04:30:34.04	8.84	15.48	-41.6	-42.6	20.6	0.00e+00	0	43	0	611319808	52	4302
2026-01-03 04:30:35.04	8.79	15.58	-41.4	-42.4	20.8	0.00e+00	0	43	0	618659840	52	4225
2026-01-03 04:30:36.04	8.74	15.69	-41.5	-42.5	20.7	0.00e+00	0	43	0	625999872	52	4279
2026-01-03 04:30:37.05	8.69	15.79	-41.5	-42.4	20.7	0.00e+00	0	43	0	633339904	52	4238
2026-01-03 04:30:38.05	8.63	15.90	-41.4	-42.4	20.8	0.00e+00	0	43	0	639631360	52	4206
2026-01-03 04:30:39.05	8.58	16.01	-41.3	-42.3	20.8	0.00e+00	0	43	0	648019968	52	4171
2026-01-03 04:30:40.06	8.53	16.12	-41.2	-42.2	20.9	0.00e+00	0	43	0	655360000	52	4128
2026-01-03 04:30:41.06	8.47	16.23	-41.1	-42.1	20.9	0.00e+00	0	43	0	661651456	52	4072
2026-01-03 04:30:42.24	8.41	16.35	-41.3	-42.3	20.8	0.00e+00	0	43	0	670040064	52	4158
2026-01-03 04:30:43.16	8.36	16.45	-41.3	-42.3	20.8	0.00e+00	0	43	0	677380096	52	4170
2026-01-03 04:30:44.35	8.29	16.58	-41.3	-42.3	20.9	0.00e+00	0	43	0	685768704	52	4153
2026-01-03 04:30:45.24	8.24	16.68	-41.4	-42.3	20.9	0.00e+00	0	43	0	692060160	52	4188
2026-01-03 04:30:46.39	8.18	16.81	-41.3	-42.3	20.9	0.00e+00	0	43	0	700448768	52	4153
2026-01-03 04:30:47.31	8.12	16.91	-41.3	-42.3	20.9	0.00e+00	0	43	0	707788800	52	4176
2026-01-03 04:30:48.49	8.06	17.04	-41.1	-42.0	21.0	0.00e+00	0	43	0	715128832	52	4050
2026-01-03 04:30:49.35	8.01	17.14	-40.9	-41.8	21.0	1.10e-06	0	43	0	722468864	52	3945
2026-01-03 04:30:50.69	7.93	17.29	-40.9	-41.8	21.1	2.20e-06	0	43	0	731906048	52	3939
2026-01-03 04:30:51.41	7.89	17.37	-40.9	-41.9	20.9	0.00e+00	0	43	0	737148928	52	3979
2026-01-03 04:30:52.69	7.81	17.52	-40.9	-41.9	21.3	0.00e+00	0	43	0	745537536	52	3960
2026-01-03 04:30:53.43	7.77	17.60	-40.9	-41.8	21.3	0.00e+00	0	43	0	750780416	52	3932
2026-01-03 04:30:54.72	7.69	17.75	-40.7	-41.6	21.4	0.00e+00	0	43	0	760217600	51	4094
2026-01-03 04:30:55.52	7.64	17.84	-40.7	-41.6	21.4	0.00e+00	0	43	0	766509056	51	4095
2026-01-03 04:30:56.66	7.57	17.97	-40.8	-41.7	21.4	0.00e+00	0	43	0	774897664	51	4129
2026-01-03 04:30:57.73	7.50	18.10	-40.6	-41.5	21.7	0.00e+00	0	43	0	782237696	51	4018
2026-01-03 04:30:58.59	7.45	18.20	-40.6	-41.5	21.6	0.00e+00	0	43	0	788529152	51	4011
2026-01-03 04:30:59.73	7.38	18.33	-40.5	-41.4	21.6	0.00e+00	0	43	0	796917760	51	4000
2026-01-03 04:31:00.60	7.32	18.43	-40.5	-41.4	21.7	0.00e+00	0	43	0	803209216	51	3986
2026-01-03 04:31:01.74	7.25	18.57	-40.4	-41.4	21.5	0.00e+00	0	43	0	811597824	51	3973
2026-01-03 04:31:02.60	7.19	18.67	-40.7	-41.6	21.6	0.00e+00	0	43	0	817889280	51	4077
2026-01-03 04:31:03.74	7.12	18.81	-40.4	-41.3	21.5	0.00e+00	0	43	0	825229312	51	3942
2026-01-03 04:31:04.61	7.06	18.91	-40.4	-41.3	21.6	0.00e+00	0	43	0	832569344	51	3947
2026-01-03 04:31:05.75	6.99	19.05	-40.6	-41.6	21.5	0.00e+00	0	43	0	840957952	51	4052
2026-01-03 04:31:06.61	6.93	19.15	-40.5	-41.5	21.6	0.00e+00	0	43	0	846200832	51	4010
2026-01-03 04:31:07.75	6.85	19.29	-40.6	-41.6	21.7	0.00e+00	0	43	0	854589440	51	4063
2026-01-03 04:31:08.71	6.79	19.41	-40.5	-41.5	21.5	0.00e+00	0	43	0	861929472	51	4008
2026-01-03 04:31:09.89	6.71	19.55	-40.4	-41.3	21.7	0.00e+00	0	43	0	870318080	51	3943
2026-01-03 04:31:10.75	6.65	19.66	-40.4	-41.4	21.6	0.00e+00	0	43	0	876609536	51	3979
2026-01-03 04:31:12.10	6.56	19.83	-40.2	-41.1	21.7	0.00e+00	0	43	0	886046720	51	3862
2026-01-03 04:31:12.82	6.51	19.91	-40.3	-41.2	21.7	0.00e+00	0	43	0	891289600	51	3899
2026-01-03 04:31:14.11	6.41	20.08	-40.3	-41.2	21.7	0.00e+00	0	43	0	900726784	51	3910
2026-01-03 04:31:14.83	6.36	20.17	-40.3	-41.2	21.7	0.00e+00	0	43	0	905969664	51	3893
2026-01-03 04:31:16.12	6.27	20.33	-40.3	-41.3	21.6	0.00e+00	0	43	0	915406848	51	3928
2026-01-03 04:31:16.91	6.21	20.43	-40.4	-41.4	21.7	0.00e+00	0	43	0	920649728	51	3959
2026-01-03 04:31:18.06	6.13	20.58	-40.4	-41.3	21.6	0.00e+00	0	43	0	929038336	51	3941
2026-01-03 04:31:19.16	6.05	20.72	-40.5	-41.4	21.6	0.00e+00	0	43	0	937426944	51	3993
2026-01-03 04:31:20.21	5.97	20.85	-40.4	-41.3	21.6	0.00e+00	0	43	0	944766976	51	3956
2026-01-03 04:31:21.26	5.89	20.99	-40.1	-41.0	21.7	0.00e+00	0	43	0	952107008	51	3818
2026-01-03 04:31:22.14	5.82	21.10	-40.2	-41.1	21.6	0.00e+00	0	43	0	958398464	50	4089
2026-01-03 04:31:23.60	5.71	21.29	-40.3	-41.2	21.7	0.00e+00	0	43	0	968884224	50	4132
2026-01-03 04:31:24.32	5.65	21.39	-40.4	-41.3	21.7	0.00e+00	0	43	0	974127104	50	4164
2026-01-03 04:31:25.61	5.55	21.56	-40.2	-41.1	21.7	0.00e+00	0	43	0	983564288	50	4065
2026-01-03 04:31:26.32	5.50	21.65	-40.4	-41.3	21.8	0.00e+00	0	43	0	988807168	50	4168
2026-01-03 04:31:27.62	5.39	21.83	-40.1	-41.0	22.0	0.00e+00	0	43	0	998244352	50	4005
2026-01-03 04:31:28.33	5.34	21.92	-40.1	-41.0	22.0	0.00e+00	0	43	0	1003487232	50	4030
2026-01-03 04:31:29.62	5.23	22.09	-40.1	-41.0	22.0	0.00e+00	0	43	0	1012924416	50	4037
2026-01-03 04:31:30.34	5.17	22.19	-40.2	-41.0	22.0	0.00e+00	0	43	0	1018167296	50	4039
2026-01-03 04:31:31.63	5.07	22.37	-39.7	-40.6	22.1	3.77e-05	0	43	0	1026555904	50	3841
2026-01-03 04:31:32.52	4.99	22.49	-39.8	-40.7	22.0	0.00e+00	0	43	0	1033895936	50	3892
2026-01-03 04:31:33.66	4.90	22.64	-39.5	-40.3	22.4	0.00e+00	0	43	0	1042284544	49	3943
2026-01-03 04:31:34.52	4.82	22.76	-39.5	-40.4	22.3	0.00e+00	0	43	0	1047527424	49	3972
2026-01-03 04:31:35.67	4.72	22.92	-39.7	-40.5	22.3	0.00e+00	0	43	0	1055916032	49	4048
2026-01-03 04:31:36.82	4.62	23.08	-39.9	-40.7	22.2	0.00e+00	0	43	0	1064304640	49	4143
2026-01-03 04:31:37.68	4.55	23.20	-39.9	-40.8	22.2	0.00e+00	0	43	0	1070596096	49	4147
2026-01-03 04:31:38.82	4.45	23.36	-39.5	-40.4	22.3	0.00e+00	0	43	0	1078984704	49	3963
2026-01-03 04:31:39.69	4.37	23.49	-39.5	-40.4	22.3	0.00e+00	0	43	0	1085276160	49	3980
2026-01-03 04:31:40.83	4.27	23.65	-39.8	-40.6	22.3	0.00e+00	0	43	0	1093664768	49	4095
2026-01-03 04:31:41.69	4.19	23.77	-39.7	-40.5	22.3	0.00e+00	0	43	0	1099956224	49	4035
2026-01-03 04:31:42.84	4.08	23.94	-39.7	-40.6	22.3	0.00e+00	0	43	0	1108344832	49	4064
2026-01-03 04:31:43.70	4.00	24.06	-39.9	-40.7	22.4	0.00e+00	0	43	0	1114636288	49	4131
2026-01-03 04:31:44.92	3.89	24.24	-39.4	-40.3	22.5	0.00e+00	0	43	0	1123024896	49	3914
2026-01-03 04:31:45.78	3.81	24.36	-39.4	-40.3	22.7	0.00e+00	0	43	0	1129316352	49	3923
2026-01-03 04:31:46.99	3.69	24.54	-39.3	-40.2	22.5	0.00e+00	0	43	0	1137704960	49	3877
2026-01-03 04:31:47.85	3.61	24.67	-39.3	-40.1	22.5	0.00e+00	0	43	0	1143996416	49	3852
2026-01-03 04:31:49.10	3.49	24.85	-39.4	-40.3	22.4	0.00e+00	0	43	0	1153433600	49	3915
2026-01-03 04:31:49.95	3.41	24.98	-39.3	-40.1	22.5	0.00e+00	0	43	0	1159725056	49	3860
2026-01-03 04:31:51.10	3.29	25.15	-39.2	-40.1	22.6	0.00e+00	0	43	0	1168113664	49	3831
2026-01-03 04:31:51.96	3.20	25.28	-39.5	-40.4	22.6	0.00e+00	0	43	0	1174405120	49	3967
2026-01-03 04:31:53.10	3.09	25.45	-39.6	-40.5	22.5	0.00e+00	0	43	0	1181745152	49	4026
2026-01-03 04:31:53.97	3.00	25.59	-39.6	-40.4	22.5	0.00e+00	0	43	0	1188036608	49	3993
2026-01-03 04:31:55.11	2.88	25.76	-39.5	-40.3	22.6	0.00e+00	0	43	0	1196425216	49	3931
2026-01-03 04:31:56.06	2.78	25.91	-39.6	-40.4	22.5	0.00e+00	0	43	0	1203765248	49	3982
2026-01-03 04:31:57.26	2.66	26.09	-39.8	-40.6	22.5	0.00e+00	0	43	0	1212153856	49	4070
2026-01-03 04:31:58.15	2.56	26.23	-39.8	-40.7	22.4	0.00e+00	0	43	0	1218445312	49	4104
2026-01-03 04:31:59.29	2.44	26.41	-39.6	-40.4	22.7	0.00e+00	0	43	0	1226833920	49	4001
2026-01-03 04:32:00.15	2.34	26.54	-39.2	-40.0	22.6	0.00e+00	0	43	0	1233125376	49	3804
2026-01-03 04:32:01.52	2.19	26.76	-39.3	-40.1	22.6	4.50e-06	0	43	0	1242562560	49	3846
2026-01-03 04:32:02.24	2.11	26.87	-39.5	-40.3	22.7	0.00e+00	0	43	0	1247805440	49	3933
2026-01-03 04:32:03.75	1.94	27.11	-39.3	-40.2	22.6	0.00e+00	0	44	0	1259339776	49	3875
2026-01-03 04:32:04.47	1.86	27.23	-39.3	-40.1	22.8	0.00e+00	0	43	0	1264582656	49	3850
2026-01-03 04:32:05.76	1.71	27.44	-39.3	-40.2	22.6	0.00e+00	0	43	0	1274019840	49	3878
2026-01-03 04:32:06.48	1.63	27.55	-39.4	-40.2	22.6	0.00e+00	0	43	0	1278214144	49	3894
2026-01-03 04:32:07.77	1.48	27.76	-39.4	-40.2	22.6	0.00e+00	0	43	0	1287651328	49	3913
2026-01-03 04:32:08.48	1.39	27.88	-39.5	-40.3	22.5	0.00e+00	0	43	0	1292894208	49	3940
2026-01-03 04:32:09.77	1.24	28.09	-39.4	-40.2	22.6	0.00e+00	0	43	0	1302331392	49	3910
2026-01-03 04:32:10.49	1.15	28.21	-39.3	-40.2	22.7	0.00e+00	0	43	0	1307574272	49	3876
2026-01-03 04:32:11.77	0.99	28.42	-39.5	-40.3	22.6	0.00e+00	0	43	0	1317011456	49	3936
2026-01-03 04:32:12.51	0.90	28.55	-39.7	-40.5	22.5	0.00e+00	0	43	0	1322254336	49	4031
2026-01-03 04:32:13.80	0.74	28.76	-39.4	-40.2	22.6	0.00e+00	0	43	0	1331691520	49	3907
2026-01-03 04:32:14.59	0.64	28.90	-39.4	-40.2	22.7	0.00e+00	0	43	0	1336934400	49	3894
2026-01-03 04:32:15.74	0.49	29.09	-39.5	-40.4	22.6	0.00e+00	0	43	0	1345323008	49	3979
2026-01-03 04:32:16.81	0.35	29.27	-39.4	-40.3	22.8	0.00e+00	0	43	0	1353711616	49	3920
2026-01-03 04:32:17.86	0.21	29.46	-39.2	-40.0	22.7	0.00e+00	0	44	0	1361051648	49	3815
2026-01-03 04:32:18.75	0.10	29.61	-39.3	-40.2	22.8	0.00e+00	0	43	0	1367343104	49	3877
2026-01-03 04:32:19.89	359.94	29.81	-39.6	-40.4	22.8	0.00e+00	0	43	0	1375731712	49	3974
2026-01-03 04:32:20.75	359.83	29.96	-39.7	-40.5	22.7	0.00e+00	0	43	0	1382023168	49	4032
2026-01-03 04:32:21.89	359.67	30.16	-39.3	-40.1	22.9	0.00e+00	0	43	0	1389363200	49	3834
2026-01-03 04:32:22.75	359.55	30.31	-39.1	-39.9	22.9	0.00e+00	0	43	0	1396703232	48	3970
2026-01-03 04:32:23.90	359.39	30.51	-38.8	-39.7	23.1	0.00e+00	0	43	0	1405091840	48	3870
2026-01-03 04:32:24.76	359.27	30.66	-38.8	-39.6	23.2	0.00e+00	0	43	0	1410334720	48	3867
2026-01-03 04:32:26.03	359.08	30.89	-38.8	-39.6	23.4	0.00e+00	0	43	0	1419771904	48	3828
2026-01-03 04:32:26.76	358.98	31.02	-38.8	-39.6	23.3	0.00e+00	0	43	0	1425014784	48	3850
2026-01-03 04:32:28.25	358.76	31.29	-38.8	-39.6	23.3	0.00e+00	0	43	0	1435500544	48	3862
2026-01-03 04:32:28.96	358.65	31.42	-38.7	-39.5	23.3	0.00e+00	0	43	0	1440743424	48	3822
2026-01-03 04:32:30.25	358.46	31.65	-38.8	-39.6	23.2	0.00e+00	0	43	0	1450180608	48	3857
2026-01-03 04:32:30.98	358.35	31.79	-38.8	-39.6	23.3	0.00e+00	0	43	0	1455423488	48	3860
2026-01-03 04:32:32.27	358.15	32.03	-38.9	-39.7	23.2	0.00e+00	0	43	0	1464860672	48	3909
2026-01-03 04:32:32.98	358.04	32.16	-39.0	-39.8	23.1	0.00e+00	0	43	0	1470103552	48	3934
2026-01-03 04:32:34.27	357.83	32.40	-39.1	-39.9	23.0	0.00e+00	0	43	0	1479540736	48	3979
2026-01-03 04:32:34.99	357.72	32.53	-39.3	-40.1	23.0	0.00e+00	0	43	0	1484783616	48	4076
2026-01-03 04:32:36.28	357.51	32.77	-39.6	-40.5	22.8	0.00e+00	0	43	0	1494220800	48	4243
2026-01-03 04:32:37.00	357.39	32.91	-39.2	-40.0	22.8	1.10e-06	0	43	0	1499463680	48	4024
2026-01-03 04:32:38.28	357.18	33.15	-39.0	-39.9	22.9	0.00e+00	0	43	0	1507852288	48	3971
2026-01-03 04:32:39.13	357.04	33.32	-39.3	-40.1	22.7	0.00e+00	0	43	0	1514143744	48	4075
2026-01-03 04:32:40.61	356.79	33.60	-39.0	-39.9	22.9	0.00e+00	0	43	0	1524629504	48	3968
2026-01-03 04:32:41.33	356.66	33.74	-39.3	-40.1	22.8	0.00e+00	0	43	0	1529872384	48	4082
2026-01-03 04:32:42.61	356.44	33.99	-39.0	-39.8	23.1	0.00e+00	0	43	0	1539309568	48	3937
2026-01-03 04:32:43.33	356.31	34.13	-39.1	-39.9	23.0	0.00e+00	0	43	0	1544552448	48	4000
2026-01-03 04:32:44.62	356.08	34.38	-39.3	-40.1	22.9	0.00e+00	0	43	0	1553989632	48	4083
2026-01-03 04:32:45.34	355.95	34.52	-39.1	-39.9	22.9	0.00e+00	0	44	0	1559232512	48	3974
2026-01-03 04:32:46.63	355.71	34.78	-38.9	-39.7	23.1	0.00e+00	0	43	0	1568669696	48	3903
2026-01-03 04:32:47.34	355.58	34.92	-39.1	-39.9	23.1	0.00e+00	0	43	0	1573912576	48	3993
2026-01-03 04:32:48.64	355.34	35.18	-39.2	-40.1	22.9	0.00e+00	0	44	0	1583349760	48	4066
2026-01-03 04:32:49.49	355.18	35.35	-39.3	-40.1	22.8	0.00e+00	0	43	0	1588592640	48	4090
2026-01-03 04:32:50.64	354.95	35.58	-39.3	-40.1	22.8	0.00e+00	0	43	0	1596981248	48	4078
2026-01-03 04:32:51.70	354.75	35.79	-39.1	-40.0	23.0	0.00e+00	0	43	0	1605369856	48	4022
2026-01-03 04:32:52.74	354.54	36.00	-39.0	-39.8	23.0	0.00e+00	0	43	0	1612709888	48	3949
2026-01-03 04:32:53.74	354.34	36.21	-38.9	-39.7	23.1	0.00e+00	0	43	0	1620049920	48	3899
2026-01-03 04:32:54.95	354.09	36.45	-38.8	-39.7	23.1	0.00e+00	0	43	0	1628438528	48	3877
2026-01-03 04:32:55.84	353.91	36.64	-38.8	-39.7	23.1	0.00e+00	0	43	0	1634729984	48	3869
2026-01-03 04:32:56.98	353.67	36.87	-39.1	-39.9	23.0	0.00e+00	0	43	0	1643118592	48	3997
2026-01-03 04:32:57.84	353.49	37.05	-39.0	-39.9	23.1	0.00e+00	0	43	0	1649410048	48	3960
2026-01-03 04:32:58.98	353.25	37.29	-38.8	-39.6	23.2	0.00e+00	0	43	0	1657798656	48	3847
2026-01-03 04:32:59.84	353.06	37.47	-38.9	-39.7	23.2	0.00e+00	0	43	0	1664090112	48	3884
2026-01-03 04:33:00.99	352.81	37.71	-38.8	-39.7	23.1	0.00e+00	0	43	0	1672478720	48	3871
2026-01-03 04:33:01.85	352.61	37.89	-39.2	-40.0	22.8	0.00e+00	0	43	0	1678770176	48	4043
2026-01-03 04:33:03.00	352.35	38.14	-39.2	-40.1	22.8	0.00e+00	0	43	0	1687158784	48	4062
2026-01-03 04:33:03.86	352.16	38.32	-39.2	-40.0	22.9	0.00e+00	0	43	0	1693450240	48	4047
2026-01-03 04:33:05.00	351.89	38.56	-39.3	-40.1	22.9	0.00e+00	0	43	0	1700790272	48	4078
2026-01-03 04:33:05.86	351.69	38.75	-39.2	-40.1	22.9	0.00e+00	0	44	0	1707081728	48	4066
2026-01-03 04:33:07.01	351.42	39.00	-39.2	-40.1	22.9	0.00e+00	0	44	0	1715470336	48	4065
2026-01-03 04:33:07.87	351.21	39.18	-39.3	-40.2	22.8	0.00e+00	0	43	0	1721761792	48	4121
2026-01-03 04:33:09.02	350.93	39.43	-39.4	-40.3	22.8	0.00e+00	0	44	0	1730150400	48	4154
2026-01-03 04:33:09.88	350.71	39.62	-39.5	-40.3	22.8	0.00e+00	0	44	0	1736441856	48	4179
2026-01-03 04:33:11.02	350.43	39.87	-39.4	-40.3	22.8	0.00e+00	0	44	0	1744830464	48	4160
2026-01-03 04:33:11.88	350.21	40.06	-39.5	-40.3	22.7	0.00e+00	0	44	0	1751121920	48	4174
2026-01-03 04:33:13.03	349.91	40.31	-39.8	-40.6	22.4	0.00e+00	0	43	0	1759510528	49	4092
2026-01-03 04:33:13.89	349.68	40.50	-39.8	-40.6	22.4	0.00e+00	0	44	0	1764753408	49	4091
2026-01-03 04:33:15.03	349.38	40.75	-39.9	-40.7	22.4	0.00e+00	0	43	0	1773142016	49	4132
2026-01-03 04:33:15.89	349.15	40.94	-40.0	-40.9	22.4	0.00e+00	0	43	0	1779433472	49	4199
2026-01-03 04:33:17.03	348.84	41.19	-40.0	-40.9	22.3	0.00e+00	0	44	0	1787822080	49	4200
2026-01-03 04:33:17.89	348.60	41.39	-39.9	-40.8	22.4	0.00e+00	0	43	0	1794113536	49	4175
2026-01-03 04:33:19.04	348.27	41.64	-40.0	-40.8	22.5	0.00e+00	0	43	0	1802502144	49	4179
2026-01-03 04:33:19.90	348.03	41.84	-40.0	-40.8	22.5	0.00e+00	0	43	0	1808793600	49	4175
2026-01-03 04:33:21.04	347.70	42.09	-39.7	-40.5	22.7	0.00e+00	0	43	0	1817182208	49	4046
2026-01-03 04:33:21.91	347.44	42.29	-39.6	-40.4	22.8	0.00e+00	0	43	0	1823473664	49	3981
2026-01-03 04:33:23.05	347.10	42.54	-39.2	-40.0	23.2	0.00e+00	0	44	0	1831862272	49	3800
2026-01-03 04:33:23.91	346.84	42.74	-39.2	-40.0	23.2	0.00e+00	0	43	0	1838153728	48	4026
2026-01-03 04:33:25.06	346.49	43.00	-38.8	-39.6	23.4	0.00e+00	0	43	0	1846542336	48	3862
2026-01-03 04:33:25.91	346.23	43.19	-38.9	-39.7	23.3	0.00e+00	0	43	0	1851785216	48	3891
2026-01-03 04:33:27.06	345.87	43.45	-38.7	-39.5	23.3	0.00e+00	0	43	0	1860173824	48	3812
2026-01-03 04:33:27.92	345.59	43.65	-38.4	-39.2	23.1	0.00e+00	0	43	0	1866465280	47	3882
2026-01-03 04:33:29.07	345.22	43.91	-38.7	-39.5	22.8	0.00e+00	0	43	0	1874853888	47	4044
2026-01-03 04:33:30.26	344.82	44.19	-39.1	-39.9	22.6	0.00e+00	0	44	0	1883242496	47	4223
2026-01-03 04:33:31.31	344.47	44.43	-39.5	-40.3	22.7	0.00e+00	0	43	0	1891631104	48	4190
2026-01-03 04:33:32.40	344.10	44.68	-39.4	-40.2	22.6	0.00e+00	0	44	0	1898971136	48	4142
2026-01-03 04:33:33.26	343.80	44.87	-39.7	-40.5	22.2	0.00e+00	0	43	0	1905262592	48	4282
2026-01-03 04:33:34.41	343.40	45.14	-39.7	-40.6	22.3	0.00e+00	0	43	0	1913651200	49	4084
2026-01-03 04:33:35.27	343.09	45.33	-39.7	-40.6	22.3	0.00e+00	0	43	0	1919942656	49	4087
2026-01-03 04:33:36.41	342.68	45.60	-39.6	-40.5	22.5	0.00e+00	0	43	0	1928331264	49	4012
2026-01-03 04:33:37.27	342.37	45.79	-39.6	-40.4	22.6	0.00e+00	0	43	0	1933574144	49	3996
2026-01-03 04:33:38.42	341.94	46.06	-39.8	-40.7	22.6	0.00e+00	0	43	0	1941962752	49	4100
2026-01-03 04:33:39.28	341.62	46.26	-39.8	-40.7	22.5	0.00e+00	0	43	0	1948254208	49	4115
2026-01-03 04:33:40.43	341.18	46.52	-39.5	-40.3	22.6	2.20e-06	0	43	0	1956642816	49	3950
2026-01-03 04:33:41.28	340.84	46.71	-39.7	-40.5	22.4	0.00e+00	0	43	0	1962934272	49	4036
2026-01-03 04:33:42.43	340.39	46.98	-40.1	-41.0	22.0	0.00e+00	0	43	0	1971322880	49	4243
2026-01-03 04:33:43.29	340.05	47.17	-40.2	-41.0	21.9	0.00e+00	0	43	0	1977614336	49	4291
2026-01-03 04:33:44.44	339.58	47.44	-40.5	-41.4	21.6	0.00e+00	0	43	0	1986002944	50	4217
2026-01-03 04:33:45.30	339.22	47.63	-40.8	-41.7	21.4	0.00e+00	0	43	0	1992294400	51	4135
2026-01-03 04:33:46.45	338.74	47.90	-41.0	-41.9	21.2	0.00e+00	0	43	0	2000683008	51	4205
2026-01-03 04:33:47.31	338.38	48.09	-41.0	-41.9	21.2	0.00e+00	0	43	0	2006974464	51	4207
2026-01-03 04:33:48.61	337.82	48.39	-41.1	-42.1	21.1	0.00e+00	0	43	0	2016411648	51	4294
2026-01-03 04:33:49.33	337.50	48.55	-41.0	-41.9	21.4	0.00e+00	0	43	0	2020605952	52	4001
2026-01-03 04:33:50.62	336.93	48.84	-41.2	-42.2	21.2	0.00e+00	0	43	0	2030043136	52	4105
2026-01-03 04:33:51.33	336.61	49.00	-41.3	-42.2	21.2	0.00e+00	0	43	0	2035286016	52	4120
2026-01-03 04:33:52.62	336.02	49.29	-40.7	-41.6	21.4	0.00e+00	0	43	0	2044723200	51	4086
2026-01-03 04:33:53.34	335.68	49.45	-40.8	-41.7	21.6	0.00e+00	0	43	0	2049966080	51	4133
2026-01-03 04:33:54.63	335.07	49.73	-40.6	-41.5	21.5	0.00e+00	0	43	0	2059403264	51	4043
2026-01-03 04:33:55.34	334.73	49.89	-41.0	-41.9	21.2	0.00e+00	0	43	0	2064646144	51	4207
2026-01-03 04:33:56.63	334.11	50.17	-41.0	-41.9	21.2	0.00e+00	0	44	0	2074083328	51	4221
2026-01-03 04:33:57.35	333.75	50.33	-41.0	-41.9	21.4	5.70e-06	0	43	0	2079326208	52	3983
2026-01-03 04:33:58.64	333.11	50.61	-40.8	-41.7	21.4	0.00e+00	0	43	0	2087714816	51	4108
2026-01-03 04:33:59.35	332.75	50.77	-40.2	-41.0	22.0	0.00e+00	0	43	0	2094006272	51	3810
2026-01-03 04:34:00.76	332.02	51.07	-40.5	-41.3	21.8	0.00e+00	0	44	0	2103443456	51	3951
2026-01-03 04:34:01.48	331.64	51.22	-41.0	-41.9	21.6	0.00e+00	0	43	0	2108686336	51	4210
2026-01-03 04:34:02.77	330.96	51.49	-41.0	-41.9	21.4	0.00e+00	0	43	0	2118123520	52	3981
2026-01-03 04:34:03.49	330.57	51.65	-40.8	-41.7	21.4	0.00e+00	0	43	0	2123366400	52	3872
2026-01-03 04:34:04.78	329.86	51.91	-40.6	-41.5	21.4	0.00e+00	0	43	0	2132803584	52	3810
2026-01-03 04:34:05.49	329.47	52.06	-41.3	-42.2	21.3	0.00e+00	0	44	0	2138046464	52	4107
2026-01-03 04:34:06.78	328.75	52.32	-41.3	-42.2	21.3	0.00e+00	0	44	0	2147483648	52	4105
2026-01-03 04:34:07.50	328.34	52.47	-41.0	-41.9	21.6	0.00e+00	0	43	0	2152726528	52	3979
2026-01-03 04:34:08.79	327.59	52.73	-41.0	-41.9	21.5	0.00e+00	0	43	0	2161115136	52	3965
2026-01-03 04:34:09.51	327.17	52.87	-40.8	-41.6	21.8	0.00e+00	0	43	0	2167406592	52	3856
2026-01-03 04:34:10.80	326.40	53.12	-41.0	-41.8	21.6	0.00e+00	0	43	0	2175795200	52	3955
2026-01-03 04:34:11.67	325.88	53.29	-41.3	-42.1	21.2	0.00e+00	0	43	0	2182086656	52	4097
2026-01-03 04:34:13.13	324.99	53.57	-41.4	-42.3	21.1	0.00e+00	0	43	0	2192572416	52	4184
2026-01-03 04:34:13.85	324.54	53.70	-41.1	-42.0	21.4	0.00e+00	0	43	0	2197815296	52	4032
2026-01-03 04:34:15.14	323.73	53.94	-40.5	-41.3	21.7	0.00e+00	0	43	0	2207252480	51	3953
2026-01-03 04:34:15.86	323.27	54.07	-40.4	-41.3	21.8	2.20e-06	0	43	0	2212495360	51	3952
2026-01-03 04:34:17.15	322.44	54.30	-40.7	-41.6	21.8	0.00e+00	0	44	0	2221932544	51	4053
2026-01-03 04:34:17.93	321.93	54.43	-40.7	-41.5	21.8	0.00e+00	0	44	0	2227175424	51	4048
2026-01-03 04:34:19.22	321.08	54.66	-40.7	-41.5	21.8	3.08e-05	0	43	0	2236612608	51	4041
2026-01-03 04:34:19.93	320.60	54.78	-41.0	-41.9	21.5	0.00e+00	0	43	0	2241855488	51	4198
2026-01-03 04:34:21.22	319.73	54.99	-41.1	-42.0	21.4	0.00e+00	0	43	0	2251292672	51	4262
2026-01-03 04:34:21.94	319.24	55.10	-41.2	-42.1	21.3	0.00e+00	0	44	0	2256535552	52	4097
2026-01-03 04:34:23.23	318.34	55.31	-41.1	-42.0	21.4	0.00e+00	0	43	0	2265972736	51	4264
2026-01-03 04:34:23.94	317.85	55.42	-40.7	-41.6	21.5	0.00e+00	0	43	0	2271215616	51	4068
2026-01-03 04:34:25.23	316.93	55.61	-40.8	-41.7	21.7	0.00e+00	0	43	0	2280652800	51	4114
2026-01-03 04:34:25.95	316.42	55.72	-40.4	-41.3	21.9	0.00e+00	0	43	0	2285895680	51	3932
2026-01-03 04:34:27.33	315.42	55.91	-40.3	-41.2	21.9	0.00e+00	0	43	0	2295332864	51	3902
2026-01-03 04:34:28.05	314.89	56.01	-40.3	-41.1	22.0	0.00e+00	0	43	0	2300575744	51	3864
2026-01-03 04:34:29.34	313.94	56.18	-40.5	-41.4	21.8	0.00e+00	0	43	0	2310012928	51	3976
2026-01-03 04:34:30.05	313.41	56.27	-40.6	-41.6	21.7	0.00e+00	0	43	0	2315255808	51	4052
2026-01-03 04:34:31.34	312.44	56.43	-40.7	-41.6	21.5	0.00e+00	0	43	0	2324692992	51	4080
2026-01-03 04:34:32.06	311.89	56.52	-40.9	-41.8	21.3	1.10e-06	0	43	0	2329935872	51	4177
2026-01-03 04:34:33.35	310.91	56.67	-41.0	-41.9	21.1	0.00e+00	0	43	0	2338324480	51	4233
2026-01-03 04:34:34.09	310.34	56.75	-40.8	-41.7	21.4	0.00e+00	0	43	0	2344615936	51	4131
2026-01-03 04:34:35.38	309.33	56.89	-40.5	-41.4	21.8	0.00e+00	0	43	0	2353004544	51	3975
2026-01-03 04:34:36.16	308.72	56.96	-40.2	-41.0	22.0	0.00e+00	0	43	0	2359296000	51	3823
2026-01-03 04:34:37.78	307.44	57.12	-40.4	-41.3	21.9	0.00e+00	0	43	0	2370830336	51	3930
2026-01-03 04:34:38.35	306.98	57.17	-40.7	-41.6	21.3	0.00e+00	0	43	0	2375024640	51	4074
2026-01-03 04:34:39.92	305.72	57.30	-41.0	-41.8	20.9	0.00e+00	0	43	0	2386558976	51	4189
2026-01-03 04:34:40.50	305.26	57.34	-41.1	-41.9	20.9	0.00e+00	0	43	0	2390753280	51	4237
2026-01-03 04:34:42.07	303.98	57.46	-40.8	-41.7	21.6	0.00e+00	0	44	0	2402287616	51	4119
2026-01-03 04:34:42.78	303.40	57.50	-41.0	-41.9	21.5	0.00e+00	0	44	0	2406481920	51	4195
2026-01-03 04:34:44.07	302.34	57.58	-40.7	-41.6	21.6	0.00e+00	0	43	0	2415919104	51	4052
2026-01-03 04:34:44.98	301.59	57.63	-40.3	-41.1	21.8	0.00e+00	0	44	0	2423259136	51	3868
2026-01-03 04:34:45.98	300.76	57.68	-40.6	-41.5	21.6	0.00e+00	0	44	0	2429550592	50	4270
2026-01-03 04:34:46.98	299.93	57.72	-41.3	-42.3	21.0	0.00e+00	0	43	0	2436890624	52	4152
2026-01-03 04:34:47.98	299.10	57.76	-41.3	-42.2	21.0	0.00e+00	0	43	0	2444230656	52	4129
2026-01-03 04:34:48.98	298.26	57.79	-41.0	-41.9	21.1	0.00e+00	0	43	0	2451570688	52	3990
2026-01-03 04:34:49.99	297.42	57.81	-40.9	-41.8	21.2	0.00e+00	0	44	0	2458910720	52	3956
2026-01-03 04:34:50.99	296.58	57.83	-41.0	-41.9	21.3	0.00e+00	0	43	0	2466250752	52	3974
2026-01-03 04:34:51.99	295.74	57.85	-40.6	-41.4	21.5	0.00e+00	0	43	0	2473590784	51	3995
2026-01-03 04:34:53.00	294.89	57.85	-41.2	-42.1	21.2	0.00e+00	0	43	0	2480930816	52	4059
2026-01-03 04:34:54.00	294.05	57.86	-41.2	-42.2	20.8	0.00e+00	0	43	0	2488270848	52	4128
2026-01-03 04:34:55.00	293.21	57.85	-41.7	-42.6	20.5	0.00e+00	0	43	0	2495610880	52	4332
2026-01-03 04:34:56.01	292.36	57.84	-41.3	-42.3	20.8	0.00e+00	0	43	0	2502950912	52	4160
2026-01-03 04:34:57.01	291.52	57.83	-40.8	-41.7	21.3	0.00e+00	0	43	0	2510290944	52	3879
2026-01-03 04:34:58.01	290.68	57.81	-40.5	-41.4	21.7	0.00e+00	0	44	0	2516582400	51	3983
2026-01-03 04:34:59.01	289.85	57.78	-40.6	-41.5	21.7	0.00e+00	0	43	0	2523922432	51	4010
2026-01-03 04:35:00.01	289.01	57.75	-40.6	-41.5	21.7	0.00e+00	0	43	0	2531262464	51	4016
2026-01-03 04:35:00.99	288.19	57.71	-40.8	-41.7	21.5	0.00e+00	0	43	0	2538602496	51	4119
2026-01-03 04:35:02.00	287.36	57.67	-40.9	-41.8	21.5	0.00e+00	0	43	0	2545942528	51	4188
2026-01-03 04:35:03.00	286.53	57.62	-41.1	-42.0	21.4	0.00e+00	0	43	0	2553282560	51	4253
2026-01-03 04:35:04.00	285.70	57.56	-41.1	-42.0	21.5	0.00e+00	0	43	0	2560622592	51	4247
2026-01-03 04:35:05.00	284.88	57.50	-41.1	-42.0	21.5	0.00e+00	0	43	0	2567962624	51	4285
2026-01-03 04:35:06.00	284.07	57.43	-41.0	-41.8	21.6	0.00e+00	0	43	0	2574254080	51	4188
2026-01-03 04:35:07.00	283.25	57.36	-41.0	-41.9	21.6	0.00e+00	0	43	0	2581594112	51	4207
2026-01-03 04:35:08.00	282.44	57.29	-40.9	-41.8	21.7	0.00e+00	0	43	0	2588934144	51	4156
2026-01-03 04:35:09.01	281.63	57.20	-40.8	-41.6	21.8	0.00e+00	0	43	0	2596274176	51	4096
2026-01-03 04:35:10.01	280.83	57.11	-40.8	-41.7	21.8	0.00e+00	0	43	0	2603614208	51	4120
2026-01-03 04:35:11.02	280.03	57.02	-40.7	-41.5	21.7	0.00e+00	0	43	0	2610954240	51	4045
2026-01-03 04:35:12.02	279.24	56.92	-40.8	-41.7	21.7	0.00e+00	0	43	0	2618294272	51	4125
2026-01-03 04:35:13.02	278.46	56.82	-40.7	-41.5	21.9	0.00e+00	0	43	0	2625634304	51	4046
2026-01-03 04:35:14.02	277.69	56.71	-40.7	-41.6	21.8	0.00e+00	0	43	0	2632974336	51	4080
2026-01-03 04:35:15.03	276.91	56.60	-40.9	-41.7	21.7	0.00e+00	0	43	0	2639265792	51	4145
2026-01-03 04:35:16.03	276.14	56.48	-41.1	-42.0	21.5	0.00e+00	0	43	0	2646605824	51	4256
2026-01-03 04:35:17.03	275.39	56.36	-41.2	-42.1	21.4	0.00e+00	0	43	0	2653945856	51	4307
2026-01-03 04:35:18.03	274.64	56.23	-41.1	-42.0	21.6	0.00e+00	0	43	0	2661285888	51	4253
2026-01-03 04:35:19.04	273.89	56.10	-40.6	-41.5	21.6	6.80e-06	0	43	0	2668625920	51	4018
2026-01-03 04:35:20.04	273.15	55.96	-40.6	-41.5	21.6	1.10e-06	0	44	0	2675965952	51	4009
2026-01-03 04:35:21.05	272.41	55.82	-41.0	-41.9	21.6	0.00e+00	0	44	0	2683305984	51	4198
2026-01-03 04:35:22.05	271.69	55.68	-40.9	-41.8	21.5	0.00e+00	0	43	0	2690646016	51	4181
2026-01-03 04:35:23.05	270.98	55.53	-40.9	-41.8	21.3	0.00e+00	0	43	0	2697986048	51	4172
2026-01-03 04:35:24.05	270.27	55.38	-40.8	-41.7	21.4	0.00e+00	0	43	0	2705326080	51	4135
2026-01-03 04:35:25.06	269.57	55.22	-41.2	-42.1	21.2	5.70e-06	0	43	0	2712666112	51	4307
2026-01-03 04:35:26.06	268.88	55.06	-41.2	-42.1	21.3	0.00e+00	0	43	0	2718957568	52	4059
2026-01-03 04:35:27.06	268.19	54.90	-40.9	-41.8	21.5	0.00e+00	0	44	0	2726297600	52	3937
2026-01-03 04:35:28.06	267.52	54.73	-40.8	-41.6	21.6	0.00e+00	0	44	0	2733637632	52	3857
2026-01-03 04:35:29.06	266.85	54.56	-40.7	-41.6	21.8	0.00e+00	0	44	0	2740977664	51	4074
2026-01-03 04:35:30.07	266.18	54.39	-40.6	-41.5	21.9	0.00e+00	0	43	0	2748317696	51	4014
2026-01-03 04:35:31.07	265.53	54.21	-40.7	-41.6	21.8	0.00e+00	0	43	0	2755657728	51	4063
2026-01-03 04:35:32.08	264.88	54.03	-40.7	-41.5	21.7	0.00e+00	0	43	0	2762997760	51	4049
2026-01-03 04:35:33.17	264.19	53.83	-40.7	-41.6	21.7	0.00e+00	0	43	0	2770337792	51	4062
2026-01-03 04:35:34.06	263.63	53.67	-40.7	-41.6	21.6	4.50e-06	0	43	0	2777677824	51	4076
2026-01-03 04:35:35.21	262.92	53.45	-40.7	-41.6	21.6	0.00e+00	0	44	0	2785017856	51	4052
2026-01-03 04:35:36.07	262.40	53.28	-40.7	-41.6	21.7	0.00e+00	0	43	0	2791309312	51	4071
2026-01-03 04:35:37.44	261.57	53.02	-40.8	-41.7	21.5	0.00e+00	0	44	0	2801795072	51	4102
2026-01-03 04:35:38.15	261.15	52.88	-41.1	-42.0	21.1	0.00e+00	0	44	0	2807037952	51	4257
2026-01-03 04:35:39.44	260.40	52.62	-41.1	-42.1	21.1	0.00e+00	0	43	0	2815426560	52	4062
2026-01-03 04:35:40.16	259.98	52.48	-40.9	-41.8	21.3	0.00e+00	0	43	0	2821718016	52	3925
2026-01-03 04:35:41.80	259.05	52.14	-40.5	-41.4	21.6	0.00e+00	0	43	0	2833252352	51	3973
2026-01-03 04:35:42.37	258.73	52.03	-40.3	-41.1	21.8	0.00e+00	0	43	0	2837446656	51	3853
2026-01-03 04:35:43.95	257.86	51.70	-40.8	-41.7	21.4	0.00e+00	0	43	0	2848980992	51	4123
2026-01-03 04:35:44.52	257.55	51.58	-40.9	-41.8	21.3	0.00e+00	0	43	0	2853175296	51	4160
2026-01-03 04:35:46.14	256.69	51.24	-41.2	-42.1	21.1	0.00e+00	0	44	0	2864709632	51	4337
2026-01-03 04:35:46.82	256.33	51.09	-40.9	-41.8	21.4	0.00e+00	0	44	0	2868903936	52	3934
2026-01-03 04:35:48.26	255.58	50.78	-40.4	-41.2	21.9	0.00e+00	0	44	0	2879389696	51	3904
2026-01-03 04:35:49.07	255.17	50.61	-40.3	-41.1	21.7	0.00e+00	0	44	0	2885681152	51	3863
2026-01-03 04:35:50.54	254.43	50.29	-40.3	-41.2	22.1	0.00e+00	0	44	0	2896166912	51	3891
2026-01-03 04:35:51.25	254.08	50.13	-40.6	-41.4	21.9	0.00e+00	0	44	0	2901409792	51	4003
2026-01-03 04:35:52.75	253.35	49.80	-40.9	-41.8	21.6	0.00e+00	0	43	0	2911895552	51	4171
2026-01-03 04:35:53.47	253.01	49.64	-41.2	-42.1	21.4	0.00e+00	0	44	0	2917138432	51	4298
2026-01-03 04:35:54.75	252.41	49.35	-41.0	-41.9	21.4	0.00e+00	0	44	0	2926575616	51	4215
2026-01-03 04:35:55.47	252.07	49.19	-40.8	-41.7	21.7	1.94e-05	0	43	0	2931818496	51	4116
2026-01-03 04:35:56.76	251.48	48.90	-40.5	-41.4	21.9	0.00e+00	0	43	0	2941255680	51	3974
2026-01-03 04:35:57.48	251.16	48.74	-40.5	-41.3	22.0	0.00e+00	0	44	0	2946498560	51	3946
2026-01-03 04:35:58.77	250.59	48.45	-40.5	-41.3	21.9	0.00e+00	0	43	0	2955935744	51	3949
2026-01-03 04:35:59.48	250.28	48.28	-40.5	-41.4	21.9	0.00e+00	0	44	0	2960130048	51	3981
2026-01-03 04:36:00.77	249.72	47.99	-40.6	-41.4	21.9	0.00e+00	0	44	0	2969567232	51	3989
2026-01-03 04:36:01.48	249.42	47.83	-40.2	-41.1	21.9	0.00e+00	0	43	0	2974810112	51	3844
2026-01-03 04:36:02.77	248.88	47.53	-40.8	-41.7	21.6	0.00e+00	0	44	0	2984247296	51	4117
2026-01-03 04:36:03.62	248.53	47.34	-40.6	-41.5	21.9	0.00e+00	0	44	0	2990538752	51	4016
2026-01-03 04:36:04.76	248.07	47.08	-40.0	-40.8	22.2	0.00e+00	0	44	0	2998927360	50	3958
2026-01-03 04:36:05.62	247.72	46.88	-39.9	-40.8	22.3	0.00e+00	0	43	0	3005218816	50	3937
2026-01-03 04:36:07.12	247.14	46.53	-39.8	-40.6	22.5	0.00e+00	0	44	0	3015704576	50	3852
2026-01-03 04:36:07.84	246.86	46.37	-39.9	-40.8	22.4	0.00e+00	0	44	0	3020947456	50	3925
2026-01-03 04:36:09.13	246.37	46.07	-40.3	-41.2	22.2	0.00e+00	0	44	0	3030384640	50	4118
2026-01-03 04:36:09.84	246.10	45.91	-40.4	-41.3	22.0	0.00e+00	0	43	0	3035627520	50	4156
2026-01-03 04:36:11.13	245.62	45.61	-40.1	-40.9	22.1	8.35e-04	0	44	0	3045064704	50	4003
2026-01-03 04:36:11.85	245.36	45.44	-39.8	-40.6	22.3	0.00e+00	0	44	0	3049259008	50	3865
2026-01-03 04:36:13.14	244.90	45.15	-39.7	-40.6	22.6	0.00e+00	0	44	0	3058696192	49	4062
2026-01-03 04:36:13.85	244.65	44.98	-39.8	-40.6	22.6	0.00e+00	0	43	0	3064987648	49	4081
2026-01-03 04:36:15.14	244.20	44.69	-39.7	-40.6	22.7	0.00e+00	0	43	0	3073376256	49	4052
2026-01-03 04:36:16.00	243.90	44.49	-39.8	-40.7	22.6	0.00e+00	0	44	0	3079667712	49	4107
2026-01-03 04:36:17.15	243.51	44.22	-39.9	-40.8	22.5	0.00e+00	0	43	0	3088056320	49	4150
2026-01-03 04:36:18.01	243.23	44.03	-39.6	-40.5	22.8	0.00e+00	0	44	0	3094347776	49	4012
2026-01-03 04:36:19.15	242.85	43.76	-39.5	-40.3	22.9	0.00e+00	0	43	0	3102736384	49	3930
2026-01-03 04:36:20.01	242.57	43.57	-39.3	-40.1	23.0	3.40e-06	0	44	0	3109027840	48	4075
2026-01-03 04:36:21.15	242.21	43.31	-39.3	-40.1	22.8	0.00e+00	0	44	0	3117416448	48	4068
2026-01-03 04:36:22.02	241.93	43.11	-39.1	-40.0	22.9	0.00e+00	0	44	0	3123707904	48	4011
2026-01-03 04:36:23.17	241.58	42.84	-39.5	-40.3	22.8	0.00e+00	0	44	0	3132096512	48	4188
2026-01-03 04:36:24.02	241.32	42.65	-39.4	-40.2	22.6	0.00e+00	0	44	0	3137339392	48	4130
2026-01-03 04:36:25.17	240.97	42.39	-39.8	-40.7	22.5	0.00e+00	0	44	0	3145728000	49	4118
2026-01-03 04:36:26.03	240.72	42.20	-39.9	-40.8	22.3	0.00e+00	0	43	0	3152019456	49	4147
2026-01-03 04:36:27.18	240.38	41.94	-39.5	-40.4	22.5	0.00e+00	0	44	0	3160408064	49	3972
2026-01-03 04:36:28.11	240.11	41.73	-39.8	-40.6	22.6	0.00e+00	0	43	0	3167748096	49	4066
2026-01-03 04:36:29.29	239.77	41.46	-39.7	-40.6	22.6	0.00e+00	0	43	0	3176136704	49	4057
2026-01-03 04:36:30.15	239.53	41.27	-39.6	-40.4	22.8	0.00e+00	0	43	0	3182428160	49	3987
2026-01-03 04:36:31.29	239.22	41.01	-39.7	-40.6	21.7	0.00e+00	0	44	0	3189768192	49	4067
2026-01-03 04:36:32.15	238.98	40.82	-39.7	-40.6	22.6	0.00e+00	0	43	0	3197108224	49	4060
2026-01-03 04:36:33.30	238.67	40.56	-39.8	-40.6	22.4	0.00e+00	0	44	0	3204448256	49	4079
2026-01-03 04:36:34.16	238.45	40.37	-39.7	-40.5	22.4	0.00e+00	0	43	0	3210739712	49	4036
2026-01-03 04:36:35.31	238.14	40.12	-39.8	-40.6	22.4	1.10e-06	0	43	0	3219128320	49	4082
2026-01-03 04:36:36.17	237.92	39.93	-39.6	-40.4	22.7	0.00e+00	0	43	0	3225419776	49	4002
2026-01-03 04:36:37.31	237.63	39.68	-39.6	-40.4	22.7	0.00e+00	0	44	0	3233808384	49	3989
2026-01-03 04:36:38.17	237.42	39.49	-39.7	-40.5	22.5	0.00e+00	0	43	0	3240099840	49	4042
2026-01-03 04:36:39.31	237.13	39.24	-39.4	-40.2	22.6	0.00e+00	0	43	0	3248488448	49	3904
2026-01-03 04:36:40.17	236.92	39.06	-39.5	-40.4	22.5	0.00e+00	0	44	0	3254779904	49	3963
2026-01-03 04:36:41.35	236.64	38.80	-39.5	-40.4	22.6	0.00e+00	0	44	0	3263168512	49	3972
2026-01-03 04:36:42.21	236.44	38.61	-39.2	-40.0	22.8	0.00e+00	0	43	0	3269459968	49	3822
2026-01-03 04:36:43.35	236.17	38.37	-39.2	-40.0	23.0	0.00e+00	0	44	0	3277848576	49	3802
2026-01-03 04:36:44.21	235.97	38.19	-39.1	-39.9	23.2	0.00e+00	0	43	0	3283091456	48	3976
2026-01-03 04:36:45.36	235.71	37.94	-39.0	-39.8	23.1	0.00e+00	0	43	0	3291480064	48	3953
2026-01-03 04:36:46.22	235.51	37.76	-38.8	-39.6	23.1	0.00e+00	0	44	0	3297771520	48	3832
2026-01-03 04:36:47.36	235.26	37.52	-39.0	-39.8	23.1	0.00e+00	0	43	0	3306160128	48	3938
2026-01-03 04:36:48.22	235.07	37.33	-39.2	-40.0	23.0	0.00e+00	0	44	0	3312451584	48	4048
2026-01-03 04:36:49.36	234.82	37.09	-39.0	-39.9	22.9	0.00e+00	0	44	0	3320840192	48	3977
2026-01-03 04:36:50.22	234.64	36.92	-39.2	-40.0	22.7	0.00e+00	0	44	0	3327131648	48	4051
2026-01-03 04:36:51.37	234.40	36.68	-39.4	-40.3	22.8	0.00e+00	0	43	0	3335520256	48	4162
2026-01-03 04:36:52.22	234.22	36.50	-39.3	-40.2	22.8	0.00e+00	0	43	0	3341811712	48	4107
2026-01-03 04:36:53.37	233.98	36.26	-39.4	-40.2	22.8	0.00e+00	0	44	0	3349151744	48	4124
2026-01-03 04:36:54.23	233.81	36.08	-39.4	-40.3	22.7	0.00e+00	0	44	0	3355443200	48	4151
2026-01-03 04:36:55.37	233.58	35.85	-39.0	-39.9	22.9	0.00e+00	0	44	0	3363831808	48	3978
2026-01-03 04:36:56.23	233.41	35.68	-39.4	-40.2	22.9	0.00e+00	0	43	0	3370123264	48	4140
2026-01-03 04:36:57.37	233.18	35.44	-39.5	-40.3	22.8	0.00e+00	0	44	0	3378511872	48	4181
2026-01-03 04:36:58.23	233.02	35.27	-39.3	-40.2	22.8	0.00e+00	0	43	0	3384803328	48	4113
2026-01-03 04:36:59.38	232.80	35.04	-39.0	-39.9	22.9	0.00e+00	0	44	0	3393191936	48	3959
2026-01-03 04:37:00.24	232.64	34.87	-38.9	-39.7	23.0	0.00e+00	0	43	0	3399483392	48	3900
2026-01-03 04:37:01.54	232.39	34.61	-39.1	-40.0	23.1	0.00e+00	0	43	0	3408920576	48	4016
2026-01-03 04:37:02.26	232.26	34.47	-39.2	-40.1	23.1	0.00e+00	0	43	0	3414163456	48	4059
2026-01-03 04:37:03.78	231.99	34.17	-39.0	-39.9	23.2	0.00e+00	0	43	0	3424649216	48	3964
2026-01-03 04:37:04.50	231.86	34.03	-39.0	-39.8	23.3	0.00e+00	0	43	0	3429892096	48	3948
2026-01-03 04:37:05.85	231.62	33.76	-38.8	-39.6	23.2	0.00e+00	0	43	0	3440377856	48	3866
2026-01-03 04:37:06.57	231.49	33.62	-39.0	-39.8	23.2	0.00e+00	0	43	0	3444572160	48	3958
2026-01-03 04:37:07.86	231.27	33.37	-39.1	-39.9	23.1	0.00e+00	0	43	0	3454009344	48	3985
2026-01-03 04:37:08.58	231.15	33.23	-39.1	-39.9	23.1	0.00e+00	0	44	0	3459252224	48	3983
2026-01-03 04:37:09.86	230.94	32.99	-39.2	-40.0	23.1	0.00e+00	0	44	0	3468689408	48	4048
2026-01-03 04:37:10.58	230.82	32.85	-39.1	-40.0	23.1	0.00e+00	0	43	0	3473932288	48	4013
2026-01-03 04:37:11.87	230.60	32.61	-39.3	-40.1	23.0	0.00e+00	0	44	0	3483369472	48	4068
2026-01-03 04:37:12.58	230.49	32.47	-39.2	-40.0	23.1	0.00e+00	0	44	0	3488612352	48	4038
2026-01-03 04:37:13.88	230.28	32.23	-38.9	-39.7	23.1	0.00e+00	0	43	0	3498049536	48	3887
2026-01-03 04:37:14.62	230.16	32.09	-39.0	-39.8	23.1	0.00e+00	0	43	0	3503292416	48	3951
2026-01-03 04:37:15.91	229.96	31.85	-39.2	-40.0	23.0	0.00e+00	0	44	0	3512729600	48	4020
2026-01-03 04:37:16.62	229.85	31.72	-39.3	-40.2	23.0	0.00e+00	0	44	0	3517972480	48	4101
2026-01-03 04:37:18.28	229.60	31.41	-39.0	-39.8	23.1	0.00e+00	0	43	0	3529506816	48	3938
2026-01-03 04:37:18.85	229.51	31.31	-38.9	-39.7	23.1	0.00e+00	0	43	0	3533701120	48	3888
2026-01-03 04:37:20.44	229.28	31.02	-38.8	-39.6	23.3	0.00e+00	0	43	0	3545235456	48	3861
2026-01-03 04:37:21.02	229.19	30.92	-39.0	-39.8	23.3	0.00e+00	0	44	0	3549429760	48	3922
2026-01-03 04:37:22.62	228.96	30.63	-39.1	-39.9	23.2	0.00e+00	0	44	0	3560964096	48	3980
2026-01-03 04:37:23.33	228.86	30.50	-39.0	-39.9	23.1	0.00e+00	0	44	0	3566206976	48	3961
2026-01-03 04:37:24.64	228.67	30.27	-38.8	-39.6	23.2	0.00e+00	0	44	0	3575644160	48	3868
2026-01-03 04:37:25.36	228.57	30.14	-38.8	-39.6	23.1	0.00e+00	0	43	0	3580887040	48	3868
2026-01-03 04:37:26.65	228.39	29.91	-39.1	-39.9	23.0	0.00e+00	0	43	0	3590324224	48	3978
2026-01-03 04:37:27.60	228.26	29.75	-39.3	-40.2	22.8	0.00e+00	0	44	0	3596615680	48	4117
2026-01-03 04:37:28.60	228.13	29.57	-39.2	-40.1	22.9	0.00e+00	0	44	0	3603955712	48	4069
2026-01-03 04:37:29.96	227.94	29.34	-39.0	-39.8	23.0	0.00e+00	0	44	0	3613392896	48	3928
2026-01-03 04:37:30.70	227.85	29.21	-39.0	-39.8	22.9	0.00e+00	0	43	0	3619684352	48	3939
2026-01-03 04:37:31.99	227.68	28.99	-39.1	-39.9	23.0	0.00e+00	0	44	0	3628072960	48	3976
2026-01-03 04:37:32.71	227.58	28.86	-39.0	-39.8	23.0	0.00e+00	0	44	0	3633315840	48	3944
2026-01-03 04:37:33.99	227.42	28.65	-39.0	-39.8	22.9	0.00e+00	0	44	0	3642753024	48	3941
2026-01-03 04:37:34.71	227.33	28.53	-39.2	-40.0	22.9	0.00e+00	0	43	0	3647995904	48	4038
2026-01-03 04:37:36.00	227.17	28.31	-39.1	-39.9	22.8	0.00e+00	0	43	0	3657433088	48	3979
2026-01-03 04:37:36.71	227.08	28.19	-39.1	-39.9	22.8	0.00e+00	0	44	0	3662675968	48	3977
2026-01-03 04:37:38.01	226.92	27.97	-39.5	-40.4	22.7	0.00e+00	0	43	0	3672113152	48	4207
2026-01-03 04:37:38.72	226.83	27.86	-39.8	-40.6	22.6	0.00e+00	0	44	0	3677356032	48	4310
2026-01-03 04:37:40.01	226.68	27.64	-39.6	-40.5	22.6	0.00e+00	0	43	0	3686793216	48	4257
2026-01-03 04:37:40.73	226.59	27.53	-39.6	-40.4	22.6	0.00e+00	0	43	0	3690987520	48	4229
2026-01-03 04:37:42.02	226.44	27.32	-39.4	-40.2	22.7	0.00e+00	0	44	0	3700424704	48	4138
2026-01-03 04:37:42.74	226.36	27.20	-39.5	-40.3	22.5	0.00e+00	0	43	0	3705667584	48	4181
2026-01-03 04:37:44.02	226.21	26.99	-39.5	-40.3	22.5	0.00e+00	0	43	0	3715104768	48	4180
2026-01-03 04:37:44.74	226.13	26.88	-39.7	-40.5	22.6	0.00e+00	0	44	0	3720347648	48	4260
2026-01-03 04:37:46.03	225.98	26.67	-39.7	-40.5	22.5	0.00e+00	0	44	0	3729784832	48	4273
2026-01-03 04:37:46.75	225.90	26.56	-39.4	-40.2	22.6	0.00e+00	0	44	0	3735027712	48	4138
2026-01-03 04:37:48.04	225.76	26.35	-39.5	-40.4	22.4	0.00e+00	0	43	0	3744464896	48	4199
2026-01-03 04:37:48.75	225.68	26.24	-39.6	-40.5	22.4	0.00e+00	0	43	0	3749707776	48	4264
2026-01-03 04:37:50.05	225.54	26.04	-39.8	-40.6	22.3	0.00e+00	0	43	0	3759144960	49	4089
2026-01-03 04:37:50.77	225.47	25.93	-39.7	-40.5	22.3	0.00e+00	0	44	0	3764387840	49	4047
2026-01-03 04:37:52.14	225.32	25.72	-39.8	-40.7	22.3	0.00e+00	0	43	0	3773825024	49	4114
2026-01-03 04:37:52.85	225.25	25.61	-39.9	-40.8	22.2	0.00e+00	0	43	0	3779067904	49	4157
2026-01-03 04:37:54.14	225.11	25.41	-40.0	-40.9	22.0	0.00e+00	0	44	0	3788505088	49	4219
2026-01-03 04:37:54.86	225.04	25.30	-39.9	-40.8	22.1	0.00e+00	0	43	0	3793747968	49	4166
2026-01-03 04:37:56.27	224.90	25.08	-39.4	-40.3	22.5	0.00e+00	0	43	0	3803185152	49	3925
2026-01-03 04:37:56.99	224.82	24.98	-39.7	-40.5	22.6	0.00e+00	0	44	0	3808428032	49	4050
2026-01-03 04:37:58.27	224.70	24.78	-39.8	-40.7	22.5	0.00e+00	0	44	0	3817865216	49	4115
2026-01-03 04:37:58.99	224.62	24.68	-39.8	-40.6	22.5	0.00e+00	0	44	0	3823108096	49	4084
2026-01-03 04:38:00.28	224.50	24.49	-39.7	-40.6	22.6	0.00e+00	0	44	0	3832545280	49	4065
2026-01-03 04:38:00.99	224.43	24.38	-39.5	-40.3	22.7	0.00e+00	0	44	0	3837788160	49	3949
2026-01-03 04:38:02.28	224.31	24.19	-39.6	-40.4	22.4	0.00e+00	0	44	0	3847225344	49	3999
2026-01-03 04:38:03.00	224.24	24.09	-39.5	-40.3	22.5	0.00e+00	0	44	0	3852468224	49	3937
2026-01-03 04:38:04.28	224.12	23.90	-39.2	-40.0	22.7	0.00e+00	0	44	0	3861905408	49	3824
2026-01-03 04:38:05.00	224.05	23.80	-39.2	-40.0	22.9	0.00e+00	0	44	0	3867148288	49	3803
2026-01-03 04:38:06.29	223.93	23.61	-39.4	-40.2	22.8	0.00e+00	0	44	0	3875536896	49	3904
2026-01-03 04:38:07.01	223.86	23.51	-39.2	-40.0	22.8	0.00e+00	0	43	0	3880779776	48	4018
2026-01-03 04:38:08.30	223.75	23.32	-39.4	-40.2	22.6	0.00e+00	0	44	0	3890216960	48	4132
2026-01-03 04:38:09.01	223.68	23.22	-39.4	-40.2	22.6	0.00e+00	0	44	0	3895459840	48	4144
2026-01-03 04:38:10.30	223.57	23.04	-39.5	-40.3	22.5	0.00e+00	0	44	0	3904897024	48	4181
2026-01-03 04:38:11.02	223.51	22.94	-39.4	-40.3	22.5	0.00e+00	0	44	0	3910139904	48	4150
2026-01-03 04:38:12.31	223.39	22.76	-39.6	-40.4	22.4	0.00e+00	0	43	0	3919577088	48	4233
2026-01-03 04:38:13.02	223.33	22.66	-39.8	-40.6	22.4	0.00e+00	0	44	0	3924819968	48	4327
2026-01-03 04:38:14.31	223.22	22.48	-39.7	-40.5	22.2	0.00e+00	0	44	0	3934257152	49	4038
2026-01-03 04:38:15.02	223.16	22.38	-39.6	-40.4	22.3	0.00e+00	0	43	0	3939500032	49	3983
2026-01-03 04:38:16.31	223.05	22.21	-40.1	-40.9	22.2	0.00e+00	0	44	0	3948937216	49	4229
2026-01-03 04:38:17.03	222.99	22.11	-40.1	-41.0	22.2	0.00e+00	0	44	0	3953131520	49	4246
2026-01-03 04:38:18.32	222.88	21.93	-40.2	-41.1	22.1	0.00e+00	0	44	0	3962568704	49	4294
2026-01-03 04:38:19.06	222.82	21.83	-40.2	-41.1	22.1	0.00e+00	0	44	0	3967811584	49	4307
2026-01-03 04:38:20.34	222.72	21.66	-40.2	-41.1	22.0	0.00e+00	0	44	0	3977248768	49	4303
2026-01-03 04:38:21.19	222.65	21.55	-39.9	-40.7	22.1	0.00e+00	0	44	0	3983540224	49	4130
2026-01-03 04:38:22.65	222.54	21.35	-40.0	-40.8	22.0	0.00e+00	0	43	0	3994025984	49	4192
2026-01-03 04:38:23.36	222.48	21.26	-39.8	-40.7	22.0	0.00e+00	0	43	0	3999268864	49	4109
2026-01-03 04:38:24.65	222.38	21.09	-40.1	-40.9	22.0	0.00e+00	0	44	0	4008706048	49	4228
2026-01-03 04:38:25.36	222.32	20.99	-40.2	-41.1	22.0	0.00e+00	0	44	0	4013948928	49	4319
2026-01-03 04:38:26.65	222.22	20.83	-40.3	-41.1	22.0	0.00e+00	0	43	0	4023386112	50	4089
2026-01-03 04:38:27.36	222.17	20.73	-40.3	-41.2	22.0	0.00e+00	0	44	0	4028628992	50	4117
2026-01-03 04:38:28.65	222.07	20.57	-40.3	-41.2	21.9	0.00e+00	0	44	0	4038066176	50	4119
2026-01-03 04:38:29.36	222.02	20.48	-40.3	-41.2	22.0	0.00e+00	0	44	0	4042260480	50	4114
2026-01-03 04:38:30.65	221.92	20.31	-40.3	-41.1	22.0	0.00e+00	0	44	0	4051697664	50	4096
2026-01-03 04:38:31.36	221.87	20.22	-40.3	-41.1	21.9	0.00e+00	0	44	0	4056940544	50	4094
2026-01-03 04:38:32.65	221.78	20.06	-39.9	-40.7	22.0	0.00e+00	0	44	0	4066377728	50	3906
2026-01-03 04:38:33.61	221.71	19.94	-39.9	-40.8	22.0	0.00e+00	0	44	0	4073717760	50	3928
2026-01-03 04:38:34.61	221.64	19.81	-40.2	-41.1	21.9	0.00e+00	0	44	0	4080009216	50	4062
2026-01-03 04:38:35.61	221.57	19.69	-40.3	-41.3	21.8	0.00e+00	0	44	0	4087349248	50	4152
2026-01-03 04:38:36.61	221.50	19.56	-40.6	-41.5	21.7	0.00e+00	0	44	0	4094689280	50	4263
2026-01-03 04:38:37.61	221.43	19.44	-40.5	-41.4	21.8	0.00e+00	0	44	0	4102029312	50	4211
2026-01-03 04:38:38.62	221.36	19.31	-40.5	-41.4	21.8	0.00e+00	0	44	0	4109369344	50	4222
2026-01-03 04:38:39.62	221.29	19.19	-40.3	-41.2	21.7	1.71e-05	0	44	0	4116709376	50	4104
2026-01-03 04:38:40.61	221.22	19.07	-40.5	-41.4	21.7	0.00e+00	0	44	0	4124049408	50	4194
2026-01-03 04:38:41.62	221.15	18.95	-40.3	-41.2	21.6	0.00e+00	0	44	0	4131389440	50	4107
2026-01-03 04:38:42.68	221.08	18.82	-40.2	-41.1	21.6	0.00e+00	0	44	0	4138729472	50	4090
2026-01-03 04:38:43.54	221.02	18.71	-40.4	-41.2	21.6	0.00e+00	0	44	0	4145020928	50	4141
2026-01-03 04:38:44.69	220.95	18.58	-40.7	-41.5	21.5	0.00e+00	0	43	0	4153409536	50	4289
2026-01-03 04:38:45.55	220.89	18.47	-40.8	-41.6	21.5	0.00e+00	0	43	0	4159700992	50	4339
2026-01-03 04:38:46.69	220.82	18.34	-40.8	-41.7	21.4	0.00e+00	0	44	0	4167041024	51	4123
2026-01-03 04:38:47.76	220.75	18.21	-40.8	-41.7	21.4	0.00e+00	0	44	0	4175429632	51	4124
2026-01-03 04:38:48.62	220.69	18.11	-40.9	-41.8	21.4	0.00e+00	0	44	0	4181721088	51	4156
2026-01-03 04:38:49.77	220.62	17.98	-41.0	-41.9	21.2	0.00e+00	0	44	0	4190109696	51	4205
2026-01-03 04:38:50.63	220.57	17.88	-40.9	-41.8	21.2	0.00e+00	0	43	0	4196401152	51	4174
2026-01-03 04:38:51.77	220.50	17.74	-40.7	-41.6	21.2	0.00e+00	0	44	0	4204789760	51	4086
2026-01-03 04:38:52.63	220.44	17.64	-40.9	-41.8	21.1	0.00e+00	0	43	0	4210032640	51	4154
2026-01-03 04:38:53.77	220.37	17.51	-40.8	-41.8	21.0	0.00e+00	0	44	0	4218421248	51	4155
2026-01-03 04:38:54.63	220.32	17.41	-40.9	-41.8	21.1	0.00e+00	0	44	0	4224712704	51	4178
2026-01-03 04:38:55.92	220.24	17.27	-41.2	-42.1	21.1	0.00e+00	0	44	0	4234149888	52	4097
2026-01-03 04:38:56.63	220.20	17.19	-41.3	-42.3	20.8	0.00e+00	0	44	0	4239392768	52	4166
2026-01-03 04:38:57.92	220.12	17.04	-41.3	-42.2	20.9	0.00e+00	0	43	0	4248829952	52	4130
2026-01-03 04:38:58.64	220.08	16.96	-41.3	-42.3	20.9	0.00e+00	0	44	0	4254072832	52	4150
2026-01-03 04:38:59.93	220.01	16.81	-41.0	-41.9	20.8	2.20e-06	0	44	0	4263510016	52	3983
2026-01-03 04:39:00.65	219.97	16.73	-41.2	-42.2	20.8	0.00e+00	0	44	0	4268752896	52	4101
2026-01-03 04:39:02.29	219.87	16.55	-41.3	-42.3	20.8	0.00e+00	0	44	0	4280287232	52	4161
2026-01-03 04:39:02.86	219.84	16.49	-41.4	-42.4	20.6	0.00e+00	0	43	0	4284481536	52	4200
2026-01-03 04:39:04.43	219.75	16.32	-41.5	-42.5	20.6	0.00e+00	0	44	0	4296015872	52	4245
2026-01-03 04:39:05.04	219.72	16.25	-41.4	-42.3	20.7	0.00e+00	0	44	0	4300210176	52	4179
2026-01-03 04:39:06.61	219.63	16.08	-41.3	-42.2	20.8	0.00e+00	0	43	0	4311744512	52	4128
2026-01-03 04:39:07.36	219.59	16.00	-41.3	-42.2	20.8	0.00e+00	0	44	0	4316987392	52	4119
2026-01-03 04:39:08.64	219.52	15.86	-41.0	-41.9	20.8	0.00e+00	0	43	0	4326424576	52	3994
2026-01-03 04:39:09.36	219.48	15.78	-41.1	-42.0	20.6	0.00e+00	0	43	0	4331667456	52	4045
2026-01-03 04:39:10.65	219.41	15.64	-41.1	-42.0	20.7	0.00e+00	0	43	0	4341104640	52	4018
2026-01-03 04:39:11.60	219.36	15.54	-41.4	-42.3	20.8	0.00e+00	0	44	0	4347396096	52	4163
2026-01-03 04:39:12.95	219.29	15.40	-41.5	-42.4	20.7	0.00e+00	0	43	0	4357881856	52	4225
2026-01-03 04:39:13.70	219.25	15.32	-41.4	-42.3	20.8	0.00e+00	0	44	0	4363124736	52	4188
2026-01-03 04:39:15.31	219.16	15.15	-41.4	-42.4	20.6	0.00e+00	0	44	0	4374659072	52	4203
2026-01-03 04:39:15.88	219.13	15.09	-41.5	-42.4	20.7	0.00e+00	0	44	0	4377804800	52	4210
2026-01-03 04:39:17.55	219.05	14.91	-41.4	-42.4	20.6	0.00e+00	0	44	0	4390387712	52	4209
2026-01-03 04:39:18.12	219.02	14.85	-41.5	-42.5	20.5	0.00e+00	0	44	0	4394582016	52	4248
2026-01-03 04:39:19.82	218.93	14.68	-41.3	-42.3	20.4	1.48e-05	0	44	0	4407164928	52	4173
2026-01-03 04:39:20.40	218.91	14.62	-41.3	-42.3	20.5	3.40e-06	0	44	0	4411359232	52	4151
2026-01-03 04:39:21.99	218.83	14.46	-41.3	-42.3	20.5	0.00e+00	0	43	0	4421844992	52	4158
2026-01-03 04:39:22.56	218.80	14.40	-41.2	-42.1	20.5	0.00e+00	0	43	0	4427087872	52	4091
2026-01-03 04:39:24.15	218.72	14.24	-41.6	-42.5	20.4	0.00e+00	0	44	0	4438622208	52	4278
2026-01-03 04:39:24.73	218.69	14.18	-41.7	-42.7	20.3	0.00e+00	0	44	0	4441767936	52	4342
2026-01-03 04:39:26.43	218.61	14.01	-41.5	-42.5	20.3	0.00e+00	0	44	0	4454350848	53	4011
2026-01-03 04:39:27.00	218.58	13.95	-41.3	-42.3	20.3	0.00e+00	0	44	0	4458545152	53	3942
2026-01-03 04:39:28.61	218.51	13.79	-41.7	-42.7	20.2	0.00e+00	0	43	0	4470079488	53	4117
2026-01-03 04:39:29.18	218.48	13.73	-41.7	-42.7	20.2	0.00e+00	0	43	0	4474273792	53	4120
2026-01-03 04:39:31.05	218.39	13.55	-41.5	-42.5	20.1	0.00e+00	0	43	0	4487905280	53	4018
2026-01-03 04:39:31.63	218.37	13.49	-41.6	-42.5	20.1	0.00e+00	0	43	0	4492099584	53	4050
2026-01-03 04:39:33.22	218.29	13.34	-42.1	-43.0	20.1	0.00e+00	0	44	0	4503633920	53	4290
2026-01-03 04:39:33.80	218.27	13.28	-42.0	-43.0	20.0	0.00e+00	0	44	0	4507828224	53	4272
2026-01-03 04:39:35.38	218.20	13.13	-42.2	-43.2	19.9	0.00e+00	0	44	0	4519362560	53	4346
2026-01-03 04:39:35.97	218.17	13.07	-42.1	-43.1	19.9	0.00e+00	0	43	0	4523556864	53	4298
2026-01-03 04:39:37.54	218.10	12.92	-41.7	-42.7	20.0	0.00e+00	0	43	0	4534042624	53	4099
2026-01-03 04:39:38.16	218.07	12.86	-41.8	-42.8	19.9	0.00e+00	0	44	0	4539285504	53	4177
2026-01-03 04:39:39.74	218.00	12.71	-41.9	-42.9	19.8	0.00e+00	0	44	0	4550819840	53	4235
2026-01-03 04:39:40.35	217.98	12.65	-41.9	-42.9	19.9	0.00e+00	0	44	0	4555014144	53	4232
2026-01-03 04:39:41.96	217.91	12.50	-42.2	-43.2	19.8	0.00e+00	0	44	0	4566548480	54	4142
2026-01-03 04:39:42.53	217.88	12.44	-42.2	-43.2	19.8	0.00e+00	0	44	0	4570742784	54	4130
2026-01-03 04:39:44.15	217.82	12.29	-42.0	-43.0	19.7	0.00e+00	0	44	0	4582277120	54	4025
2026-01-03 04:39:44.73	217.79	12.23	-42.0	-43.1	19.7	0.00e+00	0	44	0	4586471424	54	4053
2026-01-03 04:39:46.30	217.73	12.09	-42.0	-43.0	19.6	4.00e-05	0	44	0	4598005760	54	4043
2026-01-03 04:39:46.92	217.70	12.03	-42.1	-43.1	19.5	3.40e-06	0	44	0	4602200064	54	4063
2026-01-03 04:39:48.49	217.64	11.89	-42.3	-43.3	19.4	0.00e+00	0	44	0	4613734400	54	4173
2026-01-03 04:39:49.08	217.61	11.83	-42.4	-43.4	19.3	1.10e-06	0	44	0	4617928704	54	4220
2026-01-03 04:39:50.77	217.54	11.68	-42.3	-43.3	19.3	0.00e+00	0	44	0	4630511616	54	4189
2026-01-03 04:39:51.34	217.52	11.62	-42.2	-43.3	19.4	0.00e+00	0	44	0	4634705920	54	4151
2026-01-03 04:39:52.97	217.45	11.48	-42.2	-43.2	19.3	0.00e+00	0	44	0	4646240256	54	4136
2026-01-03 04:39:53.54	217.43	11.42	-42.2	-43.2	19.3	0.00e+00	0	43	0	4650434560	54	4137
2026-01-03 04:39:55.15	217.37	11.28	-42.5	-43.6	19.4	0.00e+00	0	44	0	4661968896	54	4305
2026-01-03 04:39:56.04	217.33	11.20	-42.4	-43.5	19.4	0.00e+00	0	44	0	4668260352	54	4253
2026-01-03 04:39:57.18	217.29	11.10	-42.5	-43.5	19.3	0.00e+00	0	44	0	4676648960	54	4262
2026-01-03 04:39:58.42	217.24	10.99	-42.4	-43.5	19.1	0.00e+00	0	44	0	4685037568	54	4257
2026-01-03 04:39:59.27	217.21	10.91	-42.7	-43.8	19.0	0.00e+00	0	44	0	4691329024	54	4406
2026-01-03 04:40:00.42	217.16	10.81	-42.9	-43.9	19.1	0.00e+00	0	44	0	4699717632	55	4227
2026-01-03 04:40:01.27	217.13	10.73	-42.7	-43.7	19.0	0.00e+00	0	44	0	4706009088	55	4137
2026-01-03 04:40:02.42	217.09	10.63	-42.7	-43.8	18.9	0.00e+00	0	44	0	4714397696	55	4154
2026-01-03 04:40:03.27	217.06	10.56	-42.7	-43.8	18.9	0.00e+00	0	44	0	4720689152	55	4162
2026-01-03 04:40:04.41	217.02	10.46	-42.8	-43.9	18.8	0.00e+00	0	44	0	4729077760	55	4226
2026-01-03 04:40:05.27	216.98	10.38	-42.8	-43.9	18.8	0.00e+00	0	44	0	4735369216	55	4229
2026-01-03 04:40:06.41	216.94	10.28	-42.7	-43.8	18.9	0.00e+00	0	44	0	4742709248	55	4176
2026-01-03 04:40:07.27	216.91	10.21	-42.9	-44.0	18.9	1.02e-05	0	44	0	4749000704	55	4267
2026-01-03 04:40:08.57	216.86	10.10	-43.0	-44.1	18.7	0.00e+00	0	44	0	4758437888	55	4313
2026-01-03 04:40:09.28	216.84	10.04	-42.8	-43.9	18.7	0.00e+00	0	44	0	4763680768	55	4231
2026-01-03 04:40:10.57	216.79	9.92	-42.7	-43.8	18.7	0.00e+00	0	44	0	4773117952	55	4182
2026-01-03 04:40:11.29	216.77	9.86	-42.7	-43.8	18.8	0.00e+00	0	44	0	4778360832	55	4180
2026-01-03 04:40:12.58	216.72	9.75	-42.8	-43.9	18.7	0.00e+00	0	44	0	4787798016	55	4216
2026-01-03 04:40:13.29	216.70	9.69	-42.8	-43.9	18.7	0.00e+00	0	44	0	4793040896	55	4239
