passes_logs/2026/01/03/T1/T1__20260103_002045_NOAA_20_JPSS-1_rec.log

#Pass ID: 20260103_002045_NOAA 20 (JPSS-1)
#Satellite: NOAA 20 (JPSS-1)
#Configuration: NOAA 20
#almurnet v.1.7.20251203
#Start time: 2026-01-03 00:20:45

#Version: 2.0.20230620
#Station: T1
#Location: 37.570604 lon 55.790049 lat
#TLE: 1 43013U 17073A   26002.21975278  .00000202  00000+0  11669-3 0  9999
#TLE: 2 43013  98.7622 303.2950 0001915  57.9213 302.2149 14.19532512420923

#Time	Az	El	Level	Level2	SNR	BER	BlckErr	Temp	State	Recorded	gain1	gain2
2026-01-03 00:20:45.20	12.27	4.99	-47.9	-64.0	3.8	1.49e+00	0	40	0	0	67	22793
2026-01-03 00:20:46.20	12.24	5.06	-46.3	-64.0	3.8	1.49e+00	0	40	104	0	63	28850
2026-01-03 00:20:47.20	12.21	5.13	-46.2	-64.0	3.8	1.49e+00	0	40	104	0	63	28879
2026-01-03 00:20:48.21	12.18	5.20	-46.3	-64.0	3.8	1.49e+00	0	40	104	0	63	28936
2026-01-03 00:20:49.21	12.14	5.27	-46.2	-64.0	3.8	1.49e+00	0	40	104	0	63	28792
2026-01-03 00:20:50.22	12.11	5.35	-46.2	-64.0	3.8	1.49e+00	0	40	104	0	63	28871
2026-01-03 00:20:51.22	12.08	5.42	-46.2	-64.0	3.8	1.49e+00	0	40	104	0	63	28739
2026-01-03 00:20:52.22	12.05	5.49	-46.2	-63.9	3.8	1.49e+00	0	40	104	0	63	28675
2026-01-03 00:20:53.23	12.02	5.56	-46.2	-63.9	3.8	1.49e+00	0	40	104	0	63	28643
2026-01-03 00:20:54.23	11.98	5.63	-46.2	-63.9	3.8	1.49e+00	0	40	104	0	63	28387
2026-01-03 00:20:55.23	11.95	5.70	-46.2	-63.9	3.8	1.49e+00	0	40	104	0	63	28429
2026-01-03 00:20:56.24	11.92	5.77	-46.2	-63.8	3.8	1.49e+00	0	40	104	0	63	28267
2026-01-03 00:20:57.24	11.89	5.85	-46.2	-63.8	3.8	1.49e+00	0	40	104	0	63	28111
2026-01-03 00:20:58.25	11.85	5.92	-46.2	-63.8	3.8	1.49e+00	0	40	104	0	63	28036
2026-01-03 00:20:59.25	11.82	5.99	-46.2	-63.7	3.8	1.49e+00	0	41	104	0	63	27908
2026-01-03 00:21:00.26	11.78	6.06	-46.2	-63.6	3.8	1.49e+00	0	40	104	0	63	27697
2026-01-03 00:21:01.26	11.75	6.14	-46.2	-63.6	3.8	1.49e+00	0	41	104	0	63	27492
2026-01-03 00:21:02.27	11.72	6.21	-46.2	-63.5	3.8	1.49e+00	0	41	104	0	63	27223
2026-01-03 00:21:03.27	11.68	6.28	-46.2	-63.4	3.8	1.49e+00	0	41	104	0	63	26874
2026-01-03 00:21:04.27	11.65	6.35	-46.2	-63.3	3.8	1.49e+00	0	41	104	0	63	26648
2026-01-03 00:21:05.28	11.61	6.43	-46.2	-63.2	3.8	1.49e+00	0	41	104	0	63	26270
2026-01-03 00:21:06.28	11.58	6.50	-46.2	-63.1	3.8	1.49e+00	0	41	104	0	63	26105
2026-01-03 00:21:07.29	11.54	6.58	-46.2	-63.1	3.8	1.49e+00	0	41	104	0	63	25917
2026-01-03 00:21:08.29	11.51	6.65	-46.2	-63.1	3.8	1.49e+00	0	41	104	0	63	25946
2026-01-03 00:21:09.30	11.47	6.72	-46.2	-63.1	3.8	1.49e+00	0	41	104	0	63	25994
2026-01-03 00:21:10.30	11.44	6.80	-46.2	-63.2	3.8	1.49e+00	0	41	104	0	63	26300
2026-01-03 00:21:11.31	11.40	6.87	-46.2	-63.4	3.8	1.49e+00	0	41	104	0	63	26768
2026-01-03 00:21:12.31	11.37	6.95	-46.2	-63.6	3.8	1.49e+00	0	41	104	0	63	27438
2026-01-03 00:21:13.31	11.33	7.02	-46.2	-63.8	3.8	1.49e+00	0	41	104	0	63	28050
2026-01-03 00:21:14.32	11.29	7.10	-46.2	-63.9	3.8	1.49e+00	0	41	104	0	63	28500
2026-01-03 00:21:15.32	11.26	7.17	-46.3	-64.0	3.8	1.49e+00	0	41	104	0	63	28814
2026-01-03 00:21:16.33	11.22	7.25	-46.3	-64.0	3.8	1.49e+00	0	41	104	0	63	28839
2026-01-03 00:21:17.33	11.18	7.33	-46.2	-63.9	3.8	1.49e+00	0	41	104	0	63	28393
2026-01-03 00:21:18.34	11.15	7.40	-46.2	-63.5	3.8	1.49e+00	0	41	104	0	63	27257
2026-01-03 00:21:19.34	11.11	7.48	-46.2	-63.0	3.8	1.49e+00	0	41	104	0	63	25581
2026-01-03 00:21:20.34	11.07	7.56	-46.1	-62.3	3.8	1.49e+00	0	41	104	0	63	23707
2026-01-03 00:21:21.35	11.03	7.63	-46.1	-61.3	3.9	1.49e+00	0	41	104	0	63	21099
2026-01-03 00:21:22.35	11.00	7.71	-46.1	-60.1	4.3	1.37e+00	0	41	0	0	63	18344
2026-01-03 00:21:23.36	10.96	7.79	-46.0	-58.9	4.7	9.71e-01	0	41	0	1048576	63	16086
2026-01-03 00:21:24.36	10.92	7.86	-45.9	-57.6	5.5	6.37e-01	0	41	0	3145728	63	13872
2026-01-03 00:21:25.36	10.88	7.94	-45.8	-56.4	6.3	3.85e-01	0	41	0	5242880	63	12089
2026-01-03 00:21:26.37	10.84	8.02	-45.6	-55.2	7.4	1.47e-01	0	41	0	6291456	63	10516
2026-01-03 00:21:27.37	10.80	8.10	-45.4	-54.2	8.4	6.74e-02	0	41	0	8388608	62	9922
2026-01-03 00:21:28.37	10.76	8.18	-45.3	-53.3	9.3	2.84e-02	0	41	0	10485760	62	8943
2026-01-03 00:21:29.38	10.72	8.26	-45.0	-52.4	10.3	7.18e-03	0	41	0	12582912	62	8069
2026-01-03 00:21:30.38	10.68	8.33	-44.8	-51.8	10.9	2.84e-03	0	41	0	14680064	61	7934
2026-01-03 00:21:31.39	10.64	8.41	-44.7	-51.2	11.5	1.24e-03	0	42	0	15728640	61	7392
2026-01-03 00:21:32.39	10.60	8.49	-44.6	-50.9	11.9	6.08e-04	0	41	0	17825792	61	7145
2026-01-03 00:21:33.39	10.56	8.57	-44.5	-50.7	12.1	3.29e-04	0	42	0	19922944	61	6997
2026-01-03 00:21:34.39	10.52	8.65	-44.5	-50.7	12.1	2.98e-04	0	41	0	22020096	61	6995
2026-01-03 00:21:35.40	10.48	8.73	-44.6	-50.9	11.9	3.72e-04	0	42	0	24117248	61	7148
2026-01-03 00:21:36.40	10.44	8.81	-44.8	-51.5	11.2	1.03e-03	0	42	0	25165824	61	7715
2026-01-03 00:21:37.41	10.40	8.89	-45.0	-52.3	10.4	2.80e-03	0	42	0	27262976	61	8414
2026-01-03 00:21:38.41	10.36	8.97	-45.2	-53.3	9.4	8.23e-03	0	42	0	29360128	61	9429
2026-01-03 00:21:39.41	10.32	9.05	-45.5	-54.6	8.1	5.08e-02	0	42	0	31457280	61	10949
2026-01-03 00:21:40.41	10.27	9.13	-45.2	-53.2	9.3	1.12e-01	0	42	0	33554432	61	9335
2026-01-03 00:21:41.42	10.23	9.22	-45.0	-52.4	10.6	3.13e-04	0	42	0	34603008	61	8537
2026-01-03 00:21:42.45	10.19	9.30	-46.2	-61.8	3.8	1.16e+00	0	42	104	35651584	63	22379
2026-01-03 00:21:43.50	10.14	9.39	-45.6	-54.9	7.3	9.09e-01	0	42	0	36700160	63	10106
2026-01-03 00:21:44.45	10.10	9.46	-43.8	-48.9	13.8	5.30e-06	0	42	0	37748736	59	6388
2026-01-03 00:21:45.58	10.05	9.56	-43.6	-48.4	14.3	0.00e+00	0	42	0	39845888	59	6041
2026-01-03 00:21:46.44	10.01	9.63	-43.3	-47.7	15.1	0.00e+00	0	42	0	41943040	58	5859
2026-01-03 00:21:47.58	9.96	9.72	-42.7	-46.7	16.1	0.00e+00	0	42	0	44040192	57	5549
2026-01-03 00:21:48.44	9.93	9.79	-42.5	-46.3	16.5	0.00e+00	0	42	0	46137344	57	5325
2026-01-03 00:21:49.59	9.87	9.89	-42.4	-46.2	16.6	0.00e+00	0	42	0	48234496	56	5576
2026-01-03 00:21:50.45	9.84	9.96	-42.6	-46.5	16.4	0.00e+00	0	42	0	49283072	56	5729
2026-01-03 00:21:51.60	9.78	10.06	-42.6	-46.6	16.2	0.00e+00	0	42	0	51380224	56	5807
2026-01-03 00:21:52.46	9.74	10.13	-42.5	-46.2	16.6	0.00e+00	0	42	0	53477376	56	5588
2026-01-03 00:21:53.60	9.69	10.23	-42.4	-46.1	16.8	0.00e+00	0	42	0	55574528	56	5487
2026-01-03 00:21:54.46	9.65	10.30	-42.3	-45.9	16.9	0.00e+00	0	42	0	56623104	56	5352
2026-01-03 00:21:55.61	9.60	10.40	-42.3	-45.8	17.0	0.00e+00	0	42	0	58720256	56	5337
2026-01-03 00:21:56.83	9.54	10.50	-42.2	-45.6	17.2	0.00e+00	0	42	0	61865984	56	5212
2026-01-03 00:21:57.69	9.50	10.57	-42.2	-45.6	17.3	0.00e+00	0	42	0	62914560	56	5160
2026-01-03 00:21:58.83	9.45	10.67	-42.1	-45.5	17.4	0.00e+00	0	42	0	65011712	56	5117
2026-01-03 00:21:59.69	9.41	10.75	-42.1	-45.5	17.3	0.00e+00	0	42	0	67108864	56	5118
2026-01-03 00:22:00.84	9.35	10.84	-42.2	-45.5	17.3	0.00e+00	0	42	0	69206016	56	5154
2026-01-03 00:22:01.70	9.31	10.92	-42.2	-45.5	17.3	0.00e+00	0	42	0	70254592	56	5119
2026-01-03 00:22:02.85	9.26	11.02	-42.1	-45.3	17.5	0.00e+00	0	42	0	72351744	56	5031
2026-01-03 00:22:03.70	9.21	11.09	-42.1	-45.3	17.6	0.00e+00	0	42	0	74448896	56	4987
2026-01-03 00:22:04.85	9.16	11.19	-41.8	-44.9	17.8	0.00e+00	0	42	0	76546048	55	5081
2026-01-03 00:22:05.71	9.11	11.27	-41.8	-44.9	17.9	0.00e+00	0	42	0	77594624	55	5044
2026-01-03 00:22:07.02	9.05	11.38	-41.7	-44.7	18.0	0.00e+00	0	42	0	80740352	55	4958
2026-01-03 00:22:07.74	9.01	11.45	-41.7	-44.7	18.0	0.00e+00	0	42	0	81788928	55	4960
2026-01-03 00:22:09.24	8.94	11.58	-41.7	-44.6	18.2	0.00e+00	0	42	0	84934656	55	4887
2026-01-03 00:22:09.95	8.90	11.64	-41.7	-44.6	18.1	0.00e+00	0	42	0	85983232	55	4883
2026-01-03 00:22:11.24	8.84	11.76	-41.7	-44.6	18.1	0.00e+00	0	42	0	88080384	55	4915
2026-01-03 00:22:11.96	8.80	11.82	-41.7	-44.7	18.1	0.00e+00	0	42	0	90177536	55	4931
2026-01-03 00:22:13.25	8.73	11.94	-41.8	-44.7	18.0	0.00e+00	0	42	0	92274688	55	4976
2026-01-03 00:22:13.97	8.69	12.01	-41.7	-44.5	18.2	0.00e+00	0	42	0	93323264	55	4857
2026-01-03 00:22:15.26	8.63	12.12	-41.7	-44.6	18.1	0.00e+00	0	42	0	96468992	55	4911
2026-01-03 00:22:16.02	8.59	12.19	-41.7	-44.6	18.1	0.00e+00	0	42	0	97517568	55	4905
2026-01-03 00:22:17.31	8.52	12.31	-41.7	-44.6	18.2	0.00e+00	0	42	0	99614720	55	4884
2026-01-03 00:22:18.12	8.47	12.38	-41.7	-44.6	18.2	0.00e+00	0	42	0	101711872	55	4882
2026-01-03 00:22:19.60	8.39	12.52	-41.8	-44.7	18.0	0.00e+00	0	42	0	103809024	55	4950
2026-01-03 00:22:20.32	8.35	12.59	-41.9	-44.7	18.1	0.00e+00	0	42	0	105906176	55	4973
2026-01-03 00:22:21.61	8.28	12.70	-41.8	-44.6	18.2	0.00e+00	0	42	0	108003328	55	4893
2026-01-03 00:22:22.32	8.25	12.77	-41.8	-44.6	18.2	0.00e+00	0	42	0	109051904	55	4921
2026-01-03 00:22:23.61	8.17	12.89	-41.8	-44.7	18.1	0.00e+00	0	42	0	111149056	55	4938
2026-01-03 00:22:24.32	8.13	12.96	-41.7	-44.5	18.2	0.00e+00	0	42	0	113246208	55	4848
2026-01-03 00:22:25.61	8.06	13.08	-41.7	-44.5	18.3	0.00e+00	0	42	0	115343360	55	4832
2026-01-03 00:22:26.33	8.02	13.15	-41.7	-44.5	18.3	0.00e+00	0	42	0	116391936	55	4842
2026-01-03 00:22:27.62	7.95	13.27	-41.8	-44.5	18.2	0.00e+00	0	42	0	119537664	55	4860
2026-01-03 00:22:28.48	7.90	13.35	-41.7	-44.5	18.3	0.00e+00	0	42	0	120586240	55	4829
2026-01-03 00:22:29.63	7.83	13.46	-41.8	-44.5	18.3	0.00e+00	0	42	0	122683392	55	4834
2026-01-03 00:22:30.48	7.78	13.54	-41.7	-44.4	18.3	0.00e+00	0	42	0	124780544	55	4796
2026-01-03 00:22:31.63	7.71	13.65	-41.8	-44.5	18.3	0.00e+00	0	42	0	126877696	55	4848
2026-01-03 00:22:32.78	7.65	13.76	-41.9	-44.6	18.3	0.00e+00	0	42	0	128974848	55	4871
2026-01-03 00:22:33.83	7.58	13.86	-41.8	-44.5	18.2	0.00e+00	0	42	0	131072000	55	4849
2026-01-03 00:22:34.91	7.52	13.97	-41.7	-44.4	18.4	0.00e+00	0	42	0	133169152	55	4768
2026-01-03 00:22:35.77	7.47	14.05	-41.7	-44.5	18.3	0.00e+00	0	42	0	134217728	55	4823
2026-01-03 00:22:36.91	7.40	14.16	-41.8	-44.4	18.3	0.00e+00	0	42	0	136314880	55	4808
2026-01-03 00:22:37.77	7.34	14.25	-41.8	-44.4	18.4	0.00e+00	0	42	0	138412032	55	4810
2026-01-03 00:22:38.92	7.27	14.36	-41.8	-44.4	18.4	0.00e+00	0	42	0	140509184	55	4786
2026-01-03 00:22:39.78	7.22	14.45	-41.7	-44.4	18.4	0.00e+00	0	42	0	141557760	55	4765
2026-01-03 00:22:40.93	7.15	14.56	-41.8	-44.4	18.4	0.00e+00	0	42	0	143654912	55	4766
2026-01-03 00:22:41.78	7.09	14.65	-41.8	-44.4	18.3	0.00e+00	0	42	0	145752064	55	4805
2026-01-03 00:22:42.93	7.02	14.76	-41.8	-44.4	18.4	0.00e+00	0	42	0	147849216	55	4786
2026-01-03 00:22:43.79	6.97	14.85	-41.7	-44.4	18.4	0.00e+00	0	42	0	149946368	55	4769
2026-01-03 00:22:45.03	6.89	14.97	-41.8	-44.5	18.4	0.00e+00	0	42	0	152043520	55	4818
2026-01-03 00:22:45.89	6.83	15.06	-41.8	-44.4	18.4	0.00e+00	0	42	0	153092096	55	4792
2026-01-03 00:22:47.03	6.76	15.17	-41.9	-44.5	18.3	0.00e+00	0	42	0	155189248	55	4848
2026-01-03 00:22:47.89	6.70	15.26	-41.9	-44.5	18.3	0.00e+00	0	42	0	157286400	55	4858
2026-01-03 00:22:49.03	6.62	15.38	-41.8	-44.3	18.5	0.00e+00	0	42	0	159383552	55	4758
2026-01-03 00:22:49.89	6.57	15.47	-41.8	-44.3	18.5	0.00e+00	0	42	0	160432128	55	4732
2026-01-03 00:22:51.04	6.49	15.59	-41.8	-44.4	18.5	0.00e+00	0	42	0	162529280	55	4771
2026-01-03 00:22:51.89	6.43	15.67	-41.8	-44.3	18.5	0.00e+00	0	42	0	164626432	55	4759
2026-01-03 00:22:53.04	6.35	15.79	-41.8	-44.4	18.5	0.00e+00	0	42	0	166723584	55	4787
2026-01-03 00:22:53.90	6.29	15.88	-41.7	-44.3	18.5	0.00e+00	0	42	0	168820736	55	4729
2026-01-03 00:22:55.05	6.21	16.00	-41.9	-44.5	18.4	0.00e+00	0	42	0	170917888	55	4826
2026-01-03 00:22:55.91	6.15	16.09	-41.9	-44.5	18.4	0.00e+00	0	42	0	171966464	55	4828
2026-01-03 00:22:57.06	6.07	16.22	-41.8	-44.3	18.5	0.00e+00	0	42	0	174063616	55	4752
2026-01-03 00:22:57.91	6.01	16.31	-41.8	-44.4	18.5	0.00e+00	0	43	0	176160768	55	4772
2026-01-03 00:22:59.06	5.93	16.43	-41.8	-44.3	18.5	0.00e+00	0	42	0	178257920	55	4753
2026-01-03 00:22:59.92	5.87	16.52	-41.9	-44.5	18.4	0.00e+00	0	42	0	179306496	55	4822
2026-01-03 00:23:01.11	5.78	16.65	-41.9	-44.4	18.4	0.00e+00	0	42	0	182452224	55	4798
2026-01-03 00:23:01.97	5.72	16.74	-41.8	-44.4	18.5	0.00e+00	0	42	0	183500800	55	4777
2026-01-03 00:23:03.12	5.63	16.86	-41.9	-44.5	18.4	0.00e+00	0	42	0	185597952	55	4828
2026-01-03 00:23:03.98	5.57	16.96	-41.9	-44.5	18.4	0.00e+00	0	42	0	187695104	55	4819
2026-01-03 00:23:05.13	5.48	17.08	-42.0	-44.5	18.3	0.00e+00	0	42	0	189792256	55	4863
2026-01-03 00:23:05.99	5.42	17.18	-42.1	-44.6	18.3	0.00e+00	0	42	0	190840832	55	4897
2026-01-03 00:23:07.13	5.33	17.30	-42.0	-44.6	18.3	0.00e+00	0	42	0	192937984	55	4882
2026-01-03 00:23:07.99	5.27	17.40	-42.1	-44.6	18.3	0.00e+00	0	43	0	195035136	55	4897
2026-01-03 00:23:09.14	5.18	17.53	-42.1	-44.6	18.3	0.00e+00	0	42	0	197132288	55	4907
2026-01-03 00:23:10.00	5.11	17.62	-42.2	-44.7	18.2	0.00e+00	0	43	0	198180864	55	4962
2026-01-03 00:23:11.14	5.02	17.75	-42.1	-44.6	18.2	0.00e+00	0	42	0	200278016	55	4924
2026-01-03 00:23:12.00	4.95	17.84	-42.1	-44.7	18.3	0.00e+00	0	43	0	202375168	55	4928
2026-01-03 00:23:13.15	4.86	17.97	-42.0	-44.4	18.4	0.00e+00	0	43	0	204472320	55	4809
2026-01-03 00:23:14.00	4.79	18.07	-42.0	-44.5	18.4	0.00e+00	0	42	0	206569472	55	4847
2026-01-03 00:23:15.15	4.70	18.20	-42.0	-44.5	18.4	0.00e+00	0	42	0	208666624	55	4860
2026-01-03 00:23:16.01	4.63	18.30	-42.1	-44.6	18.3	0.00e+00	0	43	0	209715200	55	4907
2026-01-03 00:23:17.16	4.54	18.43	-42.1	-44.5	18.4	0.00e+00	0	42	0	211812352	55	4868
2026-01-03 00:23:18.02	4.47	18.53	-42.0	-44.5	18.4	0.00e+00	0	42	0	213909504	55	4844
2026-01-03 00:23:19.16	4.37	18.66	-41.9	-44.4	18.5	0.00e+00	0	42	0	216006656	55	4769
2026-01-03 00:23:20.10	4.29	18.77	-41.9	-44.4	18.5	0.00e+00	0	42	0	218103808	55	4781
2026-01-03 00:23:21.28	4.19	18.91	-42.0	-44.5	18.5	0.00e+00	0	42	0	220200960	55	4821
2026-01-03 00:23:22.14	4.12	19.01	-41.9	-44.4	18.5	0.00e+00	0	42	0	221249536	55	4781
2026-01-03 00:23:23.50	4.00	19.17	-41.9	-44.5	18.4	0.00e+00	0	42	0	224395264	55	4822
2026-01-03 00:23:24.22	3.94	19.25	-41.9	-44.4	18.5	0.00e+00	0	42	0	225443840	55	4800
2026-01-03 00:23:25.51	3.82	19.40	-42.0	-44.5	18.4	0.00e+00	0	43	0	227540992	55	4839
2026-01-03 00:23:26.22	3.76	19.49	-42.0	-44.5	18.4	0.00e+00	0	42	0	228589568	55	4856
2026-01-03 00:23:27.79	3.62	19.68	-42.1	-44.7	18.3	0.00e+00	0	42	0	231735296	55	4929
2026-01-03 00:23:28.40	3.57	19.75	-42.0	-44.6	18.4	0.00e+00	0	42	0	232783872	55	4902
2026-01-03 00:23:29.97	3.42	19.94	-42.1	-44.7	18.3	0.00e+00	0	42	0	235929600	55	4933
2026-01-03 00:23:30.56	3.37	20.01	-42.1	-44.6	18.3	0.00e+00	0	42	0	236978176	55	4926
2026-01-03 00:23:32.14	3.22	20.20	-42.1	-44.6	18.4	0.00e+00	0	43	0	240123904	55	4896
2026-01-03 00:23:32.79	3.16	20.28	-42.1	-44.7	18.2	0.00e+00	0	42	0	241172480	55	4951
2026-01-03 00:23:34.22	3.03	20.46	-42.1	-44.7	18.3	0.00e+00	0	42	0	244318208	55	4950
2026-01-03 00:23:34.94	2.96	20.55	-42.2	-44.8	18.1	0.00e+00	0	42	0	245366784	55	5017
2026-01-03 00:23:36.23	2.84	20.71	-42.1	-44.6	18.3	0.00e+00	0	42	0	247463936	55	4892
2026-01-03 00:23:36.94	2.77	20.79	-42.2	-44.7	18.2	0.00e+00	0	42	0	249561088	55	4956
2026-01-03 00:23:38.23	2.64	20.96	-42.3	-44.8	18.2	0.00e+00	0	42	0	251658240	55	4997
2026-01-03 00:23:39.14	2.55	21.07	-42.4	-44.9	18.0	0.00e+00	0	42	0	253755392	55	5100
2026-01-03 00:23:40.49	2.42	21.24	-42.4	-45.0	18.0	0.00e+00	0	42	0	255852544	55	5118
2026-01-03 00:23:41.21	2.35	21.33	-42.4	-45.0	17.9	0.00e+00	0	43	0	256901120	55	5134
2026-01-03 00:23:42.86	2.18	21.54	-42.5	-45.1	17.9	0.00e+00	0	42	0	260046848	55	5180
2026-01-03 00:23:43.43	2.12	21.61	-42.5	-45.1	17.8	0.00e+00	0	42	0	261095424	55	5212
2026-01-03 00:23:45.03	1.96	21.82	-42.6	-45.3	17.7	0.00e+00	0	42	0	264241152	55	5306
2026-01-03 00:23:45.60	1.90	21.89	-42.6	-45.4	17.6	0.00e+00	0	42	0	265289728	55	5348
2026-01-03 00:23:47.20	1.73	22.10	-42.9	-45.7	17.5	0.00e+00	0	43	0	268435456	56	5225
2026-01-03 00:23:47.78	1.67	22.18	-42.8	-45.6	17.6	0.00e+00	0	43	0	269484032	56	5187
2026-01-03 00:23:49.37	1.50	22.38	-42.8	-45.6	17.6	0.00e+00	0	43	0	272629760	56	5194
2026-01-03 00:23:49.94	1.44	22.46	-42.9	-45.7	17.5	0.00e+00	0	42	0	273678336	56	5254
2026-01-03 00:23:51.52	1.26	22.67	-43.0	-45.9	17.3	0.00e+00	0	42	0	276824064	56	5367
2026-01-03 00:23:52.14	1.20	22.75	-43.2	-46.1	17.1	0.00e+00	0	42	0	277872640	56	5487
2026-01-03 00:23:54.05	0.98	23.01	-43.1	-45.9	17.2	0.00e+00	0	43	0	281018368	56	5397
2026-01-03 00:23:54.62	0.92	23.08	-43.1	-46.0	17.2	0.00e+00	0	43	0	282066944	57	5108
2026-01-03 00:23:56.21	0.74	23.30	-43.3	-46.1	17.0	0.00e+00	0	42	0	285212672	57	5216
2026-01-03 00:23:56.79	0.67	23.38	-43.3	-46.1	17.1	0.00e+00	0	43	0	286261248	57	5200
2026-01-03 00:23:58.39	0.49	23.59	-43.3	-46.2	17.0	0.00e+00	0	42	0	289406976	57	5258
2026-01-03 00:23:58.97	0.42	23.67	-43.5	-46.4	16.8	0.00e+00	0	42	0	290455552	57	5353
2026-01-03 00:24:00.54	0.23	23.89	-43.6	-46.5	16.7	0.00e+00	0	43	0	293601280	57	5418
2026-01-03 00:24:01.14	0.16	23.97	-43.7	-46.6	16.5	0.00e+00	0	43	0	294649856	57	5524
2026-01-03 00:24:02.93	359.95	24.22	-43.6	-46.6	16.7	0.00e+00	0	43	0	297795584	58	5160
2026-01-03 00:24:03.50	359.88	24.30	-43.7	-46.6	16.6	0.00e+00	0	43	0	298844160	58	5177
2026-01-03 00:24:05.09	359.68	24.52	-43.6	-46.5	16.7	0.00e+00	0	43	0	301989888	58	5150
2026-01-03 00:24:06.06	359.56	24.66	-43.5	-46.4	16.8	0.00e+00	0	43	0	304087040	58	5085
2026-01-03 00:24:07.06	359.44	24.80	-43.6	-46.5	16.7	0.00e+00	0	42	0	305135616	58	5131
2026-01-03 00:24:08.07	359.31	24.94	-43.5	-46.4	16.8	0.00e+00	0	43	0	307232768	58	5099
2026-01-03 00:24:09.07	359.18	25.09	-43.6	-46.6	16.7	0.00e+00	0	43	0	309329920	58	5164
2026-01-03 00:24:10.07	359.05	25.23	-43.6	-46.6	16.7	0.00e+00	0	43	0	311427072	58	5163
2026-01-03 00:24:11.17	358.91	25.39	-43.8	-46.8	16.5	0.00e+00	0	43	0	313524224	58	5293
2026-01-03 00:24:12.07	358.79	25.52	-43.8	-46.8	16.5	0.00e+00	0	43	0	314572800	58	5286
2026-01-03 00:24:13.13	358.65	25.67	-43.8	-46.8	16.4	0.00e+00	0	43	0	316669952	58	5317
2026-01-03 00:24:13.99	358.53	25.80	-44.0	-47.1	16.2	0.00e+00	0	43	0	318767104	58	5466
2026-01-03 00:24:15.14	358.38	25.97	-44.0	-47.0	16.2	0.00e+00	0	43	0	320864256	58	5431
2026-01-03 00:24:16.20	358.23	26.12	-44.1	-47.1	16.1	0.00e+00	0	43	0	322961408	58	5523
2026-01-03 00:24:17.24	358.09	26.28	-44.2	-47.2	16.0	0.00e+00	0	43	0	325058560	59	5261
2026-01-03 00:24:18.24	357.95	26.42	-44.2	-47.2	16.0	0.00e+00	0	43	0	326107136	59	5271
2026-01-03 00:24:19.45	357.78	26.60	-44.2	-47.3	15.9	0.00e+00	0	43	0	329252864	59	5322
2026-01-03 00:24:20.34	357.65	26.74	-44.3	-47.4	15.9	0.00e+00	0	43	0	330301440	59	5357
2026-01-03 00:24:21.48	357.49	26.91	-44.3	-47.4	15.8	0.00e+00	0	43	0	332398592	59	5377
2026-01-03 00:24:22.34	357.36	27.04	-44.4	-47.5	15.8	0.00e+00	0	43	0	334495744	59	5445
2026-01-03 00:24:23.49	357.19	27.21	-44.3	-47.5	15.8	0.00e+00	0	42	0	336592896	59	5411
2026-01-03 00:24:24.35	357.06	27.34	-44.5	-47.7	15.6	0.00e+00	0	43	0	337641472	59	5553
2026-01-03 00:24:25.49	356.89	27.52	-44.4	-47.6	15.6	0.00e+00	0	43	0	339738624	59	5486
2026-01-03 00:24:26.35	356.76	27.65	-44.4	-47.5	15.8	0.00e+00	0	42	0	341835776	59	5411
2026-01-03 00:24:27.50	356.59	27.83	-44.2	-47.3	15.9	0.00e+00	0	43	0	343932928	59	5321
2026-01-03 00:24:28.36	356.46	27.96	-44.2	-47.3	16.0	0.00e+00	0	43	0	346030080	59	5301
2026-01-03 00:24:29.51	356.28	28.14	-44.2	-47.3	16.0	0.00e+00	0	43	0	348127232	59	5281
2026-01-03 00:24:30.37	356.14	28.27	-44.2	-47.3	16.0	0.00e+00	0	43	0	349175808	59	5307
2026-01-03 00:24:31.53	355.96	28.46	-44.1	-47.1	16.2	0.00e+00	0	43	0	351272960	59	5160
2026-01-03 00:24:32.39	355.82	28.59	-44.1	-47.0	16.2	0.00e+00	0	43	0	353370112	59	5142
2026-01-03 00:24:33.60	355.62	28.78	-43.9	-46.8	16.5	0.00e+00	0	43	0	355467264	59	5000
2026-01-03 00:24:34.46	355.48	28.92	-44.0	-46.9	16.4	0.00e+00	0	43	0	356515840	59	5077
2026-01-03 00:24:35.60	355.29	29.10	-44.0	-47.0	16.3	0.00e+00	0	43	0	359661568	59	5101
2026-01-03 00:24:36.46	355.15	29.24	-44.0	-47.0	16.3	0.00e+00	0	43	0	360710144	59	5106
2026-01-03 00:24:37.61	354.96	29.42	-43.8	-46.8	16.6	0.00e+00	0	43	0	362807296	59	4992
2026-01-03 00:24:38.47	354.81	29.56	-43.7	-46.6	16.6	0.00e+00	0	43	0	364904448	59	4924
2026-01-03 00:24:39.61	354.61	29.75	-43.7	-46.7	16.6	0.00e+00	0	43	0	367001600	59	4939
2026-01-03 00:24:40.47	354.46	29.89	-43.9	-47.0	16.3	0.00e+00	0	43	0	368050176	59	5111
2026-01-03 00:24:41.62	354.26	30.08	-43.9	-47.0	16.3	0.00e+00	0	43	0	370147328	59	5119
2026-01-03 00:24:42.48	354.11	30.22	-44.0	-47.0	16.2	0.00e+00	0	42	0	372244480	59	5143
2026-01-03 00:24:43.62	353.90	30.40	-44.0	-47.1	16.1	0.00e+00	0	43	0	374341632	59	5209
2026-01-03 00:24:44.66	353.71	30.58	-44.1	-47.2	16.1	0.00e+00	0	43	0	376438784	59	5260
2026-01-03 00:24:45.66	353.53	30.74	-44.1	-47.1	16.2	0.00e+00	0	43	0	378535936	59	5193
2026-01-03 00:24:46.66	353.34	30.91	-44.3	-47.3	16.0	0.00e+00	0	43	0	379584512	59	5307
2026-01-03 00:24:47.66	353.16	31.07	-44.3	-47.4	15.9	0.00e+00	0	43	0	381681664	59	5343
2026-01-03 00:24:48.66	352.97	31.24	-44.4	-47.4	15.8	0.00e+00	0	43	0	383778816	59	5377
2026-01-03 00:24:49.97	352.72	31.46	-44.4	-47.6	15.7	0.00e+00	0	43	0	385875968	59	5469
2026-01-03 00:24:50.69	352.58	31.58	-44.5	-47.7	15.6	0.00e+00	0	43	0	386924544	59	5540
2026-01-03 00:24:51.98	352.32	31.80	-44.5	-47.7	15.7	0.00e+00	0	43	0	390070272	59	5541
2026-01-03 00:24:52.69	352.18	31.92	-44.5	-47.8	15.5	0.00e+00	0	43	0	391118848	59	5604
2026-01-03 00:24:53.98	351.92	32.14	-44.6	-47.9	15.4	0.00e+00	0	43	0	393216000	59	5667
2026-01-03 00:24:54.70	351.78	32.27	-44.6	-47.9	15.4	0.00e+00	0	43	0	395313152	59	5665
2026-01-03 00:24:55.99	351.52	32.49	-44.6	-48.0	15.4	0.00e+00	0	43	0	397410304	59	5727
2026-01-03 00:24:56.70	351.37	32.61	-44.6	-48.0	15.3	0.00e+00	0	43	0	398458880	60	5437
2026-01-03 00:24:58.00	351.10	32.84	-44.5	-47.9	15.4	0.00e+00	0	43	0	400556032	60	5346
2026-01-03 00:24:58.71	350.95	32.96	-44.6	-47.9	15.4	0.00e+00	0	43	0	402653184	60	5398
2026-01-03 00:25:00.19	350.63	33.22	-44.6	-47.9	15.5	0.00e+00	0	43	0	404750336	60	5377
2026-01-03 00:25:00.91	350.47	33.34	-44.7	-48.1	15.3	0.00e+00	0	43	0	406847488	60	5484
2026-01-03 00:25:02.28	350.17	33.58	-44.8	-48.3	15.0	0.00e+00	0	43	0	408944640	60	5636
2026-01-03 00:25:03.00	350.01	33.71	-44.8	-48.3	15.0	0.00e+00	0	43	0	409993216	60	5646
2026-01-03 00:25:04.28	349.73	33.94	-44.8	-48.5	14.9	0.00e+00	0	43	0	413138944	60	5743
2026-01-03 00:25:05.00	349.57	34.06	-44.8	-48.5	14.9	0.00e+00	0	43	0	414187520	60	5753
2026-01-03 00:25:06.29	349.27	34.29	-44.8	-48.4	15.0	0.00e+00	0	43	0	416284672	60	5692
2026-01-03 00:25:07.00	349.11	34.42	-44.7	-48.3	15.1	0.00e+00	0	43	0	418381824	60	5601
2026-01-03 00:25:08.29	348.80	34.65	-44.7	-48.2	15.1	0.00e+00	0	43	0	420478976	60	5583
2026-01-03 00:25:09.00	348.64	34.77	-44.7	-48.1	15.2	0.00e+00	0	43	0	421527552	60	5516
2026-01-03 00:25:10.29	348.33	35.01	-44.7	-48.2	15.2	0.00e+00	0	43	0	423624704	60	5567
2026-01-03 00:25:11.01	348.15	35.14	-44.5	-47.9	15.5	0.00e+00	0	43	0	425721856	60	5341
2026-01-03 00:25:12.30	347.84	35.37	-44.2	-47.5	15.9	0.00e+00	0	43	0	427819008	60	5118
2026-01-03 00:25:13.09	347.64	35.51	-44.2	-47.4	16.0	0.00e+00	0	43	0	429916160	60	5073
2026-01-03 00:25:14.57	347.27	35.78	-44.2	-47.3	16.1	0.00e+00	0	43	0	432013312	60	5013
2026-01-03 00:25:15.29	347.09	35.91	-44.2	-47.4	16.0	0.00e+00	0	43	0	433061888	60	5049
2026-01-03 00:25:16.57	346.76	36.14	-44.1	-47.2	16.2	0.00e+00	0	43	0	436207616	60	4944
2026-01-03 00:25:17.29	346.57	36.27	-44.2	-47.3	16.0	0.00e+00	0	43	0	437256192	60	5038
2026-01-03 00:25:18.58	346.23	36.51	-44.1	-47.2	16.2	0.00e+00	0	43	0	439353344	60	4967
2026-01-03 00:25:19.29	346.04	36.64	-44.2	-47.4	16.0	0.00e+00	0	43	0	441450496	60	5053
2026-01-03 00:25:20.59	345.69	36.88	-44.0	-47.2	16.1	0.00e+00	0	43	0	443547648	60	4957
2026-01-03 00:25:21.30	345.50	37.01	-44.1	-47.4	16.1	0.00e+00	0	43	0	444596224	60	5042
2026-01-03 00:25:22.59	345.15	37.24	-44.0	-47.2	16.2	0.00e+00	0	43	0	446693376	59	5226
2026-01-03 00:25:23.30	344.95	37.37	-43.8	-46.9	16.4	0.00e+00	0	43	0	448790528	59	5089
2026-01-03 00:25:24.59	344.59	37.61	-43.8	-47.1	16.2	0.00e+00	0	43	0	450887680	59	5175
2026-01-03 00:25:25.31	344.38	37.75	-43.9	-47.1	16.2	0.00e+00	0	43	0	451936256	59	5197
2026-01-03 00:25:26.59	344.01	37.98	-43.9	-47.1	16.2	0.00e+00	0	43	0	455081984	59	5210
2026-01-03 00:25:27.57	343.73	38.16	-44.1	-47.2	16.1	0.00e+00	0	43	0	456130560	59	5272
2026-01-03 00:25:28.57	343.43	38.35	-44.4	-47.7	15.7	0.00e+00	0	43	0	458227712	59	5543
2026-01-03 00:25:29.57	343.13	38.53	-44.5	-47.7	15.6	0.00e+00	0	43	0	460324864	59	5574
2026-01-03 00:25:30.57	342.83	38.72	-44.6	-47.8	15.5	0.00e+00	0	43	0	462422016	59	5642
2026-01-03 00:25:31.58	342.52	38.91	-44.8	-48.1	15.2	0.00e+00	0	43	0	464519168	60	5516
2026-01-03 00:25:32.58	342.22	39.09	-44.6	-47.7	15.6	0.00e+00	0	43	0	465567744	60	5279
2026-01-03 00:25:33.58	341.90	39.28	-44.5	-47.7	15.7	0.00e+00	0	43	0	467664896	60	5258
2026-01-03 00:25:34.59	341.58	39.46	-44.5	-47.7	15.7	0.00e+00	0	43	0	469762048	60	5234
2026-01-03 00:25:35.59	341.26	39.65	-44.7	-47.9	15.5	0.00e+00	0	43	0	471859200	60	5381
2026-01-03 00:25:36.69	340.91	39.85	-44.6	-47.8	15.6	7.00e-07	0	43	0	473956352	60	5308
2026-01-03 00:25:37.55	340.63	40.01	-44.4	-47.6	15.7	0.00e+00	0	43	0	475004928	60	5199
2026-01-03 00:25:38.69	340.25	40.22	-44.2	-47.4	16.0	0.00e+00	0	43	0	477102080	60	5060
2026-01-03 00:25:39.65	339.93	40.40	-44.1	-47.3	16.1	0.00e+00	0	43	0	479199232	60	5000
2026-01-03 00:25:40.65	339.59	40.59	-44.1	-47.3	16.1	0.00e+00	0	43	0	481296384	60	5023
2026-01-03 00:25:41.86	339.17	40.81	-44.2	-47.4	16.0	0.00e+00	0	43	0	483393536	60	5042
2026-01-03 00:25:42.74	338.87	40.97	-44.1	-47.1	16.3	0.00e+00	0	43	0	485490688	60	4917
2026-01-03 00:25:43.89	338.46	41.19	-44.0	-47.0	16.4	0.00e+00	0	43	0	487587840	59	5130
2026-01-03 00:25:44.75	338.16	41.34	-44.2	-47.3	16.0	0.00e+00	0	43	0	488636416	59	5304
2026-01-03 00:25:45.89	337.75	41.55	-44.7	-48.0	15.4	0.00e+00	0	43	0	490733568	59	5734
2026-01-03 00:25:46.75	337.43	41.71	-45.1	-48.8	14.6	0.00e+00	0	43	0	492830720	60	5935
2026-01-03 00:25:47.90	337.01	41.92	-45.3	-49.2	14.2	7.00e-07	0	43	0	494927872	61	5879
2026-01-03 00:25:48.76	336.69	42.08	-45.2	-49.0	14.3	4.50e-06	0	43	0	495976448	61	5774
2026-01-03 00:25:49.91	336.26	42.29	-45.1	-48.9	14.5	0.00e+00	0	43	0	498073600	61	5706
2026-01-03 00:25:50.77	335.93	42.44	-45.0	-48.8	14.6	0.00e+00	0	43	0	500170752	61	5617
2026-01-03 00:25:51.92	335.49	42.65	-44.9	-48.7	14.7	7.00e-07	0	43	0	502267904	61	5584
2026-01-03 00:25:52.77	335.16	42.80	-44.6	-48.3	15.1	0.00e+00	0	43	0	503316480	61	5300
2026-01-03 00:25:53.92	334.70	43.01	-44.6	-48.0	15.4	0.00e+00	0	43	0	506462208	61	5138
2026-01-03 00:25:54.78	334.36	43.16	-44.6	-48.0	15.4	7.00e-07	0	43	0	507510784	61	5118
2026-01-03 00:25:56.07	333.84	43.39	-44.7	-48.0	15.4	0.00e+00	0	43	0	509607936	61	5146
2026-01-03 00:25:56.79	333.55	43.52	-45.0	-48.4	15.0	0.00e+00	0	43	0	511705088	61	5384
2026-01-03 00:25:58.08	333.01	43.75	-45.0	-48.4	15.0	0.00e+00	0	43	0	513802240	61	5359
2026-01-03 00:25:58.79	332.72	43.87	-44.6	-47.8	15.6	7.00e-07	0	43	0	514850816	61	5018
2026-01-03 00:26:00.08	332.17	44.10	-44.4	-47.4	16.0	0.00e+00	0	43	0	517996544	60	5100
2026-01-03 00:26:00.89	331.83	44.24	-44.5	-47.7	15.7	0.00e+00	0	43	0	519045120	60	5236
2026-01-03 00:26:02.04	331.33	44.44	-44.7	-48.0	15.4	0.00e+00	0	43	0	521142272	60	5412
2026-01-03 00:26:02.90	330.96	44.59	-44.9	-48.3	15.2	0.00e+00	0	43	0	523239424	60	5634
2026-01-03 00:26:04.04	330.45	44.78	-44.9	-48.5	14.9	0.00e+00	0	43	0	525336576	60	5776
2026-01-03 00:26:04.90	330.07	44.93	-44.7	-48.2	15.3	0.00e+00	0	43	0	526385152	60	5542
2026-01-03 00:26:06.05	329.55	45.12	-44.3	-47.6	15.7	0.00e+00	0	43	0	528482304	60	5179
2026-01-03 00:26:06.91	329.16	45.26	-44.1	-47.3	16.1	0.00e+00	0	43	0	530579456	60	5002
2026-01-03 00:26:08.05	328.64	45.45	-43.8	-46.8	16.5	0.00e+00	0	43	0	532676608	59	5013
2026-01-03 00:26:08.91	328.24	45.59	-43.7	-46.6	16.7	0.00e+00	0	43	0	533725184	59	4888
2026-01-03 00:26:10.14	327.66	45.79	-43.8	-46.7	16.6	0.00e+00	0	43	0	536870912	59	4938
2026-01-03 00:26:11.00	327.25	45.93	-43.9	-46.9	16.4	0.00e+00	0	43	0	537919488	59	5075
2026-01-03 00:26:12.14	326.70	46.11	-43.9	-46.9	16.4	0.00e+00	0	43	0	540016640	59	5081
2026-01-03 00:26:13.00	326.28	46.25	-43.9	-47.0	16.3	0.00e+00	0	43	0	542113792	59	5118
2026-01-03 00:26:14.15	325.72	46.43	-43.9	-46.9	16.3	0.00e+00	0	43	0	544210944	59	5097
2026-01-03 00:26:15.01	325.29	46.56	-44.0	-47.0	16.3	0.00e+00	0	43	0	545259520	59	5135
2026-01-03 00:26:16.16	324.72	46.73	-43.8	-46.8	16.5	0.00e+00	0	43	0	547356672	59	5026
2026-01-03 00:26:17.01	324.29	46.86	-43.7	-46.6	16.7	0.00e+00	0	43	0	549453824	59	4885
2026-01-03 00:26:18.16	323.71	47.03	-43.5	-46.3	17.0	0.00e+00	0	43	0	551550976	58	5037
2026-01-03 00:26:19.02	323.26	47.16	-43.5	-46.3	17.1	0.00e+00	0	43	0	552599552	58	5004
2026-01-03 00:26:20.17	322.67	47.33	-43.6	-46.4	17.0	0.00e+00	0	43	0	554696704	58	5054
2026-01-03 00:26:21.03	322.21	47.45	-43.6	-46.3	17.1	0.00e+00	0	43	0	556793856	58	4999
2026-01-03 00:26:22.18	321.61	47.61	-43.6	-46.3	17.1	0.00e+00	0	43	0	558891008	58	5006
2026-01-03 00:26:23.03	321.15	47.73	-43.5	-46.2	17.1	0.00e+00	0	43	0	560988160	58	4959
2026-01-03 00:26:24.18	320.53	47.88	-43.8	-46.6	16.8	0.00e+00	0	43	0	563085312	58	5196
2026-01-03 00:26:25.04	320.07	48.00	-44.1	-47.0	16.3	0.00e+00	0	43	0	564133888	58	5456
2026-01-03 00:26:26.18	319.44	48.15	-44.5	-47.6	15.7	0.00e+00	0	43	0	566231040	59	5498
2026-01-03 00:26:27.04	318.97	48.26	-44.5	-47.8	15.5	0.00e+00	0	43	0	568328192	59	5596
2026-01-03 00:26:28.19	318.33	48.40	-44.3	-47.5	15.8	0.00e+00	0	43	0	570425344	59	5458
2026-01-03 00:26:29.05	317.84	48.51	-44.5	-47.8	15.5	0.00e+00	0	43	0	571473920	59	5626
2026-01-03 00:26:30.19	317.20	48.65	-44.6	-48.0	15.3	0.00e+00	0	43	0	573571072	59	5756
2026-01-03 00:26:31.05	316.71	48.75	-44.8	-48.4	15.0	0.00e+00	0	43	0	575668224	60	5704
2026-01-03 00:26:32.20	316.04	48.88	-45.1	-48.9	14.5	0.00e+00	0	43	0	577765376	60	5995
2026-01-03 00:26:33.06	315.55	48.98	-45.2	-49.0	14.4	0.00e+00	0	43	0	579862528	61	5731
2026-01-03 00:26:34.21	314.87	49.10	-45.2	-48.9	14.5	0.00e+00	0	43	0	581959680	61	5675
2026-01-03 00:26:35.07	314.37	49.19	-45.2	-49.0	14.4	0.00e+00	0	43	0	583008256	61	5741
2026-01-03 00:26:36.61	313.46	49.35	-45.6	-49.7	13.7	2.20e-06	0	43	0	586153984	61	6248
2026-01-03 00:26:37.32	313.03	49.42	-45.5	-49.5	13.8	3.80e-06	0	43	0	587202560	61	6114
2026-01-03 00:26:38.61	312.26	49.55	-45.4	-49.2	14.2	4.50e-06	0	43	0	589299712	61	5872
2026-01-03 00:26:39.33	311.82	49.61	-45.2	-48.9	14.4	1.50e-06	0	43	0	591396864	61	5716
2026-01-03 00:26:40.61	311.04	49.73	-45.1	-48.8	14.5	7.00e-07	0	43	0	593494016	61	5643
2026-01-03 00:26:41.33	310.60	49.79	-45.1	-48.8	14.5	7.00e-07	0	43	0	594542592	61	5638
2026-01-03 00:26:42.62	309.81	49.90	-44.6	-48.0	15.4	0.00e+00	0	43	0	597688320	61	5109
2026-01-03 00:26:43.34	309.36	49.95	-44.5	-47.8	15.6	0.00e+00	0	43	0	598736896	61	4986
2026-01-03 00:26:44.63	308.56	50.05	-44.5	-47.6	15.7	0.00e+00	0	43	0	600834048	60	5216
2026-01-03 00:26:45.50	308.02	50.11	-44.7	-48.0	15.4	0.00e+00	0	43	0	602931200	60	5434
2026-01-03 00:26:46.65	307.29	50.19	-44.5	-47.9	15.5	0.00e+00	0	43	0	605028352	60	5353
2026-01-03 00:26:47.72	306.62	50.26	-44.3	-47.4	15.9	0.00e+00	0	43	0	607125504	60	5095
2026-01-03 00:26:48.75	305.96	50.33	-43.9	-46.9	16.5	0.00e+00	0	43	0	609222656	59	5051
2026-01-03 00:26:49.75	305.33	50.38	-43.6	-46.4	16.9	0.00e+00	0	43	0	610271232	59	4798
2026-01-03 00:26:50.96	304.55	50.45	-43.0	-45.6	17.8	0.00e+00	0	43	0	613416960	58	4614
2026-01-03 00:26:51.85	303.98	50.49	-42.7	-45.2	18.1	0.00e+00	0	43	0	614465536	57	4653
2026-01-03 00:26:52.99	303.25	50.54	-42.7	-45.2	18.1	0.00e+00	0	43	0	616562688	57	4696
2026-01-03 00:26:53.85	302.69	50.58	-42.7	-45.3	18.0	0.00e+00	0	43	0	618659840	57	4715
2026-01-03 00:26:55.00	301.95	50.62	-42.8	-45.3	18.0	0.00e+00	0	43	0	620756992	57	4738
2026-01-03 00:26:55.86	301.39	50.65	-42.8	-45.4	17.9	0.00e+00	0	43	0	621805568	57	4763
2026-01-03 00:26:57.01	300.64	50.69	-42.7	-45.2	18.1	0.00e+00	0	43	0	623902720	57	4666
2026-01-03 00:26:57.87	300.08	50.71	-42.4	-44.9	18.4	0.00e+00	0	43	0	625999872	56	4778
2026-01-03 00:26:59.01	299.34	50.73	-42.3	-44.7	18.6	0.00e+00	0	43	0	628097024	56	4652
2026-01-03 00:26:59.87	298.78	50.75	-42.3	-44.6	18.6	0.00e+00	0	43	0	629145600	56	4625
2026-01-03 00:27:01.02	298.02	50.77	-42.5	-45.0	18.3	0.00e+00	0	43	0	632291328	56	4823
2026-01-03 00:27:01.87	297.47	50.77	-42.3	-44.7	18.5	0.00e+00	0	43	0	633339904	56	4695
2026-01-03 00:27:03.02	296.71	50.78	-42.3	-44.7	18.6	0.00e+00	0	43	0	635437056	56	4682
2026-01-03 00:27:03.88	296.15	50.78	-42.3	-44.8	18.5	0.00e+00	0	43	0	637534208	56	4707
2026-01-03 00:27:05.12	295.34	50.78	-42.2	-44.6	18.6	0.00e+00	0	43	0	639631360	56	4634
2026-01-03 00:27:06.37	294.52	50.77	-41.8	-44.1	19.0	0.00e+00	0	43	0	641728512	55	4648
2026-01-03 00:27:07.09	294.05	50.77	-41.8	-44.1	19.0	0.00e+00	0	43	0	642777088	55	4611
2026-01-03 00:27:08.38	293.20	50.75	-41.9	-44.2	18.9	0.00e+00	0	43	0	645922816	55	4705
2026-01-03 00:27:09.10	292.73	50.73	-42.1	-44.5	18.6	0.00e+00	0	43	0	646971392	55	4837
2026-01-03 00:27:10.39	291.89	50.71	-42.9	-45.4	17.9	0.00e+00	0	43	0	649068544	56	5089
2026-01-03 00:27:11.10	291.43	50.69	-43.1	-45.7	17.6	0.00e+00	0	43	0	651165696	57	4955
2026-01-03 00:27:12.39	290.59	50.65	-43.0	-45.6	17.7	0.00e+00	0	43	0	653262848	57	4904
2026-01-03 00:27:13.11	290.12	50.62	-43.0	-45.6	17.8	0.00e+00	0	43	0	654311424	57	4878
2026-01-03 00:27:14.56	289.18	50.57	-42.5	-45.0	18.3	0.00e+00	0	43	0	657457152	57	4547
2026-01-03 00:27:15.28	288.72	50.54	-42.6	-45.0	18.2	0.00e+00	0	43	0	658505728	56	4861
2026-01-03 00:27:16.64	287.84	50.47	-42.5	-45.0	18.3	0.00e+00	0	43	0	660602880	56	4820
2026-01-03 00:27:17.36	287.38	50.44	-42.8	-45.4	17.9	0.00e+00	0	43	0	662700032	56	5052
2026-01-03 00:27:18.65	286.55	50.37	-43.0	-45.5	17.8	0.00e+00	0	43	0	664797184	56	5150
2026-01-03 00:27:19.70	285.89	50.31	-43.1	-45.7	17.7	0.00e+00	0	43	0	666894336	56	5237
2026-01-03 00:27:20.58	285.33	50.25	-43.0	-45.6	17.7	0.00e+00	0	43	0	667942912	56	5183
2026-01-03 00:27:21.72	284.61	50.18	-43.0	-45.6	17.8	0.00e+00	0	43	0	671088640	56	5170
2026-01-03 00:27:22.58	284.07	50.12	-42.9	-45.5	17.8	0.00e+00	0	43	0	672137216	56	5126
2026-01-03 00:27:23.72	283.35	50.03	-42.9	-45.4	17.8	0.00e+00	0	43	0	674234368	56	5094
2026-01-03 00:27:24.58	282.82	49.97	-42.8	-45.3	18.0	0.00e+00	0	43	0	676331520	56	5002
2026-01-03 00:27:25.73	282.11	49.88	-42.9	-45.4	17.8	0.00e+00	0	43	0	678428672	56	5079
2026-01-03 00:27:26.62	281.56	49.80	-43.1	-45.7	17.6	0.00e+00	0	43	0	679477248	56	5221
2026-01-03 00:27:27.83	280.82	49.70	-43.3	-46.0	17.3	0.00e+00	0	43	0	681574400	57	5118
2026-01-03 00:27:28.69	280.29	49.62	-43.2	-45.9	17.3	0.00e+00	0	43	0	683671552	57	5099
2026-01-03 00:27:30.03	279.48	49.50	-43.2	-45.9	17.4	0.00e+00	0	43	0	685768704	57	5055
2026-01-03 00:27:30.75	279.05	49.43	-43.3	-46.0	17.3	0.00e+00	0	43	0	687865856	57	5158
2026-01-03 00:27:32.21	278.18	49.28	-43.3	-46.0	17.4	0.00e+00	0	43	0	689963008	57	5114
2026-01-03 00:27:32.93	277.75	49.20	-43.4	-46.0	17.3	0.00e+00	0	43	0	692060160	57	5156
2026-01-03 00:27:34.28	276.96	49.06	-43.4	-46.1	17.3	0.00e+00	0	43	0	694157312	57	5161
2026-01-03 00:27:35.00	276.54	48.98	-43.6	-46.4	16.9	0.00e+00	0	43	0	695205888	57	5365
2026-01-03 00:27:36.29	275.79	48.84	-44.2	-47.2	16.1	0.00e+00	0	43	0	698351616	59	5248
2026-01-03 00:27:37.00	275.38	48.75	-44.5	-47.6	15.7	0.00e+00	0	43	0	699400192	59	5515
2026-01-03 00:27:38.29	274.64	48.60	-44.6	-47.8	15.6	0.00e+00	0	43	0	701497344	60	5297
2026-01-03 00:27:39.01	274.24	48.51	-44.2	-47.2	16.1	0.00e+00	0	43	0	702545920	60	4970
2026-01-03 00:27:40.30	273.51	48.35	-43.9	-46.8	16.5	0.00e+00	0	43	0	705691648	59	5025
2026-01-03 00:27:41.02	273.11	48.26	-44.0	-46.9	16.4	0.00e+00	0	43	0	706740224	59	5050
2026-01-03 00:27:42.30	272.40	48.10	-44.1	-47.1	16.3	0.00e+00	0	43	0	708837376	59	5160
2026-01-03 00:27:43.16	271.93	47.98	-44.1	-47.1	16.2	0.00e+00	0	43	0	710934528	59	5203
2026-01-03 00:27:44.62	271.14	47.79	-44.4	-47.5	15.9	0.00e+00	0	43	0	713031680	59	5441
2026-01-03 00:27:45.34	270.75	47.69	-44.6	-47.8	15.5	0.00e+00	0	43	0	715128832	59	5612
2026-01-03 00:27:46.82	269.96	47.48	-44.6	-47.9	15.4	0.00e+00	0	43	0	717225984	60	5350
2026-01-03 00:27:47.54	269.59	47.38	-44.7	-48.0	15.4	0.00e+00	0	43	0	719323136	60	5429
2026-01-03 00:27:48.83	268.91	47.19	-44.6	-47.8	15.6	0.00e+00	0	43	0	721420288	60	5309
2026-01-03 00:27:49.54	268.54	47.09	-44.4	-47.5	15.9	0.00e+00	0	43	0	722468864	60	5136
2026-01-03 00:27:50.83	267.88	46.90	-44.0	-46.9	16.5	0.00e+00	0	43	0	725614592	59	5050
2026-01-03 00:27:51.55	267.52	46.79	-43.8	-46.7	16.7	0.00e+00	0	43	0	726663168	59	4928
2026-01-03 00:27:52.84	266.87	46.59	-43.6	-46.4	16.9	0.00e+00	0	43	0	728760320	59	4775
2026-01-03 00:27:53.55	266.52	46.49	-43.5	-46.3	17.1	0.00e+00	0	43	0	729808896	58	4984
2026-01-03 00:27:54.85	265.88	46.28	-43.6	-46.3	17.0	0.00e+00	0	43	0	732954624	58	5004
2026-01-03 00:27:55.61	265.51	46.16	-43.7	-46.4	16.8	0.00e+00	0	43	0	734003200	58	5095
2026-01-03 00:27:56.90	264.88	45.96	-43.8	-46.6	16.7	0.00e+00	0	43	0	736100352	58	5213
2026-01-03 00:27:57.62	264.54	45.84	-43.8	-46.6	16.7	0.00e+00	0	43	0	738197504	58	5161
2026-01-03 00:27:58.90	263.93	45.63	-43.5	-46.3	17.0	0.00e+00	0	43	0	740294656	58	5018
2026-01-03 00:27:59.62	263.60	45.52	-43.3	-46.0	17.3	0.00e+00	0	43	0	741343232	58	4858
2026-01-03 00:28:00.91	263.00	45.30	-43.3	-46.0	17.3	0.00e+00	0	43	0	744488960	58	4829
2026-01-03 00:28:01.63	262.67	45.18	-43.2	-45.8	17.4	0.00e+00	0	43	0	745537536	58	4744
2026-01-03 00:28:02.91	262.09	44.97	-43.0	-45.6	17.7	0.00e+00	0	43	0	747634688	58	4631
2026-01-03 00:28:03.63	261.77	44.85	-43.1	-45.6	17.6	0.00e+00	0	43	0	748683264	57	4923
2026-01-03 00:28:04.98	261.17	44.62	-43.3	-46.0	17.3	0.00e+00	0	43	0	751828992	57	5146
2026-01-03 00:28:05.70	260.85	44.49	-43.5	-46.3	17.0	0.00e+00	0	43	0	752877568	57	5313
2026-01-03 00:28:07.05	260.27	44.26	-43.5	-46.3	17.0	0.00e+00	0	43	0	756023296	57	5316
2026-01-03 00:28:07.77	259.96	44.13	-43.4	-46.1	17.2	0.00e+00	0	43	0	757071872	57	5210
2026-01-03 00:28:09.06	259.41	43.91	-43.1	-45.7	17.6	0.00e+00	0	43	0	759169024	57	4958
2026-01-03 00:28:09.77	259.11	43.78	-42.9	-45.4	17.8	0.00e+00	0	43	0	760217600	57	4803
2026-01-03 00:28:11.06	258.58	43.55	-42.9	-45.4	17.8	0.00e+00	0	43	0	763363328	57	4785
2026-01-03 00:28:11.78	258.28	43.43	-43.0	-45.6	17.7	0.00e+00	0	43	0	764411904	57	4878
2026-01-03 00:28:13.07	257.76	43.20	-43.2	-45.9	17.4	0.00e+00	0	43	0	766509056	57	5076
2026-01-03 00:28:13.78	257.47	43.07	-43.4	-46.1	17.2	0.00e+00	0	43	0	768606208	57	5204
2026-01-03 00:28:15.07	256.96	42.84	-43.6	-46.3	17.0	0.00e+00	0	43	0	770703360	57	5332
2026-01-03 00:28:15.91	256.63	42.69	-43.7	-46.5	16.8	0.00e+00	0	43	0	771751936	57	5418
2026-01-03 00:28:17.06	256.19	42.48	-43.6	-46.3	17.0	0.00e+00	0	43	0	774897664	58	5037
2026-01-03 00:28:17.92	255.86	42.32	-43.4	-46.2	17.1	0.00e+00	0	43	0	775946240	58	4955
2026-01-03 00:28:19.06	255.42	42.11	-43.0	-45.6	17.7	0.00e+00	0	43	0	778043392	57	4893
2026-01-03 00:28:19.92	255.10	41.96	-42.6	-45.1	18.1	0.00e+00	0	43	0	780140544	57	4635
2026-01-03 00:28:21.07	254.68	41.74	-42.6	-45.1	18.2	0.00e+00	0	43	0	782237696	57	4642
2026-01-03 00:28:21.93	254.36	41.59	-42.6	-45.1	18.2	0.00e+00	0	43	0	783286272	57	4624
2026-01-03 00:28:23.09	253.94	41.37	-43.0	-45.6	17.7	0.00e+00	0	43	0	785383424	57	4872
2026-01-03 00:28:23.95	253.63	41.21	-43.3	-45.9	17.4	0.00e+00	0	43	0	787480576	57	5056
2026-01-03 00:28:25.09	253.23	41.00	-43.4	-46.2	17.1	0.00e+00	0	43	0	789577728	57	5223
2026-01-03 00:28:25.95	252.93	40.84	-43.2	-45.8	17.4	0.00e+00	0	43	0	790626304	57	5028
2026-01-03 00:28:27.10	252.53	40.63	-43.1	-45.7	17.5	0.00e+00	0	43	0	792723456	57	4966
2026-01-03 00:28:27.96	252.24	40.47	-43.0	-45.6	17.6	0.00e+00	0	43	0	794820608	57	4926
2026-01-03 00:28:29.11	251.85	40.26	-43.1	-45.8	17.5	0.00e+00	0	43	0	796917760	57	5006
2026-01-03 00:28:30.01	251.55	40.09	-43.4	-46.1	17.1	0.00e+00	0	43	0	799014912	57	5218
2026-01-03 00:28:31.02	251.22	39.90	-43.6	-46.4	16.9	0.00e+00	0	43	0	800063488	57	5354
2026-01-03 00:28:32.02	250.89	39.72	-43.7	-46.4	16.8	0.00e+00	0	43	0	802160640	58	5091
2026-01-03 00:28:33.02	250.57	39.53	-43.8	-46.6	16.6	0.00e+00	0	43	0	804257792	58	5202
2026-01-03 00:28:34.02	250.25	39.34	-43.8	-46.6	16.7	0.00e+00	0	43	0	806354944	58	5185
2026-01-03 00:28:35.02	249.93	39.16	-43.8	-46.7	16.6	0.00e+00	0	43	0	808452096	58	5236
2026-01-03 00:28:36.03	249.62	38.97	-43.8	-46.7	16.6	0.00e+00	0	43	0	809500672	58	5220
2026-01-03 00:28:37.03	249.31	38.78	-43.9	-46.9	16.4	0.00e+00	0	43	0	811597824	58	5370
2026-01-03 00:28:38.03	249.01	38.60	-44.1	-47.1	16.2	0.00e+00	0	43	0	813694976	58	5481
2026-01-03 00:28:39.03	248.70	38.41	-44.0	-47.0	16.2	0.00e+00	0	43	0	815792128	58	5460
2026-01-03 00:28:40.04	248.40	38.22	-43.9	-46.8	16.5	0.00e+00	0	43	0	817889280	58	5317
2026-01-03 00:28:41.04	248.11	38.04	-44.0	-46.9	16.4	0.00e+00	0	43	0	818937856	58	5388
2026-01-03 00:28:42.04	247.82	37.85	-44.1	-47.1	16.2	0.00e+00	0	43	0	821035008	58	5503
2026-01-03 00:28:43.05	247.53	37.66	-44.6	-47.8	15.5	0.00e+00	0	43	0	823132160	59	5602
2026-01-03 00:28:44.05	247.24	37.48	-44.6	-47.8	15.4	0.00e+00	0	43	0	825229312	59	5632
2026-01-03 00:28:45.05	246.96	37.29	-44.6	-47.9	15.4	0.00e+00	0	43	0	826277888	60	5373
2026-01-03 00:28:46.05	246.69	37.11	-44.6	-47.9	15.4	0.00e+00	0	43	0	828375040	60	5356
2026-01-03 00:28:47.05	246.41	36.92	-44.7	-48.0	15.3	0.00e+00	0	43	0	830472192	60	5439
2026-01-03 00:28:48.06	246.14	36.74	-44.6	-47.9	15.4	0.00e+00	0	43	0	832569344	60	5349
2026-01-03 00:28:49.06	245.87	36.56	-44.7	-48.1	15.3	0.00e+00	0	43	0	834666496	60	5485
2026-01-03 00:28:50.06	245.60	36.37	-44.7	-48.1	15.2	0.00e+00	0	43	0	836763648	60	5488
2026-01-03 00:28:51.08	245.34	36.18	-45.0	-48.5	14.8	0.00e+00	0	43	0	837812224	60	5728
2026-01-03 00:28:52.08	245.08	36.00	-45.1	-48.7	14.6	0.00e+00	0	43	0	839909376	60	5864
2026-01-03 00:28:53.18	244.79	35.80	-45.2	-48.7	14.6	0.00e+00	0	43	0	842006528	61	5579
2026-01-03 00:28:54.04	244.58	35.64	-45.0	-48.5	14.8	7.00e-07	0	43	0	844103680	61	5449
2026-01-03 00:28:55.19	244.29	35.44	-44.9	-48.3	14.9	7.00e-07	0	43	0	846200832	61	5328
2026-01-03 00:28:56.16	244.05	35.26	-44.6	-47.8	15.5	0.00e+00	0	43	0	847249408	61	5041
2026-01-03 00:28:57.35	243.76	35.05	-44.6	-47.8	15.5	0.00e+00	0	43	0	850395136	61	5013
2026-01-03 00:28:58.25	243.54	34.88	-44.5	-47.8	15.5	0.00e+00	0	43	0	851443712	61	4991
2026-01-03 00:28:59.39	243.27	34.68	-44.7	-48.1	15.2	0.00e+00	0	43	0	853540864	61	5197
2026-01-03 00:29:00.32	243.05	34.51	-44.8	-48.3	15.1	0.00e+00	0	43	0	855638016	61	5282
2026-01-03 00:29:01.32	242.81	34.33	-45.0	-48.5	14.9	0.00e+00	0	43	0	857735168	61	5410
2026-01-03 00:29:02.32	242.58	34.15	-45.1	-48.7	14.6	0.00e+00	0	43	0	858783744	61	5585
2026-01-03 00:29:03.33	242.35	33.97	-45.4	-49.2	14.1	1.50e-06	0	43	0	860880896	61	5883
2026-01-03 00:29:04.33	242.12	33.80	-45.2	-48.8	14.5	0.00e+00	0	43	0	862978048	61	5606
2026-01-03 00:29:05.33	241.90	33.62	-45.2	-48.7	14.6	0.00e+00	0	43	0	865075200	61	5589
2026-01-03 00:29:06.33	241.68	33.44	-45.0	-48.6	14.7	7.00e-07	0	43	0	867172352	61	5469
2026-01-03 00:29:07.33	241.46	33.27	-45.0	-48.5	14.9	0.00e+00	0	43	0	868220928	61	5407
2026-01-03 00:29:08.34	241.24	33.09	-44.9	-48.4	14.9	0.00e+00	0	43	0	870318080	61	5346
2026-01-03 00:29:09.34	241.03	32.92	-45.0	-48.5	14.9	0.00e+00	0	43	0	872415232	61	5422
2026-01-03 00:29:10.34	240.81	32.74	-44.9	-48.2	15.1	0.00e+00	0	43	0	874512384	61	5254
2026-01-03 00:29:11.35	240.60	32.57	-45.0	-48.4	15.0	0.00e+00	0	43	0	876609536	61	5373
2026-01-03 00:29:12.35	240.39	32.39	-44.7	-48.0	15.3	0.00e+00	0	43	0	877658112	61	5119
2026-01-03 00:29:13.35	240.19	32.22	-44.7	-48.0	15.2	0.00e+00	0	43	0	879755264	61	5155
2026-01-03 00:29:14.36	239.98	32.05	-44.9	-48.3	15.0	7.00e-07	0	43	0	881852416	61	5318
2026-01-03 00:29:15.47	239.76	31.86	-44.9	-48.3	14.9	0.00e+00	0	43	0	883949568	61	5316
2026-01-03 00:29:16.35	239.59	31.71	-45.0	-48.5	14.8	7.00e-07	0	43	0	884998144	61	5420
2026-01-03 00:29:17.72	239.32	31.47	-45.1	-48.5	14.8	0.00e+00	0	43	0	888143872	61	5456
2026-01-03 00:29:18.43	239.18	31.35	-45.0	-48.4	14.9	7.00e-07	0	43	0	889192448	61	5347
2026-01-03 00:29:19.72	238.93	31.14	-44.8	-48.2	15.1	0.00e+00	0	43	0	892338176	61	5220
2026-01-03 00:29:20.43	238.80	31.02	-44.9	-48.3	14.9	0.00e+00	0	43	0	893386752	61	5295
2026-01-03 00:29:21.72	238.55	30.80	-44.9	-48.3	14.9	7.00e-07	0	43	0	895483904	61	5324
2026-01-03 00:29:22.43	238.42	30.68	-44.9	-48.4	14.9	0.00e+00	0	43	0	896532480	61	5349
2026-01-03 00:29:23.72	238.18	30.47	-44.8	-48.2	15.1	0.00e+00	0	43	0	899678208	61	5262
2026-01-03 00:29:24.56	238.03	30.33	-44.7	-48.0	15.2	0.00e+00	0	43	0	900726784	61	5143
2026-01-03 00:29:25.71	237.82	30.14	-44.5	-47.8	15.4	0.00e+00	0	43	0	902823936	61	5022
2026-01-03 00:29:26.57	237.67	30.00	-44.5	-47.8	15.4	0.00e+00	0	43	0	904921088	61	5001
2026-01-03 00:29:27.71	237.47	29.81	-44.4	-47.7	15.6	0.00e+00	0	43	0	907018240	60	5229
2026-01-03 00:29:28.84	237.27	29.63	-44.6	-48.0	15.3	0.00e+00	0	43	0	909115392	60	5404
2026-01-03 00:29:29.70	237.12	29.49	-44.4	-47.6	15.7	0.00e+00	0	43	0	910163968	60	5180
2026-01-03 00:29:30.85	236.93	29.30	-44.2	-47.4	15.9	0.00e+00	0	43	0	912261120	60	5068
2026-01-03 00:29:31.71	236.78	29.16	-44.2	-47.4	15.9	0.00e+00	0	43	0	914358272	60	5044
2026-01-03 00:29:32.85	236.59	28.98	-44.3	-47.4	15.8	0.00e+00	0	43	0	916455424	60	5079
2026-01-03 00:29:33.71	236.45	28.84	-44.3	-47.4	15.9	0.00e+00	0	43	0	918552576	60	5076
2026-01-03 00:29:34.86	236.26	28.66	-44.2	-47.3	15.9	0.00e+00	0	43	0	920649728	60	5041
2026-01-03 00:29:35.72	236.12	28.52	-44.1	-47.2	16.0	0.00e+00	0	43	0	921698304	60	4967
2026-01-03 00:29:36.94	235.92	28.33	-43.9	-46.9	16.3	0.00e+00	0	43	0	923795456	59	5051
2026-01-03 00:29:37.80	235.78	28.19	-43.9	-46.7	16.4	0.00e+00	0	43	0	925892608	59	4983
2026-01-03 00:29:38.95	235.60	28.01	-43.7	-46.5	16.6	0.00e+00	0	43	0	927989760	59	4861
2026-01-03 00:29:39.81	235.47	27.88	-43.7	-46.6	16.6	0.00e+00	0	43	0	929038336	59	4885
2026-01-03 00:29:40.96	235.29	27.70	-43.8	-46.7	16.5	0.00e+00	0	43	0	932184064	59	4929
2026-01-03 00:29:41.81	235.16	27.57	-43.8	-46.7	16.5	0.00e+00	0	43	0	933232640	59	4941
2026-01-03 00:29:42.95	234.99	27.39	-43.8	-46.7	16.5	0.00e+00	0	43	0	935329792	59	4932
2026-01-03 00:29:43.82	234.86	27.26	-43.8	-46.7	16.5	0.00e+00	0	43	0	937426944	59	4958
2026-01-03 00:29:44.96	234.69	27.08	-43.8	-46.7	16.5	0.00e+00	0	43	0	939524096	59	4951
2026-01-03 00:29:45.82	234.56	26.95	-43.8	-46.6	16.5	0.00e+00	0	43	0	940572672	59	4920
2026-01-03 00:29:46.96	234.40	26.78	-43.6	-46.4	16.8	0.00e+00	0	43	0	942669824	59	4795
2026-01-03 00:29:47.82	234.27	26.65	-43.7	-46.5	16.7	0.00e+00	0	43	0	944766976	59	4859
2026-01-03 00:29:48.97	234.11	26.48	-43.6	-46.4	16.8	0.00e+00	0	43	0	946864128	59	4769
2026-01-03 00:29:49.83	233.99	26.35	-43.5	-46.3	16.9	0.00e+00	0	43	0	947912704	59	4726
2026-01-03 00:29:51.06	233.81	26.17	-43.5	-46.3	16.8	0.00e+00	0	43	0	951058432	59	4744
2026-01-03 00:29:51.92	233.69	26.04	-43.6	-46.4	16.7	0.00e+00	0	43	0	952107008	59	4814
2026-01-03 00:29:53.06	233.54	25.87	-43.8	-46.7	16.5	0.00e+00	0	43	0	954204160	59	4944
2026-01-03 00:29:53.92	233.42	25.74	-43.8	-46.7	16.4	0.00e+00	0	43	0	956301312	59	4975
2026-01-03 00:29:55.07	233.26	25.58	-43.8	-46.7	16.4	0.00e+00	0	43	0	958398464	59	4983
2026-01-03 00:29:55.93	233.15	25.45	-43.9	-46.9	16.3	0.00e+00	0	43	0	959447040	59	5050
2026-01-03 00:29:57.07	233.00	25.29	-43.8	-46.8	16.4	0.00e+00	0	43	0	961544192	59	5013
2026-01-03 00:29:58.09	232.86	25.14	-43.7	-46.6	16.5	0.00e+00	0	43	0	963641344	59	4914
2026-01-03 00:29:59.28	232.71	24.97	-43.7	-46.5	16.6	0.00e+00	0	43	0	965738496	59	4862
2026-01-03 00:30:00.15	232.60	24.84	-43.7	-46.5	16.6	0.00e+00	0	43	0	967835648	59	4854
2026-01-03 00:30:01.50	232.43	24.65	-43.6	-46.5	16.7	0.00e+00	0	43	0	969932800	59	4816
2026-01-03 00:30:02.21	232.34	24.55	-43.5	-46.2	16.9	0.00e+00	0	43	0	972029952	58	4970
2026-01-03 00:30:03.51	232.17	24.37	-43.3	-46.0	17.1	0.00e+00	0	43	0	974127104	58	4841
2026-01-03 00:30:04.22	232.09	24.27	-43.3	-46.1	17.1	0.00e+00	0	43	0	975175680	58	4879
2026-01-03 00:30:05.51	231.93	24.09	-43.3	-46.0	17.1	0.00e+00	0	43	0	977272832	58	4823
2026-01-03 00:30:06.23	231.84	23.98	-43.2	-45.9	17.2	0.00e+00	0	43	0	979369984	58	4808
2026-01-03 00:30:07.52	231.69	23.81	-43.3	-46.0	17.1	0.00e+00	0	43	0	981467136	58	4847
2026-01-03 00:30:08.25	231.60	23.70	-43.3	-46.1	17.0	0.00e+00	0	43	0	982515712	58	4874
2026-01-03 00:30:09.54	231.45	23.53	-43.3	-46.0	17.1	0.00e+00	0	43	0	985661440	58	4867
2026-01-03 00:30:10.25	231.36	23.43	-43.4	-46.1	17.0	0.00e+00	0	43	0	986710016	58	4921
2026-01-03 00:30:11.54	231.21	23.25	-43.3	-46.1	17.0	0.00e+00	0	43	0	988807168	58	4911
2026-01-03 00:30:12.26	231.13	23.16	-43.3	-46.1	17.0	0.00e+00	0	43	0	990904320	58	4914
2026-01-03 00:30:13.58	230.98	22.98	-43.3	-46.1	17.0	0.00e+00	0	43	0	993001472	58	4904
2026-01-03 00:30:14.29	230.90	22.88	-43.2	-46.0	17.1	0.00e+00	0	43	0	994050048	58	4857
2026-01-03 00:30:15.65	230.75	22.70	-43.2	-45.9	17.2	0.00e+00	0	43	0	997195776	58	4801
2026-01-03 00:30:16.36	230.67	22.61	-43.3	-46.0	17.1	0.00e+00	0	43	0	998244352	58	4860
2026-01-03 00:30:17.65	230.53	22.43	-43.3	-46.0	17.1	0.00e+00	0	43	0	1000341504	58	4866
2026-01-03 00:30:18.67	230.41	22.30	-43.2	-46.0	17.1	0.00e+00	0	43	0	1002438656	58	4832
2026-01-03 00:30:20.01	230.27	22.12	-43.3	-46.1	17.0	0.00e+00	0	43	0	1004535808	58	4873
2026-01-03 00:30:20.73	230.19	22.03	-43.3	-46.1	17.0	0.00e+00	0	43	0	1006632960	58	4921
2026-01-03 00:30:22.02	230.06	21.86	-43.3	-46.1	17.0	0.00e+00	0	43	0	1008730112	58	4918
2026-01-03 00:30:22.75	229.98	21.77	-43.3	-46.2	17.0	0.00e+00	0	43	0	1009778688	58	4927
2026-01-03 00:30:24.04	229.84	21.60	-43.3	-46.1	17.0	0.00e+00	0	43	0	1012924416	58	4895
2026-01-03 00:30:24.75	229.77	21.51	-43.3	-46.1	17.0	0.00e+00	0	43	0	1013972992	58	4880
2026-01-03 00:30:26.04	229.64	21.34	-43.2	-46.0	17.1	0.00e+00	0	43	0	1016070144	58	4844
2026-01-03 00:30:26.75	229.57	21.25	-43.3	-46.0	17.1	0.00e+00	0	43	0	1017118720	58	4850
2026-01-03 00:30:28.09	229.43	21.08	-43.2	-45.9	17.1	0.00e+00	0	43	0	1020264448	58	4801
2026-01-03 00:30:28.81	229.36	20.99	-43.2	-45.9	17.2	0.00e+00	0	43	0	1021313024	58	4773
2026-01-03 00:30:30.16	229.23	20.82	-43.3	-46.0	17.1	0.00e+00	0	43	0	1024458752	58	4841
2026-01-03 00:30:30.88	229.16	20.73	-43.3	-46.0	17.0	0.00e+00	0	43	0	1025507328	58	4870
2026-01-03 00:30:32.17	229.03	20.57	-43.3	-46.1	17.0	0.00e+00	0	43	0	1027604480	58	4881
2026-01-03 00:30:32.89	228.96	20.48	-43.3	-46.1	17.0	0.00e+00	0	43	0	1028653056	58	4878
2026-01-03 00:30:34.29	228.83	20.31	-43.3	-46.1	17.0	0.00e+00	0	43	0	1031798784	58	4885
2026-01-03 00:30:35.00	228.76	20.22	-43.3	-46.1	17.0	0.00e+00	0	43	0	1032847360	58	4893
2026-01-03 00:30:36.29	228.64	20.06	-43.4	-46.2	16.9	0.00e+00	0	43	0	1034944512	58	4942
2026-01-03 00:30:37.00	228.57	19.97	-43.3	-46.1	16.9	0.00e+00	0	43	0	1037041664	58	4901
2026-01-03 00:30:38.29	228.45	19.82	-43.3	-46.1	17.0	0.00e+00	0	43	0	1039138816	58	4893
2026-01-03 00:30:39.00	228.39	19.73	-43.4	-46.1	16.9	0.00e+00	0	43	0	1040187392	58	4925
2026-01-03 00:30:40.29	228.27	19.58	-43.3	-46.0	17.0	0.00e+00	0	43	0	1043333120	58	4854
2026-01-03 00:30:41.01	228.20	19.49	-43.2	-45.9	17.1	0.00e+00	0	43	0	1044381696	58	4808
2026-01-03 00:30:42.29	228.09	19.34	-43.3	-46.0	17.0	0.00e+00	0	43	0	1046478848	58	4863
2026-01-03 00:30:43.08	228.02	19.24	-43.1	-45.8	17.2	0.00e+00	0	43	0	1048576000	58	4756
2026-01-03 00:30:44.63	227.88	19.06	-43.2	-45.9	17.2	0.00e+00	0	43	0	1050673152	58	4766
2026-01-03 00:30:45.34	227.82	18.97	-43.2	-45.9	17.1	0.00e+00	0	43	0	1052770304	58	4795
2026-01-03 00:30:46.73	227.70	18.81	-43.2	-45.9	17.1	0.00e+00	0	43	0	1054867456	58	4809
2026-01-03 00:30:47.44	227.64	18.73	-43.2	-46.0	17.1	0.00e+00	0	43	0	1055916032	58	4842
2026-01-03 00:30:48.73	227.53	18.58	-43.3	-46.1	17.0	0.00e+00	0	43	0	1059061760	58	4875
2026-01-03 00:30:49.45	227.47	18.49	-43.3	-46.0	17.0	0.00e+00	0	43	0	1060110336	58	4861
2026-01-03 00:30:50.74	227.36	18.35	-43.4	-46.3	16.8	0.00e+00	0	43	0	1062207488	58	4989
2026-01-03 00:30:51.46	227.30	18.26	-43.4	-46.2	16.8	0.00e+00	0	43	0	1064304640	58	4983
2026-01-03 00:30:52.75	227.20	18.12	-43.6	-46.4	16.6	0.00e+00	0	43	0	1066401792	58	5073
2026-01-03 00:30:53.46	227.14	18.03	-43.7	-46.6	16.4	0.00e+00	0	43	0	1067450368	58	5185
2026-01-03 00:30:54.75	227.03	17.89	-43.8	-46.7	16.3	0.00e+00	0	43	0	1070596096	58	5251
2026-01-03 00:30:55.48	226.97	17.81	-43.8	-46.8	16.2	0.00e+00	0	43	0	1071644672	58	5290
2026-01-03 00:30:56.77	226.87	17.66	-43.9	-46.9	16.1	0.00e+00	0	43	0	1073741824	58	5347
2026-01-03 00:30:57.52	226.81	17.58	-43.9	-47.0	16.1	0.00e+00	0	43	0	1074790400	58	5404
2026-01-03 00:30:58.81	226.71	17.43	-43.9	-47.0	16.1	0.00e+00	0	43	0	1077936128	58	5416
2026-01-03 00:30:59.59	226.65	17.34	-43.8	-46.7	16.3	0.00e+00	0	43	0	1078984704	58	5262
2026-01-03 00:31:00.88	226.55	17.20	-43.8	-46.8	16.2	0.00e+00	0	43	0	1081081856	58	5289
2026-01-03 00:31:01.59	226.49	17.12	-43.8	-46.8	16.2	0.00e+00	0	43	0	1083179008	58	5317
2026-01-03 00:31:03.27	226.37	16.94	-43.8	-46.8	16.3	0.00e+00	0	43	0	1086324736	58	5289
2026-01-03 00:31:03.84	226.32	16.88	-43.8	-46.7	16.3	0.00e+00	0	43	0	1087373312	58	5266
2026-01-03 00:31:05.44	226.20	16.70	-43.7	-46.6	16.3	0.00e+00	0	43	0	1090519040	58	5217
2026-01-03 00:31:06.02	226.16	16.64	-43.8	-46.7	16.3	0.00e+00	0	43	0	1091567616	58	5267
2026-01-03 00:31:07.60	226.04	16.47	-43.6	-46.5	16.5	0.00e+00	0	43	0	1093664768	58	5121
2026-01-03 00:31:08.20	226.00	16.40	-43.8	-46.7	16.3	0.00e+00	0	43	0	1094713344	58	5248
2026-01-03 00:31:09.77	225.88	16.24	-43.7	-46.7	16.3	0.00e+00	0	43	0	1097859072	58	5220
2026-01-03 00:31:10.38	225.84	16.17	-43.8	-46.6	16.3	0.00e+00	0	43	0	1098907648	58	5216
2026-01-03 00:31:11.95	225.73	16.01	-43.8	-46.7	16.3	0.00e+00	0	43	0	1102053376	58	5226
2026-01-03 00:31:12.52	225.69	15.94	-43.8	-46.7	16.3	0.00e+00	0	43	0	1103101952	58	5263
2026-01-03 00:31:14.10	225.58	15.78	-43.6	-46.5	16.5	0.00e+00	0	43	0	1106247680	58	5130
2026-01-03 00:31:15.03	225.51	15.68	-43.6	-46.4	16.5	0.00e+00	0	43	0	1108344832	58	5097
2026-01-03 00:31:16.04	225.44	15.58	-43.6	-46.5	16.5	0.00e+00	0	43	0	1110441984	58	5109
2026-01-03 00:31:17.04	225.37	15.47	-43.6	-46.5	16.5	0.00e+00	0	43	0	1111490560	58	5102
2026-01-03 00:31:18.04	225.30	15.37	-43.5	-46.4	16.5	0.00e+00	0	43	0	1113587712	58	5074
2026-01-03 00:31:19.04	225.24	15.27	-43.4	-46.3	16.7	0.00e+00	0	43	0	1115684864	58	4987
2026-01-03 00:31:20.05	225.17	15.16	-43.5	-46.4	16.6	0.00e+00	0	43	0	1117782016	58	5070
2026-01-03 00:31:21.05	225.10	15.06	-43.5	-46.3	16.6	0.00e+00	0	43	0	1118830592	58	5018
2026-01-03 00:31:22.05	225.04	14.96	-43.5	-46.4	16.5	0.00e+00	0	43	0	1120927744	58	5076
2026-01-03 00:31:23.06	224.97	14.86	-43.5	-46.4	16.6	0.00e+00	0	43	0	1123024896	58	5054
2026-01-03 00:31:24.06	224.90	14.75	-43.6	-46.4	16.5	0.00e+00	0	43	0	1125122048	58	5089
2026-01-03 00:31:25.06	224.84	14.65	-43.6	-46.4	16.5	0.00e+00	0	43	0	1127219200	58	5099
2026-01-03 00:31:26.06	224.77	14.55	-43.6	-46.5	16.4	0.00e+00	0	43	0	1128267776	58	5135
2026-01-03 00:31:27.06	224.71	14.45	-43.7	-46.6	16.3	0.00e+00	0	43	0	1130364928	58	5215
2026-01-03 00:31:28.07	224.65	14.35	-43.7	-46.7	16.2	0.00e+00	0	43	0	1132462080	58	5239
2026-01-03 00:31:29.07	224.58	14.25	-43.8	-46.7	16.2	0.00e+00	0	43	0	1134559232	58	5260
2026-01-03 00:31:30.07	224.52	14.15	-43.9	-47.0	15.9	0.00e+00	0	43	0	1136656384	58	5425
2026-01-03 00:31:31.07	224.46	14.06	-44.0	-47.0	15.9	0.00e+00	0	43	0	1137704960	58	5436
2026-01-03 00:31:32.08	224.40	13.96	-44.1	-47.2	15.8	0.00e+00	0	43	0	1139802112	58	5538
2026-01-03 00:31:33.18	224.33	13.85	-44.2	-47.3	15.6	0.00e+00	0	43	0	1141899264	58	5613
2026-01-03 00:31:34.07	224.27	13.76	-44.1	-47.3	15.7	0.00e+00	0	43	0	1143996416	58	5603
2026-01-03 00:31:35.21	224.20	13.65	-44.2	-47.4	15.5	0.00e+00	0	43	0	1146093568	59	5354
2026-01-03 00:31:36.07	224.15	13.57	-44.2	-47.4	15.5	0.00e+00	0	43	0	1147142144	59	5362
2026-01-03 00:31:37.44	224.07	13.44	-44.2	-47.4	15.5	0.00e+00	0	43	0	1150287872	59	5398
2026-01-03 00:31:38.15	224.03	13.37	-44.3	-47.5	15.4	0.00e+00	0	43	0	1151336448	59	5416
2026-01-03 00:31:39.44	223.95	13.24	-44.2	-47.3	15.5	0.00e+00	0	43	0	1153433600	59	5337
2026-01-03 00:31:40.15	223.91	13.18	-44.1	-47.3	15.6	0.00e+00	0	43	0	1155530752	59	5301
2026-01-03 00:31:41.44	223.84	13.05	-44.2	-47.4	15.5	0.00e+00	0	43	0	1157627904	59	5347
2026-01-03 00:31:42.16	223.80	12.99	-44.2	-47.4	15.5	0.00e+00	0	43	0	1158676480	59	5349
2026-01-03 00:31:43.45	223.72	12.86	-44.0	-47.1	15.7	0.00e+00	0	43	0	1161822208	59	5212
2026-01-03 00:31:44.25	223.68	12.79	-44.0	-47.2	15.6	0.00e+00	0	43	0	1162870784	59	5257
2026-01-03 00:31:45.40	223.61	12.68	-44.0	-47.1	15.7	0.00e+00	0	43	0	1164967936	59	5208
2026-01-03 00:31:46.26	223.56	12.60	-44.0	-47.1	15.7	0.00e+00	0	43	0	1167065088	59	5217
2026-01-03 00:31:47.40	223.50	12.50	-44.0	-47.2	15.6	0.00e+00	0	43	0	1169162240	59	5260
2026-01-03 00:31:48.26	223.45	12.42	-44.1	-47.3	15.6	0.00e+00	0	43	0	1170210816	59	5292
2026-01-03 00:31:49.41	223.39	12.31	-44.0	-47.2	15.7	0.00e+00	0	43	0	1172307968	59	5253
2026-01-03 00:31:50.27	223.34	12.23	-44.1	-47.2	15.6	0.00e+00	0	43	0	1174405120	59	5276
2026-01-03 00:31:51.41	223.28	12.13	-44.1	-47.3	15.6	0.00e+00	0	43	0	1176502272	59	5281
2026-01-03 00:31:52.27	223.23	12.05	-44.1	-47.4	15.4	0.00e+00	0	43	0	1177550848	59	5366
2026-01-03 00:31:53.42	223.17	11.94	-44.1	-47.4	15.5	0.00e+00	0	43	0	1179648000	59	5359
2026-01-03 00:31:54.27	223.13	11.87	-44.2	-47.5	15.4	0.00e+00	0	43	0	1181745152	59	5415
2026-01-03 00:31:55.42	223.06	11.76	-44.2	-47.4	15.4	0.00e+00	0	43	0	1183842304	59	5396
2026-01-03 00:31:56.28	223.02	11.69	-44.2	-47.5	15.3	0.00e+00	0	43	0	1184890880	59	5453
2026-01-03 00:31:57.42	222.96	11.58	-44.2	-47.5	15.3	0.00e+00	0	43	0	1188036608	59	5461
2026-01-03 00:31:58.29	222.91	11.51	-44.2	-47.5	15.3	0.00e+00	0	43	0	1189085184	59	5436
2026-01-03 00:31:59.43	222.86	11.40	-44.2	-47.6	15.2	0.00e+00	0	43	0	1191182336	59	5516
2026-01-03 00:32:00.29	222.81	11.33	-44.2	-47.6	15.1	0.00e+00	0	43	0	1193279488	59	5527
2026-01-03 00:32:01.44	222.75	11.23	-44.3	-47.7	15.1	0.00e+00	0	43	0	1195376640	59	5577
2026-01-03 00:32:02.30	222.71	11.15	-44.3	-47.9	14.9	0.00e+00	0	43	0	1196425216	59	5667
2026-01-03 00:32:03.44	222.65	11.05	-44.2	-47.7	15.0	0.00e+00	0	43	0	1198522368	59	5565
2026-01-03 00:32:04.30	222.61	10.97	-44.2	-47.7	15.1	7.00e-07	0	43	0	1200619520	59	5582
2026-01-03 00:32:05.45	222.55	10.87	-44.2	-47.7	15.1	0.00e+00	0	43	0	1202716672	59	5557
2026-01-03 00:32:06.30	222.51	10.80	-44.1	-47.5	15.2	0.00e+00	0	43	0	1203765248	59	5463
2026-01-03 00:32:07.45	222.45	10.70	-44.2	-47.7	15.1	0.00e+00	0	43	0	1205862400	59	5557
2026-01-03 00:32:08.31	222.41	10.62	-44.2	-47.6	15.2	0.00e+00	0	43	0	1207959552	59	5484
2026-01-03 00:32:09.46	222.35	10.53	-44.2	-47.6	15.2	0.00e+00	0	43	0	1210056704	59	5479
2026-01-03 00:32:10.31	222.31	10.45	-44.2	-47.6	15.1	0.00e+00	0	43	0	1212153856	59	5515
2026-01-03 00:32:11.70	222.25	10.33	-44.2	-47.6	15.2	0.00e+00	0	43	0	1214251008	59	5486
2026-01-03 00:32:12.41	222.21	10.27	-44.1	-47.5	15.3	0.00e+00	0	43	0	1215299584	59	5413
2026-01-03 00:32:13.71	222.15	10.16	-44.0	-47.4	15.3	0.00e+00	0	43	0	1218445312	59	5359
2026-01-03 00:32:14.42	222.12	10.10	-44.0	-47.3	15.4	0.00e+00	0	43	0	1219493888	59	5329
2026-01-03 00:32:15.71	222.06	9.99	-44.0	-47.4	15.3	0.00e+00	0	43	0	1221591040	59	5366
2026-01-03 00:32:16.44	222.02	9.93	-44.0	-47.4	15.3	0.00e+00	0	43	0	1223688192	59	5376
2026-01-03 00:32:17.73	221.97	9.82	-44.0	-47.4	15.2	0.00e+00	0	43	0	1225785344	59	5383
2026-01-03 00:32:18.58	221.93	9.75	-44.0	-47.5	15.2	0.00e+00	0	43	0	1226833920	59	5447
2026-01-03 00:32:19.72	221.87	9.66	-44.0	-47.5	15.1	0.00e+00	0	43	0	1228931072	59	5455
2026-01-03 00:32:20.58	221.84	9.59	-44.0	-47.5	15.1	7.00e-07	0	43	0	1231028224	59	5457
2026-01-03 00:32:21.73	221.78	9.49	-44.0	-47.7	14.9	0.00e+00	0	43	0	1233125376	59	5547
2026-01-03 00:32:22.59	221.75	9.42	-44.0	-47.7	15.0	0.00e+00	0	43	0	1235222528	59	5546
2026-01-03 00:32:23.73	221.69	9.33	-43.8	-47.8	14.8	7.00e-07	0	43	0	1237319680	59	5596
2026-01-03 00:32:24.59	221.66	9.25	-43.8	-47.9	14.7	0.00e+00	0	43	0	1238368256	59	5662
2026-01-03 00:32:25.74	221.61	9.16	-43.8	-47.9	14.7	7.00e-07	0	43	0	1240465408	59	5678
2026-01-03 00:32:26.60	221.57	9.09	-43.9	-48.0	14.5	7.00e-07	0	43	0	1242562560	59	5770
2026-01-03 00:32:27.74	221.52	9.00	-46.2	-52.5	10.8	2.13e-05	0	43	0	1244659712	62	8098
2026-01-03 00:32:28.60	221.48	8.93	-48.5	-64.0	3.8	1.49e+00	0	43	104	1244659712	67	22863
2026-01-03 00:32:29.75	221.43	8.83	-49.1	-64.3	3.8	1.49e+00	0	43	104	1244659712	68	22288
