passes_logs/2026/01/03/T1/T1__20260103_010107_FENGYUN_3D_rec.log

#Pass ID: 20260103_010107_FENGYUN 3D
#Satellite: FENGYUN 3D
#Configuration: FENGYUN 3D
#almurnet v.1.7.20251203
#Start time: 2026-01-03 01:01:08

#Version: 2.0.20230620
#Station: T1
#Location: 37.570604 lon 55.790049 lat
#TLE: 1 43010U 17072A   26002.31768531  .00000715  00000+0  35975-3 0  9993
#TLE: 2 43010  98.9910 333.9388 0001871 131.0716 229.0622 14.19693418421454

#Time	Az	El	Level	Level2	SNR	BER	BlckErr	Temp	State	Recorded	gain1	gain2
2026-01-03 01:01:08.22	22.17	5.02	-47.6	-60.5	3.8	8.47e-01	0	41	0	0	66	16264
2026-01-03 01:01:09.22	22.21	5.09	-47.6	-60.5	3.8	8.46e-01	0	41	104	0	66	16261
2026-01-03 01:01:10.23	22.26	5.16	-47.6	-60.5	3.8	8.47e-01	0	41	104	0	66	16165
2026-01-03 01:01:11.23	22.30	5.23	-47.6	-60.5	3.8	8.47e-01	0	41	104	0	66	16146
2026-01-03 01:01:12.23	22.34	5.30	-47.6	-60.4	3.8	8.46e-01	0	41	104	0	66	16070
2026-01-03 01:01:13.24	22.39	5.37	-47.6	-60.4	3.8	8.47e-01	0	41	104	0	66	16061
2026-01-03 01:01:14.25	22.44	5.44	-47.7	-60.5	3.8	8.47e-01	0	41	104	0	66	16140
2026-01-03 01:01:15.25	22.48	5.51	-47.6	-60.5	3.8	8.47e-01	0	41	104	0	66	16211
2026-01-03 01:01:16.25	22.53	5.58	-47.6	-60.5	3.8	8.48e-01	0	41	104	0	66	16299
2026-01-03 01:01:17.26	22.57	5.65	-47.6	-60.6	3.8	8.47e-01	0	41	104	0	66	16454
2026-01-03 01:01:18.26	22.62	5.72	-47.6	-60.6	3.8	8.48e-01	0	41	104	0	66	16501
2026-01-03 01:01:19.27	22.66	5.79	-47.7	-60.7	3.8	8.46e-01	0	41	104	0	66	16541
2026-01-03 01:01:20.27	22.71	5.86	-47.7	-60.7	3.8	8.47e-01	0	41	104	0	66	16590
2026-01-03 01:01:21.27	22.76	5.93	-47.7	-60.7	3.8	8.47e-01	0	41	104	0	66	16626
2026-01-03 01:01:22.28	22.80	6.00	-47.6	-60.7	3.8	8.46e-01	0	41	104	0	66	16573
2026-01-03 01:01:23.28	22.85	6.07	-47.7	-60.7	3.8	8.48e-01	0	41	104	0	66	16552
2026-01-03 01:01:24.29	22.90	6.14	-47.6	-60.6	3.8	8.46e-01	0	41	104	0	66	16445
2026-01-03 01:01:25.29	22.95	6.21	-47.7	-60.6	3.8	8.46e-01	0	41	104	0	66	16343
2026-01-03 01:01:26.29	22.99	6.28	-47.6	-60.5	3.8	8.46e-01	0	41	104	0	66	16219
2026-01-03 01:01:27.30	23.04	6.36	-47.6	-60.4	3.8	8.48e-01	0	41	104	0	66	16055
2026-01-03 01:01:28.30	23.09	6.43	-47.6	-60.3	3.8	8.47e-01	0	41	104	0	66	15826
2026-01-03 01:01:29.31	23.14	6.50	-47.6	-60.2	3.8	8.48e-01	0	41	104	0	66	15652
2026-01-03 01:01:30.31	23.19	6.57	-47.6	-60.0	3.8	8.47e-01	0	41	104	0	66	15280
2026-01-03 01:01:31.31	23.23	6.64	-47.6	-59.9	3.8	8.46e-01	0	42	104	0	66	15122
2026-01-03 01:01:32.32	23.28	6.72	-47.6	-59.8	3.8	8.46e-01	0	42	104	0	66	15013
2026-01-03 01:01:33.32	23.33	6.79	-47.6	-59.8	3.8	8.47e-01	0	42	104	0	66	14944
2026-01-03 01:01:34.33	23.38	6.86	-47.6	-59.9	3.8	8.48e-01	0	42	104	0	66	15087
2026-01-03 01:01:35.33	23.43	6.93	-47.6	-60.0	3.8	8.47e-01	0	42	104	0	66	15374
2026-01-03 01:01:36.34	23.48	7.01	-47.6	-60.3	3.8	8.47e-01	0	42	104	0	66	15799
2026-01-03 01:01:37.34	23.53	7.08	-47.6	-60.4	3.8	8.48e-01	0	42	104	0	66	16073
2026-01-03 01:01:38.34	23.58	7.15	-47.7	-60.6	3.8	8.47e-01	0	42	104	0	66	16446
2026-01-03 01:01:39.35	23.63	7.23	-47.7	-60.7	3.8	8.48e-01	0	42	104	0	66	16600
2026-01-03 01:01:40.35	23.68	7.30	-47.7	-60.7	3.8	8.46e-01	0	42	104	0	66	16595
2026-01-03 01:01:41.36	23.73	7.38	-47.6	-60.5	3.8	8.47e-01	0	42	104	0	66	16293
2026-01-03 01:01:42.36	23.78	7.45	-47.6	-60.2	3.8	8.46e-01	0	42	104	0	66	15587
2026-01-03 01:01:43.37	23.84	7.53	-47.6	-59.7	3.8	8.46e-01	0	42	104	0	66	14780
2026-01-03 01:01:44.37	23.89	7.60	-47.5	-59.0	3.8	8.46e-01	0	42	104	0	66	13659
2026-01-03 01:01:45.37	23.94	7.68	-47.4	-58.2	3.8	8.45e-01	0	42	104	0	66	12518
2026-01-03 01:01:46.38	23.99	7.75	-47.3	-57.4	4.1	8.41e-01	0	42	0	0	66	11402
2026-01-03 01:01:47.38	24.04	7.83	-47.2	-56.7	4.3	8.34e-01	0	42	0	0	66	10476
2026-01-03 01:01:48.39	24.10	7.90	-47.1	-56.2	4.5	8.24e-01	0	42	0	0	66	9834
2026-01-03 01:01:49.39	24.15	7.98	-47.0	-55.7	4.7	8.10e-01	0	42	0	0	66	9308
2026-01-03 01:01:50.39	24.20	8.05	-47.0	-55.4	4.8	7.92e-01	0	42	0	0	66	8973
2026-01-03 01:01:51.40	24.26	8.13	-46.9	-55.2	4.9	7.85e-01	0	42	0	0	65	9318
2026-01-03 01:01:52.40	24.31	8.21	-46.9	-55.2	5.0	7.78e-01	0	42	0	0	65	9318
2026-01-03 01:01:53.41	24.36	8.29	-46.9	-55.2	5.0	7.76e-01	0	42	0	0	65	9311
2026-01-03 01:01:54.41	24.42	8.36	-46.9	-55.2	4.9	7.77e-01	0	42	0	0	65	9311
2026-01-03 01:01:55.41	24.47	8.44	-46.9	-55.1	5.0	7.76e-01	0	42	0	0	65	9278
2026-01-03 01:01:56.42	24.53	8.52	-46.9	-55.1	5.0	7.70e-01	0	42	0	0	65	9198
2026-01-03 01:01:57.42	24.58	8.59	-46.8	-54.7	5.2	7.50e-01	0	42	0	0	65	8847
2026-01-03 01:01:58.42	24.64	8.67	-46.7	-54.2	5.5	7.23e-01	0	42	0	0	65	8352
2026-01-03 01:01:59.43	24.69	8.75	-46.5	-53.6	6.0	4.13e-01	0	42	0	4194304	65	7754
2026-01-03 01:02:00.43	24.75	8.83	-46.4	-52.9	6.5	2.90e-01	0	42	0	9437184	64	7628
2026-01-03 01:02:01.44	24.81	8.91	-46.1	-52.2	7.2	1.74e-01	0	42	0	14680064	64	6992
2026-01-03 01:02:02.44	24.86	8.99	-46.0	-51.6	7.8	1.15e-01	0	42	0	20971520	63	6945
2026-01-03 01:02:03.44	24.92	9.06	-45.5	-50.5	8.9	5.62e-02	0	42	0	26214400	63	6098
2026-01-03 01:02:04.45	24.98	9.14	-45.8	-51.3	8.3	1.01e-02	0	42	0	32505856	62	7059
2026-01-03 01:02:05.45	25.03	9.22	-46.2	-52.6	6.8	6.66e-01	0	42	0	36700160	64	7293
2026-01-03 01:02:06.46	25.09	9.30	-46.8	-54.8	5.3	7.18e-02	0	42	0	41943040	64	9456
2026-01-03 01:02:07.46	25.15	9.38	-46.4	-53.1	6.1	8.44e-01	0	42	104	41943040	65	7363
2026-01-03 01:02:08.46	25.21	9.46	-39.9	-42.1	17.4	0.00e+00	0	43	0	46137344	51	4639
2026-01-03 01:02:09.46	25.26	9.54	-39.6	-41.7	17.9	0.00e+00	0	43	0	52428800	51	4402
2026-01-03 01:02:10.47	25.32	9.62	-38.6	-40.6	18.9	0.00e+00	0	42	0	57671680	49	4378
2026-01-03 01:02:11.47	25.38	9.70	-38.7	-40.7	18.8	0.00e+00	0	42	0	62914560	49	4413
2026-01-03 01:02:12.47	25.44	9.79	-38.6	-40.6	18.9	0.00e+00	0	42	0	69206016	49	4363
2026-01-03 01:02:13.47	25.50	9.87	-38.4	-40.4	19.1	0.00e+00	0	42	0	74448896	48	4540
2026-01-03 01:02:14.48	25.56	9.95	-38.4	-40.4	19.1	0.00e+00	0	43	0	79691776	48	4501
2026-01-03 01:02:15.48	25.62	10.03	-38.4	-40.3	19.2	0.00e+00	0	43	0	85983232	48	4493
2026-01-03 01:02:16.48	25.68	10.11	-38.3	-40.3	19.2	0.00e+00	0	43	0	91226112	48	4470
2026-01-03 01:02:17.48	25.74	10.19	-38.2	-40.2	19.3	0.00e+00	0	43	0	97517568	48	4403
2026-01-03 01:02:18.48	25.80	10.28	-38.3	-40.3	19.2	0.00e+00	0	43	0	102760448	48	4444
2026-01-03 01:02:19.49	25.86	10.36	-38.3	-40.2	19.3	0.00e+00	0	43	0	109051904	48	4410
2026-01-03 01:02:20.49	25.93	10.44	-38.2	-40.2	19.3	0.00e+00	0	43	0	114294784	48	4398
2026-01-03 01:02:21.49	25.99	10.52	-38.3	-40.2	19.2	0.00e+00	0	43	0	119537664	48	4418
2026-01-03 01:02:22.49	26.05	10.61	-38.3	-40.2	19.2	0.00e+00	0	43	0	125829120	48	4433
2026-01-03 01:02:23.49	26.11	10.69	-38.3	-40.2	19.3	0.00e+00	0	43	0	131072000	48	4426
2026-01-03 01:02:24.49	26.17	10.78	-38.3	-40.3	19.2	0.00e+00	0	43	0	136314880	48	4450
2026-01-03 01:02:25.50	26.24	10.86	-38.5	-40.4	19.2	0.00e+00	0	43	0	142606336	48	4514
2026-01-03 01:02:26.50	26.30	10.94	-38.4	-40.3	19.2	0.00e+00	0	43	0	147849216	48	4470
2026-01-03 01:02:27.50	26.37	11.03	-38.4	-40.2	19.3	0.00e+00	0	42	0	153092096	48	4439
2026-01-03 01:02:28.51	26.43	11.12	-38.4	-40.3	19.3	0.00e+00	0	43	0	159383552	48	4479
2026-01-03 01:02:29.51	26.50	11.20	-38.4	-40.3	19.3	0.00e+00	0	43	0	164626432	48	4489
2026-01-03 01:02:30.51	26.56	11.29	-38.4	-40.3	19.3	0.00e+00	0	43	0	170917888	48	4482
2026-01-03 01:02:31.52	26.63	11.37	-38.4	-40.4	19.2	0.00e+00	0	43	0	176160768	48	4494
2026-01-03 01:02:32.52	26.69	11.46	-38.3	-40.2	19.4	0.00e+00	0	43	0	181403648	48	4409
2026-01-03 01:02:33.52	26.76	11.54	-38.3	-40.2	19.4	0.00e+00	0	43	0	187695104	48	4415
2026-01-03 01:02:34.52	26.82	11.63	-38.3	-40.3	19.4	0.00e+00	0	43	0	192937984	48	4443
2026-01-03 01:02:35.53	26.89	11.72	-38.3	-40.2	19.4	0.00e+00	0	43	0	198180864	48	4420
2026-01-03 01:02:36.53	26.96	11.81	-38.3	-40.2	19.4	0.00e+00	0	43	0	204472320	48	4398
2026-01-03 01:02:37.53	27.03	11.89	-38.4	-40.3	19.3	0.00e+00	0	43	0	209715200	48	4467
2026-01-03 01:02:38.53	27.09	11.98	-38.3	-40.2	19.4	0.00e+00	0	43	0	216006656	48	4405
2026-01-03 01:02:39.54	27.16	12.07	-38.2	-40.1	19.4	0.00e+00	0	43	0	221249536	48	4388
2026-01-03 01:02:40.54	27.23	12.16	-38.2	-40.1	19.5	0.00e+00	0	43	0	226492416	48	4367
2026-01-03 01:02:41.54	27.30	12.25	-38.2	-40.1	19.5	0.00e+00	0	43	0	232783872	48	4371
2026-01-03 01:02:42.55	27.37	12.34	-38.2	-40.1	19.4	0.00e+00	0	43	0	238026752	48	4390
2026-01-03 01:02:43.55	27.44	12.42	-38.2	-40.1	19.5	0.00e+00	0	43	0	244318208	48	4357
2026-01-03 01:02:44.55	27.51	12.51	-38.1	-40.0	19.6	0.00e+00	0	43	0	249561088	48	4302
2026-01-03 01:02:45.56	27.58	12.60	-38.0	-39.9	19.7	0.00e+00	0	43	0	254803968	48	4280
2026-01-03 01:02:46.56	27.65	12.69	-38.0	-39.9	19.7	0.00e+00	0	43	0	261095424	48	4275
2026-01-03 01:02:47.57	27.73	12.79	-37.9	-39.8	19.6	0.00e+00	0	43	0	266338304	47	4482
2026-01-03 01:02:48.57	27.80	12.88	-37.8	-39.7	19.7	0.00e+00	0	43	0	271581184	47	4430
2026-01-03 01:02:49.58	27.87	12.97	-37.9	-39.8	19.3	0.00e+00	0	43	0	277872640	47	4452
2026-01-03 01:02:50.58	27.94	13.06	-37.8	-39.7	19.8	0.00e+00	0	43	0	283115520	47	4395
2026-01-03 01:02:51.58	28.02	13.15	-37.8	-39.6	19.8	0.00e+00	0	43	0	289406976	47	4386
2026-01-03 01:02:52.81	28.11	13.26	-37.8	-39.7	19.8	0.00e+00	0	43	0	295698432	47	4398
2026-01-03 01:02:53.70	28.17	13.34	-37.7	-39.5	19.9	0.00e+00	0	43	0	300941312	47	4333
2026-01-03 01:02:55.02	28.27	13.47	-37.6	-39.5	19.9	0.00e+00	0	43	0	308281344	47	4317
2026-01-03 01:02:55.73	28.32	13.53	-37.6	-39.5	19.9	0.00e+00	0	43	0	312475648	47	4336
2026-01-03 01:02:57.23	28.44	13.67	-37.5	-39.4	20.0	0.00e+00	0	43	0	320864256	47	4251
2026-01-03 01:02:57.95	28.49	13.74	-37.6	-39.5	19.9	0.00e+00	0	43	0	325058560	47	4299
2026-01-03 01:02:59.24	28.59	13.86	-37.5	-39.4	20.0	0.00e+00	0	43	0	332398592	47	4271
2026-01-03 01:02:59.95	28.65	13.93	-37.5	-39.4	20.0	0.00e+00	0	43	0	336592896	47	4265
2026-01-03 01:03:01.24	28.75	14.05	-37.5	-39.4	20.1	0.00e+00	0	43	0	343932928	47	4261
2026-01-03 01:03:01.96	28.80	14.12	-37.4	-39.3	20.2	0.00e+00	0	43	0	347078656	46	4461
2026-01-03 01:03:03.24	28.90	14.24	-37.5	-39.3	20.2	0.00e+00	0	43	0	354418688	46	4488
2026-01-03 01:03:03.96	28.96	14.31	-37.5	-39.3	20.2	0.00e+00	0	43	0	358612992	46	4476
2026-01-03 01:03:05.25	29.06	14.43	-37.4	-39.2	20.2	0.00e+00	0	43	0	365953024	46	4435
2026-01-03 01:03:06.06	29.12	14.51	-37.4	-39.3	20.2	0.00e+00	0	43	0	370147328	46	4462
2026-01-03 01:03:07.53	29.24	14.65	-37.4	-39.2	20.2	0.00e+00	0	43	0	378535936	46	4431
2026-01-03 01:03:08.24	29.30	14.72	-37.4	-39.2	20.2	0.00e+00	0	43	0	382730240	46	4426
2026-01-03 01:03:09.74	29.42	14.87	-37.3	-39.1	20.3	0.00e+00	0	43	0	391118848	46	4366
2026-01-03 01:03:10.46	29.48	14.94	-37.3	-39.1	20.3	0.00e+00	0	43	0	395313152	46	4347
2026-01-03 01:03:11.74	29.59	15.06	-37.3	-39.1	20.3	0.00e+00	0	43	0	402653184	46	4364
2026-01-03 01:03:12.46	29.65	15.13	-37.2	-39.0	20.4	0.00e+00	0	43	0	406847488	46	4338
2026-01-03 01:03:13.74	29.75	15.26	-37.2	-39.0	20.4	0.00e+00	0	43	0	414187520	46	4321
2026-01-03 01:03:14.46	29.81	15.33	-37.2	-39.0	20.4	0.00e+00	0	43	0	417333248	46	4328
2026-01-03 01:03:15.75	29.92	15.46	-37.2	-39.0	20.5	0.00e+00	0	43	0	424673280	46	4307
2026-01-03 01:03:16.46	29.98	15.53	-37.1	-38.9	20.6	0.00e+00	0	43	0	428867584	46	4267
2026-01-03 01:03:17.75	30.09	15.66	-37.1	-38.9	20.6	0.00e+00	0	43	0	436207616	46	4275
2026-01-03 01:03:18.50	30.16	15.73	-37.1	-38.9	20.6	0.00e+00	0	43	0	440401920	46	4262
2026-01-03 01:03:19.79	30.27	15.86	-37.2	-39.0	20.5	0.00e+00	0	43	0	447741952	46	4300
2026-01-03 01:03:20.50	30.33	15.93	-37.1	-38.9	20.6	0.00e+00	0	43	0	451936256	46	4279
2026-01-03 01:03:21.79	30.45	16.07	-37.0	-38.8	20.7	0.00e+00	0	43	0	459276288	46	4200
2026-01-03 01:03:22.68	30.52	16.16	-36.9	-38.7	20.8	0.00e+00	0	43	0	464519168	45	4407
2026-01-03 01:03:24.03	30.65	16.29	-36.9	-38.7	20.8	0.00e+00	0	43	0	471859200	45	4393
2026-01-03 01:03:24.75	30.71	16.37	-36.8	-38.6	20.8	0.00e+00	0	43	0	476053504	45	4391
2026-01-03 01:03:26.04	30.83	16.50	-36.6	-38.4	21.0	0.00e+00	0	43	0	483393536	45	4273
2026-01-03 01:03:26.76	30.89	16.58	-36.6	-38.3	21.1	0.00e+00	0	43	0	486539264	45	4233
2026-01-03 01:03:28.05	31.01	16.71	-36.5	-38.3	21.1	0.00e+00	0	43	0	493879296	45	4220
2026-01-03 01:03:28.77	31.08	16.78	-36.5	-38.3	21.2	0.00e+00	0	43	0	498073600	45	4194
2026-01-03 01:03:30.06	31.20	16.92	-36.4	-38.1	21.3	0.00e+00	0	43	0	505413632	44	4379
2026-01-03 01:03:30.78	31.26	17.00	-36.3	-38.1	21.4	0.00e+00	0	43	0	509607936	44	4356
2026-01-03 01:03:32.15	31.39	17.14	-36.5	-38.2	21.2	0.00e+00	0	43	0	516947968	44	4437
2026-01-03 01:03:33.15	31.49	17.25	-36.5	-38.3	21.2	0.00e+00	0	43	0	523239424	44	4452
2026-01-03 01:03:34.48	31.61	17.39	-36.5	-38.3	21.2	0.00e+00	0	43	0	530579456	44	4452
2026-01-03 01:03:35.19	31.68	17.46	-36.5	-38.3	21.2	0.00e+00	0	43	0	534773760	44	4461
2026-01-03 01:03:36.48	31.81	17.60	-36.6	-38.3	21.1	0.00e+00	0	43	0	542113792	44	4482
2026-01-03 01:03:37.20	31.88	17.68	-36.5	-38.3	21.2	0.00e+00	0	43	0	545259520	44	4442
2026-01-03 01:03:38.49	32.00	17.82	-36.5	-38.2	21.2	0.00e+00	0	43	0	552599552	44	4429
2026-01-03 01:03:39.20	32.07	17.89	-36.5	-38.2	21.2	0.00e+00	0	43	0	556793856	44	4435
2026-01-03 01:03:40.49	32.20	18.03	-36.5	-38.2	21.2	0.00e+00	0	43	0	564133888	44	4416
2026-01-03 01:03:41.21	32.27	18.11	-36.5	-38.2	21.2	0.00e+00	0	43	0	568328192	44	4436
2026-01-03 01:03:42.50	32.40	18.25	-36.4	-38.2	21.2	0.00e+00	0	43	0	575668224	44	4393
2026-01-03 01:03:43.21	32.48	18.33	-36.3	-38.1	21.3	0.00e+00	0	43	0	579862528	44	4350
2026-01-03 01:03:44.50	32.61	18.47	-36.3	-38.0	21.3	0.00e+00	0	43	0	587202560	44	4331
2026-01-03 01:03:45.22	32.68	18.55	-36.3	-38.0	21.3	0.00e+00	0	43	0	590348288	44	4332
2026-01-03 01:03:46.51	32.82	18.70	-36.3	-38.0	21.3	0.00e+00	0	43	0	597688320	44	4326
2026-01-03 01:03:47.22	32.89	18.78	-36.3	-38.0	21.4	0.00e+00	0	43	0	601882624	44	4337
2026-01-03 01:03:48.85	33.06	18.96	-36.2	-38.0	21.4	0.00e+00	0	43	0	611319808	44	4311
2026-01-03 01:03:49.42	33.12	19.02	-36.2	-38.0	21.4	0.00e+00	0	43	0	614465536	44	4297
2026-01-03 01:03:51.00	33.29	19.20	-36.2	-37.9	21.5	0.00e+00	0	43	0	622854144	44	4285
2026-01-03 01:03:51.59	33.36	19.27	-36.1	-37.9	21.6	0.00e+00	0	43	0	627048448	44	4260
2026-01-03 01:03:53.16	33.53	19.45	-36.0	-37.8	21.7	0.00e+00	0	43	0	635437056	44	4194
2026-01-03 01:03:53.94	33.61	19.54	-36.0	-37.8	21.7	0.00e+00	0	43	0	639631360	44	4197
2026-01-03 01:03:55.23	33.75	19.69	-36.1	-37.9	21.6	0.00e+00	0	43	0	646971392	44	4247
2026-01-03 01:03:55.95	33.83	19.77	-36.1	-37.8	21.7	0.00e+00	0	43	0	651165696	44	4219
2026-01-03 01:03:57.24	33.98	19.92	-35.8	-37.5	21.8	0.00e+00	0	43	0	658505728	43	4316
2026-01-03 01:03:57.95	34.06	20.00	-35.8	-37.5	21.8	0.00e+00	0	43	0	662700032	43	4327
2026-01-03 01:03:59.29	34.21	20.16	-35.7	-37.4	21.9	0.00e+00	0	43	0	670040064	43	4273
2026-01-03 01:04:00.00	34.29	20.24	-35.7	-37.4	21.9	0.00e+00	0	43	0	674234368	43	4286
2026-01-03 01:04:01.30	34.44	20.39	-35.6	-37.3	22.0	0.00e+00	0	43	0	681574400	43	4239
2026-01-03 01:04:02.01	34.53	20.48	-35.7	-37.4	21.9	0.00e+00	0	43	0	684720128	43	4270
2026-01-03 01:04:03.30	34.68	20.63	-35.8	-37.5	21.8	0.00e+00	0	43	0	692060160	43	4306
2026-01-03 01:04:04.02	34.76	20.71	-35.8	-37.6	21.7	0.00e+00	0	43	0	696254464	43	4354
2026-01-03 01:04:05.31	34.92	20.87	-36.0	-37.7	21.6	0.00e+00	0	43	0	703594496	43	4411
2026-01-03 01:04:06.02	35.00	20.95	-36.0	-37.7	21.6	0.00e+00	0	43	0	707788800	43	4420
2026-01-03 01:04:07.31	35.16	21.11	-35.9	-37.6	21.7	0.00e+00	0	43	0	715128832	43	4379
2026-01-03 01:04:08.03	35.24	21.20	-35.8	-37.5	21.8	0.00e+00	0	43	0	719323136	43	4333
2026-01-03 01:04:09.32	35.40	21.35	-35.7	-37.4	21.9	0.00e+00	0	43	0	726663168	43	4272
2026-01-03 01:04:10.04	35.49	21.44	-35.7	-37.4	21.8	0.00e+00	0	43	0	730857472	43	4277
2026-01-03 01:04:11.33	35.65	21.60	-35.6	-37.4	21.9	0.00e+00	0	43	0	737148928	43	4244
2026-01-03 01:04:12.04	35.74	21.68	-35.7	-37.4	21.9	0.00e+00	0	43	0	741343232	43	4265
2026-01-03 01:04:13.33	35.90	21.84	-35.7	-37.4	21.9	0.00e+00	0	43	0	748683264	43	4260
2026-01-03 01:04:14.04	35.99	21.93	-35.7	-37.4	21.9	0.00e+00	0	43	0	752877568	43	4268
2026-01-03 01:04:15.33	36.16	22.09	-35.8	-37.6	21.7	0.00e+00	0	43	0	760217600	43	4347
2026-01-03 01:04:16.05	36.25	22.18	-35.7	-37.5	21.8	0.00e+00	0	43	0	764411904	43	4295
2026-01-03 01:04:17.34	36.42	22.34	-35.7	-37.4	21.9	0.00e+00	0	43	0	771751936	43	4254
2026-01-03 01:04:18.07	36.52	22.43	-35.7	-37.5	21.8	0.00e+00	0	43	0	775946240	43	4294
2026-01-03 01:04:19.68	36.73	22.64	-35.6	-37.3	21.9	0.00e+00	0	43	0	784334848	43	4236
2026-01-03 01:04:20.25	36.81	22.71	-35.6	-37.3	21.9	0.00e+00	0	43	0	787480576	43	4221
2026-01-03 01:04:22.08	37.05	22.94	-35.6	-37.3	22.0	0.00e+00	0	43	0	797966336	43	4212
2026-01-03 01:04:23.14	37.20	23.08	-35.5	-37.2	22.1	0.00e+00	0	43	0	804257792	42	4416
2026-01-03 01:04:24.01	37.32	23.19	-35.5	-37.2	22.1	0.00e+00	0	43	0	808452096	42	4420
2026-01-03 01:04:25.16	37.48	23.33	-35.4	-37.1	22.2	0.00e+00	0	43	0	815792128	42	4368
2026-01-03 01:04:26.02	37.60	23.45	-35.2	-36.9	22.3	0.00e+00	0	43	0	819986432	42	4269
2026-01-03 01:04:27.16	37.76	23.59	-35.1	-36.7	22.6	0.00e+00	0	43	0	826277888	42	4184
2026-01-03 01:04:28.11	37.89	23.72	-35.0	-36.6	22.7	0.00e+00	0	43	0	831520768	42	4128
2026-01-03 01:04:29.12	38.04	23.85	-35.0	-36.6	22.6	0.00e+00	0	43	0	837812224	42	4139
2026-01-03 01:04:30.34	38.21	24.01	-35.0	-36.6	22.6	0.00e+00	0	43	0	844103680	41	4383
2026-01-03 01:04:31.23	38.34	24.13	-35.0	-36.7	22.5	0.00e+00	0	43	0	849346560	41	4408
2026-01-03 01:04:32.38	38.51	24.28	-35.0	-36.7	22.5	0.00e+00	0	43	0	855638016	41	4417
2026-01-03 01:04:33.30	38.65	24.40	-35.0	-36.7	22.5	0.00e+00	0	43	0	860880896	41	4425
2026-01-03 01:04:34.48	38.82	24.56	-34.9	-36.6	22.6	0.00e+00	0	43	0	867172352	41	4372
2026-01-03 01:04:35.34	38.95	24.67	-34.8	-36.5	22.7	0.00e+00	0	43	0	872415232	41	4316
2026-01-03 01:04:36.48	39.13	24.82	-34.8	-36.5	22.8	0.00e+00	0	43	0	878706688	41	4295
2026-01-03 01:04:37.34	39.26	24.94	-34.9	-36.6	22.7	0.00e+00	0	43	0	883949568	41	4361
2026-01-03 01:04:38.49	39.44	25.10	-34.9	-36.6	22.7	0.00e+00	0	43	0	890241024	41	4349
2026-01-03 01:04:39.35	39.57	25.21	-34.9	-36.5	22.7	0.00e+00	0	43	0	895483904	41	4321
2026-01-03 01:04:40.50	39.75	25.37	-34.9	-36.6	22.7	0.00e+00	0	43	0	901775360	41	4358
2026-01-03 01:04:41.36	39.89	25.49	-34.8	-36.5	22.8	0.00e+00	0	43	0	905969664	41	4296
2026-01-03 01:04:42.50	40.07	25.64	-34.6	-36.3	22.9	0.00e+00	0	43	0	913309696	41	4208
2026-01-03 01:04:43.36	40.21	25.76	-34.7	-36.3	22.9	0.00e+00	0	43	0	917504000	41	4226
2026-01-03 01:04:44.51	40.40	25.92	-34.6	-36.2	23.0	0.00e+00	0	43	0	923795456	41	4177
2026-01-03 01:04:45.37	40.54	26.04	-34.6	-36.2	23.0	0.00e+00	0	43	0	929038336	41	4193
2026-01-03 01:04:46.53	40.73	26.20	-34.7	-36.4	22.9	0.00e+00	0	43	0	935329792	41	4257
2026-01-03 01:04:47.39	40.87	26.32	-34.7	-36.4	22.9	0.00e+00	0	43	0	940572672	41	4273
2026-01-03 01:04:48.53	41.06	26.48	-34.6	-36.3	23.0	0.00e+00	0	43	0	946864128	41	4199
2026-01-03 01:04:49.40	41.21	26.60	-34.5	-36.2	23.1	0.00e+00	0	43	0	952107008	41	4149
2026-01-03 01:04:50.54	41.41	26.76	-34.5	-36.1	23.1	0.00e+00	0	43	0	958398464	40	4372
2026-01-03 01:04:51.42	41.56	26.89	-34.6	-36.2	23.1	0.00e+00	0	43	0	962592768	40	4412
2026-01-03 01:04:52.56	41.76	27.05	-34.6	-36.2	23.0	0.00e+00	0	43	0	969932800	40	4427
2026-01-03 01:04:53.43	41.91	27.17	-34.6	-36.3	23.0	0.00e+00	0	43	0	974127104	40	4472
2026-01-03 01:04:54.57	42.11	27.33	-34.7	-36.4	22.8	0.00e+00	0	43	0	980418560	40	4510
2026-01-03 01:04:55.43	42.27	27.46	-34.7	-36.3	22.9	0.00e+00	0	43	0	985661440	40	4488
2026-01-03 01:04:56.58	42.47	27.62	-34.6	-36.3	22.9	0.00e+00	0	43	0	991952896	40	4465
2026-01-03 01:04:57.43	42.63	27.75	-34.7	-36.3	22.9	0.00e+00	0	43	0	997195776	40	4485
2026-01-03 01:04:58.58	42.84	27.91	-34.7	-36.3	22.9	0.00e+00	0	43	0	1003487232	40	4488
2026-01-03 01:04:59.44	43.00	28.04	-34.7	-36.3	22.9	0.00e+00	0	43	0	1008730112	40	4474
2026-01-03 01:05:00.59	43.22	28.20	-34.7	-36.3	22.9	0.00e+00	0	43	0	1015021568	40	4488
2026-01-03 01:05:01.45	43.38	28.33	-34.6	-36.3	23.0	0.00e+00	0	43	0	1019215872	40	4445
2026-01-03 01:05:02.60	43.60	28.50	-34.6	-36.3	23.0	0.00e+00	0	43	0	1025507328	40	4449
2026-01-03 01:05:03.45	43.76	28.62	-34.7	-36.4	22.9	0.00e+00	0	43	0	1030750208	40	4500
2026-01-03 01:05:04.65	43.99	28.80	-34.6	-36.2	23.1	0.00e+00	0	43	0	1037041664	40	4422
2026-01-03 01:05:05.51	44.16	28.93	-34.6	-36.3	23.0	0.00e+00	0	43	0	1042284544	40	4444
2026-01-03 01:05:06.65	44.39	29.10	-34.3	-36.0	23.3	0.00e+00	0	43	0	1048576000	40	4295
2026-01-03 01:05:07.51	44.56	29.22	-34.5	-36.1	23.2	0.00e+00	0	43	0	1053818880	40	4370
2026-01-03 01:05:08.66	44.79	29.40	-34.6	-36.2	23.0	0.00e+00	0	43	0	1060110336	40	4435
2026-01-03 01:05:09.52	44.96	29.52	-34.7	-36.3	22.9	0.00e+00	0	43	0	1065353216	40	4481
2026-01-03 01:05:10.67	45.20	29.70	-34.7	-36.4	22.9	0.00e+00	0	43	0	1071644672	40	4518
2026-01-03 01:05:11.64	45.40	29.84	-34.7	-36.4	22.9	0.00e+00	0	43	0	1076887552	40	4525
2026-01-03 01:05:12.64	45.61	29.99	-34.7	-36.3	22.9	0.00e+00	0	43	0	1082130432	40	4492
2026-01-03 01:05:13.85	45.86	30.18	-34.4	-36.1	23.2	0.00e+00	0	43	0	1089470464	40	4355
2026-01-03 01:05:14.74	46.05	30.31	-34.5	-36.1	23.1	0.00e+00	0	43	0	1094713344	40	4376
2026-01-03 01:05:15.77	46.27	30.47	-34.5	-36.2	22.5	0.00e+00	0	44	0	1099956224	40	4417
2026-01-03 01:05:16.77	46.49	30.62	-34.4	-36.1	22.6	0.00e+00	0	43	0	1105199104	40	4360
2026-01-03 01:05:17.78	46.71	30.77	-34.3	-36.0	22.7	0.00e+00	0	43	0	1111490560	40	4339
2026-01-03 01:05:18.78	46.93	30.93	-34.3	-36.0	22.7	0.00e+00	0	43	0	1116733440	40	4306
2026-01-03 01:05:19.78	47.15	31.08	-34.3	-36.0	22.7	0.00e+00	0	43	0	1123024896	40	4309
2026-01-03 01:05:20.78	47.38	31.23	-34.2	-35.9	22.8	0.00e+00	0	43	0	1128267776	40	4284
2026-01-03 01:05:21.79	47.61	31.39	-34.3	-36.0	22.7	0.00e+00	0	43	0	1133510656	40	4312
2026-01-03 01:05:22.79	47.84	31.54	-34.3	-36.1	22.7	0.00e+00	0	43	0	1139802112	40	4352
2026-01-03 01:05:23.80	48.07	31.70	-34.3	-36.1	22.6	0.00e+00	0	43	0	1145044992	40	4350
2026-01-03 01:05:24.80	48.31	31.86	-34.4	-36.1	22.6	0.00e+00	0	43	0	1151336448	40	4383
2026-01-03 01:05:25.86	48.56	32.02	-34.3	-36.0	22.7	0.00e+00	0	43	0	1156579328	40	4328
2026-01-03 01:05:26.74	48.76	32.16	-34.3	-36.0	22.7	0.00e+00	0	43	0	1161822208	40	4314
2026-01-03 01:05:28.04	49.08	32.36	-34.3	-36.0	22.7	0.00e+00	0	43	0	1169162240	40	4334
2026-01-03 01:05:28.76	49.25	32.47	-34.3	-36.0	22.7	0.00e+00	0	43	0	1173356544	40	4319
2026-01-03 01:05:30.05	49.57	32.68	-34.2	-35.9	22.8	0.00e+00	0	43	0	1180696576	40	4284
2026-01-03 01:05:30.76	49.74	32.79	-34.2	-35.9	22.8	0.00e+00	0	43	0	1184890880	40	4254
2026-01-03 01:05:32.05	50.07	32.99	-34.2	-35.9	22.8	0.00e+00	0	43	0	1191182336	40	4257
2026-01-03 01:05:32.76	50.25	33.10	-34.2	-35.9	22.8	0.00e+00	0	43	0	1195376640	40	4262
2026-01-03 01:05:34.05	50.57	33.30	-34.2	-35.9	22.8	0.00e+00	0	43	0	1202716672	40	4277
2026-01-03 01:05:34.77	50.76	33.42	-34.2	-36.0	22.7	0.00e+00	0	43	0	1206910976	40	4304
2026-01-03 01:05:36.06	51.09	33.62	-34.3	-36.1	22.7	0.00e+00	0	43	0	1214251008	40	4342
2026-01-03 01:05:36.78	51.28	33.73	-34.3	-36.0	22.7	0.00e+00	0	43	0	1218445312	40	4315
2026-01-03 01:05:38.07	51.62	33.94	-34.3	-36.0	22.7	0.00e+00	0	43	0	1225785344	40	4327
2026-01-03 01:05:38.79	51.82	34.05	-34.3	-36.0	22.7	0.00e+00	0	43	0	1229979648	40	4326
2026-01-03 01:05:40.19	52.19	34.28	-34.2	-36.0	22.8	0.00e+00	0	43	0	1237319680	40	4300
2026-01-03 01:05:41.14	52.45	34.43	-34.2	-36.0	22.7	0.00e+00	0	44	0	1242562560	40	4292
2026-01-03 01:05:42.48	52.82	34.64	-34.2	-35.9	22.8	0.00e+00	0	43	0	1249902592	40	4258
2026-01-03 01:05:43.19	53.02	34.75	-34.1	-35.9	22.8	0.00e+00	0	43	0	1254096896	40	4243
2026-01-03 01:05:44.83	53.48	35.01	-34.3	-36.0	22.7	0.00e+00	0	43	0	1263534080	40	4308
2026-01-03 01:05:45.41	53.65	35.10	-34.3	-36.1	22.6	0.00e+00	0	43	0	1266679808	40	4350
2026-01-03 01:05:47.00	54.11	35.36	-34.0	-35.7	22.9	0.00e+00	0	43	0	1276116992	40	4166
2026-01-03 01:05:47.57	54.27	35.45	-34.0	-35.7	23.0	0.00e+00	0	43	0	1279262720	39	4419
2026-01-03 01:05:49.16	54.74	35.70	-34.1	-35.8	23.0	0.00e+00	0	43	0	1287651328	39	4447
2026-01-03 01:05:49.74	54.91	35.79	-34.0	-35.7	23.0	0.00e+00	0	43	0	1290797056	39	4407
2026-01-03 01:05:51.36	55.40	36.05	-34.3	-36.0	22.7	0.00e+00	0	43	0	1300234240	39	4574
2026-01-03 01:05:51.93	55.57	36.14	-34.3	-36.1	22.7	0.00e+00	0	43	0	1303379968	39	4620
2026-01-03 01:05:53.52	56.06	36.39	-34.3	-36.0	22.8	0.00e+00	0	44	0	1312817152	39	4563
2026-01-03 01:05:54.12	56.24	36.49	-34.3	-36.0	22.7	0.00e+00	0	43	0	1315962880	39	4588
2026-01-03 01:05:56.07	56.85	36.80	-34.1	-35.8	23.0	0.00e+00	0	43	0	1326448640	39	4446
2026-01-03 01:05:56.64	57.04	36.89	-33.9	-35.5	23.1	0.00e+00	0	43	0	1329594368	39	4333
2026-01-03 01:05:58.22	57.54	37.14	-33.8	-35.4	23.3	0.00e+00	0	43	0	1339031552	39	4278
2026-01-03 01:05:58.84	57.74	37.24	-33.8	-35.5	23.3	0.00e+00	0	43	0	1342177280	39	4296
2026-01-03 01:06:00.41	58.26	37.48	-33.9	-35.6	23.1	0.00e+00	0	43	0	1351614464	39	4391
2026-01-03 01:06:01.03	58.46	37.58	-34.0	-35.7	23.0	0.00e+00	0	43	0	1354760192	39	4430
2026-01-03 01:06:02.61	58.99	37.83	-34.1	-35.9	23.0	0.00e+00	0	43	0	1363148800	39	4500
2026-01-03 01:06:03.18	59.18	37.92	-34.2	-35.9	22.9	0.00e+00	0	43	0	1367343104	39	4517
2026-01-03 01:06:04.96	59.79	38.19	-33.9	-35.6	23.2	0.00e+00	0	43	0	1376780288	39	4350
2026-01-03 01:06:05.53	59.99	38.28	-33.8	-35.5	23.3	0.00e+00	0	43	0	1379926016	39	4324
2026-01-03 01:06:07.14	60.55	38.53	-33.8	-35.5	23.2	0.00e+00	0	43	0	1389363200	39	4318
2026-01-03 01:06:07.71	60.75	38.62	-33.9	-35.6	23.2	0.00e+00	0	43	0	1392508928	39	4358
2026-01-03 01:06:09.29	61.31	38.86	-34.1	-35.9	22.9	0.00e+00	0	43	0	1400897536	39	4494
2026-01-03 01:06:09.89	61.53	38.96	-34.1	-35.9	22.9	0.00e+00	0	43	0	1405091840	39	4501
2026-01-03 01:06:11.46	62.10	39.20	-34.2	-35.9	22.9	0.00e+00	0	44	0	1413480448	39	4513
2026-01-03 01:06:12.05	62.32	39.29	-34.2	-35.9	22.9	0.00e+00	0	43	0	1416626176	39	4540
2026-01-03 01:06:13.63	62.90	39.52	-34.1	-35.9	22.9	0.00e+00	0	43	0	1426063360	39	4494
2026-01-03 01:06:14.22	63.12	39.61	-34.1	-35.8	23.0	2.28e-05	0	43	0	1429209088	39	4452
2026-01-03 01:06:15.95	63.78	39.87	-34.1	-35.9	22.9	0.00e+00	0	43	0	1438646272	39	4501
2026-01-03 01:06:16.53	64.00	39.96	-34.2	-35.9	22.9	0.00e+00	0	44	0	1441792000	39	4536
2026-01-03 01:06:18.12	64.62	40.20	-34.3	-36.1	22.7	0.00e+00	0	43	0	1451229184	39	4615
2026-01-03 01:06:18.71	64.85	40.28	-34.4	-36.1	22.7	0.00e+00	0	43	0	1454374912	39	4619
2026-01-03 01:06:20.63	65.60	40.56	-33.9	-35.7	23.1	0.00e+00	0	43	0	1464860672	39	4392
2026-01-03 01:06:21.21	65.83	40.65	-34.0	-35.7	23.1	0.00e+00	0	43	0	1468006400	39	4404
2026-01-03 01:06:22.80	66.47	40.88	-34.1	-35.8	23.0	0.00e+00	0	44	0	1477443584	39	4464
2026-01-03 01:06:23.37	66.71	40.96	-34.2	-35.9	22.9	0.00e+00	0	44	0	1480589312	39	4499
2026-01-03 01:06:24.96	67.36	41.18	-34.3	-36.0	22.8	0.00e+00	0	43	0	1488977920	39	4582
2026-01-03 01:06:25.53	67.60	41.26	-34.2	-35.9	22.9	0.00e+00	0	43	0	1492123648	39	4539
2026-01-03 01:06:27.15	68.27	41.49	-34.2	-35.9	22.8	0.00e+00	0	43	0	1501560832	39	4529
2026-01-03 01:06:27.73	68.52	41.57	-34.2	-35.9	22.9	0.00e+00	0	44	0	1504706560	39	4498
2026-01-03 01:06:29.35	69.21	41.79	-34.4	-36.1	22.7	0.00e+00	0	43	0	1514143744	39	4610
2026-01-03 01:06:29.95	69.47	41.87	-34.4	-36.1	22.7	0.00e+00	0	44	0	1517289472	39	4626
2026-01-03 01:06:31.53	70.15	42.08	-34.2	-35.9	22.9	0.00e+00	0	43	0	1526726656	39	4500
2026-01-03 01:06:32.12	70.41	42.16	-34.3	-36.0	22.8	0.00e+00	0	43	0	1529872384	39	4572
2026-01-03 01:06:33.69	71.11	42.37	-34.3	-36.0	22.7	0.00e+00	0	43	0	1538260992	39	4595
2026-01-03 01:06:34.28	71.37	42.45	-34.3	-36.0	22.8	0.00e+00	0	43	0	1541406720	39	4560
2026-01-03 01:06:35.86	72.08	42.65	-34.3	-36.0	22.7	0.00e+00	0	43	0	1550843904	39	4598
2026-01-03 01:06:36.49	72.36	42.73	-34.5	-36.3	22.6	0.00e+00	0	43	0	1553989632	39	4715
2026-01-03 01:06:37.94	73.03	42.91	-34.6	-36.3	22.5	0.00e+00	0	43	0	1562378240	39	4748
2026-01-03 01:06:38.66	73.36	43.00	-34.5	-36.2	22.5	0.00e+00	0	44	0	1566572544	39	4705
2026-01-03 01:06:39.95	73.96	43.15	-34.6	-36.3	22.4	0.00e+00	0	43	0	1573912576	40	4484
2026-01-03 01:06:40.66	74.29	43.24	-34.6	-36.3	22.5	0.00e+00	0	43	0	1577058304	40	4462
2026-01-03 01:06:41.95	74.90	43.39	-34.5	-36.2	22.6	0.00e+00	0	43	0	1584398336	40	4423
2026-01-03 01:06:42.66	75.24	43.47	-34.4	-36.1	22.6	0.00e+00	0	43	0	1588592640	40	4350
2026-01-03 01:06:43.96	75.86	43.62	-34.1	-35.8	23.0	0.00e+00	0	43	0	1595932672	40	4201
2026-01-03 01:06:44.67	76.20	43.70	-34.1	-35.8	23.0	0.00e+00	0	43	0	1600126976	39	4450
2026-01-03 01:06:45.96	76.83	43.85	-34.5	-36.2	22.6	0.00e+00	0	44	0	1607467008	39	4691
2026-01-03 01:06:46.68	77.18	43.92	-34.6	-36.4	22.5	0.00e+00	0	43	0	1611661312	39	4761
2026-01-03 01:06:47.97	77.81	44.06	-34.7	-36.4	22.4	0.00e+00	0	43	0	1619001344	40	4544
2026-01-03 01:06:48.68	78.16	44.14	-34.6	-36.3	22.5	0.00e+00	0	43	0	1623195648	40	4473
2026-01-03 01:06:49.97	78.81	44.27	-34.3	-36.0	22.7	0.00e+00	0	43	0	1629487104	40	4335
2026-01-03 01:06:50.69	79.17	44.34	-34.3	-36.0	22.7	0.00e+00	0	43	0	1633681408	40	4337
2026-01-03 01:06:51.98	79.82	44.47	-34.3	-36.1	22.7	0.00e+00	0	43	0	1641021440	40	4350
2026-01-03 01:06:52.69	80.18	44.54	-34.3	-36.0	22.7	0.00e+00	0	43	0	1645215744	40	4313
2026-01-03 01:06:53.98	80.84	44.66	-34.3	-36.0	22.7	0.00e+00	0	43	0	1652555776	40	4339
2026-01-03 01:06:54.70	81.21	44.72	-34.3	-36.1	22.7	0.00e+00	0	43	0	1656750080	40	4347
2026-01-03 01:06:56.26	82.01	44.86	-34.4	-36.1	22.6	0.00e+00	0	43	0	1665138688	40	4371
2026-01-03 01:06:56.97	82.38	44.92	-34.4	-36.1	22.7	0.00e+00	0	44	0	1669332992	40	4360
2026-01-03 01:06:58.26	83.06	45.03	-34.4	-36.1	22.7	1.10e-06	0	43	0	1676673024	40	4356
2026-01-03 01:06:58.97	83.43	45.09	-34.3	-36.1	22.8	0.00e+00	0	43	0	1680867328	40	4342
2026-01-03 01:07:00.26	84.11	45.19	-34.4	-36.2	22.7	0.00e+00	0	43	0	1688207360	40	4404
2026-01-03 01:07:00.98	84.50	45.25	-34.2	-36.0	22.9	0.00e+00	0	43	0	1691353088	40	4300
2026-01-03 01:07:02.27	85.18	45.34	-34.3	-36.0	22.8	0.00e+00	0	44	0	1698693120	40	4340
2026-01-03 01:07:02.99	85.57	45.40	-34.4	-36.1	22.8	0.00e+00	0	43	0	1702887424	40	4352
2026-01-03 01:07:04.28	86.26	45.48	-34.7	-36.5	22.4	0.00e+00	0	43	0	1710227456	40	4560
2026-01-03 01:07:04.99	86.65	45.53	-34.7	-36.5	22.4	0.00e+00	0	43	0	1714421760	40	4563
2026-01-03 01:07:06.28	87.35	45.61	-34.6	-36.4	22.4	0.00e+00	0	44	0	1721761792	40	4519
2026-01-03 01:07:07.00	87.74	45.66	-34.7	-36.5	22.3	0.00e+00	0	43	0	1725956096	40	4563
2026-01-03 01:07:08.28	88.44	45.73	-34.9	-36.7	22.2	0.00e+00	0	43	0	1733296128	40	4677
2026-01-03 01:07:09.00	88.84	45.77	-34.7	-36.5	22.4	0.00e+00	0	44	0	1737490432	40	4577
2026-01-03 01:07:10.29	89.55	45.84	-34.5	-36.2	22.6	0.00e+00	0	44	0	1744830464	40	4423
2026-01-03 01:07:11.01	89.95	45.88	-34.5	-36.2	22.7	0.00e+00	0	43	0	1747976192	40	4418
2026-01-03 01:07:12.30	90.66	45.94	-34.7	-36.4	22.5	0.00e+00	0	44	0	1755316224	40	4535
2026-01-03 01:07:13.01	91.06	45.97	-34.6	-36.3	22.6	5.70e-06	0	43	0	1759510528	40	4477
2026-01-03 01:07:14.30	91.78	46.02	-34.4	-36.1	22.8	0.00e+00	0	44	0	1766850560	40	4368
2026-01-03 01:07:15.01	92.17	46.05	-34.3	-36.0	22.8	0.00e+00	0	44	0	1771044864	40	4331
2026-01-03 01:07:16.30	92.90	46.10	-34.6	-36.3	22.6	0.00e+00	0	44	0	1778384896	40	4478
2026-01-03 01:07:17.08	93.34	46.12	-34.7	-36.5	22.4	0.00e+00	0	43	0	1782579200	40	4578
2026-01-03 01:07:18.37	94.06	46.16	-34.6	-36.4	22.5	0.00e+00	0	43	0	1789919232	40	4505
2026-01-03 01:07:19.18	94.52	46.18	-34.7	-36.4	22.4	0.00e+00	0	43	0	1794113536	40	4521
2026-01-03 01:07:20.65	95.35	46.21	-34.6	-36.3	22.6	0.00e+00	0	43	0	1802502144	40	4472
2026-01-03 01:07:21.36	95.75	46.23	-34.6	-36.4	22.5	0.00e+00	0	43	0	1806696448	40	4494
2026-01-03 01:07:22.65	96.48	46.25	-34.6	-36.3	22.6	0.00e+00	0	43	0	1814036480	40	4470
2026-01-03 01:07:23.37	96.89	46.26	-34.6	-36.3	22.6	0.00e+00	0	43	0	1818230784	40	4460
2026-01-03 01:07:24.66	97.62	46.27	-34.5	-36.2	22.7	0.00e+00	0	43	0	1825570816	40	4415
2026-01-03 01:07:25.37	98.03	46.28	-34.5	-36.2	22.7	0.00e+00	0	43	0	1828716544	40	4413
2026-01-03 01:07:26.66	98.76	46.28	-34.8	-36.5	22.4	0.00e+00	0	43	0	1836056576	40	4584
2026-01-03 01:07:27.49	99.23	46.29	-34.6	-36.4	22.3	0.00e+00	0	43	0	1841299456	40	4528
2026-01-03 01:07:28.64	99.88	46.28	-34.7	-36.4	22.5	0.00e+00	0	44	0	1847590912	40	4529
2026-01-03 01:07:29.71	100.49	46.28	-34.7	-36.4	22.5	0.00e+00	0	44	0	1853882368	40	4530
2026-01-03 01:07:30.74	101.08	46.27	-34.6	-36.4	22.5	0.00e+00	0	43	0	1859125248	40	4496
2026-01-03 01:07:31.74	101.64	46.26	-34.5	-36.2	22.6	0.00e+00	0	44	0	1865416704	40	4441
2026-01-03 01:07:32.95	102.33	46.24	-34.4	-36.1	22.7	0.00e+00	0	43	0	1871708160	40	4377
2026-01-03 01:07:33.84	102.83	46.23	-34.5	-36.3	22.6	0.00e+00	0	44	0	1876951040	40	4447
2026-01-03 01:07:34.88	103.42	46.20	-34.6	-36.3	22.6	0.00e+00	0	43	0	1882193920	40	4474
2026-01-03 01:07:35.88	103.99	46.18	-34.8	-36.5	22.4	0.00e+00	0	43	0	1888485376	40	4587
2026-01-03 01:07:36.88	104.55	46.15	-34.6	-36.4	22.5	0.00e+00	0	43	0	1893728256	40	4510
2026-01-03 01:07:37.88	105.12	46.12	-34.6	-36.3	22.6	0.00e+00	0	44	0	1900019712	40	4452
2026-01-03 01:07:38.88	105.68	46.09	-34.5	-36.2	22.7	0.00e+00	0	43	0	1905262592	40	4419
2026-01-03 01:07:39.88	106.24	46.06	-34.5	-36.3	22.6	0.00e+00	0	44	0	1910505472	40	4446
2026-01-03 01:07:40.88	106.80	46.02	-34.7	-36.4	22.5	0.00e+00	0	43	0	1916796928	40	4525
2026-01-03 01:07:41.89	107.36	45.98	-34.5	-36.2	22.7	6.80e-06	0	43	0	1922039808	40	4414
2026-01-03 01:07:42.89	107.92	45.93	-34.4	-36.1	22.8	0.00e+00	0	43	0	1927282688	40	4353
2026-01-03 01:07:43.89	108.47	45.89	-34.2	-35.9	22.8	0.00e+00	0	44	0	1933574144	40	4291
2026-01-03 01:07:44.89	109.03	45.84	-34.3	-36.0	22.8	0.00e+00	0	44	0	1938817024	40	4332
2026-01-03 01:07:45.90	109.59	45.78	-34.4	-36.1	22.7	0.00e+00	0	44	0	1945108480	40	4367
2026-01-03 01:07:46.90	110.14	45.73	-34.4	-36.2	22.6	0.00e+00	0	43	0	1950351360	40	4412
2026-01-03 01:07:47.91	110.69	45.67	-34.6	-36.3	22.5	0.00e+00	0	44	0	1955594240	40	4491
2026-01-03 01:07:48.91	111.24	45.61	-34.6	-36.3	22.5	0.00e+00	0	43	0	1961885696	40	4493
2026-01-03 01:07:49.91	111.78	45.54	-34.6	-36.3	22.5	0.00e+00	0	43	0	1967128576	40	4492
2026-01-03 01:07:50.91	112.32	45.48	-34.5	-36.3	22.6	0.00e+00	0	43	0	1972371456	40	4443
2026-01-03 01:07:51.91	112.86	45.41	-34.5	-36.3	22.6	0.00e+00	0	43	0	1978662912	40	4447
2026-01-03 01:07:52.92	113.40	45.34	-34.5	-36.2	22.7	0.00e+00	0	43	0	1983905792	40	4409
2026-01-03 01:07:53.92	113.94	45.26	-34.5	-36.3	22.6	0.00e+00	0	43	0	1989148672	40	4449
2026-01-03 01:07:54.92	114.47	45.18	-34.5	-36.2	22.7	0.00e+00	0	43	0	1995440128	40	4412
2026-01-03 01:07:55.93	115.00	45.10	-34.6	-36.3	22.6	0.00e+00	0	44	0	2000683008	40	4475
2026-01-03 01:07:56.99	115.56	45.02	-34.8	-36.6	22.3	0.00e+00	0	43	0	2006974464	40	4599
2026-01-03 01:07:57.86	116.02	44.94	-34.8	-36.5	22.3	0.00e+00	0	44	0	2012217344	40	4569
2026-01-03 01:07:59.00	116.61	44.85	-34.8	-36.5	22.4	0.00e+00	0	43	0	2018508800	40	4574
2026-01-03 01:07:59.86	117.06	44.77	-34.7	-36.5	22.4	0.00e+00	0	44	0	2022703104	40	4565
2026-01-03 01:08:01.01	117.65	44.66	-34.5	-36.2	22.6	0.00e+00	0	43	0	2030043136	40	4420
2026-01-03 01:08:01.87	118.09	44.58	-34.4	-36.1	22.7	0.00e+00	0	44	0	2034237440	40	4382
2026-01-03 01:08:03.01	118.67	44.47	-34.5	-36.2	22.6	0.00e+00	0	44	0	2040528896	40	4437
2026-01-03 01:08:03.87	119.11	44.39	-34.5	-36.3	22.6	0.00e+00	0	44	0	2045771776	40	4465
2026-01-03 01:08:05.02	119.69	44.27	-34.6	-36.3	22.5	0.00e+00	0	43	0	2052063232	40	4492
2026-01-03 01:08:05.88	120.12	44.19	-34.6	-36.3	22.5	0.00e+00	0	43	0	2057306112	40	4484
2026-01-03 01:08:07.02	120.68	44.07	-34.4	-36.2	22.7	0.00e+00	0	43	0	2063597568	40	4392
2026-01-03 01:08:07.88	121.11	43.98	-34.3	-36.0	22.9	0.00e+00	0	43	0	2068840448	40	4295
2026-01-03 01:08:09.03	121.67	43.85	-34.3	-36.0	22.8	0.00e+00	0	43	0	2074083328	40	4323
2026-01-03 01:08:09.89	122.09	43.76	-34.5	-36.2	22.6	0.00e+00	0	43	0	2079326208	40	4407
2026-01-03 01:08:11.03	122.64	43.63	-34.9	-36.7	22.2	0.00e+00	0	43	0	2085617664	40	4665
2026-01-03 01:08:11.89	123.06	43.53	-35.0	-36.8	22.1	1.94e-05	0	43	0	2090860544	40	4732
2026-01-03 01:08:13.04	123.61	43.40	-35.0	-36.8	22.0	0.00e+00	0	44	0	2097152000	40	4709
2026-01-03 01:08:13.90	124.01	43.29	-35.0	-36.8	22.1	0.00e+00	0	43	0	2102394880	40	4727
2026-01-03 01:08:15.04	124.55	43.16	-34.6	-36.4	22.4	0.00e+00	0	43	0	2108686336	40	4506
2026-01-03 01:08:15.90	124.95	43.05	-34.4	-36.1	22.6	0.00e+00	0	44	0	2112880640	40	4373
2026-01-03 01:08:17.10	125.51	42.91	-34.4	-36.1	22.6	0.00e+00	0	43	0	2120220672	40	4359
2026-01-03 01:08:17.96	125.90	42.80	-34.4	-36.2	22.6	0.00e+00	0	43	0	2124414976	40	4394
2026-01-03 01:08:19.10	126.42	42.65	-34.5	-36.2	22.6	0.00e+00	0	43	0	2131755008	40	4437
2026-01-03 01:08:19.97	126.82	42.54	-34.4	-36.2	22.6	0.00e+00	0	44	0	2135949312	40	4401
2026-01-03 01:08:21.11	127.33	42.39	-34.4	-36.1	22.7	0.00e+00	0	44	0	2142240768	40	4357
2026-01-03 01:08:21.98	127.71	42.28	-34.5	-36.2	22.6	0.00e+00	0	43	0	2147483648	40	4423
2026-01-03 01:08:23.12	128.22	42.13	-34.5	-36.3	22.6	0.00e+00	0	43	0	2153775104	40	4444
2026-01-03 01:08:23.98	128.59	42.01	-34.4	-36.2	22.6	0.00e+00	0	44	0	2159017984	40	4399
2026-01-03 01:08:25.13	129.09	41.86	-34.5	-36.2	22.6	0.00e+00	0	43	0	2165309440	40	4426
2026-01-03 01:08:25.99	129.47	41.74	-34.5	-36.2	22.5	0.00e+00	0	43	0	2170552320	40	4437
2026-01-03 01:08:27.14	129.96	41.58	-34.3	-36.0	22.7	0.00e+00	0	44	0	2176843776	40	4334
2026-01-03 01:08:28.00	130.32	41.46	-34.2	-35.9	22.8	0.00e+00	0	43	0	2181038080	40	4273
2026-01-03 01:08:29.14	130.80	41.31	-34.3	-36.0	22.7	0.00e+00	0	43	0	2188378112	40	4320
2026-01-03 01:08:30.31	131.29	41.14	-34.3	-36.0	22.8	0.00e+00	0	44	0	2194669568	40	4313
2026-01-03 01:08:31.34	131.71	40.99	-34.2	-36.0	22.8	0.00e+00	0	44	0	2199912448	40	4299
2026-01-03 01:08:32.34	132.12	40.85	-34.1	-35.8	22.9	0.00e+00	0	44	0	2206203904	40	4221
2026-01-03 01:08:33.55	132.61	40.67	-34.1	-35.8	23.0	0.00e+00	0	44	0	2212495360	40	4209
2026-01-03 01:08:34.44	132.96	40.54	-34.1	-35.8	22.9	0.00e+00	0	43	0	2217738240	40	4241
2026-01-03 01:08:35.59	133.42	40.38	-34.3	-36.0	22.7	0.00e+00	0	44	0	2224029696	40	4340
2026-01-03 01:08:36.45	133.76	40.25	-34.3	-36.0	22.7	0.00e+00	0	44	0	2229272576	40	4318
2026-01-03 01:08:37.60	134.21	40.08	-34.4	-36.1	22.6	0.00e+00	0	43	0	2235564032	40	4361
2026-01-03 01:08:38.46	134.54	39.95	-34.5	-36.2	22.5	0.00e+00	0	43	0	2239758336	40	4420
2026-01-03 01:08:39.60	134.98	39.78	-34.5	-36.2	22.5	0.00e+00	0	43	0	2247098368	40	4438
2026-01-03 01:08:40.46	135.30	39.65	-34.4	-36.1	22.6	0.00e+00	0	44	0	2251292672	40	4385
2026-01-03 01:08:41.61	135.74	39.48	-34.3	-36.1	22.7	0.00e+00	0	43	0	2257584128	40	4352
2026-01-03 01:08:42.47	136.06	39.34	-34.4	-36.1	22.7	0.00e+00	0	43	0	2262827008	40	4370
2026-01-03 01:08:43.61	136.48	39.17	-34.3	-36.0	22.7	0.00e+00	0	44	0	2269118464	40	4335
2026-01-03 01:08:44.81	136.92	38.99	-34.2	-35.9	22.8	0.00e+00	0	44	0	2275409920	40	4262
2026-01-03 01:08:45.85	137.29	38.83	-34.1	-35.8	22.9	0.00e+00	0	43	0	2281701376	40	4235
2026-01-03 01:08:46.84	137.65	38.67	-34.1	-35.9	22.8	0.00e+00	0	44	0	2286944256	40	4250
2026-01-03 01:08:47.85	138.00	38.52	-34.2	-36.0	22.8	0.00e+00	0	43	0	2293235712	40	4296
2026-01-03 01:08:48.85	138.36	38.36	-34.1	-35.8	22.9	0.00e+00	0	43	0	2298478592	40	4215
2026-01-03 01:08:49.85	138.70	38.20	-34.1	-35.8	22.9	0.00e+00	0	44	0	2304770048	40	4228
2026-01-03 01:08:50.85	139.05	38.05	-34.1	-35.8	22.9	0.00e+00	0	44	0	2310012928	40	4235
2026-01-03 01:08:51.85	139.39	37.89	-34.1	-35.8	22.9	0.00e+00	0	44	0	2315255808	40	4233
2026-01-03 01:08:52.85	139.73	37.73	-34.0	-35.7	23.0	0.00e+00	0	43	0	2321547264	40	4182
2026-01-03 01:08:53.85	140.06	37.57	-34.1	-35.8	22.9	0.00e+00	0	44	0	2326790144	40	4203
2026-01-03 01:08:54.86	140.40	37.42	-34.1	-35.8	22.9	0.00e+00	0	44	0	2332033024	40	4240
2026-01-03 01:08:55.86	140.73	37.26	-34.2	-35.9	22.8	0.00e+00	0	43	0	2338324480	40	4273
2026-01-03 01:08:56.86	141.05	37.10	-34.2	-36.0	22.8	0.00e+00	0	44	0	2343567360	40	4295
2026-01-03 01:08:57.86	141.37	36.94	-34.2	-35.9	22.8	0.00e+00	0	43	0	2348810240	40	4262
2026-01-03 01:08:58.86	141.69	36.78	-34.2	-35.9	22.8	0.00e+00	0	43	0	2355101696	40	4269
2026-01-03 01:08:59.86	142.01	36.62	-34.2	-35.9	22.8	0.00e+00	0	44	0	2360344576	40	4276
2026-01-03 01:09:00.87	142.33	36.46	-34.2	-35.9	22.7	0.00e+00	0	44	0	2366636032	40	4275
2026-01-03 01:09:01.87	142.64	36.30	-34.3	-36.0	22.7	0.00e+00	0	44	0	2371878912	40	4319
2026-01-03 01:09:02.87	142.94	36.14	-34.2	-36.0	22.7	0.00e+00	0	44	0	2377121792	40	4317
2026-01-03 01:09:03.87	143.25	35.98	-34.3	-36.1	22.6	0.00e+00	0	44	0	2383413248	40	4353
2026-01-03 01:09:04.87	143.55	35.82	-34.3	-36.0	22.7	0.00e+00	0	43	0	2388656128	40	4323
2026-01-03 01:09:05.87	143.85	35.66	-34.3	-36.0	22.7	0.00e+00	0	44	0	2393899008	40	4337
2026-01-03 01:09:06.88	144.15	35.50	-34.3	-36.1	22.6	0.00e+00	0	44	0	2400190464	40	4356
2026-01-03 01:09:07.88	144.44	35.34	-34.2	-36.0	22.7	0.00e+00	0	44	0	2405433344	40	4304
2026-01-03 01:09:08.88	144.73	35.18	-34.0	-35.8	22.9	0.00e+00	0	43	0	2411724800	40	4194
2026-01-03 01:09:09.89	145.02	35.02	-34.1	-35.8	22.9	0.00e+00	0	44	0	2416967680	40	4223
2026-01-03 01:09:10.95	145.32	34.85	-34.2	-36.0	22.7	0.00e+00	0	44	0	2423259136	40	4299
2026-01-03 01:09:11.84	145.57	34.71	-34.3	-36.0	22.6	0.00e+00	0	44	0	2428502016	40	4331
2026-01-03 01:09:12.99	145.89	34.52	-34.4	-36.2	22.5	0.00e+00	0	44	0	2434793472	40	4392
2026-01-03 01:09:13.84	146.13	34.39	-34.4	-36.1	22.5	4.50e-06	0	44	0	2438987776	40	4379
2026-01-03 01:09:14.99	146.44	34.20	-34.2	-35.9	22.7	0.00e+00	0	44	0	2445279232	40	4283
2026-01-03 01:09:15.85	146.67	34.06	-34.2	-35.9	22.7	0.00e+00	0	44	0	2450522112	40	4285
2026-01-03 01:09:16.99	146.98	33.88	-34.1	-35.8	22.8	0.00e+00	0	43	0	2456813568	40	4224
2026-01-03 01:09:17.85	147.21	33.75	-34.1	-35.8	22.8	0.00e+00	0	43	0	2462056448	40	4235
2026-01-03 01:09:19.00	147.51	33.56	-34.1	-35.8	22.7	0.00e+00	0	44	0	2468347904	40	4242
2026-01-03 01:09:19.86	147.73	33.43	-34.2	-35.9	22.7	0.00e+00	0	44	0	2472542208	40	4291
2026-01-03 01:09:21.00	148.03	33.25	-34.2	-35.9	22.7	0.00e+00	0	44	0	2479882240	40	4291
2026-01-03 01:09:21.86	148.25	33.11	-34.2	-35.9	22.7	0.00e+00	0	44	0	2484076544	40	4277
2026-01-03 01:09:23.10	148.56	32.91	-34.1	-35.8	22.8	0.00e+00	0	44	0	2491416576	40	4237
2026-01-03 01:09:23.95	148.78	32.78	-34.2	-35.9	22.7	0.00e+00	0	43	0	2495610880	40	4285
2026-01-03 01:09:25.10	149.06	32.60	-34.4	-36.1	22.5	0.00e+00	0	44	0	2502950912	40	4385
2026-01-03 01:09:25.96	149.27	32.46	-34.4	-36.1	22.5	0.00e+00	0	44	0	2507145216	40	4386
2026-01-03 01:09:27.11	149.55	32.28	-34.5	-36.3	22.4	0.00e+00	0	43	0	2513436672	40	4457
2026-01-03 01:09:28.02	149.77	32.14	-34.5	-36.2	22.4	0.00e+00	0	44	0	2518679552	40	4427
2026-01-03 01:09:29.03	150.01	31.98	-34.6	-36.3	22.4	0.00e+00	0	44	0	2524971008	40	4473
2026-01-03 01:09:30.03	150.25	31.82	-34.6	-36.4	22.3	0.00e+00	0	44	0	2530213888	40	4516
2026-01-03 01:09:31.04	150.49	31.66	-34.6	-36.4	22.3	0.00e+00	0	44	0	2536505344	40	4503
2026-01-03 01:09:32.04	150.72	31.51	-34.5	-36.2	22.5	0.00e+00	0	44	0	2541748224	40	4431
2026-01-03 01:09:33.05	150.95	31.35	-34.5	-36.3	22.5	0.00e+00	0	44	0	2546991104	40	4448
2026-01-03 01:09:34.05	151.18	31.20	-34.6	-36.3	22.4	0.00e+00	0	44	0	2553282560	40	4472
2026-01-03 01:09:35.05	151.41	31.04	-34.6	-36.4	22.3	0.00e+00	0	43	0	2558525440	40	4513
2026-01-03 01:09:36.05	151.63	30.89	-34.5	-36.3	22.4	0.00e+00	0	43	0	2563768320	40	4465
2026-01-03 01:09:37.05	151.85	30.73	-34.6	-36.3	22.4	0.00e+00	0	44	0	2570059776	40	4493
2026-01-03 01:09:38.05	152.07	30.58	-34.6	-36.4	22.4	0.00e+00	0	44	0	2575302656	40	4498
2026-01-03 01:09:39.06	152.29	30.42	-34.4	-36.2	22.5	0.00e+00	0	43	0	2580545536	40	4425
2026-01-03 01:09:40.05	152.50	30.27	-34.4	-36.2	22.4	0.00e+00	0	44	0	2586836992	40	4429
2026-01-03 01:09:41.06	152.72	30.12	-34.5	-36.3	22.4	0.00e+00	0	43	0	2592079872	40	4464
2026-01-03 01:09:42.06	152.93	29.97	-34.4	-36.1	22.5	0.00e+00	0	44	0	2598371328	40	4374
2026-01-03 01:09:43.06	153.14	29.81	-34.4	-36.2	22.5	0.00e+00	0	44	0	2603614208	40	4398
2026-01-03 01:09:44.30	153.40	29.63	-34.4	-36.2	22.5	0.00e+00	0	44	0	2610954240	40	4402
2026-01-03 01:09:45.15	153.57	29.50	-34.4	-36.2	22.5	0.00e+00	0	43	0	2615148544	40	4399
2026-01-03 01:09:46.52	153.85	29.29	-34.5	-36.3	22.4	0.00e+00	0	44	0	2622488576	40	4483
2026-01-03 01:09:47.23	154.00	29.18	-34.6	-36.4	22.3	0.00e+00	0	43	0	2626682880	40	4516
2026-01-03 01:09:48.52	154.25	28.99	-34.7	-36.5	22.2	0.00e+00	0	43	0	2634022912	40	4572
2026-01-03 01:09:49.24	154.40	28.88	-34.8	-36.6	22.1	0.00e+00	0	44	0	2638217216	40	4629
2026-01-03 01:09:50.53	154.65	28.69	-34.8	-36.6	22.1	0.00e+00	0	43	0	2645557248	40	4625
2026-01-03 01:09:51.25	154.79	28.59	-34.8	-36.6	22.1	0.00e+00	0	43	0	2649751552	40	4613
2026-01-03 01:09:52.53	155.03	28.40	-34.7	-36.5	22.2	0.00e+00	0	44	0	2657091584	40	4565
2026-01-03 01:09:53.25	155.17	28.29	-34.8	-36.5	22.2	0.00e+00	0	43	0	2661285888	40	4582
2026-01-03 01:09:54.54	155.42	28.10	-34.6	-36.4	22.3	0.00e+00	0	43	0	2668625920	40	4496
2026-01-03 01:09:55.26	155.55	27.99	-34.5	-36.2	22.5	0.00e+00	0	44	0	2671771648	40	4422
2026-01-03 01:09:56.55	155.79	27.81	-34.4	-36.1	22.6	0.00e+00	0	44	0	2679111680	40	4359
2026-01-03 01:09:57.26	155.92	27.70	-34.4	-36.1	22.6	0.00e+00	0	44	0	2683305984	40	4379
2026-01-03 01:09:58.58	156.16	27.51	-34.3	-36.0	22.6	0.00e+00	0	43	0	2690646016	40	4335
2026-01-03 01:09:59.30	156.29	27.41	-34.3	-36.1	22.6	0.00e+00	0	44	0	2694840320	40	4349
2026-01-03 01:10:00.59	156.52	27.22	-34.3	-36.0	22.6	0.00e+00	0	44	0	2702180352	40	4334
2026-01-03 01:10:01.31	156.65	27.12	-34.4	-36.1	22.6	0.00e+00	0	44	0	2706374656	40	4383
2026-01-03 01:10:02.69	156.89	26.92	-34.4	-36.2	22.5	0.00e+00	0	43	0	2713714688	40	4400
2026-01-03 01:10:03.68	157.07	26.78	-34.5	-36.2	22.4	0.00e+00	0	44	0	2718957568	40	4435
2026-01-03 01:10:05.01	157.30	26.59	-34.6	-36.4	22.4	0.00e+00	0	43	0	2727346176	40	4496
2026-01-03 01:10:05.73	157.42	26.49	-34.6	-36.4	22.3	0.00e+00	0	44	0	2731540480	40	4520
2026-01-03 01:10:07.02	157.64	26.31	-34.7	-36.4	21.6	0.00e+00	0	43	0	2737831936	40	4539
2026-01-03 01:10:07.73	157.76	26.21	-34.7	-36.4	22.3	0.00e+00	0	43	0	2742026240	40	4539
2026-01-03 01:10:09.03	157.97	26.02	-34.7	-36.5	22.3	0.00e+00	0	44	0	2749366272	40	4552
2026-01-03 01:10:09.74	158.09	25.92	-34.7	-36.5	22.2	0.00e+00	0	44	0	2753560576	40	4583
2026-01-03 01:10:11.03	158.30	25.74	-34.9	-36.6	22.1	0.00e+00	0	43	0	2760900608	40	4645
2026-01-03 01:10:11.75	158.42	25.64	-34.8	-36.5	22.1	0.00e+00	0	44	0	2765094912	40	4593
2026-01-03 01:10:13.04	158.63	25.47	-34.8	-36.5	22.2	0.00e+00	0	44	0	2772434944	40	4586
2026-01-03 01:10:13.75	158.74	25.37	-34.8	-36.6	22.1	0.00e+00	0	44	0	2776629248	40	4610
2026-01-03 01:10:15.27	158.98	25.16	-34.6	-36.4	22.3	0.00e+00	0	43	0	2785017856	40	4518
2026-01-03 01:10:16.24	159.13	25.03	-34.8	-36.5	22.2	0.00e+00	0	44	0	2790260736	40	4573
2026-01-03 01:10:17.24	159.29	24.89	-34.8	-36.5	22.2	0.00e+00	0	43	0	2795503616	40	4591
2026-01-03 01:10:18.24	159.44	24.76	-34.8	-36.5	22.2	0.00e+00	0	43	0	2801795072	40	4580
2026-01-03 01:10:19.25	159.59	24.62	-34.8	-36.5	22.2	0.00e+00	0	44	0	2807037952	40	4587
2026-01-03 01:10:20.25	159.74	24.48	-34.7	-36.5	22.3	0.00e+00	0	43	0	2812280832	40	4549
2026-01-03 01:10:21.25	159.89	24.35	-34.8	-36.6	22.2	0.00e+00	0	43	0	2818572288	40	4623
2026-01-03 01:10:22.25	160.04	24.22	-34.8	-36.5	22.2	0.00e+00	0	44	0	2823815168	40	4592
2026-01-03 01:10:23.29	160.20	24.08	-34.9	-36.7	22.1	0.00e+00	0	44	0	2830106624	40	4659
2026-01-03 01:10:24.29	160.34	23.94	-34.9	-36.6	22.1	0.00e+00	0	44	0	2835349504	40	4637
2026-01-03 01:10:25.35	160.50	23.80	-35.0	-36.8	22.0	0.00e+00	0	44	0	2841640960	40	4728
2026-01-03 01:10:26.26	160.63	23.68	-35.1	-36.8	21.9	0.00e+00	0	44	0	2846883840	40	4750
2026-01-03 01:10:27.28	160.77	23.55	-35.1	-36.8	21.9	0.00e+00	0	43	0	2852126720	40	4750
2026-01-03 01:10:28.45	160.94	23.40	-35.0	-36.8	21.9	0.00e+00	0	43	0	2858418176	40	4741
2026-01-03 01:10:29.35	161.07	23.28	-35.1	-36.8	21.9	0.00e+00	0	43	0	2863661056	40	4750
2026-01-03 01:10:30.37	161.21	23.15	-35.2	-36.9	21.8	0.00e+00	0	43	0	2869952512	41	4541
2026-01-03 01:10:31.37	161.35	23.02	-35.1	-36.9	21.9	0.00e+00	0	43	0	2875195392	41	4526
2026-01-03 01:10:32.37	161.48	22.89	-35.2	-37.0	21.8	0.00e+00	0	43	0	2880438272	41	4578
2026-01-03 01:10:33.38	161.62	22.76	-35.3	-37.1	21.7	0.00e+00	0	44	0	2886729728	41	4611
2026-01-03 01:10:34.38	161.75	22.63	-35.3	-37.1	21.7	0.00e+00	0	43	0	2891972608	41	4633
2026-01-03 01:10:35.38	161.89	22.51	-35.4	-37.2	21.6	0.00e+00	0	44	0	2898264064	41	4668
2026-01-03 01:10:36.39	162.02	22.38	-35.5	-37.3	21.5	0.00e+00	0	43	0	2903506944	41	4740
2026-01-03 01:10:37.39	162.15	22.25	-35.5	-37.3	21.5	0.00e+00	0	43	0	2908749824	41	4735
2026-01-03 01:10:38.39	162.28	22.13	-35.5	-37.3	21.5	0.00e+00	0	44	0	2915041280	41	4746
2026-01-03 01:10:39.39	162.41	22.00	-35.5	-37.4	21.4	0.00e+00	0	44	0	2920284160	41	4767
2026-01-03 01:10:40.40	162.54	21.87	-35.5	-37.3	21.5	0.00e+00	0	44	0	2926575616	41	4752
2026-01-03 01:10:41.40	162.67	21.75	-35.5	-37.4	21.4	0.00e+00	0	44	0	2931818496	41	4782
2026-01-03 01:10:42.41	162.80	21.62	-35.6	-37.4	21.4	0.00e+00	0	43	0	2937061376	41	4801
2026-01-03 01:10:43.41	162.92	21.50	-35.5	-37.4	21.4	0.00e+00	0	44	0	2943352832	41	4770
2026-01-03 01:10:44.47	163.06	21.37	-35.6	-37.4	21.4	0.00e+00	0	44	0	2948595712	41	4794
2026-01-03 01:10:45.36	163.17	21.26	-35.6	-37.4	21.3	0.00e+00	0	44	0	2953838592	41	4807
2026-01-03 01:10:46.51	163.31	21.12	-35.6	-37.4	21.4	0.00e+00	0	43	0	2960130048	41	4772
2026-01-03 01:10:47.37	163.41	21.02	-35.5	-37.3	21.4	0.00e+00	0	44	0	2965372928	41	4752
2026-01-03 01:10:48.52	163.55	20.88	-35.6	-37.5	21.3	0.00e+00	0	44	0	2971664384	41	4818
2026-01-03 01:10:49.38	163.65	20.77	-35.6	-37.4	21.4	0.00e+00	0	44	0	2976907264	41	4783
2026-01-03 01:10:50.52	163.79	20.64	-35.6	-37.4	21.4	0.00e+00	0	44	0	2983198720	41	4783
2026-01-03 01:10:51.38	163.89	20.53	-35.7	-37.5	21.3	9.04e-05	0	44	0	2988441600	41	4827
2026-01-03 01:10:52.53	164.03	20.39	-35.6	-37.4	21.4	0.00e+00	0	44	0	2993684480	41	4781
2026-01-03 01:10:53.38	164.13	20.29	-35.7	-37.5	21.3	0.00e+00	0	43	0	2998927360	41	4842
2026-01-03 01:10:54.53	164.26	20.16	-35.7	-37.5	21.2	0.00e+00	0	43	0	3005218816	42	4592
2026-01-03 01:10:55.39	164.36	20.06	-35.8	-37.6	21.2	0.00e+00	0	44	0	3010461696	42	4610
2026-01-03 01:10:56.53	164.49	19.92	-35.8	-37.6	21.2	0.00e+00	0	43	0	3016753152	42	4635
2026-01-03 01:10:57.39	164.58	19.82	-35.7	-37.6	21.2	0.00e+00	0	43	0	3021996032	42	4608
2026-01-03 01:10:58.60	164.72	19.68	-35.8	-37.7	21.1	0.00e+00	0	44	0	3028287488	42	4668
2026-01-03 01:10:59.46	164.81	19.58	-35.9	-37.8	21.1	0.00e+00	0	43	0	3033530368	42	4707
2026-01-03 01:11:00.61	164.94	19.45	-35.9	-37.7	21.1	0.00e+00	0	44	0	3039821824	42	4678
2026-01-03 01:11:01.46	165.03	19.35	-35.9	-37.8	21.0	0.00e+00	0	44	0	3044016128	42	4710
2026-01-03 01:11:02.61	165.16	19.22	-35.9	-37.8	21.0	0.00e+00	0	44	0	3051356160	42	4726
2026-01-03 01:11:03.47	165.25	19.12	-36.0	-37.9	21.0	0.00e+00	0	44	0	3055550464	42	4762
2026-01-03 01:11:04.61	165.37	18.99	-36.0	-37.8	21.0	0.00e+00	0	44	0	3061841920	42	4754
2026-01-03 01:11:05.61	165.48	18.88	-36.0	-37.9	21.0	0.00e+00	0	44	0	3068133376	42	4764
2026-01-03 01:11:06.81	165.61	18.74	-36.1	-38.0	20.9	0.00e+00	0	44	0	3074424832	42	4818
2026-01-03 01:11:07.72	165.70	18.64	-36.1	-37.9	20.9	0.00e+00	0	44	0	3079667712	42	4803
2026-01-03 01:11:08.91	165.83	18.50	-36.1	-38.0	20.9	0.00e+00	0	44	0	3085959168	42	4817
2026-01-03 01:11:09.80	165.92	18.40	-36.2	-38.0	20.8	0.00e+00	0	44	0	3091202048	43	4584
2026-01-03 01:11:10.87	166.03	18.28	-36.1	-38.0	20.9	0.00e+00	0	44	0	3097493504	43	4570
2026-01-03 01:11:11.74	166.12	18.19	-36.2	-38.1	20.8	0.00e+00	0	44	0	3102736384	43	4606
2026-01-03 01:11:12.89	166.23	18.06	-36.3	-38.2	20.7	0.00e+00	0	43	0	3109027840	43	4665
2026-01-03 01:11:13.75	166.32	17.97	-36.3	-38.2	20.7	0.00e+00	0	44	0	3113222144	43	4653
2026-01-03 01:11:14.90	166.43	17.84	-36.5	-38.3	20.6	1.10e-06	0	44	0	3120562176	43	4754
2026-01-03 01:11:15.76	166.52	17.75	-36.4	-38.2	20.7	0.00e+00	0	44	0	3124756480	43	4697
2026-01-03 01:11:16.92	166.63	17.62	-36.4	-38.2	20.7	0.00e+00	0	44	0	3131047936	43	4705
2026-01-03 01:11:17.78	166.72	17.53	-36.5	-38.3	20.6	0.00e+00	0	44	0	3136290816	43	4748
2026-01-03 01:11:19.00	166.84	17.39	-36.5	-38.4	20.5	0.00e+00	0	44	0	3143630848	43	4803
2026-01-03 01:11:19.86	166.92	17.30	-36.5	-38.3	20.6	0.00e+00	0	44	0	3147825152	43	4754
2026-01-03 01:11:21.05	167.03	17.17	-36.5	-38.4	20.5	0.00e+00	0	44	0	3155165184	43	4803
2026-01-03 01:11:21.91	167.11	17.08	-36.6	-38.5	20.4	0.00e+00	0	44	0	3159359488	43	4847
2026-01-03 01:11:23.06	167.22	16.96	-36.6	-38.5	20.5	0.00e+00	0	43	0	3165650944	43	4821
2026-01-03 01:11:23.92	167.30	16.87	-36.6	-38.5	20.4	0.00e+00	0	44	0	3170893824	43	4855
2026-01-03 01:11:25.06	167.41	16.75	-36.6	-38.5	20.4	0.00e+00	0	44	0	3177185280	43	4848
2026-01-03 01:11:25.92	167.49	16.66	-36.6	-38.5	20.4	0.00e+00	0	43	0	3182428160	43	4840
2026-01-03 01:11:27.06	167.59	16.54	-36.6	-38.5	20.4	0.00e+00	0	43	0	3188719616	43	4848
2026-01-03 01:11:27.92	167.67	16.45	-36.8	-38.7	20.4	0.00e+00	0	44	0	3192913920	44	4689
2026-01-03 01:11:29.07	167.77	16.33	-37.0	-38.9	20.2	0.00e+00	0	44	0	3200253952	44	4770
2026-01-03 01:11:29.93	167.85	16.24	-37.0	-38.9	20.1	0.00e+00	0	44	0	3204448256	44	4809
2026-01-03 01:11:31.07	167.95	16.12	-37.0	-38.9	20.2	0.00e+00	0	44	0	3210739712	44	4802
2026-01-03 01:11:31.93	168.03	16.03	-37.0	-38.9	20.2	0.00e+00	0	43	0	3215982592	44	4770
2026-01-03 01:11:33.08	168.13	15.92	-37.1	-39.0	20.1	0.00e+00	0	44	0	3222274048	44	4828
2026-01-03 01:11:33.93	168.21	15.83	-37.1	-39.0	20.1	0.00e+00	0	44	0	3227516928	44	4841
2026-01-03 01:11:35.08	168.31	15.71	-37.2	-39.1	20.0	0.00e+00	0	43	0	3233808384	44	4893
2026-01-03 01:11:35.94	168.38	15.62	-37.2	-39.1	19.9	0.00e+00	0	43	0	3239051264	45	4650
2026-01-03 01:11:37.09	168.48	15.51	-37.3	-39.2	19.9	0.00e+00	0	44	0	3245342720	45	4703
2026-01-03 01:11:37.94	168.55	15.42	-37.2	-39.1	19.9	0.00e+00	0	44	0	3249537024	45	4645
2026-01-03 01:11:39.09	168.65	15.31	-37.2	-39.2	19.0	2.74e-05	0	43	0	3255828480	45	4663
2026-01-03 01:11:39.95	168.72	15.22	-37.3	-39.3	19.8	0.00e+00	0	43	0	3261071360	45	4708
2026-01-03 01:11:41.09	168.82	15.11	-37.4	-39.3	19.7	0.00e+00	0	43	0	3267362816	45	4759
2026-01-03 01:11:41.96	168.89	15.02	-37.4	-39.3	11.5	0.00e+00	0	44	0	3272605696	45	4758
2026-01-03 01:11:43.10	168.98	14.91	-37.4	-39.4	19.7	0.00e+00	0	43	0	3278897152	45	4760
2026-01-03 01:11:43.96	169.05	14.82	-37.3	-39.3	19.7	0.00e+00	0	43	0	3283091456	45	4742
2026-01-03 01:11:45.11	169.15	14.71	-37.5	-39.5	19.6	1.98e-03	0	43	0	3290431488	45	4821
2026-01-03 01:11:45.97	169.22	14.63	-37.5	-39.5	19.6	0.00e+00	0	44	0	3294625792	45	4826
2026-01-03 01:11:47.14	169.31	14.51	-37.5	-39.4	19.6	0.00e+00	0	43	0	3301965824	45	4813
2026-01-03 01:11:48.00	169.38	14.43	-37.6	-39.5	19.5	1.25e-05	0	44	0	3306160128	45	4865
2026-01-03 01:11:49.15	169.47	14.32	-37.5	-39.5	19.6	0.00e+00	0	43	0	3312451584	45	4820
2026-01-03 01:11:50.00	169.54	14.23	-37.5	-39.5	19.6	0.00e+00	0	43	0	3317694464	45	4829
2026-01-03 01:11:51.15	169.63	14.12	-37.4	-39.5	19.6	0.00e+00	0	44	0	3323985920	45	4837
2026-01-03 01:11:52.01	169.70	14.04	-37.5	-39.6	19.5	0.00e+00	0	44	0	3329228800	45	4886
2026-01-03 01:11:53.15	169.78	13.93	-37.6	-39.6	19.4	0.00e+00	0	44	0	3335520256	45	4913
2026-01-03 01:11:54.01	169.85	13.85	-37.6	-39.7	19.4	9.10e-06	0	44	0	3339714560	45	4931
2026-01-03 01:11:55.16	169.94	13.74	-37.6	-39.6	19.4	0.00e+00	0	43	0	3347054592	45	4917
2026-01-03 01:11:56.02	170.00	13.66	-37.6	-39.7	19.4	0.00e+00	0	44	0	3351248896	45	4946
2026-01-03 01:11:57.17	170.09	13.55	-37.7	-39.7	19.3	0.00e+00	0	44	0	3357540352	46	4695
2026-01-03 01:11:58.28	170.17	13.45	-37.7	-39.7	19.4	0.00e+00	0	44	0	3363831808	46	4695
2026-01-03 01:11:59.32	170.25	13.35	-37.7	-39.7	19.3	0.00e+00	0	44	0	3370123264	46	4703
2026-01-03 01:12:00.52	170.34	13.24	-37.8	-39.8	19.3	0.00e+00	0	44	0	3376414720	46	4743
2026-01-03 01:12:01.39	170.41	13.16	-37.7	-39.7	19.3	0.00e+00	0	43	0	3381657600	46	4704
2026-01-03 01:12:02.53	170.49	13.05	-37.8	-39.9	19.2	0.00e+00	0	43	0	3387949056	46	4764
2026-01-03 01:12:03.39	170.55	12.97	-37.9	-39.9	19.2	1.10e-06	0	44	0	3393191936	46	4786
2026-01-03 01:12:04.53	170.63	12.87	-37.9	-39.9	19.2	0.00e+00	0	44	0	3399483392	46	4793
2026-01-03 01:12:05.39	170.70	12.79	-37.9	-39.9	19.2	0.00e+00	0	44	0	3404726272	46	4787
2026-01-03 01:12:06.54	170.78	12.68	-38.0	-40.0	19.1	0.00e+00	0	44	0	3411017728	46	4838
2026-01-03 01:12:07.40	170.84	12.61	-38.0	-40.1	19.0	0.00e+00	0	44	0	3415212032	46	4879
2026-01-03 01:12:08.54	170.92	12.50	-37.9	-39.9	19.2	0.00e+00	0	44	0	3421503488	46	4779
2026-01-03 01:12:09.40	170.98	12.42	-37.9	-39.9	19.2	0.00e+00	0	44	0	3426746368	46	4778
2026-01-03 01:12:10.55	171.06	12.32	-38.0	-40.0	19.1	0.00e+00	0	44	0	3433037824	46	4849
2026-01-03 01:12:11.41	171.12	12.24	-38.0	-40.0	19.0	0.00e+00	0	44	0	3438280704	46	4864
2026-01-03 01:12:12.56	171.20	12.14	-37.9	-40.0	19.1	0.00e+00	0	44	0	3444572160	46	4823
2026-01-03 01:12:13.42	171.26	12.06	-38.0	-40.0	19.1	0.00e+00	0	44	0	3448766464	46	4847
2026-01-03 01:12:14.64	171.34	11.96	-38.0	-40.0	19.1	0.00e+00	0	44	0	3456106496	46	4844
2026-01-03 01:12:15.50	171.40	11.88	-37.9	-40.0	19.1	3.07e-04	0	43	0	3461349376	46	4833
2026-01-03 01:12:16.65	171.48	11.78	-37.9	-39.9	19.1	0.00e+00	0	44	0	3467640832	46	4808
2026-01-03 01:12:17.51	171.54	11.70	-37.9	-40.0	19.1	0.00e+00	0	44	0	3471835136	46	4821
2026-01-03 01:12:18.66	171.61	11.60	-37.9	-40.0	19.1	0.00e+00	0	43	0	3479175168	46	4846
2026-01-03 01:12:19.52	171.67	11.53	-38.0	-40.1	19.0	0.00e+00	0	44	0	3483369472	46	4898
2026-01-03 01:12:20.66	171.74	11.43	-37.9	-40.1	19.0	0.00e+00	0	44	0	3489660928	46	4884
2026-01-03 01:12:21.52	171.80	11.35	-37.9	-40.0	19.0	0.00e+00	0	44	0	3494903808	46	4857
2026-01-03 01:12:22.67	171.88	11.25	-37.9	-40.0	19.1	0.00e+00	0	44	0	3501195264	46	4843
2026-01-03 01:12:23.52	171.93	11.18	-38.0	-40.1	19.0	0.00e+00	0	44	0	3506438144	46	4912
2026-01-03 01:12:24.67	172.01	11.08	-37.8	-39.9	19.2	0.00e+00	0	44	0	3512729600	46	4806
2026-01-03 01:12:25.82	172.08	10.98	-37.8	-40.0	19.0	0.00e+00	0	44	0	3519021056	46	4867
2026-01-03 01:12:26.83	172.14	10.89	-37.8	-40.0	19.1	0.00e+00	0	44	0	3525312512	46	4832
2026-01-03 01:12:28.01	172.22	10.79	-37.8	-40.1	15.1	0.00e+00	0	44	0	3531603968	46	4879
2026-01-03 01:12:28.87	172.27	10.72	-37.8	-40.1	19.0	0.00e+00	0	43	0	3535798272	46	4889
2026-01-03 01:12:30.02	172.34	10.62	-37.9	-40.2	18.9	0.00e+00	0	44	0	3543138304	46	4942
2026-01-03 01:12:30.88	172.40	10.55	-37.8	-40.1	18.3	0.00e+00	0	44	0	3547332608	46	4875
2026-01-03 01:12:32.02	172.47	10.46	-37.9	-40.2	18.9	0.00e+00	0	43	0	3553624064	46	4936
2026-01-03 01:12:32.88	172.52	10.38	-37.8	-40.1	19.0	0.00e+00	0	44	0	3558866944	46	4893
2026-01-03 01:12:34.03	172.59	10.29	-37.8	-40.2	18.9	0.00e+00	0	44	0	3565158400	46	4944
2026-01-03 01:12:34.89	172.64	10.22	-37.8	-40.2	18.8	0.00e+00	0	44	0	3570401280	46	4975
2026-01-03 01:12:36.03	172.71	10.12	-37.8	-40.2	18.9	0.00e+00	0	44	0	3576692736	46	4935
2026-01-03 01:12:36.89	172.76	10.05	-37.9	-40.3	18.7	0.00e+00	0	44	0	3581935616	46	4997
2026-01-03 01:12:38.04	172.83	9.95	-37.9	-40.3	18.8	0.00e+00	0	44	0	3588227072	46	4997
2026-01-03 01:12:38.90	172.88	9.88	-37.9	-40.4	18.7	0.00e+00	0	44	0	3592421376	46	5051
2026-01-03 01:12:40.04	172.95	9.79	-38.0	-40.4	18.6	0.00e+00	0	44	0	3598712832	46	5100
2026-01-03 01:12:40.90	173.00	9.72	-38.0	-40.4	18.7	0.00e+00	0	43	0	3603955712	46	5059
2026-01-03 01:12:42.05	173.07	9.63	-38.1	-40.5	18.5	0.00e+00	0	44	0	3610247168	46	5122
2026-01-03 01:12:42.91	173.12	9.56	-38.2	-40.6	18.4	0.00e+00	0	43	0	3615490048	47	4881
2026-01-03 01:12:44.05	173.19	9.46	-38.1	-40.5	18.6	0.00e+00	0	44	0	3621781504	47	4821
2026-01-03 01:12:44.91	173.24	9.39	-38.2	-40.5	18.5	0.00e+00	0	44	0	3625975808	47	4866
2026-01-03 01:12:46.06	173.30	9.30	-38.2	-40.5	18.5	0.00e+00	0	44	0	3633315840	47	4856
2026-01-03 01:12:46.92	173.35	9.23	-38.3	-40.6	18.4	0.00e+00	0	44	0	3637510144	47	4906
2026-01-03 01:12:48.06	173.42	9.14	-38.3	-40.7	18.4	0.00e+00	0	44	0	3643801600	47	4941
2026-01-03 01:12:48.92	173.47	9.07	-38.3	-40.6	18.4	0.00e+00	0	44	0	3649044480	47	4897
2026-01-03 01:12:50.07	173.53	8.98	-44.9	-54.8	4.3	0.00e+00	0	44	104	3654287360	61	11183
2026-01-03 01:12:50.93	173.58	8.91	-48.1	-60.1	3.8	8.38e-01	0	44	104	3654287360	66	15406
