passes_logs/2026/01/03/T1/T1__20260103_074339_NOAA_21_JPSS-2_rec.log

#Pass ID: 20260103_074339_NOAA 21 (JPSS-2)
#Satellite: NOAA 21 (JPSS-2)
#Configuration: NOAA 21
#almurnet v.1.7.20251203
#Start time: 2026-01-03 07:43:40

#Version: 2.0.20230620
#Station: T1
#Location: 37.570604 lon 55.790049 lat
#TLE: 1 54234U 22150A   26002.88923379  .00000185  00000+0  10883-3 0  9993
#TLE: 2 54234  98.7486 303.9362 0001189 349.0578  11.0572 14.19531433163092

#Time	Az	El	Level	Level2	SNR	BER	BlckErr	Temp	State	Recorded	gain1	gain2
2026-01-03 07:43:40.70	89.21	5.06	-52.2	-65.2	3.8	1.49e+00	0	39	0	0	76	15754
2026-01-03 07:43:41.70	89.11	5.11	-52.2	-65.2	3.8	1.49e+00	0	39	104	0	76	15654
2026-01-03 07:43:42.70	89.00	5.16	-52.2	-65.3	3.8	1.49e+00	0	39	104	0	76	15774
2026-01-03 07:43:43.69	88.89	5.21	-52.2	-65.2	3.8	1.49e+00	0	39	104	0	76	15697
2026-01-03 07:43:44.69	88.79	5.27	-52.2	-65.3	3.8	1.49e+00	0	39	104	0	76	15816
2026-01-03 07:43:45.68	88.68	5.32	-52.2	-65.2	3.8	1.49e+00	0	39	104	0	76	15760
2026-01-03 07:43:46.68	88.57	5.37	-52.2	-65.3	3.8	1.49e+00	0	39	104	0	76	15761
2026-01-03 07:43:47.68	88.46	5.42	-52.2	-65.3	3.8	1.49e+00	0	39	104	0	76	15763
2026-01-03 07:43:48.68	88.35	5.47	-52.2	-65.3	3.8	1.49e+00	0	40	104	0	76	15837
2026-01-03 07:43:49.67	88.24	5.52	-52.2	-65.3	3.8	1.49e+00	0	40	104	0	76	15782
2026-01-03 07:43:50.67	88.13	5.57	-52.2	-65.2	3.8	1.49e+00	0	40	104	0	76	15746
2026-01-03 07:43:51.67	88.02	5.62	-52.2	-65.3	3.8	1.49e+00	0	40	104	0	76	15794
2026-01-03 07:43:52.67	87.91	5.68	-52.2	-65.2	3.8	1.49e+00	0	40	104	0	76	15751
2026-01-03 07:43:53.67	87.80	5.73	-52.2	-65.3	3.8	1.49e+00	0	40	104	0	76	15805
2026-01-03 07:43:54.66	87.69	5.78	-52.2	-65.3	3.8	1.49e+00	0	40	104	0	76	15822
2026-01-03 07:43:55.66	87.58	5.83	-52.2	-65.3	3.8	1.49e+00	0	40	104	0	76	15776
2026-01-03 07:43:56.66	87.47	5.88	-52.2	-65.2	3.8	1.49e+00	0	40	104	0	76	15699
2026-01-03 07:43:57.66	87.36	5.93	-52.2	-65.2	3.8	1.49e+00	0	40	104	0	76	15619
2026-01-03 07:43:58.65	87.24	5.98	-52.2	-65.2	3.8	1.49e+00	0	40	104	0	76	15612
2026-01-03 07:43:59.65	87.13	6.03	-52.2	-65.2	3.8	1.49e+00	0	40	104	0	76	15608
2026-01-03 07:44:00.65	87.02	6.09	-52.2	-65.2	3.8	1.49e+00	0	40	104	0	76	15587
2026-01-03 07:44:01.65	86.90	6.14	-52.2	-65.2	3.8	1.49e+00	0	40	104	0	76	15645
2026-01-03 07:44:02.65	86.79	6.19	-52.2	-65.2	3.8	1.49e+00	0	40	104	0	76	15622
2026-01-03 07:44:03.65	86.67	6.24	-52.2	-65.2	3.8	1.49e+00	0	40	104	0	76	15668
2026-01-03 07:44:04.65	86.56	6.29	-52.2	-65.2	3.8	1.49e+00	0	40	104	0	76	15671
2026-01-03 07:44:05.65	86.44	6.34	-52.2	-65.2	3.8	1.49e+00	0	40	104	0	76	15711
2026-01-03 07:44:06.64	86.33	6.39	-52.2	-65.1	3.8	1.49e+00	0	40	104	0	76	15566
2026-01-03 07:44:07.63	86.21	6.44	-52.2	-65.2	3.8	1.49e+00	0	40	104	0	76	15670
2026-01-03 07:44:08.63	86.09	6.50	-52.2	-65.2	3.8	1.49e+00	0	40	104	0	76	15644
2026-01-03 07:44:09.63	85.98	6.55	-52.2	-65.2	3.8	1.49e+00	0	40	104	0	76	15677
2026-01-03 07:44:10.63	85.86	6.60	-52.2	-65.2	3.8	1.49e+00	0	40	104	0	76	15709
2026-01-03 07:44:11.62	85.74	6.65	-52.2	-65.2	3.8	1.49e+00	0	41	104	0	76	15665
2026-01-03 07:44:12.62	85.62	6.70	-52.2	-65.2	3.8	1.49e+00	0	40	104	0	76	15682
2026-01-03 07:44:13.62	85.50	6.75	-52.2	-65.2	3.8	1.49e+00	0	40	104	0	76	15693
2026-01-03 07:44:14.62	85.38	6.80	-52.2	-65.2	3.8	1.49e+00	0	40	104	0	76	15604
2026-01-03 07:44:15.62	85.26	6.85	-52.2	-65.1	3.8	1.49e+00	0	41	104	0	76	15559
2026-01-03 07:44:16.62	85.14	6.91	-52.2	-65.1	3.8	1.49e+00	0	40	104	0	76	15493
2026-01-03 07:44:17.61	85.02	6.96	-52.2	-65.0	3.8	1.49e+00	0	41	104	0	76	15256
2026-01-03 07:44:18.61	84.90	7.01	-52.2	-64.9	3.8	1.49e+00	0	41	104	0	76	15079
2026-01-03 07:44:19.61	84.78	7.06	-52.2	-64.7	3.8	1.49e+00	0	40	104	0	76	14813
2026-01-03 07:44:20.60	84.66	7.11	-52.2	-64.6	3.8	1.49e+00	0	41	104	0	76	14595
2026-01-03 07:44:21.60	84.54	7.16	-52.1	-64.5	3.8	1.49e+00	0	41	104	0	76	14531
2026-01-03 07:44:22.60	84.41	7.21	-52.2	-64.6	3.8	1.49e+00	0	41	104	0	76	14541
2026-01-03 07:44:23.60	84.29	7.26	-52.2	-64.6	3.8	1.49e+00	0	41	104	0	76	14666
2026-01-03 07:44:24.60	84.16	7.31	-52.2	-64.8	3.8	1.49e+00	0	41	104	0	76	14954
2026-01-03 07:44:25.60	84.04	7.36	-52.2	-64.9	3.8	1.49e+00	0	41	104	0	76	15190
2026-01-03 07:44:26.60	83.92	7.42	-52.2	-65.0	3.8	1.49e+00	0	41	104	0	76	15348
2026-01-03 07:44:27.59	83.79	7.47	-52.2	-65.1	3.8	1.49e+00	0	41	104	0	76	15431
2026-01-03 07:44:28.59	83.67	7.52	-52.2	-65.0	3.8	1.49e+00	0	41	104	0	76	15342
2026-01-03 07:44:29.58	83.54	7.57	-52.2	-64.9	3.8	1.49e+00	0	41	104	0	76	15210
2026-01-03 07:44:30.58	83.41	7.62	-52.2	-64.7	3.8	1.49e+00	0	41	104	0	76	14868
2026-01-03 07:44:31.58	83.29	7.67	-52.2	-64.6	3.8	1.49e+00	0	41	104	0	76	14557
2026-01-03 07:44:32.58	83.16	7.72	-52.2	-64.5	3.8	1.49e+00	0	41	104	0	76	14450
2026-01-03 07:44:33.58	83.03	7.77	-52.2	-64.5	3.8	1.49e+00	0	41	104	0	76	14441
2026-01-03 07:44:34.57	82.90	7.82	-52.2	-64.6	3.8	1.49e+00	0	41	104	0	76	14626
2026-01-03 07:44:35.57	82.77	7.87	-52.2	-64.8	3.8	1.49e+00	0	41	104	0	76	14982
2026-01-03 07:44:36.57	82.65	7.92	-52.2	-65.0	3.8	1.49e+00	0	41	104	0	76	15360
2026-01-03 07:44:37.57	82.52	7.97	-52.3	-65.1	3.8	1.49e+00	0	41	104	0	76	15566
2026-01-03 07:44:38.56	82.39	8.02	-52.2	-65.2	3.8	1.49e+00	0	41	104	0	76	15650
2026-01-03 07:44:39.56	82.26	8.07	-52.2	-65.0	3.8	1.49e+00	0	41	104	0	76	15373
2026-01-03 07:44:40.57	82.12	8.13	-52.2	-64.7	3.8	1.49e+00	0	41	104	0	76	14775
2026-01-03 07:44:41.56	81.99	8.18	-52.1	-64.1	3.8	1.49e+00	0	41	104	0	76	13735
2026-01-03 07:44:42.56	81.86	8.23	-52.1	-63.6	3.8	1.49e+00	0	41	104	0	76	12961
2026-01-03 07:44:43.57	81.73	8.28	-52.1	-63.6	3.8	1.49e+00	0	41	104	0	76	12979
2026-01-03 07:44:44.57	81.59	8.33	-52.2	-64.2	3.8	1.49e+00	0	41	104	0	76	14023
2026-01-03 07:44:45.56	81.46	8.38	-52.2	-64.5	3.8	1.49e+00	0	41	104	0	76	14464
2026-01-03 07:44:46.56	81.33	8.43	-51.8	-62.0	3.9	1.47e+00	0	41	104	0	75	11429
2026-01-03 07:44:47.56	81.19	8.48	-50.9	-57.3	6.7	3.07e-01	0	41	0	0	73	7482
2026-01-03 07:44:48.56	81.06	8.53	-49.6	-53.9	10.1	1.23e-02	0	41	0	0	71	5697
2026-01-03 07:44:49.56	80.92	8.58	-48.2	-51.4	12.7	3.71e-04	0	41	0	0	68	5098
2026-01-03 07:44:50.56	80.79	8.63	-46.9	-49.6	14.4	7.00e-07	0	41	0	0	65	4905
2026-01-03 07:44:51.56	80.65	8.68	-46.1	-48.5	15.5	0.00e+00	0	41	0	0	64	4573
2026-01-03 07:44:52.55	80.51	8.73	-45.8	-48.1	15.9	0.00e+00	0	41	0	0	63	4641
2026-01-03 07:44:53.55	80.38	8.78	-45.8	-48.1	16.0	0.00e+00	0	41	0	0	63	4633
2026-01-03 07:44:54.54	80.24	8.83	-46.4	-48.8	15.2	0.00e+00	0	41	0	0	63	5036
2026-01-03 07:44:55.55	80.10	8.88	-47.2	-50.0	13.9	7.00e-07	0	41	0	0	65	5151
2026-01-03 07:44:56.54	79.96	8.93	-48.5	-52.0	11.9	1.50e-04	0	41	0	0	67	5767
2026-01-03 07:44:57.54	79.82	8.98	-50.1	-54.9	9.1	1.26e-02	0	41	0	0	70	6751
2026-01-03 07:44:58.54	79.68	9.03	-51.2	-58.3	5.9	1.41e-01	0	41	0	0	73	8401
2026-01-03 07:44:59.54	79.54	9.07	-51.1	-57.5	6.5	1.39e+00	0	41	104	0	74	7264
2026-01-03 07:45:00.53	79.41	9.12	-49.3	-53.3	10.8	8.50e-02	0	41	0	0	70	5614
2026-01-03 07:45:01.53	79.26	9.17	-51.6	-59.7	5.2	2.40e-02	0	41	0	0	73	9884
2026-01-03 07:45:02.53	79.12	9.22	-51.4	-59.5	4.1	1.49e+00	0	41	104	0	75	8615
2026-01-03 07:45:03.53	78.98	9.27	-49.2	-53.2	11.1	3.88e-04	0	41	0	0	69	5891
2026-01-03 07:45:04.53	78.84	9.32	-48.9	-53.2	10.4	1.20e+00	0	41	0	0	70	5567
2026-01-03 07:45:05.53	78.69	9.37	-47.9	-51.0	13.1	3.73e-05	0	41	0	0	67	5149
2026-01-03 07:45:06.53	78.55	9.42	-47.6	-50.6	13.5	2.36e-05	0	41	0	0	67	4891
2026-01-03 07:45:07.53	78.41	9.47	-46.8	-49.4	14.7	0.00e+00	0	41	0	0	65	4775
2026-01-03 07:45:08.52	78.26	9.52	-46.4	-48.8	15.3	0.00e+00	0	41	0	0	64	4758
2026-01-03 07:45:09.52	78.12	9.57	-45.8	-48.1	16.1	0.00e+00	0	41	0	0	63	4637
2026-01-03 07:45:10.51	77.97	9.61	-45.4	-47.6	16.6	0.00e+00	0	41	0	0	62	4606
2026-01-03 07:45:11.50	77.83	9.66	-44.9	-47.0	17.1	0.00e+00	0	41	0	0	61	4575
2026-01-03 07:45:12.50	77.68	9.71	-44.9	-46.9	17.2	0.00e+00	0	41	0	0	61	4532
2026-01-03 07:45:13.50	77.54	9.76	-44.7	-46.7	17.4	0.00e+00	0	42	0	0	61	4419
2026-01-03 07:45:14.49	77.39	9.81	-44.7	-46.7	17.4	0.00e+00	0	42	0	0	61	4433
2026-01-03 07:45:15.49	77.24	9.86	-44.6	-46.6	17.5	0.00e+00	0	42	0	0	61	4378
2026-01-03 07:45:16.49	77.09	9.90	-44.5	-46.5	17.6	0.00e+00	0	41	0	0	60	4559
2026-01-03 07:45:17.49	76.95	9.95	-44.5	-46.5	17.6	0.00e+00	0	41	0	0	60	4588
2026-01-03 07:45:18.49	76.80	10.00	-44.4	-46.4	17.7	0.00e+00	0	41	0	0	60	4517
2026-01-03 07:45:19.49	76.65	10.05	-44.4	-46.4	17.7	0.00e+00	0	41	0	0	60	4520
2026-01-03 07:45:20.49	76.50	10.10	-44.5	-46.5	17.6	0.00e+00	0	41	0	0	60	4566
2026-01-03 07:45:21.49	76.34	10.14	-44.6	-46.6	17.5	0.00e+00	0	41	0	0	60	4647
2026-01-03 07:45:22.49	76.19	10.19	-44.6	-46.6	17.6	0.00e+00	0	41	0	0	60	4612
2026-01-03 07:45:23.48	76.04	10.24	-44.7	-46.7	17.4	0.00e+00	0	42	0	0	60	4677
2026-01-03 07:45:24.48	75.89	10.29	-44.6	-46.6	17.5	0.00e+00	0	41	0	0	60	4642
2026-01-03 07:45:25.48	75.74	10.33	-44.5	-46.5	17.6	0.00e+00	0	42	0	0	60	4584
2026-01-03 07:45:26.48	75.58	10.38	-44.5	-46.5	17.7	0.00e+00	0	42	0	0	60	4581
2026-01-03 07:45:27.48	75.43	10.43	-44.5	-46.5	17.6	0.00e+00	0	41	0	0	60	4582
2026-01-03 07:45:28.48	75.27	10.47	-44.5	-46.5	17.7	0.00e+00	0	42	0	0	60	4562
2026-01-03 07:45:29.47	75.12	10.52	-44.5	-46.5	17.6	0.00e+00	0	42	0	0	60	4580
2026-01-03 07:45:30.47	74.97	10.57	-44.5	-46.5	17.7	0.00e+00	0	42	0	0	60	4550
2026-01-03 07:45:31.47	74.81	10.61	-44.4	-46.4	17.8	0.00e+00	0	41	0	0	60	4513
2026-01-03 07:45:32.47	74.65	10.66	-44.2	-46.1	18.1	0.00e+00	0	41	0	0	60	4373
2026-01-03 07:45:33.48	74.49	10.71	-44.2	-46.1	18.0	0.00e+00	0	42	0	0	60	4388
2026-01-03 07:45:34.48	74.34	10.75	-44.2	-46.2	18.0	0.00e+00	0	41	0	0	60	4397
2026-01-03 07:45:35.47	74.18	10.80	-44.3	-46.3	17.9	0.00e+00	0	42	0	0	60	4445
2026-01-03 07:45:36.47	74.02	10.85	-44.1	-46.1	18.1	0.00e+00	0	42	0	0	60	4347
2026-01-03 07:45:37.47	73.86	10.89	-44.2	-46.1	18.1	0.00e+00	0	42	0	0	60	4367
2026-01-03 07:45:38.47	73.70	10.94	-44.1	-46.0	18.1	0.00e+00	0	42	0	0	60	4339
2026-01-03 07:45:39.47	73.54	10.98	-44.1	-46.0	18.2	0.00e+00	0	42	0	0	60	4300
2026-01-03 07:45:40.48	73.38	11.03	-44.0	-45.9	18.2	0.00e+00	0	41	0	0	60	4289
2026-01-03 07:45:41.47	73.22	11.07	-44.0	-45.9	18.3	0.00e+00	0	42	0	0	60	4275
2026-01-03 07:45:42.48	73.06	11.12	-44.0	-45.9	18.3	0.00e+00	0	42	0	0	60	4283
2026-01-03 07:45:43.48	72.90	11.17	-43.9	-45.8	18.3	0.00e+00	0	42	0	0	59	4451
2026-01-03 07:45:44.48	72.73	11.21	-44.0	-45.9	18.2	0.00e+00	0	41	0	0	59	4505
2026-01-03 07:45:45.48	72.57	11.26	-43.9	-45.8	18.3	0.00e+00	0	42	0	0	59	4464
2026-01-03 07:45:46.48	72.41	11.30	-43.9	-45.8	18.3	0.00e+00	0	42	0	0	59	4467
2026-01-03 07:45:47.48	72.24	11.34	-43.8	-45.7	18.4	0.00e+00	0	42	0	0	59	4423
2026-01-03 07:45:48.48	72.08	11.39	-43.8	-45.7	18.4	0.00e+00	0	42	0	0	59	4424
2026-01-03 07:45:49.48	71.91	11.43	-43.9	-45.7	18.4	0.00e+00	0	42	0	0	59	4434
2026-01-03 07:45:50.48	71.75	11.48	-43.9	-45.8	18.4	0.00e+00	0	42	0	0	59	4442
2026-01-03 07:45:51.48	71.58	11.52	-43.9	-45.8	18.4	0.00e+00	0	42	0	0	59	4450
2026-01-03 07:45:52.48	71.42	11.57	-44.0	-45.8	18.3	0.00e+00	0	42	0	0	59	4493
2026-01-03 07:45:53.48	71.25	11.61	-43.9	-45.8	18.3	0.00e+00	0	41	0	0	59	4469
2026-01-03 07:45:54.48	71.08	11.65	-43.9	-45.8	18.3	0.00e+00	0	42	0	0	59	4471
2026-01-03 07:45:55.49	70.91	11.70	-43.9	-45.8	18.3	0.00e+00	0	42	0	0	59	4464
2026-01-03 07:45:56.48	70.74	11.74	-43.9	-45.8	18.3	0.00e+00	0	42	0	0	59	4476
2026-01-03 07:45:57.48	70.58	11.78	-43.9	-45.8	18.3	0.00e+00	0	42	0	0	59	4485
2026-01-03 07:45:58.48	70.41	11.83	-44.0	-46.0	18.2	0.00e+00	0	42	0	0	59	4549
2026-01-03 07:45:59.48	70.24	11.87	-44.0	-45.9	18.3	0.00e+00	0	42	0	0	59	4495
2026-01-03 07:46:00.48	70.07	11.91	-44.1	-46.0	18.1	0.00e+00	0	42	0	0	59	4567
2026-01-03 07:46:01.48	69.89	11.95	-44.2	-46.1	18.0	0.00e+00	0	42	0	0	59	4627
2026-01-03 07:46:02.48	69.72	11.99	-44.2	-46.1	18.0	0.00e+00	0	41	0	0	59	4625
2026-01-03 07:46:03.48	69.55	12.04	-44.2	-46.1	18.0	0.00e+00	0	42	0	0	59	4646
2026-01-03 07:46:04.48	69.38	12.08	-44.3	-46.2	18.0	0.00e+00	0	42	0	0	59	4683
2026-01-03 07:46:05.48	69.21	12.12	-44.2	-46.2	18.1	0.00e+00	0	42	0	0	59	4657
2026-01-03 07:46:06.48	69.03	12.16	-44.2	-46.2	18.0	0.00e+00	0	42	0	0	59	4654
2026-01-03 07:46:07.48	68.86	12.20	-44.4	-46.3	17.9	0.00e+00	0	42	0	0	59	4735
2026-01-03 07:46:08.48	68.68	12.24	-44.3	-46.3	18.0	0.00e+00	0	42	0	0	59	4717
2026-01-03 07:46:09.48	68.51	12.28	-44.3	-46.3	18.0	0.00e+00	0	42	0	0	59	4706
2026-01-03 07:46:10.48	68.33	12.33	-44.4	-46.3	17.9	0.00e+00	0	42	0	0	59	4743
2026-01-03 07:46:11.48	68.16	12.37	-44.3	-46.2	18.1	0.00e+00	0	42	0	0	59	4671
2026-01-03 07:46:12.48	67.98	12.41	-44.3	-46.2	18.1	0.00e+00	0	42	0	0	59	4675
2026-01-03 07:46:13.48	67.80	12.45	-44.1	-46.0	18.2	0.00e+00	0	42	0	0	59	4584
2026-01-03 07:46:14.48	67.63	12.49	-43.9	-45.8	18.5	0.00e+00	0	42	0	0	59	4450
2026-01-03 07:46:15.48	67.45	12.53	-43.9	-45.8	18.5	0.00e+00	0	42	0	0	59	4452
2026-01-03 07:46:16.49	67.27	12.57	-43.9	-45.8	18.4	0.00e+00	0	42	0	0	59	4466
2026-01-03 07:46:17.49	67.09	12.60	-43.8	-45.7	18.5	0.00e+00	0	42	0	0	59	4422
2026-01-03 07:46:18.49	66.91	12.64	-43.8	-45.7	18.5	0.00e+00	0	42	0	0	59	4397
2026-01-03 07:46:19.49	66.73	12.68	-43.8	-45.7	18.5	0.00e+00	0	42	0	0	59	4394
2026-01-03 07:46:20.49	66.55	12.72	-43.8	-45.6	18.6	0.00e+00	0	42	0	0	59	4379
2026-01-03 07:46:21.49	66.37	12.76	-43.7	-45.6	18.6	0.00e+00	0	42	0	0	59	4351
2026-01-03 07:46:22.50	66.19	12.80	-43.8	-45.7	18.5	0.00e+00	0	42	0	0	59	4401
2026-01-03 07:46:23.50	66.00	12.84	-43.9	-45.7	18.5	0.00e+00	0	42	0	0	59	4421
2026-01-03 07:46:24.50	65.82	12.87	-43.9	-45.7	18.5	0.00e+00	0	42	0	0	59	4424
2026-01-03 07:46:25.50	65.64	12.91	-44.0	-45.9	18.4	0.00e+00	0	42	0	0	59	4501
2026-01-03 07:46:26.49	65.46	12.95	-44.1	-46.0	18.2	0.00e+00	0	42	0	0	59	4567
2026-01-03 07:46:27.49	65.27	12.99	-44.0	-45.9	18.4	0.00e+00	0	42	0	0	59	4502
2026-01-03 07:46:28.49	65.09	13.02	-44.0	-45.9	18.3	0.00e+00	0	42	0	0	59	4533
2026-01-03 07:46:29.49	64.91	13.06	-44.0	-45.9	18.4	0.00e+00	0	42	0	0	59	4500
2026-01-03 07:46:30.49	64.72	13.09	-44.0	-45.9	18.3	0.00e+00	0	42	0	0	59	4533
2026-01-03 07:46:31.50	64.53	13.13	-44.1	-46.0	18.2	0.00e+00	0	42	0	0	59	4594
2026-01-03 07:46:32.50	64.35	13.17	-44.1	-46.0	18.3	0.00e+00	0	42	0	0	59	4548
2026-01-03 07:46:33.48	64.17	13.20	-44.0	-45.9	18.3	0.00e+00	0	42	0	0	59	4522
2026-01-03 07:46:34.47	63.98	13.24	-44.0	-45.9	18.3	0.00e+00	0	42	0	0	59	4522
2026-01-03 07:46:35.47	63.79	13.27	-44.0	-45.9	18.4	0.00e+00	0	42	0	0	59	4522
2026-01-03 07:46:36.47	63.61	13.31	-44.0	-45.9	18.3	0.00e+00	0	42	0	0	59	4527
2026-01-03 07:46:37.47	63.42	13.34	-44.0	-45.9	18.4	0.00e+00	0	42	0	0	59	4505
2026-01-03 07:46:38.47	63.23	13.38	-43.9	-45.8	18.5	0.00e+00	0	42	0	0	59	4453
2026-01-03 07:46:39.47	63.04	13.41	-43.8	-45.6	18.6	0.00e+00	0	42	0	0	59	4387
2026-01-03 07:46:40.47	62.85	13.44	-43.7	-45.6	18.7	0.00e+00	0	42	0	0	59	4344
2026-01-03 07:46:41.47	62.66	13.48	-43.8	-45.6	18.6	0.00e+00	0	42	0	0	59	4376
2026-01-03 07:46:42.47	62.47	13.51	-43.7	-45.5	18.8	0.00e+00	0	42	0	0	59	4308
2026-01-03 07:46:43.47	62.28	13.54	-43.8	-45.6	18.7	0.00e+00	0	42	0	0	59	4356
2026-01-03 07:46:44.47	62.09	13.58	-43.8	-45.7	18.5	0.00e+00	0	42	0	0	59	4406
2026-01-03 07:46:45.47	61.90	13.61	-43.9	-45.7	18.5	0.00e+00	0	42	0	0	59	4438
2026-01-03 07:46:46.46	61.71	13.64	-43.8	-45.7	18.6	0.00e+00	0	42	0	0	59	4409
2026-01-03 07:46:47.47	61.51	13.67	-43.8	-45.7	18.6	0.00e+00	0	42	0	0	59	4410
2026-01-03 07:46:48.46	61.32	13.70	-43.9	-45.7	18.5	0.00e+00	0	42	0	0	59	4436
2026-01-03 07:46:49.47	61.13	13.74	-43.7	-45.5	18.7	0.00e+00	0	42	0	0	59	4320
2026-01-03 07:46:50.47	60.93	13.77	-43.6	-45.4	18.8	0.00e+00	0	42	0	0	59	4263
2026-01-03 07:46:51.47	60.74	13.80	-43.6	-45.5	18.8	0.00e+00	0	42	0	0	59	4299
2026-01-03 07:46:52.47	60.54	13.83	-43.7	-45.5	18.7	0.00e+00	0	42	0	0	59	4308
2026-01-03 07:46:53.47	60.35	13.86	-43.8	-45.6	18.6	0.00e+00	0	42	0	0	59	4370
2026-01-03 07:46:54.48	60.15	13.89	-43.8	-45.6	18.6	0.00e+00	0	42	0	0	59	4368
2026-01-03 07:46:55.48	59.96	13.92	-43.8	-45.6	18.6	0.00e+00	0	42	0	0	59	4365
2026-01-03 07:46:56.48	59.76	13.95	-43.9	-45.7	18.6	0.00e+00	0	42	0	0	59	4424
2026-01-03 07:46:57.48	59.56	13.98	-43.9	-45.8	18.5	0.00e+00	0	42	0	0	59	4442
2026-01-03 07:46:58.48	59.37	14.01	-43.9	-45.8	18.5	0.00e+00	0	42	0	0	59	4447
2026-01-03 07:46:59.48	59.17	14.03	-43.9	-45.8	18.5	0.00e+00	0	42	0	0	59	4462
2026-01-03 07:47:00.49	58.97	14.06	-44.0	-45.9	18.4	0.00e+00	0	42	0	0	59	4515
2026-01-03 07:47:01.49	58.77	14.09	-44.0	-45.9	18.4	0.00e+00	0	42	0	0	59	4519
2026-01-03 07:47:02.49	58.57	14.12	-43.9	-45.8	18.5	0.00e+00	0	42	0	0	59	4449
2026-01-03 07:47:03.49	58.38	14.14	-43.9	-45.8	18.6	0.00e+00	0	42	0	0	59	4446
2026-01-03 07:47:04.49	58.18	14.17	-44.0	-45.9	18.5	0.00e+00	0	42	0	0	59	4495
2026-01-03 07:47:05.49	57.98	14.20	-44.0	-45.8	18.4	0.00e+00	0	42	0	0	59	4492
2026-01-03 07:47:06.49	57.78	14.22	-44.1	-45.9	18.4	0.00e+00	0	42	0	0	59	4530
2026-01-03 07:47:07.49	57.58	14.25	-44.0	-45.9	18.4	0.00e+00	0	42	0	0	59	4525
2026-01-03 07:47:08.49	57.38	14.28	-44.1	-45.9	18.4	0.00e+00	0	42	0	0	59	4528
2026-01-03 07:47:09.49	57.18	14.30	-43.9	-45.7	18.6	0.00e+00	0	42	0	0	59	4414
2026-01-03 07:47:10.49	56.98	14.33	-43.8	-45.6	18.6	0.00e+00	0	42	0	0	59	4391
2026-01-03 07:47:11.49	56.77	14.35	-43.7	-45.5	18.7	0.00e+00	0	42	0	0	59	4330
2026-01-03 07:47:12.48	56.57	14.38	-43.7	-45.5	18.8	0.00e+00	0	42	0	0	59	4317
2026-01-03 07:47:13.49	56.37	14.40	-43.7	-45.5	18.7	0.00e+00	0	42	0	0	59	4332
2026-01-03 07:47:14.49	56.17	14.42	-43.8	-45.6	18.7	0.00e+00	0	42	0	0	59	4367
2026-01-03 07:47:15.48	55.97	14.45	-43.8	-45.6	18.7	0.00e+00	0	42	0	0	59	4376
2026-01-03 07:47:16.49	55.76	14.47	-43.7	-45.5	18.8	0.00e+00	0	42	0	0	59	4338
2026-01-03 07:47:17.49	55.56	14.49	-43.7	-45.5	18.8	0.00e+00	0	42	0	0	59	4333
2026-01-03 07:47:18.49	55.35	14.51	-43.8	-45.6	18.7	0.00e+00	0	42	0	0	59	4362
2026-01-03 07:47:19.49	55.15	14.54	-43.7	-45.5	18.8	0.00e+00	0	42	0	0	59	4314
2026-01-03 07:47:20.49	54.95	14.56	-43.7	-45.5	18.8	0.00e+00	0	42	0	0	59	4324
2026-01-03 07:47:21.49	54.74	14.58	-43.7	-45.5	18.8	0.00e+00	0	42	0	0	59	4308
2026-01-03 07:47:22.49	54.54	14.60	-43.5	-45.4	18.9	0.00e+00	0	42	0	0	59	4244
2026-01-03 07:47:23.49	54.33	14.62	-43.5	-45.3	19.0	0.00e+00	0	42	0	0	59	4229
2026-01-03 07:47:24.50	54.12	14.64	-43.5	-45.3	19.0	0.00e+00	0	42	0	0	59	4241
2026-01-03 07:47:25.49	53.92	14.66	-43.6	-45.4	18.9	0.00e+00	0	42	0	0	59	4265
2026-01-03 07:47:26.49	53.71	14.68	-43.6	-45.4	18.9	0.00e+00	0	42	0	0	59	4289
2026-01-03 07:47:27.50	53.51	14.70	-43.6	-45.4	18.9	0.00e+00	0	42	0	0	59	4274
2026-01-03 07:47:28.50	53.30	14.72	-43.6	-45.4	18.9	0.00e+00	0	42	0	0	59	4268
2026-01-03 07:47:29.50	53.09	14.74	-43.5	-45.4	18.9	0.00e+00	0	42	0	0	59	4246
2026-01-03 07:47:30.50	52.89	14.75	-43.7	-45.5	18.8	0.00e+00	0	42	0	0	59	4330
2026-01-03 07:47:31.50	52.68	14.77	-43.6	-45.4	18.9	0.00e+00	0	42	0	0	59	4264
2026-01-03 07:47:32.50	52.47	14.79	-43.5	-45.3	19.1	0.00e+00	0	42	0	0	58	4442
2026-01-03 07:47:33.50	52.26	14.81	-43.6	-45.3	19.0	0.00e+00	0	42	0	0	58	4492
2026-01-03 07:47:34.50	52.05	14.82	-43.6	-45.4	18.9	0.00e+00	0	42	0	0	58	4528
2026-01-03 07:47:35.50	51.85	14.84	-43.5	-45.3	19.0	0.00e+00	0	42	0	0	58	4468
2026-01-03 07:47:36.50	51.64	14.86	-43.5	-45.3	19.0	0.00e+00	0	42	0	0	58	4456
2026-01-03 07:47:37.51	51.43	14.87	-43.4	-45.2	19.0	0.00e+00	0	42	0	0	58	4428
2026-01-03 07:47:38.51	51.22	14.89	-43.5	-45.3	19.0	0.00e+00	0	42	0	0	58	4468
2026-01-03 07:47:39.51	51.01	14.90	-43.5	-45.3	18.9	0.00e+00	0	42	0	0	58	4484
2026-01-03 07:47:40.51	50.80	14.92	-43.5	-45.3	18.9	0.00e+00	0	42	0	0	58	4491
2026-01-03 07:47:41.51	50.59	14.93	-43.5	-45.3	18.9	0.00e+00	0	42	0	0	58	4479
2026-01-03 07:47:42.51	50.38	14.94	-43.6	-45.4	18.8	0.00e+00	0	42	0	0	58	4544
2026-01-03 07:47:43.51	50.17	14.96	-43.7	-45.6	18.8	0.00e+00	0	42	0	0	58	4599
2026-01-03 07:47:44.51	49.96	14.97	-43.8	-45.6	18.8	0.00e+00	0	42	0	0	58	4613
2026-01-03 07:47:45.52	49.75	14.98	-43.8	-45.6	18.7	0.00e+00	0	42	0	0	58	4650
2026-01-03 07:47:46.52	49.54	14.99	-43.8	-45.7	18.7	0.00e+00	0	42	0	0	58	4658
2026-01-03 07:47:47.52	49.33	15.01	-43.9	-45.7	18.7	0.00e+00	0	42	0	0	58	4673
2026-01-03 07:47:48.52	49.12	15.02	-44.0	-45.8	18.6	0.00e+00	0	42	0	0	58	4741
2026-01-03 07:47:49.51	48.91	15.03	-44.0	-45.8	18.6	0.00e+00	0	42	0	0	58	4752
2026-01-03 07:47:50.52	48.70	15.04	-44.0	-45.8	18.6	0.00e+00	0	42	0	0	58	4744
2026-01-03 07:47:51.52	48.48	15.05	-43.9	-45.7	18.6	0.00e+00	0	42	0	0	58	4693
2026-01-03 07:47:52.52	48.27	15.06	-44.0	-45.8	18.5	0.00e+00	0	42	0	0	58	4754
2026-01-03 07:47:53.52	48.06	15.07	-43.9	-45.7	18.7	0.00e+00	0	42	0	0	58	4678
2026-01-03 07:47:54.53	47.85	15.08	-43.9	-45.8	18.7	0.00e+00	0	42	0	0	58	4708
2026-01-03 07:47:55.53	47.64	15.09	-43.7	-45.5	18.9	0.00e+00	0	42	0	0	58	4567
2026-01-03 07:47:56.53	47.42	15.09	-43.6	-45.4	18.9	0.00e+00	0	42	0	0	58	4544
2026-01-03 07:47:57.53	47.21	15.10	-43.7	-45.5	18.9	0.00e+00	0	42	0	0	58	4577
2026-01-03 07:47:58.53	47.00	15.11	-43.6	-45.4	19.0	0.00e+00	0	42	0	0	58	4540
2026-01-03 07:47:59.53	46.79	15.12	-43.7	-45.5	19.0	0.00e+00	0	42	0	0	58	4551
2026-01-03 07:48:00.53	46.58	15.12	-43.6	-45.4	19.0	0.00e+00	0	42	0	0	58	4514
2026-01-03 07:48:01.53	46.36	15.13	-43.7	-45.5	18.9	0.00e+00	0	42	0	0	58	4553
2026-01-03 07:48:02.53	46.15	15.14	-43.7	-45.5	18.9	0.00e+00	0	42	0	0	58	4589
2026-01-03 07:48:03.53	45.94	15.14	-43.8	-45.6	18.7	0.00e+00	0	42	0	0	58	4649
2026-01-03 07:48:04.54	45.72	15.15	-43.8	-45.6	18.8	0.00e+00	0	42	0	0	58	4623
2026-01-03 07:48:05.54	45.51	15.15	-43.8	-45.7	18.7	0.00e+00	0	42	0	0	58	4663
2026-01-03 07:48:06.54	45.30	15.16	-43.8	-45.7	18.7	0.00e+00	0	42	0	0	58	4655
2026-01-03 07:48:07.54	45.09	15.16	-43.8	-45.7	18.7	0.00e+00	0	42	0	0	58	4655
2026-01-03 07:48:08.53	44.87	15.16	-43.8	-45.6	18.8	0.00e+00	0	42	0	0	58	4629
2026-01-03 07:48:09.54	44.66	15.17	-43.8	-45.6	18.7	0.00e+00	0	42	0	0	58	4630
2026-01-03 07:48:10.54	44.45	15.17	-43.8	-45.6	18.8	0.00e+00	0	42	0	0	58	4646
2026-01-03 07:48:11.54	44.23	15.17	-43.8	-45.6	18.8	0.00e+00	0	42	0	0	58	4615
2026-01-03 07:48:12.54	44.02	15.17	-43.8	-45.7	18.7	0.00e+00	0	42	0	0	58	4668
2026-01-03 07:48:13.54	43.81	15.17	-43.9	-45.8	18.6	0.00e+00	0	42	0	0	58	4724
2026-01-03 07:48:14.54	43.60	15.18	-44.0	-45.8	18.6	0.00e+00	0	42	0	0	58	4746
2026-01-03 07:48:15.54	43.38	15.18	-44.0	-45.8	18.6	0.00e+00	0	42	0	0	58	4740
2026-01-03 07:48:16.54	43.17	15.18	-43.9	-45.7	18.7	0.00e+00	0	42	0	0	58	4705
2026-01-03 07:48:17.54	42.96	15.18	-43.8	-45.6	18.8	0.00e+00	0	42	0	0	58	4623
2026-01-03 07:48:18.54	42.74	15.18	-43.7	-45.5	18.9	0.00e+00	0	42	0	0	58	4581
2026-01-03 07:48:19.55	42.53	15.18	-43.7	-45.5	18.9	0.00e+00	0	42	0	0	58	4567
2026-01-03 07:48:20.55	42.32	15.17	-43.7	-45.5	18.8	0.00e+00	0	42	0	0	58	4588
2026-01-03 07:48:21.54	42.10	15.17	-43.7	-45.5	18.9	0.00e+00	0	42	0	0	58	4548
2026-01-03 07:48:22.55	41.89	15.17	-43.8	-45.6	18.8	0.00e+00	0	42	0	0	58	4634
2026-01-03 07:48:23.54	41.68	15.17	-43.9	-45.7	18.7	0.00e+00	0	42	0	0	58	4667
2026-01-03 07:48:24.54	41.47	15.17	-43.8	-45.6	18.8	0.00e+00	0	42	0	0	58	4641
2026-01-03 07:48:25.54	41.25	15.16	-43.8	-45.7	18.8	0.00e+00	0	42	0	0	58	4656
2026-01-03 07:48:26.54	41.04	15.16	-43.7	-45.5	18.9	0.00e+00	0	42	0	0	58	4585
2026-01-03 07:48:27.54	40.83	15.16	-43.7	-45.5	18.9	0.00e+00	0	42	0	0	58	4547
2026-01-03 07:48:28.55	40.61	15.15	-43.7	-45.5	18.9	0.00e+00	0	42	0	0	58	4591
2026-01-03 07:48:29.54	40.40	15.15	-43.7	-45.6	18.8	0.00e+00	0	42	0	0	58	4601
2026-01-03 07:48:30.55	40.19	15.14	-43.9	-45.7	18.7	0.00e+00	0	42	0	0	58	4676
2026-01-03 07:48:31.55	39.98	15.14	-43.9	-45.7	18.7	0.00e+00	0	42	0	0	58	4678
2026-01-03 07:48:32.55	39.76	15.13	-43.9	-45.7	18.7	0.00e+00	0	42	0	0	58	4684
2026-01-03 07:48:33.55	39.55	15.12	-43.9	-45.7	18.7	0.00e+00	0	42	0	0	58	4686
2026-01-03 07:48:34.55	39.34	15.12	-43.9	-45.7	18.7	0.00e+00	0	42	0	0	58	4674
2026-01-03 07:48:35.56	39.12	15.11	-43.8	-45.6	18.8	0.00e+00	0	42	0	0	58	4636
2026-01-03 07:48:36.56	38.91	15.10	-43.8	-45.6	18.8	0.00e+00	0	42	0	0	58	4648
2026-01-03 07:48:37.56	38.70	15.09	-43.8	-45.6	18.8	0.00e+00	0	42	0	0	58	4641
2026-01-03 07:48:38.56	38.49	15.09	-43.7	-45.6	18.8	0.00e+00	0	42	0	0	58	4606
2026-01-03 07:48:39.56	38.28	15.08	-43.8	-45.6	18.8	0.00e+00	0	42	0	0	58	4632
2026-01-03 07:48:40.56	38.07	15.07	-43.7	-45.6	18.7	0.00e+00	0	42	0	0	58	4624
2026-01-03 07:48:41.56	37.86	15.06	-43.8	-45.6	18.7	0.00e+00	0	42	0	0	58	4647
2026-01-03 07:48:42.56	37.64	15.05	-43.8	-45.6	18.7	0.00e+00	0	42	0	0	58	4631
2026-01-03 07:48:43.56	37.43	15.04	-43.7	-45.5	18.8	0.00e+00	0	42	0	0	58	4591
2026-01-03 07:48:44.56	37.22	15.03	-43.6	-45.4	18.9	0.00e+00	0	42	0	0	58	4545
2026-01-03 07:48:45.57	37.01	15.02	-43.7	-45.5	18.9	0.00e+00	0	42	0	0	58	4584
2026-01-03 07:48:46.57	36.80	15.00	-43.8	-45.7	18.7	0.00e+00	0	42	0	0	58	4654
2026-01-03 07:48:47.56	36.59	14.99	-43.9	-45.7	18.7	0.00e+00	0	42	0	0	58	4703
2026-01-03 07:48:48.56	36.38	14.98	-43.8	-45.7	18.7	0.00e+00	0	42	0	0	58	4662
2026-01-03 07:48:49.57	36.17	14.97	-43.8	-45.7	18.7	0.00e+00	0	42	0	0	58	4652
2026-01-03 07:48:50.56	35.96	14.96	-43.8	-45.6	18.7	0.00e+00	0	42	0	0	58	4638
2026-01-03 07:48:51.57	35.75	14.94	-43.9	-45.8	18.6	0.00e+00	0	42	0	0	58	4717
2026-01-03 07:48:52.56	35.54	14.93	-43.7	-45.6	18.8	0.00e+00	0	42	0	0	58	4601
2026-01-03 07:48:53.56	35.33	14.91	-43.6	-45.5	18.9	0.00e+00	0	42	0	0	58	4550
2026-01-03 07:48:54.56	35.12	14.90	-43.6	-45.5	18.9	0.00e+00	0	42	0	0	58	4553
2026-01-03 07:48:55.56	34.92	14.89	-43.6	-45.5	18.9	0.00e+00	0	42	0	0	58	4560
2026-01-03 07:48:56.56	34.71	14.87	-43.7	-45.5	18.9	0.00e+00	0	42	0	0	58	4573
2026-01-03 07:48:57.56	34.50	14.85	-43.7	-45.6	18.8	0.00e+00	0	42	0	0	58	4618
2026-01-03 07:48:58.56	34.29	14.84	-43.8	-45.7	18.7	0.00e+00	0	42	0	0	58	4678
2026-01-03 07:48:59.56	34.08	14.82	-43.9	-45.7	18.7	0.00e+00	0	42	0	0	58	4684
2026-01-03 07:49:00.56	33.87	14.81	-43.9	-45.7	18.7	0.00e+00	0	42	0	0	58	4684
2026-01-03 07:49:01.56	33.67	14.79	-43.9	-45.8	18.7	0.00e+00	0	42	0	0	58	4710
2026-01-03 07:49:02.56	33.46	14.77	-43.8	-45.6	18.8	0.00e+00	0	42	0	0	58	4638
2026-01-03 07:49:03.57	33.25	14.75	-43.7	-45.5	18.9	0.00e+00	0	42	0	0	58	4580
2026-01-03 07:49:04.57	33.04	14.74	-43.8	-45.6	18.8	0.00e+00	0	42	0	0	58	4618
2026-01-03 07:49:05.57	32.84	14.72	-43.8	-45.6	18.8	0.00e+00	0	42	0	0	58	4631
2026-01-03 07:49:06.57	32.63	14.70	-43.6	-45.4	19.0	0.00e+00	0	42	0	0	58	4528
2026-01-03 07:49:07.57	32.43	14.68	-43.6	-45.4	19.0	0.00e+00	0	42	0	0	58	4538
2026-01-03 07:49:08.57	32.22	14.66	-43.6	-45.4	19.0	0.00e+00	0	42	0	0	58	4530
2026-01-03 07:49:09.57	32.02	14.64	-43.6	-45.5	19.0	0.00e+00	0	42	0	0	58	4557
2026-01-03 07:49:10.57	31.81	14.62	-43.6	-45.4	19.0	0.00e+00	0	42	0	0	58	4525
2026-01-03 07:49:11.57	31.61	14.60	-43.6	-45.5	19.0	0.00e+00	0	42	0	0	58	4559
2026-01-03 07:49:12.58	31.40	14.58	-43.8	-45.6	18.8	0.00e+00	0	42	0	0	58	4636
2026-01-03 07:49:13.58	31.19	14.56	-43.7	-45.5	18.9	0.00e+00	0	42	0	0	58	4559
2026-01-03 07:49:14.58	30.99	14.53	-43.7	-45.5	18.9	0.00e+00	0	42	0	0	58	4577
2026-01-03 07:49:15.58	30.79	14.51	-43.8	-45.7	18.8	0.00e+00	0	42	0	0	58	4659
2026-01-03 07:49:16.58	30.58	14.49	-43.8	-45.7	18.8	0.00e+00	0	42	0	0	58	4659
2026-01-03 07:49:17.58	30.38	14.47	-43.9	-45.7	18.7	0.00e+00	0	42	0	0	58	4693
2026-01-03 07:49:18.58	30.18	14.44	-44.0	-45.8	18.6	0.00e+00	0	42	0	0	58	4747
2026-01-03 07:49:19.59	29.97	14.42	-43.9	-45.7	18.7	0.00e+00	0	42	0	0	58	4702
2026-01-03 07:49:20.59	29.77	14.40	-43.9	-45.7	18.7	0.00e+00	0	42	0	0	58	4701
2026-01-03 07:49:21.59	29.57	14.37	-43.8	-45.6	18.7	0.00e+00	0	42	0	0	58	4632
2026-01-03 07:49:22.59	29.37	14.35	-43.8	-45.6	18.8	0.00e+00	0	42	0	0	58	4621
2026-01-03 07:49:23.59	29.17	14.32	-43.7	-45.5	18.9	0.00e+00	0	42	0	0	58	4576
2026-01-03 07:49:24.59	28.97	14.30	-43.6	-45.5	18.9	0.00e+00	0	42	0	0	58	4564
2026-01-03 07:49:25.59	28.77	14.27	-43.5	-45.4	19.0	0.00e+00	0	42	0	0	58	4501
2026-01-03 07:49:26.59	28.57	14.25	-43.5	-45.4	19.0	0.00e+00	0	42	0	0	58	4533
2026-01-03 07:49:27.59	28.37	14.22	-43.7	-45.6	18.9	0.00e+00	0	42	0	0	58	4610
2026-01-03 07:49:28.59	28.17	14.20	-43.7	-45.6	18.9	0.00e+00	0	42	0	0	58	4627
2026-01-03 07:49:29.59	27.97	14.17	-43.8	-45.7	18.8	0.00e+00	0	42	0	0	58	4679
2026-01-03 07:49:30.60	27.77	14.14	-43.8	-45.7	18.8	0.00e+00	0	42	0	0	58	4699
2026-01-03 07:49:31.60	27.57	14.12	-43.9	-45.8	18.7	0.00e+00	0	42	0	0	58	4735
2026-01-03 07:49:32.60	27.37	14.09	-43.9	-45.8	18.7	0.00e+00	0	42	0	0	58	4739
2026-01-03 07:49:33.60	27.18	14.06	-43.9	-45.8	18.7	0.00e+00	0	42	0	0	58	4706
2026-01-03 07:49:34.61	26.98	14.03	-43.9	-45.7	18.7	0.00e+00	0	42	0	0	58	4700
2026-01-03 07:49:35.61	26.78	14.00	-43.9	-45.8	18.7	0.00e+00	0	42	0	0	58	4719
2026-01-03 07:49:36.61	26.59	13.98	-43.7	-45.6	18.9	0.00e+00	0	42	0	0	58	4608
2026-01-03 07:49:37.61	26.39	13.95	-43.6	-45.5	18.9	0.00e+00	0	42	0	0	58	4572
2026-01-03 07:49:38.61	26.19	13.92	-43.7	-45.6	18.9	0.00e+00	0	42	0	0	58	4615
2026-01-03 07:49:39.61	26.00	13.89	-43.6	-45.4	18.9	0.00e+00	0	42	0	0	58	4543
2026-01-03 07:49:40.61	25.80	13.86	-43.5	-45.4	19.0	0.00e+00	0	42	0	0	58	4511
2026-01-03 07:49:41.61	25.61	13.83	-43.6	-45.5	18.9	0.00e+00	0	42	0	0	58	4565
2026-01-03 07:49:42.61	25.42	13.80	-43.7	-45.5	18.9	0.00e+00	0	42	0	0	58	4598
2026-01-03 07:49:43.61	25.22	13.77	-43.6	-45.4	18.9	0.00e+00	0	42	0	0	58	4541
2026-01-03 07:49:44.62	25.03	13.73	-43.7	-45.5	18.9	0.00e+00	0	42	0	0	58	4584
2026-01-03 07:49:45.62	24.84	13.70	-43.6	-45.5	18.9	0.00e+00	0	42	0	0	58	4566
2026-01-03 07:49:46.62	24.64	13.67	-43.7	-45.6	18.9	0.00e+00	0	42	0	0	58	4600
2026-01-03 07:49:47.62	24.45	13.64	-43.7	-45.6	18.8	0.00e+00	0	42	0	0	58	4649
2026-01-03 07:49:48.62	24.26	13.61	-43.8	-45.7	18.7	0.00e+00	0	42	0	0	58	4674
2026-01-03 07:49:49.62	24.07	13.58	-43.9	-45.8	18.6	0.00e+00	0	42	0	0	58	4744
2026-01-03 07:49:50.62	23.88	13.54	-43.9	-45.8	18.6	0.00e+00	0	42	0	0	58	4737
2026-01-03 07:49:51.62	23.69	13.51	-44.0	-45.9	18.5	0.00e+00	0	42	0	0	58	4782
2026-01-03 07:49:52.62	23.50	13.48	-44.0	-45.9	18.5	0.00e+00	0	42	0	0	58	4767
2026-01-03 07:49:53.62	23.31	13.44	-44.0	-45.9	18.5	0.00e+00	0	42	0	0	58	4783
2026-01-03 07:49:54.62	23.12	13.41	-44.0	-45.8	18.6	0.00e+00	0	42	0	0	58	4741
2026-01-03 07:49:55.62	22.93	13.38	-44.0	-45.9	18.5	0.00e+00	0	42	0	0	58	4760
2026-01-03 07:49:56.63	22.74	13.34	-43.9	-45.8	18.7	0.00e+00	0	42	0	0	58	4716
2026-01-03 07:49:57.63	22.56	13.31	-44.0	-45.9	18.6	0.00e+00	0	42	0	0	58	4762
2026-01-03 07:49:58.63	22.37	13.27	-44.1	-45.9	18.5	0.00e+00	0	42	0	0	58	4814
2026-01-03 07:49:59.63	22.18	13.24	-43.9	-45.8	18.7	0.00e+00	0	42	0	0	58	4725
2026-01-03 07:50:00.63	22.00	13.20	-44.0	-45.9	18.6	0.00e+00	0	42	0	0	58	4761
2026-01-03 07:50:01.63	21.81	13.17	-44.0	-45.9	18.6	0.00e+00	0	42	0	0	58	4784
2026-01-03 07:50:02.63	21.63	13.13	-43.9	-45.8	18.6	0.00e+00	0	42	0	0	58	4747
2026-01-03 07:50:03.63	21.44	13.09	-44.0	-45.9	18.5	0.00e+00	0	42	0	0	58	4811
2026-01-03 07:50:04.63	21.26	13.06	-44.0	-46.0	18.5	0.00e+00	0	42	0	0	58	4820
2026-01-03 07:50:05.64	21.07	13.02	-43.9	-45.9	18.5	0.00e+00	0	42	0	0	58	4767
2026-01-03 07:50:06.64	20.89	12.98	-43.9	-45.9	18.5	0.00e+00	0	42	0	0	58	4802
2026-01-03 07:50:07.64	20.71	12.95	-43.9	-45.9	18.5	0.00e+00	0	42	0	0	58	4791
2026-01-03 07:50:08.64	20.52	12.91	-43.9	-46.0	18.4	0.00e+00	0	42	0	0	58	4841
2026-01-03 07:50:09.64	20.34	12.87	-43.8	-45.9	18.5	0.00e+00	0	42	0	0	58	4768
2026-01-03 07:50:10.64	20.16	12.83	-43.8	-45.8	18.6	0.00e+00	0	42	0	0	58	4733
2026-01-03 07:50:11.63	19.98	12.80	-43.9	-45.9	18.5	0.00e+00	0	42	0	0	58	4796
2026-01-03 07:50:12.63	19.80	12.76	-43.9	-45.8	18.5	0.00e+00	0	42	0	0	58	4755
2026-01-03 07:50:13.63	19.62	12.72	-43.9	-45.9	18.5	0.00e+00	0	42	0	0	58	4779
2026-01-03 07:50:14.64	19.44	12.68	-43.9	-45.9	18.5	0.00e+00	0	42	0	0	58	4775
2026-01-03 07:50:15.64	19.26	12.64	-44.1	-46.0	18.3	0.00e+00	0	42	0	0	58	4835
2026-01-03 07:50:16.64	19.08	12.60	-43.9	-45.8	18.5	0.00e+00	0	42	0	0	58	4746
2026-01-03 07:50:17.63	18.91	12.57	-43.9	-45.8	18.5	0.00e+00	0	42	0	0	58	4721
2026-01-03 07:50:18.63	18.73	12.53	-43.9	-45.7	18.5	0.00e+00	0	42	0	0	58	4690
2026-01-03 07:50:19.63	18.55	12.49	-43.9	-45.8	18.5	0.00e+00	0	42	0	0	58	4707
2026-01-03 07:50:20.64	18.37	12.45	-43.9	-45.7	18.6	0.00e+00	0	42	0	0	58	4682
2026-01-03 07:50:21.64	18.20	12.41	-43.9	-45.7	18.6	0.00e+00	0	42	0	0	58	4672
2026-01-03 07:50:22.64	18.02	12.37	-43.9	-45.8	18.5	0.00e+00	0	42	0	0	58	4711
2026-01-03 07:50:23.64	17.85	12.33	-44.0	-45.9	18.4	0.00e+00	0	42	0	0	58	4772
2026-01-03 07:50:24.65	17.67	12.28	-44.1	-45.9	18.4	0.00e+00	0	42	0	0	58	4806
2026-01-03 07:50:25.65	17.50	12.24	-44.1	-46.0	18.3	0.00e+00	0	42	0	0	58	4830
2026-01-03 07:50:26.65	17.32	12.20	-44.1	-46.0	18.2	0.00e+00	0	42	0	0	58	4863
2026-01-03 07:50:27.65	17.15	12.16	-44.1	-46.1	18.1	0.00e+00	0	42	0	0	58	4913
2026-01-03 07:50:28.65	16.98	12.12	-44.1	-46.2	18.1	0.00e+00	0	42	0	0	58	4938
2026-01-03 07:50:29.66	16.80	12.08	-44.1	-46.2	18.0	0.00e+00	0	42	0	0	59	4696
2026-01-03 07:50:30.66	16.63	12.04	-44.1	-46.2	18.1	0.00e+00	0	42	0	0	59	4666
2026-01-03 07:50:31.65	16.46	12.00	-44.0	-46.1	18.2	0.00e+00	0	42	0	0	59	4637
2026-01-03 07:50:32.66	16.29	11.95	-44.0	-46.1	18.2	0.00e+00	0	42	0	0	59	4637
2026-01-03 07:50:33.66	16.12	11.91	-44.0	-46.2	18.1	0.00e+00	0	42	0	0	59	4663
2026-01-03 07:50:34.66	15.95	11.87	-44.0	-46.1	18.2	0.00e+00	0	42	0	0	59	4632
2026-01-03 07:50:35.66	15.78	11.83	-43.9	-46.0	18.3	0.00e+00	0	42	0	0	59	4579
2026-01-03 07:50:36.66	15.61	11.78	-43.8	-46.0	18.3	0.00e+00	0	42	0	0	59	4582
2026-01-03 07:50:37.66	15.44	11.74	-43.8	-46.0	18.2	0.00e+00	0	42	0	0	59	4593
2026-01-03 07:50:38.66	15.28	11.70	-43.9	-46.1	18.1	0.00e+00	0	42	0	0	59	4630
2026-01-03 07:50:39.66	15.11	11.65	-44.0	-46.1	18.1	0.00e+00	0	42	0	0	59	4649
2026-01-03 07:50:40.66	14.94	11.61	-44.1	-46.3	18.0	0.00e+00	0	42	0	0	59	4716
2026-01-03 07:50:41.66	14.78	11.57	-44.3	-46.4	17.9	0.00e+00	0	42	0	0	59	4811
2026-01-03 07:50:42.66	14.61	11.52	-44.3	-46.5	18.0	0.00e+00	0	42	0	0	59	4815
2026-01-03 07:50:43.67	14.44	11.48	-44.4	-46.5	17.9	0.00e+00	0	42	0	0	59	4837
2026-01-03 07:50:44.67	14.28	11.43	-44.5	-46.6	17.8	0.00e+00	0	42	0	0	59	4903
2026-01-03 07:50:45.67	14.11	11.39	-44.5	-46.6	17.8	0.00e+00	0	42	0	0	59	4895
2026-01-03 07:50:46.67	13.95	11.35	-44.6	-46.7	17.7	0.00e+00	0	42	0	0	59	4941
2026-01-03 07:50:47.67	13.79	11.30	-44.4	-46.4	17.9	0.00e+00	0	42	0	0	59	4797
2026-01-03 07:50:48.67	13.62	11.26	-44.4	-46.4	17.9	0.00e+00	0	42	0	0	59	4773
2026-01-03 07:50:49.67	13.46	11.21	-44.3	-46.2	18.0	0.00e+00	0	42	0	0	59	4703
2026-01-03 07:50:50.67	13.30	11.17	-44.4	-46.3	17.8	0.00e+00	0	42	0	0	59	4756
2026-01-03 07:50:51.67	13.14	11.12	-44.3	-46.3	17.7	0.00e+00	0	42	0	0	59	4708
2026-01-03 07:50:52.67	12.98	11.08	-44.3	-46.4	17.5	0.00e+00	0	42	0	0	59	4764
2026-01-03 07:50:53.68	12.82	11.03	-44.3	-46.4	17.5	0.00e+00	0	42	0	0	59	4764
2026-01-03 07:50:54.67	12.66	10.99	-44.4	-46.5	17.5	0.00e+00	0	42	0	0	59	4817
2026-01-03 07:50:55.68	12.50	10.94	-44.5	-46.6	17.5	0.00e+00	0	42	0	0	59	4899
2026-01-03 07:50:56.68	12.34	10.89	-44.5	-46.6	17.6	0.00e+00	0	42	0	0	59	4914
2026-01-03 07:50:57.68	12.18	10.85	-44.5	-46.7	17.6	0.00e+00	0	42	0	0	59	4937
2026-01-03 07:50:58.69	12.02	10.80	-44.6	-46.8	17.4	0.00e+00	0	42	0	0	59	5015
2026-01-03 07:50:59.69	11.87	10.76	-44.6	-46.9	17.3	0.00e+00	0	42	0	0	59	5069
2026-01-03 07:51:00.69	11.71	10.71	-44.7	-47.1	17.1	0.00e+00	0	42	0	0	60	4910
2026-01-03 07:51:01.69	11.55	10.66	-44.7	-47.2	17.2	0.00e+00	0	42	0	0	60	4928
2026-01-03 07:51:02.69	11.40	10.62	-44.7	-47.3	17.1	0.00e+00	0	42	0	0	60	4998
2026-01-03 07:51:03.69	11.24	10.57	-44.8	-47.4	17.0	0.00e+00	0	42	0	0	60	5048
2026-01-03 07:51:04.69	11.09	10.52	-44.8	-47.4	16.7	0.00e+00	0	42	0	0	60	5098
2026-01-03 07:51:05.69	10.94	10.48	-44.7	-47.2	16.8	0.00e+00	0	42	0	0	60	4961
2026-01-03 07:51:06.69	10.78	10.43	-44.6	-47.2	16.7	0.00e+00	0	42	0	0	60	4960
2026-01-03 07:51:07.69	10.63	10.38	-44.6	-47.1	16.7	0.00e+00	0	42	0	0	60	4916
2026-01-03 07:51:08.69	10.48	10.34	-44.4	-47.0	17.0	0.00e+00	0	42	0	0	60	4840
2026-01-03 07:51:09.70	10.32	10.29	-44.3	-46.9	17.2	0.00e+00	0	42	0	0	60	4790
2026-01-03 07:51:10.70	10.17	10.24	-44.3	-47.0	17.3	0.00e+00	0	42	0	0	60	4833
2026-01-03 07:51:11.70	10.02	10.19	-44.2	-46.9	17.4	0.00e+00	0	42	0	0	60	4794
2026-01-03 07:51:12.70	9.87	10.15	-44.1	-46.8	17.7	0.00e+00	0	42	0	0	60	4710
2026-01-03 07:51:13.70	9.72	10.10	-44.1	-46.7	17.7	0.00e+00	0	42	0	0	60	4704
2026-01-03 07:51:14.70	9.57	10.05	-44.1	-46.8	17.7	0.00e+00	0	42	0	0	60	4711
2026-01-03 07:51:15.70	9.42	10.00	-44.3	-46.9	17.6	0.00e+00	0	42	0	0	60	4781
2026-01-03 07:51:16.70	9.27	9.95	-44.2	-46.7	17.7	0.00e+00	0	42	0	0	60	4697
2026-01-03 07:51:17.70	9.12	9.91	-44.2	-46.7	17.7	0.00e+00	0	42	0	0	60	4676
2026-01-03 07:51:18.70	8.98	9.86	-44.3	-46.7	17.6	0.00e+00	0	42	0	0	60	4699
2026-01-03 07:51:19.70	8.83	9.81	-44.3	-46.7	17.5	0.00e+00	0	42	0	0	60	4702
2026-01-03 07:51:20.70	8.68	9.76	-44.3	-46.7	17.5	0.00e+00	0	42	0	0	60	4689
2026-01-03 07:51:21.70	8.54	9.71	-44.4	-46.8	17.3	0.00e+00	0	42	0	0	60	4745
2026-01-03 07:51:22.70	8.39	9.67	-44.5	-46.9	17.3	0.00e+00	0	42	0	0	60	4790
2026-01-03 07:51:23.70	8.25	9.62	-44.4	-46.7	17.5	0.00e+00	0	42	0	0	60	4685
2026-01-03 07:51:24.70	8.10	9.57	-44.5	-46.7	17.5	0.00e+00	0	42	0	0	60	4685
2026-01-03 07:51:25.70	7.96	9.52	-44.5	-46.7	17.5	0.00e+00	0	42	0	0	60	4700
2026-01-03 07:51:26.71	7.81	9.47	-44.6	-46.7	17.6	0.00e+00	0	42	0	0	60	4705
2026-01-03 07:51:27.71	7.67	9.42	-44.7	-46.9	17.5	0.00e+00	0	42	0	0	60	4771
2026-01-03 07:51:28.71	7.53	9.37	-44.8	-47.0	17.4	0.00e+00	0	42	0	0	60	4835
2026-01-03 07:51:29.71	7.39	9.32	-45.0	-47.1	17.3	0.00e+00	0	42	0	0	60	4914
2026-01-03 07:51:30.72	7.24	9.27	-45.1	-47.3	17.1	0.00e+00	0	42	0	0	60	5022
2026-01-03 07:51:31.72	7.10	9.22	-45.0	-47.2	17.3	0.00e+00	0	42	0	0	60	4948
2026-01-03 07:51:32.72	6.96	9.18	-45.0	-47.3	17.2	0.00e+00	0	42	0	0	60	4985
2026-01-03 07:51:33.72	6.82	9.13	-44.9	-47.2	17.2	0.00e+00	0	42	0	0	60	4939
2026-01-03 07:51:34.72	6.68	9.08	-44.7	-47.0	17.3	0.00e+00	0	42	0	0	60	4853
2026-01-03 07:51:35.72	6.54	9.03	-44.6	-47.0	17.3	0.00e+00	0	42	0	0	60	4855
2026-01-03 07:51:36.72	6.40	8.98	-46.7	-49.7	14.9	0.00e+00	0	42	0	0	63	5582
2026-01-03 07:51:37.72	6.27	8.93	-51.9	-65.3	3.8	1.49e+00	0	42	104	0	74	17809
2026-01-03 07:51:38.73	6.13	8.88	-51.6	-65.9	3.8	1.49e+00	0	42	104	0	75	17951
2026-01-03 07:51:39.73	5.99	8.83	-52.3	-65.9	3.8	1.49e+00	0	42	104	0	75	18020
2026-01-03 07:51:40.73	5.85	8.78	-52.8	-66.1	3.8	1.49e+00	0	42	104	0	76	17378
2026-01-03 07:51:41.73	5.72	8.73	-53.2	-66.2	3.8	1.49e+00	0	42	104	0	76	17548
2026-01-03 07:51:42.73	5.58	8.68	-53.0	-66.3	3.8	1.49e+00	0	42	104	0	77	16730
2026-01-03 07:51:43.74	5.44	8.63	-53.2	-66.3	3.8	1.49e+00	0	42	104	0	77	16767
2026-01-03 07:51:44.74	5.31	8.58	-53.1	-66.3	3.8	1.49e+00	0	42	104	0	77	16821
2026-01-03 07:51:45.74	5.18	8.53	-53.0	-66.3	3.8	1.49e+00	0	42	104	0	77	16834
2026-01-03 07:51:46.74	5.04	8.48	-53.3	-66.3	3.8	1.49e+00	0	42	104	0	77	16866
2026-01-03 07:51:47.74	4.91	8.43	-53.3	-66.4	3.8	1.49e+00	0	42	104	0	77	16962
2026-01-03 07:51:48.74	4.77	8.38	-53.4	-66.4	3.8	1.49e+00	0	42	104	0	77	16893
2026-01-03 07:51:49.74	4.64	8.33	-53.5	-66.4	3.8	1.49e+00	0	42	104	0	77	17022
2026-01-03 07:51:50.75	4.51	8.28	-53.4	-66.4	3.8	1.49e+00	0	42	104	0	77	17007
2026-01-03 07:51:51.75	4.38	8.23	-53.1	-66.4	3.8	1.49e+00	0	42	104	0	77	16975
2026-01-03 07:51:52.75	4.25	8.18	-53.4	-66.4	3.8	1.49e+00	0	42	104	0	77	17014
2026-01-03 07:51:53.75	4.12	8.13	-53.5	-66.4	3.8	1.49e+00	0	42	104	0	77	17004
2026-01-03 07:51:54.75	3.99	8.08	-53.5	-66.4	3.8	1.49e+00	0	42	104	0	77	17000
2026-01-03 07:51:55.75	3.86	8.03	-53.4	-66.4	3.8	1.49e+00	0	42	104	0	77	17016
2026-01-03 07:51:56.75	3.73	7.98	-53.4	-66.4	3.8	1.49e+00	0	42	104	0	77	16981
2026-01-03 07:51:57.75	3.60	7.93	-53.3	-66.4	3.8	1.49e+00	0	43	104	0	77	16928
2026-01-03 07:51:58.75	3.47	7.87	-53.4	-66.4	3.8	1.49e+00	0	42	104	0	77	17024
2026-01-03 07:51:59.76	3.34	7.82	-53.2	-66.4	3.8	1.49e+00	0	42	104	0	77	16980
2026-01-03 07:52:00.76	3.21	7.77	-53.3	-66.4	3.8	1.49e+00	0	42	104	0	77	16937
2026-01-03 07:52:01.76	3.09	7.72	-53.4	-66.4	3.8	1.49e+00	0	42	104	0	77	16964
2026-01-03 07:52:02.76	2.96	7.67	-53.2	-66.4	3.8	1.49e+00	0	42	104	0	77	16984
2026-01-03 07:52:03.76	2.83	7.62	-53.4	-66.4	3.8	1.49e+00	0	42	104	0	77	16988
2026-01-03 07:52:04.77	2.71	7.57	-53.2	-66.4	3.8	1.49e+00	0	42	104	0	77	16912
2026-01-03 07:52:05.77	2.58	7.52	-53.3	-66.4	3.8	1.49e+00	0	42	104	0	77	17066
2026-01-03 07:52:06.77	2.46	7.47	-53.3	-66.4	3.8	1.49e+00	0	42	104	0	77	17052
2026-01-03 07:52:07.77	2.33	7.42	-53.3	-66.4	3.8	1.49e+00	0	42	104	0	77	17065
2026-01-03 07:52:08.77	2.21	7.37	-53.3	-66.4	3.8	1.49e+00	0	42	104	0	77	17056
2026-01-03 07:52:09.77	2.09	7.32	-53.3	-66.4	3.8	1.49e+00	0	42	104	0	77	16995
2026-01-03 07:52:10.77	1.96	7.26	-53.3	-66.4	3.8	1.49e+00	0	42	104	0	77	17037
2026-01-03 07:52:11.78	1.84	7.21	-53.3	-66.4	3.8	1.49e+00	0	42	104	0	77	16981
2026-01-03 07:52:12.77	1.72	7.16	-53.3	-66.4	3.8	1.49e+00	0	42	104	0	77	17051
2026-01-03 07:52:13.78	1.60	7.11	-53.3	-66.4	3.8	1.49e+00	0	42	104	0	77	17056
2026-01-03 07:52:14.78	1.48	7.06	-53.3	-66.4	3.8	1.49e+00	0	42	104	0	77	17017
2026-01-03 07:52:15.78	1.35	7.01	-53.3	-66.4	3.8	1.49e+00	0	42	104	0	77	16989
2026-01-03 07:52:16.78	1.23	6.96	-53.3	-66.4	3.8	1.49e+00	0	42	104	0	77	16994
2026-01-03 07:52:17.79	1.11	6.91	-53.3	-66.5	3.8	1.49e+00	0	42	104	0	77	17097
2026-01-03 07:52:18.79	0.99	6.86	-53.3	-66.4	3.8	1.49e+00	0	42	104	0	77	17046
2026-01-03 07:52:19.79	0.87	6.80	-53.3	-66.4	3.8	1.49e+00	0	43	104	0	77	16976
2026-01-03 07:52:20.79	0.76	6.75	-53.3	-66.4	3.8	1.49e+00	0	42	104	0	77	17015
2026-01-03 07:52:21.79	0.64	6.70	-53.3	-66.4	3.8	1.49e+00	0	42	104	0	77	16998
2026-01-03 07:52:22.79	0.52	6.65	-53.3	-66.4	3.8	1.49e+00	0	42	104	0	77	17045
2026-01-03 07:52:23.79	0.40	6.60	-53.3	-66.4	3.8	1.49e+00	0	42	104	0	77	16952
2026-01-03 07:52:24.79	0.29	6.55	-53.3	-66.4	3.8	1.49e+00	0	42	104	0	77	17035
2026-01-03 07:52:25.79	0.17	6.50	-53.3	-66.4	3.8	1.49e+00	0	42	104	0	77	16972
2026-01-03 07:52:26.79	0.05	6.45	-53.3	-66.4	3.8	1.49e+00	0	42	104	0	77	16967
2026-01-03 07:52:27.79	359.94	6.40	-53.3	-66.4	3.8	1.49e+00	0	43	104	0	77	17023
2026-01-03 07:52:28.80	359.82	6.34	-53.3	-66.4	3.8	1.49e+00	0	42	104	0	77	16989
2026-01-03 07:52:29.80	359.71	6.29	-53.3	-66.4	3.8	1.49e+00	0	42	104	0	77	16989
2026-01-03 07:52:30.80	359.59	6.24	-53.3	-66.4	3.8	1.49e+00	0	43	104	0	77	17056
2026-01-03 07:52:31.80	359.48	6.19	-53.5	-66.6	3.8	1.49e+00	0	42	104	0	77	17391
2026-01-03 07:52:32.80	359.37	6.14	-53.6	-66.7	3.8	1.49e+00	0	42	104	0	77	17591
2026-01-03 07:52:33.80	359.25	6.09	-53.5	-66.6	3.8	1.49e+00	0	43	104	0	77	17321
2026-01-03 07:52:34.81	359.14	6.04	-53.5	-66.6	3.8	1.49e+00	0	42	104	0	77	17422
2026-01-03 07:52:35.81	359.03	5.98	-53.5	-66.6	3.8	1.49e+00	0	42	104	0	77	17361
2026-01-03 07:52:36.80	358.92	5.93	-53.5	-66.6	3.8	1.49e+00	0	43	104	0	77	17364
2026-01-03 07:52:37.81	358.80	5.88	-53.5	-66.6	3.8	1.49e+00	0	42	104	0	77	17383
2026-01-03 07:52:38.81	358.69	5.83	-53.4	-66.6	3.8	1.49e+00	0	42	104	0	77	17312
2026-01-03 07:52:39.81	358.58	5.78	-53.5	-66.6	3.8	1.49e+00	0	43	104	0	77	17392
2026-01-03 07:52:40.81	358.47	5.73	-53.5	-66.6	3.8	1.49e+00	0	42	104	0	77	17420
2026-01-03 07:52:41.81	358.36	5.68	-53.5	-66.6	3.8	1.49e+00	0	42	104	0	77	17447
2026-01-03 07:52:42.81	358.25	5.63	-53.5	-66.6	3.8	1.49e+00	0	42	104	0	77	17408
2026-01-03 07:52:43.81	358.14	5.57	-53.5	-66.6	3.8	1.49e+00	0	42	104	0	77	17467
2026-01-03 07:52:44.81	358.03	5.52	-53.5	-66.7	3.8	1.49e+00	0	42	104	0	77	17491
2026-01-03 07:52:45.81	357.93	5.47	-53.5	-66.6	3.8	1.49e+00	0	42	104	0	77	17445
2026-01-03 07:52:46.81	357.82	5.42	-53.6	-66.7	3.8	1.49e+00	0	42	104	0	77	17553
2026-01-03 07:52:47.81	357.71	5.37	-53.6	-66.7	3.8	1.49e+00	0	42	104	0	77	17644
2026-01-03 07:52:48.82	357.60	5.32	-53.6	-66.8	3.8	1.49e+00	0	42	104	0	77	17729
2026-01-03 07:52:49.82	357.50	5.27	-53.7	-66.8	3.8	1.49e+00	0	43	104	0	77	17811
2026-01-03 07:52:50.82	357.39	5.22	-53.7	-66.8	3.8	1.49e+00	0	42	104	0	78	16851
2026-01-03 07:52:51.82	357.28	5.16	-53.7	-66.8	3.8	1.49e+00	0	42	104	0	78	16881
2026-01-03 07:52:52.82	357.18	5.11	-53.8	-66.9	3.8	1.49e+00	0	42	104	0	78	17015
2026-01-03 07:52:53.82	357.07	5.06	-53.7	-66.9	3.8	1.49e+00	0	42	104	0	78	16912
2026-01-03 07:52:54.82	356.97	5.01	-53.8	-66.9	3.8	1.49e+00	0	42	104	0	78	16949
2026-01-03 07:52:55.82	356.86	4.96	-53.8	-66.9	3.8	1.49e+00	0	42	104	0	78	16928

#Closed at: 2026-01-03 07:52:56
#Recorded file [0 MB]: D:/Data/31040_260103_104340.dat