passes_logs/2026/01/03/T1/T1__20260103_014039_SUOMI_NPP_rec.log

#Pass ID: 20260103_014039_SUOMI NPP
#Satellite: SUOMI NPP
#Configuration: NPP
#almurnet v.1.7.20251203
#Start time: 2026-01-03 01:40:39

#Version: 2.0.20230620
#Station: T1
#Location: 37.570604 lon 55.790049 lat
#TLE: 1 37849U 11061A   26001.07732418  .00000182  00000+0  10735-3 0  9990
#TLE: 2 37849  98.7795 303.2470 0002580  87.2016 272.9455 14.19520779734739

#Time	Az	El	Level	Level2	SNR	BER	BlckErr	Temp	State	Recorded	gain1	gain2
2026-01-03 01:40:39.28	5.27	4.96	-48.7	-64.4	3.8	1.49e+00	0	40	0	0	69	21281
2026-01-03 01:40:40.28	5.18	5.02	-47.9	-64.0	3.8	1.49e+00	0	41	104	0	66	24230
2026-01-03 01:40:41.29	5.08	5.08	-47.5	-63.9	3.8	1.49e+00	0	41	104	0	65	25384
2026-01-03 01:40:42.29	4.99	5.14	-46.8	-63.8	3.8	1.49e+00	0	41	104	0	65	25235
2026-01-03 01:40:43.29	4.90	5.19	-46.7	-63.8	3.8	1.49e+00	0	41	104	0	65	25222
2026-01-03 01:40:44.30	4.81	5.25	-46.8	-63.8	3.8	1.49e+00	0	41	104	0	65	25231
2026-01-03 01:40:45.30	4.72	5.31	-46.8	-63.8	3.8	1.49e+00	0	41	104	0	65	25189
2026-01-03 01:40:46.31	4.62	5.37	-46.8	-63.8	3.8	1.49e+00	0	41	104	0	65	25190
2026-01-03 01:40:47.31	4.53	5.42	-46.8	-63.8	3.8	1.49e+00	0	41	104	0	65	25183
2026-01-03 01:40:48.32	4.44	5.48	-46.8	-63.8	3.8	1.49e+00	0	41	104	0	65	25152
2026-01-03 01:40:49.32	4.34	5.54	-46.8	-63.8	3.8	1.49e+00	0	41	104	0	65	25123
2026-01-03 01:40:50.32	4.25	5.60	-46.8	-63.8	3.8	1.49e+00	0	41	104	0	65	25222
2026-01-03 01:40:51.33	4.16	5.66	-46.8	-63.8	3.8	1.49e+00	0	41	104	0	65	25032
2026-01-03 01:40:52.33	4.06	5.71	-46.8	-63.8	3.8	1.49e+00	0	41	104	0	65	25145
2026-01-03 01:40:53.34	3.96	5.77	-46.8	-63.8	3.8	1.49e+00	0	41	104	0	65	25078
2026-01-03 01:40:54.34	3.87	5.83	-46.8	-63.8	3.8	1.49e+00	0	41	104	0	65	25044
2026-01-03 01:40:55.35	3.77	5.89	-46.8	-63.8	3.8	1.49e+00	0	41	104	0	65	25039
2026-01-03 01:40:56.35	3.68	5.95	-46.8	-63.8	3.8	1.49e+00	0	41	104	0	65	25064
2026-01-03 01:40:57.36	3.58	6.00	-46.8	-63.8	3.8	1.49e+00	0	41	104	0	65	24995
2026-01-03 01:40:58.36	3.48	6.06	-46.7	-63.5	3.8	1.49e+00	0	41	104	0	65	24329
2026-01-03 01:40:59.36	3.38	6.12	-46.7	-63.5	3.9	1.49e+00	0	41	104	0	65	24349
2026-01-03 01:41:00.37	3.29	6.18	-46.7	-63.5	3.9	1.49e+00	0	41	104	0	65	24356
2026-01-03 01:41:01.37	3.19	6.24	-46.7	-63.6	3.8	1.49e+00	0	42	104	0	65	24425
2026-01-03 01:41:02.37	3.09	6.30	-46.7	-63.6	3.8	1.49e+00	0	42	104	0	65	24533
2026-01-03 01:41:03.38	2.99	6.35	-46.7	-63.5	3.9	1.49e+00	0	41	104	0	65	24324
2026-01-03 01:41:04.38	2.89	6.41	-46.6	-63.5	3.9	1.49e+00	0	42	104	0	65	24167
2026-01-03 01:41:05.39	2.79	6.47	-46.8	-63.9	3.8	1.49e+00	0	42	104	0	65	25335
2026-01-03 01:41:06.39	2.69	6.53	-46.8	-63.8	3.8	1.49e+00	0	42	104	0	65	25187
2026-01-03 01:41:07.40	2.59	6.59	-46.8	-63.9	3.8	1.49e+00	0	42	104	0	65	25338
2026-01-03 01:41:08.40	2.49	6.65	-46.8	-63.8	3.8	1.49e+00	0	42	104	0	65	25235
2026-01-03 01:41:09.40	2.38	6.71	-46.8	-63.8	3.8	1.49e+00	0	42	104	0	65	25256
2026-01-03 01:41:10.41	2.28	6.77	-46.8	-63.8	3.8	1.49e+00	0	42	104	0	65	25195
2026-01-03 01:41:11.41	2.18	6.82	-46.8	-63.8	3.8	1.49e+00	0	42	104	0	65	25157
2026-01-03 01:41:12.42	2.07	6.88	-46.8	-63.8	3.8	1.49e+00	0	42	104	0	65	25088
2026-01-03 01:41:13.42	1.97	6.94	-46.8	-63.7	3.8	1.49e+00	0	42	104	0	65	24973
2026-01-03 01:41:14.42	1.87	7.00	-46.8	-63.7	3.8	1.49e+00	0	42	104	0	65	24896
2026-01-03 01:41:15.43	1.76	7.06	-46.8	-63.7	3.8	1.49e+00	0	42	104	0	65	24803
2026-01-03 01:41:16.43	1.66	7.12	-46.8	-63.7	3.8	1.49e+00	0	42	104	0	65	24886
2026-01-03 01:41:17.44	1.55	7.18	-46.8	-63.7	3.8	1.49e+00	0	42	104	0	65	24896
2026-01-03 01:41:18.44	1.45	7.24	-46.8	-63.8	3.8	1.49e+00	0	42	104	0	65	25062
2026-01-03 01:41:19.44	1.34	7.30	-46.8	-63.8	3.8	1.49e+00	0	42	104	0	65	25171
2026-01-03 01:41:20.45	1.23	7.36	-46.8	-63.8	3.8	1.49e+00	0	42	104	0	65	25256
2026-01-03 01:41:21.46	1.13	7.42	-46.8	-63.8	3.8	1.49e+00	0	42	104	0	65	25246
2026-01-03 01:41:22.46	1.02	7.47	-46.8	-63.8	3.8	1.49e+00	0	42	104	0	65	25082
2026-01-03 01:41:23.46	0.91	7.53	-46.8	-63.8	3.8	1.49e+00	0	42	104	0	65	25004
2026-01-03 01:41:24.47	0.80	7.59	-46.8	-63.7	3.8	1.49e+00	0	42	104	0	65	24785
2026-01-03 01:41:25.47	0.69	7.65	-46.8	-63.7	3.8	1.49e+00	0	42	104	0	65	24762
2026-01-03 01:41:26.47	0.58	7.71	-46.8	-63.7	3.8	1.49e+00	0	42	104	0	65	24723
2026-01-03 01:41:27.48	0.47	7.77	-46.8	-63.7	3.8	1.49e+00	0	42	104	0	65	24701
2026-01-03 01:41:28.48	0.36	7.83	-46.8	-63.7	3.8	1.49e+00	0	42	104	0	65	24697
2026-01-03 01:41:29.49	0.25	7.89	-46.8	-63.6	3.8	1.49e+00	0	42	104	0	65	24660
2026-01-03 01:41:30.49	0.14	7.95	-46.8	-63.6	3.8	1.49e+00	0	43	104	0	65	24671
2026-01-03 01:41:31.50	0.03	8.01	-46.8	-63.7	3.8	1.49e+00	0	42	104	0	65	24829
2026-01-03 01:41:32.50	359.92	8.07	-46.8	-63.7	3.8	1.49e+00	0	42	104	0	65	24973
2026-01-03 01:41:33.51	359.80	8.13	-46.8	-63.8	3.8	1.49e+00	0	43	104	0	65	25211
2026-01-03 01:41:34.51	359.69	8.19	-46.8	-63.8	3.8	1.49e+00	0	43	104	0	65	25231
2026-01-03 01:41:35.52	359.58	8.25	-46.8	-63.7	3.8	1.49e+00	0	42	104	0	65	24898
2026-01-03 01:41:36.52	359.46	8.31	-46.8	-63.3	3.8	1.49e+00	0	43	104	0	65	23821
2026-01-03 01:41:37.52	359.35	8.37	-46.7	-62.7	3.8	1.49e+00	0	43	104	0	65	22059
2026-01-03 01:41:38.53	359.23	8.43	-46.7	-61.8	3.9	1.49e+00	0	42	104	0	65	19874
2026-01-03 01:41:39.53	359.12	8.49	-46.6	-60.4	4.2	1.47e+00	0	43	0	0	65	17042
2026-01-03 01:41:40.54	359.00	8.55	-46.5	-59.1	4.6	1.11e+00	0	43	0	0	65	14631
2026-01-03 01:41:41.54	358.88	8.61	-46.4	-57.8	5.3	7.30e-01	0	43	0	2097152	64	13286
2026-01-03 01:41:42.55	358.77	8.67	-46.2	-56.2	6.4	3.82e-01	0	43	0	4194304	64	11108
2026-01-03 01:41:43.55	358.65	8.73	-46.1	-55.2	7.3	1.37e-01	0	42	0	6291456	64	9850
2026-01-03 01:41:44.56	358.53	8.79	-45.9	-54.3	8.2	7.05e-02	0	43	0	8388608	63	9456
2026-01-03 01:41:45.56	358.41	8.85	-45.8	-53.5	9.0	3.44e-02	0	43	0	9437184	63	8599
2026-01-03 01:41:46.56	358.29	8.91	-45.7	-53.2	9.4	1.74e-02	0	43	0	11534336	63	8275
2026-01-03 01:41:47.57	358.17	8.97	-45.5	-52.7	9.9	1.15e-02	0	43	0	13631488	63	7854
2026-01-03 01:41:48.57	358.05	9.03	-45.6	-52.8	9.8	9.78e-03	0	43	0	15728640	63	7951
2026-01-03 01:41:49.57	357.93	9.09	-46.2	-54.5	8.2	1.68e-02	0	43	0	17825792	63	9611
2026-01-03 01:41:50.58	357.81	9.15	-46.0	-53.7	8.9	9.59e-02	0	43	0	18874368	63	8777
2026-01-03 01:41:51.58	357.69	9.21	-45.8	-53.7	9.0	9.34e-03	0	43	0	20971520	63	8788
2026-01-03 01:41:52.86	357.53	9.29	-47.1	-60.3	4.2	7.70e-01	0	43	0	23068672	64	17888
2026-01-03 01:41:53.62	357.44	9.34	-44.6	-50.5	11.7	4.91e-01	0	43	0	23068672	61	6867
2026-01-03 01:41:55.23	357.24	9.43	-43.2	-47.9	14.7	1.50e-06	0	43	0	26214400	58	6007
2026-01-03 01:41:55.81	357.17	9.47	-42.9	-47.6	15.0	7.00e-07	0	43	0	27262976	57	6161
2026-01-03 01:41:57.55	356.95	9.57	-42.7	-47.5	15.1	0.00e+00	0	43	0	30408704	57	6089
2026-01-03 01:41:58.12	356.88	9.61	-42.7	-47.6	15.0	0.00e+00	0	43	0	31457280	57	6146
2026-01-03 01:42:00.20	356.62	9.73	-42.8	-47.5	15.1	0.00e+00	0	43	0	35651584	57	6122
2026-01-03 01:42:00.65	356.56	9.76	-42.9	-47.5	15.1	0.00e+00	0	43	0	35651584	57	6103
2026-01-03 01:42:02.80	356.29	9.89	-43.0	-47.5	15.1	0.00e+00	0	43	0	39845888	57	6108
2026-01-03 01:42:03.23	356.24	9.91	-43.0	-47.3	15.3	0.00e+00	0	43	0	40894464	57	5979
2026-01-03 01:42:05.37	355.96	10.04	-42.9	-47.2	15.5	0.00e+00	0	43	0	45088768	57	5873
2026-01-03 01:42:05.81	355.91	10.07	-42.9	-47.2	15.4	0.00e+00	0	43	0	46137344	57	5869
2026-01-03 01:42:07.96	355.63	10.20	-42.7	-46.9	15.6	0.00e+00	0	43	0	49283072	57	5714
2026-01-03 01:42:08.39	355.57	10.22	-42.7	-47.1	15.5	0.00e+00	0	43	0	50331648	57	5807
2026-01-03 01:42:10.54	355.29	10.35	-42.8	-47.3	15.2	3.00e-06	0	43	0	54525952	57	5991
2026-01-03 01:42:10.97	355.23	10.38	-42.8	-47.4	15.1	2.97e-05	0	43	0	55574528	57	6044
2026-01-03 01:42:13.12	354.95	10.51	-42.9	-48.0	14.5	4.50e-06	0	43	0	59768832	57	6490
2026-01-03 01:42:13.55	354.89	10.54	-43.0	-48.2	14.5	9.90e-06	0	43	0	59768832	57	6582
2026-01-03 01:42:15.69	354.60	10.66	-43.0	-48.3	14.1	4.36e-04	0	43	0	63963136	57	6704
2026-01-03 01:42:16.12	354.55	10.69	-42.9	-48.1	14.4	7.99e-04	0	43	0	65011712	57	6527
2026-01-03 01:42:18.33	354.25	10.82	-42.9	-48.2	14.4	1.52e-05	0	43	0	69206016	57	6576
2026-01-03 01:42:18.76	354.19	10.85	-42.7	-47.8	14.7	1.28e-04	0	43	0	70254592	57	6316
2026-01-03 01:42:20.91	353.89	10.98	-42.8	-47.7	14.9	0.00e+00	0	43	0	74448896	57	6269
2026-01-03 01:42:21.34	353.83	11.00	-42.8	-47.7	15.1	7.00e-07	0	43	0	74448896	57	6207
2026-01-03 01:42:23.49	353.54	11.13	-42.7	-47.5	15.1	0.00e+00	0	43	0	78643200	57	6075
2026-01-03 01:42:23.92	353.48	11.16	-42.8	-47.5	15.2	7.00e-07	0	43	0	79691776	57	6095
2026-01-03 01:42:26.14	353.17	11.29	-43.1	-47.5	15.2	0.00e+00	0	43	0	83886080	57	6094
2026-01-03 01:42:26.57	353.10	11.32	-43.1	-47.4	15.3	0.00e+00	0	43	0	84934656	57	6001
2026-01-03 01:42:28.72	352.80	11.45	-43.3	-47.4	15.3	0.00e+00	0	43	0	89128960	57	6012
2026-01-03 01:42:29.15	352.74	11.47	-43.2	-47.2	15.4	0.00e+00	0	43	0	89128960	57	5901
2026-01-03 01:42:31.31	352.43	11.60	-42.9	-46.7	16.0	0.00e+00	0	43	0	93323264	57	5533
2026-01-03 01:42:31.74	352.37	11.63	-43.0	-46.7	16.0	0.00e+00	0	43	0	94371840	57	5557
2026-01-03 01:42:33.93	352.05	11.76	-42.8	-46.4	16.2	0.00e+00	0	43	0	98566144	57	5396
2026-01-03 01:42:34.36	351.99	11.79	-42.9	-46.7	16.0	0.00e+00	0	43	0	99614720	57	5561
2026-01-03 01:42:36.51	351.67	11.92	-42.9	-46.9	15.8	0.00e+00	0	43	0	102760448	57	5671
2026-01-03 01:42:36.94	351.61	11.94	-42.9	-47.0	15.7	0.00e+00	0	43	0	103809024	57	5758
2026-01-03 01:42:39.12	351.29	12.07	-42.8	-47.3	15.4	0.00e+00	0	43	0	108003328	57	5932
2026-01-03 01:42:39.56	351.22	12.10	-42.8	-47.3	15.5	0.00e+00	0	43	0	109051904	57	5956
2026-01-03 01:42:41.70	350.90	12.22	-42.5	-47.2	15.5	0.00e+00	0	43	0	113246208	57	5920
2026-01-03 01:42:42.13	350.84	12.25	-42.5	-47.2	15.5	0.00e+00	0	43	0	114294784	57	5901
2026-01-03 01:42:44.28	350.51	12.38	-42.3	-46.8	15.9	0.00e+00	0	44	0	117440512	56	5930
2026-01-03 01:42:44.71	350.45	12.40	-42.3	-46.6	16.1	0.00e+00	0	43	0	118489088	56	5814
2026-01-03 01:42:46.86	350.12	12.53	-42.5	-46.8	15.9	0.00e+00	0	43	0	122683392	56	5944
2026-01-03 01:42:47.31	350.05	12.56	-42.5	-46.8	15.9	0.00e+00	0	43	0	123731968	56	5975
2026-01-03 01:42:49.46	349.72	12.69	-43.0	-47.3	15.5	0.00e+00	0	43	0	127926272	56	6329
2026-01-03 01:42:49.90	349.65	12.71	-43.0	-47.4	15.4	0.00e+00	0	43	0	127926272	56	6390
2026-01-03 01:42:52.05	349.32	12.84	-43.3	-47.4	15.3	0.00e+00	0	43	0	132120576	57	6058
2026-01-03 01:42:52.48	349.25	12.86	-43.3	-47.5	15.2	0.00e+00	0	43	0	133169152	57	6128
2026-01-03 01:42:54.63	348.91	12.99	-43.3	-47.1	15.7	7.00e-07	0	43	0	137363456	57	5817
2026-01-03 01:42:55.07	348.84	13.02	-43.4	-47.1	15.6	0.00e+00	0	43	0	138412032	57	5834
2026-01-03 01:42:57.22	348.50	13.14	-43.5	-47.1	15.7	0.00e+00	0	43	0	141557760	57	5843
2026-01-03 01:42:57.65	348.43	13.17	-43.5	-47.3	15.4	0.00e+00	0	44	0	142606336	57	5952
2026-01-03 01:42:59.79	348.09	13.29	-43.4	-47.3	15.4	0.00e+00	0	43	0	146800640	57	5982
2026-01-03 01:43:00.22	348.02	13.32	-43.4	-47.4	15.3	0.00e+00	0	43	0	147849216	57	6052
2026-01-03 01:43:02.53	347.64	13.45	-43.4	-47.8	15.0	0.00e+00	0	43	0	152043520	57	6290
2026-01-03 01:43:02.96	347.57	13.48	-43.4	-47.8	14.9	0.00e+00	0	43	0	153092096	57	6343
2026-01-03 01:43:05.11	347.22	13.60	-43.0	-47.3	15.3	0.00e+00	0	43	0	157286400	57	5982
2026-01-03 01:43:05.99	347.07	13.65	-42.9	-47.1	15.6	0.00e+00	0	43	0	158334976	57	5835
2026-01-03 01:43:07.14	346.88	13.72	-42.8	-46.7	16.0	0.00e+00	0	44	0	160432128	57	5535
2026-01-03 01:43:08.00	346.74	13.77	-42.9	-46.8	16.0	0.00e+00	0	43	0	162529280	57	5602
2026-01-03 01:43:09.14	346.55	13.83	-43.2	-46.7	16.1	0.00e+00	0	43	0	164626432	57	5554
2026-01-03 01:43:10.00	346.40	13.88	-43.3	-46.8	16.0	0.00e+00	0	43	0	165675008	57	5593
2026-01-03 01:43:11.15	346.21	13.95	-43.6	-47.1	15.7	0.00e+00	0	43	0	167772160	57	5820
2026-01-03 01:43:12.01	346.06	14.00	-43.7	-47.2	15.5	0.00e+00	0	43	0	169869312	58	5568
2026-01-03 01:43:13.15	345.87	14.06	-43.9	-47.5	15.3	0.00e+00	0	43	0	171966464	58	5724
2026-01-03 01:43:14.30	345.67	14.13	-43.8	-47.4	15.4	0.00e+00	0	43	0	174063616	58	5694
2026-01-03 01:43:15.32	345.50	14.19	-43.9	-47.7	15.1	0.00e+00	0	43	0	176160768	58	5873
2026-01-03 01:43:16.32	345.32	14.24	-43.8	-47.6	15.1	0.00e+00	0	44	0	178257920	58	5846
2026-01-03 01:43:17.32	345.15	14.30	-43.8	-47.6	15.2	0.00e+00	0	43	0	179306496	58	5843
2026-01-03 01:43:18.33	344.98	14.36	-43.6	-47.4	15.4	0.00e+00	0	44	0	181403648	58	5688
2026-01-03 01:43:19.33	344.80	14.41	-43.4	-47.1	15.7	0.00e+00	0	43	0	183500800	58	5511
2026-01-03 01:43:20.33	344.63	14.47	-43.4	-47.2	15.6	0.00e+00	0	43	0	185597952	58	5565
2026-01-03 01:43:21.34	344.45	14.53	-43.3	-47.1	15.7	0.00e+00	0	43	0	187695104	58	5469
2026-01-03 01:43:22.34	344.27	14.58	-43.3	-47.0	15.7	0.00e+00	0	43	0	188743680	58	5446
2026-01-03 01:43:23.34	344.10	14.64	-43.4	-47.1	15.7	0.00e+00	0	43	0	190840832	58	5477
2026-01-03 01:43:24.34	343.92	14.69	-43.3	-46.9	15.8	0.00e+00	0	43	0	192937984	58	5381
2026-01-03 01:43:25.35	343.74	14.75	-43.3	-46.9	15.9	0.00e+00	0	44	0	195035136	58	5379
2026-01-03 01:43:26.35	343.56	14.80	-42.9	-46.4	16.3	0.00e+00	0	44	0	197132288	57	5391
2026-01-03 01:43:27.38	343.37	14.86	-42.6	-46.1	16.6	0.00e+00	0	43	0	198180864	57	5189
2026-01-03 01:43:28.38	343.19	14.92	-42.3	-45.8	16.9	0.00e+00	0	43	0	200278016	56	5313
2026-01-03 01:43:29.46	343.00	14.97	-42.0	-45.4	17.2	0.00e+00	0	43	0	202375168	56	5100
2026-01-03 01:43:30.32	342.84	15.02	-41.9	-45.5	17.0	0.00e+00	0	44	0	204472320	55	5427
2026-01-03 01:43:31.47	342.63	15.08	-41.7	-45.2	17.3	0.00e+00	0	43	0	206569472	55	5220
2026-01-03 01:43:32.33	342.47	15.13	-41.8	-45.3	17.3	0.00e+00	0	43	0	207618048	55	5302
2026-01-03 01:43:33.47	342.26	15.19	-42.0	-45.5	17.1	0.00e+00	0	44	0	209715200	55	5425
2026-01-03 01:43:34.33	342.11	15.24	-42.2	-45.6	16.9	0.00e+00	0	43	0	211812352	55	5528
2026-01-03 01:43:35.48	341.89	15.30	-42.2	-45.4	17.1	0.00e+00	0	44	0	213909504	55	5385
2026-01-03 01:43:36.34	341.73	15.35	-42.3	-45.4	17.1	0.00e+00	0	44	0	214958080	55	5369
2026-01-03 01:43:37.48	341.52	15.41	-42.2	-45.1	17.4	0.00e+00	0	44	0	217055232	55	5180
2026-01-03 01:43:38.34	341.36	15.45	-42.0	-44.9	17.6	0.00e+00	0	44	0	219152384	55	5085
2026-01-03 01:43:39.49	341.14	15.51	-41.9	-44.7	17.8	0.00e+00	0	44	0	221249536	55	4961
2026-01-03 01:43:40.34	340.98	15.56	-41.8	-44.6	18.0	0.00e+00	0	43	0	223346688	55	4881
2026-01-03 01:43:41.54	340.76	15.62	-41.7	-44.5	18.0	0.00e+00	0	43	0	225443840	55	4818
2026-01-03 01:43:42.40	340.59	15.67	-41.8	-44.6	17.9	0.00e+00	0	43	0	226492416	55	4911
2026-01-03 01:43:43.61	340.36	15.73	-42.1	-44.9	17.6	0.00e+00	0	43	0	228589568	55	5050
2026-01-03 01:43:44.47	340.20	15.77	-42.2	-45.1	17.5	0.00e+00	0	43	0	230686720	55	5162
2026-01-03 01:43:45.71	339.96	15.84	-42.4	-45.2	17.3	0.00e+00	0	44	0	232783872	55	5276
2026-01-03 01:43:46.56	339.80	15.88	-42.4	-45.3	17.3	0.00e+00	0	43	0	234881024	55	5290
2026-01-03 01:43:47.71	339.57	15.94	-42.3	-45.2	17.3	0.00e+00	0	43	0	236978176	55	5271
2026-01-03 01:43:48.57	339.41	15.99	-42.1	-45.1	17.4	0.00e+00	0	43	0	238026752	55	5168
2026-01-03 01:43:49.72	339.18	16.04	-41.7	-44.7	17.8	0.00e+00	0	43	0	240123904	55	4969
2026-01-03 01:43:50.58	339.01	16.09	-41.8	-44.8	17.7	0.00e+00	0	43	0	242221056	55	5007
2026-01-03 01:43:51.72	338.79	16.14	-41.7	-44.8	17.7	0.00e+00	0	43	0	244318208	55	4993
2026-01-03 01:43:52.58	338.62	16.19	-41.8	-44.9	17.6	0.00e+00	0	44	0	245366784	55	5060
2026-01-03 01:43:53.72	338.40	16.24	-42.0	-45.0	17.6	0.00e+00	0	43	0	248512512	55	5132
2026-01-03 01:43:54.58	338.23	16.29	-42.2	-45.1	17.4	0.00e+00	0	44	0	249561088	55	5206
2026-01-03 01:43:55.73	338.00	16.34	-42.3	-45.1	17.4	0.00e+00	0	43	0	251658240	55	5212
2026-01-03 01:43:56.59	337.83	16.39	-42.1	-44.9	17.6	0.00e+00	0	44	0	253755392	55	5082
2026-01-03 01:43:57.73	337.60	16.44	-41.7	-44.3	18.1	0.00e+00	0	43	0	255852544	55	4759
2026-01-03 01:43:58.59	337.42	16.48	-41.6	-44.2	18.3	0.00e+00	0	44	0	256901120	55	4667
2026-01-03 01:43:59.74	337.19	16.54	-41.5	-44.1	18.4	0.00e+00	0	43	0	258998272	54	4904
2026-01-03 01:44:00.60	337.02	16.58	-41.6	-44.3	18.2	0.00e+00	0	44	0	261095424	54	4986
2026-01-03 01:44:01.74	336.79	16.63	-41.7	-44.4	17.8	0.00e+00	0	44	0	263192576	54	5084
2026-01-03 01:44:02.60	336.61	16.68	-41.7	-44.5	18.0	0.00e+00	0	44	0	264241152	54	5134
2026-01-03 01:44:03.89	336.35	16.74	-42.1	-45.1	17.4	0.00e+00	0	43	0	267386880	55	5208
2026-01-03 01:44:04.61	336.20	16.77	-42.3	-45.3	17.3	0.00e+00	0	43	0	268435456	55	5338
2026-01-03 01:44:05.90	335.94	16.83	-42.4	-45.4	17.2	0.00e+00	0	43	0	270532608	55	5368
2026-01-03 01:44:06.62	335.79	16.86	-42.4	-45.4	17.2	0.00e+00	0	43	0	272629760	55	5367
2026-01-03 01:44:08.18	335.47	16.93	-42.2	-45.0	17.6	0.00e+00	0	43	0	274726912	55	5104
2026-01-03 01:44:08.89	335.32	16.97	-41.9	-44.6	17.9	0.00e+00	0	43	0	276824064	55	4897
2026-01-03 01:44:10.24	335.04	17.03	-41.7	-44.3	18.2	0.00e+00	0	43	0	278921216	55	4732
2026-01-03 01:44:10.95	334.89	17.06	-41.8	-44.4	18.1	0.00e+00	0	43	0	279969792	55	4803
2026-01-03 01:44:12.25	334.62	17.12	-41.9	-44.6	17.8	0.00e+00	0	43	0	283115520	55	4909
2026-01-03 01:44:12.96	334.47	17.15	-41.9	-44.7	17.8	0.00e+00	0	43	0	284164096	55	4948
2026-01-03 01:44:14.25	334.20	17.21	-41.8	-44.5	18.0	0.00e+00	0	43	0	286261248	55	4847
2026-01-03 01:44:14.96	334.05	17.24	-41.7	-44.5	18.1	0.00e+00	0	43	0	288358400	55	4819
2026-01-03 01:44:16.25	333.77	17.29	-41.6	-44.3	18.3	0.00e+00	0	43	0	290455552	54	4993
2026-01-03 01:44:16.97	333.62	17.33	-41.4	-44.0	18.4	0.00e+00	0	44	0	291504128	54	4860
2026-01-03 01:44:18.26	333.34	17.38	-41.1	-43.6	18.9	0.00e+00	0	43	0	293601280	54	4635
2026-01-03 01:44:18.98	333.19	17.41	-40.8	-43.2	19.2	0.00e+00	0	43	0	295698432	53	4685
2026-01-03 01:44:20.26	332.92	17.46	-40.6	-43.0	19.4	0.00e+00	0	44	0	297795584	53	4574
2026-01-03 01:44:20.98	332.76	17.49	-40.5	-43.0	19.4	0.00e+00	0	43	0	298844160	52	4835
2026-01-03 01:44:22.27	332.48	17.55	-40.5	-42.9	19.4	0.00e+00	0	43	0	301989888	52	4801
2026-01-03 01:44:23.21	332.28	17.59	-40.6	-43.2	19.3	0.00e+00	0	43	0	303038464	52	4941
2026-01-03 01:44:24.21	332.06	17.63	-40.8	-43.4	19.0	0.00e+00	0	43	0	305135616	52	5079
2026-01-03 01:44:25.21	331.85	17.67	-41.2	-43.8	18.7	0.00e+00	0	44	0	307232768	52	5324
2026-01-03 01:44:26.21	331.63	17.71	-41.4	-44.0	18.6	0.00e+00	0	44	0	309329920	53	5122
2026-01-03 01:44:27.21	331.41	17.75	-41.4	-44.0	18.5	0.00e+00	0	44	0	310378496	53	5137
2026-01-03 01:44:28.21	331.19	17.79	-41.5	-44.1	18.5	0.00e+00	0	44	0	312475648	53	5179
2026-01-03 01:44:29.24	330.96	17.83	-41.6	-44.2	18.3	0.00e+00	0	44	0	314572800	53	5227
2026-01-03 01:44:30.27	330.74	17.87	-41.5	-44.0	18.5	0.00e+00	0	43	0	316669952	53	5138
2026-01-03 01:44:31.27	330.51	17.90	-41.7	-44.3	18.2	0.00e+00	0	43	0	318767104	54	5016
2026-01-03 01:44:32.34	330.28	17.94	-42.1	-44.8	17.7	0.00e+00	0	43	0	320864256	54	5331
2026-01-03 01:44:33.23	330.08	17.98	-42.2	-44.9	17.7	0.00e+00	0	43	0	321912832	55	5083
2026-01-03 01:44:34.38	329.82	18.02	-42.3	-45.1	17.5	0.00e+00	0	43	0	324009984	55	5176
2026-01-03 01:44:35.24	329.63	18.05	-42.3	-45.2	17.4	0.00e+00	0	43	0	326107136	55	5238
2026-01-03 01:44:36.38	329.38	18.09	-42.1	-45.0	17.6	0.00e+00	0	44	0	328204288	55	5153
2026-01-03 01:44:37.24	329.18	18.12	-41.8	-44.7	17.9	0.00e+00	0	44	0	329252864	55	4933
2026-01-03 01:44:38.39	328.93	18.16	-41.4	-44.1	18.4	0.00e+00	0	43	0	331350016	54	4917
2026-01-03 01:44:39.25	328.73	18.19	-41.2	-43.9	18.7	0.00e+00	0	44	0	333447168	54	4783
2026-01-03 01:44:40.40	328.47	18.23	-41.0	-43.7	18.8	0.00e+00	0	43	0	335544320	54	4701
2026-01-03 01:44:41.26	328.28	18.26	-40.8	-43.5	19.0	0.00e+00	0	43	0	337641472	53	4820
2026-01-03 01:44:42.40	328.02	18.30	-40.8	-43.4	19.0	0.00e+00	0	44	0	339738624	53	4773
2026-01-03 01:44:43.26	327.82	18.33	-40.6	-43.1	19.3	0.00e+00	0	44	0	340787200	53	4644
2026-01-03 01:44:44.41	327.56	18.37	-40.7	-43.3	19.2	0.00e+00	0	43	0	342884352	53	4713
2026-01-03 01:44:45.27	327.36	18.40	-41.0	-43.6	18.9	0.00e+00	0	43	0	344981504	53	4893
2026-01-03 01:44:46.42	327.10	18.43	-40.9	-43.4	19.1	0.00e+00	0	44	0	347078656	53	4771
2026-01-03 01:44:47.27	326.91	18.46	-40.9	-43.4	19.1	0.00e+00	0	44	0	348127232	53	4789
2026-01-03 01:44:48.60	326.60	18.50	-41.0	-43.5	19.0	0.00e+00	0	43	0	351272960	53	4835
2026-01-03 01:44:49.31	326.44	18.52	-40.8	-43.2	19.3	0.00e+00	0	43	0	352321536	53	4672
2026-01-03 01:44:50.79	326.09	18.57	-40.7	-43.1	19.4	0.00e+00	0	43	0	355467264	53	4607
2026-01-03 01:44:51.51	325.93	18.59	-40.7	-43.1	19.4	0.00e+00	0	43	0	356515840	53	4616
2026-01-03 01:44:52.80	325.63	18.63	-41.0	-43.4	19.1	0.00e+00	0	43	0	358612992	53	4773
2026-01-03 01:44:53.51	325.46	18.65	-41.1	-43.5	19.1	0.00e+00	0	43	0	359661568	53	4819
2026-01-03 01:44:54.80	325.16	18.68	-41.3	-43.7	18.8	0.00e+00	0	44	0	362807296	53	4943
2026-01-03 01:44:55.52	324.99	18.70	-41.4	-43.9	18.7	0.00e+00	0	43	0	363855872	53	5049
2026-01-03 01:44:56.81	324.69	18.74	-41.7	-44.3	18.2	0.00e+00	0	43	0	365953024	54	5041
2026-01-03 01:44:57.52	324.53	18.76	-41.7	-44.4	18.2	0.00e+00	0	44	0	368050176	54	5076
2026-01-03 01:44:58.80	324.23	18.79	-41.5	-44.2	18.4	0.00e+00	0	43	0	370147328	54	4958
2026-01-03 01:44:59.52	324.06	18.81	-41.5	-44.2	18.4	0.00e+00	0	43	0	371195904	54	4942
2026-01-03 01:45:00.81	323.75	18.84	-41.5	-44.2	18.3	0.00e+00	0	44	0	373293056	54	4952
2026-01-03 01:45:01.66	323.55	18.86	-41.6	-44.2	18.3	0.00e+00	0	43	0	375390208	54	4968
2026-01-03 01:45:03.11	323.21	18.90	-41.8	-44.5	18.1	0.00e+00	0	44	0	378535936	54	5101
2026-01-03 01:45:03.83	323.04	18.92	-42.0	-44.6	18.0	0.00e+00	0	44	0	379584512	54	5202
2026-01-03 01:45:05.11	322.74	18.95	-42.5	-45.3	17.4	0.00e+00	0	43	0	381681664	55	5305
2026-01-03 01:45:05.83	322.57	18.96	-42.9	-45.8	17.0	0.00e+00	0	44	0	382730240	56	5296
2026-01-03 01:45:07.12	322.26	18.99	-42.9	-45.9	16.9	0.00e+00	0	44	0	385875968	56	5366
2026-01-03 01:45:07.96	322.06	19.01	-43.0	-46.0	16.7	0.00e+00	0	44	0	386924544	56	5451
2026-01-03 01:45:09.10	321.79	19.03	-42.9	-45.9	17.0	0.00e+00	0	43	0	389021696	56	5350
2026-01-03 01:45:10.21	321.52	19.06	-42.7	-45.6	17.3	0.00e+00	0	43	0	391118848	56	5160
2026-01-03 01:45:11.24	321.27	19.08	-42.3	-45.0	17.7	0.00e+00	0	43	0	393216000	56	4849
2026-01-03 01:45:12.24	321.04	19.10	-42.0	-44.6	18.1	0.00e+00	0	43	0	395313152	56	4640
2026-01-03 01:45:13.45	320.74	19.12	-41.5	-44.1	18.4	0.00e+00	0	43	0	397410304	55	4639
2026-01-03 01:45:14.34	320.53	19.14	-41.5	-44.1	18.5	0.00e+00	0	44	0	399507456	54	4893
2026-01-03 01:45:15.49	320.25	19.16	-41.8	-44.4	18.2	0.00e+00	0	43	0	401604608	54	5094
2026-01-03 01:45:16.35	320.05	19.17	-42.1	-44.8	17.8	0.00e+00	0	44	0	402653184	54	5329
2026-01-03 01:45:17.49	319.77	19.19	-42.3	-45.1	17.5	0.00e+00	0	43	0	404750336	55	5210
2026-01-03 01:45:18.35	319.56	19.21	-42.5	-45.5	17.2	0.00e+00	0	44	0	406847488	55	5409
2026-01-03 01:45:19.50	319.29	19.23	-42.6	-45.6	17.1	0.00e+00	0	43	0	408944640	55	5474
2026-01-03 01:45:20.36	319.08	19.24	-42.3	-45.2	17.5	0.00e+00	0	44	0	409993216	55	5234
2026-01-03 01:45:21.50	318.80	19.26	-42.0	-44.8	17.8	0.00e+00	0	43	0	413138944	55	5019
2026-01-03 01:45:22.36	318.59	19.27	-41.8	-44.6	18.0	0.00e+00	0	43	0	414187520	55	4898
2026-01-03 01:45:23.51	318.32	19.29	-41.8	-44.6	18.0	0.00e+00	0	44	0	416284672	55	4898
2026-01-03 01:45:24.37	318.11	19.30	-42.0	-44.9	17.7	0.00e+00	0	44	0	418381824	55	5044
2026-01-03 01:45:25.52	317.83	19.31	-42.3	-45.2	17.4	0.00e+00	0	44	0	420478976	55	5235
2026-01-03 01:45:26.37	317.62	19.32	-42.6	-45.6	17.1	0.00e+00	0	44	0	421527552	55	5474
2026-01-03 01:45:27.52	317.34	19.34	-43.2	-46.4	16.4	0.00e+00	0	44	0	423624704	57	5383
2026-01-03 01:45:28.38	317.13	19.35	-43.5	-46.8	16.0	0.00e+00	0	44	0	425721856	57	5649
2026-01-03 01:45:29.62	316.83	19.36	-43.6	-46.9	15.9	0.00e+00	0	43	0	427819008	57	5705
2026-01-03 01:45:30.48	316.62	19.37	-43.5	-46.7	16.1	0.00e+00	0	43	0	429916160	58	5238
2026-01-03 01:45:31.62	316.34	19.38	-43.4	-46.5	16.2	0.00e+00	0	43	0	432013312	58	5159
2026-01-03 01:45:32.48	316.13	19.39	-43.0	-46.1	16.7	0.00e+00	0	44	0	433061888	58	4880
2026-01-03 01:45:33.63	315.85	19.40	-42.7	-45.7	17.1	0.00e+00	0	43	0	435159040	57	4950
2026-01-03 01:45:34.49	315.64	19.40	-42.4	-45.3	17.4	0.00e+00	0	44	0	437256192	56	5039
2026-01-03 01:45:35.63	315.36	19.41	-42.4	-45.3	17.4	0.00e+00	0	43	0	439353344	56	5032
2026-01-03 01:45:36.49	315.15	19.42	-42.4	-45.3	17.4	0.00e+00	0	43	0	440401920	56	5038
2026-01-03 01:45:37.64	314.87	19.43	-42.4	-45.4	17.3	0.00e+00	0	43	0	442499072	56	5093
2026-01-03 01:45:38.65	314.62	19.43	-42.6	-45.8	17.0	0.00e+00	0	44	0	444596224	56	5295
2026-01-03 01:45:39.65	314.37	19.44	-42.5	-45.7	17.1	0.00e+00	0	43	0	446693376	56	5229
2026-01-03 01:45:40.65	314.13	19.44	-42.7	-45.9	16.9	0.00e+00	0	44	0	448790528	56	5341
2026-01-03 01:45:41.65	313.88	19.45	-42.9	-45.9	16.8	0.00e+00	0	44	0	450887680	56	5401
2026-01-03 01:45:42.95	313.56	19.45	-42.7	-45.7	17.0	0.00e+00	0	44	0	452984832	56	5252
2026-01-03 01:45:43.69	313.38	19.45	-42.7	-45.5	17.2	0.00e+00	0	44	0	454033408	56	5155
2026-01-03 01:45:44.98	313.06	19.46	-42.5	-45.3	17.4	0.00e+00	0	44	0	456130560	56	5035
2026-01-03 01:45:45.69	312.89	19.46	-42.5	-45.3	17.5	0.00e+00	0	43	0	458227712	56	5003
2026-01-03 01:45:46.98	312.57	19.46	-42.4	-45.2	17.6	0.00e+00	0	44	0	460324864	56	4937
2026-01-03 01:45:47.70	312.40	19.46	-42.4	-45.1	17.7	0.00e+00	0	43	0	461373440	56	4882
2026-01-03 01:45:48.98	312.08	19.46	-42.4	-45.2	17.5	0.00e+00	0	44	0	464519168	56	4934
2026-01-03 01:45:49.70	311.91	19.46	-42.4	-45.1	17.6	0.00e+00	0	44	0	465567744	56	4921
2026-01-03 01:45:50.99	311.59	19.46	-42.4	-45.1	17.6	0.00e+00	0	44	0	467664896	56	4924
2026-01-03 01:45:51.71	311.41	19.46	-42.3	-45.2	17.6	0.00e+00	0	44	0	469762048	56	4930
2026-01-03 01:45:53.00	311.09	19.45	-42.4	-45.3	17.5	0.00e+00	0	44	0	471859200	56	4995
2026-01-03 01:45:53.72	310.92	19.45	-42.5	-45.4	17.4	0.00e+00	0	44	0	472907776	56	5097
2026-01-03 01:45:55.15	310.57	19.45	-42.5	-45.5	17.3	0.00e+00	0	44	0	476053504	56	5137
2026-01-03 01:45:55.87	310.39	19.45	-42.6	-45.6	17.1	0.00e+00	0	44	0	477102080	56	5198
2026-01-03 01:45:57.23	310.06	19.44	-42.5	-45.4	17.3	0.00e+00	0	44	0	479199232	56	5065
2026-01-03 01:45:57.95	309.88	19.44	-42.6	-45.5	17.2	0.00e+00	0	43	0	481296384	56	5130
2026-01-03 01:45:59.29	309.55	19.43	-42.6	-45.4	17.3	0.00e+00	0	44	0	483393536	56	5092
2026-01-03 01:46:00.28	309.31	19.42	-42.7	-45.5	17.2	0.00e+00	0	44	0	485490688	56	5124
2026-01-03 01:46:01.28	309.06	19.42	-42.7	-45.5	17.2	0.00e+00	0	43	0	487587840	56	5140
2026-01-03 01:46:02.28	308.82	19.41	-42.7	-45.5	17.2	0.00e+00	0	44	0	488636416	56	5115
2026-01-03 01:46:03.29	308.57	19.40	-42.8	-45.7	17.1	0.00e+00	0	44	0	490733568	56	5259
2026-01-03 01:46:04.29	308.33	19.39	-43.0	-45.9	16.9	0.00e+00	0	43	0	492830720	56	5389
2026-01-03 01:46:05.29	308.08	19.38	-43.1	-46.0	16.7	0.00e+00	0	43	0	494927872	57	5154
2026-01-03 01:46:06.29	307.84	19.38	-43.3	-46.5	16.4	0.00e+00	0	44	0	497025024	57	5417
2026-01-03 01:46:07.29	307.59	19.37	-43.6	-46.8	16.0	0.00e+00	0	43	0	498073600	57	5645
2026-01-03 01:46:08.29	307.35	19.36	-43.3	-46.5	16.3	0.00e+00	0	44	0	500170752	57	5437
2026-01-03 01:46:09.30	307.10	19.34	-43.3	-46.5	16.3	0.00e+00	0	44	0	502267904	57	5427
2026-01-03 01:46:10.38	306.84	19.33	-43.0	-46.1	16.7	0.00e+00	0	44	0	504365056	57	5170
2026-01-03 01:46:11.24	306.63	19.32	-42.8	-45.8	17.0	0.00e+00	0	43	0	505413632	57	4993
2026-01-03 01:46:12.57	306.30	19.30	-42.4	-45.2	17.4	0.00e+00	0	43	0	508559360	56	4972
2026-01-03 01:46:13.29	306.13	19.30	-42.3	-45.1	17.7	0.00e+00	0	44	0	509607936	56	4883
2026-01-03 01:46:14.58	305.82	19.28	-42.1	-44.8	17.9	0.00e+00	0	44	0	511705088	56	4724
2026-01-03 01:46:15.29	305.64	19.27	-41.6	-44.1	18.4	0.00e+00	0	44	0	513802240	55	4629
2026-01-03 01:46:16.59	305.33	19.25	-41.5	-44.0	18.6	0.00e+00	0	44	0	515899392	54	4832
2026-01-03 01:46:17.30	305.16	19.24	-41.4	-43.9	18.6	0.00e+00	0	44	0	516947968	54	4811
2026-01-03 01:46:18.59	304.84	19.22	-41.6	-44.1	18.5	0.00e+00	0	44	0	520093696	54	4892
2026-01-03 01:46:19.47	304.63	19.20	-41.7	-44.2	18.3	0.00e+00	0	44	0	521142272	54	4967
2026-01-03 01:46:20.61	304.36	19.18	-41.6	-44.1	18.4	0.00e+00	0	43	0	523239424	54	4913
2026-01-03 01:46:21.71	304.09	19.16	-41.5	-43.8	18.8	0.00e+00	0	44	0	525336576	54	4753
2026-01-03 01:46:22.75	303.84	19.15	-41.2	-43.5	19.1	0.00e+00	0	43	0	527433728	54	4555
2026-01-03 01:46:23.75	303.60	19.13	-41.4	-43.6	19.0	0.00e+00	0	44	0	529530880	54	4646
2026-01-03 01:46:24.96	303.31	19.10	-41.4	-43.7	18.9	0.00e+00	0	44	0	531628032	54	4678
2026-01-03 01:46:25.86	303.09	19.09	-41.4	-43.8	18.8	0.00e+00	0	44	0	533725184	54	4712
2026-01-03 01:46:26.86	302.85	19.07	-41.5	-43.8	18.8	0.00e+00	0	43	0	534773760	54	4735
2026-01-03 01:46:27.87	302.61	19.05	-41.3	-43.6	19.0	0.00e+00	0	44	0	536870912	54	4615
2026-01-03 01:46:28.87	302.37	19.02	-41.2	-43.5	19.1	0.00e+00	0	44	0	538968064	54	4575
2026-01-03 01:46:29.87	302.13	19.00	-41.3	-43.6	18.9	0.00e+00	0	44	0	541065216	54	4649
2026-01-03 01:46:30.87	301.89	18.98	-41.3	-43.5	19.0	0.00e+00	0	44	0	543162368	54	4595
2026-01-03 01:46:31.87	301.66	18.96	-41.1	-43.4	19.2	0.00e+00	0	44	0	544210944	54	4522
2026-01-03 01:46:32.86	301.42	18.94	-41.2	-43.4	19.1	0.00e+00	0	44	0	546308096	54	4535
2026-01-03 01:46:33.86	301.18	18.91	-41.0	-43.3	19.3	0.00e+00	0	44	0	548405248	54	4442
2026-01-03 01:46:34.86	300.95	18.89	-41.0	-43.2	19.3	0.00e+00	0	43	0	550502400	53	4677
2026-01-03 01:46:35.87	300.71	18.86	-41.2	-43.5	19.1	0.00e+00	0	44	0	552599552	53	4816
2026-01-03 01:46:36.87	300.47	18.84	-41.4	-43.8	18.8	0.00e+00	0	44	0	553648128	53	4989
2026-01-03 01:46:37.87	300.24	18.81	-41.6	-43.9	18.7	0.00e+00	0	43	0	555745280	53	5089
2026-01-03 01:46:39.05	299.96	18.78	-41.8	-44.2	18.5	0.00e+00	0	43	0	557842432	54	4929
2026-01-03 01:46:39.91	299.76	18.76	-41.8	-44.2	18.5	0.00e+00	0	44	0	559939584	54	4931
2026-01-03 01:46:41.06	299.49	18.73	-41.7	-44.0	18.6	0.00e+00	0	44	0	562036736	54	4862
2026-01-03 01:46:41.92	299.28	18.70	-41.8	-44.2	18.4	0.00e+00	0	44	0	563085312	54	4961
2026-01-03 01:46:43.06	299.02	18.67	-42.0	-44.4	18.2	0.00e+00	0	44	0	565182464	54	5070
2026-01-03 01:46:43.92	298.82	18.65	-41.9	-44.3	18.3	0.00e+00	0	44	0	567279616	54	5030
2026-01-03 01:46:45.06	298.55	18.62	-41.9	-44.4	18.3	0.00e+00	0	44	0	569376768	54	5049
2026-01-03 01:46:45.92	298.35	18.59	-41.9	-44.4	18.3	0.00e+00	0	44	0	571473920	54	5047
2026-01-03 01:46:47.07	298.09	18.56	-41.9	-44.3	18.3	0.00e+00	0	44	0	573571072	54	5034
2026-01-03 01:46:47.93	297.89	18.53	-41.9	-44.3	18.3	0.00e+00	0	44	0	574619648	54	4997
2026-01-03 01:46:49.16	297.60	18.49	-42.1	-44.6	18.0	0.00e+00	0	44	0	576716800	54	5198
2026-01-03 01:46:50.01	297.41	18.47	-42.2	-44.8	17.9	0.00e+00	0	44	0	578813952	55	4991
2026-01-03 01:46:51.16	297.14	18.43	-42.4	-45.1	17.6	0.00e+00	0	44	0	580911104	55	5178
2026-01-03 01:46:52.02	296.94	18.40	-42.5	-45.1	17.6	0.00e+00	0	44	0	581959680	55	5206
2026-01-03 01:46:53.17	296.68	18.37	-43.0	-45.7	17.2	0.00e+00	0	44	0	584056832	56	5242
2026-01-03 01:46:54.08	296.47	18.34	-43.0	-45.8	17.1	0.00e+00	0	43	0	586153984	56	5315
2026-01-03 01:46:55.26	296.20	18.30	-43.2	-46.1	16.8	0.00e+00	0	44	0	588251136	57	5173
2026-01-03 01:46:56.15	296.00	18.27	-43.3	-46.2	16.7	0.00e+00	0	44	0	590348288	57	5238
2026-01-03 01:46:57.49	295.70	18.22	-43.1	-45.8	17.0	0.00e+00	0	44	0	592445440	57	5024
2026-01-03 01:46:58.21	295.53	18.20	-43.0	-45.6	17.1	0.00e+00	0	44	0	593494016	57	4912
2026-01-03 01:46:59.50	295.24	18.15	-43.1	-45.8	17.0	0.00e+00	0	44	0	596639744	57	5027
2026-01-03 01:47:00.22	295.08	18.12	-43.1	-45.8	17.1	0.00e+00	0	44	0	597688320	57	4987
2026-01-03 01:47:01.51	294.79	18.08	-42.9	-45.5	17.3	0.00e+00	0	44	0	599785472	57	4860
2026-01-03 01:47:02.22	294.63	18.05	-43.1	-45.8	17.1	0.00e+00	0	44	0	601882624	57	5007
2026-01-03 01:47:03.85	294.27	17.99	-42.9	-45.6	17.2	0.00e+00	0	44	0	605028352	57	4898
2026-01-03 01:47:04.42	294.14	17.97	-43.1	-45.7	17.1	0.00e+00	0	44	0	606076928	57	4981
2026-01-03 01:47:06.02	293.78	17.91	-42.9	-45.5	17.3	0.00e+00	0	44	0	608174080	57	4855
2026-01-03 01:47:06.60	293.66	17.89	-43.1	-45.8	17.1	0.00e+00	0	43	0	609222656	57	4990
2026-01-03 01:47:08.25	293.29	17.83	-43.1	-45.7	17.1	0.00e+00	0	43	0	612368384	57	4969
2026-01-03 01:47:08.83	293.16	17.80	-43.1	-45.8	17.0	0.00e+00	0	44	0	613416960	57	4995
2026-01-03 01:47:10.40	292.82	17.74	-43.3	-46.1	16.7	0.00e+00	0	44	0	616562688	57	5212
2026-01-03 01:47:11.01	292.68	17.72	-43.3	-46.0	16.8	0.00e+00	0	44	0	617611264	57	5134
2026-01-03 01:47:12.58	292.34	17.66	-43.2	-45.9	17.0	0.00e+00	0	44	0	620756992	57	5064
2026-01-03 01:47:13.18	292.21	17.63	-43.2	-45.9	17.0	0.00e+00	0	44	0	621805568	57	5065
2026-01-03 01:47:15.06	291.80	17.55	-42.8	-45.4	17.4	0.00e+00	0	44	0	625999872	57	4810
2026-01-03 01:47:15.64	291.67	17.53	-42.9	-45.6	17.3	0.00e+00	0	44	0	627048448	57	4899
2026-01-03 01:47:17.26	291.32	17.46	-42.9	-45.6	17.3	0.00e+00	0	44	0	629145600	57	4878
2026-01-03 01:47:17.83	291.20	17.44	-42.7	-45.3	17.5	0.00e+00	0	44	0	631242752	57	4749
2026-01-03 01:47:19.47	290.85	17.37	-43.0	-45.6	17.2	0.00e+00	0	44	0	633339904	57	4924
2026-01-03 01:47:20.04	290.73	17.34	-43.0	-45.7	17.2	0.00e+00	0	44	0	634388480	57	4932
2026-01-03 01:47:21.62	290.39	17.28	-42.9	-45.5	17.4	0.00e+00	0	43	0	637534208	57	4832
2026-01-03 01:47:22.22	290.26	17.25	-42.7	-45.3	17.5	0.00e+00	0	44	0	638582784	57	4727
2026-01-03 01:47:23.94	289.90	17.17	-42.9	-45.5	17.3	0.00e+00	0	44	0	641728512	57	4868
2026-01-03 01:47:24.51	289.78	17.15	-42.8	-45.4	17.4	0.00e+00	0	44	0	642777088	57	4805
2026-01-03 01:47:26.10	289.44	17.08	-42.6	-45.2	17.6	0.00e+00	0	44	0	645922816	57	4667
2026-01-03 01:47:26.67	289.32	17.05	-42.5	-45.0	17.8	0.00e+00	0	44	0	646971392	57	4578
2026-01-03 01:47:28.27	288.99	16.98	-42.2	-44.7	18.1	0.00e+00	0	43	0	650117120	56	4680
2026-01-03 01:47:28.84	288.87	16.95	-42.2	-44.6	18.1	0.00e+00	0	44	0	651165696	56	4649
2026-01-03 01:47:30.44	288.54	16.88	-41.7	-44.1	18.5	0.00e+00	0	44	0	654311424	55	4611
2026-01-03 01:47:31.02	288.42	16.85	-41.8	-44.2	18.4	0.00e+00	0	44	0	655360000	55	4677
2026-01-03 01:47:32.61	288.09	16.78	-41.8	-44.2	18.4	0.00e+00	0	44	0	658505728	55	4680
2026-01-03 01:47:33.18	287.97	16.75	-41.8	-44.1	18.4	0.00e+00	0	44	0	659554304	55	4637
2026-01-03 01:47:34.92	287.61	16.67	-41.7	-44.1	18.5	0.00e+00	0	44	0	662700032	55	4601
2026-01-03 01:47:35.49	287.50	16.64	-41.8	-44.2	18.5	0.00e+00	0	43	0	663748608	55	4664
2026-01-03 01:47:37.10	287.17	16.57	-42.3	-44.8	17.8	0.00e+00	0	44	0	666894336	55	5028
2026-01-03 01:47:38.07	286.97	16.52	-43.0	-45.6	17.2	0.00e+00	0	44	0	668991488	56	5218
2026-01-03 01:47:39.07	286.77	16.47	-43.4	-46.2	16.7	0.00e+00	0	44	0	671088640	57	5250
2026-01-03 01:47:40.07	286.57	16.42	-43.7	-46.6	16.3	0.00e+00	0	44	0	672137216	57	5492
2026-01-03 01:47:41.07	286.37	16.37	-43.5	-46.3	16.6	0.00e+00	0	44	0	674234368	58	5017
2026-01-03 01:47:42.08	286.17	16.32	-43.7	-46.6	16.3	0.00e+00	0	44	0	676331520	58	5175
2026-01-03 01:47:43.08	285.97	16.27	-43.5	-46.3	16.5	0.00e+00	0	44	0	678428672	58	5026
2026-01-03 01:47:44.17	285.75	16.22	-43.3	-46.1	16.7	0.00e+00	0	44	0	680525824	58	4898
2026-01-03 01:47:45.06	285.58	16.18	-43.3	-46.0	16.9	0.00e+00	0	44	0	681574400	58	4849
2026-01-03 01:47:46.20	285.35	16.12	-43.4	-46.2	16.8	0.00e+00	0	44	0	683671552	58	4948
2026-01-03 01:47:47.06	285.18	16.08	-43.5	-46.3	16.6	0.00e+00	0	44	0	685768704	58	5015
2026-01-03 01:47:48.21	284.96	16.02	-43.5	-46.4	16.5	0.00e+00	0	44	0	687865856	58	5052
2026-01-03 01:47:49.07	284.79	15.97	-43.8	-46.7	16.1	0.00e+00	0	44	0	688914432	58	5279
2026-01-03 01:47:50.21	284.57	15.91	-43.7	-46.7	16.1	0.00e+00	0	44	0	691011584	58	5272
2026-01-03 01:47:51.26	284.36	15.86	-43.8	-46.8	16.1	0.00e+00	0	44	0	693108736	58	5314
2026-01-03 01:47:52.14	284.19	15.82	-43.7	-46.7	16.2	0.00e+00	0	44	0	695205888	58	5236
2026-01-03 01:47:53.29	283.97	15.76	-43.6	-46.5	16.4	0.00e+00	0	44	0	697303040	58	5122
2026-01-03 01:47:54.14	283.81	15.71	-43.4	-46.2	16.6	0.00e+00	0	44	0	698351616	58	4978
2026-01-03 01:47:55.29	283.59	15.65	-43.2	-46.0	16.9	0.00e+00	0	44	0	701497344	58	4826
2026-01-03 01:47:56.15	283.42	15.61	-43.1	-45.7	17.1	0.00e+00	0	44	0	702545920	58	4692
2026-01-03 01:47:57.30	283.20	15.55	-42.8	-45.4	17.4	0.00e+00	0	44	0	704643072	57	4787
2026-01-03 01:47:58.16	283.04	15.50	-42.8	-45.4	17.4	0.00e+00	0	44	0	706740224	57	4762
2026-01-03 01:47:59.32	282.82	15.44	-42.8	-45.4	17.4	0.00e+00	0	44	0	708837376	57	4773
2026-01-03 01:48:00.18	282.66	15.39	-42.9	-45.5	17.3	0.00e+00	0	44	0	709885952	57	4866
2026-01-03 01:48:01.32	282.45	15.33	-42.8	-45.4	17.3	0.00e+00	0	44	0	711983104	57	4811
2026-01-03 01:48:02.18	282.29	15.29	-42.8	-45.5	17.4	0.00e+00	0	44	0	714080256	57	4819
2026-01-03 01:48:03.49	282.04	15.21	-42.9	-45.5	17.3	0.00e+00	0	44	0	716177408	57	4838
2026-01-03 01:48:04.20	281.91	15.18	-42.8	-45.5	17.3	0.00e+00	0	43	0	717225984	57	4826
2026-01-03 01:48:05.49	281.68	15.11	-42.9	-45.6	17.2	0.00e+00	0	44	0	720371712	57	4904
2026-01-03 01:48:06.21	281.54	15.07	-43.2	-46.0	16.8	0.00e+00	0	43	0	721420288	57	5102
2026-01-03 01:48:07.50	281.31	15.00	-43.5	-46.4	16.4	0.00e+00	0	44	0	723517440	57	5358
2026-01-03 01:48:08.22	281.18	14.96	-43.4	-46.2	16.6	0.00e+00	0	44	0	725614592	57	5274
2026-01-03 01:48:09.82	280.88	14.87	-43.4	-46.2	16.6	0.00e+00	0	44	0	728760320	57	5234
2026-01-03 01:48:10.40	280.78	14.84	-43.1	-45.8	17.0	0.00e+00	0	44	0	729808896	57	5009
2026-01-03 01:48:11.99	280.49	14.75	-42.9	-45.6	17.2	0.00e+00	0	44	0	731906048	57	4875
2026-01-03 01:48:12.57	280.39	14.72	-42.8	-45.4	17.4	0.00e+00	0	44	0	732954624	57	4809
2026-01-03 01:48:14.15	280.11	14.63	-42.5	-45.1	17.7	0.00e+00	0	44	0	736100352	56	4877
2026-01-03 01:48:14.85	279.98	14.59	-42.5	-45.1	17.7	0.00e+00	0	44	0	737148928	56	4894
2026-01-03 01:48:16.14	279.75	14.52	-42.7	-45.3	17.4	0.00e+00	0	44	0	740294656	56	5038
2026-01-03 01:48:17.06	279.59	14.47	-42.9	-45.6	17.2	0.00e+00	0	44	0	741343232	56	5160
2026-01-03 01:48:18.37	279.36	14.39	-43.4	-46.3	16.6	0.00e+00	0	44	0	744488960	57	5295
2026-01-03 01:48:19.15	279.22	14.35	-43.5	-46.4	16.5	0.00e+00	0	43	0	745537536	57	5344
2026-01-03 01:48:20.76	278.94	14.26	-44.0	-47.0	15.8	0.00e+00	0	44	0	748683264	58	5460
2026-01-03 01:48:21.33	278.84	14.23	-44.2	-47.3	15.6	0.00e+00	0	44	0	749731840	58	5622
2026-01-03 01:48:22.94	278.57	14.13	-44.7	-48.2	14.7	0.00e+00	0	44	0	752877568	60	5576
2026-01-03 01:48:23.52	278.47	14.10	-44.6	-48.1	14.7	7.00e-07	0	44	0	753926144	60	5465
2026-01-03 01:48:25.10	278.20	14.01	-44.7	-48.3	14.6	7.00e-07	0	44	0	757071872	60	5602
2026-01-03 01:48:25.88	278.06	13.97	-44.7	-48.2	14.7	1.50e-06	0	44	0	758120448	60	5560
2026-01-03 01:48:27.16	277.85	13.89	-44.7	-48.3	14.6	0.00e+00	0	44	0	760217600	60	5594
2026-01-03 01:48:28.08	277.69	13.84	-44.4	-47.9	15.0	7.00e-07	0	43	0	762314752	60	5353
2026-01-03 01:48:29.09	277.52	13.78	-44.4	-47.9	15.0	0.00e+00	0	44	0	764411904	60	5361
2026-01-03 01:48:30.09	277.35	13.72	-44.2	-47.6	15.3	0.00e+00	0	44	0	766509056	60	5203
2026-01-03 01:48:31.09	277.18	13.67	-44.3	-47.6	15.3	0.00e+00	0	44	0	768606208	60	5211
2026-01-03 01:48:32.10	277.02	13.61	-44.2	-47.5	15.4	0.00e+00	0	44	0	769654784	60	5153
2026-01-03 01:48:33.10	276.85	13.55	-44.3	-47.5	15.4	0.00e+00	0	43	0	771751936	60	5153
2026-01-03 01:48:34.10	276.69	13.49	-44.0	-47.2	15.6	0.00e+00	0	44	0	773849088	60	4957
2026-01-03 01:48:35.10	276.52	13.43	-43.9	-47.0	15.8	0.00e+00	0	44	0	775946240	59	5122
2026-01-03 01:48:36.14	276.35	13.37	-43.7	-46.6	16.2	0.00e+00	0	44	0	778043392	59	4920
2026-01-03 01:48:37.18	276.18	13.31	-43.6	-46.5	16.3	0.00e+00	0	44	0	779091968	58	5149
2026-01-03 01:48:38.18	276.02	13.25	-43.6	-46.5	16.3	0.00e+00	0	44	0	781189120	58	5147
2026-01-03 01:48:39.24	275.85	13.19	-43.6	-46.6	16.2	0.00e+00	0	44	0	783286272	58	5207
2026-01-03 01:48:40.13	275.70	13.14	-43.8	-46.8	16.0	0.00e+00	0	44	0	785383424	58	5332
2026-01-03 01:48:41.20	275.53	13.08	-43.9	-47.0	15.8	0.00e+00	0	44	0	787480576	58	5450
2026-01-03 01:48:42.20	275.37	13.02	-44.2	-47.4	15.4	0.00e+00	0	44	0	788529152	59	5382
2026-01-03 01:48:43.38	275.18	12.95	-44.1	-47.3	15.5	0.00e+00	0	44	0	791674880	59	5318
2026-01-03 01:48:44.24	275.05	12.90	-44.0	-47.1	15.6	0.00e+00	0	44	0	792723456	59	5192
2026-01-03 01:48:45.59	274.83	12.82	-43.8	-46.8	15.9	0.00e+00	0	44	0	794820608	59	5021
2026-01-03 01:48:46.31	274.72	12.77	-43.6	-46.6	16.2	0.00e+00	0	44	0	796917760	59	4887
2026-01-03 01:48:47.60	274.52	12.70	-43.3	-46.1	16.7	0.00e+00	0	44	0	799014912	58	4899
2026-01-03 01:48:48.31	274.41	12.66	-43.2	-46.0	16.8	0.00e+00	0	43	0	800063488	58	4842
2026-01-03 01:48:49.60	274.21	12.58	-43.0	-45.8	17.0	0.00e+00	0	44	0	803209216	58	4716
2026-01-03 01:48:50.33	274.09	12.54	-42.9	-45.6	17.1	0.00e+00	0	44	0	804257792	57	4894
2026-01-03 01:48:51.62	273.90	12.46	-43.0	-45.7	17.0	0.00e+00	0	44	0	806354944	57	4966
2026-01-03 01:48:52.34	273.79	12.42	-43.1	-45.9	16.9	0.00e+00	0	44	0	808452096	57	5050
2026-01-03 01:48:53.63	273.59	12.34	-43.1	-45.9	16.8	0.00e+00	0	44	0	810549248	57	5081
2026-01-03 01:48:54.47	273.46	12.29	-43.3	-46.1	16.6	0.00e+00	0	43	0	811597824	57	5195
2026-01-03 01:48:55.62	273.29	12.22	-43.4	-46.2	16.6	0.00e+00	0	44	0	813694976	57	5261
2026-01-03 01:48:56.47	273.16	12.17	-43.4	-46.3	16.4	0.00e+00	0	44	0	815792128	57	5314
2026-01-03 01:48:57.62	272.99	12.10	-43.6	-46.6	16.1	0.00e+00	0	44	0	817889280	57	5522
2026-01-03 01:48:58.48	272.86	12.05	-43.7	-46.7	16.0	0.00e+00	0	44	0	819986432	58	5266
2026-01-03 01:48:59.62	272.69	11.98	-43.8	-46.8	16.0	0.00e+00	0	44	0	822083584	58	5329
2026-01-03 01:49:00.48	272.56	11.93	-43.7	-46.8	16.0	0.00e+00	0	44	0	823132160	58	5292
2026-01-03 01:49:01.63	272.39	11.86	-43.7	-46.7	16.0	0.00e+00	0	44	0	825229312	58	5247
2026-01-03 01:49:02.87	272.21	11.79	-43.6	-46.6	16.2	0.00e+00	0	44	0	827326464	58	5190
2026-01-03 01:49:03.73	272.08	11.73	-43.6	-46.6	16.2	0.00e+00	0	44	0	829423616	58	5189
2026-01-03 01:49:04.87	271.91	11.67	-43.7	-46.8	16.0	0.00e+00	0	44	0	831520768	58	5284
2026-01-03 01:49:05.73	271.79	11.61	-43.5	-46.6	16.2	0.00e+00	0	43	0	832569344	58	5161
2026-01-03 01:49:06.87	271.62	11.55	-43.2	-46.1	16.6	0.00e+00	0	44	0	835715072	58	4902
2026-01-03 01:49:07.73	271.50	11.49	-43.2	-46.0	16.6	0.00e+00	0	44	0	836763648	58	4863
2026-01-03 01:49:08.88	271.34	11.42	-43.2	-46.1	16.7	0.00e+00	0	44	0	838860800	58	4889
2026-01-03 01:49:09.74	271.21	11.37	-43.1	-45.9	16.8	0.00e+00	0	44	0	840957952	58	4784
2026-01-03 01:49:10.88	271.05	11.30	-42.8	-45.5	17.1	0.00e+00	0	44	0	843055104	57	4859
2026-01-03 01:49:11.74	270.93	11.25	-42.6	-45.3	17.4	0.00e+00	0	44	0	844103680	57	4731
2026-01-03 01:49:13.10	270.74	11.17	-42.4	-45.0	17.6	0.00e+00	0	44	0	847249408	56	4856
2026-01-03 01:49:13.82	270.64	11.13	-42.4	-45.0	17.6	0.00e+00	0	44	0	848297984	56	4840
2026-01-03 01:49:15.10	270.46	11.05	-42.2	-44.7	17.9	0.00e+00	0	43	0	850395136	56	4659
2026-01-03 01:49:15.82	270.36	11.01	-42.1	-44.6	18.0	0.00e+00	0	44	0	852492288	56	4646
2026-01-03 01:49:17.11	270.18	10.93	-42.0	-44.4	18.1	0.00e+00	0	44	0	854589440	56	4528
2026-01-03 01:49:17.84	270.08	10.88	-42.1	-44.5	18.1	0.00e+00	0	44	0	855638016	56	4577
2026-01-03 01:49:19.13	269.90	10.81	-42.1	-44.6	18.0	0.00e+00	0	44	0	857735168	56	4603
2026-01-03 01:49:19.84	269.80	10.76	-42.2	-44.8	17.9	0.00e+00	0	44	0	859832320	56	4707
2026-01-03 01:49:21.13	269.63	10.68	-42.3	-44.9	17.7	0.00e+00	0	44	0	861929472	56	4785
2026-01-03 01:49:21.85	269.53	10.64	-42.4	-45.0	17.7	0.00e+00	0	44	0	862978048	56	4822
2026-01-03 01:49:23.14	269.36	10.56	-42.5	-45.2	17.5	0.00e+00	0	44	0	866123776	56	4928
2026-01-03 01:49:23.87	269.26	10.52	-42.6	-45.2	17.5	0.00e+00	0	44	0	867172352	56	4951
2026-01-03 01:49:25.17	269.08	10.44	-42.5	-45.1	17.5	0.00e+00	0	44	0	869269504	56	4911
2026-01-03 01:49:25.89	268.99	10.40	-42.6	-45.2	17.4	0.00e+00	0	44	0	871366656	56	4958
2026-01-03 01:49:27.18	268.82	10.32	-42.4	-45.0	17.6	0.00e+00	0	44	0	873463808	56	4820
2026-01-03 01:49:27.90	268.72	10.28	-42.3	-44.9	17.7	0.00e+00	0	44	0	874512384	56	4760
2026-01-03 01:49:29.30	268.54	10.19	-42.3	-44.9	17.7	0.00e+00	0	44	0	877658112	56	4790
2026-01-03 01:49:30.01	268.44	10.15	-42.3	-44.9	17.7	0.00e+00	0	44	0	878706688	56	4777
2026-01-03 01:49:31.30	268.27	10.07	-42.2	-44.8	17.8	0.00e+00	0	44	0	880803840	56	4726
2026-01-03 01:49:32.02	268.18	10.03	-42.2	-44.7	17.8	0.00e+00	0	44	0	882900992	56	4683
2026-01-03 01:49:33.31	268.01	9.95	-42.2	-44.8	17.7	0.00e+00	0	44	0	884998144	56	4745
2026-01-03 01:49:34.02	267.92	9.91	-42.2	-44.8	17.8	0.00e+00	0	44	0	886046720	56	4725
2026-01-03 01:49:35.31	267.76	9.83	-42.3	-44.9	17.7	0.00e+00	0	44	0	888143872	56	4779
2026-01-03 01:49:36.03	267.66	9.78	-42.4	-45.0	17.6	0.00e+00	0	44	0	890241024	56	4853
2026-01-03 01:49:37.32	267.50	9.71	-42.5	-45.1	17.5	0.00e+00	0	44	0	892338176	56	4912
2026-01-03 01:49:38.04	267.41	9.66	-42.6	-45.2	17.4	0.00e+00	0	44	0	893386752	56	4959
2026-01-03 01:49:39.33	267.25	9.59	-42.6	-45.2	17.3	0.00e+00	0	44	0	896532480	56	4983
2026-01-03 01:49:40.04	267.16	9.54	-42.6	-45.3	17.3	0.00e+00	0	44	0	897581056	56	5032
2026-01-03 01:49:41.33	266.99	9.46	-42.8	-45.5	17.1	0.00e+00	0	44	0	899678208	56	5157
2026-01-03 01:49:42.05	266.90	9.42	-42.8	-45.6	17.0	0.00e+00	0	44	0	900726784	56	5184
2026-01-03 01:49:43.34	266.74	9.34	-42.9	-45.7	16.9	0.00e+00	0	44	0	903872512	56	5228
2026-01-03 01:49:44.06	266.66	9.30	-42.8	-45.6	16.9	0.00e+00	0	44	0	904921088	56	5215
2026-01-03 01:49:45.34	266.50	9.22	-43.1	-46.0	16.6	0.00e+00	0	44	0	907018240	56	5412
2026-01-03 01:49:46.06	266.41	9.18	-43.1	-46.1	16.5	0.00e+00	0	44	0	909115392	56	5484
2026-01-03 01:49:47.35	266.25	9.10	-43.1	-46.0	16.5	0.00e+00	0	44	0	911212544	56	5454
2026-01-03 01:49:48.07	266.16	9.06	-43.3	-46.3	16.3	0.00e+00	0	44	0	912261120	57	5280
2026-01-03 01:49:49.35	266.01	8.98	-43.3	-46.3	16.3	0.00e+00	0	44	0	914358272	57	5302
2026-01-03 01:49:50.07	265.92	8.94	-48.4	-62.3	3.8	6.44e-01	0	44	104	915406848	67	18825
2026-01-03 01:49:51.36	265.77	8.86	-48.8	-64.2	3.8	1.49e+00	0	44	104	915406848	68	22163
2026-01-03 01:49:52.08	265.68	8.82	-49.0	-64.3	3.8	1.49e+00	0	44	104	915406848	68	22496
2026-01-03 01:49:53.37	265.53	8.74	-48.8	-64.4	3.8	1.49e+00	0	44	104	915406848	68	22632
2026-01-03 01:49:54.09	265.44	8.70	-49.1	-64.5	3.8	1.49e+00	0	44	104	915406848	68	22843
2026-01-03 01:49:55.38	265.29	8.62	-49.2	-64.5	3.8	1.49e+00	0	44	104	915406848	69	21687
2026-01-03 01:49:56.10	265.21	8.58	-49.2	-64.5	3.8	1.49e+00	0	44	104	915406848	69	21640
2026-01-03 01:49:57.39	265.05	8.50	-49.1	-64.5	3.8	1.49e+00	0	44	104	915406848	69	21685
2026-01-03 01:49:58.11	264.97	8.46	-49.1	-64.6	3.8	1.49e+00	0	44	104	915406848	69	21774
2026-01-03 01:49:59.40	264.82	8.38	-49.3	-64.6	3.8	1.49e+00	0	44	104	915406848	69	21822
2026-01-03 01:50:00.15	264.73	8.33	-49.3	-64.6	3.8	1.49e+00	0	44	104	915406848	69	21815
2026-01-03 01:50:01.76	264.55	8.24	-49.3	-64.6	3.8	1.49e+00	0	44	104	915406848	69	21768
2026-01-03 01:50:02.33	264.48	8.20	-49.3	-64.6	3.8	1.49e+00	0	44	104	915406848	69	21786
2026-01-03 01:50:04.13	264.28	8.09	-49.3	-64.5	3.8	1.49e+00	0	44	104	915406848	69	21717
2026-01-03 01:50:04.70	264.21	8.06	-49.3	-64.6	3.8	1.49e+00	0	44	104	915406848	69	21784
2026-01-03 01:50:06.31	264.03	7.96	-49.3	-64.6	3.8	1.49e+00	0	44	104	915406848	69	21798
2026-01-03 01:50:06.88	263.97	7.93	-49.3	-64.6	3.8	1.49e+00	0	44	104	915406848	69	21773
2026-01-03 01:50:08.46	263.79	7.84	-49.4	-64.6	3.8	1.49e+00	0	44	104	915406848	69	21798
2026-01-03 01:50:09.04	263.73	7.80	-49.4	-64.6	3.8	1.49e+00	0	44	104	915406848	69	21884
2026-01-03 01:50:10.63	263.55	7.71	-49.4	-64.6	3.8	1.49e+00	0	44	104	915406848	69	21807
2026-01-03 01:50:11.21	263.49	7.67	-49.4	-64.6	3.8	1.49e+00	0	44	104	915406848	69	21849
2026-01-03 01:50:12.78	263.31	7.58	-49.4	-64.6	3.8	1.49e+00	0	44	104	915406848	69	21768
2026-01-03 01:50:13.37	263.25	7.54	-49.4	-64.6	3.8	1.49e+00	0	44	104	915406848	69	21796
2026-01-03 01:50:14.95	263.08	7.45	-49.2	-64.5	3.8	1.49e+00	0	44	104	915406848	69	21691
2026-01-03 01:50:15.56	263.01	7.41	-49.2	-64.5	3.8	1.49e+00	0	44	104	915406848	69	21730
2026-01-03 01:50:17.14	262.84	7.32	-49.2	-64.5	3.8	1.49e+00	0	44	104	915406848	69	21634
2026-01-03 01:50:17.71	262.78	7.29	-49.2	-64.5	3.8	1.49e+00	0	44	104	915406848	69	21646
2026-01-03 01:50:19.30	262.61	7.19	-49.2	-64.5	3.8	1.49e+00	0	44	104	915406848	69	21636
2026-01-03 01:50:19.88	262.55	7.16	-49.2	-64.5	3.8	1.49e+00	0	44	104	915406848	69	21605
2026-01-03 01:50:21.47	262.38	7.06	-49.2	-64.5	3.8	1.49e+00	0	44	104	915406848	69	21631
2026-01-03 01:50:22.05	262.32	7.03	-49.2	-64.5	3.8	1.49e+00	0	44	104	915406848	69	21596
2026-01-03 01:50:23.63	262.15	6.94	-49.2	-64.5	3.8	1.49e+00	0	44	104	915406848	69	21651
2026-01-03 01:50:24.20	262.09	6.90	-49.1	-64.5	3.8	1.49e+00	0	44	104	915406848	69	21650
2026-01-03 01:50:25.81	261.93	6.81	-49.1	-64.5	3.8	1.49e+00	0	44	104	915406848	69	21636
2026-01-03 01:50:26.38	261.87	6.78	-49.1	-64.5	3.8	1.49e+00	0	44	104	915406848	69	21544
2026-01-03 01:50:27.98	261.70	6.68	-49.1	-64.5	3.8	1.49e+00	0	44	104	915406848	69	21621
2026-01-03 01:50:28.55	261.64	6.65	-49.1	-64.5	3.8	1.49e+00	0	44	104	915406848	69	21512
2026-01-03 01:50:30.13	261.48	6.56	-49.1	-64.5	3.8	1.49e+00	0	44	104	915406848	69	21594
2026-01-03 01:50:30.72	261.42	6.52	-49.1	-64.5	3.8	1.49e+00	0	44	104	915406848	69	21633
2026-01-03 01:50:32.30	261.26	6.43	-49.1	-64.5	3.8	1.49e+00	0	44	104	915406848	69	21632
2026-01-03 01:50:32.88	261.20	6.39	-49.1	-64.5	3.8	1.49e+00	0	44	104	915406848	69	21545
2026-01-03 01:50:34.46	261.04	6.30	-49.1	-64.5	3.8	1.49e+00	0	44	104	915406848	69	21536
2026-01-03 01:50:35.04	260.99	6.27	-49.1	-64.5	3.8	1.49e+00	0	44	104	915406848	69	21618
2026-01-03 01:50:36.61	260.83	6.18	-49.1	-64.5	3.8	1.49e+00	0	44	104	915406848	69	21582
2026-01-03 01:50:37.20	260.77	6.14	-49.1	-64.5	3.8	1.49e+00	0	44	104	915406848	69	21591
2026-01-03 01:50:38.78	260.62	6.05	-49.1	-64.5	3.8	1.49e+00	0	44	104	915406848	69	21599
2026-01-03 01:50:39.36	260.56	6.02	-49.1	-64.5	3.8	1.49e+00	0	44	104	915406848	69	21521
2026-01-03 01:50:40.95	260.40	5.92	-49.1	-64.5	3.8	1.49e+00	0	44	104	915406848	69	21529
2026-01-03 01:50:41.52	260.35	5.89	-49.1	-64.5	3.8	1.49e+00	0	44	104	915406848	69	21566
2026-01-03 01:50:43.10	260.19	5.80	-49.1	-64.5	3.8	1.49e+00	0	44	104	915406848	69	21549
2026-01-03 01:50:43.68	260.14	5.77	-49.1	-64.5	3.8	1.49e+00	0	44	104	915406848	69	21648
2026-01-03 01:50:45.25	259.99	5.67	-49.1	-64.5	3.8	1.49e+00	0	44	104	915406848	69	21629
2026-01-03 01:50:45.84	259.93	5.64	-49.1	-64.5	3.8	1.49e+00	0	44	104	915406848	69	21619
2026-01-03 01:50:47.42	259.78	5.55	-49.1	-64.4	3.8	1.49e+00	0	44	104	915406848	69	21504
2026-01-03 01:50:48.00	259.73	5.52	-49.1	-64.5	3.8	1.49e+00	0	44	104	915406848	69	21527
2026-01-03 01:50:49.57	259.58	5.43	-49.1	-64.5	3.8	1.49e+00	0	44	104	915406848	69	21593
2026-01-03 01:50:50.15	259.52	5.39	-49.1	-64.5	3.8	1.49e+00	0	44	104	915406848	69	21538
2026-01-03 01:50:51.74	259.37	5.30	-49.1	-64.5	3.8	1.49e+00	0	44	104	915406848	69	21535
2026-01-03 01:50:52.31	259.32	5.27	-49.1	-64.5	3.8	1.49e+00	0	44	104	915406848	69	21547
2026-01-03 01:50:53.89	259.17	5.18	-49.1	-64.5	3.8	1.49e+00	0	44	104	915406848	69	21574
2026-01-03 01:50:54.48	259.12	5.14	-49.1	-64.5	3.8	1.49e+00	0	44	104	915406848	69	21582
2026-01-03 01:50:56.06	258.97	5.05	-49.1	-64.5	3.8	1.49e+00	0	44	104	915406848	69	21617
2026-01-03 01:50:56.64	258.92	5.02	-49.1	-64.4	3.8	1.49e+00	0	44	104	915406848	69	21505
2026-01-03 01:50:58.21	258.78	4.93	-49.1	-64.5	3.8	1.49e+00	0	44	104	915406848	69	21522

#Closed at: 2026-01-03 01:50:58
#Recorded file [915 MB]: D:/Data/31040_260103_044039.dat