passes_logs/2026/01/03/T1/T1__20260103_101116_NOAA_20_JPSS-1_rec.log

#Pass ID: 20260103_101116_NOAA 20 (JPSS-1)
#Satellite: NOAA 20 (JPSS-1)
#Configuration: NOAA 20
#almurnet v.1.7.20251203
#Start time: 2026-01-03 10:11:17

#Version: 2.0.20230620
#Station: T1
#Location: 37.570604 lon 55.790049 lat
#TLE: 1 43013U 17073A   26002.92460628  .00000184  00000+0  10833-3 0  9996
#TLE: 2 43013  98.7623 303.9923 0001887  56.9179 303.2178 14.19532741421028

#Time	Az	El	Level	Level2	SNR	BER	BlckErr	Temp	State	Recorded	gain1	gain2
2026-01-03 10:11:17.46	168.51	5.10	-50.1	-67.7	3.8	1.49e+00	0	39	0	0	72	26439
2026-01-03 10:11:18.46	168.53	5.17	-49.7	-67.3	3.8	1.49e+00	0	39	104	0	70	28317
2026-01-03 10:11:19.46	168.55	5.24	-49.6	-67.4	3.8	1.49e+00	0	39	104	0	70	28414
2026-01-03 10:11:20.47	168.56	5.32	-49.8	-67.5	3.8	1.49e+00	0	39	104	0	70	28880
2026-01-03 10:11:21.47	168.58	5.39	-49.7	-67.4	3.8	1.49e+00	0	40	104	0	70	28674
2026-01-03 10:11:22.47	168.60	5.46	-49.7	-67.5	3.8	1.49e+00	0	39	104	0	70	28915
2026-01-03 10:11:23.48	168.61	5.54	-49.7	-67.5	3.8	1.49e+00	0	39	104	0	70	28969
2026-01-03 10:11:24.48	168.63	5.61	-49.7	-67.5	3.8	1.49e+00	0	40	104	0	70	28737
2026-01-03 10:11:25.48	168.65	5.68	-49.8	-67.5	3.8	1.49e+00	0	40	104	0	70	28764
2026-01-03 10:11:26.49	168.66	5.76	-50.0	-67.6	3.8	1.49e+00	0	40	104	0	70	29187
2026-01-03 10:11:27.49	168.68	5.83	-49.8	-67.3	3.8	1.49e+00	0	40	104	0	70	28334
2026-01-03 10:11:28.50	168.70	5.90	-49.7	-67.1	3.8	1.49e+00	0	40	104	0	70	27642
2026-01-03 10:11:29.50	168.71	5.98	-49.6	-66.9	3.8	1.49e+00	0	40	104	0	70	27057
2026-01-03 10:11:30.51	168.73	6.05	-49.5	-66.7	3.8	1.49e+00	0	40	104	0	70	26329
2026-01-03 10:11:31.51	168.75	6.13	-49.6	-66.6	3.8	1.49e+00	0	40	104	0	70	26092
2026-01-03 10:11:32.52	168.76	6.20	-49.6	-66.5	3.8	1.49e+00	0	40	104	0	70	25595
2026-01-03 10:11:33.52	168.78	6.28	-49.5	-66.4	3.8	1.49e+00	0	40	104	0	70	25295
2026-01-03 10:11:34.53	168.80	6.35	-49.7	-66.5	3.8	1.49e+00	0	40	104	0	70	25641
2026-01-03 10:11:35.53	168.82	6.43	-49.6	-66.4	3.8	1.49e+00	0	40	104	0	70	25530
2026-01-03 10:11:36.53	168.83	6.50	-49.6	-66.6	3.8	1.49e+00	0	40	104	0	70	25977
2026-01-03 10:11:37.54	168.85	6.58	-49.6	-66.8	3.8	1.49e+00	0	40	104	0	70	26512
2026-01-03 10:11:38.54	168.87	6.66	-49.7	-67.0	3.8	1.49e+00	0	40	104	0	70	27245
2026-01-03 10:11:39.55	168.89	6.73	-49.8	-67.2	3.8	1.49e+00	0	40	104	0	70	27932
2026-01-03 10:11:40.55	168.91	6.81	-50.1	-67.6	3.8	1.49e+00	0	40	104	0	70	29232
2026-01-03 10:11:41.56	168.92	6.89	-50.0	-67.7	3.8	1.49e+00	0	40	104	0	70	29533
2026-01-03 10:11:42.56	168.94	6.97	-49.8	-67.5	3.8	1.49e+00	0	40	104	0	70	28825
2026-01-03 10:11:43.57	168.96	7.04	-49.8	-67.4	3.8	1.49e+00	0	40	104	0	70	28499
2026-01-03 10:11:44.57	168.98	7.12	-49.7	-67.2	3.8	1.49e+00	0	40	104	0	70	27973
2026-01-03 10:11:45.57	169.00	7.20	-49.6	-66.8	3.8	1.49e+00	0	40	104	0	70	26725
2026-01-03 10:11:46.58	169.01	7.28	-49.6	-66.3	3.8	1.49e+00	0	40	104	0	70	25027
2026-01-03 10:11:47.58	169.03	7.35	-49.5	-65.6	3.8	1.49e+00	0	40	104	0	70	23087
2026-01-03 10:11:48.59	169.05	7.43	-49.5	-64.7	3.9	1.47e+00	0	40	104	0	70	20989
2026-01-03 10:11:49.59	169.07	7.51	-49.4	-63.4	4.4	1.38e+00	0	40	0	0	70	17919
2026-01-03 10:11:50.60	169.09	7.59	-49.5	-62.4	4.8	9.46e-01	0	40	0	2097152	70	15946
2026-01-03 10:11:51.60	169.11	7.67	-49.3	-61.1	5.6	5.23e-01	0	40	0	3145728	70	13836
2026-01-03 10:11:52.60	169.13	7.75	-49.2	-60.0	6.3	3.22e-01	0	40	0	5242880	70	12211
2026-01-03 10:11:53.60	169.14	7.83	-49.0	-59.2	7.1	1.85e-01	0	40	0	7340032	70	11037
2026-01-03 10:11:54.61	169.16	7.91	-49.0	-58.5	7.7	1.09e-01	0	40	0	9437184	69	10789
2026-01-03 10:11:55.61	169.18	7.99	-49.2	-58.2	8.3	5.87e-02	0	41	0	11534336	69	10470
2026-01-03 10:11:56.61	169.20	8.07	-49.0	-57.6	8.8	4.04e-02	0	41	0	12582912	69	9751
2026-01-03 10:11:57.61	169.22	8.15	-48.9	-57.5	8.8	2.99e-02	0	41	0	14680064	69	9680
2026-01-03 10:11:58.62	169.24	8.23	-48.9	-57.5	8.8	3.13e-02	0	41	0	16777216	69	9630
2026-01-03 10:11:59.62	169.26	8.31	-49.0	-57.8	8.6	3.45e-02	0	41	0	18874368	69	9961
2026-01-03 10:12:00.62	169.28	8.40	-49.0	-58.4	8.0	5.05e-02	0	41	0	20971520	69	10684
2026-01-03 10:12:01.62	169.30	8.48	-49.1	-58.9	7.3	1.06e-01	0	40	0	22020096	69	11407
2026-01-03 10:12:02.63	169.32	8.56	-49.2	-59.8	6.6	1.73e-01	0	41	0	24117248	69	12562
2026-01-03 10:12:03.63	169.34	8.64	-49.4	-61.3	5.5	3.53e-01	0	40	0	26214400	69	14965
2026-01-03 10:12:04.64	169.36	8.72	-49.6	-62.6	4.7	6.29e-01	0	41	0	28311552	69	17398
2026-01-03 10:12:05.64	169.38	8.81	-49.6	-64.3	4.1	1.34e+00	0	41	0	29360128	69	21091
2026-01-03 10:12:06.64	169.40	8.89	-49.7	-65.8	3.8	1.48e+00	0	41	104	29360128	70	23854
2026-01-03 10:12:07.64	169.42	8.97	-49.7	-66.8	3.8	1.49e+00	0	41	104	29360128	70	26511
2026-01-03 10:12:08.64	169.44	9.06	-49.7	-67.0	3.8	1.49e+00	0	41	104	29360128	70	27093
2026-01-03 10:12:09.65	169.46	9.14	-49.7	-61.4	5.3	1.49e+00	0	41	104	29360128	70	14297
2026-01-03 10:12:10.65	169.48	9.23	-49.7	-66.8	3.8	3.02e-01	0	41	104	30408704	70	26474
2026-01-03 10:12:11.65	169.50	9.31	-50.2	-67.3	3.8	1.49e+00	0	41	104	30408704	71	26543
2026-01-03 10:12:12.65	169.52	9.39	-49.5	-57.5	8.6	8.22e-01	0	41	0	30408704	70	9077
2026-01-03 10:12:13.65	169.54	9.48	-48.3	-54.0	12.5	1.72e-04	0	41	0	32505856	68	6877
2026-01-03 10:12:14.65	169.56	9.56	-47.8	-53.0	13.4	1.42e-04	0	41	0	34603008	67	6427
2026-01-03 10:12:15.65	169.59	9.65	-47.4	-51.8	14.5	7.00e-07	0	41	0	36700160	66	5992
2026-01-03 10:12:16.66	169.61	9.74	-47.3	-51.5	14.9	7.00e-07	0	41	0	37748736	66	5725
2026-01-03 10:12:17.66	169.63	9.82	-47.2	-51.3	15.0	0.00e+00	0	41	0	39845888	66	5626
2026-01-03 10:12:18.66	169.65	9.91	-47.1	-51.0	15.4	0.00e+00	0	41	0	41943040	66	5431
2026-01-03 10:12:19.66	169.67	10.00	-46.8	-50.4	16.0	0.00e+00	0	41	0	44040192	65	5341
2026-01-03 10:12:20.66	169.69	10.08	-46.8	-50.2	16.2	0.00e+00	0	41	0	46137344	65	5266
2026-01-03 10:12:21.66	169.71	10.17	-46.7	-50.0	16.4	0.00e+00	0	41	0	47185920	65	5145
2026-01-03 10:12:22.66	169.74	10.26	-46.6	-50.0	16.3	0.00e+00	0	41	0	49283072	65	5155
2026-01-03 10:12:23.66	169.76	10.35	-46.6	-50.0	16.3	0.00e+00	0	41	0	51380224	65	5151
2026-01-03 10:12:24.66	169.78	10.43	-47.1	-50.4	16.4	0.00e+00	0	41	0	53477376	65	5394
2026-01-03 10:12:25.66	169.80	10.52	-46.7	-50.1	16.5	0.00e+00	0	41	0	54525952	65	5179
2026-01-03 10:12:26.66	169.82	10.61	-46.7	-50.0	16.5	0.00e+00	0	41	0	56623104	65	5157
2026-01-03 10:12:27.66	169.85	10.70	-46.6	-49.9	16.6	0.00e+00	0	41	0	58720256	65	5068
2026-01-03 10:12:28.66	169.87	10.79	-46.7	-50.1	16.5	0.00e+00	0	41	0	60817408	65	5186
2026-01-03 10:12:29.67	169.89	10.88	-46.5	-49.8	16.7	0.00e+00	0	41	0	62914560	65	5005
2026-01-03 10:12:30.67	169.91	10.97	-46.5	-49.7	16.8	0.00e+00	0	41	0	63963136	64	5265
2026-01-03 10:12:31.67	169.94	11.06	-46.5	-49.7	16.8	0.00e+00	0	41	0	66060288	64	5256
2026-01-03 10:12:32.67	169.96	11.15	-46.4	-49.7	16.8	0.00e+00	0	41	0	68157440	64	5232
2026-01-03 10:12:33.67	169.98	11.24	-46.4	-49.6	16.8	0.00e+00	0	41	0	70254592	64	5174
2026-01-03 10:12:34.67	170.01	11.34	-46.4	-49.6	16.9	0.00e+00	0	41	0	72351744	64	5165
2026-01-03 10:12:35.68	170.03	11.43	-46.5	-49.5	16.9	0.00e+00	0	41	0	73400320	64	5138
2026-01-03 10:12:36.68	170.05	11.52	-46.4	-49.4	17.0	0.00e+00	0	41	0	75497472	64	5090
2026-01-03 10:12:37.68	170.08	11.61	-46.5	-49.5	17.0	0.00e+00	0	41	0	77594624	64	5116
2026-01-03 10:12:38.68	170.10	11.71	-46.4	-49.4	17.1	0.00e+00	0	41	0	79691776	64	5067
2026-01-03 10:12:39.68	170.13	11.80	-46.9	-49.8	17.1	0.00e+00	0	41	0	81788928	64	5301
2026-01-03 10:12:40.69	170.15	11.89	-46.7	-49.6	17.1	0.00e+00	0	41	0	82837504	64	5174
2026-01-03 10:12:41.69	170.17	11.99	-46.6	-49.4	17.2	0.00e+00	0	41	0	84934656	64	5090
2026-01-03 10:12:42.69	170.20	12.08	-46.5	-49.3	17.3	0.00e+00	0	41	0	87031808	64	5006
2026-01-03 10:12:43.69	170.22	12.18	-46.5	-49.3	17.3	0.00e+00	0	41	0	89128960	64	4988
2026-01-03 10:12:44.70	170.25	12.27	-46.5	-49.3	17.3	0.00e+00	0	41	0	91226112	64	4986
2026-01-03 10:12:45.69	170.27	12.37	-46.6	-49.3	17.3	0.00e+00	0	41	0	92274688	64	5031
2026-01-03 10:12:46.70	170.30	12.46	-46.4	-49.1	17.5	0.00e+00	0	41	0	94371840	64	4926
2026-01-03 10:12:47.70	170.32	12.56	-46.5	-49.2	17.5	0.00e+00	0	41	0	96468992	64	4934
2026-01-03 10:12:48.70	170.35	12.66	-46.5	-49.2	17.5	0.00e+00	0	41	0	98566144	64	4946
2026-01-03 10:12:49.70	170.37	12.75	-46.6	-49.2	17.4	0.00e+00	0	41	0	99614720	64	4983
2026-01-03 10:12:50.71	170.40	12.85	-46.5	-49.1	17.6	0.00e+00	0	41	0	101711872	64	4899
2026-01-03 10:12:51.71	170.42	12.95	-46.4	-49.1	17.6	0.00e+00	0	41	0	103809024	64	4872
2026-01-03 10:12:52.71	170.45	13.05	-46.5	-49.1	17.6	0.00e+00	0	41	0	105906176	64	4891
2026-01-03 10:12:53.71	170.48	13.15	-46.5	-49.1	17.6	0.00e+00	0	41	0	108003328	64	4883
2026-01-03 10:12:54.71	170.50	13.24	-46.4	-49.0	17.5	0.00e+00	0	41	0	109051904	64	4862
2026-01-03 10:12:55.71	170.53	13.34	-46.9	-49.5	17.5	0.00e+00	0	41	0	111149056	64	5131
2026-01-03 10:12:56.71	170.55	13.44	-46.7	-49.4	17.4	0.00e+00	0	41	0	113246208	64	5042
2026-01-03 10:12:57.71	170.58	13.54	-46.5	-49.2	17.4	0.00e+00	0	41	0	115343360	64	4966
2026-01-03 10:12:58.71	170.61	13.64	-46.4	-49.1	17.4	0.00e+00	0	41	0	117440512	64	4918
2026-01-03 10:12:59.71	170.63	13.74	-46.5	-49.2	17.3	0.00e+00	0	41	0	118489088	64	4954
2026-01-03 10:13:00.71	170.66	13.85	-46.4	-49.1	17.4	0.00e+00	0	41	0	120586240	64	4882
2026-01-03 10:13:01.71	170.69	13.95	-46.4	-49.2	17.3	0.00e+00	0	41	0	122683392	64	4957
2026-01-03 10:13:02.72	170.72	14.05	-46.3	-49.0	17.5	0.00e+00	0	41	0	124780544	64	4830
2026-01-03 10:13:03.71	170.74	14.15	-46.2	-48.9	17.5	0.00e+00	0	41	0	126877696	64	4799
2026-01-03 10:13:04.72	170.77	14.26	-46.1	-48.8	17.7	0.00e+00	0	41	0	127926272	64	4735
2026-01-03 10:13:05.72	170.80	14.36	-46.3	-49.0	17.5	0.00e+00	0	41	0	130023424	64	4827
2026-01-03 10:13:06.72	170.83	14.46	-46.1	-48.8	17.6	0.00e+00	0	41	0	132120576	64	4730
2026-01-03 10:13:07.72	170.86	14.57	-46.1	-48.8	17.7	0.00e+00	0	41	0	134217728	64	4707
2026-01-03 10:13:08.72	170.88	14.67	-46.2	-48.8	17.7	0.00e+00	0	41	0	136314880	64	4738
2026-01-03 10:13:09.72	170.91	14.78	-46.2	-48.8	17.7	0.00e+00	0	41	0	137363456	64	4714
2026-01-03 10:13:10.72	170.94	14.88	-46.0	-48.6	17.9	0.00e+00	0	41	0	139460608	64	4637
2026-01-03 10:13:11.73	170.97	14.99	-46.4	-49.0	17.9	9.90e-06	0	41	0	141557760	64	4837
2026-01-03 10:13:12.73	171.00	15.10	-46.4	-49.0	17.9	0.00e+00	0	41	0	143654912	64	4833
2026-01-03 10:13:13.73	171.03	15.20	-46.3	-48.9	18.0	0.00e+00	0	41	0	144703488	64	4774
2026-01-03 10:13:14.73	171.06	15.31	-46.2	-48.7	18.1	0.00e+00	0	41	0	146800640	64	4694
2026-01-03 10:13:15.73	171.09	15.42	-46.1	-48.7	18.0	0.00e+00	0	41	0	148897792	64	4674
2026-01-03 10:13:16.73	171.12	15.53	-46.2	-48.8	18.0	0.00e+00	0	41	0	150994944	64	4743
2026-01-03 10:13:17.73	171.15	15.64	-46.1	-48.6	18.1	0.00e+00	0	41	0	153092096	64	4632
2026-01-03 10:13:18.73	171.18	15.75	-46.2	-48.8	18.0	0.00e+00	0	41	0	154140672	64	4744
2026-01-03 10:13:19.73	171.21	15.86	-46.4	-49.0	18.1	0.00e+00	0	41	0	156237824	64	4820
2026-01-03 10:13:20.73	171.24	15.97	-46.4	-49.0	18.0	0.00e+00	0	41	0	158334976	64	4837
2026-01-03 10:13:21.73	171.27	16.08	-46.1	-48.6	18.1	0.00e+00	0	41	0	160432128	64	4650
2026-01-03 10:13:22.73	171.30	16.19	-46.0	-48.6	18.0	0.00e+00	0	41	0	162529280	64	4622
2026-01-03 10:13:23.74	171.33	16.30	-46.0	-48.5	18.1	0.00e+00	0	41	0	163577856	63	4849
2026-01-03 10:13:24.74	171.36	16.42	-46.1	-48.6	18.1	0.00e+00	0	41	0	165675008	63	4920
2026-01-03 10:13:25.74	171.40	16.53	-46.6	-49.1	18.1	0.00e+00	0	41	0	167772160	63	5216
2026-01-03 10:13:26.75	171.43	16.64	-46.2	-48.7	18.1	0.00e+00	0	41	0	169869312	64	4670
2026-01-03 10:13:27.75	171.46	16.76	-46.1	-48.6	18.0	3.96e-05	0	41	0	171966464	64	4649
2026-01-03 10:13:28.75	171.49	16.87	-46.1	-48.7	17.9	0.00e+00	0	41	0	173015040	64	4658
2026-01-03 10:13:29.75	171.53	16.99	-46.1	-48.6	17.9	0.00e+00	0	41	0	175112192	64	4650
2026-01-03 10:13:30.75	171.56	17.10	-46.1	-48.6	17.9	0.00e+00	0	41	0	177209344	64	4642
2026-01-03 10:13:31.75	171.59	17.22	-46.1	-48.6	18.0	0.00e+00	0	41	0	179306496	63	4886
2026-01-03 10:13:32.75	171.62	17.33	-46.1	-48.7	17.9	0.00e+00	0	41	0	180355072	63	4929
2026-01-03 10:13:33.75	171.66	17.45	-46.0	-48.5	18.0	0.00e+00	0	41	0	182452224	63	4860
2026-01-03 10:13:34.76	171.69	17.57	-46.1	-48.6	18.0	0.00e+00	0	41	0	184549376	63	4903
2026-01-03 10:13:35.76	171.73	17.69	-46.1	-48.7	17.9	0.00e+00	0	41	0	186646528	63	4936
2026-01-03 10:13:36.76	171.76	17.81	-46.1	-48.6	18.0	0.00e+00	0	41	0	188743680	63	4915
2026-01-03 10:13:37.76	171.80	17.93	-46.2	-48.7	17.9	0.00e+00	0	41	0	189792256	63	4963
2026-01-03 10:13:38.76	171.83	18.05	-46.2	-48.7	17.9	0.00e+00	0	41	0	191889408	63	4970
2026-01-03 10:13:39.76	171.86	18.17	-46.5	-49.1	17.9	0.00e+00	0	41	0	193986560	63	5167
2026-01-03 10:13:40.76	171.90	18.29	-46.5	-49.1	17.7	0.00e+00	0	41	0	196083712	63	5194
2026-01-03 10:13:41.77	171.94	18.41	-46.5	-49.1	17.8	0.00e+00	0	41	0	198180864	63	5183
2026-01-03 10:13:42.77	171.97	18.54	-46.5	-49.1	17.7	0.00e+00	0	41	0	199229440	63	5187
2026-01-03 10:13:43.77	172.01	18.66	-46.5	-49.1	17.7	0.00e+00	0	41	0	201326592	63	5164
2026-01-03 10:13:44.77	172.04	18.78	-46.4	-49.0	17.8	0.00e+00	0	41	0	203423744	63	5139
2026-01-03 10:13:45.77	172.08	18.91	-46.6	-49.2	17.6	0.00e+00	0	41	0	205520896	63	5239
2026-01-03 10:13:46.78	172.12	19.03	-46.6	-49.2	17.6	0.00e+00	0	41	0	207618048	63	5278
2026-01-03 10:13:47.78	172.16	19.16	-46.5	-49.1	17.6	0.00e+00	0	41	0	208666624	64	4923
2026-01-03 10:13:48.78	172.19	19.28	-46.6	-49.2	17.5	0.00e+00	0	41	0	210763776	64	4973
2026-01-03 10:13:49.79	172.23	19.41	-46.7	-49.3	17.5	0.00e+00	0	41	0	212860928	64	5023
2026-01-03 10:13:50.79	172.27	19.54	-46.6	-49.3	17.5	0.00e+00	0	41	0	214958080	64	5002
2026-01-03 10:13:51.79	172.31	19.67	-46.5	-49.2	17.5	0.00e+00	0	41	0	217055232	64	4934
2026-01-03 10:13:52.79	172.35	19.80	-47.0	-49.7	17.4	7.00e-07	0	41	0	218103808	64	5240
2026-01-03 10:13:53.78	172.38	19.92	-46.8	-49.5	17.3	0.00e+00	0	41	0	220200960	64	5120
2026-01-03 10:13:54.78	172.42	20.06	-46.7	-49.4	17.4	0.00e+00	0	41	0	222298112	64	5060
2026-01-03 10:13:55.78	172.46	20.19	-46.7	-49.3	17.4	0.00e+00	0	41	0	224395264	64	5031
2026-01-03 10:13:56.79	172.50	20.32	-46.7	-49.4	17.4	0.00e+00	0	41	0	225443840	64	5053
2026-01-03 10:13:57.79	172.54	20.45	-46.7	-49.4	17.3	0.00e+00	0	41	0	227540992	64	5080
2026-01-03 10:13:58.79	172.58	20.58	-46.6	-49.3	17.4	0.00e+00	0	41	0	229638144	64	5025
2026-01-03 10:13:59.79	172.62	20.72	-46.6	-49.3	17.4	0.00e+00	0	41	0	231735296	64	5011
2026-01-03 10:14:00.79	172.67	20.85	-46.8	-49.6	17.3	0.00e+00	0	41	0	233832448	64	5172
2026-01-03 10:14:01.79	172.71	20.99	-46.8	-49.6	17.3	0.00e+00	0	41	0	234881024	64	5179
2026-01-03 10:14:02.79	172.75	21.12	-46.8	-49.6	17.3	0.00e+00	0	41	0	236978176	64	5184
2026-01-03 10:14:03.80	172.79	21.26	-46.8	-49.7	17.2	0.00e+00	0	41	0	239075328	64	5222
2026-01-03 10:14:04.79	172.83	21.39	-46.8	-49.6	17.2	0.00e+00	0	41	0	241172480	64	5182
2026-01-03 10:14:05.80	172.88	21.53	-46.9	-49.7	17.1	0.00e+00	0	41	0	243269632	64	5264
2026-01-03 10:14:06.80	172.92	21.67	-47.1	-49.9	17.0	0.00e+00	0	41	0	244318208	65	5100
2026-01-03 10:14:07.80	172.96	21.81	-47.1	-49.9	17.0	0.00e+00	0	41	0	246415360	65	5078
2026-01-03 10:14:08.80	173.01	21.95	-47.1	-50.0	16.9	0.00e+00	0	41	0	248512512	65	5108
2026-01-03 10:14:09.80	173.05	22.09	-47.1	-49.9	16.8	0.00e+00	0	41	0	250609664	65	5077
2026-01-03 10:14:10.80	173.10	22.23	-47.1	-50.0	16.8	0.00e+00	0	41	0	251658240	65	5123
2026-01-03 10:14:11.80	173.14	22.38	-47.1	-50.0	16.8	0.00e+00	0	41	0	253755392	65	5109
2026-01-03 10:14:12.80	173.19	22.52	-47.0	-49.8	16.9	0.00e+00	0	41	0	255852544	65	5037
2026-01-03 10:14:13.81	173.23	22.67	-47.0	-49.7	17.0	0.00e+00	0	41	0	257949696	65	4977
2026-01-03 10:14:14.81	173.28	22.81	-47.1	-49.9	16.9	0.00e+00	0	41	0	260046848	65	5057
2026-01-03 10:14:15.81	173.33	22.96	-47.0	-49.7	16.9	0.00e+00	0	41	0	262144000	65	4981
2026-01-03 10:14:16.81	173.37	23.10	-47.0	-49.7	17.0	0.00e+00	0	41	0	263192576	65	4973
2026-01-03 10:14:17.82	173.42	23.25	-47.1	-49.9	16.9	0.00e+00	0	41	0	265289728	65	5051
2026-01-03 10:14:18.82	173.47	23.40	-47.0	-49.7	17.0	0.00e+00	0	41	0	267386880	65	4983
2026-01-03 10:14:19.82	173.52	23.55	-47.3	-50.1	16.9	0.00e+00	0	41	0	269484032	65	5166
2026-01-03 10:14:20.82	173.57	23.70	-47.1	-49.8	16.9	0.00e+00	0	41	0	270532608	65	5038
2026-01-03 10:14:21.82	173.62	23.85	-47.0	-49.7	17.0	0.00e+00	0	41	0	272629760	65	4965
2026-01-03 10:14:22.82	173.66	24.00	-46.9	-49.7	17.1	0.00e+00	0	41	0	274726912	65	4934
2026-01-03 10:14:23.83	173.72	24.15	-46.9	-49.6	17.1	0.00e+00	0	41	0	276824064	65	4917
2026-01-03 10:14:24.83	173.77	24.31	-46.8	-49.5	17.2	0.00e+00	0	41	0	278921216	65	4862
2026-01-03 10:14:25.83	173.82	24.46	-46.7	-49.4	17.3	0.00e+00	0	41	0	279969792	65	4784
2026-01-03 10:14:26.83	173.87	24.61	-46.9	-49.5	17.4	0.00e+00	0	41	0	282066944	65	4855
2026-01-03 10:14:27.83	173.92	24.77	-46.7	-49.3	17.5	0.00e+00	0	41	0	284164096	65	4752
2026-01-03 10:14:28.83	173.97	24.93	-46.6	-49.2	17.6	0.00e+00	0	41	0	286261248	65	4696
2026-01-03 10:14:29.83	174.03	25.08	-46.5	-49.2	17.6	0.00e+00	0	41	0	288358400	65	4653
2026-01-03 10:14:30.82	174.08	25.24	-46.5	-49.1	17.7	0.00e+00	0	41	0	289406976	65	4646
2026-01-03 10:14:31.83	174.13	25.40	-46.5	-49.1	17.6	0.00e+00	0	41	0	291504128	65	4649
2026-01-03 10:14:32.83	174.19	25.56	-46.5	-49.0	17.7	0.00e+00	0	41	0	293601280	64	4857
2026-01-03 10:14:33.83	174.24	25.72	-46.4	-49.0	17.8	0.00e+00	0	41	0	295698432	64	4822
2026-01-03 10:14:34.83	174.30	25.89	-46.5	-49.1	17.7	0.00e+00	0	41	0	296747008	64	4903
2026-01-03 10:14:35.83	174.35	26.05	-46.4	-49.0	17.8	0.00e+00	0	41	0	298844160	64	4823
2026-01-03 10:14:36.83	174.41	26.21	-46.7	-49.3	17.9	0.00e+00	0	41	0	300941312	64	4990
2026-01-03 10:14:37.84	174.47	26.38	-46.7	-49.2	17.8	0.00e+00	0	41	0	303038464	64	4979
2026-01-03 10:14:38.84	174.53	26.55	-46.5	-49.0	17.9	0.00e+00	0	41	0	305135616	64	4852
2026-01-03 10:14:39.84	174.58	26.71	-46.5	-49.0	18.0	0.00e+00	0	41	0	306184192	64	4836
2026-01-03 10:14:40.84	174.64	26.88	-46.5	-49.0	17.9	0.00e+00	0	41	0	308281344	64	4822
2026-01-03 10:14:41.85	174.70	27.05	-46.5	-49.0	17.8	0.00e+00	0	41	0	310378496	64	4832
2026-01-03 10:14:42.84	174.76	27.22	-46.9	-49.4	17.7	0.00e+00	0	41	0	312475648	64	5070
2026-01-03 10:14:43.85	174.82	27.40	-46.8	-49.4	17.6	0.00e+00	0	41	0	314572800	64	5044
2026-01-03 10:14:44.85	174.88	27.57	-46.9	-49.5	17.5	0.00e+00	0	41	0	315621376	64	5122
2026-01-03 10:14:45.85	174.95	27.74	-46.9	-49.5	17.4	0.00e+00	0	41	0	317718528	64	5117
2026-01-03 10:14:46.85	175.01	27.92	-47.0	-49.7	17.2	0.00e+00	0	41	0	319815680	64	5226
2026-01-03 10:14:47.86	175.07	28.09	-47.1	-49.8	17.0	0.00e+00	0	41	0	321912832	64	5327
2026-01-03 10:14:48.85	175.14	28.27	-47.0	-49.8	17.1	0.00e+00	0	41	0	324009984	64	5285
2026-01-03 10:14:49.86	175.20	28.45	-47.2	-50.0	16.7	0.00e+00	0	41	0	325058560	65	5151
2026-01-03 10:14:50.86	175.27	28.63	-47.3	-50.2	16.6	0.00e+00	0	41	0	327155712	65	5226
2026-01-03 10:14:51.86	175.33	28.81	-47.5	-50.4	16.4	0.00e+00	0	41	0	329252864	65	5392
2026-01-03 10:14:52.86	175.40	28.99	-47.5	-50.4	16.3	0.00e+00	0	41	0	331350016	65	5389
2026-01-03 10:14:53.87	175.47	29.17	-47.6	-50.6	16.3	0.00e+00	0	41	0	333447168	65	5469
2026-01-03 10:14:54.87	175.53	29.36	-47.8	-50.7	16.1	0.00e+00	0	41	0	334495744	66	5277
2026-01-03 10:14:55.87	175.60	29.54	-47.8	-50.8	16.0	0.00e+00	0	41	0	336592896	66	5312
2026-01-03 10:14:56.88	175.67	29.73	-47.8	-50.8	16.0	0.00e+00	0	41	0	338690048	66	5307
2026-01-03 10:14:57.87	175.74	29.91	-47.9	-51.0	15.8	0.00e+00	0	41	0	340787200	66	5404
2026-01-03 10:14:58.88	175.82	30.10	-48.3	-51.4	15.9	0.00e+00	0	41	0	341835776	67	5344
2026-01-03 10:14:59.88	175.89	30.29	-48.1	-51.2	15.9	0.00e+00	0	41	0	343932928	67	5240
2026-01-03 10:15:00.88	175.96	30.48	-48.1	-51.2	15.8	0.00e+00	0	41	0	346030080	67	5274
2026-01-03 10:15:01.88	176.03	30.67	-48.2	-51.4	15.6	0.00e+00	0	41	0	348127232	67	5371
2026-01-03 10:15:02.88	176.11	30.87	-48.2	-51.4	15.5	0.00e+00	0	41	0	350224384	67	5360
2026-01-03 10:15:03.88	176.18	31.06	-48.2	-51.4	15.4	0.00e+00	0	41	0	351272960	67	5382
2026-01-03 10:15:04.88	176.26	31.26	-48.3	-51.5	15.4	0.00e+00	0	41	0	353370112	67	5439
2026-01-03 10:15:05.88	176.34	31.45	-48.5	-51.8	15.3	0.00e+00	0	41	0	355467264	67	5614
2026-01-03 10:15:06.88	176.41	31.65	-48.4	-51.6	15.4	0.00e+00	0	41	0	357564416	67	5528
2026-01-03 10:15:07.89	176.49	31.85	-48.2	-51.3	15.6	0.00e+00	0	41	0	359661568	67	5334
2026-01-03 10:15:08.89	176.57	32.05	-48.0	-51.1	15.7	0.00e+00	0	41	0	360710144	67	5207
2026-01-03 10:15:09.89	176.65	32.26	-47.9	-51.0	15.8	0.00e+00	0	41	0	362807296	67	5129
2026-01-03 10:15:10.89	176.74	32.46	-47.8	-50.8	16.1	0.00e+00	0	41	0	364904448	67	5001
2026-01-03 10:15:11.90	176.82	32.67	-47.8	-50.7	16.1	0.00e+00	0	41	0	367001600	67	4968
2026-01-03 10:15:12.90	176.90	32.87	-47.6	-50.4	16.4	0.00e+00	0	41	0	369098752	67	4811
2026-01-03 10:15:13.90	176.99	33.08	-47.5	-50.3	16.5	0.00e+00	0	41	0	370147328	66	5016
2026-01-03 10:15:14.90	177.07	33.29	-47.6	-50.4	16.4	0.00e+00	0	41	0	372244480	66	5091
2026-01-03 10:15:15.90	177.16	33.50	-48.0	-50.8	16.4	0.00e+00	0	41	0	374341632	66	5331
2026-01-03 10:15:16.91	177.25	33.71	-47.7	-50.6	16.4	0.00e+00	0	41	0	376438784	66	5166
2026-01-03 10:15:17.91	177.34	33.92	-47.4	-50.1	16.8	0.00e+00	0	41	0	377487360	66	4925
2026-01-03 10:15:18.91	177.43	34.14	-47.2	-50.0	16.9	0.00e+00	0	41	0	379584512	66	4832
2026-01-03 10:15:19.91	177.52	34.35	-47.0	-49.6	17.3	0.00e+00	0	41	0	381681664	65	4917
2026-01-03 10:15:20.91	177.61	34.57	-46.8	-49.4	17.5	0.00e+00	0	41	0	383778816	65	4766
2026-01-03 10:15:21.91	177.71	34.79	-46.5	-49.0	17.8	0.00e+00	0	41	0	385875968	65	4586
2026-01-03 10:15:22.92	177.80	35.01	-46.3	-48.8	18.0	0.00e+00	0	41	0	386924544	64	4734
2026-01-03 10:15:23.92	177.90	35.23	-46.4	-48.9	18.0	0.00e+00	0	41	0	389021696	64	4782
2026-01-03 10:15:24.92	177.99	35.46	-46.3	-48.8	18.1	0.00e+00	0	41	0	391118848	64	4729
2026-01-03 10:15:25.92	178.09	35.68	-46.3	-48.7	18.1	0.00e+00	0	41	0	393216000	64	4698
2026-01-03 10:15:26.92	178.19	35.91	-46.4	-48.9	18.0	0.00e+00	0	41	0	395313152	64	4761
2026-01-03 10:15:27.92	178.29	36.13	-46.4	-48.9	17.9	0.00e+00	0	41	0	396361728	64	4778
2026-01-03 10:15:28.93	178.40	36.37	-46.7	-49.2	18.1	0.00e+00	0	41	0	398458880	64	4953
2026-01-03 10:15:29.93	178.50	36.60	-46.7	-49.2	18.0	0.00e+00	0	41	0	400556032	64	4952
2026-01-03 10:15:30.93	178.61	36.83	-46.4	-48.9	18.1	0.00e+00	0	41	0	402653184	64	4805
2026-01-03 10:15:31.93	178.72	37.06	-46.3	-48.8	18.2	0.00e+00	0	41	0	404750336	64	4718
2026-01-03 10:15:32.93	178.82	37.30	-46.1	-48.6	18.3	0.00e+00	0	41	0	405798912	64	4601
2026-01-03 10:15:33.93	178.93	37.53	-46.1	-48.6	18.4	0.00e+00	0	41	0	407896064	64	4605
2026-01-03 10:15:34.93	179.05	37.77	-46.4	-48.9	18.1	0.00e+00	0	41	0	409993216	64	4762
2026-01-03 10:15:35.93	179.16	38.01	-46.6	-49.1	17.9	0.00e+00	0	41	0	412090368	64	4890
2026-01-03 10:15:36.93	179.27	38.25	-46.6	-49.2	17.8	0.00e+00	0	41	0	414187520	64	4937
2026-01-03 10:15:37.93	179.39	38.50	-46.9	-49.6	17.4	0.00e+00	0	41	0	415236096	64	5171
2026-01-03 10:15:38.93	179.51	38.74	-47.0	-49.7	17.2	0.00e+00	0	41	0	417333248	64	5263
2026-01-03 10:15:39.93	179.63	38.99	-47.0	-49.7	17.2	0.00e+00	0	41	0	419430400	64	5225
2026-01-03 10:15:40.93	179.75	39.23	-46.8	-49.4	17.4	0.00e+00	0	41	0	421527552	64	5082
2026-01-03 10:15:41.93	179.87	39.48	-47.1	-49.7	17.5	0.00e+00	0	41	0	422576128	65	4964
2026-01-03 10:15:42.92	180.00	39.73	-46.9	-49.5	17.5	0.00e+00	0	41	0	424673280	65	4827
2026-01-03 10:15:43.93	180.13	39.99	-46.7	-49.3	17.6	0.00e+00	0	41	0	426770432	65	4708
2026-01-03 10:15:44.93	180.26	40.24	-46.9	-49.5	17.5	0.00e+00	0	41	0	428867584	65	4826
2026-01-03 10:15:45.92	180.39	40.50	-47.0	-49.6	17.3	0.00e+00	0	41	0	430964736	65	4910
2026-01-03 10:15:46.92	180.52	40.75	-47.2	-49.9	17.0	0.00e+00	0	41	0	432013312	65	5097
2026-01-03 10:15:47.93	180.66	41.02	-47.4	-50.3	16.7	0.00e+00	0	41	0	434110464	65	5281
2026-01-03 10:15:48.93	180.79	41.28	-47.4	-50.2	16.7	0.00e+00	0	41	0	436207616	65	5250
2026-01-03 10:15:49.93	180.93	41.54	-47.3	-50.0	16.9	0.00e+00	0	41	0	438304768	65	5130
2026-01-03 10:15:50.93	181.08	41.81	-47.3	-50.0	16.9	0.00e+00	0	41	0	440401920	65	5154
2026-01-03 10:15:51.93	181.22	42.07	-47.2	-49.9	17.1	0.00e+00	0	41	0	441450496	65	5062
2026-01-03 10:15:52.93	181.37	42.34	-47.0	-49.7	17.3	0.00e+00	0	41	0	443547648	65	4931
2026-01-03 10:15:53.93	181.52	42.61	-47.5	-50.2	17.2	0.00e+00	0	41	0	445644800	65	5254
2026-01-03 10:15:54.92	181.67	42.88	-47.5	-50.3	16.8	0.00e+00	0	41	0	447741952	65	5318
2026-01-03 10:15:55.92	181.82	43.15	-47.7	-50.6	16.3	0.00e+00	0	41	0	449839104	66	5205
2026-01-03 10:15:56.93	181.98	43.43	-47.8	-50.8	16.2	0.00e+00	0	41	0	450887680	66	5293
2026-01-03 10:15:57.93	182.14	43.71	-47.7	-50.6	16.3	0.00e+00	0	41	0	452984832	66	5216
2026-01-03 10:15:58.93	182.30	43.99	-48.0	-51.0	16.0	0.00e+00	0	41	0	455081984	66	5436
2026-01-03 10:15:59.93	182.46	44.27	-47.9	-50.9	16.1	0.00e+00	0	41	0	457179136	66	5341
2026-01-03 10:16:00.93	182.63	44.55	-47.8	-50.8	16.2	0.00e+00	0	41	0	458227712	66	5282
2026-01-03 10:16:01.93	182.80	44.84	-48.1	-51.0	16.3	0.00e+00	0	41	0	460324864	66	5407
2026-01-03 10:16:02.94	182.98	45.12	-48.0	-50.9	16.2	0.00e+00	0	41	0	462422016	66	5400
2026-01-03 10:16:03.94	183.15	45.41	-48.2	-51.2	15.7	0.00e+00	0	41	0	464519168	67	5259
2026-01-03 10:16:04.94	183.33	45.70	-48.2	-51.3	15.6	0.00e+00	0	41	0	466616320	67	5331
2026-01-03 10:16:05.94	183.52	45.99	-48.0	-51.0	15.9	0.00e+00	0	41	0	467664896	67	5120
2026-01-03 10:16:06.94	183.70	46.29	-47.9	-50.9	16.1	0.00e+00	0	41	0	469762048	67	5057
2026-01-03 10:16:07.94	183.89	46.58	-47.8	-50.8	16.2	0.00e+00	0	41	0	471859200	67	4985
2026-01-03 10:16:08.94	184.09	46.88	-47.9	-50.9	16.0	0.00e+00	0	41	0	473956352	67	5047
2026-01-03 10:16:09.95	184.29	47.18	-48.1	-51.1	15.8	0.00e+00	0	41	0	476053504	67	5206
2026-01-03 10:16:10.95	184.49	47.48	-48.3	-51.6	15.3	0.00e+00	0	41	0	477102080	67	5496
2026-01-03 10:16:11.95	184.69	47.78	-48.5	-51.8	15.1	0.00e+00	0	41	0	479199232	67	5645
2026-01-03 10:16:12.96	184.90	48.09	-48.5	-51.9	15.0	0.00e+00	0	41	0	481296384	67	5658
2026-01-03 10:16:13.96	185.12	48.39	-48.2	-51.4	15.4	0.00e+00	0	41	0	483393536	67	5378
2026-01-03 10:16:14.96	185.33	48.70	-47.6	-50.5	16.3	0.00e+00	0	41	0	485490688	67	4851
2026-01-03 10:16:15.96	185.55	49.01	-47.3	-50.0	16.9	0.00e+00	0	41	0	486539264	66	4848
2026-01-03 10:16:16.96	185.78	49.32	-47.6	-50.3	17.1	0.00e+00	0	41	0	488636416	66	5003
2026-01-03 10:16:17.96	186.01	49.63	-46.9	-49.5	17.6	0.00e+00	0	41	0	490733568	65	4822
2026-01-03 10:16:18.96	186.25	49.94	-46.8	-49.3	17.7	0.00e+00	0	41	0	492830720	65	4745
2026-01-03 10:16:19.96	186.49	50.26	-46.6	-49.1	17.8	0.00e+00	0	41	0	493879296	65	4621
2026-01-03 10:16:20.96	186.73	50.58	-46.5	-49.0	18.0	0.00e+00	0	41	0	495976448	65	4587
2026-01-03 10:16:21.96	186.98	50.90	-45.7	-48.1	18.8	0.00e+00	0	41	0	498073600	63	4600
2026-01-03 10:16:22.96	187.24	51.22	-45.5	-47.7	19.2	0.00e+00	0	41	0	500170752	62	4699
2026-01-03 10:16:23.97	187.50	51.54	-45.3	-47.5	19.3	0.00e+00	0	41	0	502267904	62	4586
2026-01-03 10:16:24.97	187.77	51.87	-44.9	-47.1	19.7	0.00e+00	0	41	0	503316480	61	4624
2026-01-03 10:16:25.97	188.04	52.19	-44.8	-47.0	19.8	0.00e+00	0	41	0	505413632	61	4559
2026-01-03 10:16:26.97	188.32	52.52	-44.6	-46.8	20.0	0.00e+00	0	41	0	507510784	61	4458
2026-01-03 10:16:27.97	188.60	52.85	-44.3	-46.4	20.4	0.00e+00	0	41	0	509607936	60	4521
2026-01-03 10:16:28.97	188.89	53.18	-44.1	-46.2	20.5	0.00e+00	0	41	0	511705088	60	4436
2026-01-03 10:16:29.97	189.19	53.51	-44.0	-46.1	20.6	0.00e+00	0	41	0	512753664	60	4365
2026-01-03 10:16:30.98	189.50	53.84	-44.1	-46.1	20.6	0.00e+00	0	41	0	514850816	59	4629
2026-01-03 10:16:31.98	189.81	54.18	-43.7	-45.7	20.9	0.00e+00	0	41	0	516947968	59	4438
2026-01-03 10:16:32.99	190.13	54.51	-44.2	-46.2	21.0	0.00e+00	0	41	0	519045120	59	4656
2026-01-03 10:16:33.99	190.45	54.85	-43.9	-45.9	20.9	0.00e+00	0	41	0	521142272	59	4520
2026-01-03 10:16:34.99	190.79	55.19	-44.0	-46.0	20.7	0.00e+00	0	41	0	522190848	59	4580
2026-01-03 10:16:35.99	191.13	55.53	-44.4	-46.5	20.3	0.00e+00	0	41	0	524288000	59	4836
2026-01-03 10:16:36.99	191.48	55.87	-44.6	-46.7	20.0	0.00e+00	0	41	0	526385152	59	4949
2026-01-03 10:16:37.99	191.84	56.21	-44.9	-47.1	19.8	0.00e+00	0	41	0	528482304	60	4876
2026-01-03 10:16:38.99	192.20	56.55	-45.0	-47.2	19.7	0.00e+00	0	41	0	529530880	60	4953
2026-01-03 10:16:39.99	192.58	56.89	-45.0	-47.2	19.5	0.00e+00	0	41	0	531628032	60	4975
2026-01-03 10:16:40.99	192.97	57.24	-45.1	-47.3	19.5	0.00e+00	0	41	0	533725184	61	4738
2026-01-03 10:16:41.99	193.36	57.58	-45.1	-47.3	19.5	0.00e+00	0	41	0	535822336	61	4727
2026-01-03 10:16:42.99	193.77	57.93	-44.9	-47.0	19.7	0.00e+00	0	41	0	537919488	61	4591
2026-01-03 10:16:43.98	194.18	58.27	-44.8	-46.9	19.8	0.00e+00	0	41	0	538968064	61	4540
2026-01-03 10:16:44.98	194.61	58.62	-44.5	-46.6	20.1	0.00e+00	0	41	0	541065216	61	4386
2026-01-03 10:16:45.98	195.04	58.97	-44.4	-46.5	20.3	0.00e+00	0	41	0	543162368	60	4582
2026-01-03 10:16:46.99	195.50	59.32	-44.4	-46.4	20.5	0.00e+00	0	41	0	545259520	60	4543
2026-01-03 10:16:47.98	195.96	59.66	-44.2	-46.3	20.5	0.00e+00	0	41	0	547356672	60	4464
2026-01-03 10:16:48.98	196.43	60.01	-44.4	-46.4	20.8	0.00e+00	0	41	0	548405248	60	4545
2026-01-03 10:16:49.98	196.92	60.36	-43.5	-45.4	21.4	0.00e+00	0	41	0	550502400	59	4271
2026-01-03 10:16:50.99	197.42	60.71	-43.2	-45.1	21.7	0.00e+00	0	41	0	552599552	58	4375
2026-01-03 10:16:51.99	197.94	61.06	-42.9	-44.8	21.9	0.00e+00	0	41	0	554696704	57	4469
2026-01-03 10:16:52.99	198.46	61.41	-43.0	-44.9	21.8	0.00e+00	0	41	0	556793856	57	4532
2026-01-03 10:16:53.99	199.01	61.75	-43.1	-45.0	21.6	0.00e+00	0	41	0	557842432	57	4579
2026-01-03 10:16:54.99	199.57	62.10	-43.1	-45.0	21.6	0.00e+00	0	41	0	559939584	57	4586
2026-01-03 10:16:55.99	200.14	62.45	-43.1	-45.1	21.6	0.00e+00	0	41	0	562036736	57	4602
2026-01-03 10:16:56.99	200.73	62.80	-43.3	-45.3	21.4	0.00e+00	0	41	0	564133888	57	4706
2026-01-03 10:16:57.99	201.34	63.14	-43.3	-45.3	21.3	0.00e+00	0	41	0	565182464	57	4713
2026-01-03 10:16:58.99	201.97	63.49	-43.3	-45.3	21.3	0.00e+00	0	41	0	567279616	57	4733
2026-01-03 10:16:59.99	202.61	63.83	-43.5	-45.5	21.2	0.00e+00	0	41	0	569376768	57	4826
2026-01-03 10:17:00.99	203.28	64.17	-43.9	-46.0	20.8	0.00e+00	0	41	0	571473920	58	4817
2026-01-03 10:17:02.00	203.97	64.51	-44.4	-46.5	20.3	0.00e+00	0	41	0	573571072	59	4824
2026-01-03 10:17:03.00	204.67	64.85	-45.4	-47.5	19.8	0.00e+00	0	41	0	574619648	61	4863
2026-01-03 10:17:04.00	205.40	65.19	-45.5	-47.7	19.4	0.00e+00	0	41	0	576716800	61	4958
2026-01-03 10:17:05.00	206.15	65.52	-45.7	-48.0	19.0	0.00e+00	0	41	0	578813952	62	4827
2026-01-03 10:17:06.00	206.92	65.85	-46.2	-48.6	18.3	0.00e+00	0	41	0	580911104	63	4897
2026-01-03 10:17:07.00	207.71	66.18	-46.5	-49.0	17.9	0.00e+00	0	41	0	583008256	63	5118
2026-01-03 10:17:08.00	208.53	66.51	-46.2	-48.7	18.3	0.00e+00	0	41	0	584056832	63	4932
2026-01-03 10:17:09.00	209.37	66.83	-46.2	-48.6	18.4	0.00e+00	0	41	0	586153984	63	4880
2026-01-03 10:17:10.00	210.24	67.15	-46.6	-49.1	17.9	0.00e+00	0	41	0	588251136	63	5187
2026-01-03 10:17:11.00	211.14	67.47	-47.1	-49.7	17.2	0.00e+00	0	41	0	590348288	64	5262
2026-01-03 10:17:11.99	212.05	67.78	-47.3	-50.1	16.7	0.00e+00	0	41	0	591396864	65	5186
2026-01-03 10:17:12.99	213.00	68.08	-47.2	-49.9	16.9	0.00e+00	0	41	0	593494016	65	5096
2026-01-03 10:17:13.99	213.98	68.39	-46.6	-49.2	17.6	0.00e+00	0	41	0	595591168	65	4669
2026-01-03 10:17:14.99	214.99	68.68	-46.5	-49.0	17.9	0.00e+00	0	41	0	597688320	64	4837
2026-01-03 10:17:15.99	216.04	68.98	-46.8	-49.4	17.7	0.00e+00	0	41	0	599785472	64	5054
2026-01-03 10:17:16.99	217.11	69.26	-47.4	-50.1	17.2	0.00e+00	0	41	0	600834048	65	5218
2026-01-03 10:17:17.99	218.21	69.54	-47.5	-50.3	16.7	0.00e+00	0	41	0	602931200	65	5335
2026-01-03 10:17:18.99	219.35	69.82	-47.6	-50.5	16.4	0.00e+00	0	41	0	605028352	66	5113
2026-01-03 10:17:20.00	220.53	70.09	-47.9	-50.8	16.2	0.00e+00	0	41	0	607125504	66	5333
2026-01-03 10:17:21.00	221.73	70.35	-47.5	-50.3	16.6	0.00e+00	0	41	0	609222656	66	5031
2026-01-03 10:17:22.00	222.97	70.60	-46.8	-49.5	17.4	0.00e+00	0	41	0	610271232	65	4820
2026-01-03 10:17:23.00	224.24	70.85	-46.8	-49.5	17.4	0.00e+00	0	41	0	612368384	65	4815
2026-01-03 10:17:24.00	225.55	71.08	-47.4	-50.1	17.2	0.00e+00	0	41	0	614465536	65	5173
2026-01-03 10:17:25.00	226.89	71.31	-47.2	-49.9	17.2	0.00e+00	0	41	0	616562688	65	5072
2026-01-03 10:17:26.00	228.26	71.53	-47.5	-50.4	16.7	0.00e+00	0	41	0	618659840	65	5345
2026-01-03 10:17:27.01	229.68	71.74	-47.8	-50.6	16.5	1.50e-06	0	41	0	619708416	66	5209
2026-01-03 10:17:28.01	231.12	71.94	-47.2	-49.9	17.0	0.00e+00	0	41	0	621805568	66	4802
2026-01-03 10:17:29.01	232.60	72.12	-46.7	-49.2	17.7	0.00e+00	0	41	0	623902720	65	4684
2026-01-03 10:17:30.01	234.10	72.30	-46.9	-49.4	17.7	0.00e+00	0	41	0	625999872	65	4797
2026-01-03 10:17:31.01	235.64	72.46	-46.9	-49.5	17.5	0.00e+00	0	41	0	627048448	65	4828
2026-01-03 10:17:32.01	237.21	72.62	-47.0	-49.6	17.3	0.00e+00	0	41	0	629145600	65	4919
2026-01-03 10:17:33.01	238.80	72.76	-47.0	-49.7	17.3	0.00e+00	0	41	0	631242752	65	4949
2026-01-03 10:17:34.01	240.42	72.88	-46.3	-48.7	18.1	0.00e+00	0	41	0	633339904	64	4701
2026-01-03 10:17:35.02	242.08	73.00	-46.1	-48.5	18.4	0.00e+00	0	41	0	635437056	64	4569
2026-01-03 10:17:36.02	243.75	73.10	-46.2	-48.7	18.3	0.00e+00	0	41	0	636485632	63	4975
2026-01-03 10:17:37.02	245.43	73.19	-46.0	-48.5	18.4	0.00e+00	0	41	0	638582784	63	4836
2026-01-03 10:17:38.02	247.14	73.26	-46.0	-48.3	19.1	0.00e+00	0	41	0	640679936	63	4724
2026-01-03 10:17:39.03	248.87	73.32	-45.4	-47.6	19.5	0.00e+00	0	41	0	642777088	62	4640
2026-01-03 10:17:40.03	250.60	73.37	-45.8	-48.1	19.0	0.00e+00	0	41	0	644874240	62	4892
2026-01-03 10:17:41.03	252.34	73.40	-45.9	-48.3	18.8	0.00e+00	0	41	0	645922816	62	4995
2026-01-03 10:17:42.03	254.08	73.41	-45.4	-47.6	19.4	0.00e+00	0	41	0	648019968	62	4643
2026-01-03 10:17:43.03	255.82	73.41	-44.8	-47.0	20.0	0.00e+00	0	41	0	650117120	61	4571
2026-01-03 10:17:44.03	257.57	73.40	-44.8	-47.0	20.0	0.00e+00	0	41	0	652214272	61	4551
2026-01-03 10:17:45.03	259.30	73.37	-45.5	-47.8	19.2	0.00e+00	0	41	0	654311424	61	5017
2026-01-03 10:17:46.03	261.03	73.33	-46.4	-48.8	18.3	0.00e+00	0	41	0	655360000	63	5011
2026-01-03 10:17:47.04	262.77	73.27	-46.5	-49.0	18.1	0.00e+00	0	41	0	657457152	64	4828
2026-01-03 10:17:48.04	264.48	73.20	-46.3	-48.7	18.3	0.00e+00	0	41	0	659554304	64	4693
2026-01-03 10:17:49.04	266.16	73.12	-46.5	-49.0	18.0	0.00e+00	0	41	0	661651456	64	4815
2026-01-03 10:17:50.04	267.83	73.02	-46.7	-49.3	17.7	0.00e+00	0	41	0	663748608	64	5030
2026-01-03 10:17:51.04	269.48	72.91	-47.3	-49.9	17.6	0.00e+00	0	41	0	664797184	65	5084
2026-01-03 10:17:52.04	271.11	72.78	-47.5	-50.3	17.0	0.00e+00	0	41	0	666894336	65	5280
2026-01-03 10:17:53.04	272.71	72.65	-47.5	-50.3	16.7	0.00e+00	0	41	0	668991488	65	5298
2026-01-03 10:17:54.04	274.28	72.50	-47.4	-50.1	16.8	0.00e+00	0	41	0	671088640	66	4923
2026-01-03 10:17:55.03	275.80	72.34	-47.1	-49.8	17.2	0.00e+00	0	41	0	672137216	66	4712
2026-01-03 10:17:56.04	277.33	72.16	-46.4	-48.9	18.0	0.00e+00	0	41	0	674234368	64	4806
2026-01-03 10:17:57.04	278.81	71.98	-46.6	-49.2	17.7	0.00e+00	0	41	0	676331520	64	4937
2026-01-03 10:17:58.04	280.26	71.78	-47.4	-50.2	16.7	0.00e+00	0	41	0	678428672	65	5276
2026-01-03 10:17:59.04	281.67	71.58	-47.9	-50.9	16.0	0.00e+00	0	41	0	680525824	66	5396
2026-01-03 10:18:00.05	283.07	71.36	-47.5	-50.3	16.5	0.00e+00	0	41	0	681574400	66	5041
2026-01-03 10:18:01.04	284.40	71.14	-46.6	-49.2	17.7	0.00e+00	0	41	0	683671552	65	4669
2026-01-03 10:18:02.04	285.71	70.90	-46.4	-48.9	18.0	0.00e+00	0	41	0	685768704	64	4788
2026-01-03 10:18:03.05	287.00	70.66	-47.4	-50.2	16.9	0.00e+00	0	41	0	687865856	65	5252
2026-01-03 10:18:04.05	288.24	70.41	-47.8	-50.8	16.2	0.00e+00	0	41	0	689963008	66	5327
2026-01-03 10:18:05.05	289.45	70.15	-48.0	-50.8	16.5	0.00e+00	0	41	0	691011584	67	5035
2026-01-03 10:18:06.05	290.63	69.88	-47.5	-50.3	16.8	0.00e+00	0	41	0	693108736	66	5002
2026-01-03 10:18:07.04	291.76	69.61	-47.3	-50.1	16.8	0.00e+00	0	41	0	695205888	66	4886
2026-01-03 10:18:08.04	292.87	69.33	-47.3	-50.0	16.9	0.00e+00	0	41	0	697303040	66	4847
2026-01-03 10:18:09.05	293.96	69.05	-47.3	-50.0	16.8	0.00e+00	0	41	0	699400192	66	4855
2026-01-03 10:18:10.05	295.01	68.76	-47.5	-50.4	16.5	0.00e+00	0	41	0	700448768	66	5065
2026-01-03 10:18:11.05	296.02	68.46	-48.3	-51.6	15.3	0.00e+00	0	41	0	702545920	67	5511
2026-01-03 10:18:12.06	297.02	68.16	-49.4	-53.2	13.8	0.00e+00	0	41	0	704643072	69	5893
2026-01-03 10:18:13.05	297.96	67.85	-48.7	-52.1	14.9	3.00e-06	0	41	0	706740224	69	5174
2026-01-03 10:18:14.06	298.90	67.54	-47.7	-50.6	16.3	0.00e+00	0	41	0	707788800	67	4879
2026-01-03 10:18:15.06	299.80	67.23	-48.2	-51.4	15.5	0.00e+00	0	41	0	709885952	67	5362
2026-01-03 10:18:16.06	300.68	66.91	-49.2	-52.8	14.3	0.00e+00	0	41	0	711983104	69	5654
2026-01-03 10:18:17.06	301.52	66.59	-48.8	-52.1	14.9	1.50e-06	0	41	0	714080256	69	5203
2026-01-03 10:18:18.06	302.35	66.26	-48.2	-51.2	15.8	0.00e+00	0	41	0	716177408	68	4978
2026-01-03 10:18:19.06	303.14	65.93	-47.1	-49.8	17.0	0.00e+00	0	41	0	717225984	66	4748
2026-01-03 10:18:20.06	303.92	65.60	-47.6	-50.2	17.2	0.00e+00	0	41	0	719323136	65	5255
2026-01-03 10:18:21.06	304.67	65.27	-47.3	-50.0	17.2	0.00e+00	0	41	0	721420288	66	4816
2026-01-03 10:18:22.06	305.40	64.94	-46.5	-49.0	18.0	0.00e+00	0	41	0	723517440	65	4549
2026-01-03 10:18:23.07	306.11	64.60	-45.2	-47.4	19.5	0.00e+00	0	41	0	725614592	62	4536
2026-01-03 10:18:24.07	306.80	64.26	-44.3	-46.3	20.5	0.00e+00	0	41	0	726663168	60	4493
2026-01-03 10:18:25.07	307.47	63.92	-44.2	-46.2	20.6	0.00e+00	0	41	0	728760320	60	4408
2026-01-03 10:18:26.07	308.12	63.57	-44.0	-46.0	20.7	0.00e+00	0	41	0	730857472	59	4589
2026-01-03 10:18:27.07	308.75	63.23	-43.7	-45.7	20.9	0.00e+00	0	41	0	732954624	59	4399
2026-01-03 10:18:28.07	309.36	62.89	-42.4	-44.2	22.3	0.00e+00	0	41	0	735051776	56	4426
2026-01-03 10:18:29.08	309.96	62.54	-41.5	-43.3	22.9	0.00e+00	0	41	0	736100352	55	4218
2026-01-03 10:18:30.08	310.54	62.19	-41.7	-43.5	22.7	0.00e+00	0	41	0	738197504	55	4336
2026-01-03 10:18:31.08	311.10	61.85	-42.3	-44.1	22.2	0.00e+00	0	41	0	740294656	55	4639
2026-01-03 10:18:32.08	311.64	61.50	-43.1	-45.0	21.8	0.00e+00	0	41	0	742391808	57	4593
2026-01-03 10:18:33.08	312.18	61.15	-42.6	-44.4	22.2	0.00e+00	0	41	0	744488960	57	4280
2026-01-03 10:18:34.08	312.69	60.81	-42.4	-44.3	22.4	0.00e+00	0	41	0	745537536	56	4442
2026-01-03 10:18:35.08	313.19	60.46	-43.0	-44.9	21.9	0.00e+00	0	41	0	747634688	56	4761
2026-01-03 10:18:36.08	313.68	60.11	-44.2	-46.3	20.4	0.00e+00	0	41	0	749731840	59	4754
2026-01-03 10:18:37.08	314.16	59.76	-45.4	-47.8	19.1	0.00e+00	0	41	0	751828992	61	5022
2026-01-03 10:18:38.08	314.62	59.42	-45.0	-47.2	19.5	0.00e+00	0	41	0	752877568	61	4692
2026-01-03 10:18:39.09	315.08	59.07	-44.2	-46.3	20.4	0.00e+00	0	41	0	754974720	60	4489
2026-01-03 10:18:40.09	315.52	58.72	-44.3	-46.4	20.4	0.00e+00	0	41	0	757071872	60	4496
2026-01-03 10:18:41.09	315.95	58.37	-45.3	-47.6	19.2	0.00e+00	0	41	0	759169024	61	4909
2026-01-03 10:18:42.09	316.37	58.03	-46.9	-49.7	17.2	0.00e+00	0	41	0	761266176	64	5238
2026-01-03 10:18:43.09	316.77	57.68	-48.1	-51.5	15.4	0.00e+00	0	41	0	762314752	66	5747
2026-01-03 10:18:44.09	317.17	57.34	-47.4	-50.5	16.3	0.00e+00	0	41	0	764411904	66	5106
2026-01-03 10:18:45.10	317.56	56.99	-45.6	-47.9	19.3	0.00e+00	0	41	0	766509056	63	4515
2026-01-03 10:18:46.10	317.94	56.65	-44.4	-46.5	20.4	0.00e+00	0	41	0	768606208	60	4549
2026-01-03 10:18:47.10	318.31	56.31	-44.5	-46.5	20.4	0.00e+00	0	41	0	770703360	60	4587
2026-01-03 10:18:48.10	318.67	55.97	-45.7	-48.0	19.0	0.00e+00	0	41	0	771751936	61	5118
2026-01-03 10:18:49.10	319.02	55.63	-46.4	-48.9	18.0	0.00e+00	0	41	0	773849088	63	5081
2026-01-03 10:18:50.10	319.36	55.29	-45.5	-47.9	19.0	0.00e+00	0	41	0	775946240	63	4503
2026-01-03 10:18:51.10	319.70	54.96	-44.0	-46.0	20.7	0.00e+00	0	41	0	778043392	60	4333
2026-01-03 10:18:52.11	320.03	54.62	-42.8	-44.7	21.8	0.00e+00	0	41	0	779091968	57	4433
2026-01-03 10:18:53.11	320.35	54.29	-42.5	-44.4	22.1	0.00e+00	0	41	0	781189120	57	4267
2026-01-03 10:18:54.11	320.66	53.95	-42.7	-44.5	22.0	0.00e+00	0	41	0	783286272	57	4338
2026-01-03 10:18:55.11	320.96	53.62	-43.3	-45.2	21.3	0.00e+00	0	41	0	785383424	57	4697
2026-01-03 10:18:56.11	321.26	53.29	-44.3	-46.4	20.3	0.00e+00	0	41	0	787480576	59	4762
2026-01-03 10:18:57.11	321.55	52.96	-44.3	-46.4	20.2	0.00e+00	0	41	0	788529152	59	4806
2026-01-03 10:18:58.11	321.84	52.64	-43.8	-45.7	21.3	0.00e+00	0	41	0	790626304	59	4426
2026-01-03 10:18:59.11	322.12	52.31	-42.6	-44.4	22.3	0.00e+00	0	41	0	792723456	57	4276
2026-01-03 10:19:00.11	322.39	51.99	-42.6	-44.5	22.1	0.00e+00	0	41	0	794820608	56	4562
2026-01-03 10:19:01.11	322.66	51.66	-43.4	-45.4	21.3	0.00e+00	0	41	0	796917760	57	4767
2026-01-03 10:19:02.11	322.92	51.34	-44.5	-46.6	20.1	0.00e+00	0	41	0	797966336	59	4913
2026-01-03 10:19:03.10	323.18	51.03	-45.4	-47.7	19.2	0.00e+00	0	41	0	800063488	61	4970
2026-01-03 10:19:04.10	323.43	50.71	-46.2	-48.8	18.3	0.00e+00	0	41	0	802160640	63	4989
2026-01-03 10:19:05.10	323.67	50.39	-46.6	-49.3	17.7	0.00e+00	0	41	0	804257792	64	4997
2026-01-03 10:19:06.11	323.92	50.07	-46.8	-49.4	17.6	0.00e+00	0	41	0	806354944	64	5097
2026-01-03 10:19:07.11	324.15	49.76	-46.5	-49.1	17.9	0.00e+00	0	41	0	807403520	64	4874
2026-01-03 10:19:08.11	324.38	49.45	-46.3	-48.8	18.2	0.00e+00	0	41	0	809500672	64	4729
2026-01-03 10:19:09.11	324.61	49.14	-46.9	-49.6	17.5	0.00e+00	0	41	0	811597824	64	5163
2026-01-03 10:19:10.11	324.83	48.83	-48.0	-51.1	16.1	0.00e+00	0	41	0	813694976	66	5479
2026-01-03 10:19:11.12	325.05	48.52	-49.2	-52.9	14.4	0.00e+00	0	41	0	814743552	68	6005
2026-01-03 10:19:12.12	325.27	48.22	-49.7	-53.5	14.1	1.50e-06	0	41	0	816840704	70	5763
2026-01-03 10:19:13.12	325.48	47.92	-48.4	-51.6	15.6	0.00e+00	0	41	0	818937856	68	5178
2026-01-03 10:19:14.13	325.68	47.61	-47.4	-50.2	16.8	0.00e+00	0	41	0	821035008	66	4933
2026-01-03 10:19:15.13	325.89	47.31	-47.3	-50.0	17.0	0.00e+00	0	41	0	823132160	66	4859
2026-01-03 10:19:16.13	326.08	47.01	-46.8	-49.4	17.5	0.00e+00	0	41	0	824180736	65	4809
2026-01-03 10:19:17.13	326.28	46.72	-46.5	-49.0	17.9	0.00e+00	0	41	0	826277888	64	4846
2026-01-03 10:19:18.13	326.47	46.42	-46.3	-48.7	18.1	0.00e+00	0	41	0	828375040	64	4682
2026-01-03 10:19:19.13	326.66	46.13	-46.5	-49.0	17.9	0.00e+00	0	41	0	830472192	64	4858
2026-01-03 10:19:20.13	326.84	45.84	-47.2	-50.0	17.0	0.00e+00	0	41	0	832569344	64	5417
2026-01-03 10:19:21.13	327.02	45.55	-48.1	-51.3	15.6	0.00e+00	0	41	0	833617920	66	5616
2026-01-03 10:19:22.13	327.20	45.27	-48.3	-51.6	15.3	0.00e+00	0	41	0	835715072	67	5511
2026-01-03 10:19:23.13	327.37	44.98	-47.7	-50.7	16.1	0.00e+00	0	41	0	837812224	67	4973
2026-01-03 10:19:24.13	327.54	44.70	-46.5	-49.1	17.7	0.00e+00	0	41	0	839909376	65	4623
2026-01-03 10:19:25.14	327.71	44.41	-45.7	-48.1	18.8	0.00e+00	0	41	0	842006528	63	4636
2026-01-03 10:19:26.14	327.88	44.13	-44.9	-47.1	19.8	0.00e+00	0	41	0	843055104	61	4636
2026-01-03 10:19:27.14	328.04	43.86	-45.2	-47.3	19.9	0.00e+00	0	41	0	845152256	61	4748
2026-01-03 10:19:28.14	328.20	43.58	-45.2	-47.5	19.6	0.00e+00	0	41	0	847249408	61	4818
2026-01-03 10:19:29.14	328.36	43.31	-46.0	-48.5	18.5	0.00e+00	0	41	0	849346560	62	5110
2026-01-03 10:19:30.15	328.52	43.03	-46.8	-49.5	17.3	0.00e+00	0	41	0	851443712	64	5130
2026-01-03 10:19:31.14	328.67	42.76	-47.5	-50.5	16.4	0.00e+00	0	41	0	852492288	65	5406
2026-01-03 10:19:32.15	328.82	42.49	-47.9	-51.0	15.8	0.00e+00	0	41	0	854589440	66	5451
2026-01-03 10:19:33.15	328.97	42.22	-47.1	-49.9	16.9	0.00e+00	0	41	0	856686592	66	4804
2026-01-03 10:19:34.15	329.11	41.96	-46.1	-48.7	18.1	0.00e+00	0	41	0	858783744	64	4672
2026-01-03 10:19:35.15	329.25	41.69	-45.2	-47.5	19.3	0.00e+00	0	41	0	859832320	62	4572
2026-01-03 10:19:36.15	329.39	41.43	-44.8	-47.0	19.8	0.00e+00	0	41	0	861929472	61	4583
2026-01-03 10:19:37.15	329.53	41.17	-44.7	-46.8	20.0	0.00e+00	0	41	0	864026624	61	4488
2026-01-03 10:19:38.16	329.67	40.91	-44.6	-46.7	20.1	0.00e+00	0	41	0	866123776	61	4426
2026-01-03 10:19:39.16	329.80	40.65	-45.3	-47.7	19.2	0.00e+00	0	41	0	868220928	61	4936
2026-01-03 10:19:40.16	329.94	40.40	-46.2	-48.8	18.1	0.00e+00	0	41	0	869269504	63	5007
2026-01-03 10:19:41.17	330.07	40.14	-47.6	-50.5	16.9	0.00e+00	0	41	0	871366656	65	5439
2026-01-03 10:19:42.17	330.19	39.89	-47.9	-51.0	16.2	0.00e+00	0	41	0	873463808	66	5429
2026-01-03 10:19:43.17	330.32	39.64	-47.7	-50.8	16.1	0.00e+00	0	41	0	875560960	66	5315
2026-01-03 10:19:44.17	330.45	39.39	-47.1	-50.0	17.0	0.00e+00	0	41	0	877658112	66	4819
2026-01-03 10:19:45.18	330.57	39.14	-46.3	-49.0	17.9	0.00e+00	0	41	0	878706688	64	4821
2026-01-03 10:19:46.18	330.69	38.89	-46.1	-48.7	18.2	0.00e+00	0	41	0	880803840	64	4664
2026-01-03 10:19:47.18	330.81	38.65	-46.0	-48.6	18.3	0.00e+00	0	41	0	882900992	64	4609
2026-01-03 10:19:48.18	330.93	38.41	-45.6	-48.0	18.9	0.00e+00	0	41	0	884998144	63	4584
2026-01-03 10:19:49.18	331.04	38.17	-45.3	-47.7	19.2	0.00e+00	0	41	0	887095296	62	4669
2026-01-03 10:19:50.18	331.15	37.93	-45.3	-47.6	19.3	0.00e+00	0	41	0	888143872	62	4621
2026-01-03 10:19:51.18	331.27	37.69	-45.3	-47.7	19.2	0.00e+00	0	41	0	890241024	62	4657
2026-01-03 10:19:52.18	331.38	37.45	-45.7	-48.2	18.8	0.00e+00	0	41	0	892338176	62	4932
2026-01-03 10:19:53.18	331.49	37.22	-46.3	-49.0	18.0	0.00e+00	0	41	0	894435328	63	5108
2026-01-03 10:19:54.18	331.59	36.99	-47.2	-49.9	17.5	0.00e+00	0	41	0	896532480	65	5085
2026-01-03 10:19:55.18	331.70	36.75	-47.1	-49.9	17.1	0.00e+00	0	41	0	897581056	65	5070
2026-01-03 10:19:56.19	331.81	36.52	-47.0	-49.7	17.2	0.00e+00	0	41	0	899678208	65	4976
2026-01-03 10:19:57.19	331.91	36.29	-46.9	-49.6	17.3	0.00e+00	0	41	0	901775360	65	4919
2026-01-03 10:19:58.19	332.01	36.07	-46.9	-49.5	17.4	0.00e+00	0	41	0	903872512	65	4869
2026-01-03 10:19:59.19	332.11	35.84	-46.5	-49.1	17.8	0.00e+00	0	41	0	904921088	65	4637
2026-01-03 10:20:00.19	332.21	35.62	-46.4	-49.0	17.9	0.00e+00	0	41	0	907018240	64	4836
2026-01-03 10:20:01.19	332.31	35.40	-46.1	-48.6	18.3	0.00e+00	0	41	0	909115392	64	4610
2026-01-03 10:20:02.19	332.41	35.18	-46.0	-48.4	18.4	0.00e+00	0	41	0	911212544	64	4541
2026-01-03 10:20:03.20	332.50	34.95	-45.8	-48.1	18.8	0.00e+00	0	41	0	913309696	63	4651
2026-01-03 10:20:04.20	332.60	34.74	-45.8	-48.2	18.7	0.00e+00	0	41	0	914358272	63	4696
2026-01-03 10:20:05.20	332.69	34.52	-45.6	-47.9	19.0	0.00e+00	0	41	0	916455424	63	4534
2026-01-03 10:20:06.20	332.78	34.30	-45.6	-48.0	18.9	0.00e+00	0	41	0	918552576	63	4566
2026-01-03 10:20:07.20	332.87	34.09	-46.2	-48.7	18.7	0.00e+00	0	41	0	920649728	63	4948
2026-01-03 10:20:08.21	332.96	33.88	-46.3	-48.9	18.4	0.00e+00	0	41	0	922746880	63	5051
2026-01-03 10:20:09.21	333.05	33.67	-46.5	-49.1	17.8	0.00e+00	0	41	0	923795456	63	5194
2026-01-03 10:20:10.21	333.14	33.46	-46.6	-49.4	17.4	1.50e-06	0	41	0	925892608	63	5348
2026-01-03 10:20:11.21	333.22	33.25	-47.1	-50.0	16.8	9.90e-06	0	41	0	927989760	64	5433
2026-01-03 10:20:12.21	333.31	33.04	-47.1	-50.1	16.6	0.00e+00	0	41	0	930086912	65	5217
2026-01-03 10:20:13.21	333.39	32.84	-47.3	-50.4	16.3	0.00e+00	0	41	0	932184064	65	5396
2026-01-03 10:20:14.21	333.48	32.63	-47.4	-50.7	16.0	0.00e+00	0	41	0	933232640	65	5545
2026-01-03 10:20:15.21	333.56	32.43	-47.5	-50.8	16.0	1.90e-05	0	41	0	935329792	65	5594
2026-01-03 10:20:16.21	333.64	32.23	-47.4	-50.5	16.2	7.00e-07	0	41	0	937426944	65	5451
2026-01-03 10:20:17.22	333.72	32.03	-47.3	-50.4	16.4	0.00e+00	0	41	0	939524096	65	5360
2026-01-03 10:20:18.22	333.80	31.83	-47.9	-51.0	16.3	1.29e-05	0	41	0	941621248	66	5419
2026-01-03 10:20:19.22	333.88	31.63	-47.5	-50.4	16.6	0.00e+00	0	41	0	942669824	66	5094
2026-01-03 10:20:20.22	333.96	31.43	-47.3	-50.3	16.6	0.00e+00	0	41	0	944766976	66	4999
2026-01-03 10:20:21.22	334.03	31.24	-47.3	-50.2	16.7	0.00e+00	0	41	0	946864128	66	4935
2026-01-03 10:20:22.22	334.11	31.05	-47.2	-50.1	16.7	0.00e+00	0	41	0	948961280	66	4914
2026-01-03 10:20:23.23	334.19	30.85	-47.1	-50.0	16.9	0.00e+00	0	41	0	950009856	66	4836
2026-01-03 10:20:24.23	334.26	30.66	-47.2	-50.0	16.8	0.00e+00	0	41	0	952107008	66	4861
2026-01-03 10:20:25.23	334.33	30.47	-46.9	-49.7	17.2	0.00e+00	0	41	0	954204160	65	4927
2026-01-03 10:20:26.23	334.41	30.28	-46.5	-49.2	17.6	0.00e+00	0	41	0	956301312	65	4685
2026-01-03 10:20:27.23	334.48	30.09	-46.2	-49.0	17.8	0.00e+00	0	41	0	958398464	64	4817
2026-01-03 10:20:28.23	334.55	29.91	-46.2	-48.9	17.9	0.00e+00	0	41	0	959447040	64	4803
2026-01-03 10:20:29.23	334.62	29.72	-46.5	-49.3	18.0	0.00e+00	0	41	0	961544192	64	4994
2026-01-03 10:20:30.23	334.69	29.54	-46.3	-49.1	17.9	0.00e+00	0	41	0	963641344	64	4896
2026-01-03 10:20:31.23	334.76	29.35	-46.2	-49.0	17.9	0.00e+00	0	41	0	965738496	64	4828
2026-01-03 10:20:32.23	334.82	29.17	-46.2	-49.0	17.9	0.00e+00	0	41	0	967835648	64	4817
2026-01-03 10:20:33.24	334.89	28.99	-46.2	-49.0	17.9	0.00e+00	0	41	0	968884224	64	4820
2026-01-03 10:20:34.23	334.96	28.81	-46.2	-48.8	18.0	0.00e+00	0	41	0	970981376	64	4734
2026-01-03 10:20:35.23	335.02	28.63	-46.4	-49.0	17.8	0.00e+00	0	41	0	973078528	64	4838
2026-01-03 10:20:36.24	335.09	28.45	-46.4	-49.0	17.8	0.00e+00	0	41	0	975175680	64	4868
2026-01-03 10:20:37.24	335.15	28.28	-46.4	-49.1	17.7	0.00e+00	0	41	0	977272832	64	4884
2026-01-03 10:20:38.24	335.22	28.10	-46.4	-49.1	17.7	0.00e+00	0	41	0	978321408	64	4905
2026-01-03 10:20:39.25	335.28	27.93	-46.2	-48.9	17.9	0.00e+00	0	41	0	980418560	64	4782
2026-01-03 10:20:40.25	335.34	27.75	-46.0	-48.7	18.1	0.00e+00	0	41	0	982515712	64	4661
2026-01-03 10:20:41.25	335.41	27.58	-46.0	-48.6	18.1	0.00e+00	0	41	0	984612864	64	4618
2026-01-03 10:20:42.25	335.47	27.41	-46.4	-48.9	18.4	0.00e+00	0	41	0	985661440	64	4781
2026-01-03 10:20:43.25	335.53	27.24	-45.7	-48.1	19.0	0.00e+00	0	41	0	987758592	63	4601
2026-01-03 10:20:44.26	335.59	27.07	-45.4	-47.7	19.2	0.00e+00	0	41	0	989855744	62	4677
2026-01-03 10:20:45.26	335.65	26.90	-45.3	-47.6	19.3	0.00e+00	0	41	0	991952896	62	4601
2026-01-03 10:20:46.26	335.71	26.74	-45.1	-47.3	19.6	0.00e+00	0	41	0	994050048	62	4454
2026-01-03 10:20:47.26	335.77	26.57	-44.9	-47.1	19.7	0.00e+00	0	41	0	995098624	61	4619
2026-01-03 10:20:48.27	335.82	26.40	-44.9	-47.1	19.6	0.00e+00	0	41	0	997195776	61	4635
2026-01-03 10:20:49.27	335.88	26.24	-44.7	-47.0	19.8	0.00e+00	0	41	0	999292928	61	4551
2026-01-03 10:20:50.27	335.94	26.08	-44.6	-46.9	19.8	0.00e+00	0	41	0	1001390080	61	4518
2026-01-03 10:20:51.27	335.99	25.92	-44.6	-46.9	19.8	0.00e+00	0	41	0	1003487232	61	4529
2026-01-03 10:20:52.27	336.05	25.76	-44.8	-47.1	19.6	0.00e+00	0	41	0	1004535808	61	4609
2026-01-03 10:20:53.28	336.11	25.59	-45.2	-47.6	19.4	0.00e+00	0	41	0	1006632960	61	4879
2026-01-03 10:20:54.28	336.16	25.43	-45.3	-47.7	19.1	0.00e+00	0	41	0	1008730112	61	4942
2026-01-03 10:20:55.28	336.21	25.28	-45.2	-47.6	19.2	0.00e+00	0	41	0	1010827264	61	4873
2026-01-03 10:20:56.28	336.27	25.12	-45.3	-47.6	19.1	0.00e+00	0	41	0	1012924416	61	4921
2026-01-03 10:20:57.28	336.32	24.96	-45.4	-47.8	18.9	0.00e+00	0	41	0	1013972992	61	5021
2026-01-03 10:20:58.28	336.37	24.81	-45.6	-48.0	18.9	0.00e+00	0	41	0	1016070144	61	5114
2026-01-03 10:20:59.29	336.43	24.65	-45.7	-48.1	18.7	0.00e+00	0	41	0	1018167296	62	4906
2026-01-03 10:21:00.29	336.48	24.50	-45.6	-48.0	18.8	0.00e+00	0	41	0	1020264448	62	4822
2026-01-03 10:21:01.29	336.53	24.35	-45.5	-48.0	18.8	0.00e+00	0	41	0	1022361600	62	4823
2026-01-03 10:21:02.29	336.58	24.19	-45.5	-47.9	18.8	0.00e+00	0	41	0	1023410176	62	4780
2026-01-03 10:21:03.29	336.63	24.04	-45.3	-47.6	19.1	0.00e+00	0	41	0	1025507328	62	4644
2026-01-03 10:21:04.30	336.68	23.89	-45.2	-47.6	19.1	0.00e+00	0	41	0	1027604480	62	4628
2026-01-03 10:21:05.30	336.73	23.74	-45.2	-47.6	19.2	0.00e+00	0	41	0	1029701632	62	4605
2026-01-03 10:21:06.30	336.78	23.59	-44.9	-47.3	19.4	0.00e+00	0	41	0	1030750208	61	4715
2026-01-03 10:21:07.31	336.83	23.44	-45.5	-47.8	19.5	0.00e+00	0	41	0	1032847360	61	5029
2026-01-03 10:21:08.31	336.88	23.30	-45.3	-47.6	19.5	0.00e+00	0	41	0	1034944512	61	4910
2026-01-03 10:21:09.31	336.92	23.15	-45.1	-47.5	19.2	0.00e+00	0	41	0	1037041664	61	4860
2026-01-03 10:21:10.31	336.97	23.01	-45.1	-47.4	19.3	0.00e+00	0	41	0	1039138816	61	4806
2026-01-03 10:21:11.32	337.02	22.86	-45.0	-47.3	19.4	0.00e+00	0	41	0	1040187392	61	4744
2026-01-03 10:21:12.32	337.06	22.72	-45.0	-47.3	19.5	0.00e+00	0	41	0	1042284544	61	4735
2026-01-03 10:21:13.32	337.11	22.57	-44.9	-47.3	19.5	0.00e+00	0	41	0	1044381696	61	4728
2026-01-03 10:21:14.32	337.16	22.43	-44.9	-47.3	19.4	0.00e+00	0	41	0	1046478848	61	4728
2026-01-03 10:21:15.32	337.20	22.29	-45.0	-47.4	19.4	0.00e+00	0	41	0	1048576000	61	4760
2026-01-03 10:21:16.33	337.25	22.15	-44.8	-47.2	19.5	0.00e+00	0	41	0	1049624576	61	4662
2026-01-03 10:21:17.33	337.29	22.01	-44.9	-47.2	19.5	0.00e+00	0	41	0	1051721728	61	4680
2026-01-03 10:21:18.33	337.34	21.87	-45.3	-47.7	19.4	0.00e+00	0	41	0	1053818880	61	4944
2026-01-03 10:21:19.33	337.38	21.73	-45.2	-47.6	19.2	0.00e+00	0	41	0	1055916032	61	4892
2026-01-03 10:21:20.34	337.42	21.59	-45.1	-47.4	19.3	0.00e+00	0	41	0	1058013184	61	4808
2026-01-03 10:21:21.34	337.47	21.46	-44.9	-47.3	19.4	0.00e+00	0	41	0	1059061760	61	4718
2026-01-03 10:21:22.34	337.51	21.32	-45.0	-47.4	19.3	0.00e+00	0	41	0	1061158912	61	4766
2026-01-03 10:21:23.34	337.55	21.19	-45.1	-47.5	19.2	0.00e+00	0	41	0	1063256064	61	4844
2026-01-03 10:21:24.34	337.59	21.05	-44.9	-47.3	19.3	0.00e+00	0	41	0	1065353216	61	4734
2026-01-03 10:21:25.34	337.64	20.92	-44.8	-47.3	19.3	0.00e+00	0	41	0	1067450368	61	4732
2026-01-03 10:21:26.34	337.68	20.78	-44.8	-47.3	19.4	0.00e+00	0	41	0	1068498944	61	4710
2026-01-03 10:21:27.34	337.72	20.65	-45.0	-47.6	19.3	0.00e+00	0	41	0	1070596096	61	4880
2026-01-03 10:21:28.35	337.76	20.52	-44.9	-47.4	19.4	0.00e+00	0	41	0	1072693248	61	4778
2026-01-03 10:21:29.35	337.80	20.39	-45.3	-47.8	19.4	0.00e+00	0	41	0	1074790400	61	5032
2026-01-03 10:21:30.35	337.84	20.26	-45.1	-47.6	19.2	0.00e+00	0	41	0	1075838976	61	4899
2026-01-03 10:21:31.36	337.88	20.13	-45.1	-47.6	19.1	0.00e+00	0	41	0	1077936128	61	4878
2026-01-03 10:21:32.36	337.92	20.00	-44.9	-47.2	19.5	0.00e+00	0	41	0	1080033280	61	4678
2026-01-03 10:21:33.36	337.96	19.87	-44.8	-47.1	19.5	0.00e+00	0	41	0	1082130432	61	4633
2026-01-03 10:21:34.37	338.00	19.74	-44.9	-47.1	19.5	0.00e+00	0	41	0	1084227584	61	4632
2026-01-03 10:21:35.36	338.04	19.61	-44.8	-47.1	19.6	0.00e+00	0	41	0	1085276160	61	4608
2026-01-03 10:21:36.37	338.08	19.49	-44.8	-47.0	19.6	0.00e+00	0	41	0	1087373312	61	4587
2026-01-03 10:21:37.37	338.12	19.36	-44.9	-47.2	19.5	0.00e+00	0	41	0	1089470464	61	4664
2026-01-03 10:21:38.37	338.15	19.23	-44.8	-47.0	19.6	0.00e+00	0	41	0	1091567616	61	4587
2026-01-03 10:21:39.38	338.19	19.11	-44.8	-47.0	19.7	0.00e+00	0	41	0	1093664768	61	4592
2026-01-03 10:21:40.38	338.23	18.99	-44.7	-47.0	19.6	0.00e+00	0	41	0	1094713344	61	4598
2026-01-03 10:21:41.38	338.27	18.86	-44.7	-47.1	19.5	0.00e+00	0	41	0	1096810496	61	4611
2026-01-03 10:21:42.39	338.30	18.74	-45.4	-47.7	19.4	0.00e+00	0	41	0	1098907648	61	4977
2026-01-03 10:21:43.39	338.34	18.62	-45.0	-47.3	19.5	0.00e+00	0	41	0	1101004800	61	4749
2026-01-03 10:21:44.39	338.38	18.49	-44.9	-47.2	19.4	0.00e+00	0	41	0	1103101952	61	4705
2026-01-03 10:21:45.40	338.41	18.37	-45.0	-47.3	19.4	0.00e+00	0	41	0	1104150528	61	4729
2026-01-03 10:21:46.40	338.45	18.25	-44.9	-47.2	19.4	0.00e+00	0	41	0	1106247680	61	4701
2026-01-03 10:21:47.40	338.48	18.13	-45.1	-47.4	19.2	0.00e+00	0	41	0	1108344832	61	4790
2026-01-03 10:21:48.41	338.52	18.01	-45.1	-47.4	19.2	0.00e+00	0	41	0	1110441984	61	4778
2026-01-03 10:21:49.41	338.56	17.89	-45.2	-47.5	19.1	7.00e-07	0	41	0	1112539136	61	4845
2026-01-03 10:21:50.41	338.59	17.77	-45.3	-47.7	19.0	0.00e+00	0	41	0	1113587712	61	4937
2026-01-03 10:21:51.41	338.62	17.66	-45.3	-47.7	19.0	0.00e+00	0	41	0	1115684864	61	4935
2026-01-03 10:21:52.41	338.66	17.54	-45.5	-47.9	18.8	0.00e+00	0	41	0	1117782016	61	5042
2026-01-03 10:21:53.42	338.69	17.42	-45.6	-48.0	18.7	0.00e+00	0	41	0	1119879168	61	5128
2026-01-03 10:21:54.42	338.73	17.31	-45.6	-48.1	18.6	0.00e+00	0	41	0	1121976320	61	5174
2026-01-03 10:21:55.42	338.76	17.19	-46.1	-48.6	18.3	0.00e+00	0	41	0	1123024896	62	5203
2026-01-03 10:21:56.43	338.79	17.08	-46.0	-48.6	18.2	0.00e+00	0	41	0	1125122048	62	5179
2026-01-03 10:21:57.43	338.83	16.96	-45.8	-48.3	18.3	0.00e+00	0	41	0	1127219200	62	5034
2026-01-03 10:21:58.44	338.86	16.85	-45.9	-48.6	18.1	0.00e+00	0	41	0	1129316352	62	5166
2026-01-03 10:21:59.44	338.89	16.73	-45.9	-48.6	18.1	0.00e+00	0	41	0	1130364928	62	5188
2026-01-03 10:22:00.44	338.93	16.62	-46.0	-48.7	18.0	0.00e+00	0	41	0	1132462080	62	5258
2026-01-03 10:22:01.45	338.96	16.51	-46.0	-48.7	17.9	0.00e+00	0	41	0	1134559232	62	5255
2026-01-03 10:22:02.45	338.99	16.40	-46.0	-48.8	17.9	0.00e+00	0	41	0	1136656384	62	5289
2026-01-03 10:22:03.46	339.02	16.28	-46.1	-48.9	17.7	0.00e+00	0	41	0	1138753536	62	5368
2026-01-03 10:22:04.46	339.06	16.17	-46.1	-48.9	17.8	0.00e+00	0	41	0	1139802112	62	5385
2026-01-03 10:22:05.46	339.09	16.06	-46.0	-48.8	17.8	0.00e+00	0	41	0	1141899264	62	5310
2026-01-03 10:22:06.47	339.12	15.95	-46.1	-48.9	17.7	0.00e+00	0	41	0	1143996416	62	5388
2026-01-03 10:22:07.47	339.15	15.84	-46.0	-48.8	17.8	0.00e+00	0	41	0	1146093568	62	5303
2026-01-03 10:22:08.47	339.18	15.73	-46.1	-48.9	17.7	0.00e+00	0	41	0	1148190720	63	5068
2026-01-03 10:22:09.48	339.21	15.63	-46.4	-49.2	17.6	0.00e+00	0	41	0	1149239296	64	4973
2026-01-03 10:22:10.48	339.24	15.52	-46.4	-49.2	17.5	0.00e+00	0	41	0	1151336448	64	4980
2026-01-03 10:22:11.48	339.27	15.41	-46.2	-49.0	17.6	0.00e+00	0	41	0	1153433600	64	4857
2026-01-03 10:22:12.48	339.30	15.30	-46.2	-48.9	17.6	0.00e+00	0	41	0	1155530752	64	4802
2026-01-03 10:22:13.49	339.33	15.20	-46.0	-48.8	17.8	0.00e+00	0	41	0	1157627904	64	4717
2026-01-03 10:22:14.49	339.36	15.09	-46.1	-48.9	17.7	0.00e+00	0	41	0	1158676480	63	5059
2026-01-03 10:22:15.49	339.39	14.98	-45.9	-48.8	17.9	0.00e+00	0	41	0	1160773632	63	4993
2026-01-03 10:22:16.49	339.42	14.88	-45.9	-48.8	17.8	0.00e+00	0	41	0	1162870784	63	4993
2026-01-03 10:22:17.49	339.45	14.78	-45.8	-48.7	17.9	0.00e+00	0	41	0	1164967936	63	4970
2026-01-03 10:22:18.50	339.48	14.67	-45.7	-48.7	17.8	0.00e+00	0	41	0	1167065088	63	4973
2026-01-03 10:22:19.50	339.51	14.57	-45.7	-49.0	17.8	0.00e+00	0	41	0	1168113664	63	5109
2026-01-03 10:22:20.51	339.54	14.46	-45.3	-49.1	17.6	0.00e+00	0	41	0	1170210816	62	5482
2026-01-03 10:22:21.51	339.57	14.36	-45.0	-49.0	17.5	0.00e+00	0	41	0	1172307968	61	5729
2026-01-03 10:22:22.51	339.60	14.26	-45.2	-49.0	17.6	0.00e+00	0	41	0	1174405120	61	5746
2026-01-03 10:22:23.52	339.62	14.15	-45.6	-49.1	17.6	0.00e+00	0	41	0	1175453696	61	5799
2026-01-03 10:22:24.52	339.65	14.05	-45.8	-49.0	17.6	0.00e+00	0	41	0	1177550848	62	5417
2026-01-03 10:22:25.52	339.68	13.95	-45.8	-49.0	17.6	0.00e+00	0	41	0	1179648000	62	5420
2026-01-03 10:22:26.52	339.71	13.85	-45.9	-48.9	17.7	0.00e+00	0	41	0	1181745152	62	5359
2026-01-03 10:22:27.53	339.74	13.75	-46.0	-48.9	17.7	0.00e+00	0	41	0	1183842304	62	5365
2026-01-03 10:22:28.53	339.76	13.65	-46.0	-48.9	17.6	0.00e+00	0	41	0	1185939456	62	5400
2026-01-03 10:22:29.53	339.79	13.55	-46.1	-49.0	17.5	0.00e+00	0	41	0	1186988032	62	5404
2026-01-03 10:22:30.54	339.82	13.45	-46.1	-48.9	17.5	0.00e+00	0	41	0	1189085184	62	5386
2026-01-03 10:22:31.54	339.84	13.35	-46.3	-49.1	17.4	0.00e+00	0	41	0	1191182336	63	5168
2026-01-03 10:22:32.55	339.87	13.25	-46.3	-49.2	17.3	0.00e+00	0	41	0	1193279488	63	5225
2026-01-03 10:22:33.55	339.90	13.16	-46.6	-49.5	17.3	0.00e+00	0	41	0	1194328064	64	5127
2026-01-03 10:22:34.55	339.92	13.06	-46.6	-49.5	17.2	0.00e+00	0	41	0	1196425216	64	5129
2026-01-03 10:22:35.55	339.95	12.96	-46.4	-49.3	17.3	0.00e+00	0	41	0	1198522368	64	5007
2026-01-03 10:22:36.56	339.98	12.86	-46.3	-49.2	17.3	0.00e+00	0	41	0	1200619520	64	4953
2026-01-03 10:22:37.56	340.00	12.77	-46.1	-49.1	17.2	0.00e+00	0	41	0	1202716672	64	4915
2026-01-03 10:22:38.56	340.03	12.67	-46.1	-49.1	17.2	0.00e+00	0	41	0	1203765248	64	4925
2026-01-03 10:22:39.57	340.06	12.58	-46.1	-49.2	17.2	0.00e+00	0	41	0	1205862400	64	4952
2026-01-03 10:22:40.57	340.08	12.48	-46.0	-49.1	17.2	0.00e+00	0	41	0	1207959552	64	4926
2026-01-03 10:22:41.57	340.11	12.39	-46.2	-49.3	17.2	0.00e+00	0	41	0	1210056704	64	5031
2026-01-03 10:22:42.57	340.13	12.29	-46.3	-49.4	17.2	0.00e+00	0	41	0	1212153856	64	5072
2026-01-03 10:22:43.57	340.16	12.20	-46.2	-49.3	17.2	0.00e+00	0	41	0	1213202432	64	5021
