passes_logs/2026/01/03/T1/T1__20260103_082041_KHAYYAM_rec.log

#Pass ID: 20260103_082041_KHAYYAM
#Satellite: KHAYYAM
#Configuration: KHAYYAM_480M
#almurnet v.1.7.20251203
#Start time: 2026-01-03 08:20:42

#Version: 2.0.20230620
#Station: T1
#Location: 37.570604 lon 55.790049 lat
#TLE: 1 53370U 22096A   26003.01253182  .00010523  00000+0  42828-3 0  9997
#TLE: 2 53370  97.3571 270.2359 0001218  82.0403 278.0973 15.24686356189414

#Time	Az	El	Level	Level2	SNR	BER	BlckErr	Temp	State	Recorded	gain1	gain2
2026-01-03 08:20:42.05	182.62	5.08	-56.0	-60.5	3.5	0.00e+00	0	44	0	0	83	24433
2026-01-03 08:20:43.05	182.67	5.16	-54.8	-59.9	3.7	0.00e+00	0	45	104	0	80	26983
2026-01-03 08:20:44.05	182.73	5.24	-54.7	-59.9	3.7	0.00e+00	0	45	104	0	80	27020
2026-01-03 08:20:45.05	182.78	5.32	-54.7	-59.8	3.7	0.00e+00	0	45	104	0	80	26857
2026-01-03 08:20:46.05	182.83	5.40	-54.7	-59.8	3.7	0.00e+00	0	45	104	0	80	26867
2026-01-03 08:20:47.05	182.89	5.48	-54.7	-59.9	3.7	0.00e+00	0	45	104	0	80	26909
2026-01-03 08:20:48.05	182.94	5.56	-54.7	-59.8	3.7	0.00e+00	0	45	104	0	80	26879
2026-01-03 08:20:49.04	183.00	5.64	-54.7	-59.9	3.7	0.00e+00	0	45	104	0	80	27009
2026-01-03 08:20:50.04	183.05	5.72	-54.7	-59.9	3.7	0.00e+00	0	46	104	0	80	26895
2026-01-03 08:20:51.04	183.11	5.81	-54.6	-59.8	3.7	0.00e+00	0	46	104	0	80	26615
2026-01-03 08:20:52.04	183.16	5.89	-54.6	-59.7	3.6	0.00e+00	0	46	104	0	80	26565
2026-01-03 08:20:53.04	183.22	5.97	-55.1	-60.2	3.7	0.00e+00	0	46	104	0	80	28153
2026-01-03 08:20:54.04	183.28	6.05	-54.8	-59.9	3.7	0.00e+00	0	46	104	0	80	27128
2026-01-03 08:20:55.04	183.33	6.14	-54.6	-59.8	3.7	0.00e+00	0	46	104	0	80	26605
2026-01-03 08:20:56.04	183.39	6.22	-54.6	-59.8	3.7	0.00e+00	0	46	104	0	80	26612
2026-01-03 08:20:57.03	183.45	6.31	-54.7	-59.8	3.7	0.00e+00	0	46	104	0	80	26875
2026-01-03 08:20:58.03	183.51	6.39	-54.6	-59.8	3.7	0.00e+00	0	46	104	0	80	26696
2026-01-03 08:20:59.04	183.56	6.48	-54.6	-59.7	3.7	0.00e+00	0	47	104	0	80	26578
2026-01-03 08:21:00.04	183.62	6.56	-54.6	-59.8	3.7	0.00e+00	0	47	104	0	80	26747
2026-01-03 08:21:01.03	183.68	6.65	-54.8	-60.0	3.6	0.00e+00	0	46	104	0	80	27303
2026-01-03 08:21:02.03	183.74	6.73	-54.7	-59.8	3.7	0.00e+00	0	47	104	0	80	26887
2026-01-03 08:21:03.03	183.80	6.82	-54.6	-59.8	3.7	0.00e+00	0	47	104	0	80	26699
2026-01-03 08:21:04.03	183.86	6.91	-54.7	-59.8	3.7	0.00e+00	0	47	104	0	80	26887
2026-01-03 08:21:05.03	183.93	6.99	-54.7	-59.8	3.7	0.00e+00	0	47	104	0	80	26791
2026-01-03 08:21:06.03	183.99	7.08	-54.7	-59.8	3.7	0.00e+00	0	47	104	0	80	26717
2026-01-03 08:21:07.02	184.05	7.17	-54.6	-59.8	3.7	0.00e+00	0	47	104	0	80	26708
2026-01-03 08:21:08.02	184.11	7.26	-54.7	-59.8	3.7	0.00e+00	0	47	104	0	80	26663
2026-01-03 08:21:09.03	184.17	7.35	-54.7	-59.8	3.7	0.00e+00	0	47	104	0	80	26786
2026-01-03 08:21:10.02	184.24	7.44	-54.7	-59.8	3.7	0.00e+00	0	47	104	0	80	26874
2026-01-03 08:21:11.02	184.30	7.53	-54.6	-59.7	3.7	0.00e+00	0	48	104	0	80	26555
2026-01-03 08:21:12.02	184.37	7.62	-54.7	-59.9	3.7	0.00e+00	0	47	104	0	80	26926
2026-01-03 08:21:13.02	184.43	7.71	-54.7	-59.8	3.7	0.00e+00	0	48	104	0	80	26601
2026-01-03 08:21:14.02	184.50	7.80	-54.6	-59.7	3.7	0.00e+00	0	47	104	0	80	26512
2026-01-03 08:21:15.01	184.56	7.89	-54.6	-59.7	3.7	0.00e+00	0	48	104	0	80	26455
2026-01-03 08:21:16.00	184.63	7.98	-54.6	-59.7	3.7	0.00e+00	0	48	104	0	80	26503
2026-01-03 08:21:17.00	184.69	8.07	-55.2	-60.3	3.7	0.00e+00	0	48	104	0	81	26646
2026-01-03 08:21:18.00	184.76	8.16	-54.7	-59.8	3.7	0.00e+00	0	48	104	0	81	25303
2026-01-03 08:21:19.00	184.83	8.26	-54.6	-59.7	3.7	0.00e+00	0	48	104	0	81	25047
2026-01-03 08:21:20.00	184.90	8.35	-54.6	-59.7	3.7	0.00e+00	0	48	104	0	81	24938
2026-01-03 08:21:21.01	184.97	8.44	-54.6	-59.8	3.7	0.00e+00	0	48	104	0	81	25143
2026-01-03 08:21:22.00	185.04	8.54	-54.7	-59.9	3.7	0.00e+00	0	48	104	0	81	25420
2026-01-03 08:21:23.00	185.11	8.63	-54.7	-59.8	3.7	0.00e+00	0	48	104	0	81	25303
2026-01-03 08:21:24.00	185.18	8.73	-54.6	-59.8	3.7	0.00e+00	0	48	104	0	81	25148
2026-01-03 08:21:25.01	185.25	8.82	-54.7	-59.8	3.7	0.00e+00	0	48	104	0	81	25171
2026-01-03 08:21:26.00	185.32	8.92	-54.6	-59.8	3.7	0.00e+00	0	48	104	0	81	25221
2026-01-03 08:21:27.00	185.39	9.02	-54.6	-59.7	3.7	0.00e+00	0	48	104	0	81	24948
2026-01-03 08:21:28.00	185.47	9.11	-54.7	-59.7	3.7	0.00e+00	0	48	104	0	81	25081
2026-01-03 08:21:29.00	185.54	9.21	-54.9	-60.0	3.7	0.00e+00	0	48	104	0	81	25768
2026-01-03 08:21:30.00	185.61	9.31	-54.9	-60.0	3.7	0.00e+00	0	49	104	0	81	25820
2026-01-03 08:21:31.00	185.69	9.41	-54.9	-60.0	3.7	0.00e+00	0	48	104	0	81	25964
2026-01-03 08:21:32.00	185.76	9.51	-54.9	-59.9	3.7	0.00e+00	0	48	104	0	81	25456
2026-01-03 08:21:32.99	185.84	9.61	-55.2	-60.2	3.7	0.00e+00	0	48	104	0	81	26577
2026-01-03 08:21:33.99	185.91	9.71	-54.9	-60.0	3.7	0.00e+00	0	49	104	0	81	25717
2026-01-03 08:21:34.99	185.99	9.81	-55.2	-60.3	3.7	0.00e+00	0	49	104	0	81	26685
2026-01-03 08:21:35.99	186.07	9.91	-55.3	-60.3	3.7	0.00e+00	0	49	104	0	81	26647
2026-01-03 08:21:36.99	186.15	10.01	-55.6	-60.5	3.7	0.00e+00	0	49	104	0	81	27281
2026-01-03 08:21:37.99	186.23	10.11	-55.1	-60.1	3.7	0.00e+00	0	49	104	0	81	26204
2026-01-03 08:21:38.99	186.31	10.21	-56.0	-60.8	3.7	0.00e+00	0	49	104	0	82	26621
2026-01-03 08:21:39.98	186.39	10.32	-55.8	-60.7	3.7	0.00e+00	0	49	104	0	82	26301
2026-01-03 08:21:40.98	186.47	10.42	-55.5	-60.4	3.7	0.00e+00	0	49	104	0	82	25573
2026-01-03 08:21:41.98	186.55	10.52	-55.4	-60.3	3.7	0.00e+00	0	49	104	0	82	25377
2026-01-03 08:21:42.98	186.63	10.63	-55.7	-60.3	3.7	0.00e+00	0	49	104	0	82	25312
2026-01-03 08:21:43.97	186.71	10.73	-55.7	-60.5	3.7	0.00e+00	0	49	104	0	82	25954
2026-01-03 08:21:44.97	186.80	10.84	-55.3	-60.2	3.7	0.00e+00	0	49	104	0	82	25006
2026-01-03 08:21:45.97	186.88	10.95	-55.6	-60.4	3.7	0.00e+00	0	49	104	0	82	25582
2026-01-03 08:21:46.97	186.97	11.05	-55.5	-60.4	3.7	0.00e+00	0	49	104	0	82	25396
2026-01-03 08:21:47.97	187.05	11.16	-55.3	-60.2	3.7	0.00e+00	0	49	104	0	82	24938
2026-01-03 08:21:48.97	187.14	11.27	-55.5	-60.2	3.7	0.00e+00	0	49	104	0	82	25028
2026-01-03 08:21:49.97	187.23	11.38	-55.4	-60.3	3.7	0.00e+00	0	49	104	0	82	25295
2026-01-03 08:21:50.97	187.32	11.49	-54.9	-59.9	3.7	0.00e+00	0	49	104	0	81	25561
2026-01-03 08:21:51.97	187.40	11.60	-55.0	-59.9	3.7	0.00e+00	0	49	104	0	81	25485
2026-01-03 08:21:52.97	187.49	11.71	-55.3	-60.1	3.7	0.00e+00	0	49	104	0	81	26081
2026-01-03 08:21:53.97	187.58	11.82	-55.2	-59.9	3.6	0.00e+00	0	49	104	0	81	25566
2026-01-03 08:21:54.96	187.68	11.93	-54.9	-59.9	3.7	0.00e+00	0	49	104	0	81	25457
2026-01-03 08:21:55.97	187.77	12.04	-55.4	-60.2	3.7	0.00e+00	0	49	104	0	81	26560
2026-01-03 08:21:56.97	187.86	12.16	-55.7	-60.4	3.7	0.00e+00	0	49	104	0	82	25550
2026-01-03 08:21:57.97	187.96	12.27	-55.1	-60.0	3.7	0.00e+00	0	49	104	0	82	24284
2026-01-03 08:21:58.96	188.05	12.39	-55.6	-60.4	3.7	0.00e+00	0	49	104	0	82	25417
2026-01-03 08:21:59.96	188.15	12.50	-56.0	-60.8	3.7	0.00e+00	0	49	104	0	82	26784
2026-01-03 08:22:00.96	188.24	12.62	-55.8	-60.6	3.7	0.00e+00	0	49	104	0	82	26136
2026-01-03 08:22:01.96	188.34	12.73	-55.6	-60.4	3.7	0.00e+00	0	49	104	0	82	25528
2026-01-03 08:22:02.96	188.44	12.85	-55.9	-60.7	3.7	0.00e+00	0	49	104	0	82	26368
2026-01-03 08:22:03.95	188.54	12.97	-55.8	-60.7	3.7	0.00e+00	0	49	104	0	82	26350
2026-01-03 08:22:04.95	188.64	13.09	-55.6	-60.4	3.7	0.00e+00	0	49	104	0	82	25621
2026-01-03 08:22:05.94	188.74	13.20	-55.8	-60.6	3.7	0.00e+00	0	49	104	0	82	26166
2026-01-03 08:22:06.94	188.84	13.32	-55.5	-60.4	3.7	0.00e+00	0	50	104	0	82	25612
2026-01-03 08:22:07.94	188.94	13.44	-55.8	-60.7	3.7	0.00e+00	0	49	104	0	82	26355
2026-01-03 08:22:08.94	189.05	13.57	-54.9	-59.9	3.7	0.00e+00	0	49	104	0	81	25641
2026-01-03 08:22:09.94	189.15	13.69	-55.6	-60.5	3.7	0.00e+00	0	49	104	0	81	27285
2026-01-03 08:22:10.94	189.26	13.81	-54.5	-59.7	3.7	0.00e+00	0	49	104	0	81	24960
2026-01-03 08:22:11.94	189.36	13.94	-54.3	-59.3	3.7	0.00e+00	0	49	104	0	80	25177
2026-01-03 08:22:12.94	189.47	14.06	-54.3	-59.4	3.7	0.00e+00	0	49	104	0	80	25455
2026-01-03 08:22:13.93	189.58	14.18	-54.2	-59.4	3.7	0.00e+00	0	49	104	0	80	25486
2026-01-03 08:22:14.93	189.69	14.31	-54.4	-59.4	3.7	0.00e+00	0	49	104	0	80	25513
2026-01-03 08:22:15.93	189.80	14.44	-54.5	-59.4	3.7	0.00e+00	0	49	104	0	80	25388
2026-01-03 08:22:16.93	189.91	14.56	-54.7	-59.7	3.7	0.00e+00	0	49	104	0	80	26442
2026-01-03 08:22:17.93	190.03	14.69	-54.8	-59.5	3.7	0.00e+00	0	49	104	0	80	25834
2026-01-03 08:22:18.93	190.14	14.82	-54.3	-59.4	3.7	0.00e+00	0	50	104	0	80	25531
2026-01-03 08:22:19.93	190.26	14.95	-54.9	-59.9	3.7	0.00e+00	0	50	104	0	80	27075
2026-01-03 08:22:20.93	190.38	15.08	-55.0	-59.9	3.7	0.00e+00	0	50	104	0	80	27075
2026-01-03 08:22:21.93	190.49	15.21	-55.2	-60.0	3.7	0.00e+00	0	50	104	0	81	25683
2026-01-03 08:22:22.92	190.61	15.35	-54.9	-59.6	3.7	0.00e+00	0	49	104	0	81	24763
2026-01-03 08:22:23.93	190.73	15.48	-55.2	-60.0	3.7	0.00e+00	0	50	104	0	81	25914
2026-01-03 08:22:24.93	190.86	15.62	-55.5	-60.4	3.7	0.00e+00	0	50	104	0	81	27119
2026-01-03 08:22:25.93	190.98	15.75	-55.4	-60.2	3.7	0.00e+00	0	49	104	0	81	26439
2026-01-03 08:22:26.92	191.10	15.88	-55.5	-60.2	3.7	0.00e+00	0	49	104	0	81	26553
2026-01-03 08:22:27.92	191.23	16.02	-55.6	-60.4	3.7	0.00e+00	0	50	104	0	81	26893
2026-01-03 08:22:28.92	191.36	16.16	-55.6	-60.4	3.7	0.00e+00	0	50	104	0	81	27002
2026-01-03 08:22:29.92	191.48	16.30	-56.2	-61.0	3.7	0.00e+00	0	50	104	0	83	25946
2026-01-03 08:22:30.91	191.61	16.44	-55.8	-60.7	3.7	0.00e+00	0	50	104	0	83	24897
2026-01-03 08:22:31.91	191.74	16.58	-55.6	-60.6	3.7	0.00e+00	0	50	104	0	83	24625
2026-01-03 08:22:32.91	191.88	16.72	-56.0	-60.7	3.7	0.00e+00	0	50	104	0	83	24826
2026-01-03 08:22:33.91	192.01	16.86	-55.6	-60.5	3.7	0.00e+00	0	50	104	0	83	24352
2026-01-03 08:22:34.91	192.15	17.00	-56.1	-60.8	3.7	0.00e+00	0	50	104	0	83	25298
2026-01-03 08:22:35.91	192.28	17.15	-56.3	-61.0	3.7	0.00e+00	0	50	104	0	83	25827
2026-01-03 08:22:36.91	192.42	17.29	-55.9	-60.6	3.7	0.00e+00	0	50	104	0	83	24626
2026-01-03 08:22:37.90	192.56	17.44	-56.2	-60.8	3.7	0.00e+00	0	50	104	0	83	25227
2026-01-03 08:22:38.90	192.70	17.59	-55.9	-60.6	3.7	0.00e+00	0	50	104	0	83	24655
2026-01-03 08:22:39.90	192.84	17.73	-55.9	-60.6	3.7	0.00e+00	0	50	104	0	83	24682
2026-01-03 08:22:40.90	192.99	17.88	-55.7	-60.5	3.7	0.00e+00	0	50	104	0	83	24335
2026-01-03 08:22:41.90	193.14	18.03	-55.9	-60.7	3.7	0.00e+00	0	50	104	0	83	24929
2026-01-03 08:22:42.90	193.28	18.18	-55.8	-60.6	3.7	0.00e+00	0	50	104	0	83	24805
2026-01-03 08:22:43.90	193.43	18.34	-55.9	-60.5	3.7	0.00e+00	0	50	104	0	83	24382
2026-01-03 08:22:44.89	193.58	18.49	-55.8	-60.4	3.7	0.00e+00	0	50	104	0	83	24007
2026-01-03 08:22:45.89	193.74	18.64	-56.0	-60.7	3.7	0.00e+00	0	50	104	0	83	24929
2026-01-03 08:22:46.90	193.89	18.80	-55.9	-60.7	3.7	0.00e+00	0	50	104	0	83	24843
2026-01-03 08:22:47.90	194.05	18.96	-55.4	-60.2	3.7	0.00e+00	0	50	104	0	82	24851
2026-01-03 08:22:48.89	194.21	19.11	-55.4	-60.2	3.7	0.00e+00	0	50	104	0	82	24936
2026-01-03 08:22:49.89	194.37	19.27	-55.4	-60.1	3.7	0.00e+00	0	50	104	0	82	24623
2026-01-03 08:22:50.89	194.53	19.43	-55.6	-60.3	3.7	0.00e+00	0	50	104	0	82	25384
2026-01-03 08:22:51.89	194.70	19.59	-55.7	-60.5	3.7	0.00e+00	0	50	104	0	82	25836
2026-01-03 08:22:52.88	194.86	19.75	-55.8	-60.7	3.7	0.00e+00	0	50	104	0	82	26284
2026-01-03 08:22:53.88	195.03	19.92	-55.9	-60.7	3.7	0.00e+00	0	50	104	0	82	26486
2026-01-03 08:22:54.88	195.20	20.08	-55.9	-60.4	3.7	0.00e+00	0	50	104	0	82	25615
2026-01-03 08:22:55.87	195.37	20.25	-56.0	-60.7	3.7	0.00e+00	0	50	104	0	82	26407
2026-01-03 08:22:56.87	195.54	20.41	-56.4	-61.0	3.7	0.00e+00	0	50	104	0	83	25804
2026-01-03 08:22:57.87	195.72	20.58	-56.2	-60.6	3.7	0.00e+00	0	50	104	0	83	24712
2026-01-03 08:22:58.87	195.90	20.75	-56.1	-60.7	3.7	0.00e+00	0	50	104	0	83	25004
2026-01-03 08:22:59.87	196.08	20.92	-56.2	-60.7	3.7	0.00e+00	0	50	104	0	83	24971
2026-01-03 08:23:00.87	196.26	21.09	-56.3	-60.8	3.7	0.00e+00	0	50	104	0	83	25303
2026-01-03 08:23:01.87	196.45	21.26	-56.3	-60.9	3.7	0.00e+00	0	50	104	0	83	25443
2026-01-03 08:23:02.87	196.64	21.44	-56.4	-60.8	3.7	0.00e+00	0	50	104	0	83	25355
2026-01-03 08:23:03.87	196.83	21.61	-56.3	-60.8	3.7	0.00e+00	0	50	104	0	83	25271
2026-01-03 08:23:04.87	197.02	21.79	-56.9	-61.5	3.7	0.00e+00	0	50	104	0	84	25722
2026-01-03 08:23:05.87	197.21	21.97	-56.5	-61.1	3.7	0.00e+00	0	50	104	0	84	24652
2026-01-03 08:23:06.88	197.41	22.15	-56.5	-61.0	3.7	0.00e+00	0	50	104	0	84	24483
2026-01-03 08:23:07.88	197.61	22.33	-56.5	-61.1	3.7	0.00e+00	0	50	104	0	84	24591
2026-01-03 08:23:08.88	197.82	22.51	-56.3	-60.9	3.7	0.00e+00	0	50	104	0	84	24160
2026-01-03 08:23:09.88	198.02	22.69	-56.2	-60.9	3.7	0.00e+00	0	50	104	0	84	24110
2026-01-03 08:23:10.88	198.23	22.88	-56.3	-61.0	3.7	0.00e+00	0	50	104	0	84	24288
2026-01-03 08:23:11.88	198.44	23.06	-56.5	-61.1	3.7	0.00e+00	0	50	104	0	84	24773
2026-01-03 08:23:12.88	198.66	23.25	-56.4	-60.9	3.7	0.00e+00	0	50	104	0	84	24085
2026-01-03 08:23:13.88	198.87	23.44	-57.2	-61.6	3.7	0.00e+00	0	50	104	0	84	26006
2026-01-03 08:23:14.88	199.09	23.63	-56.7	-61.2	3.7	0.00e+00	0	50	104	0	85	23475
2026-01-03 08:23:15.88	199.31	23.82	-56.5	-60.7	3.7	0.00e+00	0	50	104	0	84	23620
2026-01-03 08:23:16.89	199.54	24.01	-56.8	-61.4	3.7	0.00e+00	0	50	104	0	84	25420
2026-01-03 08:23:17.89	199.77	24.20	-56.8	-61.4	3.7	0.00e+00	0	50	104	0	84	25606
2026-01-03 08:23:18.89	200.00	24.40	-56.8	-61.4	3.7	0.00e+00	0	50	104	0	84	25534
2026-01-03 08:23:19.88	200.23	24.59	-56.7	-61.3	3.7	0.00e+00	0	50	104	0	84	25119
2026-01-03 08:23:20.88	200.47	24.79	-56.9	-61.1	3.7	0.00e+00	0	50	104	0	84	24622
2026-01-03 08:23:21.88	200.71	24.99	-57.1	-61.5	3.7	0.00e+00	0	50	104	0	84	25704
2026-01-03 08:23:22.88	200.96	25.19	-57.2	-61.6	3.7	0.00e+00	0	50	104	0	85	24736
2026-01-03 08:23:23.88	201.20	25.39	-56.8	-61.1	3.7	0.00e+00	0	50	104	0	85	23155
2026-01-03 08:23:24.88	201.46	25.59	-57.1	-61.5	3.7	0.00e+00	0	50	104	0	85	24341
2026-01-03 08:23:25.88	201.71	25.80	-56.9	-61.3	3.7	0.00e+00	0	50	104	0	85	23771
2026-01-03 08:23:26.88	201.97	26.00	-57.0	-61.4	3.7	0.00e+00	0	50	104	0	85	24119
2026-01-03 08:23:27.88	202.23	26.21	-56.2	-60.2	3.7	0.00e+00	0	50	104	0	84	22187
2026-01-03 08:23:28.87	202.50	26.41	-56.9	-61.5	3.7	0.00e+00	0	50	104	0	84	25703
2026-01-03 08:23:29.88	202.77	26.63	-56.1	-60.2	3.7	0.00e+00	0	50	104	0	84	22161
2026-01-03 08:23:30.87	203.04	26.84	-55.7	-59.6	3.7	0.00e+00	0	50	104	0	83	22108
2026-01-03 08:23:31.87	203.32	27.05	-56.0	-59.9	3.7	0.00e+00	0	50	104	0	83	22729
2026-01-03 08:23:32.87	203.60	27.26	-56.0	-59.8	3.7	0.00e+00	0	50	104	0	83	22437
2026-01-03 08:23:33.87	203.88	27.48	-55.6	-59.1	3.7	0.00e+00	0	50	104	0	82	22008
2026-01-03 08:23:34.87	204.18	27.69	-56.2	-60.2	3.7	0.00e+00	0	50	104	0	83	23487
2026-01-03 08:23:35.87	204.47	27.91	-56.6	-61.0	3.7	0.00e+00	0	50	104	0	83	25740
2026-01-03 08:23:36.87	204.77	28.13	-57.1	-61.6	3.7	0.00e+00	0	50	104	0	84	25981
2026-01-03 08:23:37.87	205.07	28.35	-56.7	-61.0	3.7	0.00e+00	0	50	104	0	84	24274
2026-01-03 08:23:38.87	205.38	28.57	-56.7	-60.9	3.7	0.00e+00	0	50	104	0	84	24151
2026-01-03 08:23:39.87	205.69	28.79	-56.9	-61.1	3.7	0.00e+00	0	50	104	0	84	24645
2026-01-03 08:23:40.87	206.01	29.02	-56.9	-61.3	3.7	0.00e+00	0	50	104	0	84	25174
2026-01-03 08:23:41.87	206.33	29.24	-57.1	-61.5	3.7	0.00e+00	0	50	104	0	84	25931
2026-01-03 08:23:42.87	206.66	29.47	-57.2	-61.7	3.7	0.00e+00	0	50	104	0	85	24983
2026-01-03 08:23:43.86	206.99	29.70	-57.1	-61.6	3.7	0.00e+00	0	51	104	0	85	24694
2026-01-03 08:23:44.86	207.32	29.93	-57.0	-61.7	3.7	0.00e+00	0	50	104	0	85	24823
2026-01-03 08:23:45.86	207.66	30.16	-56.9	-61.3	3.7	0.00e+00	0	50	104	0	85	23817
2026-01-03 08:23:46.86	208.01	30.39	-57.1	-61.6	3.7	0.00e+00	0	50	104	0	85	24674
2026-01-03 08:23:47.86	208.36	30.62	-56.9	-61.4	3.7	0.00e+00	0	51	104	0	85	24201
2026-01-03 08:23:48.85	208.72	30.85	-57.2	-61.7	3.7	0.00e+00	0	51	104	0	85	25060
2026-01-03 08:23:49.85	209.08	31.09	-56.9	-61.3	3.7	0.00e+00	0	50	104	0	85	23849
2026-01-03 08:23:50.85	209.45	31.32	-57.1	-61.7	3.7	0.00e+00	0	50	104	0	85	25059
2026-01-03 08:23:51.85	209.83	31.56	-56.9	-61.6	3.7	0.00e+00	0	50	104	0	85	24550
2026-01-03 08:23:52.85	210.21	31.80	-57.0	-61.3	3.7	0.00e+00	0	50	104	0	85	23949
2026-01-03 08:23:53.85	210.60	32.04	-56.8	-61.0	3.7	0.00e+00	0	50	104	0	85	22950
2026-01-03 08:23:54.85	210.99	32.28	-57.1	-61.6	3.7	0.00e+00	0	50	104	0	85	24603
2026-01-03 08:23:55.85	211.39	32.52	-56.8	-61.1	3.7	0.00e+00	0	50	104	0	85	23278
2026-01-03 08:23:56.86	211.80	32.76	-56.1	-60.5	3.7	0.00e+00	0	50	104	0	84	22951
2026-01-03 08:23:57.85	212.21	33.00	-56.0	-60.2	3.7	0.00e+00	0	50	104	0	84	22139
2026-01-03 08:23:58.85	212.62	33.24	-56.3	-60.1	3.7	0.00e+00	0	50	104	0	84	21891
2026-01-03 08:23:59.85	213.05	33.49	-56.8	-61.4	3.7	0.00e+00	0	51	104	0	84	25603
2026-01-03 08:24:00.86	213.49	33.74	-56.8	-60.7	3.7	0.00e+00	0	50	104	0	84	23626
2026-01-03 08:24:01.86	213.93	33.98	-57.1	-61.5	3.7	0.00e+00	0	50	104	0	85	24272
2026-01-03 08:24:02.86	214.37	34.23	-57.0	-61.3	3.7	0.00e+00	0	50	104	0	85	23775
2026-01-03 08:24:03.86	214.83	34.47	-56.7	-61.6	3.7	0.00e+00	0	50	104	0	85	24542
2026-01-03 08:24:04.86	215.29	34.72	-56.5	-61.0	3.7	0.00e+00	0	50	104	0	84	24405
2026-01-03 08:24:05.87	215.76	34.97	-56.7	-61.5	3.7	0.00e+00	0	50	104	0	84	25750
2026-01-03 08:24:06.86	216.23	35.21	-57.2	-61.8	3.7	0.00e+00	0	51	104	0	85	25234
2026-01-03 08:24:07.87	216.72	35.46	-56.8	-61.5	3.7	0.00e+00	0	50	104	0	85	24274
2026-01-03 08:24:08.87	217.21	35.71	-56.4	-61.3	3.7	0.00e+00	0	51	104	0	84	25189
2026-01-03 08:24:09.87	217.71	35.95	-56.6	-61.5	3.7	0.00e+00	0	50	104	0	84	25697
2026-01-03 08:24:10.87	218.21	36.20	-56.4	-61.4	3.7	0.00e+00	0	50	104	0	84	25529
2026-01-03 08:24:11.87	218.73	36.45	-56.7	-61.8	3.7	0.00e+00	0	50	104	0	84	26603
2026-01-03 08:24:12.87	219.25	36.69	-56.9	-61.8	3.7	0.00e+00	0	50	104	0	84	26884
2026-01-03 08:24:13.86	219.78	36.94	-56.8	-61.8	3.6	0.00e+00	0	51	104	0	84	26788
2026-01-03 08:24:14.87	220.32	37.18	-57.1	-61.8	3.7	0.00e+00	0	51	104	0	84	26796
2026-01-03 08:24:15.87	220.87	37.43	-56.6	-61.7	3.7	0.00e+00	0	50	104	0	84	26561
2026-01-03 08:24:16.86	221.42	37.67	-56.9	-62.0	3.7	0.00e+00	0	51	104	0	84	27234
2026-01-03 08:24:17.86	221.99	37.91	-56.8	-61.9	3.7	0.00e+00	0	51	104	0	84	26982
2026-01-03 08:24:18.86	222.57	38.16	-57.7	-62.5	3.7	0.00e+00	0	51	104	0	86	25856
2026-01-03 08:24:19.86	223.15	38.40	-57.5	-62.1	3.7	0.00e+00	0	50	104	0	86	24650
2026-01-03 08:24:20.86	223.74	38.64	-56.8	-61.7	3.7	0.00e+00	0	51	104	0	85	24874
2026-01-03 08:24:21.86	224.34	38.87	-57.1	-62.0	3.7	0.00e+00	0	50	104	0	85	25740
2026-01-03 08:24:22.86	224.95	39.11	-57.0	-61.9	3.7	0.00e+00	0	51	104	0	85	25606
2026-01-03 08:24:23.86	225.57	39.35	-57.2	-61.6	3.7	0.00e+00	0	50	104	0	85	24613
2026-01-03 08:24:24.86	226.20	39.58	-56.8	-61.1	3.7	0.00e+00	0	50	104	0	85	23276
2026-01-03 08:24:25.86	226.84	39.81	-57.3	-61.7	3.7	0.00e+00	0	50	104	0	85	25053
2026-01-03 08:24:26.86	227.49	40.04	-57.0	-61.6	3.7	0.00e+00	0	51	104	0	85	24699
2026-01-03 08:24:27.86	228.15	40.27	-56.7	-60.6	3.7	0.00e+00	0	50	104	0	85	22026
2026-01-03 08:24:28.85	228.81	40.49	-56.8	-60.6	3.7	0.00e+00	0	51	104	0	85	22047
2026-01-03 08:24:29.85	229.49	40.71	-56.9	-60.7	3.7	0.00e+00	0	51	104	0	85	22272
2026-01-03 08:24:30.86	230.18	40.93	-56.8	-60.9	3.7	0.00e+00	0	50	104	0	85	22626
2026-01-03 08:24:31.86	230.88	41.15	-56.6	-60.5	3.7	0.00e+00	0	51	104	0	85	21779
2026-01-03 08:24:32.86	231.59	41.36	-55.5	-59.1	3.7	0.00e+00	0	51	104	0	83	20651
2026-01-03 08:24:33.86	232.30	41.57	-56.1	-60.3	3.7	0.00e+00	0	51	104	0	82	25104
2026-01-03 08:24:34.86	233.03	41.78	-56.9	-61.5	3.7	0.00e+00	0	51	104	0	84	25758
2026-01-03 08:24:35.86	233.76	41.98	-57.3	-61.9	3.7	0.00e+00	0	51	104	0	85	25391
2026-01-03 08:24:36.85	234.50	42.17	-57.0	-61.1	3.7	0.00e+00	0	50	104	0	85	23261
2026-01-03 08:24:37.85	235.25	42.37	-57.0	-61.1	3.7	0.00e+00	0	51	104	0	85	23399
2026-01-03 08:24:38.85	236.02	42.56	-57.2	-61.4	3.7	0.00e+00	0	50	104	0	85	24146
2026-01-03 08:24:39.85	236.79	42.75	-57.2	-61.5	3.7	0.00e+00	0	51	104	0	85	24502
2026-01-03 08:24:40.85	237.57	42.93	-56.9	-61.3	3.7	0.00e+00	0	50	104	0	85	23691
2026-01-03 08:24:41.85	238.36	43.10	-56.7	-60.9	3.7	0.00e+00	0	51	104	0	85	22709
2026-01-03 08:24:42.85	239.16	43.27	-57.0	-61.4	3.7	0.00e+00	0	51	104	0	85	24035
2026-01-03 08:24:43.85	239.97	43.44	-57.3	-61.9	3.7	0.00e+00	0	50	104	0	85	25459
2026-01-03 08:24:44.85	240.78	43.60	-57.0	-61.8	3.7	0.00e+00	0	51	104	0	85	25176
2026-01-03 08:24:45.85	241.61	43.76	-56.9	-61.6	3.7	0.00e+00	0	51	104	0	85	24578
2026-01-03 08:24:46.85	242.44	43.91	-56.5	-61.2	3.7	0.00e+00	0	51	104	0	84	24911
2026-01-03 08:24:47.84	243.28	44.05	-56.5	-61.4	3.7	0.00e+00	0	50	104	0	84	25583
2026-01-03 08:24:48.84	244.12	44.19	-56.9	-61.5	3.7	0.00e+00	0	50	104	0	84	25791
2026-01-03 08:24:49.84	244.98	44.32	-57.3	-61.9	3.7	0.00e+00	0	51	104	0	85	25452
2026-01-03 08:24:50.84	245.84	44.45	-57.6	-62.2	3.7	0.00e+00	0	51	104	0	86	24900
2026-01-03 08:24:51.84	246.71	44.56	-57.0	-61.7	3.7	0.00e+00	0	51	104	0	86	23513
2026-01-03 08:24:52.84	247.59	44.68	-57.2	-61.9	3.7	0.00e+00	0	51	104	0	86	23988
2026-01-03 08:24:53.84	248.47	44.78	-56.9	-61.6	3.7	0.00e+00	0	51	104	0	85	24535
2026-01-03 08:24:54.84	249.36	44.88	-57.1	-61.8	3.7	0.00e+00	0	51	104	0	85	25146
2026-01-03 08:24:55.83	250.25	44.97	-57.1	-61.9	3.7	0.00e+00	0	51	104	0	85	25432
2026-01-03 08:24:56.83	251.15	45.06	-57.5	-62.0	3.7	0.00e+00	0	50	104	0	85	25931
2026-01-03 08:24:57.83	252.05	45.13	-57.1	-61.6	3.7	0.00e+00	0	51	104	0	85	24744
2026-01-03 08:24:58.83	252.96	45.20	-57.1	-61.2	3.7	0.00e+00	0	51	104	0	85	23479
2026-01-03 08:24:59.83	253.87	45.26	-57.3	-61.7	3.7	0.00e+00	0	50	104	0	85	24992
2026-01-03 08:25:00.83	254.78	45.32	-57.3	-61.7	3.7	0.00e+00	0	51	104	0	85	24986
2026-01-03 08:25:01.83	255.70	45.37	-57.0	-61.6	3.7	0.00e+00	0	51	104	0	85	24740
2026-01-03 08:25:02.83	256.62	45.41	-56.8	-61.0	3.7	0.00e+00	0	51	104	0	85	23120
2026-01-03 08:25:03.83	257.55	45.44	-57.0	-61.7	3.7	0.00e+00	0	51	104	0	85	24809
2026-01-03 08:25:04.83	258.47	45.46	-56.8	-61.5	3.7	0.00e+00	0	51	104	0	85	24397
2026-01-03 08:25:05.83	259.40	45.48	-57.1	-61.7	3.7	0.00e+00	0	51	104	0	85	24870
2026-01-03 08:25:06.82	260.31	45.48	-56.9	-61.4	3.6	0.00e+00	0	51	104	0	85	23993
2026-01-03 08:25:07.82	261.24	45.48	-56.9	-61.4	3.7	0.00e+00	0	51	104	0	85	24165
2026-01-03 08:25:08.82	262.17	45.48	-56.9	-61.4	3.7	0.00e+00	0	51	104	0	85	24238
2026-01-03 08:25:09.82	263.09	45.46	-57.2	-61.7	3.6	0.00e+00	0	51	104	0	85	24992
2026-01-03 08:25:10.81	264.01	45.44	-57.0	-61.5	3.7	0.00e+00	0	51	104	0	85	24431
2026-01-03 08:25:11.81	264.93	45.40	-57.0	-61.7	3.7	0.00e+00	0	51	104	0	85	25062
2026-01-03 08:25:12.81	265.85	45.36	-57.4	-61.8	3.7	0.00e+00	0	51	104	0	85	25327
2026-01-03 08:25:13.80	266.76	45.32	-57.1	-61.7	3.7	0.00e+00	0	51	104	0	85	24898
2026-01-03 08:25:14.80	267.67	45.26	-57.0	-61.5	3.7	0.00e+00	0	51	104	0	85	24359
2026-01-03 08:25:15.80	268.58	45.20	-57.2	-62.1	3.7	0.00e+00	0	51	104	0	85	26110
2026-01-03 08:25:16.79	269.48	45.13	-57.5	-62.2	3.7	0.00e+00	0	51	104	0	85	26304
2026-01-03 08:25:17.79	270.38	45.06	-57.1	-61.8	3.7	0.00e+00	0	50	104	0	85	25296
2026-01-03 08:25:18.79	271.28	44.97	-56.7	-61.1	3.7	0.00e+00	0	51	104	0	85	23292
2026-01-03 08:25:19.79	272.17	44.88	-57.0	-61.8	3.7	0.00e+00	0	51	104	0	85	25141
2026-01-03 08:25:20.79	273.06	44.78	-57.2	-61.9	3.7	0.00e+00	0	51	104	0	85	25672
2026-01-03 08:25:21.79	273.94	44.68	-57.3	-61.8	3.7	0.00e+00	0	50	104	0	85	25367
2026-01-03 08:25:22.79	274.82	44.56	-56.6	-60.5	3.7	0.00e+00	0	51	104	0	85	21725
2026-01-03 08:25:23.79	275.69	44.44	-56.7	-60.6	3.7	0.00e+00	0	51	104	0	85	21892
2026-01-03 08:25:24.79	276.55	44.32	-56.5	-60.3	3.7	0.00e+00	0	51	104	0	85	21252
2026-01-03 08:25:25.79	277.40	44.19	-56.4	-60.1	3.7	0.00e+00	0	51	104	0	84	21951
2026-01-03 08:25:26.78	278.24	44.05	-57.1	-61.6	3.7	0.00e+00	0	50	104	0	84	26225
2026-01-03 08:25:27.78	279.08	43.91	-56.4	-60.7	3.7	0.00e+00	0	51	104	0	84	23486
2026-01-03 08:25:28.78	279.91	43.76	-56.7	-61.6	3.7	0.00e+00	0	51	104	0	84	26162
2026-01-03 08:25:29.78	280.74	43.60	-57.4	-62.0	3.7	0.00e+00	0	51	104	0	85	25806
2026-01-03 08:25:30.78	281.55	43.44	-57.1	-61.8	3.7	0.00e+00	0	51	104	0	85	25224
2026-01-03 08:25:31.78	282.36	43.28	-57.0	-61.5	3.7	0.00e+00	0	51	104	0	85	24396
2026-01-03 08:25:32.77	283.15	43.11	-29.2	-30.1	4.7	0.00e+00	0	51	104	0	30	15476
2026-01-03 08:25:33.77	283.94	42.93	-28.8	-29.7	4.7	0.00e+00	0	51	104	0	29	15735
2026-01-03 08:25:34.77	284.71	42.75	-28.1	-28.9	4.7	0.00e+00	0	51	104	0	27	16107
2026-01-03 08:25:35.77	285.49	42.57	-32.6	-33.5	4.6	0.00e+00	0	51	104	0	35	17189
2026-01-03 08:25:36.77	286.25	42.38	-28.0	-28.8	4.7	0.00e+00	0	51	104	0	27	15988
2026-01-03 08:25:37.77	287.00	42.18	-43.7	-44.8	4.5	0.00e+00	0	51	104	0	57	17837
2026-01-03 08:25:38.77	287.74	41.98	-35.3	-36.2	4.6	0.00e+00	0	51	104	0	42	15711
2026-01-03 08:25:39.76	288.47	41.78	-28.5	-29.4	4.7	0.00e+00	0	51	104	0	27	17091
2026-01-03 08:25:40.76	289.19	41.58	-28.1	-28.9	4.6	0.00e+00	0	51	104	0	28	15240
2026-01-03 08:25:41.76	289.90	41.37	-29.1	-30.0	4.6	0.00e+00	0	51	104	0	28	17197
2026-01-03 08:25:42.76	290.61	41.16	-28.4	-29.3	4.6	0.00e+00	0	51	104	0	28	15874
2026-01-03 08:25:43.75	291.29	40.95	-28.3	-29.2	4.6	0.00e+00	0	51	104	0	28	15737
2026-01-03 08:25:44.75	291.98	40.73	-26.9	-27.7	4.7	0.00e+00	0	51	104	0	25	15747
2026-01-03 08:25:45.75	292.66	40.51	-27.6	-28.5	4.7	0.00e+00	0	51	104	0	25	17237
2026-01-03 08:25:46.75	293.32	40.28	-42.7	-43.7	4.5	0.00e+00	0	51	104	0	55	17721
2026-01-03 08:25:47.75	293.98	40.06	-35.3	-36.2	4.6	0.00e+00	0	51	104	0	42	15711
2026-01-03 08:25:48.75	294.62	39.83	-27.7	-28.5	5.9	0.00e+00	0	51	104	0	27	15382
2026-01-03 08:25:49.74	295.25	39.60	-28.6	-29.4	21.2	0.00e+00	0	51	0	33554432	28	16135
2026-01-03 08:25:50.74	295.88	39.37	-28.0	-28.8	21.3	0.00e+00	0	51	0	100663296	28	15108
2026-01-03 08:25:51.74	296.50	39.14	-28.0	-28.8	21.3	0.00e+00	0	51	0	159383552	27	15916
2026-01-03 08:25:52.73	297.10	38.90	-27.8	-28.7	21.4	0.00e+00	0	51	0	218103808	27	15660
2026-01-03 08:25:53.73	297.70	38.67	-27.9	-28.7	21.3	0.00e+00	0	51	0	276824064	27	15793
2026-01-03 08:25:54.73	298.30	38.43	-27.5	-28.3	21.5	0.00e+00	0	51	0	335544320	26	15898
2026-01-03 08:25:55.73	298.88	38.19	-27.3	-28.1	21.6	0.00e+00	0	51	0	394264576	26	15510
2026-01-03 08:25:56.73	299.45	37.95	-27.3	-28.1	21.5	0.00e+00	0	51	0	452984832	26	15587
2026-01-03 08:25:57.72	300.01	37.71	-27.1	-27.9	21.6	0.00e+00	0	51	0	520093696	26	15178
2026-01-03 08:25:58.71	300.56	37.47	-27.7	-28.5	21.5	0.00e+00	0	51	0	578813952	26	16319
2026-01-03 08:25:59.71	301.11	37.23	-27.7	-28.5	21.4	0.00e+00	0	51	0	637534208	26	16293
2026-01-03 08:26:00.72	301.65	36.98	-27.6	-28.4	21.4	0.00e+00	0	52	0	696254464	26	16146
2026-01-03 08:26:01.71	302.18	36.74	-27.6	-28.4	21.5	0.00e+00	0	52	0	754974720	26	16181
2026-01-03 08:26:02.71	302.70	36.49	-27.3	-28.1	21.6	0.00e+00	0	52	0	813694976	26	15651
2026-01-03 08:26:03.72	303.22	36.25	-27.5	-28.3	21.5	0.00e+00	0	52	0	880803840	26	15869
2026-01-03 08:26:04.72	303.72	36.00	-27.5	-28.4	21.4	0.00e+00	0	52	0	939524096	26	16031
2026-01-03 08:26:05.72	304.22	35.76	-27.5	-28.3	21.4	0.00e+00	0	51	0	998244352	26	15964
2026-01-03 08:26:06.72	304.71	35.51	-27.6	-28.5	21.4	0.00e+00	0	52	0	1056964608	26	16229
2026-01-03 08:26:07.72	305.19	35.26	-27.6	-28.5	21.5	0.00e+00	0	52	0	1115684864	27	15298
2026-01-03 08:26:08.72	305.67	35.02	-27.8	-28.6	21.4	0.00e+00	0	52	0	1174405120	27	15617
2026-01-03 08:26:09.72	306.13	34.77	-28.1	-28.9	21.3	0.00e+00	0	52	0	1233125376	27	16113
2026-01-03 08:26:10.72	306.59	34.53	-27.8	-28.7	21.4	0.00e+00	0	51	0	1300234240	27	15678
2026-01-03 08:26:11.72	307.04	34.29	-28.0	-28.8	21.4	0.00e+00	0	52	0	1358954496	27	15915
2026-01-03 08:26:12.72	307.49	34.04	-28.3	-29.1	21.3	0.00e+00	0	52	0	1417674752	27	16496
2026-01-03 08:26:13.72	307.93	33.80	-28.1	-29.0	21.3	0.00e+00	0	52	0	1476395008	27	16234
2026-01-03 08:26:14.72	308.36	33.56	-28.6	-29.4	21.1	0.00e+00	0	51	0	1535115264	28	16152
2026-01-03 08:26:15.71	308.78	33.32	-28.0	-28.8	21.5	0.00e+00	0	52	0	1593835520	27	16005
2026-01-03 08:26:16.71	309.20	33.07	-28.3	-29.1	21.4	0.00e+00	0	52	0	1660944384	27	16442
2026-01-03 08:26:17.70	309.60	32.84	-28.4	-29.2	21.3	0.00e+00	0	52	0	1711276032	27	16667
2026-01-03 08:26:18.70	310.01	32.60	-28.1	-29.0	21.4	0.00e+00	0	52	0	1769996288	28	15313
2026-01-03 08:26:19.70	310.41	32.36	-28.3	-29.1	21.3	0.00e+00	0	52	0	1837105152	28	15598
2026-01-03 08:26:20.69	310.80	32.12	-28.5	-29.4	21.2	0.00e+00	0	52	0	1895825408	28	16018
2026-01-03 08:26:21.69	311.18	31.88	-28.3	-29.1	21.3	0.00e+00	0	51	0	1954545664	28	15555
2026-01-03 08:26:22.69	311.56	31.65	-28.8	-29.7	21.0	0.00e+00	0	52	0	2013265920	28	16618
2026-01-03 08:26:23.69	311.94	31.41	-28.8	-29.7	21.0	0.00e+00	0	52	0	2071986176	28	16613
2026-01-03 08:26:24.68	312.30	31.18	-28.7	-29.6	21.1	0.00e+00	0	52	0	2130706432	29	15526
2026-01-03 08:26:25.68	312.67	30.94	-28.7	-29.5	21.1	0.00e+00	0	52	0	2197815296	29	15426
2026-01-03 08:26:26.68	313.02	30.71	-29.0	-29.8	21.0	0.00e+00	0	52	0	2256535552	29	15905
2026-01-03 08:26:27.68	313.38	30.48	-28.8	-29.6	21.1	0.00e+00	0	52	0	2315255808	29	15542
2026-01-03 08:26:28.68	313.72	30.25	-28.9	-29.8	21.0	0.00e+00	0	52	0	2373976064	29	15893
2026-01-03 08:26:29.67	314.06	30.02	-29.1	-29.9	20.8	0.00e+00	0	52	0	2432696320	29	16169
2026-01-03 08:26:30.68	314.40	29.79	-29.3	-30.1	20.6	0.00e+00	0	52	0	2491416576	29	16543
2026-01-03 08:26:31.68	314.73	29.57	-29.1	-30.0	20.7	0.00e+00	0	52	0	2550136832	30	15315
2026-01-03 08:26:32.68	315.06	29.34	-29.2	-30.1	20.5	0.00e+00	0	52	0	2617245696	30	15539
2026-01-03 08:26:33.67	315.38	29.12	-29.4	-30.3	20.4	0.00e+00	0	52	0	2675965952	30	15851
2026-01-03 08:26:34.67	315.69	28.90	-29.3	-30.1	20.5	0.00e+00	0	52	0	2734686208	30	15652
2026-01-03 08:26:35.67	316.01	28.68	-29.4	-30.2	20.5	0.00e+00	0	52	0	2793406464	30	15826
2026-01-03 08:26:36.67	316.31	28.45	-29.6	-30.4	20.5	0.00e+00	0	52	0	2852126720	30	16150
2026-01-03 08:26:37.67	316.62	28.24	-29.5	-30.4	20.5	0.00e+00	0	52	0	2910846976	30	16080
2026-01-03 08:26:38.67	316.91	28.02	-29.7	-30.5	20.4	0.00e+00	0	52	0	2977955840	30	16308
2026-01-03 08:26:39.67	317.21	27.80	-29.8	-30.7	20.3	0.00e+00	0	52	0	3036676096	30	16658
2026-01-03 08:26:40.67	317.50	27.59	-30.0	-30.8	20.3	0.00e+00	0	52	0	3095396352	30	16890
2026-01-03 08:26:41.67	317.78	27.37	-30.1	-30.9	20.3	0.00e+00	0	52	0	3154116608	32	15201
2026-01-03 08:26:42.67	318.06	27.16	-30.1	-31.0	20.1	0.00e+00	0	52	0	3212836864	32	15324
2026-01-03 08:26:43.67	318.34	26.95	-30.2	-31.0	20.0	0.00e+00	0	52	0	3271557120	32	15430
2026-01-03 08:26:44.67	318.62	26.74	-30.4	-31.2	19.8	0.00e+00	0	52	0	3330277376	32	15748
2026-01-03 08:26:45.67	318.89	26.53	-30.1	-31.0	20.0	0.00e+00	0	52	0	3397386240	32	15338
2026-01-03 08:26:46.67	319.15	26.32	-30.3	-31.2	19.9	0.00e+00	0	52	0	3456106496	32	15659
2026-01-03 08:26:47.67	319.41	26.12	-30.3	-31.2	19.9	0.00e+00	0	52	0	3514826752	32	15689
2026-01-03 08:26:48.66	319.67	25.92	-30.5	-31.4	19.8	0.00e+00	0	52	0	3573547008	32	16071
2026-01-03 08:26:49.66	319.92	25.71	-30.4	-31.2	19.9	0.00e+00	0	52	0	3632267264	32	15827
2026-01-03 08:26:50.65	320.17	25.51	-30.5	-31.4	19.9	0.00e+00	0	52	0	3690987520	32	16019
2026-01-03 08:26:51.65	320.42	25.31	-30.7	-31.5	19.8	0.00e+00	0	52	0	3749707776	32	16382
2026-01-03 08:26:52.65	320.67	25.11	-30.8	-31.6	19.8	0.00e+00	0	52	0	3808428032	32	16481
2026-01-03 08:26:53.64	320.90	24.92	-30.6	-31.5	19.8	0.00e+00	0	52	0	3867148288	32	16236
2026-01-03 08:26:54.64	321.14	24.72	-31.1	-31.9	19.4	0.00e+00	0	52	0	3934257152	32	17076
2026-01-03 08:26:55.64	321.38	24.53	-31.3	-32.1	19.3	0.00e+00	0	52	0	3992977408	33	16505
2026-01-03 08:26:56.64	321.61	24.33	-31.2	-32.1	19.3	0.00e+00	0	52	0	4051697664	33	16457
2026-01-03 08:26:57.64	321.84	24.14	-31.4	-32.2	19.2	0.00e+00	0	52	0	4110417920	33	16733
2026-01-03 08:26:58.64	322.06	23.95	-31.7	-32.5	19.2	0.00e+00	0	52	0	4169138176	34	16358
2026-01-03 08:26:59.64	322.28	23.76	-31.4	-32.2	19.1	0.00e+00	0	52	0	4227858432	34	15767
2026-01-03 08:27:00.63	322.50	23.57	-31.5	-32.4	18.9	0.00e+00	0	52	0	4294967296	34	16094
2026-01-03 08:27:01.63	322.72	23.39	-31.8	-32.6	18.9	0.00e+00	0	52	0	4353687552	34	16534
2026-01-03 08:27:02.63	322.93	23.20	-31.6	-32.5	19.2	0.00e+00	0	52	0	4412407808	35	15387
2026-01-03 08:27:03.63	323.14	23.02	-31.7	-32.6	19.2	0.00e+00	0	52	0	4471128064	35	15543
2026-01-03 08:27:04.63	323.35	22.83	-31.9	-32.7	19.2	0.00e+00	0	52	0	4529848320	35	15773
2026-01-03 08:27:05.63	323.56	22.65	-31.8	-32.7	19.3	0.00e+00	0	52	0	4588568576	35	15759
2026-01-03 08:27:06.63	323.76	22.47	-32.0	-32.8	19.2	0.00e+00	0	52	0	4647288832	35	16003
2026-01-03 08:27:07.62	323.96	22.29	-31.8	-32.7	19.4	0.00e+00	0	52	0	4714397696	35	15679
2026-01-03 08:27:08.62	324.16	22.12	-31.9	-32.8	19.3	0.00e+00	0	52	0	4773117952	35	15852
2026-01-03 08:27:09.63	324.35	21.94	-32.0	-32.8	19.2	0.00e+00	0	52	0	4831838208	35	15991
2026-01-03 08:27:10.63	324.55	21.76	-32.2	-33.0	19.1	0.00e+00	0	52	0	4890558464	35	16325
2026-01-03 08:27:11.62	324.73	21.59	-32.2	-33.1	18.9	0.00e+00	0	52	0	4949278720	35	16429
2026-01-03 08:27:12.62	324.92	21.42	-32.4	-33.3	18.7	0.00e+00	0	52	0	5007998976	35	16816
2026-01-03 08:27:13.62	325.11	21.24	-33.4	-34.3	19.4	0.00e+00	0	52	0	5066719232	38	15905
2026-01-03 08:27:14.62	325.29	21.07	-33.6	-34.5	19.3	0.00e+00	0	52	0	5133828096	38	16234
2026-01-03 08:27:15.61	325.47	20.91	-33.6	-34.5	19.1	0.00e+00	0	52	0	5192548352	38	16308
2026-01-03 08:27:16.61	325.65	20.74	-33.7	-34.6	19.2	0.00e+00	0	52	0	5251268608	38	16392
2026-01-03 08:27:17.61	325.83	20.57	-34.2	-35.1	19.0	0.00e+00	0	52	0	5309988864	38	17373
2026-01-03 08:27:18.61	326.00	20.40	-33.9	-34.7	19.3	0.00e+00	0	53	0	5368709120	39	15803
2026-01-03 08:27:19.61	326.17	20.24	-33.9	-34.8	19.4	0.00e+00	0	52	0	5427429376	39	15890
2026-01-03 08:27:20.61	326.34	20.08	-34.0	-34.9	19.4	0.00e+00	0	52	0	5494538240	39	16071
2026-01-03 08:27:21.61	326.51	19.91	-34.1	-35.0	19.4	0.00e+00	0	52	0	5553258496	39	16263
2026-01-03 08:27:22.60	326.68	19.75	-34.2	-35.1	19.3	0.00e+00	0	52	0	5611978752	39	16506
2026-01-03 08:27:23.60	326.84	19.59	-34.3	-35.2	19.2	0.00e+00	0	52	0	5670699008	39	16710
2026-01-03 08:27:24.60	327.01	19.43	-34.1	-34.9	19.3	0.00e+00	0	52	0	5729419264	40	15282
2026-01-03 08:27:25.60	327.17	19.28	-34.1	-35.0	19.2	0.00e+00	0	52	0	5788139520	40	15373
2026-01-03 08:27:26.60	327.33	19.12	-34.2	-35.1	19.1	0.00e+00	0	52	0	5846859776	40	15554
2026-01-03 08:27:27.59	327.48	18.96	-34.3	-35.2	19.0	0.00e+00	0	52	0	5905580032	40	15670
2026-01-03 08:27:28.59	327.64	18.81	-34.3	-35.2	18.8	0.00e+00	0	52	0	5964300288	40	15758
2026-01-03 08:27:29.58	327.79	18.66	-34.9	-35.8	18.7	0.00e+00	0	52	0	6031409152	40	16818
2026-01-03 08:27:30.58	327.94	18.50	-34.4	-35.3	18.8	0.00e+00	0	52	0	6090129408	40	15855
2026-01-03 08:27:31.57	328.09	18.35	-34.4	-35.3	18.7	0.00e+00	0	52	0	6148849664	40	15867
2026-01-03 08:27:32.58	328.24	18.20	-34.4	-35.3	18.6	0.00e+00	0	52	0	6207569920	40	15914
2026-01-03 08:27:33.58	328.39	18.05	-34.6	-35.5	18.6	0.00e+00	0	52	0	6266290176	40	16246
2026-01-03 08:27:34.58	328.53	17.90	-34.6	-35.5	18.5	0.00e+00	0	52	0	6325010432	40	16357
2026-01-03 08:27:35.58	328.67	17.76	-34.7	-35.6	18.5	0.00e+00	0	53	0	6383730688	40	16528
2026-01-03 08:27:36.58	328.82	17.61	-35.2	-36.1	18.2	0.00e+00	0	53	0	6450839552	41	16458
2026-01-03 08:27:37.58	328.96	17.46	-35.0	-35.8	18.7	0.00e+00	0	52	0	6509559808	41	16012
2026-01-03 08:27:38.58	329.10	17.32	-35.0	-35.8	18.9	0.00e+00	0	52	0	6568280064	41	16005
2026-01-03 08:27:39.58	329.23	17.18	-35.1	-36.0	18.9	0.00e+00	0	53	0	6627000320	41	16310
2026-01-03 08:27:40.58	329.37	17.03	-35.2	-36.0	18.9	0.00e+00	0	53	0	6685720576	41	16361
2026-01-03 08:27:41.57	329.50	16.89	-35.3	-36.2	18.9	0.00e+00	0	53	0	6744440832	41	16612
2026-01-03 08:27:42.57	329.64	16.75	-35.4	-36.2	18.9	0.00e+00	0	52	0	6811549696	41	16770
2026-01-03 08:27:43.58	329.77	16.61	-35.9	-36.8	18.8	0.00e+00	0	52	0	6870269952	42	16786
2026-01-03 08:27:44.58	329.90	16.47	-35.6	-36.5	18.8	0.00e+00	0	53	0	6928990208	42	16342
2026-01-03 08:27:45.58	330.03	16.33	-35.4	-36.3	19.0	0.00e+00	0	52	0	6987710464	42	15908
2026-01-03 08:27:46.57	330.15	16.20	-35.5	-36.4	18.9	0.00e+00	0	53	0	7046430720	42	16077
2026-01-03 08:27:47.57	330.28	16.06	-35.5	-36.4	18.8	0.00e+00	0	52	0	7105150976	42	16116
2026-01-03 08:27:48.57	330.40	15.93	-35.7	-36.6	18.5	0.00e+00	0	52	0	7163871232	42	16539
2026-01-03 08:27:49.57	330.53	15.79	-35.6	-36.5	18.4	0.00e+00	0	52	0	7230980096	42	16272
2026-01-03 08:27:50.56	330.65	15.66	-35.8	-36.6	18.2	0.00e+00	0	52	0	7289700352	42	16546
2026-01-03 08:27:51.56	330.77	15.53	-35.9	-36.8	18.1	0.00e+00	0	53	0	7348420608	42	16823
2026-01-03 08:27:52.56	330.89	15.39	-35.6	-36.5	18.4	0.00e+00	0	53	0	7407140864	42	16312
2026-01-03 08:27:53.56	331.01	15.26	-35.7	-36.6	18.3	0.00e+00	0	52	0	7465861120	42	16496
2026-01-03 08:27:54.56	331.13	15.13	-35.7	-36.6	18.4	0.00e+00	0	52	0	7524581376	42	16443
2026-01-03 08:27:55.56	331.24	15.00	-36.1	-37.0	18.0	0.00e+00	0	52	0	7591690240	42	17189
2026-01-03 08:27:56.56	331.36	14.87	-36.2	-37.1	18.0	0.00e+00	0	52	0	7650410496	43	16530
2026-01-03 08:27:57.55	331.47	14.75	-36.1	-37.0	18.1	0.00e+00	0	52	0	7700742144	43	16343
2026-01-03 08:27:58.55	331.58	14.62	-36.1	-37.0	18.1	0.00e+00	0	52	0	7767851008	43	16306
2026-01-03 08:27:59.54	331.70	14.50	-36.3	-37.1	18.0	0.00e+00	0	52	0	7826571264	43	16564
2026-01-03 08:28:00.54	331.81	14.37	-36.8	-37.7	17.9	0.00e+00	0	52	0	7885291520	44	16594
2026-01-03 08:28:01.53	331.91	14.25	-36.4	-37.3	18.2	0.00e+00	0	53	0	7944011776	44	15961
2026-01-03 08:28:02.53	332.02	14.12	-36.4	-37.3	18.3	0.00e+00	0	52	0	8002732032	44	15983
2026-01-03 08:28:03.53	332.13	14.00	-36.4	-37.3	18.3	0.00e+00	0	53	0	8061452288	44	15938
2026-01-03 08:28:04.53	332.24	13.88	-36.6	-37.5	18.1	0.00e+00	0	53	0	8128561152	44	16301
2026-01-03 08:28:05.53	332.34	13.75	-36.6	-37.5	18.1	0.00e+00	0	52	0	8187281408	44	16289
2026-01-03 08:28:06.53	332.45	13.63	-36.6	-37.5	18.1	0.00e+00	0	52	0	8246001664	44	16267
2026-01-03 08:28:07.53	332.55	13.51	-36.6	-37.5	18.0	0.00e+00	0	52	0	8304721920	44	16355
2026-01-03 08:28:08.53	332.65	13.39	-36.8	-37.6	18.0	0.00e+00	0	53	0	8363442176	44	16565
2026-01-03 08:28:09.53	332.76	13.27	-36.8	-37.6	18.1	0.00e+00	0	52	0	8422162432	44	16573
2026-01-03 08:28:10.53	332.86	13.16	-36.6	-37.5	18.2	0.00e+00	0	53	0	8480882688	44	16364
2026-01-03 08:28:11.53	332.96	13.04	-37.0	-37.9	18.3	0.00e+00	0	52	0	8547991552	44	17088
2026-01-03 08:28:12.52	333.05	12.92	-36.8	-37.7	18.4	0.00e+00	0	52	0	8606711808	44	16667
2026-01-03 08:28:13.53	333.15	12.81	-36.8	-37.7	18.3	0.00e+00	0	52	0	8665432064	44	16738
2026-01-03 08:28:14.52	333.25	12.69	-36.8	-37.7	18.2	0.00e+00	0	52	0	8724152320	44	16723
2026-01-03 08:28:15.53	333.35	12.58	-37.1	-38.0	17.9	0.00e+00	0	52	0	8782872576	44	17344
2026-01-03 08:28:16.52	333.44	12.46	-37.3	-38.2	17.7	0.00e+00	0	52	0	8841592832	45	16629
2026-01-03 08:28:17.52	333.54	12.35	-37.3	-38.2	17.5	0.00e+00	0	52	0	8908701696	45	16757
2026-01-03 08:28:18.52	333.63	12.24	-37.4	-38.3	17.4	0.00e+00	0	53	0	8967421952	45	16809
2026-01-03 08:28:19.52	333.72	12.12	-37.6	-38.5	17.3	0.00e+00	0	53	0	9026142208	45	17172
2026-01-03 08:28:20.52	333.81	12.01	-37.6	-38.5	17.3	0.00e+00	0	53	0	9084862464	45	17223
2026-01-03 08:28:21.52	333.91	11.90	-37.3	-38.2	17.6	0.00e+00	0	52	0	9143582720	46	15734
2026-01-03 08:28:22.52	334.00	11.79	-37.2	-38.1	17.7	0.00e+00	0	53	0	9202302976	46	15554
2026-01-03 08:28:23.52	334.09	11.68	-37.1	-38.0	17.7	0.00e+00	0	53	0	9261023232	46	15443
2026-01-03 08:28:24.52	334.17	11.57	-37.3	-38.2	17.6	0.00e+00	0	53	0	9328132096	46	15771
2026-01-03 08:28:25.52	334.26	11.46	-37.7	-38.6	17.5	0.00e+00	0	53	0	9386852352	46	16468
2026-01-03 08:28:26.51	334.35	11.36	-37.6	-38.5	17.5	0.00e+00	0	53	0	9445572608	46	16352
2026-01-03 08:28:27.51	334.44	11.25	-37.6	-38.5	17.5	0.00e+00	0	52	0	9504292864	46	16335
2026-01-03 08:28:28.51	334.52	11.14	-37.7	-38.6	17.4	0.00e+00	0	52	0	9563013120	46	16554
2026-01-03 08:28:29.51	334.61	11.04	-55.6	-60.8	3.7	0.00e+00	229	52	0	9621733376	79	31785
2026-01-03 08:28:30.51	334.69	10.93	-55.5	-60.7	3.7	0.00e+00	0	52	104	9621733376	81	28105
2026-01-03 08:28:31.51	334.77	10.83	-55.3	-60.6	3.7	0.00e+00	0	52	104	9621733376	81	27687
2026-01-03 08:28:32.50	334.86	10.72	-55.2	-60.6	3.7	0.00e+00	0	52	104	9621733376	81	27532
2026-01-03 08:28:33.50	334.94	10.62	-55.0	-60.3	3.7	0.00e+00	0	52	104	9621733376	81	26704
2026-01-03 08:28:34.50	335.02	10.51	-55.4	-60.5	3.7	0.00e+00	0	52	104	9621733376	81	27436
2026-01-03 08:28:35.49	335.10	10.41	-55.6	-60.7	3.6	0.00e+00	0	52	104	9621733376	82	26344
2026-01-03 08:28:36.49	335.18	10.31	-55.3	-60.5	3.7	0.00e+00	0	52	104	9621733376	82	25698
2026-01-03 08:28:37.49	335.26	10.21	-54.6	-60.0	3.7	1.10e-03	0	52	104	9621733376	81	25906
2026-01-03 08:28:38.49	335.34	10.11	-54.4	-59.8	3.7	1.10e-03	0	52	104	9621733376	79	28344
2026-01-03 08:28:39.49	335.42	10.01	-54.7	-60.0	3.7	1.10e-03	0	52	104	9621733376	81	25918
2026-01-03 08:28:40.48	335.50	9.91	-53.7	-59.5	3.7	1.10e-03	0	52	104	9621733376	79	27291
2026-01-03 08:28:41.48	335.57	9.81	-53.7	-59.5	3.7	1.10e-03	0	52	104	9621733376	79	27206
2026-01-03 08:28:42.48	335.65	9.71	-53.6	-59.5	3.7	1.10e-03	0	52	104	9621733376	78	29001
2026-01-03 08:28:43.48	335.72	9.61	-53.5	-59.5	3.7	1.10e-03	0	52	104	9621733376	78	29141
2026-01-03 08:28:44.47	335.80	9.51	-53.4	-59.5	3.7	1.10e-03	0	52	104	9621733376	78	28924
2026-01-03 08:28:45.46	335.87	9.41	-53.1	-59.2	3.7	1.10e-03	0	52	104	9621733376	78	28091
2026-01-03 08:28:46.46	335.95	9.32	-52.8	-59.0	3.7	1.10e-03	0	52	104	9621733376	77	29016
2026-01-03 08:28:47.46	336.02	9.22	-53.1	-59.3	3.7	1.10e-03	0	52	104	9621733376	77	29866
2026-01-03 08:28:48.46	336.09	9.12	-53.6	-59.6	3.7	1.10e-03	0	52	104	9621733376	77	30975
2026-01-03 08:28:49.46	336.17	9.03	-53.1	-59.2	3.7	1.10e-03	0	52	104	9621733376	77	29497
2026-01-03 08:28:50.46	336.24	8.93	-55.6	-60.6	3.7	1.10e-03	0	52	104	9621733376	81	27774
2026-01-03 08:28:51.46	336.31	8.84	-56.3	-61.1	3.7	1.10e-03	0	52	104	9621733376	83	26070
2026-01-03 08:28:52.47	336.38	8.74	-56.8	-61.7	3.7	1.10e-03	0	52	104	9621733376	84	26281
2026-01-03 08:28:53.46	336.45	8.65	-54.4	-60.1	3.7	1.10e-03	0	52	104	9621733376	80	27604
2026-01-03 08:28:54.47	336.52	8.56	-53.4	-59.7	3.7	1.10e-03	0	52	104	9621733376	79	28110
2026-01-03 08:28:55.46	336.59	8.46	-56.1	-60.9	3.7	1.10e-03	0	52	104	9621733376	83	25643
2026-01-03 08:28:56.46	336.66	8.37	-56.4	-61.0	3.7	1.10e-03	0	52	104	9621733376	83	25955
2026-01-03 08:28:57.46	336.73	8.28	-55.4	-60.8	3.7	1.10e-03	0	52	104	9621733376	82	26719
2026-01-03 08:28:58.46	336.79	8.19	-55.6	-60.9	3.7	1.10e-03	0	52	104	9621733376	83	25627
2026-01-03 08:28:59.45	336.86	8.10	-56.6	-61.4	3.7	1.10e-03	0	52	104	9621733376	84	25622
2026-01-03 08:29:00.45	336.93	8.00	-57.3	-62.0	3.7	1.10e-03	0	52	104	9621733376	85	25755
2026-01-03 08:29:01.45	336.99	7.91	-57.1	-61.9	3.7	1.10e-03	0	52	104	9621733376	85	25672
2026-01-03 08:29:02.45	337.06	7.82	-57.3	-62.2	3.7	1.10e-03	0	52	104	9621733376	85	26331
2026-01-03 08:29:03.45	337.12	7.73	-57.4	-62.1	3.7	1.10e-03	0	52	104	9621733376	85	25978
2026-01-03 08:29:04.44	337.19	7.65	-57.2	-62.0	3.7	1.10e-03	0	52	104	9621733376	86	24519
2026-01-03 08:29:05.44	337.25	7.56	-57.0	-62.1	3.7	1.10e-03	0	52	104	9621733376	86	24535
2026-01-03 08:29:06.44	337.32	7.47	-57.7	-62.4	3.7	1.10e-03	0	52	104	9621733376	86	25533
2026-01-03 08:29:07.44	337.38	7.38	-57.5	-62.3	3.7	1.10e-03	0	52	104	9621733376	86	25295
2026-01-03 08:29:08.45	337.44	7.29	-57.8	-62.4	3.7	1.10e-03	0	52	104	9621733376	86	25675
2026-01-03 08:29:09.45	337.51	7.20	-57.1	-62.0	3.7	1.10e-03	0	52	104	9621733376	86	24370
2026-01-03 08:29:10.45	337.57	7.12	-57.2	-61.9	3.7	1.10e-03	0	52	104	9621733376	86	23973
2026-01-03 08:29:11.45	337.63	7.03	-57.0	-61.7	3.7	1.10e-03	0	52	104	9621733376	86	23620
2026-01-03 08:29:12.46	337.69	6.94	-56.9	-61.3	3.7	1.10e-03	0	52	104	9621733376	85	23810
2026-01-03 08:29:13.46	337.75	6.86	-57.1	-61.6	3.7	1.10e-03	0	52	104	9621733376	85	24636
2026-01-03 08:29:14.46	337.81	6.77	-57.0	-61.6	3.7	1.10e-03	0	51	104	9621733376	85	24576
2026-01-03 08:29:15.46	337.87	6.69	-56.9	-61.5	3.7	1.10e-03	0	52	104	9621733376	85	24518
2026-01-03 08:29:16.47	337.93	6.60	-56.9	-61.5	3.7	1.10e-03	0	52	104	9621733376	85	24351
2026-01-03 08:29:17.47	337.99	6.52	-56.9	-61.5	3.7	1.10e-03	0	52	104	9621733376	85	24343
2026-01-03 08:29:18.47	338.05	6.43	-56.8	-61.4	3.7	1.10e-03	0	52	104	9621733376	85	24140
2026-01-03 08:29:19.48	338.11	6.35	-56.9	-61.5	3.7	1.10e-03	0	52	104	9621733376	85	24261
2026-01-03 08:29:20.47	338.17	6.26	-56.9	-61.5	3.7	1.10e-03	0	52	104	9621733376	85	24405
2026-01-03 08:29:21.47	338.23	6.18	-56.8	-61.5	3.7	1.10e-03	0	52	104	9621733376	85	24355
2026-01-03 08:29:22.47	338.28	6.10	-56.8	-61.4	3.7	1.10e-03	0	51	104	9621733376	85	24095
2026-01-03 08:29:23.47	338.34	6.02	-56.8	-61.5	3.7	1.10e-03	0	52	104	9621733376	85	24254
2026-01-03 08:29:24.47	338.40	5.93	-57.3	-61.9	3.7	1.10e-03	0	52	104	9621733376	85	25501
2026-01-03 08:29:25.46	338.45	5.85	-57.1	-61.7	3.7	1.10e-03	0	52	104	9621733376	85	24975
2026-01-03 08:29:26.46	338.51	5.77	-57.0	-61.6	3.7	1.10e-03	0	51	104	9621733376	85	24642
2026-01-03 08:29:27.46	338.56	5.69	-56.9	-61.5	3.7	1.10e-03	0	52	104	9621733376	85	24409
2026-01-03 08:29:28.46	338.62	5.61	-56.9	-61.5	3.7	1.10e-03	0	52	104	9621733376	85	24408
2026-01-03 08:29:29.46	338.67	5.53	-56.9	-61.5	3.7	1.10e-03	0	52	104	9621733376	85	24341
2026-01-03 08:29:30.46	338.73	5.45	-56.9	-61.5	3.7	1.10e-03	0	51	104	9621733376	85	24465
2026-01-03 08:29:31.46	338.78	5.37	-57.2	-61.8	3.7	1.10e-03	0	51	104	9621733376	85	25190
2026-01-03 08:29:32.46	338.83	5.29	-56.8	-61.4	3.7	1.10e-03	0	52	104	9621733376	85	24090
2026-01-03 08:29:33.46	338.89	5.21	-56.9	-61.5	3.7	1.10e-03	0	51	104	9621733376	85	24475
2026-01-03 08:29:34.45	338.94	5.13	-56.7	-61.4	3.7	1.10e-03	0	51	104	9621733376	85	23984
2026-01-03 08:29:35.45	338.99	5.05	-56.7	-61.3	3.7	1.10e-03	0	52	104	9621733376	85	23953
2026-01-03 08:29:36.45	339.04	4.98	-56.7	-61.4	3.7	1.10e-03	0	51	104	9621733376	85	23976
2026-01-03 08:29:37.45	339.10	4.90	-56.8	-61.4	3.7	1.10e-03	0	52	104	9621733376	85	24084

#Closed at: 2026-01-03 08:29:38
#Recorded file [9621 MB]: D:/Data/31040_260103_112042.dat