passes_logs/2026/01/03/T1/T1__20260103_141852_FENGYUN_3E_rec.log

#Pass ID: 20260103_141852_FENGYUN 3E
#Satellite: FENGYUN 3E
#Configuration: FENGYUN 3E
#almurnet v.1.7.20251203
#Start time: 2026-01-03 14:18:53

#Version: 2.0.20230620
#Station: T1
#Location: 37.570604 lon 55.790049 lat
#TLE: 1 49008U 21062A   26002.95568549 -.00000227  00000+0 -86494-4 0  9990
#TLE: 2 49008  98.7475   8.2258 0001442 163.3458 196.7766 14.19882681233131

#Time	Az	El	Level	Level2	SNR	BER	BlckErr	Temp	State	Recorded	gain1	gain2
2026-01-03 14:18:53.43	163.65	5.04	-52.2	-64.4	3.8	8.46e-01	0	37	0	0	74	14975
2026-01-03 14:18:54.43	163.66	5.11	-52.1	-64.0	3.8	8.47e-01	0	37	104	0	73	15059
2026-01-03 14:18:55.43	163.67	5.18	-52.1	-64.0	3.8	8.47e-01	0	37	104	0	73	15082
2026-01-03 14:18:56.43	163.67	5.25	-52.0	-64.0	3.8	8.48e-01	0	38	104	0	73	15142
2026-01-03 14:18:57.44	163.68	5.33	-52.0	-64.1	3.8	8.47e-01	0	37	104	0	73	15352
2026-01-03 14:18:58.44	163.69	5.40	-52.1	-64.3	3.8	8.47e-01	0	37	104	0	73	15639
2026-01-03 14:18:59.45	163.70	5.47	-52.0	-64.3	3.8	8.46e-01	0	37	104	0	73	15663
2026-01-03 14:19:00.45	163.70	5.55	-52.1	-64.4	3.8	8.47e-01	0	37	104	0	73	15828
2026-01-03 14:19:01.45	163.71	5.62	-52.1	-64.3	3.8	8.47e-01	0	38	104	0	73	15748
2026-01-03 14:19:02.46	163.72	5.69	-52.0	-64.2	3.8	8.47e-01	0	38	104	0	73	15514
2026-01-03 14:19:03.46	163.73	5.77	-52.0	-63.9	3.8	8.47e-01	0	38	104	0	73	14997
2026-01-03 14:19:04.46	163.74	5.84	-51.9	-63.4	3.8	8.46e-01	0	38	104	0	73	14160
2026-01-03 14:19:05.47	163.74	5.92	-51.9	-62.8	3.8	8.46e-01	0	37	104	0	73	13208
2026-01-03 14:19:06.47	163.75	5.99	-51.8	-62.3	3.8	8.46e-01	0	38	104	0	73	12384
2026-01-03 14:19:07.48	163.76	6.07	-51.7	-61.6	4.0	8.44e-01	0	38	104	0	73	11466
2026-01-03 14:19:08.48	163.77	6.14	-51.6	-61.0	4.1	8.39e-01	0	38	0	0	73	10776
2026-01-03 14:19:09.48	163.77	6.21	-51.7	-60.7	4.3	8.36e-01	0	38	0	0	73	10400
2026-01-03 14:19:10.49	163.78	6.29	-51.6	-60.6	4.3	8.36e-01	0	38	0	0	73	10260
2026-01-03 14:19:11.49	163.79	6.37	-51.6	-60.6	4.3	8.30e-01	0	38	0	0	73	10178
2026-01-03 14:19:12.49	163.80	6.44	-51.7	-60.8	4.2	8.37e-01	0	38	0	0	73	10452
2026-01-03 14:19:13.50	163.81	6.52	-51.7	-61.1	4.1	8.38e-01	0	38	0	0	73	10855
2026-01-03 14:19:14.50	163.81	6.59	-51.8	-61.5	4.1	8.41e-01	0	38	0	0	73	11416
2026-01-03 14:19:15.50	163.82	6.67	-51.8	-62.1	3.8	8.43e-01	0	38	104	0	73	12112
2026-01-03 14:19:16.51	163.83	6.75	-51.9	-62.6	3.9	8.45e-01	0	38	104	0	73	12829
2026-01-03 14:19:17.51	163.84	6.83	-51.9	-63.1	3.8	8.46e-01	0	38	104	0	73	13671
2026-01-03 14:19:18.52	163.85	6.90	-51.9	-63.5	3.8	8.46e-01	0	38	104	0	73	14251
2026-01-03 14:19:19.52	163.86	6.98	-52.0	-63.7	3.8	8.46e-01	0	38	104	0	73	14654
2026-01-03 14:19:20.53	163.86	7.06	-52.1	-63.9	3.8	8.47e-01	0	38	104	0	73	14951
2026-01-03 14:19:21.53	163.87	7.14	-52.0	-63.8	3.8	8.47e-01	0	39	104	0	73	14812
2026-01-03 14:19:22.53	163.88	7.21	-52.0	-63.5	3.8	8.46e-01	0	38	104	0	73	14264
2026-01-03 14:19:23.54	163.89	7.29	-51.9	-62.9	3.8	8.47e-01	0	38	104	0	73	13262
2026-01-03 14:19:24.54	163.90	7.37	-51.8	-61.7	4.0	8.45e-01	0	38	104	0	73	11623
2026-01-03 14:19:25.55	163.91	7.45	-51.5	-60.1	4.4	8.30e-01	0	38	0	0	73	9662
2026-01-03 14:19:26.55	163.91	7.53	-51.3	-58.7	5.1	7.74e-01	0	38	0	0	73	8238
2026-01-03 14:19:27.56	163.92	7.61	-50.8	-57.1	6.2	3.99e-01	0	39	0	3145728	72	7218
2026-01-03 14:19:28.56	163.93	7.69	-50.5	-55.9	7.3	1.41e-01	0	39	0	10485760	71	6667
2026-01-03 14:19:29.57	163.94	7.77	-49.9	-54.3	8.8	5.11e-02	0	39	0	16777216	70	5914
2026-01-03 14:19:30.57	163.95	7.85	-49.4	-53.4	9.8	1.22e-02	0	38	0	24117248	69	5600
2026-01-03 14:19:31.58	163.96	7.93	-48.9	-52.4	10.8	3.49e-03	0	39	0	31457280	68	5334
2026-01-03 14:19:32.58	163.97	8.01	-48.2	-51.4	11.7	7.66e-04	0	39	0	38797312	67	5037
2026-01-03 14:19:33.58	163.97	8.09	-48.0	-51.0	12.1	4.06e-04	0	39	0	46137344	66	5100
2026-01-03 14:19:34.59	163.98	8.17	-47.9	-50.8	12.3	1.82e-03	0	39	0	53477376	66	4978
2026-01-03 14:19:35.59	163.99	8.26	-47.8	-50.7	12.6	9.95e-05	0	38	0	60817408	66	4880
2026-01-03 14:19:36.60	164.00	8.34	-47.9	-50.8	12.5	1.91e-04	0	39	0	68157440	66	4968
2026-01-03 14:19:37.60	164.01	8.42	-48.2	-51.4	11.9	3.73e-04	0	39	0	75497472	66	5312
2026-01-03 14:19:38.60	164.02	8.50	-48.5	-51.8	11.6	6.88e-04	0	39	0	82837504	66	5538
2026-01-03 14:19:39.61	164.03	8.58	-49.0	-52.7	10.5	2.61e-03	0	39	0	90177536	67	5816
2026-01-03 14:19:40.61	164.04	8.67	-49.6	-53.8	9.5	1.15e-02	0	39	0	97517568	68	6216
2026-01-03 14:19:41.62	164.05	8.75	-50.2	-55.1	8.1	4.24e-02	0	39	0	103809024	69	6864
2026-01-03 14:19:42.62	164.05	8.83	-50.8	-56.8	6.5	1.97e-01	0	39	0	111149056	71	7446
2026-01-03 14:19:43.63	164.06	8.92	-51.3	-58.7	5.2	6.92e-01	0	39	0	116391936	72	8708
2026-01-03 14:19:44.63	164.07	9.00	-51.7	-61.0	4.2	8.35e-01	0	39	0	117440512	72	11287
2026-01-03 14:19:45.64	164.08	9.09	-51.6	-60.9	4.2	8.42e-01	0	39	0	117440512	73	10626
2026-01-03 14:19:46.64	164.09	9.17	-52.0	-63.2	3.8	8.46e-01	0	39	104	117440512	73	13884
2026-01-03 14:19:47.64	164.10	9.26	-51.1	-58.6	5.1	8.45e-01	0	39	104	117440512	73	8093
2026-01-03 14:19:48.64	164.11	9.34	-46.2	-48.5	14.7	8.73e-03	0	39	0	122683392	63	4515
2026-01-03 14:19:49.65	164.12	9.43	-51.4	-60.0	4.6	1.21e-01	0	39	0	128974848	72	10094
2026-01-03 14:19:50.65	164.13	9.51	-48.1	-51.1	11.8	7.79e-01	0	39	104	128974848	67	4834
2026-01-03 14:19:51.65	164.14	9.60	-44.2	-45.9	17.1	0.00e+00	0	39	0	135266304	59	4235
2026-01-03 14:19:52.66	164.15	9.68	-44.2	-45.9	17.1	0.00e+00	0	39	0	142606336	59	4232
2026-01-03 14:19:53.66	164.16	9.77	-44.7	-46.4	16.6	0.00e+00	0	39	0	149946368	59	4484
2026-01-03 14:19:54.67	164.17	9.86	-44.6	-46.3	16.8	0.00e+00	0	39	0	157286400	59	4422
2026-01-03 14:19:55.67	164.17	9.95	-44.5	-46.2	16.8	0.00e+00	0	39	0	164626432	59	4369
2026-01-03 14:19:56.67	164.18	10.03	-44.2	-45.8	17.2	0.00e+00	0	39	0	171966464	59	4188
2026-01-03 14:19:57.68	164.19	10.12	-43.8	-45.4	17.6	0.00e+00	0	39	0	179306496	58	4213
2026-01-03 14:19:58.68	164.20	10.21	-43.5	-45.1	17.9	0.00e+00	0	39	0	186646528	57	4312
2026-01-03 14:19:59.69	164.21	10.30	-43.4	-44.9	18.0	0.00e+00	0	39	0	193986560	57	4234
2026-01-03 14:20:00.69	164.22	10.39	-42.9	-44.4	18.5	0.00e+00	0	39	0	201326592	56	4225
2026-01-03 14:20:01.69	164.23	10.48	-42.9	-44.4	18.5	0.00e+00	0	39	0	207618048	56	4226
2026-01-03 14:20:02.69	164.24	10.56	-43.1	-44.6	18.4	0.00e+00	0	39	0	214958080	56	4328
2026-01-03 14:20:03.70	164.25	10.66	-42.3	-43.8	19.0	0.00e+00	0	39	0	222298112	55	4172
2026-01-03 14:20:04.70	164.26	10.75	-42.4	-43.9	18.9	0.00e+00	0	39	0	229638144	55	4208
2026-01-03 14:20:05.70	164.27	10.84	-42.4	-43.9	18.9	0.00e+00	0	39	0	236978176	55	4211
2026-01-03 14:20:06.70	164.28	10.93	-42.3	-43.8	19.0	0.00e+00	0	39	0	244318208	55	4155
2026-01-03 14:20:07.70	164.29	11.02	-42.2	-43.6	19.1	0.00e+00	0	39	0	251658240	55	4098
2026-01-03 14:20:08.71	164.30	11.11	-42.4	-43.9	18.9	0.00e+00	0	39	0	258998272	55	4227
2026-01-03 14:20:09.71	164.31	11.20	-42.3	-43.8	18.9	0.00e+00	0	39	0	266338304	55	4171
2026-01-03 14:20:10.71	164.32	11.29	-42.1	-43.5	19.2	0.00e+00	0	39	0	272629760	55	4051
2026-01-03 14:20:11.72	164.33	11.39	-42.1	-43.5	19.2	0.00e+00	0	39	0	279969792	54	4287
2026-01-03 14:20:12.72	164.34	11.48	-41.9	-43.4	19.4	0.00e+00	0	39	0	287309824	54	4201
2026-01-03 14:20:13.72	164.35	11.57	-41.9	-43.4	19.4	0.00e+00	0	39	0	294649856	54	4200
2026-01-03 14:20:14.73	164.36	11.66	-41.9	-43.4	19.4	0.00e+00	0	39	0	301989888	54	4209
2026-01-03 14:20:15.73	164.37	11.76	-41.9	-43.4	19.4	0.00e+00	0	39	0	309329920	54	4195
2026-01-03 14:20:16.74	164.38	11.85	-41.8	-43.2	19.5	0.00e+00	0	39	0	316669952	54	4132
2026-01-03 14:20:17.74	164.39	11.95	-41.9	-43.3	19.4	0.00e+00	0	39	0	324009984	54	4176
2026-01-03 14:20:18.74	164.41	12.04	-41.8	-43.2	19.5	0.00e+00	0	39	0	331350016	54	4140
2026-01-03 14:20:19.74	164.42	12.14	-41.8	-43.2	19.5	0.00e+00	0	39	0	338690048	54	4124
2026-01-03 14:20:20.75	164.43	12.23	-41.9	-43.4	19.4	0.00e+00	0	39	0	346030080	54	4203
2026-01-03 14:20:21.75	164.44	12.33	-41.7	-43.1	19.6	0.00e+00	0	39	0	353370112	54	4080
2026-01-03 14:20:22.76	164.45	12.43	-41.9	-43.3	19.4	0.00e+00	0	39	0	359661568	54	4184
2026-01-03 14:20:23.76	164.46	12.52	-41.8	-43.2	19.6	0.00e+00	0	39	0	367001600	54	4107
2026-01-03 14:20:24.76	164.47	12.62	-41.9	-43.3	19.4	0.00e+00	0	39	0	374341632	54	4177
2026-01-03 14:20:25.76	164.48	12.72	-41.8	-43.2	19.5	0.00e+00	0	39	0	381681664	54	4135
2026-01-03 14:20:26.77	164.49	12.82	-41.6	-43.0	19.7	0.00e+00	0	39	0	389021696	54	4046
2026-01-03 14:20:27.77	164.50	12.91	-41.6	-43.0	19.8	0.00e+00	0	39	0	396361728	54	4029
2026-01-03 14:20:28.77	164.51	13.01	-41.8	-43.2	19.6	0.00e+00	0	39	0	403701760	54	4126
2026-01-03 14:20:29.77	164.52	13.11	-41.5	-42.9	19.9	0.00e+00	0	39	0	411041792	53	4196
2026-01-03 14:20:30.78	164.54	13.21	-41.6	-43.0	19.8	0.00e+00	0	39	0	417333248	53	4244
2026-01-03 14:20:31.78	164.55	13.31	-41.5	-42.9	19.9	0.00e+00	0	39	0	424673280	53	4201
2026-01-03 14:20:32.78	164.56	13.41	-41.5	-42.9	19.9	0.00e+00	0	39	0	433061888	53	4216
2026-01-03 14:20:33.78	164.57	13.51	-41.5	-42.9	19.9	0.00e+00	0	39	0	439353344	53	4201
2026-01-03 14:20:34.79	164.58	13.61	-41.4	-42.7	19.5	0.00e+00	0	39	0	446693376	53	4132
2026-01-03 14:20:35.79	164.59	13.72	-41.4	-42.8	19.9	0.00e+00	0	40	0	454033408	53	4171
2026-01-03 14:20:36.80	164.60	13.82	-41.4	-42.8	20.0	0.00e+00	0	39	0	461373440	53	4162
2026-01-03 14:20:37.80	164.62	13.92	-41.5	-42.9	19.9	0.00e+00	0	39	0	468713472	53	4205
2026-01-03 14:20:38.80	164.63	14.02	-41.4	-42.8	20.0	0.00e+00	0	39	0	476053504	53	4156
2026-01-03 14:20:39.81	164.64	14.13	-41.2	-42.5	20.2	0.00e+00	0	39	0	483393536	53	4042
2026-01-03 14:20:40.81	164.65	14.23	-41.2	-42.5	20.2	0.00e+00	0	39	0	490733568	53	4050
2026-01-03 14:20:41.81	164.66	14.34	-41.3	-42.6	20.1	0.00e+00	0	39	0	498073600	53	4092
2026-01-03 14:20:42.82	164.67	14.44	-41.4	-42.8	20.0	0.00e+00	0	39	0	504365056	53	4150
2026-01-03 14:20:43.82	164.69	14.55	-41.2	-42.6	20.1	0.00e+00	0	39	0	511705088	53	4065
2026-01-03 14:20:44.82	164.70	14.65	-41.3	-42.6	20.1	0.00e+00	0	39	0	519045120	53	4083
2026-01-03 14:20:45.83	164.71	14.76	-41.2	-42.5	20.2	0.00e+00	0	39	0	526385152	53	4030
2026-01-03 14:20:46.83	164.72	14.86	-41.1	-42.4	20.3	0.00e+00	0	40	0	533725184	52	4217
2026-01-03 14:20:47.83	164.73	14.97	-41.1	-42.5	20.3	0.00e+00	0	39	0	541065216	52	4254
2026-01-03 14:20:48.83	164.75	15.08	-41.1	-42.4	20.3	0.00e+00	0	40	0	548405248	52	4222
2026-01-03 14:20:49.83	164.76	15.19	-41.1	-42.4	20.3	0.00e+00	0	39	0	555745280	52	4223
2026-01-03 14:20:50.84	164.77	15.30	-41.2	-42.5	20.2	0.00e+00	0	40	0	563085312	52	4271
2026-01-03 14:20:51.84	164.78	15.40	-41.0	-42.4	20.4	0.00e+00	0	40	0	570425344	52	4201
2026-01-03 14:20:52.85	164.80	15.51	-41.0	-42.3	20.4	0.00e+00	0	40	0	577765376	52	4186
2026-01-03 14:20:53.85	164.81	15.62	-41.1	-42.4	20.3	0.00e+00	0	40	0	585105408	52	4214
2026-01-03 14:20:54.85	164.82	15.73	-41.0	-42.4	20.3	0.00e+00	0	39	0	591396864	52	4199
2026-01-03 14:20:55.85	164.84	15.85	-40.9	-42.3	20.4	0.00e+00	0	39	0	598736896	52	4157
2026-01-03 14:20:56.86	164.85	15.96	-40.9	-42.2	20.5	0.00e+00	0	39	0	606076928	52	4119
2026-01-03 14:20:57.86	164.86	16.07	-41.0	-42.3	20.2	0.00e+00	0	40	0	613416960	52	4177
2026-01-03 14:20:58.86	164.87	16.18	-40.9	-42.2	20.5	0.00e+00	0	40	0	620756992	52	4130
2026-01-03 14:20:59.87	164.89	16.30	-40.9	-42.2	20.5	0.00e+00	0	40	0	628097024	52	4136
2026-01-03 14:21:00.87	164.90	16.41	-40.8	-42.1	20.6	0.00e+00	0	40	0	635437056	52	4073
2026-01-03 14:21:01.87	164.91	16.52	-41.0	-42.3	20.4	0.00e+00	0	40	0	642777088	52	4189
2026-01-03 14:21:02.88	164.93	16.64	-40.9	-42.2	20.5	0.00e+00	0	40	0	649068544	52	4126
2026-01-03 14:21:03.88	164.94	16.75	-40.9	-42.2	20.5	0.00e+00	0	40	0	656408576	52	4118
2026-01-03 14:21:04.88	164.95	16.87	-40.8	-42.2	20.5	0.00e+00	0	40	0	663748608	52	4102
2026-01-03 14:21:05.88	164.97	16.98	-40.8	-42.1	20.6	0.00e+00	0	39	0	671088640	52	4073
2026-01-03 14:21:06.88	164.98	17.10	-40.6	-41.9	20.7	0.00e+00	0	39	0	678428672	52	3993
2026-01-03 14:21:07.88	164.99	17.22	-40.8	-42.2	20.5	0.00e+00	0	39	0	685768704	52	4117
2026-01-03 14:21:08.89	165.01	17.34	-40.6	-41.9	20.6	0.00e+00	0	40	0	693108736	52	3999
2026-01-03 14:21:09.89	165.02	17.45	-40.7	-42.0	20.6	0.00e+00	0	40	0	700448768	52	4035
2026-01-03 14:21:10.89	165.04	17.57	-40.7	-42.0	20.6	0.00e+00	0	40	0	707788800	52	4019
2026-01-03 14:21:11.89	165.05	17.69	-40.8	-42.2	20.5	0.00e+00	0	40	0	715128832	51	4353
2026-01-03 14:21:12.90	165.06	17.81	-40.8	-42.2	20.5	0.00e+00	0	40	0	722468864	51	4344
2026-01-03 14:21:13.90	165.08	17.93	-41.0	-42.3	20.4	0.00e+00	0	40	0	729808896	51	4411
2026-01-03 14:21:14.90	165.09	18.06	-40.9	-42.2	20.5	0.00e+00	0	40	0	736100352	51	4383
2026-01-03 14:21:15.90	165.11	18.18	-40.7	-42.1	20.6	0.00e+00	0	40	0	743440384	51	4309
2026-01-03 14:21:16.91	165.12	18.30	-40.7	-42.1	20.6	0.00e+00	0	40	0	750780416	51	4293
2026-01-03 14:21:17.91	165.14	18.42	-40.6	-42.0	20.7	0.00e+00	0	40	0	758120448	51	4253
2026-01-03 14:21:18.91	165.15	18.55	-40.7	-42.0	20.7	0.00e+00	0	40	0	765460480	51	4260
2026-01-03 14:21:19.92	165.17	18.67	-40.6	-41.9	20.7	0.00e+00	0	40	0	772800512	51	4218
2026-01-03 14:21:20.92	165.18	18.80	-40.6	-41.9	20.7	0.00e+00	0	40	0	780140544	51	4203
2026-01-03 14:21:21.92	165.20	18.92	-40.4	-41.7	21.0	0.00e+00	0	40	0	787480576	51	4113
2026-01-03 14:21:22.93	165.21	19.05	-40.5	-41.8	20.8	0.00e+00	0	40	0	794820608	51	4176
2026-01-03 14:21:23.93	165.23	19.18	-40.4	-41.7	20.9	0.00e+00	0	39	0	802160640	51	4125
2026-01-03 14:21:24.93	165.24	19.30	-40.4	-41.6	21.0	0.00e+00	0	40	0	809500672	51	4097
2026-01-03 14:21:25.93	165.26	19.43	-40.3	-41.6	21.0	0.00e+00	0	40	0	815792128	51	4083
2026-01-03 14:21:26.94	165.27	19.56	-40.2	-41.5	21.1	0.00e+00	0	40	0	823132160	51	4023
2026-01-03 14:21:27.94	165.29	19.69	-40.1	-41.4	21.1	0.00e+00	0	40	0	830472192	51	3994
2026-01-03 14:21:28.94	165.30	19.82	-40.2	-41.5	21.1	0.00e+00	0	40	0	837812224	50	4272
2026-01-03 14:21:29.94	165.32	19.95	-40.1	-41.3	21.2	0.00e+00	0	40	0	845152256	50	4181
2026-01-03 14:21:30.95	165.34	20.09	-40.0	-41.3	21.3	0.00e+00	0	40	0	852492288	50	4163
2026-01-03 14:21:31.95	165.35	20.22	-40.1	-41.3	21.4	0.00e+00	0	40	0	859832320	50	4181
2026-01-03 14:21:32.95	165.37	20.35	-40.1	-41.4	21.3	0.00e+00	0	40	0	867172352	50	4197
2026-01-03 14:21:33.95	165.38	20.48	-40.0	-41.2	21.4	0.00e+00	0	40	0	874512384	50	4135
2026-01-03 14:21:34.96	165.40	20.62	-40.0	-41.2	21.4	0.00e+00	0	40	0	880803840	50	4130
2026-01-03 14:21:35.96	165.42	20.76	-39.8	-41.1	21.5	0.00e+00	0	40	0	888143872	50	4066
2026-01-03 14:21:36.96	165.43	20.89	-39.8	-41.0	21.5	0.00e+00	0	40	0	895483904	50	4047
2026-01-03 14:21:37.96	165.45	21.03	-39.7	-41.0	21.6	0.00e+00	0	40	0	902823936	50	4013
2026-01-03 14:21:38.97	165.47	21.17	-39.8	-41.0	21.5	0.00e+00	0	40	0	910163968	50	4021
2026-01-03 14:21:39.97	165.48	21.30	-39.7	-41.0	21.5	0.00e+00	0	40	0	917504000	50	4013
2026-01-03 14:21:40.97	165.50	21.44	-39.6	-40.9	21.6	0.00e+00	0	40	0	924844032	50	3972
2026-01-03 14:21:41.98	165.52	21.58	-39.6	-40.8	21.6	0.00e+00	0	40	0	932184064	50	3955
2026-01-03 14:21:42.98	165.54	21.72	-39.7	-41.0	21.5	0.00e+00	0	39	0	939524096	49	4251
2026-01-03 14:21:43.99	165.55	21.87	-39.5	-40.8	21.7	0.00e+00	0	40	0	946864128	49	4148
2026-01-03 14:21:44.99	165.57	22.01	-39.6	-40.8	21.6	0.00e+00	0	40	0	954204160	49	4190
2026-01-03 14:21:45.99	165.59	22.15	-39.6	-40.8	21.6	0.00e+00	0	40	0	961544192	49	4172
2026-01-03 14:21:47.00	165.61	22.30	-39.6	-40.9	21.5	0.00e+00	0	40	0	967835648	49	4208
2026-01-03 14:21:48.00	165.62	22.44	-39.7	-40.9	21.4	0.00e+00	0	40	0	975175680	49	4242
2026-01-03 14:21:49.00	165.64	22.59	-39.7	-40.9	21.5	0.00e+00	0	40	0	982515712	49	4228
2026-01-03 14:21:50.00	165.66	22.73	-39.7	-41.0	21.4	0.00e+00	0	40	0	989855744	49	4253
2026-01-03 14:21:51.01	165.68	22.88	-39.6	-40.8	21.5	0.00e+00	0	40	0	997195776	49	4190
2026-01-03 14:21:52.01	165.70	23.03	-39.6	-40.9	21.5	0.00e+00	0	40	0	1004535808	49	4202
2026-01-03 14:21:53.01	165.72	23.18	-39.6	-40.9	21.5	0.00e+00	0	40	0	1011875840	49	4227
2026-01-03 14:21:54.01	165.74	23.32	-39.6	-40.9	21.5	0.00e+00	0	40	0	1019215872	49	4206
2026-01-03 14:21:55.01	165.76	23.47	-39.6	-40.9	21.4	0.00e+00	0	40	0	1025507328	49	4234
2026-01-03 14:21:56.02	165.77	23.63	-39.6	-40.9	21.5	0.00e+00	0	40	0	1032847360	49	4198
2026-01-03 14:21:57.02	165.79	23.78	-39.7	-41.0	21.4	0.00e+00	0	40	0	1040187392	49	4285
2026-01-03 14:21:58.02	165.81	23.93	-39.6	-40.9	21.5	0.00e+00	0	39	0	1047527424	49	4230
2026-01-03 14:21:59.03	165.83	24.09	-39.7	-41.0	21.4	0.00e+00	0	40	0	1054867456	49	4262
2026-01-03 14:22:00.03	165.85	24.24	-39.7	-41.1	21.3	0.00e+00	0	40	0	1062207488	49	4300
2026-01-03 14:22:01.03	165.87	24.40	-39.7	-41.1	21.2	0.00e+00	0	40	0	1069547520	49	4306
2026-01-03 14:22:02.04	165.89	24.56	-39.7	-41.1	21.4	0.00e+00	0	40	0	1076887552	49	4299
2026-01-03 14:22:03.04	165.91	24.71	-39.7	-41.1	21.3	0.00e+00	0	40	0	1084227584	49	4306
2026-01-03 14:22:04.04	165.93	24.87	-39.8	-41.1	21.3	0.00e+00	0	40	0	1091567616	49	4331
2026-01-03 14:22:05.05	165.96	25.03	-39.6	-40.9	21.4	0.00e+00	0	40	0	1098907648	49	4224
2026-01-03 14:22:06.05	165.98	25.19	-39.7	-41.1	21.3	0.00e+00	0	40	0	1106247680	49	4297
2026-01-03 14:22:07.06	166.00	25.36	-39.6	-40.9	21.4	0.00e+00	0	40	0	1112539136	49	4226
2026-01-03 14:22:08.06	166.02	25.52	-39.6	-40.9	21.5	0.00e+00	0	40	0	1119879168	49	4217
2026-01-03 14:22:09.07	166.04	25.68	-39.6	-40.9	21.4	0.00e+00	0	40	0	1127219200	49	4226
2026-01-03 14:22:10.07	166.06	25.85	-39.5	-40.8	21.6	0.00e+00	0	40	0	1134559232	49	4164
2026-01-03 14:22:11.07	166.08	26.01	-39.4	-40.7	21.6	0.00e+00	0	40	0	1141899264	49	4143
2026-01-03 14:22:12.08	166.11	26.18	-39.4	-40.7	21.6	0.00e+00	0	40	0	1149239296	49	4139
2026-01-03 14:22:13.08	166.13	26.35	-39.3	-40.5	21.8	0.00e+00	0	40	0	1156579328	49	4051
2026-01-03 14:22:14.08	166.15	26.52	-39.0	-40.3	21.9	0.00e+00	0	40	0	1163919360	49	3946
2026-01-03 14:22:15.09	166.17	26.69	-39.1	-40.4	21.9	0.00e+00	0	40	0	1171259392	48	4213
2026-01-03 14:22:16.09	166.20	26.86	-39.1	-40.3	22.0	0.00e+00	0	40	0	1178599424	48	4177
2026-01-03 14:22:17.09	166.22	27.03	-39.0	-40.2	22.1	0.00e+00	0	40	0	1185939456	48	4124
2026-01-03 14:22:18.09	166.24	27.20	-39.0	-40.3	22.0	0.00e+00	0	40	0	1193279488	48	4153
2026-01-03 14:22:19.10	166.27	27.38	-39.0	-40.2	22.1	0.00e+00	0	40	0	1199570944	48	4132
2026-01-03 14:22:20.10	166.29	27.55	-39.0	-40.3	22.0	0.00e+00	0	40	0	1206910976	48	4151
2026-01-03 14:22:21.10	166.31	27.73	-38.9	-40.2	22.1	0.00e+00	0	40	0	1214251008	48	4113
2026-01-03 14:22:22.10	166.34	27.91	-39.0	-40.2	22.1	0.00e+00	0	40	0	1221591040	48	4127
2026-01-03 14:22:23.11	166.36	28.09	-39.0	-40.2	22.1	0.00e+00	0	40	0	1228931072	48	4139
2026-01-03 14:22:24.11	166.39	28.27	-39.1	-40.3	22.1	0.00e+00	0	40	0	1236271104	48	4156
2026-01-03 14:22:25.11	166.41	28.45	-39.0	-40.2	22.1	0.00e+00	0	40	0	1243611136	48	4132
2026-01-03 14:22:26.11	166.44	28.63	-39.0	-40.2	22.1	0.00e+00	0	40	0	1250951168	48	4140
2026-01-03 14:22:27.12	166.46	28.81	-39.0	-40.2	22.1	0.00e+00	0	40	0	1257242624	48	4135
2026-01-03 14:22:28.12	166.49	29.00	-39.1	-40.3	22.2	0.00e+00	0	40	0	1264582656	48	4156
2026-01-03 14:22:29.12	166.51	29.18	-39.0	-40.3	22.2	0.00e+00	0	40	0	1271922688	48	4150
2026-01-03 14:22:30.13	166.54	29.37	-39.1	-40.3	22.1	0.00e+00	0	40	0	1279262720	48	4177
2026-01-03 14:22:31.13	166.57	29.56	-39.3	-40.6	21.9	0.00e+00	0	40	0	1286602752	48	4296
2026-01-03 14:22:32.13	166.59	29.75	-39.3	-40.6	21.9	0.00e+00	0	40	0	1293942784	48	4311
2026-01-03 14:22:33.14	166.62	29.94	-39.5	-40.8	21.7	0.00e+00	0	40	0	1301282816	48	4421
2026-01-03 14:22:34.14	166.65	30.13	-39.5	-40.8	21.8	0.00e+00	0	40	0	1308622848	48	4392
2026-01-03 14:22:35.14	166.68	30.33	-39.5	-40.8	21.8	0.00e+00	0	40	0	1315962880	48	4419
2026-01-03 14:22:36.14	166.70	30.52	-39.4	-40.7	21.8	0.00e+00	0	40	0	1323302912	48	4361
2026-01-03 14:22:37.14	166.73	30.71	-39.3	-40.6	21.9	0.00e+00	0	40	0	1330642944	48	4296
2026-01-03 14:22:38.15	166.76	30.91	-39.1	-40.4	22.0	0.00e+00	0	40	0	1337982976	48	4214
2026-01-03 14:22:39.15	166.79	31.11	-39.2	-40.4	22.0	0.00e+00	0	40	0	1344274432	48	4231
2026-01-03 14:22:40.15	166.82	31.31	-39.1	-40.4	22.0	0.00e+00	0	40	0	1351614464	48	4232
2026-01-03 14:22:41.16	166.85	31.51	-39.1	-40.4	22.0	0.00e+00	0	40	0	1358954496	48	4219
2026-01-03 14:22:42.16	166.88	31.72	-39.3	-40.6	21.8	0.00e+00	0	40	0	1366294528	48	4311
2026-01-03 14:22:43.16	166.91	31.92	-39.2	-40.5	21.9	0.00e+00	0	40	0	1373634560	48	4256
2026-01-03 14:22:44.16	166.94	32.13	-39.2	-40.5	21.9	0.00e+00	0	40	0	1380974592	48	4260
2026-01-03 14:22:45.17	166.97	32.33	-39.2	-40.5	22.0	0.00e+00	0	40	0	1388314624	48	4243
2026-01-03 14:22:46.17	167.00	32.54	-39.2	-40.5	21.9	0.00e+00	0	40	0	1395654656	48	4249
2026-01-03 14:22:47.17	167.03	32.75	-39.1	-40.4	21.9	0.00e+00	0	40	0	1402994688	48	4224
2026-01-03 14:22:48.18	167.06	32.97	-38.9	-40.2	22.1	0.00e+00	0	40	0	1409286144	48	4131
2026-01-03 14:22:49.18	167.10	33.18	-38.9	-40.2	22.1	0.00e+00	0	40	0	1416626176	48	4117
2026-01-03 14:22:50.18	167.13	33.39	-38.9	-40.2	22.1	0.00e+00	0	40	0	1425014784	48	4110
2026-01-03 14:22:51.19	167.16	33.61	-38.9	-40.2	22.0	0.00e+00	0	40	0	1431306240	48	4142
2026-01-03 14:22:52.19	167.20	33.83	-38.9	-40.3	22.0	0.00e+00	0	40	0	1438646272	48	4151
2026-01-03 14:22:53.19	167.23	34.04	-39.0	-40.3	22.0	0.00e+00	0	40	0	1445986304	48	4176
2026-01-03 14:22:54.19	167.26	34.26	-39.0	-40.4	21.9	0.00e+00	0	40	0	1453326336	48	4195
2026-01-03 14:22:55.19	167.30	34.49	-39.0	-40.4	21.9	0.00e+00	0	40	0	1460666368	48	4196
2026-01-03 14:22:56.19	167.33	34.71	-39.0	-40.3	21.9	0.00e+00	0	40	0	1468006400	48	4193
2026-01-03 14:22:57.20	167.37	34.94	-38.9	-40.3	22.0	0.00e+00	0	40	0	1475346432	48	4162
2026-01-03 14:22:58.20	167.40	35.16	-39.0	-40.4	21.9	0.00e+00	0	40	0	1482686464	48	4226
2026-01-03 14:22:59.20	167.44	35.39	-39.1	-40.5	21.9	0.00e+00	0	40	0	1488977920	48	4249
2026-01-03 14:23:00.21	167.48	35.62	-38.9	-40.3	22.0	0.00e+00	0	40	0	1496317952	48	4153
2026-01-03 14:23:01.21	167.52	35.85	-38.8	-40.1	22.1	0.00e+00	0	40	0	1503657984	48	4089
2026-01-03 14:23:02.21	167.55	36.09	-38.8	-40.1	22.2	0.00e+00	0	40	0	1510998016	48	4091
2026-01-03 14:23:03.21	167.59	36.32	-39.0	-40.3	22.2	0.00e+00	0	40	0	1518338048	48	4165
2026-01-03 14:23:04.21	167.63	36.56	-39.0	-40.3	22.2	0.00e+00	0	40	0	1525678080	48	4164
2026-01-03 14:23:05.22	167.67	36.80	-39.0	-40.3	22.2	0.00e+00	0	40	0	1533018112	48	4146
2026-01-03 14:23:06.22	167.71	37.04	-38.9	-40.1	22.3	0.00e+00	0	40	0	1540358144	48	4090
2026-01-03 14:23:07.22	167.75	37.28	-39.0	-40.3	22.2	0.00e+00	0	40	0	1547698176	48	4156
2026-01-03 14:23:08.23	167.79	37.53	-39.1	-40.3	22.2	0.00e+00	0	40	0	1553989632	48	4168
2026-01-03 14:23:09.23	167.83	37.77	-39.3	-40.5	22.0	0.00e+00	0	40	0	1562378240	48	4287
2026-01-03 14:23:10.24	167.88	38.02	-39.2	-40.5	22.0	0.00e+00	0	40	0	1569718272	48	4266
2026-01-03 14:23:11.24	167.92	38.27	-39.4	-40.7	21.9	0.00e+00	0	40	0	1576009728	48	4362
2026-01-03 14:23:12.24	167.96	38.52	-39.5	-40.7	21.8	0.00e+00	0	40	0	1583349760	48	4388
2026-01-03 14:23:13.24	168.01	38.77	-39.5	-40.8	21.9	0.00e+00	0	40	0	1590689792	48	4392
2026-01-03 14:23:14.25	168.05	39.03	-39.5	-40.8	21.8	0.00e+00	0	40	0	1598029824	48	4398
2026-01-03 14:23:15.25	168.10	39.28	-39.6	-40.9	21.7	0.00e+00	0	40	0	1605369856	48	4447
2026-01-03 14:23:16.25	168.14	39.54	-39.6	-40.9	21.6	0.00e+00	0	40	0	1612709888	48	4465
2026-01-03 14:23:17.26	168.19	39.80	-39.5	-40.7	21.8	0.00e+00	0	40	0	1620049920	49	4132
2026-01-03 14:23:18.26	168.24	40.07	-39.7	-41.0	21.5	0.00e+00	0	40	0	1627389952	49	4285
2026-01-03 14:23:19.26	168.29	40.33	-39.6	-40.9	21.6	0.00e+00	0	40	0	1633681408	49	4225
2026-01-03 14:23:20.27	168.34	40.60	-39.7	-41.0	21.6	0.00e+00	0	40	0	1641021440	49	4247
2026-01-03 14:23:21.27	168.38	40.87	-39.6	-40.9	21.6	0.00e+00	0	40	0	1648361472	49	4206
2026-01-03 14:23:22.27	168.44	41.14	-39.7	-40.9	21.6	0.00e+00	0	40	0	1655701504	49	4239
2026-01-03 14:23:23.28	168.49	41.41	-39.5	-40.7	21.8	0.00e+00	0	40	0	1663041536	49	4134
2026-01-03 14:23:24.28	168.54	41.68	-39.5	-40.7	21.8	0.00e+00	0	40	0	1670381568	49	4138
2026-01-03 14:23:25.28	168.59	41.96	-39.3	-40.6	21.9	0.00e+00	0	40	0	1677721600	49	4057
2026-01-03 14:23:26.28	168.65	42.24	-39.4	-40.6	21.9	0.00e+00	0	39	0	1685061632	49	4089
2026-01-03 14:23:27.29	168.70	42.52	-39.3	-40.6	22.0	0.00e+00	0	40	0	1692401664	49	4053
2026-01-03 14:23:28.29	168.76	42.80	-39.6	-40.9	21.7	0.00e+00	0	40	0	1699741696	49	4195
2026-01-03 14:23:29.29	168.81	43.09	-39.6	-40.8	21.8	0.00e+00	0	40	0	1707081728	49	4181
2026-01-03 14:23:30.30	168.87	43.38	-39.6	-40.8	21.8	0.00e+00	0	40	0	1714421760	49	4168
2026-01-03 14:23:31.30	168.93	43.67	-39.5	-40.7	21.9	0.00e+00	0	40	0	1720713216	49	4132
2026-01-03 14:23:32.30	168.99	43.96	-39.4	-40.6	22.0	0.00e+00	0	40	0	1728053248	49	4079
2026-01-03 14:23:33.31	169.05	44.25	-39.3	-40.5	22.1	0.00e+00	0	40	0	1735393280	49	4043
2026-01-03 14:23:34.31	169.11	44.55	-39.5	-40.7	22.0	0.00e+00	0	40	0	1742733312	49	4100
2026-01-03 14:23:35.31	169.17	44.84	-39.5	-40.6	22.0	0.00e+00	0	40	0	1750073344	49	4096
2026-01-03 14:23:36.32	169.24	45.15	-40.2	-41.0	22.3	0.00e+00	0	40	0	1757413376	49	4273
2026-01-03 14:23:37.32	169.30	45.45	-40.4	-41.3	22.1	0.00e+00	0	40	0	1764753408	50	4168
2026-01-03 14:23:38.32	169.37	45.75	-40.7	-41.6	21.9	0.00e+00	0	40	0	1772093440	50	4324
2026-01-03 14:23:39.32	169.43	46.06	-40.6	-41.5	22.0	0.00e+00	0	40	0	1779433472	50	4246
2026-01-03 14:23:40.32	169.50	46.37	-40.6	-41.5	22.0	0.00e+00	0	40	0	1785724928	51	4010
2026-01-03 14:23:41.33	169.57	46.68	-40.7	-41.5	21.9	0.00e+00	0	40	0	1793064960	51	4050
2026-01-03 14:23:42.33	169.64	46.99	-40.6	-41.4	22.0	0.00e+00	0	40	0	1801453568	51	3999
2026-01-03 14:23:43.33	169.72	47.31	-40.5	-41.3	22.0	0.00e+00	0	40	0	1807745024	51	3957
2026-01-03 14:23:44.33	169.79	47.63	-40.6	-41.5	21.9	0.00e+00	0	40	0	1815085056	51	4023
2026-01-03 14:23:45.34	169.87	47.95	-40.7	-41.6	21.9	0.00e+00	0	40	0	1822425088	51	4062
2026-01-03 14:23:46.34	169.94	48.27	-40.8	-41.7	21.8	0.00e+00	0	40	0	1829765120	51	4099
2026-01-03 14:23:47.35	170.02	48.60	-40.9	-41.8	21.6	0.00e+00	0	40	0	1837105152	51	4182
2026-01-03 14:23:48.35	170.10	48.93	-40.9	-41.8	21.7	0.00e+00	0	40	0	1844445184	51	4190
2026-01-03 14:23:49.35	170.19	49.26	-41.1	-42.0	21.5	0.00e+00	0	40	0	1851785216	52	4019
2026-01-03 14:23:50.35	170.27	49.59	-41.2	-42.1	21.3	0.00e+00	0	40	0	1859125248	52	4088
2026-01-03 14:23:51.36	170.35	49.92	-41.2	-42.1	21.3	0.00e+00	0	40	0	1865416704	52	4096
2026-01-03 14:23:52.36	170.44	50.26	-41.4	-42.3	21.2	0.00e+00	0	40	0	1872756736	52	4160
2026-01-03 14:23:53.37	170.53	50.60	-41.1	-42.0	21.4	0.00e+00	0	40	0	1880096768	52	4046
2026-01-03 14:23:54.37	170.62	50.94	-41.0	-41.9	21.5	0.00e+00	0	40	0	1887436800	52	3988
2026-01-03 14:23:55.37	170.71	51.29	-41.0	-41.9	21.5	0.00e+00	0	40	0	1894776832	52	3960
2026-01-03 14:23:56.37	170.81	51.64	-41.0	-41.9	21.6	0.00e+00	0	40	0	1902116864	52	3962
2026-01-03 14:23:57.38	170.91	51.99	-41.0	-41.8	21.5	0.00e+00	0	40	0	1909456896	52	3949
2026-01-03 14:23:58.38	171.01	52.34	-41.0	-41.9	21.5	0.00e+00	0	40	0	1916796928	52	3963
2026-01-03 14:23:59.38	171.11	52.69	-40.7	-41.6	21.8	0.00e+00	0	40	0	1924136960	52	3845
2026-01-03 14:24:00.38	171.21	53.05	-41.0	-41.9	21.5	0.00e+00	0	40	0	1931476992	52	3962
2026-01-03 14:24:01.38	171.32	53.41	-41.3	-42.2	21.3	0.00e+00	0	40	0	1938817024	52	4104
2026-01-03 14:24:02.39	171.43	53.77	-41.4	-42.3	21.3	0.00e+00	0	40	0	1946157056	52	4151
2026-01-03 14:24:03.39	171.54	54.14	-41.4	-42.3	21.2	0.00e+00	0	40	0	1952448512	52	4178
2026-01-03 14:24:04.39	171.66	54.50	-41.2	-42.1	21.4	0.00e+00	0	40	0	1959788544	52	4078
2026-01-03 14:24:05.40	171.78	54.87	-41.0	-41.9	21.5	0.00e+00	0	40	0	1967128576	52	3980
2026-01-03 14:24:06.40	171.90	55.24	-41.2	-42.1	21.3	0.00e+00	0	40	0	1974468608	52	4087
2026-01-03 14:24:07.40	172.02	55.62	-41.3	-42.2	21.3	0.00e+00	0	40	0	1981808640	52	4118
2026-01-03 14:24:08.41	172.15	56.00	-41.4	-42.3	21.2	0.00e+00	0	40	0	1989148672	52	4178
2026-01-03 14:24:09.41	172.28	56.38	-41.4	-42.3	21.2	0.00e+00	0	40	0	1996488704	52	4146
2026-01-03 14:24:10.42	172.41	56.76	-41.2	-42.0	21.4	0.00e+00	0	40	0	2003828736	52	4036
2026-01-03 14:24:11.42	172.55	57.14	-41.2	-42.1	21.3	0.00e+00	0	40	0	2011168768	52	4063
2026-01-03 14:24:12.42	172.69	57.53	-41.1	-42.0	21.4	0.00e+00	0	40	0	2017460224	52	4029
2026-01-03 14:24:13.42	172.84	57.92	-41.0	-41.9	21.5	0.00e+00	0	40	0	2024800256	52	3978
2026-01-03 14:24:14.43	172.99	58.31	-40.9	-41.8	21.6	0.00e+00	0	40	0	2032140288	52	3936
2026-01-03 14:24:15.43	173.14	58.71	-41.0	-41.8	21.6	0.00e+00	0	40	0	2039480320	51	4179
2026-01-03 14:24:16.43	173.30	59.10	-40.9	-41.8	21.7	0.00e+00	0	40	0	2046820352	51	4147
2026-01-03 14:24:17.44	173.47	59.50	-41.2	-42.1	21.3	0.00e+00	0	40	0	2054160384	52	4091
2026-01-03 14:24:18.44	173.63	59.90	-41.4	-42.3	21.2	0.00e+00	0	40	0	2061500416	52	4179
2026-01-03 14:24:19.45	173.81	60.31	-41.1	-42.0	21.5	0.00e+00	0	40	0	2068840448	52	4006
2026-01-03 14:24:20.45	173.99	60.72	-40.7	-41.5	21.8	0.00e+00	0	40	0	2076180480	52	3822
2026-01-03 14:24:21.45	174.17	61.12	-40.3	-41.1	22.2	0.00e+00	0	40	0	2083520512	51	3843
2026-01-03 14:24:22.46	174.37	61.54	-40.3	-41.1	22.2	0.00e+00	0	40	0	2090860544	51	3859
2026-01-03 14:24:23.46	174.56	61.95	-40.5	-41.3	22.0	0.00e+00	0	40	0	2097152000	51	3951
2026-01-03 14:24:24.46	174.77	62.36	-40.7	-41.6	21.8	0.00e+00	0	40	0	2104492032	51	4062
2026-01-03 14:24:25.46	174.98	62.78	-40.4	-41.2	22.1	0.00e+00	0	40	0	2111832064	51	3910
2026-01-03 14:24:26.47	175.20	63.20	-39.3	-40.1	22.8	0.00e+00	0	40	0	2119172096	49	3864
2026-01-03 14:24:27.48	175.43	63.63	-39.8	-40.6	22.7	0.00e+00	0	40	0	2126512128	50	3836
2026-01-03 14:24:28.48	175.66	64.05	-39.9	-40.8	22.6	0.00e+00	0	40	0	2133852160	50	3922
2026-01-03 14:24:29.48	175.90	64.47	-39.8	-40.7	22.7	0.00e+00	0	40	0	2141192192	50	3872
2026-01-03 14:24:30.48	176.15	64.90	-39.6	-40.4	22.8	0.00e+00	0	40	0	2148532224	49	3970
2026-01-03 14:24:31.49	176.42	65.33	-40.4	-41.3	22.1	0.00e+00	0	40	0	2155872256	50	4171
2026-01-03 14:24:32.49	176.69	65.76	-39.9	-40.8	22.4	0.00e+00	0	40	0	2163212288	49	4169
2026-01-03 14:24:33.50	176.98	66.20	-40.0	-40.9	22.4	0.00e+00	0	40	0	2170552320	49	4206
2026-01-03 14:24:34.50	177.27	66.64	-39.8	-40.7	22.6	0.00e+00	0	40	0	2177892352	49	4104
2026-01-03 14:24:35.50	177.57	67.07	-39.7	-40.6	22.8	0.00e+00	0	40	0	2184183808	49	4056
2026-01-03 14:24:36.51	177.90	67.51	-39.7	-40.5	22.6	0.00e+00	0	40	0	2191523840	49	4039
2026-01-03 14:24:37.51	178.23	67.95	-39.3	-40.1	23.2	0.00e+00	0	40	0	2198863872	48	4089
2026-01-03 14:24:38.51	178.58	68.39	-39.4	-40.3	23.0	0.00e+00	0	40	0	2206203904	48	4150
2026-01-03 14:24:39.52	178.94	68.84	-39.5	-40.3	23.0	0.00e+00	0	40	0	2213543936	48	4160
2026-01-03 14:24:40.52	179.32	69.28	-39.4	-40.2	23.0	0.00e+00	0	40	0	2220883968	48	4131
2026-01-03 14:24:41.52	179.72	69.73	-39.5	-40.3	22.9	0.00e+00	0	40	0	2228224000	48	4149
2026-01-03 14:24:42.53	180.14	70.18	-39.4	-40.2	23.1	0.00e+00	0	40	0	2235564032	48	4126
2026-01-03 14:24:43.53	180.58	70.63	-39.3	-40.1	23.1	0.00e+00	0	40	0	2241855488	48	4086
2026-01-03 14:24:44.53	181.04	71.07	-39.7	-40.5	22.8	0.00e+00	0	40	0	2250244096	48	4271
2026-01-03 14:24:45.54	181.52	71.53	-39.9	-40.7	22.6	0.00e+00	0	40	0	2257584128	49	4137
2026-01-03 14:24:46.54	182.03	71.98	-39.7	-40.5	22.8	0.00e+00	0	40	0	2263875584	49	4023
2026-01-03 14:24:47.54	182.57	72.43	-39.8	-40.6	22.7	0.00e+00	0	40	0	2271215616	49	4075
2026-01-03 14:24:48.55	183.14	72.88	-40.1	-41.0	22.4	0.00e+00	0	40	0	2278555648	50	4018
2026-01-03 14:24:49.55	183.73	73.33	-40.0	-40.8	22.5	0.00e+00	0	40	0	2285895680	50	3949
2026-01-03 14:24:50.56	184.37	73.79	-39.7	-40.6	22.7	0.00e+00	0	40	0	2293235712	50	3830
2026-01-03 14:24:51.56	185.04	74.24	-39.5	-40.3	22.9	0.00e+00	0	40	0	2300575744	49	3935
2026-01-03 14:24:52.56	185.75	74.68	-39.5	-40.4	22.8	0.00e+00	0	40	0	2307915776	49	3973
2026-01-03 14:24:53.57	186.51	75.14	-39.5	-40.4	22.9	0.00e+00	0	40	0	2315255808	49	3963
2026-01-03 14:24:54.57	187.31	75.58	-39.4	-40.2	23.0	0.00e+00	0	40	0	2322595840	49	3889
2026-01-03 14:24:55.57	188.17	76.03	-39.0	-39.8	23.3	0.00e+00	0	40	0	2328887296	48	3943
2026-01-03 14:24:56.58	189.09	76.48	-38.4	-39.2	23.5	0.00e+00	0	40	0	2336227328	47	3871
2026-01-03 14:24:57.58	190.07	76.92	-38.3	-39.1	23.5	0.00e+00	0	40	0	2343567360	47	3847
2026-01-03 14:24:58.58	191.12	77.36	-38.4	-39.2	23.4	0.00e+00	0	40	0	2350907392	47	3881
2026-01-03 14:24:59.59	192.26	77.80	-38.2	-39.0	23.6	0.00e+00	0	40	0	2358247424	47	3793
2026-01-03 14:25:00.59	193.47	78.23	-37.9	-38.7	23.8	0.00e+00	0	40	0	2365587456	46	3885
2026-01-03 14:25:01.59	194.77	78.66	-37.9	-38.7	23.8	0.00e+00	0	40	0	2372927488	46	3899
2026-01-03 14:25:02.60	196.20	79.09	-38.1	-38.9	23.5	0.00e+00	0	40	0	2380267520	46	3968
2026-01-03 14:25:03.60	197.72	79.51	-38.3	-39.1	23.5	0.00e+00	0	40	0	2387607552	46	4097
2026-01-03 14:25:04.60	199.38	79.91	-38.3	-39.1	23.5	0.00e+00	0	40	0	2394947584	46	4066
2026-01-03 14:25:05.61	201.19	80.32	-38.2	-39.1	23.5	0.00e+00	0	40	0	2402287616	46	4056
2026-01-03 14:25:06.61	203.14	80.71	-38.1	-38.9	23.7	0.00e+00	0	40	0	2409627648	46	3989
2026-01-03 14:25:07.61	205.26	81.09	-38.3	-39.1	23.5	0.00e+00	0	40	0	2415919104	46	4066
2026-01-03 14:25:08.61	207.57	81.46	-38.2	-39.1	23.5	0.00e+00	0	40	0	2423259136	46	4054
2026-01-03 14:25:09.62	210.11	81.82	-38.2	-39.1	23.6	0.00e+00	0	40	0	2430599168	46	4053
2026-01-03 14:25:10.62	212.86	82.16	-38.2	-39.0	23.6	0.00e+00	0	40	0	2437939200	46	4033
2026-01-03 14:25:11.62	215.84	82.48	-38.2	-39.0	23.7	0.00e+00	0	40	0	2445279232	46	4021
2026-01-03 14:25:12.63	219.12	82.78	-38.2	-39.0	23.6	0.00e+00	0	40	0	2452619264	46	4042
2026-01-03 14:25:13.63	222.63	83.05	-38.3	-39.1	23.6	0.00e+00	0	40	0	2459959296	46	4062
2026-01-03 14:25:14.63	226.42	83.30	-38.6	-39.4	23.3	0.00e+00	0	40	0	2467299328	46	4216
2026-01-03 14:25:15.63	230.48	83.51	-38.6	-39.4	23.3	0.00e+00	0	40	0	2474639360	46	4223
2026-01-03 14:25:16.64	234.84	83.69	-38.6	-39.4	23.3	0.00e+00	0	40	0	2481979392	47	3970
2026-01-03 14:25:17.64	239.38	83.83	-38.4	-39.2	23.4	0.00e+00	0	40	0	2489319424	47	3888
2026-01-03 14:25:18.65	244.16	83.94	-38.4	-39.2	23.4	0.00e+00	0	40	0	2495610880	47	3881
2026-01-03 14:25:19.65	249.01	84.00	-38.4	-39.3	23.4	0.00e+00	0	40	0	2502950912	47	3922
2026-01-03 14:25:20.65	253.93	84.01	-38.5	-39.3	23.3	0.00e+00	0	40	0	2510290944	47	3957
2026-01-03 14:25:21.66	258.89	83.98	-38.4	-39.2	23.4	0.00e+00	0	40	0	2517630976	47	3913
2026-01-03 14:25:22.66	263.71	83.91	-38.3	-39.1	23.6	0.00e+00	0	40	0	2524971008	47	3829
2026-01-03 14:25:23.66	268.39	83.80	-38.2	-39.0	23.6	0.00e+00	0	40	0	2532311040	47	3815
2026-01-03 14:25:24.67	272.92	83.64	-38.3	-39.2	23.5	0.00e+00	0	40	0	2539651072	46	4101
2026-01-03 14:25:25.67	277.16	83.45	-38.6	-39.4	23.3	0.00e+00	0	40	0	2546991104	46	4229
2026-01-03 14:25:26.67	281.15	83.23	-38.4	-39.3	23.4	0.00e+00	0	40	0	2554331136	46	4161
2026-01-03 14:25:27.67	284.86	82.98	-38.5	-39.4	23.3	0.00e+00	0	40	0	2560622592	46	4212
2026-01-03 14:25:28.67	288.30	82.70	-38.4	-39.2	23.4	0.00e+00	0	40	0	2567962624	46	4132
2026-01-03 14:25:29.68	291.50	82.39	-38.2	-39.0	23.6	0.00e+00	0	40	0	2575302656	46	4017
2026-01-03 14:25:30.68	294.41	82.07	-38.1	-38.9	23.7	0.00e+00	0	40	0	2582642688	46	3983
2026-01-03 14:25:31.68	297.09	81.73	-38.3	-39.2	23.5	0.00e+00	0	40	0	2589982720	46	4111
2026-01-03 14:25:32.69	299.58	81.36	-38.3	-39.1	23.4	0.00e+00	0	40	0	2597322752	46	4092
2026-01-03 14:25:33.69	301.83	80.99	-38.1	-38.9	23.7	0.00e+00	0	40	0	2604662784	46	3989
2026-01-03 14:25:34.69	303.90	80.61	-38.0	-38.8	23.7	0.00e+00	0	40	0	2612002816	46	3936
2026-01-03 14:25:35.70	305.82	80.21	-38.0	-38.8	23.8	0.00e+00	0	40	0	2619342848	46	3926
2026-01-03 14:25:36.70	307.58	79.80	-37.7	-38.5	24.0	0.00e+00	0	40	0	2626682880	46	3788
2026-01-03 14:25:37.70	309.19	79.39	-37.7	-38.5	24.0	0.00e+00	0	40	0	2634022912	46	3819
2026-01-03 14:25:38.71	310.70	78.97	-37.9	-38.7	23.9	0.00e+00	0	40	0	2641362944	46	3896
2026-01-03 14:25:39.71	312.08	78.55	-38.0	-38.8	23.7	0.00e+00	0	40	0	2647654400	46	3952
2026-01-03 14:25:40.72	313.37	78.11	-38.1	-38.9	23.7	0.00e+00	0	40	0	2654994432	46	3965
2026-01-03 14:25:41.72	314.55	77.68	-38.1	-38.8	23.8	0.00e+00	0	40	0	2662334464	46	3958
2026-01-03 14:25:42.72	315.66	77.24	-38.3	-39.1	23.4	0.00e+00	0	40	0	2669674496	46	4080
2026-01-03 14:25:43.73	316.69	76.80	-38.7	-39.5	23.2	0.00e+00	0	40	0	2677014528	46	4272
2026-01-03 14:25:44.73	317.65	76.36	-38.9	-39.7	23.0	0.00e+00	0	40	0	2684354560	47	4111
2026-01-03 14:25:45.73	318.55	75.92	-38.9	-39.8	23.0	0.00e+00	0	40	0	2691694592	47	4152
2026-01-03 14:25:46.73	319.39	75.47	-39.5	-40.3	22.9	0.00e+00	0	40	0	2699034624	48	4180
2026-01-03 14:25:47.74	320.19	75.02	-39.7	-40.5	22.8	0.00e+00	0	40	0	2706374656	48	4273
2026-01-03 14:25:48.74	320.93	74.57	-39.5	-40.3	22.9	0.00e+00	0	40	0	2713714688	48	4174
2026-01-03 14:25:49.74	321.63	74.12	-39.3	-40.1	23.2	0.00e+00	0	40	0	2721054720	48	4078
2026-01-03 14:25:50.75	322.29	73.67	-39.6	-40.4	22.9	0.00e+00	0	40	0	2727346176	48	4209
2026-01-03 14:25:51.75	322.91	73.22	-40.1	-40.9	22.5	0.00e+00	0	40	0	2734686208	49	4221
2026-01-03 14:25:52.75	323.50	72.77	-40.3	-41.2	22.2	0.00e+00	0	40	0	2742026240	50	4120
2026-01-03 14:25:53.76	324.06	72.32	-40.2	-41.1	22.4	0.00e+00	0	40	0	2749366272	50	4066
2026-01-03 14:25:54.76	324.59	71.87	-40.3	-41.2	22.3	0.00e+00	0	40	0	2756706304	50	4100
2026-01-03 14:25:55.76	325.09	71.42	-40.3	-41.2	22.3	0.00e+00	0	40	0	2764046336	50	4112
2026-01-03 14:25:56.76	325.56	70.97	-40.4	-41.3	22.2	0.00e+00	0	40	0	2771386368	50	4169
2026-01-03 14:25:57.77	326.02	70.52	-40.6	-41.4	22.2	0.00e+00	0	40	0	2778726400	50	4223
2026-01-03 14:25:58.77	326.45	70.07	-40.4	-41.2	22.3	0.00e+00	0	40	0	2786066432	50	4123
2026-01-03 14:25:59.77	326.86	69.63	-40.3	-41.2	22.3	0.00e+00	0	40	0	2792357888	50	4106
2026-01-03 14:26:00.78	327.26	69.18	-40.1	-41.0	22.4	0.00e+00	0	40	0	2799697920	50	4008
2026-01-03 14:26:01.78	327.64	68.74	-39.9	-40.8	22.7	0.00e+00	0	40	0	2807037952	50	3915
2026-01-03 14:26:02.78	327.99	68.30	-39.7	-40.5	22.8	0.00e+00	0	40	0	2814377984	50	3824
2026-01-03 14:26:03.79	328.34	67.85	-39.7	-40.5	22.9	0.00e+00	0	40	0	2821718016	50	3789
2026-01-03 14:26:04.79	328.67	67.42	-39.6	-40.4	22.9	0.00e+00	0	40	0	2829058048	49	3990
2026-01-03 14:26:05.79	328.98	66.98	-39.6	-40.4	22.8	0.00e+00	0	40	0	2836398080	49	3998
2026-01-03 14:26:06.79	329.29	66.55	-39.4	-40.2	23.1	0.00e+00	0	40	0	2843738112	49	3895
2026-01-03 14:26:07.79	329.58	66.11	-39.5	-40.3	23.1	0.00e+00	0	40	0	2851078144	49	3918
2026-01-03 14:26:08.80	329.86	65.68	-39.5	-40.3	23.0	0.00e+00	0	40	0	2858418176	49	3949
2026-01-03 14:26:09.80	330.13	65.25	-39.7	-40.6	22.8	0.00e+00	0	40	0	2865758208	49	4059
2026-01-03 14:26:10.80	330.39	64.82	-40.0	-40.8	22.6	0.00e+00	0	40	0	2872049664	49	4172
2026-01-03 14:26:11.81	330.64	64.39	-40.0	-40.8	22.5	0.00e+00	0	40	0	2879389696	49	4180
2026-01-03 14:26:12.81	330.88	63.97	-40.0	-40.8	22.6	0.00e+00	0	40	0	2886729728	49	4163
2026-01-03 14:26:13.81	331.11	63.55	-40.1	-41.0	22.5	0.00e+00	0	40	0	2894069760	49	4254
2026-01-03 14:26:14.81	331.34	63.13	-40.2	-41.0	22.4	0.00e+00	0	40	0	2901409792	49	4284
2026-01-03 14:26:15.82	331.55	62.71	-40.4	-41.2	22.2	0.00e+00	0	40	0	2908749824	50	4122
2026-01-03 14:26:16.82	331.76	62.29	-40.6	-41.5	21.9	0.00e+00	0	40	0	2916089856	50	4245
2026-01-03 14:26:17.82	331.97	61.88	-40.8	-41.7	21.8	0.00e+00	0	40	0	2923429888	51	4121
2026-01-03 14:26:18.83	332.16	61.47	-41.0	-41.9	21.6	0.00e+00	0	40	0	2930769920	51	4222
2026-01-03 14:26:19.83	332.35	61.06	-40.9	-41.8	21.7	0.00e+00	0	40	0	2937061376	51	4176
2026-01-03 14:26:20.83	332.54	60.65	-41.0	-41.9	21.6	0.00e+00	0	40	0	2945449984	51	4214
2026-01-03 14:26:21.84	332.72	60.25	-41.3	-42.2	21.0	0.00e+00	0	40	0	2952790016	52	4109
2026-01-03 14:26:22.84	332.89	59.85	-41.5	-42.4	21.2	0.00e+00	0	39	0	2959081472	52	4237
2026-01-03 14:26:23.85	333.06	59.44	-41.6	-42.5	21.0	0.00e+00	0	40	0	2966421504	52	4286
2026-01-03 14:26:24.85	333.22	59.05	-41.5	-42.5	21.2	0.00e+00	0	40	0	2973761536	52	4243
2026-01-03 14:26:25.85	333.38	58.65	-41.4	-42.3	21.2	0.00e+00	0	40	0	2981101568	52	4185
2026-01-03 14:26:26.86	333.53	58.26	-41.4	-42.3	21.2	0.00e+00	0	40	0	2988441600	52	4187
2026-01-03 14:26:27.86	333.68	57.87	-41.4	-42.3	21.3	0.00e+00	0	40	0	2995781632	52	4155
2026-01-03 14:26:28.86	333.82	57.48	-41.4	-42.3	21.2	0.00e+00	0	40	0	3003121664	52	4166
2026-01-03 14:26:29.87	333.97	57.09	-41.5	-42.5	21.1	0.00e+00	0	40	0	3010461696	52	4243
2026-01-03 14:26:30.87	334.10	56.71	-41.4	-42.3	21.1	0.00e+00	0	40	0	3017801728	52	4166
2026-01-03 14:26:31.87	334.24	56.33	-41.2	-42.1	21.4	0.00e+00	0	40	0	3024093184	52	4064
2026-01-03 14:26:32.88	334.37	55.95	-40.8	-41.7	21.7	0.00e+00	0	40	0	3031433216	52	3902
2026-01-03 14:26:33.88	334.49	55.58	-40.8	-41.6	21.8	0.00e+00	0	40	0	3039821824	52	3863
2026-01-03 14:26:34.88	334.62	55.21	-40.7	-41.6	21.9	0.00e+00	0	40	0	3046113280	52	3848
2026-01-03 14:26:35.88	334.74	54.84	-40.7	-41.6	21.9	0.00e+00	0	40	0	3053453312	52	3831
2026-01-03 14:26:36.89	334.85	54.47	-40.8	-41.7	21.7	0.00e+00	0	40	0	3060793344	52	3885
2026-01-03 14:26:37.89	334.97	54.10	-41.0	-41.9	21.6	0.00e+00	0	40	0	3068133376	52	3992
2026-01-03 14:26:38.89	335.08	53.74	-41.1	-42.0	21.4	0.00e+00	0	40	0	3075473408	52	4018
2026-01-03 14:26:39.90	335.19	53.38	-41.0	-41.9	21.5	0.00e+00	0	40	0	3082813440	52	3959
2026-01-03 14:26:40.90	335.30	53.02	-41.0	-41.9	21.6	0.00e+00	0	40	0	3090153472	52	3966
2026-01-03 14:26:41.90	335.40	52.67	-41.2	-42.0	21.4	0.00e+00	0	40	0	3097493504	52	4038
2026-01-03 14:26:42.90	335.50	52.32	-41.1	-42.0	21.4	0.00e+00	0	40	0	3103784960	52	4026
2026-01-03 14:26:43.91	335.60	51.96	-41.2	-42.1	21.4	0.00e+00	0	40	0	3111124992	52	4081
2026-01-03 14:26:44.91	335.70	51.62	-41.0	-41.9	21.6	0.00e+00	0	40	0	3118465024	52	3962
2026-01-03 14:26:45.91	335.79	51.27	-41.1	-41.9	21.5	0.00e+00	0	40	0	3125805056	52	3996
2026-01-03 14:26:46.91	335.88	50.93	-41.0	-41.9	21.7	0.00e+00	0	40	0	3133145088	52	3959
2026-01-03 14:26:47.92	335.98	50.59	-41.0	-41.9	21.6	0.00e+00	0	40	0	3140485120	52	3984
2026-01-03 14:26:48.92	336.07	50.25	-41.0	-41.9	21.6	0.00e+00	0	40	0	3147825152	52	3985
2026-01-03 14:26:49.92	336.15	49.91	-40.9	-41.8	21.6	0.00e+00	0	40	0	3155165184	52	3946
2026-01-03 14:26:50.93	336.24	49.58	-41.1	-42.0	21.4	0.00e+00	0	39	0	3162505216	52	4044
2026-01-03 14:26:51.93	336.32	49.25	-41.2	-42.0	21.5	0.00e+00	0	40	0	3169845248	52	4050
2026-01-03 14:26:52.93	336.40	48.92	-41.1	-42.0	21.3	0.00e+00	0	40	0	3177185280	52	4021
2026-01-03 14:26:53.94	336.48	48.59	-41.2	-42.1	21.4	0.00e+00	0	40	0	3184525312	52	4086
2026-01-03 14:26:54.94	336.56	48.27	-40.8	-41.7	21.7	0.00e+00	0	40	0	3190816768	52	3869
2026-01-03 14:26:55.94	336.64	47.95	-40.6	-41.5	22.0	0.00e+00	0	40	0	3198156800	51	4007
2026-01-03 14:26:56.94	336.71	47.63	-40.6	-41.4	22.0	0.00e+00	0	40	0	3205496832	51	3993
2026-01-03 14:26:57.95	336.79	47.31	-40.4	-41.3	22.2	0.00e+00	0	39	0	3212836864	51	3917
2026-01-03 14:26:58.95	336.86	47.00	-40.0	-40.9	22.5	0.00e+00	0	40	0	3220176896	50	3964
2026-01-03 14:26:59.95	336.93	46.69	-40.0	-40.8	22.6	0.00e+00	0	40	0	3227516928	50	3947
2026-01-03 14:27:00.96	337.00	46.37	-40.1	-41.0	22.5	0.00e+00	0	40	0	3234856960	50	4019
2026-01-03 14:27:01.96	337.07	46.07	-40.2	-41.0	22.5	0.00e+00	0	40	0	3242196992	50	4035
2026-01-03 14:27:02.96	337.14	45.76	-40.2	-41.0	22.4	0.00e+00	0	40	0	3248488448	50	4041
2026-01-03 14:27:03.97	337.20	45.46	-40.1	-40.9	22.4	0.00e+00	0	40	0	3255828480	50	4001
2026-01-03 14:27:04.97	337.27	45.16	-40.1	-40.9	22.5	0.00e+00	0	40	0	3263168512	50	3977
2026-01-03 14:27:05.97	337.33	44.86	-39.9	-40.7	22.6	0.00e+00	0	40	0	3270508544	50	3899
2026-01-03 14:27:06.98	337.40	44.56	-39.8	-40.6	22.7	0.00e+00	0	40	0	3277848576	50	3850
2026-01-03 14:27:07.98	337.46	44.27	-39.7	-40.5	22.8	0.00e+00	0	40	0	3285188608	50	3821
2026-01-03 14:27:08.98	337.52	43.98	-39.6	-40.5	22.8	0.00e+00	0	40	0	3292528640	50	3789
2026-01-03 14:27:09.99	337.58	43.68	-39.4	-40.3	23.0	0.00e+00	0	40	0	3299868672	49	3920
2026-01-03 14:27:10.99	337.64	43.40	-39.5	-40.4	22.9	0.00e+00	0	39	0	3307208704	49	3965
2026-01-03 14:27:12.00	337.69	43.11	-39.6	-40.4	22.9	0.00e+00	0	40	0	3314548736	49	3981
2026-01-03 14:27:13.00	337.75	42.83	-39.8	-40.6	22.7	0.00e+00	0	39	0	3321888768	49	4070
2026-01-03 14:27:14.00	337.81	42.55	-39.9	-40.8	22.6	0.00e+00	0	40	0	3329228800	49	4158
2026-01-03 14:27:15.01	337.86	42.27	-40.0	-40.9	22.5	0.00e+00	0	40	0	3335520256	49	4207
2026-01-03 14:27:16.01	337.91	41.99	-40.0	-40.8	22.5	0.00e+00	0	40	0	3342860288	49	4178
2026-01-03 14:27:17.01	337.97	41.71	-39.9	-40.8	22.5	0.00e+00	0	40	0	3350200320	49	4169
2026-01-03 14:27:18.02	338.02	41.44	-39.9	-40.8	22.5	0.00e+00	0	40	0	3357540352	49	4164
2026-01-03 14:27:19.02	338.07	41.17	-39.9	-40.8	22.6	0.00e+00	0	40	0	3364880384	49	4149
2026-01-03 14:27:20.02	338.12	40.90	-39.9	-40.7	22.6	0.00e+00	0	40	0	3372220416	49	4124
2026-01-03 14:27:21.03	338.17	40.63	-40.0	-40.8	22.5	0.00e+00	0	40	0	3379560448	49	4180
2026-01-03 14:27:22.03	338.22	40.37	-40.1	-41.0	22.4	0.00e+00	0	40	0	3386900480	49	4250
2026-01-03 14:27:23.03	338.27	40.11	-40.1	-41.0	22.4	0.00e+00	0	40	0	3394240512	49	4253
2026-01-03 14:27:24.03	338.32	39.84	-40.2	-41.1	22.0	0.00e+00	0	40	0	3401580544	50	4053
2026-01-03 14:27:25.04	338.36	39.58	-40.4	-41.3	22.1	0.00e+00	0	40	0	3408920576	50	4154
2026-01-03 14:27:26.04	338.41	39.33	-40.4	-41.3	22.2	0.00e+00	0	40	0	3416260608	50	4149
2026-01-03 14:27:27.04	338.46	39.07	-40.4	-41.3	22.1	0.00e+00	0	40	0	3422552064	50	4178
2026-01-03 14:27:28.05	338.50	38.82	-40.3	-41.1	22.2	0.00e+00	0	40	0	3429892096	50	4094
2026-01-03 14:27:29.05	338.55	38.57	-40.1	-41.0	22.4	0.00e+00	0	40	0	3437232128	50	4009
2026-01-03 14:27:30.05	338.59	38.32	-40.1	-40.9	22.3	0.00e+00	0	40	0	3444572160	50	4000
2026-01-03 14:27:31.05	338.63	38.07	-39.8	-40.7	22.7	0.00e+00	0	40	0	3451912192	50	3872
2026-01-03 14:27:32.05	338.68	37.82	-39.7	-40.5	22.7	0.00e+00	0	39	0	3459252224	50	3808
2026-01-03 14:27:33.06	338.72	37.58	-39.7	-40.5	22.9	0.00e+00	0	40	0	3466592256	50	3816
2026-01-03 14:27:34.06	338.76	37.34	-39.7	-40.5	22.9	0.00e+00	0	40	0	3473932288	50	3794
2026-01-03 14:27:35.06	338.80	37.09	-39.4	-40.2	22.9	0.00e+00	0	40	0	3480223744	49	3910
2026-01-03 14:27:36.07	338.84	36.85	-39.4	-40.2	23.1	0.00e+00	0	40	0	3487563776	49	3874
2026-01-03 14:27:37.07	338.88	36.62	-39.3	-40.1	23.1	0.00e+00	0	39	0	3494903808	49	3848
2026-01-03 14:27:38.07	338.92	36.38	-39.2	-40.0	23.1	0.00e+00	0	40	0	3502243840	49	3823
2026-01-03 14:27:39.07	338.96	36.15	-39.2	-40.0	23.3	0.00e+00	0	40	0	3509583872	49	3799
2026-01-03 14:27:40.08	339.00	35.91	-39.2	-40.0	23.2	0.00e+00	0	40	0	3516923904	49	3794
2026-01-03 14:27:41.08	339.03	35.68	-39.2	-40.0	23.2	0.00e+00	0	40	0	3524263936	49	3801
2026-01-03 14:27:42.09	339.07	35.45	-39.2	-40.0	23.2	0.00e+00	0	40	0	3531603968	49	3822
2026-01-03 14:27:43.09	339.11	35.23	-39.2	-40.0	23.2	0.00e+00	0	40	0	3538944000	49	3812
2026-01-03 14:27:44.09	339.14	35.00	-39.3	-40.1	23.2	0.00e+00	0	40	0	3546284032	49	3861
2026-01-03 14:27:45.10	339.18	34.78	-39.3	-40.1	23.0	0.00e+00	0	40	0	3553624064	49	3845
2026-01-03 14:27:46.10	339.22	34.55	-39.2	-40.1	23.2	0.00e+00	0	40	0	3560964096	49	3831
2026-01-03 14:27:47.10	339.25	34.33	-39.2	-40.1	23.2	0.00e+00	0	40	0	3567255552	49	3830
2026-01-03 14:27:48.11	339.29	34.11	-39.4	-40.2	23.1	0.00e+00	0	40	0	3574595584	49	3880
2026-01-03 14:27:49.11	339.32	33.89	-39.3	-40.1	23.1	0.00e+00	0	40	0	3581935616	49	3843
2026-01-03 14:27:50.11	339.35	33.68	-39.3	-40.1	23.1	0.00e+00	0	40	0	3589275648	49	3853
2026-01-03 14:27:51.12	339.39	33.46	-39.4	-40.2	23.0	0.00e+00	0	40	0	3596615680	49	3887
2026-01-03 14:27:52.12	339.42	33.25	-39.4	-40.2	23.0	0.00e+00	0	40	0	3603955712	49	3893
2026-01-03 14:27:53.12	339.45	33.04	-39.3	-40.1	22.9	0.00e+00	0	40	0	3611295744	49	3868
2026-01-03 14:27:54.13	339.49	32.83	-39.4	-40.2	23.0	0.00e+00	0	40	0	3618635776	49	3900
2026-01-03 14:27:55.13	339.52	32.62	-39.3	-40.2	23.1	0.00e+00	0	40	0	3625975808	49	3882
2026-01-03 14:27:56.13	339.55	32.41	-39.3	-40.2	23.1	0.00e+00	0	40	0	3633315840	49	3882
2026-01-03 14:27:57.14	339.58	32.20	-39.4	-40.3	23.0	0.00e+00	0	40	0	3640655872	49	3927
2026-01-03 14:27:58.14	339.61	32.00	-39.4	-40.3	23.0	0.00e+00	0	40	0	3646947328	49	3919
2026-01-03 14:27:59.14	339.64	31.80	-39.4	-40.3	22.8	0.00e+00	0	40	0	3654287360	49	3937
2026-01-03 14:28:00.14	339.67	31.60	-39.5	-40.4	22.9	0.00e+00	0	40	0	3661627392	49	3964
2026-01-03 14:28:01.15	339.70	31.39	-39.6	-40.4	22.8	0.00e+00	0	40	0	3668967424	49	3993
2026-01-03 14:28:02.15	339.73	31.19	-39.5	-40.4	22.9	0.00e+00	0	40	0	3676307456	49	3978
2026-01-03 14:28:03.15	339.76	31.00	-39.6	-40.5	22.9	0.00e+00	0	40	0	3683647488	49	4015
2026-01-03 14:28:04.15	339.79	30.80	-39.6	-40.4	22.9	0.00e+00	0	40	0	3690987520	49	4004
2026-01-03 14:28:05.16	339.82	30.61	-39.7	-40.6	22.7	0.00e+00	0	39	0	3698327552	49	4074
2026-01-03 14:28:06.16	339.85	30.41	-39.8	-40.7	22.7	0.00e+00	0	40	0	3705667584	49	4100
2026-01-03 14:28:07.17	339.87	30.22	-39.8	-40.7	22.7	0.00e+00	0	40	0	3711959040	49	4104
2026-01-03 14:28:08.17	339.90	30.03	-39.9	-40.8	22.6	0.00e+00	0	40	0	3719299072	49	4168
2026-01-03 14:28:09.17	339.93	29.84	-40.0	-40.9	22.5	0.00e+00	0	40	0	3726639104	49	4214
2026-01-03 14:28:10.17	339.96	29.65	-40.1	-41.0	22.5	0.00e+00	0	40	0	3733979136	49	4249
2026-01-03 14:28:11.18	339.98	29.46	-40.2	-41.0	22.4	0.00e+00	0	40	0	3741319168	49	4283
2026-01-03 14:28:12.18	340.01	29.27	-40.1	-41.0	22.4	0.00e+00	0	40	0	3748659200	49	4266
2026-01-03 14:28:13.18	340.04	29.09	-40.3	-41.1	22.3	0.00e+00	0	40	0	3755999232	50	4089
2026-01-03 14:28:14.18	340.06	28.91	-40.2	-41.1	22.4	0.00e+00	0	40	0	3763339264	50	4061
2026-01-03 14:28:15.19	340.09	28.72	-40.3	-41.1	22.3	0.00e+00	0	40	0	3770679296	50	4092
2026-01-03 14:28:16.19	340.11	28.54	-40.2	-41.1	22.4	0.00e+00	0	40	0	3778019328	50	4071
2026-01-03 14:28:17.19	340.14	28.36	-40.3	-41.1	22.3	0.00e+00	0	40	0	3785359360	50	4092
2026-01-03 14:28:18.20	340.17	28.18	-40.4	-41.2	22.3	0.00e+00	0	40	0	3792699392	50	4141
2026-01-03 14:28:19.20	340.19	28.00	-40.4	-41.3	22.2	0.00e+00	0	40	0	3798990848	50	4164
2026-01-03 14:28:20.20	340.21	27.83	-40.2	-41.1	22.3	0.00e+00	0	40	0	3806330880	50	4076
2026-01-03 14:28:21.21	340.24	27.65	-40.2	-41.1	22.3	0.00e+00	0	40	0	3813670912	50	4072
2026-01-03 14:28:22.21	340.26	27.48	-40.3	-41.2	22.2	0.00e+00	0	40	0	3821010944	50	4112
2026-01-03 14:28:23.21	340.29	27.30	-40.7	-41.5	22.2	0.00e+00	0	40	0	3828350976	50	4289
2026-01-03 14:28:24.21	340.31	27.13	-40.4	-41.2	22.1	0.00e+00	0	40	0	3835691008	50	4144
2026-01-03 14:28:25.22	340.34	26.96	-40.4	-41.3	22.1	0.00e+00	0	40	0	3843031040	50	4173
2026-01-03 14:28:26.22	340.36	26.79	-40.6	-41.4	22.1	0.00e+00	0	40	0	3850371072	50	4235
2026-01-03 14:28:27.22	340.38	26.62	-40.7	-41.6	22.1	0.00e+00	0	40	0	3856662528	50	4304
2026-01-03 14:28:28.23	340.40	26.45	-40.6	-41.5	22.2	0.00e+00	0	40	0	3864002560	50	4250
2026-01-03 14:28:29.23	340.43	26.29	-40.6	-41.4	22.3	4.50e-06	0	40	0	3872391168	51	3989
2026-01-03 14:28:30.24	340.45	26.12	-40.7	-41.6	22.2	0.00e+00	0	40	0	3878682624	51	4053
2026-01-03 14:28:31.24	340.47	25.95	-40.9	-41.8	22.2	0.00e+00	0	40	0	3886022656	51	4151
2026-01-03 14:28:32.24	340.49	25.79	-40.1	-41.0	22.4	0.00e+00	0	40	0	3893362688	51	3805
2026-01-03 14:28:33.24	340.52	25.63	-40.1	-41.0	22.4	0.00e+00	0	39	0	3900702720	50	4007
2026-01-03 14:28:34.25	340.54	25.46	-40.1	-40.9	22.4	0.00e+00	0	40	0	3908042752	50	4004
2026-01-03 14:28:35.25	340.56	25.30	-40.1	-41.0	22.4	0.00e+00	0	40	0	3915382784	50	4017
2026-01-03 14:28:36.25	340.58	25.14	-40.0	-40.9	22.4	0.00e+00	0	40	0	3922722816	50	3984
2026-01-03 14:28:37.25	340.60	24.99	-40.0	-40.8	22.5	0.00e+00	0	40	0	3930062848	50	3936
2026-01-03 14:28:38.25	340.62	24.83	-40.0	-40.8	22.5	0.00e+00	0	40	0	3937402880	50	3944
2026-01-03 14:28:39.26	340.65	24.67	-39.9	-40.8	22.5	0.00e+00	0	40	0	3943694336	50	3926
2026-01-03 14:28:40.26	340.67	24.51	-39.9	-40.7	22.5	0.00e+00	0	40	0	3951034368	50	3909
2026-01-03 14:28:41.26	340.69	24.36	-39.9	-40.7	22.6	0.00e+00	0	40	0	3958374400	50	3913
2026-01-03 14:28:42.27	340.71	24.20	-39.9	-40.7	22.4	1.10e-06	0	40	0	3965714432	50	3892
2026-01-03 14:28:43.27	340.73	24.05	-39.8	-40.6	22.6	0.00e+00	0	40	0	3973054464	50	3852
2026-01-03 14:28:44.27	340.75	23.90	-39.8	-40.7	22.5	0.00e+00	0	40	0	3980394496	50	3872
2026-01-03 14:28:45.28	340.77	23.75	-39.9	-40.7	22.5	0.00e+00	0	40	0	3987734528	50	3900
2026-01-03 14:28:46.28	340.79	23.60	-39.8	-40.7	22.5	0.00e+00	0	40	0	3995074560	50	3880
2026-01-03 14:28:47.28	340.81	23.45	-39.8	-40.6	22.5	0.00e+00	0	40	0	4002414592	50	3862
2026-01-03 14:28:48.28	340.83	23.30	-39.9	-40.8	22.5	0.00e+00	0	40	0	4008706048	50	3934
2026-01-03 14:28:49.28	340.85	23.15	-39.9	-40.7	22.4	4.50e-06	0	40	0	4016046080	50	3913
2026-01-03 14:28:50.28	340.87	23.00	-39.9	-40.8	22.5	0.00e+00	0	40	0	4023386112	50	3940
2026-01-03 14:28:51.29	340.88	22.85	-39.9	-40.7	22.4	0.00e+00	0	40	0	4030726144	50	3905
2026-01-03 14:28:52.29	340.90	22.71	-39.9	-40.8	22.5	0.00e+00	0	40	0	4038066176	50	3915
2026-01-03 14:28:53.29	340.92	22.57	-39.9	-40.8	22.5	0.00e+00	0	40	0	4045406208	50	3941
2026-01-03 14:28:54.30	340.94	22.42	-39.9	-40.8	22.5	2.20e-06	0	40	0	4052746240	50	3922
2026-01-03 14:28:55.30	340.96	22.28	-40.0	-40.8	22.4	0.00e+00	0	40	0	4060086272	50	3943
2026-01-03 14:28:56.30	340.98	22.14	-40.0	-40.8	22.3	0.00e+00	0	40	0	4067426304	50	3954
2026-01-03 14:28:57.31	341.00	21.99	-40.1	-41.0	22.3	0.00e+00	0	40	0	4074766336	50	4018
2026-01-03 14:28:58.31	341.01	21.85	-40.1	-40.9	22.3	0.00e+00	0	40	0	4082106368	50	3992
2026-01-03 14:28:59.31	341.03	21.71	-40.0	-40.9	22.4	0.00e+00	0	40	0	4088397824	50	3974
2026-01-03 14:29:00.32	341.05	21.57	-40.1	-41.0	22.3	0.00e+00	0	40	0	4095737856	50	4030
2026-01-03 14:29:01.32	341.07	21.43	-40.2	-41.0	22.3	0.00e+00	0	40	0	4103077888	50	4042
2026-01-03 14:29:02.32	341.09	21.30	-40.2	-41.1	22.3	0.00e+00	0	40	0	4110417920	50	4052
2026-01-03 14:29:03.32	341.10	21.16	-40.3	-41.2	22.2	0.00e+00	0	40	0	4117757952	50	4099
2026-01-03 14:29:04.33	341.12	21.02	-40.2	-41.1	22.2	0.00e+00	0	40	0	4125097984	50	4055
2026-01-03 14:29:05.33	341.14	20.89	-40.2	-41.1	22.2	0.00e+00	0	40	0	4132438016	50	4093
2026-01-03 14:29:06.33	341.16	20.75	-40.3	-41.2	22.1	0.00e+00	0	40	0	4139778048	50	4104
2026-01-03 14:29:07.34	341.17	20.62	-40.4	-41.3	22.1	0.00e+00	0	40	0	4147118080	50	4171
2026-01-03 14:29:08.34	341.19	20.48	-40.3	-41.2	22.1	0.00e+00	0	40	0	4154458112	50	4142
2026-01-03 14:29:09.34	341.21	20.35	-40.4	-41.3	22.0	0.00e+00	0	40	0	4161798144	50	4175
2026-01-03 14:29:10.35	341.22	20.22	-40.5	-41.4	21.8	0.00e+00	0	40	0	4169138176	50	4206
2026-01-03 14:29:11.35	341.24	20.09	-40.4	-41.3	22.0	0.00e+00	0	40	0	4175429632	50	4164
2026-01-03 14:29:12.35	341.26	19.96	-40.5	-41.4	21.9	0.00e+00	0	40	0	4182769664	50	4219
2026-01-03 14:29:13.36	341.27	19.83	-40.6	-41.4	21.8	0.00e+00	0	40	0	4190109696	50	4238
2026-01-03 14:29:14.36	341.29	19.70	-40.6	-41.4	21.9	0.00e+00	0	40	0	4197449728	50	4228
2026-01-03 14:29:15.36	341.30	19.57	-40.6	-41.4	21.9	0.00e+00	0	40	0	4204789760	50	4230
2026-01-03 14:29:16.36	341.32	19.44	-40.6	-41.4	21.8	0.00e+00	0	40	0	4212129792	50	4229
2026-01-03 14:29:17.36	341.34	19.32	-40.7	-41.5	21.7	0.00e+00	0	40	0	4219469824	50	4289
2026-01-03 14:29:18.37	341.35	19.19	-40.6	-41.5	21.7	0.00e+00	0	40	0	4226809856	50	4280
2026-01-03 14:29:19.37	341.37	19.06	-40.6	-41.5	21.7	0.00e+00	0	40	0	4233101312	50	4281
2026-01-03 14:29:20.37	341.38	18.94	-40.7	-41.6	21.7	0.00e+00	0	40	0	4240441344	51	4085
2026-01-03 14:29:21.38	341.40	18.81	-40.8	-41.7	21.6	0.00e+00	0	40	0	4247781376	51	4102
2026-01-03 14:29:22.38	341.42	18.69	-40.8	-41.7	21.6	0.00e+00	0	40	0	4255121408	51	4099
2026-01-03 14:29:23.38	341.43	18.57	-40.8	-41.7	21.6	0.00e+00	0	40	0	4262461440	51	4116
2026-01-03 14:29:24.38	341.45	18.44	-40.8	-41.7	21.5	0.00e+00	0	40	0	4269801472	51	4135
2026-01-03 14:29:25.39	341.46	18.32	-40.8	-41.7	21.5	0.00e+00	0	40	0	4277141504	51	4132
2026-01-03 14:29:26.39	341.48	18.20	-40.9	-41.8	21.5	0.00e+00	0	40	0	4284481536	51	4153
2026-01-03 14:29:27.39	341.49	18.08	-41.0	-41.9	21.4	0.00e+00	0	40	0	4291821568	51	4197
2026-01-03 14:29:28.39	341.51	17.96	-41.0	-41.9	21.3	0.00e+00	0	40	0	4299161600	51	4224
2026-01-03 14:29:29.39	341.52	17.84	-41.1	-42.0	21.2	0.00e+00	0	40	0	4306501632	51	4277
2026-01-03 14:29:30.39	341.54	17.72	-41.2	-42.1	21.2	0.00e+00	0	40	0	4313841664	51	4324
2026-01-03 14:29:31.40	341.55	17.60	-41.2	-42.1	21.1	0.00e+00	0	40	0	4320133120	52	4065
2026-01-03 14:29:32.40	341.57	17.48	-41.1	-42.0	21.2	0.00e+00	0	40	0	4327473152	52	4012
2026-01-03 14:29:33.40	341.58	17.37	-41.0	-41.9	21.3	0.00e+00	0	40	0	4334813184	52	3978
2026-01-03 14:29:34.41	341.60	17.25	-41.0	-41.9	21.2	0.00e+00	0	40	0	4342153216	52	3974
2026-01-03 14:29:35.41	341.61	17.13	-41.2	-42.1	21.1	0.00e+00	0	40	0	4349493248	52	4068
2026-01-03 14:29:36.41	341.62	17.02	-41.2	-42.2	21.0	0.00e+00	0	40	0	4356833280	52	4110
2026-01-03 14:29:37.42	341.64	16.90	-41.1	-42.1	21.1	0.00e+00	0	40	0	4364173312	52	4062
2026-01-03 14:29:38.42	341.65	16.79	-41.2	-42.2	21.0	0.00e+00	0	40	0	4371513344	52	4119
2026-01-03 14:29:39.43	341.67	16.67	-41.1	-42.1	21.0	0.00e+00	0	40	0	4378853376	52	4070
2026-01-03 14:29:40.43	341.68	16.56	-41.3	-42.3	20.9	0.00e+00	0	40	0	4386193408	52	4150
2026-01-03 14:29:41.43	341.69	16.44	-41.4	-42.3	20.9	0.00e+00	0	40	0	4393533440	52	4193
2026-01-03 14:29:42.43	341.71	16.33	-41.4	-42.4	20.9	0.00e+00	0	40	0	4399824896	52	4196
2026-01-03 14:29:43.44	341.72	16.22	-41.4	-42.4	20.8	0.00e+00	0	40	0	4407164928	52	4198
2026-01-03 14:29:44.44	341.74	16.11	-41.5	-42.5	20.8	0.00e+00	0	40	0	4414504960	52	4264
2026-01-03 14:29:45.44	341.75	16.00	-41.5	-42.5	20.7	0.00e+00	0	40	0	4421844992	52	4261
2026-01-03 14:29:46.44	341.76	15.89	-41.5	-42.4	20.7	0.00e+00	0	40	0	4429185024	52	4236
2026-01-03 14:29:47.45	341.78	15.78	-41.6	-42.6	20.7	0.00e+00	0	40	0	4436525056	52	4300
2026-01-03 14:29:48.45	341.79	15.67	-41.6	-42.6	20.7	0.00e+00	0	40	0	4443865088	52	4299
2026-01-03 14:29:49.45	341.80	15.56	-41.8	-42.7	20.5	0.00e+00	0	40	0	4451205120	52	4374
2026-01-03 14:29:50.46	341.82	15.45	-41.7	-42.7	20.5	9.10e-06	0	40	0	4458545152	53	4117
2026-01-03 14:29:51.46	341.83	15.34	-41.8	-42.8	20.4	0.00e+00	0	40	0	4464836608	53	4158
2026-01-03 14:29:52.46	341.84	15.23	-41.7	-42.7	20.4	0.00e+00	0	40	0	4472176640	53	4117
2026-01-03 14:29:53.46	341.86	15.13	-42.0	-43.0	20.3	0.00e+00	0	40	0	4479516672	53	4258
2026-01-03 14:29:54.47	341.87	15.02	-41.8	-42.9	20.3	2.20e-06	0	40	0	4486856704	53	4197
2026-01-03 14:29:55.47	341.88	14.91	-41.8	-42.8	20.3	0.00e+00	0	40	0	4494196736	53	4176
2026-01-03 14:29:56.48	341.90	14.81	-41.8	-42.8	20.3	0.00e+00	0	40	0	4501536768	53	4183
2026-01-03 14:29:57.48	341.91	14.70	-41.8	-42.8	20.4	0.00e+00	0	40	0	4508876800	53	4170
2026-01-03 14:29:58.48	341.92	14.60	-41.8	-42.8	20.3	0.00e+00	0	40	0	4516216832	53	4193
2026-01-03 14:29:59.48	341.93	14.49	-41.9	-42.9	20.3	0.00e+00	0	40	0	4523556864	53	4223
2026-01-03 14:30:00.49	341.95	14.39	-41.9	-43.0	20.3	0.00e+00	0	40	0	4530896896	53	4255
2026-01-03 14:30:01.49	341.96	14.28	-42.0	-43.1	20.2	0.00e+00	0	40	0	4538236928	53	4292
2026-01-03 14:30:02.49	341.97	14.18	-42.0	-43.1	20.2	0.00e+00	0	40	0	4545576960	53	4300
2026-01-03 14:30:03.50	341.98	14.08	-42.1	-43.2	20.1	0.00e+00	0	40	0	4551868416	53	4347
2026-01-03 14:30:04.50	342.00	13.98	-42.0	-43.1	20.1	0.00e+00	0	40	0	4559208448	53	4318
2026-01-03 14:30:05.50	342.01	13.88	-42.0	-43.1	20.1	0.00e+00	0	40	0	4566548480	53	4292
2026-01-03 14:30:06.50	342.02	13.77	-42.0	-43.0	20.1	0.00e+00	0	40	0	4573888512	53	4282
2026-01-03 14:30:07.51	342.03	13.67	-41.9	-43.0	20.2	0.00e+00	0	40	0	4581228544	53	4263
2026-01-03 14:30:08.50	342.05	13.57	-42.0	-43.1	20.1	0.00e+00	0	39	0	4588568576	53	4293
2026-01-03 14:30:09.51	342.06	13.47	-42.0	-43.1	20.1	0.00e+00	0	40	0	4595908608	53	4331
2026-01-03 14:30:10.51	342.07	13.37	-42.0	-43.1	20.0	0.00e+00	0	40	0	4603248640	53	4315
2026-01-03 14:30:11.51	342.08	13.27	-42.1	-43.3	20.0	0.00e+00	0	40	0	4609540096	53	4392
2026-01-03 14:30:12.52	342.09	13.17	-42.0	-43.2	20.0	0.00e+00	0	40	0	4616880128	53	4352
2026-01-03 14:30:13.52	342.11	13.08	-42.0	-43.2	20.0	0.00e+00	0	40	0	4624220160	53	4357
2026-01-03 14:30:14.53	342.12	12.98	-42.1	-43.3	19.9	0.00e+00	0	40	0	4631560192	53	4417
2026-01-03 14:30:15.53	342.13	12.88	-42.1	-43.3	19.9	0.00e+00	0	40	0	4638900224	53	4394
2026-01-03 14:30:16.53	342.14	12.78	-42.1	-43.2	19.9	0.00e+00	0	40	0	4646240256	53	4374
