passes_logs/2026/01/03/T1/T1__20260103_222151_NOAA_20_JPSS-1_rec.log

#Pass ID: 20260103_222151_NOAA 20 (JPSS-1)
#Satellite: NOAA 20 (JPSS-1)
#Configuration: NOAA 20
#almurnet v.1.7.20251203
#Start time: 2026-01-03 22:21:51

#Version: 2.0.20230620
#Station: T1
#Location: 37.570604 lon 55.790049 lat
#TLE: 1 43013U 17073A   26003.41800368  .00000169  00000+0  10117-3 0  9998
#TLE: 2 43013  98.7624 304.4804 0001884  56.1176 304.0179 14.19532918421092

#Time	Az	El	Level	Level2	SNR	BER	BlckErr	Temp	State	Recorded	gain1	gain2
2026-01-03 22:21:51.98	27.47	5.05	-53.1	-69.1	3.8	1.49e+00	0	36	0	0	78	21983
2026-01-03 22:21:52.97	27.55	5.11	-53.2	-69.2	3.8	1.49e+00	0	37	104	0	77	23494
2026-01-03 22:21:53.98	27.63	5.17	-53.2	-69.2	3.8	1.49e+00	0	37	104	0	77	23472
2026-01-03 22:21:54.98	27.70	5.23	-53.1	-69.1	3.8	1.49e+00	0	37	104	0	77	23288
2026-01-03 22:21:55.98	27.78	5.29	-53.1	-69.2	3.8	1.49e+00	0	37	104	0	77	23396
2026-01-03 22:21:56.99	27.86	5.36	-53.0	-69.1	3.8	1.49e+00	0	37	104	0	77	23190
2026-01-03 22:21:57.99	27.94	5.42	-53.0	-69.1	3.8	1.49e+00	0	37	104	0	77	23082
2026-01-03 22:21:58.99	28.02	5.48	-53.0	-69.0	3.8	1.49e+00	0	37	104	0	77	22988
2026-01-03 22:22:00.00	28.10	5.54	-53.1	-69.1	3.8	1.49e+00	0	37	104	0	77	23257
2026-01-03 22:22:01.00	28.18	5.61	-53.0	-69.0	3.8	1.49e+00	0	37	104	0	77	22965
2026-01-03 22:22:02.01	28.26	5.67	-53.0	-69.0	3.8	1.49e+00	0	37	104	0	77	22832
2026-01-03 22:22:03.01	28.34	5.73	-53.0	-69.0	3.8	1.49e+00	0	37	104	0	77	22855
2026-01-03 22:22:04.02	28.42	5.79	-53.0	-68.9	3.8	1.49e+00	0	37	104	0	77	22687
2026-01-03 22:22:05.02	28.50	5.86	-53.1	-69.0	3.8	1.49e+00	0	37	104	0	77	23016
2026-01-03 22:22:06.02	28.58	5.92	-53.0	-68.9	3.8	1.49e+00	0	37	104	0	77	22598
2026-01-03 22:22:07.03	28.66	5.98	-52.9	-68.9	3.8	1.49e+00	0	37	104	0	77	22610
2026-01-03 22:22:08.03	28.74	6.05	-53.0	-68.9	3.8	1.49e+00	0	37	104	0	77	22606
2026-01-03 22:22:09.04	28.83	6.11	-53.0	-68.9	3.8	1.49e+00	0	37	104	0	77	22729
2026-01-03 22:22:10.04	28.91	6.17	-53.1	-69.0	3.8	1.49e+00	0	37	104	0	77	22936
2026-01-03 22:22:11.04	28.99	6.24	-53.1	-69.0	3.8	1.49e+00	0	38	104	0	77	22943
2026-01-03 22:22:12.05	29.08	6.30	-53.0	-69.1	3.8	1.49e+00	0	38	104	0	77	23072
2026-01-03 22:22:13.06	29.16	6.36	-53.1	-69.1	3.8	1.49e+00	0	37	104	0	77	23298
2026-01-03 22:22:14.06	29.25	6.43	-53.0	-69.0	3.8	1.49e+00	0	37	104	0	77	22980
2026-01-03 22:22:15.06	29.33	6.49	-53.1	-69.1	3.8	1.49e+00	0	38	104	0	77	23243
2026-01-03 22:22:16.07	29.41	6.56	-53.0	-69.1	3.8	1.49e+00	0	38	104	0	77	23310
2026-01-03 22:22:17.07	29.50	6.62	-53.1	-69.1	3.8	1.49e+00	0	37	104	0	77	23088
2026-01-03 22:22:18.07	29.59	6.68	-53.1	-69.1	3.8	1.49e+00	0	38	104	0	77	23239
2026-01-03 22:22:19.08	29.67	6.75	-53.0	-69.0	3.8	1.49e+00	0	37	104	0	77	22802
2026-01-03 22:22:20.08	29.76	6.81	-53.0	-69.0	3.8	1.49e+00	0	38	104	0	77	22871
2026-01-03 22:22:21.09	29.84	6.88	-53.1	-69.0	3.8	1.49e+00	0	38	104	0	77	22968
2026-01-03 22:22:22.09	29.93	6.94	-53.0	-68.9	3.8	1.49e+00	0	38	104	0	77	22597
2026-01-03 22:22:23.10	30.02	7.01	-53.0	-68.9	3.8	1.49e+00	0	38	104	0	77	22708
2026-01-03 22:22:24.10	30.11	7.07	-53.2	-69.1	3.8	1.49e+00	0	38	104	0	77	23079
2026-01-03 22:22:25.11	30.20	7.14	-53.2	-69.1	3.8	1.49e+00	0	38	104	0	77	23047
2026-01-03 22:22:26.11	30.28	7.20	-53.2	-69.2	3.8	1.49e+00	0	38	104	0	77	23379
2026-01-03 22:22:27.11	30.37	7.27	-53.2	-69.1	3.8	1.49e+00	0	38	104	0	77	23294
2026-01-03 22:22:28.12	30.46	7.33	-53.2	-69.1	3.8	1.49e+00	0	38	104	0	77	23238
2026-01-03 22:22:29.12	30.55	7.40	-53.1	-68.9	3.8	1.49e+00	0	38	104	0	77	22750
2026-01-03 22:22:30.13	30.64	7.46	-53.0	-68.7	3.8	1.49e+00	0	38	104	0	77	22214
2026-01-03 22:22:31.13	30.73	7.53	-53.1	-68.7	3.8	1.49e+00	0	38	104	0	77	22238
2026-01-03 22:22:32.13	30.82	7.60	-53.1	-68.8	3.8	1.49e+00	0	38	104	0	77	22438
2026-01-03 22:22:33.14	30.91	7.66	-53.0	-68.8	3.8	1.49e+00	0	38	104	0	77	22288
2026-01-03 22:22:34.15	31.01	7.73	-53.0	-68.9	3.8	1.49e+00	0	38	104	0	77	22524
2026-01-03 22:22:35.15	31.10	7.79	-53.0	-68.9	3.8	1.49e+00	0	38	104	0	77	22694
2026-01-03 22:22:36.15	31.19	7.86	-53.0	-69.0	3.8	1.49e+00	0	38	104	0	77	22813
2026-01-03 22:22:37.16	31.28	7.93	-53.1	-69.0	3.8	1.49e+00	0	38	104	0	77	22981
2026-01-03 22:22:38.16	31.38	7.99	-53.1	-69.1	3.8	1.49e+00	0	38	104	0	77	23052
2026-01-03 22:22:39.17	31.47	8.06	-53.0	-69.0	3.8	1.49e+00	0	38	104	0	77	22868
2026-01-03 22:22:40.17	31.56	8.13	-53.0	-69.0	3.8	1.49e+00	0	38	104	0	77	22855
2026-01-03 22:22:41.18	31.66	8.19	-53.1	-69.2	3.8	1.49e+00	0	38	104	0	77	23570
2026-01-03 22:22:42.18	31.75	8.26	-53.0	-69.0	3.8	1.49e+00	0	38	104	0	77	22943
2026-01-03 22:22:43.19	31.85	8.33	-53.0	-69.1	3.8	1.49e+00	0	38	104	0	77	23099
2026-01-03 22:22:44.19	31.94	8.39	-52.9	-68.8	3.8	1.49e+00	0	38	104	0	77	22277
2026-01-03 22:22:45.19	32.04	8.46	-53.2	-68.7	3.8	1.49e+00	0	38	104	0	77	22026
2026-01-03 22:22:46.20	32.14	8.53	-52.9	-68.2	3.8	1.49e+00	0	38	104	0	77	20990
2026-01-03 22:22:47.20	32.23	8.60	-52.9	-68.0	3.8	1.49e+00	0	38	104	0	77	20381
2026-01-03 22:22:48.21	32.33	8.66	-53.0	-67.8	3.8	1.49e+00	0	38	104	0	77	19998
2026-01-03 22:22:49.21	32.43	8.73	-52.9	-67.8	3.8	1.49e+00	0	38	104	0	77	19876
2026-01-03 22:22:50.22	32.53	8.80	-53.0	-67.6	3.8	1.49e+00	0	38	104	0	77	19561
2026-01-03 22:22:51.22	32.63	8.87	-52.8	-66.6	4.0	1.48e+00	0	38	104	0	77	17285
2026-01-03 22:22:52.23	32.73	8.94	-52.7	-65.0	4.3	1.43e+00	0	38	0	0	77	14453
2026-01-03 22:22:53.23	32.83	9.00	-52.6	-63.1	5.2	7.56e-01	0	38	0	1048576	77	11653
2026-01-03 22:22:54.23	32.93	9.07	-52.3	-61.4	6.4	3.44e-01	0	38	0	3145728	76	10150
2026-01-03 22:22:55.30	33.03	9.15	-52.6	-62.6	5.6	3.35e-01	0	38	0	5242880	76	11649
2026-01-03 22:22:56.21	33.12	9.21	-53.2	-66.9	3.9	1.23e+00	0	38	104	5242880	77	17929
2026-01-03 22:22:57.41	33.24	9.29	-52.6	-60.2	7.9	8.62e-03	0	38	0	6291456	75	9361
2026-01-03 22:22:58.31	33.34	9.35	-53.6	-67.4	3.8	1.44e+00	0	38	104	6291456	78	17895
2026-01-03 22:22:59.48	33.46	9.43	-53.0	-64.7	4.5	9.80e-01	0	38	0	7340032	77	13966
2026-01-03 22:23:00.33	33.54	9.49	-53.6	-67.5	3.8	1.49e+00	0	38	104	7340032	78	18116
2026-01-03 22:23:01.48	33.66	9.57	-53.5	-67.0	3.8	1.49e+00	0	38	104	7340032	78	17180
2026-01-03 22:23:02.34	33.75	9.63	-53.4	-66.5	4.0	1.49e+00	0	38	104	7340032	78	16209
2026-01-03 22:23:03.49	33.87	9.71	-53.4	-66.4	4.0	1.47e+00	0	38	0	7340032	78	16049
2026-01-03 22:23:04.35	33.96	9.77	-53.4	-66.9	3.9	1.49e+00	0	38	104	7340032	78	16955
2026-01-03 22:23:05.49	34.08	9.85	-52.9	-61.7	5.8	1.41e+00	0	38	104	7340032	77	9934
2026-01-03 22:23:06.35	34.17	9.91	-52.0	-58.3	9.6	4.15e-03	0	39	0	8388608	75	7486
2026-01-03 22:23:07.50	34.29	9.99	-52.2	-58.4	9.1	9.22e-01	0	39	0	10485760	76	7133
2026-01-03 22:23:08.36	34.38	10.05	-49.5	-52.9	15.1	3.81e-05	0	38	0	11534336	70	5394
2026-01-03 22:23:09.52	34.51	10.13	-49.5	-52.8	15.4	0.00e+00	0	38	0	14680064	70	5285
2026-01-03 22:23:10.38	34.60	10.19	-49.1	-52.3	15.8	0.00e+00	0	39	0	15728640	70	5002
2026-01-03 22:23:11.57	34.73	10.27	-49.1	-52.2	15.9	0.00e+00	0	39	0	17825792	70	4979
2026-01-03 22:23:12.43	34.82	10.33	-48.9	-52.0	16.1	0.00e+00	0	39	0	19922944	69	5124
2026-01-03 22:23:13.57	34.94	10.41	-48.9	-51.9	16.2	0.00e+00	0	38	0	22020096	69	5060
2026-01-03 22:23:14.43	35.04	10.47	-48.8	-51.8	16.2	0.00e+00	0	39	0	23068672	69	5010
2026-01-03 22:23:15.58	35.16	10.55	-48.8	-51.7	16.3	0.00e+00	0	39	0	25165824	69	4979
2026-01-03 22:23:16.44	35.26	10.61	-48.8	-51.7	16.4	0.00e+00	0	38	0	27262976	69	4975
2026-01-03 22:23:17.59	35.38	10.70	-48.9	-51.8	16.4	0.00e+00	0	39	0	29360128	69	5012
2026-01-03 22:23:18.60	35.50	10.77	-48.8	-51.8	16.3	0.00e+00	0	39	0	31457280	69	5018
2026-01-03 22:23:19.78	35.63	10.85	-48.8	-51.7	16.4	0.00e+00	0	39	0	33554432	69	4962
2026-01-03 22:23:20.64	35.73	10.91	-48.8	-51.7	16.4	0.00e+00	0	39	0	34603008	69	4972
2026-01-03 22:23:22.00	35.88	11.01	-48.7	-51.7	16.5	0.00e+00	0	38	0	37748736	69	4929
2026-01-03 22:23:22.71	35.96	11.06	-48.5	-51.5	16.5	0.00e+00	0	39	0	38797312	69	4858
2026-01-03 22:23:24.01	36.11	11.15	-48.5	-51.5	16.5	0.00e+00	0	39	0	40894464	69	4828
2026-01-03 22:23:24.72	36.19	11.20	-48.5	-51.4	16.6	0.00e+00	0	39	0	42991616	68	5068
2026-01-03 22:23:26.01	36.34	11.30	-48.4	-51.4	16.5	0.00e+00	0	39	0	45088768	68	5086
2026-01-03 22:23:26.73	36.42	11.35	-48.3	-51.3	16.7	0.00e+00	0	39	0	46137344	68	5021
2026-01-03 22:23:28.02	36.57	11.44	-48.3	-51.2	16.8	0.00e+00	0	39	0	49283072	68	4977
2026-01-03 22:23:28.74	36.66	11.49	-48.2	-51.2	16.9	0.00e+00	0	39	0	50331648	68	4943
2026-01-03 22:23:30.02	36.81	11.58	-48.2	-51.1	16.9	0.00e+00	0	39	0	52428800	68	4895
2026-01-03 22:23:30.74	36.89	11.64	-48.2	-51.0	17.0	0.00e+00	0	39	0	54525952	68	4870
2026-01-03 22:23:32.03	37.04	11.73	-48.3	-51.1	17.0	0.00e+00	0	39	0	56623104	68	4906
2026-01-03 22:23:32.74	37.13	11.78	-48.3	-51.1	17.0	0.00e+00	0	39	0	57671680	68	4913
2026-01-03 22:23:34.04	37.28	11.87	-48.3	-51.2	16.9	0.00e+00	0	39	0	59768832	68	4931
2026-01-03 22:23:34.75	37.37	11.93	-48.3	-51.1	17.0	0.00e+00	0	39	0	61865984	68	4879
2026-01-03 22:23:36.04	37.52	12.02	-48.3	-51.0	17.1	0.00e+00	0	39	0	63963136	68	4848
2026-01-03 22:23:36.76	37.61	12.07	-48.3	-51.0	17.0	0.00e+00	0	39	0	65011712	68	4861
2026-01-03 22:23:38.19	37.79	12.18	-48.1	-50.8	17.3	0.00e+00	0	39	0	68157440	68	4736
2026-01-03 22:23:38.91	37.87	12.23	-48.1	-50.8	17.2	0.00e+00	0	39	0	69206016	68	4743
2026-01-03 22:23:40.26	38.04	12.33	-48.1	-50.9	17.0	0.00e+00	0	39	0	72351744	68	4796
2026-01-03 22:23:40.98	38.13	12.38	-48.1	-51.0	17.1	0.00e+00	0	39	0	73400320	68	4816
2026-01-03 22:23:42.26	38.29	12.48	-47.8	-50.6	17.2	0.00e+00	0	39	0	75497472	67	4907
2026-01-03 22:23:42.98	38.38	12.53	-47.7	-50.5	17.3	0.00e+00	0	39	0	76546048	67	4848
2026-01-03 22:23:44.27	38.54	12.62	-47.7	-50.5	17.3	0.00e+00	0	39	0	79691776	67	4829
2026-01-03 22:23:44.99	38.63	12.68	-47.8	-50.5	17.4	0.00e+00	0	39	0	80740352	67	4844
2026-01-03 22:23:46.28	38.79	12.77	-47.7	-50.5	17.3	0.00e+00	0	39	0	82837504	67	4820
2026-01-03 22:23:46.99	38.89	12.82	-47.7	-50.5	17.3	0.00e+00	0	39	0	84934656	67	4840
2026-01-03 22:23:48.28	39.05	12.92	-47.9	-50.6	17.2	0.00e+00	0	39	0	87031808	67	4917
2026-01-03 22:23:49.00	39.14	12.97	-47.9	-50.7	17.2	0.00e+00	0	39	0	88080384	67	4935
2026-01-03 22:23:50.28	39.31	13.07	-47.9	-50.7	17.2	0.00e+00	0	39	0	90177536	67	4929
2026-01-03 22:23:51.00	39.40	13.12	-48.0	-50.8	17.1	0.00e+00	0	39	0	92274688	67	4994
2026-01-03 22:23:52.29	39.57	13.22	-48.0	-50.7	17.1	0.00e+00	0	39	0	94371840	67	4980
2026-01-03 22:23:53.00	39.66	13.27	-47.9	-50.7	17.1	0.00e+00	0	39	0	95420416	67	4944
2026-01-03 22:23:54.29	39.83	13.37	-47.9	-50.7	17.1	0.00e+00	0	39	0	98566144	67	4946
2026-01-03 22:23:55.01	39.93	13.42	-47.9	-50.7	17.2	0.00e+00	0	39	0	99614720	67	4936
2026-01-03 22:23:56.29	40.10	13.52	-47.8	-50.5	17.4	0.00e+00	0	39	0	101711872	67	4844
2026-01-03 22:23:57.01	40.20	13.57	-47.8	-50.5	17.4	0.00e+00	0	39	0	102760448	67	4835
2026-01-03 22:23:58.30	40.37	13.67	-47.7	-50.4	17.5	0.00e+00	0	39	0	105906176	67	4769
2026-01-03 22:23:59.01	40.46	13.72	-47.8	-50.4	17.5	0.00e+00	0	39	0	106954752	67	4773
2026-01-03 22:24:00.30	40.64	13.82	-47.9	-50.6	17.4	0.00e+00	0	39	0	109051904	67	4886
2026-01-03 22:24:01.02	40.74	13.87	-47.8	-50.4	17.5	0.00e+00	0	39	0	111149056	67	4781
2026-01-03 22:24:02.31	40.92	13.97	-47.9	-50.5	17.4	0.00e+00	0	39	0	113246208	67	4828
2026-01-03 22:24:03.13	41.03	14.03	-47.9	-50.5	17.4	0.00e+00	0	39	0	114294784	67	4866
2026-01-03 22:24:04.60	41.23	14.14	-47.9	-50.5	17.4	0.00e+00	0	39	0	117440512	67	4842
2026-01-03 22:24:05.31	41.33	14.19	-47.9	-50.5	17.5	0.00e+00	0	39	0	118489088	67	4844
2026-01-03 22:24:06.61	41.51	14.29	-48.1	-50.7	17.4	0.00e+00	0	39	0	121634816	67	4960
2026-01-03 22:24:07.32	41.61	14.35	-48.0	-50.6	17.5	0.00e+00	0	39	0	122683392	67	4911
2026-01-03 22:24:08.61	41.80	14.44	-48.0	-50.6	17.6	0.00e+00	0	39	0	124780544	67	4886
2026-01-03 22:24:09.33	41.90	14.50	-47.9	-50.5	17.6	0.00e+00	0	39	0	126877696	67	4866
2026-01-03 22:24:10.62	42.08	14.60	-47.8	-50.3	17.8	0.00e+00	0	39	0	128974848	67	4731
2026-01-03 22:24:11.33	42.18	14.65	-47.9	-50.4	17.6	0.00e+00	0	39	0	130023424	67	4792
2026-01-03 22:24:12.62	42.37	14.75	-47.8	-50.4	17.7	0.00e+00	0	39	0	132120576	67	4781
2026-01-03 22:24:13.34	42.47	14.80	-47.7	-50.2	17.8	0.00e+00	0	39	0	134217728	67	4703
2026-01-03 22:24:14.63	42.66	14.90	-47.8	-50.3	17.7	0.00e+00	0	39	0	136314880	67	4752
2026-01-03 22:24:15.34	42.77	14.96	-47.8	-50.4	17.7	0.00e+00	0	39	0	137363456	67	4785
2026-01-03 22:24:16.66	42.96	15.06	-47.7	-50.2	17.8	0.00e+00	0	39	0	140509184	67	4696
2026-01-03 22:24:17.38	43.07	15.11	-47.7	-50.3	17.7	0.00e+00	0	39	0	141557760	67	4718
2026-01-03 22:24:18.73	43.27	15.22	-47.7	-50.2	17.8	0.00e+00	0	39	0	143654912	67	4699
2026-01-03 22:24:19.45	43.37	15.27	-47.7	-50.2	17.9	0.00e+00	0	39	0	145752064	67	4687
2026-01-03 22:24:20.74	43.57	15.37	-47.7	-50.2	17.8	0.00e+00	0	39	0	147849216	67	4688
2026-01-03 22:24:21.45	43.68	15.42	-47.7	-50.2	17.8	0.00e+00	0	39	0	148897792	67	4688
2026-01-03 22:24:22.74	43.87	15.52	-47.5	-50.0	18.0	0.00e+00	0	39	0	152043520	67	4585
2026-01-03 22:24:23.46	43.98	15.58	-47.5	-50.0	18.0	0.00e+00	0	39	0	153092096	67	4581
2026-01-03 22:24:24.75	44.18	15.68	-47.5	-49.9	18.1	0.00e+00	0	39	0	155189248	66	4805
2026-01-03 22:24:25.46	44.29	15.73	-47.4	-49.9	18.1	0.00e+00	0	39	0	156237824	66	4763
2026-01-03 22:24:26.75	44.49	15.83	-47.4	-49.8	18.1	0.00e+00	0	39	0	159383552	66	4758
2026-01-03 22:24:27.47	44.60	15.89	-47.4	-49.9	18.1	0.00e+00	0	39	0	160432128	66	4766
2026-01-03 22:24:28.76	44.80	15.99	-47.2	-49.7	18.2	0.00e+00	0	39	0	162529280	66	4653
2026-01-03 22:24:29.48	44.91	16.04	-47.2	-49.6	18.2	0.00e+00	0	39	0	164626432	66	4647
2026-01-03 22:24:30.77	45.12	16.14	-47.2	-49.6	18.3	0.00e+00	0	39	0	166723584	66	4646
2026-01-03 22:24:31.49	45.23	16.20	-47.3	-49.7	18.3	0.00e+00	0	39	0	167772160	66	4671
2026-01-03 22:24:32.84	45.45	16.30	-47.3	-49.8	18.2	7.00e-07	0	39	0	170917888	66	4706
2026-01-03 22:24:33.56	45.56	16.36	-47.4	-49.8	18.1	7.00e-07	0	39	0	171966464	66	4751
2026-01-03 22:24:34.84	45.77	16.46	-47.4	-49.9	18.1	0.00e+00	0	39	0	174063616	66	4766
2026-01-03 22:24:35.56	45.89	16.51	-47.4	-49.9	18.1	0.00e+00	0	39	0	175112192	66	4781
2026-01-03 22:24:36.85	46.10	16.61	-47.5	-50.0	18.1	0.00e+00	0	39	0	178257920	66	4845
2026-01-03 22:24:37.57	46.21	16.67	-47.5	-49.9	18.1	0.00e+00	0	39	0	179306496	66	4794
2026-01-03 22:24:38.86	46.43	16.77	-47.5	-50.0	18.1	0.00e+00	0	39	0	181403648	66	4854
2026-01-03 22:24:39.57	46.54	16.82	-47.6	-50.1	18.0	0.00e+00	0	39	0	183500800	66	4887
2026-01-03 22:24:40.86	46.76	16.92	-47.6	-50.1	18.0	0.00e+00	0	39	0	185597952	66	4895
2026-01-03 22:24:41.58	46.88	16.98	-47.7	-50.2	17.9	0.00e+00	0	39	0	186646528	66	4931
2026-01-03 22:24:42.87	47.09	17.08	-47.7	-50.3	17.8	0.00e+00	0	39	0	188743680	66	5006
2026-01-03 22:24:43.68	47.23	17.14	-47.7	-50.2	17.8	0.00e+00	0	39	0	190840832	66	4971
2026-01-03 22:24:45.15	47.48	17.26	-47.7	-50.2	17.8	0.00e+00	0	39	0	193986560	66	4966
2026-01-03 22:24:45.86	47.60	17.31	-47.8	-50.3	17.7	0.00e+00	0	39	0	195035136	66	5005
2026-01-03 22:24:47.15	47.82	17.41	-47.8	-50.4	17.7	0.00e+00	0	39	0	197132288	66	5059
2026-01-03 22:24:47.88	47.95	17.47	-47.7	-50.2	17.8	0.00e+00	0	39	0	198180864	66	4947
2026-01-03 22:24:49.17	48.17	17.57	-47.6	-50.1	17.9	1.14e-05	0	39	0	201326592	66	4909
2026-01-03 22:24:49.98	48.31	17.63	-47.5	-50.0	17.9	1.50e-06	0	39	0	202375168	66	4851
2026-01-03 22:24:51.13	48.51	17.72	-47.5	-50.0	18.0	0.00e+00	0	39	0	204472320	66	4822
2026-01-03 22:24:51.99	48.67	17.79	-47.4	-49.8	18.1	0.00e+00	0	39	0	206569472	66	4749
2026-01-03 22:24:53.14	48.87	17.88	-47.3	-49.8	18.2	0.00e+00	0	39	0	208666624	66	4718
2026-01-03 22:24:54.30	49.07	17.97	-47.2	-49.6	18.3	0.00e+00	0	39	0	210763776	66	4642
2026-01-03 22:24:55.33	49.26	18.05	-47.1	-49.5	18.3	0.00e+00	0	39	0	212860928	66	4592
2026-01-03 22:24:56.33	49.44	18.13	-47.1	-49.5	18.4	0.00e+00	0	39	0	214958080	66	4548
2026-01-03 22:24:57.33	49.62	18.20	-47.1	-49.5	18.4	0.00e+00	0	39	0	216006656	65	4857
2026-01-03 22:24:58.34	49.80	18.28	-46.8	-49.2	18.5	0.00e+00	0	39	0	218103808	65	4700
2026-01-03 22:24:59.34	49.98	18.36	-46.8	-49.2	18.5	0.00e+00	0	39	0	220200960	65	4698
2026-01-03 22:25:00.34	50.17	18.44	-46.8	-49.2	18.6	0.00e+00	0	39	0	222298112	65	4671
2026-01-03 22:25:01.34	50.35	18.51	-46.8	-49.1	18.6	0.00e+00	0	39	0	224395264	65	4638
2026-01-03 22:25:02.34	50.54	18.59	-46.7	-49.0	18.8	0.00e+00	0	39	0	225443840	65	4563
2026-01-03 22:25:03.35	50.72	18.67	-46.7	-49.0	18.7	0.00e+00	0	39	0	227540992	65	4596
2026-01-03 22:25:04.35	50.91	18.75	-46.7	-49.0	18.7	0.00e+00	0	39	0	229638144	65	4570
2026-01-03 22:25:05.35	51.10	18.82	-46.5	-48.7	19.0	0.00e+00	0	39	0	231735296	64	4704
2026-01-03 22:25:06.35	51.29	18.90	-46.5	-48.7	19.0	0.00e+00	0	39	0	232783872	64	4704
2026-01-03 22:25:07.36	51.48	18.98	-46.4	-48.6	19.2	0.00e+00	0	39	0	234881024	64	4632
2026-01-03 22:25:08.36	51.67	19.06	-46.4	-48.6	19.2	1.50e-06	0	39	0	236978176	64	4649
2026-01-03 22:25:09.36	51.86	19.13	-46.4	-48.7	19.2	1.50e-06	0	39	0	239075328	64	4665
2026-01-03 22:25:10.56	52.09	19.23	-46.2	-48.5	19.1	0.00e+00	0	39	0	241172480	64	4584
2026-01-03 22:25:11.42	52.26	19.29	-46.1	-48.4	19.2	0.00e+00	0	39	0	243269632	64	4517
2026-01-03 22:25:12.56	52.48	19.38	-46.2	-48.4	19.2	0.00e+00	0	39	0	245366784	64	4539
2026-01-03 22:25:13.43	52.65	19.45	-46.2	-48.4	19.1	0.00e+00	0	39	0	246415360	64	4537
2026-01-03 22:25:14.57	52.88	19.53	-46.1	-48.3	19.1	0.00e+00	0	39	0	248512512	64	4491
2026-01-03 22:25:15.43	53.05	19.60	-46.0	-48.2	19.2	0.00e+00	0	39	0	250609664	64	4426
2026-01-03 22:25:16.58	53.27	19.69	-46.0	-48.2	19.4	0.00e+00	0	39	0	252706816	63	4686
2026-01-03 22:25:17.44	53.45	19.75	-45.9	-48.1	19.5	0.00e+00	0	39	0	253755392	63	4617
2026-01-03 22:25:18.58	53.67	19.84	-46.0	-48.2	19.4	0.00e+00	0	39	0	255852544	63	4677
2026-01-03 22:25:19.44	53.85	19.91	-46.0	-48.2	19.5	0.00e+00	0	39	0	257949696	63	4691
2026-01-03 22:25:20.59	54.08	19.99	-46.0	-48.2	19.5	0.00e+00	0	39	0	260046848	63	4689
2026-01-03 22:25:21.80	54.33	20.08	-46.1	-48.3	19.4	0.00e+00	0	39	0	262144000	63	4735
2026-01-03 22:25:22.84	54.54	20.16	-46.2	-48.5	19.3	0.00e+00	0	39	0	264241152	63	4826
2026-01-03 22:25:23.84	54.75	20.24	-46.3	-48.6	19.2	0.00e+00	0	39	0	266338304	63	4878
2026-01-03 22:25:24.84	54.95	20.31	-46.1	-48.4	19.3	0.00e+00	0	39	0	268435456	63	4779
2026-01-03 22:25:25.85	55.16	20.39	-46.3	-48.6	19.2	0.00e+00	0	39	0	269484032	63	4882
2026-01-03 22:25:26.85	55.37	20.47	-46.1	-48.4	19.1	0.00e+00	0	39	0	271581184	63	4782
2026-01-03 22:25:27.85	55.58	20.54	-46.1	-48.3	19.4	0.00e+00	0	39	0	273678336	63	4755
2026-01-03 22:25:28.85	55.79	20.62	-46.1	-48.3	19.4	0.00e+00	0	39	0	275775488	63	4740
2026-01-03 22:25:29.85	56.00	20.69	-46.2	-48.4	19.3	0.00e+00	0	39	0	277872640	63	4805
2026-01-03 22:25:30.86	56.22	20.77	-46.2	-48.4	19.3	0.00e+00	0	39	0	278921216	63	4781
2026-01-03 22:25:31.86	56.43	20.84	-46.3	-48.5	19.1	0.00e+00	0	39	0	281018368	63	4863
2026-01-03 22:25:32.86	56.65	20.91	-46.3	-48.6	19.1	0.00e+00	0	39	0	283115520	63	4889
2026-01-03 22:25:33.89	56.87	20.99	-46.4	-48.7	19.0	0.00e+00	0	39	0	285212672	63	4933
2026-01-03 22:25:34.95	57.10	21.07	-46.4	-48.7	19.1	0.00e+00	0	39	0	287309824	63	4935
2026-01-03 22:25:35.84	57.29	21.13	-46.3	-48.6	19.1	0.00e+00	0	39	0	288358400	63	4881
2026-01-03 22:25:36.99	57.54	21.22	-46.3	-48.5	19.1	0.00e+00	0	39	0	290455552	63	4858
2026-01-03 22:25:37.85	57.73	21.28	-46.3	-48.6	19.1	0.00e+00	0	39	0	292552704	63	4915
2026-01-03 22:25:38.99	57.98	21.36	-46.3	-48.6	19.0	0.00e+00	0	39	0	294649856	63	4913
2026-01-03 22:25:39.85	58.18	21.43	-46.5	-48.8	18.9	0.00e+00	0	39	0	295698432	63	5027
2026-01-03 22:25:41.00	58.43	21.51	-46.6	-48.9	18.8	0.00e+00	0	39	0	297795584	63	5079
2026-01-03 22:25:41.86	58.62	21.57	-46.7	-49.1	18.7	0.00e+00	0	39	0	299892736	64	4899
2026-01-03 22:25:43.00	58.88	21.65	-46.7	-49.0	18.6	0.00e+00	0	39	0	301989888	64	4854
2026-01-03 22:25:43.86	59.08	21.72	-46.7	-49.1	18.6	0.00e+00	0	39	0	304087040	64	4894
2026-01-03 22:25:45.01	59.34	21.80	-46.9	-49.3	18.4	0.00e+00	0	39	0	306184192	64	5014
2026-01-03 22:25:45.87	59.53	21.86	-46.8	-49.2	18.4	0.00e+00	0	39	0	307232768	64	4982
2026-01-03 22:25:47.01	59.79	21.94	-46.8	-49.2	18.5	0.00e+00	0	39	0	309329920	64	4960
2026-01-03 22:25:47.87	59.99	22.00	-46.8	-49.3	18.4	0.00e+00	0	39	0	311427072	64	4990
2026-01-03 22:25:49.02	60.26	22.08	-46.8	-49.3	18.4	0.00e+00	0	39	0	313524224	64	4992
2026-01-03 22:25:49.88	60.46	22.14	-46.7	-49.1	18.5	0.00e+00	0	39	0	314572800	64	4925
2026-01-03 22:25:51.02	60.72	22.22	-46.7	-49.1	18.6	0.00e+00	0	39	0	316669952	64	4883
2026-01-03 22:25:51.88	60.92	22.28	-46.8	-49.1	18.6	0.00e+00	0	39	0	318767104	64	4914
2026-01-03 22:25:53.03	61.20	22.36	-46.9	-49.3	18.5	0.00e+00	0	39	0	320864256	64	4991
2026-01-03 22:25:53.89	61.40	22.42	-46.9	-49.3	18.4	0.00e+00	0	39	0	322961408	64	4995
2026-01-03 22:25:55.04	61.67	22.50	-46.8	-49.3	18.4	0.00e+00	0	39	0	325058560	64	5003
2026-01-03 22:25:55.90	61.88	22.56	-46.9	-49.4	18.3	0.00e+00	0	39	0	326107136	64	5060
2026-01-03 22:25:57.04	62.15	22.64	-47.0	-49.4	18.3	0.00e+00	0	39	0	328204288	64	5077
2026-01-03 22:25:57.90	62.36	22.70	-46.9	-49.3	18.4	0.00e+00	0	39	0	330301440	64	5017
2026-01-03 22:25:59.13	62.65	22.78	-46.8	-49.2	18.5	0.00e+00	0	39	0	332398592	64	4945
2026-01-03 22:25:59.99	62.86	22.84	-46.8	-49.2	18.4	0.00e+00	0	39	0	333447168	64	4978
2026-01-03 22:26:01.14	63.14	22.92	-46.9	-49.3	18.4	0.00e+00	0	39	0	335544320	64	5011
2026-01-03 22:26:02.00	63.35	22.97	-46.7	-49.1	18.6	0.00e+00	0	39	0	337641472	64	4878
2026-01-03 22:26:03.14	63.63	23.05	-46.7	-49.0	18.7	0.00e+00	0	39	0	339738624	64	4850
2026-01-03 22:26:04.00	63.85	23.10	-46.8	-49.1	18.6	0.00e+00	0	39	0	341835776	64	4921
2026-01-03 22:26:05.14	64.13	23.18	-46.9	-49.3	18.4	0.00e+00	0	39	0	343932928	64	4992
2026-01-03 22:26:06.00	64.34	23.23	-47.0	-49.5	18.2	0.00e+00	0	39	0	344981504	64	5105
2026-01-03 22:26:07.14	64.63	23.31	-47.2	-49.7	18.0	0.00e+00	0	39	0	347078656	65	4966
2026-01-03 22:26:08.01	64.85	23.36	-47.3	-49.8	17.9	0.00e+00	0	39	0	349175808	65	5028
2026-01-03 22:26:09.15	65.13	23.44	-47.5	-50.0	17.7	0.00e+00	0	39	0	351272960	65	5139
2026-01-03 22:26:10.01	65.35	23.49	-47.5	-50.1	17.6	0.00e+00	0	39	0	352321536	65	5192
2026-01-03 22:26:11.16	65.64	23.56	-47.7	-50.2	17.5	0.00e+00	0	39	0	354418688	65	5275
2026-01-03 22:26:12.02	65.86	23.62	-47.6	-50.2	17.5	0.00e+00	0	39	0	356515840	65	5253
2026-01-03 22:26:13.16	66.15	23.69	-47.6	-50.2	17.5	0.00e+00	0	39	0	358612992	66	4976
2026-01-03 22:26:14.03	66.38	23.74	-47.8	-50.4	17.3	0.00e+00	0	39	0	359661568	66	5094
2026-01-03 22:26:15.17	66.67	23.81	-47.8	-50.5	17.3	0.00e+00	0	39	0	362807296	66	5103
2026-01-03 22:26:16.11	66.92	23.87	-47.8	-50.4	17.4	0.00e+00	0	39	0	363855872	66	5096
2026-01-03 22:26:17.28	67.22	23.94	-47.9	-50.5	17.2	0.00e+00	0	39	0	365953024	66	5143
2026-01-03 22:26:18.14	67.44	23.99	-47.9	-50.6	17.2	0.00e+00	0	39	0	368050176	66	5183
2026-01-03 22:26:19.29	67.75	24.06	-48.1	-50.9	16.9	0.00e+00	0	39	0	370147328	67	5045
2026-01-03 22:26:20.15	67.97	24.11	-48.2	-50.9	16.8	0.00e+00	0	39	0	371195904	67	5082
2026-01-03 22:26:21.29	68.27	24.18	-48.4	-51.2	16.6	0.00e+00	0	39	0	374341632	67	5271
2026-01-03 22:26:22.15	68.50	24.23	-48.5	-51.3	16.5	0.00e+00	0	39	0	375390208	67	5339
2026-01-03 22:26:23.30	68.81	24.29	-48.7	-51.5	16.5	0.00e+00	0	39	0	377487360	68	5135
2026-01-03 22:26:24.16	69.04	24.34	-48.6	-51.5	16.5	0.00e+00	0	39	0	379584512	68	5114
2026-01-03 22:26:25.31	69.34	24.41	-48.3	-51.0	16.9	0.00e+00	0	39	0	381681664	68	4850
2026-01-03 22:26:26.17	69.57	24.45	-48.1	-50.8	17.1	0.00e+00	0	39	0	382730240	68	4721
2026-01-03 22:26:27.31	69.88	24.52	-48.1	-50.7	17.1	0.00e+00	0	39	0	384827392	68	4702
2026-01-03 22:26:28.18	70.12	24.56	-48.0	-50.6	17.4	0.00e+00	0	39	0	386924544	68	4648
2026-01-03 22:26:29.32	70.43	24.63	-47.8	-50.5	17.3	0.00e+00	0	39	0	389021696	67	4818
2026-01-03 22:26:30.18	70.66	24.67	-47.9	-50.6	17.2	0.00e+00	0	39	0	390070272	67	4879
2026-01-03 22:26:31.39	70.99	24.74	-48.3	-51.1	16.7	0.00e+00	0	39	0	393216000	67	5177
2026-01-03 22:26:32.25	71.23	24.78	-48.6	-51.5	16.3	0.00e+00	0	39	0	394264576	67	5434
2026-01-03 22:26:33.40	71.55	24.84	-49.1	-52.2	15.8	0.00e+00	0	39	0	396361728	69	5265
2026-01-03 22:26:34.26	71.78	24.89	-49.3	-52.5	15.5	0.00e+00	0	39	0	398458880	69	5405
2026-01-03 22:26:35.53	72.13	24.95	-49.5	-52.8	15.2	0.00e+00	0	39	0	400556032	69	5595
2026-01-03 22:26:36.25	72.34	24.99	-49.4	-52.6	15.4	0.00e+00	0	39	0	401604608	69	5475
2026-01-03 22:26:37.54	72.69	25.05	-49.2	-52.2	15.8	0.00e+00	0	39	0	404750336	69	5264
2026-01-03 22:26:38.25	72.89	25.08	-49.0	-52.0	15.9	0.00e+00	0	39	0	405798912	69	5150
2026-01-03 22:26:39.54	73.26	25.15	-48.9	-51.8	16.1	0.00e+00	0	39	0	407896064	69	5025
2026-01-03 22:26:40.26	73.46	25.18	-48.8	-51.8	16.2	0.00e+00	0	39	0	408944640	69	4985
2026-01-03 22:26:41.55	73.82	25.24	-48.8	-51.7	16.2	0.00e+00	0	39	0	412090368	69	4972
2026-01-03 22:26:42.26	74.02	25.27	-48.8	-51.7	16.2	0.00e+00	0	39	0	413138944	69	4978
2026-01-03 22:26:43.55	74.39	25.33	-49.0	-52.1	15.8	0.00e+00	0	39	0	415236096	69	5175
2026-01-03 22:26:44.27	74.59	25.37	-49.0	-52.1	15.8	0.00e+00	0	39	0	417333248	69	5209
2026-01-03 22:26:45.56	74.96	25.42	-49.0	-52.1	15.8	0.00e+00	0	39	0	419430400	69	5185
2026-01-03 22:26:46.27	75.17	25.45	-49.0	-52.1	15.8	0.00e+00	0	39	0	420478976	69	5194
2026-01-03 22:26:47.56	75.54	25.51	-48.9	-52.0	16.0	0.00e+00	0	39	0	422576128	69	5112
2026-01-03 22:26:48.28	75.74	25.54	-48.9	-51.9	16.0	0.00e+00	0	39	0	424673280	69	5086
2026-01-03 22:26:49.57	76.12	25.59	-48.7	-51.7	16.3	0.00e+00	0	39	0	426770432	69	4927
2026-01-03 22:26:50.29	76.32	25.62	-48.7	-51.7	16.2	0.00e+00	0	39	0	427819008	69	4932
2026-01-03 22:26:51.78	76.76	25.68	-48.7	-51.8	16.1	0.00e+00	0	39	0	430964736	69	4984
2026-01-03 22:26:52.50	76.97	25.71	-48.7	-51.8	16.1	0.00e+00	0	39	0	432013312	69	5006
2026-01-03 22:26:53.79	77.34	25.76	-48.9	-51.9	16.0	0.00e+00	0	39	0	435159040	69	5080
2026-01-03 22:26:54.51	77.55	25.79	-48.8	-51.9	16.1	0.00e+00	0	39	0	436207616	69	5063
2026-01-03 22:26:55.79	77.93	25.84	-48.7	-51.7	16.3	0.00e+00	0	39	0	438304768	69	4954
2026-01-03 22:26:56.51	78.14	25.86	-48.8	-51.7	16.2	0.00e+00	0	39	0	439353344	69	4980
2026-01-03 22:26:57.80	78.52	25.91	-48.5	-51.3	16.6	0.00e+00	0	39	0	442499072	68	5041
2026-01-03 22:26:58.51	78.73	25.93	-48.4	-51.2	16.9	0.00e+00	0	39	0	443547648	68	4939
2026-01-03 22:26:59.80	79.11	25.98	-48.0	-50.8	17.2	0.00e+00	0	39	0	445644800	68	4710
2026-01-03 22:27:00.61	79.35	26.01	-47.7	-50.4	17.3	0.00e+00	0	39	0	447741952	67	4789
2026-01-03 22:27:02.08	79.79	26.05	-47.6	-50.2	17.5	0.00e+00	0	39	0	449839104	67	4689
2026-01-03 22:27:02.79	80.00	26.08	-47.6	-50.2	17.5	0.00e+00	0	39	0	451936256	67	4678
2026-01-03 22:27:04.08	80.38	26.12	-47.7	-50.3	17.4	0.00e+00	0	39	0	454033408	67	4758
2026-01-03 22:27:04.80	80.60	26.14	-47.8	-50.4	17.2	0.00e+00	0	39	0	455081984	67	4814
2026-01-03 22:27:06.09	80.99	26.18	-47.8	-50.5	17.2	0.00e+00	0	39	0	458227712	67	4851
2026-01-03 22:27:06.88	81.22	26.20	-47.9	-50.7	17.0	0.00e+00	0	39	0	459276288	67	4940
2026-01-03 22:27:08.03	81.57	26.23	-47.9	-50.6	17.1	0.00e+00	0	39	0	461373440	67	4923
2026-01-03 22:27:08.89	81.83	26.25	-48.0	-50.8	16.9	0.00e+00	0	39	0	463470592	67	5007
2026-01-03 22:27:10.03	82.17	26.28	-48.1	-50.9	16.9	0.00e+00	0	39	0	465567744	67	5086
2026-01-03 22:27:10.89	82.43	26.31	-48.1	-50.9	16.8	0.00e+00	0	39	0	466616320	67	5098
2026-01-03 22:27:12.04	82.78	26.33	-48.1	-51.0	16.8	0.00e+00	0	39	0	468713472	67	5131
2026-01-03 22:27:12.89	83.04	26.35	-48.2	-51.2	16.6	0.00e+00	0	39	0	470810624	67	5226
2026-01-03 22:27:14.04	83.39	26.38	-48.3	-51.3	16.4	0.00e+00	0	39	0	472907776	67	5332
2026-01-03 22:27:14.90	83.65	26.40	-48.3	-51.3	16.5	0.00e+00	0	39	0	473956352	67	5301
2026-01-03 22:27:16.10	84.01	26.42	-48.2	-51.2	16.5	0.00e+00	0	39	0	477102080	67	5229
2026-01-03 22:27:16.96	84.28	26.44	-48.2	-51.2	16.5	0.00e+00	0	39	0	478150656	67	5268
2026-01-03 22:27:18.10	84.62	26.46	-48.0	-50.8	16.9	0.00e+00	0	39	0	480247808	67	5022
2026-01-03 22:27:18.96	84.89	26.48	-47.8	-50.6	17.1	0.00e+00	0	39	0	482344960	67	4922
2026-01-03 22:27:20.10	85.23	26.50	-47.7	-50.5	17.2	0.00e+00	0	39	0	484442112	67	4839
2026-01-03 22:27:21.01	85.51	26.52	-47.7	-50.5	17.2	0.00e+00	0	39	0	485490688	67	4822
2026-01-03 22:27:22.01	85.82	26.53	-47.7	-50.4	17.3	0.00e+00	0	39	0	487587840	67	4777
2026-01-03 22:27:23.01	86.13	26.55	-47.5	-50.2	17.5	0.00e+00	0	39	0	489684992	66	4947
2026-01-03 22:27:24.02	86.44	26.56	-47.4	-50.1	17.7	0.00e+00	0	39	0	491782144	66	4882
2026-01-03 22:27:25.02	86.74	26.58	-47.5	-50.2	17.6	0.00e+00	0	39	0	492830720	66	4928
2026-01-03 22:27:26.03	87.06	26.59	-47.5	-50.2	17.6	0.00e+00	0	39	0	494927872	66	4965
2026-01-03 22:27:27.02	87.36	26.60	-47.6	-50.4	17.3	0.00e+00	0	39	0	497025024	66	5047
2026-01-03 22:27:28.03	87.67	26.61	-47.7	-50.5	17.3	0.00e+00	0	39	0	499122176	66	5103
2026-01-03 22:27:29.03	87.98	26.62	-47.7	-50.5	17.3	0.00e+00	0	39	0	501219328	66	5112
2026-01-03 22:27:30.03	88.29	26.63	-47.4	-50.1	17.6	0.00e+00	0	39	0	502267904	66	4878
2026-01-03 22:27:31.03	88.60	26.64	-47.3	-49.9	17.7	0.00e+00	0	39	0	504365056	66	4787
2026-01-03 22:27:32.04	88.91	26.65	-47.2	-49.7	17.9	0.00e+00	0	39	0	506462208	66	4695
2026-01-03 22:27:33.04	89.22	26.65	-46.8	-49.2	18.3	0.00e+00	0	39	0	508559360	65	4700
2026-01-03 22:27:34.05	89.53	26.66	-46.7	-49.2	18.4	0.00e+00	0	39	0	510656512	65	4665
2026-01-03 22:27:35.05	89.84	26.67	-46.6	-49.1	18.5	0.00e+00	0	39	0	511705088	65	4602
2026-01-03 22:27:36.05	90.15	26.67	-46.9	-49.3	18.4	0.00e+00	0	39	0	513802240	65	4744
2026-01-03 22:27:37.05	90.46	26.67	-46.9	-49.4	18.2	0.00e+00	0	39	0	515899392	65	4798
2026-01-03 22:27:38.06	90.77	26.68	-47.1	-49.7	18.0	0.00e+00	0	39	0	517996544	65	4936
2026-01-03 22:27:39.06	91.08	26.68	-47.6	-50.2	17.6	0.00e+00	0	39	0	520093696	65	5239
2026-01-03 22:27:40.06	91.39	26.68	-47.6	-50.2	17.5	0.00e+00	0	39	0	521142272	66	4950
2026-01-03 22:27:41.06	91.70	26.68	-47.5	-50.1	17.6	0.00e+00	0	39	0	523239424	66	4876
2026-01-03 22:27:42.06	92.01	26.68	-47.4	-49.9	17.8	0.00e+00	0	39	0	525336576	66	4791
2026-01-03 22:27:43.06	92.32	26.67	-47.3	-49.8	17.8	0.00e+00	0	39	0	527433728	66	4742
2026-01-03 22:27:44.07	92.63	26.67	-47.2	-49.7	17.9	0.00e+00	0	39	0	528482304	66	4697
2026-01-03 22:27:45.18	92.98	26.67	-47.1	-49.6	18.0	0.00e+00	0	39	0	531628032	66	4628
2026-01-03 22:27:46.05	93.24	26.66	-47.3	-49.9	17.7	0.00e+00	0	39	0	532676608	66	4800
2026-01-03 22:27:47.19	93.60	26.66	-47.8	-50.4	17.3	0.00e+00	0	39	0	534773760	66	5098
2026-01-03 22:27:48.16	93.90	26.65	-48.4	-51.2	16.6	0.00e+00	0	39	0	536870912	67	5242
2026-01-03 22:27:49.16	94.21	26.64	-49.0	-51.9	16.0	0.00e+00	0	39	0	538968064	68	5397
2026-01-03 22:27:50.17	94.52	26.63	-49.1	-52.2	15.8	3.80e-06	0	39	0	540016640	68	5531
2026-01-03 22:27:51.17	94.83	26.62	-48.9	-51.9	16.0	0.00e+00	0	39	0	542113792	68	5365
2026-01-03 22:27:52.17	95.14	26.61	-48.9	-52.0	16.0	0.00e+00	0	39	0	544210944	69	5108
2026-01-03 22:27:53.17	95.44	26.60	-48.9	-51.9	16.1	0.00e+00	0	39	0	546308096	69	5075
2026-01-03 22:27:54.18	95.76	26.59	-48.7	-51.7	16.3	0.00e+00	0	39	0	548405248	69	4932
2026-01-03 22:27:55.18	96.06	26.58	-48.1	-50.9	17.0	0.00e+00	0	39	0	549453824	68	4788
2026-01-03 22:27:56.18	96.37	26.56	-47.9	-50.5	17.5	0.00e+00	0	39	0	551550976	67	4855
2026-01-03 22:27:57.19	96.68	26.55	-47.6	-50.1	17.7	3.00e-06	0	39	0	553648128	66	4903
2026-01-03 22:27:58.19	96.99	26.54	-47.6	-50.1	17.8	0.00e+00	0	39	0	555745280	66	4917
2026-01-03 22:27:59.26	97.32	26.52	-47.8	-50.4	17.5	0.00e+00	0	39	0	557842432	66	5047
2026-01-03 22:28:00.13	97.58	26.50	-47.8	-50.5	17.4	0.00e+00	0	39	0	558891008	66	5113
2026-01-03 22:28:01.27	97.93	26.48	-48.0	-50.7	17.2	0.00e+00	0	39	0	560988160	66	5240
2026-01-03 22:28:02.14	98.20	26.47	-47.9	-50.6	17.2	0.00e+00	0	39	0	563085312	66	5174
2026-01-03 22:28:03.28	98.55	26.44	-47.8	-50.5	17.3	0.00e+00	0	39	0	565182464	66	5137
2026-01-03 22:28:04.14	98.81	26.43	-47.8	-50.4	17.4	0.00e+00	0	39	0	566231040	66	5065
2026-01-03 22:28:05.28	99.16	26.40	-47.5	-50.0	17.7	0.00e+00	0	39	0	568328192	66	4851
2026-01-03 22:28:06.14	99.42	26.38	-47.3	-49.8	17.9	0.00e+00	0	39	0	570425344	66	4749
2026-01-03 22:28:07.29	99.77	26.36	-47.2	-49.7	18.0	0.00e+00	0	39	0	572522496	66	4695
2026-01-03 22:28:08.15	100.03	26.34	-47.3	-49.8	17.9	0.00e+00	0	39	0	574619648	66	4756
2026-01-03 22:28:09.30	100.38	26.31	-47.4	-49.9	17.9	0.00e+00	0	39	0	576716800	66	4770
2026-01-03 22:28:10.16	100.64	26.29	-47.6	-50.2	17.6	0.00e+00	0	39	0	577765376	66	4958
2026-01-03 22:28:11.33	100.99	26.26	-47.8	-50.4	17.3	0.00e+00	0	39	0	579862528	66	5092
2026-01-03 22:28:12.19	101.25	26.23	-47.7	-50.4	17.4	0.00e+00	0	39	0	581959680	66	5046
2026-01-03 22:28:13.42	101.62	26.20	-47.7	-50.3	17.4	0.00e+00	0	39	0	584056832	66	5035
2026-01-03 22:28:14.27	101.88	26.17	-47.6	-50.2	17.6	0.00e+00	0	39	0	585105408	66	4937
2026-01-03 22:28:15.52	102.25	26.14	-47.6	-50.2	17.5	0.00e+00	0	39	0	588251136	66	4962
2026-01-03 22:28:16.37	102.51	26.11	-47.7	-50.3	17.5	0.00e+00	0	39	0	589299712	66	5030
2026-01-03 22:28:17.61	102.88	26.07	-47.6	-50.2	17.6	0.00e+00	0	39	0	591396864	66	4983
2026-01-03 22:28:18.46	103.13	26.05	-47.5	-50.1	17.8	0.00e+00	0	39	0	593494016	66	4877
2026-01-03 22:28:19.69	103.50	26.01	-47.3	-49.8	18.1	0.00e+00	0	39	0	595591168	66	4755
2026-01-03 22:28:20.55	103.75	25.98	-47.3	-49.8	18.1	0.00e+00	0	39	0	597688320	66	4732
2026-01-03 22:28:21.79	104.12	25.93	-47.3	-49.8	18.0	0.00e+00	0	39	0	599785472	65	5014
2026-01-03 22:28:22.64	104.37	25.90	-47.3	-49.9	17.9	0.00e+00	0	39	0	601882624	65	5048
2026-01-03 22:28:23.79	104.71	25.86	-47.1	-49.6	18.2	0.00e+00	0	39	0	603979776	65	4881
2026-01-03 22:28:24.65	104.96	25.83	-47.0	-49.4	18.4	0.00e+00	0	39	0	605028352	65	4772
2026-01-03 22:28:25.94	105.34	25.78	-46.8	-49.2	18.6	0.00e+00	0	39	0	607125504	65	4654
2026-01-03 22:28:26.66	105.55	25.76	-46.8	-49.2	18.6	0.00e+00	0	39	0	609222656	65	4653
2026-01-03 22:28:27.95	105.93	25.71	-46.7	-49.1	18.6	0.00e+00	0	39	0	611319808	65	4637
2026-01-03 22:28:28.66	106.14	25.68	-46.8	-49.2	18.5	0.00e+00	0	39	0	612368384	65	4675
2026-01-03 22:28:29.95	106.51	25.63	-46.7	-49.1	18.7	0.00e+00	0	39	0	615514112	65	4607
2026-01-03 22:28:30.67	106.72	25.60	-46.6	-48.9	18.8	0.00e+00	0	39	0	616562688	65	4527
2026-01-03 22:28:31.95	107.09	25.54	-46.4	-48.7	19.0	0.00e+00	0	39	0	618659840	64	4694
2026-01-03 22:28:32.67	107.30	25.51	-46.4	-48.8	19.0	0.00e+00	0	39	0	619708416	64	4719
2026-01-03 22:28:33.96	107.67	25.46	-46.5	-48.9	18.8	0.00e+00	0	39	0	622854144	64	4793
2026-01-03 22:28:34.67	107.88	25.42	-46.7	-49.1	18.6	0.00e+00	0	39	0	623902720	64	4895
2026-01-03 22:28:35.96	108.25	25.37	-46.9	-49.3	18.5	0.00e+00	0	39	0	625999872	64	5012
2026-01-03 22:28:36.68	108.45	25.34	-46.7	-49.1	18.6	0.00e+00	0	39	0	628097024	64	4875
2026-01-03 22:28:38.06	108.84	25.27	-46.6	-48.9	18.8	0.00e+00	0	39	0	630194176	64	4798
2026-01-03 22:28:38.78	109.05	25.24	-46.4	-48.7	19.0	0.00e+00	0	39	0	631242752	64	4690
2026-01-03 22:28:40.15	109.44	25.17	-46.4	-48.6	19.1	0.00e+00	0	39	0	634388480	64	4646
2026-01-03 22:28:40.87	109.64	25.14	-46.3	-48.6	19.2	0.00e+00	0	39	0	635437056	64	4617
2026-01-03 22:28:42.25	110.03	25.07	-46.6	-48.9	18.8	0.00e+00	0	39	0	638582784	64	4791
2026-01-03 22:28:43.22	110.30	25.02	-46.7	-49.2	18.6	0.00e+00	0	39	0	639631360	64	4927
2026-01-03 22:28:44.22	110.58	24.97	-46.9	-49.3	18.5	0.00e+00	0	39	0	641728512	64	5019
2026-01-03 22:28:45.22	110.86	24.92	-46.9	-49.4	18.4	0.00e+00	0	39	0	643825664	64	5052
2026-01-03 22:28:46.22	111.14	24.87	-46.8	-49.2	18.6	0.00e+00	0	39	0	645922816	64	4953
2026-01-03 22:28:47.23	111.41	24.82	-46.6	-49.0	18.7	0.00e+00	0	39	0	646971392	64	4815
2026-01-03 22:28:48.23	111.69	24.77	-46.5	-48.8	18.9	0.00e+00	0	39	0	649068544	64	4757
2026-01-03 22:28:49.23	111.97	24.72	-46.3	-48.6	19.1	0.00e+00	0	39	0	651165696	64	4609
2026-01-03 22:28:50.23	112.24	24.66	-46.3	-48.6	19.2	0.00e+00	0	39	0	653262848	64	4632
2026-01-03 22:28:51.25	112.52	24.61	-46.3	-48.6	19.1	0.00e+00	0	39	0	655360000	64	4651
2026-01-03 22:28:52.29	112.80	24.55	-46.4	-48.8	18.9	0.00e+00	0	39	0	657457152	64	4729
2026-01-03 22:28:53.28	113.07	24.50	-46.6	-49.0	18.7	0.00e+00	0	39	0	658505728	64	4822
2026-01-03 22:28:54.35	113.36	24.44	-46.8	-49.2	18.6	0.00e+00	0	39	0	660602880	64	4932
2026-01-03 22:28:55.22	113.59	24.39	-46.9	-49.4	18.4	0.00e+00	0	39	0	662700032	64	5045
2026-01-03 22:28:56.59	113.96	24.31	-47.0	-49.5	18.2	0.00e+00	0	39	0	664797184	65	4847
2026-01-03 22:28:57.31	114.15	24.27	-47.3	-49.8	18.0	0.00e+00	0	39	0	665845760	65	5019
2026-01-03 22:28:58.84	114.56	24.18	-47.2	-49.8	17.7	0.00e+00	0	39	0	668991488	65	5000
2026-01-03 22:28:59.56	114.75	24.14	-47.3	-49.9	17.7	0.00e+00	0	39	0	670040064	65	5055
2026-01-03 22:29:00.84	115.09	24.06	-47.2	-49.7	17.9	0.00e+00	0	39	0	673185792	65	4952
2026-01-03 22:29:01.56	115.28	24.02	-47.2	-49.7	18.2	0.00e+00	0	39	0	674234368	65	4927
2026-01-03 22:29:02.85	115.62	23.94	-47.1	-49.5	18.2	0.00e+00	0	39	0	676331520	65	4864
2026-01-03 22:29:03.57	115.81	23.90	-47.1	-49.6	18.2	0.00e+00	0	39	0	678428672	65	4888
2026-01-03 22:29:04.86	116.14	23.82	-47.2	-49.7	18.1	0.00e+00	0	39	0	680525824	65	4929
2026-01-03 22:29:05.57	116.33	23.78	-47.4	-49.9	18.0	0.00e+00	0	39	0	681574400	65	5044
2026-01-03 22:29:06.87	116.66	23.70	-47.2	-49.7	18.1	0.00e+00	0	39	0	684720128	65	4951
2026-01-03 22:29:07.61	116.85	23.65	-47.1	-49.6	18.2	0.00e+00	0	39	0	685768704	65	4873
2026-01-03 22:29:09.24	117.27	23.55	-47.3	-49.8	17.9	0.00e+00	0	39	0	688914432	65	5032
2026-01-03 22:29:09.81	117.42	23.51	-47.3	-49.9	17.8	0.00e+00	0	39	0	689963008	65	5042
2026-01-03 22:29:11.60	117.87	23.40	-47.3	-49.9	17.7	1.50e-06	0	39	0	693108736	65	5048
2026-01-03 22:29:12.17	118.02	23.36	-47.4	-50.0	17.7	0.00e+00	0	39	0	694157312	65	5146
2026-01-03 22:29:13.79	118.42	23.25	-47.2	-49.8	17.9	0.00e+00	0	39	0	697303040	65	5001
2026-01-03 22:29:14.37	118.57	23.22	-47.2	-49.7	18.0	0.00e+00	0	39	0	698351616	65	4972
2026-01-03 22:29:15.95	118.96	23.11	-47.1	-49.6	18.1	0.00e+00	0	39	0	701497344	65	4908
2026-01-03 22:29:16.52	119.10	23.08	-47.2	-49.7	18.0	0.00e+00	0	39	0	702545920	65	4938
2026-01-03 22:29:18.12	119.50	22.97	-46.9	-49.3	18.4	0.00e+00	0	39	0	705691648	65	4743
2026-01-03 22:29:18.70	119.64	22.93	-47.0	-49.4	18.3	0.00e+00	0	39	0	706740224	65	4814
2026-01-03 22:29:20.40	120.06	22.82	-47.5	-50.0	17.9	0.00e+00	0	39	0	709885952	65	5149
2026-01-03 22:29:20.97	120.20	22.78	-47.5	-50.0	17.9	0.00e+00	0	39	0	710934528	65	5152
2026-01-03 22:29:22.56	120.58	22.67	-47.2	-49.6	18.2	0.00e+00	0	39	0	714080256	65	4913
2026-01-03 22:29:23.14	120.72	22.63	-47.1	-49.6	18.2	0.00e+00	0	39	0	715128832	65	4871
2026-01-03 22:29:25.09	121.19	22.50	-47.3	-49.8	18.0	0.00e+00	0	39	0	718274560	65	4997
2026-01-03 22:29:25.67	121.33	22.46	-47.3	-49.8	17.9	8.30e-06	0	39	0	719323136	65	5020
2026-01-03 22:29:27.67	121.80	22.32	-47.7	-50.2	17.8	0.00e+00	0	39	0	723517440	66	4929
2026-01-03 22:29:28.25	121.94	22.28	-47.4	-49.9	18.0	0.00e+00	0	39	0	724566016	66	4761
2026-01-03 22:29:29.84	122.31	22.16	-47.1	-49.5	18.3	0.00e+00	0	39	0	727711744	66	4576
2026-01-03 22:29:30.41	122.45	22.12	-47.1	-49.5	18.3	0.00e+00	0	39	0	728760320	66	4561
2026-01-03 22:29:31.99	122.82	22.01	-47.0	-49.5	18.3	0.00e+00	0	39	0	731906048	66	4549
2026-01-03 22:29:32.58	122.95	21.97	-46.9	-49.3	18.3	0.00e+00	0	39	0	732954624	65	4755
2026-01-03 22:29:34.15	123.31	21.86	-47.1	-49.6	18.1	0.00e+00	0	39	0	735051776	65	4895
2026-01-03 22:29:35.09	123.53	21.79	-47.2	-49.7	18.0	0.00e+00	0	39	0	737148928	65	4947
2026-01-03 22:29:36.09	123.76	21.72	-47.1	-49.6	18.1	0.00e+00	0	39	0	739246080	65	4897
2026-01-03 22:29:37.09	123.99	21.65	-47.0	-49.5	18.2	0.00e+00	0	39	0	741343232	65	4824
2026-01-03 22:29:38.09	124.21	21.57	-47.1	-49.6	18.1	0.00e+00	0	39	0	742391808	65	4872
2026-01-03 22:29:39.09	124.44	21.50	-47.2	-49.7	18.0	0.00e+00	0	39	0	744488960	65	4944
2026-01-03 22:29:40.10	124.66	21.43	-47.5	-50.1	17.7	0.00e+00	0	39	0	746586112	65	5162
2026-01-03 22:29:41.10	124.89	21.35	-48.0	-50.7	17.1	0.00e+00	0	39	0	748683264	66	5225
2026-01-03 22:29:42.26	125.14	21.27	-48.3	-51.2	16.6	0.00e+00	0	39	0	750780416	67	5273
2026-01-03 22:29:43.15	125.34	21.20	-48.6	-51.6	16.2	0.00e+00	0	39	0	751828992	67	5499
2026-01-03 22:29:44.30	125.59	21.12	-48.8	-51.8	16.1	0.00e+00	0	39	0	754974720	68	5284
2026-01-03 22:29:45.16	125.78	21.05	-48.4	-51.3	16.6	0.00e+00	0	39	0	756023296	68	5007
2026-01-03 22:29:46.53	126.08	20.95	-48.1	-50.9	17.0	0.00e+00	0	39	0	759169024	68	4769
2026-01-03 22:29:47.25	126.24	20.90	-48.0	-50.8	17.1	0.00e+00	0	39	0	760217600	68	4714
2026-01-03 22:29:48.54	126.51	20.80	-48.0	-50.8	16.9	0.00e+00	0	39	0	762314752	67	5013
2026-01-03 22:29:49.25	126.67	20.75	-48.1	-51.0	16.6	0.00e+00	0	39	0	763363328	67	5147
2026-01-03 22:29:50.54	126.94	20.65	-48.4	-51.5	16.2	0.00e+00	0	39	0	766509056	67	5413
2026-01-03 22:29:51.26	127.09	20.60	-48.6	-51.6	16.2	0.00e+00	0	39	0	767557632	67	5493
2026-01-03 22:29:52.55	127.37	20.50	-48.9	-51.9	16.0	0.00e+00	0	39	0	769654784	68	5381
2026-01-03 22:29:53.27	127.52	20.45	-48.9	-51.9	16.1	0.00e+00	0	39	0	771751936	68	5349
2026-01-03 22:29:54.55	127.79	20.35	-48.1	-50.9	16.8	0.00e+00	0	39	0	773849088	68	4770
2026-01-03 22:29:55.27	127.94	20.29	-48.1	-50.8	17.0	0.00e+00	0	39	0	774897664	68	4725
2026-01-03 22:29:56.56	128.20	20.20	-48.3	-51.0	17.0	0.00e+00	0	39	0	776994816	68	4834
2026-01-03 22:29:57.27	128.35	20.14	-48.5	-51.3	16.7	0.00e+00	0	39	0	779091968	68	5001
2026-01-03 22:29:58.56	128.62	20.04	-48.5	-51.4	16.5	0.00e+00	0	39	0	781189120	68	5057
2026-01-03 22:29:59.28	128.76	19.99	-48.8	-51.7	16.3	0.00e+00	0	39	0	782237696	68	5240
2026-01-03 22:30:00.66	129.04	19.88	-48.4	-51.2	16.7	0.00e+00	0	39	0	785383424	68	4953
2026-01-03 22:30:01.38	129.19	19.83	-48.0	-50.7	17.2	0.00e+00	0	39	0	786432000	68	4683
2026-01-03 22:30:02.67	129.45	19.73	-47.3	-49.8	17.9	0.00e+00	0	39	0	788529152	66	4747
2026-01-03 22:30:03.39	129.59	19.67	-47.1	-49.6	18.1	0.00e+00	0	39	0	790626304	66	4605
2026-01-03 22:30:04.80	129.87	19.56	-47.2	-49.6	18.1	0.00e+00	0	39	0	792723456	66	4650
2026-01-03 22:30:05.52	130.02	19.51	-47.2	-49.7	17.9	0.00e+00	0	39	0	793772032	66	4704
2026-01-03 22:30:06.81	130.27	19.41	-47.8	-50.5	17.2	0.00e+00	0	39	0	796917760	66	5128
2026-01-03 22:30:07.52	130.41	19.35	-48.1	-50.8	16.9	0.00e+00	0	39	0	797966336	66	5329
2026-01-03 22:30:08.81	130.66	19.25	-48.4	-51.3	16.5	0.00e+00	0	39	0	800063488	67	5309
2026-01-03 22:30:09.52	130.80	19.20	-48.5	-51.4	16.5	0.00e+00	0	39	0	802160640	67	5354
2026-01-03 22:30:10.81	131.05	19.10	-48.1	-50.9	17.0	0.00e+00	0	39	0	804257792	67	5059
2026-01-03 22:30:11.53	131.19	19.04	-48.0	-50.7	17.1	0.00e+00	0	39	0	805306368	67	4973
2026-01-03 22:30:12.82	131.44	18.94	-47.8	-50.4	17.4	0.00e+00	0	39	0	807403520	67	4801
2026-01-03 22:30:13.53	131.57	18.89	-47.8	-50.4	17.6	0.00e+00	0	39	0	809500672	67	4802
2026-01-03 22:30:14.82	131.82	18.79	-47.9	-50.4	17.6	0.00e+00	0	39	0	811597824	67	4810
2026-01-03 22:30:15.54	131.95	18.73	-48.0	-50.6	17.4	0.00e+00	0	39	0	812646400	67	4896
2026-01-03 22:30:16.83	132.20	18.63	-48.5	-51.3	16.8	0.00e+00	0	39	0	815792128	67	5319
2026-01-03 22:30:17.55	132.33	18.57	-48.9	-51.8	16.5	0.00e+00	0	39	0	816840704	68	5298
2026-01-03 22:30:18.84	132.57	18.47	-49.0	-52.0	16.2	0.00e+00	0	39	0	818937856	69	5116
2026-01-03 22:30:19.55	132.70	18.42	-48.2	-51.1	16.5	0.00e+00	0	39	0	821035008	68	4913
2026-01-03 22:30:20.84	132.94	18.32	-48.0	-50.7	17.1	0.00e+00	0	39	0	823132160	68	4692
2026-01-03 22:30:21.56	133.07	18.26	-47.7	-50.3	17.3	0.00e+00	0	39	0	824180736	67	4747
2026-01-03 22:30:22.85	133.31	18.16	-47.4	-49.9	17.7	0.00e+00	0	39	0	826277888	66	4811
2026-01-03 22:30:23.58	133.44	18.10	-47.4	-50.0	17.7	0.00e+00	0	39	0	828375040	66	4834
2026-01-03 22:30:24.86	133.67	18.00	-47.4	-50.0	17.6	0.00e+00	0	39	0	830472192	66	4817
2026-01-03 22:30:25.58	133.80	17.95	-47.5	-50.1	17.5	0.00e+00	0	39	0	831520768	66	4917
2026-01-03 22:30:26.87	134.03	17.85	-47.6	-50.3	17.4	0.00e+00	0	39	0	834666496	66	4994
2026-01-03 22:30:27.58	134.15	17.79	-47.7	-50.3	17.4	0.00e+00	0	39	0	835715072	66	5014
2026-01-03 22:30:28.87	134.38	17.69	-47.5	-50.1	17.4	0.00e+00	0	39	0	837812224	66	4915
2026-01-03 22:30:29.59	134.51	17.63	-47.4	-50.0	17.5	0.00e+00	0	39	0	839909376	66	4870
2026-01-03 22:30:31.26	134.80	17.50	-47.2	-49.8	17.8	0.00e+00	0	39	0	842006528	66	4716
2026-01-03 22:30:31.84	134.90	17.46	-47.2	-49.7	17.8	0.00e+00	0	39	0	844103680	66	4705
2026-01-03 22:30:33.41	135.17	17.33	-47.2	-49.8	17.8	0.00e+00	0	39	0	846200832	66	4750
2026-01-03 22:30:34.02	135.28	17.29	-47.3	-49.9	17.7	0.00e+00	0	39	0	847249408	66	4792
2026-01-03 22:30:35.59	135.55	17.16	-47.7	-50.3	17.5	0.00e+00	0	39	0	850395136	66	5027
2026-01-03 22:30:36.37	135.68	17.10	-47.7	-50.3	17.3	0.00e+00	0	39	0	852492288	66	5033
2026-01-03 22:30:37.66	135.90	17.00	-47.7	-50.4	17.3	0.00e+00	0	39	0	854589440	66	5050
2026-01-03 22:30:38.57	136.05	16.93	-47.7	-50.4	17.3	0.00e+00	0	39	0	856686592	66	5046
2026-01-03 22:30:39.59	136.22	16.85	-47.6	-50.3	17.4	0.00e+00	0	39	0	857735168	66	4986
2026-01-03 22:30:40.59	136.39	16.77	-47.7	-50.4	17.4	0.00e+00	0	39	0	859832320	66	5071
2026-01-03 22:30:41.60	136.55	16.69	-47.5	-50.1	17.6	0.00e+00	0	39	0	861929472	66	4922
2026-01-03 22:30:42.60	136.72	16.61	-47.3	-49.8	17.9	0.00e+00	0	39	0	864026624	66	4758
2026-01-03 22:30:43.60	136.88	16.54	-47.1	-49.6	18.1	0.00e+00	0	39	0	866123776	66	4629
2026-01-03 22:30:44.60	137.05	16.46	-47.1	-49.6	18.1	0.00e+00	0	39	0	867172352	66	4620
2026-01-03 22:30:45.60	137.21	16.38	-47.2	-49.7	17.9	0.00e+00	0	39	0	869269504	66	4681
2026-01-03 22:30:46.61	137.37	16.30	-47.3	-49.9	17.7	0.00e+00	0	39	0	871366656	66	4779
2026-01-03 22:30:47.61	137.53	16.22	-47.1	-49.7	17.7	0.00e+00	0	39	0	873463808	66	4658
2026-01-03 22:30:48.69	137.71	16.14	-47.1	-49.7	17.7	0.00e+00	0	39	0	875560960	66	4676
2026-01-03 22:30:49.55	137.84	16.07	-47.2	-49.8	17.6	0.00e+00	0	39	0	876609536	66	4752
2026-01-03 22:30:50.70	138.02	15.98	-47.2	-49.8	17.8	0.00e+00	0	39	0	878706688	66	4736
2026-01-03 22:30:51.65	138.17	15.91	-47.3	-49.8	17.8	0.00e+00	0	39	0	880803840	66	4755
2026-01-03 22:30:52.65	138.33	15.83	-47.0	-49.5	18.0	0.00e+00	0	39	0	882900992	66	4587
2026-01-03 22:30:53.66	138.49	15.75	-47.1	-49.6	18.1	0.00e+00	0	39	0	884998144	65	4882
2026-01-03 22:30:54.90	138.68	15.65	-46.8	-49.2	18.1	1.83e-05	0	39	0	887095296	64	4982
2026-01-03 22:30:55.75	138.81	15.59	-46.7	-49.2	18.1	6.10e-06	0	39	0	888143872	64	4965
2026-01-03 22:30:57.11	139.02	15.48	-46.8	-49.3	18.1	4.50e-06	0	39	0	891289600	64	5029
2026-01-03 22:30:57.82	139.13	15.43	-46.9	-49.4	18.0	0.00e+00	0	39	0	892338176	64	5052
2026-01-03 22:30:59.30	139.35	15.31	-47.2	-49.7	18.0	0.00e+00	0	39	0	895483904	65	4971
2026-01-03 22:31:00.02	139.46	15.26	-47.4	-49.9	17.9	0.00e+00	0	39	0	896532480	65	5062
2026-01-03 22:31:01.31	139.65	15.16	-47.3	-49.9	17.7	0.00e+00	0	39	0	898629632	65	5063
2026-01-03 22:31:02.02	139.76	15.10	-47.4	-50.0	17.6	0.00e+00	0	39	0	899678208	65	5102
2026-01-03 22:31:03.31	139.95	15.00	-47.6	-50.2	17.4	0.00e+00	0	39	0	902823936	66	4961
2026-01-03 22:31:04.03	140.06	14.95	-47.5	-50.2	17.3	0.00e+00	0	39	0	903872512	66	4952
2026-01-03 22:31:05.32	140.25	14.85	-47.6	-50.3	17.2	0.00e+00	0	39	0	905969664	66	5028
2026-01-03 22:31:06.03	140.35	14.79	-47.7	-50.4	17.2	0.00e+00	0	39	0	908066816	66	5069
2026-01-03 22:31:07.32	140.54	14.69	-47.8	-50.6	17.1	0.00e+00	0	39	0	910163968	66	5174
2026-01-03 22:31:08.04	140.64	14.64	-48.0	-50.7	17.1	0.00e+00	0	39	0	911212544	66	5274
2026-01-03 22:31:09.33	140.83	14.54	-47.8	-50.5	17.2	0.00e+00	0	39	0	914358272	66	5141
2026-01-03 22:31:10.05	140.93	14.48	-47.9	-50.6	17.3	0.00e+00	0	39	0	915406848	66	5214
2026-01-03 22:31:11.34	141.12	14.39	-47.8	-50.5	17.2	0.00e+00	0	39	0	917504000	66	5117
2026-01-03 22:31:12.06	141.22	14.33	-47.7	-50.4	17.2	3.80e-06	0	39	0	918552576	67	4777
2026-01-03 22:31:13.44	141.42	14.23	-47.7	-50.4	17.1	0.00e+00	0	39	0	921698304	67	4797
2026-01-03 22:31:14.16	141.52	14.17	-47.6	-50.3	17.3	0.00e+00	0	39	0	922746880	67	4742
2026-01-03 22:31:15.45	141.70	14.07	-47.7	-50.4	17.2	0.00e+00	0	39	0	924844032	67	4791
2026-01-03 22:31:16.16	141.80	14.02	-47.7	-50.4	17.2	0.00e+00	0	39	0	926941184	67	4805
2026-01-03 22:31:17.45	141.97	13.92	-47.5	-50.2	17.4	0.00e+00	0	39	0	929038336	67	4668
2026-01-03 22:31:18.17	142.07	13.86	-47.5	-50.2	17.4	0.00e+00	0	39	0	930086912	66	4940
2026-01-03 22:31:19.45	142.25	13.77	-47.6	-50.3	17.4	0.00e+00	0	39	0	933232640	66	5000
2026-01-03 22:31:20.17	142.35	13.71	-47.7	-50.3	17.2	0.00e+00	0	39	0	934281216	66	5035
2026-01-03 22:31:21.46	142.52	13.61	-47.6	-50.2	17.4	0.00e+00	0	39	0	936378368	66	4969
2026-01-03 22:31:22.18	142.62	13.56	-47.8	-50.5	17.1	0.00e+00	0	39	0	938475520	66	5138
2026-01-03 22:31:23.47	142.79	13.46	-48.0	-50.7	17.0	0.00e+00	0	39	0	940572672	66	5265
2026-01-03 22:31:24.19	142.89	13.41	-48.0	-50.9	16.9	0.00e+00	0	39	0	941621248	66	5341
2026-01-03 22:31:25.48	143.06	13.31	-48.3	-51.2	16.5	0.00e+00	0	39	0	943718400	67	5240
2026-01-03 22:31:26.19	143.15	13.26	-48.4	-51.4	16.3	0.00e+00	0	39	0	945815552	67	5341
2026-01-03 22:31:27.59	143.34	13.15	-48.6	-51.6	16.1	0.00e+00	0	39	0	947912704	67	5472
2026-01-03 22:31:28.31	143.43	13.10	-48.5	-51.4	16.2	0.00e+00	0	39	0	948961280	67	5395
2026-01-03 22:31:29.66	143.61	13.00	-48.9	-51.9	15.9	0.00e+00	0	39	0	952107008	68	5378
2026-01-03 22:31:30.38	143.70	12.94	-48.8	-51.9	16.0	0.00e+00	0	39	0	953155584	68	5345
2026-01-03 22:31:31.66	143.87	12.85	-48.9	-51.9	15.9	0.00e+00	0	39	0	955252736	68	5389
2026-01-03 22:31:32.68	144.00	12.77	-49.0	-52.1	15.7	0.00e+00	0	39	0	957349888	68	5494
2026-01-03 22:31:34.02	144.17	12.67	-48.7	-51.8	16.0	0.00e+00	0	39	0	960495616	68	5294
2026-01-03 22:31:34.74	144.26	12.62	-48.7	-51.8	16.0	0.00e+00	0	39	0	961544192	68	5309
2026-01-03 22:31:36.03	144.42	12.52	-48.8	-51.9	15.9	0.00e+00	0	39	0	963641344	68	5381
2026-01-03 22:31:36.74	144.51	12.47	-48.7	-51.8	16.0	0.00e+00	0	39	0	965738496	68	5303
2026-01-03 22:31:38.03	144.67	12.37	-49.0	-52.1	15.9	0.00e+00	0	39	0	967835648	68	5469
2026-01-03 22:31:38.75	144.76	12.32	-49.0	-52.0	15.9	0.00e+00	0	39	0	968884224	68	5450
2026-01-03 22:31:40.04	144.92	12.22	-49.0	-52.0	16.0	0.00e+00	0	39	0	970981376	69	5145
2026-01-03 22:31:40.76	145.01	12.17	-49.1	-52.2	15.9	0.00e+00	0	39	0	973078528	69	5224
2026-01-03 22:31:42.05	145.17	12.08	-49.0	-52.1	16.0	0.00e+00	0	39	0	975175680	69	5182
2026-01-03 22:31:42.76	145.26	12.02	-49.0	-52.1	15.9	0.00e+00	0	39	0	976224256	69	5189
2026-01-03 22:31:44.18	145.43	11.92	-49.1	-52.3	15.7	0.00e+00	0	39	0	979369984	69	5316
2026-01-03 22:31:45.17	145.55	11.85	-49.0	-52.3	15.6	0.00e+00	0	39	0	981467136	69	5289
2026-01-03 22:31:46.49	145.71	11.75	-49.1	-52.4	15.5	0.00e+00	0	39	0	983564288	69	5400
2026-01-03 22:31:47.21	145.79	11.70	-49.1	-52.3	15.6	0.00e+00	0	39	0	984612864	69	5318
2026-01-03 22:31:48.50	145.95	11.60	-49.1	-52.4	15.6	0.00e+00	0	39	0	987758592	69	5359
2026-01-03 22:31:49.21	146.03	11.55	-49.1	-52.4	15.5	0.00e+00	0	39	0	988807168	69	5367
2026-01-03 22:31:50.50	146.18	11.46	-49.1	-52.4	15.5	0.00e+00	0	39	0	990904320	69	5359
2026-01-03 22:31:51.22	146.27	11.40	-49.2	-52.4	15.5	0.00e+00	0	39	0	991952896	69	5399
2026-01-03 22:31:52.51	146.42	11.31	-49.2	-52.4	15.6	0.00e+00	0	39	0	995098624	69	5374
2026-01-03 22:31:53.22	146.50	11.26	-49.3	-52.5	15.5	0.00e+00	0	39	0	996147200	69	5447
2026-01-03 22:31:54.51	146.65	11.17	-49.5	-52.6	15.6	0.00e+00	0	39	0	998244352	69	5511
2026-01-03 22:31:55.23	146.73	11.11	-49.5	-52.7	15.6	0.00e+00	0	39	0	1000341504	69	5555
2026-01-03 22:31:56.65	146.89	11.01	-49.5	-52.8	15.4	0.00e+00	0	39	0	1002438656	69	5607
2026-01-03 22:31:57.36	146.98	10.96	-49.8	-53.0	15.4	0.00e+00	0	39	0	1003487232	70	5455
2026-01-03 22:31:58.65	147.12	10.87	-49.8	-53.0	15.4	0.00e+00	0	39	0	1006632960	70	5438
2026-01-03 22:31:59.69	147.24	10.79	-49.7	-52.9	15.3	0.00e+00	0	39	0	1008730112	70	5390
2026-01-03 22:32:00.97	147.38	10.70	-49.8	-53.1	15.4	0.00e+00	0	39	0	1010827264	70	5472
2026-01-03 22:32:01.69	147.46	10.65	-49.7	-53.0	15.4	0.00e+00	0	39	0	1011875840	70	5412
2026-01-03 22:32:02.98	147.61	10.56	-49.6	-52.8	15.4	0.00e+00	0	39	0	1015021568	70	5305
2026-01-03 22:32:03.70	147.68	10.51	-49.4	-52.6	15.7	7.00e-07	0	39	0	1016070144	70	5165
2026-01-03 22:32:04.98	147.83	10.42	-49.5	-52.7	15.7	0.00e+00	0	39	0	1018167296	70	5223
2026-01-03 22:32:05.70	147.90	10.36	-49.4	-52.5	15.9	0.00e+00	0	39	0	1019215872	70	5116
2026-01-03 22:32:06.99	148.04	10.27	-49.2	-52.2	16.1	0.00e+00	0	39	0	1022361600	70	4967
2026-01-03 22:32:07.70	148.12	10.22	-49.3	-52.3	16.1	0.00e+00	0	39	0	1023410176	70	5024
2026-01-03 22:32:08.99	148.26	10.13	-49.3	-52.3	16.1	0.00e+00	0	39	0	1025507328	70	5014
2026-01-03 22:32:09.71	148.34	10.08	-49.1	-52.0	16.3	0.00e+00	0	39	0	1026555904	70	4851
2026-01-03 22:32:11.11	148.49	9.98	-49.0	-51.8	16.5	0.00e+00	0	39	0	1029701632	69	5020
2026-01-03 22:32:11.83	148.56	9.93	-48.9	-51.7	16.5	0.00e+00	0	39	0	1030750208	69	4967
2026-01-03 22:32:13.17	148.71	9.84	-48.9	-51.8	16.5	0.00e+00	0	39	0	1033895936	69	5013
2026-01-03 22:32:13.89	148.78	9.79	-48.7	-51.5	16.7	0.00e+00	0	39	0	1034944512	69	4869
2026-01-03 22:32:15.24	148.92	9.69	-48.9	-51.8	16.6	0.00e+00	0	39	0	1037041664	69	5008
2026-01-03 22:32:15.96	149.00	9.64	-49.0	-51.9	16.4	0.00e+00	0	39	0	1039138816	69	5098
2026-01-03 22:32:17.25	149.13	9.55	-48.9	-51.8	16.5	0.00e+00	0	39	0	1041235968	69	4990
2026-01-03 22:32:17.96	149.21	9.50	-49.0	-52.0	16.3	0.00e+00	0	39	0	1042284544	69	5114
2026-01-03 22:32:19.25	149.34	9.41	-49.1	-52.1	16.2	0.00e+00	0	39	0	1045430272	69	5200
2026-01-03 22:32:19.97	149.41	9.36	-49.2	-52.2	16.2	0.00e+00	0	39	0	1046478848	69	5243
2026-01-03 22:32:21.25	149.54	9.27	-49.4	-52.5	15.9	0.00e+00	0	39	0	1048576000	69	5429
2026-01-03 22:32:21.97	149.62	9.22	-49.3	-52.4	15.9	0.00e+00	0	39	0	1049624576	69	5402
2026-01-03 22:32:23.26	149.75	9.13	-49.4	-52.6	15.7	0.00e+00	0	39	0	1052770304	69	5488
2026-01-03 22:32:24.07	149.83	9.08	-49.5	-52.7	15.6	0.00e+00	0	39	0	1053818880	69	5556
2026-01-03 22:32:25.54	149.97	8.98	-50.1	-53.6	14.9	0.00e+00	0	39	0	1056964608	70	5843
2026-01-03 22:32:26.26	150.05	8.93	-54.4	-69.4	3.8	1.20e+00	0	39	104	1058013184	79	21306
2026-01-03 22:32:27.55	150.17	8.84	-54.6	-69.7	3.8	1.49e+00	0	39	104	1058013184	79	22070
2026-01-03 22:32:28.26	150.24	8.79	-54.6	-69.8	3.8	1.49e+00	0	39	104	1058013184	80	21134
2026-01-03 22:32:29.56	150.37	8.70	-54.7	-69.9	3.8	1.49e+00	0	39	104	1058013184	80	21306
2026-01-03 22:32:30.27	150.44	8.65	-54.6	-69.9	3.8	1.49e+00	0	39	104	1058013184	80	21369
2026-01-03 22:32:31.56	150.57	8.56	-54.6	-69.8	3.8	1.49e+00	0	39	104	1058013184	80	21077
2026-01-03 22:32:32.28	150.64	8.52	-54.7	-69.8	3.8	1.49e+00	0	39	104	1058013184	80	21135
2026-01-03 22:32:33.57	150.76	8.43	-54.8	-69.9	3.8	1.49e+00	0	39	104	1058013184	80	21433
2026-01-03 22:32:34.29	150.83	8.38	-54.8	-69.9	3.8	1.49e+00	0	39	104	1058013184	80	21491
2026-01-03 22:32:35.64	150.96	8.29	-54.8	-69.9	3.8	1.49e+00	0	39	104	1058013184	80	21476
2026-01-03 22:32:36.36	151.03	8.24	-54.8	-70.0	3.8	1.49e+00	0	39	104	1058013184	80	21664
2026-01-03 22:32:37.70	151.15	8.15	-54.9	-70.0	3.8	1.49e+00	0	39	104	1058013184	80	21623
2026-01-03 22:32:38.42	151.22	8.10	-55.0	-70.0	3.8	1.49e+00	0	39	104	1058013184	80	21688
2026-01-03 22:32:39.80	151.35	8.01	-54.7	-70.0	3.8	1.49e+00	0	39	104	1058013184	80	21581
2026-01-03 22:32:40.52	151.42	7.96	-54.8	-70.0	3.8	1.49e+00	0	39	104	1058013184	80	21568
2026-01-03 22:32:41.88	151.54	7.87	-54.8	-69.9	3.8	1.49e+00	0	39	104	1058013184	80	21388
2026-01-03 22:32:42.60	151.61	7.82	-54.9	-70.0	3.8	1.49e+00	0	39	104	1058013184	80	21518
2026-01-03 22:32:43.89	151.73	7.73	-54.8	-69.9	3.8	1.49e+00	0	39	104	1058013184	80	21412
2026-01-03 22:32:44.60	151.80	7.69	-54.9	-70.0	3.8	1.49e+00	0	39	104	1058013184	80	21657
2026-01-03 22:32:45.90	151.91	7.60	-54.9	-70.1	3.8	1.49e+00	0	39	104	1058013184	80	21806
2026-01-03 22:32:46.61	151.98	7.55	-54.7	-70.1	3.8	1.49e+00	0	39	104	1058013184	80	21800
2026-01-03 22:32:47.91	152.10	7.47	-54.7	-70.1	3.8	1.49e+00	0	39	104	1058013184	80	21830
2026-01-03 22:32:48.62	152.16	7.42	-54.6	-70.0	3.8	1.49e+00	0	39	104	1058013184	80	21621
2026-01-03 22:32:49.91	152.28	7.33	-54.6	-70.0	3.8	1.49e+00	0	39	104	1058013184	80	21577
2026-01-03 22:32:50.63	152.34	7.29	-54.7	-70.0	3.8	1.49e+00	0	39	104	1058013184	80	21718
2026-01-03 22:32:51.92	152.45	7.20	-54.6	-70.0	3.8	1.49e+00	0	39	104	1058013184	80	21524
2026-01-03 22:32:52.63	152.52	7.16	-54.6	-70.0	3.8	1.49e+00	0	39	104	1058013184	80	21520
2026-01-03 22:32:53.93	152.63	7.07	-54.6	-70.0	3.8	1.49e+00	0	39	104	1058013184	80	21569
2026-01-03 22:32:54.64	152.69	7.02	-54.6	-70.0	3.8	1.49e+00	0	39	104	1058013184	80	21631
2026-01-03 22:32:55.93	152.81	6.94	-54.7	-70.1	3.8	1.49e+00	0	39	104	1058013184	80	21906
2026-01-03 22:32:56.65	152.87	6.89	-54.7	-70.1	3.8	1.49e+00	0	39	104	1058013184	80	21824
2026-01-03 22:32:57.94	152.98	6.81	-54.6	-70.0	3.8	1.49e+00	0	39	104	1058013184	80	21718
2026-01-03 22:32:58.66	153.04	6.76	-54.6	-70.0	3.8	1.49e+00	0	39	104	1058013184	80	21594
2026-01-03 22:32:59.95	153.15	6.68	-54.6	-70.0	3.8	1.49e+00	0	39	104	1058013184	80	21629
2026-01-03 22:33:00.67	153.22	6.63	-54.6	-70.0	3.8	1.49e+00	0	39	104	1058013184	80	21604
2026-01-03 22:33:01.96	153.33	6.55	-54.4	-69.8	3.8	1.49e+00	0	39	104	1058013184	80	21158
2026-01-03 22:33:02.68	153.39	6.50	-54.5	-69.9	3.8	1.49e+00	0	39	104	1058013184	80	21309
2026-01-03 22:33:03.97	153.50	6.42	-54.7	-70.0	3.8	1.49e+00	0	39	104	1058013184	80	21688
2026-01-03 22:33:04.69	153.56	6.37	-54.7	-70.1	3.8	1.49e+00	0	39	104	1058013184	80	21767
2026-01-03 22:33:05.98	153.66	6.29	-54.7	-70.0	3.8	1.49e+00	0	39	104	1058013184	80	21755
2026-01-03 22:33:06.70	153.72	6.24	-54.6	-70.0	3.8	1.49e+00	0	39	104	1058013184	80	21625
2026-01-03 22:33:07.98	153.83	6.16	-54.6	-70.0	3.8	1.49e+00	0	39	104	1058013184	80	21649
2026-01-03 22:33:08.70	153.89	6.11	-54.6	-70.0	3.8	1.49e+00	0	39	104	1058013184	80	21569
2026-01-03 22:33:09.99	154.00	6.03	-54.5	-69.9	3.8	1.49e+00	0	39	104	1058013184	80	
