passes_logs/2026/01/03/T1/T1__20260103_211431_KHAYYAM_rec.log

#Pass ID: 20260103_211431_KHAYYAM
#Satellite: KHAYYAM
#Configuration: KHAYYAM_480M
#almurnet v.1.7.20251203
#Start time: 2026-01-03 21:14:32

#Version: 2.0.20230620
#Station: T1
#Location: 37.570604 lon 55.790049 lat
#TLE: 1 53370U 22096A   26003.53756503  .00011169  00000+0  45423-3 0  9990
#TLE: 2 53370  97.3571 270.7516 0001260  83.4645 276.6737 15.24698418189496

#Time	Az	El	Level	Level2	SNR	BER	BlckErr	Temp	State	Recorded	gain1	gain2
2026-01-03 21:14:32.36	15.23	5.22	-53.0	-57.6	3.4	0.00e+00	0	46	0	0	77	24635
2026-01-03 21:14:33.36	15.24	5.30	-52.9	-57.5	3.7	0.00e+00	0	46	104	0	76	25873
2026-01-03 21:14:34.36	15.25	5.38	-53.0	-57.6	3.7	0.00e+00	0	46	104	0	76	25987
2026-01-03 21:14:35.36	15.26	5.47	-52.8	-57.4	3.7	0.00e+00	0	46	104	0	76	25638
2026-01-03 21:14:36.36	15.27	5.55	-52.9	-57.5	3.7	0.00e+00	0	46	104	0	76	25924
2026-01-03 21:14:37.37	15.29	5.63	-52.9	-57.5	3.7	0.00e+00	0	46	104	0	77	24456
2026-01-03 21:14:38.37	15.30	5.72	-53.0	-57.6	3.6	0.00e+00	0	46	104	0	77	24792
2026-01-03 21:14:39.37	15.31	5.80	-53.0	-57.6	3.7	0.00e+00	0	47	104	0	77	24632
2026-01-03 21:14:40.37	15.32	5.88	-52.9	-57.6	3.7	0.00e+00	0	47	104	0	77	24572
2026-01-03 21:14:41.37	15.33	5.97	-52.9	-57.5	3.7	0.00e+00	0	47	104	0	77	24335
2026-01-03 21:14:42.38	15.35	6.05	-52.9	-57.5	3.7	0.00e+00	0	47	104	0	77	24467
2026-01-03 21:14:43.38	15.36	6.14	-52.8	-57.5	3.7	0.00e+00	0	47	104	0	77	24272
2026-01-03 21:14:44.38	15.37	6.22	-52.9	-57.5	3.7	0.00e+00	0	47	104	0	77	24360
2026-01-03 21:14:45.38	15.38	6.31	-52.8	-57.5	3.7	0.00e+00	0	47	104	0	77	24374
2026-01-03 21:14:46.39	15.40	6.40	-52.8	-57.5	3.7	0.00e+00	0	47	104	0	77	24292
2026-01-03 21:14:47.39	15.41	6.48	-52.8	-57.4	3.7	0.00e+00	0	47	104	0	77	24204
2026-01-03 21:14:48.39	15.42	6.57	-52.9	-57.5	3.7	0.00e+00	0	47	104	0	77	24374
2026-01-03 21:14:49.40	15.43	6.66	-52.9	-57.4	3.7	0.00e+00	0	47	104	0	77	24217
2026-01-03 21:14:50.40	15.45	6.75	-53.0	-57.5	3.7	0.00e+00	0	47	104	0	77	24468
2026-01-03 21:14:51.40	15.46	6.84	-52.9	-57.6	3.7	0.00e+00	0	48	104	0	77	24531
2026-01-03 21:14:52.40	15.47	6.93	-53.0	-57.6	3.7	0.00e+00	0	47	104	0	77	24534
2026-01-03 21:14:53.41	15.49	7.02	-52.9	-57.5	3.7	0.00e+00	0	48	104	0	77	24437
2026-01-03 21:14:54.41	15.50	7.11	-52.9	-57.5	3.7	0.00e+00	0	48	104	0	77	24398
2026-01-03 21:14:55.41	15.51	7.20	-52.9	-57.5	3.6	0.00e+00	0	48	104	0	77	24409
2026-01-03 21:14:56.42	15.53	7.29	-53.0	-57.5	3.7	0.00e+00	0	48	104	0	77	24474
2026-01-03 21:14:57.42	15.54	7.38	-52.9	-57.5	3.7	0.00e+00	0	48	104	0	77	24500
2026-01-03 21:14:58.42	15.55	7.47	-53.0	-57.6	3.7	0.00e+00	0	48	104	0	77	24600
2026-01-03 21:14:59.43	15.57	7.56	-52.9	-57.5	3.7	0.00e+00	0	48	104	0	77	24473
2026-01-03 21:15:00.43	15.58	7.65	-52.9	-57.6	3.7	0.00e+00	0	48	104	0	77	24534
2026-01-03 21:15:01.43	15.59	7.75	-52.9	-57.5	3.7	0.00e+00	0	48	104	0	77	24429
2026-01-03 21:15:02.43	15.61	7.84	-52.9	-57.5	3.7	0.00e+00	0	48	104	0	77	24390
2026-01-03 21:15:03.43	15.62	7.93	-52.9	-57.5	3.7	0.00e+00	0	48	104	0	77	24280
2026-01-03 21:15:04.44	15.63	8.03	-52.9	-57.6	3.7	0.00e+00	0	48	104	0	77	24654
2026-01-03 21:15:05.44	15.65	8.12	-53.0	-57.6	3.7	0.00e+00	0	48	104	0	77	24686
2026-01-03 21:15:06.44	15.66	8.22	-53.0	-57.7	3.7	0.00e+00	0	48	104	0	77	24852
2026-01-03 21:15:07.45	15.68	8.32	-53.1	-57.7	3.7	0.00e+00	0	48	104	0	77	24881
2026-01-03 21:15:08.45	15.69	8.41	-53.1	-57.7	3.7	0.00e+00	0	48	104	0	77	24903
2026-01-03 21:15:09.45	15.70	8.51	-52.9	-57.5	3.7	0.00e+00	0	49	104	0	77	24293
2026-01-03 21:15:10.45	15.72	8.61	-52.9	-57.5	3.7	0.00e+00	0	49	104	0	77	24417
2026-01-03 21:15:11.45	15.73	8.70	-53.1	-57.7	3.7	0.00e+00	0	49	104	0	77	25082
2026-01-03 21:15:12.45	15.75	8.80	-53.0	-57.6	3.7	0.00e+00	0	49	104	0	77	24571
2026-01-03 21:15:13.46	15.76	8.90	-52.9	-57.6	3.7	0.00e+00	0	49	104	0	77	24540
2026-01-03 21:15:14.46	15.78	9.00	-52.9	-57.6	3.7	0.00e+00	0	49	104	0	77	24570
2026-01-03 21:15:15.46	15.79	9.10	-53.1	-57.7	3.7	0.00e+00	0	49	104	0	77	24866
2026-01-03 21:15:16.46	15.81	9.20	-53.4	-58.7	3.7	0.00e+00	0	49	104	0	77	28048
2026-01-03 21:15:17.46	15.82	9.30	-53.3	-58.4	3.7	0.00e+00	0	49	104	0	78	25501
2026-01-03 21:15:18.46	15.83	9.40	-53.0	-57.6	3.7	0.00e+00	0	49	104	0	77	24552
2026-01-03 21:15:19.46	15.85	9.51	-53.0	-57.6	3.7	0.00e+00	0	49	104	0	77	24665
2026-01-03 21:15:20.46	15.87	9.61	-52.9	-57.7	3.7	0.00e+00	0	49	104	0	77	24896
2026-01-03 21:15:21.46	15.88	9.71	-53.2	-58.0	3.7	0.00e+00	0	49	104	0	77	25738
2026-01-03 21:15:22.46	15.90	9.82	-53.2	-58.0	3.7	0.00e+00	0	49	104	0	77	25828
2026-01-03 21:15:23.46	15.91	9.92	-53.3	-58.2	3.6	0.00e+00	0	49	104	0	77	26318
2026-01-03 21:15:24.46	15.93	10.02	-53.3	-58.6	3.7	0.00e+00	0	49	104	0	77	27560
2026-01-03 21:15:25.47	15.94	10.13	-53.3	-58.8	3.7	0.00e+00	0	49	104	0	77	28201
2026-01-03 21:15:26.47	15.96	10.24	-53.3	-58.7	3.7	0.00e+00	0	49	104	0	77	27879
2026-01-03 21:15:27.47	15.97	10.34	-53.9	-59.0	3.7	0.00e+00	0	49	104	0	78	27459
2026-01-03 21:15:28.47	15.99	10.45	-53.6	-58.8	3.7	0.00e+00	0	49	104	0	78	26661
2026-01-03 21:15:29.47	16.01	10.56	-53.3	-58.4	3.7	0.00e+00	0	49	104	0	78	25594
2026-01-03 21:15:30.47	16.02	10.67	-53.5	-58.7	3.7	0.00e+00	0	49	104	0	78	26542
2026-01-03 21:15:31.47	16.04	10.78	-53.6	-58.9	3.7	0.00e+00	0	49	104	0	78	27178
2026-01-03 21:15:32.48	16.06	10.89	-53.6	-59.2	3.7	0.00e+00	0	49	104	0	78	27891
2026-01-03 21:15:33.47	16.07	11.00	-53.6	-59.2	3.7	0.00e+00	0	49	104	0	78	27965
2026-01-03 21:15:34.48	16.09	11.11	-53.7	-59.4	3.7	0.00e+00	0	49	104	0	78	28591
2026-01-03 21:15:35.48	16.10	11.22	-53.8	-59.4	3.7	0.00e+00	0	50	104	0	78	28794
2026-01-03 21:15:36.48	16.12	11.34	-54.1	-59.7	3.7	0.00e+00	0	50	104	0	79	27840
2026-01-03 21:15:37.48	16.14	11.45	-53.8	-59.6	3.7	0.00e+00	0	50	104	0	79	27657
2026-01-03 21:15:38.48	16.16	11.56	-53.5	-59.4	3.7	0.00e+00	0	50	104	0	78	28497
2026-01-03 21:15:39.48	16.17	11.68	-53.8	-59.5	3.7	0.00e+00	0	50	104	0	78	28948
2026-01-03 21:15:40.48	16.19	11.79	-53.8	-59.4	3.7	0.00e+00	0	50	104	0	78	28705
2026-01-03 21:15:41.48	16.21	11.91	-53.8	-59.4	3.7	0.00e+00	0	50	104	0	78	28799
2026-01-03 21:15:42.48	16.23	12.03	-54.1	-59.8	3.7	0.00e+00	0	50	104	0	79	28347
2026-01-03 21:15:43.48	16.24	12.14	-54.0	-59.6	3.7	0.00e+00	0	50	104	0	79	27603
2026-01-03 21:15:44.48	16.26	12.26	-54.7	-60.0	3.7	0.00e+00	0	50	104	0	79	28944
2026-01-03 21:15:45.48	16.28	12.38	-55.7	-60.5	3.7	0.00e+00	0	50	104	0	81	27414
2026-01-03 21:15:46.49	16.30	12.50	-55.1	-60.3	3.7	0.00e+00	0	50	104	0	81	26682
2026-01-03 21:15:47.49	16.32	12.62	-54.4	-59.6	3.7	0.00e+00	0	50	104	0	80	26048
2026-01-03 21:15:48.49	16.33	12.75	-54.4	-59.6	3.7	0.00e+00	0	50	104	0	80	26141
2026-01-03 21:15:49.49	16.35	12.87	-54.6	-59.9	3.7	0.00e+00	0	50	104	0	80	26981
2026-01-03 21:15:50.49	16.37	12.99	-54.8	-60.0	3.7	0.00e+00	0	50	104	0	80	27507
2026-01-03 21:15:51.49	16.39	13.12	-54.9	-60.2	3.7	0.00e+00	0	50	104	0	80	27936
2026-01-03 21:15:52.49	16.41	13.24	-55.0	-60.3	3.7	0.00e+00	0	50	104	0	80	28255
2026-01-03 21:15:53.50	16.43	13.37	-55.9	-60.4	3.7	0.00e+00	0	50	104	0	82	25641
2026-01-03 21:15:54.50	16.45	13.49	-56.7	-61.2	3.7	0.00e+00	0	50	104	0	84	25001
2026-01-03 21:15:55.50	16.47	13.62	-56.4	-60.8	3.7	0.00e+00	0	50	104	0	84	23782
2026-01-03 21:15:56.50	16.49	13.75	-55.7	-60.6	3.7	0.00e+00	0	50	104	0	83	24570
2026-01-03 21:15:57.50	16.51	13.88	-56.0	-60.9	3.6	0.00e+00	0	50	104	0	83	25650
2026-01-03 21:15:58.51	16.53	14.01	-56.1	-60.9	3.7	0.00e+00	0	50	104	0	83	25577
2026-01-03 21:15:59.51	16.55	14.14	-55.7	-60.6	3.7	0.00e+00	0	50	104	0	83	24798
2026-01-03 21:16:00.51	16.57	14.28	-55.9	-60.8	3.7	0.00e+00	0	50	104	0	83	25279
2026-01-03 21:16:01.51	16.59	14.41	-56.2	-61.0	3.7	0.00e+00	0	50	104	0	83	25863
2026-01-03 21:16:02.52	16.61	14.54	-56.9	-61.3	3.7	0.00e+00	0	50	104	0	84	25201
2026-01-03 21:16:03.52	16.63	14.68	-57.0	-61.4	3.7	0.00e+00	0	50	104	0	84	25608
2026-01-03 21:16:04.52	16.65	14.82	-57.1	-61.5	3.7	0.00e+00	0	50	104	0	84	25955
2026-01-03 21:16:05.52	16.67	14.95	-57.1	-61.4	3.7	0.00e+00	0	50	104	0	85	24018
2026-01-03 21:16:06.52	16.70	15.09	-56.6	-60.5	3.7	0.00e+00	0	50	104	0	85	21743
2026-01-03 21:16:07.52	16.72	15.23	-56.7	-60.6	3.7	0.00e+00	0	50	104	0	85	22102
2026-01-03 21:16:08.52	16.74	15.37	-56.9	-61.1	3.7	0.00e+00	0	50	104	0	85	23174
2026-01-03 21:16:09.52	16.76	15.51	-57.1	-61.7	3.7	0.00e+00	0	50	104	0	85	24812
2026-01-03 21:16:10.52	16.78	15.65	-57.0	-61.6	3.7	0.00e+00	0	50	104	0	85	24754
2026-01-03 21:16:11.52	16.81	15.80	-56.7	-60.8	3.7	0.00e+00	0	51	104	0	85	22522
2026-01-03 21:16:12.52	16.83	15.94	-56.6	-60.5	3.7	0.00e+00	0	50	104	0	85	21823
2026-01-03 21:16:13.52	16.85	16.09	-56.6	-60.5	3.7	0.00e+00	0	51	104	0	84	23071
2026-01-03 21:16:14.52	16.87	16.23	-56.8	-61.0	3.7	0.00e+00	0	50	104	0	84	24333
2026-01-03 21:16:15.52	16.90	16.38	-56.9	-61.2	3.7	0.00e+00	0	51	104	0	84	24822
2026-01-03 21:16:16.53	16.92	16.53	-57.1	-61.5	3.7	0.00e+00	0	51	104	0	84	25774
2026-01-03 21:16:17.53	16.95	16.68	-57.1	-61.6	3.7	0.00e+00	0	50	104	0	84	26189
2026-01-03 21:16:18.53	16.97	16.84	-56.8	-61.5	3.7	0.00e+00	0	51	104	0	84	25818
2026-01-03 21:16:19.53	16.99	16.99	-56.7	-61.4	3.7	0.00e+00	0	51	104	0	84	25665
2026-01-03 21:16:20.53	17.02	17.14	-56.5	-61.3	3.7	0.00e+00	0	51	104	0	84	25370
2026-01-03 21:16:21.53	17.04	17.30	-55.3	-60.2	3.7	0.00e+00	0	51	104	0	82	24925
2026-01-03 21:16:22.54	17.07	17.46	-55.6	-60.4	3.7	0.00e+00	0	51	104	0	82	25616
2026-01-03 21:16:23.54	17.09	17.61	-55.6	-60.5	3.7	0.00e+00	0	51	104	0	82	25701
2026-01-03 21:16:24.54	17.12	17.77	-55.5	-60.5	3.7	0.00e+00	0	51	104	0	82	25713
2026-01-03 21:16:25.54	17.15	17.93	-55.5	-60.5	3.7	0.00e+00	0	51	104	0	82	25880
2026-01-03 21:16:26.54	17.17	18.10	-55.5	-60.6	3.7	0.00e+00	0	51	104	0	82	25994
2026-01-03 21:16:27.54	17.20	18.26	-55.7	-60.7	3.7	0.00e+00	0	51	104	0	82	26286
2026-01-03 21:16:28.54	17.22	18.43	-55.7	-60.6	3.7	0.00e+00	0	50	104	0	82	26160
2026-01-03 21:16:29.54	17.25	18.59	-55.7	-60.6	3.7	0.00e+00	0	51	104	0	82	26154
2026-01-03 21:16:30.54	17.28	18.76	-55.7	-60.8	3.7	0.00e+00	0	51	104	0	82	26654
2026-01-03 21:16:31.55	17.31	18.93	-55.7	-60.8	3.7	0.00e+00	0	51	104	0	82	26672
2026-01-03 21:16:32.55	17.34	19.10	-55.7	-60.7	3.7	0.00e+00	0	51	104	0	82	26428
2026-01-03 21:16:33.55	17.36	19.27	-55.8	-60.7	3.7	0.00e+00	0	50	104	0	82	26488
2026-01-03 21:16:34.55	17.39	19.45	-55.0	-59.0	3.7	0.00e+00	0	51	104	0	82	21621
2026-01-03 21:16:35.56	17.42	19.62	-55.1	-59.1	3.7	0.00e+00	0	51	104	0	81	23267
2026-01-03 21:16:36.56	17.45	19.80	-54.9	-59.0	3.7	0.00e+00	0	51	104	0	81	22889
2026-01-03 21:16:37.56	17.48	19.98	-55.3	-59.4	3.7	0.00e+00	0	51	104	0	81	24047
2026-01-03 21:16:38.55	17.51	20.16	-55.6	-59.9	3.7	0.00e+00	0	51	104	0	81	25437
2026-01-03 21:16:39.54	17.54	20.34	-55.9	-60.3	3.7	0.00e+00	0	51	104	0	82	25098
2026-01-03 21:16:40.54	17.57	20.52	-56.4	-61.1	3.7	0.00e+00	0	51	104	0	83	26113
2026-01-03 21:16:41.54	17.60	20.71	-56.3	-61.0	3.7	0.00e+00	0	51	104	0	83	25880
2026-01-03 21:16:42.54	17.63	20.89	-56.1	-60.7	3.7	0.00e+00	0	51	104	0	83	24983
2026-01-03 21:16:43.55	17.66	21.08	-55.7	-60.5	3.7	0.00e+00	0	51	104	0	83	24484
2026-01-03 21:16:44.55	17.70	21.28	-56.0	-60.8	3.7	0.00e+00	0	51	104	0	83	25120
2026-01-03 21:16:45.55	17.73	21.47	-55.7	-60.4	3.7	0.00e+00	0	51	104	0	83	24225
2026-01-03 21:16:46.55	17.76	21.66	-55.6	-60.7	3.7	0.00e+00	0	51	104	0	82	26511
2026-01-03 21:16:47.55	17.80	21.86	-55.4	-60.5	3.7	0.00e+00	0	51	104	0	82	25776
2026-01-03 21:16:48.55	17.83	22.06	-55.5	-60.6	3.7	0.00e+00	0	51	104	0	82	26124
2026-01-03 21:16:49.55	17.86	22.26	-55.6	-60.7	3.7	0.00e+00	0	51	104	0	82	26300
2026-01-03 21:16:50.56	17.90	22.46	-55.6	-60.6	3.7	0.00e+00	0	51	104	0	82	26198
2026-01-03 21:16:51.56	17.93	22.66	-56.0	-60.7	3.7	0.00e+00	0	51	104	0	82	26423
2026-01-03 21:16:52.56	17.97	22.87	-56.0	-60.8	3.7	0.00e+00	0	51	104	0	83	25233
2026-01-03 21:16:53.56	18.01	23.08	-56.3	-61.1	3.7	0.00e+00	0	51	104	0	83	26132
2026-01-03 21:16:54.57	18.04	23.29	-56.4	-61.1	3.7	0.00e+00	0	51	104	0	83	26047
2026-01-03 21:16:55.57	18.08	23.50	-56.2	-60.4	3.7	0.00e+00	0	51	104	0	83	24138
2026-01-03 21:16:56.57	18.12	23.72	-56.3	-60.8	3.7	0.00e+00	0	51	104	0	83	25148
2026-01-03 21:16:57.57	18.16	23.94	-55.7	-59.6	3.7	0.00e+00	0	51	104	0	83	22059
2026-01-03 21:16:58.57	18.19	24.15	-54.7	-57.7	3.7	0.00e+00	0	51	104	0	81	19912
2026-01-03 21:16:59.57	18.23	24.38	-54.8	-57.7	3.7	0.00e+00	0	51	104	0	81	19830
2026-01-03 21:17:00.57	18.27	24.60	-55.2	-58.3	3.7	0.00e+00	0	51	104	0	81	21272
2026-01-03 21:17:01.57	18.31	24.83	-56.4	-61.0	3.7	0.00e+00	0	51	104	0	83	25880
2026-01-03 21:17:02.57	18.35	25.05	-56.3	-60.8	3.7	0.00e+00	0	51	104	0	83	25346
2026-01-03 21:17:03.58	18.40	25.29	-55.0	-58.1	3.7	0.00e+00	0	51	104	0	82	19626
2026-01-03 21:17:04.58	18.44	25.52	-54.7	-57.7	3.7	0.00e+00	0	51	104	0	81	19800
2026-01-03 21:17:05.58	18.48	25.76	-55.3	-58.5	3.7	0.00e+00	0	51	104	0	81	21798
2026-01-03 21:17:06.58	18.53	26.00	-55.9	-59.6	3.7	0.00e+00	0	51	104	0	82	23239
2026-01-03 21:17:07.58	18.57	26.24	-56.1	-60.5	3.7	0.00e+00	0	51	104	0	82	25902
2026-01-03 21:17:08.58	18.61	26.48	-56.2	-61.0	3.7	0.00e+00	0	51	104	0	83	25714
2026-01-03 21:17:09.58	18.66	26.73	-55.9	-60.8	3.7	0.00e+00	0	51	104	0	83	25245
2026-01-03 21:17:10.58	18.71	26.98	-55.3	-60.2	3.7	0.00e+00	0	51	104	0	82	24916
2026-01-03 21:17:11.58	18.75	27.23	-55.4	-60.4	3.7	0.00e+00	0	51	104	0	82	25512
2026-01-03 21:17:12.58	18.80	27.48	-55.9	-60.8	3.7	0.00e+00	0	51	104	0	82	26735
2026-01-03 21:17:13.58	18.85	27.74	-56.1	-60.9	3.7	0.00e+00	0	51	104	0	82	27131
2026-01-03 21:17:14.58	18.90	28.00	-55.8	-60.5	3.7	0.00e+00	0	51	104	0	82	25737
2026-01-03 21:17:15.58	18.95	28.27	-55.7	-60.4	3.7	0.00e+00	0	51	104	0	82	25464
2026-01-03 21:17:16.58	19.00	28.53	-55.8	-60.4	3.7	0.00e+00	0	51	104	0	82	25513
2026-01-03 21:17:17.58	19.05	28.80	-55.6	-60.0	3.7	0.00e+00	0	51	104	0	82	24287
2026-01-03 21:17:18.58	19.11	29.08	-55.6	-59.9	3.7	0.00e+00	0	51	104	0	82	24200
2026-01-03 21:17:19.58	19.16	29.35	-56.0	-60.2	3.7	0.00e+00	0	51	104	0	82	25008
2026-01-03 21:17:20.59	19.21	29.64	-56.2	-60.3	3.7	0.00e+00	0	51	104	0	83	23808
2026-01-03 21:17:21.59	19.27	29.92	-56.3	-60.4	3.7	0.00e+00	0	51	104	0	83	24200
2026-01-03 21:17:22.59	19.33	30.21	-56.6	-60.8	3.7	0.00e+00	0	51	104	0	84	23905
2026-01-03 21:17:23.59	19.39	30.50	-56.6	-60.8	3.7	0.00e+00	0	51	104	0	84	23819
2026-01-03 21:17:24.59	19.44	30.79	-56.7	-60.9	3.7	0.00e+00	0	51	104	0	84	24084
2026-01-03 21:17:25.60	19.50	31.09	-56.6	-61.0	3.7	0.00e+00	0	51	104	0	84	24344
2026-01-03 21:17:26.60	19.57	31.39	-56.7	-61.1	3.7	0.00e+00	0	51	104	0	84	24703
2026-01-03 21:17:27.60	19.63	31.69	-56.6	-61.1	3.7	0.00e+00	0	51	104	0	84	24747
2026-01-03 21:17:28.60	19.69	32.00	-56.8	-61.4	3.7	0.00e+00	0	51	104	0	84	25496
2026-01-03 21:17:29.60	19.76	32.31	-57.0	-61.6	3.7	0.00e+00	0	51	104	0	84	26075
2026-01-03 21:17:30.60	19.82	32.63	-56.9	-61.5	3.7	0.00e+00	0	51	104	0	84	25687
2026-01-03 21:17:31.60	19.89	32.95	-56.7	-61.2	3.7	0.00e+00	0	51	104	0	84	24858
2026-01-03 21:17:32.60	19.96	33.27	-56.8	-61.3	3.7	0.00e+00	0	51	104	0	84	25347
2026-01-03 21:17:33.61	20.03	33.60	-56.4	-60.9	3.7	0.00e+00	0	51	104	0	84	24170
2026-01-03 21:17:34.61	20.10	33.94	-56.3	-61.1	3.7	0.00e+00	0	51	104	0	84	24719
2026-01-03 21:17:35.61	20.17	34.27	-56.1	-61.1	3.7	0.00e+00	0	51	104	0	84	24626
2026-01-03 21:17:36.61	20.25	34.61	-55.8	-60.9	3.7	0.00e+00	0	51	104	0	83	25487
2026-01-03 21:17:37.61	20.32	34.96	-55.8	-60.6	3.7	0.00e+00	0	51	104	0	82	26158
2026-01-03 21:17:38.61	20.40	35.31	-56.0	-60.8	3.7	0.00e+00	0	51	104	0	82	26863
2026-01-03 21:17:39.61	20.48	35.66	-55.5	-60.4	3.7	0.00e+00	0	51	104	0	82	25515
2026-01-03 21:17:40.61	20.56	36.02	-55.9	-60.7	3.7	0.00e+00	0	51	104	0	82	26507
2026-01-03 21:17:41.62	20.65	36.39	-56.6	-61.4	3.7	0.00e+00	0	51	104	0	83	27035
2026-01-03 21:17:42.62	20.73	36.75	-56.8	-61.2	3.7	0.00e+00	0	51	104	0	84	24827
2026-01-03 21:17:43.63	20.82	37.13	-56.9	-61.5	3.7	0.00e+00	0	51	104	0	84	25716
2026-01-03 21:17:44.63	20.91	37.51	-55.7	-59.9	3.7	0.00e+00	0	51	104	0	83	22707
2026-01-03 21:17:45.63	21.00	37.89	-56.5	-61.3	3.7	0.00e+00	0	51	104	0	83	26829
2026-01-03 21:17:46.64	21.10	38.28	-56.4	-61.0	3.7	0.00e+00	0	51	104	0	84	24426
2026-01-03 21:17:47.64	21.19	38.67	-56.3	-60.9	3.7	0.00e+00	0	51	104	0	84	24048
2026-01-03 21:17:48.64	21.29	39.07	-56.6	-61.3	3.7	0.00e+00	0	51	104	0	84	25198
2026-01-03 21:17:49.64	21.39	39.47	-56.7	-61.6	3.7	0.00e+00	0	51	104	0	84	26125
2026-01-03 21:17:50.64	21.50	39.88	-57.3	-62.0	3.7	0.00e+00	0	51	104	0	85	25704
2026-01-03 21:17:51.64	21.60	40.30	-57.1	-61.8	3.7	0.00e+00	0	51	104	0	85	25156
2026-01-03 21:17:52.64	21.71	40.72	-57.1	-61.7	3.7	0.00e+00	0	51	104	0	85	25084
2026-01-03 21:17:53.64	21.82	41.14	-57.4	-61.8	3.6	0.00e+00	0	51	104	0	85	25217
2026-01-03 21:17:54.65	21.94	41.58	-57.3	-61.7	3.7	0.00e+00	0	51	104	0	85	24995
2026-01-03 21:17:55.65	22.06	42.01	-57.3	-61.8	3.7	0.00e+00	0	51	104	0	85	25123
2026-01-03 21:17:56.65	22.18	42.45	-57.3	-61.8	3.7	0.00e+00	0	51	104	0	85	25310
2026-01-03 21:17:57.65	22.30	42.90	-57.1	-61.3	3.7	0.00e+00	0	51	104	0	85	23949
2026-01-03 21:17:58.65	22.43	43.36	-57.2	-61.5	3.7	0.00e+00	0	51	104	0	85	24337
2026-01-03 21:17:59.66	22.56	43.82	-56.5	-60.6	3.7	0.00e+00	0	51	104	0	85	22043
2026-01-03 21:18:00.66	22.70	44.29	-56.2	-60.4	3.7	0.00e+00	0	51	104	0	84	22811
2026-01-03 21:18:01.66	22.84	44.76	-56.3	-60.8	3.6	0.00e+00	0	51	104	0	83	25131
2026-01-03 21:18:02.67	22.99	45.25	-56.6	-61.1	3.7	0.00e+00	0	51	104	0	83	26106
2026-01-03 21:18:03.66	23.13	45.73	-56.8	-60.9	3.7	0.00e+00	0	51	104	0	84	24155
2026-01-03 21:18:04.67	23.29	46.22	-56.3	-60.1	3.7	0.00e+00	0	51	104	0	84	21891
2026-01-03 21:18:05.67	23.45	46.72	-56.7	-60.6	3.7	0.00e+00	0	51	104	0	84	23297
2026-01-03 21:18:06.68	23.61	47.23	-56.1	-59.9	3.7	0.00e+00	0	51	104	0	84	21496
2026-01-03 21:18:07.68	23.78	47.74	-56.2	-60.1	3.7	0.00e+00	0	51	104	0	84	22074
2026-01-03 21:18:08.68	23.96	48.26	-56.1	-59.8	3.7	0.00e+00	0	51	104	0	84	21267
2026-01-03 21:18:09.68	24.14	48.79	-56.5	-60.5	3.7	0.00e+00	0	51	104	0	84	23104
2026-01-03 21:18:10.68	24.33	49.32	-56.8	-60.9	3.7	0.00e+00	0	51	104	0	84	24196
2026-01-03 21:18:11.69	24.52	49.86	-56.6	-60.6	3.7	0.00e+00	0	51	104	0	84	23256
2026-01-03 21:18:12.69	24.73	50.41	-56.5	-60.6	3.7	0.00e+00	0	51	104	0	84	23361
2026-01-03 21:18:13.69	24.94	50.96	-55.4	-58.9	3.7	0.00e+00	0	51	104	0	82	21447
2026-01-03 21:18:14.69	25.15	51.52	-55.6	-59.3	3.7	0.00e+00	0	51	104	0	82	22448
2026-01-03 21:18:15.69	25.38	52.09	-55.6	-58.9	3.7	0.00e+00	0	51	104	0	82	21530
2026-01-03 21:18:16.69	25.61	52.66	-56.4	-60.2	3.7	0.00e+00	0	51	104	0	83	23638
2026-01-03 21:18:17.69	25.86	53.24	-56.3	-60.0	3.7	0.00e+00	0	51	104	0	83	22966
2026-01-03 21:18:18.69	26.11	53.83	-57.0	-61.1	3.7	0.00e+00	0	51	104	0	84	24762
2026-01-03 21:18:19.69	26.38	54.42	-56.8	-60.6	3.7	0.00e+00	0	51	104	0	85	21930
2026-01-03 21:18:20.70	26.65	55.03	-56.0	-59.5	3.7	0.00e+00	0	51	104	0	83	21854
2026-01-03 21:18:21.70	26.94	55.64	-56.1	-59.8	3.7	0.00e+00	0	51	104	0	83	22451
2026-01-03 21:18:22.70	27.24	56.26	-56.3	-59.9	3.7	0.00e+00	0	51	104	0	83	22769
2026-01-03 21:18:23.70	27.56	56.88	-56.2	-59.8	3.7	0.00e+00	0	51	104	0	83	22606
2026-01-03 21:18:24.70	27.89	57.51	-56.5	-60.4	3.7	0.00e+00	0	51	104	0	83	23994
2026-01-03 21:18:25.71	28.24	58.15	-56.8	-60.6	3.7	0.00e+00	0	51	104	0	84	23374
2026-01-03 21:18:26.71	28.60	58.79	-56.5	-60.6	3.7	0.00e+00	0	51	104	0	84	23245
2026-01-03 21:18:27.71	28.98	59.44	-56.5	-60.5	3.7	0.00e+00	0	51	104	0	84	23059
2026-01-03 21:18:28.71	29.38	60.10	-56.8	-60.8	3.7	0.00e+00	0	51	104	0	84	23817
2026-01-03 21:18:29.70	29.80	60.75	-56.7	-60.6	3.7	0.00e+00	0	51	104	0	84	23159
2026-01-03 21:18:30.71	30.25	61.43	-57.0	-61.0	3.7	0.00e+00	0	51	104	0	84	24517
2026-01-03 21:18:31.71	30.72	62.10	-56.9	-61.0	3.7	0.00e+00	0	51	104	0	84	24522
2026-01-03 21:18:32.71	31.22	62.78	-56.8	-61.1	3.7	0.00e+00	0	51	104	0	84	24591
2026-01-03 21:18:33.71	31.74	63.47	-56.7	-60.8	3.7	0.00e+00	0	51	104	0	84	23918
2026-01-03 21:18:34.71	32.30	64.16	-57.3	-61.5	3.7	0.00e+00	0	51	104	0	85	24427
2026-01-03 21:18:35.72	32.90	64.86	-57.3	-61.4	3.7	0.00e+00	0	51	104	0	85	24230
2026-01-03 21:18:36.72	33.53	65.56	-57.2	-61.5	3.7	0.00e+00	0	51	104	0	85	24245
2026-01-03 21:18:37.72	34.21	66.27	-57.3	-61.7	3.7	0.00e+00	0	51	104	0	85	24823
2026-01-03 21:18:38.73	34.93	66.98	-57.3	-61.8	3.7	0.00e+00	0	51	104	0	85	25202
2026-01-03 21:18:39.73	35.70	67.69	-57.3	-61.8	3.7	0.00e+00	0	51	104	0	85	25256
2026-01-03 21:18:40.73	36.52	68.40	-57.5	-61.9	3.7	0.00e+00	0	51	104	0	85	25574
2026-01-03 21:18:41.73	37.41	69.12	-57.4	-62.0	3.7	0.00e+00	0	51	104	0	85	25848
2026-01-03 21:18:42.73	38.36	69.83	-57.4	-62.0	3.7	0.00e+00	0	51	104	0	85	25734
2026-01-03 21:18:43.73	39.39	70.55	-57.4	-62.0	3.7	0.00e+00	0	51	104	0	85	25694
2026-01-03 21:18:44.73	40.51	71.27	-57.0	-61.7	3.7	0.00e+00	0	51	104	0	85	24854
2026-01-03 21:18:45.73	41.72	71.98	-57.0	-61.7	3.7	0.00e+00	0	51	104	0	85	24887
2026-01-03 21:18:46.74	43.04	72.70	-57.3	-61.9	3.7	0.00e+00	0	52	104	0	85	25501
2026-01-03 21:18:47.73	44.46	73.40	-57.3	-61.8	3.7	0.00e+00	0	51	104	0	85	25367
2026-01-03 21:18:48.74	46.05	74.11	-57.0	-61.7	3.7	0.00e+00	0	51	104	0	85	25002
2026-01-03 21:18:49.73	47.74	74.79	-57.4	-62.0	3.7	0.00e+00	0	51	104	0	85	25698
2026-01-03 21:18:50.73	49.63	75.47	-57.1	-61.7	3.7	0.00e+00	0	51	104	0	85	24907
2026-01-03 21:18:51.74	51.73	76.15	-57.2	-61.7	3.7	0.00e+00	0	52	104	0	85	24977
2026-01-03 21:18:52.73	54.00	76.80	-57.2	-61.8	3.7	0.00e+00	0	51	104	0	85	25362
2026-01-03 21:18:53.74	56.56	77.44	-57.3	-61.9	3.7	0.00e+00	0	51	104	0	85	25386
2026-01-03 21:18:54.74	59.37	78.04	-57.2	-61.7	3.7	0.00e+00	0	51	104	0	85	24978
2026-01-03 21:18:55.73	62.45	78.62	-57.1	-61.7	3.7	0.00e+00	0	51	104	0	85	24845
2026-01-03 21:18:56.74	65.93	79.17	-56.9	-61.5	3.7	0.00e+00	0	51	104	0	85	24499
2026-01-03 21:18:57.74	69.73	79.68	-57.2	-61.8	3.7	0.00e+00	0	51	104	0	85	25096
2026-01-03 21:18:58.74	73.91	80.14	-57.1	-61.6	3.7	0.00e+00	0	52	104	0	85	24786
2026-01-03 21:18:59.74	78.49	80.54	-57.1	-61.6	3.7	0.00e+00	0	51	104	0	85	24652
2026-01-03 21:19:00.74	83.44	80.88	-56.0	-61.3	3.7	0.00e+00	0	51	104	0	84	25109
2026-01-03 21:19:01.74	88.74	81.15	-56.5	-61.3	3.7	0.00e+00	0	51	104	0	84	25208
2026-01-03 21:19:02.75	94.38	81.34	-56.7	-61.4	3.7	0.00e+00	0	51	104	0	84	25388
2026-01-03 21:19:03.75	100.16	81.44	-56.7	-61.3	3.7	0.00e+00	0	51	104	0	84	25166
2026-01-03 21:19:04.75	106.02	81.46	-56.4	-61.1	3.7	0.00e+00	0	52	104	0	84	24735
2026-01-03 21:19:05.75	111.85	81.39	-56.4	-61.0	3.7	0.00e+00	0	51	104	0	84	24443
2026-01-03 21:19:06.75	117.52	81.23	-56.9	-61.5	3.7	0.00e+00	0	51	104	0	84	25931
2026-01-03 21:19:07.75	122.94	80.99	-57.0	-61.6	3.7	0.00e+00	0	51	104	0	84	26194
2026-01-03 21:19:08.76	128.09	80.68	-57.3	-61.9	3.7	0.00e+00	0	51	104	0	85	25427
2026-01-03 21:19:09.76	132.81	80.30	-57.6	-62.1	3.7	0.00e+00	0	51	104	0	85	26254
2026-01-03 21:19:10.76	137.15	79.86	-57.3	-61.8	3.7	0.00e+00	0	51	104	0	85	25334
2026-01-03 21:19:11.76	141.10	79.37	-57.3	-61.8	3.7	0.00e+00	0	51	104	0	85	25346
2026-01-03 21:19:12.76	144.68	78.84	-57.2	-61.7	3.7	0.00e+00	0	51	104	0	85	24813
2026-01-03 21:19:13.77	147.95	78.26	-57.1	-61.5	3.7	0.00e+00	0	51	104	0	85	24396
2026-01-03 21:19:14.77	150.87	77.66	-57.2	-61.4	3.7	0.00e+00	0	51	104	0	85	24122
2026-01-03 21:19:15.77	153.51	77.04	-57.3	-61.5	3.7	0.00e+00	0	51	104	0	85	24337
2026-01-03 21:19:16.77	155.89	76.39	-56.7	-61.4	3.7	0.00e+00	0	51	104	0	85	24062
2026-01-03 21:19:17.77	158.05	75.73	-56.6	-61.0	3.7	0.00e+00	0	51	104	0	85	23109
2026-01-03 21:19:18.77	160.01	75.05	-57.2	-61.7	3.7	0.00e+00	0	51	104	0	85	24822
2026-01-03 21:19:19.78	161.80	74.35	-57.2	-61.7	3.7	0.00e+00	0	51	104	0	85	24886
2026-01-03 21:19:20.78	163.42	73.65	-57.4	-61.7	3.7	0.00e+00	0	51	104	0	85	25045
2026-01-03 21:19:21.78	164.91	72.95	-57.4	-61.6	3.7	0.00e+00	0	51	104	0	85	24751
2026-01-03 21:19:22.78	166.26	72.24	-57.4	-62.0	3.7	0.00e+00	0	51	104	0	85	25698
2026-01-03 21:19:23.78	167.51	71.52	-57.3	-61.9	3.7	0.00e+00	0	51	104	0	85	25432
2026-01-03 21:19:24.78	168.66	70.81	-57.4	-61.7	3.7	0.00e+00	0	51	104	0	85	25035
2026-01-03 21:19:25.78	169.72	70.09	-57.4	-61.9	3.7	0.00e+00	0	51	104	0	85	25494
2026-01-03 21:19:26.78	170.70	69.37	-56.8	-61.5	3.7	0.00e+00	0	51	104	0	85	24462
2026-01-03 21:19:27.78	171.61	68.65	-56.8	-61.5	3.7	0.00e+00	0	51	104	0	85	24246
2026-01-03 21:19:28.79	172.47	67.93	-57.3	-61.7	3.7	0.00e+00	0	51	104	0	85	24990
2026-01-03 21:19:29.79	173.26	67.22	-57.4	-61.8	3.7	0.00e+00	0	51	104	0	85	25355
2026-01-03 21:19:30.79	173.99	66.51	-56.7	-61.5	3.7	0.00e+00	0	51	104	0	85	24335
2026-01-03 21:19:31.79	174.68	65.80	-56.7	-61.5	3.7	0.00e+00	0	52	104	0	84	25784
2026-01-03 21:19:32.79	175.33	65.09	-56.9	-61.6	3.7	0.00e+00	0	51	104	0	84	26165
2026-01-03 21:19:33.79	175.94	64.40	-57.2	-61.8	3.7	0.00e+00	0	51	104	0	85	25207
2026-01-03 21:19:34.79	176.51	63.70	-57.4	-61.9	3.7	0.00e+00	0	51	104	0	85	25475
2026-01-03 21:19:35.79	177.05	63.01	-57.4	-61.9	3.7	0.00e+00	0	51	104	0	85	25569
2026-01-03 21:19:36.79	177.55	62.33	-57.0	-61.7	3.7	0.00e+00	0	51	104	0	85	24867
2026-01-03 21:19:37.79	178.03	61.65	-57.1	-61.7	3.7	0.00e+00	0	51	104	0	85	25006
2026-01-03 21:19:38.79	178.49	60.98	-57.4	-62.0	3.7	0.00e+00	0	51	104	0	85	25810
2026-01-03 21:19:39.79	178.92	60.31	-57.5	-62.0	3.7	0.00e+00	0	52	104	0	85	25919
2026-01-03 21:19:40.79	179.33	59.65	-57.5	-61.9	3.7	0.00e+00	0	51	104	0	85	25606
2026-01-03 21:19:41.80	179.72	58.99	-57.5	-62.0	3.7	0.00e+00	0	51	104	0	86	24374
2026-01-03 21:19:42.80	180.09	58.34	-57.4	-61.9	3.7	0.00e+00	0	51	104	0	86	24090
2026-01-03 21:19:43.80	180.44	57.70	-57.6	-62.1	3.7	0.00e+00	0	51	104	0	86	24616
2026-01-03 21:19:44.80	180.78	57.07	-57.3	-61.8	3.7	0.00e+00	0	52	104	0	85	25211
2026-01-03 21:19:45.80	181.10	56.44	-57.0	-61.6	3.7	0.00e+00	0	52	104	0	85	24790
2026-01-03 21:19:46.80	181.41	55.82	-56.5	-61.3	3.7	0.00e+00	0	51	104	0	84	25308
2026-01-03 21:19:47.81	181.70	55.20	-56.5	-61.3	3.7	0.00e+00	0	51	104	0	84	25323
2026-01-03 21:19:48.80	181.98	54.60	-56.9	-61.6	3.7	0.00e+00	0	51	104	0	84	26214
2026-01-03 21:19:49.81	182.25	53.99	-57.3	-61.8	3.7	0.00e+00	0	51	104	0	85	25214
2026-01-03 21:19:50.81	182.51	53.40	-57.3	-61.8	3.7	0.00e+00	0	51	104	0	85	25334
2026-01-03 21:19:51.81	182.76	52.82	-57.2	-61.7	3.7	0.00e+00	0	52	104	0	85	25088
2026-01-03 21:19:52.82	183.00	52.23	-57.4	-61.8	3.7	0.00e+00	0	52	104	0	85	25095
2026-01-03 21:19:53.82	183.23	51.66	-57.3	-61.5	3.7	0.00e+00	0	51	104	0	85	24481
2026-01-03 21:19:54.82	183.45	51.10	-57.0	-61.5	3.7	0.00e+00	0	51	104	0	85	24405
2026-01-03 21:19:55.82	183.66	50.54	-57.4	-61.7	3.7	0.00e+00	0	52	104	0	85	24998
2026-01-03 21:19:56.82	183.86	49.99	-57.2	-61.7	3.7	0.00e+00	0	52	104	0	84	26530
2026-01-03 21:19:57.82	184.06	49.45	-56.9	-61.6	3.7	0.00e+00	0	52	104	0	85	24569
2026-01-03 21:19:58.83	184.25	48.90	-57.3	-61.7	3.7	0.00e+00	0	52	104	0	85	25072
2026-01-03 21:19:59.83	184.44	48.37	-57.2	-61.7	3.7	0.00e+00	0	52	104	0	85	24990
2026-01-03 21:20:00.83	184.61	47.85	-57.4	-61.8	3.7	0.00e+00	0	52	104	0	85	25363
2026-01-03 21:20:01.82	184.78	47.34	-57.4	-61.8	3.7	0.00e+00	0	52	104	0	85	25357
2026-01-03 21:20:02.82	184.95	46.83	-57.3	-61.6	3.7	0.00e+00	0	51	104	0	85	24707
2026-01-03 21:20:03.82	185.11	46.33	-57.3	-61.6	3.7	0.00e+00	0	51	104	0	85	24762
2026-01-03 21:20:04.83	185.27	45.83	-57.0	-61.4	3.7	0.00e+00	0	51	104	0	85	24216
2026-01-03 21:20:05.83	185.42	45.34	-57.0	-61.5	3.7	0.00e+00	0	51	104	0	84	25859
2026-01-03 21:20:06.84	185.57	44.85	-57.3	-61.8	3.7	0.00e+00	0	51	104	0	85	25100
2026-01-03 21:20:07.84	185.71	44.37	-57.3	-61.7	3.7	0.00e+00	0	51	104	0	85	25036
2026-01-03 21:20:08.84	185.85	43.90	-57.3	-61.7	3.7	0.00e+00	0	52	104	0	85	25024
2026-01-03 21:20:09.84	185.98	43.44	-57.1	-61.7	3.7	0.00e+00	0	51	104	0	85	24970
2026-01-03 21:20:10.84	186.11	42.98	-57.3	-61.9	3.7	0.00e+00	0	51	104	0	85	25407
2026-01-03 21:20:11.84	186.23	42.53	-57.2	-61.8	3.7	0.00e+00	0	51	104	0	85	25180
2026-01-03 21:20:12.84	186.36	42.08	-57.2	-61.7	3.7	0.00e+00	0	51	104	0	85	24899
2026-01-03 21:20:13.85	186.48	41.64	-57.2	-61.7	3.7	0.00e+00	0	52	104	0	85	24948
2026-01-03 21:20:14.85	186.59	41.20	-57.2	-61.6	3.7	0.00e+00	0	52	104	0	85	24777
2026-01-03 21:20:15.85	186.71	40.77	-57.2	-61.7	3.7	0.00e+00	0	52	104	0	85	24991
2026-01-03 21:20:16.85	186.82	40.35	-56.7	-61.4	3.7	0.00e+00	0	52	104	0	85	24004
2026-01-03 21:20:17.85	186.92	39.93	-56.9	-61.4	3.7	0.00e+00	0	51	104	0	85	24058
2026-01-03 21:20:18.85	187.03	39.52	-57.1	-61.6	3.7	0.00e+00	0	52	104	0	85	24701
2026-01-03 21:20:19.86	187.13	39.11	-57.0	-61.4	3.7	0.00e+00	0	52	104	0	85	24161
2026-01-03 21:20:20.86	187.23	38.71	-57.3	-61.7	3.7	0.00e+00	0	51	104	0	85	25078
2026-01-03 21:20:21.86	187.33	38.31	-57.2	-61.6	3.7	0.00e+00	0	51	104	0	85	24564
2026-01-03 21:20:22.87	187.42	37.92	-56.7	-61.0	3.7	0.00e+00	0	52	104	0	85	23003
2026-01-03 21:20:23.87	187.51	37.53	-57.0	-61.5	3.7	0.00e+00	0	51	104	0	85	24370
2026-01-03 21:20:24.87	187.60	37.15	-56.7	-61.1	3.7	0.00e+00	0	51	104	0	85	23160
2026-01-03 21:20:25.87	187.69	36.78	-56.8	-61.2	3.7	0.00e+00	0	52	104	0	85	23658
2026-01-03 21:20:26.88	187.78	36.40	-56.6	-61.1	3.7	0.00e+00	0	51	104	0	85	23355
2026-01-03 21:20:27.88	187.86	36.03	-56.6	-61.0	3.7	0.00e+00	0	51	104	0	85	23088
2026-01-03 21:20:28.88	187.94	35.67	-56.8	-61.2	3.7	0.00e+00	0	51	104	0	85	23462
2026-01-03 21:20:29.88	188.02	35.32	-57.1	-61.4	3.7	0.00e+00	0	51	104	0	85	24203
2026-01-03 21:20:30.88	188.10	34.96	-57.2	-61.6	3.7	0.00e+00	0	51	104	0	85	24769
2026-01-03 21:20:31.88	188.18	34.62	-57.0	-61.4	3.7	0.00e+00	0	51	104	0	85	24000
2026-01-03 21:20:32.88	188.25	34.27	-57.1	-61.6	3.7	0.00e+00	0	51	104	0	85	24553
2026-01-03 21:20:33.88	188.33	33.93	-56.9	-61.3	3.7	0.00e+00	0	52	104	0	85	23740
2026-01-03 21:20:34.88	188.40	33.60	-56.2	-60.3	3.7	0.00e+00	0	51	104	0	84	22521
2026-01-03 21:20:35.89	188.47	33.27	-56.9	-61.2	3.7	0.00e+00	0	52	104	0	84	24832
2026-01-03 21:20:36.89	188.54	32.94	-57.1	-61.4	3.7	0.00e+00	0	52	104	0	85	24154
2026-01-03 21:20:37.89	188.61	32.62	-57.0	-61.4	3.7	0.00e+00	0	51	104	0	85	24220
2026-01-03 21:20:38.89	188.67	32.30	-56.8	-61.3	3.7	0.00e+00	0	51	104	0	85	23704
2026-01-03 21:20:39.90	188.74	31.98	-56.6	-61.1	3.7	0.00e+00	0	51	104	0	83	26038
2026-01-03 21:20:40.90	188.80	31.67	-56.4	-60.9	3.7	0.00e+00	0	52	104	0	83	25651
2026-01-03 21:20:41.90	188.86	31.36	-56.6	-61.0	3.7	0.00e+00	0	51	104	0	83	25869
2026-01-03 21:20:42.89	188.92	31.06	-56.7	-61.2	3.7	0.00e+00	0	52	104	0	83	26343
2026-01-03 21:20:43.90	188.98	30.76	-56.7	-61.1	3.7	0.00e+00	0	51	104	0	84	24597
2026-01-03 21:20:44.90	189.04	30.47	-56.8	-61.3	3.7	0.00e+00	0	52	104	0	84	25196
2026-01-03 21:20:45.90	189.10	30.17	-57.0	-61.6	3.7	0.00e+00	0	51	104	0	84	25988
2026-01-03 21:20:46.90	189.16	29.88	-56.8	-61.4	3.7	0.00e+00	0	52	104	0	84	25625
2026-01-03 21:20:47.90	189.21	29.60	-56.8	-61.5	3.7	0.00e+00	0	51	104	0	84	25717
2026-01-03 21:20:48.90	189.27	29.32	-56.8	-61.4	3.7	0.00e+00	0	52	104	0	84	25499
2026-01-03 21:20:49.90	189.32	29.04	-56.6	-61.1	3.7	0.00e+00	0	51	104	0	84	24560
2026-01-03 21:20:50.91	189.38	28.76	-56.5	-60.9	3.7	0.00e+00	0	51	104	0	84	24210
2026-01-03 21:20:51.91	189.43	28.49	-56.9	-61.2	3.7	0.00e+00	0	52	104	0	84	25077
2026-01-03 21:20:52.91	189.48	28.22	-56.8	-61.1	3.7	0.00e+00	0	52	104	0	84	24657
2026-01-03 21:20:53.91	189.53	27.95	-56.7	-61.4	3.7	0.00e+00	0	52	104	0	84	25495
2026-01-03 21:20:54.91	189.58	27.69	-57.1	-61.7	3.7	0.00e+00	0	51	104	0	85	24980
2026-01-03 21:20:55.91	189.63	27.43	-56.7	-61.3	3.7	0.00e+00	0	52	104	0	85	23769
2026-01-03 21:20:56.92	189.68	27.17	-56.7	-61.4	3.7	0.00e+00	0	52	104	0	85	24136
2026-01-03 21:20:57.92	189.72	26.92	-57.0	-61.5	3.7	0.00e+00	0	51	104	0	85	24369
2026-01-03 21:20:58.92	189.77	26.67	-56.5	-61.1	3.7	0.00e+00	0	51	104	0	85	23152
2026-01-03 21:20:59.92	189.81	26.42	-56.9	-61.5	3.7	0.00e+00	0	51	104	0	84	25727
2026-01-03 21:21:00.92	189.86	26.17	-56.8	-61.3	3.7	0.00e+00	0	51	104	0	84	25170
2026-01-03 21:21:01.92	189.90	25.93	-56.4	-61.0	3.7	0.00e+00	0	51	104	0	84	24435
2026-01-03 21:21:02.92	189.95	25.69	-56.9	-61.6	3.7	0.00e+00	0	52	104	0	84	26011
2026-01-03 21:21:03.92	189.99	25.45	-56.7	-61.1	3.7	0.00e+00	0	52	104	0	84	24775
2026-01-03 21:21:04.92	190.03	25.22	-56.7	-61.4	3.7	0.00e+00	0	52	104	0	84	25557
2026-01-03 21:21:05.92	190.07	24.98	-56.7	-61.5	3.7	0.00e+00	0	52	104	0	84	25797
2026-01-03 21:21:06.92	190.11	24.75	-56.6	-61.4	3.7	0.00e+00	0	52	104	0	84	25445
2026-01-03 21:21:07.93	190.15	24.52	-56.8	-61.5	3.7	0.00e+00	0	52	104	0	84	25817
2026-01-03 21:21:08.93	190.19	24.30	-56.6	-61.3	3.7	0.00e+00	0	51	104	0	84	25144
2026-01-03 21:21:09.93	190.23	24.07	-56.6	-61.3	3.7	0.00e+00	0	51	104	0	84	25265
2026-01-03 21:21:10.93	190.27	23.85	-56.4	-61.0	3.7	0.00e+00	0	52	104	0	84	24493
2026-01-03 21:21:11.92	190.31	23.64	-56.6	-61.3	3.7	0.00e+00	0	52	104	0	84	25359
2026-01-03 21:21:12.93	190.35	23.42	-56.4	-61.1	3.7	0.00e+00	0	52	104	0	84	24551
2026-01-03 21:21:13.93	190.38	23.20	-56.4	-61.0	3.7	0.00e+00	0	52	104	0	84	24313
2026-01-03 21:21:14.93	190.42	22.99	-56.3	-61.0	3.7	0.00e+00	0	52	104	0	84	24284
2026-01-03 21:21:15.93	190.46	22.78	-56.3	-60.9	3.7	0.00e+00	0	52	104	0	84	24144
2026-01-03 21:21:16.93	190.49	22.58	-56.4	-61.0	3.7	0.00e+00	0	52	104	0	84	24462
2026-01-03 21:21:17.94	190.53	22.37	-56.2	-60.8	3.7	0.00e+00	0	52	104	0	84	23903
2026-01-03 21:21:18.94	190.56	22.16	-56.3	-60.9	3.7	0.00e+00	0	52	104	0	84	24099
2026-01-03 21:21:19.94	190.60	21.96	-56.2	-60.9	3.7	0.00e+00	0	52	104	0	84	24007
2026-01-03 21:21:20.94	190.63	21.76	-56.5	-61.0	3.7	0.00e+00	0	51	104	0	84	24344
2026-01-03 21:21:21.94	190.66	21.57	-56.3	-60.9	3.7	0.00e+00	0	52	104	0	84	24021
2026-01-03 21:21:22.94	190.69	21.37	-56.1	-60.7	3.7	0.00e+00	0	52	104	0	84	23547
2026-01-03 21:21:23.95	190.73	21.18	-56.3	-60.9	3.7	0.00e+00	0	52	104	0	84	24135
2026-01-03 21:21:24.95	190.76	20.98	-56.0	-60.8	3.7	0.00e+00	0	52	104	0	84	23816
2026-01-03 21:21:25.95	190.79	20.79	-56.2	-60.7	3.7	0.00e+00	0	52	104	0	84	23475
2026-01-03 21:21:26.95	190.82	20.61	-55.8	-60.5	3.7	0.00e+00	0	52	104	0	83	24468
2026-01-03 21:21:27.95	190.85	20.42	-56.0	-60.6	3.7	0.00e+00	0	52	104	0	83	24661
2026-01-03 21:21:28.95	190.88	20.23	-55.9	-60.5	3.7	0.00e+00	0	52	104	0	83	24393
2026-01-03 21:21:29.96	190.91	20.05	-55.9	-60.6	3.7	0.00e+00	0	52	104	0	83	24645
2026-01-03 21:21:30.96	190.94	19.87	-56.1	-60.7	3.7	0.00e+00	0	52	104	0	83	25093
2026-01-03 21:21:31.96	190.97	19.69	-55.8	-60.5	3.7	0.00e+00	0	52	104	0	83	24349
2026-01-03 21:21:32.96	191.00	19.51	-56.2	-60.9	3.7	0.00e+00	0	52	104	0	83	25398
2026-01-03 21:21:33.96	191.03	19.33	-56.0	-60.7	3.7	0.00e+00	0	52	104	0	83	24870
2026-01-03 21:21:34.96	191.06	19.16	-56.2	-60.8	3.7	0.00e+00	0	52	104	0	83	25362
2026-01-03 21:21:35.96	191.09	18.99	-56.0	-60.7	3.7	0.00e+00	0	52	104	0	83	24854
2026-01-03 21:21:36.96	191.11	18.81	-56.1	-60.8	3.7	0.00e+00	0	52	104	0	83	25372
2026-01-03 21:21:37.97	191.14	18.64	-56.0	-60.8	3.7	0.00e+00	0	52	104	0	83	25174
2026-01-03 21:21:38.97	191.17	18.47	-55.9	-60.7	3.7	0.00e+00	0	52	104	0	83	24904
2026-01-03 21:21:39.97	191.19	18.31	-56.2	-60.9	3.7	0.00e+00	0	52	104	0	83	25533
2026-01-03 21:21:40.97	191.22	18.14	-55.8	-60.7	3.7	0.00e+00	0	52	104	0	83	24913
2026-01-03 21:21:41.97	191.25	17.98	-56.0	-60.7	3.7	0.00e+00	0	52	104	0	83	25054
2026-01-03 21:21:42.97	191.27	17.81	-55.8	-60.6	3.7	0.00e+00	0	52	104	0	83	24671
2026-01-03 21:21:43.97	191.30	17.65	-56.0	-60.8	3.7	0.00e+00	0	51	104	0	83	25230
2026-01-03 21:21:44.97	191.32	17.49	-55.9	-60.7	3.7	0.00e+00	0	51	104	0	83	24817
2026-01-03 21:21:45.98	191.35	17.33	-55.9	-60.8	3.7	0.00e+00	0	52	104	0	83	25146
2026-01-03 21:21:46.98	191.37	17.17	-55.6	-60.3	3.7	0.00e+00	0	52	104	0	83	23880
2026-01-03 21:21:47.98	191.40	17.02	-55.8	-60.7	3.7	0.00e+00	0	51	104	0	83	24809
2026-01-03 21:21:48.98	191.42	16.86	-55.9	-60.7	3.7	0.00e+00	0	52	104	0	83	25031
2026-01-03 21:21:49.99	191.44	16.71	-55.6	-60.4	3.7	0.00e+00	0	52	104	0	82	25488
2026-01-03 21:21:50.99	191.47	16.55	-55.8	-60.5	3.7	0.00e+00	0	52	104	0	82	25963
2026-01-03 21:21:51.99	191.49	16.40	-55.5	-60.4	3.7	0.00e+00	0	52	104	0	82	25418
2026-01-03 21:21:53.00	191.51	16.25	-55.7	-60.5	3.7	0.00e+00	0	52	104	0	82	25826
2026-01-03 21:21:53.99	191.54	16.10	-55.7	-60.4	3.7	0.00e+00	0	52	104	0	82	25597
2026-01-03 21:21:54.99	191.56	15.96	-55.7	-60.4	3.7	0.00e+00	0	52	104	0	82	25612
2026-01-03 21:21:56.00	191.58	15.81	-55.8	-60.5	3.7	0.00e+00	0	52	104	0	82	25780
2026-01-03 21:21:57.00	191.61	15.66	-55.9	-60.5	3.7	0.00e+00	0	52	104	0	82	25928
2026-01-03 21:21:58.00	191.63	15.52	-55.9	-60.5	3.7	0.00e+00	0	52	104	0	82	25926
2026-01-03 21:21:59.00	191.65	15.38	-55.6	-60.3	3.7	0.00e+00	0	52	104	0	82	25177
2026-01-03 21:22:00.00	191.67	15.23	-55.5	-60.3	3.7	0.00e+00	0	52	104	0	82	25278
2026-01-03 21:22:01.00	191.69	15.09	-55.9	-60.6	3.7	0.00e+00	0	52	104	0	82	26246
2026-01-03 21:22:02.00	191.71	14.95	-55.5	-60.3	3.7	0.00e+00	0	52	104	0	82	25107
2026-01-03 21:22:03.01	191.73	14.81	-55.7	-60.3	3.6	0.00e+00	0	52	104	0	82	25199
2026-01-03 21:22:04.01	191.76	14.67	-55.4	-60.3	3.7	0.00e+00	0	52	104	0	82	25324
2026-01-03 21:22:05.01	191.78	14.54	-55.7	-60.4	3.7	0.00e+00	0	51	104	0	82	25401
2026-01-03 21:22:06.02	191.80	14.40	-55.6	-60.5	3.7	0.00e+00	0	52	104	0	82	25730
2026-01-03 21:22:07.01	191.82	14.27	-55.8	-60.6	3.7	0.00e+00	0	52	104	0	82	26270
2026-01-03 21:22:08.02	191.84	14.13	-55.4	-60.1	3.7	0.00e+00	0	52	104	0	82	24559
2026-01-03 21:22:09.02	191.86	14.00	-55.4	-60.4	3.7	0.00e+00	0	52	104	0	82	25408
2026-01-03 21:22:10.02	191.88	13.87	-55.4	-60.0	3.7	0.00e+00	0	52	104	0	82	24493
2026-01-03 21:22:11.03	191.90	13.73	-55.5	-60.3	3.7	0.00e+00	0	51	104	0	82	25194
2026-01-03 21:22:12.02	191.91	13.61	-55.5	-60.0	3.7	0.00e+00	0	52	104	0	82	24502
2026-01-03 21:22:13.02	191.93	13.48	-55.4	-60.3	3.7	0.00e+00	0	52	104	0	82	25154
2026-01-03 21:22:14.03	191.95	13.35	-55.1	-59.7	3.7	0.00e+00	0	52	104	0	82	23662
2026-01-03 21:22:15.03	191.97	13.22	-55.3	-60.0	3.7	0.00e+00	0	52	104	0	82	24341
2026-01-03 21:22:16.03	191.99	13.09	-55.3	-60.0	3.7	0.00e+00	0	52	104	0	82	24260
2026-01-03 21:22:17.03	192.01	12.97	-55.4	-60.0	3.7	0.00e+00	0	52	104	0	82	24314
2026-01-03 21:22:18.03	192.03	12.84	-55.0	-59.7	3.7	0.00e+00	0	52	104	0	82	23632
2026-01-03 21:22:19.03	192.05	12.72	-55.4	-60.2	3.7	0.00e+00	0	52	104	0	82	24942
2026-01-03 21:22:20.03	192.06	12.60	-55.0	-59.9	3.7	0.00e+00	0	52	104	0	82	24000
2026-01-03 21:22:21.03	192.08	12.47	-55.6	-60.2	3.7	0.00e+00	0	52	104	0	82	24873
2026-01-03 21:22:22.03	192.10	12.35	-54.8	-59.5	3.7	0.00e+00	0	52	104	0	81	24496
2026-01-03 21:22:23.04	192.12	12.23	-55.5	-60.2	3.7	0.00e+00	0	52	104	0	81	26563
2026-01-03 21:22:24.04	192.13	12.11	-54.3	-59.3	3.7	0.00e+00	0	52	104	0	80	25358
2026-01-03 21:22:25.04	192.15	11.99	-54.8	-59.6	3.7	0.00e+00	0	52	104	0	80	25993
2026-01-03 21:22:26.04	192.17	11.87	-54.6	-59.5	3.7	0.00e+00	0	52	104	0	80	25754
2026-01-03 21:22:27.04	192.19	11.76	-54.5	-59.4	3.7	0.00e+00	0	52	104	0	80	25573
2026-01-03 21:22:28.04	192.20	11.64	-54.5	-59.5	3.7	0.00e+00	0	52	104	0	80	25837
2026-01-03 21:22:29.04	192.22	11.52	-54.4	-59.5	3.7	0.00e+00	0	52	104	0	80	25756
2026-01-03 21:22:30.05	192.24	11.41	-54.3	-59.5	3.7	0.00e+00	0	52	104	0	80	25765
2026-01-03 21:22:31.05	192.25	11.29	-54.3	-59.4	3.7	0.00e+00	0	52	104	0	80	25616
2026-01-03 21:22:32.05	192.27	11.18	-54.9	-59.9	3.7	0.00e+00	0	52	104	0	80	27099
2026-01-03 21:22:33.05	192.28	11.07	-54.1	-59.4	3.7	0.00e+00	0	52	104	0	80	25429
2026-01-03 21:22:34.05	192.30	10.95	-54.5	-59.5	3.7	0.00e+00	0	52	104	0	80	25912
2026-01-03 21:22:35.05	192.32	10.84	-54.2	-59.4	3.7	0.00e+00	0	52	104	0	80	25437
2026-01-03 21:22:36.05	192.33	10.73	-54.5	-59.7	3.7	0.00e+00	0	52	104	0	80	26507
2026-01-03 21:22:37.05	192.35	10.62	-54.3	-59.4	3.7	0.00e+00	0	52	104	0	80	25469
2026-01-03 21:22:38.05	192.36	10.51	-54.5	-59.6	3.7	0.00e+00	0	52	104	0	80	26149
2026-01-03 21:22:39.05	192.38	10.40	-54.3	-59.4	3.7	0.00e+00	0	52	104	0	80	25564
2026-01-03 21:22:40.06	192.40	10.29	-54.5	-59.5	3.7	0.00e+00	0	52	104	0	80	25923
2026-01-03 21:22:41.06	192.41	10.18	-54.3	-59.3	3.7	0.00e+00	0	52	104	0	80	25241
2026-01-03 21:22:42.06	192.43	10.08	-54.3	-59.5	3.7	0.00e+00	0	52	104	0	80	25769
2026-01-03 21:22:43.06	192.44	9.97	-54.5	-59.5	3.7	0.00e+00	0	52	104	0	80	25711
2026-01-03 21:22:44.05	192.46	9.86	-54.4	-59.3	3.7	0.00e+00	0	52	104	0	80	25286
2026-01-03 21:22:45.05	192.47	9.76	-54.4	-59.4	3.7	0.00e+00	0	52	104	0	80	25567
2026-01-03 21:22:46.05	192.48	9.65	-54.5	-59.5	3.6	0.00e+00	0	52	104	0	80	25847
2026-01-03 21:22:47.05	192.50	9.55	-54.5	-59.5	3.7	0.00e+00	0	52	104	0	80	25734
2026-01-03 21:22:48.05	192.51	9.45	-54.4	-59.5	3.7	0.00e+00	0	52	104	0	80	25705
2026-01-03 21:22:49.05	192.53	9.34	-54.3	-59.2	3.7	0.00e+00	0	52	104	0	80	25001
2026-01-03 21:22:50.06	192.54	9.24	-54.4	-59.4	3.7	0.00e+00	0	52	104	0	80	25487
2026-01-03 21:22:51.06	192.56	9.14	-54.4	-59.4	3.7	0.00e+00	0	52	104	0	80	25413
2026-01-03 21:22:52.06	192.57	9.04	-54.3	-59.3	3.7	0.00e+00	0	52	104	0	80	25354
2026-01-03 21:22:53.06	192.59	8.94	-55.0	-60.0	3.7	0.00e+00	0	52	104	0	80	27353
2026-01-03 21:22:54.07	192.60	8.83	-55.7	-60.5	3.7	0.00e+00	0	52	104	0	81	27233
2026-01-03 21:22:55.07	192.61	8.74	-55.9	-60.7	3.7	0.00e+00	0	52	104	0	82	26277
2026-01-03 21:22:56.07	192.63	8.64	-57.0	-61.5	3.7	0.00e+00	0	52	104	0	84	25884
2026-01-03 21:22:57.07	192.64	8.54	-56.6	-61.3	3.7	0.00e+00	0	52	104	0	84	25248
2026-01-03 21:22:58.07	192.65	8.44	-57.0	-61.6	3.7	0.00e+00	0	52	104	0	84	26004
2026-01-03 21:22:59.08	192.67	8.34	-56.8	-61.3	3.7	0.00e+00	0	52	104	0	85	23860
2026-01-03 21:23:00.08	192.68	8.24	-57.0	-61.8	3.7	0.00e+00	0	52	104	0	85	25122
2026-01-03 21:23:01.08	192.69	8.15	-57.3	-61.8	3.7	0.00e+00	0	52	104	0	85	25184
2026-01-03 21:23:02.08	192.71	8.05	-57.1	-61.5	3.7	0.00e+00	0	52	104	0	85	24443
2026-01-03 21:23:03.09	192.72	7.95	-57.1	-61.7	3.7	0.00e+00	0	52	104	0	85	25070
2026-01-03 21:23:04.09	192.73	7.86	-57.5	-61.9	3.7	0.00e+00	0	52	104	0	85	25473
2026-01-03 21:23:05.09	192.75	7.77	-57.1	-61.8	3.7	0.00e+00	0	52	104	0	85	25274
2026-01-03 21:23:06.09	192.76	7.67	-57.5	-61.8	3.7	0.00e+00	0	52	104	0	85	25295
2026-01-03 21:23:07.09	192.77	7.58	-57.6	-62.0	3.7	0.00e+00	0	52	104	0	85	25927
2026-01-03 21:23:08.10	192.79	7.48	-57.4	-61.9	3.7	0.00e+00	0	52	104	0	85	25670
2026-01-03 21:23:09.10	192.80	7.39	-57.0	-61.8	3.7	0.00e+00	0	52	104	0	85	25125
2026-01-03 21:23:10.11	192.81	7.30	-57.5	-62.0	3.7	0.00e+00	0	52	104	0	85	25814
2026-01-03 21:23:11.11	192.82	7.21	-57.5	-61.8	3.7	0.00e+00	0	52	104	0	85	25292
2026-01-03 21:23:12.11	192.84	7.11	-57.5	-61.8	3.7	0.00e+00	0	52	104	0	86	23800
2026-01-03 21:23:13.11	192.85	7.02	-56.8	-61.3	3.7	0.00e+00	0	52	104	0	85	23862
2026-01-03 21:23:14.12	192.86	6.93	-57.1	-61.5	3.7	0.00e+00	0	52	104	0	85	24284
2026-01-03 21:23:15.12	192.87	6.84	-57.5	-61.9	3.7	0.00e+00	0	52	104	0	85	25517
2026-01-03 21:23:16.12	192.88	6.75	-57.3	-61.8	3.7	0.00e+00	0	52	104	0	85	25334
2026-01-03 21:23:17.13	192.90	6.66	-57.0	-61.7	3.7	0.00e+00	0	52	104	0	85	24959
2026-01-03 21:23:18.13	192.91	6.57	-56.6	-61.3	3.7	0.00e+00	0	52	104	0	84	25141
2026-01-03 21:23:19.13	192.92	6.49	-56.6	-61.2	3.7	0.00e+00	0	52	104	0	84	24843
2026-01-03 21:23:20.13	192.93	6.40	-56.6	-61.2	3.7	0.00e+00	0	52	104	0	84	24815
2026-01-03 21:23:21.14	192.94	6.31	-56.6	-61.2	3.7	0.00e+00	0	52	104	0	84	24848
2026-01-03 21:23:22.14	192.96	6.22	-56.6	-61.2	3.6	0.00e+00	0	52	104	0	84	24849
2026-01-03 21:23:23.14	192.97	6.14	-56.5	-61.1	3.7	0.00e+00	0	52	104	0	84	24752
2026-01-03 21:23:24.15	192.98	6.05	-56.5	-61.1	3.7	0.00e+00	0	52	104	0	84	24731
2026-01-03 21:23:25.15	192.99	5.96	-56.7	-61.2	3.7	0.00e+00	0	51	104	0	84	25021
2026-01-03 21:23:26.15	193.00	5.88	-56.6	-61.2	3.7	0.00e+00	0	52	104	0	84	24849
2026-01-03 21:23:27.15	193.01	5.79	-56.5	-61.1	3.7	0.00e+00	0	52	104	0	84	24740
2026-01-03 21:23:28.15	193.02	5.71	-56.5	-61.1	3.7	0.00e+00	0	52	104	0	84	24722
2026-01-03 21:23:29.16	193.04	5.62	-56.5	-61.1	3.7	0.00e+00	0	52	104	0	84	24743
2026-01-03 21:23:30.16	193.05	5.54	-56.5	-61.1	3.7	0.00e+00	0	52	104	0	84	24710
2026-01-03 21:23:31.17	193.06	5.45	-56.5	-61.1	3.7	0.00e+00	0	52	104	0	84	24797
2026-