passes_logs/2026/01/03/T1/T1__20260103_231133_NOAA_21_JPSS-2_rec.log

#Pass ID: 20260103_231133_NOAA 21 (JPSS-2)
#Satellite: NOAA 21 (JPSS-2)
#Configuration: NOAA 21
#almurnet v.1.7.20251203
#Start time: 2026-01-03 23:11:35

#Version: 2.0.20230620
#Station: T1
#Location: 37.570604 lon 55.790049 lat
#TLE: 1 54234U 22150A   26003.45311712  .00000198  00000+0  11468-3 0  9993
#TLE: 2 54234  98.7487 304.4932 0001159 347.5017  12.6130 14.19531745163172

#Time	Az	El	Level	Level2	SNR	BER	BlckErr	Temp	State	Recorded	gain1	gain2
2026-01-03 23:11:35.25	19.86	5.10	-53.2	-67.4	3.8	1.49e+00	0	38	104	0	77	18959
2026-01-03 23:11:36.25	19.89	5.17	-53.3	-67.4	3.8	1.49e+00	0	38	104	0	77	19040
2026-01-03 23:11:37.25	19.92	5.24	-53.2	-67.3	3.8	1.49e+00	0	38	104	0	77	18890
2026-01-03 23:11:38.26	19.95	5.32	-53.4	-67.5	3.8	1.49e+00	0	38	104	0	77	19207
2026-01-03 23:11:39.26	19.98	5.39	-53.1	-67.2	3.8	1.49e+00	0	38	104	0	77	18621
2026-01-03 23:11:40.26	20.01	5.46	-53.1	-67.2	3.8	1.49e+00	0	38	104	0	77	18529
2026-01-03 23:11:41.27	20.05	5.53	-53.3	-67.4	3.8	1.49e+00	0	38	104	0	77	19067
2026-01-03 23:11:42.27	20.08	5.60	-53.1	-67.2	3.8	1.49e+00	0	39	104	0	77	18636
2026-01-03 23:11:43.27	20.11	5.67	-53.1	-67.2	3.8	1.49e+00	0	38	104	0	77	18526
2026-01-03 23:11:44.28	20.14	5.74	-53.0	-67.1	3.8	1.49e+00	0	39	104	0	77	18517
2026-01-03 23:11:45.28	20.17	5.81	-53.1	-67.2	3.8	1.49e+00	0	38	104	0	77	18725
2026-01-03 23:11:46.28	20.21	5.89	-53.1	-67.2	3.8	1.49e+00	0	38	104	0	77	18588
2026-01-03 23:11:47.29	20.24	5.96	-53.2	-67.3	3.8	1.49e+00	0	39	104	0	77	18834
2026-01-03 23:11:48.29	20.27	6.03	-53.1	-67.3	3.8	1.49e+00	0	39	104	0	77	18754
2026-01-03 23:11:49.30	20.31	6.10	-53.1	-67.2	3.8	1.49e+00	0	39	104	0	77	18631
2026-01-03 23:11:50.30	20.34	6.18	-53.1	-67.3	3.8	1.49e+00	0	38	104	0	77	18880
2026-01-03 23:11:51.30	20.37	6.25	-53.2	-67.3	3.8	1.49e+00	0	39	104	0	77	18802
2026-01-03 23:11:52.31	20.40	6.32	-53.1	-67.3	3.8	1.49e+00	0	39	104	0	77	18770
2026-01-03 23:11:53.31	20.44	6.40	-53.2	-67.4	3.8	1.49e+00	0	39	104	0	77	18968
2026-01-03 23:11:54.32	20.47	6.47	-53.2	-67.4	3.8	1.49e+00	0	39	104	0	77	19023
2026-01-03 23:11:55.32	20.51	6.54	-53.1	-67.3	3.8	1.49e+00	0	39	104	0	77	18885
2026-01-03 23:11:56.33	20.54	6.62	-53.4	-67.5	3.8	1.49e+00	0	39	104	0	77	19289
2026-01-03 23:11:57.33	20.57	6.69	-53.3	-67.4	3.8	1.49e+00	0	39	104	0	77	19051
2026-01-03 23:11:58.34	20.61	6.77	-53.3	-67.4	3.8	1.49e+00	0	39	104	0	77	19139
2026-01-03 23:11:59.34	20.64	6.84	-53.3	-67.3	3.8	1.49e+00	0	39	104	0	77	18741
2026-01-03 23:12:00.34	20.68	6.92	-53.3	-67.0	3.8	1.49e+00	0	39	104	0	77	18179
2026-01-03 23:12:01.35	20.71	6.99	-53.2	-66.5	3.8	1.49e+00	0	39	104	0	77	17276
2026-01-03 23:12:02.35	20.75	7.07	-53.3	-66.3	3.8	1.49e+00	0	39	104	0	77	16696
2026-01-03 23:12:03.36	20.78	7.14	-53.1	-65.7	3.8	1.49e+00	0	39	104	0	77	15734
2026-01-03 23:12:04.36	20.82	7.22	-53.0	-65.0	4.0	1.49e+00	0	39	104	0	77	14432
2026-01-03 23:12:05.37	20.85	7.29	-53.0	-64.5	4.0	1.48e+00	0	39	104	0	77	13722
2026-01-03 23:12:06.37	20.89	7.37	-53.0	-64.5	4.0	1.48e+00	0	39	104	0	77	13672
2026-01-03 23:12:07.37	20.92	7.45	-53.0	-64.3	4.0	1.46e+00	0	39	104	0	77	13313
2026-01-03 23:12:08.38	20.96	7.52	-53.0	-64.6	3.9	1.47e+00	0	39	104	0	77	13815
2026-01-03 23:12:09.38	20.99	7.60	-53.0	-64.7	3.9	1.47e+00	0	39	104	0	77	14005
2026-01-03 23:12:10.39	21.03	7.68	-53.0	-64.4	4.1	1.48e+00	0	39	104	0	77	13558
2026-01-03 23:12:11.39	21.07	7.75	-53.0	-64.8	4.0	1.48e+00	0	39	104	0	77	14125
2026-01-03 23:12:12.39	21.10	7.83	-53.1	-65.1	3.9	1.48e+00	0	39	104	0	77	14641
2026-01-03 23:12:13.39	21.14	7.91	-53.1	-65.7	3.8	1.49e+00	0	39	104	0	77	15731
2026-01-03 23:12:14.40	21.18	7.99	-53.1	-66.0	3.8	1.49e+00	0	39	104	0	77	16133
2026-01-03 23:12:15.40	21.21	8.07	-53.0	-66.0	3.8	1.49e+00	0	39	104	0	77	16201
2026-01-03 23:12:16.41	21.25	8.14	-53.1	-66.1	3.8	1.49e+00	0	39	104	0	77	16394
2026-01-03 23:12:17.41	21.29	8.22	-53.0	-66.0	3.8	1.49e+00	0	39	104	0	77	16171
2026-01-03 23:12:18.41	21.32	8.30	-53.0	-65.7	3.8	1.49e+00	0	39	104	0	77	15751
2026-01-03 23:12:19.42	21.36	8.38	-53.0	-65.5	3.8	1.49e+00	0	39	104	0	77	15297
2026-01-03 23:12:20.42	21.40	8.46	-52.8	-64.9	3.9	1.49e+00	0	40	104	0	77	14365
2026-01-03 23:12:21.43	21.44	8.54	-52.6	-63.7	4.0	1.48e+00	0	39	104	0	77	12392
2026-01-03 23:12:22.43	21.48	8.62	-52.4	-62.6	4.2	1.44e+00	0	39	104	0	76	11653
2026-01-03 23:12:23.44	21.51	8.70	-52.3	-62.3	4.0	1.04e+00	0	40	104	0	76	11204
2026-01-03 23:12:24.44	21.55	8.78	-52.2	-60.6	5.5	5.48e-01	0	40	0	0	76	9252
2026-01-03 23:12:25.45	21.59	8.86	-51.8	-59.2	6.4	2.84e-01	0	40	0	0	75	8351
2026-01-03 23:12:26.45	21.63	8.94	-51.7	-58.5	7.2	1.48e-01	0	40	0	0	75	7633
2026-01-03 23:12:27.45	21.67	9.02	-51.6	-57.8	8.0	7.90e-02	0	40	0	0	75	7067
2026-01-03 23:12:28.46	21.71	9.11	-52.1	-59.8	6.2	4.68e-02	0	40	0	0	74	9415
2026-01-03 23:12:29.46	21.75	9.19	-53.0	-64.2	4.0	1.48e+00	0	40	104	0	76	13930
2026-01-03 23:12:30.46	21.79	9.27	-51.7	-58.3	6.9	1.42e+00	0	40	104	0	75	7481
2026-01-03 23:12:31.47	21.83	9.35	-49.5	-53.2	12.8	4.50e-06	0	40	0	0	69	5886
2026-01-03 23:12:32.47	21.87	9.43	-49.0	-52.3	13.5	1.76e-03	0	40	0	0	70	5014
2026-01-03 23:12:33.47	21.91	9.52	-47.4	-50.1	15.7	0.00e+00	0	40	0	0	66	4911
2026-01-03 23:12:34.47	21.95	9.60	-47.4	-50.0	15.9	0.00e+00	0	40	0	0	66	4857
2026-01-03 23:12:35.48	21.99	9.68	-46.7	-49.2	16.7	0.00e+00	0	40	0	0	65	4659
2026-01-03 23:12:36.48	22.03	9.77	-46.7	-49.2	16.7	0.00e+00	0	40	0	0	65	4656
2026-01-03 23:12:37.48	22.07	9.85	-46.5	-48.9	17.0	0.00e+00	0	40	0	0	64	4763
2026-01-03 23:12:38.49	22.11	9.93	-46.6	-48.9	17.0	0.00e+00	0	40	0	0	64	4791
2026-01-03 23:12:39.49	22.15	10.02	-46.4	-48.7	17.2	0.00e+00	0	40	0	0	64	4679
2026-01-03 23:12:40.49	22.20	10.10	-46.5	-48.8	17.2	0.00e+00	0	40	0	0	64	4745
2026-01-03 23:12:41.49	22.24	10.19	-46.2	-48.3	17.5	0.00e+00	0	40	0	0	64	4479
2026-01-03 23:12:42.49	22.28	10.27	-46.0	-48.1	17.8	0.00e+00	0	40	0	0	64	4381
2026-01-03 23:12:43.49	22.32	10.36	-45.9	-48.0	17.8	0.00e+00	0	40	0	0	63	4580
2026-01-03 23:12:44.50	22.37	10.44	-45.9	-47.9	18.0	0.00e+00	0	40	0	0	63	4523
2026-01-03 23:12:45.50	22.41	10.53	-46.1	-48.1	17.9	0.00e+00	0	40	0	0	63	4624
2026-01-03 23:12:46.50	22.45	10.61	-45.8	-47.7	18.1	0.00e+00	0	40	0	0	63	4441
2026-01-03 23:12:47.51	22.49	10.70	-45.6	-47.6	18.3	0.00e+00	0	40	0	0	63	4353
2026-01-03 23:12:48.51	22.54	10.79	-45.7	-47.6	18.3	0.00e+00	0	40	0	0	63	4377
2026-01-03 23:12:49.52	22.58	10.88	-45.9	-47.8	18.2	0.00e+00	0	40	0	0	63	4472
2026-01-03 23:12:50.52	22.63	10.96	-45.8	-47.8	18.2	0.00e+00	0	40	0	0	63	4459
2026-01-03 23:12:51.52	22.67	11.05	-45.6	-47.6	18.3	0.00e+00	0	40	0	0	63	4343
2026-01-03 23:12:52.52	22.71	11.14	-45.7	-47.7	18.3	0.00e+00	0	40	0	0	63	4398
2026-01-03 23:12:53.53	22.76	11.23	-45.5	-47.4	18.4	0.00e+00	0	40	0	0	63	4276
2026-01-03 23:12:54.53	22.80	11.32	-45.4	-47.3	18.4	0.00e+00	0	40	0	0	62	4487
2026-01-03 23:12:55.53	22.85	11.40	-45.5	-47.4	18.4	0.00e+00	0	40	0	0	62	4499
2026-01-03 23:12:56.53	22.89	11.49	-45.8	-47.7	18.2	0.00e+00	0	40	0	0	62	4689
2026-01-03 23:12:57.53	22.94	11.58	-45.8	-47.7	18.3	0.00e+00	0	40	0	0	62	4662
2026-01-03 23:12:58.54	22.99	11.67	-45.8	-47.7	18.2	0.00e+00	0	40	0	0	62	4672
2026-01-03 23:12:59.54	23.03	11.76	-45.6	-47.4	18.4	0.00e+00	0	40	0	0	62	4541
2026-01-03 23:13:00.54	23.08	11.85	-45.6	-47.5	18.4	0.00e+00	0	40	0	0	62	4559
2026-01-03 23:13:01.54	23.13	11.94	-45.6	-47.5	18.3	0.00e+00	0	40	0	0	62	4572
2026-01-03 23:13:02.55	23.17	12.04	-45.6	-47.5	18.3	0.00e+00	0	40	0	0	62	4583
2026-01-03 23:13:03.55	23.22	12.13	-45.6	-47.4	18.4	0.00e+00	0	40	0	0	62	4534
2026-01-03 23:13:04.55	23.27	12.22	-45.6	-47.5	18.5	0.00e+00	0	40	0	0	62	4562
2026-01-03 23:13:05.56	23.32	12.31	-45.4	-47.3	18.6	0.00e+00	0	40	0	0	62	4456
2026-01-03 23:13:06.55	23.36	12.40	-45.3	-47.2	18.6	0.00e+00	0	40	0	0	62	4418
2026-01-03 23:13:07.56	23.41	12.50	-45.4	-47.3	18.6	0.00e+00	0	40	0	0	62	4454
2026-01-03 23:13:08.56	23.46	12.59	-45.3	-47.2	18.8	0.00e+00	0	40	0	0	62	4397
2026-01-03 23:13:09.56	23.51	12.68	-45.3	-47.2	18.7	0.00e+00	0	40	0	0	62	4397
2026-01-03 23:13:10.56	23.56	12.78	-45.3	-47.2	18.7	0.00e+00	0	40	0	0	62	4408
2026-01-03 23:13:11.57	23.61	12.87	-45.3	-47.2	18.7	0.00e+00	0	40	0	0	62	4424
2026-01-03 23:13:12.57	23.66	12.97	-45.3	-47.1	18.8	0.00e+00	0	40	0	0	62	4391
2026-01-03 23:13:13.57	23.71	13.06	-45.3	-47.2	18.7	0.00e+00	0	40	0	0	62	4411
2026-01-03 23:13:14.58	23.76	13.16	-45.4	-47.3	18.7	0.00e+00	0	40	0	0	62	4468
2026-01-03 23:13:15.96	23.83	13.29	-45.4	-47.3	18.7	0.00e+00	0	40	0	0	62	4444
2026-01-03 23:13:16.71	23.87	13.36	-45.3	-47.2	18.7	0.00e+00	0	40	0	0	62	4429
2026-01-03 23:13:18.00	23.93	13.48	-45.2	-47.1	18.7	0.00e+00	0	40	0	0	62	4369
2026-01-03 23:13:18.71	23.97	13.55	-45.2	-47.1	18.7	0.00e+00	0	40	0	0	62	4355
2026-01-03 23:13:20.00	24.03	13.68	-45.2	-47.1	18.7	0.00e+00	0	40	0	0	62	4374
2026-01-03 23:13:20.72	24.07	13.75	-45.3	-47.2	18.7	0.00e+00	0	40	0	0	62	4405
2026-01-03 23:13:22.01	24.14	13.87	-45.2	-47.1	18.8	0.00e+00	0	40	0	0	62	4388
2026-01-03 23:13:22.73	24.18	13.94	-45.3	-47.2	18.7	0.00e+00	0	40	0	0	62	4439
2026-01-03 23:13:24.05	24.25	14.07	-45.4	-47.3	18.8	0.00e+00	0	40	0	0	62	4454
2026-01-03 23:13:24.76	24.29	14.14	-45.4	-47.4	18.7	0.00e+00	0	40	0	0	62	4497
2026-01-03 23:13:26.05	24.35	14.27	-45.2	-47.1	18.9	0.00e+00	0	40	0	0	62	4354
2026-01-03 23:13:26.77	24.39	14.34	-45.4	-47.2	18.9	0.00e+00	0	40	0	0	62	4435
2026-01-03 23:13:28.15	24.47	14.48	-45.4	-47.3	18.8	0.00e+00	0	41	0	0	62	4451
2026-01-03 23:13:28.87	24.51	14.55	-45.3	-47.2	18.9	0.00e+00	0	40	0	0	62	4415
2026-01-03 23:13:30.22	24.58	14.69	-45.3	-47.2	18.9	0.00e+00	0	40	0	0	62	4394
2026-01-03 23:13:30.94	24.62	14.76	-45.3	-47.2	18.8	0.00e+00	0	40	0	0	62	4428
2026-01-03 23:13:32.23	24.69	14.89	-45.3	-47.2	18.9	0.00e+00	0	40	0	0	62	4410
2026-01-03 23:13:32.94	24.73	14.97	-45.3	-47.2	18.9	0.00e+00	0	40	0	0	62	4423
2026-01-03 23:13:34.23	24.81	15.10	-45.5	-47.4	18.8	0.00e+00	0	40	0	0	62	4502
2026-01-03 23:13:34.95	24.85	15.17	-45.4	-47.3	18.8	0.00e+00	0	40	0	0	62	4478
2026-01-03 23:13:36.24	24.92	15.31	-45.3	-47.1	18.9	0.00e+00	0	40	0	0	62	4389
2026-01-03 23:13:36.95	24.96	15.38	-45.4	-47.3	18.7	0.00e+00	0	40	0	0	62	4481
2026-01-03 23:13:38.25	25.04	15.52	-45.3	-47.1	19.0	0.00e+00	0	40	0	0	62	4363
2026-01-03 23:13:38.96	25.08	15.59	-45.4	-47.2	18.9	0.00e+00	0	41	0	0	62	4416
2026-01-03 23:13:40.25	25.16	15.72	-45.4	-47.3	18.8	0.00e+00	0	41	0	0	62	4453
2026-01-03 23:13:40.97	25.20	15.80	-45.4	-47.2	18.9	0.00e+00	0	40	0	0	62	4424
2026-01-03 23:13:42.26	25.28	15.94	-45.3	-47.1	19.0	0.00e+00	0	40	0	0	62	4359
2026-01-03 23:13:42.97	25.32	16.01	-45.3	-47.1	18.9	0.00e+00	0	40	0	0	62	4387
2026-01-03 23:13:44.26	25.40	16.15	-45.4	-47.2	18.8	0.00e+00	0	40	0	0	62	4435
2026-01-03 23:13:44.97	25.44	16.23	-45.3	-47.1	19.0	0.00e+00	0	40	0	0	62	4368
2026-01-03 23:13:46.26	25.52	16.37	-45.2	-47.1	19.0	0.00e+00	0	41	0	0	62	4360
2026-01-03 23:13:46.98	25.56	16.44	-45.3	-47.2	18.9	0.00e+00	0	40	0	0	62	4403
2026-01-03 23:13:48.27	25.64	16.58	-45.3	-47.2	18.9	0.00e+00	0	40	0	0	62	4399
2026-01-03 23:13:48.99	25.69	16.66	-45.3	-47.2	18.8	0.00e+00	0	41	0	0	62	4412
2026-01-03 23:13:50.28	25.77	16.80	-45.5	-47.4	18.8	0.00e+00	0	41	0	0	62	4505
2026-01-03 23:13:50.99	25.81	16.88	-45.5	-47.4	18.6	0.00e+00	0	41	0	0	62	4538
2026-01-03 23:13:52.28	25.89	17.02	-45.5	-47.5	18.5	0.00e+00	0	40	0	0	62	4576
2026-01-03 23:13:53.00	25.94	17.10	-45.4	-47.3	18.7	0.00e+00	0	41	0	0	62	4471
2026-01-03 23:13:54.29	26.02	17.25	-45.1	-47.1	18.8	0.00e+00	0	40	0	0	62	4354
2026-01-03 23:13:55.00	26.07	17.33	-45.2	-47.2	18.7	0.00e+00	0	40	0	0	62	4418
2026-01-03 23:13:56.29	26.15	17.47	-45.4	-47.4	18.8	0.00e+00	0	41	0	0	62	4519
2026-01-03 23:13:57.01	26.20	17.55	-45.3	-47.2	18.7	0.00e+00	0	41	0	0	62	4439
2026-01-03 23:13:58.29	26.29	17.70	-45.1	-47.1	18.8	0.00e+00	0	41	0	0	62	4360
2026-01-03 23:13:59.01	26.34	17.78	-45.1	-47.1	18.9	0.00e+00	0	41	0	0	62	4350
2026-01-03 23:14:00.29	26.42	17.92	-45.1	-47.0	18.9	0.00e+00	0	41	0	0	62	4340
2026-01-03 23:14:01.02	26.47	18.01	-45.1	-47.0	18.9	0.00e+00	0	40	0	0	62	4338
2026-01-03 23:14:02.31	26.56	18.16	-45.3	-47.2	18.9	0.00e+00	0	41	0	0	62	4430
2026-01-03 23:14:03.02	26.61	18.24	-45.2	-47.2	18.9	0.00e+00	0	41	0	0	62	4394
2026-01-03 23:14:04.31	26.70	18.39	-45.3	-47.3	18.8	0.00e+00	0	41	0	0	62	4465
2026-01-03 23:14:05.03	26.75	18.47	-45.3	-47.3	18.7	0.00e+00	0	41	0	0	62	4453
2026-01-03 23:14:06.32	26.84	18.62	-45.5	-47.5	18.7	0.00e+00	0	41	0	0	62	4559
2026-01-03 23:14:07.04	26.89	18.71	-45.5	-47.4	18.7	0.00e+00	0	41	0	0	62	4533
2026-01-03 23:14:08.32	26.98	18.86	-45.5	-47.5	18.7	0.00e+00	0	41	0	0	62	4550
2026-01-03 23:14:09.04	27.03	18.95	-45.4	-47.3	18.8	0.00e+00	0	41	0	0	62	4467
2026-01-03 23:14:10.33	27.13	19.10	-45.5	-47.4	18.8	0.00e+00	0	41	0	0	62	4523
2026-01-03 23:14:11.05	27.18	19.19	-45.5	-47.4	18.8	0.00e+00	0	41	0	0	62	4514
2026-01-03 23:14:12.33	27.27	19.34	-45.5	-47.4	18.7	0.00e+00	0	40	0	0	62	4542
2026-01-03 23:14:13.04	27.32	19.43	-45.6	-47.5	18.7	0.00e+00	0	41	0	0	62	4587
2026-01-03 23:14:14.33	27.42	19.58	-45.6	-47.5	18.7	0.00e+00	0	41	0	0	62	4560
2026-01-03 23:14:15.05	27.47	19.67	-45.5	-47.4	18.7	0.00e+00	0	41	0	0	62	4512
2026-01-03 23:14:16.34	27.57	19.83	-45.2	-47.0	19.0	0.00e+00	0	41	0	0	62	4321
2026-01-03 23:14:17.06	27.63	19.92	-45.3	-47.1	18.9	0.00e+00	0	41	0	0	62	4363
2026-01-03 23:14:18.63	27.75	20.11	-45.2	-47.0	18.9	0.00e+00	0	41	0	0	62	4321
2026-01-03 23:14:19.26	27.80	20.19	-45.2	-47.0	19.1	0.00e+00	0	41	0	0	62	4336
2026-01-03 23:14:20.70	27.91	20.37	-45.2	-47.0	19.0	0.00e+00	0	41	0	0	62	4294
2026-01-03 23:14:21.41	27.97	20.46	-45.0	-46.8	19.2	0.00e+00	0	41	0	0	62	4207
2026-01-03 23:14:22.78	28.07	20.64	-44.9	-46.7	19.3	0.00e+00	0	41	0	0	61	4421
2026-01-03 23:14:23.50	28.13	20.73	-44.8	-46.6	19.3	0.00e+00	0	41	0	0	61	4371
2026-01-03 23:14:24.78	28.24	20.89	-44.9	-46.7	19.3	0.00e+00	0	41	0	0	61	4397
2026-01-03 23:14:25.50	28.29	20.98	-44.8	-46.6	19.3	0.00e+00	0	41	0	0	61	4371
2026-01-03 23:14:26.79	28.40	21.15	-44.7	-46.4	19.5	0.00e+00	0	41	0	0	61	4266
2026-01-03 23:14:27.51	28.46	21.24	-44.5	-46.3	19.5	0.00e+00	0	41	0	0	61	4214
2026-01-03 23:14:28.79	28.57	21.41	-44.6	-46.3	19.5	0.00e+00	0	41	0	0	61	4232
2026-01-03 23:14:29.51	28.63	21.50	-44.6	-46.3	19.6	0.00e+00	0	41	0	0	61	4234
2026-01-03 23:14:30.80	28.74	21.67	-44.5	-46.2	19.8	0.00e+00	0	41	0	0	60	4430
2026-01-03 23:14:31.51	28.80	21.77	-44.4	-46.1	19.8	0.00e+00	0	40	0	0	60	4384
2026-01-03 23:14:32.80	28.91	21.94	-44.3	-46.0	19.9	0.00e+00	0	41	0	0	60	4324
2026-01-03 23:14:33.52	28.97	22.03	-44.3	-46.0	19.9	0.00e+00	0	41	0	0	60	4335
2026-01-03 23:14:34.81	29.08	22.21	-44.3	-46.0	19.9	0.00e+00	0	41	0	0	60	4315
2026-01-03 23:14:35.52	29.15	22.30	-44.3	-46.0	19.9	0.00e+00	0	41	0	0	60	4336
2026-01-03 23:14:36.81	29.26	22.47	-44.2	-45.9	20.2	0.00e+00	0	41	0	0	60	4260
2026-01-03 23:14:37.52	29.32	22.57	-44.1	-45.8	20.2	0.00e+00	0	41	0	0	60	4195
2026-01-03 23:14:38.81	29.44	22.75	-43.9	-45.5	20.2	0.00e+00	0	41	0	0	59	4340
2026-01-03 23:14:39.54	29.51	22.85	-44.0	-45.6	20.1	0.00e+00	0	41	0	0	59	4380
2026-01-03 23:14:40.83	29.63	23.03	-43.9	-45.6	20.2	0.00e+00	0	41	0	0	59	4342
2026-01-03 23:14:41.54	29.69	23.12	-43.9	-45.6	20.1	0.00e+00	0	41	0	0	59	4364
2026-01-03 23:14:42.83	29.81	23.30	-43.9	-45.5	20.2	0.00e+00	0	41	0	0	59	4338
2026-01-03 23:14:43.55	29.88	23.40	-43.9	-45.6	20.1	0.00e+00	0	41	0	0	59	4376
2026-01-03 23:14:44.84	30.00	23.59	-43.7	-45.4	20.3	0.00e+00	0	41	0	0	59	4263
2026-01-03 23:14:45.57	30.07	23.69	-43.8	-45.5	20.2	0.00e+00	0	41	0	0	59	4308
2026-01-03 23:14:46.86	30.20	23.87	-44.1	-45.8	20.2	0.00e+00	0	41	0	0	59	4442
2026-01-03 23:14:47.57	30.27	23.97	-43.9	-45.6	20.2	0.00e+00	0	41	0	0	59	4369
2026-01-03 23:14:48.86	30.40	24.16	-44.0	-45.7	20.2	0.00e+00	0	41	0	0	59	4430
2026-01-03 23:14:49.58	30.47	24.26	-44.0	-45.7	20.1	0.00e+00	0	41	0	0	59	4429
2026-01-03 23:14:50.87	30.60	24.45	-44.0	-45.7	20.2	0.00e+00	0	41	0	0	59	4410
2026-01-03 23:14:51.58	30.67	24.55	-44.0	-45.7	20.2	0.00e+00	0	41	0	0	59	4402
2026-01-03 23:14:52.87	30.80	24.74	-43.9	-45.6	20.2	0.00e+00	0	41	0	0	59	4388
2026-01-03 23:14:53.59	30.87	24.85	-44.0	-45.7	20.1	0.00e+00	0	41	0	0	59	4410
2026-01-03 23:14:55.04	31.03	25.06	-44.1	-45.8	20.0	0.00e+00	0	41	0	0	59	4473
2026-01-03 23:14:55.75	31.10	25.17	-44.2	-45.9	19.9	0.00e+00	0	41	0	0	59	4544
2026-01-03 23:14:57.04	31.24	25.36	-44.2	-45.9	20.0	0.00e+00	0	41	0	0	59	4533
2026-01-03 23:14:57.75	31.31	25.46	-44.3	-46.0	20.0	0.00e+00	0	41	0	0	59	4560
2026-01-03 23:14:59.16	31.47	25.68	-44.4	-46.1	19.8	0.00e+00	0	41	0	0	59	4636
2026-01-03 23:15:00.17	31.58	25.83	-44.4	-46.1	19.9	0.00e+00	0	41	0	0	59	4617
2026-01-03 23:15:01.49	31.72	26.03	-44.5	-46.2	19.6	0.00e+00	0	41	0	0	59	4703
2026-01-03 23:15:02.21	31.80	26.14	-44.8	-46.5	19.7	0.00e+00	0	41	0	0	60	4589
2026-01-03 23:15:03.84	31.99	26.39	-44.9	-46.6	19.6	0.00e+00	0	41	0	0	60	4637
2026-01-03 23:15:04.41	32.05	26.48	-44.9	-46.7	19.5	0.00e+00	0	41	0	0	60	4664
2026-01-03 23:15:06.05	32.24	26.74	-45.0	-46.8	19.3	0.00e+00	0	41	0	0	60	4752
2026-01-03 23:15:06.62	32.31	26.83	-45.1	-46.9	19.3	0.00e+00	0	41	0	0	60	4768
2026-01-03 23:15:08.23	32.49	27.08	-45.2	-47.1	19.1	0.00e+00	0	41	0	0	61	4604
2026-01-03 23:15:08.81	32.56	27.17	-45.2	-47.0	19.1	0.00e+00	0	41	0	0	61	4585
2026-01-03 23:15:10.44	32.76	27.43	-45.2	-47.1	19.1	0.00e+00	0	41	0	0	61	4603
2026-01-03 23:15:11.02	32.83	27.53	-45.3	-47.1	19.2	0.00e+00	0	41	0	0	61	4624
2026-01-03 23:15:12.65	33.03	27.79	-45.2	-47.0	19.3	0.00e+00	0	41	0	0	61	4550
2026-01-03 23:15:13.45	33.13	27.92	-45.1	-46.9	19.3	0.00e+00	0	41	0	0	61	4505
2026-01-03 23:15:14.59	33.27	28.11	-45.1	-46.9	19.4	0.00e+00	0	41	0	0	61	4509
2026-01-03 23:15:15.45	33.38	28.25	-45.1	-46.9	19.3	0.00e+00	0	41	0	0	61	4534
2026-01-03 23:15:16.61	33.53	28.44	-45.1	-46.9	19.3	0.00e+00	0	41	0	0	61	4513
2026-01-03 23:15:17.47	33.64	28.58	-45.0	-46.8	19.3	0.00e+00	0	41	0	0	61	4485
2026-01-03 23:15:18.68	33.80	28.78	-45.2	-46.9	19.3	0.00e+00	0	41	0	0	61	4541
2026-01-03 23:15:19.54	33.91	28.93	-45.1	-46.8	19.3	0.00e+00	0	41	0	0	61	4484
2026-01-03 23:15:20.69	34.06	29.12	-45.2	-47.0	19.2	0.00e+00	0	41	0	0	61	4552
2026-01-03 23:15:21.55	34.18	29.27	-45.1	-46.9	19.3	0.00e+00	0	41	0	0	61	4518
2026-01-03 23:15:22.69	34.33	29.46	-45.1	-46.9	19.2	0.00e+00	0	41	0	0	61	4527
2026-01-03 23:15:23.56	34.45	29.61	-45.2	-47.0	19.2	0.00e+00	0	41	0	0	61	4548
2026-01-03 23:15:24.70	34.61	29.80	-45.3	-47.1	19.0	0.00e+00	0	41	0	0	61	4617
2026-01-03 23:15:25.56	34.73	29.95	-44.9	-46.7	19.3	0.00e+00	0	41	0	0	61	4392
2026-01-03 23:15:26.71	34.89	30.15	-44.9	-46.7	19.3	0.00e+00	0	41	0	0	61	4410
2026-01-03 23:15:27.76	35.05	30.34	-44.8	-46.6	19.5	0.00e+00	0	41	0	0	61	4345
2026-01-03 23:15:28.87	35.21	30.53	-44.6	-46.4	19.5	0.00e+00	0	41	0	0	61	4258
2026-01-03 23:15:29.84	35.35	30.70	-45.0	-46.7	19.5	0.00e+00	0	41	0	0	61	4440
2026-01-03 23:15:30.84	35.50	30.88	-44.7	-46.5	19.6	0.00e+00	0	41	0	0	61	4304
2026-01-03 23:15:31.84	35.65	31.06	-44.8	-46.5	19.6	0.00e+00	0	41	0	0	61	4332
2026-01-03 23:15:32.84	35.80	31.24	-44.8	-46.6	19.6	0.00e+00	0	41	0	0	61	4354
2026-01-03 23:15:33.85	35.95	31.42	-44.8	-46.6	19.6	0.00e+00	0	41	0	0	61	4361
2026-01-03 23:15:34.84	36.10	31.60	-44.8	-46.6	19.4	0.00e+00	0	41	0	0	61	4364
2026-01-03 23:15:35.85	36.26	31.78	-44.9	-46.6	19.4	0.00e+00	0	41	0	0	61	4386
2026-01-03 23:15:36.85	36.42	31.96	-45.0	-46.8	19.4	0.00e+00	0	41	0	0	61	4474
2026-01-03 23:15:37.85	36.58	32.15	-44.9	-46.7	19.5	0.00e+00	0	41	0	0	61	4419
2026-01-03 23:15:38.86	36.74	32.33	-44.8	-46.6	19.5	0.00e+00	0	41	0	0	61	4347
2026-01-03 23:15:39.86	36.91	32.52	-44.8	-46.5	19.6	0.00e+00	0	41	0	0	61	4335
2026-01-03 23:15:40.89	37.08	32.71	-44.7	-46.5	19.6	0.00e+00	0	41	0	0	61	4295
2026-01-03 23:15:41.88	37.24	32.90	-45.1	-46.8	19.4	0.00e+00	0	41	0	0	61	4469
2026-01-03 23:15:42.93	37.42	33.09	-45.3	-47.1	19.2	0.00e+00	0	41	0	0	61	4629
2026-01-03 23:15:43.86	37.58	33.27	-45.3	-47.1	19.2	0.00e+00	0	41	0	0	61	4607
2026-01-03 23:15:45.00	37.78	33.48	-45.5	-47.3	19.0	0.00e+00	0	41	0	0	61	4756
2026-01-03 23:15:45.86	37.93	33.65	-45.7	-47.5	18.8	0.00e+00	0	41	0	0	62	4590
2026-01-03 23:15:47.01	38.13	33.87	-46.0	-47.9	18.5	0.00e+00	0	41	0	0	62	4786
2026-01-03 23:15:47.87	38.28	34.04	-46.2	-48.2	18.3	0.00e+00	0	41	0	0	63	4653
2026-01-03 23:15:49.02	38.49	34.26	-46.2	-48.1	18.2	0.00e+00	0	41	0	0	63	4615
2026-01-03 23:15:49.88	38.65	34.43	-46.4	-48.3	18.0	0.00e+00	0	41	0	0	63	4731
2026-01-03 23:15:51.02	38.86	34.65	-46.6	-48.5	17.8	0.00e+00	0	41	0	0	63	4864
2026-01-03 23:15:51.88	39.02	34.82	-46.5	-48.5	17.7	0.00e+00	0	41	0	0	64	4586
2026-01-03 23:15:53.03	39.24	35.04	-46.6	-48.6	17.7	0.00e+00	0	41	0	0	64	4626
2026-01-03 23:15:53.89	39.41	35.21	-46.6	-48.6	17.7	0.00e+00	0	41	0	0	64	4611
2026-01-03 23:15:55.03	39.63	35.44	-46.7	-48.7	17.6	0.00e+00	0	41	0	0	64	4678
2026-01-03 23:15:55.89	39.80	35.61	-46.7	-48.7	17.5	0.00e+00	0	41	0	0	64	4705
2026-01-03 23:15:57.11	40.04	35.86	-46.7	-48.8	17.6	0.00e+00	0	41	0	0	64	4718
2026-01-03 23:15:57.97	40.21	36.03	-46.6	-48.6	17.7	0.00e+00	0	41	0	0	64	4610
2026-01-03 23:15:59.12	40.45	36.26	-46.5	-48.4	17.9	0.00e+00	0	41	0	0	64	4541
2026-01-03 23:15:59.98	40.63	36.44	-46.6	-48.6	17.7	0.00e+00	0	41	0	0	64	4604
2026-01-03 23:16:01.13	40.87	36.68	-46.5	-48.5	17.7	0.00e+00	0	41	0	0	64	4569
2026-01-03 23:16:02.02	41.06	36.86	-46.7	-48.7	17.6	0.00e+00	0	41	0	0	64	4665
2026-01-03 23:16:03.16	41.30	37.09	-46.7	-48.7	17.7	0.00e+00	0	41	0	0	64	4663
2026-01-03 23:16:04.12	41.51	37.29	-46.7	-48.7	17.6	0.00e+00	0	41	0	0	64	4683
2026-01-03 23:16:05.30	41.77	37.54	-46.6	-48.6	17.8	0.00e+00	0	41	0	0	64	4611
2026-01-03 23:16:06.16	41.96	37.72	-46.3	-48.3	18.0	0.00e+00	0	41	0	0	64	4455
2026-01-03 23:16:07.49	42.26	38.00	-46.3	-48.3	18.0	0.00e+00	0	41	0	0	64	4454
2026-01-03 23:16:08.21	42.43	38.15	-46.3	-48.2	18.0	0.00e+00	0	41	0	0	64	4418
2026-01-03 23:16:09.50	42.73	38.42	-46.4	-48.3	17.8	0.00e+00	0	41	0	0	64	4462
2026-01-03 23:16:10.22	42.90	38.57	-46.6	-48.6	17.5	0.00e+00	0	41	0	0	64	4646
2026-01-03 23:16:11.51	43.20	38.85	-46.8	-48.9	17.2	0.00e+00	0	41	0	0	64	4769
2026-01-03 23:16:12.22	43.37	39.00	-46.8	-48.8	17.2	0.00e+00	0	41	0	0	64	4736
2026-01-03 23:16:13.85	43.77	39.35	-46.7	-48.8	17.1	0.00e+00	0	41	0	0	64	4742
2026-01-03 23:16:14.42	43.92	39.47	-46.6	-48.7	17.1	0.00e+00	0	41	0	0	64	4675
2026-01-03 23:16:16.05	44.33	39.83	-46.6	-48.6	17.3	0.00e+00	0	41	0	0	64	4643
2026-01-03 23:16:16.62	44.47	39.95	-46.6	-48.7	17.3	0.00e+00	0	41	0	0	64	4653
2026-01-03 23:16:18.29	44.91	40.32	-46.8	-48.8	17.2	0.00e+00	0	41	0	0	64	4756
2026-01-03 23:16:18.86	45.06	40.44	-46.9	-48.9	17.1	0.00e+00	0	41	0	0	64	4807
2026-01-03 23:16:20.47	45.49	40.79	-47.1	-49.2	17.0	0.00e+00	0	41	0	0	64	4945
2026-01-03 23:16:21.04	45.64	40.92	-47.0	-49.1	17.0	0.00e+00	0	41	0	0	64	4902
2026-01-03 23:16:22.66	46.09	41.28	-47.0	-49.1	17.0	0.00e+00	0	41	0	0	64	4914
2026-01-03 23:16:23.23	46.25	41.40	-47.1	-49.2	16.9	0.00e+00	0	41	0	0	64	4967
2026-01-03 23:16:25.05	46.76	41.81	-47.1	-49.1	17.0	0.00e+00	0	41	0	0	65	4650
2026-01-03 23:16:25.62	46.93	41.94	-47.2	-49.3	17.0	0.00e+00	0	41	0	0	65	4722
2026-01-03 23:16:27.61	47.51	42.38	-46.9	-49.0	17.1	0.00e+00	0	41	0	0	65	4555
2026-01-03 23:16:28.19	47.69	42.51	-47.3	-49.4	16.7	0.00e+00	0	41	0	0	65	4809
2026-01-03 23:16:29.77	48.17	42.87	-47.7	-49.9	16.3	0.00e+00	0	41	0	0	66	4789
2026-01-03 23:16:30.37	48.35	43.00	-47.7	-50.0	16.5	0.00e+00	0	41	0	0	66	4817
2026-01-03 23:16:31.95	48.85	43.36	-47.6	-49.8	16.5	0.00e+00	0	41	0	0	66	4732
2026-01-03 23:16:32.52	49.03	43.49	-47.6	-49.8	16.6	0.00e+00	0	41	0	0	66	4711
2026-01-03 23:16:34.11	49.54	43.85	-47.3	-49.4	16.8	0.00e+00	0	41	0	0	66	4541
2026-01-03 23:16:34.86	49.79	44.02	-47.3	-49.4	16.7	0.00e+00	0	41	0	0	66	4541
2026-01-03 23:16:36.15	50.22	44.32	-47.5	-49.7	16.7	0.00e+00	0	41	0	0	66	4683
2026-01-03 23:16:36.87	50.46	44.48	-47.2	-49.4	16.8	0.00e+00	0	41	0	0	66	4515
2026-01-03 23:16:38.17	50.90	44.78	-47.3	-49.4	17.0	0.00e+00	0	41	0	0	66	4509
2026-01-03 23:16:39.14	51.24	45.00	-47.1	-49.2	17.0	0.00e+00	0	41	0	0	66	4440
2026-01-03 23:16:40.46	51.71	45.30	-46.9	-48.9	17.3	0.00e+00	0	41	0	0	65	4516
2026-01-03 23:16:41.18	51.97	45.47	-46.7	-48.8	17.3	0.00e+00	0	41	0	0	65	4446
2026-01-03 23:16:42.82	52.56	45.84	-46.6	-48.6	17.5	0.00e+00	0	41	0	0	65	4377
2026-01-03 23:16:43.39	52.78	45.97	-46.7	-48.7	17.5	0.00e+00	0	41	0	0	65	4417
2026-01-03 23:16:45.01	53.39	46.34	-46.8	-48.8	17.3	0.00e+00	0	41	0	0	65	4475
2026-01-03 23:16:45.59	53.61	46.48	-46.9	-49.0	17.2	0.00e+00	0	41	0	0	65	4552
2026-01-03 23:16:47.27	54.26	46.86	-47.1	-49.2	17.2	0.00e+00	0	41	0	0	65	4678
2026-01-03 23:16:47.84	54.49	46.99	-47.1	-49.2	17.1	0.00e+00	0	41	0	0	65	4685
2026-01-03 23:16:49.43	55.12	47.35	-47.0	-49.1	17.2	0.00e+00	0	41	0	0	65	4621
2026-01-03 23:16:50.00	55.36	47.48	-46.9	-49.0	17.3	0.00e+00	0	41	0	0	65	4555
2026-01-03 23:16:51.61	56.02	47.85	-46.6	-48.5	17.7	0.00e+00	0	41	0	0	65	4327
2026-01-03 23:16:52.18	56.26	47.98	-46.5	-48.4	17.9	0.00e+00	0	41	0	0	64	4512
2026-01-03 23:16:54.00	57.04	48.39	-46.4	-48.3	17.9	0.00e+00	0	41	0	0	64	4471
2026-01-03 23:16:54.57	57.29	48.52	-46.3	-48.2	18.0	0.00e+00	0	41	0	0	64	4427
2026-01-03 23:16:56.19	58.01	48.89	-46.1	-47.9	18.2	0.00e+00	0	41	0	0	64	4291
2026-01-03 23:16:56.76	58.27	49.02	-46.0	-47.9	18.2	0.00e+00	0	41	0	0	64	4274
2026-01-03 23:16:58.37	59.00	49.38	-46.0	-47.9	18.4	0.00e+00	0	41	0	0	63	4502
2026-01-03 23:16:58.94	59.27	49.50	-46.0	-47.9	18.3	0.00e+00	0	41	0	0	63	4513
2026-01-03 23:17:00.52	60.01	49.85	-46.1	-48.0	18.1	7.00e-07	0	41	0	0	63	4566
2026-01-03 23:17:01.12	60.30	49.99	-46.3	-48.2	17.9	0.00e+00	0	41	0	0	63	4702
2026-01-03 23:17:02.70	61.07	50.33	-46.4	-48.4	17.9	0.00e+00	0	41	0	0	63	4769
2026-01-03 23:17:03.30	61.36	50.47	-46.3	-48.2	17.8	0.00e+00	0	41	0	0	63	4702
2026-01-03 23:17:04.88	62.16	50.81	-46.3	-48.2	17.6	0.00e+00	0	41	0	0	63	4704
2026-01-03 23:17:05.47	62.46	50.94	-46.4	-48.4	17.6	0.00e+00	0	41	0	0	63	4788
2026-01-03 23:17:07.04	63.27	51.27	-46.4	-48.4	17.9	0.00e+00	0	41	0	0	63	4770
2026-01-03 23:17:08.03	63.79	51.48	-46.3	-48.3	17.9	0.00e+00	0	41	0	0	63	4729
2026-01-03 23:17:09.03	64.33	51.70	-46.1	-48.0	18.2	0.00e+00	0	41	0	0	63	4548
2026-01-03 23:17:10.03	64.87	51.90	-45.7	-47.6	18.4	0.00e+00	0	41	0	0	63	4352
2026-01-03 23:17:11.03	65.42	52.11	-45.6	-47.5	18.5	0.00e+00	0	41	0	0	63	4323
2026-01-03 23:17:12.04	65.99	52.32	-45.4	-47.2	18.6	0.00e+00	0	41	0	0	62	4416
2026-01-03 23:17:13.04	66.55	52.52	-45.2	-47.0	18.9	0.00e+00	0	41	0	0	62	4314
2026-01-03 23:17:14.05	67.13	52.73	-45.2	-47.0	18.9	0.00e+00	0	41	0	0	62	4331
2026-01-03 23:17:15.05	67.71	52.93	-45.3	-47.1	19.0	0.00e+00	0	41	0	0	62	4359
2026-01-03 23:17:16.05	68.30	53.13	-45.4	-47.2	18.9	0.00e+00	0	41	0	0	62	4406
2026-01-03 23:17:17.06	68.90	53.32	-45.7	-47.5	18.5	0.00e+00	0	41	0	0	62	4594
2026-01-03 23:17:18.06	69.51	53.52	-45.9	-47.8	18.2	0.00e+00	0	41	0	0	62	4728
2026-01-03 23:17:19.06	70.12	53.71	-45.9	-47.8	18.1	0.00e+00	0	41	0	0	62	4756
2026-01-03 23:17:20.06	70.74	53.89	-45.7	-47.7	18.2	0.00e+00	0	41	0	0	62	4656
2026-01-03 23:17:21.07	71.38	54.08	-45.7	-47.6	18.1	0.00e+00	0	41	0	0	62	4646
2026-01-03 23:17:22.07	72.02	54.26	-45.6	-47.4	18.5	0.00e+00	0	41	0	0	62	4539
2026-01-03 23:17:23.07	72.66	54.44	-45.6	-47.4	18.6	0.00e+00	0	41	0	0	62	4522
2026-01-03 23:17:24.44	73.56	54.68	-45.6	-47.5	18.6	0.00e+00	0	41	0	0	62	4555
2026-01-03 23:17:25.19	74.06	54.81	-45.4	-47.3	18.8	0.00e+00	0	41	0	0	62	4453
2026-01-03 23:17:26.48	74.92	55.03	-44.9	-46.7	19.3	0.00e+00	0	41	0	0	61	4409
2026-01-03 23:17:27.19	75.41	55.15	-44.7	-46.5	19.6	0.00e+00	0	41	0	0	61	4301
2026-01-03 23:17:28.48	76.29	55.36	-44.5	-46.2	19.8	0.00e+00	0	41	0	0	61	4163
2026-01-03 23:17:29.20	76.79	55.47	-44.5	-46.2	19.8	0.00e+00	0	41	0	0	60	4396
2026-01-03 23:17:30.49	77.70	55.67	-44.9	-46.7	19.3	0.00e+00	0	41	0	0	60	4654
2026-01-03 23:17:31.20	78.20	55.78	-45.2	-47.0	19.1	0.00e+00	0	41	0	0	61	4594
2026-01-03 23:17:32.51	79.15	55.97	-45.3	-47.1	19.1	0.00e+00	0	41	0	0	61	4610
2026-01-03 23:17:33.23	79.67	56.08	-44.9	-46.7	19.5	0.00e+00	0	41	0	0	61	4406
2026-01-03 23:17:34.52	80.62	56.26	-44.4	-46.1	19.9	0.00e+00	0	41	0	0	60	4389
2026-01-03 23:17:35.23	81.14	56.35	-44.3	-46.0	20.0	0.00e+00	0	41	0	0	60	4321
2026-01-03 23:17:36.53	82.11	56.52	-44.3	-46.0	20.0	0.00e+00	0	41	0	0	60	4326
2026-01-03 23:17:37.24	82.65	56.61	-44.3	-46.0	20.1	0.00e+00	0	41	0	0	60	4310
2026-01-03 23:17:38.53	83.63	56.77	-43.9	-45.5	20.3	0.00e+00	0	41	0	0	59	4330
2026-01-03 23:17:39.25	84.19	56.85	-44.0	-45.6	20.3	0.00e+00	0	41	0	0	59	4370
2026-01-03 23:17:40.54	85.19	57.00	-44.2	-45.8	20.1	0.00e+00	0	41	0	0	59	4487
2026-01-03 23:17:41.25	85.74	57.08	-44.0	-45.7	20.2	0.00e+00	0	41	0	0	59	4415
2026-01-03 23:17:42.54	86.76	57.21	-44.1	-45.8	20.2	0.00e+00	0	41	0	0	59	4452
2026-01-03 23:17:43.26	87.33	57.28	-44.4	-46.2	19.8	0.00e+00	0	41	0	0	59	4655
2026-01-03 23:17:44.54	88.35	57.40	-45.0	-46.8	19.3	0.00e+00	0	41	0	0	60	4727
2026-01-03 23:17:45.26	88.93	57.46	-44.9	-46.7	19.3	0.00e+00	0	41	0	0	60	4661
2026-01-03 23:17:46.55	89.97	57.57	-44.5	-46.2	19.8	0.00e+00	0	41	0	0	60	4420
2026-01-03 23:17:47.27	90.56	57.62	-44.1	-45.7	20.2	0.00e+00	0	41	0	0	60	4188
2026-01-03 23:17:48.62	91.66	57.72	-44.1	-45.8	19.8	0.00e+00	0	41	0	0	59	4484
2026-01-03 23:17:49.34	92.25	57.77	-44.1	-45.7	20.0	0.00e+00	0	41	0	0	59	4441
2026-01-03 23:17:50.63	93.32	57.85	-44.1	-45.8	19.9	0.00e+00	0	41	0	0	59	4484
2026-01-03 23:17:51.66	94.18	57.90	-44.1	-45.8	19.9	0.00e+00	0	41	0	0	59	4466
2026-01-03 23:17:52.98	95.28	57.97	-44.2	-45.9	19.7	0.00e+00	0	41	0	0	59	4519
2026-01-03 23:17:53.70	95.88	58.00	-44.3	-46.0	19.6	0.00e+00	0	41	0	0	59	4568
2026-01-03 23:17:54.98	96.96	58.04	-43.9	-45.6	19.9	0.00e+00	0	41	0	0	59	4372
2026-01-03 23:17:55.81	97.65	58.07	-44.0	-45.7	19.8	0.00e+00	0	41	0	0	59	4411
2026-01-03 23:17:56.96	98.63	58.10	-44.3	-45.9	19.6	0.00e+00	0	41	0	0	59	4529
2026-01-03 23:17:58.04	99.54	58.12	-44.2	-45.9	19.5	0.00e+00	0	41	0	0	59	4501
2026-01-03 23:17:58.90	100.27	58.13	-44.2	-45.9	19.7	0.00e+00	0	41	0	0	59	4499
2026-01-03 23:18:00.05	101.24	58.13	-44.2	-45.9	19.9	0.00e+00	0	41	0	0	59	4533
2026-01-03 23:18:00.91	101.97	58.14	-44.2	-45.9	19.9	0.00e+00	0	41	0	0	59	4502
2026-01-03 23:18:02.05	102.93	58.13	-44.4	-46.1	19.7	0.00e+00	0	41	0	0	59	4636
2026-01-03 23:18:02.91	103.66	58.12	-44.5	-46.2	19.8	0.00e+00	0	41	0	0	59	4661
2026-01-03 23:18:04.06	104.64	58.10	-44.5	-46.2	19.7	0.00e+00	0	41	0	0	59	4693
2026-01-03 23:18:05.28	105.67	58.07	-44.4	-46.1	19.3	0.00e+00	0	41	0	0	59	4611
2026-01-03 23:18:06.32	106.54	58.04	-44.8	-46.6	18.9	0.00e+00	0	41	0	0	60	4633
2026-01-03 23:18:07.32	107.38	58.01	-44.6	-46.3	19.4	0.00e+00	0	41	0	0	60	4473
2026-01-03 23:18:08.32	108.22	57.97	-44.5	-46.2	19.8	0.00e+00	0	41	0	0	60	4422
2026-01-03 23:18:09.33	109.07	57.92	-44.2	-45.9	19.8	0.00e+00	0	41	0	0	60	4275
2026-01-03 23:18:10.33	109.90	57.87	-44.5	-46.2	19.6	4.50e-06	0	41	0	0	60	4419
2026-01-03 23:18:11.33	110.73	57.81	-44.3	-46.0	19.9	0.00e+00	0	41	0	0	60	4317
2026-01-03 23:18:12.34	111.56	57.75	-43.9	-45.7	20.0	0.00e+00	0	41	0	0	59	4436
2026-01-03 23:18:13.34	112.38	57.68	-44.0	-45.6	20.1	0.00e+00	0	41	0	0	59	4381
2026-01-03 23:18:14.34	113.20	57.60	-44.5	-46.3	19.6	0.00e+00	0	41	0	0	59	4713
2026-01-03 23:18:15.34	114.01	57.52	-45.0	-46.7	19.3	0.00e+00	0	41	0	0	60	4704
2026-01-03 23:18:16.36	114.84	57.44	-44.6	-46.3	19.7	0.00e+00	0	41	0	0	60	4461
2026-01-03 23:18:17.37	115.65	57.35	-44.4	-46.1	19.8	0.00e+00	0	41	0	0	60	4360
2026-01-03 23:18:18.43	116.49	57.25	-44.6	-46.3	19.8	0.00e+00	0	41	0	0	60	4454
2026-01-03 23:18:19.32	117.20	57.16	-44.7	-46.4	19.7	0.00e+00	0	41	0	0	60	4529
2026-01-03 23:18:20.47	118.10	57.03	-44.6	-46.3	19.8	0.00e+00	0	41	0	0	60	4480
2026-01-03 23:18:21.33	118.77	56.94	-44.5	-46.2	19.9	0.00e+00	0	41	0	0	60	4434
2026-01-03 23:18:22.47	119.65	56.81	-44.5	-46.2	19.7	0.00e+00	0	41	0	0	60	4404
2026-01-03 23:18:23.33	120.31	56.71	-44.4	-46.1	19.7	0.00e+00	0	41	0	0	60	4375
2026-01-03 23:18:24.48	121.18	56.56	-44.4	-46.1	19.7	0.00e+00	0	41	0	0	60	4372
2026-01-03 23:18:25.33	121.82	56.45	-44.9	-46.6	19.4	0.00e+00	0	41	0	0	60	4621
2026-01-03 23:18:26.48	122.68	56.30	-45.7	-47.6	18.6	0.00e+00	0	41	0	0	62	4602
2026-01-03 23:18:27.34	123.32	56.18	-45.6	-47.4	18.8	0.00e+00	0	41	0	0	62	4538
2026-01-03 23:18:28.49	124.16	56.02	-45.4	-47.2	18.7	0.00e+00	0	41	0	0	62	4412
2026-01-03 23:18:29.35	124.78	55.90	-45.2	-47.0	19.0	0.00e+00	0	41	0	0	62	4310
2026-01-03 23:18:30.50	125.60	55.72	-45.0	-46.8	19.2	0.00e+00	0	41	0	0	62	4206
2026-01-03 23:18:31.36	126.21	55.59	-45.1	-46.9	19.4	0.00e+00	0	41	0	0	62	4247
2026-01-03 23:18:32.50	127.01	55.41	-45.2	-47.0	19.1	0.00e+00	0	41	0	0	62	4334
2026-01-03 23:18:33.36	127.61	55.27	-45.4	-47.3	18.9	0.00e+00	0	41	0	0	62	4446
2026-01-03 23:18:34.51	128.40	55.09	-45.3	-47.2	18.9	0.00e+00	0	41	0	0	62	4398
2026-01-03 23:18:35.37	128.98	54.94	-45.1	-46.9	19.1	0.00e+00	0	41	0	0	62	4283
2026-01-03 23:18:36.68	129.85	54.72	-45.1	-46.9	19.0	0.00e+00	0	41	0	0	61	4529
2026-01-03 23:18:37.39	130.32	54.59	-45.4	-47.3	18.6	0.00e+00	0	41	0	0	61	4734
2026-01-03 23:18:38.68	131.17	54.36	-45.8	-47.8	18.4	0.00e+00	0	41	0	0	62	4721
2026-01-03 23:18:39.40	131.63	54.23	-46.0	-48.0	18.2	0.00e+00	0	41	0	0	62	4818
2026-01-03 23:18:40.68	132.44	54.00	-45.9	-47.8	18.3	0.00e+00	0	41	0	0	62	4720
2026-01-03 23:18:41.40	132.90	53.86	-46.1	-48.0	17.9	0.00e+00	0	41	0	0	62	4839
2026-01-03 23:18:42.69	133.70	53.62	-45.8	-47.6	18.2	0.00e+00	0	41	0	0	63	4389
2026-01-03 23:18:43.51	134.20	53.46	-45.5	-47.3	18.6	0.00e+00	0	41	0	0	62	4466
2026-01-03 23:18:44.66	134.89	53.24	-45.2	-46.9	19.0	0.00e+00	0	41	0	0	62	4274
2026-01-03 23:18:45.52	135.41	53.07	-45.3	-47.1	18.9	0.00e+00	0	41	0	0	62	4350
2026-01-03 23:18:46.67	136.08	52.84	-45.3	-47.1	18.9	0.00e+00	0	41	0	0	62	4390
2026-01-03 23:18:47.53	136.58	52.67	-45.5	-47.4	18.7	0.00e+00	0	41	0	0	62	4496
2026-01-03 23:18:48.68	137.24	52.44	-46.1	-48.0	18.0	0.00e+00	0	41	0	0	62	4837
2026-01-03 23:18:49.54	137.72	52.26	-46.4	-48.4	17.7	0.00e+00	0	41	0	0	63	4786
2026-01-03 23:18:50.68	138.36	52.02	-46.0	-48.0	17.9	0.00e+00	0	41	0	0	63	4550
2026-01-03 23:18:51.54	138.83	51.84	-46.2	-48.1	18.0	0.00e+00	0	41	0	0	63	4619
2026-01-03 23:18:52.69	139.45	51.60	-46.1	-48.0	17.7	0.00e+00	0	41	0	0	63	4580
2026-01-03 23:18:53.55	139.91	51.42	-46.2	-48.1	17.6	0.00e+00	0	41	0	0	63	4612
2026-01-03 23:18:54.70	140.52	51.17	-45.7	-47.5	18.4	0.00e+00	0	41	0	0	63	4320
2026-01-03 23:18:55.63	141.00	50.97	-45.8	-47.7	18.4	0.00e+00	0	41	0	0	63	4398
2026-01-03 23:18:56.64	141.51	50.75	-46.2	-48.1	18.1	0.00e+00	0	41	0	0	63	4637
2026-01-03 23:18:57.64	142.02	50.53	-46.4	-48.3	17.9	0.00e+00	0	41	0	0	63	4743
2026-01-03 23:18:58.64	142.52	50.31	-46.6	-48.6	17.7	0.00e+00	0	41	0	0	64	4642
2026-01-03 23:18:59.64	143.01	50.09	-46.4	-48.4	17.7	0.00e+00	0	41	0	0	64	4529
2026-01-03 23:19:00.65	143.49	49.87	-46.5	-48.4	17.4	0.00e+00	0	41	0	0	64	4529
2026-01-03 23:19:01.65	143.97	49.65	-46.5	-48.5	17.5	0.00e+00	0	41	0	0	64	4583
2026-01-03 23:19:02.66	144.44	49.42	-46.6	-48.5	17.8	0.00e+00	0	41	0	0	64	4591
2026-01-03 23:19:03.66	144.90	49.20	-46.6	-48.5	17.7	0.00e+00	0	41	0	0	64	4580
2026-01-03 23:19:04.66	145.36	48.97	-46.5	-48.5	17.8	0.00e+00	0	41	0	0	64	4556
2026-01-03 23:19:05.66	145.81	48.75	-46.9	-48.9	17.4	0.00e+00	0	41	0	0	64	4774
2026-01-03 23:19:06.66	146.25	48.52	-47.4	-49.4	17.2	0.00e+00	0	41	0	0	65	4810
2026-01-03 23:19:07.67	146.69	48.29	-47.6	-49.7	16.9	0.00e+00	0	41	0	0	65	4959
2026-01-03 23:19:08.67	147.12	48.06	-47.8	-50.1	16.3	0.00e+00	0	41	0	0	66	4894
2026-01-03 23:19:09.67	147.54	47.83	-48.0	-50.3	16.2	0.00e+00	0	41	0	0	67	4729
2026-01-03 23:19:10.84	148.03	47.57	-47.7	-49.8	16.6	0.00e+00	0	41	0	0	67	4479
2026-01-03 23:19:11.70	148.39	47.37	-47.3	-49.4	17.1	0.00e+00	0	41	0	0	66	4513
2026-01-03 23:19:13.07	148.94	47.06	-46.9	-49.0	17.6	0.00e+00	0	41	0	0	65	4553
2026-01-03 23:19:13.79	149.23	46.89	-47.0	-49.1	17.4	0.00e+00	0	41	0	0	65	4627
2026-01-03 23:19:15.07	149.73	46.60	-47.2	-49.3	17.1	0.00e+00	0	41	0	0	65	4715
2026-01-03 23:19:15.79	150.01	46.43	-47.5	-49.6	16.9	0.00e+00	0	41	0	0	65	4903
2026-01-03 23:19:17.08	150.50	46.13	-47.4	-49.6	16.7	0.00e+00	0	41	0	0	66	4628
2026-01-03 23:19:17.80	150.77	45.97	-47.6	-49.7	16.6	0.00e+00	0	41	0	0	66	4701
2026-01-03 23:19:19.08	151.24	45.67	-47.7	-49.8	16.4	0.00e+00	0	41	0	0	66	4754
2026-01-03 23:19:19.80	151.50	45.51	-47.7	-49.9	16.3	0.00e+00	0	41	0	0	66	4794
2026-01-03 23:19:21.09	151.97	45.21	-46.9	-48.9	17.2	0.00e+00	0	41	0	0	65	4516
2026-01-03 23:19:21.81	152.22	45.05	-46.5	-48.4	17.6	0.00e+00	0	41	0	0	64	4524
2026-01-03 23:19:23.11	152.68	44.75	-46.4	-48.4	17.7	0.00e+00	0	41	0	0	64	4503
2026-01-03 23:19:23.82	152.92	44.58	-46.8	-48.8	17.5	0.00e+00	0	41	0	0	64	4720
2026-01-03 23:19:25.11	153.36	44.29	-47.0	-49.0	17.3	0.00e+00	0	41	0	0	64	4834
2026-01-03 23:19:26.18	153.72	44.04	-47.2	-49.2	17.1	0.00e+00	0	41	0	0	65	4701
2026-01-03 23:19:27.04	154.00	43.85	-47.6	-49.7	16.6	0.00e+00	0	41	0	0	65	4970
2026-01-03 23:19:28.18	154.37	43.59	-47.8	-50.0	16.3	0.00e+00	0	41	0	0	66	4820
2026-01-03 23:19:29.04	154.65	43.39	-47.7	-49.9	16.3	0.00e+00	0	41	0	0	66	4788
2026-01-03 23:19:30.19	155.01	43.13	-47.7	-49.9	16.2	0.00e+00	0	41	0	0	66	4811
2026-01-03 23:19:31.05	155.28	42.93	-47.5	-49.7	16.4	0.00e+00	0	41	0	0	66	4698
2026-01-03 23:19:32.20	155.63	42.67	-47.2	-49.3	16.9	0.00e+00	0	41	0	0	66	4472
2026-01-03 23:19:33.06	155.89	42.48	-47.1	-49.2	17.0	0.00e+00	0	41	0	0	66	4392
2026-01-03 23:19:34.20	156.23	42.22	-47.0	-49.0	17.3	0.00e+00	0	41	0	0	65	4595
2026-01-03 23:19:35.06	156.49	42.03	-46.7	-48.7	17.7	0.00e+00	0	41	0	0	65	4400
2026-01-03 23:19:36.38	156.87	41.73	-46.8	-48.8	17.5	0.00e+00	0	41	0	0	65	4451
2026-01-03 23:19:37.10	157.08	41.57	-47.2	-49.2	17.0	0.00e+00	0	41	0	0	65	4697
2026-01-03 23:19:38.39	157.44	41.28	-47.7	-49.9	16.4	0.00e+00	0	41	0	0	66	4782
2026-01-03 23:19:39.10	157.64	41.12	-48.0	-50.4	16.0	0.00e+00	0	41	0	0	66	5045
2026-01-03 23:19:40.39	157.99	40.84	-48.0	-50.3	16.0	7.00e-07	0	41	0	0	67	4734
2026-01-03 23:19:41.11	158.19	40.68	-47.6	-49.8	16.5	0.00e+00	0	41	0	0	67	4467
2026-01-03 23:19:42.74	158.62	40.32	-47.0	-49.1	17.1	0.00e+00	0	41	0	0	66	4352
2026-01-03 23:19:43.31	158.77	40.19	-47.1	-49.1	17.2	0.00e+00	0	41	0	0	65	4624
2026-01-03 23:19:44.92	159.19	39.84	-46.9	-48.8	17.6	0.00e+00	0	41	0	0	65	4483
2026-01-03 23:19:45.49	159.33	39.71	-46.4	-48.4	17.8	0.00e+00	0	41	0	0	64	4509
2026-01-03 23:19:47.08	159.74	39.37	-46.8	-48.9	17.4	0.00e+00	0	41	0	0	64	4773
2026-01-03 23:19:47.74	159.90	39.23	-46.9	-48.9	17.3	0.00e+00	0	41	0	0	64	4773
2026-01-03 23:19:49.17	160.25	38.92	-46.9	-48.9	17.2	0.00e+00	0	41	0	0	64	4802
2026-01-03 23:19:49.89	160.42	38.76	-47.0	-49.0	17.2	0.00e+00	0	41	0	0	64	4835
2026-01-03 23:19:51.18	160.73	38.49	-46.9	-48.9	17.2	0.00e+00	0	41	0	0	64	4810
2026-01-03 23:19:51.89	160.90	38.33	-47.0	-49.0	17.2	0.00e+00	0	41	0	0	64	4865
2026-01-03 23:19:53.18	161.20	38.06	-46.6	-48.6	17.5	0.00e+00	0	41	0	0	64	4650
2026-01-03 23:19:53.90	161.36	37.91	-46.5	-48.5	17.7	0.00e+00	0	41	0	0	64	4592
2026-01-03 23:19:55.18	161.65	37.64	-46.6	-48.6	17.7	0.00e+00	0	41	0	0	64	4629
2026-01-03 23:19:56.17	161.87	37.43	-46.4	-48.4	17.8	0.00e+00	0	42	0	0	64	4530
2026-01-03 23:19:57.18	162.10	37.22	-46.0	-47.9	18.2	0.00e+00	0	41	0	0	64	4283
2026-01-03 23:19:58.18	162.31	37.01	-45.7	-47.5	18.6	0.00e+00	0	41	0	0	63	4331
2026-01-03 23:19:59.18	162.53	36.80	-45.6	-47.5	18.7	0.00e+00	0	41	0	0	63	4294
2026-01-03 23:20:00.18	162.74	36.60	-45.6	-47.4	18.7	0.00e+00	0	41	0	0	63	4264
2026-01-03 23:20:01.18	162.95	36.39	-45.7	-47.6	18.5	0.00e+00	0	41	0	0	63	4342
2026-01-03 23:20:02.18	163.16	36.19	-46.0	-47.9	18.1	0.00e+00	0	41	0	0	63	4538
2026-01-03 23:20:03.23	163.37	35.97	-46.4	-48.4	17.7	0.00e+00	0	41	0	0	63	4764
2026-01-03 23:20:04.14	163.56	35.79	-46.5	-48.5	17.6	0.00e+00	0	41	0	0	63	4852
2026-01-03 23:20:05.34	163.79	35.54	-46.4	-48.4	17.8	0.00e+00	0	41	0	0	63	4784
2026-01-03 23:20:06.23	163.97	35.37	-46.3	-48.2	17.9	0.00e+00	0	41	0	0	63	4685
2026-01-03 23:20:07.28	164.17	35.16	-46.2	-48.2	18.0	0.00e+00	0	41	0	0	63	4660
2026-01-03 23:20:08.33	164.38	34.95	-46.2	-48.2	18.1	0.00e+00	0	41	0	0	63	4653
2026-01-03 23:20:09.37	164.57	34.74	-45.9	-47.8	18.4	0.00e+00	0	41	0	0	63	4457
2026-01-03 23:20:10.37	164.76	34.54	-45.8	-47.7	18.6	0.00e+00	0	42	0	0	63	4404
2026-01-03 23:20:11.37	164.95	34.35	-45.4	-47.2	18.9	0.00e+00	0	41	0	0	62	4441
2026-01-03 23:20:12.37	165.13	34.15	-45.7	-47.6	18.6	0.00e+00	0	41	0	0	62	4628
2026-01-03 23:20:13.37	165.31	33.96	-46.1	-48.0	18.2	0.00e+00	0	41	0	0	62	4845
2026-01-03 23:20:14.38	165.49	33.76	-46.3	-48.2	18.0	0.00e+00	0	41	0	0	63	4698
2026-01-03 23:20:15.38	165.67	33.57	-46.3	-48.3	17.9	0.00e+00	0	41	0	0	63	4723
2026-01-03 23:20:16.38	165.84	33.38	-46.4	-48.3	17.8	0.00e+00	0	41	0	0	63	4750
2026-01-03 23:20:17.38	166.02	33.18	-46.3	-48.3	17.8	0.00e+00	0	41	0	0	63	4720
2026-01-03 23:20:18.39	166.19	32.99	-46.2	-48.1	18.0	0.00e+00	0	41	0	0	63	4626
2026-01-03 23:20:19.39	166.36	32.80	-45.9	-47.8	18.3	0.00e+00	0	41	0	0	63	4475
2026-01-03 23:20:20.39	166.52	32.62	-46.0	-47.9	18.2	0.00e+00	0	41	0	0	63	4524
2026-01-03 23:20:21.39	166.69	32.43	-45.7	-47.6	18.6	0.00e+00	0	41	0	0	63	4354
2026-01-03 23:20:22.42	166.86	32.24	-45.5	-47.3	18.8	0.00e+00	0	41	0	0	63	4224
2026-01-03 23:20:23.45	167.02	32.05	-45.4	-47.2	19.0	0.00e+00	0	41	0	0	62	4409
2026-01-03 23:20:24.46	167.19	31.86	-45.5	-47.3	19.0	0.00e+00	0	41	0	0	62	4456
2026-01-03 23:20:25.46	167.34	31.68	-45.3	-47.0	19.1	0.00e+00	0	41	0	0	62	4338
2026-01-03 23:20:26.54	167.51	31.48	-45.2	-47.0	19.3	0.00e+00	0	41	0	0	62	4296
2026-01-03 23:20:27.40	167.65	31.32	-45.0	-46.8	19.3	0.00e+00	0	41	0	0	62	4212
2026-01-03 23:20:28.55	167.82	31.11	-45.2	-46.9	19.2	0.00e+00	0	41	0	0	62	4284
2026-01-03 23:20:29.41	167.95	30.96	-45.0	-46.8	19.3	0.00e+00	0	41	0	0	62	4229
2026-01-03 23:20:30.55	168.12	30.76	-44.9	-46.6	19.5	0.00e+00	0	41	0	0	61	4388
2026-01-03 23:20:31.41	168.25	30.60	-44.9	-46.6	19.5	0.00e+00	0	41	0	0	61	4380
2026-01-03 23:20:32.55	168.41	30.40	-45.0	-46.7	19.5	0.00e+00	0	41	0	0	61	4410
2026-01-03 23:20:33.41	168.54	30.25	-44.8	-46.6	19.5	0.00e+00	0	41	0	0	61	4361
2026-01-03 23:20:34.56	168.70	30.05	-45.0	-46.8	19.3	0.00e+00	0	41	0	0	61	4443
2026-01-03 23:20:35.42	168.83	29.90	-45.2	-47.0	19.1	0.00e+00	0	41	0	0	61	4567
2026-01-03 23:20:36.56	168.99	29.70	-45.1	-46.8	19.2	0.00e+00	0	41	0	0	61	4492
2026-01-03 23:20:37.42	169.11	29.55	-45.0	-46.8	19.2	0.00e+00	0	41	0	0	61	4486
2026-01-03 23:20:38.62	169.27	29.34	-45.1	-46.9	19.1	0.00e+00	0	41	0	0	61	4495
2026-01-03 23:20:39.48	169.39	29.20	-45.1	-46.9	19.1	0.00e+00	0	41	0	0	61	4510
2026-01-03 23:20:40.62	169.54	29.00	-45.2	-47.0	19.0	0.00e+00	0	41	0	0	61	4571
2026-01-03 23:20:41.48	169.65	28.86	-45.3	-47.1	18.9	0.00e+00	0	41	0	0	61	4637
2026-01-03 23:20:42.63	169.81	28.66	-45.2	-47.0	18.9	0.00e+00	0	41	0	0	61	4595
2026-01-03 23:20:43.49	169.92	28.52	-45.2	-47.0	19.0	0.00e+00	0	41	0	0	61	4556
2026-01-03 23:20:44.63	170.07	28.33	-45.0	-46.8	19.2	0.00e+00	0	41	0	0	61	4449
2026-01-03 23:20:45.49	170.18	28.19	-44.9	-46.6	19.3	0.00e+00	0	41	0	0	61	4379
2026-01-03 23:20:46.64	170.32	28.00	-44.8	-46.5	19.3	0.00e+00	0	41	0	0	61	4333
2026-01-03 23:20:47.49	170.43	27.86	-44.5	-46.2	19.6	0.00e+00	0	41	0	0	61	4191
2026-01-03 23:20:48.64	170.57	27.67	-44.4	-46.1	19.7	0.00e+00	0	41	0	0	60	4368
2026-01-03 23:20:49.74	170.70	27.49	-44.6	-46.3	19.6	0.00e+00	0	41	0	0	60	4476
2026-01-03 23:20:50.60	170.81	27.35	-44.4	-46.1	19.7	0.00e+00	0	41	0	0	60	4373
2026-01-03 23:20:52.08	170.99	27.11	-44.4	-46.1	19.7	0.00e+00	0	41	0	0	60	4386
2026-01-03 23:20:52.80	171.07	27.00	-44.4	-46.1	19.7	0.00e+00	0	41	0	0	60	4390
2026-01-03 23:20:54.09	171.22	26.79	-44.4	-46.1	19.8	0.00e+00	0	41	0	0	60	4350
2026-01-03 23:20:54.80	171.31	26.68	-44.5	-46.2	19.8	0.00e+00	0	41	0	0	60	4416
2026-01-03 23:20:56.09	171.46	26.48	-44.3	-46.1	19.9	0.00e+00	0	41	0	0	60	4341
2026-01-03 23:20:56.87	171.54	26.36	-44.4	-46.2	19.9	0.00e+00	0	42	0	0	60	4392
2026-01-03 23:20:58.16	171.69	26.16	-44.4	-46.1	19.9	0.00e+00	0	41	0	0	60	4372
2026-01-03 23:20:58.97	171.78	26.03	-44.3	-46.0	20.0	0.00e+00	0	41	0	0	60	4332
2026-01-03 23:21:00.12	171.91	25.85	-44.1	-45.8	20.1	0.00e+00	0	41	0	0	60	4198
2026-01-03 23:21:00.98	172.00	25.72	-44.1	-45.7	20.2	0.00e+00	0	41	0	0	60	4189
2026-01-03 23:21:02.12	172.13	25.55	-44.1	-45.8	20.2	0.00e+00	0	41	0	0	60	4200
2026-01-03 23:21:03.32	172.26	25.36	-44.2	-45.8	20.1	0.00e+00	0	41	0	0	60	4242
2026-01-03 23:21:04.18	172.35	25.23	-44.3	-46.0	19.9	0.00e+00	0	41	0	0	60	4332
2026-01-03 23:21:05.66	172.51	25.01	-44.4	-46.1	19.8	0.00e+00	0	41	0	0	60	4385
2026-01-03 23:21:06.37	172.58	24.91	-44.4	-46.2	19.7	0.00e+00	0	41	0	0	60	4400
2026-01-03 23:21:07.66	172.71	24.72	-44.6	-46.3	19.7	0.00e+00	0	41	0	0	60	4478
2026-01-03 23:21:08.38	172.79	24.61	-44.6	-46.4	19.7	0.00e+00	0	41	0	0	60	4504
2026-01-03 23:21:09.67	172.92	24.42	-44.6	-46.4	19.7	0.00e+00	0	41	0	0	60	4510
2026-01-03 23:21:10.38	172.99	24.32	-44.7	-46.4	19.6	0.00e+00	0	41	0	0	60	4542
2026-01-03 23:21:11.67	173.12	24.13	-44.9	-46.6	19.5	0.00e+00	0	41	0	0	60	4634
2026-01-03 23:21:12.39	173.19	24.02	-45.0	-46.7	19.4	0.00e+00	0	41	0	0	60	4699
2026-01-03 23:21:13.68	173.32	23.84	-45.1	-46.8	19.3	0.00e+00	0	41	0	0	61	4486
2026-01-03 23:21:14.39	173.39	23.74	-45.0	-46.8	19.2	0.00e+00	0	41	0	0	61	4465
2026-01-03 23:21:15.73	173.52	23.54	-45.1	-46.9	19.1	0.00e+00	0	41	0	0	61	4513
2026-01-03 23:21:16.44	173.58	23.44	-45.1	-46.9	19.1	0.00e+00	0	41	0	0	61	4497
2026-01-03 23:21:17.74	173.71	23.26	-45.0	-46.8	19.0	0.00e+00	0	41	0	0	61	4492
2026-01-03 23:21:18.45	173.77	23.16	-45.0	-46.8	19.1	0.00e+00	0	41	0	0	61	4463
2026-01-03 23:21:19.74	173.89	22.98	-45.1	-46.8	19.0	0.00e+00	0	41	0	0	61	4490
2026-01-03 23:21:20.46	173.96	22.88	-45.0	-46.8	19.0	0.00e+00	0	42	0	0	61	4463
2026-01-03 23:21:21.75	174.08	22.70	-45.0	-46.8	19.0	0.00e+00	0	41	0	0	61	4465
2026-01-03 23:21:22.46	174.14	22.60	-44.9	-46.7	19.1	0.00e+00	0	41	0	0	61	4424
2026-01-03 23:21:23.75	174.26	22.43	-44.9	-46.7	19.1	0.00e+00	0	41	0	0	61	4438
2026-01-03 23:21:24.47	174.32	22.33	-44.8	-46.6	19.1	0.00e+00	0	41	0	0	61	4378
2026-01-03 23:21:25.76	174.44	22.15	-44.7	-46.5	19.2	0.00e+00	0	42	0	0	61	4328
2026-01-03 23:21:26.47	174.50	22.06	-44.7	-46.5	19.2	0.00e+00	0	41	0	0	61	4326
2026-01-03 23:21:27.76	174.61	21.88	-44.7	-46.5	19.4	0.00e+00	0	41	0	0	61	4295
2026-01-03 23:21:28.62	174.69	21.77	-44.5	-46.2	19.5	0.00e+00	0	41	0	0	60	4433
2026-01-03 23:21:30.09	174.81	21.57	-44.5	-46.2	19.6	0.00e+00	0	42	0	0	60	4440
2026-01-03 23:21:30.80	174.87	21.48	-44.4	-46.2	19.6	0.00e+00	0	41	0	0	60	4393
2026-01-03 23:21:32.09	174.98	21.31	-44.3	-46.1	19.8	0.00e+00	0	41	0	0	60	4350
2026-01-03 23:21:32.81	175.04	21.21	-44.1	-45.9	19.9	0.00e+00	0	41	0	0	60	4246
2026-01-03 23:21:34.10	175.15	21.05	-44.2	-45.9	19.9	0.00e+00	0	41	0	0	60	4255
2026-01-03 23:21:34.88	175.21	20.95	-44.1	-45.8	19.9	0.00e+00	0	41	0	0	60	4216
2026-01-03 23:21:36.17	175.32	20.78	-44.1	-45.8	19.9	0.00e+00	0	41	0	0	60	4218
2026-01-03 23:21:36.93	175.38	20.68	-44.2	-45.9	19.8	0.00e+00	0	41	0	0	60	4263
2026-01-03 23:21:38.22	175.48	20.52	-44.3	-46.0	19.6	0.00e+00	0	42	0	0	60	4327
2026-01-03 23:21:38.94	175.54	20.42	-44.5	-46.2	19.5	0.00e+00	0	41	0	0	60	4432
2026-01-03 23:21:40.23	175.64	20.26	-44.7	-46.4	19.3	0.00e+00	0	41	0	0	60	4541
2026-01-03 23:21:40.95	175.69	20.17	-44.8	-46.6	19.2	0.00e+00	0	41	0	0	60	4625
2026-01-03 23:21:42.24	175.79	20.01	-44.8	-46.7	19.2	0.00e+00	0	41	0	0	60	4652
2026-01-03 23:21:42.96	175.85	19.92	-44.9	-46.7	19.2	0.00e+00	0	41	0	0	60	4662
2026-01-03 23:21:44.25	175.95	19.76	-45.0	-46.8	19.0	0.00e+00	0	42	0	0	60	4752
2026-01-03 23:21:44.96	176.00	19.67	-44.9	-46.7	19.1	0.00e+00	0	41	0	0	60	4692
2026-01-03 23:21:46.25	176.10	19.51	-44.9	-46.7	19.2	0.00e+00	0	41	0	0	60	4694
2026-01-03 23:21:46.97	176.15	19.42	-45.2	-47.0	19.1	0.00e+00	0	41	0	0	60	4832
2026-01-03 23:21:48.26	176.25	19.26	-45.0	-46.8	19.2	0.00e+00	0	41	0	0	60	4714
2026-01-03 23:21:48.98	176.30	19.18	-45.0	-46.8	19.2	0.00e+00	0	42	0	0	60	4753
2026-01-03 23:21:50.27	176.39	19.02	-45.1	-46.9	19.1	0.00e+00	0	41	0	0	60	4788
2026-01-03 23:21:50.98	176.45	18.94	-45.0	-46.8	19.2	0.00e+00	0	42	0	0	60	4722
2026-01-03 23:21:52.28	176.54	18.78	-44.8	-46.6	19.3	0.00e+00	0	42	0	0	60	4618
2026-01-03 23:21:53.10	176.60	18.68	-44.9	-46.6	19.2	0.00e+00	0	41	0	0	60	4647
2026-01-03 23:21:54.25	176.68	18.54	-44.9	-46.6	19.2	0.00e+00	0	41	0	0	60	4648
2026-01-03 23:21:55.11	176.74	18.44	-45.2	-47.0	19.0	0.00e+00	0	41	0	0	61	4585
2026-01-03 23:21:56.26	176.82	18.31	-45.1	-46.9	19.1	0.00e+00	0	41	0	0	61	4515
2026-01-03 23:21:57.12	176.88	18.21	-45.2	-47.0	19.1	0.00e+00	0	41	0	0	61	4558
2026-01-03 23:21:58.69	176.99	18.02	-45.3	-47.1	18.9	0.00e+00	0	42	0	0	61	4635
2026-01-03 23:21:59.30	177.03	17.95	-45.1	-47.0	19.0	0.00e+00	0	41	0	0	61	4558
2026-01-03 23:22:00.87	177.13	17.77	-45.3	-47.1	19.0	0.00e+00	0	41	0	0	61	4650
2026-01-03 23:22:01.46	177.17	17.70	-45.3	-47.1	18.9	0.00e+00	0	41	0	0	61	4649
2026-01-03 23:22:03.03	177.28	17.52	-45.4	-47.3	18.8	0.00e+00	0	41	0	0	61	4726
2026-01-03 23:22:03.61	177.31	17.46	-45.4	-47.2	18.9	0.00e+00	0	41	0	0	61	4679
2026-01-03 23:22:05.18	177.42	17.28	-45.4	-47.3	18.8	0.00e+00	0	41	0	0	61	4715
2026-01-03 23:22:05.98	177.47	17.19	-45.3	-47.2	18.8	0.00e+00	0	41	0	0	61	4681
2026-01-03 23:22:07.13	177.54	17.06	-45.4	-47.3	18.8	0.00e+00	0	41	0	0	61	4741
2026-01-03 23:22:07.99	177.60	16.96	-45.4	-47.3	18.7	0.00e+00	0	41	0	0	61	4737
2026-01-03 23:22:09.13	177.67	16.84	-45.5	-47.4	18.8	0.00e+00	0	41	0	0	61	4788
2026-01-03 23:22:09.99	177.72	16.74	-45.5	-47.3	18.7	0.00e+00	0	42	0	0	61	4743
2026-01-03 23:22:11.13	177.80	16.62	-45.6	-47.5	18.7	0.00e+00	0	41	0	0	61	4852
2026-01-03 23:22:12.00	177.85	16.52	-45.5	-47.4	18.8	0.00e+00	0	41	0	0	61	4769
2026-01-03 23:22:13.14	177.92	16.40	-45.5	-47.4	18.7	0.00e+00	0	41	0	0	61	4763
2026-01-03 23:22:14.03	177.98	16.30	-45.6	-47.4	18.7	0.00e+00	0	41	0	0	62	4544
2026-01-03 23:22:15.18	178.05	16.17	-45.6	-47.5	18.6	0.00e+00	0	41	0	0	62	4591
2026-01-03 23:22:16.04	178.10	16.08	-45.5	-47.4	18.6	0.00e+00	0	41	0	0	62	4543
2026-01-03 23:22:17.18	178.17	15.96	-45.6	-47.6	18.6	0.00e+00	0	42	0	0	62	4600
2026-01-03 23:22:18.04	178.22	15.87	-45.7	-47.6	18.5	0.00e+00	0	41	0	0	62	4625
2026-01-03 23:22:19.19	178.28	15.74	-45.7	-47.6	18.5	0.00e+00	0	42	0	0	62	4648
2026-01-03 23:22:20.05	178.34	15.65	-45.7	-47.6	18.5	0.00e+00	0	41	0	0	62	4639
2026-01-03 23:22:21.20	178.40	15.53	-45.8	-47.7	18.4	0.00e+00	0	42	0	0	62	4698
2026-01-03 23:22:22.06	178.45	15.44	-45.8	-47.7	18.4	0.00e+00	0	42	0	0	62	4689
2026-01-03 23:22:23.20	178.52	15.32	-45.9	-47.8	18.4	0.00e+00	0	41	0	0	62	4725
2026-01-03 23:22:24.40	178.59	15.19	-45.8	-47.7	18.5	0.00e+00	0	41	0	0	62	4702
2026-01-03 23:22:25.25	178.64	15.11	-45.8	-47.8	18.4	0.00e+00	0	41	0	0	62	4708
2026-01-03 23:22:26.40	178.70	14.99	-45.8	-47.7	18.5	0.00e+00	0	41	0	0	62	4700
2026-01-03 23:22:27.25	178.75	14.90	-45.7	-47.6	18.6	0.00e+00	0	42	0	0	62	4599
2026-01-03 23:22:28.40	178.81	14.78	-45.7	-47.6	18.5	0.00e+00	0	41	0	0	62	4608
2026-01-03 23:22:29.26	178.86	14.69	-45.7	-47.6	18.5	0.00e+00	0	41	0	0	62	4626
2026-01-03 23:22:30.40	178.92	14.58	-45.7	-47.6	18.5	0.00e+00	0	41	0	0	62	4608
2026-01-03 23:22:31.26	178.97	14.49	-45.7	-47.6	18.4	0.00e+00	0	41	0	0	62	4644
2026-01-03 23:22:32.41	179.03	14.37	-45.7	-47.6	18.5	0.00e+00	0	41	0	0	62	4608
2026-01-03 23:22:33.27	179.08	14.29	-45.7	-47.6	18.4	0.00e+00	0	41	0	0	62	4637
2026-01-03 23:22:34.53	179.15	14.16	-45.8	-47.7	18.4	0.00e+00	0	41	0	0	62	4688
2026-01-03 23:22:35.28	179.19	14.08	-46.0	-47.9	18.3	0.00e+00	0	41	0	0	62	4797
2026-01-03 23:22:36.57	179.25	13.96	-45.6	-47.6	18.4	0.00e+00	0	42	0	0	62	4604
2026-01-03 23:22:37.29	179.29	13.88	-45.7	-47.6	18.3	0.00e+00	0	41	0	0	62	4642
2026-01-03 23:22:38.57	179.36	13.76	-45.7	-47.7	18.3	0.00e+00	0	41	0	0	62	4665
2026-01-03 23:22:39.29	179.40	13.69	-45.6	-47.6	18.3	0.00e+00	0	41	0	0	62	4613
2026-01-03 23:22:40.57	179.46	13.56	-45.7	-47.7	18.2	0.00e+00	0	41	0	0	62	4659
2026-01-03 23:22:41.29	179.50	13.49	-45.7	-47.6	18.2	0.00e+00	0	41	0	0	62	4633
2026-01-03 23:22:42.58	179.56	13.37	-45.6	-47.6	18.2	0.00e+00	0	41	0	0	62	4630
2026-01-03 23:22:43.47	179.61	13.28	-45.7	-47.6	18.2	0.00e+00	0	41	0	0	62	4636
2026-01-03 23:22:44.62	179.67	13.17	-45.8	-47.8	18.1	0.00e+00	0	41	0	0	62	4715
2026-01-03 23:22:45.68	179.72	13.07	-46.1	-48.2	17.9	0.00e+00	0	41	0	0	62	4938
2026-01-03 23:22:46.70	179.77	12.97	-46.1	-48.1	17.9	0.00e+00	0	41	0	0	62	4910
2026-01-03 23:22:47.70	179.82	12.87	-46.0	-47.9	18.1	0.00e+00	0	41	0	0	62	4811
2026-01-03 23:22:48.71	179.87	12.78	-45.8	-47.8	18.3	0.00e+00	0	41	0	0	62	4721
2026-01-03 23:22:49.71	179.92	12.68	-45.8	-47.8	18.3	0.00e+00	0	41	0	0	62	4722
2026-01-03 23:22:50.72	179.97	12.59	-45.9	-47.8	18.3	0.00e+00	0	41	0	0	62	4757
2026-01-03 23:22:51.72	180.02	12.49	-45.9	-47.8	18.3	0.00e+00	0	41	0	0	62	4759
2026-01-03 23:22:52.72	180.06	12.40	-45.9	-47.9	18.3	0.00e+00	0	42	0	0	62	4766
2026-01-03 23:22:53.72	180.11	12.31	-45.9	-47.9	18.2	0.00e+00	0	42	0	0	62	4777
2026-01-03 23:22:54.72	180.16	12.21	-45.7	-47.7	18.4	0.00e+00	0	41	0	0	62	4676
2026-01-03 23:22:55.72	180.21	12.12	-45.8	-47.8	18.2	0.00e+00	0	41	0	0	62	4739
2026-01-03 23:22:56.84	180.26	12.02	-45.8	-47.8	18.2	0.00e+00	0	41	0	0	62	4736
2026-01-03 23:22:57.73	180.30	11.94	-45.8	-47.8	18.3	0.00e+00	0	42	0	0	62	4717
2026-01-03 23:22:58.87	180.35	11.83	-45.9	-47.9	18.2	0.00e+00	0	42	0	0	62	4783
2026-01-03 23:22:59.80	180.39	11.75	-45.9	-47.9	18.2	0.00e+00	0	42	0	0	62	4760
2026-01-03 23:23:00.98	180.45	11.64	-45.8	-47.7	18.3	0.00e+00	0	42	0	0	62	4697
2026-01-03 23:23:01.84	180.49	11.56	-45.9	-47.9	18.2	0.00e+00	0	41	0	0	62	4769
2026-01-03 23:23:02.98	180.54	11.46	-46.0	-48.0	18.1	0.00e+00	0	41	0	0	62	4828
2026-01-03 23:23:03.84	180.58	11.38	-45.9	-47.9	18.2	0.00e+00	0	42	0	0	62	4780
2026-01-03 23:23:04.98	180.63	11.28	-45.9	-47.8	18.3	0.00e+00	0	41	0	0	62	4744
2026-01-03 23:23:05.84	180.67	11.20	-45.9	-47.8	18.3	0.00e+00	0	42	0	0	62	4743
2026-01-03 23:23:06.99	180.72	11.10	-45.8	-47.7	18.3	0.00e+00	0	41	0	0	62	4687
2026-01-03 23:23:07.85	180.75	11.02	-45.7	-47.7	18.3	0.00e+00	0	41	0	0	62	4653
2026-01-03 23:23:09.00	180.80	10.92	-45.7	-47.7	18.3	0.00e+00	0	42	0	0	62	4661
2026-01-03 23:23:09.86	180.84	10.85	-45.7	-47.6	18.3	0.00e+00	0	42	0	0	62	4637
2026-01-03 23:23:11.00	180.89	10.75	-45.8	-47.8	18.2	0.00e+00	0	42	0	0	62	4712
2026-01-03 23:23:11.86	180.93	10.67	-45.6	-47.6	18.3	0.00e+00	0	42	0	0	62	4615
2026-01-03 23:23:13.01	180.98	10.57	-45.8	-47.7	18.2	0.00e+00	0	41	0	0	62	4697
2026-01-03 23:23:13.86	181.01	10.50	-45.7	-47.6	18.2	0.00e+00	0	42	0	0	62	4626
2026-01-03 23:23:15.08	181.06	10.39	-45.8	-47.7	18.1	0.00e+00	0	42	0	0	62	4701
2026-01-03 23:23:15.94	181.10	10.32	-45.7	-47.6	18.2	0.00e+00	0	42	0	0	62	4643
2026-01-03 23:23:17.08	181.15	10.22	-45.8	-47.7	18.2	0.00e+00	0	41	0	0	62	4700
2026-01-03 23:23:17.94	181.18	10.15	-45.8	-47.8	18.0	0.00e+00	0	41	0	0	62	4743
2026-01-03 23:23:19.09	181.23	10.05	-45.9	-47.8	18.0	0.00e+00	0	41	0	0	62	4755
2026-01-03 23:23:19.94	181.27	9.97	-45.9	-47.9	17.9	0.00e+00	0	41	0	0	62	4779
2026-01-03 23:23:21.09	181.31	9.88	-45.8	-47.8	17.9	0.00e+00	0	41	0	0	62	4756
2026-01-03 23:23:22.09	181.35	9.79	-45.9	-47.9	17.8	0.00e+00	0	42	0	0	62	4777
2026-01-03 23:23:23.27	181.40	9.69	-46.1	-48.2	17.6	0.00e+00	0	41	0	0	62	4951
2026-01-03 23:23:24.13	181.44	9.62	-46.0	-48.0	17.7	0.00e+00	0	42	0	0	62	4849
2026-01-03 23:23:25.48	181.49	9.51	-46.1	-48.2	17.6	0.00e+00	0	41	0	0	63	4668
2026-01-03 23:23:26.19	181.52	9.45	-46.2	-48.2	17.5	0.00e+00	0	42	0	0	63	4699
2026-01-03 23:23:27.49	181.57	9.34	-46.3	-48.4	17.4	0.00e+00	0	42	0	0	63	4809
2026-01-03 23:23:28.20	181.60	9.28	-46.2	-48.3	17.4	0.00e+00	0	42	0	0	63	4741
2026-01-03 23:23:29.49	181.65	9.18	-46.4	-48.6	17.2	0.00e+00	0	41	0	0	63	4899
2026-01-03 23:23:30.21	181.67	9.12	-46.5	-48.6	17.2	0.00e+00	0	42	0	0	63	4924
2026-01-03 23:23:31.50	181.72	9.01	-47.1	-49.4	16.5	0.00e+00	0	42	0	0	64	5044
2026-01-03 23:23:32.22	181.75	8.95	-53.7	-66.6	3.8	9.91e-01	0	41	104	0	78	16496
2026-01-03 23:23:33.51	181.80	8.85	-54.1	-67.4	3.8	1.49e+00	0	42	104	0	79	16968
2026-01-03 23:23:34.23	181.83	8.79	-54.5	-67.6	3.8	1.49e+00	0	42	104	0	79	17349
2026-01-03 23:23:35.60	181.88	8.68	-54.4	-67.6	3.8	1.49e+00	0	42	104	0	79	17434
2026-01-03 23:23:36.31	181.91	8.62	-54.5	-67.6	3.8	1.49e+00	0	42	104	0	80	16450
2026-01-03 23:23:37.69	181.96	8.51	-54.6	-67.6	3.8	1.49e+00	0	42	104	0	80	16478
2026-01-03 23:23:38.40	181.99	8.45	-54.4	-67.6	3.8	1.49e+00	0	42	104	0	80	16371
2026-01-03 23:23:39.76	182.04	8.34	-54.6	-67.6	3.8	1.49e+00	0	41	104	0	80	16370
2026-01-03 23:23:40.48	182.06	8.29	-54.7	-67.6	3.8	1.49e+00	0	41	104	0	80	16418
2026-01-03 23:23:41.83	182.11	8.18	-54.6	-67.6	3.8	1.49e+00	0	41	104	0	80	16463
2026-01-03 23:23:42.54	182.14	8.12	-54.8	-67.8	3.8	1.49e+00	0	42	104	0	80	16719
2026-01-03 23:23:43.84	182.18	8.02	-54.9	-67.8	3.8	1.49e+00	0	42	104	0	80	16785
2026-01-03 23:23:44.55	182.21	7.96	-54.9	-67.8	3.8	1.49e+00	0	42	104	0	80	16832
2026-01-03 23:23:45.84	182.26	7.86	-54.9	-67.8	3.8	1.49e+00	0	42	104	0	80	16867
2026-01-03 23:23:46.56	182.28	7.81	-55.0	-67.9	3.8	1.49e+00	0	42	104	0	80	16937
2026-01-03 23:23:47.85	182.33	7.70	-55.1	-68.0	3.8	1.49e+00	0	42	104	0	80	17100
2026-01-03 23:23:48.57	182.35	7.65	-55.0	-67.9	3.8	1.49e+00	0	42	104	0	80	17027
2026-01-03 23:23:49.86	182.40	7.55	-55.1	-68.0	3.8	1.49e+00	0	42	104	0	81	16305
2026-01-03 23:23:50.58	182.42	7.49	-55.0	-68.0	3.8	1.49e+00	0	42	104	0	81	16301
2026-01-03 23:23:51.87	182.47	7.39	-55.1	-68.1	3.8	1.49e+00	0	42	104	0	81	16329
2026-01-03 23:23:52.59	182.49	7.34	-55.1	-68.0	3.8	1.49e+00	0	42	104	0	81	16222
2026-01-03 23:23:53.88	182.54	7.24	-55.0	-67.9	3.8	1.49e+00	0	42	104	0	81	16121
2026-01-03 23:23:54.60	182.56	7.18	-54.8	-68.0	3.8	1.49e+00	0	42	104	0	81	16129
2026-01-03 23:23:55.88	182.61	7.09	-54.9	-67.9	3.8	1.49e+00	0	42	104	0	81	16013
2026-01-03 23:23:56.60	182.63	7.03	-55.0	-68.0	3.8	1.49e+00	0	42	104	0	81	16162
2026-01-03 23:23:57.89	182.68	6.93	-54.8	-68.0	3.8	1.49e+00	0	42	104	0	81	16149
2026-01-03 23:23:58.61	182.70	6.88	-54.8	-67.9	3.8	1.49e+00	0	42	104	0	81	16047
2026-01-03 23:23:59.90	182.74	6.78	-54.7	-67.9	3.8	1.49e+00	0	42	104	0	80	17010
2026-01-03 23:24:00.62	182.77	6.73	-54.6	-67.9	3.8	1.49e+00	0	42	104	0	80	16914
2026-01-03 23:24:01.91	182.81	6.63	-54.5	-67.8	3.8	1.49e+00	0	42	104	0	80	16836
2026-01-03 23:24:02.63	182.83	6.58	-54.4	-67.7	3.8	1.49e+00	0	42	104	0	80	16528
2026-01-03 23:24:03.92	182.88	6.48	-54.3	-67.6	3.8	1.49e+00	0	42	104	0	80	16355
2026-01-03 23:24:04.64	182.90	6.43	-54.4	-67.7	3.8	1.49e+00	0	42	104	0	80	16603
2026-01-03 23:24:05.93	182.94	6.33	-54.3	-67.6	3.8	1.49e+00	0	41	104	0	80	16342
2026-01-03 23:24:06.65	182.97	6.28	-54.5	-67.8	3.8	1.49e+00	0	42	104	0	80	16741
2026-01-03 23:24:07.94	183.01	6.18	-54.8	-68.0	3.8	1.49e+00	0	42	104	0	80	17267
2026-01-03 23:24:08.65	183.03	6.13	-54.8	-68.0	3.8	1.49e+00	0	42	104	0	80	17240
2026-01-03 23:24:09.94	183.07	6.04	-54.6	-67.9	3.8	1.49e+00	0	42	104	0	80	16972
2026-01-03 23:24:10.66	183.09	5.99	-54.6	-67.8	3.8	1.49e+00	0	42	104	0	80	16796
2026-01-03 23:24:11.95	183.14	5.89	-54.5	-67.8	3.8	1.49e+00	0	42	104	0	80	16712
2026-01-03 23:24:12.67	183.16	5.84	-54.5	-67.8	3.8	1.49e+00	0	42	104	0	80	16737
2026-01-03 23:24:13.96	183.20	5.75	-54.6	-67.8	3.8	1.49e+00	0	42	104	0	80	16826
2026-01-03 23:24:14.68	183.22	5.69	-54.7	-67.9	3.8	1.49e+00	0	42	104	0	80	16991
2026-01-03 23:24:15.97	183.26	5.60	-54.7	-68.0	3.8	1.49e+00	0	41	104	0	80	17108
2026-01-03 23:24:16.69	183.28	5.55	-54.6	-67.9	3.8	1.49e+00	0	42	104	0	80	16982
2026-01-03 23:24:17.98	183.32	5.46	-54.6	-67.9	3.8	1.49e+00	0	42	104	0	80	16979
2026-01-03 23:24:18.70	183.35	5.40	-54.6	-67.9	3.8	1.49e+00	0	42	104	0	80	16902
2026-01-03 23:24:19.99	183.38	5.31	-54.7	-68.0	3.8	1.49e+00	0	42	104	0	80	17085
2026-01-03 23:24:20.70	183.41	5.26	-54.7	-67.9	3.8	1.49e+00	0	42	104	0	80	16952
2026-01-03 23:24:21.99	183.45	5.17	-54.5	-67.8	3.8	1.49e+00	0	42	104	0	80	16765
2026-01-03 23:24:22.71	183.47	5.12	-54.5	-67.8	3.8	1.49e+00	0	42	104	0	80	16771
2026-01-03 23:24:24.00	183.51	5.03	-54.6	-67.8	3.8	1.49e+00	0	42	104	0	80	16855
2026-01-03 23:24:24.72	183.53	4.98	-54.6	-67.8	3.8	1.49e+00	0	42	104	0	80	16803

#Closed at: 2026-01-03 23:24:26
#Recorded file [0 MB]: D:/Data/31040_260104_021135.dat