passes_logs/2026/01/03/T1/T1__20260103_065616_NOAA_20_JPSS-1_rec.log

#Pass ID: 20260103_065616_NOAA 20 (JPSS-1)
#Satellite: NOAA 20 (JPSS-1)
#Configuration: NOAA 20
#almurnet v.1.7.20251203
#Start time: 2026-01-03 06:56:17

#Version: 2.0.20230620
#Station: T1
#Location: 37.570604 lon 55.790049 lat
#TLE: 1 43013U 17073A   26002.21975278  .00000202  00000+0  11669-3 0  9999
#TLE: 2 43013  98.7622 303.2950 0001915  57.9213 302.2149 14.19532512420923

#Time	Az	El	Level	Level2	SNR	BER	BlckErr	Temp	State	Recorded	gain1	gain2
2026-01-03 06:56:17.10	59.95	5.01	-53.5	-68.8	3.8	1.49e+00	0	42	0	0	77	22518
2026-01-03 06:56:18.10	59.82	5.04	-52.7	-68.0	3.8	1.49e+00	0	42	104	0	76	21752
2026-01-03 06:56:19.11	59.68	5.07	-52.8	-68.1	3.8	1.49e+00	0	42	104	0	76	21785
2026-01-03 06:56:20.11	59.55	5.11	-53.1	-68.2	3.8	1.49e+00	0	42	104	0	77	20803
2026-01-03 06:56:21.12	59.41	5.14	-52.7	-68.0	3.8	1.49e+00	0	42	104	0	77	20343
2026-01-03 06:56:22.12	59.27	5.17	-52.8	-68.1	3.8	1.49e+00	0	41	104	0	77	20656
2026-01-03 06:56:23.12	59.14	5.21	-52.4	-67.7	3.8	1.49e+00	0	41	104	0	75	22140
2026-01-03 06:56:24.13	59.00	5.24	-52.5	-67.8	3.8	1.49e+00	0	41	104	0	75	22264
2026-01-03 06:56:25.13	58.87	5.27	-52.4	-67.7	3.8	1.49e+00	0	41	104	0	75	22085
2026-01-03 06:56:26.14	58.73	5.30	-53.6	-68.9	3.8	1.49e+00	0	41	104	0	77	22603
2026-01-03 06:56:27.14	58.59	5.34	-54.1	-69.4	3.8	1.49e+00	0	41	104	0	78	22572
2026-01-03 06:56:28.14	58.45	5.37	-53.8	-69.1	3.8	1.49e+00	0	41	104	0	78	21778
2026-01-03 06:56:29.15	58.31	5.40	-53.5	-68.8	3.8	1.49e+00	0	41	104	0	78	21090
2026-01-03 06:56:30.15	58.18	5.43	-53.7	-68.9	3.8	1.49e+00	0	41	104	0	78	21437
2026-01-03 06:56:31.16	58.04	5.47	-53.9	-69.2	3.8	1.49e+00	0	41	104	0	78	22171
2026-01-03 06:56:32.16	57.90	5.50	-52.8	-68.1	3.8	1.49e+00	0	41	104	0	76	21943
2026-01-03 06:56:33.17	57.76	5.53	-53.1	-68.4	3.8	1.49e+00	0	41	104	0	77	21371
2026-01-03 06:56:34.17	57.62	5.56	-53.3	-68.6	3.8	1.49e+00	0	41	104	0	77	21867
2026-01-03 06:56:35.18	57.48	5.59	-53.3	-68.6	3.8	1.49e+00	0	41	104	0	77	21939
2026-01-03 06:56:36.18	57.34	5.62	-53.3	-68.5	3.8	1.49e+00	0	41	104	0	77	21722
2026-01-03 06:56:37.18	57.20	5.66	-53.3	-68.6	3.8	1.49e+00	0	41	104	0	77	21865
2026-01-03 06:56:38.19	57.06	5.69	-53.2	-68.5	3.8	1.49e+00	0	41	104	0	77	21643
2026-01-03 06:56:39.19	56.92	5.72	-53.0	-68.4	3.8	1.49e+00	0	41	104	0	77	21274
2026-01-03 06:56:40.20	56.78	5.75	-53.8	-69.0	3.8	1.49e+00	0	41	104	0	78	21611
2026-01-03 06:56:41.20	56.64	5.78	-53.4	-68.8	3.8	1.49e+00	0	41	104	0	78	21185
2026-01-03 06:56:42.21	56.49	5.81	-53.6	-68.9	3.8	1.49e+00	0	41	104	0	78	21394
2026-01-03 06:56:43.21	56.35	5.84	-53.8	-69.1	3.8	1.49e+00	0	40	104	0	78	21870
2026-01-03 06:56:44.21	56.21	5.87	-53.3	-68.6	3.8	1.49e+00	0	41	104	0	77	21873
2026-01-03 06:56:45.22	56.07	5.90	-53.2	-68.5	3.8	1.49e+00	0	41	104	0	77	21649
2026-01-03 06:56:46.22	55.92	5.93	-53.2	-68.5	3.8	1.49e+00	0	41	104	0	77	21728
2026-01-03 06:56:47.22	55.78	5.96	-53.6	-69.0	3.8	1.49e+00	0	41	104	0	78	21543
2026-01-03 06:56:48.23	55.64	5.99	-53.7	-69.0	3.8	1.49e+00	0	40	104	0	78	21550
2026-01-03 06:56:49.23	55.49	6.02	-53.6	-68.9	3.8	1.49e+00	0	40	104	0	77	22533
2026-01-03 06:56:50.24	55.35	6.05	-49.7	-67.5	3.8	1.49e+00	0	41	104	0	77	19387
2026-01-03 06:56:51.24	55.20	6.08	-53.0	-68.3	3.8	1.49e+00	0	41	104	0	77	21064
2026-01-03 06:56:52.25	55.06	6.11	-53.3	-68.6	3.8	1.49e+00	0	41	104	0	78	20605
2026-01-03 06:56:53.25	54.91	6.14	-53.3	-68.5	3.8	1.49e+00	0	40	104	0	77	21712
2026-01-03 06:56:54.25	54.77	6.17	-53.3	-68.6	3.8	1.49e+00	0	40	104	0	77	21932
2026-01-03 06:56:55.26	54.62	6.20	-53.0	-68.3	3.8	1.49e+00	0	40	104	0	77	21092
2026-01-03 06:56:56.26	54.47	6.23	-53.2	-68.4	3.8	1.49e+00	0	41	104	0	77	21498
2026-01-03 06:56:57.27	54.33	6.26	-53.2	-68.5	3.8	1.49e+00	0	40	104	0	77	21737
2026-01-03 06:56:58.27	54.18	6.28	-53.2	-68.5	3.8	1.49e+00	0	40	104	0	77	21707
2026-01-03 06:56:59.28	54.03	6.31	-53.9	-69.2	3.8	1.49e+00	0	40	104	0	78	22055
2026-01-03 06:57:00.28	53.89	6.34	-53.3	-68.6	3.8	1.49e+00	0	40	104	0	78	20634
2026-01-03 06:57:01.29	53.74	6.37	-53.1	-68.4	3.8	1.49e+00	0	40	104	0	78	20149
2026-01-03 06:57:02.29	53.59	6.40	-53.3	-68.5	3.8	1.49e+00	0	40	104	0	78	20504
2026-01-03 06:57:03.30	53.44	6.43	-53.2	-68.5	3.8	1.49e+00	0	40	104	0	78	20420
2026-01-03 06:57:04.30	53.29	6.45	-53.2	-68.5	3.8	1.49e+00	0	40	104	0	78	20441
2026-01-03 06:57:05.30	53.15	6.48	-53.0	-68.3	3.8	1.49e+00	0	40	104	0	77	21044
2026-01-03 06:57:06.31	53.00	6.51	-53.3	-68.6	3.8	1.49e+00	0	40	104	0	77	21842
2026-01-03 06:57:07.31	52.85	6.54	-53.3	-68.6	3.8	1.49e+00	0	40	104	0	77	21769
2026-01-03 06:57:08.32	52.70	6.56	-53.2	-68.5	3.9	1.49e+00	0	40	104	0	77	21563
2026-01-03 06:57:09.32	52.55	6.59	-53.4	-68.7	3.8	1.49e+00	0	40	104	0	78	20919
2026-01-03 06:57:10.33	52.40	6.62	-53.1	-68.4	3.8	1.49e+00	0	40	104	0	77	21449
2026-01-03 06:57:11.33	52.25	6.64	-53.3	-68.6	3.8	1.49e+00	0	40	104	0	77	21802
2026-01-03 06:57:12.34	52.10	6.67	-53.4	-68.8	3.8	1.49e+00	0	40	104	0	77	22279
2026-01-03 06:57:13.34	51.95	6.70	-53.3	-68.5	3.8	1.49e+00	0	40	104	0	78	20505
2026-01-03 06:57:14.35	51.79	6.72	-53.3	-68.6	3.8	1.49e+00	0	40	104	0	77	21763
2026-01-03 06:57:15.35	51.64	6.75	-53.3	-68.6	3.8	1.49e+00	0	40	104	0	77	21777
2026-01-03 06:57:16.35	51.49	6.77	-53.2	-68.4	3.8	1.49e+00	0	40	104	0	78	20223
2026-01-03 06:57:17.36	51.34	6.80	-53.0	-68.3	3.8	1.49e+00	0	40	104	0	77	21235
2026-01-03 06:57:18.36	51.19	6.82	-52.7	-68.0	3.8	1.49e+00	0	40	104	0	77	20379
2026-01-03 06:57:19.37	51.03	6.85	-52.8	-68.0	3.8	1.49e+00	0	40	104	0	76	21665
2026-01-03 06:57:20.37	50.88	6.88	-52.5	-67.8	3.8	1.49e+00	0	40	104	0	76	21057
2026-01-03 06:57:21.38	50.73	6.90	-52.4	-67.7	3.8	1.49e+00	0	40	104	0	76	20841
2026-01-03 06:57:22.38	50.57	6.93	-52.5	-67.8	3.8	1.49e+00	0	40	104	0	76	21027
2026-01-03 06:57:23.39	50.42	6.95	-52.7	-68.3	3.8	1.49e+00	0	40	104	0	76	22313
2026-01-03 06:57:24.39	50.27	6.97	-53.5	-68.8	3.8	1.49e+00	0	40	104	0	77	22313
2026-01-03 06:57:25.40	50.11	7.00	-53.4	-68.7	3.8	1.49e+00	0	40	104	0	77	22110
2026-01-03 06:57:26.40	49.96	7.02	-53.5	-68.8	3.8	1.49e+00	0	40	104	0	77	22335
2026-01-03 06:57:27.40	49.80	7.05	-53.5	-68.8	3.8	1.49e+00	0	40	104	0	77	22368
2026-01-03 06:57:28.41	49.65	7.07	-53.6	-68.8	3.8	1.49e+00	0	40	104	0	77	22385
2026-01-03 06:57:29.41	49.49	7.09	-53.4	-68.6	3.8	1.49e+00	0	40	104	0	77	21978
2026-01-03 06:57:30.42	49.34	7.12	-53.4	-68.6	3.8	1.49e+00	0	40	104	0	77	21999
2026-01-03 06:57:31.42	49.18	7.14	-53.4	-68.6	3.8	1.49e+00	0	40	104	0	77	21974
2026-01-03 06:57:32.43	49.02	7.16	-53.4	-68.6	3.8	1.49e+00	0	40	104	0	77	21877
2026-01-03 06:57:33.43	48.87	7.19	-53.4	-68.7	3.8	1.49e+00	0	40	104	0	77	22080
2026-01-03 06:57:34.43	48.71	7.21	-53.5	-68.8	3.8	1.49e+00	0	40	104	0	77	22267
2026-01-03 06:57:35.44	48.55	7.23	-53.5	-68.8	3.8	1.49e+00	0	40	104	0	77	22475
2026-01-03 06:57:36.44	48.40	7.25	-53.4	-68.7	3.8	1.49e+00	0	40	104	0	77	22037
2026-01-03 06:57:37.45	48.24	7.28	-53.3	-68.6	3.8	1.49e+00	0	40	104	0	77	21964
2026-01-03 06:57:38.45	48.08	7.30	-53.3	-68.6	3.8	1.49e+00	0	40	104	0	77	21780
2026-01-03 06:57:39.46	47.93	7.32	-53.5	-68.7	3.8	1.49e+00	0	40	104	0	77	22215
2026-01-03 06:57:40.46	47.77	7.34	-53.4	-68.7	3.8	1.49e+00	0	40	104	0	77	22063
2026-01-03 06:57:41.46	47.61	7.36	-53.3	-68.6	3.8	1.49e+00	0	40	104	0	77	21779
2026-01-03 06:57:42.47	47.45	7.39	-53.4	-68.7	3.8	1.49e+00	0	40	104	0	77	22118
2026-01-03 06:57:43.47	47.29	7.41	-53.4	-68.7	3.8	1.49e+00	0	40	104	0	77	22070
2026-01-03 06:57:44.48	47.13	7.43	-53.3	-68.6	3.8	1.49e+00	0	40	104	0	77	21842
2026-01-03 06:57:45.48	46.97	7.45	-53.4	-68.7	3.8	1.49e+00	0	40	104	0	77	22085
2026-01-03 06:57:46.49	46.81	7.47	-53.3	-68.6	3.8	1.49e+00	0	40	104	0	77	21961
2026-01-03 06:57:47.49	46.66	7.49	-53.4	-68.7	3.8	1.49e+00	0	40	104	0	77	22123
2026-01-03 06:57:48.50	46.49	7.51	-53.4	-68.6	3.8	1.49e+00	0	40	104	0	77	21973
2026-01-03 06:57:49.50	46.34	7.53	-53.4	-68.7	3.8	1.49e+00	0	40	104	0	77	22120
2026-01-03 06:57:50.51	46.17	7.55	-53.5	-68.8	3.8	1.49e+00	0	40	104	0	77	22279
2026-01-03 06:57:51.51	46.01	7.57	-53.4	-68.7	3.8	1.49e+00	0	40	104	0	77	22013
2026-01-03 06:57:52.51	45.85	7.59	-53.3	-68.6	3.8	1.49e+00	0	40	104	0	77	21931
2026-01-03 06:57:53.52	45.69	7.61	-53.3	-68.6	3.8	1.49e+00	0	40	104	0	77	21908
2026-01-03 06:57:54.52	45.53	7.63	-53.4	-68.7	3.8	1.49e+00	0	40	104	0	77	22010
2026-01-03 06:57:55.53	45.37	7.65	-53.3	-68.6	3.8	1.49e+00	0	40	104	0	77	21899
2026-01-03 06:57:56.53	45.21	7.66	-52.9	-68.2	3.8	1.49e+00	0	40	104	0	76	22034
2026-01-03 06:57:57.53	45.05	7.68	-52.9	-68.2	3.8	1.49e+00	0	40	104	0	76	22105
2026-01-03 06:57:58.54	44.89	7.70	-52.9	-68.2	3.8	1.49e+00	0	40	104	0	76	22148
2026-01-03 06:57:59.54	44.72	7.72	-53.0	-68.3	3.8	1.49e+00	0	39	104	0	76	22411
2026-01-03 06:58:00.55	44.56	7.74	-52.9	-68.2	3.8	1.49e+00	0	40	104	0	76	22018
2026-01-03 06:58:01.55	44.40	7.75	-53.0	-68.3	3.8	1.49e+00	0	40	104	0	76	22265
2026-01-03 06:58:02.56	44.24	7.77	-52.8	-68.1	3.8	1.49e+00	0	40	104	0	76	21821
2026-01-03 06:58:03.56	44.07	7.79	-52.9	-68.2	3.8	1.49e+00	0	40	104	0	77	20870
2026-01-03 06:58:04.56	43.91	7.80	-52.9	-68.2	3.8	1.49e+00	0	40	104	0	77	20892
2026-01-03 06:58:05.57	43.75	7.82	-52.9	-68.2	3.8	1.49e+00	0	40	104	0	77	20895
2026-01-03 06:58:06.57	43.58	7.84	-53.0	-68.2	3.8	1.49e+00	0	40	104	0	77	21006
2026-01-03 06:58:07.58	43.42	7.85	-52.9	-68.2	3.8	1.49e+00	0	39	104	0	77	20850
2026-01-03 06:58:08.58	43.26	7.87	-52.9	-68.2	3.8	1.49e+00	0	40	104	0	77	20810
2026-01-03 06:58:09.59	43.09	7.89	-52.9	-68.2	3.8	1.49e+00	0	39	104	0	77	20869
2026-01-03 06:58:10.59	42.93	7.90	-52.2	-67.4	3.8	1.49e+00	0	39	104	0	76	20289
2026-01-03 06:58:11.59	42.76	7.92	-52.9	-68.2	3.8	1.49e+00	0	39	104	0	76	22255
2026-01-03 06:58:12.60	42.60	7.93	-53.0	-68.2	3.7	1.49e+00	0	40	104	0	76	22206
2026-01-03 06:58:13.60	42.43	7.95	-52.1	-67.5	3.8	1.49e+00	0	40	104	0	76	20331
2026-01-03 06:58:14.61	42.27	7.96	-52.6	-67.9	3.8	1.49e+00	0	40	104	0	76	21399
2026-01-03 06:58:15.61	42.10	7.98	-52.2	-67.5	3.8	1.49e+00	0	40	104	0	75	21722
2026-01-03 06:58:16.61	41.94	7.99	-52.6	-67.9	3.8	1.49e+00	0	39	104	0	75	22532
2026-01-03 06:58:17.62	41.77	8.01	-52.8	-68.1	3.8	1.49e+00	0	40	104	0	76	21876
2026-01-03 06:58:18.62	41.61	8.02	-52.8	-68.0	3.8	1.49e+00	0	39	104	0	76	21722
2026-01-03 06:58:19.63	41.44	8.03	-52.5	-67.8	3.8	1.49e+00	0	39	104	0	76	21031
2026-01-03 06:58:20.63	41.28	8.05	-52.6	-67.9	3.8	1.49e+00	0	40	104	0	76	21282
2026-01-03 06:58:21.64	41.11	8.06	-52.5	-67.8	3.8	1.49e+00	0	40	104	0	76	21154
2026-01-03 06:58:22.64	40.94	8.07	-52.5	-67.7	3.8	1.49e+00	0	39	104	0	76	21004
2026-01-03 06:58:23.65	40.78	8.09	-52.6	-67.8	3.8	1.49e+00	0	40	104	0	76	21183
2026-01-03 06:58:24.65	40.61	8.10	-52.5	-67.8	3.8	1.49e+00	0	40	104	0	76	21194
2026-01-03 06:58:25.65	40.44	8.11	-52.5	-67.8	3.8	1.49e+00	0	40	104	0	76	21205
2026-01-03 06:58:26.66	40.28	8.12	-52.5	-67.8	3.8	1.49e+00	0	39	104	0	76	21102
2026-01-03 06:58:27.66	40.11	8.14	-52.5	-67.8	3.8	1.49e+00	0	39	104	0	76	21154
2026-01-03 06:58:28.67	39.94	8.15	-52.5	-67.8	3.8	1.49e+00	0	40	104	0	76	21200
2026-01-03 06:58:29.67	39.78	8.16	-52.6	-67.8	3.8	1.49e+00	0	39	104	0	76	21196
2026-01-03 06:58:30.68	39.61	8.17	-52.6	-67.8	3.8	1.49e+00	0	40	104	0	76	21258
2026-01-03 06:58:31.68	39.44	8.18	-52.5	-67.8	3.8	1.49e+00	0	40	104	0	76	21081
2026-01-03 06:58:32.69	39.27	8.19	-52.5	-67.8	3.8	1.49e+00	0	40	104	0	76	21056
2026-01-03 06:58:33.69	39.11	8.20	-52.5	-67.8	3.8	1.49e+00	0	40	104	0	76	21158
2026-01-03 06:58:34.69	38.94	8.21	-52.6	-67.9	3.8	1.49e+00	0	39	104	0	76	21351
2026-01-03 06:58:35.70	38.77	8.22	-52.6	-67.9	3.8	1.49e+00	0	40	104	0	76	21313
2026-01-03 06:58:36.70	38.60	8.23	-52.5	-67.8	3.8	1.49e+00	0	39	104	0	76	21211
2026-01-03 06:58:37.71	38.43	8.24	-52.5	-67.8	3.8	1.49e+00	0	39	104	0	76	21174
2026-01-03 06:58:38.71	38.27	8.25	-52.5	-67.8	3.8	1.49e+00	0	39	104	0	76	21222
2026-01-03 06:58:39.71	38.10	8.26	-52.6	-67.8	3.8	1.49e+00	0	40	104	0	76	21204
2026-01-03 06:58:40.72	37.93	8.27	-52.5	-67.9	3.8	1.49e+00	0	39	104	0	76	21310
2026-01-03 06:58:41.72	37.76	8.28	-52.5	-67.9	3.8	1.49e+00	0	39	104	0	76	21303
2026-01-03 06:58:42.73	37.59	8.29	-52.5	-67.8	3.8	1.49e+00	0	39	104	0	76	21248
2026-01-03 06:58:43.73	37.42	8.30	-52.6	-67.9	3.8	1.49e+00	0	39	104	0	76	21271
2026-01-03 06:58:44.74	37.25	8.31	-52.5	-67.8	3.8	1.49e+00	0	39	104	0	76	21149
2026-01-03 06:58:45.74	37.09	8.31	-52.5	-67.8	3.8	1.49e+00	0	39	104	0	76	21174
2026-01-03 06:58:46.74	36.92	8.32	-52.5	-67.8	3.8	1.49e+00	0	39	104	0	76	21154
2026-01-03 06:58:47.75	36.75	8.33	-52.5	-67.8	3.8	1.49e+00	0	39	104	0	76	21163
2026-01-03 06:58:48.75	36.58	8.34	-52.5	-67.8	3.8	1.49e+00	0	39	104	0	76	21074
2026-01-03 06:58:49.75	36.41	8.34	-52.5	-67.8	3.8	1.49e+00	0	39	104	0	75	22464
2026-01-03 06:58:50.76	36.24	8.35	-52.6	-67.8	3.8	1.49e+00	0	40	104	0	75	22453
2026-01-03 06:58:51.76	36.07	8.36	-52.5	-67.8	3.8	1.49e+00	0	40	104	0	75	22341
2026-01-03 06:58:52.77	35.90	8.36	-52.5	-67.8	3.8	1.49e+00	0	40	104	0	75	22352
2026-01-03 06:58:53.77	35.73	8.37	-52.2	-67.5	3.8	1.49e+00	0	39	104	0	75	21674
2026-01-03 06:58:54.78	35.56	8.37	-52.2	-67.5	3.8	1.49e+00	0	40	104	0	75	21508
2026-01-03 06:58:55.78	35.39	8.38	-52.2	-67.5	3.8	1.49e+00	0	39	104	0	75	21593
2026-01-03 06:58:56.79	35.22	8.39	-52.2	-67.5	3.8	1.49e+00	0	40	104	0	75	21730
2026-01-03 06:58:57.79	35.05	8.39	-52.3	-67.6	3.8	1.49e+00	0	39	104	0	75	21850
2026-01-03 06:58:58.79	34.88	8.40	-52.3	-67.6	3.8	1.49e+00	0	40	104	0	75	21900
2026-01-03 06:58:59.80	34.71	8.40	-52.1	-67.4	3.8	1.49e+00	0	40	104	0	75	21365
2026-01-03 06:59:00.80	34.54	8.40	-52.3	-67.6	3.8	1.49e+00	0	40	104	0	75	21879
2026-01-03 06:59:01.81	34.37	8.41	-52.1	-67.4	3.8	1.49e+00	0	39	104	0	75	21340
2026-01-03 06:59:02.81	34.20	8.41	-52.2	-67.4	3.8	1.49e+00	0	39	104	0	75	21454
2026-01-03 06:59:03.82	34.03	8.42	-52.2	-67.5	3.8	1.49e+00	0	39	104	0	75	21514
2026-01-03 06:59:04.82	33.86	8.42	-52.2	-67.5	3.8	1.49e+00	0	39	104	0	75	21673
2026-01-03 06:59:05.83	33.69	8.42	-52.2	-67.5	3.8	1.49e+00	0	39	104	0	75	21696
2026-01-03 06:59:06.83	33.52	8.43	-52.2	-67.5	3.8	1.49e+00	0	39	104	0	75	21683
2026-01-03 06:59:07.83	33.35	8.43	-52.2	-67.5	3.8	1.49e+00	0	40	104	0	75	21726
2026-01-03 06:59:08.84	33.18	8.43	-52.3	-67.5	3.8	1.49e+00	0	40	104	0	75	21729
2026-01-03 06:59:09.84	33.01	8.43	-52.3	-67.6	3.8	1.49e+00	0	40	104	0	75	21909
2026-01-03 06:59:10.84	32.84	8.43	-52.3	-67.6	3.8	1.49e+00	0	40	104	0	75	21850
2026-01-03 06:59:11.85	32.67	8.44	-52.3	-67.6	3.8	1.49e+00	0	39	104	0	75	21821
2026-01-03 06:59:12.85	32.50	8.44	-52.3	-67.6	3.8	1.49e+00	0	39	104	0	75	21879
2026-01-03 06:59:13.85	32.33	8.44	-52.3	-67.6	3.8	1.49e+00	0	39	104	0	75	21866
2026-01-03 06:59:14.86	32.16	8.44	-52.3	-67.6	3.8	1.49e+00	0	40	104	0	75	21992
2026-01-03 06:59:15.86	31.99	8.44	-52.4	-67.6	3.8	1.49e+00	0	39	104	0	75	21826
2026-01-03 06:59:16.87	31.82	8.44	-52.3	-67.6	3.8	1.49e+00	0	40	104	0	75	21835
2026-01-03 06:59:17.87	31.65	8.44	-52.3	-67.6	3.8	1.49e+00	0	40	104	0	75	21921
2026-01-03 06:59:18.88	31.48	8.44	-52.3	-67.6	3.8	1.49e+00	0	40	104	0	75	21818
2026-01-03 06:59:19.88	31.31	8.44	-52.3	-67.6	3.8	1.49e+00	0	40	104	0	75	21887
2026-01-03 06:59:20.89	31.13	8.44	-52.3	-67.6	3.8	1.49e+00	0	39	104	0	75	21853
2026-01-03 06:59:21.89	30.96	8.44	-52.3	-67.6	3.8	1.49e+00	0	39	104	0	75	21830
2026-01-03 06:59:22.89	30.80	8.44	-52.3	-67.6	3.8	1.49e+00	0	39	104	0	75	21908
2026-01-03 06:59:23.90	30.62	8.44	-52.3	-67.6	3.8	1.49e+00	0	40	104	0	75	21900
2026-01-03 06:59:24.90	30.45	8.44	-52.3	-67.5	3.8	1.49e+00	0	39	104	0	75	21748
2026-01-03 06:59:25.91	30.28	8.44	-52.3	-67.6	3.8	1.49e+00	0	39	104	0	75	21812
2026-01-03 06:59:26.91	30.11	8.43	-52.3	-67.6	3.8	1.49e+00	0	39	104	0	75	21904
2026-01-03 06:59:27.91	29.94	8.43	-52.3	-67.6	3.8	1.49e+00	0	39	104	0	75	21881
2026-01-03 06:59:28.92	29.77	8.43	-52.3	-67.6	3.8	1.49e+00	0	39	104	0	75	21920
2026-01-03 06:59:29.92	29.60	8.43	-52.3	-67.6	3.8	1.49e+00	0	39	104	0	75	21857
2026-01-03 06:59:30.93	29.43	8.42	-52.3	-67.6	3.8	1.49e+00	0	39	104	0	75	21759
2026-01-03 06:59:31.93	29.26	8.42	-52.3	-67.6	3.8	1.49e+00	0	39	104	0	75	21850
2026-01-03 06:59:32.94	29.09	8.42	-52.3	-67.6	3.8	1.49e+00	0	39	104	0	75	21863
2026-01-03 06:59:33.94	28.92	8.41	-52.3	-67.6	3.8	1.49e+00	0	39	104	0	75	21963
2026-01-03 06:59:34.94	28.75	8.41	-52.3	-67.6	3.8	1.49e+00	0	39	104	0	75	21913
2026-01-03 06:59:35.95	28.58	8.41	-52.3	-67.6	3.8	1.49e+00	0	39	104	0	75	21824
2026-01-03 06:59:36.95	28.41	8.40	-52.3	-67.6	3.8	1.49e+00	0	39	104	0	75	21833
2026-01-03 06:59:37.96	28.24	8.40	-52.3	-67.6	3.8	1.49e+00	0	39	104	0	75	21831
2026-01-03 06:59:38.96	28.07	8.39	-52.3	-67.6	3.8	1.49e+00	0	39	104	0	75	21899
2026-01-03 06:59:39.97	27.90	8.39	-52.3	-67.6	3.8	1.49e+00	0	39	104	0	75	21951
2026-01-03 06:59:40.97	27.73	8.38	-52.3	-67.6	3.8	1.49e+00	0	39	104	0	75	21959
2026-01-03 06:59:41.98	27.56	8.38	-52.3	-67.6	3.8	1.49e+00	0	39	104	0	75	21877
2026-01-03 06:59:42.98	27.39	8.37	-52.3	-67.6	3.8	1.49e+00	0	39	104	0	75	21867
2026-01-03 06:59:43.99	27.22	8.37	-52.3	-67.6	3.8	1.49e+00	0	39	104	0	75	21809
2026-01-03 06:59:44.99	27.05	8.36	-52.3	-67.6	3.8	1.49e+00	0	39	104	0	75	21863
2026-01-03 06:59:45.99	26.88	8.35	-52.3	-67.6	3.8	1.49e+00	0	39	104	0	75	21909
2026-01-03 06:59:47.00	26.71	8.35	-52.3	-67.6	3.8	1.49e+00	0	39	104	0	75	21915
2026-01-03 06:59:48.00	26.55	8.34	-52.3	-67.6	3.8	1.49e+00	0	40	104	0	75	21897
2026-01-03 06:59:49.01	26.38	8.33	-52.3	-67.6	3.8	1.49e+00	0	39	104	0	75	21869
2026-01-03 06:59:50.01	26.21	8.33	-52.3	-67.6	3.8	1.49e+00	0	39	104	0	75	21878
2026-01-03 06:59:51.02	26.04	8.32	-52.3	-67.6	3.8	1.49e+00	0	39	104	0	75	21852
2026-01-03 06:59:52.02	25.87	8.31	-52.3	-67.6	3.8	1.49e+00	0	39	104	0	75	21801
2026-01-03 06:59:53.02	25.70	8.30	-52.3	-67.6	3.8	1.49e+00	0	39	104	0	75	21862
2026-01-03 06:59:54.03	25.53	8.30	-52.3	-67.6	3.8	1.49e+00	0	39	104	0	75	21769
2026-01-03 06:59:55.03	25.36	8.29	-52.3	-67.6	3.8	1.49e+00	0	39	104	0	75	21782
2026-01-03 06:59:56.04	25.19	8.28	-52.3	-67.6	3.8	1.49e+00	0	39	104	0	75	21879
2026-01-03 06:59:57.04	25.03	8.27	-52.3	-67.6	3.8	1.49e+00	0	39	104	0	75	21855
2026-01-03 06:59:58.04	24.86	8.26	-52.3	-67.6	3.8	1.49e+00	0	39	104	0	75	21831
2026-01-03 06:59:59.05	24.69	8.25	-52.3	-67.6	3.8	1.49e+00	0	39	104	0	75	21768
2026-01-03 07:00:00.05	24.52	8.24	-52.4	-67.6	3.8	1.49e+00	0	39	104	0	75	21964
2026-01-03 07:00:01.06	24.35	8.23	-52.4	-67.6	3.8	1.49e+00	0	39	104	0	75	21930
2026-01-03 07:00:02.06	24.19	8.22	-52.3	-67.6	3.8	1.49e+00	0	39	104	0	75	21944
2026-01-03 07:00:03.07	24.02	8.21	-52.3	-67.6	3.8	1.49e+00	0	39	104	0	75	21825
2026-01-03 07:00:04.07	23.85	8.20	-52.3	-67.6	3.8	1.49e+00	0	39	104	0	75	21811
2026-01-03 07:00:05.07	23.68	8.19	-52.3	-67.6	3.8	1.49e+00	0	39	104	0	75	21787
2026-01-03 07:00:06.08	23.52	8.18	-52.3	-67.6	3.8	1.49e+00	0	39	104	0	75	21893
2026-01-03 07:00:07.08	23.35	8.17	-52.3	-67.6	3.8	1.49e+00	0	39	104	0	75	21888
2026-01-03 07:00:08.09	23.18	8.16	-52.3	-67.6	3.8	1.49e+00	0	40	104	0	75	21869
2026-01-03 07:00:09.09	23.01	8.14	-52.3	-67.6	3.8	1.49e+00	0	39	104	0	75	21912
2026-01-03 07:00:10.10	22.85	8.13	-52.3	-67.6	3.8	1.49e+00	0	39	104	0	75	21828
2026-01-03 07:00:11.10	22.68	8.12	-52.3	-67.6	3.8	1.49e+00	0	39	104	0	75	21918
2026-01-03 07:00:12.11	22.51	8.11	-52.3	-67.6	3.8	1.49e+00	0	39	104	0	75	21795
2026-01-03 07:00:13.11	22.35	8.10	-52.3	-67.6	3.8	1.49e+00	0	39	104	0	75	21915
2026-01-03 07:00:14.11	22.18	8.08	-52.3	-67.6	3.8	1.49e+00	0	39	104	0	75	21887
2026-01-03 07:00:15.12	22.02	8.07	-52.3	-67.6	3.8	1.49e+00	0	39	104	0	75	21887
2026-01-03 07:00:16.12	21.85	8.06	-52.3	-67.6	3.8	1.49e+00	0	39	104	0	75	21832
2026-01-03 07:00:17.13	21.68	8.04	-52.3	-67.6	3.8	1.49e+00	0	39	104	0	75	21904
2026-01-03 07:00:18.13	21.52	8.03	-52.3	-67.6	3.8	1.49e+00	0	39	104	0	75	21824
2026-01-03 07:00:19.14	21.35	8.02	-52.3	-67.6	3.8	1.49e+00	0	39	104	0	75	21858
2026-01-03 07:00:20.14	21.19	8.00	-52.3	-67.6	3.8	1.49e+00	0	39	104	0	75	21871
2026-01-03 07:00:21.15	21.02	7.99	-52.3	-67.6	3.8	1.49e+00	0	39	104	0	75	21814
2026-01-03 07:00:22.15	20.86	7.97	-52.3	-67.6	3.8	1.49e+00	0	39	104	0	75	21888
2026-01-03 07:00:23.15	20.69	7.96	-52.3	-67.6	3.8	1.49e+00	0	39	104	0	75	21778
2026-01-03 07:00:24.16	20.53	7.94	-52.3	-67.6	3.8	1.49e+00	0	39	104	0	75	21828
2026-01-03 07:00:25.16	20.36	7.93	-52.3	-67.6	3.8	1.49e+00	0	39	104	0	75	21833
2026-01-03 07:00:26.17	20.20	7.91	-52.3	-67.6	3.8	1.49e+00	0	39	104	0	75	21876
2026-01-03 07:00:27.17	20.04	7.90	-52.3	-67.6	3.8	1.49e+00	0	40	104	0	75	21846
2026-01-03 07:00:28.17	19.87	7.88	-52.3	-67.6	3.8	1.49e+00	0	39	104	0	75	21810
2026-01-03 07:00:29.18	19.71	7.87	-52.3	-67.6	3.8	1.49e+00	0	39	104	0	75	21881
2026-01-03 07:00:30.18	19.55	7.85	-52.3	-67.6	3.8	1.49e+00	0	39	104	0	75	21832
2026-01-03 07:00:31.19	19.38	7.83	-52.3	-67.6	3.8	1.49e+00	0	39	104	0	75	21884
2026-01-03 07:00:32.19	19.22	7.82	-52.3	-67.6	3.8	1.49e+00	0	39	104	0	75	21887
2026-01-03 07:00:33.20	19.05	7.80	-52.3	-67.5	3.8	1.49e+00	0	39	104	0	75	21751
2026-01-03 07:00:34.20	18.89	7.78	-52.3	-67.6	3.8	1.49e+00	0	39	104	0	75	21949
2026-01-03 07:00:35.20	18.73	7.77	-52.3	-67.6	3.8	1.49e+00	0	39	104	0	75	21900
2026-01-03 07:00:36.20	18.57	7.75	-52.3	-67.6	3.8	1.49e+00	0	39	104	0	75	21881
2026-01-03 07:00:37.21	18.41	7.73	-52.3	-67.6	3.8	1.49e+00	0	39	104	0	75	21812
2026-01-03 07:00:38.21	18.24	7.71	-52.3	-67.6	3.8	1.49e+00	0	39	104	0	75	21766
2026-01-03 07:00:39.22	18.08	7.69	-52.3	-67.6	3.8	1.49e+00	0	39	104	0	75	21879
2026-01-03 07:00:40.22	17.92	7.68	-52.3	-67.6	3.8	1.49e+00	0	39	104	0	75	21815
2026-01-03 07:00:41.22	17.76	7.66	-52.3	-67.5	3.8	1.49e+00	0	39	104	0	75	21719
2026-01-03 07:00:42.23	17.60	7.64	-52.3	-67.6	3.8	1.49e+00	0	39	104	0	75	21834
2026-01-03 07:00:43.23	17.44	7.62	-52.3	-67.6	3.8	1.49e+00	0	39	104	0	75	21843
2026-01-03 07:00:44.24	17.28	7.60	-52.3	-67.5	3.8	1.49e+00	0	39	104	0	75	21752
2026-01-03 07:00:45.24	17.12	7.58	-52.3	-67.6	3.8	1.49e+00	0	39	104	0	75	21854
2026-01-03 07:00:46.25	16.96	7.56	-52.3	-67.6	3.8	1.49e+00	0	39	104	0	75	21783
2026-01-03 07:00:47.25	16.80	7.54	-52.3	-67.6	3.8	1.49e+00	0	39	104	0	75	21791
2026-01-03 07:00:48.26	16.64	7.52	-52.3	-67.6	3.8	1.49e+00	0	39	104	0	75	21789
2026-01-03 07:00:49.26	16.48	7.50	-52.3	-67.6	3.8	1.49e+00	0	39	104	0	75	21835
2026-01-03 07:00:50.27	16.32	7.48	-52.3	-67.6	3.8	1.49e+00	0	39	104	0	75	21860
2026-01-03 07:00:51.27	16.16	7.46	-52.3	-67.6	3.8	1.49e+00	0	40	104	0	75	21806
2026-01-03 07:00:52.27	16.00	7.44	-52.3	-67.6	3.8	1.49e+00	0	39	104	0	75	21892
2026-01-03 07:00:53.27	15.84	7.42	-52.3	-67.6	3.8	1.49e+00	0	39	104	0	75	21898
2026-01-03 07:00:54.28	15.68	7.40	-52.3	-67.6	3.8	1.49e+00	0	39	104	0	75	21874
2026-01-03 07:00:55.28	15.52	7.38	-52.3	-67.6	3.8	1.49e+00	0	39	104	0	75	21853
2026-01-03 07:00:56.29	15.37	7.36	-52.3	-67.6	3.8	1.49e+00	0	39	104	0	75	21830
2026-01-03 07:00:57.29	15.21	7.34	-52.3	-67.6	3.8	1.49e+00	0	39	104	0	75	21891
2026-01-03 07:00:58.30	15.05	7.31	-52.3	-67.6	3.8	1.49e+00	0	39	104	0	75	21844
2026-01-03 07:00:59.30	14.89	7.29	-52.3	-67.6	3.8	1.49e+00	0	39	104	0	75	21930
2026-01-03 07:01:00.31	14.74	7.27	-52.4	-67.6	3.8	1.49e+00	0	39	104	0	75	21959
2026-01-03 07:01:01.31	14.58	7.25	-52.4	-67.7	3.8	1.49e+00	0	39	104	0	75	22044
2026-01-03 07:01:02.31	14.42	7.23	-52.4	-67.6	3.8	1.49e+00	0	39	104	0	75	21983
2026-01-03 07:01:03.32	14.27	7.20	-52.5	-67.7	3.9	1.49e+00	0	39	104	0	76	20989
2026-01-03 07:01:04.32	14.11	7.18	-52.5	-67.7	3.8	1.49e+00	0	39	104	0	76	20908
2026-01-03 07:01:05.32	13.96	7.16	-52.5	-67.8	3.8	1.49e+00	0	39	104	0	76	21200
2026-01-03 07:01:06.33	13.80	7.13	-52.5	-67.8	3.8	1.49e+00	0	39	104	0	76	21075
2026-01-03 07:01:07.33	13.65	7.11	-52.4	-67.7	3.8	1.49e+00	0	39	104	0	76	20911
2026-01-03 07:01:08.34	13.49	7.09	-52.6	-67.7	3.8	1.49e+00	0	39	104	0	76	20960
2026-01-03 07:01:09.34	13.34	7.06	-52.3	-67.6	3.8	1.49e+00	0	39	104	0	76	20730
2026-01-03 07:01:10.34	13.18	7.04	-52.5	-67.8	3.8	1.49e+00	0	39	104	0	76	21155
2026-01-03 07:01:11.35	13.03	7.02	-52.5	-67.8	3.8	1.49e+00	0	39	104	0	76	21029
2026-01-03 07:01:12.35	12.87	6.99	-52.5	-67.8	3.8	1.49e+00	0	39	104	0	76	21032
2026-01-03 07:01:13.36	12.72	6.97	-52.5	-67.8	3.8	1.49e+00	0	39	104	0	76	21054
2026-01-03 07:01:14.36	12.57	6.94	-52.4	-67.7	3.8	1.49e+00	0	39	104	0	76	20916
2026-01-03 07:01:15.37	12.41	6.92	-52.5	-67.8	3.8	1.49e+00	0	39	104	0	76	21056
2026-01-03 07:01:16.37	12.26	6.89	-52.5	-67.8	3.8	1.49e+00	0	39	104	0	76	21172
2026-01-03 07:01:17.37	12.11	6.87	-52.6	-67.8	3.8	1.49e+00	0	39	104	0	76	21214
2026-01-03 07:01:18.38	11.95	6.84	-52.5	-67.8	3.8	1.49e+00	0	39	104	0	76	21082
2026-01-03 07:01:19.38	11.80	6.82	-52.5	-67.8	3.8	1.49e+00	0	39	104	0	76	21031
2026-01-03 07:01:20.39	11.65	6.79	-52.4	-67.8	3.8	1.49e+00	0	39	104	0	76	21043
2026-01-03 07:01:21.39	11.50	6.77	-52.4	-67.7	3.8	1.49e+00	0	39	104	0	76	20938
2026-01-03 07:01:22.40	11.35	6.74	-52.6	-67.8	3.8	1.49e+00	0	39	104	0	76	21173
2026-01-03 07:01:23.40	11.20	6.72	-52.4	-67.7	3.8	1.49e+00	0	39	104	0	76	20899
2026-01-03 07:01:24.41	11.05	6.69	-52.7	-67.9	3.8	1.49e+00	0	39	104	0	77	20278
2026-01-03 07:01:25.41	10.90	6.66	-53.5	-68.7	3.8	1.49e+00	0	39	104	0	77	22164
2026-01-03 07:01:26.41	10.75	6.64	-52.4	-67.7	3.8	1.49e+00	0	39	104	0	76	20983
2026-01-03 07:01:27.42	10.60	6.61	-53.3	-68.5	3.8	1.49e+00	0	39	104	0	77	21688
2026-01-03 07:01:28.42	10.45	6.58	-52.6	-67.9	3.8	1.49e+00	0	39	104	0	77	20149
2026-01-03 07:01:29.43	10.30	6.56	-53.4	-68.6	3.8	1.49e+00	0	39	104	0	77	21925
2026-01-03 07:01:30.43	10.15	6.53	-52.4	-67.7	3.8	1.49e+00	0	39	104	0	76	20966
2026-01-03 07:01:31.43	10.00	6.50	-52.5	-67.7	3.8	1.49e+00	0	39	104	0	75	22245
2026-01-03 07:01:32.44	9.85	6.47	-52.6	-67.8	3.8	1.49e+00	0	39	104	0	76	21071
2026-01-03 07:01:33.44	9.70	6.45	-53.4	-68.7	3.8	1.49e+00	0	39	104	0	77	22016
2026-01-03 07:01:34.45	9.55	6.42	-52.6	-67.9	3.8	1.49e+00	0	39	104	0	76	21301
2026-01-03 07:01:35.45	9.41	6.39	-53.3	-68.6	3.8	1.49e+00	0	39	104	0	77	21909
2026-01-03 07:01:36.46	9.26	6.36	-52.5	-67.7	3.8	1.49e+00	0	39	104	0	76	20974
2026-01-03 07:01:37.46	9.11	6.33	-52.5	-67.7	3.8	1.49e+00	0	39	104	0	76	20989
2026-01-03 07:01:38.46	8.97	6.31	-53.3	-68.6	3.8	1.49e+00	0	39	104	0	77	21997
2026-01-03 07:01:39.47	8.82	6.28	-53.4	-68.7	3.8	1.49e+00	0	39	104	0	77	22101
2026-01-03 07:01:40.47	8.67	6.25	-52.7	-68.0	3.8	1.49e+00	0	39	104	0	77	20446
2026-01-03 07:01:41.48	8.53	6.22	-52.8	-68.1	3.8	1.49e+00	0	39	104	0	77	20711
2026-01-03 07:01:42.48	8.38	6.19	-53.7	-69.0	3.8	1.49e+00	0	39	104	0	78	21507
2026-01-03 07:01:43.48	8.24	6.16	-52.9	-68.1	3.8	1.49e+00	0	40	104	0	77	20752
2026-01-03 07:01:44.49	8.09	6.13	-52.9	-68.2	3.8	1.49e+00	0	39	104	0	77	20894
2026-01-03 07:01:45.49	7.95	6.10	-52.9	-68.2	3.8	1.49e+00	0	39	104	0	77	20902
2026-01-03 07:01:46.50	7.80	6.07	-52.9	-68.2	3.8	1.49e+00	0	39	104	0	77	20906
2026-01-03 07:01:47.50	7.66	6.05	-53.0	-68.3	3.8	1.49e+00	0	39	104	0	77	21125
2026-01-03 07:01:48.51	7.51	6.02	-53.1	-68.4	3.8	1.49e+00	0	39	104	0	78	20183
2026-01-03 07:01:49.51	7.37	5.99	-53.1	-68.4	3.8	1.49e+00	0	39	104	0	77	21276
2026-01-03 07:01:50.51	7.23	5.96	-53.1	-68.5	3.8	1.49e+00	0	39	104	0	78	20433
2026-01-03 07:01:51.52	7.09	5.93	-54.1	-69.3	3.8	1.49e+00	0	39	104	0	78	22392
2026-01-03 07:01:52.52	6.94	5.90	-53.9	-69.2	3.8	1.49e+00	0	39	104	0	78	22238
2026-01-03 07:01:53.53	6.80	5.87	-53.1	-68.4	3.8	1.49e+00	0	39	104	0	78	20095
2026-01-03 07:01:54.53	6.66	5.83	-53.1	-68.4	3.8	1.49e+00	0	39	104	0	77	21285
2026-01-03 07:01:55.53	6.52	5.80	-54.0	-69.3	3.8	1.49e+00	0	39	104	0	78	22295
2026-01-03 07:01:56.54	6.38	5.77	-53.1	-68.3	3.8	1.49e+00	0	39	104	0	78	20058
2026-01-03 07:01:57.54	6.24	5.74	-53.1	-68.4	3.8	1.49e+00	0	40	104	0	77	21424
2026-01-03 07:01:58.55	6.09	5.71	-53.1	-68.4	3.8	1.49e+00	0	39	104	0	77	21393
2026-01-03 07:01:59.55	5.95	5.68	-53.1	-68.4	3.8	1.49e+00	0	39	104	0	77	21356
2026-01-03 07:02:00.56	5.81	5.65	-53.1	-68.4	3.8	1.49e+00	0	39	104	0	77	21314
2026-01-03 07:02:01.56	5.67	5.62	-53.2	-68.4	3.8	1.49e+00	0	39	104	0	77	21406
2026-01-03 07:02:02.57	5.53	5.59	-53.2	-68.4	3.8	1.49e+00	0	39	104	0	77	21340
2026-01-03 07:02:03.57	5.39	5.55	-53.2	-68.4	3.8	1.49e+00	0	39	104	0	77	21457
2026-01-03 07:02:04.57	5.26	5.52	-53.2	-68.6	3.8	1.49e+00	0	39	104	0	77	21770
2026-01-03 07:02:05.58	5.12	5.49	-53.3	-68.6	3.8	1.49e+00	0	39	104	0	78	20716
2026-01-03 07:02:06.58	4.98	5.46	-53.3	-68.6	3.8	1.49e+00	0	39	104	0	78	20643
2026-01-03 07:02:07.59	4.84	5.43	-54.0	-69.2	3.8	1.49e+00	0	39	104	0	78	22234
2026-01-03 07:02:08.59	4.70	5.40	-53.1	-68.4	3.8	1.49e+00	0	39	104	0	78	20135
2026-01-03 07:02:09.60	4.57	5.36	-53.2	-68.4	3.8	1.49e+00	0	39	104	0	78	20122
2026-01-03 07:02:10.60	4.43	5.33	-54.0	-69.2	3.8	1.49e+00	0	39	104	0	78	22023
2026-01-03 07:02:11.60	4.29	5.30	-54.1	-69.3	3.8	1.49e+00	0	39	104	0	78	22392
2026-01-03 07:02:12.61	4.16	5.27	-54.0	-69.3	3.8	1.49e+00	0	39	104	0	78	22292
2026-01-03 07:02:13.61	4.02	5.23	-53.0	-68.3	3.8	1.49e+00	0	39	104	0	77	21074
2026-01-03 07:02:14.62	3.88	5.20	-53.0	-68.2	3.8	1.49e+00	0	39	104	0	77	20962
2026-01-03 07:02:15.62	3.75	5.17	-53.0	-68.3	3.8	1.49e+00	0	39	104	0	77	21025
2026-01-03 07:02:16.62	3.61	5.13	-53.0	-68.2	3.8	1.49e+00	0	39	104	0	77	20985
2026-01-03 07:02:17.63	3.48	5.10	-53.0	-68.3	3.8	1.49e+00	0	39	104	0	77	21022
2026-01-03 07:02:18.63	3.35	5.07	-53.0	-68.3	3.8	1.49e+00	0	39	104	0	77	21069
2026-01-03 07:02:19.64	3.21	5.03	-53.0	-68.2	3.8	1.49e+00	0	39	104	0	77	21012
2026-01-03 07:02:20.64	3.08	5.00	-52.9	-68.2	3.8	1.49e+00	0	39	104	0	77	20950

#Closed at: 2026-01-03 07:02:21
#Recorded file [0 MB]: D:/Data/31040_260103_095617.dat