passes_logs/2026/01/03/T1/T1__20260103_224845_KHAYYAM_rec.log

#Pass ID: 20260103_224845_KHAYYAM
#Satellite: KHAYYAM
#Configuration: KHAYYAM_480M
#almurnet v.1.7.20251203
#Start time: 2026-01-03 22:48:45

#Version: 2.0.20230620
#Station: T1
#Location: 37.570604 lon 55.790049 lat
#TLE: 1 53370U 22096A   26003.53756503  .00011169  00000+0  45423-3 0  9990
#TLE: 2 53370  97.3571 270.7516 0001260  83.4645 276.6737 15.24698418189496

#Time	Az	El	Level	Level2	SNR	BER	BlckErr	Temp	State	Recorded	gain1	gain2
2026-01-03 22:48:45.32	352.96	5.07	-52.7	-59.4	3.8	0.00e+00	0	41	104	0	76	32026
2026-01-03 22:48:46.32	352.82	5.13	-52.7	-59.3	3.8	0.00e+00	0	41	104	0	76	31937
2026-01-03 22:48:47.33	352.68	5.20	-52.6	-59.3	3.8	0.00e+00	0	41	104	0	76	31752
2026-01-03 22:48:48.33	352.54	5.26	-52.6	-59.3	3.8	0.00e+00	0	41	104	0	76	31650
2026-01-03 22:48:49.34	352.39	5.32	-52.7	-59.4	3.8	0.00e+00	0	41	104	0	76	32032
2026-01-03 22:48:50.34	352.25	5.38	-52.6	-59.2	3.7	0.00e+00	0	41	104	0	76	31430
2026-01-03 22:48:51.34	352.11	5.44	-52.6	-59.3	3.8	0.00e+00	0	41	104	0	76	31817
2026-01-03 22:48:52.34	351.97	5.51	-52.6	-59.2	3.8	0.00e+00	0	41	104	0	76	31564
2026-01-03 22:48:53.35	351.82	5.57	-52.7	-59.4	3.8	0.00e+00	0	41	104	0	76	32153
2026-01-03 22:48:54.35	351.68	5.63	-52.7	-59.4	3.8	0.00e+00	0	41	104	0	76	31969
2026-01-03 22:48:55.35	351.53	5.69	-52.7	-59.4	3.8	0.00e+00	0	42	104	0	76	32094
2026-01-03 22:48:56.35	351.39	5.76	-52.7	-59.3	3.7	0.00e+00	0	42	104	0	76	31917
2026-01-03 22:48:57.36	351.24	5.82	-52.6	-59.3	3.8	0.00e+00	0	42	104	0	76	31666
2026-01-03 22:48:58.36	351.09	5.88	-52.6	-59.3	3.8	0.00e+00	0	42	104	0	76	31925
2026-01-03 22:48:59.36	350.94	5.94	-52.7	-59.4	3.8	0.00e+00	0	42	104	0	76	31974
2026-01-03 22:49:00.37	350.79	6.01	-52.7	-59.4	3.8	0.00e+00	0	42	104	0	76	31985
2026-01-03 22:49:01.37	350.64	6.07	-52.7	-59.3	3.8	0.00e+00	0	42	104	0	76	31773
2026-01-03 22:49:02.38	350.49	6.13	-52.7	-59.3	3.8	0.00e+00	0	42	104	0	76	31883
2026-01-03 22:49:03.38	350.33	6.19	-52.6	-59.3	3.8	0.00e+00	0	42	104	0	76	31808
2026-01-03 22:49:04.38	350.18	6.26	-52.6	-59.3	3.8	0.00e+00	0	42	104	0	76	31724
2026-01-03 22:49:05.39	350.02	6.32	-52.6	-59.3	3.8	0.00e+00	0	42	104	0	76	31839
2026-01-03 22:49:06.39	349.87	6.38	-52.6	-59.2	3.8	0.00e+00	0	42	104	0	76	31442
2026-01-03 22:49:07.39	349.71	6.45	-52.6	-59.3	3.7	0.00e+00	0	42	104	0	76	31929
2026-01-03 22:49:08.40	349.56	6.51	-52.5	-59.2	3.8	0.00e+00	0	43	104	0	76	31298
2026-01-03 22:49:09.40	349.40	6.57	-52.5	-59.2	3.8	0.00e+00	0	43	104	0	76	31348
2026-01-03 22:49:10.40	349.24	6.63	-52.5	-59.2	3.8	0.00e+00	0	43	104	0	76	31377
2026-01-03 22:49:11.41	349.08	6.70	-52.5	-59.2	3.8	0.00e+00	0	43	104	0	76	31502
2026-01-03 22:49:12.41	348.92	6.76	-52.5	-59.2	3.8	0.00e+00	0	43	104	0	76	31312
2026-01-03 22:49:13.42	348.76	6.82	-52.5	-59.2	3.8	0.00e+00	0	43	104	0	76	31537
2026-01-03 22:49:14.42	348.59	6.89	-52.5	-59.2	3.8	0.00e+00	0	43	104	0	76	31344
2026-01-03 22:49:15.43	348.43	6.95	-52.5	-59.2	3.8	0.00e+00	0	43	104	0	76	31497
2026-01-03 22:49:16.43	348.27	7.01	-52.6	-59.2	3.8	0.00e+00	0	43	104	0	76	31532
2026-01-03 22:49:17.43	348.10	7.08	-52.6	-59.2	3.8	0.00e+00	0	43	104	0	76	31426
2026-01-03 22:49:18.44	347.93	7.14	-52.7	-59.4	3.8	0.00e+00	0	43	104	0	76	31995
2026-01-03 22:49:19.44	347.77	7.20	-52.5	-59.2	3.8	0.00e+00	0	43	104	0	76	31574
2026-01-03 22:49:20.45	347.60	7.27	-52.5	-59.2	3.7	0.00e+00	0	44	104	0	76	31333
2026-01-03 22:49:21.45	347.43	7.33	-52.4	-59.1	3.8	0.00e+00	0	43	104	0	76	31220
2026-01-03 22:49:22.45	347.26	7.39	-52.4	-59.0	3.8	0.00e+00	0	44	104	0	76	30821
2026-01-03 22:49:23.46	347.09	7.46	-52.4	-59.1	3.8	0.00e+00	0	43	104	0	76	31000
2026-01-03 22:49:24.46	346.92	7.52	-52.4	-59.1	3.8	0.00e+00	0	44	104	0	76	31077
2026-01-03 22:49:25.47	346.74	7.58	-52.4	-59.0	3.8	0.00e+00	0	44	104	0	76	30871
2026-01-03 22:49:26.47	346.57	7.65	-52.5	-59.2	3.8	0.00e+00	0	44	104	0	76	31345
2026-01-03 22:49:27.48	346.39	7.71	-52.5	-59.2	3.8	0.00e+00	0	44	104	0	76	31343
2026-01-03 22:49:28.48	346.22	7.77	-52.5	-59.2	3.8	0.00e+00	0	44	104	0	76	31524
2026-01-03 22:49:29.48	346.04	7.84	-52.5	-59.2	3.8	0.00e+00	0	44	104	0	76	31316
2026-01-03 22:49:30.49	345.86	7.90	-52.4	-59.1	3.8	0.00e+00	0	44	104	0	76	30934
2026-01-03 22:49:31.49	345.68	7.96	-52.4	-59.1	3.8	0.00e+00	0	44	104	0	76	30942
2026-01-03 22:49:32.49	345.51	8.03	-52.4	-59.0	3.8	0.00e+00	0	44	104	0	76	30818
2026-01-03 22:49:33.50	345.32	8.09	-52.4	-59.1	3.8	0.00e+00	0	44	104	0	76	30940
2026-01-03 22:49:34.50	345.14	8.15	-52.2	-58.9	3.8	0.00e+00	0	44	104	0	76	30339
2026-01-03 22:49:35.51	344.96	8.22	-52.3	-59.0	3.8	0.00e+00	0	44	104	0	76	30548
2026-01-03 22:49:36.51	344.78	8.28	-52.3	-58.9	3.8	0.00e+00	0	44	104	0	76	30394
2026-01-03 22:49:37.51	344.59	8.34	-52.3	-59.0	3.8	0.00e+00	0	44	104	0	76	30659
2026-01-03 22:49:38.52	344.40	8.41	-52.5	-59.1	3.8	0.00e+00	0	44	104	0	76	31160
2026-01-03 22:49:39.52	344.22	8.47	-52.4	-59.1	3.8	0.00e+00	0	44	104	0	76	31028
2026-01-03 22:49:40.52	344.03	8.53	-52.6	-59.2	3.8	0.00e+00	0	44	104	0	76	31518
2026-01-03 22:49:41.53	343.84	8.60	-52.5	-59.1	3.8	0.00e+00	0	44	104	0	76	31137
2026-01-03 22:49:42.53	343.65	8.66	-52.5	-59.1	3.8	0.00e+00	0	44	104	0	76	31111
2026-01-03 22:49:43.54	343.46	8.72	-52.6	-59.3	3.8	0.00e+00	0	44	104	0	76	31631
2026-01-03 22:49:44.54	343.27	8.79	-52.6	-59.3	3.8	0.00e+00	0	44	104	0	76	31727
2026-01-03 22:49:45.55	343.07	8.85	-52.6	-59.2	3.8	0.00e+00	0	44	104	0	76	31406
2026-01-03 22:49:46.55	342.88	8.91	-52.5	-59.1	3.8	0.00e+00	0	44	104	0	76	31074
2026-01-03 22:49:47.55	342.68	8.98	-52.5	-59.2	3.8	0.00e+00	0	44	104	0	76	31405
2026-01-03 22:49:48.56	342.49	9.04	-52.7	-59.3	3.8	0.00e+00	0	44	104	0	76	31928
2026-01-03 22:49:49.56	342.29	9.10	-53.2	-59.6	3.7	0.00e+00	0	44	104	0	76	32917
2026-01-03 22:49:50.56	342.09	9.16	-53.3	-59.7	3.7	0.00e+00	0	45	104	0	77	31439
2026-01-03 22:49:51.57	341.89	9.23	-53.9	-60.0	3.7	0.00e+00	0	44	104	0	78	30651
2026-01-03 22:49:52.57	341.69	9.29	-53.8	-59.9	3.7	0.00e+00	0	44	104	0	79	28507
2026-01-03 22:49:53.57	341.49	9.35	-53.6	-59.9	3.7	0.00e+00	0	45	104	0	78	30295
2026-01-03 22:49:54.57	341.29	9.41	-54.1	-60.1	3.7	0.00e+00	0	44	104	0	78	30914
2026-01-03 22:49:55.58	341.08	9.48	-54.7	-60.5	3.7	0.00e+00	0	45	104	0	80	28884
2026-01-03 22:49:56.58	340.88	9.54	-55.4	-60.9	3.7	0.00e+00	0	45	104	0	81	28766
2026-01-03 22:49:57.58	340.67	9.60	-56.1	-61.4	3.7	0.00e+00	0	45	104	0	83	26998
2026-01-03 22:49:58.58	340.47	9.66	-56.3	-61.4	3.7	0.00e+00	0	45	104	0	83	27170
2026-01-03 22:49:59.59	340.26	9.73	-56.6	-61.4	3.7	0.00e+00	0	45	104	0	83	27029
2026-01-03 22:50:00.59	340.05	9.79	-56.7	-61.7	3.7	0.00e+00	0	45	104	0	84	26294
2026-01-03 22:50:01.59	339.84	9.85	-56.9	-61.8	3.7	0.00e+00	0	45	104	0	84	26755
2026-01-03 22:50:02.59	339.63	9.91	-56.3	-61.6	3.7	0.00e+00	0	45	104	0	84	26081
2026-01-03 22:50:03.60	339.41	9.97	-56.4	-61.7	3.7	0.00e+00	0	45	104	0	83	27837
2026-01-03 22:50:04.70	339.18	10.04	-55.0	-60.7	3.7	0.00e+00	0	45	104	0	81	28155
2026-01-03 22:50:05.55	338.99	10.09	-54.8	-60.4	3.7	0.00e+00	0	45	104	0	81	27194
2026-01-03 22:50:06.70	338.75	10.16	-55.0	-60.7	3.7	0.00e+00	0	45	104	0	80	29707
2026-01-03 22:50:07.65	338.54	10.22	-54.8	-60.6	3.7	0.00e+00	0	45	104	0	80	29163
2026-01-03 22:50:08.66	338.32	10.28	-54.3	-60.2	3.7	0.00e+00	0	45	104	0	80	27919
2026-01-03 22:50:09.66	338.10	10.34	-53.8	-59.9	3.7	0.00e+00	0	45	104	0	79	28570
2026-01-03 22:50:10.66	337.88	10.40	-53.3	-59.5	3.7	0.00e+00	0	45	104	0	78	28882
2026-01-03 22:50:11.94	337.60	10.48	-53.5	-59.6	3.7	0.00e+00	0	45	104	0	78	29471
2026-01-03 22:50:12.69	337.43	10.52	-53.5	-59.6	3.7	0.00e+00	0	45	104	0	78	29327
2026-01-03 22:50:13.98	337.14	10.60	-54.1	-60.0	3.7	0.00e+00	0	45	104	0	78	30813
2026-01-03 22:50:14.69	336.98	10.64	-53.9	-59.9	3.7	0.00e+00	0	45	104	0	78	30448
2026-01-03 22:50:15.98	336.69	10.72	-54.7	-60.5	3.7	0.00e+00	0	45	104	0	80	28823
2026-01-03 22:50:16.70	336.52	10.76	-54.3	-60.2	3.7	0.00e+00	0	45	104	0	80	28033
2026-01-03 22:50:17.99	336.23	10.84	-55.5	-61.0	3.7	0.00e+00	0	45	104	0	81	28908
2026-01-03 22:50:18.70	336.07	10.88	-55.6	-61.1	3.7	0.00e+00	0	45	104	0	82	27821
2026-01-03 22:50:19.99	335.77	10.96	-56.2	-61.4	3.7	0.00e+00	0	45	104	0	83	27149
2026-01-03 22:50:20.70	335.60	11.00	-56.3	-61.5	3.7	0.00e+00	0	45	104	0	83	27390
2026-01-03 22:50:22.17	335.26	11.09	-56.5	-61.7	3.7	0.00e+00	0	45	104	0	83	27924
2026-01-03 22:50:22.88	335.09	11.13	-56.6	-61.7	3.7	0.00e+00	0	45	104	0	83	27862
2026-01-03 22:50:24.24	334.77	11.21	-56.7	-61.8	3.7	0.00e+00	0	45	104	0	84	26708
2026-01-03 22:50:24.95	334.61	11.25	-56.9	-61.9	3.7	0.00e+00	0	45	104	0	84	27041
2026-01-03 22:50:26.24	334.30	11.32	-56.6	-61.8	3.7	0.00e+00	0	45	104	0	84	26700
2026-01-03 22:50:26.96	334.13	11.36	-56.5	-61.7	3.7	0.00e+00	0	45	104	0	84	26332
2026-01-03 22:50:28.24	333.82	11.44	-56.9	-61.9	3.7	0.00e+00	0	45	104	0	84	27040
2026-01-03 22:50:28.96	333.64	11.48	-56.5	-61.7	3.7	0.00e+00	0	45	104	0	84	26397
2026-01-03 22:50:30.25	333.33	11.55	-56.5	-61.6	3.7	0.00e+00	0	45	104	0	84	26179
2026-01-03 22:50:30.96	333.16	11.59	-56.8	-61.7	3.7	0.00e+00	0	45	104	0	84	26526
2026-01-03 22:50:32.25	332.84	11.66	-57.1	-62.0	3.7	0.00e+00	0	45	104	0	84	27448
2026-01-03 22:50:32.97	332.66	11.70	-57.0	-61.9	3.7	0.00e+00	0	45	104	0	85	25519
2026-01-03 22:50:34.26	332.34	11.78	-57.1	-62.0	3.7	0.00e+00	0	45	104	0	85	25828
2026-01-03 22:50:35.15	332.12	11.83	-57.1	-61.9	3.7	0.00e+00	0	45	104	0	85	25637
2026-01-03 22:50:36.62	331.76	11.91	-56.7	-61.3	3.7	0.00e+00	0	45	104	0	84	25227
2026-01-03 22:50:37.33	331.58	11.95	-56.7	-61.3	3.7	0.00e+00	0	45	104	0	84	25244
2026-01-03 22:50:38.62	331.25	12.02	-56.7	-61.4	3.7	0.00e+00	0	45	104	0	84	25386
2026-01-03 22:50:39.33	331.07	12.05	-56.8	-61.5	3.7	0.00e+00	0	45	104	0	84	25962
2026-01-03 22:50:40.62	330.74	12.12	-56.3	-61.3	3.7	0.00e+00	0	45	104	0	84	25348
2026-01-03 22:50:41.34	330.56	12.16	-56.2	-61.3	3.7	0.00e+00	0	45	104	0	83	26720
2026-01-03 22:50:42.63	330.23	12.23	-56.6	-61.6	3.7	0.00e+00	0	46	104	0	83	27724
2026-01-03 22:50:43.46	330.01	12.27	-56.7	-61.7	3.7	0.00e+00	0	45	104	0	84	26580
2026-01-03 22:50:44.61	329.71	12.33	-56.6	-61.7	3.7	0.00e+00	0	45	104	0	84	26299
2026-01-03 22:50:45.47	329.49	12.38	-56.5	-61.6	3.7	0.00e+00	0	45	104	0	84	26077
2026-01-03 22:50:46.61	329.19	12.44	-56.4	-61.4	3.7	0.00e+00	0	45	104	0	84	25553
2026-01-03 22:50:47.47	328.96	12.48	-56.6	-61.5	3.7	0.00e+00	0	46	104	0	84	25743
2026-01-03 22:50:48.62	328.66	12.54	-57.1	-61.8	3.7	0.00e+00	0	46	104	0	84	26672
2026-01-03 22:50:49.83	328.34	12.60	-57.2	-61.9	3.7	0.00e+00	0	45	104	0	85	25570
2026-01-03 22:50:50.69	328.11	12.65	-56.9	-61.9	3.7	0.00e+00	0	45	104	0	85	25422
2026-01-03 22:50:51.83	327.80	12.70	-56.7	-61.9	3.7	0.00e+00	0	46	104	0	85	25396
2026-01-03 22:50:52.68	327.58	12.75	-56.2	-61.6	3.7	0.00e+00	0	46	104	0	84	26087
2026-01-03 22:50:53.83	327.26	12.80	-56.3	-61.6	3.7	0.00e+00	0	45	104	0	83	27535
2026-01-03 22:50:54.69	327.03	12.84	-55.7	-61.2	3.7	0.00e+00	0	45	104	0	83	26518
2026-01-03 22:50:55.84	326.72	12.90	-55.2	-60.8	3.7	0.00e+00	0	46	104	0	82	26889
2026-01-03 22:50:56.70	326.48	12.94	-54.0	-60.0	3.7	0.00e+00	0	46	104	0	79	29005
2026-01-03 22:50:57.93	326.15	13.00	-54.4	-60.3	3.7	0.00e+00	0	46	104	0	79	30004
2026-01-03 22:50:58.78	325.91	13.04	-54.1	-59.9	3.7	0.00e+00	0	46	104	0	79	28555
2026-01-03 22:50:59.99	325.58	13.10	-54.4	-60.2	3.7	0.00e+00	0	45	104	0	79	29552
2026-01-03 22:51:00.85	325.34	13.13	-55.3	-60.9	3.7	0.00e+00	0	46	104	0	81	28490
2026-01-03 22:51:02.00	325.02	13.19	-54.7	-60.4	3.7	0.00e+00	0	46	104	0	81	27173
2026-01-03 22:51:02.86	324.78	13.23	-55.3	-60.8	3.7	0.00e+00	0	46	104	0	81	28203
2026-01-03 22:51:04.10	324.43	13.28	-55.0	-60.6	3.7	0.00e+00	0	46	104	0	81	27822
2026-01-03 22:51:04.95	324.19	13.32	-56.8	-61.8	3.7	0.00e+00	0	46	104	0	84	26736
2026-01-03 22:51:06.10	323.86	13.37	-55.7	-61.1	3.7	0.00e+00	0	46	104	0	83	26183
2026-01-03 22:51:07.41	323.49	13.43	-56.7	-61.5	3.7	0.00e+00	0	46	104	0	83	27430
2026-01-03 22:51:08.13	323.28	13.46	-57.2	-61.8	3.7	0.00e+00	0	46	104	0	84	26671
2026-01-03 22:51:09.42	322.91	13.51	-57.4	-61.9	3.7	0.00e+00	0	46	104	0	85	25533
2026-01-03 22:51:10.14	322.71	13.54	-57.1	-61.8	3.7	0.00e+00	0	46	104	0	85	25238
2026-01-03 22:51:11.46	322.33	13.59	-56.5	-61.6	3.7	0.00e+00	0	46	104	0	84	26068
2026-01-03 22:51:12.18	322.12	13.62	-56.2	-61.4	3.7	0.00e+00	0	46	104	0	84	25672
2026-01-03 22:51:13.53	321.73	13.68	-50.9	-53.2	4.7	0.00e+00	0	46	104	0	74	17637
2026-01-03 22:51:14.25	321.52	13.71	-50.3	-52.2	5.0	0.00e+00	0	46	104	0	72	17576
2026-01-03 22:51:15.60	321.12	13.76	-53.4	-56.0	4.2	0.00e+00	0	46	104	0	78	19467
2026-01-03 22:51:16.32	320.91	13.79	-55.6	-59.4	3.7	0.00e+00	0	46	104	0	81	24225
2026-01-03 22:51:17.69	320.51	13.84	-56.0	-61.2	3.7	0.00e+00	0	46	104	0	83	26350
2026-01-03 22:51:18.66	320.22	13.87	-55.5	-60.8	3.7	0.00e+00	0	46	104	0	83	25343
2026-01-03 22:51:19.98	319.83	13.92	-55.2	-60.5	3.7	0.00e+00	0	46	104	0	82	25972
2026-01-03 22:51:20.69	319.62	13.95	-55.1	-60.4	3.7	0.00e+00	0	46	104	0	82	25517
2026-01-03 22:51:21.98	319.23	13.99	-55.2	-60.5	3.7	0.00e+00	0	46	104	0	82	25896
2026-01-03 22:51:22.70	319.02	14.02	-55.5	-60.8	3.7	0.00e+00	0	46	104	0	82	26659
2026-01-03 22:51:23.99	318.63	14.06	-55.9	-61.0	3.7	0.00e+00	0	46	104	0	82	27408
2026-01-03 22:51:24.70	318.42	14.08	-57.1	-61.8	3.7	0.00e+00	0	46	104	0	84	26675
2026-01-03 22:51:25.99	318.03	14.13	-56.5	-61.5	3.7	0.00e+00	0	46	104	0	85	24443
2026-01-03 22:51:26.70	317.81	14.15	-57.1	-61.8	3.7	0.00e+00	0	46	104	0	85	25334
2026-01-03 22:51:28.07	317.40	14.19	-56.8	-61.7	3.7	0.00e+00	0	46	104	0	85	25093
2026-01-03 22:51:29.06	317.10	14.22	-55.9	-61.2	3.7	0.00e+00	0	46	104	0	83	26447
2026-01-03 22:51:30.38	316.69	14.26	-56.0	-61.2	3.7	0.00e+00	0	46	104	0	83	26470
2026-01-03 22:51:31.10	316.47	14.28	-55.9	-61.1	3.7	0.00e+00	0	46	104	0	83	26101
2026-01-03 22:51:32.74	315.97	14.33	-56.4	-61.4	3.7	0.00e+00	0	46	104	0	83	27167
2026-01-03 22:51:33.31	315.80	14.35	-56.6	-61.5	3.7	0.00e+00	0	46	104	0	83	27379
2026-01-03 22:51:34.90	315.31	14.39	-56.7	-61.5	3.7	0.00e+00	0	46	104	0	84	25785
2026-01-03 22:51:35.48	315.13	14.40	-56.5	-61.4	3.7	0.00e+00	0	46	104	0	84	25539
2026-01-03 22:51:37.08	314.63	14.45	-56.0	-61.1	3.7	0.00e+00	0	46	104	0	84	24774
2026-01-03 22:51:37.75	314.42	14.46	-55.8	-61.0	3.7	0.00e+00	0	46	104	0	83	25743
2026-01-03 22:51:39.19	313.98	14.50	-56.8	-61.5	3.7	0.00e+00	0	46	104	0	84	25945
2026-01-03 22:51:39.98	313.73	14.52	-56.7	-61.6	3.7	0.00e+00	0	46	104	0	84	26256
2026-01-03 22:51:41.13	313.37	14.54	-56.6	-61.4	3.7	0.00e+00	0	46	104	0	84	25555
2026-01-03 22:51:42.23	313.03	14.57	-56.5	-61.4	3.7	0.00e+00	0	46	104	0	84	25409
2026-01-03 22:51:43.26	312.70	14.59	-56.7	-61.5	3.7	0.00e+00	0	46	104	0	84	25717
2026-01-03 22:51:44.26	312.39	14.61	-56.8	-61.4	3.7	0.00e+00	0	46	104	0	84	25676
2026-01-03 22:51:45.26	312.07	14.63	-57.0	-61.7	3.7	0.00e+00	0	46	104	0	84	26321
2026-01-03 22:51:46.27	311.76	14.65	-57.2	-61.8	3.7	0.00e+00	0	46	104	0	85	25170
2026-01-03 22:51:47.27	311.44	14.66	-57.2	-61.8	3.7	0.00e+00	0	46	104	0	85	25331
2026-01-03 22:51:48.27	311.12	14.68	-57.1	-61.8	3.7	0.00e+00	0	46	104	0	85	25177
2026-01-03 22:51:49.28	310.80	14.70	-56.9	-61.7	3.7	0.00e+00	0	46	104	0	85	24908
2026-01-03 22:51:50.28	310.49	14.71	-56.7	-61.6	3.7	0.00e+00	0	46	104	0	85	24542
2026-01-03 22:51:51.28	310.17	14.73	-56.8	-61.6	3.7	0.00e+00	0	46	104	0	85	24655
2026-01-03 22:51:52.29	309.85	14.74	-56.8	-61.7	3.7	0.00e+00	0	46	104	0	85	24931
2026-01-03 22:51:53.29	309.53	14.76	-56.6	-61.5	3.7	0.00e+00	0	46	104	0	85	24484
2026-01-03 22:51:54.35	309.19	14.77	-57.1	-61.9	3.7	0.00e+00	0	46	104	0	85	25606
2026-01-03 22:51:55.22	308.92	14.78	-57.1	-62.0	3.7	0.00e+00	0	46	104	0	85	25688
2026-01-03 22:51:56.58	308.48	14.80	-57.3	-62.0	3.7	0.00e+00	0	46	104	0	85	25818
2026-01-03 22:51:57.30	308.25	14.81	-57.5	-62.0	3.7	0.00e+00	0	46	104	0	85	25889
2026-01-03 22:51:58.59	307.84	14.82	-57.2	-61.7	3.7	0.00e+00	0	46	104	0	85	25013
2026-01-03 22:51:59.30	307.61	14.83	-57.3	-61.8	3.7	0.00e+00	0	46	104	0	85	25137
2026-01-03 22:52:00.59	307.20	14.84	-57.4	-61.8	3.7	0.00e+00	0	46	104	0	85	25353
2026-01-03 22:52:01.36	306.95	14.84	-57.3	-61.7	3.7	0.00e+00	0	46	104	0	85	25085
2026-01-03 22:52:02.65	306.54	14.85	-57.4	-62.1	3.7	0.00e+00	0	46	104	0	86	24537
2026-01-03 22:52:03.37	306.31	14.86	-57.3	-62.0	3.7	0.00e+00	0	46	104	0	86	24361
2026-01-03 22:52:04.65	305.90	14.86	-57.2	-61.9	3.7	0.00e+00	0	46	104	0	86	24212
2026-01-03 22:52:05.36	305.67	14.86	-57.3	-61.9	3.7	0.00e+00	0	46	104	0	86	24206
2026-01-03 22:52:06.65	305.25	14.87	-57.3	-61.8	3.7	0.00e+00	0	46	104	0	86	23848
2026-01-03 22:52:07.37	305.02	14.87	-57.4	-61.9	3.7	0.00e+00	0	46	104	0	86	24208
2026-01-03 22:52:08.66	304.61	14.87	-57.3	-61.9	3.7	0.00e+00	0	46	104	0	86	23985
2026-01-03 22:52:09.38	304.38	14.88	-57.3	-61.8	3.7	0.00e+00	0	46	104	0	86	23844
2026-01-03 22:52:10.66	303.97	14.88	-57.2	-61.7	3.7	0.00e+00	0	46	104	0	86	23548
2026-01-03 22:52:11.38	303.73	14.88	-57.3	-61.7	3.7	0.00e+00	0	46	104	0	86	23449
2026-01-03 22:52:12.67	303.32	14.87	-57.4	-61.7	3.7	0.00e+00	0	46	104	0	86	23561
2026-01-03 22:52:13.39	303.09	14.87	-57.3	-61.6	3.7	0.00e+00	0	46	104	0	86	23193
2026-01-03 22:52:14.68	302.67	14.87	-57.4	-61.8	3.7	0.00e+00	0	46	104	0	86	23794
2026-01-03 22:52:15.39	302.44	14.87	-57.4	-61.8	3.7	0.00e+00	0	46	104	0	86	23825
2026-01-03 22:52:16.68	302.03	14.86	-57.5	-61.8	3.7	0.00e+00	0	46	104	0	86	23820
2026-01-03 22:52:17.39	301.80	14.86	-57.5	-61.8	3.7	0.00e+00	0	46	104	0	86	23751
2026-01-03 22:52:18.68	301.39	14.85	-57.5	-62.0	3.7	0.00e+00	0	46	104	0	86	24361
2026-01-03 22:52:19.51	301.12	14.85	-57.5	-62.0	3.7	0.00e+00	0	46	104	0	86	24387
2026-01-03 22:52:20.66	300.75	14.84	-57.4	-61.8	3.7	0.00e+00	0	46	104	0	86	23955
2026-01-03 22:52:21.74	300.41	14.83	-57.4	-61.8	3.7	0.00e+00	0	46	104	0	86	23763
2026-01-03 22:52:22.60	300.13	14.82	-57.3	-61.7	3.7	0.00e+00	0	46	104	0	86	23528
2026-01-03 22:52:23.75	299.76	14.81	-57.2	-61.6	3.7	0.00e+00	0	46	104	0	86	23268
2026-01-03 22:52:24.61	299.49	14.80	-57.4	-61.9	3.7	0.00e+00	0	46	104	0	86	24010
2026-01-03 22:52:25.75	299.12	14.79	-57.3	-61.9	3.7	0.00e+00	0	46	104	0	86	24027
2026-01-03 22:52:26.61	298.85	14.78	-57.3	-61.7	3.7	0.00e+00	0	46	104	0	86	23684
2026-01-03 22:52:27.76	298.48	14.76	-57.3	-61.7	3.7	0.00e+00	0	46	104	0	86	23561
2026-01-03 22:52:28.62	298.21	14.75	-57.3	-61.6	3.7	0.00e+00	0	46	104	0	86	23186
2026-01-03 22:52:29.76	297.84	14.74	-57.3	-61.8	3.7	0.00e+00	0	46	104	0	86	23758
2026-01-03 22:52:30.63	297.57	14.72	-57.3	-61.8	3.7	0.00e+00	0	46	104	0	86	23934
2026-01-03 22:52:31.77	297.21	14.71	-57.2	-61.8	3.7	0.00e+00	0	46	104	0	86	23791
2026-01-03 22:52:32.63	296.93	14.69	-57.2	-61.7	3.7	0.00e+00	0	46	104	0	86	23578
2026-01-03 22:52:33.78	296.57	14.67	-57.3	-61.6	3.7	0.00e+00	0	46	104	0	86	23408
2026-01-03 22:52:34.64	296.30	14.66	-57.3	-61.6	3.7	0.00e+00	0	46	104	0	86	23236
2026-01-03 22:52:35.78	295.94	14.64	-57.3	-61.5	3.7	0.00e+00	0	46	104	0	86	23052
2026-01-03 22:52:36.80	295.61	14.62	-57.6	-61.9	3.7	0.00e+00	0	46	104	0	86	24212
2026-01-03 22:52:37.98	295.24	14.59	-57.4	-61.8	3.7	0.00e+00	0	46	104	0	86	23940
2026-01-03 22:52:38.84	294.97	14.57	-57.2	-61.4	3.7	0.00e+00	0	46	104	0	86	22849
2026-01-03 22:52:39.99	294.61	14.55	-57.3	-61.5	3.6	0.00e+00	0	46	104	0	86	23085
2026-01-03 22:52:40.85	294.34	14.53	-57.6	-62.0	3.7	0.00e+00	0	46	104	0	86	24469
2026-01-03 22:52:41.99	293.99	14.50	-57.5	-61.9	3.7	0.00e+00	0	46	104	0	86	24085
2026-01-03 22:52:42.85	293.72	14.48	-57.5	-62.0	3.7	0.00e+00	0	46	104	0	86	24279
2026-01-03 22:52:44.00	293.36	14.45	-57.7	-62.2	3.7	0.00e+00	0	46	104	0	86	24878
2026-01-03 22:52:44.86	293.09	14.43	-57.5	-61.7	3.7	0.00e+00	0	46	104	0	86	23689
2026-01-03 22:52:46.01	292.74	14.40	-57.6	-62.1	3.7	0.00e+00	0	46	104	0	86	24716
2026-01-03 22:52:46.87	292.47	14.38	-57.7	-62.2	3.7	0.00e+00	0	46	104	0	86	25085
2026-01-03 22:52:48.01	292.12	14.35	-57.7	-62.2	3.7	0.00e+00	0	46	104	0	86	24968
2026-01-03 22:52:48.87	291.85	14.33	-57.8	-62.3	3.7	0.00e+00	0	46	104	0	86	25268
2026-01-03 22:52:50.01	291.50	14.29	-57.5	-62.1	3.7	0.00e+00	0	46	104	0	86	24540
2026-01-03 22:52:50.87	291.24	14.27	-57.4	-62.0	3.7	0.00e+00	0	46	104	0	86	24376
2026-01-03 22:52:52.02	290.89	14.23	-57.4	-61.8	3.7	0.00e+00	0	46	104	0	86	23831
2026-01-03 22:52:52.88	290.62	14.21	-57.4	-61.8	3.7	0.00e+00	0	46	104	0	86	23736
2026-01-03 22:52:54.02	290.28	14.17	-57.6	-62.1	3.7	0.00e+00	0	46	104	0	86	24697
2026-01-03 22:52:54.88	290.01	14.14	-57.5	-62.1	3.7	0.00e+00	0	46	104	0	86	24709
2026-01-03 22:52:56.03	289.67	14.11	-57.5	-62.1	3.7	0.00e+00	0	46	104	0	86	24639
2026-01-03 22:52:56.89	289.41	14.08	-57.5	-62.1	3.7	0.00e+00	0	46	104	0	86	24587
2026-01-03 22:52:58.04	289.06	14.04	-57.6	-62.1	3.7	0.00e+00	0	46	104	0	86	24739
2026-01-03 22:52:58.89	288.80	14.01	-57.7	-62.2	3.7	0.00e+00	0	47	104	0	86	25051
2026-01-03 22:53:00.04	288.46	13.97	-57.6	-62.2	3.7	0.00e+00	0	46	104	0	86	24819
2026-01-03 22:53:00.90	288.20	13.94	-57.8	-62.3	3.7	0.00e+00	0	46	104	0	86	25215
2026-01-03 22:53:02.12	287.84	13.90	-57.6	-62.1	3.7	0.00e+00	0	46	104	0	86	24653
2026-01-03 22:53:03.38	287.46	13.85	-57.5	-61.9	3.7	0.00e+00	0	46	104	0	86	24043
2026-01-03 22:53:04.11	287.25	13.82	-57.4	-61.7	3.7	0.00e+00	0	47	104	0	86	23623
2026-01-03 22:53:05.40	286.87	13.77	-57.3	-61.7	3.7	0.00e+00	0	46	104	0	86	23662
2026-01-03 22:53:06.12	286.65	13.75	-57.5	-61.9	3.7	0.00e+00	0	46	104	0	86	24076
2026-01-03 22:53:07.41	286.28	13.70	-57.5	-61.9	3.7	0.00e+00	0	46	104	0	86	24141
2026-01-03 22:53:08.12	286.07	13.67	-57.7	-62.1	3.7	0.00e+00	0	46	104	0	86	24564
2026-01-03 22:53:09.41	285.69	13.62	-57.7	-62.1	3.7	0.00e+00	0	47	104	0	86	24730
2026-01-03 22:53:10.13	285.48	13.59	-57.8	-62.3	3.7	0.00e+00	0	46	104	0	86	25230
2026-01-03 22:53:11.42	285.11	13.53	-57.6	-62.1	3.7	0.00e+00	0	47	104	0	86	24663
2026-01-03 22:53:12.13	284.91	13.50	-57.5	-62.1	3.7	0.00e+00	0	46	104	0	86	24783
2026-01-03 22:53:13.43	284.53	13.45	-57.7	-62.3	3.7	0.00e+00	0	46	104	0	86	25244
2026-01-03 22:53:14.14	284.33	13.42	-57.8	-62.2	3.7	0.00e+00	0	46	104	0	86	25080
2026-01-03 22:53:15.78	283.86	13.35	-58.0	-62.5	3.7	0.00e+00	0	46	104	0	87	24247
2026-01-03 22:53:16.36	283.70	13.32	-58.0	-62.4	3.7	0.00e+00	0	46	104	0	87	24123
2026-01-03 22:53:17.93	283.25	13.25	-57.6	-62.2	3.6	0.00e+00	0	46	104	0	87	23605
2026-01-03 22:53:18.55	283.08	13.22	-57.8	-62.5	3.7	0.00e+00	0	46	104	0	87	24303
2026-01-03 22:53:20.12	282.63	13.15	-57.7	-62.3	3.7	0.00e+00	0	46	104	0	87	23787
2026-01-03 22:53:20.77	282.45	13.12	-57.5	-62.1	3.7	0.00e+00	0	46	104	0	87	23393
2026-01-03 22:53:22.21	282.05	13.06	-57.4	-62.1	3.7	0.00e+00	0	46	104	0	86	24552
2026-01-03 22:53:22.97	281.84	13.02	-57.8	-62.4	3.7	0.00e+00	0	46	104	0	86	25474
2026-01-03 22:53:24.26	281.48	12.96	-57.7	-62.3	3.7	0.00e+00	0	46	104	0	86	25286
2026-01-03 22:53:24.98	281.29	12.92	-57.8	-62.5	3.7	0.00e+00	0	46	104	0	86	25681
2026-01-03 22:53:26.27	280.93	12.86	-57.5	-62.1	3.7	0.00e+00	0	46	104	0	86	24763
2026-01-03 22:53:26.98	280.74	12.83	-57.4	-62.1	3.7	0.00e+00	0	46	104	0	86	24773
2026-01-03 22:53:28.27	280.39	12.76	-57.4	-62.2	3.7	0.00e+00	0	46	104	0	86	24976
2026-01-03 22:53:28.99	280.19	12.73	-57.5	-62.1	3.7	0.00e+00	0	46	104	0	86	24640
2026-01-03 22:53:30.28	279.84	12.66	-57.4	-62.1	3.7	0.00e+00	0	46	104	0	86	24732
2026-01-03 22:53:31.00	279.65	12.63	-57.5	-62.2	3.7	0.00e+00	0	47	104	0	86	24939
2026-01-03 22:53:32.28	279.31	12.56	-57.4	-62.0	3.7	0.00e+00	0	46	104	0	86	24309
2026-01-03 22:53:33.00	279.12	12.53	-57.6	-62.4	3.7	0.00e+00	0	46	104	0	86	25511
2026-01-03 22:53:34.29	278.77	12.46	-57.2	-61.8	3.7	0.00e+00	0	46	104	0	86	23962
2026-01-03 22:53:35.00	278.59	12.42	-57.3	-62.2	3.7	0.00e+00	0	46	104	0	86	24920
2026-01-03 22:53:36.29	278.25	12.36	-57.2	-62.0	3.7	0.00e+00	0	47	104	0	86	24392
2026-01-03 22:53:37.01	278.06	12.32	-57.2	-62.1	3.7	0.00e+00	0	47	104	0	86	24647
2026-01-03 22:53:38.30	277.72	12.25	-57.3	-62.1	3.7	0.00e+00	0	46	104	0	86	24697
2026-01-03 22:53:39.02	277.54	12.21	-57.5	-62.0	3.7	0.00e+00	0	46	104	0	86	24492
2026-01-03 22:53:40.30	277.20	12.14	-57.4	-62.1	3.7	0.00e+00	0	46	104	0	86	24683
2026-01-03 22:53:41.02	277.02	12.10	-57.5	-62.1	3.7	0.00e+00	0	47	104	0	86	24607
2026-01-03 22:53:42.31	276.69	12.03	-57.4	-61.9	3.7	0.00e+00	0	46	104	0	86	24012
2026-01-03 22:53:43.03	276.51	12.00	-57.2	-62.0	3.7	0.00e+00	0	46	104	0	86	24372
2026-01-03 22:53:44.31	276.18	11.93	-57.4	-62.1	3.7	0.00e+00	0	47	104	0	86	24734
2026-01-03 22:53:45.03	276.00	11.89	-57.5	-62.3	3.7	0.00e+00	0	47	104	0	86	25149
2026-01-03 22:53:46.32	275.67	11.81	-57.4	-61.7	3.7	0.00e+00	0	47	104	0	86	23659
2026-01-03 22:53:47.03	275.50	11.77	-57.5	-61.9	3.7	0.00e+00	0	47	104	0	86	23981
2026-01-03 22:53:48.33	275.17	11.70	-57.5	-61.9	3.7	0.00e+00	0	47	104	0	86	24010
2026-01-03 22:53:49.04	275.00	11.66	-57.2	-61.7	3.7	0.00e+00	0	46	104	0	86	23509
2026-01-03 22:53:50.33	274.68	11.59	-57.2	-61.5	3.7	0.00e+00	0	46	104	0	86	22964
2026-01-03 22:53:51.06	274.50	11.55	-57.3	-61.9	3.7	0.00e+00	0	47	104	0	86	24180
2026-01-03 22:53:52.67	274.10	11.46	-57.4	-61.9	3.7	0.00e+00	0	47	104	0	86	24239
2026-01-03 22:53:53.51	273.90	11.41	-57.3	-62.0	3.7	0.00e+00	0	47	104	0	86	24499
2026-01-03 22:53:54.66	273.62	11.34	-57.4	-62.1	3.7	0.00e+00	0	47	104	0	86	24740
2026-01-03 22:53:55.85	273.34	11.27	-57.4	-62.2	3.7	0.00e+00	0	46	104	0	86	24946
2026-01-03 22:53:56.71	273.13	11.22	-57.5	-62.2	3.7	0.00e+00	0	47	104	0	86	24921
2026-01-03 22:53:57.86	272.86	11.16	-57.3	-62.2	3.7	0.00e+00	0	47	104	0	86	24877
2026-01-03 22:53:58.72	272.65	11.11	-57.1	-62.0	3.7	0.00e+00	0	46	104	0	86	24293
2026-01-03 22:53:59.86	272.38	11.04	-57.2	-62.1	3.7	0.00e+00	0	46	104	0	86	24601
2026-01-03 22:54:00.72	272.18	10.99	-57.0	-61.9	3.7	0.00e+00	0	46	104	0	86	24059
2026-01-03 22:54:01.89	271.91	10.92	-56.9	-61.8	3.7	0.00e+00	0	47	104	0	85	25115
2026-01-03 22:54:02.74	271.71	10.87	-57.2	-61.8	3.7	0.00e+00	0	47	104	0	85	25235
2026-01-03 22:54:03.89	271.45	10.80	-57.1	-61.8	3.7	0.00e+00	0	47	104	0	85	25197
2026-01-03 22:54:04.75	271.25	10.75	-57.3	-61.9	3.7	0.00e+00	0	47	104	0	85	25402
2026-01-03 22:54:06.02	270.96	10.67	-57.4	-62.0	3.7	0.00e+00	0	47	104	0	85	25823
2026-01-03 22:54:06.74	270.79	10.63	-57.4	-61.9	3.7	0.00e+00	0	47	104	0	85	25545
2026-01-03 22:54:08.23	270.46	10.54	-57.4	-62.0	3.7	0.00e+00	0	47	104	0	85	25718
2026-01-03 22:54:08.95	270.30	10.50	-57.4	-62.0	3.7	0.00e+00	0	47	104	0	85	25867
2026-01-03 22:54:10.24	270.01	10.42	-57.6	-62.3	3.7	0.00e+00	0	47	104	0	85	26584
2026-01-03 22:54:10.96	269.85	10.37	-57.3	-62.2	3.7	0.00e+00	0	47	104	0	85	26438
2026-01-03 22:54:12.25	269.56	10.29	-57.4	-62.1	3.7	0.00e+00	0	46	104	0	85	26061
2026-01-03 22:54:12.97	269.40	10.25	-57.3	-62.1	3.7	0.00e+00	0	47	104	0	85	26238
2026-01-03 22:54:14.26	269.12	10.17	-57.3	-62.1	3.7	0.00e+00	0	47	104	0	85	26030
2026-01-03 22:54:14.97	268.97	10.13	-57.2	-62.1	3.7	0.00e+00	0	47	104	0	85	26221
2026-01-03 22:54:16.26	268.69	10.05	-57.0	-61.9	3.7	0.00e+00	0	46	104	0	85	25554
2026-01-03 22:54:17.06	268.51	10.00	-57.0	-61.8	3.7	0.00e+00	0	47	104	0	85	25358
2026-01-03 22:54:18.52	268.20	9.91	-57.0	-62.0	3.7	0.00e+00	0	47	104	0	85	25880
2026-01-03 22:54:19.24	268.05	9.87	-57.1	-62.1	3.7	0.00e+00	0	47	104	0	85	26203
2026-01-03 22:54:20.53	267.77	9.79	-57.4	-62.2	3.7	0.00e+00	0	46	104	0	85	26445
2026-01-03 22:54:21.24	267.62	9.74	-57.4	-62.3	3.7	0.00e+00	0	46	104	0	85	26620
2026-01-03 22:54:22.53	267.35	9.66	-57.1	-61.8	3.7	0.00e+00	0	47	104	0	85	25253
2026-01-03 22:54:23.25	267.20	9.62	-56.9	-61.7	3.7	0.00e+00	0	47	104	0	85	24860
2026-01-03 22:54:24.54	266.93	9.54	-57.0	-61.7	3.7	0.00e+00	0	47	104	0	85	24984
2026-01-03 22:54:25.25	266.79	9.49	-57.0	-61.8	3.7	0.00e+00	0	47	104	0	85	25128
2026-01-03 22:54:26.54	266.52	9.41	-57.1	-61.9	3.7	0.00e+00	0	46	104	0	85	25456
2026-01-03 22:54:27.26	266.38	9.37	-57.1	-62.0	3.7	0.00e+00	0	47	104	0	85	25879
2026-01-03 22:54:28.55	266.11	9.29	-57.1	-62.0	3.7	0.00e+00	0	47	104	0	85	25737
2026-01-03 22:54:29.26	265.97	9.24	-57.0	-62.0	3.7	0.00e+00	0	47	104	0	85	25957
2026-01-03 22:54:30.56	265.71	9.16	-57.0	-62.1	3.7	0.00e+00	0	47	104	0	85	26022
2026-01-03 22:54:31.27	265.57	9.11	-56.9	-62.0	3.7	0.00e+00	0	47	104	0	85	25742
2026-01-03 22:54:32.56	265.31	9.03	-57.0	-62.1	3.7	0.00e+00	0	47	104	0	85	26013
2026-01-03 22:54:33.28	265.17	8.99	-56.9	-61.9	3.7	0.00e+00	0	47	104	0	85	25600
2026-01-03 22:54:34.57	264.91	8.91	-57.6	-62.2	3.7	0.00e+00	0	47	104	0	86	24948
2026-01-03 22:54:35.29	264.77	8.86	-57.5	-62.0	3.7	0.00e+00	0	47	104	0	86	24344
2026-01-03 22:54:36.58	264.52	8.78	-57.3	-62.3	3.7	0.00e+00	0	47	104	0	86	25106
2026-01-03 22:54:37.29	264.38	8.73	-57.5	-62.3	3.7	0.00e+00	0	47	104	0	86	25236
2026-01-03 22:54:38.58	264.14	8.65	-57.9	-62.4	3.7	0.00e+00	0	47	104	0	86	25445
2026-01-03 22:54:39.30	264.00	8.61	-57.8	-62.4	3.7	0.00e+00	0	47	104	0	86	25660
2026-01-03 22:54:40.59	263.75	8.53	-57.7	-62.5	3.7	0.00e+00	0	47	104	0	86	25882
2026-01-03 22:54:41.31	263.62	8.48	-57.6	-62.7	3.7	0.00e+00	0	47	104	0	86	26313
2026-01-03 22:54:42.60	263.37	8.40	-58.1	-62.8	3.7	0.00e+00	0	47	104	0	86	26588
2026-01-03 22:54:43.32	263.24	8.35	-57.8	-62.2	3.7	0.00e+00	0	47	104	0	86	25039
2026-01-03 22:54:44.61	263.00	8.27	-57.8	-62.5	3.7	0.00e+00	0	47	104	0	86	25885
2026-01-03 22:54:45.32	262.87	8.23	-57.7	-62.5	3.7	0.00e+00	0	47	104	0	86	25899
2026-01-03 22:54:46.68	262.62	8.14	-58.0	-62.6	3.7	0.00e+00	0	47	104	0	86	26099
2026-01-03 22:54:47.39	262.49	8.09	-57.7	-62.4	3.7	0.00e+00	0	47	104	0	86	25418
2026-01-03 22:54:48.74	262.24	8.01	-57.7	-62.2	3.7	0.00e+00	0	47	104	0	86	25091
2026-01-03 22:54:49.45	262.11	7.96	-57.9	-62.5	3.7	0.00e+00	0	47	104	0	86	25725
2026-01-03 22:54:50.77	261.87	7.88	-58.0	-62.5	3.7	0.00e+00	0	47	104	0	86	25873
2026-01-03 22:54:51.49	261.75	7.83	-58.1	-62.6	3.7	0.00e+00	0	46	104	0	86	26212
2026-01-03 22:54:52.81	261.51	7.75	-57.8	-62.3	3.7	0.00e+00	0	47	104	0	86	25254
2026-01-03 22:54:53.53	261.38	7.70	-57.7	-62.4	3.7	0.00e+00	0	47	104	0	86	25392
2026-01-03 22:54:54.85	261.15	7.62	-57.6	-62.4	3.7	0.00e+00	0	47	104	0	86	25544
2026-01-03 22:54:55.57	261.03	7.58	-57.2	-61.9	3.7	0.00e+00	0	47	104	0	86	24083
2026-01-03 22:54:56.86	260.80	7.49	-57.2	-61.9	3.7	0.00e+00	0	47	104	0	86	24014
2026-01-03 22:54:57.57	260.68	7.45	-57.3	-62.0	3.7	0.00e+00	0	47	104	0	86	24286
2026-01-03 22:54:58.87	260.45	7.37	-57.2	-61.8	3.7	0.00e+00	0	47	104	0	86	23932
2026-01-03 22:54:59.58	260.33	7.32	-57.3	-62.0	3.7	0.00e+00	0	47	104	0	86	24355
2026-01-03 22:55:00.87	260.11	7.24	-57.2	-61.8	3.7	0.00e+00	0	47	104	0	86	23955
2026-01-03 22:55:01.59	259.99	7.19	-57.3	-61.9	3.7	0.00e+00	0	47	104	0	86	24004
2026-01-03 22:55:02.88	259.77	7.11	-57.4	-62.0	3.7	0.00e+00	0	47	104	0	86	24375
2026-01-03 22:55:03.59	259.66	7.07	-57.3	-61.9	3.7	0.00e+00	0	47	104	0	86	24193
2026-01-03 22:55:04.89	259.44	6.98	-57.2	-61.9	3.7	0.00e+00	0	47	104	0	86	24044
2026-01-03 22:55:05.60	259.32	6.94	-57.2	-61.9	3.7	0.00e+00	0	47	104	0	86	23987
2026-01-03 22:55:06.90	259.11	6.86	-57.2	-61.9	3.7	0.00e+00	0	47	104	0	86	24001
2026-01-03 22:55:07.61	258.99	6.81	-57.4	-62.0	3.6	0.00e+00	0	47	104	0	86	24493
2026-01-03 22:55:08.90	258.78	6.73	-57.3	-62.0	3.7	0.00e+00	0	47	104	0	86	24320
2026-01-03 22:55:09.62	258.66	6.68	-57.4	-62.0	3.7	0.00e+00	0	47	104	0	86	24472
2026-01-03 22:55:10.91	258.46	6.60	-57.2	-61.9	3.7	0.00e+00	0	47	104	0	86	23978
2026-01-03 22:55:11.63	258.34	6.56	-57.1	-61.7	3.7	0.00e+00	0	47	104	0	86	23681
2026-01-03 22:55:12.92	258.14	6.48	-57.2	-61.8	3.7	0.00e+00	0	46	104	0	86	23898
2026-01-03 22:55:13.63	258.02	6.43	-57.4	-62.1	3.7	0.00e+00	0	47	104	0	86	24581
2026-01-03 22:55:14.92	257.82	6.35	-57.2	-61.9	3.7	0.00e+00	0	46	104	0	86	23996
2026-01-03 22:55:15.64	257.71	6.30	-57.2	-61.8	3.7	0.00e+00	0	47	104	0	86	23936
2026-01-03 22:55:16.93	257.51	6.22	-57.2	-61.8	3.7	0.00e+00	0	47	104	0	86	23865
2026-01-03 22:55:17.65	257.40	6.18	-57.1	-61.7	3.7	0.00e+00	0	47	104	0	86	23656
2026-01-03 22:55:18.94	257.20	6.10	-57.3	-62.0	3.7	0.00e+00	0	47	104	0	86	24421
2026-01-03 22:55:19.66	257.09	6.05	-57.3	-61.9	3.7	0.00e+00	0	47	104	0	86	24241
2026-01-03 22:55:20.95	256.89	5.97	-57.5	-62.2	3.7	0.00e+00	0	47	104	0	86	24865
2026-01-03 22:55:21.67	256.78	5.93	-57.4	-62.1	3.7	0.00e+00	0	47	104	0	86	24542
2026-01-03 22:55:22.96	256.59	5.84	-57.3	-61.9	3.7	0.00e+00	0	47	104	0	86	24091
2026-01-03 22:55:23.67	256.48	5.80	-57.3	-62.0	3.7	0.00e+00	0	47	104	0	86	24398
2026-01-03 22:55:24.97	256.29	5.72	-57.3	-62.0	3.7	0.00e+00	0	47	104	0	86	24307
2026-01-03 22:55:25.68	256.18	5.67	-57.2	-61.9	3.7	0.00e+00	0	47	104	0	86	24085
2026-01-03 22:55:26.97	255.99	5.59	-57.2	-61.9	3.7	0.00e+00	0	47	104	0	86	23989
2026-01-03 22:55:27.69	255.89	5.55	-57.2	-61.8	3.7	0.00e+00	0	47	104	0	86	23943
2026-01-03 22:55:28.98	255.70	5.47	-57.2	-61.8	3.7	0.00e+00	0	47	104	0	86	23905
2026-01-03 22:55:29.69	255.60	5.42	-57.3	-61.9	3.7	0.00e+00	0	47	104	0	86	24136
2026-01-03 22:55:30.99	255.41	5.34	-57.2	-61.9	3.7	0.00e+00	0	47	104	0	86	24066
2026-01-03 22:55:31.70	255.31	5.30	-57.2	-61.8	3.7	0.00e+00	0	47	104	0	86	23796
2026-01-03 22:55:32.99	255.12	5.22	-57.3	-61.9	3.7	0.00e+00	0	47	104	0	86	24116
2026-01-03 22:55:33.71	255.02	5.17	-57.4	-62.0	3.7	0.00e+00	0	47	104	0	86	24450
2026-01-03 22:55:35.00	254.84	5.09	-57.4	-62.0	3.7	0.00e+00	0	47	104	0	86	24510
2026-01-03 22:55:35.72	254.74	5.05	-57.4	-62.0	3.6	0.00e+00	0	47	104	0	86	24345
2026-01-03 22:55:37.01	254.56	4.97	-57.3	-62.0	3.7	0.00e+00	0	47	104	0	86	24245
2026-01-03 22:55:37.73	254.46	4.93	-57.2	-61.8	3.7	0.00e+00	0	47	104	0	86	23814
2026-01-03 22:55:39.02	254.28	4.85	-57.3	-61.9	3.7	0.00e+00	0	47	104	0	86	24094

#Closed at: 2026-01-03 22:55:39
#Recorded file [0 MB]: D:/Data/31040_260104_014845.dat