passes_logs/2026/01/03/T1/T1__20260103_113212_SUOMI_NPP_rec.log

#Pass ID: 20260103_113212_SUOMI NPP
#Satellite: SUOMI NPP
#Configuration: NPP
#almurnet v.1.7.20251203
#Start time: 2026-01-03 11:32:13

#Version: 2.0.20230620
#Station: T1
#Location: 37.570604 lon 55.790049 lat
#TLE: 1 37849U 11061A   26001.07732418  .00000182  00000+0  10735-3 0  9990
#TLE: 2 37849  98.7795 303.2470 0002580  87.2016 272.9455 14.19520779734739

#Time	Az	El	Level	Level2	SNR	BER	BlckErr	Temp	State	Recorded	gain1	gain2
2026-01-03 11:32:13.92	210.99	5.08	-52.4	-67.9	3.8	1.49e+00	0	37	0	0	76	21321
2026-01-03 11:32:14.92	211.08	5.14	-52.3	-67.9	3.8	1.49e+00	0	38	104	0	76	21330
2026-01-03 11:32:15.92	211.17	5.20	-52.4	-67.9	3.8	1.49e+00	0	38	104	0	76	21268
2026-01-03 11:32:16.93	211.26	5.26	-52.4	-67.9	3.8	1.49e+00	0	38	104	0	76	21318
2026-01-03 11:32:17.93	211.34	5.32	-52.5	-68.0	3.8	1.49e+00	0	38	104	0	76	21524
2026-01-03 11:32:18.94	211.43	5.38	-52.8	-68.2	3.8	1.49e+00	0	38	104	0	76	22213
2026-01-03 11:32:19.94	211.52	5.44	-52.7	-68.2	3.8	1.49e+00	0	38	104	0	76	22060
2026-01-03 11:32:20.94	211.61	5.50	-52.6	-68.1	3.8	1.49e+00	0	38	104	0	76	21801
2026-01-03 11:32:21.95	211.70	5.56	-52.6	-68.0	3.8	1.49e+00	0	38	104	0	76	21549
2026-01-03 11:32:22.95	211.79	5.62	-52.9	-68.2	3.8	1.49e+00	0	38	104	0	76	22211
2026-01-03 11:32:23.96	211.88	5.68	-52.4	-67.7	3.8	1.49e+00	0	38	104	0	76	20914
2026-01-03 11:32:24.96	211.97	5.74	-52.4	-67.6	3.8	1.49e+00	0	38	104	0	76	20625
2026-01-03 11:32:25.97	212.06	5.80	-52.3	-67.5	3.8	1.49e+00	0	38	104	0	76	20528
2026-01-03 11:32:26.97	212.15	5.86	-52.5	-67.6	3.8	1.49e+00	0	38	104	0	76	20729
2026-01-03 11:32:27.98	212.25	5.92	-52.8	-68.0	3.8	1.49e+00	0	38	104	0	76	21617
2026-01-03 11:32:28.98	212.34	5.98	-52.7	-67.9	3.8	1.49e+00	0	38	104	0	76	21432
2026-01-03 11:32:29.98	212.43	6.04	-52.7	-67.9	3.8	1.49e+00	0	38	104	0	76	21502
2026-01-03 11:32:30.99	212.52	6.10	-52.5	-67.8	3.8	1.49e+00	0	38	104	0	76	21232
2026-01-03 11:32:31.99	212.62	6.17	-52.5	-67.8	3.8	1.49e+00	0	38	104	0	76	21103
2026-01-03 11:32:33.00	212.71	6.23	-52.9	-68.2	3.8	1.49e+00	0	38	104	0	76	22126
2026-01-03 11:32:34.00	212.80	6.29	-52.3	-67.6	3.8	1.49e+00	0	38	104	0	76	20718
2026-01-03 11:32:35.01	212.90	6.35	-52.4	-67.7	3.8	1.49e+00	0	38	104	0	76	20968
2026-01-03 11:32:36.01	212.99	6.41	-52.4	-67.8	3.8	1.49e+00	0	38	104	0	76	21250
2026-01-03 11:32:37.01	213.09	6.47	-52.4	-67.8	3.8	1.49e+00	0	39	104	0	76	21233
2026-01-03 11:32:38.02	213.18	6.53	-52.5	-68.0	3.8	1.49e+00	0	38	104	0	76	21536
2026-01-03 11:32:39.02	213.28	6.59	-52.4	-67.8	3.8	1.49e+00	0	39	104	0	76	21121
2026-01-03 11:32:40.03	213.38	6.66	-52.4	-67.7	3.8	1.49e+00	0	39	104	0	76	20953
2026-01-03 11:32:41.03	213.47	6.72	-52.4	-67.7	3.8	1.49e+00	0	38	104	0	76	20885
2026-01-03 11:32:42.04	213.57	6.78	-52.3	-67.6	3.8	1.49e+00	0	39	104	0	76	20616
2026-01-03 11:32:43.04	213.67	6.84	-52.3	-67.5	3.8	1.49e+00	0	38	104	0	76	20465
2026-01-03 11:32:44.05	213.77	6.90	-52.4	-67.6	3.8	1.49e+00	0	39	104	0	76	20631
2026-01-03 11:32:45.05	213.86	6.97	-52.3	-67.3	3.8	1.49e+00	0	39	104	0	76	20001
2026-01-03 11:32:46.06	213.96	7.03	-52.9	-67.8	3.8	1.49e+00	0	39	104	0	76	21115
2026-01-03 11:32:47.06	214.06	7.09	-52.3	-67.2	3.8	1.49e+00	0	39	104	0	76	19680
2026-01-03 11:32:48.06	214.16	7.15	-52.2	-67.1	3.8	1.49e+00	0	39	104	0	76	19475
2026-01-03 11:32:49.07	214.26	7.22	-52.3	-67.3	3.8	1.49e+00	0	39	104	0	76	19862
2026-01-03 11:32:50.07	214.36	7.28	-52.2	-67.3	3.8	1.49e+00	0	39	104	0	76	19861
2026-01-03 11:32:51.07	214.46	7.34	-52.3	-67.3	3.8	1.49e+00	0	39	104	0	76	19936
2026-01-03 11:32:52.08	214.56	7.40	-52.4	-67.5	3.8	1.49e+00	0	39	104	0	76	20307
2026-01-03 11:32:53.08	214.67	7.47	-52.3	-67.6	3.8	1.49e+00	0	39	104	0	76	20543
2026-01-03 11:32:54.09	214.77	7.53	-52.3	-67.7	3.8	1.49e+00	0	39	104	0	76	20874
2026-01-03 11:32:55.09	214.87	7.59	-52.4	-67.8	3.8	1.49e+00	0	39	104	0	76	21084
2026-01-03 11:32:56.10	214.97	7.65	-52.4	-67.6	3.8	1.49e+00	0	39	104	0	76	20715
2026-01-03 11:32:57.10	215.08	7.72	-53.0	-67.8	3.8	1.49e+00	0	39	104	0	76	21164
2026-01-03 11:32:58.10	215.18	7.78	-52.6	-66.9	3.8	1.49e+00	0	39	104	0	76	19162
2026-01-03 11:32:59.11	215.28	7.84	-52.5	-66.6	3.8	1.49e+00	0	39	104	0	76	18444
2026-01-03 11:33:00.11	215.39	7.91	-52.4	-66.9	3.8	1.49e+00	0	39	104	0	76	19012
2026-01-03 11:33:01.12	215.49	7.97	-52.4	-67.7	3.8	1.49e+00	0	39	104	0	76	20869
2026-01-03 11:33:02.12	215.60	8.03	-52.4	-67.4	3.8	1.49e+00	0	39	104	0	76	20230
2026-01-03 11:33:03.13	215.71	8.10	-52.2	-64.4	4.2	1.49e+00	0	39	104	0	76	14296
2026-01-03 11:33:04.13	215.81	8.16	-51.8	-60.6	6.1	8.45e-01	0	39	0	1048576	75	9746
2026-01-03 11:33:05.14	215.92	8.22	-51.1	-57.6	9.0	5.18e-02	0	39	0	3145728	74	7302
2026-01-03 11:33:06.14	216.03	8.29	-50.1	-55.0	11.6	3.27e-03	0	39	0	5242880	72	6120
2026-01-03 11:33:07.14	216.13	8.35	-49.2	-53.2	13.6	9.53e-05	0	39	0	6291456	70	5544
2026-01-03 11:33:08.15	216.24	8.42	-48.6	-52.2	14.5	0.00e+00	0	39	0	8388608	69	5244
2026-01-03 11:33:09.15	216.35	8.48	-48.0	-51.3	15.4	0.00e+00	0	39	0	10485760	68	5037
2026-01-03 11:33:10.16	216.46	8.54	-48.3	-51.5	15.6	7.00e-07	0	39	0	12582912	67	5441
2026-01-03 11:33:11.16	216.57	8.61	-47.8	-51.2	15.4	0.00e+00	0	39	0	14680064	67	5221
2026-01-03 11:33:12.16	216.68	8.67	-48.1	-51.5	14.9	0.00e+00	0	39	0	15728640	67	5452
2026-01-03 11:33:13.17	216.79	8.74	-48.9	-52.7	13.9	0.00e+00	0	39	0	17825792	68	5920
2026-01-03 11:33:14.17	216.90	8.80	-49.7	-54.2	12.4	1.75e-05	0	39	0	19922944	70	6246
2026-01-03 11:33:15.17	217.01	8.86	-50.6	-56.2	10.6	1.63e-03	0	39	0	22020096	71	7386
2026-01-03 11:33:16.18	217.12	8.93	-51.1	-57.9	8.6	1.49e-02	0	39	0	24117248	72	8533
2026-01-03 11:33:17.18	217.24	8.99	-51.6	-59.8	6.8	8.61e-02	0	39	0	25165824	73	10059
2026-01-03 11:33:18.18	217.35	9.06	-51.9	-61.5	5.4	4.62e-01	0	39	0	27262976	74	11498
2026-01-03 11:33:19.19	217.46	9.12	-52.6	-66.2	3.8	1.45e+00	0	39	104	28311552	75	18695
2026-01-03 11:33:20.19	217.58	9.19	-50.8	-56.6	10.1	7.22e-03	0	39	0	28311552	72	7368
2026-01-03 11:33:21.20	217.69	9.25	-52.7	-65.0	4.1	6.38e-01	0	39	0	30408704	76	15360
2026-01-03 11:33:22.20	217.81	9.32	-52.4	-62.2	5.1	9.19e-01	0	40	0	31457280	76	11106
2026-01-03 11:33:23.20	217.92	9.38	-50.4	-55.5	11.4	3.65e-04	0	39	0	33554432	72	6457
2026-01-03 11:33:24.21	218.04	9.45	-50.0	-54.7	12.0	3.83e-04	0	39	0	34603008	71	6234
2026-01-03 11:33:25.21	218.15	9.51	-49.7	-54.2	12.5	1.94e-04	0	39	0	36700160	71	5865
2026-01-03 11:33:26.22	218.27	9.58	-49.3	-53.3	13.5	1.90e-05	0	39	0	38797312	70	5632
2026-01-03 11:33:27.22	218.39	9.64	-48.8	-52.5	14.3	2.20e-06	0	40	0	40894464	69	5429
2026-01-03 11:33:28.22	218.50	9.71	-48.3	-51.6	15.2	0.00e+00	0	39	0	41943040	68	5217
2026-01-03 11:33:29.22	218.62	9.77	-48.2	-51.5	15.3	0.00e+00	0	40	0	44040192	68	5151
2026-01-03 11:33:30.23	218.74	9.84	-48.1	-51.4	15.5	0.00e+00	0	39	0	46137344	68	5045
2026-01-03 11:33:31.23	218.86	9.90	-48.2	-51.5	15.3	0.00e+00	0	40	0	48234496	68	5126
2026-01-03 11:33:32.23	218.98	9.97	-48.6	-52.0	15.3	0.00e+00	0	40	0	50331648	68	5413
2026-01-03 11:33:33.23	219.10	10.03	-48.3	-51.5	15.6	0.00e+00	0	39	0	52428800	68	5158
2026-01-03 11:33:34.24	219.22	10.10	-47.8	-51.1	15.7	0.00e+00	0	40	0	53477376	67	5174
2026-01-03 11:33:35.24	219.34	10.17	-47.7	-51.0	15.6	0.00e+00	0	40	0	55574528	67	5117
2026-01-03 11:33:36.24	219.46	10.23	-47.6	-50.9	15.7	0.00e+00	0	40	0	57671680	67	5072
2026-01-03 11:33:37.25	219.59	10.30	-47.5	-50.7	16.0	0.00e+00	0	40	0	59768832	66	5248
2026-01-03 11:33:38.25	219.71	10.36	-47.4	-50.7	15.9	0.00e+00	0	40	0	60817408	66	5239
2026-01-03 11:33:39.25	219.83	10.43	-47.4	-50.6	16.0	0.00e+00	0	40	0	62914560	66	5195
2026-01-03 11:33:40.26	219.96	10.49	-47.2	-50.4	16.1	0.00e+00	0	40	0	65011712	66	5089
2026-01-03 11:33:41.26	220.08	10.56	-47.3	-50.5	16.1	0.00e+00	0	40	0	67108864	66	5131
2026-01-03 11:33:42.26	220.21	10.63	-47.5	-50.6	16.2	0.00e+00	0	40	0	69206016	66	5218
2026-01-03 11:33:43.27	220.33	10.69	-47.6	-50.8	16.1	0.00e+00	0	40	0	70254592	66	5282
2026-01-03 11:33:44.27	220.46	10.76	-47.5	-50.6	16.0	0.00e+00	0	40	0	72351744	66	5205
2026-01-03 11:33:45.27	220.59	10.83	-47.5	-50.6	16.0	0.00e+00	0	40	0	74448896	66	5206
2026-01-03 11:33:46.28	220.71	10.89	-48.1	-51.1	16.2	0.00e+00	0	40	0	76546048	66	5520
2026-01-03 11:33:47.28	220.84	10.96	-47.3	-50.2	16.5	0.00e+00	0	40	0	78643200	66	4971
2026-01-03 11:33:48.28	220.97	11.02	-47.2	-50.0	16.6	0.00e+00	0	40	0	79691776	66	4854
2026-01-03 11:33:49.28	221.10	11.09	-47.1	-50.0	16.7	0.00e+00	0	40	0	81788928	66	4825
2026-01-03 11:33:50.29	221.23	11.16	-47.1	-49.9	16.7	0.00e+00	0	40	0	83886080	65	5047
2026-01-03 11:33:51.29	221.36	11.22	-47.1	-49.9	16.7	0.00e+00	0	40	0	85983232	65	5061
2026-01-03 11:33:52.29	221.49	11.29	-46.9	-49.8	16.8	0.00e+00	0	40	0	88080384	65	4985
2026-01-03 11:33:53.29	221.62	11.36	-46.8	-49.6	17.0	0.00e+00	0	40	0	89128960	65	4917
2026-01-03 11:33:54.30	221.75	11.42	-46.8	-49.6	17.0	0.00e+00	0	40	0	91226112	65	4916
2026-01-03 11:33:55.30	221.88	11.49	-47.0	-49.8	17.0	0.00e+00	0	40	0	93323264	65	4992
2026-01-03 11:33:56.31	222.02	11.56	-46.8	-49.6	17.1	0.00e+00	0	40	0	95420416	65	4888
2026-01-03 11:33:57.31	222.15	11.62	-46.7	-49.4	17.3	0.00e+00	0	40	0	97517568	65	4783
2026-01-03 11:33:58.31	222.29	11.69	-47.2	-49.9	17.3	0.00e+00	0	40	0	98566144	65	5069
2026-01-03 11:33:59.32	222.42	11.76	-47.0	-49.7	17.5	0.00e+00	0	40	0	100663296	65	4931
2026-01-03 11:34:00.32	222.56	11.83	-46.7	-49.4	17.4	0.00e+00	0	40	0	102760448	65	4772
2026-01-03 11:34:01.32	222.69	11.89	-46.5	-49.1	17.6	0.00e+00	0	40	0	104857600	65	4635
2026-01-03 11:34:02.33	222.83	11.96	-46.4	-48.9	17.7	0.00e+00	0	40	0	106954752	64	4803
2026-01-03 11:34:03.33	222.97	12.03	-46.3	-48.9	17.7	0.00e+00	0	40	0	108003328	64	4789
2026-01-03 11:34:04.33	223.10	12.09	-46.5	-49.1	17.6	0.00e+00	0	40	0	110100480	64	4914
2026-01-03 11:34:05.33	223.24	12.16	-46.4	-48.9	17.7	0.00e+00	0	40	0	112197632	64	4796
2026-01-03 11:34:06.33	223.38	12.23	-46.3	-48.9	17.7	0.00e+00	0	40	0	114294784	64	4771
2026-01-03 11:34:07.34	223.52	12.30	-46.5	-49.1	17.6	0.00e+00	0	40	0	115343360	64	4878
2026-01-03 11:34:08.34	223.66	12.36	-46.4	-49.0	17.6	0.00e+00	0	40	0	117440512	64	4838
2026-01-03 11:34:09.34	223.80	12.43	-46.5	-49.1	17.6	0.00e+00	0	40	0	119537664	64	4906
2026-01-03 11:34:10.34	223.94	12.50	-46.9	-49.5	17.5	0.00e+00	0	40	0	121634816	64	5155
2026-01-03 11:34:11.35	224.09	12.56	-46.8	-49.4	17.6	0.00e+00	0	40	0	123731968	64	5071
2026-01-03 11:34:12.35	224.23	12.63	-46.7	-49.3	17.6	0.00e+00	0	40	0	124780544	64	5004
2026-01-03 11:34:13.35	224.37	12.70	-46.6	-49.2	17.6	0.00e+00	0	40	0	126877696	64	4942
2026-01-03 11:34:14.36	224.52	12.77	-46.5	-49.1	17.6	0.00e+00	0	40	0	128974848	64	4920
2026-01-03 11:34:15.36	224.66	12.83	-46.4	-49.0	17.7	0.00e+00	0	40	0	131072000	64	4839
2026-01-03 11:34:16.37	224.81	12.90	-46.6	-49.2	17.5	0.00e+00	0	40	0	133169152	64	4958
2026-01-03 11:34:17.37	224.95	12.97	-46.7	-49.3	17.5	0.00e+00	0	40	0	134217728	64	5040
2026-01-03 11:34:18.37	225.10	13.04	-46.8	-49.4	17.5	0.00e+00	0	40	0	136314880	64	5065
2026-01-03 11:34:19.37	225.25	13.10	-47.0	-49.6	17.2	0.00e+00	0	40	0	138412032	64	5213
2026-01-03 11:34:20.38	225.39	13.17	-46.8	-49.5	17.2	0.00e+00	0	40	0	140509184	64	5140
2026-01-03 11:34:21.38	225.54	13.24	-46.8	-49.5	17.2	0.00e+00	0	40	0	142606336	64	5126
2026-01-03 11:34:22.38	225.69	13.31	-47.8	-50.5	17.0	0.00e+00	0	40	0	143654912	66	5123
2026-01-03 11:34:23.39	225.84	13.38	-46.9	-49.6	17.2	0.00e+00	0	40	0	145752064	65	4897
2026-01-03 11:34:24.39	225.99	13.44	-46.6	-49.2	17.4	0.00e+00	0	40	0	147849216	65	4688
2026-01-03 11:34:25.40	226.15	13.51	-46.6	-49.2	17.4	0.00e+00	0	40	0	149946368	65	4705
2026-01-03 11:34:26.40	226.30	13.58	-46.6	-49.2	17.5	0.00e+00	0	40	0	152043520	64	4930
2026-01-03 11:34:27.40	226.45	13.65	-46.6	-49.1	17.8	0.00e+00	0	40	0	153092096	64	4895
2026-01-03 11:34:28.40	226.60	13.71	-46.4	-48.9	17.8	0.00e+00	0	40	0	155189248	64	4814
2026-01-03 11:34:29.40	226.76	13.78	-46.3	-48.8	18.0	0.00e+00	0	40	0	157286400	64	4724
2026-01-03 11:34:30.41	226.91	13.85	-46.2	-48.7	18.0	0.00e+00	0	40	0	159383552	64	4690
2026-01-03 11:34:31.41	227.07	13.92	-46.3	-48.8	17.9	0.00e+00	0	40	0	160432128	64	4733
2026-01-03 11:34:32.41	227.22	13.98	-46.2	-48.7	18.1	0.00e+00	0	40	0	162529280	64	4663
2026-01-03 11:34:33.41	227.38	14.05	-46.1	-48.5	18.2	0.00e+00	0	40	0	164626432	64	4585
2026-01-03 11:34:34.42	227.54	14.12	-46.0	-48.4	18.3	0.00e+00	0	40	0	166723584	64	4541
2026-01-03 11:34:35.42	227.69	14.19	-46.1	-48.6	18.1	0.00e+00	0	40	0	168820736	64	4618
2026-01-03 11:34:36.42	227.85	14.25	-46.1	-48.6	18.1	0.00e+00	0	40	0	170917888	64	4631
2026-01-03 11:34:37.43	228.01	14.32	-46.8	-49.3	18.1	0.00e+00	0	40	0	171966464	64	5000
2026-01-03 11:34:38.43	228.17	14.39	-46.4	-48.9	18.2	0.00e+00	0	40	0	174063616	64	4776
2026-01-03 11:34:39.44	228.33	14.46	-46.2	-48.7	18.1	0.00e+00	0	40	0	176160768	64	4670
2026-01-03 11:34:40.44	228.50	14.52	-46.0	-48.4	18.3	0.00e+00	0	40	0	178257920	64	4544
2026-01-03 11:34:41.45	228.66	14.59	-46.2	-48.6	18.1	0.00e+00	0	40	0	179306496	64	4644
2026-01-03 11:34:42.45	228.82	14.66	-46.2	-48.7	18.1	0.00e+00	0	40	0	181403648	64	4662
2026-01-03 11:34:43.45	228.99	14.73	-46.2	-48.6	18.2	0.00e+00	0	40	0	183500800	64	4650
2026-01-03 11:34:44.46	229.15	14.79	-46.2	-48.7	18.1	0.00e+00	0	40	0	185597952	64	4689
2026-01-03 11:34:45.46	229.32	14.86	-46.3	-48.8	18.0	0.00e+00	0	40	0	187695104	64	4734
2026-01-03 11:34:46.46	229.48	14.93	-46.3	-48.9	17.8	0.00e+00	0	40	0	188743680	64	4778
2026-01-03 11:34:47.47	229.65	15.00	-46.4	-48.9	17.8	0.00e+00	0	40	0	190840832	64	4792
2026-01-03 11:34:48.47	229.82	15.06	-46.6	-49.2	17.5	0.00e+00	0	40	0	192937984	64	4979
2026-01-03 11:34:49.48	229.99	15.13	-47.3	-50.0	17.4	0.00e+00	0	40	0	195035136	65	5107
2026-01-03 11:34:50.48	230.15	15.20	-47.0	-49.5	17.8	0.00e+00	0	40	0	197132288	65	4858
2026-01-03 11:34:51.48	230.32	15.27	-46.6	-49.1	17.6	0.00e+00	0	40	0	198180864	65	4651
2026-01-03 11:34:52.49	230.49	15.33	-46.4	-48.9	17.9	0.00e+00	0	40	0	200278016	64	4785
2026-01-03 11:34:53.49	230.67	15.40	-46.4	-48.9	17.9	0.00e+00	0	40	0	202375168	64	4761
2026-01-03 11:34:54.49	230.84	15.47	-46.2	-48.6	18.1	0.00e+00	0	40	0	204472320	64	4632
2026-01-03 11:34:55.50	231.01	15.53	-46.2	-48.7	18.1	0.00e+00	0	40	0	206569472	64	4679
2026-01-03 11:34:56.50	231.18	15.60	-46.1	-48.5	18.2	0.00e+00	0	40	0	207618048	64	4572
2026-01-03 11:34:57.50	231.36	15.67	-46.2	-48.7	18.0	0.00e+00	0	40	0	209715200	64	4684
2026-01-03 11:34:58.51	231.53	15.73	-46.2	-48.6	18.1	0.00e+00	0	40	0	211812352	64	4621
2026-01-03 11:34:59.51	231.71	15.80	-46.0	-48.4	18.3	0.00e+00	0	40	0	213909504	64	4541
2026-01-03 11:35:00.49	231.88	15.87	-46.1	-48.6	18.1	0.00e+00	0	40	0	216006656	64	4608
2026-01-03 11:35:01.50	232.06	15.93	-46.2	-48.6	18.2	0.00e+00	0	40	0	217055232	63	4890
2026-01-03 11:35:02.50	232.24	16.00	-46.6	-49.0	18.4	0.00e+00	0	40	0	219152384	64	4828
2026-01-03 11:35:03.50	232.41	16.07	-46.3	-48.7	18.5	0.00e+00	0	40	0	221249536	64	4662
2026-01-03 11:35:04.50	232.59	16.13	-46.1	-48.5	18.3	0.00e+00	0	40	0	223346688	63	4864
2026-01-03 11:35:05.51	232.78	16.20	-45.9	-48.3	18.6	0.00e+00	0	40	0	224395264	63	4726
2026-01-03 11:35:06.51	232.96	16.26	-46.0	-48.4	18.5	0.00e+00	0	40	0	226492416	63	4762
2026-01-03 11:35:07.52	233.14	16.33	-45.9	-48.3	18.6	0.00e+00	0	40	0	228589568	63	4734
2026-01-03 11:35:08.52	233.32	16.40	-45.8	-48.1	18.6	0.00e+00	0	40	0	230686720	63	4646
2026-01-03 11:35:09.52	233.50	16.46	-45.7	-48.1	18.7	0.00e+00	0	40	0	232783872	63	4602
2026-01-03 11:35:10.52	233.69	16.53	-45.7	-48.1	18.7	0.00e+00	0	40	0	234881024	63	4625
2026-01-03 11:35:11.53	233.87	16.59	-45.8	-48.2	18.7	0.00e+00	0	40	0	235929600	63	4655
2026-01-03 11:35:12.53	234.06	16.66	-45.9	-48.3	18.6	0.00e+00	0	40	0	238026752	63	4708
2026-01-03 11:35:13.54	234.25	16.72	-46.0	-48.4	18.4	0.00e+00	0	40	0	240123904	63	4803
2026-01-03 11:35:14.54	234.43	16.79	-45.9	-48.3	18.5	0.00e+00	0	40	0	242221056	63	4726
2026-01-03 11:35:15.54	234.62	16.85	-46.8	-49.2	18.3	0.00e+00	0	40	0	243269632	64	4950
2026-01-03 11:35:16.54	234.81	16.92	-46.1	-48.5	18.3	0.00e+00	0	40	0	245366784	64	4575
2026-01-03 11:35:17.55	235.00	16.98	-46.2	-48.6	18.2	0.00e+00	0	40	0	247463936	63	4913
2026-01-03 11:35:18.55	235.19	17.05	-46.2	-48.7	18.2	0.00e+00	0	40	0	249561088	63	4939
2026-01-03 11:35:19.55	235.38	17.11	-46.2	-48.7	18.2	0.00e+00	0	40	0	251658240	63	4948
2026-01-03 11:35:20.56	235.57	17.18	-46.1	-48.5	18.4	0.00e+00	0	40	0	252706816	63	4846
2026-01-03 11:35:21.56	235.77	17.24	-46.0	-48.4	18.5	0.00e+00	0	40	0	254803968	63	4776
2026-01-03 11:35:22.56	235.96	17.31	-46.0	-48.4	18.5	0.00e+00	0	40	0	256901120	63	4766
2026-01-03 11:35:23.57	236.16	17.37	-46.1	-48.6	18.3	0.00e+00	0	40	0	258998272	63	4876
2026-01-03 11:35:24.57	236.35	17.43	-46.2	-48.7	18.2	0.00e+00	0	40	0	261095424	63	4936
2026-01-03 11:35:25.57	236.55	17.50	-46.6	-49.0	18.2	0.00e+00	0	40	0	262144000	64	4867
2026-01-03 11:35:26.57	236.74	17.56	-46.6	-49.2	18.0	0.00e+00	0	40	0	264241152	64	4943
2026-01-03 11:35:27.57	236.94	17.62	-46.5	-49.0	17.9	0.00e+00	0	40	0	266338304	64	4849
2026-01-03 11:35:28.58	237.14	17.69	-46.3	-48.9	18.0	0.00e+00	0	40	0	268435456	64	4782
2026-01-03 11:35:29.58	237.34	17.75	-46.6	-49.2	17.8	0.00e+00	0	40	0	270532608	64	4930
2026-01-03 11:35:30.59	237.54	17.81	-46.3	-48.8	18.1	0.00e+00	0	40	0	271581184	64	4733
2026-01-03 11:35:31.59	237.74	17.88	-46.2	-48.7	18.1	0.00e+00	0	40	0	273678336	64	4697
2026-01-03 11:35:32.59	237.94	17.94	-46.3	-48.8	18.1	0.00e+00	0	40	0	275775488	64	4724
2026-01-03 11:35:33.60	238.15	18.00	-46.3	-48.8	18.0	0.00e+00	0	40	0	277872640	64	4753
2026-01-03 11:35:34.60	238.35	18.06	-46.2	-48.7	18.2	0.00e+00	0	40	0	279969792	64	4666
2026-01-03 11:35:35.60	238.55	18.13	-46.2	-48.7	18.1	0.00e+00	0	40	0	281018368	64	4671
2026-01-03 11:35:36.61	238.76	18.19	-46.8	-49.2	18.4	0.00e+00	0	40	0	283115520	64	4950
2026-01-03 11:35:37.61	238.96	18.25	-46.4	-48.8	18.2	0.00e+00	0	40	0	285212672	64	4736
2026-01-03 11:35:38.61	239.17	18.31	-46.3	-48.7	18.1	0.00e+00	0	40	0	287309824	64	4698
2026-01-03 11:35:39.62	239.38	18.37	-46.0	-48.4	18.5	0.00e+00	0	40	0	288358400	63	4785
2026-01-03 11:35:40.62	239.59	18.43	-46.3	-48.7	18.3	0.00e+00	0	40	0	290455552	63	4928
2026-01-03 11:35:41.62	239.79	18.49	-46.3	-48.7	18.3	0.00e+00	0	40	0	292552704	63	4949
2026-01-03 11:35:42.63	240.01	18.56	-46.4	-48.9	18.1	0.00e+00	0	40	0	294649856	63	5064
2026-01-03 11:35:43.63	240.22	18.62	-46.6	-49.2	17.7	0.00e+00	0	40	0	296747008	64	4938
2026-01-03 11:35:44.64	240.43	18.68	-46.7	-49.4	17.5	0.00e+00	0	40	0	297795584	64	5051
2026-01-03 11:35:45.64	240.64	18.74	-46.5	-49.2	17.6	0.00e+00	0	40	0	299892736	64	4950
2026-01-03 11:35:46.64	240.85	18.79	-46.5	-49.2	17.7	0.00e+00	0	40	0	301989888	64	4966
2026-01-03 11:35:47.65	241.07	18.85	-46.4	-49.0	17.8	0.00e+00	0	40	0	304087040	64	4857
2026-01-03 11:35:48.65	241.28	18.91	-46.2	-48.8	18.0	0.00e+00	0	40	0	306184192	64	4733
2026-01-03 11:35:49.65	241.50	18.97	-46.9	-49.5	18.1	0.00e+00	0	40	0	307232768	64	5129
2026-01-03 11:35:50.65	241.71	19.03	-46.5	-49.1	17.9	0.00e+00	0	40	0	309329920	64	4905
2026-01-03 11:35:51.66	241.93	19.09	-46.7	-49.3	17.7	0.00e+00	0	40	0	311427072	64	5008
2026-01-03 11:35:52.66	242.15	19.15	-46.8	-49.5	17.4	0.00e+00	0	40	0	313524224	64	5145
2026-01-03 11:35:53.66	242.37	19.20	-47.0	-49.7	17.3	0.00e+00	0	40	0	315621376	64	5225
2026-01-03 11:35:54.67	242.59	19.26	-46.8	-49.5	17.5	0.00e+00	0	40	0	316669952	64	5114
2026-01-03 11:35:55.67	242.81	19.32	-47.4	-50.0	17.4	0.00e+00	0	40	0	318767104	65	5153
2026-01-03 11:35:56.67	243.03	19.38	-46.9	-49.4	17.7	0.00e+00	0	40	0	320864256	65	4805
2026-01-03 11:35:57.68	243.25	19.43	-46.7	-49.2	17.8	0.00e+00	0	40	0	322961408	65	4680
2026-01-03 11:35:58.68	243.47	19.49	-46.6	-49.1	17.8	0.00e+00	0	40	0	325058560	65	4626
2026-01-03 11:35:59.68	243.70	19.55	-46.7	-49.2	17.7	0.00e+00	0	40	0	326107136	65	4700
2026-01-03 11:36:00.69	243.92	19.60	-46.9	-49.6	17.3	0.00e+00	0	40	0	328204288	65	4899
2026-01-03 11:36:01.69	244.15	19.66	-47.2	-50.0	16.9	0.00e+00	0	40	0	330301440	65	5103
2026-01-03 11:36:02.70	244.38	19.71	-47.4	-50.2	16.7	0.00e+00	0	40	0	332398592	65	5262
2026-01-03 11:36:03.70	244.60	19.77	-47.3	-50.1	16.8	0.00e+00	0	40	0	334495744	65	5196
2026-01-03 11:36:04.70	244.83	19.82	-47.2	-50.0	16.9	0.00e+00	0	40	0	335544320	65	5116
2026-01-03 11:36:05.71	245.06	19.88	-47.7	-50.4	17.1	0.00e+00	0	40	0	337641472	66	5093
2026-01-03 11:36:06.71	245.29	19.93	-47.2	-49.9	17.2	0.00e+00	0	40	0	339738624	66	4793
2026-01-03 11:36:07.71	245.52	19.98	-46.9	-49.6	17.3	0.00e+00	0	40	0	341835776	65	4892
2026-01-03 11:36:08.72	245.75	20.04	-47.1	-49.8	17.1	0.00e+00	0	40	0	342884352	65	4999
2026-01-03 11:36:09.72	245.98	20.09	-47.0	-49.7	17.3	0.00e+00	0	40	0	344981504	65	4961
2026-01-03 11:36:10.72	246.21	20.14	-47.6	-50.3	16.9	0.00e+00	0	40	0	347078656	65	5340
2026-01-03 11:36:11.73	246.45	20.19	-47.7	-50.5	16.9	0.00e+00	0	40	0	349175808	66	5138
2026-01-03 11:36:12.73	246.68	20.25	-47.2	-49.9	17.1	0.00e+00	0	40	0	351272960	66	4795
2026-01-03 11:36:13.73	246.91	20.30	-47.1	-49.8	17.1	0.00e+00	0	40	0	353370112	66	4748
2026-01-03 11:36:14.74	247.15	20.35	-47.1	-49.9	17.0	0.00e+00	0	40	0	354418688	65	5058
2026-01-03 11:36:15.74	247.39	20.40	-47.1	-50.0	16.9	0.00e+00	0	40	0	356515840	65	5123
2026-01-03 11:36:16.74	247.62	20.45	-47.4	-50.4	16.5	0.00e+00	0	40	0	358612992	65	5356
2026-01-03 11:36:17.75	247.86	20.50	-47.4	-50.4	16.5	0.00e+00	0	40	0	360710144	65	5369
2026-01-03 11:36:18.75	248.10	20.55	-47.6	-50.6	16.5	0.00e+00	0	40	0	361758720	65	5511
2026-01-03 11:36:19.75	248.34	20.60	-48.1	-51.1	16.6	0.00e+00	0	41	0	363855872	67	5214
2026-01-03 11:36:20.75	248.58	20.65	-47.4	-50.4	16.7	3.80e-06	0	40	0	365953024	66	5067
2026-01-03 11:36:21.75	248.82	20.69	-46.9	-49.7	17.2	0.00e+00	0	41	0	368050176	65	4975
2026-01-03 11:36:22.76	249.06	20.74	-46.8	-49.5	17.4	0.00e+00	0	40	0	370147328	65	4850
2026-01-03 11:36:23.76	249.30	20.79	-46.6	-49.3	17.6	0.00e+00	0	40	0	371195904	65	4745
2026-01-03 11:36:24.76	249.54	20.84	-46.6	-49.2	17.7	0.00e+00	0	41	0	373293056	65	4696
2026-01-03 11:36:25.77	249.79	20.88	-46.6	-49.3	17.6	0.00e+00	0	40	0	375390208	65	4714
2026-01-03 11:36:26.77	250.03	20.93	-46.5	-49.1	17.9	0.00e+00	0	41	0	377487360	65	4608
2026-01-03 11:36:27.78	250.28	20.97	-46.7	-49.3	17.7	0.00e+00	0	41	0	379584512	64	5009
2026-01-03 11:36:28.78	250.52	21.02	-46.7	-49.3	17.6	0.00e+00	0	41	0	380633088	64	5029
2026-01-03 11:36:29.78	250.77	21.06	-47.1	-49.8	17.2	0.00e+00	0	41	0	382730240	64	5302
2026-01-03 11:36:30.79	251.02	21.11	-48.0	-50.8	16.8	0.00e+00	0	41	0	384827392	66	5339
2026-01-03 11:36:31.79	251.26	21.15	-47.8	-50.7	16.5	0.00e+00	0	41	0	386924544	66	5236
2026-01-03 11:36:32.79	251.51	21.20	-47.7	-50.6	16.5	0.00e+00	0	41	0	389021696	66	5210
2026-01-03 11:36:33.80	251.76	21.24	-47.5	-50.3	16.6	0.00e+00	0	41	0	390070272	66	5040
2026-01-03 11:36:34.80	252.01	21.28	-47.0	-49.6	17.4	0.00e+00	0	40	0	392167424	66	4632
2026-01-03 11:36:35.81	252.26	21.32	-46.9	-49.5	17.5	0.00e+00	0	40	0	394264576	65	4846
2026-01-03 11:36:36.81	252.51	21.36	-46.6	-49.0	18.0	0.00e+00	0	41	0	396361728	65	4588
2026-01-03 11:36:37.81	252.76	21.41	-46.6	-49.0	18.0	0.00e+00	0	41	0	398458880	64	4868
2026-01-03 11:36:38.82	253.02	21.45	-46.8	-49.3	17.7	0.00e+00	0	41	0	399507456	64	5011
2026-01-03 11:36:39.82	253.27	21.49	-46.8	-49.4	17.6	0.00e+00	0	41	0	401604608	64	5063
2026-01-03 11:36:40.83	253.53	21.53	-47.0	-49.6	17.4	0.00e+00	0	41	0	403701760	64	5210
2026-01-03 11:36:41.83	253.78	21.57	-47.0	-49.7	17.4	0.00e+00	0	41	0	405798912	64	5239
2026-01-03 11:36:42.83	254.03	21.60	-47.4	-50.0	17.6	0.00e+00	0	41	0	407896064	65	5155
2026-01-03 11:36:43.84	254.29	21.64	-46.7	-49.3	17.7	0.00e+00	0	41	0	408944640	65	4739
2026-01-03 11:36:44.84	254.55	21.68	-47.1	-49.8	17.3	0.00e+00	0	41	0	411041792	65	4987
2026-01-03 11:36:45.84	254.80	21.72	-47.1	-49.8	17.3	0.00e+00	0	41	0	413138944	65	5017
2026-01-03 11:36:46.84	255.06	21.75	-47.4	-50.2	16.8	0.00e+00	0	41	0	415236096	65	5262
2026-01-03 11:36:47.85	255.32	21.79	-47.3	-50.1	16.9	0.00e+00	0	41	0	416284672	65	5165
2026-01-03 11:36:48.85	255.58	21.82	-46.9	-49.5	17.5	0.00e+00	0	41	0	418381824	65	4841
2026-01-03 11:36:49.86	255.84	21.86	-46.6	-49.2	17.8	0.00e+00	0	41	0	420478976	65	4672
2026-01-03 11:36:50.86	256.10	21.89	-46.3	-48.7	18.2	0.00e+00	0	41	0	422576128	64	4698
2026-01-03 11:36:51.86	256.35	21.93	-46.2	-48.7	18.3	0.00e+00	0	41	0	424673280	64	4659
2026-01-03 11:36:52.87	256.62	21.96	-46.5	-49.0	18.1	0.00e+00	0	41	0	425721856	64	4848
2026-01-03 11:36:53.87	256.88	21.99	-46.8	-49.3	17.9	0.00e+00	0	41	0	427819008	64	5008
2026-01-03 11:36:54.87	257.14	22.02	-47.0	-49.6	17.5	0.00e+00	0	41	0	429916160	64	5181
2026-01-03 11:36:55.87	257.40	22.06	-47.5	-50.1	17.5	0.00e+00	0	41	0	432013312	66	4882
2026-01-03 11:36:56.88	257.66	22.09	-47.1	-49.7	17.4	0.00e+00	0	41	0	434110464	66	4699
2026-01-03 11:36:57.88	257.93	22.12	-46.7	-49.3	17.6	0.00e+00	0	41	0	435159040	65	4745
2026-01-03 11:36:58.88	258.19	22.15	-46.7	-49.3	17.7	0.00e+00	0	41	0	437256192	65	4709
2026-01-03 11:36:59.89	258.46	22.18	-46.8	-49.4	17.8	0.00e+00	0	41	0	439353344	65	4777
2026-01-03 11:37:00.88	258.72	22.21	-46.6	-49.1	18.0	0.00e+00	0	41	0	441450496	65	4622
2026-01-03 11:37:01.89	258.98	22.23	-46.6	-49.1	17.9	0.00e+00	0	41	0	443547648	64	4883
2026-01-03 11:37:02.89	259.25	22.26	-46.5	-49.0	17.9	0.00e+00	0	41	0	444596224	64	4853
2026-01-03 11:37:03.89	259.51	22.29	-46.4	-48.9	18.0	0.00e+00	0	40	0	446693376	64	4768
2026-01-03 11:37:04.90	259.78	22.31	-46.5	-49.0	18.0	0.00e+00	0	41	0	448790528	64	4856
2026-01-03 11:37:05.90	260.05	22.34	-47.0	-49.5	18.0	0.00e+00	0	41	0	450887680	64	5103
2026-01-03 11:37:06.90	260.32	22.36	-46.5	-49.0	18.0	0.00e+00	0	41	0	452984832	65	4551
2026-01-03 11:37:07.91	260.59	22.39	-46.5	-49.1	17.8	0.00e+00	0	41	0	454033408	64	4888
2026-01-03 11:37:08.91	260.85	22.41	-46.5	-49.0	17.9	0.00e+00	0	40	0	456130560	64	4863
2026-01-03 11:37:09.91	261.12	22.44	-46.5	-49.0	17.9	0.00e+00	0	41	0	458227712	64	4844
2026-01-03 11:37:10.92	261.39	22.46	-46.7	-49.3	17.6	0.00e+00	0	41	0	460324864	64	5023
2026-01-03 11:37:11.92	261.66	22.48	-47.0	-49.6	17.4	0.00e+00	0	40	0	461373440	64	5210
2026-01-03 11:37:12.92	261.93	22.50	-47.3	-50.0	17.1	0.00e+00	0	41	0	463470592	65	5128
2026-01-03 11:37:13.92	262.20	22.52	-47.3	-50.0	17.1	0.00e+00	0	40	0	465567744	65	5134
2026-01-03 11:37:14.93	262.47	22.54	-47.2	-49.8	17.2	0.00e+00	0	40	0	467664896	65	5026
2026-01-03 11:37:15.93	262.74	22.56	-46.9	-49.5	17.5	0.00e+00	0	40	0	469762048	65	4846
2026-01-03 11:37:16.93	263.01	22.58	-46.8	-49.4	17.6	0.00e+00	0	40	0	471859200	65	4773
2026-01-03 11:37:17.94	263.28	22.60	-46.8	-49.4	17.6	0.00e+00	0	41	0	472907776	65	4796
2026-01-03 11:37:18.94	263.55	22.62	-47.0	-49.8	17.3	0.00e+00	0	41	0	475004928	65	4987
2026-01-03 11:37:19.94	263.83	22.63	-47.1	-49.8	17.2	0.00e+00	0	41	0	477102080	65	5029
2026-01-03 11:37:20.94	264.10	22.65	-46.9	-49.6	17.4	0.00e+00	0	41	0	479199232	65	4876
2026-01-03 11:37:21.94	264.37	22.67	-46.8	-49.4	17.5	0.00e+00	0	41	0	480247808	65	4799
2026-01-03 11:37:22.94	264.64	22.68	-47.0	-49.4	18.2	0.00e+00	0	40	0	482344960	64	5086
2026-01-03 11:37:23.95	264.92	22.69	-46.2	-48.6	18.4	0.00e+00	0	41	0	484442112	64	4630
2026-01-03 11:37:24.95	265.19	22.71	-46.2	-48.7	18.2	0.00e+00	0	41	0	486539264	64	4697
2026-01-03 11:37:25.95	265.46	22.72	-46.5	-49.1	17.8	0.00e+00	0	41	0	488636416	64	4916
2026-01-03 11:37:26.96	265.74	22.73	-46.9	-49.6	17.3	0.00e+00	0	41	0	489684992	64	5215
2026-01-03 11:37:27.96	266.01	22.75	-47.3	-50.1	17.0	0.00e+00	0	41	0	491782144	65	5206
2026-01-03 11:37:28.96	266.28	22.76	-47.2	-50.0	17.1	0.00e+00	0	41	0	493879296	65	5112
2026-01-03 11:37:29.97	266.56	22.77	-46.7	-49.4	17.6	0.00e+00	0	41	0	495976448	65	4776
2026-01-03 11:37:30.97	266.83	22.78	-46.6	-49.1	17.8	0.00e+00	0	41	0	498073600	65	4634
2026-01-03 11:37:31.97	267.11	22.79	-46.5	-49.0	18.2	0.00e+00	0	41	0	499122176	64	4832
2026-01-03 11:37:32.98	267.38	22.79	-46.7	-49.2	18.1	0.00e+00	0	40	0	501219328	64	4932
2026-01-03 11:37:33.98	267.66	22.80	-46.6	-49.2	17.9	0.00e+00	0	41	0	503316480	64	4933
2026-01-03 11:37:34.99	267.93	22.81	-46.6	-49.2	17.8	0.00e+00	0	41	0	505413632	64	4953
2026-01-03 11:37:35.99	268.21	22.81	-47.1	-49.7	17.9	0.00e+00	0	41	0	507510784	65	4935
2026-01-03 11:37:36.99	268.48	22.82	-46.3	-48.8	18.1	0.00e+00	0	41	0	508559360	64	4747
2026-01-03 11:37:38.00	268.76	22.83	-46.2	-48.6	18.3	0.00e+00	0	41	0	510656512	64	4636
2026-01-03 11:37:39.00	269.03	22.83	-46.4	-48.9	18.1	0.00e+00	0	41	0	512753664	64	4781
2026-01-03 11:37:40.00	269.31	22.83	-46.3	-48.8	18.2	0.00e+00	0	41	0	514850816	64	4751
2026-01-03 11:37:41.00	269.58	22.84	-46.6	-49.2	17.8	0.00e+00	0	41	0	516947968	64	4947
2026-01-03 11:37:42.01	269.86	22.84	-46.7	-49.2	17.8	0.00e+00	0	41	0	517996544	64	4968
2026-01-03 11:37:43.01	270.13	22.84	-46.4	-48.9	18.1	0.00e+00	0	41	0	520093696	64	4789
2026-01-03 11:37:44.01	270.41	22.84	-46.3	-48.8	18.3	0.00e+00	0	41	0	522190848	64	4717
2026-01-03 11:37:45.01	270.68	22.84	-46.3	-48.8	18.3	0.00e+00	0	41	0	524288000	64	4712
2026-01-03 11:37:46.01	270.96	22.84	-46.6	-49.1	18.1	0.00e+00	0	41	0	525336576	64	4892
2026-01-03 11:37:47.02	271.24	22.84	-46.9	-49.5	17.7	0.00e+00	0	41	0	527433728	64	5134
2026-01-03 11:37:48.02	271.51	22.84	-47.8	-50.4	17.3	0.00e+00	0	41	0	529530880	66	5080
2026-01-03 11:37:49.02	271.79	22.84	-47.2	-49.8	17.2	0.00e+00	0	41	0	531628032	66	4757
2026-01-03 11:37:50.03	272.06	22.83	-47.1	-49.7	17.3	0.00e+00	0	41	0	533725184	66	4698
2026-01-03 11:37:51.03	272.34	22.83	-46.9	-49.5	17.5	0.00e+00	0	41	0	534773760	65	4851
2026-01-03 11:37:52.03	272.61	22.83	-47.1	-49.7	17.6	0.00e+00	0	41	0	536870912	65	4942
2026-01-03 11:37:53.03	272.89	22.82	-47.0	-49.5	17.8	0.00e+00	0	41	0	538968064	65	4868
2026-01-03 11:37:54.04	273.16	22.81	-46.8	-49.3	17.7	0.00e+00	0	41	0	541065216	65	4751
2026-01-03 11:37:55.04	273.44	22.81	-46.5	-49.1	17.9	0.00e+00	0	41	0	543162368	65	4602
2026-01-03 11:37:56.04	273.71	22.80	-46.5	-49.0	17.9	0.00e+00	0	41	0	544210944	64	4855
2026-01-03 11:37:57.05	273.99	22.79	-46.3	-48.8	18.1	0.00e+00	0	41	0	546308096	64	4732
2026-01-03 11:37:58.05	274.26	22.79	-46.5	-49.0	18.0	0.00e+00	0	41	0	548405248	64	4818
2026-01-03 11:37:59.05	274.53	22.78	-46.5	-49.0	18.1	0.00e+00	0	41	0	550502400	64	4845
2026-01-03 11:38:00.05	274.81	22.77	-46.5	-49.0	18.0	0.00e+00	0	41	0	552599552	64	4832
2026-01-03 11:38:01.05	275.08	22.76	-46.6	-49.2	17.9	0.00e+00	0	41	0	553648128	64	4930
2026-01-03 11:38:02.05	275.35	22.74	-46.5	-49.1	17.9	0.00e+00	0	41	0	555745280	64	4900
2026-01-03 11:38:03.05	275.63	22.73	-47.4	-49.9	17.8	0.00e+00	0	41	0	557842432	65	5079
2026-01-03 11:38:04.06	275.90	22.72	-47.3	-49.8	18.0	0.00e+00	0	41	0	559939584	65	5014
2026-01-03 11:38:05.06	276.17	22.71	-46.3	-48.8	18.2	7.00e-07	0	41	0	562036736	64	4709
2026-01-03 11:38:06.06	276.45	22.69	-46.1	-48.5	18.5	0.00e+00	0	41	0	563085312	64	4572
2026-01-03 11:38:07.06	276.72	22.68	-46.0	-48.3	18.7	0.00e+00	0	41	0	565182464	63	4732
2026-01-03 11:38:08.07	276.99	22.66	-45.9	-48.2	18.8	0.00e+00	0	41	0	567279616	63	4686
2026-01-03 11:38:09.07	277.26	22.65	-45.8	-48.1	18.8	0.00e+00	0	41	0	569376768	63	4632
2026-01-03 11:38:10.07	277.53	22.63	-45.7	-48.0	18.9	0.00e+00	0	41	0	571473920	63	4566
2026-01-03 11:38:11.07	277.81	22.62	-45.7	-48.0	19.0	0.00e+00	0	41	0	572522496	63	4553
2026-01-03 11:38:12.08	278.08	22.60	-45.7	-47.9	19.0	0.00e+00	0	41	0	574619648	63	4533
2026-01-03 11:38:13.08	278.35	22.58	-45.8	-48.1	18.9	0.00e+00	0	41	0	576716800	63	4602
2026-01-03 11:38:14.08	278.62	22.56	-45.9	-48.3	18.6	0.00e+00	0	41	0	578813952	63	4732
2026-01-03 11:38:15.08	278.89	22.54	-46.0	-48.4	18.5	0.00e+00	0	41	0	580911104	63	4771
2026-01-03 11:38:16.09	279.16	22.52	-46.1	-48.4	18.6	0.00e+00	0	41	0	581959680	63	4781
2026-01-03 11:38:17.09	279.43	22.50	-46.1	-48.5	18.5	0.00e+00	0	41	0	584056832	63	4830
2026-01-03 11:38:18.10	279.70	22.48	-46.1	-48.5	18.5	0.00e+00	0	41	0	586153984	63	4828
2026-01-03 11:38:19.10	279.97	22.46	-46.8	-49.2	18.5	0.00e+00	0	41	0	588251136	64	4928
2026-01-03 11:38:20.10	280.24	22.44	-46.2	-48.6	18.6	0.00e+00	0	41	0	589299712	64	4608
2026-01-03 11:38:21.10	280.50	22.41	-46.2	-48.7	18.2	0.00e+00	0	41	0	591396864	64	4653
2026-01-03 11:38:22.10	280.77	22.39	-46.4	-48.9	18.0	0.00e+00	0	41	0	593494016	64	4779
2026-01-03 11:38:23.11	281.04	22.36	-46.5	-48.9	18.1	0.00e+00	0	41	0	595591168	64	4792
2026-01-03 11:38:24.11	281.30	22.34	-46.3	-48.8	18.1	0.00e+00	0	41	0	597688320	64	4720
2026-01-03 11:38:25.11	281.57	22.31	-46.4	-48.9	18.0	0.00e+00	0	41	0	598736896	64	4781
2026-01-03 11:38:26.12	281.84	22.29	-46.1	-48.5	18.3	0.00e+00	0	40	0	600834048	64	4573
2026-01-03 11:38:27.12	282.10	22.26	-46.2	-48.6	18.3	0.00e+00	0	41	0	602931200	63	4911
2026-01-03 11:38:28.13	282.37	22.23	-46.2	-48.6	18.4	0.00e+00	0	41	0	605028352	63	4893
2026-01-03 11:38:29.13	282.63	22.21	-46.4	-48.9	18.1	0.00e+00	0	40	0	607125504	63	5079
2026-01-03 11:38:30.13	282.90	22.18	-46.6	-49.2	17.8	0.00e+00	0	41	0	608174080	64	4947
2026-01-03 11:38:31.13	283.16	22.15	-46.8	-49.4	17.5	0.00e+00	0	41	0	610271232	64	5092
2026-01-03 11:38:32.13	283.42	22.12	-46.7	-49.3	17.6	0.00e+00	0	41	0	612368384	64	5020
2026-01-03 11:38:33.13	283.68	22.09	-46.3	-48.8	18.1	0.00e+00	0	40	0	614465536	64	4719
2026-01-03 11:38:34.13	283.95	22.06	-46.0	-48.4	18.4	0.00e+00	0	41	0	616562688	64	4536
2026-01-03 11:38:35.13	284.21	22.03	-45.8	-48.1	18.8	0.00e+00	0	41	0	617611264	63	4604
2026-01-03 11:38:36.13	284.47	21.99	-45.6	-47.9	19.0	0.00e+00	0	41	0	619708416	63	4534
2026-01-03 11:38:37.13	284.73	21.96	-45.7	-48.1	18.9	0.00e+00	0	41	0	621805568	63	4601
2026-01-03 11:38:38.14	284.99	21.93	-45.9	-48.2	18.7	0.00e+00	0	41	0	623902720	63	4672
2026-01-03 11:38:39.14	285.25	21.89	-45.8	-48.1	18.7	0.00e+00	0	41	0	625999872	63	4643
2026-01-03 11:38:40.14	285.50	21.86	-45.7	-48.0	18.9	0.00e+00	0	41	0	627048448	63	4577
2026-01-03 11:38:41.14	285.76	21.83	-45.7	-48.0	18.9	0.00e+00	0	41	0	629145600	63	4553
2026-01-03 11:38:42.15	286.02	21.79	-45.5	-47.7	19.1	0.00e+00	0	41	0	631242752	63	4425
2026-01-03 11:38:43.15	286.28	21.76	-45.5	-47.7	19.2	0.00e+00	0	41	0	633339904	62	4689
2026-01-03 11:38:44.15	286.53	21.72	-45.5	-47.8	19.1	0.00e+00	0	41	0	634388480	62	4719
2026-01-03 11:38:45.16	286.79	21.68	-46.1	-48.3	19.3	0.00e+00	0	41	0	636485632	62	5020
2026-01-03 11:38:46.15	287.04	21.64	-45.8	-48.1	19.1	0.00e+00	0	41	0	638582784	63	4599
2026-01-03 11:38:47.15	287.30	21.61	-45.6	-47.9	19.0	0.00e+00	0	41	0	640679936	63	4543
2026-01-03 11:38:48.16	287.55	21.57	-45.9	-48.2	18.7	7.00e-07	0	41	0	642777088	63	4669
2026-01-03 11:38:49.16	287.81	21.53	-45.9	-48.2	18.7	5.30e-06	0	41	0	643825664	63	4689
2026-01-03 11:38:50.16	288.06	21.49	-45.7	-48.0	18.9	0.00e+00	0	41	0	645922816	63	4574
2026-01-03 11:38:51.17	288.31	21.45	-45.7	-48.1	18.9	0.00e+00	0	41	0	648019968	63	4601
2026-01-03 11:38:52.17	288.56	21.41	-45.7	-47.9	18.9	0.00e+00	0	41	0	650117120	63	4545
2026-01-03 11:38:53.17	288.81	21.37	-45.7	-47.9	18.9	0.00e+00	0	41	0	652214272	63	4543
2026-01-03 11:38:54.17	289.06	21.33	-45.8	-48.2	18.7	0.00e+00	0	41	0	653262848	63	4655
2026-01-03 11:38:55.17	289.31	21.29	-46.0	-48.3	18.5	0.00e+00	0	41	0	655360000	63	4741
2026-01-03 11:38:56.18	289.56	21.24	-46.0	-48.4	18.5	0.00e+00	0	41	0	657457152	63	4779
2026-01-03 11:38:57.18	289.81	21.20	-46.0	-48.4	18.5	0.00e+00	0	41	0	659554304	63	4787
2026-01-03 11:38:58.18	290.06	21.16	-46.0	-48.4	18.5	0.00e+00	0	41	0	661651456	63	4788
2026-01-03 11:38:59.18	290.30	21.12	-45.7	-48.0	18.8	0.00e+00	0	41	0	662700032	63	4592
2026-01-03 11:39:00.18	290.55	21.07	-45.9	-48.2	18.7	0.00e+00	0	41	0	664797184	63	4696
2026-01-03 11:39:01.18	290.79	21.03	-46.4	-48.7	19.0	0.00e+00	0	41	0	666894336	63	4956
2026-01-03 11:39:02.19	291.04	20.98	-46.6	-48.9	18.8	0.00e+00	0	41	0	668991488	64	4803
2026-01-03 11:39:03.19	291.28	20.94	-46.3	-48.7	18.9	0.00e+00	0	41	0	671088640	64	4652
2026-01-03 11:39:04.19	291.53	20.89	-45.8	-48.1	19.1	0.00e+00	0	41	0	672137216	63	4626
2026-01-03 11:39:05.19	291.77	20.84	-45.6	-47.9	19.1	0.00e+00	0	41	0	674234368	63	4499
2026-01-03 11:39:06.19	292.01	20.80	-45.5	-47.7	19.4	0.00e+00	0	41	0	676331520	62	4698
2026-01-03 11:39:07.19	292.25	20.75	-45.5	-47.7	19.3	0.00e+00	0	41	0	678428672	62	4677
2026-01-03 11:39:08.19	292.49	20.70	-45.4	-47.6	19.3	0.00e+00	0	41	0	679477248	62	4648
2026-01-03 11:39:09.20	292.73	20.66	-45.6	-47.9	19.2	0.00e+00	0	41	0	681574400	62	4760
2026-01-03 11:39:10.20	292.97	20.61	-45.8	-48.0	19.0	0.00e+00	0	41	0	683671552	62	4862
2026-01-03 11:39:11.20	293.21	20.56	-45.8	-48.0	18.9	0.00e+00	0	41	0	685768704	62	4869
2026-01-03 11:39:12.21	293.45	20.51	-45.8	-48.1	18.8	0.00e+00	0	41	0	687865856	62	4907
2026-01-03 11:39:13.21	293.68	20.46	-45.9	-48.2	18.7	0.00e+00	0	41	0	688914432	62	4981
2026-01-03 11:39:14.21	293.92	20.41	-46.0	-48.3	18.7	0.00e+00	0	41	0	691011584	62	5011
2026-01-03 11:39:15.21	294.15	20.36	-45.8	-48.1	18.8	0.00e+00	0	41	0	693108736	62	4902
2026-01-03 11:39:16.21	294.39	20.31	-45.9	-48.2	18.8	0.00e+00	0	41	0	695205888	62	4970
2026-01-03 11:39:17.21	294.62	20.26	-46.6	-49.0	18.7	0.00e+00	0	41	0	697303040	63	5117
2026-01-03 11:39:18.22	294.85	20.21	-46.9	-49.3	18.4	0.00e+00	0	41	0	698351616	64	5003
2026-01-03 11:39:19.22	295.08	20.16	-46.4	-48.8	18.3	0.00e+00	0	41	0	700448768	64	4745
2026-01-03 11:39:20.22	295.32	20.10	-46.5	-49.0	18.1	0.00e+00	0	41	0	702545920	64	4836
2026-01-03 11:39:21.22	295.55	20.05	-46.5	-49.0	18.0	0.00e+00	0	41	0	704643072	64	4837
2026-01-03 11:39:22.22	295.77	20.00	-46.3	-48.8	18.2	0.00e+00	0	41	0	706740224	64	4728
2026-01-03 11:39:23.22	296.00	19.95	-46.3	-48.8	18.2	0.00e+00	0	41	0	707788800	64	4711
2026-01-03 11:39:24.22	296.23	19.89	-46.1	-48.5	18.6	0.00e+00	0	41	0	709885952	64	4568
2026-01-03 11:39:25.22	296.46	19.84	-45.9	-48.2	18.8	0.00e+00	0	41	0	711983104	63	4678
2026-01-03 11:39:26.22	296.68	19.79	-46.3	-48.6	18.9	0.00e+00	0	41	0	714080256	63	4889
2026-01-03 11:39:27.22	296.91	19.73	-45.8	-48.1	19.0	0.00e+00	0	41	0	716177408	63	4599
2026-01-03 11:39:28.22	297.13	19.68	-45.6	-47.9	19.1	0.00e+00	0	41	0	717225984	63	4507
2026-01-03 11:39:29.22	297.36	19.62	-46.0	-48.3	18.8	0.00e+00	0	41	0	719323136	63	4729
2026-01-03 11:39:30.23	297.58	19.57	-45.9	-48.2	18.9	0.00e+00	0	41	0	721420288	63	4686
2026-01-03 11:39:31.23	297.80	19.51	-46.2	-48.5	18.6	0.00e+00	0	41	0	723517440	63	4850
2026-01-03 11:39:32.23	298.03	19.45	-46.5	-48.9	18.4	0.00e+00	0	41	0	724566016	63	5073
2026-01-03 11:39:33.24	298.25	19.40	-46.8	-49.4	17.7	0.00e+00	0	41	0	726663168	64	5052
2026-01-03 11:39:34.24	298.47	19.34	-47.0	-49.6	17.3	0.00e+00	0	41	0	728760320	64	5209
2026-01-03 11:39:35.24	298.69	19.29	-47.5	-50.3	16.7	0.00e+00	0	41	0	730857472	65	5289
2026-01-03 11:39:36.24	298.91	19.23	-47.7	-50.5	16.6	0.00e+00	0	41	0	732954624	66	5159
2026-01-03 11:39:37.24	299.12	19.17	-47.6	-50.4	16.7	0.00e+00	0	41	0	734003200	66	5049
2026-01-03 11:39:38.24	299.34	19.11	-47.5	-50.2	16.9	0.00e+00	0	41	0	736100352	66	4975
2026-01-03 11:39:39.24	299.56	19.06	-47.3	-50.0	17.0	0.00e+00	0	41	0	738197504	66	4867
2026-01-03 11:39:40.24	299.77	19.00	-47.3	-50.0	17.2	0.00e+00	0	41	0	740294656	66	4832
2026-01-03 11:39:41.25	299.99	18.94	-47.3	-49.9	17.3	0.00e+00	0	41	0	742391808	66	4766
2026-01-03 11:39:42.25	300.20	18.88	-47.6	-50.2	17.4	0.00e+00	0	41	0	743440384	66	4936
2026-01-03 11:39:43.25	300.41	18.82	-47.4	-50.1	17.0	0.00e+00	0	41	0	745537536	66	4889
2026-01-03 11:39:44.25	300.62	18.76	-47.2	-49.8	17.2	0.00e+00	0	41	0	747634688	66	4744
2026-01-03 11:39:45.25	300.84	18.70	-47.2	-49.9	17.1	0.00e+00	0	41	0	749731840	66	4785
2026-01-03 11:39:46.25	301.05	18.64	-47.0	-49.6	17.3	0.00e+00	0	41	0	750780416	66	4643
2026-01-03 11:39:47.25	301.25	18.59	-47.0	-49.6	17.4	0.00e+00	0	41	0	752877568	65	4918
2026-01-03 11:39:48.25	301.46	18.53	-46.8	-49.4	17.5	0.00e+00	0	41	0	754974720	65	4792
2026-01-03 11:39:49.25	301.67	18.47	-46.8	-49.4	17.5	0.00e+00	0	41	0	757071872	65	4793
2026-01-03 11:39:50.25	301.88	18.41	-46.8	-49.4	17.5	7.00e-07	0	41	0	759169024	65	4780
2026-01-03 11:39:51.26	302.09	18.34	-46.8	-49.4	17.5	0.00e+00	0	41	0	760217600	65	4798
2026-01-03 11:39:52.26	302.29	18.28	-46.8	-49.4	17.5	0.00e+00	0	41	0	762314752	65	4799
2026-01-03 11:39:53.26	302.50	18.22	-46.9	-49.5	17.4	0.00e+00	0	41	0	764411904	65	4858
2026-01-03 11:39:54.26	302.70	18.16	-47.0	-49.6	17.3	0.00e+00	0	41	0	766509056	65	4912
2026-01-03 11:39:55.26	302.90	18.10	-47.2	-49.9	17.0	0.00e+00	0	41	0	768606208	65	5078
2026-01-03 11:39:56.26	303.10	18.04	-47.4	-50.3	16.7	0.00e+00	0	41	0	769654784	65	5282
2026-01-03 11:39:57.26	303.31	17.98	-47.8	-50.7	16.3	0.00e+00	0	41	0	771751936	66	5251
2026-01-03 11:39:58.26	303.51	17.92	-48.3	-51.4	15.9	0.00e+00	0	41	0	773849088	67	5351
2026-01-03 11:39:59.26	303.71	17.85	-48.9	-52.0	15.7	0.00e+00	0	41	0	775946240	68	5434
2026-01-03 11:40:00.26	303.90	17.79	-48.9	-52.0	15.7	0.00e+00	0	41	0	778043392	68	5432
2026-01-03 11:40:01.27	304.10	17.73	-48.3	-51.3	15.9	0.00e+00	0	41	0	779091968	68	5025
2026-01-03 11:40:02.27	304.30	17.67	-48.3	-51.3	15.9	0.00e+00	0	41	0	781189120	68	5041
2026-01-03 11:40:03.27	304.50	17.60	-48.1	-51.1	16.1	0.00e+00	0	41	0	783286272	68	4918
2026-01-03 11:40:04.27	304.69	17.54	-48.0	-51.0	16.3	0.00e+00	0	41	0	785383424	68	4837
2026-01-03 11:40:05.28	304.89	17.48	-47.6	-50.5	16.6	0.00e+00	0	41	0	787480576	67	4833
2026-01-03 11:40:06.28	305.08	17.41	-47.7	-50.5	16.6	0.00e+00	0	41	0	788529152	67	4866
2026-01-03 11:40:07.28	305.28	17.35	-47.8	-50.6	16.6	0.00e+00	0	41	0	790626304	67	4921
2026-01-03 11:40:08.29	305.47	17.29	-47.9	-50.8	16.5	0.00e+00	0	41	0	792723456	67	5022
2026-01-03 11:40:09.29	305.66	17.22	-48.0	-51.0	16.1	0.00e+00	0	41	0	794820608	67	5129
2026-01-03 11:40:10.28	305.85	17.16	-48.1	-51.1	16.1	0.00e+00	0	41	0	795869184	67	5213
2026-01-03 11:40:11.29	306.04	17.09	-48.2	-51.2	16.0	0.00e+00	0	41	0	797966336	67	5260
2026-01-03 11:40:12.29	306.23	17.03	-48.0	-51.0	16.2	0.00e+00	0	41	0	800063488	67	5117
2026-01-03 11:40:13.29	306.42	16.97	-48.2	-51.1	16.5	0.00e+00	0	41	0	802160640	67	5202
2026-01-03 11:40:14.29	306.61	16.90	-48.2	-51.1	16.5	0.00e+00	0	41	0	804257792	67	5166
2026-01-03 11:40:15.29	306.80	16.84	-47.3	-50.0	16.9	0.00e+00	0	41	0	805306368	66	4844
2026-01-03 11:40:16.29	306.98	16.77	-47.1	-49.7	17.2	0.00e+00	0	41	0	807403520	66	4693
2026-01-03 11:40:17.30	307.17	16.71	-47.1	-49.8	17.2	0.00e+00	0	41	0	809500672	66	4718
2026-01-03 11:40:18.30	307.36	16.64	-47.0	-49.6	17.3	0.00e+00	0	41	0	811597824	65	4899
2026-01-03 11:40:19.30	307.54	16.58	-47.4	-50.1	16.9	0.00e+00	0	41	0	813694976	65	5203
2026-01-03 11:40:20.31	307.72	16.51	-47.1	-49.9	17.1	0.00e+00	0	41	0	814743552	65	5050
2026-01-03 11:40:21.31	307.91	16.45	-47.2	-50.0	16.9	0.00e+00	0	41	0	816840704	65	5117
2026-01-03 11:40:22.31	308.09	16.38	-47.0	-49.7	17.2	0.00e+00	0	41	0	818937856	65	4953
2026-01-03 11:40:23.31	308.27	16.32	-46.9	-49.6	17.3	0.00e+00	0	41	0	821035008	65	4872
2026-01-03 11:40:24.31	308.45	16.25	-47.0	-49.7	17.3	0.00e+00	0	41	0	823132160	65	4948
2026-01-03 11:40:25.31	308.63	16.19	-47.1	-49.8	17.1	0.00e+00	0	41	0	824180736	65	5010
2026-01-03 11:40:26.31	308.81	16.12	-47.2	-50.0	17.0	0.00e+00	0	41	0	826277888	65	5121
2026-01-03 11:40:27.31	308.98	16.06	-47.5	-50.4	16.7	0.00e+00	0	41	0	828375040	65	5357
2026-01-03 11:40:28.32	309.16	15.99	-47.6	-50.6	16.4	0.00e+00	0	41	0	830472192	65	5519
2026-01-03 11:40:29.32	309.34	15.93	-47.8	-50.8	16.1	0.00e+00	0	41	0	831520768	66	5340
2026-01-03 11:40:30.32	309.51	15.86	-48.4	-51.6	16.0	0.00e+00	0	41	0	833617920	67	5477
2026-01-03 11:40:31.32	309.69	15.79	-48.4	-51.5	16.0	0.00e+00	0	41	0	835715072	67	5417
2026-01-03 11:40:32.33	309.86	15.73	-48.1	-51.1	16.3	0.00e+00	0	41	0	837812224	67	5206
2026-01-03 11:40:33.33	310.04	15.66	-47.6	-50.6	16.4	0.00e+00	0	41	0	839909376	67	4895
2026-01-03 11:40:34.33	310.21	15.60	-47.2	-50.1	16.8	0.00e+00	0	41	0	840957952	66	4892
2026-01-03 11:40:35.33	310.38	15.53	-46.7	-49.4	17.4	0.00e+00	0	41	0	843055104	65	4807
2026-01-03 11:40:36.34	310.55	15.46	-46.8	-49.5	17.4	0.00e+00	0	41	0	845152256	65	4855
2026-01-03 11:40:37.34	310.72	15.40	-46.8	-49.4	17.5	0.00e+00	0	41	0	847249408	65	4789
2026-01-03 11:40:38.34	310.89	15.33	-46.9	-49.6	17.3	0.00e+00	0	41	0	849346560	65	4897
2026-01-03 11:40:39.34	311.06	15.26	-47.2	-50.0	16.9	0.00e+00	0	41	0	850395136	65	5116
2026-01-03 11:40:40.34	311.23	15.20	-47.2	-50.0	16.9	0.00e+00	0	41	0	852492288	65	5104
2026-01-03 11:40:41.34	311.40	15.13	-47.4	-50.3	16.7	0.00e+00	0	41	0	854589440	65	5299
2026-01-03 11:40:42.35	311.57	15.06	-47.4	-50.2	16.7	0.00e+00	0	41	0	856686592	65	5272
2026-01-03 11:40:43.35	311.73	15.00	-47.4	-50.3	16.6	0.00e+00	0	41	0	858783744	65	5304
2026-01-03 11:40:44.35	311.90	14.93	-48.0	-50.9	16.6	0.00e+00	0	41	0	859832320	66	5348
2026-01-03 11:40:45.36	312.06	14.86	-47.6	-50.4	17.0	0.00e+00	0	41	0	861929472	66	5049
2026-01-03 11:40:46.36	312.23	14.80	-46.9	-49.5	17.3	0.00e+00	0	41	0	864026624	65	4868
2026-01-03 11:40:47.36	312.39	14.73	-47.0	-49.7	17.1	0.00e+00	0	41	0	866123776	65	4956
2026-01-03 11:40:48.36	312.55	14.66	-47.0	-49.8	17.1	0.00e+00	0	41	0	868220928	65	4994
2026-01-03 11:40:49.36	312.71	14.60	-47.2	-50.1	16.9	0.00e+00	0	41	0	869269504	65	5163
2026-01-03 11:40:50.37	312.88	14.53	-47.4	-50.3	16.5	0.00e+00	0	41	0	871366656	65	5331
2026-01-03 11:40:51.36	313.03	14.46	-47.5	-50.6	16.3	0.00e+00	0	41	0	873463808	65	5486
2026-01-03 11:40:52.36	313.19	14.40	-47.7	-50.9	16.1	0.00e+00	0	41	0	875560960	66	5356
2026-01-03 11:40:53.37	313.35	14.33	-47.8	-51.1	15.9	0.00e+00	0	41	0	876609536	66	5501
2026-01-03 11:40:54.37	313.51	14.26	-47.6	-50.8	16.1	0.00e+00	0	41	0	878706688	66	5321
2026-01-03 11:40:55.37	313.67	14.20	-47.3	-50.4	16.5	0.00e+00	0	41	0	880803840	66	5049
2026-01-03 11:40:56.37	313.83	14.13	-47.0	-49.9	17.0	0.00e+00	0	41	0	882900992	66	4776
2026-01-03 11:40:57.37	313.98	14.06	-46.8	-49.6	17.3	0.00e+00	0	41	0	884998144	65	4897
2026-01-03 11:40:58.38	314.14	14.00	-46.6	-49.2	17.6	0.00e+00	0	41	0	887095296	65	4704
2026-01-03 11:40:59.38	314.29	13.93	-46.9	-49.5	17.7	0.00e+00	0	41	0	888143872	65	4867
2026-01-03 11:41:00.38	314.45	13.86	-46.8	-49.3	17.9	0.00e+00	0	41	0	890241024	65	4734
2026-01-03 11:41:01.38	314.60	13.80	-46.5	-49.1	17.7	0.00e+00	0	41	0	892338176	64	4917
2026-01-03 11:41:02.38	314.75	13.73	-46.4	-49.0	17.8	0.00e+00	0	41	0	894435328	64	4847
2026-01-03 11:41:03.38	314.91	13.66	-46.8	-49.4	17.8	0.00e+00	0	41	0	895483904	64	5057
2026-01-03 11:41:04.38	315.06	13.59	-46.8	-49.3	17.9	0.00e+00	0	41	0	897581056	64	5021
2026-01-03 11:41:05.38	315.21	13.53	-46.2	-48.7	18.0	0.00e+00	0	41	0	899678208	64	4679
2026-01-03 11:41:06.39	315.36	13.46	-46.2	-48.7	18.1	0.00e+00	0	41	0	901775360	64	4671
2026-01-03 11:41:07.39	315.51	13.39	-46.1	-48.5	18.2	0.00e+00	0	41	0	903872512	64	4593
2026-01-03 11:41:08.39	315.66	13.33	-46.0	-48.4	18.4	0.00e+00	0	41	0	904921088	63	4798
2026-01-03 11:41:09.39	315.81	13.26	-46.1	-48.6	18.3	0.00e+00	0	41	0	907018240	63	4889
2026-01-03 11:41:10.39	315.95	13.19	-46.2	-48.7	18.1	0.00e+00	0	41	0	909115392	63	4969
2026-01-03 11:41:11.39	316.10	13.13	-46.3	-48.8	18.1	0.00e+00	0	41	0	911212544	63	5002
2026-01-03 11:41:12.39	316.25	13.06	-46.5	-49.0	17.8	0.00e+00	0	41	0	913309696	63	5147
2026-01-03 11:41:13.39	316.39	12.99	-46.6	-49.2	17.6	0.00e+00	0	41	0	914358272	64	4948
2026-01-03 11:41:14.40	316.54	12.93	-46.9	-49.7	17.2	0.00e+00	0	41	0	916455424	64	5221
2026-01-03 11:41:15.40	316.68	12.86	-47.8	-50.6	16.8	0.00e+00	0	41	0	918552576	66	5215
2026-01-03 11:41:16.40	316.82	12.79	-48.1	-50.9	16.5	0.00e+00	0	41	0	920649728	66	5395
2026-01-03 11:41:17.40	316.97	12.73	-47.5	-50.4	16.6	0.00e+00	0	41	0	921698304	66	5048
2026-01-03 11:41:18.40	317.11	12.66	-47.5	-50.4	16.6	0.00e+00	0	41	0	923795456	66	5057
2026-01-03 11:41:19.40	317.25	12.59	-47.3	-50.1	16.7	0.00e+00	0	41	0	925892608	66	4915
2026-01-03 11:41:20.41	317.39	12.53	-47.4	-50.3	16.6	0.00e+00	0	41	0	927989760	66	4986
2026-01-03 11:41:21.41	317.53	12.46	-47.2	-50.1	16.8	0.00e+00	0	41	0	930086912	66	4887
2026-01-03 11:41:22.41	317.67	12.39	-47.2	-50.1	16.8	0.00e+00	0	41	0	931135488	66	4904
2026-01-03 11:41:23.41	317.81	12.33	-47.2	-50.2	16.7	0.00e+00	0	41	0	933232640	66	4929
2026-01-03 11:41:24.41	317.95	12.26	-47.4	-50.3	16.8	0.00e+00	0	41	0	935329792	66	5008
2026-01-03 11:41:25.41	318.09	12.19	-47.7	-50.7	16.6	0.00e+00	0	41	0	937426944	66	5227
2026-01-03 11:41:26.41	318.23	12.13	-47.5	-50.5	16.4	0.00e+00	0	41	0	939524096	66	5143
2026-01-03 11:41:27.42	318.37	12.06	-47.6	-50.7	16.2	0.00e+00	0	41	0	940572672	66	5227
2026-01-03 11:41:28.42	318.50	11.99	-47.6	-50.7	16.3	0.00e+00	0	41	0	942669824	66	5238
2026-01-03 11:41:29.42	318.64	11.93	-47.4	-50.4	16.4	0.00e+00	0	41	0	944766976	66	5079
2026-01-03 11:41:30.43	318.77	11.86	-47.3	-50.3	16.6	0.00e+00	0	41	0	946864128	66	4985
2026-01-03 11:41:31.43	318.91	11.80	-47.2	-50.2	16.7	0.00e+00	0	41	0	948961280	66	4934
2026-01-03 11:41:32.43	319.04	11.73	-46.8	-49.7	17.0	0.00e+00	0	41	0	950009856	65	4962
2026-01-03 11:41:33.43	319.17	11.66	-46.5	-49.3	17.4	0.00e+00	0	41	0	952107008	65	4742
2026-01-03 11:41:34.44	319.31	11.60	-46.4	-49.1	17.6	0.00e+00	0	41	0	954204160	64	4891
2026-01-03 11:41:35.44	319.44	11.53	-46.5	-49.2	17.6	0.00e+00	0	41	0	956301312	64	4979
2026-01-03 11:41:36.44	319.57	11.47	-46.4	-49.2	17.6	0.00e+00	0	41	0	958398464	64	4931
2026-01-03 11:41:37.44	319.70	11.40	-47.0	-49.7	17.6	0.00e+00	0	41	0	959447040	64	5237
2026-01-03 11:41:38.44	319.83	11.33	-47.0	-49.8	17.5	0.00e+00	0	41	0	961544192	64	5301
2026-01-03 11:41:39.44	319.96	11.27	-46.5	-49.3	17.4	7.00e-07	0	41	0	963641344	64	5008
2026-01-03 11:41:40.44	320.09	11.20	-46.8	-49.6	17.1	0.00e+00	0	41	0	965738496	64	5192
2026-01-03 11:41:41.45	320.22	11.14	-46.7	-49.6	17.2	0.00e+00	0	41	0	966787072	64	5170
2026-01-03 11:41:42.45	320.35	11.07	-46.7	-49.5	17.2	0.00e+00	0	41	0	968884224	64	5156
2026-01-03 11:41:43.45	320.48	11.00	-46.9	-49.8	16.9	0.00e+00	0	41	0	970981376	64	5288
2026-01-03 11:41:44.46	320.61	10.94	-46.9	-49.8	16.9	0.00e+00	0	41	0	973078528	64	5294
2026-01-03 11:41:45.46	320.73	10.87	-46.9	-49.8	16.9	0.00e+00	0	41	0	975175680	64	5290
2026-01-03 11:41:46.46	320.86	10.81	-46.9	-49.8	16.9	0.00e+00	0	41	0	976224256	64	5337
2026-01-03 11:41:47.46	320.98	10.74	-47.3	-50.2	17.0	0.00e+00	0	41	0	978321408	65	5249
2026-01-03 11:41:48.47	321.11	10.68	-47.4	-50.3	16.8	0.00e+00	0	41	0	980418560	65	5286
2026-01-03 11:41:49.47	321.23	10.61	-47.3	-50.3	16.5	0.00e+00	0	41	0	982515712	65	5312
2026-01-03 11:41:50.47	321.36	10.55	-47.3	-50.3	16.4	0.00e+00	0	41	0	984612864	65	5315
2026-01-03 11:41:51.48	321.48	10.48	-47.6	-50.7	16.2	0.00e+00	0	41	0	985661440	65	5534
2026-01-03 11:41:52.48	321.61	10.42	-47.7	-50.8	15.9	0.00e+00	0	41	0	987758592	66	5332
2026-01-03 11:41:53.48	321.73	10.35	-47.9	-51.0	15.8	0.00e+00	0	41	0	989855744	66	5419
2026-01-03 11:41:54.48	321.85	10.29	-48.1	-51.2	15.6	0.00e+00	0	41	0	991952896	66	5583
2026-01-03 11:41:55.48	321.97	10.22	-48.0	-51.2	15.6	0.00e+00	0	41	0	994050048	66	5555
2026-01-03 11:41:56.49	322.09	10.16	-48.0	-51.2	15.7	5.30e-06	0	41	0	995098624	67	5264
2026-01-03 11:41:57.49	322.21	10.09	-47.7	-50.9	15.8	0.00e+00	0	41	0	997195776	67	5090
2026-01-03 11:41:58.49	322.33	10.03	-47.8	-51.0	16.0	0.00e+00	0	41	0	999292928	67	5112
2026-01-03 11:41:59.49	322.45	9.96	-47.4	-50.5	16.3	0.00e+00	0	41	0	1001390080	66	5118
2026-01-03 11:42:00.49	322.57	9.90	-47.4	-50.5	16.3	0.00e+00	0	41	0	1003487232	66	5128
2026-01-03 11:42:01.49	322.69	9.83	-47.0	-50.1	16.6	0.00e+00	0	41	0	1004535808	66	4920
2026-01-03 11:42:02.49	322.81	9.77	-46.7	-49.7	17.0	0.00e+00	0	41	0	1006632960	65	4973
2026-01-03 11:42:03.50	322.92	9.70	-46.7	-49.7	17.0	0.00e+00	0	41	0	1008730112	65	4981
2026-01-03 11:42:04.50	323.04	9.64	-46.5	-49.5	17.2	0.00e+00	0	41	0	1010827264	65	4829
2026-01-03 11:42:05.50	323.16	9.57	-46.7	-49.7	17.1	0.00e+00	0	41	0	1011875840	65	4928
2026-01-03 11:42:06.51	323.27	9.51	-47.1	-50.0	17.2	0.00e+00	0	41	0	1013972992	65	5121
2026-01-03 11:42:07.51	323.39	9.45	-46.6	-49.6	17.1	8.30e-06	0	41	0	1016070144	65	4911
2026-01-03 11:42:08.51	323.50	9.38	-46.8	-49.9	16.8	0.00e+00	0	41	0	1018167296	65	5046
2026-01-03 11:42:09.51	323.62	9.32	-46.8	-50.0	16.7	0.00e+00	0	41	0	1020264448	65	5109
2026-01-03 11:42:10.51	323.73	9.25	-47.0	-50.3	16.4	0.00e+00	0	41	0	1021313024	65	5332
2026-01-03 11:42:11.52	323.85	9.19	-47.1	-50.5	16.2	0.00e+00	0	41	0	1023410176	65	5407
2026-01-03 11:42:12.52	323.96	9.13	-47.0	-50.5	16.2	0.00e+00	0	41	0	1025507328	65	5411
2026-01-03 11:42:13.52	324.07	9.06	-47.2	-50.8	15.9	7.00e-07	0	41	0	1027604480	65	5637
2026-01-03 11:42:14.53	324.18	9.00	-47.9	-51.9	15.0	0.00e+00	0	41	0	1029701632	66	6009
2026-01-03 11:42:15.53	324.29	8.93	-53.0	-68.1	3.8	1.49e+00	0	41	104	1029701632	76	22004
2026-01-03 11:42:16.53	324.41	8.87	-52.8	-68.4	3.8	1.49e+00	0	41	104	1029701632	76	22597
2026-01-03 11:42:17.54	324.52	8.81	-52.9	-68.5	3.8	1.49e+00	0	41	104	1029701632	76	22982
2026-01-03 11:42:18.54	324.63	8.74	-53.0	-68.6	3.8	1.49e+00	0	41	104	1029701632	76	23151
2026-01-03 11:42:19.55	324.74	8.68	-53.5	-68.6	3.8	1.49e+00	0	41	104	1029701632	77	21996
2026-01-03 11:42:20.55	324.85	8.62	-53.3	-68.9	3.8	1.49e+00	0	41	104	1029701632	77	22611
2026-01-03 11:42:21.56	324.96	8.55	-53.5	-68.7	3.8	1.49e+00	0	41	104	1029701632	77	22120
2026-01-03 11:42:22.56	325.06	8.49	-53.5	-68.7	3.8	1.49e+00	0	41	104	1029701632	77	22185
2026-01-03 11:42:23.57	325.17	8.43	-53.5	-68.7	3.8	1.49e+00	0	41	104	1029701632	77	22167
2026-01-03 11:42:24.57	325.28	8.36	-53.7	-68.7	3.8	1.49e+00	0	41	104	1029701632	77	22207
2026-01-03 11:42:25.57	325.39	8.30	-53.6	-68.7	3.8	1.49e+00	0	41	104	1029701632	77	22206
2026-01-03 11:42:26.58	325.49	8.24	-53.5	-68.8	3.8	1.49e+00	0	41	104	1029701632	77	22356
2026-01-03 11:42:27.58	325.60	8.17	-53.9	-68.9	3.8	1.49e+00	0	41	104	1029701632	78	21401
2026-01-03 11:42:28.59	325.71	8.11	-53.6	-68.8	3.8	1.49e+00	0	41	104	1029701632	78	21162
2026-01-03 11:42:29.59	325.81	8.05	-53.7	-68.8	3.8	1.49e+00	0	41	104	1029701632	78	21053
2026-01-03 11:42:30.59	325.92	7.99	-54.1	-69.1	3.8	1.49e+00	0	41	104	1029701632	78	21797
2026-01-03 11:42:31.60	326.02	7.92	-53.7	-68.8	3.8	1.49e+00	0	41	104	1029701632	78	21140
2026-01-03 11:42:32.60	326.12	7.86	-53.6	-68.8	3.8	1.49e+00	0	41	104	1029701632	78	21027
2026-01-03 11:42:33.61	326.23	7.80	-53.7	-68.7	3.8	1.49e+00	0	41	104	1029701632	78	20976
2026-01-03 11:42:34.61	326.33	7.74	-53.6	-68.8	3.8	1.49e+00	0	41	104	1029701632	78	21060
2026-01-03 11:42:35.61	326.43	7.67	-53.5	-68.7	3.8	1.49e+00	0	41	104	1029701632	78	20970
2026-01-03 11:42:36.62	326.54	7.61	-53.4	-68.7	3.8	1.49e+00	0	41	104	1029701632	78	20923
2026-01-03 11:42:37.62	326.64	7.55	-53.5	-68.8	3.8	1.49e+00	0	41	104	1029701632	78	21036
2026-01-03 11:42:38.63	326.74	7.49	-53.5	-68.7	3.8	1.49e+00	0	41	104	1029701632	78	20907
2026-01-03 11:42:39.63	326.84	7.43	-53.5	-68.7	3.8	1.49e+00	0	41	104	1029701632	78	20962
2026-01-03 11:42:40.64	326.94	7.36	-53.5	-68.7	3.8	1.49e+00	0	41	104	1029701632	78	20960
2026-01-03 11:42:41.64	327.04	7.30	-53.5	-68.7	3.8	1.49e+00	0	41	104	1029701632	78	20926
2026-01-03 11:42:42.65	327.14	7.24	-53.5	-68.7	3.8	1.49e+00	0	41	104	1029701632	78	20835
2026-01-03 11:42:43.65	327.24	7.18	-53.5	-68.7	3.8	1.49e+00	0	41	104	1029701632	78	20951
2026-01-03 11:42:44.65	327.34	7.12	-53.4	-68.7	3.8	1.49e+00	0	41	104	1029701632	78	20923
2026-01-03 11:42:45.66	327.44	7.06	-53.5	-68.7	3.8	1.49e+00	0	41	104	1029701632	78	20905
2026-01-03 11:42:46.66	327.54	6.99	-53.5	-68.7	3.8	1.49e+00	0	41	104	1029701632	78	20986
2026-01-03 11:42:47.67	327.64	6.93	-53.5	-68.7	3.8	1.49e+00	0	41	104	1029701632	78	20939
2026-01-03 11:42:48.67	327.74	6.87	-53.5	-68.7	3.8	1.49e+00	0	41	104	1029701632	78	21006
2026-01-03 11:42:49.67	327.83	6.81	-53.5	-68.7	3.8	1.49e+00	0	41	104	1029701632	78	20902
2026-01-03 11:42:50.68	327.93	6.75	-53.5	-68.7	3.8	1.49e+00	0	41	104	1029701632	78	20951
2026-01-03 11:42:51.68	328.03	6.69	-53.6	-68.8	3.8	1.49e+00	0	41	104	1029701632	78	21244
2026-01-03 11:42:52.69	328.12	6.63	-53.5	-68.8	3.8	1.49e+00	0	41	104	1029701632	78	21051
2026-01-03 11:42:53.69	328.22	6.57	-53.5	-68.7	3.8	1.49e+00	0	41	104	1029701632	78	20999
2026-01-03 11:42:54.70	328.31	6.51	-53.5	-68.7	3.8	1.49e+00	0	41	104	1029701632	78	21007
2026-01-03 11:42:55.70	328.41	6.45	-53.5	-68.7	3.8	1.49e+00	0	41	104	1029701632	78	21005
2026-01-03 11:42:56.71	328.50	6.38	-53.5	-68.7	3.8	1.49e+00	0	41	104	1029701632	78	20966
2026-01-03 11:42:57.71	328.60	6.32	-53.5	-68.7	3.8	1.49e+00	0	41	104	1029701632	78	20970
2026-01-03 11:42:58.71	328.69	6.26	-53.5	-68.8	3.8	1.49e+00	0	41	104	1029701632	78	21043
2026-01-03 11:42:59.72	328.78	6.20	-53.5	-68.8	3.8	1.49e+00	0	42	104	1029701632	78	21107
2026-01-03 11:43:00.73	328.88	6.14	-53.5	-68.7	3.8	1.49e+00	0	41	104	1029701632	78	20917
2026-01-03 11:43:01.73	328.97	6.08	-53.4	-68.7	3.8	1.49e+00	0	41	104	1029701632	78	20878
2026-01-03 11:43:02.73	329.06	6.02	-53.5	-68.7	3.8	1.49e+00	0	41	104	1029701632	78	21001
2026-01-03 11:43:03.74	329.15	5.96	-53.5	-68.7	3.8	1.49e+00	0	41	104	1029701632	78	20910
2026-01-03 11:43:04.74	329.25	5.90	-53.5	-68.8	3.8	1.49e+00	0	41	104	1029701632	78	21095
2026-01-03 11:43:05.75	329.34	5.84	-53.5	-68.8	3.8	1.49e+00	0	41	104	1029701632	78	21091
2026-01-03 11:43:06.75	329.43	5.78	-53.5	-68.7	3.8	1.49e+00	0	41	104	1029701632	78	21016
2026-01-03 11:43:07.76	329.52	5.72	-53.5	-68.7	3.8	1.49e+00	0	41	104	1029701632	78	20923
2026-01-03 11:43:08.76	329.61	5.66	-53.5	-68.7	3.8	1.49e+00	0	41	104	1029701632	78	20939
2026-01-03 11:43:09.77	329.70	5.60	-53.4	-68.7	3.8	1.49e+00	0	41	104	1029701632	78	20869
2026-01-03 11:43:10.77	329.79	5.54	-53.4	-68.6	3.8	1.49e+00	0	41	104	1029701632	78	20762
2026-01-03 11:43:11.77	329.88	5.49	-53.4	-68.7	3.8	1.49e+00	0	41	104	1029701632	78	20798
2026-01-03 11:43:12.78	329.97	5.43	-53.4	-68.7	3.8	1.49e+00	0	41	104	1029701632	78	20966
2026-01-03 11:43:13.78	330.06	5.37	-53.5	-68.7	3.8	1.49e+00	0	41	104	1029701632	78	20864
2026-01-03 11:43:14.79	330.14	5.31	-53.5	-68.7	3.8	1.49e+00	0	41	104	1029701632	78	20848
2026-01-03 11:43:15.79	330.23	5.25	-53.4	-68.7	3.8	1.49e+00	0	41	104	1029701632	78	20899
2026-01-03 11:43:16.80	330.32	5.19	-53.4	-68.6	3.8	1.49e+00	0	41	104	1029701632	78	20774
2026-01-03 11:43:17.80	330.41	5.13	-53.4	-68.7	3.8	1.49e+00	0	41	104	1029701632	78	20798
2026-01-03 11:43:18.81	330.49	5.07	-53.4	-68.7	3.8	1.49e+00	0	41	104	1029701632	78	20844
2026-01-03 11:43:19.81	330.58	5.01	-53.4	-68.7	3.8	1.49e+00	0	41	104	1029701632	78	20874
2026-01-03 11:43:20.81	330.67	4.95	-53.4	-68.7	3.8	1.49e+00	0	41	104	1029701632	78	20857

#Closed at: 2026-01-03 11:43:21
#Recorded file [1029 MB]: D:/Data/31040_260103_143213.dat