passes_logs/2026/01/03/T1/T1__20260103_213224_NOAA_21_JPSS-2_rec.log

#Pass ID: 20260103_213224_NOAA 21 (JPSS-2)
#Satellite: NOAA 21 (JPSS-2)
#Configuration: NOAA 21
#almurnet v.1.7.20251203
#Start time: 2026-01-03 21:32:24

#Version: 2.0.20230620
#Station: T1
#Location: 37.570604 lon 55.790049 lat
#TLE: 1 54234U 22150A   26003.45311712  .00000198  00000+0  11468-3 0  9993
#TLE: 2 54234  98.7487 304.4932 0001159 347.5017  12.6130 14.19531745163172

#Time	Az	El	Level	Level2	SNR	BER	BlckErr	Temp	State	Recorded	gain1	gain2
2026-01-03 21:32:24.67	39.85	5.03	-53.5	-66.5	3.8	1.49e+00	0	40	0	0	78	16157
2026-01-03 21:32:25.67	39.97	5.07	-53.6	-66.5	3.8	1.49e+00	0	40	104	0	78	16257
2026-01-03 21:32:26.68	40.09	5.11	-53.5	-66.5	3.8	1.49e+00	0	40	104	0	78	16204
2026-01-03 21:32:27.68	40.21	5.15	-53.5	-66.5	3.8	1.49e+00	0	40	104	0	78	16199
2026-01-03 21:32:28.69	40.34	5.20	-53.4	-66.4	3.8	1.49e+00	0	40	104	0	78	16019
2026-01-03 21:32:29.69	40.46	5.24	-53.5	-66.5	3.8	1.49e+00	0	40	104	0	78	16202
2026-01-03 21:32:30.70	40.58	5.28	-53.4	-66.4	3.8	1.49e+00	0	40	104	0	78	16054
2026-01-03 21:32:31.70	40.71	5.32	-53.4	-66.4	3.8	1.49e+00	0	41	104	0	78	15983
2026-01-03 21:32:32.71	40.83	5.37	-53.4	-66.4	3.8	1.49e+00	0	40	104	0	78	15988
2026-01-03 21:32:33.71	40.95	5.41	-53.4	-66.4	3.8	1.49e+00	0	41	104	0	78	16018
2026-01-03 21:32:34.72	41.08	5.45	-53.5	-66.5	3.8	1.49e+00	0	40	104	0	78	16199
2026-01-03 21:32:35.72	41.20	5.49	-53.4	-66.4	3.8	1.49e+00	0	40	104	0	78	16081
2026-01-03 21:32:36.73	41.33	5.54	-53.4	-66.4	3.8	1.49e+00	0	41	104	0	78	16039
2026-01-03 21:32:37.73	41.46	5.58	-53.5	-66.4	3.8	1.49e+00	0	41	104	0	78	16061
2026-01-03 21:32:38.73	41.58	5.62	-53.5	-66.5	3.8	1.49e+00	0	40	104	0	78	16265
2026-01-03 21:32:39.74	41.71	5.66	-53.5	-66.5	3.8	1.49e+00	0	41	104	0	78	16157
2026-01-03 21:32:40.74	41.83	5.70	-53.4	-66.4	3.8	1.49e+00	0	41	104	0	78	16093
2026-01-03 21:32:41.75	41.96	5.75	-53.5	-66.5	3.8	1.49e+00	0	41	104	0	78	16170
2026-01-03 21:32:42.75	42.09	5.79	-53.5	-66.5	3.8	1.49e+00	0	41	104	0	78	16162
2026-01-03 21:32:43.75	42.22	5.83	-53.5	-66.5	3.8	1.49e+00	0	41	104	0	78	16163
2026-01-03 21:32:44.76	42.35	5.87	-53.5	-66.5	3.8	1.49e+00	0	41	104	0	78	16132
2026-01-03 21:32:45.77	42.48	5.91	-53.3	-66.3	3.8	1.49e+00	0	41	104	0	78	15894
2026-01-03 21:32:46.77	42.60	5.96	-53.3	-66.3	3.8	1.49e+00	0	41	104	0	78	15902
2026-01-03 21:32:47.77	42.73	6.00	-53.4	-66.4	3.8	1.49e+00	0	41	104	0	78	16004
2026-01-03 21:32:48.78	42.86	6.04	-53.4	-66.4	3.8	1.49e+00	0	41	104	0	78	15967
2026-01-03 21:32:49.78	42.99	6.08	-53.3	-66.3	3.8	1.49e+00	0	41	104	0	78	15902
2026-01-03 21:32:50.78	43.12	6.12	-53.3	-66.2	3.8	1.49e+00	0	41	104	0	78	15729
2026-01-03 21:32:51.79	43.25	6.16	-53.3	-66.3	3.8	1.49e+00	0	41	104	0	78	15876
2026-01-03 21:32:52.79	43.38	6.20	-53.3	-66.3	3.8	1.49e+00	0	41	104	0	78	15799
2026-01-03 21:32:53.80	43.52	6.25	-53.3	-66.3	3.8	1.49e+00	0	41	104	0	78	15875
2026-01-03 21:32:54.80	43.65	6.29	-53.5	-66.5	3.8	1.49e+00	0	41	104	0	78	16259
2026-01-03 21:32:55.81	43.78	6.33	-53.5	-66.4	3.8	1.49e+00	0	41	104	0	78	16091
2026-01-03 21:32:56.81	43.91	6.37	-53.4	-66.4	3.8	1.49e+00	0	41	104	0	78	16118
2026-01-03 21:32:57.82	44.05	6.41	-53.4	-66.3	3.8	1.49e+00	0	41	104	0	78	15939
2026-01-03 21:32:58.82	44.18	6.45	-53.2	-66.2	3.8	1.49e+00	0	41	104	0	78	15614
2026-01-03 21:32:59.82	44.31	6.49	-53.3	-66.3	3.8	1.49e+00	0	41	104	0	78	15831
2026-01-03 21:33:00.83	44.45	6.53	-53.4	-66.3	3.8	1.49e+00	0	41	104	0	78	15900
2026-01-03 21:33:01.83	44.58	6.57	-53.3	-66.3	3.8	1.49e+00	0	41	104	0	78	15812
2026-01-03 21:33:02.84	44.72	6.62	-53.4	-66.3	3.8	1.49e+00	0	41	104	0	78	15934
2026-01-03 21:33:03.84	44.85	6.66	-53.4	-66.4	3.8	1.49e+00	0	42	104	0	78	15952
2026-01-03 21:33:04.85	44.99	6.70	-53.3	-66.3	3.8	1.49e+00	0	42	104	0	78	15822
2026-01-03 21:33:05.85	45.12	6.74	-53.2	-66.2	3.8	1.49e+00	0	42	104	0	78	15640
2026-01-03 21:33:06.86	45.26	6.78	-53.2	-66.2	3.8	1.49e+00	0	41	104	0	78	15659
2026-01-03 21:33:07.86	45.40	6.82	-53.1	-66.1	3.8	1.49e+00	0	41	104	0	78	15563
2026-01-03 21:33:08.87	45.53	6.86	-53.1	-66.1	3.8	1.49e+00	0	41	104	0	78	15474
2026-01-03 21:33:09.87	45.67	6.90	-53.2	-66.2	3.8	1.49e+00	0	41	104	0	78	15634
2026-01-03 21:33:10.87	45.81	6.94	-53.2	-66.1	3.8	1.49e+00	0	42	104	0	78	15519
2026-01-03 21:33:11.88	45.95	6.98	-53.2	-66.1	3.8	1.49e+00	0	41	104	0	78	15573
2026-01-03 21:33:12.88	46.08	7.02	-53.3	-66.3	3.8	1.49e+00	0	41	104	0	78	15859
2026-01-03 21:33:13.89	46.22	7.06	-53.2	-66.2	3.8	1.49e+00	0	42	104	0	78	15600
2026-01-03 21:33:14.89	46.36	7.10	-53.2	-66.2	3.8	1.49e+00	0	41	104	0	77	16533
2026-01-03 21:33:15.90	46.50	7.14	-53.2	-66.2	3.8	1.49e+00	0	42	104	0	77	16535
2026-01-03 21:33:16.90	46.64	7.18	-53.2	-66.2	3.8	1.49e+00	0	42	104	0	77	16521
2026-01-03 21:33:17.91	46.78	7.22	-53.3	-66.3	3.8	1.49e+00	0	42	104	0	77	16741
2026-01-03 21:33:18.91	46.92	7.26	-53.2	-66.2	3.8	1.49e+00	0	42	104	0	77	16623
2026-01-03 21:33:19.91	47.06	7.30	-53.2	-66.2	3.8	1.49e+00	0	42	104	0	77	16538
2026-01-03 21:33:20.92	47.20	7.34	-53.0	-66.0	3.8	1.49e+00	0	42	104	0	77	16288
2026-01-03 21:33:21.92	47.35	7.38	-53.1	-66.1	3.8	1.49e+00	0	42	104	0	77	16471
2026-01-03 21:33:22.93	47.49	7.42	-53.2	-66.2	3.8	1.49e+00	0	42	104	0	77	16505
2026-01-03 21:33:23.93	47.63	7.45	-53.2	-66.1	3.8	1.49e+00	0	42	104	0	77	16481
2026-01-03 21:33:24.94	47.77	7.49	-53.2	-66.1	3.8	1.49e+00	0	42	104	0	77	16500
2026-01-03 21:33:25.94	47.92	7.53	-53.1	-66.1	3.8	1.49e+00	0	42	104	0	77	16408
2026-01-03 21:33:26.95	48.06	7.57	-53.1	-66.1	3.8	1.49e+00	0	42	104	0	77	16399
2026-01-03 21:33:27.95	48.20	7.61	-53.1	-66.1	3.8	1.49e+00	0	42	104	0	77	16412
2026-01-03 21:33:28.95	48.35	7.65	-53.1	-66.1	3.8	1.49e+00	0	42	104	0	77	16494
2026-01-03 21:33:29.96	48.49	7.69	-52.9	-65.9	3.9	1.49e+00	0	42	104	0	77	16006
2026-01-03 21:33:30.96	48.64	7.73	-53.1	-66.1	3.8	1.49e+00	0	42	104	0	77	16480
2026-01-03 21:33:31.97	48.78	7.76	-53.2	-66.2	3.8	1.49e+00	0	42	104	0	77	16611
2026-01-03 21:33:32.97	48.93	7.80	-53.1	-66.1	3.8	1.49e+00	0	42	104	0	77	16465
2026-01-03 21:33:33.98	49.08	7.84	-53.1	-66.1	3.8	1.49e+00	0	42	104	0	77	16439
2026-01-03 21:33:34.98	49.22	7.88	-53.1	-66.1	3.8	1.49e+00	0	42	104	0	77	16352
2026-01-03 21:33:35.99	49.37	7.92	-53.2	-66.1	3.8	1.49e+00	0	42	104	0	77	16456
2026-01-03 21:33:36.99	49.52	7.95	-53.3	-66.2	3.8	1.49e+00	0	42	104	0	77	16605
2026-01-03 21:33:37.99	49.66	7.99	-53.4	-66.3	3.8	1.49e+00	0	42	104	0	77	16859
2026-01-03 21:33:39.00	49.81	8.03	-53.3	-66.2	3.8	1.49e+00	0	42	104	0	77	16687
2026-01-03 21:33:40.00	49.96	8.07	-53.3	-66.2	3.8	1.49e+00	0	42	104	0	77	16593
2026-01-03 21:33:41.01	50.11	8.11	-53.3	-66.1	3.8	1.49e+00	0	42	104	0	77	16503
2026-01-03 21:33:42.01	50.26	8.14	-53.3	-66.2	3.8	1.49e+00	0	42	104	0	77	16619
2026-01-03 21:33:43.02	50.41	8.18	-53.3	-66.2	3.8	1.49e+00	0	42	104	0	77	16593
2026-01-03 21:33:44.02	50.56	8.22	-53.4	-66.2	3.8	1.49e+00	0	42	104	0	77	16632
2026-01-03 21:33:45.03	50.71	8.25	-53.4	-66.2	3.8	1.49e+00	0	42	104	0	77	16548
2026-01-03 21:33:46.03	50.86	8.29	-53.3	-66.1	3.8	1.49e+00	0	42	104	0	77	16463
2026-01-03 21:33:47.03	51.01	8.33	-53.3	-66.2	3.8	1.49e+00	0	42	104	0	77	16529
2026-01-03 21:33:48.03	51.16	8.36	-53.3	-66.2	3.8	1.49e+00	0	42	104	0	77	16563
2026-01-03 21:33:49.04	51.31	8.40	-53.3	-66.3	3.8	1.49e+00	0	42	104	0	77	16715
2026-01-03 21:33:50.04	51.46	8.44	-53.4	-66.4	3.8	1.49e+00	0	42	104	0	77	16896
2026-01-03 21:33:51.05	51.62	8.47	-53.4	-66.4	3.8	1.49e+00	0	42	104	0	77	16904
2026-01-03 21:33:52.05	51.77	8.51	-53.4	-66.4	3.8	1.49e+00	0	42	104	0	77	16901
2026-01-03 21:33:53.05	51.92	8.55	-53.4	-66.4	3.8	1.49e+00	0	42	104	0	78	15985
2026-01-03 21:33:54.06	52.08	8.58	-53.4	-66.3	3.8	1.49e+00	0	42	104	0	78	15850
2026-01-03 21:33:55.06	52.23	8.62	-53.4	-66.1	3.8	1.49e+00	0	42	104	0	78	15501
2026-01-03 21:33:56.07	52.39	8.65	-53.3	-66.0	3.8	1.49e+00	0	42	104	0	78	15292
2026-01-03 21:33:57.07	52.54	8.69	-53.3	-65.9	3.8	1.49e+00	0	42	104	0	78	15216
2026-01-03 21:33:58.08	52.70	8.72	-53.3	-66.0	3.8	1.49e+00	0	42	104	0	78	15292
2026-01-03 21:33:59.08	52.85	8.76	-53.3	-66.0	3.8	1.49e+00	0	42	104	0	78	15285
2026-01-03 21:34:00.09	53.01	8.80	-53.3	-65.8	3.8	1.49e+00	0	42	104	0	78	14955
2026-01-03 21:34:01.09	53.16	8.83	-53.3	-65.5	3.8	1.49e+00	0	42	104	0	78	14396
2026-01-03 21:34:02.09	53.32	8.86	-53.3	-65.2	3.8	1.49e+00	0	42	104	0	78	14007
2026-01-03 21:34:03.10	53.48	8.90	-53.2	-65.0	3.8	1.49e+00	0	42	104	0	78	13712
2026-01-03 21:34:04.11	53.63	8.93	-53.2	-65.0	3.8	1.49e+00	0	42	104	0	78	13648
2026-01-03 21:34:05.11	53.79	8.97	-53.2	-64.7	3.8	1.49e+00	0	42	104	0	78	13209
2026-01-03 21:34:06.11	53.95	9.00	-52.8	-62.9	3.9	1.48e+00	0	42	104	0	77	11388
2026-01-03 21:34:07.12	54.11	9.04	-52.4	-59.6	5.6	6.51e-01	0	42	0	0	76	8229
2026-01-03 21:34:08.12	54.27	9.07	-52.9	-62.4	4.3	1.48e+00	0	42	104	0	76	11329
2026-01-03 21:34:09.22	54.44	9.11	-53.2	-65.2	3.8	1.49e+00	0	42	104	0	77	14775
2026-01-03 21:34:10.13	54.59	9.14	-51.0	-55.6	9.6	2.13e-02	0	42	0	0	74	5826
2026-01-03 21:34:11.13	54.74	9.17	-53.0	-62.6	4.3	1.48e+00	0	42	104	0	76	11623
2026-01-03 21:34:12.34	54.94	9.21	-47.5	-50.0	15.1	0.00e+00	0	42	0	0	66	4830
2026-01-03 21:34:13.23	55.08	9.24	-47.4	-49.9	15.1	0.00e+00	0	42	0	0	66	4814
2026-01-03 21:34:14.38	55.26	9.28	-47.5	-50.1	14.9	1.50e-06	0	42	0	0	66	4883
2026-01-03 21:34:15.30	55.41	9.31	-47.2	-49.7	15.3	0.00e+00	0	42	0	0	66	4676
2026-01-03 21:34:16.48	55.60	9.35	-46.9	-49.3	15.7	0.00e+00	0	42	0	0	65	4715
2026-01-03 21:34:17.34	55.74	9.38	-46.7	-49.0	16.0	0.00e+00	0	42	0	0	65	4576
2026-01-03 21:34:18.68	55.96	9.42	-46.7	-49.0	16.0	0.00e+00	0	42	0	0	65	4559
2026-01-03 21:34:19.40	56.07	9.44	-46.6	-48.9	16.1	0.00e+00	0	42	0	0	65	4500
2026-01-03 21:34:20.69	56.28	9.49	-46.5	-48.8	16.2	0.00e+00	0	42	0	0	65	4454
2026-01-03 21:34:21.41	56.40	9.51	-46.3	-48.5	16.4	0.00e+00	0	42	0	0	64	4594
2026-01-03 21:34:22.69	56.61	9.55	-46.2	-48.4	16.7	0.00e+00	0	42	0	0	64	4495
2026-01-03 21:34:23.41	56.73	9.57	-46.1	-48.3	16.6	0.00e+00	0	42	0	0	64	4479
2026-01-03 21:34:24.70	56.94	9.61	-46.0	-48.1	16.9	0.00e+00	0	42	0	0	63	4640
2026-01-03 21:34:25.51	57.07	9.64	-46.0	-48.2	16.8	0.00e+00	0	42	0	0	63	4661
2026-01-03 21:34:26.66	57.26	9.67	-45.9	-48.0	16.8	0.00e+00	0	42	0	0	63	4571
2026-01-03 21:34:27.52	57.40	9.70	-45.8	-47.9	16.9	7.00e-07	0	42	0	0	63	4521
2026-01-03 21:34:28.66	57.59	9.74	-45.8	-47.9	17.0	0.00e+00	0	42	0	0	63	4506
2026-01-03 21:34:29.53	57.73	9.76	-45.9	-47.9	17.1	0.00e+00	0	42	0	0	63	4538
2026-01-03 21:34:30.67	57.92	9.80	-45.7	-47.7	17.1	0.00e+00	0	42	0	0	63	4440
2026-01-03 21:34:31.53	58.07	9.82	-45.7	-47.8	17.0	0.00e+00	0	42	0	0	63	4481
2026-01-03 21:34:32.71	58.26	9.86	-46.0	-48.1	16.9	0.00e+00	0	42	0	0	63	4650
2026-01-03 21:34:33.57	58.41	9.88	-45.7	-47.8	17.0	0.00e+00	0	42	0	0	63	4470
2026-01-03 21:34:34.72	58.60	9.92	-45.9	-48.0	16.9	0.00e+00	0	42	0	0	63	4565
2026-01-03 21:34:35.57	58.74	9.94	-45.8	-47.9	17.0	0.00e+00	0	42	0	0	63	4532
2026-01-03 21:34:36.72	58.93	9.98	-46.0	-48.1	17.1	0.00e+00	0	42	0	0	63	4614
2026-01-03 21:34:37.61	59.08	10.00	-45.9	-48.0	17.1	0.00e+00	0	42	0	0	63	4563
2026-01-03 21:34:38.76	59.28	10.04	-45.9	-48.0	17.1	0.00e+00	0	42	0	0	63	4568
2026-01-03 21:34:39.62	59.42	10.06	-46.0	-48.1	17.1	0.00e+00	0	42	0	0	63	4613
2026-01-03 21:34:41.00	59.66	10.10	-45.8	-47.9	17.1	0.00e+00	0	42	0	0	63	4521
2026-01-03 21:34:41.72	59.78	10.12	-45.8	-47.9	17.1	0.00e+00	0	42	0	0	63	4499
2026-01-03 21:34:43.23	60.04	10.16	-45.8	-47.9	17.2	0.00e+00	0	42	0	0	63	4513
2026-01-03 21:34:43.95	60.16	10.18	-45.9	-47.9	17.2	0.00e+00	0	42	0	0	63	4534
2026-01-03 21:34:45.24	60.38	10.22	-45.7	-47.7	17.4	0.00e+00	0	42	0	0	63	4428
2026-01-03 21:34:45.95	60.50	10.24	-45.6	-47.7	17.3	0.00e+00	0	42	0	0	63	4393
2026-01-03 21:34:47.24	60.72	10.28	-46.0	-48.1	17.3	0.00e+00	0	42	0	0	63	4625
2026-01-03 21:34:47.96	60.84	10.29	-46.0	-48.1	17.2	0.00e+00	0	42	0	0	63	4640
2026-01-03 21:34:49.25	61.07	10.33	-46.1	-48.2	17.1	0.00e+00	0	42	0	0	63	4659
2026-01-03 21:34:49.96	61.19	10.35	-46.2	-48.4	17.0	0.00e+00	0	42	0	0	63	4760
2026-01-03 21:34:51.25	61.41	10.38	-46.0	-48.0	17.2	0.00e+00	0	42	0	0	63	4586
2026-01-03 21:34:51.97	61.54	10.40	-45.9	-47.9	17.3	0.00e+00	0	42	0	0	63	4520
2026-01-03 21:34:53.26	61.76	10.44	-46.0	-48.1	17.3	0.00e+00	0	42	0	0	63	4607
2026-01-03 21:34:53.98	61.88	10.45	-45.9	-47.9	17.4	0.00e+00	0	42	0	0	63	4535
2026-01-03 21:34:55.27	62.11	10.49	-46.0	-48.0	17.4	0.00e+00	0	42	0	0	63	4596
2026-01-03 21:34:55.98	62.23	10.51	-46.0	-48.1	17.3	0.00e+00	0	42	0	0	63	4607
2026-01-03 21:34:57.27	62.46	10.54	-45.7	-47.8	17.3	0.00e+00	0	42	0	0	63	4460
2026-01-03 21:34:57.98	62.58	10.56	-46.0	-48.1	17.0	0.00e+00	0	42	0	0	63	4624
2026-01-03 21:34:59.27	62.81	10.59	-45.9	-48.0	17.1	0.00e+00	0	42	0	0	63	4582
2026-01-03 21:34:59.99	62.93	10.61	-45.8	-47.9	17.2	0.00e+00	0	42	0	0	63	4527
2026-01-03 21:35:01.28	63.16	10.64	-45.8	-47.9	17.2	0.00e+00	0	42	0	0	63	4525
2026-01-03 21:35:01.98	63.28	10.66	-45.8	-48.0	17.1	0.00e+00	0	42	0	0	63	4550
2026-01-03 21:35:03.27	63.51	10.69	-45.5	-47.6	17.2	0.00e+00	0	42	0	0	63	4373
2026-01-03 21:35:03.99	63.64	10.70	-45.6	-47.7	17.4	0.00e+00	0	42	0	0	63	4403
2026-01-03 21:35:05.28	63.86	10.74	-45.6	-47.7	17.4	0.00e+00	0	42	0	0	63	4400
2026-01-03 21:35:06.00	63.99	10.75	-45.5	-47.6	17.4	0.00e+00	0	42	0	0	63	4343
2026-01-03 21:35:07.29	64.22	10.78	-45.6	-47.6	17.4	0.00e+00	0	42	0	0	63	4349
2026-01-03 21:35:08.00	64.35	10.80	-45.5	-47.6	17.4	0.00e+00	0	42	0	0	62	4602
2026-01-03 21:35:09.30	64.58	10.83	-45.7	-47.8	17.2	0.00e+00	0	42	0	0	62	4735
2026-01-03 21:35:10.01	64.70	10.84	-45.5	-47.5	17.4	0.00e+00	0	42	0	0	62	4590
2026-01-03 21:35:11.30	64.93	10.87	-45.6	-47.6	17.3	0.00e+00	0	42	0	0	62	4648
2026-01-03 21:35:12.02	65.06	10.89	-45.5	-47.6	17.3	0.00e+00	0	42	0	0	62	4631
2026-01-03 21:35:13.30	65.29	10.92	-45.5	-47.6	17.3	0.00e+00	0	42	0	0	62	4601
2026-01-03 21:35:14.02	65.42	10.93	-45.5	-47.5	17.3	0.00e+00	0	42	0	0	62	4590
2026-01-03 21:35:15.31	65.65	10.96	-45.5	-47.5	17.4	0.00e+00	0	42	0	0	62	4582
2026-01-03 21:35:16.03	65.78	10.98	-45.5	-47.6	17.4	0.00e+00	0	42	0	0	62	4616
2026-01-03 21:35:17.32	66.01	11.00	-45.6	-47.7	17.3	0.00e+00	0	42	0	0	62	4655
2026-01-03 21:35:18.03	66.14	11.02	-45.5	-47.6	17.3	0.00e+00	0	42	0	0	62	4633
2026-01-03 21:35:19.32	66.37	11.04	-45.4	-47.4	17.5	0.00e+00	0	42	0	0	62	4513
2026-01-03 21:35:20.04	66.50	11.06	-45.3	-47.4	17.5	0.00e+00	0	42	0	0	62	4513
2026-01-03 21:35:21.33	66.74	11.08	-45.4	-47.4	17.4	0.00e+00	0	42	0	0	62	4533
2026-01-03 21:35:22.04	66.87	11.10	-45.4	-47.5	17.3	0.00e+00	0	42	0	0	62	4553
2026-01-03 21:35:23.33	67.10	11.12	-45.5	-47.5	17.2	0.00e+00	0	42	0	0	62	4593
2026-01-03 21:35:24.07	67.23	11.14	-45.5	-47.6	17.2	0.00e+00	0	42	0	0	62	4605
2026-01-03 21:35:25.65	67.52	11.17	-45.4	-47.5	17.2	0.00e+00	0	42	0	0	62	4588
2026-01-03 21:35:26.23	67.63	11.18	-45.5	-47.5	17.3	0.00e+00	0	42	0	0	62	4596
2026-01-03 21:35:28.03	67.96	11.21	-45.4	-47.5	17.4	0.00e+00	0	42	0	0	62	4557
2026-01-03 21:35:28.60	68.06	11.22	-45.3	-47.3	17.6	0.00e+00	0	42	0	0	62	4467
2026-01-03 21:35:30.25	68.36	11.25	-45.1	-47.1	17.7	0.00e+00	0	42	0	0	62	4384
2026-01-03 21:35:30.83	68.47	11.26	-45.1	-47.1	17.8	0.00e+00	0	42	0	0	62	4359
2026-01-03 21:35:32.42	68.76	11.29	-45.1	-47.1	17.7	0.00e+00	0	42	0	0	62	4376
2026-01-03 21:35:32.99	68.87	11.30	-45.1	-47.1	17.7	0.00e+00	0	42	0	0	62	4349
2026-01-03 21:35:34.57	69.16	11.33	-45.2	-47.1	17.7	0.00e+00	0	42	0	0	62	4391
2026-01-03 21:35:35.14	69.26	11.34	-45.1	-47.1	17.7	0.00e+00	0	42	0	0	62	4365
2026-01-03 21:35:36.88	69.58	11.37	-45.2	-47.2	17.6	0.00e+00	0	42	0	0	62	4425
2026-01-03 21:35:37.45	69.69	11.37	-45.2	-47.2	17.5	0.00e+00	0	42	0	0	62	4433
2026-01-03 21:35:39.04	69.98	11.40	-45.2	-47.3	17.6	0.00e+00	0	42	0	0	62	4448
2026-01-03 21:35:39.62	70.09	11.41	-45.3	-47.4	17.5	0.00e+00	0	42	0	0	62	4504
2026-01-03 21:35:41.58	70.45	11.44	-45.4	-47.4	17.4	0.00e+00	0	42	0	0	62	4520
2026-01-03 21:35:42.15	70.56	11.45	-45.3	-47.3	17.5	0.00e+00	0	42	0	0	62	4447
2026-01-03 21:35:43.78	70.86	11.47	-45.3	-47.3	17.5	0.00e+00	0	42	0	0	62	4455
2026-01-03 21:35:44.36	70.97	11.48	-45.4	-47.4	17.5	0.00e+00	0	42	0	0	62	4520
2026-01-03 21:35:45.94	71.26	11.50	-45.5	-47.5	17.5	0.00e+00	0	42	0	0	62	4563
2026-01-03 21:35:46.53	71.37	11.51	-45.5	-47.5	17.5	0.00e+00	0	42	0	0	62	4558
2026-01-03 21:35:48.10	71.66	11.53	-45.6	-47.6	17.4	0.00e+00	0	42	0	0	62	4638
2026-01-03 21:35:48.87	71.81	11.54	-45.6	-47.6	17.5	0.00e+00	0	42	0	0	62	4620
2026-01-03 21:35:50.16	72.05	11.56	-45.6	-47.7	17.3	0.00e+00	0	42	0	0	62	4666
2026-01-03 21:35:51.10	72.22	11.57	-45.7	-47.8	17.2	0.00e+00	0	42	0	0	62	4711
2026-01-03 21:35:52.10	72.41	11.58	-45.7	-47.7	17.4	0.00e+00	0	42	0	0	62	4701
2026-01-03 21:35:53.10	72.60	11.59	-45.4	-47.4	17.6	0.00e+00	0	42	0	0	62	4545
2026-01-03 21:35:54.10	72.79	11.60	-45.4	-47.4	17.6	0.00e+00	0	42	0	0	62	4498
2026-01-03 21:35:55.11	72.98	11.62	-45.2	-47.1	17.9	0.00e+00	0	42	0	0	62	4371
2026-01-03 21:35:56.11	73.16	11.63	-45.2	-47.1	17.9	0.00e+00	0	42	0	0	62	4370
2026-01-03 21:35:57.11	73.35	11.64	-45.2	-47.1	17.8	0.00e+00	0	42	0	0	62	4373
2026-01-03 21:35:58.15	73.55	11.65	-45.2	-47.2	17.8	0.00e+00	0	42	0	0	62	4398
2026-01-03 21:35:59.18	73.74	11.66	-45.1	-47.0	17.9	0.00e+00	0	42	0	0	62	4338
2026-01-03 21:36:00.17	73.93	11.67	-45.2	-47.2	17.8	0.00e+00	0	42	0	0	62	4397
2026-01-03 21:36:01.17	74.12	11.68	-45.1	-47.1	17.8	0.00e+00	0	42	0	0	62	4359
2026-01-03 21:36:02.17	74.30	11.69	-45.1	-47.0	17.9	0.00e+00	0	42	0	0	62	4318
2026-01-03 21:36:03.17	74.49	11.70	-45.0	-47.0	17.9	0.00e+00	0	42	0	0	62	4298
2026-01-03 21:36:04.35	74.72	11.71	-45.0	-47.0	17.9	0.00e+00	0	42	0	0	61	4546
2026-01-03 21:36:05.24	74.88	11.72	-44.9	-46.9	17.9	0.00e+00	0	42	0	0	61	4506
2026-01-03 21:36:06.39	75.10	11.73	-45.0	-47.0	17.8	0.00e+00	0	42	0	0	61	4562
2026-01-03 21:36:07.30	75.27	11.73	-45.0	-46.9	17.9	0.00e+00	0	42	0	0	61	4535
2026-01-03 21:36:08.30	75.46	11.74	-44.9	-46.8	18.0	0.00e+00	0	42	0	0	61	4474
2026-01-03 21:36:09.54	75.70	11.75	-45.1	-47.1	17.9	0.00e+00	0	42	0	0	61	4608
2026-01-03 21:36:10.40	75.86	11.76	-45.0	-46.9	17.9	0.00e+00	0	42	0	0	61	4534
2026-01-03 21:36:11.54	76.08	11.76	-45.0	-47.0	17.9	0.00e+00	0	42	0	0	61	4554
2026-01-03 21:36:12.40	76.24	11.77	-45.0	-46.9	17.9	0.00e+00	0	42	0	0	61	4523
2026-01-03 21:36:13.55	76.46	11.78	-45.1	-47.1	17.8	0.00e+00	0	42	0	0	61	4615
2026-01-03 21:36:14.40	76.62	11.78	-45.0	-47.0	17.8	0.00e+00	0	42	0	0	61	4554
2026-01-03 21:36:15.55	76.84	11.79	-45.1	-47.1	17.8	0.00e+00	0	42	0	0	61	4614
2026-01-03 21:36:16.41	77.00	11.79	-45.0	-47.0	17.8	0.00e+00	0	42	0	0	61	4554
2026-01-03 21:36:17.56	77.22	11.80	-45.0	-46.9	17.9	0.00e+00	0	42	0	0	61	4540
2026-01-03 21:36:18.42	77.38	11.80	-44.9	-46.9	18.0	0.00e+00	0	42	0	0	61	4497
2026-01-03 21:36:19.57	77.60	11.81	-44.9	-46.9	17.9	0.00e+00	0	42	0	0	61	4502
2026-01-03 21:36:20.42	77.76	11.81	-44.8	-46.7	18.0	0.00e+00	0	42	0	0	61	4435
2026-01-03 21:36:21.59	77.99	11.82	-44.9	-46.8	18.0	0.00e+00	0	42	0	0	61	4467
2026-01-03 21:36:22.45	78.15	11.82	-44.8	-46.7	18.0	0.00e+00	0	42	0	0	61	4437
2026-01-03 21:36:23.59	78.37	11.83	-44.8	-46.7	18.1	0.00e+00	0	42	0	0	61	4431
2026-01-03 21:36:24.45	78.53	11.83	-44.8	-46.7	18.1	0.00e+00	0	42	0	0	61	4412
2026-01-03 21:36:25.60	78.75	11.83	-44.8	-46.7	18.0	0.00e+00	0	42	0	0	61	4438
2026-01-03 21:36:26.46	78.91	11.83	-44.9	-46.8	17.9	0.00e+00	0	42	0	0	61	4490
2026-01-03 21:36:27.60	79.13	11.84	-45.0	-47.0	17.9	0.00e+00	0	42	0	0	61	4562
2026-01-03 21:36:28.46	79.30	11.84	-45.0	-46.9	17.9	0.00e+00	0	42	0	0	61	4523
2026-01-03 21:36:29.61	79.51	11.84	-45.0	-47.0	17.9	0.00e+00	0	42	0	0	61	4562
2026-01-03 21:36:30.47	79.68	11.84	-45.1	-47.0	17.8	0.00e+00	0	42	0	0	61	4588
2026-01-03 21:36:31.61	79.90	11.84	-45.0	-46.9	17.9	0.00e+00	0	42	0	0	61	4544
2026-01-03 21:36:32.47	80.06	11.85	-45.0	-47.0	17.9	0.00e+00	0	42	0	0	61	4561
2026-01-03 21:36:33.61	80.28	11.85	-45.0	-46.9	17.9	0.00e+00	0	42	0	0	61	4543
2026-01-03 21:36:34.81	80.51	11.85	-44.9	-46.9	18.0	0.00e+00	0	42	0	0	61	4500
2026-01-03 21:36:35.84	80.70	11.85	-45.0	-46.9	17.9	0.00e+00	0	42	0	0	61	4531
2026-01-03 21:36:36.84	80.89	11.85	-45.0	-46.9	17.9	0.00e+00	0	42	0	0	61	4531
2026-01-03 21:36:37.84	81.08	11.85	-44.9	-46.8	18.0	0.00e+00	0	42	0	0	61	4486
2026-01-03 21:36:38.85	81.28	11.85	-44.9	-46.9	17.9	0.00e+00	0	42	0	0	61	4523
2026-01-03 21:36:39.85	81.47	11.84	-44.9	-46.9	18.0	0.00e+00	0	42	0	0	61	4494
2026-01-03 21:36:40.85	81.66	11.84	-45.0	-47.0	17.9	0.00e+00	0	42	0	0	61	4566
2026-01-03 21:36:41.85	81.85	11.84	-45.0	-47.0	17.8	0.00e+00	0	42	0	0	61	4562
2026-01-03 21:36:42.86	82.04	11.84	-45.0	-47.0	17.8	0.00e+00	0	42	0	0	61	4597
2026-01-03 21:36:43.86	82.23	11.84	-45.0	-47.1	17.8	0.00e+00	0	42	0	0	61	4599
2026-01-03 21:36:44.86	82.42	11.83	-45.1	-47.1	17.7	0.00e+00	0	42	0	0	61	4640
2026-01-03 21:36:45.87	82.62	11.83	-45.2	-47.2	17.6	0.00e+00	0	42	0	0	61	4705
2026-01-03 21:36:46.87	82.81	11.83	-45.2	-47.3	17.6	0.00e+00	0	42	0	0	61	4707
2026-01-03 21:36:47.87	83.00	11.83	-45.2	-47.2	17.6	0.00e+00	0	42	0	0	61	4674
2026-01-03 21:36:48.88	83.19	11.82	-45.2	-47.3	17.6	0.00e+00	0	42	0	0	61	4711
2026-01-03 21:36:49.88	83.38	11.82	-45.2	-47.2	17.7	0.00e+00	0	42	0	0	61	4688
2026-01-03 21:36:50.88	83.57	11.81	-45.1	-47.1	17.8	0.00e+00	0	42	0	0	61	4635
2026-01-03 21:36:51.89	83.76	11.81	-45.0	-47.0	17.8	0.00e+00	0	42	0	0	61	4598
2026-01-03 21:36:52.89	83.95	11.80	-44.9	-46.9	17.9	0.00e+00	0	42	0	0	61	4528
2026-01-03 21:36:53.89	84.14	11.80	-45.1	-47.2	17.7	0.00e+00	0	42	0	0	61	4662
2026-01-03 21:36:54.89	84.33	11.79	-45.0	-47.0	17.9	0.00e+00	0	42	0	0	61	4575
2026-01-03 21:36:55.89	84.52	11.79	-45.0	-47.0	17.8	0.00e+00	0	42	0	0	61	4585
2026-01-03 21:36:56.89	84.71	11.78	-45.1	-47.1	17.8	0.00e+00	0	42	0	0	61	4633
2026-01-03 21:36:57.90	84.91	11.78	-44.9	-46.9	17.9	0.00e+00	0	42	0	0	61	4511
2026-01-03 21:36:58.90	85.10	11.77	-44.8	-46.8	17.9	0.00e+00	0	42	0	0	61	4480
2026-01-03 21:36:59.95	85.29	11.76	-44.9	-46.9	17.9	0.00e+00	0	42	0	0	61	4504
2026-01-03 21:37:00.89	85.47	11.76	-44.9	-46.9	17.9	0.00e+00	0	42	0	0	61	4519
2026-01-03 21:37:01.89	85.66	11.75	-44.9	-46.9	17.9	0.00e+00	0	42	0	0	61	4507
2026-01-03 21:37:02.89	85.85	11.74	-45.0	-47.0	17.8	0.00e+00	0	42	0	0	61	4570
2026-01-03 21:37:03.90	86.04	11.73	-45.1	-47.2	17.8	0.00e+00	0	42	0	0	61	4654
2026-01-03 21:37:04.90	86.23	11.72	-45.2	-47.2	17.9	0.00e+00	0	42	0	0	61	4686
2026-01-03 21:37:05.90	86.42	11.72	-45.2	-47.2	17.8	0.00e+00	0	42	0	0	61	4673
2026-01-03 21:37:06.90	86.61	11.71	-45.1	-47.1	17.9	0.00e+00	0	42	0	0	61	4636
2026-01-03 21:37:07.91	86.80	11.70	-45.1	-47.0	18.0	0.00e+00	0	42	0	0	61	4590
2026-01-03 21:37:08.91	86.99	11.69	-45.0	-47.0	18.0	0.00e+00	0	42	0	0	61	4549
2026-01-03 21:37:09.91	87.18	11.68	-45.2	-47.2	17.9	0.00e+00	0	42	0	0	61	4669
2026-01-03 21:37:10.91	87.37	11.67	-45.3	-47.3	17.8	0.00e+00	0	42	0	0	61	4724
2026-01-03 21:37:11.92	87.56	11.66	-45.4	-47.4	17.6	0.00e+00	0	42	0	0	61	4807
2026-01-03 21:37:12.92	87.75	11.65	-45.2	-47.3	17.8	0.00e+00	0	42	0	0	61	4716
2026-01-03 21:37:13.92	87.94	11.64	-45.2	-47.2	17.8	0.00e+00	0	42	0	0	61	4688
2026-01-03 21:37:14.96	88.13	11.63	-45.2	-47.1	17.8	0.00e+00	0	42	0	0	61	4648
2026-01-03 21:37:15.95	88.32	11.62	-45.3	-47.3	17.7	0.00e+00	0	42	0	0	61	4752
2026-01-03 21:37:16.95	88.51	11.60	-45.3	-47.4	17.7	0.00e+00	0	42	0	0	61	4772
2026-01-03 21:37:17.95	88.69	11.59	-45.3	-47.3	17.7	0.00e+00	0	42	0	0	61	4728
2026-01-03 21:37:18.96	88.88	11.58	-45.4	-47.4	17.6	0.00e+00	0	42	0	0	61	4792
2026-01-03 21:37:19.96	89.07	11.57	-45.3	-47.3	17.7	0.00e+00	0	42	0	0	61	4718
2026-01-03 21:37:20.96	89.26	11.56	-45.3	-47.3	17.7	0.00e+00	0	42	0	0	61	4729
2026-01-03 21:37:21.97	89.45	11.54	-45.2	-47.2	17.7	0.00e+00	0	42	0	0	61	4697
2026-01-03 21:37:22.97	89.63	11.53	-45.2	-47.3	17.7	0.00e+00	0	42	0	0	61	4716
2026-01-03 21:37:23.97	89.82	11.52	-45.3	-47.4	17.5	0.00e+00	0	42	0	0	61	4793
2026-01-03 21:37:24.97	90.01	11.50	-45.4	-47.4	17.5	0.00e+00	0	42	0	0	61	4809
2026-01-03 21:37:25.97	90.20	11.49	-45.3	-47.4	17.5	0.00e+00	0	42	0	0	61	4761
2026-01-03 21:37:26.98	90.38	11.47	-45.2	-47.2	17.6	0.00e+00	0	42	0	0	61	4696
2026-01-03 21:37:27.98	90.57	11.46	-45.0	-47.0	17.8	0.00e+00	0	42	0	0	61	4582
2026-01-03 21:37:28.98	90.76	11.45	-45.1	-47.1	17.8	0.00e+00	0	42	0	0	61	4599
2026-01-03 21:37:29.98	90.94	11.43	-45.1	-47.1	17.7	0.00e+00	0	42	0	0	61	4643
2026-01-03 21:37:30.99	91.13	11.42	-45.2	-47.1	17.8	0.00e+00	0	42	0	0	61	4646
2026-01-03 21:37:31.99	91.31	11.40	-45.2	-47.1	17.8	0.00e+00	0	42	0	0	61	4648
2026-01-03 21:37:32.99	91.50	11.38	-45.1	-47.1	17.9	0.00e+00	0	42	0	0	61	4607
2026-01-03 21:37:34.00	91.69	11.37	-45.0	-47.0	17.9	0.00e+00	0	42	0	0	61	4561
2026-01-03 21:37:35.00	91.87	11.35	-45.2	-47.2	17.8	0.00e+00	0	42	0	0	61	4660
2026-01-03 21:37:36.00	92.06	11.34	-45.1	-47.1	17.8	0.00e+00	0	42	0	0	61	4639
2026-01-03 21:37:37.01	92.24	11.32	-45.3	-47.3	17.7	0.00e+00	0	42	0	0	61	4719
2026-01-03 21:37:38.01	92.43	11.30	-45.2	-47.2	17.7	0.00e+00	0	42	0	0	61	4696
2026-01-03 21:37:39.01	92.61	11.28	-45.2	-47.2	17.7	0.00e+00	0	42	0	0	61	4663
2026-01-03 21:37:40.01	92.80	11.27	-45.3	-47.3	17.6	0.00e+00	0	42	0	0	61	4720
2026-01-03 21:37:41.01	92.98	11.25	-45.2	-47.2	17.6	0.00e+00	0	42	0	0	61	4689
2026-01-03 21:37:42.02	93.16	11.23	-45.2	-47.2	17.7	0.00e+00	0	42	0	0	61	4669
2026-01-03 21:37:43.02	93.35	11.21	-45.2	-47.2	17.7	0.00e+00	0	42	0	0	61	4673
2026-01-03 21:37:44.02	93.53	11.19	-45.1	-47.1	17.7	0.00e+00	0	42	0	0	61	4623
2026-01-03 21:37:45.03	93.72	11.18	-45.2	-47.2	17.7	0.00e+00	0	42	0	0	61	4660
2026-01-03 21:37:46.03	93.90	11.16	-45.3	-47.3	17.7	0.00e+00	0	42	0	0	61	4744
2026-01-03 21:37:47.03	94.08	11.14	-45.2	-47.1	17.8	0.00e+00	0	42	0	0	61	4650
2026-01-03 21:37:48.03	94.26	11.12	-45.3	-47.3	17.8	0.00e+00	0	42	0	0	61	4709
2026-01-03 21:37:49.03	94.44	11.10	-45.3	-47.3	17.7	0.00e+00	0	42	0	0	61	4720
2026-01-03 21:37:50.04	94.63	11.08	-45.3	-47.3	17.7	0.00e+00	0	42	0	0	61	4733
2026-01-03 21:37:51.04	94.81	11.06	-45.3	-47.2	17.7	0.00e+00	0	42	0	0	61	4702
2026-01-03 21:37:52.04	94.99	11.04	-45.2	-47.2	17.8	0.00e+00	0	42	0	0	61	4661
2026-01-03 21:37:53.04	95.17	11.02	-45.2	-47.2	17.7	0.00e+00	0	42	0	0	61	4658
2026-01-03 21:37:54.05	95.35	10.99	-45.2	-47.2	17.7	0.00e+00	0	42	0	0	61	4674
2026-01-03 21:37:55.05	95.53	10.97	-45.2	-47.2	17.6	0.00e+00	0	42	0	0	61	4662
2026-01-03 21:37:56.05	95.71	10.95	-45.2	-47.2	17.5	0.00e+00	0	42	0	0	61	4696
2026-01-03 21:37:57.06	95.90	10.93	-45.3	-47.3	17.6	0.00e+00	0	42	0	0	61	4724
2026-01-03 21:37:58.06	96.08	10.91	-45.3	-47.3	17.6	0.00e+00	0	42	0	0	61	4747
2026-01-03 21:37:59.06	96.26	10.89	-45.4	-47.5	17.5	0.00e+00	0	42	0	0	61	4820
2026-01-03 21:38:00.06	96.43	10.86	-45.4	-47.4	17.5	0.00e+00	0	42	0	0	61	4789
2026-01-03 21:38:01.32	96.66	10.84	-45.3	-47.3	17.6	0.00e+00	0	42	0	0	61	4745
2026-01-03 21:38:02.14	96.81	10.82	-45.3	-47.3	17.6	0.00e+00	0	42	0	0	61	4743
2026-01-03 21:38:03.55	97.06	10.78	-45.3	-47.3	17.6	0.00e+00	0	42	0	0	61	4731
2026-01-03 21:38:04.26	97.18	10.77	-45.3	-47.3	17.5	0.00e+00	0	42	0	0	61	4753
2026-01-03 21:38:05.55	97.41	10.74	-45.3	-47.4	17.4	0.00e+00	0	42	0	0	61	4778
2026-01-03 21:38:06.27	97.54	10.72	-45.4	-47.5	17.4	0.00e+00	0	42	0	0	61	4830
2026-01-03 21:38:07.83	97.82	10.68	-45.2	-47.3	17.5	0.00e+00	0	42	0	0	61	4716
2026-01-03 21:38:08.54	97.94	10.67	-45.2	-47.3	17.5	0.00e+00	0	42	0	0	61	4709
2026-01-03 21:38:09.83	98.17	10.63	-45.4	-47.4	17.4	0.00e+00	0	42	0	0	61	4791
2026-01-03 21:38:10.55	98.30	10.62	-45.6	-47.6	17.2	0.00e+00	0	42	0	0	62	4636
2026-01-03 21:38:11.84	98.53	10.58	-45.3	-47.3	17.5	0.00e+00	0	42	0	0	62	4487
2026-01-03 21:38:12.55	98.65	10.57	-45.3	-47.3	17.5	0.00e+00	0	42	0	0	62	4482
2026-01-03 21:38:13.85	98.88	10.53	-45.5	-47.5	17.4	0.00e+00	0	42	0	0	62	4587
2026-01-03 21:38:14.56	99.00	10.52	-45.4	-47.4	17.5	0.00e+00	0	42	0	0	62	4520
2026-01-03 21:38:15.85	99.23	10.48	-45.3	-47.3	17.6	0.00e+00	0	42	0	0	62	4448
2026-01-03 21:38:16.57	99.35	10.46	-45.5	-47.5	17.4	0.00e+00	0	42	0	0	62	4561
2026-01-03 21:38:17.86	99.58	10.43	-45.6	-47.6	17.4	0.00e+00	0	42	0	0	62	4625
2026-01-03 21:38:18.70	99.72	10.41	-45.3	-47.3	17.6	0.00e+00	0	42	0	0	62	4471
2026-01-03 21:38:19.85	99.92	10.38	-45.2	-47.2	17.6	0.00e+00	0	42	0	0	62	4437
2026-01-03 21:38:20.71	100.07	10.35	-45.5	-47.5	17.4	0.00e+00	0	42	0	0	62	4566
2026-01-03 21:38:21.85	100.27	10.32	-45.4	-47.5	17.5	0.00e+00	0	42	0	0	62	4550
2026-01-03 21:38:22.71	100.42	10.30	-45.5	-47.6	17.3	0.00e+00	0	42	0	0	62	4614
2026-01-03 21:38:23.85	100.62	10.27	-45.4	-47.5	17.3	0.00e+00	0	42	0	0	62	4571
2026-01-03 21:38:24.71	100.76	10.24	-45.4	-47.5	17.3	0.00e+00	0	42	0	0	62	4558
2026-01-03 21:38:25.86	100.96	10.21	-45.5	-47.5	17.3	0.00e+00	0	42	0	0	62	4574
2026-01-03 21:38:26.72	101.11	10.19	-45.6	-47.7	17.2	0.00e+00	0	42	0	0	62	4667
2026-01-03 21:38:27.97	101.32	10.15	-45.4	-47.5	17.3	0.00e+00	0	42	0	0	62	4554
2026-01-03 21:38:28.82	101.47	10.13	-45.5	-47.5	17.4	0.00e+00	0	42	0	0	62	4573
2026-01-03 21:38:29.96	101.66	10.10	-45.6	-47.6	17.3	0.00e+00	0	42	0	0	62	4639
2026-01-03 21:38:30.82	101.81	10.07	-45.5	-47.6	17.3	0.00e+00	0	42	0	0	62	4615
2026-01-03 21:38:32.12	102.03	10.03	-45.5	-47.6	17.3	0.00e+00	0	42	0	0	62	4623
2026-01-03 21:38:32.83	102.15	10.01	-45.4	-47.4	17.3	0.00e+00	0	42	0	0	62	4541
2026-01-03 21:38:34.12	102.37	9.98	-45.4	-47.4	17.3	0.00e+00	0	42	0	0	62	4532
2026-01-03 21:38:34.84	102.49	9.95	-45.2	-47.3	17.4	0.00e+00	0	42	0	0	62	4458
2026-01-03 21:38:36.13	102.71	9.92	-45.4	-47.4	17.4	0.00e+00	0	41	0	0	62	4533
2026-01-03 21:38:36.85	102.83	9.89	-45.2	-47.2	17.5	0.00e+00	0	42	0	0	62	4430
2026-01-03 21:38:38.14	103.04	9.86	-45.2	-47.2	17.5	0.00e+00	0	42	0	0	62	4425
2026-01-03 21:38:38.85	103.16	9.83	-45.3	-47.3	17.4	0.00e+00	0	42	0	0	62	4490
2026-01-03 21:38:40.14	103.38	9.80	-45.2	-47.2	17.5	0.00e+00	0	42	0	0	62	4427
2026-01-03 21:38:40.86	103.50	9.77	-45.4	-47.4	17.3	0.00e+00	0	42	0	0	62	4531
2026-01-03 21:38:42.15	103.71	9.73	-45.5	-47.6	17.2	0.00e+00	0	42	0	0	62	4619
2026-01-03 21:38:42.87	103.83	9.71	-45.7	-47.8	17.0	0.00e+00	0	42	0	0	62	4715
2026-01-03 21:38:44.15	104.04	9.67	-45.8	-47.9	16.9	0.00e+00	0	42	0	0	62	4787
2026-01-03 21:38:44.87	104.16	9.65	-45.8	-47.9	17.0	0.00e+00	0	42	0	0	62	4779
2026-01-03 21:38:46.27	104.39	9.60	-45.7	-47.8	17.1	0.00e+00	0	42	0	0	62	4738
2026-01-03 21:38:46.99	104.51	9.58	-45.7	-47.8	17.2	1.50e-06	0	42	0	0	62	4706
2026-01-03 21:38:48.28	104.72	9.54	-45.7	-47.8	17.1	0.00e+00	0	42	0	0	62	4730
2026-01-03 21:38:49.00	104.84	9.52	-45.7	-47.8	17.0	0.00e+00	0	42	0	0	62	4744
2026-01-03 21:38:50.28	105.05	9.48	-45.9	-48.1	16.8	0.00e+00	0	42	0	0	62	4880
2026-01-03 21:38:51.00	105.17	9.45	-45.9	-48.0	16.9	0.00e+00	0	42	0	0	62	4856
2026-01-03 21:38:52.29	105.38	9.41	-45.8	-48.0	16.9	0.00e+00	0	42	0	0	62	4819
2026-01-03 21:38:53.00	105.50	9.39	-45.9	-48.0	16.9	0.00e+00	0	42	0	0	62	4842
2026-01-03 21:38:54.29	105.71	9.35	-45.7	-47.8	17.0	0.00e+00	0	42	0	0	62	4723
2026-01-03 21:38:55.07	105.83	9.32	-45.8	-47.9	16.9	0.00e+00	0	42	0	0	62	4813
2026-01-03 21:38:56.68	106.09	9.27	-45.7	-47.8	17.0	0.00e+00	0	42	0	0	62	4738
2026-01-03 21:38:57.25	106.18	9.25	-45.7	-47.8	17.0	0.00e+00	0	42	0	0	62	4746
2026-01-03 21:38:59.04	106.47	9.19	-45.9	-48.0	16.9	0.00e+00	0	42	0	0	62	4841
2026-01-03 21:38:59.61	106.56	9.17	-45.8	-48.0	16.9	0.00e+00	0	42	0	0	62	4816
2026-01-03 21:39:01.22	106.82	9.11	-45.8	-48.0	16.8	0.00e+00	0	41	0	0	62	4847
2026-01-03 21:39:01.79	106.91	9.10	-45.9	-48.0	16.7	0.00e+00	0	42	0	0	62	4863
2026-01-03 21:39:03.44	107.17	9.04	-45.9	-48.1	16.7	0.00e+00	0	42	0	0	62	4905
2026-01-03 21:39:04.01	107.26	9.02	-46.0	-48.2	16.6	0.00e+00	0	42	0	0	62	4954
2026-01-03 21:39:05.61	107.52	8.96	-53.3	-66.1	3.8	1.49e+00	0	42	104	0	77	16353
2026-01-03 21:39:06.18	107.61	8.94	-53.5	-66.5	3.8	1.49e+00	0	42	104	0	77	17162
2026-01-03 21:39:07.87	107.87	8.89	-53.7	-66.6	3.8	1.49e+00	0	42	104	0	78	16459
2026-01-03 21:39:08.44	107.96	8.87	-53.7	-66.6	3.8	1.49e+00	0	42	104	0	78	16441
2026-01-03 21:39:10.02	108.21	8.81	-53.4	-66.7	3.8	1.49e+00	0	42	104	0	78	16567
2026-01-03 21:39:10.60	108.30	8.79	-53.5	-66.7	3.8	1.49e+00	0	42	104	0	78	16690
2026-01-03 21:39:12.22	108.55	8.73	-53.5	-66.9	3.8	1.49e+00	0	42	104	0	78	17041
2026-01-03 21:39:13.06	108.68	8.70	-53.5	-66.9	3.8	1.49e+00	0	42	104	0	78	16943
2026-01-03 21:39:14.21	108.86	8.66	-53.6	-67.0	3.8	1.49e+00	0	42	104	0	78	17112
2026-01-03 21:39:15.42	109.05	8.62	-53.7	-66.9	3.8	1.49e+00	0	42	104	0	78	17066
2026-01-03 21:39:16.28	109.18	8.59	-53.6	-66.9	3.8	1.49e+00	0	42	104	0	78	17061
2026-01-03 21:39:17.43	109.36	8.55	-53.8	-66.9	3.8	1.49e+00	0	42	104	0	78	17083
2026-01-03 21:39:18.29	109.49	8.51	-53.7	-67.0	3.8	1.49e+00	0	42	104	0	78	17140
2026-01-03 21:39:19.44	109.67	8.47	-53.7	-66.9	3.8	1.49e+00	0	42	104	0	78	17075
2026-01-03 21:39:20.30	109.80	8.44	-53.7	-67.0	3.8	1.49e+00	0	42	104	0	78	17127
2026-01-03 21:39:21.45	109.97	8.40	-53.7	-67.0	3.8	1.49e+00	0	42	104	0	78	17125
2026-01-03 21:39:22.31	110.10	8.37	-53.6	-66.9	3.8	1.49e+00	0	42	104	0	78	17049
2026-01-03 21:39:23.55	110.29	8.32	-53.6	-67.0	3.8	1.49e+00	0	42	104	0	78	17139
2026-01-03 21:39:24.41	110.42	8.29	-53.6	-66.9	3.8	1.49e+00	0	42	104	0	78	17075
2026-01-03 21:39:25.62	110.60	8.25	-53.6	-66.9	3.8	1.49e+00	0	42	104	0	78	16950
2026-01-03 21:39:26.48	110.73	8.21	-53.6	-66.9	3.8	1.49e+00	0	42	104	0	78	16986
2026-01-03 21:39:27.72	110.92	8.17	-53.6	-66.8	3.8	1.49e+00	0	42	104	0	78	16866
2026-01-03 21:39:28.58	111.05	8.13	-53.6	-66.9	3.8	1.49e+00	0	42	104	0	78	16934
2026-01-03 21:39:29.72	111.22	8.09	-53.5	-66.8	3.8	1.49e+00	0	42	104	0	78	16763
2026-01-03 21:39:30.59	111.35	8.06	-53.5	-66.8	3.8	1.49e+00	0	42	104	0	78	16728
2026-01-03 21:39:31.73	111.52	8.02	-53.6	-66.9	3.8	1.49e+00	0	42	104	0	78	17034
2026-01-03 21:39:32.59	111.65	7.98	-53.5	-66.8	3.8	1.49e+00	0	42	104	0	78	16706
2026-01-03 21:39:33.74	111.82	7.94	-53.4	-66.7	3.8	1.49e+00	0	42	104	0	78	16674
2026-01-03 21:39:34.60	111.94	7.91	-53.5	-66.7	3.8	1.49e+00	0	42	104	0	78	16632
2026-01-03 21:39:35.75	112.11	7.86	-53.7	-67.0	3.8	1.49e+00	0	42	104	0	78	17177
2026-01-03 21:39:36.61	112.24	7.83	-53.6	-66.8	3.8	1.49e+00	0	42	104	0	77	17888
2026-01-03 21:39:37.76	112.41	7.79	-53.5	-66.8	3.8	1.49e+00	0	42	104	0	78	16714
2026-01-03 21:39:38.61	112.53	7.75	-53.4	-66.7	3.8	1.49e+00	0	42	104	0	78	16639
2026-01-03 21:39:39.76	112.70	7.71	-53.4	-66.8	3.8	1.49e+00	0	42	104	0	78	16715
2026-01-03 21:39:40.63	112.82	7.68	-53.6	-66.9	3.8	1.49e+00	0	42	104	0	78	16938
2026-01-03 21:39:41.77	112.99	7.63	-53.5	-66.7	3.8	1.49e+00	0	42	104	0	78	16611
2026-01-03 21:39:42.63	113.11	7.60	-53.6	-66.9	3.8	1.49e+00	0	42	104	0	78	16996
2026-01-03 21:39:43.78	113.28	7.55	-53.4	-66.7	3.8	1.49e+00	0	42	104	0	78	16582
2026-01-03 21:39:44.64	113.40	7.52	-53.5	-66.8	3.8	1.49e+00	0	42	104	0	78	16773
2026-01-03 21:39:45.79	113.57	7.47	-53.4	-66.7	3.8	1.49e+00	0	42	104	0	78	16631
2026-01-03 21:39:46.65	113.69	7.44	-53.4	-66.7	3.8	1.49e+00	0	42	104	0	78	16631
2026-01-03 21:39:47.80	113.85	7.39	-53.4	-66.7	3.8	1.49e+00	0	42	104	0	78	16596
2026-01-03 21:39:48.66	113.98	7.36	-53.4	-66.7	3.8	1.49e+00	0	42	104	0	78	16596
2026-01-03 21:39:49.81	114.14	7.32	-53.5	-66.7	3.8	1.49e+00	0	42	104	0	78	16612
2026-01-03 21:39:50.67	114.26	7.28	-53.4	-66.7	3.8	1.49e+00	0	42	104	0	78	16665
2026-01-03 21:39:51.82	114.42	7.24	-53.5	-66.7	3.8	1.49e+00	0	41	104	0	78	16650
2026-01-03 21:39:52.68	114.55	7.20	-53.6	-66.9	3.8	1.49e+00	0	42	104	0	78	16916
2026-01-03 21:39:53.83	114.71	7.16	-53.5	-66.7	3.8	1.49e+00	0	42	104	0	78	16638
2026-01-03 21:39:54.69	114.83	7.12	-53.5	-66.8	3.8	1.49e+00	0	42	104	0	78	16711
2026-01-03 21:39:55.84	114.99	7.08	-53.5	-66.8	3.8	1.49e+00	0	42	104	0	78	16868
2026-01-03 21:39:56.70	115.11	7.04	-53.5	-66.8	3.8	1.49e+00	0	42	104	0	78	16724
2026-01-03 21:39:57.84	115.27	6.99	-53.5	-66.8	3.8	1.49e+00	0	42	104	0	78	16726
2026-01-03 21:39:58.71	115.39	6.96	-53.5	-66.8	3.8	1.49e+00	0	42	104	0	78	16729
2026-01-03 21:39:59.85	115.54	6.91	-53.5	-66.8	3.8	1.49e+00	0	42	104	0	78	16794
2026-01-03 21:40:00.71	115.66	6.88	-53.5	-66.8	3.8	1.49e+00	0	42	104	0	78	16788
2026-01-03 21:40:01.86	115.82	6.83	-53.5	-66.8	3.8	1.49e+00	0	42	104	0	78	16816
2026-01-03 21:40:02.72	115.94	6.80	-53.5	-66.8	3.8	1.49e+00	0	42	104	0	78	16746
2026-01-03 21:40:03.87	116.10	6.75	-53.5	-66.8	3.8	1.49e+00	0	42	104	0	78	16756
2026-01-03 21:40:04.73	116.21	6.72	-53.5	-66.8	3.8	1.49e+00	0	42	104	0	78	16712
2026-01-03 21:40:05.88	116.37	6.67	-53.5	-66.8	3.8	1.49e+00	0	42	104	0	78	16716
2026-01-03 21:40:06.74	116.49	6.63	-53.5	-66.8	3.8	1.49e+00	0	42	104	0	78	16797
2026-01-03 21:40:07.89	116.64	6.59	-53.5	-66.8	3.8	1.49e+00	0	42	104	0	78	16717
2026-01-03 21:40:08.75	116.76	6.55	-53.5	-66.7	3.8	1.49e+00	0	42	104	0	78	16685
2026-01-03 21:40:09.90	116.91	6.50	-53.5	-66.8	3.8	1.49e+00	0	42	104	0	78	16695
2026-01-03 21:40:10.76	117.03	6.47	-53.4	-66.7	3.8	1.49e+00	0	42	104	0	78	16585
2026-01-03 21:40:11.91	117.18	6.42	-53.5	-66.8	3.8	1.49e+00	0	42	104	0	78	16782
2026-01-03 21:40:12.77	117.30	6.39	-53.4	-66.7	3.8	1.49e+00	0	41	104	0	78	16612
2026-01-03 21:40:13.92	117.45	6.34	-53.5	-66.8	3.8	1.49e+00	0	42	104	0	78	16808
2026-01-03 21:40:14.78	117.56	6.30	-53.5	-66.8	3.8	1.49e+00	0	42	104	0	78	16748
2026-01-03 21:40:15.92	117.71	6.25	-53.5	-66.7	3.8	1.49e+00	0	42	104	0	78	16671
2026-01-03 21:40:16.79	117.83	6.22	-53.5	-66.7	3.8	1.49e+00	0	42	104	0	78	16687
2026-01-03 21:40:17.93	117.98	6.17	-53.5	-66.7	3.8	1.49e+00	0	42	104	0	78	16630
2026-01-03 21:40:18.79	118.09	6.14	-53.4	-66.7	3.8	1.49e+00	0	42	104	0	78	16637
2026-01-03 21:40:19.94	118.24	6.09	-53.4	-66.7	3.8	1.49e+00	0	42	104	0	78	16577
2026-01-03 21:40:20.80	118.35	6.05	-53.5	-66.8	3.8	1.49e+00	0	42	104	0	78	16752
2026-01-03 21:40:21.95	118.50	6.00	-53.6	-66.9	3.8	1.49e+00	0	41	104	0	78	17037
2026-01-03 21:40:22.81	118.61	5.97	-53.6	-66.9	3.8	1.49e+00	0	42	104	0	78	16920
2026-01-03 21:40:23.96	118.76	5.92	-53.5	-66.8	3.8	1.49e+00	0	42	104	0	77	17692
2026-01-03 21:40:24.82	118.87	5.88	-53.6	-66.9	3.8	1.49e+00	0	42	104	0	78	16955
2026-01-03 21:40:25.96	119.02	5.83	-53.5	-66.7	3.8	1.49e+00	0	42	104	0	78	16634
2026-01-03 21:40:26.82	119.13	5.80	-53.5	-66.8	3.8	1.49e+00	0	42	104	0	78	16695
2026-01-03 21:40:27.97	119.28	5.75	-53.5	-66.8	3.8	1.49e+00	0	42	104	0	78	16758
2026-01-03 21:40:28.83	119.39	5.71	-53.6	-66.9	3.8	1.49e+00	0	42	104	0	78	16974
2026-01-03 21:40:29.98	119.53	5.67	-53.6	-66.9	3.8	1.49e+00	0	42	104	0	78	16961
2026-01-03 21:40:30.84	119.64	5.63	-53.6	-66.9	3.8	1.49e+00	0	42	104	0	78	16922
2026-01-03 21:40:31.99	119.79	5.58	-53.6	-66.8	3.8	1.49e+00	0	42	104	0	78	16876
2026-01-03 21:40:32.85	119.90	5.54	-53.5	-66.8	3.8	1.49e+00	0	42	104	0	78	16718
2026-01-03 21:40:34.00	120.04	5.49	-53.5	-66.8	3.8	1.49e+00	0	42	104	0	78	16823
2026-01-03 21:40:34.86	120.15	5.46	-53.6	-66.8	3.8	1.49e+00	0	42	104	0	78	16868
2026-01-03 21:40:36.01	120.29	5.41	-53.6	-66.8	3.8	1.49e+00	0	42	104	0	78	16827
2026-01-03 21:40:36.87	120.40	5.37	-53.4	-66.7	3.8	1.49e+00	0	42	104	0	78	16646
2026-01-03 21:40:38.01	120.54	5.32	-53.5	-66.8	3.8	1.49e+00	0	42	104	0	78	16766
2026-01-03 21:40:38.87	120.65	5.29	-53.5	-66.8	3.8	1.49e+00	0	42	104	0	78	16751
2026-01-03 21:40:40.02	120.79	5.24	-53.8	-67.0	3.8	1.49e+00	0	42	104	0	78	17257
2026-01-03 21:40:40.88	120.90	5.20	-53.8	-67.1	3.8	1.49e+00	0	42	104	0	78	17305
2026-01-03 21:40:42.03	121.04	5.15	-53.8	-67.1	3.8	1.49e+00	0	42	104	0	78	17353
2026-01-03 21:40:42.89	121.15	5.12	-53.7	-67.0	3.8	1.49e+00	0	42	104	0	78	17116
2026-01-03 21:40:44.03	121.28	5.07	-53.4	-66.7	3.8	1.49e+00	0	42	104	0	78	16635
2026-01-03 21:40:44.89	121.39	5.03	-53.7	-67.0	3.8	1.49e+00	0	42	104	0	78	17161
2026-01-03 21:40:46.04	121.53	4.98	-53.6	-66.8	3.8	1.49e+00	0	42	104	0	78	16856

#Closed at: 2026-01-03 21:40:46
#Recorded file [0 MB]: D:/Data/31040_260104_003224.dat