passes_logs/2026/01/03/T1/T1__20260103_092109_NOAA_21_JPSS-2_rec.log

#Pass ID: 20260103_092109_NOAA 21 (JPSS-2)
#Satellite: NOAA 21 (JPSS-2)
#Configuration: NOAA 21
#almurnet v.1.7.20251203
#Start time: 2026-01-03 09:21:09

#Version: 2.0.20230620
#Station: T1
#Location: 37.570604 lon 55.790049 lat
#TLE: 1 54234U 22150A   26002.88923379  .00000185  00000+0  10883-3 0  9993
#TLE: 2 54234  98.7486 303.9362 0001189 349.0578  11.0572 14.19531433163092

#Time	Az	El	Level	Level2	SNR	BER	BlckErr	Temp	State	Recorded	gain1	gain2
2026-01-03 09:21:09.00	142.37	4.98	-52.7	-65.8	3.8	1.49e+00	0	40	0	0	77	15787
2026-01-03 09:21:10.00	142.34	5.05	-52.7	-65.7	3.8	1.49e+00	0	41	104	0	77	15586
2026-01-03 09:21:11.01	142.31	5.12	-52.6	-65.6	3.8	1.49e+00	0	41	104	0	77	15440
2026-01-03 09:21:12.01	142.28	5.19	-52.6	-65.6	3.8	1.49e+00	0	41	104	0	77	15463
2026-01-03 09:21:13.01	142.25	5.27	-52.7	-65.5	3.8	1.49e+00	0	41	104	0	77	15361
2026-01-03 09:21:14.02	142.22	5.34	-52.8	-65.7	3.8	1.49e+00	0	41	104	0	77	15591
2026-01-03 09:21:15.02	142.19	5.41	-52.7	-65.5	3.8	1.49e+00	0	41	104	0	77	15343
2026-01-03 09:21:16.03	142.16	5.48	-52.6	-65.4	3.8	1.49e+00	0	41	104	0	77	15167
2026-01-03 09:21:17.03	142.13	5.55	-52.6	-65.3	3.8	1.49e+00	0	41	104	0	77	14985
2026-01-03 09:21:18.03	142.10	5.63	-52.6	-65.2	3.8	1.49e+00	0	41	104	0	77	14820
2026-01-03 09:21:19.04	142.06	5.70	-52.6	-65.1	3.8	1.49e+00	0	41	104	0	77	14591
2026-01-03 09:21:20.04	142.03	5.77	-52.6	-65.0	3.8	1.49e+00	0	41	104	0	77	14417
2026-01-03 09:21:21.05	142.00	5.84	-52.6	-64.7	3.8	1.49e+00	0	41	104	0	77	14035
2026-01-03 09:21:22.05	141.97	5.92	-52.5	-64.6	3.8	1.49e+00	0	41	104	0	77	13833
2026-01-03 09:21:23.05	141.94	5.99	-52.8	-64.8	3.8	1.49e+00	0	41	104	0	77	14057
2026-01-03 09:21:24.06	141.91	6.06	-52.7	-64.5	3.8	1.49e+00	0	41	104	0	77	13717
2026-01-03 09:21:25.06	141.88	6.14	-52.6	-64.4	3.8	1.49e+00	0	41	104	0	77	13500
2026-01-03 09:21:26.06	141.84	6.21	-52.5	-64.3	3.8	1.49e+00	0	41	104	0	76	14139
2026-01-03 09:21:27.07	141.81	6.29	-52.6	-64.6	3.8	1.49e+00	0	41	104	0	76	14578
2026-01-03 09:21:28.07	141.78	6.36	-52.6	-64.7	3.8	1.49e+00	0	41	104	0	76	14787
2026-01-03 09:21:29.07	141.75	6.43	-52.6	-64.9	3.8	1.49e+00	0	42	104	0	76	15125
2026-01-03 09:21:30.08	141.71	6.51	-52.6	-65.2	3.8	1.49e+00	0	41	104	0	76	15619
2026-01-03 09:21:31.08	141.68	6.58	-52.6	-65.5	3.8	1.49e+00	0	42	104	0	76	16137
2026-01-03 09:21:32.08	141.65	6.66	-52.6	-65.7	3.8	1.49e+00	0	42	104	0	76	16516
2026-01-03 09:21:33.09	141.62	6.73	-52.6	-65.6	3.8	1.49e+00	0	41	104	0	76	16458
2026-01-03 09:21:34.09	141.58	6.81	-52.6	-65.5	3.8	1.49e+00	0	41	104	0	76	16240
2026-01-03 09:21:35.10	141.55	6.88	-53.0	-65.6	3.8	1.49e+00	0	42	104	0	76	16338
2026-01-03 09:21:36.10	141.51	6.96	-52.7	-64.9	3.8	1.49e+00	0	42	104	0	76	15201
2026-01-03 09:21:37.10	141.48	7.04	-52.6	-64.4	3.8	1.49e+00	0	42	104	0	76	14256
2026-01-03 09:21:38.11	141.45	7.11	-52.5	-63.3	3.9	1.49e+00	0	42	104	0	76	12638
2026-01-03 09:21:39.11	141.41	7.19	-52.4	-63.0	3.9	1.47e+00	0	42	104	0	76	12178
2026-01-03 09:21:40.11	141.38	7.27	-52.2	-62.2	3.9	1.47e+00	0	42	104	0	76	11050
2026-01-03 09:21:41.12	141.34	7.34	-52.1	-60.5	4.9	1.15e+00	0	42	104	0	76	9084
2026-01-03 09:21:42.12	141.31	7.42	-51.7	-59.0	5.7	4.92e-01	0	42	0	0	75	8137
2026-01-03 09:21:43.12	141.27	7.50	-51.5	-57.8	6.8	2.20e-01	0	42	0	0	74	7487
2026-01-03 09:21:44.13	141.24	7.58	-50.9	-56.4	8.2	7.14e-02	0	42	0	0	73	6736
2026-01-03 09:21:45.13	141.20	7.65	-50.3	-54.9	9.6	2.32e-02	0	42	0	0	72	6056
2026-01-03 09:21:46.13	141.17	7.73	-49.7	-53.8	10.8	5.21e-03	0	42	0	0	71	5598
2026-01-03 09:21:47.14	141.13	7.81	-49.1	-52.7	11.9	6.69e-04	0	42	0	0	70	5274
2026-01-03 09:21:48.14	141.09	7.89	-48.5	-51.6	13.0	8.23e-05	0	42	0	0	69	4919
2026-01-03 09:21:49.14	141.06	7.97	-48.0	-50.9	13.8	1.14e-05	0	42	0	0	68	4781
2026-01-03 09:21:50.15	141.02	8.05	-47.4	-50.1	14.4	0.00e+00	0	42	0	0	66	4890
2026-01-03 09:21:51.15	140.98	8.13	-47.0	-49.7	14.8	0.00e+00	0	42	0	0	66	4661
2026-01-03 09:21:52.15	140.95	8.20	-46.8	-49.3	15.1	0.00e+00	0	42	0	0	65	4749
2026-01-03 09:21:53.15	140.91	8.28	-46.8	-49.3	15.1	0.00e+00	0	42	0	0	65	4744
2026-01-03 09:21:54.16	140.87	8.36	-46.9	-49.5	14.9	0.00e+00	0	42	0	0	65	4842
2026-01-03 09:21:55.16	140.83	8.44	-47.1	-49.7	14.7	1.50e-06	0	42	0	0	65	4951
2026-01-03 09:21:56.16	140.80	8.52	-47.5	-50.3	14.2	2.20e-06	0	42	0	0	65	5281
2026-01-03 09:21:57.17	140.76	8.61	-48.1	-51.1	13.4	5.30e-06	0	42	0	0	66	5500
2026-01-03 09:21:58.17	140.72	8.69	-49.1	-52.5	12.4	8.01e-05	0	42	0	0	68	5769
2026-01-03 09:21:59.18	140.68	8.77	-49.7	-53.6	11.1	8.04e-04	0	42	0	0	70	5833
2026-01-03 09:22:00.18	140.64	8.85	-50.4	-55.0	9.6	8.07e-03	0	42	0	0	71	6429
2026-01-03 09:22:01.18	140.60	8.93	-50.9	-56.5	8.0	5.20e-02	0	42	0	0	72	7235
2026-01-03 09:22:02.19	140.56	9.01	-51.6	-58.4	6.3	1.79e-01	0	42	0	0	73	8500
2026-01-03 09:22:03.19	140.52	9.10	-52.0	-60.2	5.0	5.74e-01	0	43	0	0	74	9848
2026-01-03 09:22:04.19	140.49	9.18	-48.1	-51.1	13.5	6.80e-06	0	42	0	0	67	5182
2026-01-03 09:22:05.20	140.45	9.26	-52.5	-62.3	4.2	1.41e+00	0	42	104	0	75	11954
2026-01-03 09:22:06.20	140.40	9.34	-52.1	-61.6	4.0	1.40e+00	0	42	104	0	75	10951
2026-01-03 09:22:07.20	140.36	9.43	-48.7	-52.0	12.8	1.06e-05	0	42	0	0	68	5446
2026-01-03 09:22:08.20	140.32	9.51	-52.5	-65.3	3.8	1.49e+00	0	42	104	0	75	16802
2026-01-03 09:22:09.21	140.28	9.59	-48.1	-51.1	13.6	6.32e-04	0	42	0	0	68	4877
2026-01-03 09:22:10.21	140.24	9.68	-46.1	-48.5	16.0	0.00e+00	0	42	0	0	64	4554
2026-01-03 09:22:11.21	140.20	9.76	-45.3	-47.4	17.2	0.00e+00	0	42	0	0	62	4528
2026-01-03 09:22:12.22	140.16	9.85	-45.0	-47.0	17.6	0.00e+00	0	43	0	0	62	4330
2026-01-03 09:22:13.22	140.12	9.93	-44.9	-46.9	17.7	0.00e+00	0	43	0	0	61	4532
2026-01-03 09:22:14.22	140.07	10.02	-45.3	-47.2	17.7	0.00e+00	0	42	0	0	61	4703
2026-01-03 09:22:15.22	140.03	10.10	-45.1	-47.1	17.8	0.00e+00	0	42	0	0	61	4619
2026-01-03 09:22:16.23	139.99	10.19	-44.9	-46.9	17.9	0.00e+00	0	43	0	0	61	4504
2026-01-03 09:22:17.23	139.95	10.27	-44.7	-46.6	18.1	0.00e+00	0	43	0	0	61	4367
2026-01-03 09:22:18.23	139.90	10.36	-44.6	-46.5	18.1	0.00e+00	0	43	0	0	61	4336
2026-01-03 09:22:19.23	139.86	10.45	-44.5	-46.5	18.2	0.00e+00	0	43	0	0	61	4293
2026-01-03 09:22:20.23	139.82	10.53	-44.6	-46.5	18.2	0.00e+00	0	43	0	0	61	4317
2026-01-03 09:22:21.24	139.77	10.62	-44.6	-46.5	18.2	0.00e+00	0	43	0	0	61	4330
2026-01-03 09:22:22.24	139.73	10.71	-44.4	-46.3	18.4	0.00e+00	0	43	0	0	60	4451
2026-01-03 09:22:23.24	139.68	10.80	-44.3	-46.2	18.5	0.00e+00	0	43	0	0	60	4398
2026-01-03 09:22:24.25	139.64	10.88	-44.2	-46.1	18.6	0.00e+00	0	43	0	0	60	4355
2026-01-03 09:22:25.25	139.59	10.97	-44.2	-46.1	18.5	0.00e+00	0	43	0	0	60	4365
2026-01-03 09:22:26.25	139.55	11.06	-44.2	-46.1	18.6	0.00e+00	0	43	0	0	60	4344
2026-01-03 09:22:27.26	139.50	11.15	-44.3	-46.2	18.5	0.00e+00	0	43	0	0	60	4417
2026-01-03 09:22:28.26	139.46	11.24	-44.1	-46.0	18.6	0.00e+00	0	43	0	0	60	4296
2026-01-03 09:22:29.26	139.41	11.33	-44.3	-46.1	18.7	0.00e+00	0	43	0	0	60	4382
2026-01-03 09:22:30.26	139.36	11.42	-44.3	-46.1	18.7	0.00e+00	0	43	0	0	60	4369
2026-01-03 09:22:31.26	139.32	11.51	-44.2	-46.1	18.7	0.00e+00	0	43	0	0	60	4355
2026-01-03 09:22:32.27	139.27	11.60	-44.1	-45.9	18.8	0.00e+00	0	43	0	0	60	4266
2026-01-03 09:22:33.27	139.22	11.69	-44.1	-45.9	18.8	0.00e+00	0	43	0	0	60	4267
2026-01-03 09:22:34.27	139.17	11.78	-44.0	-45.8	18.8	0.00e+00	0	43	0	0	59	4447
2026-01-03 09:22:35.28	139.12	11.87	-43.9	-45.7	18.9	0.00e+00	0	43	0	0	59	4394
2026-01-03 09:22:36.28	139.08	11.96	-43.9	-45.7	18.8	0.00e+00	0	43	0	0	59	4398
2026-01-03 09:22:37.28	139.03	12.06	-44.0	-45.8	18.7	0.00e+00	0	43	0	0	59	4490
2026-01-03 09:22:38.28	138.98	12.15	-43.9	-45.7	18.8	0.00e+00	0	43	0	0	59	4400
2026-01-03 09:22:39.29	138.93	12.24	-43.7	-45.5	19.1	0.00e+00	0	43	0	0	59	4302
2026-01-03 09:22:40.29	138.88	12.33	-43.7	-45.5	19.0	0.00e+00	0	43	0	0	59	4312
2026-01-03 09:22:41.29	138.83	12.43	-43.8	-45.6	19.0	0.00e+00	0	43	0	0	59	4348
2026-01-03 09:22:42.30	138.78	12.52	-44.1	-45.8	18.9	0.00e+00	0	43	0	0	59	4493
2026-01-03 09:22:43.30	138.73	12.62	-44.0	-45.8	18.9	0.00e+00	0	43	0	0	59	4443
2026-01-03 09:22:44.30	138.68	12.71	-43.9	-45.6	19.0	0.00e+00	0	43	0	0	59	4381
2026-01-03 09:22:45.31	138.62	12.80	-43.7	-45.5	19.1	0.00e+00	0	43	0	0	59	4306
2026-01-03 09:22:46.31	138.57	12.90	-43.7	-45.4	19.1	0.00e+00	0	43	0	0	59	4278
2026-01-03 09:22:47.31	138.52	12.99	-43.7	-45.4	19.1	0.00e+00	0	43	0	0	59	4280
2026-01-03 09:22:48.31	138.47	13.09	-43.8	-45.5	19.0	0.00e+00	0	43	0	0	59	4328
2026-01-03 09:22:49.32	138.41	13.19	-43.7	-45.4	19.1	0.00e+00	0	43	0	0	59	4290
2026-01-03 09:22:50.32	138.36	13.28	-43.7	-45.5	19.0	0.00e+00	0	43	0	0	59	4316
2026-01-03 09:22:51.32	138.31	13.38	-43.7	-45.5	19.0	0.00e+00	0	43	0	0	59	4319
2026-01-03 09:22:52.32	138.25	13.48	-43.7	-45.5	18.9	0.00e+00	0	43	0	0	59	4333
2026-01-03 09:22:53.32	138.20	13.57	-43.6	-45.4	19.1	0.00e+00	0	43	0	0	59	4260
2026-01-03 09:22:54.33	138.14	13.67	-43.6	-45.3	19.1	3.00e-06	0	43	0	0	59	4228
2026-01-03 09:22:55.33	138.09	13.77	-43.6	-45.4	19.1	0.00e+00	0	43	0	0	59	4247
2026-01-03 09:22:56.33	138.03	13.87	-43.6	-45.4	19.1	0.00e+00	0	43	0	0	59	4248
2026-01-03 09:22:57.34	137.98	13.97	-43.7	-45.4	19.1	0.00e+00	0	43	0	0	59	4288
2026-01-03 09:22:58.34	137.92	14.07	-44.0	-45.8	19.0	0.00e+00	0	43	0	0	59	4455
2026-01-03 09:22:59.34	137.87	14.17	-43.9	-45.7	19.1	0.00e+00	0	43	0	0	59	4411
2026-01-03 09:23:00.35	137.81	14.27	-43.8	-45.6	19.1	0.00e+00	0	43	0	0	59	4357
2026-01-03 09:23:01.35	137.75	14.37	-43.9	-45.7	19.0	0.00e+00	0	43	0	0	59	4413
2026-01-03 09:23:02.35	137.69	14.47	-43.9	-45.7	19.0	0.00e+00	0	43	0	0	59	4397
2026-01-03 09:23:03.35	137.63	14.57	-43.8	-45.5	19.1	0.00e+00	0	43	0	0	59	4338
2026-01-03 09:23:04.35	137.58	14.67	-43.8	-45.6	19.1	0.00e+00	0	43	0	0	59	4354
2026-01-03 09:23:05.36	137.52	14.77	-43.8	-45.5	19.1	0.00e+00	0	43	0	0	59	4339
2026-01-03 09:23:06.36	137.46	14.88	-43.8	-45.6	19.1	0.00e+00	0	43	0	0	59	4342
2026-01-03 09:23:07.36	137.40	14.98	-43.7	-45.5	19.1	0.00e+00	0	43	0	0	59	4314
2026-01-03 09:23:08.37	137.34	15.08	-43.7	-45.4	19.2	0.00e+00	0	43	0	0	59	4291
2026-01-03 09:23:09.37	137.28	15.19	-43.6	-45.4	19.2	0.00e+00	0	43	0	0	59	4256
2026-01-03 09:23:10.37	137.21	15.29	-43.7	-45.5	19.1	0.00e+00	0	43	0	0	59	4309
2026-01-03 09:23:11.38	137.15	15.40	-43.7	-45.5	19.1	0.00e+00	0	43	0	0	59	4331
2026-01-03 09:23:12.38	137.09	15.50	-43.6	-45.3	19.2	0.00e+00	0	43	0	0	59	4227
2026-01-03 09:23:13.38	137.03	15.61	-43.6	-45.4	19.2	0.00e+00	0	43	0	0	59	4245
2026-01-03 09:23:14.38	136.96	15.71	-43.9	-45.7	19.1	0.00e+00	0	43	0	0	59	4420
2026-01-03 09:23:15.38	136.90	15.82	-44.0	-45.8	19.0	0.00e+00	0	43	0	0	59	4473
2026-01-03 09:23:16.38	136.84	15.92	-43.9	-45.6	19.1	0.00e+00	0	43	0	0	59	4390
2026-01-03 09:23:17.39	136.77	16.03	-43.7	-45.5	19.2	0.00e+00	0	43	0	0	59	4309
2026-01-03 09:23:18.39	136.71	16.14	-43.6	-45.3	19.3	0.00e+00	0	43	0	0	59	4242
2026-01-03 09:23:19.39	136.64	16.25	-43.7	-45.4	19.2	0.00e+00	0	43	0	0	59	4281
2026-01-03 09:23:20.40	136.58	16.36	-43.7	-45.5	19.2	0.00e+00	0	43	0	0	59	4293
2026-01-03 09:23:21.40	136.51	16.46	-43.6	-45.4	19.2	0.00e+00	0	43	0	0	59	4265
2026-01-03 09:23:22.40	136.44	16.57	-44.0	-45.7	19.1	0.00e+00	0	43	0	0	59	4435
2026-01-03 09:23:23.40	136.37	16.68	-44.0	-45.8	18.9	0.00e+00	0	43	0	0	59	4452
2026-01-03 09:23:24.41	136.31	16.79	-43.9	-45.7	19.0	0.00e+00	0	43	0	0	59	4393
2026-01-03 09:23:25.41	136.24	16.90	-44.0	-45.8	18.9	0.00e+00	0	43	0	0	59	4458
2026-01-03 09:23:26.41	136.17	17.02	-43.8	-45.6	19.1	0.00e+00	0	43	0	0	59	4347
2026-01-03 09:23:27.41	136.10	17.13	-43.9	-45.6	19.0	0.00e+00	0	43	0	0	59	4388
2026-01-03 09:23:28.42	136.03	17.24	-43.9	-45.7	19.0	0.00e+00	0	43	0	0	59	4399
2026-01-03 09:23:29.42	135.96	17.35	-43.9	-45.7	18.9	0.00e+00	0	43	0	0	59	4416
2026-01-03 09:23:30.42	135.89	17.46	-44.0	-45.8	18.8	0.00e+00	0	43	0	0	59	4474
2026-01-03 09:23:31.43	135.82	17.58	-44.1	-45.9	18.8	0.00e+00	0	43	0	0	59	4511
2026-01-03 09:23:32.43	135.74	17.69	-44.1	-45.9	18.7	0.00e+00	0	43	0	0	59	4523
2026-01-03 09:23:33.43	135.67	17.81	-44.0	-45.8	18.8	0.00e+00	0	43	0	0	59	4475
2026-01-03 09:23:34.43	135.60	17.92	-44.0	-45.8	18.8	0.00e+00	0	43	0	0	59	4472
2026-01-03 09:23:35.44	135.52	18.04	-44.0	-45.8	18.8	0.00e+00	0	43	0	0	59	4473
2026-01-03 09:23:36.44	135.45	18.15	-44.1	-45.9	18.8	0.00e+00	0	43	0	0	59	4510
2026-01-03 09:23:37.44	135.37	18.27	-44.1	-45.9	18.7	0.00e+00	0	43	0	0	59	4535
2026-01-03 09:23:38.45	135.30	18.39	-44.6	-46.4	18.7	0.00e+00	0	43	0	0	59	4804
2026-01-03 09:23:39.45	135.22	18.50	-44.3	-46.2	18.7	0.00e+00	0	43	0	0	59	4670
2026-01-03 09:23:40.45	135.14	18.62	-44.4	-46.3	18.5	0.00e+00	0	43	0	0	59	4712
2026-01-03 09:23:41.46	135.07	18.74	-44.1	-46.0	18.8	0.00e+00	0	43	0	0	59	4548
2026-01-03 09:23:42.46	134.99	18.86	-44.1	-45.9	18.8	0.00e+00	0	43	0	0	59	4512
2026-01-03 09:23:43.46	134.91	18.98	-44.1	-45.9	18.8	0.00e+00	0	43	0	0	59	4525
2026-01-03 09:23:44.47	134.83	19.10	-44.1	-45.9	18.8	0.00e+00	0	43	0	0	59	4539
2026-01-03 09:23:45.47	134.75	19.22	-44.2	-46.0	18.9	0.00e+00	0	43	0	0	59	4579
2026-01-03 09:23:46.47	134.67	19.34	-44.1	-45.9	18.9	0.00e+00	0	43	0	0	59	4535
2026-01-03 09:23:47.47	134.59	19.46	-44.1	-45.9	18.9	0.00e+00	0	43	0	0	59	4515
2026-01-03 09:23:48.48	134.50	19.58	-43.9	-45.7	19.0	0.00e+00	0	43	0	0	59	4417
2026-01-03 09:23:49.48	134.42	19.71	-43.8	-45.5	19.1	0.00e+00	0	43	0	0	59	4331
2026-01-03 09:23:50.48	134.34	19.83	-43.7	-45.5	19.2	0.00e+00	0	43	0	0	59	4311
2026-01-03 09:23:51.48	134.25	19.95	-43.8	-45.6	19.1	0.00e+00	0	43	0	0	59	4345
2026-01-03 09:23:52.49	134.17	20.08	-43.6	-45.3	19.3	0.00e+00	0	43	0	0	59	4224
2026-01-03 09:23:53.49	134.08	20.20	-43.5	-45.3	19.4	0.00e+00	0	43	0	0	59	4194
2026-01-03 09:23:54.50	134.00	20.33	-43.7	-45.5	19.2	0.00e+00	0	43	0	0	59	4305
2026-01-03 09:23:55.50	133.91	20.45	-43.4	-45.2	19.5	0.00e+00	0	43	0	0	58	4407
2026-01-03 09:23:56.50	133.82	20.58	-43.4	-45.2	19.4	0.00e+00	0	43	0	0	58	4411
2026-01-03 09:23:57.51	133.73	20.71	-43.4	-45.1	19.5	0.00e+00	0	43	0	0	58	4371
2026-01-03 09:23:58.51	133.64	20.84	-43.4	-45.1	19.5	0.00e+00	0	43	0	0	58	4364
2026-01-03 09:23:59.51	133.55	20.96	-43.3	-45.0	19.6	0.00e+00	0	43	0	0	58	4315
2026-01-03 09:24:00.51	133.46	21.09	-43.1	-44.8	19.8	0.00e+00	0	43	0	0	58	4224
2026-01-03 09:24:01.51	133.37	21.22	-42.9	-44.6	20.0	0.00e+00	0	43	0	0	57	4382
2026-01-03 09:24:02.52	133.28	21.35	-42.8	-44.5	20.0	0.00e+00	0	43	0	0	57	4334
2026-01-03 09:24:03.52	133.18	21.48	-42.8	-44.5	20.1	0.00e+00	0	43	0	0	57	4301
2026-01-03 09:24:04.52	133.09	21.61	-42.7	-44.4	20.2	0.00e+00	0	43	0	0	57	4267
2026-01-03 09:24:05.53	132.99	21.75	-42.9	-44.6	20.2	0.00e+00	0	43	0	0	57	4363
2026-01-03 09:24:06.53	132.90	21.88	-42.9	-44.6	20.2	0.00e+00	0	43	0	0	57	4345
2026-01-03 09:24:07.53	132.80	22.01	-42.8	-44.5	20.3	0.00e+00	0	43	0	0	57	4298
2026-01-03 09:24:08.53	132.71	22.14	-42.7	-44.3	20.4	0.00e+00	0	43	0	0	57	4217
2026-01-03 09:24:09.54	132.61	22.28	-42.6	-44.2	20.4	0.00e+00	0	43	0	0	57	4183
2026-01-03 09:24:10.54	132.51	22.41	-42.5	-44.1	20.5	0.00e+00	0	43	0	0	56	4383
2026-01-03 09:24:11.54	132.41	22.55	-42.5	-44.1	20.5	0.00e+00	0	43	0	0	56	4369
2026-01-03 09:24:12.55	132.31	22.68	-42.4	-44.1	20.5	0.00e+00	0	43	0	0	56	4362
2026-01-03 09:24:13.55	132.20	22.82	-42.5	-44.1	20.4	0.00e+00	0	43	0	0	56	4367
2026-01-03 09:24:14.55	132.10	22.96	-42.5	-44.2	20.4	0.00e+00	0	43	0	0	56	4401
2026-01-03 09:24:15.56	132.00	23.10	-42.6	-44.2	20.3	0.00e+00	0	43	0	0	56	4424
2026-01-03 09:24:16.56	131.89	23.23	-42.7	-44.4	20.2	0.00e+00	0	43	0	0	56	4501
2026-01-03 09:24:17.56	131.79	23.37	-42.6	-44.3	20.3	0.00e+00	0	43	0	0	56	4446
2026-01-03 09:24:18.56	131.68	23.51	-42.6	-44.3	20.3	0.00e+00	0	43	0	0	56	4458
2026-01-03 09:24:19.57	131.57	23.65	-42.7	-44.4	20.2	0.00e+00	0	43	0	0	56	4496
2026-01-03 09:24:20.57	131.47	23.79	-42.7	-44.4	20.3	0.00e+00	0	43	0	0	56	4498
2026-01-03 09:24:21.57	131.36	23.94	-43.0	-44.6	20.2	0.00e+00	0	43	0	0	56	4649
2026-01-03 09:24:22.58	131.24	24.08	-42.9	-44.6	20.2	0.00e+00	0	43	0	0	56	4619
2026-01-03 09:24:23.58	131.13	24.22	-42.9	-44.6	20.2	0.00e+00	0	43	0	0	56	4640
2026-01-03 09:24:24.58	131.02	24.37	-42.9	-44.6	20.1	0.00e+00	0	43	0	0	56	4628
2026-01-03 09:24:25.58	130.91	24.51	-42.8	-44.5	20.2	0.00e+00	0	43	0	0	56	4570
2026-01-03 09:24:26.58	130.79	24.65	-42.9	-44.5	20.2	0.00e+00	0	43	0	0	56	4595
2026-01-03 09:24:27.59	130.68	24.80	-42.8	-44.5	20.2	0.00e+00	0	43	0	0	56	4549
2026-01-03 09:24:28.59	130.56	24.95	-42.9	-44.6	20.1	0.00e+00	0	43	0	0	56	4623
2026-01-03 09:24:29.59	130.44	25.09	-42.9	-44.6	20.1	0.00e+00	0	43	0	0	56	4617
2026-01-03 09:24:30.59	130.32	25.24	-43.0	-44.7	20.0	0.00e+00	0	43	0	0	56	4654
2026-01-03 09:24:31.59	130.20	25.39	-43.0	-44.7	20.0	0.00e+00	0	43	0	0	56	4664
2026-01-03 09:24:32.60	130.08	25.54	-43.1	-44.8	19.8	0.00e+00	0	43	0	0	56	4718
2026-01-03 09:24:33.60	129.96	25.69	-43.1	-44.9	19.8	0.00e+00	0	43	0	0	56	4761
2026-01-03 09:24:34.60	129.84	25.84	-43.3	-45.0	19.7	0.00e+00	0	43	0	0	57	4556
2026-01-03 09:24:35.60	129.71	25.99	-43.3	-45.0	19.6	0.00e+00	0	43	0	0	57	4580
2026-01-03 09:24:36.61	129.58	26.14	-43.3	-45.0	19.6	0.00e+00	0	43	0	0	57	4587
2026-01-03 09:24:37.61	129.46	26.30	-43.7	-45.4	19.5	0.00e+00	0	43	0	0	58	4540
2026-01-03 09:24:38.62	129.33	26.45	-43.7	-45.4	19.4	0.00e+00	0	43	0	0	58	4536
2026-01-03 09:24:39.62	129.20	26.60	-43.6	-45.4	19.4	0.00e+00	0	43	0	0	58	4517
2026-01-03 09:24:40.62	129.07	26.76	-43.7	-45.5	19.4	0.00e+00	0	43	0	0	58	4558
2026-01-03 09:24:41.62	128.93	26.91	-43.7	-45.4	19.4	0.00e+00	0	43	0	0	58	4535
2026-01-03 09:24:42.63	128.80	27.07	-43.8	-45.6	19.3	0.00e+00	0	43	0	0	58	4626
2026-01-03 09:24:43.63	128.66	27.23	-43.7	-45.4	19.4	0.00e+00	0	43	0	0	58	4533
2026-01-03 09:24:44.63	128.53	27.38	-43.7	-45.5	19.4	0.00e+00	0	43	0	0	58	4546
2026-01-03 09:24:45.63	128.39	27.54	-43.8	-45.6	19.3	0.00e+00	0	43	0	0	58	4600
2026-01-03 09:24:46.63	128.25	27.70	-43.6	-45.4	19.4	0.00e+00	0	43	0	0	58	4494
2026-01-03 09:24:47.64	128.11	27.86	-43.6	-45.3	19.4	0.00e+00	0	43	0	0	58	4477
2026-01-03 09:24:48.64	127.97	28.02	-43.6	-45.3	19.3	0.00e+00	0	43	0	0	58	4478
2026-01-03 09:24:49.64	127.82	28.18	-43.5	-45.3	19.4	0.00e+00	0	43	0	0	58	4454
2026-01-03 09:24:50.65	127.68	28.35	-43.7	-45.5	19.2	0.00e+00	0	43	0	0	58	4563
2026-01-03 09:24:51.65	127.53	28.51	-43.6	-45.3	19.3	0.00e+00	0	43	0	0	58	4492
2026-01-03 09:24:52.65	127.38	28.67	-43.7	-45.5	19.1	0.00e+00	0	43	0	0	58	4570
2026-01-03 09:24:53.65	127.23	28.84	-43.8	-45.6	19.1	0.00e+00	0	43	0	0	58	4616
2026-01-03 09:24:54.66	127.08	29.00	-44.1	-45.9	19.1	0.00e+00	0	43	0	0	59	4534
2026-01-03 09:24:55.66	126.93	29.17	-44.1	-45.9	19.0	0.00e+00	0	43	0	0	59	4530
2026-01-03 09:24:56.66	126.77	29.33	-43.9	-45.7	19.2	0.00e+00	0	43	0	0	59	4428
2026-01-03 09:24:57.66	126.62	29.50	-43.9	-45.7	19.2	0.00e+00	0	43	0	0	59	4407
2026-01-03 09:24:58.66	126.46	29.67	-44.1	-45.9	19.1	0.00e+00	0	43	0	0	59	4494
2026-01-03 09:24:59.67	126.30	29.84	-43.7	-45.4	19.4	0.00e+00	0	43	0	0	59	4272
2026-01-03 09:25:00.67	126.14	30.01	-43.5	-45.2	19.5	0.00e+00	0	43	0	0	59	4192
2026-01-03 09:25:01.67	125.98	30.18	-43.3	-45.0	19.7	0.00e+00	0	43	0	0	58	4327
2026-01-03 09:25:02.67	125.81	30.35	-43.3	-45.0	19.7	0.00e+00	0	43	0	0	58	4319
2026-01-03 09:25:03.68	125.64	30.52	-43.5	-45.2	19.6	0.00e+00	0	43	0	0	58	4397
2026-01-03 09:25:04.68	125.48	30.69	-43.4	-45.1	19.5	0.00e+00	0	43	0	0	58	4356
2026-01-03 09:25:05.68	125.31	30.86	-43.5	-45.3	19.4	0.00e+00	0	43	0	0	58	4451
2026-01-03 09:25:06.69	125.13	31.04	-43.5	-45.2	19.3	0.00e+00	0	43	0	0	58	4439
2026-01-03 09:25:07.69	124.96	31.21	-43.6	-45.4	19.2	0.00e+00	0	43	0	0	58	4505
2026-01-03 09:25:08.69	124.79	31.39	-43.8	-45.6	19.1	0.00e+00	0	43	0	0	58	4614
2026-01-03 09:25:09.70	124.61	31.57	-43.9	-45.6	19.1	0.00e+00	0	43	0	0	58	4649
2026-01-03 09:25:10.70	124.43	31.74	-43.8	-45.6	19.2	0.00e+00	0	43	0	0	58	4634
2026-01-03 09:25:11.70	124.25	31.92	-43.8	-45.6	19.2	0.00e+00	0	43	0	0	58	4632
2026-01-03 09:25:12.70	124.06	32.10	-43.8	-45.6	19.3	0.00e+00	0	43	0	0	58	4614
2026-01-03 09:25:13.70	123.88	32.28	-43.7	-45.4	19.4	0.00e+00	0	43	0	0	58	4537
2026-01-03 09:25:14.71	123.69	32.46	-43.3	-45.0	19.8	0.00e+00	0	43	0	0	58	4331
2026-01-03 09:25:15.71	123.50	32.64	-43.3	-45.0	19.7	0.00e+00	0	43	0	0	58	4336
2026-01-03 09:25:16.71	123.31	32.82	-43.4	-45.1	19.7	0.00e+00	0	43	0	0	58	4352
2026-01-03 09:25:17.72	123.11	33.00	-43.4	-45.1	19.7	0.00e+00	0	43	0	0	58	4357
2026-01-03 09:25:18.72	122.92	33.18	-43.6	-45.3	19.6	0.00e+00	0	43	0	0	58	4492
2026-01-03 09:25:19.72	122.72	33.37	-43.8	-45.5	19.4	0.00e+00	0	43	0	0	58	4565
2026-01-03 09:25:20.72	122.52	33.55	-43.8	-45.5	19.3	0.00e+00	0	43	0	0	58	4573
2026-01-03 09:25:21.73	122.31	33.74	-44.0	-45.8	19.1	0.00e+00	0	43	0	0	58	4713
2026-01-03 09:25:22.73	122.11	33.92	-44.2	-46.0	19.0	0.00e+00	0	43	0	0	58	4827
2026-01-03 09:25:23.73	121.90	34.11	-44.4	-46.2	18.8	0.00e+00	0	43	0	0	59	4683
2026-01-03 09:25:24.74	121.69	34.30	-44.4	-46.2	18.7	0.00e+00	0	43	0	0	59	4705
2026-01-03 09:25:25.74	121.47	34.48	-44.5	-46.3	18.6	0.00e+00	0	43	0	0	59	4742
2026-01-03 09:25:26.74	121.26	34.67	-44.6	-46.5	18.5	0.00e+00	0	43	0	0	59	4816
2026-01-03 09:25:27.75	121.04	34.86	-44.5	-46.4	18.5	0.00e+00	0	43	0	0	59	4771
2026-01-03 09:25:28.75	120.82	35.05	-44.6	-46.5	18.3	0.00e+00	0	43	0	0	59	4827
2026-01-03 09:25:29.75	120.60	35.24	-44.6	-46.5	18.3	0.00e+00	0	43	0	0	59	4846
2026-01-03 09:25:30.75	120.37	35.43	-44.8	-46.6	18.3	0.00e+00	0	43	0	0	60	4650
2026-01-03 09:25:31.76	120.14	35.62	-45.2	-47.1	18.3	0.00e+00	0	43	0	0	61	4611
2026-01-03 09:25:32.76	119.91	35.82	-45.2	-47.1	18.1	0.00e+00	0	43	0	0	61	4646
2026-01-03 09:25:33.76	119.68	36.01	-45.2	-47.1	18.0	0.00e+00	0	43	0	0	61	4605
2026-01-03 09:25:34.76	119.44	36.20	-45.2	-47.2	18.0	0.00e+00	0	43	0	0	61	4656
2026-01-03 09:25:35.77	119.20	36.40	-45.2	-47.1	18.1	0.00e+00	0	43	0	0	61	4633
2026-01-03 09:25:36.77	118.96	36.59	-45.4	-47.3	17.9	0.00e+00	0	43	0	0	61	4747
2026-01-03 09:25:37.77	118.71	36.78	-45.3	-47.2	18.0	0.00e+00	0	43	0	0	61	4695
2026-01-03 09:25:38.77	118.47	36.98	-45.4	-47.4	17.8	0.00e+00	0	43	0	0	61	4778
2026-01-03 09:25:39.78	118.21	37.18	-45.6	-47.6	17.5	0.00e+00	0	43	0	0	61	4884
2026-01-03 09:25:40.78	117.96	37.37	-45.7	-47.7	17.4	0.00e+00	0	43	0	0	62	4685
2026-01-03 09:25:41.78	117.70	37.57	-45.7	-47.7	17.4	0.00e+00	0	43	0	0	62	4680
2026-01-03 09:25:42.79	117.44	37.77	-45.7	-47.7	17.4	0.00e+00	0	43	0	0	62	4699
2026-01-03 09:25:43.79	117.18	37.97	-45.6	-47.6	17.6	0.00e+00	0	43	0	0	62	4621
2026-01-03 09:25:44.79	116.91	38.16	-45.5	-47.5	17.6	0.00e+00	0	43	0	0	62	4570
2026-01-03 09:25:45.80	116.64	38.37	-45.2	-47.2	18.0	0.00e+00	0	43	0	0	62	4398
2026-01-03 09:25:46.80	116.36	38.56	-45.3	-47.3	17.9	0.00e+00	0	43	0	0	62	4454
2026-01-03 09:25:47.80	116.09	38.76	-45.1	-47.1	18.1	0.00e+00	0	43	0	0	62	4363
2026-01-03 09:25:48.80	115.81	38.96	-45.4	-47.4	18.0	0.00e+00	0	43	0	0	62	4502
2026-01-03 09:25:49.81	115.52	39.17	-45.4	-47.4	17.8	0.00e+00	0	43	0	0	62	4495
2026-01-03 09:25:50.81	115.23	39.37	-45.4	-47.4	17.7	0.00e+00	0	43	0	0	62	4535
2026-01-03 09:25:51.81	114.94	39.57	-45.3	-47.3	17.9	0.00e+00	0	43	0	0	62	4445
2026-01-03 09:25:52.81	114.65	39.77	-45.1	-47.0	18.2	0.00e+00	0	43	0	0	62	4313
2026-01-03 09:25:53.81	114.35	39.97	-44.9	-46.7	18.4	0.00e+00	0	43	0	0	61	4435
2026-01-03 09:25:54.82	114.04	40.17	-45.0	-46.9	18.2	0.00e+00	0	43	0	0	61	4494
2026-01-03 09:25:55.82	113.74	40.38	-44.9	-46.8	18.2	0.00e+00	0	43	0	0	61	4458
2026-01-03 09:25:56.82	113.43	40.58	-45.1	-47.0	18.0	0.00e+00	0	43	0	0	61	4580
2026-01-03 09:25:57.83	113.11	40.78	-45.1	-47.1	17.9	0.00e+00	0	43	0	0	61	4604
2026-01-03 09:25:58.83	112.80	40.98	-45.1	-47.1	17.9	0.00e+00	0	43	0	0	61	4610
2026-01-03 09:25:59.83	112.47	41.19	-45.2	-47.2	17.9	0.00e+00	0	43	0	0	61	4655
2026-01-03 09:26:00.83	112.15	41.39	-45.2	-47.2	17.8	0.00e+00	0	44	0	0	61	4657
2026-01-03 09:26:01.84	111.82	41.59	-45.7	-47.6	17.6	0.00e+00	0	43	0	0	62	4643
2026-01-03 09:26:02.84	111.48	41.80	-45.6	-47.6	17.5	0.00e+00	0	43	0	0	62	4633
2026-01-03 09:26:03.84	111.14	42.00	-45.6	-47.6	17.3	0.00e+00	0	43	0	0	62	4641
2026-01-03 09:26:04.85	110.80	42.20	-46.0	-48.1	16.7	0.00e+00	0	43	0	0	62	4892
2026-01-03 09:26:05.85	110.45	42.41	-46.3	-48.5	16.4	0.00e+00	0	43	0	0	63	4838
2026-01-03 09:26:06.85	110.10	42.61	-46.4	-48.6	16.4	0.00e+00	0	43	0	0	63	4896
2026-01-03 09:26:07.86	109.74	42.81	-46.2	-48.4	16.6	0.00e+00	0	43	0	0	63	4799
2026-01-03 09:26:08.86	109.38	43.02	-46.2	-48.4	16.7	0.00e+00	0	43	0	0	63	4771
2026-01-03 09:26:09.86	109.02	43.22	-46.2	-48.3	16.8	0.00e+00	0	43	0	0	63	4750
2026-01-03 09:26:10.86	108.65	43.42	-46.1	-48.2	16.8	0.00e+00	0	44	0	0	63	4695
2026-01-03 09:26:11.86	108.27	43.62	-46.1	-48.2	16.8	0.00e+00	0	43	0	0	63	4693
2026-01-03 09:26:12.87	107.89	43.82	-46.1	-48.3	16.7	0.00e+00	0	43	0	0	63	4719
2026-01-03 09:26:13.87	107.51	44.02	-46.2	-48.4	16.6	0.00e+00	0	44	0	0	63	4767
2026-01-03 09:26:14.87	107.12	44.22	-46.7	-48.9	16.5	0.00e+00	0	43	0	0	63	5065
2026-01-03 09:26:15.88	106.72	44.43	-46.2	-48.3	16.9	0.00e+00	0	44	0	0	64	4467
2026-01-03 09:26:16.88	106.32	44.63	-46.0	-48.1	17.1	0.00e+00	0	44	0	0	63	4632
2026-01-03 09:26:17.88	105.92	44.82	-45.9	-47.9	17.2	0.00e+00	0	43	0	0	63	4539
2026-01-03 09:26:18.89	105.51	45.02	-45.9	-48.0	17.1	0.00e+00	0	43	0	0	63	4562
2026-01-03 09:26:19.89	105.09	45.22	-45.8	-47.9	17.1	0.00e+00	0	43	0	0	63	4527
2026-01-03 09:26:20.89	104.67	45.42	-45.7	-47.7	17.3	0.00e+00	0	43	0	0	63	4433
2026-01-03 09:26:21.89	104.25	45.61	-45.6	-47.6	17.4	0.00e+00	0	43	0	0	63	4368
2026-01-03 09:26:22.90	103.81	45.81	-45.6	-47.6	17.4	0.00e+00	0	43	0	0	63	4365
2026-01-03 09:26:23.90	103.38	46.01	-45.6	-47.6	17.3	0.00e+00	0	44	0	0	63	4362
2026-01-03 09:26:24.90	102.94	46.20	-45.5	-47.5	17.4	0.00e+00	0	43	0	0	63	4312
2026-01-03 09:26:25.90	102.49	46.39	-45.5	-47.5	17.4	0.00e+00	0	44	0	0	62	4592
2026-01-03 09:26:26.91	102.04	46.58	-45.3	-47.3	17.6	0.00e+00	0	43	0	0	62	4480
2026-01-03 09:26:27.91	101.58	46.77	-45.4	-47.4	17.5	0.00e+00	0	43	0	0	62	4518
2026-01-03 09:26:28.91	101.12	46.96	-45.4	-47.4	17.6	0.00e+00	0	43	0	0	62	4516
2026-01-03 09:26:29.91	100.65	47.15	-45.6	-47.6	17.4	0.00e+00	0	43	0	0	62	4625
2026-01-03 09:26:30.92	100.17	47.34	-45.5	-47.5	17.5	0.00e+00	0	43	0	0	62	4573
2026-01-03 09:26:31.92	99.69	47.52	-45.7	-47.7	17.5	0.00e+00	0	43	0	0	62	4667
2026-01-03 09:26:32.92	99.21	47.71	-45.7	-47.7	17.5	0.00e+00	0	44	0	0	62	4661
2026-01-03 09:26:33.93	98.71	47.89	-45.4	-47.3	17.9	0.00e+00	0	43	0	0	62	4468
2026-01-03 09:26:34.93	98.21	48.07	-45.3	-47.3	17.9	0.00e+00	0	43	0	0	62	4455
2026-01-03 09:26:35.93	97.71	48.25	-45.6	-47.6	17.5	0.00e+00	0	44	0	0	62	4624
2026-01-03 09:26:36.93	97.20	48.43	-45.8	-47.8	17.3	0.00e+00	0	44	0	0	62	4749
2026-01-03 09:26:37.93	96.69	48.60	-45.8	-47.9	17.2	0.00e+00	0	43	0	0	62	4791
2026-01-03 09:26:38.94	96.16	48.78	-45.7	-47.8	17.4	0.00e+00	0	44	0	0	62	4707
2026-01-03 09:26:39.94	95.64	48.95	-45.5	-47.5	17.6	0.00e+00	0	44	0	0	62	4568
2026-01-03 09:26:40.94	95.10	49.12	-45.4	-47.4	17.6	0.00e+00	0	44	0	0	62	4540
2026-01-03 09:26:41.94	94.57	49.29	-45.5	-47.5	17.6	0.00e+00	0	43	0	0	62	4578
2026-01-03 09:26:42.94	94.02	49.45	-45.5	-47.6	17.4	0.00e+00	0	43	0	0	62	4646
2026-01-03 09:26:43.95	93.47	49.62	-45.6	-47.7	17.5	0.00e+00	0	43	0	0	62	4674
2026-01-03 09:26:44.95	92.91	49.78	-45.4	-47.4	17.7	0.00e+00	0	44	0	0	62	4535
2026-01-03 09:26:45.95	92.35	49.94	-45.4	-47.4	17.7	0.00e+00	0	43	0	0	62	4513
2026-01-03 09:26:46.96	91.78	50.10	-45.4	-47.4	17.7	0.00e+00	0	44	0	0	62	4532
2026-01-03 09:26:47.96	91.20	50.25	-45.2	-47.3	17.8	0.00e+00	0	44	0	0	62	4444
2026-01-03 09:26:48.96	90.62	50.40	-45.4	-47.4	18.1	0.00e+00	0	43	0	0	62	4534
2026-01-03 09:26:49.96	90.04	50.55	-44.7	-46.6	18.6	0.00e+00	0	43	0	0	61	4389
2026-01-03 09:26:50.96	89.45	50.69	-44.2	-46.1	19.0	0.00e+00	0	43	0	0	60	4350
2026-01-03 09:26:51.97	88.85	50.84	-43.4	-45.6	19.3	0.00e+00	0	43	0	0	59	4386
2026-01-03 09:26:52.97	88.24	50.98	-44.0	-45.8	19.0	0.00e+00	0	44	0	0	59	4465
2026-01-03 09:26:53.97	87.64	51.12	-44.3	-46.2	18.6	0.00e+00	0	44	0	0	59	4660
2026-01-03 09:26:54.98	87.02	51.25	-44.4	-46.3	18.4	0.00e+00	0	44	0	0	59	4739
2026-01-03 09:26:55.98	86.40	51.38	-44.5	-46.4	18.3	0.00e+00	0	43	0	0	59	4812
2026-01-03 09:26:56.98	85.77	51.51	-44.7	-46.7	18.2	0.00e+00	0	43	0	0	60	4664
2026-01-03 09:26:57.98	85.15	51.63	-44.7	-46.6	18.3	0.00e+00	0	43	0	0	60	4606
2026-01-03 09:26:58.99	84.50	51.76	-44.8	-46.8	17.9	0.00e+00	0	43	0	0	60	4716
2026-01-03 09:26:59.99	83.87	51.87	-45.0	-47.0	17.7	0.00e+00	0	43	0	0	60	4852
2026-01-03 09:27:00.99	83.22	51.99	-45.0	-46.9	17.9	0.00e+00	0	43	0	0	60	4808
2026-01-03 09:27:01.99	82.57	52.10	-44.9	-46.9	18.0	0.00e+00	0	44	0	0	60	4780
2026-01-03 09:27:03.00	81.91	52.21	-45.1	-47.1	17.8	0.00e+00	0	43	0	0	60	4899
2026-01-03 09:27:04.00	81.25	52.31	-45.1	-47.1	17.7	0.00e+00	0	43	0	0	60	4898
2026-01-03 09:27:05.00	80.59	52.41	-44.9	-46.8	17.8	0.00e+00	0	43	0	0	60	4759
2026-01-03 09:27:06.00	79.92	52.51	-44.7	-46.6	18.0	0.00e+00	0	43	0	0	60	4644
2026-01-03 09:27:07.01	79.24	52.60	-45.0	-46.9	18.2	0.00e+00	0	44	0	0	60	4802
2026-01-03 09:27:08.01	78.56	52.69	-44.7	-46.6	18.4	0.00e+00	0	43	0	0	60	4619
2026-01-03 09:27:09.01	77.88	52.77	-44.7	-46.5	18.4	0.00e+00	0	44	0	0	60	4573
2026-01-03 09:27:10.01	77.20	52.85	-45.0	-46.9	18.1	0.00e+00	0	43	0	0	60	4814
2026-01-03 09:27:11.01	76.51	52.93	-44.7	-46.5	18.4	0.00e+00	0	43	0	0	60	4593
2026-01-03 09:27:12.02	75.81	53.00	-44.3	-46.1	18.7	0.00e+00	0	44	0	0	60	4388
2026-01-03 09:27:13.02	75.12	53.07	-44.3	-46.1	18.7	0.00e+00	0	44	0	0	60	4369
2026-01-03 09:27:14.02	74.42	53.13	-44.1	-45.9	18.8	0.00e+00	0	43	0	0	60	4259
2026-01-03 09:27:15.03	73.71	53.19	-44.1	-45.9	18.8	0.00e+00	0	44	0	0	59	4495
2026-01-03 09:27:16.03	73.01	53.24	-44.3	-46.0	18.6	0.00e+00	0	44	0	0	59	4596
2026-01-03 09:27:17.03	72.30	53.29	-44.8	-46.7	18.1	0.00e+00	0	43	0	0	60	4658
2026-01-03 09:27:18.03	71.60	53.34	-44.9	-46.8	17.9	0.00e+00	0	44	0	0	60	4735
2026-01-03 09:27:19.04	70.88	53.38	-44.9	-46.8	17.8	0.00e+00	0	43	0	0	60	4729
2026-01-03 09:27:20.04	70.17	53.42	-44.8	-46.7	17.9	0.00e+00	0	43	0	0	60	4701
2026-01-03 09:27:21.04	69.45	53.45	-44.6	-46.5	18.2	0.00e+00	0	43	0	0	60	4570
2026-01-03 09:27:22.04	68.74	53.48	-44.4	-46.3	18.5	0.00e+00	0	44	0	0	60	4465
2026-01-03 09:27:23.05	68.01	53.50	-44.7	-46.5	18.4	0.00e+00	0	44	0	0	60	4597
2026-01-03 09:27:24.05	67.30	53.52	-45.3	-47.2	18.1	0.00e+00	0	43	0	0	61	4667
2026-01-03 09:27:25.05	66.58	53.53	-44.9	-46.8	18.3	0.00e+00	0	43	0	0	61	4456
2026-01-03 09:27:26.05	65.86	53.54	-44.2	-46.0	19.0	0.00e+00	0	44	0	0	60	4330
2026-01-03 09:27:27.06	65.13	53.55	-44.2	-46.0	18.8	0.00e+00	0	44	0	0	60	4321
2026-01-03 09:27:28.06	64.41	53.55	-44.4	-46.2	18.8	0.00e+00	0	44	0	0	60	4429
2026-01-03 09:27:29.06	63.69	53.54	-44.5	-46.4	18.6	0.00e+00	0	43	0	0	60	4517
2026-01-03 09:27:30.06	62.97	53.54	-45.1	-47.0	18.0	0.00e+00	0	43	0	0	60	4845
2026-01-03 09:27:31.07	62.25	53.52	-44.9	-46.8	18.2	0.00e+00	0	44	0	0	60	4756
2026-01-03 09:27:32.07	61.53	53.50	-44.7	-46.6	18.3	0.00e+00	0	44	0	0	60	4631
2026-01-03 09:27:33.07	60.81	53.48	-44.8	-46.7	18.3	0.00e+00	0	44	0	0	60	4670
2026-01-03 09:27:34.08	60.09	53.45	-44.7	-46.6	18.4	0.00e+00	0	43	0	0	60	4642
2026-01-03 09:27:35.08	59.38	53.42	-44.9	-46.8	18.2	0.00e+00	0	44	0	0	60	4745
2026-01-03 09:27:36.08	58.67	53.38	-44.9	-46.8	18.2	0.00e+00	0	44	0	0	60	4729
2026-01-03 09:27:37.08	57.96	53.34	-45.1	-47.1	18.0	0.00e+00	0	44	0	0	60	4882
2026-01-03 09:27:38.08	57.25	53.30	-44.9	-46.8	18.6	0.00e+00	0	44	0	0	61	4462
2026-01-03 09:27:39.08	56.54	53.25	-43.9	-45.6	19.3	0.00e+00	0	43	0	0	59	4373
2026-01-03 09:27:40.09	55.83	53.19	-43.9	-45.7	19.3	0.00e+00	0	43	0	0	59	4405
2026-01-03 09:27:41.09	55.13	53.14	-44.2	-46.0	18.9	0.00e+00	0	44	0	0	59	4582
2026-01-03 09:27:42.09	54.44	53.07	-44.8	-46.7	18.4	0.00e+00	0	43	0	0	60	4656
2026-01-03 09:27:43.10	53.73	53.01	-45.4	-47.4	17.7	0.00e+00	0	43	0	0	61	4790
2026-01-03 09:27:44.10	53.04	52.93	-45.3	-47.3	17.8	0.00e+00	0	44	0	0	61	4725
2026-01-03 09:27:45.10	52.36	52.86	-44.9	-46.9	18.1	0.00e+00	0	44	0	0	61	4511
2026-01-03 09:27:46.10	51.67	52.78	-44.6	-46.5	18.5	0.00e+00	0	44	0	0	61	4302
2026-01-03 09:27:47.10	50.99	52.70	-44.6	-46.5	18.6	0.00e+00	0	43	0	0	61	4311
2026-01-03 09:27:48.11	50.31	52.61	-44.7	-46.6	18.5	0.00e+00	0	43	0	0	61	4352
2026-01-03 09:27:49.11	49.64	52.52	-44.6	-46.4	18.6	0.00e+00	0	43	0	0	61	4271
2026-01-03 09:27:50.11	48.97	52.42	-44.5	-46.4	18.5	0.00e+00	0	44	0	0	61	4260
2026-01-03 09:27:51.11	48.31	52.32	-44.4	-46.2	18.7	0.00e+00	0	43	0	0	60	4434
2026-01-03 09:27:52.12	47.64	52.22	-44.5	-46.3	18.6	0.00e+00	0	44	0	0	60	4456
2026-01-03 09:27:53.12	46.99	52.11	-44.4	-46.2	18.7	0.00e+00	0	43	0	0	60	4414
2026-01-03 09:27:54.12	46.34	52.00	-45.0	-47.0	17.9	0.00e+00	0	44	0	0	60	4819
2026-01-03 09:27:55.13	45.69	51.89	-45.4	-47.3	17.7	0.00e+00	0	43	0	0	61	4745
2026-01-03 09:27:56.13	45.05	51.77	-45.5	-47.4	17.5	0.00e+00	0	43	0	0	61	4796
2026-01-03 09:27:57.13	44.42	51.65	-44.9	-46.7	18.1	0.00e+00	0	44	0	0	61	4426
2026-01-03 09:27:58.13	43.79	51.52	-43.9	-45.7	19.0	0.00e+00	0	44	0	0	59	4411
2026-01-03 09:27:59.13	43.16	51.40	-43.3	-45.0	19.6	0.00e+00	0	44	0	0	58	4317
2026-01-03 09:28:00.13	42.55	51.27	-43.8	-45.5	19.1	0.00e+00	0	43	0	0	58	4573
2026-01-03 09:28:01.13	41.93	51.13	-44.8	-46.6	18.1	0.00e+00	0	44	0	0	60	4651
2026-01-03 09:28:02.14	41.32	51.00	-45.3	-47.2	17.6	0.00e+00	0	43	0	0	61	4690
2026-01-03 09:28:03.14	40.72	50.86	-44.9	-46.8	17.8	0.00e+00	0	44	0	0	61	4482
2026-01-03 09:28:04.14	40.12	50.71	-44.3	-46.2	18.5	0.00e+00	0	44	0	0	60	4394
2026-01-03 09:28:05.14	39.53	50.57	-44.0	-45.8	19.1	0.00e+00	0	44	0	0	60	4212
2026-01-03 09:28:06.14	38.95	50.42	-44.2	-46.0	18.7	0.00e+00	0	43	0	0	59	4587
2026-01-03 09:28:07.15	38.36	50.27	-45.2	-47.2	17.7	0.00e+00	0	44	0	0	61	4686
2026-01-03 09:28:08.15	37.79	50.12	-46.7	-49.0	16.0	0.00e+00	0	44	0	0	64	4851
2026-01-03 09:28:09.15	37.22	49.96	-47.0	-49.5	15.6	0.00e+00	0	44	0	0	64	5102
2026-01-03 09:28:10.16	36.66	49.80	-46.3	-48.5	16.3	0.00e+00	0	44	0	0	64	4577
2026-01-03 09:28:11.16	36.10	49.64	-45.8	-47.9	17.0	0.00e+00	0	44	0	0	63	4509
2026-01-03 09:28:12.16	35.55	49.48	-45.4	-47.3	17.6	0.00e+00	0	43	0	0	62	4487
2026-01-03 09:28:13.17	35.01	49.31	-45.1	-47.0	18.0	0.00e+00	0	44	0	0	62	4302
2026-01-03 09:28:14.17	34.47	49.15	-45.5	-47.5	17.5	0.00e+00	0	44	0	0	62	4584
2026-01-03 09:28:15.17	33.94	48.98	-46.2	-48.4	16.7	0.00e+00	0	43	0	0	63	4796
2026-01-03 09:28:16.17	33.41	48.81	-46.0	-48.1	17.0	0.00e+00	0	43	0	0	63	4638
2026-01-03 09:28:17.18	32.89	48.63	-45.3	-47.3	17.6	0.00e+00	0	44	0	0	62	4481
2026-01-03 09:28:18.18	32.37	48.46	-45.3	-47.3	17.6	0.00e+00	0	44	0	0	62	4471
2026-01-03 09:28:19.18	31.87	48.28	-45.2	-47.3	17.6	0.00e+00	0	43	0	0	62	4460
2026-01-03 09:28:20.18	31.36	48.10	-45.7	-47.9	17.4	0.00e+00	0	44	0	0	62	4766
2026-01-03 09:28:21.19	30.86	47.92	-46.1	-48.3	17.0	0.00e+00	0	43	0	0	62	4988
2026-01-03 09:28:22.19	30.37	47.74	-46.6	-48.9	16.3	0.00e+00	0	44	0	0	63	5059
2026-01-03 09:28:23.19	29.89	47.56	-46.7	-49.0	16.0	0.00e+00	0	44	0	0	64	4863
2026-01-03 09:28:24.19	29.41	47.37	-46.0	-48.2	16.6	0.00e+00	0	44	0	0	64	4411
2026-01-03 09:28:25.19	28.94	47.19	-45.1	-47.1	17.7	0.00e+00	0	44	0	0	62	4345
2026-01-03 09:28:26.20	28.46	47.00	-44.5	-46.3	18.4	0.00e+00	0	44	0	0	61	4237
2026-01-03 09:28:27.20	28.00	46.81	-44.5	-46.4	18.4	0.00e+00	0	44	0	0	60	4503
2026-01-03 09:28:28.20	27.54	46.62	-45.0	-47.0	18.2	0.00e+00	0	44	0	0	60	4824
2026-01-03 09:28:29.20	27.09	46.43	-46.0	-48.1	17.1	0.00e+00	0	44	0	0	62	4913
2026-01-03 09:28:30.20	26.65	46.24	-46.8	-49.2	15.8	0.00e+00	0	44	0	0	64	4960
2026-01-03 09:28:31.20	26.21	46.05	-46.9	-49.3	15.7	0.00e+00	0	44	0	0	64	4996
2026-01-03 09:28:32.20	25.77	45.85	-46.4	-48.7	15.8	0.00e+00	0	44	0	0	64	4656
2026-01-03 09:28:33.20	25.35	45.66	-46.0	-48.1	16.3	0.00e+00	0	44	0	0	63	4625
2026-01-03 09:28:34.21	24.92	45.46	-45.4	-47.4	17.2	0.00e+00	0	43	0	0	62	4504
2026-01-03 09:28:35.21	24.50	45.27	-45.2	-47.1	17.6	0.00e+00	0	44	0	0	62	4380
2026-01-03 09:28:36.21	24.09	45.07	-45.1	-47.1	17.8	0.00e+00	0	44	0	0	62	4353
2026-01-03 09:28:37.22	23.67	44.87	-45.8	-47.8	17.2	0.00e+00	0	43	0	0	62	4757
2026-01-03 09:28:38.22	23.27	44.67	-46.9	-49.3	15.7	0.00e+00	0	44	0	0	64	5032
2026-01-03 09:28:39.22	22.87	44.47	-47.4	-50.0	15.0	0.00e+00	0	44	0	0	65	5147
2026-01-03 09:28:40.22	22.48	44.28	-46.9	-49.4	15.6	0.00e+00	0	44	0	0	65	4781
2026-01-03 09:28:41.22	22.09	44.08	-46.1	-48.3	16.5	0.00e+00	0	44	0	0	64	4482
2026-01-03 09:28:42.23	21.70	43.87	-45.6	-47.7	17.1	0.00e+00	0	44	0	0	63	4423
2026-01-03 09:28:43.23	21.33	43.67	-45.2	-47.1	17.7	0.00e+00	0	44	0	0	62	4381
2026-01-03 09:28:44.23	20.95	43.47	-44.8	-46.7	18.1	0.00e+00	0	44	0	0	61	4421
2026-01-03 09:28:45.24	20.58	43.27	-44.6	-46.4	18.5	0.00e+00	0	44	0	0	61	4264
2026-01-03 09:28:46.24	20.22	43.07	-45.1	-47.0	18.2	0.00e+00	0	44	0	0	61	4553
2026-01-03 09:28:47.24	19.86	42.87	-46.0	-48.1	17.2	0.00e+00	0	44	0	0	62	4915
2026-01-03 09:28:48.24	19.50	42.67	-46.7	-49.0	16.2	0.00e+00	0	44	0	0	64	4846
2026-01-03 09:28:49.25	19.15	42.46	-46.4	-48.6	16.2	0.00e+00	0	43	0	0	64	4650
2026-01-03 09:28:50.25	18.80	42.26	-45.4	-47.5	17.1	0.00e+00	0	44	0	0	62	4546
2026-01-03 09:28:51.25	18.46	42.06	-44.6	-46.5	17.9	0.00e+00	0	44	0	0	61	4323
2026-01-03 09:28:52.25	18.12	41.86	-44.7	-46.5	18.0	0.00e+00	0	44	0	0	61	4334
2026-01-03 09:28:53.25	17.79	41.66	-45.1	-47.1	17.8	0.00e+00	0	43	0	0	61	4622
2026-01-03 09:28:54.26	17.46	41.45	-45.4	-47.5	17.5	0.00e+00	0	44	0	0	61	4831
2026-01-03 09:28:55.26	17.13	41.25	-45.7	-47.8	17.1	0.00e+00	0	43	0	0	62	4758
2026-01-03 09:28:56.26	16.81	41.05	-45.9	-48.1	16.8	0.00e+00	0	44	0	0	62	4888
2026-01-03 09:28:57.27	16.49	40.85	-46.0	-48.1	16.9	0.00e+00	0	44	0	0	62	4902
2026-01-03 09:28:58.27	16.18	40.64	-46.1	-48.3	16.8	0.00e+00	0	44	0	0	62	4996
2026-01-03 09:28:59.27	15.87	40.44	-46.1	-48.3	16.8	0.00e+00	0	44	0	0	62	5015
2026-01-03 09:29:00.27	15.56	40.24	-45.6	-47.7	17.4	0.00e+00	0	44	0	0	62	4661
2026-01-03 09:29:01.27	15.26	40.04	-44.9	-46.9	18.0	0.00e+00	0	44	0	0	61	4503
2026-01-03 09:29:02.27	14.97	39.84	-44.2	-46.0	18.8	0.00e+00	0	44	0	0	60	4338
2026-01-03 09:29:03.28	14.67	39.64	-43.8	-45.6	19.2	0.00e+00	0	44	0	0	59	4350
2026-01-03 09:29:04.28	14.38	39.44	-43.6	-45.3	19.4	0.00e+00	0	44	0	0	59	4242
2026-01-03 09:29:05.28	14.09	39.24	-43.7	-45.5	19.4	0.00e+00	0	44	0	0	59	4296
2026-01-03 09:29:06.28	13.81	39.04	-44.4	-46.3	18.7	0.00e+00	0	44	0	0	59	4731
2026-01-03 09:29:07.29	13.53	38.84	-45.2	-47.3	17.8	0.00e+00	0	44	0	0	61	4714
2026-01-03 09:29:08.29	13.25	38.64	-45.6	-47.8	17.0	0.00e+00	0	44	0	0	61	4997
2026-01-03 09:29:09.29	12.98	38.44	-45.6	-47.7	16.9	0.00e+00	0	44	0	0	62	4681
2026-01-03 09:29:10.29	12.71	38.24	-45.3	-47.4	17.3	0.00e+00	0	44	0	0	62	4499
2026-01-03 09:29:11.29	12.44	38.05	-45.3	-47.4	17.4	0.00e+00	0	44	0	0	62	4504
2026-01-03 09:29:12.30	12.18	37.85	-45.2	-47.1	17.7	0.00e+00	0	44	0	0	62	4391
2026-01-03 09:29:13.30	11.92	37.65	-45.3	-47.3	17.6	0.00e+00	0	43	0	0	62	4452
2026-01-03 09:29:14.30	11.66	37.46	-45.6	-47.6	17.6	0.00e+00	0	44	0	0	62	4610
2026-01-03 09:29:15.30	11.41	37.26	-45.1	-47.1	17.8	0.00e+00	0	44	0	0	62	4359
2026-01-03 09:29:16.31	11.15	37.06	-44.5	-46.8	17.9	0.00e+00	0	44	0	0	61	4468
2026-01-03 09:29:17.31	10.91	36.87	-44.6	-46.6	18.3	0.00e+00	0	43	0	0	61	4343
2026-01-03 09:29:18.31	10.66	36.68	-44.8	-46.7	18.2	0.00e+00	0	43	0	0	61	4417
2026-01-03 09:29:19.32	10.42	36.48	-45.0	-47.0	17.9	0.00e+00	0	43	0	0	61	4555
2026-01-03 09:29:20.32	10.18	36.29	-45.4	-47.5	17.6	0.00e+00	0	44	0	0	61	4823
2026-01-03 09:29:21.32	9.94	36.10	-45.4	-47.4	17.5	0.00e+00	0	44	0	0	61	4794
2026-01-03 09:29:22.32	9.71	35.91	-45.1	-47.0	17.7	0.00e+00	0	44	0	0	61	4586
2026-01-03 09:29:23.32	9.48	35.71	-44.5	-46.4	18.2	0.00e+00	0	44	0	0	61	4272
2026-01-03 09:29:24.33	9.25	35.52	-44.3	-46.1	18.5	0.00e+00	0	44	0	0	60	4368
2026-01-03 09:29:25.33	9.03	35.33	-44.0	-45.7	18.8	0.00e+00	0	44	0	0	59	4437
2026-01-03 09:29:26.33	8.81	35.14	-44.1	-45.9	18.8	0.00e+00	0	44	0	0	59	4502
2026-01-03 09:29:27.33	8.59	34.96	-44.2	-46.0	18.8	0.00e+00	0	44	0	0	59	4558
2026-01-03 09:29:28.34	8.37	34.77	-44.4	-46.2	18.6	0.00e+00	0	44	0	0	59	4692
2026-01-03 09:29:29.34	8.15	34.58	-44.8	-46.7	18.3	0.00e+00	0	44	0	0	60	4685
2026-01-03 09:29:30.34	7.94	34.39	-45.0	-47.0	18.0	0.00e+00	0	44	0	0	60	4843
2026-01-03 09:29:31.34	7.73	34.21	-44.8	-46.8	18.1	0.00e+00	0	44	0	0	60	4747
2026-01-03 09:29:32.35	7.52	34.02	-44.8	-46.8	18.2	0.00e+00	0	43	0	0	60	4733
2026-01-03 09:29:33.35	7.32	33.84	-44.6	-46.5	18.4	0.00e+00	0	44	0	0	60	4550
2026-01-03 09:29:34.35	7.11	33.65	-44.2	-46.1	18.8	0.00e+00	0	44	0	0	60	4358
2026-01-03 09:29:35.35	6.91	33.47	-44.4	-46.2	19.1	0.00e+00	0	44	0	0	60	4419
2026-01-03 09:29:36.36	6.72	33.29	-44.1	-45.9	19.1	0.00e+00	0	44	0	0	60	4271
2026-01-03 09:29:37.36	6.52	33.10	-44.1	-45.9	19.1	0.00e+00	0	44	0	0	60	4269
2026-01-03 09:29:38.36	6.33	32.92	-43.9	-45.7	19.1	0.00e+00	0	44	0	0	59	4427
2026-01-03 09:29:39.36	6.14	32.74	-43.9	-45.6	19.2	0.00e+00	0	44	0	0	59	4383
2026-01-03 09:29:40.37	5.94	32.56	-43.8	-45.6	19.2	0.00e+00	0	43	0	0	59	4350
2026-01-03 09:29:41.36	5.76	32.39	-43.8	-45.5	19.3	0.00e+00	0	44	0	0	59	4329
2026-01-03 09:29:42.37	5.57	32.21	-43.7	-45.4	19.4	0.00e+00	0	44	0	0	59	4282
2026-01-03 09:29:43.37	5.39	32.03	-43.7	-45.5	19.3	0.00e+00	0	44	0	0	59	4310
2026-01-03 09:29:44.37	5.21	31.85	-43.8	-45.5	19.4	0.00e+00	0	44	0	0	59	4324
2026-01-03 09:29:45.37	5.03	31.68	-43.7	-45.4	19.4	0.00e+00	0	44	0	0	59	4290
2026-01-03 09:29:46.38	4.85	31.50	-43.6	-45.4	19.5	0.00e+00	0	44	0	0	59	4247
2026-01-03 09:29:47.38	4.68	31.33	-43.6	-45.4	19.3	0.00e+00	0	44	0	0	59	4254
2026-01-03 09:29:48.38	4.50	31.15	-43.6	-45.3	19.3	0.00e+00	0	44	0	0	59	4242
2026-01-03 09:29:49.39	4.33	30.98	-43.4	-45.2	19.4	0.00e+00	0	43	0	0	58	4395
2026-01-03 09:29:50.39	4.16	30.81	-43.2	-44.9	19.5	0.00e+00	0	44	0	0	58	4280
2026-01-03 09:29:51.39	4.00	30.63	-43.3	-45.0	19.5	0.00e+00	0	43	0	0	58	4309
2026-01-03 09:29:52.39	3.83	30.46	-43.1	-44.8	19.6	0.00e+00	0	44	0	0	58	4204
2026-01-03 09:29:53.40	3.66	30.29	-43.1	-44.7	19.6	0.00e+00	0	44	0	0	58	4193
2026-01-03 09:29:54.40	3.50	30.12	-43.2	-44.9	19.5	0.00e+00	0	43	0	0	58	4272
2026-01-03 09:29:55.40	3.34	29.95	-43.4	-45.1	19.4	0.00e+00	0	44	0	0	58	4383
2026-01-03 09:29:56.40	3.18	29.79	-43.4	-45.2	19.4	0.00e+00	0	44	0	0	58	4403
2026-01-03 09:29:57.41	3.02	29.62	-43.6	-45.4	19.3	0.00e+00	0	44	0	0	58	4518
2026-01-03 09:29:58.41	2.87	29.45	-43.7	-45.4	19.3	0.00e+00	0	44	0	0	58	4541
2026-01-03 09:29:59.41	2.72	29.29	-44.0	-45.7	19.2	0.00e+00	0	43	0	0	58	4699
2026-01-03 09:30:00.41	2.56	29.12	-44.0	-45.8	19.1	0.00e+00	0	44	0	0	58	4714
2026-01-03 09:30:01.41	2.41	28.96	-43.7	-45.5	19.2	0.00e+00	0	44	0	0	58	4583
2026-01-03 09:30:02.42	2.26	28.79	-43.6	-45.4	19.3	0.00e+00	0	43	0	0	58	4525
2026-01-03 09:30:03.42	2.12	28.63	-43.6	-45.3	19.3	0.00e+00	0	44	0	0	58	4484
2026-01-03 09:30:04.42	1.97	28.47	-43.5	-45.3	19.3	0.00e+00	0	44	0	0	58	4449
2026-01-03 09:30:05.43	1.82	28.31	-43.6	-45.3	19.1	0.00e+00	0	44	0	0	58	4489
2026-01-03 09:30:06.43	1.68	28.15	-43.3	-45.0	19.4	0.00e+00	0	43	0	0	58	4311
2026-01-03 09:30:07.43	1.54	27.99	-43.0	-44.7	19.6	0.00e+00	0	44	0	0	58	4180
2026-01-03 09:30:08.43	1.40	27.83	-42.9	-44.6	19.7	0.00e+00	0	44	0	0	57	4376
2026-01-03 09:30:09.44	1.26	27.67	-42.9	-44.5	19.8	0.00e+00	0	44	0	0	57	4337
2026-01-03 09:30:10.44	1.12	27.51	-42.6	-44.3	20.1	0.00e+00	0	44	0	0	57	4218
2026-01-03 09:30:11.44	0.99	27.35	-42.6	-44.3	20.1	0.00e+00	0	44	0	0	57	4214
2026-01-03 09:30:12.44	0.85	27.20	-42.5	-44.1	20.2	0.00e+00	0	44	0	0	57	4141
2026-01-03 09:30:13.44	0.72	27.04	-42.3	-43.9	20.5	0.00e+00	0	44	0	0	56	4291
2026-01-03 09:30:14.45	0.59	26.89	-42.4	-44.1	20.6	0.00e+00	0	44	0	0	56	4347
2026-01-03 09:30:15.45	0.46	26.73	-42.4	-44.0	20.6	0.00e+00	0	44	0	0	56	4337
2026-01-03 09:30:16.45	0.33	26.58	-42.3	-43.9	20.6	0.00e+00	0	44	0	0	56	4288
2026-01-03 09:30:17.45	0.20	26.43	-42.5	-44.1	20.5	0.00e+00	0	44	0	0	56	4364
2026-01-03 09:30:18.46	0.07	26.27	-42.5	-44.1	20.5	0.00e+00	0	43	0	0	56	4384
2026-01-03 09:30:19.46	359.95	26.12	-42.7	-44.3	20.3	0.00e+00	0	44	0	0	56	4468
2026-01-03 09:30:20.46	359.82	25.97	-42.6	-44.3	20.3	0.00e+00	0	44	0	0	56	4479
2026-01-03 09:30:21.46	359.70	25.82	-42.8	-44.5	20.1	0.00e+00	0	44	0	0	56	4553
2026-01-03 09:30:22.46	359.58	25.67	-42.7	-44.4	20.2	0.00e+00	0	43	0	0	56	4507
2026-01-03 09:30:23.46	359.46	25.53	-42.8	-44.5	20.1	0.00e+00	0	44	0	0	56	4558
2026-01-03 09:30:24.47	359.34	25.38	-42.9	-44.6	20.0	0.00e+00	0	44	0	0	56	4610
2026-01-03 09:30:25.47	359.22	25.23	-42.9	-44.6	20.0	0.00e+00	0	44	0	0	56	4617
2026-01-03 09:30:26.47	359.10	25.08	-42.9	-44.6	20.0	0.00e+00	0	43	0	0	56	4616
2026-01-03 09:30:27.47	358.98	24.94	-43.0	-44.7	19.9	0.00e+00	0	43	0	0	56	4670
2026-01-03 09:30:28.47	358.87	24.79	-43.1	-44.8	19.7	0.00e+00	0	43	0	0	56	4749
2026-01-03 09:30:29.47	358.76	24.65	-43.3	-45.1	19.7	0.00e+00	0	44	0	0	57	4601
2026-01-03 09:30:30.47	358.64	24.51	-43.4	-45.2	19.5	0.00e+00	0	44	0	0	57	4678
2026-01-03 09:30:31.48	358.53	24.36	-43.5	-45.3	19.5	0.00e+00	0	44	0	0	57	4723
2026-01-03 09:30:32.48	358.42	24.22	-43.5	-45.3	19.4	0.00e+00	0	43	0	0	57	4736
2026-01-03 09:30:33.48	358.31	24.08	-43.5	-45.3	19.3	0.00e+00	0	43	0	0	57	4753
2026-01-03 09:30:34.48	358.20	23.94	-43.5	-45.3	19.3	0.00e+00	0	43	0	0	57	4754
2026-01-03 09:30:35.48	358.09	23.80	-43.4	-45.3	19.3	0.00e+00	0	44	0	0	57	4721
2026-01-03 09:30:36.48	357.99	23.66	-43.4	-45.2	19.4	0.00e+00	0	44	0	0	57	4674
2026-01-03 09:30:37.49	357.88	23.52	-43.3	-45.1	19.4	0.00e+00	0	44	0	0	57	4644
2026-01-03 09:30:38.48	357.78	23.38	-43.4	-45.2	19.3	0.00e+00	0	43	0	0	57	4660
2026-01-03 09:30:39.49	357.67	23.24	-43.2	-44.9	19.5	0.00e+00	0	43	0	0	57	4544
2026-01-03 09:30:40.49	357.57	23.10	-43.2	-45.0	19.6	0.00e+00	0	44	0	0	57	4546
2026-01-03 09:30:41.49	357.47	22.97	-43.1	-44.9	19.6	0.00e+00	0	43	0	0	57	4510
2026-01-03 09:30:42.50	357.36	22.83	-43.2	-44.9	19.6	0.00e+00	0	44	0	0	57	4517
2026-01-03 09:30:43.50	357.26	22.70	-43.2	-44.9	19.6	0.00e+00	0	43	0	0	57	4537
2026-01-03 09:30:44.50	357.17	22.56	-43.0	-44.7	19.8	0.00e+00	0	44	0	0	57	4431
2026-01-03 09:30:45.50	357.07	22.43	-43.1	-44.8	19.7	0.00e+00	0	43	0	0	57	4479
2026-01-03 09:30:46.51	356.97	22.29	-43.2	-44.9	19.6	0.00e+00	0	43	0	0	57	4529
2026-01-03 09:30:47.51	356.87	22.16	-43.1	-44.8	19.7	0.00e+00	0	44	0	0	57	4476
2026-01-03 09:30:48.51	356.78	22.03	-43.0	-44.8	19.8	0.00e+00	0	44	0	0	57	4475
2026-01-03 09:30:49.51	356.68	21.90	-43.1	-44.9	19.7	0.00e+00	0	43	0	0	57	4495
2026-01-03 09:30:50.52	356.59	21.76	-43.0	-44.7	19.9	0.00e+00	0	43	0	0	57	4418
2026-01-03 09:30:51.52	356.49	21.63	-43.0	-44.8	19.8	0.00e+00	0	44	0	0	57	4446
2026-01-03 09:30:52.52	356.40	21.50	-42.9	-44.7	19.9	0.00e+00	0	44	0	0	57	4395
2026-01-03 09:30:53.52	356.31	21.37	-43.0	-44.7	19.9	0.00e+00	0	44	0	0	57	4412
2026-01-03 09:30:54.52	356.22	21.25	-43.0	-44.8	19.8	0.00e+00	0	44	0	0	57	4443
2026-01-03 09:30:55.53	356.13	21.12	-42.9	-44.6	19.9	0.00e+00	0	44	0	0	57	4364
2026-01-03 09:30:56.53	356.04	20.99	-43.1	-44.8	19.9	0.00e+00	0	43	0	0	57	4472
2026-01-03 09:30:57.53	355.95	20.86	-43.1	-44.8	19.9	0.00e+00	0	43	0	0	57	4493
2026-01-03 09:30:58.53	355.86	20.74	-43.0	-44.7	19.9	0.00e+00	0	44	0	0	57	4425
2026-01-03 09:30:59.53	355.78	20.61	-42.9	-44.6	20.0	0.00e+00	0	43	0	0	57	4377
2026-01-03 09:31:00.53	355.69	20.48	-42.8	-44.5	20.1	0.00e+00	0	44	0	0	57	4326
2026-01-03 09:31:01.54	355.60	20.36	-42.9	-44.5	20.0	0.00e+00	0	44	0	0	57	4340
2026-01-03 09:31:02.54	355.52	20.23	-42.9	-44.6	19.9	0.00e+00	0	43	0	0	57	4370
2026-01-03 09:31:03.54	355.43	20.11	-42.9	-44.6	19.9	0.00e+00	0	44	0	0	57	4371
2026-01-03 09:31:04.54	355.35	19.99	-43.0	-44.7	19.8	0.00e+00	0	44	0	0	57	4434
2026-01-03 09:31:05.54	355.27	19.87	-43.2	-44.9	19.8	0.00e+00	0	44	0	0	57	4506
2026-01-03 09:31:06.55	355.18	19.74	-43.1	-44.8	19.8	0.00e+00	0	44	0	0	57	4469
2026-01-03 09:31:07.55	355.10	19.62	-43.1	-44.8	19.7	0.00e+00	0	44	0	0	57	4482
2026-01-03 09:31:08.55	355.02	19.50	-43.2	-45.0	19.6	0.00e+00	0	44	0	0	57	4566
2026-01-03 09:31:09.56	354.94	19.38	-43.0	-44.8	19.6	0.00e+00	0	44	0	0	57	4461
2026-01-03 09:31:10.57	354.86	19.26	-43.0	-44.8	19.6	0.00e+00	0	43	0	0	57	4479
2026-01-03 09:31:11.57	354.78	19.14	-43.2	-45.0	19.5	0.00e+00	0	44	0	0	57	4550
2026-01-03 09:31:12.57	354.70	19.02	-43.1	-44.9	19.5	0.00e+00	0	44	0	0	57	4532
2026-01-03 09:31:13.58	354.63	18.90	-43.2	-45.0	19.4	0.00e+00	0	44	0	0	57	4565
2026-01-03 09:31:14.58	354.55	18.78	-43.1	-44.9	19.5	0.00e+00	0	44	0	0	57	4511
2026-01-03 09:31:15.58	354.47	18.67	-43.1	-44.8	19.5	0.00e+00	0	44	0	0	57	4477
2026-01-03 09:31:16.59	354.40	18.55	-43.1	-44.9	19.5	0.00e+00	0	44	0	0	57	4520
2026-01-03 09:31:17.59	354.32	18.43	-43.1	-44.9	19.5	0.00e+00	0	44	0	0	57	4499
2026-01-03 09:31:18.59	354.25	18.32	-43.0	-44.8	19.6	0.00e+00	0	44	0	0	57	4444
2026-01-03 09:31:19.60	354.17	18.20	-43.0	-44.8	19.5	0.00e+00	0	43	0	0	57	4489
2026-01-03 09:31:20.60	354.10	18.08	-43.1	-44.9	19.5	0.00e+00	0	43	0	0	57	4516
2026-01-03 09:31:21.60	354.03	17.97	-42.9	-44.7	19.7	0.00e+00	0	43	0	0	57	4434
2026-01-03 09:31:22.61	353.96	17.86	-42.8	-44.7	19.7	0.00e+00	0	43	0	0	57	4400
2026-01-03 09:31:23.61	353.88	17.74	-43.1	-45.0	19.7	0.00e+00	0	44	0	0	57	4557
2026-01-03 09:31:24.61	353.81	17.63	-43.1	-44.9	19.7	0.00e+00	0	44	0	0	57	4501
2026-01-03 09:31:25.62	353.74	17.52	-43.1	-44.9	19.7	0.00e+00	0	44	0	0	57	4531
2026-01-03 09:31:26.62	353.67	17.40	-43.2	-45.0	19.6	0.00e+00	0	44	0	0	57	4563
2026-01-03 09:31:27.63	353.60	17.29	-43.2	-45.0	19.6	0.00e+00	0	43	0	0	57	4548
2026-01-03 09:31:28.63	353.53	17.18	-43.2	-44.9	19.6	0.00e+00	0	43	0	0	57	4534
2026-01-03 09:31:29.64	353.46	17.07	-43.2	-45.0	19.5	0.00e+00	0	43	0	0	57	4551
2026-01-03 09:31:30.64	353.40	16.96	-43.3	-45.1	19.4	0.00e+00	0	44	0	0	57	4602
2026-01-03 09:31:31.64	353.33	16.85	-43.3	-45.0	19.4	0.00e+00	0	44	0	0	57	4598
2026-01-03 09:31:32.65	353.26	16.74	-43.5	-45.3	19.2	0.00e+00	0	44	0	0	57	4731
2026-01-03 09:31:33.65	353.20	16.63	-43.6	-45.3	19.2	0.00e+00	0	44	0	0	57	4747
2026-01-03 09:31:34.65	353.13	16.52	-43.5	-45.3	19.2	0.00e+00	0	43	0	0	57	4714
2026-01-03 09:31:35.66	353.07	16.41	-43.6	-45.4	19.1	0.00e+00	0	43	0	0	57	4806
2026-01-03 09:31:36.66	353.00	16.31	-43.6	-45.4	19.0	0.00e+00	0	44	0	0	57	4807
2026-01-03 09:31:37.66	352.94	16.20	-43.5	-45.4	19.0	0.00e+00	0	44	0	0	57	4799
2026-01-03 09:31:38.66	352.87	16.09	-43.7	-45.6	18.9	0.00e+00	0	44	0	0	58	4599
2026-01-03 09:31:39.67	352.81	15.98	-43.7	-45.5	18.9	0.00e+00	0	44	0	0	58	4596
2026-01-03 09:31:40.67	352.75	15.88	-44.1	-46.0	18.9	0.00e+00	0	44	0	0	58	4826
2026-01-03 09:31:41.68	352.68	15.77	-44.1	-46.0	18.7	0.00e+00	0	44	0	0	58	4853
2026-01-03 09:31:42.68	352.62	15.67	-44.1	-46.0	18.7	0.00e+00	0	44	0	0	58	4840
2026-01-03 09:31:43.68	352.56	15.56	-44.1	-46.0	18.6	0.00e+00	0	44	0	0	58	4829
2026-01-03 09:31:44.69	352.50	15.46	-44.0	-46.0	18.6	0.00e+00	0	44	0	0	58	4827
2026-01-03 09:31:45.69	352.44	15.36	-44.1	-46.0	18.6	0.00e+00	0	44	0	0	58	4864
2026-01-03 09:31:46.70	352.38	15.25	-44.0	-45.9	18.6	0.00e+00	0	44	0	0	58	4798
2026-01-03 09:31:47.70	352.32	15.15	-43.9	-45.9	18.7	0.00e+00	0	44	0	0	58	4766
2026-01-03 09:31:48.70	352.26	15.05	-43.9	-45.8	18.7	0.00e+00	0	44	0	0	58	4739
2026-01-03 09:31:49.71	352.20	14.94	-43.9	-45.9	18.7	0.00e+00	0	44	0	0	58	4766
2026-01-03 09:31:50.71	352.14	14.84	-43.9	-45.9	18.6	0.00e+00	0	44	0	0	58	4773
2026-01-03 09:31:51.71	352.08	14.74	-43.8	-45.7	18.7	0.00e+00	0	43	0	0	58	4694
2026-01-03 09:31:52.72	352.03	14.64	-43.8	-45.6	18.8	0.00e+00	0	44	0	0	58	4640
2026-01-03 09:31:53.72	351.97	14.54	-43.8	-45.7	18.7	0.00e+00	0	44	0	0	58	4664
2026-01-03 09:31:54.72	351.91	14.44	-43.9	-45.7	18.7	0.00e+00	0	43	0	0	58	4691
2026-01-03 09:31:55.73	351.86	14.34	-43.9	-45.7	18.7	0.00e+00	0	43	0	0	58	4697
2026-01-03 09:31:56.73	351.80	14.24	-43.8	-45.7	18.7	0.00e+00	0	44	0	0	58	4661
2026-01-03 09:31:57.74	351.74	14.14	-43.8	-45.7	18.7	0.00e+00	0	44	0	0	58	4681
2026-01-03 09:31:58.74	351.69	14.04	-43.8	-45.7	18.7	0.00e+00	0	44	0	0	58	4691
2026-01-03 09:31:59.74	351.64	13.94	-44.0	-45.9	18.8	0.00e+00	0	44	0	0	58	4810
2026-01-03 09:32:00.75	351.58	13.84	-43.8	-45.6	18.9	0.00e+00	0	44	0	0	58	4647
2026-01-03 09:32:01.75	351.53	13.75	-43.7	-45.6	18.9	0.00e+00	0	44	0	0	58	4620
2026-01-03 09:32:02.75	351.47	13.65	-43.7	-45.6	18.9	0.00e+00	0	43	0	0	58	4637
2026-01-03 09:32:03.75	351.42	13.55	-43.7	-45.5	18.9	0.00e+00	0	44	0	0	58	4591
2026-01-03 09:32:04.76	351.37	13.45	-43.7	-45.6	18.9	0.00e+00	0	44	0	0	58	4608
2026-01-03 09:32:05.76	351.31	13.36	-43.7	-45.6	18.9	0.00e+00	0	44	0	0	58	4620
2026-01-03 09:32:06.76	351.26	13.26	-43.7	-45.6	18.8	0.00e+00	0	44	0	0	58	4628
2026-01-03 09:32:07.76	351.21	13.17	-43.7	-45.6	18.7	0.00e+00	0	44	0	0	58	4633
2026-01-03 09:32:08.77	351.16	13.07	-43.5	-45.5	18.9	0.00e+00	0	44	0	0	58	4558
2026-01-03 09:32:09.77	351.11	12.98	-43.6	-45.5	18.9	0.00e+00	0	43	0	0	58	4560
2026-01-03 09:32:10.77	351.06	12.88	-43.6	-45.5	18.8	0.00e+00	0	43	0	0	58	4578
2026-01-03 09:32:11.78	351.01	12.79	-43.7	-45.6	18.7	0.00e+00	0	44	0	0	58	4620
2026-01-03 09:32:12.78	350.96	12.69	-43.7	-45.6	18.7	0.00e+00	0	44	0	0	58	4635
2026-01-03 09:32:13.78	350.91	12.60	-44.2	-46.1	18.4	0.00e+00	0	44	0	0	59	4646
2026-01-03 09:32:14.79	350.86	12.51	-44.2	-46.2	18.3	0.00e+00	0	44	0	0	59	4659
2026-01-03 09:32:15.79	350.81	12.41	-44.0	-46.0	18.4	0.00e+00	0	44	0	0	59	4549
2026-01-03 09:32:16.80	350.76	12.32	-43.9	-45.9	18.5	0.00e+00	0	44	0	0	59	4496
2026-01-03 09:32:17.80	350.71	12.23	-44.0	-45.9	18.5	0.00e+00	0	44	0	0	59	4509
2026-01-03 09:32:18.80	350.66	12.14	-44.0	-45.9	18.5	0.00e+00	0	44	0	0	59	4498
2026-01-03 09:32:19.81	350.62	12.05	-43.9	-45.8	18.6	0.00e+00	0	43	0	0	59	4464
2026-01-03 09:32:20.81	350.57	11.96	-43.9	-45.8	18.6	0.00e+00	0	44	0	0	59	4479
2026-01-03 09:32:21.81	350.52	11.86	-43.9	-45.9	18.6	0.00e+00	0	44	0	0	59	4504
2026-01-03 09:32:22.82	350.48	11.77	-43.9	-46.0	18.5	0.00e+00	0	44	0	0	59	4588
2026-01-03 09:32:23.82	350.43	11.68	-44.0	-46.1	18.4	0.00e+00	0	44	0	0	59	4636
2026-01-03 09:32:24.82	350.38	11.59	-43.8	-46.0	18.5	0.00e+00	0	44	0	0	59	4564
2026-01-03 09:32:25.83	350.34	11.50	-43.9	-46.0	18.4	0.00e+00	0	44	0	0	59	4587
2026-01-03 09:32:26.83	350.29	11.41	-43.9	-46.0	18.4	0.00e+00	0	44	0	0	59	4594
2026-01-03 09:32:27.83	350.25	11.33	-43.8	-46.1	18.3	0.00e+00	0	44	0	0	59	4601
2026-01-03 09:32:28.84	350.20	11.24	-43.9	-46.1	18.2	0.00e+00	0	43	0	0	59	4611
2026-01-03 09:32:29.84	350.16	11.15	-43.8	-46.0	18.3	0.00e+00	0	44	0	0	59	4580
2026-01-03 09:32:30.84	350.11	11.06	-44.2	-46.4	18.2	0.00e+00	0	44	0	0	59	4794
2026-01-03 09:32:31.85	350.07	10.97	-43.8	-46.1	18.3	0.00e+00	0	43	0	0	59	4649
2026-01-03 09:32:32.85	350.03	10.88	-43.9	-46.2	18.3	0.00e+00	0	43	0	0	59	4675
2026-01-03 09:32:33.85	349.98	10.80	-43.9	-46.3	18.2	0.00e+00	0	43	0	0	59	4721
2026-01-03 09:32:34.85	349.94	10.71	-43.9	-46.2	18.3	0.00e+00	0	44	0	0	59	4697
2026-01-03 09:32:35.86	349.90	10.62	-44.0	-46.4	18.2	0.00e+00	0	44	0	0	59	4771
2026-01-03 09:32:36.86	349.85	10.54	-43.8	-46.2	18.3	0.00e+00	0	43	0	0	59	4670
2026-01-03 09:32:37.87	349.81	10.45	-43.8	-46.2	18.3	0.00e+00	0	44	0	0	59	4671
2026-01-03 09:32:38.87	349.77	10.37	-44.2	-46.6	18.2	0.00e+00	0	43	0	0	59	4873
2026-01-03 09:32:39.87	349.73	10.28	-44.1	-46.6	17.9	0.00e+00	0	44	0	0	59	4888
2026-01-03 09:32:40.88	349.69	10.19	-43.9	-46.3	18.2	0.00e+00	0	43	0	0	59	4729
2026-01-03 09:32:41.88	349.64	10.11	-44.0	-46.3	18.2	0.00e+00	0	44	0	0	59	4707
2026-01-03 09:32:42.88	349.60	10.03	-44.0	-46.3	18.1	0.00e+00	0	44	0	0	59	4713
2026-01-03 09:32:43.89	349.56	9.94	-44.1	-46.3	18.1	0.00e+00	0	43	0	0	59	4728
2026-01-03 09:32:44.89	349.52	9.86	-44.1	-46.4	18.0	0.00e+00	0	43	0	0	59	4766
2026-01-03 09:32:45.90	349.48	9.77	-44.2	-46.5	17.9	0.00e+00	0	44	0	0	59	4818
2026-01-03 09:32:46.90	349.44	9.69	-44.2	-46.5	17.9	0.00e+00	0	44	0	0	59	4836
2026-01-03 09:32:47.90	349.40	9.61	-44.2	-46.4	17.8	0.00e+00	0	44	0	0	59	4792
2026-01-03 09:32:48.91	349.36	9.52	-44.2	-46.5	17.7	0.00e+00	0	44	0	0	59	4849
2026-01-03 09:32:49.91	349.32	9.44	-44.1	-46.4	17.7	0.00e+00	0	43	0	0	59	4779
2026-01-03 09:32:50.92	349.28	9.36	-44.2	-46.5	17.7	0.00e+00	0	44	0	0	59	4856
2026-01-03 09:32:51.92	349.25	9.27	-44.3	-46.6	17.7	0.00e+00	0	44	0	0	59	4906
2026-01-03 09:32:52.92	349.21	9.19	-44.2	-46.5	17.8	0.00e+00	0	44	0	0	59	4854
2026-01-03 09:32:53.92	349.17	9.11	-44.3	-46.6	17.8	0.00e+00	0	44	0	0	59	4912
2026-01-03 09:32:54.93	349.13	9.03	-44.7	-47.1	17.7	0.00e+00	0	44	0	0	60	4878
2026-01-03 09:32:55.93	349.09	8.95	-50.0	-56.8	8.2	0.00e+00	0	44	0	0	70	8371
2026-01-03 09:32:56.94	349.06	8.87	-51.7	-65.6	3.8	1.49e+00	0	44	104	0	74	18486
2026-01-03 09:32:57.94	349.02	8.79	-52.0	-66.0	3.8	1.49e+00	0	44	104	0	75	18163
2026-01-03 09:32:58.95	348.98	8.71	-53.0	-66.3	3.8	1.49e+00	0	44	104	0	76	17729
2026-01-03 09:32:59.95	348.94	8.62	-52.7	-66.4	3.8	1.49e+00	0	44	104	0	77	16927
2026-01-03 09:33:00.96	348.91	8.54	-53.3	-66.4	3.8	1.49e+00	0	43	104	0	77	17053
2026-01-03 09:33:01.96	348.87	8.46	-53.4	-66.5	3.8	1.49e+00	0	44	104	0	77	17103
2026-01-03 09:33:02.96	348.83	8.39	-53.4	-66.5	3.8	1.49e+00	0	44	104	0	77	17245
2026-01-03 09:33:03.97	348.80	8.31	-53.3	-66.5	3.8	1.49e+00	0	44	104	0	77	17199
2026-01-03 09:33:04.97	348.76	8.23	-53.2	-66.4	3.8	1.49e+00	0	44	104	0	77	17083
2026-01-03 09:33:05.98	348.73	8.15	-53.3	-66.5	3.8	1.49e+00	0	43	104	0	77	17179
2026-01-03 09:33:06.98	348.69	8.07	-53.5	-66.5	3.8	1.49e+00	0	44	104	0	77	17156
2026-01-03 09:33:07.99	348.66	7.99	-53.5	-66.5	3.8	1.49e+00	0	43	104	0	77	17194
2026-01-03 09:33:08.99	348.62	7.91	-53.6	-66.6	3.8	1.49e+00	0	43	104	0	77	17317
2026-01-03 09:33:10.00	348.59	7.83	-53.6	-66.6	3.8	1.49e+00	0	44	104	0	77	17327
2026-01-03 09:33:11.00	348.55	7.76	-53.5	-66.5	3.8	1.49e+00	0	44	104	0	77	17227
2026-01-03 09:33:12.01	348.52	7.68	-54.0	-66.9	3.8	1.49e+00	0	44	104	0	78	16999
2026-01-03 09:33:13.01	348.48	7.60	-53.7	-66.7	3.8	1.49e+00	0	44	104	0	78	16663
2026-01-03 09:33:14.02	348.45	7.52	-53.6	-66.8	3.8	1.49e+00	0	44	104	0	78	16735
2026-01-03 09:33:15.02	348.42	7.45	-53.6	-66.7	3.8	1.49e+00	0	44	104	0	78	16658
2026-01-03 09:33:16.02	348.38	7.37	-53.8	-66.6	3.8	1.49e+00	0	44	104	0	78	16485
2026-01-03 09:33:17.03	348.35	7.29	-53.8	-66.7	3.8	1.49e+00	0	44	104	0	78	16583
2026-01-03 09:33:18.03	348.32	7.22	-53.6	-66.6	3.8	1.49e+00	0	44	104	0	78	16413
2026-01-03 09:33:19.04	348.28	7.14	-53.7	-66.6	3.8	1.49e+00	0	44	104	0	78	16392
2026-01-03 09:33:20.04	348.25	7.07	-53.7	-66.6	3.8	1.49e+00	0	44	104	0	78	16368
2026-01-03 09:33:21.05	348.22	6.99	-53.7	-66.6	3.8	1.49e+00	0	44	104	0	78	16399
2026-01-03 09:33:22.05	348.19	6.92	-53.7	-66.6	3.8	1.49e+00	0	44	104	0	78	16448
2026-01-03 09:33:23.06	348.15	6.84	-53.6	-66.6	3.8	1.49e+00	0	44	104	0	78	16419
2026-01-03 09:33:24.06	348.12	6.77	-53.5	-66.6	3.8	1.49e+00	0	44	104	0	78	16349
2026-01-03 09:33:25.07	348.09	6.69	-53.5	-66.6	3.8	1.49e+00	0	44	104	0	78	16409
2026-01-03 09:33:26.07	348.06	6.62	-53.4	-66.6	3.8	1.49e+00	0	44	104	0	78	16348
2026-01-03 09:33:27.07	348.03	6.54	-53.4	-66.6	3.8	1.49e+00	0	44	104	0	78	16322
2026-01-03 09:33:28.08	348.00	6.47	-53.4	-66.5	3.8	1.49e+00	0	44	104	0	78	16296
2026-01-03 09:33:29.08	347.96	6.39	-53.4	-66.6	3.8	1.49e+00	0	44	104	0	78	16333
2026-01-03 09:33:30.09	347.93	6.32	-53.7	-66.8	3.8	1.49e+00	0	44	104	0	78	16879
2026-01-03 09:33:31.09	347.90	6.25	-53.6	-66.7	3.8	1.49e+00	0	44	104	0	78	16576
2026-01-03 09:33:32.10	347.87	6.17	-53.5	-66.7	3.8	1.49e+00	0	44	104	0	78	16509
2026-01-03 09:33:33.10	347.84	6.10	-53.5	-66.7	3.8	1.49e+00	0	44	104	0	78	16505
2026-01-03 09:33:34.11	347.81	6.03	-53.5	-66.6	3.8	1.49e+00	0	44	104	0	78	16493
2026-01-03 09:33:35.11	347.78	5.95	-53.5	-66.6	3.8	1.49e+00	0	44	104	0	78	16437
2026-01-03 09:33:36.11	347.75	5.88	-53.5	-66.6	3.8	1.49e+00	0	44	104	0	78	16327
2026-01-03 09:33:37.12	347.72	5.81	-53.5	-66.6	3.8	1.49e+00	0	44	104	0	78	16420
2026-01-03 09:33:38.12	347.69	5.74	-53.5	-66.6	3.8	1.49e+00	0	44	104	0	78	16392
2026-01-03 09:33:39.13	347.66	5.66	-53.5	-66.6	3.8	1.49e+00	0	44	104	0	78	16394
2026-01-03 09:33:40.13	347.63	5.59	-53.4	-66.6	3.8	1.49e+00	0	44	104	0	78	16407
2026-01-03 09:33:41.14	347.60	5.52	-53.4	-66.6	3.8	1.49e+00	0	44	104	0	78	16393
2026-01-03 09:33:42.14	347.58	5.45	-53.5	-66.6	3.8	1.49e+00	0	44	104	0	78	16423
2026-01-03 09:33:43.15	347.55	5.38	-53.4	-66.6	3.8	1.49e+00	0	44	104	0	78	16356
2026-01-03 09:33:44.15	347.52	5.31	-53.4	-66.5	3.8	1.49e+00	0	44	104	0	78	16306
2026-01-03 09:33:45.15	347.49	5.24	-53.4	-66.5	3.8	1.49e+00	0	44	104	0	78	16279
2026-01-03 09:33:46.16	347.46	5.17	-53.4	-66.5	3.8	1.49e+00	0	44	104	0	78	16220
