passes_logs/2026/01/03/T1/T1__20260103_025459_AQUA_rec.log

#Pass ID: 20260103_025459_AQUA
#Satellite: AQUA
#Configuration: AQUA
#almurnet v.1.7.20251203
#Start time: 2026-01-03 02:54:59

#Version: 2.0.20230620
#Station: T1
#Location: 37.570604 lon 55.790049 lat
#TLE: 1 27424U 02022A   25365.92641127  .00002078  00000+0  42628-3 0  9999
#TLE: 2 27424  98.4058 327.1196 0001962  94.7781 340.6230 14.61783896258835

#Time	Az	El	Level	Level2	SNR	BER	BlckErr	Temp	State	Recorded	gain1	gain2
2026-01-03 02:54:59.78	2.68	5.00	-50.5	-71.6	3.8	7.40e-01	0	38	0	0	71	43892
2026-01-03 02:55:00.78	2.59	5.06	-46.6	-71.1	3.7	7.44e-01	0	38	104	0	63	65523
2026-01-03 02:55:01.78	2.49	5.12	-43.5	-69.1	3.3	7.65e-01	0	38	104	0	59	65535
2026-01-03 02:55:02.79	2.40	5.18	-43.5	-69.1	3.3	7.64e-01	0	38	104	0	59	65535
2026-01-03 02:55:03.79	2.30	5.25	-43.6	-69.1	3.3	7.68e-01	0	38	104	0	59	65535
2026-01-03 02:55:04.80	2.20	5.31	-43.5	-69.1	3.3	7.69e-01	0	38	104	0	59	65535
2026-01-03 02:55:05.80	2.10	5.37	-43.5	-69.1	3.3	7.65e-01	0	38	104	0	59	65535
2026-01-03 02:55:06.80	2.01	5.43	-43.5	-69.1	3.3	7.65e-01	0	38	104	0	59	65535
2026-01-03 02:55:07.81	1.91	5.50	-43.5	-69.1	3.3	7.65e-01	0	38	104	0	59	65535
2026-01-03 02:55:08.81	1.81	5.56	-43.5	-69.1	3.3	7.68e-01	0	38	104	0	59	65535
2026-01-03 02:55:09.82	1.71	5.62	-43.5	-69.1	3.3	7.62e-01	0	38	104	0	59	65535
2026-01-03 02:55:10.82	1.61	5.69	-43.6	-69.1	3.3	7.66e-01	0	38	104	0	59	65535
2026-01-03 02:55:11.83	1.51	5.75	-43.6	-69.1	3.3	7.72e-01	0	38	104	0	59	65535
2026-01-03 02:55:12.83	1.41	5.81	-43.6	-69.1	3.3	7.66e-01	0	38	104	0	59	65535
2026-01-03 02:55:13.83	1.31	5.88	-43.6	-69.1	3.3	7.67e-01	0	38	104	0	59	65535
2026-01-03 02:55:14.84	1.20	5.94	-43.6	-69.1	3.3	7.67e-01	0	38	104	0	59	65535
2026-01-03 02:55:15.84	1.10	6.00	-43.6	-69.1	3.3	7.66e-01	0	38	104	0	59	65535
2026-01-03 02:55:16.84	1.00	6.07	-43.6	-69.1	3.3	7.68e-01	0	38	104	0	59	65535
2026-01-03 02:55:17.85	0.89	6.13	-43.6	-69.1	3.4	7.66e-01	0	38	104	0	59	65535
2026-01-03 02:55:18.85	0.79	6.20	-43.6	-69.1	3.3	7.65e-01	0	38	104	0	59	65534
2026-01-03 02:55:19.86	0.69	6.26	-43.6	-69.1	3.3	7.64e-01	0	38	104	0	59	65535
2026-01-03 02:55:20.86	0.58	6.32	-43.6	-69.1	3.3	7.65e-01	0	38	104	0	59	65535
2026-01-03 02:55:21.87	0.47	6.39	-43.6	-69.1	3.3	7.65e-01	0	38	104	0	59	65534
2026-01-03 02:55:22.87	0.37	6.45	-43.6	-69.1	3.3	7.70e-01	0	38	104	0	59	65534
2026-01-03 02:55:23.88	0.26	6.52	-43.7	-69.1	3.3	7.67e-01	0	38	104	0	59	65535
2026-01-03 02:55:24.88	0.15	6.58	-43.6	-69.1	3.3	7.67e-01	0	38	104	0	59	65535
2026-01-03 02:55:25.88	0.05	6.65	-43.6	-69.1	3.3	7.66e-01	0	38	104	0	59	65535
2026-01-03 02:55:26.89	359.94	6.71	-43.6	-69.1	3.3	7.65e-01	0	39	104	0	59	65535
2026-01-03 02:55:27.89	359.83	6.78	-43.6	-69.1	3.3	7.66e-01	0	38	104	0	59	65535
2026-01-03 02:55:28.90	359.72	6.84	-43.6	-69.1	3.3	7.67e-01	0	38	104	0	59	65535
2026-01-03 02:55:29.90	359.61	6.91	-43.6	-69.1	3.3	7.65e-01	0	39	104	0	59	65535
2026-01-03 02:55:30.90	359.50	6.97	-43.6	-69.1	3.3	7.69e-01	0	38	104	0	59	65535
2026-01-03 02:55:31.91	359.39	7.04	-43.6	-69.1	3.3	7.65e-01	0	39	104	0	59	65535
2026-01-03 02:55:32.91	359.28	7.10	-43.5	-69.1	3.4	7.68e-01	0	39	104	0	59	65535
2026-01-03 02:55:33.92	359.16	7.17	-43.5	-69.1	3.3	7.69e-01	0	39	104	0	59	65535
2026-01-03 02:55:34.92	359.05	7.23	-43.5	-69.1	3.3	7.68e-01	0	39	104	0	59	65535
2026-01-03 02:55:35.93	358.94	7.30	-43.6	-69.1	3.3	7.68e-01	0	38	104	0	59	65535
2026-01-03 02:55:36.93	358.82	7.36	-43.6	-69.1	3.3	7.67e-01	0	39	104	0	59	65535
2026-01-03 02:55:37.93	358.71	7.43	-43.6	-69.1	3.3	7.70e-01	0	38	104	0	59	65535
2026-01-03 02:55:38.94	358.59	7.49	-43.6	-69.1	3.3	7.67e-01	0	39	104	0	59	65535
2026-01-03 02:55:39.94	358.48	7.56	-43.6	-69.1	3.4	7.61e-01	0	38	104	0	59	65535
2026-01-03 02:55:40.95	358.36	7.63	-43.6	-69.1	3.4	7.64e-01	0	39	104	0	59	65535
2026-01-03 02:55:41.95	358.25	7.69	-43.5	-69.1	3.4	7.64e-01	0	39	104	0	59	65534
2026-01-03 02:55:42.96	358.13	7.76	-43.6	-69.1	3.4	7.63e-01	0	39	104	0	59	65535
2026-01-03 02:55:43.96	358.01	7.82	-43.4	-68.6	3.4	7.72e-01	0	39	104	0	58	65535
2026-01-03 02:55:44.97	357.89	7.89	-43.3	-68.6	3.3	7.67e-01	0	39	104	0	58	65535
2026-01-03 02:55:45.97	357.77	7.96	-43.4	-68.6	3.3	7.66e-01	0	39	104	0	58	65535
2026-01-03 02:55:46.98	357.65	8.02	-43.4	-68.6	3.3	7.66e-01	0	39	104	0	58	65535
2026-01-03 02:55:47.98	357.53	8.09	-43.3	-68.6	3.3	7.69e-01	0	39	104	0	58	65535
2026-01-03 02:55:48.98	357.41	8.16	-43.4	-68.6	3.3	7.70e-01	0	39	104	0	58	65535
2026-01-03 02:55:49.99	357.29	8.22	-43.4	-68.6	3.3	7.67e-01	0	39	104	0	58	65535
2026-01-03 02:55:50.99	357.17	8.29	-43.3	-68.6	3.4	7.69e-01	0	39	104	0	58	65535
2026-01-03 02:55:52.00	357.04	8.36	-43.3	-68.6	3.6	7.53e-01	0	39	104	0	58	65533
2026-01-03 02:55:53.00	356.92	8.42	-43.3	-68.2	3.8	7.47e-01	0	39	104	0	58	62315
2026-01-03 02:55:54.01	356.80	8.49	-43.3	-67.2	3.8	7.46e-01	0	39	104	0	58	55516
2026-01-03 02:55:55.01	356.67	8.56	-43.2	-66.3	3.8	7.44e-01	0	39	104	0	58	50303
2026-01-03 02:55:56.01	356.55	8.62	-43.2	-65.5	3.8	7.44e-01	0	39	104	0	58	45459
2026-01-03 02:55:57.02	356.42	8.69	-43.1	-64.5	3.8	7.46e-01	0	39	104	0	58	40896
2026-01-03 02:55:58.02	356.29	8.76	-43.0	-63.5	3.8	7.42e-01	0	39	104	0	58	36515
2026-01-03 02:55:59.03	356.16	8.83	-42.8	-62.5	3.8	7.47e-01	0	39	104	0	57	34411
2026-01-03 02:56:00.03	356.04	8.89	-42.7	-61.6	3.8	7.47e-01	0	39	104	0	57	30849
2026-01-03 02:56:01.04	355.91	8.96	-42.6	-61.0	3.8	7.45e-01	0	39	104	0	57	28953
2026-01-03 02:56:02.04	355.78	9.03	-42.6	-60.8	3.8	7.45e-01	0	39	104	0	57	28246
2026-01-03 02:56:03.05	355.65	9.10	-43.1	-61.9	3.8	7.38e-01	0	39	104	0	57	32009
2026-01-03 02:56:04.05	355.52	9.16	-45.3	-69.7	3.8	7.48e-01	0	39	104	0	61	62188
2026-01-03 02:56:05.05	355.39	9.23	-40.7	-56.5	3.8	7.45e-01	0	39	104	0	53	21516
2026-01-03 02:56:06.05	355.25	9.30	-41.8	-58.8	3.8	7.47e-01	0	39	104	0	54	26462
2026-01-03 02:56:07.05	355.12	9.37	-41.1	-57.9	3.8	7.45e-01	0	39	104	0	53	25276
2026-01-03 02:56:08.06	354.99	9.43	-40.9	-56.4	3.8	7.47e-01	0	39	104	0	53	21332
2026-01-03 02:56:09.06	354.85	9.50	-41.0	-56.3	3.8	7.45e-01	0	39	104	0	53	21029
2026-01-03 02:56:10.35	354.68	9.59	-41.2	-56.3	3.8	7.44e-01	0	39	104	0	53	21022
2026-01-03 02:56:11.10	354.58	9.64	-41.2	-56.2	3.8	7.48e-01	0	39	104	0	53	21003
2026-01-03 02:56:12.39	354.40	9.73	-41.4	-56.1	3.8	7.43e-01	0	39	104	0	53	20773
2026-01-03 02:56:13.11	354.31	9.78	-41.9	-56.2	3.8	7.45e-01	0	39	104	0	54	19823
2026-01-03 02:56:14.40	354.13	9.86	-43.6	-64.9	4.1	7.38e-01	0	39	104	0	58	42663
2026-01-03 02:56:15.11	354.03	9.91	-44.3	-59.2	3.8	7.42e-01	0	39	104	0	59	20938
2026-01-03 02:56:16.85	353.79	10.03	-42.6	-56.1	3.8	7.45e-01	0	39	104	0	56	17302
2026-01-03 02:56:17.42	353.71	10.07	-42.7	-56.0	3.8	7.45e-01	0	39	104	0	56	17203
2026-01-03 02:56:19.01	353.49	10.18	-42.8	-56.0	3.8	7.45e-01	0	39	104	0	56	17175
2026-01-03 02:56:19.59	353.40	10.22	-42.8	-56.1	3.8	7.43e-01	0	39	104	0	56	17465
2026-01-03 02:56:21.16	353.18	10.33	-42.4	-55.9	3.8	7.47e-01	0	39	104	0	56	17020
2026-01-03 02:56:21.92	353.07	10.38	-42.4	-56.3	3.8	7.48e-01	0	39	104	0	56	17702
2026-01-03 02:56:23.21	352.89	10.47	-45.5	-69.3	3.9	7.39e-01	0	39	104	0	62	56105
2026-01-03 02:56:24.08	352.76	10.53	-42.6	-59.7	3.9	7.41e-01	0	39	104	0	57	24701
2026-01-03 02:56:25.54	352.55	10.63	-41.7	-56.0	3.8	7.45e-01	0	39	104	0	55	18201
2026-01-03 02:56:26.26	352.44	10.67	-41.0	-46.2	20.8	6.04e-01	0	39	104	0	54	6259
2026-01-03 02:56:27.55	352.25	10.76	-40.9	-46.2	23.4	6.02e-01	0	39	0	2097152	53	6583
2026-01-03 02:56:28.26	352.15	10.81	-40.9	-46.2	23.4	6.02e-01	0	39	0	3145728	53	6586
2026-01-03 02:56:29.56	351.96	10.90	-40.9	-46.2	23.3	6.02e-01	0	39	0	5767168	53	6633
2026-01-03 02:56:30.27	351.85	10.95	-41.1	-46.1	23.4	6.00e-01	0	39	0	6815744	53	6552
2026-01-03 02:56:31.56	351.66	11.04	-41.1	-46.1	23.5	6.03e-01	0	39	0	9437184	53	6555
2026-01-03 02:56:32.28	351.55	11.09	-41.2	-46.2	23.5	6.01e-01	0	39	0	10485760	53	6572
2026-01-03 02:56:33.57	351.35	11.18	-41.8	-46.0	23.7	6.01e-01	0	39	0	13107200	54	6071
2026-01-03 02:56:34.28	351.24	11.23	-42.1	-45.9	23.8	6.03e-01	0	39	0	14680064	54	6024
2026-01-03 02:56:35.57	351.05	11.32	-42.3	-45.9	23.7	6.01e-01	0	39	0	16777216	55	5715
2026-01-03 02:56:36.29	350.94	11.36	-42.3	-45.8	23.9	6.01e-01	0	39	0	18350080	55	5642
2026-01-03 02:56:37.58	350.74	11.45	-42.6	-45.9	23.8	6.02e-01	0	39	0	20447232	55	5715
2026-01-03 02:56:38.29	350.63	11.50	-42.7	-46.0	23.8	6.02e-01	0	39	0	22020096	56	5451
2026-01-03 02:56:39.73	350.40	11.60	-42.7	-46.2	23.7	6.00e-01	0	39	0	24641536	56	5576
2026-01-03 02:56:40.44	350.29	11.65	-42.5	-46.0	23.8	6.02e-01	0	39	0	26214400	56	5448
2026-01-03 02:56:41.73	350.08	11.74	-42.3	-45.8	24.0	6.04e-01	0	39	0	28311552	56	5325
2026-01-03 02:56:42.44	349.97	11.79	-42.2	-45.8	24.0	6.00e-01	0	39	0	29884416	56	5314
2026-01-03 02:56:43.73	349.77	11.88	-41.8	-45.8	23.9	6.01e-01	0	39	0	32505856	55	5604
2026-01-03 02:56:44.45	349.65	11.93	-41.7	-45.7	24.1	6.04e-01	0	39	0	33554432	55	5533
2026-01-03 02:56:45.74	349.44	12.02	-41.6	-45.7	23.9	6.00e-01	0	39	0	36175872	55	5583
2026-01-03 02:56:46.45	349.33	12.07	-41.5	-45.7	23.9	6.02e-01	0	39	0	37224448	55	5575
2026-01-03 02:56:47.74	349.12	12.16	-41.5	-45.7	23.9	6.03e-01	0	39	0	39845888	54	5913
2026-01-03 02:56:48.46	349.00	12.21	-41.5	-45.8	23.9	6.03e-01	0	39	0	40894464	54	5933
2026-01-03 02:56:49.75	348.79	12.29	-41.4	-45.7	23.9	5.99e-01	0	39	0	43515904	54	5905
2026-01-03 02:56:50.66	348.63	12.36	-41.4	-45.7	23.9	6.02e-01	0	39	0	45088768	54	5922
2026-01-03 02:56:51.98	348.41	12.45	-41.7	-45.8	24.0	6.00e-01	0	39	0	47710208	54	5929
2026-01-03 02:56:52.71	348.29	12.50	-41.7	-45.6	24.1	6.03e-01	0	39	0	49283072	54	5820
2026-01-03 02:56:54.00	348.07	12.59	-41.9	-45.5	24.2	6.01e-01	0	39	0	51380224	54	5741
2026-01-03 02:56:54.72	347.95	12.64	-42.1	-45.5	24.3	6.01e-01	0	39	0	52953088	54	5739
2026-01-03 02:56:56.01	347.73	12.73	-42.2	-45.5	24.2	6.03e-01	0	39	0	55050240	55	5432
2026-01-03 02:56:56.72	347.61	12.78	-42.3	-45.5	24.2	6.01e-01	0	39	0	56623104	55	5459
2026-01-03 02:56:58.01	347.39	12.86	-42.3	-45.6	24.1	6.02e-01	0	39	0	58720256	55	5488
2026-01-03 02:56:58.72	347.27	12.91	-42.2	-45.6	24.1	6.01e-01	0	39	0	60293120	55	5528
2026-01-03 02:57:00.01	347.04	13.00	-42.1	-45.7	24.1	6.00e-01	0	39	0	62914560	55	5544
2026-01-03 02:57:00.73	346.92	13.05	-42.2	-45.8	23.9	6.01e-01	0	39	0	63963136	55	5640
2026-01-03 02:57:02.01	346.69	13.14	-42.1	-45.8	23.9	6.01e-01	0	39	0	66584576	55	5635
2026-01-03 02:57:02.73	346.57	13.19	-41.9	-45.7	24.0	6.01e-01	0	39	0	67633152	55	5587
2026-01-03 02:57:04.16	346.31	13.29	-41.9	-45.7	24.1	6.03e-01	0	39	0	70254592	55	5551
2026-01-03 02:57:04.88	346.18	13.34	-42.0	-45.7	24.0	6.01e-01	0	39	0	71827456	55	5541
2026-01-03 02:57:06.22	345.94	13.43	-42.3	-45.6	24.1	6.01e-01	0	39	0	74448896	55	5517
2026-01-03 02:57:06.93	345.81	13.48	-42.5	-45.7	24.1	6.03e-01	0	39	0	75497472	55	5534
2026-01-03 02:57:08.30	345.57	13.57	-43.0	-45.9	24.0	6.01e-01	0	39	0	78118912	56	5371
2026-01-03 02:57:09.02	345.44	13.62	-43.0	-45.8	24.0	6.04e-01	0	39	0	79691776	56	5330
2026-01-03 02:57:10.31	345.20	13.71	-43.0	-45.7	24.2	6.03e-01	0	39	0	81788928	56	5229
2026-01-03 02:57:11.03	345.07	13.76	-42.9	-45.7	24.2	6.03e-01	0	39	0	83361792	56	5253
2026-01-03 02:57:12.31	344.83	13.85	-42.8	-45.6	24.3	6.02e-01	0	39	0	85983232	56	5194
2026-01-03 02:57:13.03	344.70	13.90	-42.7	-45.6	24.3	6.01e-01	0	39	0	87031808	56	5199
2026-01-03 02:57:14.32	344.46	13.98	-42.6	-45.7	24.3	6.05e-01	0	39	0	89653248	56	5236
2026-01-03 02:57:15.04	344.32	14.03	-42.5	-45.6	24.3	6.04e-01	0	39	0	90701824	56	5199
2026-01-03 02:57:16.33	344.08	14.12	-42.5	-45.7	24.2	6.01e-01	0	39	0	93323264	56	5224
2026-01-03 02:57:17.06	343.94	14.17	-42.5	-45.6	24.2	6.01e-01	0	39	0	94896128	56	5210
2026-01-03 02:57:18.67	343.63	14.28	-42.5	-45.5	24.3	6.02e-01	0	39	0	97517568	56	5154
2026-01-03 02:57:19.24	343.52	14.32	-42.5	-45.5	24.4	6.04e-01	0	39	0	98566144	56	5119
2026-01-03 02:57:21.04	343.17	14.44	-42.4	-45.5	24.5	6.02e-01	0	39	0	102236160	56	5101
2026-01-03 02:57:21.62	343.06	14.48	-42.3	-45.4	24.4	6.01e-01	0	39	0	103284736	56	5073
2026-01-03 02:57:23.22	342.75	14.59	-42.1	-45.4	24.5	6.03e-01	0	39	0	106430464	56	5070
2026-01-03 02:57:23.80	342.64	14.63	-42.1	-45.5	24.4	6.00e-01	0	39	0	107479040	56	5101
2026-01-03 02:57:25.40	342.32	14.73	-42.0	-45.5	24.3	6.02e-01	0	39	0	110100480	56	5146
2026-01-03 02:57:25.98	342.20	14.77	-42.0	-45.5	24.4	6.00e-01	0	39	0	111149056	56	5134
2026-01-03 02:57:27.55	341.89	14.88	-42.0	-45.4	24.3	6.00e-01	0	39	0	114294784	55	5382
2026-01-03 02:57:28.14	341.77	14.92	-42.1	-45.4	24.4	6.03e-01	0	39	0	115343360	55	5399
2026-01-03 02:57:29.72	341.46	15.02	-42.6	-45.5	24.2	6.05e-01	0	39	0	118489088	55	5464
2026-01-03 02:57:30.48	341.30	15.07	-42.7	-45.5	24.3	6.01e-01	0	39	0	120061952	56	5158
2026-01-03 02:57:31.76	341.04	15.16	-42.7	-45.6	24.3	6.00e-01	0	39	0	122159104	56	5160
2026-01-03 02:57:32.59	340.87	15.21	-42.7	-45.5	24.4	6.03e-01	0	39	0	123731968	56	5124
2026-01-03 02:57:34.04	340.57	15.31	-42.6	-45.5	24.4	6.03e-01	0	39	0	126353408	56	5129
2026-01-03 02:57:34.76	340.42	15.35	-42.6	-45.4	24.4	6.00e-01	0	39	0	127926272	56	5098
2026-01-03 02:57:36.04	340.16	15.44	-42.8	-45.4	24.5	6.03e-01	0	39	0	130547712	56	5092
2026-01-03 02:57:36.76	340.01	15.49	-42.9	-45.5	24.4	6.01e-01	0	39	0	131596288	56	5120
2026-01-03 02:57:38.29	339.69	15.59	-43.0	-45.5	24.4	6.03e-01	0	39	0	134742016	56	5154
2026-01-03 02:57:39.00	339.54	15.63	-42.9	-45.5	24.4	6.03e-01	0	39	0	135790592	56	5152
2026-01-03 02:57:40.29	339.26	15.71	-42.6	-45.6	24.3	6.04e-01	0	39	0	138412032	56	5178
2026-01-03 02:57:41.01	339.11	15.76	-42.5	-45.6	24.4	6.01e-01	0	39	0	139460608	56	5175
2026-01-03 02:57:42.30	338.83	15.84	-42.5	-45.6	24.2	6.03e-01	0	39	0	142082048	56	5217
2026-01-03 02:57:43.02	338.68	15.89	-42.3	-45.5	24.4	6.03e-01	0	39	0	143130624	56	5142
2026-01-03 02:57:44.31	338.40	15.97	-42.6	-45.6	24.3	6.02e-01	0	39	0	145752064	56	5172
2026-01-03 02:57:45.03	338.24	16.02	-42.7	-45.5	24.4	6.03e-01	0	39	0	147324928	56	5149
2026-01-03 02:57:46.31	337.96	16.10	-42.8	-45.5	24.4	6.02e-01	0	39	0	149422080	56	5131
2026-01-03 02:57:47.03	337.81	16.15	-42.9	-45.5	24.4	6.01e-01	0	39	0	150994944	56	5149
2026-01-03 02:57:48.32	337.52	16.23	-43.0	-45.5	24.4	6.00e-01	0	39	0	153092096	56	5156
2026-01-03 02:57:49.21	337.33	16.28	-43.0	-45.5	24.4	6.03e-01	0	39	0	155189248	56	5147
2026-01-03 02:57:50.36	337.07	16.36	-42.8	-45.4	24.5	6.02e-01	0	39	0	157286400	56	5091
2026-01-03 02:57:51.22	336.88	16.41	-42.8	-45.5	24.3	6.02e-01	0	39	0	158859264	56	5124
2026-01-03 02:57:52.36	336.62	16.48	-42.8	-45.6	24.3	6.02e-01	0	39	0	160956416	56	5206
2026-01-03 02:57:53.22	336.43	16.53	-42.7	-45.5	24.4	6.00e-01	0	39	0	162529280	56	5148
2026-01-03 02:57:54.37	336.17	16.61	-42.7	-45.5	24.4	6.01e-01	0	39	0	164626432	56	5156
2026-01-03 02:57:55.23	335.97	16.66	-42.8	-45.5	24.4	6.05e-01	0	39	0	166199296	56	5151
2026-01-03 02:57:56.37	335.71	16.73	-42.9	-45.5	24.4	6.00e-01	0	39	0	168296448	56	5137
2026-01-03 02:57:57.23	335.52	16.78	-42.9	-45.5	24.3	6.02e-01	0	39	0	169869312	56	5147
2026-01-03 02:57:58.38	335.25	16.85	-43.0	-45.6	24.4	6.00e-01	0	39	0	171966464	56	5170
2026-01-03 02:57:59.24	335.05	16.90	-43.0	-45.6	24.3	6.03e-01	0	39	0	174063616	56	5205
2026-01-03 02:58:00.39	334.79	16.97	-42.9	-45.6	24.3	6.02e-01	0	39	0	176160768	56	5186
2026-01-03 02:58:01.24	334.59	17.02	-42.8	-45.5	24.4	6.02e-01	0	39	0	177733632	56	5138
2026-01-03 02:58:02.60	334.27	17.10	-42.7	-45.5	24.4	6.02e-01	0	39	0	179830784	56	5132
2026-01-03 02:58:03.32	334.10	17.14	-42.7	-45.5	24.5	6.02e-01	0	39	0	181403648	56	5118
2026-01-03 02:58:04.61	333.79	17.22	-42.7	-45.6	24.4	6.03e-01	0	39	0	184025088	56	5163
2026-01-03 02:58:05.32	333.63	17.26	-42.7	-45.5	24.4	6.00e-01	0	39	0	185073664	56	5138
2026-01-03 02:58:06.61	333.32	17.34	-42.7	-45.5	24.4	6.03e-01	0	39	0	187695104	56	5132
2026-01-03 02:58:07.32	333.15	17.38	-42.8	-45.7	24.3	6.02e-01	0	39	0	188743680	56	5229
2026-01-03 02:58:08.61	332.84	17.45	-42.7	-45.7	24.2	6.05e-01	0	39	0	191365120	56	5278
2026-01-03 02:58:09.33	332.66	17.49	-42.6	-45.7	24.2	6.02e-01	0	39	0	192413696	56	5259
2026-01-03 02:58:10.62	332.35	17.57	-42.6	-45.7	24.2	6.00e-01	0	39	0	195035136	56	5278
2026-01-03 02:58:11.48	332.14	17.61	-42.6	-45.8	24.2	6.01e-01	0	39	0	196608000	56	5292
2026-01-03 02:58:12.63	331.86	17.68	-42.5	-45.6	24.4	6.00e-01	0	39	0	198705152	56	5162
2026-01-03 02:58:13.49	331.65	17.73	-42.6	-45.5	24.4	6.02e-01	0	39	0	200278016	56	5154
2026-01-03 02:58:14.63	331.37	17.79	-42.8	-45.6	24.3	6.00e-01	0	39	0	202375168	56	5189
2026-01-03 02:58:15.49	331.16	17.84	-43.0	-45.6	24.3	6.03e-01	0	39	0	204472320	56	5205
2026-01-03 02:58:16.64	330.87	17.90	-43.1	-45.7	24.3	6.04e-01	0	39	0	206569472	56	5249
2026-01-03 02:58:17.50	330.66	17.95	-43.2	-45.8	24.2	6.02e-01	0	39	0	208142336	56	5289
2026-01-03 02:58:18.65	330.37	18.01	-43.1	-45.7	24.3	6.02e-01	0	39	0	210239488	56	5268
2026-01-03 02:58:19.50	330.16	18.05	-43.2	-45.8	24.2	6.01e-01	0	39	0	211812352	57	5008
2026-01-03 02:58:20.65	329.87	18.11	-43.1	-45.8	24.2	6.03e-01	0	39	0	213909504	57	5011
2026-01-03 02:58:21.51	329.65	18.16	-42.9	-45.7	24.2	6.03e-01	0	39	0	215482368	57	4977
2026-01-03 02:58:22.65	329.36	18.22	-42.7	-45.7	24.3	6.02e-01	0	39	0	217579520	57	4944
2026-01-03 02:58:23.55	329.13	18.26	-42.7	-45.7	24.3	6.02e-01	0	39	0	219152384	57	4982
2026-01-03 02:58:24.55	328.87	18.32	-42.6	-45.7	24.2	6.01e-01	0	39	0	221249536	57	4966
2026-01-03 02:58:25.56	328.62	18.37	-42.5	-45.7	24.3	6.02e-01	0	39	0	223346688	57	4957
2026-01-03 02:58:26.56	328.36	18.42	-42.7	-45.9	24.1	6.02e-01	0	39	0	224919552	57	5050
2026-01-03 02:58:27.56	328.10	18.47	-42.5	-45.6	24.3	6.01e-01	0	39	0	227016704	57	4903
2026-01-03 02:58:28.56	327.84	18.52	-42.6	-45.6	24.3	6.02e-01	0	39	0	228589568	57	4924
2026-01-03 02:58:29.57	327.58	18.56	-42.7	-45.6	24.4	6.04e-01	0	39	0	230686720	57	4903
2026-01-03 02:58:30.57	327.32	18.61	-42.8	-45.7	24.3	6.00e-01	0	39	0	232259584	57	4959
2026-01-03 02:58:31.57	327.05	18.66	-42.8	-45.6	24.3	6.00e-01	0	39	0	234356736	57	4920
2026-01-03 02:58:32.57	326.79	18.71	-42.8	-45.7	24.3	6.02e-01	0	39	0	236453888	57	4939
2026-01-03 02:58:33.58	326.52	18.76	-43.0	-45.8	24.1	6.02e-01	0	39	0	238026752	57	5040
2026-01-03 02:58:34.58	326.26	18.80	-43.0	-45.8	24.2	6.01e-01	0	39	0	240123904	57	5002
2026-01-03 02:58:35.58	325.99	18.85	-43.0	-45.8	24.2	6.03e-01	0	39	0	242221056	57	5011
2026-01-03 02:58:36.59	325.72	18.89	-43.2	-45.9	24.1	6.02e-01	0	39	0	243793920	57	5068
2026-01-03 02:58:37.59	325.46	18.94	-43.2	-45.8	24.1	6.01e-01	0	39	0	245891072	57	5036
2026-01-03 02:58:38.59	325.19	18.98	-43.1	-45.8	24.2	6.02e-01	0	39	0	247463936	57	5014
2026-01-03 02:58:39.60	324.92	19.03	-42.9	-45.7	24.3	6.02e-01	0	39	0	249561088	57	4969
2026-01-03 02:58:40.60	324.65	19.07	-42.8	-45.7	24.3	6.03e-01	0	39	0	251133952	57	4964
2026-01-03 02:58:41.60	324.38	19.11	-42.8	-45.9	24.2	6.01e-01	0	39	0	253231104	57	5046
2026-01-03 02:58:42.97	324.01	19.17	-42.8	-45.9	24.1	6.02e-01	0	39	0	255852544	57	5046
2026-01-03 02:58:43.72	323.80	19.20	-42.9	-45.9	24.1	6.02e-01	0	39	0	256901120	57	5068
2026-01-03 02:58:45.01	323.45	19.25	-43.1	-45.9	24.1	6.01e-01	0	39	0	259522560	57	5087
2026-01-03 02:58:45.72	323.25	19.28	-43.2	-45.9	24.0	6.04e-01	0	39	0	261095424	57	5096
2026-01-03 02:58:47.01	322.90	19.33	-43.2	-45.8	24.1	6.01e-01	0	39	0	263192576	57	5017
2026-01-03 02:58:47.72	322.70	19.36	-43.2	-45.8	24.2	6.02e-01	0	39	0	264765440	57	5010
2026-01-03 02:58:49.01	322.35	19.41	-43.3	-46.1	24.2	6.00e-01	0	39	0	266862592	57	5163
2026-01-03 02:58:49.73	322.15	19.44	-43.3	-46.0	24.1	6.02e-01	0	39	0	268435456	57	5136
2026-01-03 02:58:51.02	321.79	19.48	-43.3	-46.2	24.0	6.01e-01	0	39	0	271056896	57	5228
2026-01-03 02:58:51.74	321.59	19.51	-43.2	-45.9	24.2	6.00e-01	0	39	0	272105472	57	5087
2026-01-03 02:58:53.02	321.23	19.56	-43.2	-46.1	24.1	6.02e-01	0	39	0	274726912	57	5177
2026-01-03 02:58:53.74	321.03	19.58	-43.1	-46.0	24.2	6.00e-01	0	39	0	275775488	57	5118
2026-01-03 02:58:55.03	320.67	19.63	-43.2	-46.1	24.0	6.04e-01	0	39	0	278396928	57	5195
2026-01-03 02:58:55.74	320.47	19.65	-43.2	-46.0	24.1	6.02e-01	0	39	0	279969792	57	5148
2026-01-03 02:58:57.04	320.10	19.69	-43.2	-46.1	24.1	6.01e-01	0	39	0	282066944	57	5179
2026-01-03 02:58:57.75	319.90	19.72	-43.3	-46.1	24.1	6.00e-01	0	39	0	283639808	57	5178
2026-01-03 02:58:59.04	319.54	19.76	-43.4	-46.2	23.9	6.01e-01	0	39	0	285736960	57	5275
2026-01-03 02:58:59.75	319.33	19.78	-43.3	-46.1	24.1	6.02e-01	0	39	0	287309824	57	5176
2026-01-03 02:59:01.05	318.96	19.82	-43.2	-46.1	24.0	5.99e-01	0	39	0	289931264	57	5192
2026-01-03 02:59:01.76	318.76	19.84	-43.3	-46.2	23.9	6.02e-01	0	39	0	290979840	57	5253
2026-01-03 02:59:03.05	318.39	19.88	-43.3	-46.3	23.9	6.03e-01	0	39	0	293601280	57	5298
2026-01-03 02:59:03.77	318.19	19.90	-43.5	-46.4	23.7	6.03e-01	0	39	0	294649856	57	5370
2026-01-03 02:59:05.12	317.80	19.94	-43.3	-46.0	24.2	6.03e-01	0	39	0	297271296	57	5111
2026-01-03 02:59:05.84	317.59	19.96	-43.5	-46.3	23.9	6.03e-01	0	39	0	298844160	57	5289
2026-01-03 02:59:07.17	317.21	19.99	-43.4	-46.0	24.2	6.00e-01	0	39	0	300941312	57	5152
2026-01-03 02:59:07.89	317.00	20.01	-43.7	-46.5	23.7	6.00e-01	0	39	0	302514176	58	5112
2026-01-03 02:59:09.23	316.62	20.05	-43.5	-46.2	24.0	6.02e-01	0	39	0	305135616	58	4962
2026-01-03 02:59:09.95	316.41	20.06	-43.7	-46.4	23.7	6.01e-01	0	39	0	306184192	58	5092
2026-01-03 02:59:11.27	316.02	20.09	-43.3	-46.0	24.1	6.02e-01	0	39	0	308805632	58	4841
2026-01-03 02:59:11.98	315.82	20.11	-43.6	-46.4	23.7	5.99e-01	0	39	0	310378496	58	5080
2026-01-03 02:59:13.27	315.44	20.14	-43.5	-46.5	23.7	6.02e-01	0	39	0	312475648	58	5144
2026-01-03 02:59:13.99	315.23	20.16	-43.5	-46.7	23.4	6.02e-01	0	39	0	314048512	58	5231
2026-01-03 02:59:15.28	314.86	20.18	-43.6	-46.8	23.4	6.01e-01	0	39	0	316145664	58	5320
2026-01-03 02:59:16.00	314.65	20.20	-43.7	-46.9	23.3	6.03e-01	0	39	0	317718528	58	5344
2026-01-03 02:59:17.29	314.27	20.22	-44.1	-47.3	22.9	6.01e-01	0	39	0	320339968	58	5597
2026-01-03 02:59:18.00	314.06	20.23	-43.6	-46.4	23.7	6.01e-01	0	39	0	321388544	58	5098
2026-01-03 02:59:19.29	313.68	20.26	-44.0	-46.8	23.3	6.01e-01	0	39	0	324009984	58	5280
2026-01-03 02:59:20.12	313.44	20.27	-43.5	-46.1	24.0	6.03e-01	0	39	0	325582848	58	4887
2026-01-03 02:59:21.27	313.10	20.29	-43.8	-46.5	23.6	6.00e-01	0	39	0	327680000	58	5113
2026-01-03 02:59:22.13	312.85	20.30	-43.7	-46.3	24.0	6.02e-01	0	39	0	329252864	58	4995
2026-01-03 02:59:23.28	312.51	20.32	-43.8	-46.5	23.6	6.00e-01	0	39	0	331350016	59	4822
2026-01-03 02:59:24.14	312.25	20.33	-43.7	-46.4	23.8	6.04e-01	0	39	0	332922880	58	5047
2026-01-03 02:59:25.29	311.91	20.35	-43.2	-45.7	24.3	6.03e-01	0	39	0	335020032	58	4697
2026-01-03 02:59:26.14	311.66	20.36	-43.9	-46.8	23.5	6.00e-01	0	39	0	336592896	58	5284
2026-01-03 02:59:27.29	311.32	20.37	-43.4	-46.2	24.0	6.00e-01	0	39	0	338690048	58	4931
2026-01-03 02:59:28.15	311.07	20.38	-43.9	-46.9	23.3	6.03e-01	0	39	0	340262912	58	5352
2026-01-03 02:59:29.30	310.73	20.39	-43.5	-46.4	23.8	6.03e-01	0	39	0	342884352	58	5062
2026-01-03 02:59:30.16	310.47	20.40	-43.9	-46.9	23.3	6.04e-01	0	39	0	344457216	58	5384
2026-01-03 02:59:31.30	310.13	20.41	-43.5	-46.4	23.8	6.01e-01	0	39	0	346554368	58	5049
2026-01-03 02:59:32.16	309.88	20.42	-43.8	-46.7	23.5	6.02e-01	0	39	0	348127232	58	5229
2026-01-03 02:59:33.53	309.47	20.43	-43.7	-46.4	23.8	6.04e-01	0	39	0	350748672	58	5050
2026-01-03 02:59:34.25	309.25	20.43	-44.0	-46.7	23.5	6.03e-01	0	39	0	351797248	58	5267
2026-01-03 02:59:35.54	308.87	20.44	-44.1	-46.8	23.4	6.03e-01	0	39	0	354418688	58	5285
2026-01-03 02:59:36.26	308.66	20.44	-44.1	-46.8	23.3	6.02e-01	0	39	0	355467264	59	5031
2026-01-03 02:59:37.55	308.27	20.45	-44.1	-46.8	23.3	6.00e-01	0	39	0	358088704	59	5021
2026-01-03 02:59:38.28	308.06	20.45	-43.8	-46.4	23.7	6.02e-01	0	39	0	359661568	59	4811
2026-01-03 02:59:39.57	307.67	20.45	-43.5	-46.1	24.0	5.99e-01	0	39	0	361758720	59	4648
2026-01-03 02:59:40.28	307.46	20.46	-44.0	-46.7	23.5	6.03e-01	0	39	0	363331584	59	4972
2026-01-03 02:59:41.57	307.08	20.46	-43.6	-46.3	23.9	6.01e-01	0	39	0	365428736	59	4747
2026-01-03 02:59:42.29	306.86	20.46	-44.3	-47.2	23.1	6.02e-01	0	39	0	367001600	59	5236
2026-01-03 02:59:43.57	306.48	20.46	-43.8	-46.6	23.6	6.01e-01	0	39	0	369623040	59	4872
2026-01-03 02:59:44.29	306.26	20.45	-43.6	-46.3	23.9	6.02e-01	0	39	0	370671616	59	4713
2026-01-03 02:59:45.58	305.88	20.45	-44.1	-46.9	23.2	6.02e-01	0	39	0	373293056	59	5070
2026-01-03 02:59:46.30	305.67	20.45	-43.2	-45.7	24.4	6.00e-01	0	39	0	374341632	58	4682
2026-01-03 02:59:47.59	305.28	20.44	-43.6	-46.3	23.8	6.03e-01	0	39	0	376963072	59	4721
2026-01-03 02:59:48.30	305.07	20.44	-43.6	-46.2	23.9	6.02e-01	0	39	0	378535936	58	4979
2026-01-03 02:59:49.70	304.65	20.43	-44.0	-46.8	23.4	6.02e-01	0	39	0	381157376	58	5324
2026-01-03 02:59:50.42	304.44	20.43	-43.7	-46.4	23.7	6.00e-01	0	39	0	382205952	59	4774
2026-01-03 02:59:51.79	304.03	20.42	-44.7	-47.7	22.4	6.02e-01	0	39	0	384827392	60	5219
2026-01-03 02:59:52.50	303.82	20.41	-43.4	-45.9	23.9	6.00e-01	0	39	0	386400256	58	4798
2026-01-03 02:59:53.79	303.44	20.40	-44.4	-47.3	22.9	6.00e-01	0	39	0	388497408	59	5297
2026-01-03 02:59:54.51	303.22	20.39	-43.8	-46.4	23.6	6.02e-01	0	39	0	390070272	59	4774
2026-01-03 02:59:55.80	302.84	20.38	-44.0	-46.7	23.5	6.02e-01	0	39	0	392167424	58	5236
2026-01-03 02:59:56.51	302.63	20.37	-44.3	-47.1	22.9	6.02e-01	0	39	0	393740288	59	5205
2026-01-03 02:59:57.81	302.25	20.36	-43.7	-46.3	23.9	6.03e-01	0	39	0	395837440	58	5012
2026-01-03 02:59:58.52	302.04	20.35	-44.4	-47.2	23.0	6.01e-01	0	39	0	397410304	59	5274
2026-01-03 02:59:59.81	301.65	20.33	-43.5	-46.1	24.0	6.02e-01	0	39	0	400031744	59	4635
2026-01-03 03:00:00.56	301.43	20.32	-43.7	-46.4	23.7	6.00e-01	0	39	0	401080320	59	4779
2026-01-03 03:00:01.85	301.05	20.30	-43.9	-46.6	23.4	6.03e-01	0	39	0	403701760	59	4904
2026-01-03 03:00:02.56	300.84	20.29	-43.6	-46.2	23.9	6.02e-01	0	39	0	404750336	58	4946
2026-01-03 03:00:03.85	300.46	20.27	-44.3	-47.1	22.7	6.00e-01	0	39	0	407371776	60	4897
2026-01-03 03:00:04.70	300.21	20.26	-43.4	-45.9	24.1	6.02e-01	0	39	0	408944640	58	4808
2026-01-03 03:00:05.84	299.88	20.24	-44.5	-47.3	22.7	6.03e-01	0	39	0	411041792	59	5327
2026-01-03 03:00:06.70	299.63	20.22	-43.7	-46.4	23.8	6.04e-01	0	39	0	412614656	59	4763
2026-01-03 03:00:07.84	299.29	20.20	-44.0	-46.7	23.4	5.99e-01	0	39	0	414711808	59	4982
2026-01-03 03:00:08.70	299.04	20.18	-44.5	-47.3	22.8	6.04e-01	0	39	0	416284672	59	5333
2026-01-03 03:00:09.85	298.70	20.16	-44.0	-46.6	23.4	6.03e-01	0	39	0	418906112	59	4903
2026-01-03 03:00:10.70	298.46	20.14	-44.7	-47.7	22.4	6.01e-01	0	39	0	420478976	60	5265
2026-01-03 03:00:11.85	298.12	20.11	-44.0	-46.7	23.3	6.03e-01	0	39	0	422576128	59	4961
2026-01-03 03:00:12.71	297.87	20.09	-44.3	-47.1	23.1	6.03e-01	0	39	0	424148992	59	5163
2026-01-03 03:00:13.86	297.54	20.06	-44.9	-48.1	21.8	6.02e-01	0	39	0	426246144	61	5188
2026-01-03 03:00:14.72	297.29	20.04	-44.2	-46.9	23.3	6.00e-01	0	39	0	427819008	59	5095
2026-01-03 03:00:15.87	296.95	20.01	-44.9	-48.1	22.1	6.01e-01	0	39	0	429916160	60	5475
2026-01-03 03:00:16.72	296.71	19.99	-44.3	-47.2	22.8	6.02e-01	0	39	0	431489024	60	4942
2026-01-03 03:00:17.87	296.38	19.96	-44.1	-46.9	23.2	6.02e-01	0	39	0	433586176	60	4789
2026-01-03 03:00:18.73	296.13	19.94	-44.2	-47.0	23.1	6.01e-01	0	39	0	435159040	60	4836
2026-01-03 03:00:19.87	295.80	19.91	-44.0	-46.7	23.3	6.01e-01	0	39	0	437256192	60	4674
2026-01-03 03:00:20.73	295.55	19.88	-43.6	-46.2	24.0	6.03e-01	0	39	0	438829056	59	4662
2026-01-03 03:00:21.88	295.22	19.85	-44.1	-46.8	23.2	6.02e-01	0	39	0	440926208	59	5018
2026-01-03 03:00:22.74	294.98	19.82	-44.0	-46.6	23.6	6.00e-01	0	39	0	443023360	59	4886
2026-01-03 03:00:23.90	294.65	19.79	-44.3	-47.1	23.1	6.02e-01	0	39	0	445120512	59	5174
2026-01-03 03:00:24.76	294.40	19.76	-43.6	-46.2	23.9	6.02e-01	0	39	0	446693376	59	4662
2026-01-03 03:00:25.91	294.08	19.72	-44.0	-46.7	23.4	6.03e-01	0	39	0	448790528	59	4954
2026-01-03 03:00:26.77	293.83	19.69	-43.4	-45.9	24.2	6.02e-01	0	39	0	450363392	58	4789
2026-01-03 03:00:27.91	293.51	19.66	-44.2	-46.9	23.2	6.01e-01	0	39	0	452460544	59	5093
2026-01-03 03:00:28.77	293.27	19.63	-44.2	-47.0	23.2	6.00e-01	0	39	0	454033408	59	5125
2026-01-03 03:00:30.13	292.89	19.58	-44.1	-46.8	23.4	6.01e-01	0	39	0	456654848	59	4998
2026-01-03 03:00:31.24	292.57	19.54	-44.2	-47.0	23.2	6.03e-01	0	39	0	458752000	59	5101
2026-01-03 03:00:32.43	292.24	19.50	-43.9	-46.6	23.6	6.02e-01	0	39	0	460849152	59	4886
2026-01-03 03:00:33.29	292.00	19.47	-44.0	-46.8	23.4	6.02e-01	0	39	0	462422016	59	4996
2026-01-03 03:00:34.44	291.68	19.42	-43.8	-46.5	23.7	6.02e-01	0	39	0	465043456	59	4835
2026-01-03 03:00:35.30	291.44	19.39	-43.9	-46.6	23.6	6.03e-01	0	39	0	466616320	59	4872
2026-01-03 03:00:36.44	291.13	19.35	-43.7	-46.4	23.8	6.03e-01	0	39	0	468713472	59	4766
2026-01-03 03:00:37.31	290.89	19.31	-43.9	-46.5	23.6	6.02e-01	0	39	0	470286336	59	4846
2026-01-03 03:00:38.45	290.57	19.27	-43.8	-46.4	23.7	6.01e-01	0	39	0	472383488	59	4780
2026-01-03 03:00:39.31	290.34	19.23	-43.7	-46.3	23.8	6.04e-01	0	39	0	473956352	59	4754
2026-01-03 03:00:40.46	290.02	19.19	-43.7	-46.3	23.8	6.03e-01	0	39	0	476053504	59	4739
2026-01-03 03:00:41.31	289.79	19.15	-44.2	-47.0	23.2	6.01e-01	0	39	0	477626368	59	5112
2026-01-03 03:00:42.46	289.48	19.10	-44.0	-46.7	23.4	6.00e-01	0	39	0	479723520	59	4966
2026-01-03 03:00:43.32	289.25	19.06	-44.0	-46.7	23.4	6.01e-01	0	39	0	481296384	59	4957
2026-01-03 03:00:44.47	288.93	19.01	-44.5	-47.5	22.4	6.01e-01	0	39	0	483393536	60	5149
2026-01-03 03:00:45.33	288.70	18.98	-44.0	-46.8	23.1	6.02e-01	0	39	0	484966400	60	4733
2026-01-03 03:00:46.47	288.40	18.93	-43.8	-46.5	23.6	6.03e-01	0	39	0	487063552	59	4820
2026-01-03 03:00:47.33	288.17	18.89	-44.5	-47.3	22.9	6.03e-01	0	39	0	489160704	59	5295
2026-01-03 03:00:48.48	287.86	18.84	-44.0	-46.7	23.3	6.05e-01	0	39	0	491257856	60	4680
2026-01-03 03:00:49.34	287.63	18.80	-43.6	-46.1	24.0	6.00e-01	0	39	0	492830720	59	4634
2026-01-03 03:00:50.48	287.33	18.74	-44.1	-46.9	23.3	6.03e-01	0	39	0	494927872	59	5055
2026-01-03 03:00:51.34	287.10	18.70	-43.9	-46.6	23.5	6.01e-01	0	39	0	496500736	59	4915
2026-01-03 03:00:52.49	286.80	18.65	-43.5	-46.0	24.0	5.99e-01	0	39	0	498597888	58	4867
2026-01-03 03:00:53.35	286.57	18.61	-43.9	-46.6	23.5	6.05e-01	0	39	0	500170752	58	5190
2026-01-03 03:00:54.50	286.27	18.55	-44.0	-46.7	23.3	6.03e-01	0	39	0	502267904	59	4978
2026-01-03 03:00:55.36	286.04	18.51	-43.5	-46.0	24.0	6.04e-01	0	39	0	503840768	59	4587
2026-01-03 03:00:56.61	285.72	18.45	-43.8	-46.5	23.7	6.02e-01	0	39	0	506462208	58	5101
2026-01-03 03:00:57.36	285.52	18.41	-44.5	-47.3	22.9	6.02e-01	0	39	0	507510784	59	5317
2026-01-03 03:00:58.85	285.14	18.33	-43.6	-46.2	23.8	6.02e-01	0	39	0	510656512	59	4678
2026-01-03 03:00:59.57	284.95	18.30	-43.4	-45.9	24.1	6.02e-01	0	39	0	511705088	58	4814
2026-01-03 03:01:00.86	284.62	18.23	-44.0	-46.7	23.5	6.03e-01	0	39	0	514326528	58	5236
2026-01-03 03:01:01.57	284.44	18.19	-44.4	-47.2	23.0	6.02e-01	0	39	0	515375104	59	5242
2026-01-03 03:01:02.86	284.11	18.13	-43.9	-46.5	23.5	6.01e-01	0	39	0	517996544	59	4829
2026-01-03 03:01:03.58	283.93	18.09	-43.5	-46.0	24.0	6.03e-01	0	39	0	519569408	59	4594
2026-01-03 03:01:04.87	283.61	18.02	-44.0	-46.6	23.5	6.00e-01	0	39	0	521666560	59	4891
2026-01-03 03:01:05.59	283.42	17.98	-44.1	-46.8	23.3	6.02e-01	0	39	0	523239424	59	5022
2026-01-03 03:01:07.20	283.02	17.89	-43.7	-46.4	23.8	6.01e-01	0	39	0	526385152	59	4763
2026-01-03 03:01:07.77	282.88	17.86	-43.7	-46.3	23.9	6.01e-01	0	39	0	527433728	59	4723
2026-01-03 03:01:09.65	282.41	17.76	-43.8	-46.5	23.6	6.02e-01	0	39	0	530579456	59	4846
2026-01-03 03:01:10.22	282.27	17.73	-43.7	-46.4	23.8	6.01e-01	0	39	0	531628032	59	4773
2026-01-03 03:01:11.81	281.88	17.64	-43.8	-46.4	23.7	5.99e-01	0	39	0	534773760	59	4786
2026-01-03 03:01:12.38	281.74	17.61	-43.8	-46.4	23.7	6.03e-01	0	39	0	535822336	59	4809
2026-01-03 03:01:13.96	281.35	17.52	-43.7	-46.4	23.7	5.99e-01	0	39	0	538968064	59	4768
2026-01-03 03:01:14.59	281.20	17.48	-43.7	-46.3	23.8	6.01e-01	0	39	0	540016640	59	4751
2026-01-03 03:01:16.03	280.85	17.40	-43.7	-46.4	23.7	6.01e-01	0	39	0	542638080	59	4781
2026-01-03 03:01:16.74	280.68	17.36	-43.7	-46.4	23.7	6.01e-01	0	39	0	544210944	59	4766
2026-01-03 03:01:18.15	280.34	17.28	-43.7	-46.4	23.8	6.01e-01	0	39	0	546832384	59	4761
2026-01-03 03:01:18.86	280.17	17.24	-43.6	-46.2	23.9	6.02e-01	0	39	0	547880960	59	4685
2026-01-03 03:01:20.15	279.87	17.16	-43.7	-46.4	23.8	6.01e-01	0	39	0	550502400	59	4764
2026-01-03 03:01:21.19	279.62	17.10	-43.7	-46.4	23.7	6.02e-01	0	39	0	552599552	59	4779
2026-01-03 03:01:22.56	279.30	17.02	-43.7	-46.4	23.7	6.01e-01	0	39	0	555220992	59	4768
2026-01-03 03:01:23.27	279.13	16.97	-43.7	-46.4	23.7	6.01e-01	0	39	0	556269568	59	4772
2026-01-03 03:01:24.56	278.83	16.90	-43.7	-46.4	23.7	6.03e-01	0	39	0	558891008	59	4762
2026-01-03 03:01:25.28	278.66	16.85	-43.8	-46.4	23.7	6.03e-01	0	39	0	559939584	59	4797
2026-01-03 03:01:26.57	278.37	16.77	-43.8	-46.6	23.5	5.99e-01	0	39	0	562561024	59	4886
2026-01-03 03:01:27.29	278.20	16.73	-43.7	-46.4	23.7	6.04e-01	0	39	0	564133888	59	4785
2026-01-03 03:01:28.58	277.90	16.65	-43.6	-46.3	23.8	6.00e-01	0	39	0	566231040	59	4735
2026-01-03 03:01:29.30	277.74	16.61	-43.7	-46.3	23.8	6.02e-01	0	39	0	567803904	59	4742
2026-01-03 03:01:30.59	277.45	16.53	-43.6	-46.2	23.9	6.02e-01	0	39	0	569901056	59	4704
2026-01-03 03:01:31.30	277.29	16.48	-43.7	-46.3	23.8	6.01e-01	0	39	0	571473920	59	4728
2026-01-03 03:01:32.59	276.99	16.40	-43.8	-46.4	23.7	6.02e-01	0	39	0	574095360	59	4806
2026-01-03 03:01:33.30	276.84	16.36	-43.7	-46.4	23.7	6.02e-01	0	39	0	575143936	59	4760
2026-01-03 03:01:34.59	276.55	16.28	-43.8	-46.4	23.6	6.01e-01	0	39	0	577765376	59	4807
2026-01-03 03:01:35.31	276.39	16.23	-43.9	-46.6	23.6	6.01e-01	0	39	0	578813952	59	4872
2026-01-03 03:01:36.60	276.10	16.15	-43.7	-46.3	23.8	6.02e-01	0	39	0	581435392	59	4747
2026-01-03 03:01:37.31	275.95	16.10	-43.7	-46.3	23.8	6.00e-01	0	39	0	582483968	59	4745
2026-01-03 03:01:38.60	275.66	16.02	-43.5	-46.1	24.0	6.01e-01	0	39	0	585105408	59	4600
2026-01-03 03:01:39.31	275.51	15.98	-43.5	-46.1	24.0	6.03e-01	0	39	0	586153984	59	4613
2026-01-03 03:01:40.60	275.23	15.89	-43.7	-46.3	23.8	6.04e-01	0	39	0	588775424	59	4719
2026-01-03 03:01:41.32	275.07	15.85	-43.7	-46.4	23.6	6.00e-01	0	39	0	590348288	59	4761
2026-01-03 03:01:42.61	274.79	15.76	-43.7	-46.4	23.7	6.00e-01	0	39	0	592445440	59	4764
2026-01-03 03:01:43.33	274.64	15.72	-43.7	-46.3	23.8	6.01e-01	0	39	0	594018304	59	4745
2026-01-03 03:01:44.62	274.36	15.63	-43.7	-46.3	23.8	6.01e-01	0	39	0	596115456	59	4738
2026-01-03 03:01:45.57	274.16	15.57	-43.6	-46.3	23.8	6.01e-01	0	39	0	598212608	59	4708
2026-01-03 03:01:46.57	273.95	15.50	-43.6	-46.3	23.8	6.03e-01	0	39	0	599785472	59	4718
2026-01-03 03:01:47.58	273.74	15.44	-43.7	-46.3	23.7	6.01e-01	0	39	0	601882624	59	4741
2026-01-03 03:01:48.58	273.53	15.37	-43.6	-46.3	23.8	6.01e-01	0	39	0	603979776	59	4729
2026-01-03 03:01:49.58	273.32	15.31	-43.7	-46.3	23.8	6.05e-01	0	39	0	605552640	59	4752
2026-01-03 03:01:50.58	273.11	15.24	-43.7	-46.3	23.8	6.02e-01	0	39	0	607649792	59	4757
2026-01-03 03:01:51.59	272.90	15.17	-43.8	-46.5	23.6	6.01e-01	0	39	0	609222656	59	4823
2026-01-03 03:01:52.60	272.70	15.11	-43.8	-46.5	23.6	6.04e-01	0	39	0	611319808	59	4826
2026-01-03 03:01:53.61	272.49	15.04	-43.9	-46.6	23.5	6.02e-01	0	39	0	613416960	59	4883
2026-01-03 03:01:54.69	272.27	14.97	-43.8	-46.5	23.6	6.00e-01	0	39	0	615514112	59	4825
2026-01-03 03:01:55.55	272.10	14.91	-43.9	-46.6	23.6	6.00e-01	0	39	0	617086976	59	4893
2026-01-03 03:01:56.70	271.87	14.83	-43.7	-46.3	23.8	6.03e-01	0	39	0	619184128	59	4740
2026-01-03 03:01:57.65	271.68	14.77	-43.8	-46.4	23.6	6.02e-01	0	39	0	620756992	59	4807
2026-01-03 03:01:58.66	271.47	14.70	-43.7	-46.4	23.7	6.00e-01	0	39	0	622854144	59	4761
2026-01-03 03:01:59.86	271.24	14.62	-43.7	-46.4	23.7	6.06e-01	0	39	0	624951296	59	4783
2026-01-03 03:02:00.72	271.07	14.56	-43.8	-46.5	23.6	6.03e-01	0	39	0	626524160	59	4831
2026-01-03 03:02:02.10	270.79	14.47	-43.8	-46.5	23.5	6.03e-01	0	39	0	629145600	59	4864
2026-01-03 03:02:02.81	270.66	14.42	-43.7	-46.4	23.6	6.02e-01	0	39	0	630718464	59	4810
2026-01-03 03:02:04.28	270.37	14.32	-43.7	-46.4	23.7	6.01e-01	0	39	0	633339904	59	4805
2026-01-03 03:02:04.99	270.23	14.27	-43.7	-46.4	23.7	6.02e-01	0	39	0	634388480	59	4780
2026-01-03 03:02:06.28	269.99	14.18	-43.7	-46.3	23.7	6.02e-01	0	39	0	637009920	59	4751
2026-01-03 03:02:07.01	269.85	14.13	-43.7	-46.4	23.7	6.00e-01	0	39	0	638582784	59	4767
2026-01-03 03:02:08.31	269.60	14.05	-43.8	-46.5	23.5	6.01e-01	0	39	0	640679936	59	4854
2026-01-03 03:02:09.02	269.46	14.00	-43.8	-46.5	23.5	6.04e-01	0	39	0	642252800	59	4855
2026-01-03 03:02:10.31	269.22	13.91	-43.9	-46.6	23.5	6.02e-01	0	39	0	644349952	59	4883
2026-01-03 03:02:11.03	269.09	13.86	-43.8	-46.5	23.6	6.01e-01	0	39	0	645922816	59	4827
2026-01-03 03:02:12.32	268.85	13.77	-43.8	-46.4	23.6	6.03e-01	0	39	0	648019968	59	4806
2026-01-03 03:02:13.04	268.71	13.72	-43.8	-46.5	23.5	6.01e-01	0	39	0	649592832	59	4854
2026-01-03 03:02:14.33	268.47	13.63	-43.8	-46.5	23.5	6.01e-01	0	39	0	652214272	59	4861
2026-01-03 03:02:15.04	268.34	13.58	-43.8	-46.6	23.5	6.02e-01	0	39	0	653262848	59	4886
2026-01-03 03:02:16.33	268.11	13.50	-43.7	-46.5	23.6	6.00e-01	0	39	0	655884288	59	4826
2026-01-03 03:02:17.19	267.95	13.44	-43.8	-46.6	23.5	5.98e-01	0	39	0	657457152	59	4880
2026-01-03 03:02:18.34	267.74	13.36	-43.9	-46.7	23.3	6.00e-01	0	39	0	659554304	59	4976
2026-01-03 03:02:19.19	267.59	13.30	-43.9	-46.7	23.3	6.04e-01	0	39	0	661127168	59	4970
2026-01-03 03:02:20.34	267.38	13.22	-43.9	-46.7	23.4	6.02e-01	0	39	0	663224320	59	4930
2026-01-03 03:02:21.20	267.23	13.16	-43.9	-46.7	23.3	6.05e-01	0	39	0	664797184	59	4956
2026-01-03 03:02:22.35	267.03	13.08	-43.9	-46.6	23.4	6.01e-01	0	39	0	666894336	59	4915
2026-01-03 03:02:23.20	266.88	13.02	-43.8	-46.5	23.5	6.02e-01	0	39	0	668467200	59	4842
2026-01-03 03:02:24.40	266.67	12.94	-43.8	-46.5	23.5	6.03e-01	0	39	0	671088640	59	4861
2026-01-03 03:02:25.26	266.52	12.88	-44.0	-46.7	23.4	6.00e-01	0	39	0	672661504	59	4957
2026-01-03 03:02:26.40	266.32	12.80	-43.9	-46.7	23.3	6.02e-01	0	39	0	674758656	59	4944
2026-01-03 03:02:27.26	266.17	12.74	-43.9	-46.6	23.4	5.98e-01	0	39	0	676331520	59	4905
2026-01-03 03:02:28.54	265.95	12.65	-44.0	-46.7	23.3	6.04e-01	0	39	0	678952960	59	4970
2026-01-03 03:02:29.25	265.83	12.60	-43.9	-46.7	23.3	6.04e-01	0	39	0	680001536	59	4950
2026-01-03 03:02:30.75	265.57	12.50	-44.0	-46.8	23.2	6.00e-01	0	39	0	682622976	59	5011
2026-01-03 03:02:31.47	265.45	12.45	-44.1	-46.8	23.2	6.02e-01	0	39	0	684195840	59	5040
2026-01-03 03:02:32.76	265.23	12.36	-44.2	-47.0	22.9	6.02e-01	0	39	0	686817280	59	5123
2026-01-03 03:02:33.47	265.11	12.31	-44.3	-47.1	23.1	5.99e-01	0	39	0	687865856	59	5166
2026-01-03 03:02:34.76	264.90	12.22	-43.9	-46.6	23.3	6.03e-01	0	39	0	690487296	59	4907
2026-01-03 03:02:35.48	264.78	12.17	-43.9	-46.6	23.3	6.01e-01	0	39	0	691535872	59	4919
2026-01-03 03:02:36.77	264.57	12.08	-43.9	-46.6	23.4	6.04e-01	0	39	0	694157312	59	4882
2026-01-03 03:02:37.49	264.45	12.03	-43.9	-46.6	23.3	6.01e-01	0	39	0	695730176	59	4920
2026-01-03 03:02:38.78	264.24	11.94	-44.0	-46.8	23.2	6.01e-01	0	39	0	697827328	59	5002
2026-01-03 03:02:39.49	264.12	11.89	-44.1	-46.9	23.1	6.02e-01	0	39	0	699400192	59	5055
2026-01-03 03:02:40.78	263.92	11.80	-44.1	-46.9	23.0	6.03e-01	0	39	0	701497344	59	5083
2026-01-03 03:02:41.67	263.77	11.74	-44.0	-46.9	23.1	6.00e-01	0	39	0	703070208	59	5068
2026-01-03 03:02:43.10	263.54	11.64	-44.1	-46.9	23.0	6.02e-01	0	39	0	706215936	59	5087
2026-01-03 03:02:43.82	263.43	11.59	-44.0	-46.8	23.1	5.99e-01	0	39	0	707264512	59	5016
2026-01-03 03:02:45.10	263.23	11.50	-44.0	-46.9	23.1	6.02e-01	0	39	0	709885952	59	5048
2026-01-03 03:02:45.82	263.12	11.45	-43.9	-46.8	22.5	6.03e-01	0	39	0	710934528	59	5020
2026-01-03 03:02:47.11	262.91	11.36	-44.1	-47.0	23.0	6.04e-01	0	39	0	713555968	59	5118
2026-01-03 03:02:47.89	262.79	11.31	-44.0	-46.9	23.0	6.00e-01	0	39	0	715128832	59	5084
2026-01-03 03:02:49.09	262.61	11.23	-44.1	-46.9	23.0	6.02e-01	0	39	0	717225984	59	5091
2026-01-03 03:02:50.14	262.45	11.15	-44.2	-47.1	22.9	6.00e-01	0	39	0	719323136	59	5170
2026-01-03 03:02:51.03	262.31	11.09	-44.2	-47.1	22.8	6.04e-01	0	39	0	720896000	59	5185
2026-01-03 03:02:52.17	262.14	11.01	-44.3	-47.1	22.9	6.02e-01	0	39	0	722993152	59	5192
2026-01-03 03:02:53.26	261.97	10.94	-44.2	-47.0	22.9	6.00e-01	0	39	0	725090304	59	5154
2026-01-03 03:02:54.12	261.84	10.88	-44.2	-47.0	23.0	6.04e-01	0	39	0	726663168	59	5141
2026-01-03 03:02:55.26	261.67	10.80	-44.2	-47.0	22.9	6.03e-01	0	39	0	728760320	59	5157
2026-01-03 03:02:56.12	261.54	10.74	-44.2	-47.0	22.9	6.03e-01	0	39	0	730333184	59	5128
2026-01-03 03:02:57.27	261.37	10.66	-44.3	-47.2	22.8	6.01e-01	0	39	0	732430336	59	5220
2026-01-03 03:02:58.13	261.24	10.60	-44.3	-47.2	22.7	6.01e-01	0	39	0	734003200	59	5267
2026-01-03 03:02:59.28	261.08	10.52	-44.3	-47.3	22.6	6.02e-01	0	39	0	736100352	59	5307
2026-01-03 03:03:00.14	260.95	10.46	-44.3	-47.2	22.7	6.03e-01	0	39	0	738197504	59	5277
2026-01-03 03:03:01.33	260.78	10.38	-44.2	-47.1	22.8	6.03e-01	0	39	0	740294656	59	5205
2026-01-03 03:03:02.19	260.65	10.32	-44.2	-47.1	22.8	6.00e-01	0	39	0	741867520	59	5204
2026-01-03 03:03:03.33	260.49	10.24	-44.2	-47.2	22.8	6.02e-01	0	39	0	743964672	59	5222
2026-01-03 03:03:04.19	260.37	10.18	-44.3	-47.3	22.7	6.02e-01	0	39	0	745537536	59	5280
2026-01-03 03:03:05.34	260.20	10.11	-44.3	-47.3	22.6	6.00e-01	0	39	0	747634688	59	5306
2026-01-03 03:03:06.20	260.08	10.05	-44.3	-47.3	22.6	6.03e-01	0	39	0	749207552	59	5298
2026-01-03 03:03:07.34	259.92	9.97	-44.3	-47.3	22.6	6.00e-01	0	39	0	751304704	59	5319
2026-01-03 03:03:08.21	259.80	9.91	-44.3	-47.3	22.6	6.01e-01	0	39	0	752877568	59	5337
2026-01-03 03:03:09.67	259.60	9.81	-44.3	-47.4	22.6	6.01e-01	0	39	0	756023296	59	5346
2026-01-03 03:03:10.39	259.50	9.76	-44.3	-47.3	22.5	6.04e-01	0	39	0	757071872	59	5340
2026-01-03 03:03:11.68	259.32	9.67	-44.3	-47.3	22.6	6.02e-01	0	39	0	759693312	59	5338
2026-01-03 03:03:12.40	259.22	9.62	-44.4	-47.4	22.6	6.01e-01	0	39	0	760741888	59	5351
2026-01-03 03:03:13.69	259.04	9.54	-44.4	-47.4	22.5	6.02e-01	0	39	0	763363328	59	5357
2026-01-03 03:03:14.40	258.95	9.49	-44.4	-47.5	22.5	6.00e-01	0	39	0	764936192	59	5409
2026-01-03 03:03:15.69	258.77	9.40	-44.6	-47.6	22.3	6.02e-01	0	39	0	767033344	59	5481
2026-01-03 03:03:16.49	258.67	9.34	-44.5	-47.4	22.4	6.01e-01	0	39	0	768606208	59	5385
2026-01-03 03:03:17.63	258.51	9.27	-44.5	-47.4	22.5	6.03e-01	0	39	0	770703360	59	5387
2026-01-03 03:03:18.49	258.40	9.21	-44.5	-47.4	22.5	6.04e-01	0	39	0	772276224	59	5389
2026-01-03 03:03:19.64	258.25	9.13	-44.4	-47.3	22.6	6.01e-01	0	39	0	774373376	59	5336
2026-01-03 03:03:20.77	258.10	9.05	-44.5	-47.4	22.5	6.02e-01	0	39	0	776470528	59	5377
2026-01-03 03:03:21.81	257.96	8.98	-50.2	-64.4	8.2	6.45e-01	0	39	0	778567680	71	19128
2026-01-03 03:03:22.81	257.83	8.92	-50.3	-71.2	3.8	7.47e-01	0	39	104	778567680	71	41484
2026-01-03 03:03:23.81	257.70	8.85	-50.5	-71.3	3.8	7.45e-01	0	39	104	778567680	72	39953
2026-01-03 03:03:24.81	257.57	8.78	-50.4	-71.4	3.8	7.44e-01	0	39	104	778567680	72	40151
2026-01-03 03:03:25.82	257.45	8.71	-51.0	-71.4	3.8	7.49e-01	0	39	104	778567680	72	40432
2026-01-03 03:03:26.82	257.32	8.65	-50.9	-71.5	3.8	7.44e-01	0	39	104	778567680	72	40557
2026-01-03 03:03:27.83	257.19	8.58	-51.1	-71.6	3.8	7.49e-01	0	39	104	778567680	72	41124
2026-01-03 03:03:28.83	257.06	8.51	-50.7	-71.6	3.8	7.46e-01	0	39	104	778567680	73	38920
2026-01-03 03:03:29.84	256.94	8.44	-51.2	-71.6	3.8	7.42e-01	0	39	104	778567680	73	38925
2026-01-03 03:03:30.84	256.81	8.38	-51.1	-71.6	3.8	7.45e-01	0	39	104	778567680	73	39035
2026-01-03 03:03:31.84	256.69	8.31	-51.2	-71.6	3.8	7.47e-01	0	39	104	778567680	73	39043
2026-01-03 03:03:32.85	256.56	8.24	-51.2	-71.6	3.8	7.46e-01	0	39	104	778567680	73	39027
2026-01-03 03:03:33.85	256.44	8.18	-51.1	-71.6	3.8	7.45e-01	0	39	104	778567680	73	39067
2026-01-03 03:03:34.86	256.32	8.11	-51.2	-71.6	3.8	7.42e-01	0	39	104	778567680	73	39124
2026-01-03 03:03:35.86	256.19	8.04	-51.0	-71.6	3.8	7.44e-01	0	39	104	778567680	73	39077
2026-01-03 03:03:36.87	256.07	7.98	-50.9	-71.6	3.8	7.46e-01	0	39	104	778567680	73	39038
2026-01-03 03:03:37.87	255.95	7.91	-51.0	-71.6	3.8	7.46e-01	0	39	104	778567680	73	39031
2026-01-03 03:03:38.87	255.83	7.84	-51.0	-71.6	3.8	7.45e-01	0	39	104	778567680	73	39004
2026-01-03 03:03:39.88	255.71	7.78	-51.0	-71.6	3.8	7.47e-01	0	39	104	778567680	73	39060
2026-01-03 03:03:40.88	255.59	7.71	-50.8	-71.6	3.8	7.45e-01	0	39	104	778567680	73	39004
2026-01-03 03:03:41.89	255.47	7.64	-50.8	-71.6	3.8	7.48e-01	0	39	104	778567680	73	38849
2026-01-03 03:03:42.89	255.36	7.58	-50.7	-71.6	3.8	7.46e-01	0	39	104	778567680	73	38960
2026-01-03 03:03:43.89	255.24	7.51	-50.6	-71.6	3.8	7.49e-01	0	39	104	778567680	73	38849
2026-01-03 03:03:44.90	255.12	7.45	-50.6	-71.6	3.8	7.47e-01	0	39	104	778567680	73	38820
2026-01-03 03:03:45.90	255.01	7.38	-50.6	-71.6	3.8	7.47e-01	0	39	104	778567680	73	38787
2026-01-03 03:03:46.90	254.89	7.31	-50.6	-71.6	3.8	7.48e-01	0	39	104	778567680	73	38753
2026-01-03 03:03:47.91	254.78	7.25	-50.6	-71.6	3.8	7.44e-01	0	39	104	778567680	73	38747
2026-01-03 03:03:48.91	254.66	7.18	-50.6	-71.6	3.8	7.46e-01	0	39	104	778567680	73	38894
2026-01-03 03:03:49.92	254.55	7.12	-50.6	-71.6	3.8	7.48e-01	0	39	104	778567680	73	38777
2026-01-03 03:03:50.92	254.43	7.05	-50.6	-71.6	3.8	7.44e-01	0	39	104	778567680	73	38699
2026-01-03 03:03:51.93	254.32	6.99	-50.6	-71.6	3.8	7.44e-01	0	39	104	778567680	73	38691
2026-01-03 03:03:52.93	254.21	6.92	-50.6	-71.6	3.8	7.47e-01	0	39	104	778567680	73	38740
2026-01-03 03:03:53.93	254.10	6.86	-50.6	-71.6	3.8	7.46e-01	0	39	104	778567680	73	38768
2026-01-03 03:03:54.94	253.99	6.79	-50.6	-71.6	3.8	7.46e-01	0	39	104	778567680	73	38758
2026-01-03 03:03:55.94	253.88	6.73	-50.6	-71.6	3.8	7.47e-01	0	39	104	778567680	73	38692
2026-01-03 03:03:56.95	253.77	6.66	-50.6	-71.6	3.8	7.47e-01	0	39	104	778567680	73	38727
2026-01-03 03:03:57.95	253.66	6.60	-50.6	-71.6	3.8	7.46e-01	0	39	104	778567680	73	38696
2026-01-03 03:03:58.95	253.55	6.53	-50.6	-71.6	3.8	7.48e-01	0	39	104	778567680	73	38731
2026-01-03 03:03:59.96	253.44	6.47	-50.6	-71.6	3.8	7.45e-01	0	39	104	778567680	73	38789
2026-01-03 03:04:00.96	253.33	6.40	-50.6	-71.6	3.8	7.45e-01	0	39	104	778567680	73	38747
2026-01-03 03:04:01.97	253.22	6.34	-50.6	-71.6	3.8	7.46e-01	0	39	104	778567680	73	38769
2026-01-03 03:04:02.97	253.12	6.27	-50.6	-71.5	3.8	7.48e-01	0	39	104	778567680	73	38666
2026-01-03 03:04:03.98	253.01	6.21	-50.6	-71.5	3.8	7.49e-01	0	39	104	778567680	73	38635
2026-01-03 03:04:04.98	252.90	6.14	-50.6	-71.5	3.8	7.47e-01	0	39	104	778567680	73	38680
2026-01-03 03:04:05.99	252.80	6.08	-50.6	-71.5	3.8	7.45e-01	0	39	104	778567680	73	38634
2026-01-03 03:04:06.99	252.69	6.02	-50.6	-71.5	3.8	7.46e-01	0	39	104	778567680	73	38626
2026-01-03 03:04:07.99	252.59	5.95	-50.6	-71.5	3.8	7.46e-01	0	39	104	778567680	73	38644
2026-01-03 03:04:09.00	252.49	5.89	-50.6	-71.5	3.8	7.45e-01	0	39	104	778567680	73	38624
2026-01-03 03:04:10.00	252.38	5.82	-50.6	-71.5	3.8	7.49e-01	0	39	104	778567680	73	38644
2026-01-03 03:04:11.01	252.28	5.76	-50.6	-71.5	3.8	7.46e-01	0	39	104	778567680	73	38648
2026-01-03 03:04:12.01	252.18	5.70	-50.6	-71.6	3.8	7.45e-01	0	39	104	778567680	73	38695
2026-01-03 03:04:13.01	252.08	5.63	-50.6	-71.5	3.8	7.44e-01	0	39	104	778567680	73	38622
2026-01-03 03:04:14.02	251.98	5.57	-50.6	-71.6	3.8	7.47e-01	0	39	104	778567680	73	38690
2026-01-03 03:04:15.02	251.88	5.51	-50.6	-71.5	3.8	7.44e-01	0	39	104	778567680	73	38653
2026-01-03 03:04:16.03	251.77	5.44	-50.6	-71.6	3.8	7.50e-01	0	39	104	778567680	73	38700
2026-01-03 03:04:17.03	251.68	5.38	-50.6	-71.5	3.8	7.45e-01	0	39	104	778567680	73	38683
2026-01-03 03:04:18.04	251.58	5.32	-50.6	-71.5	3.8	7.42e-01	0	39	104	778567680	73	38629
2026-01-03 03:04:19.04	251.48	5.25	-50.6	-71.5	3.8	7.46e-01	0	39	104	778567680	73	38622
2026-01-03 03:04:20.04	251.38	5.19	-50.6	-71.5	3.8	7.44e-01	0	39	104	778567680	73	38617
2026-01-03 03:04:21.05	251.28	5.13	-50.6	-71.5	3.8	7.45e-01	0	39	104	778567680	73	38681
2026-01-03 03:04:22.05	251.18	5.07	-50.6	-71.5	3.8	7.44e-01	0	39	104	778567680	73	38594
2026-01-03 03:04:23.06	251.09	5.00	-50.6	-71.5	3.8	7.44e-01	0	39	104	778567680	73	38607

#Closed at: 2026-01-03 03:04:24
#Recorded file [778 MB]: D:/Data/31040_260103_055459.dat