passes_logs/2026/01/03/T1/T1__20260103_123200_FENGYUN_3D_rec.log

#Pass ID: 20260103_123200_FENGYUN 3D
#Satellite: FENGYUN 3D
#Configuration: FENGYUN 3D
#almurnet v.1.7.20251203
#Start time: 2026-01-03 12:32:00

#Version: 2.0.20230620
#Station: T1
#Location: 37.570604 lon 55.790049 lat
#TLE: 1 43010U 17072A   26002.95198047  .00000207  00000+0  11963-3 0  9999
#TLE: 2 43010  98.9912 334.5826 0001910 130.7105 229.4237 14.19692231421540

#Time	Az	El	Level	Level2	SNR	BER	BlckErr	Temp	State	Recorded	gain1	gain2
2026-01-03 12:32:00.90	178.57	5.01	-53.6	-66.1	3.8	8.47e-01	0	40	0	0	79	14590
2026-01-03 12:32:01.90	178.61	5.08	-52.7	-65.4	3.8	8.47e-01	0	40	104	0	77	15142
2026-01-03 12:32:02.90	178.64	5.15	-52.3	-65.1	3.8	8.48e-01	0	40	104	0	76	15433
2026-01-03 12:32:03.91	178.68	5.22	-52.3	-65.0	3.8	8.48e-01	0	40	104	0	76	15306
2026-01-03 12:32:04.91	178.71	5.29	-52.3	-65.0	3.8	8.47e-01	0	40	104	0	76	15303
2026-01-03 12:32:05.91	178.75	5.37	-52.3	-65.0	3.8	8.46e-01	0	41	104	0	76	15244
2026-01-03 12:32:06.92	178.78	5.44	-52.3	-65.0	3.8	8.46e-01	0	40	104	0	76	15346
2026-01-03 12:32:07.92	178.82	5.51	-52.3	-65.0	3.8	8.46e-01	0	40	104	0	76	15371
2026-01-03 12:32:08.93	178.85	5.58	-52.3	-65.1	3.8	8.47e-01	0	40	104	0	76	15442
2026-01-03 12:32:09.93	178.89	5.65	-52.3	-65.1	3.8	8.46e-01	0	41	104	0	76	15510
2026-01-03 12:32:10.94	178.92	5.72	-52.3	-65.2	3.8	8.46e-01	0	41	104	0	76	15628
2026-01-03 12:32:11.94	178.96	5.80	-52.3	-65.3	3.8	8.46e-01	0	41	104	0	76	15772
2026-01-03 12:32:12.95	179.00	5.87	-52.3	-65.3	3.8	8.49e-01	0	41	104	0	76	15849
2026-01-03 12:32:13.95	179.03	5.94	-52.3	-65.4	3.8	8.46e-01	0	41	104	0	76	16047
2026-01-03 12:32:14.95	179.07	6.01	-52.3	-65.5	3.8	8.47e-01	0	41	104	0	76	16143
2026-01-03 12:32:15.96	179.11	6.09	-52.3	-65.5	3.8	8.46e-01	0	41	104	0	76	16191
2026-01-03 12:32:16.96	179.14	6.16	-52.3	-65.5	3.8	8.46e-01	0	41	104	0	76	16129
2026-01-03 12:32:17.97	179.18	6.23	-52.3	-65.4	3.8	8.47e-01	0	41	104	0	76	15978
2026-01-03 12:32:18.97	179.22	6.31	-52.3	-65.2	3.8	8.47e-01	0	41	104	0	76	15584
2026-01-03 12:32:19.98	179.26	6.38	-52.2	-64.9	3.8	8.47e-01	0	41	104	0	76	15054
2026-01-03 12:32:20.98	179.29	6.46	-52.2	-64.4	3.8	8.46e-01	0	41	104	0	76	14344
2026-01-03 12:32:21.99	179.33	6.53	-52.2	-64.0	3.8	8.46e-01	0	41	104	0	76	13584
2026-01-03 12:32:22.99	179.37	6.60	-52.1	-63.7	3.8	8.46e-01	0	41	104	0	76	13148
2026-01-03 12:32:23.99	179.41	6.68	-52.1	-63.5	3.8	8.45e-01	0	41	104	0	76	12817
2026-01-03 12:32:25.00	179.45	6.75	-52.1	-63.7	3.9	8.46e-01	0	41	104	0	76	13164
2026-01-03 12:32:26.00	179.48	6.83	-52.2	-64.1	3.9	8.46e-01	0	41	104	0	76	13791
2026-01-03 12:32:27.01	179.52	6.90	-52.2	-64.5	3.8	8.47e-01	0	41	104	0	76	14386
2026-01-03 12:32:28.01	179.56	6.98	-52.2	-64.2	3.8	8.46e-01	0	41	104	0	76	14033
2026-01-03 12:32:29.01	179.60	7.06	-52.0	-62.8	3.9	8.45e-01	0	41	104	0	76	11867
2026-01-03 12:32:30.02	179.64	7.13	-51.6	-60.1	4.9	8.10e-01	0	41	0	0	75	9250
2026-01-03 12:32:31.02	179.68	7.21	-51.0	-57.5	6.7	3.61e-01	0	42	0	2097152	74	7285
2026-01-03 12:32:32.03	179.72	7.28	-50.2	-55.5	8.7	5.66e-02	0	42	0	8388608	72	6439
2026-01-03 12:32:33.03	179.76	7.36	-49.2	-53.4	10.8	6.60e-03	0	41	0	13631488	70	5704
2026-01-03 12:32:34.04	179.80	7.44	-48.3	-51.8	12.5	6.40e-04	0	41	0	18874368	68	5309
2026-01-03 12:32:35.04	179.84	7.51	-47.2	-50.2	14.0	5.70e-06	0	41	0	25165824	66	4961
2026-01-03 12:32:36.04	179.88	7.59	-46.2	-49.0	15.2	1.10e-06	0	41	0	30408704	64	4845
2026-01-03 12:32:37.05	179.92	7.67	-45.7	-48.3	16.0	0.00e+00	0	42	0	36700160	63	4715
2026-01-03 12:32:38.05	179.96	7.75	-45.2	-47.7	16.6	0.00e+00	0	42	0	41943040	62	4657
2026-01-03 12:32:39.06	180.00	7.83	-44.7	-47.1	17.1	0.00e+00	0	42	0	48234496	61	4622
2026-01-03 12:32:40.06	180.05	7.90	-44.5	-46.8	17.4	0.00e+00	0	42	0	53477376	61	4457
2026-01-03 12:32:41.06	180.09	7.98	-44.4	-46.7	17.4	0.00e+00	0	42	0	58720256	60	4696
2026-01-03 12:32:42.07	180.13	8.06	-44.7	-47.0	17.2	0.00e+00	0	42	0	65011712	60	4852
2026-01-03 12:32:43.07	180.17	8.14	-45.0	-47.4	16.8	0.00e+00	0	42	0	70254592	60	5080
2026-01-03 12:32:44.08	180.21	8.22	-45.5	-48.0	16.3	0.00e+00	0	42	0	75497472	61	5124
2026-01-03 12:32:45.08	180.25	8.30	-45.9	-48.6	15.7	0.00e+00	0	42	0	81788928	62	5176
2026-01-03 12:32:46.09	180.30	8.38	-46.7	-49.5	14.8	0.00e+00	0	42	0	87031808	63	5444
2026-01-03 12:32:47.09	180.34	8.46	-47.4	-50.6	13.6	6.80e-06	0	42	0	92274688	65	5499
2026-01-03 12:32:48.09	180.38	8.54	-48.3	-52.0	12.2	1.92e-04	0	42	0	98566144	67	5736
2026-01-03 12:32:49.10	180.43	8.62	-49.3	-53.6	10.7	2.02e-03	0	42	0	103809024	69	6167
2026-01-03 12:32:50.10	180.47	8.70	-50.2	-55.4	8.8	2.48e-02	0	42	0	110100480	70	7155
2026-01-03 12:32:51.10	180.51	8.78	-50.8	-57.2	7.0	1.15e-01	0	42	0	115343360	72	7869
2026-01-03 12:32:52.11	180.56	8.86	-51.3	-59.1	5.5	4.90e-01	0	42	0	120586240	73	9190
2026-01-03 12:32:53.11	180.60	8.94	-51.6	-60.6	4.6	7.89e-01	0	42	0	121634816	73	10984
2026-01-03 12:32:54.11	180.65	9.02	-51.9	-62.0	4.2	8.33e-01	0	42	0	121634816	74	12225
2026-01-03 12:32:55.12	180.69	9.10	-48.9	-52.5	11.9	7.79e-04	0	42	0	125829120	69	5438
2026-01-03 12:32:56.12	180.74	9.19	-49.4	-53.3	11.1	1.08e-03	0	42	0	131072000	69	5984
2026-01-03 12:32:57.12	180.78	9.27	-51.9	-64.9	3.8	8.48e-01	0	42	104	133169152	74	16936
2026-01-03 12:32:58.13	180.83	9.35	-51.6	-58.3	6.1	4.97e-01	0	42	0	134217728	74	7977
2026-01-03 12:32:59.13	180.87	9.43	-48.3	-51.5	13.0	3.08e-05	0	42	0	139460608	68	5146
2026-01-03 12:33:00.13	180.92	9.52	-47.9	-51.1	13.2	2.63e-05	0	42	0	145752064	67	5160
2026-01-03 12:33:01.14	180.96	9.60	-47.1	-50.0	14.4	5.70e-06	0	42	0	150994944	65	5129
2026-01-03 12:33:02.14	181.01	9.68	-47.3	-50.2	14.0	1.10e-06	0	42	0	156237824	65	5255
2026-01-03 12:33:03.14	181.06	9.77	-47.4	-50.4	13.9	2.20e-06	0	42	0	162529280	65	5373
2026-01-03 12:33:04.15	181.10	9.85	-47.5	-50.5	13.8	1.37e-05	0	42	0	167772160	66	5145
2026-01-03 12:33:05.15	181.15	9.93	-48.2	-51.4	12.9	3.66e-05	0	42	0	174063616	67	5350
2026-01-03 12:33:06.15	181.20	10.02	-48.2	-51.5	12.8	7.20e-05	0	42	0	179306496	67	5408
2026-01-03 12:33:07.16	181.24	10.10	-48.3	-51.5	12.7	9.04e-05	0	42	0	184549376	67	5430
2026-01-03 12:33:08.16	181.29	10.19	-48.0	-51.1	13.2	3.77e-05	0	42	0	190840832	67	5179
2026-01-03 12:33:09.16	181.34	10.27	-47.8	-50.8	13.6	1.83e-05	0	42	0	196083712	66	5282
2026-01-03 12:33:10.17	181.39	10.36	-47.7	-50.7	13.7	1.37e-05	0	42	0	201326592	66	5233
2026-01-03 12:33:11.17	181.44	10.45	-46.7	-49.4	14.9	1.10e-06	0	42	0	207618048	65	4782
2026-01-03 12:33:12.18	181.49	10.53	-46.9	-49.5	14.8	0.00e+00	0	42	0	212860928	65	4861
2026-01-03 12:33:13.18	181.53	10.62	-47.2	-50.0	14.3	0.00e+00	0	42	0	219152384	65	5132
2026-01-03 12:33:14.18	181.58	10.71	-47.1	-49.8	14.5	6.80e-06	0	42	0	224395264	65	4985
2026-01-03 12:33:15.19	181.63	10.79	-47.1	-49.8	14.6	6.80e-06	0	42	0	229638144	66	4727
2026-01-03 12:33:16.19	181.68	10.88	-47.7	-50.6	13.8	5.70e-06	0	42	0	235929600	66	5184
2026-01-03 12:33:17.20	181.73	10.97	-47.9	-50.9	13.4	2.17e-05	0	42	0	241172480	66	5379
2026-01-03 12:33:18.20	181.78	11.06	-47.6	-50.4	14.0	6.80e-06	0	42	0	247463936	66	5083
2026-01-03 12:33:19.20	181.83	11.15	-47.6	-50.4	14.0	5.70e-06	0	42	0	252706816	66	5099
2026-01-03 12:33:20.21	181.89	11.23	-47.7	-50.6	13.7	1.10e-06	0	42	0	257949696	66	5201
2026-01-03 12:33:21.21	181.94	11.32	-47.8	-50.8	13.6	1.10e-06	0	42	0	264241152	66	5294
2026-01-03 12:33:22.21	181.99	11.41	-47.5	-50.4	14.0	1.48e-05	0	42	0	269484032	66	5077
2026-01-03 12:33:23.22	182.04	11.50	-47.8	-50.8	13.6	1.14e-05	0	42	0	274726912	66	5297
2026-01-03 12:33:24.22	182.09	11.59	-48.1	-51.2	13.1	9.10e-06	0	43	0	281018368	66	5549
2026-01-03 12:33:25.22	182.15	11.68	-47.7	-50.7	13.6	5.70e-06	0	42	0	286261248	66	5268
2026-01-03 12:33:26.22	182.20	11.77	-47.6	-50.6	13.8	2.05e-05	0	42	0	292552704	66	5201
2026-01-03 12:33:27.23	182.25	11.86	-47.4	-50.3	14.1	4.50e-06	0	42	0	297795584	65	5295
2026-01-03 12:33:28.23	182.31	11.95	-47.4	-50.3	14.0	4.50e-06	0	43	0	303038464	66	5030
2026-01-03 12:33:29.24	182.36	12.05	-47.0	-49.7	14.7	0.00e+00	0	43	0	309329920	65	4935
2026-01-03 12:33:30.24	182.41	12.14	-46.8	-49.5	14.9	0.00e+00	0	43	0	314572800	65	4857
2026-01-03 12:33:31.24	182.47	12.23	-46.8	-49.5	14.9	0.00e+00	0	42	0	319815680	65	4854
2026-01-03 12:33:32.25	182.52	12.32	-47.0	-49.7	14.7	0.00e+00	0	42	0	326107136	65	4936
2026-01-03 12:33:33.25	182.58	12.42	-46.8	-49.4	14.9	0.00e+00	0	43	0	331350016	64	5089
2026-01-03 12:33:34.25	182.63	12.51	-46.8	-49.4	14.9	1.10e-06	0	42	0	337641472	64	5098
2026-01-03 12:33:35.25	182.69	12.60	-46.8	-49.5	14.9	0.00e+00	0	42	0	342884352	64	5111
2026-01-03 12:33:36.26	182.74	12.70	-46.8	-49.4	15.0	0.00e+00	0	43	0	348127232	64	5071
2026-01-03 12:33:37.26	182.80	12.79	-46.8	-49.5	14.9	0.00e+00	0	42	0	354418688	64	5105
2026-01-03 12:33:38.26	182.86	12.88	-46.6	-49.2	15.2	1.10e-06	0	43	0	359661568	64	4927
2026-01-03 12:33:39.27	182.91	12.98	-46.8	-49.5	14.9	0.00e+00	0	43	0	365953024	64	5102
2026-01-03 12:33:40.27	182.97	13.07	-47.1	-49.8	14.6	0.00e+00	0	43	0	371195904	64	5315
2026-01-03 12:33:41.27	183.03	13.17	-46.9	-49.5	14.8	0.00e+00	0	43	0	376438784	65	4834
2026-01-03 12:33:42.28	183.09	13.27	-46.8	-49.4	14.9	0.00e+00	0	43	0	382730240	64	5077
2026-01-03 12:33:43.28	183.15	13.36	-46.3	-48.7	15.7	0.00e+00	0	42	0	387973120	63	4980
2026-01-03 12:33:44.28	183.21	13.46	-46.1	-48.5	15.9	0.00e+00	0	42	0	393216000	63	4824
2026-01-03 12:33:45.29	183.26	13.55	-45.8	-48.1	16.3	0.00e+00	0	42	0	399507456	63	4623
2026-01-03 12:33:46.29	183.32	13.65	-45.5	-47.7	16.7	0.00e+00	0	43	0	404750336	62	4699
2026-01-03 12:33:47.29	183.38	13.75	-45.3	-47.6	16.9	0.00e+00	0	42	0	409993216	62	4625
2026-01-03 12:33:48.29	183.44	13.85	-45.7	-48.0	16.4	0.00e+00	0	43	0	416284672	62	4863
2026-01-03 12:33:49.30	183.51	13.95	-45.4	-47.7	16.7	0.00e+00	0	43	0	421527552	62	4671
2026-01-03 12:33:50.30	183.57	14.04	-45.3	-47.6	16.8	0.00e+00	0	43	0	427819008	61	4879
2026-01-03 12:33:51.30	183.63	14.14	-45.4	-47.7	16.9	0.00e+00	0	43	0	433061888	61	4930
2026-01-03 12:33:52.31	183.69	14.24	-45.2	-47.4	17.0	0.00e+00	0	43	0	439353344	61	4798
2026-01-03 12:33:53.31	183.75	14.34	-44.9	-47.1	17.3	0.00e+00	0	43	0	444596224	61	4651
2026-01-03 12:33:54.31	183.81	14.44	-45.0	-47.2	17.2	0.00e+00	0	43	0	449839104	61	4688
2026-01-03 12:33:55.32	183.88	14.54	-45.1	-47.3	17.2	0.00e+00	0	43	0	456130560	61	4716
2026-01-03 12:33:56.32	183.94	14.64	-44.9	-47.1	17.3	0.00e+00	0	43	0	461373440	61	4628
2026-01-03 12:33:57.32	184.00	14.75	-44.7	-46.8	17.6	0.00e+00	0	43	0	466616320	60	4750
2026-01-03 12:33:58.33	184.07	14.85	-44.3	-46.3	18.0	0.00e+00	0	43	0	472907776	60	4493
2026-01-03 12:33:59.33	184.13	14.95	-44.1	-46.2	18.1	0.00e+00	0	43	0	478150656	60	4421
2026-01-03 12:34:00.33	184.20	15.05	-44.0	-46.0	18.3	0.00e+00	0	43	0	483393536	59	4592
2026-01-03 12:34:01.34	184.27	15.16	-44.0	-46.1	18.2	0.00e+00	0	43	0	489684992	59	4609
2026-01-03 12:34:02.34	184.33	15.26	-44.1	-46.1	18.1	0.00e+00	0	43	0	494927872	59	4628
2026-01-03 12:34:03.35	184.40	15.36	-44.0	-46.0	18.2	0.00e+00	0	43	0	501219328	59	4590
2026-01-03 12:34:04.35	184.46	15.47	-43.6	-45.6	18.6	0.00e+00	0	43	0	506462208	59	4383
2026-01-03 12:34:05.35	184.53	15.57	-42.9	-44.8	19.3	0.00e+00	0	43	0	512753664	57	4464
2026-01-03 12:34:06.36	184.60	15.68	-42.4	-44.2	19.9	0.00e+00	0	43	0	517996544	56	4437
2026-01-03 12:34:07.36	184.67	15.78	-42.1	-43.9	20.1	0.00e+00	0	43	0	523239424	56	4281
2026-01-03 12:34:08.36	184.74	15.89	-42.0	-43.9	20.2	0.00e+00	0	43	0	529530880	56	4261
2026-01-03 12:34:09.37	184.81	16.00	-41.7	-43.6	20.3	0.00e+00	0	43	0	534773760	55	4343
2026-01-03 12:34:10.37	184.88	16.10	-41.6	-43.5	20.4	0.00e+00	0	43	0	540016640	55	4293
2026-01-03 12:34:11.38	184.95	16.21	-41.5	-43.4	20.4	0.00e+00	0	43	0	546308096	55	4270
2026-01-03 12:34:12.38	185.02	16.32	-41.5	-43.4	20.4	0.00e+00	0	43	0	551550976	55	4261
2026-01-03 12:34:13.39	185.09	16.43	-41.4	-43.3	20.5	0.00e+00	0	43	0	556793856	54	4457
2026-01-03 12:34:14.39	185.16	16.53	-41.3	-43.2	20.7	0.00e+00	0	43	0	563085312	54	4399
2026-01-03 12:34:15.39	185.23	16.64	-41.3	-43.2	20.6	0.00e+00	0	43	0	568328192	54	4399
2026-01-03 12:34:16.40	185.30	16.75	-41.3	-43.1	20.7	0.00e+00	0	43	0	574619648	54	4371
2026-01-03 12:34:17.40	185.38	16.86	-41.3	-43.2	20.7	0.00e+00	0	43	0	579862528	54	4394
2026-01-03 12:34:18.40	185.45	16.97	-41.1	-42.9	20.9	0.00e+00	0	43	0	586153984	54	4281
2026-01-03 12:34:19.41	185.52	17.08	-41.0	-42.8	20.9	0.00e+00	0	43	0	591396864	54	4226
2026-01-03 12:34:20.41	185.60	17.20	-41.1	-42.9	20.9	0.00e+00	0	42	0	596639744	54	4251
2026-01-03 12:34:21.42	185.68	17.31	-41.1	-43.0	20.8	0.00e+00	0	43	0	602931200	54	4297
2026-01-03 12:34:22.42	185.75	17.42	-41.0	-42.9	20.9	0.00e+00	0	43	0	608174080	54	4243
2026-01-03 12:34:23.42	185.83	17.53	-41.0	-42.9	20.9	0.00e+00	0	43	0	613416960	54	4251
2026-01-03 12:34:24.42	185.90	17.64	-41.1	-42.9	20.9	0.00e+00	0	43	0	619708416	54	4284
2026-01-03 12:34:25.43	185.98	17.76	-41.1	-42.9	20.9	0.00e+00	0	43	0	624951296	54	4280
2026-01-03 12:34:26.43	186.06	17.87	-41.0	-42.8	21.0	0.00e+00	0	43	0	630194176	54	4225
2026-01-03 12:34:27.43	186.14	17.99	-41.0	-42.8	21.0	0.00e+00	0	43	0	636485632	54	4230
2026-01-03 12:34:28.44	186.22	18.10	-40.9	-42.8	21.0	0.00e+00	0	43	0	641728512	53	4446
2026-01-03 12:34:29.44	186.30	18.22	-41.0	-42.8	20.9	0.00e+00	0	43	0	648019968	53	4488
2026-01-03 12:34:30.45	186.38	18.33	-41.0	-42.8	21.0	0.00e+00	0	43	0	653262848	53	4458
2026-01-03 12:34:31.45	186.46	18.45	-41.0	-42.8	20.9	0.00e+00	0	43	0	659554304	53	4481
2026-01-03 12:34:32.45	186.54	18.57	-41.0	-42.8	20.9	0.00e+00	0	43	0	664797184	53	4486
2026-01-03 12:34:33.46	186.62	18.69	-40.8	-42.7	21.1	0.00e+00	0	43	0	670040064	53	4395
2026-01-03 12:34:34.46	186.70	18.80	-40.8	-42.6	21.1	0.00e+00	0	43	0	676331520	53	4360
2026-01-03 12:34:35.46	186.79	18.92	-40.8	-42.6	21.1	0.00e+00	0	43	0	681574400	53	4356
2026-01-03 12:34:36.47	186.87	19.04	-40.8	-42.6	21.1	0.00e+00	0	43	0	686817280	53	4379
2026-01-03 12:34:37.47	186.95	19.16	-40.7	-42.5	21.2	0.00e+00	0	43	0	693108736	53	4340
2026-01-03 12:34:38.47	187.04	19.28	-40.8	-42.6	21.1	0.00e+00	0	43	0	698351616	53	4381
2026-01-03 12:34:39.48	187.13	19.40	-40.8	-42.6	21.2	0.00e+00	0	43	0	703594496	53	4353
2026-01-03 12:34:40.48	187.21	19.52	-40.9	-42.7	21.1	0.00e+00	0	43	0	709885952	53	4406
2026-01-03 12:34:41.48	187.30	19.64	-40.8	-42.6	21.1	0.00e+00	0	43	0	715128832	53	4371
2026-01-03 12:34:42.49	187.39	19.77	-40.8	-42.6	21.1	0.00e+00	0	43	0	721420288	53	4372
2026-01-03 12:34:43.49	187.47	19.89	-40.8	-42.6	21.1	0.00e+00	0	43	0	726663168	53	4384
2026-01-03 12:34:44.49	187.56	20.01	-40.8	-42.6	21.2	0.00e+00	0	43	0	731906048	53	4345
2026-01-03 12:34:45.50	187.65	20.14	-40.7	-42.5	21.2	0.00e+00	0	43	0	738197504	53	4326
2026-01-03 12:34:46.50	187.74	20.26	-40.8	-42.6	21.2	0.00e+00	0	43	0	743440384	53	4348
2026-01-03 12:34:47.51	187.84	20.39	-40.6	-42.4	21.3	0.00e+00	0	43	0	749731840	53	4254
2026-01-03 12:34:48.51	187.93	20.51	-40.5	-42.3	21.4	0.00e+00	0	43	0	754974720	53	4221
2026-01-03 12:34:49.51	188.02	20.64	-40.5	-42.3	21.4	0.00e+00	0	43	0	760217600	53	4221
2026-01-03 12:34:50.51	188.11	20.76	-40.4	-42.2	21.5	0.00e+00	0	43	0	766509056	52	4416
2026-01-03 12:34:51.52	188.21	20.89	-40.4	-42.2	21.5	0.00e+00	0	43	0	771751936	52	4411
2026-01-03 12:34:52.52	188.30	21.02	-40.5	-42.2	21.5	0.00e+00	0	43	0	776994816	52	4428
2026-01-03 12:34:53.53	188.40	21.15	-40.5	-42.3	21.5	0.00e+00	0	43	0	783286272	52	4448
2026-01-03 12:34:54.53	188.49	21.28	-40.3	-42.1	21.6	0.00e+00	0	43	0	788529152	52	4352
2026-01-03 12:34:55.54	188.59	21.41	-40.4	-42.1	21.6	0.00e+00	0	43	0	794820608	52	4381
2026-01-03 12:34:56.54	188.69	21.54	-40.4	-42.1	21.6	0.00e+00	0	43	0	800063488	52	4374
2026-01-03 12:34:57.54	188.79	21.67	-40.3	-42.1	21.6	0.00e+00	0	43	0	805306368	52	4362
2026-01-03 12:34:58.55	188.89	21.80	-40.3	-42.1	21.6	0.00e+00	0	43	0	811597824	52	4373
2026-01-03 12:34:59.55	188.99	21.93	-40.3	-42.1	21.7	0.00e+00	0	43	0	816840704	52	4341
2026-01-03 12:35:00.53	189.09	22.06	-40.3	-42.0	21.7	0.00e+00	0	43	0	822083584	52	4340
2026-01-03 12:35:01.53	189.19	22.19	-40.4	-42.1	21.7	0.00e+00	0	43	0	828375040	52	4383
2026-01-03 12:35:02.53	189.29	22.33	-40.3	-42.1	21.7	0.00e+00	0	43	0	833617920	52	4354
2026-01-03 12:35:03.54	189.40	22.46	-40.3	-42.0	21.7	0.00e+00	0	43	0	838860800	52	4333
2026-01-03 12:35:04.54	189.50	22.60	-40.3	-42.1	21.7	0.00e+00	0	43	0	845152256	52	4350
2026-01-03 12:35:05.54	189.61	22.73	-40.2	-42.0	21.7	0.00e+00	0	43	0	850395136	52	4315
2026-01-03 12:35:06.55	189.71	22.87	-40.2	-42.0	21.7	0.00e+00	0	43	0	856686592	52	4320
2026-01-03 12:35:07.55	189.82	23.00	-40.2	-41.9	21.8	0.00e+00	0	43	0	861929472	52	4277
2026-01-03 12:35:08.55	189.93	23.14	-40.1	-41.8	21.9	0.00e+00	0	43	0	868220928	52	4223
2026-01-03 12:35:09.55	190.04	23.28	-40.1	-41.8	21.8	0.00e+00	0	43	0	873463808	52	4236
2026-01-03 12:35:10.56	190.15	23.42	-40.2	-41.9	21.8	0.00e+00	0	43	0	878706688	52	4290
2026-01-03 12:35:11.56	190.26	23.56	-40.0	-41.8	21.9	0.00e+00	0	43	0	884998144	52	4195
2026-01-03 12:35:12.56	190.37	23.70	-40.1	-41.8	21.9	0.00e+00	0	43	0	890241024	52	4224
2026-01-03 12:35:13.57	190.48	23.84	-40.1	-41.9	21.8	0.00e+00	0	43	0	895483904	52	4261
2026-01-03 12:35:14.57	190.60	23.98	-40.1	-41.8	21.9	0.00e+00	0	43	0	901775360	52	4223
2026-01-03 12:35:15.57	190.71	24.12	-40.1	-41.8	21.9	0.00e+00	0	43	0	907018240	52	4235
2026-01-03 12:35:16.58	190.83	24.27	-39.9	-41.7	22.1	0.00e+00	0	43	0	912261120	51	4410
2026-01-03 12:35:17.58	190.94	24.41	-39.9	-41.6	22.2	0.00e+00	0	43	0	918552576	51	4362
2026-01-03 12:35:18.58	191.06	24.55	-40.0	-41.7	22.1	0.00e+00	0	43	0	923795456	51	4430
2026-01-03 12:35:19.58	191.18	24.70	-40.0	-41.7	22.1	0.00e+00	0	43	0	930086912	51	4412
2026-01-03 12:35:20.59	191.30	24.84	-39.9	-41.6	22.2	0.00e+00	0	43	0	935329792	51	4382
2026-01-03 12:35:21.59	191.42	24.99	-40.0	-41.7	22.1	0.00e+00	0	43	0	940572672	51	4408
2026-01-03 12:35:22.59	191.54	25.13	-39.9	-41.7	22.1	0.00e+00	0	43	0	946864128	51	4407
2026-01-03 12:35:23.59	191.67	25.28	-40.0	-41.7	22.1	0.00e+00	0	43	0	952107008	51	4420
2026-01-03 12:35:24.60	191.79	25.43	-40.0	-41.7	22.1	0.00e+00	0	43	0	958398464	51	4432
2026-01-03 12:35:25.60	191.92	25.58	-39.9	-41.6	22.2	0.00e+00	0	43	0	963641344	51	4377
2026-01-03 12:35:26.60	192.04	25.73	-39.8	-41.5	22.2	0.00e+00	0	43	0	968884224	51	4320
2026-01-03 12:35:27.60	192.17	25.88	-39.8	-41.5	22.3	0.00e+00	0	43	0	975175680	51	4305
2026-01-03 12:35:28.61	192.30	26.03	-39.8	-41.5	22.3	0.00e+00	0	43	0	980418560	51	4325
2026-01-03 12:35:29.61	192.43	26.18	-39.8	-41.5	22.3	0.00e+00	0	43	0	985661440	51	4333
2026-01-03 12:35:30.62	192.56	26.33	-39.8	-41.5	22.3	0.00e+00	0	43	0	991952896	51	4335
2026-01-03 12:35:31.62	192.70	26.48	-39.9	-41.6	22.3	0.00e+00	0	43	0	997195776	51	4364
2026-01-03 12:35:32.62	192.83	26.64	-39.9	-41.6	22.3	0.00e+00	0	43	0	1003487232	51	4373
2026-01-03 12:35:33.62	192.96	26.79	-39.9	-41.6	22.2	0.00e+00	0	43	0	1008730112	51	4384
2026-01-03 12:35:34.63	193.10	26.95	-39.9	-41.6	22.2	0.00e+00	0	43	0	1013972992	51	4374
2026-01-03 12:35:35.63	193.24	27.10	-39.9	-41.6	22.2	0.00e+00	0	43	0	1020264448	51	4364
2026-01-03 12:35:36.63	193.38	27.26	-39.9	-41.6	22.2	0.00e+00	0	43	0	1025507328	51	4365
2026-01-03 12:35:37.63	193.52	27.42	-39.9	-41.6	22.2	0.00e+00	0	43	0	1030750208	51	4389
2026-01-03 12:35:38.64	193.66	27.58	-39.9	-41.6	22.2	0.00e+00	0	43	0	1037041664	51	4366
2026-01-03 12:35:39.64	193.80	27.73	-39.8	-41.6	22.3	0.00e+00	0	43	0	1042284544	51	4354
2026-01-03 12:35:40.64	193.95	27.89	-39.9	-41.7	22.2	0.00e+00	0	43	0	1048576000	51	4403
2026-01-03 12:35:41.64	194.09	28.05	-39.9	-41.6	22.2	0.00e+00	0	43	0	1053818880	51	4365
2026-01-03 12:35:42.65	194.24	28.21	-39.9	-41.6	22.2	0.00e+00	0	43	0	1060110336	51	4375
2026-01-03 12:35:43.65	194.39	28.37	-39.9	-41.6	22.2	0.00e+00	0	43	0	1065353216	51	4386
2026-01-03 12:35:44.65	194.54	28.54	-39.8	-41.5	22.3	0.00e+00	0	43	0	1070596096	51	4326
2026-01-03 12:35:45.66	194.69	28.70	-39.5	-41.2	22.6	0.00e+00	0	43	0	1076887552	51	4188
2026-01-03 12:35:46.66	194.85	28.86	-39.5	-41.3	22.6	0.00e+00	0	43	0	1082130432	51	4195
2026-01-03 12:35:47.66	195.00	29.03	-39.5	-41.2	22.6	0.00e+00	0	43	0	1087373312	51	4165
2026-01-03 12:35:48.67	195.16	29.19	-39.6	-41.3	22.5	0.00e+00	0	43	0	1093664768	51	4206
2026-01-03 12:35:49.67	195.32	29.36	-39.7	-41.4	22.4	0.00e+00	0	43	0	1098907648	51	4269
2026-01-03 12:35:50.67	195.47	29.53	-39.9	-41.6	22.3	0.00e+00	0	43	0	1104150528	51	4373
2026-01-03 12:35:51.68	195.64	29.70	-39.9	-41.7	22.2	0.00e+00	0	43	0	1110441984	51	4409
2026-01-03 12:35:52.68	195.80	29.86	-40.0	-41.8	22.1	0.00e+00	0	43	0	1115684864	51	4456
2026-01-03 12:35:53.68	195.96	30.03	-40.0	-41.8	22.1	0.00e+00	0	43	0	1121976320	51	4445
2026-01-03 12:35:54.69	196.13	30.20	-40.0	-41.8	22.1	0.00e+00	0	43	0	1127219200	51	4461
2026-01-03 12:35:55.69	196.30	30.37	-40.1	-41.8	22.0	0.00e+00	0	43	0	1132462080	51	4489
2026-01-03 12:35:56.69	196.47	30.54	-40.1	-41.8	22.1	0.00e+00	0	43	0	1138753536	51	4472
2026-01-03 12:35:57.70	196.64	30.72	-40.2	-41.9	22.0	0.00e+00	0	43	0	1143996416	51	4540
2026-01-03 12:35:58.70	196.81	30.89	-39.8	-41.6	22.3	0.00e+00	0	43	0	1150287872	51	4341
2026-01-03 12:35:59.70	196.99	31.06	-39.6	-41.4	22.5	0.00e+00	0	43	0	1155530752	51	4244
2026-01-03 12:36:00.71	197.17	31.24	-39.5	-41.2	22.7	0.00e+00	0	43	0	1160773632	50	4397
2026-01-03 12:36:01.71	197.34	31.41	-39.2	-40.9	22.9	0.00e+00	0	43	0	1167065088	50	4263
2026-01-03 12:36:02.71	197.52	31.59	-39.3	-41.0	22.8	0.00e+00	0	43	0	1172307968	50	4315
2026-01-03 12:36:03.72	197.71	31.77	-39.4	-41.1	22.7	0.00e+00	0	43	0	1177550848	50	4372
2026-01-03 12:36:04.72	197.89	31.94	-39.5	-41.2	22.6	0.00e+00	0	43	0	1183842304	50	4421
2026-01-03 12:36:05.72	198.08	32.12	-39.7	-41.4	22.4	0.00e+00	0	43	0	1189085184	50	4517
2026-01-03 12:36:06.73	198.27	32.30	-39.7	-41.5	22.4	0.00e+00	0	43	0	1195376640	50	4552
2026-01-03 12:36:07.73	198.46	32.48	-39.7	-41.4	22.4	0.00e+00	0	43	0	1200619520	50	4526
2026-01-03 12:36:08.73	198.65	32.66	-39.6	-41.3	22.5	0.00e+00	0	43	0	1205862400	50	4482
2026-01-03 12:36:09.74	198.85	32.84	-39.7	-41.4	22.5	0.00e+00	0	43	0	1212153856	50	4509
2026-01-03 12:36:10.74	199.04	33.02	-39.6	-41.3	22.6	0.00e+00	0	43	0	1217396736	50	4458
2026-01-03 12:36:11.74	199.24	33.20	-39.6	-41.3	22.5	0.00e+00	0	43	0	1222639616	50	4482
2026-01-03 12:36:12.74	199.44	33.39	-39.4	-41.1	22.7	0.00e+00	0	43	0	1228931072	50	4383
2026-01-03 12:36:13.75	199.65	33.57	-39.4	-41.1	22.8	0.00e+00	0	43	0	1234173952	50	4387
2026-01-03 12:36:14.75	199.85	33.76	-39.4	-41.1	22.8	0.00e+00	0	43	0	1240465408	50	4357
2026-01-03 12:36:15.76	200.06	33.94	-39.4	-41.1	22.8	0.00e+00	0	43	0	1245708288	50	4351
2026-01-03 12:36:16.76	200.27	34.13	-39.3	-41.0	22.8	0.00e+00	0	43	0	1250951168	50	4325
2026-01-03 12:36:17.77	200.49	34.32	-39.4	-41.0	22.8	0.00e+00	0	43	0	1257242624	50	4334
2026-01-03 12:36:18.77	200.70	34.50	-39.3	-41.0	22.8	0.00e+00	0	43	0	1262485504	50	4321
2026-01-03 12:36:19.77	200.92	34.69	-39.4	-41.0	22.8	0.00e+00	0	43	0	1268776960	50	4338
2026-01-03 12:36:20.77	201.14	34.88	-39.5	-41.2	22.7	0.00e+00	0	43	0	1274019840	50	4406
2026-01-03 12:36:21.78	201.36	35.07	-39.3	-41.1	22.7	0.00e+00	0	43	0	1279262720	50	4343
2026-01-03 12:36:22.78	201.59	35.26	-39.4	-41.1	22.7	0.00e+00	0	43	0	1285554176	50	4383
2026-01-03 12:36:23.79	201.82	35.45	-39.3	-41.0	22.8	0.00e+00	0	43	0	1290797056	50	4316
2026-01-03 12:36:24.79	202.05	35.64	-39.3	-41.0	22.9	0.00e+00	0	43	0	1296039936	50	4303
2026-01-03 12:36:25.79	202.28	35.83	-39.3	-41.0	22.8	0.00e+00	0	43	0	1302331392	50	4313
2026-01-03 12:36:26.79	202.51	36.03	-39.1	-40.8	23.0	0.00e+00	0	43	0	1307574272	50	4223
2026-01-03 12:36:27.80	202.75	36.22	-39.2	-40.9	22.9	0.00e+00	0	43	0	1313865728	50	4245
2026-01-03 12:36:28.80	203.00	36.41	-39.2	-40.8	22.9	0.00e+00	0	43	0	1319108608	50	4242
2026-01-03 12:36:29.80	203.24	36.61	-39.2	-40.9	22.9	0.00e+00	0	43	0	1324351488	50	4243
2026-01-03 12:36:30.81	203.49	36.80	-39.3	-41.0	22.8	0.00e+00	0	43	0	1330642944	50	4312
2026-01-03 12:36:31.81	203.74	37.00	-39.2	-40.9	22.8	0.00e+00	0	43	0	1335885824	50	4281
2026-01-03 12:36:32.82	203.99	37.20	-39.2	-40.9	22.8	0.00e+00	0	43	0	1342177280	50	4284
2026-01-03 12:36:33.82	204.25	37.39	-39.2	-40.9	22.8	0.00e+00	0	43	0	1347420160	50	4275
2026-01-03 12:36:34.82	204.51	37.59	-39.2	-41.0	22.8	0.00e+00	0	43	0	1352663040	50	4293
2026-01-03 12:36:35.82	204.77	37.79	-39.2	-40.9	22.8	0.00e+00	0	43	0	1358954496	50	4255
2026-01-03 12:36:36.83	205.03	37.99	-39.3	-41.0	22.8	0.00e+00	0	43	0	1364197376	50	4316
2026-01-03 12:36:37.83	205.30	38.18	-39.3	-41.0	22.8	0.00e+00	0	43	0	1369440256	50	4315
2026-01-03 12:36:38.83	205.57	38.38	-39.3	-41.0	22.8	0.00e+00	0	43	0	1375731712	50	4316
2026-01-03 12:36:39.84	205.85	38.58	-39.4	-41.1	22.8	0.00e+00	0	43	0	1380974592	50	4349
2026-01-03 12:36:40.84	206.13	38.78	-39.4	-41.1	22.8	0.00e+00	0	43	0	1386217472	50	4374
2026-01-03 12:36:41.84	206.41	38.98	-39.4	-41.1	22.8	0.00e+00	0	43	0	1392508928	50	4362
2026-01-03 12:36:42.85	206.70	39.19	-39.3	-41.0	22.9	0.00e+00	0	43	0	1397751808	50	4307
2026-01-03 12:36:43.85	206.98	39.39	-39.3	-41.0	22.9	0.00e+00	0	43	0	1404043264	50	4311
2026-01-03 12:36:44.85	207.28	39.59	-39.2	-40.8	23.0	0.00e+00	0	43	0	1409286144	50	4237
2026-01-03 12:36:45.86	207.57	39.79	-39.2	-40.9	23.0	0.00e+00	0	43	0	1415577600	50	4250
2026-01-03 12:36:46.86	207.87	39.99	-39.3	-41.0	22.9	0.00e+00	0	43	0	1420820480	50	4318
2026-01-03 12:36:47.86	208.18	40.20	-39.3	-40.9	22.9	0.00e+00	0	43	0	1426063360	50	4286
2026-01-03 12:36:48.87	208.48	40.40	-39.2	-40.8	23.0	0.00e+00	0	43	0	1432354816	50	4239
2026-01-03 12:36:49.87	208.79	40.60	-39.2	-40.9	23.0	0.00e+00	0	43	0	1437597696	50	4256
2026-01-03 12:36:50.87	209.11	40.81	-39.1	-40.8	23.0	0.00e+00	0	43	0	1442840576	50	4221
2026-01-03 12:36:51.88	209.43	41.01	-39.1	-40.8	23.0	0.00e+00	0	43	0	1449132032	50	4202
2026-01-03 12:36:52.88	209.75	41.21	-39.2	-40.9	23.0	0.00e+00	0	43	0	1454374912	50	4245
2026-01-03 12:36:53.88	210.08	41.42	-39.2	-40.9	23.0	0.00e+00	0	43	0	1459617792	50	4267
2026-01-03 12:36:54.88	210.41	41.62	-39.4	-41.1	22.8	0.00e+00	0	43	0	1465909248	50	4360
2026-01-03 12:36:55.89	210.74	41.83	-39.6	-41.3	22.6	0.00e+00	0	43	0	1471152128	50	4462
2026-01-03 12:36:56.89	211.08	42.03	-39.7	-41.4	22.5	0.00e+00	0	43	0	1477443584	50	4526
2026-01-03 12:36:57.89	211.42	42.23	-39.6	-41.4	22.6	0.00e+00	0	43	0	1482686464	50	4495
2026-01-03 12:36:58.89	211.77	42.44	-39.7	-41.4	22.6	0.00e+00	0	43	0	1487929344	50	4515
2026-01-03 12:36:59.89	212.12	42.64	-39.6	-41.3	22.6	0.00e+00	0	43	0	1494220800	50	4474
2026-01-03 12:37:00.89	212.48	42.85	-39.4	-41.1	22.7	0.00e+00	0	43	0	1499463680	50	4376
2026-01-03 12:37:01.89	212.84	43.05	-39.5	-41.1	22.8	0.00e+00	0	43	0	1504706560	50	4390
2026-01-03 12:37:02.89	213.20	43.25	-39.6	-41.2	22.7	0.00e+00	0	43	0	1510998016	50	4434
2026-01-03 12:37:03.90	213.57	43.46	-39.9	-41.6	22.4	0.00e+00	0	43	0	1516240896	50	4632
2026-01-03 12:37:04.90	213.95	43.66	-39.9	-41.6	22.4	0.00e+00	0	43	0	1522532352	50	4615
2026-01-03 12:37:05.91	214.33	43.86	-39.8	-41.5	22.4	0.00e+00	0	43	0	1527775232	50	4570
2026-01-03 12:37:06.91	214.71	44.07	-40.0	-41.7	22.3	0.00e+00	0	43	0	1533018112	50	4659
2026-01-03 12:37:07.91	215.10	44.27	-39.7	-41.4	22.6	0.00e+00	0	43	0	1539309568	50	4500
2026-01-03 12:37:08.92	215.50	44.47	-39.6	-41.3	22.6	0.00e+00	0	43	0	1544552448	50	4459
2026-01-03 12:37:09.92	215.90	44.67	-39.7	-41.4	22.6	0.00e+00	0	43	0	1550843904	50	4503
2026-01-03 12:37:10.92	216.30	44.87	-39.8	-41.5	22.4	0.00e+00	0	43	0	1556086784	50	4564
2026-01-03 12:37:11.92	216.71	45.07	-39.9	-41.6	22.3	0.00e+00	0	43	0	1561329664	50	4627
2026-01-03 12:37:12.93	217.13	45.27	-39.8	-41.5	22.4	0.00e+00	0	43	0	1567621120	50	4552
2026-01-03 12:37:13.93	217.54	45.47	-39.9	-41.6	22.4	0.00e+00	0	43	0	1572864000	50	4615
2026-01-03 12:37:14.93	217.97	45.67	-39.8	-41.5	22.4	0.00e+00	0	43	0	1578106880	50	4562
2026-01-03 12:37:15.93	218.40	45.87	-40.0	-41.7	22.3	0.00e+00	0	43	0	1584398336	50	4663
2026-01-03 12:37:16.94	218.83	46.07	-40.1	-41.8	22.2	0.00e+00	0	43	0	1589641216	50	4742
2026-01-03 12:37:17.94	219.27	46.26	-39.9	-41.7	22.3	0.00e+00	0	43	0	1594884096	50	4660
2026-01-03 12:37:18.94	219.72	46.46	-39.8	-41.5	22.5	0.00e+00	0	43	0	1601175552	50	4550
2026-01-03 12:37:19.95	220.17	46.65	-39.7	-41.4	22.6	0.00e+00	0	43	0	1606418432	50	4526
2026-01-03 12:37:20.94	220.63	46.84	-39.6	-41.3	22.7	0.00e+00	0	43	0	1612709888	50	4471
2026-01-03 12:37:21.95	221.09	47.04	-39.8	-41.5	22.5	0.00e+00	0	43	0	1617952768	50	4569
2026-01-03 12:37:22.96	221.56	47.23	-39.9	-41.6	22.4	0.00e+00	0	43	0	1624244224	50	4632
2026-01-03 12:37:23.96	222.04	47.42	-39.9	-41.6	22.4	0.00e+00	0	43	0	1629487104	50	4612
2026-01-03 12:37:24.96	222.51	47.61	-39.9	-41.5	22.5	0.00e+00	0	43	0	1634729984	50	4597
2026-01-03 12:37:25.96	223.00	47.79	-39.6	-41.3	22.7	0.00e+00	0	43	0	1641021440	50	4446
2026-01-03 12:37:26.97	223.49	47.98	-39.7	-41.4	22.6	0.00e+00	0	43	0	1646264320	50	4525
2026-01-03 12:37:27.97	223.99	48.17	-39.6	-41.3	22.7	0.00e+00	0	43	0	1651507200	50	4454
2026-01-03 12:37:28.97	224.49	48.35	-39.7	-41.4	22.6	0.00e+00	0	43	0	1657798656	50	4518
2026-01-03 12:37:29.97	225.00	48.53	-39.8	-41.5	22.5	0.00e+00	0	43	0	1663041536	50	4550
2026-01-03 12:37:30.97	225.51	48.71	-40.0	-41.7	22.3	0.00e+00	0	43	0	1668284416	50	4691
2026-01-03 12:37:31.98	226.04	48.89	-40.2	-42.0	22.1	0.00e+00	0	43	0	1674575872	51	4549
2026-01-03 12:37:32.98	226.56	49.06	-40.1	-41.9	22.2	0.00e+00	0	43	0	1679818752	51	4499
2026-01-03 12:37:33.99	227.10	49.24	-39.9	-41.7	22.4	0.00e+00	0	43	0	1686110208	51	4393
2026-01-03 12:37:34.99	227.64	49.41	-39.7	-41.3	22.7	0.00e+00	0	43	0	1691353088	51	4240
2026-01-03 12:37:35.99	228.18	49.58	-39.7	-41.4	22.7	0.00e+00	0	43	0	1696595968	51	4244
2026-01-03 12:37:37.00	228.74	49.75	-39.9	-41.6	22.5	0.00e+00	0	43	0	1702887424	51	4366
2026-01-03 12:37:38.00	229.29	49.91	-40.1	-41.8	22.3	0.00e+00	0	43	0	1708130304	51	4491
2026-01-03 12:37:39.00	229.85	50.08	-40.2	-42.0	22.1	0.00e+00	0	43	0	1714421760	51	4566
2026-01-03 12:37:40.01	230.43	50.24	-40.5	-42.2	22.0	0.00e+00	0	43	0	1719664640	51	4682
2026-01-03 12:37:41.02	231.00	50.40	-40.2	-41.9	22.1	0.00e+00	0	43	0	1724907520	51	4541
2026-01-03 12:37:42.02	231.58	50.55	-40.2	-41.9	22.2	0.00e+00	0	43	0	1731198976	51	4494
2026-01-03 12:37:43.02	232.17	50.71	-40.2	-41.9	22.1	0.00e+00	0	43	0	1736441856	51	4545
2026-01-03 12:37:44.03	232.77	50.86	-40.3	-42.0	22.1	0.00e+00	0	43	0	1741684736	51	4596
2026-01-03 12:37:45.03	233.36	51.01	-40.4	-42.2	22.0	0.00e+00	0	43	0	1747976192	51	4661
2026-01-03 12:37:46.03	233.97	51.15	-40.4	-42.1	22.1	0.00e+00	0	43	0	1753219072	51	4622
2026-01-03 12:37:47.04	234.58	51.30	-40.2	-41.9	22.2	0.00e+00	0	43	0	1759510528	51	4530
2026-01-03 12:37:48.04	235.20	51.44	-40.2	-41.9	22.2	0.00e+00	0	43	0	1764753408	51	4545
2026-01-03 12:37:49.05	235.82	51.57	-40.2	-41.9	22.2	0.00e+00	0	43	0	1769996288	51	4530
2026-01-03 12:37:50.05	236.45	51.71	-40.1	-41.8	22.3	0.00e+00	0	43	0	1776287744	51	4481
2026-01-03 12:37:51.05	237.08	51.84	-40.2	-41.9	22.2	0.00e+00	0	43	0	1781530624	51	4520
2026-01-03 12:37:52.06	237.72	51.97	-40.5	-42.2	21.9	0.00e+00	0	43	0	1787822080	51	4697
2026-01-03 12:37:53.06	238.36	52.09	-40.3	-42.1	22.0	0.00e+00	0	43	0	1793064960	51	4605
2026-01-03 12:37:54.06	239.01	52.21	-40.2	-42.0	22.1	0.00e+00	0	43	0	1798307840	51	4547
2026-01-03 12:37:55.07	239.67	52.33	-40.3	-42.0	22.1	0.00e+00	0	43	0	1804599296	51	4577
2026-01-03 12:37:56.07	240.33	52.44	-40.5	-42.3	21.8	0.00e+00	0	43	0	1809842176	51	4719
2026-01-03 12:37:57.07	240.99	52.55	-40.3	-42.1	22.0	0.00e+00	0	43	0	1815085056	51	4619
2026-01-03 12:37:58.07	241.66	52.66	-40.2	-41.9	22.1	0.00e+00	0	43	0	1821376512	51	4544
2026-01-03 12:37:59.08	242.33	52.76	-40.4	-42.1	22.1	0.00e+00	0	43	0	1826619392	51	4616
2026-01-03 12:38:00.08	243.01	52.86	-40.4	-42.2	22.0	0.00e+00	0	43	0	1832910848	51	4653
2026-01-03 12:38:01.08	243.69	52.95	-40.1	-41.8	22.2	0.00e+00	0	43	0	1838153728	51	4491
2026-01-03 12:38:02.09	244.38	53.04	-40.2	-41.9	22.3	0.00e+00	0	43	0	1843396608	51	4500
2026-01-03 12:38:03.09	245.07	53.13	-40.1	-41.8	22.3	0.00e+00	0	43	0	1849688064	51	4477
2026-01-03 12:38:04.09	245.77	53.21	-40.2	-41.9	22.3	0.00e+00	0	43	0	1854930944	51	4514
2026-01-03 12:38:05.10	246.47	53.29	-40.4	-42.2	22.0	0.00e+00	0	43	0	1861222400	51	4656
2026-01-03 12:38:06.10	247.17	53.36	-40.3	-42.0	22.1	0.00e+00	0	43	0	1866465280	51	4584
2026-01-03 12:38:07.10	247.87	53.43	-40.4	-42.1	22.0	0.00e+00	0	43	0	1871708160	51	4625
2026-01-03 12:38:08.11	248.59	53.50	-40.6	-42.4	21.8	0.00e+00	0	43	0	1877999616	51	4766
2026-01-03 12:38:09.11	249.30	53.56	-40.7	-42.5	21.7	0.00e+00	0	43	0	1883242496	52	4554
2026-01-03 12:38:10.11	250.01	53.62	-40.7	-42.4	21.7	0.00e+00	0	43	0	1888485376	52	4540
2026-01-03 12:38:11.12	250.74	53.67	-40.4	-42.1	21.9	0.00e+00	0	43	0	1894776832	52	4374
2026-01-03 12:38:12.12	251.45	53.72	-40.4	-42.1	22.0	0.00e+00	0	43	0	1900019712	52	4386
2026-01-03 12:38:13.12	252.17	53.76	-40.4	-42.1	22.0	0.00e+00	0	43	0	1906311168	52	4369
2026-01-03 12:38:14.13	252.90	53.80	-40.2	-41.9	22.2	0.00e+00	0	43	0	1911554048	52	4253
2026-01-03 12:38:15.13	253.63	53.84	-40.0	-41.7	22.4	0.00e+00	0	43	0	1916796928	51	4412
2026-01-03 12:38:16.14	254.36	53.87	-40.2	-41.9	22.2	0.00e+00	0	43	0	1923088384	51	4544
2026-01-03 12:38:17.14	255.09	53.89	-40.5	-42.2	21.9	0.00e+00	0	43	0	1928331264	51	4686
2026-01-03 12:38:18.14	255.82	53.91	-40.6	-42.4	21.8	0.00e+00	0	43	0	1933574144	51	4775
2026-01-03 12:38:19.14	256.55	53.93	-40.7	-42.5	21.6	0.00e+00	0	43	0	1939865600	52	4566
2026-01-03 12:38:20.15	257.29	53.94	-40.6	-42.4	21.7	0.00e+00	0	43	0	1945108480	52	4520
2026-01-03 12:38:21.15	258.02	53.95	-40.5	-42.2	21.8	0.00e+00	0	43	0	1951399936	52	4429
2026-01-03 12:38:22.15	258.75	53.95	-40.5	-42.2	21.8	0.00e+00	0	43	0	1956642816	52	4413
2026-01-03 12:38:23.16	259.49	53.95	-40.4	-42.2	21.9	0.00e+00	0	43	0	1961885696	52	4398
2026-01-03 12:38:24.16	260.22	53.94	-40.8	-42.6	21.5	0.00e+00	0	43	0	1968177152	52	4642
2026-01-03 12:38:25.17	260.95	53.93	-40.7	-42.5	21.7	0.00e+00	0	43	0	1973420032	52	4550
2026-01-03 12:38:26.17	261.68	53.91	-40.3	-42.0	22.1	0.00e+00	0	44	0	1979711488	52	4326
2026-01-03 12:38:27.17	262.41	53.89	-40.3	-42.0	22.1	0.00e+00	0	43	0	1984954368	52	4336
2026-01-03 12:38:28.18	263.15	53.87	-40.6	-42.3	21.8	0.00e+00	0	43	0	1990197248	52	4476
2026-01-03 12:38:29.18	263.87	53.84	-40.4	-42.1	21.9	0.00e+00	0	43	0	1996488704	52	4384
2026-01-03 12:38:30.19	264.60	53.80	-40.2	-41.9	22.1	0.00e+00	0	43	0	2001731584	52	4254
2026-01-03 12:38:31.19	265.33	53.76	-40.2	-41.9	22.1	0.00e+00	0	43	0	2006974464	52	4274
2026-01-03 12:38:32.20	266.05	53.72	-40.1	-41.9	22.2	0.00e+00	0	43	0	2013265920	52	4246
2026-01-03 12:38:33.20	266.77	53.67	-40.3	-42.1	22.0	0.00e+00	0	43	0	2018508800	52	4342
2026-01-03 12:38:34.20	267.49	53.62	-40.1	-41.9	22.1	0.00e+00	0	43	0	2024800256	52	4247
2026-01-03 12:38:35.20	268.20	53.56	-39.9	-41.6	22.3	0.00e+00	0	43	0	2030043136	51	4383
2026-01-03 12:38:36.21	268.92	53.50	-39.9	-41.6	22.4	0.00e+00	0	43	0	2036334592	51	4345
2026-01-03 12:38:37.21	269.62	53.43	-40.4	-42.1	21.9	0.00e+00	0	43	0	2041577472	51	4647
2026-01-03 12:38:38.22	270.33	53.36	-40.5	-42.3	21.9	0.00e+00	0	43	0	2046820352	51	4712
2026-01-03 12:38:39.22	271.03	53.29	-40.1	-41.8	22.3	0.00e+00	0	43	0	2053111808	51	4468
2026-01-03 12:38:40.22	271.73	53.21	-40.3	-42.0	22.2	0.00e+00	0	43	0	2058354688	51	4550
2026-01-03 12:38:41.22	272.42	53.13	-40.6	-42.3	21.9	0.00e+00	0	43	0	2063597568	51	4720
2026-01-03 12:38:42.23	273.12	53.04	-40.7	-42.4	21.7	0.00e+00	0	43	0	2069889024	52	4524
2026-01-03 12:38:43.23	273.80	52.95	-40.3	-42.0	22.1	0.00e+00	0	43	0	2075131904	52	4330
2026-01-03 12:38:44.23	274.48	52.86	-40.5	-42.2	21.9	0.00e+00	0	43	0	2080374784	52	4413
2026-01-03 12:38:45.23	275.16	52.76	-40.5	-42.3	21.8	0.00e+00	0	43	0	2086666240	52	4443
2026-01-03 12:38:46.24	275.84	52.66	-40.5	-42.3	21.8	0.00e+00	0	43	0	2091909120	52	4460
2026-01-03 12:38:47.24	276.50	52.55	-40.6	-42.4	21.7	0.00e+00	0	43	0	2098200576	52	4501
2026-01-03 12:38:48.24	277.16	52.44	-40.4	-42.2	21.9	0.00e+00	0	43	0	2103443456	52	4401
2026-01-03 12:38:49.24	277.82	52.33	-40.4	-42.1	22.0	0.00e+00	0	43	0	2108686336	52	4384
2026-01-03 12:38:50.25	278.48	52.21	-40.1	-41.9	22.1	0.00e+00	0	43	0	2114977792	52	4253
2026-01-03 12:38:51.25	279.12	52.09	-40.0	-41.7	22.3	0.00e+00	0	43	0	2120220672	52	4165
2026-01-03 12:38:52.25	279.77	51.97	-40.1	-41.9	22.2	0.00e+00	0	43	0	2126512128	51	4510
2026-01-03 12:38:53.25	280.40	51.84	-40.1	-41.8	22.2	0.00e+00	0	43	0	2131755008	51	4483
2026-01-03 12:38:54.26	281.04	51.71	-40.3	-42.0	22.0	0.00e+00	0	43	0	2136997888	51	4585
2026-01-03 12:38:55.26	281.66	51.58	-40.3	-42.1	22.0	0.00e+00	0	43	0	2143289344	51	4610
2026-01-03 12:38:56.27	282.29	51.44	-40.0	-41.7	22.3	0.00e+00	0	43	0	2148532224	51	4417
2026-01-03 12:38:57.27	282.90	51.30	-39.9	-41.6	22.4	0.00e+00	0	43	0	2153775104	51	4361
2026-01-03 12:38:58.27	283.51	51.16	-39.9	-41.6	22.4	0.00e+00	0	43	0	2160066560	51	4367
2026-01-03 12:38:59.28	284.12	51.01	-40.1	-41.8	22.2	0.00e+00	0	43	0	2165309440	51	4486
2026-01-03 12:39:00.28	284.71	50.87	-40.3	-42.1	22.0	0.00e+00	0	43	0	2171600896	51	4607
2026-01-03 12:39:01.28	285.30	50.72	-40.1	-41.9	22.1	0.00e+00	0	43	0	2176843776	51	4505
2026-01-03 12:39:02.29	285.89	50.56	-40.1	-41.8	22.2	0.00e+00	0	43	0	2182086656	51	4465
2026-01-03 12:39:03.29	286.47	50.41	-40.0	-41.6	22.4	0.00e+00	0	43	0	2188378112	51	4388
2026-01-03 12:39:04.29	287.04	50.25	-39.7	-41.4	22.6	0.00e+00	0	43	0	2193620992	51	4274
2026-01-03 12:39:05.30	287.62	50.09	-39.8	-41.5	22.6	0.00e+00	0	43	0	2199912448	51	4321
2026-01-03 12:39:06.30	288.18	49.92	-39.8	-41.5	22.6	0.00e+00	0	43	0	2205155328	51	4298
2026-01-03 12:39:07.30	288.73	49.76	-39.9	-41.6	22.5	0.00e+00	0	43	0	2210398208	51	4365
2026-01-03 12:39:08.31	289.28	49.59	-40.1	-41.8	22.4	0.00e+00	0	43	0	2216689664	51	4467
2026-01-03 12:39:09.31	289.83	49.42	-39.8	-41.5	22.5	0.00e+00	0	43	0	2221932544	51	4331
2026-01-03 12:39:10.31	290.36	49.25	-39.7	-41.4	22.6	0.00e+00	0	43	0	2227175424	51	4281
2026-01-03 12:39:11.31	290.89	49.08	-39.5	-41.2	23.1	0.00e+00	0	43	0	2233466880	51	4156
2026-01-03 12:39:12.32	291.42	48.90	-39.7	-41.4	23.0	0.00e+00	0	43	0	2238709760	51	4243
2026-01-03 12:39:13.32	291.94	48.72	-39.9	-41.6	22.8	0.00e+00	0	43	0	2245001216	51	4367
2026-01-03 12:39:14.33	292.46	48.54	-39.9	-41.5	22.9	0.00e+00	0	43	0	2250244096	51	4338
2026-01-03 12:39:15.33	292.97	48.36	-39.7	-41.4	23.0	0.00e+00	0	43	0	2255486976	51	4250
2026-01-03 12:39:16.34	293.47	48.18	-39.6	-41.2	23.1	0.00e+00	0	43	0	2261778432	51	4181
2026-01-03 12:39:17.34	293.97	48.00	-39.8	-41.4	23.0	0.00e+00	0	43	0	2267021312	51	4259
2026-01-03 12:39:18.34	294.46	47.81	-40.2	-41.9	22.6	0.00e+00	0	43	0	2272264192	51	4503
2026-01-03 12:39:19.34	294.94	47.63	-40.3	-42.0	22.5	0.00e+00	0	43	0	2278555648	51	4577
2026-01-03 12:39:20.35	295.42	47.44	-39.9	-41.6	22.9	0.00e+00	0	43	0	2283798528	51	4355
2026-01-03 12:39:21.35	295.90	47.25	-39.8	-41.4	23.0	0.00e+00	0	43	0	2290089984	51	4263
2026-01-03 12:39:22.35	296.36	47.06	-39.9	-41.5	22.9	0.00e+00	0	43	0	2295332864	51	4307
2026-01-03 12:39:23.36	296.83	46.87	-39.9	-41.6	22.9	0.00e+00	0	43	0	2300575744	51	4354
2026-01-03 12:39:24.36	297.28	46.68	-40.0	-41.7	22.8	0.00e+00	0	43	0	2306867200	51	4402
2026-01-03 12:39:25.37	297.74	46.48	-40.0	-41.6	22.8	0.00e+00	0	43	0	2312110080	51	4373
2026-01-03 12:39:26.37	298.18	46.29	-39.9	-41.6	22.8	0.00e+00	0	43	0	2318401536	51	4361
2026-01-03 12:39:27.37	298.62	46.09	-40.0	-41.6	22.8	0.00e+00	0	43	0	2323644416	51	4386
2026-01-03 12:39:28.38	299.06	45.89	-40.0	-41.6	22.8	0.00e+00	0	43	0	2328887296	51	4390
2026-01-03 12:39:29.38	299.48	45.70	-39.8	-41.5	22.9	0.00e+00	0	43	0	2335178752	51	4301
2026-01-03 12:39:30.38	299.91	45.50	-40.1	-41.8	22.6	0.00e+00	0	43	0	2340421632	51	4476
2026-01-03 12:39:31.39	300.33	45.30	-40.1	-41.8	22.6	0.00e+00	0	43	0	2345664512	51	4489
2026-01-03 12:39:32.39	300.74	45.10	-40.1	-41.8	22.6	0.00e+00	0	43	0	2351955968	51	4474
2026-01-03 12:39:33.39	301.15	44.90	-40.0	-41.6	22.8	0.00e+00	0	43	0	2357198848	51	4377
2026-01-03 12:39:34.40	301.55	44.70	-40.1	-41.7	22.7	0.00e+00	0	43	0	2363490304	51	4413
2026-01-03 12:39:35.40	301.95	44.50	-39.9	-41.5	22.8	0.00e+00	0	43	0	2368733184	51	4333
2026-01-03 12:39:36.40	302.34	44.30	-40.1	-41.7	22.7	0.00e+00	0	43	0	2373976064	51	4425
2026-01-03 12:39:37.41	302.74	44.10	-40.0	-41.6	22.8	0.00e+00	0	43	0	2380267520	51	4387
2026-01-03 12:39:38.41	303.12	43.90	-40.1	-41.8	22.7	0.00e+00	0	43	0	2385510400	51	4447
2026-01-03 12:39:39.42	303.50	43.69	-39.9	-41.6	22.9	0.00e+00	0	43	0	2391801856	51	4341
2026-01-03 12:39:40.42	303.87	43.49	-39.8	-41.4	23.0	0.00e+00	0	43	0	2397044736	51	4271
2026-01-03 12:39:41.42	304.24	43.29	-39.8	-41.4	23.0	0.00e+00	0	43	0	2402287616	51	4279
2026-01-03 12:39:42.42	304.61	43.09	-39.8	-41.4	23.0	0.00e+00	0	43	0	2408579072	51	4283
2026-01-03 12:39:43.43	304.97	42.88	-39.7	-41.3	23.1	0.00e+00	0	43	0	2413821952	51	4213
2026-01-03 12:39:44.43	305.32	42.68	-39.7	-41.3	23.0	0.00e+00	0	43	0	2419064832	51	4227
2026-01-03 12:39:45.43	305.67	42.48	-39.7	-41.4	23.0	0.00e+00	0	43	0	2425356288	51	4262
2026-01-03 12:39:46.44	306.02	42.27	-39.7	-41.3	23.0	0.00e+00	0	43	0	2430599168	51	4222
2026-01-03 12:39:47.44	306.36	42.07	-39.7	-41.4	23.1	0.00e+00	0	43	0	2435842048	51	4243
2026-01-03 12:39:48.44	306.70	41.87	-39.6	-41.2	23.1	0.00e+00	0	43	0	2442133504	51	4184
2026-01-03 12:39:49.45	307.04	41.66	-39.6	-41.2	23.1	0.00e+00	0	43	0	2447376384	51	4191
2026-01-03 12:39:50.45	307.37	41.46	-39.7	-41.3	23.1	0.00e+00	0	43	0	2453667840	51	4208
2026-01-03 12:39:51.45	307.69	41.26	-39.7	-41.3	23.1	0.00e+00	0	43	0	2458910720	51	4215
2026-01-03 12:39:52.45	308.01	41.06	-39.6	-41.2	23.2	0.00e+00	0	43	0	2465202176	51	4180
2026-01-03 12:39:53.46	308.34	40.85	-39.5	-41.1	23.2	0.00e+00	0	43	0	2470445056	51	4131
2026-01-03 12:39:54.46	308.65	40.65	-39.6	-41.2	23.2	0.00e+00	0	43	0	2475687936	51	4167
2026-01-03 12:39:55.46	308.96	40.45	-39.4	-41.0	23.3	0.00e+00	0	43	0	2481979392	50	4326
2026-01-03 12:39:56.47	309.27	40.24	-39.4	-41.0	23.3	0.00e+00	0	43	0	2487222272	50	4333
2026-01-03 12:39:57.47	309.57	40.04	-39.4	-41.0	23.3	0.00e+00	0	43	0	2492465152	50	4295
2026-01-03 12:39:58.47	309.87	39.84	-39.4	-41.0	23.3	0.00e+00	0	43	0	2498756608	50	4318
2026-01-03 12:39:59.48	310.16	39.64	-39.5	-41.1	23.3	0.00e+00	0	43	0	2503999488	50	4366
2026-01-03 12:40:00.48	310.46	39.44	-39.6	-41.3	23.1	0.00e+00	0	43	0	2509242368	50	4463
2026-01-03 12:40:01.48	310.74	39.24	-39.7	-41.4	23.0	0.00e+00	0	43	0	2515533824	50	4509
2026-01-03 12:40:02.48	311.03	39.04	-39.7	-41.4	23.0	0.00e+00	0	43	0	2520776704	50	4517
2026-01-03 12:40:03.49	311.31	38.84	-39.7	-41.4	23.0	0.00e+00	0	43	0	2527068160	50	4511
2026-01-03 12:40:04.49	311.59	38.64	-39.6	-41.3	23.1	0.00e+00	0	43	0	2532311040	50	4456
2026-01-03 12:40:05.49	311.86	38.44	-39.8	-41.4	23.0	0.00e+00	0	43	0	2537553920	50	4507
2026-01-03 12:40:06.50	312.14	38.24	-39.4	-41.0	23.3	0.00e+00	0	43	0	2543845376	50	4307
2026-01-03 12:40:07.50	312.40	38.05	-39.4	-41.0	23.4	0.00e+00	0	43	0	2549088256	50	4326
2026-01-03 12:40:08.50	312.67	37.85	-39.3	-41.0	23.4	0.00e+00	0	43	0	2555379712	50	4297
2026-01-03 12:40:09.50	312.93	37.65	-39.4	-41.0	23.4	0.00e+00	0	43	0	2560622592	50	4327
2026-01-03 12:40:10.51	313.19	37.46	-39.5	-41.2	23.3	0.00e+00	0	43	0	2565865472	50	4395
2026-01-03 12:40:11.51	313.44	37.26	-39.4	-41.1	23.3	0.00e+00	0	43	0	2572156928	50	4341
2026-01-03 12:40:12.51	313.70	37.07	-39.4	-41.0	23.3	0.00e+00	0	43	0	2577399808	50	4333
2026-01-03 12:40:13.52	313.95	36.87	-39.2	-40.8	23.5	0.00e+00	0	43	0	2582642688	50	4217
2026-01-03 12:40:14.52	314.19	36.68	-39.1	-40.7	23.6	0.00e+00	0	43	0	2588934144	50	4179
2026-01-03 12:40:15.53	314.44	36.48	-39.2	-40.8	23.5	0.00e+00	0	43	0	2594177024	50	4221
2026-01-03 12:40:16.53	314.68	36.29	-39.3	-40.9	23.4	0.00e+00	0	43	0	2600468480	50	4252
2026-01-03 12:40:17.53	314.92	36.10	-39.3	-40.9	23.3	0.00e+00	0	43	0	2605711360	50	4287
2026-01-03 12:40:18.54	315.16	35.90	-39.5	-41.1	23.3	0.00e+00	0	43	0	2610954240	50	4367
2026-01-03 12:40:19.54	315.39	35.71	-39.5	-41.2	23.2	0.00e+00	0	43	0	2617245696	50	4408
2026-01-03 12:40:20.54	315.62	35.52	-39.5	-41.2	23.2	0.00e+00	0	43	0	2622488576	50	4407
2026-01-03 12:40:21.54	315.85	35.33	-39.4	-41.1	23.2	0.00e+00	0	43	0	2627731456	50	4343
2026-01-03 12:40:22.55	316.07	35.14	-39.4	-41.0	23.3	0.00e+00	0	43	0	2634022912	50	4310
2026-01-03 12:40:23.55	316.29	34.96	-39.4	-41.0	23.3	0.00e+00	0	43	0	2639265792	50	4332
2026-01-03 12:40:24.55	316.51	34.77	-39.4	-41.0	23.3	0.00e+00	0	43	0	2645557248	50	4305
2026-01-03 12:40:25.56	316.73	34.58	-39.2	-40.8	23.4	0.00e+00	0	43	0	2650800128	50	4229
2026-01-03 12:40:26.56	316.95	34.39	-39.2	-40.9	23.4	0.00e+00	0	43	0	2656043008	50	4244
2026-01-03 12:40:27.57	317.16	34.21	-39.3	-40.9	23.4	0.00e+00	0	43	0	2662334464	50	4269
2026-01-03 12:40:28.57	317.37	34.02	-39.5	-41.1	23.2	0.00e+00	0	43	0	2667577344	50	4366
2026-01-03 12:40:29.58	317.58	33.84	-39.3	-41.0	23.3	0.00e+00	0	43	0	2673868800	50	4305
2026-01-03 12:40:30.58	317.79	33.65	-39.4	-41.0	23.3	0.00e+00	0	43	0	2679111680	50	4314
2026-01-03 12:40:31.58	317.99	33.47	-39.2	-40.8	23.4	0.00e+00	0	43	0	2684354560	50	4239
2026-01-03 12:40:32.59	318.19	33.29	-39.2	-40.9	23.4	0.00e+00	0	43	0	2690646016	50	4260
2026-01-03 12:40:33.59	318.39	33.11	-39.3	-41.0	23.3	0.00e+00	0	43	0	2695888896	50	4310
2026-01-03 12:40:34.59	318.59	32.93	-39.4	-41.0	23.3	0.00e+00	0	43	0	2701131776	50	4314
2026-01-03 12:40:35.60	318.78	32.75	-39.4	-41.0	23.3	0.00e+00	0	43	0	2707423232	50	4314
2026-01-03 12:40:36.60	318.97	32.57	-39.5	-41.2	23.2	0.00e+00	0	43	0	2712666112	50	4398
2026-01-03 12:40:37.61	319.17	32.39	-39.5	-41.2	23.1	0.00e+00	0	43	0	2718957568	50	4411
2026-01-03 12:40:38.61	319.35	32.21	-39.7	-41.3	23.0	0.00e+00	0	43	0	2724200448	50	4493
2026-01-03 12:40:39.61	319.54	32.03	-39.7	-41.4	23.0	0.00e+00	0	43	0	2729443328	50	4501
2026-01-03 12:40:40.61	319.72	31.86	-39.9	-41.5	22.9	0.00e+00	0	43	0	2735734784	50	4581
2026-01-03 12:40:41.62	319.91	31.68	-39.9	-41.6	22.8	0.00e+00	0	43	0	2740977664	50	4635
2026-01-03 12:40:42.62	320.09	31.51	-40.0	-41.7	22.8	0.00e+00	0	43	0	2747269120	50	4668
2026-01-03 12:40:43.62	320.27	31.33	-40.3	-42.0	22.6	0.00e+00	0	43	0	2752512000	51	4557
2026-01-03 12:40:44.63	320.45	31.16	-40.1	-41.8	22.7	0.00e+00	0	43	0	2757754880	51	4459
2026-01-03 12:40:45.63	320.62	30.99	-40.0	-41.7	22.8	0.00e+00	0	43	0	2764046336	51	4400
2026-01-03 12:40:46.64	320.80	30.81	-40.1	-41.8	22.7	0.00e+00	0	43	0	2769289216	51	4460
2026-01-03 12:40:47.64	320.97	30.64	-40.1	-41.8	22.7	0.00e+00	0	43	0	2774532096	51	4474
2026-01-03 12:40:48.64	321.14	30.47	-39.9	-41.6	22.9	0.00e+00	0	43	0	2780823552	51	4371
2026-01-03 12:40:49.64	321.30	30.30	-40.1	-41.7	22.8	0.00e+00	0	43	0	2786066432	51	4436
2026-01-03 12:40:50.64	321.47	30.13	-40.1	-41.8	22.7	0.00e+00	0	43	0	2791309312	51	4459
2026-01-03 12:40:51.65	321.63	29.96	-39.9	-41.5	22.9	0.00e+00	0	43	0	2797600768	51	4330
2026-01-03 12:40:52.65	321.80	29.80	-39.9	-41.6	22.9	0.00e+00	0	43	0	2802843648	51	4375
2026-01-03 12:40:53.66	321.96	29.63	-40.0	-41.6	22.8	0.00e+00	0	43	0	2809135104	51	4388
2026-01-03 12:40:54.66	322.12	29.46	-39.9	-41.6	22.9	0.00e+00	0	43	0	2814377984	51	4367
2026-01-03 12:40:55.66	322.28	29.30	-40.0	-41.7	22.8	0.00e+00	0	43	0	2820669440	51	4398
2026-01-03 12:40:56.67	322.43	29.13	-40.0	-41.6	22.8	0.00e+00	0	43	0	2825912320	51	4389
2026-01-03 12:40:57.67	322.59	28.97	-39.9	-41.6	22.8	0.00e+00	0	43	0	2831155200	51	4372
2026-01-03 12:40:58.67	322.74	28.81	-39.9	-41.6	22.8	0.00e+00	0	43	0	2837446656	51	4367
2026-01-03 12:40:59.68	322.90	28.64	-40.0	-41.6	22.8	0.00e+00	0	43	0	2842689536	51	4384
2026-01-03 12:41:00.68	323.05	28.48	-39.9	-41.5	22.8	0.00e+00	0	43	0	2847932416	51	4340
2026-01-03 12:41:01.68	323.19	28.32	-39.9	-41.6	22.8	0.00e+00	0	43	0	2854223872	51	4352
2026-01-03 12:41:02.69	323.34	28.16	-40.0	-41.6	22.7	0.00e+00	0	43	0	2859466752	51	4391
2026-01-03 12:41:03.69	323.49	28.00	-39.9	-41.5	22.9	0.00e+00	0	43	0	2864709632	51	4329
2026-01-03 12:41:04.69	323.63	27.85	-39.7	-41.4	23.0	0.00e+00	0	43	0	2871001088	51	4259
2026-01-03 12:41:05.70	323.78	27.69	-39.9	-41.6	22.8	0.00e+00	0	43	0	2876243968	51	4357
2026-01-03 12:41:06.70	323.92	27.53	-39.8	-41.5	23.0	0.00e+00	0	43	0	2882535424	51	4301
2026-01-03 12:41:07.71	324.06	27.37	-39.7	-41.4	23.0	0.00e+00	0	43	0	2887778304	51	4273
2026-01-03 12:41:08.71	324.20	27.22	-39.8	-41.4	23.0	0.00e+00	0	43	0	2894069760	51	4283
2026-01-03 12:41:09.71	324.34	27.06	-39.7	-41.4	23.0	0.00e+00	0	43	0	2899312640	51	4269
2026-01-03 12:41:10.72	324.48	26.91	-39.9	-41.6	22.9	0.00e+00	0	43	0	2904555520	51	4341
2026-01-03 12:41:11.72	324.61	26.75	-39.9	-41.5	22.9	0.00e+00	0	43	0	2910846976	51	4340
2026-01-03 12:41:12.73	324.75	26.60	-40.0	-41.7	22.7	0.00e+00	0	43	0	2916089856	51	4428
2026-01-03 12:41:13.73	324.88	26.45	-40.0	-41.7	22.8	0.00e+00	0	43	0	2921332736	51	4427
2026-01-03 12:41:14.73	325.01	26.30	-39.9	-41.6	22.8	0.00e+00	0	43	0	2927624192	51	4372
2026-01-03 12:41:15.74	325.14	26.15	-40.0	-41.6	22.8	0.00e+00	0	43	0	2932867072	51	4387
2026-01-03 12:41:16.74	325.27	26.00	-39.8	-41.5	22.9	0.00e+00	0	43	0	2938109952	51	4329
2026-01-03 12:41:17.74	325.40	25.85	-39.8	-41.5	22.9	0.00e+00	0	43	0	2944401408	51	4313
2026-01-03 12:41:18.74	325.52	25.70	-39.9	-41.5	22.9	0.00e+00	0	43	0	2949644288	51	4315
2026-01-03 12:41:19.75	325.65	25.55	-39.9	-41.5	22.8	0.00e+00	0	43	0	2955935744	51	4331
2026-01-03 12:41:20.75	325.78	25.40	-39.9	-41.5	22.8	0.00e+00	0	43	0	2961178624	51	4318
2026-01-03 12:41:21.75	325.90	25.26	-39.9	-41.5	22.8	0.00e+00	0	43	0	2967470080	51	4334
2026-01-03 12:41:22.76	326.02	25.11	-40.0	-41.6	22.8	0.00e+00	0	43	0	2972712960	51	4377
2026-01-03 12:41:23.76	326.14	24.97	-40.2	-41.8	22.6	0.00e+00	0	43	0	2977955840	51	4476
2026-01-03 12:41:24.77	326.26	24.82	-40.3	-41.9	22.5	0.00e+00	0	43	0	2984247296	51	4533
2026-01-03 12:41:25.77	326.38	24.68	-40.4	-42.1	22.4	0.00e+00	0	43	0	2989490176	51	4601
2026-01-03 12:41:26.77	326.50	24.53	-40.4	-42.1	22.3	0.00e+00	0	43	0	2994733056	51	4619
2026-01-03 12:41:27.78	326.62	24.39	-40.4	-42.1	22.3	0.00e+00	0	43	0	3001024512	51	4645
2026-01-03 12:41:28.78	326.74	24.25	-40.5	-42.2	22.3	0.00e+00	0	43	0	3006267392	51	4672
2026-01-03 12:41:29.79	326.85	24.11	-40.5	-42.3	22.2	0.00e+00	0	43	0	3011510272	51	4717
2026-01-03 12:41:30.79	326.97	23.97	-40.6	-42.4	22.2	0.00e+00	0	43	0	3017801728	51	4760
2026-01-03 12:41:31.79	327.08	23.83	-40.5	-42.2	22.2	0.00e+00	0	43	0	3023044608	51	4699
2026-01-03 12:41:32.80	327.19	23.69	-40.4	-42.1	22.4	0.00e+00	0	43	0	3029336064	51	4628
2026-01-03 12:41:33.80	327.30	23.55	-40.3	-42.0	22.4	0.00e+00	0	43	0	3034578944	51	4587
2026-01-03 12:41:34.80	327.41	23.41	-40.3	-42.0	22.5	0.00e+00	0	43	0	3040870400	51	4584
2026-01-03 12:41:35.81	327.52	23.27	-40.2	-42.0	22.5	0.00e+00	0	43	0	3046113280	51	4561
2026-01-03 12:41:36.81	327.63	23.14	-40.3	-42.0	22.4	0.00e+00	0	43	0	3051356160	51	4572
2026-01-03 12:41:37.81	327.74	23.00	-40.3	-42.0	22.5	0.00e+00	0	43	0	3057647616	51	4550
2026-01-03 12:41:38.82	327.85	22.86	-40.3	-42.0	22.5	0.00e+00	0	43	0	3062890496	51	4564
2026-01-03 12:41:39.82	327.95	22.73	-40.4	-42.1	22.4	0.00e+00	0	43	0	3068133376	51	4603
2026-01-03 12:41:40.83	328.06	22.59	-40.4	-42.1	22.3	0.00e+00	0	43	0	3074424832	51	4632
2026-01-03 12:41:41.83	328.16	22.46	-40.6	-42.3	22.2	0.00e+00	0	43	0	3079667712	51	4712
2026-01-03 12:41:42.83	328.26	22.33	-40.7	-42.4	22.1	0.00e+00	0	43	0	3084910592	52	4507
2026-01-03 12:41:43.84	328.37	22.19	-40.6	-42.3	22.1	0.00e+00	0	43	0	3091202048	52	4480
2026-01-03 12:41:44.84	328.47	22.06	-40.8	-42.5	21.9	0.00e+00	0	43	0	3096444928	52	4557
2026-01-03 12:41:45.85	328.57	21.93	-40.8	-42.6	21.8	0.00e+00	0	43	0	3102736384	52	4601
2026-01-03 12:41:46.85	328.67	21.80	-40.9	-42.6	21.8	0.00e+00	0	43	0	3107979264	52	4634
2026-01-03 12:41:47.85	328.77	21.67	-41.0	-42.7	21.7	0.00e+00	0	43	0	3114270720	52	4697
2026-01-03 12:41:48.85	328.87	21.54	-41.0	-42.7	21.7	0.00e+00	0	44	0	3119513600	52	4691
2026-01-03 12:41:49.85	328.96	21.41	-41.0	-42.8	21.6	0.00e+00	0	43	0	3124756480	52	4708
2026-01-03 12:41:50.86	329.06	21.28	-41.0	-42.7	21.7	0.00e+00	0	43	0	3131047936	52	4684
2026-01-03 12:41:51.86	329.16	21.16	-40.8	-42.6	21.8	0.00e+00	0	43	0	3136290816	52	4605
2026-01-03 12:41:52.86	329.25	21.03	-40.9	-42.7	21.7	0.00e+00	0	43	0	3141533696	52	4653
2026-01-03 12:41:53.87	329.35	20.90	-41.0	-42.7	21.7	0.00e+00	0	43	0	3147825152	52	4694
2026-01-03 12:41:54.87	329.44	20.78	-40.9	-42.6	21.8	0.00e+00	0	43	0	3153068032	52	4642
2026-01-03 12:41:55.87	329.53	20.65	-40.8	-42.5	21.8	0.00e+00	0	43	0	3158310912	52	4594
2026-01-03 12:41:56.88	329.63	20.53	-40.8	-42.5	21.9	0.00e+00	0	43	0	3164602368	52	4595
2026-01-03 12:41:57.88	329.72	20.40	-40.7	-42.4	22.0	0.00e+00	0	43	0	3169845248	52	4530
2026-01-03 12:41:58.89	329.81	20.28	-40.9	-42.6	21.9	0.00e+00	0	43	0	3176136704	52	4616
2026-01-03 12:41:59.89	329.90	20.15	-40.8	-42.5	21.9	0.00e+00	0	43	0	3181379584	52	4573
2026-01-03 12:42:00.89	329.99	20.03	-40.8	-42.6	21.9	0.00e+00	0	43	0	3186622464	52	4607
2026-01-03 12:42:01.89	330.08	19.91	-40.9	-42.6	21.8	0.00e+00	0	43	0	3192913920	52	4639
2026-01-03 12:42:02.90	330.17	19.79	-41.0	-42.7	21.7	0.00e+00	0	43	0	3198156800	52	4683
2026-01-03 12:42:03.90	330.25	19.67	-41.0	-42.7	21.7	0.00e+00	0	43	0	3204448256	52	4685
2026-01-03 12:42:04.90	330.34	19.55	-41.1	-42.8	21.6	0.00e+00	0	43	0	3209691136	52	4715
2026-01-03 12:42:05.91	330.43	19.43	-41.1	-42.9	21.6	0.00e+00	0	43	0	3214934016	52	4764
2026-01-03 12:42:06.91	330.51	19.31	-41.2	-42.9	21.5	0.00e+00	0	43	0	3221225472	53	4508
2026-01-03 12:42:07.92	330.60	19.19	-41.3	-43.0	21.4	0.00e+00	0	43	0	3226468352	53	4573
2026-01-03 12:42:08.92	330.68	19.07	-41.2	-42.9	21.5	0.00e+00	0	43	0	3231711232	53	4512
2026-01-03 12:42:09.92	330.77	18.95	-41.3	-43.0	21.4	0.00e+00	0	43	0	3238002688	53	4575
2026-01-03 12:42:10.93	330.85	18.83	-41.3	-43.0	21.4	0.00e+00	0	43	0	3243245568	53	4570
2026-01-03 12:42:11.93	330.93	18.72	-41.4	-43.1	21.4	0.00e+00	0	43	0	3249537024	53	4612
2026-01-03 12:42:12.93	331.01	18.60	-41.2	-43.0	21.4	0.00e+00	0	43	0	3254779904	53	4560
2026-01-03 12:42:13.94	331.10	18.48	-41.4	-43.1	21.3	0.00e+00	0	43	0	3260022784	53	4617
2026-01-03 12:42:14.94	331.18	18.37	-41.3	-43.1	21.3	0.00e+00	0	44	0	3266314240	53	4622
2026-01-03 12:42:15.94	331.26	18.25	-41.3	-43.1	21.3	0.00e+00	0	43	0	3271557120	53	4613
2026-01-03 12:42:16.95	331.34	18.14	-41.4	-43.2	21.3	0.00e+00	0	44	0	3277848576	53	4663
2026-01-03 12:42:17.95	331.41	18.03	-41.4	-43.1	21.3	0.00e+00	0	43	0	3283091456	53	4645
2026-01-03 12:42:18.95	331.49	17.91	-41.5	-43.3	21.2	0.00e+00	0	44	0	3288334336	53	4718
2026-01-03 12:42:19.96	331.57	17.80	-41.5	-43.2	21.2	0.00e+00	0	43	0	3294625792	53	4697
2026-01-03 12:42:20.96	331.65	17.69	-41.5	-43.3	21.2	0.00e+00	0	43	0	3299868672	53	4709
2026-01-03 12:42:21.96	331.73	17.57	-41.5	-43.3	21.1	0.00e+00	0	43	0	3306160128	53	4745
2026-01-03 12:42:22.96	331.80	17.46	-41.5	-43.3	21.1	0.00e+00	0	44	0	3311403008	53	4722
2026-01-03 12:42:23.97	331.88	17.35	-41.6	-43.4	21.0	0.00e+00	0	43	0	3316645888	53	4782
2026-01-03 12:42:24.97	331.95	17.24	-41.7	-43.5	20.9	0.00e+00	0	43	0	3322937344	53	4819
2026-01-03 12:42:25.97	332.03	17.13	-41.7	-43.5	21.0	0.00e+00	0	43	0	3328180224	54	4557
2026-01-03 12:42:26.97	332.10	17.02	-41.7	-43.6	20.9	0.00e+00	0	43	0	3333423104	54	4600
2026-01-03 12:42:27.98	332.18	16.91	-41.8	-43.7	20.8	0.00e+00	0	43	0	3339714560	54	4659
2026-01-03 12:42:28.98	332.25	16.80	-41.9	-43.7	20.7	0.00e+00	0	43	0	3344957440	54	4691
2026-01-03 12:42:29.99	332.32	16.69	-41.9	-43.7	20.8	0.00e+00	0	43	0	3350200320	54	4687
2026-01-03 12:42:30.99	332.39	16.59	-41.9	-43.8	20.7	0.00e+00	0	43	0	3356491776	54	4710
2026-01-03 12:42:31.99	332.47	16.48	-42.1	-43.9	20.6	0.00e+00	0	43	0	3361734656	54	4784
2026-01-03 12:42:33.00	332.54	16.37	-42.1	-43.9	20.5	0.00e+00	0	44	0	3368026112	54	4780
2026-01-03 12:42:34.00	332.61	16.26	-42.1	-43.9	20.5	0.00e+00	0	44	0	3373268992	54	4803
2026-01-03 12:42:35.00	332.68	16.16	-42.1	-44.0	20.5	0.00e+00	0	43	0	3379560448	54	4824
2026-01-03 12:42:36.01	332.75	16.05	-42.2	-44.0	20.5	0.00e+00	0	43	0	3384803328	55	4570
2026-01-03 12:42:37.01	332.82	15.95	-42.1	-44.0	20.5	0.00e+00	0	43	0	3390046208	55	4553
2026-01-03 12:42:38.01	332.89	15.84	-42.2	-44.1	20.4	0.00e+00	0	43	0	3396337664	55	4615
2026-01-03 12:42:39.02	332.96	15.74	-42.2	-44.0	20.4	0.00e+00	0	43	0	3401580544	55	4596
2026-01-03 12:42:40.02	333.02	15.63	-42.3	-44.1	20.4	0.00e+00	0	43	0	3406823424	55	4629
2026-01-03 12:42:41.02	333.09	15.53	-42.2	-44.0	20.4	0.00e+00	0	43	0	3413114880	55	4585
2026-01-03 12:42:42.02	333.16	15.43	-42.2	-44.1	20.4	0.00e+00	0	43	0	3418357760	55	4600
2026-01-03 12:42:43.03	333.22	15.32	-42.3	-44.1	20.3	0.00e+00	0	43	0	3423600640	55	4619
2026-01-03 12:42:44.03	333.29	15.22	-42.4	-44.2	20.3	0.00e+00	0	44	0	3429892096	55	4672
2026-01-03 12:42:45.04	333.36	15.12	-42.3	-44.1	20.3	0.00e+00	0	43	0	3435134976	55	4645
2026-01-03 12:42:46.04	333.42	15.02	-42.4	-44.3	20.2	0.00e+00	0	43	0	3441426432	55	4708
2026-01-03 12:42:47.04	333.49	14.91	-42.4	-44.2	20.2	0.00e+00	0	43	0	3446669312	55	4681
2026-01-03 12:42:48.04	333.55	14.81	-42.5	-44.3	20.2	0.00e+00	0	43	0	3451912192	55	4713
2026-01-03 12:42:49.05	333.62	14.71	-42.4	-44.3	20.2	0.00e+00	0	43	0	3458203648	55	4708
2026-01-03 12:42:50.05	333.68	14.61	-42.5	-44.3	20.1	0.00e+00	0	43	0	3463446528	55	4720
2026-01-03 12:42:51.06	333.74	14.51	-42.4	-44.2	20.1	0.00e+00	0	44	0	3469737984	55	4700
2026-01-03 12:42:52.06	333.81	14.41	-42.5	-44.3	20.1	0.00e+00	0	43	0	3474980864	55	4750
2026-01-03 12:42:53.06	333.87	14.31	-42.5	-44.4	20.0	0.00e+00	0	43	0	3480223744	55	4769
2026-01-03 12:42:54.07	333.93	14.21	-42.5	-44.4	20.0	0.00e+00	0	43	0	3486515200	55	4765
2026-01-03 12:42:55.07	333.99	14.12	-42.6	-44.4	20.0	0.00e+00	0	43	0	3491758080	55	4794
2026-01-03 12:42:56.07	334.05	14.02	-42.8	-44.7	19.9	0.00e+00	0	43	0	3497000960	56	4666
2026-01-03 12:42:57.08	334.12	13.92	-42.9	-44.7	19.8	0.00e+00	0	43	0	3503292416	56	4699
2026-01-03 12:42:58.08	334.18	13.82	-42.9	-44.7	19.9	0.00e+00	0	43	0	3508535296	56	4687
2026-01-03 12:42:59.08	334.24	13.73	-42.9	-44.7	19.9	0.00e+00	0	43	0	3514826752	56	4696
2026-01-03 12:43:00.09	334.30	13.63	-43.0	-44.9	19.7	0.00e+00	0	44	0	3520069632	56	4776
2026-01-03 12:43:01.09	334.36	13.53	-43.0	-44.8	19.7	0.00e+00	0	43	0	3525312512	56	4757
2026-01-03 12:43:02.09	334.42	13.44	-42.9	-44.8	19.8	0.00e+00	0	43	0	3531603968	56	4756
2026-01-03 12:43:03.10	334.48	13.34	-43.0	-44.9	19.7	0.00e+00	0	43	0	3536846848	56	4786
2026-01-03 12:43:04.10	334.53	13.25	-43.1	-45.0	19.6	0.00e+00	0	44	0	3543138304	56	4852
2026-01-03 12:43:05.10	334.59	13.15	-43.0	-44.9	19.7	0.00e+00	0	43	0	3548381184	56	4807
2026-01-03 12:43:06.11	334.65	13.06	-43.0	-44.8	19.7	0.00e+00	0	43	0	3553624064	56	4754
2026-01-03 12:43:07.11	334.71	12.96	-43.0	-44.9	19.7	0.00e+00	0	43	0	3559915520	56	4793
2026-01-03 12:43:08.11	334.76	12.87	-43.1	-45.0	19.6	0.00e+00	0	44	0	3565158400	56	4816
2026-01-03 12:43:09.11	334.82	12.78	-43.1	-45.0	19.6	0.00e+00	0	44	0	3570401280	57	4574
2026-01-03 12:43:10.11	334.88	12.69	-43.1	-44.9	19.6	0.00e+00	0	43	0	3576692736	57	4538
2026-01-03 12:43:11.12	334.93	12.59	-43.1	-45.0	19.6	0.00e+00	0	43	0	3581935616	57	4555
2026-01-03 12:43:12.12	334.99	12.50	-43.0	-44.9	19.7	0.00e+00	0	43	0	3588227072	57	4496
2026-01-03 12:43:13.12	335.05	12.41	-43.1	-45.0	19.6	0.00e+00	0	43	0	3593469952	57	4546
2026-01-03 12:43:14.13	335.10	12.32	-43.0	-44.9	19.7	0.00e+00	0	44	0	3598712832	57	4495
2026-01-03 12:43:15.13	335.16	12.22	-43.0	-44.9	19.7	0.00e+00	0	44	0	3605004288	57	4494
2026-01-03 12:43:16.13	335.21	12.13	-43.1	-45.0	19.6	0.00e+00	0	43	0	3610247168	57	4568
2026-01-03 12:43:17.14	335.27	12.04	-43.1	-44.9	19.6	0.00e+00	0	44	0	3615490048	57	4533
2026-01-03 12:43:18.14	335.32	11.95	-43.1	-44.9	19.6	0.00e+00	0	43	0	3621781504	57	4540
2026-01-03 12:43:19.14	335.37	11.86	-43.1	-45.0	19.6	0.00e+00	0	43	0	3627024384	57	4572
2026-01-03 12:43:20.15	335.43	11.77	-43.2	-45.1	19.5	0.00e+00	0	43	0	3633315840	57	4615
2026-01-03 12:43:21.15	335.48	11.68	-43.1	-45.1	19.5	0.00e+00	0	43	0	3638558720	57	4605
2026-01-03 12:43:22.15	335.53	11.59	-43.1	-45.0	19.6	0.00e+00	0	43	0	3643801600	57	4565
2026-01-03 12:43:23.16	335.58	11.50	-43.1	-45.1	19.5	0.00e+00	0	43	0	3650093056	57	4619
2026-01-03 12:43:24.16	335.64	11.42	-43.2	-45.1	19.5	0.00e+00	0	43	0	3655335936	57	4631
