passes_logs/2026/01/03/T1/T1__20260103_095029_SUOMI_NPP_rec.log

#Pass ID: 20260103_095029_SUOMI NPP
#Satellite: SUOMI NPP
#Configuration: NPP
#almurnet v.1.7.20251203
#Start time: 2026-01-03 09:50:29

#Version: 2.0.20230620
#Station: T1
#Location: 37.570604 lon 55.790049 lat
#TLE: 1 37849U 11061A   26001.07732418  .00000182  00000+0  10735-3 0  9990
#TLE: 2 37849  98.7795 303.2470 0002580  87.2016 272.9455 14.19520779734739

#Time	Az	El	Level	Level2	SNR	BER	BlckErr	Temp	State	Recorded	gain1	gain2
2026-01-03 09:50:29.64	155.37	5.03	-52.7	-67.9	3.8	1.49e+00	0	41	0	0	77	20143
2026-01-03 09:50:30.64	155.37	5.10	-52.6	-67.7	3.8	1.49e+00	0	41	104	0	77	19664
2026-01-03 09:50:31.64	155.36	5.17	-53.2	-68.2	3.8	1.49e+00	0	41	104	0	77	20852
2026-01-03 09:50:32.65	155.35	5.25	-52.8	-67.9	3.8	1.49e+00	0	41	104	0	77	20085
2026-01-03 09:50:33.65	155.35	5.32	-52.8	-67.9	3.8	1.49e+00	0	41	104	0	77	20272
2026-01-03 09:50:34.66	155.34	5.39	-52.7	-67.9	3.8	1.49e+00	0	41	104	0	77	20277
2026-01-03 09:50:35.66	155.33	5.47	-52.7	-67.9	3.8	1.49e+00	0	41	104	0	77	20223
2026-01-03 09:50:36.67	155.32	5.54	-52.7	-67.8	3.8	1.49e+00	0	41	104	0	77	20022
2026-01-03 09:50:37.67	155.32	5.61	-52.7	-67.7	3.8	1.49e+00	0	41	104	0	77	19706
2026-01-03 09:50:38.68	155.31	5.69	-52.7	-67.5	3.8	1.49e+00	0	41	104	0	77	19192
2026-01-03 09:50:39.68	155.30	5.76	-52.7	-67.3	3.8	1.49e+00	0	41	104	0	77	18745
2026-01-03 09:50:40.68	155.30	5.83	-52.7	-67.0	3.8	1.49e+00	0	41	104	0	77	18140
2026-01-03 09:50:41.69	155.29	5.91	-52.7	-66.7	3.8	1.49e+00	0	41	104	0	77	17611
2026-01-03 09:50:42.69	155.28	5.98	-52.6	-66.5	3.8	1.49e+00	0	41	104	0	77	17128
2026-01-03 09:50:43.70	155.27	6.06	-52.6	-66.3	3.8	1.49e+00	0	41	104	0	77	16761
2026-01-03 09:50:44.70	155.27	6.13	-52.6	-66.2	3.8	1.49e+00	0	41	104	0	77	16564
2026-01-03 09:50:45.70	155.26	6.21	-52.9	-66.4	3.8	1.49e+00	0	41	104	0	77	16955
2026-01-03 09:50:46.71	155.25	6.29	-52.7	-66.4	3.8	1.49e+00	0	42	104	0	77	16951
2026-01-03 09:50:47.71	155.24	6.36	-52.7	-66.5	3.8	1.49e+00	0	41	104	0	77	17255
2026-01-03 09:50:48.72	155.23	6.44	-52.7	-66.7	3.8	1.49e+00	0	41	104	0	77	17572
2026-01-03 09:50:49.72	155.23	6.51	-52.7	-67.0	3.8	1.49e+00	0	42	104	0	77	18169
2026-01-03 09:50:50.73	155.22	6.59	-52.8	-67.4	3.8	1.49e+00	0	41	104	0	77	18997
2026-01-03 09:50:51.73	155.21	6.67	-52.7	-67.5	3.8	1.49e+00	0	42	104	0	77	19317
2026-01-03 09:50:52.74	155.20	6.74	-52.7	-67.6	3.8	1.49e+00	0	42	104	0	77	19508
2026-01-03 09:50:53.74	155.19	6.82	-52.7	-67.6	3.8	1.49e+00	0	42	104	0	77	19492
2026-01-03 09:50:54.74	155.19	6.90	-52.7	-67.5	3.8	1.49e+00	0	42	104	0	77	19387
2026-01-03 09:50:55.75	155.18	6.98	-52.7	-67.4	3.8	1.49e+00	0	42	104	0	77	19077
2026-01-03 09:50:56.75	155.17	7.05	-52.7	-67.1	3.8	1.49e+00	0	42	104	0	77	18354
2026-01-03 09:50:57.76	155.16	7.13	-52.6	-66.5	3.8	1.49e+00	0	42	104	0	77	17268
2026-01-03 09:50:58.76	155.15	7.21	-52.6	-65.7	3.8	1.49e+00	0	42	104	0	77	15695
2026-01-03 09:50:59.77	155.14	7.29	-52.5	-64.6	4.1	1.48e+00	0	42	0	0	76	14618
2026-01-03 09:51:00.77	155.14	7.37	-52.4	-63.5	4.5	1.28e+00	0	42	0	0	76	12897
2026-01-03 09:51:01.78	155.13	7.45	-52.2	-62.2	5.0	8.47e-01	0	42	0	2097152	76	11143
2026-01-03 09:51:02.78	155.12	7.53	-52.0	-60.9	5.9	5.14e-01	0	42	0	4194304	76	9592
2026-01-03 09:51:03.78	155.11	7.60	-51.8	-59.8	6.8	2.23e-01	0	42	0	6291456	75	8897
2026-01-03 09:51:04.79	155.10	7.68	-52.1	-59.4	7.7	1.03e-01	0	42	0	7340032	75	8477
2026-01-03 09:51:05.79	155.09	7.76	-51.5	-57.9	8.8	4.95e-02	0	42	0	9437184	75	7202
2026-01-03 09:51:06.80	155.08	7.85	-51.2	-57.2	9.5	1.92e-02	0	42	0	11534336	74	7031
2026-01-03 09:51:07.80	155.08	7.93	-51.0	-56.7	10.0	8.14e-03	0	42	0	13631488	73	6960
2026-01-03 09:51:08.81	155.07	8.01	-50.8	-56.3	10.5	4.50e-03	0	42	0	15728640	73	6661
2026-01-03 09:51:09.81	155.06	8.09	-50.6	-55.8	10.9	3.06e-03	0	42	0	16777216	73	6302
2026-01-03 09:51:10.81	155.05	8.17	-50.4	-55.4	11.2	1.51e-03	0	42	0	18874368	72	6413
2026-01-03 09:51:11.82	155.04	8.25	-50.5	-55.7	10.9	1.45e-03	0	42	0	20971520	72	6634
2026-01-03 09:51:12.82	155.03	8.33	-50.6	-55.8	10.8	1.96e-03	0	42	0	23068672	72	6692
2026-01-03 09:51:13.82	155.02	8.41	-50.8	-56.4	10.2	4.12e-03	0	42	0	25165824	72	7170
2026-01-03 09:51:14.83	155.01	8.50	-51.0	-56.9	9.7	9.12e-03	0	42	0	26214400	72	7603
2026-01-03 09:51:15.83	155.00	8.58	-51.2	-57.7	8.9	1.69e-02	0	42	0	28311552	73	7820
2026-01-03 09:51:16.84	154.99	8.66	-51.5	-58.7	7.9	4.03e-02	0	42	0	30408704	73	8829
2026-01-03 09:51:17.84	154.98	8.75	-52.2	-60.2	6.7	1.45e-01	0	42	0	32505856	75	9354
2026-01-03 09:51:18.84	154.97	8.83	-52.2	-61.4	5.8	2.82e-01	0	42	0	34603008	75	10666
2026-01-03 09:51:19.85	154.96	8.91	-52.4	-63.0	4.7	5.59e-01	0	42	0	35651584	75	12885
2026-01-03 09:51:20.85	154.95	9.00	-52.5	-64.3	4.2	1.31e+00	0	42	0	37748736	75	14972
2026-01-03 09:51:21.86	154.94	9.08	-50.2	-55.0	11.7	4.43e-01	0	42	0	38797312	72	6120
2026-01-03 09:51:22.86	154.93	9.17	-50.9	-56.7	10.1	1.16e-03	0	42	0	40894464	72	7375
2026-01-03 09:51:23.86	154.92	9.25	-52.8	-67.4	3.8	1.32e+00	0	42	104	41943040	76	20156
2026-01-03 09:51:24.86	154.91	9.33	-52.4	-62.8	4.8	1.46e+00	0	42	104	41943040	76	11934
2026-01-03 09:51:25.87	154.90	9.42	-49.7	-53.9	12.8	1.89e-01	0	42	0	42991616	71	5695
2026-01-03 09:51:26.87	154.89	9.51	-49.5	-53.5	13.3	3.35e-05	0	43	0	45088768	70	5763
2026-01-03 09:51:27.87	154.88	9.59	-49.2	-53.1	13.7	1.37e-05	0	42	0	47185920	70	5467
2026-01-03 09:51:28.88	154.87	9.68	-48.4	-51.8	15.0	0.00e+00	0	43	0	49283072	68	5307
2026-01-03 09:51:29.88	154.86	9.76	-48.0	-51.1	15.7	0.00e+00	0	43	0	50331648	68	4905
2026-01-03 09:51:30.88	154.85	9.85	-47.7	-50.7	15.9	0.00e+00	0	42	0	52428800	67	4956
2026-01-03 09:51:31.88	154.84	9.94	-47.3	-50.2	16.4	0.00e+00	0	42	0	54525952	66	4947
2026-01-03 09:51:32.89	154.83	10.03	-47.8	-50.7	16.4	0.00e+00	0	43	0	56623104	66	5234
2026-01-03 09:51:33.89	154.82	10.11	-47.4	-50.2	16.7	0.00e+00	0	43	0	58720256	66	4974
2026-01-03 09:51:34.90	154.81	10.20	-47.3	-50.1	16.7	0.00e+00	0	43	0	59768832	66	4901
2026-01-03 09:51:35.90	154.80	10.29	-47.4	-50.3	16.5	0.00e+00	0	43	0	61865984	66	5019
2026-01-03 09:51:36.90	154.79	10.38	-47.3	-50.1	16.6	0.00e+00	0	43	0	63963136	66	4911
2026-01-03 09:51:37.90	154.78	10.47	-47.2	-50.1	16.7	0.00e+00	0	43	0	66060288	66	4889
2026-01-03 09:51:38.90	154.76	10.56	-47.3	-50.1	16.6	0.00e+00	0	43	0	68157440	66	4897
2026-01-03 09:51:39.91	154.75	10.65	-47.1	-49.9	16.8	0.00e+00	0	43	0	69206016	66	4778
2026-01-03 09:51:40.91	154.74	10.74	-47.2	-49.9	16.8	0.00e+00	0	43	0	71303168	66	4812
2026-01-03 09:51:41.91	154.73	10.83	-47.1	-49.8	16.8	0.00e+00	0	43	0	73400320	66	4752
2026-01-03 09:51:42.91	154.72	10.92	-46.9	-49.6	17.1	0.00e+00	0	43	0	75497472	65	4916
2026-01-03 09:51:43.92	154.71	11.01	-46.9	-49.7	16.9	0.00e+00	0	43	0	77594624	65	4973
2026-01-03 09:51:44.92	154.70	11.10	-46.8	-49.6	17.1	0.00e+00	0	43	0	78643200	65	4895
2026-01-03 09:51:45.92	154.68	11.19	-46.9	-49.7	16.9	0.00e+00	0	43	0	80740352	65	4957
2026-01-03 09:51:46.92	154.67	11.28	-47.2	-50.1	16.9	0.00e+00	0	43	0	82837504	65	5165
2026-01-03 09:51:47.93	154.66	11.38	-47.0	-49.8	16.9	0.00e+00	0	43	0	84934656	65	5024
2026-01-03 09:51:48.93	154.65	11.47	-47.1	-50.0	16.8	0.00e+00	0	43	0	85983232	65	5101
2026-01-03 09:51:49.93	154.64	11.56	-47.0	-49.9	16.8	0.00e+00	0	43	0	88080384	65	5058
2026-01-03 09:51:50.94	154.62	11.66	-46.8	-49.7	17.0	0.00e+00	0	43	0	90177536	65	4937
2026-01-03 09:51:51.94	154.61	11.75	-46.8	-49.6	17.1	0.00e+00	0	43	0	92274688	65	4914
2026-01-03 09:51:52.94	154.60	11.84	-46.7	-49.6	17.1	0.00e+00	0	43	0	94371840	65	4891
2026-01-03 09:51:53.94	154.59	11.94	-46.8	-49.6	16.9	0.00e+00	0	43	0	96468992	65	4910
2026-01-03 09:51:54.95	154.57	12.03	-46.8	-49.6	17.1	0.00e+00	0	43	0	97517568	65	4912
2026-01-03 09:51:55.95	154.56	12.13	-46.7	-49.6	17.1	0.00e+00	0	43	0	99614720	65	4874
2026-01-03 09:51:56.96	154.55	12.22	-46.7	-49.5	17.2	0.00e+00	0	43	0	101711872	65	4823
2026-01-03 09:51:57.96	154.53	12.32	-46.6	-49.4	17.3	0.00e+00	0	43	0	103809024	65	4801
2026-01-03 09:51:58.96	154.52	12.42	-46.7	-49.5	17.2	0.00e+00	0	43	0	104857600	65	4862
2026-01-03 09:51:59.97	154.51	12.51	-47.1	-50.0	17.1	0.00e+00	0	43	0	106954752	65	5113
2026-01-03 09:52:00.97	154.50	12.61	-46.8	-49.6	17.3	0.00e+00	0	43	0	109051904	65	4913
2026-01-03 09:52:01.97	154.48	12.71	-46.7	-49.4	17.5	0.00e+00	0	43	0	111149056	65	4778
2026-01-03 09:52:02.98	154.47	12.81	-46.6	-49.3	17.5	0.00e+00	0	43	0	113246208	65	4724
2026-01-03 09:52:03.98	154.45	12.90	-46.5	-49.1	17.6	0.00e+00	0	43	0	114294784	64	4925
2026-01-03 09:52:04.98	154.44	13.00	-46.4	-49.0	17.7	0.00e+00	0	43	0	116391936	64	4831
2026-01-03 09:52:05.98	154.43	13.10	-46.3	-48.9	17.8	0.00e+00	0	43	0	118489088	64	4784
2026-01-03 09:52:06.98	154.41	13.20	-46.3	-48.8	17.9	0.00e+00	0	43	0	120586240	64	4756
2026-01-03 09:52:07.99	154.40	13.30	-46.2	-48.8	17.8	0.00e+00	0	43	0	122683392	64	4751
2026-01-03 09:52:08.99	154.39	13.40	-46.2	-48.8	17.9	0.00e+00	0	43	0	123731968	64	4713
2026-01-03 09:52:09.99	154.37	13.50	-46.3	-48.9	17.9	0.00e+00	0	43	0	125829120	64	4779
2026-01-03 09:52:11.00	154.36	13.60	-46.3	-48.9	17.9	0.00e+00	0	43	0	127926272	64	4771
2026-01-03 09:52:12.00	154.34	13.71	-46.4	-48.9	17.9	0.00e+00	0	43	0	130023424	64	4811
2026-01-03 09:52:13.00	154.33	13.81	-46.4	-49.0	17.8	0.00e+00	0	43	0	132120576	64	4828
2026-01-03 09:52:14.00	154.31	13.91	-46.4	-49.0	17.8	0.00e+00	0	43	0	133169152	64	4849
2026-01-03 09:52:15.00	154.30	14.01	-46.5	-49.1	17.6	0.00e+00	0	43	0	135266304	64	4915
2026-01-03 09:52:16.00	154.28	14.12	-46.5	-49.2	17.5	0.00e+00	0	43	0	137363456	64	4970
2026-01-03 09:52:17.01	154.27	14.22	-46.5	-49.2	17.4	0.00e+00	0	43	0	139460608	64	4975
2026-01-03 09:52:18.01	154.25	14.32	-46.6	-49.3	17.4	0.00e+00	0	43	0	141557760	64	5016
2026-01-03 09:52:19.01	154.24	14.43	-46.6	-49.3	17.5	0.00e+00	0	43	0	142606336	64	5016
2026-01-03 09:52:20.01	154.22	14.53	-46.4	-49.1	17.7	0.00e+00	0	43	0	144703488	64	4895
2026-01-03 09:52:21.02	154.21	14.64	-46.4	-49.1	17.7	0.00e+00	0	43	0	146800640	64	4883
2026-01-03 09:52:22.02	154.19	14.75	-46.2	-48.9	17.9	0.00e+00	0	43	0	148897792	64	4764
2026-01-03 09:52:23.02	154.18	14.85	-46.1	-48.7	18.0	0.00e+00	0	43	0	149946368	64	4673
2026-01-03 09:52:24.03	154.16	14.96	-46.4	-48.9	18.1	0.00e+00	0	43	0	152043520	64	4793
2026-01-03 09:52:25.03	154.14	15.07	-46.1	-48.6	18.2	0.00e+00	0	43	0	154140672	64	4645
2026-01-03 09:52:26.03	154.13	15.17	-46.1	-48.6	18.1	0.00e+00	0	43	0	156237824	64	4638
2026-01-03 09:52:27.03	154.11	15.28	-45.9	-48.3	18.5	0.00e+00	0	43	0	158334976	63	4735
2026-01-03 09:52:28.03	154.09	15.39	-46.0	-48.4	18.4	0.00e+00	0	43	0	159383552	63	4768
2026-01-03 09:52:29.04	154.08	15.50	-46.0	-48.4	18.4	0.00e+00	0	43	0	161480704	63	4799
2026-01-03 09:52:30.04	154.06	15.61	-45.8	-48.3	18.5	0.00e+00	0	43	0	163577856	63	4706
2026-01-03 09:52:31.04	154.04	15.72	-46.0	-48.4	18.4	0.00e+00	0	43	0	165675008	63	4787
2026-01-03 09:52:32.04	154.03	15.83	-46.0	-48.4	18.3	0.00e+00	0	43	0	167772160	63	4793
2026-01-03 09:52:33.05	154.01	15.94	-46.0	-48.5	18.3	0.00e+00	0	43	0	168820736	63	4835
2026-01-03 09:52:34.05	153.99	16.05	-46.0	-48.4	18.4	0.00e+00	0	43	0	170917888	63	4802
2026-01-03 09:52:35.05	153.97	16.17	-46.0	-48.5	18.3	0.00e+00	0	43	0	173015040	63	4860
2026-01-03 09:52:36.06	153.96	16.28	-46.0	-48.5	18.3	0.00e+00	0	43	0	175112192	63	4834
2026-01-03 09:52:37.06	153.94	16.39	-45.9	-48.3	18.5	0.00e+00	0	43	0	177209344	63	4743
2026-01-03 09:52:38.07	153.92	16.51	-45.8	-48.2	18.5	0.00e+00	0	43	0	178257920	63	4685
2026-01-03 09:52:39.07	153.90	16.62	-45.8	-48.2	18.6	0.00e+00	0	43	0	180355072	63	4665
2026-01-03 09:52:40.07	153.88	16.74	-45.8	-48.2	18.5	0.00e+00	0	43	0	182452224	63	4672
2026-01-03 09:52:41.08	153.87	16.85	-46.1	-48.5	18.7	0.00e+00	0	43	0	184549376	63	4821
2026-01-03 09:52:42.08	153.85	16.97	-45.6	-47.9	19.0	0.00e+00	0	43	0	186646528	63	4511
2026-01-03 09:52:43.08	153.83	17.08	-45.5	-47.8	19.1	0.00e+00	0	43	0	187695104	62	4716
2026-01-03 09:52:44.09	153.81	17.20	-45.5	-47.7	19.1	0.00e+00	0	43	0	189792256	62	4704
2026-01-03 09:52:45.09	153.79	17.32	-45.4	-47.7	19.2	0.00e+00	0	43	0	191889408	62	4673
2026-01-03 09:52:46.08	153.77	17.44	-45.5	-47.7	19.1	0.00e+00	0	43	0	193986560	62	4697
2026-01-03 09:52:47.09	153.75	17.56	-45.5	-47.7	19.0	0.00e+00	0	43	0	195035136	62	4692
2026-01-03 09:52:48.09	153.73	17.68	-45.7	-48.1	18.8	0.00e+00	0	43	0	197132288	62	4879
2026-01-03 09:52:49.09	153.71	17.80	-45.5	-47.8	18.9	0.00e+00	0	43	0	199229440	62	4754
2026-01-03 09:52:50.10	153.69	17.92	-45.7	-48.0	18.8	0.00e+00	0	43	0	201326592	62	4867
2026-01-03 09:52:51.10	153.67	18.04	-45.8	-48.2	18.6	0.00e+00	0	43	0	203423744	62	4947
2026-01-03 09:52:52.10	153.65	18.16	-45.9	-48.3	18.5	0.00e+00	0	43	0	204472320	62	4986
2026-01-03 09:52:53.10	153.63	18.28	-46.0	-48.4	18.5	0.00e+00	0	43	0	206569472	62	5064
2026-01-03 09:52:54.11	153.61	18.41	-45.8	-48.2	18.7	0.00e+00	0	43	0	208666624	62	4933
2026-01-03 09:52:55.11	153.59	18.53	-45.7	-48.0	18.8	0.00e+00	0	43	0	210763776	62	4867
2026-01-03 09:52:56.11	153.57	18.65	-45.7	-48.0	18.8	0.00e+00	0	43	0	212860928	62	4859
2026-01-03 09:52:57.11	153.55	18.78	-45.9	-48.2	18.9	0.00e+00	0	43	0	213909504	62	4955
2026-01-03 09:52:58.11	153.53	18.90	-45.8	-48.1	19.0	0.00e+00	0	43	0	216006656	62	4890
2026-01-03 09:52:59.11	153.50	19.03	-45.6	-47.8	19.1	0.00e+00	0	43	0	218103808	62	4749
2026-01-03 09:53:00.11	153.48	19.15	-45.6	-47.9	19.0	0.00e+00	0	43	0	220200960	62	4762
2026-01-03 09:53:01.11	153.46	19.28	-45.5	-47.8	19.1	0.00e+00	0	43	0	222298112	62	4707
2026-01-03 09:53:02.11	153.44	19.41	-45.5	-47.8	19.0	0.00e+00	0	43	0	223346688	62	4717
2026-01-03 09:53:03.11	153.41	19.54	-45.5	-47.8	19.0	0.00e+00	0	43	0	225443840	62	4716
2026-01-03 09:53:04.11	153.39	19.67	-45.7	-48.0	18.8	0.00e+00	0	43	0	227540992	62	4849
2026-01-03 09:53:05.11	153.37	19.80	-45.7	-48.1	18.8	0.00e+00	0	43	0	229638144	62	4874
2026-01-03 09:53:06.11	153.35	19.93	-45.8	-48.2	18.7	0.00e+00	0	43	0	231735296	62	4929
2026-01-03 09:53:07.11	153.32	20.06	-45.9	-48.3	18.5	0.00e+00	0	43	0	232783872	62	5033
2026-01-03 09:53:08.11	153.30	20.19	-46.0	-48.5	18.4	0.00e+00	0	43	0	234881024	62	5111
2026-01-03 09:53:09.12	153.27	20.32	-46.1	-48.6	18.2	0.00e+00	0	43	0	236978176	63	4923
2026-01-03 09:53:10.12	153.25	20.46	-45.9	-48.4	18.4	0.00e+00	0	43	0	239075328	63	4795
2026-01-03 09:53:11.12	153.23	20.59	-46.2	-48.7	18.5	0.00e+00	0	43	0	240123904	63	4931
2026-01-03 09:53:12.12	153.20	20.72	-46.0	-48.4	18.6	0.00e+00	0	43	0	242221056	63	4807
2026-01-03 09:53:13.11	153.18	20.86	-45.9	-48.3	18.7	0.00e+00	0	43	0	244318208	63	4710
2026-01-03 09:53:14.12	153.15	21.00	-45.9	-48.2	18.8	0.00e+00	0	43	0	246415360	63	4682
2026-01-03 09:53:15.12	153.13	21.13	-45.9	-48.2	18.7	0.00e+00	0	43	0	248512512	63	4699
2026-01-03 09:53:16.11	153.10	21.27	-45.8	-48.1	18.7	0.00e+00	0	43	0	249561088	63	4649
2026-01-03 09:53:17.11	153.08	21.41	-45.8	-48.2	18.7	0.00e+00	0	43	0	251658240	63	4658
2026-01-03 09:53:18.12	153.05	21.55	-45.8	-48.2	18.7	0.00e+00	0	43	0	253755392	63	4666
2026-01-03 09:53:19.12	153.02	21.69	-45.7	-48.0	18.9	0.00e+00	0	43	0	255852544	63	4565
2026-01-03 09:53:20.12	153.00	21.83	-45.8	-48.2	18.7	0.00e+00	0	43	0	257949696	63	4674
2026-01-03 09:53:21.12	152.97	21.97	-45.8	-48.1	18.8	0.00e+00	0	43	0	258998272	63	4650
2026-01-03 09:53:22.12	152.94	22.11	-45.7	-48.0	18.9	0.00e+00	0	43	0	261095424	63	4585
2026-01-03 09:53:23.13	152.92	22.26	-45.7	-48.1	18.8	0.00e+00	0	43	0	263192576	63	4613
2026-01-03 09:53:24.13	152.89	22.40	-45.8	-48.1	18.8	0.00e+00	0	43	0	265289728	63	4628
2026-01-03 09:53:25.12	152.86	22.54	-46.2	-48.6	18.7	0.00e+00	0	43	0	267386880	63	4878
2026-01-03 09:53:26.12	152.83	22.69	-45.8	-48.0	19.0	0.00e+00	0	44	0	268435456	63	4580
2026-01-03 09:53:27.12	152.80	22.83	-45.7	-47.9	19.1	0.00e+00	0	43	0	270532608	63	4520
2026-01-03 09:53:28.12	152.77	22.98	-45.7	-47.9	19.1	0.00e+00	0	43	0	272629760	63	4524
2026-01-03 09:53:29.12	152.75	23.13	-45.6	-47.8	19.1	0.00e+00	0	43	0	274726912	63	4462
2026-01-03 09:53:30.13	152.72	23.28	-45.4	-47.6	19.3	0.00e+00	0	43	0	275775488	62	4650
2026-01-03 09:53:31.13	152.69	23.43	-45.4	-47.6	19.3	0.00e+00	0	43	0	277872640	62	4646
2026-01-03 09:53:32.13	152.66	23.58	-45.4	-47.7	19.3	0.00e+00	0	43	0	279969792	62	4656
2026-01-03 09:53:33.13	152.63	23.73	-45.6	-47.9	19.1	0.00e+00	0	43	0	282066944	62	4777
2026-01-03 09:53:34.13	152.59	23.88	-45.5	-47.7	19.2	0.00e+00	0	43	0	284164096	62	4702
2026-01-03 09:53:35.13	152.56	24.03	-45.5	-47.7	19.2	0.00e+00	0	43	0	285212672	62	4692
2026-01-03 09:53:36.13	152.53	24.19	-45.7	-48.0	18.9	0.00e+00	0	43	0	287309824	62	4850
2026-01-03 09:53:37.13	152.50	24.34	-45.6	-47.9	19.0	0.00e+00	0	43	0	289406976	62	4789
2026-01-03 09:53:38.13	152.47	24.50	-45.7	-48.0	18.9	0.00e+00	0	43	0	291504128	62	4838
2026-01-03 09:53:39.14	152.44	24.66	-45.9	-48.3	18.7	0.00e+00	0	43	0	293601280	62	4991
2026-01-03 09:53:40.13	152.40	24.81	-46.1	-48.5	18.5	0.00e+00	0	43	0	294649856	62	5122
2026-01-03 09:53:41.13	152.37	24.97	-46.6	-49.1	18.1	0.00e+00	0	43	0	296747008	63	5181
2026-01-03 09:53:42.13	152.34	25.13	-46.0	-48.4	18.6	0.00e+00	0	44	0	298844160	64	4509
2026-01-03 09:53:43.13	152.30	25.29	-46.2	-48.6	18.4	0.00e+00	0	43	0	300941312	64	4613
2026-01-03 09:53:44.13	152.27	25.45	-46.3	-48.8	18.2	0.00e+00	0	43	0	301989888	64	4733
2026-01-03 09:53:45.13	152.23	25.61	-46.1	-48.5	18.5	0.00e+00	0	43	0	304087040	64	4549
2026-01-03 09:53:46.13	152.20	25.78	-46.0	-48.4	18.7	0.00e+00	0	43	0	306184192	63	4778
2026-01-03 09:53:47.14	152.16	25.94	-45.9	-48.3	18.7	0.00e+00	0	43	0	308281344	63	4726
2026-01-03 09:53:48.14	152.13	26.11	-45.9	-48.2	18.7	0.00e+00	0	43	0	310378496	63	4704
2026-01-03 09:53:49.14	152.09	26.28	-46.1	-48.5	18.5	0.00e+00	0	43	0	311427072	63	4848
2026-01-03 09:53:50.14	152.06	26.44	-45.7	-48.0	18.9	0.00e+00	0	43	0	313524224	63	4598
2026-01-03 09:53:51.15	152.02	26.61	-45.8	-48.1	18.9	0.00e+00	0	43	0	315621376	63	4645
2026-01-03 09:53:52.15	151.98	26.78	-46.0	-48.4	18.6	0.00e+00	0	43	0	317718528	63	4797
2026-01-03 09:53:53.15	151.94	26.95	-45.9	-48.3	18.7	0.00e+00	0	43	0	319815680	63	4713
2026-01-03 09:53:54.15	151.90	27.12	-45.9	-48.3	18.6	0.00e+00	0	43	0	320864256	63	4730
2026-01-03 09:53:55.15	151.87	27.30	-46.1	-48.6	18.4	0.00e+00	0	43	0	322961408	63	4916
2026-01-03 09:53:56.15	151.83	27.47	-46.1	-48.6	18.3	0.00e+00	0	43	0	325058560	63	4898
2026-01-03 09:53:57.15	151.79	27.65	-46.6	-49.2	17.8	0.00e+00	0	43	0	327155712	64	4980
2026-01-03 09:53:58.15	151.75	27.82	-46.2	-48.7	18.4	0.00e+00	0	43	0	329252864	64	4657
2026-01-03 09:53:59.15	151.71	28.00	-46.2	-48.7	18.4	0.00e+00	0	43	0	330301440	64	4691
2026-01-03 09:54:00.15	151.67	28.18	-46.3	-48.8	18.2	0.00e+00	0	43	0	332398592	64	4735
2026-01-03 09:54:01.15	151.62	28.36	-46.2	-48.7	18.3	0.00e+00	0	43	0	334495744	63	4973
2026-01-03 09:54:02.16	151.58	28.54	-46.0	-48.5	18.6	0.00e+00	0	43	0	336592896	63	4830
2026-01-03 09:54:03.16	151.54	28.72	-45.9	-48.4	18.7	0.00e+00	0	43	0	338690048	63	4774
2026-01-03 09:54:04.16	151.50	28.90	-46.0	-48.4	18.6	0.00e+00	0	43	0	339738624	63	4812
2026-01-03 09:54:05.16	151.45	29.09	-46.4	-48.9	18.1	0.00e+00	0	43	0	341835776	63	5070
2026-01-03 09:54:06.17	151.41	29.27	-46.5	-49.0	18.1	0.00e+00	0	43	0	343932928	63	5125
2026-01-03 09:54:07.17	151.36	29.46	-46.6	-49.2	17.9	0.00e+00	0	43	0	346030080	64	4945
2026-01-03 09:54:08.17	151.32	29.65	-47.1	-49.8	17.3	0.00e+00	0	43	0	347078656	65	4991
2026-01-03 09:54:09.17	151.27	29.84	-47.4	-50.2	16.9	0.00e+00	0	43	0	349175808	65	5240
2026-01-03 09:54:10.17	151.23	30.03	-47.4	-50.2	16.9	0.00e+00	0	43	0	351272960	65	5276
2026-01-03 09:54:11.18	151.18	30.22	-47.4	-50.2	16.9	0.00e+00	0	43	0	353370112	65	5235
2026-01-03 09:54:12.18	151.13	30.41	-47.4	-50.2	16.8	0.00e+00	0	43	0	355467264	65	5272
2026-01-03 09:54:13.17	151.08	30.60	-47.3	-50.0	17.1	0.00e+00	0	44	0	356515840	66	4838
2026-01-03 09:54:14.18	151.03	30.80	-47.1	-49.8	17.2	0.00e+00	0	43	0	358612992	66	4717
2026-01-03 09:54:15.18	150.98	31.00	-47.5	-50.2	17.2	0.00e+00	0	43	0	360710144	66	4934
2026-01-03 09:54:16.18	150.93	31.19	-47.4	-50.0	17.2	0.00e+00	0	43	0	362807296	66	4843
2026-01-03 09:54:17.17	150.88	31.39	-47.2	-49.8	17.4	0.00e+00	0	43	0	364904448	66	4724
2026-01-03 09:54:18.18	150.83	31.59	-47.4	-50.0	17.2	0.00e+00	0	43	0	365953024	66	4852
2026-01-03 09:54:19.17	150.78	31.79	-47.9	-50.7	16.5	0.00e+00	0	43	0	368050176	66	5259
2026-01-03 09:54:20.17	150.73	32.00	-48.3	-51.2	16.0	0.00e+00	0	43	0	370147328	67	5275
2026-01-03 09:54:21.17	150.67	32.20	-48.3	-51.3	16.0	0.00e+00	0	43	0	372244480	67	5289
2026-01-03 09:54:22.17	150.62	32.41	-48.3	-51.4	15.8	0.00e+00	0	44	0	374341632	67	5368
2026-01-03 09:54:23.17	150.57	32.61	-48.4	-51.5	15.7	0.00e+00	0	43	0	375390208	67	5443
2026-01-03 09:54:24.17	150.51	32.82	-48.4	-51.5	15.7	0.00e+00	0	43	0	377487360	67	5411
2026-01-03 09:54:25.17	150.45	33.03	-48.7	-51.8	15.6	0.00e+00	0	43	0	379584512	68	5287
2026-01-03 09:54:26.17	150.40	33.24	-48.4	-51.3	15.9	0.00e+00	0	43	0	381681664	68	5040
2026-01-03 09:54:27.17	150.34	33.45	-48.6	-51.8	15.4	0.00e+00	0	44	0	382730240	68	5295
2026-01-03 09:54:28.17	150.28	33.67	-48.9	-52.1	15.1	0.00e+00	0	44	0	384827392	68	5528
2026-01-03 09:54:29.17	150.22	33.88	-49.2	-52.4	15.2	0.00e+00	0	43	0	386924544	69	5391
2026-01-03 09:54:30.17	150.16	34.10	-49.4	-52.9	14.6	0.00e+00	0	44	0	389021696	69	5670
2026-01-03 09:54:31.17	150.10	34.32	-49.4	-53.0	14.3	0.00e+00	0	43	0	391118848	70	5441
2026-01-03 09:54:32.18	150.04	34.54	-49.3	-52.8	14.6	0.00e+00	0	43	0	392167424	70	5303
2026-01-03 09:54:33.18	149.97	34.76	-49.2	-52.7	14.7	7.00e-07	0	44	0	394264576	70	5272
2026-01-03 09:54:34.18	149.91	34.99	-48.7	-52.0	15.1	7.00e-07	0	44	0	396361728	69	5134
2026-01-03 09:54:35.19	149.84	35.22	-48.6	-51.9	15.4	0.00e+00	0	43	0	398458880	69	5042
2026-01-03 09:54:36.19	149.78	35.44	-48.4	-51.5	15.8	0.00e+00	0	43	0	400556032	68	5131
2026-01-03 09:54:37.19	149.71	35.67	-47.8	-50.7	16.3	0.00e+00	0	43	0	401604608	67	4979
2026-01-03 09:54:38.19	149.64	35.90	-48.0	-51.0	16.1	0.00e+00	0	44	0	403701760	67	5141
2026-01-03 09:54:39.19	149.57	36.13	-48.0	-51.0	16.1	0.00e+00	0	43	0	405798912	67	5137
2026-01-03 09:54:40.19	149.51	36.36	-48.1	-51.1	16.1	0.00e+00	0	43	0	407896064	67	5186
2026-01-03 09:54:41.19	149.43	36.60	-48.3	-51.5	15.7	0.00e+00	0	44	0	408944640	67	5430
2026-01-03 09:54:42.20	149.36	36.84	-48.5	-51.7	15.4	0.00e+00	0	43	0	411041792	67	5569
2026-01-03 09:54:43.20	149.29	37.07	-48.3	-51.5	15.6	0.00e+00	0	44	0	413138944	67	5430
2026-01-03 09:54:44.20	149.21	37.31	-48.1	-51.0	16.3	0.00e+00	0	43	0	415236096	67	5147
2026-01-03 09:54:45.20	149.14	37.55	-47.2	-49.8	17.4	0.00e+00	0	43	0	417333248	66	4728
2026-01-03 09:54:46.21	149.06	37.80	-47.3	-49.8	17.4	0.00e+00	0	43	0	419430400	66	4755
2026-01-03 09:54:47.21	148.98	38.04	-46.8	-49.3	17.9	0.00e+00	0	43	0	420478976	65	4716
2026-01-03 09:54:48.21	148.91	38.29	-46.7	-49.2	17.9	0.00e+00	0	44	0	422576128	65	4682
2026-01-03 09:54:49.21	148.83	38.54	-46.9	-49.4	17.7	0.00e+00	0	44	0	424673280	65	4775
2026-01-03 09:54:50.22	148.74	38.79	-47.2	-49.9	17.3	0.00e+00	0	43	0	426770432	65	5056
2026-01-03 09:54:51.22	148.66	39.04	-47.7	-50.5	16.6	0.00e+00	0	43	0	427819008	66	5143
2026-01-03 09:54:52.22	148.58	39.30	-47.9	-50.9	16.2	0.00e+00	0	43	0	429916160	66	5351
2026-01-03 09:54:53.22	148.49	39.55	-48.5	-51.7	15.4	1.50e-06	0	43	0	432013312	67	5561
2026-01-03 09:54:54.22	148.41	39.81	-48.4	-51.6	15.5	0.00e+00	0	43	0	434110464	67	5498
2026-01-03 09:54:55.22	148.32	40.07	-48.1	-51.2	15.9	0.00e+00	0	43	0	436207616	67	5225
2026-01-03 09:54:56.23	148.23	40.33	-48.2	-51.3	16.0	0.00e+00	0	44	0	437256192	68	4987
2026-01-03 09:54:57.23	148.14	40.59	-48.2	-51.2	16.2	0.00e+00	0	43	0	439353344	68	4942
2026-01-03 09:54:58.23	148.04	40.86	-47.9	-50.8	16.2	0.00e+00	0	44	0	441450496	67	5037
2026-01-03 09:54:59.24	147.95	41.12	-48.2	-51.1	16.3	0.00e+00	0	44	0	443547648	67	5182
2026-01-03 09:55:00.24	147.85	41.39	-48.2	-51.1	16.2	0.00e+00	0	43	0	445644800	67	5171
2026-01-03 09:55:01.24	147.75	41.66	-48.5	-51.6	15.7	0.00e+00	0	44	0	446693376	67	5470
2026-01-03 09:55:02.24	147.65	41.93	-48.3	-51.4	15.9	7.00e-07	0	44	0	448790528	67	5350
2026-01-03 09:55:03.24	147.55	42.21	-48.9	-52.2	15.1	0.00e+00	0	44	0	450887680	68	5565
2026-01-03 09:55:04.24	147.45	42.48	-48.8	-51.9	15.5	0.00e+00	0	44	0	452984832	69	5072
2026-01-03 09:55:05.24	147.35	42.76	-49.0	-52.3	15.0	7.00e-07	0	43	0	454033408	69	5313
2026-01-03 09:55:06.25	147.24	43.04	-49.0	-52.4	15.0	7.00e-07	0	43	0	456130560	69	5341
2026-01-03 09:55:07.25	147.13	43.33	-48.8	-52.1	15.2	0.00e+00	0	44	0	458227712	68	5522
2026-01-03 09:55:08.25	147.02	43.61	-48.9	-52.2	15.1	0.00e+00	0	43	0	460324864	68	5536
2026-01-03 09:55:09.25	146.91	43.89	-48.8	-52.1	15.2	0.00e+00	0	43	0	462422016	69	5182
2026-01-03 09:55:10.25	146.79	44.18	-48.9	-52.3	14.9	0.00e+00	0	44	0	464519168	69	5327
2026-01-03 09:55:11.26	146.68	44.47	-49.1	-52.5	14.7	0.00e+00	0	44	0	465567744	69	5459
2026-01-03 09:55:12.26	146.56	44.77	-48.5	-51.7	15.5	0.00e+00	0	44	0	467664896	68	5248
2026-01-03 09:55:13.26	146.44	45.06	-47.5	-50.3	16.6	0.00e+00	0	44	0	469762048	67	4726
2026-01-03 09:55:14.27	146.31	45.36	-47.4	-50.0	17.2	0.00e+00	0	43	0	471859200	66	4844
2026-01-03 09:55:15.27	146.18	45.66	-46.8	-49.3	17.8	0.00e+00	0	44	0	472907776	65	4740
2026-01-03 09:55:16.27	146.06	45.95	-46.8	-49.3	17.8	0.00e+00	0	44	0	475004928	65	4759
2026-01-03 09:55:17.28	145.92	46.26	-46.9	-49.5	17.6	0.00e+00	0	43	0	477102080	65	4848
2026-01-03 09:55:18.28	145.79	46.56	-47.8	-50.7	16.5	0.00e+00	0	44	0	479199232	66	5240
2026-01-03 09:55:19.28	145.65	46.87	-48.3	-51.3	15.8	0.00e+00	0	44	0	481296384	67	5327
2026-01-03 09:55:20.28	145.52	47.18	-48.7	-51.9	15.4	0.00e+00	0	44	0	482344960	68	5343
2026-01-03 09:55:21.29	145.37	47.49	-48.5	-51.6	15.7	0.00e+00	0	44	0	484442112	68	5200
2026-01-03 09:55:22.29	145.23	47.80	-47.9	-50.8	16.3	0.00e+00	0	44	0	486539264	67	5031
2026-01-03 09:55:23.29	145.08	48.12	-47.8	-50.6	16.5	0.00e+00	0	44	0	488636416	67	4904
2026-01-03 09:55:24.29	144.93	48.43	-47.3	-50.0	17.2	0.00e+00	0	43	0	490733568	66	4821
2026-01-03 09:55:25.29	144.78	48.75	-47.2	-49.9	17.2	0.00e+00	0	44	0	491782144	65	5052
2026-01-03 09:55:26.29	144.62	49.07	-46.5	-48.9	18.1	0.00e+00	0	44	0	493879296	64	4784
2026-01-03 09:55:27.29	144.46	49.39	-46.3	-48.6	18.3	0.00e+00	0	44	0	495976448	64	4642
2026-01-03 09:55:28.30	144.29	49.72	-45.9	-48.1	18.8	0.00e+00	0	44	0	498073600	63	4650
2026-01-03 09:55:29.29	144.13	50.04	-45.4	-47.6	19.4	0.00e+00	0	44	0	500170752	62	4610
2026-01-03 09:55:30.30	143.95	50.38	-45.4	-47.5	19.7	0.00e+00	0	43	0	501219328	62	4594
2026-01-03 09:55:31.30	143.78	50.71	-45.6	-47.7	19.4	0.00e+00	0	44	0	503316480	62	4699
2026-01-03 09:55:32.30	143.60	51.04	-46.0	-48.2	19.0	0.00e+00	0	44	0	505413632	62	4969
2026-01-03 09:55:33.30	143.41	51.37	-45.8	-48.0	19.1	0.00e+00	0	44	0	507510784	63	4592
2026-01-03 09:55:34.30	143.23	51.71	-45.7	-47.9	19.1	0.00e+00	0	44	0	509607936	63	4516
2026-01-03 09:55:35.31	143.03	52.05	-45.6	-47.8	19.3	0.00e+00	0	43	0	510656512	62	4755
2026-01-03 09:55:36.31	142.84	52.39	-46.3	-48.6	18.5	0.00e+00	0	43	0	512753664	63	4925
2026-01-03 09:55:37.31	142.64	52.74	-47.1	-49.8	17.3	0.00e+00	0	43	0	514850816	64	5328
2026-01-03 09:55:38.31	142.43	53.08	-47.3	-50.0	17.0	0.00e+00	0	44	0	516947968	66	4847
2026-01-03 09:55:39.31	142.22	53.43	-47.6	-50.5	16.5	0.00e+00	0	44	0	517996544	66	5103
2026-01-03 09:55:40.31	142.00	53.78	-46.6	-49.1	17.9	0.00e+00	0	44	0	520093696	65	4602
2026-01-03 09:55:41.31	141.78	54.13	-46.1	-48.3	18.7	0.00e+00	0	44	0	522190848	63	4755
2026-01-03 09:55:42.31	141.55	54.48	-45.8	-48.0	19.2	0.00e+00	0	44	0	524288000	63	4587
2026-01-03 09:55:43.31	141.32	54.84	-46.2	-48.5	18.7	0.00e+00	0	43	0	526385152	63	4851
2026-01-03 09:55:44.32	141.08	55.20	-46.5	-48.9	18.4	0.00e+00	0	44	0	527433728	63	5081
2026-01-03 09:55:45.31	140.84	55.55	-46.2	-48.6	18.6	0.00e+00	0	44	0	529530880	63	4881
2026-01-03 09:55:46.31	140.58	55.91	-45.7	-48.0	19.0	0.00e+00	0	44	0	531628032	63	4584
2026-01-03 09:55:47.32	140.32	56.28	-45.5	-47.7	19.5	0.00e+00	0	44	0	533725184	62	4671
2026-01-03 09:55:48.31	140.06	56.64	-45.1	-47.1	19.9	0.00e+00	0	44	0	535822336	62	4379
2026-01-03 09:55:49.31	139.79	57.01	-45.4	-47.6	19.5	0.00e+00	0	44	0	536870912	61	4895
2026-01-03 09:55:50.31	139.51	57.37	-46.0	-48.3	18.8	0.00e+00	0	44	0	538968064	62	5004
2026-01-03 09:55:51.31	139.22	57.74	-46.4	-48.7	18.5	0.00e+00	0	44	0	541065216	63	4983
2026-01-03 09:55:52.31	138.93	58.11	-46.5	-48.9	18.3	0.00e+00	0	44	0	543162368	63	5088
2026-01-03 09:55:53.31	138.62	58.49	-46.6	-49.1	17.9	0.00e+00	0	43	0	545259520	64	4925
2026-01-03 09:55:54.32	138.31	58.86	-46.9	-49.6	17.6	0.00e+00	0	44	0	546308096	64	5197
2026-01-03 09:55:55.32	137.99	59.24	-47.0	-49.7	17.4	0.00e+00	0	43	0	548405248	65	4982
2026-01-03 09:55:56.32	137.65	59.62	-46.6	-49.1	18.0	0.00e+00	0	43	0	550502400	65	4651
2026-01-03 09:55:57.32	137.31	59.99	-46.1	-48.5	18.5	0.00e+00	0	43	0	552599552	64	4588
2026-01-03 09:55:58.32	136.96	60.37	-46.5	-49.1	18.1	0.00e+00	0	43	0	553648128	64	4872
2026-01-03 09:55:59.32	136.60	60.75	-46.1	-48.5	18.5	0.00e+00	0	43	0	555745280	64	4556
2026-01-03 09:56:00.32	136.23	61.14	-45.8	-48.1	19.1	0.00e+00	0	44	0	557842432	63	4604
2026-01-03 09:56:01.32	135.84	61.52	-45.3	-47.5	19.5	0.00e+00	0	43	0	559939584	62	4570
2026-01-03 09:56:02.33	135.44	61.91	-45.2	-47.4	19.5	0.00e+00	0	43	0	562036736	62	4535
2026-01-03 09:56:03.33	135.03	62.29	-45.6	-47.9	19.2	0.00e+00	0	43	0	563085312	62	4775
2026-01-03 09:56:04.33	134.61	62.68	-45.6	-47.8	19.2	0.00e+00	0	43	0	565182464	62	4738
2026-01-03 09:56:05.34	134.16	63.07	-45.2	-47.4	19.5	0.00e+00	0	44	0	567279616	61	4787
2026-01-03 09:56:06.34	133.71	63.46	-45.3	-47.5	19.5	0.00e+00	0	43	0	569376768	61	4853
2026-01-03 09:56:07.34	133.25	63.85	-45.8	-48.1	19.2	0.00e+00	0	44	0	571473920	62	4881
2026-01-03 09:56:08.35	132.76	64.24	-45.8	-48.1	19.1	0.00e+00	0	44	0	572522496	63	4617
2026-01-03 09:56:09.35	132.26	64.63	-45.6	-47.8	19.4	0.00e+00	0	43	0	574619648	63	4471
2026-01-03 09:56:10.36	131.73	65.02	-45.5	-47.7	19.3	0.00e+00	0	44	0	576716800	63	4417
2026-01-03 09:56:11.35	131.20	65.41	-45.7	-47.9	19.3	0.00e+00	0	43	0	578813952	62	4765
2026-01-03 09:56:12.36	130.64	65.80	-45.7	-47.9	19.3	0.00e+00	0	43	0	580911104	62	4807
2026-01-03 09:56:13.36	130.07	66.19	-46.5	-49.0	18.2	0.00e+00	0	43	0	581959680	63	5114
2026-01-03 09:56:14.36	129.47	66.58	-46.8	-49.4	17.7	0.00e+00	0	43	0	584056832	64	5065
2026-01-03 09:56:15.37	128.85	66.97	-46.9	-49.4	17.6	0.00e+00	0	43	0	586153984	65	4807
2026-01-03 09:56:16.37	128.20	67.36	-46.6	-49.1	18.0	0.00e+00	0	44	0	588251136	65	4624
2026-01-03 09:56:17.37	127.54	67.74	-46.4	-48.8	18.2	0.00e+00	0	43	0	590348288	64	4710
2026-01-03 09:56:18.37	126.84	68.13	-46.3	-48.7	18.4	0.00e+00	0	44	0	591396864	64	4678
2026-01-03 09:56:19.37	126.12	68.51	-46.3	-48.7	18.3	0.00e+00	0	44	0	593494016	64	4673
2026-01-03 09:56:20.37	125.38	68.89	-47.2	-49.9	17.2	0.00e+00	0	43	0	595591168	64	5379
2026-01-03 09:56:21.38	124.59	69.27	-48.3	-51.6	15.6	0.00e+00	0	44	0	597688320	67	5519
2026-01-03 09:56:22.38	123.78	69.65	-48.3	-51.5	15.6	0.00e+00	0	44	0	598736896	67	5429
2026-01-03 09:56:23.38	122.94	70.03	-47.9	-50.8	16.3	0.00e+00	0	43	0	600834048	67	5017
2026-01-03 09:56:24.38	122.06	70.40	-47.8	-50.5	16.9	0.00e+00	0	44	0	602931200	67	4866
2026-01-03 09:56:25.39	121.14	70.77	-47.1	-49.7	17.6	0.00e+00	0	44	0	605028352	66	4664
2026-01-03 09:56:26.39	120.19	71.14	-46.7	-49.1	18.1	0.00e+00	0	44	0	607125504	64	4921
2026-01-03 09:56:27.39	119.20	71.50	-46.4	-48.8	18.5	0.00e+00	0	43	0	608174080	64	4726
2026-01-03 09:56:28.39	118.16	71.86	-47.4	-50.0	17.3	0.00e+00	0	43	0	610271232	65	5142
2026-01-03 09:56:29.39	117.09	72.21	-48.8	-51.9	15.5	0.00e+00	0	44	0	612368384	68	5395
2026-01-03 09:56:30.39	115.97	72.56	-48.9	-52.2	15.3	0.00e+00	0	43	0	614465536	68	5533
2026-01-03 09:56:31.39	114.79	72.90	-48.9	-52.2	15.2	7.00e-07	0	43	0	616562688	69	5266
2026-01-03 09:56:32.39	113.57	73.24	-47.7	-50.5	16.7	0.00e+00	0	43	0	617611264	67	4820
2026-01-03 09:56:33.39	112.30	73.57	-46.1	-48.4	18.9	0.00e+00	0	44	0	619708416	63	4766
2026-01-03 09:56:34.39	110.98	73.89	-45.4	-47.6	19.4	0.00e+00	0	44	0	621805568	62	4638
2026-01-03 09:56:35.39	109.59	74.20	-46.3	-48.8	18.4	0.00e+00	0	44	0	623902720	63	4994
2026-01-03 09:56:36.39	108.15	74.51	-46.8	-49.4	17.7	0.00e+00	0	44	0	624951296	64	5072
2026-01-03 09:56:37.39	106.65	74.81	-46.9	-49.5	17.5	0.00e+00	0	43	0	627048448	65	4847
2026-01-03 09:56:38.39	105.09	75.09	-46.7	-49.2	17.8	0.00e+00	0	44	0	629145600	65	4705
2026-01-03 09:56:39.39	103.47	75.37	-46.5	-49.1	17.9	0.00e+00	0	44	0	631242752	64	4880
2026-01-03 09:56:40.39	101.78	75.64	-46.1	-48.5	18.6	0.00e+00	0	44	0	633339904	63	4859
2026-01-03 09:56:41.40	100.01	75.89	-45.8	-48.2	18.8	0.00e+00	0	43	0	635437056	63	4677
2026-01-03 09:56:42.40	98.19	76.13	-46.0	-48.3	18.7	0.00e+00	0	44	0	636485632	63	4722
2026-01-03 09:56:43.40	96.31	76.36	-46.3	-48.6	18.7	0.00e+00	0	44	0	638582784	63	4900
2026-01-03 09:56:44.40	94.37	76.57	-46.6	-49.1	18.3	0.00e+00	0	44	0	640679936	63	5183
2026-01-03 09:56:45.40	92.36	76.77	-47.4	-50.1	17.1	0.00e+00	0	43	0	642777088	65	5185
2026-01-03 09:56:46.40	90.29	76.95	-46.9	-49.4	17.8	0.00e+00	0	43	0	643825664	65	4779
2026-01-03 09:56:47.40	88.17	77.11	-48.3	-51.3	16.0	0.00e+00	0	43	0	645922816	67	5336
2026-01-03 09:56:48.41	85.97	77.26	-48.6	-51.7	15.7	0.00e+00	0	44	0	648019968	68	5273
2026-01-03 09:56:49.41	83.74	77.39	-48.5	-51.5	15.8	0.00e+00	0	43	0	650117120	68	5154
2026-01-03 09:56:50.41	81.47	77.50	-48.7	-51.8	15.7	0.00e+00	0	44	0	652214272	68	5333
2026-01-03 09:56:51.42	79.14	77.59	-46.2	-48.5	18.4	0.00e+00	0	43	0	653262848	64	4589
2026-01-03 09:56:52.42	76.80	77.66	-46.6	-49.0	18.3	0.00e+00	0	44	0	655360000	63	5137
2026-01-03 09:56:53.42	74.44	77.71	-48.3	-51.3	15.8	0.00e+00	0	44	0	657457152	67	5315
2026-01-03 09:56:54.43	72.04	77.74	-47.7	-50.4	16.8	0.00e+00	0	43	0	659554304	66	5084
2026-01-03 09:56:55.43	69.66	77.74	-48.5	-51.7	15.5	0.00e+00	0	43	0	661651456	67	5552
2026-01-03 09:56:56.43	67.27	77.73	-50.5	-55.2	12.3	8.30e-06	0	44	0	662700032	71	6580
2026-01-03 09:56:57.44	64.87	77.70	-48.0	-50.9	16.4	0.00e+00	0	44	0	664797184	68	4802
2026-01-03 09:56:58.44	62.52	77.64	-46.8	-49.3	17.8	0.00e+00	0	44	0	666894336	65	4719
2026-01-03 09:56:59.44	60.19	77.57	-48.0	-51.0	16.2	0.00e+00	0	44	0	668991488	66	5450
2026-01-03 09:57:00.45	57.87	77.47	-47.6	-50.3	16.9	0.00e+00	0	44	0	671088640	66	5039
2026-01-03 09:57:01.45	55.61	77.36	-48.2	-51.1	16.5	0.00e+00	0	44	0	672137216	66	5498
2026-01-03 09:57:02.45	53.39	77.23	-49.5	-53.1	14.5	0.00e+00	0	44	0	674234368	69	5822
2026-01-03 09:57:03.45	51.23	77.08	-48.0	-50.8	16.5	0.00e+00	0	44	0	676331520	68	4751
2026-01-03 09:57:04.46	49.09	76.91	-47.3	-49.8	17.4	0.00e+00	0	44	0	678428672	65	5040
2026-01-03 09:57:05.46	47.04	76.72	-46.7	-49.1	18.0	0.00e+00	0	44	0	680525824	65	4638
2026-01-03 09:57:06.46	45.05	76.52	-46.0	-48.3	18.8	0.00e+00	0	44	0	681574400	63	4734
2026-01-03 09:57:07.46	43.12	76.31	-47.7	-50.5	16.8	0.00e+00	0	43	0	683671552	65	5432
2026-01-03 09:57:08.46	41.26	76.08	-48.9	-52.1	15.3	0.00e+00	0	44	0	685768704	68	5526
2026-01-03 09:57:09.47	39.44	75.83	-47.3	-49.9	17.3	0.00e+00	0	44	0	687865856	66	4813
2026-01-03 09:57:10.47	37.70	75.58	-48.8	-52.0	15.4	0.00e+00	0	44	0	688914432	68	5431
2026-01-03 09:57:11.47	36.03	75.31	-48.9	-52.1	15.3	1.50e-06	0	44	0	691011584	69	5210
2026-01-03 09:57:12.48	34.41	75.03	-46.9	-49.4	17.8	0.00e+00	0	44	0	693108736	65	4780
2026-01-03 09:57:13.48	32.86	74.74	-47.2	-49.9	17.4	0.00e+00	0	44	0	695205888	65	5079
2026-01-03 09:57:14.48	31.38	74.44	-49.8	-53.8	13.5	3.00e-06	0	44	0	697303040	70	5968
2026-01-03 09:57:15.49	29.94	74.13	-49.0	-52.2	15.1	7.00e-07	0	44	0	698351616	70	4979
2026-01-03 09:57:16.49	28.57	73.81	-48.4	-51.3	16.1	0.00e+00	0	44	0	700448768	68	5013
2026-01-03 09:57:17.49	27.26	73.49	-47.2	-49.7	17.3	0.00e+00	0	44	0	702545920	66	4704
2026-01-03 09:57:18.50	25.99	73.15	-46.6	-49.0	18.1	0.00e+00	0	44	0	704643072	64	4829
2026-01-03 09:57:19.50	24.79	72.82	-48.6	-51.6	16.2	0.00e+00	0	44	0	706740224	67	5466
2026-01-03 09:57:20.50	23.63	72.47	-48.8	-51.8	15.6	7.00e-07	0	44	0	707788800	69	5028
2026-01-03 09:57:21.51	22.51	72.12	-48.7	-51.7	15.9	0.00e+00	0	44	0	709885952	69	4946
2026-01-03 09:57:22.51	21.45	71.77	-48.3	-51.2	16.4	0.00e+00	0	44	0	711983104	68	4937
2026-01-03 09:57:23.51	20.43	71.41	-48.8	-52.0	15.7	0.00e+00	0	44	0	714080256	68	5417
2026-01-03 09:57:24.51	19.45	71.05	-49.3	-52.8	14.7	0.00e+00	0	44	0	716177408	69	5652
2026-01-03 09:57:25.52	18.50	70.68	-49.3	-52.8	14.7	6.10e-06	0	44	0	717225984	70	5301
2026-01-03 09:57:26.52	17.60	70.31	-48.5	-51.5	15.8	0.00e+00	0	44	0	719323136	69	4857
2026-01-03 09:57:27.53	16.72	69.93	-47.5	-50.2	16.7	0.00e+00	0	44	0	721420288	67	4674
2026-01-03 09:57:28.53	15.89	69.56	-47.5	-50.2	17.1	0.00e+00	0	44	0	723517440	66	4974
2026-01-03 09:57:29.53	15.09	69.18	-47.9	-50.8	16.4	0.00e+00	0	44	0	725614592	66	5315
2026-01-03 09:57:30.54	14.31	68.79	-47.8	-50.7	16.5	0.00e+00	0	44	0	726663168	67	4940
2026-01-03 09:57:31.54	13.58	68.41	-46.7	-49.2	17.9	0.00e+00	0	43	0	728760320	65	4685
2026-01-03 09:57:32.55	12.86	68.03	-46.4	-48.8	18.3	0.00e+00	0	44	0	730857472	64	4741
2026-01-03 09:57:33.55	12.17	67.64	-47.6	-50.4	16.8	0.00e+00	0	44	0	732954624	65	5380
2026-01-03 09:57:34.55	11.51	67.26	-47.3	-50.0	17.2	0.00e+00	0	44	0	735051776	66	4833
2026-01-03 09:57:35.55	10.88	66.87	-46.2	-48.5	18.6	0.00e+00	0	44	0	736100352	64	4577
2026-01-03 09:57:36.56	10.26	66.48	-45.7	-47.8	19.6	0.00e+00	0	44	0	738197504	62	4743
2026-01-03 09:57:37.56	9.67	66.09	-45.2	-47.4	19.9	0.00e+00	0	44	0	740294656	62	4506
2026-01-03 09:57:38.56	9.10	65.70	-45.1	-47.3	19.9	0.00e+00	0	44	0	742391808	61	4713
2026-01-03 09:57:39.57	8.55	65.31	-45.3	-47.5	19.6	0.00e+00	0	44	0	743440384	61	4865
2026-01-03 09:57:40.57	8.02	64.92	-45.2	-47.4	19.8	0.00e+00	0	44	0	745537536	61	4789
2026-01-03 09:57:41.57	7.51	64.53	-45.3	-47.4	19.7	0.00e+00	0	44	0	747634688	61	4809
2026-01-03 09:57:42.57	7.01	64.15	-46.8	-49.4	17.9	0.00e+00	0	44	0	749731840	64	5050
2026-01-03 09:57:43.57	6.53	63.76	-46.3	-48.6	18.6	0.00e+00	0	44	0	751828992	64	4626
2026-01-03 09:57:44.58	6.07	63.37	-46.3	-48.6	18.6	0.00e+00	0	44	0	752877568	63	4891
2026-01-03 09:57:45.58	5.62	62.98	-48.3	-51.6	15.8	0.00e+00	0	44	0	754974720	67	5470
2026-01-03 09:57:46.58	5.19	62.60	-48.8	-52.3	15.1	0.00e+00	0	44	0	757071872	69	5283
2026-01-03 09:57:47.58	4.77	62.21	-48.3	-51.4	16.0	0.00e+00	0	44	0	759169024	68	5047
2026-01-03 09:57:48.59	4.36	61.82	-49.6	-53.4	14.0	1.50e-06	0	44	0	761266176	69	6058
2026-01-03 09:57:49.59	3.97	61.44	-49.7	-53.4	14.0	1.60e-05	0	44	0	762314752	71	5363
2026-01-03 09:57:50.60	3.58	61.05	-48.4	-51.3	16.1	0.00e+00	0	44	0	764411904	68	5037
2026-01-03 09:57:51.60	3.21	60.67	-47.1	-49.7	17.5	0.00e+00	0	44	0	766509056	65	4978
2026-01-03 09:57:52.60	2.85	60.29	-46.2	-48.6	18.5	0.00e+00	0	44	0	768606208	64	4612
2026-01-03 09:57:53.61	2.50	59.91	-45.2	-47.4	19.7	0.00e+00	0	44	0	770703360	62	4497
2026-01-03 09:57:54.61	2.16	59.54	-44.7	-46.8	20.3	0.00e+00	0	44	0	771751936	61	4472
2026-01-03 09:57:55.61	1.84	59.16	-45.4	-47.5	20.1	0.00e+00	0	43	0	773849088	61	4826
2026-01-03 09:57:56.62	1.51	58.78	-45.3	-47.4	19.9	0.00e+00	0	44	0	775946240	61	4784
2026-01-03 09:57:57.62	1.20	58.41	-45.8	-48.0	19.4	0.00e+00	0	44	0	778043392	62	4831
2026-01-03 09:57:58.62	0.90	58.04	-45.6	-47.8	19.6	0.00e+00	0	44	0	780140544	62	4707
2026-01-03 09:57:59.62	0.61	57.67	-45.8	-48.0	19.4	0.00e+00	0	44	0	781189120	62	4829
2026-01-03 09:58:00.63	0.32	57.30	-45.7	-47.8	19.5	0.00e+00	0	44	0	783286272	62	4750
2026-01-03 09:58:01.63	0.05	56.93	-45.8	-48.0	19.2	0.00e+00	0	44	0	785383424	62	4868
2026-01-03 09:58:02.63	359.78	56.57	-46.2	-48.5	18.8	0.00e+00	0	44	0	787480576	63	4868
2026-01-03 09:58:03.64	359.51	56.20	-47.1	-49.6	17.8	0.00e+00	0	44	0	789577728	64	5207
2026-01-03 09:58:04.64	359.26	55.84	-47.9	-50.8	16.7	0.00e+00	0	44	0	790626304	66	5302
2026-01-03 09:58:05.65	359.00	55.48	-48.5	-51.7	15.8	0.00e+00	0	44	0	792723456	67	5564
2026-01-03 09:58:06.65	358.76	55.12	-48.2	-51.2	16.2	0.00e+00	0	44	0	794820608	67	5262
2026-01-03 09:58:07.65	358.53	54.77	-47.1	-49.6	17.6	0.00e+00	0	44	0	796917760	66	4626
2026-01-03 09:58:08.65	358.29	54.41	-46.9	-49.5	17.8	0.00e+00	0	44	0	799014912	65	4838
2026-01-03 09:58:09.66	358.07	54.06	-47.4	-50.1	17.3	0.00e+00	0	44	0	800063488	65	5201
2026-01-03 09:58:10.66	357.85	53.71	-46.9	-49.5	17.7	0.00e+00	0	44	0	802160640	65	4827
2026-01-03 09:58:11.66	357.63	53.36	-46.3	-48.6	18.6	0.00e+00	0	44	0	804257792	64	4631
2026-01-03 09:58:12.67	357.42	53.02	-46.4	-48.8	18.5	0.00e+00	0	44	0	806354944	64	4715
2026-01-03 09:58:13.67	357.22	52.67	-46.5	-48.9	18.4	0.00e+00	0	44	0	807403520	64	4797
2026-01-03 09:58:14.67	357.02	52.33	-45.9	-48.2	19.0	0.00e+00	0	43	0	809500672	63	4658
2026-01-03 09:58:15.68	356.82	51.99	-46.0	-48.3	18.9	0.00e+00	0	43	0	811597824	62	4998
2026-01-03 09:58:16.68	356.63	51.65	-46.5	-48.9	18.4	0.00e+00	0	44	0	813694976	63	5088
2026-01-03 09:58:17.68	356.45	51.32	-47.3	-49.9	17.5	0.00e+00	0	44	0	815792128	65	5082
2026-01-03 09:58:18.68	356.27	50.98	-47.3	-49.9	17.3	0.00e+00	0	44	0	816840704	66	4802
2026-01-03 09:58:19.69	356.09	50.65	-47.3	-50.0	17.3	0.00e+00	0	44	0	818937856	66	4825
2026-01-03 09:58:20.69	355.91	50.32	-47.9	-50.7	16.5	0.00e+00	0	44	0	821035008	66	5270
2026-01-03 09:58:21.70	355.74	49.99	-48.6	-51.6	16.0	0.00e+00	0	44	0	823132160	67	5469
2026-01-03 09:58:22.70	355.58	49.67	-48.4	-51.4	16.2	0.00e+00	0	44	0	825229312	67	5343
2026-01-03 09:58:23.70	355.41	49.34	-48.4	-51.4	16.2	0.00e+00	0	44	0	826277888	67	5372
2026-01-03 09:58:24.71	355.25	49.02	-48.0	-50.7	16.5	0.00e+00	0	44	0	828375040	67	4973
2026-01-03 09:58:25.71	355.10	48.70	-48.2	-51.1	16.4	0.00e+00	0	44	0	830472192	67	5171
2026-01-03 09:58:26.71	354.94	48.38	-49.7	-53.3	14.5	0.00e+00	0	44	0	832569344	70	5599
2026-01-03 09:58:27.71	354.80	48.07	-50.1	-53.9	13.8	7.00e-07	0	44	0	834666496	70	6033
2026-01-03 09:58:28.72	354.65	47.75	-49.8	-53.4	14.1	9.90e-06	0	44	0	835715072	71	5351
2026-01-03 09:58:29.72	354.50	47.44	-48.8	-51.8	15.8	0.00e+00	0	44	0	837812224	69	5021
2026-01-03 09:58:30.73	354.36	47.13	-48.3	-51.2	16.3	0.00e+00	0	44	0	839909376	68	4976
2026-01-03 09:58:31.73	354.23	46.83	-48.5	-51.5	15.9	0.00e+00	0	43	0	842006528	67	5457
2026-01-03 09:58:32.73	354.09	46.52	-48.6	-51.7	15.9	0.00e+00	0	44	0	844103680	68	5219
2026-01-03 09:58:33.73	353.96	46.22	-47.8	-50.6	16.8	0.00e+00	0	44	0	845152256	67	4909
2026-01-03 09:58:34.73	353.83	45.92	-47.8	-50.6	16.7	0.00e+00	0	43	0	847249408	66	5198
2026-01-03 09:58:35.74	353.70	45.62	-47.0	-49.5	17.7	0.00e+00	0	44	0	849346560	66	4596
2026-01-03 09:58:36.74	353.58	45.32	-46.8	-49.3	17.9	0.00e+00	0	44	0	851443712	65	4738
2026-01-03 09:58:37.74	353.45	45.03	-47.5	-50.1	17.5	0.00e+00	0	44	0	852492288	65	5204
2026-01-03 09:58:38.75	353.33	44.74	-48.4	-51.4	16.1	0.00e+00	0	44	0	854589440	67	5352
2026-01-03 09:58:39.75	353.21	44.45	-49.2	-52.4	15.3	0.00e+00	0	44	0	856686592	69	5380
2026-01-03 09:58:40.75	353.10	44.16	-49.5	-52.9	14.7	7.00e-07	0	43	0	858783744	69	5683
2026-01-03 09:58:41.76	352.98	43.87	-49.5	-53.1	14.5	0.00e+00	0	44	0	860880896	69	5825
2026-01-03 09:58:42.76	352.87	43.59	-50.3	-54.4	13.2	1.52e-05	0	44	0	862978048	71	6030
2026-01-03 09:58:43.76	352.76	43.30	-50.1	-54.3	13.2	5.18e-05	0	44	0	864026624	72	5612
2026-01-03 09:58:44.76	352.66	43.03	-51.8	-57.2	11.0	3.54e-04	0	44	0	866123776	73	7394
2026-01-03 09:58:45.77	352.55	42.74	-51.8	-58.1	9.2	2.74e-02	0	44	0	868220928	74	7791
2026-01-03 09:58:46.77	352.45	42.47	-50.5	-55.0	12.5	1.22e-03	0	44	0	870318080	73	5736
2026-01-03 09:58:47.77	352.35	42.19	-48.7	-51.8	15.8	3.00e-06	0	44	0	871366656	69	4993
2026-01-03 09:58:48.78	352.24	41.92	-47.8	-50.6	16.7	0.00e+00	0	44	0	873463808	67	4901
2026-01-03 09:58:49.78	352.15	41.65	-47.9	-50.7	16.6	0.00e+00	0	44	0	875560960	67	4970
2026-01-03 09:58:50.78	352.05	41.38	-48.4	-51.4	16.0	0.00e+00	0	44	0	877658112	67	5382
2026-01-03 09:58:51.79	351.95	41.11	-48.7	-51.8	15.7	0.00e+00	0	44	0	879755264	69	5014
2026-01-03 09:58:52.79	351.86	40.85	-48.8	-52.1	15.6	0.00e+00	0	44	0	880803840	68	5499
2026-01-03 09:58:53.79	351.77	40.59	-49.6	-53.2	14.7	1.67e-05	0	44	0	882900992	70	5568
2026-01-03 09:58:54.79	351.68	40.32	-49.6	-53.3	14.5	7.00e-07	0	44	0	884998144	70	5629
2026-01-03 09:58:55.79	351.59	40.07	-50.8	-55.5	12.2	9.10e-06	0	44	0	887095296	72	6464
2026-01-03 09:58:56.80	351.50	39.81	-50.9	-55.6	11.9	7.00e-04	0	44	0	889192448	73	6178
2026-01-03 09:58:57.80	351.42	39.55	-50.1	-54.0	13.5	2.77e-04	0	44	0	890241024	72	5406
2026-01-03 09:58:58.80	351.33	39.30	-48.4	-51.4	16.2	7.00e-07	0	44	0	892338176	68	5049
2026-01-03 09:58:59.80	351.25	39.05	-47.2	-49.8	17.5	0.00e+00	0	44	0	894435328	66	4755
2026-01-03 09:59:00.80	351.17	38.80	-47.1	-49.7	18.0	0.00e+00	0	44	0	896532480	65	4948
2026-01-03 09:59:01.80	351.09	38.55	-46.3	-48.7	18.6	0.00e+00	0	44	0	898629632	64	4683
2026-01-03 09:59:02.81	351.01	38.30	-46.8	-49.5	17.9	0.00e+00	0	44	0	899678208	64	5113
2026-01-03 09:59:03.81	350.93	38.05	-47.9	-50.9	16.5	0.00e+00	0	44	0	901775360	66	5374
2026-01-03 09:59:04.81	350.85	37.81	-48.9	-52.3	15.1	0.00e+00	0	44	0	903872512	68	5653
2026-01-03 09:59:05.82	350.78	37.57	-49.4	-53.0	14.6	0.00e+00	0	44	0	905969664	69	5778
2026-01-03 09:59:06.82	350.70	37.33	-49.8	-53.7	13.9	5.30e-06	0	44	0	908066816	70	5860
2026-01-03 09:59:07.82	350.63	37.09	-49.5	-53.2	14.4	0.00e+00	0	44	0	909115392	70	5586
2026-01-03 09:59:08.83	350.56	36.85	-48.9	-52.3	14.8	7.00e-07	0	44	0	911212544	70	5002
2026-01-03 09:59:09.83	350.48	36.62	-48.9	-52.3	15.1	0.00e+00	0	44	0	913309696	69	5329
2026-01-03 09:59:10.83	350.41	36.38	-49.2	-52.8	14.6	0.00e+00	0	44	0	915406848	69	5637
2026-01-03 09:59:11.84	350.35	36.15	-49.2	-52.8	14.7	2.20e-06	0	44	0	916455424	70	5299
2026-01-03 09:59:12.84	350.28	35.92	-49.6	-53.5	13.9	7.00e-07	0	44	0	918552576	70	5747
2026-01-03 09:59:13.84	350.21	35.69	-49.5	-53.3	14.2	2.20e-06	0	44	0	920649728	70	5615
2026-01-03 09:59:14.85	350.14	35.46	-49.4	-52.8	15.1	0.00e+00	0	44	0	922746880	69	5619
2026-01-03 09:59:15.85	350.08	35.24	-48.8	-52.0	15.8	0.00e+00	0	44	0	924844032	69	5104
2026-01-03 09:59:16.86	350.01	35.01	-48.3	-51.2	16.4	0.00e+00	0	43	0	925892608	68	4957
2026-01-03 09:59:17.86	349.95	34.79	-47.6	-50.3	17.1	0.00e+00	0	44	0	927989760	67	4710
2026-01-03 09:59:18.86	349.89	34.57	-47.5	-50.2	17.2	0.00e+00	0	44	0	930086912	66	4961
2026-01-03 09:59:19.86	349.83	34.35	-47.7	-50.5	16.8	0.00e+00	0	44	0	932184064	66	5107
2026-01-03 09:59:20.86	349.77	34.13	-47.7	-50.6	16.8	0.00e+00	0	44	0	934281216	66	5163
2026-01-03 09:59:21.87	349.71	33.91	-47.7	-50.6	16.7	0.00e+00	0	44	0	935329792	66	5207
2026-01-03 09:59:22.87	349.65	33.70	-48.1	-51.1	16.2	0.00e+00	0	44	0	937426944	66	5500
2026-01-03 09:59:23.87	349.59	33.49	-48.9	-52.2	15.3	0.00e+00	0	44	0	939524096	68	5568
2026-01-03 09:59:24.88	349.53	33.27	-49.0	-52.5	15.0	0.00e+00	0	43	0	941621248	69	5406
2026-01-03 09:59:25.88	349.48	33.06	-49.8	-53.8	13.7	7.00e-07	0	44	0	943718400	70	5927
2026-01-03 09:59:26.88	349.42	32.86	-50.4	-54.9	12.5	3.35e-05	0	44	0	944766976	71	6383
2026-01-03 09:59:27.89	349.37	32.65	-50.4	-55.1	12.3	2.28e-04	0	43	0	946864128	72	6160
2026-01-03 09:59:28.89	349.31	32.44	-50.4	-55.0	12.4	2.28e-04	0	44	0	948961280	72	6126
2026-01-03 09:59:29.89	349.26	32.24	-50.3	-55.0	12.4	1.07e-04	0	44	0	951058432	72	6106
2026-01-03 09:59:30.90	349.21	32.03	-50.1	-54.5	12.9	2.74e-05	0	43	0	953155584	71	6115
2026-01-03 09:59:31.90	349.15	31.83	-49.8	-53.8	13.8	1.44e-05	0	43	0	954204160	71	5643
2026-01-03 09:59:32.90	349.10	31.63	-49.7	-53.5	14.2	3.00e-06	0	43	0	956301312	70	5777
2026-01-03 09:59:33.91	349.05	31.43	-49.0	-52.5	15.0	0.00e+00	0	44	0	958398464	70	5117
2026-01-03 09:59:34.91	349.00	31.23	-49.1	-52.5	15.0	0.00e+00	0	44	0	960495616	70	5136
2026-01-03 09:59:35.91	348.95	31.03	-48.9	-52.3	15.1	0.00e+00	0	44	0	962592768	69	5289
2026-01-03 09:59:36.92	348.90	30.84	-48.7	-51.9	15.6	0.00e+00	0	44	0	963641344	69	5052
2026-01-03 09:59:37.92	348.86	30.64	-48.4	-51.6	15.8	0.00e+00	0	44	0	965738496	68	5173
2026-01-03 09:59:38.92	348.81	30.45	-48.0	-51.1	16.1	0.00e+00	0	44	0	967835648	67	5202
2026-01-03 09:59:39.93	348.76	30.26	-47.8	-50.9	16.3	0.00e+00	0	43	0	969932800	67	5050
2026-01-03 09:59:40.93	348.71	30.07	-47.6	-50.5	16.6	0.00e+00	0	44	0	970981376	67	4853
2026-01-03 09:59:41.93	348.67	29.88	-47.6	-50.5	16.6	0.00e+00	0	44	0	973078528	67	4860
2026-01-03 09:59:42.94	348.62	29.69	-47.1	-49.9	17.2	0.00e+00	0	43	0	975175680	66	4770
2026-01-03 09:59:43.94	348.58	29.50	-47.3	-50.1	17.0	0.00e+00	0	44	0	977272832	66	4883
2026-01-03 09:59:44.94	348.54	29.32	-47.1	-49.8	17.3	0.00e+00	0	44	0	979369984	65	5019
2026-01-03 09:59:45.95	348.49	29.13	-47.6	-50.3	17.1	0.00e+00	0	43	0	981467136	65	5305
2026-01-03 09:59:46.95	348.45	28.95	-47.8	-50.6	16.8	0.00e+00	0	44	0	982515712	66	5179
2026-01-03 09:59:47.95	348.41	28.77	-47.9	-50.7	16.5	0.00e+00	0	43	0	984612864	66	5250
2026-01-03 09:59:48.96	348.36	28.58	-47.8	-50.6	16.6	0.00e+00	0	44	0	986710016	66	5211
2026-01-03 09:59:49.96	348.32	28.41	-48.2	-51.3	16.0	7.00e-07	0	43	0	988807168	66	5619
2026-01-03 09:59:50.96	348.28	28.23	-48.5	-51.8	15.5	0.00e+00	0	44	0	989855744	67	5631
2026-01-03 09:59:51.97	348.24	28.05	-48.4	-51.6	15.6	0.00e+00	0	43	0	991952896	67	5491
2026-01-03 09:59:52.97	348.20	27.87	-48.6	-52.0	15.3	0.00e+00	0	44	0	994050048	67	5730
2026-01-03 09:59:53.97	348.16	27.70	-48.4	-51.7	15.5	0.00e+00	0	43	0	996147200	67	5557
2026-01-03 09:59:54.98	348.12	27.52	-48.2	-51.4	15.7	0.00e+00	0	44	0	998244352	67	5352
2026-01-03 09:59:55.98	348.08	27.35	-48.2	-51.3	15.8	0.00e+00	0	43	0	999292928	67	5306
2026-01-03 09:59:56.98	348.05	27.18	-47.7	-50.7	16.4	0.00e+00	0	44	0	1001390080	66	5238
2026-01-03 09:59:57.98	348.01	27.01	-47.3	-50.1	16.9	0.00e+00	0	44	0	1003487232	66	4918
2026-01-03 09:59:58.99	347.97	26.84	-46.8	-49.5	17.5	0.00e+00	0	43	0	1005584384	65	4836
2026-01-03 09:59:59.99	347.94	26.67	-46.5	-49.1	17.9	0.00e+00	0	44	0	1007681536	65	4635
2026-01-03 10:00:00.99	347.90	26.50	-46.1	-48.6	18.3	0.00e+00	0	43	0	1008730112	64	4625
2026-01-03 10:00:02.00	347.86	26.33	-45.8	-48.2	18.8	0.00e+00	0	44	0	1010827264	63	4676
2026-01-03 10:00:03.00	347.83	26.17	-46.0	-48.4	18.6	0.00e+00	0	44	0	1012924416	63	4813
2026-01-03 10:00:04.01	347.79	26.00	-46.2	-48.6	18.7	0.00e+00	0	44	0	1015021568	63	4891
2026-01-03 10:00:05.01	347.76	25.84	-46.2	-48.7	18.5	0.00e+00	0	43	0	1017118720	63	4932
2026-01-03 10:00:06.01	347.72	25.68	-46.7	-49.3	17.9	0.00e+00	0	44	0	1018167296	63	5309
2026-01-03 10:00:07.02	347.69	25.51	-46.8	-49.5	17.6	0.00e+00	0	44	0	1020264448	64	5150
2026-01-03 10:00:08.02	347.66	25.35	-47.5	-50.5	16.6	0.00e+00	0	44	0	1022361600	65	5433
2026-01-03 10:00:09.02	347.62	25.19	-48.2	-51.4	15.8	0.00e+00	0	43	0	1024458752	66	5675
2026-01-03 10:00:10.02	347.59	25.04	-48.8	-52.3	15.1	0.00e+00	0	44	0	1026555904	68	5598
2026-01-03 10:00:11.03	347.56	24.88	-49.1	-52.6	14.8	0.00e+00	0	44	0	1027604480	68	5831
2026-01-03 10:00:12.03	347.53	24.72	-49.4	-53.1	14.2	7.00e-07	0	44	0	1029701632	69	5819
2026-01-03 10:00:13.03	347.49	24.56	-49.1	-52.7	14.6	2.20e-06	0	44	0	1031798784	69	5559
2026-01-03 10:00:14.03	347.46	24.41	-48.8	-52.2	15.1	0.00e+00	0	44	0	1033895936	69	5264
2026-01-03 10:00:15.04	347.43	24.25	-48.5	-51.9	15.4	0.00e+00	0	44	0	1034944512	69	5051
2026-01-03 10:00:16.04	347.40	24.10	-47.6	-50.8	16.3	0.00e+00	0	44	0	1037041664	67	4998
2026-01-03 10:00:17.04	347.37	23.95	-46.9	-50.0	17.0	0.00e+00	0	44	0	1039138816	65	5140
2026-01-03 10:00:18.05	347.34	23.80	-46.6	-49.6	17.4	0.00e+00	0	43	0	1041235968	65	4911
2026-01-03 10:00:19.05	347.31	23.65	-46.6	-49.6	17.7	0.00e+00	0	44	0	1043333120	64	5180
2026-01-03 10:00:20.05	347.28	23.50	-46.4	-49.4	17.7	0.00e+00	0	43	0	1044381696	64	5059
2026-01-03 10:00:21.05	347.25	23.35	-46.3	-49.2	17.9	0.00e+00	0	44	0	1046478848	64	4932
2026-01-03 10:00:22.06	347.22	23.20	-46.2	-49.0	18.0	0.00e+00	0	44	0	1048576000	64	4848
2026-01-03 10:00:23.06	347.20	23.05	-46.0	-48.7	18.2	0.00e+00	0	44	0	1050673152	64	4685
2026-01-03 10:00:24.06	347.17	22.91	-46.2	-48.9	18.1	0.00e+00	0	43	0	1052770304	64	4792
2026-01-03 10:00:25.06	347.14	22.76	-46.0	-48.6	18.3	0.00e+00	0	44	0	1053818880	64	4651
2026-01-03 10:00:26.07	347.11	22.61	-46.3	-48.9	18.1	0.00e+00	0	43	0	1055916032	64	4810
2026-01-03 10:00:27.07	347.09	22.47	-46.3	-48.9	18.1	0.00e+00	0	43	0	1058013184	64	4798
2026-01-03 10:00:28.07	347.06	22.33	-46.3	-48.7	18.3	0.00e+00	0	43	0	1060110336	64	4705
2026-01-03 10:00:29.08	347.03	22.18	-46.3	-48.8	18.2	0.00e+00	0	44	0	1062207488	64	4716
2026-01-03 10:00:30.08	347.01	22.04	-46.3	-48.8	18.0	0.00e+00	0	44	0	1063256064	64	4755
2026-01-03 10:00:31.08	346.98	21.90	-46.2	-48.8	18.2	0.00e+00	0	43	0	1065353216	64	4719
2026-01-03 10:00:32.08	346.95	21.76	-46.2	-48.7	18.2	0.00e+00	0	43	0	1067450368	64	4681
2026-01-03 10:00:33.09	346.93	21.62	-46.2	-48.8	18.1	0.00e+00	0	44	0	1069547520	64	4739
2026-01-03 10:00:34.09	346.90	21.48	-46.2	-48.8	18.1	0.00e+00	0	44	0	1071644672	64	4721
2026-01-03 10:00:35.09	346.88	21.35	-46.2	-48.8	18.1	0.00e+00	0	43	0	1072693248	64	4742
2026-01-03 10:00:36.09	346.85	21.21	-46.6	-49.3	17.6	0.00e+00	0	43	0	1074790400	64	5022
2026-01-03 10:00:37.10	346.83	21.07	-46.7	-49.4	17.5	0.00e+00	0	43	0	1076887552	64	5096
2026-01-03 10:00:38.10	346.80	20.94	-47.2	-49.9	17.4	0.00e+00	0	44	0	1078984704	64	5358
2026-01-03 10:00:39.10	346.78	20.80	-47.0	-49.7	17.4	0.00e+00	0	44	0	1081081856	64	5266
2026-01-03 10:00:40.11	346.76	20.67	-47.0	-49.6	17.5	0.00e+00	0	43	0	1082130432	64	5200
2026-01-03 10:00:41.11	346.73	20.54	-47.1	-49.8	17.3	0.00e+00	0	43	0	1084227584	64	5339
2026-01-03 10:00:42.11	346.71	20.40	-47.2	-49.9	17.2	0.00e+00	0	43	0	1086324736	65	5081
2026-01-03 10:00:43.12	346.69	20.27	-46.9	-49.6	17.5	0.00e+00	0	43	0	1088421888	65	4871
2026-01-03 10:00:44.12	346.66	20.14	-47.2	-50.0	17.0	0.00e+00	0	43	0	1089470464	65	5118
2026-01-03 10:00:45.12	346.64	20.01	-47.2	-50.0	17.1	0.00e+00	0	43	0	1091567616	65	5131
2026-01-03 10:00:46.13	346.62	19.88	-47.2	-49.9	17.1	0.00e+00	0	44	0	1093664768	65	5069
2026-01-03 10:00:47.13	346.60	19.75	-47.2	-49.9	17.1	0.00e+00	0	43	0	1095761920	65	5079
2026-01-03 10:00:48.13	346.57	19.62	-47.2	-50.0	17.0	0.00e+00	0	43	0	1097859072	65	5125
2026-01-03 10:00:49.14	346.55	19.49	-47.3	-50.1	16.9	0.00e+00	0	44	0	1098907648	65	5195
2026-01-03 10:00:50.14	346.53	19.36	-47.3	-50.2	16.8	0.00e+00	0	44	0	1101004800	65	5269
2026-01-03 10:00:51.14	346.51	19.24	-47.4	-50.5	16.5	0.00e+00	0	44	0	1103101952	65	5403
2026-01-03 10:00:52.15	346.49	19.11	-47.5	-50.4	16.6	0.00e+00	0	43	0	1105199104	65	5400
2026-01-03 10:00:53.15	346.47	18.99	-47.6	-50.6	16.3	0.00e+00	0	44	0	1107296256	65	5526
2026-01-03 10:00:54.15	346.45	18.86	-48.2	-51.3	16.1	0.00e+00	0	43	0	1108344832	67	5336
2026-01-03 10:00:55.15	346.43	18.74	-48.3	-51.4	15.8	0.00e+00	0	43	0	1110441984	67	5365
2026-01-03 10:00:56.16	346.41	18.61	-48.6	-51.8	15.5	0.00e+00	0	43	0	1112539136	68	5329
2026-01-03 10:00:57.16	346.39	18.49	-48.7	-51.9	15.5	7.00e-07	0	44	0	1114636288	68	5355
2026-01-03 10:00:58.16	346.37	18.37	-48.8	-52.1	15.2	0.00e+00	0	44	0	1116733440	68	5492
2026-01-03 10:00:59.17	346.35	18.25	-49.0	-52.5	14.8	0.00e+00	0	43	0	1117782016	68	5751
2026-01-03 10:01:00.17	346.33	18.13	-48.9	-52.4	14.8	0.00e+00	0	43	0	1119879168	68	5721
2026-01-03 10:01:01.17	346.31	18.01	-49.1	-52.9	14.4	7.00e-07	0	44	0	1121976320	68	6026
2026-01-03 10:01:02.18	346.29	17.88	-49.0	-52.8	14.4	0.00e+00	0	44	0	1124073472	69	5638
2026-01-03 10:01:03.18	346.27	17.77	-48.8	-52.8	14.2	1.50e-06	0	43	0	1126170624	69	5593
2026-01-03 10:01:04.19	346.25	17.65	-49.0	-53.3	14.0	1.50e-06	0	44	0	1127219200	69	5938
2026-01-03 10:01:05.19	346.23	17.53	-48.7	-53.1	14.1	3.80e-06	0	43	0	1129316352	69	5838
2026-01-03 10:01:06.19	346.21	17.41	-48.5	-53.1	14.2	0.00e+00	0	43	0	1131413504	68	6150
2026-01-03 10:01:07.20	346.20	17.29	-48.5	-53.2	14.1	3.00e-06	0	43	0	1133510656	68	6205
2026-01-03 10:01:08.20	346.18	17.18	-48.3	-52.8	14.4	1.50e-06	0	43	0	1135607808	68	5949
2026-01-03 10:01:09.20	346.16	17.06	-48.0	-52.3	15.0	0.00e+00	0	43	0	1136656384	68	5634
2026-01-03 10:01:10.21	346.14	16.94	-48.1	-52.3	14.9	7.00e-07	0	43	0	1138753536	68	5620
2026-01-03 10:01:11.21	346.12	16.83	-48.0	-52.1	15.1	0.00e+00	0	44	0	1140850688	68	5496
2026-01-03 10:01:12.21	346.11	16.72	-48.2	-52.2	15.0	0.00e+00	0	43	0	1142947840	68	5562
2026-01-03 10:01:13.22	346.09	16.60	-48.2	-51.9	15.3	0.00e+00	0	43	0	1145044992	68	5389
2026-01-03 10:01:14.22	346.07	16.49	-47.8	-51.2	15.6	0.00e+00	0	44	0	1146093568	67	5276
2026-01-03 10:01:15.22	346.06	16.38	-47.6	-50.9	16.0	0.00e+00	0	44	0	1148190720	67	5074
2026-01-03 10:01:16.23	346.04	16.26	-47.8	-51.1	15.8	0.00e+00	0	44	0	1150287872	67	5208
2026-01-03 10:01:17.23	346.02	16.15	-47.6	-50.8	16.2	0.00e+00	0	43	0	1152385024	66	5320
2026-01-03 10:01:18.23	346.01	16.04	-47.6	-50.7	16.2	0.00e+00	0	43	0	1153433600	66	5270
2026-01-03 10:01:19.24	345.99	15.93	-47.6	-50.8	16.1	0.00e+00	0	43	0	1155530752	66	5318
2026-01-03 10:01:20.24	345.97	15.82	-47.2	-50.4	16.5	0.00e+00	0	43	0	1157627904	66	5074
2026-01-03 10:01:21.24	345.96	15.71	-47.4	-50.7	16.2	0.00e+00	0	43	0	1159725056	66	5238
2026-01-03 10:01:22.24	345.94	15.60	-47.5	-50.8	16.6	0.00e+00	0	43	0	1161822208	66	5281
2026-01-03 10:01:23.25	345.93	15.49	-47.3	-50.6	16.6	0.00e+00	0	43	0	1162870784	66	5217
2026-01-03 10:01:24.25	345.91	15.38	-47.4	-50.9	16.3	0.00e+00	0	44	0	1164967936	66	5343
2026-01-03 10:01:25.25	345.89	15.28	-47.2	-50.6	16.5	0.00e+00	0	43	0	1167065088	66	5218
2026-01-03 10:01:26.26	345.88	15.17	-47.3	-50.8	16.2	0.00e+00	0	44	0	1169162240	66	5329
2026-01-03 10:01:27.26	345.86	15.06	-47.3	-50.8	16.3	0.00e+00	0	44	0	1171259392	66	5289
2026-01-03 10:01:28.26	345.85	14.96	-47.1	-50.5	16.4	0.00e+00	0	43	0	1172307968	66	5106
2026-01-03 10:01:29.26	345.83	14.85	-47.4	-50.9	16.0	0.00e+00	0	43	0	1174405120	66	5355
2026-01-03 10:01:30.27	345.82	14.74	-47.3	-50.7	16.2	0.00e+00	0	43	0	1176502272	66	5259
2026-01-03 10:01:31.27	345.80	14.64	-47.4	-50.8	16.1	0.00e+00	0	43	0	1178599424	66	5287
2026-01-03 10:01:32.27	345.79	14.53	-47.5	-51.0	15.9	0.00e+00	0	43	0	1180696576	66	5428
2026-01-03 10:01:33.28	345.78	14.43	-47.7	-51.1	15.9	0.00e+00	0	43	0	1181745152	66	5489
2026-01-03 10:01:34.28	345.76	14.33	-47.7	-51.1	15.9	0.00e+00	0	44	0	1183842304	66	5490
2026-01-03 10:01:35.28	345.75	14.22	-47.7	-51.2	15.8	0.00e+00	0	43	0	1185939456	66	5541
2026-01-03 10:01:36.29	345.73	14.12	-47.7	-51.0	15.9	0.00e+00	0	43	0	1188036608	66	5451
2026-01-03 10:01:37.29	345.72	14.02	-47.6	-50.9	16.0	0.00e+00	0	44	0	1190133760	66	5387
2026-01-03 10:01:38.29	345.71	13.92	-47.6	-51.0	15.9	0.00e+00	0	44	0	1191182336	66	5437
2026-01-03 10:01:39.30	345.69	13.81	-47.6	-51.1	15.8	0.00e+00	0	43	0	1193279488	66	5480
2026-01-03 10:01:40.30	345.68	13.71	-47.5	-51.0	15.9	0.00e+00	0	43	0	1195376640	66	5443
2026-01-03 10:01:41.31	345.67	13.61	-47.6	-51.2	15.7	0.00e+00	0	43	0	1197473792	66	5584
2026-01-03 10:01:42.31	345.65	13.51	-47.2	-50.7	16.2	0.00e+00	0	43	0	1199570944	66	5261
2026-01-03 10:01:43.31	345.64	13.41	-47.3	-50.9	16.0	0.00e+00	0	43	0	1200619520	66	5376
2026-01-03 10:01:44.31	345.63	13.31	-47.1	-50.7	16.0	0.00e+00	0	43	0	1202716672	66	5245
2026-01-03 10:01:45.32	345.61	13.21	-47.1	-50.8	16.0	0.00e+00	0	43	0	1204813824	66	5284
2026-01-03 10:01:46.32	345.60	13.11	-47.2	-50.9	15.8	0.00e+00	0	43	0	1206910976	66	5376
2026-01-03 10:01:47.32	345.59	13.02	-47.0	-50.7	16.0	0.00e+00	0	43	0	1207959552	66	5257
2026-01-03 10:01:48.33	345.57	12.92	-47.3	-51.0	16.0	0.00e+00	0	43	0	1210056704	65	5788
2026-01-03 10:01:49.33	345.56	12.82	-47.3	-50.9	16.0	0.00e+00	0	43	0	1212153856	65	5699
2026-01-03 10:01:50.34	345.55	12.72	-47.3	-51.0	16.0	0.00e+00	0	43	0	1214251008	65	5747
2026-01-03 10:01:51.34	345.54	12.63	-47.2	-50.8	16.1	0.00e+00	0	44	0	1216348160	65	5636
2026-01-03 10:01:52.35	345.53	12.53	-47.5	-51.1	15.8	0.00e+00	0	43	0	1218445312	65	5816
2026-01-03 10:01:53.35	345.51	12.43	-47.3	-50.9	16.0	0.00e+00	0	43	0	1219493888	65	5667
2026-01-03 10:01:54.35	345.50	12.34	-47.4	-50.9	15.9	0.00e+00	0	43	0	1221591040	65	5695
2026-01-03 10:01:55.36	345.49	12.24	-47.5	-51.0	15.9	0.00e+00	0	43	0	1223688192	65	5725
2026-01-03 10:01:56.36	345.48	12.15	-47.5	-50.9	15.9	0.00e+00	0	43	0	1225785344	66	5374
2026-01-03 10:01:57.36	345.47	12.05	-47.7	-51.1	15.7	0.00e+00	0	43	0	1226833920	66	5504
2026-01-03 10:01:58.37	345.45	11.96	-47.5	-50.9	15.9	0.00e+00	0	43	0	1228931072	66	5349
