passes_logs/2026/01/03/T1/T1__20260103_020140_NOAA_20_JPSS-1_rec.log

#Pass ID: 20260103_020140_NOAA 20 (JPSS-1)
#Satellite: NOAA 20 (JPSS-1)
#Configuration: NOAA 20
#almurnet v.1.7.20251203
#Start time: 2026-01-03 02:01:40

#Version: 2.0.20230620
#Station: T1
#Location: 37.570604 lon 55.790049 lat
#TLE: 1 43013U 17073A   26002.21975278  .00000202  00000+0  11669-3 0  9999
#TLE: 2 43013  98.7622 303.2950 0001915  57.9213 302.2149 14.19532512420923

#Time	Az	El	Level	Level2	SNR	BER	BlckErr	Temp	State	Recorded	gain1	gain2
2026-01-03 02:01:40.53	2.63	5.02	-47.8	-64.2	3.8	1.49e+00	0	40	0	0	67	23531
2026-01-03 02:01:41.53	2.52	5.07	-45.0	-64.0	3.8	1.49e+00	0	40	104	0	62	30613
2026-01-03 02:01:42.54	2.41	5.12	-45.1	-64.0	3.8	1.49e+00	0	40	104	0	62	30542
2026-01-03 02:01:43.54	2.30	5.17	-45.0	-64.1	3.8	1.49e+00	0	40	104	0	62	30764
2026-01-03 02:01:44.55	2.19	5.22	-45.0	-64.0	3.8	1.49e+00	0	40	104	0	62	30541
2026-01-03 02:01:45.55	2.08	5.27	-45.0	-64.0	3.8	1.49e+00	0	40	104	0	62	30657
2026-01-03 02:01:46.56	1.97	5.33	-45.0	-64.0	3.8	1.49e+00	0	40	104	0	62	30620
2026-01-03 02:01:47.56	1.86	5.38	-45.0	-64.0	3.8	1.49e+00	0	40	104	0	62	30672
2026-01-03 02:01:48.57	1.75	5.43	-45.0	-64.0	3.8	1.49e+00	0	40	104	0	62	30620
2026-01-03 02:01:49.57	1.64	5.48	-45.0	-64.0	3.8	1.49e+00	0	41	104	0	62	30475
2026-01-03 02:01:50.58	1.53	5.53	-45.0	-64.0	3.8	1.49e+00	0	40	104	0	62	30658
2026-01-03 02:01:51.58	1.42	5.58	-45.0	-64.0	3.8	1.49e+00	0	41	104	0	62	30607
2026-01-03 02:01:52.58	1.31	5.63	-45.0	-64.0	3.8	1.49e+00	0	40	104	0	62	30627
2026-01-03 02:01:53.59	1.19	5.68	-45.0	-64.0	3.8	1.49e+00	0	40	104	0	62	30589
2026-01-03 02:01:54.59	1.08	5.73	-45.0	-64.0	3.8	1.49e+00	0	41	104	0	62	30565
2026-01-03 02:01:55.60	0.97	5.78	-45.0	-64.0	3.8	1.49e+00	0	41	104	0	62	30536
2026-01-03 02:01:56.60	0.85	5.83	-45.0	-64.0	3.8	1.49e+00	0	41	104	0	62	30599
2026-01-03 02:01:57.61	0.74	5.88	-45.1	-64.0	3.8	1.49e+00	0	41	104	0	62	30637
2026-01-03 02:01:58.61	0.63	5.93	-45.1	-64.0	3.8	1.49e+00	0	41	104	0	62	30511
2026-01-03 02:01:59.62	0.51	5.98	-45.1	-64.0	3.8	1.49e+00	0	41	104	0	62	30559
2026-01-03 02:02:00.62	0.39	6.03	-45.0	-64.0	3.8	1.49e+00	0	41	104	0	62	30497
2026-01-03 02:02:01.63	0.28	6.08	-45.0	-64.0	3.8	1.49e+00	0	41	104	0	62	30633
2026-01-03 02:02:02.63	0.16	6.13	-45.1	-64.0	3.8	1.49e+00	0	41	104	0	62	30558
2026-01-03 02:02:03.63	0.05	6.18	-45.1	-64.0	3.8	1.49e+00	0	41	104	0	62	30548
2026-01-03 02:02:04.64	359.93	6.23	-45.1	-64.0	3.8	1.49e+00	0	41	104	0	62	30552
2026-01-03 02:02:05.64	359.81	6.28	-45.1	-64.0	3.8	1.49e+00	0	41	104	0	62	30611
2026-01-03 02:02:06.65	359.69	6.33	-45.1	-64.0	3.8	1.49e+00	0	41	104	0	62	30606
2026-01-03 02:02:07.65	359.58	6.38	-45.1	-64.0	3.8	1.49e+00	0	41	104	0	62	30500
2026-01-03 02:02:08.65	359.46	6.43	-45.1	-64.0	3.8	1.49e+00	0	41	104	0	62	30531
2026-01-03 02:02:09.66	359.34	6.48	-45.1	-64.0	3.8	1.49e+00	0	41	104	0	62	30589
2026-01-03 02:02:10.66	359.22	6.53	-45.1	-64.0	3.8	1.49e+00	0	41	104	0	62	30504
2026-01-03 02:02:11.66	359.10	6.58	-45.1	-64.0	3.8	1.49e+00	0	41	104	0	62	30456
2026-01-03 02:02:12.67	358.98	6.63	-45.1	-64.0	3.8	1.49e+00	0	41	104	0	62	30513
2026-01-03 02:02:13.67	358.86	6.68	-45.1	-64.0	3.8	1.49e+00	0	41	104	0	62	30538
2026-01-03 02:02:14.68	358.74	6.73	-45.1	-64.0	3.8	1.49e+00	0	41	104	0	62	30466
2026-01-03 02:02:15.68	358.62	6.78	-45.1	-64.0	3.8	1.49e+00	0	41	104	0	62	30591
2026-01-03 02:02:16.69	358.49	6.83	-45.1	-64.0	3.8	1.49e+00	0	41	104	0	62	30546
2026-01-03 02:02:17.69	358.37	6.88	-45.1	-64.0	3.8	1.49e+00	0	41	104	0	62	30449
2026-01-03 02:02:18.69	358.25	6.93	-45.2	-64.0	3.8	1.49e+00	0	41	104	0	62	30485
2026-01-03 02:02:19.70	358.12	6.98	-45.1	-64.0	3.8	1.49e+00	0	41	104	0	62	30565
2026-01-03 02:02:20.70	358.00	7.03	-45.1	-64.0	3.8	1.49e+00	0	41	104	0	62	30584
2026-01-03 02:02:21.71	357.88	7.08	-45.1	-64.0	3.8	1.49e+00	0	41	104	0	62	30530
2026-01-03 02:02:22.71	357.75	7.13	-45.1	-64.0	3.8	1.49e+00	0	41	104	0	62	30489
2026-01-03 02:02:23.71	357.63	7.18	-45.1	-64.0	3.8	1.49e+00	0	41	104	0	62	30501
2026-01-03 02:02:24.72	357.50	7.23	-45.1	-64.0	3.8	1.49e+00	0	41	104	0	62	30522
2026-01-03 02:02:25.72	357.38	7.28	-45.1	-64.0	3.8	1.49e+00	0	41	104	0	62	30673
2026-01-03 02:02:26.73	357.25	7.33	-45.1	-64.0	3.8	1.49e+00	0	41	104	0	62	30572
2026-01-03 02:02:27.73	357.12	7.38	-45.1	-64.0	3.8	1.49e+00	0	41	104	0	62	30572
2026-01-03 02:02:28.74	356.99	7.43	-45.1	-64.0	3.8	1.49e+00	0	42	104	0	62	30629
2026-01-03 02:02:29.74	356.87	7.48	-45.0	-64.0	3.8	1.49e+00	0	42	104	0	62	30649
2026-01-03 02:02:30.74	356.74	7.53	-45.1	-64.0	3.8	1.49e+00	0	42	104	0	62	30565
2026-01-03 02:02:31.75	356.61	7.58	-45.1	-64.0	3.8	1.49e+00	0	42	104	0	62	30581
2026-01-03 02:02:32.75	356.48	7.63	-45.1	-64.0	3.8	1.49e+00	0	42	104	0	62	30452
2026-01-03 02:02:33.76	356.35	7.67	-45.1	-63.9	3.8	1.49e+00	0	41	104	0	62	30333
2026-01-03 02:02:34.76	356.22	7.72	-45.1	-63.9	3.8	1.49e+00	0	42	104	0	62	30239
2026-01-03 02:02:35.76	356.09	7.77	-45.1	-63.8	3.8	1.49e+00	0	41	104	0	62	29926
2026-01-03 02:02:36.77	355.96	7.82	-45.1	-63.8	3.8	1.49e+00	0	42	104	0	62	29768
2026-01-03 02:02:37.77	355.83	7.87	-45.1	-63.8	3.8	1.49e+00	0	42	104	0	62	29759
2026-01-03 02:02:38.78	355.70	7.92	-45.1	-63.7	3.8	1.49e+00	0	41	104	0	62	29677
2026-01-03 02:02:39.78	355.56	7.97	-45.1	-63.8	3.8	1.49e+00	0	42	104	0	62	29697
2026-01-03 02:02:40.79	355.43	8.02	-45.1	-63.8	3.8	1.49e+00	0	42	104	0	62	29828
2026-01-03 02:02:41.79	355.30	8.07	-45.1	-63.9	3.8	1.49e+00	0	42	104	0	62	30169
2026-01-03 02:02:42.79	355.17	8.12	-45.1	-63.9	3.8	1.49e+00	0	42	104	0	62	30310
2026-01-03 02:02:43.80	355.03	8.17	-45.2	-63.9	3.8	1.49e+00	0	42	104	0	62	30341
2026-01-03 02:02:44.80	354.90	8.21	-45.2	-63.9	3.8	1.49e+00	0	42	104	0	62	30320
2026-01-03 02:02:45.80	354.76	8.26	-45.2	-63.8	3.8	1.49e+00	0	42	104	0	62	29816
2026-01-03 02:02:46.81	354.63	8.31	-45.2	-63.7	3.8	1.49e+00	0	42	104	0	62	29403
2026-01-03 02:02:47.81	354.49	8.36	-45.2	-63.6	3.8	1.49e+00	0	42	104	0	62	29269
2026-01-03 02:02:48.81	354.35	8.41	-45.2	-63.7	3.8	1.49e+00	0	42	104	0	62	29504
2026-01-03 02:02:49.82	354.22	8.46	-45.2	-63.7	3.8	1.49e+00	0	42	104	0	62	29464
2026-01-03 02:02:50.82	354.08	8.51	-45.2	-63.3	3.8	1.49e+00	0	42	104	0	62	28212
2026-01-03 02:02:51.83	353.94	8.55	-45.1	-62.4	3.8	1.49e+00	0	42	104	0	62	25462
2026-01-03 02:02:52.83	353.80	8.60	-45.1	-61.1	4.1	1.49e+00	0	42	104	0	62	21924
2026-01-03 02:02:53.84	353.66	8.65	-45.1	-59.9	4.4	1.39e+00	0	42	0	0	62	18953
2026-01-03 02:02:54.84	353.53	8.70	-45.0	-58.7	4.8	8.66e-01	0	42	0	2097152	62	16686
2026-01-03 02:02:55.85	353.39	8.75	-44.9	-57.8	5.4	6.17e-01	0	42	0	3145728	61	15897
2026-01-03 02:02:56.85	353.25	8.79	-44.9	-56.9	5.9	4.40e-01	0	42	0	5242880	61	14293
2026-01-03 02:02:57.85	353.11	8.84	-44.7	-55.8	6.9	2.76e-01	0	42	0	7340032	61	12623
2026-01-03 02:02:58.86	352.96	8.89	-44.6	-54.7	7.9	9.09e-02	0	42	0	9437184	61	11037
2026-01-03 02:02:59.86	352.82	8.94	-44.4	-53.4	9.2	3.44e-02	0	42	0	11534336	60	10175
2026-01-03 02:03:00.86	352.68	8.99	-44.2	-52.4	10.3	1.16e-02	0	42	0	12582912	60	9037
2026-01-03 02:03:01.87	352.54	9.03	-44.0	-51.7	11.0	2.40e-03	0	42	0	14680064	60	8324
2026-01-03 02:03:02.87	352.40	9.08	-44.2	-51.3	11.4	1.22e-03	0	42	0	16777216	59	8446
2026-01-03 02:03:03.99	352.24	9.13	-45.3	-53.8	8.9	2.75e-03	0	42	0	18874368	61	9997
2026-01-03 02:03:04.85	352.11	9.17	-44.0	-51.2	11.6	1.20e-02	0	42	0	19922944	60	7862
2026-01-03 02:03:05.99	351.95	9.23	-46.9	-61.9	3.8	3.51e-01	0	42	104	22020096	64	21303
2026-01-03 02:03:06.85	351.82	9.27	-43.3	-48.0	14.7	2.19e-01	0	42	0	22020096	58	6093
2026-01-03 02:03:08.00	351.66	9.32	-43.4	-48.0	14.8	0.00e+00	0	42	0	24117248	58	6089
2026-01-03 02:03:08.86	351.53	9.36	-43.6	-48.2	14.6	0.00e+00	0	42	0	26214400	58	6207
2026-01-03 02:03:10.00	351.37	9.42	-43.6	-48.0	14.7	0.00e+00	0	42	0	28311552	58	6116
2026-01-03 02:03:10.86	351.24	9.46	-43.6	-48.1	14.7	0.00e+00	0	42	0	29360128	58	6146
2026-01-03 02:03:12.00	351.07	9.51	-43.9	-48.3	14.5	0.00e+00	0	42	0	31457280	58	6328
2026-01-03 02:03:12.86	350.95	9.55	-43.9	-48.2	14.6	0.00e+00	0	42	0	33554432	58	6237
2026-01-03 02:03:14.01	350.78	9.60	-44.1	-48.0	14.8	7.00e-07	0	42	0	35651584	58	6126
2026-01-03 02:03:14.87	350.65	9.64	-44.3	-48.0	14.8	0.00e+00	0	42	0	36700160	59	5762
2026-01-03 02:03:16.01	350.48	9.69	-44.2	-47.8	15.0	0.00e+00	0	42	0	39845888	59	5656
2026-01-03 02:03:16.87	350.35	9.73	-44.1	-47.8	15.1	0.00e+00	0	42	0	40894464	59	5593
2026-01-03 02:03:18.02	350.18	9.79	-44.0	-47.6	15.2	0.00e+00	0	42	0	42991616	59	5475
2026-01-03 02:03:18.88	350.05	9.83	-44.0	-47.6	15.1	0.00e+00	0	42	0	45088768	59	5520
2026-01-03 02:03:20.02	349.88	9.88	-43.8	-47.4	15.4	0.00e+00	0	42	0	47185920	59	5383
2026-01-03 02:03:20.88	349.75	9.92	-43.8	-47.4	15.4	0.00e+00	0	42	0	48234496	59	5397
2026-01-03 02:03:22.02	349.58	9.97	-43.5	-47.3	15.5	0.00e+00	0	42	0	50331648	59	5287
2026-01-03 02:03:22.88	349.44	10.01	-43.2	-47.2	15.6	0.00e+00	0	42	0	52428800	58	5572
2026-01-03 02:03:24.03	349.27	10.06	-43.1	-47.2	15.7	0.00e+00	0	42	0	54525952	58	5564
2026-01-03 02:03:24.89	349.14	10.10	-43.0	-47.1	15.7	0.00e+00	0	42	0	55574528	58	5489
2026-01-03 02:03:26.03	348.96	10.15	-43.0	-47.2	15.6	0.00e+00	0	42	0	57671680	57	5898
2026-01-03 02:03:26.89	348.83	10.19	-43.0	-47.3	15.5	0.00e+00	0	42	0	59768832	57	5930
2026-01-03 02:03:28.04	348.65	10.24	-42.8	-47.1	15.7	0.00e+00	0	42	0	61865984	57	5820
2026-01-03 02:03:28.90	348.52	10.28	-42.7	-47.0	15.8	0.00e+00	0	42	0	63963136	57	5746
2026-01-03 02:03:30.04	348.34	10.33	-42.8	-46.8	16.0	0.00e+00	0	42	0	66060288	57	5655
2026-01-03 02:03:30.90	348.21	10.37	-42.7	-46.7	16.1	0.00e+00	0	42	0	67108864	57	5536
2026-01-03 02:03:32.04	348.03	10.42	-42.7	-46.5	16.3	0.00e+00	0	42	0	69206016	57	5448
2026-01-03 02:03:32.90	347.89	10.46	-42.6	-46.4	16.5	0.00e+00	0	42	0	71303168	57	5352
2026-01-03 02:03:34.04	347.71	10.51	-42.6	-46.4	16.4	0.00e+00	0	42	0	73400320	57	5361
2026-01-03 02:03:34.90	347.58	10.55	-42.5	-46.3	16.5	0.00e+00	0	42	0	74448896	57	5338
2026-01-03 02:03:36.05	347.40	10.60	-42.4	-46.4	16.4	0.00e+00	0	42	0	76546048	56	5677
2026-01-03 02:03:36.91	347.26	10.63	-42.4	-46.3	16.5	0.00e+00	0	42	0	78643200	56	5653
2026-01-03 02:03:38.06	347.08	10.68	-42.5	-46.4	16.5	0.00e+00	0	42	0	80740352	56	5672
2026-01-03 02:03:38.92	346.94	10.72	-42.5	-46.4	16.4	0.00e+00	0	42	0	82837504	56	5700
2026-01-03 02:03:40.06	346.76	10.77	-42.4	-46.4	16.5	0.00e+00	0	42	0	84934656	56	5667
2026-01-03 02:03:40.92	346.62	10.81	-42.3	-46.3	16.6	0.00e+00	0	42	0	85983232	56	5611
2026-01-03 02:03:42.07	346.43	10.86	-42.2	-46.3	16.6	0.00e+00	0	42	0	88080384	56	5602
2026-01-03 02:03:42.93	346.29	10.89	-42.1	-46.4	16.5	0.00e+00	0	42	0	90177536	56	5673
2026-01-03 02:03:44.07	346.11	10.94	-42.0	-46.4	16.4	0.00e+00	0	42	0	92274688	56	5689
2026-01-03 02:03:45.11	345.94	10.99	-41.9	-46.3	16.4	0.00e+00	0	42	0	94371840	55	5938
2026-01-03 02:03:46.28	345.75	11.04	-41.7	-46.1	16.6	0.00e+00	0	42	0	96468992	55	5806
2026-01-03 02:03:47.14	345.61	11.07	-41.7	-46.1	16.6	0.00e+00	0	42	0	97517568	55	5804
2026-01-03 02:03:48.50	345.38	11.13	-41.7	-46.1	16.5	0.00e+00	0	42	0	100663296	55	5843
2026-01-03 02:03:49.21	345.27	11.16	-41.9	-46.1	16.6	0.00e+00	0	42	0	101711872	55	5828
2026-01-03 02:03:50.50	345.05	11.21	-42.0	-46.0	16.7	0.00e+00	0	42	0	103809024	55	5749
2026-01-03 02:03:51.22	344.93	11.24	-42.1	-46.0	16.6	0.00e+00	0	42	0	104857600	55	5763
2026-01-03 02:03:52.51	344.72	11.30	-42.3	-45.9	16.7	0.00e+00	0	42	0	108003328	55	5709
2026-01-03 02:03:53.22	344.60	11.33	-42.2	-45.8	16.9	0.00e+00	0	42	0	109051904	55	5621
2026-01-03 02:03:54.51	344.39	11.38	-42.2	-45.7	17.0	0.00e+00	0	42	0	111149056	55	5580
2026-01-03 02:03:55.23	344.27	11.41	-42.3	-45.7	17.0	0.00e+00	0	42	0	113246208	55	5568
2026-01-03 02:03:56.51	344.05	11.46	-42.4	-45.8	16.9	0.00e+00	0	42	0	115343360	55	5600
2026-01-03 02:03:57.23	343.93	11.49	-42.3	-45.7	17.0	0.00e+00	0	42	0	116391936	55	5570
2026-01-03 02:03:58.52	343.71	11.54	-42.4	-45.7	17.0	0.00e+00	0	42	0	119537664	55	5576
2026-01-03 02:03:59.24	343.59	11.57	-42.3	-45.6	17.0	0.00e+00	0	42	0	120586240	55	5506
2026-01-03 02:04:00.53	343.37	11.62	-42.3	-45.5	17.2	0.00e+00	0	42	0	122683392	55	5411
2026-01-03 02:04:01.25	343.25	11.65	-42.3	-45.5	17.3	0.00e+00	0	42	0	123731968	55	5405
2026-01-03 02:04:02.53	343.03	11.70	-42.4	-45.5	17.2	0.00e+00	0	42	0	126877696	55	5412
2026-01-03 02:04:03.25	342.90	11.73	-42.3	-45.3	17.5	0.00e+00	0	42	0	127926272	55	5288
2026-01-03 02:04:04.86	342.63	11.79	-42.3	-45.3	17.4	0.00e+00	0	42	0	131072000	55	5325
2026-01-03 02:04:05.43	342.53	11.82	-42.3	-45.3	17.4	0.00e+00	0	42	0	132120576	55	5336
2026-01-03 02:04:07.02	342.25	11.88	-42.3	-45.4	17.3	0.00e+00	0	42	0	135266304	55	5379
2026-01-03 02:04:07.59	342.15	11.90	-42.3	-45.4	17.2	0.00e+00	0	42	0	136314880	55	5402
2026-01-03 02:04:09.36	341.85	11.97	-42.3	-45.5	17.2	0.00e+00	0	42	0	139460608	55	5424
2026-01-03 02:04:09.94	341.74	11.99	-42.3	-45.5	17.1	0.00e+00	0	42	0	140509184	55	5461
2026-01-03 02:04:11.53	341.47	12.05	-42.4	-45.6	17.1	0.00e+00	0	42	0	143654912	55	5528
2026-01-03 02:04:12.10	341.37	12.07	-42.4	-45.6	17.1	0.00e+00	0	42	0	144703488	55	5491
2026-01-03 02:04:14.02	341.03	12.14	-42.5	-45.7	17.0	0.00e+00	0	42	0	147849216	55	5531
2026-01-03 02:04:14.60	340.92	12.17	-42.5	-45.7	17.1	0.00e+00	0	42	0	148897792	55	5529
2026-01-03 02:04:16.19	340.64	12.22	-42.4	-45.8	16.9	0.00e+00	0	42	0	152043520	55	5593
2026-01-03 02:04:16.76	340.54	12.25	-42.4	-45.8	16.9	0.00e+00	0	42	0	153092096	55	5615
2026-01-03 02:04:18.38	340.25	12.30	-42.3	-45.8	16.9	0.00e+00	0	42	0	156237824	55	5607
2026-01-03 02:04:18.96	340.15	12.33	-42.4	-45.9	16.8	0.00e+00	0	42	0	157286400	55	5685
2026-01-03 02:04:20.55	339.86	12.38	-42.5	-45.9	16.8	0.00e+00	0	42	0	160432128	55	5670
2026-01-03 02:04:21.12	339.76	12.40	-42.5	-45.8	16.9	0.00e+00	0	42	0	161480704	55	5595
2026-01-03 02:04:22.86	339.45	12.47	-42.9	-46.0	16.8	0.00e+00	0	42	0	164626432	56	5437
2026-01-03 02:04:23.43	339.34	12.49	-42.9	-46.1	16.9	0.00e+00	0	42	0	165675008	56	5465
2026-01-03 02:04:25.01	339.06	12.54	-43.0	-46.0	16.9	0.00e+00	0	42	0	168820736	56	5435
2026-01-03 02:04:25.61	338.95	12.56	-43.0	-46.0	16.9	0.00e+00	0	42	0	169869312	56	5410
2026-01-03 02:04:27.52	338.60	12.63	-42.9	-46.1	16.8	0.00e+00	0	42	0	173015040	56	5492
2026-01-03 02:04:28.09	338.50	12.65	-42.9	-46.1	16.8	0.00e+00	0	42	0	174063616	56	5508
2026-01-03 02:04:29.68	338.20	12.70	-42.8	-46.1	16.8	0.00e+00	0	42	0	177209344	56	5498
2026-01-03 02:04:30.26	338.10	12.72	-43.0	-46.2	16.7	0.00e+00	0	42	0	178257920	56	5562
2026-01-03 02:04:31.83	337.81	12.77	-42.9	-45.9	16.9	0.00e+00	0	42	0	181403648	56	5381
2026-01-03 02:04:32.44	337.70	12.79	-42.7	-45.7	17.1	0.00e+00	0	42	0	182452224	56	5261
2026-01-03 02:04:34.02	337.40	12.84	-42.7	-45.8	17.1	0.00e+00	0	42	0	185597952	56	5288
2026-01-03 02:04:34.63	337.29	12.86	-42.6	-45.7	17.1	0.00e+00	0	42	0	186646528	56	5265
2026-01-03 02:04:36.33	336.97	12.92	-42.5	-45.8	17.1	0.00e+00	0	42	0	189792256	56	5295
2026-01-03 02:04:36.91	336.87	12.94	-42.5	-45.9	17.0	0.00e+00	0	42	0	190840832	56	5342
2026-01-03 02:04:38.51	336.57	12.99	-42.4	-45.7	17.1	0.00e+00	0	42	0	193986560	56	5270
2026-01-03 02:04:39.09	336.46	13.01	-42.4	-45.7	17.2	0.00e+00	0	42	0	195035136	56	5225
2026-01-03 02:04:40.69	336.16	13.06	-42.6	-45.6	17.2	0.00e+00	0	42	0	198180864	56	5218
2026-01-03 02:04:41.26	336.05	13.07	-42.6	-45.6	17.2	0.00e+00	0	42	0	199229440	56	5207
2026-01-03 02:04:43.10	335.70	13.13	-42.6	-45.4	17.5	0.00e+00	0	42	0	202375168	56	5075
2026-01-03 02:04:44.11	335.51	13.16	-42.7	-45.5	17.4	0.00e+00	0	42	0	204472320	56	5110
2026-01-03 02:04:45.12	335.32	13.19	-42.7	-45.4	17.5	0.00e+00	0	42	0	206569472	56	5065
2026-01-03 02:04:46.12	335.13	13.22	-42.7	-45.5	17.4	0.00e+00	0	42	0	208666624	56	5118
2026-01-03 02:04:47.17	334.93	13.25	-42.8	-45.6	17.3	0.00e+00	0	42	0	210763776	56	5195
2026-01-03 02:04:48.08	334.76	13.28	-42.7	-45.6	17.4	0.00e+00	0	42	0	211812352	56	5185
2026-01-03 02:04:49.08	334.56	13.31	-42.6	-45.5	17.4	0.00e+00	0	42	0	213909504	56	5118
2026-01-03 02:04:50.08	334.37	13.33	-42.6	-45.4	17.5	0.00e+00	0	42	0	216006656	56	5063
2026-01-03 02:04:51.08	334.18	13.36	-42.6	-45.3	17.6	0.00e+00	0	42	0	218103808	56	5035
2026-01-03 02:04:52.09	333.99	13.39	-42.5	-45.2	17.7	0.00e+00	0	42	0	219152384	56	4956
2026-01-03 02:04:53.09	333.79	13.42	-42.5	-45.1	17.8	0.00e+00	0	42	0	221249536	56	4921
2026-01-03 02:04:54.09	333.60	13.45	-42.6	-45.2	17.7	0.00e+00	0	42	0	223346688	56	4959
2026-01-03 02:04:55.09	333.41	13.47	-42.5	-45.2	17.7	0.00e+00	0	42	0	225443840	56	4934
2026-01-03 02:04:56.10	333.21	13.50	-42.5	-45.1	17.8	0.00e+00	0	42	0	227540992	56	4892
2026-01-03 02:04:57.55	332.93	13.54	-42.5	-45.1	17.8	0.00e+00	0	42	0	229638144	56	4902
2026-01-03 02:04:58.26	332.79	13.56	-42.5	-45.1	17.8	0.00e+00	0	42	0	230686720	56	4902
2026-01-03 02:04:59.55	332.54	13.59	-42.5	-45.2	17.7	0.00e+00	0	42	0	233832448	56	4948
2026-01-03 02:05:00.27	332.40	13.61	-42.5	-45.2	17.7	0.00e+00	0	42	0	234881024	56	4977
2026-01-03 02:05:01.56	332.15	13.64	-42.6	-45.3	17.6	0.00e+00	0	42	0	236978176	56	5026
2026-01-03 02:05:02.27	332.01	13.66	-42.6	-45.3	17.6	0.00e+00	0	42	0	239075328	56	5004
2026-01-03 02:05:03.56	331.75	13.69	-42.4	-45.1	17.8	0.00e+00	0	42	0	241172480	56	4904
2026-01-03 02:05:04.28	331.61	13.71	-42.4	-45.1	17.8	0.00e+00	0	42	0	242221056	56	4897
2026-01-03 02:05:05.57	331.36	13.74	-42.3	-45.0	17.9	0.00e+00	0	42	0	244318208	56	4866
2026-01-03 02:05:06.29	331.22	13.75	-42.2	-45.0	17.9	0.00e+00	0	42	0	246415360	56	4819
2026-01-03 02:05:07.57	330.96	13.78	-42.2	-45.0	17.9	0.00e+00	0	42	0	248512512	56	4821
2026-01-03 02:05:08.29	330.82	13.80	-42.3	-45.1	17.8	0.00e+00	0	42	0	249561088	56	4873
2026-01-03 02:05:09.69	330.54	13.83	-42.4	-45.2	17.7	0.00e+00	0	42	0	252706816	56	4949
2026-01-03 02:05:10.68	330.35	13.85	-42.5	-45.3	17.6	0.00e+00	0	42	0	254803968	56	5010
2026-01-03 02:05:12.00	330.08	13.88	-42.7	-45.5	17.4	0.00e+00	0	42	0	256901120	56	5115
2026-01-03 02:05:12.72	329.94	13.90	-42.7	-45.5	17.4	0.00e+00	0	42	0	257949696	56	5128
2026-01-03 02:05:14.00	329.68	13.93	-42.7	-45.5	17.4	0.00e+00	0	42	0	261095424	56	5126
2026-01-03 02:05:14.72	329.54	13.94	-42.8	-45.6	17.4	0.00e+00	0	42	0	262144000	56	5161
2026-01-03 02:05:16.01	329.28	13.97	-42.8	-45.6	17.2	0.00e+00	0	42	0	264241152	56	5182
2026-01-03 02:05:16.72	329.14	13.98	-42.8	-45.6	17.3	0.00e+00	0	42	0	265289728	56	5172
2026-01-03 02:05:18.01	328.88	14.01	-42.9	-45.7	17.2	0.00e+00	0	42	0	268435456	56	5242
2026-01-03 02:05:18.73	328.74	14.02	-43.0	-45.7	17.2	0.00e+00	0	42	0	269484032	56	5249
2026-01-03 02:05:20.13	328.45	14.05	-43.1	-45.8	17.1	0.00e+00	0	42	0	271581184	56	5325
2026-01-03 02:05:20.84	328.31	14.06	-43.2	-46.0	17.0	0.00e+00	0	42	0	273678336	56	5413
2026-01-03 02:05:22.14	328.05	14.09	-43.1	-46.0	16.9	0.00e+00	0	42	0	275775488	56	5408
2026-01-03 02:05:22.85	327.90	14.10	-43.1	-46.0	17.0	0.00e+00	0	42	0	276824064	57	5107
2026-01-03 02:05:24.27	327.62	14.12	-43.1	-46.0	16.9	0.00e+00	0	42	0	279969792	57	5151
2026-01-03 02:05:24.99	327.47	14.14	-43.1	-46.1	16.8	0.00e+00	0	42	0	281018368	57	5179
2026-01-03 02:05:26.28	327.21	14.16	-43.0	-46.1	16.8	0.00e+00	0	42	0	283115520	57	5166
2026-01-03 02:05:26.99	327.07	14.17	-42.9	-46.0	16.9	0.00e+00	0	42	0	285212672	57	5136
2026-01-03 02:05:28.28	326.80	14.19	-42.9	-46.1	16.8	0.00e+00	0	42	0	287309824	57	5169
2026-01-03 02:05:29.00	326.66	14.20	-42.9	-46.1	16.9	0.00e+00	0	42	0	288358400	57	5161
2026-01-03 02:05:30.28	326.40	14.22	-42.9	-46.0	16.9	0.00e+00	0	42	0	291504128	57	5154
2026-01-03 02:05:31.00	326.25	14.23	-42.9	-46.1	16.8	0.00e+00	0	42	0	292552704	57	5194
2026-01-03 02:05:32.29	325.98	14.25	-43.0	-46.2	16.7	0.00e+00	0	42	0	294649856	57	5260
2026-01-03 02:05:33.01	325.84	14.26	-43.0	-46.2	16.7	0.00e+00	0	42	0	296747008	57	5276
2026-01-03 02:05:34.30	325.57	14.28	-42.9	-46.1	16.8	0.00e+00	0	42	0	298844160	57	5173
2026-01-03 02:05:35.01	325.43	14.29	-42.7	-45.8	17.1	0.00e+00	0	42	0	299892736	57	5024
2026-01-03 02:05:36.30	325.16	14.31	-42.5	-45.6	17.3	0.00e+00	0	42	0	301989888	57	4885
2026-01-03 02:05:37.02	325.02	14.32	-42.5	-45.6	17.3	0.00e+00	0	42	0	304087040	57	4891
2026-01-03 02:05:38.31	324.75	14.34	-42.5	-45.6	17.4	0.00e+00	0	42	0	306184192	57	4872
2026-01-03 02:05:39.03	324.60	14.34	-42.5	-45.4	17.5	0.00e+00	0	42	0	307232768	56	5099
2026-01-03 02:05:40.32	324.34	14.36	-42.5	-45.5	17.5	0.00e+00	0	42	0	310378496	56	5104
2026-01-03 02:05:41.03	324.19	14.37	-42.5	-45.4	17.5	0.00e+00	0	42	0	311427072	56	5100
2026-01-03 02:05:42.32	323.92	14.38	-42.5	-45.3	17.6	0.00e+00	0	42	0	313524224	56	5022
2026-01-03 02:05:43.04	323.78	14.39	-42.6	-45.4	17.6	0.00e+00	0	42	0	315621376	56	5043
2026-01-03 02:05:44.33	323.51	14.41	-42.8	-45.5	17.4	0.00e+00	0	42	0	317718528	56	5153
2026-01-03 02:05:45.05	323.36	14.41	-42.8	-45.5	17.5	0.00e+00	0	42	0	318767104	56	5110
2026-01-03 02:05:46.33	323.10	14.43	-42.9	-45.5	17.4	0.00e+00	0	42	0	320864256	56	5132
2026-01-03 02:05:47.07	322.94	14.43	-42.8	-45.5	17.5	0.00e+00	0	42	0	322961408	56	5106
2026-01-03 02:05:48.71	322.60	14.45	-42.8	-45.5	17.4	0.00e+00	0	42	0	326107136	56	5139
2026-01-03 02:05:49.28	322.49	14.45	-42.7	-45.5	17.4	0.00e+00	0	42	0	327155712	56	5140
2026-01-03 02:05:51.10	322.11	14.47	-42.7	-45.6	17.3	0.00e+00	0	42	0	330301440	56	5214
2026-01-03 02:05:51.67	321.99	14.47	-42.6	-45.6	17.3	0.00e+00	0	42	0	331350016	56	5205
2026-01-03 02:05:53.25	321.66	14.48	-42.6	-45.6	17.3	0.00e+00	0	42	0	334495744	56	5205
2026-01-03 02:05:53.83	321.54	14.49	-42.6	-45.6	17.4	0.00e+00	0	42	0	335544320	56	5172
2026-01-03 02:05:55.42	321.21	14.50	-42.6	-45.4	17.6	0.00e+00	0	42	0	338690048	56	5063
2026-01-03 02:05:55.99	321.09	14.50	-42.7	-45.5	17.5	0.00e+00	0	42	0	339738624	56	5104
2026-01-03 02:05:57.58	320.76	14.51	-42.7	-45.4	17.5	0.00e+00	0	42	0	341835776	56	5098
2026-01-03 02:05:58.16	320.64	14.51	-42.7	-45.4	17.5	0.00e+00	0	42	0	343932928	56	5087
2026-01-03 02:05:59.96	320.27	14.52	-42.8	-45.6	17.4	0.00e+00	0	42	0	347078656	56	5187
2026-01-03 02:06:00.53	320.15	14.52	-42.8	-45.6	17.3	0.00e+00	0	42	0	348127232	56	5197
2026-01-03 02:06:02.12	319.82	14.53	-42.8	-45.7	17.3	0.00e+00	0	42	0	351272960	56	5233
2026-01-03 02:06:02.69	319.70	14.53	-42.8	-45.7	17.2	0.00e+00	0	42	0	352321536	56	5259
2026-01-03 02:06:04.30	319.36	14.54	-42.7	-45.6	17.3	0.00e+00	0	42	0	355467264	56	5176
2026-01-03 02:06:04.87	319.24	14.54	-42.7	-45.6	17.3	0.00e+00	0	42	0	355467264	56	5177
2026-01-03 02:06:06.45	318.91	14.54	-42.6	-45.5	17.5	0.00e+00	0	42	0	358612992	56	5107
2026-01-03 02:06:07.05	318.79	14.55	-42.6	-45.5	17.4	0.00e+00	0	42	0	359661568	56	5109
2026-01-03 02:06:08.63	318.46	14.55	-42.7	-45.4	17.5	0.00e+00	0	42	0	362807296	56	5091
2026-01-03 02:06:09.23	318.33	14.55	-42.8	-45.6	17.4	0.00e+00	0	42	0	363855872	56	5167
2026-01-03 02:06:10.87	317.99	14.55	-42.9	-45.6	17.3	0.00e+00	0	42	0	367001600	56	5185
2026-01-03 02:06:11.44	317.87	14.55	-42.8	-45.4	17.5	0.00e+00	0	42	0	368050176	56	5092
2026-01-03 02:06:13.03	317.54	14.55	-42.8	-45.4	17.5	0.00e+00	0	42	0	371195904	56	5088
2026-01-03 02:06:13.61	317.42	14.55	-42.8	-45.5	17.4	0.00e+00	0	42	0	372244480	56	5150
2026-01-03 02:06:15.56	317.01	14.55	-42.7	-45.4	17.5	0.00e+00	0	42	0	376438784	56	5089
2026-01-03 02:06:16.14	316.89	14.55	-42.7	-45.5	17.4	0.00e+00	0	42	0	377487360	56	5108
2026-01-03 02:06:17.73	316.56	14.54	-42.7	-45.6	17.4	0.00e+00	0	42	0	379584512	56	5165
2026-01-03 02:06:18.32	316.44	14.54	-42.7	-45.6	17.4	0.00e+00	0	42	0	381681664	56	5173
2026-01-03 02:06:19.89	316.11	14.54	-42.8	-45.6	17.3	0.00e+00	0	42	0	383778816	56	5207
2026-01-03 02:06:20.48	315.99	14.54	-42.9	-45.7	17.2	0.00e+00	0	42	0	384827392	56	5251
2026-01-03 02:06:22.05	315.66	14.53	-42.8	-45.6	17.3	0.00e+00	0	42	0	387973120	56	5162
2026-01-03 02:06:22.65	315.53	14.53	-42.9	-45.6	17.3	0.00e+00	0	42	0	389021696	56	5181
2026-01-03 02:06:24.29	315.19	14.52	-42.9	-45.6	17.3	0.00e+00	0	42	0	392167424	56	5188
2026-01-03 02:06:24.87	315.07	14.52	-42.9	-45.6	17.4	0.00e+00	0	42	0	393216000	56	5180
2026-01-03 02:06:26.44	314.74	14.51	-42.8	-45.5	17.5	0.00e+00	0	42	0	396361728	56	5128
2026-01-03 02:06:27.06	314.61	14.51	-42.8	-45.4	17.5	0.00e+00	0	42	0	397410304	56	5085
2026-01-03 02:06:28.96	314.22	14.50	-42.7	-45.4	17.5	0.00e+00	0	42	0	401604608	56	5091
2026-01-03 02:06:29.53	314.10	14.49	-42.7	-45.4	17.4	0.00e+00	0	42	0	402653184	56	5088
2026-01-03 02:06:31.12	313.77	14.48	-42.8	-45.6	17.3	0.00e+00	0	42	0	404750336	56	5180
2026-01-03 02:06:31.69	313.65	14.48	-42.7	-45.6	17.3	0.00e+00	0	42	0	405798912	56	5201
2026-01-03 02:06:33.28	313.32	14.46	-42.9	-45.8	17.1	0.00e+00	0	42	0	408944640	56	5329
2026-01-03 02:06:33.85	313.20	14.46	-42.9	-45.9	17.1	0.00e+00	0	42	0	409993216	56	5375
2026-01-03 02:06:35.44	312.87	14.45	-43.0	-46.0	16.9	0.00e+00	0	42	0	413138944	56	5436
2026-01-03 02:06:36.03	312.75	14.44	-43.1	-46.2	16.8	0.00e+00	0	42	0	414187520	56	5546
2026-01-03 02:06:37.61	312.42	14.43	-43.1	-46.1	16.8	0.00e+00	0	42	0	417333248	56	5488
2026-01-03 02:06:38.39	312.26	14.42	-43.2	-46.2	16.7	0.00e+00	0	42	0	418381824	57	5261
2026-01-03 02:06:39.67	312.00	14.41	-43.2	-46.1	16.8	0.00e+00	0	42	0	421527552	57	5199
2026-01-03 02:06:40.57	311.81	14.40	-43.2	-46.2	16.7	0.00e+00	0	42	0	422576128	57	5247
2026-01-03 02:06:41.71	311.58	14.38	-43.2	-46.1	16.7	0.00e+00	0	42	0	424673280	57	5198
2026-01-03 02:06:42.57	311.40	14.37	-43.2	-46.0	16.9	0.00e+00	0	42	0	426770432	57	5157
2026-01-03 02:06:43.72	311.16	14.36	-43.2	-46.0	16.9	0.00e+00	0	42	0	428867584	57	5132
2026-01-03 02:06:44.85	310.93	14.35	-43.2	-46.0	16.8	0.00e+00	0	42	0	430964736	57	5159
2026-01-03 02:06:45.71	310.75	14.34	-43.2	-46.0	16.9	0.00e+00	0	42	0	433061888	57	5157
2026-01-03 02:06:46.85	310.52	14.32	-43.2	-46.0	16.9	0.00e+00	0	42	0	435159040	57	5102
2026-01-03 02:06:47.71	310.34	14.31	-43.3	-46.1	16.8	0.00e+00	0	42	0	436207616	57	5194
2026-01-03 02:06:48.86	310.10	14.30	-43.3	-46.1	16.8	0.00e+00	0	42	0	438304768	57	5213
2026-01-03 02:06:49.72	309.93	14.28	-43.3	-46.3	16.7	0.00e+00	0	42	0	440401920	57	5292
2026-01-03 02:06:50.86	309.69	14.27	-43.4	-46.4	16.5	0.00e+00	0	42	0	442499072	57	5401
2026-01-03 02:06:51.72	309.52	14.25	-43.4	-46.4	16.5	0.00e+00	0	42	0	443547648	57	5348
2026-01-03 02:06:52.87	309.28	14.24	-43.4	-46.4	16.5	0.00e+00	0	42	0	445644800	57	5369
2026-01-03 02:06:53.73	309.11	14.22	-43.5	-46.5	16.5	0.00e+00	0	42	0	447741952	57	5412
2026-01-03 02:06:54.96	308.86	14.21	-43.2	-46.2	16.7	0.00e+00	0	42	0	449839104	57	5237
2026-01-03 02:06:55.82	308.68	14.19	-43.2	-46.1	16.8	0.00e+00	0	42	0	451936256	57	5176
2026-01-03 02:06:57.02	308.44	14.17	-43.2	-46.0	16.9	0.00e+00	0	42	0	454033408	57	5139
2026-01-03 02:06:57.88	308.26	14.16	-43.2	-46.0	16.9	0.00e+00	0	42	0	455081984	57	5128
2026-01-03 02:06:59.03	308.03	14.14	-43.2	-46.0	16.9	0.00e+00	0	42	0	457179136	57	5114
2026-01-03 02:06:59.89	307.85	14.12	-43.2	-46.0	16.9	0.00e+00	0	42	0	459276288	57	5134
2026-01-03 02:07:01.16	307.60	14.10	-43.2	-46.0	16.9	0.00e+00	0	42	0	461373440	57	5125
2026-01-03 02:07:01.88	307.45	14.09	-43.2	-46.0	16.9	0.00e+00	0	42	0	462422016	57	5128
2026-01-03 02:07:03.17	307.19	14.06	-43.2	-46.0	16.9	0.00e+00	0	42	0	465567744	57	5141
2026-01-03 02:07:03.88	307.05	14.05	-43.2	-46.0	16.9	0.00e+00	0	42	0	466616320	57	5157
2026-01-03 02:07:05.17	306.79	14.03	-43.2	-46.0	16.9	0.00e+00	0	42	0	468713472	57	5141
2026-01-03 02:07:05.89	306.64	14.01	-43.3	-46.0	16.9	0.00e+00	0	42	0	470810624	57	5154
2026-01-03 02:07:07.18	306.38	13.99	-43.2	-45.9	17.0	0.00e+00	0	42	0	472907776	57	5092
2026-01-03 02:07:07.89	306.24	13.97	-43.1	-45.9	17.0	0.00e+00	0	42	0	473956352	57	5050
2026-01-03 02:07:09.18	305.98	13.95	-43.1	-45.9	17.1	0.00e+00	0	42	0	476053504	57	5044
2026-01-03 02:07:09.90	305.84	13.93	-43.2	-45.9	17.0	0.00e+00	0	42	0	478150656	57	5075
2026-01-03 02:07:11.19	305.58	13.90	-43.1	-45.9	17.0	0.00e+00	0	42	0	480247808	57	5070
2026-01-03 02:07:11.90	305.44	13.89	-43.2	-46.0	16.9	0.00e+00	0	42	0	481296384	57	5101
2026-01-03 02:07:13.27	305.16	13.86	-43.3	-46.1	16.8	0.00e+00	0	42	0	484442112	57	5202
2026-01-03 02:07:13.99	305.02	13.84	-43.3	-46.1	16.8	0.00e+00	0	42	0	485490688	57	5194
2026-01-03 02:07:15.28	304.76	13.81	-43.3	-46.2	16.7	0.00e+00	0	42	0	487587840	57	5241
2026-01-03 02:07:15.99	304.62	13.80	-43.3	-46.2	16.7	0.00e+00	0	42	0	489684992	57	5237
2026-01-03 02:07:17.29	304.36	13.77	-43.2	-46.1	16.8	0.00e+00	0	42	0	491782144	57	5181
2026-01-03 02:07:18.00	304.22	13.75	-43.2	-46.1	16.8	0.00e+00	0	42	0	492830720	57	5170
2026-01-03 02:07:19.29	303.97	13.72	-43.1	-45.9	17.0	0.00e+00	0	42	0	495976448	57	5082
2026-01-03 02:07:20.00	303.83	13.70	-43.1	-45.9	16.9	0.00e+00	0	42	0	497025024	57	5081
2026-01-03 02:07:21.29	303.57	13.67	-43.2	-46.0	16.9	0.00e+00	0	42	0	499122176	57	5125
2026-01-03 02:07:22.01	303.43	13.65	-43.1	-46.0	16.9	0.00e+00	0	42	0	500170752	57	5122
2026-01-03 02:07:23.30	303.18	13.62	-43.2	-46.1	16.8	0.00e+00	0	42	0	503316480	57	5171
2026-01-03 02:07:24.02	303.04	13.60	-43.2	-46.1	16.8	0.00e+00	0	42	0	504365056	57	5192
2026-01-03 02:07:25.30	302.79	13.57	-43.4	-46.2	16.6	0.00e+00	0	42	0	506462208	57	5274
2026-01-03 02:07:26.02	302.65	13.55	-43.4	-46.3	16.6	0.00e+00	0	42	0	508559360	57	5284
2026-01-03 02:07:27.31	302.40	13.52	-43.6	-46.5	16.4	0.00e+00	0	42	0	510656512	57	5418
2026-01-03 02:07:28.02	302.26	13.50	-43.5	-46.4	16.4	0.00e+00	0	42	0	511705088	57	5376
2026-01-03 02:07:29.32	302.00	13.46	-43.6	-46.5	16.4	0.00e+00	0	42	0	513802240	57	5424
2026-01-03 02:07:30.03	301.87	13.44	-43.7	-46.6	16.3	0.00e+00	0	42	0	515899392	57	5492
2026-01-03 02:07:31.32	301.62	13.41	-43.6	-46.5	16.4	0.00e+00	0	42	0	517996544	58	5113
2026-01-03 02:07:32.04	301.48	13.39	-43.6	-46.4	16.4	0.00e+00	0	42	0	519045120	58	5099
2026-01-03 02:07:33.32	301.23	13.35	-43.5	-46.4	16.5	0.00e+00	0	42	0	522190848	58	5063
2026-01-03 02:07:34.04	301.09	13.33	-43.6	-46.5	16.4	0.00e+00	0	42	0	523239424	58	5115
2026-01-03 02:07:35.33	300.85	13.30	-43.6	-46.5	16.4	0.00e+00	0	42	0	525336576	58	5121
2026-01-03 02:07:36.19	300.68	13.27	-43.5	-46.3	16.6	0.00e+00	0	42	0	527433728	58	5014
2026-01-03 02:07:37.65	300.40	13.23	-43.4	-46.3	16.6	0.00e+00	0	42	0	529530880	58	4988
2026-01-03 02:07:38.37	300.26	13.21	-43.4	-46.3	16.6	0.00e+00	0	42	0	531628032	58	4992
2026-01-03 02:07:39.65	300.02	13.17	-43.4	-46.2	16.6	0.00e+00	0	42	0	533725184	58	4982
2026-01-03 02:07:40.37	299.88	13.15	-43.4	-46.3	16.6	0.00e+00	0	42	0	534773760	58	4986
2026-01-03 02:07:41.66	299.64	13.11	-43.5	-46.4	16.5	0.00e+00	0	42	0	537919488	58	5044
2026-01-03 02:07:42.38	299.50	13.09	-43.5	-46.4	16.4	0.00e+00	0	42	0	538968064	58	5089
2026-01-03 02:07:43.66	299.26	13.05	-43.7	-46.6	16.3	0.00e+00	0	42	0	541065216	58	5213
2026-01-03 02:07:44.38	299.12	13.02	-43.7	-46.6	16.3	0.00e+00	0	42	0	542113792	58	5202
2026-01-03 02:07:45.67	298.88	12.98	-43.8	-46.8	16.1	0.00e+00	0	42	0	545259520	58	5312
2026-01-03 02:07:46.38	298.75	12.96	-43.8	-46.8	16.1	0.00e+00	0	42	0	546308096	58	5329
2026-01-03 02:07:47.68	298.51	12.92	-43.8	-46.7	16.2	0.00e+00	0	42	0	548405248	58	5260
2026-01-03 02:07:48.39	298.37	12.90	-43.7	-46.7	16.2	0.00e+00	0	42	0	550502400	58	5229
2026-01-03 02:07:49.77	298.12	12.85	-43.6	-46.5	16.4	0.00e+00	0	42	0	552599552	58	5109
2026-01-03 02:07:50.49	297.98	12.83	-43.5	-46.4	16.5	0.00e+00	0	42	0	553648128	58	5077
2026-01-03 02:07:51.86	297.73	12.78	-43.3	-46.1	16.8	0.00e+00	0	42	0	556793856	58	4911
2026-01-03 02:07:52.57	297.60	12.76	-43.2	-46.0	16.9	0.00e+00	0	42	0	557842432	58	4851
2026-01-03 02:07:53.86	297.36	12.72	-43.2	-46.0	16.9	0.00e+00	0	42	0	559939584	58	4821
2026-01-03 02:07:54.58	297.23	12.69	-43.1	-45.9	17.0	0.00e+00	0	42	0	562036736	58	4771
2026-01-03 02:07:55.87	296.99	12.65	-43.1	-45.8	17.0	0.00e+00	0	42	0	564133888	58	4755
2026-01-03 02:07:56.58	296.86	12.62	-43.1	-45.9	17.0	0.00e+00	0	42	0	565182464	58	4760
2026-01-03 02:07:57.87	296.62	12.58	-43.3	-46.1	16.8	0.00e+00	0	42	0	568328192	58	4897
2026-01-03 02:07:58.59	296.49	12.56	-43.4	-46.2	16.7	0.00e+00	0	42	0	569376768	58	4929
2026-01-03 02:07:59.87	296.26	12.51	-43.4	-46.3	16.6	0.00e+00	0	42	0	571473920	58	4995
2026-01-03 02:08:00.59	296.13	12.49	-43.4	-46.3	16.6	0.00e+00	0	42	0	572522496	58	4998
2026-01-03 02:08:01.88	295.89	12.44	-43.3	-46.2	16.7	0.00e+00	0	42	0	575668224	58	4933
2026-01-03 02:08:02.60	295.76	12.41	-43.2	-46.0	16.8	0.00e+00	0	42	0	576716800	58	4860
2026-01-03 02:08:03.88	295.53	12.37	-43.2	-46.0	16.8	0.00e+00	0	42	0	578813952	58	4854
2026-01-03 02:08:04.60	295.40	12.34	-43.3	-46.1	16.8	0.00e+00	0	42	0	580911104	58	4890
2026-01-03 02:08:05.89	295.17	12.30	-43.3	-46.0	16.8	0.00e+00	0	42	0	583008256	58	4870
2026-01-03 02:08:06.60	295.04	12.27	-43.2	-45.9	16.9	0.00e+00	0	42	0	584056832	58	4799
2026-01-03 02:08:07.89	294.81	12.22	-43.1	-45.8	17.1	0.00e+00	0	42	0	587202560	58	4749
2026-01-03 02:08:08.61	294.68	12.20	-43.2	-46.0	16.9	0.00e+00	0	42	0	588251136	58	4837
2026-01-03 02:08:10.08	294.42	12.14	-43.2	-46.0	16.9	0.00e+00	0	42	0	590348288	58	4828
2026-01-03 02:08:10.79	294.30	12.11	-43.2	-46.0	16.9	0.00e+00	0	42	0	592445440	58	4821
2026-01-03 02:08:12.17	294.05	12.06	-43.2	-45.9	16.9	0.00e+00	0	42	0	594542592	58	4814
2026-01-03 02:08:12.88	293.93	12.04	-43.3	-46.1	16.8	0.00e+00	0	42	0	595591168	58	4875
2026-01-03 02:08:14.23	293.69	11.98	-43.4	-46.2	16.6	0.00e+00	0	42	0	598736896	58	4960
2026-01-03 02:08:14.95	293.57	11.96	-43.4	-46.2	16.6	0.00e+00	0	42	0	599785472	58	4969
2026-01-03 02:08:16.24	293.34	11.91	-43.3	-46.2	16.7	0.00e+00	0	42	0	601882624	58	4940
2026-01-03 02:08:16.96	293.21	11.88	-43.2	-46.0	16.9	0.00e+00	0	42	0	603979776	58	4839
2026-01-03 02:08:18.25	292.99	11.83	-43.2	-46.0	16.9	0.00e+00	0	42	0	606076928	58	4833
2026-01-03 02:08:18.96	292.87	11.80	-43.2	-46.0	16.9	0.00e+00	0	42	0	607125504	58	4817
2026-01-03 02:08:20.25	292.64	11.75	-43.1	-45.8	17.0	0.00e+00	0	42	0	610271232	58	4740
2026-01-03 02:08:20.97	292.52	11.72	-43.1	-45.8	17.1	0.00e+00	0	42	0	611319808	58	4717
2026-01-03 02:08:22.25	292.30	11.67	-43.1	-45.7	17.1	0.00e+00	0	42	0	613416960	58	4696
2026-01-03 02:08:23.05	292.16	11.64	-43.0	-45.6	17.2	0.00e+00	0	42	0	615514112	58	4650
2026-01-03 02:08:24.19	291.97	11.59	-42.9	-45.6	17.3	0.00e+00	0	42	0	617611264	57	4871
2026-01-03 02:08:25.33	291.77	11.55	-43.0	-45.6	17.2	0.00e+00	0	42	0	619708416	57	4918
2026-01-03 02:08:26.36	291.60	11.51	-43.1	-45.8	17.1	0.00e+00	0	42	0	621805568	57	4989
2026-01-03 02:08:27.36	291.43	11.47	-43.1	-45.8	17.0	0.00e+00	0	42	0	622854144	57	5022
2026-01-03 02:08:28.36	291.26	11.43	-43.2	-45.9	16.9	0.00e+00	0	42	0	624951296	57	5099
2026-01-03 02:08:29.37	291.09	11.38	-43.3	-46.1	16.7	0.00e+00	0	42	0	627048448	57	5206
2026-01-03 02:08:30.37	290.92	11.34	-43.5	-46.3	16.5	0.00e+00	0	42	0	629145600	57	5312
2026-01-03 02:08:31.37	290.75	11.30	-43.5	-46.4	16.4	0.00e+00	0	42	0	630194176	57	5380
2026-01-03 02:08:32.37	290.59	11.26	-43.7	-46.6	16.2	0.00e+00	0	42	0	632291328	57	5504
2026-01-03 02:08:33.38	290.42	11.22	-43.7	-46.6	16.2	0.00e+00	0	42	0	634388480	58	5214
2026-01-03 02:08:34.38	290.25	11.18	-43.7	-46.7	16.2	0.00e+00	0	42	0	636485632	58	5233
2026-01-03 02:08:35.38	290.09	11.14	-43.7	-46.6	16.2	0.00e+00	0	42	0	638582784	58	5206
2026-01-03 02:08:36.39	289.92	11.09	-43.8	-46.7	16.1	0.00e+00	0	42	0	639631360	58	5255
2026-01-03 02:08:37.39	289.76	11.05	-43.7	-46.6	16.2	0.00e+00	0	42	0	641728512	58	5217
2026-01-03 02:08:38.39	289.59	11.01	-43.7	-46.6	16.2	0.00e+00	0	42	0	643825664	58	5207
2026-01-03 02:08:39.39	289.43	10.97	-43.8	-46.8	16.1	0.00e+00	0	42	0	645922816	58	5310
2026-01-03 02:08:40.47	289.25	10.92	-43.8	-46.8	16.0	0.00e+00	0	42	0	648019968	58	5327
2026-01-03 02:08:41.33	289.11	10.88	-43.9	-46.9	15.9	0.00e+00	0	42	0	649068544	58	5374
2026-01-03 02:08:42.48	288.92	10.83	-44.0	-47.1	15.7	0.00e+00	0	42	0	651165696	58	5525
2026-01-03 02:08:43.34	288.78	10.80	-44.1	-47.3	15.6	0.00e+00	0	42	0	653262848	58	5596
2026-01-03 02:08:44.48	288.60	10.75	-44.2	-47.4	15.4	0.00e+00	0	42	0	655360000	59	5381
2026-01-03 02:08:45.34	288.46	10.71	-44.3	-47.5	15.3	7.00e-07	0	42	0	656408576	59	5436
2026-01-03 02:08:46.49	288.28	10.66	-44.3	-47.5	15.3	0.00e+00	0	42	0	659554304	59	5456
2026-01-03 02:08:47.35	288.14	10.62	-44.4	-47.7	15.2	0.00e+00	0	42	0	660602880	59	5535
2026-01-03 02:08:48.50	287.96	10.57	-44.5	-47.8	15.0	7.00e-07	0	42	0	662700032	59	5638
2026-01-03 02:08:49.36	287.82	10.53	-44.5	-47.9	15.0	0.00e+00	0	42	0	664797184	59	5694
2026-01-03 02:08:50.60	287.62	10.48	-44.5	-47.9	15.0	7.00e-07	0	42	0	666894336	59	5658
2026-01-03 02:08:51.45	287.49	10.44	-44.4	-47.8	15.1	7.00e-07	0	42	0	667942912	59	5599
2026-01-03 02:08:52.59	287.31	10.39	-44.4	-47.7	15.1	0.00e+00	0	41	0	670040064	59	5560
2026-01-03 02:08:53.45	287.18	10.35	-44.5	-47.9	14.9	0.00e+00	0	42	0	672137216	59	5676
2026-01-03 02:08:54.60	287.00	10.30	-44.5	-47.9	15.0	0.00e+00	0	42	0	674234368	59	5659
2026-01-03 02:08:55.45	286.86	10.26	-44.6	-48.0	14.8	7.00e-07	0	42	0	676331520	59	5764
2026-01-03 02:08:56.60	286.68	10.21	-44.6	-48.0	14.8	0.00e+00	0	42	0	678428672	59	5787
2026-01-03 02:08:57.46	286.55	10.17	-44.7	-48.2	14.6	0.00e+00	0	42	0	679477248	60	5574
2026-01-03 02:08:58.60	286.37	10.12	-44.7	-48.3	14.6	7.00e-07	0	42	0	681574400	60	5610
2026-01-03 02:08:59.46	286.24	10.08	-44.8	-48.4	14.5	0.00e+00	0	42	0	683671552	60	5695
2026-01-03 02:09:00.61	286.07	10.03	-44.8	-48.4	14.5	0.00e+00	0	42	0	685768704	60	5668
2026-01-03 02:09:01.47	285.93	9.99	-44.8	-48.4	14.5	0.00e+00	0	42	0	686817280	60	5669
2026-01-03 02:09:02.61	285.76	9.94	-44.8	-48.4	14.4	0.00e+00	0	42	0	688914432	60	5712
2026-01-03 02:09:03.80	285.58	9.88	-44.8	-48.4	14.4	1.50e-06	0	42	0	691011584	60	5711
2026-01-03 02:09:04.83	285.42	9.84	-44.9	-48.5	14.4	7.00e-07	0	42	0	693108736	60	5754
2026-01-03 02:09:05.99	285.25	9.78	-45.0	-48.6	14.2	1.50e-06	0	42	0	695205888	60	5854
2026-01-03 02:09:06.88	285.11	9.74	-45.0	-48.7	14.1	1.50e-06	0	42	0	697303040	60	5896
2026-01-03 02:09:08.02	284.94	9.69	-45.1	-48.9	13.9	2.20e-06	0	42	0	699400192	60	6020
2026-01-03 02:09:08.88	284.81	9.65	-45.1	-48.8	14.0	1.50e-06	0	42	0	701497344	60	5986
2026-01-03 02:09:10.03	284.64	9.60	-45.1	-48.9	13.9	7.00e-07	0	41	0	703594496	60	6047
2026-01-03 02:09:10.89	284.51	9.56	-45.1	-49.0	13.9	4.50e-06	0	42	0	704643072	60	6077
2026-01-03 02:09:12.04	284.34	9.50	-45.1	-49.0	13.8	8.30e-06	0	42	0	706740224	60	6086
2026-01-03 02:09:12.89	284.22	9.46	-45.2	-49.1	13.7	5.30e-06	0	42	0	708837376	61	5812
2026-01-03 02:09:14.04	284.05	9.41	-45.2	-49.0	13.8	3.80e-06	0	42	0	710934528	61	5753
2026-01-03 02:09:14.90	283.92	9.37	-45.1	-49.0	13.9	4.50e-06	0	42	0	711983104	61	5737
2026-01-03 02:09:16.04	283.76	9.32	-45.2	-49.0	13.7	2.20e-06	0	42	0	714080256	61	5784
2026-01-03 02:09:16.90	283.63	9.28	-45.3	-49.2	13.7	5.30e-06	0	42	0	716177408	61	5862
2026-01-03 02:09:18.05	283.46	9.22	-45.3	-49.1	13.7	6.80e-06	0	42	0	718274560	61	5845
2026-01-03 02:09:18.91	283.34	9.18	-45.3	-49.2	13.6	7.60e-06	0	42	0	719323136	61	5860
2026-01-03 02:09:20.06	283.17	9.13	-45.3	-49.3	13.5	9.10e-06	0	42	0	722468864	61	5929
2026-01-03 02:09:20.92	283.05	9.09	-45.2	-49.1	13.7	3.00e-06	0	42	0	723517440	61	5821
2026-01-03 02:09:22.06	282.89	9.03	-45.2	-49.0	13.8	4.50e-06	0	42	0	725614592	61	5779
2026-01-03 02:09:23.10	282.74	8.98	-48.7	-63.4	3.8	8.36e-01	0	42	104	726663168	67	21336
2026-01-03 02:09:24.10	282.60	8.94	-49.0	-64.3	3.8	1.49e+00	0	42	104	726663168	68	22335
2026-01-03 02:09:25.10	282.45	8.89	-49.1	-64.4	3.8	1.49e+00	0	42	104	726663168	68	22579
2026-01-03 02:09:26.11	282.31	8.84	-49.1	-64.5	3.8	1.49e+00	0	42	104	726663168	69	21513
2026-01-03 02:09:27.11	282.17	8.79	-49.1	-64.5	3.8	1.49e+00	0	42	104	726663168	69	21614
2026-01-03 02:09:28.11	282.03	8.74	-49.4	-64.5	3.8	1.49e+00	0	42	104	726663168	69	21744
2026-01-03 02:09:29.12	281.89	8.70	-49.4	-64.5	3.8	1.49e+00	0	42	104	726663168	69	21718
2026-01-03 02:09:30.12	281.75	8.65	-49.1	-64.6	3.8	1.49e+00	0	42	104	726663168	69	21925
2026-01-03 02:09:31.54	281.55	8.58	-49.4	-64.6	3.8	1.49e+00	0	42	104	726663168	69	21877
2026-01-03 02:09:32.29	281.45	8.54	-49.4	-64.6	3.8	1.49e+00	0	42	104	726663168	69	21924
2026-01-03 02:09:33.58	281.27	8.48	-49.4	-64.6	3.8	1.49e+00	0	42	104	726663168	69	21922
2026-01-03 02:09:34.30	281.17	8.45	-49.4	-64.6	3.8	1.49e+00	0	42	104	726663168	69	21954
2026-01-03 02:09:35.59	280.99	8.38	-49.4	-64.6	3.8	1.49e+00	0	42	104	726663168	69	21910
2026-01-03 02:09:36.31	280.90	8.35	-49.4	-64.6	3.8	1.49e+00	0	42	104	726663168	69	21842
2026-01-03 02:09:37.60	280.72	8.29	-49.4	-64.6	3.8	1.49e+00	0	42	104	726663168	69	21906
2026-01-03 02:09:38.31	280.62	8.25	-49.4	-64.6	3.8	1.49e+00	0	42	104	726663168	69	21947
2026-01-03 02:09:39.62	280.45	8.19	-49.4	-64.6	3.8	1.49e+00	0	42	104	726663168	69	21904
2026-01-03 02:09:40.34	280.35	8.15	-49.3	-64.6	3.8	1.49e+00	0	42	104	726663168	69	21839
2026-01-03 02:09:41.70	280.17	8.09	-49.3	-64.6	3.8	1.49e+00	0	42	104	726663168	69	21892
2026-01-03 02:09:42.41	280.07	8.05	-49.3	-64.6	3.8	1.49e+00	0	42	104	726663168	69	21882
2026-01-03 02:09:43.77	279.89	7.99	-49.2	-64.5	3.8	1.49e+00	0	42	104	726663168	69	21741
2026-01-03 02:09:44.48	279.80	7.95	-49.1	-64.5	3.8	1.49e+00	0	42	104	726663168	69	21744
2026-01-03 02:09:45.84	279.62	7.88	-49.1	-64.6	3.8	1.49e+00	0	42	104	726663168	69	21769
2026-01-03 02:09:46.56	279.52	7.85	-49.1	-64.5	3.8	1.49e+00	0	42	104	726663168	69	21702
2026-01-03 02:09:47.85	279.35	7.79	-49.1	-64.5	3.8	1.49e+00	0	42	104	726663168	69	21656
2026-01-03 02:09:48.57	279.26	7.75	-49.1	-64.5	3.8	1.49e+00	0	42	104	726663168	69	21667
2026-01-03 02:09:49.86	279.09	7.69	-49.1	-64.5	3.8	1.49e+00	0	42	104	726663168	69	21721
2026-01-03 02:09:50.58	279.00	7.65	-49.1	-64.5	3.8	1.49e+00	0	42	104	726663168	69	21641
2026-01-03 02:09:51.87	278.83	7.59	-49.1	-64.5	3.8	1.49e+00	0	42	104	726663168	69	21617
2026-01-03 02:09:52.58	278.74	7.55	-49.1	-64.5	3.8	1.49e+00	0	42	104	726663168	69	21689
2026-01-03 02:09:53.88	278.57	7.49	-49.1	-64.5	3.8	1.49e+00	0	42	104	726663168	69	21629
2026-01-03 02:09:54.59	278.48	7.45	-49.1	-64.5	3.8	1.49e+00	0	42	104	726663168	69	21640
2026-01-03 02:09:55.88	278.31	7.39	-49.1	-64.5	3.8	1.49e+00	0	42	104	726663168	69	21620
2026-01-03 02:09:56.60	278.22	7.35	-49.1	-64.5	3.8	1.49e+00	0	42	104	726663168	69	21671
2026-01-03 02:09:57.89	278.06	7.29	-49.1	-64.5	3.8	1.49e+00	0	42	104	726663168	69	21697
2026-01-03 02:09:58.61	277.97	7.25	-49.1	-64.5	3.8	1.49e+00	0	42	104	726663168	69	21613
2026-01-03 02:09:59.90	277.80	7.19	-49.1	-64.5	3.8	1.49e+00	0	42	104	726663168	69	21649
2026-01-03 02:10:00.62	277.71	7.15	-49.1	-64.5	3.8	1.49e+00	0	42	104	726663168	69	21689
2026-01-03 02:10:01.91	277.55	7.09	-49.1	-64.5	3.8	1.49e+00	0	42	104	726663168	69	21602
2026-01-03 02:10:02.63	277.46	7.06	-49.1	-64.5	3.8	1.49e+00	0	42	104	726663168	69	21678
2026-01-03 02:10:03.92	277.30	6.99	-49.1	-64.5	3.8	1.49e+00	0	42	104	726663168	69	21693
2026-01-03 02:10:04.63	277.21	6.96	-49.1	-64.5	3.8	1.49e+00	0	42	104	726663168	69	21667
2026-01-03 02:10:05.93	277.05	6.89	-49.1	-64.5	3.8	1.49e+00	0	42	104	726663168	69	21623
2026-01-03 02:10:06.64	276.97	6.86	-49.1	-64.5	3.8	1.49e+00	0	42	104	726663168	69	21574
2026-01-03 02:10:07.94	276.81	6.79	-49.1	-64.5	3.8	1.49e+00	0	42	104	726663168	69	21618
2026-01-03 02:10:08.65	276.72	6.76	-49.1	-64.5	3.8	1.49e+00	0	42	104	726663168	69	21527
2026-01-03 02:10:09.94	276.56	6.69	-49.1	-64.5	3.8	1.49e+00	0	42	104	726663168	69	21618
2026-01-03 02:10:10.66	276.48	6.66	-49.1	-64.5	3.8	1.49e+00	0	42	104	726663168	69	21661
2026-01-03 02:10:11.95	276.32	6.59	-49.1	-64.5	3.8	1.49e+00	0	42	104	726663168	69	21610
2026-01-03 02:10:12.67	276.23	6.56	-49.1	-64.5	3.8	1.49e+00	0	42	104	726663168	69	21572
2026-01-03 02:10:13.96	276.08	6.49	-49.1	-64.5	3.8	1.49e+00	0	42	104	726663168	69	21559
2026-01-03 02:10:14.68	275.99	6.45	-49.1	-64.5	3.8	1.49e+00	0	42	104	726663168	69	21595
2026-01-03 02:10:15.97	275.84	6.39	-49.1	-64.5	3.8	1.49e+00	0	42	104	726663168	69	21599
2026-01-03 02:10:16.68	275.75	6.35	-49.1	-64.5	3.8	1.49e+00	0	42	104	726663168	69	21602
2026-01-03 02:10:17.98	275.60	6.29	-49.1	-64.5	3.8	1.49e+00	0	42	104	726663168	69	21684
2026-01-03 02:10:18.69	275.52	6.25	-49.1	-64.5	3.8	1.49e+00	0	42	104	726663168	69	21563
2026-01-03 02:10:19.98	275.36	6.19	-49.1	-64.5	3.8	1.49e+00	0	42	104	726663168	69	21645
2026-01-03 02:10:20.70	275.28	6.15	-49.1	-64.5	3.8	1.49e+00	0	42	104	726663168	69	21581
2026-01-03 02:10:21.99	275.13	6.09	-49.1	-64.5	3.8	1.49e+00	0	42	104	726663168	69	21624
2026-01-03 02:10:22.71	275.05	6.05	-49.1	-64.5	3.8	1.49e+00	0	42	104	726663168	69	21625
2026-01-03 02:10:24.00	274.90	5.99	-49.1	-64.5	3.8	1.49e+00	0	42	104	726663168	69	21519
2026-01-03 02:10:24.72	274.81	5.95	-49.1	-64.5	3.8	1.49e+00	0	42	104	726663168	69	21534
2026-01-03 02:10:26.01	274.66	5.89	-49.1	-64.5	3.8	1.49e+00	0	42	104	726663168	69	21641
2026-01-03 02:10:26.73	274.58	5.85	-49.1	-64.5	3.8	1.49e+00	0	42	104	726663168	69	21590
2026-01-03 02:10:28.02	274.43	5.79	-49.1	-64.5	3.8	1.49e+00	0	42	104	726663168	69	21555
2026-01-03 02:10:28.73	274.35	5.75	-49.1	-64.5	3.8	1.49e+00	0	41	104	726663168	69	21553
2026-01-03 02:10:30.03	274.21	5.69	-49.1	-64.5	3.8	1.49e+00	0	42	104	726663168	69	21596
2026-01-03 02:10:30.74	274.13	5.65	-49.1	-64.5	3.8	1.49e+00	0	42	104	726663168	69	21556
2026-01-03 02:10:32.03	273.98	5.59	-49.1	-64.5	3.8	1.49e+00	0	42	104	726663168	69	21509
2026-01-03 02:10:32.75	273.90	5.55	-49.1	-64.5	3.8	1.49e+00	0	41	104	726663168	69	21534
2026-01-03 02:10:34.04	273.75	5.48	-49.1	-64.5	3.8	1.49e+00	0	42	104	726663168	69	21518
2026-01-03 02:10:34.76	273.67	5.45	-49.1	-64.5	3.8	1.49e+00	0	42	104	726663168	69	21600
2026-01-03 02:10:36.05	273.53	5.38	-49.1	-64.5	3.8	1.49e+00	0	42	104	726663168	69	21680
2026-01-03 02:10:36.77	273.45	5.35	-49.1	-64.5	3.8	1.49e+00	0	42	104	726663168	69	21508
2026-01-03 02:10:38.06	273.31	5.28	-49.1	-64.5	3.8	1.49e+00	0	41	104	726663168	69	21604
2026-01-03 02:10:38.77	273.23	5.25	-49.1	-64.4	3.8	1.49e+00	0	42	104	726663168	69	21485
2026-01-03 02:10:40.07	273.09	5.18	-49.1	-64.5	3.8	1.49e+00	0	42	104	726663168	69	21576
2026-01-03 02:10:40.80	273.01	5.15	-49.1	-64.5	3.8	1.49e+00	0	42	104	726663168	69	21579
2026-01-03 02:10:42.09	272.87	5.08	-49.1	-64.5	3.8	1.49e+00	0	42	104	726663168	69	21590
2026-01-03 02:10:42.81	272.79	5.04	-49.1	-64.5	3.8	1.49e+00	0	42	104	726663168	69	21507
2026-01-03 02:10:44.10	272.65	4.98	-49.1	-64.4	3.8	1.49e+00	0	42	104	726663168	69	21495

#Closed at: 2026-01-03 02:10:44
#Recorded file [726 MB]: D:/Data/31040_260103_050140.dat