passes_logs/2026/01/03/T1/T1__20260103_234105_SUOMI_NPP_rec.log

#Pass ID: 20260103_234105_SUOMI NPP
#Satellite: SUOMI NPP
#Configuration: NPP
#almurnet v.1.7.20251203
#Start time: 2026-01-03 23:41:07

#Version: 2.0.20230620
#Station: T1
#Location: 37.570604 lon 55.790049 lat
#TLE: 1 37849U 11061A   26001.07732418  .00000182  00000+0  10735-3 0  9990
#TLE: 2 37849  98.7795 303.2470 0002580  87.2016 272.9455 14.19520779734739

#Time	Az	El	Level	Level2	SNR	BER	BlckErr	Temp	State	Recorded	gain1	gain2
2026-01-03 23:41:07.96	16.91	5.15	-52.9	-68.5	3.8	1.49e+00	0	39	0	0	76	22985
2026-01-03 23:41:08.96	16.92	5.22	-53.0	-68.6	3.8	1.49e+00	0	39	104	0	76	23310
2026-01-03 23:41:09.96	16.93	5.29	-53.0	-68.6	3.8	1.49e+00	0	40	104	0	76	23299
2026-01-03 23:41:10.97	16.94	5.36	-53.0	-68.6	3.8	1.49e+00	0	40	104	0	76	23264
2026-01-03 23:41:11.97	16.95	5.43	-53.0	-68.6	3.8	1.49e+00	0	40	104	0	76	23115
2026-01-03 23:41:12.97	16.96	5.51	-53.0	-68.5	3.8	1.49e+00	0	40	104	0	76	23019
2026-01-03 23:41:13.98	16.96	5.58	-53.0	-68.5	3.8	1.49e+00	0	40	104	0	76	22957
2026-01-03 23:41:14.98	16.97	5.65	-52.9	-68.4	3.8	1.49e+00	0	40	104	0	76	22653
2026-01-03 23:41:15.99	16.98	5.73	-52.9	-68.3	3.8	1.49e+00	0	40	104	0	76	22506
2026-01-03 23:41:16.99	16.99	5.80	-52.8	-68.2	3.8	1.49e+00	0	40	104	0	76	22260
2026-01-03 23:41:18.00	17.00	5.87	-52.8	-68.2	3.8	1.49e+00	0	40	104	0	76	22204
2026-01-03 23:41:19.00	17.01	5.95	-52.8	-68.2	3.8	1.49e+00	0	40	104	0	76	22253
2026-01-03 23:41:20.01	17.01	6.02	-52.9	-68.4	3.8	1.49e+00	0	40	104	0	76	22545
2026-01-03 23:41:21.01	17.02	6.09	-52.9	-68.3	3.8	1.49e+00	0	40	104	0	76	22463
2026-01-03 23:41:22.01	17.03	6.17	-52.9	-68.4	3.8	1.49e+00	0	40	104	0	76	22658
2026-01-03 23:41:23.02	17.04	6.24	-53.0	-68.5	3.8	1.49e+00	0	40	104	0	76	22886
2026-01-03 23:41:24.02	17.05	6.32	-53.0	-68.5	3.8	1.49e+00	0	40	104	0	76	23038
2026-01-03 23:41:25.03	17.06	6.39	-53.1	-68.7	3.8	1.49e+00	0	40	104	0	76	23367
2026-01-03 23:41:26.03	17.06	6.47	-53.1	-68.6	3.8	1.49e+00	0	40	104	0	76	23294
2026-01-03 23:41:27.04	17.07	6.54	-53.0	-68.5	3.8	1.49e+00	0	40	104	0	76	23006
2026-01-03 23:41:28.04	17.08	6.62	-53.0	-68.4	3.8	1.49e+00	0	40	104	0	76	22761
2026-01-03 23:41:29.05	17.09	6.70	-52.9	-68.2	3.8	1.49e+00	0	40	104	0	76	22059
2026-01-03 23:41:30.05	17.10	6.77	-52.8	-68.0	3.8	1.49e+00	0	40	104	0	76	21517
2026-01-03 23:41:31.05	17.11	6.85	-52.9	-67.9	3.8	1.49e+00	0	40	104	0	76	21452
2026-01-03 23:41:32.06	17.12	6.93	-52.9	-67.6	3.8	1.49e+00	0	40	104	0	76	20712
2026-01-03 23:41:33.06	17.12	7.00	-52.9	-67.4	3.8	1.49e+00	0	41	104	0	76	20297
2026-01-03 23:41:34.07	17.13	7.08	-53.0	-67.3	3.8	1.49e+00	0	40	104	0	76	20022
2026-01-03 23:41:35.07	17.14	7.16	-53.0	-67.2	3.8	1.49e+00	0	41	104	0	76	19680
2026-01-03 23:41:36.07	17.15	7.23	-53.0	-66.9	3.8	1.49e+00	0	40	104	0	76	19133
2026-01-03 23:41:37.08	17.16	7.31	-52.9	-66.8	3.8	1.49e+00	0	41	104	0	76	18812
2026-01-03 23:41:38.08	17.17	7.39	-52.9	-66.6	3.8	1.49e+00	0	41	104	0	76	18383
2026-01-03 23:41:39.09	17.18	7.47	-52.8	-66.3	3.8	1.49e+00	0	40	104	0	76	17810
2026-01-03 23:41:40.09	17.19	7.55	-52.8	-66.3	3.8	1.48e+00	0	41	104	0	76	17724
2026-01-03 23:41:41.10	17.19	7.63	-52.8	-66.3	3.8	1.49e+00	0	41	104	0	76	17717
2026-01-03 23:41:42.10	17.20	7.71	-52.8	-66.1	3.9	1.48e+00	0	41	104	0	76	17367
2026-01-03 23:41:43.11	17.21	7.79	-52.8	-65.9	4.0	1.48e+00	0	41	104	0	76	17044
2026-01-03 23:41:44.11	17.22	7.86	-52.9	-66.0	3.9	1.47e+00	0	41	104	0	76	17247
2026-01-03 23:41:45.11	17.23	7.94	-52.8	-65.6	4.1	1.46e+00	0	41	0	0	76	16494
2026-01-03 23:41:46.12	17.24	8.02	-52.8	-65.5	4.1	1.45e+00	0	41	0	0	76	16219
2026-01-03 23:41:47.12	17.25	8.10	-52.7	-65.2	4.1	1.43e+00	0	41	0	0	76	15648
2026-01-03 23:41:48.13	17.26	8.19	-52.7	-64.9	4.2	1.40e+00	0	41	0	0	76	15219
2026-01-03 23:41:49.13	17.27	8.27	-52.7	-64.6	4.3	1.33e+00	0	41	0	0	76	14602
2026-01-03 23:41:50.13	17.28	8.35	-52.8	-64.0	4.6	1.14e+00	0	41	0	2097152	76	13709
2026-01-03 23:41:51.14	17.28	8.43	-52.8	-63.6	4.8	9.13e-01	0	41	0	4194304	76	13018
2026-01-03 23:41:52.14	17.29	8.51	-52.6	-62.9	5.1	6.74e-01	0	41	0	5242880	76	12033
2026-01-03 23:41:53.15	17.30	8.59	-52.6	-62.4	5.5	5.41e-01	0	41	0	7340032	76	11353
2026-01-03 23:41:54.15	17.31	8.67	-52.4	-61.7	5.9	4.18e-01	0	41	0	9437184	76	10458
2026-01-03 23:41:55.15	17.32	8.76	-52.3	-61.1	6.3	3.27e-01	0	41	0	11534336	76	9773
2026-01-03 23:41:56.16	17.33	8.84	-52.2	-60.6	6.7	2.18e-01	0	41	0	12582912	76	9276
2026-01-03 23:41:57.16	17.34	8.92	-52.1	-60.1	7.2	1.63e-01	0	41	0	14680064	76	8761
2026-01-03 23:41:58.16	17.35	9.00	-52.1	-60.0	7.3	1.41e-01	0	41	0	16777216	76	8564
2026-01-03 23:41:59.17	17.36	9.09	-52.0	-59.9	7.4	1.06e-01	0	41	0	18874368	75	8981
2026-01-03 23:42:00.17	17.37	9.17	-52.3	-61.0	6.3	2.13e-01	0	41	0	20971520	75	10284
2026-01-03 23:42:01.17	17.38	9.26	-52.6	-61.7	5.8	3.65e-01	0	41	0	22020096	76	10522
2026-01-03 23:42:02.18	17.39	9.34	-52.5	-62.7	5.2	4.23e-01	0	41	0	24117248	76	11796
2026-01-03 23:42:03.18	17.40	9.43	-53.0	-66.2	3.8	1.48e+00	0	41	104	25165824	76	17619
2026-01-03 23:42:04.18	17.41	9.51	-49.5	-53.6	13.8	2.79e-02	0	41	0	26214400	70	5817
2026-01-03 23:42:05.18	17.41	9.59	-49.5	-53.5	13.9	1.50e-06	0	41	0	27262976	70	5737
2026-01-03 23:42:06.18	17.42	9.68	-48.4	-51.9	15.4	0.00e+00	0	41	0	29360128	68	5382
2026-01-03 23:42:07.19	17.43	9.77	-48.0	-51.3	16.0	0.00e+00	0	41	0	31457280	68	5021
2026-01-03 23:42:08.19	17.44	9.85	-47.8	-51.1	16.1	0.00e+00	0	41	0	33554432	67	5200
2026-01-03 23:42:09.19	17.45	9.94	-47.7	-51.0	16.1	0.00e+00	0	41	0	34603008	67	5113
2026-01-03 23:42:10.26	17.46	10.03	-47.6	-50.8	16.3	0.00e+00	0	41	0	36700160	67	4994
2026-01-03 23:42:11.12	17.47	10.11	-47.8	-50.9	16.3	0.00e+00	0	41	0	38797312	67	5080
2026-01-03 23:42:12.50	17.49	10.23	-47.8	-50.9	16.3	0.00e+00	0	41	0	40894464	67	5081
2026-01-03 23:42:13.22	17.49	10.29	-47.6	-50.7	16.5	0.00e+00	0	41	0	42991616	67	4945
2026-01-03 23:42:14.50	17.50	10.40	-47.7	-50.8	16.4	0.00e+00	0	41	0	45088768	67	5015
2026-01-03 23:42:15.22	17.51	10.46	-47.6	-50.7	16.5	0.00e+00	0	42	0	46137344	67	4958
2026-01-03 23:42:16.51	17.52	10.58	-47.5	-50.6	16.6	0.00e+00	0	41	0	49283072	67	4885
2026-01-03 23:42:17.23	17.53	10.64	-47.6	-50.8	16.6	0.00e+00	0	41	0	50331648	67	4984
2026-01-03 23:42:18.51	17.54	10.76	-47.5	-50.5	16.7	0.00e+00	0	42	0	52428800	66	5110
2026-01-03 23:42:19.23	17.55	10.82	-47.6	-50.5	16.7	0.00e+00	0	42	0	53477376	66	5148
2026-01-03 23:42:20.52	17.56	10.94	-47.5	-50.4	16.8	0.00e+00	0	41	0	56623104	66	5082
2026-01-03 23:42:21.24	17.57	11.00	-47.6	-50.5	16.7	0.00e+00	0	42	0	57671680	66	5127
2026-01-03 23:42:22.52	17.58	11.12	-47.6	-50.5	16.7	0.00e+00	0	42	0	59768832	66	5130
2026-01-03 23:42:23.24	17.59	11.18	-47.6	-50.5	16.7	0.00e+00	0	41	0	61865984	66	5131
2026-01-03 23:42:24.56	17.60	11.30	-47.5	-50.4	16.9	0.00e+00	0	42	0	63963136	66	5067
2026-01-03 23:42:25.27	17.61	11.37	-47.4	-50.3	17.0	0.00e+00	0	42	0	65011712	66	4984
2026-01-03 23:42:26.63	17.63	11.49	-47.5	-50.3	16.9	7.00e-07	0	41	0	68157440	66	5024
2026-01-03 23:42:27.34	17.63	11.56	-47.4	-50.2	17.0	0.00e+00	0	42	0	69206016	66	4927
2026-01-03 23:42:28.73	17.65	11.68	-47.4	-50.2	17.0	0.00e+00	0	41	0	71303168	66	4972
2026-01-03 23:42:29.44	17.65	11.75	-47.4	-50.2	17.1	0.00e+00	0	41	0	73400320	66	4942
2026-01-03 23:42:30.73	17.67	11.87	-47.3	-50.0	17.2	0.00e+00	0	42	0	75497472	66	4825
2026-01-03 23:42:31.44	17.68	11.94	-47.3	-49.9	17.3	0.00e+00	0	41	0	76546048	66	4813
2026-01-03 23:42:32.73	17.69	12.06	-47.1	-49.8	17.4	0.00e+00	0	42	0	79691776	66	4707
2026-01-03 23:42:33.44	17.70	12.12	-47.1	-49.8	17.3	0.00e+00	0	41	0	80740352	66	4721
2026-01-03 23:42:34.73	17.71	12.25	-47.3	-49.9	17.4	0.00e+00	0	42	0	82837504	66	4774
2026-01-03 23:42:35.47	17.72	12.32	-47.3	-49.9	17.4	0.00e+00	0	42	0	84934656	66	4798
2026-01-03 23:42:36.75	17.73	12.44	-47.2	-49.8	17.5	0.00e+00	0	42	0	87031808	66	4740
2026-01-03 23:42:37.47	17.74	12.51	-47.1	-49.7	17.6	0.00e+00	0	42	0	88080384	66	4685
2026-01-03 23:42:38.76	17.75	12.63	-47.3	-49.9	17.5	0.00e+00	0	42	0	90177536	66	4782
2026-01-03 23:42:39.60	17.76	12.71	-47.3	-49.9	17.5	0.00e+00	0	42	0	92274688	66	4770
2026-01-03 23:42:41.08	17.78	12.86	-47.2	-49.8	17.6	0.00e+00	0	42	0	95420416	66	4738
2026-01-03 23:42:41.79	17.78	12.92	-47.2	-49.7	17.7	0.00e+00	0	42	0	96468992	66	4682
2026-01-03 23:42:43.08	17.80	13.05	-47.2	-49.8	17.6	0.00e+00	0	42	0	98566144	66	4719
2026-01-03 23:42:44.28	17.81	13.17	-47.0	-49.6	17.7	0.00e+00	0	42	0	100663296	66	4609
2026-01-03 23:42:45.14	17.82	13.25	-47.0	-49.6	17.7	0.00e+00	0	42	0	102760448	66	4612
2026-01-03 23:42:46.28	17.83	13.37	-47.0	-49.6	17.7	0.00e+00	0	42	0	104857600	65	4872
2026-01-03 23:42:47.15	17.84	13.45	-46.9	-49.4	17.9	0.00e+00	0	42	0	105906176	65	4805
2026-01-03 23:42:48.29	17.86	13.57	-46.8	-49.2	18.1	0.00e+00	0	42	0	108003328	65	4697
2026-01-03 23:42:49.15	17.87	13.65	-46.9	-49.5	17.8	0.00e+00	0	42	0	110100480	65	4822
2026-01-03 23:42:50.30	17.88	13.77	-47.0	-49.5	17.8	0.00e+00	0	41	0	112197632	65	4830
2026-01-03 23:42:51.17	17.89	13.86	-46.8	-49.3	18.0	0.00e+00	0	42	0	114294784	65	4712
2026-01-03 23:42:52.51	17.90	13.99	-46.8	-49.2	18.1	0.00e+00	0	42	0	116391936	65	4693
2026-01-03 23:42:53.22	17.91	14.06	-46.9	-49.4	18.0	0.00e+00	0	42	0	117440512	65	4778
2026-01-03 23:42:54.51	17.93	14.20	-46.9	-49.3	18.0	0.00e+00	0	42	0	120586240	65	4754
2026-01-03 23:42:55.23	17.93	14.27	-46.8	-49.2	18.0	0.00e+00	0	42	0	121634816	65	4690
2026-01-03 23:42:56.52	17.95	14.40	-46.6	-49.0	18.2	0.00e+00	0	42	0	123731968	65	4586
2026-01-03 23:42:57.23	17.96	14.48	-46.7	-49.2	18.1	0.00e+00	0	42	0	124780544	65	4669
2026-01-03 23:42:58.52	17.97	14.61	-46.8	-49.2	18.0	0.00e+00	0	42	0	127926272	65	4701
2026-01-03 23:42:59.24	17.98	14.69	-46.8	-49.3	18.0	0.00e+00	0	42	0	128974848	65	4706
2026-01-03 23:43:00.53	18.00	14.82	-47.0	-49.4	17.9	0.00e+00	0	42	0	131072000	65	4799
2026-01-03 23:43:01.24	18.00	14.90	-46.9	-49.3	18.0	0.00e+00	0	42	0	133169152	65	4744
2026-01-03 23:43:02.56	18.02	15.04	-46.9	-49.4	18.0	0.00e+00	0	42	0	135266304	65	4773
2026-01-03 23:43:03.28	18.03	15.11	-46.9	-49.3	18.0	0.00e+00	0	42	0	136314880	65	4740
2026-01-03 23:43:04.66	18.04	15.26	-46.8	-49.2	18.1	0.00e+00	0	42	0	139460608	65	4700
2026-01-03 23:43:05.66	18.06	15.37	-46.6	-49.0	18.3	0.00e+00	0	42	0	141557760	65	4575
2026-01-03 23:43:06.98	18.07	15.51	-46.6	-49.0	18.3	0.00e+00	0	42	0	143654912	65	4579
2026-01-03 23:43:07.70	18.08	15.59	-46.7	-49.1	18.2	0.00e+00	0	42	0	144703488	65	4646
2026-01-03 23:43:08.99	18.10	15.73	-46.6	-49.0	18.3	0.00e+00	0	42	0	146800640	65	4564
2026-01-03 23:43:09.70	18.11	15.81	-46.5	-48.9	18.4	0.00e+00	0	42	0	148897792	65	4523
2026-01-03 23:43:10.99	18.12	15.95	-46.7	-49.1	18.2	0.00e+00	0	42	0	150994944	65	4630
2026-01-03 23:43:11.71	18.13	16.03	-46.6	-49.0	18.3	0.00e+00	0	42	0	152043520	65	4589
2026-01-03 23:43:13.00	18.15	16.17	-46.6	-49.1	18.2	0.00e+00	0	42	0	155189248	65	4616
2026-01-03 23:43:13.72	18.16	16.25	-46.5	-48.9	18.4	0.00e+00	0	42	0	156237824	65	4531
2026-01-03 23:43:15.00	18.17	16.40	-46.5	-48.9	18.5	0.00e+00	0	42	0	158334976	64	4814
2026-01-03 23:43:15.72	18.18	16.48	-46.4	-48.8	18.5	0.00e+00	0	42	0	159383552	64	4759
2026-01-03 23:43:17.01	18.20	16.62	-46.5	-48.9	18.3	0.00e+00	0	42	0	162529280	64	4808
2026-01-03 23:43:17.72	18.21	16.71	-46.5	-49.0	18.3	0.00e+00	0	42	0	163577856	64	4816
2026-01-03 23:43:19.01	18.22	16.85	-46.4	-48.9	18.4	0.00e+00	0	42	0	165675008	64	4773
2026-01-03 23:43:19.73	18.23	16.94	-46.5	-49.1	18.3	0.00e+00	0	42	0	167772160	64	4878
2026-01-03 23:43:21.02	18.25	17.08	-46.5	-49.0	18.3	0.00e+00	0	42	0	169869312	64	4846
2026-01-03 23:43:21.73	18.26	17.17	-46.6	-49.1	18.2	0.00e+00	0	42	0	170917888	64	4908
2026-01-03 23:43:23.02	18.27	17.32	-46.6	-49.1	18.2	0.00e+00	0	42	0	174063616	64	4924
2026-01-03 23:43:23.74	18.28	17.40	-46.6	-49.2	18.1	0.00e+00	0	42	0	175112192	64	4963
2026-01-03 23:43:25.03	18.30	17.55	-46.6	-49.2	18.1	0.00e+00	0	42	0	177209344	64	4947
2026-01-03 23:43:25.75	18.31	17.64	-46.8	-49.4	18.0	0.00e+00	0	42	0	178257920	64	5067
2026-01-03 23:43:27.10	18.33	17.80	-46.9	-49.5	17.8	0.00e+00	0	42	0	181403648	64	5146
2026-01-03 23:43:27.82	18.34	17.88	-46.9	-49.5	17.9	0.00e+00	0	42	0	182452224	64	5136
2026-01-03 23:43:29.10	18.36	18.04	-47.1	-49.8	17.6	0.00e+00	0	42	0	184549376	64	5333
2026-01-03 23:43:30.20	18.37	18.17	-47.1	-49.8	17.6	0.00e+00	0	42	0	186646528	65	5019
2026-01-03 23:43:31.06	18.38	18.27	-47.2	-49.9	17.5	0.00e+00	0	42	0	188743680	65	5061
2026-01-03 23:43:32.21	18.40	18.41	-47.1	-49.8	17.7	0.00e+00	0	42	0	190840832	65	5038
2026-01-03 23:43:33.07	18.41	18.52	-47.3	-50.0	17.6	0.00e+00	0	42	0	192937984	65	5140
2026-01-03 23:43:34.28	18.43	18.67	-47.2	-50.0	17.6	0.00e+00	0	42	0	195035136	65	5108
2026-01-03 23:43:35.14	18.44	18.77	-47.3	-50.1	17.5	0.00e+00	0	42	0	196083712	65	5183
2026-01-03 23:43:36.28	18.45	18.92	-47.4	-50.2	17.4	0.00e+00	0	42	0	198180864	65	5234
2026-01-03 23:43:37.14	18.47	19.02	-47.3	-50.0	17.4	0.00e+00	0	42	0	200278016	65	5132
2026-01-03 23:43:38.29	18.48	19.17	-47.3	-50.0	17.5	0.00e+00	0	42	0	202375168	65	5110
2026-01-03 23:43:39.14	18.49	19.28	-47.4	-50.2	17.4	0.00e+00	0	42	0	203423744	65	5236
2026-01-03 23:43:40.49	18.51	19.45	-47.5	-50.2	17.3	0.00e+00	0	42	0	206569472	65	5264
2026-01-03 23:43:41.21	18.52	19.54	-47.4	-50.1	17.5	0.00e+00	0	42	0	207618048	65	5187
2026-01-03 23:43:42.49	18.54	19.70	-47.5	-50.3	17.3	0.00e+00	0	42	0	209715200	66	5009
2026-01-03 23:43:43.22	18.55	19.80	-47.6	-50.4	17.2	0.00e+00	0	42	0	211812352	66	5063
2026-01-03 23:43:44.76	18.58	20.00	-47.6	-50.4	17.1	0.00e+00	0	42	0	213909504	66	5083
2026-01-03 23:43:45.47	18.59	20.09	-47.8	-50.6	17.0	0.00e+00	0	42	0	216006656	66	5207
2026-01-03 23:43:46.77	18.61	20.26	-47.9	-50.8	16.8	0.00e+00	0	42	0	218103808	66	5308
2026-01-03 23:43:47.49	18.62	20.35	-47.9	-50.8	16.7	0.00e+00	0	42	0	219152384	66	5323
2026-01-03 23:43:48.78	18.64	20.53	-48.1	-51.0	16.5	0.00e+00	0	42	0	222298112	66	5450
2026-01-03 23:43:49.49	18.65	20.62	-48.1	-51.1	16.5	0.00e+00	0	42	0	223346688	67	5176
2026-01-03 23:43:50.78	18.67	20.79	-48.0	-50.9	16.6	0.00e+00	0	42	0	225443840	67	5081
2026-01-03 23:43:51.50	18.68	20.89	-48.0	-51.0	16.5	0.00e+00	0	42	0	226492416	67	5128
2026-01-03 23:43:52.79	18.70	21.06	-48.3	-51.4	16.2	0.00e+00	0	42	0	229638144	67	5350
2026-01-03 23:43:53.51	18.71	21.16	-48.3	-51.4	16.2	0.00e+00	0	42	0	230686720	67	5348
2026-01-03 23:43:54.79	18.73	21.34	-48.3	-51.4	16.2	0.00e+00	0	42	0	232783872	67	5366
2026-01-03 23:43:55.50	18.74	21.44	-48.2	-51.3	16.3	0.00e+00	0	42	0	234881024	67	5284
2026-01-03 23:43:56.79	18.76	21.61	-48.2	-51.3	16.3	0.00e+00	0	42	0	236978176	67	5328
2026-01-03 23:43:57.50	18.77	21.71	-48.2	-51.3	16.3	0.00e+00	0	42	0	238026752	67	5322
2026-01-03 23:43:58.79	18.79	21.89	-48.1	-51.2	16.4	0.00e+00	0	42	0	240123904	67	5252
2026-01-03 23:43:59.51	18.81	21.99	-48.2	-51.3	16.3	0.00e+00	0	42	0	242221056	67	5287
2026-01-03 23:44:00.79	18.83	22.18	-48.1	-51.1	16.4	0.00e+00	0	42	0	244318208	67	5209
2026-01-03 23:44:01.51	18.84	22.28	-48.1	-51.2	16.4	0.00e+00	0	42	0	245366784	67	5221
2026-01-03 23:44:02.80	18.86	22.46	-48.2	-51.3	16.3	0.00e+00	0	42	0	248512512	67	5312
2026-01-03 23:44:03.51	18.87	22.56	-48.1	-51.1	16.4	0.00e+00	0	42	0	249561088	67	5210
2026-01-03 23:44:04.80	18.89	22.75	-48.5	-51.6	16.1	0.00e+00	0	42	0	251658240	67	5491
2026-01-03 23:44:05.52	18.91	22.86	-48.7	-51.8	16.1	0.00e+00	0	42	0	253755392	68	5302
2026-01-03 23:44:06.81	18.93	23.05	-48.7	-51.8	16.0	0.00e+00	0	42	0	255852544	68	5316
2026-01-03 23:44:07.58	18.94	23.16	-48.8	-51.9	15.9	0.00e+00	0	42	0	256901120	68	5354
2026-01-03 23:44:08.87	18.96	23.35	-48.8	-51.9	15.9	0.00e+00	0	42	0	260046848	68	5371
2026-01-03 23:44:09.58	18.98	23.46	-48.6	-51.7	16.1	0.00e+00	0	42	0	261095424	68	5227
2026-01-03 23:44:10.87	19.00	23.65	-48.5	-51.5	16.2	0.00e+00	0	42	0	263192576	68	5134
2026-01-03 23:44:11.59	19.01	23.76	-48.5	-51.4	16.3	0.00e+00	0	42	0	264241152	68	5095
2026-01-03 23:44:12.88	19.04	23.95	-48.7	-51.7	16.2	0.00e+00	0	42	0	267386880	68	5276
2026-01-03 23:44:13.60	19.05	24.06	-48.5	-51.4	16.3	0.00e+00	0	42	0	268435456	68	5070
2026-01-03 23:44:14.88	19.07	24.26	-48.3	-51.1	16.5	0.00e+00	0	42	0	270532608	68	4919
2026-01-03 23:44:15.60	19.08	24.37	-48.4	-51.3	16.2	0.00e+00	0	42	0	272629760	68	5039
2026-01-03 23:44:16.89	19.11	24.57	-48.2	-51.0	16.7	0.00e+00	0	42	0	274726912	68	4830
2026-01-03 23:44:17.60	19.12	24.68	-48.0	-50.8	17.0	0.00e+00	0	42	0	275775488	68	4719
2026-01-03 23:44:18.89	19.15	24.88	-48.4	-51.3	16.4	0.00e+00	0	42	0	277872640	68	5039
2026-01-03 23:44:19.60	19.16	25.00	-48.2	-51.0	16.7	0.00e+00	0	42	0	279969792	68	4868
2026-01-03 23:44:20.89	19.18	25.20	-48.4	-51.3	16.6	0.00e+00	0	42	0	282066944	68	5026
2026-01-03 23:44:21.67	19.20	25.33	-48.3	-51.1	16.6	0.00e+00	0	42	0	283115520	68	4911
2026-01-03 23:44:23.29	19.23	25.59	-47.7	-50.4	17.1	0.00e+00	0	42	0	286261248	67	4760
2026-01-03 23:44:23.86	19.24	25.68	-47.8	-50.6	16.9	0.00e+00	0	42	0	287309824	67	4874
2026-01-03 23:44:25.44	19.27	25.94	-47.7	-50.3	17.3	0.00e+00	0	42	0	290455552	67	4753
2026-01-03 23:44:26.04	19.28	26.04	-47.6	-50.2	17.4	0.00e+00	0	42	0	291504128	67	4669
2026-01-03 23:44:27.61	19.32	26.30	-47.5	-50.2	17.4	0.00e+00	0	42	0	294649856	67	4672
2026-01-03 23:44:28.38	19.33	26.42	-47.2	-49.8	17.8	0.00e+00	0	42	0	295698432	66	4752
2026-01-03 23:44:29.67	19.36	26.64	-47.3	-49.9	17.7	0.00e+00	0	42	0	298844160	66	4803
2026-01-03 23:44:30.39	19.37	26.76	-47.4	-50.2	17.5	0.00e+00	0	42	0	299892736	66	4949
2026-01-03 23:44:31.67	19.40	26.98	-47.2	-49.9	17.7	0.00e+00	0	42	0	301989888	65	5046
2026-01-03 23:44:32.58	19.42	27.14	-47.2	-49.9	17.6	0.00e+00	0	42	0	304087040	65	5094
2026-01-03 23:44:33.91	19.45	27.36	-47.4	-50.1	17.4	0.00e+00	0	42	0	306184192	65	5188
2026-01-03 23:44:34.66	19.46	27.49	-47.4	-50.1	17.5	0.00e+00	0	42	0	308281344	65	5187
2026-01-03 23:44:36.26	19.50	27.77	-47.6	-50.4	17.3	0.00e+00	0	42	0	310378496	65	5342
2026-01-03 23:44:36.83	19.51	27.87	-47.4	-50.1	17.4	0.00e+00	0	42	0	312475648	66	4881
2026-01-03 23:44:38.50	19.55	28.17	-47.5	-50.2	17.4	0.00e+00	0	42	0	314572800	66	4953
2026-01-03 23:44:39.07	19.56	28.27	-47.4	-50.1	17.4	0.00e+00	0	42	0	316669952	66	4887
2026-01-03 23:44:40.72	19.60	28.57	-47.2	-49.9	17.7	0.00e+00	0	42	0	318767104	66	4775
2026-01-03 23:44:41.29	19.61	28.67	-47.3	-49.9	17.6	0.00e+00	0	42	0	319815680	66	4813
2026-01-03 23:44:42.99	19.65	28.98	-47.1	-49.6	17.8	0.00e+00	0	42	0	324009984	65	4923
2026-01-03 23:44:43.56	19.66	29.09	-47.3	-49.9	17.5	0.00e+00	0	42	0	324009984	65	5093
2026-01-03 23:44:45.22	19.70	29.39	-47.0	-49.5	18.0	0.00e+00	0	42	0	328204288	65	4841
2026-01-03 23:44:45.80	19.72	29.50	-47.3	-50.0	17.6	0.00e+00	0	42	0	329252864	65	5109
2026-01-03 23:44:47.49	19.76	29.82	-47.5	-50.1	17.3	0.00e+00	0	42	0	332398592	65	5203
2026-01-03 23:44:48.06	19.77	29.93	-47.4	-50.1	17.5	0.00e+00	0	42	0	333447168	65	5166
2026-01-03 23:44:49.73	19.81	30.25	-47.8	-50.5	17.0	0.00e+00	0	42	0	336592896	66	5122
2026-01-03 23:44:50.56	19.83	30.41	-47.9	-50.6	17.0	0.00e+00	0	42	0	337641472	66	5209
2026-01-03 23:44:51.70	19.86	30.63	-47.9	-50.7	16.9	0.00e+00	0	42	0	339738624	66	5249
2026-01-03 23:44:52.56	19.88	30.79	-47.8	-50.5	17.0	0.00e+00	0	42	0	341835776	66	5158
2026-01-03 23:44:53.70	19.91	31.02	-47.8	-50.5	17.0	0.00e+00	0	42	0	343932928	66	5139
2026-01-03 23:44:54.56	19.93	31.19	-47.9	-50.6	17.0	0.00e+00	0	42	0	344981504	66	5179
2026-01-03 23:44:55.71	19.96	31.42	-48.1	-50.8	16.7	0.00e+00	0	42	0	347078656	67	5041
2026-01-03 23:44:56.57	19.99	31.59	-48.3	-51.2	16.4	0.00e+00	0	42	0	349175808	67	5230
2026-01-03 23:44:57.71	20.02	31.82	-48.6	-51.5	16.2	0.00e+00	0	42	0	351272960	67	5430
2026-01-03 23:44:58.56	20.04	31.99	-49.2	-52.4	15.4	0.00e+00	0	42	0	352321536	69	5373
2026-01-03 23:44:59.70	20.07	32.22	-49.1	-52.3	15.4	0.00e+00	0	42	0	354418688	69	5318
2026-01-03 23:45:00.56	20.10	32.40	-49.3	-52.6	15.2	0.00e+00	0	42	0	356515840	69	5482
2026-01-03 23:45:01.70	20.13	32.64	-49.7	-53.2	14.5	7.00e-07	0	42	0	358612992	70	5585
2026-01-03 23:45:02.66	20.15	32.84	-49.5	-52.8	14.9	0.00e+00	0	42	0	360710144	70	5330
2026-01-03 23:45:03.65	20.18	33.05	-49.6	-53.1	14.7	0.00e+00	0	42	0	361758720	70	5473
2026-01-03 23:45:04.86	20.22	33.30	-49.6	-53.0	14.8	7.00e-07	0	42	0	364904448	70	5405
2026-01-03 23:45:05.72	20.24	33.49	-49.7	-53.1	14.7	0.00e+00	0	42	0	365953024	70	5525
2026-01-03 23:45:07.08	20.28	33.78	-49.8	-53.3	14.6	3.80e-06	0	42	0	369098752	71	5328
2026-01-03 23:45:07.80	20.30	33.93	-49.8	-53.3	14.6	7.00e-07	0	42	0	370147328	71	5331
2026-01-03 23:45:09.09	20.34	34.22	-49.5	-53.0	14.8	7.00e-07	0	42	0	372244480	71	5158
2026-01-03 23:45:09.80	20.37	34.37	-49.2	-52.6	15.2	7.00e-07	0	42	0	373293056	70	5172
2026-01-03 23:45:11.09	20.41	34.66	-48.9	-52.1	15.7	0.00e+00	0	42	0	376438784	69	5183
2026-01-03 23:45:11.80	20.43	34.81	-49.0	-52.2	15.6	0.00e+00	0	42	0	377487360	69	5222
2026-01-03 23:45:13.09	20.47	35.10	-48.4	-51.4	16.5	0.00e+00	0	42	0	379584512	68	5051
2026-01-03 23:45:13.80	20.49	35.26	-48.4	-51.3	16.5	0.00e+00	0	42	0	381681664	68	5038
2026-01-03 23:45:15.09	20.53	35.56	-47.7	-50.6	17.1	0.00e+00	0	42	0	383778816	67	4881
2026-01-03 23:45:15.81	20.56	35.72	-47.6	-50.4	17.2	0.00e+00	0	42	0	384827392	67	4799
2026-01-03 23:45:17.10	20.60	36.02	-47.5	-50.4	17.2	0.00e+00	0	42	0	386924544	66	5062
2026-01-03 23:45:17.81	20.63	36.19	-47.1	-49.8	17.7	0.00e+00	0	42	0	389021696	66	4753
2026-01-03 23:45:19.16	20.67	36.50	-46.9	-49.6	17.9	0.00e+00	0	42	0	391118848	65	4876
2026-01-03 23:45:19.88	20.70	36.67	-46.6	-49.1	18.3	0.00e+00	0	42	0	392167424	65	4626
2026-01-03 23:45:21.24	20.74	37.00	-46.4	-48.8	18.6	0.00e+00	0	42	0	395313152	64	4745
2026-01-03 23:45:21.95	20.77	37.17	-46.4	-48.7	18.7	0.00e+00	0	43	0	396361728	64	4687
2026-01-03 23:45:23.24	20.82	37.48	-46.3	-48.6	18.8	0.00e+00	0	42	0	398458880	64	4612
2026-01-03 23:45:23.95	20.84	37.65	-46.1	-48.4	19.1	0.00e+00	0	42	0	400556032	64	4503
2026-01-03 23:45:25.24	20.89	37.97	-46.1	-48.3	19.1	0.00e+00	0	42	0	402653184	64	4464
2026-01-03 23:45:25.97	20.92	38.15	-46.3	-48.6	19.0	0.00e+00	0	42	0	403701760	63	4894
2026-01-03 23:45:27.25	20.97	38.47	-46.1	-48.3	19.2	0.00e+00	0	42	0	406847488	63	4749
2026-01-03 23:45:27.97	21.00	38.65	-46.2	-48.5	19.0	0.00e+00	0	42	0	407896064	63	4819
2026-01-03 23:45:29.26	21.05	38.97	-46.3	-48.6	18.8	0.00e+00	0	42	0	409993216	63	4882
2026-01-03 23:45:29.98	21.07	39.15	-46.1	-48.4	19.0	0.00e+00	0	42	0	412090368	63	4807
2026-01-03 23:45:31.26	21.13	39.48	-46.3	-48.6	18.8	0.00e+00	0	42	0	414187520	63	4910
2026-01-03 23:45:32.12	21.16	39.70	-46.3	-48.6	18.9	0.00e+00	0	42	0	415236096	63	4872
2026-01-03 23:45:33.60	21.22	40.09	-46.7	-49.2	18.3	0.00e+00	0	42	0	418381824	64	4927
2026-01-03 23:45:34.31	21.25	40.28	-47.0	-49.6	17.9	0.00e+00	0	43	0	419430400	64	5163
2026-01-03 23:45:35.60	21.31	40.62	-47.2	-49.6	17.9	0.00e+00	0	42	0	422576128	65	4919
2026-01-03 23:45:36.32	21.34	40.81	-47.3	-49.9	17.7	0.00e+00	0	42	0	423624704	65	5045
2026-01-03 23:45:37.60	21.40	41.15	-47.8	-50.4	17.3	0.00e+00	0	42	0	425721856	66	5095
2026-01-03 23:45:38.32	21.43	41.35	-47.6	-50.1	17.6	0.00e+00	0	42	0	426770432	66	4901
2026-01-03 23:45:39.60	21.49	41.70	-47.8	-50.4	17.4	0.00e+00	0	42	0	429916160	66	5065
2026-01-03 23:45:40.32	21.52	41.89	-48.0	-50.7	17.0	0.00e+00	0	42	0	430964736	66	5253
2026-01-03 23:45:41.61	21.58	42.25	-48.0	-50.7	17.0	0.00e+00	0	42	0	433061888	67	4964
2026-01-03 23:45:42.32	21.62	42.45	-47.8	-50.5	17.1	0.00e+00	0	42	0	435159040	67	4835
2026-01-03 23:45:43.63	21.68	42.82	-48.0	-50.7	16.9	0.00e+00	0	42	0	437256192	67	4973
2026-01-03 23:45:44.34	21.72	43.02	-47.8	-50.4	17.3	0.00e+00	0	42	0	438304768	67	4803
2026-01-03 23:45:45.63	21.78	43.38	-47.5	-50.0	17.7	0.00e+00	0	42	0	441450496	66	4850
2026-01-03 23:45:46.68	21.83	43.69	-47.2	-49.7	17.9	0.00e+00	0	42	0	442499072	66	4667
2026-01-03 23:45:47.63	21.88	43.96	-47.2	-49.7	18.0	0.00e+00	0	42	0	444596224	66	4688
2026-01-03 23:45:48.63	21.94	44.25	-47.3	-49.8	17.9	0.00e+00	0	42	0	446693376	66	4719
2026-01-03 23:45:49.63	21.99	44.55	-47.2	-49.7	18.0	0.00e+00	0	42	0	448790528	66	4680
2026-01-03 23:45:50.63	22.05	44.84	-47.5	-50.1	17.7	0.00e+00	0	43	0	449839104	66	4889
2026-01-03 23:45:51.63	22.10	45.14	-47.6	-50.2	17.6	0.00e+00	0	42	0	451936256	66	4954
2026-01-03 23:45:52.63	22.16	45.44	-48.2	-51.1	16.7	0.00e+00	0	42	0	454033408	67	5161
2026-01-03 23:45:53.63	22.22	45.74	-48.3	-51.1	16.6	0.00e+00	0	42	0	456130560	67	5215
2026-01-03 23:45:54.74	22.28	46.08	-48.7	-51.7	16.1	7.00e-07	0	42	0	458227712	68	5245
2026-01-03 23:45:55.62	22.34	46.35	-48.9	-52.0	15.8	0.00e+00	0	42	0	459276288	68	5450
2026-01-03 23:45:56.77	22.41	46.71	-49.2	-52.4	15.8	0.00e+00	0	42	0	461373440	68	5667
2026-01-03 23:45:57.68	22.46	46.99	-49.1	-52.2	15.7	0.00e+00	0	42	0	463470592	69	5247
2026-01-03 23:45:58.86	22.54	47.37	-49.1	-52.1	15.7	0.00e+00	0	42	0	465567744	69	5207
2026-01-03 23:45:59.71	22.59	47.63	-49.1	-52.1	15.8	0.00e+00	0	42	0	467664896	69	5207
2026-01-03 23:46:01.02	22.68	48.05	-49.0	-51.9	16.0	0.00e+00	0	42	0	469762048	69	5075
2026-01-03 23:46:01.73	22.73	48.28	-49.0	-51.9	15.9	0.00e+00	0	42	0	470810624	69	5096
2026-01-03 23:46:03.02	22.82	48.70	-48.6	-51.5	16.4	0.00e+00	0	42	0	473956352	69	4845
2026-01-03 23:46:03.73	22.87	48.93	-48.4	-51.1	16.8	0.00e+00	0	42	0	475004928	68	4911
2026-01-03 23:46:05.27	22.98	49.44	-47.4	-50.0	17.7	0.00e+00	0	42	0	478150656	66	4816
2026-01-03 23:46:05.98	23.03	49.67	-47.1	-49.5	18.2	0.00e+00	0	42	0	479199232	66	4557
2026-01-03 23:46:07.26	23.13	50.10	-46.5	-48.9	18.7	0.00e+00	0	42	0	481296384	65	4495
2026-01-03 23:46:07.98	23.18	50.35	-46.1	-48.3	19.2	0.00e+00	0	42	0	483393536	64	4447
2026-01-03 23:46:09.27	23.28	50.78	-46.1	-48.3	19.3	0.00e+00	0	42	0	485490688	63	4722
2026-01-03 23:46:09.98	23.34	51.03	-45.6	-47.7	19.7	0.00e+00	0	42	0	486539264	63	4400
2026-01-03 23:46:11.27	23.45	51.47	-45.6	-47.7	19.8	0.00e+00	0	42	0	488636416	62	4669
2026-01-03 23:46:11.98	23.51	51.72	-46.0	-48.2	19.3	0.00e+00	0	42	0	490733568	62	4963
2026-01-03 23:46:13.27	23.62	52.17	-46.5	-48.8	18.9	0.00e+00	0	42	0	492830720	63	5028
2026-01-03 23:46:14.00	23.68	52.42	-46.6	-48.9	18.6	0.00e+00	0	42	0	493879296	64	4809
2026-01-03 23:46:15.29	23.80	52.88	-46.6	-49.0	18.6	0.00e+00	0	42	0	497025024	64	4826
2026-01-03 23:46:16.00	23.86	53.13	-46.7	-49.1	18.6	0.00e+00	0	42	0	498073600	64	4922
2026-01-03 23:46:17.29	23.98	53.60	-46.3	-48.6	18.9	0.00e+00	0	43	0	500170752	64	4625
2026-01-03 23:46:18.00	24.05	53.85	-46.1	-48.4	19.1	0.00e+00	0	42	0	501219328	64	4514
2026-01-03 23:46:19.29	24.18	54.32	-46.1	-48.3	19.0	7.00e-07	0	42	0	504365056	63	4759
2026-01-03 23:46:20.00	24.25	54.58	-46.0	-48.3	19.2	7.00e-07	0	42	0	505413632	63	4726
2026-01-03 23:46:21.29	24.38	55.06	-46.0	-48.2	19.2	0.00e+00	0	42	0	507510784	63	4680
2026-01-03 23:46:22.02	24.46	55.33	-45.7	-47.9	19.6	0.00e+00	0	42	0	509607936	63	4494
2026-01-03 23:46:23.31	24.60	55.81	-45.3	-47.5	20.0	0.00e+00	0	43	0	511705088	62	4546
2026-01-03 23:46:24.02	24.68	56.08	-45.3	-47.5	20.0	0.00e+00	0	42	0	512753664	62	4559
2026-01-03 23:46:25.31	24.83	56.57	-45.3	-47.4	20.1	0.00e+00	0	43	0	514850816	62	4518
2026-01-03 23:46:26.03	24.92	56.85	-45.3	-47.4	20.1	0.00e+00	0	43	0	516947968	62	4503
2026-01-03 23:46:27.31	25.07	57.34	-45.3	-47.4	20.1	0.00e+00	0	42	0	519045120	62	4514
2026-01-03 23:46:28.06	25.16	57.63	-45.4	-47.5	19.9	0.00e+00	0	43	0	520093696	62	4561
2026-01-03 23:46:29.66	25.37	58.25	-45.3	-47.4	20.0	0.00e+00	0	42	0	523239424	62	4531
2026-01-03 23:46:30.24	25.45	58.48	-45.4	-47.5	19.9	0.00e+00	0	42	0	524288000	62	4591
2026-01-03 23:46:31.84	25.67	59.11	-45.2	-47.2	20.2	0.00e+00	0	42	0	527433728	62	4425
2026-01-03 23:46:32.54	25.77	59.39	-45.0	-47.1	20.3	0.00e+00	0	42	0	528482304	61	4606
2026-01-03 23:46:33.89	25.96	59.93	-44.9	-46.9	20.4	0.00e+00	0	42	0	531628032	61	4510
2026-01-03 23:46:34.60	26.07	60.22	-45.0	-47.1	20.2	0.00e+00	0	42	0	532676608	61	4599
2026-01-03 23:46:35.89	26.27	60.74	-45.7	-47.8	19.7	0.00e+00	0	42	0	534773760	62	4736
2026-01-03 23:46:36.87	26.43	61.14	-46.3	-48.6	18.9	0.00e+00	0	42	0	536870912	63	4900
2026-01-03 23:46:37.88	26.60	61.55	-46.2	-48.6	19.0	0.00e+00	0	42	0	538968064	64	4599
2026-01-03 23:46:38.86	26.77	61.96	-45.5	-47.7	19.9	0.00e+00	0	42	0	541065216	63	4407
2026-01-03 23:46:39.86	26.95	62.37	-44.8	-46.8	20.5	0.00e+00	0	43	0	543162368	61	4490
2026-01-03 23:46:40.86	27.13	62.79	-45.1	-47.1	20.3	0.00e+00	0	42	0	544210944	61	4619
2026-01-03 23:46:41.87	27.32	63.22	-45.1	-47.1	20.3	0.00e+00	0	42	0	546308096	61	4642
2026-01-03 23:46:42.87	27.52	63.64	-44.9	-46.9	20.4	0.00e+00	0	42	0	548405248	61	4538
2026-01-03 23:46:43.87	27.72	64.06	-45.1	-47.1	20.3	0.00e+00	0	42	0	550502400	61	4649
2026-01-03 23:46:44.89	27.94	64.50	-45.6	-47.8	19.8	0.00e+00	0	42	0	552599552	62	4710
2026-01-03 23:46:45.92	28.17	64.94	-46.6	-48.9	18.7	0.00e+00	0	42	0	553648128	64	4800
2026-01-03 23:46:46.95	28.40	65.38	-47.3	-49.8	17.9	0.00e+00	0	42	0	555745280	65	5005
2026-01-03 23:46:47.97	28.65	65.82	-46.9	-49.3	18.3	0.00e+00	0	42	0	557842432	65	4749
2026-01-03 23:46:48.96	28.89	66.25	-46.5	-48.8	18.7	0.00e+00	0	42	0	559939584	65	4480
2026-01-03 23:46:49.97	29.15	66.70	-47.2	-49.6	18.1	0.00e+00	0	42	0	562036736	65	4905
2026-01-03 23:46:50.97	29.42	67.13	-47.5	-50.0	17.7	0.00e+00	0	42	0	563085312	65	5132
2026-01-03 23:46:51.97	29.70	67.58	-48.0	-50.7	17.1	0.00e+00	0	42	0	565182464	66	5264
2026-01-03 23:46:52.98	29.99	68.02	-48.9	-51.8	16.1	0.00e+00	0	42	0	567279616	68	5339
2026-01-03 23:46:53.98	30.30	68.47	-49.7	-53.1	14.9	0.00e+00	0	42	0	569376768	70	5495
2026-01-03 23:46:54.98	30.62	68.91	-49.9	-53.5	14.4	7.00e-07	0	42	0	571473920	71	5406
2026-01-03 23:46:55.98	30.95	69.36	-50.1	-53.6	14.4	7.00e-07	0	42	0	572522496	71	5511
2026-01-03 23:46:56.98	31.30	69.81	-50.3	-54.1	13.8	2.20e-06	0	42	0	574619648	71	5802
2026-01-03 23:46:57.98	31.67	70.26	-50.7	-54.7	13.4	6.10e-06	0	42	0	576716800	72	5868
2026-01-03 23:46:58.98	32.05	70.71	-50.1	-53.7	14.2	6.10e-06	0	43	0	578813952	72	5220
2026-01-03 23:46:59.98	32.45	71.16	-49.0	-52.0	15.9	0.00e+00	0	42	0	579862528	70	4829
2026-01-03 23:47:00.99	32.88	71.62	-48.4	-51.2	16.6	0.00e+00	0	43	0	581959680	68	4948
2026-01-03 23:47:01.99	33.33	72.08	-47.5	-50.0	17.6	0.00e+00	0	43	0	584056832	67	4574
2026-01-03 23:47:02.99	33.80	72.53	-46.8	-49.2	18.3	0.00e+00	0	42	0	586153984	65	4664
2026-01-03 23:47:03.99	34.30	72.99	-46.9	-49.2	18.3	0.00e+00	0	42	0	588251136	65	4684
2026-01-03 23:47:04.99	34.83	73.45	-46.7	-49.1	18.4	0.00e+00	0	42	0	589299712	65	4625
2026-01-03 23:47:05.99	35.39	73.90	-47.0	-49.5	18.0	0.00e+00	0	42	0	591396864	65	4868
2026-01-03 23:47:06.99	35.98	74.36	-47.0	-49.5	18.1	0.00e+00	0	42	0	593494016	65	4846
2026-01-03 23:47:07.99	36.61	74.82	-46.9	-49.3	18.2	0.00e+00	0	42	0	595591168	65	4751
2026-01-03 23:47:08.99	37.28	75.28	-47.4	-49.9	17.7	0.00e+00	0	43	0	597688320	65	5081
2026-01-03 23:47:09.98	37.99	75.73	-47.0	-49.4	18.2	0.00e+00	0	42	0	598736896	65	4812
2026-01-03 23:47:10.98	38.75	76.19	-47.5	-50.1	17.5	0.00e+00	0	42	0	600834048	65	5200
2026-01-03 23:47:11.98	39.56	76.64	-47.4	-50.0	17.7	0.00e+00	0	42	0	602931200	65	5119
2026-01-03 23:47:12.98	40.44	77.10	-47.7	-50.3	17.4	0.00e+00	0	42	0	605028352	65	5317
2026-01-03 23:47:13.98	41.38	77.55	-48.6	-51.6	16.2	0.00e+00	0	43	0	607125504	67	5476
2026-01-03 23:47:14.99	42.40	78.00	-49.3	-52.4	15.8	0.00e+00	0	42	0	608174080	69	5365
2026-01-03 23:47:16.00	43.51	78.45	-49.6	-52.9	15.2	0.00e+00	0	43	0	610271232	69	5663
2026-01-03 23:47:17.00	44.70	78.90	-49.6	-52.9	15.1	0.00e+00	0	43	0	612368384	70	5343
2026-01-03 23:47:18.01	45.99	79.34	-49.2	-52.4	15.5	0.00e+00	0	42	0	614465536	70	5043
2026-01-03 23:47:19.01	47.39	79.78	-49.5	-52.8	15.0	0.00e+00	0	43	0	616562688	70	5334
2026-01-03 23:47:20.01	48.92	80.21	-50.1	-53.8	14.1	3.80e-06	0	43	0	617611264	71	5630
2026-01-03 23:47:21.00	50.57	80.63	-49.9	-53.3	14.5	1.50e-06	0	42	0	619708416	71	5320
2026-01-03 23:47:22.00	52.39	81.04	-49.3	-52.5	15.4	0.00e+00	0	43	0	621805568	70	5117
2026-01-03 23:47:23.00	54.39	81.45	-48.7	-51.6	16.3	0.00e+00	0	42	0	623902720	69	4908
2026-01-03 23:47:24.01	56.61	81.85	-47.8	-50.5	17.3	0.00e+00	0	43	0	624951296	67	4854
2026-01-03 23:47:25.01	59.03	82.23	-47.2	-49.7	17.9	0.00e+00	0	43	0	627048448	66	4676
2026-01-03 23:47:26.00	61.68	82.60	-46.6	-49.0	18.6	0.00e+00	0	42	0	629145600	65	4552
2026-01-03 23:47:27.01	64.66	82.96	-46.4	-48.8	18.7	0.00e+00	0	43	0	631242752	64	4721
2026-01-03 23:47:28.01	67.91	83.29	-45.8	-48.0	19.5	0.00e+00	0	42	0	633339904	63	4551
2026-01-03 23:47:29.01	71.50	83.60	-44.4	-46.4	20.7	0.00e+00	0	43	0	634388480	60	4528
2026-01-03 23:47:30.01	75.43	83.88	-44.6	-46.5	20.7	0.00e+00	0	43	0	636485632	60	4588
2026-01-03 23:47:31.00	79.68	84.13	-45.7	-47.9	19.6	0.00e+00	0	43	0	638582784	61	5063
2026-01-03 23:47:32.01	84.37	84.35	-46.1	-48.4	19.2	0.00e+00	0	43	0	640679936	62	5049
2026-01-03 23:47:33.01	89.35	84.52	-45.6	-47.7	19.6	0.00e+00	0	43	0	642777088	62	4693
2026-01-03 23:47:34.01	94.62	84.65	-45.2	-47.3	20.1	0.00e+00	0	43	0	643825664	62	4459
2026-01-03 23:47:35.01	100.12	84.74	-45.2	-47.3	20.1	0.00e+00	0	42	0	645922816	62	4462
2026-01-03 23:47:36.01	105.74	84.78	-44.3	-46.3	20.9	0.00e+00	0	42	0	648019968	60	4462
2026-01-03 23:47:37.01	111.38	84.76	-43.8	-45.7	21.3	0.00e+00	0	42	0	650117120	59	4407
2026-01-03 23:47:38.01	116.94	84.70	-45.1	-47.3	20.1	0.00e+00	0	42	0	652214272	60	5013
2026-01-03 23:47:39.01	122.32	84.58	-45.8	-48.0	19.6	0.00e+00	0	42	0	653262848	63	4558
2026-01-03 23:47:40.01	127.43	84.43	-45.2	-47.3	20.1	0.00e+00	0	42	0	655360000	62	4470
2026-01-03 23:47:41.01	132.23	84.23	-45.3	-47.4	20.0	0.00e+00	0	42	0	657457152	61	4790
2026-01-03 23:47:42.01	136.68	83.99	-45.8	-48.0	19.4	0.00e+00	0	42	0	659554304	62	4864
2026-01-03 23:47:43.02	140.80	83.72	-45.6	-47.7	19.8	0.00e+00	0	43	0	660602880	62	4674
2026-01-03 23:47:44.01	144.49	83.42	-45.9	-48.0	19.5	0.00e+00	0	43	0	662700032	62	4848
2026-01-03 23:47:45.02	147.92	83.10	-47.0	-49.5	18.1	0.00e+00	0	43	0	664797184	64	5129
2026-01-03 23:47:46.02	150.99	82.75	-47.6	-50.3	17.4	0.00e+00	0	43	0	666894336	65	5304
2026-01-03 23:47:47.02	153.78	82.39	-48.5	-51.5	16.3	0.00e+00	0	42	0	668991488	67	5427
2026-01-03 23:47:48.03	156.33	82.01	-49.3	-52.6	15.5	0.00e+00	0	43	0	670040064	69	5505
2026-01-03 23:47:49.03	158.62	81.62	-49.9	-53.3	14.6	7.00e-07	0	43	0	672137216	70	5646
2026-01-03 23:47:50.03	160.70	81.21	-48.8	-51.7	16.1	0.00e+00	0	43	0	674234368	69	4961
2026-01-03 23:47:51.03	162.60	80.80	-47.7	-50.2	17.3	0.00e+00	0	42	0	676331520	67	4694
2026-01-03 23:47:52.04	164.34	80.38	-47.9	-50.5	17.2	0.00e+00	0	42	0	678428672	66	5147
2026-01-03 23:47:53.04	165.92	79.95	-49.2	-52.2	15.6	0.00e+00	0	43	0	679477248	69	5260
2026-01-03 23:47:54.04	167.37	79.51	-49.9	-53.2	14.8	0.00e+00	0	43	0	681574400	70	5588
2026-01-03 23:47:55.04	168.70	79.07	-50.2	-53.9	14.0	1.50e-06	0	42	0	683671552	71	5670
2026-01-03 23:47:56.43	170.37	78.46	-50.3	-54.1	13.7	9.38e-05	0	43	0	685768704	72	5486
2026-01-03 23:47:57.18	171.21	78.12	-49.7	-53.0	14.8	7.00e-07	0	42	0	687865856	71	5105
2026-01-03 23:47:58.46	172.52	77.55	-49.6	-52.8	15.2	0.00e+00	0	43	0	689963008	71	5010
2026-01-03 23:47:59.18	173.20	77.22	-49.8	-53.2	14.8	0.00e+00	0	42	0	691011584	71	5221
2026-01-03 23:48:00.47	174.34	76.63	-49.5	-52.7	15.2	0.00e+00	0	43	0	694157312	71	4953
2026-01-03 23:48:01.18	174.93	76.31	-49.4	-52.7	15.4	0.00e+00	0	43	0	695205888	70	5233
2026-01-03 23:48:02.47	175.92	75.72	-48.6	-51.5	16.3	0.00e+00	0	43	0	697303040	69	4834
2026-01-03 23:48:03.18	176.43	75.40	-47.7	-50.3	17.4	0.00e+00	0	42	0	698351616	67	4740
2026-01-03 23:48:04.47	177.31	74.80	-48.4	-51.2	16.5	0.00e+00	0	43	0	701497344	67	5263
2026-01-03 23:48:05.19	177.76	74.47	-50.0	-53.5	14.5	0.00e+00	0	43	0	702545920	70	5751
2026-01-03 23:48:06.48	178.53	73.88	-50.6	-54.5	13.4	3.81e-05	0	42	0	704643072	72	5754
2026-01-03 23:48:07.19	178.93	73.56	-50.3	-54.1	13.9	7.00e-07	0	43	0	706740224	72	5481
2026-01-03 23:48:08.49	179.62	72.96	-52.2	-57.9	10.1	2.20e-03	0	43	0	708837376	74	7595
2026-01-03 23:48:09.20	179.98	72.64	-52.7	-59.5	8.2	1.89e-02	0	43	0	709885952	76	8121
2026-01-03 23:48:10.49	180.59	72.05	-51.7	-56.5	11.4	2.37e-03	0	42	0	713031680	75	6079
2026-01-03 23:48:11.21	180.92	71.72	-51.6	-56.4	11.3	2.27e-03	0	42	0	714080256	75	6058
2026-01-03 23:48:12.50	181.47	71.13	-51.4	-55.8	12.2	9.18e-04	0	42	0	716177408	74	5972
2026-01-03 23:48:13.21	181.75	70.81	-51.8	-56.7	11.0	4.22e-04	0	43	0	717225984	74	6629
2026-01-03 23:48:14.50	182.25	70.23	-52.3	-58.0	9.9	4.41e-03	0	43	0	720371712	75	7254
2026-01-03 23:48:15.21	182.51	69.91	-51.1	-55.4	12.5	1.70e-03	0	43	0	721420288	74	5675
2026-01-03 23:48:16.50	182.97	69.32	-47.6	-50.1	17.5	0.00e+00	0	43	0	723517440	67	4638
2026-01-03 23:48:17.22	183.21	69.00	-47.5	-50.0	17.7	0.00e+00	0	42	0	725614592	66	4855
2026-01-03 23:48:18.51	183.62	68.43	-48.0	-50.6	17.1	0.00e+00	0	42	0	727711744	67	4907
2026-01-03 23:48:19.22	183.84	68.11	-48.1	-50.8	16.9	0.00e+00	0	42	0	728760320	67	5020
2026-01-03 23:48:20.51	184.22	67.54	-48.2	-51.0	16.7	0.00e+00	0	42	0	731906048	67	5135
2026-01-03 23:48:21.23	184.42	67.22	-48.9	-51.9	16.1	0.00e+00	0	43	0	732954624	68	5353
2026-01-03 23:48:22.66	184.80	66.59	-47.6	-50.2	17.5	0.00e+00	0	43	0	735051776	67	4685
2026-01-03 23:48:23.38	184.99	66.27	-46.8	-49.2	18.3	0.00e+00	0	43	0	737148928	65	4691
2026-01-03 23:48:24.73	185.32	65.69	-47.1	-49.6	17.9	0.00e+00	0	42	0	739246080	65	4880
2026-01-03 23:48:25.45	185.49	65.37	-46.7	-49.0	18.3	0.00e+00	0	43	0	740294656	65	4597
2026-01-03 23:48:26.74	185.79	64.82	-45.5	-47.6	19.8	1.50e-06	0	43	0	743440384	62	4620
2026-01-03 23:48:27.46	185.94	64.51	-45.2	-47.2	20.2	0.00e+00	0	43	0	744488960	61	4698
2026-01-03 23:48:28.74	186.21	63.96	-46.8	-49.3	18.4	0.00e+00	0	42	0	746586112	64	4984
2026-01-03 23:48:29.46	186.36	63.65	-47.5	-50.2	17.6	0.00e+00	0	43	0	748683264	65	5252
2026-01-03 23:48:30.75	186.62	63.11	-46.6	-49.0	18.6	0.00e+00	0	42	0	750780416	65	4546
2026-01-03 23:48:31.46	186.75	62.81	-46.2	-48.4	19.0	0.00e+00	0	43	0	751828992	64	4516
2026-01-03 23:48:32.75	186.99	62.27	-45.7	-47.8	19.8	0.00e+00	0	42	0	753926144	63	4472
2026-01-03 23:48:33.46	187.11	61.97	-45.7	-47.8	19.7	0.00e+00	0	42	0	756023296	63	4473
2026-01-03 23:48:34.75	187.33	61.44	-47.1	-49.4	18.3	0.00e+00	0	42	0	758120448	64	5087
2026-01-03 23:48:35.58	187.47	61.10	-49.1	-52.0	16.0	0.00e+00	0	42	0	759169024	68	5459
2026-01-03 23:48:36.72	187.66	60.63	-50.7	-54.8	13.0	1.50e-06	0	43	0	761266176	72	5964
2026-01-03 23:48:37.58	187.79	60.28	-50.4	-54.4	13.4	8.23e-05	0	42	0	763363328	72	5666
2026-01-03 23:48:38.73	187.96	59.82	-47.6	-50.1	17.5	0.00e+00	0	43	0	765460480	67	4641
2026-01-03 23:48:39.59	188.09	59.47	-47.0	-49.4	17.9	0.00e+00	0	43	0	767557632	66	4516
2026-01-03 23:48:40.74	188.25	59.01	-47.2	-49.7	17.9	0.00e+00	0	42	0	769654784	65	4946
2026-01-03 23:48:41.60	188.37	58.67	-47.9	-50.6	17.1	0.00e+00	0	42	0	770703360	66	5195
2026-01-03 23:48:42.74	188.53	58.22	-47.3	-49.8	17.8	0.00e+00	0	43	0	772800512	66	4747
2026-01-03 23:48:43.60	188.64	57.88	-48.0	-50.7	17.0	0.00e+00	0	42	0	774897664	66	5273
2026-01-03 23:48:44.75	188.78	57.44	-47.9	-50.6	17.0	0.00e+00	0	43	0	776994816	67	4903
2026-01-03 23:48:45.60	188.89	57.11	-46.2	-48.4	19.0	0.00e+00	0	43	0	778043392	64	4538
2026-01-03 23:48:46.75	189.03	56.67	-44.8	-46.8	20.5	0.00e+00	0	43	0	780140544	61	4481
2026-01-03 23:48:47.61	189.13	56.34	-45.6	-47.7	19.8	0.00e+00	0	43	0	782237696	61	4948
2026-01-03 23:48:48.75	189.26	55.90	-46.8	-49.2	18.2	0.00e+00	0	42	0	784334848	64	4980
2026-01-03 23:48:49.79	189.37	55.51	-46.6	-48.9	18.5	0.00e+00	0	42	0	786432000	65	4529
2026-01-03 23:48:50.97	189.50	55.07	-45.9	-48.0	19.5	0.00e+00	0	43	0	788529152	63	4589
2026-01-03 23:48:51.82	189.59	54.76	-46.5	-48.7	18.9	0.00e+00	0	43	0	789577728	63	4955
2026-01-03 23:48:52.97	189.70	54.33	-47.5	-50.1	17.4	0.00e+00	0	42	0	792723456	66	4919
2026-01-03 23:48:53.83	189.79	54.02	-47.6	-50.2	17.4	0.00e+00	0	42	0	793772032	66	4949
2026-01-03 23:48:54.97	189.90	53.60	-46.6	-49.1	18.4	0.00e+00	0	42	0	795869184	65	4602
2026-01-03 23:48:55.83	189.98	53.29	-46.2	-48.5	19.0	0.00e+00	0	42	0	797966336	64	4557
2026-01-03 23:48:56.97	190.09	52.88	-46.7	-49.0	18.4	0.00e+00	0	42	0	800063488	64	4864
2026-01-03 23:48:57.83	190.16	52.58	-47.5	-50.1	17.6	0.00e+00	0	43	0	801112064	65	5168
2026-01-03 23:48:58.98	190.26	52.17	-48.6	-51.6	16.1	0.00e+00	0	42	0	803209216	67	5517
2026-01-03 23:48:59.84	190.34	51.87	-48.4	-51.5	16.2	0.00e+00	0	43	0	805306368	67	5416
2026-01-03 23:49:00.98	190.44	51.47	-49.1	-52.3	15.7	0.00e+00	0	43	0	807403520	68	5631
2026-01-03 23:49:01.84	190.51	51.17	-49.2	-52.4	15.6	0.00e+00	0	42	0	808452096	69	5347
2026-01-03 23:49:02.99	190.60	50.78	-48.8	-51.7	16.0	0.00e+00	0	43	0	810549248	69	4980
2026-01-03 23:49:03.85	190.67	50.48	-48.1	-50.7	17.2	0.00e+00	0	42	0	812646400	68	4700
2026-01-03 23:49:04.99	190.75	50.10	-47.4	-49.9	17.8	0.00e+00	0	42	0	814743552	66	4813
2026-01-03 23:49:05.85	190.82	49.81	-47.4	-49.9	17.8	0.00e+00	0	42	0	816840704	66	4779
2026-01-03 23:49:07.00	190.90	49.42	-48.1	-50.7	17.0	0.00e+00	0	43	0	818937856	66	5279
2026-01-03 23:49:07.86	190.97	49.14	-48.1	-50.8	16.7	0.00e+00	0	43	0	819986432	67	5026
2026-01-03 23:49:09.01	191.05	48.76	-50.1	-53.8	14.1	0.00e+00	0	42	0	822083584	70	5932
2026-01-03 23:49:09.87	191.11	48.48	-51.6	-56.6	11.2	5.20e-04	0	42	0	824180736	74	6560
2026-01-03 23:49:11.01	191.19	48.11	-50.7	-54.9	12.9	4.54e-04	0	42	0	826277888	73	5702
2026-01-03 23:49:11.87	191.24	47.83	-48.9	-52.0	15.7	0.00e+00	0	43	0	827326464	69	5125
2026-01-03 23:49:13.08	191.32	47.44	-46.4	-48.7	18.8	0.00e+00	0	42	0	829423616	64	4660
2026-01-03 23:49:13.94	191.38	47.17	-45.8	-47.9	19.6	0.00e+00	0	43	0	831520768	63	4511
2026-01-03 23:49:15.08	191.45	46.81	-45.9	-48.1	19.5	0.00e+00	0	43	0	833617920	63	4621
2026-01-03 23:49:15.94	191.50	46.54	-46.8	-49.1	18.5	0.00e+00	0	43	0	835715072	64	4901
2026-01-03 23:49:17.09	191.57	46.19	-47.4	-49.9	17.8	0.00e+00	0	43	0	837812224	65	5053
2026-01-03 23:49:17.95	191.62	45.92	-47.9	-50.6	17.1	0.00e+00	0	43	0	838860800	66	5198
2026-01-03 23:49:19.09	191.69	45.57	-48.3	-51.2	16.7	0.00e+00	0	42	0	840957952	67	5252
2026-01-03 23:49:20.09	191.75	45.27	-48.5	-51.5	16.2	0.00e+00	0	43	0	843055104	67	5434
2026-01-03 23:49:21.27	191.82	44.92	-47.8	-50.6	17.0	0.00e+00	0	42	0	845152256	67	4883
2026-01-03 23:49:22.13	191.86	44.66	-47.3	-49.9	17.6	0.00e+00	0	43	0	847249408	66	4771
2026-01-03 23:49:23.49	191.94	44.26	-46.1	-48.3	19.0	0.00e+00	0	42	0	849346560	64	4482
2026-01-03 23:49:24.20	191.97	44.05	-45.3	-47.3	20.1	0.00e+00	0	42	0	850395136	62	4467
2026-01-03 23:49:25.49	192.04	43.67	-44.9	-46.9	20.4	0.00e+00	0	43	0	853540864	61	4517
2026-01-03 23:49:26.21	192.08	43.46	-45.0	-46.9	20.4	0.00e+00	0	43	0	854589440	61	4545
2026-01-03 23:49:27.50	192.14	43.09	-45.6	-47.7	19.6	0.00e+00	0	43	0	856686592	62	4685
2026-01-03 23:49:28.21	192.18	42.89	-45.9	-48.0	19.5	0.00e+00	0	42	0	858783744	62	4850
2026-01-03 23:49:29.50	192.24	42.53	-47.9	-50.6	17.2	0.00e+00	0	43	0	860880896	66	5180
2026-01-03 23:49:30.22	192.28	42.32	-49.0	-52.1	16.0	0.00e+00	0	43	0	861929472	68	5483
2026-01-03 23:49:31.50	192.34	41.97	-50.3	-54.3	13.7	3.00e-06	0	43	0	864026624	71	5988
2026-01-03 23:49:32.22	192.37	41.77	-49.8	-53.5	14.3	4.50e-06	0	42	0	866123776	71	5426
2026-01-03 23:49:33.51	192.43	41.41	-49.1	-52.3	15.6	0.00e+00	0	42	0	868220928	70	4984
2026-01-03 23:49:34.22	192.46	41.22	-47.4	-50.0	17.3	1.44e-05	0	42	0	869269504	66	4858
2026-01-03 23:49:35.67	192.53	40.83	-46.3	-48.6	18.6	0.00e+00	0	42	0	872415232	64	4649
2026-01-03 23:49:36.38	192.56	40.64	-46.1	-48.3	19.0	0.00e+00	0	42	0	873463808	64	4492
2026-01-03 23:49:37.71	192.61	40.28	-45.9	-48.1	19.3	0.00e+00	0	43	0	876609536	63	4620
2026-01-03 23:49:38.43	192.65	40.09	-46.6	-48.9	18.6	0.00e+00	0	43	0	877658112	64	4780
2026-01-03 23:49:39.81	192.70	39.73	-47.9	-50.5	17.1	0.00e+00	0	43	0	879755264	66	5138
2026-01-03 23:49:40.53	192.73	39.54	-48.7	-51.6	16.1	0.00e+00	0	43	0	881852416	68	5181
2026-01-03 23:49:41.82	192.78	39.21	-49.9	-53.4	14.4	0.00e+00	0	42	0	883949568	70	5722
2026-01-03 23:49:42.54	192.81	39.03	-50.9	-55.1	12.7	5.11e-05	0	43	0	884998144	72	6175
2026-01-03 23:49:43.82	192.86	38.70	-52.0	-57.6	10.3	4.08e-03	0	43	0	887095296	74	7364
2026-01-03 23:49:44.54	192.89	38.52	-52.6	-59.5	8.3	8.07e-03	0	42	0	889192448	75	8593
2026-01-03 23:49:45.82	192.94	38.20	-52.8	-60.1	7.8	1.48e-01	0	43	0	891289600	76	8713
2026-01-03 23:49:46.54	192.97	38.02	-52.7	-59.8	7.9	1.36e-01	0	42	0	892338176	76	8376
2026-01-03 23:49:47.83	193.02	37.70	-51.3	-56.0	11.5	5.75e-03	0	43	0	895483904	74	6129
2026-01-03 23:49:48.55	193.04	37.52	-50.5	-54.6	12.9	7.40e-05	0	42	0	896532480	72	5806
2026-01-03 23:49:49.84	193.09	37.21	-49.4	-52.7	15.0	3.00e-06	0	42	0	898629632	70	5234
2026-01-03 23:49:50.65	193.12	37.01	-48.8	-51.7	16.0	0.00e+00	0	43	0	900726784	69	4935
2026-01-03 23:49:52.11	193.17	36.66	-48.9	-51.8	16.2	0.00e+00	0	42	0	902823936	68	5307
2026-01-03 23:49:52.83	193.19	36.49	-47.8	-50.4	17.2	0.00e+00	0	43	0	904921088	67	4770
2026-01-03 23:49:54.12	193.24	36.19	-48.3	-51.1	16.5	0.00e+00	0	42	0	907018240	67	5187
2026-01-03 23:49:54.83	193.26	36.02	-49.6	-52.8	15.2	0.00e+00	0	43	0	908066816	69	5635
2026-01-03 23:49:56.12	193.30	35.72	-50.5	-54.3	13.5	1.44e-05	0	43	0	910163968	72	5652
2026-01-03 23:49:56.86	193.33	35.55	-51.1	-55.4	12.4	2.44e-05	0	43	0	912261120	73	6042
2026-01-03 23:49:58.14	193.37	35.26	-52.0	-57.6	10.0	1.28e-03	0	43	0	914358272	74	7370
2026-01-03 23:49:58.95	193.40	35.07	-52.4	-58.7	9.0	1.65e-02	0	42	0	916455424	75	7850
2026-01-03 23:50:00.10	193.43	34.81	-52.6	-59.5	8.1	3.00e-02	0	43	0	918552576	75	8647
2026-01-03 23:50:01.20	193.47	34.57	-52.9	-60.7	6.9	1.44e-01	0	43	0	920649728	76	9359
2026-01-03 23:50:02.24	193.50	34.34	-52.9	-60.9	6.9	2.51e-01	0	43	0	921698304	76	9567
2026-01-03 23:50:03.23	193.53	34.12	-52.9	-60.8	6.8	1.30e-01	0	43	0	923795456	76	9494
2026-01-03 23:50:04.44	193.56	33.85	-52.3	-58.8	8.7	4.40e-02	0	43	0	925892608	76	7512
2026-01-03 23:50:05.33	193.59	33.66	-51.6	-56.9	10.6	1.09e-02	0	42	0	927989760	75	6398
2026-01-03 23:50:06.48	193.62	33.41	-51.5	-56.7	10.9	4.09e-03	0	43	0	930086912	74	6603
2026-01-03 23:50:07.33	193.65	33.23	-51.5	-56.5	11.3	1.21e-03	0	43	0	931135488	74	6464
2026-01-03 23:50:08.48	193.68	32.98	-50.9	-55.4	12.4	3.07e-04	0	43	0	934281216	73	6005
2026-01-03 23:50:09.34	193.71	32.80	-50.6	-54.6	13.2	4.50e-05	0	43	0	935329792	72	5846
2026-01-03 23:50:10.48	193.74	32.56	-50.5	-54.5	13.3	1.14e-05	0	43	0	937426944	72	5740
2026-01-03 23:50:11.34	193.76	32.38	-50.1	-53.8	14.0	7.60e-06	0	43	0	939524096	72	5300
2026-01-03 23:50:12.49	193.79	32.15	-50.1	-53.8	14.0	3.00e-06	0	43	0	941621248	72	5287
2026-01-03 23:50:13.35	193.82	31.97	-49.7	-53.1	14.7	0.00e+00	0	43	0	942669824	71	5197
2026-01-03 23:50:14.49	193.85	31.74	-49.5	-52.8	15.0	0.00e+00	0	43	0	944766976	70	5331
2026-01-03 23:50:15.35	193.87	31.56	-48.9	-52.0	15.8	0.00e+00	0	43	0	946864128	69	5127
2026-01-03 23:50:16.50	193.90	31.33	-48.5	-51.4	16.3	0.00e+00	0	43	0	948961280	69	4790
2026-01-03 23:50:17.35	193.92	31.16	-48.6	-51.4	16.3	0.00e+00	0	43	0	950009856	69	4800
2026-01-03 23:50:18.50	193.95	30.93	-48.6	-51.4	16.4	0.00e+00	0	43	0	953155584	68	5099
2026-01-03 23:50:19.36	193.97	30.76	-48.3	-51.0	16.8	0.00e+00	0	43	0	954204160	68	4819
2026-01-03 23:50:20.50	194.00	30.54	-48.3	-51.1	16.7	0.00e+00	0	43	0	956301312	68	4878
2026-01-03 23:50:21.36	194.02	30.37	-48.9	-51.8	16.2	0.00e+00	0	43	0	958398464	68	5332
2026-01-03 23:50:22.51	194.05	30.15	-49.1	-52.3	15.5	0.00e+00	0	43	0	960495616	69	5287
2026-01-03 23:50:23.37	194.07	29.98	-49.5	-52.9	14.9	0.00e+00	0	43	0	961544192	69	5696
2026-01-03 23:50:24.51	194.10	29.77	-50.1	-53.9	13.9	7.00e-07	0	43	0	963641344	70	6040
2026-01-03 23:50:25.37	194.12	29.60	-50.5	-54.5	13.4	8.30e-06	0	43	0	965738496	71	6102
2026-01-03 23:50:26.52	194.15	29.39	-50.9	-55.3	12.5	4.34e-05	0	43	0	967835648	72	6314
2026-01-03 23:50:27.38	194.17	29.23	-51.2	-56.0	11.7	1.10e-04	0	43	0	968884224	73	6478
2026-01-03 23:50:28.52	194.19	29.01	-51.3	-56.2	11.6	4.00e-04	0	43	0	970981376	73	6571
2026-01-03 23:50:29.38	194.21	28.85	-50.9	-55.4	12.3	3.19e-04	0	43	0	973078528	73	6040
2026-01-03 23:50:30.53	194.24	28.64	-50.4	-54.3	13.4	7.78e-05	0	43	0	975175680	72	5641
2026-01-03 23:50:31.39	194.26	28.49	-49.7	-53.3	14.5	5.30e-06	0	43	0	976224256	71	5281
2026-01-03 23:50:32.54	194.28	28.28	-49.0	-52.1	15.7	0.00e+00	0	43	0	979369984	70	4921
2026-01-03 23:50:33.40	194.30	28.12	-48.5	-51.5	16.3	0.00e+00	0	43	0	980418560	68	5125
2026-01-03 23:50:34.54	194.33	27.92	-47.6	-50.3	17.2	0.00e+00	0	43	0	982515712	67	4733
2026-01-03 23:50:35.40	194.34	27.77	-46.9	-49.4	18.0	0.00e+00	0	43	0	984612864	65	4783
2026-01-03 23:50:36.54	194.37	27.57	-46.7	-49.2	18.1	0.00e+00	0	43	0	986710016	65	4689
2026-01-03 23:50:37.40	194.39	27.42	-46.6	-49.1	18.2	0.00e+00	0	43	0	987758592	65	4621
2026-01-03 23:50:38.54	194.41	27.22	-46.8	-49.3	18.0	0.00e+00	0	43	0	989855744	65	4717
2026-01-03 23:50:39.40	194.43	27.07	-46.8	-49.3	18.1	0.00e+00	0	43	0	991952896	65	4726
2026-01-03 23:50:40.55	194.45	26.87	-46.9	-49.3	18.0	0.00e+00	0	43	0	994050048	65	4748
2026-01-03 23:50:41.41	194.47	26.72	-47.0	-49.5	17.9	0.00e+00	0	43	0	995098624	65	4831
2026-01-03 23:50:42.55	194.49	26.53	-47.1	-49.6	17.9	0.00e+00	0	42	0	998244352	65	4916
2026-01-03 23:50:43.41	194.51	26.39	-47.2	-49.7	17.8	0.00e+00	0	42	0	999292928	65	4932
2026-01-03 23:50:44.64	194.53	26.18	-47.0	-49.5	18.0	0.00e+00	0	43	0	1001390080	65	4833
2026-01-03 23:50:45.50	194.55	26.04	-47.1	-49.5	17.9	0.00e+00	0	43	0	1003487232	65	4859
2026-01-03 23:50:46.64	194.57	25.85	-46.8	-49.2	18.2	0.00e+00	0	43	0	1005584384	65	4705
2026-01-03 23:50:47.50	194.59	25.71	-46.8	-49.2	18.2	0.00e+00	0	43	0	1006632960	65	4682
2026-01-03 23:50:48.65	194.61	25.52	-47.1	-49.6	17.9	0.00e+00	0	43	0	1008730112	65	4887
2026-01-03 23:50:49.58	194.63	25.37	-46.9	-49.3	18.1	0.00e+00	0	42	0	1010827264	65	4726
2026-01-03 23:50:50.76	194.65	25.18	-46.9	-49.3	18.1	0.00e+00	0	42	0	1012924416	65	4732
2026-01-03 23:50:51.62	194.67	25.04	-46.7	-49.0	18.3	0.00e+00	0	43	0	1015021568	65	4595
2026-01-03 23:50:52.97	194.69	24.82	-46.9	-49.3	18.1	0.00e+00	0	43	0	1017118720	65	4729
2026-01-03 23:50:53.69	194.71	24.71	-46.6	-48.9	18.4	0.00e+00	0	43	0	1018167296	65	4539
2026-01-03 23:50:54.97	194.73	24.51	-46.4	-48.7	18.6	0.00e+00	0	43	0	1021313024	64	4684
2026-01-03 23:50:55.69	194.74	24.40	-46.5	-48.9	18.6	0.00e+00	0	43	0	1022361600	64	4764
2026-01-03 23:50:57.24	194.77	24.15	-46.4	-48.8	18.6	0.00e+00	0	43	0	1025507328	64	4717
2026-01-03 23:50:58.24	194.79	24.00	-46.3	-48.6	18.8	0.00e+00	0	43	0	1027604480	64	4619
2026-01-03 23:50:59.24	194.80	23.85	-46.4	-48.8	18.7	0.00e+00	0	43	0	1028653056	64	4709
2026-01-03 23:51:00.25	194.82	23.69	-46.6	-48.9	18.5	0.00e+00	0	43	0	1030750208	64	4798
2026-01-03 23:51:01.25	194.84	23.54	-46.5	-48.9	18.5	0.00e+00	0	42	0	1032847360	64	4774
2026-01-03 23:51:02.26	194.86	23.39	-46.6	-48.9	18.5	0.00e+00	0	43	0	1034944512	64	4802
2026-01-03 23:51:03.26	194.87	23.24	-46.5	-48.9	18.5	0.00e+00	0	43	0	1037041664	64	4791
2026-01-03 23:51:04.26	194.89	23.09	-46.4	-48.7	18.8	0.00e+00	0	43	0	1038090240	64	4681
2026-01-03 23:51:05.26	194.91	22.94	-46.4	-48.7	18.7	0.00e+00	0	43	0	1040187392	64	4705
2026-01-03 23:51:06.34	194.92	22.78	-46.0	-48.3	19.0	0.00e+00	0	43	0	1042284544	64	4459
2026-01-03 23:51:07.23	194.94	22.65	-46.1	-48.4	19.1	0.00e+00	0	43	0	1044381696	63	4763
2026-01-03 23:51:08.37	194.96	22.49	-46.0	-48.3	19.1	0.00e+00	0	43	0	1046478848	63	4723
2026-01-03 23:51:09.23	194.97	22.36	-45.9	-48.1	19.1	0.00e+00	0	43	0	1047527424	63	4630
2026-01-03 23:51:10.60	194.99	22.17	-45.9	-48.2	19.1	0.00e+00	0	43	0	1050673152	63	4664
2026-01-03 23:51:11.32	195.00	22.06	-45.8	-48.0	19.2	0.00e+00	0	43	0	1051721728	63	4574
2026-01-03 23:51:12.60	195.02	21.88	-45.8	-48.0	19.3	0.00e+00	0	42	0	1053818880	63	4571
2026-01-03 23:51:13.32	195.04	21.78	-46.1	-48.4	19.0	0.00e+00	0	43	0	1054867456	63	4769
2026-01-03 23:51:14.61	195.06	21.60	-45.8	-48.0	19.2	0.00e+00	0	43	0	1058013184	63	4596
2026-01-03 23:51:15.32	195.07	21.50	-45.9	-48.2	19.2	0.00e+00	0	43	0	1059061760	63	4669
2026-01-03 23:51:16.61	195.09	21.32	-46.1	-48.4	19.0	0.00e+00	0	43	0	1061158912	63	4812
2026-01-03 23:51:17.32	195.10	21.22	-46.1	-48.4	18.9	0.00e+00	0	43	0	1063256064	63	4807
2026-01-03 23:51:18.61	195.12	21.04	-46.5	-48.8	18.6	0.00e+00	0	43	0	1065353216	63	5031
2026-01-03 23:51:19.33	195.13	20.95	-46.5	-48.9	18.4	0.00e+00	0	43	0	1066401792	64	4810
2026-01-03 23:51:20.62	195.15	20.77	-46.9	-49.4	18.0	0.00e+00	0	43	0	1069547520	64	5071
2026-01-03 23:51:21.60	195.16	20.64	-47.0	-49.5	17.9	0.00e+00	0	43	0	1070596096	64	5145
2026-01-03 23:51:22.60	195.18	20.50	-47.2	-49.8	17.6	0.00e+00	0	43	0	1072693248	65	5009
2026-01-03 23:51:23.61	195.19	20.37	-47.1	-49.8	17.5	0.00e+00	0	43	0	1074790400	65	4993
2026-01-03 23:51:24.61	195.21	20.24	-47.4	-50.1	17.2	0.00e+00	0	43	0	1076887552	65	5215
2026-01-03 23:51:25.61	195.22	20.10	-47.7	-50.5	16.8	0.00e+00	0	43	0	1077936128	66	5129
2026-01-03 23:51:26.61	195.23	19.97	-47.7	-50.5	16.9	0.00e+00	0	43	0	1080033280	66	5110
2026-01-03 23:51:27.61	195.25	19.84	-47.9	-50.8	16.7	0.00e+00	0	43	0	1082130432	66	5301
2026-01-03 23:51:28.62	195.26	19.71	-48.1	-51.0	16.5	0.00e+00	0	43	0	1084227584	66	5450
2026-01-03 23:51:29.62	195.28	19.58	-48.1	-51.1	16.5	0.00e+00	0	43	0	1086324736	66	5467
2026-01-03 23:51:30.62	195.29	19.45	-48.1	-51.0	16.5	0.00e+00	0	43	0	1087373312	66	5460
2026-01-03 23:51:31.71	195.31	19.31	-48.0	-50.9	16.5	0.00e+00	0	43	0	1089470464	67	5090
2026-01-03 23:51:32.63	195.32	19.19	-48.0	-50.9	16.4	0.00e+00	0	43	0	1091567616	67	5091
2026-01-03 23:51:33.64	195.33	19.07	-48.2	-51.2	16.2	0.00e+00	0	43	0	1093664768	67	5261
2026-01-03 23:51:34.64	195.35	18.94	-48.1	-51.0	16.5	0.00e+00	0	43	0	1095761920	67	5138
2026-01-03 23:51:35.64	195.36	18.81	-48.1	-51.1	16.3	0.00e+00	0	43	0	1096810496	67	5188
2026-01-03 23:51:36.64	195.37	18.69	-48.2	-51.2	16.2	0.00e+00	0	43	0	1098907648	67	5260
2026-01-03 23:51:37.64	195.39	18.56	-48.0	-51.0	16.4	0.00e+00	0	43	0	1101004800	67	5102
2026-01-03 23:51:38.64	195.40	18.44	-48.1	-51.1	16.3	0.00e+00	0	42	0	1103101952	67	5177
2026-01-03 23:51:39.65	195.41	18.32	-48.1	-51.0	16.4	0.00e+00	0	43	0	1105199104	67	5151
2026-01-03 23:51:40.65	195.42	18.19	-48.1	-51.0	16.4	0.00e+00	0	43	0	1106247680	67	5145
2026-01-03 23:51:41.65	195.44	18.07	-48.2	-51.2	16.3	0.00e+00	0	43	0	1108344832	67	5240
2026-01-03 23:51:42.66	195.45	17.95	-47.9	-50.7	16.7	0.00e+00	0	42	0	1110441984	67	4981
2026-01-03 23:51:43.65	195.46	17.83	-47.7	-50.4	17.0	0.00e+00	0	43	0	1112539136	67	4805
2026-01-03 23:51:44.66	195.48	17.71	-47.9	-50.7	16.7	0.00e+00	0	43	0	1114636288	67	4957
2026-01-03 23:51:45.66	195.49	17.59	-47.5	-50.3	17.1	0.00e+00	0	43	0	1115684864	66	5006
2026-01-03 23:51:46.66	195.50	17.47	-47.5	-50.3	17.0	0.00e+00	0	43	0	1117782016	66	5007
2026-01-03 23:51:47.90	195.52	17.32	-47.5	-50.3	17.0	0.00e+00	0	43	0	1119879168	66	5008
2026-01-03 23:51:48.76	195.53	17.22	-47.7	-50.5	16.9	0.00e+00	0	43	0	1121976320	66	5150
2026-01-03 23:51:50.09	195.54	17.07	-47.8	-50.6	16.9	0.00e+00	0	43	0	1124073472	66	5205
2026-01-03 23:51:50.80	195.55	16.98	-47.8	-50.7	16.8	0.00e+00	0	43	0	1126170624	66	5249
2026-01-03 23:51:52.10	195.57	16.83	-47.6	-50.4	17.0	0.00e+00	0	43	0	1128267776	66	5080
2026-01-03 23:51:52.81	195.58	16.75	-47.6	-50.4	17.0	0.00e+00	0	43	0	1129316352	66	5075
2026-01-03 23:51:54.10	195.59	16.60	-47.7	-50.5	16.9	0.00e+00	0	43	0	1131413504	66	5139
2026-01-03 23:51:54.88	195.60	16.51	-47.8	-50.6	16.9	0.00e+00	0	43	0	1133510656	66	5193
2026-01-03 23:51:56.16	195.62	16.37	-47.7	-50.5	17.0	0.00e+00	0	43	0	1135607808	66	5107
2026-01-03 23:51:56.98	195.63	16.28	-47.6	-50.4	17.1	0.00e+00	0	43	0	1137704960	66	5042
2026-01-03 23:51:58.13	195.64	16.15	-47.7	-50.4	17.0	0.00e+00	0	43	0	1139802112	66	5095
2026-01-03 23:51:59.22	195.65	16.02	-47.6	-50.4	17.1	0.00e+00	0	43	0	1141899264	66	5087
2026-01-03 23:52:00.09	195.66	15.93	-47.9	-50.8	16.7	0.00e+00	0	43	0	1142947840	66	5283
2026-01-03 23:52:01.58	195.68	15.76	-48.0	-50.9	16.5	0.00e+00	0	43	0	1146093568	66	5390
2026-01-03 23:52:02.30	195.69	15.68	-47.9	-50.9	16.4	0.00e+00	0	43	0	1147142144	66	5370
2026-01-03 23:52:03.59	195.70	15.54	-48.3	-51.3	16.1	0.00e+00	0	43	0	1149239296	67	5330
2026-01-03 23:52:04.30	195.71	15.46	-48.3	-51.4	16.1	0.00e+00	0	43	0	1151336448	67	5370
2026-01-03 23:52:05.59	195.73	15.32	-48.4	-51.4	16.1	0.00e+00	0	43	0	1153433600	67	5392
2026-01-03 23:52:06.30	195.73	15.24	-48.4	-51.4	16.1	0.00e+00	0	43	0	1154482176	67	5402
2026-01-03 23:52:07.59	195.75	15.11	-48.2	-51.3	16.0	0.00e+00	0	43	0	1157627904	67	5298
2026-01-03 23:52:08.31	195.76	15.03	-48.2	-51.3	16.1	0.00e+00	0	43	0	1158676480	67	5310
2026-01-03 23:52:09.60	195.77	14.89	-48.4	-51.5	15.9	0.00e+00	0	43	0	1160773632	67	5421
2026-01-03 23:52:10.49	195.78	14.80	-48.3	-51.4	16.0	0.00e+00	0	43	0	1162870784	67	5375
2026-01-03 23:52:11.63	195.79	14.67	-48.3	-51.3	16.0	0.00e+00	0	43	0	1164967936	67	5337
2026-01-03 23:52:12.70	195.80	14.56	-48.5	-51.6	15.8	2.20e-06	0	43	0	1167065088	67	5516
2026-01-03 23:52:13.56	195.81	14.47	-48.3	-51.4	16.0	0.00e+00	0	43	0	1168113664	67	5347
2026-01-03 23:52:14.70	195.83	14.35	-48.5	-51.7	15.7	0.00e+00	0	43	0	1170210816	67	5561
2026-01-03 23:52:15.80	195.84	14.24	-48.5	-51.7	15.7	0.00e+00	0	43	0	1172307968	67	5557
2026-01-03 23:52:16.84	195.85	14.13	-48.4	-51.6	15.8	0.00e+00	0	43	0	1174405120	67	5483
2026-01-03 23:52:17.83	195.86	14.03	-48.5	-51.8	15.7	0.00e+00	0	43	0	1176502272	67	5594
2026-01-03 23:52:18.84	195.87	13.92	-48.4	-51.5	15.9	0.00e+00	0	42	0	1178599424	67	5451
2026-01-03 23:52:19.84	195.88	13.82	-48.4	-51.6	15.8	0.00e+00	0	43	0	1179648000	67	5475
2026-01-03 23:52:20.84	195.89	13.72	-48.3	-51.4	16.0	0.00e+00	0	43	0	1181745152	67	5376
2026-01-03 23:52:21.85	195.90	13.62	-48.2	-51.2	16.2	0.00e+00	0	43	0	1183842304	67	5266
2026-01-03 23:52:22.84	195.91	13.52	-48.3	-51.3	16.3	0.00e+00	0	42	0	1185939456	67	5282
2026-01-03 23:52:23.85	195.92	13.42	-48.0	-50.9	16.5	0.00e+00	0	43	0	1188036608	67	5065
2026-01-03 23:52:24.85	195.93	13.31	-48.0	-50.9	16.5	0.00e+00	0	43	0	1189085184	67	5098
2026-01-03 23:52:25.86	195.94	13.21	-47.9	-50.9	16.5	0.00e+00	0	43	0	1191182336	67	5064
2026-01-03 23:52:26.86	195.95	13.11	-47.8	-50.6	16.8	0.00e+00	0	43	0	1193279488	67	4920
2026-01-03 23:52:27.91	195.96	13.01	-47.7	-50.6	16.8	0.00e+00	0	43	0	1195376640	67	4885
2026-01-03 23:52:28.85	195.97	12.92	-47.7	-50.6	16.8	0.00e+00	0	43	0	1197473792	67	4909
2026-01-03 23:52:30.00	195.98	12.81	-47.6	-50.4	16.9	0.00e+00	0	43	0	1199570944	67	4783
2026-01-03 23:52:30.86	195.99	12.72	-47.4	-50.2	17.0	0.00e+00	0	43	0	1200619520	66	4959
2026-01-03 23:52:32.00	196.00	12.61	-47.4	-50.2	17.0	0.00e+00	0	43	0	1202716672	66	4956
2026-01-03 23:52:32.86	196.01	12.53	-47.4	-50.2	17.1	0.00e+00	0	43	0	1204813824	66	4946
2026-01-03 23:52:34.01	196.02	12.42	-47.4	-50.2	17.1	0.00e+00	0	43	0	1206910976	66	4940
2026-01-03 23:52:34.87	196.03	12.33	-47.3	-50.1	17.2	0.00e+00	0	43	0	1207959552	66	4900
2026-01-03 23:52:36.01	196.04	12.22	-47.4	-50.2	17.1	0.00e+00	0	43	0	1210056704	66	4934
2026-01-03 23:52:36.87	196.05	12.14	-47.4	-50.2	17.2	0.00e+00	0	43	0	1212153856	66	4928
2026-01-03 23:52:38.01	196.06	12.03	-47.5	-50.3	17.0	0.00e+00	0	43	0	1214251008	66	5003
2026-01-03 23:52:38.87	196.07	11.95	-47.4	-50.2	17.0	0.00e+00	0	43	0	1215299584	66	4968
2026-01-03 23:52:40.10	196.08	11.84	-47.3	-50.1	17.2	0.00e+00	0	43	0	1218445312	66	4878
2026-01-03 23:52:40.96	196.09	11.75	-47.4	-50.2	17.1	0.00e+00	0	43	0	1219493888	66	4941
2026-01-03 23:52:42.11	196.10	11.65	-47.5	-50.3	17.0	0.00e+00	0	43	0	1221591040	66	5032
2026-01-03 23:52:42.97	196.11	11.57	-47.3	-50.1	17.2	0.00e+00	0	43	0	1223688192	66	4901
2026-01-03 23:52:44.12	196.12	11.46	-47.5	-50.4	17.0	0.00e+00	0	43	0	1225785344	66	5046
2026-01-03 23:52:45.01	196.13	11.38	-47.6	-50.5	16.9	0.00e+00	0	43	0	1226833920	66	5119
2026-01-03 23:52:46.15	196.14	11.27	-47.5	-50.3	16.9	0.00e+00	0	43	0	1229979648	66	5026
2026-01-03 23:52:47.09	196.15	11.19	-47.4	-50.3	17.0	0.00e+00	0	43	0	1231028224	66	5001
2026-01-03 23:52:48.28	196.16	11.08	-47.3	-50.1	17.1	0.00e+00	0	43	0	1233125376	66	4902
2026-01-03 23:52:49.14	196.16	11.00	-47.3	-50.1	17.1	0.00e+00	0	43	0	1235222528	66	4919
2026-01-03 23:52:50.49	196.18	10.88	-47.3	-50.1	17.1	0.00e+00	0	43	0	1237319680	66	4925
2026-01-03 23:52:51.21	196.18	10.81	-47.4	-50.4	16.9	0.00e+00	0	43	0	1239416832	66	5055
2026-01-03 23:52:52.50	196.19	10.70	-47.3	-50.2	17.1	0.00e+00	0	43	0	1241513984	66	4950
