passes_logs/2026/01/03/T1/T1__20260103_115406_NOAA_20_JPSS-1_rec.log

#Pass ID: 20260103_115406_NOAA 20 (JPSS-1)
#Satellite: NOAA 20 (JPSS-1)
#Configuration: NOAA 20
#almurnet v.1.7.20251203
#Start time: 2026-01-03 11:54:08

#Version: 2.0.20230620
#Station: T1
#Location: 37.570604 lon 55.790049 lat
#TLE: 1 43013U 17073A   26002.92460628  .00000184  00000+0  10833-3 0  9996
#TLE: 2 43013  98.7623 303.9923 0001887  56.9179 303.2178 14.19532741421028

#Time	Az	El	Level	Level2	SNR	BER	BlckErr	Temp	State	Recorded	gain1	gain2
2026-01-03 11:54:08.03	227.56	5.07	-52.6	-68.0	3.8	1.49e+00	0	39	0	0	77	20465
2026-01-03 11:54:09.03	227.67	5.12	-52.7	-68.0	3.8	1.49e+00	0	39	104	0	77	20386
2026-01-03 11:54:10.03	227.78	5.17	-52.7	-68.0	3.8	1.49e+00	0	39	104	0	77	20407
2026-01-03 11:54:11.04	227.89	5.22	-52.7	-68.0	3.8	1.49e+00	0	39	104	0	77	20393
2026-01-03 11:54:12.04	228.00	5.27	-52.7	-68.1	3.8	1.49e+00	0	39	104	0	77	20606
2026-01-03 11:54:13.04	228.11	5.32	-52.7	-68.0	3.8	1.49e+00	0	39	104	0	77	20510
2026-01-03 11:54:14.05	228.22	5.37	-52.7	-68.1	3.8	1.49e+00	0	39	104	0	77	20555
2026-01-03 11:54:15.05	228.34	5.42	-52.7	-68.0	3.8	1.49e+00	0	40	104	0	77	20353
2026-01-03 11:54:16.06	228.45	5.47	-52.7	-68.1	3.8	1.49e+00	0	40	104	0	77	20597
2026-01-03 11:54:17.06	228.56	5.52	-52.7	-68.0	3.8	1.49e+00	0	40	104	0	77	20436
2026-01-03 11:54:18.07	228.67	5.57	-52.7	-68.0	3.8	1.49e+00	0	39	104	0	77	20451
2026-01-03 11:54:19.07	228.79	5.62	-52.7	-68.0	3.8	1.49e+00	0	40	104	0	77	20425
2026-01-03 11:54:20.08	228.90	5.67	-52.7	-68.0	3.8	1.49e+00	0	40	104	0	77	20401
2026-01-03 11:54:21.08	229.02	5.72	-52.7	-68.0	3.8	1.49e+00	0	40	104	0	77	20431
2026-01-03 11:54:22.09	229.13	5.77	-52.7	-68.0	3.8	1.49e+00	0	40	104	0	77	20525
2026-01-03 11:54:23.09	229.25	5.82	-52.7	-68.0	3.8	1.49e+00	0	40	104	0	77	20478
2026-01-03 11:54:24.09	229.36	5.87	-52.7	-68.0	3.8	1.49e+00	0	40	104	0	77	20389
2026-01-03 11:54:25.10	229.48	5.93	-52.7	-68.0	3.8	1.49e+00	0	40	104	0	77	20357
2026-01-03 11:54:26.10	229.59	5.98	-52.7	-68.0	3.8	1.49e+00	0	40	104	0	77	20496
2026-01-03 11:54:27.11	229.71	6.03	-52.7	-68.0	3.8	1.49e+00	0	40	104	0	77	20395
2026-01-03 11:54:28.11	229.83	6.08	-52.6	-68.0	3.8	1.49e+00	0	40	104	0	77	20360
2026-01-03 11:54:29.12	229.95	6.13	-52.7	-68.0	3.8	1.49e+00	0	40	104	0	77	20424
2026-01-03 11:54:30.12	230.06	6.18	-52.7	-68.0	3.8	1.49e+00	0	40	104	0	77	20365
2026-01-03 11:54:31.12	230.18	6.23	-52.7	-67.9	3.8	1.49e+00	0	40	104	0	77	20301
2026-01-03 11:54:32.13	230.30	6.28	-52.6	-68.0	3.8	1.49e+00	0	40	104	0	77	20338
2026-01-03 11:54:33.13	230.42	6.33	-52.7	-68.0	3.8	1.49e+00	0	40	104	0	77	20394
2026-01-03 11:54:34.14	230.54	6.38	-52.6	-67.9	3.8	1.49e+00	0	40	104	0	77	20205
2026-01-03 11:54:35.14	230.66	6.43	-52.7	-67.9	3.8	1.49e+00	0	40	104	0	77	20249
2026-01-03 11:54:36.14	230.78	6.48	-52.7	-68.0	3.8	1.49e+00	0	40	104	0	77	20358
2026-01-03 11:54:37.15	230.90	6.53	-52.6	-68.0	3.8	1.49e+00	0	40	104	0	77	20374
2026-01-03 11:54:38.15	231.02	6.58	-52.7	-68.0	3.8	1.49e+00	0	40	104	0	77	20465
2026-01-03 11:54:39.16	231.14	6.63	-52.7	-68.0	3.8	1.49e+00	0	40	104	0	77	20360
2026-01-03 11:54:40.16	231.26	6.68	-52.7	-68.0	3.8	1.49e+00	0	40	104	0	77	20450
2026-01-03 11:54:41.17	231.39	6.73	-52.7	-68.0	3.8	1.49e+00	0	40	104	0	77	20365
2026-01-03 11:54:42.17	231.51	6.78	-52.7	-68.0	3.8	1.49e+00	0	40	104	0	77	20369
2026-01-03 11:54:43.18	231.63	6.83	-52.7	-67.9	3.8	1.49e+00	0	41	104	0	77	20274
2026-01-03 11:54:44.18	231.76	6.88	-52.7	-68.0	3.8	1.49e+00	0	40	104	0	77	20420
2026-01-03 11:54:45.18	231.88	6.94	-52.7	-67.9	3.8	1.49e+00	0	40	104	0	77	20248
2026-01-03 11:54:46.19	232.01	6.99	-52.7	-68.0	3.8	1.49e+00	0	41	104	0	77	20320
2026-01-03 11:54:47.19	232.13	7.04	-52.7	-67.9	3.8	1.49e+00	0	40	104	0	77	20253
2026-01-03 11:54:48.20	232.26	7.09	-52.7	-67.9	3.8	1.49e+00	0	40	104	0	77	20116
2026-01-03 11:54:49.20	232.38	7.14	-52.7	-67.8	3.8	1.49e+00	0	41	104	0	77	19929
2026-01-03 11:54:50.21	232.51	7.19	-52.7	-67.8	3.8	1.49e+00	0	41	104	0	77	19891
2026-01-03 11:54:51.21	232.63	7.24	-52.7	-67.8	3.8	1.49e+00	0	41	104	0	77	19920
2026-01-03 11:54:52.22	232.76	7.29	-52.7	-67.9	3.8	1.49e+00	0	41	104	0	77	20089
2026-01-03 11:54:53.22	232.89	7.34	-52.7	-67.9	3.8	1.49e+00	0	41	104	0	77	20298
2026-01-03 11:54:54.23	233.02	7.39	-52.7	-68.0	3.8	1.49e+00	0	41	104	0	77	20378
2026-01-03 11:54:55.23	233.14	7.44	-52.7	-68.0	3.8	1.49e+00	0	41	104	0	77	20426
2026-01-03 11:54:56.24	233.27	7.49	-52.7	-68.0	3.8	1.49e+00	0	41	104	0	77	20368
2026-01-03 11:54:57.24	233.40	7.54	-52.7	-68.0	3.8	1.49e+00	0	41	104	0	77	20396
2026-01-03 11:54:58.24	233.53	7.59	-52.7	-68.0	3.8	1.49e+00	0	41	104	0	77	20331
2026-01-03 11:54:59.25	233.66	7.64	-52.7	-67.9	3.8	1.49e+00	0	41	104	0	77	20211
2026-01-03 11:55:00.25	233.79	7.69	-52.7	-67.9	3.8	1.49e+00	0	41	104	0	77	20185
2026-01-03 11:55:01.26	233.92	7.74	-52.7	-67.9	3.8	1.49e+00	0	41	104	0	77	20213
2026-01-03 11:55:02.26	234.05	7.79	-52.7	-68.0	3.8	1.49e+00	0	41	104	0	77	20340
2026-01-03 11:55:03.26	234.18	7.84	-52.7	-67.9	3.8	1.49e+00	0	41	104	0	77	20243
2026-01-03 11:55:04.27	234.32	7.89	-52.7	-67.9	3.8	1.49e+00	0	41	104	0	77	20153
2026-01-03 11:55:05.27	234.45	7.94	-52.7	-67.8	3.8	1.49e+00	0	41	104	0	77	20004
2026-01-03 11:55:06.28	234.58	7.99	-52.6	-67.9	3.8	1.49e+00	0	41	104	0	77	20101
2026-01-03 11:55:07.28	234.72	8.04	-52.7	-68.0	3.8	1.49e+00	0	41	104	0	77	20382
2026-01-03 11:55:08.29	234.85	8.09	-52.7	-67.9	3.8	1.49e+00	0	41	104	0	77	20269
2026-01-03 11:55:09.29	234.98	8.14	-52.7	-67.6	3.8	1.49e+00	0	41	104	0	77	19439
2026-01-03 11:55:10.30	235.12	8.19	-52.6	-67.1	3.8	1.49e+00	0	41	104	0	77	18315
2026-01-03 11:55:11.30	235.25	8.24	-52.6	-66.9	3.8	1.49e+00	0	41	104	0	77	18010
2026-01-03 11:55:12.30	235.39	8.29	-52.7	-67.4	3.8	1.49e+00	0	41	104	0	77	19029
2026-01-03 11:55:13.30	235.52	8.34	-52.7	-67.7	3.8	1.49e+00	0	41	104	0	77	19715
2026-01-03 11:55:14.31	235.66	8.39	-52.6	-65.7	3.8	1.49e+00	0	41	104	0	77	15728
2026-01-03 11:55:15.31	235.80	8.44	-52.2	-61.6	5.4	1.26e+00	0	41	0	1048576	76	10409
2026-01-03 11:55:16.32	235.94	8.49	-51.4	-58.2	8.5	9.68e-02	0	41	0	2097152	74	7820
2026-01-03 11:55:17.32	236.07	8.54	-50.4	-55.5	11.2	6.58e-03	0	41	0	4194304	72	6483
2026-01-03 11:55:18.32	236.21	8.59	-49.6	-53.8	13.1	2.43e-04	0	41	0	6291456	71	5611
2026-01-03 11:55:19.33	236.35	8.64	-49.0	-52.7	14.3	1.50e-06	0	41	0	8388608	70	5222
2026-01-03 11:55:20.33	236.49	8.68	-48.7	-52.2	14.7	0.00e+00	0	41	0	10485760	69	5257
2026-01-03 11:55:21.34	236.63	8.73	-48.7	-52.2	14.7	0.00e+00	0	41	0	11534336	69	5268
2026-01-03 11:55:22.34	236.77	8.78	-49.1	-52.8	14.1	2.20e-06	0	41	0	13631488	69	5652
2026-01-03 11:55:23.35	236.91	8.83	-49.8	-54.0	12.9	2.21e-05	0	41	0	15728640	70	6109
2026-01-03 11:55:24.35	237.05	8.88	-50.6	-55.8	11.1	3.45e-04	0	41	0	17825792	71	7070
2026-01-03 11:55:25.35	237.19	8.93	-51.3	-57.8	9.0	6.07e-03	0	41	0	19922944	73	7924
2026-01-03 11:55:26.36	237.34	8.98	-51.9	-60.0	6.9	1.15e-01	0	41	0	20971520	74	9623
2026-01-03 11:55:27.36	237.48	9.03	-52.2	-61.7	5.5	4.00e-01	0	41	0	23068672	75	11116
2026-01-03 11:55:28.37	237.62	9.08	-52.2	-62.2	5.2	3.69e-01	0	41	0	25165824	75	11756
2026-01-03 11:55:29.37	237.76	9.13	-52.3	-64.7	3.9	1.49e+00	0	41	104	25165824	75	15679
2026-01-03 11:55:30.37	237.91	9.18	-51.9	-59.7	6.9	3.22e-01	0	41	0	26214400	75	8823
2026-01-03 11:55:31.37	238.05	9.22	-51.0	-56.7	10.3	1.54e-04	0	41	0	28311552	72	7405
2026-01-03 11:55:32.38	238.20	9.27	-52.6	-64.5	4.2	1.04e+00	0	41	104	28311552	75	15301
2026-01-03 11:55:33.38	238.34	9.32	-50.1	-54.4	12.6	7.47e-05	0	41	0	29360128	71	5996
2026-01-03 11:55:34.38	238.49	9.37	-50.1	-54.5	12.5	7.01e-05	0	41	0	31457280	71	6095
2026-01-03 11:55:35.38	238.63	9.42	-49.5	-53.4	13.6	6.48e-05	0	41	0	33554432	71	5398
2026-01-03 11:55:36.38	238.78	9.47	-48.9	-52.4	14.7	1.50e-06	0	41	0	34603008	69	5358
2026-01-03 11:55:37.39	238.93	9.51	-48.4	-51.6	15.5	0.00e+00	0	41	0	36700160	68	5193
2026-01-03 11:55:38.39	239.07	9.56	-48.2	-51.2	15.8	0.00e+00	0	41	0	38797312	68	4960
2026-01-03 11:55:39.39	239.22	9.61	-47.6	-50.5	16.5	0.00e+00	0	41	0	40894464	67	4825
2026-01-03 11:55:40.39	239.37	9.66	-47.3	-50.1	16.9	0.00e+00	0	41	0	42991616	66	4874
2026-01-03 11:55:41.40	239.52	9.71	-47.1	-49.8	17.0	0.00e+00	0	41	0	44040192	66	4746
2026-01-03 11:55:42.40	239.67	9.75	-47.0	-49.7	17.2	0.00e+00	0	41	0	46137344	66	4668
2026-01-03 11:55:43.40	239.82	9.80	-46.9	-49.6	17.3	0.00e+00	0	42	0	48234496	65	4912
2026-01-03 11:55:44.41	239.97	9.85	-46.8	-49.5	17.3	0.00e+00	0	41	0	50331648	65	4861
2026-01-03 11:55:45.41	240.12	9.90	-46.7	-49.4	17.4	0.00e+00	0	42	0	52428800	65	4799
2026-01-03 11:55:46.41	240.27	9.95	-46.7	-49.4	17.5	0.00e+00	0	41	0	53477376	65	4778
2026-01-03 11:55:47.42	240.42	9.99	-46.7	-49.3	17.6	0.00e+00	0	41	0	55574528	65	4711
2026-01-03 11:55:48.42	240.57	10.04	-46.7	-49.4	17.5	0.00e+00	0	42	0	57671680	65	4766
2026-01-03 11:55:49.43	240.73	10.09	-46.7	-49.3	17.6	0.00e+00	0	41	0	59768832	65	4721
2026-01-03 11:55:50.43	240.88	10.14	-46.7	-49.3	17.6	0.00e+00	0	41	0	61865984	65	4717
2026-01-03 11:55:51.43	241.03	10.18	-46.7	-49.3	17.6	0.00e+00	0	41	0	62914560	65	4748
2026-01-03 11:55:52.44	241.19	10.23	-46.8	-49.5	17.4	0.00e+00	0	41	0	65011712	65	4859
2026-01-03 11:55:53.44	241.34	10.28	-46.9	-49.7	17.3	0.00e+00	0	41	0	67108864	65	4927
2026-01-03 11:55:54.44	241.50	10.32	-46.8	-49.5	17.4	0.00e+00	0	41	0	69206016	65	4866
2026-01-03 11:55:55.45	241.65	10.37	-46.8	-49.6	17.3	0.00e+00	0	41	0	71303168	65	4899
2026-01-03 11:55:56.45	241.81	10.42	-46.7	-49.5	17.4	0.00e+00	0	41	0	72351744	65	4860
2026-01-03 11:55:57.45	241.96	10.46	-46.6	-49.5	17.4	0.00e+00	0	42	0	74448896	65	4818
2026-01-03 11:55:58.45	242.12	10.51	-46.6	-49.5	17.4	0.00e+00	0	42	0	76546048	65	4820
2026-01-03 11:55:59.45	242.28	10.56	-46.6	-49.5	17.4	0.00e+00	0	42	0	78643200	65	4837
2026-01-03 11:56:00.45	242.43	10.60	-46.7	-49.5	17.4	0.00e+00	0	42	0	79691776	65	4870
2026-01-03 11:56:01.46	242.59	10.65	-46.6	-49.4	17.4	0.00e+00	0	42	0	81788928	65	4813
2026-01-03 11:56:02.46	242.75	10.70	-46.8	-49.6	17.3	0.00e+00	0	41	0	83886080	65	4895
2026-01-03 11:56:03.46	242.91	10.74	-46.8	-49.4	17.5	0.00e+00	0	41	0	85983232	65	4800
2026-01-03 11:56:04.46	243.07	10.79	-46.7	-49.3	17.6	0.00e+00	0	41	0	88080384	65	4726
2026-01-03 11:56:05.47	243.23	10.83	-46.8	-49.3	17.6	0.00e+00	0	41	0	89128960	65	4757
2026-01-03 11:56:06.47	243.39	10.88	-46.7	-49.3	17.6	0.00e+00	0	42	0	91226112	65	4738
2026-01-03 11:56:07.48	243.56	10.92	-46.8	-49.4	17.5	0.00e+00	0	42	0	93323264	65	4799
2026-01-03 11:56:08.48	243.72	10.97	-47.0	-49.6	17.3	0.00e+00	0	42	0	95420416	65	4893
2026-01-03 11:56:09.48	243.88	11.01	-47.0	-49.6	17.3	0.00e+00	0	42	0	97517568	65	4908
2026-01-03 11:56:10.48	244.04	11.06	-46.9	-49.5	17.4	0.00e+00	0	41	0	98566144	65	4839
2026-01-03 11:56:11.49	244.21	11.10	-46.9	-49.5	17.4	0.00e+00	0	42	0	100663296	65	4861
2026-01-03 11:56:12.49	244.37	11.15	-46.9	-49.5	17.4	0.00e+00	0	41	0	102760448	65	4859
2026-01-03 11:56:13.49	244.53	11.19	-46.8	-49.4	17.6	0.00e+00	0	42	0	104857600	65	4774
2026-01-03 11:56:14.50	244.70	11.24	-46.6	-49.2	17.7	0.00e+00	0	42	0	106954752	65	4688
2026-01-03 11:56:15.50	244.86	11.28	-46.7	-49.3	17.6	0.00e+00	0	42	0	108003328	65	4730
2026-01-03 11:56:16.50	245.03	11.33	-46.7	-49.3	17.6	0.00e+00	0	42	0	110100480	65	4755
2026-01-03 11:56:17.50	245.19	11.37	-46.8	-49.4	17.6	0.00e+00	0	42	0	112197632	65	4774
2026-01-03 11:56:18.51	245.36	11.42	-46.8	-49.4	17.5	0.00e+00	0	42	0	114294784	65	4780
2026-01-03 11:56:19.51	245.53	11.46	-46.8	-49.5	17.4	0.00e+00	0	42	0	116391936	65	4850
2026-01-03 11:56:20.51	245.70	11.50	-46.9	-49.6	17.3	0.00e+00	0	42	0	117440512	65	4890
2026-01-03 11:56:21.51	245.86	11.55	-46.8	-49.5	17.4	0.00e+00	0	42	0	119537664	65	4844
2026-01-03 11:56:22.51	246.03	11.59	-46.8	-49.6	17.3	0.00e+00	0	42	0	121634816	65	4879
2026-01-03 11:56:23.51	246.20	11.63	-46.8	-49.5	17.4	0.00e+00	0	42	0	123731968	65	4858
2026-01-03 11:56:24.52	246.37	11.68	-46.9	-49.5	17.4	0.00e+00	0	42	0	124780544	65	4867
2026-01-03 11:56:25.52	246.54	11.72	-46.9	-49.5	17.4	0.00e+00	0	42	0	126877696	65	4868
2026-01-03 11:56:26.52	246.71	11.76	-46.9	-49.5	17.4	0.00e+00	0	42	0	128974848	65	4856
2026-01-03 11:56:27.52	246.88	11.81	-46.8	-49.5	17.5	0.00e+00	0	42	0	131072000	65	4826
2026-01-03 11:56:28.53	247.05	11.85	-46.8	-49.5	17.4	0.00e+00	0	42	0	133169152	65	4856
2026-01-03 11:56:29.53	247.22	11.89	-46.9	-49.7	17.3	0.00e+00	0	42	0	134217728	65	4953
2026-01-03 11:56:30.53	247.40	11.93	-47.0	-49.8	17.2	0.00e+00	0	42	0	136314880	65	5001
2026-01-03 11:56:31.53	247.57	11.98	-47.0	-49.8	17.1	0.00e+00	0	42	0	138412032	65	5015
2026-01-03 11:56:32.54	247.74	12.02	-47.1	-49.9	17.0	0.00e+00	0	42	0	140509184	65	5085
2026-01-03 11:56:33.54	247.92	12.06	-47.1	-50.0	17.0	0.00e+00	0	42	0	142606336	65	5110
2026-01-03 11:56:34.55	248.09	12.10	-47.2	-50.1	16.9	0.00e+00	0	42	0	143654912	65	5161
2026-01-03 11:56:35.55	248.27	12.14	-47.2	-50.0	16.9	0.00e+00	0	42	0	145752064	65	5151
2026-01-03 11:56:36.55	248.44	12.18	-47.3	-50.1	16.9	0.00e+00	0	42	0	147849216	65	5196
2026-01-03 11:56:37.56	248.62	12.23	-47.3	-50.1	16.8	0.00e+00	0	42	0	149946368	65	5206
2026-01-03 11:56:38.56	248.79	12.27	-47.3	-50.2	16.9	0.00e+00	0	42	0	152043520	65	5220
2026-01-03 11:56:39.56	248.97	12.31	-47.4	-50.3	16.7	0.00e+00	0	42	0	153092096	65	5286
2026-01-03 11:56:40.56	249.15	12.35	-47.3	-50.2	16.7	0.00e+00	0	42	0	155189248	65	5255
2026-01-03 11:56:41.57	249.33	12.39	-47.5	-50.4	16.6	0.00e+00	0	42	0	157286400	65	5394
2026-01-03 11:56:42.57	249.50	12.43	-47.5	-50.5	16.5	0.00e+00	0	42	0	159383552	65	5417
2026-01-03 11:56:43.58	249.68	12.47	-47.5	-50.5	16.5	0.00e+00	0	42	0	161480704	65	5446
2026-01-03 11:56:44.58	249.86	12.51	-47.6	-50.6	16.4	0.00e+00	0	42	0	162529280	65	5511
2026-01-03 11:56:45.58	250.04	12.55	-47.7	-50.8	16.3	0.00e+00	0	42	0	164626432	65	5601
2026-01-03 11:56:46.58	250.22	12.59	-47.7	-50.8	16.2	0.00e+00	0	42	0	166723584	66	5330
2026-01-03 11:56:47.58	250.40	12.63	-47.7	-50.9	16.1	0.00e+00	0	42	0	168820736	66	5367
2026-01-03 11:56:48.58	250.58	12.67	-47.7	-50.9	16.1	0.00e+00	0	42	0	170917888	66	5365
2026-01-03 11:56:49.59	250.76	12.71	-47.7	-50.9	16.2	0.00e+00	0	42	0	171966464	66	5352
2026-01-03 11:56:50.59	250.94	12.74	-47.8	-50.9	16.1	0.00e+00	0	42	0	174063616	66	5394
2026-01-03 11:56:51.60	251.13	12.78	-47.7	-50.8	16.3	0.00e+00	0	42	0	176160768	66	5283
2026-01-03 11:56:52.60	251.31	12.82	-47.8	-50.8	16.3	0.00e+00	0	42	0	178257920	66	5281
2026-01-03 11:56:53.60	251.49	12.86	-47.8	-50.8	16.2	0.00e+00	0	42	0	179306496	66	5340
2026-01-03 11:56:54.61	251.68	12.90	-47.9	-50.9	16.1	0.00e+00	0	42	0	181403648	66	5379
2026-01-03 11:56:55.61	251.86	12.94	-48.0	-51.1	15.9	0.00e+00	0	42	0	183500800	66	5498
2026-01-03 11:56:56.61	252.05	12.97	-48.0	-51.1	15.9	0.00e+00	0	42	0	185597952	66	5503
2026-01-03 11:56:57.62	252.23	13.01	-48.1	-51.3	15.8	0.00e+00	0	42	0	187695104	66	5595
2026-01-03 11:56:58.62	252.42	13.05	-48.1	-51.2	15.8	0.00e+00	0	42	0	188743680	66	5577
2026-01-03 11:56:59.62	252.60	13.08	-48.1	-51.2	15.8	0.00e+00	0	42	0	190840832	66	5591
2026-01-03 11:57:00.62	252.79	13.12	-48.2	-51.4	15.7	0.00e+00	0	42	0	192937984	67	5364
2026-01-03 11:57:01.63	252.98	13.16	-48.3	-51.5	15.6	0.00e+00	0	42	0	195035136	67	5403
2026-01-03 11:57:02.63	253.16	13.19	-48.1	-51.2	15.8	0.00e+00	0	42	0	197132288	67	5273
2026-01-03 11:57:03.63	253.35	13.23	-48.1	-51.2	15.9	0.00e+00	0	42	0	198180864	67	5232
2026-01-03 11:57:04.63	253.54	13.26	-48.1	-51.2	15.8	0.00e+00	0	42	0	200278016	67	5229
2026-01-03 11:57:05.64	253.73	13.30	-48.1	-51.2	15.8	0.00e+00	0	42	0	202375168	67	5259
2026-01-03 11:57:06.64	253.92	13.34	-48.0	-51.2	15.8	0.00e+00	0	42	0	204472320	67	5237
2026-01-03 11:57:07.65	254.11	13.37	-48.0	-51.1	15.9	0.00e+00	0	42	0	206569472	67	5205
2026-01-03 11:57:08.65	254.30	13.41	-48.0	-51.2	15.9	0.00e+00	0	42	0	207618048	67	5253
2026-01-03 11:57:09.65	254.49	13.44	-48.1	-51.4	15.7	0.00e+00	0	42	0	209715200	67	5365
2026-01-03 11:57:10.66	254.68	13.47	-48.1	-51.4	15.7	0.00e+00	0	42	0	211812352	67	5358
2026-01-03 11:57:11.66	254.87	13.51	-48.2	-51.6	15.5	0.00e+00	0	42	0	213909504	67	5492
2026-01-03 11:57:12.66	255.06	13.54	-48.3	-51.6	15.4	0.00e+00	0	42	0	216006656	67	5512
2026-01-03 11:57:13.66	255.25	13.58	-48.4	-51.8	15.2	0.00e+00	0	42	0	217055232	67	5647
2026-01-03 11:57:14.67	255.45	13.61	-48.5	-51.9	15.1	0.00e+00	0	42	0	219152384	67	5688
2026-01-03 11:57:15.67	255.64	13.64	-48.5	-51.9	15.1	0.00e+00	0	42	0	221249536	67	5671
2026-01-03 11:57:16.67	255.83	13.68	-48.4	-51.8	15.3	0.00e+00	0	42	0	223346688	67	5618
2026-01-03 11:57:17.68	256.03	13.71	-48.4	-51.6	15.4	0.00e+00	0	42	0	225443840	67	5512
2026-01-03 11:57:18.68	256.22	13.74	-48.2	-51.4	15.6	0.00e+00	0	42	0	226492416	67	5394
2026-01-03 11:57:19.68	256.41	13.77	-48.1	-51.3	15.8	0.00e+00	0	42	0	228589568	67	5284
2026-01-03 11:57:20.68	256.61	13.80	-48.0	-51.1	15.9	0.00e+00	0	42	0	230686720	67	5208
2026-01-03 11:57:21.69	256.81	13.84	-48.0	-51.1	16.0	0.00e+00	0	42	0	232783872	67	5183
2026-01-03 11:57:22.69	257.00	13.87	-48.0	-51.0	16.0	0.00e+00	0	42	0	234881024	67	5144
2026-01-03 11:57:23.70	257.20	13.90	-48.0	-51.0	16.0	0.00e+00	0	42	0	235929600	67	5133
2026-01-03 11:57:24.70	257.39	13.93	-48.0	-51.0	16.1	0.00e+00	0	42	0	238026752	67	5111
2026-01-03 11:57:25.70	257.59	13.96	-48.0	-51.0	16.0	0.00e+00	0	42	0	240123904	67	5144
2026-01-03 11:57:26.71	257.79	13.99	-48.1	-51.1	16.0	0.00e+00	0	42	0	242221056	67	5190
2026-01-03 11:57:27.71	257.99	14.02	-48.1	-51.1	15.9	0.00e+00	0	42	0	243269632	67	5212
2026-01-03 11:57:28.71	258.18	14.05	-48.1	-51.1	16.0	0.00e+00	0	42	0	245366784	67	5190
2026-01-03 11:57:29.71	258.38	14.08	-48.0	-51.1	15.9	0.00e+00	0	42	0	247463936	67	5199
2026-01-03 11:57:30.72	258.58	14.11	-48.0	-51.1	16.0	0.00e+00	0	42	0	249561088	67	5196
2026-01-03 11:57:31.72	258.78	14.14	-48.0	-51.1	16.0	0.00e+00	0	42	0	251658240	67	5187
2026-01-03 11:57:32.73	258.98	14.16	-47.9	-50.9	16.2	0.00e+00	0	42	0	252706816	67	5064
2026-01-03 11:57:33.73	259.18	14.19	-47.7	-50.6	16.5	0.00e+00	0	42	0	254803968	67	4902
2026-01-03 11:57:34.73	259.38	14.22	-47.5	-50.3	16.7	0.00e+00	0	42	0	256901120	67	4748
2026-01-03 11:57:35.73	259.58	14.25	-47.4	-50.1	16.9	0.00e+00	0	42	0	258998272	66	4923
2026-01-03 11:57:36.73	259.78	14.27	-47.1	-49.9	17.1	0.00e+00	0	42	0	261095424	66	4794
2026-01-03 11:57:37.74	259.99	14.30	-47.1	-49.8	17.2	0.00e+00	0	42	0	262144000	66	4750
2026-01-03 11:57:38.74	260.19	14.33	-46.8	-49.5	17.4	0.00e+00	0	42	0	264241152	65	4870
2026-01-03 11:57:39.74	260.39	14.35	-46.8	-49.5	17.5	0.00e+00	0	42	0	266338304	65	4838
2026-01-03 11:57:40.75	260.59	14.38	-46.9	-49.6	17.4	0.00e+00	0	42	0	268435456	65	4900
2026-01-03 11:57:41.75	260.79	14.41	-46.9	-49.6	17.4	0.00e+00	0	42	0	270532608	65	4920
2026-01-03 11:57:42.75	261.00	14.43	-46.9	-49.7	17.4	0.00e+00	0	42	0	271581184	65	4927
2026-01-03 11:57:43.75	261.20	14.46	-47.0	-49.7	17.3	0.00e+00	0	42	0	273678336	65	4972
2026-01-03 11:57:44.76	261.40	14.48	-47.1	-49.8	17.2	0.00e+00	0	42	0	275775488	65	5003
2026-01-03 11:57:45.76	261.61	14.51	-47.0	-49.7	17.3	0.00e+00	0	42	0	277872640	65	4934
2026-01-03 11:57:46.76	261.81	14.53	-47.0	-49.6	17.4	0.00e+00	0	42	0	279969792	65	4891
2026-01-03 11:57:47.76	262.02	14.55	-46.9	-49.5	17.5	0.00e+00	0	42	0	281018368	65	4865
2026-01-03 11:57:48.77	262.22	14.58	-46.9	-49.6	17.4	0.00e+00	0	42	0	283115520	65	4887
2026-01-03 11:57:49.77	262.43	14.60	-46.9	-49.5	17.5	0.00e+00	0	42	0	285212672	65	4854
2026-01-03 11:57:50.77	262.63	14.62	-46.9	-49.5	17.5	0.00e+00	0	42	0	287309824	65	4858
2026-01-03 11:57:51.78	262.84	14.65	-46.9	-49.5	17.5	0.00e+00	0	42	0	288358400	65	4854
2026-01-03 11:57:52.78	263.05	14.67	-46.8	-49.4	17.6	0.00e+00	0	42	0	290455552	65	4797
2026-01-03 11:57:53.78	263.25	14.69	-46.8	-49.5	17.6	0.00e+00	0	42	0	292552704	65	4824
2026-01-03 11:57:54.79	263.46	14.71	-46.8	-49.5	17.6	0.00e+00	0	42	0	294649856	65	4820
2026-01-03 11:57:55.79	263.67	14.73	-47.0	-49.7	17.5	0.00e+00	0	42	0	296747008	65	4971
2026-01-03 11:57:56.79	263.87	14.76	-47.0	-49.7	17.3	0.00e+00	0	42	0	298844160	65	4960
2026-01-03 11:57:57.79	264.08	14.78	-47.2	-49.9	17.1	0.00e+00	0	42	0	299892736	65	5094
2026-01-03 11:57:58.80	264.29	14.80	-47.3	-50.0	17.1	0.00e+00	0	42	0	301989888	65	5138
2026-01-03 11:57:59.80	264.50	14.82	-47.3	-50.1	17.0	0.00e+00	0	42	0	304087040	65	5194
2026-01-03 11:58:00.80	264.71	14.84	-47.4	-50.2	16.8	0.00e+00	0	42	0	306184192	65	5261
2026-01-03 11:58:01.81	264.92	14.86	-47.5	-50.3	16.8	0.00e+00	0	42	0	307232768	65	5306
2026-01-03 11:58:02.81	265.12	14.87	-47.4	-50.2	16.9	0.00e+00	0	42	0	309329920	65	5243
2026-01-03 11:58:03.81	265.33	14.89	-48.0	-50.9	15.3	6.71e-05	0	42	0	311427072	68	4787
2026-01-03 11:58:04.82	265.54	14.91	-47.9	-50.9	16.2	0.00e+00	0	42	0	313524224	67	5050
2026-01-03 11:58:05.82	265.75	14.93	-47.7	-50.6	16.5	0.00e+00	0	42	0	315621376	67	4891
2026-01-03 11:58:06.82	265.96	14.95	-47.6	-50.4	16.6	0.00e+00	0	42	0	316669952	67	4804
2026-01-03 11:58:07.83	266.18	14.96	-47.6	-50.4	16.6	0.00e+00	0	42	0	318767104	67	4813
2026-01-03 11:58:08.83	266.39	14.98	-47.7	-50.5	16.5	0.00e+00	0	42	0	320864256	67	4865
2026-01-03 11:58:09.83	266.60	15.00	-47.6	-50.5	16.6	0.00e+00	0	42	0	322961408	67	4840
2026-01-03 11:58:10.83	266.81	15.01	-47.6	-50.5	16.6	0.00e+00	0	42	0	325058560	67	4838
2026-01-03 11:58:11.84	267.02	15.03	-47.7	-50.6	16.5	0.00e+00	0	42	0	326107136	67	4877
2026-01-03 11:58:12.84	267.23	15.05	-47.7	-50.6	16.5	0.00e+00	0	42	0	328204288	67	4900
2026-01-03 11:58:13.84	267.44	15.06	-47.7	-50.6	16.5	0.00e+00	0	42	0	330301440	67	4877
2026-01-03 11:58:14.85	267.65	15.08	-47.7	-50.5	16.5	0.00e+00	0	42	0	332398592	67	4857
2026-01-03 11:58:15.85	267.86	15.09	-47.6	-50.5	16.6	0.00e+00	0	42	0	334495744	67	4849
2026-01-03 11:58:16.86	268.08	15.10	-47.6	-50.5	16.6	0.00e+00	0	42	0	335544320	67	4830
2026-01-03 11:58:17.86	268.29	15.12	-47.5	-50.4	16.6	0.00e+00	0	42	0	337641472	67	4784
2026-01-03 11:58:18.86	268.50	15.13	-47.5	-50.4	16.7	0.00e+00	0	42	0	339738624	67	4776
2026-01-03 11:58:19.86	268.71	15.14	-47.5	-50.3	16.7	0.00e+00	0	42	0	341835776	67	4734
2026-01-03 11:58:20.87	268.93	15.16	-47.6	-50.4	16.7	0.00e+00	0	42	0	343932928	66	5077
2026-01-03 11:58:21.87	269.14	15.17	-47.6	-50.5	16.5	0.00e+00	0	42	0	344981504	66	5122
2026-01-03 11:58:22.87	269.35	15.18	-47.6	-50.4	16.6	0.00e+00	0	42	0	347078656	66	5088
2026-01-03 11:58:23.88	269.57	15.19	-47.6	-50.5	16.6	0.00e+00	0	42	0	349175808	66	5112
2026-01-03 11:58:24.88	269.78	15.20	-47.6	-50.5	16.5	0.00e+00	0	42	0	351272960	66	5148
2026-01-03 11:58:25.89	270.00	15.21	-47.6	-50.5	16.6	0.00e+00	0	42	0	353370112	66	5125
2026-01-03 11:58:26.89	270.21	15.23	-47.6	-50.5	16.6	0.00e+00	0	42	0	354418688	66	5119
2026-01-03 11:58:27.89	270.42	15.24	-47.5	-50.3	16.8	0.00e+00	0	42	0	356515840	66	5005
2026-01-03 11:58:28.89	270.64	15.24	-47.4	-50.2	16.9	0.00e+00	0	42	0	358612992	66	4939
2026-01-03 11:58:29.90	270.85	15.25	-47.4	-50.2	16.9	0.00e+00	0	42	0	360710144	66	4945
2026-01-03 11:58:30.90	271.07	15.26	-47.5	-50.2	16.8	0.00e+00	0	42	0	361758720	66	4980
2026-01-03 11:58:31.91	271.28	15.27	-47.4	-50.2	16.9	0.00e+00	0	42	0	363855872	66	4953
2026-01-03 11:58:32.91	271.50	15.28	-47.5	-50.3	16.8	0.00e+00	0	42	0	365953024	66	5027
2026-01-03 11:58:33.91	271.71	15.29	-47.5	-50.2	16.9	0.00e+00	0	42	0	368050176	66	4976
2026-01-03 11:58:34.92	271.93	15.30	-47.4	-50.2	16.9	0.00e+00	0	42	0	370147328	66	4949
2026-01-03 11:58:35.92	272.14	15.30	-47.4	-50.2	16.9	0.00e+00	0	42	0	371195904	66	4931
2026-01-03 11:58:36.92	272.36	15.31	-47.4	-50.1	17.0	0.00e+00	0	42	0	373293056	66	4910
2026-01-03 11:58:37.93	272.57	15.32	-47.4	-50.2	16.9	0.00e+00	0	42	0	375390208	66	4955
2026-01-03 11:58:38.93	272.79	15.32	-47.4	-50.2	16.8	0.00e+00	0	42	0	377487360	66	4971
2026-01-03 11:58:39.93	273.00	15.33	-47.3	-50.1	17.0	0.00e+00	0	42	0	379584512	66	4879
2026-01-03 11:58:40.94	273.22	15.33	-47.3	-50.0	17.0	0.00e+00	0	42	0	380633088	66	4851
2026-01-03 11:58:41.94	273.43	15.34	-47.3	-50.1	17.0	0.00e+00	0	42	0	382730240	66	4881
2026-01-03 11:58:42.95	273.65	15.34	-47.2	-50.0	17.1	0.00e+00	0	42	0	384827392	66	4817
2026-01-03 11:58:43.95	273.87	15.35	-47.2	-49.9	17.1	0.00e+00	0	42	0	386924544	66	4803
2026-01-03 11:58:44.95	274.08	15.35	-47.2	-49.8	17.2	0.00e+00	0	42	0	389021696	66	4754
2026-01-03 11:58:45.96	274.30	15.35	-47.3	-50.0	17.0	0.00e+00	0	42	0	390070272	66	4870
2026-01-03 11:58:46.96	274.51	15.36	-47.3	-50.0	17.0	0.00e+00	0	42	0	392167424	66	4859
2026-01-03 11:58:47.96	274.73	15.36	-47.3	-50.0	17.0	0.00e+00	0	42	0	394264576	66	4847
2026-01-03 11:58:48.97	274.94	15.36	-47.3	-50.0	17.0	0.00e+00	0	42	0	396361728	66	4846
2026-01-03 11:58:49.97	275.16	15.36	-47.2	-49.9	17.1	0.00e+00	0	42	0	398458880	66	4800
2026-01-03 11:58:50.97	275.38	15.36	-47.2	-49.9	17.2	0.00e+00	0	42	0	399507456	66	4764
2026-01-03 11:58:51.98	275.59	15.36	-47.0	-49.7	17.4	0.00e+00	0	42	0	401604608	66	4670
2026-01-03 11:58:52.98	275.81	15.36	-47.0	-49.6	17.4	0.00e+00	0	42	0	403701760	66	4642
2026-01-03 11:58:53.99	276.02	15.37	-47.0	-49.6	17.4	0.00e+00	0	42	0	405798912	66	4642
2026-01-03 11:58:54.99	276.24	15.36	-47.0	-49.6	17.4	0.00e+00	0	42	0	407896064	65	4918
2026-01-03 11:58:55.99	276.46	15.36	-46.9	-49.6	17.5	0.00e+00	0	42	0	408944640	65	4877
2026-01-03 11:58:57.00	276.67	15.36	-47.0	-49.6	17.5	0.00e+00	0	42	0	411041792	65	4899
2026-01-03 11:58:58.00	276.89	15.36	-47.0	-49.6	17.4	0.00e+00	0	42	0	413138944	65	4897
2026-01-03 11:58:59.00	277.10	15.36	-46.9	-49.6	17.5	0.00e+00	0	42	0	415236096	65	4876
2026-01-03 11:59:00.01	277.32	15.36	-47.0	-49.7	17.4	0.00e+00	0	42	0	417333248	65	4928
2026-01-03 11:59:01.01	277.53	15.36	-47.0	-49.7	17.4	0.00e+00	0	42	0	418381824	65	4952
2026-01-03 11:59:02.02	277.75	15.35	-47.1	-49.8	17.2	0.00e+00	0	42	0	420478976	65	4999
2026-01-03 11:59:03.02	277.97	15.35	-47.0	-49.7	17.4	0.00e+00	0	42	0	422576128	65	4931
2026-01-03 11:59:04.02	278.18	15.35	-47.1	-49.8	17.3	0.00e+00	0	42	0	424673280	65	4990
2026-01-03 11:59:05.03	278.40	15.34	-46.9	-49.5	17.5	0.00e+00	0	42	0	425721856	65	4867
2026-01-03 11:59:06.03	278.61	15.34	-46.7	-49.3	17.7	0.00e+00	0	42	0	427819008	65	4721
2026-01-03 11:59:07.03	278.83	15.33	-46.6	-49.1	17.9	0.00e+00	0	42	0	429916160	65	4646
2026-01-03 11:59:08.04	279.04	15.33	-46.5	-49.0	18.0	0.00e+00	0	42	0	432013312	65	4592
2026-01-03 11:59:09.04	279.26	15.32	-46.6	-49.1	17.9	0.00e+00	0	42	0	434110464	65	4631
2026-01-03 11:59:10.05	279.48	15.32	-46.6	-49.1	17.9	0.00e+00	0	42	0	435159040	65	4639
2026-01-03 11:59:11.05	279.69	15.31	-46.7	-49.2	17.8	0.00e+00	0	42	0	437256192	65	4687
2026-01-03 11:59:12.05	279.90	15.30	-46.8	-49.3	17.7	0.00e+00	0	42	0	439353344	65	4753
2026-01-03 11:59:13.06	280.12	15.30	-46.8	-49.4	17.6	0.00e+00	0	42	0	441450496	65	4794
2026-01-03 11:59:14.06	280.33	15.29	-46.8	-49.5	17.6	0.00e+00	0	42	0	443547648	65	4818
2026-01-03 11:59:15.07	280.55	15.28	-46.9	-49.6	17.5	0.00e+00	0	42	0	444596224	65	4878
2026-01-03 11:59:16.07	280.76	15.27	-46.8	-49.4	17.6	0.00e+00	0	42	0	446693376	65	4794
2026-01-03 11:59:17.07	280.98	15.27	-46.7	-49.3	17.8	0.00e+00	0	42	0	448790528	65	4708
2026-01-03 11:59:18.08	281.19	15.26	-46.8	-49.3	17.7	0.00e+00	0	42	0	450887680	65	4755
2026-01-03 11:59:19.08	281.41	15.25	-46.7	-49.2	17.8	0.00e+00	0	42	0	452984832	65	4671
2026-01-03 11:59:20.08	281.62	15.24	-46.6	-49.1	17.9	0.00e+00	0	42	0	454033408	65	4612
2026-01-03 11:59:21.09	281.84	15.23	-46.6	-49.1	17.9	0.00e+00	0	42	0	456130560	65	4629
2026-01-03 11:59:22.09	282.05	15.22	-46.6	-49.1	17.9	0.00e+00	0	42	0	458227712	65	4623
2026-01-03 11:59:23.09	282.26	15.21	-46.6	-49.1	17.9	0.00e+00	0	42	0	460324864	65	4648
2026-01-03 11:59:24.09	282.47	15.20	-46.7	-49.2	17.8	0.00e+00	0	42	0	462422016	65	4687
2026-01-03 11:59:25.10	282.69	15.19	-46.7	-49.2	17.8	0.00e+00	0	42	0	463470592	65	4673
2026-01-03 11:59:26.10	282.90	15.17	-46.6	-49.1	18.0	0.00e+00	0	42	0	465567744	65	4604
2026-01-03 11:59:27.11	283.12	15.16	-46.6	-49.1	17.9	0.00e+00	0	42	0	467664896	65	4635
2026-01-03 11:59:28.11	283.33	15.15	-46.6	-49.1	17.9	0.00e+00	0	42	0	469762048	65	4620
2026-01-03 11:59:29.11	283.54	15.14	-46.7	-49.2	17.9	0.00e+00	0	42	0	471859200	65	4678
2026-01-03 11:59:30.12	283.75	15.12	-46.6	-49.2	17.9	0.00e+00	0	42	0	472907776	65	4664
2026-01-03 11:59:31.12	283.97	15.11	-46.8	-49.3	17.7	0.00e+00	0	42	0	475004928	65	4759
2026-01-03 11:59:32.12	284.18	15.10	-46.8	-49.4	17.6	0.00e+00	0	42	0	477102080	65	4794
2026-01-03 11:59:33.13	284.39	15.08	-46.9	-49.5	17.5	0.00e+00	0	42	0	479199232	65	4859
2026-01-03 11:59:34.13	284.60	15.07	-46.9	-49.6	17.4	0.00e+00	0	42	0	480247808	65	4881
2026-01-03 11:59:35.13	284.81	15.05	-46.9	-49.5	17.6	0.00e+00	0	42	0	482344960	65	4829
2026-01-03 11:59:36.14	285.02	15.04	-46.9	-49.5	17.6	0.00e+00	0	42	0	484442112	65	4815
2026-01-03 11:59:37.14	285.23	15.02	-46.7	-49.2	17.8	0.00e+00	0	42	0	486539264	65	4697
2026-01-03 11:59:38.14	285.44	15.00	-46.7	-49.2	17.8	0.00e+00	0	42	0	488636416	65	4663
2026-01-03 11:59:39.15	285.66	14.99	-46.7	-49.2	17.9	0.00e+00	0	42	0	490733568	65	4662
2026-01-03 11:59:40.15	285.87	14.97	-46.7	-49.3	17.8	0.00e+00	0	42	0	491782144	65	4712
2026-01-03 11:59:41.15	286.07	14.95	-46.7	-49.2	17.8	0.00e+00	0	42	0	493879296	65	4703
2026-01-03 11:59:42.16	286.29	14.94	-46.8	-49.4	17.7	0.00e+00	0	42	0	495976448	65	4793
2026-01-03 11:59:43.16	286.49	14.92	-46.9	-49.5	17.6	0.00e+00	0	42	0	498073600	65	4838
2026-01-03 11:59:44.17	286.71	14.90	-46.8	-49.4	17.6	0.00e+00	0	42	0	499122176	65	4808
2026-01-03 11:59:45.17	286.91	14.88	-46.8	-49.4	17.6	0.00e+00	0	42	0	501219328	65	4791
2026-01-03 11:59:46.17	287.12	14.86	-46.8	-49.4	17.6	0.00e+00	0	42	0	503316480	65	4799
2026-01-03 11:59:47.18	287.33	14.84	-46.8	-49.3	17.7	0.00e+00	0	42	0	505413632	65	4740
2026-01-03 11:59:48.18	287.54	14.82	-46.6	-49.1	17.9	0.00e+00	0	42	0	507510784	65	4633
2026-01-03 11:59:49.18	287.75	14.80	-46.6	-49.0	18.0	0.00e+00	0	42	0	508559360	65	4591
2026-01-03 11:59:50.19	287.96	14.78	-46.7	-49.2	17.8	0.00e+00	0	42	0	510656512	65	4664
2026-01-03 11:59:51.19	288.16	14.76	-46.6	-49.1	17.9	0.00e+00	0	42	0	512753664	65	4612
2026-01-03 11:59:52.19	288.37	14.74	-46.7	-49.2	17.8	0.00e+00	0	42	0	514850816	65	4682
2026-01-03 11:59:53.19	288.57	14.72	-46.8	-49.4	17.6	0.00e+00	0	42	0	516947968	65	4795
2026-01-03 11:59:54.20	288.78	14.70	-46.8	-49.4	17.7	0.00e+00	0	42	0	517996544	65	4776
2026-01-03 11:59:55.20	288.99	14.68	-46.8	-49.4	17.6	0.00e+00	0	42	0	520093696	65	4799
2026-01-03 11:59:56.20	289.19	14.66	-46.8	-49.4	17.6	0.00e+00	0	42	0	522190848	65	4805
2026-01-03 11:59:57.21	289.40	14.63	-46.8	-49.4	17.6	0.00e+00	0	42	0	524288000	65	4780
2026-01-03 11:59:58.21	289.60	14.61	-46.8	-49.4	17.6	0.00e+00	0	42	0	526385152	65	4779
2026-01-03 11:59:59.21	289.81	14.59	-46.8	-49.4	17.6	0.00e+00	0	42	0	527433728	65	4779
2026-01-03 12:00:00.22	290.02	14.57	-46.6	-49.1	17.9	0.00e+00	0	42	0	529530880	65	4617
2026-01-03 12:00:01.22	290.22	14.54	-46.4	-48.9	18.1	0.00e+00	0	42	0	531628032	64	4771
2026-01-03 12:00:02.22	290.42	14.52	-46.4	-48.9	18.1	0.00e+00	0	42	0	533725184	64	4807
2026-01-03 12:00:03.23	290.63	14.49	-46.5	-48.9	18.1	0.00e+00	0	42	0	535822336	64	4801
2026-01-03 12:00:04.23	290.83	14.47	-46.3	-48.8	18.2	0.00e+00	0	42	0	536870912	64	4712
2026-01-03 12:00:05.23	291.03	14.44	-46.4	-48.8	18.2	0.00e+00	0	42	0	538968064	64	4754
2026-01-03 12:00:06.24	291.24	14.42	-46.2	-48.6	18.3	0.00e+00	0	42	0	541065216	64	4648
2026-01-03 12:00:07.24	291.44	14.39	-46.2	-48.6	18.4	0.00e+00	0	42	0	543162368	64	4606
2026-01-03 12:00:08.24	291.64	14.37	-46.2	-48.6	18.3	0.00e+00	0	42	0	545259520	64	4649
2026-01-03 12:00:09.25	291.84	14.34	-46.4	-48.8	18.2	0.00e+00	0	42	0	546308096	64	4751
2026-01-03 12:00:10.25	292.04	14.31	-46.5	-49.0	18.0	0.00e+00	0	42	0	548405248	64	4840
2026-01-03 12:00:11.26	292.25	14.29	-46.6	-49.1	17.9	0.00e+00	0	42	0	550502400	64	4877
2026-01-03 12:00:12.26	292.44	14.26	-46.7	-49.3	17.8	0.00e+00	0	42	0	552599552	64	4984
2026-01-03 12:00:13.26	292.64	14.23	-46.7	-49.3	17.7	0.00e+00	0	42	0	554696704	64	4988
2026-01-03 12:00:14.27	292.85	14.21	-46.7	-49.2	17.7	0.00e+00	0	42	0	555745280	64	4975
2026-01-03 12:00:15.27	293.04	14.18	-46.6	-49.2	17.8	0.00e+00	0	42	0	557842432	64	4948
2026-01-03 12:00:16.27	293.24	14.15	-46.7	-49.2	17.8	0.00e+00	0	42	0	559939584	64	4959
2026-01-03 12:00:17.28	293.44	14.12	-46.7	-49.2	17.8	0.00e+00	0	42	0	562036736	64	4945
2026-01-03 12:00:18.28	293.64	14.09	-46.6	-49.2	17.8	0.00e+00	0	42	0	564133888	64	4956
2026-01-03 12:00:19.28	293.84	14.06	-46.6	-49.1	17.9	0.00e+00	0	42	0	565182464	64	4883
2026-01-03 12:00:20.28	294.04	14.03	-46.3	-48.8	18.1	0.00e+00	0	42	0	567279616	64	4735
2026-01-03 12:00:21.29	294.23	14.00	-46.2	-48.7	18.3	0.00e+00	0	42	0	569376768	64	4676
2026-01-03 12:00:22.29	294.43	13.97	-46.3	-48.7	18.3	0.00e+00	0	42	0	571473920	64	4675
2026-01-03 12:00:23.29	294.63	13.94	-46.3	-48.7	18.3	0.00e+00	0	42	0	572522496	64	4679
2026-01-03 12:00:24.30	294.82	13.91	-46.4	-48.8	18.2	0.00e+00	0	42	0	574619648	64	4747
2026-01-03 12:00:25.30	295.02	13.88	-46.4	-48.8	18.2	0.00e+00	0	42	0	576716800	64	4734
2026-01-03 12:00:26.30	295.21	13.85	-46.4	-48.8	18.2	0.00e+00	0	42	0	578813952	64	4756
2026-01-03 12:00:27.31	295.41	13.82	-46.5	-49.0	18.1	0.00e+00	0	42	0	580911104	64	4815
2026-01-03 12:00:28.31	295.60	13.79	-46.6	-49.1	17.9	0.00e+00	0	42	0	581959680	64	4905
2026-01-03 12:00:29.31	295.80	13.76	-46.6	-49.1	18.0	0.00e+00	0	42	0	584056832	64	4889
2026-01-03 12:00:30.32	295.99	13.73	-46.7	-49.2	17.8	0.00e+00	0	42	0	586153984	64	4974
2026-01-03 12:00:31.32	296.18	13.69	-46.8	-49.3	17.7	0.00e+00	0	42	0	588251136	64	5028
2026-01-03 12:00:32.32	296.38	13.66	-46.8	-49.4	17.7	0.00e+00	0	42	0	590348288	64	5042
2026-01-03 12:00:33.32	296.57	13.63	-46.9	-49.5	17.5	0.00e+00	0	42	0	591396864	64	5135
2026-01-03 12:00:34.33	296.76	13.60	-46.8	-49.4	17.6	0.00e+00	0	42	0	593494016	64	5093
2026-01-03 12:00:35.33	296.95	13.56	-46.8	-49.4	17.6	0.00e+00	0	42	0	595591168	64	5085
2026-01-03 12:00:36.34	297.14	13.53	-46.7	-49.2	17.8	0.00e+00	0	42	0	597688320	64	4979
2026-01-03 12:00:37.34	297.33	13.49	-46.7	-49.2	17.8	0.00e+00	0	42	0	599785472	64	4957
2026-01-03 12:00:38.34	297.52	13.46	-46.5	-49.1	18.0	0.00e+00	0	42	0	600834048	64	4879
2026-01-03 12:00:39.35	297.71	13.43	-46.5	-49.1	18.0	0.00e+00	0	42	0	602931200	64	4876
2026-01-03 12:00:40.34	297.90	13.39	-46.6	-49.1	17.9	0.00e+00	0	42	0	605028352	64	4922
2026-01-03 12:00:41.35	298.09	13.36	-46.6	-49.2	17.9	0.00e+00	0	42	0	607125504	64	4937
2026-01-03 12:00:42.35	298.28	13.32	-46.7	-49.3	17.7	0.00e+00	0	42	0	609222656	64	4999
2026-01-03 12:00:43.35	298.47	13.29	-46.7	-49.3	17.8	0.00e+00	0	42	0	610271232	64	4993
2026-01-03 12:00:44.36	298.66	13.25	-46.7	-49.2	17.8	0.00e+00	0	42	0	612368384	64	4973
2026-01-03 12:00:45.36	298.84	13.22	-46.7	-49.3	17.7	0.00e+00	0	42	0	614465536	64	5012
2026-01-03 12:00:46.36	299.03	13.18	-46.8	-49.4	17.6	0.00e+00	0	42	0	616562688	64	5083
2026-01-03 12:00:47.37	299.22	13.14	-46.9	-49.5	17.5	0.00e+00	0	42	0	617611264	64	5137
2026-01-03 12:00:48.37	299.40	13.11	-46.9	-49.5	17.5	0.00e+00	0	42	0	619708416	64	5125
2026-01-03 12:00:49.37	299.59	13.07	-47.0	-49.7	17.4	0.00e+00	0	42	0	621805568	64	5221
2026-01-03 12:00:50.38	299.77	13.04	-47.1	-49.8	17.2	0.00e+00	0	42	0	623902720	64	5327
2026-01-03 12:00:51.38	299.96	13.00	-47.2	-50.0	17.1	0.00e+00	0	42	0	625999872	65	5120
2026-01-03 12:00:52.38	300.14	12.96	-47.3	-50.1	17.0	0.00e+00	0	42	0	628097024	65	5163
2026-01-03 12:00:53.39	300.32	12.92	-47.4	-50.1	16.9	0.00e+00	0	42	0	629145600	65	5216
2026-01-03 12:00:54.39	300.51	12.89	-47.5	-50.3	16.8	0.00e+00	0	42	0	631242752	65	5284
2026-01-03 12:00:55.39	300.69	12.85	-47.5	-50.4	16.7	0.00e+00	0	42	0	633339904	65	5360
2026-01-03 12:00:56.40	300.87	12.81	-47.5	-50.3	16.7	0.00e+00	0	42	0	635437056	65	5330
2026-01-03 12:00:57.40	301.05	12.77	-47.5	-50.3	16.7	0.00e+00	0	42	0	636485632	65	5317
2026-01-03 12:00:58.41	301.24	12.73	-47.5	-50.4	16.6	0.00e+00	0	42	0	638582784	65	5369
2026-01-03 12:00:59.41	301.42	12.70	-47.6	-50.5	16.5	0.00e+00	0	42	0	640679936	65	5418
2026-01-03 12:01:00.42	301.60	12.66	-47.7	-50.6	16.4	0.00e+00	0	42	0	642777088	66	5198
2026-01-03 12:01:01.42	301.78	12.62	-47.8	-50.7	16.4	0.00e+00	0	42	0	644874240	66	5235
2026-01-03 12:01:02.42	301.96	12.58	-47.8	-50.8	16.3	0.00e+00	0	42	0	645922816	66	5290
2026-01-03 12:01:03.43	302.14	12.54	-47.8	-50.7	16.3	0.00e+00	0	42	0	648019968	66	5257
2026-01-03 12:01:04.43	302.31	12.50	-47.8	-50.7	16.4	0.00e+00	0	42	0	650117120	66	5240
2026-01-03 12:01:05.43	302.49	12.46	-47.9	-50.8	16.2	0.00e+00	0	42	0	652214272	66	5308
2026-01-03 12:01:06.44	302.67	12.42	-47.8	-50.7	16.3	0.00e+00	0	42	0	654311424	66	5257
2026-01-03 12:01:07.44	302.85	12.38	-47.8	-50.8	16.3	0.00e+00	0	42	0	655360000	66	5282
2026-01-03 12:01:08.44	303.02	12.34	-47.8	-50.7	16.3	0.00e+00	0	42	0	657457152	66	5255
2026-01-03 12:01:09.45	303.20	12.30	-48.0	-51.0	16.1	0.00e+00	0	42	0	659554304	66	5406
2026-01-03 12:01:10.45	303.37	12.26	-47.9	-50.9	16.1	0.00e+00	0	42	0	661651456	66	5370
2026-01-03 12:01:11.46	303.55	12.22	-48.0	-51.1	15.9	0.00e+00	0	42	0	663748608	66	5504
2026-01-03 12:01:12.46	303.73	12.18	-48.3	-51.5	15.5	0.00e+00	0	42	0	664797184	67	5451
2026-01-03 12:01:13.46	303.90	12.14	-48.5	-51.9	15.2	0.00e+00	0	42	0	666894336	67	5658
2026-01-03 12:01:14.47	304.07	12.09	-48.6	-52.0	15.0	0.00e+00	0	42	0	668991488	67	5763
2026-01-03 12:01:15.47	304.25	12.05	-48.9	-52.4	14.8	0.00e+00	0	42	0	671088640	68	5691
2026-01-03 12:01:16.48	304.42	12.01	-49.0	-52.5	14.7	0.00e+00	0	42	0	673185792	68	5743
2026-01-03 12:01:17.48	304.59	11.97	-49.1	-52.7	14.5	0.00e+00	0	42	0	674234368	68	5903
2026-01-03 12:01:18.48	304.76	11.93	-49.2	-52.8	14.4	7.00e-07	0	42	0	676331520	68	5932
2026-01-03 12:01:19.49	304.94	11.89	-49.3	-52.9	14.3	2.20e-06	0	42	0	678428672	69	5679
2026-01-03 12:01:20.49	305.11	11.84	-49.4	-53.1	14.1	0.00e+00	0	42	0	680525824	69	5801
2026-01-03 12:01:21.50	305.28	11.80	-49.5	-53.2	13.9	3.80e-06	0	42	0	682622976	69	5921
2026-01-03 12:01:22.50	305.45	11.76	-49.7	-53.5	13.6	4.50e-06	0	42	0	683671552	70	5787
2026-01-03 12:01:23.50	305.62	11.72	-49.8	-53.7	13.5	5.30e-06	0	42	0	685768704	70	5896
2026-01-03 12:01:24.51	305.79	11.67	-49.8	-53.7	13.5	6.80e-06	0	42	0	687865856	70	5883
2026-01-03 12:01:25.51	305.95	11.63	-49.8	-53.6	13.6	1.06e-05	0	42	0	689963008	70	5854
2026-01-03 12:01:26.52	306.12	11.59	-49.6	-53.4	13.8	3.80e-06	0	42	0	691011584	70	5662
2026-01-03 12:01:27.52	306.29	11.54	-49.4	-53.2	14.0	7.00e-07	0	42	0	693108736	70	5534
2026-01-03 12:01:28.52	306.46	11.50	-49.3	-52.8	14.3	1.50e-06	0	42	0	695205888	70	5326
2026-01-03 12:01:29.52	306.62	11.46	-49.2	-52.7	14.5	0.00e+00	0	42	0	697303040	70	5238
2026-01-03 12:01:30.53	306.79	11.41	-48.9	-52.3	14.8	0.00e+00	0	42	0	699400192	69	5326
2026-01-03 12:01:31.53	306.95	11.37	-49.0	-52.5	14.7	0.00e+00	0	42	0	701497344	69	5419
2026-01-03 12:01:32.54	307.12	11.33	-49.1	-52.6	14.6	7.00e-07	0	42	0	702545920	69	5485
2026-01-03 12:01:33.54	307.29	11.28	-49.0	-52.4	14.8	7.00e-07	0	42	0	704643072	69	5387
2026-01-03 12:01:34.54	307.45	11.24	-49.1	-52.6	14.6	0.00e+00	0	42	0	706740224	69	5468
2026-01-03 12:01:35.55	307.61	11.19	-49.0	-52.5	14.6	0.00e+00	0	42	0	708837376	69	5430
2026-01-03 12:01:36.55	307.78	11.15	-49.2	-52.8	14.4	0.00e+00	0	42	0	709885952	69	5617
2026-01-03 12:01:37.55	307.94	11.10	-49.1	-52.8	14.4	7.00e-07	0	42	0	711983104	69	5601
2026-01-03 12:01:38.56	308.10	11.06	-49.1	-52.9	14.2	7.00e-07	0	42	0	714080256	69	5708
2026-01-03 12:01:39.56	308.26	11.01	-49.3	-53.1	14.0	7.00e-07	0	42	0	716177408	69	5839
2026-01-03 12:01:40.56	308.42	10.97	-49.4	-53.3	13.8	4.50e-06	0	42	0	718274560	69	5969
2026-01-03 12:01:41.57	308.59	10.92	-49.5	-53.5	13.6	7.60e-06	0	42	0	719323136	69	6116
2026-01-03 12:01:42.57	308.75	10.88	-49.6	-53.7	13.4	9.90e-06	0	42	0	721420288	69	6261
2026-01-03 12:01:43.57	308.90	10.83	-49.6	-53.7	13.3	1.83e-05	0	42	0	723517440	69	6265
2026-01-03 12:01:44.58	309.06	10.79	-49.6	-53.6	13.5	1.60e-05	0	42	0	725614592	69	6155
2026-01-03 12:01:45.58	309.22	10.74	-49.4	-53.2	13.8	7.60e-06	0	42	0	727711744	69	5920
2026-01-03 12:01:46.59	309.38	10.70	-49.3	-53.1	14.0	2.20e-06	0	42	0	728760320	69	5829
2026-01-03 12:01:47.59	309.54	10.65	-49.2	-52.9	14.2	2.20e-06	0	42	0	730857472	69	5679
2026-01-03 12:01:48.60	309.70	10.61	-49.2	-52.9	14.2	7.00e-07	0	42	0	732954624	69	5678
2026-01-03 12:01:49.60	309.85	10.56	-49.2	-52.8	14.2	2.20e-06	0	42	0	735051776	69	5641
2026-01-03 12:01:50.60	310.01	10.51	-49.1	-52.7	14.4	7.00e-07	0	42	0	737148928	69	5536
2026-01-03 12:01:51.61	310.17	10.47	-49.1	-52.7	14.3	0.00e+00	0	42	0	738197504	69	5586
2026-01-03 12:01:52.61	310.32	10.42	-49.1	-52.7	14.4	0.00e+00	0	42	0	740294656	69	5562
2026-01-03 12:01:53.61	310.48	10.38	-49.2	-52.8	14.3	7.00e-07	0	42	0	742391808	69	5605
2026-01-03 12:01:54.62	310.63	10.33	-49.1	-52.6	14.5	0.00e+00	0	42	0	744488960	69	5526
2026-01-03 12:01:55.62	310.79	10.28	-49.0	-52.5	14.5	0.00e+00	0	42	0	746586112	69	5446
2026-01-03 12:01:56.62	310.94	10.24	-48.9	-52.4	14.6	0.00e+00	0	42	0	747634688	69	5395
2026-01-03 12:01:57.63	311.09	10.19	-49.0	-52.4	14.8	0.00e+00	0	42	0	749731840	69	5377
2026-01-03 12:01:58.63	311.25	10.14	-48.5	-51.8	15.3	0.00e+00	0	42	0	751828992	69	4985
2026-01-03 12:01:59.63	311.40	10.10	-48.5	-51.7	15.4	0.00e+00	0	42	0	753926144	68	5242
2026-01-03 12:02:00.64	311.55	10.05	-48.4	-51.6	15.5	0.00e+00	0	42	0	756023296	68	5183
2026-01-03 12:02:01.64	311.70	10.00	-48.2	-51.5	15.6	0.00e+00	0	42	0	757071872	68	5103
2026-01-03 12:02:02.64	311.85	9.95	-48.2	-51.4	15.7	0.00e+00	0	42	0	759169024	68	5057
2026-01-03 12:02:03.64	312.00	9.91	-48.3	-51.5	15.6	0.00e+00	0	42	0	761266176	68	5142
2026-01-03 12:02:04.65	312.15	9.86	-48.2	-51.5	15.5	0.00e+00	0	42	0	763363328	68	5148
2026-01-03 12:02:05.65	312.30	9.81	-48.2	-51.6	15.4	0.00e+00	0	42	0	764411904	68	5213
2026-01-03 12:02:06.65	312.45	9.77	-48.3	-51.8	15.2	0.00e+00	0	42	0	766509056	68	5336
2026-01-03 12:02:07.66	312.60	9.72	-48.2	-51.7	15.3	0.00e+00	0	42	0	768606208	68	5277
2026-01-03 12:02:08.66	312.75	9.67	-48.3	-51.9	15.2	0.00e+00	0	42	0	770703360	68	5374
2026-01-03 12:02:09.66	312.89	9.62	-48.4	-51.9	15.1	0.00e+00	0	42	0	772800512	68	5389
2026-01-03 12:02:10.67	313.04	9.58	-48.5	-52.0	15.0	0.00e+00	0	42	0	773849088	68	5446
2026-01-03 12:02:11.67	313.19	9.53	-48.5	-52.0	15.0	0.00e+00	0	42	0	775946240	68	5418
2026-01-03 12:02:12.67	313.33	9.48	-48.5	-52.0	15.0	7.00e-07	0	42	0	778043392	68	5453
2026-01-03 12:02:13.67	313.48	9.43	-48.6	-52.2	14.9	0.00e+00	0	42	0	780140544	68	5543
2026-01-03 12:02:14.68	313.62	9.38	-48.8	-52.3	14.7	0.00e+00	0	42	0	782237696	68	5606
2026-01-03 12:02:15.68	313.77	9.34	-48.8	-52.2	14.8	0.00e+00	0	42	0	783286272	68	5565
2026-01-03 12:02:16.68	313.91	9.29	-48.8	-52.3	14.7	0.00e+00	0	42	0	785383424	68	5594
2026-01-03 12:02:17.69	314.06	9.24	-48.6	-52.0	15.0	0.00e+00	0	42	0	787480576	68	5464
2026-01-03 12:02:18.69	314.20	9.19	-48.5	-51.9	15.1	0.00e+00	0	42	0	789577728	68	5385
2026-01-03 12:02:19.69	314.34	9.14	-48.4	-51.9	15.2	0.00e+00	0	42	0	791674880	68	5342
2026-01-03 12:02:20.70	314.48	9.10	-48.1	-51.4	15.5	0.00e+00	0	42	0	792723456	68	5077
2026-01-03 12:02:21.70	314.63	9.05	-48.1	-51.3	15.8	0.00e+00	0	42	0	794820608	68	4987
2026-01-03 12:02:22.70	314.77	9.00	-51.2	-57.0	11.0	0.00e+00	0	42	0	796917760	72	7635
2026-01-03 12:02:23.71	314.91	8.95	-52.9	-68.2	3.8	1.49e+00	0	42	104	796917760	76	22209
2026-01-03 12:02:24.71	315.05	8.90	-53.0	-68.4	3.8	1.49e+00	0	42	104	796917760	77	21424
2026-01-03 12:02:25.71	315.19	8.85	-53.6	-68.6	3.8	1.49e+00	0	42	104	796917760	77	21953
2026-01-03 12:02:26.72	315.33	8.80	-53.5	-68.8	3.8	1.49e+00	0	42	104	796917760	77	22307
2026-01-03 12:02:27.72	315.47	8.76	-53.7	-68.8	3.8	1.49e+00	0	42	104	796917760	78	21050
2026-01-03 12:02:28.73	315.61	8.71	-53.4	-68.8	3.8	1.49e+00	0	42	104	796917760	78	21173
2026-01-03 12:02:29.73	315.74	8.66	-53.6	-68.8	3.8	1.49e+00	0	42	104	796917760	78	21212
2026-01-03 12:02:30.74	315.88	8.61	-53.6	-68.8	3.8	1.49e+00	0	42	104	796917760	78	21213
2026-01-03 12:02:31.74	316.02	8.56	-53.7	-68.9	3.8	1.49e+00	0	42	104	796917760	78	21299
2026-01-03 12:02:32.75	316.16	8.51	-53.9	-68.9	3.8	1.49e+00	0	42	104	796917760	78	21383
2026-01-03 12:02:33.75	316.29	8.46	-53.6	-68.9	3.8	1.49e+00	0	42	104	796917760	78	21346
2026-01-03 12:02:34.75	316.43	8.41	-53.8	-68.9	3.8	1.49e+00	0	42	104	796917760	78	21378
2026-01-03 12:02:35.76	316.57	8.36	-53.8	-68.9	3.8	1.49e+00	0	42	104	796917760	78	21327
2026-01-03 12:02:36.76	316.70	8.31	-53.7	-68.9	3.8	1.49e+00	0	42	104	796917760	78	21420
2026-01-03 12:02:37.77	316.84	8.27	-53.7	-68.9	3.8	1.49e+00	0	42	104	796917760	78	21353
2026-01-03 12:02:38.77	316.97	8.22	-53.8	-68.9	3.8	1.49e+00	0	42	104	796917760	78	21271
2026-01-03 12:02:39.78	317.11	8.17	-53.7	-68.9	3.8	1.49e+00	0	42	104	796917760	78	21370
2026-01-03 12:02:40.78	317.24	8.12	-53.7	-68.9	3.8	1.49e+00	0	42	104	796917760	78	21317
2026-01-03 12:02:41.79	317.37	8.07	-53.7	-68.8	3.8	1.49e+00	0	42	104	796917760	78	21246
2026-01-03 12:02:42.79	317.50	8.02	-53.6	-68.8	3.8	1.49e+00	0	42	104	796917760	78	21192
2026-01-03 12:02:43.79	317.64	7.97	-53.6	-68.8	3.8	1.49e+00	0	43	104	796917760	78	21136
2026-01-03 12:02:44.80	317.77	7.92	-53.6	-68.8	3.8	1.49e+00	0	42	104	796917760	78	21180
2026-01-03 12:02:45.80	317.90	7.87	-53.6	-68.8	3.8	1.49e+00	0	42	104	796917760	78	21173
2026-01-03 12:02:46.81	318.03	7.82	-53.5	-68.8	3.8	1.49e+00	0	42	104	796917760	78	21144
2026-01-03 12:02:47.81	318.16	7.77	-53.6	-68.8	3.8	1.49e+00	0	42	104	796917760	78	21187
2026-01-03 12:02:48.82	318.29	7.72	-53.5	-68.8	3.8	1.49e+00	0	42	104	796917760	78	21206
2026-01-03 12:02:49.82	318.42	7.67	-53.6	-68.8	3.8	1.49e+00	0	42	104	796917760	78	21070
2026-01-03 12:02:50.82	318.55	7.62	-53.5	-68.8	3.8	1.49e+00	0	42	104	796917760	78	21084
2026-01-03 12:02:51.83	318.68	7.57	-53.5	-68.8	3.8	1.49e+00	0	42	104	796917760	78	21057
2026-01-03 12:02:52.83	318.81	7.52	-53.5	-68.8	3.8	1.49e+00	0	42	104	796917760	78	21162
2026-01-03 12:02:53.84	318.94	7.47	-53.5	-68.8	3.8	1.49e+00	0	42	104	796917760	78	21107
2026-01-03 12:02:54.84	319.06	7.42	-53.5	-68.8	3.8	1.49e+00	0	42	104	796917760	78	21149
2026-01-03 12:02:55.85	319.19	7.38	-53.5	-68.8	3.8	1.49e+00	0	42	104	796917760	78	21121
2026-01-03 12:02:56.85	319.32	7.33	-53.5	-68.8	3.8	1.49e+00	0	43	104	796917760	78	21130
2026-01-03 12:02:57.86	319.44	7.28	-53.5	-68.8	3.8	1.49e+00	0	42	104	796917760	78	21082
2026-01-03 12:02:58.86	319.57	7.23	-53.5	-68.8	3.8	1.49e+00	0	43	104	796917760	78	21076
2026-01-03 12:02:59.87	319.70	7.18	-53.5	-68.8	3.8	1.49e+00	0	42	104	796917760	78	21086
2026-01-03 12:03:00.87	319.82	7.13	-53.5	-68.8	3.8	1.49e+00	0	43	104	796917760	78	21141
2026-01-03 12:03:01.88	319.95	7.08	-53.5	-68.8	3.8	1.49e+00	0	43	104	796917760	78	21160
2026-01-03 12:03:02.88	320.07	7.03	-53.5	-68.7	3.8	1.49e+00	0	43	104	796917760	78	21013
2026-01-03 12:03:03.88	320.19	6.98	-53.5	-68.8	3.8	1.49e+00	0	43	104	796917760	78	21127
2026-01-03 12:03:04.89	320.32	6.93	-53.6	-68.8	3.8	1.49e+00	0	43	104	796917760	78	21183
2026-01-03 12:03:05.89	320.44	6.88	-53.5	-68.8	3.8	1.49e+00	0	42	104	796917760	78	21126
2026-01-03 12:03:06.90	320.56	6.83	-53.5	-68.8	3.8	1.49e+00	0	42	104	796917760	78	21060
2026-01-03 12:03:07.90	320.68	6.78	-53.5	-68.8	3.8	1.49e+00	0	43	104	796917760	78	21140
2026-01-03 12:03:08.91	320.81	6.73	-53.5	-68.8	3.8	1.49e+00	0	42	104	796917760	78	21063
2026-01-03 12:03:09.91	320.93	6.68	-53.5	-68.8	3.8	1.49e+00	0	42	104	796917760	78	21046
2026-01-03 12:03:10.92	321.05	6.63	-53.5	-68.8	3.8	1.49e+00	0	42	104	796917760	78	21115
2026-01-03 12:03:11.92	321.17	6.58	-53.5	-68.8	3.8	1.49e+00	0	42	104	796917760	78	21046
2026-01-03 12:03:12.93	321.29	6.53	-53.5	-68.8	3.8	1.49e+00	0	42	104	796917760	78	21114
2026-01-03 12:03:13.93	321.41	6.48	-53.5	-68.8	3.8	1.49e+00	0	42	104	796917760	78	21147
2026-01-03 12:03:14.93	321.53	6.43	-53.5	-68.8	3.8	1.49e+00	0	42	104	796917760	78	21052
2026-01-03 12:03:15.94	321.65	6.38	-53.5	-68.8	3.8	1.49e+00	0	42	104	796917760	78	21101
2026-01-03 12:03:16.94	321.77	6.33	-53.5	-68.8	3.8	1.49e+00	0	42	104	796917760	78	21066
2026-01-03 12:03:17.95	321.88	6.28	-53.5	-68.8	3.8	1.49e+00	0	42	104	796917760	78	21151
2026-01-03 12:03:18.95	322.00	6.23	-53.5	-68.8	3.8	1.49e+00	0	42	104	796917760	78	21193
2026-01-03 12:03:19.95	322.12	6.18	-53.5	-68.8	3.8	1.49e+00	0	43	104	796917760	78	21177
2026-01-03 12:03:20.96	322.24	6.13	-53.5	-68.8	3.8	1.49e+00	0	42	104	796917760	78	21035
2026-01-03 12:03:21.96	322.35	6.08	-53.5	-68.8	3.8	1.49e+00	0	43	104	796917760	78	21184
2026-01-03 12:03:22.97	322.47	6.03	-53.6	-68.8	3.8	1.49e+00	0	43	104	796917760	78	21205
2026-01-03 12:03:23.97	322.59	5.98	-53.5	-68.8	3.8	1.49e+00	0	42	104	796917760	78	21129
2026-01-03 12:03:24.98	322.70	5.93	-53.5	-68.8	3.8	1.49e+00	0	42	104	796917760	78	21039
2026-01-03 12:03:25.98	322.82	5.88	-53.5	-68.8	3.8	1.49e+00	0	42	104	796917760	78	21066
2026-01-03 12:03:26.99	322.93	5.83	-53.5	-68.8	3.8	1.49e+00	0	43	104	796917760	78	21018
2026-01-03 12:03:27.99	323.05	5.78	-53.5	-68.8	3.8	1.49e+00	0	43	104	796917760	78	21119
2026-01-03 12:03:28.99	323.16	5.73	-53.5	-68.8	3.8	1.49e+00	0	42	104	796917760	78	21140
2026-01-03 12:03:30.00	323.27	5.68	-53.5	-68.8	3.8	1.49e+00	0	42	104	796917760	78	21127
2026-01-03 12:03:31.00	323.39	5.63	-53.5	-68.8	3.8	1.49e+00	0	43	104	796917760	78	21123
2026-01-03 12:03:32.01	323.50	5.58	-53.5	-68.8	3.8	1.49e+00	0	43	104	796917760	78	21021
2026-01-03 12:03:33.01	323.61	5.53	-53.5	-68.8	3.8	1.49e+00	0	42	104	796917760	78	21081
2026-01-03 12:03:34.02	323.72	5.48	-53.5	-68.8	3.8	1.49e+00	0	42	104	796917760	78	21105
2026-01-03 12:03:35.02	323.84	5.43	-53.5	-68.8	3.8	1.49e+00	0	42	104	796917760	78	21147
2026-01-03 12:03:36.02	323.95	5.38	-53.5	-68.8	3.8	1.49e+00	0	42	104	796917760	78	21201
2026-01-03 12:03:37.03	324.06	5.33	-53.6	-68.8	3.8	1.49e+00	0	42	104	796917760	78	21143
2026-01-03 12:03:38.03	324.17	5.28	-53.6	-68.8	3.8	1.49e+00	0	43	104	796917760	78	21135
2026-01-03 12:03:39.04	324.28	5.23	-53.5	-68.8	3.8	1.49e+00	0	42	104	796917760	78	21242
2026-01-03 12:03:40.04	324.39	5.18	-53.5	-68.8	3.8	1.49e+00	0	42	104	796917760	78	21089
2026-01-03 12:03:41.05	324.50	5.13	-53.5	-68.8	3.8	1.49e+00	0	42	104	796917760	78	21177
2026-01-03 12:03:42.05	324.61	5.08	-53.6	-68.8	3.8	1.49e+00	0	42	104	796917760	78	21174
2026-01-03 12:03:43.06	324.72	5.03	-53.6	-68.8	3.8	1.49e+00	0	43	104	796917760	78	21179
2026-01-03 12:03:44.06	324.83	4.98	-53.5	-68.8	3.8	1.49e+00	0	42	104	796917760	78	21115

#Closed at: 2026-01-03 12:03:45
#Recorded file [796 MB]: D:/Data/31040_260103_145408.dat