passes_logs/2025/01/18/SPB_Silybum_02/SPB_Silybum_02__20250118_073222_SUOMI_NPP_rec.log

#Pass ID: 20250118_073222_SUOMI NPP
#Satellite: SUOMI NPP
#Configuration: NPP
#Start time: 2025-01-18 07:32:21

#Version: 2.0.20230423
#Station: SPB_Silybum_02
#Location: 30.233357 lon 59.946436 lat
#TLE: 1 37849U 11061A   25017.80975554  .00000187  00000+0  10930-3 0  9999
#TLE: 2 37849  98.7450 318.7628 0001577  36.7528 323.3756 14.19539590685310

#Time	Az	El	Level	Level2	SNR	BER	Gain	Gain2
2025-01-18 07:32:23.28	80.60	4.06	
2025-01-18 07:32:23.48	80.58	4.07	
2025-01-18 07:32:23.68	80.56	4.08	
2025-01-18 07:32:23.88	80.54	4.09	
2025-01-18 07:32:24.09	80.52	4.10	
2025-01-18 07:32:24.29	80.50	4.11	
2025-01-18 07:32:24.49	80.48	4.12	
2025-01-18 07:32:24.70	80.46	4.14	
2025-01-18 07:32:24.90	80.44	4.15	
2025-01-18 07:32:25.10	80.42	4.16	
2025-01-18 07:32:25.31	80.40	4.17	
2025-01-18 07:32:25.51	80.38	4.18	
2025-01-18 07:32:25.71	80.36	4.19	
2025-01-18 07:32:25.92	80.34	4.20	
2025-01-18 07:32:26.12	80.32	4.21	
2025-01-18 07:32:26.32	80.30	4.22	
2025-01-18 07:32:26.52	80.28	4.23	
2025-01-18 07:32:26.73	80.26	4.24	
2025-01-18 07:32:26.93	80.24	4.25	
2025-01-18 07:32:27.13	80.22	4.26	
2025-01-18 07:32:27.34	80.20	4.27	
2025-01-18 07:32:27.54	80.18	4.28	
2025-01-18 07:32:27.74	80.16	4.29	
2025-01-18 07:32:27.95	80.13	4.30	
2025-01-18 07:32:28.15	80.11	4.31	
2025-01-18 07:32:28.35	80.09	4.32	
2025-01-18 07:32:28.56	80.07	4.33	
2025-01-18 07:32:28.76	80.05	4.34	
2025-01-18 07:32:28.96	80.03	4.35	
2025-01-18 07:32:29.17	80.01	4.36	
2025-01-18 07:32:29.37	79.99	4.37	
2025-01-18 07:32:29.57	79.97	4.38	
2025-01-18 07:32:29.77	79.95	4.39	
2025-01-18 07:32:29.98	79.93	4.40	
2025-01-18 07:32:30.18	79.91	4.41	
2025-01-18 07:32:30.38	79.89	4.42	
2025-01-18 07:32:30.59	79.86	4.43	
2025-01-18 07:32:30.79	79.84	4.44	
2025-01-18 07:32:30.99	79.82	4.45	
2025-01-18 07:32:31.20	79.80	4.46	
2025-01-18 07:32:31.40	79.78	4.47	
2025-01-18 07:32:31.60	79.76	4.48	
2025-01-18 07:32:31.81	79.74	4.50	
2025-01-18 07:32:32.01	79.72	4.51	
2025-01-18 07:32:32.21	79.70	4.52	
2025-01-18 07:32:32.42	79.68	4.53	
2025-01-18 07:32:32.62	79.66	4.54	
2025-01-18 07:32:32.82	79.64	4.55	
2025-01-18 07:32:33.02	79.61	4.56	
2025-01-18 07:32:33.23	79.59	4.57	
2025-01-18 07:32:33.43	79.57	4.58	
2025-01-18 07:32:33.63	79.55	4.59	
2025-01-18 07:32:33.84	79.53	4.60	
2025-01-18 07:32:34.04	79.51	4.61	
2025-01-18 07:32:34.24	79.49	4.62	
2025-01-18 07:32:34.45	79.47	4.63	
2025-01-18 07:32:34.65	79.45	4.64	
2025-01-18 07:32:34.85	79.42	4.65	
2025-01-18 07:32:35.06	79.40	4.66	
2025-01-18 07:32:35.26	79.38	4.67	
2025-01-18 07:32:35.46	79.36	4.68	
2025-01-18 07:32:35.66	79.34	4.69	
2025-01-18 07:32:35.87	79.32	4.70	
2025-01-18 07:32:36.07	79.30	4.71	
2025-01-18 07:32:36.27	79.28	4.72	
2025-01-18 07:32:36.48	79.25	4.73	
2025-01-18 07:32:36.68	79.23	4.74	
2025-01-18 07:32:36.88	79.21	4.75	
2025-01-18 07:32:37.09	79.19	4.76	
2025-01-18 07:32:37.29	79.17	4.77	
2025-01-18 07:32:37.49	79.15	4.78	
2025-01-18 07:32:37.70	79.13	4.79	
2025-01-18 07:32:37.90	79.11	4.80	
2025-01-18 07:32:38.10	79.08	4.81	
2025-01-18 07:32:38.31	79.06	4.83	
2025-01-18 07:32:38.51	79.04	4.84	
2025-01-18 07:32:38.71	79.02	4.85	
2025-01-18 07:32:38.91	79.00	4.86	
2025-01-18 07:32:39.12	78.98	4.87	
2025-01-18 07:32:39.32	78.96	4.88	
2025-01-18 07:32:39.52	78.93	4.89	
2025-01-18 07:32:39.73	78.91	4.90	
2025-01-18 07:32:39.93	78.89	4.91	
2025-01-18 07:32:40.13	78.87	4.92	
2025-01-18 07:32:40.34	78.85	4.93	
2025-01-18 07:32:40.54	78.83	4.94	
2025-01-18 07:32:40.74	78.80	4.95	
2025-01-18 07:32:40.95	78.78	4.96	
2025-01-18 07:32:41.15	78.76	4.97	
2025-01-18 07:32:41.35	78.74	4.98	
2025-01-18 07:32:41.55	78.72	4.99	
2025-01-18 07:32:41.76	78.70	5.00	
2025-01-18 07:32:41.96	78.68	5.01	
2025-01-18 07:32:42.16	78.65	5.02	
2025-01-18 07:32:42.37	78.63	5.03	
2025-01-18 07:32:42.57	78.61	5.04	
2025-01-18 07:32:42.77	78.59	5.05	
2025-01-18 07:32:42.98	78.57	5.06	
2025-01-18 07:32:43.18	78.54	5.07	
2025-01-18 07:32:43.38	78.52	5.08	
2025-01-18 07:32:43.59	78.50	5.09	
2025-01-18 07:32:43.79	78.48	5.10	
2025-01-18 07:32:43.99	78.46	5.11	
2025-01-18 07:32:44.20	78.43	5.12	
2025-01-18 07:32:44.40	78.41	5.13	
2025-01-18 07:32:44.60	78.39	5.14	
2025-01-18 07:32:44.80	78.37	5.15	
2025-01-18 07:32:45.01	78.35	5.17	
2025-01-18 07:32:45.21	78.33	5.18	
2025-01-18 07:32:45.41	78.30	5.19	
2025-01-18 07:32:45.62	78.28	5.20	
2025-01-18 07:32:45.82	78.26	5.21	
2025-01-18 07:32:46.02	78.24	5.22	
2025-01-18 07:32:46.23	78.22	5.23	
2025-01-18 07:32:46.43	78.19	5.24	
2025-01-18 07:32:46.63	78.17	5.25	
2025-01-18 07:32:46.84	78.15	5.26	
2025-01-18 07:32:47.04	78.13	5.27	
2025-01-18 07:32:47.24	78.11	5.28	
2025-01-18 07:32:47.45	78.08	5.29	
2025-01-18 07:32:47.65	78.06	5.30	
2025-01-18 07:32:47.85	78.04	5.31	
2025-01-18 07:32:48.05	78.02	5.32	
2025-01-18 07:32:48.26	77.99	5.33	
2025-01-18 07:32:48.46	77.97	5.34	
2025-01-18 07:32:48.66	77.95	5.35	
2025-01-18 07:32:48.87	77.93	5.36	
2025-01-18 07:32:49.07	77.91	5.37	
2025-01-18 07:32:49.27	77.88	5.38	
2025-01-18 07:32:49.48	77.86	5.39	
2025-01-18 07:32:49.68	77.84	5.40	
2025-01-18 07:32:49.88	77.82	5.41	
2025-01-18 07:32:50.09	77.79	5.42	
2025-01-18 07:32:50.29	77.77	5.43	
2025-01-18 07:32:50.49	77.75	5.44	
2025-01-18 07:32:50.69	77.73	5.45	
2025-01-18 07:32:50.90	77.71	5.46	
2025-01-18 07:32:51.10	77.68	5.47	
2025-01-18 07:32:51.30	77.66	5.48	
2025-01-18 07:32:51.51	77.64	5.50	
2025-01-18 07:32:51.71	77.62	5.51	
2025-01-18 07:32:51.91	77.59	5.52	
2025-01-18 07:32:52.12	77.57	5.53	
2025-01-18 07:32:52.32	77.55	5.54	
2025-01-18 07:32:52.52	77.53	5.55	
2025-01-18 07:32:52.73	77.50	5.56	
2025-01-18 07:32:52.93	77.48	5.57	
2025-01-18 07:32:53.13	77.46	5.58	
2025-01-18 07:32:53.34	77.44	5.59	
2025-01-18 07:32:53.54	77.41	5.60	
2025-01-18 07:32:53.74	77.39	5.61	
2025-01-18 07:32:53.94	77.37	5.62	
2025-01-18 07:32:54.15	77.34	5.63	
2025-01-18 07:32:54.35	77.32	5.64	
2025-01-18 07:32:54.55	77.30	5.65	
2025-01-18 07:32:54.76	77.28	5.66	
2025-01-18 07:32:54.96	77.25	5.67	
2025-01-18 07:32:55.16	77.23	5.68	
2025-01-18 07:32:55.37	77.21	5.69	
2025-01-18 07:32:55.57	77.19	5.70	
2025-01-18 07:32:55.77	77.16	5.71	
2025-01-18 07:32:55.98	77.14	5.72	
2025-01-18 07:32:56.18	77.12	5.73	
2025-01-18 07:32:56.38	77.10	5.74	
2025-01-18 07:32:56.58	77.07	5.75	
2025-01-18 07:32:56.79	77.05	5.76	
2025-01-18 07:32:56.99	77.03	5.77	
2025-01-18 07:32:57.19	77.00	5.78	
2025-01-18 07:32:57.40	76.98	5.79	
2025-01-18 07:32:57.60	76.96	5.80	
2025-01-18 07:32:57.80	76.94	5.81	
2025-01-18 07:32:58.01	76.91	5.83	
2025-01-18 07:32:58.21	76.89	5.84	
2025-01-18 07:32:58.41	76.87	5.85	
2025-01-18 07:32:58.62	76.84	5.86	
2025-01-18 07:32:58.82	76.82	5.87	
2025-01-18 07:32:59.02	76.80	5.88	
2025-01-18 07:32:59.23	76.77	5.89	
2025-01-18 07:32:59.43	76.75	5.90	
2025-01-18 07:32:59.63	76.73	5.91	
2025-01-18 07:32:59.83	76.71	5.92	
2025-01-18 07:33:00.04	76.68	5.93	
2025-01-18 07:33:00.24	76.66	5.94	
2025-01-18 07:33:00.44	76.64	5.95	
2025-01-18 07:33:00.65	76.61	5.96	
2025-01-18 07:33:00.85	76.59	5.97	
2025-01-18 07:33:01.05	76.57	5.98	
2025-01-18 07:33:01.26	76.54	5.99	
2025-01-18 07:33:01.46	76.52	6.00	
2025-01-18 07:33:01.66	76.50	6.01	
2025-01-18 07:33:01.87	76.47	6.02	
2025-01-18 07:33:02.07	76.45	6.03	
2025-01-18 07:33:02.27	76.43	6.04	
2025-01-18 07:33:02.48	76.40	6.05	
2025-01-18 07:33:02.68	76.38	6.06	
2025-01-18 07:33:02.88	76.36	6.07	
2025-01-18 07:33:03.08	76.33	6.08	
2025-01-18 07:33:03.29	76.31	6.09	
2025-01-18 07:33:03.49	76.29	6.10	
2025-01-18 07:33:03.69	76.26	6.11	
2025-01-18 07:33:03.90	76.24	6.12	
2025-01-18 07:33:04.10	76.22	6.13	
2025-01-18 07:33:04.30	76.19	6.14	
2025-01-18 07:33:04.51	76.17	6.16	
2025-01-18 07:33:04.71	76.15	6.17	
2025-01-18 07:33:04.91	76.12	6.18	
2025-01-18 07:33:05.12	76.10	6.19	
2025-01-18 07:33:05.32	76.07	6.20	
2025-01-18 07:33:05.52	76.05	6.21	
2025-01-18 07:33:05.72	76.03	6.22	
2025-01-18 07:33:05.93	76.00	6.23	
2025-01-18 07:33:06.13	75.98	6.24	
2025-01-18 07:33:06.33	75.96	6.25	
2025-01-18 07:33:06.54	75.93	6.26	
2025-01-18 07:33:06.74	75.91	6.27	
2025-01-18 07:33:06.94	75.89	6.28	
2025-01-18 07:33:07.15	75.86	6.29	
2025-01-18 07:33:07.35	75.84	6.30	
2025-01-18 07:33:07.55	75.81	6.31	
2025-01-18 07:33:07.76	75.79	6.32	
2025-01-18 07:33:07.96	75.77	6.33	
2025-01-18 07:33:08.16	75.74	6.34	
2025-01-18 07:33:08.37	75.72	6.35	
2025-01-18 07:33:08.57	75.70	6.36	
2025-01-18 07:33:08.77	75.67	6.37	
2025-01-18 07:33:08.97	75.65	6.38	
2025-01-18 07:33:09.18	75.62	6.39	
2025-01-18 07:33:09.38	75.60	6.40	
2025-01-18 07:33:09.58	75.58	6.41	
2025-01-18 07:33:09.79	75.55	6.42	
2025-01-18 07:33:09.99	75.53	6.43	
2025-01-18 07:33:10.19	75.50	6.44	
2025-01-18 07:33:10.40	75.48	6.45	
2025-01-18 07:33:10.60	75.46	6.46	
2025-01-18 07:33:10.80	75.43	6.47	
2025-01-18 07:33:11.01	75.41	6.48	
2025-01-18 07:33:11.21	75.38	6.49	
2025-01-18 07:33:11.41	75.36	6.50	
2025-01-18 07:33:11.61	75.34	6.51	
2025-01-18 07:33:11.82	75.31	6.53	
2025-01-18 07:33:12.02	75.29	6.54	
2025-01-18 07:33:12.22	75.26	6.55	
2025-01-18 07:33:12.43	75.24	6.56	
2025-01-18 07:33:12.63	75.22	6.57	
2025-01-18 07:33:12.83	75.19	6.58	
2025-01-18 07:33:13.04	75.17	6.59	
2025-01-18 07:33:13.24	75.14	6.60	
2025-01-18 07:33:13.44	75.12	6.61	
2025-01-18 07:33:13.65	75.09	6.62	
2025-01-18 07:33:13.85	75.07	6.63	
2025-01-18 07:33:14.05	75.05	6.64	
2025-01-18 07:33:14.26	75.02	6.65	
2025-01-18 07:33:14.46	75.00	6.66	
2025-01-18 07:33:14.66	74.97	6.67	
2025-01-18 07:33:14.86	74.95	6.68	
2025-01-18 07:33:15.07	74.92	6.69	
2025-01-18 07:33:15.27	74.90	6.70	
2025-01-18 07:33:15.47	74.88	6.71	
2025-01-18 07:33:15.68	74.85	6.72	
2025-01-18 07:33:15.88	74.83	6.73	
2025-01-18 07:33:16.08	74.80	6.74	
2025-01-18 07:33:16.29	74.78	6.75	
2025-01-18 07:33:16.49	74.75	6.76	
2025-01-18 07:33:16.69	74.73	6.77	
2025-01-18 07:33:16.90	74.70	6.78	
2025-01-18 07:33:17.10	74.68	6.79	
2025-01-18 07:33:17.30	74.65	6.80	
2025-01-18 07:33:17.51	74.63	6.81	
2025-01-18 07:33:17.71	74.61	6.82	
2025-01-18 07:33:17.91	74.58	6.83	
2025-01-18 07:33:18.11	74.56	6.84	
2025-01-18 07:33:18.32	74.53	6.85	
2025-01-18 07:33:18.52	74.51	6.86	
2025-01-18 07:33:18.72	74.48	6.87	
2025-01-18 07:33:18.93	74.46	6.88	
2025-01-18 07:33:19.13	74.43	6.90	
2025-01-18 07:33:19.33	74.41	6.91	
2025-01-18 07:33:19.54	74.38	6.92	
2025-01-18 07:33:19.74	74.36	6.93	
2025-01-18 07:33:19.94	74.33	6.94	
2025-01-18 07:33:20.15	74.31	6.95	
2025-01-18 07:33:20.35	74.28	6.96	
2025-01-18 07:33:20.55	74.26	6.97	
2025-01-18 07:33:20.75	74.23	6.98	
2025-01-18 07:33:20.96	74.21	6.99	
2025-01-18 07:33:21.16	74.18	7.00	
2025-01-18 07:33:21.36	74.16	7.01	
2025-01-18 07:33:21.57	74.13	7.02	
2025-01-18 07:33:21.77	74.11	7.03	
2025-01-18 07:33:21.97	74.08	7.04	
2025-01-18 07:33:22.18	74.06	7.05	
2025-01-18 07:33:22.38	74.03	7.06	
2025-01-18 07:33:22.58	74.01	7.07	
2025-01-18 07:33:22.79	73.98	7.08	
2025-01-18 07:33:22.99	73.96	7.09	
2025-01-18 07:33:23.19	73.93	7.10	
2025-01-18 07:33:23.40	73.91	7.11	
2025-01-18 07:33:23.60	73.88	7.12	
2025-01-18 07:33:23.80	73.86	7.13	
2025-01-18 07:33:24.00	73.83	7.14	
2025-01-18 07:33:24.21	73.81	7.15	
2025-01-18 07:33:24.41	73.78	7.16	
2025-01-18 07:33:24.61	73.76	7.17	
2025-01-18 07:33:24.82	73.73	7.18	
2025-01-18 07:33:25.02	73.71	7.19	
2025-01-18 07:33:25.22	73.68	7.20	
2025-01-18 07:33:25.43	73.66	7.21	
2025-01-18 07:33:25.63	73.63	7.22	
2025-01-18 07:33:25.83	73.61	7.23	
2025-01-18 07:33:26.04	73.58	7.24	
2025-01-18 07:33:26.24	73.56	7.25	
2025-01-18 07:33:26.44	73.53	7.26	
2025-01-18 07:33:26.65	73.50	7.27	
2025-01-18 07:33:26.85	73.48	7.28	
2025-01-18 07:33:27.05	73.45	7.29	
2025-01-18 07:33:27.25	73.43	7.30	
2025-01-18 07:33:27.46	73.40	7.31	
2025-01-18 07:33:27.66	73.38	7.32	
2025-01-18 07:33:27.86	73.35	7.33	
2025-01-18 07:33:28.07	73.33	7.35	
2025-01-18 07:33:28.27	73.30	7.36	
2025-01-18 07:33:28.47	73.28	7.37	
2025-01-18 07:33:28.68	73.25	7.38	
2025-01-18 07:33:28.88	73.22	7.39	
2025-01-18 07:33:29.08	73.20	7.40	
2025-01-18 07:33:29.29	73.17	7.41	
2025-01-18 07:33:29.49	73.15	7.42	
2025-01-18 07:33:29.69	73.12	7.43	
2025-01-18 07:33:29.89	73.10	7.44	
2025-01-18 07:33:30.10	73.07	7.45	
2025-01-18 07:33:30.30	73.04	7.46	
2025-01-18 07:33:30.50	73.02	7.47	
2025-01-18 07:33:30.71	72.99	7.48	
2025-01-18 07:33:30.91	72.97	7.49	
2025-01-18 07:33:31.11	72.94	7.50	
2025-01-18 07:33:31.32	72.92	7.51	
2025-01-18 07:33:31.52	72.89	7.52	
2025-01-18 07:33:31.72	72.86	7.53	
2025-01-18 07:33:31.93	72.84	7.54	
2025-01-18 07:33:32.13	72.81	7.55	
2025-01-18 07:33:32.33	72.79	7.56	
2025-01-18 07:33:32.54	72.76	7.57	
2025-01-18 07:33:32.74	72.73	7.58	
2025-01-18 07:33:32.94	72.71	7.59	
2025-01-18 07:33:33.14	72.68	7.60	
2025-01-18 07:33:33.35	72.66	7.61	
2025-01-18 07:33:33.55	72.63	7.62	
2025-01-18 07:33:33.75	72.60	7.63	
2025-01-18 07:33:33.96	72.58	7.64	
2025-01-18 07:33:34.16	72.55	7.65	
2025-01-18 07:33:34.36	72.53	7.66	
2025-01-18 07:33:34.57	72.50	7.67	
2025-01-18 07:33:34.77	72.47	7.68	
2025-01-18 07:33:34.97	72.45	7.69	
2025-01-18 07:33:35.18	72.42	7.70	
2025-01-18 07:33:35.38	72.40	7.71	
2025-01-18 07:33:35.58	72.37	7.72	
2025-01-18 07:33:35.78	72.34	7.73	
2025-01-18 07:33:35.99	72.32	7.74	
2025-01-18 07:33:36.19	72.29	7.75	
2025-01-18 07:33:36.39	72.26	7.76	
2025-01-18 07:33:36.60	72.24	7.77	
2025-01-18 07:33:36.80	72.21	7.78	
2025-01-18 07:33:37.00	72.19	7.79	
2025-01-18 07:33:37.21	72.16	7.80	
2025-01-18 07:33:37.41	72.13	7.81	
2025-01-18 07:33:37.61	72.11	7.82	
2025-01-18 07:33:37.82	72.08	7.83	
2025-01-18 07:33:38.02	72.05	7.84	
2025-01-18 07:33:38.22	72.03	7.85	
2025-01-18 07:33:38.43	72.00	7.86	
2025-01-18 07:33:38.63	71.97	7.87	
2025-01-18 07:33:38.83	71.95	7.88	
2025-01-18 07:33:39.03	71.92	7.89	
2025-01-18 07:33:39.24	71.89	7.90	
2025-01-18 07:33:39.44	71.87	7.91	
2025-01-18 07:33:39.64	71.84	7.92	
2025-01-18 07:33:39.85	71.81	7.93	
2025-01-18 07:33:40.05	71.79	7.94	
2025-01-18 07:33:40.25	71.76	7.95	
2025-01-18 07:33:40.46	71.73	7.96	
2025-01-18 07:33:40.66	71.71	7.97	
2025-01-18 07:33:40.86	71.68	7.98	
2025-01-18 07:33:41.07	71.65	7.99	
2025-01-18 07:33:41.27	71.63	8.00	
2025-01-18 07:33:41.47	71.60	8.01	
2025-01-18 07:33:41.68	71.57	8.03	
2025-01-18 07:33:41.88	71.55	8.04	
2025-01-18 07:33:42.08	71.52	8.05	
2025-01-18 07:33:42.28	71.49	8.06	
2025-01-18 07:33:42.49	71.47	8.07	
2025-01-18 07:33:42.69	71.44	8.08	
2025-01-18 07:33:42.89	71.41	8.09	
2025-01-18 07:33:43.10	71.39	8.10	
2025-01-18 07:33:43.30	71.36	8.11	
2025-01-18 07:33:43.50	71.33	8.12	
2025-01-18 07:33:43.71	71.30	8.13	
2025-01-18 07:33:43.91	71.28	8.14	
2025-01-18 07:33:44.11	71.25	8.15	
2025-01-18 07:33:44.32	71.22	8.16	
2025-01-18 07:33:44.52	71.20	8.17	
2025-01-18 07:33:44.72	71.17	8.18	
2025-01-18 07:33:44.92	71.14	8.19	
2025-01-18 07:33:45.13	71.12	8.20	
2025-01-18 07:33:45.33	71.09	8.21	
2025-01-18 07:33:45.53	71.06	8.22	
2025-01-18 07:33:45.74	71.03	8.23	
2025-01-18 07:33:45.94	71.01	8.24	
2025-01-18 07:33:46.14	70.98	8.25	
2025-01-18 07:33:46.35	70.95	8.26	
2025-01-18 07:33:46.55	70.93	8.27	
2025-01-18 07:33:46.75	70.90	8.28	
2025-01-18 07:33:46.96	70.87	8.29	
2025-01-18 07:33:47.16	70.84	8.30	
2025-01-18 07:33:47.36	70.82	8.31	
2025-01-18 07:33:47.57	70.79	8.32	
2025-01-18 07:33:47.77	70.76	8.33	
2025-01-18 07:33:47.97	70.74	8.34	
2025-01-18 07:33:48.17	70.71	8.35	
2025-01-18 07:33:48.38	70.68	8.36	
2025-01-18 07:33:48.58	70.65	8.37	
2025-01-18 07:33:48.78	70.63	8.38	
2025-01-18 07:33:48.99	70.60	8.39	
2025-01-18 07:33:49.19	70.57	8.40	
2025-01-18 07:33:49.39	70.54	8.41	
2025-01-18 07:33:49.60	70.51	8.42	
2025-01-18 07:33:49.80	70.49	8.43	
2025-01-18 07:33:50.00	70.46	8.44	
2025-01-18 07:33:50.21	70.43	8.45	
2025-01-18 07:33:50.41	70.40	8.46	
2025-01-18 07:33:50.61	70.38	8.47	
2025-01-18 07:33:50.81	70.35	8.48	
2025-01-18 07:33:51.02	70.32	8.49	
2025-01-18 07:33:51.22	70.29	8.50	
2025-01-18 07:33:51.42	70.27	8.51	
2025-01-18 07:33:51.63	70.24	8.52	
2025-01-18 07:33:51.83	70.21	8.53	
2025-01-18 07:33:52.03	70.18	8.54	
2025-01-18 07:33:52.24	70.16	8.55	
2025-01-18 07:33:52.44	70.13	8.56	
2025-01-18 07:33:52.64	70.10	8.57	
2025-01-18 07:33:52.85	70.07	8.58	
2025-01-18 07:33:53.05	70.04	8.59	
2025-01-18 07:33:53.25	70.02	8.60	
2025-01-18 07:33:53.46	69.99	8.61	
2025-01-18 07:33:53.66	69.96	8.62	
2025-01-18 07:33:53.86	69.93	8.63	
2025-01-18 07:33:54.06	69.91	8.64	
2025-01-18 07:33:54.27	69.88	8.65	
2025-01-18 07:33:54.47	69.85	8.66	
2025-01-18 07:33:54.67	69.82	8.67	
2025-01-18 07:33:54.88	69.79	8.68	
2025-01-18 07:33:55.08	69.77	8.69	
2025-01-18 07:33:55.28	69.74	8.70	
2025-01-18 07:33:55.49	69.71	8.71	
2025-01-18 07:33:55.69	69.68	8.72	
2025-01-18 07:33:55.89	69.65	8.73	
2025-01-18 07:33:56.10	69.62	8.74	
2025-01-18 07:33:56.30	69.60	8.75	
2025-01-18 07:33:56.50	69.57	8.76	
2025-01-18 07:33:56.71	69.54	8.77	
2025-01-18 07:33:56.91	69.51	8.78	
2025-01-18 07:33:57.11	69.48	8.79	
2025-01-18 07:33:57.31	69.46	8.80	
2025-01-18 07:33:57.52	69.43	8.81	
2025-01-18 07:33:57.72	69.40	8.82	
2025-01-18 07:33:57.92	69.37	8.83	
2025-01-18 07:33:58.13	69.34	8.84	
2025-01-18 07:33:58.33	69.31	8.85	
2025-01-18 07:33:58.53	69.29	8.86	
2025-01-18 07:33:58.74	69.26	8.87	
2025-01-18 07:33:58.94	69.23	8.88	
2025-01-18 07:33:59.14	69.20	8.88	
2025-01-18 07:33:59.35	69.17	8.90	
2025-01-18 07:33:59.55	69.14	8.90	
2025-01-18 07:33:59.75	69.12	8.91	
2025-01-18 07:33:59.95	69.09	8.92	
2025-01-18 07:34:00.16	69.06	8.93	
2025-01-18 07:34:00.36	69.03	8.94	
2025-01-18 07:34:00.56	69.00	8.95	
2025-01-18 07:34:00.77	68.97	8.96	
2025-01-18 07:34:00.97	68.94	8.97	
2025-01-18 07:34:01.17	68.92	8.98	
2025-01-18 07:34:01.38	68.89	8.99	
2025-01-18 07:34:01.58	68.86	9.00	
2025-01-18 07:34:01.78	68.83	9.01	
2025-01-18 07:34:01.99	68.80	9.02	
2025-01-18 07:34:02.19	68.77	9.03	
2025-01-18 07:34:02.39	68.74	9.04	
2025-01-18 07:34:02.60	68.71	9.05	
2025-01-18 07:34:02.80	68.69	9.06	
2025-01-18 07:34:03.00	68.66	9.07	
2025-01-18 07:34:03.20	68.63	9.08	
2025-01-18 07:34:03.41	68.60	9.09	
2025-01-18 07:34:03.61	68.57	9.10	
2025-01-18 07:34:03.81	68.54	9.11	
2025-01-18 07:34:04.02	68.51	9.12	
2025-01-18 07:34:04.22	68.48	9.13	
2025-01-18 07:34:04.42	68.46	9.14	
2025-01-18 07:34:04.63	68.43	9.15	
2025-01-18 07:34:04.83	68.40	9.16	
2025-01-18 07:34:05.03	68.37	9.17	
2025-01-18 07:34:05.24	68.34	9.18	
2025-01-18 07:34:05.44	68.31	9.19	
2025-01-18 07:34:05.64	68.28	9.20	
2025-01-18 07:34:05.84	68.25	9.21	
2025-01-18 07:34:06.05	68.22	9.22	
2025-01-18 07:34:06.25	68.19	9.23	
2025-01-18 07:34:06.45	68.16	9.24	
2025-01-18 07:34:06.66	68.13	9.25	
2025-01-18 07:34:06.86	68.11	9.26	
2025-01-18 07:34:07.06	68.08	9.27	
2025-01-18 07:34:07.27	68.05	9.28	
2025-01-18 07:34:07.47	68.02	9.29	
2025-01-18 07:34:07.67	67.99	9.30	
2025-01-18 07:34:07.88	67.96	9.31	
2025-01-18 07:34:08.08	67.93	9.32	
2025-01-18 07:34:08.28	67.90	9.33	
2025-01-18 07:34:08.49	67.87	9.34	
2025-01-18 07:34:08.69	67.84	9.35	
2025-01-18 07:34:08.89	67.81	9.36	
2025-01-18 07:34:09.09	67.78	9.37	
2025-01-18 07:34:09.30	67.75	9.38	
2025-01-18 07:34:09.50	67.72	9.39	
2025-01-18 07:34:09.70	67.70	9.40	
2025-01-18 07:34:09.91	67.67	9.41	
2025-01-18 07:34:10.11	67.64	9.41	
2025-01-18 07:34:10.31	67.61	9.42	
2025-01-18 07:34:10.52	67.58	9.43	
2025-01-18 07:34:10.72	67.55	9.44	
2025-01-18 07:34:10.92	67.52	9.45	
2025-01-18 07:34:11.13	67.49	9.46	
2025-01-18 07:34:11.33	67.46	9.47	
2025-01-18 07:34:11.53	67.43	9.48	
2025-01-18 07:34:11.74	67.40	9.49	
2025-01-18 07:34:11.94	67.37	9.50	
2025-01-18 07:34:12.14	67.34	9.51	
2025-01-18 07:34:12.34	67.31	9.52	
2025-01-18 07:34:12.55	67.28	9.53	
2025-01-18 07:34:12.75	67.25	9.54	
2025-01-18 07:34:12.95	67.22	9.55	
2025-01-18 07:34:13.16	67.19	9.56	
2025-01-18 07:34:13.36	67.16	9.57	
2025-01-18 07:34:13.56	67.13	9.58	
2025-01-18 07:34:13.77	67.10	9.59	
2025-01-18 07:34:13.97	67.07	9.60	
2025-01-18 07:34:14.17	67.04	9.61	
2025-01-18 07:34:14.38	67.01	9.62	
2025-01-18 07:34:14.58	66.98	9.63	
2025-01-18 07:34:14.78	66.95	9.64	
2025-01-18 07:34:14.98	66.92	9.65	
2025-01-18 07:34:15.19	66.89	9.66	
2025-01-18 07:34:15.39	66.86	9.67	
2025-01-18 07:34:15.59	66.83	9.68	
2025-01-18 07:34:15.80	66.80	9.69	
2025-01-18 07:34:16.00	66.77	9.70	
2025-01-18 07:34:16.20	66.74	9.70	
2025-01-18 07:34:16.41	66.71	9.71	
2025-01-18 07:34:16.61	66.68	9.72	
2025-01-18 07:34:16.81	66.65	9.73	
2025-01-18 07:34:17.02	66.62	9.74	
2025-01-18 07:34:17.22	66.59	9.75	
2025-01-18 07:34:17.42	66.56	9.76	
2025-01-18 07:34:17.63	66.53	9.77	
2025-01-18 07:34:17.83	66.50	9.78	
2025-01-18 07:34:18.03	66.47	9.79	
2025-01-18 07:34:18.23	66.44	9.80	
2025-01-18 07:34:18.44	66.41	9.81	
2025-01-18 07:34:18.64	66.38	9.82	
2025-01-18 07:34:18.84	66.35	9.83	
2025-01-18 07:34:19.05	66.32	9.84	
2025-01-18 07:34:19.25	66.29	9.85	
2025-01-18 07:34:19.45	66.26	9.86	
2025-01-18 07:34:19.66	66.23	9.87	
2025-01-18 07:34:19.86	66.20	9.88	
2025-01-18 07:34:20.06	66.17	9.89	
2025-01-18 07:34:20.27	66.14	9.90	
2025-01-18 07:34:20.47	66.11	9.91	
2025-01-18 07:34:20.67	66.08	9.92	
2025-01-18 07:34:20.87	66.05	9.92	
2025-01-18 07:34:21.08	66.01	9.93	
2025-01-18 07:34:21.28	65.98	9.94	
2025-01-18 07:34:21.48	65.95	9.95	
2025-01-18 07:34:21.69	65.92	9.96	
2025-01-18 07:34:21.89	65.89	9.97	
2025-01-18 07:34:22.09	65.86	9.98	
2025-01-18 07:34:22.30	65.83	9.99	
2025-01-18 07:34:22.50	65.80	10.00	
2025-01-18 07:34:22.70	65.77	10.01	
2025-01-18 07:34:22.91	65.74	10.02	
2025-01-18 07:34:23.11	65.71	10.03	
2025-01-18 07:34:23.31	65.68	10.04	
2025-01-18 07:34:23.52	65.65	10.05	
2025-01-18 07:34:23.72	65.61	10.06	
2025-01-18 07:34:23.92	65.58	10.07	
2025-01-18 07:34:24.12	65.55	10.08	
2025-01-18 07:34:24.33	65.52	10.09	
2025-01-18 07:34:24.53	65.49	10.10	
2025-01-18 07:34:24.73	65.46	10.10	
2025-01-18 07:34:24.94	65.43	10.11	
2025-01-18 07:34:25.14	65.40	10.12	
2025-01-18 07:34:25.34	65.37	10.13	
2025-01-18 07:34:25.55	65.34	10.14	
2025-01-18 07:34:25.75	65.31	10.15	
2025-01-18 07:34:25.95	65.27	10.16	
2025-01-18 07:34:26.16	65.24	10.17	
2025-01-18 07:34:26.36	65.21	10.18	
2025-01-18 07:34:26.56	65.18	10.19	
2025-01-18 07:34:26.77	65.15	10.20	
2025-01-18 07:34:26.97	65.12	10.21	
2025-01-18 07:34:27.17	65.09	10.22	
2025-01-18 07:34:27.37	65.06	10.23	
2025-01-18 07:34:27.58	65.02	10.24	
2025-01-18 07:34:27.78	64.99	10.25	
2025-01-18 07:34:27.98	64.96	10.25	
2025-01-18 07:34:28.19	64.93	10.26	
2025-01-18 07:34:28.39	64.90	10.27	
2025-01-18 07:34:28.59	64.87	10.28	
2025-01-18 07:34:28.80	64.84	10.29	
2025-01-18 07:34:29.00	64.81	10.30	
2025-01-18 07:34:29.20	64.78	10.31	
2025-01-18 07:34:29.41	64.74	10.32	
2025-01-18 07:34:29.61	64.71	10.33	
2025-01-18 07:34:29.81	64.68	10.34	
2025-01-18 07:34:30.01	64.65	10.35	
2025-01-18 07:34:30.22	64.62	10.36	
2025-01-18 07:34:30.42	64.59	10.37	
2025-01-18 07:34:30.62	64.56	10.38	
2025-01-18 07:34:30.83	64.52	10.39	
2025-01-18 07:34:31.03	64.49	10.40	
2025-01-18 07:34:31.23	64.46	10.40	
2025-01-18 07:34:31.44	64.43	10.41	
2025-01-18 07:34:31.64	64.40	10.42	
2025-01-18 07:34:31.84	64.37	10.43	
2025-01-18 07:34:32.05	64.33	10.44	
2025-01-18 07:34:32.25	64.30	10.45	
2025-01-18 07:34:32.45	64.27	10.46	
2025-01-18 07:34:32.66	64.24	10.47	
2025-01-18 07:34:32.86	64.21	10.48	
2025-01-18 07:34:33.06	64.17	10.49	
2025-01-18 07:34:33.26	64.14	10.50	
2025-01-18 07:34:33.47	64.11	10.51	
2025-01-18 07:34:33.67	64.08	10.52	
2025-01-18 07:34:33.87	64.05	10.52	
2025-01-18 07:34:34.08	64.02	10.53	
2025-01-18 07:34:34.28	63.98	10.54	
2025-01-18 07:34:34.48	63.95	10.55	
2025-01-18 07:34:34.69	63.92	10.56	
2025-01-18 07:34:34.89	63.89	10.57	
2025-01-18 07:34:35.09	63.86	10.58	
2025-01-18 07:34:35.30	63.82	10.59	
2025-01-18 07:34:35.50	63.79	10.60	
2025-01-18 07:34:35.70	63.76	10.61	
2025-01-18 07:34:35.90	63.73	10.62	
2025-01-18 07:34:36.11	63.70	10.63	
2025-01-18 07:34:36.31	63.66	10.63	
2025-01-18 07:34:36.51	63.63	10.64	
2025-01-18 07:34:36.72	63.60	10.65	
2025-01-18 07:34:36.92	63.57	10.66	
2025-01-18 07:34:37.12	63.54	10.67	
2025-01-18 07:34:37.33	63.50	10.68	
2025-01-18 07:34:37.53	63.47	10.69	
2025-01-18 07:34:37.73	63.44	10.70	
2025-01-18 07:34:37.94	63.41	10.71	
2025-01-18 07:34:38.14	63.37	10.72	
2025-01-18 07:34:38.34	63.34	10.73	
2025-01-18 07:34:38.55	63.31	10.74	
2025-01-18 07:34:38.75	63.28	10.74	
2025-01-18 07:34:38.95	63.24	10.75	
2025-01-18 07:34:39.15	63.21	10.76	
2025-01-18 07:34:39.36	63.18	10.77	
2025-01-18 07:34:39.56	63.15	10.78	
2025-01-18 07:34:39.76	63.12	10.79	
2025-01-18 07:34:39.97	63.08	10.80	
2025-01-18 07:34:40.17	63.05	10.81	
2025-01-18 07:34:40.37	63.02	10.82	
2025-01-18 07:34:40.58	62.98	10.83	
2025-01-18 07:34:40.78	62.95	10.84	
2025-01-18 07:34:40.98	62.92	10.84	
2025-01-18 07:34:41.19	62.89	10.85	
2025-01-18 07:34:41.39	62.85	10.86	
2025-01-18 07:34:41.59	62.82	10.87	
2025-01-18 07:34:41.80	62.79	10.88	
2025-01-18 07:34:42.00	62.76	10.89	
2025-01-18 07:34:42.20	62.72	10.90	
2025-01-18 07:34:42.40	62.69	10.91	
2025-01-18 07:34:42.61	62.66	10.92	
2025-01-18 07:34:42.81	62.63	10.93	
2025-01-18 07:34:43.01	62.59	10.93	
2025-01-18 07:34:43.22	62.56	10.94	
2025-01-18 07:34:43.42	62.53	10.95	
2025-01-18 07:34:43.62	62.50	10.96	
2025-01-18 07:34:43.83	62.46	10.97	
2025-01-18 07:34:44.03	62.43	10.98	
2025-01-18 07:34:44.23	62.40	10.99	
2025-01-18 07:34:44.44	62.36	11.00	
2025-01-18 07:34:44.64	62.33	11.01	
2025-01-18 07:34:44.84	62.30	11.01	
2025-01-18 07:34:45.04	62.27	11.02	
2025-01-18 07:34:45.25	62.23	11.03	
2025-01-18 07:34:45.45	62.20	11.04	
2025-01-18 07:34:45.65	62.17	11.05	
2025-01-18 07:34:45.86	62.13	11.06	
2025-01-18 07:34:46.06	62.10	11.07	
2025-01-18 07:34:46.26	62.07	11.08	
2025-01-18 07:34:46.47	62.03	11.09	
2025-01-18 07:34:46.67	62.00	11.09	
2025-01-18 07:34:46.87	61.97	11.10	
2025-01-18 07:34:47.08	61.93	11.11	
2025-01-18 07:34:47.28	61.90	11.12	
2025-01-18 07:34:47.48	61.87	11.13	
2025-01-18 07:34:47.69	61.83	11.14	
2025-01-18 07:34:47.89	61.80	11.15	
2025-01-18 07:34:48.09	61.77	11.16	
2025-01-18 07:34:48.29	61.73	11.17	
2025-01-18 07:34:48.50	61.70	11.17	
2025-01-18 07:34:48.70	61.67	11.18	
2025-01-18 07:34:48.90	61.63	11.19	
2025-01-18 07:34:49.11	61.60	11.20	
2025-01-18 07:34:49.31	61.57	11.21	
2025-01-18 07:34:49.51	61.53	11.22	
2025-01-18 07:34:49.72	61.50	11.23	
2025-01-18 07:34:49.92	61.47	11.24	
2025-01-18 07:34:50.12	61.43	11.24	
2025-01-18 07:34:50.33	61.40	11.25	
2025-01-18 07:34:50.53	61.37	11.26	
2025-01-18 07:34:50.73	61.33	11.27	
2025-01-18 07:34:50.93	61.30	11.28	
2025-01-18 07:34:51.14	61.27	11.29	
2025-01-18 07:34:51.34	61.23	11.30	
2025-01-18 07:34:51.54	61.20	11.31	
2025-01-18 07:34:51.75	61.16	11.31	
2025-01-18 07:34:51.95	61.13	11.32	
2025-01-18 07:34:52.15	61.10	11.33	
2025-01-18 07:34:52.36	61.06	11.34	
2025-01-18 07:34:52.56	61.03	11.35	
2025-01-18 07:34:52.76	61.00	11.36	
2025-01-18 07:34:52.97	60.96	11.37	
2025-01-18 07:34:53.17	60.93	11.38	
2025-01-18 07:34:53.37	60.90	11.38	
2025-01-18 07:34:53.58	60.86	11.39	
2025-01-18 07:34:53.78	60.83	11.40	
2025-01-18 07:34:53.98	60.79	11.41	
2025-01-18 07:34:54.18	60.76	11.42	
2025-01-18 07:34:54.39	60.73	11.43	
2025-01-18 07:34:54.59	60.69	11.44	
2025-01-18 07:34:54.79	60.66	11.44	
2025-01-18 07:34:55.00	60.62	11.45	
2025-01-18 07:34:55.20	60.59	11.46	
2025-01-18 07:34:55.40	60.56	11.47	
2025-01-18 07:34:55.61	60.52	11.48	
2025-01-18 07:34:55.81	60.49	11.49	
2025-01-18 07:34:56.01	60.45	11.50	
2025-01-18 07:34:56.22	60.42	11.50	
2025-01-18 07:34:56.42	60.39	11.51	
2025-01-18 07:34:56.62	60.35	11.52	
2025-01-18 07:34:56.83	60.32	11.53	
2025-01-18 07:34:57.03	60.28	11.54	
2025-01-18 07:34:57.23	60.25	11.55	
2025-01-18 07:34:57.43	60.22	11.56	
2025-01-18 07:34:57.64	60.18	11.56	
2025-01-18 07:34:57.84	60.15	11.57	
2025-01-18 07:34:58.04	60.11	11.58	
2025-01-18 07:34:58.25	60.08	11.59	
2025-01-18 07:34:58.45	60.04	11.60	
2025-01-18 07:34:58.65	60.01	11.61	
2025-01-18 07:34:58.86	59.97	11.62	
2025-01-18 07:34:59.06	59.94	11.62	
2025-01-18 07:34:59.26	59.91	11.63	
2025-01-18 07:34:59.47	59.87	11.64	
2025-01-18 07:34:59.67	59.84	11.65	
2025-01-18 07:34:59.87	59.80	11.66	
2025-01-18 07:35:00.07	59.77	11.67	
2025-01-18 07:35:00.28	59.73	11.67	
2025-01-18 07:35:00.48	59.70	11.68	
2025-01-18 07:35:00.68	59.67	11.69	
2025-01-18 07:35:00.89	59.63	11.70	
2025-01-18 07:35:01.09	59.60	11.71	
2025-01-18 07:35:01.29	59.56	11.72	
2025-01-18 07:35:01.50	59.53	11.73	
2025-01-18 07:35:01.70	59.49	11.73	
2025-01-18 07:35:01.90	59.46	11.74	
2025-01-18 07:35:02.11	59.42	11.75	
2025-01-18 07:35:02.31	59.39	11.76	
2025-01-18 07:35:02.51	59.35	11.77	
2025-01-18 07:35:02.72	59.32	11.78	
2025-01-18 07:35:02.92	59.28	11.78	
2025-01-18 07:35:03.12	59.25	11.79	
2025-01-18 07:35:03.32	59.22	11.80	
2025-01-18 07:35:03.53	59.18	11.81	
2025-01-18 07:35:03.73	59.15	11.82	
2025-01-18 07:35:03.93	59.11	11.82	
2025-01-18 07:35:04.14	59.07	11.83	
2025-01-18 07:35:04.34	59.04	11.84	
2025-01-18 07:35:04.54	59.01	11.85	
2025-01-18 07:35:04.75	58.97	11.86	
2025-01-18 07:35:04.95	58.94	11.87	
2025-01-18 07:35:05.15	58.90	11.87	
2025-01-18 07:35:05.36	58.87	11.88	
2025-01-18 07:35:05.56	58.83	11.89	
2025-01-18 07:35:05.76	58.80	11.90	
2025-01-18 07:35:05.97	58.76	11.91	
2025-01-18 07:35:06.17	58.73	11.92	
2025-01-18 07:35:06.37	58.69	11.92	
2025-01-18 07:35:06.57	58.66	11.93	
2025-01-18 07:35:06.78	58.62	11.94	
2025-01-18 07:35:06.98	58.59	11.95	
2025-01-18 07:35:07.18	58.55	11.96	
2025-01-18 07:35:07.39	58.51	11.96	
2025-01-18 07:35:07.59	58.48	11.97	
2025-01-18 07:35:07.79	58.45	11.98	
2025-01-18 07:35:08.00	58.41	11.99	
2025-01-18 07:35:08.20	58.37	12.00	
2025-01-18 07:35:08.40	58.34	12.01	
2025-01-18 07:35:08.61	58.30	12.01	
2025-01-18 07:35:08.81	58.27	12.02	
2025-01-18 07:35:09.01	58.23	12.03	
2025-01-18 07:35:09.21	58.20	12.04	
2025-01-18 07:35:09.42	58.16	12.05	
2025-01-18 07:35:09.62	58.13	12.05	
2025-01-18 07:35:09.82	58.09	12.06	
2025-01-18 07:35:10.03	58.06	12.07	
2025-01-18 07:35:10.23	58.02	12.08	
2025-01-18 07:35:10.43	57.99	12.09	
2025-01-18 07:35:10.64	57.95	12.09	
2025-01-18 07:35:10.84	57.91	12.10	
2025-01-18 07:35:11.04	57.88	12.11	
2025-01-18 07:35:11.25	57.84	12.12	
2025-01-18 07:35:11.45	57.81	12.13	
2025-01-18 07:35:11.65	57.77	12.13	
2025-01-18 07:35:11.86	57.74	12.14	
2025-01-18 07:35:12.06	57.70	12.15	
2025-01-18 07:35:12.26	57.67	12.16	
2025-01-18 07:35:12.46	57.63	12.17	
2025-01-18 07:35:12.67	57.59	12.17	
2025-01-18 07:35:12.87	57.56	12.18	
2025-01-18 07:35:13.07	57.52	12.19	
2025-01-18 07:35:13.28	57.49	12.20	
2025-01-18 07:35:13.48	57.45	12.21	
2025-01-18 07:35:13.68	57.42	12.21	
2025-01-18 07:35:13.89	57.38	12.22	
2025-01-18 07:35:14.09	57.34	12.23	
2025-01-18 07:35:14.29	57.31	12.24	
2025-01-18 07:35:14.50	57.27	12.25	
2025-01-18 07:35:14.70	57.24	12.25	
2025-01-18 07:35:14.90	57.20	12.26	
2025-01-18 07:35:15.10	57.16	12.27	
2025-01-18 07:35:15.31	57.13	12.28	
2025-01-18 07:35:15.51	57.09	12.28	
2025-01-18 07:35:15.71	57.06	12.29	
2025-01-18 07:35:15.92	57.02	12.30	
2025-01-18 07:35:16.12	56.98	12.31	
2025-01-18 07:35:16.32	56.95	12.32	
2025-01-18 07:35:16.53	56.91	12.32	
2025-01-18 07:35:16.73	56.88	12.33	
2025-01-18 07:35:16.93	56.84	12.34	
2025-01-18 07:35:17.14	56.80	12.35	
2025-01-18 07:35:17.34	56.77	12.35	
2025-01-18 07:35:17.54	56.73	12.36	
2025-01-18 07:35:17.75	56.69	12.37	
2025-01-18 07:35:17.95	56.66	12.38	
2025-01-18 07:35:18.15	56.62	12.39	
2025-01-18 07:35:18.35	56.59	12.39	
2025-01-18 07:35:18.56	56.55	12.40	
2025-01-18 07:35:18.76	56.51	12.41	
2025-01-18 07:35:18.96	56.48	12.42	
2025-01-18 07:35:19.17	56.44	12.42	
2025-01-18 07:35:19.37	56.41	12.43	
2025-01-18 07:35:19.57	56.37	12.44	
2025-01-18 07:35:19.78	56.33	12.45	
2025-01-18 07:35:19.98	56.30	12.45	
2025-01-18 07:35:20.18	56.26	12.46	
2025-01-18 07:35:20.39	56.22	12.47	
2025-01-18 07:35:20.59	56.19	12.48	
2025-01-18 07:35:20.79	56.15	12.49	
2025-01-18 07:35:21.00	56.11	12.49	
2025-01-18 07:35:21.20	56.08	12.50	
2025-01-18 07:35:21.40	56.04	12.51	
2025-01-18 07:35:21.60	56.01	12.52	
2025-01-18 07:35:21.81	55.97	12.52	
2025-01-18 07:35:22.01	55.93	12.53	
2025-01-18 07:35:22.21	55.90	12.54	
2025-01-18 07:35:22.42	55.86	12.55	
2025-01-18 07:35:22.62	55.82	12.55	
2025-01-18 07:35:22.82	55.79	12.56	
2025-01-18 07:35:23.03	55.75	12.57	
2025-01-18 07:35:23.23	55.71	12.58	
2025-01-18 07:35:23.43	55.68	12.58	
2025-01-18 07:35:23.64	55.64	12.59	
2025-01-18 07:35:23.84	55.60	12.60	
2025-01-18 07:35:24.04	55.56	12.61	
2025-01-18 07:35:24.24	55.53	12.61	
2025-01-18 07:35:24.45	55.49	12.62	
2025-01-18 07:35:24.65	55.45	12.63	
2025-01-18 07:35:24.85	55.42	12.64	
2025-01-18 07:35:25.06	55.38	12.64	
2025-01-18 07:35:25.26	55.34	12.65	
2025-01-18 07:35:25.46	55.31	12.66	
2025-01-18 07:35:25.67	55.27	12.67	
2025-01-18 07:35:25.87	55.23	12.67	
2025-01-18 07:35:26.07	55.20	12.68	
2025-01-18 07:35:26.28	55.16	12.69	
2025-01-18 07:35:26.48	55.12	12.69	
2025-01-18 07:35:26.68	55.09	12.70	
2025-01-18 07:35:26.89	55.05	12.71	
2025-01-18 07:35:27.09	55.01	12.72	
2025-01-18 07:35:27.29	54.97	12.72	
2025-01-18 07:35:27.49	54.94	12.73	
2025-01-18 07:35:27.70	54.90	12.74	
2025-01-18 07:35:27.90	54.86	12.75	
2025-01-18 07:35:28.10	54.83	12.75	
2025-01-18 07:35:28.31	54.79	12.76	
2025-01-18 07:35:28.51	54.75	12.77	
2025-01-18 07:35:28.71	54.71	12.77	
2025-01-18 07:35:28.92	54.68	12.78	
2025-01-18 07:35:29.12	54.64	12.79	
2025-01-18 07:35:29.32	54.60	12.80	
2025-01-18 07:35:29.53	54.56	12.80	
2025-01-18 07:35:29.73	54.53	12.81	
2025-01-18 07:35:29.93	54.49	12.82	
2025-01-18 07:35:30.13	54.45	12.82	
2025-01-18 07:35:30.34	54.42	12.83	
2025-01-18 07:35:30.54	54.38	12.84	
2025-01-18 07:35:30.74	54.34	12.85	
2025-01-18 07:35:30.95	54.30	12.85	
2025-01-18 07:35:31.15	54.27	12.86	
2025-01-18 07:35:31.35	54.23	12.87	
2025-01-18 07:35:31.56	54.19	12.88	
2025-01-18 07:35:31.76	54.15	12.88	
2025-01-18 07:35:31.96	54.12	12.89	
2025-01-18 07:35:32.17	54.08	12.90	
2025-01-18 07:35:32.37	54.04	12.90	
2025-01-18 07:35:32.57	54.00	12.91	
2025-01-18 07:35:32.78	53.97	12.92	
2025-01-18 07:35:32.98	53.93	12.92	
2025-01-18 07:35:33.18	53.89	12.93	
2025-01-18 07:35:33.38	53.85	12.94	
2025-01-18 07:35:33.59	53.82	12.95	
2025-01-18 07:35:33.79	53.78	12.95	
2025-01-18 07:35:33.99	53.74	12.96	
2025-01-18 07:35:34.20	53.70	12.97	
2025-01-18 07:35:34.40	53.67	12.97	
2025-01-18 07:35:34.60	53.63	12.98	
2025-01-18 07:35:34.81	53.59	12.99	
2025-01-18 07:35:35.01	53.55	12.99	
2025-01-18 07:35:35.21	53.52	13.00	
2025-01-18 07:35:35.42	53.48	13.01	
2025-01-18 07:35:35.62	53.44	13.02	
2025-01-18 07:35:35.82	53.40	13.02	
2025-01-18 07:35:36.03	53.36	13.03	
2025-01-18 07:35:36.23	53.33	13.04	
2025-01-18 07:35:36.43	53.29	13.04	
2025-01-18 07:35:36.63	53.25	13.05	
2025-01-18 07:35:36.84	53.21	13.06	
2025-01-18 07:35:37.04	53.17	13.06	
2025-01-18 07:35:37.24	53.14	13.07	
2025-01-18 07:35:37.45	53.10	13.08	
2025-01-18 07:35:37.65	53.06	13.08	
2025-01-18 07:35:37.85	53.02	13.09	
2025-01-18 07:35:38.06	52.98	13.10	
2025-01-18 07:35:38.26	52.95	13.10	
2025-01-18 07:35:38.46	52.91	13.11	
2025-01-18 07:35:38.67	52.87	13.12	
2025-01-18 07:35:38.87	52.83	13.12	
2025-01-18 07:35:39.07	52.79	13.13	
2025-01-18 07:35:39.27	52.76	13.14	
2025-01-18 07:35:39.48	52.72	13.14	
2025-01-18 07:35:39.68	52.68	13.15	
2025-01-18 07:35:39.88	52.64	13.16	
2025-01-18 07:35:40.09	52.60	13.16	
2025-01-18 07:35:40.29	52.56	13.17	
2025-01-18 07:35:40.49	52.53	13.18	
2025-01-18 07:35:40.70	52.49	13.18	
2025-01-18 07:35:40.90	52.45	13.19	
2025-01-18 07:35:41.10	52.41	13.20	
2025-01-18 07:35:41.31	52.37	13.20	
2025-01-18 07:35:41.51	52.34	13.21	
2025-01-18 07:35:41.71	52.30	13.22	
2025-01-18 07:35:41.92	52.26	13.22	
2025-01-18 07:35:42.12	52.22	13.23	
2025-01-18 07:35:42.32	52.18	13.24	
2025-01-18 07:35:42.52	52.14	13.24	
2025-01-18 07:35:42.73	52.10	13.25	
2025-01-18 07:35:42.93	52.07	13.26	
2025-01-18 07:35:43.13	52.03	13.26	
2025-01-18 07:35:43.34	51.99	13.27	
2025-01-18 07:35:43.54	51.95	13.28	
2025-01-18 07:35:43.74	51.91	13.28	
2025-01-18 07:35:43.95	51.87	13.29	
2025-01-18 07:35:44.15	51.84	13.30	
2025-01-18 07:35:44.35	51.80	13.30	
2025-01-18 07:35:44.56	51.76	13.31	
2025-01-18 07:35:44.76	51.72	13.31	
2025-01-18 07:35:44.96	51.68	13.32	
2025-01-18 07:35:45.16	51.64	13.33	
2025-01-18 07:35:45.37	51.60	13.33	
2025-01-18 07:35:45.57	51.57	13.34	
2025-01-18 07:35:45.77	51.53	13.35	
2025-01-18 07:35:45.98	51.49	13.35	
2025-01-18 07:35:46.18	51.45	13.36	
2025-01-18 07:35:46.38	51.41	13.37	
2025-01-18 07:35:46.59	51.37	13.37	
2025-01-18 07:35:46.79	51.33	13.38	
2025-01-18 07:35:46.99	51.30	13.38	
2025-01-18 07:35:47.20	51.26	13.39	
2025-01-18 07:35:47.40	51.22	13.40	
2025-01-18 07:35:47.60	51.18	13.40	
2025-01-18 07:35:47.81	51.14	13.41	
2025-01-18 07:35:48.01	51.10	13.42	
2025-01-18 07:35:48.21	51.06	13.42	
2025-01-18 07:35:48.41	51.02	13.43	
2025-01-18 07:35:48.62	50.98	13.43	
2025-01-18 07:35:48.82	50.95	13.44	
2025-01-18 07:35:49.02	50.91	13.45	
2025-01-18 07:35:49.23	50.87	13.45	
2025-01-18 07:35:49.43	50.83	13.46	
2025-01-18 07:35:49.63	50.79	13.46	
2025-01-18 07:35:49.84	50.75	13.47	
2025-01-18 07:35:50.04	50.71	13.48	
2025-01-18 07:35:50.24	50.67	13.48	
2025-01-18 07:35:50.45	50.63	13.49	
2025-01-18 07:35:50.65	50.59	13.50	
2025-01-18 07:35:50.85	50.56	13.50	
2025-01-18 07:35:51.06	50.52	13.51	
2025-01-18 07:35:51.26	50.48	13.51	
2025-01-18 07:35:51.46	50.44	13.52	
2025-01-18 07:35:51.66	50.40	13.53	
2025-01-18 07:35:51.87	50.36	13.53	
2025-01-18 07:35:52.07	50.32	13.54	
2025-01-18 07:35:52.27	50.28	13.54	
2025-01-18 07:35:52.48	50.24	13.55	
2025-01-18 07:35:52.68	50.20	13.56	
2025-01-18 07:35:52.88	50.16	13.56	
2025-01-18 07:35:53.09	50.12	13.57	
2025-01-18 07:35:53.29	50.08	13.57	
2025-01-18 07:35:53.49	50.05	13.58	
2025-01-18 07:35:53.70	50.01	13.59	
2025-01-18 07:35:53.90	49.97	13.59	
2025-01-18 07:35:54.10	49.93	13.60	
2025-01-18 07:35:54.30	49.89	13.60	
2025-01-18 07:35:54.51	49.85	13.61	
2025-01-18 07:35:54.71	49.81	13.61	
2025-01-18 07:35:54.91	49.77	13.62	
2025-01-18 07:35:55.12	49.73	13.63	
2025-01-18 07:35:55.32	49.69	13.63	
2025-01-18 07:35:55.52	49.65	13.64	
2025-01-18 07:35:55.73	49.61	13.64	
2025-01-18 07:35:55.93	49.57	13.65	
2025-01-18 07:35:56.13	49.53	13.66	
2025-01-18 07:35:56.34	49.49	13.66	
2025-01-18 07:35:56.54	49.45	13.67	
2025-01-18 07:35:56.74	49.42	13.67	
2025-01-18 07:35:56.95	49.37	13.68	
2025-01-18 07:35:57.15	49.34	13.68	
2025-01-18 07:35:57.35	49.30	13.69	
2025-01-18 07:35:57.55	49.26	13.70	
2025-01-18 07:35:57.76	49.22	13.70	
2025-01-18 07:35:57.96	49.18	13.71	
2025-01-18 07:35:58.16	49.14	13.71	
2025-01-18 07:35:58.37	49.10	13.72	
2025-01-18 07:35:58.57	49.06	13.72	
2025-01-18 07:35:58.77	49.02	13.73	
2025-01-18 07:35:58.98	48.98	13.74	
2025-01-18 07:35:59.18	48.94	13.74	
2025-01-18 07:35:59.38	48.90	13.75	
2025-01-18 07:35:59.59	48.86	13.75	
2025-01-18 07:35:59.79	48.82	13.76	
2025-01-18 07:35:59.99	48.78	13.76	
2025-01-18 07:36:00.19	48.74	13.77	
2025-01-18 07:36:00.40	48.70	13.77	
2025-01-18 07:36:00.60	48.66	13.78	
2025-01-18 07:36:00.80	48.62	13.78	
2025-01-18 07:36:01.01	48.58	13.79	
2025-01-18 07:36:01.21	48.54	13.80	
2025-01-18 07:36:01.41	48.50	13.80	
2025-01-18 07:36:01.62	48.46	13.81	
2025-01-18 07:36:01.82	48.42	13.81	
2025-01-18 07:36:02.02	48.38	13.82	
2025-01-18 07:36:02.23	48.34	13.82	
2025-01-18 07:36:02.43	48.30	13.83	
2025-01-18 07:36:02.63	48.26	13.83	
2025-01-18 07:36:02.84	48.22	13.84	
2025-01-18 07:36:03.04	48.18	13.84	
2025-01-18 07:36:03.24	48.14	13.85	
2025-01-18 07:36:03.44	48.10	13.85	
2025-01-18 07:36:03.65	48.06	13.86	
2025-01-18 07:36:03.85	48.02	13.87	
2025-01-18 07:36:04.05	47.98	13.87	
2025-01-18 07:36:04.26	47.94	13.88	
2025-01-18 07:36:04.46	47.90	13.88	
2025-01-18 07:36:04.66	47.86	13.89	
2025-01-18 07:36:04.87	47.82	13.89	
2025-01-18 07:36:05.07	47.78	13.90	
2025-01-18 07:36:05.27	47.74	13.90	
2025-01-18 07:36:05.48	47.70	13.91	
2025-01-18 07:36:05.68	47.66	13.91	
2025-01-18 07:36:05.88	47.62	13.92	
2025-01-18 07:36:06.09	47.58	13.92	
2025-01-18 07:36:06.29	47.54	13.93	
2025-01-18 07:36:06.49	47.50	13.93	
2025-01-18 07:36:06.69	47.46	13.94	
2025-01-18 07:36:06.90	47.42	13.94	
2025-01-18 07:36:07.10	47.38	13.95	
2025-01-18 07:36:07.30	47.34	13.95	
2025-01-18 07:36:07.51	47.30	13.96	
2025-01-18 07:36:07.71	47.26	13.96	
2025-01-18 07:36:07.91	47.22	13.97	
2025-01-18 07:36:08.12	47.18	13.97	
2025-01-18 07:36:08.32	47.14	13.98	
2025-01-18 07:36:08.52	47.10	13.98	
2025-01-18 07:36:08.73	47.06	13.99	
2025-01-18 07:36:08.93	47.02	13.99	
2025-01-18 07:36:09.13	46.98	14.00	
2025-01-18 07:36:09.33	46.94	14.00	
2025-01-18 07:36:09.54	46.89	14.01	
2025-01-18 07:36:09.74	46.85	14.01	
2025-01-18 07:36:09.94	46.82	14.02	
2025-01-18 07:36:10.15	46.77	14.02	
2025-01-18 07:36:10.35	46.73	14.03	
2025-01-18 07:36:10.55	46.69	14.03	
2025-01-18 07:36:10.76	46.65	14.04	
2025-01-18 07:36:10.96	46.61	14.04	
2025-01-18 07:36:11.16	46.57	14.05	
2025-01-18 07:36:11.37	46.53	14.05	
2025-01-18 07:36:11.57	46.49	14.06	
2025-01-18 07:36:11.77	46.45	14.06	
2025-01-18 07:36:11.98	46.41	14.07	
2025-01-18 07:36:12.18	46.37	14.07	
2025-01-18 07:36:12.38	46.33	14.08	
2025-01-18 07:36:12.58	46.29	14.08	
2025-01-18 07:36:12.79	46.25	14.09	
2025-01-18 07:36:12.99	46.21	14.09	
2025-01-18 07:36:13.19	46.17	14.09	
2025-01-18 07:36:13.40	46.12	14.10	
2025-01-18 07:36:13.60	46.08	14.10	
2025-01-18 07:36:13.80	46.04	14.11	
2025-01-18 07:36:14.01	46.00	14.11	
2025-01-18 07:36:14.21	45.96	14.12	
2025-01-18 07:36:14.41	45.92	14.12	
2025-01-18 07:36:14.62	45.88	14.13	
2025-01-18 07:36:14.82	45.84	14.13	
2025-01-18 07:36:15.02	45.80	14.14	
2025-01-18 07:36:15.23	45.76	14.14	
2025-01-18 07:36:15.43	45.72	14.15	
2025-01-18 07:36:15.63	45.68	14.15	
2025-01-18 07:36:15.83	45.64	14.15	
2025-01-18 07:36:16.04	45.59	14.16	
2025-01-18 07:36:16.24	45.55	14.16	
2025-01-18 07:36:16.44	45.51	14.17	
2025-01-18 07:36:16.65	45.47	14.17	
2025-01-18 07:36:16.85	45.43	14.18	
2025-01-18 07:36:17.05	45.39	14.18	
2025-01-18 07:36:17.26	45.35	14.19	
2025-01-18 07:36:17.46	45.31	14.19	
2025-01-18 07:36:17.66	45.27	14.19	
2025-01-18 07:36:17.87	45.23	14.20	
2025-01-18 07:36:18.07	45.18	14.20	
2025-01-18 07:36:18.27	45.14	14.21	
2025-01-18 07:36:18.47	45.10	14.21	
2025-01-18 07:36:18.68	45.06	14.22	
2025-01-18 07:36:18.88	45.02	14.22	
2025-01-18 07:36:19.08	44.98	14.22	
2025-01-18 07:36:19.29	44.94	14.23	
2025-01-18 07:36:19.49	44.90	14.23	
2025-01-18 07:36:19.69	44.86	14.24	
2025-01-18 07:36:19.90	44.82	14.24	
2025-01-18 07:36:20.10	44.77	14.25	
2025-01-18 07:36:20.30	44.73	14.25	
2025-01-18 07:36:20.51	44.69	14.25	
2025-01-18 07:36:20.71	44.65	14.26	
2025-01-18 07:36:20.91	44.61	14.26	
2025-01-18 07:36:21.12	44.57	14.27	
2025-01-18 07:36:21.32	44.53	14.27	
2025-01-18 07:36:21.52	44.49	14.28	
2025-01-18 07:36:21.72	44.45	14.28	
2025-01-18 07:36:21.93	44.40	14.28	
2025-01-18 07:36:22.13	44.36	14.29	
2025-01-18 07:36:22.33	44.32	14.29	
2025-01-18 07:36:22.54	44.28	14.30	
2025-01-18 07:36:22.74	44.24	14.30	
2025-01-18 07:36:22.94	44.20	14.30	
2025-01-18 07:36:23.15	44.16	14.31	
2025-01-18 07:36:23.35	44.12	14.31	
2025-01-18 07:36:23.55	44.07	14.32	
2025-01-18 07:36:23.76	44.03	14.32	
2025-01-18 07:36:23.96	43.99	14.32	
2025-01-18 07:36:24.16	43.95	14.33	
2025-01-18 07:36:24.36	43.91	14.33	
2025-01-18 07:36:24.57	43.87	14.34	
2025-01-18 07:36:24.77	43.83	14.34	
2025-01-18 07:36:24.97	43.79	14.34	
2025-01-18 07:36:25.18	43.74	14.35	
2025-01-18 07:36:25.38	43.70	14.35	
2025-01-18 07:36:25.58	43.66	14.35	
2025-01-18 07:36:25.79	43.62	14.36	
2025-01-18 07:36:25.99	43.58	14.36	
2025-01-18 07:36:26.19	43.54	14.37	
2025-01-18 07:36:26.40	43.49	14.37	
2025-01-18 07:36:26.60	43.45	14.37	
2025-01-18 07:36:26.80	43.41	14.38	
2025-01-18 07:36:27.01	43.37	14.38	
2025-01-18 07:36:27.21	43.33	14.39	
2025-01-18 07:36:27.41	43.29	14.39	
2025-01-18 07:36:27.61	43.25	14.39	
2025-01-18 07:36:27.82	43.20	14.40	
2025-01-18 07:36:28.02	43.16	14.40	
2025-01-18 07:36:28.22	43.12	14.40	
2025-01-18 07:36:28.43	43.08	14.41	
2025-01-18 07:36:28.63	43.04	14.41	
2025-01-18 07:36:28.83	43.00	14.41	
2025-01-18 07:36:29.04	42.95	14.42	
2025-01-18 07:36:29.24	42.91	14.42	
2025-01-18 07:36:29.44	42.87	14.42	
2025-01-18 07:36:29.65	42.83	14.43	
2025-01-18 07:36:29.85	42.79	14.43	
2025-01-18 07:36:30.05	42.75	14.44	
2025-01-18 07:36:30.26	42.70	14.44	
2025-01-18 07:36:30.46	42.66	14.44	
2025-01-18 07:36:30.66	42.62	14.45	
2025-01-18 07:36:30.86	42.58	14.45	
2025-01-18 07:36:31.07	42.54	14.45	
2025-01-18 07:36:31.27	42.50	14.46	
2025-01-18 07:36:31.47	42.46	14.46	
2025-01-18 07:36:31.68	42.41	14.46	
2025-01-18 07:36:31.88	42.37	14.47	
2025-01-18 07:36:32.08	42.33	14.47	
2025-01-18 07:36:32.29	42.29	14.47	
2025-01-18 07:36:32.49	42.25	14.48	
2025-01-18 07:36:32.69	42.21	14.48	
2025-01-18 07:36:32.90	42.16	14.48	
2025-01-18 07:36:33.10	42.12	14.49	
2025-01-18 07:36:33.30	42.08	14.49	
2025-01-18 07:36:33.50	42.04	14.49	
2025-01-18 07:36:33.71	42.00	14.50	
2025-01-18 07:36:33.91	41.96	14.50	
2025-01-18 07:36:34.11	41.91	14.50	
2025-01-18 07:36:34.32	41.87	14.51	
2025-01-18 07:36:34.52	41.83	14.51	
2025-01-18 07:36:34.72	41.79	14.51	
2025-01-18 07:36:34.93	41.74	14.52	
2025-01-18 07:36:35.13	41.70	14.52	
2025-01-18 07:36:35.33	41.66	14.52	
2025-01-18 07:36:35.54	41.62	14.53	
2025-01-18 07:36:35.74	41.58	14.53	
2025-01-18 07:36:35.94	41.54	14.53	
2025-01-18 07:36:36.15	41.49	14.53	
2025-01-18 07:36:36.35	41.45	14.54	
2025-01-18 07:36:36.55	41.41	14.54	
2025-01-18 07:36:36.75	41.37	14.54	
2025-01-18 07:36:36.96	41.33	14.55	
2025-01-18 07:36:37.16	41.28	14.55	
2025-01-18 07:36:37.36	41.24	14.55	
2025-01-18 07:36:37.57	41.20	14.56	
2025-01-18 07:36:37.77	41.16	14.56	
2025-01-18 07:36:37.97	41.12	14.56	
2025-01-18 07:36:38.18	41.07	14.56	
2025-01-18 07:36:38.38	41.03	14.57	
2025-01-18 07:36:38.58	40.99	14.57	
2025-01-18 07:36:38.79	40.95	14.57	
2025-01-18 07:36:38.99	40.91	14.58	
2025-01-18 07:36:39.19	40.87	14.58	
2025-01-18 07:36:39.39	40.82	14.58	
2025-01-18 07:36:39.60	40.78	14.58	
2025-01-18 07:36:39.80	40.74	14.59	
2025-01-18 07:36:40.00	40.70	14.59	
2025-01-18 07:36:40.21	40.65	14.59	
2025-01-18 07:36:40.41	40.61	14.60	
2025-01-18 07:36:40.61	40.57	14.60	
2025-01-18 07:36:40.82	40.53	14.60	
2025-01-18 07:36:41.02	40.49	14.60	
2025-01-18 07:36:41.22	40.44	14.61	
2025-01-18 07:36:41.43	40.40	14.61	
2025-01-18 07:36:41.63	40.36	14.61	
2025-01-18 07:36:41.83	40.32	14.61	
2025-01-18 07:36:42.04	40.27	14.62	
2025-01-18 07:36:42.24	40.23	14.62	
2025-01-18 07:36:42.44	40.19	14.62	
2025-01-18 07:36:42.64	40.15	14.63	
2025-01-18 07:36:42.85	40.11	14.63	
2025-01-18 07:36:43.05	40.07	14.63	
2025-01-18 07:36:43.25	40.02	14.63	
2025-01-18 07:36:43.46	39.98	14.64	
2025-01-18 07:36:43.66	39.94	14.64	
2025-01-18 07:36:43.86	39.90	14.64	
2025-01-18 07:36:44.07	39.85	14.64	
2025-01-18 07:36:44.27	39.81	14.65	
2025-01-18 07:36:44.47	39.77	14.65	
2025-01-18 07:36:44.68	39.73	14.65	
2025-01-18 07:36:44.88	39.68	14.65	
2025-01-18 07:36:45.08	39.64	14.66	
2025-01-18 07:36:45.29	39.60	14.66	
2025-01-18 07:36:45.49	39.56	14.66	
2025-01-18 07:36:45.69	39.52	14.66	
2025-01-18 07:36:45.89	39.47	14.66	
2025-01-18 07:36:46.10	39.43	14.67	
2025-01-18 07:36:46.30	39.39	14.67	
2025-01-18 07:36:46.50	39.35	14.67	
2025-01-18 07:36:46.71	39.30	14.67	
2025-01-18 07:36:46.91	39.26	14.68	
2025-01-18 07:36:47.11	39.22	14.68	
2025-01-18 07:36:47.32	39.18	14.68	
2025-01-18 07:36:47.52	39.14	14.68	
2025-01-18 07:36:47.72	39.09	14.69	
2025-01-18 07:36:47.93	39.05	14.69	
2025-01-18 07:36:48.13	39.01	14.69	
2025-01-18 07:36:48.33	38.97	14.69	
2025-01-18 07:36:48.53	38.92	14.69	
2025-01-18 07:36:48.74	38.88	14.70	
2025-01-18 07:36:48.94	38.84	14.70	
2025-01-18 07:36:49.14	38.80	14.70	
2025-01-18 07:36:49.35	38.75	14.70	
2025-01-18 07:36:49.55	38.71	14.70	
2025-01-18 07:36:49.75	38.67	14.71	
2025-01-18 07:36:49.96	38.63	14.71	
2025-01-18 07:36:50.16	38.58	14.71	
2025-01-18 07:36:50.36	38.54	14.71	
2025-01-18 07:36:50.57	38.50	14.71	
2025-01-18 07:36:50.77	38.46	14.72	
2025-01-18 07:36:50.97	38.42	14.72	
2025-01-18 07:36:51.18	38.37	14.72	
2025-01-18 07:36:51.38	38.33	14.72	
2025-01-18 07:36:51.58	38.29	14.72	
2025-01-18 07:36:51.78	38.25	14.73	
2025-01-18 07:36:51.99	38.20	14.73	
2025-01-18 07:36:52.19	38.16	14.73	
2025-01-18 07:36:52.39	38.12	14.73	
2025-01-18 07:36:52.60	38.07	14.73	
2025-01-18 07:36:52.80	38.03	14.74	
2025-01-18 07:36:53.00	37.99	14.74	
2025-01-18 07:36:53.21	37.95	14.74	
2025-01-18 07:36:53.41	37.91	14.74	
2025-01-18 07:36:53.61	37.86	14.74	
2025-01-18 07:36:53.82	37.82	14.74	
2025-01-18 07:36:54.02	37.78	14.75	
2025-01-18 07:36:54.22	37.74	14.75	
2025-01-18 07:36:54.42	37.69	14.75	
2025-01-18 07:36:54.63	37.65	14.75	
2025-01-18 07:36:54.83	37.61	14.75	
2025-01-18 07:36:55.03	37.57	14.75	
2025-01-18 07:36:55.24	37.52	14.76	
2025-01-18 07:36:55.44	37.48	14.76	
2025-01-18 07:36:55.64	37.44	14.76	
2025-01-18 07:36:55.85	37.39	14.76	
2025-01-18 07:36:56.05	37.35	14.76	
2025-01-18 07:36:56.25	37.31	14.76	
2025-01-18 07:36:56.46	37.27	14.77	
2025-01-18 07:36:56.66	37.23	14.77	
2025-01-18 07:36:56.86	37.18	14.77	
2025-01-18 07:36:57.07	37.14	14.77	
2025-01-18 07:36:57.27	37.10	14.77	
2025-01-18 07:36:57.47	37.06	14.77	
2025-01-18 07:36:57.67	37.01	14.77	
2025-01-18 07:36:57.88	36.97	14.78	
2025-01-18 07:36:58.08	36.93	14.78	
2025-01-18 07:36:58.28	36.89	14.78	
2025-01-18 07:36:58.49	36.84	14.78	
2025-01-18 07:36:58.69	36.80	14.78	
2025-01-18 07:36:58.89	36.76	14.78	
2025-01-18 07:36:59.10	36.71	14.78	
2025-01-18 07:36:59.30	36.67	14.79	
2025-01-18 07:36:59.50	36.63	14.79	
2025-01-18 07:36:59.71	36.59	14.79	
2025-01-18 07:36:59.91	36.54	14.79	
2025-01-18 07:37:00.11	36.50	14.79	
2025-01-18 07:37:00.32	36.46	14.79	
2025-01-18 07:37:00.52	36.42	14.79	
2025-01-18 07:37:00.72	36.37	14.79	
2025-01-18 07:37:00.92	36.33	14.80	
2025-01-18 07:37:01.13	36.29	14.80	
2025-01-18 07:37:01.33	36.25	14.80	
2025-01-18 07:37:01.53	36.20	14.80	
2025-01-18 07:37:01.74	36.16	14.80	
2025-01-18 07:37:01.94	36.12	14.80	
2025-01-18 07:37:02.14	36.08	14.80	
2025-01-18 07:37:02.35	36.03	14.80	
2025-01-18 07:37:02.55	35.99	14.80	
2025-01-18 07:37:02.75	35.95	14.81	
2025-01-18 07:37:02.96	35.90	14.81	
2025-01-18 07:37:03.16	35.86	14.81	
2025-01-18 07:37:03.36	35.82	14.81	
2025-01-18 07:37:03.56	35.78	14.81	
2025-01-18 07:37:03.77	35.73	14.81	
2025-01-18 07:37:03.97	35.69	14.81	
2025-01-18 07:37:04.17	35.65	14.81	
2025-01-18 07:37:04.38	35.60	14.81	
2025-01-18 07:37:04.58	35.56	14.81	
2025-01-18 07:37:04.78	35.52	14.82	
2025-01-18 07:37:04.99	35.48	14.82	
2025-01-18 07:37:05.19	35.43	14.82	
2025-01-18 07:37:05.39	35.39	14.82	
2025-01-18 07:37:05.60	35.35	14.82	
2025-01-18 07:37:05.80	35.31	14.82	
2025-01-18 07:37:06.00	35.26	14.82	
2025-01-18 07:37:06.21	35.22	14.82	
2025-01-18 07:37:06.41	35.18	14.82	
2025-01-18 07:37:06.61	35.14	14.82	
2025-01-18 07:37:06.81	35.09	14.82	
2025-01-18 07:37:07.02	35.05	14.82	
2025-01-18 07:37:07.22	35.01	14.82	
2025-01-18 07:37:07.42	34.97	14.83	
2025-01-18 07:37:07.63	34.92	14.83	
2025-01-18 07:37:07.83	34.88	14.83	
2025-01-18 07:37:08.03	34.84	14.83	
2025-01-18 07:37:08.24	34.79	14.83	
2025-01-18 07:37:08.44	34.75	14.83	
2025-01-18 07:37:08.64	34.71	14.83	
2025-01-18 07:37:08.85	34.66	14.83	
2025-01-18 07:37:09.05	34.62	14.83	
2025-01-18 07:37:09.25	34.58	14.83	
2025-01-18 07:37:09.45	34.54	14.83	
2025-01-18 07:37:09.66	34.49	14.83	
2025-01-18 07:37:09.86	34.45	14.83	
2025-01-18 07:37:10.06	34.41	14.83	
2025-01-18 07:37:10.27	34.37	14.83	
2025-01-18 07:37:10.47	34.32	14.83	
2025-01-18 07:37:10.67	34.28	14.83	
2025-01-18 07:37:10.88	34.24	14.83	
2025-01-18 07:37:11.08	34.20	14.84	
2025-01-18 07:37:11.28	34.15	14.84	
2025-01-18 07:37:11.49	34.11	14.84	
2025-01-18 07:37:11.69	34.07	14.84	
2025-01-18 07:37:11.89	34.02	14.84	
2025-01-18 07:37:12.10	33.98	14.84	
2025-01-18 07:37:12.30	33.94	14.84	
2025-01-18 07:37:12.50	33.90	14.84	
2025-01-18 07:37:12.70	33.85	14.84	
2025-01-18 07:37:12.91	33.81	14.84	
2025-01-18 07:37:13.11	33.77	14.84	
2025-01-18 07:37:13.31	33.73	14.84	
2025-01-18 07:37:13.52	33.68	14.84	
2025-01-18 07:37:13.72	33.64	14.84	
2025-01-18 07:37:13.92	33.60	14.84	
2025-01-18 07:37:14.13	33.55	14.84	
2025-01-18 07:37:14.33	33.51	14.84	
2025-01-18 07:37:14.53	33.47	14.84	
2025-01-18 07:37:14.74	33.42	14.84	
2025-01-18 07:37:14.94	33.38	14.84	
2025-01-18 07:37:15.14	33.34	14.84	
2025-01-18 07:37:15.35	33.30	14.84	
2025-01-18 07:37:15.55	33.25	14.84	
2025-01-18 07:37:15.75	33.21	14.84	
2025-01-18 07:37:15.95	33.17	14.84	
2025-01-18 07:37:16.16	33.13	14.84	
2025-01-18 07:37:16.36	33.08	14.84	
2025-01-18 07:37:16.56	33.04	14.84	
2025-01-18 07:37:16.77	33.00	14.84	
2025-01-18 07:37:16.97	32.96	14.84	
2025-01-18 07:37:17.17	32.91	14.84	
2025-01-18 07:37:17.38	32.87	14.84	
2025-01-18 07:37:17.58	32.83	14.84	
2025-01-18 07:37:17.78	32.79	14.84	
2025-01-18 07:37:17.99	32.74	14.84	
2025-01-18 07:37:18.19	32.70	14.84	
2025-01-18 07:37:18.39	32.66	14.84	
2025-01-18 07:37:18.59	32.61	14.84	
2025-01-18 07:37:18.80	32.57	14.84	
2025-01-18 07:37:19.00	32.53	14.84	
2025-01-18 07:37:19.20	32.49	14.84	
2025-01-18 07:37:19.41	32.44	14.84	
2025-01-18 07:37:19.61	32.40	14.84	
2025-01-18 07:37:19.81	32.36	14.84	
2025-01-18 07:37:20.02	32.31	14.84	
2025-01-18 07:37:20.22	32.27	14.84	
2025-01-18 07:37:20.42	32.23	14.84	
2025-01-18 07:37:20.63	32.19	14.84	
2025-01-18 07:37:20.83	32.14	14.84	
2025-01-18 07:37:21.03	32.10	14.84	
2025-01-18 07:37:21.24	32.06	14.83	
2025-01-18 07:37:21.44	32.01	14.83	
2025-01-18 07:37:21.64	31.97	14.83	
2025-01-18 07:37:21.84	31.93	14.83	
2025-01-18 07:37:22.05	31.89	14.83	
2025-01-18 07:37:22.25	31.84	14.83	
2025-01-18 07:37:22.45	31.80	14.83	
2025-01-18 07:37:22.66	31.76	14.83	
2025-01-18 07:37:22.86	31.72	14.83	
2025-01-18 07:37:23.06	31.67	14.83	
2025-01-18 07:37:23.27	31.63	14.83	
2025-01-18 07:37:23.47	31.59	14.83	
2025-01-18 07:37:23.67	31.55	14.83	
2025-01-18 07:37:23.88	31.50	14.83	
2025-01-18 07:37:24.08	31.46	14.83	
2025-01-18 07:37:24.28	31.42	14.83	
2025-01-18 07:37:24.49	31.37	14.83	
2025-01-18 07:37:24.69	31.33	14.83	
2025-01-18 07:37:24.89	31.29	14.82	
2025-01-18 07:37:25.09	31.25	14.82	
2025-01-18 07:37:25.30	31.20	14.82	
2025-01-18 07:37:25.50	31.16	14.82	
2025-01-18 07:37:25.70	31.12	14.82	
2025-01-18 07:37:25.91	31.07	14.82	
2025-01-18 07:37:26.11	31.03	14.82	
2025-01-18 07:37:26.31	30.99	14.82	
2025-01-18 07:37:26.52	30.95	14.82	
2025-01-18 07:37:26.72	30.90	14.82	
2025-01-18 07:37:26.92	30.86	14.82	
2025-01-18 07:37:27.13	30.82	14.82	
2025-01-18 07:37:27.33	30.78	14.82	
2025-01-18 07:37:27.53	30.73	14.81	
2025-01-18 07:37:27.73	30.69	14.81	
2025-01-18 07:37:27.94	30.65	14.81	
2025-01-18 07:37:28.14	30.61	14.81	
2025-01-18 07:37:28.34	30.56	14.81	
2025-01-18 07:37:28.55	30.52	14.81	
2025-01-18 07:37:28.75	30.48	14.81	
2025-01-18 07:37:28.95	30.44	14.81	
2025-01-18 07:37:29.16	30.39	14.81	
2025-01-18 07:37:29.36	30.35	14.81	
2025-01-18 07:37:29.56	30.31	14.80	
2025-01-18 07:37:29.77	30.26	14.80	
2025-01-18 07:37:29.97	30.22	14.80	
2025-01-18 07:37:30.17	30.18	14.80	
2025-01-18 07:37:30.38	30.14	14.80	
2025-01-18 07:37:30.58	30.09	14.80	
2025-01-18 07:37:30.78	30.05	14.80	
2025-01-18 07:37:30.98	30.01	14.80	
2025-01-18 07:37:31.19	29.97	14.80	
2025-01-18 07:37:31.39	29.92	14.79	
2025-01-18 07:37:31.59	29.88	14.79	
2025-01-18 07:37:31.80	29.84	14.79	
2025-01-18 07:37:32.00	29.80	14.79	
2025-01-18 07:37:32.20	29.75	14.79	
2025-01-18 07:37:32.41	29.71	14.79	
2025-01-18 07:37:32.61	29.67	14.79	
2025-01-18 07:37:32.81	29.63	14.79	
2025-01-18 07:37:33.02	29.58	14.78	
2025-01-18 07:37:33.22	29.54	14.78	
2025-01-18 07:37:33.42	29.50	14.78	
2025-01-18 07:37:33.62	29.46	14.78	
2025-01-18 07:37:33.83	29.41	14.78	
2025-01-18 07:37:34.03	29.37	14.78	
2025-01-18 07:37:34.23	29.33	14.78	
2025-01-18 07:37:34.44	29.28	14.77	
2025-01-18 07:37:34.64	29.24	14.77	
2025-01-18 07:37:34.84	29.20	14.77	
2025-01-18 07:37:35.05	29.16	14.77	
2025-01-18 07:37:35.25	29.11	14.77	
2025-01-18 07:37:35.45	29.07	14.77	
2025-01-18 07:37:35.66	29.03	14.77	
2025-01-18 07:37:35.86	28.99	14.76	
2025-01-18 07:37:36.06	28.94	14.76	
2025-01-18 07:37:36.27	28.90	14.76	
2025-01-18 07:37:36.47	28.86	14.76	
2025-01-18 07:37:36.67	28.82	14.76	
2025-01-18 07:37:36.87	28.78	14.76	
2025-01-18 07:37:37.08	28.73	14.75	
2025-01-18 07:37:37.28	28.69	14.75	
2025-01-18 07:37:37.48	28.65	14.75	
2025-01-18 07:37:37.69	28.60	14.75	
2025-01-18 07:37:37.89	28.56	14.75	
2025-01-18 07:37:38.09	28.52	14.75	
2025-01-18 07:37:38.30	28.48	14.74	
2025-01-18 07:37:38.50	28.43	14.74	
2025-01-18 07:37:38.70	28.39	14.74	
2025-01-18 07:37:38.91	28.35	14.74	
2025-01-18 07:37:39.11	28.31	14.74	
2025-01-18 07:37:39.31	28.26	14.74	
2025-01-18 07:37:39.52	28.22	14.73	
2025-01-18 07:37:39.72	28.18	14.73	
2025-01-18 07:37:39.92	28.14	14.73	
2025-01-18 07:37:40.12	28.10	14.73	
2025-01-18 07:37:40.33	28.05	14.73	
2025-01-18 07:37:40.53	28.01	14.72	
2025-01-18 07:37:40.73	27.97	14.72	
2025-01-18 07:37:40.94	27.92	14.72	
2025-01-18 07:37:41.14	27.88	14.72	
2025-01-18 07:37:41.34	27.84	14.72	
2025-01-18 07:37:41.55	27.80	14.71	
2025-01-18 07:37:41.75	27.76	14.71	
2025-01-18 07:37:41.95	27.71	14.71	
2025-01-18 07:37:42.16	27.67	14.71	
2025-01-18 07:37:42.36	27.63	14.71	
2025-01-18 07:37:42.56	27.59	14.70	
2025-01-18 07:37:42.76	27.54	14.70	
2025-01-18 07:37:42.97	27.50	14.70	
2025-01-18 07:37:43.17	27.46	14.70	
2025-01-18 07:37:43.37	27.42	14.70	
2025-01-18 07:37:43.58	27.37	14.69	
2025-01-18 07:37:43.78	27.33	14.69	
2025-01-18 07:37:43.98	27.29	14.69	
2025-01-18 07:37:44.19	27.25	14.69	
2025-01-18 07:37:44.39	27.21	14.69	
2025-01-18 07:37:44.59	27.16	14.68	
2025-01-18 07:37:44.80	27.12	14.68	
2025-01-18 07:37:45.00	27.08	14.68	
2025-01-18 07:37:45.20	27.04	14.68	
2025-01-18 07:37:45.41	26.99	14.67	
2025-01-18 07:37:45.61	26.95	14.67	
2025-01-18 07:37:45.81	26.91	14.67	
2025-01-18 07:37:46.01	26.87	14.67	
2025-01-18 07:37:46.22	26.82	14.67	
2025-01-18 07:37:46.42	26.78	14.66	
2025-01-18 07:37:46.62	26.74	14.66	
2025-01-18 07:37:46.83	26.70	14.66	
2025-01-18 07:37:47.03	26.66	14.66	
2025-01-18 07:37:47.23	26.61	14.65	
2025-01-18 07:37:47.44	26.57	14.65	
2025-01-18 07:37:47.64	26.53	14.65	
2025-01-18 07:37:47.84	26.49	14.65	
2025-01-18 07:37:48.05	26.44	14.64	
2025-01-18 07:37:48.25	26.40	14.64	
2025-01-18 07:37:48.45	26.36	14.64	
2025-01-18 07:37:48.65	26.32	14.64	
2025-01-18 07:37:48.86	26.28	14.63	
2025-01-18 07:37:49.06	26.23	14.63	
2025-01-18 07:37:49.26	26.19	14.63	
2025-01-18 07:37:49.47	26.15	14.63	
2025-01-18 07:37:49.67	26.11	14.62	
2025-01-18 07:37:49.87	26.07	14.62	
2025-01-18 07:37:50.08	26.02	14.62	
2025-01-18 07:37:50.28	25.98	14.62	
2025-01-18 07:37:50.48	25.94	14.61	
2025-01-18 07:37:50.69	25.90	14.61	
2025-01-18 07:37:50.89	25.85	14.61	
2025-01-18 07:37:51.09	25.81	14.60	
2025-01-18 07:37:51.30	25.77	14.60	
2025-01-18 07:37:51.50	25.73	14.60	
2025-01-18 07:37:51.70	25.69	14.60	
2025-01-18 07:37:51.90	25.65	14.59	
2025-01-18 07:37:52.11	25.60	14.59	
2025-01-18 07:37:52.31	25.56	14.59	
2025-01-18 07:37:52.51	25.52	14.59	
2025-01-18 07:37:52.72	25.48	14.58	
2025-01-18 07:37:52.92	25.43	14.58	
2025-01-18 07:37:53.12	25.39	14.58	
2025-01-18 07:37:53.33	25.35	14.57	
2025-01-18 07:37:53.53	25.31	14.57	
2025-01-18 07:37:53.73	25.27	14.57	
2025-01-18 07:37:53.94	25.22	14.57	
2025-01-18 07:37:54.14	25.18	14.56	
2025-01-18 07:37:54.34	25.14	14.56	
2025-01-18 07:37:54.55	25.10	14.56	
2025-01-18 07:37:54.75	25.06	14.55	
2025-01-18 07:37:54.95	25.02	14.55	
2025-01-18 07:37:55.15	24.97	14.55	
2025-01-18 07:37:55.36	24.93	14.54	
2025-01-18 07:37:55.56	24.89	14.54	
2025-01-18 07:37:55.76	24.85	14.54	
2025-01-18 07:37:55.97	24.81	14.54	
2025-01-18 07:37:56.17	24.76	14.53	
2025-01-18 07:37:56.37	24.72	14.53	
2025-01-18 07:37:56.58	24.68	14.53	
2025-01-18 07:37:56.78	24.64	14.52	
2025-01-18 07:37:56.98	24.60	14.52	
2025-01-18 07:37:57.19	24.55	14.52	
2025-01-18 07:37:57.39	24.51	14.51	
2025-01-18 07:37:57.59	24.47	14.51	
2025-01-18 07:37:57.79	24.43	14.51	
2025-01-18 07:37:58.00	24.39	14.50	
2025-01-18 07:37:58.20	24.35	14.50	
2025-01-18 07:37:58.40	24.31	14.50	
2025-01-18 07:37:58.61	24.26	14.49	
2025-01-18 07:37:58.81	24.22	14.49	
2025-01-18 07:37:59.01	24.18	14.49	
2025-01-18 07:37:59.22	24.14	14.48	
2025-01-18 07:37:59.42	24.10	14.48	
2025-01-18 07:37:59.62	24.05	14.48	
2025-01-18 07:37:59.83	24.01	14.47	
2025-01-18 07:38:00.03	23.97	14.47	
2025-01-18 07:38:00.23	23.93	14.47	
2025-01-18 07:38:00.44	23.89	14.46	
2025-01-18 07:38:00.64	23.85	14.46	
2025-01-18 07:38:00.84	23.80	14.46	
2025-01-18 07:38:01.04	23.76	14.45	
2025-01-18 07:38:01.25	23.72	14.45	
2025-01-18 07:38:01.45	23.68	14.45	
2025-01-18 07:38:01.65	23.64	14.44	
2025-01-18 07:38:01.86	23.60	14.44	
2025-01-18 07:38:02.06	23.55	14.44	
2025-01-18 07:38:02.26	23.51	14.43	
2025-01-18 07:38:02.47	23.47	14.43	
