passes_logs/2025/01/18/SPB_Silybum_02/SPB_Silybum_02__20250118_133325_AQUA_rec.log

#Pass ID: 20250118_133325_AQUA
#Satellite: AQUA
#Configuration: AQUA
#Start time: 2025-01-18 13:33:25

#Version: 2.0.20230423
#Station: SPB_Silybum_02
#Location: 30.233357 lon 59.946436 lat
#TLE: 1 27424U 02022A   25017.88331103  .00002112  00000+0  44339-3 0  9998
#TLE: 2 27424  98.3596 334.5732 0001847 108.4912 313.9167 14.60695357208043

#Time	Az	El	Level	Level2	SNR	BER	Gain	Gain2
2025-01-18 13:33:27.61	233.94	4.12	
2025-01-18 13:33:27.81	233.97	4.13	
2025-01-18 13:33:28.01	233.99	4.14	
2025-01-18 13:33:28.22	234.02	4.15	
2025-01-18 13:33:28.42	234.04	4.16	
2025-01-18 13:33:28.62	234.07	4.17	
2025-01-18 13:33:28.82	234.09	4.18	
2025-01-18 13:33:29.03	234.12	4.19	
2025-01-18 13:33:29.23	234.14	4.20	
2025-01-18 13:33:29.43	234.17	4.21	
2025-01-18 13:33:29.64	234.20	4.22	
2025-01-18 13:33:29.84	234.22	4.23	
2025-01-18 13:33:30.04	234.25	4.24	
2025-01-18 13:33:30.25	234.27	4.25	
2025-01-18 13:33:30.45	234.30	4.26	
2025-01-18 13:33:30.65	234.32	4.27	
2025-01-18 13:33:30.85	234.35	4.28	
2025-01-18 13:33:31.06	234.37	4.29	
2025-01-18 13:33:31.26	234.40	4.30	
2025-01-18 13:33:31.46	234.42	4.31	
2025-01-18 13:33:31.67	234.45	4.32	
2025-01-18 13:33:31.87	234.48	4.33	
2025-01-18 13:33:32.07	234.50	4.34	
2025-01-18 13:33:32.28	234.53	4.35	
2025-01-18 13:33:32.48	234.55	4.36	
2025-01-18 13:33:32.68	234.58	4.37	
2025-01-18 13:33:32.88	234.60	4.37	
2025-01-18 13:33:33.09	234.63	4.38	
2025-01-18 13:33:33.29	234.65	4.39	
2025-01-18 13:33:33.49	234.68	4.40	
2025-01-18 13:33:33.70	234.71	4.41	
2025-01-18 13:33:33.90	234.73	4.42	
2025-01-18 13:33:34.10	234.76	4.43	
2025-01-18 13:33:34.31	234.78	4.44	
2025-01-18 13:33:34.51	234.81	4.45	
2025-01-18 13:33:34.71	234.83	4.46	
2025-01-18 13:33:34.91	234.86	4.47	
2025-01-18 13:33:35.12	234.89	4.48	
2025-01-18 13:33:35.32	234.91	4.49	
2025-01-18 13:33:35.52	234.94	4.50	
2025-01-18 13:33:35.73	234.96	4.51	
2025-01-18 13:33:35.93	234.99	4.52	
2025-01-18 13:33:36.13	235.02	4.53	
2025-01-18 13:33:36.33	235.04	4.54	
2025-01-18 13:33:36.54	235.07	4.55	
2025-01-18 13:33:36.74	235.09	4.56	
2025-01-18 13:33:36.94	235.12	4.57	
2025-01-18 13:33:37.15	235.15	4.58	
2025-01-18 13:33:37.35	235.17	4.59	
2025-01-18 13:33:37.55	235.20	4.60	
2025-01-18 13:33:37.76	235.22	4.61	
2025-01-18 13:33:37.96	235.25	4.62	
2025-01-18 13:33:38.16	235.28	4.63	
2025-01-18 13:33:38.36	235.30	4.64	
2025-01-18 13:33:38.57	235.33	4.65	
2025-01-18 13:33:38.77	235.35	4.66	
2025-01-18 13:33:38.97	235.38	4.67	
2025-01-18 13:33:39.18	235.41	4.68	
2025-01-18 13:33:39.38	235.43	4.69	
2025-01-18 13:33:39.58	235.46	4.70	
2025-01-18 13:33:39.79	235.49	4.71	
2025-01-18 13:33:39.99	235.51	4.72	
2025-01-18 13:33:40.19	235.54	4.72	
2025-01-18 13:33:40.39	235.56	4.73	
2025-01-18 13:33:40.60	235.59	4.74	
2025-01-18 13:33:40.80	235.62	4.75	
2025-01-18 13:33:41.00	235.64	4.76	
2025-01-18 13:33:41.21	235.67	4.77	
2025-01-18 13:33:41.41	235.70	4.78	
2025-01-18 13:33:41.61	235.72	4.79	
2025-01-18 13:33:41.82	235.75	4.80	
2025-01-18 13:33:42.02	235.78	4.81	
2025-01-18 13:33:42.22	235.80	4.82	
2025-01-18 13:33:42.42	235.83	4.83	
2025-01-18 13:33:42.63	235.85	4.84	
2025-01-18 13:33:42.83	235.88	4.85	
2025-01-18 13:33:43.03	235.91	4.86	
2025-01-18 13:33:43.24	235.93	4.87	
2025-01-18 13:33:43.44	235.96	4.88	
2025-01-18 13:33:43.64	235.99	4.89	
2025-01-18 13:33:43.85	236.01	4.90	
2025-01-18 13:33:44.05	236.04	4.91	
2025-01-18 13:33:44.25	236.07	4.92	
2025-01-18 13:33:44.45	236.09	4.93	
2025-01-18 13:33:44.66	236.12	4.94	
2025-01-18 13:33:44.86	236.15	4.95	
2025-01-18 13:33:45.06	236.17	4.96	
2025-01-18 13:33:45.27	236.20	4.97	
2025-01-18 13:33:45.47	236.23	4.98	
2025-01-18 13:33:45.67	236.25	4.99	
2025-01-18 13:33:45.88	236.28	5.00	
2025-01-18 13:33:46.08	236.31	5.01	
2025-01-18 13:33:46.28	236.33	5.02	
2025-01-18 13:33:46.48	236.36	5.03	
2025-01-18 13:33:46.69	236.39	5.04	
2025-01-18 13:33:46.89	236.42	5.04	
2025-01-18 13:33:47.09	236.44	5.05	
2025-01-18 13:33:47.30	236.47	5.06	
2025-01-18 13:33:47.50	236.50	5.07	
2025-01-18 13:33:47.70	236.52	5.08	
2025-01-18 13:33:47.91	236.55	5.09	
2025-01-18 13:33:48.12	236.58	5.10	
2025-01-18 13:33:48.33	236.61	5.11	
2025-01-18 13:33:48.53	236.63	5.12	
2025-01-18 13:33:48.73	236.66	5.13	
2025-01-18 13:33:48.93	236.69	5.14	
2025-01-18 13:33:49.14	236.71	5.15	
2025-01-18 13:33:49.34	236.74	5.16	
2025-01-18 13:33:49.54	236.77	5.17	
2025-01-18 13:33:49.75	236.80	5.18	
2025-01-18 13:33:49.95	236.82	5.19	
2025-01-18 13:33:50.15	236.85	5.20	
2025-01-18 13:33:50.36	236.88	5.21	
2025-01-18 13:33:50.56	236.91	5.22	
2025-01-18 13:33:50.76	236.93	5.23	
2025-01-18 13:33:50.96	236.96	5.24	
2025-01-18 13:33:51.17	236.99	5.25	
2025-01-18 13:33:51.37	237.01	5.26	
2025-01-18 13:33:51.57	237.04	5.27	
2025-01-18 13:33:51.78	237.07	5.28	
2025-01-18 13:33:51.98	237.10	5.29	
2025-01-18 13:33:52.18	237.12	5.30	
2025-01-18 13:33:52.39	237.15	5.31	
2025-01-18 13:33:52.59	237.18	5.32	
2025-01-18 13:33:52.79	237.21	5.33	
2025-01-18 13:33:52.99	237.23	5.34	
2025-01-18 13:33:53.20	237.26	5.35	
2025-01-18 13:33:53.40	237.29	5.35	
2025-01-18 13:33:53.60	237.32	5.36	
2025-01-18 13:33:53.81	237.34	5.37	
2025-01-18 13:33:54.01	237.37	5.38	
2025-01-18 13:33:54.21	237.40	5.39	
2025-01-18 13:33:54.42	237.43	5.40	
2025-01-18 13:33:54.62	237.45	5.41	
2025-01-18 13:33:54.82	237.48	5.42	
2025-01-18 13:33:55.02	237.51	5.43	
2025-01-18 13:33:55.23	237.54	5.44	
2025-01-18 13:33:55.43	237.56	5.45	
2025-01-18 13:33:55.63	237.59	5.46	
2025-01-18 13:33:55.84	237.62	5.47	
2025-01-18 13:33:56.04	237.65	5.48	
2025-01-18 13:33:56.24	237.67	5.49	
2025-01-18 13:33:56.44	237.70	5.50	
2025-01-18 13:33:56.65	237.73	5.51	
2025-01-18 13:33:56.85	237.76	5.52	
2025-01-18 13:33:57.06	237.79	5.53	
2025-01-18 13:33:57.26	237.81	5.54	
2025-01-18 13:33:57.46	237.84	5.55	
2025-01-18 13:33:57.66	237.87	5.56	
2025-01-18 13:33:57.87	237.90	5.57	
2025-01-18 13:33:58.07	237.93	5.58	
2025-01-18 13:33:58.27	237.95	5.59	
2025-01-18 13:33:58.48	237.98	5.60	
2025-01-18 13:33:58.68	238.01	5.61	
2025-01-18 13:33:58.88	238.04	5.61	
2025-01-18 13:33:59.09	238.07	5.62	
2025-01-18 13:33:59.29	238.09	5.63	
2025-01-18 13:33:59.49	238.12	5.64	
2025-01-18 13:33:59.69	238.15	5.65	
2025-01-18 13:33:59.90	238.18	5.66	
2025-01-18 13:34:00.10	238.21	5.67	
2025-01-18 13:34:00.30	238.23	5.68	
2025-01-18 13:34:00.51	238.26	5.69	
2025-01-18 13:34:00.71	238.29	5.70	
2025-01-18 13:34:00.91	238.32	5.71	
2025-01-18 13:34:01.12	238.35	5.72	
2025-01-18 13:34:01.32	238.38	5.73	
2025-01-18 13:34:01.52	238.40	5.74	
2025-01-18 13:34:01.72	238.43	5.75	
2025-01-18 13:34:01.93	238.46	5.76	
2025-01-18 13:34:02.13	238.49	5.77	
2025-01-18 13:34:02.33	238.52	5.78	
2025-01-18 13:34:02.54	238.55	5.79	
2025-01-18 13:34:02.75	238.58	5.80	
2025-01-18 13:34:02.95	238.60	5.81	
2025-01-18 13:34:03.16	238.63	5.82	
2025-01-18 13:34:03.36	238.66	5.83	
2025-01-18 13:34:03.56	238.69	5.84	
2025-01-18 13:34:03.77	238.72	5.85	
2025-01-18 13:34:03.97	238.75	5.86	
2025-01-18 13:34:04.17	238.78	5.86	
2025-01-18 13:34:04.37	238.80	5.87	
2025-01-18 13:34:04.58	238.83	5.88	
2025-01-18 13:34:04.78	238.86	5.89	
2025-01-18 13:34:04.98	238.89	5.90	
2025-01-18 13:34:05.19	238.92	5.91	
2025-01-18 13:34:05.39	238.95	5.92	
2025-01-18 13:34:05.59	238.98	5.93	
2025-01-18 13:34:05.80	239.00	5.94	
2025-01-18 13:34:06.00	239.03	5.95	
2025-01-18 13:34:06.20	239.06	5.96	
2025-01-18 13:34:06.40	239.09	5.97	
2025-01-18 13:34:06.61	239.12	5.98	
2025-01-18 13:34:06.81	239.15	5.99	
2025-01-18 13:34:07.01	239.18	6.00	
2025-01-18 13:34:07.22	239.21	6.01	
2025-01-18 13:34:07.42	239.23	6.02	
2025-01-18 13:34:07.62	239.26	6.03	
2025-01-18 13:34:07.83	239.29	6.04	
2025-01-18 13:34:08.03	239.32	6.05	
2025-01-18 13:34:08.23	239.35	6.06	
2025-01-18 13:34:08.43	239.38	6.06	
2025-01-18 13:34:08.64	239.41	6.07	
2025-01-18 13:34:08.84	239.44	6.08	
2025-01-18 13:34:09.04	239.47	6.09	
2025-01-18 13:34:09.25	239.50	6.10	
2025-01-18 13:34:09.45	239.52	6.11	
2025-01-18 13:34:09.66	239.55	6.12	
2025-01-18 13:34:09.86	239.58	6.13	
2025-01-18 13:34:10.06	239.61	6.14	
2025-01-18 13:34:10.27	239.64	6.15	
2025-01-18 13:34:10.47	239.67	6.16	
2025-01-18 13:34:10.67	239.70	6.17	
2025-01-18 13:34:10.88	239.73	6.18	
2025-01-18 13:34:11.08	239.76	6.19	
2025-01-18 13:34:11.28	239.79	6.20	
2025-01-18 13:34:11.48	239.82	6.21	
2025-01-18 13:34:11.69	239.85	6.22	
2025-01-18 13:34:11.89	239.87	6.23	
2025-01-18 13:34:12.09	239.90	6.24	
2025-01-18 13:34:12.30	239.93	6.25	
2025-01-18 13:34:12.50	239.96	6.26	
2025-01-18 13:34:12.70	239.99	6.26	
2025-01-18 13:34:12.91	240.02	6.27	
2025-01-18 13:34:13.11	240.05	6.28	
2025-01-18 13:34:13.31	240.08	6.29	
2025-01-18 13:34:13.51	240.11	6.30	
2025-01-18 13:34:13.72	240.14	6.31	
2025-01-18 13:34:13.92	240.17	6.32	
2025-01-18 13:34:14.14	240.20	6.33	
2025-01-18 13:34:14.34	240.23	6.34	
2025-01-18 13:34:14.54	240.26	6.35	
2025-01-18 13:34:14.74	240.29	6.36	
2025-01-18 13:34:14.95	240.32	6.37	
2025-01-18 13:34:15.16	240.35	6.38	
2025-01-18 13:34:15.36	240.38	6.39	
2025-01-18 13:34:15.57	240.41	6.40	
2025-01-18 13:34:15.77	240.44	6.41	
2025-01-18 13:34:15.97	240.47	6.42	
2025-01-18 13:34:16.18	240.50	6.43	
2025-01-18 13:34:16.38	240.53	6.44	
2025-01-18 13:34:16.58	240.56	6.45	
2025-01-18 13:34:16.78	240.59	6.46	
2025-01-18 13:34:16.99	240.62	6.46	
2025-01-18 13:34:17.19	240.65	6.47	
2025-01-18 13:34:17.39	240.68	6.48	
2025-01-18 13:34:17.60	240.71	6.49	
2025-01-18 13:34:17.80	240.74	6.50	
2025-01-18 13:34:18.00	240.77	6.51	
2025-01-18 13:34:18.21	240.80	6.52	
2025-01-18 13:34:18.41	240.83	6.53	
2025-01-18 13:34:18.61	240.86	6.54	
2025-01-18 13:34:18.81	240.89	6.55	
2025-01-18 13:34:19.02	240.92	6.56	
2025-01-18 13:34:19.22	240.95	6.57	
2025-01-18 13:34:19.42	240.98	6.58	
2025-01-18 13:34:19.64	241.01	6.59	
2025-01-18 13:34:19.86	241.04	6.60	
2025-01-18 13:34:20.06	241.07	6.61	
2025-01-18 13:34:20.26	241.10	6.62	
2025-01-18 13:34:20.47	241.13	6.63	
2025-01-18 13:34:20.67	241.16	6.64	
2025-01-18 13:34:20.87	241.19	6.64	
2025-01-18 13:34:21.07	241.22	6.65	
2025-01-18 13:34:21.28	241.25	6.66	
2025-01-18 13:34:21.51	241.29	6.67	
2025-01-18 13:34:21.71	241.32	6.68	
2025-01-18 13:34:21.92	241.35	6.69	
2025-01-18 13:34:22.12	241.38	6.70	
2025-01-18 13:34:22.32	241.41	6.71	
2025-01-18 13:34:22.53	241.44	6.72	
2025-01-18 13:34:22.73	241.47	6.73	
2025-01-18 13:34:22.93	241.50	6.74	
2025-01-18 13:34:23.14	241.53	6.75	
2025-01-18 13:34:23.34	241.56	6.76	
2025-01-18 13:34:23.54	241.59	6.77	
2025-01-18 13:34:23.74	241.62	6.78	
2025-01-18 13:34:23.95	241.65	6.79	
2025-01-18 13:34:24.15	241.68	6.80	
2025-01-18 13:34:24.35	241.71	6.81	
2025-01-18 13:34:24.56	241.74	6.82	
2025-01-18 13:34:24.76	241.77	6.82	
2025-01-18 13:34:24.96	241.80	6.83	
2025-01-18 13:34:25.17	241.83	6.84	
2025-01-18 13:34:25.37	241.87	6.85	
2025-01-18 13:34:25.57	241.90	6.86	
2025-01-18 13:34:25.77	241.93	6.87	
2025-01-18 13:34:25.98	241.96	6.88	
2025-01-18 13:34:26.18	241.99	6.89	
2025-01-18 13:34:26.38	242.02	6.90	
2025-01-18 13:34:26.59	242.05	6.91	
2025-01-18 13:34:26.79	242.08	6.92	
2025-01-18 13:34:26.99	242.11	6.93	
2025-01-18 13:34:27.20	242.14	6.94	
2025-01-18 13:34:27.40	242.17	6.95	
2025-01-18 13:34:27.60	242.20	6.95	
2025-01-18 13:34:27.80	242.23	6.96	
2025-01-18 13:34:28.01	242.27	6.97	
2025-01-18 13:34:28.21	242.30	6.98	
2025-01-18 13:34:28.41	242.33	6.99	
2025-01-18 13:34:28.62	242.36	7.00	
2025-01-18 13:34:28.82	242.39	7.01	
2025-01-18 13:34:29.02	242.42	7.02	
2025-01-18 13:34:29.23	242.45	7.03	
2025-01-18 13:34:29.43	242.48	7.04	
2025-01-18 13:34:29.63	242.51	7.05	
2025-01-18 13:34:29.83	242.54	7.06	
2025-01-18 13:34:30.04	242.58	7.07	
2025-01-18 13:34:30.24	242.61	7.08	
2025-01-18 13:34:30.44	242.64	7.08	
2025-01-18 13:34:30.65	242.67	7.09	
2025-01-18 13:34:30.85	242.70	7.10	
2025-01-18 13:34:31.05	242.73	7.11	
2025-01-18 13:34:31.26	242.76	7.12	
2025-01-18 13:34:31.46	242.79	7.13	
2025-01-18 13:34:31.66	242.82	7.14	
2025-01-18 13:34:31.86	242.86	7.15	
2025-01-18 13:34:32.07	242.89	7.16	
2025-01-18 13:34:32.27	242.92	7.17	
2025-01-18 13:34:32.47	242.95	7.18	
2025-01-18 13:34:32.68	242.98	7.19	
2025-01-18 13:34:32.88	243.01	7.20	
2025-01-18 13:34:33.08	243.04	7.20	
2025-01-18 13:34:33.29	243.08	7.21	
2025-01-18 13:34:33.49	243.11	7.22	
2025-01-18 13:34:33.69	243.14	7.23	
2025-01-18 13:34:33.89	243.17	7.24	
2025-01-18 13:34:34.10	243.20	7.25	
2025-01-18 13:34:34.30	243.23	7.26	
2025-01-18 13:34:34.50	243.26	7.27	
2025-01-18 13:34:34.71	243.30	7.28	
2025-01-18 13:34:34.91	243.33	7.29	
2025-01-18 13:34:35.11	243.36	7.30	
2025-01-18 13:34:35.32	243.39	7.31	
2025-01-18 13:34:35.52	243.42	7.32	
2025-01-18 13:34:35.72	243.45	7.32	
2025-01-18 13:34:35.92	243.49	7.33	
2025-01-18 13:34:36.13	243.52	7.34	
2025-01-18 13:34:36.33	243.55	7.35	
2025-01-18 13:34:36.53	243.58	7.36	
2025-01-18 13:34:36.74	243.61	7.37	
2025-01-18 13:34:36.94	243.65	7.38	
2025-01-18 13:34:37.14	243.68	7.39	
2025-01-18 13:34:37.34	243.71	7.40	
2025-01-18 13:34:37.55	243.74	7.41	
2025-01-18 13:34:37.75	243.77	7.42	
2025-01-18 13:34:37.95	243.80	7.43	
2025-01-18 13:34:38.16	243.84	7.43	
2025-01-18 13:34:38.36	243.87	7.44	
2025-01-18 13:34:38.56	243.90	7.45	
2025-01-18 13:34:38.77	243.93	7.46	
2025-01-18 13:34:38.97	243.97	7.47	
2025-01-18 13:34:39.17	244.00	7.48	
2025-01-18 13:34:39.37	244.03	7.49	
2025-01-18 13:34:39.58	244.06	7.50	
2025-01-18 13:34:39.78	244.09	7.51	
2025-01-18 13:34:39.98	244.12	7.52	
2025-01-18 13:34:40.19	244.16	7.53	
2025-01-18 13:34:40.39	244.19	7.53	
2025-01-18 13:34:40.59	244.22	7.54	
2025-01-18 13:34:40.80	244.25	7.55	
2025-01-18 13:34:41.00	244.29	7.56	
2025-01-18 13:34:41.20	244.32	7.57	
2025-01-18 13:34:41.40	244.35	7.58	
2025-01-18 13:34:41.61	244.38	7.59	
2025-01-18 13:34:41.81	244.42	7.60	
2025-01-18 13:34:42.01	244.45	7.61	
2025-01-18 13:34:42.22	244.48	7.62	
2025-01-18 13:34:42.42	244.51	7.63	
2025-01-18 13:34:42.62	244.54	7.63	
2025-01-18 13:34:42.83	244.58	7.64	
2025-01-18 13:34:43.03	244.61	7.65	
2025-01-18 13:34:43.23	244.64	7.66	
2025-01-18 13:34:43.43	244.67	7.67	
2025-01-18 13:34:43.64	244.71	7.68	
2025-01-18 13:34:43.84	244.74	7.69	
2025-01-18 13:34:44.04	244.77	7.70	
2025-01-18 13:34:44.25	244.81	7.71	
2025-01-18 13:34:44.45	244.84	7.72	
2025-01-18 13:34:44.65	244.87	7.72	
2025-01-18 13:34:44.86	244.90	7.73	
2025-01-18 13:34:45.06	244.94	7.74	
2025-01-18 13:34:45.26	244.97	7.75	
2025-01-18 13:34:45.46	245.00	7.76	
2025-01-18 13:34:45.67	245.03	7.77	
2025-01-18 13:34:45.87	245.07	7.78	
2025-01-18 13:34:46.07	245.10	7.79	
2025-01-18 13:34:46.28	245.13	7.80	
2025-01-18 13:34:46.48	245.17	7.81	
2025-01-18 13:34:46.68	245.20	7.81	
2025-01-18 13:34:46.89	245.23	7.82	
2025-01-18 13:34:47.09	245.26	7.83	
2025-01-18 13:34:47.29	245.30	7.84	
2025-01-18 13:34:47.49	245.33	7.85	
2025-01-18 13:34:47.70	245.36	7.86	
2025-01-18 13:34:47.90	245.40	7.87	
2025-01-18 13:34:48.10	245.43	7.88	
2025-01-18 13:34:48.31	245.46	7.89	
2025-01-18 13:34:48.51	245.49	7.90	
2025-01-18 13:34:48.71	245.53	7.90	
2025-01-18 13:34:48.92	245.56	7.91	
2025-01-18 13:34:49.12	245.59	7.92	
2025-01-18 13:34:49.32	245.63	7.93	
2025-01-18 13:34:49.52	245.66	7.94	
2025-01-18 13:34:49.73	245.69	7.95	
2025-01-18 13:34:49.93	245.73	7.96	
2025-01-18 13:34:50.13	245.76	7.97	
2025-01-18 13:34:50.34	245.79	7.98	
2025-01-18 13:34:50.54	245.83	7.98	
2025-01-18 13:34:50.74	245.86	7.99	
2025-01-18 13:34:50.95	245.89	8.00	
2025-01-18 13:34:51.15	245.93	8.01	
2025-01-18 13:34:51.35	245.96	8.02	
2025-01-18 13:34:51.55	245.99	8.03	
2025-01-18 13:34:51.76	246.03	8.04	
2025-01-18 13:34:51.96	246.06	8.05	
2025-01-18 13:34:52.16	246.09	8.06	
2025-01-18 13:34:52.37	246.13	8.06	
2025-01-18 13:34:52.57	246.16	8.07	
2025-01-18 13:34:52.77	246.19	8.08	
2025-01-18 13:34:52.98	246.23	8.09	
2025-01-18 13:34:53.18	246.26	8.10	
2025-01-18 13:34:53.38	246.29	8.11	
2025-01-18 13:34:53.58	246.33	8.12	
2025-01-18 13:34:53.79	246.36	8.13	
2025-01-18 13:34:53.99	246.39	8.13	
2025-01-18 13:34:54.19	246.43	8.14	
2025-01-18 13:34:54.40	246.46	8.15	
2025-01-18 13:34:54.60	246.50	8.16	
2025-01-18 13:34:54.80	246.53	8.17	
2025-01-18 13:34:55.00	246.56	8.18	
2025-01-18 13:34:55.21	246.60	8.19	
2025-01-18 13:34:55.41	246.63	8.20	
2025-01-18 13:34:55.61	246.66	8.21	
2025-01-18 13:34:55.82	246.70	8.21	
2025-01-18 13:34:56.02	246.73	8.22	
2025-01-18 13:34:56.22	246.76	8.23	
2025-01-18 13:34:56.43	246.80	8.24	
2025-01-18 13:34:56.63	246.83	8.25	
2025-01-18 13:34:56.83	246.87	8.26	
2025-01-18 13:34:57.03	246.90	8.27	
2025-01-18 13:34:57.24	246.94	8.28	
2025-01-18 13:34:57.44	246.97	8.28	
2025-01-18 13:34:57.64	247.00	8.29	
2025-01-18 13:34:57.85	247.04	8.30	
2025-01-18 13:34:58.05	247.07	8.31	
2025-01-18 13:34:58.25	247.10	8.32	
2025-01-18 13:34:58.46	247.14	8.33	
2025-01-18 13:34:58.66	247.17	8.34	
2025-01-18 13:34:58.86	247.21	8.35	
2025-01-18 13:34:59.06	247.24	8.35	
2025-01-18 13:34:59.27	247.28	8.36	
2025-01-18 13:34:59.47	247.31	8.37	
2025-01-18 13:34:59.67	247.34	8.38	
2025-01-18 13:34:59.88	247.38	8.39	
2025-01-18 13:35:00.08	247.41	8.40	
2025-01-18 13:35:00.28	247.45	8.41	
2025-01-18 13:35:00.49	247.48	8.41	
2025-01-18 13:35:00.69	247.52	8.42	
2025-01-18 13:35:00.89	247.55	8.43	
2025-01-18 13:35:01.09	247.58	8.44	
2025-01-18 13:35:01.30	247.62	8.45	
2025-01-18 13:35:01.50	247.65	8.46	
2025-01-18 13:35:01.70	247.69	8.47	
2025-01-18 13:35:01.91	247.72	8.48	
2025-01-18 13:35:02.11	247.76	8.48	
2025-01-18 13:35:02.31	247.79	8.49	
2025-01-18 13:35:02.52	247.83	8.50	
2025-01-18 13:35:02.72	247.86	8.51	
2025-01-18 13:35:02.92	247.89	8.52	
2025-01-18 13:35:03.12	247.93	8.53	
2025-01-18 13:35:03.33	247.96	8.54	
2025-01-18 13:35:03.53	248.00	8.54	
2025-01-18 13:35:03.73	248.03	8.55	
2025-01-18 13:35:03.94	248.07	8.56	
2025-01-18 13:35:04.14	248.10	8.57	
2025-01-18 13:35:04.34	248.14	8.58	
2025-01-18 13:35:04.55	248.17	8.59	
2025-01-18 13:35:04.75	248.21	8.60	
2025-01-18 13:35:04.95	248.24	8.60	
2025-01-18 13:35:05.15	248.27	8.61	
2025-01-18 13:35:05.36	248.31	8.62	
2025-01-18 13:35:05.56	248.34	8.63	
2025-01-18 13:35:05.76	248.38	8.64	
2025-01-18 13:35:05.97	248.42	8.65	
2025-01-18 13:35:06.17	248.45	8.66	
2025-01-18 13:35:06.37	248.48	8.66	
2025-01-18 13:35:06.58	248.52	8.67	
2025-01-18 13:35:06.78	248.55	8.68	
2025-01-18 13:35:06.98	248.59	8.69	
2025-01-18 13:35:07.18	248.62	8.70	
2025-01-18 13:35:07.39	248.66	8.71	
2025-01-18 13:35:07.59	248.69	8.71	
2025-01-18 13:35:07.79	248.73	8.72	
2025-01-18 13:35:08.00	248.77	8.73	
2025-01-18 13:35:08.20	248.80	8.74	
2025-01-18 13:35:08.40	248.83	8.75	
2025-01-18 13:35:08.60	248.87	8.76	
2025-01-18 13:35:08.81	248.91	8.77	
2025-01-18 13:35:09.01	248.94	8.77	
2025-01-18 13:35:09.21	248.97	8.78	
2025-01-18 13:35:09.42	249.01	8.79	
2025-01-18 13:35:09.62	249.05	8.80	
2025-01-18 13:35:09.82	249.08	8.81	
2025-01-18 13:35:10.03	249.12	8.82	
2025-01-18 13:35:10.23	249.15	8.82	
2025-01-18 13:35:10.43	249.19	8.83	
2025-01-18 13:35:10.63	249.22	8.84	
2025-01-18 13:35:10.84	249.26	8.85	
2025-01-18 13:35:11.04	249.29	8.86	
2025-01-18 13:35:11.24	249.33	8.87	
2025-01-18 13:35:11.45	249.36	8.87	
2025-01-18 13:35:11.65	249.40	8.88	
2025-01-18 13:35:11.85	249.43	8.89	
2025-01-18 13:35:12.06	249.47	8.90	
2025-01-18 13:35:12.26	249.51	8.91	
2025-01-18 13:35:12.46	249.54	8.92	
2025-01-18 13:35:12.66	249.58	8.92	
2025-01-18 13:35:12.87	249.61	8.93	
2025-01-18 13:35:13.07	249.65	8.94	
2025-01-18 13:35:13.27	249.68	8.95	
2025-01-18 13:35:13.48	249.72	8.96	
2025-01-18 13:35:13.68	249.76	8.97	
2025-01-18 13:35:13.88	249.79	8.97	
2025-01-18 13:35:14.09	249.83	8.98	
2025-01-18 13:35:14.29	249.86	8.99	
2025-01-18 13:35:14.49	249.90	9.00	
2025-01-18 13:35:14.69	249.93	9.01	
2025-01-18 13:35:14.90	249.97	9.02	
2025-01-18 13:35:15.10	250.01	9.02	
2025-01-18 13:35:15.30	250.04	9.03	
2025-01-18 13:35:15.51	250.08	9.04	
2025-01-18 13:35:15.71	250.11	9.05	
2025-01-18 13:35:15.91	250.15	9.06	
2025-01-18 13:35:16.12	250.19	9.07	
2025-01-18 13:35:16.32	250.22	9.07	
2025-01-18 13:35:16.52	250.26	9.08	
2025-01-18 13:35:16.72	250.29	9.09	
2025-01-18 13:35:16.93	250.33	9.10	
2025-01-18 13:35:17.13	250.36	9.11	
2025-01-18 13:35:17.33	250.40	9.11	
2025-01-18 13:35:17.54	250.44	9.12	
2025-01-18 13:35:17.74	250.47	9.13	
2025-01-18 13:35:17.94	250.51	9.14	
2025-01-18 13:35:18.15	250.55	9.15	
2025-01-18 13:35:18.35	250.58	9.16	
2025-01-18 13:35:18.55	250.62	9.16	
2025-01-18 13:35:18.75	250.65	9.17	
2025-01-18 13:35:18.96	250.69	9.18	
2025-01-18 13:35:19.16	250.73	9.19	
2025-01-18 13:35:19.36	250.76	9.20	
2025-01-18 13:35:19.57	250.80	9.20	
2025-01-18 13:35:19.77	250.84	9.21	
2025-01-18 13:35:19.97	250.87	9.22	
2025-01-18 13:35:20.18	250.91	9.23	
2025-01-18 13:35:20.38	250.94	9.24	
2025-01-18 13:35:20.58	250.98	9.24	
2025-01-18 13:35:20.78	251.02	9.25	
2025-01-18 13:35:20.99	251.05	9.26	
2025-01-18 13:35:21.19	251.09	9.27	
2025-01-18 13:35:21.39	251.13	9.28	
2025-01-18 13:35:21.60	251.16	9.29	
2025-01-18 13:35:21.80	251.20	9.29	
2025-01-18 13:35:22.00	251.24	9.30	
2025-01-18 13:35:22.21	251.27	9.31	
2025-01-18 13:35:22.41	251.31	9.32	
2025-01-18 13:35:22.61	251.35	9.33	
2025-01-18 13:35:22.81	251.38	9.33	
2025-01-18 13:35:23.02	251.42	9.34	
2025-01-18 13:35:23.22	251.46	9.35	
2025-01-18 13:35:23.42	251.49	9.36	
2025-01-18 13:35:23.63	251.53	9.37	
2025-01-18 13:35:23.83	251.57	9.37	
2025-01-18 13:35:24.03	251.60	9.38	
2025-01-18 13:35:24.23	251.64	9.39	
2025-01-18 13:35:24.44	251.68	9.40	
2025-01-18 13:35:24.64	251.71	9.41	
2025-01-18 13:35:24.84	251.75	9.41	
2025-01-18 13:35:25.05	251.79	9.42	
2025-01-18 13:35:25.25	251.82	9.43	
2025-01-18 13:35:25.45	251.86	9.44	
2025-01-18 13:35:25.66	251.90	9.44	
2025-01-18 13:35:25.86	251.93	9.45	
2025-01-18 13:35:26.06	251.97	9.46	
2025-01-18 13:35:26.26	252.01	9.47	
2025-01-18 13:35:26.47	252.05	9.48	
2025-01-18 13:35:26.67	252.08	9.48	
2025-01-18 13:35:26.87	252.12	9.49	
2025-01-18 13:35:27.08	252.16	9.50	
2025-01-18 13:35:27.28	252.19	9.51	
2025-01-18 13:35:27.48	252.23	9.52	
2025-01-18 13:35:27.69	252.27	9.52	
2025-01-18 13:35:27.89	252.30	9.53	
2025-01-18 13:35:28.09	252.34	9.54	
2025-01-18 13:35:28.29	252.38	9.55	
2025-01-18 13:35:28.50	252.42	9.55	
2025-01-18 13:35:28.70	252.45	9.56	
2025-01-18 13:35:28.90	252.49	9.57	
2025-01-18 13:35:29.11	252.53	9.58	
2025-01-18 13:35:29.31	252.57	9.59	
2025-01-18 13:35:29.51	252.60	9.59	
2025-01-18 13:35:29.72	252.64	9.60	
2025-01-18 13:35:29.92	252.68	9.61	
2025-01-18 13:35:30.12	252.71	9.62	
2025-01-18 13:35:30.32	252.75	9.62	
2025-01-18 13:35:30.53	252.79	9.63	
2025-01-18 13:35:30.73	252.83	9.64	
2025-01-18 13:35:30.93	252.86	9.65	
2025-01-18 13:35:31.14	252.90	9.66	
2025-01-18 13:35:31.34	252.94	9.66	
2025-01-18 13:35:31.54	252.98	9.67	
2025-01-18 13:35:31.75	253.02	9.68	
2025-01-18 13:35:31.95	253.05	9.69	
2025-01-18 13:35:32.15	253.09	9.69	
2025-01-18 13:35:32.35	253.13	9.70	
2025-01-18 13:35:32.56	253.17	9.71	
2025-01-18 13:35:32.76	253.20	9.72	
2025-01-18 13:35:32.96	253.24	9.72	
2025-01-18 13:35:33.17	253.28	9.73	
2025-01-18 13:35:33.37	253.32	9.74	
2025-01-18 13:35:33.57	253.35	9.75	
2025-01-18 13:35:33.78	253.39	9.76	
2025-01-18 13:35:33.98	253.43	9.76	
2025-01-18 13:35:34.18	253.47	9.77	
2025-01-18 13:35:34.38	253.50	9.78	
2025-01-18 13:35:34.59	253.54	9.79	
2025-01-18 13:35:34.79	253.58	9.79	
2025-01-18 13:35:34.99	253.62	9.80	
2025-01-18 13:35:35.20	253.66	9.81	
2025-01-18 13:35:35.40	253.69	9.82	
2025-01-18 13:35:35.60	253.73	9.82	
2025-01-18 13:35:35.81	253.77	9.83	
2025-01-18 13:35:36.01	253.81	9.84	
2025-01-18 13:35:36.21	253.85	9.85	
2025-01-18 13:35:36.43	253.89	9.85	
2025-01-18 13:35:36.63	253.92	9.86	
2025-01-18 13:35:36.84	253.96	9.87	
2025-01-18 13:35:37.04	254.00	9.88	
2025-01-18 13:35:37.24	254.04	9.88	
2025-01-18 13:35:37.44	254.08	9.89	
2025-01-18 13:35:37.65	254.12	9.90	
2025-01-18 13:35:37.85	254.15	9.91	
2025-01-18 13:35:38.05	254.19	9.91	
2025-01-18 13:35:38.26	254.23	9.92	
2025-01-18 13:35:38.46	254.27	9.93	
2025-01-18 13:35:38.66	254.31	9.94	
2025-01-18 13:35:38.87	254.34	9.94	
2025-01-18 13:35:39.07	254.38	9.95	
2025-01-18 13:35:39.27	254.42	9.96	
2025-01-18 13:35:39.47	254.46	9.97	
2025-01-18 13:35:39.68	254.50	9.97	
2025-01-18 13:35:39.88	254.54	9.98	
2025-01-18 13:35:40.08	254.57	9.99	
2025-01-18 13:35:40.29	254.61	10.00	
2025-01-18 13:35:40.49	254.65	10.00	
2025-01-18 13:35:40.69	254.69	10.01	
2025-01-18 13:35:40.90	254.73	10.02	
2025-01-18 13:35:41.10	254.77	10.02	
2025-01-18 13:35:41.30	254.80	10.03	
2025-01-18 13:35:41.50	254.84	10.04	
2025-01-18 13:35:41.71	254.88	10.05	
2025-01-18 13:35:41.91	254.92	10.05	
2025-01-18 13:35:42.11	254.96	10.06	
2025-01-18 13:35:42.32	255.00	10.07	
2025-01-18 13:35:42.52	255.04	10.08	
2025-01-18 13:35:42.72	255.07	10.08	
2025-01-18 13:35:42.93	255.11	10.09	
2025-01-18 13:35:43.13	255.15	10.10	
2025-01-18 13:35:43.33	255.19	10.10	
2025-01-18 13:35:43.53	255.23	10.11	
2025-01-18 13:35:43.74	255.27	10.12	
2025-01-18 13:35:43.94	255.31	10.13	
2025-01-18 13:35:44.14	255.35	10.13	
2025-01-18 13:35:44.35	255.39	10.14	
2025-01-18 13:35:44.55	255.42	10.15	
2025-01-18 13:35:44.75	255.46	10.16	
2025-01-18 13:35:44.96	255.50	10.16	
2025-01-18 13:35:45.16	255.54	10.17	
2025-01-18 13:35:45.36	255.58	10.18	
2025-01-18 13:35:45.56	255.62	10.18	
2025-01-18 13:35:45.77	255.66	10.19	
2025-01-18 13:35:45.97	255.70	10.20	
2025-01-18 13:35:46.17	255.73	10.21	
2025-01-18 13:35:46.38	255.77	10.21	
2025-01-18 13:35:46.58	255.81	10.22	
2025-01-18 13:35:46.78	255.85	10.23	
2025-01-18 13:35:46.99	255.89	10.23	
2025-01-18 13:35:47.19	255.93	10.24	
2025-01-18 13:35:47.39	255.97	10.25	
2025-01-18 13:35:47.59	256.01	10.25	
2025-01-18 13:35:47.80	256.05	10.26	
2025-01-18 13:35:48.00	256.09	10.27	
2025-01-18 13:35:48.20	256.12	10.28	
2025-01-18 13:35:48.41	256.17	10.28	
2025-01-18 13:35:48.61	256.20	10.29	
2025-01-18 13:35:48.81	256.24	10.30	
2025-01-18 13:35:49.01	256.28	10.30	
2025-01-18 13:35:49.22	256.32	10.31	
2025-01-18 13:35:49.42	256.36	10.32	
2025-01-18 13:35:49.62	256.40	10.32	
2025-01-18 13:35:49.83	256.44	10.33	
2025-01-18 13:35:50.03	256.48	10.34	
2025-01-18 13:35:50.23	256.52	10.35	
2025-01-18 13:35:50.44	256.56	10.35	
2025-01-18 13:35:50.64	256.60	10.36	
2025-01-18 13:35:50.84	256.64	10.37	
2025-01-18 13:35:51.04	256.68	10.37	
2025-01-18 13:35:51.25	256.72	10.38	
2025-01-18 13:35:51.45	256.75	10.39	
2025-01-18 13:35:51.65	256.79	10.39	
2025-01-18 13:35:51.86	256.83	10.40	
2025-01-18 13:35:52.06	256.87	10.41	
2025-01-18 13:35:52.26	256.91	10.41	
2025-01-18 13:35:52.47	256.95	10.42	
2025-01-18 13:35:52.67	256.99	10.43	
2025-01-18 13:35:52.87	257.03	10.43	
2025-01-18 13:35:53.07	257.07	10.44	
2025-01-18 13:35:53.28	257.11	10.45	
2025-01-18 13:35:53.48	257.15	10.46	
2025-01-18 13:35:53.68	257.19	10.46	
2025-01-18 13:35:53.89	257.23	10.47	
2025-01-18 13:35:54.09	257.27	10.48	
2025-01-18 13:35:54.29	257.31	10.48	
2025-01-18 13:35:54.50	257.35	10.49	
2025-01-18 13:35:54.70	257.39	10.50	
2025-01-18 13:35:54.90	257.43	10.50	
2025-01-18 13:35:55.10	257.47	10.51	
2025-01-18 13:35:55.31	257.51	10.52	
2025-01-18 13:35:55.51	257.55	10.52	
2025-01-18 13:35:55.71	257.59	10.53	
2025-01-18 13:35:55.92	257.63	10.54	
2025-01-18 13:35:56.12	257.67	10.54	
2025-01-18 13:35:56.32	257.71	10.55	
2025-01-18 13:35:56.53	257.75	10.56	
2025-01-18 13:35:56.73	257.79	10.56	
2025-01-18 13:35:56.93	257.83	10.57	
2025-01-18 13:35:57.13	257.87	10.58	
2025-01-18 13:35:57.34	257.91	10.58	
2025-01-18 13:35:57.54	257.95	10.59	
2025-01-18 13:35:57.74	257.99	10.60	
2025-01-18 13:35:57.95	258.03	10.60	
2025-01-18 13:35:58.15	258.07	10.61	
2025-01-18 13:35:58.35	258.11	10.62	
2025-01-18 13:35:58.56	258.15	10.62	
2025-01-18 13:35:58.76	258.19	10.63	
2025-01-18 13:35:58.96	258.23	10.63	
2025-01-18 13:35:59.16	258.27	10.64	
2025-01-18 13:35:59.37	258.31	10.65	
2025-01-18 13:35:59.57	258.35	10.65	
2025-01-18 13:35:59.77	258.39	10.66	
2025-01-18 13:35:59.98	258.43	10.67	
2025-01-18 13:36:00.18	258.47	10.67	
2025-01-18 13:36:00.38	258.51	10.68	
2025-01-18 13:36:00.59	258.55	10.69	
2025-01-18 13:36:00.79	258.59	10.69	
2025-01-18 13:36:00.99	258.63	10.70	
2025-01-18 13:36:01.19	258.67	10.71	
2025-01-18 13:36:01.40	258.71	10.71	
2025-01-18 13:36:01.60	258.75	10.72	
2025-01-18 13:36:01.80	258.79	10.72	
2025-01-18 13:36:02.01	258.84	10.73	
2025-01-18 13:36:02.21	258.87	10.74	
2025-01-18 13:36:02.41	258.91	10.74	
2025-01-18 13:36:02.61	258.95	10.75	
2025-01-18 13:36:02.82	259.00	10.76	
2025-01-18 13:36:03.02	259.04	10.76	
2025-01-18 13:36:03.22	259.08	10.77	
2025-01-18 13:36:03.43	259.12	10.78	
2025-01-18 13:36:03.63	259.16	10.78	
2025-01-18 13:36:03.83	259.20	10.79	
2025-01-18 13:36:04.04	259.24	10.79	
2025-01-18 13:36:04.24	259.28	10.80	
2025-01-18 13:36:04.44	259.32	10.81	
2025-01-18 13:36:04.64	259.36	10.81	
2025-01-18 13:36:04.85	259.40	10.82	
2025-01-18 13:36:05.05	259.44	10.83	
2025-01-18 13:36:05.25	259.48	10.83	
2025-01-18 13:36:05.46	259.53	10.84	
2025-01-18 13:36:05.66	259.57	10.84	
2025-01-18 13:36:05.86	259.61	10.85	
2025-01-18 13:36:06.07	259.65	10.86	
2025-01-18 13:36:06.27	259.69	10.86	
2025-01-18 13:36:06.47	259.73	10.87	
2025-01-18 13:36:06.67	259.77	10.87	
2025-01-18 13:36:06.88	259.81	10.88	
2025-01-18 13:36:07.08	259.85	10.89	
2025-01-18 13:36:07.28	259.89	10.89	
2025-01-18 13:36:07.49	259.93	10.90	
2025-01-18 13:36:07.69	259.97	10.91	
2025-01-18 13:36:07.89	260.02	10.91	
2025-01-18 13:36:08.10	260.06	10.92	
2025-01-18 13:36:08.30	260.10	10.92	
2025-01-18 13:36:08.50	260.14	10.93	
2025-01-18 13:36:08.70	260.18	10.94	
2025-01-18 13:36:08.91	260.22	10.94	
2025-01-18 13:36:09.11	260.26	10.95	
2025-01-18 13:36:09.31	260.30	10.95	
2025-01-18 13:36:09.52	260.34	10.96	
2025-01-18 13:36:09.72	260.39	10.97	
2025-01-18 13:36:09.92	260.43	10.97	
2025-01-18 13:36:10.13	260.47	10.98	
2025-01-18 13:36:10.33	260.51	10.98	
2025-01-18 13:36:10.53	260.55	10.99	
2025-01-18 13:36:10.73	260.59	11.00	
2025-01-18 13:36:10.94	260.63	11.00	
2025-01-18 13:36:11.14	260.67	11.01	
2025-01-18 13:36:11.34	260.71	11.01	
2025-01-18 13:36:11.55	260.76	11.02	
2025-01-18 13:36:11.75	260.80	11.02	
2025-01-18 13:36:11.95	260.84	11.03	
2025-01-18 13:36:12.16	260.88	11.04	
2025-01-18 13:36:12.36	260.92	11.04	
2025-01-18 13:36:12.56	260.96	11.05	
2025-01-18 13:36:12.76	261.00	11.05	
2025-01-18 13:36:12.97	261.05	11.06	
2025-01-18 13:36:13.17	261.09	11.07	
2025-01-18 13:36:13.37	261.13	11.07	
2025-01-18 13:36:13.58	261.17	11.08	
2025-01-18 13:36:13.78	261.21	11.08	
2025-01-18 13:36:13.98	261.25	11.09	
2025-01-18 13:36:14.19	261.30	11.09	
2025-01-18 13:36:14.39	261.34	11.10	
2025-01-18 13:36:14.59	261.38	11.11	
2025-01-18 13:36:14.79	261.42	11.11	
2025-01-18 13:36:15.00	261.46	11.12	
2025-01-18 13:36:15.20	261.50	11.12	
2025-01-18 13:36:15.40	261.54	11.13	
2025-01-18 13:36:15.61	261.59	11.13	
2025-01-18 13:36:15.81	261.63	11.14	
2025-01-18 13:36:16.01	261.67	11.14	
2025-01-18 13:36:16.22	261.71	11.15	
2025-01-18 13:36:16.42	261.75	11.16	
2025-01-18 13:36:16.62	261.79	11.16	
2025-01-18 13:36:16.82	261.84	11.17	
2025-01-18 13:36:17.03	261.88	11.17	
2025-01-18 13:36:17.23	261.92	11.18	
2025-01-18 13:36:17.43	261.96	11.18	
2025-01-18 13:36:17.64	262.00	11.19	
2025-01-18 13:36:17.84	262.05	11.20	
2025-01-18 13:36:18.04	262.09	11.20	
2025-01-18 13:36:18.24	262.13	11.21	
2025-01-18 13:36:18.45	262.17	11.21	
2025-01-18 13:36:18.65	262.21	11.22	
2025-01-18 13:36:18.85	262.25	11.22	
2025-01-18 13:36:19.06	262.30	11.23	
2025-01-18 13:36:19.26	262.34	11.23	
2025-01-18 13:36:19.46	262.38	11.24	
2025-01-18 13:36:19.67	262.42	11.24	
2025-01-18 13:36:19.87	262.46	11.25	
2025-01-18 13:36:20.07	262.51	11.25	
2025-01-18 13:36:20.27	262.55	11.26	
2025-01-18 13:36:20.48	262.59	11.27	
2025-01-18 13:36:20.68	262.63	11.27	
2025-01-18 13:36:20.88	262.67	11.28	
2025-01-18 13:36:21.09	262.72	11.28	
2025-01-18 13:36:21.29	262.76	11.29	
2025-01-18 13:36:21.49	262.80	11.29	
2025-01-18 13:36:21.70	262.84	11.30	
2025-01-18 13:36:21.90	262.89	11.30	
2025-01-18 13:36:22.10	262.93	11.31	
2025-01-18 13:36:22.30	262.97	11.31	
2025-01-18 13:36:22.51	263.01	11.32	
2025-01-18 13:36:22.71	263.05	11.32	
2025-01-18 13:36:22.91	263.09	11.33	
2025-01-18 13:36:23.12	263.14	11.33	
2025-01-18 13:36:23.32	263.18	11.34	
2025-01-18 13:36:23.52	263.22	11.34	
2025-01-18 13:36:23.73	263.27	11.35	
2025-01-18 13:36:23.93	263.31	11.36	
2025-01-18 13:36:24.13	263.35	11.36	
2025-01-18 13:36:24.33	263.39	11.37	
2025-01-18 13:36:24.54	263.43	11.37	
2025-01-18 13:36:24.74	263.48	11.38	
2025-01-18 13:36:24.94	263.52	11.38	
2025-01-18 13:36:25.15	263.56	11.39	
2025-01-18 13:36:25.35	263.60	11.39	
2025-01-18 13:36:25.55	263.65	11.40	
2025-01-18 13:36:25.76	263.69	11.40	
2025-01-18 13:36:25.96	263.73	11.41	
2025-01-18 13:36:26.16	263.77	11.41	
2025-01-18 13:36:26.36	263.81	11.42	
2025-01-18 13:36:26.57	263.86	11.42	
2025-01-18 13:36:26.77	263.90	11.43	
2025-01-18 13:36:26.97	263.94	11.43	
2025-01-18 13:36:27.18	263.99	11.44	
2025-01-18 13:36:27.38	264.03	11.44	
2025-01-18 13:36:27.58	264.07	11.45	
2025-01-18 13:36:27.79	264.11	11.45	
2025-01-18 13:36:27.99	264.16	11.46	
2025-01-18 13:36:28.19	264.20	11.46	
2025-01-18 13:36:28.39	264.24	11.47	
2025-01-18 13:36:28.60	264.28	11.47	
2025-01-18 13:36:28.80	264.33	11.48	
2025-01-18 13:36:29.00	264.37	11.48	
2025-01-18 13:36:29.21	264.41	11.48	
2025-01-18 13:36:29.41	264.45	11.49	
2025-01-18 13:36:29.61	264.50	11.49	
2025-01-18 13:36:29.82	264.54	11.50	
2025-01-18 13:36:30.02	264.58	11.50	
2025-01-18 13:36:30.22	264.63	11.51	
2025-01-18 13:36:30.42	264.67	11.51	
2025-01-18 13:36:30.63	264.71	11.52	
2025-01-18 13:36:30.83	264.75	11.52	
2025-01-18 13:36:31.03	264.80	11.53	
2025-01-18 13:36:31.24	264.84	11.53	
2025-01-18 13:36:31.44	264.88	11.54	
2025-01-18 13:36:31.64	264.92	11.54	
2025-01-18 13:36:31.85	264.97	11.55	
2025-01-18 13:36:32.05	265.01	11.55	
2025-01-18 13:36:32.25	265.05	11.56	
2025-01-18 13:36:32.45	265.10	11.56	
2025-01-18 13:36:32.66	265.14	11.57	
2025-01-18 13:36:32.86	265.18	11.57	
2025-01-18 13:36:33.06	265.23	11.57	
2025-01-18 13:36:33.27	265.27	11.58	
2025-01-18 13:36:33.47	265.31	11.58	
2025-01-18 13:36:33.67	265.35	11.59	
2025-01-18 13:36:33.87	265.40	11.59	
2025-01-18 13:36:34.08	265.44	11.60	
2025-01-18 13:36:34.28	265.48	11.60	
2025-01-18 13:36:34.48	265.53	11.61	
2025-01-18 13:36:34.69	265.57	11.61	
2025-01-18 13:36:34.89	265.61	11.62	
2025-01-18 13:36:35.09	265.66	11.62	
2025-01-18 13:36:35.30	265.70	11.62	
2025-01-18 13:36:35.50	265.74	11.63	
2025-01-18 13:36:35.70	265.78	11.63	
2025-01-18 13:36:35.90	265.83	11.64	
2025-01-18 13:36:36.11	265.87	11.64	
2025-01-18 13:36:36.31	265.91	11.65	
2025-01-18 13:36:36.51	265.96	11.65	
2025-01-18 13:36:36.72	266.00	11.66	
2025-01-18 13:36:36.92	266.04	11.66	
2025-01-18 13:36:37.12	266.09	11.66	
2025-01-18 13:36:37.33	266.13	11.67	
2025-01-18 13:36:37.53	266.17	11.67	
2025-01-18 13:36:37.73	266.22	11.68	
2025-01-18 13:36:37.93	266.26	11.68	
2025-01-18 13:36:38.14	266.30	11.69	
2025-01-18 13:36:38.34	266.35	11.69	
2025-01-18 13:36:38.54	266.39	11.69	
2025-01-18 13:36:38.75	266.43	11.70	
2025-01-18 13:36:38.95	266.48	11.70	
2025-01-18 13:36:39.15	266.52	11.71	
2025-01-18 13:36:39.36	266.56	11.71	
2025-01-18 13:36:39.56	266.61	11.71	
2025-01-18 13:36:39.76	266.65	11.72	
2025-01-18 13:36:39.96	266.69	11.72	
2025-01-18 13:36:40.17	266.74	11.73	
2025-01-18 13:36:40.37	266.78	11.73	
2025-01-18 13:36:40.57	266.82	11.74	
2025-01-18 13:36:40.78	266.87	11.74	
2025-01-18 13:36:40.98	266.91	11.74	
2025-01-18 13:36:41.18	266.95	11.75	
2025-01-18 13:36:41.39	267.00	11.75	
2025-01-18 13:36:41.59	267.04	11.76	
2025-01-18 13:36:41.79	267.09	11.76	
2025-01-18 13:36:41.99	267.13	11.76	
2025-01-18 13:36:42.20	267.17	11.77	
2025-01-18 13:36:42.40	267.22	11.77	
2025-01-18 13:36:42.60	267.26	11.78	
2025-01-18 13:36:42.81	267.30	11.78	
2025-01-18 13:36:43.01	267.35	11.78	
2025-01-18 13:36:43.21	267.39	11.79	
2025-01-18 13:36:43.42	267.43	11.79	
2025-01-18 13:36:43.62	267.48	11.80	
2025-01-18 13:36:43.82	267.52	11.80	
2025-01-18 13:36:44.02	267.56	11.80	
2025-01-18 13:36:44.23	267.61	11.81	
2025-01-18 13:36:44.43	267.65	11.81	
2025-01-18 13:36:44.63	267.70	11.81	
2025-01-18 13:36:44.84	267.74	11.82	
2025-01-18 13:36:45.04	267.78	11.82	
2025-01-18 13:36:45.24	267.83	11.83	
2025-01-18 13:36:45.45	267.87	11.83	
2025-01-18 13:36:45.65	267.91	11.83	
2025-01-18 13:36:45.85	267.96	11.84	
2025-01-18 13:36:46.05	268.00	11.84	
2025-01-18 13:36:46.26	268.05	11.85	
2025-01-18 13:36:46.46	268.09	11.85	
2025-01-18 13:36:46.66	268.13	11.85	
2025-01-18 13:36:46.87	268.18	11.86	
2025-01-18 13:36:47.07	268.22	11.86	
2025-01-18 13:36:47.27	268.26	11.86	
2025-01-18 13:36:47.47	268.31	11.87	
2025-01-18 13:36:47.68	268.35	11.87	
2025-01-18 13:36:47.88	268.40	11.87	
2025-01-18 13:36:48.08	268.44	11.88	
2025-01-18 13:36:48.29	268.48	11.88	
2025-01-18 13:36:48.49	268.53	11.89	
2025-01-18 13:36:48.69	268.57	11.89	
2025-01-18 13:36:48.90	268.62	11.89	
2025-01-18 13:36:49.10	268.66	11.90	
2025-01-18 13:36:49.30	268.70	11.90	
2025-01-18 13:36:49.51	268.75	11.90	
2025-01-18 13:36:49.71	268.79	11.91	
2025-01-18 13:36:49.91	268.84	11.91	
2025-01-18 13:36:50.12	268.88	11.91	
2025-01-18 13:36:50.32	268.92	11.92	
2025-01-18 13:36:50.52	268.97	11.92	
2025-01-18 13:36:50.73	269.01	11.92	
2025-01-18 13:36:50.93	269.06	11.93	
2025-01-18 13:36:51.13	269.10	11.93	
2025-01-18 13:36:51.34	269.15	11.93	
2025-01-18 13:36:51.54	269.19	11.94	
2025-01-18 13:36:51.74	269.23	11.94	
2025-01-18 13:36:51.94	269.28	11.94	
2025-01-18 13:36:52.15	269.32	11.95	
2025-01-18 13:36:52.35	269.37	11.95	
2025-01-18 13:36:52.55	269.41	11.95	
2025-01-18 13:36:52.76	269.45	11.96	
2025-01-18 13:36:52.96	269.50	11.96	
2025-01-18 13:36:53.16	269.54	11.96	
2025-01-18 13:36:53.37	269.59	11.97	
2025-01-18 13:36:53.57	269.63	11.97	
2025-01-18 13:36:53.77	269.67	11.97	
2025-01-18 13:36:53.97	269.72	11.98	
2025-01-18 13:36:54.18	269.76	11.98	
2025-01-18 13:36:54.38	269.81	11.98	
2025-01-18 13:36:54.58	269.85	11.99	
2025-01-18 13:36:54.79	269.90	11.99	
2025-01-18 13:36:54.99	269.94	11.99	
2025-01-18 13:36:55.19	269.98	12.00	
2025-01-18 13:36:55.40	270.03	12.00	
2025-01-18 13:36:55.60	270.07	12.00	
2025-01-18 13:36:55.80	270.12	12.01	
2025-01-18 13:36:56.00	270.16	12.01	
2025-01-18 13:36:56.21	270.21	12.01	
2025-01-18 13:36:56.41	270.25	12.01	
2025-01-18 13:36:56.61	270.29	12.02	
2025-01-18 13:36:56.82	270.34	12.02	
2025-01-18 13:36:57.02	270.38	12.02	
2025-01-18 13:36:57.22	270.43	12.03	
2025-01-18 13:36:57.43	270.47	12.03	
2025-01-18 13:36:57.63	270.52	12.03	
2025-01-18 13:36:57.83	270.56	12.04	
2025-01-18 13:36:58.03	270.60	12.04	
2025-01-18 13:36:58.24	270.65	12.04	
2025-01-18 13:36:58.44	270.69	12.04	
2025-01-18 13:36:58.64	270.74	12.05	
2025-01-18 13:36:58.85	270.78	12.05	
2025-01-18 13:36:59.05	270.83	12.05	
2025-01-18 13:36:59.25	270.87	12.06	
2025-01-18 13:36:59.45	270.91	12.06	
2025-01-18 13:36:59.66	270.96	12.06	
2025-01-18 13:36:59.86	271.00	12.06	
2025-01-18 13:37:00.06	271.05	12.07	
2025-01-18 13:37:00.26	271.09	12.07	
2025-01-18 13:37:00.47	271.14	12.07	
2025-01-18 13:37:00.67	271.18	12.07	
2025-01-18 13:37:00.87	271.23	12.08	
2025-01-18 13:37:01.08	271.27	12.08	
2025-01-18 13:37:01.28	271.31	12.08	
2025-01-18 13:37:01.48	271.36	12.09	
2025-01-18 13:37:01.69	271.40	12.09	
2025-01-18 13:37:01.89	271.45	12.09	
2025-01-18 13:37:02.09	271.49	12.09	
2025-01-18 13:37:02.29	271.54	12.10	
2025-01-18 13:37:02.50	271.58	12.10	
2025-01-18 13:37:02.70	271.63	12.10	
2025-01-18 13:37:02.90	271.67	12.10	
2025-01-18 13:37:03.11	271.72	12.11	
2025-01-18 13:37:03.31	271.76	12.11	
2025-01-18 13:37:03.51	271.80	12.11	
2025-01-18 13:37:03.72	271.85	12.11	
2025-01-18 13:37:03.92	271.89	12.12	
2025-01-18 13:37:04.12	271.94	12.12	
2025-01-18 13:37:04.32	271.98	12.12	
2025-01-18 13:37:04.53	272.03	12.12	
2025-01-18 13:37:04.73	272.07	12.13	
2025-01-18 13:37:04.93	272.12	12.13	
2025-01-18 13:37:05.14	272.16	12.13	
2025-01-18 13:37:05.34	272.21	12.13	
2025-01-18 13:37:05.54	272.25	12.14	
2025-01-18 13:37:05.75	272.30	12.14	
2025-01-18 13:37:05.95	272.34	12.14	
2025-01-18 13:37:06.15	272.39	12.14	
2025-01-18 13:37:06.35	272.43	12.15	
2025-01-18 13:37:06.56	272.48	12.15	
2025-01-18 13:37:06.76	272.52	12.15	
2025-01-18 13:37:06.96	272.56	12.15	
2025-01-18 13:37:07.17	272.61	12.15	
2025-01-18 13:37:07.37	272.65	12.16	
2025-01-18 13:37:07.57	272.70	12.16	
2025-01-18 13:37:07.78	272.74	12.16	
2025-01-18 13:37:07.98	272.79	12.16	
2025-01-18 13:37:08.18	272.83	12.17	
2025-01-18 13:37:08.38	272.88	12.17	
2025-01-18 13:37:08.59	272.92	12.17	
2025-01-18 13:37:08.79	272.97	12.17	
2025-01-18 13:37:08.99	273.01	12.17	
2025-01-18 13:37:09.20	273.06	12.18	
2025-01-18 13:37:09.41	273.10	12.18	
2025-01-18 13:37:09.61	273.15	12.18	
2025-01-18 13:37:09.81	273.19	12.18	
2025-01-18 13:37:10.02	273.24	12.19	
2025-01-18 13:37:10.22	273.28	12.19	
2025-01-18 13:37:10.42	273.33	12.19	
2025-01-18 13:37:10.62	273.37	12.19	
2025-01-18 13:37:10.83	273.42	12.19	
2025-01-18 13:37:11.03	273.46	12.20	
2025-01-18 13:37:11.23	273.51	12.20	
2025-01-18 13:37:11.44	273.55	12.20	
2025-01-18 13:37:11.64	273.60	12.20	
2025-01-18 13:37:11.84	273.64	12.20	
2025-01-18 13:37:12.05	273.69	12.20	
2025-01-18 13:37:12.25	273.73	12.21	
2025-01-18 13:37:12.45	273.78	12.21	
2025-01-18 13:37:12.65	273.82	12.21	
2025-01-18 13:37:12.86	273.87	12.21	
2025-01-18 13:37:13.06	273.91	12.21	
2025-01-18 13:37:13.26	273.96	12.22	
2025-01-18 13:37:13.47	274.00	12.22	
2025-01-18 13:37:13.67	274.05	12.22	
2025-01-18 13:37:13.87	274.09	12.22	
2025-01-18 13:37:14.08	274.14	12.22	
2025-01-18 13:37:14.28	274.18	12.22	
2025-01-18 13:37:14.48	274.23	12.23	
2025-01-18 13:37:14.68	274.27	12.23	
2025-01-18 13:37:14.89	274.32	12.23	
2025-01-18 13:37:15.09	274.36	12.23	
2025-01-18 13:37:15.29	274.40	12.23	
2025-01-18 13:37:15.50	274.45	12.23	
2025-01-18 13:37:15.70	274.50	12.24	
2025-01-18 13:37:15.90	274.54	12.24	
2025-01-18 13:37:16.10	274.58	12.24	
2025-01-18 13:37:16.31	274.63	12.24	
2025-01-18 13:37:16.51	274.68	12.24	
2025-01-18 13:37:16.71	274.72	12.24	
2025-01-18 13:37:16.92	274.77	12.25	
2025-01-18 13:37:17.12	274.81	12.25	
2025-01-18 13:37:17.32	274.85	12.25	
2025-01-18 13:37:17.53	274.90	12.25	
2025-01-18 13:37:17.73	274.95	12.25	
2025-01-18 13:37:17.93	274.99	12.25	
2025-01-18 13:37:18.13	275.03	12.25	
2025-01-18 13:37:18.34	275.08	12.26	
2025-01-18 13:37:18.54	275.13	12.26	
2025-01-18 13:37:18.74	275.17	12.26	
2025-01-18 13:37:18.95	275.22	12.26	
2025-01-18 13:37:19.15	275.26	12.26	
2025-01-18 13:37:19.35	275.31	12.26	
2025-01-18 13:37:19.56	275.35	12.26	
2025-01-18 13:37:19.76	275.40	12.27	
2025-01-18 13:37:19.96	275.44	12.27	
2025-01-18 13:37:20.16	275.49	12.27	
2025-01-18 13:37:20.37	275.53	12.27	
2025-01-18 13:37:20.57	275.58	12.27	
2025-01-18 13:37:20.77	275.62	12.27	
2025-01-18 13:37:20.98	275.67	12.27	
2025-01-18 13:37:21.18	275.71	12.28	
2025-01-18 13:37:21.38	275.76	12.28	
2025-01-18 13:37:21.59	275.80	12.28	
2025-01-18 13:37:21.79	275.85	12.28	
2025-01-18 13:37:21.99	275.89	12.28	
2025-01-18 13:37:22.19	275.94	12.28	
2025-01-18 13:37:22.40	275.98	12.28	
2025-01-18 13:37:22.60	276.03	12.28	
2025-01-18 13:37:22.80	276.07	12.28	
2025-01-18 13:37:23.01	276.12	12.29	
2025-01-18 13:37:23.21	276.16	12.29	
2025-01-18 13:37:23.41	276.21	12.29	
2025-01-18 13:37:23.62	276.25	12.29	
2025-01-18 13:37:23.82	276.30	12.29	
2025-01-18 13:37:24.02	276.34	12.29	
2025-01-18 13:37:24.22	276.39	12.29	
2025-01-18 13:37:24.43	276.43	12.29	
2025-01-18 13:37:24.63	276.48	12.29	
2025-01-18 13:37:24.83	276.52	12.29	
2025-01-18 13:37:25.04	276.57	12.30	
2025-01-18 13:37:25.24	276.61	12.30	
2025-01-18 13:37:25.44	276.66	12.30	
2025-01-18 13:37:25.65	276.71	12.30	
2025-01-18 13:37:25.85	276.75	12.30	
2025-01-18 13:37:26.05	276.80	12.30	
2025-01-18 13:37:26.25	276.84	12.30	
2025-01-18 13:37:26.46	276.89	12.30	
2025-01-18 13:37:26.66	276.93	12.30	
2025-01-18 13:37:26.86	276.98	12.30	
2025-01-18 13:37:27.07	277.02	12.30	
2025-01-18 13:37:27.27	277.07	12.30	
2025-01-18 13:37:27.47	277.11	12.31	
2025-01-18 13:37:27.68	277.16	12.31	
2025-01-18 13:37:27.88	277.20	12.31	
2025-01-18 13:37:28.08	277.25	12.31	
2025-01-18 13:37:28.28	277.29	12.31	
2025-01-18 13:37:28.49	277.34	12.31	
2025-01-18 13:37:28.69	277.38	12.31	
2025-01-18 13:37:28.89	277.43	12.31	
2025-01-18 13:37:29.10	277.47	12.31	
2025-01-18 13:37:29.30	277.52	12.31	
2025-01-18 13:37:29.50	277.56	12.31	
2025-01-18 13:37:29.71	277.61	12.31	
2025-01-18 13:37:29.91	277.65	12.31	
2025-01-18 13:37:30.11	277.70	12.31	
2025-01-18 13:37:30.31	277.74	12.31	
2025-01-18 13:37:30.52	277.79	12.31	
2025-01-18 13:37:30.72	277.84	12.32	
2025-01-18 13:37:30.92	277.88	12.32	
2025-01-18 13:37:31.13	277.93	12.32	
2025-01-18 13:37:31.33	277.97	12.32	
2025-01-18 13:37:31.53	278.02	12.32	
2025-01-18 13:37:31.73	278.06	12.32	
2025-01-18 13:37:31.94	278.11	12.32	
2025-01-18 13:37:32.14	278.15	12.32	
2025-01-18 13:37:32.34	278.20	12.32	
2025-01-18 13:37:32.55	278.24	12.32	
2025-01-18 13:37:32.75	278.29	12.32	
2025-01-18 13:37:32.95	278.33	12.32	
2025-01-18 13:37:33.16	278.38	12.32	
2025-01-18 13:37:33.36	278.42	12.32	
2025-01-18 13:37:33.56	278.47	12.32	
2025-01-18 13:37:33.76	278.51	12.32	
2025-01-18 13:37:33.97	278.56	12.32	
2025-01-18 13:37:34.17	278.60	12.32	
2025-01-18 13:37:34.37	278.65	12.32	
2025-01-18 13:37:34.58	278.70	12.32	
2025-01-18 13:37:34.78	278.74	12.32	
2025-01-18 13:37:34.98	278.78	12.32	
2025-01-18 13:37:35.19	278.83	12.32	
2025-01-18 13:37:35.39	278.88	12.32	
2025-01-18 13:37:35.59	278.92	12.32	
2025-01-18 13:37:35.79	278.97	12.32	
2025-01-18 13:37:36.00	279.01	12.32	
2025-01-18 13:37:36.20	279.06	12.32	
2025-01-18 13:37:36.40	279.10	12.32	
2025-01-18 13:37:36.61	279.15	12.32	
2025-01-18 13:37:36.81	279.19	12.32	
2025-01-18 13:37:37.01	279.24	12.32	
2025-01-18 13:37:37.22	279.28	12.32	
2025-01-18 13:37:37.42	279.33	12.32	
2025-01-18 13:37:37.62	279.37	12.32	
2025-01-18 13:37:37.82	279.42	12.32	
2025-01-18 13:37:38.03	279.46	12.32	
2025-01-18 13:37:38.23	279.51	12.32	
2025-01-18 13:37:38.43	279.55	12.32	
2025-01-18 13:37:38.64	279.60	12.32	
2025-01-18 13:37:38.84	279.65	12.32	
2025-01-18 13:37:39.04	279.69	12.32	
2025-01-18 13:37:39.25	279.74	12.32	
2025-01-18 13:37:39.45	279.78	12.32	
2025-01-18 13:37:39.65	279.83	12.32	
2025-01-18 13:37:39.85	279.87	12.32	
2025-01-18 13:37:40.06	279.92	12.32	
2025-01-18 13:37:40.26	279.96	12.32	
2025-01-18 13:37:40.46	280.01	12.32	
2025-01-18 13:37:40.67	280.05	12.32	
2025-01-18 13:37:40.87	280.10	12.32	
2025-01-18 13:37:41.07	280.14	12.32	
2025-01-18 13:37:41.28	280.19	12.32	
2025-01-18 13:37:41.48	280.23	12.32	
2025-01-18 13:37:41.68	280.28	12.32	
2025-01-18 13:37:41.88	280.32	12.32	
2025-01-18 13:37:42.09	280.37	12.32	
2025-01-18 13:37:42.29	280.41	12.32	
2025-01-18 13:37:42.49	280.46	12.32	
2025-01-18 13:37:42.70	280.51	12.32	
2025-01-18 13:37:42.90	280.55	12.32	
2025-01-18 13:37:43.10	280.59	12.32	
2025-01-18 13:37:43.31	280.64	12.32	
2025-01-18 13:37:43.51	280.69	12.32	
2025-01-18 13:37:43.71	280.73	12.32	
2025-01-18 13:37:43.91	280.77	12.32	
2025-01-18 13:37:44.12	280.82	12.31	
2025-01-18 13:37:44.32	280.87	12.31	
2025-01-18 13:37:44.52	280.91	12.31	
2025-01-18 13:37:44.73	280.96	12.31	
2025-01-18 13:37:44.93	281.00	12.31	
2025-01-18 13:37:45.13	281.05	12.31	
2025-01-18 13:37:45.33	281.09	12.31	
2025-01-18 13:37:45.54	281.14	12.31	
2025-01-18 13:37:45.74	281.18	12.31	
2025-01-18 13:37:45.94	281.23	12.31	
2025-01-18 13:37:46.15	281.27	12.31	
2025-01-18 13:37:46.35	281.32	12.31	
2025-01-18 13:37:46.55	281.36	12.31	
2025-01-18 13:37:46.76	281.41	12.31	
2025-01-18 13:37:46.96	281.45	12.31	
2025-01-18 13:37:47.16	281.50	12.31	
2025-01-18 13:37:47.36	281.54	12.30	
2025-01-18 13:37:47.57	281.59	12.30	
2025-01-18 13:37:47.77	281.63	12.30	
2025-01-18 13:37:47.97	281.68	12.30	
2025-01-18 13:37:48.18	281.73	12.30	
2025-01-18 13:37:48.38	281.77	12.30	
2025-01-18 13:37:48.58	281.81	12.30	
2025-01-18 13:37:48.79	281.86	12.30	
2025-01-18 13:37:48.99	281.91	12.30	
2025-01-18 13:37:49.19	281.95	12.30	
2025-01-18 13:37:49.39	281.99	12.30	
2025-01-18 13:37:49.60	282.04	12.30	
2025-01-18 13:37:49.80	282.09	12.29	
2025-01-18 13:37:50.00	282.13	12.29	
2025-01-18 13:37:50.21	282.18	12.29	
2025-01-18 13:37:50.41	282.22	12.29	
2025-01-18 13:37:50.61	282.27	12.29	
2025-01-18 13:37:50.82	282.31	12.29	
2025-01-18 13:37:51.02	282.36	12.29	
2025-01-18 13:37:51.22	282.40	12.29	
2025-01-18 13:37:51.42	282.45	12.29	
2025-01-18 13:37:51.63	282.49	12.29	
2025-01-18 13:37:51.83	282.54	12.28	
2025-01-18 13:37:52.03	282.58	12.28	
2025-01-18 13:37:52.24	282.63	12.28	
2025-01-18 13:37:52.44	282.67	12.28	
2025-01-18 13:37:52.64	282.72	12.28	
2025-01-18 13:37:52.85	282.76	12.28	
2025-01-18 13:37:53.05	282.81	12.28	
2025-01-18 13:37:53.25	282.85	12.28	
2025-01-18 13:37:53.45	282.90	12.28	
2025-01-18 13:37:53.66	282.94	12.27	
2025-01-18 13:37:53.86	282.99	12.27	
2025-01-18 13:37:54.06	283.03	12.27	
2025-01-18 13:37:54.27	283.08	12.27	
2025-01-18 13:37:54.47	283.12	12.27	
2025-01-18 13:37:54.67	283.17	12.27	
2025-01-18 13:37:54.88	283.21	12.27	
2025-01-18 13:37:55.08	283.26	12.26	
2025-01-18 13:37:55.28	283.30	12.26	
2025-01-18 13:37:55.48	283.35	12.26	
2025-01-18 13:37:55.69	283.39	12.26	
2025-01-18 13:37:55.89	283.44	12.26	
2025-01-18 13:37:56.09	283.48	12.26	
2025-01-18 13:37:56.30	283.53	12.26	
2025-01-18 13:37:56.50	283.57	12.25	
2025-01-18 13:37:56.70	283.62	12.25	
2025-01-18 13:37:56.90	283.66	12.25	
2025-01-18 13:37:57.11	283.71	12.25	
2025-01-18 13:37:57.31	283.75	12.25	
2025-01-18 13:37:57.51	283.80	12.25	
2025-01-18 13:37:57.72	283.84	12.25	
2025-01-18 13:37:57.92	283.89	12.24	
2025-01-18 13:37:58.12	283.93	12.24	
2025-01-18 13:37:58.33	283.98	12.24	
2025-01-18 13:37:58.53	284.02	12.24	
2025-01-18 13:37:58.73	284.07	12.24	
2025-01-18 13:37:58.94	284.11	12.24	
2025-01-18 13:37:59.14	284.16	12.23	
2025-01-18 13:37:59.34	284.20	12.23	
2025-01-18 13:37:59.54	284.25	12.23	
2025-01-18 13:37:59.75	284.29	12.23	
2025-01-18 13:37:59.95	284.34	12.23	
2025-01-18 13:38:00.15	284.38	12.23	
2025-01-18 13:38:00.36	284.43	12.22	
2025-01-18 13:38:00.56	284.47	12.22	
2025-01-18 13:38:00.76	284.52	12.22	
2025-01-18 13:38:00.96	284.56	12.22	
2025-01-18 13:38:01.17	284.61	12.22	
2025-01-18 13:38:01.37	284.65	12.22	
2025-01-18 13:38:01.57	284.70	12.21	
2025-01-18 13:38:01.78	284.74	12.21	
2025-01-18 13:38:01.98	284.79	12.21	
2025-01-18 13:38:02.18	284.83	12.21	
2025-01-18 13:38:02.39	284.88	12.21	
2025-01-18 13:38:02.59	284.92	12.20	
2025-01-18 13:38:02.79	284.97	12.20	
2025-01-18 13:38:02.99	285.01	12.20	
2025-01-18 13:38:03.20	285.06	12.20	
2025-01-18 13:38:03.40	285.10	12.20	
2025-01-18 13:38:03.60	285.14	12.20	
2025-01-18 13:38:03.81	285.19	12.19	
2025-01-18 13:38:04.01	285.23	12.19	
2025-01-18 13:38:04.21	285.28	12.19	
2025-01-18 13:38:04.42	285.33	12.19	
2025-01-18 13:38:04.62	285.37	12.19	
2025-01-18 13:38:04.82	285.41	12.18	
2025-01-18 13:38:05.02	285.46	12.18	
2025-01-18 13:38:05.23	285.50	12.18	
2025-01-18 13:38:05.43	285.55	12.18	
2025-01-18 13:38:05.63	285.59	12.17	
2025-01-18 13:38:05.84	285.64	12.17	
2025-01-18 13:38:06.04	285.68	12.17	
2025-01-18 13:38:06.24	285.73	12.17	
2025-01-18 13:38:06.45	285.77	12.17	
2025-01-18 13:38:06.65	285.82	12.16	
2025-01-18 13:38:06.85	285.86	12.16	
2025-01-18 13:38:07.05	285.90	12.16	
2025-01-18 13:38:07.26	285.95	12.16	
2025-01-18 13:38:07.46	286.00	12.16	
2025-01-18 13:38:07.66	286.04	12.15	
2025-01-18 13:38:07.87	286.09	12.15	
2025-01-18 13:38:08.07	286.13	12.15	
2025-01-18 13:38:08.27	286.17	12.15	
2025-01-18 13:38:08.48	286.22	12.14	
2025-01-18 13:38:08.68	286.26	12.14	
2025-01-18 13:38:08.88	286.31	12.14	
2025-01-18 13:38:09.08	286.35	12.14	
2025-01-18 13:38:09.29	286.40	12.13	
2025-01-18 13:38:09.49	286.44	12.13	
2025-01-18 13:38:09.69	286.49	12.13	
2025-01-18 13:38:09.90	286.53	12.13	
2025-01-18 13:38:10.10	286.58	12.12	
2025-01-18 13:38:10.30	286.62	12.12	
2025-01-18 13:38:10.51	286.67	12.12	
2025-01-18 13:38:10.71	286.71	12.12	
2025-01-18 13:38:10.91	286.75	12.11	
2025-01-18 13:38:11.11	286.80	12.11	
2025-01-18 13:38:11.32	286.84	12.11	
2025-01-18 13:38:11.52	286.89	12.11	
2025-01-18 13:38:11.72	286.93	12.10	
2025-01-18 13:38:11.93	286.98	12.10	
2025-01-18 13:38:12.13	287.02	12.10	
2025-01-18 13:38:12.33	287.06	12.10	
2025-01-18 13:38:12.54	287.11	12.09	
2025-01-18 13:38:12.74	287.15	12.09	
2025-01-18 13:38:12.94	287.20	12.09	
2025-01-18 13:38:13.14	287.24	12.09	
2025-01-18 13:38:13.35	287.29	12.08	
2025-01-18 13:38:13.55	287.33	12.08	
2025-01-18 13:38:13.75	287.38	12.08	
2025-01-18 13:38:13.96	287.42	12.08	
2025-01-18 13:38:14.16	287.47	12.07	
2025-01-18 13:38:14.36	287.51	12.07	
2025-01-18 13:38:14.56	287.55	12.07	
2025-01-18 13:38:14.77	287.60	12.06	
2025-01-18 13:38:14.97	287.64	12.06	
2025-01-18 13:38:15.17	287.69	12.06	
2025-01-18 13:38:15.38	287.73	12.06	
2025-01-18 13:38:15.58	287.78	12.05	
2025-01-18 13:38:15.78	287.82	12.05	
2025-01-18 13:38:15.99	287.87	12.05	
2025-01-18 13:38:16.19	287.91	12.04	
2025-01-18 13:38:16.39	287.95	12.04	
2025-01-18 13:38:16.59	288.00	12.04	
2025-01-18 13:38:16.80	288.04	12.04	
2025-01-18 13:38:17.00	288.09	12.03	
2025-01-18 13:38:17.20	288.13	12.03	
2025-01-18 13:38:17.41	288.18	12.03	
2025-01-18 13:38:17.61	288.22	12.02	
2025-01-18 13:38:17.81	288.26	12.02	
2025-01-18 13:38:18.02	288.31	12.02	
2025-01-18 13:38:18.22	288.35	12.02	
2025-01-18 13:38:18.42	288.40	12.01	
2025-01-18 13:38:18.62	288.44	12.01	
2025-01-18 13:38:18.83	288.48	12.01	
2025-01-18 13:38:19.03	288.53	12.00	
2025-01-18 13:38:19.23	288.57	12.00	
2025-01-18 13:38:19.44	288.62	12.00	
2025-01-18 13:38:19.64	288.66	11.99	
2025-01-18 13:38:19.84	288.70	11.99	
2025-01-18 13:38:20.05	288.75	11.99	
2025-01-18 13:38:20.25	288.79	11.98	
2025-01-18 13:38:20.45	288.84	11.98	
2025-01-18 13:38:20.65	288.88	11.98	
2025-01-18 13:38:20.86	288.93	11.97	
2025-01-18 13:38:21.06	288.97	11.97	
2025-01-18 13:38:21.26	289.01	11.97	
2025-01-18 13:38:21.47	289.06	11.96	
2025-01-18 13:38:21.67	289.10	11.96	
2025-01-18 13:38:21.87	289.15	11.96	
2025-01-18 13:38:22.08	289.19	11.96	
2025-01-18 13:38:22.28	289.23	11.95	
2025-01-18 13:38:22.48	289.28	11.95	
2025-01-18 13:38:22.68	289.32	11.95	
2025-01-18 13:38:22.89	289.37	11.94	
2025-01-18 13:38:23.09	289.41	11.94	
2025-01-18 13:38:23.29	289.45	11.94	
2025-01-18 13:38:23.50	289.50	11.93	
2025-01-18 13:38:23.70	289.54	11.93	
2025-01-18 13:38:23.90	289.59	11.93	
2025-01-18 13:38:24.11	289.63	11.92	
2025-01-18 13:38:24.31	289.67	11.92	
2025-01-18 13:38:24.51	289.72	11.91	
2025-01-18 13:38:24.71	289.76	11.91	
2025-01-18 13:38:24.92	289.81	11.91	
2025-01-18 13:38:25.12	289.85	11.90	
2025-01-18 13:38:25.32	289.89	11.90	
2025-01-18 13:38:25.53	289.94	11.90	
2025-01-18 13:38:25.73	289.98	11.89	
2025-01-18 13:38:25.93	290.02	11.89	
2025-01-18 13:38:26.14	290.07	11.89	
2025-01-18 13:38:26.34	290.11	11.88	
2025-01-18 13:38:26.54	290.16	11.88	
2025-01-18 13:38:26.74	290.20	11.88	
2025-01-18 13:38:26.95	290.24	11.87	
2025-01-18 13:38:27.15	290.29	11.87	
2025-01-18 13:38:27.35	290.33	11.87	
2025-01-18 13:38:27.56	290.38	11.86	
2025-01-18 13:38:27.76	290.42	11.86	
2025-01-18 13:38:27.96	290.46	11.85	
2025-01-18 13:38:28.17	290.51	11.85	
2025-01-18 13:38:28.37	290.55	11.85	
2025-01-18 13:38:28.57	290.59	11.84	
2025-01-18 13:38:28.77	290.64	11.84	
2025-01-18 13:38:28.98	290.68	11.84	
2025-01-18 13:38:29.18	290.72	11.83	
2025-01-18 13:38:29.38	290.77	11.83	
2025-01-18 13:38:29.59	290.81	11.82	
2025-01-18 13:38:29.79	290.86	11.82	
2025-01-18 13:38:29.99	290.90	11.82	
2025-01-18 13:38:30.19	290.94	11.81	
2025-01-18 13:38:30.40	290.99	11.81	
2025-01-18 13:38:30.60	291.03	11.80	
2025-01-18 13:38:30.80	291.07	11.80	
2025-01-18 13:38:31.01	291.12	11.80	
2025-01-18 13:38:31.21	291.16	11.79	
2025-01-18 13:38:31.41	291.20	11.79	
2025-01-18 13:38:31.62	291.25	11.79	
2025-01-18 13:38:31.82	291.29	11.78	
2025-01-18 13:38:32.02	291.33	11.78	
2025-01-18 13:38:32.22	291.38	11.77	
2025-01-18 13:38:32.43	291.42	11.77	
2025-01-18 13:38:32.63	291.46	11.77	
2025-01-18 13:38:32.83	291.51	11.76	
2025-01-18 13:38:33.04	291.55	11.76	
2025-01-18 13:38:33.24	291.59	11.75	
2025-01-18 13:38:33.44	291.64	11.75	
2025-01-18 13:38:33.65	291.68	11.75	
2025-01-18 13:38:33.85	291.72	11.74	
2025-01-18 13:38:34.05	291.77	11.74	
2025-01-18 13:38:34.25	291.81	11.73	
2025-01-18 13:38:34.46	291.85	11.73	
2025-01-18 13:38:34.66	291.90	11.72	
2025-01-18 13:38:34.86	291.94	11.72	
2025-01-18 13:38:35.07	291.98	11.72	
2025-01-18 13:38:35.27	292.03	11.71	
2025-01-18 13:38:35.47	292.07	11.71	
2025-01-18 13:38:35.68	292.11	11.70	
2025-01-18 13:38:35.88	292.16	11.70	
2025-01-18 13:38:36.08	292.20	11.70	
2025-01-18 13:38:36.28	292.24	11.69	
2025-01-18 13:38:36.49	292.29	11.69	
2025-01-18 13:38:36.69	292.33	11.68	
2025-01-18 13:38:36.89	292.37	11.68	
2025-01-18 13:38:37.10	292.42	11.67	
2025-01-18 13:38:37.30	292.46	11.67	
2025-01-18 13:38:37.50	292.50	11.67	
2025-01-18 13:38:37.71	292.55	11.66	
2025-01-18 13:38:37.91	292.59	11.66	
2025-01-18 13:38:38.11	292.63	11.65	
2025-01-18 13:38:38.31	292.67	11.65	
2025-01-18 13:38:38.52	292.72	11.64	
2025-01-18 13:38:38.72	292.76	11.64	
2025-01-18 13:38:38.92	292.80	11.64	
2025-01-18 13:38:39.13	292.85	11.63	
2025-01-18 13:38:39.33	292.89	11.63	
2025-01-18 13:38:39.53	292.93	11.62	
2025-01-18 13:38:39.74	292.98	11.62	
2025-01-18 13:38:39.94	293.02	11.61	
2025-01-18 13:38:40.14	293.06	11.61	
2025-01-18 13:38:40.34	293.10	11.60	
2025-01-18 13:38:40.55	293.15	11.60	
2025-01-18 13:38:40.75	293.19	11.60	
2025-01-18 13:38:40.95	293.23	11.59	
2025-01-18 13:38:41.16	293.28	11.59	
2025-01-18 13:38:41.36	293.32	11.58	
2025-01-18 13:38:41.56	293.36	11.58	
2025-01-18 13:38:41.77	293.41	11.57	
2025-01-18 13:38:41.97	293.45	11.57	
2025-01-18 13:38:42.17	293.49	11.56	
2025-01-18 13:38:42.37	293.53	11.56	
2025-01-18 13:38:42.58	293.58	11.55	
2025-01-18 13:38:42.78	293.62	11.55	
2025-01-18 13:38:42.98	293.66	11.54	
2025-01-18 13:38:43.19	293.70	11.54	
2025-01-18 13:38:43.39	293.75	11.54	
2025-01-18 13:38:43.59	293.79	11.53	
2025-01-18 13:38:43.80	293.83	11.53	
2025-01-18 13:38:44.00	293.88	11.52	
2025-01-18 13:38:44.20	293.92	11.52	
2025-01-18 13:38:44.40	293.96	11.51	
2025-01-18 13:38:44.61	294.00	11.51	
2025-01-18 13:38:44.81	294.05	11.50	
2025-01-18 13:38:45.01	294.09	11.50	
2025-01-18 13:38:45.22	294.13	11.49	
2025-01-18 13:38:45.42	294.17	11.49	
2025-01-18 13:38:45.62	294.22	11.48	
2025-01-18 13:38:45.82	294.26	11.48	
2025-01-18 13:38:46.03	294.30	11.47	
2025-01-18 13:38:46.23	294.34	11.47	
2025-01-18 13:38:46.43	294.38	11.46	
2025-01-18 13:38:46.64	294.43	11.46	
2025-01-18 13:38:46.84	294.47	11.45	
2025-01-18 13:38:47.04	294.51	11.45	
2025-01-18 13:38:47.25	294.56	11.44	
2025-01-18 13:38:47.45	294.60	11.44	
2025-01-18 13:38:47.65	294.64	11.43	
2025-01-18 13:38:47.85	294.68	11.43	
2025-01-18 13:38:48.06	294.73	11.42	
2025-01-18 13:38:48.26	294.77	11.42	
2025-01-18 13:38:48.46	294.81	11.41	
2025-01-18 13:38:48.67	294.85	11.41	
2025-01-18 13:38:48.87	294.89	11.40	
2025-01-18 13:38:49.07	294.94	11.40	
2025-01-18 13:38:49.28	294.98	11.39	
2025-01-18 13:38:49.48	295.02	11.39	
2025-01-18 13:38:49.68	295.06	11.38	
2025-01-18 13:38:49.88	295.10	11.38	
2025-01-18 13:38:50.09	295.15	11.37	
2025-01-18 13:38:50.29	295.19	11.37	
2025-01-18 13:38:50.49	295.23	11.36	
2025-01-18 13:38:50.70	295.28	11.36	
2025-01-18 13:38:50.90	295.32	11.35	
2025-01-18 13:38:51.10	295.36	11.35	
2025-01-18 13:38:51.31	295.40	11.34	
2025-01-18 13:38:51.51	295.44	11.34	
2025-01-18 13:38:51.71	295.48	11.33	
2025-01-18 13:38:51.91	295.53	11.33	
2025-01-18 13:38:52.12	295.57	11.32	
2025-01-18 13:38:52.32	295.61	11.32	
2025-01-18 13:38:52.52	295.65	11.31	
2025-01-18 13:38:52.73	295.70	11.31	
2025-01-18 13:38:52.93	295.74	11.30	
2025-01-18 13:38:53.13	295.78	11.30	
2025-01-18 13:38:53.34	295.82	11.29	
2025-01-18 13:38:53.54	295.86	11.29	
2025-01-18 13:38:53.74	295.90	11.28	
2025-01-18 13:38:53.94	295.95	11.28	
2025-01-18 13:38:54.15	295.99	11.27	
2025-01-18 13:38:54.35	296.03	11.26	
2025-01-18 13:38:54.55	296.07	11.26	
2025-01-18 13:38:54.76	296.12	11.25	
2025-01-18 13:38:54.96	296.16	11.25	
2025-01-18 13:38:55.16	296.20	11.24	
2025-01-18 13:38:55.37	296.24	11.24	
2025-01-18 13:38:55.57	296.28	11.23	
2025-01-18 13:38:55.77	296.32	11.23	
2025-01-18 13:38:55.97	296.36	11.22	
2025-01-18 13:38:56.18	296.41	11.22	
2025-01-18 13:38:56.38	296.45	11.21	
2025-01-18 13:38:56.58	296.49	11.21	
2025-01-18 13:38:56.79	296.53	11.20	
2025-01-18 13:38:56.99	296.57	11.19	
2025-01-18 13:38:57.19	296.62	11.19	
2025-01-18 13:38:57.39	296.66	11.18	
2025-01-18 13:38:57.60	296.70	11.18	
2025-01-18 13:38:57.80	296.74	11.17	
2025-01-18 13:38:58.00	296.78	11.17	
