passes_logs/2025/01/18/SPB_Silybum_02/SPB_Silybum_02__20250118_082022_TERRA_rec.log

#Pass ID: 20250118_082022_TERRA
#Satellite: TERRA
#Configuration: TERRA
#Start time: 2025-01-18 08:20:23

#Version: 2.0.20230423
#Station: SPB_Silybum_02
#Location: 30.233357 lon 59.946436 lat
#TLE: 1 25994U 99068A   25017.80257355  .00000903  00000+0  19577-3 0  9994
#TLE: 2 25994  98.0211  80.7437 0003372  66.8373  47.3878 14.60400955334482

#Time	Az	El	Level	Level2	SNR	BER	Gain	Gain2
2025-01-18 08:20:25.60	16.77	4.22	
2025-01-18 08:20:25.80	16.78	4.23	
2025-01-18 08:20:26.00	16.78	4.25	
2025-01-18 08:20:26.21	16.78	4.26	
2025-01-18 08:20:26.41	16.78	4.28	
2025-01-18 08:20:26.61	16.78	4.29	
2025-01-18 08:20:26.82	16.78	4.31	
2025-01-18 08:20:27.02	16.78	4.32	
2025-01-18 08:20:27.22	16.78	4.33	
2025-01-18 08:20:27.43	16.79	4.35	
2025-01-18 08:20:27.63	16.79	4.36	
2025-01-18 08:20:27.83	16.79	4.38	
2025-01-18 08:20:28.04	16.79	4.39	
2025-01-18 08:20:28.24	16.79	4.41	
2025-01-18 08:20:28.44	16.79	4.42	
2025-01-18 08:20:28.64	16.79	4.44	
2025-01-18 08:20:28.85	16.79	4.45	
2025-01-18 08:20:29.05	16.80	4.47	
2025-01-18 08:20:29.25	16.80	4.48	
2025-01-18 08:20:29.46	16.80	4.50	
2025-01-18 08:20:29.66	16.80	4.51	
2025-01-18 08:20:29.86	16.80	4.53	
2025-01-18 08:20:30.07	16.80	4.54	
2025-01-18 08:20:30.27	16.80	4.56	
2025-01-18 08:20:30.47	16.80	4.57	
2025-01-18 08:20:30.68	16.80	4.59	
2025-01-18 08:20:30.88	16.81	4.60	
2025-01-18 08:20:31.08	16.81	4.62	
2025-01-18 08:20:31.28	16.81	4.63	
2025-01-18 08:20:31.49	16.81	4.65	
2025-01-18 08:20:31.69	16.81	4.66	
2025-01-18 08:20:31.89	16.81	4.68	
2025-01-18 08:20:32.10	16.81	4.69	
2025-01-18 08:20:32.30	16.81	4.71	
2025-01-18 08:20:32.50	16.82	4.72	
2025-01-18 08:20:32.71	16.82	4.74	
2025-01-18 08:20:32.91	16.82	4.75	
2025-01-18 08:20:33.11	16.82	4.76	
2025-01-18 08:20:33.32	16.82	4.78	
2025-01-18 08:20:33.52	16.82	4.80	
2025-01-18 08:20:33.72	16.82	4.81	
2025-01-18 08:20:33.93	16.82	4.83	
2025-01-18 08:20:34.13	16.83	4.84	
2025-01-18 08:20:34.33	16.83	4.86	
2025-01-18 08:20:34.53	16.83	4.87	
2025-01-18 08:20:34.74	16.83	4.89	
2025-01-18 08:20:34.94	16.83	4.90	
2025-01-18 08:20:35.14	16.83	4.92	
2025-01-18 08:20:35.35	16.83	4.93	
2025-01-18 08:20:35.55	16.83	4.95	
2025-01-18 08:20:35.75	16.83	4.96	
2025-01-18 08:20:35.96	16.84	4.98	
2025-01-18 08:20:36.16	16.84	4.99	
2025-01-18 08:20:36.36	16.84	5.01	
2025-01-18 08:20:36.57	16.84	5.02	
2025-01-18 08:20:36.77	16.84	5.04	
2025-01-18 08:20:36.97	16.84	5.05	
2025-01-18 08:20:37.18	16.84	5.07	
2025-01-18 08:20:37.38	16.84	5.08	
2025-01-18 08:20:37.58	16.85	5.10	
2025-01-18 08:20:37.78	16.85	5.11	
2025-01-18 08:20:37.99	16.85	5.13	
2025-01-18 08:20:38.19	16.85	5.14	
2025-01-18 08:20:38.39	16.85	5.16	
2025-01-18 08:20:38.60	16.85	5.17	
2025-01-18 08:20:38.80	16.85	5.19	
2025-01-18 08:20:39.00	16.85	5.20	
2025-01-18 08:20:39.21	16.86	5.22	
2025-01-18 08:20:39.41	16.86	5.23	
2025-01-18 08:20:39.61	16.86	5.25	
2025-01-18 08:20:39.82	16.86	5.26	
2025-01-18 08:20:40.02	16.86	5.28	
2025-01-18 08:20:40.22	16.86	5.29	
2025-01-18 08:20:40.42	16.86	5.31	
2025-01-18 08:20:40.63	16.86	5.33	
2025-01-18 08:20:40.83	16.87	5.34	
2025-01-18 08:20:41.03	16.87	5.36	
2025-01-18 08:20:41.24	16.87	5.37	
2025-01-18 08:20:41.44	16.87	5.39	
2025-01-18 08:20:41.64	16.87	5.40	
2025-01-18 08:20:41.85	16.87	5.42	
2025-01-18 08:20:42.05	16.87	5.43	
2025-01-18 08:20:42.25	16.87	5.45	
2025-01-18 08:20:42.46	16.88	5.46	
2025-01-18 08:20:42.66	16.88	5.48	
2025-01-18 08:20:42.86	16.88	5.49	
2025-01-18 08:20:43.07	16.88	5.51	
2025-01-18 08:20:43.27	16.88	5.53	
2025-01-18 08:20:43.47	16.88	5.54	
2025-01-18 08:20:43.67	16.88	5.56	
2025-01-18 08:20:43.88	16.88	5.57	
2025-01-18 08:20:44.08	16.88	5.59	
2025-01-18 08:20:44.28	16.89	5.60	
2025-01-18 08:20:44.49	16.89	5.62	
2025-01-18 08:20:44.69	16.89	5.63	
2025-01-18 08:20:44.89	16.89	5.65	
2025-01-18 08:20:45.10	16.89	5.67	
2025-01-18 08:20:45.30	16.89	5.68	
2025-01-18 08:20:45.50	16.89	5.70	
2025-01-18 08:20:45.71	16.89	5.71	
2025-01-18 08:20:45.91	16.90	5.73	
2025-01-18 08:20:46.11	16.90	5.74	
2025-01-18 08:20:46.31	16.90	5.76	
2025-01-18 08:20:46.52	16.90	5.77	
2025-01-18 08:20:46.72	16.90	5.79	
2025-01-18 08:20:46.92	16.90	5.80	
2025-01-18 08:20:47.13	16.90	5.82	
2025-01-18 08:20:47.33	16.90	5.84	
2025-01-18 08:20:47.53	16.91	5.85	
2025-01-18 08:20:47.74	16.91	5.87	
2025-01-18 08:20:47.94	16.91	5.88	
2025-01-18 08:20:48.14	16.91	5.90	
2025-01-18 08:20:48.35	16.91	5.92	
2025-01-18 08:20:48.55	16.91	5.93	
2025-01-18 08:20:48.75	16.91	5.95	
2025-01-18 08:20:48.96	16.91	5.96	
2025-01-18 08:20:49.16	16.92	5.98	
2025-01-18 08:20:49.36	16.92	5.99	
2025-01-18 08:20:49.56	16.92	6.01	
2025-01-18 08:20:49.77	16.92	6.03	
2025-01-18 08:20:49.97	16.92	6.04	
2025-01-18 08:20:50.17	16.92	6.06	
2025-01-18 08:20:50.38	16.92	6.07	
2025-01-18 08:20:50.58	16.92	6.09	
2025-01-18 08:20:50.78	16.93	6.10	
2025-01-18 08:20:50.99	16.93	6.12	
2025-01-18 08:20:51.19	16.93	6.14	
2025-01-18 08:20:51.39	16.93	6.15	
2025-01-18 08:20:51.60	16.93	6.17	
2025-01-18 08:20:51.80	16.93	6.18	
2025-01-18 08:20:52.00	16.93	6.20	
2025-01-18 08:20:52.21	16.93	6.22	
2025-01-18 08:20:52.41	16.94	6.23	
2025-01-18 08:20:52.61	16.94	6.25	
2025-01-18 08:20:52.81	16.94	6.26	
2025-01-18 08:20:53.02	16.94	6.28	
2025-01-18 08:20:53.22	16.94	6.29	
2025-01-18 08:20:53.42	16.94	6.31	
2025-01-18 08:20:53.63	16.94	6.33	
2025-01-18 08:20:53.83	16.94	6.34	
2025-01-18 08:20:54.03	16.95	6.36	
2025-01-18 08:20:54.24	16.95	6.38	
2025-01-18 08:20:54.44	16.95	6.39	
2025-01-18 08:20:54.64	16.95	6.41	
2025-01-18 08:20:54.85	16.95	6.42	
2025-01-18 08:20:55.05	16.95	6.44	
2025-01-18 08:20:55.25	16.95	6.46	
2025-01-18 08:20:55.45	16.95	6.47	
2025-01-18 08:20:55.66	16.96	6.49	
2025-01-18 08:20:55.86	16.96	6.50	
2025-01-18 08:20:56.06	16.96	6.52	
2025-01-18 08:20:56.27	16.96	6.54	
2025-01-18 08:20:56.47	16.96	6.55	
2025-01-18 08:20:56.67	16.96	6.57	
2025-01-18 08:20:56.88	16.96	6.58	
2025-01-18 08:20:57.08	16.96	6.60	
2025-01-18 08:20:57.28	16.97	6.62	
2025-01-18 08:20:57.49	16.97	6.63	
2025-01-18 08:20:57.69	16.97	6.65	
2025-01-18 08:20:57.89	16.97	6.66	
2025-01-18 08:20:58.10	16.97	6.68	
2025-01-18 08:20:58.30	16.97	6.70	
2025-01-18 08:20:58.50	16.97	6.71	
2025-01-18 08:20:58.70	16.97	6.73	
2025-01-18 08:20:58.91	16.98	6.75	
2025-01-18 08:20:59.11	16.98	6.76	
2025-01-18 08:20:59.31	16.98	6.78	
2025-01-18 08:20:59.52	16.98	6.80	
2025-01-18 08:20:59.72	16.98	6.81	
2025-01-18 08:20:59.92	16.98	6.83	
2025-01-18 08:21:00.13	16.98	6.84	
2025-01-18 08:21:00.33	16.98	6.86	
2025-01-18 08:21:00.53	16.99	6.88	
2025-01-18 08:21:00.74	16.99	6.89	
2025-01-18 08:21:00.94	16.99	6.91	
2025-01-18 08:21:01.14	16.99	6.93	
2025-01-18 08:21:01.35	16.99	6.94	
2025-01-18 08:21:01.55	16.99	6.96	
2025-01-18 08:21:01.75	16.99	6.98	
2025-01-18 08:21:01.95	16.99	6.99	
2025-01-18 08:21:02.16	17.00	7.01	
2025-01-18 08:21:02.36	17.00	7.02	
2025-01-18 08:21:02.56	17.00	7.04	
2025-01-18 08:21:02.77	17.00	7.06	
2025-01-18 08:21:02.97	17.00	7.07	
2025-01-18 08:21:03.17	17.00	7.09	
2025-01-18 08:21:03.38	17.00	7.11	
2025-01-18 08:21:03.58	17.00	7.12	
2025-01-18 08:21:03.78	17.01	7.14	
2025-01-18 08:21:03.99	17.01	7.16	
2025-01-18 08:21:04.19	17.01	7.17	
2025-01-18 08:21:04.39	17.01	7.19	
2025-01-18 08:21:04.59	17.01	7.21	
2025-01-18 08:21:04.80	17.01	7.22	
2025-01-18 08:21:05.00	17.01	7.24	
2025-01-18 08:21:05.20	17.01	7.26	
2025-01-18 08:21:05.41	17.02	7.27	
2025-01-18 08:21:05.61	17.02	7.29	
2025-01-18 08:21:05.81	17.02	7.31	
2025-01-18 08:21:06.02	17.02	7.32	
2025-01-18 08:21:06.22	17.02	7.34	
2025-01-18 08:21:06.42	17.02	7.36	
2025-01-18 08:21:06.63	17.02	7.37	
2025-01-18 08:21:06.83	17.02	7.39	
2025-01-18 08:21:07.03	17.03	7.41	
2025-01-18 08:21:07.24	17.03	7.42	
2025-01-18 08:21:07.44	17.03	7.44	
2025-01-18 08:21:07.64	17.03	7.46	
2025-01-18 08:21:07.84	17.03	7.47	
2025-01-18 08:21:08.05	17.03	7.49	
2025-01-18 08:21:08.25	17.03	7.51	
2025-01-18 08:21:08.45	17.03	7.52	
2025-01-18 08:21:08.66	17.04	7.54	
2025-01-18 08:21:08.86	17.04	7.56	
2025-01-18 08:21:09.06	17.04	7.57	
2025-01-18 08:21:09.27	17.04	7.59	
2025-01-18 08:21:09.47	17.04	7.61	
2025-01-18 08:21:09.67	17.04	7.63	
2025-01-18 08:21:09.88	17.04	7.64	
2025-01-18 08:21:10.08	17.04	7.66	
2025-01-18 08:21:10.28	17.05	7.68	
2025-01-18 08:21:10.48	17.05	7.69	
2025-01-18 08:21:10.69	17.05	7.71	
2025-01-18 08:21:10.89	17.05	7.73	
2025-01-18 08:21:11.09	17.05	7.74	
2025-01-18 08:21:11.30	17.05	7.76	
2025-01-18 08:21:11.50	17.05	7.78	
2025-01-18 08:21:11.70	17.06	7.80	
2025-01-18 08:21:11.91	17.06	7.81	
2025-01-18 08:21:12.11	17.06	7.83	
2025-01-18 08:21:12.31	17.06	7.85	
2025-01-18 08:21:12.52	17.06	7.86	
2025-01-18 08:21:12.72	17.06	7.88	
2025-01-18 08:21:12.92	17.06	7.90	
2025-01-18 08:21:13.13	17.06	7.92	
2025-01-18 08:21:13.33	17.07	7.93	
2025-01-18 08:21:13.53	17.07	7.95	
2025-01-18 08:21:13.73	17.07	7.97	
2025-01-18 08:21:13.94	17.07	7.98	
2025-01-18 08:21:14.14	17.07	8.00	
2025-01-18 08:21:14.34	17.07	8.02	
2025-01-18 08:21:14.55	17.07	8.04	
2025-01-18 08:21:14.75	17.07	8.05	
2025-01-18 08:21:14.95	17.08	8.07	
2025-01-18 08:21:15.16	17.08	8.09	
2025-01-18 08:21:15.36	17.08	8.10	
2025-01-18 08:21:15.56	17.08	8.12	
2025-01-18 08:21:15.77	17.08	8.14	
2025-01-18 08:21:15.97	17.08	8.16	
2025-01-18 08:21:16.17	17.08	8.17	
2025-01-18 08:21:16.38	17.08	8.19	
2025-01-18 08:21:16.58	17.09	8.21	
2025-01-18 08:21:16.78	17.09	8.23	
2025-01-18 08:21:16.98	17.09	8.24	
2025-01-18 08:21:17.19	17.09	8.26	
2025-01-18 08:21:17.39	17.09	8.28	
2025-01-18 08:21:17.59	17.09	8.29	
2025-01-18 08:21:17.80	17.09	8.31	
2025-01-18 08:21:18.00	17.10	8.33	
2025-01-18 08:21:18.20	17.10	8.35	
2025-01-18 08:21:18.41	17.10	8.37	
2025-01-18 08:21:18.61	17.10	8.38	
2025-01-18 08:21:18.81	17.10	8.40	
2025-01-18 08:21:19.02	17.10	8.42	
2025-01-18 08:21:19.22	17.10	8.44	
2025-01-18 08:21:19.42	17.10	8.45	
2025-01-18 08:21:19.62	17.11	8.47	
2025-01-18 08:21:19.83	17.11	8.49	
2025-01-18 08:21:20.03	17.11	8.51	
2025-01-18 08:21:20.23	17.11	8.52	
2025-01-18 08:21:20.44	17.11	8.54	
2025-01-18 08:21:20.64	17.11	8.56	
2025-01-18 08:21:20.84	17.11	8.58	
2025-01-18 08:21:21.05	17.11	8.59	
2025-01-18 08:21:21.25	17.12	8.61	
2025-01-18 08:21:21.45	17.12	8.63	
2025-01-18 08:21:21.66	17.12	8.65	
2025-01-18 08:21:21.86	17.12	8.66	
2025-01-18 08:21:22.06	17.12	8.68	
2025-01-18 08:21:22.26	17.12	8.70	
2025-01-18 08:21:22.47	17.12	8.72	
2025-01-18 08:21:22.67	17.13	8.73	
2025-01-18 08:21:22.87	17.13	8.75	
2025-01-18 08:21:23.08	17.13	8.77	
2025-01-18 08:21:23.28	17.13	8.79	
2025-01-18 08:21:23.48	17.13	8.81	
2025-01-18 08:21:23.69	17.13	8.82	
2025-01-18 08:21:23.89	17.13	8.84	
2025-01-18 08:21:24.09	17.13	8.86	
2025-01-18 08:21:24.30	17.14	8.88	
2025-01-18 08:21:24.50	17.14	8.90	
2025-01-18 08:21:24.70	17.14	8.91	
2025-01-18 08:21:24.91	17.14	8.93	
2025-01-18 08:21:25.11	17.14	8.95	
2025-01-18 08:21:25.31	17.14	8.97	
2025-01-18 08:21:25.51	17.14	8.98	
2025-01-18 08:21:25.72	17.15	9.00	
2025-01-18 08:21:25.92	17.15	9.02	
2025-01-18 08:21:26.12	17.15	9.04	
2025-01-18 08:21:26.33	17.15	9.06	
2025-01-18 08:21:26.53	17.15	9.07	
2025-01-18 08:21:26.73	17.15	9.09	
2025-01-18 08:21:26.94	17.15	9.11	
2025-01-18 08:21:27.14	17.15	9.13	
2025-01-18 08:21:27.34	17.16	9.15	
2025-01-18 08:21:27.55	17.16	9.17	
2025-01-18 08:21:27.75	17.16	9.18	
2025-01-18 08:21:27.95	17.16	9.20	
2025-01-18 08:21:28.16	17.16	9.22	
2025-01-18 08:21:28.36	17.16	9.24	
2025-01-18 08:21:28.56	17.16	9.26	
2025-01-18 08:21:28.76	17.16	9.27	
2025-01-18 08:21:28.97	17.17	9.29	
2025-01-18 08:21:29.17	17.17	9.31	
2025-01-18 08:21:29.37	17.17	9.33	
2025-01-18 08:21:29.58	17.17	9.35	
2025-01-18 08:21:29.78	17.17	9.37	
2025-01-18 08:21:29.98	17.17	9.38	
2025-01-18 08:21:30.19	17.17	9.40	
2025-01-18 08:21:30.39	17.18	9.42	
2025-01-18 08:21:30.59	17.18	9.44	
2025-01-18 08:21:30.80	17.18	9.46	
2025-01-18 08:21:31.00	17.18	9.48	
2025-01-18 08:21:31.20	17.18	9.49	
2025-01-18 08:21:31.40	17.18	9.51	
2025-01-18 08:21:31.61	17.18	9.53	
2025-01-18 08:21:31.81	17.19	9.55	
2025-01-18 08:21:32.01	17.19	9.57	
2025-01-18 08:21:32.22	17.19	9.59	
2025-01-18 08:21:32.42	17.19	9.60	
2025-01-18 08:21:32.62	17.19	9.62	
2025-01-18 08:21:32.83	17.19	9.64	
2025-01-18 08:21:33.03	17.19	9.66	
2025-01-18 08:21:33.23	17.19	9.68	
2025-01-18 08:21:33.44	17.20	9.70	
2025-01-18 08:21:33.64	17.20	9.72	
2025-01-18 08:21:33.84	17.20	9.73	
2025-01-18 08:21:34.05	17.20	9.75	
2025-01-18 08:21:34.25	17.20	9.77	
2025-01-18 08:21:34.45	17.20	9.79	
2025-01-18 08:21:34.65	17.20	9.81	
2025-01-18 08:21:34.86	17.21	9.83	
2025-01-18 08:21:35.06	17.21	9.85	
2025-01-18 08:21:35.26	17.21	9.86	
2025-01-18 08:21:35.47	17.21	9.88	
2025-01-18 08:21:35.67	17.21	9.90	
2025-01-18 08:21:35.87	17.21	9.92	
2025-01-18 08:21:36.08	17.21	9.94	
2025-01-18 08:21:36.28	17.21	9.96	
2025-01-18 08:21:36.48	17.22	9.98	
2025-01-18 08:21:36.69	17.22	10.00	
2025-01-18 08:21:36.89	17.22	10.01	
2025-01-18 08:21:37.09	17.22	10.03	
2025-01-18 08:21:37.30	17.22	10.05	
2025-01-18 08:21:37.50	17.22	10.07	
2025-01-18 08:21:37.70	17.22	10.09	
2025-01-18 08:21:37.90	17.23	10.11	
2025-01-18 08:21:38.11	17.23	10.13	
2025-01-18 08:21:38.31	17.23	10.15	
2025-01-18 08:21:38.51	17.23	10.16	
2025-01-18 08:21:38.72	17.23	10.18	
2025-01-18 08:21:38.92	17.23	10.20	
2025-01-18 08:21:39.12	17.23	10.22	
2025-01-18 08:21:39.33	17.24	10.24	
2025-01-18 08:21:39.53	17.24	10.26	
2025-01-18 08:21:39.73	17.24	10.28	
2025-01-18 08:21:39.94	17.24	10.30	
2025-01-18 08:21:40.14	17.24	10.32	
2025-01-18 08:21:40.34	17.24	10.34	
2025-01-18 08:21:40.54	17.24	10.35	
2025-01-18 08:21:40.75	17.24	10.37	
2025-01-18 08:21:40.95	17.25	10.39	
2025-01-18 08:21:41.15	17.25	10.41	
2025-01-18 08:21:41.36	17.25	10.43	
2025-01-18 08:21:41.56	17.25	10.45	
2025-01-18 08:21:41.76	17.25	10.47	
2025-01-18 08:21:41.97	17.25	10.49	
2025-01-18 08:21:42.17	17.25	10.51	
2025-01-18 08:21:42.37	17.26	10.53	
2025-01-18 08:21:42.58	17.26	10.55	
2025-01-18 08:21:42.78	17.26	10.57	
2025-01-18 08:21:42.98	17.26	10.59	
2025-01-18 08:21:43.19	17.26	10.61	
2025-01-18 08:21:43.39	17.26	10.62	
2025-01-18 08:21:43.59	17.26	10.64	
2025-01-18 08:21:43.79	17.27	10.66	
2025-01-18 08:21:44.00	17.27	10.68	
2025-01-18 08:21:44.20	17.27	10.70	
2025-01-18 08:21:44.40	17.27	10.72	
2025-01-18 08:21:44.61	17.27	10.74	
2025-01-18 08:21:44.81	17.27	10.76	
2025-01-18 08:21:45.01	17.27	10.78	
2025-01-18 08:21:45.22	17.28	10.80	
2025-01-18 08:21:45.42	17.28	10.82	
2025-01-18 08:21:45.62	17.28	10.84	
2025-01-18 08:21:45.83	17.28	10.86	
2025-01-18 08:21:46.03	17.28	10.88	
2025-01-18 08:21:46.23	17.28	10.90	
2025-01-18 08:21:46.44	17.28	10.92	
2025-01-18 08:21:46.64	17.28	10.94	
2025-01-18 08:21:46.84	17.29	10.96	
2025-01-18 08:21:47.04	17.29	10.97	
2025-01-18 08:21:47.25	17.29	10.99	
2025-01-18 08:21:47.45	17.29	11.01	
2025-01-18 08:21:47.65	17.29	11.03	
2025-01-18 08:21:47.86	17.29	11.05	
2025-01-18 08:21:48.06	17.29	11.07	
2025-01-18 08:21:48.26	17.30	11.09	
2025-01-18 08:21:48.47	17.30	11.11	
2025-01-18 08:21:48.67	17.30	11.13	
2025-01-18 08:21:48.87	17.30	11.15	
2025-01-18 08:21:49.08	17.30	11.17	
2025-01-18 08:21:49.28	17.30	11.19	
2025-01-18 08:21:49.48	17.30	11.21	
2025-01-18 08:21:49.68	17.31	11.23	
2025-01-18 08:21:49.89	17.31	11.25	
2025-01-18 08:21:50.09	17.31	11.27	
2025-01-18 08:21:50.29	17.31	11.29	
2025-01-18 08:21:50.50	17.31	11.31	
2025-01-18 08:21:50.70	17.31	11.33	
2025-01-18 08:21:50.90	17.31	11.35	
2025-01-18 08:21:51.11	17.32	11.37	
2025-01-18 08:21:51.31	17.32	11.39	
2025-01-18 08:21:51.51	17.32	11.41	
2025-01-18 08:21:51.72	17.32	11.43	
2025-01-18 08:21:51.92	17.32	11.45	
2025-01-18 08:21:52.12	17.32	11.47	
2025-01-18 08:21:52.33	17.32	11.49	
2025-01-18 08:21:52.53	17.33	11.51	
2025-01-18 08:21:52.73	17.33	11.53	
2025-01-18 08:21:52.93	17.33	11.55	
2025-01-18 08:21:53.14	17.33	11.57	
2025-01-18 08:21:53.34	17.33	11.59	
2025-01-18 08:21:53.54	17.33	11.61	
2025-01-18 08:21:53.75	17.33	11.63	
2025-01-18 08:21:53.95	17.34	11.65	
2025-01-18 08:21:54.15	17.34	11.67	
2025-01-18 08:21:54.36	17.34	11.69	
2025-01-18 08:21:54.56	17.34	11.71	
2025-01-18 08:21:54.76	17.34	11.73	
2025-01-18 08:21:54.97	17.34	11.76	
2025-01-18 08:21:55.17	17.34	11.78	
2025-01-18 08:21:55.37	17.35	11.80	
2025-01-18 08:21:55.57	17.35	11.82	
2025-01-18 08:21:55.78	17.35	11.84	
2025-01-18 08:21:55.98	17.35	11.86	
2025-01-18 08:21:56.18	17.35	11.88	
2025-01-18 08:21:56.39	17.35	11.90	
2025-01-18 08:21:56.59	17.35	11.92	
2025-01-18 08:21:56.79	17.36	11.94	
2025-01-18 08:21:57.00	17.36	11.96	
2025-01-18 08:21:57.20	17.36	11.98	
2025-01-18 08:21:57.40	17.36	12.00	
2025-01-18 08:21:57.61	17.36	12.02	
2025-01-18 08:21:57.81	17.36	12.04	
2025-01-18 08:21:58.01	17.36	12.06	
2025-01-18 08:21:58.22	17.37	12.08	
2025-01-18 08:21:58.42	17.37	12.10	
2025-01-18 08:21:58.62	17.37	12.12	
2025-01-18 08:21:58.82	17.37	12.14	
2025-01-18 08:21:59.03	17.37	12.17	
2025-01-18 08:21:59.23	17.37	12.19	
2025-01-18 08:21:59.43	17.37	12.21	
2025-01-18 08:21:59.64	17.38	12.23	
2025-01-18 08:21:59.84	17.38	12.25	
2025-01-18 08:22:00.04	17.38	12.27	
2025-01-18 08:22:00.25	17.38	12.29	
2025-01-18 08:22:00.45	17.38	12.31	
2025-01-18 08:22:00.65	17.38	12.33	
2025-01-18 08:22:00.86	17.38	12.35	
2025-01-18 08:22:01.06	17.39	12.37	
2025-01-18 08:22:01.26	17.39	12.39	
2025-01-18 08:22:01.47	17.39	12.42	
2025-01-18 08:22:01.67	17.39	12.44	
2025-01-18 08:22:01.87	17.39	12.46	
2025-01-18 08:22:02.07	17.39	12.48	
2025-01-18 08:22:02.28	17.39	12.50	
2025-01-18 08:22:02.48	17.40	12.52	
2025-01-18 08:22:02.68	17.40	12.54	
2025-01-18 08:22:02.89	17.40	12.56	
2025-01-18 08:22:03.09	17.40	12.58	
2025-01-18 08:22:03.29	17.40	12.60	
2025-01-18 08:22:03.50	17.40	12.63	
2025-01-18 08:22:03.70	17.40	12.65	
2025-01-18 08:22:03.90	17.41	12.67	
2025-01-18 08:22:04.11	17.41	12.69	
2025-01-18 08:22:04.31	17.41	12.71	
2025-01-18 08:22:04.51	17.41	12.73	
2025-01-18 08:22:04.71	17.41	12.75	
2025-01-18 08:22:04.92	17.41	12.78	
2025-01-18 08:22:05.12	17.42	12.80	
2025-01-18 08:22:05.32	17.42	12.82	
2025-01-18 08:22:05.53	17.42	12.84	
2025-01-18 08:22:05.73	17.42	12.86	
2025-01-18 08:22:05.93	17.42	12.88	
2025-01-18 08:22:06.14	17.42	12.90	
2025-01-18 08:22:06.34	17.42	12.92	
2025-01-18 08:22:06.54	17.43	12.95	
2025-01-18 08:22:06.75	17.43	12.97	
2025-01-18 08:22:06.95	17.43	12.99	
2025-01-18 08:22:07.15	17.43	13.01	
2025-01-18 08:22:07.36	17.43	13.03	
2025-01-18 08:22:07.56	17.43	13.05	
2025-01-18 08:22:07.76	17.43	13.08	
2025-01-18 08:22:07.96	17.44	13.10	
2025-01-18 08:22:08.17	17.44	13.12	
2025-01-18 08:22:08.37	17.44	13.14	
2025-01-18 08:22:08.57	17.44	13.16	
2025-01-18 08:22:08.78	17.44	13.18	
2025-01-18 08:22:08.98	17.44	13.21	
2025-01-18 08:22:09.18	17.44	13.23	
2025-01-18 08:22:09.39	17.45	13.25	
2025-01-18 08:22:09.59	17.45	13.27	
2025-01-18 08:22:09.79	17.45	13.29	
2025-01-18 08:22:10.00	17.45	13.31	
2025-01-18 08:22:10.20	17.45	13.34	
2025-01-18 08:22:10.40	17.45	13.36	
2025-01-18 08:22:10.60	17.46	13.38	
2025-01-18 08:22:10.81	17.46	13.40	
2025-01-18 08:22:11.01	17.46	13.42	
2025-01-18 08:22:11.21	17.46	13.45	
2025-01-18 08:22:11.42	17.46	13.47	
2025-01-18 08:22:11.62	17.46	13.49	
2025-01-18 08:22:11.82	17.46	13.51	
2025-01-18 08:22:12.03	17.47	13.53	
2025-01-18 08:22:12.23	17.47	13.56	
2025-01-18 08:22:12.43	17.47	13.58	
2025-01-18 08:22:12.64	17.47	13.60	
2025-01-18 08:22:12.84	17.47	13.62	
2025-01-18 08:22:13.04	17.47	13.64	
2025-01-18 08:22:13.25	17.47	13.67	
2025-01-18 08:22:13.45	17.48	13.69	
2025-01-18 08:22:13.65	17.48	13.71	
2025-01-18 08:22:13.85	17.48	13.73	
2025-01-18 08:22:14.06	17.48	13.76	
2025-01-18 08:22:14.26	17.48	13.78	
2025-01-18 08:22:14.46	17.48	13.80	
2025-01-18 08:22:14.67	17.49	13.82	
2025-01-18 08:22:14.87	17.49	13.85	
2025-01-18 08:22:15.07	17.49	13.87	
2025-01-18 08:22:15.28	17.49	13.89	
2025-01-18 08:22:15.48	17.49	13.91	
2025-01-18 08:22:15.68	17.49	13.93	
2025-01-18 08:22:15.89	17.49	13.96	
2025-01-18 08:22:16.09	17.50	13.98	
2025-01-18 08:22:16.29	17.50	14.00	
2025-01-18 08:22:16.50	17.50	14.03	
2025-01-18 08:22:16.70	17.50	14.05	
2025-01-18 08:22:16.90	17.50	14.07	
2025-01-18 08:22:17.10	17.50	14.09	
2025-01-18 08:22:17.31	17.51	14.12	
2025-01-18 08:22:17.51	17.51	14.14	
2025-01-18 08:22:17.71	17.51	14.16	
2025-01-18 08:22:17.92	17.51	14.18	
2025-01-18 08:22:18.12	17.51	14.21	
2025-01-18 08:22:18.32	17.51	14.23	
2025-01-18 08:22:18.53	17.51	14.25	
2025-01-18 08:22:18.73	17.52	14.27	
2025-01-18 08:22:18.93	17.52	14.30	
2025-01-18 08:22:19.14	17.52	14.32	
2025-01-18 08:22:19.34	17.52	14.34	
2025-01-18 08:22:19.54	17.52	14.37	
2025-01-18 08:22:19.74	17.52	14.39	
2025-01-18 08:22:19.95	17.53	14.41	
2025-01-18 08:22:20.15	17.53	14.43	
2025-01-18 08:22:20.35	17.53	14.46	
2025-01-18 08:22:20.56	17.53	14.48	
2025-01-18 08:22:20.76	17.53	14.50	
2025-01-18 08:22:20.96	17.53	14.53	
2025-01-18 08:22:21.17	17.53	14.55	
2025-01-18 08:22:21.37	17.54	14.57	
2025-01-18 08:22:21.57	17.54	14.60	
2025-01-18 08:22:21.78	17.54	14.62	
2025-01-18 08:22:21.98	17.54	14.64	
2025-01-18 08:22:22.18	17.54	14.67	
2025-01-18 08:22:22.39	17.54	14.69	
2025-01-18 08:22:22.59	17.55	14.71	
2025-01-18 08:22:22.79	17.55	14.74	
2025-01-18 08:22:22.99	17.55	14.76	
2025-01-18 08:22:23.20	17.55	14.78	
2025-01-18 08:22:23.40	17.55	14.81	
2025-01-18 08:22:23.60	17.55	14.83	
2025-01-18 08:22:23.81	17.56	14.85	
2025-01-18 08:22:24.01	17.56	14.88	
2025-01-18 08:22:24.21	17.56	14.90	
2025-01-18 08:22:24.42	17.56	14.92	
2025-01-18 08:22:24.62	17.56	14.95	
2025-01-18 08:22:24.82	17.56	14.97	
2025-01-18 08:22:25.03	17.56	14.99	
2025-01-18 08:22:25.23	17.57	15.02	
2025-01-18 08:22:25.43	17.57	15.04	
2025-01-18 08:22:25.63	17.57	15.06	
2025-01-18 08:22:25.84	17.57	15.09	
2025-01-18 08:22:26.04	17.57	15.11	
2025-01-18 08:22:26.24	17.57	15.14	
2025-01-18 08:22:26.45	17.58	15.16	
2025-01-18 08:22:26.65	17.58	15.18	
2025-01-18 08:22:26.85	17.58	15.21	
2025-01-18 08:22:27.06	17.58	15.23	
2025-01-18 08:22:27.26	17.58	15.25	
2025-01-18 08:22:27.46	17.58	15.28	
2025-01-18 08:22:27.67	17.59	15.30	
2025-01-18 08:22:27.87	17.59	15.33	
2025-01-18 08:22:28.07	17.59	15.35	
2025-01-18 08:22:28.28	17.59	15.37	
2025-01-18 08:22:28.48	17.59	15.40	
2025-01-18 08:22:28.68	17.59	15.42	
2025-01-18 08:22:28.88	17.59	15.45	
2025-01-18 08:22:29.09	17.60	15.47	
2025-01-18 08:22:29.29	17.60	15.49	
2025-01-18 08:22:29.49	17.60	15.52	
2025-01-18 08:22:29.70	17.60	15.54	
2025-01-18 08:22:29.90	17.60	15.57	
2025-01-18 08:22:30.10	17.60	15.59	
2025-01-18 08:22:30.31	17.61	15.62	
2025-01-18 08:22:30.51	17.61	15.64	
2025-01-18 08:22:30.71	17.61	15.66	
2025-01-18 08:22:30.92	17.61	15.69	
2025-01-18 08:22:31.12	17.61	15.71	
2025-01-18 08:22:31.32	17.61	15.74	
2025-01-18 08:22:31.53	17.62	15.76	
2025-01-18 08:22:31.73	17.62	15.79	
2025-01-18 08:22:31.93	17.62	15.81	
2025-01-18 08:22:32.13	17.62	15.83	
2025-01-18 08:22:32.34	17.62	15.86	
2025-01-18 08:22:32.54	17.62	15.88	
2025-01-18 08:22:32.74	17.63	15.91	
2025-01-18 08:22:32.95	17.63	15.93	
2025-01-18 08:22:33.15	17.63	15.96	
2025-01-18 08:22:33.35	17.63	15.98	
2025-01-18 08:22:33.56	17.63	16.01	
2025-01-18 08:22:33.76	17.63	16.03	
2025-01-18 08:22:33.96	17.64	16.06	
2025-01-18 08:22:34.17	17.64	16.08	
2025-01-18 08:22:34.37	17.64	16.11	
2025-01-18 08:22:34.57	17.64	16.13	
2025-01-18 08:22:34.77	17.64	16.16	
2025-01-18 08:22:34.98	17.64	16.18	
2025-01-18 08:22:35.18	17.65	16.21	
2025-01-18 08:22:35.38	17.65	16.23	
2025-01-18 08:22:35.59	17.65	16.26	
2025-01-18 08:22:35.79	17.65	16.28	
2025-01-18 08:22:35.99	17.65	16.30	
2025-01-18 08:22:36.20	17.65	16.33	
2025-01-18 08:22:36.40	17.65	16.36	
2025-01-18 08:22:36.60	17.66	16.38	
2025-01-18 08:22:36.81	17.66	16.41	
2025-01-18 08:22:37.01	17.66	16.43	
2025-01-18 08:22:37.21	17.66	16.46	
2025-01-18 08:22:37.42	17.66	16.48	
2025-01-18 08:22:37.62	17.66	16.51	
2025-01-18 08:22:37.82	17.67	16.53	
2025-01-18 08:22:38.02	17.67	16.56	
2025-01-18 08:22:38.23	17.67	16.58	
2025-01-18 08:22:38.43	17.67	16.61	
2025-01-18 08:22:38.63	17.67	16.63	
2025-01-18 08:22:38.84	17.67	16.66	
2025-01-18 08:22:39.04	17.68	16.68	
2025-01-18 08:22:39.24	17.68	16.71	
2025-01-18 08:22:39.45	17.68	16.74	
2025-01-18 08:22:39.65	17.68	16.76	
2025-01-18 08:22:39.85	17.68	16.79	
2025-01-18 08:22:40.06	17.69	16.81	
2025-01-18 08:22:40.26	17.69	16.84	
2025-01-18 08:22:40.46	17.69	16.86	
2025-01-18 08:22:40.67	17.69	16.89	
2025-01-18 08:22:40.87	17.69	16.91	
2025-01-18 08:22:41.07	17.69	16.94	
2025-01-18 08:22:41.27	17.70	16.97	
2025-01-18 08:22:41.48	17.70	16.99	
2025-01-18 08:22:41.68	17.70	17.02	
2025-01-18 08:22:41.88	17.70	17.04	
2025-01-18 08:22:42.09	17.70	17.07	
2025-01-18 08:22:42.29	17.70	17.10	
2025-01-18 08:22:42.49	17.71	17.12	
2025-01-18 08:22:42.70	17.71	17.15	
2025-01-18 08:22:42.90	17.71	17.17	
2025-01-18 08:22:43.10	17.71	17.20	
2025-01-18 08:22:43.31	17.71	17.23	
2025-01-18 08:22:43.51	17.71	17.25	
2025-01-18 08:22:43.71	17.72	17.28	
2025-01-18 08:22:43.91	17.72	17.30	
2025-01-18 08:22:44.12	17.72	17.33	
2025-01-18 08:22:44.32	17.72	17.36	
2025-01-18 08:22:44.52	17.72	17.38	
2025-01-18 08:22:44.73	17.72	17.41	
2025-01-18 08:22:44.93	17.73	17.43	
2025-01-18 08:22:45.13	17.73	17.46	
2025-01-18 08:22:45.34	17.73	17.49	
2025-01-18 08:22:45.54	17.73	17.51	
2025-01-18 08:22:45.74	17.73	17.54	
2025-01-18 08:22:45.95	17.73	17.57	
2025-01-18 08:22:46.15	17.74	17.59	
2025-01-18 08:22:46.35	17.74	17.62	
2025-01-18 08:22:46.56	17.74	17.65	
2025-01-18 08:22:46.76	17.74	17.67	
2025-01-18 08:22:46.96	17.74	17.70	
2025-01-18 08:22:47.16	17.74	17.73	
2025-01-18 08:22:47.37	17.75	17.75	
2025-01-18 08:22:47.57	17.75	17.78	
2025-01-18 08:22:47.77	17.75	17.81	
2025-01-18 08:22:47.98	17.75	17.83	
2025-01-18 08:22:48.18	17.75	17.86	
2025-01-18 08:22:48.38	17.76	17.89	
2025-01-18 08:22:48.59	17.76	17.91	
2025-01-18 08:22:48.79	17.76	17.94	
2025-01-18 08:22:48.99	17.76	17.97	
2025-01-18 08:22:49.20	17.76	18.00	
2025-01-18 08:22:49.40	17.76	18.02	
2025-01-18 08:22:49.60	17.77	18.05	
2025-01-18 08:22:49.80	17.77	18.08	
2025-01-18 08:22:50.01	17.77	18.10	
2025-01-18 08:22:50.21	17.77	18.13	
2025-01-18 08:22:50.41	17.77	18.16	
2025-01-18 08:22:50.62	17.77	18.18	
2025-01-18 08:22:50.82	17.78	18.21	
2025-01-18 08:22:51.02	17.78	18.24	
2025-01-18 08:22:51.23	17.78	18.27	
2025-01-18 08:22:51.43	17.78	18.29	
2025-01-18 08:22:51.63	17.78	18.32	
2025-01-18 08:22:51.84	17.79	18.35	
2025-01-18 08:22:52.04	17.79	18.38	
2025-01-18 08:22:52.24	17.79	18.40	
2025-01-18 08:22:52.45	17.79	18.43	
2025-01-18 08:22:52.65	17.79	18.46	
2025-01-18 08:22:52.85	17.79	18.49	
2025-01-18 08:22:53.05	17.80	18.51	
2025-01-18 08:22:53.26	17.80	18.54	
2025-01-18 08:22:53.46	17.80	18.57	
2025-01-18 08:22:53.66	17.80	18.60	
2025-01-18 08:22:53.87	17.80	18.62	
2025-01-18 08:22:54.07	17.80	18.65	
2025-01-18 08:22:54.27	17.81	18.68	
2025-01-18 08:22:54.48	17.81	18.71	
2025-01-18 08:22:54.68	17.81	18.74	
2025-01-18 08:22:54.88	17.81	18.76	
2025-01-18 08:22:55.09	17.81	18.79	
2025-01-18 08:22:55.29	17.82	18.82	
2025-01-18 08:22:55.49	17.82	18.85	
2025-01-18 08:22:55.70	17.82	18.88	
2025-01-18 08:22:55.90	17.82	18.90	
2025-01-18 08:22:56.10	17.82	18.93	
2025-01-18 08:22:56.30	17.82	18.96	
2025-01-18 08:22:56.51	17.83	18.99	
2025-01-18 08:22:56.71	17.83	19.02	
2025-01-18 08:22:56.91	17.83	19.04	
2025-01-18 08:22:57.12	17.83	19.07	
2025-01-18 08:22:57.32	17.83	19.10	
2025-01-18 08:22:57.52	17.84	19.13	
2025-01-18 08:22:57.73	17.84	19.16	
2025-01-18 08:22:57.93	17.84	19.19	
2025-01-18 08:22:58.13	17.84	19.22	
2025-01-18 08:22:58.34	17.84	19.24	
2025-01-18 08:22:58.54	17.85	19.27	
2025-01-18 08:22:58.74	17.85	19.30	
2025-01-18 08:22:58.94	17.85	19.33	
2025-01-18 08:22:59.15	17.85	19.36	
2025-01-18 08:22:59.35	17.85	19.39	
2025-01-18 08:22:59.55	17.85	19.42	
2025-01-18 08:22:59.76	17.86	19.44	
2025-01-18 08:22:59.96	17.86	19.47	
2025-01-18 08:23:00.16	17.86	19.50	
2025-01-18 08:23:00.37	17.86	19.53	
2025-01-18 08:23:00.57	17.86	19.56	
2025-01-18 08:23:00.77	17.87	19.59	
2025-01-18 08:23:00.98	17.87	19.62	
2025-01-18 08:23:01.18	17.87	19.65	
2025-01-18 08:23:01.38	17.87	19.68	
2025-01-18 08:23:01.59	17.87	19.71	
2025-01-18 08:23:01.79	17.87	19.73	
2025-01-18 08:23:01.99	17.88	19.76	
2025-01-18 08:23:02.19	17.88	19.79	
2025-01-18 08:23:02.40	17.88	19.82	
2025-01-18 08:23:02.60	17.88	19.85	
2025-01-18 08:23:02.80	17.88	19.88	
2025-01-18 08:23:03.01	17.89	19.91	
2025-01-18 08:23:03.21	17.89	19.94	
2025-01-18 08:23:03.41	17.89	19.97	
2025-01-18 08:23:03.62	17.89	20.00	
2025-01-18 08:23:03.82	17.89	20.03	
2025-01-18 08:23:04.02	17.90	20.06	
2025-01-18 08:23:04.23	17.90	20.09	
2025-01-18 08:23:04.43	17.90	20.12	
2025-01-18 08:23:04.63	17.90	20.15	
2025-01-18 08:23:04.83	17.90	20.18	
2025-01-18 08:23:05.04	17.91	20.21	
2025-01-18 08:23:05.24	17.91	20.24	
2025-01-18 08:23:05.44	17.91	20.27	
2025-01-18 08:23:05.65	17.91	20.30	
2025-01-18 08:23:05.85	17.91	20.33	
2025-01-18 08:23:06.05	17.91	20.35	
2025-01-18 08:23:06.26	17.92	20.39	
2025-01-18 08:23:06.46	17.92	20.42	
2025-01-18 08:23:06.66	17.92	20.45	
2025-01-18 08:23:06.87	17.92	20.48	
2025-01-18 08:23:07.07	17.92	20.51	
2025-01-18 08:23:07.27	17.93	20.54	
2025-01-18 08:23:07.48	17.93	20.57	
2025-01-18 08:23:07.68	17.93	20.60	
2025-01-18 08:23:07.88	17.93	20.63	
2025-01-18 08:23:08.08	17.93	20.66	
2025-01-18 08:23:08.29	17.94	20.69	
2025-01-18 08:23:08.49	17.94	20.72	
2025-01-18 08:23:08.69	17.94	20.75	
2025-01-18 08:23:08.90	17.94	20.78	
2025-01-18 08:23:09.10	17.94	20.81	
2025-01-18 08:23:09.30	17.95	20.84	
2025-01-18 08:23:09.51	17.95	20.87	
2025-01-18 08:23:09.71	17.95	20.90	
2025-01-18 08:23:09.91	17.95	20.93	
2025-01-18 08:23:10.12	17.95	20.96	
2025-01-18 08:23:10.32	17.96	20.99	
2025-01-18 08:23:10.52	17.96	21.02	
2025-01-18 08:23:10.73	17.96	21.06	
2025-01-18 08:23:10.93	17.96	21.09	
2025-01-18 08:23:11.13	17.96	21.12	
2025-01-18 08:23:11.33	17.97	21.15	
2025-01-18 08:23:11.54	17.97	21.18	
2025-01-18 08:23:11.74	17.97	21.21	
2025-01-18 08:23:11.94	17.97	21.24	
2025-01-18 08:23:12.15	17.97	21.27	
2025-01-18 08:23:12.35	17.98	21.30	
2025-01-18 08:23:12.55	17.98	21.33	
2025-01-18 08:23:12.76	17.98	21.37	
2025-01-18 08:23:12.96	17.98	21.40	
2025-01-18 08:23:13.16	17.98	21.43	
2025-01-18 08:23:13.37	17.99	21.46	
2025-01-18 08:23:13.57	17.99	21.49	
2025-01-18 08:23:13.77	17.99	21.52	
2025-01-18 08:23:13.97	17.99	21.55	
2025-01-18 08:23:14.18	17.99	21.59	
2025-01-18 08:23:14.38	18.00	21.62	
2025-01-18 08:23:14.58	18.00	21.65	
2025-01-18 08:23:14.79	18.00	21.68	
2025-01-18 08:23:14.99	18.00	21.71	
2025-01-18 08:23:15.19	18.00	21.74	
2025-01-18 08:23:15.40	18.01	21.78	
2025-01-18 08:23:15.60	18.01	21.81	
2025-01-18 08:23:15.80	18.01	21.84	
2025-01-18 08:23:16.01	18.01	21.87	
2025-01-18 08:23:16.21	18.01	21.91	
2025-01-18 08:23:16.41	18.02	21.94	
2025-01-18 08:23:16.62	18.02	21.97	
2025-01-18 08:23:16.82	18.02	22.00	
2025-01-18 08:23:17.02	18.02	22.03	
2025-01-18 08:23:17.22	18.02	22.07	
2025-01-18 08:23:17.43	18.03	22.10	
2025-01-18 08:23:17.63	18.03	22.13	
2025-01-18 08:23:17.83	18.03	22.16	
2025-01-18 08:23:18.04	18.03	22.20	
2025-01-18 08:23:18.24	18.03	22.23	
2025-01-18 08:23:18.44	18.04	22.26	
2025-01-18 08:23:18.65	18.04	22.29	
2025-01-18 08:23:18.85	18.04	22.33	
2025-01-18 08:23:19.05	18.04	22.36	
2025-01-18 08:23:19.26	18.04	22.39	
2025-01-18 08:23:19.46	18.05	22.42	
2025-01-18 08:23:19.66	18.05	22.46	
2025-01-18 08:23:19.87	18.05	22.49	
2025-01-18 08:23:20.07	18.05	22.52	
2025-01-18 08:23:20.27	18.05	22.56	
2025-01-18 08:23:20.47	18.06	22.59	
2025-01-18 08:23:20.68	18.06	22.62	
2025-01-18 08:23:20.88	18.06	22.65	
2025-01-18 08:23:21.08	18.06	22.69	
2025-01-18 08:23:21.29	18.07	22.72	
2025-01-18 08:23:21.49	18.07	22.75	
2025-01-18 08:23:21.69	18.07	22.79	
2025-01-18 08:23:21.90	18.07	22.82	
2025-01-18 08:23:22.10	18.07	22.85	
2025-01-18 08:23:22.30	18.08	22.89	
2025-01-18 08:23:22.51	18.08	22.92	
2025-01-18 08:23:22.71	18.08	22.95	
2025-01-18 08:23:22.91	18.08	22.99	
2025-01-18 08:23:23.11	18.08	23.02	
2025-01-18 08:23:23.32	18.09	23.06	
2025-01-18 08:23:23.52	18.09	23.09	
2025-01-18 08:23:23.72	18.09	23.12	
2025-01-18 08:23:23.93	18.09	23.16	
2025-01-18 08:23:24.13	18.10	23.19	
2025-01-18 08:23:24.33	18.10	23.22	
2025-01-18 08:23:24.54	18.10	23.26	
2025-01-18 08:23:24.74	18.10	23.29	
2025-01-18 08:23:24.94	18.10	23.33	
2025-01-18 08:23:25.15	18.11	23.36	
2025-01-18 08:23:25.35	18.11	23.39	
2025-01-18 08:23:25.55	18.11	23.43	
2025-01-18 08:23:25.76	18.11	23.46	
2025-01-18 08:23:25.96	18.11	23.50	
2025-01-18 08:23:26.16	18.12	23.53	
2025-01-18 08:23:26.36	18.12	23.56	
2025-01-18 08:23:26.57	18.12	23.60	
2025-01-18 08:23:26.77	18.12	23.63	
2025-01-18 08:23:26.97	18.13	23.67	
2025-01-18 08:23:27.18	18.13	23.70	
2025-01-18 08:23:27.38	18.13	23.74	
2025-01-18 08:23:27.58	18.13	23.77	
2025-01-18 08:23:27.79	18.13	23.81	
2025-01-18 08:23:27.99	18.14	23.84	
2025-01-18 08:23:28.19	18.14	23.88	
2025-01-18 08:23:28.40	18.14	23.91	
2025-01-18 08:23:28.60	18.14	23.95	
2025-01-18 08:23:28.80	18.15	23.98	
2025-01-18 08:23:29.00	18.15	24.02	
2025-01-18 08:23:29.21	18.15	24.05	
2025-01-18 08:23:29.41	18.15	24.09	
2025-01-18 08:23:29.61	18.15	24.12	
2025-01-18 08:23:29.82	18.16	24.16	
2025-01-18 08:23:30.02	18.16	24.19	
2025-01-18 08:23:30.22	18.16	24.23	
2025-01-18 08:23:30.43	18.16	24.26	
2025-01-18 08:23:30.63	18.17	24.30	
2025-01-18 08:23:30.83	18.17	24.33	
2025-01-18 08:23:31.04	18.17	24.37	
2025-01-18 08:23:31.24	18.17	24.41	
2025-01-18 08:23:31.44	18.17	24.44	
2025-01-18 08:23:31.65	18.18	24.48	
2025-01-18 08:23:31.85	18.18	24.51	
2025-01-18 08:23:32.05	18.18	24.55	
2025-01-18 08:23:32.25	18.18	24.58	
2025-01-18 08:23:32.46	18.19	24.62	
2025-01-18 08:23:32.66	18.19	24.66	
2025-01-18 08:23:32.86	18.19	24.69	
2025-01-18 08:23:33.07	18.19	24.73	
2025-01-18 08:23:33.27	18.20	24.76	
2025-01-18 08:23:33.47	18.20	24.80	
2025-01-18 08:23:33.68	18.20	24.84	
2025-01-18 08:23:33.88	18.20	24.87	
2025-01-18 08:23:34.08	18.20	24.91	
2025-01-18 08:23:34.29	18.21	24.95	
2025-01-18 08:23:34.49	18.21	24.98	
2025-01-18 08:23:34.69	18.21	25.02	
2025-01-18 08:23:34.90	18.21	25.06	
2025-01-18 08:23:35.10	18.22	25.09	
2025-01-18 08:23:35.30	18.22	25.13	
2025-01-18 08:23:35.50	18.22	25.16	
2025-01-18 08:23:35.71	18.22	25.20	
2025-01-18 08:23:35.91	18.23	25.24	
2025-01-18 08:23:36.11	18.23	25.28	
2025-01-18 08:23:36.32	18.23	25.31	
2025-01-18 08:23:36.52	18.23	25.35	
2025-01-18 08:23:36.72	18.24	25.39	
2025-01-18 08:23:36.93	18.24	25.42	
2025-01-18 08:23:37.13	18.24	25.46	
2025-01-18 08:23:37.33	18.24	25.50	
2025-01-18 08:23:37.54	18.24	25.54	
2025-01-18 08:23:37.74	18.25	25.57	
2025-01-18 08:23:37.94	18.25	25.61	
2025-01-18 08:23:38.14	18.25	25.65	
2025-01-18 08:23:38.35	18.25	25.69	
2025-01-18 08:23:38.55	18.26	25.72	
2025-01-18 08:23:38.75	18.26	25.76	
2025-01-18 08:23:38.96	18.26	25.80	
2025-01-18 08:23:39.16	18.26	25.84	
2025-01-18 08:23:39.36	18.27	25.87	
2025-01-18 08:23:39.57	18.27	25.91	
2025-01-18 08:23:39.77	18.27	25.95	
2025-01-18 08:23:39.97	18.27	25.99	
2025-01-18 08:23:40.18	18.28	26.03	
2025-01-18 08:23:40.38	18.28	26.06	
2025-01-18 08:23:40.58	18.28	26.10	
2025-01-18 08:23:40.79	18.28	26.14	
2025-01-18 08:23:40.99	18.29	26.18	
2025-01-18 08:23:41.19	18.29	26.22	
2025-01-18 08:23:41.39	18.29	26.25	
2025-01-18 08:23:41.60	18.29	26.29	
2025-01-18 08:23:41.80	18.30	26.33	
2025-01-18 08:23:42.00	18.30	26.37	
2025-01-18 08:23:42.21	18.30	26.41	
2025-01-18 08:23:42.41	18.30	26.45	
2025-01-18 08:23:42.61	18.31	26.49	
2025-01-18 08:23:42.82	18.31	26.53	
2025-01-18 08:23:43.02	18.31	26.56	
2025-01-18 08:23:43.22	18.31	26.60	
2025-01-18 08:23:43.43	18.32	26.64	
2025-01-18 08:23:43.63	18.32	26.68	
2025-01-18 08:23:43.83	18.32	26.72	
2025-01-18 08:23:44.03	18.32	26.76	
2025-01-18 08:23:44.24	18.33	26.80	
2025-01-18 08:23:44.44	18.33	26.84	
2025-01-18 08:23:44.64	18.33	26.88	
2025-01-18 08:23:44.85	18.33	26.92	
2025-01-18 08:23:45.05	18.34	26.96	
2025-01-18 08:23:45.25	18.34	26.99	
2025-01-18 08:23:45.46	18.34	27.04	
2025-01-18 08:23:45.66	18.34	27.07	
2025-01-18 08:23:45.86	18.35	27.11	
2025-01-18 08:23:46.07	18.35	27.16	
2025-01-18 08:23:46.27	18.35	27.19	
2025-01-18 08:23:46.47	18.35	27.23	
2025-01-18 08:23:46.68	18.36	27.28	
2025-01-18 08:23:46.88	18.36	27.31	
2025-01-18 08:23:47.08	18.36	27.35	
2025-01-18 08:23:47.28	18.36	27.39	
2025-01-18 08:23:47.49	18.37	27.44	
2025-01-18 08:23:47.69	18.37	27.47	
2025-01-18 08:23:47.89	18.37	27.51	
2025-01-18 08:23:48.10	18.37	27.56	
2025-01-18 08:23:48.30	18.38	27.60	
2025-01-18 08:23:48.50	18.38	27.64	
2025-01-18 08:23:48.71	18.38	27.68	
2025-01-18 08:23:48.91	18.38	27.72	
2025-01-18 08:23:49.11	18.39	27.76	
2025-01-18 08:23:49.32	18.39	27.80	
2025-01-18 08:23:49.52	18.39	27.84	
2025-01-18 08:23:49.72	18.39	27.88	
2025-01-18 08:23:49.93	18.40	27.92	
2025-01-18 08:23:50.13	18.40	27.96	
2025-01-18 08:23:50.33	18.40	28.00	
2025-01-18 08:23:50.53	18.41	28.04	
2025-01-18 08:23:50.74	18.41	28.09	
2025-01-18 08:23:50.94	18.41	28.13	
2025-01-18 08:23:51.14	18.41	28.17	
2025-01-18 08:23:51.35	18.42	28.21	
2025-01-18 08:23:51.55	18.42	28.25	
2025-01-18 08:23:51.75	18.42	28.29	
2025-01-18 08:23:51.96	18.42	28.34	
2025-01-18 08:23:52.16	18.43	28.38	
2025-01-18 08:23:52.36	18.43	28.42	
2025-01-18 08:23:52.57	18.43	28.46	
2025-01-18 08:23:52.77	18.43	28.50	
2025-01-18 08:23:52.97	18.44	28.55	
2025-01-18 08:23:53.17	18.44	28.59	
2025-01-18 08:23:53.38	18.44	28.63	
2025-01-18 08:23:53.58	18.45	28.67	
2025-01-18 08:23:53.78	18.45	28.71	
2025-01-18 08:23:53.99	18.45	28.76	
2025-01-18 08:23:54.19	18.45	28.80	
2025-01-18 08:23:54.39	18.46	28.84	
2025-01-18 08:23:54.60	18.46	28.88	
2025-01-18 08:23:54.80	18.46	28.93	
2025-01-18 08:23:55.00	18.47	28.97	
2025-01-18 08:23:55.21	18.47	29.01	
2025-01-18 08:23:55.41	18.47	29.06	
2025-01-18 08:23:55.61	18.47	29.10	
2025-01-18 08:23:55.82	18.48	29.14	
2025-01-18 08:23:56.02	18.48	29.18	
2025-01-18 08:23:56.22	18.48	29.23	
2025-01-18 08:23:56.42	18.48	29.27	
2025-01-18 08:23:56.63	18.49	29.31	
2025-01-18 08:23:56.83	18.49	29.36	
2025-01-18 08:23:57.03	18.49	29.40	
2025-01-18 08:23:57.24	18.50	29.44	
2025-01-18 08:23:57.44	18.50	29.49	
2025-01-18 08:23:57.64	18.50	29.53	
2025-01-18 08:23:57.85	18.50	29.58	
2025-01-18 08:23:58.05	18.51	29.62	
2025-01-18 08:23:58.25	18.51	29.66	
2025-01-18 08:23:58.46	18.51	29.71	
2025-01-18 08:23:58.66	18.52	29.75	
2025-01-18 08:23:58.86	18.52	29.79	
2025-01-18 08:23:59.06	18.52	29.84	
2025-01-18 08:23:59.27	18.52	29.88	
2025-01-18 08:23:59.47	18.53	29.93	
2025-01-18 08:23:59.67	18.53	29.97	
2025-01-18 08:23:59.88	18.53	30.02	
2025-01-18 08:24:00.08	18.54	30.06	
2025-01-18 08:24:00.28	18.54	30.10	
2025-01-18 08:24:00.49	18.54	30.15	
2025-01-18 08:24:00.69	18.54	30.19	
2025-01-18 08:24:00.89	18.55	30.24	
2025-01-18 08:24:01.10	18.55	30.28	
2025-01-18 08:24:01.30	18.55	30.33	
2025-01-18 08:24:01.50	18.56	30.37	
2025-01-18 08:24:01.71	18.56	30.42	
2025-01-18 08:24:01.91	18.56	30.46	
2025-01-18 08:24:02.11	18.57	30.51	
2025-01-18 08:24:02.31	18.57	30.55	
2025-01-18 08:24:02.52	18.57	30.60	
2025-01-18 08:24:02.72	18.57	30.64	
2025-01-18 08:24:02.92	18.58	30.69	
2025-01-18 08:24:03.13	18.58	30.74	
2025-01-18 08:24:03.33	18.58	30.78	
2025-01-18 08:24:03.53	18.59	30.83	
2025-01-18 08:24:03.74	18.59	30.87	
2025-01-18 08:24:03.94	18.59	30.92	
2025-01-18 08:24:04.14	18.60	30.97	
2025-01-18 08:24:04.35	18.60	31.01	
2025-01-18 08:24:04.55	18.60	31.06	
2025-01-18 08:24:04.75	18.60	31.10	
2025-01-18 08:24:04.96	18.61	31.15	
2025-01-18 08:24:05.16	18.61	31.20	
2025-01-18 08:24:05.36	18.61	31.24	
2025-01-18 08:24:05.56	18.62	31.29	
2025-01-18 08:24:05.77	18.62	31.34	
2025-01-18 08:24:05.97	18.62	31.38	
2025-01-18 08:24:06.17	18.63	31.43	
2025-01-18 08:24:06.38	18.63	31.48	
2025-01-18 08:24:06.58	18.63	31.52	
2025-01-18 08:24:06.78	18.64	31.57	
2025-01-18 08:24:06.99	18.64	31.62	
2025-01-18 08:24:07.19	18.64	31.67	
2025-01-18 08:24:07.39	18.65	31.71	
2025-01-18 08:24:07.60	18.65	31.76	
2025-01-18 08:24:07.80	18.65	31.81	
2025-01-18 08:24:08.00	18.65	31.85	
2025-01-18 08:24:08.20	18.66	31.90	
2025-01-18 08:24:08.41	18.66	31.95	
2025-01-18 08:24:08.61	18.66	32.00	
2025-01-18 08:24:08.81	18.67	32.04	
2025-01-18 08:24:09.02	18.67	32.09	
2025-01-18 08:24:09.22	18.67	32.14	
2025-01-18 08:24:09.42	18.68	32.19	
2025-01-18 08:24:09.63	18.68	32.24	
2025-01-18 08:24:09.83	18.68	32.29	
2025-01-18 08:24:10.03	18.69	32.33	
2025-01-18 08:24:10.24	18.69	32.38	
2025-01-18 08:24:10.44	18.69	32.43	
2025-01-18 08:24:10.64	18.70	32.48	
2025-01-18 08:24:10.85	18.70	32.53	
2025-01-18 08:24:11.05	18.70	32.58	
2025-01-18 08:24:11.25	18.71	32.63	
2025-01-18 08:24:11.45	18.71	32.67	
2025-01-18 08:24:11.66	18.71	32.73	
2025-01-18 08:24:11.86	18.72	32.77	
2025-01-18 08:24:12.06	18.72	32.82	
2025-01-18 08:24:12.27	18.72	32.87	
2025-01-18 08:24:12.47	18.73	32.92	
2025-01-18 08:24:12.67	18.73	32.97	
2025-01-18 08:24:12.88	18.73	33.02	
2025-01-18 08:24:13.08	18.74	33.07	
2025-01-18 08:24:13.28	18.74	33.12	
2025-01-18 08:24:13.49	18.74	33.17	
2025-01-18 08:24:13.69	18.75	33.22	
2025-01-18 08:24:13.89	18.75	33.27	
2025-01-18 08:24:14.09	18.75	33.32	
2025-01-18 08:24:14.30	18.76	33.37	
2025-01-18 08:24:14.50	18.76	33.42	
2025-01-18 08:24:14.70	18.76	33.47	
2025-01-18 08:24:14.91	18.77	33.52	
2025-01-18 08:24:15.11	18.77	33.57	
2025-01-18 08:24:15.31	18.77	33.62	
2025-01-18 08:24:15.52	18.78	33.67	
2025-01-18 08:24:15.72	18.78	33.72	
2025-01-18 08:24:15.92	18.78	33.77	
2025-01-18 08:24:16.13	18.79	33.83	
2025-01-18 08:24:16.33	18.79	33.88	
2025-01-18 08:24:16.53	18.79	33.93	
2025-01-18 08:24:16.74	18.80	33.98	
2025-01-18 08:24:16.94	18.80	34.03	
2025-01-18 08:24:17.14	18.81	34.08	
2025-01-18 08:24:17.34	18.81	34.13	
2025-01-18 08:24:17.55	18.81	34.19	
2025-01-18 08:24:17.75	18.82	34.24	
2025-01-18 08:24:17.95	18.82	34.29	
2025-01-18 08:24:18.16	18.82	34.34	
2025-01-18 08:24:18.36	18.83	34.39	
2025-01-18 08:24:18.56	18.83	34.44	
2025-01-18 08:24:18.77	18.83	34.50	
2025-01-18 08:24:18.97	18.84	34.55	
2025-01-18 08:24:19.17	18.84	34.60	
2025-01-18 08:24:19.38	18.84	34.65	
2025-01-18 08:24:19.58	18.85	34.71	
2025-01-18 08:24:19.78	18.85	34.76	
2025-01-18 08:24:19.99	18.86	34.81	
2025-01-18 08:24:20.19	18.86	34.86	
2025-01-18 08:24:20.39	18.86	34.92	
2025-01-18 08:24:20.59	18.87	34.97	
2025-01-18 08:24:20.80	18.87	35.02	
2025-01-18 08:24:21.00	18.87	35.08	
2025-01-18 08:24:21.20	18.88	35.13	
2025-01-18 08:24:21.41	18.88	35.18	
2025-01-18 08:24:21.61	18.89	35.24	
2025-01-18 08:24:21.81	18.89	35.29	
2025-01-18 08:24:22.02	18.89	35.34	
2025-01-18 08:24:22.22	18.90	35.40	
2025-01-18 08:24:22.42	18.90	35.45	
2025-01-18 08:24:22.63	18.90	35.51	
2025-01-18 08:24:22.83	18.91	35.56	
2025-01-18 08:24:23.03	18.91	35.61	
2025-01-18 08:24:23.23	18.92	35.67	
2025-01-18 08:24:23.44	18.92	35.72	
2025-01-18 08:24:23.64	18.92	35.78	
2025-01-18 08:24:23.84	18.93	35.83	
2025-01-18 08:24:24.05	18.93	35.89	
2025-01-18 08:24:24.25	18.93	35.94	
2025-01-18 08:24:24.45	18.94	35.99	
2025-01-18 08:24:24.66	18.94	36.05	
2025-01-18 08:24:24.86	18.95	36.11	
2025-01-18 08:24:25.06	18.95	36.16	
2025-01-18 08:24:25.27	18.95	36.22	
2025-01-18 08:24:25.47	18.96	36.27	
2025-01-18 08:24:25.67	18.96	36.33	
2025-01-18 08:24:25.88	18.97	36.38	
2025-01-18 08:24:26.08	18.97	36.44	
2025-01-18 08:24:26.28	18.97	36.49	
2025-01-18 08:24:26.48	18.98	36.55	
2025-01-18 08:24:26.69	18.98	36.61	
2025-01-18 08:24:26.89	18.99	36.66	
2025-01-18 08:24:27.09	18.99	36.72	
2025-01-18 08:24:27.30	18.99	36.77	
2025-01-18 08:24:27.50	19.00	36.83	
2025-01-18 08:24:27.70	19.00	36.89	
2025-01-18 08:24:27.91	19.01	36.94	
2025-01-18 08:24:28.11	19.01	37.00	
2025-01-18 08:24:28.31	19.01	37.06	
2025-01-18 08:24:28.52	19.02	37.11	
2025-01-18 08:24:28.72	19.02	37.17	
2025-01-18 08:24:28.92	19.03	37.23	
2025-01-18 08:24:29.13	19.03	37.29	
2025-01-18 08:24:29.33	19.03	37.34	
2025-01-18 08:24:29.53	19.04	37.40	
2025-01-18 08:24:29.73	19.04	37.46	
2025-01-18 08:24:29.94	19.05	37.52	
2025-01-18 08:24:30.14	19.05	37.57	
2025-01-18 08:24:30.34	19.06	37.63	
2025-01-18 08:24:30.55	19.06	37.69	
2025-01-18 08:24:30.75	19.06	37.75	
2025-01-18 08:24:30.95	19.07	37.80	
2025-01-18 08:24:31.16	19.07	37.86	
2025-01-18 08:24:31.36	19.08	37.92	
2025-01-18 08:24:31.56	19.08	37.98	
2025-01-18 08:24:31.77	19.09	38.04	
2025-01-18 08:24:31.97	19.09	38.10	
2025-01-18 08:24:32.17	19.09	38.15	
2025-01-18 08:24:32.37	19.10	38.21	
2025-01-18 08:24:32.58	19.10	38.27	
2025-01-18 08:24:32.78	19.11	38.33	
2025-01-18 08:24:32.98	19.11	38.39	
2025-01-18 08:24:33.19	19.12	38.45	
2025-01-18 08:24:33.39	19.12	38.51	
2025-01-18 08:24:33.59	19.12	38.57	
2025-01-18 08:24:33.80	19.13	38.63	
2025-01-18 08:24:34.00	19.13	38.69	
2025-01-18 08:24:34.20	19.14	38.75	
2025-01-18 08:24:34.41	19.14	38.81	
2025-01-18 08:24:34.61	19.15	38.87	
2025-01-18 08:24:34.81	19.15	38.93	
2025-01-18 08:24:35.02	19.16	38.99	
2025-01-18 08:24:35.22	19.16	39.05	
2025-01-18 08:24:35.42	19.16	39.11	
2025-01-18 08:24:35.62	19.17	39.17	
2025-01-18 08:24:35.83	19.17	39.23	
2025-01-18 08:24:36.03	19.18	39.29	
2025-01-18 08:24:36.23	19.18	39.35	
2025-01-18 08:24:36.44	19.19	39.42	
2025-01-18 08:24:36.64	19.19	39.48	
2025-01-18 08:24:36.84	19.20	39.54	
2025-01-18 08:24:37.05	19.20	39.60	
2025-01-18 08:24:37.25	19.21	39.66	
2025-01-18 08:24:37.45	19.21	39.72	
2025-01-18 08:24:37.66	19.22	39.79	
2025-01-18 08:24:37.86	19.22	39.85	
2025-01-18 08:24:38.06	19.23	39.91	
2025-01-18 08:24:38.26	19.23	39.97	
2025-01-18 08:24:38.47	19.23	40.03	
2025-01-18 08:24:38.67	19.24	40.09	
2025-01-18 08:24:38.87	19.24	40.16	
2025-01-18 08:24:39.08	19.25	40.22	
2025-01-18 08:24:39.28	19.25	40.28	
2025-01-18 08:24:39.48	19.26	40.34	
2025-01-18 08:24:39.69	19.26	40.41	
2025-01-18 08:24:39.89	19.27	40.47	
2025-01-18 08:24:40.09	19.27	40.53	
2025-01-18 08:24:40.30	19.28	40.60	
2025-01-18 08:24:40.50	19.28	40.66	
2025-01-18 08:24:40.70	19.29	40.72	
2025-01-18 08:24:40.91	19.29	40.79	
2025-01-18 08:24:41.11	19.30	40.85	
2025-01-18 08:24:41.31	19.30	40.92	
2025-01-18 08:24:41.51	19.31	40.98	
2025-01-18 08:24:41.72	19.31	41.05	
2025-01-18 08:24:41.92	19.32	41.11	
2025-01-18 08:24:42.12	19.32	41.17	
2025-01-18 08:24:42.33	19.33	41.24	
2025-01-18 08:24:42.53	19.33	41.30	
2025-01-18 08:24:42.73	19.34	41.37	
2025-01-18 08:24:42.94	19.34	41.43	
2025-01-18 08:24:43.14	19.35	41.50	
2025-01-18 08:24:43.34	19.35	41.56	
2025-01-18 08:24:43.55	19.36	41.63	
2025-01-18 08:24:43.75	19.36	41.69	
2025-01-18 08:24:43.95	19.37	41.76	
2025-01-18 08:24:44.16	19.38	41.83	
2025-01-18 08:24:44.36	19.38	41.89	
2025-01-18 08:24:44.56	19.39	41.96	
2025-01-18 08:24:44.76	19.39	42.02	
2025-01-18 08:24:44.97	19.40	42.09	
2025-01-18 08:24:45.17	19.40	42.15	
2025-01-18 08:24:45.37	19.41	42.22	
2025-01-18 08:24:45.58	19.41	42.29	
2025-01-18 08:24:45.78	19.42	42.35	
2025-01-18 08:24:45.98	19.42	42.42	
2025-01-18 08:24:46.19	19.43	42.49	
2025-01-18 08:24:46.39	19.43	42.56	
2025-01-18 08:24:46.59	19.44	42.62	
2025-01-18 08:24:46.80	19.44	42.69	
2025-01-18 08:24:47.00	19.45	42.76	
2025-01-18 08:24:47.20	19.46	42.82	
2025-01-18 08:24:47.40	19.46	42.89	
2025-01-18 08:24:47.61	19.47	42.96	
2025-01-18 08:24:47.81	19.47	43.03	
2025-01-18 08:24:48.01	19.48	43.09	
2025-01-18 08:24:48.22	19.48	43.16	
2025-01-18 08:24:48.42	19.49	43.23	
2025-01-18 08:24:48.62	19.49	43.30	
2025-01-18 08:24:48.83	19.50	43.37	
2025-01-18 08:24:49.03	19.51	43.44	
2025-01-18 08:24:49.23	19.51	43.51	
2025-01-18 08:24:49.44	19.52	43.58	
2025-01-18 08:24:49.64	19.52	43.64	
2025-01-18 08:24:49.84	19.53	43.71	
2025-01-18 08:24:50.05	19.54	43.78	
2025-01-18 08:24:50.25	19.54	43.85	
2025-01-18 08:24:50.45	19.55	43.92	
2025-01-18 08:24:50.65	19.55	43.99	
2025-01-18 08:24:50.86	19.56	44.06	
2025-01-18 08:24:51.06	19.56	44.13	
2025-01-18 08:24:51.26	19.57	44.20	
2025-01-18 08:24:51.47	19.58	44.27	
2025-01-18 08:24:51.67	19.58	44.34	
2025-01-18 08:24:51.87	19.59	44.41	
2025-01-18 08:24:52.08	19.59	44.48	
2025-01-18 08:24:52.28	19.60	44.55	
2025-01-18 08:24:52.48	19.61	44.62	
2025-01-18 08:24:52.69	19.61	44.70	
2025-01-18 08:24:52.89	19.62	44.77	
2025-01-18 08:24:53.09	19.63	44.84	
2025-01-18 08:24:53.29	19.63	44.91	
2025-01-18 08:24:53.50	19.64	44.98	
2025-01-18 08:24:53.70	19.64	45.05	
2025-01-18 08:24:53.90	19.65	45.12	
2025-01-18 08:24:54.11	19.66	45.20	
2025-01-18 08:24:54.31	19.66	45.27	
2025-01-18 08:24:54.51	19.67	45.34	
2025-01-18 08:24:54.72	19.68	45.42	
2025-01-18 08:24:54.92	19.68	45.49	
2025-01-18 08:24:55.12	19.69	45.56	
2025-01-18 08:24:55.33	19.70	45.63	
2025-01-18 08:24:55.53	19.70	45.71	
2025-01-18 08:24:55.73	19.71	45.78	
2025-01-18 08:24:55.94	19.71	45.85	
2025-01-18 08:24:56.14	19.72	45.93	
2025-01-18 08:24:56.34	19.73	46.00	
2025-01-18 08:24:56.54	19.73	46.07	
2025-01-18 08:24:56.75	19.74	46.15	
2025-01-18 08:24:56.95	19.75	46.22	
2025-01-18 08:24:57.15	19.75	46.29	
2025-01-18 08:24:57.36	19.76	46.37	
2025-01-18 08:24:57.56	19.77	46.44	
2025-01-18 08:24:57.76	19.77	46.52	
2025-01-18 08:24:57.97	19.78	46.59	
2025-01-18 08:24:58.17	19.79	46.67	
2025-01-18 08:24:58.37	19.80	46.74	
2025-01-18 08:24:58.58	19.80	46.82	
2025-01-18 08:24:58.78	19.81	46.89	
2025-01-18 08:24:58.98	19.82	46.97	
2025-01-18 08:24:59.19	19.82	47.04	
2025-01-18 08:24:59.39	19.83	47.12	
2025-01-18 08:24:59.59	19.84	47.19	
2025-01-18 08:24:59.79	19.84	47.27	
2025-01-18 08:25:00.00	19.85	47.35	
2025-01-18 08:25:00.20	19.86	47.42	
2025-01-18 08:25:00.40	19.87	47.50	
2025-01-18 08:25:00.61	19.87	47.58	
2025-01-18 08:25:00.81	19.88	47.65	
2025-01-18 08:25:01.01	19.89	47.73	
2025-01-18 08:25:01.22	19.89	47.81	
2025-01-18 08:25:01.42	19.90	47.88	
2025-01-18 08:25:01.62	19.91	47.96	
2025-01-18 08:25:01.83	19.92	48.04	
2025-01-18 08:25:02.03	19.92	48.11	
2025-01-18 08:25:02.23	19.93	48.19	
2025-01-18 08:25:02.43	19.94	48.27	
2025-01-18 08:25:02.64	19.95	48.35	
2025-01-18 08:25:02.84	19.95	48.42	
2025-01-18 08:25:03.04	19.96	48.50	
2025-01-18 08:25:03.25	19.97	48.58	
2025-01-18 08:25:03.45	19.98	48.66	
2025-01-18 08:25:03.65	19.98	48.74	
2025-01-18 08:25:03.86	19.99	48.82	
2025-01-18 08:25:04.06	20.00	48.90	
2025-01-18 08:25:04.26	20.01	48.97	
2025-01-18 08:25:04.47	20.02	49.06	
2025-01-18 08:25:04.67	20.02	49.13	
2025-01-18 08:25:04.87	20.03	49.21	
2025-01-18 08:25:05.08	20.04	49.30	
2025-01-18 08:25:05.28	20.05	49.37	
2025-01-18 08:25:05.48	20.06	49.45	
2025-01-18 08:25:05.68	20.06	49.53	
2025-01-18 08:25:05.89	20.07	49.61	
2025-01-18 08:25:06.09	20.08	49.69	
2025-01-18 08:25:06.29	20.09	49.77	
2025-01-18 08:25:06.50	20.10	49.86	
2025-01-18 08:25:06.70	20.11	49.94	
2025-01-18 08:25:06.90	20.11	50.02	
2025-01-18 08:25:07.11	20.12	50.10	
2025-01-18 08:25:07.31	20.13	50.18	
2025-01-18 08:25:07.51	20.14	50.26	
2025-01-18 08:25:07.72	20.15	50.34	
2025-01-18 08:25:07.92	20.16	50.43	
2025-01-18 08:25:08.12	20.16	50.51	
2025-01-18 08:25:08.32	20.17	50.59	
2025-01-18 08:25:08.53	20.18	50.67	
2025-01-18 08:25:08.73	20.19	50.75	
2025-01-18 08:25:08.93	20.20	50.83	
2025-01-18 08:25:09.14	20.21	50.92	
2025-01-18 08:25:09.34	20.22	51.00	
2025-01-18 08:25:09.54	20.23	51.08	
2025-01-18 08:25:09.75	20.23	51.17	
2025-01-18 08:25:09.95	20.24	51.25	
2025-01-18 08:25:10.15	20.25	51.33	
2025-01-18 08:25:10.36	20.26	51.42	
2025-01-18 08:25:10.56	20.27	51.50	
2025-01-18 08:25:10.76	20.28	51.59	
2025-01-18 08:25:10.97	20.29	51.67	
2025-01-18 08:25:11.17	20.30	51.75	
2025-01-18 08:25:11.37	20.31	51.84	
2025-01-18 08:25:11.57	20.32	51.92	
2025-01-18 08:25:11.78	20.33	52.01	
2025-01-18 08:25:11.98	20.34	52.09	
2025-01-18 08:25:12.18	20.35	52.18	
2025-01-18 08:25:12.39	20.36	52.26	
2025-01-18 08:25:12.59	20.36	52.35	
2025-01-18 08:25:12.79	20.37	52.43	
2025-01-18 08:25:13.00	20.38	52.52	
2025-01-18 08:25:13.20	20.39	52.61	
2025-01-18 08:25:13.40	20.40	52.69	
2025-01-18 08:25:13.61	20.41	52.78	
2025-01-18 08:25:13.81	20.42	52.86	
2025-01-18 08:25:14.01	20.43	52.95	
2025-01-18 08:25:14.22	20.44	53.04	
2025-01-18 08:25:14.42	20.45	53.12	
2025-01-18 08:25:14.62	20.46	53.21	
2025-01-18 08:25:14.82	20.47	53.30	
2025-01-18 08:25:15.03	20.48	53.39	
2025-01-18 08:25:15.23	20.49	53.47	
2025-01-18 08:25:15.43	20.51	53.56	
2025-01-18 08:25:15.64	20.52	53.65	
2025-01-18 08:25:15.84	20.53	53.73	
2025-01-18 08:25:16.04	20.54	53.82	
2025-01-18 08:25:16.25	20.55	53.91	
2025-01-18 08:25:16.45	20.56	54.00	
2025-01-18 08:25:16.65	20.57	54.09	
2025-01-18 08:25:16.86	20.58	54.18	
2025-01-18 08:25:17.06	20.59	54.27	
2025-01-18 08:25:17.26	20.60	54.35	
2025-01-18 08:25:17.46	20.61	54.44	
2025-01-18 08:25:17.67	20.62	54.53	
2025-01-18 08:25:17.87	20.63	54.62	
2025-01-18 08:25:18.07	20.65	54.71	
2025-01-18 08:25:18.28	20.66	54.80	
2025-01-18 08:25:18.48	20.67	54.89	
2025-01-18 08:25:18.68	20.68	54.98	
2025-01-18 08:25:18.89	20.69	55.07	
2025-01-18 08:25:19.09	20.70	55.16	
2025-01-18 08:25:19.29	20.71	55.25	
2025-01-18 08:25:19.50	20.73	55.34	
2025-01-18 08:25:19.70	20.74	55.43	
2025-01-18 08:25:19.90	20.75	55.52	
2025-01-18 08:25:20.11	20.76	55.62	
2025-01-18 08:25:20.31	20.77	55.71	
2025-01-18 08:25:20.51	20.79	55.80	
2025-01-18 08:25:20.71	20.80	55.89	
2025-01-18 08:25:20.92	20.81	55.98	
2025-01-18 08:25:21.12	20.82	56.07	
2025-01-18 08:25:21.32	20.83	56.16	
2025-01-18 08:25:21.53	20.85	56.26	
2025-01-18 08:25:21.73	20.86	56.35	
2025-01-18 08:25:21.93	20.87	56.44	
2025-01-18 08:25:22.14	20.88	56.54	
2025-01-18 08:25:22.34	20.90	56.63	
2025-01-18 08:25:22.54	20.91	56.72	
2025-01-18 08:25:22.75	20.92	56.82	
2025-01-18 08:25:22.95	20.94	56.91	
2025-01-18 08:25:23.15	20.95	57.00	
2025-01-18 08:25:23.35	20.96	57.09	
2025-01-18 08:25:23.56	20.98	57.19	
2025-01-18 08:25:23.76	20.99	57.28	
2025-01-18 08:25:23.96	21.00	57.38	
2025-01-18 08:25:24.17	21.02	57.47	
2025-01-18 08:25:24.37	21.03	57.57	
2025-01-18 08:25:24.57	21.04	57.66	
2025-01-18 08:25:24.78	21.06	57.76	
2025-01-18 08:25:24.98	21.07	57.85	
2025-01-18 08:25:25.18	21.08	57.94	
2025-01-18 08:25:25.39	21.10	58.04	
2025-01-18 08:25:25.59	21.11	58.14	
2025-01-18 08:25:25.79	21.13	58.23	
2025-01-18 08:25:26.00	21.14	58.33	
2025-01-18 08:25:26.20	21.16	58.42	
2025-01-18 08:25:26.40	21.17	58.52	
2025-01-18 08:25:26.60	21.18	58.61	
2025-01-18 08:25:26.81	21.20	58.71	
2025-01-18 08:25:27.01	21.21	58.81	
2025-01-18 08:25:27.21	21.23	58.90	
2025-01-18 08:25:27.42	21.24	59.00	
2025-01-18 08:25:27.62	21.26	59.10	
2025-01-18 08:25:27.82	21.27	59.20	
2025-01-18 08:25:28.03	21.29	59.30	
2025-01-18 08:25:28.23	21.31	59.39	
2025-01-18 08:25:28.43	21.32	59.49	
2025-01-18 08:25:28.64	21.34	59.59	
2025-01-18 08:25:28.84	21.35	59.69	
2025-01-18 08:25:29.04	21.37	59.78	
2025-01-18 08:25:29.25	21.39	59.88	
2025-01-18 08:25:29.45	21.40	59.98	
2025-01-18 08:25:29.65	21.42	60.08	
2025-01-18 08:25:29.85	21.43	60.18	
2025-01-18 08:25:30.06	21.45	60.28	
2025-01-18 08:25:30.26	21.47	60.38	
2025-01-18 08:25:30.46	21.48	60.47	
2025-01-18 08:25:30.67	21.50	60.58	
2025-01-18 08:25:30.87	21.52	60.67	
2025-01-18 08:25:31.07	21.53	60.77	
2025-01-18 08:25:31.28	21.55	60.88	
2025-01-18 08:25:31.48	21.57	60.97	
2025-01-18 08:25:31.68	21.59	61.07	
2025-01-18 08:25:31.89	21.61	61.18	
2025-01-18 08:25:32.09	21.62	61.28	
2025-01-18 08:25:32.29	21.64	61.38	
2025-01-18 08:25:32.49	21.66	61.47	
2025-01-18 08:25:32.70	21.68	61.58	
2025-01-18 08:25:32.90	21.70	61.68	
2025-01-18 08:25:33.10	21.71	61.78	
2025-01-18 08:25:33.31	21.73	61.88	
2025-01-18 08:25:33.51	21.75	61.98	
2025-01-18 08:25:33.71	21.77	62.08	
2025-01-18 08:25:33.92	21.79	62.19	
2025-01-18 08:25:34.12	21.81	62.29	
2025-01-18 08:25:34.32	21.83	62.39	
2025-01-18 08:25:34.53	21.85	62.50	
2025-01-18 08:25:34.73	21.87	62.60	
2025-01-18 08:25:34.93	21.89	62.70	
2025-01-18 08:25:35.14	21.91	62.81	
2025-01-18 08:25:35.34	21.93	62.91	
2025-01-18 08:25:35.54	21.95	63.01	
2025-01-18 08:25:35.74	21.97	63.11	
2025-01-18 08:25:35.95	21.99	63.22	
2025-01-18 08:25:36.15	22.01	63.32	
2025-01-18 08:25:36.35	22.03	63.42	
2025-01-18 08:25:36.56	22.05	63.53	
2025-01-18 08:25:36.76	22.08	63.63	
2025-01-18 08:25:36.96	22.10	63.73	
2025-01-18 08:25:37.17	22.12	63.84	
2025-01-18 08:25:37.37	22.14	63.95	
2025-01-18 08:25:37.57	22.16	64.05	
2025-01-18 08:25:37.78	22.19	64.16	
2025-01-18 08:25:37.98	22.21	64.26	
2025-01-18 08:25:38.18	22.23	64.36	
2025-01-18 08:25:38.39	22.25	64.47	
2025-01-18 08:25:38.59	22.28	64.58	
2025-01-18 08:25:38.79	22.30	64.68	
2025-01-18 08:25:38.99	22.32	64.79	
2025-01-18 08:25:39.20	22.35	64.89	
2025-01-18 08:25:39.40	22.37	65.00	
2025-01-18 08:25:39.60	22.40	65.10	
2025-01-18 08:25:39.81	22.42	65.21	
2025-01-18 08:25:40.01	22.45	65.32	
2025-01-18 08:25:40.21	22.47	65.42	
2025-01-18 08:25:40.42	22.50	65.53	
2025-01-18 08:25:40.62	22.52	65.64	
2025-01-18 08:25:40.82	22.55	65.75	
2025-01-18 08:25:41.03	22.58	65.86	
2025-01-18 08:25:41.23	22.60	65.96	
2025-01-18 08:25:41.43	22.63	66.07	
2025-01-18 08:25:41.63	22.65	66.17	
2025-01-18 08:25:41.84	22.68	66.29	
2025-01-18 08:25:42.04	22.71	66.39	
2025-01-18 08:25:42.24	22.74	66.50	
2025-01-18 08:25:42.45	22.76	66.61	
2025-01-18 08:25:42.65	22.79	66.72	
2025-01-18 08:25:42.85	22.82	66.82	
2025-01-18 08:25:43.06	22.85	66.94	
2025-01-18 08:25:43.26	22.88	67.04	
2025-01-18 08:25:43.46	22.91	67.15	
2025-01-18 08:25:43.67	22.94	67.26	
2025-01-18 08:25:43.87	22.97	67.37	
2025-01-18 08:25:44.07	23.00	67.48	
2025-01-18 08:25:44.28	23.03	67.59	
2025-01-18 08:25:44.48	23.06	67.70	
2025-01-18 08:25:44.68	23.09	67.81	
2025-01-18 08:25:44.88	23.12	67.92	
2025-01-18 08:25:45.09	23.15	68.03	
2025-01-18 08:25:45.29	23.19	68.14	
2025-01-18 08:25:45.49	23.22	68.25	
2025-01-18 08:25:45.70	23.25	68.36	
2025-01-18 08:25:45.90	23.28	68.47	
2025-01-18 08:25:46.10	23.32	68.58	
2025-01-18 08:25:46.31	23.35	68.70	
2025-01-18 08:25:46.51	23.39	68.81	
2025-01-18 08:25:46.71	23.42	68.91	
2025-01-18 08:25:46.92	23.46	69.03	
2025-01-18 08:25:47.12	23.49	69.14	
2025-01-18 08:25:47.32	23.53	69.25	
2025-01-18 08:25:47.52	23.56	69.36	
2025-01-18 08:25:47.73	23.60	69.48	
2025-01-18 08:25:47.93	23.64	69.59	
2025-01-18 08:25:48.13	23.67	69.70	
2025-01-18 08:25:48.34	23.71	69.81	
2025-01-18 08:25:48.54	23.75	69.92	
2025-01-18 08:25:48.74	23.79	70.03	
2025-01-18 08:25:48.95	23.83	70.15	
2025-01-18 08:25:49.15	23.87	70.26	
2025-01-18 08:25:49.35	23.91	70.37	
2025-01-18 08:25:49.56	23.95	70.49	
2025-01-18 08:25:49.76	23.99	70.60	
2025-01-18 08:25:49.96	24.03	70.71	
2025-01-18 08:25:50.17	24.08	70.83	
2025-01-18 08:25:50.37	24.12	70.94	
2025-01-18 08:25:50.57	24.16	71.05	
2025-01-18 08:25:50.77	24.21	71.17	
2025-01-18 08:25:50.98	24.25	71.28	
2025-01-18 08:25:51.18	24.30	71.40	
2025-01-18 08:25:51.38	24.34	71.51	
2025-01-18 08:25:51.59	24.39	71.63	
2025-01-18 08:25:51.79	24.44	71.74	
2025-01-18 08:25:51.99	24.48	71.85	
2025-01-18 08:25:52.20	24.53	71.97	
2025-01-18 08:25:52.40	24.58	72.08	
2025-01-18 08:25:52.60	24.63	72.20	
2025-01-18 08:25:52.81	24.68	72.32	
2025-01-18 08:25:53.01	24.73	72.43	
2025-01-18 08:25:53.21	24.78	72.54	
2025-01-18 08:25:53.42	24.84	72.66	
2025-01-18 08:25:53.62	24.89	72.77	
2025-01-18 08:25:53.82	24.94	72.89	
2025-01-18 08:25:54.02	24.99	73.00	
2025-01-18 08:25:54.23	25.05	73.12	
2025-01-18 08:25:54.43	25.11	73.24	
2025-01-18 08:25:54.63	25.16	73.35	
2025-01-18 08:25:54.84	25.22	73.47	
2025-01-18 08:25:55.04	25.28	73.58	
2025-01-18 08:25:55.24	25.34	73.70	
2025-01-18 08:25:55.45	25.40	73.82	
2025-01-18 08:25:55.65	25.46	73.93	
2025-01-18 08:25:55.85	25.52	74.05	
2025-01-18 08:25:56.06	25.59	74.17	
2025-01-18 08:25:56.26	25.65	74.28	
2025-01-18 08:25:56.46	25.71	74.40	
2025-01-18 08:25:56.66	25.78	74.51	
2025-01-18 08:25:56.87	25.85	74.64	
2025-01-18 08:25:57.07	25.92	74.75	
2025-01-18 08:25:57.27	25.98	74.87	
2025-01-18 08:25:57.48	26.06	74.99	
2025-01-18 08:25:57.68	26.13	75.10	
2025-01-18 08:25:57.88	26.20	75.22	
2025-01-18 08:25:58.09	26.27	75.34	
2025-01-18 08:25:58.29	26.35	75.46	
2025-01-18 08:25:58.49	26.42	75.57	
2025-01-18 08:25:58.70	26.50	75.69	
2025-01-18 08:25:58.90	26.58	75.81	
2025-01-18 08:25:59.10	26.66	75.93	
2025-01-18 08:25:59.31	26.75	76.05	
2025-01-18 08:25:59.51	26.83	76.16	
2025-01-18 08:25:59.71	26.91	76.28	
2025-01-18 08:25:59.91	27.00	76.40	
2025-01-18 08:26:00.12	27.09	76.52	
2025-01-18 08:26:00.32	27.17	76.64	
2025-01-18 08:26:00.52	27.26	76.75	
2025-01-18 08:26:00.73	27.36	76.88	
2025-01-18 08:26:00.93	27.45	76.99	
2025-01-18 08:26:01.13	27.55	77.11	
2025-01-18 08:26:01.34	27.65	77.23	
2025-01-18 08:26:01.54	27.75	77.35	
2025-01-18 08:26:01.74	27.85	77.47	
2025-01-18 08:26:01.95	27.95	77.59	
2025-01-18 08:26:02.15	28.06	77.71	
2025-01-18 08:26:02.35	28.16	77.82	
2025-01-18 08:26:02.55	28.27	77.94	
2025-01-18 08:26:02.76	28.39	78.06	
2025-01-18 08:26:02.96	28.50	78.18	
2025-01-18 08:26:03.16	28.61	78.30	
2025-01-18 08:26:03.37	28.74	78.42	
2025-01-18 08:26:03.57	28.86	78.54	
