passes_logs/2025/01/18/SPB_Silybum_02/SPB_Silybum_02__20250118_123248_SUOMI_NPP_rec.log

#Pass ID: 20250118_123248_SUOMI NPP
#Satellite: SUOMI NPP
#Configuration: NPP
#Start time: 2025-01-18 12:32:49

#Version: 2.0.20230423
#Station: SPB_Silybum_02
#Location: 30.233357 lon 59.946436 lat
#TLE: 1 37849U 11061A   25017.80975554  .00000187  00000+0  10930-3 0  9999
#TLE: 2 37849  98.7450 318.7628 0001577  36.7528 323.3756 14.19539590685310

#Time	Az	El	Level	Level2	SNR	BER	Gain	Gain2
2025-01-18 12:32:51.15	231.10	4.12	
2025-01-18 12:32:51.35	231.13	4.13	
2025-01-18 12:32:51.55	231.15	4.14	
2025-01-18 12:32:51.75	231.17	4.15	
2025-01-18 12:32:51.96	231.19	4.16	
2025-01-18 12:32:52.16	231.21	4.17	
2025-01-18 12:32:52.36	231.23	4.18	
2025-01-18 12:32:52.57	231.26	4.19	
2025-01-18 12:32:52.77	231.28	4.20	
2025-01-18 12:32:52.97	231.30	4.21	
2025-01-18 12:32:53.18	231.32	4.22	
2025-01-18 12:32:53.38	231.34	4.23	
2025-01-18 12:32:53.58	231.36	4.24	
2025-01-18 12:32:53.78	231.38	4.25	
2025-01-18 12:32:53.99	231.41	4.26	
2025-01-18 12:32:54.19	231.43	4.27	
2025-01-18 12:32:54.39	231.45	4.28	
2025-01-18 12:32:54.60	231.47	4.29	
2025-01-18 12:32:54.80	231.49	4.30	
2025-01-18 12:32:55.00	231.52	4.31	
2025-01-18 12:32:55.21	231.54	4.32	
2025-01-18 12:32:55.41	231.56	4.33	
2025-01-18 12:32:55.61	231.58	4.34	
2025-01-18 12:32:55.81	231.60	4.35	
2025-01-18 12:32:56.02	231.63	4.36	
2025-01-18 12:32:56.22	231.65	4.37	
2025-01-18 12:32:56.42	231.67	4.38	
2025-01-18 12:32:56.63	231.69	4.39	
2025-01-18 12:32:56.83	231.71	4.40	
2025-01-18 12:32:57.03	231.73	4.41	
2025-01-18 12:32:57.24	231.76	4.42	
2025-01-18 12:32:57.44	231.78	4.43	
2025-01-18 12:32:57.64	231.80	4.44	
2025-01-18 12:32:57.84	231.82	4.45	
2025-01-18 12:32:58.05	231.84	4.46	
2025-01-18 12:32:58.25	231.87	4.47	
2025-01-18 12:32:58.45	231.89	4.48	
2025-01-18 12:32:58.66	231.91	4.49	
2025-01-18 12:32:58.86	231.93	4.50	
2025-01-18 12:32:59.06	231.95	4.51	
2025-01-18 12:32:59.27	231.98	4.52	
2025-01-18 12:32:59.47	232.00	4.53	
2025-01-18 12:32:59.67	232.02	4.54	
2025-01-18 12:32:59.87	232.04	4.55	
2025-01-18 12:33:00.08	232.07	4.56	
2025-01-18 12:33:00.28	232.09	4.57	
2025-01-18 12:33:00.48	232.11	4.58	
2025-01-18 12:33:00.69	232.13	4.59	
2025-01-18 12:33:00.89	232.15	4.60	
2025-01-18 12:33:01.09	232.18	4.61	
2025-01-18 12:33:01.30	232.20	4.62	
2025-01-18 12:33:01.50	232.22	4.62	
2025-01-18 12:33:01.70	232.24	4.63	
2025-01-18 12:33:01.90	232.26	4.64	
2025-01-18 12:33:02.11	232.29	4.65	
2025-01-18 12:33:02.31	232.31	4.66	
2025-01-18 12:33:02.51	232.33	4.67	
2025-01-18 12:33:02.72	232.35	4.68	
2025-01-18 12:33:02.92	232.38	4.69	
2025-01-18 12:33:03.12	232.40	4.70	
2025-01-18 12:33:03.33	232.42	4.71	
2025-01-18 12:33:03.53	232.44	4.72	
2025-01-18 12:33:03.73	232.47	4.73	
2025-01-18 12:33:03.93	232.49	4.74	
2025-01-18 12:33:04.14	232.51	4.75	
2025-01-18 12:33:04.34	232.53	4.76	
2025-01-18 12:33:04.54	232.56	4.77	
2025-01-18 12:33:04.75	232.58	4.78	
2025-01-18 12:33:04.95	232.60	4.79	
2025-01-18 12:33:05.15	232.62	4.80	
2025-01-18 12:33:05.36	232.65	4.81	
2025-01-18 12:33:05.56	232.67	4.82	
2025-01-18 12:33:05.76	232.69	4.83	
2025-01-18 12:33:05.96	232.71	4.84	
2025-01-18 12:33:06.17	232.74	4.85	
2025-01-18 12:33:06.37	232.76	4.86	
2025-01-18 12:33:06.57	232.78	4.87	
2025-01-18 12:33:06.78	232.80	4.88	
2025-01-18 12:33:06.98	232.83	4.89	
2025-01-18 12:33:07.18	232.85	4.90	
2025-01-18 12:33:07.38	232.87	4.91	
2025-01-18 12:33:07.59	232.89	4.92	
2025-01-18 12:33:07.79	232.92	4.93	
2025-01-18 12:33:07.99	232.94	4.94	
2025-01-18 12:33:08.20	232.96	4.95	
2025-01-18 12:33:08.40	232.99	4.96	
2025-01-18 12:33:08.60	233.01	4.97	
2025-01-18 12:33:08.81	233.03	4.98	
2025-01-18 12:33:09.01	233.05	4.99	
2025-01-18 12:33:09.21	233.08	5.00	
2025-01-18 12:33:09.41	233.10	5.01	
2025-01-18 12:33:09.62	233.12	5.02	
2025-01-18 12:33:09.82	233.14	5.03	
2025-01-18 12:33:10.02	233.17	5.04	
2025-01-18 12:33:10.23	233.19	5.05	
2025-01-18 12:33:10.43	233.21	5.06	
2025-01-18 12:33:10.63	233.24	5.07	
2025-01-18 12:33:10.84	233.26	5.08	
2025-01-18 12:33:11.04	233.28	5.09	
2025-01-18 12:33:11.24	233.31	5.10	
2025-01-18 12:33:11.44	233.33	5.11	
2025-01-18 12:33:11.65	233.35	5.12	
2025-01-18 12:33:11.85	233.37	5.13	
2025-01-18 12:33:12.05	233.40	5.13	
2025-01-18 12:33:12.26	233.42	5.14	
2025-01-18 12:33:12.46	233.44	5.15	
2025-01-18 12:33:12.66	233.47	5.16	
2025-01-18 12:33:12.87	233.49	5.17	
2025-01-18 12:33:13.07	233.51	5.18	
2025-01-18 12:33:13.27	233.54	5.19	
2025-01-18 12:33:13.47	233.56	5.20	
2025-01-18 12:33:13.68	233.58	5.21	
2025-01-18 12:33:13.88	233.60	5.22	
2025-01-18 12:33:14.08	233.63	5.23	
2025-01-18 12:33:14.29	233.65	5.24	
2025-01-18 12:33:14.49	233.67	5.25	
2025-01-18 12:33:14.69	233.70	5.26	
2025-01-18 12:33:14.90	233.72	5.27	
2025-01-18 12:33:15.10	233.74	5.28	
2025-01-18 12:33:15.30	233.77	5.29	
2025-01-18 12:33:15.50	233.79	5.30	
2025-01-18 12:33:15.71	233.81	5.31	
2025-01-18 12:33:15.91	233.84	5.32	
2025-01-18 12:33:16.11	233.86	5.33	
2025-01-18 12:33:16.32	233.88	5.34	
2025-01-18 12:33:16.52	233.91	5.35	
2025-01-18 12:33:16.72	233.93	5.36	
2025-01-18 12:33:16.93	233.95	5.37	
2025-01-18 12:33:17.13	233.98	5.38	
2025-01-18 12:33:17.33	234.00	5.39	
2025-01-18 12:33:17.53	234.02	5.40	
2025-01-18 12:33:17.74	234.05	5.41	
2025-01-18 12:33:17.94	234.07	5.42	
2025-01-18 12:33:18.14	234.09	5.43	
2025-01-18 12:33:18.35	234.12	5.44	
2025-01-18 12:33:18.55	234.14	5.45	
2025-01-18 12:33:18.75	234.16	5.46	
2025-01-18 12:33:18.96	234.19	5.47	
2025-01-18 12:33:19.16	234.21	5.48	
2025-01-18 12:33:19.36	234.24	5.49	
2025-01-18 12:33:19.56	234.26	5.50	
2025-01-18 12:33:19.77	234.28	5.51	
2025-01-18 12:33:19.97	234.31	5.52	
2025-01-18 12:33:20.17	234.33	5.53	
2025-01-18 12:33:20.38	234.35	5.54	
2025-01-18 12:33:20.58	234.38	5.55	
2025-01-18 12:33:20.78	234.40	5.56	
2025-01-18 12:33:20.98	234.42	5.57	
2025-01-18 12:33:21.19	234.45	5.58	
2025-01-18 12:33:21.39	234.47	5.59	
2025-01-18 12:33:21.59	234.50	5.60	
2025-01-18 12:33:21.80	234.52	5.61	
2025-01-18 12:33:22.00	234.54	5.62	
2025-01-18 12:33:22.20	234.57	5.63	
2025-01-18 12:33:22.41	234.59	5.64	
2025-01-18 12:33:22.61	234.61	5.64	
2025-01-18 12:33:22.81	234.64	5.65	
2025-01-18 12:33:23.01	234.66	5.66	
2025-01-18 12:33:23.22	234.69	5.67	
2025-01-18 12:33:23.42	234.71	5.68	
2025-01-18 12:33:23.62	234.73	5.69	
2025-01-18 12:33:23.83	234.76	5.70	
2025-01-18 12:33:24.03	234.78	5.71	
2025-01-18 12:33:24.23	234.80	5.72	
2025-01-18 12:33:24.44	234.83	5.73	
2025-01-18 12:33:24.64	234.85	5.74	
2025-01-18 12:33:24.84	234.88	5.75	
2025-01-18 12:33:25.04	234.90	5.76	
2025-01-18 12:33:25.25	234.93	5.77	
2025-01-18 12:33:25.45	234.95	5.78	
2025-01-18 12:33:25.65	234.97	5.79	
2025-01-18 12:33:25.86	235.00	5.80	
2025-01-18 12:33:26.06	235.02	5.81	
2025-01-18 12:33:26.26	235.04	5.82	
2025-01-18 12:33:26.47	235.07	5.83	
2025-01-18 12:33:26.67	235.09	5.84	
2025-01-18 12:33:26.87	235.12	5.85	
2025-01-18 12:33:27.07	235.14	5.86	
2025-01-18 12:33:27.28	235.17	5.87	
2025-01-18 12:33:27.48	235.19	5.88	
2025-01-18 12:33:27.68	235.21	5.89	
2025-01-18 12:33:27.89	235.24	5.90	
2025-01-18 12:33:28.09	235.26	5.91	
2025-01-18 12:33:28.29	235.29	5.92	
2025-01-18 12:33:28.50	235.31	5.93	
2025-01-18 12:33:28.70	235.34	5.94	
2025-01-18 12:33:28.90	235.36	5.95	
2025-01-18 12:33:29.10	235.38	5.96	
2025-01-18 12:33:29.31	235.41	5.97	
2025-01-18 12:33:29.51	235.43	5.98	
2025-01-18 12:33:29.71	235.46	5.99	
2025-01-18 12:33:29.92	235.48	6.00	
2025-01-18 12:33:30.12	235.51	6.01	
2025-01-18 12:33:30.32	235.53	6.02	
2025-01-18 12:33:30.53	235.55	6.03	
2025-01-18 12:33:30.73	235.58	6.04	
2025-01-18 12:33:30.93	235.60	6.05	
2025-01-18 12:33:31.13	235.63	6.06	
2025-01-18 12:33:31.34	235.65	6.07	
2025-01-18 12:33:31.54	235.68	6.08	
2025-01-18 12:33:31.74	235.70	6.08	
2025-01-18 12:33:31.95	235.73	6.09	
2025-01-18 12:33:32.15	235.75	6.10	
2025-01-18 12:33:32.35	235.77	6.11	
2025-01-18 12:33:32.56	235.80	6.12	
2025-01-18 12:33:32.76	235.82	6.13	
2025-01-18 12:33:32.96	235.85	6.14	
2025-01-18 12:33:33.16	235.87	6.15	
2025-01-18 12:33:33.37	235.90	6.16	
2025-01-18 12:33:33.57	235.92	6.17	
2025-01-18 12:33:33.77	235.95	6.18	
2025-01-18 12:33:33.98	235.97	6.19	
2025-01-18 12:33:34.18	236.00	6.20	
2025-01-18 12:33:34.38	236.02	6.21	
2025-01-18 12:33:34.59	236.05	6.22	
2025-01-18 12:33:34.79	236.07	6.23	
2025-01-18 12:33:34.99	236.09	6.24	
2025-01-18 12:33:35.19	236.12	6.25	
2025-01-18 12:33:35.40	236.14	6.26	
2025-01-18 12:33:35.60	236.17	6.27	
2025-01-18 12:33:35.80	236.19	6.28	
2025-01-18 12:33:36.01	236.22	6.29	
2025-01-18 12:33:36.21	236.24	6.30	
2025-01-18 12:33:36.41	236.27	6.31	
2025-01-18 12:33:36.61	236.29	6.32	
2025-01-18 12:33:36.82	236.32	6.33	
2025-01-18 12:33:37.02	236.34	6.34	
2025-01-18 12:33:37.22	236.37	6.35	
2025-01-18 12:33:37.43	236.39	6.36	
2025-01-18 12:33:37.63	236.42	6.37	
2025-01-18 12:33:37.83	236.44	6.38	
2025-01-18 12:33:38.04	236.47	6.39	
2025-01-18 12:33:38.24	236.49	6.40	
2025-01-18 12:33:38.44	236.52	6.41	
2025-01-18 12:33:38.64	236.54	6.42	
2025-01-18 12:33:38.85	236.57	6.43	
2025-01-18 12:33:39.05	236.59	6.44	
2025-01-18 12:33:39.25	236.62	6.45	
2025-01-18 12:33:39.46	236.64	6.46	
2025-01-18 12:33:39.66	236.67	6.47	
2025-01-18 12:33:39.86	236.69	6.47	
2025-01-18 12:33:40.07	236.72	6.49	
2025-01-18 12:33:40.27	236.74	6.49	
2025-01-18 12:33:40.47	236.77	6.50	
2025-01-18 12:33:40.67	236.79	6.51	
2025-01-18 12:33:40.88	236.82	6.52	
2025-01-18 12:33:41.08	236.84	6.53	
2025-01-18 12:33:41.28	236.87	6.54	
2025-01-18 12:33:41.49	236.90	6.55	
2025-01-18 12:33:41.69	236.92	6.56	
2025-01-18 12:33:41.89	236.95	6.57	
2025-01-18 12:33:42.10	236.97	6.58	
2025-01-18 12:33:42.30	237.00	6.59	
2025-01-18 12:33:42.50	237.02	6.60	
2025-01-18 12:33:42.70	237.05	6.61	
2025-01-18 12:33:42.91	237.07	6.62	
2025-01-18 12:33:43.11	237.10	6.63	
2025-01-18 12:33:43.31	237.12	6.64	
2025-01-18 12:33:43.52	237.15	6.65	
2025-01-18 12:33:43.72	237.17	6.66	
2025-01-18 12:33:43.92	237.20	6.67	
2025-01-18 12:33:44.13	237.23	6.68	
2025-01-18 12:33:44.33	237.25	6.69	
2025-01-18 12:33:44.53	237.28	6.70	
2025-01-18 12:33:44.73	237.30	6.71	
2025-01-18 12:33:44.94	237.33	6.72	
2025-01-18 12:33:45.14	237.35	6.73	
2025-01-18 12:33:45.34	237.38	6.74	
2025-01-18 12:33:45.55	237.40	6.75	
2025-01-18 12:33:45.75	237.43	6.76	
2025-01-18 12:33:45.95	237.45	6.77	
2025-01-18 12:33:46.16	237.48	6.78	
2025-01-18 12:33:46.36	237.51	6.79	
2025-01-18 12:33:46.56	237.53	6.80	
2025-01-18 12:33:46.76	237.56	6.81	
2025-01-18 12:33:46.97	237.58	6.82	
2025-01-18 12:33:47.17	237.61	6.82	
2025-01-18 12:33:47.37	237.63	6.83	
2025-01-18 12:33:47.58	237.66	6.84	
2025-01-18 12:33:47.78	237.69	6.85	
2025-01-18 12:33:47.98	237.71	6.86	
2025-01-18 12:33:48.19	237.74	6.87	
2025-01-18 12:33:48.39	237.76	6.88	
2025-01-18 12:33:48.59	237.79	6.89	
2025-01-18 12:33:48.79	237.82	6.90	
2025-01-18 12:33:49.00	237.84	6.91	
2025-01-18 12:33:49.20	237.87	6.92	
2025-01-18 12:33:49.40	237.89	6.93	
2025-01-18 12:33:49.61	237.92	6.94	
2025-01-18 12:33:49.81	237.95	6.95	
2025-01-18 12:33:50.01	237.97	6.96	
2025-01-18 12:33:50.22	238.00	6.97	
2025-01-18 12:33:50.42	238.02	6.98	
2025-01-18 12:33:50.62	238.05	6.99	
2025-01-18 12:33:50.82	238.07	7.00	
2025-01-18 12:33:51.03	238.10	7.01	
2025-01-18 12:33:51.23	238.13	7.02	
2025-01-18 12:33:51.43	238.15	7.03	
2025-01-18 12:33:51.64	238.18	7.04	
2025-01-18 12:33:51.84	238.21	7.05	
2025-01-18 12:33:52.04	238.23	7.06	
2025-01-18 12:33:52.24	238.26	7.07	
2025-01-18 12:33:52.45	238.28	7.08	
2025-01-18 12:33:52.65	238.31	7.09	
2025-01-18 12:33:52.85	238.34	7.10	
2025-01-18 12:33:53.06	238.36	7.11	
2025-01-18 12:33:53.26	238.39	7.12	
2025-01-18 12:33:53.46	238.41	7.12	
2025-01-18 12:33:53.67	238.44	7.13	
2025-01-18 12:33:53.87	238.47	7.14	
2025-01-18 12:33:54.07	238.49	7.15	
2025-01-18 12:33:54.27	238.52	7.16	
2025-01-18 12:33:54.48	238.55	7.17	
2025-01-18 12:33:54.68	238.57	7.18	
2025-01-18 12:33:54.88	238.60	7.19	
2025-01-18 12:33:55.09	238.63	7.20	
2025-01-18 12:33:55.29	238.65	7.21	
2025-01-18 12:33:55.49	238.68	7.22	
2025-01-18 12:33:55.70	238.71	7.23	
2025-01-18 12:33:55.90	238.73	7.24	
2025-01-18 12:33:56.10	238.76	7.25	
2025-01-18 12:33:56.30	238.78	7.26	
2025-01-18 12:33:56.51	238.81	7.27	
2025-01-18 12:33:56.71	238.84	7.28	
2025-01-18 12:33:56.91	238.86	7.29	
2025-01-18 12:33:57.12	238.89	7.30	
2025-01-18 12:33:57.32	238.92	7.31	
2025-01-18 12:33:57.52	238.94	7.32	
2025-01-18 12:33:57.73	238.97	7.33	
2025-01-18 12:33:57.93	239.00	7.34	
2025-01-18 12:33:58.13	239.02	7.35	
2025-01-18 12:33:58.33	239.05	7.36	
2025-01-18 12:33:58.54	239.08	7.37	
2025-01-18 12:33:58.74	239.10	7.38	
2025-01-18 12:33:58.94	239.13	7.39	
2025-01-18 12:33:59.15	239.16	7.39	
2025-01-18 12:33:59.35	239.18	7.40	
2025-01-18 12:33:59.55	239.21	7.41	
2025-01-18 12:33:59.76	239.24	7.42	
2025-01-18 12:33:59.96	239.26	7.43	
2025-01-18 12:34:00.16	239.29	7.44	
2025-01-18 12:34:00.36	239.32	7.45	
2025-01-18 12:34:00.57	239.34	7.46	
2025-01-18 12:34:00.77	239.37	7.47	
2025-01-18 12:34:00.97	239.40	7.48	
2025-01-18 12:34:01.18	239.42	7.49	
2025-01-18 12:34:01.38	239.45	7.50	
2025-01-18 12:34:01.58	239.48	7.51	
2025-01-18 12:34:01.79	239.51	7.52	
2025-01-18 12:34:01.99	239.53	7.53	
2025-01-18 12:34:02.19	239.56	7.54	
2025-01-18 12:34:02.39	239.59	7.55	
2025-01-18 12:34:02.60	239.61	7.56	
2025-01-18 12:34:02.80	239.64	7.57	
2025-01-18 12:34:03.00	239.67	7.58	
2025-01-18 12:34:03.21	239.69	7.59	
2025-01-18 12:34:03.41	239.72	7.60	
2025-01-18 12:34:03.61	239.75	7.61	
2025-01-18 12:34:03.82	239.78	7.62	
2025-01-18 12:34:04.02	239.80	7.63	
2025-01-18 12:34:04.22	239.83	7.63	
2025-01-18 12:34:04.42	239.86	7.64	
2025-01-18 12:34:04.63	239.88	7.65	
2025-01-18 12:34:04.83	239.91	7.66	
2025-01-18 12:34:05.03	239.94	7.67	
2025-01-18 12:34:05.24	239.97	7.68	
2025-01-18 12:34:05.44	239.99	7.69	
2025-01-18 12:34:05.64	240.02	7.70	
2025-01-18 12:34:05.84	240.05	7.71	
2025-01-18 12:34:06.05	240.07	7.72	
2025-01-18 12:34:06.25	240.10	7.73	
2025-01-18 12:34:06.45	240.13	7.74	
2025-01-18 12:34:06.66	240.16	7.75	
2025-01-18 12:34:06.86	240.18	7.76	
2025-01-18 12:34:07.06	240.21	7.77	
2025-01-18 12:34:07.27	240.24	7.78	
2025-01-18 12:34:07.47	240.27	7.79	
2025-01-18 12:34:07.67	240.29	7.80	
2025-01-18 12:34:07.87	240.32	7.81	
2025-01-18 12:34:08.08	240.35	7.82	
2025-01-18 12:34:08.28	240.38	7.83	
2025-01-18 12:34:08.48	240.40	7.84	
2025-01-18 12:34:08.69	240.43	7.84	
2025-01-18 12:34:08.89	240.46	7.85	
2025-01-18 12:34:09.09	240.49	7.86	
2025-01-18 12:34:09.30	240.51	7.87	
2025-01-18 12:34:09.50	240.54	7.88	
2025-01-18 12:34:09.70	240.57	7.89	
2025-01-18 12:34:09.90	240.60	7.90	
2025-01-18 12:34:10.11	240.62	7.91	
2025-01-18 12:34:10.31	240.65	7.92	
2025-01-18 12:34:10.51	240.68	7.93	
2025-01-18 12:34:10.72	240.71	7.94	
2025-01-18 12:34:10.92	240.73	7.95	
2025-01-18 12:34:11.12	240.76	7.96	
2025-01-18 12:34:11.33	240.79	7.97	
2025-01-18 12:34:11.53	240.82	7.98	
2025-01-18 12:34:11.73	240.85	7.99	
2025-01-18 12:34:11.93	240.87	8.00	
2025-01-18 12:34:12.14	240.90	8.01	
2025-01-18 12:34:12.34	240.93	8.02	
2025-01-18 12:34:12.54	240.96	8.03	
2025-01-18 12:34:12.75	240.99	8.04	
2025-01-18 12:34:12.95	241.01	8.04	
2025-01-18 12:34:13.15	241.04	8.05	
2025-01-18 12:34:13.36	241.07	8.06	
2025-01-18 12:34:13.56	241.10	8.07	
2025-01-18 12:34:13.76	241.12	8.08	
2025-01-18 12:34:13.96	241.15	8.09	
2025-01-18 12:34:14.17	241.18	8.10	
2025-01-18 12:34:14.37	241.21	8.11	
2025-01-18 12:34:14.57	241.24	8.12	
2025-01-18 12:34:14.78	241.26	8.13	
2025-01-18 12:34:14.98	241.29	8.14	
2025-01-18 12:34:15.18	241.32	8.15	
2025-01-18 12:34:15.39	241.35	8.16	
2025-01-18 12:34:15.59	241.38	8.17	
2025-01-18 12:34:15.79	241.40	8.18	
2025-01-18 12:34:15.99	241.43	8.19	
2025-01-18 12:34:16.20	241.46	8.20	
2025-01-18 12:34:16.40	241.49	8.21	
2025-01-18 12:34:16.60	241.52	8.21	
2025-01-18 12:34:16.81	241.55	8.22	
2025-01-18 12:34:17.01	241.57	8.23	
2025-01-18 12:34:17.21	241.60	8.24	
2025-01-18 12:34:17.42	241.63	8.25	
2025-01-18 12:34:17.62	241.66	8.26	
2025-01-18 12:34:17.82	241.69	8.27	
2025-01-18 12:34:18.02	241.71	8.28	
2025-01-18 12:34:18.23	241.74	8.29	
2025-01-18 12:34:18.43	241.77	8.30	
2025-01-18 12:34:18.63	241.80	8.31	
2025-01-18 12:34:18.84	241.83	8.32	
2025-01-18 12:34:19.04	241.86	8.33	
2025-01-18 12:34:19.24	241.89	8.34	
2025-01-18 12:34:19.44	241.91	8.35	
2025-01-18 12:34:19.65	241.94	8.36	
2025-01-18 12:34:19.85	241.97	8.37	
2025-01-18 12:34:20.05	242.00	8.37	
2025-01-18 12:34:20.26	242.03	8.38	
2025-01-18 12:34:20.46	242.06	8.39	
2025-01-18 12:34:20.66	242.08	8.40	
2025-01-18 12:34:20.87	242.11	8.41	
2025-01-18 12:34:21.07	242.14	8.42	
2025-01-18 12:34:21.27	242.17	8.43	
2025-01-18 12:34:21.47	242.20	8.44	
2025-01-18 12:34:21.68	242.23	8.45	
2025-01-18 12:34:21.88	242.26	8.46	
2025-01-18 12:34:22.08	242.28	8.47	
2025-01-18 12:34:22.29	242.31	8.48	
2025-01-18 12:34:22.49	242.34	8.49	
2025-01-18 12:34:22.69	242.37	8.50	
2025-01-18 12:34:22.90	242.40	8.51	
2025-01-18 12:34:23.10	242.43	8.52	
2025-01-18 12:34:23.30	242.46	8.52	
2025-01-18 12:34:23.50	242.49	8.53	
2025-01-18 12:34:23.71	242.52	8.54	
2025-01-18 12:34:23.91	242.54	8.55	
2025-01-18 12:34:24.11	242.57	8.56	
2025-01-18 12:34:24.32	242.60	8.57	
2025-01-18 12:34:24.52	242.63	8.58	
2025-01-18 12:34:24.72	242.66	8.59	
2025-01-18 12:34:24.93	242.69	8.60	
2025-01-18 12:34:25.13	242.72	8.61	
2025-01-18 12:34:25.33	242.75	8.62	
2025-01-18 12:34:25.53	242.78	8.63	
2025-01-18 12:34:25.74	242.81	8.64	
2025-01-18 12:34:25.94	242.83	8.65	
2025-01-18 12:34:26.14	242.86	8.66	
2025-01-18 12:34:26.35	242.89	8.67	
2025-01-18 12:34:26.55	242.92	8.67	
2025-01-18 12:34:26.75	242.95	8.68	
2025-01-18 12:34:26.96	242.98	8.69	
2025-01-18 12:34:27.16	243.01	8.70	
2025-01-18 12:34:27.36	243.04	8.71	
2025-01-18 12:34:27.56	243.07	8.72	
2025-01-18 12:34:27.77	243.10	8.73	
2025-01-18 12:34:27.97	243.12	8.74	
2025-01-18 12:34:28.17	243.15	8.75	
2025-01-18 12:34:28.38	243.18	8.76	
2025-01-18 12:34:28.58	243.21	8.77	
2025-01-18 12:34:28.78	243.24	8.78	
2025-01-18 12:34:28.99	243.27	8.79	
2025-01-18 12:34:29.19	243.30	8.80	
2025-01-18 12:34:29.39	243.33	8.80	
2025-01-18 12:34:29.59	243.36	8.81	
2025-01-18 12:34:29.80	243.39	8.82	
2025-01-18 12:34:30.00	243.42	8.83	
2025-01-18 12:34:30.20	243.45	8.84	
2025-01-18 12:34:30.41	243.48	8.85	
2025-01-18 12:34:30.61	243.51	8.86	
2025-01-18 12:34:30.81	243.54	8.87	
2025-01-18 12:34:31.02	243.57	8.88	
2025-01-18 12:34:31.22	243.59	8.89	
2025-01-18 12:34:31.42	243.62	8.90	
2025-01-18 12:34:31.62	243.65	8.91	
2025-01-18 12:34:31.83	243.68	8.92	
2025-01-18 12:34:32.03	243.71	8.92	
2025-01-18 12:34:32.23	243.74	8.93	
2025-01-18 12:34:32.44	243.77	8.94	
2025-01-18 12:34:32.64	243.80	8.95	
2025-01-18 12:34:32.84	243.83	8.96	
2025-01-18 12:34:33.05	243.86	8.97	
2025-01-18 12:34:33.25	243.89	8.98	
2025-01-18 12:34:33.45	243.92	8.99	
2025-01-18 12:34:33.65	243.95	9.00	
2025-01-18 12:34:33.86	243.98	9.01	
2025-01-18 12:34:34.06	244.01	9.02	
2025-01-18 12:34:34.26	244.04	9.03	
2025-01-18 12:34:34.47	244.07	9.04	
2025-01-18 12:34:34.67	244.10	9.04	
2025-01-18 12:34:34.87	244.13	9.05	
2025-01-18 12:34:35.07	244.16	9.06	
2025-01-18 12:34:35.28	244.19	9.07	
2025-01-18 12:34:35.48	244.22	9.08	
2025-01-18 12:34:35.68	244.25	9.09	
2025-01-18 12:34:35.89	244.28	9.10	
2025-01-18 12:34:36.09	244.31	9.11	
2025-01-18 12:34:36.29	244.34	9.12	
2025-01-18 12:34:36.50	244.37	9.13	
2025-01-18 12:34:36.70	244.40	9.14	
2025-01-18 12:34:36.90	244.43	9.15	
2025-01-18 12:34:37.10	244.46	9.15	
2025-01-18 12:34:37.31	244.49	9.16	
2025-01-18 12:34:37.51	244.52	9.17	
2025-01-18 12:34:37.71	244.55	9.18	
2025-01-18 12:34:37.92	244.58	9.19	
2025-01-18 12:34:38.12	244.61	9.20	
2025-01-18 12:34:38.32	244.64	9.21	
2025-01-18 12:34:38.53	244.67	9.22	
2025-01-18 12:34:38.73	244.70	9.23	
2025-01-18 12:34:38.93	244.73	9.24	
2025-01-18 12:34:39.13	244.76	9.25	
2025-01-18 12:34:39.34	244.79	9.25	
2025-01-18 12:34:39.54	244.82	9.26	
2025-01-18 12:34:39.74	244.85	9.27	
2025-01-18 12:34:39.95	244.88	9.28	
2025-01-18 12:34:40.15	244.91	9.29	
2025-01-18 12:34:40.35	244.94	9.30	
2025-01-18 12:34:40.56	244.97	9.31	
2025-01-18 12:34:40.76	245.00	9.32	
2025-01-18 12:34:40.96	245.03	9.33	
2025-01-18 12:34:41.16	245.06	9.34	
2025-01-18 12:34:41.37	245.09	9.35	
2025-01-18 12:34:41.57	245.12	9.35	
2025-01-18 12:34:41.77	245.15	9.36	
2025-01-18 12:34:41.98	245.18	9.37	
2025-01-18 12:34:42.18	245.21	9.38	
2025-01-18 12:34:42.38	245.24	9.39	
2025-01-18 12:34:42.59	245.27	9.40	
2025-01-18 12:34:42.79	245.30	9.41	
2025-01-18 12:34:42.99	245.34	9.42	
2025-01-18 12:34:43.19	245.37	9.43	
2025-01-18 12:34:43.40	245.40	9.44	
2025-01-18 12:34:43.60	245.43	9.45	
2025-01-18 12:34:43.80	245.46	9.45	
2025-01-18 12:34:44.01	245.49	9.46	
2025-01-18 12:34:44.21	245.52	9.47	
2025-01-18 12:34:44.41	245.55	9.48	
2025-01-18 12:34:44.62	245.58	9.49	
2025-01-18 12:34:44.82	245.61	9.50	
2025-01-18 12:34:45.02	245.64	9.51	
2025-01-18 12:34:45.22	245.67	9.52	
2025-01-18 12:34:45.43	245.70	9.53	
2025-01-18 12:34:45.63	245.73	9.54	
2025-01-18 12:34:45.83	245.76	9.54	
2025-01-18 12:34:46.04	245.80	9.55	
2025-01-18 12:34:46.24	245.83	9.56	
2025-01-18 12:34:46.44	245.86	9.57	
2025-01-18 12:34:46.65	245.89	9.58	
2025-01-18 12:34:46.85	245.92	9.59	
2025-01-18 12:34:47.05	245.95	9.60	
2025-01-18 12:34:47.25	245.98	9.61	
2025-01-18 12:34:47.46	246.01	9.62	
2025-01-18 12:34:47.66	246.04	9.63	
2025-01-18 12:34:47.86	246.07	9.63	
2025-01-18 12:34:48.07	246.11	9.64	
2025-01-18 12:34:48.27	246.14	9.65	
2025-01-18 12:34:48.47	246.17	9.66	
2025-01-18 12:34:48.68	246.20	9.67	
2025-01-18 12:34:48.88	246.23	9.68	
2025-01-18 12:34:49.08	246.26	9.69	
2025-01-18 12:34:49.28	246.29	9.70	
2025-01-18 12:34:49.49	246.32	9.71	
2025-01-18 12:34:49.69	246.35	9.71	
2025-01-18 12:34:49.89	246.38	9.72	
2025-01-18 12:34:50.10	246.42	9.73	
2025-01-18 12:34:50.30	246.45	9.74	
2025-01-18 12:34:50.50	246.48	9.75	
2025-01-18 12:34:50.70	246.51	9.76	
2025-01-18 12:34:50.91	246.54	9.77	
2025-01-18 12:34:51.11	246.57	9.78	
2025-01-18 12:34:51.31	246.60	9.79	
2025-01-18 12:34:51.52	246.63	9.79	
2025-01-18 12:34:51.72	246.67	9.80	
2025-01-18 12:34:51.92	246.70	9.81	
2025-01-18 12:34:52.13	246.73	9.82	
2025-01-18 12:34:52.33	246.76	9.83	
2025-01-18 12:34:52.53	246.79	9.84	
2025-01-18 12:34:52.73	246.82	9.85	
2025-01-18 12:34:52.94	246.85	9.86	
2025-01-18 12:34:53.14	246.89	9.87	
2025-01-18 12:34:53.34	246.92	9.87	
2025-01-18 12:34:53.55	246.95	9.88	
2025-01-18 12:34:53.75	246.98	9.89	
2025-01-18 12:34:53.95	247.01	9.90	
2025-01-18 12:34:54.16	247.04	9.91	
2025-01-18 12:34:54.36	247.07	9.92	
2025-01-18 12:34:54.56	247.11	9.93	
2025-01-18 12:34:54.76	247.14	9.94	
2025-01-18 12:34:54.97	247.17	9.94	
2025-01-18 12:34:55.17	247.20	9.95	
2025-01-18 12:34:55.37	247.23	9.96	
2025-01-18 12:34:55.58	247.26	9.97	
2025-01-18 12:34:55.78	247.30	9.98	
2025-01-18 12:34:55.98	247.33	9.99	
2025-01-18 12:34:56.19	247.36	10.00	
2025-01-18 12:34:56.39	247.39	10.01	
2025-01-18 12:34:56.59	247.42	10.01	
2025-01-18 12:34:56.79	247.45	10.02	
2025-01-18 12:34:57.00	247.49	10.03	
2025-01-18 12:34:57.20	247.52	10.04	
2025-01-18 12:34:57.40	247.55	10.05	
2025-01-18 12:34:57.61	247.58	10.06	
2025-01-18 12:34:57.81	247.61	10.07	
2025-01-18 12:34:58.01	247.65	10.08	
2025-01-18 12:34:58.22	247.68	10.09	
2025-01-18 12:34:58.42	247.71	10.09	
2025-01-18 12:34:58.62	247.74	10.10	
2025-01-18 12:34:58.82	247.77	10.11	
2025-01-18 12:34:59.03	247.81	10.12	
2025-01-18 12:34:59.23	247.84	10.13	
2025-01-18 12:34:59.43	247.87	10.14	
2025-01-18 12:34:59.64	247.90	10.15	
2025-01-18 12:34:59.84	247.93	10.15	
2025-01-18 12:35:00.04	247.97	10.16	
2025-01-18 12:35:00.25	248.00	10.17	
2025-01-18 12:35:00.45	248.03	10.18	
2025-01-18 12:35:00.65	248.06	10.19	
2025-01-18 12:35:00.85	248.09	10.20	
2025-01-18 12:35:01.06	248.13	10.21	
2025-01-18 12:35:01.26	248.16	10.22	
2025-01-18 12:35:01.46	248.19	10.22	
2025-01-18 12:35:01.67	248.22	10.23	
2025-01-18 12:35:01.87	248.26	10.24	
2025-01-18 12:35:02.07	248.29	10.25	
2025-01-18 12:35:02.28	248.32	10.26	
2025-01-18 12:35:02.48	248.35	10.27	
2025-01-18 12:35:02.68	248.38	10.28	
2025-01-18 12:35:02.88	248.42	10.28	
2025-01-18 12:35:03.09	248.45	10.29	
2025-01-18 12:35:03.29	248.48	10.30	
2025-01-18 12:35:03.49	248.51	10.31	
2025-01-18 12:35:03.70	248.55	10.32	
2025-01-18 12:35:03.90	248.58	10.33	
2025-01-18 12:35:04.10	248.61	10.34	
2025-01-18 12:35:04.31	248.64	10.34	
2025-01-18 12:35:04.51	248.68	10.35	
2025-01-18 12:35:04.71	248.71	10.36	
2025-01-18 12:35:04.91	248.74	10.37	
2025-01-18 12:35:05.12	248.77	10.38	
2025-01-18 12:35:05.32	248.81	10.39	
2025-01-18 12:35:05.52	248.84	10.40	
2025-01-18 12:35:05.73	248.87	10.40	
2025-01-18 12:35:05.93	248.90	10.41	
2025-01-18 12:35:06.13	248.94	10.42	
2025-01-18 12:35:06.33	248.97	10.43	
2025-01-18 12:35:06.54	249.00	10.44	
2025-01-18 12:35:06.74	249.03	10.45	
2025-01-18 12:35:06.94	249.07	10.46	
2025-01-18 12:35:07.15	249.10	10.46	
2025-01-18 12:35:07.35	249.13	10.47	
2025-01-18 12:35:07.55	249.16	10.48	
2025-01-18 12:35:07.76	249.20	10.49	
2025-01-18 12:35:07.96	249.23	10.50	
2025-01-18 12:35:08.16	249.26	10.51	
2025-01-18 12:35:08.36	249.30	10.51	
2025-01-18 12:35:08.57	249.33	10.52	
2025-01-18 12:35:08.77	249.36	10.53	
2025-01-18 12:35:08.97	249.39	10.54	
2025-01-18 12:35:09.18	249.43	10.55	
2025-01-18 12:35:09.38	249.46	10.56	
2025-01-18 12:35:09.58	249.49	10.57	
2025-01-18 12:35:09.79	249.53	10.57	
2025-01-18 12:35:09.99	249.56	10.58	
2025-01-18 12:35:10.19	249.59	10.59	
2025-01-18 12:35:10.39	249.62	10.60	
2025-01-18 12:35:10.60	249.66	10.61	
2025-01-18 12:35:10.80	249.69	10.62	
2025-01-18 12:35:11.00	249.72	10.62	
2025-01-18 12:35:11.21	249.76	10.63	
2025-01-18 12:35:11.41	249.79	10.64	
2025-01-18 12:35:11.61	249.82	10.65	
2025-01-18 12:35:11.82	249.86	10.66	
2025-01-18 12:35:12.02	249.89	10.67	
2025-01-18 12:35:12.22	249.92	10.67	
2025-01-18 12:35:12.42	249.96	10.68	
2025-01-18 12:35:12.63	249.99	10.69	
2025-01-18 12:35:12.83	250.02	10.70	
2025-01-18 12:35:13.03	250.06	10.71	
2025-01-18 12:35:13.24	250.09	10.72	
2025-01-18 12:35:13.44	250.12	10.73	
2025-01-18 12:35:13.64	250.16	10.73	
2025-01-18 12:35:13.85	250.19	10.74	
2025-01-18 12:35:14.05	250.22	10.75	
2025-01-18 12:35:14.25	250.26	10.76	
2025-01-18 12:35:14.45	250.29	10.77	
2025-01-18 12:35:14.66	250.32	10.78	
2025-01-18 12:35:14.86	250.36	10.78	
2025-01-18 12:35:15.06	250.39	10.79	
2025-01-18 12:35:15.27	250.42	10.80	
2025-01-18 12:35:15.47	250.46	10.81	
2025-01-18 12:35:15.67	250.49	10.82	
2025-01-18 12:35:15.88	250.52	10.82	
2025-01-18 12:35:16.08	250.56	10.83	
2025-01-18 12:35:16.28	250.59	10.84	
2025-01-18 12:35:16.48	250.62	10.85	
2025-01-18 12:35:16.69	250.66	10.86	
2025-01-18 12:35:16.89	250.69	10.87	
2025-01-18 12:35:17.09	250.72	10.87	
2025-01-18 12:35:17.30	250.76	10.88	
2025-01-18 12:35:17.50	250.79	10.89	
2025-01-18 12:35:17.70	250.83	10.90	
2025-01-18 12:35:17.91	250.86	10.91	
2025-01-18 12:35:18.11	250.89	10.92	
2025-01-18 12:35:18.31	250.93	10.92	
2025-01-18 12:35:18.51	250.96	10.93	
2025-01-18 12:35:18.72	251.00	10.94	
2025-01-18 12:35:18.92	251.03	10.95	
2025-01-18 12:35:19.12	251.06	10.96	
2025-01-18 12:35:19.33	251.10	10.96	
2025-01-18 12:35:19.53	251.13	10.97	
2025-01-18 12:35:19.73	251.16	10.98	
2025-01-18 12:35:19.93	251.20	10.99	
2025-01-18 12:35:20.14	251.23	11.00	
2025-01-18 12:35:20.34	251.27	11.01	
2025-01-18 12:35:20.54	251.30	11.01	
2025-01-18 12:35:20.75	251.33	11.02	
2025-01-18 12:35:20.95	251.37	11.03	
2025-01-18 12:35:21.15	251.40	11.04	
2025-01-18 12:35:21.36	251.44	11.05	
2025-01-18 12:35:21.56	251.47	11.05	
2025-01-18 12:35:21.76	251.50	11.06	
2025-01-18 12:35:21.96	251.54	11.07	
2025-01-18 12:35:22.17	251.57	11.08	
2025-01-18 12:35:22.37	251.61	11.09	
2025-01-18 12:35:22.57	251.64	11.09	
2025-01-18 12:35:22.78	251.67	11.10	
2025-01-18 12:35:22.98	251.71	11.11	
2025-01-18 12:35:23.18	251.74	11.12	
2025-01-18 12:35:23.39	251.78	11.13	
2025-01-18 12:35:23.59	251.81	11.13	
2025-01-18 12:35:23.79	251.84	11.14	
2025-01-18 12:35:23.99	251.88	11.15	
2025-01-18 12:35:24.20	251.91	11.16	
2025-01-18 12:35:24.40	251.95	11.17	
2025-01-18 12:35:24.60	251.98	11.17	
2025-01-18 12:35:24.81	252.02	11.18	
2025-01-18 12:35:25.01	252.05	11.19	
2025-01-18 12:35:25.21	252.08	11.20	
2025-01-18 12:35:25.42	252.12	11.21	
2025-01-18 12:35:25.62	252.15	11.21	
2025-01-18 12:35:25.82	252.19	11.22	
2025-01-18 12:35:26.02	252.22	11.23	
2025-01-18 12:35:26.23	252.26	11.24	
2025-01-18 12:35:26.43	252.29	11.25	
2025-01-18 12:35:26.63	252.32	11.25	
2025-01-18 12:35:26.84	252.36	11.26	
2025-01-18 12:35:27.04	252.39	11.27	
2025-01-18 12:35:27.24	252.43	11.28	
2025-01-18 12:35:27.45	252.46	11.29	
2025-01-18 12:35:27.65	252.50	11.29	
2025-01-18 12:35:27.85	252.53	11.30	
2025-01-18 12:35:28.05	252.57	11.31	
2025-01-18 12:35:28.26	252.60	11.32	
2025-01-18 12:35:28.46	252.64	11.33	
2025-01-18 12:35:28.66	252.67	11.33	
2025-01-18 12:35:28.87	252.71	11.34	
2025-01-18 12:35:29.07	252.74	11.35	
2025-01-18 12:35:29.27	252.77	11.36	
2025-01-18 12:35:29.48	252.81	11.36	
2025-01-18 12:35:29.68	252.84	11.37	
2025-01-18 12:35:29.88	252.88	11.38	
2025-01-18 12:35:30.08	252.91	11.39	
2025-01-18 12:35:30.29	252.95	11.40	
2025-01-18 12:35:30.49	252.98	11.40	
2025-01-18 12:35:30.69	253.02	11.41	
2025-01-18 12:35:30.90	253.05	11.42	
2025-01-18 12:35:31.10	253.09	11.43	
2025-01-18 12:35:31.30	253.12	11.43	
2025-01-18 12:35:31.51	253.16	11.44	
2025-01-18 12:35:31.71	253.19	11.45	
2025-01-18 12:35:31.91	253.23	11.46	
2025-01-18 12:35:32.11	253.26	11.47	
2025-01-18 12:35:32.32	253.30	11.47	
2025-01-18 12:35:32.52	253.33	11.48	
2025-01-18 12:35:32.72	253.37	11.49	
2025-01-18 12:35:32.93	253.40	11.50	
2025-01-18 12:35:33.13	253.44	11.50	
2025-01-18 12:35:33.33	253.47	11.51	
2025-01-18 12:35:33.54	253.51	11.52	
2025-01-18 12:35:33.74	253.54	11.53	
2025-01-18 12:35:33.94	253.58	11.54	
2025-01-18 12:35:34.14	253.61	11.54	
2025-01-18 12:35:34.35	253.65	11.55	
2025-01-18 12:35:34.55	253.68	11.56	
2025-01-18 12:35:34.75	253.72	11.57	
2025-01-18 12:35:34.96	253.75	11.57	
2025-01-18 12:35:35.16	253.79	11.58	
2025-01-18 12:35:35.36	253.82	11.59	
2025-01-18 12:35:35.56	253.86	11.60	
2025-01-18 12:35:35.77	253.90	11.60	
2025-01-18 12:35:35.97	253.93	11.61	
2025-01-18 12:35:36.17	253.96	11.62	
2025-01-18 12:35:36.38	254.00	11.63	
2025-01-18 12:35:36.58	254.04	11.63	
2025-01-18 12:35:36.78	254.07	11.64	
2025-01-18 12:35:36.99	254.11	11.65	
2025-01-18 12:35:37.19	254.14	11.66	
2025-01-18 12:35:37.39	254.18	11.66	
2025-01-18 12:35:37.59	254.21	11.67	
2025-01-18 12:35:37.80	254.25	11.68	
2025-01-18 12:35:38.00	254.28	11.69	
2025-01-18 12:35:38.20	254.32	11.69	
2025-01-18 12:35:38.41	254.36	11.70	
2025-01-18 12:35:38.61	254.39	11.71	
2025-01-18 12:35:38.81	254.43	11.72	
2025-01-18 12:35:39.02	254.46	11.73	
2025-01-18 12:35:39.22	254.50	11.73	
2025-01-18 12:35:39.42	254.53	11.74	
2025-01-18 12:35:39.62	254.57	11.75	
2025-01-18 12:35:39.83	254.60	11.75	
2025-01-18 12:35:40.03	254.64	11.76	
2025-01-18 12:35:40.23	254.67	11.77	
2025-01-18 12:35:40.44	254.71	11.78	
2025-01-18 12:35:40.64	254.75	11.78	
2025-01-18 12:35:40.84	254.78	11.79	
2025-01-18 12:35:41.05	254.82	11.80	
2025-01-18 12:35:41.25	254.85	11.81	
2025-01-18 12:35:41.45	254.89	11.81	
2025-01-18 12:35:41.65	254.92	11.82	
2025-01-18 12:35:41.86	254.96	11.83	
2025-01-18 12:35:42.06	255.00	11.84	
2025-01-18 12:35:42.26	255.03	11.84	
2025-01-18 12:35:42.47	255.07	11.85	
2025-01-18 12:35:42.67	255.10	11.86	
2025-01-18 12:35:42.87	255.14	11.87	
2025-01-18 12:35:43.08	255.18	11.87	
2025-01-18 12:35:43.28	255.21	11.88	
2025-01-18 12:35:43.48	255.25	11.89	
2025-01-18 12:35:43.68	255.28	11.90	
2025-01-18 12:35:43.89	255.32	11.90	
2025-01-18 12:35:44.09	255.36	11.91	
2025-01-18 12:35:44.29	255.39	11.92	
2025-01-18 12:35:44.50	255.43	11.92	
2025-01-18 12:35:44.70	255.46	11.93	
2025-01-18 12:35:44.90	255.50	11.94	
2025-01-18 12:35:45.11	255.54	11.95	
2025-01-18 12:35:45.31	255.57	11.95	
2025-01-18 12:35:45.51	255.61	11.96	
2025-01-18 12:35:45.71	255.64	11.97	
2025-01-18 12:35:45.92	255.68	11.98	
2025-01-18 12:35:46.12	255.72	11.98	
2025-01-18 12:35:46.32	255.75	11.99	
2025-01-18 12:35:46.53	255.79	12.00	
2025-01-18 12:35:46.73	255.83	12.00	
2025-01-18 12:35:46.93	255.86	12.01	
2025-01-18 12:35:47.14	255.90	12.02	
2025-01-18 12:35:47.34	255.93	12.03	
2025-01-18 12:35:47.54	255.97	12.03	
2025-01-18 12:35:47.74	256.01	12.04	
2025-01-18 12:35:47.95	256.04	12.05	
2025-01-18 12:35:48.15	256.08	12.05	
2025-01-18 12:35:48.35	256.12	12.06	
2025-01-18 12:35:48.56	256.15	12.07	
2025-01-18 12:35:48.76	256.19	12.08	
2025-01-18 12:35:48.96	256.22	12.08	
2025-01-18 12:35:49.17	256.26	12.09	
2025-01-18 12:35:49.37	256.30	12.10	
2025-01-18 12:35:49.57	256.33	12.10	
2025-01-18 12:35:49.77	256.37	12.11	
2025-01-18 12:35:49.98	256.41	12.12	
2025-01-18 12:35:50.18	256.44	12.13	
2025-01-18 12:35:50.38	256.48	12.13	
2025-01-18 12:35:50.59	256.52	12.14	
2025-01-18 12:35:50.79	256.55	12.15	
2025-01-18 12:35:50.99	256.59	12.15	
2025-01-18 12:35:51.19	256.63	12.16	
2025-01-18 12:35:51.40	256.66	12.17	
2025-01-18 12:35:51.60	256.70	12.17	
2025-01-18 12:35:51.80	256.74	12.18	
2025-01-18 12:35:52.01	256.77	12.19	
2025-01-18 12:35:52.21	256.81	12.20	
2025-01-18 12:35:52.41	256.85	12.20	
2025-01-18 12:35:52.62	256.88	12.21	
2025-01-18 12:35:52.82	256.92	12.22	
2025-01-18 12:35:53.02	256.96	12.22	
2025-01-18 12:35:53.22	256.99	12.23	
2025-01-18 12:35:53.43	257.03	12.24	
2025-01-18 12:35:53.63	257.07	12.24	
2025-01-18 12:35:53.83	257.10	12.25	
2025-01-18 12:35:54.04	257.14	12.26	
2025-01-18 12:35:54.24	257.18	12.26	
2025-01-18 12:35:54.44	257.21	12.27	
2025-01-18 12:35:54.65	257.25	12.28	
2025-01-18 12:35:54.85	257.29	12.29	
2025-01-18 12:35:55.05	257.32	12.29	
2025-01-18 12:35:55.25	257.36	12.30	
2025-01-18 12:35:55.46	257.40	12.31	
2025-01-18 12:35:55.66	257.44	12.31	
2025-01-18 12:35:55.86	257.47	12.32	
2025-01-18 12:35:56.07	257.51	12.33	
2025-01-18 12:35:56.27	257.55	12.33	
2025-01-18 12:35:56.47	257.58	12.34	
2025-01-18 12:35:56.68	257.62	12.35	
2025-01-18 12:35:56.88	257.66	12.35	
2025-01-18 12:35:57.08	257.69	12.36	
2025-01-18 12:35:57.28	257.73	12.37	
2025-01-18 12:35:57.49	257.77	12.37	
2025-01-18 12:35:57.69	257.81	12.38	
2025-01-18 12:35:57.89	257.84	12.39	
2025-01-18 12:35:58.10	257.88	12.39	
2025-01-18 12:35:58.30	257.92	12.40	
2025-01-18 12:35:58.50	257.95	12.41	
2025-01-18 12:35:58.71	257.99	12.41	
2025-01-18 12:35:58.91	258.03	12.42	
2025-01-18 12:35:59.11	258.07	12.43	
2025-01-18 12:35:59.31	258.10	12.43	
2025-01-18 12:35:59.52	258.14	12.44	
2025-01-18 12:35:59.72	258.18	12.45	
2025-01-18 12:35:59.92	258.21	12.45	
2025-01-18 12:36:00.13	258.25	12.46	
2025-01-18 12:36:00.33	258.29	12.47	
2025-01-18 12:36:00.53	258.33	12.47	
2025-01-18 12:36:00.74	258.37	12.48	
2025-01-18 12:36:00.94	258.40	12.49	
2025-01-18 12:36:01.14	258.44	12.49	
2025-01-18 12:36:01.34	258.48	12.50	
2025-01-18 12:36:01.55	258.51	12.51	
2025-01-18 12:36:01.75	258.55	12.51	
2025-01-18 12:36:01.95	258.59	12.52	
2025-01-18 12:36:02.16	258.63	12.53	
2025-01-18 12:36:02.36	258.66	12.53	
2025-01-18 12:36:02.56	258.70	12.54	
2025-01-18 12:36:02.77	258.74	12.55	
2025-01-18 12:36:02.97	258.78	12.55	
2025-01-18 12:36:03.17	258.81	12.56	
2025-01-18 12:36:03.37	258.85	12.57	
2025-01-18 12:36:03.58	258.89	12.57	
2025-01-18 12:36:03.78	258.93	12.58	
2025-01-18 12:36:03.98	258.96	12.58	
2025-01-18 12:36:04.19	259.00	12.59	
2025-01-18 12:36:04.39	259.04	12.60	
2025-01-18 12:36:04.59	259.08	12.60	
2025-01-18 12:36:04.79	259.11	12.61	
2025-01-18 12:36:05.00	259.15	12.62	
2025-01-18 12:36:05.20	259.19	12.62	
2025-01-18 12:36:05.40	259.23	12.63	
2025-01-18 12:36:05.61	259.27	12.64	
2025-01-18 12:36:05.81	259.30	12.64	
2025-01-18 12:36:06.01	259.34	12.65	
2025-01-18 12:36:06.22	259.38	12.66	
2025-01-18 12:36:06.42	259.42	12.66	
2025-01-18 12:36:06.62	259.45	12.67	
2025-01-18 12:36:06.82	259.49	12.67	
2025-01-18 12:36:07.03	259.53	12.68	
2025-01-18 12:36:07.23	259.57	12.69	
2025-01-18 12:36:07.43	259.61	12.69	
2025-01-18 12:36:07.64	259.64	12.70	
2025-01-18 12:36:07.84	259.68	12.71	
2025-01-18 12:36:08.04	259.72	12.71	
2025-01-18 12:36:08.25	259.76	12.72	
2025-01-18 12:36:08.45	259.80	12.72	
2025-01-18 12:36:08.65	259.83	12.73	
2025-01-18 12:36:08.85	259.87	12.74	
2025-01-18 12:36:09.06	259.91	12.74	
2025-01-18 12:36:09.26	259.95	12.75	
2025-01-18 12:36:09.46	259.98	12.76	
2025-01-18 12:36:09.67	260.02	12.76	
2025-01-18 12:36:09.87	260.06	12.77	
2025-01-18 12:36:10.07	260.10	12.77	
2025-01-18 12:36:10.28	260.14	12.78	
2025-01-18 12:36:10.48	260.18	12.79	
2025-01-18 12:36:10.68	260.21	12.79	
2025-01-18 12:36:10.88	260.25	12.80	
2025-01-18 12:36:11.09	260.29	12.80	
2025-01-18 12:36:11.29	260.33	12.81	
2025-01-18 12:36:11.49	260.37	12.82	
2025-01-18 12:36:11.70	260.41	12.82	
2025-01-18 12:36:11.90	260.44	12.83	
2025-01-18 12:36:12.10	260.48	12.84	
2025-01-18 12:36:12.31	260.52	12.84	
2025-01-18 12:36:12.51	260.56	12.85	
2025-01-18 12:36:12.71	260.60	12.85	
2025-01-18 12:36:12.91	260.63	12.86	
2025-01-18 12:36:13.12	260.67	12.87	
2025-01-18 12:36:13.32	260.71	12.87	
2025-01-18 12:36:13.52	260.75	12.88	
2025-01-18 12:36:13.73	260.79	12.88	
2025-01-18 12:36:13.93	260.83	12.89	
2025-01-18 12:36:14.13	260.86	12.90	
2025-01-18 12:36:14.34	260.90	12.90	
2025-01-18 12:36:14.54	260.94	12.91	
2025-01-18 12:36:14.74	260.98	12.91	
2025-01-18 12:36:14.94	261.02	12.92	
2025-01-18 12:36:15.15	261.06	12.92	
2025-01-18 12:36:15.35	261.10	12.93	
2025-01-18 12:36:15.55	261.13	12.94	
2025-01-18 12:36:15.76	261.17	12.94	
2025-01-18 12:36:15.96	261.21	12.95	
2025-01-18 12:36:16.16	261.25	12.95	
2025-01-18 12:36:16.37	261.29	12.96	
2025-01-18 12:36:16.57	261.33	12.97	
2025-01-18 12:36:16.77	261.36	12.97	
2025-01-18 12:36:16.97	261.40	12.98	
2025-01-18 12:36:17.18	261.44	12.98	
2025-01-18 12:36:17.38	261.48	12.99	
2025-01-18 12:36:17.58	261.52	12.99	
2025-01-18 12:36:17.79	261.56	13.00	
2025-01-18 12:36:17.99	261.60	13.01	
2025-01-18 12:36:18.19	261.63	13.01	
2025-01-18 12:36:18.40	261.68	13.02	
2025-01-18 12:36:18.60	261.71	13.02	
2025-01-18 12:36:18.80	261.75	13.03	
2025-01-18 12:36:19.00	261.79	13.03	
2025-01-18 12:36:19.21	261.83	13.04	
2025-01-18 12:36:19.41	261.87	13.05	
2025-01-18 12:36:19.61	261.91	13.05	
2025-01-18 12:36:19.82	261.95	13.06	
2025-01-18 12:36:20.02	261.98	13.06	
2025-01-18 12:36:20.22	262.02	13.07	
2025-01-18 12:36:20.42	262.06	13.07	
2025-01-18 12:36:20.63	262.10	13.08	
2025-01-18 12:36:20.83	262.14	13.09	
2025-01-18 12:36:21.03	262.18	13.09	
2025-01-18 12:36:21.24	262.22	13.10	
2025-01-18 12:36:21.44	262.26	13.10	
2025-01-18 12:36:21.64	262.29	13.11	
2025-01-18 12:36:21.85	262.33	13.11	
2025-01-18 12:36:22.05	262.37	13.12	
2025-01-18 12:36:22.25	262.41	13.12	
2025-01-18 12:36:22.45	262.45	13.13	
2025-01-18 12:36:22.66	262.49	13.14	
2025-01-18 12:36:22.86	262.53	13.14	
2025-01-18 12:36:23.06	262.57	13.15	
2025-01-18 12:36:23.27	262.61	13.15	
2025-01-18 12:36:23.47	262.65	13.16	
2025-01-18 12:36:23.67	262.68	13.16	
2025-01-18 12:36:23.88	262.72	13.17	
2025-01-18 12:36:24.08	262.76	13.17	
2025-01-18 12:36:24.28	262.80	13.18	
2025-01-18 12:36:24.48	262.84	13.19	
2025-01-18 12:36:24.69	262.88	13.19	
2025-01-18 12:36:24.89	262.92	13.20	
2025-01-18 12:36:25.09	262.96	13.20	
2025-01-18 12:36:25.30	263.00	13.21	
2025-01-18 12:36:25.50	263.04	13.21	
2025-01-18 12:36:25.70	263.08	13.22	
2025-01-18 12:36:25.91	263.12	13.22	
2025-01-18 12:36:26.11	263.16	13.23	
2025-01-18 12:36:26.31	263.19	13.23	
2025-01-18 12:36:26.51	263.23	13.24	
2025-01-18 12:36:26.72	263.27	13.24	
2025-01-18 12:36:26.92	263.31	13.25	
2025-01-18 12:36:27.12	263.35	13.25	
2025-01-18 12:36:27.33	263.39	13.26	
2025-01-18 12:36:27.53	263.43	13.27	
2025-01-18 12:36:27.73	263.47	13.27	
2025-01-18 12:36:27.94	263.51	13.28	
2025-01-18 12:36:28.14	263.55	13.28	
2025-01-18 12:36:28.34	263.59	13.29	
2025-01-18 12:36:28.54	263.63	13.29	
2025-01-18 12:36:28.75	263.67	13.30	
2025-01-18 12:36:28.95	263.71	13.30	
2025-01-18 12:36:29.15	263.74	13.31	
2025-01-18 12:36:29.36	263.79	13.31	
2025-01-18 12:36:29.56	263.82	13.32	
2025-01-18 12:36:29.76	263.86	13.32	
2025-01-18 12:36:29.97	263.90	13.33	
2025-01-18 12:36:30.17	263.94	13.33	
2025-01-18 12:36:30.37	263.98	13.34	
2025-01-18 12:36:30.57	264.02	13.34	
2025-01-18 12:36:30.78	264.06	13.35	
2025-01-18 12:36:30.98	264.10	13.35	
2025-01-18 12:36:31.18	264.14	13.36	
2025-01-18 12:36:31.39	264.18	13.36	
2025-01-18 12:36:31.59	264.22	13.37	
2025-01-18 12:36:31.79	264.26	13.37	
2025-01-18 12:36:32.00	264.30	13.38	
2025-01-18 12:36:32.20	264.34	13.38	
2025-01-18 12:36:32.40	264.38	13.39	
2025-01-18 12:36:32.60	264.42	13.39	
2025-01-18 12:36:32.81	264.46	13.40	
2025-01-18 12:36:33.01	264.50	13.40	
2025-01-18 12:36:33.21	264.54	13.41	
2025-01-18 12:36:33.42	264.58	13.41	
2025-01-18 12:36:33.62	264.62	13.42	
2025-01-18 12:36:33.82	264.65	13.42	
2025-01-18 12:36:34.02	264.69	13.43	
2025-01-18 12:36:34.23	264.74	13.43	
2025-01-18 12:36:34.43	264.77	13.44	
2025-01-18 12:36:34.63	264.81	13.44	
2025-01-18 12:36:34.84	264.85	13.45	
2025-01-18 12:36:35.04	264.89	13.45	
2025-01-18 12:36:35.24	264.93	13.46	
2025-01-18 12:36:35.45	264.97	13.46	
2025-01-18 12:36:35.65	265.01	13.47	
2025-01-18 12:36:35.85	265.05	13.47	
2025-01-18 12:36:36.05	265.09	13.48	
2025-01-18 12:36:36.26	265.13	13.48	
2025-01-18 12:36:36.46	265.17	13.48	
2025-01-18 12:36:36.66	265.21	13.49	
2025-01-18 12:36:36.87	265.25	13.49	
2025-01-18 12:36:37.07	265.29	13.50	
2025-01-18 12:36:37.27	265.33	13.50	
2025-01-18 12:36:37.48	265.37	13.51	
2025-01-18 12:36:37.68	265.41	13.51	
2025-01-18 12:36:37.88	265.45	13.52	
2025-01-18 12:36:38.08	265.49	13.52	
2025-01-18 12:36:38.29	265.53	13.53	
2025-01-18 12:36:38.49	265.57	13.53	
2025-01-18 12:36:38.69	265.61	13.54	
2025-01-18 12:36:38.90	265.65	13.54	
2025-01-18 12:36:39.10	265.69	13.55	
2025-01-18 12:36:39.30	265.73	13.55	
2025-01-18 12:36:39.51	265.77	13.55	
2025-01-18 12:36:39.71	265.81	13.56	
2025-01-18 12:36:39.91	265.85	13.56	
2025-01-18 12:36:40.11	265.89	13.57	
2025-01-18 12:36:40.32	265.93	13.57	
2025-01-18 12:36:40.52	265.97	13.58	
2025-01-18 12:36:40.72	266.01	13.58	
2025-01-18 12:36:40.93	266.05	13.59	
2025-01-18 12:36:41.13	266.09	13.59	
2025-01-18 12:36:41.33	266.13	13.60	
2025-01-18 12:36:41.54	266.17	13.60	
2025-01-18 12:36:41.74	266.21	13.60	
2025-01-18 12:36:41.94	266.25	13.61	
2025-01-18 12:36:42.14	266.29	13.61	
2025-01-18 12:36:42.35	266.34	13.62	
2025-01-18 12:36:42.55	266.37	13.62	
2025-01-18 12:36:42.75	266.41	13.63	
2025-01-18 12:36:42.96	266.46	13.63	
2025-01-18 12:36:43.16	266.50	13.63	
2025-01-18 12:36:43.36	266.54	13.64	
2025-01-18 12:36:43.57	266.58	13.64	
2025-01-18 12:36:43.77	266.62	13.65	
2025-01-18 12:36:43.97	266.66	13.65	
2025-01-18 12:36:44.17	266.70	13.66	
2025-01-18 12:36:44.38	266.74	13.66	
2025-01-18 12:36:44.58	266.78	13.67	
2025-01-18 12:36:44.78	266.82	13.67	
2025-01-18 12:36:44.99	266.86	13.67	
2025-01-18 12:36:45.19	266.90	13.68	
2025-01-18 12:36:45.39	266.94	13.68	
2025-01-18 12:36:45.60	266.98	13.69	
2025-01-18 12:36:45.80	267.02	13.69	
2025-01-18 12:36:46.00	267.06	13.69	
2025-01-18 12:36:46.20	267.10	13.70	
2025-01-18 12:36:46.41	267.14	13.70	
2025-01-18 12:36:46.61	267.18	13.71	
2025-01-18 12:36:46.81	267.22	13.71	
2025-01-18 12:36:47.02	267.26	13.72	
2025-01-18 12:36:47.22	267.30	13.72	
2025-01-18 12:36:47.42	267.34	13.72	
2025-01-18 12:36:47.62	267.38	13.73	
2025-01-18 12:36:47.83	267.43	13.73	
2025-01-18 12:36:48.03	267.47	13.74	
2025-01-18 12:36:48.23	267.51	13.74	
2025-01-18 12:36:48.44	267.55	13.74	
2025-01-18 12:36:48.64	267.59	13.75	
2025-01-18 12:36:48.84	267.63	13.75	
2025-01-18 12:36:49.05	267.67	13.76	
2025-01-18 12:36:49.25	267.71	13.76	
2025-01-18 12:36:49.45	267.75	13.76	
2025-01-18 12:36:49.65	267.79	13.77	
2025-01-18 12:36:49.86	267.83	13.77	
2025-01-18 12:36:50.06	267.87	13.78	
2025-01-18 12:36:50.26	267.91	13.78	
2025-01-18 12:36:50.47	267.95	13.78	
2025-01-18 12:36:50.67	267.99	13.79	
2025-01-18 12:36:50.87	268.03	13.79	
2025-01-18 12:36:51.08	268.08	13.80	
2025-01-18 12:36:51.28	268.12	13.80	
2025-01-18 12:36:51.48	268.16	13.80	
2025-01-18 12:36:51.68	268.20	13.81	
2025-01-18 12:36:51.89	268.24	13.81	
2025-01-18 12:36:52.09	268.28	13.81	
2025-01-18 12:36:52.29	268.32	13.82	
2025-01-18 12:36:52.50	268.36	13.82	
2025-01-18 12:36:52.70	268.40	13.83	
2025-01-18 12:36:52.90	268.44	13.83	
2025-01-18 12:36:53.11	268.48	13.83	
2025-01-18 12:36:53.31	268.52	13.84	
2025-01-18 12:36:53.51	268.56	13.84	
2025-01-18 12:36:53.71	268.60	13.84	
2025-01-18 12:36:53.92	268.65	13.85	
2025-01-18 12:36:54.12	268.69	13.85	
2025-01-18 12:36:54.32	268.73	13.86	
2025-01-18 12:36:54.53	268.77	13.86	
2025-01-18 12:36:54.73	268.81	13.86	
2025-01-18 12:36:54.93	268.85	13.87	
2025-01-18 12:36:55.14	268.89	13.87	
2025-01-18 12:36:55.34	268.93	13.87	
2025-01-18 12:36:55.54	268.97	13.88	
2025-01-18 12:36:55.74	269.01	13.88	
2025-01-18 12:36:55.95	269.06	13.88	
2025-01-18 12:36:56.15	269.10	13.89	
2025-01-18 12:36:56.35	269.14	13.89	
2025-01-18 12:36:56.56	269.18	13.89	
2025-01-18 12:36:56.76	269.22	13.90	
2025-01-18 12:36:56.96	269.26	13.90	
2025-01-18 12:36:57.17	269.30	13.91	
2025-01-18 12:36:57.37	269.34	13.91	
2025-01-18 12:36:57.57	269.38	13.91	
2025-01-18 12:36:57.77	269.42	13.92	
2025-01-18 12:36:57.98	269.47	13.92	
2025-01-18 12:36:58.18	269.51	13.92	
2025-01-18 12:36:58.38	269.55	13.93	
2025-01-18 12:36:58.59	269.59	13.93	
2025-01-18 12:36:58.79	269.63	13.93	
2025-01-18 12:36:58.99	269.67	13.94	
2025-01-18 12:36:59.20	269.71	13.94	
2025-01-18 12:36:59.40	269.75	13.94	
2025-01-18 12:36:59.60	269.79	13.95	
2025-01-18 12:36:59.80	269.83	13.95	
2025-01-18 12:37:00.01	269.88	13.95	
2025-01-18 12:37:00.21	269.92	13.96	
2025-01-18 12:37:00.41	269.96	13.96	
2025-01-18 12:37:00.62	270.00	13.96	
2025-01-18 12:37:00.82	270.04	13.97	
2025-01-18 12:37:01.02	270.08	13.97	
2025-01-18 12:37:01.23	270.12	13.97	
2025-01-18 12:37:01.43	270.16	13.98	
2025-01-18 12:37:01.63	270.20	13.98	
2025-01-18 12:37:01.83	270.25	13.98	
2025-01-18 12:37:02.04	270.29	13.98	
2025-01-18 12:37:02.24	270.33	13.99	
2025-01-18 12:37:02.44	270.37	13.99	
2025-01-18 12:37:02.65	270.41	13.99	
2025-01-18 12:37:02.85	270.45	14.00	
2025-01-18 12:37:03.05	270.49	14.00	
2025-01-18 12:37:03.26	270.54	14.00	
2025-01-18 12:37:03.46	270.58	14.01	
2025-01-18 12:37:03.66	270.62	14.01	
2025-01-18 12:37:03.86	270.66	14.01	
2025-01-18 12:37:04.07	270.70	14.02	
2025-01-18 12:37:04.27	270.74	14.02	
2025-01-18 12:37:04.47	270.78	14.02	
2025-01-18 12:37:04.68	270.82	14.02	
2025-01-18 12:37:04.88	270.86	14.03	
2025-01-18 12:37:05.08	270.91	14.03	
2025-01-18 12:37:05.28	270.95	14.03	
2025-01-18 12:37:05.49	270.99	14.04	
2025-01-18 12:37:05.69	271.03	14.04	
2025-01-18 12:37:05.89	271.07	14.04	
2025-01-18 12:37:06.10	271.11	14.05	
2025-01-18 12:37:06.30	271.15	14.05	
2025-01-18 12:37:06.50	271.19	14.05	
2025-01-18 12:37:06.71	271.24	14.05	
2025-01-18 12:37:06.91	271.28	14.06	
2025-01-18 12:37:07.11	271.32	14.06	
2025-01-18 12:37:07.31	271.36	14.06	
2025-01-18 12:37:07.52	271.40	14.07	
2025-01-18 12:37:07.72	271.44	14.07	
2025-01-18 12:37:07.92	271.48	14.07	
2025-01-18 12:37:08.13	271.53	14.07	
2025-01-18 12:37:08.33	271.57	14.08	
2025-01-18 12:37:08.53	271.61	14.08	
2025-01-18 12:37:08.74	271.65	14.08	
2025-01-18 12:37:08.94	271.69	14.08	
2025-01-18 12:37:09.14	271.73	14.09	
2025-01-18 12:37:09.34	271.77	14.09	
2025-01-18 12:37:09.55	271.82	14.09	
2025-01-18 12:37:09.75	271.86	14.10	
2025-01-18 12:37:09.95	271.90	14.10	
2025-01-18 12:37:10.16	271.94	14.10	
2025-01-18 12:37:10.36	271.98	14.10	
2025-01-18 12:37:10.56	272.02	14.11	
2025-01-18 12:37:10.77	272.07	14.11	
2025-01-18 12:37:10.97	272.11	14.11	
2025-01-18 12:37:11.17	272.15	14.11	
2025-01-18 12:37:11.37	272.19	14.12	
2025-01-18 12:37:11.58	272.23	14.12	
2025-01-18 12:37:11.78	272.27	14.12	
2025-01-18 12:37:11.98	272.31	14.12	
2025-01-18 12:37:12.19	272.36	14.13	
2025-01-18 12:37:12.39	272.40	14.13	
2025-01-18 12:37:12.59	272.44	14.13	
2025-01-18 12:37:12.80	272.48	14.13	
2025-01-18 12:37:13.00	272.52	14.14	
2025-01-18 12:37:13.20	272.56	14.14	
2025-01-18 12:37:13.40	272.61	14.14	
2025-01-18 12:37:13.61	272.65	14.14	
2025-01-18 12:37:13.81	272.69	14.15	
2025-01-18 12:37:14.01	272.73	14.15	
2025-01-18 12:37:14.22	272.77	14.15	
2025-01-18 12:37:14.42	272.81	14.15	
2025-01-18 12:37:14.62	272.86	14.15	
2025-01-18 12:37:14.83	272.90	14.16	
2025-01-18 12:37:15.03	272.94	14.16	
2025-01-18 12:37:15.23	272.98	14.16	
2025-01-18 12:37:15.43	273.02	14.16	
2025-01-18 12:37:15.64	273.07	14.17	
2025-01-18 12:37:15.84	273.11	14.17	
2025-01-18 12:37:16.04	273.15	14.17	
2025-01-18 12:37:16.25	273.19	14.17	
2025-01-18 12:37:16.45	273.23	14.18	
2025-01-18 12:37:16.65	273.27	14.18	
2025-01-18 12:37:16.86	273.32	14.18	
2025-01-18 12:37:17.06	273.36	14.18	
2025-01-18 12:37:17.26	273.40	14.18	
2025-01-18 12:37:17.46	273.44	14.19	
2025-01-18 12:37:17.67	273.48	14.19	
2025-01-18 12:37:17.87	273.52	14.19	
2025-01-18 12:37:18.07	273.56	14.19	
2025-01-18 12:37:18.28	273.61	14.19	
2025-01-18 12:37:18.48	273.65	14.20	
2025-01-18 12:37:18.68	273.69	14.20	
2025-01-18 12:37:18.88	273.73	14.20	
2025-01-18 12:37:19.09	273.77	14.20	
2025-01-18 12:37:19.29	273.82	14.20	
2025-01-18 12:37:19.49	273.86	14.21	
2025-01-18 12:37:19.70	273.90	14.21	
2025-01-18 12:37:19.90	273.94	14.21	
2025-01-18 12:37:20.10	273.98	14.21	
2025-01-18 12:37:20.31	274.03	14.21	
2025-01-18 12:37:20.51	274.07	14.22	
2025-01-18 12:37:20.71	274.11	14.22	
2025-01-18 12:37:20.91	274.15	14.22	
2025-01-18 12:37:21.12	274.19	14.22	
2025-01-18 12:37:21.32	274.23	14.22	
2025-01-18 12:37:21.52	274.28	14.23	
2025-01-18 12:37:21.73	274.32	14.23	
2025-01-18 12:37:21.93	274.36	14.23	
2025-01-18 12:37:22.13	274.40	14.23	
2025-01-18 12:37:22.34	274.44	14.23	
2025-01-18 12:37:22.54	274.49	14.23	
2025-01-18 12:37:22.74	274.53	14.24	
2025-01-18 12:37:22.94	274.57	14.24	
2025-01-18 12:37:23.15	274.61	14.24	
2025-01-18 12:37:23.35	274.65	14.24	
2025-01-18 12:37:23.55	274.69	14.24	
2025-01-18 12:37:23.76	274.74	14.25	
2025-01-18 12:37:23.96	274.78	14.25	
2025-01-18 12:37:24.16	274.82	14.25	
2025-01-18 12:37:24.37	274.86	14.25	
2025-01-18 12:37:24.57	274.90	14.25	
2025-01-18 12:37:24.77	274.95	14.25	
2025-01-18 12:37:24.97	274.99	14.26	
2025-01-18 12:37:25.18	275.03	14.26	
2025-01-18 12:37:25.38	275.07	14.26	
2025-01-18 12:37:25.58	275.11	14.26	
2025-01-18 12:37:25.79	275.16	14.26	
2025-01-18 12:37:25.99	275.20	14.26	
2025-01-18 12:37:26.19	275.24	14.26	
2025-01-18 12:37:26.40	275.28	14.27	
2025-01-18 12:37:26.60	275.32	14.27	
2025-01-18 12:37:26.80	275.36	14.27	
2025-01-18 12:37:27.00	275.41	14.27	
2025-01-18 12:37:27.21	275.45	14.27	
2025-01-18 12:37:27.41	275.49	14.27	
2025-01-18 12:37:27.61	275.53	14.28	
2025-01-18 12:37:27.82	275.58	14.28	
2025-01-18 12:37:28.02	275.62	14.28	
2025-01-18 12:37:28.22	275.66	14.28	
2025-01-18 12:37:28.43	275.70	14.28	
2025-01-18 12:37:28.63	275.74	14.28	
2025-01-18 12:37:28.83	275.78	14.28	
2025-01-18 12:37:29.03	275.83	14.28	
2025-01-18 12:37:29.24	275.87	14.29	
2025-01-18 12:37:29.44	275.91	14.29	
2025-01-18 12:37:29.64	275.95	14.29	
2025-01-18 12:37:29.85	276.00	14.29	
2025-01-18 12:37:30.05	276.04	14.29	
2025-01-18 12:37:30.25	276.08	14.29	
2025-01-18 12:37:30.46	276.12	14.29	
2025-01-18 12:37:30.66	276.16	14.29	
2025-01-18 12:37:30.86	276.20	14.30	
2025-01-18 12:37:31.06	276.25	14.30	
2025-01-18 12:37:31.27	276.29	14.30	
2025-01-18 12:37:31.47	276.33	14.30	
2025-01-18 12:37:31.67	276.37	14.30	
2025-01-18 12:37:31.88	276.42	14.30	
2025-01-18 12:37:32.08	276.46	14.30	
2025-01-18 12:37:32.28	276.50	14.30	
2025-01-18 12:37:32.49	276.54	14.31	
2025-01-18 12:37:32.69	276.58	14.31	
2025-01-18 12:37:32.89	276.63	14.31	
2025-01-18 12:37:33.09	276.67	14.31	
2025-01-18 12:37:33.30	276.71	14.31	
2025-01-18 12:37:33.50	276.75	14.31	
2025-01-18 12:37:33.70	276.79	14.31	
2025-01-18 12:37:33.91	276.84	14.31	
2025-01-18 12:37:34.11	276.88	14.31	
2025-01-18 12:37:34.31	276.92	14.31	
2025-01-18 12:37:34.51	276.96	14.32	
2025-01-18 12:37:34.72	277.00	14.32	
2025-01-18 12:37:34.92	277.05	14.32	
2025-01-18 12:37:35.12	277.09	14.32	
2025-01-18 12:37:35.33	277.13	14.32	
2025-01-18 12:37:35.53	277.17	14.32	
2025-01-18 12:37:35.73	277.21	14.32	
2025-01-18 12:37:35.94	277.26	14.32	
2025-01-18 12:37:36.14	277.30	14.32	
2025-01-18 12:37:36.34	277.34	14.32	
2025-01-18 12:37:36.54	277.38	14.32	
2025-01-18 12:37:36.75	277.43	14.33	
2025-01-18 12:37:36.95	277.47	14.33	
2025-01-18 12:37:37.15	277.51	14.33	
2025-01-18 12:37:37.36	277.55	14.33	
2025-01-18 12:37:37.56	277.59	14.33	
2025-01-18 12:37:37.76	277.63	14.33	
2025-01-18 12:37:37.97	277.68	14.33	
2025-01-18 12:37:38.17	277.72	14.33	
2025-01-18 12:37:38.37	277.76	14.33	
2025-01-18 12:37:38.57	277.80	14.33	
2025-01-18 12:37:38.78	277.85	14.33	
2025-01-18 12:37:38.98	277.89	14.33	
2025-01-18 12:37:39.18	277.93	14.33	
2025-01-18 12:37:39.39	277.97	14.33	
2025-01-18 12:37:39.59	278.01	14.33	
2025-01-18 12:37:39.79	278.06	14.34	
2025-01-18 12:37:40.00	278.10	14.34	
2025-01-18 12:37:40.20	278.14	14.34	
2025-01-18 12:37:40.40	278.18	14.34	
2025-01-18 12:37:40.60	278.22	14.34	
2025-01-18 12:37:40.81	278.27	14.34	
2025-01-18 12:37:41.01	278.31	14.34	
2025-01-18 12:37:41.21	278.35	14.34	
2025-01-18 12:37:41.42	278.39	14.34	
2025-01-18 12:37:41.62	278.44	14.34	
2025-01-18 12:37:41.82	278.48	14.34	
2025-01-18 12:37:42.03	278.52	14.34	
2025-01-18 12:37:42.23	278.56	14.34	
2025-01-18 12:37:42.43	278.60	14.34	
2025-01-18 12:37:42.63	278.65	14.34	
2025-01-18 12:37:42.84	278.69	14.34	
2025-01-18 12:37:43.04	278.73	14.34	
2025-01-18 12:37:43.24	278.77	14.34	
2025-01-18 12:37:43.45	278.82	14.34	
2025-01-18 12:37:43.65	278.86	14.34	
2025-01-18 12:37:43.85	278.90	14.34	
2025-01-18 12:37:44.06	278.94	14.34	
2025-01-18 12:37:44.26	278.98	14.34	
2025-01-18 12:37:44.46	279.03	14.34	
2025-01-18 12:37:44.66	279.07	14.35	
2025-01-18 12:37:44.87	279.11	14.35	
2025-01-18 12:37:45.07	279.15	14.35	
2025-01-18 12:37:45.27	279.19	14.35	
2025-01-18 12:37:45.48	279.24	14.35	
2025-01-18 12:37:45.68	279.28	14.35	
2025-01-18 12:37:45.88	279.32	14.35	
2025-01-18 12:37:46.09	279.36	14.35	
2025-01-18 12:37:46.29	279.41	14.35	
2025-01-18 12:37:46.49	279.45	14.35	
2025-01-18 12:37:46.69	279.49	14.35	
2025-01-18 12:37:46.90	279.53	14.35	
2025-01-18 12:37:47.10	279.57	14.35	
2025-01-18 12:37:47.30	279.62	14.35	
2025-01-18 12:37:47.51	279.66	14.35	
2025-01-18 12:37:47.71	279.70	14.35	
2025-01-18 12:37:47.91	279.74	14.35	
2025-01-18 12:37:48.12	279.79	14.35	
2025-01-18 12:37:48.32	279.83	14.35	
2025-01-18 12:37:48.52	279.87	14.35	
2025-01-18 12:37:48.72	279.91	14.35	
2025-01-18 12:37:48.93	279.95	14.35	
2025-01-18 12:37:49.13	280.00	14.35	
2025-01-18 12:37:49.33	280.04	14.35	
2025-01-18 12:37:49.54	280.08	14.35	
2025-01-18 12:37:49.74	280.12	14.35	
2025-01-18 12:37:49.94	280.16	14.35	
2025-01-18 12:37:50.14	280.20	14.35	
2025-01-18 12:37:50.36	280.25	14.35	
2025-01-18 12:37:50.57	280.29	14.35	
2025-01-18 12:37:50.77	280.34	14.35	
2025-01-18 12:37:50.97	280.38	14.35	
2025-01-18 12:37:51.18	280.42	14.35	
2025-01-18 12:37:51.38	280.46	14.34	
2025-01-18 12:37:51.58	280.50	14.34	
2025-01-18 12:37:51.78	280.55	14.34	
2025-01-18 12:37:51.99	280.59	14.34	
2025-01-18 12:37:52.19	280.63	14.34	
2025-01-18 12:37:52.39	280.67	14.34	
2025-01-18 12:37:52.60	280.72	14.34	
2025-01-18 12:37:52.80	280.76	14.34	
2025-01-18 12:37:53.00	280.80	14.34	
2025-01-18 12:37:53.21	280.84	14.34	
2025-01-18 12:37:53.41	280.88	14.34	
2025-01-18 12:37:53.61	280.93	14.34	
2025-01-18 12:37:53.81	280.97	14.34	
2025-01-18 12:37:54.02	281.01	14.34	
2025-01-18 12:37:54.22	281.05	14.34	
2025-01-18 12:37:54.42	281.09	14.34	
2025-01-18 12:37:54.63	281.14	14.34	
2025-01-18 12:37:54.83	281.18	14.34	
2025-01-18 12:37:55.03	281.22	14.34	
2025-01-18 12:37:55.24	281.26	14.34	
2025-01-18 12:37:55.44	281.31	14.34	
2025-01-18 12:37:55.64	281.35	14.34	
2025-01-18 12:37:55.84	281.39	14.34	
2025-01-18 12:37:56.05	281.43	14.34	
2025-01-18 12:37:56.25	281.47	14.34	
2025-01-18 12:37:56.45	281.51	14.33	
2025-01-18 12:37:56.66	281.56	14.33	
2025-01-18 12:37:56.86	281.60	14.33	
2025-01-18 12:37:57.06	281.64	14.33	
2025-01-18 12:37:57.26	281.68	14.33	
2025-01-18 12:37:57.47	281.73	14.33	
2025-01-18 12:37:57.67	281.77	14.33	
2025-01-18 12:37:57.87	281.81	14.33	
2025-01-18 12:37:58.08	281.85	14.33	
2025-01-18 12:37:58.28	281.89	14.33	
2025-01-18 12:37:58.48	281.94	14.33	
2025-01-18 12:37:58.69	281.98	14.33	
2025-01-18 12:37:58.89	282.02	14.33	
2025-01-18 12:37:59.09	282.06	14.33	
2025-01-18 12:37:59.29	282.10	14.32	
2025-01-18 12:37:59.50	282.15	14.32	
2025-01-18 12:37:59.70	282.19	14.32	
2025-01-18 12:37:59.90	282.23	14.32	
2025-01-18 12:38:00.11	282.27	14.32	
2025-01-18 12:38:00.31	282.31	14.32	
2025-01-18 12:38:00.51	282.36	14.32	
2025-01-18 12:38:00.72	282.40	14.32	
2025-01-18 12:38:00.92	282.44	14.32	
2025-01-18 12:38:01.12	282.48	14.32	
2025-01-18 12:38:01.32	282.52	14.32	
2025-01-18 12:38:01.53	282.57	14.32	
2025-01-18 12:38:01.73	282.61	14.31	
2025-01-18 12:38:01.93	282.65	14.31	
2025-01-18 12:38:02.14	282.69	14.31	
2025-01-18 12:38:02.34	282.74	14.31	
2025-01-18 12:38:02.54	282.78	14.31	
2025-01-18 12:38:02.75	282.82	14.31	
2025-01-18 12:38:02.95	282.86	14.31	
2025-01-18 12:38:03.15	282.90	14.31	
2025-01-18 12:38:03.35	282.94	14.31	
2025-01-18 12:38:03.56	282.99	14.30	
2025-01-18 12:38:03.76	283.03	14.30	
2025-01-18 12:38:03.96	283.07	14.30	
2025-01-18 12:38:04.17	283.11	14.30	
2025-01-18 12:38:04.37	283.16	14.30	
2025-01-18 12:38:04.57	283.20	14.30	
2025-01-18 12:38:04.78	283.24	14.30	
2025-01-18 12:38:04.98	283.28	14.30	
2025-01-18 12:38:05.18	283.32	14.30	
2025-01-18 12:38:05.38	283.36	14.29	
2025-01-18 12:38:05.59	283.41	14.29	
2025-01-18 12:38:05.79	283.45	14.29	
2025-01-18 12:38:05.99	283.49	14.29	
2025-01-18 12:38:06.20	283.53	14.29	
2025-01-18 12:38:06.40	283.58	14.29	
2025-01-18 12:38:06.60	283.62	14.29	
2025-01-18 12:38:06.81	283.66	14.29	
2025-01-18 12:38:07.01	283.70	14.28	
2025-01-18 12:38:07.21	283.74	14.28	
2025-01-18 12:38:07.41	283.78	14.28	
2025-01-18 12:38:07.62	283.83	14.28	
2025-01-18 12:38:07.82	283.87	14.28	
2025-01-18 12:38:08.02	283.91	14.28	
2025-01-18 12:38:08.23	283.95	14.28	
2025-01-18 12:38:08.43	283.99	14.27	
2025-01-18 12:38:08.63	284.04	14.27	
2025-01-18 12:38:08.84	284.08	14.27	
2025-01-18 12:38:09.04	284.12	14.27	
2025-01-18 12:38:09.24	284.16	14.27	
2025-01-18 12:38:09.44	284.20	14.27	
2025-01-18 12:38:09.65	284.25	14.27	
2025-01-18 12:38:09.85	284.29	14.26	
2025-01-18 12:38:10.05	284.33	14.26	
2025-01-18 12:38:10.26	284.37	14.26	
2025-01-18 12:38:10.46	284.41	14.26	
2025-01-18 12:38:10.66	284.46	14.26	
2025-01-18 12:38:10.87	284.50	14.26	
2025-01-18 12:38:11.07	284.54	14.25	
2025-01-18 12:38:11.27	284.58	14.25	
2025-01-18 12:38:11.47	284.62	14.25	
2025-01-18 12:38:11.68	284.67	14.25	
2025-01-18 12:38:11.88	284.71	14.25	
2025-01-18 12:38:12.08	284.75	14.25	
2025-01-18 12:38:12.29	284.79	14.24	
2025-01-18 12:38:12.49	284.83	14.24	
2025-01-18 12:38:12.69	284.87	14.24	
2025-01-18 12:38:12.89	284.92	14.24	
2025-01-18 12:38:13.10	284.96	14.24	
2025-01-18 12:38:13.30	285.00	14.24	
2025-01-18 12:38:13.50	285.04	14.23	
2025-01-18 12:38:13.71	285.08	14.23	
2025-01-18 12:38:13.91	285.13	14.23	
2025-01-18 12:38:14.11	285.17	14.23	
2025-01-18 12:38:14.32	285.21	14.23	
2025-01-18 12:38:14.52	285.25	14.23	
2025-01-18 12:38:14.72	285.29	14.22	
2025-01-18 12:38:14.92	285.33	14.22	
2025-01-18 12:38:15.13	285.38	14.22	
2025-01-18 12:38:15.33	285.42	14.22	
2025-01-18 12:38:15.53	285.46	14.22	
2025-01-18 12:38:15.74	285.50	14.21	
2025-01-18 12:38:15.94	285.54	14.21	
2025-01-18 12:38:16.14	285.58	14.21	
2025-01-18 12:38:16.35	285.63	14.21	
2025-01-18 12:38:16.55	285.67	14.21	
2025-01-18 12:38:16.75	285.71	14.20	
2025-01-18 12:38:16.95	285.75	14.20	
2025-01-18 12:38:17.16	285.79	14.20	
2025-01-18 12:38:17.36	285.83	14.20	
2025-01-18 12:38:17.56	285.88	14.20	
2025-01-18 12:38:17.77	285.92	14.19	
2025-01-18 12:38:17.97	285.96	14.19	
2025-01-18 12:38:18.17	286.00	14.19	
2025-01-18 12:38:18.38	286.04	14.19	
2025-01-18 12:38:18.58	286.09	14.19	
2025-01-18 12:38:18.78	286.13	14.18	
2025-01-18 12:38:18.98	286.17	14.18	
2025-01-18 12:38:19.19	286.21	14.18	
2025-01-18 12:38:19.39	286.25	14.18	
2025-01-18 12:38:19.59	286.29	14.17	
2025-01-18 12:38:19.80	286.34	14.17	
2025-01-18 12:38:20.00	286.38	14.17	
2025-01-18 12:38:20.20	286.42	14.17	
2025-01-18 12:38:20.41	286.46	14.17	
2025-01-18 12:38:20.61	286.50	14.16	
2025-01-18 12:38:20.81	286.54	14.16	
2025-01-18 12:38:21.01	286.58	14.16	
2025-01-18 12:38:21.22	286.63	14.16	
