passes_logs/2025/01/18/SPB_Silybum_02/SPB_Silybum_02__20250118_084126_AQUA_rec.log

#Pass ID: 20250118_084126_AQUA
#Satellite: AQUA
#Configuration: AQUA
#Start time: 2025-01-18 08:41:25

#Version: 2.0.20230423
#Station: SPB_Silybum_02
#Location: 30.233357 lon 59.946436 lat
#TLE: 1 27424U 02022A   25017.88331103  .00002112  00000+0  44339-3 0  9998
#TLE: 2 27424  98.3596 334.5732 0001847 108.4912 313.9167 14.60695357208043

#Time	Az	El	Level	Level2	SNR	BER	Gain	Gain2
2025-01-18 08:41:27.42	76.48	4.05	
2025-01-18 08:41:27.63	76.46	4.06	
2025-01-18 08:41:27.83	76.43	4.07	
2025-01-18 08:41:28.03	76.41	4.08	
2025-01-18 08:41:28.24	76.38	4.09	
2025-01-18 08:41:28.44	76.36	4.09	
2025-01-18 08:41:28.64	76.33	4.10	
2025-01-18 08:41:28.85	76.31	4.11	
2025-01-18 08:41:29.05	76.28	4.12	
2025-01-18 08:41:29.25	76.26	4.13	
2025-01-18 08:41:29.45	76.23	4.14	
2025-01-18 08:41:29.66	76.21	4.15	
2025-01-18 08:41:29.86	76.18	4.16	
2025-01-18 08:41:30.06	76.16	4.17	
2025-01-18 08:41:30.27	76.13	4.18	
2025-01-18 08:41:30.47	76.11	4.19	
2025-01-18 08:41:30.67	76.08	4.20	
2025-01-18 08:41:30.88	76.06	4.21	
2025-01-18 08:41:31.08	76.03	4.22	
2025-01-18 08:41:31.28	76.01	4.23	
2025-01-18 08:41:31.49	75.98	4.24	
2025-01-18 08:41:31.69	75.96	4.25	
2025-01-18 08:41:31.89	75.93	4.26	
2025-01-18 08:41:32.09	75.91	4.27	
2025-01-18 08:41:32.30	75.88	4.28	
2025-01-18 08:41:32.50	75.85	4.29	
2025-01-18 08:41:32.70	75.83	4.30	
2025-01-18 08:41:32.91	75.80	4.31	
2025-01-18 08:41:33.11	75.78	4.32	
2025-01-18 08:41:33.31	75.75	4.33	
2025-01-18 08:41:33.52	75.73	4.34	
2025-01-18 08:41:33.72	75.70	4.35	
2025-01-18 08:41:33.92	75.68	4.36	
2025-01-18 08:41:34.13	75.65	4.37	
2025-01-18 08:41:34.33	75.62	4.38	
2025-01-18 08:41:34.53	75.60	4.39	
2025-01-18 08:41:34.74	75.57	4.40	
2025-01-18 08:41:34.94	75.55	4.41	
2025-01-18 08:41:35.14	75.52	4.41	
2025-01-18 08:41:35.34	75.50	4.42	
2025-01-18 08:41:35.55	75.47	4.43	
2025-01-18 08:41:35.75	75.44	4.44	
2025-01-18 08:41:35.95	75.42	4.45	
2025-01-18 08:41:36.16	75.39	4.46	
2025-01-18 08:41:36.36	75.37	4.47	
2025-01-18 08:41:36.56	75.34	4.48	
2025-01-18 08:41:36.77	75.32	4.49	
2025-01-18 08:41:36.97	75.29	4.50	
2025-01-18 08:41:37.17	75.26	4.51	
2025-01-18 08:41:37.38	75.24	4.52	
2025-01-18 08:41:37.58	75.21	4.53	
2025-01-18 08:41:37.78	75.19	4.54	
2025-01-18 08:41:37.98	75.16	4.55	
2025-01-18 08:41:38.19	75.13	4.56	
2025-01-18 08:41:38.39	75.11	4.57	
2025-01-18 08:41:38.59	75.08	4.58	
2025-01-18 08:41:38.80	75.06	4.59	
2025-01-18 08:41:39.00	75.03	4.60	
2025-01-18 08:41:39.20	75.01	4.61	
2025-01-18 08:41:39.41	74.98	4.62	
2025-01-18 08:41:39.61	74.95	4.63	
2025-01-18 08:41:39.81	74.93	4.64	
2025-01-18 08:41:40.02	74.90	4.65	
2025-01-18 08:41:40.22	74.87	4.66	
2025-01-18 08:41:40.42	74.85	4.67	
2025-01-18 08:41:40.63	74.82	4.68	
2025-01-18 08:41:40.83	74.80	4.69	
2025-01-18 08:41:41.03	74.77	4.69	
2025-01-18 08:41:41.23	74.74	4.70	
2025-01-18 08:41:41.44	74.72	4.71	
2025-01-18 08:41:41.64	74.69	4.72	
2025-01-18 08:41:41.84	74.66	4.73	
2025-01-18 08:41:42.05	74.64	4.74	
2025-01-18 08:41:42.25	74.61	4.75	
2025-01-18 08:41:42.45	74.59	4.76	
2025-01-18 08:41:42.66	74.56	4.77	
2025-01-18 08:41:42.86	74.53	4.78	
2025-01-18 08:41:43.06	74.51	4.79	
2025-01-18 08:41:43.27	74.48	4.80	
2025-01-18 08:41:43.47	74.45	4.81	
2025-01-18 08:41:43.67	74.43	4.82	
2025-01-18 08:41:43.88	74.40	4.83	
2025-01-18 08:41:44.08	74.37	4.84	
2025-01-18 08:41:44.28	74.35	4.85	
2025-01-18 08:41:44.48	74.32	4.86	
2025-01-18 08:41:44.69	74.29	4.87	
2025-01-18 08:41:44.89	74.27	4.88	
2025-01-18 08:41:45.09	74.24	4.89	
2025-01-18 08:41:45.30	74.21	4.90	
2025-01-18 08:41:45.50	74.19	4.91	
2025-01-18 08:41:45.70	74.16	4.92	
2025-01-18 08:41:45.91	74.13	4.93	
2025-01-18 08:41:46.11	74.11	4.94	
2025-01-18 08:41:46.31	74.08	4.94	
2025-01-18 08:41:46.52	74.05	4.95	
2025-01-18 08:41:46.72	74.03	4.96	
2025-01-18 08:41:46.92	74.00	4.97	
2025-01-18 08:41:47.12	73.97	4.98	
2025-01-18 08:41:47.33	73.95	4.99	
2025-01-18 08:41:47.53	73.92	5.00	
2025-01-18 08:41:47.73	73.89	5.01	
2025-01-18 08:41:47.94	73.87	5.02	
2025-01-18 08:41:48.14	73.84	5.03	
2025-01-18 08:41:48.34	73.81	5.04	
2025-01-18 08:41:48.55	73.78	5.05	
2025-01-18 08:41:48.75	73.76	5.06	
2025-01-18 08:41:48.95	73.73	5.07	
2025-01-18 08:41:49.16	73.70	5.08	
2025-01-18 08:41:49.36	73.68	5.09	
2025-01-18 08:41:49.56	73.65	5.10	
2025-01-18 08:41:49.77	73.62	5.11	
2025-01-18 08:41:49.97	73.60	5.12	
2025-01-18 08:41:50.17	73.57	5.13	
2025-01-18 08:41:50.37	73.54	5.14	
2025-01-18 08:41:50.58	73.51	5.15	
2025-01-18 08:41:50.78	73.49	5.16	
2025-01-18 08:41:50.98	73.46	5.17	
2025-01-18 08:41:51.19	73.43	5.18	
2025-01-18 08:41:51.39	73.41	5.18	
2025-01-18 08:41:51.59	73.38	5.19	
2025-01-18 08:41:51.80	73.35	5.20	
2025-01-18 08:41:52.00	73.32	5.21	
2025-01-18 08:41:52.20	73.30	5.22	
2025-01-18 08:41:52.41	73.27	5.23	
2025-01-18 08:41:52.61	73.24	5.24	
2025-01-18 08:41:52.81	73.22	5.25	
2025-01-18 08:41:53.02	73.19	5.26	
2025-01-18 08:41:53.22	73.16	5.27	
2025-01-18 08:41:53.42	73.13	5.28	
2025-01-18 08:41:53.62	73.11	5.29	
2025-01-18 08:41:53.83	73.08	5.30	
2025-01-18 08:41:54.03	73.05	5.31	
2025-01-18 08:41:54.23	73.02	5.32	
2025-01-18 08:41:54.44	73.00	5.33	
2025-01-18 08:41:54.64	72.97	5.34	
2025-01-18 08:41:54.84	72.94	5.35	
2025-01-18 08:41:55.05	72.91	5.36	
2025-01-18 08:41:55.25	72.89	5.37	
2025-01-18 08:41:55.45	72.86	5.38	
2025-01-18 08:41:55.66	72.83	5.39	
2025-01-18 08:41:55.86	72.80	5.39	
2025-01-18 08:41:56.06	72.77	5.40	
2025-01-18 08:41:56.26	72.75	5.41	
2025-01-18 08:41:56.47	72.72	5.42	
2025-01-18 08:41:56.67	72.69	5.43	
2025-01-18 08:41:56.87	72.66	5.44	
2025-01-18 08:41:57.08	72.64	5.45	
2025-01-18 08:41:57.28	72.61	5.46	
2025-01-18 08:41:57.48	72.58	5.47	
2025-01-18 08:41:57.69	72.55	5.48	
2025-01-18 08:41:57.89	72.52	5.49	
2025-01-18 08:41:58.09	72.50	5.50	
2025-01-18 08:41:58.30	72.47	5.51	
2025-01-18 08:41:58.50	72.44	5.52	
2025-01-18 08:41:58.70	72.41	5.53	
2025-01-18 08:41:58.91	72.38	5.54	
2025-01-18 08:41:59.11	72.36	5.55	
2025-01-18 08:41:59.31	72.33	5.56	
2025-01-18 08:41:59.51	72.30	5.57	
2025-01-18 08:41:59.72	72.27	5.57	
2025-01-18 08:41:59.92	72.25	5.58	
2025-01-18 08:42:00.12	72.22	5.59	
2025-01-18 08:42:00.33	72.19	5.60	
2025-01-18 08:42:00.53	72.16	5.61	
2025-01-18 08:42:00.73	72.13	5.62	
2025-01-18 08:42:00.94	72.10	5.63	
2025-01-18 08:42:01.14	72.08	5.64	
2025-01-18 08:42:01.34	72.05	5.65	
2025-01-18 08:42:01.55	72.02	5.66	
2025-01-18 08:42:01.75	71.99	5.67	
2025-01-18 08:42:01.95	71.96	5.68	
2025-01-18 08:42:02.15	71.94	5.69	
2025-01-18 08:42:02.36	71.91	5.70	
2025-01-18 08:42:02.56	71.88	5.71	
2025-01-18 08:42:02.76	71.85	5.72	
2025-01-18 08:42:02.97	71.82	5.73	
2025-01-18 08:42:03.17	71.79	5.74	
2025-01-18 08:42:03.37	71.77	5.74	
2025-01-18 08:42:03.58	71.74	5.75	
2025-01-18 08:42:03.78	71.71	5.76	
2025-01-18 08:42:03.98	71.68	5.77	
2025-01-18 08:42:04.19	71.65	5.78	
2025-01-18 08:42:04.39	71.62	5.79	
2025-01-18 08:42:04.59	71.59	5.80	
2025-01-18 08:42:04.80	71.56	5.81	
2025-01-18 08:42:05.00	71.54	5.82	
2025-01-18 08:42:05.20	71.51	5.83	
2025-01-18 08:42:05.40	71.48	5.84	
2025-01-18 08:42:05.61	71.45	5.85	
2025-01-18 08:42:05.81	71.42	5.86	
2025-01-18 08:42:06.01	71.39	5.87	
2025-01-18 08:42:06.22	71.36	5.88	
2025-01-18 08:42:06.42	71.34	5.89	
2025-01-18 08:42:06.62	71.31	5.90	
2025-01-18 08:42:06.83	71.28	5.91	
2025-01-18 08:42:07.03	71.25	5.91	
2025-01-18 08:42:07.23	71.22	5.92	
2025-01-18 08:42:07.44	71.19	5.93	
2025-01-18 08:42:07.64	71.16	5.94	
2025-01-18 08:42:07.84	71.14	5.95	
2025-01-18 08:42:08.05	71.11	5.96	
2025-01-18 08:42:08.25	71.08	5.97	
2025-01-18 08:42:08.45	71.05	5.98	
2025-01-18 08:42:08.65	71.02	5.99	
2025-01-18 08:42:08.86	70.99	6.00	
2025-01-18 08:42:09.06	70.96	6.01	
2025-01-18 08:42:09.26	70.93	6.02	
2025-01-18 08:42:09.47	70.90	6.03	
2025-01-18 08:42:09.67	70.87	6.04	
2025-01-18 08:42:09.87	70.85	6.05	
2025-01-18 08:42:10.08	70.82	6.06	
2025-01-18 08:42:10.28	70.79	6.06	
2025-01-18 08:42:10.48	70.76	6.07	
2025-01-18 08:42:10.69	70.73	6.08	
2025-01-18 08:42:10.89	70.70	6.09	
2025-01-18 08:42:11.09	70.67	6.10	
2025-01-18 08:42:11.29	70.64	6.11	
2025-01-18 08:42:11.50	70.61	6.12	
2025-01-18 08:42:11.70	70.58	6.13	
2025-01-18 08:42:11.90	70.55	6.14	
2025-01-18 08:42:12.11	70.52	6.15	
2025-01-18 08:42:12.31	70.50	6.16	
2025-01-18 08:42:12.51	70.47	6.17	
2025-01-18 08:42:12.72	70.44	6.18	
2025-01-18 08:42:12.92	70.41	6.19	
2025-01-18 08:42:13.12	70.38	6.20	
2025-01-18 08:42:13.33	70.35	6.20	
2025-01-18 08:42:13.53	70.32	6.21	
2025-01-18 08:42:13.73	70.29	6.22	
2025-01-18 08:42:13.94	70.26	6.23	
2025-01-18 08:42:14.14	70.23	6.24	
2025-01-18 08:42:14.34	70.20	6.25	
2025-01-18 08:42:14.54	70.17	6.26	
2025-01-18 08:42:14.75	70.14	6.27	
2025-01-18 08:42:14.95	70.11	6.28	
2025-01-18 08:42:15.15	70.08	6.29	
2025-01-18 08:42:15.36	70.05	6.30	
2025-01-18 08:42:15.56	70.02	6.31	
2025-01-18 08:42:15.76	69.99	6.32	
2025-01-18 08:42:15.97	69.96	6.33	
2025-01-18 08:42:16.17	69.93	6.33	
2025-01-18 08:42:16.37	69.91	6.34	
2025-01-18 08:42:16.58	69.87	6.35	
2025-01-18 08:42:16.78	69.85	6.36	
2025-01-18 08:42:16.98	69.82	6.37	
2025-01-18 08:42:17.18	69.79	6.38	
2025-01-18 08:42:17.39	69.76	6.39	
2025-01-18 08:42:17.59	69.73	6.40	
2025-01-18 08:42:17.79	69.70	6.41	
2025-01-18 08:42:18.00	69.67	6.42	
2025-01-18 08:42:18.20	69.64	6.43	
2025-01-18 08:42:18.40	69.61	6.44	
2025-01-18 08:42:18.61	69.58	6.45	
2025-01-18 08:42:18.81	69.55	6.45	
2025-01-18 08:42:19.01	69.52	6.46	
2025-01-18 08:42:19.22	69.49	6.47	
2025-01-18 08:42:19.42	69.46	6.48	
2025-01-18 08:42:19.62	69.43	6.49	
2025-01-18 08:42:19.83	69.40	6.50	
2025-01-18 08:42:20.03	69.37	6.51	
2025-01-18 08:42:20.23	69.34	6.52	
2025-01-18 08:42:20.43	69.31	6.53	
2025-01-18 08:42:20.64	69.28	6.54	
2025-01-18 08:42:20.84	69.25	6.55	
2025-01-18 08:42:21.04	69.22	6.56	
2025-01-18 08:42:21.25	69.18	6.57	
2025-01-18 08:42:21.45	69.15	6.57	
2025-01-18 08:42:21.65	69.13	6.58	
2025-01-18 08:42:21.86	69.09	6.59	
2025-01-18 08:42:22.06	69.06	6.60	
2025-01-18 08:42:22.26	69.03	6.61	
2025-01-18 08:42:22.47	69.00	6.62	
2025-01-18 08:42:22.67	68.97	6.63	
2025-01-18 08:42:22.87	68.94	6.64	
2025-01-18 08:42:23.08	68.91	6.65	
2025-01-18 08:42:23.28	68.88	6.66	
2025-01-18 08:42:23.48	68.85	6.67	
2025-01-18 08:42:23.68	68.82	6.68	
2025-01-18 08:42:23.89	68.79	6.68	
2025-01-18 08:42:24.09	68.76	6.69	
2025-01-18 08:42:24.29	68.73	6.70	
2025-01-18 08:42:24.50	68.70	6.71	
2025-01-18 08:42:24.70	68.67	6.72	
2025-01-18 08:42:24.90	68.64	6.73	
2025-01-18 08:42:25.11	68.61	6.74	
2025-01-18 08:42:25.31	68.58	6.75	
2025-01-18 08:42:25.51	68.55	6.76	
2025-01-18 08:42:25.72	68.51	6.77	
2025-01-18 08:42:25.92	68.48	6.78	
2025-01-18 08:42:26.12	68.45	6.78	
2025-01-18 08:42:26.32	68.42	6.79	
2025-01-18 08:42:26.53	68.39	6.80	
2025-01-18 08:42:26.73	68.36	6.81	
2025-01-18 08:42:26.93	68.33	6.82	
2025-01-18 08:42:27.14	68.30	6.83	
2025-01-18 08:42:27.34	68.27	6.84	
2025-01-18 08:42:27.54	68.24	6.85	
2025-01-18 08:42:27.75	68.21	6.86	
2025-01-18 08:42:27.95	68.18	6.87	
2025-01-18 08:42:28.15	68.15	6.88	
2025-01-18 08:42:28.36	68.11	6.88	
2025-01-18 08:42:28.56	68.08	6.89	
2025-01-18 08:42:28.76	68.05	6.90	
2025-01-18 08:42:28.97	68.02	6.91	
2025-01-18 08:42:29.17	67.99	6.92	
2025-01-18 08:42:29.37	67.96	6.93	
2025-01-18 08:42:29.57	67.93	6.94	
2025-01-18 08:42:29.78	67.90	6.95	
2025-01-18 08:42:29.98	67.87	6.96	
2025-01-18 08:42:30.18	67.84	6.97	
2025-01-18 08:42:30.39	67.80	6.98	
2025-01-18 08:42:30.59	67.77	6.98	
2025-01-18 08:42:30.79	67.74	6.99	
2025-01-18 08:42:31.00	67.71	7.00	
2025-01-18 08:42:31.20	67.68	7.01	
2025-01-18 08:42:31.40	67.65	7.02	
2025-01-18 08:42:31.61	67.62	7.03	
2025-01-18 08:42:31.81	67.58	7.04	
2025-01-18 08:42:32.01	67.55	7.05	
2025-01-18 08:42:32.21	67.52	7.06	
2025-01-18 08:42:32.42	67.49	7.07	
2025-01-18 08:42:32.62	67.46	7.07	
2025-01-18 08:42:32.82	67.43	7.08	
2025-01-18 08:42:33.03	67.40	7.09	
2025-01-18 08:42:33.23	67.36	7.10	
2025-01-18 08:42:33.43	67.33	7.11	
2025-01-18 08:42:33.64	67.30	7.12	
2025-01-18 08:42:33.84	67.27	7.13	
2025-01-18 08:42:34.04	67.24	7.14	
2025-01-18 08:42:34.25	67.21	7.15	
2025-01-18 08:42:34.45	67.18	7.15	
2025-01-18 08:42:34.65	67.14	7.16	
2025-01-18 08:42:34.86	67.11	7.17	
2025-01-18 08:42:35.06	67.08	7.18	
2025-01-18 08:42:35.26	67.05	7.19	
2025-01-18 08:42:35.46	67.02	7.20	
2025-01-18 08:42:35.67	66.99	7.21	
2025-01-18 08:42:35.87	66.95	7.22	
2025-01-18 08:42:36.07	66.92	7.23	
2025-01-18 08:42:36.28	66.89	7.24	
2025-01-18 08:42:36.48	66.86	7.24	
2025-01-18 08:42:36.68	66.83	7.25	
2025-01-18 08:42:36.89	66.79	7.26	
2025-01-18 08:42:37.09	66.76	7.27	
2025-01-18 08:42:37.29	66.73	7.28	
2025-01-18 08:42:37.50	66.70	7.29	
2025-01-18 08:42:37.70	66.67	7.30	
2025-01-18 08:42:37.90	66.64	7.31	
2025-01-18 08:42:38.11	66.60	7.32	
2025-01-18 08:42:38.31	66.57	7.32	
2025-01-18 08:42:38.51	66.54	7.33	
2025-01-18 08:42:38.71	66.51	7.34	
2025-01-18 08:42:38.92	66.47	7.35	
2025-01-18 08:42:39.12	66.44	7.36	
2025-01-18 08:42:39.32	66.41	7.37	
2025-01-18 08:42:39.53	66.38	7.38	
2025-01-18 08:42:39.73	66.35	7.39	
2025-01-18 08:42:39.93	66.31	7.39	
2025-01-18 08:42:40.14	66.28	7.40	
2025-01-18 08:42:40.34	66.25	7.41	
2025-01-18 08:42:40.54	66.22	7.42	
2025-01-18 08:42:40.75	66.18	7.43	
2025-01-18 08:42:40.95	66.15	7.44	
2025-01-18 08:42:41.15	66.12	7.45	
2025-01-18 08:42:41.35	66.09	7.46	
2025-01-18 08:42:41.56	66.06	7.47	
2025-01-18 08:42:41.76	66.02	7.47	
2025-01-18 08:42:41.96	65.99	7.48	
2025-01-18 08:42:42.17	65.96	7.49	
2025-01-18 08:42:42.37	65.93	7.50	
2025-01-18 08:42:42.57	65.89	7.51	
2025-01-18 08:42:42.78	65.86	7.52	
2025-01-18 08:42:42.98	65.83	7.53	
2025-01-18 08:42:43.18	65.80	7.54	
2025-01-18 08:42:43.39	65.76	7.54	
2025-01-18 08:42:43.59	65.73	7.55	
2025-01-18 08:42:43.79	65.70	7.56	
2025-01-18 08:42:44.00	65.67	7.57	
2025-01-18 08:42:44.20	65.63	7.58	
2025-01-18 08:42:44.40	65.60	7.59	
2025-01-18 08:42:44.60	65.57	7.60	
2025-01-18 08:42:44.81	65.54	7.61	
2025-01-18 08:42:45.01	65.50	7.61	
2025-01-18 08:42:45.21	65.47	7.62	
2025-01-18 08:42:45.42	65.44	7.63	
2025-01-18 08:42:45.62	65.40	7.64	
2025-01-18 08:42:45.82	65.37	7.65	
2025-01-18 08:42:46.03	65.34	7.66	
2025-01-18 08:42:46.23	65.31	7.67	
2025-01-18 08:42:46.43	65.27	7.67	
2025-01-18 08:42:46.64	65.24	7.68	
2025-01-18 08:42:46.84	65.21	7.69	
2025-01-18 08:42:47.04	65.17	7.70	
2025-01-18 08:42:47.24	65.14	7.71	
2025-01-18 08:42:47.45	65.11	7.72	
2025-01-18 08:42:47.65	65.08	7.73	
2025-01-18 08:42:47.85	65.04	7.73	
2025-01-18 08:42:48.06	65.01	7.74	
2025-01-18 08:42:48.26	64.98	7.75	
2025-01-18 08:42:48.46	64.94	7.76	
2025-01-18 08:42:48.67	64.91	7.77	
2025-01-18 08:42:48.87	64.88	7.78	
2025-01-18 08:42:49.07	64.84	7.79	
2025-01-18 08:42:49.28	64.81	7.80	
2025-01-18 08:42:49.48	64.78	7.80	
2025-01-18 08:42:49.68	64.74	7.81	
2025-01-18 08:42:49.89	64.71	7.82	
2025-01-18 08:42:50.09	64.68	7.83	
2025-01-18 08:42:50.29	64.65	7.84	
2025-01-18 08:42:50.49	64.61	7.85	
2025-01-18 08:42:50.70	64.58	7.86	
2025-01-18 08:42:50.90	64.55	7.86	
2025-01-18 08:42:51.10	64.51	7.87	
2025-01-18 08:42:51.31	64.48	7.88	
2025-01-18 08:42:51.51	64.44	7.89	
2025-01-18 08:42:51.71	64.41	7.90	
2025-01-18 08:42:51.92	64.38	7.91	
2025-01-18 08:42:52.12	64.34	7.92	
2025-01-18 08:42:52.32	64.31	7.92	
2025-01-18 08:42:52.53	64.28	7.93	
2025-01-18 08:42:52.73	64.24	7.94	
2025-01-18 08:42:52.93	64.21	7.95	
2025-01-18 08:42:53.14	64.18	7.96	
2025-01-18 08:42:53.34	64.14	7.97	
2025-01-18 08:42:53.54	64.11	7.97	
2025-01-18 08:42:53.74	64.08	7.98	
2025-01-18 08:42:53.95	64.04	7.99	
2025-01-18 08:42:54.15	64.01	8.00	
2025-01-18 08:42:54.35	63.98	8.01	
2025-01-18 08:42:54.56	63.94	8.02	
2025-01-18 08:42:54.76	63.91	8.03	
2025-01-18 08:42:54.96	63.87	8.03	
2025-01-18 08:42:55.17	63.84	8.04	
2025-01-18 08:42:55.37	63.81	8.05	
2025-01-18 08:42:55.57	63.77	8.06	
2025-01-18 08:42:55.78	63.74	8.07	
2025-01-18 08:42:55.98	63.70	8.08	
2025-01-18 08:42:56.18	63.67	8.08	
2025-01-18 08:42:56.38	63.64	8.09	
2025-01-18 08:42:56.59	63.60	8.10	
2025-01-18 08:42:56.79	63.57	8.11	
2025-01-18 08:42:56.99	63.54	8.12	
2025-01-18 08:42:57.20	63.50	8.13	
2025-01-18 08:42:57.40	63.47	8.13	
2025-01-18 08:42:57.60	63.43	8.14	
2025-01-18 08:42:57.81	63.40	8.15	
2025-01-18 08:42:58.01	63.36	8.16	
2025-01-18 08:42:58.21	63.33	8.17	
2025-01-18 08:42:58.42	63.30	8.18	
2025-01-18 08:42:58.62	63.26	8.18	
2025-01-18 08:42:58.82	63.23	8.19	
2025-01-18 08:42:59.03	63.19	8.20	
2025-01-18 08:42:59.23	63.16	8.21	
2025-01-18 08:42:59.43	63.13	8.22	
2025-01-18 08:42:59.63	63.09	8.23	
2025-01-18 08:42:59.84	63.06	8.23	
2025-01-18 08:43:00.04	63.02	8.24	
2025-01-18 08:43:00.24	62.99	8.25	
2025-01-18 08:43:00.45	62.95	8.26	
2025-01-18 08:43:00.65	62.92	8.27	
2025-01-18 08:43:00.85	62.89	8.28	
2025-01-18 08:43:01.06	62.85	8.28	
2025-01-18 08:43:01.26	62.82	8.29	
2025-01-18 08:43:01.46	62.78	8.30	
2025-01-18 08:43:01.67	62.75	8.31	
2025-01-18 08:43:01.87	62.71	8.32	
2025-01-18 08:43:02.07	62.68	8.33	
2025-01-18 08:43:02.28	62.64	8.33	
2025-01-18 08:43:02.48	62.61	8.34	
2025-01-18 08:43:02.68	62.58	8.35	
2025-01-18 08:43:02.88	62.54	8.36	
2025-01-18 08:43:03.09	62.51	8.37	
2025-01-18 08:43:03.29	62.47	8.37	
2025-01-18 08:43:03.49	62.44	8.38	
2025-01-18 08:43:03.70	62.40	8.39	
2025-01-18 08:43:03.90	62.37	8.40	
2025-01-18 08:43:04.10	62.33	8.41	
2025-01-18 08:43:04.31	62.30	8.42	
2025-01-18 08:43:04.51	62.26	8.42	
2025-01-18 08:43:04.71	62.23	8.43	
2025-01-18 08:43:04.92	62.19	8.44	
2025-01-18 08:43:05.12	62.16	8.45	
2025-01-18 08:43:05.32	62.12	8.46	
2025-01-18 08:43:05.52	62.09	8.46	
2025-01-18 08:43:05.73	62.05	8.47	
2025-01-18 08:43:05.93	62.02	8.48	
2025-01-18 08:43:06.13	61.98	8.49	
2025-01-18 08:43:06.34	61.95	8.50	
2025-01-18 08:43:06.54	61.91	8.51	
2025-01-18 08:43:06.74	61.88	8.51	
2025-01-18 08:43:06.95	61.84	8.52	
2025-01-18 08:43:07.15	61.81	8.53	
2025-01-18 08:43:07.35	61.77	8.54	
2025-01-18 08:43:07.56	61.74	8.55	
2025-01-18 08:43:07.76	61.70	8.55	
2025-01-18 08:43:07.96	61.67	8.56	
2025-01-18 08:43:08.17	61.63	8.57	
2025-01-18 08:43:08.37	61.60	8.58	
2025-01-18 08:43:08.57	61.56	8.59	
2025-01-18 08:43:08.77	61.53	8.59	
2025-01-18 08:43:08.98	61.49	8.60	
2025-01-18 08:43:09.18	61.46	8.61	
2025-01-18 08:43:09.38	61.42	8.62	
2025-01-18 08:43:09.59	61.39	8.63	
2025-01-18 08:43:09.79	61.35	8.63	
2025-01-18 08:43:09.99	61.32	8.64	
2025-01-18 08:43:10.20	61.28	8.65	
2025-01-18 08:43:10.40	61.25	8.66	
2025-01-18 08:43:10.60	61.21	8.67	
2025-01-18 08:43:10.81	61.17	8.67	
2025-01-18 08:43:11.01	61.14	8.68	
2025-01-18 08:43:11.21	61.10	8.69	
2025-01-18 08:43:11.41	61.07	8.70	
2025-01-18 08:43:11.62	61.03	8.71	
2025-01-18 08:43:11.82	61.00	8.71	
2025-01-18 08:43:12.02	60.96	8.72	
2025-01-18 08:43:12.23	60.93	8.73	
2025-01-18 08:43:12.43	60.89	8.74	
2025-01-18 08:43:12.63	60.86	8.74	
2025-01-18 08:43:12.84	60.82	8.75	
2025-01-18 08:43:13.04	60.78	8.76	
2025-01-18 08:43:13.24	60.75	8.77	
2025-01-18 08:43:13.45	60.71	8.78	
2025-01-18 08:43:13.65	60.68	8.78	
2025-01-18 08:43:13.85	60.64	8.79	
2025-01-18 08:43:14.06	60.60	8.80	
2025-01-18 08:43:14.26	60.57	8.81	
2025-01-18 08:43:14.46	60.53	8.82	
2025-01-18 08:43:14.66	60.50	8.82	
2025-01-18 08:43:14.87	60.46	8.83	
2025-01-18 08:43:15.07	60.43	8.84	
2025-01-18 08:43:15.27	60.39	8.85	
2025-01-18 08:43:15.48	60.35	8.85	
2025-01-18 08:43:15.68	60.32	8.86	
2025-01-18 08:43:15.88	60.28	8.87	
2025-01-18 08:43:16.09	60.25	8.88	
2025-01-18 08:43:16.29	60.21	8.89	
2025-01-18 08:43:16.49	60.17	8.89	
2025-01-18 08:43:16.70	60.14	8.90	
2025-01-18 08:43:16.90	60.10	8.91	
2025-01-18 08:43:17.10	60.07	8.92	
2025-01-18 08:43:17.31	60.03	8.92	
2025-01-18 08:43:17.51	59.99	8.93	
2025-01-18 08:43:17.71	59.96	8.94	
2025-01-18 08:43:17.91	59.92	8.95	
2025-01-18 08:43:18.12	59.88	8.96	
2025-01-18 08:43:18.32	59.85	8.96	
2025-01-18 08:43:18.52	59.81	8.97	
2025-01-18 08:43:18.73	59.78	8.98	
2025-01-18 08:43:18.93	59.74	8.99	
2025-01-18 08:43:19.13	59.70	8.99	
2025-01-18 08:43:19.34	59.67	9.00	
2025-01-18 08:43:19.54	59.63	9.01	
2025-01-18 08:43:19.74	59.60	9.02	
2025-01-18 08:43:19.95	59.56	9.02	
2025-01-18 08:43:20.15	59.52	9.03	
2025-01-18 08:43:20.35	59.49	9.04	
2025-01-18 08:43:20.55	59.45	9.05	
2025-01-18 08:43:20.76	59.41	9.05	
2025-01-18 08:43:20.96	59.38	9.06	
2025-01-18 08:43:21.16	59.34	9.07	
2025-01-18 08:43:21.37	59.30	9.08	
2025-01-18 08:43:21.57	59.27	9.08	
2025-01-18 08:43:21.77	59.23	9.09	
2025-01-18 08:43:21.98	59.19	9.10	
2025-01-18 08:43:22.18	59.16	9.11	
2025-01-18 08:43:22.38	59.12	9.11	
2025-01-18 08:43:22.59	59.08	9.12	
2025-01-18 08:43:22.79	59.05	9.13	
2025-01-18 08:43:22.99	59.01	9.14	
2025-01-18 08:43:23.20	58.97	9.14	
2025-01-18 08:43:23.40	58.94	9.15	
2025-01-18 08:43:23.60	58.90	9.16	
2025-01-18 08:43:23.80	58.86	9.17	
2025-01-18 08:43:24.01	58.83	9.17	
2025-01-18 08:43:24.21	58.79	9.18	
2025-01-18 08:43:24.41	58.75	9.19	
2025-01-18 08:43:24.62	58.72	9.20	
2025-01-18 08:43:24.82	58.68	9.20	
2025-01-18 08:43:25.02	58.64	9.21	
2025-01-18 08:43:25.23	58.60	9.22	
2025-01-18 08:43:25.43	58.57	9.23	
2025-01-18 08:43:25.63	58.53	9.23	
2025-01-18 08:43:25.84	58.49	9.24	
2025-01-18 08:43:26.04	58.46	9.25	
2025-01-18 08:43:26.24	58.42	9.26	
2025-01-18 08:43:26.44	58.38	9.26	
2025-01-18 08:43:26.65	58.35	9.27	
2025-01-18 08:43:26.85	58.31	9.28	
2025-01-18 08:43:27.05	58.27	9.29	
2025-01-18 08:43:27.26	58.24	9.29	
2025-01-18 08:43:27.46	58.20	9.30	
2025-01-18 08:43:27.66	58.16	9.31	
2025-01-18 08:43:27.87	58.12	9.31	
2025-01-18 08:43:28.07	58.09	9.32	
2025-01-18 08:43:28.27	58.05	9.33	
2025-01-18 08:43:28.48	58.01	9.34	
2025-01-18 08:43:28.68	57.98	9.34	
2025-01-18 08:43:28.88	57.94	9.35	
2025-01-18 08:43:29.09	57.90	9.36	
2025-01-18 08:43:29.29	57.86	9.37	
2025-01-18 08:43:29.49	57.83	9.37	
2025-01-18 08:43:29.69	57.79	9.38	
2025-01-18 08:43:29.90	57.75	9.39	
2025-01-18 08:43:30.10	57.71	9.39	
2025-01-18 08:43:30.30	57.68	9.40	
2025-01-18 08:43:30.51	57.64	9.41	
2025-01-18 08:43:30.71	57.60	9.42	
2025-01-18 08:43:30.91	57.56	9.42	
2025-01-18 08:43:31.12	57.53	9.43	
2025-01-18 08:43:31.32	57.49	9.44	
2025-01-18 08:43:31.52	57.45	9.44	
2025-01-18 08:43:31.73	57.41	9.45	
2025-01-18 08:43:31.93	57.38	9.46	
2025-01-18 08:43:32.13	57.34	9.47	
2025-01-18 08:43:32.34	57.30	9.47	
2025-01-18 08:43:32.54	57.26	9.48	
2025-01-18 08:43:32.74	57.23	9.49	
2025-01-18 08:43:32.94	57.19	9.49	
2025-01-18 08:43:33.15	57.15	9.50	
2025-01-18 08:43:33.35	57.11	9.51	
2025-01-18 08:43:33.55	57.08	9.52	
2025-01-18 08:43:33.76	57.04	9.52	
2025-01-18 08:43:33.96	57.00	9.53	
2025-01-18 08:43:34.16	56.96	9.54	
2025-01-18 08:43:34.37	56.92	9.54	
2025-01-18 08:43:34.57	56.89	9.55	
2025-01-18 08:43:34.77	56.85	9.56	
2025-01-18 08:43:34.98	56.81	9.57	
2025-01-18 08:43:35.18	56.77	9.57	
2025-01-18 08:43:35.38	56.74	9.58	
2025-01-18 08:43:35.58	56.70	9.59	
2025-01-18 08:43:35.79	56.66	9.59	
2025-01-18 08:43:35.99	56.62	9.60	
2025-01-18 08:43:36.19	56.58	9.61	
2025-01-18 08:43:36.40	56.54	9.61	
2025-01-18 08:43:36.60	56.51	9.62	
2025-01-18 08:43:36.80	56.47	9.63	
2025-01-18 08:43:37.01	56.43	9.63	
2025-01-18 08:43:37.21	56.39	9.64	
2025-01-18 08:43:37.41	56.36	9.65	
2025-01-18 08:43:37.62	56.32	9.66	
2025-01-18 08:43:37.82	56.28	9.66	
2025-01-18 08:43:38.02	56.24	9.67	
2025-01-18 08:43:38.23	56.20	9.68	
2025-01-18 08:43:38.43	56.16	9.68	
2025-01-18 08:43:38.63	56.13	9.69	
2025-01-18 08:43:38.83	56.09	9.70	
2025-01-18 08:43:39.04	56.05	9.70	
2025-01-18 08:43:39.24	56.01	9.71	
2025-01-18 08:43:39.44	55.97	9.72	
2025-01-18 08:43:39.65	55.93	9.72	
2025-01-18 08:43:39.85	55.90	9.73	
2025-01-18 08:43:40.05	55.86	9.74	
2025-01-18 08:43:40.26	55.82	9.74	
2025-01-18 08:43:40.46	55.78	9.75	
2025-01-18 08:43:40.66	55.74	9.76	
2025-01-18 08:43:40.87	55.70	9.76	
2025-01-18 08:43:41.07	55.67	9.77	
2025-01-18 08:43:41.27	55.63	9.78	
2025-01-18 08:43:41.47	55.59	9.78	
2025-01-18 08:43:41.68	55.55	9.79	
2025-01-18 08:43:41.88	55.51	9.80	
2025-01-18 08:43:42.08	55.47	9.80	
2025-01-18 08:43:42.29	55.43	9.81	
2025-01-18 08:43:42.49	55.40	9.82	
2025-01-18 08:43:42.69	55.36	9.82	
2025-01-18 08:43:42.90	55.32	9.83	
2025-01-18 08:43:43.10	55.28	9.84	
2025-01-18 08:43:43.30	55.24	9.84	
2025-01-18 08:43:43.51	55.20	9.85	
2025-01-18 08:43:43.71	55.16	9.86	
2025-01-18 08:43:43.91	55.13	9.86	
2025-01-18 08:43:44.12	55.09	9.87	
2025-01-18 08:43:44.32	55.05	9.88	
2025-01-18 08:43:44.52	55.01	9.88	
2025-01-18 08:43:44.72	54.97	9.89	
2025-01-18 08:43:44.93	54.93	9.90	
2025-01-18 08:43:45.13	54.89	9.90	
2025-01-18 08:43:45.33	54.85	9.91	
2025-01-18 08:43:45.54	54.81	9.92	
2025-01-18 08:43:45.74	54.78	9.92	
2025-01-18 08:43:45.94	54.74	9.93	
2025-01-18 08:43:46.15	54.70	9.94	
2025-01-18 08:43:46.35	54.66	9.94	
2025-01-18 08:43:46.55	54.62	9.95	
2025-01-18 08:43:46.76	54.58	9.95	
2025-01-18 08:43:46.96	54.54	9.96	
2025-01-18 08:43:47.16	54.50	9.97	
2025-01-18 08:43:47.37	54.46	9.97	
2025-01-18 08:43:47.57	54.42	9.98	
2025-01-18 08:43:47.77	54.39	9.99	
2025-01-18 08:43:47.97	54.35	9.99	
2025-01-18 08:43:48.18	54.31	10.00	
2025-01-18 08:43:48.38	54.27	10.01	
2025-01-18 08:43:48.58	54.23	10.01	
2025-01-18 08:43:48.79	54.19	10.02	
2025-01-18 08:43:48.99	54.15	10.02	
2025-01-18 08:43:49.19	54.11	10.03	
2025-01-18 08:43:49.40	54.07	10.04	
2025-01-18 08:43:49.60	54.03	10.04	
2025-01-18 08:43:49.80	53.99	10.05	
2025-01-18 08:43:50.01	53.95	10.06	
2025-01-18 08:43:50.21	53.92	10.06	
2025-01-18 08:43:50.41	53.88	10.07	
2025-01-18 08:43:50.61	53.84	10.07	
2025-01-18 08:43:50.82	53.80	10.08	
2025-01-18 08:43:51.02	53.76	10.09	
2025-01-18 08:43:51.22	53.72	10.09	
2025-01-18 08:43:51.43	53.68	10.10	
2025-01-18 08:43:51.63	53.64	10.11	
2025-01-18 08:43:51.83	53.60	10.11	
2025-01-18 08:43:52.04	53.56	10.12	
2025-01-18 08:43:52.24	53.52	10.12	
2025-01-18 08:43:52.44	53.48	10.13	
2025-01-18 08:43:52.65	53.44	10.14	
2025-01-18 08:43:52.85	53.40	10.14	
2025-01-18 08:43:53.05	53.36	10.15	
2025-01-18 08:43:53.26	53.32	10.16	
2025-01-18 08:43:53.46	53.28	10.16	
2025-01-18 08:43:53.66	53.24	10.17	
2025-01-18 08:43:53.86	53.21	10.17	
2025-01-18 08:43:54.07	53.16	10.18	
2025-01-18 08:43:54.27	53.13	10.19	
2025-01-18 08:43:54.47	53.09	10.19	
2025-01-18 08:43:54.68	53.05	10.20	
2025-01-18 08:43:54.88	53.01	10.20	
2025-01-18 08:43:55.08	52.97	10.21	
2025-01-18 08:43:55.29	52.93	10.22	
2025-01-18 08:43:55.49	52.89	10.22	
2025-01-18 08:43:55.69	52.85	10.23	
2025-01-18 08:43:55.90	52.81	10.23	
2025-01-18 08:43:56.10	52.77	10.24	
2025-01-18 08:43:56.30	52.73	10.25	
2025-01-18 08:43:56.50	52.69	10.25	
2025-01-18 08:43:56.71	52.65	10.26	
2025-01-18 08:43:56.91	52.61	10.26	
2025-01-18 08:43:57.11	52.57	10.27	
2025-01-18 08:43:57.32	52.53	10.27	
2025-01-18 08:43:57.52	52.49	10.28	
2025-01-18 08:43:57.72	52.45	10.29	
2025-01-18 08:43:57.94	52.41	10.29	
2025-01-18 08:43:58.15	52.36	10.30	
2025-01-18 08:43:58.35	52.33	10.30	
2025-01-18 08:43:58.55	52.29	10.31	
2025-01-18 08:43:58.75	52.25	10.32	
2025-01-18 08:43:58.96	52.21	10.32	
2025-01-18 08:43:59.16	52.17	10.33	
2025-01-18 08:43:59.36	52.13	10.33	
2025-01-18 08:43:59.57	52.08	10.34	
2025-01-18 08:43:59.77	52.05	10.35	
2025-01-18 08:43:59.97	52.01	10.35	
2025-01-18 08:44:00.18	51.96	10.36	
2025-01-18 08:44:00.38	51.92	10.36	
2025-01-18 08:44:00.58	51.89	10.37	
2025-01-18 08:44:00.79	51.84	10.37	
2025-01-18 08:44:00.99	51.80	10.38	
2025-01-18 08:44:01.19	51.76	10.39	
2025-01-18 08:44:01.39	51.72	10.39	
2025-01-18 08:44:01.60	51.68	10.40	
2025-01-18 08:44:01.80	51.64	10.40	
2025-01-18 08:44:02.00	51.60	10.41	
2025-01-18 08:44:02.21	51.56	10.41	
2025-01-18 08:44:02.41	51.52	10.42	
2025-01-18 08:44:02.61	51.48	10.42	
2025-01-18 08:44:02.82	51.44	10.43	
2025-01-18 08:44:03.02	51.40	10.44	
2025-01-18 08:44:03.22	51.36	10.44	
2025-01-18 08:44:03.43	51.32	10.45	
2025-01-18 08:44:03.63	51.28	10.45	
2025-01-18 08:44:03.83	51.24	10.46	
2025-01-18 08:44:04.04	51.20	10.46	
2025-01-18 08:44:04.24	51.16	10.47	
2025-01-18 08:44:04.44	51.12	10.47	
2025-01-18 08:44:04.64	51.08	10.48	
2025-01-18 08:44:04.85	51.04	10.49	
2025-01-18 08:44:05.05	51.00	10.49	
2025-01-18 08:44:05.25	50.96	10.50	
2025-01-18 08:44:05.46	50.91	10.50	
2025-01-18 08:44:05.66	50.87	10.51	
2025-01-18 08:44:05.86	50.83	10.51	
2025-01-18 08:44:06.07	50.79	10.52	
2025-01-18 08:44:06.27	50.75	10.52	
2025-01-18 08:44:06.47	50.71	10.53	
2025-01-18 08:44:06.68	50.67	10.53	
2025-01-18 08:44:06.88	50.63	10.54	
2025-01-18 08:44:07.08	50.59	10.54	
2025-01-18 08:44:07.29	50.55	10.55	
2025-01-18 08:44:07.49	50.51	10.56	
2025-01-18 08:44:07.69	50.47	10.56	
2025-01-18 08:44:07.89	50.43	10.57	
2025-01-18 08:44:08.10	50.39	10.57	
2025-01-18 08:44:08.30	50.34	10.58	
2025-01-18 08:44:08.52	50.30	10.58	
2025-01-18 08:44:08.72	50.26	10.59	
2025-01-18 08:44:08.92	50.22	10.59	
2025-01-18 08:44:09.13	50.18	10.60	
2025-01-18 08:44:09.33	50.14	10.60	
2025-01-18 08:44:09.53	50.10	10.61	
2025-01-18 08:44:09.74	50.05	10.61	
2025-01-18 08:44:09.94	50.01	10.62	
2025-01-18 08:44:10.14	49.97	10.62	
2025-01-18 08:44:10.34	49.93	10.63	
2025-01-18 08:44:10.55	49.89	10.63	
2025-01-18 08:44:10.75	49.85	10.64	
2025-01-18 08:44:10.95	49.81	10.64	
2025-01-18 08:44:11.16	49.77	10.65	
2025-01-18 08:44:11.36	49.73	10.65	
2025-01-18 08:44:11.56	49.69	10.66	
2025-01-18 08:44:11.77	49.64	10.66	
2025-01-18 08:44:11.97	49.60	10.67	
2025-01-18 08:44:12.17	49.56	10.67	
2025-01-18 08:44:12.38	49.52	10.68	
2025-01-18 08:44:12.58	49.48	10.68	
2025-01-18 08:44:12.78	49.44	10.69	
2025-01-18 08:44:12.99	49.40	10.69	
2025-01-18 08:44:13.19	49.36	10.70	
2025-01-18 08:44:13.39	49.32	10.70	
2025-01-18 08:44:13.59	49.28	10.71	
2025-01-18 08:44:13.80	49.23	10.71	
2025-01-18 08:44:14.00	49.19	10.72	
2025-01-18 08:44:14.20	49.15	10.72	
2025-01-18 08:44:14.41	49.11	10.73	
2025-01-18 08:44:14.61	49.07	10.73	
2025-01-18 08:44:14.81	49.03	10.74	
2025-01-18 08:44:15.02	48.99	10.74	
2025-01-18 08:44:15.22	48.94	10.75	
2025-01-18 08:44:15.42	48.90	10.75	
2025-01-18 08:44:15.63	48.86	10.76	
2025-01-18 08:44:15.83	48.82	10.76	
2025-01-18 08:44:16.03	48.78	10.77	
2025-01-18 08:44:16.24	48.74	10.77	
2025-01-18 08:44:16.44	48.70	10.78	
2025-01-18 08:44:16.64	48.66	10.78	
2025-01-18 08:44:16.84	48.61	10.79	
2025-01-18 08:44:17.05	48.57	10.79	
2025-01-18 08:44:17.25	48.53	10.80	
2025-01-18 08:44:17.45	48.49	10.80	
2025-01-18 08:44:17.66	48.45	10.81	
2025-01-18 08:44:17.86	48.41	10.81	
2025-01-18 08:44:18.06	48.36	10.81	
2025-01-18 08:44:18.27	48.32	10.82	
2025-01-18 08:44:18.47	48.28	10.82	
2025-01-18 08:44:18.67	48.24	10.83	
2025-01-18 08:44:18.88	48.20	10.83	
2025-01-18 08:44:19.08	48.16	10.84	
2025-01-18 08:44:19.28	48.12	10.84	
2025-01-18 08:44:19.48	48.07	10.85	
2025-01-18 08:44:19.69	48.03	10.85	
2025-01-18 08:44:19.89	47.99	10.86	
2025-01-18 08:44:20.09	47.95	10.86	
2025-01-18 08:44:20.30	47.91	10.87	
2025-01-18 08:44:20.50	47.86	10.87	
2025-01-18 08:44:20.70	47.82	10.87	
2025-01-18 08:44:20.91	47.78	10.88	
2025-01-18 08:44:21.11	47.74	10.88	
2025-01-18 08:44:21.31	47.70	10.89	
2025-01-18 08:44:21.52	47.66	10.89	
2025-01-18 08:44:21.72	47.61	10.90	
2025-01-18 08:44:21.92	47.57	10.90	
2025-01-18 08:44:22.13	47.53	10.91	
2025-01-18 08:44:22.33	47.49	10.91	
2025-01-18 08:44:22.53	47.45	10.91	
2025-01-18 08:44:22.73	47.41	10.92	
2025-01-18 08:44:22.94	47.36	10.92	
2025-01-18 08:44:23.14	47.32	10.93	
2025-01-18 08:44:23.34	47.28	10.93	
2025-01-18 08:44:23.55	47.24	10.94	
2025-01-18 08:44:23.75	47.20	10.94	
2025-01-18 08:44:23.95	47.15	10.94	
2025-01-18 08:44:24.16	47.11	10.95	
2025-01-18 08:44:24.36	47.07	10.95	
2025-01-18 08:44:24.56	47.03	10.96	
2025-01-18 08:44:24.77	46.98	10.96	
2025-01-18 08:44:24.97	46.94	10.97	
2025-01-18 08:44:25.17	46.90	10.97	
2025-01-18 08:44:25.37	46.86	10.97	
2025-01-18 08:44:25.58	46.82	10.98	
2025-01-18 08:44:25.78	46.78	10.98	
2025-01-18 08:44:25.98	46.73	10.99	
2025-01-18 08:44:26.19	46.69	10.99	
2025-01-18 08:44:26.39	46.65	11.00	
2025-01-18 08:44:26.59	46.61	11.00	
2025-01-18 08:44:26.80	46.56	11.00	
2025-01-18 08:44:27.00	46.52	11.01	
2025-01-18 08:44:27.20	46.48	11.01	
2025-01-18 08:44:27.41	46.44	11.02	
2025-01-18 08:44:27.61	46.40	11.02	
2025-01-18 08:44:27.81	46.35	11.02	
2025-01-18 08:44:28.02	46.31	11.03	
2025-01-18 08:44:28.22	46.27	11.03	
2025-01-18 08:44:28.42	46.23	11.04	
2025-01-18 08:44:28.62	46.19	11.04	
2025-01-18 08:44:28.83	46.14	11.04	
2025-01-18 08:44:29.03	46.10	11.05	
2025-01-18 08:44:29.23	46.06	11.05	
2025-01-18 08:44:29.44	46.02	11.06	
2025-01-18 08:44:29.64	45.97	11.06	
2025-01-18 08:44:29.84	45.93	11.06	
2025-01-18 08:44:30.05	45.89	11.07	
2025-01-18 08:44:30.25	45.85	11.07	
2025-01-18 08:44:30.45	45.80	11.08	
2025-01-18 08:44:30.66	45.76	11.08	
2025-01-18 08:44:30.86	45.72	11.08	
2025-01-18 08:44:31.06	45.68	11.09	
2025-01-18 08:44:31.27	45.63	11.09	
2025-01-18 08:44:31.47	45.59	11.09	
2025-01-18 08:44:31.67	45.55	11.10	
2025-01-18 08:44:31.87	45.51	11.10	
2025-01-18 08:44:32.08	45.46	11.11	
2025-01-18 08:44:32.28	45.42	11.11	
2025-01-18 08:44:32.48	45.38	11.11	
2025-01-18 08:44:32.69	45.34	11.12	
2025-01-18 08:44:32.89	45.29	11.12	
2025-01-18 08:44:33.09	45.25	11.12	
2025-01-18 08:44:33.30	45.21	11.13	
2025-01-18 08:44:33.50	45.17	11.13	
2025-01-18 08:44:33.70	45.13	11.14	
2025-01-18 08:44:33.91	45.08	11.14	
2025-01-18 08:44:34.11	45.04	11.14	
2025-01-18 08:44:34.31	45.00	11.15	
2025-01-18 08:44:34.51	44.96	11.15	
2025-01-18 08:44:34.72	44.91	11.15	
2025-01-18 08:44:34.92	44.87	11.16	
2025-01-18 08:44:35.12	44.83	11.16	
2025-01-18 08:44:35.33	44.78	11.16	
2025-01-18 08:44:35.53	44.74	11.17	
2025-01-18 08:44:35.73	44.70	11.17	
2025-01-18 08:44:35.94	44.66	11.17	
2025-01-18 08:44:36.14	44.61	11.18	
2025-01-18 08:44:36.34	44.57	11.18	
2025-01-18 08:44:36.55	44.53	11.18	
2025-01-18 08:44:36.75	44.49	11.19	
2025-01-18 08:44:36.95	44.44	11.19	
2025-01-18 08:44:37.16	44.40	11.20	
2025-01-18 08:44:37.36	44.36	11.20	
2025-01-18 08:44:37.56	44.31	11.20	
2025-01-18 08:44:37.76	44.27	11.21	
2025-01-18 08:44:37.97	44.23	11.21	
2025-01-18 08:44:38.17	44.19	11.21	
2025-01-18 08:44:38.37	44.14	11.22	
2025-01-18 08:44:38.58	44.10	11.22	
2025-01-18 08:44:38.78	44.06	11.22	
2025-01-18 08:44:38.98	44.02	11.23	
2025-01-18 08:44:39.19	43.97	11.23	
2025-01-18 08:44:39.39	43.93	11.23	
2025-01-18 08:44:39.59	43.89	11.23	
2025-01-18 08:44:39.80	43.84	11.24	
2025-01-18 08:44:40.00	43.80	11.24	
2025-01-18 08:44:40.20	43.76	11.24	
2025-01-18 08:44:40.40	43.72	11.25	
2025-01-18 08:44:40.61	43.67	11.25	
2025-01-18 08:44:40.81	43.63	11.25	
2025-01-18 08:44:41.01	43.59	11.26	
2025-01-18 08:44:41.22	43.54	11.26	
2025-01-18 08:44:41.42	43.50	11.26	
2025-01-18 08:44:41.62	43.46	11.27	
2025-01-18 08:44:41.83	43.41	11.27	
2025-01-18 08:44:42.03	43.37	11.27	
2025-01-18 08:44:42.23	43.33	11.28	
2025-01-18 08:44:42.44	43.28	11.28	
2025-01-18 08:44:42.64	43.24	11.28	
2025-01-18 08:44:42.84	43.20	11.28	
2025-01-18 08:44:43.05	43.16	11.29	
2025-01-18 08:44:43.25	43.11	11.29	
2025-01-18 08:44:43.45	43.07	11.29	
2025-01-18 08:44:43.65	43.03	11.30	
2025-01-18 08:44:43.86	42.98	11.30	
2025-01-18 08:44:44.06	42.94	11.30	
2025-01-18 08:44:44.26	42.90	11.31	
2025-01-18 08:44:44.47	42.85	11.31	
2025-01-18 08:44:44.67	42.81	11.31	
2025-01-18 08:44:44.87	42.77	11.31	
2025-01-18 08:44:45.08	42.72	11.32	
2025-01-18 08:44:45.28	42.68	11.32	
2025-01-18 08:44:45.48	42.64	11.32	
2025-01-18 08:44:45.69	42.60	11.33	
2025-01-18 08:44:45.89	42.55	11.33	
2025-01-18 08:44:46.09	42.51	11.33	
2025-01-18 08:44:46.30	42.47	11.33	
2025-01-18 08:44:46.50	42.42	11.34	
2025-01-18 08:44:46.70	42.38	11.34	
2025-01-18 08:44:46.90	42.34	11.34	
2025-01-18 08:44:47.11	42.29	11.34	
2025-01-18 08:44:47.31	42.25	11.35	
2025-01-18 08:44:47.51	42.21	11.35	
2025-01-18 08:44:47.72	42.16	11.35	
2025-01-18 08:44:47.92	42.12	11.36	
2025-01-18 08:44:48.12	42.08	11.36	
2025-01-18 08:44:48.33	42.03	11.36	
2025-01-18 08:44:48.53	41.99	11.36	
2025-01-18 08:44:48.73	41.95	11.37	
2025-01-18 08:44:48.94	41.90	11.37	
2025-01-18 08:44:49.14	41.86	11.37	
2025-01-18 08:44:49.34	41.82	11.37	
2025-01-18 08:44:49.54	41.78	11.38	
2025-01-18 08:44:49.75	41.73	11.38	
2025-01-18 08:44:49.95	41.69	11.38	
2025-01-18 08:44:50.15	41.65	11.38	
2025-01-18 08:44:50.36	41.60	11.39	
2025-01-18 08:44:50.56	41.56	11.39	
2025-01-18 08:44:50.76	41.52	11.39	
2025-01-18 08:44:50.97	41.47	11.39	
2025-01-18 08:44:51.17	41.43	11.40	
2025-01-18 08:44:51.37	41.39	11.40	
2025-01-18 08:44:51.58	41.34	11.40	
2025-01-18 08:44:51.78	41.30	11.40	
2025-01-18 08:44:51.98	41.25	11.41	
2025-01-18 08:44:52.19	41.21	11.41	
2025-01-18 08:44:52.39	41.17	11.41	
2025-01-18 08:44:52.59	41.12	11.41	
2025-01-18 08:44:52.79	41.08	11.41	
2025-01-18 08:44:53.00	41.04	11.42	
2025-01-18 08:44:53.20	40.99	11.42	
2025-01-18 08:44:53.40	40.95	11.42	
2025-01-18 08:44:53.61	40.91	11.42	
2025-01-18 08:44:53.81	40.86	11.43	
2025-01-18 08:44:54.01	40.82	11.43	
2025-01-18 08:44:54.22	40.78	11.43	
2025-01-18 08:44:54.42	40.73	11.43	
2025-01-18 08:44:54.62	40.69	11.43	
2025-01-18 08:44:54.83	40.65	11.44	
2025-01-18 08:44:55.03	40.60	11.44	
2025-01-18 08:44:55.23	40.56	11.44	
2025-01-18 08:44:55.43	40.52	11.44	
2025-01-18 08:44:55.64	40.47	11.45	
2025-01-18 08:44:55.84	40.43	11.45	
2025-01-18 08:44:56.04	40.39	11.45	
2025-01-18 08:44:56.25	40.34	11.45	
2025-01-18 08:44:56.45	40.30	11.45	
2025-01-18 08:44:56.65	40.26	11.46	
2025-01-18 08:44:56.86	40.21	11.46	
2025-01-18 08:44:57.06	40.17	11.46	
2025-01-18 08:44:57.26	40.12	11.46	
2025-01-18 08:44:57.47	40.08	11.46	
2025-01-18 08:44:57.67	40.04	11.47	
2025-01-18 08:44:57.87	39.99	11.47	
2025-01-18 08:44:58.08	39.95	11.47	
2025-01-18 08:44:58.28	39.91	11.47	
2025-01-18 08:44:58.48	39.86	11.47	
2025-01-18 08:44:58.68	39.82	11.47	
2025-01-18 08:44:58.89	39.77	11.48	
2025-01-18 08:44:59.09	39.73	11.48	
2025-01-18 08:44:59.29	39.69	11.48	
2025-01-18 08:44:59.50	39.64	11.48	
2025-01-18 08:44:59.70	39.60	11.48	
2025-01-18 08:44:59.90	39.56	11.49	
2025-01-18 08:45:00.11	39.51	11.49	
2025-01-18 08:45:00.31	39.47	11.49	
2025-01-18 08:45:00.51	39.43	11.49	
2025-01-18 08:45:00.72	39.38	11.49	
2025-01-18 08:45:00.92	39.34	11.49	
2025-01-18 08:45:01.12	39.30	11.50	
2025-01-18 08:45:01.32	39.25	11.50	
2025-01-18 08:45:01.53	39.21	11.50	
2025-01-18 08:45:01.73	39.16	11.50	
2025-01-18 08:45:01.93	39.12	11.50	
2025-01-18 08:45:02.14	39.08	11.50	
2025-01-18 08:45:02.34	39.03	11.51	
2025-01-18 08:45:02.54	38.99	11.51	
2025-01-18 08:45:02.75	38.94	11.51	
2025-01-18 08:45:02.95	38.90	11.51	
2025-01-18 08:45:03.15	38.86	11.51	
2025-01-18 08:45:03.36	38.81	11.51	
2025-01-18 08:45:03.56	38.77	11.51	
2025-01-18 08:45:03.76	38.73	11.52	
2025-01-18 08:45:03.97	38.68	11.52	
2025-01-18 08:45:04.17	38.64	11.52	
2025-01-18 08:45:04.37	38.60	11.52	
2025-01-18 08:45:04.57	38.55	11.52	
2025-01-18 08:45:04.78	38.51	11.52	
2025-01-18 08:45:04.98	38.46	11.53	
2025-01-18 08:45:05.18	38.42	11.53	
2025-01-18 08:45:05.39	38.38	11.53	
2025-01-18 08:45:05.59	38.33	11.53	
2025-01-18 08:45:05.79	38.29	11.53	
2025-01-18 08:45:06.00	38.24	11.53	
2025-01-18 08:45:06.20	38.20	11.53	
2025-01-18 08:45:06.40	38.16	11.53	
2025-01-18 08:45:06.61	38.11	11.54	
2025-01-18 08:45:06.81	38.07	11.54	
2025-01-18 08:45:07.01	38.03	11.54	
2025-01-18 08:45:07.22	37.98	11.54	
2025-01-18 08:45:07.42	37.94	11.54	
2025-01-18 08:45:07.62	37.89	11.54	
2025-01-18 08:45:07.82	37.85	11.54	
2025-01-18 08:45:08.03	37.81	11.54	
2025-01-18 08:45:08.23	37.76	11.55	
2025-01-18 08:45:08.43	37.72	11.55	
2025-01-18 08:45:08.64	37.67	11.55	
2025-01-18 08:45:08.84	37.63	11.55	
2025-01-18 08:45:09.04	37.59	11.55	
2025-01-18 08:45:09.25	37.54	11.55	
2025-01-18 08:45:09.45	37.50	11.55	
2025-01-18 08:45:09.65	37.46	11.55	
2025-01-18 08:45:09.86	37.41	11.55	
2025-01-18 08:45:10.06	37.37	11.55	
2025-01-18 08:45:10.26	37.32	11.56	
2025-01-18 08:45:10.46	37.28	11.56	
2025-01-18 08:45:10.67	37.24	11.56	
2025-01-18 08:45:10.87	37.19	11.56	
2025-01-18 08:45:11.07	37.15	11.56	
2025-01-18 08:45:11.28	37.10	11.56	
2025-01-18 08:45:11.48	37.06	11.56	
2025-01-18 08:45:11.68	37.02	11.56	
2025-01-18 08:45:11.89	36.97	11.56	
2025-01-18 08:45:12.09	36.93	11.56	
2025-01-18 08:45:12.29	36.89	11.56	
2025-01-18 08:45:12.50	36.84	11.57	
2025-01-18 08:45:12.70	36.80	11.57	
2025-01-18 08:45:12.90	36.75	11.57	
2025-01-18 08:45:13.11	36.71	11.57	
2025-01-18 08:45:13.31	36.67	11.57	
2025-01-18 08:45:13.51	36.62	11.57	
2025-01-18 08:45:13.71	36.58	11.57	
2025-01-18 08:45:13.92	36.53	11.57	
2025-01-18 08:45:14.12	36.49	11.57	
2025-01-18 08:45:14.32	36.45	11.57	
2025-01-18 08:45:14.53	36.40	11.57	
2025-01-18 08:45:14.73	36.36	11.57	
2025-01-18 08:45:14.93	36.32	11.57	
2025-01-18 08:45:15.14	36.27	11.58	
2025-01-18 08:45:15.34	36.23	11.58	
2025-01-18 08:45:15.54	36.18	11.58	
2025-01-18 08:45:15.75	36.14	11.58	
2025-01-18 08:45:15.95	36.09	11.58	
2025-01-18 08:45:16.15	36.05	11.58	
2025-01-18 08:45:16.36	36.01	11.58	
2025-01-18 08:45:16.56	35.96	11.58	
2025-01-18 08:45:16.76	35.92	11.58	
2025-01-18 08:45:16.96	35.88	11.58	
2025-01-18 08:45:17.17	35.83	11.58	
2025-01-18 08:45:17.37	35.79	11.58	
2025-01-18 08:45:17.57	35.74	11.58	
2025-01-18 08:45:17.78	35.70	11.58	
2025-01-18 08:45:17.98	35.66	11.58	
2025-01-18 08:45:18.18	35.61	11.58	
2025-01-18 08:45:18.39	35.57	11.58	
2025-01-18 08:45:18.59	35.52	11.58	
2025-01-18 08:45:18.79	35.48	11.58	
2025-01-18 08:45:19.00	35.43	11.58	
2025-01-18 08:45:19.20	35.39	11.58	
2025-01-18 08:45:19.40	35.35	11.58	
2025-01-18 08:45:19.60	35.30	11.58	
2025-01-18 08:45:19.81	35.26	11.59	
2025-01-18 08:45:20.01	35.22	11.59	
2025-01-18 08:45:20.21	35.17	11.59	
2025-01-18 08:45:20.42	35.13	11.59	
2025-01-18 08:45:20.62	35.08	11.59	
2025-01-18 08:45:20.82	35.04	11.59	
2025-01-18 08:45:21.03	35.00	11.59	
2025-01-18 08:45:21.23	34.95	11.59	
2025-01-18 08:45:21.43	34.91	11.59	
2025-01-18 08:45:21.64	34.86	11.59	
2025-01-18 08:45:21.84	34.82	11.59	
2025-01-18 08:45:22.04	34.78	11.59	
2025-01-18 08:45:22.25	34.73	11.59	
2025-01-18 08:45:22.45	34.69	11.59	
2025-01-18 08:45:22.65	34.64	11.59	
2025-01-18 08:45:22.85	34.60	11.59	
2025-01-18 08:45:23.06	34.56	11.59	
2025-01-18 08:45:23.26	34.51	11.59	
2025-01-18 08:45:23.46	34.47	11.59	
2025-01-18 08:45:23.67	34.42	11.59	
2025-01-18 08:45:23.87	34.38	11.59	
2025-01-18 08:45:24.07	34.34	11.59	
2025-01-18 08:45:24.28	34.29	11.59	
2025-01-18 08:45:24.48	34.25	11.59	
2025-01-18 08:45:24.68	34.21	11.59	
2025-01-18 08:45:24.89	34.16	11.59	
2025-01-18 08:45:25.09	34.12	11.59	
2025-01-18 08:45:25.29	34.07	11.59	
2025-01-18 08:45:25.50	34.03	11.59	
2025-01-18 08:45:25.70	33.98	11.59	
2025-01-18 08:45:25.90	33.94	11.59	
2025-01-18 08:45:26.10	33.90	11.59	
2025-01-18 08:45:26.31	33.85	11.59	
2025-01-18 08:45:26.51	33.81	11.59	
2025-01-18 08:45:26.71	33.77	11.59	
2025-01-18 08:45:26.92	33.72	11.58	
2025-01-18 08:45:27.12	33.68	11.58	
2025-01-18 08:45:27.32	33.63	11.58	
2025-01-18 08:45:27.53	33.59	11.58	
2025-01-18 08:45:27.73	33.54	11.58	
2025-01-18 08:45:27.93	33.50	11.58	
2025-01-18 08:45:28.14	33.46	11.58	
2025-01-18 08:45:28.34	33.41	11.58	
2025-01-18 08:45:28.54	33.37	11.58	
2025-01-18 08:45:28.74	33.33	11.58	
2025-01-18 08:45:28.95	33.28	11.58	
2025-01-18 08:45:29.15	33.24	11.58	
2025-01-18 08:45:29.35	33.19	11.58	
2025-01-18 08:45:29.56	33.15	11.58	
2025-01-18 08:45:29.76	33.11	11.58	
2025-01-18 08:45:29.96	33.06	11.58	
2025-01-18 08:45:30.17	33.02	11.58	
2025-01-18 08:45:30.37	32.97	11.58	
2025-01-18 08:45:30.57	32.93	11.58	
2025-01-18 08:45:30.78	32.89	11.58	
2025-01-18 08:45:30.98	32.84	11.58	
2025-01-18 08:45:31.18	32.80	11.58	
2025-01-18 08:45:31.39	32.75	11.57	
2025-01-18 08:45:31.59	32.71	11.57	
2025-01-18 08:45:31.79	32.67	11.57	
2025-01-18 08:45:31.99	32.62	11.57	
2025-01-18 08:45:32.20	32.58	11.57	
2025-01-18 08:45:32.40	32.53	11.57	
2025-01-18 08:45:32.60	32.49	11.57	
2025-01-18 08:45:32.81	32.45	11.57	
2025-01-18 08:45:33.01	32.40	11.57	
2025-01-18 08:45:33.21	32.36	11.57	
2025-01-18 08:45:33.42	32.31	11.57	
2025-01-18 08:45:33.62	32.27	11.57	
2025-01-18 08:45:33.82	32.23	11.57	
2025-01-18 08:45:34.03	32.18	11.57	
2025-01-18 08:45:34.23	32.14	11.56	
2025-01-18 08:45:34.43	32.10	11.56	
2025-01-18 08:45:34.63	32.05	11.56	
2025-01-18 08:45:34.84	32.01	11.56	
2025-01-18 08:45:35.04	31.96	11.56	
2025-01-18 08:45:35.24	31.92	11.56	
2025-01-18 08:45:35.45	31.88	11.56	
2025-01-18 08:45:35.65	31.83	11.56	
2025-01-18 08:45:35.85	31.79	11.56	
2025-01-18 08:45:36.06	31.74	11.56	
2025-01-18 08:45:36.26	31.70	11.56	
2025-01-18 08:45:36.46	31.66	11.55	
2025-01-18 08:45:36.67	31.61	11.55	
2025-01-18 08:45:36.87	31.57	11.55	
2025-01-18 08:45:37.07	31.53	11.55	
2025-01-18 08:45:37.28	31.48	11.55	
2025-01-18 08:45:37.48	31.44	11.55	
2025-01-18 08:45:37.68	31.39	11.55	
2025-01-18 08:45:37.88	31.35	11.55	
2025-01-18 08:45:38.09	31.31	11.55	
2025-01-18 08:45:38.29	31.26	11.54	
2025-01-18 08:45:38.49	31.22	11.54	
2025-01-18 08:45:38.70	31.17	11.54	
2025-01-18 08:45:38.90	31.13	11.54	
2025-01-18 08:45:39.10	31.09	11.54	
2025-01-18 08:45:39.31	31.04	11.54	
2025-01-18 08:45:39.51	31.00	11.54	
2025-01-18 08:45:39.71	30.96	11.54	
2025-01-18 08:45:39.92	30.91	11.54	
2025-01-18 08:45:40.12	30.87	11.53	
2025-01-18 08:45:40.32	30.82	11.53	
2025-01-18 08:45:40.53	30.78	11.53	
2025-01-18 08:45:40.73	30.74	11.53	
2025-01-18 08:45:40.93	30.69	11.53	
2025-01-18 08:45:41.13	30.65	11.53	
2025-01-18 08:45:41.34	30.60	11.53	
2025-01-18 08:45:41.54	30.56	11.52	
2025-01-18 08:45:41.74	30.52	11.52	
2025-01-18 08:45:41.95	30.47	11.52	
2025-01-18 08:45:42.15	30.43	11.52	
2025-01-18 08:45:42.35	30.39	11.52	
2025-01-18 08:45:42.56	30.34	11.52	
2025-01-18 08:45:42.76	30.30	11.52	
2025-01-18 08:45:42.96	30.26	11.51	
2025-01-18 08:45:43.17	30.21	11.51	
2025-01-18 08:45:43.37	30.17	11.51	
2025-01-18 08:45:43.57	30.12	11.51	
2025-01-18 08:45:43.77	30.08	11.51	
2025-01-18 08:45:43.98	30.04	11.51	
2025-01-18 08:45:44.18	29.99	11.51	
2025-01-18 08:45:44.38	29.95	11.50	
2025-01-18 08:45:44.59	29.91	11.50	
2025-01-18 08:45:44.79	29.86	11.50	
2025-01-18 08:45:44.99	29.82	11.50	
2025-01-18 08:45:45.20	29.77	11.50	
2025-01-18 08:45:45.40	29.73	11.50	
2025-01-18 08:45:45.60	29.69	11.49	
2025-01-18 08:45:45.81	29.64	11.49	
2025-01-18 08:45:46.01	29.60	11.49	
2025-01-18 08:45:46.21	29.56	11.49	
2025-01-18 08:45:46.42	29.51	11.49	
2025-01-18 08:45:46.62	29.47	11.49	
2025-01-18 08:45:46.82	29.43	11.48	
2025-01-18 08:45:47.02	29.38	11.48	
2025-01-18 08:45:47.23	29.34	11.48	
2025-01-18 08:45:47.43	29.30	11.48	
2025-01-18 08:45:47.63	29.25	11.48	
2025-01-18 08:45:47.84	29.21	11.47	
2025-01-18 08:45:48.04	29.16	11.47	
2025-01-18 08:45:48.24	29.12	11.47	
2025-01-18 08:45:48.45	29.08	11.47	
2025-01-18 08:45:48.65	29.03	11.47	
2025-01-18 08:45:48.85	28.99	11.46	
2025-01-18 08:45:49.06	28.95	11.46	
2025-01-18 08:45:49.26	28.90	11.46	
2025-01-18 08:45:49.46	28.86	11.46	
2025-01-18 08:45:49.66	28.82	11.46	
2025-01-18 08:45:49.87	28.77	11.45	
2025-01-18 08:45:50.07	28.73	11.45	
2025-01-18 08:45:50.27	28.69	11.45	
2025-01-18 08:45:50.48	28.64	11.45	
2025-01-18 08:45:50.68	28.60	11.45	
2025-01-18 08:45:50.88	28.56	11.44	
2025-01-18 08:45:51.09	28.51	11.44	
2025-01-18 08:45:51.29	28.47	11.44	
2025-01-18 08:45:51.49	28.42	11.44	
2025-01-18 08:45:51.70	28.38	11.44	
2025-01-18 08:45:51.90	28.34	11.43	
2025-01-18 08:45:52.10	28.29	11.43	
2025-01-18 08:45:52.31	28.25	11.43	
2025-01-18 08:45:52.51	28.21	11.43	
2025-01-18 08:45:52.71	28.16	11.43	
2025-01-18 08:45:52.91	28.12	11.42	
2025-01-18 08:45:53.12	28.08	11.42	
2025-01-18 08:45:53.32	28.03	11.42	
2025-01-18 08:45:53.52	27.99	11.42	
2025-01-18 08:45:53.73	27.95	11.41	
2025-01-18 08:45:53.93	27.90	11.41	
2025-01-18 08:45:54.13	27.86	11.41	
2025-01-18 08:45:54.34	27.82	11.41	
2025-01-18 08:45:54.54	27.77	11.40	
2025-01-18 08:45:54.74	27.73	11.40	
2025-01-18 08:45:54.95	27.69	11.40	
2025-01-18 08:45:55.15	27.64	11.40	
2025-01-18 08:45:55.35	27.60	11.40	
2025-01-18 08:45:55.56	27.56	11.39	
2025-01-18 08:45:55.76	27.51	11.39	
2025-01-18 08:45:55.96	27.47	11.39	
2025-01-18 08:45:56.16	27.43	11.39	
2025-01-18 08:45:56.37	27.38	11.38	
2025-01-18 08:45:56.57	27.34	11.38	
2025-01-18 08:45:56.77	27.30	11.38	
2025-01-18 08:45:56.98	27.25	11.38	
2025-01-18 08:45:57.18	27.21	11.37	
2025-01-18 08:45:57.38	27.17	11.37	
2025-01-18 08:45:57.59	27.12	11.37	
2025-01-18 08:45:57.79	27.08	11.37	
2025-01-18 08:45:57.99	27.04	11.36	
2025-01-18 08:45:58.20	26.99	11.36	
2025-01-18 08:45:58.40	26.95	11.36	
2025-01-18 08:45:58.60	26.91	11.35	
2025-01-18 08:45:58.80	26.87	11.35	
2025-01-18 08:45:59.01	26.82	11.35	
2025-01-18 08:45:59.21	26.78	11.35	
2025-01-18 08:45:59.41	26.74	11.34	
2025-01-18 08:45:59.62	26.69	11.34	
2025-01-18 08:45:59.82	26.65	11.34	
2025-01-18 08:46:00.02	26.61	11.34	
2025-01-18 08:46:00.23	26.56	11.33	
2025-01-18 08:46:00.43	26.52	11.33	
2025-01-18 08:46:00.63	26.48	11.33	
2025-01-18 08:46:00.84	26.43	11.32	
2025-01-18 08:46:01.04	26.39	11.32	
2025-01-18 08:46:01.24	26.35	11.32	
2025-01-18 08:46:01.45	26.30	11.32	
2025-01-18 08:46:01.65	26.26	11.31	
2025-01-18 08:46:01.85	26.22	11.31	
2025-01-18 08:46:02.05	26.18	11.31	
2025-01-18 08:46:02.26	26.13	11.30	
2025-01-18 08:46:02.46	26.09	11.30	
2025-01-18 08:46:02.66	26.05	11.30	
2025-01-18 08:46:02.87	26.00	11.30	
2025-01-18 08:46:03.07	25.96	11.29	
2025-01-18 08:46:03.27	25.92	11.29	
2025-01-18 08:46:03.48	25.87	11.29	
2025-01-18 08:46:03.68	25.83	11.28	
2025-01-18 08:46:03.88	25.79	11.28	
2025-01-18 08:46:04.09	25.74	11.28	
2025-01-18 08:46:04.29	25.70	11.28	
2025-01-18 08:46:04.49	25.66	11.27	
2025-01-18 08:46:04.69	25.62	11.27	
2025-01-18 08:46:04.90	25.57	11.27	
2025-01-18 08:46:05.10	25.53	11.26	
2025-01-18 08:46:05.30	25.49	11.26	
2025-01-18 08:46:05.51	25.44	11.26	
2025-01-18 08:46:05.71	25.40	11.25	
2025-01-18 08:46:05.91	25.36	11.25	
2025-01-18 08:46:06.12	25.31	11.25	
2025-01-18 08:46:06.32	25.27	11.24	
2025-01-18 08:46:06.52	25.23	11.24	
2025-01-18 08:46:06.73	25.19	11.24	
2025-01-18 08:46:06.93	25.14	11.23	
2025-01-18 08:46:07.13	25.10	11.23	
2025-01-18 08:46:07.34	25.06	11.23	
2025-01-18 08:46:07.54	25.02	11.22	
2025-01-18 08:46:07.74	24.97	11.22	
2025-01-18 08:46:07.94	24.93	11.22	
2025-01-18 08:46:08.15	24.89	11.21	
2025-01-18 08:46:08.35	24.85	11.21	
2025-01-18 08:46:08.55	24.80	11.21	
2025-01-18 08:46:08.76	24.76	11.20	
2025-01-18 08:46:08.96	24.72	11.20	
2025-01-18 08:46:09.16	24.67	11.20	
2025-01-18 08:46:09.37	24.63	11.19	
2025-01-18 08:46:09.57	24.59	11.19	
2025-01-18 08:46:09.77	24.55	11.19	
2025-01-18 08:46:09.98	24.50	11.18	
2025-01-18 08:46:10.18	24.46	11.18	
2025-01-18 08:46:10.38	24.42	11.18	
2025-01-18 08:46:10.59	24.37	11.17	
2025-01-18 08:46:10.79	24.33	11.17	
2025-01-18 08:46:10.99	24.29	11.17	
2025-01-18 08:46:11.19	24.25	11.16	
2025-01-18 08:46:11.40	24.20	11.16	
2025-01-18 08:46:11.60	24.16	11.16	
2025-01-18 08:46:11.80	24.12	11.15	
2025-01-18 08:46:12.01	24.08	11.15	
2025-01-18 08:46:12.21	24.03	11.15	
2025-01-18 08:46:12.41	23.99	11.14	
2025-01-18 08:46:12.62	23.95	11.14	
2025-01-18 08:46:12.82	23.91	11.13	
2025-01-18 08:46:13.02	23.87	11.13	
2025-01-18 08:46:13.23	23.82	11.13	
2025-01-18 08:46:13.43	23.78	11.12	
2025-01-18 08:46:13.63	23.74	11.12	
2025-01-18 08:46:13.83	23.70	11.12	
2025-01-18 08:46:14.04	23.65	11.11	
2025-01-18 08:46:14.24	23.61	11.11	
2025-01-18 08:46:14.44	23.57	11.11	
2025-01-18 08:46:14.65	23.52	11.10	
2025-01-18 08:46:14.85	23.48	11.10	
2025-01-18 08:46:15.05	23.44	11.09	
2025-01-18 08:46:15.26	23.40	11.09	
2025-01-18 08:46:15.46	23.36	11.09	
2025-01-18 08:46:15.66	23.31	11.08	
2025-01-18 08:46:15.87	23.27	11.08	
2025-01-18 08:46:16.07	23.23	11.07	
2025-01-18 08:46:16.27	23.19	11.07	
2025-01-18 08:46:16.48	23.14	11.07	
2025-01-18 08:46:16.68	23.10	11.06	
2025-01-18 08:46:16.88	23.06	11.06	
2025-01-18 08:46:17.08	23.02	11.06	
2025-01-18 08:46:17.29	22.98	11.05	
2025-01-18 08:46:17.49	22.93	11.05	
2025-01-18 08:46:17.69	22.89	11.04	
2025-01-18 08:46:17.90	22.85	11.04	
2025-01-18 08:46:18.10	22.81	11.04	
2025-01-18 08:46:18.30	22.77	11.03	
2025-01-18 08:46:18.51	22.72	11.03	
2025-01-18 08:46:18.71	22.68	11.02	
2025-01-18 08:46:18.91	22.64	11.02	
2025-01-18 08:46:19.12	22.60	11.01	
2025-01-18 08:46:19.32	22.55	11.01	
2025-01-18 08:46:19.52	22.51	11.01	
2025-01-18 08:46:19.72	22.47	11.00	
2025-01-18 08:46:19.93	22.43	11.00	
2025-01-18 08:46:20.13	22.39	10.99	
2025-01-18 08:46:20.33	22.34	10.99	
2025-01-18 08:46:20.54	22.30	10.99	
2025-01-18 08:46:20.74	22.26	10.98	
2025-01-18 08:46:20.94	22.22	10.98	
2025-01-18 08:46:21.15	22.17	10.97	
2025-01-18 08:46:21.35	22.13	10.97	
2025-01-18 08:46:21.55	22.09	10.97	
2025-01-18 08:46:21.76	22.05	10.96	
2025-01-18 08:46:21.96	22.01	10.96	
2025-01-18 08:46:22.16	21.97	10.95	
2025-01-18 08:46:22.37	21.92	10.95	
2025-01-18 08:46:22.57	21.88	10.94	
2025-01-18 08:46:22.77	21.84	10.94	
2025-01-18 08:46:22.97	21.80	10.94	
2025-01-18 08:46:23.18	21.76	10.93	
2025-01-18 08:46:23.38	21.71	10.93	
2025-01-18 08:46:23.58	21.67	10.92	
2025-01-18 08:46:23.79	21.63	10.92	
2025-01-18 08:46:23.99	21.59	10.91	
2025-01-18 08:46:24.19	21.55	10.91	
2025-01-18 08:46:24.40	21.50	10.90	
2025-01-18 08:46:24.60	21.46	10.90	
2025-01-18 08:46:24.80	21.42	10.90	
2025-01-18 08:46:25.01	21.38	10.89	
2025-01-18 08:46:25.21	21.34	10.89	
2025-01-18 08:46:25.41	21.30	10.88	
2025-01-18 08:46:25.62	21.25	10.88	
2025-01-18 08:46:25.82	21.21	10.87	
2025-01-18 08:46:26.02	21.17	10.87	
2025-01-18 08:46:26.22	21.13	10.86	
2025-01-18 08:46:26.43	21.09	10.86	
2025-01-18 08:46:26.63	21.05	10.86	
2025-01-18 08:46:26.83	21.01	10.85	
2025-01-18 08:46:27.04	20.96	10.85	
2025-01-18 08:46:27.24	20.92	10.84	
2025-01-18 08:46:27.44	20.88	10.84	
2025-01-18 08:46:27.65	20.84	10.83	
2025-01-18 08:46:27.85	20.80	10.83	
2025-01-18 08:46:28.05	20.76	10.82	
2025-01-18 08:46:28.26	20.71	10.82	
2025-01-18 08:46:28.46	20.67	10.81	
2025-01-18 08:46:28.66	20.63	10.81	
2025-01-18 08:46:28.86	20.59	10.81	
2025-01-18 08:46:29.07	20.55	10.80	
2025-01-18 08:46:29.27	20.51	10.80	
2025-01-18 08:46:29.47	20.47	10.79	
2025-01-18 08:46:29.68	20.42	10.79	
2025-01-18 08:46:29.88	20.38	10.78	
2025-01-18 08:46:30.08	20.34	10.78	
2025-01-18 08:46:30.29	20.30	10.77	
2025-01-18 08:46:30.49	20.26	10.77	
2025-01-18 08:46:30.69	20.22	10.76	
2025-01-18 08:46:30.90	20.18	10.76	
2025-01-18 08:46:31.10	20.14	10.75	
2025-01-18 08:46:31.30	20.09	10.75	
2025-01-18 08:46:31.51	20.05	10.74	
2025-01-18 08:46:31.71	20.01	10.74	
2025-01-18 08:46:31.91	19.97	10.73	
2025-01-18 08:46:32.11	19.93	10.73	
2025-01-18 08:46:32.32	19.89	10.72	
2025-01-18 08:46:32.52	19.85	10.72	
2025-01-18 08:46:32.72	19.81	10.71	
2025-01-18 08:46:32.93	19.76	10.71	
2025-01-18 08:46:33.13	19.72	10.70	
2025-01-18 08:46:33.33	19.68	10.70	
2025-01-18 08:46:33.54	19.64	10.69	
2025-01-18 08:46:33.74	19.60	10.69	
2025-01-18 08:46:33.94	19.56	10.68	
2025-01-18 08:46:34.15	19.52	10.68	
2025-01-18 08:46:34.35	19.48	10.67	
2025-01-18 08:46:34.55	19.44	10.67	
2025-01-18 08:46:34.76	19.39	10.66	
2025-01-18 08:46:34.96	19.35	10.66	
2025-01-18 08:46:35.16	19.31	10.65	
2025-01-18 08:46:35.36	19.27	10.65	
2025-01-18 08:46:35.57	19.23	10.64	
2025-01-18 08:46:35.77	19.19	10.64	
2025-01-18 08:46:35.97	19.15	10.63	
2025-01-18 08:46:36.18	19.11	10.63	
2025-01-18 08:46:36.38	19.07	10.62	
2025-01-18 08:46:36.58	19.03	10.62	
2025-01-18 08:46:36.79	18.98	10.61	
2025-01-18 08:46:36.99	18.94	10.61	
2025-01-18 08:46:37.19	18.90	10.60	
2025-01-18 08:46:37.40	18.86	10.60	
2025-01-18 08:46:37.60	18.82	10.59	
2025-01-18 08:46:37.80	18.78	10.59	
2025-01-18 08:46:38.00	18.74	10.58	
2025-01-18 08:46:38.21	18.70	10.58	
2025-01-18 08:46:38.41	18.66	10.57	
2025-01-18 08:46:38.61	18.62	10.57	
2025-01-18 08:46:38.82	18.58	10.56	
2025-01-18 08:46:39.02	18.54	10.55	
2025-01-18 08:46:39.22	18.50	10.55	
2025-01-18 08:46:39.43	18.45	10.54	
2025-01-18 08:46:39.63	18.41	10.54	
2025-01-18 08:46:39.83	18.37	10.53	
2025-01-18 08:46:40.04	18.33	10.53	
2025-01-18 08:46:40.24	18.29	10.52	
2025-01-18 08:46:40.44	18.25	10.52	
2025-01-18 08:46:40.65	18.21	10.51	
2025-01-18 08:46:40.85	18.17	10.51	
2025-01-18 08:46:41.05	18.13	10.50	
2025-01-18 08:46:41.25	18.09	10.50	
2025-01-18 08:46:41.46	18.05	10.49	
2025-01-18 08:46:41.66	18.01	10.49	
2025-01-18 08:46:41.86	17.97	10.48	
2025-01-18 08:46:42.07	17.93	10.47	
2025-01-18 08:46:42.27	17.89	10.47	
2025-01-18 08:46:42.47	17.85	10.46	
2025-01-18 08:46:42.68	17.81	10.46	
2025-01-18 08:46:42.88	17.77	10.45	
2025-01-18 08:46:43.08	17.73	10.45	
2025-01-18 08:46:43.29	17.69	10.44	
2025-01-18 08:46:43.49	17.65	10.44	
2025-01-18 08:46:43.69	17.61	10.43	
2025-01-18 08:46:43.89	17.57	10.42	
2025-01-18 08:46:44.10	17.52	10.42	
2025-01-18 08:46:44.30	17.48	10.41	
2025-01-18 08:46:44.50	17.45	10.41	
2025-01-18 08:46:44.71	17.40	10.40	
2025-01-18 08:46:44.91	17.36	10.40	
2025-01-18 08:46:45.11	17.32	10.39	
2025-01-18 08:46:45.32	17.28	10.38	
2025-01-18 08:46:45.52	17.24	10.38	
2025-01-18 08:46:45.72	17.20	10.37	
2025-01-18 08:46:45.93	17.16	10.37	
2025-01-18 08:46:46.13	17.12	10.36	
2025-01-18 08:46:46.33	17.08	10.36	
2025-01-18 08:46:46.54	17.04	10.35	
2025-01-18 08:46:46.74	17.00	10.34	
2025-01-18 08:46:46.94	16.96	10.34	
2025-01-18 08:46:47.14	16.92	10.33	
2025-01-18 08:46:47.35	16.88	10.33	
2025-01-18 08:46:47.55	16.84	10.32	
2025-01-18 08:46:47.75	16.80	10.32	
2025-01-18 08:46:47.96	16.76	10.31	
2025-01-18 08:46:48.16	16.72	10.30	
2025-01-18 08:46:48.36	16.68	10.30	
2025-01-18 08:46:48.57	16.64	10.29	
2025-01-18 08:46:48.77	16.60	10.29	
2025-01-18 08:46:48.97	16.56	10.28	
2025-01-18 08:46:49.18	16.52	10.28	
2025-01-18 08:46:49.38	16.48	10.27	
2025-01-18 08:46:49.58	16.44	10.26	
2025-01-18 08:46:49.79	16.40	10.26	
2025-01-18 08:46:49.99	16.36	10.25	
2025-01-18 08:46:50.19	16.32	10.25	
2025-01-18 08:46:50.39	16.29	10.24	
2025-01-18 08:46:50.60	16.24	10.23	
2025-01-18 08:46:50.80	16.21	10.23	
2025-01-18 08:46:51.00	16.17	10.22	
2025-01-18 08:46:51.21	16.13	10.22	
2025-01-18 08:46:51.41	16.09	10.21	
2025-01-18 08:46:51.61	16.05	10.20	
2025-01-18 08:46:51.82	16.01	10.20	
2025-01-18 08:46:52.02	15.97	10.19	
2025-01-18 08:46:52.22	15.93	10.19	
2025-01-18 08:46:52.43	15.89	10.18	
2025-01-18 08:46:52.63	15.85	10.17	
2025-01-18 08:46:52.83	15.81	10.17	
2025-01-18 08:46:53.03	15.77	10.16	
2025-01-18 08:46:53.24	15.73	10.16	
2025-01-18 08:46:53.44	15.69	10.15	
2025-01-18 08:46:53.64	15.65	10.14	
2025-01-18 08:46:53.85	15.61	10.14	
2025-01-18 08:46:54.05	15.57	10.13	
2025-01-18 08:46:54.25	15.53	10.13	
2025-01-18 08:46:54.46	15.49	10.12	
2025-01-18 08:46:54.66	15.45	10.11	
2025-01-18 08:46:54.86	15.42	10.11	
2025-01-18 08:46:55.07	15.37	10.10	
2025-01-18 08:46:55.27	15.34	10.09	
2025-01-18 08:46:55.47	15.30	10.09	
2025-01-18 08:46:55.68	15.26	10.08	
2025-01-18 08:46:55.88	15.22	10.08	
2025-01-18 08:46:56.08	15.18	10.07	
2025-01-18 08:46:56.28	15.14	10.06	
2025-01-18 08:46:56.49	15.10	10.06	
2025-01-18 08:46:56.69	15.06	10.05	
2025-01-18 08:46:56.89	15.02	10.04	
2025-01-18 08:46:57.10	14.98	10.04	
2025-01-18 08:46:57.30	14.94	10.03	
2025-01-18 08:46:57.50	14.91	10.03	
2025-01-18 08:46:57.71	14.87	10.02	
2025-01-18 08:46:57.91	14.83	10.01	
2025-01-18 08:46:58.11	14.79	10.01	
2025-01-18 08:46:58.32	14.75	10.00	
2025-01-18 08:46:58.52	14.71	9.99	
2025-01-18 08:46:58.72	14.67	9.99	
2025-01-18 08:46:58.92	14.63	9.98	
2025-01-18 08:46:59.13	14.59	9.97	
2025-01-18 08:46:59.33	14.55	9.97	
2025-01-18 08:46:59.53	14.52	9.96	
2025-01-18 08:46:59.74	14.48	9.96	
2025-01-18 08:46:59.94	14.44	9.95	
2025-01-18 08:47:00.14	14.40	9.94	
2025-01-18 08:47:00.35	14.36	9.94	
2025-01-18 08:47:00.55	14.32	9.93	
2025-01-18 08:47:00.75	14.28	9.92	
2025-01-18 08:47:00.96	14.24	9.92	
2025-01-18 08:47:01.16	14.20	9.91	
2025-01-18 08:47:01.36	14.17	9.90	
2025-01-18 08:47:01.57	14.13	9.90	
2025-01-18 08:47:01.77	14.09	9.89	
2025-01-18 08:47:01.97	14.05	9.88	
2025-01-18 08:47:02.17	14.01	9.88	
2025-01-18 08:47:02.38	13.97	9.87	
2025-01-18 08:47:02.58	13.93	9.86	
2025-01-18 08:47:02.78	13.90	9.86	
2025-01-18 08:47:02.99	13.86	9.85	
2025-01-18 08:47:03.19	13.82	9.84	
2025-01-18 08:47:03.39	13.78	9.84	
2025-01-18 08:47:03.60	13.74	9.83	
2025-01-18 08:47:03.80	13.70	9.82	
2025-01-18 08:47:04.00	13.66	9.82	
2025-01-18 08:47:04.21	13.62	9.81	
2025-01-18 08:47:04.41	13.59	9.80	
2025-01-18 08:47:04.61	13.55	9.80	
2025-01-18 08:47:04.82	13.51	9.79	
2025-01-18 08:47:05.02	13.47	9.78	
2025-01-18 08:47:05.22	13.43	9.78	
2025-01-18 08:47:05.42	13.40	9.77	
2025-01-18 08:47:05.63	13.36	9.76	
2025-01-18 08:47:05.83	13.32	9.76	
2025-01-18 08:47:06.03	13.28	9.75	
2025-01-18 08:47:06.24	13.24	9.74	
2025-01-18 08:47:06.44	13.20	9.74	
2025-01-18 08:47:06.64	13.17	9.73	
2025-01-18 08:47:06.85	13.13	9.72	
2025-01-18 08:47:07.05	13.09	9.72	
2025-01-18 08:47:07.25	13.05	9.71	
2025-01-18 08:47:07.46	13.01	9.70	
2025-01-18 08:47:07.66	12.97	9.70	
