passes_logs/2025/01/18/SPB_Silybum_02/SPB_Silybum_02__20250118_104944_SUOMI_NPP_rec.log

#Pass ID: 20250118_104944_SUOMI NPP
#Satellite: SUOMI NPP
#Configuration: NPP
#Start time: 2025-01-18 10:49:44

#Version: 2.0.20230423
#Station: SPB_Silybum_02
#Location: 30.233357 lon 59.946436 lat
#TLE: 1 37849U 11061A   25017.80975554  .00000187  00000+0  10930-3 0  9999
#TLE: 2 37849  98.7450 318.7628 0001577  36.7528 323.3756 14.19539590685310

#Time	Az	El	Level	Level2	SNR	BER	Gain	Gain2
2025-01-18 10:49:46.13	175.54	4.10	
2025-01-18 10:49:46.33	175.55	4.11	
2025-01-18 10:49:46.54	175.55	4.13	
2025-01-18 10:49:46.74	175.56	4.14	
2025-01-18 10:49:46.94	175.56	4.15	
2025-01-18 10:49:47.15	175.57	4.17	
2025-01-18 10:49:47.35	175.58	4.18	
2025-01-18 10:49:47.55	175.58	4.19	
2025-01-18 10:49:47.75	175.59	4.21	
2025-01-18 10:49:47.96	175.59	4.22	
2025-01-18 10:49:48.16	175.60	4.24	
2025-01-18 10:49:48.36	175.60	4.25	
2025-01-18 10:49:48.57	175.61	4.26	
2025-01-18 10:49:48.77	175.62	4.28	
2025-01-18 10:49:48.97	175.62	4.29	
2025-01-18 10:49:49.18	175.63	4.31	
2025-01-18 10:49:49.38	175.63	4.32	
2025-01-18 10:49:49.58	175.64	4.33	
2025-01-18 10:49:49.78	175.65	4.35	
2025-01-18 10:49:49.99	175.65	4.36	
2025-01-18 10:49:50.19	175.66	4.38	
2025-01-18 10:49:50.39	175.66	4.39	
2025-01-18 10:49:50.60	175.67	4.40	
2025-01-18 10:49:50.80	175.68	4.42	
2025-01-18 10:49:51.00	175.68	4.43	
2025-01-18 10:49:51.20	175.69	4.45	
2025-01-18 10:49:51.41	175.69	4.46	
2025-01-18 10:49:51.61	175.70	4.47	
2025-01-18 10:49:51.81	175.71	4.49	
2025-01-18 10:49:52.02	175.71	4.50	
2025-01-18 10:49:52.22	175.72	4.52	
2025-01-18 10:49:52.42	175.72	4.53	
2025-01-18 10:49:52.63	175.73	4.54	
2025-01-18 10:49:52.83	175.74	4.56	
2025-01-18 10:49:53.03	175.74	4.57	
2025-01-18 10:49:53.23	175.75	4.59	
2025-01-18 10:49:53.44	175.75	4.60	
2025-01-18 10:49:53.64	175.76	4.61	
2025-01-18 10:49:53.84	175.77	4.63	
2025-01-18 10:49:54.05	175.77	4.64	
2025-01-18 10:49:54.25	175.78	4.66	
2025-01-18 10:49:54.45	175.78	4.67	
2025-01-18 10:49:54.66	175.79	4.68	
2025-01-18 10:49:54.86	175.80	4.70	
2025-01-18 10:49:55.06	175.80	4.71	
2025-01-18 10:49:55.26	175.81	4.73	
2025-01-18 10:49:55.47	175.81	4.74	
2025-01-18 10:49:55.67	175.82	4.76	
2025-01-18 10:49:55.87	175.83	4.77	
2025-01-18 10:49:56.08	175.83	4.78	
2025-01-18 10:49:56.28	175.84	4.80	
2025-01-18 10:49:56.48	175.84	4.81	
2025-01-18 10:49:56.69	175.85	4.83	
2025-01-18 10:49:56.89	175.86	4.84	
2025-01-18 10:49:57.09	175.86	4.85	
2025-01-18 10:49:57.29	175.87	4.87	
2025-01-18 10:49:57.50	175.87	4.88	
2025-01-18 10:49:57.70	175.88	4.90	
2025-01-18 10:49:57.90	175.89	4.91	
2025-01-18 10:49:58.11	175.89	4.93	
2025-01-18 10:49:58.31	175.90	4.94	
2025-01-18 10:49:58.51	175.91	4.95	
2025-01-18 10:49:58.72	175.91	4.97	
2025-01-18 10:49:58.92	175.92	4.98	
2025-01-18 10:49:59.12	175.92	5.00	
2025-01-18 10:49:59.32	175.93	5.01	
2025-01-18 10:49:59.53	175.94	5.03	
2025-01-18 10:49:59.73	175.94	5.04	
2025-01-18 10:49:59.93	175.95	5.05	
2025-01-18 10:50:00.14	175.95	5.07	
2025-01-18 10:50:00.34	175.96	5.08	
2025-01-18 10:50:00.54	175.97	5.10	
2025-01-18 10:50:00.75	175.97	5.11	
2025-01-18 10:50:00.95	175.98	5.13	
2025-01-18 10:50:01.15	175.99	5.14	
2025-01-18 10:50:01.35	175.99	5.15	
2025-01-18 10:50:01.56	176.00	5.17	
2025-01-18 10:50:01.76	176.00	5.18	
2025-01-18 10:50:01.96	176.01	5.20	
2025-01-18 10:50:02.17	176.02	5.21	
2025-01-18 10:50:02.37	176.02	5.23	
2025-01-18 10:50:02.57	176.03	5.24	
2025-01-18 10:50:02.78	176.04	5.26	
2025-01-18 10:50:02.98	176.04	5.27	
2025-01-18 10:50:03.18	176.05	5.28	
2025-01-18 10:50:03.38	176.05	5.30	
2025-01-18 10:50:03.59	176.06	5.31	
2025-01-18 10:50:03.79	176.07	5.33	
2025-01-18 10:50:03.99	176.07	5.34	
2025-01-18 10:50:04.20	176.08	5.36	
2025-01-18 10:50:04.40	176.09	5.37	
2025-01-18 10:50:04.60	176.09	5.39	
2025-01-18 10:50:04.80	176.10	5.40	
2025-01-18 10:50:05.01	176.11	5.41	
2025-01-18 10:50:05.21	176.11	5.43	
2025-01-18 10:50:05.41	176.12	5.44	
2025-01-18 10:50:05.62	176.12	5.46	
2025-01-18 10:50:05.82	176.13	5.47	
2025-01-18 10:50:06.02	176.14	5.49	
2025-01-18 10:50:06.23	176.14	5.50	
2025-01-18 10:50:06.43	176.15	5.52	
2025-01-18 10:50:06.63	176.16	5.53	
2025-01-18 10:50:06.83	176.16	5.54	
2025-01-18 10:50:07.04	176.17	5.56	
2025-01-18 10:50:07.24	176.17	5.57	
2025-01-18 10:50:07.44	176.18	5.59	
2025-01-18 10:50:07.65	176.19	5.60	
2025-01-18 10:50:07.85	176.19	5.62	
2025-01-18 10:50:08.05	176.20	5.63	
2025-01-18 10:50:08.26	176.21	5.65	
2025-01-18 10:50:08.46	176.21	5.66	
2025-01-18 10:50:08.66	176.22	5.68	
2025-01-18 10:50:08.86	176.23	5.69	
2025-01-18 10:50:09.07	176.23	5.71	
2025-01-18 10:50:09.27	176.24	5.72	
2025-01-18 10:50:09.47	176.25	5.74	
2025-01-18 10:50:09.68	176.25	5.75	
2025-01-18 10:50:09.88	176.26	5.76	
2025-01-18 10:50:10.08	176.26	5.78	
2025-01-18 10:50:10.29	176.27	5.79	
2025-01-18 10:50:10.49	176.28	5.81	
2025-01-18 10:50:10.69	176.28	5.82	
2025-01-18 10:50:10.89	176.29	5.84	
2025-01-18 10:50:11.10	176.30	5.85	
2025-01-18 10:50:11.30	176.30	5.87	
2025-01-18 10:50:11.50	176.31	5.88	
2025-01-18 10:50:11.71	176.32	5.90	
2025-01-18 10:50:11.91	176.32	5.91	
2025-01-18 10:50:12.11	176.33	5.93	
2025-01-18 10:50:12.32	176.34	5.94	
2025-01-18 10:50:12.52	176.34	5.96	
2025-01-18 10:50:12.72	176.35	5.97	
2025-01-18 10:50:12.92	176.36	5.99	
2025-01-18 10:50:13.13	176.36	6.00	
2025-01-18 10:50:13.33	176.37	6.02	
2025-01-18 10:50:13.53	176.38	6.03	
2025-01-18 10:50:13.74	176.38	6.05	
2025-01-18 10:50:13.94	176.39	6.06	
2025-01-18 10:50:14.14	176.40	6.07	
2025-01-18 10:50:14.35	176.40	6.09	
2025-01-18 10:50:14.55	176.41	6.10	
2025-01-18 10:50:14.75	176.42	6.12	
2025-01-18 10:50:14.95	176.42	6.13	
2025-01-18 10:50:15.16	176.43	6.15	
2025-01-18 10:50:15.36	176.44	6.16	
2025-01-18 10:50:15.56	176.44	6.18	
2025-01-18 10:50:15.77	176.45	6.19	
2025-01-18 10:50:15.97	176.45	6.21	
2025-01-18 10:50:16.17	176.46	6.22	
2025-01-18 10:50:16.38	176.47	6.24	
2025-01-18 10:50:16.58	176.47	6.25	
2025-01-18 10:50:16.78	176.48	6.27	
2025-01-18 10:50:16.98	176.49	6.28	
2025-01-18 10:50:17.19	176.50	6.30	
2025-01-18 10:50:17.39	176.50	6.31	
2025-01-18 10:50:17.59	176.51	6.33	
2025-01-18 10:50:17.80	176.52	6.34	
2025-01-18 10:50:18.00	176.52	6.36	
2025-01-18 10:50:18.20	176.53	6.37	
2025-01-18 10:50:18.41	176.54	6.39	
2025-01-18 10:50:18.61	176.54	6.40	
2025-01-18 10:50:18.81	176.55	6.42	
2025-01-18 10:50:19.01	176.56	6.43	
2025-01-18 10:50:19.22	176.56	6.45	
2025-01-18 10:50:19.42	176.57	6.46	
2025-01-18 10:50:19.62	176.58	6.48	
2025-01-18 10:50:19.83	176.58	6.49	
2025-01-18 10:50:20.03	176.59	6.51	
2025-01-18 10:50:20.23	176.60	6.52	
2025-01-18 10:50:20.43	176.60	6.54	
2025-01-18 10:50:20.64	176.61	6.56	
2025-01-18 10:50:20.84	176.62	6.57	
2025-01-18 10:50:21.04	176.62	6.58	
2025-01-18 10:50:21.25	176.63	6.60	
2025-01-18 10:50:21.45	176.64	6.62	
2025-01-18 10:50:21.65	176.64	6.63	
2025-01-18 10:50:21.86	176.65	6.65	
2025-01-18 10:50:22.06	176.66	6.66	
2025-01-18 10:50:22.26	176.66	6.68	
2025-01-18 10:50:22.46	176.67	6.69	
2025-01-18 10:50:22.67	176.68	6.71	
2025-01-18 10:50:22.87	176.68	6.72	
2025-01-18 10:50:23.07	176.69	6.74	
2025-01-18 10:50:23.28	176.70	6.75	
2025-01-18 10:50:23.48	176.71	6.77	
2025-01-18 10:50:23.68	176.71	6.78	
2025-01-18 10:50:23.89	176.72	6.80	
2025-01-18 10:50:24.09	176.73	6.81	
2025-01-18 10:50:24.29	176.73	6.83	
2025-01-18 10:50:24.49	176.74	6.84	
2025-01-18 10:50:24.70	176.75	6.86	
2025-01-18 10:50:24.90	176.75	6.87	
2025-01-18 10:50:25.10	176.76	6.89	
2025-01-18 10:50:25.31	176.77	6.91	
2025-01-18 10:50:25.51	176.77	6.92	
2025-01-18 10:50:25.71	176.78	6.94	
2025-01-18 10:50:25.92	176.79	6.95	
2025-01-18 10:50:26.12	176.80	6.97	
2025-01-18 10:50:26.32	176.80	6.98	
2025-01-18 10:50:26.52	176.81	7.00	
2025-01-18 10:50:26.73	176.82	7.01	
2025-01-18 10:50:26.93	176.82	7.03	
2025-01-18 10:50:27.13	176.83	7.04	
2025-01-18 10:50:27.34	176.84	7.06	
2025-01-18 10:50:27.54	176.84	7.07	
2025-01-18 10:50:27.74	176.85	7.09	
2025-01-18 10:50:27.95	176.86	7.11	
2025-01-18 10:50:28.15	176.87	7.12	
2025-01-18 10:50:28.35	176.87	7.14	
2025-01-18 10:50:28.55	176.88	7.15	
2025-01-18 10:50:28.76	176.89	7.17	
2025-01-18 10:50:28.96	176.89	7.18	
2025-01-18 10:50:29.16	176.90	7.20	
2025-01-18 10:50:29.37	176.91	7.21	
2025-01-18 10:50:29.57	176.91	7.23	
2025-01-18 10:50:29.77	176.92	7.24	
2025-01-18 10:50:29.98	176.93	7.26	
2025-01-18 10:50:30.18	176.94	7.28	
2025-01-18 10:50:30.38	176.94	7.29	
2025-01-18 10:50:30.58	176.95	7.31	
2025-01-18 10:50:30.79	176.96	7.32	
2025-01-18 10:50:30.99	176.96	7.34	
2025-01-18 10:50:31.19	176.97	7.35	
2025-01-18 10:50:31.40	176.98	7.37	
2025-01-18 10:50:31.60	176.99	7.39	
2025-01-18 10:50:31.80	176.99	7.40	
2025-01-18 10:50:32.00	177.00	7.42	
2025-01-18 10:50:32.21	177.01	7.43	
2025-01-18 10:50:32.41	177.01	7.45	
2025-01-18 10:50:32.61	177.02	7.46	
2025-01-18 10:50:32.82	177.03	7.48	
2025-01-18 10:50:33.02	177.04	7.49	
2025-01-18 10:50:33.22	177.04	7.51	
2025-01-18 10:50:33.43	177.05	7.53	
2025-01-18 10:50:33.63	177.06	7.54	
2025-01-18 10:50:33.83	177.06	7.56	
2025-01-18 10:50:34.03	177.07	7.57	
2025-01-18 10:50:34.24	177.08	7.59	
2025-01-18 10:50:34.44	177.09	7.60	
2025-01-18 10:50:34.64	177.09	7.62	
2025-01-18 10:50:34.85	177.10	7.64	
2025-01-18 10:50:35.05	177.11	7.65	
2025-01-18 10:50:35.25	177.12	7.67	
2025-01-18 10:50:35.46	177.12	7.68	
2025-01-18 10:50:35.66	177.13	7.70	
2025-01-18 10:50:35.86	177.14	7.71	
2025-01-18 10:50:36.06	177.14	7.73	
2025-01-18 10:50:36.27	177.15	7.75	
2025-01-18 10:50:36.47	177.16	7.76	
2025-01-18 10:50:36.67	177.17	7.78	
2025-01-18 10:50:36.88	177.17	7.79	
2025-01-18 10:50:37.08	177.18	7.81	
2025-01-18 10:50:37.28	177.19	7.83	
2025-01-18 10:50:37.49	177.20	7.84	
2025-01-18 10:50:37.69	177.20	7.86	
2025-01-18 10:50:37.89	177.21	7.87	
2025-01-18 10:50:38.09	177.22	7.89	
2025-01-18 10:50:38.30	177.23	7.91	
2025-01-18 10:50:38.50	177.23	7.92	
2025-01-18 10:50:38.70	177.24	7.94	
2025-01-18 10:50:38.91	177.25	7.95	
2025-01-18 10:50:39.11	177.26	7.97	
2025-01-18 10:50:39.31	177.26	7.98	
2025-01-18 10:50:39.52	177.27	8.00	
2025-01-18 10:50:39.72	177.28	8.02	
2025-01-18 10:50:39.92	177.28	8.03	
2025-01-18 10:50:40.12	177.29	8.05	
2025-01-18 10:50:40.33	177.30	8.07	
2025-01-18 10:50:40.53	177.31	8.08	
2025-01-18 10:50:40.73	177.31	8.10	
2025-01-18 10:50:40.94	177.32	8.11	
2025-01-18 10:50:41.14	177.33	8.13	
2025-01-18 10:50:41.34	177.34	8.15	
2025-01-18 10:50:41.55	177.34	8.16	
2025-01-18 10:50:41.75	177.35	8.18	
2025-01-18 10:50:41.95	177.36	8.19	
2025-01-18 10:50:42.15	177.37	8.21	
2025-01-18 10:50:42.36	177.37	8.23	
2025-01-18 10:50:42.56	177.38	8.24	
2025-01-18 10:50:42.76	177.39	8.26	
2025-01-18 10:50:42.97	177.40	8.27	
2025-01-18 10:50:43.17	177.40	8.29	
2025-01-18 10:50:43.37	177.41	8.31	
2025-01-18 10:50:43.58	177.42	8.32	
2025-01-18 10:50:43.78	177.43	8.34	
2025-01-18 10:50:43.98	177.44	8.36	
2025-01-18 10:50:44.18	177.44	8.37	
2025-01-18 10:50:44.39	177.45	8.39	
2025-01-18 10:50:44.59	177.46	8.40	
2025-01-18 10:50:44.79	177.47	8.42	
2025-01-18 10:50:45.00	177.47	8.44	
2025-01-18 10:50:45.20	177.48	8.45	
2025-01-18 10:50:45.40	177.49	8.47	
2025-01-18 10:50:45.61	177.50	8.49	
2025-01-18 10:50:45.81	177.50	8.50	
2025-01-18 10:50:46.01	177.51	8.52	
2025-01-18 10:50:46.21	177.52	8.53	
2025-01-18 10:50:46.42	177.53	8.55	
2025-01-18 10:50:46.62	177.53	8.57	
2025-01-18 10:50:46.82	177.54	8.58	
2025-01-18 10:50:47.03	177.55	8.60	
2025-01-18 10:50:47.23	177.56	8.62	
2025-01-18 10:50:47.43	177.57	8.63	
2025-01-18 10:50:47.64	177.57	8.65	
2025-01-18 10:50:47.84	177.58	8.67	
2025-01-18 10:50:48.04	177.59	8.68	
2025-01-18 10:50:48.24	177.60	8.70	
2025-01-18 10:50:48.45	177.60	8.71	
2025-01-18 10:50:48.65	177.61	8.73	
2025-01-18 10:50:48.85	177.62	8.75	
2025-01-18 10:50:49.06	177.63	8.76	
2025-01-18 10:50:49.26	177.64	8.78	
2025-01-18 10:50:49.46	177.64	8.80	
2025-01-18 10:50:49.66	177.65	8.81	
2025-01-18 10:50:49.87	177.66	8.83	
2025-01-18 10:50:50.07	177.67	8.85	
2025-01-18 10:50:50.27	177.67	8.86	
2025-01-18 10:50:50.48	177.68	8.88	
2025-01-18 10:50:50.68	177.69	8.90	
2025-01-18 10:50:50.88	177.70	8.91	
2025-01-18 10:50:51.09	177.71	8.93	
2025-01-18 10:50:51.29	177.71	8.95	
2025-01-18 10:50:51.49	177.72	8.96	
2025-01-18 10:50:51.69	177.73	8.98	
2025-01-18 10:50:51.90	177.74	9.00	
2025-01-18 10:50:52.10	177.75	9.01	
2025-01-18 10:50:52.30	177.75	9.03	
2025-01-18 10:50:52.51	177.76	9.05	
2025-01-18 10:50:52.71	177.77	9.06	
2025-01-18 10:50:52.91	177.78	9.08	
2025-01-18 10:50:53.12	177.79	9.10	
2025-01-18 10:50:53.32	177.79	9.11	
2025-01-18 10:50:53.52	177.80	9.13	
2025-01-18 10:50:53.72	177.81	9.14	
2025-01-18 10:50:53.93	177.82	9.16	
2025-01-18 10:50:54.13	177.83	9.18	
2025-01-18 10:50:54.33	177.83	9.19	
2025-01-18 10:50:54.54	177.84	9.21	
2025-01-18 10:50:54.74	177.85	9.23	
2025-01-18 10:50:54.94	177.86	9.25	
2025-01-18 10:50:55.15	177.87	9.26	
2025-01-18 10:50:55.35	177.87	9.28	
2025-01-18 10:50:55.55	177.88	9.30	
2025-01-18 10:50:55.75	177.89	9.31	
2025-01-18 10:50:55.96	177.90	9.33	
2025-01-18 10:50:56.16	177.91	9.35	
2025-01-18 10:50:56.36	177.91	9.36	
2025-01-18 10:50:56.57	177.92	9.38	
2025-01-18 10:50:56.77	177.93	9.40	
2025-01-18 10:50:56.97	177.94	9.41	
2025-01-18 10:50:57.18	177.95	9.43	
2025-01-18 10:50:57.38	177.95	9.45	
2025-01-18 10:50:57.58	177.96	9.46	
2025-01-18 10:50:57.78	177.97	9.48	
2025-01-18 10:50:57.99	177.98	9.50	
2025-01-18 10:50:58.19	177.99	9.52	
2025-01-18 10:50:58.39	177.99	9.53	
2025-01-18 10:50:58.60	178.00	9.55	
2025-01-18 10:50:58.80	178.01	9.57	
2025-01-18 10:50:59.00	178.02	9.58	
2025-01-18 10:50:59.21	178.03	9.60	
2025-01-18 10:50:59.41	178.04	9.62	
2025-01-18 10:50:59.61	178.04	9.63	
2025-01-18 10:50:59.81	178.05	9.65	
2025-01-18 10:51:00.02	178.06	9.67	
2025-01-18 10:51:00.22	178.07	9.69	
2025-01-18 10:51:00.42	178.08	9.70	
2025-01-18 10:51:00.63	178.09	9.72	
2025-01-18 10:51:00.83	178.09	9.74	
2025-01-18 10:51:01.03	178.10	9.75	
2025-01-18 10:51:01.24	178.11	9.77	
2025-01-18 10:51:01.44	178.12	9.79	
2025-01-18 10:51:01.64	178.13	9.80	
2025-01-18 10:51:01.84	178.14	9.82	
2025-01-18 10:51:02.05	178.14	9.84	
2025-01-18 10:51:02.25	178.15	9.86	
2025-01-18 10:51:02.45	178.16	9.87	
2025-01-18 10:51:02.66	178.17	9.89	
2025-01-18 10:51:02.86	178.18	9.91	
2025-01-18 10:51:03.06	178.19	9.92	
2025-01-18 10:51:03.27	178.19	9.94	
2025-01-18 10:51:03.47	178.20	9.96	
2025-01-18 10:51:03.67	178.21	9.98	
2025-01-18 10:51:03.87	178.22	9.99	
2025-01-18 10:51:04.08	178.23	10.01	
2025-01-18 10:51:04.28	178.24	10.03	
2025-01-18 10:51:04.48	178.24	10.05	
2025-01-18 10:51:04.69	178.25	10.06	
2025-01-18 10:51:04.89	178.26	10.08	
2025-01-18 10:51:05.09	178.27	10.10	
2025-01-18 10:51:05.29	178.28	10.11	
2025-01-18 10:51:05.50	178.29	10.13	
2025-01-18 10:51:05.70	178.30	10.15	
2025-01-18 10:51:05.90	178.30	10.17	
2025-01-18 10:51:06.11	178.31	10.18	
2025-01-18 10:51:06.31	178.32	10.20	
2025-01-18 10:51:06.51	178.33	10.22	
2025-01-18 10:51:06.72	178.34	10.24	
2025-01-18 10:51:06.92	178.35	10.25	
2025-01-18 10:51:07.12	178.36	10.27	
2025-01-18 10:51:07.32	178.36	10.29	
2025-01-18 10:51:07.53	178.37	10.31	
2025-01-18 10:51:07.73	178.38	10.32	
2025-01-18 10:51:07.93	178.39	10.34	
2025-01-18 10:51:08.14	178.40	10.36	
2025-01-18 10:51:08.34	178.41	10.38	
2025-01-18 10:51:08.54	178.42	10.39	
2025-01-18 10:51:08.75	178.42	10.41	
2025-01-18 10:51:08.95	178.43	10.43	
2025-01-18 10:51:09.15	178.44	10.45	
2025-01-18 10:51:09.35	178.45	10.46	
2025-01-18 10:51:09.56	178.46	10.48	
2025-01-18 10:51:09.76	178.47	10.50	
2025-01-18 10:51:09.96	178.48	10.52	
2025-01-18 10:51:10.17	178.49	10.54	
2025-01-18 10:51:10.37	178.49	10.55	
2025-01-18 10:51:10.57	178.50	10.57	
2025-01-18 10:51:10.78	178.51	10.59	
2025-01-18 10:51:10.98	178.52	10.61	
2025-01-18 10:51:11.18	178.53	10.62	
2025-01-18 10:51:11.38	178.54	10.64	
2025-01-18 10:51:11.59	178.55	10.66	
2025-01-18 10:51:11.79	178.55	10.68	
2025-01-18 10:51:11.99	178.56	10.69	
2025-01-18 10:51:12.20	178.57	10.71	
2025-01-18 10:51:12.40	178.58	10.73	
2025-01-18 10:51:12.60	178.59	10.75	
2025-01-18 10:51:12.81	178.60	10.77	
2025-01-18 10:51:13.01	178.61	10.78	
2025-01-18 10:51:13.21	178.62	10.80	
2025-01-18 10:51:13.41	178.63	10.82	
2025-01-18 10:51:13.62	178.63	10.84	
2025-01-18 10:51:13.82	178.64	10.85	
2025-01-18 10:51:14.02	178.65	10.87	
2025-01-18 10:51:14.23	178.66	10.89	
2025-01-18 10:51:14.43	178.67	10.91	
2025-01-18 10:51:14.63	178.68	10.93	
2025-01-18 10:51:14.84	178.69	10.94	
2025-01-18 10:51:15.04	178.70	10.96	
2025-01-18 10:51:15.24	178.71	10.98	
2025-01-18 10:51:15.44	178.71	11.00	
2025-01-18 10:51:15.65	178.72	11.02	
2025-01-18 10:51:15.85	178.73	11.03	
2025-01-18 10:51:16.05	178.74	11.05	
2025-01-18 10:51:16.26	178.75	11.07	
2025-01-18 10:51:16.46	178.76	11.09	
2025-01-18 10:51:16.66	178.77	11.11	
2025-01-18 10:51:16.87	178.78	11.12	
2025-01-18 10:51:17.07	178.79	11.14	
2025-01-18 10:51:17.27	178.80	11.16	
2025-01-18 10:51:17.47	178.81	11.18	
2025-01-18 10:51:17.68	178.81	11.20	
2025-01-18 10:51:17.88	178.82	11.21	
2025-01-18 10:51:18.08	178.83	11.23	
2025-01-18 10:51:18.29	178.84	11.25	
2025-01-18 10:51:18.49	178.85	11.27	
2025-01-18 10:51:18.69	178.86	11.29	
2025-01-18 10:51:18.89	178.87	11.30	
2025-01-18 10:51:19.10	178.88	11.32	
2025-01-18 10:51:19.30	178.89	11.34	
2025-01-18 10:51:19.50	178.90	11.36	
2025-01-18 10:51:19.71	178.91	11.38	
2025-01-18 10:51:19.91	178.91	11.40	
2025-01-18 10:51:20.11	178.92	11.41	
2025-01-18 10:51:20.32	178.93	11.43	
2025-01-18 10:51:20.52	178.94	11.45	
2025-01-18 10:51:20.72	178.95	11.47	
2025-01-18 10:51:20.92	178.96	11.49	
2025-01-18 10:51:21.13	178.97	11.51	
2025-01-18 10:51:21.33	178.98	11.52	
2025-01-18 10:51:21.53	178.99	11.54	
2025-01-18 10:51:21.74	179.00	11.56	
2025-01-18 10:51:21.94	179.01	11.58	
2025-01-18 10:51:22.14	179.02	11.60	
2025-01-18 10:51:22.35	179.03	11.62	
2025-01-18 10:51:22.55	179.04	11.63	
2025-01-18 10:51:22.75	179.04	11.65	
2025-01-18 10:51:22.95	179.05	11.67	
2025-01-18 10:51:23.16	179.06	11.69	
2025-01-18 10:51:23.36	179.07	11.71	
2025-01-18 10:51:23.56	179.08	11.73	
2025-01-18 10:51:23.77	179.09	11.74	
2025-01-18 10:51:23.97	179.10	11.76	
2025-01-18 10:51:24.17	179.11	11.78	
2025-01-18 10:51:24.38	179.12	11.80	
2025-01-18 10:51:24.58	179.13	11.82	
2025-01-18 10:51:24.78	179.14	11.84	
2025-01-18 10:51:24.98	179.15	11.85	
2025-01-18 10:51:25.19	179.16	11.87	
2025-01-18 10:51:25.39	179.17	11.89	
2025-01-18 10:51:25.59	179.18	11.91	
2025-01-18 10:51:25.80	179.19	11.93	
2025-01-18 10:51:26.00	179.20	11.95	
2025-01-18 10:51:26.20	179.21	11.97	
2025-01-18 10:51:26.41	179.22	11.99	
2025-01-18 10:51:26.61	179.22	12.00	
2025-01-18 10:51:26.81	179.23	12.02	
2025-01-18 10:51:27.01	179.24	12.04	
2025-01-18 10:51:27.22	179.25	12.06	
2025-01-18 10:51:27.42	179.26	12.08	
2025-01-18 10:51:27.62	179.27	12.10	
2025-01-18 10:51:27.83	179.28	12.12	
2025-01-18 10:51:28.03	179.29	12.14	
2025-01-18 10:51:28.23	179.30	12.15	
2025-01-18 10:51:28.44	179.31	12.17	
2025-01-18 10:51:28.64	179.32	12.19	
2025-01-18 10:51:28.84	179.33	12.21	
2025-01-18 10:51:29.04	179.34	12.23	
2025-01-18 10:51:29.25	179.35	12.25	
2025-01-18 10:51:29.45	179.36	12.27	
2025-01-18 10:51:29.65	179.37	12.29	
2025-01-18 10:51:29.86	179.38	12.31	
2025-01-18 10:51:30.06	179.39	12.32	
2025-01-18 10:51:30.26	179.40	12.34	
2025-01-18 10:51:30.47	179.41	12.36	
2025-01-18 10:51:30.67	179.42	12.38	
2025-01-18 10:51:30.87	179.43	12.40	
2025-01-18 10:51:31.07	179.44	12.42	
2025-01-18 10:51:31.28	179.45	12.44	
2025-01-18 10:51:31.48	179.46	12.46	
2025-01-18 10:51:31.68	179.47	12.48	
2025-01-18 10:51:31.89	179.48	12.49	
2025-01-18 10:51:32.09	179.49	12.51	
2025-01-18 10:51:32.29	179.50	12.53	
2025-01-18 10:51:32.50	179.51	12.55	
2025-01-18 10:51:32.70	179.52	12.57	
2025-01-18 10:51:32.90	179.53	12.59	
2025-01-18 10:51:33.10	179.54	12.61	
2025-01-18 10:51:33.31	179.55	12.63	
2025-01-18 10:51:33.51	179.56	12.65	
2025-01-18 10:51:33.71	179.57	12.67	
2025-01-18 10:51:33.92	179.58	12.69	
2025-01-18 10:51:34.12	179.59	12.70	
2025-01-18 10:51:34.32	179.60	12.72	
2025-01-18 10:51:34.52	179.61	12.74	
2025-01-18 10:51:34.73	179.62	12.76	
2025-01-18 10:51:34.93	179.63	12.78	
2025-01-18 10:51:35.13	179.64	12.80	
2025-01-18 10:51:35.34	179.65	12.82	
2025-01-18 10:51:35.54	179.66	12.84	
2025-01-18 10:51:35.74	179.67	12.86	
2025-01-18 10:51:35.95	179.68	12.88	
2025-01-18 10:51:36.15	179.69	12.90	
2025-01-18 10:51:36.35	179.70	12.92	
2025-01-18 10:51:36.55	179.71	12.94	
2025-01-18 10:51:36.76	179.72	12.96	
2025-01-18 10:51:36.96	179.73	12.97	
2025-01-18 10:51:37.16	179.74	12.99	
2025-01-18 10:51:37.37	179.75	13.01	
2025-01-18 10:51:37.57	179.76	13.03	
2025-01-18 10:51:37.77	179.77	13.05	
2025-01-18 10:51:37.98	179.78	13.07	
2025-01-18 10:51:38.18	179.79	13.09	
2025-01-18 10:51:38.38	179.80	13.11	
2025-01-18 10:51:38.58	179.81	13.13	
2025-01-18 10:51:38.79	179.82	13.15	
2025-01-18 10:51:38.99	179.83	13.17	
2025-01-18 10:51:39.19	179.84	13.19	
2025-01-18 10:51:39.40	179.85	13.21	
2025-01-18 10:51:39.60	179.86	13.23	
2025-01-18 10:51:39.80	179.87	13.25	
2025-01-18 10:51:40.01	179.88	13.27	
2025-01-18 10:51:40.21	179.89	13.29	
2025-01-18 10:51:40.41	179.90	13.31	
2025-01-18 10:51:40.61	179.91	13.33	
2025-01-18 10:51:40.82	179.92	13.35	
2025-01-18 10:51:41.02	179.93	13.37	
2025-01-18 10:51:41.22	179.94	13.39	
2025-01-18 10:51:41.43	179.95	13.41	
2025-01-18 10:51:41.63	179.97	13.43	
2025-01-18 10:51:41.83	179.98	13.44	
2025-01-18 10:51:42.04	179.99	13.46	
2025-01-18 10:51:42.24	180.00	13.48	
2025-01-18 10:51:42.44	180.01	13.50	
2025-01-18 10:51:42.64	180.02	13.52	
2025-01-18 10:51:42.85	180.03	13.54	
2025-01-18 10:51:43.05	180.04	13.56	
2025-01-18 10:51:43.25	180.05	13.58	
2025-01-18 10:51:43.46	180.06	13.60	
2025-01-18 10:51:43.66	180.07	13.62	
2025-01-18 10:51:43.86	180.08	13.64	
2025-01-18 10:51:44.07	180.09	13.66	
2025-01-18 10:51:44.27	180.10	13.68	
2025-01-18 10:51:44.47	180.11	13.70	
2025-01-18 10:51:44.67	180.12	13.72	
2025-01-18 10:51:44.88	180.13	13.74	
2025-01-18 10:51:45.08	180.14	13.76	
2025-01-18 10:51:45.28	180.16	13.78	
2025-01-18 10:51:45.49	180.17	13.80	
2025-01-18 10:51:45.69	180.18	13.82	
2025-01-18 10:51:45.89	180.19	13.84	
2025-01-18 10:51:46.10	180.20	13.86	
2025-01-18 10:51:46.30	180.21	13.88	
2025-01-18 10:51:46.50	180.22	13.90	
2025-01-18 10:51:46.70	180.23	13.92	
2025-01-18 10:51:46.91	180.24	13.94	
2025-01-18 10:51:47.11	180.25	13.96	
2025-01-18 10:51:47.31	180.26	13.98	
2025-01-18 10:51:47.52	180.27	14.00	
2025-01-18 10:51:47.72	180.29	14.02	
2025-01-18 10:51:47.92	180.30	14.04	
2025-01-18 10:51:48.12	180.31	14.06	
2025-01-18 10:51:48.33	180.32	14.09	
2025-01-18 10:51:48.53	180.33	14.11	
2025-01-18 10:51:48.73	180.34	14.13	
2025-01-18 10:51:48.94	180.35	14.15	
2025-01-18 10:51:49.14	180.36	14.17	
2025-01-18 10:51:49.34	180.37	14.19	
2025-01-18 10:51:49.55	180.38	14.21	
2025-01-18 10:51:49.75	180.39	14.23	
2025-01-18 10:51:49.95	180.41	14.25	
2025-01-18 10:51:50.15	180.42	14.27	
2025-01-18 10:51:50.36	180.43	14.29	
2025-01-18 10:51:50.56	180.44	14.31	
2025-01-18 10:51:50.76	180.45	14.33	
2025-01-18 10:51:50.97	180.46	14.35	
2025-01-18 10:51:51.17	180.47	14.37	
2025-01-18 10:51:51.37	180.48	14.39	
2025-01-18 10:51:51.58	180.49	14.41	
2025-01-18 10:51:51.78	180.51	14.43	
2025-01-18 10:51:51.98	180.52	14.45	
2025-01-18 10:51:52.18	180.53	14.47	
2025-01-18 10:51:52.39	180.54	14.49	
2025-01-18 10:51:52.59	180.55	14.51	
2025-01-18 10:51:52.79	180.56	14.53	
2025-01-18 10:51:53.00	180.57	14.56	
2025-01-18 10:51:53.20	180.58	14.58	
2025-01-18 10:51:53.40	180.59	14.60	
2025-01-18 10:51:53.61	180.61	14.62	
2025-01-18 10:51:53.81	180.62	14.64	
2025-01-18 10:51:54.01	180.63	14.66	
2025-01-18 10:51:54.21	180.64	14.68	
2025-01-18 10:51:54.42	180.65	14.70	
2025-01-18 10:51:54.62	180.66	14.72	
2025-01-18 10:51:54.82	180.67	14.74	
2025-01-18 10:51:55.03	180.69	14.76	
2025-01-18 10:51:55.23	180.70	14.78	
2025-01-18 10:51:55.43	180.71	14.80	
2025-01-18 10:51:55.64	180.72	14.83	
2025-01-18 10:51:55.84	180.73	14.85	
2025-01-18 10:51:56.04	180.74	14.87	
2025-01-18 10:51:56.24	180.75	14.89	
2025-01-18 10:51:56.45	180.77	14.91	
2025-01-18 10:51:56.65	180.78	14.93	
2025-01-18 10:51:56.85	180.79	14.95	
2025-01-18 10:51:57.06	180.80	14.97	
2025-01-18 10:51:57.26	180.81	14.99	
2025-01-18 10:51:57.46	180.82	15.01	
2025-01-18 10:51:57.67	180.84	15.03	
2025-01-18 10:51:57.87	180.85	15.06	
2025-01-18 10:51:58.07	180.86	15.08	
2025-01-18 10:51:58.27	180.87	15.10	
2025-01-18 10:51:58.48	180.88	15.12	
2025-01-18 10:51:58.68	180.89	15.14	
2025-01-18 10:51:58.88	180.90	15.16	
2025-01-18 10:51:59.09	180.92	15.18	
2025-01-18 10:51:59.29	180.93	15.20	
2025-01-18 10:51:59.49	180.94	15.22	
2025-01-18 10:51:59.70	180.95	15.25	
2025-01-18 10:51:59.90	180.96	15.27	
2025-01-18 10:52:00.10	180.97	15.29	
2025-01-18 10:52:00.30	180.99	15.31	
2025-01-18 10:52:00.51	181.00	15.33	
2025-01-18 10:52:00.71	181.01	15.35	
2025-01-18 10:52:00.91	181.02	15.37	
2025-01-18 10:52:01.12	181.03	15.39	
2025-01-18 10:52:01.32	181.05	15.42	
2025-01-18 10:52:01.52	181.06	15.44	
2025-01-18 10:52:01.73	181.07	15.46	
2025-01-18 10:52:01.93	181.08	15.48	
2025-01-18 10:52:02.13	181.09	15.50	
2025-01-18 10:52:02.33	181.11	15.52	
2025-01-18 10:52:02.54	181.12	15.54	
2025-01-18 10:52:02.74	181.13	15.57	
2025-01-18 10:52:02.94	181.14	15.59	
2025-01-18 10:52:03.15	181.15	15.61	
2025-01-18 10:52:03.35	181.17	15.63	
2025-01-18 10:52:03.55	181.18	15.65	
2025-01-18 10:52:03.75	181.19	15.67	
2025-01-18 10:52:03.96	181.20	15.69	
2025-01-18 10:52:04.16	181.21	15.72	
2025-01-18 10:52:04.36	181.23	15.74	
2025-01-18 10:52:04.57	181.24	15.76	
2025-01-18 10:52:04.77	181.25	15.78	
2025-01-18 10:52:04.97	181.26	15.80	
2025-01-18 10:52:05.18	181.27	15.82	
2025-01-18 10:52:05.38	181.29	15.85	
2025-01-18 10:52:05.58	181.30	15.87	
2025-01-18 10:52:05.78	181.31	15.89	
2025-01-18 10:52:05.99	181.32	15.91	
2025-01-18 10:52:06.19	181.34	15.93	
2025-01-18 10:52:06.39	181.35	15.95	
2025-01-18 10:52:06.60	181.36	15.98	
2025-01-18 10:52:06.80	181.37	16.00	
2025-01-18 10:52:07.00	181.38	16.02	
2025-01-18 10:52:07.21	181.40	16.04	
2025-01-18 10:52:07.41	181.41	16.06	
2025-01-18 10:52:07.61	181.42	16.09	
2025-01-18 10:52:07.81	181.43	16.11	
2025-01-18 10:52:08.02	181.45	16.13	
2025-01-18 10:52:08.22	181.46	16.15	
2025-01-18 10:52:08.42	181.47	16.17	
2025-01-18 10:52:08.63	181.48	16.20	
2025-01-18 10:52:08.83	181.50	16.22	
2025-01-18 10:52:09.03	181.51	16.24	
2025-01-18 10:52:09.24	181.52	16.26	
2025-01-18 10:52:09.44	181.53	16.28	
2025-01-18 10:52:09.64	181.55	16.31	
2025-01-18 10:52:09.84	181.56	16.33	
2025-01-18 10:52:10.05	181.57	16.35	
2025-01-18 10:52:10.25	181.58	16.37	
2025-01-18 10:52:10.45	181.60	16.39	
2025-01-18 10:52:10.66	181.61	16.42	
2025-01-18 10:52:10.86	181.62	16.44	
2025-01-18 10:52:11.06	181.63	16.46	
2025-01-18 10:52:11.27	181.65	16.48	
2025-01-18 10:52:11.47	181.66	16.51	
2025-01-18 10:52:11.67	181.67	16.53	
2025-01-18 10:52:11.87	181.68	16.55	
2025-01-18 10:52:12.08	181.70	16.57	
2025-01-18 10:52:12.28	181.71	16.59	
2025-01-18 10:52:12.48	181.72	16.62	
2025-01-18 10:52:12.69	181.74	16.64	
2025-01-18 10:52:12.89	181.75	16.66	
2025-01-18 10:52:13.09	181.76	16.68	
2025-01-18 10:52:13.30	181.78	16.71	
2025-01-18 10:52:13.50	181.79	16.73	
2025-01-18 10:52:13.70	181.80	16.75	
2025-01-18 10:52:13.90	181.81	16.77	
2025-01-18 10:52:14.11	181.83	16.80	
2025-01-18 10:52:14.31	181.84	16.82	
2025-01-18 10:52:14.51	181.85	16.84	
2025-01-18 10:52:14.72	181.87	16.86	
2025-01-18 10:52:14.92	181.88	16.89	
2025-01-18 10:52:15.12	181.89	16.91	
2025-01-18 10:52:15.33	181.90	16.93	
2025-01-18 10:52:15.53	181.92	16.95	
2025-01-18 10:52:15.73	181.93	16.98	
2025-01-18 10:52:15.93	181.94	17.00	
2025-01-18 10:52:16.14	181.96	17.02	
2025-01-18 10:52:16.34	181.97	17.04	
2025-01-18 10:52:16.54	181.98	17.07	
2025-01-18 10:52:16.75	182.00	17.09	
2025-01-18 10:52:16.95	182.01	17.11	
2025-01-18 10:52:17.15	182.02	17.14	
2025-01-18 10:52:17.36	182.04	17.16	
2025-01-18 10:52:17.56	182.05	17.18	
2025-01-18 10:52:17.76	182.06	17.20	
2025-01-18 10:52:17.96	182.08	17.23	
2025-01-18 10:52:18.17	182.09	17.25	
2025-01-18 10:52:18.37	182.10	17.27	
2025-01-18 10:52:18.57	182.12	17.30	
2025-01-18 10:52:18.78	182.13	17.32	
2025-01-18 10:52:18.98	182.14	17.34	
2025-01-18 10:52:19.18	182.16	17.36	
2025-01-18 10:52:19.38	182.17	17.39	
2025-01-18 10:52:19.59	182.18	17.41	
2025-01-18 10:52:19.79	182.20	17.43	
2025-01-18 10:52:19.99	182.21	17.46	
2025-01-18 10:52:20.20	182.22	17.48	
2025-01-18 10:52:20.40	182.24	17.50	
2025-01-18 10:52:20.60	182.25	17.53	
2025-01-18 10:52:20.81	182.26	17.55	
2025-01-18 10:52:21.01	182.28	17.57	
2025-01-18 10:52:21.21	182.29	17.60	
2025-01-18 10:52:21.41	182.30	17.62	
2025-01-18 10:52:21.62	182.32	17.64	
2025-01-18 10:52:21.82	182.33	17.67	
2025-01-18 10:52:22.02	182.35	17.69	
2025-01-18 10:52:22.23	182.36	17.71	
2025-01-18 10:52:22.43	182.37	17.74	
2025-01-18 10:52:22.63	182.39	17.76	
2025-01-18 10:52:22.84	182.40	17.78	
2025-01-18 10:52:23.04	182.41	17.81	
2025-01-18 10:52:23.24	182.43	17.83	
2025-01-18 10:52:23.44	182.44	17.85	
2025-01-18 10:52:23.65	182.46	17.88	
2025-01-18 10:52:23.85	182.47	17.90	
2025-01-18 10:52:24.05	182.48	17.92	
2025-01-18 10:52:24.26	182.50	17.95	
2025-01-18 10:52:24.46	182.51	17.97	
2025-01-18 10:52:24.66	182.52	17.99	
2025-01-18 10:52:24.87	182.54	18.02	
2025-01-18 10:52:25.07	182.55	18.04	
2025-01-18 10:52:25.27	182.57	18.06	
2025-01-18 10:52:25.47	182.58	18.09	
2025-01-18 10:52:25.68	182.60	18.11	
2025-01-18 10:52:25.88	182.61	18.13	
2025-01-18 10:52:26.08	182.62	18.16	
2025-01-18 10:52:26.29	182.64	18.18	
2025-01-18 10:52:26.49	182.65	18.21	
2025-01-18 10:52:26.69	182.67	18.23	
2025-01-18 10:52:26.90	182.68	18.25	
2025-01-18 10:52:27.10	182.69	18.28	
2025-01-18 10:52:27.30	182.71	18.30	
2025-01-18 10:52:27.50	182.72	18.32	
2025-01-18 10:52:27.71	182.74	18.35	
2025-01-18 10:52:27.91	182.75	18.37	
2025-01-18 10:52:28.11	182.76	18.40	
2025-01-18 10:52:28.32	182.78	18.42	
2025-01-18 10:52:28.52	182.79	18.44	
2025-01-18 10:52:28.72	182.81	18.47	
2025-01-18 10:52:28.93	182.82	18.49	
2025-01-18 10:52:29.13	182.84	18.52	
2025-01-18 10:52:29.33	182.85	18.54	
2025-01-18 10:52:29.53	182.87	18.56	
2025-01-18 10:52:29.74	182.88	18.59	
2025-01-18 10:52:29.94	182.89	18.61	
2025-01-18 10:52:30.14	182.91	18.64	
2025-01-18 10:52:30.35	182.92	18.66	
2025-01-18 10:52:30.55	182.94	18.69	
2025-01-18 10:52:30.75	182.95	18.71	
2025-01-18 10:52:30.96	182.97	18.73	
2025-01-18 10:52:31.16	182.98	18.76	
2025-01-18 10:52:31.36	183.00	18.78	
2025-01-18 10:52:31.56	183.01	18.81	
2025-01-18 10:52:31.77	183.03	18.83	
2025-01-18 10:52:31.97	183.04	18.85	
2025-01-18 10:52:32.17	183.06	18.88	
2025-01-18 10:52:32.38	183.07	18.90	
2025-01-18 10:52:32.58	183.09	18.93	
2025-01-18 10:52:32.78	183.10	18.95	
2025-01-18 10:52:32.98	183.11	18.98	
2025-01-18 10:52:33.19	183.13	19.00	
2025-01-18 10:52:33.39	183.14	19.03	
2025-01-18 10:52:33.59	183.16	19.05	
2025-01-18 10:52:33.80	183.17	19.08	
2025-01-18 10:52:34.00	183.19	19.10	
2025-01-18 10:52:34.20	183.20	19.12	
2025-01-18 10:52:34.41	183.22	19.15	
2025-01-18 10:52:34.61	183.23	19.17	
2025-01-18 10:52:34.81	183.25	19.20	
2025-01-18 10:52:35.01	183.26	19.22	
2025-01-18 10:52:35.22	183.28	19.25	
2025-01-18 10:52:35.42	183.29	19.27	
2025-01-18 10:52:35.62	183.31	19.30	
2025-01-18 10:52:35.83	183.32	19.32	
2025-01-18 10:52:36.03	183.34	19.35	
2025-01-18 10:52:36.23	183.35	19.37	
2025-01-18 10:52:36.44	183.37	19.40	
2025-01-18 10:52:36.64	183.39	19.42	
2025-01-18 10:52:36.84	183.40	19.45	
2025-01-18 10:52:37.04	183.42	19.47	
2025-01-18 10:52:37.25	183.43	19.50	
2025-01-18 10:52:37.45	183.45	19.52	
2025-01-18 10:52:37.65	183.46	19.54	
2025-01-18 10:52:37.86	183.48	19.57	
2025-01-18 10:52:38.06	183.49	19.60	
2025-01-18 10:52:38.26	183.51	19.62	
2025-01-18 10:52:38.47	183.52	19.65	
2025-01-18 10:52:38.67	183.54	19.67	
2025-01-18 10:52:38.87	183.55	19.70	
2025-01-18 10:52:39.07	183.57	19.72	
2025-01-18 10:52:39.28	183.59	19.75	
2025-01-18 10:52:39.48	183.60	19.77	
2025-01-18 10:52:39.68	183.62	19.80	
2025-01-18 10:52:39.89	183.63	19.82	
2025-01-18 10:52:40.09	183.65	19.85	
2025-01-18 10:52:40.29	183.66	19.87	
2025-01-18 10:52:40.50	183.68	19.90	
2025-01-18 10:52:40.70	183.70	19.92	
2025-01-18 10:52:40.90	183.71	19.95	
2025-01-18 10:52:41.10	183.73	19.97	
2025-01-18 10:52:41.31	183.74	20.00	
2025-01-18 10:52:41.51	183.76	20.02	
2025-01-18 10:52:41.71	183.77	20.05	
2025-01-18 10:52:41.92	183.79	20.08	
2025-01-18 10:52:42.12	183.81	20.10	
2025-01-18 10:52:42.32	183.82	20.13	
2025-01-18 10:52:42.53	183.84	20.15	
2025-01-18 10:52:42.73	183.85	20.18	
2025-01-18 10:52:42.93	183.87	20.20	
2025-01-18 10:52:43.13	183.89	20.23	
2025-01-18 10:52:43.34	183.90	20.25	
2025-01-18 10:52:43.54	183.92	20.28	
2025-01-18 10:52:43.74	183.93	20.30	
2025-01-18 10:52:43.95	183.95	20.33	
2025-01-18 10:52:44.15	183.97	20.36	
2025-01-18 10:52:44.35	183.98	20.38	
2025-01-18 10:52:44.56	184.00	20.41	
2025-01-18 10:52:44.76	184.01	20.43	
2025-01-18 10:52:44.96	184.03	20.46	
2025-01-18 10:52:45.16	184.05	20.48	
2025-01-18 10:52:45.37	184.06	20.51	
2025-01-18 10:52:45.57	184.08	20.54	
2025-01-18 10:52:45.77	184.10	20.56	
2025-01-18 10:52:45.98	184.11	20.59	
2025-01-18 10:52:46.18	184.13	20.62	
2025-01-18 10:52:46.38	184.15	20.64	
2025-01-18 10:52:46.59	184.16	20.67	
2025-01-18 10:52:46.79	184.18	20.69	
2025-01-18 10:52:46.99	184.19	20.72	
2025-01-18 10:52:47.19	184.21	20.74	
2025-01-18 10:52:47.40	184.23	20.77	
2025-01-18 10:52:47.60	184.24	20.80	
2025-01-18 10:52:47.80	184.26	20.82	
2025-01-18 10:52:48.01	184.28	20.85	
2025-01-18 10:52:48.21	184.29	20.88	
2025-01-18 10:52:48.41	184.31	20.90	
2025-01-18 10:52:48.61	184.33	20.93	
2025-01-18 10:52:48.82	184.34	20.96	
2025-01-18 10:52:49.02	184.36	20.98	
2025-01-18 10:52:49.22	184.38	21.01	
2025-01-18 10:52:49.43	184.40	21.03	
2025-01-18 10:52:49.63	184.41	21.06	
2025-01-18 10:52:49.83	184.43	21.09	
2025-01-18 10:52:50.04	184.45	21.11	
2025-01-18 10:52:50.24	184.46	21.14	
2025-01-18 10:52:50.44	184.48	21.17	
2025-01-18 10:52:50.64	184.50	21.19	
2025-01-18 10:52:50.85	184.51	21.22	
2025-01-18 10:52:51.05	184.53	21.25	
2025-01-18 10:52:51.25	184.55	21.27	
2025-01-18 10:52:51.46	184.57	21.30	
2025-01-18 10:52:51.66	184.58	21.33	
2025-01-18 10:52:51.86	184.60	21.35	
2025-01-18 10:52:52.07	184.62	21.38	
2025-01-18 10:52:52.27	184.63	21.41	
2025-01-18 10:52:52.47	184.65	21.43	
2025-01-18 10:52:52.67	184.67	21.46	
2025-01-18 10:52:52.88	184.69	21.49	
2025-01-18 10:52:53.08	184.70	21.51	
2025-01-18 10:52:53.28	184.72	21.54	
2025-01-18 10:52:53.49	184.74	21.57	
2025-01-18 10:52:53.69	184.76	21.59	
2025-01-18 10:52:53.89	184.77	21.62	
2025-01-18 10:52:54.10	184.79	21.65	
2025-01-18 10:52:54.30	184.81	21.67	
2025-01-18 10:52:54.50	184.83	21.70	
2025-01-18 10:52:54.70	184.84	21.73	
2025-01-18 10:52:54.91	184.86	21.76	
2025-01-18 10:52:55.11	184.88	21.78	
2025-01-18 10:52:55.31	184.90	21.81	
2025-01-18 10:52:55.52	184.91	21.84	
2025-01-18 10:52:55.72	184.93	21.86	
2025-01-18 10:52:55.92	184.95	21.89	
2025-01-18 10:52:56.13	184.97	21.92	
2025-01-18 10:52:56.33	184.98	21.95	
2025-01-18 10:52:56.53	185.00	21.97	
2025-01-18 10:52:56.73	185.02	22.00	
2025-01-18 10:52:56.94	185.04	22.03	
2025-01-18 10:52:57.14	185.06	22.05	
2025-01-18 10:52:57.34	185.07	22.08	
2025-01-18 10:52:57.55	185.09	22.11	
2025-01-18 10:52:57.75	185.11	22.14	
2025-01-18 10:52:57.95	185.13	22.16	
2025-01-18 10:52:58.16	185.15	22.19	
2025-01-18 10:52:58.36	185.16	22.22	
2025-01-18 10:52:58.56	185.18	22.25	
2025-01-18 10:52:58.76	185.20	22.27	
2025-01-18 10:52:58.97	185.22	22.30	
2025-01-18 10:52:59.17	185.24	22.33	
2025-01-18 10:52:59.37	185.26	22.36	
2025-01-18 10:52:59.58	185.27	22.39	
2025-01-18 10:52:59.78	185.29	22.41	
2025-01-18 10:52:59.98	185.31	22.44	
2025-01-18 10:53:00.19	185.33	22.47	
2025-01-18 10:53:00.39	185.35	22.50	
2025-01-18 10:53:00.59	185.37	22.52	
2025-01-18 10:53:00.79	185.38	22.55	
2025-01-18 10:53:01.00	185.40	22.58	
2025-01-18 10:53:01.20	185.42	22.61	
2025-01-18 10:53:01.40	185.44	22.64	
2025-01-18 10:53:01.61	185.46	22.66	
2025-01-18 10:53:01.81	185.48	22.69	
2025-01-18 10:53:02.01	185.50	22.72	
2025-01-18 10:53:02.22	185.51	22.75	
2025-01-18 10:53:02.42	185.53	22.78	
2025-01-18 10:53:02.62	185.55	22.80	
2025-01-18 10:53:02.82	185.57	22.83	
2025-01-18 10:53:03.03	185.59	22.86	
2025-01-18 10:53:03.23	185.61	22.89	
2025-01-18 10:53:03.43	185.63	22.92	
2025-01-18 10:53:03.64	185.65	22.95	
2025-01-18 10:53:03.84	185.67	22.97	
2025-01-18 10:53:04.04	185.68	23.00	
2025-01-18 10:53:04.24	185.70	23.03	
2025-01-18 10:53:04.45	185.72	23.06	
2025-01-18 10:53:04.65	185.74	23.09	
2025-01-18 10:53:04.85	185.76	23.11	
2025-01-18 10:53:05.06	185.78	23.14	
2025-01-18 10:53:05.26	185.80	23.17	
2025-01-18 10:53:05.46	185.82	23.20	
2025-01-18 10:53:05.67	185.84	23.23	
2025-01-18 10:53:05.87	185.86	23.26	
2025-01-18 10:53:06.07	185.88	23.29	
2025-01-18 10:53:06.27	185.90	23.31	
2025-01-18 10:53:06.48	185.92	23.34	
2025-01-18 10:53:06.68	185.93	23.37	
2025-01-18 10:53:06.88	185.95	23.40	
2025-01-18 10:53:07.09	185.97	23.43	
2025-01-18 10:53:07.29	185.99	23.46	
2025-01-18 10:53:07.49	186.01	23.49	
2025-01-18 10:53:07.70	186.03	23.52	
2025-01-18 10:53:07.90	186.05	23.54	
2025-01-18 10:53:08.10	186.07	23.57	
2025-01-18 10:53:08.30	186.09	23.60	
2025-01-18 10:53:08.51	186.11	23.63	
2025-01-18 10:53:08.71	186.13	23.66	
2025-01-18 10:53:08.91	186.15	23.69	
2025-01-18 10:53:09.12	186.17	23.72	
2025-01-18 10:53:09.32	186.19	23.75	
2025-01-18 10:53:09.52	186.21	23.78	
2025-01-18 10:53:09.73	186.23	23.81	
2025-01-18 10:53:09.93	186.25	23.83	
2025-01-18 10:53:10.13	186.27	23.86	
2025-01-18 10:53:10.33	186.29	23.89	
2025-01-18 10:53:10.54	186.31	23.92	
2025-01-18 10:53:10.74	186.33	23.95	
2025-01-18 10:53:10.94	186.35	23.98	
2025-01-18 10:53:11.15	186.37	24.01	
2025-01-18 10:53:11.35	186.39	24.04	
2025-01-18 10:53:11.55	186.41	24.07	
2025-01-18 10:53:11.76	186.43	24.10	
2025-01-18 10:53:11.96	186.45	24.13	
2025-01-18 10:53:12.16	186.47	24.16	
2025-01-18 10:53:12.36	186.49	24.18	
2025-01-18 10:53:12.57	186.51	24.22	
2025-01-18 10:53:12.77	186.53	24.24	
2025-01-18 10:53:12.97	186.55	24.27	
2025-01-18 10:53:13.18	186.58	24.30	
2025-01-18 10:53:13.38	186.60	24.33	
2025-01-18 10:53:13.58	186.62	24.36	
2025-01-18 10:53:13.79	186.64	24.39	
2025-01-18 10:53:13.99	186.66	24.42	
2025-01-18 10:53:14.19	186.68	24.45	
2025-01-18 10:53:14.39	186.70	24.48	
2025-01-18 10:53:14.60	186.72	24.51	
2025-01-18 10:53:14.80	186.74	24.54	
2025-01-18 10:53:15.00	186.76	24.57	
2025-01-18 10:53:15.21	186.78	24.60	
2025-01-18 10:53:15.41	186.80	24.63	
2025-01-18 10:53:15.61	186.83	24.66	
2025-01-18 10:53:15.82	186.85	24.69	
2025-01-18 10:53:16.02	186.87	24.72	
2025-01-18 10:53:16.22	186.89	24.75	
2025-01-18 10:53:16.42	186.91	24.78	
2025-01-18 10:53:16.63	186.93	24.81	
2025-01-18 10:53:16.83	186.95	24.84	
2025-01-18 10:53:17.03	186.97	24.87	
2025-01-18 10:53:17.24	187.00	24.90	
2025-01-18 10:53:17.44	187.02	24.93	
2025-01-18 10:53:17.64	187.04	24.96	
2025-01-18 10:53:17.84	187.06	24.99	
2025-01-18 10:53:18.05	187.08	25.02	
2025-01-18 10:53:18.25	187.10	25.05	
2025-01-18 10:53:18.45	187.12	25.08	
2025-01-18 10:53:18.66	187.15	25.11	
2025-01-18 10:53:18.86	187.17	25.14	
2025-01-18 10:53:19.06	187.19	25.17	
2025-01-18 10:53:19.27	187.21	25.21	
2025-01-18 10:53:19.47	187.23	25.24	
2025-01-18 10:53:19.67	187.25	25.27	
2025-01-18 10:53:19.87	187.28	25.30	
2025-01-18 10:53:20.08	187.30	25.33	
2025-01-18 10:53:20.28	187.32	25.36	
2025-01-18 10:53:20.48	187.34	25.39	
2025-01-18 10:53:20.69	187.36	25.42	
2025-01-18 10:53:20.89	187.39	25.45	
2025-01-18 10:53:21.09	187.41	25.48	
2025-01-18 10:53:21.30	187.43	25.51	
2025-01-18 10:53:21.50	187.45	25.54	
2025-01-18 10:53:21.70	187.47	25.57	
2025-01-18 10:53:21.90	187.50	25.60	
2025-01-18 10:53:22.11	187.52	25.64	
2025-01-18 10:53:22.31	187.54	25.67	
2025-01-18 10:53:22.51	187.56	25.70	
2025-01-18 10:53:22.72	187.59	25.73	
2025-01-18 10:53:22.92	187.61	25.76	
2025-01-18 10:53:23.12	187.63	25.79	
2025-01-18 10:53:23.33	187.65	25.82	
2025-01-18 10:53:23.53	187.68	25.85	
2025-01-18 10:53:23.73	187.70	25.88	
2025-01-18 10:53:23.93	187.72	25.91	
2025-01-18 10:53:24.14	187.75	25.95	
2025-01-18 10:53:24.34	187.77	25.98	
2025-01-18 10:53:24.54	187.79	26.01	
2025-01-18 10:53:24.75	187.81	26.04	
2025-01-18 10:53:24.95	187.84	26.07	
2025-01-18 10:53:25.15	187.86	26.10	
2025-01-18 10:53:25.36	187.88	26.14	
2025-01-18 10:53:25.56	187.91	26.17	
2025-01-18 10:53:25.76	187.93	26.20	
2025-01-18 10:53:25.96	187.95	26.23	
2025-01-18 10:53:26.17	187.98	26.26	
2025-01-18 10:53:26.37	188.00	26.29	
2025-01-18 10:53:26.57	188.02	26.32	
2025-01-18 10:53:26.78	188.05	26.36	
2025-01-18 10:53:26.98	188.07	26.39	
2025-01-18 10:53:27.18	188.09	26.42	
2025-01-18 10:53:27.39	188.12	26.45	
2025-01-18 10:53:27.59	188.14	26.48	
2025-01-18 10:53:27.79	188.16	26.51	
2025-01-18 10:53:27.99	188.19	26.55	
2025-01-18 10:53:28.20	188.21	26.58	
2025-01-18 10:53:28.40	188.23	26.61	
2025-01-18 10:53:28.60	188.26	26.64	
2025-01-18 10:53:28.81	188.28	26.67	
2025-01-18 10:53:29.01	188.30	26.71	
2025-01-18 10:53:29.21	188.33	26.74	
2025-01-18 10:53:29.42	188.35	26.77	
2025-01-18 10:53:29.62	188.38	26.80	
2025-01-18 10:53:29.82	188.40	26.83	
2025-01-18 10:53:30.02	188.42	26.87	
2025-01-18 10:53:30.23	188.45	26.90	
2025-01-18 10:53:30.43	188.47	26.93	
2025-01-18 10:53:30.63	188.50	26.96	
2025-01-18 10:53:30.84	188.52	27.00	
2025-01-18 10:53:31.04	188.55	27.03	
2025-01-18 10:53:31.24	188.57	27.06	
2025-01-18 10:53:31.45	188.59	27.09	
2025-01-18 10:53:31.65	188.62	27.13	
2025-01-18 10:53:31.85	188.64	27.16	
2025-01-18 10:53:32.05	188.67	27.19	
2025-01-18 10:53:32.26	188.69	27.22	
2025-01-18 10:53:32.46	188.72	27.26	
2025-01-18 10:53:32.66	188.74	27.29	
2025-01-18 10:53:32.87	188.77	27.32	
2025-01-18 10:53:33.07	188.79	27.35	
2025-01-18 10:53:33.27	188.82	27.39	
2025-01-18 10:53:33.47	188.84	27.42	
2025-01-18 10:53:33.68	188.87	27.45	
2025-01-18 10:53:33.88	188.89	27.48	
2025-01-18 10:53:34.08	188.92	27.52	
2025-01-18 10:53:34.29	188.94	27.55	
2025-01-18 10:53:34.49	188.97	27.58	
2025-01-18 10:53:34.69	188.99	27.62	
2025-01-18 10:53:34.90	189.02	27.65	
2025-01-18 10:53:35.10	189.04	27.68	
2025-01-18 10:53:35.30	189.07	27.72	
2025-01-18 10:53:35.50	189.09	27.75	
2025-01-18 10:53:35.71	189.12	27.78	
2025-01-18 10:53:35.91	189.14	27.81	
2025-01-18 10:53:36.11	189.17	27.85	
2025-01-18 10:53:36.32	189.19	27.88	
2025-01-18 10:53:36.52	189.22	27.91	
2025-01-18 10:53:36.72	189.25	27.95	
2025-01-18 10:53:36.93	189.27	27.98	
2025-01-18 10:53:37.13	189.30	28.02	
2025-01-18 10:53:37.33	189.32	28.05	
2025-01-18 10:53:37.53	189.35	28.08	
2025-01-18 10:53:37.74	189.38	28.12	
2025-01-18 10:53:37.94	189.40	28.15	
2025-01-18 10:53:38.14	189.43	28.18	
2025-01-18 10:53:38.35	189.45	28.22	
2025-01-18 10:53:38.55	189.48	28.25	
2025-01-18 10:53:38.75	189.50	28.28	
2025-01-18 10:53:38.96	189.53	28.32	
2025-01-18 10:53:39.16	189.56	28.35	
2025-01-18 10:53:39.36	189.58	28.38	
2025-01-18 10:53:39.56	189.61	28.42	
2025-01-18 10:53:39.77	189.64	28.45	
2025-01-18 10:53:39.97	189.66	28.49	
2025-01-18 10:53:40.17	189.69	28.52	
2025-01-18 10:53:40.38	189.72	28.55	
2025-01-18 10:53:40.58	189.74	28.59	
2025-01-18 10:53:40.78	189.77	28.62	
2025-01-18 10:53:40.99	189.80	28.66	
2025-01-18 10:53:41.19	189.82	28.69	
2025-01-18 10:53:41.39	189.85	28.72	
2025-01-18 10:53:41.59	189.88	28.76	
2025-01-18 10:53:41.80	189.91	28.79	
2025-01-18 10:53:42.00	189.93	28.83	
2025-01-18 10:53:42.20	189.96	28.86	
2025-01-18 10:53:42.41	189.99	28.90	
2025-01-18 10:53:42.61	190.01	28.93	
2025-01-18 10:53:42.81	190.04	28.96	
2025-01-18 10:53:43.02	190.07	29.00	
2025-01-18 10:53:43.22	190.10	29.03	
2025-01-18 10:53:43.42	190.12	29.07	
2025-01-18 10:53:43.62	190.15	29.10	
2025-01-18 10:53:43.83	190.18	29.14	
2025-01-18 10:53:44.03	190.21	29.17	
2025-01-18 10:53:44.23	190.23	29.20	
2025-01-18 10:53:44.44	190.26	29.24	
2025-01-18 10:53:44.64	190.29	29.27	
2025-01-18 10:53:44.84	190.32	29.31	
2025-01-18 10:53:45.05	190.35	29.34	
2025-01-18 10:53:45.25	190.37	29.38	
2025-01-18 10:53:45.45	190.40	29.41	
2025-01-18 10:53:45.65	190.43	29.45	
2025-01-18 10:53:45.86	190.46	29.48	
2025-01-18 10:53:46.06	190.49	29.52	
2025-01-18 10:53:46.26	190.51	29.55	
2025-01-18 10:53:46.47	190.54	29.59	
2025-01-18 10:53:46.67	190.57	29.62	
2025-01-18 10:53:46.87	190.60	29.66	
2025-01-18 10:53:47.07	190.63	29.69	
2025-01-18 10:53:47.28	190.66	29.73	
2025-01-18 10:53:47.48	190.69	29.76	
2025-01-18 10:53:47.68	190.71	29.80	
2025-01-18 10:53:47.89	190.74	29.83	
2025-01-18 10:53:48.09	190.77	29.87	
2025-01-18 10:53:48.29	190.80	29.90	
2025-01-18 10:53:48.50	190.83	29.94	
2025-01-18 10:53:48.70	190.86	29.98	
2025-01-18 10:53:48.90	190.89	30.01	
2025-01-18 10:53:49.10	190.92	30.05	
2025-01-18 10:53:49.31	190.95	30.08	
2025-01-18 10:53:49.51	190.98	30.12	
2025-01-18 10:53:49.71	191.00	30.15	
2025-01-18 10:53:49.92	191.03	30.19	
2025-01-18 10:53:50.12	191.06	30.22	
2025-01-18 10:53:50.32	191.09	30.26	
2025-01-18 10:53:50.53	191.12	30.30	
2025-01-18 10:53:50.73	191.15	30.33	
2025-01-18 10:53:50.93	191.18	30.37	
2025-01-18 10:53:51.13	191.21	30.40	
2025-01-18 10:53:51.34	191.24	30.44	
2025-01-18 10:53:51.54	191.27	30.47	
2025-01-18 10:53:51.74	191.30	30.51	
2025-01-18 10:53:51.95	191.33	30.55	
2025-01-18 10:53:52.15	191.36	30.58	
2025-01-18 10:53:52.35	191.39	30.62	
2025-01-18 10:53:52.56	191.42	30.65	
2025-01-18 10:53:52.76	191.45	30.69	
2025-01-18 10:53:52.96	191.48	30.73	
2025-01-18 10:53:53.16	191.51	30.76	
2025-01-18 10:53:53.37	191.54	30.80	
2025-01-18 10:53:53.57	191.57	30.84	
2025-01-18 10:53:53.77	191.60	30.87	
2025-01-18 10:53:53.98	191.64	30.91	
2025-01-18 10:53:54.18	191.67	30.94	
2025-01-18 10:53:54.38	191.70	30.98	
2025-01-18 10:53:54.59	191.73	31.02	
2025-01-18 10:53:54.79	191.76	31.05	
2025-01-18 10:53:54.99	191.79	31.09	
2025-01-18 10:53:55.19	191.82	31.13	
2025-01-18 10:53:55.40	191.85	31.16	
2025-01-18 10:53:55.60	191.88	31.20	
2025-01-18 10:53:55.80	191.91	31.24	
2025-01-18 10:53:56.01	191.95	31.27	
2025-01-18 10:53:56.21	191.98	31.31	
2025-01-18 10:53:56.41	192.01	31.35	
2025-01-18 10:53:56.62	192.04	31.38	
2025-01-18 10:53:56.82	192.07	31.42	
2025-01-18 10:53:57.02	192.10	31.46	
2025-01-18 10:53:57.22	192.14	31.49	
2025-01-18 10:53:57.43	192.17	31.53	
2025-01-18 10:53:57.63	192.20	31.57	
2025-01-18 10:53:57.83	192.23	31.60	
2025-01-18 10:53:58.04	192.26	31.64	
2025-01-18 10:53:58.24	192.30	31.68	
2025-01-18 10:53:58.44	192.33	31.72	
2025-01-18 10:53:58.65	192.36	31.75	
2025-01-18 10:53:58.85	192.39	31.79	
2025-01-18 10:53:59.05	192.43	31.83	
2025-01-18 10:53:59.25	192.46	31.86	
2025-01-18 10:53:59.46	192.49	31.90	
2025-01-18 10:53:59.66	192.52	31.94	
2025-01-18 10:53:59.86	192.56	31.98	
2025-01-18 10:54:00.07	192.59	32.02	
2025-01-18 10:54:00.27	192.62	32.05	
2025-01-18 10:54:00.47	192.65	32.09	
2025-01-18 10:54:00.68	192.69	32.13	
2025-01-18 10:54:00.88	192.72	32.17	
2025-01-18 10:54:01.08	192.75	32.20	
2025-01-18 10:54:01.28	192.79	32.24	
2025-01-18 10:54:01.49	192.82	32.28	
2025-01-18 10:54:01.69	192.85	32.32	
2025-01-18 10:54:01.89	192.89	32.35	
2025-01-18 10:54:02.10	192.92	32.39	
2025-01-18 10:54:02.30	192.95	32.43	
2025-01-18 10:54:02.50	192.99	32.47	
2025-01-18 10:54:02.70	193.02	32.50	
2025-01-18 10:54:02.91	193.06	32.54	
2025-01-18 10:54:03.11	193.09	32.58	
2025-01-18 10:54:03.31	193.12	32.62	
2025-01-18 10:54:03.52	193.16	32.66	
2025-01-18 10:54:03.72	193.19	32.70	
2025-01-18 10:54:03.92	193.23	32.73	
2025-01-18 10:54:04.13	193.26	32.77	
2025-01-18 10:54:04.33	193.30	32.81	
2025-01-18 10:54:04.53	193.33	32.85	
2025-01-18 10:54:04.73	193.36	32.89	
2025-01-18 10:54:04.94	193.40	32.92	
2025-01-18 10:54:05.14	193.43	32.96	
2025-01-18 10:54:05.34	193.47	33.00	
2025-01-18 10:54:05.55	193.50	33.04	
2025-01-18 10:54:05.75	193.54	33.08	
2025-01-18 10:54:05.95	193.57	33.12	
2025-01-18 10:54:06.16	193.61	33.16	
2025-01-18 10:54:06.36	193.64	33.19	
2025-01-18 10:54:06.56	193.68	33.23	
2025-01-18 10:54:06.76	193.71	33.27	
2025-01-18 10:54:06.97	193.75	33.31	
2025-01-18 10:54:07.17	193.78	33.35	
2025-01-18 10:54:07.37	193.82	33.39	
2025-01-18 10:54:07.58	193.86	33.43	
2025-01-18 10:54:07.78	193.89	33.47	
2025-01-18 10:54:07.98	193.93	33.50	
2025-01-18 10:54:08.19	193.96	33.54	
2025-01-18 10:54:08.39	194.00	33.58	
2025-01-18 10:54:08.59	194.04	33.62	
2025-01-18 10:54:08.79	194.07	33.66	
2025-01-18 10:54:09.00	194.11	33.70	
2025-01-18 10:54:09.20	194.14	33.74	
2025-01-18 10:54:09.40	194.18	33.78	
2025-01-18 10:54:09.61	194.22	33.82	
2025-01-18 10:54:09.81	194.25	33.86	
2025-01-18 10:54:10.01	194.29	33.89	
2025-01-18 10:54:10.22	194.33	33.94	
2025-01-18 10:54:10.42	194.37	33.97	
2025-01-18 10:54:10.62	194.40	34.01	
2025-01-18 10:54:10.82	194.44	34.05	
2025-01-18 10:54:11.03	194.48	34.09	
2025-01-18 10:54:11.23	194.51	34.13	
2025-01-18 10:54:11.43	194.55	34.17	
2025-01-18 10:54:11.64	194.59	34.21	
2025-01-18 10:54:11.84	194.63	34.25	
2025-01-18 10:54:12.04	194.66	34.29	
2025-01-18 10:54:12.25	194.70	34.33	
2025-01-18 10:54:12.45	194.74	34.37	
2025-01-18 10:54:12.65	194.78	34.41	
2025-01-18 10:54:12.85	194.81	34.45	
2025-01-18 10:54:13.06	194.85	34.49	
2025-01-18 10:54:13.26	194.89	34.53	
2025-01-18 10:54:13.46	194.93	34.57	
2025-01-18 10:54:13.67	194.97	34.61	
2025-01-18 10:54:13.87	195.01	34.65	
2025-01-18 10:54:14.07	195.04	34.69	
2025-01-18 10:54:14.27	195.08	34.73	
2025-01-18 10:54:14.48	195.12	34.77	
2025-01-18 10:54:14.68	195.16	34.81	
2025-01-18 10:54:14.88	195.20	34.85	
2025-01-18 10:54:15.09	195.24	34.89	
2025-01-18 10:54:15.29	195.28	34.93	
2025-01-18 10:54:15.49	195.32	34.97	
2025-01-18 10:54:15.70	195.36	35.01	
2025-01-18 10:54:15.90	195.40	35.05	
2025-01-18 10:54:16.10	195.43	35.09	
2025-01-18 10:54:16.30	195.47	35.13	
2025-01-18 10:54:16.51	195.51	35.17	
2025-01-18 10:54:16.71	195.55	35.21	
2025-01-18 10:54:16.91	195.59	35.25	
2025-01-18 10:54:17.12	195.63	35.29	
2025-01-18 10:54:17.32	195.67	35.33	
2025-01-18 10:54:17.52	195.71	35.37	
2025-01-18 10:54:17.73	195.75	35.42	
2025-01-18 10:54:17.93	195.79	35.46	
2025-01-18 10:54:18.13	195.83	35.50	
2025-01-18 10:54:18.33	195.87	35.54	
2025-01-18 10:54:18.54	195.92	35.58	
2025-01-18 10:54:18.74	195.96	35.62	
2025-01-18 10:54:18.94	196.00	35.66	
2025-01-18 10:54:19.15	196.04	35.70	
2025-01-18 10:54:19.35	196.08	35.74	
2025-01-18 10:54:19.55	196.12	35.78	
2025-01-18 10:54:19.76	196.16	35.82	
2025-01-18 10:54:19.96	196.20	35.87	
2025-01-18 10:54:20.16	196.24	35.91	
2025-01-18 10:54:20.36	196.28	35.95	
2025-01-18 10:54:20.57	196.33	35.99	
2025-01-18 10:54:20.77	196.37	36.03	
2025-01-18 10:54:20.97	196.41	36.07	
2025-01-18 10:54:21.18	196.45	36.11	
2025-01-18 10:54:21.38	196.49	36.15	
2025-01-18 10:54:21.58	196.54	36.19	
2025-01-18 10:54:21.79	196.58	36.24	
2025-01-18 10:54:21.99	196.62	36.28	
2025-01-18 10:54:22.19	196.66	36.32	
2025-01-18 10:54:22.39	196.71	36.36	
2025-01-18 10:54:22.60	196.75	36.40	
2025-01-18 10:54:22.80	196.79	36.44	
2025-01-18 10:54:23.00	196.83	36.49	
2025-01-18 10:54:23.21	196.88	36.53	
2025-01-18 10:54:23.41	196.92	36.57	
2025-01-18 10:54:23.61	196.96	36.61	
2025-01-18 10:54:23.82	197.01	36.65	
2025-01-18 10:54:24.02	197.05	36.69	
2025-01-18 10:54:24.22	197.09	36.74	
2025-01-18 10:54:24.42	197.14	36.78	
2025-01-18 10:54:24.63	197.18	36.82	
2025-01-18 10:54:24.83	197.23	36.86	
2025-01-18 10:54:25.03	197.27	36.90	
2025-01-18 10:54:25.24	197.31	36.95	
2025-01-18 10:54:25.44	197.36	36.99	
2025-01-18 10:54:25.64	197.40	37.03	
2025-01-18 10:54:25.85	197.45	37.07	
2025-01-18 10:54:26.05	197.49	37.11	
2025-01-18 10:54:26.25	197.54	37.16	
2025-01-18 10:54:26.45	197.58	37.20	
2025-01-18 10:54:26.66	197.63	37.24	
2025-01-18 10:54:26.86	197.67	37.28	
2025-01-18 10:54:27.06	197.71	37.33	
2025-01-18 10:54:27.27	197.76	37.37	
2025-01-18 10:54:27.47	197.81	37.41	
2025-01-18 10:54:27.67	197.85	37.45	
2025-01-18 10:54:27.88	197.90	37.50	
2025-01-18 10:54:28.08	197.94	37.54	
2025-01-18 10:54:28.28	197.99	37.58	
2025-01-18 10:54:28.48	198.03	37.62	
2025-01-18 10:54:28.69	198.08	37.67	
2025-01-18 10:54:28.89	198.13	37.71	
2025-01-18 10:54:29.09	198.17	37.75	
2025-01-18 10:54:29.30	198.22	37.79	
2025-01-18 10:54:29.50	198.27	37.84	
2025-01-18 10:54:29.70	198.31	37.88	
2025-01-18 10:54:29.91	198.36	37.92	
2025-01-18 10:54:30.11	198.41	37.97	
2025-01-18 10:54:30.31	198.45	38.01	
2025-01-18 10:54:30.51	198.50	38.05	
2025-01-18 10:54:30.72	198.55	38.09	
2025-01-18 10:54:30.92	198.59	38.14	
2025-01-18 10:54:31.12	198.64	38.18	
2025-01-18 10:54:31.33	198.69	38.22	
2025-01-18 10:54:31.53	198.74	38.27	
2025-01-18 10:54:31.73	198.79	38.31	
2025-01-18 10:54:31.93	198.83	38.35	
2025-01-18 10:54:32.14	198.88	38.40	
2025-01-18 10:54:32.34	198.93	38.44	
2025-01-18 10:54:32.54	198.98	38.48	
2025-01-18 10:54:32.75	199.03	38.53	
2025-01-18 10:54:32.95	199.08	38.57	
2025-01-18 10:54:33.15	199.12	38.61	
2025-01-18 10:54:33.36	199.17	38.66	
2025-01-18 10:54:33.56	199.22	38.70	
2025-01-18 10:54:33.76	199.27	38.74	
2025-01-18 10:54:33.96	199.32	38.78	
2025-01-18 10:54:34.17	199.37	38.83	
2025-01-18 10:54:34.37	199.42	38.87	
2025-01-18 10:54:34.57	199.47	38.92	
2025-01-18 10:54:34.78	199.52	38.96	
2025-01-18 10:54:34.98	199.57	39.00	
2025-01-18 10:54:35.18	199.62	39.05	
2025-01-18 10:54:35.39	199.67	39.09	
2025-01-18 10:54:35.59	199.72	39.13	
2025-01-18 10:54:35.79	199.77	39.18	
2025-01-18 10:54:35.99	199.82	39.22	
2025-01-18 10:54:36.20	199.87	39.27	
2025-01-18 10:54:36.40	199.92	39.31	
2025-01-18 10:54:36.60	199.97	39.35	
2025-01-18 10:54:36.81	200.02	39.40	
2025-01-18 10:54:37.01	200.07	39.44	
2025-01-18 10:54:37.21	200.13	39.48	
2025-01-18 10:54:37.42	200.18	39.53	
2025-01-18 10:54:37.62	200.23	39.57	
2025-01-18 10:54:37.82	200.28	39.62	
2025-01-18 10:54:38.02	200.33	39.66	
2025-01-18 10:54:38.23	200.39	39.71	
2025-01-18 10:54:38.43	200.44	39.75	
2025-01-18 10:54:38.63	200.49	39.79	
2025-01-18 10:54:38.84	200.54	39.84	
2025-01-18 10:54:39.04	200.59	39.88	
2025-01-18 10:54:39.24	200.65	39.93	
2025-01-18 10:54:39.45	200.70	39.97	
2025-01-18 10:54:39.65	200.75	40.02	
2025-01-18 10:54:39.85	200.81	40.06	
2025-01-18 10:54:40.05	200.86	40.10	
2025-01-18 10:54:40.26	200.91	40.15	
2025-01-18 10:54:40.46	200.97	40.19	
2025-01-18 10:54:40.66	201.02	40.24	
2025-01-18 10:54:40.87	201.08	40.28	
2025-01-18 10:54:41.07	201.13	40.33	
2025-01-18 10:54:41.27	201.18	40.37	
2025-01-18 10:54:41.48	201.24	40.42	
2025-01-18 10:54:41.68	201.29	40.46	
2025-01-18 10:54:41.88	201.35	40.50	
2025-01-18 10:54:42.08	201.40	40.55	
2025-01-18 10:54:42.29	201.46	40.60	
2025-01-18 10:54:42.49	201.51	40.64	
2025-01-18 10:54:42.69	201.57	40.68	
2025-01-18 10:54:42.90	201.62	40.73	
2025-01-18 10:54:43.10	201.68	40.77	
2025-01-18 10:54:43.30	201.73	40.82	
2025-01-18 10:54:43.51	201.79	40.86	
2025-01-18 10:54:43.71	201.85	40.91	
2025-01-18 10:54:43.91	201.90	40.95	
2025-01-18 10:54:44.11	201.96	41.00	
2025-01-18 10:54:44.32	202.01	41.04	
2025-01-18 10:54:44.52	202.07	41.09	
2025-01-18 10:54:44.72	202.13	41.13	
2025-01-18 10:54:44.93	202.18	41.18	
2025-01-18 10:54:45.13	202.24	41.22	
2025-01-18 10:54:45.33	202.30	41.27	
2025-01-18 10:54:45.54	202.36	41.31	
2025-01-18 10:54:45.74	202.41	41.36	
2025-01-18 10:54:45.94	202.47	41.40	
2025-01-18 10:54:46.14	202.53	41.45	
2025-01-18 10:54:46.35	202.59	41.49	
2025-01-18 10:54:46.55	202.64	41.54	
2025-01-18 10:54:46.75	202.70	41.58	
2025-01-18 10:54:46.96	202.76	41.63	
2025-01-18 10:54:47.16	202.82	41.68	
2025-01-18 10:54:47.36	202.88	41.72	
2025-01-18 10:54:47.56	202.94	41.76	
2025-01-18 10:54:47.77	203.00	41.81	
2025-01-18 10:54:47.97	203.06	41.86	
2025-01-18 10:54:48.17	203.11	41.90	
2025-01-18 10:54:48.38	203.18	41.95	
2025-01-18 10:54:48.58	203.24	41.99	
2025-01-18 10:54:48.78	203.29	42.04	
2025-01-18 10:54:48.99	203.36	42.08	
2025-01-18 10:54:49.19	203.42	42.13	
2025-01-18 10:54:49.39	203.48	42.17	
2025-01-18 10:54:49.59	203.54	42.22	
2025-01-18 10:54:49.80	203.60	42.27	
2025-01-18 10:54:50.00	203.66	42.31	
2025-01-18 10:54:50.20	203.72	42.36	
2025-01-18 10:54:50.41	203.78	42.40	
2025-01-18 10:54:50.61	203.84	42.45	
2025-01-18 10:54:50.81	203.90	42.49	
2025-01-18 10:54:51.02	203.97	42.54	
2025-01-18 10:54:51.22	204.03	42.59	
2025-01-18 10:54:51.42	204.09	42.63	
2025-01-18 10:54:51.62	204.15	42.68	
2025-01-18 10:54:51.83	204.22	42.72	
2025-01-18 10:54:52.03	204.28	42.77	
2025-01-18 10:54:52.23	204.34	42.81	
2025-01-18 10:54:52.44	204.41	42.86	
2025-01-18 10:54:52.64	204.47	42.91	
2025-01-18 10:54:52.84	204.53	42.95	
2025-01-18 10:54:53.05	204.60	43.00	
2025-01-18 10:54:53.25	204.66	43.04	
2025-01-18 10:54:53.45	204.72	43.09	
2025-01-18 10:54:53.65	204.78	43.14	
2025-01-18 10:54:53.86	204.85	43.18	
2025-01-18 10:54:54.06	204.91	43.23	
2025-01-18 10:54:54.26	204.98	43.27	
2025-01-18 10:54:54.47	205.05	43.32	
2025-01-18 10:54:54.67	205.11	43.37	
2025-01-18 10:54:54.87	205.17	43.41	
2025-01-18 10:54:55.08	205.24	43.46	
2025-01-18 10:54:55.28	205.31	43.50	
2025-01-18 10:54:55.48	205.37	43.55	
2025-01-18 10:54:55.68	205.44	43.60	
2025-01-18 10:54:55.89	205.50	43.64	
2025-01-18 10:54:56.09	205.57	43.69	
2025-01-18 10:54:56.29	205.64	43.73	
2025-01-18 10:54:56.50	205.70	43.78	
2025-01-18 10:54:56.70	205.77	43.83	
2025-01-18 10:54:56.90	205.84	43.87	
2025-01-18 10:54:57.11	205.91	43.92	
2025-01-18 10:54:57.31	205.97	43.97	
2025-01-18 10:54:57.51	206.04	44.01	
2025-01-18 10:54:57.71	206.11	44.06	
2025-01-18 10:54:57.92	206.18	44.11	
2025-01-18 10:54:58.12	206.24	44.15	
2025-01-18 10:54:58.32	206.31	44.20	
2025-01-18 10:54:58.53	206.38	44.24	
2025-01-18 10:54:58.73	206.45	44.29	
2025-01-18 10:54:58.93	206.52	44.34	
2025-01-18 10:54:59.14	206.59	44.38	
2025-01-18 10:54:59.34	206.66	44.43	
2025-01-18 10:54:59.54	206.73	44.47	
2025-01-18 10:54:59.74	206.80	44.52	
2025-01-18 10:54:59.95	206.87	44.57	
2025-01-18 10:55:00.15	206.94	44.61	
2025-01-18 10:55:00.35	207.01	44.66	
2025-01-18 10:55:00.56	207.08	44.71	
2025-01-18 10:55:00.76	207.15	44.75	
2025-01-18 10:55:00.96	207.22	44.80	
2025-01-18 10:55:01.16	207.29	44.84	
2025-01-18 10:55:01.37	207.36	44.89	
2025-01-18 10:55:01.57	207.43	44.94	
2025-01-18 10:55:01.77	207.51	44.98	
2025-01-18 10:55:01.98	207.58	45.03	
2025-01-18 10:55:02.18	207.65	45.08	
2025-01-18 10:55:02.38	207.72	45.12	
2025-01-18 10:55:02.59	207.80	45.17	
2025-01-18 10:55:02.79	207.87	45.22	
2025-01-18 10:55:02.99	207.94	45.26	
2025-01-18 10:55:03.19	208.01	45.31	
2025-01-18 10:55:03.40	208.09	45.36	
2025-01-18 10:55:03.60	208.16	45.40	
2025-01-18 10:55:03.80	208.24	45.45	
2025-01-18 10:55:04.01	208.31	45.50	
2025-01-18 10:55:04.21	208.39	45.54	
2025-01-18 10:55:04.41	208.46	45.59	
2025-01-18 10:55:04.62	208.54	45.64	
2025-01-18 10:55:04.82	208.61	45.68	
2025-01-18 10:55:05.02	208.69	45.73	
2025-01-18 10:55:05.22	208.76	45.77	
2025-01-18 10:55:05.43	208.84	45.82	
2025-01-18 10:55:05.63	208.91	45.87	
2025-01-18 10:55:05.83	208.99	45.91	
2025-01-18 10:55:06.04	209.07	45.96	
2025-01-18 10:55:06.24	209.14	46.01	
2025-01-18 10:55:06.44	209.22	46.05	
2025-01-18 10:55:06.65	209.30	46.10	
2025-01-18 10:55:06.85	209.37	46.15	
2025-01-18 10:55:07.05	209.45	46.19	
2025-01-18 10:55:07.25	209.53	46.24	
2025-01-18 10:55:07.46	209.61	46.29	
2025-01-18 10:55:07.66	209.69	46.33	
2025-01-18 10:55:07.86	209.76	46.38	
2025-01-18 10:55:08.07	209.84	46.43	
2025-01-18 10:55:08.27	209.92	46.47	
2025-01-18 10:55:08.47	210.00	46.52	
2025-01-18 10:55:08.68	210.08	46.56	
2025-01-18 10:55:08.88	210.16	46.61	
2025-01-18 10:55:09.08	210.24	46.66	
2025-01-18 10:55:09.28	210.32	46.70	
2025-01-18 10:55:09.49	210.40	46.75	
2025-01-18 10:55:09.69	210.48	46.80	
2025-01-18 10:55:09.89	210.56	46.84	
2025-01-18 10:55:10.10	210.64	46.89	
2025-01-18 10:55:10.30	210.72	46.93	
2025-01-18 10:55:10.50	210.80	46.98	
2025-01-18 10:55:10.71	210.89	47.03	
2025-01-18 10:55:10.91	210.97	47.07	
2025-01-18 10:55:11.11	211.05	47.12	
2025-01-18 10:55:11.31	211.13	47.17	
2025-01-18 10:55:11.52	211.22	47.21	
2025-01-18 10:55:11.72	211.30	47.26	
2025-01-18 10:55:11.92	211.38	47.30	
2025-01-18 10:55:12.13	211.47	47.35	
2025-01-18 10:55:12.33	211.55	47.40	
2025-01-18 10:55:12.53	211.63	47.44	
2025-01-18 10:55:12.74	211.72	47.49	
2025-01-18 10:55:12.94	211.80	47.54	
2025-01-18 10:55:13.14	211.88	47.58	
2025-01-18 10:55:13.34	211.97	47.63	
2025-01-18 10:55:13.55	212.06	47.67	
2025-01-18 10:55:13.75	212.14	47.72	
2025-01-18 10:55:13.95	212.22	47.77	
2025-01-18 10:55:14.16	212.31	47.81	
2025-01-18 10:55:14.36	212.40	47.86	
2025-01-18 10:55:14.56	212.48	47.90	
2025-01-18 10:55:14.77	212.57	47.95	
2025-01-18 10:55:14.97	212.66	48.00	
