passes_logs/2025/01/18/SPB_Silybum_02/SPB_Silybum_02__20250118_193459_TERRA_rec.log

#Pass ID: 20250118_193459_TERRA
#Satellite: TERRA
#Configuration: TERRA
#Start time: 2025-01-18 19:34:59

#Version: 2.0.20230423
#Station: SPB_Silybum_02
#Location: 30.233357 lon 59.946436 lat
#TLE: 1 25994U 99068A   25017.80257355  .00000903  00000+0  19577-3 0  9994
#TLE: 2 25994  98.0211  80.7437 0003372  66.8373  47.3878 14.60400955334482

#Time	Az	El	Level	Level2	SNR	BER	Gain	Gain2
2025-01-18 19:35:01.61	195.25	4.17	
2025-01-18 19:35:01.82	195.26	4.18	
2025-01-18 19:35:02.02	195.27	4.20	
2025-01-18 19:35:02.22	195.28	4.21	
2025-01-18 19:35:02.43	195.30	4.23	
2025-01-18 19:35:02.63	195.31	4.24	
2025-01-18 19:35:02.83	195.32	4.25	
2025-01-18 19:35:03.03	195.34	4.27	
2025-01-18 19:35:03.24	195.35	4.28	
2025-01-18 19:35:03.44	195.36	4.29	
2025-01-18 19:35:03.64	195.38	4.31	
2025-01-18 19:35:03.85	195.39	4.32	
2025-01-18 19:35:04.05	195.40	4.33	
2025-01-18 19:35:04.25	195.42	4.35	
2025-01-18 19:35:04.46	195.43	4.36	
2025-01-18 19:35:04.66	195.44	4.38	
2025-01-18 19:35:04.86	195.46	4.39	
2025-01-18 19:35:05.06	195.47	4.40	
2025-01-18 19:35:05.27	195.48	4.42	
2025-01-18 19:35:05.47	195.50	4.43	
2025-01-18 19:35:05.67	195.51	4.44	
2025-01-18 19:35:05.88	195.52	4.46	
2025-01-18 19:35:06.08	195.54	4.47	
2025-01-18 19:35:06.28	195.55	4.48	
2025-01-18 19:35:06.49	195.56	4.50	
2025-01-18 19:35:06.69	195.58	4.51	
2025-01-18 19:35:06.89	195.59	4.53	
2025-01-18 19:35:07.10	195.61	4.54	
2025-01-18 19:35:07.30	195.62	4.55	
2025-01-18 19:35:07.50	195.63	4.57	
2025-01-18 19:35:07.70	195.65	4.58	
2025-01-18 19:35:07.91	195.66	4.60	
2025-01-18 19:35:08.11	195.67	4.61	
2025-01-18 19:35:08.31	195.69	4.62	
2025-01-18 19:35:08.52	195.70	4.64	
2025-01-18 19:35:08.72	195.71	4.65	
2025-01-18 19:35:08.92	195.73	4.66	
2025-01-18 19:35:09.13	195.74	4.68	
2025-01-18 19:35:09.33	195.75	4.69	
2025-01-18 19:35:09.53	195.77	4.71	
2025-01-18 19:35:09.74	195.78	4.72	
2025-01-18 19:35:09.94	195.80	4.73	
2025-01-18 19:35:10.14	195.81	4.75	
2025-01-18 19:35:10.34	195.82	4.76	
2025-01-18 19:35:10.55	195.84	4.77	
2025-01-18 19:35:10.75	195.85	4.79	
2025-01-18 19:35:10.95	195.86	4.80	
2025-01-18 19:35:11.16	195.88	4.82	
2025-01-18 19:35:11.36	195.89	4.83	
2025-01-18 19:35:11.56	195.91	4.84	
2025-01-18 19:35:11.77	195.92	4.86	
2025-01-18 19:35:11.97	195.93	4.87	
2025-01-18 19:35:12.17	195.95	4.89	
2025-01-18 19:35:12.38	195.96	4.90	
2025-01-18 19:35:12.58	195.97	4.91	
2025-01-18 19:35:12.78	195.99	4.93	
2025-01-18 19:35:12.98	196.00	4.94	
2025-01-18 19:35:13.19	196.02	4.96	
2025-01-18 19:35:13.39	196.03	4.97	
2025-01-18 19:35:13.59	196.04	4.98	
2025-01-18 19:35:13.80	196.06	5.00	
2025-01-18 19:35:14.00	196.07	5.01	
2025-01-18 19:35:14.20	196.09	5.03	
2025-01-18 19:35:14.41	196.10	5.04	
2025-01-18 19:35:14.61	196.11	5.05	
2025-01-18 19:35:14.81	196.13	5.07	
2025-01-18 19:35:15.02	196.14	5.08	
2025-01-18 19:35:15.22	196.16	5.10	
2025-01-18 19:35:15.42	196.17	5.11	
2025-01-18 19:35:15.62	196.18	5.12	
2025-01-18 19:35:15.83	196.20	5.14	
2025-01-18 19:35:16.03	196.21	5.15	
2025-01-18 19:35:16.23	196.23	5.17	
2025-01-18 19:35:16.44	196.24	5.18	
2025-01-18 19:35:16.64	196.25	5.19	
2025-01-18 19:35:16.84	196.27	5.21	
2025-01-18 19:35:17.05	196.28	5.22	
2025-01-18 19:35:17.25	196.30	5.24	
2025-01-18 19:35:17.45	196.31	5.25	
2025-01-18 19:35:17.65	196.33	5.26	
2025-01-18 19:35:17.86	196.34	5.28	
2025-01-18 19:35:18.06	196.35	5.29	
2025-01-18 19:35:18.26	196.37	5.31	
2025-01-18 19:35:18.47	196.38	5.32	
2025-01-18 19:35:18.67	196.40	5.34	
2025-01-18 19:35:18.87	196.41	5.35	
2025-01-18 19:35:19.08	196.43	5.36	
2025-01-18 19:35:19.28	196.44	5.38	
2025-01-18 19:35:19.48	196.45	5.39	
2025-01-18 19:35:19.69	196.47	5.41	
2025-01-18 19:35:19.89	196.48	5.42	
2025-01-18 19:35:20.09	196.50	5.43	
2025-01-18 19:35:20.29	196.51	5.45	
2025-01-18 19:35:20.50	196.53	5.46	
2025-01-18 19:35:20.70	196.54	5.48	
2025-01-18 19:35:20.90	196.55	5.49	
2025-01-18 19:35:21.11	196.57	5.51	
2025-01-18 19:35:21.31	196.58	5.52	
2025-01-18 19:35:21.51	196.60	5.53	
2025-01-18 19:35:21.72	196.61	5.55	
2025-01-18 19:35:21.92	196.63	5.56	
2025-01-18 19:35:22.12	196.64	5.58	
2025-01-18 19:35:22.33	196.66	5.59	
2025-01-18 19:35:22.53	196.67	5.61	
2025-01-18 19:35:22.73	196.69	5.62	
2025-01-18 19:35:22.93	196.70	5.63	
2025-01-18 19:35:23.14	196.72	5.65	
2025-01-18 19:35:23.34	196.73	5.66	
2025-01-18 19:35:23.54	196.74	5.68	
2025-01-18 19:35:23.75	196.76	5.69	
2025-01-18 19:35:23.95	196.77	5.71	
2025-01-18 19:35:24.15	196.79	5.72	
2025-01-18 19:35:24.36	196.80	5.74	
2025-01-18 19:35:24.56	196.82	5.75	
2025-01-18 19:35:24.76	196.83	5.76	
2025-01-18 19:35:24.97	196.85	5.78	
2025-01-18 19:35:25.17	196.86	5.79	
2025-01-18 19:35:25.37	196.88	5.81	
2025-01-18 19:35:25.57	196.89	5.82	
2025-01-18 19:35:25.78	196.91	5.84	
2025-01-18 19:35:25.98	196.92	5.85	
2025-01-18 19:35:26.18	196.94	5.86	
2025-01-18 19:35:26.39	196.95	5.88	
2025-01-18 19:35:26.59	196.97	5.89	
2025-01-18 19:35:26.79	196.98	5.91	
2025-01-18 19:35:27.00	197.00	5.92	
2025-01-18 19:35:27.20	197.01	5.94	
2025-01-18 19:35:27.40	197.03	5.95	
2025-01-18 19:35:27.61	197.04	5.97	
2025-01-18 19:35:27.81	197.06	5.98	
2025-01-18 19:35:28.01	197.07	5.99	
2025-01-18 19:35:28.21	197.08	6.01	
2025-01-18 19:35:28.42	197.10	6.02	
2025-01-18 19:35:28.62	197.12	6.04	
2025-01-18 19:35:28.82	197.13	6.05	
2025-01-18 19:35:29.03	197.15	6.07	
2025-01-18 19:35:29.23	197.16	6.08	
2025-01-18 19:35:29.43	197.18	6.10	
2025-01-18 19:35:29.64	197.19	6.11	
2025-01-18 19:35:29.84	197.21	6.13	
2025-01-18 19:35:30.04	197.22	6.14	
2025-01-18 19:35:30.25	197.24	6.15	
2025-01-18 19:35:30.45	197.25	6.17	
2025-01-18 19:35:30.65	197.27	6.18	
2025-01-18 19:35:30.85	197.28	6.20	
2025-01-18 19:35:31.06	197.30	6.21	
2025-01-18 19:35:31.26	197.31	6.23	
2025-01-18 19:35:31.46	197.33	6.24	
2025-01-18 19:35:31.67	197.34	6.26	
2025-01-18 19:35:31.87	197.36	6.27	
2025-01-18 19:35:32.07	197.37	6.29	
2025-01-18 19:35:32.28	197.39	6.30	
2025-01-18 19:35:32.48	197.40	6.32	
2025-01-18 19:35:32.68	197.42	6.33	
2025-01-18 19:35:32.89	197.43	6.35	
2025-01-18 19:35:33.09	197.45	6.36	
2025-01-18 19:35:33.29	197.46	6.37	
2025-01-18 19:35:33.49	197.48	6.39	
2025-01-18 19:35:33.70	197.50	6.40	
2025-01-18 19:35:33.90	197.51	6.42	
2025-01-18 19:35:34.10	197.53	6.43	
2025-01-18 19:35:34.31	197.54	6.45	
2025-01-18 19:35:34.51	197.56	6.46	
2025-01-18 19:35:34.71	197.57	6.48	
2025-01-18 19:35:34.92	197.59	6.49	
2025-01-18 19:35:35.12	197.60	6.51	
2025-01-18 19:35:35.32	197.62	6.52	
2025-01-18 19:35:35.52	197.63	6.54	
2025-01-18 19:35:35.73	197.65	6.55	
2025-01-18 19:35:35.93	197.67	6.57	
2025-01-18 19:35:36.13	197.68	6.58	
2025-01-18 19:35:36.34	197.70	6.60	
2025-01-18 19:35:36.54	197.71	6.61	
2025-01-18 19:35:36.74	197.73	6.62	
2025-01-18 19:35:36.95	197.74	6.64	
2025-01-18 19:35:37.15	197.76	6.65	
2025-01-18 19:35:37.35	197.78	6.67	
2025-01-18 19:35:37.56	197.79	6.68	
2025-01-18 19:35:37.76	197.81	6.70	
2025-01-18 19:35:37.96	197.82	6.71	
2025-01-18 19:35:38.16	197.84	6.73	
2025-01-18 19:35:38.37	197.85	6.74	
2025-01-18 19:35:38.57	197.87	6.76	
2025-01-18 19:35:38.77	197.89	6.77	
2025-01-18 19:35:38.98	197.90	6.79	
2025-01-18 19:35:39.18	197.92	6.80	
2025-01-18 19:35:39.38	197.93	6.82	
2025-01-18 19:35:39.59	197.95	6.83	
2025-01-18 19:35:39.79	197.97	6.85	
2025-01-18 19:35:39.99	197.98	6.86	
2025-01-18 19:35:40.20	198.00	6.88	
2025-01-18 19:35:40.40	198.01	6.89	
2025-01-18 19:35:40.60	198.03	6.91	
2025-01-18 19:35:40.80	198.05	6.92	
2025-01-18 19:35:41.01	198.06	6.94	
2025-01-18 19:35:41.21	198.08	6.95	
2025-01-18 19:35:41.41	198.09	6.97	
2025-01-18 19:35:41.62	198.11	6.98	
2025-01-18 19:35:41.82	198.13	7.00	
2025-01-18 19:35:42.02	198.14	7.01	
2025-01-18 19:35:42.23	198.16	7.03	
2025-01-18 19:35:42.43	198.17	7.04	
2025-01-18 19:35:42.63	198.19	7.06	
2025-01-18 19:35:42.84	198.21	7.07	
2025-01-18 19:35:43.04	198.22	7.09	
2025-01-18 19:35:43.24	198.24	7.10	
2025-01-18 19:35:43.44	198.25	7.12	
2025-01-18 19:35:43.65	198.27	7.13	
2025-01-18 19:35:43.85	198.29	7.15	
2025-01-18 19:35:44.05	198.30	7.16	
2025-01-18 19:35:44.26	198.32	7.18	
2025-01-18 19:35:44.46	198.34	7.19	
2025-01-18 19:35:44.66	198.35	7.21	
2025-01-18 19:35:44.87	198.37	7.22	
2025-01-18 19:35:45.07	198.39	7.24	
2025-01-18 19:35:45.27	198.40	7.25	
2025-01-18 19:35:45.48	198.42	7.27	
2025-01-18 19:35:45.68	198.43	7.29	
2025-01-18 19:35:45.88	198.45	7.30	
2025-01-18 19:35:46.08	198.47	7.32	
2025-01-18 19:35:46.29	198.48	7.33	
2025-01-18 19:35:46.49	198.50	7.35	
2025-01-18 19:35:46.69	198.52	7.36	
2025-01-18 19:35:46.90	198.53	7.38	
2025-01-18 19:35:47.10	198.55	7.39	
2025-01-18 19:35:47.30	198.57	7.41	
2025-01-18 19:35:47.51	198.58	7.42	
2025-01-18 19:35:47.71	198.60	7.44	
2025-01-18 19:35:47.91	198.62	7.45	
2025-01-18 19:35:48.12	198.63	7.47	
2025-01-18 19:35:48.32	198.65	7.48	
2025-01-18 19:35:48.52	198.67	7.50	
2025-01-18 19:35:48.72	198.68	7.51	
2025-01-18 19:35:48.93	198.70	7.53	
2025-01-18 19:35:49.13	198.72	7.54	
2025-01-18 19:35:49.33	198.73	7.56	
2025-01-18 19:35:49.54	198.75	7.58	
2025-01-18 19:35:49.74	198.77	7.59	
2025-01-18 19:35:49.94	198.78	7.61	
2025-01-18 19:35:50.15	198.80	7.62	
2025-01-18 19:35:50.35	198.82	7.64	
2025-01-18 19:35:50.55	198.83	7.65	
2025-01-18 19:35:50.75	198.85	7.67	
2025-01-18 19:35:50.96	198.87	7.68	
2025-01-18 19:35:51.16	198.88	7.70	
2025-01-18 19:35:51.36	198.90	7.71	
2025-01-18 19:35:51.57	198.92	7.73	
2025-01-18 19:35:51.77	198.94	7.74	
2025-01-18 19:35:51.97	198.95	7.76	
2025-01-18 19:35:52.18	198.97	7.78	
2025-01-18 19:35:52.38	198.99	7.79	
2025-01-18 19:35:52.58	199.00	7.81	
2025-01-18 19:35:52.79	199.02	7.82	
2025-01-18 19:35:52.99	199.04	7.84	
2025-01-18 19:35:53.19	199.05	7.85	
2025-01-18 19:35:53.39	199.07	7.87	
2025-01-18 19:35:53.60	199.09	7.88	
2025-01-18 19:35:53.80	199.11	7.90	
2025-01-18 19:35:54.00	199.12	7.91	
2025-01-18 19:35:54.21	199.14	7.93	
2025-01-18 19:35:54.41	199.16	7.95	
2025-01-18 19:35:54.61	199.17	7.96	
2025-01-18 19:35:54.82	199.19	7.98	
2025-01-18 19:35:55.02	199.21	7.99	
2025-01-18 19:35:55.22	199.23	8.01	
2025-01-18 19:35:55.43	199.24	8.02	
2025-01-18 19:35:55.63	199.26	8.04	
2025-01-18 19:35:55.83	199.28	8.05	
2025-01-18 19:35:56.03	199.30	8.07	
2025-01-18 19:35:56.24	199.31	8.09	
2025-01-18 19:35:56.44	199.33	8.10	
2025-01-18 19:35:56.64	199.35	8.12	
2025-01-18 19:35:56.85	199.37	8.13	
2025-01-18 19:35:57.05	199.38	8.15	
2025-01-18 19:35:57.25	199.40	8.16	
2025-01-18 19:35:57.46	199.42	8.18	
2025-01-18 19:35:57.66	199.44	8.20	
2025-01-18 19:35:57.86	199.45	8.21	
2025-01-18 19:35:58.07	199.47	8.23	
2025-01-18 19:35:58.27	199.49	8.24	
2025-01-18 19:35:58.47	199.51	8.26	
2025-01-18 19:35:58.67	199.52	8.27	
2025-01-18 19:35:58.88	199.54	8.29	
2025-01-18 19:35:59.08	199.56	8.31	
2025-01-18 19:35:59.28	199.58	8.32	
2025-01-18 19:35:59.49	199.59	8.34	
2025-01-18 19:35:59.69	199.61	8.35	
2025-01-18 19:35:59.89	199.63	8.37	
2025-01-18 19:36:00.10	199.65	8.38	
2025-01-18 19:36:00.30	199.66	8.40	
2025-01-18 19:36:00.50	199.68	8.42	
2025-01-18 19:36:00.71	199.70	8.43	
2025-01-18 19:36:00.91	199.72	8.45	
2025-01-18 19:36:01.11	199.74	8.46	
2025-01-18 19:36:01.31	199.75	8.48	
2025-01-18 19:36:01.52	199.77	8.49	
2025-01-18 19:36:01.72	199.79	8.51	
2025-01-18 19:36:01.92	199.81	8.53	
2025-01-18 19:36:02.13	199.83	8.54	
2025-01-18 19:36:02.33	199.84	8.56	
2025-01-18 19:36:02.53	199.86	8.57	
2025-01-18 19:36:02.74	199.88	8.59	
2025-01-18 19:36:02.94	199.90	8.61	
2025-01-18 19:36:03.14	199.92	8.62	
2025-01-18 19:36:03.35	199.93	8.64	
2025-01-18 19:36:03.55	199.95	8.65	
2025-01-18 19:36:03.75	199.97	8.67	
2025-01-18 19:36:03.95	199.99	8.69	
2025-01-18 19:36:04.16	200.01	8.70	
2025-01-18 19:36:04.36	200.02	8.72	
2025-01-18 19:36:04.56	200.04	8.73	
2025-01-18 19:36:04.77	200.06	8.75	
2025-01-18 19:36:04.97	200.08	8.77	
2025-01-18 19:36:05.17	200.10	8.78	
2025-01-18 19:36:05.38	200.12	8.80	
2025-01-18 19:36:05.58	200.13	8.81	
2025-01-18 19:36:05.78	200.15	8.83	
2025-01-18 19:36:05.98	200.17	8.85	
2025-01-18 19:36:06.19	200.19	8.86	
2025-01-18 19:36:06.39	200.21	8.88	
2025-01-18 19:36:06.59	200.23	8.89	
2025-01-18 19:36:06.80	200.24	8.91	
2025-01-18 19:36:07.00	200.26	8.93	
2025-01-18 19:36:07.20	200.28	8.94	
2025-01-18 19:36:07.41	200.30	8.96	
2025-01-18 19:36:07.61	200.32	8.97	
2025-01-18 19:36:07.81	200.34	8.99	
2025-01-18 19:36:08.02	200.36	9.01	
2025-01-18 19:36:08.22	200.37	9.02	
2025-01-18 19:36:08.42	200.39	9.04	
2025-01-18 19:36:08.62	200.41	9.05	
2025-01-18 19:36:08.83	200.43	9.07	
2025-01-18 19:36:09.03	200.45	9.09	
2025-01-18 19:36:09.23	200.47	9.10	
2025-01-18 19:36:09.44	200.49	9.12	
2025-01-18 19:36:09.64	200.50	9.14	
2025-01-18 19:36:09.84	200.52	9.15	
2025-01-18 19:36:10.05	200.54	9.17	
2025-01-18 19:36:10.25	200.56	9.18	
2025-01-18 19:36:10.45	200.58	9.20	
2025-01-18 19:36:10.66	200.60	9.22	
2025-01-18 19:36:10.86	200.62	9.23	
2025-01-18 19:36:11.06	200.64	9.25	
2025-01-18 19:36:11.26	200.65	9.27	
2025-01-18 19:36:11.47	200.67	9.28	
2025-01-18 19:36:11.67	200.69	9.30	
2025-01-18 19:36:11.87	200.71	9.31	
2025-01-18 19:36:12.08	200.73	9.33	
2025-01-18 19:36:12.28	200.75	9.35	
2025-01-18 19:36:12.48	200.77	9.36	
2025-01-18 19:36:12.69	200.79	9.38	
2025-01-18 19:36:12.89	200.81	9.40	
2025-01-18 19:36:13.09	200.83	9.41	
2025-01-18 19:36:13.30	200.85	9.43	
2025-01-18 19:36:13.50	200.86	9.45	
2025-01-18 19:36:13.70	200.88	9.46	
2025-01-18 19:36:13.90	200.90	9.48	
2025-01-18 19:36:14.11	200.92	9.49	
2025-01-18 19:36:14.31	200.94	9.51	
2025-01-18 19:36:14.51	200.96	9.53	
2025-01-18 19:36:14.72	200.98	9.54	
2025-01-18 19:36:14.92	201.00	9.56	
2025-01-18 19:36:15.12	201.02	9.58	
2025-01-18 19:36:15.33	201.04	9.59	
2025-01-18 19:36:15.53	201.06	9.61	
2025-01-18 19:36:15.73	201.08	9.63	
2025-01-18 19:36:15.94	201.10	9.64	
2025-01-18 19:36:16.14	201.11	9.66	
2025-01-18 19:36:16.34	201.13	9.68	
2025-01-18 19:36:16.54	201.15	9.69	
2025-01-18 19:36:16.75	201.17	9.71	
2025-01-18 19:36:16.95	201.19	9.73	
2025-01-18 19:36:17.15	201.21	9.74	
2025-01-18 19:36:17.36	201.23	9.76	
2025-01-18 19:36:17.56	201.25	9.78	
2025-01-18 19:36:17.76	201.27	9.79	
2025-01-18 19:36:17.97	201.29	9.81	
2025-01-18 19:36:18.17	201.31	9.83	
2025-01-18 19:36:18.37	201.33	9.84	
2025-01-18 19:36:18.58	201.35	9.86	
2025-01-18 19:36:18.78	201.37	9.87	
2025-01-18 19:36:18.98	201.39	9.89	
2025-01-18 19:36:19.18	201.41	9.91	
2025-01-18 19:36:19.39	201.43	9.93	
2025-01-18 19:36:19.59	201.45	9.94	
2025-01-18 19:36:19.79	201.47	9.96	
2025-01-18 19:36:20.00	201.49	9.98	
2025-01-18 19:36:20.20	201.51	9.99	
2025-01-18 19:36:20.40	201.53	10.01	
2025-01-18 19:36:20.61	201.55	10.03	
2025-01-18 19:36:20.81	201.57	10.04	
2025-01-18 19:36:21.01	201.59	10.06	
2025-01-18 19:36:21.21	201.61	10.07	
2025-01-18 19:36:21.42	201.63	10.09	
2025-01-18 19:36:21.62	201.65	10.11	
2025-01-18 19:36:21.82	201.67	10.13	
2025-01-18 19:36:22.03	201.69	10.14	
2025-01-18 19:36:22.23	201.71	10.16	
2025-01-18 19:36:22.43	201.73	10.18	
2025-01-18 19:36:22.64	201.75	10.19	
2025-01-18 19:36:22.84	201.77	10.21	
2025-01-18 19:36:23.04	201.79	10.23	
2025-01-18 19:36:23.25	201.81	10.24	
2025-01-18 19:36:23.45	201.83	10.26	
2025-01-18 19:36:23.65	201.85	10.28	
2025-01-18 19:36:23.85	201.87	10.29	
2025-01-18 19:36:24.06	201.89	10.31	
2025-01-18 19:36:24.26	201.91	10.33	
2025-01-18 19:36:24.46	201.93	10.34	
2025-01-18 19:36:24.67	201.95	10.36	
2025-01-18 19:36:24.87	201.97	10.38	
2025-01-18 19:36:25.07	201.99	10.40	
2025-01-18 19:36:25.28	202.01	10.41	
2025-01-18 19:36:25.48	202.03	10.43	
2025-01-18 19:36:25.68	202.05	10.45	
2025-01-18 19:36:25.89	202.08	10.46	
2025-01-18 19:36:26.09	202.10	10.48	
2025-01-18 19:36:26.29	202.12	10.50	
2025-01-18 19:36:26.49	202.14	10.51	
2025-01-18 19:36:26.70	202.16	10.53	
2025-01-18 19:36:26.90	202.18	10.55	
2025-01-18 19:36:27.10	202.20	10.56	
2025-01-18 19:36:27.31	202.22	10.58	
2025-01-18 19:36:27.51	202.24	10.60	
2025-01-18 19:36:27.71	202.26	10.62	
2025-01-18 19:36:27.92	202.28	10.63	
2025-01-18 19:36:28.12	202.30	10.65	
2025-01-18 19:36:28.32	202.32	10.67	
2025-01-18 19:36:28.53	202.35	10.69	
2025-01-18 19:36:28.73	202.37	10.70	
2025-01-18 19:36:28.93	202.39	10.72	
2025-01-18 19:36:29.13	202.41	10.74	
2025-01-18 19:36:29.34	202.43	10.75	
2025-01-18 19:36:29.54	202.45	10.77	
2025-01-18 19:36:29.74	202.47	10.79	
2025-01-18 19:36:29.95	202.49	10.81	
2025-01-18 19:36:30.15	202.51	10.82	
2025-01-18 19:36:30.35	202.53	10.84	
2025-01-18 19:36:30.56	202.56	10.86	
2025-01-18 19:36:30.76	202.58	10.87	
2025-01-18 19:36:30.96	202.60	10.89	
2025-01-18 19:36:31.17	202.62	10.91	
2025-01-18 19:36:31.37	202.64	10.93	
2025-01-18 19:36:31.57	202.66	10.94	
2025-01-18 19:36:31.77	202.68	10.96	
2025-01-18 19:36:31.98	202.70	10.98	
2025-01-18 19:36:32.18	202.73	10.99	
2025-01-18 19:36:32.38	202.75	11.01	
2025-01-18 19:36:32.59	202.77	11.03	
2025-01-18 19:36:32.79	202.79	11.05	
2025-01-18 19:36:32.99	202.81	11.06	
2025-01-18 19:36:33.20	202.83	11.08	
2025-01-18 19:36:33.40	202.85	11.10	
2025-01-18 19:36:33.60	202.88	11.12	
2025-01-18 19:36:33.80	202.90	11.13	
2025-01-18 19:36:34.01	202.92	11.15	
2025-01-18 19:36:34.21	202.94	11.17	
2025-01-18 19:36:34.41	202.96	11.18	
2025-01-18 19:36:34.62	202.98	11.20	
2025-01-18 19:36:34.82	203.01	11.22	
2025-01-18 19:36:35.02	203.03	11.24	
2025-01-18 19:36:35.23	203.05	11.26	
2025-01-18 19:36:35.43	203.07	11.27	
2025-01-18 19:36:35.63	203.09	11.29	
2025-01-18 19:36:35.84	203.11	11.31	
2025-01-18 19:36:36.04	203.14	11.33	
2025-01-18 19:36:36.24	203.16	11.34	
2025-01-18 19:36:36.45	203.18	11.36	
2025-01-18 19:36:36.65	203.20	11.38	
2025-01-18 19:36:36.85	203.22	11.39	
2025-01-18 19:36:37.05	203.25	11.41	
2025-01-18 19:36:37.26	203.27	11.43	
2025-01-18 19:36:37.46	203.29	11.45	
2025-01-18 19:36:37.66	203.31	11.46	
2025-01-18 19:36:37.87	203.33	11.48	
2025-01-18 19:36:38.07	203.36	11.50	
2025-01-18 19:36:38.27	203.38	11.52	
2025-01-18 19:36:38.48	203.40	11.54	
2025-01-18 19:36:38.68	203.42	11.55	
2025-01-18 19:36:38.88	203.44	11.57	
2025-01-18 19:36:39.08	203.47	11.59	
2025-01-18 19:36:39.29	203.49	11.61	
2025-01-18 19:36:39.49	203.51	11.62	
2025-01-18 19:36:39.69	203.53	11.64	
2025-01-18 19:36:39.90	203.56	11.66	
2025-01-18 19:36:40.10	203.58	11.68	
2025-01-18 19:36:40.30	203.60	11.69	
2025-01-18 19:36:40.51	203.62	11.71	
2025-01-18 19:36:40.71	203.65	11.73	
2025-01-18 19:36:40.91	203.67	11.75	
2025-01-18 19:36:41.12	203.69	11.77	
2025-01-18 19:36:41.32	203.71	11.78	
2025-01-18 19:36:41.52	203.74	11.80	
2025-01-18 19:36:41.72	203.76	11.82	
2025-01-18 19:36:41.93	203.78	11.84	
2025-01-18 19:36:42.13	203.80	11.85	
2025-01-18 19:36:42.33	203.83	11.87	
2025-01-18 19:36:42.54	203.85	11.89	
2025-01-18 19:36:42.74	203.87	11.91	
2025-01-18 19:36:42.94	203.90	11.93	
2025-01-18 19:36:43.15	203.92	11.94	
2025-01-18 19:36:43.35	203.94	11.96	
2025-01-18 19:36:43.55	203.96	11.98	
2025-01-18 19:36:43.76	203.99	12.00	
2025-01-18 19:36:43.96	204.01	12.02	
2025-01-18 19:36:44.16	204.03	12.03	
2025-01-18 19:36:44.36	204.06	12.05	
2025-01-18 19:36:44.57	204.08	12.07	
2025-01-18 19:36:44.77	204.10	12.09	
2025-01-18 19:36:44.97	204.12	12.10	
2025-01-18 19:36:45.18	204.15	12.12	
2025-01-18 19:36:45.38	204.17	12.14	
2025-01-18 19:36:45.58	204.19	12.16	
2025-01-18 19:36:45.79	204.22	12.18	
2025-01-18 19:36:45.99	204.24	12.19	
2025-01-18 19:36:46.19	204.26	12.21	
2025-01-18 19:36:46.40	204.29	12.23	
2025-01-18 19:36:46.60	204.31	12.25	
2025-01-18 19:36:46.80	204.33	12.27	
2025-01-18 19:36:47.00	204.36	12.28	
2025-01-18 19:36:47.21	204.38	12.30	
2025-01-18 19:36:47.41	204.40	12.32	
2025-01-18 19:36:47.61	204.43	12.34	
2025-01-18 19:36:47.82	204.45	12.36	
2025-01-18 19:36:48.02	204.48	12.38	
2025-01-18 19:36:48.22	204.50	12.39	
2025-01-18 19:36:48.43	204.52	12.41	
2025-01-18 19:36:48.63	204.55	12.43	
2025-01-18 19:36:48.83	204.57	12.45	
2025-01-18 19:36:49.04	204.59	12.47	
2025-01-18 19:36:49.24	204.62	12.48	
2025-01-18 19:36:49.44	204.64	12.50	
2025-01-18 19:36:49.64	204.66	12.52	
2025-01-18 19:36:49.85	204.69	12.54	
2025-01-18 19:36:50.05	204.71	12.56	
2025-01-18 19:36:50.25	204.74	12.58	
2025-01-18 19:36:50.46	204.76	12.59	
2025-01-18 19:36:50.66	204.78	12.61	
2025-01-18 19:36:50.86	204.81	12.63	
2025-01-18 19:36:51.07	204.83	12.65	
2025-01-18 19:36:51.27	204.86	12.67	
2025-01-18 19:36:51.47	204.88	12.68	
2025-01-18 19:36:51.68	204.90	12.70	
2025-01-18 19:36:51.88	204.93	12.72	
2025-01-18 19:36:52.08	204.95	12.74	
2025-01-18 19:36:52.28	204.98	12.76	
2025-01-18 19:36:52.49	205.00	12.78	
2025-01-18 19:36:52.69	205.03	12.79	
2025-01-18 19:36:52.89	205.05	12.81	
2025-01-18 19:36:53.10	205.07	12.83	
2025-01-18 19:36:53.30	205.10	12.85	
2025-01-18 19:36:53.50	205.12	12.87	
2025-01-18 19:36:53.71	205.15	12.89	
2025-01-18 19:36:53.91	205.17	12.91	
2025-01-18 19:36:54.11	205.20	12.92	
2025-01-18 19:36:54.31	205.22	12.94	
2025-01-18 19:36:54.52	205.25	12.96	
2025-01-18 19:36:54.72	205.27	12.98	
2025-01-18 19:36:54.92	205.29	13.00	
2025-01-18 19:36:55.13	205.32	13.02	
2025-01-18 19:36:55.33	205.34	13.03	
2025-01-18 19:36:55.53	205.37	13.05	
2025-01-18 19:36:55.74	205.39	13.07	
2025-01-18 19:36:55.94	205.42	13.09	
2025-01-18 19:36:56.14	205.44	13.11	
2025-01-18 19:36:56.35	205.47	13.13	
2025-01-18 19:36:56.55	205.49	13.15	
2025-01-18 19:36:56.75	205.52	13.16	
2025-01-18 19:36:56.95	205.54	13.18	
2025-01-18 19:36:57.16	205.57	13.20	
2025-01-18 19:36:57.36	205.59	13.22	
2025-01-18 19:36:57.56	205.62	13.24	
2025-01-18 19:36:57.77	205.64	13.26	
2025-01-18 19:36:57.97	205.67	13.28	
2025-01-18 19:36:58.17	205.69	13.29	
2025-01-18 19:36:58.38	205.72	13.31	
2025-01-18 19:36:58.58	205.74	13.33	
2025-01-18 19:36:58.78	205.77	13.35	
2025-01-18 19:36:58.99	205.79	13.37	
2025-01-18 19:36:59.19	205.82	13.39	
2025-01-18 19:36:59.39	205.84	13.41	
2025-01-18 19:36:59.59	205.87	13.43	
2025-01-18 19:36:59.80	205.89	13.44	
2025-01-18 19:37:00.00	205.92	13.46	
2025-01-18 19:37:00.20	205.94	13.48	
2025-01-18 19:37:00.41	205.97	13.50	
2025-01-18 19:37:00.61	206.00	13.52	
2025-01-18 19:37:00.81	206.02	13.54	
2025-01-18 19:37:01.02	206.05	13.56	
2025-01-18 19:37:01.22	206.07	13.58	
2025-01-18 19:37:01.42	206.10	13.60	
2025-01-18 19:37:01.63	206.12	13.61	
2025-01-18 19:37:01.83	206.15	13.63	
2025-01-18 19:37:02.03	206.18	13.65	
2025-01-18 19:37:02.23	206.20	13.67	
2025-01-18 19:37:02.44	206.23	13.69	
2025-01-18 19:37:02.64	206.25	13.71	
2025-01-18 19:37:02.84	206.28	13.73	
2025-01-18 19:37:03.05	206.30	13.75	
2025-01-18 19:37:03.25	206.33	13.77	
2025-01-18 19:37:03.45	206.36	13.78	
2025-01-18 19:37:03.66	206.38	13.80	
2025-01-18 19:37:03.86	206.41	13.82	
2025-01-18 19:37:04.06	206.43	13.84	
2025-01-18 19:37:04.27	206.46	13.86	
2025-01-18 19:37:04.47	206.49	13.88	
2025-01-18 19:37:04.67	206.51	13.90	
2025-01-18 19:37:04.87	206.54	13.92	
2025-01-18 19:37:05.08	206.57	13.94	
2025-01-18 19:37:05.28	206.59	13.96	
2025-01-18 19:37:05.48	206.62	13.97	
2025-01-18 19:37:05.69	206.64	13.99	
2025-01-18 19:37:05.89	206.67	14.01	
2025-01-18 19:37:06.09	206.70	14.03	
2025-01-18 19:37:06.30	206.72	14.05	
2025-01-18 19:37:06.50	206.75	14.07	
2025-01-18 19:37:06.70	206.78	14.09	
2025-01-18 19:37:06.91	206.80	14.11	
2025-01-18 19:37:07.11	206.83	14.13	
2025-01-18 19:37:07.31	206.86	14.15	
2025-01-18 19:37:07.51	206.88	14.17	
2025-01-18 19:37:07.72	206.91	14.19	
2025-01-18 19:37:07.92	206.94	14.20	
2025-01-18 19:37:08.12	206.96	14.22	
2025-01-18 19:37:08.33	206.99	14.24	
2025-01-18 19:37:08.53	207.02	14.26	
2025-01-18 19:37:08.73	207.04	14.28	
2025-01-18 19:37:08.94	207.07	14.30	
2025-01-18 19:37:09.14	207.10	14.32	
2025-01-18 19:37:09.34	207.12	14.34	
2025-01-18 19:37:09.54	207.15	14.36	
2025-01-18 19:37:09.75	207.18	14.38	
2025-01-18 19:37:09.95	207.21	14.40	
2025-01-18 19:37:10.15	207.23	14.42	
2025-01-18 19:37:10.36	207.26	14.44	
2025-01-18 19:37:10.56	207.29	14.45	
2025-01-18 19:37:10.76	207.31	14.47	
2025-01-18 19:37:10.97	207.34	14.49	
2025-01-18 19:37:11.17	207.37	14.51	
2025-01-18 19:37:11.37	207.40	14.53	
2025-01-18 19:37:11.58	207.43	14.55	
2025-01-18 19:37:11.78	207.45	14.57	
2025-01-18 19:37:11.98	207.48	14.59	
2025-01-18 19:37:12.18	207.51	14.61	
2025-01-18 19:37:12.39	207.53	14.63	
2025-01-18 19:37:12.59	207.56	14.65	
2025-01-18 19:37:12.79	207.59	14.67	
2025-01-18 19:37:13.00	207.62	14.69	
2025-01-18 19:37:13.20	207.65	14.71	
2025-01-18 19:37:13.40	207.67	14.73	
2025-01-18 19:37:13.61	207.70	14.75	
2025-01-18 19:37:13.81	207.73	14.77	
2025-01-18 19:37:14.01	207.76	14.79	
2025-01-18 19:37:14.22	207.78	14.81	
2025-01-18 19:37:14.42	207.81	14.82	
2025-01-18 19:37:14.62	207.84	14.84	
2025-01-18 19:37:14.82	207.87	14.86	
2025-01-18 19:37:15.03	207.90	14.88	
2025-01-18 19:37:15.23	207.92	14.90	
2025-01-18 19:37:15.43	207.95	14.92	
2025-01-18 19:37:15.64	207.98	14.94	
2025-01-18 19:37:15.84	208.01	14.96	
2025-01-18 19:37:16.04	208.04	14.98	
2025-01-18 19:37:16.25	208.07	15.00	
2025-01-18 19:37:16.45	208.09	15.02	
2025-01-18 19:37:16.65	208.12	15.04	
2025-01-18 19:37:16.86	208.15	15.06	
2025-01-18 19:37:17.06	208.18	15.08	
2025-01-18 19:37:17.26	208.21	15.10	
2025-01-18 19:37:17.46	208.24	15.12	
2025-01-18 19:37:17.67	208.26	15.14	
2025-01-18 19:37:17.87	208.29	15.16	
2025-01-18 19:37:18.07	208.32	15.18	
2025-01-18 19:37:18.28	208.35	15.20	
2025-01-18 19:37:18.48	208.38	15.22	
2025-01-18 19:37:18.68	208.41	15.24	
2025-01-18 19:37:18.89	208.44	15.26	
2025-01-18 19:37:19.09	208.47	15.28	
2025-01-18 19:37:19.29	208.49	15.30	
2025-01-18 19:37:19.50	208.52	15.32	
2025-01-18 19:37:19.70	208.55	15.34	
2025-01-18 19:37:19.90	208.58	15.36	
2025-01-18 19:37:20.10	208.61	15.38	
2025-01-18 19:37:20.31	208.64	15.40	
2025-01-18 19:37:20.51	208.67	15.42	
2025-01-18 19:37:20.71	208.70	15.44	
2025-01-18 19:37:20.92	208.73	15.46	
2025-01-18 19:37:21.12	208.76	15.48	
2025-01-18 19:37:21.32	208.78	15.50	
2025-01-18 19:37:21.53	208.81	15.52	
2025-01-18 19:37:21.73	208.84	15.54	
2025-01-18 19:37:21.93	208.87	15.56	
2025-01-18 19:37:22.14	208.90	15.58	
2025-01-18 19:37:22.34	208.93	15.60	
2025-01-18 19:37:22.54	208.96	15.62	
2025-01-18 19:37:22.74	208.99	15.64	
2025-01-18 19:37:22.95	209.02	15.66	
2025-01-18 19:37:23.15	209.05	15.68	
2025-01-18 19:37:23.35	209.08	15.70	
2025-01-18 19:37:23.56	209.11	15.72	
2025-01-18 19:37:23.76	209.14	15.74	
2025-01-18 19:37:23.96	209.17	15.76	
2025-01-18 19:37:24.17	209.20	15.78	
2025-01-18 19:37:24.37	209.23	15.80	
2025-01-18 19:37:24.57	209.26	15.82	
2025-01-18 19:37:24.77	209.29	15.84	
2025-01-18 19:37:24.98	209.32	15.86	
2025-01-18 19:37:25.18	209.35	15.88	
2025-01-18 19:37:25.38	209.38	15.90	
2025-01-18 19:37:25.59	209.41	15.92	
2025-01-18 19:37:25.79	209.44	15.94	
2025-01-18 19:37:25.99	209.47	15.96	
2025-01-18 19:37:26.20	209.50	15.98	
2025-01-18 19:37:26.40	209.53	16.00	
2025-01-18 19:37:26.60	209.56	16.02	
2025-01-18 19:37:26.81	209.59	16.04	
2025-01-18 19:37:27.01	209.62	16.06	
2025-01-18 19:37:27.21	209.65	16.08	
2025-01-18 19:37:27.41	209.68	16.10	
2025-01-18 19:37:27.62	209.71	16.12	
2025-01-18 19:37:27.82	209.74	16.14	
2025-01-18 19:37:28.02	209.77	16.16	
2025-01-18 19:37:28.23	209.80	16.18	
2025-01-18 19:37:28.43	209.84	16.20	
2025-01-18 19:37:28.63	209.87	16.22	
2025-01-18 19:37:28.84	209.90	16.24	
2025-01-18 19:37:29.04	209.93	16.26	
2025-01-18 19:37:29.24	209.96	16.28	
2025-01-18 19:37:29.45	209.99	16.30	
2025-01-18 19:37:29.65	210.02	16.33	
2025-01-18 19:37:29.85	210.05	16.35	
2025-01-18 19:37:30.05	210.08	16.37	
2025-01-18 19:37:30.26	210.11	16.39	
2025-01-18 19:37:30.46	210.14	16.41	
2025-01-18 19:37:30.66	210.18	16.43	
2025-01-18 19:37:30.87	210.21	16.45	
2025-01-18 19:37:31.07	210.24	16.47	
2025-01-18 19:37:31.27	210.27	16.49	
2025-01-18 19:37:31.48	210.30	16.51	
2025-01-18 19:37:31.68	210.33	16.53	
2025-01-18 19:37:31.88	210.36	16.55	
2025-01-18 19:37:32.09	210.40	16.57	
2025-01-18 19:37:32.29	210.43	16.59	
2025-01-18 19:37:32.49	210.46	16.61	
2025-01-18 19:37:32.69	210.49	16.63	
2025-01-18 19:37:32.90	210.52	16.65	
2025-01-18 19:37:33.10	210.55	16.67	
2025-01-18 19:37:33.30	210.58	16.69	
2025-01-18 19:37:33.51	210.62	16.72	
2025-01-18 19:37:33.71	210.65	16.74	
2025-01-18 19:37:33.91	210.68	16.76	
2025-01-18 19:37:34.12	210.71	16.78	
2025-01-18 19:37:34.32	210.75	16.80	
2025-01-18 19:37:34.52	210.78	16.82	
2025-01-18 19:37:34.73	210.81	16.84	
2025-01-18 19:37:34.93	210.84	16.86	
2025-01-18 19:37:35.13	210.87	16.88	
2025-01-18 19:37:35.33	210.91	16.90	
2025-01-18 19:37:35.54	210.94	16.92	
2025-01-18 19:37:35.74	210.97	16.94	
2025-01-18 19:37:35.94	211.00	16.96	
2025-01-18 19:37:36.15	211.04	16.98	
2025-01-18 19:37:36.35	211.07	17.01	
2025-01-18 19:37:36.55	211.10	17.03	
2025-01-18 19:37:36.76	211.13	17.05	
2025-01-18 19:37:36.96	211.17	17.07	
2025-01-18 19:37:37.16	211.20	17.09	
2025-01-18 19:37:37.36	211.23	17.11	
2025-01-18 19:37:37.57	211.26	17.13	
2025-01-18 19:37:37.77	211.30	17.15	
2025-01-18 19:37:37.97	211.33	17.17	
2025-01-18 19:37:38.18	211.36	17.19	
2025-01-18 19:37:38.38	211.39	17.21	
2025-01-18 19:37:38.58	211.43	17.23	
2025-01-18 19:37:38.79	211.46	17.26	
2025-01-18 19:37:38.99	211.49	17.28	
2025-01-18 19:37:39.19	211.53	17.30	
2025-01-18 19:37:39.40	211.56	17.32	
2025-01-18 19:37:39.60	211.59	17.34	
2025-01-18 19:37:39.80	211.63	17.36	
2025-01-18 19:37:40.00	211.66	17.38	
2025-01-18 19:37:40.21	211.69	17.40	
2025-01-18 19:37:40.41	211.73	17.42	
2025-01-18 19:37:40.61	211.76	17.44	
2025-01-18 19:37:40.82	211.79	17.47	
2025-01-18 19:37:41.02	211.83	17.49	
2025-01-18 19:37:41.22	211.86	17.51	
2025-01-18 19:37:41.43	211.89	17.53	
2025-01-18 19:37:41.63	211.93	17.55	
2025-01-18 19:37:41.83	211.96	17.57	
2025-01-18 19:37:42.04	212.00	17.59	
2025-01-18 19:37:42.24	212.03	17.61	
2025-01-18 19:37:42.44	212.06	17.63	
2025-01-18 19:37:42.64	212.10	17.65	
2025-01-18 19:37:42.85	212.13	17.68	
2025-01-18 19:37:43.05	212.16	17.70	
2025-01-18 19:37:43.25	212.20	17.72	
2025-01-18 19:37:43.46	212.23	17.74	
2025-01-18 19:37:43.66	212.27	17.76	
2025-01-18 19:37:43.86	212.30	17.78	
2025-01-18 19:37:44.07	212.34	17.80	
2025-01-18 19:37:44.27	212.37	17.82	
2025-01-18 19:37:44.47	212.40	17.85	
2025-01-18 19:37:44.68	212.44	17.87	
2025-01-18 19:37:44.88	212.47	17.89	
2025-01-18 19:37:45.08	212.51	17.91	
2025-01-18 19:37:45.28	212.54	17.93	
2025-01-18 19:37:45.49	212.58	17.95	
2025-01-18 19:37:45.69	212.61	17.97	
2025-01-18 19:37:45.89	212.65	17.99	
2025-01-18 19:37:46.10	212.68	18.02	
2025-01-18 19:37:46.30	212.72	18.04	
2025-01-18 19:37:46.50	212.75	18.06	
2025-01-18 19:37:46.71	212.79	18.08	
2025-01-18 19:37:46.91	212.82	18.10	
2025-01-18 19:37:47.11	212.86	18.12	
2025-01-18 19:37:47.32	212.89	18.14	
2025-01-18 19:37:47.52	212.93	18.17	
2025-01-18 19:37:47.72	212.96	18.19	
2025-01-18 19:37:47.92	213.00	18.21	
2025-01-18 19:37:48.13	213.03	18.23	
2025-01-18 19:37:48.33	213.07	18.25	
2025-01-18 19:37:48.53	213.10	18.27	
2025-01-18 19:37:48.74	213.14	18.29	
2025-01-18 19:37:48.94	213.17	18.32	
2025-01-18 19:37:49.14	213.21	18.34	
2025-01-18 19:37:49.35	213.25	18.36	
2025-01-18 19:37:49.55	213.28	18.38	
2025-01-18 19:37:49.75	213.32	18.40	
2025-01-18 19:37:49.96	213.35	18.42	
2025-01-18 19:37:50.16	213.39	18.44	
2025-01-18 19:37:50.36	213.42	18.47	
2025-01-18 19:37:50.56	213.46	18.49	
2025-01-18 19:37:50.77	213.50	18.51	
2025-01-18 19:37:50.97	213.53	18.53	
2025-01-18 19:37:51.17	213.57	18.55	
2025-01-18 19:37:51.38	213.60	18.57	
2025-01-18 19:37:51.58	213.64	18.60	
2025-01-18 19:37:51.78	213.68	18.62	
2025-01-18 19:37:51.99	213.71	18.64	
2025-01-18 19:37:52.19	213.75	18.66	
2025-01-18 19:37:52.39	213.78	18.68	
2025-01-18 19:37:52.60	213.82	18.70	
2025-01-18 19:37:52.80	213.86	18.73	
2025-01-18 19:37:53.00	213.89	18.75	
2025-01-18 19:37:53.20	213.93	18.77	
2025-01-18 19:37:53.41	213.97	18.79	
2025-01-18 19:37:53.61	214.00	18.81	
2025-01-18 19:37:53.81	214.04	18.83	
2025-01-18 19:37:54.02	214.08	18.86	
2025-01-18 19:37:54.22	214.11	18.88	
2025-01-18 19:37:54.42	214.15	18.90	
2025-01-18 19:37:54.63	214.19	18.92	
2025-01-18 19:37:54.83	214.23	18.94	
2025-01-18 19:37:55.03	214.26	18.96	
2025-01-18 19:37:55.23	214.30	18.99	
2025-01-18 19:37:55.44	214.34	19.01	
2025-01-18 19:37:55.64	214.37	19.03	
2025-01-18 19:37:55.84	214.41	19.05	
2025-01-18 19:37:56.05	214.45	19.07	
2025-01-18 19:37:56.25	214.49	19.10	
2025-01-18 19:37:56.45	214.52	19.12	
2025-01-18 19:37:56.66	214.56	19.14	
2025-01-18 19:37:56.86	214.60	19.16	
2025-01-18 19:37:57.06	214.64	19.18	
2025-01-18 19:37:57.27	214.67	19.20	
2025-01-18 19:37:57.47	214.71	19.23	
2025-01-18 19:37:57.67	214.75	19.25	
2025-01-18 19:37:57.87	214.79	19.27	
2025-01-18 19:37:58.08	214.83	19.29	
2025-01-18 19:37:58.28	214.86	19.31	
2025-01-18 19:37:58.48	214.90	19.34	
2025-01-18 19:37:58.69	214.94	19.36	
2025-01-18 19:37:58.89	214.98	19.38	
2025-01-18 19:37:59.09	215.01	19.40	
2025-01-18 19:37:59.30	215.05	19.42	
2025-01-18 19:37:59.50	215.09	19.45	
2025-01-18 19:37:59.70	215.13	19.47	
2025-01-18 19:37:59.91	215.17	19.49	
2025-01-18 19:38:00.11	215.21	19.51	
2025-01-18 19:38:00.31	215.25	19.53	
2025-01-18 19:38:00.51	215.28	19.56	
2025-01-18 19:38:00.72	215.32	19.58	
2025-01-18 19:38:00.92	215.36	19.60	
2025-01-18 19:38:01.12	215.40	19.62	
2025-01-18 19:38:01.33	215.44	19.64	
2025-01-18 19:38:01.53	215.48	19.67	
2025-01-18 19:38:01.73	215.52	19.69	
2025-01-18 19:38:01.94	215.56	19.71	
2025-01-18 19:38:02.14	215.60	19.73	
2025-01-18 19:38:02.34	215.63	19.75	
2025-01-18 19:38:02.55	215.67	19.78	
2025-01-18 19:38:02.75	215.71	19.80	
2025-01-18 19:38:02.95	215.75	19.82	
2025-01-18 19:38:03.15	215.79	19.84	
2025-01-18 19:38:03.36	215.83	19.87	
2025-01-18 19:38:03.56	215.87	19.89	
2025-01-18 19:38:03.76	215.91	19.91	
2025-01-18 19:38:03.97	215.95	19.93	
2025-01-18 19:38:04.17	215.99	19.95	
2025-01-18 19:38:04.37	216.03	19.98	
2025-01-18 19:38:04.58	216.07	20.00	
2025-01-18 19:38:04.78	216.11	20.02	
2025-01-18 19:38:04.98	216.15	20.04	
2025-01-18 19:38:05.19	216.19	20.07	
2025-01-18 19:38:05.39	216.23	20.09	
2025-01-18 19:38:05.59	216.27	20.11	
2025-01-18 19:38:05.79	216.31	20.13	
2025-01-18 19:38:06.00	216.35	20.15	
2025-01-18 19:38:06.20	216.39	20.18	
2025-01-18 19:38:06.40	216.43	20.20	
2025-01-18 19:38:06.61	216.47	20.22	
2025-01-18 19:38:06.81	216.51	20.24	
2025-01-18 19:38:07.01	216.55	20.26	
2025-01-18 19:38:07.22	216.59	20.29	
2025-01-18 19:38:07.42	216.63	20.31	
2025-01-18 19:38:07.62	216.67	20.33	
2025-01-18 19:38:07.83	216.71	20.35	
2025-01-18 19:38:08.03	216.75	20.38	
2025-01-18 19:38:08.23	216.79	20.40	
2025-01-18 19:38:08.43	216.83	20.42	
2025-01-18 19:38:08.64	216.88	20.44	
2025-01-18 19:38:08.84	216.92	20.47	
2025-01-18 19:38:09.04	216.96	20.49	
2025-01-18 19:38:09.25	217.00	20.51	
2025-01-18 19:38:09.45	217.04	20.53	
2025-01-18 19:38:09.65	217.08	20.56	
2025-01-18 19:38:09.86	217.12	20.58	
2025-01-18 19:38:10.06	217.16	20.60	
2025-01-18 19:38:10.26	217.20	20.62	
2025-01-18 19:38:10.46	217.25	20.64	
2025-01-18 19:38:10.67	217.29	20.67	
2025-01-18 19:38:10.87	217.33	20.69	
2025-01-18 19:38:11.07	217.37	20.71	
2025-01-18 19:38:11.28	217.41	20.74	
2025-01-18 19:38:11.48	217.45	20.76	
2025-01-18 19:38:11.68	217.50	20.78	
2025-01-18 19:38:11.89	217.54	20.80	
2025-01-18 19:38:12.09	217.58	20.82	
2025-01-18 19:38:12.29	217.62	20.85	
2025-01-18 19:38:12.50	217.67	20.87	
2025-01-18 19:38:12.70	217.71	20.89	
2025-01-18 19:38:12.90	217.75	20.91	
2025-01-18 19:38:13.10	217.79	20.94	
2025-01-18 19:38:13.31	217.83	20.96	
2025-01-18 19:38:13.51	217.88	20.98	
2025-01-18 19:38:13.71	217.92	21.00	
2025-01-18 19:38:13.92	217.96	21.03	
2025-01-18 19:38:14.12	218.00	21.05	
2025-01-18 19:38:14.32	218.05	21.07	
2025-01-18 19:38:14.53	218.09	21.10	
2025-01-18 19:38:14.73	218.13	21.12	
2025-01-18 19:38:14.93	218.17	21.14	
2025-01-18 19:38:15.14	218.22	21.16	
2025-01-18 19:38:15.34	218.26	21.19	
2025-01-18 19:38:15.54	218.30	21.21	
2025-01-18 19:38:15.74	218.35	21.23	
2025-01-18 19:38:15.95	218.39	21.25	
2025-01-18 19:38:16.15	218.43	21.28	
2025-01-18 19:38:16.35	218.48	21.30	
2025-01-18 19:38:16.56	218.52	21.32	
2025-01-18 19:38:16.76	218.56	21.34	
2025-01-18 19:38:16.96	218.61	21.37	
2025-01-18 19:38:17.17	218.65	21.39	
2025-01-18 19:38:17.37	218.69	21.41	
2025-01-18 19:38:17.57	218.74	21.43	
2025-01-18 19:38:17.78	218.78	21.46	
2025-01-18 19:38:17.98	218.83	21.48	
2025-01-18 19:38:18.18	218.87	21.50	
2025-01-18 19:38:18.38	218.91	21.52	
2025-01-18 19:38:18.59	218.96	21.55	
2025-01-18 19:38:18.79	219.00	21.57	
2025-01-18 19:38:18.99	219.05	21.59	
2025-01-18 19:38:19.20	219.09	21.62	
2025-01-18 19:38:19.40	219.13	21.64	
2025-01-18 19:38:19.60	219.18	21.66	
2025-01-18 19:38:19.81	219.22	21.68	
2025-01-18 19:38:20.01	219.27	21.71	
2025-01-18 19:38:20.21	219.31	21.73	
2025-01-18 19:38:20.42	219.36	21.75	
2025-01-18 19:38:20.62	219.40	21.78	
2025-01-18 19:38:20.82	219.45	21.80	
2025-01-18 19:38:21.02	219.49	21.82	
2025-01-18 19:38:21.23	219.54	21.84	
2025-01-18 19:38:21.43	219.58	21.87	
2025-01-18 19:38:21.63	219.63	21.89	
2025-01-18 19:38:21.84	219.67	21.91	
2025-01-18 19:38:22.04	219.72	21.93	
2025-01-18 19:38:22.24	219.76	21.96	
2025-01-18 19:38:22.45	219.81	21.98	
2025-01-18 19:38:22.65	219.85	22.00	
2025-01-18 19:38:22.85	219.90	22.03	
2025-01-18 19:38:23.06	219.95	22.05	
2025-01-18 19:38:23.26	219.99	22.07	
2025-01-18 19:38:23.46	220.04	22.09	
2025-01-18 19:38:23.66	220.08	22.12	
2025-01-18 19:38:23.87	220.13	22.14	
2025-01-18 19:38:24.07	220.17	22.16	
2025-01-18 19:38:24.27	220.22	22.19	
2025-01-18 19:38:24.48	220.27	22.21	
2025-01-18 19:38:24.68	220.31	22.23	
2025-01-18 19:38:24.88	220.36	22.25	
2025-01-18 19:38:25.09	220.40	22.28	
2025-01-18 19:38:25.29	220.45	22.30	
2025-01-18 19:38:25.49	220.50	22.32	
2025-01-18 19:38:25.70	220.54	22.35	
2025-01-18 19:38:25.90	220.59	22.37	
2025-01-18 19:38:26.10	220.64	22.39	
2025-01-18 19:38:26.30	220.68	22.41	
2025-01-18 19:38:26.51	220.73	22.44	
2025-01-18 19:38:26.71	220.78	22.46	
2025-01-18 19:38:26.91	220.82	22.48	
2025-01-18 19:38:27.12	220.87	22.51	
2025-01-18 19:38:27.32	220.92	22.53	
2025-01-18 19:38:27.52	220.96	22.55	
2025-01-18 19:38:27.73	221.01	22.58	
2025-01-18 19:38:27.93	221.06	22.60	
2025-01-18 19:38:28.13	221.10	22.62	
2025-01-18 19:38:28.33	221.15	22.64	
2025-01-18 19:38:28.54	221.20	22.67	
2025-01-18 19:38:28.74	221.25	22.69	
2025-01-18 19:38:28.94	221.29	22.71	
2025-01-18 19:38:29.15	221.34	22.74	
2025-01-18 19:38:29.35	221.39	22.76	
2025-01-18 19:38:29.55	221.44	22.78	
2025-01-18 19:38:29.76	221.49	22.80	
2025-01-18 19:38:29.96	221.53	22.83	
2025-01-18 19:38:30.16	221.58	22.85	
2025-01-18 19:38:30.37	221.63	22.87	
2025-01-18 19:38:30.57	221.68	22.90	
2025-01-18 19:38:30.77	221.73	22.92	
2025-01-18 19:38:30.97	221.77	22.94	
2025-01-18 19:38:31.18	221.82	22.96	
2025-01-18 19:38:31.38	221.87	22.99	
2025-01-18 19:38:31.58	221.92	23.01	
2025-01-18 19:38:31.79	221.97	23.03	
2025-01-18 19:38:31.99	222.02	23.06	
2025-01-18 19:38:32.19	222.07	23.08	
2025-01-18 19:38:32.40	222.12	23.10	
2025-01-18 19:38:32.60	222.16	23.13	
2025-01-18 19:38:32.80	222.21	23.15	
2025-01-18 19:38:33.01	222.26	23.17	
2025-01-18 19:38:33.21	222.31	23.19	
2025-01-18 19:38:33.41	222.36	23.22	
2025-01-18 19:38:33.61	222.41	23.24	
2025-01-18 19:38:33.82	222.46	23.26	
2025-01-18 19:38:34.02	222.51	23.29	
2025-01-18 19:38:34.22	222.56	23.31	
2025-01-18 19:38:34.43	222.61	23.33	
2025-01-18 19:38:34.63	222.66	23.35	
2025-01-18 19:38:34.83	222.71	23.38	
2025-01-18 19:38:35.04	222.76	23.40	
2025-01-18 19:38:35.24	222.81	23.42	
2025-01-18 19:38:35.44	222.86	23.45	
2025-01-18 19:38:35.65	222.91	23.47	
2025-01-18 19:38:35.85	222.96	23.49	
2025-01-18 19:38:36.05	223.01	23.52	
2025-01-18 19:38:36.25	223.05	23.54	
2025-01-18 19:38:36.46	223.11	23.56	
2025-01-18 19:38:36.66	223.16	23.58	
2025-01-18 19:38:36.86	223.21	23.61	
2025-01-18 19:38:37.07	223.26	23.63	
2025-01-18 19:38:37.27	223.31	23.65	
2025-01-18 19:38:37.47	223.36	23.68	
2025-01-18 19:38:37.68	223.41	23.70	
2025-01-18 19:38:37.88	223.46	23.72	
2025-01-18 19:38:38.08	223.51	23.75	
2025-01-18 19:38:38.29	223.56	23.77	
2025-01-18 19:38:38.49	223.61	23.79	
2025-01-18 19:38:38.69	223.66	23.81	
2025-01-18 19:38:38.89	223.71	23.84	
2025-01-18 19:38:39.10	223.77	23.86	
2025-01-18 19:38:39.30	223.82	23.88	
2025-01-18 19:38:39.50	223.87	23.91	
2025-01-18 19:38:39.71	223.92	23.93	
2025-01-18 19:38:39.91	223.97	23.95	
2025-01-18 19:38:40.11	224.02	23.98	
2025-01-18 19:38:40.32	224.08	24.00	
2025-01-18 19:38:40.52	224.13	24.02	
2025-01-18 19:38:40.72	224.18	24.04	
2025-01-18 19:38:40.93	224.23	24.07	
2025-01-18 19:38:41.13	224.28	24.09	
2025-01-18 19:38:41.33	224.34	24.11	
2025-01-18 19:38:41.53	224.39	24.14	
2025-01-18 19:38:41.74	224.44	24.16	
2025-01-18 19:38:41.94	224.49	24.18	
2025-01-18 19:38:42.14	224.54	24.20	
2025-01-18 19:38:42.35	224.60	24.23	
2025-01-18 19:38:42.55	224.65	24.25	
2025-01-18 19:38:42.75	224.70	24.27	
2025-01-18 19:38:42.96	224.76	24.30	
2025-01-18 19:38:43.16	224.81	24.32	
2025-01-18 19:38:43.36	224.86	24.34	
2025-01-18 19:38:43.56	224.91	24.37	
2025-01-18 19:38:43.77	224.97	24.39	
2025-01-18 19:38:43.97	225.02	24.41	
2025-01-18 19:38:44.17	225.07	24.43	
2025-01-18 19:38:44.38	225.13	24.46	
2025-01-18 19:38:44.58	225.18	24.48	
2025-01-18 19:38:44.78	225.23	24.50	
2025-01-18 19:38:44.99	225.29	24.53	
2025-01-18 19:38:45.19	225.34	24.55	
2025-01-18 19:38:45.39	225.39	24.57	
2025-01-18 19:38:45.60	225.45	24.60	
2025-01-18 19:38:45.80	225.50	24.62	
2025-01-18 19:38:46.00	225.56	24.64	
2025-01-18 19:38:46.20	225.61	24.66	
2025-01-18 19:38:46.41	225.67	24.69	
2025-01-18 19:38:46.61	225.72	24.71	
2025-01-18 19:38:46.81	225.77	24.73	
2025-01-18 19:38:47.02	225.83	24.76	
2025-01-18 19:38:47.22	225.88	24.78	
2025-01-18 19:38:47.42	225.94	24.80	
2025-01-18 19:38:47.63	225.99	24.82	
2025-01-18 19:38:47.83	226.05	24.85	
2025-01-18 19:38:48.03	226.10	24.87	
2025-01-18 19:38:48.24	226.16	24.89	
2025-01-18 19:38:48.44	226.21	24.92	
2025-01-18 19:38:48.64	226.26	24.94	
2025-01-18 19:38:48.84	226.32	24.96	
2025-01-18 19:38:49.05	226.38	24.98	
2025-01-18 19:38:49.25	226.43	25.01	
2025-01-18 19:38:49.45	226.48	25.03	
2025-01-18 19:38:49.66	226.54	25.05	
2025-01-18 19:38:49.86	226.60	25.08	
2025-01-18 19:38:50.06	226.65	25.10	
2025-01-18 19:38:50.27	226.71	25.12	
2025-01-18 19:38:50.47	226.76	25.14	
2025-01-18 19:38:50.67	226.82	25.17	
2025-01-18 19:38:50.88	226.88	25.19	
2025-01-18 19:38:51.08	226.93	25.21	
2025-01-18 19:38:51.28	226.99	25.23	
2025-01-18 19:38:51.48	227.04	25.26	
2025-01-18 19:38:51.69	227.10	25.28	
2025-01-18 19:38:51.89	227.16	25.30	
2025-01-18 19:38:52.09	227.21	25.33	
2025-01-18 19:38:52.30	227.27	25.35	
2025-01-18 19:38:52.50	227.33	25.37	
2025-01-18 19:38:52.70	227.38	25.39	
2025-01-18 19:38:52.91	227.44	25.42	
2025-01-18 19:38:53.11	227.50	25.44	
2025-01-18 19:38:53.31	227.55	25.46	
2025-01-18 19:38:53.52	227.61	25.49	
2025-01-18 19:38:53.72	227.67	25.51	
2025-01-18 19:38:53.92	227.72	25.53	
2025-01-18 19:38:54.12	227.78	25.55	
2025-01-18 19:38:54.33	227.84	25.58	
2025-01-18 19:38:54.53	227.90	25.60	
2025-01-18 19:38:54.73	227.95	25.62	
2025-01-18 19:38:54.94	228.01	25.64	
2025-01-18 19:38:55.14	228.07	25.67	
2025-01-18 19:38:55.34	228.12	25.69	
2025-01-18 19:38:55.55	228.18	25.71	
2025-01-18 19:38:55.75	228.24	25.73	
2025-01-18 19:38:55.95	228.30	25.76	
2025-01-18 19:38:56.16	228.36	25.78	
2025-01-18 19:38:56.36	228.42	25.80	
2025-01-18 19:38:56.56	228.47	25.82	
2025-01-18 19:38:56.76	228.53	25.85	
2025-01-18 19:38:56.97	228.59	25.87	
2025-01-18 19:38:57.17	228.65	25.89	
2025-01-18 19:38:57.37	228.71	25.91	
2025-01-18 19:38:57.58	228.77	25.94	
2025-01-18 19:38:57.78	228.83	25.96	
2025-01-18 19:38:57.98	228.88	25.98	
2025-01-18 19:38:58.19	228.94	26.00	
2025-01-18 19:38:58.39	229.00	26.03	
2025-01-18 19:38:58.59	229.06	26.05	
2025-01-18 19:38:58.79	229.12	26.07	
2025-01-18 19:38:59.00	229.18	26.09	
2025-01-18 19:38:59.20	229.24	26.12	
2025-01-18 19:38:59.40	229.30	26.14	
2025-01-18 19:38:59.61	229.36	26.16	
2025-01-18 19:38:59.81	229.42	26.18	
2025-01-18 19:39:00.01	229.48	26.21	
2025-01-18 19:39:00.22	229.54	26.23	
2025-01-18 19:39:00.42	229.60	26.25	
2025-01-18 19:39:00.62	229.66	26.27	
2025-01-18 19:39:00.83	229.72	26.30	
2025-01-18 19:39:01.03	229.78	26.32	
2025-01-18 19:39:01.23	229.84	26.34	
2025-01-18 19:39:01.43	229.90	26.36	
2025-01-18 19:39:01.64	229.96	26.38	
2025-01-18 19:39:01.84	230.02	26.41	
2025-01-18 19:39:02.04	230.08	26.43	
2025-01-18 19:39:02.25	230.14	26.45	
2025-01-18 19:39:02.45	230.20	26.47	
2025-01-18 19:39:02.65	230.26	26.50	
2025-01-18 19:39:02.86	230.32	26.52	
2025-01-18 19:39:03.06	230.38	26.54	
2025-01-18 19:39:03.26	230.44	26.56	
2025-01-18 19:39:03.47	230.51	26.58	
2025-01-18 19:39:03.67	230.57	26.61	
2025-01-18 19:39:03.87	230.63	26.63	
2025-01-18 19:39:04.07	230.69	26.65	
2025-01-18 19:39:04.28	230.75	26.67	
2025-01-18 19:39:04.48	230.81	26.70	
2025-01-18 19:39:04.68	230.87	26.72	
2025-01-18 19:39:04.89	230.94	26.74	
2025-01-18 19:39:05.09	231.00	26.76	
2025-01-18 19:39:05.29	231.06	26.78	
2025-01-18 19:39:05.50	231.12	26.81	
2025-01-18 19:39:05.70	231.18	26.83	
2025-01-18 19:39:05.90	231.24	26.85	
2025-01-18 19:39:06.11	231.31	26.87	
2025-01-18 19:39:06.31	231.37	26.89	
2025-01-18 19:39:06.51	231.43	26.92	
2025-01-18 19:39:06.71	231.49	26.94	
2025-01-18 19:39:06.92	231.56	26.96	
2025-01-18 19:39:07.12	231.62	26.98	
2025-01-18 19:39:07.32	231.68	27.00	
2025-01-18 19:39:07.53	231.75	27.03	
2025-01-18 19:39:07.73	231.81	27.05	
2025-01-18 19:39:07.93	231.87	27.07	
2025-01-18 19:39:08.14	231.94	27.09	
2025-01-18 19:39:08.34	232.00	27.11	
2025-01-18 19:39:08.54	232.06	27.13	
2025-01-18 19:39:08.75	232.13	27.16	
2025-01-18 19:39:08.95	232.19	27.18	
2025-01-18 19:39:09.15	232.25	27.20	
2025-01-18 19:39:09.35	232.31	27.22	
2025-01-18 19:39:09.56	232.38	27.24	
2025-01-18 19:39:09.76	232.44	27.26	
2025-01-18 19:39:09.96	232.51	27.29	
2025-01-18 19:39:10.17	232.57	27.31	
2025-01-18 19:39:10.37	232.63	27.33	
2025-01-18 19:39:10.57	232.70	27.35	
2025-01-18 19:39:10.78	232.76	27.37	
2025-01-18 19:39:10.98	232.83	27.39	
2025-01-18 19:39:11.18	232.89	27.42	
2025-01-18 19:39:11.39	232.96	27.44	
2025-01-18 19:39:11.59	233.02	27.46	
2025-01-18 19:39:11.79	233.09	27.48	
2025-01-18 19:39:11.99	233.15	27.50	
2025-01-18 19:39:12.20	233.22	27.52	
2025-01-18 19:39:12.40	233.28	27.54	
2025-01-18 19:39:12.60	233.34	27.57	
2025-01-18 19:39:12.81	233.41	27.59	
2025-01-18 19:39:13.01	233.48	27.61	
2025-01-18 19:39:13.21	233.54	27.63	
2025-01-18 19:39:13.42	233.61	27.65	
2025-01-18 19:39:13.62	233.67	27.67	
2025-01-18 19:39:13.82	233.74	27.69	
2025-01-18 19:39:14.02	233.80	27.71	
2025-01-18 19:39:14.23	233.87	27.74	
2025-01-18 19:39:14.43	233.93	27.76	
2025-01-18 19:39:14.63	234.00	27.78	
2025-01-18 19:39:14.84	234.07	27.80	
2025-01-18 19:39:15.04	234.13	27.82	
2025-01-18 19:39:15.24	234.20	27.84	
2025-01-18 19:39:15.45	234.27	27.86	
2025-01-18 19:39:15.65	234.33	27.88	
2025-01-18 19:39:15.85	234.40	27.91	
2025-01-18 19:39:16.06	234.47	27.93	
2025-01-18 19:39:16.26	234.53	27.95	
2025-01-18 19:39:16.46	234.60	27.97	
2025-01-18 19:39:16.66	234.66	27.99	
2025-01-18 19:39:16.87	234.73	28.01	
2025-01-18 19:39:17.07	234.80	28.03	
2025-01-18 19:39:17.27	234.87	28.05	
2025-01-18 19:39:17.48	234.93	28.07	
2025-01-18 19:39:17.68	235.00	28.09	
2025-01-18 19:39:17.88	235.07	28.11	
2025-01-18 19:39:18.09	235.14	28.14	
2025-01-18 19:39:18.29	235.20	28.16	
2025-01-18 19:39:18.49	235.27	28.18	
2025-01-18 19:39:18.70	235.34	28.20	
2025-01-18 19:39:18.90	235.41	28.22	
2025-01-18 19:39:19.10	235.47	28.24	
2025-01-18 19:39:19.30	235.54	28.26	
2025-01-18 19:39:19.51	235.61	28.28	
2025-01-18 19:39:19.71	235.68	28.30	
2025-01-18 19:39:19.91	235.75	28.32	
2025-01-18 19:39:20.12	235.82	28.34	
2025-01-18 19:39:20.32	235.88	28.36	
2025-01-18 19:39:20.52	235.95	28.38	
2025-01-18 19:39:20.73	236.02	28.40	
2025-01-18 19:39:20.93	236.09	28.42	
2025-01-18 19:39:21.13	236.16	28.44	
2025-01-18 19:39:21.34	236.23	28.47	
2025-01-18 19:39:21.54	236.30	28.49	
2025-01-18 19:39:21.74	236.37	28.51	
2025-01-18 19:39:21.94	236.43	28.53	
2025-01-18 19:39:22.15	236.51	28.55	
2025-01-18 19:39:22.35	236.57	28.57	
2025-01-18 19:39:22.55	236.64	28.59	
2025-01-18 19:39:22.76	236.71	28.61	
2025-01-18 19:39:22.96	236.78	28.63	
2025-01-18 19:39:23.16	236.85	28.65	
2025-01-18 19:39:23.37	236.92	28.67	
2025-01-18 19:39:23.57	236.99	28.69	
2025-01-18 19:39:23.77	237.06	28.71	
2025-01-18 19:39:23.98	237.13	28.73	
2025-01-18 19:39:24.18	237.20	28.75	
2025-01-18 19:39:24.38	237.27	28.77	
2025-01-18 19:39:24.58	237.34	28.79	
2025-01-18 19:39:24.79	237.41	28.81	
2025-01-18 19:39:24.99	237.48	28.83	
2025-01-18 19:39:25.19	237.55	28.85	
2025-01-18 19:39:25.40	237.63	28.87	
2025-01-18 19:39:25.60	237.70	28.89	
2025-01-18 19:39:25.80	237.77	28.91	
2025-01-18 19:39:26.01	237.84	28.93	
2025-01-18 19:39:26.21	237.91	28.95	
2025-01-18 19:39:26.41	237.98	28.97	
2025-01-18 19:39:26.62	238.05	28.99	
2025-01-18 19:39:26.82	238.12	29.01	
2025-01-18 19:39:27.02	238.19	29.02	
2025-01-18 19:39:27.22	238.26	29.04	
2025-01-18 19:39:27.43	238.34	29.06	
2025-01-18 19:39:27.63	238.41	29.08	
2025-01-18 19:39:27.83	238.48	29.10	
2025-01-18 19:39:28.04	238.55	29.12	
2025-01-18 19:39:28.24	238.62	29.14	
2025-01-18 19:39:28.44	238.69	29.16	
2025-01-18 19:39:28.65	238.77	29.18	
2025-01-18 19:39:28.85	238.84	29.20	
2025-01-18 19:39:29.05	238.91	29.22	
2025-01-18 19:39:29.25	238.98	29.24	
2025-01-18 19:39:29.46	239.06	29.26	
2025-01-18 19:39:29.66	239.13	29.28	
2025-01-18 19:39:29.86	239.20	29.29	
2025-01-18 19:39:30.07	239.28	29.31	
2025-01-18 19:39:30.27	239.35	29.33	
2025-01-18 19:39:30.47	239.42	29.35	
2025-01-18 19:39:30.68	239.49	29.37	
2025-01-18 19:39:30.88	239.57	29.39	
2025-01-18 19:39:31.08	239.64	29.41	
2025-01-18 19:39:31.29	239.71	29.43	
2025-01-18 19:39:31.49	239.79	29.45	
2025-01-18 19:39:31.69	239.86	29.47	
2025-01-18 19:39:31.89	239.93	29.48	
2025-01-18 19:39:32.10	240.01	29.50	
2025-01-18 19:39:32.30	240.08	29.52	
2025-01-18 19:39:32.50	240.15	29.54	
2025-01-18 19:39:32.71	240.23	29.56	
2025-01-18 19:39:32.91	240.30	29.58	
2025-01-18 19:39:33.11	240.37	29.60	
2025-01-18 19:39:33.32	240.45	29.61	
2025-01-18 19:39:33.52	240.52	29.63	
2025-01-18 19:39:33.72	240.60	29.65	
2025-01-18 19:39:33.93	240.67	29.67	
2025-01-18 19:39:34.13	240.75	29.69	
2025-01-18 19:39:34.33	240.82	29.71	
2025-01-18 19:39:34.53	240.89	29.72	
2025-01-18 19:39:34.74	240.97	29.74	
2025-01-18 19:39:34.94	241.04	29.76	
2025-01-18 19:39:35.14	241.12	29.78	
2025-01-18 19:39:35.35	241.20	29.80	
2025-01-18 19:39:35.55	241.27	29.82	
2025-01-18 19:39:35.75	241.34	29.83	
2025-01-18 19:39:35.96	241.42	29.85	
2025-01-18 19:39:36.16	241.50	29.87	
2025-01-18 19:39:36.36	241.57	29.89	
2025-01-18 19:39:36.57	241.65	29.91	
2025-01-18 19:39:36.77	241.72	29.92	
2025-01-18 19:39:36.97	241.80	29.94	
2025-01-18 19:39:37.17	241.87	29.96	
2025-01-18 19:39:37.38	241.95	29.98	
2025-01-18 19:39:37.58	242.02	29.99	
2025-01-18 19:39:37.78	242.10	30.01	
2025-01-18 19:39:37.99	242.18	30.03	
2025-01-18 19:39:38.19	242.25	30.05	
2025-01-18 19:39:38.39	242.33	30.06	
2025-01-18 19:39:38.60	242.41	30.08	
2025-01-18 19:39:38.80	242.48	30.10	
2025-01-18 19:39:39.00	242.56	30.12	
2025-01-18 19:39:39.21	242.64	30.13	
2025-01-18 19:39:39.41	242.71	30.15	
2025-01-18 19:39:39.61	242.79	30.17	
2025-01-18 19:39:39.81	242.86	30.19	
2025-01-18 19:39:40.02	242.94	30.20	
2025-01-18 19:39:40.22	243.02	30.22	
2025-01-18 19:39:40.42	243.09	30.24	
2025-01-18 19:39:40.63	243.17	30.25	
2025-01-18 19:39:40.83	243.25	30.27	
2025-01-18 19:39:41.03	243.33	30.29	
2025-01-18 19:39:41.24	243.41	30.31	
2025-01-18 19:39:41.44	243.48	30.32	
2025-01-18 19:39:41.64	243.56	30.34	
2025-01-18 19:39:41.85	243.64	30.36	
2025-01-18 19:39:42.05	243.72	30.37	
2025-01-18 19:39:42.25	243.79	30.39	
2025-01-18 19:39:42.45	243.87	30.41	
2025-01-18 19:39:42.66	243.95	30.42	
2025-01-18 19:39:42.86	244.03	30.44	
2025-01-18 19:39:43.06	244.10	30.45	
2025-01-18 19:39:43.27	244.18	30.47	
2025-01-18 19:39:43.47	244.26	30.49	
2025-01-18 19:39:43.67	244.34	30.50	
2025-01-18 19:39:43.88	244.42	30.52	
2025-01-18 19:39:44.08	244.50	30.54	
2025-01-18 19:39:44.28	244.57	30.55	
2025-01-18 19:39:44.48	244.65	30.57	
2025-01-18 19:39:44.69	244.73	30.59	
2025-01-18 19:39:44.89	244.81	30.60	
2025-01-18 19:39:45.09	244.89	30.62	
2025-01-18 19:39:45.30	244.97	30.63	
2025-01-18 19:39:45.50	245.05	30.65	
2025-01-18 19:39:45.70	245.13	30.66	
2025-01-18 19:39:45.91	245.21	30.68	
2025-01-18 19:39:46.11	245.29	30.70	
2025-01-18 19:39:46.31	245.36	30.71	
2025-01-18 19:39:46.52	245.45	30.73	
2025-01-18 19:39:46.72	245.53	30.74	
2025-01-18 19:39:46.92	245.60	30.76	
2025-01-18 19:39:47.12	245.68	30.77	
2025-01-18 19:39:47.33	245.76	30.79	
2025-01-18 19:39:47.53	245.84	30.81	
2025-01-18 19:39:47.73	245.92	30.82	
2025-01-18 19:39:47.94	246.00	30.84	
2025-01-18 19:39:48.14	246.08	30.85	
2025-01-18 19:39:48.34	246.16	30.87	
2025-01-18 19:39:48.55	246.25	30.88	
2025-01-18 19:39:48.75	246.32	30.90	
2025-01-18 19:39:48.95	246.40	30.91	
2025-01-18 19:39:49.16	246.49	30.93	
2025-01-18 19:39:49.36	246.57	30.94	
2025-01-18 19:39:49.56	246.65	30.96	
2025-01-18 19:39:49.76	246.73	30.97	
2025-01-18 19:39:49.97	246.81	30.99	
2025-01-18 19:39:50.17	246.89	31.00	
2025-01-18 19:39:50.37	246.97	31.02	
2025-01-18 19:39:50.58	247.05	31.03	
2025-01-18 19:39:50.78	247.13	31.05	
2025-01-18 19:39:50.98	247.21	31.06	
2025-01-18 19:39:51.19	247.30	31.08	
2025-01-18 19:39:51.39	247.38	31.09	
2025-01-18 19:39:51.59	247.46	31.10	
2025-01-18 19:39:51.80	247.54	31.12	
2025-01-18 19:39:52.00	247.62	31.13	
2025-01-18 19:39:52.20	247.70	31.15	
2025-01-18 19:39:52.40	247.78	31.16	
2025-01-18 19:39:52.61	247.87	31.18	
2025-01-18 19:39:52.81	247.95	31.19	
2025-01-18 19:39:53.01	248.03	31.20	
2025-01-18 19:39:53.22	248.11	31.22	
2025-01-18 19:39:53.42	248.19	31.23	
2025-01-18 19:39:53.62	248.27	31.24	
2025-01-18 19:39:53.83	248.36	31.26	
2025-01-18 19:39:54.03	248.44	31.27	
2025-01-18 19:39:54.23	248.52	31.29	
2025-01-18 19:39:54.44	248.60	31.30	
2025-01-18 19:39:54.64	248.69	31.31	
2025-01-18 19:39:54.84	248.77	31.33	
2025-01-18 19:39:55.04	248.85	31.34	
2025-01-18 19:39:55.25	248.93	31.35	
2025-01-18 19:39:55.45	249.02	31.37	
2025-01-18 19:39:55.65	249.10	31.38	
2025-01-18 19:39:55.86	249.18	31.39	
2025-01-18 19:39:56.06	249.26	31.41	
2025-01-18 19:39:56.26	249.35	31.42	
2025-01-18 19:39:56.47	249.43	31.43	
2025-01-18 19:39:56.67	249.51	31.45	
2025-01-18 19:39:56.87	249.60	31.46	
2025-01-18 19:39:57.07	249.68	31.47	
2025-01-18 19:39:57.28	249.76	31.48	
2025-01-18 19:39:57.48	249.85	31.50	
2025-01-18 19:39:57.68	249.93	31.51	
2025-01-18 19:39:57.89	250.01	31.52	
2025-01-18 19:39:58.09	250.10	31.54	
2025-01-18 19:39:58.29	250.18	31.55	
2025-01-18 19:39:58.50	250.27	31.56	
2025-01-18 19:39:58.70	250.35	31.57	
2025-01-18 19:39:58.90	250.43	31.59	
2025-01-18 19:39:59.11	250.52	31.60	
2025-01-18 19:39:59.31	250.60	31.61	
2025-01-18 19:39:59.51	250.68	31.62	
2025-01-18 19:39:59.71	250.77	31.63	
2025-01-18 19:39:59.92	250.85	31.65	
2025-01-18 19:40:00.12	250.94	31.66	
2025-01-18 19:40:00.32	251.02	31.67	
2025-01-18 19:40:00.53	251.11	31.68	
2025-01-18 19:40:00.73	251.19	31.69	
2025-01-18 19:40:00.93	251.27	31.71	
2025-01-18 19:40:01.14	251.36	31.72	
2025-01-18 19:40:01.34	251.44	31.73	
2025-01-18 19:40:01.54	251.53	31.74	
2025-01-18 19:40:01.75	251.61	31.75	
2025-01-18 19:40:01.95	251.70	31.76	
2025-01-18 19:40:02.15	251.78	31.77	
2025-01-18 19:40:02.35	251.86	31.79	
2025-01-18 19:40:02.56	251.95	31.80	
2025-01-18 19:40:02.76	252.04	31.81	
2025-01-18 19:40:02.96	252.12	31.82	
2025-01-18 19:40:03.17	252.21	31.83	
2025-01-18 19:40:03.37	252.29	31.84	
2025-01-18 19:40:03.57	252.38	31.85	
2025-01-18 19:40:03.78	252.46	31.86	
2025-01-18 19:40:03.98	252.55	31.87	
2025-01-18 19:40:04.18	252.63	31.89	
2025-01-18 19:40:04.39	252.72	31.90	
2025-01-18 19:40:04.59	252.80	31.91	
2025-01-18 19:40:04.79	252.89	31.92	
2025-01-18 19:40:04.99	252.97	31.93	
2025-01-18 19:40:05.20	253.06	31.94	
2025-01-18 19:40:05.40	253.15	31.95	
2025-01-18 19:40:05.60	253.23	31.96	
2025-01-18 19:40:05.81	253.32	31.97	
2025-01-18 19:40:06.01	253.40	31.98	
2025-01-18 19:40:06.21	253.49	31.99	
2025-01-18 19:40:06.42	253.58	32.00	
2025-01-18 19:40:06.62	253.66	32.01	
2025-01-18 19:40:06.82	253.75	32.02	
2025-01-18 19:40:07.03	253.84	32.03	
2025-01-18 19:40:07.23	253.92	32.04	
2025-01-18 19:40:07.43	254.01	32.05	
2025-01-18 19:40:07.63	254.09	32.06	
2025-01-18 19:40:07.84	254.18	32.07	
2025-01-18 19:40:08.04	254.27	32.08	
2025-01-18 19:40:08.24	254.35	32.09	
2025-01-18 19:40:08.45	254.44	32.10	
2025-01-18 19:40:08.65	254.53	32.11	
2025-01-18 19:40:08.85	254.61	32.11	
2025-01-18 19:40:09.06	254.70	32.12	
2025-01-18 19:40:09.26	254.79	32.13	
2025-01-18 19:40:09.46	254.87	32.14	
2025-01-18 19:40:09.67	254.96	32.15	
2025-01-18 19:40:09.87	255.05	32.16	
2025-01-18 19:40:10.07	255.13	32.17	
2025-01-18 19:40:10.27	255.22	32.18	
2025-01-18 19:40:10.48	255.31	32.19	
2025-01-18 19:40:10.68	255.39	32.20	
2025-01-18 19:40:10.88	255.48	32.20	
2025-01-18 19:40:11.09	255.57	32.21	
2025-01-18 19:40:11.29	255.66	32.22	
2025-01-18 19:40:11.49	255.74	32.23	
2025-01-18 19:40:11.70	255.83	32.24	
2025-01-18 19:40:11.90	255.92	32.25	
2025-01-18 19:40:12.10	256.00	32.25	
2025-01-18 19:40:12.31	256.09	32.26	
2025-01-18 19:40:12.51	256.18	32.27	
2025-01-18 19:40:12.71	256.27	32.28	
2025-01-18 19:40:12.91	256.35	32.29	
2025-01-18 19:40:13.12	256.44	32.29	
2025-01-18 19:40:13.32	256.53	32.30	
2025-01-18 19:40:13.52	256.62	32.31	
2025-01-18 19:40:13.73	256.71	32.32	
2025-01-18 19:40:13.93	256.79	32.32	
2025-01-18 19:40:14.13	256.88	32.33	
2025-01-18 19:40:14.34	256.97	32.34	
2025-01-18 19:40:14.54	257.06	32.35	
2025-01-18 19:40:14.74	257.14	32.35	
2025-01-18 19:40:14.95	257.23	32.36	
2025-01-18 19:40:15.15	257.32	32.37	
2025-01-18 19:40:15.35	257.41	32.38	
2025-01-18 19:40:15.55	257.50	32.38	
2025-01-18 19:40:15.76	257.59	32.39	
2025-01-18 19:40:15.96	257.67	32.40	
2025-01-18 19:40:16.16	257.76	32.40	
2025-01-18 19:40:16.37	257.85	32.41	
2025-01-18 19:40:16.57	257.94	32.42	
2025-01-18 19:40:16.77	258.02	32.42	
2025-01-18 19:40:16.98	258.12	32.43	
2025-01-18 19:40:17.18	258.20	32.44	
2025-01-18 19:40:17.38	258.29	32.44	
2025-01-18 19:40:17.58	258.38	32.45	
2025-01-18 19:40:17.79	258.47	32.45	
2025-01-18 19:40:17.99	258.56	32.46	
2025-01-18 19:40:18.19	258.64	32.47	
2025-01-18 19:40:18.40	258.74	32.47	
2025-01-18 19:40:18.60	258.82	32.48	
2025-01-18 19:40:18.80	258.91	32.48	
2025-01-18 19:40:19.01	259.00	32.49	
2025-01-18 19:40:19.21	259.09	32.50	
2025-01-18 19:40:19.41	259.18	32.50	
2025-01-18 19:40:19.62	259.27	32.51	
2025-01-18 19:40:19.82	259.36	32.51	
2025-01-18 19:40:20.02	259.44	32.52	
2025-01-18 19:40:20.22	259.53	32.52	
2025-01-18 19:40:20.43	259.62	32.53	
2025-01-18 19:40:20.63	259.71	32.53	
2025-01-18 19:40:20.83	259.80	32.54	
2025-01-18 19:40:21.04	259.89	32.54	
2025-01-18 19:40:21.24	259.98	32.55	
2025-01-18 19:40:21.44	260.06	32.55	
2025-01-18 19:40:21.65	260.16	32.56	
2025-01-18 19:40:21.85	260.24	32.56	
2025-01-18 19:40:22.05	260.33	32.57	
2025-01-18 19:40:22.26	260.42	32.57	
2025-01-18 19:40:22.46	260.51	32.58	
2025-01-18 19:40:22.66	260.60	32.58	
2025-01-18 19:40:22.86	260.69	32.59	
2025-01-18 19:40:23.07	260.78	32.59	
2025-01-18 19:40:23.27	260.87	32.59	
2025-01-18 19:40:23.47	260.96	32.60	
2025-01-18 19:40:23.68	261.05	32.60	
2025-01-18 19:40:23.88	261.14	32.61	
2025-01-18 19:40:24.08	261.22	32.61	
2025-01-18 19:40:24.29	261.32	32.61	
2025-01-18 19:40:24.49	261.40	32.62	
2025-01-18 19:40:24.69	261.49	32.62	
2025-01-18 19:40:24.90	261.59	32.63	
2025-01-18 19:40:25.10	261.67	32.63	
2025-01-18 19:40:25.30	261.76	32.63	
2025-01-18 19:40:25.50	261.85	32.64	
2025-01-18 19:40:25.71	261.94	32.64	
2025-01-18 19:40:25.91	262.03	32.64	
2025-01-18 19:40:26.11	262.12	32.65	
2025-01-18 19:40:26.32	262.21	32.65	
2025-01-18 19:40:26.52	262.30	32.65	
2025-01-18 19:40:26.72	262.39	32.66	
2025-01-18 19:40:26.93	262.48	32.66	
2025-01-18 19:40:27.13	262.57	32.66	
2025-01-18 19:40:27.33	262.66	32.66	
2025-01-18 19:40:27.54	262.75	32.67	
2025-01-18 19:40:27.74	262.84	32.67	
2025-01-18 19:40:27.94	262.93	32.67	
2025-01-18 19:40:28.14	263.01	32.67	
2025-01-18 19:40:28.35	263.11	32.68	
2025-01-18 19:40:28.55	263.20	32.68	
2025-01-18 19:40:28.75	263.28	32.68	
2025-01-18 19:40:28.96	263.38	32.68	
2025-01-18 19:40:29.16	263.46	32.69	
2025-01-18 19:40:29.36	263.55	32.69	
2025-01-18 19:40:29.57	263.65	32.69	
2025-01-18 19:40:29.77	263.73	32.69	
2025-01-18 19:40:29.97	263.82	32.69	
2025-01-18 19:40:30.18	263.92	32.69	
2025-01-18 19:40:30.38	264.00	32.70	
2025-01-18 19:40:30.58	264.09	32.70	
