passes_logs/2025/01/18/SPB_Silybum_02/SPB_Silybum_02__20250118_003915_AQUA_rec.log

#Pass ID: 20250118_003915_AQUA
#Satellite: AQUA
#Configuration: AQUA
#Start time: 2025-01-18 00:39:15

#Version: 2.0.20230423
#Station: SPB_Silybum_02
#Location: 30.233357 lon 59.946436 lat
#TLE: 1 27424U 02022A   25017.13491740  .00001953  00000+0  41075-3 0  9996
#TLE: 2 27424  98.3596 333.8179 0001829 109.1235 340.1836 14.60691632207930

#Time	Az	El	Level	Level2	SNR	BER	Gain	Gain2
2025-01-18 00:39:17.60	21.16	4.15	
2025-01-18 00:39:17.81	21.17	4.17	
2025-01-18 00:39:18.01	21.18	4.18	
2025-01-18 00:39:18.21	21.19	4.20	
2025-01-18 00:39:18.42	21.20	4.21	
2025-01-18 00:39:18.62	21.21	4.22	
2025-01-18 00:39:18.82	21.22	4.24	
2025-01-18 00:39:19.02	21.22	4.25	
2025-01-18 00:39:19.23	21.23	4.27	
2025-01-18 00:39:19.43	21.24	4.28	
2025-01-18 00:39:19.63	21.25	4.30	
2025-01-18 00:39:19.84	21.26	4.31	
2025-01-18 00:39:20.04	21.27	4.32	
2025-01-18 00:39:20.24	21.28	4.34	
2025-01-18 00:39:20.45	21.28	4.35	
2025-01-18 00:39:20.65	21.29	4.37	
2025-01-18 00:39:20.85	21.30	4.38	
2025-01-18 00:39:21.05	21.31	4.39	
2025-01-18 00:39:21.26	21.32	4.41	
2025-01-18 00:39:21.46	21.33	4.42	
2025-01-18 00:39:21.66	21.34	4.44	
2025-01-18 00:39:21.87	21.35	4.45	
2025-01-18 00:39:22.07	21.35	4.47	
2025-01-18 00:39:22.27	21.36	4.48	
2025-01-18 00:39:22.47	21.37	4.49	
2025-01-18 00:39:22.68	21.38	4.51	
2025-01-18 00:39:22.88	21.39	4.52	
2025-01-18 00:39:23.08	21.40	4.54	
2025-01-18 00:39:23.29	21.41	4.55	
2025-01-18 00:39:23.49	21.42	4.57	
2025-01-18 00:39:23.69	21.42	4.58	
2025-01-18 00:39:23.90	21.43	4.60	
2025-01-18 00:39:24.10	21.44	4.61	
2025-01-18 00:39:24.30	21.45	4.62	
2025-01-18 00:39:24.50	21.46	4.64	
2025-01-18 00:39:24.71	21.47	4.65	
2025-01-18 00:39:24.91	21.48	4.67	
2025-01-18 00:39:25.11	21.49	4.68	
2025-01-18 00:39:25.32	21.49	4.70	
2025-01-18 00:39:25.52	21.50	4.71	
2025-01-18 00:39:25.72	21.51	4.72	
2025-01-18 00:39:25.93	21.52	4.74	
2025-01-18 00:39:26.13	21.53	4.75	
2025-01-18 00:39:26.33	21.54	4.77	
2025-01-18 00:39:26.53	21.55	4.78	
2025-01-18 00:39:26.74	21.56	4.80	
2025-01-18 00:39:26.94	21.57	4.81	
2025-01-18 00:39:27.14	21.57	4.83	
2025-01-18 00:39:27.35	21.58	4.84	
2025-01-18 00:39:27.55	21.59	4.85	
2025-01-18 00:39:27.75	21.60	4.87	
2025-01-18 00:39:27.96	21.61	4.88	
2025-01-18 00:39:28.16	21.62	4.90	
2025-01-18 00:39:28.36	21.63	4.91	
2025-01-18 00:39:28.56	21.64	4.93	
2025-01-18 00:39:28.77	21.65	4.94	
2025-01-18 00:39:28.97	21.66	4.96	
2025-01-18 00:39:29.17	21.66	4.97	
2025-01-18 00:39:29.38	21.67	4.99	
2025-01-18 00:39:29.58	21.68	5.00	
2025-01-18 00:39:29.78	21.69	5.01	
2025-01-18 00:39:29.99	21.70	5.03	
2025-01-18 00:39:30.19	21.71	5.04	
2025-01-18 00:39:30.39	21.72	5.06	
2025-01-18 00:39:30.59	21.73	5.07	
2025-01-18 00:39:30.80	21.74	5.09	
2025-01-18 00:39:31.00	21.75	5.10	
2025-01-18 00:39:31.20	21.76	5.12	
2025-01-18 00:39:31.41	21.76	5.13	
2025-01-18 00:39:31.61	21.77	5.15	
2025-01-18 00:39:31.81	21.78	5.16	
2025-01-18 00:39:32.02	21.79	5.18	
2025-01-18 00:39:32.22	21.80	5.19	
2025-01-18 00:39:32.42	21.81	5.21	
2025-01-18 00:39:32.62	21.82	5.22	
2025-01-18 00:39:32.83	21.83	5.23	
2025-01-18 00:39:33.03	21.84	5.25	
2025-01-18 00:39:33.23	21.85	5.26	
2025-01-18 00:39:33.44	21.86	5.28	
2025-01-18 00:39:33.64	21.87	5.29	
2025-01-18 00:39:33.84	21.87	5.31	
2025-01-18 00:39:34.04	21.88	5.32	
2025-01-18 00:39:34.25	21.89	5.34	
2025-01-18 00:39:34.45	21.90	5.35	
2025-01-18 00:39:34.65	21.91	5.37	
2025-01-18 00:39:34.86	21.92	5.38	
2025-01-18 00:39:35.06	21.93	5.40	
2025-01-18 00:39:35.26	21.94	5.41	
2025-01-18 00:39:35.47	21.95	5.43	
2025-01-18 00:39:35.67	21.96	5.44	
2025-01-18 00:39:35.87	21.97	5.46	
2025-01-18 00:39:36.07	21.98	5.47	
2025-01-18 00:39:36.28	21.99	5.49	
2025-01-18 00:39:36.48	22.00	5.50	
2025-01-18 00:39:36.68	22.00	5.52	
2025-01-18 00:39:36.89	22.01	5.53	
2025-01-18 00:39:37.09	22.02	5.55	
2025-01-18 00:39:37.29	22.03	5.56	
2025-01-18 00:39:37.50	22.04	5.58	
2025-01-18 00:39:37.70	22.05	5.59	
2025-01-18 00:39:37.90	22.06	5.61	
2025-01-18 00:39:38.10	22.07	5.62	
2025-01-18 00:39:38.31	22.08	5.64	
2025-01-18 00:39:38.51	22.09	5.65	
2025-01-18 00:39:38.71	22.10	5.66	
2025-01-18 00:39:38.92	22.11	5.68	
2025-01-18 00:39:39.12	22.12	5.70	
2025-01-18 00:39:39.32	22.13	5.71	
2025-01-18 00:39:39.53	22.14	5.73	
2025-01-18 00:39:39.73	22.15	5.74	
2025-01-18 00:39:39.93	22.16	5.75	
2025-01-18 00:39:40.13	22.16	5.77	
2025-01-18 00:39:40.34	22.17	5.79	
2025-01-18 00:39:40.54	22.18	5.80	
2025-01-18 00:39:40.74	22.19	5.81	
2025-01-18 00:39:40.95	22.20	5.83	
2025-01-18 00:39:41.15	22.21	5.85	
2025-01-18 00:39:41.35	22.22	5.86	
2025-01-18 00:39:41.56	22.23	5.88	
2025-01-18 00:39:41.76	22.24	5.89	
2025-01-18 00:39:41.96	22.25	5.91	
2025-01-18 00:39:42.16	22.26	5.92	
2025-01-18 00:39:42.37	22.27	5.94	
2025-01-18 00:39:42.57	22.28	5.95	
2025-01-18 00:39:42.77	22.29	5.97	
2025-01-18 00:39:42.98	22.30	5.98	
2025-01-18 00:39:43.18	22.31	6.00	
2025-01-18 00:39:43.38	22.32	6.01	
2025-01-18 00:39:43.59	22.33	6.03	
2025-01-18 00:39:43.79	22.34	6.04	
2025-01-18 00:39:43.99	22.35	6.06	
2025-01-18 00:39:44.19	22.36	6.07	
2025-01-18 00:39:44.40	22.37	6.09	
2025-01-18 00:39:44.60	22.38	6.10	
2025-01-18 00:39:44.80	22.39	6.12	
2025-01-18 00:39:45.01	22.40	6.13	
2025-01-18 00:39:45.21	22.41	6.15	
2025-01-18 00:39:45.41	22.42	6.16	
2025-01-18 00:39:45.61	22.43	6.18	
2025-01-18 00:39:45.82	22.44	6.19	
2025-01-18 00:39:46.02	22.45	6.21	
2025-01-18 00:39:46.22	22.45	6.23	
2025-01-18 00:39:46.43	22.47	6.24	
2025-01-18 00:39:46.63	22.47	6.26	
2025-01-18 00:39:46.83	22.48	6.27	
2025-01-18 00:39:47.04	22.49	6.29	
2025-01-18 00:39:47.24	22.50	6.30	
2025-01-18 00:39:47.44	22.51	6.32	
2025-01-18 00:39:47.64	22.52	6.33	
2025-01-18 00:39:47.85	22.53	6.35	
2025-01-18 00:39:48.05	22.54	6.36	
2025-01-18 00:39:48.25	22.55	6.38	
2025-01-18 00:39:48.46	22.56	6.39	
2025-01-18 00:39:48.66	22.57	6.41	
2025-01-18 00:39:48.86	22.58	6.42	
2025-01-18 00:39:49.07	22.59	6.44	
2025-01-18 00:39:49.27	22.60	6.46	
2025-01-18 00:39:49.47	22.61	6.47	
2025-01-18 00:39:49.67	22.62	6.49	
2025-01-18 00:39:49.88	22.63	6.50	
2025-01-18 00:39:50.08	22.64	6.52	
2025-01-18 00:39:50.28	22.65	6.53	
2025-01-18 00:39:50.49	22.66	6.55	
2025-01-18 00:39:50.69	22.67	6.56	
2025-01-18 00:39:50.89	22.68	6.58	
2025-01-18 00:39:51.10	22.69	6.60	
2025-01-18 00:39:51.30	22.70	6.61	
2025-01-18 00:39:51.50	22.71	6.63	
2025-01-18 00:39:51.70	22.72	6.64	
2025-01-18 00:39:51.91	22.73	6.66	
2025-01-18 00:39:52.11	22.74	6.67	
2025-01-18 00:39:52.31	22.75	6.69	
2025-01-18 00:39:52.52	22.76	6.70	
2025-01-18 00:39:52.72	22.77	6.72	
2025-01-18 00:39:52.92	22.78	6.74	
2025-01-18 00:39:53.13	22.80	6.75	
2025-01-18 00:39:53.33	22.81	6.77	
2025-01-18 00:39:53.53	22.82	6.78	
2025-01-18 00:39:53.73	22.83	6.80	
2025-01-18 00:39:53.94	22.84	6.81	
2025-01-18 00:39:54.14	22.85	6.83	
2025-01-18 00:39:54.34	22.86	6.85	
2025-01-18 00:39:54.55	22.87	6.86	
2025-01-18 00:39:54.75	22.88	6.88	
2025-01-18 00:39:54.95	22.89	6.89	
2025-01-18 00:39:55.15	22.90	6.91	
2025-01-18 00:39:55.36	22.91	6.92	
2025-01-18 00:39:55.56	22.92	6.94	
2025-01-18 00:39:55.76	22.93	6.96	
2025-01-18 00:39:55.97	22.94	6.97	
2025-01-18 00:39:56.17	22.95	6.99	
2025-01-18 00:39:56.37	22.96	7.00	
2025-01-18 00:39:56.58	22.97	7.02	
2025-01-18 00:39:56.78	22.98	7.03	
2025-01-18 00:39:56.98	22.99	7.05	
2025-01-18 00:39:57.18	23.00	7.07	
2025-01-18 00:39:57.39	23.01	7.08	
2025-01-18 00:39:57.59	23.02	7.10	
2025-01-18 00:39:57.79	23.03	7.11	
2025-01-18 00:39:58.00	23.04	7.13	
2025-01-18 00:39:58.20	23.05	7.15	
2025-01-18 00:39:58.40	23.06	7.16	
2025-01-18 00:39:58.61	23.07	7.18	
2025-01-18 00:39:58.81	23.08	7.19	
2025-01-18 00:39:59.01	23.09	7.21	
2025-01-18 00:39:59.21	23.10	7.23	
2025-01-18 00:39:59.42	23.12	7.24	
2025-01-18 00:39:59.62	23.13	7.26	
2025-01-18 00:39:59.82	23.14	7.27	
2025-01-18 00:40:00.03	23.15	7.29	
2025-01-18 00:40:00.23	23.16	7.31	
2025-01-18 00:40:00.43	23.17	7.32	
2025-01-18 00:40:00.64	23.18	7.34	
2025-01-18 00:40:00.84	23.19	7.35	
2025-01-18 00:40:01.04	23.20	7.37	
2025-01-18 00:40:01.24	23.21	7.39	
2025-01-18 00:40:01.45	23.22	7.40	
2025-01-18 00:40:01.65	23.23	7.42	
2025-01-18 00:40:01.85	23.24	7.43	
2025-01-18 00:40:02.06	23.25	7.45	
2025-01-18 00:40:02.26	23.26	7.47	
2025-01-18 00:40:02.46	23.27	7.48	
2025-01-18 00:40:02.67	23.29	7.50	
2025-01-18 00:40:02.87	23.30	7.51	
2025-01-18 00:40:03.07	23.31	7.53	
2025-01-18 00:40:03.27	23.32	7.55	
2025-01-18 00:40:03.48	23.33	7.56	
2025-01-18 00:40:03.68	23.34	7.58	
2025-01-18 00:40:03.88	23.35	7.59	
2025-01-18 00:40:04.09	23.36	7.61	
2025-01-18 00:40:04.29	23.37	7.63	
2025-01-18 00:40:04.49	23.38	7.64	
2025-01-18 00:40:04.69	23.39	7.66	
2025-01-18 00:40:04.90	23.40	7.68	
2025-01-18 00:40:05.10	23.41	7.69	
2025-01-18 00:40:05.30	23.43	7.71	
2025-01-18 00:40:05.51	23.44	7.73	
2025-01-18 00:40:05.71	23.45	7.74	
2025-01-18 00:40:05.91	23.46	7.76	
2025-01-18 00:40:06.12	23.47	7.77	
2025-01-18 00:40:06.32	23.48	7.79	
2025-01-18 00:40:06.52	23.49	7.81	
2025-01-18 00:40:06.72	23.50	7.82	
2025-01-18 00:40:06.93	23.51	7.84	
2025-01-18 00:40:07.13	23.52	7.86	
2025-01-18 00:40:07.33	23.53	7.87	
2025-01-18 00:40:07.54	23.55	7.89	
2025-01-18 00:40:07.74	23.56	7.90	
2025-01-18 00:40:07.94	23.57	7.92	
2025-01-18 00:40:08.15	23.58	7.94	
2025-01-18 00:40:08.35	23.59	7.95	
2025-01-18 00:40:08.55	23.60	7.97	
2025-01-18 00:40:08.75	23.61	7.99	
2025-01-18 00:40:08.96	23.62	8.00	
2025-01-18 00:40:09.16	23.63	8.02	
2025-01-18 00:40:09.36	23.64	8.04	
2025-01-18 00:40:09.57	23.66	8.05	
2025-01-18 00:40:09.77	23.67	8.07	
2025-01-18 00:40:09.97	23.68	8.09	
2025-01-18 00:40:10.18	23.69	8.10	
2025-01-18 00:40:10.38	23.70	8.12	
2025-01-18 00:40:10.58	23.71	8.14	
2025-01-18 00:40:10.78	23.72	8.15	
2025-01-18 00:40:10.99	23.73	8.17	
2025-01-18 00:40:11.19	23.75	8.19	
2025-01-18 00:40:11.39	23.76	8.20	
2025-01-18 00:40:11.60	23.77	8.22	
2025-01-18 00:40:11.80	23.78	8.24	
2025-01-18 00:40:12.00	23.79	8.25	
2025-01-18 00:40:12.21	23.80	8.27	
2025-01-18 00:40:12.41	23.81	8.29	
2025-01-18 00:40:12.61	23.82	8.30	
2025-01-18 00:40:12.81	23.84	8.32	
2025-01-18 00:40:13.02	23.85	8.34	
2025-01-18 00:40:13.22	23.86	8.35	
2025-01-18 00:40:13.42	23.87	8.37	
2025-01-18 00:40:13.63	23.88	8.39	
2025-01-18 00:40:13.83	23.89	8.40	
2025-01-18 00:40:14.03	23.90	8.42	
2025-01-18 00:40:14.23	23.91	8.43	
2025-01-18 00:40:14.44	23.93	8.45	
2025-01-18 00:40:14.64	23.94	8.47	
2025-01-18 00:40:14.84	23.95	8.49	
2025-01-18 00:40:15.05	23.96	8.50	
2025-01-18 00:40:15.25	23.97	8.52	
2025-01-18 00:40:15.45	23.98	8.54	
2025-01-18 00:40:15.66	24.00	8.55	
2025-01-18 00:40:15.86	24.01	8.57	
2025-01-18 00:40:16.06	24.02	8.59	
2025-01-18 00:40:16.26	24.03	8.60	
2025-01-18 00:40:16.47	24.04	8.62	
2025-01-18 00:40:16.67	24.05	8.64	
2025-01-18 00:40:16.87	24.06	8.65	
2025-01-18 00:40:17.08	24.08	8.67	
2025-01-18 00:40:17.28	24.09	8.69	
2025-01-18 00:40:17.48	24.10	8.70	
2025-01-18 00:40:17.69	24.11	8.72	
2025-01-18 00:40:17.89	24.12	8.74	
2025-01-18 00:40:18.09	24.13	8.76	
2025-01-18 00:40:18.29	24.15	8.77	
2025-01-18 00:40:18.50	24.16	8.79	
2025-01-18 00:40:18.70	24.17	8.81	
2025-01-18 00:40:18.90	24.18	8.82	
2025-01-18 00:40:19.11	24.19	8.84	
2025-01-18 00:40:19.31	24.20	8.86	
2025-01-18 00:40:19.51	24.22	8.87	
2025-01-18 00:40:19.72	24.23	8.89	
2025-01-18 00:40:19.92	24.24	8.91	
2025-01-18 00:40:20.12	24.25	8.93	
2025-01-18 00:40:20.32	24.26	8.94	
2025-01-18 00:40:20.53	24.28	8.96	
2025-01-18 00:40:20.73	24.29	8.98	
2025-01-18 00:40:20.93	24.30	8.99	
2025-01-18 00:40:21.14	24.31	9.01	
2025-01-18 00:40:21.34	24.32	9.03	
2025-01-18 00:40:21.54	24.33	9.05	
2025-01-18 00:40:21.75	24.35	9.06	
2025-01-18 00:40:21.95	24.36	9.08	
2025-01-18 00:40:22.15	24.37	9.10	
2025-01-18 00:40:22.35	24.38	9.12	
2025-01-18 00:40:22.56	24.39	9.13	
2025-01-18 00:40:22.76	24.41	9.15	
2025-01-18 00:40:22.96	24.42	9.17	
2025-01-18 00:40:23.17	24.43	9.18	
2025-01-18 00:40:23.37	24.44	9.20	
2025-01-18 00:40:23.57	24.45	9.22	
2025-01-18 00:40:23.78	24.47	9.24	
2025-01-18 00:40:23.98	24.48	9.25	
2025-01-18 00:40:24.18	24.49	9.27	
2025-01-18 00:40:24.38	24.50	9.29	
2025-01-18 00:40:24.59	24.51	9.31	
2025-01-18 00:40:24.79	24.53	9.32	
2025-01-18 00:40:24.99	24.54	9.34	
2025-01-18 00:40:25.20	24.55	9.36	
2025-01-18 00:40:25.40	24.56	9.38	
2025-01-18 00:40:25.60	24.58	9.39	
2025-01-18 00:40:25.80	24.59	9.41	
2025-01-18 00:40:26.01	24.60	9.43	
2025-01-18 00:40:26.21	24.61	9.45	
2025-01-18 00:40:26.41	24.62	9.46	
2025-01-18 00:40:26.62	24.64	9.48	
2025-01-18 00:40:26.82	24.65	9.50	
2025-01-18 00:40:27.02	24.66	9.52	
2025-01-18 00:40:27.23	24.67	9.53	
2025-01-18 00:40:27.43	24.69	9.55	
2025-01-18 00:40:27.63	24.70	9.57	
2025-01-18 00:40:27.83	24.71	9.59	
2025-01-18 00:40:28.04	24.72	9.60	
2025-01-18 00:40:28.24	24.73	9.62	
2025-01-18 00:40:28.44	24.75	9.64	
2025-01-18 00:40:28.65	24.76	9.66	
2025-01-18 00:40:28.85	24.77	9.67	
2025-01-18 00:40:29.05	24.78	9.69	
2025-01-18 00:40:29.26	24.80	9.71	
2025-01-18 00:40:29.46	24.81	9.73	
2025-01-18 00:40:29.66	24.82	9.74	
2025-01-18 00:40:29.86	24.83	9.76	
2025-01-18 00:40:30.07	24.85	9.78	
2025-01-18 00:40:30.27	24.86	9.80	
2025-01-18 00:40:30.47	24.87	9.81	
2025-01-18 00:40:30.68	24.88	9.83	
2025-01-18 00:40:30.88	24.90	9.85	
2025-01-18 00:40:31.08	24.91	9.87	
2025-01-18 00:40:31.29	24.92	9.89	
2025-01-18 00:40:31.49	24.93	9.90	
2025-01-18 00:40:31.69	24.95	9.92	
2025-01-18 00:40:31.89	24.96	9.94	
2025-01-18 00:40:32.10	24.97	9.96	
2025-01-18 00:40:32.30	24.99	9.98	
2025-01-18 00:40:32.50	25.00	9.99	
2025-01-18 00:40:32.71	25.01	10.01	
2025-01-18 00:40:32.91	25.02	10.03	
2025-01-18 00:40:33.11	25.04	10.05	
2025-01-18 00:40:33.32	25.05	10.07	
2025-01-18 00:40:33.52	25.06	10.08	
2025-01-18 00:40:33.72	25.07	10.10	
2025-01-18 00:40:33.92	25.09	10.12	
2025-01-18 00:40:34.13	25.10	10.14	
2025-01-18 00:40:34.33	25.11	10.15	
2025-01-18 00:40:34.53	25.13	10.17	
2025-01-18 00:40:34.74	25.14	10.19	
2025-01-18 00:40:34.94	25.15	10.21	
2025-01-18 00:40:35.14	25.16	10.23	
2025-01-18 00:40:35.34	25.18	10.24	
2025-01-18 00:40:35.55	25.19	10.26	
2025-01-18 00:40:35.75	25.20	10.28	
2025-01-18 00:40:35.95	25.22	10.30	
2025-01-18 00:40:36.16	25.23	10.32	
2025-01-18 00:40:36.36	25.24	10.34	
2025-01-18 00:40:36.56	25.25	10.35	
2025-01-18 00:40:36.77	25.27	10.37	
2025-01-18 00:40:36.97	25.28	10.39	
2025-01-18 00:40:37.17	25.29	10.41	
2025-01-18 00:40:37.37	25.31	10.43	
2025-01-18 00:40:37.58	25.32	10.45	
2025-01-18 00:40:37.78	25.33	10.46	
2025-01-18 00:40:37.98	25.35	10.48	
2025-01-18 00:40:38.19	25.36	10.50	
2025-01-18 00:40:38.39	25.37	10.52	
2025-01-18 00:40:38.59	25.39	10.54	
2025-01-18 00:40:38.80	25.40	10.55	
2025-01-18 00:40:39.00	25.41	10.57	
2025-01-18 00:40:39.20	25.43	10.59	
2025-01-18 00:40:39.40	25.44	10.61	
2025-01-18 00:40:39.61	25.45	10.63	
2025-01-18 00:40:39.81	25.47	10.65	
2025-01-18 00:40:40.01	25.48	10.66	
2025-01-18 00:40:40.22	25.49	10.68	
2025-01-18 00:40:40.42	25.51	10.70	
2025-01-18 00:40:40.62	25.52	10.72	
2025-01-18 00:40:40.83	25.53	10.74	
2025-01-18 00:40:41.03	25.55	10.76	
2025-01-18 00:40:41.23	25.56	10.78	
2025-01-18 00:40:41.43	25.57	10.79	
2025-01-18 00:40:41.64	25.59	10.81	
2025-01-18 00:40:41.84	25.60	10.83	
2025-01-18 00:40:42.04	25.61	10.85	
2025-01-18 00:40:42.25	25.63	10.87	
2025-01-18 00:40:42.45	25.64	10.89	
2025-01-18 00:40:42.65	25.65	10.90	
2025-01-18 00:40:42.86	25.67	10.92	
2025-01-18 00:40:43.06	25.68	10.94	
2025-01-18 00:40:43.26	25.69	10.96	
2025-01-18 00:40:43.46	25.71	10.98	
2025-01-18 00:40:43.67	25.72	11.00	
2025-01-18 00:40:43.87	25.73	11.02	
2025-01-18 00:40:44.07	25.75	11.03	
2025-01-18 00:40:44.28	25.76	11.05	
2025-01-18 00:40:44.48	25.78	11.07	
2025-01-18 00:40:44.68	25.79	11.09	
2025-01-18 00:40:44.88	25.80	11.11	
2025-01-18 00:40:45.09	25.82	11.13	
2025-01-18 00:40:45.29	25.83	11.15	
2025-01-18 00:40:45.49	25.84	11.17	
2025-01-18 00:40:45.70	25.86	11.19	
2025-01-18 00:40:45.90	25.87	11.20	
2025-01-18 00:40:46.10	25.88	11.22	
2025-01-18 00:40:46.31	25.90	11.24	
2025-01-18 00:40:46.51	25.91	11.26	
2025-01-18 00:40:46.71	25.93	11.28	
2025-01-18 00:40:46.91	25.94	11.30	
2025-01-18 00:40:47.12	25.95	11.32	
2025-01-18 00:40:47.32	25.97	11.34	
2025-01-18 00:40:47.52	25.98	11.35	
2025-01-18 00:40:47.73	26.00	11.37	
2025-01-18 00:40:47.93	26.01	11.39	
2025-01-18 00:40:48.13	26.02	11.41	
2025-01-18 00:40:48.34	26.04	11.43	
2025-01-18 00:40:48.54	26.05	11.45	
2025-01-18 00:40:48.74	26.07	11.47	
2025-01-18 00:40:48.94	26.08	11.49	
2025-01-18 00:40:49.15	26.09	11.51	
2025-01-18 00:40:49.35	26.11	11.53	
2025-01-18 00:40:49.55	26.12	11.54	
2025-01-18 00:40:49.76	26.14	11.56	
2025-01-18 00:40:49.96	26.15	11.58	
2025-01-18 00:40:50.16	26.16	11.60	
2025-01-18 00:40:50.37	26.18	11.62	
2025-01-18 00:40:50.57	26.19	11.64	
2025-01-18 00:40:50.77	26.21	11.66	
2025-01-18 00:40:50.97	26.22	11.68	
2025-01-18 00:40:51.18	26.24	11.70	
2025-01-18 00:40:51.38	26.25	11.72	
2025-01-18 00:40:51.58	26.26	11.74	
2025-01-18 00:40:51.79	26.28	11.76	
2025-01-18 00:40:51.99	26.29	11.78	
2025-01-18 00:40:52.19	26.31	11.79	
2025-01-18 00:40:52.40	26.32	11.81	
2025-01-18 00:40:52.60	26.34	11.83	
2025-01-18 00:40:52.80	26.35	11.85	
2025-01-18 00:40:53.00	26.36	11.87	
2025-01-18 00:40:53.21	26.38	11.89	
2025-01-18 00:40:53.41	26.39	11.91	
2025-01-18 00:40:53.61	26.41	11.93	
2025-01-18 00:40:53.82	26.42	11.95	
2025-01-18 00:40:54.02	26.44	11.97	
2025-01-18 00:40:54.22	26.45	11.99	
2025-01-18 00:40:54.43	26.47	12.01	
2025-01-18 00:40:54.63	26.48	12.03	
2025-01-18 00:40:54.83	26.50	12.05	
2025-01-18 00:40:55.03	26.51	12.07	
2025-01-18 00:40:55.24	26.53	12.09	
2025-01-18 00:40:55.44	26.54	12.10	
2025-01-18 00:40:55.64	26.55	12.12	
2025-01-18 00:40:55.85	26.57	12.14	
2025-01-18 00:40:56.05	26.58	12.16	
2025-01-18 00:40:56.25	26.60	12.18	
2025-01-18 00:40:56.45	26.61	12.20	
2025-01-18 00:40:56.66	26.63	12.22	
2025-01-18 00:40:56.86	26.64	12.24	
2025-01-18 00:40:57.06	26.66	12.26	
2025-01-18 00:40:57.27	26.67	12.28	
2025-01-18 00:40:57.47	26.69	12.30	
2025-01-18 00:40:57.67	26.70	12.32	
2025-01-18 00:40:57.88	26.72	12.34	
2025-01-18 00:40:58.08	26.73	12.36	
2025-01-18 00:40:58.28	26.75	12.38	
2025-01-18 00:40:58.48	26.76	12.40	
2025-01-18 00:40:58.69	26.78	12.42	
2025-01-18 00:40:58.89	26.79	12.44	
2025-01-18 00:40:59.09	26.81	12.46	
2025-01-18 00:40:59.30	26.82	12.48	
2025-01-18 00:40:59.50	26.84	12.50	
2025-01-18 00:40:59.70	26.85	12.52	
2025-01-18 00:40:59.91	26.87	12.54	
2025-01-18 00:41:00.11	26.88	12.56	
2025-01-18 00:41:00.31	26.90	12.58	
2025-01-18 00:41:00.51	26.91	12.60	
2025-01-18 00:41:00.72	26.93	12.62	
2025-01-18 00:41:00.92	26.94	12.64	
2025-01-18 00:41:01.12	26.96	12.66	
2025-01-18 00:41:01.33	26.97	12.68	
2025-01-18 00:41:01.53	26.99	12.70	
2025-01-18 00:41:01.73	27.00	12.72	
2025-01-18 00:41:01.94	27.02	12.74	
2025-01-18 00:41:02.14	27.04	12.76	
2025-01-18 00:41:02.34	27.05	12.78	
2025-01-18 00:41:02.54	27.07	12.80	
2025-01-18 00:41:02.75	27.08	12.82	
2025-01-18 00:41:02.95	27.10	12.84	
2025-01-18 00:41:03.15	27.11	12.86	
2025-01-18 00:41:03.36	27.13	12.88	
2025-01-18 00:41:03.56	27.14	12.90	
2025-01-18 00:41:03.76	27.16	12.92	
2025-01-18 00:41:03.97	27.17	12.94	
2025-01-18 00:41:04.17	27.19	12.96	
2025-01-18 00:41:04.37	27.20	12.98	
2025-01-18 00:41:04.57	27.22	13.00	
2025-01-18 00:41:04.78	27.24	13.02	
2025-01-18 00:41:04.98	27.25	13.04	
2025-01-18 00:41:05.18	27.27	13.06	
2025-01-18 00:41:05.39	27.28	13.08	
2025-01-18 00:41:05.59	27.30	13.10	
2025-01-18 00:41:05.79	27.31	13.12	
2025-01-18 00:41:05.99	27.33	13.14	
2025-01-18 00:41:06.20	27.35	13.16	
2025-01-18 00:41:06.40	27.36	13.18	
2025-01-18 00:41:06.60	27.38	13.20	
2025-01-18 00:41:06.81	27.39	13.22	
2025-01-18 00:41:07.01	27.41	13.24	
2025-01-18 00:41:07.21	27.43	13.26	
2025-01-18 00:41:07.42	27.44	13.29	
2025-01-18 00:41:07.62	27.46	13.31	
2025-01-18 00:41:07.82	27.47	13.33	
2025-01-18 00:41:08.02	27.49	13.35	
2025-01-18 00:41:08.23	27.51	13.37	
2025-01-18 00:41:08.43	27.52	13.39	
2025-01-18 00:41:08.63	27.54	13.41	
2025-01-18 00:41:08.84	27.55	13.43	
2025-01-18 00:41:09.04	27.57	13.45	
2025-01-18 00:41:09.24	27.58	13.47	
2025-01-18 00:41:09.45	27.60	13.49	
2025-01-18 00:41:09.65	27.62	13.51	
2025-01-18 00:41:09.85	27.63	13.53	
2025-01-18 00:41:10.05	27.65	13.55	
2025-01-18 00:41:10.26	27.67	13.57	
2025-01-18 00:41:10.46	27.68	13.60	
2025-01-18 00:41:10.66	27.70	13.62	
2025-01-18 00:41:10.87	27.72	13.64	
2025-01-18 00:41:11.07	27.73	13.66	
2025-01-18 00:41:11.27	27.75	13.68	
2025-01-18 00:41:11.48	27.76	13.70	
2025-01-18 00:41:11.68	27.78	13.72	
2025-01-18 00:41:11.88	27.80	13.74	
2025-01-18 00:41:12.08	27.81	13.76	
2025-01-18 00:41:12.29	27.83	13.78	
2025-01-18 00:41:12.49	27.85	13.80	
2025-01-18 00:41:12.69	27.86	13.82	
2025-01-18 00:41:12.90	27.88	13.85	
2025-01-18 00:41:13.10	27.90	13.87	
2025-01-18 00:41:13.30	27.91	13.89	
2025-01-18 00:41:13.51	27.93	13.91	
2025-01-18 00:41:13.71	27.95	13.93	
2025-01-18 00:41:13.91	27.96	13.95	
2025-01-18 00:41:14.11	27.98	13.97	
2025-01-18 00:41:14.32	28.00	13.99	
2025-01-18 00:41:14.52	28.01	14.01	
2025-01-18 00:41:14.72	28.03	14.04	
2025-01-18 00:41:14.93	28.05	14.06	
2025-01-18 00:41:15.13	28.06	14.08	
2025-01-18 00:41:15.33	28.08	14.10	
2025-01-18 00:41:15.53	28.10	14.12	
2025-01-18 00:41:15.74	28.11	14.14	
2025-01-18 00:41:15.94	28.13	14.16	
2025-01-18 00:41:16.14	28.15	14.18	
2025-01-18 00:41:16.35	28.16	14.21	
2025-01-18 00:41:16.55	28.18	14.23	
2025-01-18 00:41:16.75	28.20	14.25	
2025-01-18 00:41:16.96	28.21	14.27	
2025-01-18 00:41:17.16	28.23	14.29	
2025-01-18 00:41:17.36	28.25	14.31	
2025-01-18 00:41:17.56	28.26	14.33	
2025-01-18 00:41:17.77	28.28	14.36	
2025-01-18 00:41:17.97	28.30	14.38	
2025-01-18 00:41:18.17	28.32	14.40	
2025-01-18 00:41:18.38	28.33	14.42	
2025-01-18 00:41:18.58	28.35	14.44	
2025-01-18 00:41:18.78	28.37	14.46	
2025-01-18 00:41:18.99	28.39	14.48	
2025-01-18 00:41:19.19	28.40	14.51	
2025-01-18 00:41:19.39	28.42	14.53	
2025-01-18 00:41:19.59	28.44	14.55	
2025-01-18 00:41:19.80	28.45	14.57	
2025-01-18 00:41:20.00	28.47	14.59	
2025-01-18 00:41:20.20	28.49	14.61	
2025-01-18 00:41:20.41	28.51	14.64	
2025-01-18 00:41:20.61	28.52	14.66	
2025-01-18 00:41:20.81	28.54	14.68	
2025-01-18 00:41:21.03	28.56	14.70	
2025-01-18 00:41:21.23	28.58	14.72	
2025-01-18 00:41:21.44	28.60	14.75	
2025-01-18 00:41:21.64	28.61	14.77	
2025-01-18 00:41:21.84	28.63	14.79	
2025-01-18 00:41:22.05	28.65	14.81	
2025-01-18 00:41:22.25	28.67	14.83	
2025-01-18 00:41:22.45	28.68	14.85	
2025-01-18 00:41:22.65	28.70	14.88	
2025-01-18 00:41:22.86	28.72	14.90	
2025-01-18 00:41:23.06	28.74	14.92	
2025-01-18 00:41:23.26	28.75	14.94	
2025-01-18 00:41:23.47	28.77	14.96	
2025-01-18 00:41:23.67	28.79	14.99	
2025-01-18 00:41:23.87	28.81	15.01	
2025-01-18 00:41:24.08	28.83	15.03	
2025-01-18 00:41:24.28	28.84	15.05	
2025-01-18 00:41:24.48	28.86	15.07	
2025-01-18 00:41:24.68	28.88	15.10	
2025-01-18 00:41:24.89	28.90	15.12	
2025-01-18 00:41:25.09	28.92	15.14	
2025-01-18 00:41:25.29	28.93	15.16	
2025-01-18 00:41:25.50	28.95	15.19	
2025-01-18 00:41:25.70	28.97	15.21	
2025-01-18 00:41:25.90	28.99	15.23	
2025-01-18 00:41:26.11	29.01	15.25	
2025-01-18 00:41:26.31	29.03	15.27	
2025-01-18 00:41:26.51	29.04	15.30	
2025-01-18 00:41:26.71	29.06	15.32	
2025-01-18 00:41:26.92	29.08	15.34	
2025-01-18 00:41:27.12	29.10	15.36	
2025-01-18 00:41:27.32	29.12	15.39	
2025-01-18 00:41:27.53	29.14	15.41	
2025-01-18 00:41:27.73	29.15	15.43	
2025-01-18 00:41:27.93	29.17	15.45	
2025-01-18 00:41:28.14	29.19	15.48	
2025-01-18 00:41:28.34	29.21	15.50	
2025-01-18 00:41:28.54	29.23	15.52	
2025-01-18 00:41:28.74	29.25	15.54	
2025-01-18 00:41:28.95	29.26	15.57	
2025-01-18 00:41:29.15	29.28	15.59	
2025-01-18 00:41:29.35	29.30	15.61	
2025-01-18 00:41:29.56	29.32	15.63	
2025-01-18 00:41:29.76	29.34	15.66	
2025-01-18 00:41:29.96	29.36	15.68	
2025-01-18 00:41:30.17	29.38	15.70	
2025-01-18 00:41:30.37	29.40	15.72	
2025-01-18 00:41:30.57	29.41	15.75	
2025-01-18 00:41:30.77	29.43	15.77	
2025-01-18 00:41:30.98	29.45	15.79	
2025-01-18 00:41:31.18	29.47	15.81	
2025-01-18 00:41:31.38	29.49	15.84	
2025-01-18 00:41:31.59	29.51	15.86	
2025-01-18 00:41:31.79	29.53	15.88	
2025-01-18 00:41:31.99	29.55	15.91	
2025-01-18 00:41:32.19	29.56	15.93	
2025-01-18 00:41:32.40	29.58	15.95	
2025-01-18 00:41:32.60	29.60	15.97	
2025-01-18 00:41:32.80	29.62	16.00	
2025-01-18 00:41:33.01	29.64	16.02	
2025-01-18 00:41:33.21	29.66	16.04	
2025-01-18 00:41:33.41	29.68	16.07	
2025-01-18 00:41:33.62	29.70	16.09	
2025-01-18 00:41:33.82	29.72	16.11	
2025-01-18 00:41:34.02	29.74	16.13	
2025-01-18 00:41:34.22	29.76	16.16	
2025-01-18 00:41:34.43	29.78	16.18	
2025-01-18 00:41:34.63	29.80	16.20	
2025-01-18 00:41:34.83	29.81	16.23	
2025-01-18 00:41:35.04	29.83	16.25	
2025-01-18 00:41:35.24	29.85	16.27	
2025-01-18 00:41:35.44	29.87	16.30	
2025-01-18 00:41:35.65	29.89	16.32	
2025-01-18 00:41:35.85	29.91	16.34	
2025-01-18 00:41:36.05	29.93	16.37	
2025-01-18 00:41:36.25	29.95	16.39	
2025-01-18 00:41:36.46	29.97	16.41	
2025-01-18 00:41:36.66	29.99	16.44	
2025-01-18 00:41:36.86	30.01	16.46	
2025-01-18 00:41:37.07	30.03	16.48	
2025-01-18 00:41:37.27	30.05	16.51	
2025-01-18 00:41:37.47	30.07	16.53	
2025-01-18 00:41:37.68	30.09	16.55	
2025-01-18 00:41:37.88	30.11	16.58	
2025-01-18 00:41:38.08	30.13	16.60	
2025-01-18 00:41:38.28	30.15	16.62	
2025-01-18 00:41:38.49	30.17	16.65	
2025-01-18 00:41:38.69	30.19	16.67	
2025-01-18 00:41:38.89	30.21	16.69	
2025-01-18 00:41:39.10	30.23	16.72	
2025-01-18 00:41:39.30	30.25	16.74	
2025-01-18 00:41:39.50	30.27	16.76	
2025-01-18 00:41:39.71	30.29	16.79	
2025-01-18 00:41:39.91	30.31	16.81	
2025-01-18 00:41:40.11	30.33	16.84	
2025-01-18 00:41:40.31	30.35	16.86	
2025-01-18 00:41:40.52	30.37	16.88	
2025-01-18 00:41:40.72	30.39	16.91	
2025-01-18 00:41:40.92	30.41	16.93	
2025-01-18 00:41:41.13	30.43	16.95	
2025-01-18 00:41:41.33	30.45	16.98	
2025-01-18 00:41:41.53	30.47	17.00	
2025-01-18 00:41:41.73	30.49	17.03	
2025-01-18 00:41:41.94	30.51	17.05	
2025-01-18 00:41:42.14	30.53	17.07	
2025-01-18 00:41:42.34	30.55	17.10	
2025-01-18 00:41:42.55	30.58	17.12	
2025-01-18 00:41:42.75	30.60	17.15	
2025-01-18 00:41:42.95	30.62	17.17	
2025-01-18 00:41:43.16	30.64	17.19	
2025-01-18 00:41:43.36	30.66	17.22	
2025-01-18 00:41:43.56	30.68	17.24	
2025-01-18 00:41:43.76	30.70	17.27	
2025-01-18 00:41:43.97	30.72	17.29	
2025-01-18 00:41:44.17	30.74	17.31	
2025-01-18 00:41:44.37	30.76	17.34	
2025-01-18 00:41:44.58	30.78	17.36	
2025-01-18 00:41:44.78	30.80	17.39	
2025-01-18 00:41:44.98	30.83	17.41	
2025-01-18 00:41:45.19	30.85	17.44	
2025-01-18 00:41:45.39	30.87	17.46	
2025-01-18 00:41:45.59	30.89	17.48	
2025-01-18 00:41:45.79	30.91	17.51	
2025-01-18 00:41:46.00	30.93	17.53	
2025-01-18 00:41:46.20	30.95	17.56	
2025-01-18 00:41:46.40	30.97	17.58	
2025-01-18 00:41:46.61	31.00	17.61	
2025-01-18 00:41:46.81	31.02	17.63	
2025-01-18 00:41:47.01	31.04	17.65	
2025-01-18 00:41:47.22	31.06	17.68	
2025-01-18 00:41:47.42	31.08	17.70	
2025-01-18 00:41:47.62	31.10	17.73	
2025-01-18 00:41:47.82	31.12	17.75	
2025-01-18 00:41:48.03	31.15	17.78	
2025-01-18 00:41:48.23	31.17	17.80	
2025-01-18 00:41:48.43	31.19	17.83	
2025-01-18 00:41:48.64	31.21	17.85	
2025-01-18 00:41:48.84	31.23	17.88	
2025-01-18 00:41:49.04	31.25	17.90	
2025-01-18 00:41:49.25	31.28	17.93	
2025-01-18 00:41:49.45	31.30	17.95	
2025-01-18 00:41:49.65	31.32	17.97	
2025-01-18 00:41:49.85	31.34	18.00	
2025-01-18 00:41:50.06	31.36	18.02	
2025-01-18 00:41:50.26	31.38	18.05	
2025-01-18 00:41:50.46	31.41	18.07	
2025-01-18 00:41:50.67	31.43	18.10	
2025-01-18 00:41:50.87	31.45	18.12	
2025-01-18 00:41:51.07	31.47	18.15	
2025-01-18 00:41:51.27	31.49	18.17	
2025-01-18 00:41:51.48	31.52	18.20	
2025-01-18 00:41:51.68	31.54	18.22	
2025-01-18 00:41:51.88	31.56	18.25	
2025-01-18 00:41:52.09	31.58	18.27	
2025-01-18 00:41:52.29	31.61	18.30	
2025-01-18 00:41:52.49	31.63	18.32	
2025-01-18 00:41:52.70	31.65	18.35	
2025-01-18 00:41:52.90	31.67	18.37	
2025-01-18 00:41:53.10	31.70	18.40	
2025-01-18 00:41:53.30	31.72	18.42	
2025-01-18 00:41:53.51	31.74	18.45	
2025-01-18 00:41:53.71	31.76	18.47	
2025-01-18 00:41:53.91	31.79	18.50	
2025-01-18 00:41:54.12	31.81	18.53	
2025-01-18 00:41:54.32	31.83	18.55	
2025-01-18 00:41:54.52	31.85	18.58	
2025-01-18 00:41:54.73	31.88	18.60	
2025-01-18 00:41:54.93	31.90	18.63	
2025-01-18 00:41:55.13	31.92	18.65	
2025-01-18 00:41:55.33	31.94	18.68	
2025-01-18 00:41:55.54	31.97	18.70	
2025-01-18 00:41:55.74	31.99	18.73	
2025-01-18 00:41:55.94	32.01	18.75	
2025-01-18 00:41:56.15	32.04	18.78	
2025-01-18 00:41:56.35	32.06	18.81	
2025-01-18 00:41:56.55	32.08	18.83	
2025-01-18 00:41:56.76	32.11	18.86	
2025-01-18 00:41:56.96	32.13	18.88	
2025-01-18 00:41:57.16	32.15	18.91	
2025-01-18 00:41:57.36	32.18	18.93	
2025-01-18 00:41:57.57	32.20	18.96	
2025-01-18 00:41:57.77	32.22	18.98	
2025-01-18 00:41:57.97	32.25	19.01	
2025-01-18 00:41:58.18	32.27	19.04	
2025-01-18 00:41:58.38	32.29	19.06	
2025-01-18 00:41:58.58	32.32	19.09	
2025-01-18 00:41:58.79	32.34	19.11	
2025-01-18 00:41:58.99	32.36	19.14	
2025-01-18 00:41:59.19	32.39	19.17	
2025-01-18 00:41:59.39	32.41	19.19	
2025-01-18 00:41:59.60	32.43	19.22	
2025-01-18 00:41:59.80	32.46	19.24	
2025-01-18 00:42:00.00	32.48	19.27	
2025-01-18 00:42:00.21	32.51	19.30	
2025-01-18 00:42:00.41	32.53	19.32	
2025-01-18 00:42:00.61	32.55	19.35	
2025-01-18 00:42:00.82	32.58	19.37	
2025-01-18 00:42:01.02	32.60	19.40	
2025-01-18 00:42:01.22	32.63	19.43	
2025-01-18 00:42:01.42	32.65	19.45	
2025-01-18 00:42:01.63	32.67	19.48	
2025-01-18 00:42:01.83	32.70	19.51	
2025-01-18 00:42:02.03	32.72	19.53	
2025-01-18 00:42:02.24	32.75	19.56	
2025-01-18 00:42:02.44	32.77	19.58	
2025-01-18 00:42:02.64	32.80	19.61	
2025-01-18 00:42:02.84	32.82	19.64	
2025-01-18 00:42:03.05	32.84	19.66	
2025-01-18 00:42:03.25	32.87	19.69	
2025-01-18 00:42:03.45	32.89	19.72	
2025-01-18 00:42:03.66	32.92	19.74	
2025-01-18 00:42:03.86	32.94	19.77	
2025-01-18 00:42:04.06	32.97	19.80	
2025-01-18 00:42:04.27	32.99	19.82	
2025-01-18 00:42:04.47	33.02	19.85	
2025-01-18 00:42:04.67	33.04	19.88	
2025-01-18 00:42:04.87	33.07	19.90	
2025-01-18 00:42:05.08	33.09	19.93	
2025-01-18 00:42:05.28	33.12	19.96	
2025-01-18 00:42:05.48	33.14	19.98	
2025-01-18 00:42:05.69	33.17	20.01	
2025-01-18 00:42:05.89	33.19	20.04	
2025-01-18 00:42:06.09	33.22	20.06	
2025-01-18 00:42:06.30	33.24	20.09	
2025-01-18 00:42:06.50	33.27	20.12	
2025-01-18 00:42:06.70	33.29	20.14	
2025-01-18 00:42:06.90	33.32	20.17	
2025-01-18 00:42:07.11	33.34	20.20	
2025-01-18 00:42:07.31	33.37	20.22	
2025-01-18 00:42:07.51	33.39	20.25	
2025-01-18 00:42:07.72	33.42	20.28	
2025-01-18 00:42:07.92	33.44	20.31	
2025-01-18 00:42:08.12	33.47	20.33	
2025-01-18 00:42:08.33	33.50	20.36	
2025-01-18 00:42:08.53	33.52	20.39	
2025-01-18 00:42:08.73	33.55	20.41	
2025-01-18 00:42:08.93	33.57	20.44	
2025-01-18 00:42:09.14	33.60	20.47	
2025-01-18 00:42:09.34	33.62	20.50	
2025-01-18 00:42:09.54	33.65	20.52	
2025-01-18 00:42:09.75	33.68	20.55	
2025-01-18 00:42:09.95	33.70	20.58	
2025-01-18 00:42:10.15	33.73	20.60	
2025-01-18 00:42:10.36	33.75	20.63	
2025-01-18 00:42:10.56	33.78	20.66	
2025-01-18 00:42:10.76	33.81	20.69	
2025-01-18 00:42:10.96	33.83	20.71	
2025-01-18 00:42:11.17	33.86	20.74	
2025-01-18 00:42:11.37	33.88	20.77	
2025-01-18 00:42:11.57	33.91	20.80	
2025-01-18 00:42:11.78	33.94	20.82	
2025-01-18 00:42:11.98	33.96	20.85	
2025-01-18 00:42:12.18	33.99	20.88	
2025-01-18 00:42:12.38	34.02	20.91	
2025-01-18 00:42:12.59	34.04	20.93	
2025-01-18 00:42:12.79	34.07	20.96	
2025-01-18 00:42:12.99	34.10	20.99	
2025-01-18 00:42:13.20	34.12	21.02	
2025-01-18 00:42:13.40	34.15	21.05	
2025-01-18 00:42:13.60	34.18	21.07	
2025-01-18 00:42:13.81	34.20	21.10	
2025-01-18 00:42:14.01	34.23	21.13	
2025-01-18 00:42:14.21	34.26	21.16	
2025-01-18 00:42:14.41	34.28	21.18	
2025-01-18 00:42:14.62	34.31	21.21	
2025-01-18 00:42:14.82	34.34	21.24	
2025-01-18 00:42:15.02	34.36	21.27	
2025-01-18 00:42:15.23	34.39	21.30	
2025-01-18 00:42:15.43	34.42	21.32	
2025-01-18 00:42:15.63	34.45	21.35	
2025-01-18 00:42:15.84	34.48	21.38	
2025-01-18 00:42:16.04	34.50	21.41	
2025-01-18 00:42:16.24	34.53	21.44	
2025-01-18 00:42:16.44	34.56	21.46	
2025-01-18 00:42:16.65	34.58	21.49	
2025-01-18 00:42:16.85	34.61	21.52	
2025-01-18 00:42:17.05	34.64	21.55	
2025-01-18 00:42:17.26	34.67	21.58	
2025-01-18 00:42:17.46	34.70	21.61	
2025-01-18 00:42:17.66	34.72	21.63	
2025-01-18 00:42:17.87	34.75	21.66	
2025-01-18 00:42:18.07	34.78	21.69	
2025-01-18 00:42:18.27	34.81	21.72	
2025-01-18 00:42:18.47	34.83	21.75	
2025-01-18 00:42:18.68	34.86	21.78	
2025-01-18 00:42:18.88	34.89	21.81	
2025-01-18 00:42:19.08	34.92	21.83	
2025-01-18 00:42:19.29	34.95	21.86	
2025-01-18 00:42:19.49	34.98	21.89	
2025-01-18 00:42:19.69	35.00	21.92	
2025-01-18 00:42:19.90	35.03	21.95	
2025-01-18 00:42:20.10	35.06	21.98	
2025-01-18 00:42:20.30	35.09	22.01	
2025-01-18 00:42:20.50	35.12	22.03	
2025-01-18 00:42:20.71	35.15	22.06	
2025-01-18 00:42:20.91	35.18	22.09	
2025-01-18 00:42:21.11	35.20	22.12	
2025-01-18 00:42:21.32	35.23	22.15	
2025-01-18 00:42:21.52	35.26	22.18	
2025-01-18 00:42:21.72	35.29	22.21	
2025-01-18 00:42:21.92	35.32	22.24	
2025-01-18 00:42:22.13	35.35	22.27	
2025-01-18 00:42:22.33	35.38	22.30	
2025-01-18 00:42:22.53	35.41	22.32	
2025-01-18 00:42:22.74	35.44	22.35	
2025-01-18 00:42:22.94	35.46	22.38	
2025-01-18 00:42:23.14	35.49	22.41	
2025-01-18 00:42:23.35	35.52	22.44	
2025-01-18 00:42:23.55	35.55	22.47	
2025-01-18 00:42:23.75	35.58	22.50	
2025-01-18 00:42:23.95	35.61	22.53	
2025-01-18 00:42:24.16	35.64	22.56	
2025-01-18 00:42:24.36	35.67	22.59	
2025-01-18 00:42:24.56	35.70	22.62	
2025-01-18 00:42:24.77	35.73	22.65	
2025-01-18 00:42:24.97	35.76	22.68	
2025-01-18 00:42:25.17	35.79	22.70	
2025-01-18 00:42:25.38	35.82	22.74	
2025-01-18 00:42:25.58	35.85	22.76	
2025-01-18 00:42:25.78	35.88	22.79	
2025-01-18 00:42:25.98	35.91	22.82	
2025-01-18 00:42:26.19	35.94	22.85	
2025-01-18 00:42:26.39	35.97	22.88	
2025-01-18 00:42:26.59	36.00	22.91	
2025-01-18 00:42:26.80	36.03	22.94	
2025-01-18 00:42:27.00	36.06	22.97	
2025-01-18 00:42:27.20	36.09	23.00	
2025-01-18 00:42:27.41	36.12	23.03	
2025-01-18 00:42:27.61	36.15	23.06	
2025-01-18 00:42:27.81	36.18	23.09	
2025-01-18 00:42:28.01	36.21	23.12	
2025-01-18 00:42:28.22	36.24	23.15	
2025-01-18 00:42:28.42	36.28	23.18	
2025-01-18 00:42:28.62	36.31	23.21	
2025-01-18 00:42:28.83	36.34	23.24	
2025-01-18 00:42:29.03	36.37	23.27	
2025-01-18 00:42:29.23	36.40	23.30	
2025-01-18 00:42:29.44	36.43	23.33	
2025-01-18 00:42:29.64	36.46	23.36	
2025-01-18 00:42:29.84	36.49	23.39	
2025-01-18 00:42:30.04	36.52	23.42	
2025-01-18 00:42:30.25	36.56	23.45	
2025-01-18 00:42:30.45	36.59	23.48	
2025-01-18 00:42:30.65	36.62	23.51	
2025-01-18 00:42:30.86	36.65	23.54	
2025-01-18 00:42:31.06	36.68	23.57	
2025-01-18 00:42:31.26	36.71	23.60	
2025-01-18 00:42:31.46	36.74	23.63	
2025-01-18 00:42:31.67	36.78	23.66	
2025-01-18 00:42:31.87	36.81	23.69	
2025-01-18 00:42:32.07	36.84	23.72	
2025-01-18 00:42:32.28	36.87	23.75	
2025-01-18 00:42:32.48	36.90	23.78	
2025-01-18 00:42:32.68	36.94	23.81	
2025-01-18 00:42:32.89	36.97	23.85	
2025-01-18 00:42:33.09	37.00	23.88	
2025-01-18 00:42:33.29	37.03	23.91	
2025-01-18 00:42:33.49	37.06	23.94	
2025-01-18 00:42:33.70	37.10	23.97	
2025-01-18 00:42:33.90	37.13	24.00	
2025-01-18 00:42:34.10	37.16	24.03	
2025-01-18 00:42:34.31	37.19	24.06	
2025-01-18 00:42:34.51	37.23	24.09	
2025-01-18 00:42:34.71	37.26	24.12	
2025-01-18 00:42:34.92	37.29	24.15	
2025-01-18 00:42:35.12	37.33	24.18	
2025-01-18 00:42:35.32	37.36	24.21	
2025-01-18 00:42:35.52	37.39	24.25	
2025-01-18 00:42:35.73	37.42	24.28	
2025-01-18 00:42:35.93	37.46	24.31	
2025-01-18 00:42:36.13	37.49	24.34	
2025-01-18 00:42:36.34	37.52	24.37	
2025-01-18 00:42:36.54	37.56	24.40	
2025-01-18 00:42:36.74	37.59	24.43	
2025-01-18 00:42:36.95	37.62	24.46	
2025-01-18 00:42:37.15	37.66	24.50	
2025-01-18 00:42:37.35	37.69	24.53	
2025-01-18 00:42:37.55	37.72	24.56	
2025-01-18 00:42:37.76	37.76	24.59	
2025-01-18 00:42:37.96	37.79	24.62	
2025-01-18 00:42:38.16	37.83	24.65	
2025-01-18 00:42:38.37	37.86	24.68	
2025-01-18 00:42:38.57	37.89	24.71	
2025-01-18 00:42:38.77	37.93	24.75	
2025-01-18 00:42:38.98	37.96	24.78	
2025-01-18 00:42:39.18	38.00	24.81	
2025-01-18 00:42:39.38	38.03	24.84	
2025-01-18 00:42:39.58	38.06	24.87	
2025-01-18 00:42:39.79	38.10	24.90	
2025-01-18 00:42:39.99	38.13	24.94	
2025-01-18 00:42:40.19	38.17	24.97	
2025-01-18 00:42:40.40	38.20	25.00	
2025-01-18 00:42:40.60	38.24	25.03	
2025-01-18 00:42:40.80	38.27	25.06	
2025-01-18 00:42:41.01	38.31	25.09	
2025-01-18 00:42:41.21	38.34	25.13	
2025-01-18 00:42:41.41	38.38	25.16	
2025-01-18 00:42:41.61	38.41	25.19	
2025-01-18 00:42:41.82	38.45	25.22	
2025-01-18 00:42:42.02	38.48	25.25	
2025-01-18 00:42:42.22	38.52	25.29	
2025-01-18 00:42:42.43	38.55	25.32	
2025-01-18 00:42:42.63	38.59	25.35	
2025-01-18 00:42:42.83	38.62	25.38	
2025-01-18 00:42:43.03	38.66	25.41	
2025-01-18 00:42:43.24	38.70	25.45	
2025-01-18 00:42:43.44	38.73	25.48	
2025-01-18 00:42:43.64	38.77	25.51	
2025-01-18 00:42:43.85	38.80	25.54	
2025-01-18 00:42:44.05	38.84	25.58	
2025-01-18 00:42:44.25	38.87	25.61	
2025-01-18 00:42:44.46	38.91	25.64	
2025-01-18 00:42:44.66	38.95	25.67	
2025-01-18 00:42:44.86	38.98	25.70	
2025-01-18 00:42:45.06	39.02	25.74	
2025-01-18 00:42:45.27	39.06	25.77	
2025-01-18 00:42:45.47	39.09	25.80	
2025-01-18 00:42:45.67	39.13	25.83	
2025-01-18 00:42:45.88	39.17	25.87	
2025-01-18 00:42:46.08	39.20	25.90	
2025-01-18 00:42:46.28	39.24	25.93	
2025-01-18 00:42:46.49	39.28	25.97	
2025-01-18 00:42:46.69	39.31	26.00	
2025-01-18 00:42:46.89	39.35	26.03	
2025-01-18 00:42:47.09	39.39	26.06	
2025-01-18 00:42:47.30	39.42	26.10	
2025-01-18 00:42:47.50	39.46	26.13	
2025-01-18 00:42:47.70	39.50	26.16	
2025-01-18 00:42:47.91	39.54	26.19	
2025-01-18 00:42:48.11	39.57	26.23	
2025-01-18 00:42:48.31	39.61	26.26	
2025-01-18 00:42:48.52	39.65	26.29	
2025-01-18 00:42:48.72	39.69	26.33	
2025-01-18 00:42:48.92	39.72	26.36	
2025-01-18 00:42:49.12	39.76	26.39	
2025-01-18 00:42:49.33	39.80	26.43	
2025-01-18 00:42:49.53	39.84	26.46	
2025-01-18 00:42:49.73	39.87	26.49	
2025-01-18 00:42:49.94	39.91	26.53	
2025-01-18 00:42:50.14	39.95	26.56	
2025-01-18 00:42:50.34	39.99	26.59	
2025-01-18 00:42:50.55	40.03	26.63	
2025-01-18 00:42:50.75	40.07	26.66	
2025-01-18 00:42:50.95	40.10	26.69	
2025-01-18 00:42:51.15	40.14	26.72	
2025-01-18 00:42:51.36	40.18	26.76	
2025-01-18 00:42:51.56	40.22	26.79	
2025-01-18 00:42:51.76	40.26	26.82	
2025-01-18 00:42:51.97	40.30	26.86	
2025-01-18 00:42:52.17	40.34	26.89	
2025-01-18 00:42:52.37	40.38	26.93	
2025-01-18 00:42:52.57	40.42	26.96	
2025-01-18 00:42:52.78	40.46	26.99	
2025-01-18 00:42:52.98	40.50	27.03	
2025-01-18 00:42:53.18	40.53	27.06	
2025-01-18 00:42:53.39	40.57	27.09	
2025-01-18 00:42:53.59	40.61	27.13	
2025-01-18 00:42:53.79	40.65	27.16	
2025-01-18 00:42:54.00	40.69	27.20	
2025-01-18 00:42:54.20	40.73	27.23	
2025-01-18 00:42:54.40	40.77	27.26	
2025-01-18 00:42:54.60	40.81	27.30	
2025-01-18 00:42:54.81	40.85	27.33	
2025-01-18 00:42:55.01	40.89	27.36	
2025-01-18 00:42:55.21	40.93	27.40	
2025-01-18 00:42:55.42	40.98	27.43	
2025-01-18 00:42:55.62	41.02	27.47	
2025-01-18 00:42:55.82	41.06	27.50	
2025-01-18 00:42:56.03	41.10	27.54	
2025-01-18 00:42:56.23	41.14	27.57	
2025-01-18 00:42:56.43	41.18	27.60	
2025-01-18 00:42:56.63	41.22	27.64	
2025-01-18 00:42:56.84	41.26	27.67	
2025-01-18 00:42:57.04	41.30	27.71	
2025-01-18 00:42:57.24	41.34	27.74	
2025-01-18 00:42:57.45	41.38	27.78	
2025-01-18 00:42:57.65	41.43	27.81	
2025-01-18 00:42:57.85	41.47	27.84	
2025-01-18 00:42:58.06	41.51	27.88	
2025-01-18 00:42:58.26	41.55	27.91	
2025-01-18 00:42:58.46	41.59	27.95	
2025-01-18 00:42:58.66	41.63	27.98	
2025-01-18 00:42:58.87	41.68	28.02	
2025-01-18 00:42:59.07	41.72	28.05	
2025-01-18 00:42:59.27	41.76	28.08	
2025-01-18 00:42:59.48	41.80	28.12	
2025-01-18 00:42:59.68	41.84	28.15	
2025-01-18 00:42:59.88	41.89	28.19	
2025-01-18 00:43:00.09	41.93	28.22	
2025-01-18 00:43:00.29	41.97	28.26	
2025-01-18 00:43:00.49	42.01	28.29	
2025-01-18 00:43:00.69	42.06	28.33	
2025-01-18 00:43:00.90	42.10	28.36	
2025-01-18 00:43:01.10	42.14	28.40	
2025-01-18 00:43:01.30	42.19	28.43	
2025-01-18 00:43:01.51	42.23	28.47	
2025-01-18 00:43:01.71	42.27	28.50	
2025-01-18 00:43:01.91	42.32	28.54	
2025-01-18 00:43:02.11	42.36	28.57	
2025-01-18 00:43:02.32	42.40	28.61	
2025-01-18 00:43:02.52	42.45	28.64	
2025-01-18 00:43:02.72	42.49	28.68	
2025-01-18 00:43:02.93	42.54	28.71	
2025-01-18 00:43:03.13	42.58	28.75	
2025-01-18 00:43:03.33	42.62	28.78	
2025-01-18 00:43:03.54	42.67	28.82	
2025-01-18 00:43:03.74	42.71	28.86	
2025-01-18 00:43:03.94	42.75	28.89	
2025-01-18 00:43:04.14	42.80	28.92	
2025-01-18 00:43:04.35	42.84	28.96	
2025-01-18 00:43:04.55	42.89	29.00	
2025-01-18 00:43:04.75	42.93	29.03	
2025-01-18 00:43:04.96	42.98	29.07	
2025-01-18 00:43:05.16	43.02	29.10	
2025-01-18 00:43:05.36	43.07	29.14	
2025-01-18 00:43:05.57	43.11	29.17	
2025-01-18 00:43:05.77	43.16	29.21	
2025-01-18 00:43:05.97	43.20	29.24	
2025-01-18 00:43:06.17	43.25	29.28	
2025-01-18 00:43:06.38	43.30	29.32	
2025-01-18 00:43:06.58	43.34	29.35	
2025-01-18 00:43:06.78	43.39	29.39	
2025-01-18 00:43:06.99	43.43	29.42	
2025-01-18 00:43:07.19	43.48	29.46	
2025-01-18 00:43:07.39	43.52	29.50	
2025-01-18 00:43:07.60	43.57	29.53	
2025-01-18 00:43:07.80	43.62	29.57	
2025-01-18 00:43:08.00	43.66	29.60	
2025-01-18 00:43:08.20	43.71	29.64	
2025-01-18 00:43:08.41	43.76	29.68	
2025-01-18 00:43:08.61	43.80	29.71	
2025-01-18 00:43:08.81	43.85	29.75	
2025-01-18 00:43:09.02	43.90	29.78	
2025-01-18 00:43:09.22	43.94	29.82	
2025-01-18 00:43:09.42	43.99	29.86	
2025-01-18 00:43:09.63	44.04	29.89	
2025-01-18 00:43:09.83	44.09	29.93	
2025-01-18 00:43:10.03	44.13	29.96	
2025-01-18 00:43:10.23	44.18	30.00	
2025-01-18 00:43:10.44	44.23	30.04	
2025-01-18 00:43:10.64	44.28	30.07	
2025-01-18 00:43:10.84	44.32	30.11	
2025-01-18 00:43:11.05	44.37	30.15	
2025-01-18 00:43:11.25	44.42	30.18	
2025-01-18 00:43:11.45	44.47	30.22	
2025-01-18 00:43:11.65	44.52	30.25	
2025-01-18 00:43:11.86	44.57	30.29	
2025-01-18 00:43:12.06	44.61	30.33	
2025-01-18 00:43:12.26	44.66	30.36	
2025-01-18 00:43:12.47	44.71	30.40	
2025-01-18 00:43:12.67	44.76	30.44	
2025-01-18 00:43:12.87	44.81	30.47	
2025-01-18 00:43:13.08	44.86	30.51	
2025-01-18 00:43:13.28	44.91	30.55	
2025-01-18 00:43:13.48	44.96	30.58	
2025-01-18 00:43:13.68	45.00	30.62	
2025-01-18 00:43:13.89	45.06	30.66	
2025-01-18 00:43:14.09	45.10	30.69	
2025-01-18 00:43:14.29	45.15	30.73	
2025-01-18 00:43:14.50	45.21	30.77	
2025-01-18 00:43:14.70	45.25	30.81	
2025-01-18 00:43:14.90	45.30	30.84	
2025-01-18 00:43:15.11	45.36	30.88	
2025-01-18 00:43:15.31	45.41	30.92	
2025-01-18 00:43:15.51	45.46	30.95	
2025-01-18 00:43:15.71	45.51	30.99	
2025-01-18 00:43:15.92	45.56	31.03	
2025-01-18 00:43:16.12	45.61	31.06	
2025-01-18 00:43:16.32	45.66	31.10	
2025-01-18 00:43:16.53	45.71	31.14	
2025-01-18 00:43:16.73	45.76	31.18	
2025-01-18 00:43:16.93	45.81	31.21	
2025-01-18 00:43:17.14	45.86	31.25	
2025-01-18 00:43:17.34	45.92	31.29	
2025-01-18 00:43:17.54	45.97	31.32	
2025-01-18 00:43:17.74	46.02	31.36	
2025-01-18 00:43:17.95	46.07	31.40	
2025-01-18 00:43:18.15	46.12	31.44	
2025-01-18 00:43:18.35	46.17	31.47	
2025-01-18 00:43:18.56	46.23	31.51	
2025-01-18 00:43:18.76	46.28	31.55	
2025-01-18 00:43:18.96	46.33	31.59	
2025-01-18 00:43:19.17	46.39	31.62	
2025-01-18 00:43:19.37	46.44	31.66	
2025-01-18 00:43:19.57	46.49	31.70	
2025-01-18 00:43:19.77	46.54	31.74	
2025-01-18 00:43:19.98	46.60	31.77	
2025-01-18 00:43:20.18	46.65	31.81	
2025-01-18 00:43:20.38	46.70	31.85	
2025-01-18 00:43:20.59	46.76	31.89	
2025-01-18 00:43:20.79	46.81	31.92	
2025-01-18 00:43:20.99	46.86	31.96	
2025-01-18 00:43:21.20	46.92	32.00	
2025-01-18 00:43:21.40	46.97	32.04	
2025-01-18 00:43:21.60	47.03	32.07	
2025-01-18 00:43:21.80	47.08	32.11	
2025-01-18 00:43:22.01	47.14	32.15	
2025-01-18 00:43:22.21	47.19	32.19	
2025-01-18 00:43:22.41	47.24	32.23	
2025-01-18 00:43:22.62	47.30	32.26	
2025-01-18 00:43:22.82	47.35	32.30	
2025-01-18 00:43:23.02	47.41	32.34	
2025-01-18 00:43:23.22	47.46	32.38	
2025-01-18 00:43:23.43	47.52	32.42	
2025-01-18 00:43:23.63	47.57	32.45	
2025-01-18 00:43:23.83	47.63	32.49	
2025-01-18 00:43:24.04	47.69	32.53	
2025-01-18 00:43:24.24	47.74	32.57	
2025-01-18 00:43:24.44	47.80	32.61	
2025-01-18 00:43:24.65	47.85	32.65	
2025-01-18 00:43:24.85	47.91	32.68	
2025-01-18 00:43:25.05	47.97	32.72	
2025-01-18 00:43:25.25	48.02	32.76	
2025-01-18 00:43:25.46	48.08	32.80	
2025-01-18 00:43:25.66	48.14	32.84	
2025-01-18 00:43:25.86	48.19	32.87	
2025-01-18 00:43:26.07	48.25	32.91	
2025-01-18 00:43:26.27	48.31	32.95	
2025-01-18 00:43:26.47	48.36	32.99	
2025-01-18 00:43:26.68	48.42	33.03	
2025-01-18 00:43:26.88	48.48	33.07	
2025-01-18 00:43:27.08	48.54	33.10	
2025-01-18 00:43:27.28	48.59	33.14	
2025-01-18 00:43:27.49	48.65	33.18	
2025-01-18 00:43:27.69	48.71	33.22	
2025-01-18 00:43:27.89	48.77	33.26	
2025-01-18 00:43:28.10	48.83	33.30	
2025-01-18 00:43:28.30	48.89	33.33	
2025-01-18 00:43:28.50	48.94	33.37	
2025-01-18 00:43:28.71	49.01	33.41	
2025-01-18 00:43:28.91	49.06	33.45	
2025-01-18 00:43:29.11	49.12	33.49	
2025-01-18 00:43:29.31	49.18	33.53	
2025-01-18 00:43:29.52	49.24	33.57	
2025-01-18 00:43:29.72	49.30	33.60	
2025-01-18 00:43:29.92	49.36	33.64	
2025-01-18 00:43:30.13	49.42	33.68	
2025-01-18 00:43:30.33	49.48	33.72	
2025-01-18 00:43:30.53	49.54	33.76	
2025-01-18 00:43:30.74	49.60	33.80	
2025-01-18 00:43:30.94	49.66	33.84	
2025-01-18 00:43:31.14	49.72	33.88	
2025-01-18 00:43:31.34	49.78	33.91	
2025-01-18 00:43:31.55	49.84	33.95	
2025-01-18 00:43:31.75	49.90	33.99	
2025-01-18 00:43:31.95	49.96	34.03	
2025-01-18 00:43:32.16	50.03	34.07	
2025-01-18 00:43:32.36	50.09	34.11	
2025-01-18 00:43:32.56	50.15	34.15	
2025-01-18 00:43:32.76	50.21	34.19	
2025-01-18 00:43:32.97	50.27	34.23	
2025-01-18 00:43:33.17	50.33	34.26	
2025-01-18 00:43:33.37	50.40	34.30	
2025-01-18 00:43:33.58	50.46	34.34	
2025-01-18 00:43:33.78	50.52	34.38	
2025-01-18 00:43:33.98	50.58	34.42	
2025-01-18 00:43:34.19	50.65	34.46	
2025-01-18 00:43:34.39	50.71	34.50	
2025-01-18 00:43:34.59	50.77	34.54	
2025-01-18 00:43:34.79	50.84	34.58	
2025-01-18 00:43:35.00	50.90	34.62	
2025-01-18 00:43:35.20	50.96	34.65	
2025-01-18 00:43:35.40	51.03	34.69	
2025-01-18 00:43:35.61	51.09	34.73	
2025-01-18 00:43:35.81	51.16	34.77	
2025-01-18 00:43:36.01	51.22	34.81	
2025-01-18 00:43:36.22	51.29	34.85	
2025-01-18 00:43:36.42	51.35	34.89	
2025-01-18 00:43:36.62	51.41	34.93	
2025-01-18 00:43:36.82	51.48	34.97	
2025-01-18 00:43:37.03	51.54	35.01	
2025-01-18 00:43:37.23	51.61	35.05	
2025-01-18 00:43:37.43	51.67	35.09	
2025-01-18 00:43:37.64	51.74	35.13	
2025-01-18 00:43:37.84	51.80	35.16	
2025-01-18 00:43:38.04	51.87	35.20	
2025-01-18 00:43:38.25	51.94	35.24	
2025-01-18 00:43:38.45	52.00	35.28	
2025-01-18 00:43:38.65	52.07	35.32	
2025-01-18 00:43:38.85	52.13	35.36	
2025-01-18 00:43:39.06	52.20	35.40	
2025-01-18 00:43:39.26	52.27	35.44	
2025-01-18 00:43:39.46	52.33	35.48	
2025-01-18 00:43:39.67	52.40	35.52	
2025-01-18 00:43:39.87	52.47	35.56	
2025-01-18 00:43:40.07	52.54	35.60	
2025-01-18 00:43:40.27	52.60	35.64	
2025-01-18 00:43:40.48	52.67	35.68	
2025-01-18 00:43:40.68	52.74	35.72	
2025-01-18 00:43:40.88	52.81	35.75	
2025-01-18 00:43:41.09	52.88	35.79	
2025-01-18 00:43:41.29	52.94	35.83	
2025-01-18 00:43:41.49	53.01	35.87	
2025-01-18 00:43:41.70	53.08	35.91	
2025-01-18 00:43:41.90	53.15	35.95	
2025-01-18 00:43:42.10	53.22	35.99	
2025-01-18 00:43:42.30	53.29	36.03	
2025-01-18 00:43:42.51	53.36	36.07	
2025-01-18 00:43:42.71	53.43	36.11	
2025-01-18 00:43:42.91	53.50	36.15	
2025-01-18 00:43:43.12	53.57	36.19	
2025-01-18 00:43:43.32	53.64	36.23	
2025-01-18 00:43:43.52	53.71	36.27	
2025-01-18 00:43:43.73	53.78	36.31	
2025-01-18 00:43:43.93	53.85	36.35	
2025-01-18 00:43:44.13	53.92	36.39	
2025-01-18 00:43:44.33	53.99	36.43	
2025-01-18 00:43:44.54	54.06	36.47	
2025-01-18 00:43:44.74	54.13	36.51	
2025-01-18 00:43:44.94	54.20	36.54	
2025-01-18 00:43:45.15	54.28	36.58	
2025-01-18 00:43:45.35	54.35	36.62	
2025-01-18 00:43:45.55	54.42	36.66	
2025-01-18 00:43:45.76	54.49	36.70	
2025-01-18 00:43:45.96	54.57	36.74	
2025-01-18 00:43:46.16	54.64	36.78	
2025-01-18 00:43:46.36	54.71	36.82	
2025-01-18 00:43:46.57	54.78	36.86	
2025-01-18 00:43:46.77	54.86	36.90	
2025-01-18 00:43:46.97	54.93	36.94	
2025-01-18 00:43:47.18	55.00	36.98	
2025-01-18 00:43:47.38	55.08	37.02	
2025-01-18 00:43:47.58	55.15	37.06	
2025-01-18 00:43:47.79	55.23	37.10	
2025-01-18 00:43:47.99	55.30	37.14	
2025-01-18 00:43:48.19	55.37	37.18	
2025-01-18 00:43:48.39	55.45	37.22	
2025-01-18 00:43:48.60	55.52	37.26	
2025-01-18 00:43:48.80	55.60	37.30	
2025-01-18 00:43:49.00	55.67	37.34	
2025-01-18 00:43:49.21	55.75	37.38	
2025-01-18 00:43:49.41	55.82	37.42	
2025-01-18 00:43:49.61	55.90	37.45	
2025-01-18 00:43:49.82	55.98	37.50	
2025-01-18 00:43:50.02	56.05	37.53	
2025-01-18 00:43:50.22	56.13	37.57	
2025-01-18 00:43:50.42	56.20	37.61	
2025-01-18 00:43:50.63	56.28	37.65	
2025-01-18 00:43:50.83	56.36	37.69	
2025-01-18 00:43:51.03	56.43	37.73	
2025-01-18 00:43:51.24	56.51	37.77	
2025-01-18 00:43:51.44	56.59	37.81	
2025-01-18 00:43:51.64	56.66	37.85	
2025-01-18 00:43:51.84	56.74	37.89	
2025-01-18 00:43:52.05	56.82	37.93	
2025-01-18 00:43:52.25	56.90	37.97	
2025-01-18 00:43:52.45	56.97	38.01	
2025-01-18 00:43:52.66	57.06	38.05	
2025-01-18 00:43:52.86	57.13	38.09	
2025-01-18 00:43:53.06	57.21	38.13	
2025-01-18 00:43:53.27	57.29	38.17	
2025-01-18 00:43:53.47	57.37	38.21	
2025-01-18 00:43:53.67	57.45	38.24	
2025-01-18 00:43:53.87	57.53	38.28	
2025-01-18 00:43:54.08	57.61	38.32	
2025-01-18 00:43:54.28	57.69	38.36	
2025-01-18 00:43:54.48	57.77	38.40	
2025-01-18 00:43:54.69	57.85	38.44	
2025-01-18 00:43:54.89	57.93	38.48	
2025-01-18 00:43:55.09	58.01	38.52	
2025-01-18 00:43:55.30	58.09	38.56	
2025-01-18 00:43:55.50	58.17	38.60	
2025-01-18 00:43:55.70	58.25	38.64	
2025-01-18 00:43:55.90	58.33	38.68	
2025-01-18 00:43:56.11	58.42	38.72	
2025-01-18 00:43:56.31	58.50	38.76	
2025-01-18 00:43:56.51	58.58	38.79	
2025-01-18 00:43:56.72	58.67	38.83	
2025-01-18 00:43:56.92	58.75	38.87	
2025-01-18 00:43:57.12	58.83	38.91	
2025-01-18 00:43:57.33	58.91	38.95	
2025-01-18 00:43:57.53	59.00	38.99	
2025-01-18 00:43:57.73	59.08	39.03	
2025-01-18 00:43:57.93	59.16	39.07	
2025-01-18 00:43:58.14	59.25	39.11	
2025-01-18 00:43:58.34	59.33	39.15	
2025-01-18 00:43:58.54	59.41	39.19	
2025-01-18 00:43:58.75	59.50	39.23	
2025-01-18 00:43:58.95	59.58	39.26	
2025-01-18 00:43:59.15	59.67	39.30	
2025-01-18 00:43:59.36	59.76	39.34	
2025-01-18 00:43:59.56	59.84	39.38	
2025-01-18 00:43:59.76	59.92	39.42	
2025-01-18 00:43:59.96	60.01	39.46	
2025-01-18 00:44:00.17	60.10	39.50	
2025-01-18 00:44:00.37	60.18	39.54	
2025-01-18 00:44:00.57	60.27	39.57	
2025-01-18 00:44:00.78	60.36	39.61	
2025-01-18 00:44:00.98	60.44	39.65	
2025-01-18 00:44:01.18	60.53	39.69	
2025-01-18 00:44:01.39	60.62	39.73	
2025-01-18 00:44:01.59	60.70	39.77	
2025-01-18 00:44:01.79	60.79	39.81	
2025-01-18 00:44:01.99	60.88	39.84	
2025-01-18 00:44:02.20	60.97	39.88	
2025-01-18 00:44:02.40	61.05	39.92	
2025-01-18 00:44:02.60	61.14	39.96	
2025-01-18 00:44:02.81	61.23	40.00	
2025-01-18 00:44:03.01	61.32	40.04	
2025-01-18 00:44:03.21	61.41	40.08	
2025-01-18 00:44:03.41	61.50	40.11	
2025-01-18 00:44:03.62	61.59	40.15	
2025-01-18 00:44:03.82	61.68	40.19	
2025-01-18 00:44:04.02	61.77	40.23	
2025-01-18 00:44:04.23	61.86	40.27	
2025-01-18 00:44:04.43	61.95	40.31	
2025-01-18 00:44:04.63	62.04	40.34	
2025-01-18 00:44:04.84	62.13	40.38	
2025-01-18 00:44:05.04	62.22	40.42	
2025-01-18 00:44:05.24	62.31	40.46	
2025-01-18 00:44:05.44	62.40	40.50	
2025-01-18 00:44:05.65	62.49	40.54	
2025-01-18 00:44:05.85	62.59	40.57	
2025-01-18 00:44:06.05	62.68	40.61	
2025-01-18 00:44:06.26	62.77	40.65	
2025-01-18 00:44:06.46	62.86	40.69	
2025-01-18 00:44:06.66	62.95	40.73	
2025-01-18 00:44:06.87	63.05	40.76	
2025-01-18 00:44:07.07	63.14	40.80	
2025-01-18 00:44:07.27	63.23	40.84	
2025-01-18 00:44:07.47	63.33	40.88	
2025-01-18 00:44:07.68	63.42	40.91	
2025-01-18 00:44:07.88	63.52	40.95	
2025-01-18 00:44:08.08	63.61	40.99	
2025-01-18 00:44:08.29	63.71	41.03	
2025-01-18 00:44:08.49	63.80	41.06	
2025-01-18 00:44:08.69	63.89	41.10	
2025-01-18 00:44:08.90	63.99	41.14	
2025-01-18 00:44:09.10	64.08	41.18	
2025-01-18 00:44:09.30	64.18	41.21	
2025-01-18 00:44:09.50	64.27	41.25	
2025-01-18 00:44:09.71	64.37	41.29	
2025-01-18 00:44:09.91	64.47	41.33	
2025-01-18 00:44:10.11	64.56	41.36	
2025-01-18 00:44:10.32	64.66	41.40	
2025-01-18 00:44:10.52	64.76	41.44	
2025-01-18 00:44:10.72	64.85	41.47	
2025-01-18 00:44:10.93	64.95	41.51	
2025-01-18 00:44:11.13	65.05	41.55	
2025-01-18 00:44:11.33	65.15	41.58	
2025-01-18 00:44:11.53	65.24	41.62	
2025-01-18 00:44:11.74	65.34	41.66	
2025-01-18 00:44:11.94	65.44	41.69	
2025-01-18 00:44:12.14	65.54	41.73	
2025-01-18 00:44:12.35	65.64	41.77	
2025-01-18 00:44:12.55	65.74	41.80	
2025-01-18 00:44:12.75	65.84	41.84	
2025-01-18 00:44:12.95	65.94	41.88	
2025-01-18 00:44:13.16	66.04	41.91	
2025-01-18 00:44:13.36	66.14	41.95	
2025-01-18 00:44:13.56	66.24	41.99	
2025-01-18 00:44:13.77	66.34	42.02	
2025-01-18 00:44:13.97	66.44	42.06	
2025-01-18 00:44:14.17	66.54	42.09	
2025-01-18 00:44:14.38	66.64	42.13	
2025-01-18 00:44:14.58	66.74	42.17	
2025-01-18 00:44:14.78	66.84	42.20	
2025-01-18 00:44:14.98	66.94	42.24	
2025-01-18 00:44:15.19	67.05	42.27	
2025-01-18 00:44:15.39	67.15	42.31	
2025-01-18 00:44:15.59	67.25	42.34	
2025-01-18 00:44:15.80	67.36	42.38	
2025-01-18 00:44:16.00	67.46	42.42	
2025-01-18 00:44:16.20	67.56	42.45	
2025-01-18 00:44:16.41	67.67	42.49	
2025-01-18 00:44:16.61	67.77	42.52	
2025-01-18 00:44:16.81	67.87	42.56	
2025-01-18 00:44:17.01	67.97	42.59	
2025-01-18 00:44:17.22	68.08	42.63	
2025-01-18 00:44:17.42	68.19	42.66	
2025-01-18 00:44:17.62	68.29	42.70	
2025-01-18 00:44:17.83	68.40	42.73	
2025-01-18 00:44:18.03	68.50	42.77	
2025-01-18 00:44:18.23	68.61	42.80	
2025-01-18 00:44:18.44	68.72	42.84	
2025-01-18 00:44:18.64	68.82	42.87	
2025-01-18 00:44:18.84	68.92	42.91	
2025-01-18 00:44:19.04	69.03	42.94	
2025-01-18 00:44:19.25	69.14	42.98	
2025-01-18 00:44:19.45	69.24	43.01	
2025-01-18 00:44:19.65	69.35	43.04	
2025-01-18 00:44:19.86	69.46	43.08	
2025-01-18 00:44:20.06	69.57	43.11	
2025-01-18 00:44:20.26	69.67	43.15	
2025-01-18 00:44:20.46	69.78	43.18	
2025-01-18 00:44:20.67	69.89	43.21	
2025-01-18 00:44:20.87	70.00	43.25	
2025-01-18 00:44:21.07	70.11	43.28	
2025-01-18 00:44:21.28	70.22	43.32	
2025-01-18 00:44:21.48	70.33	43.35	
2025-01-18 00:44:21.68	70.43	43.38	
2025-01-18 00:44:21.89	70.55	43.42	
2025-01-18 00:44:22.09	70.66	43.45	
2025-01-18 00:44:22.29	70.77	43.48	
2025-01-18 00:44:22.49	70.87	43.51	
2025-01-18 00:44:22.70	70.99	43.55	
2025-01-18 00:44:22.90	71.10	43.58	
2025-01-18 00:44:23.10	71.21	43.61	
2025-01-18 00:44:23.31	71.32	43.65	
2025-01-18 00:44:23.51	71.43	43.68	
2025-01-18 00:44:23.71	71.54	43.71	
2025-01-18 00:44:23.92	71.66	43.75	
2025-01-18 00:44:24.12	71.77	43.78	
2025-01-18 00:44:24.32	71.88	43.81	
2025-01-18 00:44:24.52	71.99	43.84	
2025-01-18 00:44:24.73	72.11	43.87	
2025-01-18 00:44:24.93	72.22	43.91	
2025-01-18 00:44:25.13	72.33	43.94	
2025-01-18 00:44:25.34	72.45	43.97	
2025-01-18 00:44:25.54	72.56	44.00	
2025-01-18 00:44:25.74	72.67	44.03	
2025-01-18 00:44:25.95	72.79	44.07	
2025-01-18 00:44:26.15	72.90	44.10	
2025-01-18 00:44:26.35	73.02	44.13	
2025-01-18 00:44:26.55	73.13	44.16	
2025-01-18 00:44:26.76	73.25	44.19	
2025-01-18 00:44:26.96	73.36	44.22	
2025-01-18 00:44:27.16	73.48	44.25	
2025-01-18 00:44:27.37	73.60	44.28	
2025-01-18 00:44:27.57	73.71	44.32	
2025-01-18 00:44:27.77	73.83	44.35	
2025-01-18 00:44:27.98	73.95	44.38	
2025-01-18 00:44:28.18	74.06	44.41	
2025-01-18 00:44:28.38	74.18	44.44	
2025-01-18 00:44:28.58	74.29	44.47	
2025-01-18 00:44:28.79	74.41	44.50	
2025-01-18 00:44:28.99	74.53	44.53	
2025-01-18 00:44:29.19	74.65	44.56	
2025-01-18 00:44:29.40	74.77	44.59	
2025-01-18 00:44:29.60	74.88	44.62	
2025-01-18 00:44:29.80	75.00	44.65	
2025-01-18 00:44:30.01	75.12	44.68	
2025-01-18 00:44:30.21	75.24	44.71	
2025-01-18 00:44:30.41	75.36	44.74	
2025-01-18 00:44:30.61	75.48	44.76	
2025-01-18 00:44:30.82	75.60	44.79	
2025-01-18 00:44:31.02	75.72	44.82	
2025-01-18 00:44:31.22	75.84	44.85	
2025-01-18 00:44:31.43	75.96	44.88	
2025-01-18 00:44:31.63	76.08	44.91	
2025-01-18 00:44:31.83	76.20	44.94	
2025-01-18 00:44:32.03	76.32	44.97	
2025-01-18 00:44:32.24	76.44	45.00	
2025-01-18 00:44:32.44	76.56	45.02	
2025-01-18 00:44:32.64	76.68	45.05	
2025-01-18 00:44:32.85	76.81	45.08	
2025-01-18 00:44:33.05	76.93	45.11	
2025-01-18 00:44:33.25	77.05	45.13	
2025-01-18 00:44:33.46	77.18	45.16	
2025-01-18 00:44:33.66	77.30	45.19	
2025-01-18 00:44:33.86	77.42	45.22	
2025-01-18 00:44:34.06	77.54	45.24	
2025-01-18 00:44:34.27	77.67	45.27	
2025-01-18 00:44:34.47	77.79	45.30	
2025-01-18 00:44:34.67	77.91	45.33	
2025-01-18 00:44:34.88	78.04	45.35	
2025-01-18 00:44:35.08	78.16	45.38	
2025-01-18 00:44:35.28	78.29	45.41	
2025-01-18 00:44:35.49	78.42	45.43	
2025-01-18 00:44:35.69	78.54	45.46	
2025-01-18 00:44:35.89	78.66	45.48	
2025-01-18 00:44:36.09	78.79	45.51	
2025-01-18 00:44:36.30	78.91	45.54	
2025-01-18 00:44:36.50	79.04	45.56	
2025-01-18 00:44:36.70	79.16	45.59	
2025-01-18 00:44:36.91	79.29	45.61	
2025-01-18 00:44:37.11	79.42	45.64	
2025-01-18 00:44:37.31	79.54	45.66	
2025-01-18 00:44:37.52	79.67	45.69	
2025-01-18 00:44:37.72	79.80	45.71	
2025-01-18 00:44:37.92	79.92	45.74	
2025-01-18 00:44:38.12	80.05	45.76	
2025-01-18 00:44:38.33	80.18	45.79	
2025-01-18 00:44:38.53	80.31	45.81	
2025-01-18 00:44:38.73	80.43	45.84	
2025-01-18 00:44:38.94	80.57	45.86	
2025-01-18 00:44:39.14	80.69	45.88	
2025-01-18 00:44:39.34	80.82	45.91	
2025-01-18 00:44:39.55	80.95	45.93	
2025-01-18 00:44:39.75	81.08	45.96	
2025-01-18 00:44:39.95	81.21	45.98	
2025-01-18 00:44:40.15	81.33	46.00	
2025-01-18 00:44:40.36	81.47	46.03	
2025-01-18 00:44:40.56	81.60	46.05	
2025-01-18 00:44:40.76	81.72	46.07	
2025-01-18 00:44:40.97	81.86	46.09	
2025-01-18 00:44:41.17	81.99	46.12	
2025-01-18 00:44:41.37	82.12	46.14	
2025-01-18 00:44:41.58	82.25	46.16	
2025-01-18 00:44:41.78	82.38	46.18	
2025-01-18 00:44:41.98	82.51	46.21	
2025-01-18 00:44:42.18	82.64	46.23	
2025-01-18 00:44:42.39	82.77	46.25	
2025-01-18 00:44:42.59	82.90	46.27	
2025-01-18 00:44:42.79	83.03	46.29	
2025-01-18 00:44:43.00	83.17	46.31	
2025-01-18 00:44:43.20	83.30	46.33	
2025-01-18 00:44:43.40	83.43	46.36	
2025-01-18 00:44:43.60	83.56	46.38	
2025-01-18 00:44:43.81	83.70	46.40	
2025-01-18 00:44:44.01	83.83	46.42	
2025-01-18 00:44:44.21	83.96	46.44	
2025-01-18 00:44:44.42	84.10	46.46	
2025-01-18 00:44:44.62	84.23	46.48	
2025-01-18 00:44:44.82	84.36	46.50	
2025-01-18 00:44:45.03	84.50	46.52	
2025-01-18 00:44:45.23	84.63	46.54	
2025-01-18 00:44:45.43	84.76	46.56	
2025-01-18 00:44:45.63	84.90	46.58	
2025-01-18 00:44:45.84	85.03	46.60	
2025-01-18 00:44:46.04	85.17	46.61	
2025-01-18 00:44:46.24	85.30	46.63	
2025-01-18 00:44:46.45	85.44	46.65	
2025-01-18 00:44:46.65	85.57	46.67	
2025-01-18 00:44:46.85	85.71	46.69	
2025-01-18 00:44:47.06	85.85	46.71	
2025-01-18 00:44:47.26	85.98	46.72	
2025-01-18 00:44:47.46	86.11	46.74	
2025-01-18 00:44:47.66	86.25	46.76	
2025-01-18 00:44:47.87	86.39	46.78	
2025-01-18 00:44:48.07	86.52	46.79	
2025-01-18 00:44:48.27	86.66	46.81	
2025-01-18 00:44:48.48	86.80	46.83	
2025-01-18 00:44:48.68	86.93	46.85	
2025-01-18 00:44:48.88	87.07	46.86	
2025-01-18 00:44:49.09	87.21	46.88	
2025-01-18 00:44:49.29	87.34	46.90	
2025-01-18 00:44:49.49	87.48	46.91	
2025-01-18 00:44:49.69	87.61	46.93	
2025-01-18 00:44:49.90	87.75	46.94	
2025-01-18 00:44:50.10	87.89	46.96	
2025-01-18 00:44:50.30	88.03	46.97	
2025-01-18 00:44:50.51	88.17	46.99	
2025-01-18 00:44:50.71	88.30	47.01	
2025-01-18 00:44:50.91	88.44	47.02	
2025-01-18 00:44:51.12	88.58	47.04	
2025-01-18 00:44:51.32	88.72	47.05	
2025-01-18 00:44:51.52	88.86	47.06	
2025-01-18 00:44:51.72	88.99	47.08	
2025-01-18 00:44:51.93	89.14	47.09	
2025-01-18 00:44:52.13	89.27	47.11	
2025-01-18 00:44:52.33	89.41	47.12	
2025-01-18 00:44:52.54	89.55	47.13	
2025-01-18 00:44:52.74	89.69	47.15	
2025-01-18 00:44:52.94	89.83	47.16	
2025-01-18 00:44:53.14	89.97	47.17	
2025-01-18 00:44:53.35	90.11	47.19	
2025-01-18 00:44:53.55	90.25	47.20	
2025-01-18 00:44:53.75	90.39	47.21	
2025-01-18 00:44:53.96	90.53	47.22	
2025-01-18 00:44:54.16	90.67	47.24	
2025-01-18 00:44:54.36	90.81	47.25	
2025-01-18 00:44:54.57	90.95	47.26	
2025-01-18 00:44:54.77	91.09	47.27	
2025-01-18 00:44:54.97	91.23	47.28	
2025-01-18 00:44:55.17	91.37	47.29	
2025-01-18 00:44:55.38	91.51	47.31	
2025-01-18 00:44:55.58	91.65	47.32	
