passes_logs/2025/01/18/SPB_Silybum_02/SPB_Silybum_02__20250118_041729_SUOMI_NPP_rec.log

#Pass ID: 20250118_041729_SUOMI NPP
#Satellite: SUOMI NPP
#Configuration: NPP
#Start time: 2025-01-18 04:17:28

#Version: 2.0.20230423
#Station: SPB_Silybum_02
#Location: 30.233357 lon 59.946436 lat
#TLE: 1 37849U 11061A   25017.17539025  .00000183  00000+0  10766-3 0  9991
#TLE: 2 37849  98.7449 318.1364 0001599  37.8052 322.3236 14.19539290685226

#Time	Az	El	Level	Level2	SNR	BER	Gain	Gain2
2025-01-18 04:17:31.06	17.60	4.06	
2025-01-18 04:17:31.26	17.58	4.06	
2025-01-18 04:17:31.46	17.55	4.07	
2025-01-18 04:17:31.67	17.53	4.08	
2025-01-18 04:17:31.87	17.50	4.09	
2025-01-18 04:17:32.07	17.48	4.09	
2025-01-18 04:17:32.27	17.45	4.10	
2025-01-18 04:17:32.48	17.43	4.11	
2025-01-18 04:17:32.68	17.40	4.12	
2025-01-18 04:17:32.88	17.38	4.12	
2025-01-18 04:17:33.09	17.35	4.13	
2025-01-18 04:17:33.29	17.33	4.14	
2025-01-18 04:17:33.49	17.30	4.15	
2025-01-18 04:17:33.70	17.28	4.15	
2025-01-18 04:17:33.90	17.25	4.16	
2025-01-18 04:17:34.10	17.23	4.17	
2025-01-18 04:17:34.31	17.20	4.18	
2025-01-18 04:17:34.51	17.18	4.18	
2025-01-18 04:17:34.71	17.15	4.19	
2025-01-18 04:17:34.91	17.13	4.20	
2025-01-18 04:17:35.12	17.10	4.21	
2025-01-18 04:17:35.32	17.08	4.21	
2025-01-18 04:17:35.52	17.05	4.22	
2025-01-18 04:17:35.73	17.03	4.23	
2025-01-18 04:17:35.93	17.00	4.24	
2025-01-18 04:17:36.13	16.98	4.25	
2025-01-18 04:17:36.34	16.95	4.25	
2025-01-18 04:17:36.54	16.93	4.26	
2025-01-18 04:17:36.74	16.90	4.27	
2025-01-18 04:17:36.95	16.87	4.28	
2025-01-18 04:17:37.15	16.85	4.28	
2025-01-18 04:17:37.35	16.82	4.29	
2025-01-18 04:17:37.55	16.80	4.30	
2025-01-18 04:17:37.76	16.77	4.31	
2025-01-18 04:17:37.96	16.75	4.31	
2025-01-18 04:17:38.16	16.72	4.32	
2025-01-18 04:17:38.37	16.70	4.33	
2025-01-18 04:17:38.57	16.67	4.34	
2025-01-18 04:17:38.77	16.65	4.34	
2025-01-18 04:17:38.98	16.62	4.35	
2025-01-18 04:17:39.18	16.60	4.36	
2025-01-18 04:17:39.38	16.57	4.37	
2025-01-18 04:17:39.59	16.55	4.37	
2025-01-18 04:17:39.79	16.52	4.38	
2025-01-18 04:17:39.99	16.50	4.39	
2025-01-18 04:17:40.19	16.47	4.40	
2025-01-18 04:17:40.40	16.44	4.40	
2025-01-18 04:17:40.60	16.42	4.41	
2025-01-18 04:17:40.80	16.39	4.42	
2025-01-18 04:17:41.01	16.37	4.43	
2025-01-18 04:17:41.21	16.34	4.43	
2025-01-18 04:17:41.41	16.32	4.44	
2025-01-18 04:17:41.62	16.29	4.45	
2025-01-18 04:17:41.82	16.27	4.46	
2025-01-18 04:17:42.02	16.24	4.46	
2025-01-18 04:17:42.23	16.21	4.47	
2025-01-18 04:17:42.43	16.19	4.48	
2025-01-18 04:17:42.63	16.16	4.49	
2025-01-18 04:17:42.83	16.14	4.49	
2025-01-18 04:17:43.04	16.11	4.50	
2025-01-18 04:17:43.24	16.09	4.51	
2025-01-18 04:17:43.44	16.06	4.51	
2025-01-18 04:17:43.65	16.04	4.52	
2025-01-18 04:17:43.85	16.01	4.53	
2025-01-18 04:17:44.05	15.98	4.54	
2025-01-18 04:17:44.26	15.96	4.54	
2025-01-18 04:17:44.46	15.93	4.55	
2025-01-18 04:17:44.66	15.91	4.56	
2025-01-18 04:17:44.87	15.88	4.57	
2025-01-18 04:17:45.07	15.86	4.57	
2025-01-18 04:17:45.27	15.83	4.58	
2025-01-18 04:17:45.48	15.80	4.59	
2025-01-18 04:17:45.68	15.78	4.60	
2025-01-18 04:17:45.88	15.75	4.60	
2025-01-18 04:17:46.08	15.73	4.61	
2025-01-18 04:17:46.29	15.70	4.62	
2025-01-18 04:17:46.49	15.68	4.63	
2025-01-18 04:17:46.69	15.65	4.63	
2025-01-18 04:17:46.90	15.62	4.64	
2025-01-18 04:17:47.10	15.60	4.65	
2025-01-18 04:17:47.30	15.57	4.66	
2025-01-18 04:17:47.51	15.55	4.66	
2025-01-18 04:17:47.71	15.52	4.67	
2025-01-18 04:17:47.91	15.49	4.68	
2025-01-18 04:17:48.12	15.47	4.69	
2025-01-18 04:17:48.32	15.44	4.69	
2025-01-18 04:17:48.52	15.42	4.70	
2025-01-18 04:17:48.72	15.39	4.71	
2025-01-18 04:17:48.93	15.36	4.71	
2025-01-18 04:17:49.13	15.34	4.72	
2025-01-18 04:17:49.33	15.31	4.73	
2025-01-18 04:17:49.54	15.29	4.74	
2025-01-18 04:17:49.74	15.26	4.74	
2025-01-18 04:17:49.94	15.23	4.75	
2025-01-18 04:17:50.15	15.21	4.76	
2025-01-18 04:17:50.35	15.18	4.77	
2025-01-18 04:17:50.55	15.16	4.77	
2025-01-18 04:17:50.76	15.13	4.78	
2025-01-18 04:17:50.96	15.10	4.79	
2025-01-18 04:17:51.16	15.08	4.80	
2025-01-18 04:17:51.36	15.05	4.80	
2025-01-18 04:17:51.57	15.02	4.81	
2025-01-18 04:17:51.77	15.00	4.82	
2025-01-18 04:17:51.97	14.97	4.82	
2025-01-18 04:17:52.18	14.95	4.83	
2025-01-18 04:17:52.38	14.92	4.84	
2025-01-18 04:17:52.58	14.89	4.85	
2025-01-18 04:17:52.79	14.87	4.85	
2025-01-18 04:17:52.99	14.84	4.86	
2025-01-18 04:17:53.19	14.82	4.87	
2025-01-18 04:17:53.40	14.79	4.88	
2025-01-18 04:17:53.60	14.76	4.88	
2025-01-18 04:17:53.80	14.74	4.89	
2025-01-18 04:17:54.00	14.71	4.90	
2025-01-18 04:17:54.21	14.68	4.90	
2025-01-18 04:17:54.41	14.66	4.91	
2025-01-18 04:17:54.61	14.63	4.92	
2025-01-18 04:17:54.82	14.60	4.93	
2025-01-18 04:17:55.02	14.58	4.93	
2025-01-18 04:17:55.22	14.55	4.94	
2025-01-18 04:17:55.43	14.52	4.95	
2025-01-18 04:17:55.63	14.50	4.96	
2025-01-18 04:17:55.83	14.47	4.96	
2025-01-18 04:17:56.04	14.45	4.97	
2025-01-18 04:17:56.24	14.42	4.98	
2025-01-18 04:17:56.44	14.39	4.98	
2025-01-18 04:17:56.64	14.37	4.99	
2025-01-18 04:17:56.85	14.34	5.00	
2025-01-18 04:17:57.05	14.31	5.01	
2025-01-18 04:17:57.25	14.29	5.01	
2025-01-18 04:17:57.46	14.26	5.02	
2025-01-18 04:17:57.66	14.23	5.03	
2025-01-18 04:17:57.86	14.21	5.03	
2025-01-18 04:17:58.07	14.18	5.04	
2025-01-18 04:17:58.27	14.15	5.05	
2025-01-18 04:17:58.47	14.13	5.06	
2025-01-18 04:17:58.68	14.10	5.06	
2025-01-18 04:17:58.88	14.07	5.07	
2025-01-18 04:17:59.08	14.05	5.08	
2025-01-18 04:17:59.28	14.02	5.08	
2025-01-18 04:17:59.49	13.99	5.09	
2025-01-18 04:17:59.69	13.97	5.10	
2025-01-18 04:17:59.89	13.94	5.11	
2025-01-18 04:18:00.10	13.91	5.11	
2025-01-18 04:18:00.30	13.89	5.12	
2025-01-18 04:18:00.50	13.86	5.13	
2025-01-18 04:18:00.71	13.83	5.14	
2025-01-18 04:18:00.91	13.81	5.14	
2025-01-18 04:18:01.11	13.78	5.15	
2025-01-18 04:18:01.32	13.75	5.16	
2025-01-18 04:18:01.52	13.73	5.16	
2025-01-18 04:18:01.72	13.70	5.17	
2025-01-18 04:18:01.92	13.67	5.18	
2025-01-18 04:18:02.13	13.65	5.18	
2025-01-18 04:18:02.33	13.62	5.19	
2025-01-18 04:18:02.53	13.59	5.20	
2025-01-18 04:18:02.74	13.56	5.21	
2025-01-18 04:18:02.94	13.54	5.21	
2025-01-18 04:18:03.14	13.51	5.22	
2025-01-18 04:18:03.35	13.48	5.23	
2025-01-18 04:18:03.55	13.46	5.23	
2025-01-18 04:18:03.75	13.43	5.24	
2025-01-18 04:18:03.96	13.40	5.25	
2025-01-18 04:18:04.16	13.38	5.26	
2025-01-18 04:18:04.36	13.35	5.26	
2025-01-18 04:18:04.56	13.32	5.27	
2025-01-18 04:18:04.77	13.29	5.28	
2025-01-18 04:18:04.97	13.27	5.28	
2025-01-18 04:18:05.17	13.24	5.29	
2025-01-18 04:18:05.38	13.21	5.30	
2025-01-18 04:18:05.58	13.19	5.31	
2025-01-18 04:18:05.78	13.16	5.31	
2025-01-18 04:18:05.99	13.13	5.32	
2025-01-18 04:18:06.19	13.11	5.33	
2025-01-18 04:18:06.39	13.08	5.33	
2025-01-18 04:18:06.60	13.05	5.34	
2025-01-18 04:18:06.80	13.02	5.35	
2025-01-18 04:18:07.00	13.00	5.35	
2025-01-18 04:18:07.21	12.97	5.36	
2025-01-18 04:18:07.41	12.94	5.37	
2025-01-18 04:18:07.61	12.92	5.38	
2025-01-18 04:18:07.81	12.89	5.38	
2025-01-18 04:18:08.02	12.86	5.39	
2025-01-18 04:18:08.22	12.83	5.40	
2025-01-18 04:18:08.42	12.81	5.40	
2025-01-18 04:18:08.63	12.78	5.41	
2025-01-18 04:18:08.83	12.75	5.42	
2025-01-18 04:18:09.03	12.72	5.42	
2025-01-18 04:18:09.24	12.70	5.43	
2025-01-18 04:18:09.44	12.67	5.44	
2025-01-18 04:18:09.64	12.64	5.45	
2025-01-18 04:18:09.85	12.61	5.45	
2025-01-18 04:18:10.05	12.59	5.46	
2025-01-18 04:18:10.25	12.56	5.47	
2025-01-18 04:18:10.45	12.53	5.47	
2025-01-18 04:18:10.66	12.50	5.48	
2025-01-18 04:18:10.86	12.48	5.49	
2025-01-18 04:18:11.06	12.45	5.49	
2025-01-18 04:18:11.27	12.42	5.50	
2025-01-18 04:18:11.47	12.40	5.51	
2025-01-18 04:18:11.67	12.37	5.51	
2025-01-18 04:18:11.88	12.34	5.52	
2025-01-18 04:18:12.08	12.31	5.53	
2025-01-18 04:18:12.28	12.29	5.54	
2025-01-18 04:18:12.49	12.26	5.54	
2025-01-18 04:18:12.69	12.23	5.55	
2025-01-18 04:18:12.89	12.20	5.56	
2025-01-18 04:18:13.09	12.18	5.56	
2025-01-18 04:18:13.30	12.15	5.57	
2025-01-18 04:18:13.50	12.12	5.58	
2025-01-18 04:18:13.70	12.09	5.58	
2025-01-18 04:18:13.91	12.06	5.59	
2025-01-18 04:18:14.11	12.04	5.60	
2025-01-18 04:18:14.31	12.01	5.60	
2025-01-18 04:18:14.52	11.98	5.61	
2025-01-18 04:18:14.72	11.95	5.62	
2025-01-18 04:18:14.92	11.93	5.62	
2025-01-18 04:18:15.13	11.90	5.63	
2025-01-18 04:18:15.33	11.87	5.64	
2025-01-18 04:18:15.53	11.84	5.65	
2025-01-18 04:18:15.73	11.82	5.65	
2025-01-18 04:18:15.94	11.79	5.66	
2025-01-18 04:18:16.14	11.76	5.67	
2025-01-18 04:18:16.34	11.73	5.67	
2025-01-18 04:18:16.55	11.70	5.68	
2025-01-18 04:18:16.75	11.68	5.69	
2025-01-18 04:18:16.95	11.65	5.69	
2025-01-18 04:18:17.16	11.62	5.70	
2025-01-18 04:18:17.36	11.59	5.71	
2025-01-18 04:18:17.56	11.56	5.71	
2025-01-18 04:18:17.77	11.54	5.72	
2025-01-18 04:18:17.97	11.51	5.73	
2025-01-18 04:18:18.17	11.48	5.73	
2025-01-18 04:18:18.37	11.45	5.74	
2025-01-18 04:18:18.58	11.42	5.75	
2025-01-18 04:18:18.78	11.40	5.75	
2025-01-18 04:18:18.98	11.37	5.76	
2025-01-18 04:18:19.19	11.34	5.77	
2025-01-18 04:18:19.39	11.31	5.77	
2025-01-18 04:18:19.59	11.29	5.78	
2025-01-18 04:18:19.80	11.26	5.79	
2025-01-18 04:18:20.00	11.23	5.79	
2025-01-18 04:18:20.20	11.20	5.80	
2025-01-18 04:18:20.41	11.17	5.81	
2025-01-18 04:18:20.61	11.14	5.81	
2025-01-18 04:18:20.81	11.12	5.82	
2025-01-18 04:18:21.01	11.09	5.83	
2025-01-18 04:18:21.22	11.06	5.83	
2025-01-18 04:18:21.42	11.03	5.84	
2025-01-18 04:18:21.62	11.00	5.85	
2025-01-18 04:18:21.83	10.98	5.85	
2025-01-18 04:18:22.03	10.95	5.86	
2025-01-18 04:18:22.23	10.92	5.87	
2025-01-18 04:18:22.44	10.89	5.87	
2025-01-18 04:18:22.64	10.86	5.88	
2025-01-18 04:18:22.84	10.84	5.89	
2025-01-18 04:18:23.05	10.81	5.89	
2025-01-18 04:18:23.25	10.78	5.90	
2025-01-18 04:18:23.45	10.75	5.91	
2025-01-18 04:18:23.65	10.72	5.91	
2025-01-18 04:18:23.87	10.69	5.92	
2025-01-18 04:18:24.07	10.66	5.93	
2025-01-18 04:18:24.29	10.63	5.94	
2025-01-18 04:18:24.49	10.61	5.94	
2025-01-18 04:18:24.69	10.58	5.95	
2025-01-18 04:18:24.89	10.55	5.96	
2025-01-18 04:18:25.10	10.52	5.96	
2025-01-18 04:18:25.30	10.49	5.97	
2025-01-18 04:18:25.50	10.46	5.97	
2025-01-18 04:18:25.71	10.43	5.98	
2025-01-18 04:18:25.91	10.41	5.99	
2025-01-18 04:18:26.11	10.38	5.99	
2025-01-18 04:18:26.32	10.35	6.00	
2025-01-18 04:18:26.52	10.32	6.01	
2025-01-18 04:18:26.72	10.29	6.01	
2025-01-18 04:18:26.93	10.26	6.02	
2025-01-18 04:18:27.13	10.24	6.03	
2025-01-18 04:18:27.33	10.21	6.03	
2025-01-18 04:18:27.53	10.18	6.04	
2025-01-18 04:18:27.74	10.15	6.05	
2025-01-18 04:18:27.94	10.12	6.05	
2025-01-18 04:18:28.14	10.09	6.06	
2025-01-18 04:18:28.35	10.06	6.07	
2025-01-18 04:18:28.55	10.04	6.07	
2025-01-18 04:18:28.75	10.01	6.08	
2025-01-18 04:18:28.97	9.98	6.09	
2025-01-18 04:18:29.17	9.95	6.09	
2025-01-18 04:18:29.37	9.92	6.10	
2025-01-18 04:18:29.58	9.89	6.11	
2025-01-18 04:18:29.78	9.86	6.11	
2025-01-18 04:18:29.98	9.83	6.12	
2025-01-18 04:18:30.19	9.80	6.13	
2025-01-18 04:18:30.39	9.78	6.13	
2025-01-18 04:18:30.59	9.75	6.14	
2025-01-18 04:18:30.79	9.72	6.15	
2025-01-18 04:18:31.00	9.69	6.15	
2025-01-18 04:18:31.20	9.66	6.16	
2025-01-18 04:18:31.40	9.63	6.16	
2025-01-18 04:18:31.61	9.60	6.17	
2025-01-18 04:18:31.81	9.58	6.18	
2025-01-18 04:18:32.01	9.55	6.18	
2025-01-18 04:18:32.22	9.52	6.19	
2025-01-18 04:18:32.42	9.49	6.20	
2025-01-18 04:18:32.62	9.46	6.20	
2025-01-18 04:18:32.83	9.43	6.21	
2025-01-18 04:18:33.03	9.40	6.22	
2025-01-18 04:18:33.23	9.37	6.22	
2025-01-18 04:18:33.43	9.34	6.23	
2025-01-18 04:18:33.64	9.31	6.24	
2025-01-18 04:18:33.84	9.29	6.24	
2025-01-18 04:18:34.04	9.26	6.25	
2025-01-18 04:18:34.25	9.23	6.25	
2025-01-18 04:18:34.45	9.20	6.26	
2025-01-18 04:18:34.66	9.17	6.27	
2025-01-18 04:18:34.86	9.14	6.27	
2025-01-18 04:18:35.06	9.11	6.28	
2025-01-18 04:18:35.27	9.08	6.29	
2025-01-18 04:18:35.47	9.05	6.29	
2025-01-18 04:18:35.67	9.03	6.30	
2025-01-18 04:18:35.87	9.00	6.31	
2025-01-18 04:18:36.08	8.97	6.31	
2025-01-18 04:18:36.28	8.94	6.32	
2025-01-18 04:18:36.48	8.91	6.32	
2025-01-18 04:18:36.69	8.88	6.33	
2025-01-18 04:18:36.89	8.85	6.34	
2025-01-18 04:18:37.09	8.82	6.34	
2025-01-18 04:18:37.30	8.79	6.35	
2025-01-18 04:18:37.50	8.76	6.36	
2025-01-18 04:18:37.70	8.73	6.36	
2025-01-18 04:18:37.91	8.70	6.37	
2025-01-18 04:18:38.11	8.67	6.37	
2025-01-18 04:18:38.31	8.65	6.38	
2025-01-18 04:18:38.52	8.62	6.39	
2025-01-18 04:18:38.72	8.59	6.39	
2025-01-18 04:18:38.92	8.56	6.40	
2025-01-18 04:18:39.12	8.53	6.41	
2025-01-18 04:18:39.33	8.50	6.41	
2025-01-18 04:18:39.53	8.47	6.42	
2025-01-18 04:18:39.73	8.44	6.42	
2025-01-18 04:18:39.94	8.41	6.43	
2025-01-18 04:18:40.14	8.38	6.44	
2025-01-18 04:18:40.34	8.35	6.44	
2025-01-18 04:18:40.55	8.32	6.45	
2025-01-18 04:18:40.75	8.29	6.46	
2025-01-18 04:18:40.95	8.27	6.46	
2025-01-18 04:18:41.15	8.24	6.47	
2025-01-18 04:18:41.36	8.21	6.47	
2025-01-18 04:18:41.56	8.18	6.48	
2025-01-18 04:18:41.76	8.15	6.49	
2025-01-18 04:18:41.97	8.12	6.49	
2025-01-18 04:18:42.17	8.09	6.50	
2025-01-18 04:18:42.37	8.06	6.51	
2025-01-18 04:18:42.58	8.03	6.51	
2025-01-18 04:18:42.78	8.00	6.52	
2025-01-18 04:18:42.98	7.97	6.52	
2025-01-18 04:18:43.19	7.94	6.53	
2025-01-18 04:18:43.39	7.91	6.54	
2025-01-18 04:18:43.59	7.88	6.54	
2025-01-18 04:18:43.80	7.85	6.55	
2025-01-18 04:18:44.00	7.82	6.55	
2025-01-18 04:18:44.20	7.79	6.56	
2025-01-18 04:18:44.40	7.76	6.57	
2025-01-18 04:18:44.61	7.73	6.57	
2025-01-18 04:18:44.81	7.70	6.58	
2025-01-18 04:18:45.01	7.67	6.59	
2025-01-18 04:18:45.22	7.64	6.59	
2025-01-18 04:18:45.42	7.62	6.60	
2025-01-18 04:18:45.62	7.59	6.60	
2025-01-18 04:18:45.83	7.56	6.61	
2025-01-18 04:18:46.03	7.53	6.62	
2025-01-18 04:18:46.23	7.50	6.62	
2025-01-18 04:18:46.44	7.47	6.63	
2025-01-18 04:18:46.64	7.44	6.63	
2025-01-18 04:18:46.84	7.41	6.64	
2025-01-18 04:18:47.04	7.38	6.65	
2025-01-18 04:18:47.25	7.35	6.65	
2025-01-18 04:18:47.45	7.32	6.66	
2025-01-18 04:18:47.65	7.29	6.66	
2025-01-18 04:18:47.86	7.26	6.67	
2025-01-18 04:18:48.06	7.23	6.68	
2025-01-18 04:18:48.26	7.20	6.68	
2025-01-18 04:18:48.47	7.17	6.69	
2025-01-18 04:18:48.67	7.14	6.69	
2025-01-18 04:18:48.87	7.11	6.70	
2025-01-18 04:18:49.08	7.08	6.71	
2025-01-18 04:18:49.28	7.05	6.71	
2025-01-18 04:18:49.48	7.02	6.72	
2025-01-18 04:18:49.68	6.99	6.72	
2025-01-18 04:18:49.89	6.96	6.73	
2025-01-18 04:18:50.09	6.93	6.74	
2025-01-18 04:18:50.29	6.90	6.74	
2025-01-18 04:18:50.50	6.87	6.75	
2025-01-18 04:18:50.70	6.84	6.75	
2025-01-18 04:18:50.90	6.81	6.76	
2025-01-18 04:18:51.11	6.78	6.77	
2025-01-18 04:18:51.31	6.75	6.77	
2025-01-18 04:18:51.51	6.72	6.78	
2025-01-18 04:18:51.72	6.69	6.78	
2025-01-18 04:18:51.92	6.66	6.79	
2025-01-18 04:18:52.12	6.63	6.79	
2025-01-18 04:18:52.32	6.60	6.80	
2025-01-18 04:18:52.53	6.57	6.81	
2025-01-18 04:18:52.73	6.54	6.81	
2025-01-18 04:18:52.93	6.51	6.82	
2025-01-18 04:18:53.14	6.48	6.82	
2025-01-18 04:18:53.34	6.45	6.83	
2025-01-18 04:18:53.54	6.42	6.84	
2025-01-18 04:18:53.75	6.39	6.84	
2025-01-18 04:18:53.95	6.36	6.85	
2025-01-18 04:18:54.15	6.33	6.85	
2025-01-18 04:18:54.36	6.30	6.86	
2025-01-18 04:18:54.56	6.27	6.86	
2025-01-18 04:18:54.76	6.24	6.87	
2025-01-18 04:18:54.96	6.21	6.88	
2025-01-18 04:18:55.17	6.18	6.88	
2025-01-18 04:18:55.37	6.15	6.89	
2025-01-18 04:18:55.57	6.12	6.89	
2025-01-18 04:18:55.78	6.08	6.90	
2025-01-18 04:18:55.98	6.06	6.91	
2025-01-18 04:18:56.18	6.03	6.91	
2025-01-18 04:18:56.39	5.99	6.92	
2025-01-18 04:18:56.59	5.96	6.92	
2025-01-18 04:18:56.79	5.93	6.93	
2025-01-18 04:18:57.00	5.90	6.93	
2025-01-18 04:18:57.20	5.87	6.94	
2025-01-18 04:18:57.40	5.84	6.95	
2025-01-18 04:18:57.60	5.81	6.95	
2025-01-18 04:18:57.81	5.78	6.96	
2025-01-18 04:18:58.01	5.75	6.96	
2025-01-18 04:18:58.21	5.72	6.97	
2025-01-18 04:18:58.42	5.69	6.97	
2025-01-18 04:18:58.62	5.66	6.98	
2025-01-18 04:18:58.82	5.63	6.99	
2025-01-18 04:18:59.03	5.60	6.99	
2025-01-18 04:18:59.23	5.57	7.00	
2025-01-18 04:18:59.43	5.54	7.00	
2025-01-18 04:18:59.64	5.51	7.01	
2025-01-18 04:18:59.84	5.48	7.01	
2025-01-18 04:19:00.04	5.45	7.02	
2025-01-18 04:19:00.25	5.41	7.03	
2025-01-18 04:19:00.45	5.38	7.03	
2025-01-18 04:19:00.65	5.35	7.04	
2025-01-18 04:19:00.85	5.32	7.04	
2025-01-18 04:19:01.06	5.29	7.05	
2025-01-18 04:19:01.26	5.26	7.05	
2025-01-18 04:19:01.46	5.23	7.06	
2025-01-18 04:19:01.67	5.20	7.06	
2025-01-18 04:19:01.87	5.17	7.07	
2025-01-18 04:19:02.07	5.14	7.08	
2025-01-18 04:19:02.28	5.11	7.08	
2025-01-18 04:19:02.48	5.08	7.09	
2025-01-18 04:19:02.68	5.05	7.09	
2025-01-18 04:19:02.89	5.02	7.10	
2025-01-18 04:19:03.09	4.99	7.10	
2025-01-18 04:19:03.29	4.96	7.11	
2025-01-18 04:19:03.49	4.93	7.11	
2025-01-18 04:19:03.70	4.89	7.12	
2025-01-18 04:19:03.90	4.86	7.13	
2025-01-18 04:19:04.10	4.83	7.13	
2025-01-18 04:19:04.31	4.80	7.14	
2025-01-18 04:19:04.51	4.77	7.14	
2025-01-18 04:19:04.71	4.74	7.15	
2025-01-18 04:19:04.92	4.71	7.15	
2025-01-18 04:19:05.12	4.68	7.16	
2025-01-18 04:19:05.32	4.65	7.16	
2025-01-18 04:19:05.53	4.62	7.17	
2025-01-18 04:19:05.73	4.59	7.17	
2025-01-18 04:19:05.93	4.55	7.18	
2025-01-18 04:19:06.13	4.52	7.19	
2025-01-18 04:19:06.34	4.49	7.19	
2025-01-18 04:19:06.54	4.46	7.20	
2025-01-18 04:19:06.74	4.43	7.20	
2025-01-18 04:19:06.95	4.40	7.21	
2025-01-18 04:19:07.15	4.37	7.21	
2025-01-18 04:19:07.35	4.34	7.22	
2025-01-18 04:19:07.56	4.31	7.22	
2025-01-18 04:19:07.76	4.28	7.23	
2025-01-18 04:19:07.96	4.25	7.23	
2025-01-18 04:19:08.17	4.21	7.24	
2025-01-18 04:19:08.37	4.18	7.25	
2025-01-18 04:19:08.57	4.15	7.25	
2025-01-18 04:19:08.77	4.12	7.26	
2025-01-18 04:19:08.98	4.09	7.26	
2025-01-18 04:19:09.18	4.06	7.27	
2025-01-18 04:19:09.38	4.03	7.27	
2025-01-18 04:19:09.59	4.00	7.28	
2025-01-18 04:19:09.79	3.97	7.28	
2025-01-18 04:19:09.99	3.93	7.29	
2025-01-18 04:19:10.20	3.90	7.29	
2025-01-18 04:19:10.40	3.87	7.30	
2025-01-18 04:19:10.60	3.84	7.30	
2025-01-18 04:19:10.81	3.81	7.31	
2025-01-18 04:19:11.01	3.78	7.31	
2025-01-18 04:19:11.21	3.75	7.32	
2025-01-18 04:19:11.41	3.72	7.32	
2025-01-18 04:19:11.62	3.68	7.33	
2025-01-18 04:19:11.82	3.65	7.34	
2025-01-18 04:19:12.02	3.62	7.34	
2025-01-18 04:19:12.23	3.59	7.35	
2025-01-18 04:19:12.43	3.56	7.35	
2025-01-18 04:19:12.63	3.53	7.36	
2025-01-18 04:19:12.84	3.50	7.36	
2025-01-18 04:19:13.04	3.47	7.37	
2025-01-18 04:19:13.24	3.43	7.37	
2025-01-18 04:19:13.45	3.40	7.38	
2025-01-18 04:19:13.65	3.37	7.38	
2025-01-18 04:19:13.85	3.34	7.39	
2025-01-18 04:19:14.05	3.31	7.39	
2025-01-18 04:19:14.26	3.28	7.40	
2025-01-18 04:19:14.46	3.25	7.40	
2025-01-18 04:19:14.66	3.22	7.41	
2025-01-18 04:19:14.87	3.18	7.41	
2025-01-18 04:19:15.07	3.15	7.42	
2025-01-18 04:19:15.27	3.12	7.42	
2025-01-18 04:19:15.48	3.09	7.43	
2025-01-18 04:19:15.68	3.06	7.43	
2025-01-18 04:19:15.88	3.03	7.44	
2025-01-18 04:19:16.09	2.99	7.44	
2025-01-18 04:19:16.29	2.96	7.45	
2025-01-18 04:19:16.49	2.93	7.45	
2025-01-18 04:19:16.69	2.90	7.46	
2025-01-18 04:19:16.90	2.87	7.46	
2025-01-18 04:19:17.10	2.84	7.47	
2025-01-18 04:19:17.30	2.81	7.47	
2025-01-18 04:19:17.51	2.77	7.48	
2025-01-18 04:19:17.71	2.74	7.48	
2025-01-18 04:19:17.91	2.71	7.49	
2025-01-18 04:19:18.12	2.68	7.49	
2025-01-18 04:19:18.32	2.65	7.50	
2025-01-18 04:19:18.52	2.62	7.50	
2025-01-18 04:19:18.73	2.58	7.51	
2025-01-18 04:19:18.93	2.55	7.51	
2025-01-18 04:19:19.13	2.52	7.52	
2025-01-18 04:19:19.33	2.49	7.52	
2025-01-18 04:19:19.54	2.46	7.53	
2025-01-18 04:19:19.74	2.43	7.53	
2025-01-18 04:19:19.94	2.39	7.54	
2025-01-18 04:19:20.15	2.36	7.54	
2025-01-18 04:19:20.35	2.33	7.55	
2025-01-18 04:19:20.55	2.30	7.55	
2025-01-18 04:19:20.76	2.27	7.56	
2025-01-18 04:19:20.96	2.24	7.56	
2025-01-18 04:19:21.16	2.20	7.57	
2025-01-18 04:19:21.37	2.17	7.57	
2025-01-18 04:19:21.57	2.14	7.58	
2025-01-18 04:19:21.77	2.11	7.58	
2025-01-18 04:19:21.98	2.08	7.59	
2025-01-18 04:19:22.18	2.04	7.59	
2025-01-18 04:19:22.38	2.01	7.60	
2025-01-18 04:19:22.58	1.98	7.60	
2025-01-18 04:19:22.79	1.95	7.61	
2025-01-18 04:19:22.99	1.92	7.61	
2025-01-18 04:19:23.19	1.89	7.62	
2025-01-18 04:19:23.40	1.85	7.62	
2025-01-18 04:19:23.60	1.82	7.63	
2025-01-18 04:19:23.80	1.79	7.63	
2025-01-18 04:19:24.01	1.76	7.64	
2025-01-18 04:19:24.21	1.73	7.64	
2025-01-18 04:19:24.41	1.69	7.65	
2025-01-18 04:19:24.62	1.66	7.65	
2025-01-18 04:19:24.82	1.63	7.66	
2025-01-18 04:19:25.02	1.60	7.66	
2025-01-18 04:19:25.22	1.57	7.67	
2025-01-18 04:19:25.43	1.53	7.67	
2025-01-18 04:19:25.63	1.50	7.68	
2025-01-18 04:19:25.83	1.47	7.68	
2025-01-18 04:19:26.04	1.44	7.69	
2025-01-18 04:19:26.24	1.41	7.69	
2025-01-18 04:19:26.44	1.37	7.69	
2025-01-18 04:19:26.65	1.34	7.70	
2025-01-18 04:19:26.85	1.31	7.70	
2025-01-18 04:19:27.05	1.28	7.71	
2025-01-18 04:19:27.26	1.25	7.71	
2025-01-18 04:19:27.46	1.21	7.72	
2025-01-18 04:19:27.66	1.18	7.72	
2025-01-18 04:19:27.86	1.15	7.73	
2025-01-18 04:19:28.07	1.12	7.73	
2025-01-18 04:19:28.27	1.09	7.74	
2025-01-18 04:19:28.47	1.05	7.74	
2025-01-18 04:19:28.68	1.02	7.75	
2025-01-18 04:19:28.88	0.99	7.75	
2025-01-18 04:19:29.08	0.96	7.76	
2025-01-18 04:19:29.29	0.92	7.76	
2025-01-18 04:19:29.49	0.89	7.76	
2025-01-18 04:19:29.69	0.86	7.77	
2025-01-18 04:19:29.90	0.83	7.77	
2025-01-18 04:19:30.10	0.80	7.78	
2025-01-18 04:19:30.30	0.76	7.78	
2025-01-18 04:19:30.50	0.73	7.79	
2025-01-18 04:19:30.71	0.70	7.79	
2025-01-18 04:19:30.91	0.67	7.80	
2025-01-18 04:19:31.11	0.63	7.80	
2025-01-18 04:19:31.32	0.60	7.81	
2025-01-18 04:19:31.52	0.57	7.81	
2025-01-18 04:19:31.72	0.54	7.82	
2025-01-18 04:19:31.93	0.50	7.82	
2025-01-18 04:19:32.13	0.47	7.82	
2025-01-18 04:19:32.33	0.44	7.83	
2025-01-18 04:19:32.54	0.41	7.83	
2025-01-18 04:19:32.74	0.38	7.84	
2025-01-18 04:19:32.94	0.34	7.84	
2025-01-18 04:19:33.14	0.31	7.85	
2025-01-18 04:19:33.35	0.28	7.85	
2025-01-18 04:19:33.55	0.25	7.86	
2025-01-18 04:19:33.75	0.21	7.86	
2025-01-18 04:19:33.96	0.18	7.86	
2025-01-18 04:19:34.16	0.15	7.87	
2025-01-18 04:19:34.36	0.12	7.87	
2025-01-18 04:19:34.57	0.08	7.88	
2025-01-18 04:19:34.77	0.05	7.88	
2025-01-18 04:19:34.97	0.02	7.89	
2025-01-18 04:19:35.18	359.99	7.89	
2025-01-18 04:19:35.38	359.95	7.90	
2025-01-18 04:19:35.58	359.92	7.90	
2025-01-18 04:19:35.78	359.89	7.90	
2025-01-18 04:19:35.99	359.86	7.91	
2025-01-18 04:19:36.19	359.82	7.91	
2025-01-18 04:19:36.39	359.79	7.92	
2025-01-18 04:19:36.60	359.76	7.92	
2025-01-18 04:19:36.80	359.73	7.93	
2025-01-18 04:19:37.00	359.69	7.93	
2025-01-18 04:19:37.21	359.66	7.93	
2025-01-18 04:19:37.41	359.63	7.94	
2025-01-18 04:19:37.61	359.60	7.94	
2025-01-18 04:19:37.82	359.56	7.95	
2025-01-18 04:19:38.02	359.53	7.95	
2025-01-18 04:19:38.22	359.50	7.96	
2025-01-18 04:19:38.42	359.47	7.96	
2025-01-18 04:19:38.63	359.43	7.96	
2025-01-18 04:19:38.83	359.40	7.97	
2025-01-18 04:19:39.03	359.37	7.97	
2025-01-18 04:19:39.24	359.33	7.98	
2025-01-18 04:19:39.44	359.30	7.98	
2025-01-18 04:19:39.64	359.27	7.99	
2025-01-18 04:19:39.85	359.24	7.99	
2025-01-18 04:19:40.05	359.20	7.99	
2025-01-18 04:19:40.25	359.17	8.00	
2025-01-18 04:19:40.46	359.14	8.00	
2025-01-18 04:19:40.66	359.11	8.01	
2025-01-18 04:19:40.86	359.07	8.01	
2025-01-18 04:19:41.06	359.04	8.02	
2025-01-18 04:19:41.27	359.01	8.02	
2025-01-18 04:19:41.47	358.97	8.02	
2025-01-18 04:19:41.67	358.94	8.03	
2025-01-18 04:19:41.88	358.91	8.03	
2025-01-18 04:19:42.08	358.88	8.04	
2025-01-18 04:19:42.28	358.84	8.04	
2025-01-18 04:19:42.49	358.81	8.04	
2025-01-18 04:19:42.69	358.78	8.05	
2025-01-18 04:19:42.89	358.75	8.05	
2025-01-18 04:19:43.10	358.71	8.06	
2025-01-18 04:19:43.30	358.68	8.06	
2025-01-18 04:19:43.50	358.65	8.06	
2025-01-18 04:19:43.70	358.61	8.07	
2025-01-18 04:19:43.91	358.58	8.07	
2025-01-18 04:19:44.11	358.55	8.08	
2025-01-18 04:19:44.31	358.52	8.08	
2025-01-18 04:19:44.52	358.48	8.08	
2025-01-18 04:19:44.72	358.45	8.09	
2025-01-18 04:19:44.92	358.42	8.09	
2025-01-18 04:19:45.13	358.38	8.10	
2025-01-18 04:19:45.33	358.35	8.10	
2025-01-18 04:19:45.53	358.32	8.10	
2025-01-18 04:19:45.74	358.28	8.11	
2025-01-18 04:19:45.94	358.25	8.11	
2025-01-18 04:19:46.14	358.22	8.12	
2025-01-18 04:19:46.35	358.18	8.12	
2025-01-18 04:19:46.55	358.15	8.12	
2025-01-18 04:19:46.75	358.12	8.13	
2025-01-18 04:19:46.95	358.09	8.13	
2025-01-18 04:19:47.16	358.05	8.14	
2025-01-18 04:19:47.36	358.02	8.14	
2025-01-18 04:19:47.56	357.99	8.14	
2025-01-18 04:19:47.77	357.95	8.15	
2025-01-18 04:19:47.97	357.92	8.15	
2025-01-18 04:19:48.17	357.89	8.16	
2025-01-18 04:19:48.38	357.85	8.16	
2025-01-18 04:19:48.58	357.82	8.16	
2025-01-18 04:19:48.78	357.79	8.17	
2025-01-18 04:19:48.99	357.75	8.17	
2025-01-18 04:19:49.19	357.72	8.17	
2025-01-18 04:19:49.39	357.69	8.18	
2025-01-18 04:19:49.59	357.66	8.18	
2025-01-18 04:19:49.80	357.62	8.19	
2025-01-18 04:19:50.00	357.59	8.19	
2025-01-18 04:19:50.20	357.56	8.19	
2025-01-18 04:19:50.41	357.52	8.20	
2025-01-18 04:19:50.61	357.49	8.20	
2025-01-18 04:19:50.81	357.46	8.21	
2025-01-18 04:19:51.02	357.42	8.21	
2025-01-18 04:19:51.22	357.39	8.21	
2025-01-18 04:19:51.42	357.36	8.22	
2025-01-18 04:19:51.63	357.32	8.22	
2025-01-18 04:19:51.83	357.29	8.22	
2025-01-18 04:19:52.03	357.26	8.23	
2025-01-18 04:19:52.23	357.22	8.23	
2025-01-18 04:19:52.44	357.19	8.24	
2025-01-18 04:19:52.64	357.16	8.24	
2025-01-18 04:19:52.84	357.12	8.24	
2025-01-18 04:19:53.05	357.09	8.25	
2025-01-18 04:19:53.25	357.06	8.25	
2025-01-18 04:19:53.45	357.02	8.25	
2025-01-18 04:19:53.66	356.99	8.26	
2025-01-18 04:19:53.86	356.96	8.26	
2025-01-18 04:19:54.06	356.92	8.26	
2025-01-18 04:19:54.27	356.89	8.27	
2025-01-18 04:19:54.47	356.86	8.27	
2025-01-18 04:19:54.67	356.82	8.28	
2025-01-18 04:19:54.87	356.79	8.28	
2025-01-18 04:19:55.08	356.76	8.28	
2025-01-18 04:19:55.28	356.72	8.29	
2025-01-18 04:19:55.48	356.69	8.29	
2025-01-18 04:19:55.69	356.66	8.29	
2025-01-18 04:19:55.89	356.62	8.30	
2025-01-18 04:19:56.09	356.59	8.30	
2025-01-18 04:19:56.30	356.56	8.30	
2025-01-18 04:19:56.50	356.52	8.31	
2025-01-18 04:19:56.70	356.49	8.31	
2025-01-18 04:19:56.91	356.46	8.31	
2025-01-18 04:19:57.11	356.42	8.32	
2025-01-18 04:19:57.31	356.39	8.32	
2025-01-18 04:19:57.51	356.36	8.32	
2025-01-18 04:19:57.72	356.32	8.33	
2025-01-18 04:19:57.92	356.29	8.33	
2025-01-18 04:19:58.12	356.26	8.33	
2025-01-18 04:19:58.33	356.22	8.34	
2025-01-18 04:19:58.53	356.19	8.34	
2025-01-18 04:19:58.73	356.15	8.35	
2025-01-18 04:19:58.94	356.12	8.35	
2025-01-18 04:19:59.14	356.09	8.35	
2025-01-18 04:19:59.34	356.05	8.36	
2025-01-18 04:19:59.55	356.02	8.36	
2025-01-18 04:19:59.75	355.99	8.36	
2025-01-18 04:19:59.95	355.95	8.37	
2025-01-18 04:20:00.15	355.92	8.37	
2025-01-18 04:20:00.36	355.89	8.37	
2025-01-18 04:20:00.56	355.85	8.38	
2025-01-18 04:20:00.76	355.82	8.38	
2025-01-18 04:20:00.97	355.78	8.38	
2025-01-18 04:20:01.17	355.75	8.39	
2025-01-18 04:20:01.37	355.72	8.39	
2025-01-18 04:20:01.58	355.68	8.39	
2025-01-18 04:20:01.78	355.65	8.40	
2025-01-18 04:20:01.98	355.62	8.40	
2025-01-18 04:20:02.19	355.58	8.40	
2025-01-18 04:20:02.39	355.55	8.41	
2025-01-18 04:20:02.59	355.52	8.41	
2025-01-18 04:20:02.79	355.48	8.41	
2025-01-18 04:20:03.00	355.45	8.42	
2025-01-18 04:20:03.20	355.41	8.42	
2025-01-18 04:20:03.40	355.38	8.42	
2025-01-18 04:20:03.61	355.35	8.42	
2025-01-18 04:20:03.81	355.31	8.43	
2025-01-18 04:20:04.01	355.28	8.43	
2025-01-18 04:20:04.22	355.25	8.43	
2025-01-18 04:20:04.42	355.21	8.44	
2025-01-18 04:20:04.62	355.18	8.44	
2025-01-18 04:20:04.83	355.14	8.44	
2025-01-18 04:20:05.03	355.11	8.45	
2025-01-18 04:20:05.23	355.08	8.45	
2025-01-18 04:20:05.43	355.04	8.45	
2025-01-18 04:20:05.64	355.01	8.46	
2025-01-18 04:20:05.84	354.98	8.46	
2025-01-18 04:20:06.04	354.94	8.46	
2025-01-18 04:20:06.25	354.91	8.47	
2025-01-18 04:20:06.45	354.87	8.47	
2025-01-18 04:20:06.65	354.84	8.47	
2025-01-18 04:20:06.86	354.81	8.48	
2025-01-18 04:20:07.06	354.77	8.48	
2025-01-18 04:20:07.26	354.74	8.48	
2025-01-18 04:20:07.47	354.70	8.48	
2025-01-18 04:20:07.67	354.67	8.49	
2025-01-18 04:20:07.87	354.64	8.49	
2025-01-18 04:20:08.08	354.60	8.49	
2025-01-18 04:20:08.28	354.57	8.50	
2025-01-18 04:20:08.48	354.54	8.50	
2025-01-18 04:20:08.68	354.50	8.50	
2025-01-18 04:20:08.89	354.47	8.51	
2025-01-18 04:20:09.09	354.43	8.51	
2025-01-18 04:20:09.29	354.40	8.51	
2025-01-18 04:20:09.50	354.37	8.51	
2025-01-18 04:20:09.70	354.33	8.52	
2025-01-18 04:20:09.90	354.30	8.52	
2025-01-18 04:20:10.11	354.26	8.52	
2025-01-18 04:20:10.31	354.23	8.53	
2025-01-18 04:20:10.51	354.20	8.53	
2025-01-18 04:20:10.72	354.16	8.53	
2025-01-18 04:20:10.92	354.13	8.53	
2025-01-18 04:20:11.12	354.09	8.54	
2025-01-18 04:20:11.32	354.06	8.54	
2025-01-18 04:20:11.53	354.03	8.54	
2025-01-18 04:20:11.73	353.99	8.55	
2025-01-18 04:20:11.93	353.96	8.55	
2025-01-18 04:20:12.14	353.92	8.55	
2025-01-18 04:20:12.34	353.89	8.55	
2025-01-18 04:20:12.54	353.86	8.56	
2025-01-18 04:20:12.75	353.82	8.56	
2025-01-18 04:20:12.95	353.79	8.56	
2025-01-18 04:20:13.15	353.75	8.57	
2025-01-18 04:20:13.36	353.72	8.57	
2025-01-18 04:20:13.56	353.69	8.57	
2025-01-18 04:20:13.76	353.65	8.57	
2025-01-18 04:20:13.96	353.62	8.58	
2025-01-18 04:20:14.17	353.58	8.58	
2025-01-18 04:20:14.37	353.55	8.58	
2025-01-18 04:20:14.57	353.52	8.58	
2025-01-18 04:20:14.78	353.48	8.59	
2025-01-18 04:20:14.98	353.45	8.59	
2025-01-18 04:20:15.18	353.41	8.59	
2025-01-18 04:20:15.39	353.38	8.60	
2025-01-18 04:20:15.59	353.34	8.60	
2025-01-18 04:20:15.79	353.31	8.60	
2025-01-18 04:20:16.00	353.28	8.60	
2025-01-18 04:20:16.20	353.24	8.61	
2025-01-18 04:20:16.40	353.21	8.61	
2025-01-18 04:20:16.60	353.17	8.61	
2025-01-18 04:20:16.81	353.14	8.61	
2025-01-18 04:20:17.01	353.11	8.62	
2025-01-18 04:20:17.21	353.07	8.62	
2025-01-18 04:20:17.42	353.04	8.62	
2025-01-18 04:20:17.62	353.00	8.62	
2025-01-18 04:20:17.82	352.97	8.63	
2025-01-18 04:20:18.03	352.93	8.63	
2025-01-18 04:20:18.23	352.90	8.63	
2025-01-18 04:20:18.43	352.87	8.63	
2025-01-18 04:20:18.64	352.83	8.64	
2025-01-18 04:20:18.84	352.80	8.64	
2025-01-18 04:20:19.04	352.76	8.64	
2025-01-18 04:20:19.24	352.73	8.64	
2025-01-18 04:20:19.45	352.69	8.65	
2025-01-18 04:20:19.65	352.66	8.65	
2025-01-18 04:20:19.85	352.63	8.65	
2025-01-18 04:20:20.06	352.59	8.65	
2025-01-18 04:20:20.26	352.56	8.66	
2025-01-18 04:20:20.46	352.52	8.66	
2025-01-18 04:20:20.67	352.49	8.66	
2025-01-18 04:20:20.87	352.45	8.66	
2025-01-18 04:20:21.07	352.42	8.67	
2025-01-18 04:20:21.28	352.39	8.67	
2025-01-18 04:20:21.48	352.35	8.67	
2025-01-18 04:20:21.68	352.32	8.67	
2025-01-18 04:20:21.88	352.28	8.68	
2025-01-18 04:20:22.09	352.25	8.68	
2025-01-18 04:20:22.29	352.22	8.68	
2025-01-18 04:20:22.49	352.18	8.68	
2025-01-18 04:20:22.70	352.15	8.69	
2025-01-18 04:20:22.90	352.11	8.69	
2025-01-18 04:20:23.10	352.08	8.69	
2025-01-18 04:20:23.31	352.04	8.69	
2025-01-18 04:20:23.51	352.01	8.69	
2025-01-18 04:20:23.71	351.97	8.70	
2025-01-18 04:20:23.92	351.94	8.70	
2025-01-18 04:20:24.12	351.91	8.70	
2025-01-18 04:20:24.32	351.87	8.70	
2025-01-18 04:20:24.52	351.84	8.71	
2025-01-18 04:20:24.73	351.80	8.71	
2025-01-18 04:20:24.93	351.77	8.71	
2025-01-18 04:20:25.13	351.73	8.71	
2025-01-18 04:20:25.34	351.70	8.72	
2025-01-18 04:20:25.54	351.66	8.72	
2025-01-18 04:20:25.74	351.63	8.72	
2025-01-18 04:20:25.95	351.60	8.72	
2025-01-18 04:20:26.15	351.56	8.72	
2025-01-18 04:20:26.35	351.53	8.73	
2025-01-18 04:20:26.56	351.49	8.73	
2025-01-18 04:20:26.76	351.46	8.73	
2025-01-18 04:20:26.96	351.42	8.73	
2025-01-18 04:20:27.16	351.39	8.73	
2025-01-18 04:20:27.37	351.35	8.74	
2025-01-18 04:20:27.57	351.32	8.74	
2025-01-18 04:20:27.77	351.29	8.74	
2025-01-18 04:20:27.98	351.25	8.74	
2025-01-18 04:20:28.18	351.22	8.75	
2025-01-18 04:20:28.38	351.18	8.75	
2025-01-18 04:20:28.59	351.15	8.75	
2025-01-18 04:20:28.79	351.11	8.75	
2025-01-18 04:20:28.99	351.08	8.75	
2025-01-18 04:20:29.20	351.04	8.76	
2025-01-18 04:20:29.40	351.01	8.76	
2025-01-18 04:20:29.60	350.98	8.76	
2025-01-18 04:20:29.81	350.94	8.76	
2025-01-18 04:20:30.01	350.91	8.76	
2025-01-18 04:20:30.21	350.87	8.77	
2025-01-18 04:20:30.41	350.84	8.77	
2025-01-18 04:20:30.62	350.80	8.77	
2025-01-18 04:20:30.82	350.77	8.77	
2025-01-18 04:20:31.02	350.73	8.77	
2025-01-18 04:20:31.23	350.70	8.78	
2025-01-18 04:20:31.43	350.66	8.78	
2025-01-18 04:20:31.63	350.63	8.78	
2025-01-18 04:20:31.84	350.59	8.78	
2025-01-18 04:20:32.04	350.56	8.78	
2025-01-18 04:20:32.24	350.53	8.78	
2025-01-18 04:20:32.45	350.49	8.79	
2025-01-18 04:20:32.65	350.46	8.79	
2025-01-18 04:20:32.85	350.42	8.79	
2025-01-18 04:20:33.05	350.39	8.79	
2025-01-18 04:20:33.26	350.35	8.79	
2025-01-18 04:20:33.46	350.32	8.80	
2025-01-18 04:20:33.66	350.28	8.80	
2025-01-18 04:20:33.87	350.25	8.80	
2025-01-18 04:20:34.07	350.21	8.80	
2025-01-18 04:20:34.27	350.18	8.80	
2025-01-18 04:20:34.48	350.14	8.80	
2025-01-18 04:20:34.68	350.11	8.81	
2025-01-18 04:20:34.88	350.08	8.81	
2025-01-18 04:20:35.09	350.04	8.81	
2025-01-18 04:20:35.29	350.01	8.81	
2025-01-18 04:20:35.49	349.97	8.81	
2025-01-18 04:20:35.69	349.94	8.82	
2025-01-18 04:20:35.90	349.90	8.82	
2025-01-18 04:20:36.10	349.87	8.82	
2025-01-18 04:20:36.30	349.83	8.82	
2025-01-18 04:20:36.51	349.80	8.82	
2025-01-18 04:20:36.71	349.76	8.82	
2025-01-18 04:20:36.91	349.73	8.83	
2025-01-18 04:20:37.12	349.69	8.83	
2025-01-18 04:20:37.32	349.66	8.83	
2025-01-18 04:20:37.52	349.63	8.83	
2025-01-18 04:20:37.73	349.59	8.83	
2025-01-18 04:20:37.93	349.56	8.83	
2025-01-18 04:20:38.13	349.52	8.83	
2025-01-18 04:20:38.33	349.49	8.84	
2025-01-18 04:20:38.54	349.45	8.84	
2025-01-18 04:20:38.74	349.42	8.84	
2025-01-18 04:20:38.94	349.38	8.84	
2025-01-18 04:20:39.15	349.35	8.84	
2025-01-18 04:20:39.35	349.31	8.84	
2025-01-18 04:20:39.55	349.28	8.85	
2025-01-18 04:20:39.76	349.24	8.85	
2025-01-18 04:20:39.96	349.21	8.85	
2025-01-18 04:20:40.16	349.17	8.85	
2025-01-18 04:20:40.37	349.14	8.85	
2025-01-18 04:20:40.57	349.10	8.85	
2025-01-18 04:20:40.77	349.07	8.85	
2025-01-18 04:20:40.97	349.04	8.86	
2025-01-18 04:20:41.18	349.00	8.86	
2025-01-18 04:20:41.38	348.97	8.86	
2025-01-18 04:20:41.58	348.93	8.86	
2025-01-18 04:20:41.79	348.90	8.86	
2025-01-18 04:20:41.99	348.86	8.86	
2025-01-18 04:20:42.19	348.83	8.86	
2025-01-18 04:20:42.40	348.79	8.87	
2025-01-18 04:20:42.60	348.76	8.87	
2025-01-18 04:20:42.80	348.72	8.87	
2025-01-18 04:20:43.01	348.69	8.87	
2025-01-18 04:20:43.21	348.65	8.87	
2025-01-18 04:20:43.41	348.62	8.87	
2025-01-18 04:20:43.61	348.58	8.87	
2025-01-18 04:20:43.82	348.55	8.88	
2025-01-18 04:20:44.02	348.51	8.88	
2025-01-18 04:20:44.22	348.48	8.88	
2025-01-18 04:20:44.43	348.44	8.88	
2025-01-18 04:20:44.63	348.41	8.88	
2025-01-18 04:20:44.83	348.37	8.88	
2025-01-18 04:20:45.04	348.34	8.88	
2025-01-18 04:20:45.24	348.30	8.88	
2025-01-18 04:20:45.44	348.27	8.89	
2025-01-18 04:20:45.65	348.23	8.89	
2025-01-18 04:20:45.85	348.20	8.89	
2025-01-18 04:20:46.05	348.17	8.89	
2025-01-18 04:20:46.25	348.13	8.89	
2025-01-18 04:20:46.46	348.09	8.89	
2025-01-18 04:20:46.66	348.06	8.89	
2025-01-18 04:20:46.86	348.03	8.89	
2025-01-18 04:20:47.07	347.99	8.90	
2025-01-18 04:20:47.27	347.96	8.90	
2025-01-18 04:20:47.47	347.92	8.90	
2025-01-18 04:20:47.68	347.89	8.90	
2025-01-18 04:20:47.88	347.85	8.90	
2025-01-18 04:20:48.08	347.82	8.90	
2025-01-18 04:20:48.29	347.78	8.90	
2025-01-18 04:20:48.49	347.75	8.90	
2025-01-18 04:20:48.69	347.71	8.90	
2025-01-18 04:20:48.89	347.68	8.91	
2025-01-18 04:20:49.10	347.64	8.91	
2025-01-18 04:20:49.30	347.61	8.91	
2025-01-18 04:20:49.50	347.57	8.91	
2025-01-18 04:20:49.71	347.54	8.91	
2025-01-18 04:20:49.91	347.50	8.91	
2025-01-18 04:20:50.11	347.47	8.91	
2025-01-18 04:20:50.32	347.43	8.91	
2025-01-18 04:20:50.52	347.40	8.91	
2025-01-18 04:20:50.72	347.36	8.91	
2025-01-18 04:20:50.93	347.33	8.92	
2025-01-18 04:20:51.13	347.29	8.92	
2025-01-18 04:20:51.33	347.26	8.92	
2025-01-18 04:20:51.53	347.22	8.92	
2025-01-18 04:20:51.74	347.19	8.92	
2025-01-18 04:20:51.94	347.15	8.92	
2025-01-18 04:20:52.14	347.12	8.92	
2025-01-18 04:20:52.35	347.08	8.92	
2025-01-18 04:20:52.55	347.05	8.92	
2025-01-18 04:20:52.75	347.01	8.92	
2025-01-18 04:20:52.96	346.98	8.92	
2025-01-18 04:20:53.16	346.94	8.93	
2025-01-18 04:20:53.36	346.91	8.93	
2025-01-18 04:20:53.57	346.87	8.93	
2025-01-18 04:20:53.77	346.84	8.93	
2025-01-18 04:20:53.97	346.80	8.93	
2025-01-18 04:20:54.18	346.77	8.93	
2025-01-18 04:20:54.38	346.73	8.93	
2025-01-18 04:20:54.58	346.70	8.93	
2025-01-18 04:20:54.78	346.66	8.93	
2025-01-18 04:20:54.99	346.63	8.93	
2025-01-18 04:20:55.19	346.59	8.93	
2025-01-18 04:20:55.39	346.56	8.93	
2025-01-18 04:20:55.60	346.52	8.94	
2025-01-18 04:20:55.80	346.49	8.94	
2025-01-18 04:20:56.00	346.45	8.94	
2025-01-18 04:20:56.21	346.42	8.94	
2025-01-18 04:20:56.41	346.38	8.94	
2025-01-18 04:20:56.61	346.35	8.94	
2025-01-18 04:20:56.81	346.32	8.94	
2025-01-18 04:20:57.02	346.28	8.94	
2025-01-18 04:20:57.22	346.24	8.94	
2025-01-18 04:20:57.42	346.21	8.94	
2025-01-18 04:20:57.63	346.17	8.94	
2025-01-18 04:20:57.83	346.14	8.94	
2025-01-18 04:20:58.03	346.11	8.94	
2025-01-18 04:20:58.24	346.07	8.94	
2025-01-18 04:20:58.44	346.03	8.94	
2025-01-18 04:20:58.64	346.00	8.94	
2025-01-18 04:20:58.85	345.96	8.95	
2025-01-18 04:20:59.05	345.93	8.95	
2025-01-18 04:20:59.25	345.90	8.95	
2025-01-18 04:20:59.46	345.86	8.95	
2025-01-18 04:20:59.66	345.82	8.95	
2025-01-18 04:20:59.86	345.79	8.95	
2025-01-18 04:21:00.06	345.76	8.95	
2025-01-18 04:21:00.27	345.72	8.95	
2025-01-18 04:21:00.47	345.68	8.95	
2025-01-18 04:21:00.67	345.65	8.95	
2025-01-18 04:21:00.88	345.61	8.95	
2025-01-18 04:21:01.08	345.58	8.95	
2025-01-18 04:21:01.28	345.55	8.95	
2025-01-18 04:21:01.49	345.51	8.95	
2025-01-18 04:21:01.69	345.47	8.95	
2025-01-18 04:21:01.89	345.44	8.95	
2025-01-18 04:21:02.10	345.40	8.95	
2025-01-18 04:21:02.30	345.37	8.95	
2025-01-18 04:21:02.50	345.34	8.95	
2025-01-18 04:21:02.70	345.30	8.95	
2025-01-18 04:21:02.91	345.26	8.95	
2025-01-18 04:21:03.11	345.23	8.96	
2025-01-18 04:21:03.31	345.20	8.96	
2025-01-18 04:21:03.52	345.16	8.96	
2025-01-18 04:21:03.72	345.12	8.96	
2025-01-18 04:21:03.92	345.09	8.96	
2025-01-18 04:21:04.13	345.05	8.96	
2025-01-18 04:21:04.33	345.02	8.96	
2025-01-18 04:21:04.53	344.99	8.96	
2025-01-18 04:21:04.74	344.95	8.96	
2025-01-18 04:21:04.94	344.91	8.96	
2025-01-18 04:21:05.14	344.88	8.96	
2025-01-18 04:21:05.34	344.85	8.96	
2025-01-18 04:21:05.55	344.81	8.96	
2025-01-18 04:21:05.75	344.77	8.96	
2025-01-18 04:21:05.95	344.74	8.96	
2025-01-18 04:21:06.16	344.70	8.96	
2025-01-18 04:21:06.36	344.67	8.96	
2025-01-18 04:21:06.56	344.64	8.96	
2025-01-18 04:21:06.77	344.60	8.96	
2025-01-18 04:21:06.97	344.56	8.96	
2025-01-18 04:21:07.17	344.53	8.96	
2025-01-18 04:21:07.38	344.49	8.96	
2025-01-18 04:21:07.58	344.46	8.96	
2025-01-18 04:21:07.78	344.42	8.96	
2025-01-18 04:21:07.98	344.39	8.96	
2025-01-18 04:21:08.19	344.35	8.96	
2025-01-18 04:21:08.39	344.32	8.96	
2025-01-18 04:21:08.59	344.29	8.96	
2025-01-18 04:21:08.80	344.25	8.96	
2025-01-18 04:21:09.00	344.21	8.96	
2025-01-18 04:21:09.20	344.18	8.96	
2025-01-18 04:21:09.41	344.14	8.96	
2025-01-18 04:21:09.61	344.11	8.96	
2025-01-18 04:21:09.81	344.07	8.96	
2025-01-18 04:21:10.02	344.04	8.96	
2025-01-18 04:21:10.22	344.00	8.96	
2025-01-18 04:21:10.42	343.97	8.96	
2025-01-18 04:21:10.62	343.94	8.96	
2025-01-18 04:21:10.83	343.90	8.96	
2025-01-18 04:21:11.03	343.86	8.96	
2025-01-18 04:21:11.23	343.83	8.96	
2025-01-18 04:21:11.44	343.79	8.96	
2025-01-18 04:21:11.64	343.76	8.96	
2025-01-18 04:21:11.84	343.72	8.96	
2025-01-18 04:21:12.05	343.69	8.96	
2025-01-18 04:21:12.25	343.65	8.96	
2025-01-18 04:21:12.45	343.62	8.96	
2025-01-18 04:21:12.66	343.58	8.96	
2025-01-18 04:21:12.86	343.55	8.96	
2025-01-18 04:21:13.06	343.51	8.96	
2025-01-18 04:21:13.26	343.48	8.96	
2025-01-18 04:21:13.47	343.44	8.96	
2025-01-18 04:21:13.67	343.41	8.96	
2025-01-18 04:21:13.87	343.37	8.96	
2025-01-18 04:21:14.08	343.34	8.96	
2025-01-18 04:21:14.28	343.30	8.96	
2025-01-18 04:21:14.48	343.27	8.96	
2025-01-18 04:21:14.69	343.23	8.96	
2025-01-18 04:21:14.89	343.20	8.96	
2025-01-18 04:21:15.09	343.16	8.96	
2025-01-18 04:21:15.30	343.13	8.96	
2025-01-18 04:21:15.50	343.09	8.96	
2025-01-18 04:21:15.70	343.06	8.96	
2025-01-18 04:21:15.90	343.02	8.96	
2025-01-18 04:21:16.11	342.99	8.96	
2025-01-18 04:21:16.31	342.95	8.96	
2025-01-18 04:21:16.51	342.92	8.96	
2025-01-18 04:21:16.72	342.88	8.96	
2025-01-18 04:21:16.92	342.85	8.96	
2025-01-18 04:21:17.12	342.81	8.96	
2025-01-18 04:21:17.33	342.78	8.96	
2025-01-18 04:21:17.53	342.74	8.95	
2025-01-18 04:21:17.73	342.71	8.95	
2025-01-18 04:21:17.94	342.67	8.95	
2025-01-18 04:21:18.14	342.64	8.95	
2025-01-18 04:21:18.34	342.60	8.95	
2025-01-18 04:21:18.55	342.57	8.95	
2025-01-18 04:21:18.75	342.53	8.95	
2025-01-18 04:21:18.95	342.50	8.95	
2025-01-18 04:21:19.15	342.46	8.95	
2025-01-18 04:21:19.36	342.43	8.95	
2025-01-18 04:21:19.56	342.39	8.95	
2025-01-18 04:21:19.76	342.36	8.95	
2025-01-18 04:21:19.97	342.32	8.95	
2025-01-18 04:21:20.17	342.29	8.95	
2025-01-18 04:21:20.37	342.25	8.95	
2025-01-18 04:21:20.58	342.22	8.95	
2025-01-18 04:21:20.78	342.18	8.95	
2025-01-18 04:21:20.98	342.15	8.95	
2025-01-18 04:21:21.19	342.11	8.95	
2025-01-18 04:21:21.39	342.08	8.95	
2025-01-18 04:21:21.59	342.04	8.95	
2025-01-18 04:21:21.79	342.01	8.94	
2025-01-18 04:21:22.00	341.97	8.94	
2025-01-18 04:21:22.20	341.94	8.94	
2025-01-18 04:21:22.40	341.90	8.94	
2025-01-18 04:21:22.61	341.87	8.94	
2025-01-18 04:21:22.81	341.83	8.94	
2025-01-18 04:21:23.01	341.80	8.94	
2025-01-18 04:21:23.22	341.76	8.94	
2025-01-18 04:21:23.42	341.73	8.94	
2025-01-18 04:21:23.62	341.69	8.94	
2025-01-18 04:21:23.83	341.66	8.94	
2025-01-18 04:21:24.03	341.62	8.94	
2025-01-18 04:21:24.23	341.59	8.94	
2025-01-18 04:21:24.43	341.55	8.94	
2025-01-18 04:21:24.64	341.52	8.94	
2025-01-18 04:21:24.84	341.48	8.94	
2025-01-18 04:21:25.04	341.45	8.93	
2025-01-18 04:21:25.25	341.41	8.93	
2025-01-18 04:21:25.45	341.38	8.93	
2025-01-18 04:21:25.65	341.34	8.93	
2025-01-18 04:21:25.86	341.31	8.93	
2025-01-18 04:21:26.06	341.27	8.93	
2025-01-18 04:21:26.26	341.24	8.93	
2025-01-18 04:21:26.47	341.20	8.93	
2025-01-18 04:21:26.67	341.17	8.93	
2025-01-18 04:21:26.87	341.13	8.93	
2025-01-18 04:21:27.07	341.10	8.93	
2025-01-18 04:21:27.28	341.06	8.93	
2025-01-18 04:21:27.48	341.03	8.92	
2025-01-18 04:21:27.68	341.00	8.92	
2025-01-18 04:21:27.89	340.96	8.92	
2025-01-18 04:21:28.09	340.93	8.92	
2025-01-18 04:21:28.29	340.89	8.92	
2025-01-18 04:21:28.50	340.85	8.92	
2025-01-18 04:21:28.70	340.82	8.92	
2025-01-18 04:21:28.90	340.79	8.92	
2025-01-18 04:21:29.11	340.75	8.92	
2025-01-18 04:21:29.31	340.72	8.92	
2025-01-18 04:21:29.51	340.68	8.92	
2025-01-18 04:21:29.71	340.65	8.91	
2025-01-18 04:21:29.92	340.61	8.91	
2025-01-18 04:21:30.12	340.58	8.91	
2025-01-18 04:21:30.32	340.54	8.91	
2025-01-18 04:21:30.53	340.51	8.91	
2025-01-18 04:21:30.73	340.47	8.91	
2025-01-18 04:21:30.93	340.44	8.91	
2025-01-18 04:21:31.14	340.40	8.91	
2025-01-18 04:21:31.34	340.37	8.91	
2025-01-18 04:21:31.54	340.33	8.91	
2025-01-18 04:21:31.75	340.30	8.90	
2025-01-18 04:21:31.95	340.26	8.90	
2025-01-18 04:21:32.15	340.23	8.90	
2025-01-18 04:21:32.35	340.19	8.90	
2025-01-18 04:21:32.56	340.16	8.90	
2025-01-18 04:21:32.76	340.12	8.90	
2025-01-18 04:21:32.96	340.09	8.90	
2025-01-18 04:21:33.17	340.05	8.90	
2025-01-18 04:21:33.37	340.02	8.90	
2025-01-18 04:21:33.57	339.98	8.89	
2025-01-18 04:21:33.78	339.95	8.89	
2025-01-18 04:21:33.98	339.91	8.89	
2025-01-18 04:21:34.18	339.88	8.89	
2025-01-18 04:21:34.39	339.84	8.89	
2025-01-18 04:21:34.59	339.81	8.89	
2025-01-18 04:21:34.79	339.77	8.89	
2025-01-18 04:21:34.99	339.74	8.89	
2025-01-18 04:21:35.20	339.70	8.88	
2025-01-18 04:21:35.40	339.67	8.88	
2025-01-18 04:21:35.60	339.64	8.88	
2025-01-18 04:21:35.81	339.60	8.88	
2025-01-18 04:21:36.01	339.56	8.88	
2025-01-18 04:21:36.21	339.53	8.88	
2025-01-18 04:21:36.42	339.49	8.88	
2025-01-18 04:21:36.62	339.46	8.88	
2025-01-18 04:21:36.82	339.43	8.87	
2025-01-18 04:21:37.03	339.39	8.87	
2025-01-18 04:21:37.23	339.36	8.87	
2025-01-18 04:21:37.43	339.32	8.87	
2025-01-18 04:21:37.63	339.29	8.87	
2025-01-18 04:21:37.84	339.25	8.87	
2025-01-18 04:21:38.04	339.22	8.87	
2025-01-18 04:21:38.24	339.18	8.86	
2025-01-18 04:21:38.45	339.15	8.86	
2025-01-18 04:21:38.65	339.11	8.86	
2025-01-18 04:21:38.85	339.08	8.86	
2025-01-18 04:21:39.06	339.04	8.86	
2025-01-18 04:21:39.26	339.01	8.86	
2025-01-18 04:21:39.46	338.97	8.86	
2025-01-18 04:21:39.67	338.94	8.85	
2025-01-18 04:21:39.87	338.90	8.85	
2025-01-18 04:21:40.07	338.87	8.85	
2025-01-18 04:21:40.28	338.83	8.85	
2025-01-18 04:21:40.48	338.80	8.85	
2025-01-18 04:21:40.68	338.76	8.85	
2025-01-18 04:21:40.88	338.73	8.85	
2025-01-18 04:21:41.09	338.69	8.84	
2025-01-18 04:21:41.29	338.66	8.84	
2025-01-18 04:21:41.49	338.63	8.84	
2025-01-18 04:21:41.70	338.59	8.84	
2025-01-18 04:21:41.90	338.56	8.84	
2025-01-18 04:21:42.10	338.52	8.84	
2025-01-18 04:21:42.31	338.49	8.84	
2025-01-18 04:21:42.51	338.45	8.83	
2025-01-18 04:21:42.71	338.42	8.83	
2025-01-18 04:21:42.92	338.38	8.83	
2025-01-18 04:21:43.12	338.35	8.83	
2025-01-18 04:21:43.32	338.31	8.83	
2025-01-18 04:21:43.52	338.28	8.83	
2025-01-18 04:21:43.73	338.24	8.82	
2025-01-18 04:21:43.93	338.21	8.82	
2025-01-18 04:21:44.13	338.18	8.82	
2025-01-18 04:21:44.34	338.14	8.82	
2025-01-18 04:21:44.54	338.11	8.82	
2025-01-18 04:21:44.74	338.07	8.82	
2025-01-18 04:21:44.95	338.04	8.81	
2025-01-18 04:21:45.15	338.00	8.81	
2025-01-18 04:21:45.35	337.97	8.81	
2025-01-18 04:21:45.56	337.93	8.81	
2025-01-18 04:21:45.76	337.90	8.81	
2025-01-18 04:21:45.96	337.86	8.80	
2025-01-18 04:21:46.16	337.83	8.80	
2025-01-18 04:21:46.37	337.79	8.80	
2025-01-18 04:21:46.57	337.76	8.80	
2025-01-18 04:21:46.77	337.72	8.80	
2025-01-18 04:21:46.98	337.69	8.80	
2025-01-18 04:21:47.18	337.65	8.79	
2025-01-18 04:21:47.38	337.62	8.79	
2025-01-18 04:21:47.59	337.58	8.79	
2025-01-18 04:21:47.79	337.55	8.79	
2025-01-18 04:21:47.99	337.52	8.79	
2025-01-18 04:21:48.20	337.48	8.78	
2025-01-18 04:21:48.40	337.45	8.78	
2025-01-18 04:21:48.60	337.41	8.78	
2025-01-18 04:21:48.80	337.38	8.78	
2025-01-18 04:21:49.01	337.34	8.78	
2025-01-18 04:21:49.21	337.31	8.78	
2025-01-18 04:21:49.41	337.27	8.77	
2025-01-18 04:21:49.62	337.24	8.77	
2025-01-18 04:21:49.82	337.20	8.77	
2025-01-18 04:21:50.02	337.17	8.77	
2025-01-18 04:21:50.23	337.14	8.77	
2025-01-18 04:21:50.43	337.10	8.76	
2025-01-18 04:21:50.63	337.07	8.76	
2025-01-18 04:21:50.84	337.03	8.76	
2025-01-18 04:21:51.04	337.00	8.76	
2025-01-18 04:21:51.24	336.96	8.76	
2025-01-18 04:21:51.44	336.93	8.75	
2025-01-18 04:21:51.65	336.89	8.75	
2025-01-18 04:21:51.85	336.86	8.75	
2025-01-18 04:21:52.05	336.83	8.75	
2025-01-18 04:21:52.26	336.79	8.75	
2025-01-18 04:21:52.46	336.76	8.74	
2025-01-18 04:21:52.66	336.72	8.74	
2025-01-18 04:21:52.87	336.69	8.74	
2025-01-18 04:21:53.07	336.65	8.74	
2025-01-18 04:21:53.27	336.62	8.73	
2025-01-18 04:21:53.48	336.58	8.73	
2025-01-18 04:21:53.68	336.55	8.73	
2025-01-18 04:21:53.88	336.51	8.73	
2025-01-18 04:21:54.08	336.48	8.73	
2025-01-18 04:21:54.29	336.45	8.72	
2025-01-18 04:21:54.49	336.41	8.72	
2025-01-18 04:21:54.69	336.38	8.72	
2025-01-18 04:21:54.90	336.34	8.72	
2025-01-18 04:21:55.10	336.31	8.72	
2025-01-18 04:21:55.30	336.27	8.71	
2025-01-18 04:21:55.51	336.24	8.71	
2025-01-18 04:21:55.71	336.20	8.71	
2025-01-18 04:21:55.91	336.17	8.71	
2025-01-18 04:21:56.12	336.14	8.70	
2025-01-18 04:21:56.32	336.10	8.70	
2025-01-18 04:21:56.52	336.07	8.70	
2025-01-18 04:21:56.72	336.03	8.70	
2025-01-18 04:21:56.93	336.00	8.69	
2025-01-18 04:21:57.13	335.96	8.69	
2025-01-18 04:21:57.33	335.93	8.69	
2025-01-18 04:21:57.54	335.89	8.69	
2025-01-18 04:21:57.74	335.86	8.69	
2025-01-18 04:21:57.94	335.83	8.68	
2025-01-18 04:21:58.15	335.79	8.68	
2025-01-18 04:21:58.35	335.76	8.68	
2025-01-18 04:21:58.55	335.72	8.68	
2025-01-18 04:21:58.76	335.69	8.67	
2025-01-18 04:21:58.96	335.65	8.67	
2025-01-18 04:21:59.16	335.62	8.67	
2025-01-18 04:21:59.36	335.59	8.67	
2025-01-18 04:21:59.57	335.55	8.66	
2025-01-18 04:21:59.77	335.52	8.66	
2025-01-18 04:21:59.97	335.48	8.66	
2025-01-18 04:22:00.18	335.45	8.66	
2025-01-18 04:22:00.38	335.41	8.65	
2025-01-18 04:22:00.58	335.38	8.65	
2025-01-18 04:22:00.79	335.35	8.65	
2025-01-18 04:22:00.99	335.31	8.65	
2025-01-18 04:22:01.19	335.28	8.64	
2025-01-18 04:22:01.40	335.24	8.64	
2025-01-18 04:22:01.60	335.21	8.64	
2025-01-18 04:22:01.80	335.18	8.64	
2025-01-18 04:22:02.01	335.14	8.63	
2025-01-18 04:22:02.21	335.11	8.63	
2025-01-18 04:22:02.41	335.07	8.63	
2025-01-18 04:22:02.61	335.04	8.63	
2025-01-18 04:22:02.82	335.00	8.62	
2025-01-18 04:22:03.02	334.97	8.62	
2025-01-18 04:22:03.22	334.94	8.62	
2025-01-18 04:22:03.43	334.90	8.62	
2025-01-18 04:22:03.63	334.87	8.61	
2025-01-18 04:22:03.83	334.83	8.61	
2025-01-18 04:22:04.04	334.80	8.61	
2025-01-18 04:22:04.24	334.76	8.61	
2025-01-18 04:22:04.44	334.73	8.60	
2025-01-18 04:22:04.65	334.69	8.60	
2025-01-18 04:22:04.85	334.66	8.60	
2025-01-18 04:22:05.05	334.63	8.60	
2025-01-18 04:22:05.25	334.59	8.59	
2025-01-18 04:22:05.46	334.56	8.59	
2025-01-18 04:22:05.66	334.53	8.59	
2025-01-18 04:22:05.86	334.49	8.58	
2025-01-18 04:22:06.07	334.46	8.58	
2025-01-18 04:22:06.27	334.42	8.58	
2025-01-18 04:22:06.47	334.39	8.58	
2025-01-18 04:22:06.68	334.35	8.57	
2025-01-18 04:22:06.88	334.32	8.57	
2025-01-18 04:22:07.08	334.29	8.57	
2025-01-18 04:22:07.29	334.25	8.57	
2025-01-18 04:22:07.49	334.22	8.56	
2025-01-18 04:22:07.69	334.18	8.56	
2025-01-18 04:22:07.89	334.15	8.56	
2025-01-18 04:22:08.10	334.12	8.55	
2025-01-18 04:22:08.30	334.08	8.55	
2025-01-18 04:22:08.50	334.05	8.55	
2025-01-18 04:22:08.71	334.01	8.55	
2025-01-18 04:22:08.91	333.98	8.54	
2025-01-18 04:22:09.11	333.95	8.54	
2025-01-18 04:22:09.32	333.91	8.54	
2025-01-18 04:22:09.52	333.88	8.53	
2025-01-18 04:22:09.72	333.84	8.53	
2025-01-18 04:22:09.93	333.81	8.53	
2025-01-18 04:22:10.13	333.78	8.53	
2025-01-18 04:22:10.33	333.74	8.52	
2025-01-18 04:22:10.53	333.71	8.52	
2025-01-18 04:22:10.74	333.67	8.52	
2025-01-18 04:22:10.94	333.64	8.51	
2025-01-18 04:22:11.14	333.61	8.51	
2025-01-18 04:22:11.35	333.57	8.51	
2025-01-18 04:22:11.55	333.54	8.51	
2025-01-18 04:22:11.75	333.50	8.50	
2025-01-18 04:22:11.96	333.47	8.50	
2025-01-18 04:22:12.16	333.44	8.50	
2025-01-18 04:22:12.36	333.40	8.49	
2025-01-18 04:22:12.57	333.37	8.49	
2025-01-18 04:22:12.77	333.33	8.49	
2025-01-18 04:22:12.97	333.30	8.48	
2025-01-18 04:22:13.17	333.27	8.48	
2025-01-18 04:22:13.38	333.23	8.48	
2025-01-18 04:22:13.58	333.20	8.48	
2025-01-18 04:22:13.78	333.17	8.47	
2025-01-18 04:22:13.99	333.13	8.47	
2025-01-18 04:22:14.19	333.10	8.47	
2025-01-18 04:22:14.39	333.06	8.46	
2025-01-18 04:22:14.60	333.03	8.46	
2025-01-18 04:22:14.80	333.00	8.46	
2025-01-18 04:22:15.00	332.96	8.45	
2025-01-18 04:22:15.21	332.93	8.45	
2025-01-18 04:22:15.41	332.89	8.45	
2025-01-18 04:22:15.61	332.86	8.44	
2025-01-18 04:22:15.81	332.83	8.44	
2025-01-18 04:22:16.02	332.79	8.44	
2025-01-18 04:22:16.22	332.76	8.43	
2025-01-18 04:22:16.42	332.73	8.43	
2025-01-18 04:22:16.63	332.69	8.43	
2025-01-18 04:22:16.83	332.66	8.43	
2025-01-18 04:22:17.03	332.63	8.42	
2025-01-18 04:22:17.24	332.59	8.42	
2025-01-18 04:22:17.44	332.56	8.42	
2025-01-18 04:22:17.64	332.52	8.41	
2025-01-18 04:22:17.85	332.49	8.41	
2025-01-18 04:22:18.05	332.46	8.41	
2025-01-18 04:22:18.25	332.42	8.40	
2025-01-18 04:22:18.45	332.39	8.40	
2025-01-18 04:22:18.66	332.35	8.40	
2025-01-18 04:22:18.86	332.32	8.39	
2025-01-18 04:22:19.06	332.29	8.39	
2025-01-18 04:22:19.27	332.25	8.39	
2025-01-18 04:22:19.47	332.22	8.38	
2025-01-18 04:22:19.67	332.19	8.38	
2025-01-18 04:22:19.88	332.15	8.38	
2025-01-18 04:22:20.08	332.12	8.37	
2025-01-18 04:22:20.28	332.09	8.37	
2025-01-18 04:22:20.49	332.05	8.37	
2025-01-18 04:22:20.69	332.02	8.36	
2025-01-18 04:22:20.89	331.99	8.36	
2025-01-18 04:22:21.09	331.95	8.36	
2025-01-18 04:22:21.30	331.92	8.35	
2025-01-18 04:22:21.50	331.88	8.35	
2025-01-18 04:22:21.70	331.85	8.35	
2025-01-18 04:22:21.91	331.82	8.34	
2025-01-18 04:22:22.11	331.78	8.34	
2025-01-18 04:22:22.31	331.75	8.34	
2025-01-18 04:22:22.52	331.72	8.33	
2025-01-18 04:22:22.72	331.68	8.33	
2025-01-18 04:22:22.92	331.65	8.32	
2025-01-18 04:22:23.13	331.62	8.32	
2025-01-18 04:22:23.33	331.58	8.32	
2025-01-18 04:22:23.53	331.55	8.31	
2025-01-18 04:22:23.74	331.51	8.31	
2025-01-18 04:22:23.94	331.48	8.31	
2025-01-18 04:22:24.14	331.45	8.30	
2025-01-18 04:22:24.34	331.42	8.30	
2025-01-18 04:22:24.55	331.38	8.30	
2025-01-18 04:22:24.75	331.35	8.29	
2025-01-18 04:22:24.95	331.32	8.29	
2025-01-18 04:22:25.16	331.28	8.29	
2025-01-18 04:22:25.36	331.25	8.28	
2025-01-18 04:22:25.56	331.21	8.28	
2025-01-18 04:22:25.77	331.18	8.28	
2025-01-18 04:22:25.97	331.15	8.27	
2025-01-18 04:22:26.17	331.11	8.27	
2025-01-18 04:22:26.38	331.08	8.26	
2025-01-18 04:22:26.58	331.05	8.26	
2025-01-18 04:22:26.78	331.01	8.26	
2025-01-18 04:22:26.98	330.98	8.25	
2025-01-18 04:22:27.19	330.95	8.25	
2025-01-18 04:22:27.39	330.91	8.25	
2025-01-18 04:22:27.59	330.88	8.24	
2025-01-18 04:22:27.80	330.85	8.24	
2025-01-18 04:22:28.00	330.81	8.24	
2025-01-18 04:22:28.20	330.78	8.23	
2025-01-18 04:22:28.41	330.75	8.23	
2025-01-18 04:22:28.61	330.71	8.22	
2025-01-18 04:22:28.81	330.68	8.22	
2025-01-18 04:22:29.02	330.65	8.22	
2025-01-18 04:22:29.22	330.61	8.21	
2025-01-18 04:22:29.42	330.58	8.21	
2025-01-18 04:22:29.62	330.55	8.21	
2025-01-18 04:22:29.83	330.51	8.20	
2025-01-18 04:22:30.03	330.48	8.20	
2025-01-18 04:22:30.23	330.45	8.19	
2025-01-18 04:22:30.44	330.41	8.19	
2025-01-18 04:22:30.64	330.38	8.19	
2025-01-18 04:22:30.84	330.35	8.18	
2025-01-18 04:22:31.05	330.31	8.18	
2025-01-18 04:22:31.25	330.28	8.18	
2025-01-18 04:22:31.45	330.25	8.17	
2025-01-18 04:22:31.66	330.22	8.17	
2025-01-18 04:22:31.86	330.18	8.16	
2025-01-18 04:22:32.06	330.15	8.16	
2025-01-18 04:22:32.26	330.12	8.16	
2025-01-18 04:22:32.47	330.08	8.15	
2025-01-18 04:22:32.67	330.05	8.15	
2025-01-18 04:22:32.87	330.02	8.14	
2025-01-18 04:22:33.08	329.98	8.14	
2025-01-18 04:22:33.28	329.95	8.14	
2025-01-18 04:22:33.48	329.92	8.13	
2025-01-18 04:22:33.69	329.88	8.13	
2025-01-18 04:22:33.89	329.85	8.12	
2025-01-18 04:22:34.09	329.82	8.12	
2025-01-18 04:22:34.30	329.79	8.12	
2025-01-18 04:22:34.50	329.75	8.11	
2025-01-18 04:22:34.70	329.72	8.11	
2025-01-18 04:22:34.90	329.69	8.10	
2025-01-18 04:22:35.11	329.65	8.10	
2025-01-18 04:22:35.31	329.62	8.10	
2025-01-18 04:22:35.51	329.59	8.09	
2025-01-18 04:22:35.72	329.55	8.09	
2025-01-18 04:22:35.92	329.52	8.08	
2025-01-18 04:22:36.12	329.49	8.08	
2025-01-18 04:22:36.33	329.46	8.08	
2025-01-18 04:22:36.53	329.42	8.07	
2025-01-18 04:22:36.73	329.39	8.07	
2025-01-18 04:22:36.94	329.36	8.06	
2025-01-18 04:22:37.14	329.32	8.06	
2025-01-18 04:22:37.34	329.29	8.06	
2025-01-18 04:22:37.54	329.26	8.05	
2025-01-18 04:22:37.75	329.23	8.05	
2025-01-18 04:22:37.95	329.19	8.04	
2025-01-18 04:22:38.15	329.16	8.04	
2025-01-18 04:22:38.36	329.13	8.04	
2025-01-18 04:22:38.56	329.09	8.03	
2025-01-18 04:22:38.76	329.06	8.03	
2025-01-18 04:22:38.97	329.03	8.02	
2025-01-18 04:22:39.17	329.00	8.02	
2025-01-18 04:22:39.37	328.96	8.02	
2025-01-18 04:22:39.58	328.93	8.01	
2025-01-18 04:22:39.78	328.90	8.01	
2025-01-18 04:22:39.98	328.86	8.00	
2025-01-18 04:22:40.18	328.83	8.00	
2025-01-18 04:22:40.39	328.80	7.99	
2025-01-18 04:22:40.59	328.77	7.99	
2025-01-18 04:22:40.79	328.73	7.99	
2025-01-18 04:22:41.00	328.70	7.98	
2025-01-18 04:22:41.20	328.67	7.98	
2025-01-18 04:22:41.40	328.64	7.97	
2025-01-18 04:22:41.61	328.60	7.97	
2025-01-18 04:22:41.81	328.57	7.96	
2025-01-18 04:22:42.01	328.54	7.96	
2025-01-18 04:22:42.22	328.50	7.96	
2025-01-18 04:22:42.42	328.47	7.95	
2025-01-18 04:22:42.62	328.44	7.95	
2025-01-18 04:22:42.82	328.41	7.94	
2025-01-18 04:22:43.03	328.37	7.94	
2025-01-18 04:22:43.23	328.34	7.93	
2025-01-18 04:22:43.43	328.31	7.93	
2025-01-18 04:22:43.64	328.28	7.93	
2025-01-18 04:22:43.84	328.24	7.92	
2025-01-18 04:22:44.04	328.21	7.92	
2025-01-18 04:22:44.25	328.18	7.91	
2025-01-18 04:22:44.45	328.15	7.91	
2025-01-18 04:22:44.65	328.11	7.90	
2025-01-18 04:22:44.86	328.08	7.90	
2025-01-18 04:22:45.06	328.05	7.90	
2025-01-18 04:22:45.26	328.02	7.89	
2025-01-18 04:22:45.46	327.98	7.89	
2025-01-18 04:22:45.67	327.95	7.88	
2025-01-18 04:22:45.87	327.92	7.88	
2025-01-18 04:22:46.07	327.89	7.87	
2025-01-18 04:22:46.28	327.85	7.87	
2025-01-18 04:22:46.48	327.82	7.86	
2025-01-18 04:22:46.68	327.79	7.86	
2025-01-18 04:22:46.89	327.76	7.86	
2025-01-18 04:22:47.09	327.72	7.85	
2025-01-18 04:22:47.29	327.69	7.85	
2025-01-18 04:22:47.50	327.66	7.84	
2025-01-18 04:22:47.70	327.63	7.84	
2025-01-18 04:22:47.90	327.59	7.83	
2025-01-18 04:22:48.11	327.56	7.83	
2025-01-18 04:22:48.31	327.53	7.82	
2025-01-18 04:22:48.51	327.50	7.82	
2025-01-18 04:22:48.71	327.47	7.82	
2025-01-18 04:22:48.92	327.43	7.81	
2025-01-18 04:22:49.12	327.40	7.81	
2025-01-18 04:22:49.32	327.37	7.80	
2025-01-18 04:22:49.53	327.33	7.80	
2025-01-18 04:22:49.73	327.30	7.79	
2025-01-18 04:22:49.93	327.27	7.79	
2025-01-18 04:22:50.14	327.24	7.78	
2025-01-18 04:22:50.34	327.21	7.78	
2025-01-18 04:22:50.54	327.17	7.77	
2025-01-18 04:22:50.75	327.14	7.77	
2025-01-18 04:22:50.95	327.11	7.77	
2025-01-18 04:22:51.15	327.08	7.76	
2025-01-18 04:22:51.35	327.05	7.76	
2025-01-18 04:22:51.56	327.01	7.75	
2025-01-18 04:22:51.76	326.98	7.75	
2025-01-18 04:22:51.96	326.95	7.74	
2025-01-18 04:22:52.17	326.92	7.74	
2025-01-18 04:22:52.37	326.88	7.73	
2025-01-18 04:22:52.57	326.85	7.73	
2025-01-18 04:22:52.78	326.82	7.72	
2025-01-18 04:22:52.98	326.79	7.72	
2025-01-18 04:22:53.18	326.76	7.71	
2025-01-18 04:22:53.39	326.72	7.71	
2025-01-18 04:22:53.59	326.69	7.70	
2025-01-18 04:22:53.79	326.66	7.70	
2025-01-18 04:22:53.99	326.63	7.70	
2025-01-18 04:22:54.20	326.59	7.69	
2025-01-18 04:22:54.40	326.56	7.69	
2025-01-18 04:22:54.60	326.53	7.68	
2025-01-18 04:22:54.81	326.50	7.68	
2025-01-18 04:22:55.01	326.47	7.67	
2025-01-18 04:22:55.21	326.44	7.67	
2025-01-18 04:22:55.42	326.40	7.66	
2025-01-18 04:22:55.62	326.37	7.66	
2025-01-18 04:22:55.82	326.34	7.65	
2025-01-18 04:22:56.03	326.31	7.65	
2025-01-18 04:22:56.23	326.27	7.64	
2025-01-18 04:22:56.43	326.24	7.64	
2025-01-18 04:22:56.63	326.21	7.63	
2025-01-18 04:22:56.84	326.18	7.63	
2025-01-18 04:22:57.04	326.15	7.62	
2025-01-18 04:22:57.24	326.12	7.62	
2025-01-18 04:22:57.45	326.08	7.61	
2025-01-18 04:22:57.65	326.05	7.61	
2025-01-18 04:22:57.85	326.02	7.60	
2025-01-18 04:22:58.06	325.99	7.60	
2025-01-18 04:22:58.26	325.96	7.59	
2025-01-18 04:22:58.46	325.92	7.59	
2025-01-18 04:22:58.67	325.89	7.58	
2025-01-18 04:22:58.87	325.86	7.58	
2025-01-18 04:22:59.07	325.83	7.57	
2025-01-18 04:22:59.27	325.80	7.57	
2025-01-18 04:22:59.48	325.76	7.56	
2025-01-18 04:22:59.68	325.73	7.56	
2025-01-18 04:22:59.88	325.70	7.55	
2025-01-18 04:23:00.09	325.67	7.55	
2025-01-18 04:23:00.29	325.64	7.54	
2025-01-18 04:23:00.49	325.61	7.54	
2025-01-18 04:23:00.70	325.57	7.53	
2025-01-18 04:23:00.90	325.54	7.53	
2025-01-18 04:23:01.10	325.51	7.52	
2025-01-18 04:23:01.31	325.48	7.52	
2025-01-18 04:23:01.51	325.45	7.51	
2025-01-18 04:23:01.71	325.42	7.51	
2025-01-18 04:23:01.91	325.38	7.51	
2025-01-18 04:23:02.12	325.35	7.50	
2025-01-18 04:23:02.32	325.32	7.49	
2025-01-18 04:23:02.52	325.29	7.49	
2025-01-18 04:23:02.73	325.26	7.48	
2025-01-18 04:23:02.93	325.23	7.48	
2025-01-18 04:23:03.13	325.19	7.47	
2025-01-18 04:23:03.34	325.16	7.47	
2025-01-18 04:23:03.54	325.13	7.46	
2025-01-18 04:23:03.74	325.10	7.46	
2025-01-18 04:23:03.95	325.07	7.45	
2025-01-18 04:23:04.15	325.04	7.45	
2025-01-18 04:23:04.35	325.01	7.44	
2025-01-18 04:23:04.55	324.97	7.44	
2025-01-18 04:23:04.76	324.94	7.43	
2025-01-18 04:23:04.96	324.91	7.43	
2025-01-18 04:23:05.16	324.88	7.42	
2025-01-18 04:23:05.37	324.85	7.42	
2025-01-18 04:23:05.57	324.82	7.41	
2025-01-18 04:23:05.77	324.79	7.41	
2025-01-18 04:23:05.98	324.75	7.40	
2025-01-18 04:23:06.18	324.72	7.40	
2025-01-18 04:23:06.38	324.69	7.39	
2025-01-18 04:23:06.59	324.66	7.39	
2025-01-18 04:23:06.79	324.63	7.38	
2025-01-18 04:23:06.99	324.60	7.38	
2025-01-18 04:23:07.19	324.57	7.37	
2025-01-18 04:23:07.40	324.53	7.37	
2025-01-18 04:23:07.60	324.50	7.36	
2025-01-18 04:23:07.80	324.47	7.36	
2025-01-18 04:23:08.01	324.44	7.35	
2025-01-18 04:23:08.21	324.41	7.35	
2025-01-18 04:23:08.41	324.38	7.34	
2025-01-18 04:23:08.62	324.35	7.34	
2025-01-18 04:23:08.82	324.31	7.33	
2025-01-18 04:23:09.02	324.28	7.32	
2025-01-18 04:23:09.23	324.25	7.32	
2025-01-18 04:23:09.43	324.22	7.31	
2025-01-18 04:23:09.63	324.19	7.31	
2025-01-18 04:23:09.84	324.16	7.30	
2025-01-18 04:23:10.04	324.13	7.30	
2025-01-18 04:23:10.24	324.10	7.29	
2025-01-18 04:23:10.44	324.07	7.29	
2025-01-18 04:23:10.65	324.03	7.28	
2025-01-18 04:23:10.85	324.00	7.28	
2025-01-18 04:23:11.05	323.97	7.27	
2025-01-18 04:23:11.26	323.94	7.27	
2025-01-18 04:23:11.46	323.91	7.26	
2025-01-18 04:23:11.66	323.88	7.26	
2025-01-18 04:23:11.87	323.85	7.25	
2025-01-18 04:23:12.07	323.82	7.25	
2025-01-18 04:23:12.27	323.78	7.24	
