passes_logs/2025/01/18/SPB_Silybum_02/SPB_Silybum_02__20250118_090955_SUOMI_NPP_rec.log

#Pass ID: 20250118_090955_SUOMI NPP
#Satellite: SUOMI NPP
#Configuration: NPP
#Start time: 2025-01-18 09:09:55

#Version: 2.0.20230423
#Station: SPB_Silybum_02
#Location: 30.233357 lon 59.946436 lat
#TLE: 1 37849U 11061A   25017.80975554  .00000187  00000+0  10930-3 0  9999
#TLE: 2 37849  98.7450 318.7628 0001577  36.7528 323.3756 14.19539590685310

#Time	Az	El	Level	Level2	SNR	BER	Gain	Gain2
2025-01-18 09:09:57.15	127.29	4.12	
2025-01-18 09:09:57.35	127.29	4.13	
2025-01-18 09:09:57.56	127.28	4.14	
2025-01-18 09:09:57.76	127.27	4.16	
2025-01-18 09:09:57.96	127.26	4.17	
2025-01-18 09:09:58.17	127.25	4.18	
2025-01-18 09:09:58.37	127.24	4.20	
2025-01-18 09:09:58.57	127.23	4.21	
2025-01-18 09:09:58.78	127.22	4.22	
2025-01-18 09:09:58.98	127.21	4.24	
2025-01-18 09:09:59.18	127.20	4.25	
2025-01-18 09:09:59.39	127.19	4.27	
2025-01-18 09:09:59.59	127.18	4.28	
2025-01-18 09:09:59.79	127.18	4.29	
2025-01-18 09:10:00.00	127.17	4.31	
2025-01-18 09:10:00.20	127.16	4.32	
2025-01-18 09:10:00.40	127.15	4.33	
2025-01-18 09:10:00.60	127.14	4.35	
2025-01-18 09:10:00.81	127.13	4.36	
2025-01-18 09:10:01.01	127.12	4.37	
2025-01-18 09:10:01.21	127.11	4.39	
2025-01-18 09:10:01.42	127.10	4.40	
2025-01-18 09:10:01.62	127.09	4.41	
2025-01-18 09:10:01.82	127.08	4.43	
2025-01-18 09:10:02.03	127.07	4.44	
2025-01-18 09:10:02.23	127.06	4.45	
2025-01-18 09:10:02.43	127.05	4.47	
2025-01-18 09:10:02.64	127.04	4.48	
2025-01-18 09:10:02.84	127.04	4.50	
2025-01-18 09:10:03.04	127.03	4.51	
2025-01-18 09:10:03.24	127.02	4.52	
2025-01-18 09:10:03.45	127.01	4.54	
2025-01-18 09:10:03.65	127.00	4.55	
2025-01-18 09:10:03.85	126.99	4.56	
2025-01-18 09:10:04.06	126.98	4.58	
2025-01-18 09:10:04.26	126.97	4.59	
2025-01-18 09:10:04.46	126.96	4.60	
2025-01-18 09:10:04.67	126.95	4.62	
2025-01-18 09:10:04.87	126.94	4.63	
2025-01-18 09:10:05.07	126.93	4.65	
2025-01-18 09:10:05.28	126.92	4.66	
2025-01-18 09:10:05.48	126.91	4.67	
2025-01-18 09:10:05.68	126.90	4.69	
2025-01-18 09:10:05.89	126.89	4.70	
2025-01-18 09:10:06.09	126.88	4.71	
2025-01-18 09:10:06.29	126.88	4.73	
2025-01-18 09:10:06.49	126.87	4.74	
2025-01-18 09:10:06.70	126.86	4.76	
2025-01-18 09:10:06.90	126.85	4.77	
2025-01-18 09:10:07.10	126.84	4.78	
2025-01-18 09:10:07.31	126.83	4.80	
2025-01-18 09:10:07.51	126.82	4.81	
2025-01-18 09:10:07.71	126.81	4.82	
2025-01-18 09:10:07.92	126.80	4.84	
2025-01-18 09:10:08.12	126.79	4.85	
2025-01-18 09:10:08.32	126.78	4.86	
2025-01-18 09:10:08.53	126.77	4.88	
2025-01-18 09:10:08.73	126.76	4.89	
2025-01-18 09:10:08.93	126.75	4.91	
2025-01-18 09:10:09.14	126.74	4.92	
2025-01-18 09:10:09.34	126.73	4.93	
2025-01-18 09:10:09.54	126.72	4.95	
2025-01-18 09:10:09.74	126.71	4.96	
2025-01-18 09:10:09.95	126.70	4.98	
2025-01-18 09:10:10.15	126.69	4.99	
2025-01-18 09:10:10.35	126.68	5.00	
2025-01-18 09:10:10.56	126.67	5.02	
2025-01-18 09:10:10.76	126.66	5.03	
2025-01-18 09:10:10.96	126.65	5.04	
2025-01-18 09:10:11.17	126.64	5.06	
2025-01-18 09:10:11.37	126.63	5.07	
2025-01-18 09:10:11.57	126.62	5.09	
2025-01-18 09:10:11.78	126.61	5.10	
2025-01-18 09:10:11.98	126.61	5.11	
2025-01-18 09:10:12.18	126.60	5.13	
2025-01-18 09:10:12.38	126.59	5.14	
2025-01-18 09:10:12.59	126.58	5.16	
2025-01-18 09:10:12.79	126.57	5.17	
2025-01-18 09:10:12.99	126.56	5.18	
2025-01-18 09:10:13.20	126.55	5.20	
2025-01-18 09:10:13.40	126.54	5.21	
2025-01-18 09:10:13.60	126.53	5.22	
2025-01-18 09:10:13.81	126.52	5.24	
2025-01-18 09:10:14.01	126.51	5.25	
2025-01-18 09:10:14.21	126.50	5.27	
2025-01-18 09:10:14.42	126.49	5.28	
2025-01-18 09:10:14.62	126.48	5.29	
2025-01-18 09:10:14.82	126.47	5.31	
2025-01-18 09:10:15.03	126.46	5.32	
2025-01-18 09:10:15.23	126.45	5.34	
2025-01-18 09:10:15.43	126.44	5.35	
2025-01-18 09:10:15.63	126.43	5.36	
2025-01-18 09:10:15.84	126.42	5.38	
2025-01-18 09:10:16.04	126.41	5.39	
2025-01-18 09:10:16.24	126.40	5.41	
2025-01-18 09:10:16.45	126.39	5.42	
2025-01-18 09:10:16.65	126.38	5.43	
2025-01-18 09:10:16.85	126.37	5.45	
2025-01-18 09:10:17.06	126.36	5.46	
2025-01-18 09:10:17.26	126.35	5.48	
2025-01-18 09:10:17.46	126.34	5.49	
2025-01-18 09:10:17.67	126.33	5.51	
2025-01-18 09:10:17.87	126.32	5.52	
2025-01-18 09:10:18.07	126.31	5.53	
2025-01-18 09:10:18.27	126.30	5.55	
2025-01-18 09:10:18.48	126.29	5.56	
2025-01-18 09:10:18.68	126.28	5.58	
2025-01-18 09:10:18.88	126.27	5.59	
2025-01-18 09:10:19.09	126.26	5.60	
2025-01-18 09:10:19.29	126.25	5.62	
2025-01-18 09:10:19.49	126.24	5.63	
2025-01-18 09:10:19.70	126.23	5.65	
2025-01-18 09:10:19.90	126.22	5.66	
2025-01-18 09:10:20.10	126.21	5.67	
2025-01-18 09:10:20.31	126.20	5.69	
2025-01-18 09:10:20.51	126.19	5.70	
2025-01-18 09:10:20.71	126.18	5.72	
2025-01-18 09:10:20.92	126.16	5.73	
2025-01-18 09:10:21.12	126.15	5.75	
2025-01-18 09:10:21.32	126.14	5.76	
2025-01-18 09:10:21.52	126.13	5.77	
2025-01-18 09:10:21.73	126.12	5.79	
2025-01-18 09:10:21.93	126.11	5.80	
2025-01-18 09:10:22.13	126.10	5.82	
2025-01-18 09:10:22.34	126.09	5.83	
2025-01-18 09:10:22.54	126.08	5.84	
2025-01-18 09:10:22.74	126.07	5.86	
2025-01-18 09:10:22.95	126.06	5.87	
2025-01-18 09:10:23.15	126.05	5.89	
2025-01-18 09:10:23.35	126.04	5.90	
2025-01-18 09:10:23.56	126.03	5.92	
2025-01-18 09:10:23.76	126.02	5.93	
2025-01-18 09:10:23.96	126.01	5.94	
2025-01-18 09:10:24.17	126.00	5.96	
2025-01-18 09:10:24.37	125.99	5.97	
2025-01-18 09:10:24.57	125.98	5.99	
2025-01-18 09:10:24.77	125.97	6.00	
2025-01-18 09:10:24.98	125.96	6.02	
2025-01-18 09:10:25.18	125.95	6.03	
2025-01-18 09:10:25.38	125.94	6.04	
2025-01-18 09:10:25.59	125.93	6.06	
2025-01-18 09:10:25.79	125.92	6.07	
2025-01-18 09:10:25.99	125.91	6.09	
2025-01-18 09:10:26.20	125.90	6.10	
2025-01-18 09:10:26.40	125.89	6.12	
2025-01-18 09:10:26.60	125.87	6.13	
2025-01-18 09:10:26.81	125.86	6.15	
2025-01-18 09:10:27.01	125.85	6.16	
2025-01-18 09:10:27.21	125.84	6.17	
2025-01-18 09:10:27.41	125.83	6.19	
2025-01-18 09:10:27.62	125.82	6.20	
2025-01-18 09:10:27.82	125.81	6.22	
2025-01-18 09:10:28.02	125.80	6.23	
2025-01-18 09:10:28.23	125.79	6.25	
2025-01-18 09:10:28.43	125.78	6.26	
2025-01-18 09:10:28.63	125.77	6.27	
2025-01-18 09:10:28.84	125.76	6.29	
2025-01-18 09:10:29.04	125.75	6.30	
2025-01-18 09:10:29.24	125.74	6.32	
2025-01-18 09:10:29.45	125.73	6.33	
2025-01-18 09:10:29.65	125.72	6.35	
2025-01-18 09:10:29.85	125.70	6.36	
2025-01-18 09:10:30.06	125.69	6.38	
2025-01-18 09:10:30.26	125.68	6.39	
2025-01-18 09:10:30.46	125.67	6.40	
2025-01-18 09:10:30.66	125.66	6.42	
2025-01-18 09:10:30.87	125.65	6.43	
2025-01-18 09:10:31.07	125.64	6.45	
2025-01-18 09:10:31.27	125.63	6.46	
2025-01-18 09:10:31.48	125.62	6.48	
2025-01-18 09:10:31.68	125.61	6.49	
2025-01-18 09:10:31.88	125.60	6.51	
2025-01-18 09:10:32.09	125.59	6.52	
2025-01-18 09:10:32.29	125.58	6.54	
2025-01-18 09:10:32.49	125.56	6.55	
2025-01-18 09:10:32.70	125.55	6.56	
2025-01-18 09:10:32.90	125.54	6.58	
2025-01-18 09:10:33.10	125.53	6.59	
2025-01-18 09:10:33.30	125.52	6.61	
2025-01-18 09:10:33.51	125.51	6.62	
2025-01-18 09:10:33.71	125.50	6.64	
2025-01-18 09:10:33.91	125.49	6.65	
2025-01-18 09:10:34.12	125.48	6.67	
2025-01-18 09:10:34.32	125.47	6.68	
2025-01-18 09:10:34.52	125.46	6.70	
2025-01-18 09:10:34.73	125.44	6.71	
2025-01-18 09:10:34.93	125.43	6.73	
2025-01-18 09:10:35.13	125.42	6.74	
2025-01-18 09:10:35.34	125.41	6.76	
2025-01-18 09:10:35.54	125.40	6.77	
2025-01-18 09:10:35.74	125.39	6.78	
2025-01-18 09:10:35.95	125.38	6.80	
2025-01-18 09:10:36.15	125.37	6.81	
2025-01-18 09:10:36.35	125.36	6.83	
2025-01-18 09:10:36.55	125.35	6.84	
2025-01-18 09:10:36.76	125.33	6.86	
2025-01-18 09:10:36.96	125.32	6.87	
2025-01-18 09:10:37.16	125.31	6.89	
2025-01-18 09:10:37.37	125.30	6.90	
2025-01-18 09:10:37.57	125.29	6.92	
2025-01-18 09:10:37.77	125.28	6.93	
2025-01-18 09:10:37.98	125.27	6.95	
2025-01-18 09:10:38.18	125.26	6.96	
2025-01-18 09:10:38.38	125.25	6.98	
2025-01-18 09:10:38.59	125.23	6.99	
2025-01-18 09:10:38.79	125.22	7.01	
2025-01-18 09:10:38.99	125.21	7.02	
2025-01-18 09:10:39.20	125.20	7.04	
2025-01-18 09:10:39.40	125.19	7.05	
2025-01-18 09:10:39.60	125.18	7.06	
2025-01-18 09:10:39.80	125.17	7.08	
2025-01-18 09:10:40.01	125.16	7.09	
2025-01-18 09:10:40.21	125.14	7.11	
2025-01-18 09:10:40.41	125.13	7.12	
2025-01-18 09:10:40.62	125.12	7.14	
2025-01-18 09:10:40.82	125.11	7.15	
2025-01-18 09:10:41.02	125.10	7.17	
2025-01-18 09:10:41.23	125.09	7.18	
2025-01-18 09:10:41.43	125.08	7.20	
2025-01-18 09:10:41.63	125.06	7.21	
2025-01-18 09:10:41.84	125.05	7.23	
2025-01-18 09:10:42.04	125.04	7.24	
2025-01-18 09:10:42.24	125.03	7.26	
2025-01-18 09:10:42.44	125.02	7.27	
2025-01-18 09:10:42.65	125.01	7.29	
2025-01-18 09:10:42.85	125.00	7.30	
2025-01-18 09:10:43.05	124.98	7.32	
2025-01-18 09:10:43.26	124.97	7.33	
2025-01-18 09:10:43.46	124.96	7.35	
2025-01-18 09:10:43.66	124.95	7.36	
2025-01-18 09:10:43.87	124.94	7.38	
2025-01-18 09:10:44.07	124.93	7.39	
2025-01-18 09:10:44.27	124.92	7.41	
2025-01-18 09:10:44.48	124.90	7.42	
2025-01-18 09:10:44.68	124.89	7.44	
2025-01-18 09:10:44.88	124.88	7.45	
2025-01-18 09:10:45.09	124.87	7.47	
2025-01-18 09:10:45.29	124.86	7.48	
2025-01-18 09:10:45.49	124.85	7.50	
2025-01-18 09:10:45.69	124.83	7.51	
2025-01-18 09:10:45.90	124.82	7.53	
2025-01-18 09:10:46.10	124.81	7.54	
2025-01-18 09:10:46.30	124.80	7.56	
2025-01-18 09:10:46.51	124.79	7.57	
2025-01-18 09:10:46.71	124.78	7.59	
2025-01-18 09:10:46.91	124.76	7.60	
2025-01-18 09:10:47.12	124.75	7.62	
2025-01-18 09:10:47.32	124.74	7.63	
2025-01-18 09:10:47.52	124.73	7.65	
2025-01-18 09:10:47.73	124.72	7.66	
2025-01-18 09:10:47.93	124.71	7.68	
2025-01-18 09:10:48.13	124.69	7.69	
2025-01-18 09:10:48.34	124.68	7.71	
2025-01-18 09:10:48.54	124.67	7.72	
2025-01-18 09:10:48.74	124.66	7.74	
2025-01-18 09:10:48.94	124.65	7.75	
2025-01-18 09:10:49.15	124.64	7.77	
2025-01-18 09:10:49.35	124.62	7.79	
2025-01-18 09:10:49.55	124.61	7.80	
2025-01-18 09:10:49.76	124.60	7.82	
2025-01-18 09:10:49.96	124.59	7.83	
2025-01-18 09:10:50.16	124.58	7.85	
2025-01-18 09:10:50.37	124.56	7.86	
2025-01-18 09:10:50.57	124.55	7.88	
2025-01-18 09:10:50.77	124.54	7.89	
2025-01-18 09:10:50.98	124.53	7.91	
2025-01-18 09:10:51.18	124.52	7.92	
2025-01-18 09:10:51.38	124.50	7.94	
2025-01-18 09:10:51.58	124.49	7.95	
2025-01-18 09:10:51.79	124.48	7.97	
2025-01-18 09:10:51.99	124.47	7.98	
2025-01-18 09:10:52.19	124.46	8.00	
2025-01-18 09:10:52.40	124.44	8.01	
2025-01-18 09:10:52.60	124.43	8.03	
2025-01-18 09:10:52.80	124.42	8.04	
2025-01-18 09:10:53.01	124.41	8.06	
2025-01-18 09:10:53.21	124.40	8.08	
2025-01-18 09:10:53.41	124.38	8.09	
2025-01-18 09:10:53.62	124.37	8.11	
2025-01-18 09:10:53.82	124.36	8.12	
2025-01-18 09:10:54.02	124.35	8.14	
2025-01-18 09:10:54.23	124.33	8.15	
2025-01-18 09:10:54.43	124.32	8.17	
2025-01-18 09:10:54.63	124.31	8.18	
2025-01-18 09:10:54.83	124.30	8.20	
2025-01-18 09:10:55.04	124.29	8.21	
2025-01-18 09:10:55.24	124.27	8.23	
2025-01-18 09:10:55.44	124.26	8.24	
2025-01-18 09:10:55.65	124.25	8.26	
2025-01-18 09:10:55.85	124.24	8.28	
2025-01-18 09:10:56.05	124.23	8.29	
2025-01-18 09:10:56.26	124.21	8.31	
2025-01-18 09:10:56.46	124.20	8.32	
2025-01-18 09:10:56.66	124.19	8.34	
2025-01-18 09:10:56.87	124.18	8.35	
2025-01-18 09:10:57.07	124.16	8.37	
2025-01-18 09:10:57.27	124.15	8.38	
2025-01-18 09:10:57.48	124.14	8.40	
2025-01-18 09:10:57.68	124.13	8.42	
2025-01-18 09:10:57.88	124.11	8.43	
2025-01-18 09:10:58.08	124.10	8.45	
2025-01-18 09:10:58.29	124.09	8.46	
2025-01-18 09:10:58.49	124.08	8.48	
2025-01-18 09:10:58.69	124.06	8.49	
2025-01-18 09:10:58.90	124.05	8.51	
2025-01-18 09:10:59.10	124.04	8.52	
2025-01-18 09:10:59.30	124.03	8.54	
2025-01-18 09:10:59.51	124.01	8.56	
2025-01-18 09:10:59.71	124.00	8.57	
2025-01-18 09:10:59.91	123.99	8.59	
2025-01-18 09:11:00.12	123.98	8.60	
2025-01-18 09:11:00.32	123.96	8.62	
2025-01-18 09:11:00.52	123.95	8.63	
2025-01-18 09:11:00.72	123.94	8.65	
2025-01-18 09:11:00.93	123.93	8.67	
2025-01-18 09:11:01.13	123.91	8.68	
2025-01-18 09:11:01.33	123.90	8.70	
2025-01-18 09:11:01.54	123.89	8.71	
2025-01-18 09:11:01.74	123.88	8.73	
2025-01-18 09:11:01.94	123.86	8.74	
2025-01-18 09:11:02.15	123.85	8.76	
2025-01-18 09:11:02.35	123.84	8.77	
2025-01-18 09:11:02.55	123.82	8.79	
2025-01-18 09:11:02.76	123.81	8.81	
2025-01-18 09:11:02.96	123.80	8.82	
2025-01-18 09:11:03.16	123.79	8.84	
2025-01-18 09:11:03.37	123.77	8.85	
2025-01-18 09:11:03.57	123.76	8.87	
2025-01-18 09:11:03.77	123.75	8.89	
2025-01-18 09:11:03.97	123.74	8.90	
2025-01-18 09:11:04.18	123.72	8.92	
2025-01-18 09:11:04.38	123.71	8.93	
2025-01-18 09:11:04.58	123.70	8.95	
2025-01-18 09:11:04.79	123.68	8.96	
2025-01-18 09:11:04.99	123.67	8.98	
2025-01-18 09:11:05.19	123.66	9.00	
2025-01-18 09:11:05.40	123.64	9.01	
2025-01-18 09:11:05.60	123.63	9.03	
2025-01-18 09:11:05.80	123.62	9.04	
2025-01-18 09:11:06.01	123.61	9.06	
2025-01-18 09:11:06.21	123.59	9.08	
2025-01-18 09:11:06.41	123.58	9.09	
2025-01-18 09:11:06.61	123.57	9.11	
2025-01-18 09:11:06.82	123.55	9.12	
2025-01-18 09:11:07.02	123.54	9.14	
2025-01-18 09:11:07.22	123.53	9.15	
2025-01-18 09:11:07.43	123.51	9.17	
2025-01-18 09:11:07.63	123.50	9.19	
2025-01-18 09:11:07.83	123.49	9.20	
2025-01-18 09:11:08.04	123.47	9.22	
2025-01-18 09:11:08.24	123.46	9.23	
2025-01-18 09:11:08.44	123.45	9.25	
2025-01-18 09:11:08.65	123.44	9.27	
2025-01-18 09:11:08.85	123.42	9.28	
2025-01-18 09:11:09.05	123.41	9.30	
2025-01-18 09:11:09.26	123.40	9.32	
2025-01-18 09:11:09.46	123.38	9.33	
2025-01-18 09:11:09.66	123.37	9.35	
2025-01-18 09:11:09.86	123.36	9.36	
2025-01-18 09:11:10.07	123.34	9.38	
2025-01-18 09:11:10.27	123.33	9.39	
2025-01-18 09:11:10.47	123.32	9.41	
2025-01-18 09:11:10.68	123.30	9.43	
2025-01-18 09:11:10.88	123.29	9.44	
2025-01-18 09:11:11.08	123.28	9.46	
2025-01-18 09:11:11.29	123.26	9.48	
2025-01-18 09:11:11.49	123.25	9.49	
2025-01-18 09:11:11.69	123.24	9.51	
2025-01-18 09:11:11.90	123.22	9.52	
2025-01-18 09:11:12.10	123.21	9.54	
2025-01-18 09:11:12.32	123.19	9.56	
2025-01-18 09:11:12.52	123.18	9.57	
2025-01-18 09:11:12.72	123.17	9.59	
2025-01-18 09:11:12.93	123.15	9.61	
2025-01-18 09:11:13.13	123.14	9.62	
2025-01-18 09:11:13.33	123.13	9.64	
2025-01-18 09:11:13.54	123.11	9.65	
2025-01-18 09:11:13.74	123.10	9.67	
2025-01-18 09:11:13.94	123.09	9.69	
2025-01-18 09:11:14.15	123.07	9.70	
2025-01-18 09:11:14.35	123.06	9.72	
2025-01-18 09:11:14.55	123.05	9.74	
2025-01-18 09:11:14.75	123.03	9.75	
2025-01-18 09:11:14.96	123.02	9.77	
2025-01-18 09:11:15.16	123.01	9.78	
2025-01-18 09:11:15.36	122.99	9.80	
2025-01-18 09:11:15.57	122.98	9.82	
2025-01-18 09:11:15.77	122.96	9.83	
2025-01-18 09:11:15.97	122.95	9.85	
2025-01-18 09:11:16.18	122.94	9.87	
2025-01-18 09:11:16.38	122.92	9.88	
2025-01-18 09:11:16.58	122.91	9.90	
2025-01-18 09:11:16.79	122.89	9.92	
2025-01-18 09:11:16.99	122.88	9.93	
2025-01-18 09:11:17.19	122.87	9.95	
2025-01-18 09:11:17.40	122.85	9.96	
2025-01-18 09:11:17.60	122.84	9.98	
2025-01-18 09:11:17.80	122.83	10.00	
2025-01-18 09:11:18.00	122.81	10.01	
2025-01-18 09:11:18.21	122.80	10.03	
2025-01-18 09:11:18.41	122.78	10.05	
2025-01-18 09:11:18.61	122.77	10.06	
2025-01-18 09:11:18.82	122.76	10.08	
2025-01-18 09:11:19.02	122.74	10.10	
2025-01-18 09:11:19.22	122.73	10.11	
2025-01-18 09:11:19.43	122.71	10.13	
2025-01-18 09:11:19.63	122.70	10.14	
2025-01-18 09:11:19.83	122.69	10.16	
2025-01-18 09:11:20.04	122.67	10.18	
2025-01-18 09:11:20.24	122.66	10.19	
2025-01-18 09:11:20.44	122.64	10.21	
2025-01-18 09:11:20.64	122.63	10.23	
2025-01-18 09:11:20.85	122.62	10.24	
2025-01-18 09:11:21.05	122.60	10.26	
2025-01-18 09:11:21.25	122.59	10.28	
2025-01-18 09:11:21.46	122.57	10.29	
2025-01-18 09:11:21.66	122.56	10.31	
2025-01-18 09:11:21.86	122.55	10.33	
2025-01-18 09:11:22.07	122.53	10.34	
2025-01-18 09:11:22.27	122.52	10.36	
2025-01-18 09:11:22.47	122.50	10.38	
2025-01-18 09:11:22.68	122.49	10.39	
2025-01-18 09:11:22.88	122.47	10.41	
2025-01-18 09:11:23.08	122.46	10.43	
2025-01-18 09:11:23.29	122.44	10.44	
2025-01-18 09:11:23.49	122.43	10.46	
2025-01-18 09:11:23.69	122.42	10.48	
2025-01-18 09:11:23.89	122.40	10.49	
2025-01-18 09:11:24.10	122.39	10.51	
2025-01-18 09:11:24.30	122.37	10.53	
2025-01-18 09:11:24.50	122.36	10.54	
2025-01-18 09:11:24.71	122.34	10.56	
2025-01-18 09:11:24.91	122.33	10.58	
2025-01-18 09:11:25.11	122.32	10.59	
2025-01-18 09:11:25.32	122.30	10.61	
2025-01-18 09:11:25.52	122.29	10.63	
2025-01-18 09:11:25.72	122.27	10.64	
2025-01-18 09:11:25.93	122.26	10.66	
2025-01-18 09:11:26.13	122.24	10.68	
2025-01-18 09:11:26.33	122.23	10.69	
2025-01-18 09:11:26.54	122.21	10.71	
2025-01-18 09:11:26.74	122.20	10.73	
2025-01-18 09:11:26.94	122.18	10.74	
2025-01-18 09:11:27.14	122.17	10.76	
2025-01-18 09:11:27.35	122.15	10.78	
2025-01-18 09:11:27.55	122.14	10.79	
2025-01-18 09:11:27.75	122.13	10.81	
2025-01-18 09:11:27.96	122.11	10.83	
2025-01-18 09:11:28.16	122.10	10.85	
2025-01-18 09:11:28.36	122.08	10.86	
2025-01-18 09:11:28.57	122.07	10.88	
2025-01-18 09:11:28.77	122.05	10.90	
2025-01-18 09:11:28.97	122.04	10.91	
2025-01-18 09:11:29.18	122.02	10.93	
2025-01-18 09:11:29.38	122.01	10.95	
2025-01-18 09:11:29.58	121.99	10.96	
2025-01-18 09:11:29.78	121.98	10.98	
2025-01-18 09:11:29.99	121.96	11.00	
2025-01-18 09:11:30.19	121.95	11.01	
2025-01-18 09:11:30.39	121.93	11.03	
2025-01-18 09:11:30.60	121.92	11.05	
2025-01-18 09:11:30.80	121.90	11.07	
2025-01-18 09:11:31.00	121.89	11.08	
2025-01-18 09:11:31.21	121.87	11.10	
2025-01-18 09:11:31.41	121.86	11.12	
2025-01-18 09:11:31.61	121.84	11.13	
2025-01-18 09:11:31.82	121.83	11.15	
2025-01-18 09:11:32.02	121.81	11.17	
2025-01-18 09:11:32.22	121.80	11.18	
2025-01-18 09:11:32.43	121.78	11.20	
2025-01-18 09:11:32.63	121.77	11.22	
2025-01-18 09:11:32.83	121.75	11.24	
2025-01-18 09:11:33.03	121.74	11.25	
2025-01-18 09:11:33.24	121.72	11.27	
2025-01-18 09:11:33.44	121.71	11.29	
2025-01-18 09:11:33.64	121.69	11.30	
2025-01-18 09:11:33.85	121.68	11.32	
2025-01-18 09:11:34.05	121.66	11.34	
2025-01-18 09:11:34.25	121.65	11.36	
2025-01-18 09:11:34.46	121.63	11.37	
2025-01-18 09:11:34.66	121.62	11.39	
2025-01-18 09:11:34.86	121.60	11.41	
2025-01-18 09:11:35.07	121.58	11.43	
2025-01-18 09:11:35.27	121.57	11.44	
2025-01-18 09:11:35.47	121.55	11.46	
2025-01-18 09:11:35.67	121.54	11.48	
2025-01-18 09:11:35.88	121.52	11.49	
2025-01-18 09:11:36.08	121.51	11.51	
2025-01-18 09:11:36.28	121.49	11.53	
2025-01-18 09:11:36.49	121.48	11.55	
2025-01-18 09:11:36.69	121.46	11.56	
2025-01-18 09:11:36.89	121.45	11.58	
2025-01-18 09:11:37.10	121.43	11.60	
2025-01-18 09:11:37.30	121.41	11.61	
2025-01-18 09:11:37.50	121.40	11.63	
2025-01-18 09:11:37.71	121.38	11.65	
2025-01-18 09:11:37.91	121.37	11.67	
2025-01-18 09:11:38.11	121.35	11.68	
2025-01-18 09:11:38.32	121.34	11.70	
2025-01-18 09:11:38.52	121.32	11.72	
2025-01-18 09:11:38.72	121.31	11.74	
2025-01-18 09:11:38.92	121.29	11.75	
2025-01-18 09:11:39.13	121.27	11.77	
2025-01-18 09:11:39.33	121.26	11.79	
2025-01-18 09:11:39.53	121.24	11.81	
2025-01-18 09:11:39.74	121.23	11.82	
2025-01-18 09:11:39.94	121.21	11.84	
2025-01-18 09:11:40.14	121.20	11.86	
2025-01-18 09:11:40.35	121.18	11.88	
2025-01-18 09:11:40.55	121.16	11.89	
2025-01-18 09:11:40.75	121.15	11.91	
2025-01-18 09:11:40.96	121.13	11.93	
2025-01-18 09:11:41.16	121.12	11.95	
2025-01-18 09:11:41.36	121.10	11.96	
2025-01-18 09:11:41.57	121.08	11.98	
2025-01-18 09:11:41.77	121.07	12.00	
2025-01-18 09:11:41.97	121.05	12.02	
2025-01-18 09:11:42.17	121.04	12.03	
2025-01-18 09:11:42.38	121.02	12.05	
2025-01-18 09:11:42.58	121.00	12.07	
2025-01-18 09:11:42.78	120.99	12.09	
2025-01-18 09:11:42.99	120.97	12.10	
2025-01-18 09:11:43.19	120.96	12.12	
2025-01-18 09:11:43.39	120.94	12.14	
2025-01-18 09:11:43.60	120.92	12.16	
2025-01-18 09:11:43.80	120.91	12.17	
2025-01-18 09:11:44.00	120.89	12.19	
2025-01-18 09:11:44.21	120.87	12.21	
2025-01-18 09:11:44.41	120.86	12.23	
2025-01-18 09:11:44.61	120.84	12.25	
2025-01-18 09:11:44.81	120.83	12.26	
2025-01-18 09:11:45.02	120.81	12.28	
2025-01-18 09:11:45.22	120.79	12.30	
2025-01-18 09:11:45.42	120.78	12.32	
2025-01-18 09:11:45.63	120.76	12.33	
2025-01-18 09:11:45.83	120.74	12.35	
2025-01-18 09:11:46.03	120.73	12.37	
2025-01-18 09:11:46.24	120.71	12.39	
2025-01-18 09:11:46.44	120.69	12.41	
2025-01-18 09:11:46.64	120.68	12.42	
2025-01-18 09:11:46.85	120.66	12.44	
2025-01-18 09:11:47.05	120.65	12.46	
2025-01-18 09:11:47.25	120.63	12.48	
2025-01-18 09:11:47.46	120.61	12.49	
2025-01-18 09:11:47.66	120.60	12.51	
2025-01-18 09:11:47.86	120.58	12.53	
2025-01-18 09:11:48.06	120.56	12.55	
2025-01-18 09:11:48.27	120.55	12.57	
2025-01-18 09:11:48.47	120.53	12.58	
2025-01-18 09:11:48.67	120.51	12.60	
2025-01-18 09:11:48.88	120.50	12.62	
2025-01-18 09:11:49.08	120.48	12.64	
2025-01-18 09:11:49.28	120.46	12.66	
2025-01-18 09:11:49.49	120.45	12.67	
2025-01-18 09:11:49.69	120.43	12.69	
2025-01-18 09:11:49.89	120.41	12.71	
2025-01-18 09:11:50.10	120.39	12.73	
2025-01-18 09:11:50.30	120.38	12.75	
2025-01-18 09:11:50.50	120.36	12.76	
2025-01-18 09:11:50.70	120.34	12.78	
2025-01-18 09:11:50.91	120.33	12.80	
2025-01-18 09:11:51.11	120.31	12.82	
2025-01-18 09:11:51.31	120.29	12.83	
2025-01-18 09:11:51.52	120.28	12.85	
2025-01-18 09:11:51.72	120.26	12.87	
2025-01-18 09:11:51.92	120.24	12.89	
2025-01-18 09:11:52.13	120.23	12.91	
2025-01-18 09:11:52.33	120.21	12.93	
2025-01-18 09:11:52.53	120.19	12.94	
2025-01-18 09:11:52.74	120.17	12.96	
2025-01-18 09:11:52.94	120.16	12.98	
2025-01-18 09:11:53.14	120.14	13.00	
2025-01-18 09:11:53.35	120.12	13.02	
2025-01-18 09:11:53.55	120.11	13.03	
2025-01-18 09:11:53.75	120.09	13.05	
2025-01-18 09:11:53.95	120.07	13.07	
2025-01-18 09:11:54.16	120.05	13.09	
2025-01-18 09:11:54.36	120.04	13.11	
2025-01-18 09:11:54.56	120.02	13.13	
2025-01-18 09:11:54.77	120.00	13.14	
2025-01-18 09:11:54.97	119.99	13.16	
2025-01-18 09:11:55.17	119.97	13.18	
2025-01-18 09:11:55.38	119.95	13.20	
2025-01-18 09:11:55.58	119.93	13.22	
2025-01-18 09:11:55.78	119.92	13.23	
2025-01-18 09:11:55.99	119.90	13.25	
2025-01-18 09:11:56.19	119.88	13.27	
2025-01-18 09:11:56.39	119.86	13.29	
2025-01-18 09:11:56.60	119.85	13.31	
2025-01-18 09:11:56.80	119.83	13.33	
2025-01-18 09:11:57.00	119.81	13.34	
2025-01-18 09:11:57.20	119.79	13.36	
2025-01-18 09:11:57.41	119.78	13.38	
2025-01-18 09:11:57.61	119.76	13.40	
2025-01-18 09:11:57.81	119.74	13.42	
2025-01-18 09:11:58.02	119.72	13.44	
2025-01-18 09:11:58.22	119.70	13.46	
2025-01-18 09:11:58.42	119.69	13.47	
2025-01-18 09:11:58.63	119.67	13.49	
2025-01-18 09:11:58.83	119.65	13.51	
2025-01-18 09:11:59.03	119.63	13.53	
2025-01-18 09:11:59.24	119.62	13.55	
2025-01-18 09:11:59.44	119.60	13.57	
2025-01-18 09:11:59.64	119.58	13.58	
2025-01-18 09:11:59.84	119.56	13.60	
2025-01-18 09:12:00.05	119.54	13.62	
2025-01-18 09:12:00.25	119.53	13.64	
2025-01-18 09:12:00.45	119.51	13.66	
2025-01-18 09:12:00.66	119.49	13.68	
2025-01-18 09:12:00.86	119.47	13.70	
2025-01-18 09:12:01.06	119.46	13.71	
2025-01-18 09:12:01.27	119.44	13.73	
2025-01-18 09:12:01.47	119.42	13.75	
2025-01-18 09:12:01.67	119.40	13.77	
2025-01-18 09:12:01.88	119.38	13.79	
2025-01-18 09:12:02.08	119.36	13.81	
2025-01-18 09:12:02.28	119.35	13.83	
2025-01-18 09:12:02.49	119.33	13.85	
2025-01-18 09:12:02.69	119.31	13.86	
2025-01-18 09:12:02.89	119.29	13.88	
2025-01-18 09:12:03.09	119.27	13.90	
2025-01-18 09:12:03.30	119.25	13.92	
2025-01-18 09:12:03.50	119.24	13.94	
2025-01-18 09:12:03.70	119.22	13.96	
2025-01-18 09:12:03.91	119.20	13.98	
2025-01-18 09:12:04.11	119.18	13.99	
2025-01-18 09:12:04.31	119.16	14.01	
2025-01-18 09:12:04.52	119.14	14.03	
2025-01-18 09:12:04.72	119.13	14.05	
2025-01-18 09:12:04.92	119.11	14.07	
2025-01-18 09:12:05.13	119.09	14.09	
2025-01-18 09:12:05.33	119.07	14.11	
2025-01-18 09:12:05.53	119.05	14.13	
2025-01-18 09:12:05.74	119.03	14.15	
2025-01-18 09:12:05.94	119.02	14.16	
2025-01-18 09:12:06.14	119.00	14.18	
2025-01-18 09:12:06.34	118.98	14.20	
2025-01-18 09:12:06.55	118.96	14.22	
2025-01-18 09:12:06.75	118.94	14.24	
2025-01-18 09:12:06.95	118.92	14.26	
2025-01-18 09:12:07.16	118.90	14.28	
2025-01-18 09:12:07.36	118.88	14.30	
2025-01-18 09:12:07.56	118.87	14.31	
2025-01-18 09:12:07.77	118.85	14.33	
2025-01-18 09:12:07.97	118.83	14.35	
2025-01-18 09:12:08.17	118.81	14.37	
2025-01-18 09:12:08.38	118.79	14.39	
2025-01-18 09:12:08.58	118.77	14.41	
2025-01-18 09:12:08.78	118.75	14.43	
2025-01-18 09:12:08.98	118.73	14.45	
2025-01-18 09:12:09.19	118.71	14.47	
2025-01-18 09:12:09.39	118.70	14.49	
2025-01-18 09:12:09.59	118.68	14.50	
2025-01-18 09:12:09.80	118.66	14.52	
2025-01-18 09:12:10.00	118.64	14.54	
2025-01-18 09:12:10.20	118.62	14.56	
2025-01-18 09:12:10.41	118.60	14.58	
2025-01-18 09:12:10.61	118.58	14.60	
2025-01-18 09:12:10.81	118.56	14.62	
2025-01-18 09:12:11.02	118.54	14.64	
2025-01-18 09:12:11.22	118.52	14.66	
2025-01-18 09:12:11.42	118.50	14.68	
2025-01-18 09:12:11.63	118.48	14.70	
2025-01-18 09:12:11.83	118.47	14.72	
2025-01-18 09:12:12.03	118.45	14.73	
2025-01-18 09:12:12.23	118.43	14.75	
2025-01-18 09:12:12.44	118.41	14.77	
2025-01-18 09:12:12.64	118.39	14.79	
2025-01-18 09:12:12.84	118.37	14.81	
2025-01-18 09:12:13.05	118.35	14.83	
2025-01-18 09:12:13.25	118.33	14.85	
2025-01-18 09:12:13.45	118.31	14.87	
2025-01-18 09:12:13.66	118.29	14.89	
2025-01-18 09:12:13.86	118.27	14.91	
2025-01-18 09:12:14.06	118.25	14.93	
2025-01-18 09:12:14.27	118.23	14.95	
2025-01-18 09:12:14.47	118.21	14.97	
2025-01-18 09:12:14.67	118.19	14.99	
2025-01-18 09:12:14.87	118.17	15.00	
2025-01-18 09:12:15.08	118.15	15.02	
2025-01-18 09:12:15.28	118.13	15.04	
2025-01-18 09:12:15.48	118.11	15.06	
2025-01-18 09:12:15.69	118.09	15.08	
2025-01-18 09:12:15.89	118.07	15.10	
2025-01-18 09:12:16.09	118.05	15.12	
2025-01-18 09:12:16.30	118.03	15.14	
2025-01-18 09:12:16.50	118.01	15.16	
2025-01-18 09:12:16.70	118.00	15.18	
2025-01-18 09:12:16.91	117.97	15.20	
2025-01-18 09:12:17.11	117.95	15.22	
2025-01-18 09:12:17.31	117.94	15.24	
2025-01-18 09:12:17.52	117.91	15.26	
2025-01-18 09:12:17.72	117.89	15.28	
2025-01-18 09:12:17.92	117.87	15.30	
2025-01-18 09:12:18.12	117.86	15.32	
2025-01-18 09:12:18.33	117.83	15.34	
2025-01-18 09:12:18.53	117.81	15.36	
2025-01-18 09:12:18.73	117.79	15.37	
2025-01-18 09:12:18.94	117.77	15.40	
2025-01-18 09:12:19.14	117.75	15.41	
2025-01-18 09:12:19.34	117.73	15.43	
2025-01-18 09:12:19.55	117.71	15.45	
2025-01-18 09:12:19.75	117.69	15.47	
2025-01-18 09:12:19.95	117.67	15.49	
2025-01-18 09:12:20.16	117.65	15.51	
2025-01-18 09:12:20.36	117.63	15.53	
2025-01-18 09:12:20.56	117.61	15.55	
2025-01-18 09:12:20.77	117.59	15.57	
2025-01-18 09:12:20.97	117.57	15.59	
2025-01-18 09:12:21.17	117.55	15.61	
2025-01-18 09:12:21.37	117.53	15.63	
2025-01-18 09:12:21.58	117.51	15.65	
2025-01-18 09:12:21.78	117.49	15.67	
2025-01-18 09:12:21.98	117.47	15.69	
2025-01-18 09:12:22.19	117.45	15.71	
2025-01-18 09:12:22.39	117.43	15.73	
2025-01-18 09:12:22.59	117.41	15.75	
2025-01-18 09:12:22.80	117.38	15.77	
2025-01-18 09:12:23.00	117.36	15.79	
2025-01-18 09:12:23.20	117.34	15.81	
2025-01-18 09:12:23.41	117.32	15.83	
2025-01-18 09:12:23.61	117.30	15.85	
2025-01-18 09:12:23.81	117.28	15.87	
2025-01-18 09:12:24.01	117.26	15.89	
2025-01-18 09:12:24.22	117.24	15.91	
2025-01-18 09:12:24.42	117.22	15.93	
2025-01-18 09:12:24.62	117.20	15.95	
2025-01-18 09:12:24.83	117.18	15.97	
2025-01-18 09:12:25.03	117.15	15.99	
2025-01-18 09:12:25.23	117.13	16.01	
2025-01-18 09:12:25.44	117.11	16.03	
2025-01-18 09:12:25.64	117.09	16.05	
2025-01-18 09:12:25.84	117.07	16.07	
2025-01-18 09:12:26.05	117.05	16.09	
2025-01-18 09:12:26.25	117.03	16.11	
2025-01-18 09:12:26.45	117.01	16.13	
2025-01-18 09:12:26.66	116.98	16.15	
2025-01-18 09:12:26.86	116.96	16.17	
2025-01-18 09:12:27.06	116.94	16.19	
2025-01-18 09:12:27.26	116.92	16.21	
2025-01-18 09:12:27.47	116.90	16.23	
2025-01-18 09:12:27.67	116.88	16.25	
2025-01-18 09:12:27.87	116.86	16.27	
2025-01-18 09:12:28.08	116.83	16.29	
2025-01-18 09:12:28.28	116.81	16.31	
2025-01-18 09:12:28.48	116.79	16.33	
2025-01-18 09:12:28.69	116.77	16.35	
2025-01-18 09:12:28.89	116.75	16.37	
2025-01-18 09:12:29.09	116.73	16.39	
2025-01-18 09:12:29.30	116.70	16.41	
2025-01-18 09:12:29.50	116.68	16.43	
2025-01-18 09:12:29.70	116.66	16.45	
2025-01-18 09:12:29.91	116.64	16.47	
2025-01-18 09:12:30.11	116.62	16.49	
2025-01-18 09:12:30.31	116.60	16.51	
2025-01-18 09:12:30.51	116.58	16.53	
2025-01-18 09:12:30.72	116.55	16.55	
2025-01-18 09:12:30.92	116.53	16.57	
2025-01-18 09:12:31.12	116.51	16.59	
2025-01-18 09:12:31.33	116.49	16.61	
2025-01-18 09:12:31.53	116.46	16.63	
2025-01-18 09:12:31.73	116.44	16.65	
2025-01-18 09:12:31.94	116.42	16.68	
2025-01-18 09:12:32.14	116.40	16.70	
2025-01-18 09:12:32.34	116.38	16.72	
2025-01-18 09:12:32.55	116.35	16.74	
2025-01-18 09:12:32.75	116.33	16.76	
2025-01-18 09:12:32.95	116.31	16.78	
2025-01-18 09:12:33.15	116.29	16.80	
2025-01-18 09:12:33.36	116.27	16.82	
2025-01-18 09:12:33.56	116.24	16.84	
2025-01-18 09:12:33.76	116.22	16.86	
2025-01-18 09:12:33.97	116.20	16.88	
2025-01-18 09:12:34.17	116.18	16.90	
2025-01-18 09:12:34.37	116.15	16.92	
2025-01-18 09:12:34.58	116.13	16.94	
2025-01-18 09:12:34.78	116.11	16.96	
2025-01-18 09:12:34.98	116.09	16.98	
2025-01-18 09:12:35.19	116.06	17.00	
2025-01-18 09:12:35.39	116.04	17.02	
2025-01-18 09:12:35.59	116.02	17.04	
2025-01-18 09:12:35.80	116.00	17.07	
2025-01-18 09:12:36.00	115.97	17.09	
2025-01-18 09:12:36.20	115.95	17.11	
2025-01-18 09:12:36.40	115.93	17.13	
2025-01-18 09:12:36.61	115.90	17.15	
2025-01-18 09:12:36.81	115.88	17.17	
2025-01-18 09:12:37.01	115.86	17.19	
2025-01-18 09:12:37.22	115.84	17.21	
2025-01-18 09:12:37.42	115.81	17.23	
2025-01-18 09:12:37.62	115.79	17.25	
2025-01-18 09:12:37.83	115.77	17.27	
2025-01-18 09:12:38.03	115.74	17.29	
2025-01-18 09:12:38.23	115.72	17.31	
2025-01-18 09:12:38.44	115.70	17.34	
2025-01-18 09:12:38.64	115.67	17.36	
2025-01-18 09:12:38.84	115.65	17.38	
2025-01-18 09:12:39.04	115.63	17.40	
2025-01-18 09:12:39.25	115.61	17.42	
2025-01-18 09:12:39.45	115.58	17.44	
2025-01-18 09:12:39.65	115.56	17.46	
2025-01-18 09:12:39.86	115.54	17.48	
2025-01-18 09:12:40.06	115.51	17.50	
2025-01-18 09:12:40.26	115.49	17.52	
2025-01-18 09:12:40.47	115.47	17.54	
2025-01-18 09:12:40.67	115.44	17.57	
2025-01-18 09:12:40.87	115.42	17.59	
2025-01-18 09:12:41.08	115.39	17.61	
2025-01-18 09:12:41.28	115.37	17.63	
2025-01-18 09:12:41.48	115.35	17.65	
2025-01-18 09:12:41.69	115.32	17.67	
2025-01-18 09:12:41.89	115.30	17.69	
2025-01-18 09:12:42.09	115.28	17.71	
2025-01-18 09:12:42.29	115.25	17.73	
2025-01-18 09:12:42.50	115.23	17.75	
2025-01-18 09:12:42.70	115.21	17.78	
2025-01-18 09:12:42.90	115.18	17.80	
2025-01-18 09:12:43.11	115.16	17.82	
2025-01-18 09:12:43.31	115.13	17.84	
2025-01-18 09:12:43.51	115.11	17.86	
2025-01-18 09:12:43.72	115.09	17.88	
2025-01-18 09:12:43.92	115.06	17.90	
2025-01-18 09:12:44.12	115.04	17.92	
2025-01-18 09:12:44.33	115.01	17.94	
2025-01-18 09:12:44.53	114.99	17.97	
2025-01-18 09:12:44.73	114.97	17.99	
2025-01-18 09:12:44.94	114.94	18.01	
2025-01-18 09:12:45.14	114.92	18.03	
2025-01-18 09:12:45.34	114.89	18.05	
2025-01-18 09:12:45.54	114.87	18.07	
2025-01-18 09:12:45.75	114.85	18.09	
2025-01-18 09:12:45.95	114.82	18.11	
2025-01-18 09:12:46.15	114.80	18.14	
2025-01-18 09:12:46.36	114.77	18.16	
2025-01-18 09:12:46.56	114.75	18.18	
2025-01-18 09:12:46.76	114.72	18.20	
2025-01-18 09:12:46.97	114.70	18.22	
2025-01-18 09:12:47.17	114.67	18.24	
2025-01-18 09:12:47.37	114.65	18.26	
2025-01-18 09:12:47.58	114.62	18.29	
2025-01-18 09:12:47.78	114.60	18.31	
2025-01-18 09:12:47.98	114.58	18.33	
2025-01-18 09:12:48.18	114.55	18.35	
2025-01-18 09:12:48.39	114.53	18.37	
2025-01-18 09:12:48.59	114.50	18.39	
2025-01-18 09:12:48.79	114.48	18.41	
2025-01-18 09:12:49.00	114.45	18.44	
2025-01-18 09:12:49.20	114.43	18.46	
2025-01-18 09:12:49.40	114.40	18.48	
2025-01-18 09:12:49.61	114.38	18.50	
2025-01-18 09:12:49.81	114.35	18.52	
2025-01-18 09:12:50.01	114.33	18.54	
2025-01-18 09:12:50.22	114.30	18.56	
2025-01-18 09:12:50.42	114.28	18.59	
2025-01-18 09:12:50.62	114.25	18.61	
2025-01-18 09:12:50.83	114.23	18.63	
2025-01-18 09:12:51.03	114.20	18.65	
2025-01-18 09:12:51.23	114.18	18.67	
2025-01-18 09:12:51.43	114.15	18.69	
2025-01-18 09:12:51.64	114.13	18.72	
2025-01-18 09:12:51.84	114.10	18.74	
2025-01-18 09:12:52.04	114.08	18.76	
2025-01-18 09:12:52.25	114.05	18.78	
2025-01-18 09:12:52.45	114.02	18.80	
2025-01-18 09:12:52.65	114.00	18.82	
2025-01-18 09:12:52.86	113.97	18.85	
2025-01-18 09:12:53.06	113.95	18.87	
2025-01-18 09:12:53.26	113.92	18.89	
2025-01-18 09:12:53.47	113.90	18.91	
2025-01-18 09:12:53.67	113.87	18.93	
2025-01-18 09:12:53.87	113.84	18.95	
2025-01-18 09:12:54.07	113.82	18.98	
2025-01-18 09:12:54.28	113.79	19.00	
2025-01-18 09:12:54.48	113.77	19.02	
2025-01-18 09:12:54.68	113.74	19.04	
2025-01-18 09:12:54.89	113.72	19.06	
2025-01-18 09:12:55.09	113.69	19.09	
2025-01-18 09:12:55.29	113.66	19.11	
2025-01-18 09:12:55.50	113.64	19.13	
2025-01-18 09:12:55.70	113.61	19.15	
2025-01-18 09:12:55.90	113.59	19.17	
2025-01-18 09:12:56.11	113.56	19.20	
2025-01-18 09:12:56.31	113.53	19.22	
2025-01-18 09:12:56.51	113.51	19.24	
2025-01-18 09:12:56.72	113.48	19.26	
2025-01-18 09:12:56.92	113.45	19.28	
2025-01-18 09:12:57.12	113.43	19.31	
2025-01-18 09:12:57.32	113.40	19.33	
2025-01-18 09:12:57.53	113.37	19.35	
2025-01-18 09:12:57.73	113.35	19.37	
2025-01-18 09:12:57.93	113.32	19.39	
2025-01-18 09:12:58.14	113.30	19.42	
2025-01-18 09:12:58.34	113.27	19.44	
2025-01-18 09:12:58.54	113.24	19.46	
2025-01-18 09:12:58.75	113.22	19.48	
2025-01-18 09:12:58.95	113.19	19.50	
2025-01-18 09:12:59.15	113.16	19.53	
2025-01-18 09:12:59.36	113.14	19.55	
2025-01-18 09:12:59.56	113.11	19.57	
2025-01-18 09:12:59.76	113.08	19.59	
2025-01-18 09:12:59.97	113.05	19.62	
2025-01-18 09:13:00.17	113.03	19.64	
2025-01-18 09:13:00.37	113.00	19.66	
2025-01-18 09:13:00.57	112.97	19.68	
2025-01-18 09:13:00.78	112.95	19.70	
2025-01-18 09:13:00.98	112.92	19.73	
2025-01-18 09:13:01.18	112.89	19.75	
2025-01-18 09:13:01.39	112.87	19.77	
2025-01-18 09:13:01.59	112.84	19.79	
2025-01-18 09:13:01.79	112.81	19.81	
2025-01-18 09:13:02.00	112.78	19.84	
2025-01-18 09:13:02.20	112.76	19.86	
2025-01-18 09:13:02.40	112.73	19.88	
2025-01-18 09:13:02.61	112.70	19.90	
2025-01-18 09:13:02.81	112.67	19.93	
2025-01-18 09:13:03.01	112.65	19.95	
2025-01-18 09:13:03.21	112.62	19.97	
2025-01-18 09:13:03.42	112.59	19.99	
2025-01-18 09:13:03.62	112.56	20.02	
2025-01-18 09:13:03.82	112.54	20.04	
2025-01-18 09:13:04.03	112.51	20.06	
2025-01-18 09:13:04.23	112.48	20.08	
2025-01-18 09:13:04.43	112.45	20.11	
2025-01-18 09:13:04.64	112.43	20.13	
2025-01-18 09:13:04.84	112.40	20.15	
2025-01-18 09:13:05.04	112.37	20.17	
2025-01-18 09:13:05.25	112.34	20.20	
2025-01-18 09:13:05.45	112.31	20.22	
2025-01-18 09:13:05.65	112.29	20.24	
2025-01-18 09:13:05.86	112.26	20.26	
2025-01-18 09:13:06.06	112.23	20.29	
2025-01-18 09:13:06.26	112.20	20.31	
2025-01-18 09:13:06.46	112.17	20.33	
2025-01-18 09:13:06.67	112.14	20.35	
2025-01-18 09:13:06.87	112.12	20.38	
2025-01-18 09:13:07.07	112.09	20.40	
2025-01-18 09:13:07.28	112.06	20.42	
2025-01-18 09:13:07.48	112.03	20.44	
2025-01-18 09:13:07.68	112.00	20.47	
2025-01-18 09:13:07.89	111.97	20.49	
2025-01-18 09:13:08.09	111.95	20.51	
2025-01-18 09:13:08.29	111.92	20.54	
2025-01-18 09:13:08.50	111.89	20.56	
2025-01-18 09:13:08.70	111.86	20.58	
2025-01-18 09:13:08.90	111.83	20.60	
2025-01-18 09:13:09.10	111.80	20.63	
2025-01-18 09:13:09.31	111.77	20.65	
2025-01-18 09:13:09.51	111.75	20.67	
2025-01-18 09:13:09.71	111.72	20.69	
2025-01-18 09:13:09.92	111.69	20.72	
2025-01-18 09:13:10.12	111.66	20.74	
2025-01-18 09:13:10.32	111.63	20.76	
2025-01-18 09:13:10.53	111.60	20.79	
2025-01-18 09:13:10.73	111.57	20.81	
2025-01-18 09:13:10.93	111.54	20.83	
2025-01-18 09:13:11.14	111.51	20.86	
2025-01-18 09:13:11.34	111.48	20.88	
2025-01-18 09:13:11.54	111.46	20.90	
2025-01-18 09:13:11.75	111.42	20.92	
2025-01-18 09:13:11.95	111.40	20.95	
2025-01-18 09:13:12.15	111.37	20.97	
2025-01-18 09:13:12.35	111.34	20.99	
2025-01-18 09:13:12.56	111.31	21.02	
2025-01-18 09:13:12.76	111.28	21.04	
2025-01-18 09:13:12.96	111.25	21.06	
2025-01-18 09:13:13.17	111.22	21.09	
2025-01-18 09:13:13.37	111.19	21.11	
2025-01-18 09:13:13.57	111.16	21.13	
2025-01-18 09:13:13.78	111.13	21.15	
2025-01-18 09:13:13.98	111.10	21.18	
2025-01-18 09:13:14.18	111.07	21.20	
2025-01-18 09:13:14.39	111.04	21.22	
2025-01-18 09:13:14.59	111.01	21.25	
2025-01-18 09:13:14.79	110.98	21.27	
2025-01-18 09:13:15.00	110.95	21.29	
2025-01-18 09:13:15.20	110.92	21.32	
2025-01-18 09:13:15.40	110.89	21.34	
2025-01-18 09:13:15.60	110.86	21.36	
2025-01-18 09:13:15.81	110.83	21.39	
2025-01-18 09:13:16.01	110.80	21.41	
2025-01-18 09:13:16.21	110.77	21.43	
2025-01-18 09:13:16.42	110.74	21.46	
2025-01-18 09:13:16.62	110.71	21.48	
2025-01-18 09:13:16.82	110.68	21.50	
2025-01-18 09:13:17.03	110.65	21.53	
2025-01-18 09:13:17.23	110.62	21.55	
2025-01-18 09:13:17.43	110.59	21.57	
2025-01-18 09:13:17.64	110.56	21.60	
2025-01-18 09:13:17.84	110.52	21.62	
2025-01-18 09:13:18.04	110.49	21.64	
2025-01-18 09:13:18.24	110.46	21.66	
2025-01-18 09:13:18.45	110.43	21.69	
2025-01-18 09:13:18.65	110.40	21.71	
2025-01-18 09:13:18.85	110.37	21.73	
2025-01-18 09:13:19.06	110.34	21.76	
2025-01-18 09:13:19.26	110.31	21.78	
2025-01-18 09:13:19.46	110.28	21.81	
2025-01-18 09:13:19.67	110.25	21.83	
2025-01-18 09:13:19.87	110.22	21.85	
2025-01-18 09:13:20.07	110.18	21.88	
2025-01-18 09:13:20.28	110.15	21.90	
2025-01-18 09:13:20.48	110.12	21.92	
2025-01-18 09:13:20.68	110.09	21.95	
2025-01-18 09:13:20.89	110.06	21.97	
2025-01-18 09:13:21.09	110.03	21.99	
2025-01-18 09:13:21.29	110.00	22.02	
2025-01-18 09:13:21.49	109.97	22.04	
2025-01-18 09:13:21.70	109.93	22.06	
2025-01-18 09:13:21.90	109.90	22.09	
2025-01-18 09:13:22.10	109.87	22.11	
2025-01-18 09:13:22.31	109.84	22.14	
2025-01-18 09:13:22.51	109.81	22.16	
2025-01-18 09:13:22.71	109.77	22.18	
2025-01-18 09:13:22.92	109.74	22.21	
2025-01-18 09:13:23.12	109.71	22.23	
2025-01-18 09:13:23.32	109.68	22.25	
2025-01-18 09:13:23.53	109.65	22.28	
2025-01-18 09:13:23.73	109.61	22.30	
2025-01-18 09:13:23.93	109.58	22.32	
2025-01-18 09:13:24.13	109.55	22.35	
2025-01-18 09:13:24.34	109.52	22.37	
2025-01-18 09:13:24.54	109.49	22.40	
2025-01-18 09:13:24.74	109.45	22.42	
2025-01-18 09:13:24.95	109.42	22.44	
2025-01-18 09:13:25.15	109.39	22.47	
2025-01-18 09:13:25.35	109.36	22.49	
2025-01-18 09:13:25.56	109.32	22.51	
2025-01-18 09:13:25.76	109.29	22.54	
2025-01-18 09:13:25.96	109.26	22.56	
2025-01-18 09:13:26.17	109.23	22.59	
2025-01-18 09:13:26.37	109.19	22.61	
2025-01-18 09:13:26.57	109.16	22.63	
2025-01-18 09:13:26.78	109.13	22.66	
2025-01-18 09:13:26.98	109.09	22.68	
2025-01-18 09:13:27.18	109.06	22.70	
2025-01-18 09:13:27.38	109.03	22.73	
2025-01-18 09:13:27.59	109.00	22.75	
2025-01-18 09:13:27.79	108.96	22.78	
2025-01-18 09:13:27.99	108.93	22.80	
2025-01-18 09:13:28.20	108.90	22.82	
2025-01-18 09:13:28.40	108.86	22.85	
2025-01-18 09:13:28.60	108.83	22.87	
2025-01-18 09:13:28.81	108.80	22.90	
2025-01-18 09:13:29.01	108.76	22.92	
2025-01-18 09:13:29.21	108.73	22.94	
2025-01-18 09:13:29.42	108.70	22.97	
2025-01-18 09:13:29.62	108.66	22.99	
2025-01-18 09:13:29.82	108.63	23.02	
2025-01-18 09:13:30.03	108.59	23.04	
2025-01-18 09:13:30.23	108.56	23.06	
2025-01-18 09:13:30.43	108.53	23.09	
2025-01-18 09:13:30.63	108.49	23.11	
2025-01-18 09:13:30.84	108.46	23.14	
2025-01-18 09:13:31.04	108.43	23.16	
2025-01-18 09:13:31.24	108.39	23.18	
2025-01-18 09:13:31.45	108.36	23.21	
2025-01-18 09:13:31.65	108.32	23.23	
2025-01-18 09:13:31.85	108.29	23.26	
2025-01-18 09:13:32.06	108.25	23.28	
2025-01-18 09:13:32.26	108.22	23.31	
2025-01-18 09:13:32.46	108.19	23.33	
2025-01-18 09:13:32.67	108.15	23.36	
2025-01-18 09:13:32.87	108.12	23.38	
2025-01-18 09:13:33.07	108.08	23.40	
2025-01-18 09:13:33.27	108.05	23.43	
2025-01-18 09:13:33.48	108.01	23.45	
2025-01-18 09:13:33.68	107.98	23.48	
2025-01-18 09:13:33.88	107.95	23.50	
2025-01-18 09:13:34.09	107.91	23.52	
2025-01-18 09:13:34.29	107.88	23.55	
2025-01-18 09:13:34.49	107.84	23.57	
2025-01-18 09:13:34.70	107.81	23.60	
2025-01-18 09:13:34.90	107.77	23.62	
2025-01-18 09:13:35.10	107.74	23.65	
2025-01-18 09:13:35.31	107.70	23.67	
2025-01-18 09:13:35.51	107.67	23.69	
2025-01-18 09:13:35.71	107.63	23.72	
2025-01-18 09:13:35.92	107.59	23.74	
2025-01-18 09:13:36.12	107.56	23.77	
2025-01-18 09:13:36.32	107.53	23.79	
2025-01-18 09:13:36.52	107.49	23.82	
2025-01-18 09:13:36.73	107.45	23.84	
2025-01-18 09:13:36.93	107.42	23.87	
2025-01-18 09:13:37.13	107.38	23.89	
2025-01-18 09:13:37.34	107.35	23.91	
2025-01-18 09:13:37.54	107.31	23.94	
2025-01-18 09:13:37.74	107.28	23.96	
2025-01-18 09:13:37.95	107.24	23.99	
2025-01-18 09:13:38.15	107.20	24.01	
2025-01-18 09:13:38.35	107.17	24.04	
2025-01-18 09:13:38.56	107.13	24.06	
2025-01-18 09:13:38.76	107.10	24.09	
2025-01-18 09:13:38.96	107.06	24.11	
2025-01-18 09:13:39.17	107.02	24.14	
2025-01-18 09:13:39.37	106.99	24.16	
2025-01-18 09:13:39.57	106.95	24.18	
2025-01-18 09:13:39.77	106.92	24.21	
2025-01-18 09:13:39.98	106.88	24.23	
2025-01-18 09:13:40.18	106.84	24.26	
2025-01-18 09:13:40.38	106.81	24.28	
2025-01-18 09:13:40.59	106.77	24.31	
2025-01-18 09:13:40.79	106.73	24.33	
2025-01-18 09:13:40.99	106.70	24.36	
2025-01-18 09:13:41.20	106.66	24.38	
2025-01-18 09:13:41.40	106.62	24.41	
2025-01-18 09:13:41.60	106.59	24.43	
2025-01-18 09:13:41.81	106.55	24.46	
2025-01-18 09:13:42.01	106.51	24.48	
2025-01-18 09:13:42.21	106.48	24.50	
2025-01-18 09:13:42.41	106.44	24.53	
2025-01-18 09:13:42.62	106.40	24.55	
2025-01-18 09:13:42.82	106.36	24.58	
2025-01-18 09:13:43.02	106.33	24.60	
2025-01-18 09:13:43.23	106.29	24.63	
2025-01-18 09:13:43.43	106.25	24.65	
2025-01-18 09:13:43.63	106.22	24.68	
2025-01-18 09:13:43.84	106.18	24.70	
2025-01-18 09:13:44.04	106.14	24.73	
2025-01-18 09:13:44.24	106.10	24.75	
2025-01-18 09:13:44.45	106.06	24.78	
2025-01-18 09:13:44.65	106.03	24.80	
2025-01-18 09:13:44.85	105.99	24.83	
2025-01-18 09:13:45.06	105.95	24.85	
2025-01-18 09:13:45.26	105.91	24.88	
2025-01-18 09:13:45.46	105.88	24.90	
2025-01-18 09:13:45.66	105.84	24.93	
2025-01-18 09:13:45.87	105.80	24.95	
2025-01-18 09:13:46.07	105.76	24.98	
2025-01-18 09:13:46.27	105.72	25.00	
2025-01-18 09:13:46.48	105.68	25.03	
2025-01-18 09:13:46.68	105.65	25.05	
2025-01-18 09:13:46.88	105.61	25.08	
2025-01-18 09:13:47.09	105.57	25.10	
2025-01-18 09:13:47.29	105.53	25.13	
2025-01-18 09:13:47.49	105.49	25.15	
2025-01-18 09:13:47.70	105.45	25.18	
2025-01-18 09:13:47.90	105.42	25.20	
2025-01-18 09:13:48.10	105.38	25.23	
2025-01-18 09:13:48.30	105.34	25.25	
2025-01-18 09:13:48.51	105.30	25.28	
2025-01-18 09:13:48.71	105.26	25.30	
2025-01-18 09:13:48.91	105.22	25.33	
2025-01-18 09:13:49.12	105.18	25.35	
2025-01-18 09:13:49.32	105.14	25.38	
2025-01-18 09:13:49.52	105.10	25.40	
2025-01-18 09:13:49.73	105.06	25.43	
2025-01-18 09:13:49.93	105.03	25.45	
2025-01-18 09:13:50.13	104.99	25.48	
2025-01-18 09:13:50.34	104.95	25.50	
2025-01-18 09:13:50.54	104.91	25.53	
2025-01-18 09:13:50.74	104.87	25.55	
2025-01-18 09:13:50.95	104.83	25.58	
2025-01-18 09:13:51.15	104.79	25.60	
2025-01-18 09:13:51.35	104.75	25.63	
2025-01-18 09:13:51.55	104.71	25.65	
2025-01-18 09:13:51.76	104.67	25.68	
2025-01-18 09:13:51.96	104.63	25.70	
2025-01-18 09:13:52.16	104.59	25.73	
2025-01-18 09:13:52.37	104.55	25.75	
2025-01-18 09:13:52.57	104.51	25.78	
2025-01-18 09:13:52.77	104.47	25.80	
2025-01-18 09:13:52.98	104.43	25.83	
2025-01-18 09:13:53.18	104.39	25.85	
2025-01-18 09:13:53.38	104.35	25.88	
2025-01-18 09:13:53.59	104.31	25.90	
2025-01-18 09:13:53.79	104.27	25.93	
2025-01-18 09:13:53.99	104.23	25.95	
2025-01-18 09:13:54.20	104.18	25.98	
2025-01-18 09:13:54.40	104.14	26.01	
2025-01-18 09:13:54.60	104.10	26.03	
2025-01-18 09:13:54.80	104.06	26.06	
2025-01-18 09:13:55.01	104.02	26.08	
2025-01-18 09:13:55.21	103.98	26.11	
2025-01-18 09:13:55.41	103.94	26.13	
2025-01-18 09:13:55.62	103.90	26.16	
2025-01-18 09:13:55.82	103.86	26.18	
2025-01-18 09:13:56.02	103.82	26.21	
2025-01-18 09:13:56.23	103.77	26.23	
2025-01-18 09:13:56.43	103.73	26.26	
2025-01-18 09:13:56.63	103.69	26.28	
2025-01-18 09:13:56.84	103.65	26.31	
2025-01-18 09:13:57.04	103.61	26.33	
2025-01-18 09:13:57.24	103.57	26.36	
2025-01-18 09:13:57.44	103.53	26.38	
2025-01-18 09:13:57.65	103.48	26.41	
2025-01-18 09:13:57.85	103.44	26.44	
2025-01-18 09:13:58.05	103.40	26.46	
2025-01-18 09:13:58.26	103.36	26.49	
2025-01-18 09:13:58.46	103.32	26.51	
2025-01-18 09:13:58.66	103.28	26.54	
2025-01-18 09:13:58.87	103.23	26.56	
2025-01-18 09:13:59.07	103.19	26.59	
2025-01-18 09:13:59.27	103.15	26.61	
2025-01-18 09:13:59.48	103.10	26.64	
2025-01-18 09:13:59.68	103.06	26.66	
2025-01-18 09:13:59.88	103.02	26.69	
2025-01-18 09:14:00.09	102.98	26.72	
2025-01-18 09:14:00.29	102.93	26.74	
2025-01-18 09:14:00.49	102.89	26.77	
2025-01-18 09:14:00.69	102.85	26.79	
2025-01-18 09:14:00.90	102.81	26.82	
2025-01-18 09:14:01.10	102.76	26.84	
2025-01-18 09:14:01.30	102.72	26.87	
2025-01-18 09:14:01.51	102.68	26.89	
2025-01-18 09:14:01.71	102.63	26.92	
2025-01-18 09:14:01.91	102.59	26.94	
2025-01-18 09:14:02.12	102.55	26.97	
2025-01-18 09:14:02.32	102.50	27.00	
2025-01-18 09:14:02.52	102.46	27.02	
2025-01-18 09:14:02.73	102.42	27.05	
2025-01-18 09:14:02.93	102.37	27.07	
2025-01-18 09:14:03.13	102.33	27.10	
2025-01-18 09:14:03.33	102.29	27.12	
2025-01-18 09:14:03.54	102.24	27.15	
2025-01-18 09:14:03.74	102.20	27.17	
2025-01-18 09:14:03.94	102.16	27.20	
2025-01-18 09:14:04.15	102.11	27.23	
2025-01-18 09:14:04.35	102.07	27.25	
2025-01-18 09:14:04.55	102.02	27.28	
2025-01-18 09:14:04.76	101.98	27.30	
2025-01-18 09:14:04.96	101.93	27.33	
2025-01-18 09:14:05.16	101.89	27.35	
2025-01-18 09:14:05.37	101.84	27.38	
2025-01-18 09:14:05.57	101.80	27.41	
2025-01-18 09:14:05.77	101.76	27.43	
2025-01-18 09:14:05.98	101.71	27.46	
2025-01-18 09:14:06.18	101.67	27.48	
2025-01-18 09:14:06.38	101.62	27.51	
2025-01-18 09:14:06.58	101.58	27.53	
2025-01-18 09:14:06.79	101.53	27.56	
2025-01-18 09:14:06.99	101.49	27.58	
2025-01-18 09:14:07.19	101.44	27.61	
2025-01-18 09:14:07.40	101.40	27.64	
2025-01-18 09:14:07.60	101.35	27.66	
2025-01-18 09:14:07.80	101.31	27.69	
2025-01-18 09:14:08.01	101.26	27.71	
2025-01-18 09:14:08.21	101.22	27.74	
2025-01-18 09:14:08.41	101.17	27.76	
2025-01-18 09:14:08.62	101.12	27.79	
2025-01-18 09:14:08.82	101.08	27.82	
2025-01-18 09:14:09.02	101.03	27.84	
2025-01-18 09:14:09.23	100.99	27.87	
2025-01-18 09:14:09.43	100.94	27.89	
2025-01-18 09:14:09.63	100.90	27.92	
2025-01-18 09:14:09.83	100.85	27.94	
2025-01-18 09:14:10.04	100.80	27.97	
2025-01-18 09:14:10.24	100.76	28.00	
2025-01-18 09:14:10.44	100.71	28.02	
2025-01-18 09:14:10.65	100.66	28.05	
2025-01-18 09:14:10.85	100.62	28.07	
2025-01-18 09:14:11.05	100.57	28.10	
2025-01-18 09:14:11.26	100.52	28.12	
2025-01-18 09:14:11.46	100.48	28.15	
2025-01-18 09:14:11.66	100.43	28.18	
2025-01-18 09:14:11.87	100.38	28.20	
2025-01-18 09:14:12.07	100.34	28.23	
2025-01-18 09:14:12.27	100.29	28.25	
2025-01-18 09:14:12.47	100.25	28.28	
2025-01-18 09:14:12.68	100.20	28.30	
2025-01-18 09:14:12.88	100.15	28.33	
2025-01-18 09:14:13.08	100.10	28.35	
2025-01-18 09:14:13.29	100.06	28.38	
2025-01-18 09:14:13.49	100.01	28.41	
2025-01-18 09:14:13.69	99.96	28.43	
2025-01-18 09:14:13.90	99.91	28.46	
2025-01-18 09:14:14.10	99.87	28.48	
2025-01-18 09:14:14.30	99.82	28.51	
2025-01-18 09:14:14.51	99.77	28.54	
2025-01-18 09:14:14.71	99.72	28.56	
2025-01-18 09:14:14.91	99.68	28.59	
2025-01-18 09:14:15.12	99.63	28.61	
2025-01-18 09:14:15.32	99.58	28.64	
2025-01-18 09:14:15.52	99.53	28.66	
2025-01-18 09:14:15.72	99.48	28.69	
2025-01-18 09:14:15.93	99.43	28.72	
2025-01-18 09:14:16.13	99.39	28.74	
2025-01-18 09:14:16.33	99.34	28.77	
2025-01-18 09:14:16.54	99.29	28.79	
2025-01-18 09:14:16.74	99.24	28.82	
2025-01-18 09:14:16.94	99.19	28.84	
2025-01-18 09:14:17.15	99.14	28.87	
2025-01-18 09:14:17.35	99.09	28.90	
2025-01-18 09:14:17.55	99.05	28.92	
2025-01-18 09:14:17.76	98.99	28.95	
2025-01-18 09:14:17.96	98.95	28.97	
2025-01-18 09:14:18.16	98.90	29.00	
2025-01-18 09:14:18.36	98.85	29.02	
2025-01-18 09:14:18.57	98.80	29.05	
2025-01-18 09:14:18.77	98.75	29.08	
2025-01-18 09:14:18.97	98.70	29.10	
2025-01-18 09:14:19.18	98.65	29.13	
2025-01-18 09:14:19.38	98.60	29.15	
2025-01-18 09:14:19.58	98.55	29.18	
2025-01-18 09:14:19.79	98.50	29.21	
2025-01-18 09:14:19.99	98.45	29.23	
2025-01-18 09:14:20.19	98.40	29.26	
2025-01-18 09:14:20.40	98.35	29.28	
2025-01-18 09:14:20.60	98.30	29.31	
2025-01-18 09:14:20.80	98.25	29.33	
2025-01-18 09:14:21.01	98.20	29.36	
2025-01-18 09:14:21.21	98.15	29.39	
2025-01-18 09:14:21.41	98.10	29.41	
2025-01-18 09:14:21.61	98.05	29.44	
2025-01-18 09:14:21.82	98.00	29.46	
2025-01-18 09:14:22.02	97.95	29.49	
2025-01-18 09:14:22.22	97.90	29.51	
2025-01-18 09:14:22.43	97.85	29.54	
2025-01-18 09:14:22.63	97.80	29.57	
2025-01-18 09:14:22.83	97.74	29.59	
2025-01-18 09:14:23.04	97.69	29.62	
2025-01-18 09:14:23.24	97.64	29.64	
2025-01-18 09:14:23.44	97.59	29.67	
2025-01-18 09:14:23.65	97.54	29.69	
2025-01-18 09:14:23.85	97.49	29.72	
2025-01-18 09:14:24.05	97.44	29.75	
2025-01-18 09:14:24.26	97.38	29.77	
2025-01-18 09:14:24.46	97.33	29.80	
2025-01-18 09:14:24.66	97.28	29.82	
2025-01-18 09:14:24.86	97.23	29.85	
2025-01-18 09:14:25.07	97.18	29.87	
2025-01-18 09:14:25.27	97.13	29.90	
2025-01-18 09:14:25.47	97.07	29.93	
2025-01-18 09:14:25.68	97.02	29.95	
2025-01-18 09:14:25.88	96.97	29.98	
2025-01-18 09:14:26.08	96.92	30.00	
2025-01-18 09:14:26.29	96.86	30.03	
2025-01-18 09:14:26.49	96.81	30.05	
2025-01-18 09:14:26.69	96.76	30.08	
2025-01-18 09:14:26.90	96.70	30.11	
2025-01-18 09:14:27.10	96.65	30.13	
2025-01-18 09:14:27.30	96.60	30.16	
2025-01-18 09:14:27.50	96.55	30.18	
2025-01-18 09:14:27.71	96.49	30.21	
2025-01-18 09:14:27.91	96.44	30.23	
2025-01-18 09:14:28.11	96.39	30.26	
2025-01-18 09:14:28.32	96.33	30.29	
2025-01-18 09:14:28.52	96.28	30.31	
2025-01-18 09:14:28.72	96.23	30.34	
2025-01-18 09:14:28.93	96.17	30.36	
2025-01-18 09:14:29.13	96.12	30.39	
2025-01-18 09:14:29.33	96.07	30.41	
2025-01-18 09:14:29.54	96.01	30.44	
2025-01-18 09:14:29.74	95.96	30.46	
2025-01-18 09:14:29.94	95.91	30.49	
2025-01-18 09:14:30.15	95.85	30.52	
2025-01-18 09:14:30.35	95.80	30.54	
2025-01-18 09:14:30.55	95.74	30.57	
2025-01-18 09:14:30.75	95.69	30.59	
2025-01-18 09:14:30.96	95.63	30.62	
2025-01-18 09:14:31.16	95.58	30.64	
2025-01-18 09:14:31.36	95.53	30.67	
2025-01-18 09:14:31.57	95.47	30.69	
2025-01-18 09:14:31.77	95.42	30.72	
2025-01-18 09:14:31.97	95.36	30.74	
2025-01-18 09:14:32.18	95.30	30.77	
2025-01-18 09:14:32.38	95.25	30.80	
2025-01-18 09:14:32.58	95.20	30.82	
2025-01-18 09:14:32.79	95.14	30.85	
2025-01-18 09:14:32.99	95.08	30.87	
2025-01-18 09:14:33.19	95.03	30.90	
2025-01-18 09:14:33.39	94.98	30.92	
2025-01-18 09:14:33.60	94.92	30.95	
2025-01-18 09:14:33.80	94.86	30.97	
2025-01-18 09:14:34.00	94.81	31.00	
2025-01-18 09:14:34.21	94.75	31.03	
2025-01-18 09:14:34.41	94.70	31.05	
2025-01-18 09:14:34.61	94.64	31.08	
2025-01-18 09:14:34.82	94.58	31.10	
2025-01-18 09:14:35.02	94.53	31.13	
2025-01-18 09:14:35.22	94.47	31.15	
2025-01-18 09:14:35.43	94.41	31.18	
2025-01-18 09:14:35.63	94.36	31.20	
2025-01-18 09:14:35.83	94.30	31.23	
2025-01-18 09:14:36.04	94.24	31.25	
2025-01-18 09:14:36.24	94.19	31.28	
2025-01-18 09:14:36.44	94.13	31.30	
2025-01-18 09:14:36.64	94.08	31.33	
2025-01-18 09:14:36.85	94.02	31.36	
2025-01-18 09:14:37.05	93.96	31.38	
2025-01-18 09:14:37.25	93.91	31.41	
2025-01-18 09:14:37.46	93.85	31.43	
2025-01-18 09:14:37.66	93.79	31.46	
2025-01-18 09:14:37.86	93.73	31.48	
2025-01-18 09:14:38.07	93.67	31.51	
2025-01-18 09:14:38.27	93.62	31.53	
2025-01-18 09:14:38.47	93.56	31.56	
2025-01-18 09:14:38.68	93.50	31.58	
2025-01-18 09:14:38.88	93.44	31.61	
2025-01-18 09:14:39.08	93.39	31.63	
2025-01-18 09:14:39.29	93.33	31.66	
2025-01-18 09:14:39.49	93.27	31.68	
2025-01-18 09:14:39.69	93.21	31.71	
2025-01-18 09:14:39.89	93.15	31.73	
2025-01-18 09:14:40.10	93.09	31.76	
2025-01-18 09:14:40.30	93.04	31.78	
2025-01-18 09:14:40.50	92.98	31.81	
2025-01-18 09:14:40.71	92.92	31.83	
2025-01-18 09:14:40.91	92.86	31.86	
2025-01-18 09:14:41.11	92.80	31.88	
2025-01-18 09:14:41.32	92.74	31.91	
2025-01-18 09:14:41.52	92.68	31.93	
2025-01-18 09:14:41.72	92.62	31.96	
2025-01-18 09:14:41.93	92.56	31.98	
2025-01-18 09:14:42.13	92.51	32.01	
2025-01-18 09:14:42.33	92.45	32.03	
2025-01-18 09:14:42.53	92.39	32.06	
2025-01-18 09:14:42.74	92.33	32.08	
2025-01-18 09:14:42.94	92.27	32.11	
2025-01-18 09:14:43.14	92.21	32.13	
2025-01-18 09:14:43.35	92.15	32.16	
2025-01-18 09:14:43.55	92.09	32.18	
2025-01-18 09:14:43.75	92.03	32.21	
2025-01-18 09:14:43.96	91.97	32.23	
2025-01-18 09:14:44.16	91.91	32.26	
2025-01-18 09:14:44.36	91.85	32.28	
2025-01-18 09:14:44.57	91.79	32.31	
2025-01-18 09:14:44.77	91.73	32.33	
2025-01-18 09:14:44.97	91.67	32.36	
2025-01-18 09:14:45.18	91.60	32.38	
2025-01-18 09:14:45.38	91.54	32.41	
2025-01-18 09:14:45.58	91.48	32.43	
2025-01-18 09:14:45.78	91.42	32.46	
2025-01-18 09:14:45.99	91.36	32.48	
2025-01-18 09:14:46.19	91.30	32.51	
2025-01-18 09:14:46.39	91.24	32.53	
2025-01-18 09:14:46.60	91.18	32.56	
2025-01-18 09:14:46.80	91.12	32.58	
2025-01-18 09:14:47.00	91.06	32.60	
2025-01-18 09:14:47.21	90.99	32.63	
2025-01-18 09:14:47.41	90.93	32.65	
2025-01-18 09:14:47.61	90.87	32.68	
2025-01-18 09:14:47.82	90.81	32.70	
2025-01-18 09:14:48.02	90.74	32.73	
2025-01-18 09:14:48.22	90.68	32.75	
2025-01-18 09:14:48.43	90.62	32.78	
2025-01-18 09:14:47.91	90.78	32.71	
2025-01-18 09:14:48.11	90.72	32.74	
2025-01-18 09:14:48.32	90.65	32.76	
2025-01-18 09:14:48.52	90.59	32.79	
2025-01-18 09:14:48.72	90.53	32.81	
2025-01-18 09:14:48.93	90.47	32.84	
2025-01-18 09:14:49.13	90.40	32.86	
2025-01-18 09:14:49.33	90.34	32.89	
2025-01-18 09:14:49.53	90.28	32.91	
2025-01-18 09:14:49.74	90.22	32.93	
2025-01-18 09:14:49.94	90.15	32.96	
2025-01-18 09:14:50.14	90.09	32.98	
2025-01-18 09:14:50.35	90.03	33.01	
2025-01-18 09:14:50.55	89.96	33.03	
2025-01-18 09:14:50.75	89.90	33.06	
2025-01-18 09:14:50.96	89.84	33.08	
2025-01-18 09:14:51.16	89.77	33.10	
2025-01-18 09:14:51.36	89.71	33.13	
2025-01-18 09:14:51.56	89.65	33.15	
2025-01-18 09:14:51.77	89.58	33.18	
2025-01-18 09:14:51.97	89.52	33.20	
2025-01-18 09:14:52.17	89.46	33.22	
2025-01-18 09:14:52.38	89.39	33.25	
2025-01-18 09:14:52.58	89.33	33.27	
2025-01-18 09:14:52.78	89.26	33.30	
2025-01-18 09:14:52.99	89.20	33.32	
2025-01-18 09:14:53.19	89.13	33.35	
2025-01-18 09:14:53.39	89.07	33.37	
2025-01-18 09:14:53.59	89.01	33.39	
2025-01-18 09:14:53.80	88.94	33.42	
2025-01-18 09:14:54.00	88.88	33.44	
2025-01-18 09:14:54.20	88.81	33.46	
2025-01-18 09:14:54.41	88.75	33.49	
2025-01-18 09:14:54.61	88.68	33.51	
2025-01-18 09:14:54.81	88.62	33.54	
2025-01-18 09:14:55.02	88.55	33.56	
2025-01-18 09:14:55.22	88.49	33.58	
2025-01-18 09:14:55.42	88.42	33.61	
2025-01-18 09:14:55.62	88.36	33.63	
2025-01-18 09:14:55.83	88.29	33.66	
2025-01-18 09:14:56.03	88.22	33.68	
2025-01-18 09:14:56.23	88.16	33.70	
2025-01-18 09:14:56.44	88.09	33.73	
2025-01-18 09:14:56.64	88.03	33.75	
2025-01-18 09:14:56.84	87.96	33.77	
2025-01-18 09:14:57.05	87.89	33.80	
2025-01-18 09:14:57.25	87.83	33.82	
2025-01-18 09:14:57.45	87.76	33.84	
2025-01-18 09:14:57.65	87.70	33.87	
2025-01-18 09:14:57.86	87.63	33.89	
2025-01-18 09:14:58.06	87.56	33.91	
2025-01-18 09:14:58.26	87.50	33.94	
2025-01-18 09:14:58.47	87.43	33.96	
2025-01-18 09:14:58.67	87.36	33.98	
2025-01-18 09:14:58.87	87.29	34.01	
2025-01-18 09:14:59.08	87.22	34.03	
2025-01-18 09:14:59.28	87.16	34.05	
2025-01-18 09:14:59.48	87.09	34.08	
2025-01-18 09:14:59.68	87.03	34.10	
2025-01-18 09:14:59.89	86.96	34.12	
2025-01-18 09:15:00.09	86.89	34.15	
2025-01-18 09:15:00.29	86.82	34.17	
2025-01-18 09:15:00.50	86.75	34.19	
2025-01-18 09:15:00.70	86.69	34.22	
2025-01-18 09:15:00.90	86.62	34.24	
2025-01-18 09:15:01.11	86.55	34.26	
2025-01-18 09:15:01.31	86.48	34.29	
2025-01-18 09:15:01.51	86.41	34.31	
2025-01-18 09:15:01.71	86.35	34.33	
2025-01-18 09:15:01.92	86.27	34.35	
2025-01-18 09:15:02.12	86.21	34.38	
2025-01-18 09:15:02.32	86.14	34.40	
2025-01-18 09:15:02.53	86.07	34.42	
2025-01-18 09:15:02.73	86.00	34.45	
2025-01-18 09:15:02.93	85.93	34.47	
2025-01-18 09:15:03.13	85.86	34.49	
2025-01-18 09:15:03.34	85.79	34.51	
2025-01-18 09:15:03.54	85.72	34.54	
2025-01-18 09:15:03.74	85.66	34.56	
2025-01-18 09:15:03.95	85.58	34.58	
2025-01-18 09:15:04.15	85.52	34.60	
2025-01-18 09:15:04.35	85.45	34.63	
2025-01-18 09:15:04.56	85.37	34.65	
2025-01-18 09:15:04.76	85.31	34.67	
2025-01-18 09:15:04.96	85.24	34.69	
2025-01-18 09:15:05.16	85.17	34.72	
2025-01-18 09:15:05.37	85.10	34.74	
2025-01-18 09:15:05.57	85.03	34.76	
2025-01-18 09:15:05.77	84.96	34.78	
2025-01-18 09:15:05.98	84.88	34.81	
2025-01-18 09:15:06.18	84.81	34.83	
2025-01-18 09:15:06.38	84.74	34.85	
2025-01-18 09:15:06.59	84.67	34.87	
2025-01-18 09:15:06.79	84.60	34.89	
2025-01-18 09:15:06.99	84.53	34.92	
2025-01-18 09:15:07.19	84.46	34.94	
2025-01-18 09:15:07.40	84.39	34.96	
2025-01-18 09:15:07.60	84.32	34.98	
2025-01-18 09:15:07.80	84.25	35.00	
2025-01-18 09:15:08.01	84.17	35.03	
2025-01-18 09:15:08.21	84.10	35.05	
2025-01-18 09:15:08.41	84.03	35.07	
2025-01-18 09:15:08.62	83.96	35.09	
2025-01-18 09:15:08.82	83.89	35.11	
2025-01-18 09:15:09.02	83.82	35.13	
2025-01-18 09:15:09.22	83.75	35.16	
2025-01-18 09:15:09.43	83.67	35.18	
2025-01-18 09:15:09.63	83.60	35.20	
2025-01-18 09:15:09.83	83.53	35.22	
2025-01-18 09:15:10.04	83.45	35.24	
2025-01-18 09:15:10.24	83.38	35.26	
2025-01-18 09:15:10.44	83.31	35.29	
2025-01-18 09:15:10.65	83.24	35.31	
2025-01-18 09:15:10.85	83.16	35.33	
2025-01-18 09:15:11.05	83.09	35.35	
2025-01-18 09:15:11.25	83.02	35.37	
2025-01-18 09:15:11.46	82.95	35.39	
2025-01-18 09:15:11.66	82.87	35.41	
2025-01-18 09:15:11.86	82.80	35.43	
2025-01-18 09:15:12.07	82.73	35.46	
2025-01-18 09:15:12.27	82.65	35.48	
2025-01-18 09:15:12.47	82.58	35.50	
2025-01-18 09:15:12.68	82.50	35.52	
2025-01-18 09:15:12.88	82.43	35.54	
2025-01-18 09:15:13.08	82.36	35.56	
2025-01-18 09:15:13.28	82.29	35.58	
2025-01-18 09:15:13.49	82.21	35.60	
2025-01-18 09:15:13.69	82.14	35.62	
2025-01-18 09:15:13.89	82.06	35.64	
2025-01-18 09:15:14.10	81.99	35.67	
2025-01-18 09:15:14.30	81.91	35.69	
2025-01-18 09:15:14.50	81.84	35.71	
2025-01-18 09:15:14.71	81.76	35.73	
2025-01-18 09:15:14.91	81.69	35.75	
2025-01-18 09:15:15.11	81.62	35.77	
2025-01-18 09:15:15.31	81.54	35.79	
2025-01-18 09:15:15.52	81.46	35.81	
2025-01-18 09:15:15.72	81.39	35.83	
2025-01-18 09:15:15.92	81.32	35.85	
2025-01-18 09:15:16.13	81.24	35.87	
2025-01-18 09:15:16.33	81.16	35.89	
2025-01-18 09:15:16.53	81.09	35.91	
2025-01-18 09:15:16.73	81.02	35.93	
2025-01-18 09:15:16.94	80.94	35.95	
2025-01-18 09:15:17.14	80.86	35.97	
2025-01-18 09:15:17.34	80.79	35.99	
2025-01-18 09:15:17.55	80.71	36.01	
2025-01-18 09:15:17.75	80.64	36.03	
2025-01-18 09:15:17.95	80.56	36.05	
2025-01-18 09:15:18.16	80.48	36.07	
2025-01-18 09:15:18.36	80.41	36.09	
2025-01-18 09:15:18.56	80.33	36.11	
2025-01-18 09:15:18.76	80.26	36.13	
2025-01-18 09:15:18.97	80.18	36.15	
2025-01-18 09:15:19.17	80.10	36.17	
2025-01-18 09:15:19.37	80.03	36.19	
2025-01-18 09:15:19.58	79.95	36.21	
2025-01-18 09:15:19.78	79.87	36.23	
2025-01-18 09:15:19.98	79.79	36.25	
2025-01-18 09:15:20.19	79.72	36.27	
2025-01-18 09:15:20.39	79.64	36.29	
2025-01-18 09:15:20.59	79.56	36.31	
2025-01-18 09:15:20.79	79.49	36.32	
2025-01-18 09:15:21.00	79.41	36.34	
2025-01-18 09:15:21.20	79.33	36.36	
2025-01-18 09:15:21.40	79.25	36.38	
2025-01-18 09:15:21.61	79.17	36.40	
2025-01-18 09:15:21.81	79.10	36.42	
2025-01-18 09:15:22.01	79.02	36.44	
2025-01-18 09:15:22.22	78.94	36.46	
2025-01-18 09:15:22.42	78.86	36.48	
2025-01-18 09:15:22.62	78.79	36.50	
2025-01-18 09:15:22.82	78.71	36.51	
2025-01-18 09:15:23.03	78.63	36.53	
2025-01-18 09:15:23.23	78.55	36.55	
2025-01-18 09:15:23.43	78.47	36.57	
2025-01-18 09:15:23.64	78.39	36.59	
2025-01-18 09:15:23.84	78.31	36.61	
2025-01-18 09:15:24.04	78.24	36.63	
2025-01-18 09:15:24.25	78.15	36.65	
2025-01-18 09:15:24.45	78.08	36.66	
2025-01-18 09:15:24.65	78.00	36.68	
2025-01-18 09:15:24.85	77.92	36.70	
2025-01-18 09:15:25.06	77.84	36.72	
2025-01-18 09:15:25.26	77.76	36.74	
2025-01-18 09:15:25.46	77.68	36.75	
2025-01-18 09:15:25.67	77.60	36.77	
2025-01-18 09:15:25.87	77.52	36.79	
2025-01-18 09:15:26.07	77.44	36.81	
2025-01-18 09:15:26.28	77.36	36.83	
2025-01-18 09:15:26.48	77.28	36.84	
2025-01-18 09:15:26.68	77.20	36.86	
2025-01-18 09:15:26.88	77.12	36.88	
2025-01-18 09:15:27.09	77.04	36.90	
2025-01-18 09:15:27.29	76.96	36.91	
2025-01-18 09:15:27.49	76.88	36.93	
