passes_logs/2025/01/18/SPB_Silybum_02/SPB_Silybum_02__20250118_115311_AQUA_rec.log

#Pass ID: 20250118_115311_AQUA
#Satellite: AQUA
#Configuration: AQUA
#Start time: 2025-01-18 11:53:11

#Version: 2.0.20230423
#Station: SPB_Silybum_02
#Location: 30.233357 lon 59.946436 lat
#TLE: 1 27424U 02022A   25017.88331103  .00002112  00000+0  44339-3 0  9998
#TLE: 2 27424  98.3596 334.5732 0001847 108.4912 313.9167 14.60695357208043

#Time	Az	El	Level	Level2	SNR	BER	Gain	Gain2
2025-01-18 11:53:13.64	175.97	4.20	
2025-01-18 11:53:13.85	175.97	4.21	
2025-01-18 11:53:14.05	175.98	4.22	
2025-01-18 11:53:14.25	175.99	4.24	
2025-01-18 11:53:14.46	175.99	4.25	
2025-01-18 11:53:14.66	176.00	4.27	
2025-01-18 11:53:14.86	176.00	4.28	
2025-01-18 11:53:15.06	176.01	4.30	
2025-01-18 11:53:15.27	176.02	4.31	
2025-01-18 11:53:15.47	176.02	4.33	
2025-01-18 11:53:15.67	176.03	4.34	
2025-01-18 11:53:15.88	176.04	4.36	
2025-01-18 11:53:16.08	176.04	4.37	
2025-01-18 11:53:16.28	176.05	4.38	
2025-01-18 11:53:16.48	176.06	4.40	
2025-01-18 11:53:16.69	176.06	4.41	
2025-01-18 11:53:16.89	176.07	4.43	
2025-01-18 11:53:17.09	176.08	4.44	
2025-01-18 11:53:17.30	176.08	4.46	
2025-01-18 11:53:17.50	176.09	4.47	
2025-01-18 11:53:17.70	176.10	4.49	
2025-01-18 11:53:17.91	176.10	4.50	
2025-01-18 11:53:18.11	176.11	4.52	
2025-01-18 11:53:18.31	176.12	4.53	
2025-01-18 11:53:18.51	176.12	4.55	
2025-01-18 11:53:18.72	176.13	4.56	
2025-01-18 11:53:18.92	176.14	4.57	
2025-01-18 11:53:19.12	176.14	4.59	
2025-01-18 11:53:19.33	176.15	4.60	
2025-01-18 11:53:19.53	176.16	4.62	
2025-01-18 11:53:19.73	176.16	4.63	
2025-01-18 11:53:19.94	176.17	4.65	
2025-01-18 11:53:20.14	176.18	4.66	
2025-01-18 11:53:20.34	176.18	4.68	
2025-01-18 11:53:20.54	176.19	4.69	
2025-01-18 11:53:20.75	176.20	4.71	
2025-01-18 11:53:20.95	176.20	4.72	
2025-01-18 11:53:21.15	176.21	4.74	
2025-01-18 11:53:21.36	176.22	4.75	
2025-01-18 11:53:21.56	176.22	4.77	
2025-01-18 11:53:21.76	176.23	4.78	
2025-01-18 11:53:21.97	176.24	4.80	
2025-01-18 11:53:22.17	176.24	4.81	
2025-01-18 11:53:22.37	176.25	4.83	
2025-01-18 11:53:22.57	176.26	4.84	
2025-01-18 11:53:22.78	176.26	4.86	
2025-01-18 11:53:22.98	176.27	4.87	
2025-01-18 11:53:23.18	176.28	4.89	
2025-01-18 11:53:23.39	176.28	4.90	
2025-01-18 11:53:23.59	176.29	4.92	
2025-01-18 11:53:23.79	176.30	4.93	
2025-01-18 11:53:24.00	176.30	4.95	
2025-01-18 11:53:24.20	176.31	4.96	
2025-01-18 11:53:24.40	176.32	4.98	
2025-01-18 11:53:24.60	176.33	4.99	
2025-01-18 11:53:24.81	176.33	5.01	
2025-01-18 11:53:25.01	176.34	5.02	
2025-01-18 11:53:25.21	176.35	5.03	
2025-01-18 11:53:25.42	176.35	5.05	
2025-01-18 11:53:25.62	176.36	5.07	
2025-01-18 11:53:25.82	176.37	5.08	
2025-01-18 11:53:26.03	176.37	5.10	
2025-01-18 11:53:26.23	176.38	5.11	
2025-01-18 11:53:26.43	176.39	5.13	
2025-01-18 11:53:26.63	176.39	5.14	
2025-01-18 11:53:26.84	176.40	5.16	
2025-01-18 11:53:27.04	176.41	5.17	
2025-01-18 11:53:27.24	176.41	5.19	
2025-01-18 11:53:27.45	176.42	5.20	
2025-01-18 11:53:27.65	176.43	5.22	
2025-01-18 11:53:27.85	176.44	5.23	
2025-01-18 11:53:28.06	176.44	5.25	
2025-01-18 11:53:28.26	176.45	5.26	
2025-01-18 11:53:28.46	176.46	5.28	
2025-01-18 11:53:28.66	176.46	5.29	
2025-01-18 11:53:28.87	176.47	5.31	
2025-01-18 11:53:29.07	176.48	5.32	
2025-01-18 11:53:29.27	176.48	5.34	
2025-01-18 11:53:29.48	176.49	5.35	
2025-01-18 11:53:29.68	176.50	5.37	
2025-01-18 11:53:29.88	176.51	5.38	
2025-01-18 11:53:30.09	176.51	5.40	
2025-01-18 11:53:30.29	176.52	5.41	
2025-01-18 11:53:30.49	176.53	5.43	
2025-01-18 11:53:30.69	176.53	5.44	
2025-01-18 11:53:30.90	176.54	5.46	
2025-01-18 11:53:31.10	176.55	5.47	
2025-01-18 11:53:31.30	176.55	5.49	
2025-01-18 11:53:31.51	176.56	5.50	
2025-01-18 11:53:31.71	176.57	5.52	
2025-01-18 11:53:31.91	176.58	5.53	
2025-01-18 11:53:32.11	176.58	5.55	
2025-01-18 11:53:32.32	176.59	5.57	
2025-01-18 11:53:32.52	176.60	5.58	
2025-01-18 11:53:32.72	176.60	5.60	
2025-01-18 11:53:32.93	176.61	5.61	
2025-01-18 11:53:33.13	176.62	5.63	
2025-01-18 11:53:33.33	176.63	5.64	
2025-01-18 11:53:33.54	176.63	5.66	
2025-01-18 11:53:33.74	176.64	5.67	
2025-01-18 11:53:33.94	176.65	5.69	
2025-01-18 11:53:34.14	176.65	5.70	
2025-01-18 11:53:34.35	176.66	5.72	
2025-01-18 11:53:34.55	176.67	5.73	
2025-01-18 11:53:34.75	176.68	5.75	
2025-01-18 11:53:34.96	176.68	5.77	
2025-01-18 11:53:35.16	176.69	5.78	
2025-01-18 11:53:35.36	176.70	5.80	
2025-01-18 11:53:35.57	176.70	5.81	
2025-01-18 11:53:35.77	176.71	5.83	
2025-01-18 11:53:35.97	176.72	5.84	
2025-01-18 11:53:36.17	176.73	5.86	
2025-01-18 11:53:36.38	176.73	5.87	
2025-01-18 11:53:36.58	176.74	5.89	
2025-01-18 11:53:36.78	176.75	5.90	
2025-01-18 11:53:36.99	176.76	5.92	
2025-01-18 11:53:37.19	176.76	5.94	
2025-01-18 11:53:37.39	176.77	5.95	
2025-01-18 11:53:37.60	176.78	5.97	
2025-01-18 11:53:37.80	176.78	5.98	
2025-01-18 11:53:38.00	176.79	6.00	
2025-01-18 11:53:38.20	176.80	6.01	
2025-01-18 11:53:38.41	176.81	6.03	
2025-01-18 11:53:38.61	176.81	6.05	
2025-01-18 11:53:38.81	176.82	6.06	
2025-01-18 11:53:39.02	176.83	6.08	
2025-01-18 11:53:39.22	176.84	6.09	
2025-01-18 11:53:39.42	176.84	6.11	
2025-01-18 11:53:39.63	176.85	6.12	
2025-01-18 11:53:39.83	176.86	6.14	
2025-01-18 11:53:40.03	176.87	6.15	
2025-01-18 11:53:40.23	176.87	6.17	
2025-01-18 11:53:40.44	176.88	6.19	
2025-01-18 11:53:40.64	176.89	6.20	
2025-01-18 11:53:40.84	176.90	6.22	
2025-01-18 11:53:41.05	176.90	6.23	
2025-01-18 11:53:41.25	176.91	6.25	
2025-01-18 11:53:41.45	176.92	6.26	
2025-01-18 11:53:41.66	176.93	6.28	
2025-01-18 11:53:41.86	176.93	6.30	
2025-01-18 11:53:42.06	176.94	6.31	
2025-01-18 11:53:42.26	176.95	6.33	
2025-01-18 11:53:42.47	176.96	6.34	
2025-01-18 11:53:42.67	176.96	6.36	
2025-01-18 11:53:42.87	176.97	6.38	
2025-01-18 11:53:43.08	176.98	6.39	
2025-01-18 11:53:43.28	176.98	6.41	
2025-01-18 11:53:43.48	176.99	6.42	
2025-01-18 11:53:43.69	177.00	6.44	
2025-01-18 11:53:43.89	177.01	6.45	
2025-01-18 11:53:44.09	177.02	6.47	
2025-01-18 11:53:44.29	177.02	6.49	
2025-01-18 11:53:44.50	177.03	6.50	
2025-01-18 11:53:44.70	177.04	6.52	
2025-01-18 11:53:44.90	177.05	6.53	
2025-01-18 11:53:45.11	177.05	6.55	
2025-01-18 11:53:45.31	177.06	6.57	
2025-01-18 11:53:45.51	177.07	6.58	
2025-01-18 11:53:45.72	177.08	6.60	
2025-01-18 11:53:45.92	177.08	6.61	
2025-01-18 11:53:46.12	177.09	6.63	
2025-01-18 11:53:46.32	177.10	6.65	
2025-01-18 11:53:46.53	177.11	6.66	
2025-01-18 11:53:46.73	177.11	6.68	
2025-01-18 11:53:46.93	177.12	6.69	
2025-01-18 11:53:47.15	177.13	6.71	
2025-01-18 11:53:47.35	177.14	6.73	
2025-01-18 11:53:47.56	177.15	6.74	
2025-01-18 11:53:47.76	177.15	6.76	
2025-01-18 11:53:47.96	177.16	6.78	
2025-01-18 11:53:48.17	177.17	6.79	
2025-01-18 11:53:48.37	177.18	6.81	
2025-01-18 11:53:48.57	177.18	6.82	
2025-01-18 11:53:48.78	177.19	6.84	
2025-01-18 11:53:48.98	177.20	6.86	
2025-01-18 11:53:49.18	177.21	6.87	
2025-01-18 11:53:49.38	177.21	6.89	
2025-01-18 11:53:49.59	177.22	6.91	
2025-01-18 11:53:49.79	177.23	6.92	
2025-01-18 11:53:49.99	177.24	6.94	
2025-01-18 11:53:50.20	177.25	6.95	
2025-01-18 11:53:50.40	177.25	6.97	
2025-01-18 11:53:50.60	177.26	6.99	
2025-01-18 11:53:50.81	177.27	7.00	
2025-01-18 11:53:51.01	177.28	7.02	
2025-01-18 11:53:51.21	177.29	7.03	
2025-01-18 11:53:51.41	177.29	7.05	
2025-01-18 11:53:51.62	177.30	7.07	
2025-01-18 11:53:51.82	177.31	7.08	
2025-01-18 11:53:52.02	177.32	7.10	
2025-01-18 11:53:52.23	177.32	7.12	
2025-01-18 11:53:52.43	177.33	7.13	
2025-01-18 11:53:52.63	177.34	7.15	
2025-01-18 11:53:52.84	177.35	7.17	
2025-01-18 11:53:53.04	177.36	7.18	
2025-01-18 11:53:53.24	177.36	7.20	
2025-01-18 11:53:53.44	177.37	7.21	
2025-01-18 11:53:53.65	177.38	7.23	
2025-01-18 11:53:53.85	177.39	7.25	
2025-01-18 11:53:54.05	177.40	7.26	
2025-01-18 11:53:54.26	177.40	7.28	
2025-01-18 11:53:54.46	177.41	7.30	
2025-01-18 11:53:54.66	177.42	7.31	
2025-01-18 11:53:54.87	177.43	7.33	
2025-01-18 11:53:55.07	177.44	7.35	
2025-01-18 11:53:55.27	177.44	7.36	
2025-01-18 11:53:55.47	177.45	7.38	
2025-01-18 11:53:55.68	177.46	7.40	
2025-01-18 11:53:55.88	177.47	7.41	
2025-01-18 11:53:56.08	177.48	7.43	
2025-01-18 11:53:56.29	177.48	7.45	
2025-01-18 11:53:56.49	177.49	7.46	
2025-01-18 11:53:56.69	177.50	7.48	
2025-01-18 11:53:56.89	177.51	7.50	
2025-01-18 11:53:57.10	177.52	7.51	
2025-01-18 11:53:57.30	177.53	7.53	
2025-01-18 11:53:57.50	177.53	7.54	
2025-01-18 11:53:57.71	177.54	7.56	
2025-01-18 11:53:57.91	177.55	7.58	
2025-01-18 11:53:58.11	177.56	7.60	
2025-01-18 11:53:58.32	177.57	7.61	
2025-01-18 11:53:58.52	177.57	7.63	
2025-01-18 11:53:58.72	177.58	7.65	
2025-01-18 11:53:58.92	177.59	7.66	
2025-01-18 11:53:59.13	177.60	7.68	
2025-01-18 11:53:59.33	177.61	7.70	
2025-01-18 11:53:59.53	177.61	7.71	
2025-01-18 11:53:59.74	177.62	7.73	
2025-01-18 11:53:59.94	177.63	7.75	
2025-01-18 11:54:00.14	177.64	7.76	
2025-01-18 11:54:00.35	177.65	7.78	
2025-01-18 11:54:00.55	177.66	7.80	
2025-01-18 11:54:00.75	177.66	7.81	
2025-01-18 11:54:00.95	177.67	7.83	
2025-01-18 11:54:01.16	177.68	7.85	
2025-01-18 11:54:01.36	177.69	7.86	
2025-01-18 11:54:01.56	177.70	7.88	
2025-01-18 11:54:01.77	177.71	7.90	
2025-01-18 11:54:01.97	177.71	7.91	
2025-01-18 11:54:02.17	177.72	7.93	
2025-01-18 11:54:02.38	177.73	7.95	
2025-01-18 11:54:02.58	177.74	7.97	
2025-01-18 11:54:02.78	177.75	7.98	
2025-01-18 11:54:02.98	177.76	8.00	
2025-01-18 11:54:03.19	177.76	8.02	
2025-01-18 11:54:03.39	177.77	8.03	
2025-01-18 11:54:03.59	177.78	8.05	
2025-01-18 11:54:03.80	177.79	8.07	
2025-01-18 11:54:04.00	177.80	8.08	
2025-01-18 11:54:04.20	177.81	8.10	
2025-01-18 11:54:04.41	177.82	8.12	
2025-01-18 11:54:04.61	177.82	8.14	
2025-01-18 11:54:04.81	177.83	8.15	
2025-01-18 11:54:05.01	177.84	8.17	
2025-01-18 11:54:05.22	177.85	8.19	
2025-01-18 11:54:05.42	177.86	8.20	
2025-01-18 11:54:05.62	177.87	8.22	
2025-01-18 11:54:05.83	177.88	8.24	
2025-01-18 11:54:06.03	177.88	8.25	
2025-01-18 11:54:06.23	177.89	8.27	
2025-01-18 11:54:06.44	177.90	8.29	
2025-01-18 11:54:06.64	177.91	8.31	
2025-01-18 11:54:06.84	177.92	8.32	
2025-01-18 11:54:07.04	177.93	8.34	
2025-01-18 11:54:07.25	177.93	8.36	
2025-01-18 11:54:07.45	177.94	8.37	
2025-01-18 11:54:07.65	177.95	8.39	
2025-01-18 11:54:07.86	177.96	8.41	
2025-01-18 11:54:08.06	177.97	8.43	
2025-01-18 11:54:08.26	177.98	8.44	
2025-01-18 11:54:08.47	177.99	8.46	
2025-01-18 11:54:08.67	178.00	8.48	
2025-01-18 11:54:08.87	178.00	8.50	
2025-01-18 11:54:09.07	178.01	8.51	
2025-01-18 11:54:09.28	178.02	8.53	
2025-01-18 11:54:09.48	178.03	8.55	
2025-01-18 11:54:09.68	178.04	8.57	
2025-01-18 11:54:09.89	178.05	8.58	
2025-01-18 11:54:10.09	178.06	8.60	
2025-01-18 11:54:10.29	178.06	8.62	
2025-01-18 11:54:10.49	178.07	8.63	
2025-01-18 11:54:10.70	178.08	8.65	
2025-01-18 11:54:10.90	178.09	8.67	
2025-01-18 11:54:11.10	178.10	8.69	
2025-01-18 11:54:11.31	178.11	8.70	
2025-01-18 11:54:11.51	178.12	8.72	
2025-01-18 11:54:11.71	178.13	8.74	
2025-01-18 11:54:11.92	178.14	8.76	
2025-01-18 11:54:12.12	178.14	8.77	
2025-01-18 11:54:12.32	178.15	8.79	
2025-01-18 11:54:12.52	178.16	8.81	
2025-01-18 11:54:12.73	178.17	8.83	
2025-01-18 11:54:12.93	178.18	8.84	
2025-01-18 11:54:13.13	178.19	8.86	
2025-01-18 11:54:13.34	178.20	8.88	
2025-01-18 11:54:13.54	178.21	8.90	
2025-01-18 11:54:13.74	178.22	8.92	
2025-01-18 11:54:13.95	178.22	8.93	
2025-01-18 11:54:14.15	178.23	8.95	
2025-01-18 11:54:14.35	178.24	8.97	
2025-01-18 11:54:14.55	178.25	8.99	
2025-01-18 11:54:14.76	178.26	9.00	
2025-01-18 11:54:14.96	178.27	9.02	
2025-01-18 11:54:15.16	178.28	9.04	
2025-01-18 11:54:15.37	178.29	9.06	
2025-01-18 11:54:15.57	178.30	9.07	
2025-01-18 11:54:15.77	178.31	9.09	
2025-01-18 11:54:15.98	178.31	9.11	
2025-01-18 11:54:16.18	178.32	9.13	
2025-01-18 11:54:16.38	178.33	9.15	
2025-01-18 11:54:16.58	178.34	9.16	
2025-01-18 11:54:16.79	178.35	9.18	
2025-01-18 11:54:16.99	178.36	9.20	
2025-01-18 11:54:17.19	178.37	9.22	
2025-01-18 11:54:17.40	178.38	9.24	
2025-01-18 11:54:17.60	178.39	9.25	
2025-01-18 11:54:17.80	178.40	9.27	
2025-01-18 11:54:18.01	178.41	9.29	
2025-01-18 11:54:18.21	178.41	9.31	
2025-01-18 11:54:18.41	178.42	9.32	
2025-01-18 11:54:18.61	178.43	9.34	
2025-01-18 11:54:18.82	178.44	9.36	
2025-01-18 11:54:19.02	178.45	9.38	
2025-01-18 11:54:19.22	178.46	9.40	
2025-01-18 11:54:19.43	178.47	9.41	
2025-01-18 11:54:19.63	178.48	9.43	
2025-01-18 11:54:19.83	178.49	9.45	
2025-01-18 11:54:20.04	178.50	9.47	
2025-01-18 11:54:20.24	178.51	9.49	
2025-01-18 11:54:20.44	178.52	9.50	
2025-01-18 11:54:20.64	178.53	9.52	
2025-01-18 11:54:20.85	178.54	9.54	
2025-01-18 11:54:21.05	178.54	9.56	
2025-01-18 11:54:21.25	178.55	9.58	
2025-01-18 11:54:21.46	178.56	9.60	
2025-01-18 11:54:21.66	178.57	9.61	
2025-01-18 11:54:21.86	178.58	9.63	
2025-01-18 11:54:22.07	178.59	9.65	
2025-01-18 11:54:22.27	178.60	9.67	
2025-01-18 11:54:22.47	178.61	9.69	
2025-01-18 11:54:22.67	178.62	9.70	
2025-01-18 11:54:22.88	178.63	9.72	
2025-01-18 11:54:23.08	178.64	9.74	
2025-01-18 11:54:23.28	178.65	9.76	
2025-01-18 11:54:23.49	178.66	9.78	
2025-01-18 11:54:23.69	178.67	9.80	
2025-01-18 11:54:23.89	178.68	9.81	
2025-01-18 11:54:24.09	178.69	9.83	
2025-01-18 11:54:24.30	178.70	9.85	
2025-01-18 11:54:24.50	178.70	9.87	
2025-01-18 11:54:24.70	178.71	9.89	
2025-01-18 11:54:24.91	178.72	9.91	
2025-01-18 11:54:25.11	178.73	9.92	
2025-01-18 11:54:25.31	178.74	9.94	
2025-01-18 11:54:25.52	178.75	9.96	
2025-01-18 11:54:25.72	178.76	9.98	
2025-01-18 11:54:25.92	178.77	10.00	
2025-01-18 11:54:26.12	178.78	10.02	
2025-01-18 11:54:26.33	178.79	10.04	
2025-01-18 11:54:26.53	178.80	10.05	
2025-01-18 11:54:26.73	178.81	10.07	
2025-01-18 11:54:26.94	178.82	10.09	
2025-01-18 11:54:27.14	178.83	10.11	
2025-01-18 11:54:27.34	178.84	10.13	
2025-01-18 11:54:27.55	178.85	10.15	
2025-01-18 11:54:27.75	178.86	10.17	
2025-01-18 11:54:27.95	178.87	10.18	
2025-01-18 11:54:28.15	178.88	10.20	
2025-01-18 11:54:28.36	178.89	10.22	
2025-01-18 11:54:28.56	178.90	10.24	
2025-01-18 11:54:28.76	178.91	10.26	
2025-01-18 11:54:28.97	178.92	10.28	
2025-01-18 11:54:29.17	178.93	10.30	
2025-01-18 11:54:29.37	178.94	10.31	
2025-01-18 11:54:29.58	178.95	10.33	
2025-01-18 11:54:29.78	178.96	10.35	
2025-01-18 11:54:29.98	178.97	10.37	
2025-01-18 11:54:30.18	178.98	10.39	
2025-01-18 11:54:30.39	178.99	10.41	
2025-01-18 11:54:30.59	179.00	10.43	
2025-01-18 11:54:30.79	179.01	10.45	
2025-01-18 11:54:31.00	179.02	10.47	
2025-01-18 11:54:31.20	179.03	10.48	
2025-01-18 11:54:31.40	179.04	10.50	
2025-01-18 11:54:31.61	179.05	10.52	
2025-01-18 11:54:31.81	179.06	10.54	
2025-01-18 11:54:32.01	179.07	10.56	
2025-01-18 11:54:32.21	179.08	10.58	
2025-01-18 11:54:32.42	179.09	10.60	
2025-01-18 11:54:32.62	179.10	10.62	
2025-01-18 11:54:32.82	179.11	10.64	
2025-01-18 11:54:33.03	179.12	10.65	
2025-01-18 11:54:33.23	179.13	10.67	
2025-01-18 11:54:33.43	179.14	10.69	
2025-01-18 11:54:33.64	179.15	10.71	
2025-01-18 11:54:33.84	179.16	10.73	
2025-01-18 11:54:34.04	179.17	10.75	
2025-01-18 11:54:34.24	179.18	10.77	
2025-01-18 11:54:34.45	179.19	10.79	
2025-01-18 11:54:34.65	179.20	10.81	
2025-01-18 11:54:34.85	179.21	10.83	
2025-01-18 11:54:35.06	179.22	10.85	
2025-01-18 11:54:35.26	179.23	10.86	
2025-01-18 11:54:35.46	179.24	10.88	
2025-01-18 11:54:35.67	179.25	10.90	
2025-01-18 11:54:35.87	179.26	10.92	
2025-01-18 11:54:36.07	179.27	10.94	
2025-01-18 11:54:36.27	179.28	10.96	
2025-01-18 11:54:36.48	179.29	10.98	
2025-01-18 11:54:36.68	179.30	11.00	
2025-01-18 11:54:36.88	179.31	11.02	
2025-01-18 11:54:37.09	179.32	11.04	
2025-01-18 11:54:37.29	179.33	11.06	
2025-01-18 11:54:37.49	179.34	11.08	
2025-01-18 11:54:37.70	179.35	11.10	
2025-01-18 11:54:37.90	179.36	11.12	
2025-01-18 11:54:38.10	179.37	11.13	
2025-01-18 11:54:38.30	179.38	11.15	
2025-01-18 11:54:38.51	179.39	11.17	
2025-01-18 11:54:38.71	179.40	11.19	
2025-01-18 11:54:38.91	179.41	11.21	
2025-01-18 11:54:39.12	179.43	11.23	
2025-01-18 11:54:39.32	179.44	11.25	
2025-01-18 11:54:39.52	179.45	11.27	
2025-01-18 11:54:39.72	179.46	11.29	
2025-01-18 11:54:39.93	179.47	11.31	
2025-01-18 11:54:40.13	179.48	11.33	
2025-01-18 11:54:40.33	179.49	11.35	
2025-01-18 11:54:40.54	179.50	11.37	
2025-01-18 11:54:40.74	179.51	11.39	
2025-01-18 11:54:40.94	179.52	11.41	
2025-01-18 11:54:41.15	179.53	11.43	
2025-01-18 11:54:41.35	179.54	11.45	
2025-01-18 11:54:41.55	179.55	11.47	
2025-01-18 11:54:41.75	179.56	11.49	
2025-01-18 11:54:41.96	179.57	11.51	
2025-01-18 11:54:42.16	179.58	11.53	
2025-01-18 11:54:42.36	179.59	11.55	
2025-01-18 11:54:42.57	179.61	11.57	
2025-01-18 11:54:42.77	179.62	11.59	
2025-01-18 11:54:42.97	179.63	11.61	
2025-01-18 11:54:43.18	179.64	11.63	
2025-01-18 11:54:43.38	179.65	11.65	
2025-01-18 11:54:43.58	179.66	11.66	
2025-01-18 11:54:43.78	179.67	11.68	
2025-01-18 11:54:43.99	179.68	11.70	
2025-01-18 11:54:44.19	179.69	11.72	
2025-01-18 11:54:44.39	179.70	11.74	
2025-01-18 11:54:44.60	179.71	11.76	
2025-01-18 11:54:44.80	179.72	11.78	
2025-01-18 11:54:45.00	179.73	11.80	
2025-01-18 11:54:45.21	179.75	11.82	
2025-01-18 11:54:45.41	179.76	11.84	
2025-01-18 11:54:45.61	179.77	11.86	
2025-01-18 11:54:45.81	179.78	11.88	
2025-01-18 11:54:46.02	179.79	11.90	
2025-01-18 11:54:46.22	179.80	11.92	
2025-01-18 11:54:46.42	179.81	11.94	
2025-01-18 11:54:46.63	179.82	11.97	
2025-01-18 11:54:46.83	179.83	11.98	
2025-01-18 11:54:47.03	179.84	12.00	
2025-01-18 11:54:47.24	179.86	12.03	
2025-01-18 11:54:47.44	179.87	12.05	
2025-01-18 11:54:47.64	179.88	12.07	
2025-01-18 11:54:47.84	179.89	12.09	
2025-01-18 11:54:48.05	179.90	12.11	
2025-01-18 11:54:48.25	179.91	12.13	
2025-01-18 11:54:48.45	179.92	12.15	
2025-01-18 11:54:48.66	179.93	12.17	
2025-01-18 11:54:48.86	179.94	12.19	
2025-01-18 11:54:49.06	179.96	12.21	
2025-01-18 11:54:49.27	179.97	12.23	
2025-01-18 11:54:49.47	179.98	12.25	
2025-01-18 11:54:49.67	179.99	12.27	
2025-01-18 11:54:49.87	180.00	12.29	
2025-01-18 11:54:50.08	180.01	12.31	
2025-01-18 11:54:50.28	180.02	12.33	
2025-01-18 11:54:50.48	180.03	12.35	
2025-01-18 11:54:50.69	180.05	12.37	
2025-01-18 11:54:50.89	180.06	12.39	
2025-01-18 11:54:51.09	180.07	12.41	
2025-01-18 11:54:51.30	180.08	12.43	
2025-01-18 11:54:51.50	180.09	12.45	
2025-01-18 11:54:51.70	180.10	12.47	
2025-01-18 11:54:51.90	180.11	12.49	
2025-01-18 11:54:52.11	180.13	12.51	
2025-01-18 11:54:52.31	180.14	12.54	
2025-01-18 11:54:52.51	180.15	12.56	
2025-01-18 11:54:52.72	180.16	12.58	
2025-01-18 11:54:52.92	180.17	12.60	
2025-01-18 11:54:53.12	180.18	12.62	
2025-01-18 11:54:53.33	180.19	12.64	
2025-01-18 11:54:53.53	180.21	12.66	
2025-01-18 11:54:53.73	180.22	12.68	
2025-01-18 11:54:53.93	180.23	12.70	
2025-01-18 11:54:54.14	180.24	12.72	
2025-01-18 11:54:54.34	180.25	12.74	
2025-01-18 11:54:54.54	180.26	12.76	
2025-01-18 11:54:54.75	180.28	12.78	
2025-01-18 11:54:54.95	180.29	12.80	
2025-01-18 11:54:55.15	180.30	12.83	
2025-01-18 11:54:55.35	180.31	12.85	
2025-01-18 11:54:55.56	180.32	12.87	
2025-01-18 11:54:55.76	180.33	12.89	
2025-01-18 11:54:55.96	180.35	12.91	
2025-01-18 11:54:56.17	180.36	12.93	
2025-01-18 11:54:56.37	180.37	12.95	
2025-01-18 11:54:56.57	180.38	12.97	
2025-01-18 11:54:56.78	180.39	12.99	
2025-01-18 11:54:56.98	180.40	13.01	
2025-01-18 11:54:57.18	180.42	13.04	
2025-01-18 11:54:57.38	180.43	13.06	
2025-01-18 11:54:57.59	180.44	13.08	
2025-01-18 11:54:57.79	180.45	13.10	
2025-01-18 11:54:57.99	180.46	13.12	
2025-01-18 11:54:58.20	180.48	13.14	
2025-01-18 11:54:58.40	180.49	13.16	
2025-01-18 11:54:58.60	180.50	13.18	
2025-01-18 11:54:58.81	180.51	13.21	
2025-01-18 11:54:59.01	180.52	13.23	
2025-01-18 11:54:59.21	180.54	13.25	
2025-01-18 11:54:59.41	180.55	13.27	
2025-01-18 11:54:59.62	180.56	13.29	
2025-01-18 11:54:59.82	180.57	13.31	
2025-01-18 11:55:00.02	180.58	13.33	
2025-01-18 11:55:00.23	180.60	13.35	
2025-01-18 11:55:00.43	180.61	13.38	
2025-01-18 11:55:00.63	180.62	13.40	
2025-01-18 11:55:00.84	180.63	13.42	
2025-01-18 11:55:01.04	180.65	13.44	
2025-01-18 11:55:01.24	180.66	13.46	
2025-01-18 11:55:01.44	180.67	13.48	
2025-01-18 11:55:01.65	180.68	13.50	
2025-01-18 11:55:01.85	180.69	13.53	
2025-01-18 11:55:02.05	180.71	13.55	
2025-01-18 11:55:02.26	180.72	13.57	
2025-01-18 11:55:02.46	180.73	13.59	
2025-01-18 11:55:02.66	180.74	13.61	
2025-01-18 11:55:02.87	180.76	13.63	
2025-01-18 11:55:03.07	180.77	13.66	
2025-01-18 11:55:03.27	180.78	13.68	
2025-01-18 11:55:03.47	180.79	13.70	
2025-01-18 11:55:03.68	180.81	13.72	
2025-01-18 11:55:03.88	180.82	13.74	
2025-01-18 11:55:04.08	180.83	13.76	
2025-01-18 11:55:04.29	180.84	13.79	
2025-01-18 11:55:04.49	180.85	13.81	
2025-01-18 11:55:04.69	180.87	13.83	
2025-01-18 11:55:04.90	180.88	13.85	
2025-01-18 11:55:05.10	180.89	13.87	
2025-01-18 11:55:05.30	180.90	13.89	
2025-01-18 11:55:05.50	180.92	13.92	
2025-01-18 11:55:05.71	180.93	13.94	
2025-01-18 11:55:05.91	180.94	13.96	
2025-01-18 11:55:06.11	180.96	13.98	
2025-01-18 11:55:06.32	180.97	14.00	
2025-01-18 11:55:06.52	180.98	14.03	
2025-01-18 11:55:06.72	180.99	14.05	
2025-01-18 11:55:06.93	181.01	14.07	
2025-01-18 11:55:07.13	181.02	14.09	
2025-01-18 11:55:07.33	181.03	14.11	
2025-01-18 11:55:07.53	181.04	14.14	
2025-01-18 11:55:07.74	181.06	14.16	
2025-01-18 11:55:07.94	181.07	14.18	
2025-01-18 11:55:08.14	181.08	14.20	
2025-01-18 11:55:08.35	181.10	14.23	
2025-01-18 11:55:08.55	181.11	14.25	
2025-01-18 11:55:08.75	181.12	14.27	
2025-01-18 11:55:08.96	181.13	14.29	
2025-01-18 11:55:09.16	181.15	14.31	
2025-01-18 11:55:09.36	181.16	14.34	
2025-01-18 11:55:09.56	181.17	14.36	
2025-01-18 11:55:09.77	181.19	14.38	
2025-01-18 11:55:09.97	181.20	14.40	
2025-01-18 11:55:10.17	181.21	14.43	
2025-01-18 11:55:10.38	181.23	14.45	
2025-01-18 11:55:10.58	181.24	14.47	
2025-01-18 11:55:10.78	181.25	14.49	
2025-01-18 11:55:10.98	181.26	14.51	
2025-01-18 11:55:11.19	181.28	14.54	
2025-01-18 11:55:11.39	181.29	14.56	
2025-01-18 11:55:11.59	181.30	14.58	
2025-01-18 11:55:11.80	181.32	14.61	
2025-01-18 11:55:12.00	181.33	14.63	
2025-01-18 11:55:12.20	181.34	14.65	
2025-01-18 11:55:12.41	181.36	14.67	
2025-01-18 11:55:12.61	181.37	14.70	
2025-01-18 11:55:12.81	181.38	14.72	
2025-01-18 11:55:13.01	181.40	14.74	
2025-01-18 11:55:13.22	181.41	14.76	
2025-01-18 11:55:13.42	181.42	14.79	
2025-01-18 11:55:13.62	181.44	14.81	
2025-01-18 11:55:13.83	181.45	14.83	
2025-01-18 11:55:14.03	181.46	14.85	
2025-01-18 11:55:14.23	181.48	14.88	
2025-01-18 11:55:14.44	181.49	14.90	
2025-01-18 11:55:14.64	181.50	14.92	
2025-01-18 11:55:14.84	181.52	14.95	
2025-01-18 11:55:15.04	181.53	14.97	
2025-01-18 11:55:15.25	181.54	14.99	
2025-01-18 11:55:15.45	181.56	15.01	
2025-01-18 11:55:15.65	181.57	15.04	
2025-01-18 11:55:15.86	181.59	15.06	
2025-01-18 11:55:16.06	181.60	15.08	
2025-01-18 11:55:16.26	181.61	15.11	
2025-01-18 11:55:16.47	181.63	15.13	
2025-01-18 11:55:16.67	181.64	15.15	
2025-01-18 11:55:16.87	181.65	15.18	
2025-01-18 11:55:17.07	181.67	15.20	
2025-01-18 11:55:17.28	181.68	15.22	
2025-01-18 11:55:17.48	181.69	15.25	
2025-01-18 11:55:17.68	181.71	15.27	
2025-01-18 11:55:17.89	181.72	15.29	
2025-01-18 11:55:18.09	181.74	15.32	
2025-01-18 11:55:18.29	181.75	15.34	
2025-01-18 11:55:18.50	181.76	15.36	
2025-01-18 11:55:18.70	181.78	15.39	
2025-01-18 11:55:18.90	181.79	15.41	
2025-01-18 11:55:19.10	181.80	15.43	
2025-01-18 11:55:19.31	181.82	15.46	
2025-01-18 11:55:19.51	181.83	15.48	
2025-01-18 11:55:19.71	181.85	15.50	
2025-01-18 11:55:19.92	181.86	15.53	
2025-01-18 11:55:20.12	181.88	15.55	
2025-01-18 11:55:20.32	181.89	15.57	
2025-01-18 11:55:20.53	181.90	15.60	
2025-01-18 11:55:20.73	181.92	15.62	
2025-01-18 11:55:20.93	181.93	15.64	
2025-01-18 11:55:21.13	181.95	15.67	
2025-01-18 11:55:21.34	181.96	15.69	
2025-01-18 11:55:21.54	181.97	15.71	
2025-01-18 11:55:21.74	181.99	15.74	
2025-01-18 11:55:21.95	182.00	15.76	
2025-01-18 11:55:22.15	182.02	15.79	
2025-01-18 11:55:22.35	182.03	15.81	
2025-01-18 11:55:22.56	182.05	15.83	
2025-01-18 11:55:22.76	182.06	15.86	
2025-01-18 11:55:22.96	182.07	15.88	
2025-01-18 11:55:23.16	182.09	15.90	
2025-01-18 11:55:23.37	182.10	15.93	
2025-01-18 11:55:23.57	182.12	15.95	
2025-01-18 11:55:23.77	182.13	15.98	
2025-01-18 11:55:23.98	182.15	16.00	
2025-01-18 11:55:24.18	182.16	16.02	
2025-01-18 11:55:24.38	182.18	16.05	
2025-01-18 11:55:24.58	182.19	16.07	
2025-01-18 11:55:24.79	182.20	16.10	
2025-01-18 11:55:24.99	182.22	16.12	
2025-01-18 11:55:25.19	182.23	16.14	
2025-01-18 11:55:25.40	182.25	16.17	
2025-01-18 11:55:25.60	182.26	16.19	
2025-01-18 11:55:25.80	182.28	16.22	
2025-01-18 11:55:26.01	182.29	16.24	
2025-01-18 11:55:26.21	182.31	16.26	
2025-01-18 11:55:26.41	182.32	16.29	
2025-01-18 11:55:26.61	182.34	16.31	
2025-01-18 11:55:26.82	182.35	16.34	
2025-01-18 11:55:27.02	182.37	16.36	
2025-01-18 11:55:27.22	182.38	16.39	
2025-01-18 11:55:27.43	182.40	16.41	
2025-01-18 11:55:27.63	182.41	16.43	
2025-01-18 11:55:27.83	182.43	16.46	
2025-01-18 11:55:28.04	182.44	16.48	
2025-01-18 11:55:28.24	182.46	16.51	
2025-01-18 11:55:28.44	182.47	16.53	
2025-01-18 11:55:28.64	182.49	16.56	
2025-01-18 11:55:28.85	182.50	16.58	
2025-01-18 11:55:29.05	182.52	16.61	
2025-01-18 11:55:29.25	182.53	16.63	
2025-01-18 11:55:29.46	182.55	16.66	
2025-01-18 11:55:29.66	182.56	16.68	
2025-01-18 11:55:29.86	182.58	16.70	
2025-01-18 11:55:30.07	182.59	16.73	
2025-01-18 11:55:30.27	182.61	16.75	
2025-01-18 11:55:30.47	182.62	16.78	
2025-01-18 11:55:30.67	182.64	16.80	
2025-01-18 11:55:30.88	182.65	16.83	
2025-01-18 11:55:31.08	182.67	16.85	
2025-01-18 11:55:31.28	182.68	16.88	
2025-01-18 11:55:31.49	182.70	16.90	
2025-01-18 11:55:31.69	182.71	16.93	
2025-01-18 11:55:31.89	182.73	16.95	
2025-01-18 11:55:32.10	182.75	16.98	
2025-01-18 11:55:32.30	182.76	17.00	
2025-01-18 11:55:32.50	182.78	17.03	
2025-01-18 11:55:32.70	182.79	17.05	
2025-01-18 11:55:32.91	182.81	17.08	
2025-01-18 11:55:33.11	182.82	17.10	
2025-01-18 11:55:33.31	182.84	17.13	
2025-01-18 11:55:33.52	182.85	17.15	
2025-01-18 11:55:33.72	182.87	17.18	
2025-01-18 11:55:33.92	182.89	17.20	
2025-01-18 11:55:34.13	182.90	17.23	
2025-01-18 11:55:34.33	182.92	17.25	
2025-01-18 11:55:34.53	182.93	17.28	
2025-01-18 11:55:34.73	182.95	17.30	
2025-01-18 11:55:34.94	182.96	17.33	
2025-01-18 11:55:35.14	182.98	17.35	
2025-01-18 11:55:35.34	183.00	17.38	
2025-01-18 11:55:35.55	183.01	17.41	
2025-01-18 11:55:35.75	183.03	17.43	
2025-01-18 11:55:35.95	183.04	17.46	
2025-01-18 11:55:36.16	183.06	17.48	
2025-01-18 11:55:36.36	183.08	17.51	
2025-01-18 11:55:36.56	183.09	17.53	
2025-01-18 11:55:36.76	183.11	17.56	
2025-01-18 11:55:36.97	183.12	17.58	
2025-01-18 11:55:37.17	183.14	17.61	
2025-01-18 11:55:37.37	183.16	17.63	
2025-01-18 11:55:37.58	183.17	17.66	
2025-01-18 11:55:37.78	183.19	17.69	
2025-01-18 11:55:37.98	183.21	17.71	
2025-01-18 11:55:38.19	183.22	17.74	
2025-01-18 11:55:38.39	183.24	17.76	
2025-01-18 11:55:38.59	183.25	17.79	
2025-01-18 11:55:38.79	183.27	17.81	
2025-01-18 11:55:39.00	183.29	17.84	
2025-01-18 11:55:39.20	183.30	17.87	
2025-01-18 11:55:39.40	183.32	17.89	
2025-01-18 11:55:39.61	183.34	17.92	
2025-01-18 11:55:39.81	183.35	17.94	
2025-01-18 11:55:40.01	183.37	17.97	
2025-01-18 11:55:40.21	183.39	18.00	
2025-01-18 11:55:40.42	183.40	18.02	
2025-01-18 11:55:40.62	183.42	18.05	
2025-01-18 11:55:40.82	183.44	18.07	
2025-01-18 11:55:41.03	183.45	18.10	
2025-01-18 11:55:41.23	183.47	18.13	
2025-01-18 11:55:41.43	183.49	18.15	
2025-01-18 11:55:41.64	183.50	18.18	
2025-01-18 11:55:41.84	183.52	18.21	
2025-01-18 11:55:42.04	183.54	18.23	
2025-01-18 11:55:42.24	183.55	18.26	
2025-01-18 11:55:42.45	183.57	18.28	
2025-01-18 11:55:42.65	183.59	18.31	
2025-01-18 11:55:42.85	183.60	18.34	
2025-01-18 11:55:43.06	183.62	18.36	
2025-01-18 11:55:43.26	183.64	18.39	
2025-01-18 11:55:43.46	183.65	18.42	
2025-01-18 11:55:43.67	183.67	18.44	
2025-01-18 11:55:43.87	183.69	18.47	
2025-01-18 11:55:44.07	183.71	18.50	
2025-01-18 11:55:44.27	183.72	18.52	
2025-01-18 11:55:44.48	183.74	18.55	
2025-01-18 11:55:44.68	183.76	18.58	
2025-01-18 11:55:44.88	183.77	18.60	
2025-01-18 11:55:45.09	183.79	18.63	
2025-01-18 11:55:45.29	183.81	18.66	
2025-01-18 11:55:45.49	183.83	18.68	
2025-01-18 11:55:45.70	183.84	18.71	
2025-01-18 11:55:45.90	183.86	18.74	
2025-01-18 11:55:46.10	183.88	18.76	
2025-01-18 11:55:46.30	183.90	18.79	
2025-01-18 11:55:46.51	183.91	18.82	
2025-01-18 11:55:46.71	183.93	18.84	
2025-01-18 11:55:46.91	183.95	18.87	
2025-01-18 11:55:47.12	183.97	18.90	
2025-01-18 11:55:47.32	183.98	18.93	
2025-01-18 11:55:47.52	184.00	18.95	
2025-01-18 11:55:47.73	184.02	18.98	
2025-01-18 11:55:47.93	184.04	19.01	
2025-01-18 11:55:48.13	184.05	19.03	
2025-01-18 11:55:48.33	184.07	19.06	
2025-01-18 11:55:48.54	184.09	19.09	
2025-01-18 11:55:48.74	184.11	19.12	
2025-01-18 11:55:48.94	184.13	19.14	
2025-01-18 11:55:49.15	184.14	19.17	
2025-01-18 11:55:49.35	184.16	19.20	
2025-01-18 11:55:49.55	184.18	19.22	
2025-01-18 11:55:49.76	184.20	19.25	
2025-01-18 11:55:49.96	184.22	19.28	
2025-01-18 11:55:50.16	184.23	19.31	
2025-01-18 11:55:50.36	184.25	19.33	
2025-01-18 11:55:50.57	184.27	19.36	
2025-01-18 11:55:50.77	184.29	19.39	
2025-01-18 11:55:50.97	184.31	19.42	
2025-01-18 11:55:51.18	184.32	19.45	
2025-01-18 11:55:51.38	184.34	19.47	
2025-01-18 11:55:51.58	184.36	19.50	
2025-01-18 11:55:51.78	184.38	19.53	
2025-01-18 11:55:51.99	184.40	19.56	
2025-01-18 11:55:52.19	184.42	19.58	
2025-01-18 11:55:52.39	184.43	19.61	
2025-01-18 11:55:52.60	184.45	19.64	
2025-01-18 11:55:52.80	184.47	19.67	
2025-01-18 11:55:53.00	184.49	19.69	
2025-01-18 11:55:53.21	184.51	19.72	
2025-01-18 11:55:53.41	184.53	19.75	
2025-01-18 11:55:53.61	184.55	19.78	
2025-01-18 11:55:53.82	184.56	19.81	
2025-01-18 11:55:54.02	184.58	19.84	
2025-01-18 11:55:54.22	184.60	19.86	
2025-01-18 11:55:54.42	184.62	19.89	
2025-01-18 11:55:54.63	184.64	19.92	
2025-01-18 11:55:54.83	184.66	19.95	
2025-01-18 11:55:55.03	184.68	19.98	
2025-01-18 11:55:55.24	184.70	20.00	
2025-01-18 11:55:55.44	184.71	20.03	
2025-01-18 11:55:55.64	184.73	20.06	
2025-01-18 11:55:55.84	184.75	20.09	
2025-01-18 11:55:56.05	184.77	20.12	
2025-01-18 11:55:56.25	184.79	20.15	
2025-01-18 11:55:56.45	184.81	20.17	
2025-01-18 11:55:56.66	184.83	20.20	
2025-01-18 11:55:56.86	184.85	20.23	
2025-01-18 11:55:57.06	184.87	20.26	
2025-01-18 11:55:57.27	184.89	20.29	
2025-01-18 11:55:57.47	184.91	20.32	
2025-01-18 11:55:57.67	184.93	20.35	
2025-01-18 11:55:57.87	184.94	20.37	
2025-01-18 11:55:58.08	184.96	20.40	
2025-01-18 11:55:58.28	184.98	20.43	
2025-01-18 11:55:58.48	185.00	20.46	
2025-01-18 11:55:58.69	185.02	20.49	
2025-01-18 11:55:58.89	185.04	20.52	
2025-01-18 11:55:59.09	185.06	20.55	
2025-01-18 11:55:59.30	185.08	20.58	
2025-01-18 11:55:59.50	185.10	20.60	
2025-01-18 11:55:59.70	185.12	20.63	
2025-01-18 11:55:59.90	185.14	20.66	
2025-01-18 11:56:00.11	185.16	20.69	
2025-01-18 11:56:00.31	185.18	20.72	
2025-01-18 11:56:00.51	185.20	20.75	
2025-01-18 11:56:00.72	185.22	20.78	
2025-01-18 11:56:00.92	185.24	20.81	
2025-01-18 11:56:01.12	185.26	20.84	
2025-01-18 11:56:01.33	185.28	20.87	
2025-01-18 11:56:01.53	185.30	20.90	
2025-01-18 11:56:01.73	185.32	20.92	
2025-01-18 11:56:01.93	185.34	20.95	
2025-01-18 11:56:02.14	185.36	20.98	
2025-01-18 11:56:02.34	185.38	21.01	
2025-01-18 11:56:02.54	185.40	21.04	
2025-01-18 11:56:02.75	185.42	21.07	
2025-01-18 11:56:02.95	185.44	21.10	
2025-01-18 11:56:03.15	185.46	21.13	
2025-01-18 11:56:03.36	185.48	21.16	
2025-01-18 11:56:03.56	185.50	21.19	
2025-01-18 11:56:03.76	185.52	21.22	
2025-01-18 11:56:03.96	185.54	21.25	
2025-01-18 11:56:04.17	185.56	21.28	
2025-01-18 11:56:04.37	185.58	21.31	
2025-01-18 11:56:04.57	185.60	21.34	
2025-01-18 11:56:04.78	185.63	21.37	
2025-01-18 11:56:04.98	185.65	21.40	
2025-01-18 11:56:05.18	185.67	21.43	
2025-01-18 11:56:05.39	185.69	21.46	
2025-01-18 11:56:05.59	185.71	21.49	
2025-01-18 11:56:05.79	185.73	21.52	
2025-01-18 11:56:05.99	185.75	21.55	
2025-01-18 11:56:06.20	185.77	21.58	
2025-01-18 11:56:06.40	185.79	21.61	
2025-01-18 11:56:06.60	185.81	21.64	
2025-01-18 11:56:06.81	185.83	21.67	
2025-01-18 11:56:07.01	185.86	21.70	
2025-01-18 11:56:07.21	185.88	21.73	
2025-01-18 11:56:07.42	185.90	21.76	
2025-01-18 11:56:07.62	185.92	21.79	
2025-01-18 11:56:07.82	185.94	21.82	
2025-01-18 11:56:08.02	185.96	21.85	
2025-01-18 11:56:08.23	185.98	21.88	
2025-01-18 11:56:08.43	186.00	21.91	
2025-01-18 11:56:08.63	186.03	21.94	
2025-01-18 11:56:08.84	186.05	21.97	
2025-01-18 11:56:09.04	186.07	22.00	
2025-01-18 11:56:09.24	186.09	22.03	
2025-01-18 11:56:09.44	186.11	22.06	
2025-01-18 11:56:09.65	186.13	22.10	
2025-01-18 11:56:09.85	186.16	22.13	
2025-01-18 11:56:10.05	186.18	22.16	
2025-01-18 11:56:10.26	186.20	22.19	
2025-01-18 11:56:10.46	186.22	22.22	
2025-01-18 11:56:10.66	186.24	22.25	
2025-01-18 11:56:10.87	186.27	22.28	
2025-01-18 11:56:11.07	186.29	22.31	
2025-01-18 11:56:11.27	186.31	22.34	
2025-01-18 11:56:11.47	186.33	22.37	
2025-01-18 11:56:11.68	186.35	22.40	
2025-01-18 11:56:11.88	186.38	22.43	
2025-01-18 11:56:12.08	186.40	22.47	
2025-01-18 11:56:12.29	186.42	22.50	
2025-01-18 11:56:12.49	186.44	22.53	
2025-01-18 11:56:12.69	186.46	22.56	
2025-01-18 11:56:12.90	186.49	22.59	
2025-01-18 11:56:13.10	186.51	22.62	
2025-01-18 11:56:13.30	186.53	22.65	
2025-01-18 11:56:13.50	186.55	22.68	
2025-01-18 11:56:13.71	186.58	22.72	
2025-01-18 11:56:13.91	186.60	22.75	
2025-01-18 11:56:14.11	186.62	22.78	
2025-01-18 11:56:14.32	186.65	22.81	
2025-01-18 11:56:14.52	186.67	22.84	
2025-01-18 11:56:14.72	186.69	22.87	
2025-01-18 11:56:14.93	186.71	22.91	
2025-01-18 11:56:15.13	186.74	22.94	
2025-01-18 11:56:15.33	186.76	22.97	
2025-01-18 11:56:15.53	186.78	23.00	
2025-01-18 11:56:15.74	186.81	23.03	
2025-01-18 11:56:15.94	186.83	23.06	
2025-01-18 11:56:16.14	186.85	23.10	
2025-01-18 11:56:16.35	186.87	23.13	
2025-01-18 11:56:16.55	186.90	23.16	
2025-01-18 11:56:16.75	186.92	23.19	
2025-01-18 11:56:16.96	186.94	23.22	
2025-01-18 11:56:17.16	186.97	23.26	
2025-01-18 11:56:17.36	186.99	23.29	
2025-01-18 11:56:17.56	187.01	23.32	
2025-01-18 11:56:17.77	187.04	23.35	
2025-01-18 11:56:17.97	187.06	23.38	
2025-01-18 11:56:18.17	187.08	23.42	
2025-01-18 11:56:18.38	187.11	23.45	
2025-01-18 11:56:18.58	187.13	23.48	
2025-01-18 11:56:18.78	187.16	23.51	
2025-01-18 11:56:18.99	187.18	23.55	
2025-01-18 11:56:19.19	187.20	23.58	
2025-01-18 11:56:19.39	187.23	23.61	
2025-01-18 11:56:19.59	187.25	23.64	
2025-01-18 11:56:19.80	187.28	23.68	
2025-01-18 11:56:20.00	187.30	23.71	
2025-01-18 11:56:20.20	187.32	23.74	
2025-01-18 11:56:20.41	187.35	23.77	
2025-01-18 11:56:20.61	187.37	23.81	
2025-01-18 11:56:20.81	187.40	23.84	
2025-01-18 11:56:21.02	187.42	23.87	
2025-01-18 11:56:21.22	187.45	23.91	
2025-01-18 11:56:21.42	187.47	23.94	
2025-01-18 11:56:21.62	187.49	23.97	
2025-01-18 11:56:21.83	187.52	24.00	
2025-01-18 11:56:22.03	187.54	24.04	
2025-01-18 11:56:22.23	187.57	24.07	
2025-01-18 11:56:22.44	187.59	24.10	
2025-01-18 11:56:22.64	187.62	24.14	
2025-01-18 11:56:22.84	187.64	24.17	
2025-01-18 11:56:23.05	187.67	24.20	
2025-01-18 11:56:23.25	187.69	24.24	
2025-01-18 11:56:23.45	187.72	24.27	
2025-01-18 11:56:23.65	187.74	24.30	
2025-01-18 11:56:23.86	187.77	24.34	
2025-01-18 11:56:24.06	187.79	24.37	
2025-01-18 11:56:24.26	187.82	24.40	
2025-01-18 11:56:24.47	187.84	24.44	
2025-01-18 11:56:24.67	187.87	24.47	
2025-01-18 11:56:24.87	187.89	24.50	
2025-01-18 11:56:25.07	187.92	24.54	
2025-01-18 11:56:25.28	187.94	24.57	
2025-01-18 11:56:25.48	187.97	24.60	
2025-01-18 11:56:25.68	187.99	24.64	
2025-01-18 11:56:25.89	188.02	24.67	
2025-01-18 11:56:26.09	188.05	24.71	
2025-01-18 11:56:26.29	188.07	24.74	
2025-01-18 11:56:26.50	188.10	24.77	
2025-01-18 11:56:26.70	188.12	24.81	
2025-01-18 11:56:26.90	188.15	24.84	
2025-01-18 11:56:27.10	188.17	24.87	
2025-01-18 11:56:27.31	188.20	24.91	
2025-01-18 11:56:27.51	188.23	24.94	
2025-01-18 11:56:27.71	188.25	24.98	
2025-01-18 11:56:27.92	188.28	25.01	
2025-01-18 11:56:28.12	188.30	25.05	
2025-01-18 11:56:28.32	188.33	25.08	
2025-01-18 11:56:28.53	188.36	25.12	
2025-01-18 11:56:28.73	188.38	25.15	
2025-01-18 11:56:28.93	188.41	25.18	
2025-01-18 11:56:29.13	188.44	25.22	
2025-01-18 11:56:29.34	188.46	25.25	
2025-01-18 11:56:29.54	188.49	25.29	
2025-01-18 11:56:29.74	188.52	25.32	
2025-01-18 11:56:29.95	188.54	25.36	
2025-01-18 11:56:30.15	188.57	25.39	
2025-01-18 11:56:30.35	188.60	25.43	
2025-01-18 11:56:30.56	188.62	25.46	
2025-01-18 11:56:30.76	188.65	25.50	
2025-01-18 11:56:30.96	188.68	25.53	
2025-01-18 11:56:31.16	188.70	25.56	
2025-01-18 11:56:31.37	188.73	25.60	
2025-01-18 11:56:31.57	188.76	25.63	
2025-01-18 11:56:31.77	188.79	25.67	
2025-01-18 11:56:31.98	188.81	25.71	
2025-01-18 11:56:32.18	188.84	25.74	
2025-01-18 11:56:32.38	188.87	25.77	
2025-01-18 11:56:32.59	188.90	25.81	
2025-01-18 11:56:32.79	188.92	25.85	
2025-01-18 11:56:32.99	188.95	25.88	
2025-01-18 11:56:33.19	188.98	25.92	
2025-01-18 11:56:33.40	189.01	25.95	
2025-01-18 11:56:33.60	189.03	25.99	
2025-01-18 11:56:33.80	189.06	26.02	
2025-01-18 11:56:34.01	189.09	26.06	
2025-01-18 11:56:34.21	189.12	26.09	
2025-01-18 11:56:34.41	189.15	26.13	
2025-01-18 11:56:34.62	189.18	26.17	
2025-01-18 11:56:34.82	189.20	26.20	
2025-01-18 11:56:35.02	189.23	26.24	
2025-01-18 11:56:35.22	189.26	26.27	
2025-01-18 11:56:35.43	189.29	26.31	
2025-01-18 11:56:35.63	189.32	26.34	
2025-01-18 11:56:35.83	189.34	26.38	
2025-01-18 11:56:36.04	189.37	26.42	
2025-01-18 11:56:36.24	189.40	26.45	
2025-01-18 11:56:36.44	189.43	26.49	
2025-01-18 11:56:36.65	189.46	26.52	
2025-01-18 11:56:36.85	189.49	26.56	
2025-01-18 11:56:37.05	189.52	26.60	
2025-01-18 11:56:37.25	189.55	26.63	
2025-01-18 11:56:37.46	189.58	26.67	
2025-01-18 11:56:37.66	189.60	26.70	
2025-01-18 11:56:37.86	189.63	26.74	
2025-01-18 11:56:38.07	189.66	26.78	
2025-01-18 11:56:38.27	189.69	26.81	
2025-01-18 11:56:38.47	189.72	26.85	
2025-01-18 11:56:38.67	189.75	26.89	
2025-01-18 11:56:38.88	189.78	26.92	
2025-01-18 11:56:39.08	189.81	26.96	
2025-01-18 11:56:39.28	189.84	27.00	
2025-01-18 11:56:39.49	189.87	27.03	
2025-01-18 11:56:39.69	189.90	27.07	
2025-01-18 11:56:39.89	189.93	27.11	
2025-01-18 11:56:40.10	189.96	27.14	
2025-01-18 11:56:40.30	189.99	27.18	
2025-01-18 11:56:40.50	190.02	27.22	
2025-01-18 11:56:40.70	190.05	27.25	
2025-01-18 11:56:40.91	190.08	27.29	
2025-01-18 11:56:41.11	190.11	27.33	
2025-01-18 11:56:41.31	190.14	27.36	
2025-01-18 11:56:41.52	190.17	27.40	
2025-01-18 11:56:41.72	190.20	27.44	
2025-01-18 11:56:41.92	190.23	27.48	
2025-01-18 11:56:42.13	190.26	27.51	
2025-01-18 11:56:42.33	190.29	27.55	
2025-01-18 11:56:42.53	190.32	27.59	
2025-01-18 11:56:42.73	190.35	27.63	
2025-01-18 11:56:42.94	190.39	27.66	
2025-01-18 11:56:43.14	190.42	27.70	
2025-01-18 11:56:43.34	190.45	27.74	
2025-01-18 11:56:43.55	190.48	27.78	
2025-01-18 11:56:43.75	190.51	27.81	
2025-01-18 11:56:43.95	190.54	27.85	
2025-01-18 11:56:44.16	190.57	27.89	
2025-01-18 11:56:44.36	190.60	27.93	
2025-01-18 11:56:44.56	190.64	27.96	
2025-01-18 11:56:44.76	190.67	28.00	
2025-01-18 11:56:44.97	190.70	28.04	
2025-01-18 11:56:45.17	190.73	28.08	
2025-01-18 11:56:45.37	190.76	28.12	
2025-01-18 11:56:45.58	190.79	28.16	
2025-01-18 11:56:45.78	190.83	28.19	
2025-01-18 11:56:45.98	190.86	28.23	
2025-01-18 11:56:46.19	190.89	28.27	
2025-01-18 11:56:46.39	190.92	28.31	
2025-01-18 11:56:46.59	190.95	28.35	
2025-01-18 11:56:46.79	190.99	28.38	
2025-01-18 11:56:47.00	191.02	28.42	
2025-01-18 11:56:47.20	191.05	28.46	
2025-01-18 11:56:47.40	191.08	28.50	
2025-01-18 11:56:47.61	191.12	28.54	
2025-01-18 11:56:47.81	191.15	28.58	
2025-01-18 11:56:48.01	191.18	28.62	
2025-01-18 11:56:48.22	191.22	28.66	
2025-01-18 11:56:48.42	191.25	28.69	
2025-01-18 11:56:48.62	191.28	28.73	
2025-01-18 11:56:48.82	191.31	28.77	
2025-01-18 11:56:49.03	191.35	28.81	
2025-01-18 11:56:49.23	191.38	28.85	
2025-01-18 11:56:49.43	191.41	28.89	
2025-01-18 11:56:49.64	191.45	28.93	
2025-01-18 11:56:49.84	191.48	28.97	
2025-01-18 11:56:50.04	191.52	29.00	
2025-01-18 11:56:50.25	191.55	29.05	
2025-01-18 11:56:50.45	191.58	29.08	
2025-01-18 11:56:50.65	191.62	29.12	
2025-01-18 11:56:50.85	191.65	29.16	
2025-01-18 11:56:51.06	191.69	29.20	
2025-01-18 11:56:51.26	191.72	29.24	
2025-01-18 11:56:51.46	191.75	29.28	
2025-01-18 11:56:51.67	191.79	29.32	
2025-01-18 11:56:51.87	191.82	29.36	
2025-01-18 11:56:52.07	191.86	29.40	
2025-01-18 11:56:52.28	191.89	29.44	
2025-01-18 11:56:52.48	191.93	29.48	
2025-01-18 11:56:52.68	191.96	29.52	
2025-01-18 11:56:52.88	192.00	29.56	
2025-01-18 11:56:53.09	192.03	29.60	
2025-01-18 11:56:53.29	192.07	29.64	
2025-01-18 11:56:53.49	192.10	29.68	
2025-01-18 11:56:53.70	192.14	29.72	
2025-01-18 11:56:53.90	192.17	29.76	
2025-01-18 11:56:54.10	192.21	29.80	
2025-01-18 11:56:54.30	192.24	29.84	
2025-01-18 11:56:54.51	192.28	29.88	
2025-01-18 11:56:54.71	192.31	29.92	
2025-01-18 11:56:54.91	192.35	29.96	
2025-01-18 11:56:55.12	192.39	30.00	
2025-01-18 11:56:55.32	192.42	30.04	
2025-01-18 11:56:55.52	192.46	30.08	
2025-01-18 11:56:55.73	192.49	30.12	
2025-01-18 11:56:55.93	192.53	30.16	
2025-01-18 11:56:56.13	192.57	30.20	
2025-01-18 11:56:56.33	192.60	30.24	
2025-01-18 11:56:56.54	192.64	30.28	
2025-01-18 11:56:56.74	192.67	30.32	
2025-01-18 11:56:56.94	192.71	30.36	
2025-01-18 11:56:57.15	192.75	30.41	
2025-01-18 11:56:57.35	192.78	30.45	
2025-01-18 11:56:57.55	192.82	30.49	
2025-01-18 11:56:57.76	192.86	30.53	
2025-01-18 11:56:57.96	192.90	30.57	
2025-01-18 11:56:58.16	192.93	30.61	
2025-01-18 11:56:58.36	192.97	30.65	
2025-01-18 11:56:58.57	193.01	30.69	
2025-01-18 11:56:58.77	193.05	30.73	
2025-01-18 11:56:58.97	193.08	30.77	
2025-01-18 11:56:59.18	193.12	30.82	
2025-01-18 11:56:59.38	193.16	30.86	
2025-01-18 11:56:59.58	193.20	30.90	
2025-01-18 11:56:59.79	193.23	30.94	
2025-01-18 11:56:59.99	193.27	30.98	
2025-01-18 11:57:00.19	193.31	31.02	
2025-01-18 11:57:00.39	193.35	31.06	
2025-01-18 11:57:00.60	193.39	31.11	
2025-01-18 11:57:00.80	193.43	31.15	
2025-01-18 11:57:01.00	193.46	31.19	
2025-01-18 11:57:01.21	193.50	31.23	
2025-01-18 11:57:01.41	193.54	31.27	
2025-01-18 11:57:01.61	193.58	31.32	
2025-01-18 11:57:01.82	193.62	31.36	
2025-01-18 11:57:02.02	193.66	31.40	
2025-01-18 11:57:02.22	193.70	31.44	
2025-01-18 11:57:02.42	193.74	31.48	
2025-01-18 11:57:02.63	193.78	31.53	
2025-01-18 11:57:02.83	193.82	31.57	
2025-01-18 11:57:03.03	193.85	31.61	
2025-01-18 11:57:03.24	193.90	31.65	
2025-01-18 11:57:03.44	193.93	31.70	
2025-01-18 11:57:03.64	193.97	31.74	
2025-01-18 11:57:03.85	194.02	31.78	
2025-01-18 11:57:04.05	194.06	31.82	
2025-01-18 11:57:04.25	194.09	31.87	
2025-01-18 11:57:04.45	194.13	31.91	
2025-01-18 11:57:04.66	194.18	31.95	
2025-01-18 11:57:04.86	194.22	31.99	
2025-01-18 11:57:05.06	194.26	32.04	
2025-01-18 11:57:05.27	194.30	32.08	
2025-01-18 11:57:05.47	194.34	32.12	
2025-01-18 11:57:05.67	194.38	32.17	
2025-01-18 11:57:05.88	194.42	32.21	
2025-01-18 11:57:06.08	194.46	32.25	
2025-01-18 11:57:06.28	194.50	32.30	
2025-01-18 11:57:06.48	194.54	32.34	
2025-01-18 11:57:06.69	194.59	32.38	
2025-01-18 11:57:06.89	194.63	32.42	
2025-01-18 11:57:07.09	194.67	32.47	
2025-01-18 11:57:07.30	194.71	32.51	
2025-01-18 11:57:07.50	194.75	32.56	
2025-01-18 11:57:07.70	194.79	32.60	
2025-01-18 11:57:07.92	194.84	32.65	
2025-01-18 11:57:08.12	194.88	32.69	
2025-01-18 11:57:08.33	194.93	32.73	
2025-01-18 11:57:08.53	194.97	32.78	
2025-01-18 11:57:08.73	195.01	32.82	
2025-01-18 11:57:08.94	195.05	32.86	
2025-01-18 11:57:09.14	195.10	32.91	
2025-01-18 11:57:09.34	195.14	32.95	
2025-01-18 11:57:09.54	195.18	32.99	
2025-01-18 11:57:09.75	195.23	33.04	
2025-01-18 11:57:09.95	195.27	33.08	
2025-01-18 11:57:10.15	195.31	33.13	
2025-01-18 11:57:10.36	195.36	33.17	
2025-01-18 11:57:10.56	195.40	33.22	
2025-01-18 11:57:10.76	195.44	33.26	
2025-01-18 11:57:10.97	195.49	33.31	
2025-01-18 11:57:11.17	195.53	33.35	
2025-01-18 11:57:11.37	195.58	33.39	
2025-01-18 11:57:11.57	195.62	33.44	
2025-01-18 11:57:11.78	195.67	33.48	
2025-01-18 11:57:11.98	195.71	33.53	
2025-01-18 11:57:12.18	195.75	33.57	
2025-01-18 11:57:12.39	195.80	33.62	
2025-01-18 11:57:12.59	195.84	33.66	
2025-01-18 11:57:12.79	195.89	33.70	
2025-01-18 11:57:13.00	195.93	33.75	
2025-01-18 11:57:13.20	195.98	33.80	
2025-01-18 11:57:13.40	196.02	33.84	
2025-01-18 11:57:13.60	196.07	33.88	
2025-01-18 11:57:13.81	196.12	33.93	
2025-01-18 11:57:14.01	196.16	33.97	
2025-01-18 11:57:14.21	196.21	34.02	
2025-01-18 11:57:14.42	196.25	34.07	
2025-01-18 11:57:14.62	196.30	34.11	
2025-01-18 11:57:14.82	196.35	34.15	
2025-01-18 11:57:15.03	196.39	34.20	
2025-01-18 11:57:15.23	196.44	34.25	
2025-01-18 11:57:15.43	196.49	34.29	
2025-01-18 11:57:15.63	196.53	34.34	
2025-01-18 11:57:15.84	196.58	34.38	
2025-01-18 11:57:16.04	196.63	34.43	
2025-01-18 11:57:16.24	196.67	34.47	
2025-01-18 11:57:16.45	196.72	34.52	
2025-01-18 11:57:16.65	196.77	34.56	
2025-01-18 11:57:16.85	196.82	34.61	
2025-01-18 11:57:17.06	196.87	34.66	
2025-01-18 11:57:17.26	196.91	34.70	
2025-01-18 11:57:17.46	196.96	34.75	
2025-01-18 11:57:17.66	197.01	34.79	
2025-01-18 11:57:17.87	197.06	34.84	
2025-01-18 11:57:18.07	197.11	34.89	
2025-01-18 11:57:18.27	197.15	34.93	
2025-01-18 11:57:18.48	197.20	34.98	
2025-01-18 11:57:18.68	197.25	35.02	
2025-01-18 11:57:18.88	197.30	35.07	
2025-01-18 11:57:19.08	197.35	35.12	
2025-01-18 11:57:19.29	197.40	35.16	
2025-01-18 11:57:19.49	197.45	35.21	
2025-01-18 11:57:19.69	197.50	35.26	
2025-01-18 11:57:19.90	197.55	35.30	
2025-01-18 11:57:20.10	197.60	35.35	
2025-01-18 11:57:20.30	197.65	35.40	
2025-01-18 11:57:20.51	197.70	35.44	
2025-01-18 11:57:20.71	197.75	35.49	
2025-01-18 11:57:20.91	197.80	35.54	
2025-01-18 11:57:21.11	197.85	35.58	
2025-01-18 11:57:21.32	197.90	35.63	
2025-01-18 11:57:21.52	197.95	35.68	
2025-01-18 11:57:21.72	198.00	35.72	
2025-01-18 11:57:21.93	198.05	35.77	
2025-01-18 11:57:22.13	198.10	35.82	
2025-01-18 11:57:22.33	198.15	35.86	
2025-01-18 11:57:22.54	198.21	35.91	
2025-01-18 11:57:22.74	198.26	35.96	
2025-01-18 11:57:22.94	198.31	36.01	
2025-01-18 11:57:23.14	198.36	36.05	
2025-01-18 11:57:23.35	198.42	36.10	
2025-01-18 11:57:23.55	198.47	36.15	
2025-01-18 11:57:23.75	198.52	36.19	
2025-01-18 11:57:23.96	198.57	36.24	
2025-01-18 11:57:24.16	198.63	36.29	
2025-01-18 11:57:24.36	198.68	36.34	
2025-01-18 11:57:24.57	198.73	36.39	
2025-01-18 11:57:24.77	198.79	36.43	
2025-01-18 11:57:24.97	198.84	36.48	
2025-01-18 11:57:25.17	198.89	36.53	
2025-01-18 11:57:25.38	198.95	36.58	
2025-01-18 11:57:25.58	199.00	36.62	
2025-01-18 11:57:25.78	199.05	36.67	
2025-01-18 11:57:25.99	199.11	36.72	
2025-01-18 11:57:26.19	199.16	36.77	
2025-01-18 11:57:26.39	199.22	36.82	
2025-01-18 11:57:26.60	199.27	36.86	
2025-01-18 11:57:26.80	199.33	36.91	
2025-01-18 11:57:27.00	199.38	36.96	
2025-01-18 11:57:27.20	199.44	37.01	
2025-01-18 11:57:27.41	199.49	37.06	
2025-01-18 11:57:27.61	199.55	37.10	
2025-01-18 11:57:27.81	199.60	37.15	
2025-01-18 11:57:28.02	199.66	37.20	
2025-01-18 11:57:28.22	199.72	37.25	
2025-01-18 11:57:28.42	199.77	37.30	
2025-01-18 11:57:28.63	199.83	37.35	
2025-01-18 11:57:28.83	199.89	37.40	
2025-01-18 11:57:29.03	199.94	37.44	
2025-01-18 11:57:29.23	200.00	37.49	
2025-01-18 11:57:29.44	200.06	37.54	
2025-01-18 11:57:29.64	200.11	37.59	
2025-01-18 11:57:29.84	200.17	37.64	
2025-01-18 11:57:30.05	200.23	37.69	
2025-01-18 11:57:30.25	200.29	37.74	
2025-01-18 11:57:30.45	200.34	37.79	
2025-01-18 11:57:30.66	200.40	37.84	
2025-01-18 11:57:30.86	200.46	37.88	
2025-01-18 11:57:31.06	200.52	37.93	
2025-01-18 11:57:31.26	200.58	37.98	
2025-01-18 11:57:31.47	200.64	38.03	
2025-01-18 11:57:31.67	200.69	38.08	
2025-01-18 11:57:31.87	200.75	38.13	
2025-01-18 11:57:32.08	200.81	38.18	
2025-01-18 11:57:32.28	200.87	38.23	
2025-01-18 11:57:32.48	200.93	38.28	
2025-01-18 11:57:32.68	200.99	38.33	
2025-01-18 11:57:32.89	201.05	38.38	
2025-01-18 11:57:33.09	201.11	38.43	
2025-01-18 11:57:33.29	201.17	38.47	
2025-01-18 11:57:33.50	201.23	38.53	
2025-01-18 11:57:33.70	201.29	38.57	
2025-01-18 11:57:33.90	201.35	38.62	
2025-01-18 11:57:34.11	201.42	38.67	
2025-01-18 11:57:34.31	201.48	38.72	
2025-01-18 11:57:34.51	201.54	38.77	
2025-01-18 11:57:34.71	201.60	38.82	
2025-01-18 11:57:34.92	201.66	38.87	
2025-01-18 11:57:35.12	201.72	38.92	
2025-01-18 11:57:35.32	201.79	38.97	
2025-01-18 11:57:35.53	201.85	39.02	
2025-01-18 11:57:35.73	201.91	39.07	
2025-01-18 11:57:35.93	201.97	39.12	
2025-01-18 11:57:36.14	202.04	39.17	
2025-01-18 11:57:36.34	202.10	39.22	
2025-01-18 11:57:36.54	202.16	39.27	
2025-01-18 11:57:36.74	202.23	39.32	
2025-01-18 11:57:36.95	202.29	39.37	
2025-01-18 11:57:37.15	202.36	39.42	
2025-01-18 11:57:37.35	202.42	39.47	
2025-01-18 11:57:37.56	202.49	39.53	
2025-01-18 11:57:37.76	202.55	39.58	
2025-01-18 11:57:37.96	202.61	39.62	
2025-01-18 11:57:38.17	202.68	39.68	
2025-01-18 11:57:38.37	202.75	39.73	
2025-01-18 11:57:38.57	202.81	39.78	
2025-01-18 11:57:38.77	202.88	39.83	
2025-01-18 11:57:38.98	202.94	39.88	
2025-01-18 11:57:39.18	203.01	39.93	
2025-01-18 11:57:39.38	203.07	39.98	
2025-01-18 11:57:39.59	203.14	40.03	
2025-01-18 11:57:39.79	203.21	40.08	
2025-01-18 11:57:39.99	203.27	40.13	
2025-01-18 11:57:40.20	203.34	40.18	
2025-01-18 11:57:40.40	203.41	40.23	
2025-01-18 11:57:40.60	203.48	40.28	
2025-01-18 11:57:40.80	203.54	40.33	
2025-01-18 11:57:41.01	203.61	40.39	
2025-01-18 11:57:41.21	203.68	40.44	
2025-01-18 11:57:41.41	203.75	40.49	
2025-01-18 11:57:41.62	203.82	40.54	
2025-01-18 11:57:41.82	203.89	40.59	
2025-01-18 11:57:42.02	203.96	40.64	
2025-01-18 11:57:42.23	204.03	40.69	
2025-01-18 11:57:42.43	204.10	40.74	
2025-01-18 11:57:42.63	204.16	40.79	
2025-01-18 11:57:42.83	204.23	40.85	
2025-01-18 11:57:43.04	204.31	40.90	
2025-01-18 11:57:43.24	204.38	40.95	
2025-01-18 11:57:43.44	204.45	41.00	
2025-01-18 11:57:43.65	204.52	41.05	
2025-01-18 11:57:43.85	204.59	41.10	
2025-01-18 11:57:44.05	204.66	41.15	
2025-01-18 11:57:44.26	204.73	41.21	
2025-01-18 11:57:44.46	204.80	41.26	
2025-01-18 11:57:44.66	204.87	41.31	
2025-01-18 11:57:44.86	204.95	41.36	
2025-01-18 11:57:45.07	205.02	41.41	
2025-01-18 11:57:45.27	205.09	41.46	
2025-01-18 11:57:45.47	205.16	41.51	
2025-01-18 11:57:45.68	205.24	41.57	
2025-01-18 11:57:45.88	205.31	41.62	
2025-01-18 11:57:46.08	205.39	41.67	
2025-01-18 11:57:46.29	205.46	41.72	
2025-01-18 11:57:46.49	205.53	41.77	
2025-01-18 11:57:46.69	205.61	41.83	
2025-01-18 11:57:46.89	205.68	41.88	
2025-01-18 11:57:47.10	205.76	41.93	
2025-01-18 11:57:47.30	205.83	41.98	
2025-01-18 11:57:47.50	205.91	42.03	
2025-01-18 11:57:47.71	205.99	42.09	
2025-01-18 11:57:47.91	206.06	42.14	
2025-01-18 11:57:48.11	206.13	42.19	
2025-01-18 11:57:48.31	206.21	42.24	
2025-01-18 11:57:48.52	206.29	42.29	
2025-01-18 11:57:48.72	206.36	42.34	
2025-01-18 11:57:48.92	206.44	42.40	
2025-01-18 11:57:49.13	206.52	42.45	
2025-01-18 11:57:49.33	206.60	42.50	
2025-01-18 11:57:49.53	206.67	42.55	
2025-01-18 11:57:49.74	206.75	42.61	
2025-01-18 11:57:49.94	206.83	42.66	
2025-01-18 11:57:50.14	206.91	42.71	
2025-01-18 11:57:50.34	206.99	42.76	
2025-01-18 11:57:50.55	207.07	42.81	
2025-01-18 11:57:50.75	207.15	42.87	
2025-01-18 11:57:50.95	207.23	42.92	
2025-01-18 11:57:51.16	207.31	42.97	
2025-01-18 11:57:51.36	207.39	43.02	
2025-01-18 11:57:51.56	207.47	43.07	
2025-01-18 11:57:51.77	207.55	43.13	
2025-01-18 11:57:51.97	207.63	43.18	
2025-01-18 11:57:52.17	207.71	43.23	
2025-01-18 11:57:52.37	207.79	43.28	
2025-01-18 11:57:52.58	207.87	43.34	
2025-01-18 11:57:52.78	207.95	43.39	
2025-01-18 11:57:52.98	208.04	43.44	
2025-01-18 11:57:53.19	208.12	43.49	
2025-01-18 11:57:53.39	208.20	43.55	
2025-01-18 11:57:53.59	208.28	43.60	
2025-01-18 11:57:53.80	208.37	43.65	
2025-01-18 11:57:54.00	208.45	43.70	
2025-01-18 11:57:54.20	208.54	43.75	
2025-01-18 11:57:54.40	208.62	43.81	
2025-01-18 11:57:54.61	208.71	43.86	
2025-01-18 11:57:54.81	208.79	43.91	
2025-01-18 11:57:55.01	208.87	43.96	
2025-01-18 11:57:55.22	208.96	44.02	
2025-01-18 11:57:55.42	209.05	44.07	
2025-01-18 11:57:55.62	209.13	44.12	
2025-01-18 11:57:55.83	209.22	44.18	
2025-01-18 11:57:56.03	209.30	44.23	
2025-01-18 11:57:56.23	209.39	44.28	
2025-01-18 11:57:56.43	209.48	44.33	
2025-01-18 11:57:56.64	209.57	44.39	
2025-01-18 11:57:56.84	209.65	44.44	
2025-01-18 11:57:57.04	209.74	44.49	
2025-01-18 11:57:57.25	209.83	44.54	
2025-01-18 11:57:57.45	209.92	44.59	
2025-01-18 11:57:57.65	210.00	44.65	
2025-01-18 11:57:57.86	210.10	44.70	
2025-01-18 11:57:58.06	210.18	44.75	
2025-01-18 11:57:58.26	210.27	44.80	
2025-01-18 11:57:58.46	210.36	44.86	
2025-01-18 11:57:58.67	210.45	44.91	
2025-01-18 11:57:58.87	210.54	44.96	
2025-01-18 11:57:59.07	210.63	45.01	
2025-01-18 11:57:59.28	210.73	45.07	
2025-01-18 11:57:59.48	210.82	45.12	
2025-01-18 11:57:59.68	210.91	45.17	
2025-01-18 11:57:59.89	211.00	45.23	
2025-01-18 11:58:00.09	211.09	45.28	
2025-01-18 11:58:00.29	211.18	45.33	
2025-01-18 11:58:00.49	211.28	45.38	
2025-01-18 11:58:00.70	211.37	45.43	
2025-01-18 11:58:00.90	211.46	45.49	
2025-01-18 11:58:01.10	211.56	45.54	
2025-01-18 11:58:01.31	211.65	45.59	
2025-01-18 11:58:01.51	211.75	45.64	
2025-01-18 11:58:01.71	211.84	45.70	
2025-01-18 11:58:01.91	211.93	45.75	
2025-01-18 11:58:02.12	212.03	45.80	
2025-01-18 11:58:02.32	212.13	45.85	
2025-01-18 11:58:02.52	212.22	45.90	
2025-01-18 11:58:02.73	212.32	45.96	
2025-01-18 11:58:02.93	212.42	46.01	
2025-01-18 11:58:03.13	212.51	46.06	
2025-01-18 11:58:03.34	212.61	46.12	
2025-01-18 11:58:03.54	212.71	46.17	
2025-01-18 11:58:03.74	212.81	46.22	
2025-01-18 11:58:03.94	212.90	46.27	
2025-01-18 11:58:04.15	213.01	46.32	
2025-01-18 11:58:04.35	213.10	46.37	
2025-01-18 11:58:04.55	213.20	46.43	
2025-01-18 11:58:04.76	213.30	46.48	
2025-01-18 11:58:04.96	213.40	46.53	
2025-01-18 11:58:05.16	213.50	46.58	
2025-01-18 11:58:05.37	213.61	46.64	
2025-01-18 11:58:05.57	213.70	46.69	
2025-01-18 11:58:05.77	213.80	46.74	
2025-01-18 11:58:05.97	213.90	46.79	
2025-01-18 11:58:06.18	214.01	46.84	
2025-01-18 11:58:06.38	214.11	46.89	
2025-01-18 11:58:06.58	214.21	46.95	
2025-01-18 11:58:06.79	214.32	47.00	
2025-01-18 11:58:06.99	214.42	47.05	
2025-01-18 11:58:07.19	214.52	47.10	
2025-01-18 11:58:07.40	214.63	47.16	
2025-01-18 11:58:07.60	214.73	47.21	
2025-01-18 11:58:07.80	214.84	47.26	
2025-01-18 11:58:08.00	214.94	47.31	
2025-01-18 11:58:08.21	215.05	47.36	
2025-01-18 11:58:08.41	215.15	47.41	
2025-01-18 11:58:08.61	215.26	47.46	
2025-01-18 11:58:08.82	215.37	47.52	
2025-01-18 11:58:09.02	215.47	47.57	
2025-01-18 11:58:09.22	215.58	47.62	
2025-01-18 11:58:09.43	215.69	47.67	
2025-01-18 11:58:09.63	215.80	47.72	
2025-01-18 11:58:09.83	215.90	47.77	
2025-01-18 11:58:10.03	216.01	47.82	
2025-01-18 11:58:10.24	216.12	47.87	
2025-01-18 11:58:10.44	216.23	47.92	
2025-01-18 11:58:10.64	216.34	47.98	
2025-01-18 11:58:10.85	216.45	48.03	
2025-01-18 11:58:11.05	216.56	48.08	
2025-01-18 11:58:11.25	216.67	48.13	
2025-01-18 11:58:11.46	216.79	48.18	
2025-01-18 11:58:11.66	216.89	48.23	
2025-01-18 11:58:11.86	217.01	48.28	
2025-01-18 11:58:12.06	217.12	48.33	
2025-01-18 11:58:12.27	217.23	48.38	
2025-01-18 11:58:12.47	217.34	48.43	
2025-01-18 11:58:12.67	217.46	48.48	
2025-01-18 11:58:12.88	217.57	48.54	
2025-01-18 11:58:13.08	217.69	48.59	
2025-01-18 11:58:13.28	217.80	48.63	
2025-01-18 11:58:13.49	217.92	48.69	
2025-01-18 11:58:13.69	218.03	48.74	
2025-01-18 11:58:13.89	218.14	48.79	
2025-01-18 11:58:14.09	218.26	48.84	
2025-01-18 11:58:14.30	218.38	48.89	
2025-01-18 11:58:14.50	218.49	48.94	
2025-01-18 11:58:14.70	218.61	48.99	
2025-01-18 11:58:14.91	218.73	49.04	
2025-01-18 11:58:15.11	218.85	49.09	
2025-01-18 11:58:15.31	218.96	49.14	
2025-01-18 11:58:15.52	219.09	49.19	
2025-01-18 11:58:15.72	219.20	49.24	
2025-01-18 11:58:15.92	219.32	49.28	
2025-01-18 11:58:16.12	219.44	49.33	
2025-01-18 11:58:16.33	219.56	49.38	
2025-01-18 11:58:16.53	219.68	49.43	
2025-01-18 11:58:16.73	219.80	49.48	
2025-01-18 11:58:16.94	219.93	49.53	
2025-01-18 11:58:17.14	220.05	49.58	
2025-01-18 11:58:17.34	220.17	49.63	
2025-01-18 11:58:17.54	220.29	49.68	
2025-01-18 11:58:17.75	220.42	49.73	
2025-01-18 11:58:17.95	220.54	49.78	
2025-01-18 11:58:18.15	220.66	49.82	
2025-01-18 11:58:18.36	220.79	49.87	
2025-01-18 11:58:18.56	220.91	49.92	
2025-01-18 11:58:18.76	221.03	49.97	
2025-01-18 11:58:18.97	221.16	50.02	
2025-01-18 11:58:19.17	221.29	50.07	
2025-01-18 11:58:19.37	221.41	50.11	
2025-01-18 11:58:19.57	221.54	50.16	
2025-01-18 11:58:19.78	221.67	50.21	
2025-01-18 11:58:19.98	221.79	50.26	
2025-01-18 11:58:20.18	221.92	50.31	
2025-01-18 11:58:20.39	222.05	50.35	
2025-01-18 11:58:20.59	222.18	50.40	
2025-01-18 11:58:20.79	222.30	50.45	
2025-01-18 11:58:21.00	222.44	50.50	
2025-01-18 11:58:21.20	222.57	50.54	
2025-01-18 11:58:21.40	222.69	50.59	
2025-01-18 11:58:21.60	222.82	50.64	
2025-01-18 11:58:21.81	222.96	50.69	
2025-01-18 11:58:22.01	223.09	50.73	
2025-01-18 11:58:22.21	223.22	50.78	
2025-01-18 11:58:22.42	223.35	50.83	
2025-01-18 11:58:22.62	223.48	50.87	
2025-01-18 11:58:22.82	223.62	50.92	
2025-01-18 11:58:23.03	223.75	50.97	
2025-01-18 11:58:23.23	223.89	51.01	
2025-01-18 11:58:23.43	224.02	51.06	
2025-01-18 11:58:23.63	224.15	51.10	
2025-01-18 11:58:23.84	224.29	51.15	
2025-01-18 11:58:24.04	224.42	51.19	
2025-01-18 11:58:24.24	224.56	51.24	
2025-01-18 11:58:24.45	224.70	51.29	
2025-01-18 11:58:24.65	224.83	51.33	
2025-01-18 11:58:24.85	224.97	51.38	
2025-01-18 11:58:25.06	225.11	51.42	
2025-01-18 11:58:25.26	225.25	51.47	
2025-01-18 11:58:25.46	225.38	51.51	
2025-01-18 11:58:25.66	225.52	51.55	
2025-01-18 11:58:25.87	225.66	51.60	
2025-01-18 11:58:26.07	225.80	51.64	
2025-01-18 11:58:26.27	225.94	51.69	
2025-01-18 11:58:26.48	226.08	51.73	
2025-01-18 11:58:26.68	226.22	51.78	
2025-01-18 11:58:26.88	226.36	51.82	
2025-01-18 11:58:27.09	226.51	51.87	
2025-01-18 11:58:27.29	226.65	51.91	
2025-01-18 11:58:27.49	226.79	51.95	
2025-01-18 11:58:27.69	226.93	52.00	
2025-01-18 11:58:27.90	227.08	52.04	
2025-01-18 11:58:28.10	227.22	52.08	
2025-01-18 11:58:28.30	227.36	52.12	
2025-01-18 11:58:28.51	227.51	52.17	
2025-01-18 11:58:28.71	227.66	52.21	
2025-01-18 11:58:28.91	227.80	52.25	
2025-01-18 11:58:29.12	227.95	52.30	
2025-01-18 11:58:29.32	228.09	52.34	
2025-01-18 11:58:29.52	228.24	52.38	
2025-01-18 11:58:29.72	228.38	52.42	
2025-01-18 11:58:29.93	228.54	52.46	
2025-01-18 11:58:30.13	228.68	52.51	
2025-01-18 11:58:30.33	228.83	52.55	
2025-01-18 11:58:30.54	228.98	52.59	
2025-01-18 11:58:30.74	229.13	52.63	
2025-01-18 11:58:30.94	229.28	52.67	
2025-01-18 11:58:31.15	229.43	52.71	
2025-01-18 11:58:31.35	229.58	52.75	
2025-01-18 11:58:31.55	229.73	52.79	
2025-01-18 11:58:31.75	229.88	52.83	
2025-01-18 11:58:31.96	230.04	52.87	
2025-01-18 11:58:32.16	230.19	52.91	
2025-01-18 11:58:32.36	230.34	52.95	
2025-01-18 11:58:32.57	230.49	52.99	
2025-01-18 11:58:32.77	230.65	53.03	
2025-01-18 11:58:32.97	230.80	53.07	
2025-01-18 11:58:33.17	230.95	53.11	
2025-01-18 11:58:33.38	231.11	53.15	
2025-01-18 11:58:33.58	231.26	53.19	
2025-01-18 11:58:33.78	231.42	53.23	
2025-01-18 11:58:33.99	231.58	53.27	
2025-01-18 11:58:34.19	231.73	53.30	
2025-01-18 11:58:34.39	231.88	53.34	
2025-01-18 11:58:34.60	232.05	53.38	
2025-01-18 11:58:34.80	232.20	53.42	
2025-01-18 11:58:35.00	232.36	53.46	
2025-01-18 11:58:35.20	232.51	53.49	
2025-01-18 11:58:35.41	232.68	53.53	
2025-01-18 11:58:35.61	232.84	53.57	
2025-01-18 11:58:35.81	232.99	53.60	
2025-01-18 11:58:36.02	233.16	53.64	
2025-01-18 11:58:36.22	233.32	53.68	
2025-01-18 11:58:36.42	233.47	53.71	
2025-01-18 11:58:36.63	233.64	53.75	
2025-01-18 11:58:36.83	233.80	53.79	
2025-01-18 11:58:37.03	233.96	53.82	
2025-01-18 11:58:37.23	234.12	53.86	
2025-01-18 11:58:37.44	234.29	53.89	
2025-01-18 11:58:37.64	234.45	53.93	
2025-01-18 11:58:37.84	234.61	53.96	
2025-01-18 11:58:38.05	234.78	54.00	
2025-01-18 11:58:38.25	234.94	54.03	
2025-01-18 11:58:38.45	235.10	54.06	
2025-01-18 11:58:38.66	235.28	54.10	
2025-01-18 11:58:38.86	235.44	54.13	
2025-01-18 11:58:39.06	235.60	54.17	
2025-01-18 11:58:39.26	235.77	54.20	
2025-01-18 11:58:39.47	235.94	54.23	
2025-01-18 11:58:39.67	236.10	54.26	
2025-01-18 11:58:39.87	236.27	54.30	
2025-01-18 11:58:40.08	236.44	54.33	
2025-01-18 11:58:40.28	236.61	54.36	
2025-01-18 11:58:40.48	236.77	54.39	
2025-01-18 11:58:40.69	236.95	54.43	
2025-01-18 11:58:40.89	237.12	54.46	
2025-01-18 11:58:41.09	237.28	54.49	
2025-01-18 11:58:41.29	237.45	54.52	
2025-01-18 11:58:41.50	237.63	54.55	
2025-01-18 11:58:41.70	237.79	54.58	
2025-01-18 11:58:41.90	237.96	54.61	
2025-01-18 11:58:42.11	238.14	54.64	
2025-01-18 11:58:42.31	238.31	54.67	
