passes_logs/2025/01/18/SPB_Silybum_02/SPB_Silybum_02__20250118_225749_SUOMI_NPP_rec.log

#Pass ID: 20250118_225749_SUOMI NPP
#Satellite: SUOMI NPP
#Configuration: NPP
#Start time: 2025-01-18 22:57:48

#Version: 2.0.20230423
#Station: SPB_Silybum_02
#Location: 30.233357 lon 59.946436 lat
#TLE: 1 37849U 11061A   25018.16218063  .00000203  00000+0  11733-3 0  9995
#TLE: 2 37849  98.7450 319.1107 0001555  36.1075 324.0206 14.19539838685362

#Time	Az	El	Level	Level2	SNR	BER	Gain	Gain2
2025-01-18 22:57:50.88	24.05	4.08	
2025-01-18 22:57:51.08	24.06	4.09	
2025-01-18 22:57:51.28	24.07	4.10	
2025-01-18 22:57:51.49	24.09	4.12	
2025-01-18 22:57:51.69	24.10	4.13	
2025-01-18 22:57:51.89	24.11	4.14	
2025-01-18 22:57:52.10	24.13	4.15	
2025-01-18 22:57:52.30	24.14	4.17	
2025-01-18 22:57:52.50	24.15	4.18	
2025-01-18 22:57:52.70	24.17	4.19	
2025-01-18 22:57:52.91	24.18	4.20	
2025-01-18 22:57:53.11	24.19	4.22	
2025-01-18 22:57:53.31	24.21	4.23	
2025-01-18 22:57:53.52	24.22	4.24	
2025-01-18 22:57:53.72	24.24	4.25	
2025-01-18 22:57:53.92	24.25	4.27	
2025-01-18 22:57:54.13	24.26	4.28	
2025-01-18 22:57:54.33	24.28	4.29	
2025-01-18 22:57:54.53	24.29	4.30	
2025-01-18 22:57:54.74	24.30	4.32	
2025-01-18 22:57:54.94	24.32	4.33	
2025-01-18 22:57:55.14	24.33	4.34	
2025-01-18 22:57:55.34	24.34	4.35	
2025-01-18 22:57:55.55	24.36	4.37	
2025-01-18 22:57:55.75	24.37	4.38	
2025-01-18 22:57:55.95	24.38	4.39	
2025-01-18 22:57:56.16	24.40	4.41	
2025-01-18 22:57:56.36	24.41	4.42	
2025-01-18 22:57:56.56	24.43	4.43	
2025-01-18 22:57:56.77	24.44	4.44	
2025-01-18 22:57:56.97	24.45	4.46	
2025-01-18 22:57:57.17	24.47	4.47	
2025-01-18 22:57:57.38	24.48	4.48	
2025-01-18 22:57:57.58	24.49	4.49	
2025-01-18 22:57:57.78	24.51	4.51	
2025-01-18 22:57:57.98	24.52	4.52	
2025-01-18 22:57:58.19	24.54	4.53	
2025-01-18 22:57:58.39	24.55	4.54	
2025-01-18 22:57:58.59	24.56	4.56	
2025-01-18 22:57:58.80	24.58	4.57	
2025-01-18 22:57:59.00	24.59	4.58	
2025-01-18 22:57:59.20	24.60	4.59	
2025-01-18 22:57:59.41	24.62	4.61	
2025-01-18 22:57:59.61	24.63	4.62	
2025-01-18 22:57:59.81	24.65	4.63	
2025-01-18 22:58:00.02	24.66	4.64	
2025-01-18 22:58:00.22	24.67	4.66	
2025-01-18 22:58:00.42	24.69	4.67	
2025-01-18 22:58:00.62	24.70	4.68	
2025-01-18 22:58:00.83	24.72	4.70	
2025-01-18 22:58:01.03	24.73	4.71	
2025-01-18 22:58:01.23	24.74	4.72	
2025-01-18 22:58:01.44	24.76	4.73	
2025-01-18 22:58:01.64	24.77	4.75	
2025-01-18 22:58:01.84	24.79	4.76	
2025-01-18 22:58:02.05	24.80	4.77	
2025-01-18 22:58:02.25	24.81	4.78	
2025-01-18 22:58:02.45	24.83	4.80	
2025-01-18 22:58:02.66	24.84	4.81	
2025-01-18 22:58:02.86	24.86	4.82	
2025-01-18 22:58:03.06	24.87	4.83	
2025-01-18 22:58:03.26	24.88	4.85	
2025-01-18 22:58:03.47	24.90	4.86	
2025-01-18 22:58:03.67	24.91	4.87	
2025-01-18 22:58:03.87	24.93	4.89	
2025-01-18 22:58:04.08	24.94	4.90	
2025-01-18 22:58:04.28	24.95	4.91	
2025-01-18 22:58:04.48	24.97	4.92	
2025-01-18 22:58:04.69	24.98	4.94	
2025-01-18 22:58:04.89	25.00	4.95	
2025-01-18 22:58:05.09	25.01	4.96	
2025-01-18 22:58:05.29	25.02	4.97	
2025-01-18 22:58:05.50	25.04	4.99	
2025-01-18 22:58:05.70	25.05	5.00	
2025-01-18 22:58:05.90	25.07	5.01	
2025-01-18 22:58:06.11	25.08	5.03	
2025-01-18 22:58:06.31	25.10	5.04	
2025-01-18 22:58:06.51	25.11	5.05	
2025-01-18 22:58:06.72	25.12	5.06	
2025-01-18 22:58:06.92	25.14	5.08	
2025-01-18 22:58:07.12	25.15	5.09	
2025-01-18 22:58:07.33	25.17	5.10	
2025-01-18 22:58:07.53	25.18	5.12	
2025-01-18 22:58:07.73	25.20	5.13	
2025-01-18 22:58:07.93	25.21	5.14	
2025-01-18 22:58:08.14	25.22	5.15	
2025-01-18 22:58:08.34	25.24	5.17	
2025-01-18 22:58:08.54	25.25	5.18	
2025-01-18 22:58:08.75	25.27	5.19	
2025-01-18 22:58:08.95	25.28	5.21	
2025-01-18 22:58:09.15	25.30	5.22	
2025-01-18 22:58:09.36	25.31	5.23	
2025-01-18 22:58:09.56	25.32	5.24	
2025-01-18 22:58:09.76	25.34	5.26	
2025-01-18 22:58:09.97	25.35	5.27	
2025-01-18 22:58:10.17	25.37	5.28	
2025-01-18 22:58:10.37	25.38	5.30	
2025-01-18 22:58:10.57	25.40	5.31	
2025-01-18 22:58:10.78	25.41	5.32	
2025-01-18 22:58:10.98	25.43	5.33	
2025-01-18 22:58:11.18	25.44	5.35	
2025-01-18 22:58:11.39	25.45	5.36	
2025-01-18 22:58:11.59	25.47	5.37	
2025-01-18 22:58:11.79	25.48	5.39	
2025-01-18 22:58:12.00	25.50	5.40	
2025-01-18 22:58:12.20	25.51	5.41	
2025-01-18 22:58:12.40	25.53	5.43	
2025-01-18 22:58:12.61	25.54	5.44	
2025-01-18 22:58:12.81	25.56	5.45	
2025-01-18 22:58:13.01	25.57	5.46	
2025-01-18 22:58:13.21	25.59	5.48	
2025-01-18 22:58:13.42	25.60	5.49	
2025-01-18 22:58:13.62	25.62	5.50	
2025-01-18 22:58:13.82	25.63	5.52	
2025-01-18 22:58:14.03	25.64	5.53	
2025-01-18 22:58:14.23	25.66	5.54	
2025-01-18 22:58:14.43	25.67	5.55	
2025-01-18 22:58:14.64	25.69	5.57	
2025-01-18 22:58:14.84	25.70	5.58	
2025-01-18 22:58:15.04	25.72	5.59	
2025-01-18 22:58:15.25	25.73	5.61	
2025-01-18 22:58:15.45	25.75	5.62	
2025-01-18 22:58:15.65	25.76	5.63	
2025-01-18 22:58:15.85	25.78	5.65	
2025-01-18 22:58:16.06	25.79	5.66	
2025-01-18 22:58:16.26	25.81	5.67	
2025-01-18 22:58:16.46	25.82	5.69	
2025-01-18 22:58:16.67	25.84	5.70	
2025-01-18 22:58:16.87	25.85	5.71	
2025-01-18 22:58:17.07	25.87	5.72	
2025-01-18 22:58:17.28	25.88	5.74	
2025-01-18 22:58:17.48	25.90	5.75	
2025-01-18 22:58:17.68	25.91	5.76	
2025-01-18 22:58:17.89	25.93	5.78	
2025-01-18 22:58:18.09	25.94	5.79	
2025-01-18 22:58:18.29	25.96	5.80	
2025-01-18 22:58:18.49	25.97	5.82	
2025-01-18 22:58:18.70	25.99	5.83	
2025-01-18 22:58:18.90	26.00	5.84	
2025-01-18 22:58:19.10	26.01	5.86	
2025-01-18 22:58:19.31	26.03	5.87	
2025-01-18 22:58:19.51	26.05	5.88	
2025-01-18 22:58:19.71	26.06	5.89	
2025-01-18 22:58:19.92	26.08	5.91	
2025-01-18 22:58:20.12	26.09	5.92	
2025-01-18 22:58:20.32	26.11	5.93	
2025-01-18 22:58:20.52	26.12	5.95	
2025-01-18 22:58:20.73	26.14	5.96	
2025-01-18 22:58:20.93	26.15	5.97	
2025-01-18 22:58:21.13	26.17	5.99	
2025-01-18 22:58:21.34	26.18	6.00	
2025-01-18 22:58:21.54	26.20	6.01	
2025-01-18 22:58:21.74	26.21	6.03	
2025-01-18 22:58:21.95	26.23	6.04	
2025-01-18 22:58:22.15	26.24	6.05	
2025-01-18 22:58:22.35	26.26	6.07	
2025-01-18 22:58:22.56	26.27	6.08	
2025-01-18 22:58:22.76	26.29	6.09	
2025-01-18 22:58:22.96	26.30	6.11	
2025-01-18 22:58:23.16	26.32	6.12	
2025-01-18 22:58:23.37	26.33	6.13	
2025-01-18 22:58:23.57	26.35	6.15	
2025-01-18 22:58:23.77	26.36	6.16	
2025-01-18 22:58:23.98	26.38	6.17	
2025-01-18 22:58:24.18	26.39	6.18	
2025-01-18 22:58:24.38	26.41	6.20	
2025-01-18 22:58:24.59	26.42	6.21	
2025-01-18 22:58:24.79	26.44	6.22	
2025-01-18 22:58:24.99	26.46	6.24	
2025-01-18 22:58:25.20	26.47	6.25	
2025-01-18 22:58:25.40	26.49	6.26	
2025-01-18 22:58:25.60	26.50	6.28	
2025-01-18 22:58:25.80	26.52	6.29	
2025-01-18 22:58:26.01	26.53	6.30	
2025-01-18 22:58:26.21	26.55	6.32	
2025-01-18 22:58:26.41	26.56	6.33	
2025-01-18 22:58:26.62	26.58	6.34	
2025-01-18 22:58:26.82	26.59	6.36	
2025-01-18 22:58:27.02	26.61	6.37	
2025-01-18 22:58:27.23	26.63	6.38	
2025-01-18 22:58:27.43	26.64	6.40	
2025-01-18 22:58:27.63	26.66	6.41	
2025-01-18 22:58:27.84	26.67	6.42	
2025-01-18 22:58:28.04	26.69	6.44	
2025-01-18 22:58:28.24	26.70	6.45	
2025-01-18 22:58:28.44	26.72	6.46	
2025-01-18 22:58:28.65	26.73	6.48	
2025-01-18 22:58:28.85	26.75	6.49	
2025-01-18 22:58:29.05	26.76	6.50	
2025-01-18 22:58:29.26	26.78	6.52	
2025-01-18 22:58:29.46	26.80	6.53	
2025-01-18 22:58:29.67	26.81	6.54	
2025-01-18 22:58:29.87	26.83	6.56	
2025-01-18 22:58:30.07	26.84	6.57	
2025-01-18 22:58:30.28	26.86	6.59	
2025-01-18 22:58:30.48	26.88	6.60	
2025-01-18 22:58:30.69	26.89	6.61	
2025-01-18 22:58:30.90	26.91	6.63	
2025-01-18 22:58:31.10	26.92	6.64	
2025-01-18 22:58:31.30	26.94	6.65	
2025-01-18 22:58:31.51	26.95	6.67	
2025-01-18 22:58:31.71	26.97	6.68	
2025-01-18 22:58:31.91	26.99	6.69	
2025-01-18 22:58:32.11	27.00	6.71	
2025-01-18 22:58:32.32	27.02	6.72	
2025-01-18 22:58:32.52	27.03	6.73	
2025-01-18 22:58:32.72	27.05	6.75	
2025-01-18 22:58:32.93	27.07	6.76	
2025-01-18 22:58:33.13	27.08	6.77	
2025-01-18 22:58:33.33	27.10	6.79	
2025-01-18 22:58:33.54	27.11	6.80	
2025-01-18 22:58:33.74	27.13	6.81	
2025-01-18 22:58:33.94	27.14	6.83	
2025-01-18 22:58:34.15	27.16	6.84	
2025-01-18 22:58:34.35	27.18	6.85	
2025-01-18 22:58:34.55	27.19	6.87	
2025-01-18 22:58:34.75	27.21	6.88	
2025-01-18 22:58:34.96	27.23	6.90	
2025-01-18 22:58:35.16	27.24	6.91	
2025-01-18 22:58:35.36	27.26	6.92	
2025-01-18 22:58:35.57	27.27	6.94	
2025-01-18 22:58:35.77	27.29	6.95	
2025-01-18 22:58:35.97	27.31	6.96	
2025-01-18 22:58:36.18	27.32	6.98	
2025-01-18 22:58:36.38	27.34	6.99	
2025-01-18 22:58:36.58	27.35	7.00	
2025-01-18 22:58:36.79	27.37	7.02	
2025-01-18 22:58:36.99	27.39	7.03	
2025-01-18 22:58:37.19	27.40	7.04	
2025-01-18 22:58:37.39	27.42	7.06	
2025-01-18 22:58:37.60	27.43	7.07	
2025-01-18 22:58:37.80	27.45	7.08	
2025-01-18 22:58:38.00	27.47	7.10	
2025-01-18 22:58:38.21	27.48	7.11	
2025-01-18 22:58:38.41	27.50	7.13	
2025-01-18 22:58:38.62	27.52	7.14	
2025-01-18 22:58:38.83	27.53	7.15	
2025-01-18 22:58:39.03	27.55	7.17	
2025-01-18 22:58:39.23	27.57	7.18	
2025-01-18 22:58:39.44	27.58	7.19	
2025-01-18 22:58:39.64	27.60	7.21	
2025-01-18 22:58:39.84	27.61	7.22	
2025-01-18 22:58:40.05	27.63	7.24	
2025-01-18 22:58:40.25	27.65	7.25	
2025-01-18 22:58:40.45	27.66	7.26	
2025-01-18 22:58:40.66	27.68	7.28	
2025-01-18 22:58:40.86	27.70	7.29	
2025-01-18 22:58:41.06	27.71	7.30	
2025-01-18 22:58:41.26	27.73	7.32	
2025-01-18 22:58:41.47	27.75	7.33	
2025-01-18 22:58:41.67	27.76	7.35	
2025-01-18 22:58:41.87	27.78	7.36	
2025-01-18 22:58:42.08	27.80	7.37	
2025-01-18 22:58:42.28	27.81	7.39	
2025-01-18 22:58:42.48	27.83	7.40	
2025-01-18 22:58:42.69	27.85	7.41	
2025-01-18 22:58:42.89	27.86	7.43	
2025-01-18 22:58:43.09	27.88	7.44	
2025-01-18 22:58:43.30	27.90	7.46	
2025-01-18 22:58:43.50	27.91	7.47	
2025-01-18 22:58:43.70	27.93	7.48	
2025-01-18 22:58:43.90	27.94	7.50	
2025-01-18 22:58:44.11	27.96	7.51	
2025-01-18 22:58:44.31	27.98	7.52	
2025-01-18 22:58:44.51	27.99	7.54	
2025-01-18 22:58:44.72	28.01	7.55	
2025-01-18 22:58:44.92	28.03	7.57	
2025-01-18 22:58:45.12	28.04	7.58	
2025-01-18 22:58:45.33	28.06	7.59	
2025-01-18 22:58:45.53	28.08	7.61	
2025-01-18 22:58:45.73	28.10	7.62	
2025-01-18 22:58:45.93	28.11	7.63	
2025-01-18 22:58:46.14	28.13	7.65	
2025-01-18 22:58:46.34	28.15	7.66	
2025-01-18 22:58:46.54	28.16	7.68	
2025-01-18 22:58:46.75	28.18	7.69	
2025-01-18 22:58:46.95	28.20	7.70	
2025-01-18 22:58:47.15	28.21	7.72	
2025-01-18 22:58:47.36	28.23	7.73	
2025-01-18 22:58:47.56	28.25	7.74	
2025-01-18 22:58:47.76	28.26	7.76	
2025-01-18 22:58:47.97	28.28	7.77	
2025-01-18 22:58:48.17	28.30	7.79	
2025-01-18 22:58:48.37	28.31	7.80	
2025-01-18 22:58:48.57	28.33	7.81	
2025-01-18 22:58:48.78	28.35	7.83	
2025-01-18 22:58:48.98	28.37	7.84	
2025-01-18 22:58:49.18	28.38	7.86	
2025-01-18 22:58:49.39	28.40	7.87	
2025-01-18 22:58:49.59	28.42	7.88	
2025-01-18 22:58:49.79	28.43	7.90	
2025-01-18 22:58:50.00	28.45	7.91	
2025-01-18 22:58:50.20	28.47	7.93	
2025-01-18 22:58:50.40	28.49	7.94	
2025-01-18 22:58:50.61	28.50	7.95	
2025-01-18 22:58:50.81	28.52	7.97	
2025-01-18 22:58:51.01	28.54	7.98	
2025-01-18 22:58:51.21	28.55	7.99	
2025-01-18 22:58:51.42	28.57	8.01	
2025-01-18 22:58:51.62	28.59	8.02	
2025-01-18 22:58:51.82	28.61	8.04	
2025-01-18 22:58:52.03	28.62	8.05	
2025-01-18 22:58:52.23	28.64	8.07	
2025-01-18 22:58:52.43	28.66	8.08	
2025-01-18 22:58:52.64	28.68	8.09	
2025-01-18 22:58:52.84	28.69	8.11	
2025-01-18 22:58:53.04	28.71	8.12	
2025-01-18 22:58:53.25	28.73	8.14	
2025-01-18 22:58:53.45	28.74	8.15	
2025-01-18 22:58:53.65	28.76	8.16	
2025-01-18 22:58:53.85	28.78	8.18	
2025-01-18 22:58:54.06	28.80	8.19	
2025-01-18 22:58:54.26	28.81	8.21	
2025-01-18 22:58:54.46	28.83	8.22	
2025-01-18 22:58:54.67	28.85	8.23	
2025-01-18 22:58:54.87	28.87	8.25	
2025-01-18 22:58:55.07	28.88	8.26	
2025-01-18 22:58:55.28	28.90	8.28	
2025-01-18 22:58:55.48	28.92	8.29	
2025-01-18 22:58:55.68	28.94	8.30	
2025-01-18 22:58:55.89	28.95	8.32	
2025-01-18 22:58:56.09	28.97	8.33	
2025-01-18 22:58:56.29	28.99	8.35	
2025-01-18 22:58:56.49	29.01	8.36	
2025-01-18 22:58:56.70	29.02	8.37	
2025-01-18 22:58:56.90	29.04	8.39	
2025-01-18 22:58:57.10	29.06	8.40	
2025-01-18 22:58:57.31	29.08	8.42	
2025-01-18 22:58:57.51	29.10	8.43	
2025-01-18 22:58:57.71	29.11	8.44	
2025-01-18 22:58:57.92	29.13	8.46	
2025-01-18 22:58:58.12	29.15	8.47	
2025-01-18 22:58:58.32	29.17	8.49	
2025-01-18 22:58:58.53	29.18	8.50	
2025-01-18 22:58:58.73	29.20	8.52	
2025-01-18 22:58:58.93	29.22	8.53	
2025-01-18 22:58:59.13	29.24	8.54	
2025-01-18 22:58:59.34	29.26	8.56	
2025-01-18 22:58:59.54	29.27	8.57	
2025-01-18 22:58:59.74	29.29	8.59	
2025-01-18 22:58:59.95	29.31	8.60	
2025-01-18 22:59:00.15	29.33	8.62	
2025-01-18 22:59:00.35	29.34	8.63	
2025-01-18 22:59:00.56	29.36	8.64	
2025-01-18 22:59:00.76	29.38	8.66	
2025-01-18 22:59:00.96	29.40	8.67	
2025-01-18 22:59:01.17	29.42	8.69	
2025-01-18 22:59:01.37	29.43	8.70	
2025-01-18 22:59:01.57	29.45	8.71	
2025-01-18 22:59:01.77	29.47	8.73	
2025-01-18 22:59:01.98	29.49	8.74	
2025-01-18 22:59:02.18	29.51	8.76	
2025-01-18 22:59:02.38	29.52	8.77	
2025-01-18 22:59:02.59	29.54	8.79	
2025-01-18 22:59:02.79	29.56	8.80	
2025-01-18 22:59:02.99	29.58	8.81	
2025-01-18 22:59:03.20	29.60	8.83	
2025-01-18 22:59:03.40	29.62	8.84	
2025-01-18 22:59:03.60	29.63	8.86	
2025-01-18 22:59:03.80	29.65	8.87	
2025-01-18 22:59:04.01	29.67	8.89	
2025-01-18 22:59:04.21	29.69	8.90	
2025-01-18 22:59:04.41	29.71	8.91	
2025-01-18 22:59:04.62	29.72	8.93	
2025-01-18 22:59:04.82	29.74	8.94	
2025-01-18 22:59:05.02	29.76	8.96	
2025-01-18 22:59:05.23	29.78	8.97	
2025-01-18 22:59:05.43	29.80	8.99	
2025-01-18 22:59:05.63	29.82	9.00	
2025-01-18 22:59:05.84	29.83	9.02	
2025-01-18 22:59:06.04	29.85	9.03	
2025-01-18 22:59:06.24	29.87	9.04	
2025-01-18 22:59:06.44	29.89	9.06	
2025-01-18 22:59:06.65	29.91	9.07	
2025-01-18 22:59:06.85	29.93	9.09	
2025-01-18 22:59:07.05	29.94	9.10	
2025-01-18 22:59:07.26	29.96	9.12	
2025-01-18 22:59:07.46	29.98	9.13	
2025-01-18 22:59:07.66	30.00	9.14	
2025-01-18 22:59:07.87	30.02	9.16	
2025-01-18 22:59:08.07	30.04	9.17	
2025-01-18 22:59:08.27	30.06	9.19	
2025-01-18 22:59:08.48	30.08	9.20	
2025-01-18 22:59:08.68	30.09	9.22	
2025-01-18 22:59:08.88	30.11	9.23	
2025-01-18 22:59:09.08	30.13	9.25	
2025-01-18 22:59:09.29	30.15	9.26	
2025-01-18 22:59:09.49	30.17	9.28	
2025-01-18 22:59:09.69	30.19	9.29	
2025-01-18 22:59:09.90	30.21	9.30	
2025-01-18 22:59:10.10	30.22	9.32	
2025-01-18 22:59:10.30	30.24	9.33	
2025-01-18 22:59:10.51	30.26	9.35	
2025-01-18 22:59:10.71	30.28	9.36	
2025-01-18 22:59:10.91	30.30	9.38	
2025-01-18 22:59:11.12	30.32	9.39	
2025-01-18 22:59:11.32	30.34	9.41	
2025-01-18 22:59:11.52	30.36	9.42	
2025-01-18 22:59:11.72	30.37	9.43	
2025-01-18 22:59:11.93	30.39	9.45	
2025-01-18 22:59:12.13	30.41	9.46	
2025-01-18 22:59:12.33	30.43	9.48	
2025-01-18 22:59:12.54	30.45	9.49	
2025-01-18 22:59:12.74	30.47	9.51	
2025-01-18 22:59:12.94	30.49	9.52	
2025-01-18 22:59:13.15	30.51	9.54	
2025-01-18 22:59:13.35	30.53	9.55	
2025-01-18 22:59:13.55	30.55	9.57	
2025-01-18 22:59:13.76	30.56	9.58	
2025-01-18 22:59:13.96	30.58	9.60	
2025-01-18 22:59:14.16	30.60	9.61	
2025-01-18 22:59:14.36	30.62	9.62	
2025-01-18 22:59:14.57	30.64	9.64	
2025-01-18 22:59:14.77	30.66	9.65	
2025-01-18 22:59:14.97	30.68	9.67	
2025-01-18 22:59:15.18	30.70	9.68	
2025-01-18 22:59:15.38	30.72	9.70	
2025-01-18 22:59:15.58	30.74	9.71	
2025-01-18 22:59:15.79	30.76	9.73	
2025-01-18 22:59:15.99	30.78	9.74	
2025-01-18 22:59:16.19	30.79	9.76	
2025-01-18 22:59:16.40	30.81	9.77	
2025-01-18 22:59:16.60	30.83	9.79	
2025-01-18 22:59:16.80	30.85	9.80	
2025-01-18 22:59:17.00	30.87	9.81	
2025-01-18 22:59:17.21	30.89	9.83	
2025-01-18 22:59:17.41	30.91	9.84	
2025-01-18 22:59:17.61	30.93	9.86	
2025-01-18 22:59:17.82	30.95	9.87	
2025-01-18 22:59:18.02	30.97	9.89	
2025-01-18 22:59:18.22	30.99	9.90	
2025-01-18 22:59:18.43	31.01	9.92	
2025-01-18 22:59:18.63	31.03	9.93	
2025-01-18 22:59:18.83	31.05	9.95	
2025-01-18 22:59:19.03	31.07	9.96	
2025-01-18 22:59:19.24	31.09	9.98	
2025-01-18 22:59:19.44	31.11	9.99	
2025-01-18 22:59:19.64	31.12	10.01	
2025-01-18 22:59:19.85	31.14	10.02	
2025-01-18 22:59:20.05	31.16	10.04	
2025-01-18 22:59:20.25	31.18	10.05	
2025-01-18 22:59:20.46	31.20	10.07	
2025-01-18 22:59:20.66	31.22	10.08	
2025-01-18 22:59:20.86	31.24	10.10	
2025-01-18 22:59:21.07	31.26	10.11	
2025-01-18 22:59:21.27	31.28	10.13	
2025-01-18 22:59:21.47	31.30	10.14	
2025-01-18 22:59:21.67	31.32	10.15	
2025-01-18 22:59:21.88	31.34	10.17	
2025-01-18 22:59:22.08	31.36	10.18	
2025-01-18 22:59:22.28	31.38	10.20	
2025-01-18 22:59:22.49	31.40	10.21	
2025-01-18 22:59:22.69	31.42	10.23	
2025-01-18 22:59:22.89	31.44	10.24	
2025-01-18 22:59:23.10	31.46	10.26	
2025-01-18 22:59:23.30	31.48	10.27	
2025-01-18 22:59:23.50	31.50	10.29	
2025-01-18 22:59:23.71	31.52	10.30	
2025-01-18 22:59:23.91	31.54	10.32	
2025-01-18 22:59:24.11	31.56	10.33	
2025-01-18 22:59:24.31	31.58	10.35	
2025-01-18 22:59:24.52	31.60	10.36	
2025-01-18 22:59:24.72	31.62	10.38	
2025-01-18 22:59:24.92	31.64	10.39	
2025-01-18 22:59:25.13	31.66	10.41	
2025-01-18 22:59:25.33	31.68	10.42	
2025-01-18 22:59:25.53	31.70	10.44	
2025-01-18 22:59:25.74	31.72	10.45	
2025-01-18 22:59:25.94	31.74	10.47	
2025-01-18 22:59:26.14	31.76	10.48	
2025-01-18 22:59:26.35	31.78	10.50	
2025-01-18 22:59:26.55	31.80	10.51	
2025-01-18 22:59:26.75	31.82	10.53	
2025-01-18 22:59:26.95	31.84	10.54	
2025-01-18 22:59:27.16	31.86	10.56	
2025-01-18 22:59:27.36	31.88	10.57	
2025-01-18 22:59:27.56	31.90	10.59	
2025-01-18 22:59:27.77	31.92	10.60	
2025-01-18 22:59:27.97	31.94	10.62	
2025-01-18 22:59:28.17	31.97	10.63	
2025-01-18 22:59:28.38	31.99	10.65	
2025-01-18 22:59:28.58	32.01	10.66	
2025-01-18 22:59:28.78	32.03	10.68	
2025-01-18 22:59:28.99	32.05	10.69	
2025-01-18 22:59:29.19	32.07	10.71	
2025-01-18 22:59:29.39	32.09	10.72	
2025-01-18 22:59:29.59	32.11	10.74	
2025-01-18 22:59:29.80	32.13	10.75	
2025-01-18 22:59:30.00	32.15	10.77	
2025-01-18 22:59:30.20	32.17	10.78	
2025-01-18 22:59:30.41	32.19	10.80	
2025-01-18 22:59:30.61	32.21	10.81	
2025-01-18 22:59:30.81	32.23	10.83	
2025-01-18 22:59:31.02	32.25	10.84	
2025-01-18 22:59:31.22	32.27	10.86	
2025-01-18 22:59:31.42	32.29	10.87	
2025-01-18 22:59:31.63	32.32	10.89	
2025-01-18 22:59:31.83	32.34	10.90	
2025-01-18 22:59:32.03	32.36	10.92	
2025-01-18 22:59:32.23	32.38	10.93	
2025-01-18 22:59:32.44	32.40	10.95	
2025-01-18 22:59:32.64	32.42	10.97	
2025-01-18 22:59:32.84	32.44	10.98	
2025-01-18 22:59:33.05	32.46	11.00	
2025-01-18 22:59:33.25	32.48	11.01	
2025-01-18 22:59:33.45	32.50	11.03	
2025-01-18 22:59:33.66	32.52	11.04	
2025-01-18 22:59:33.86	32.55	11.06	
2025-01-18 22:59:34.06	32.57	11.07	
2025-01-18 22:59:34.26	32.59	11.09	
2025-01-18 22:59:34.47	32.61	11.10	
2025-01-18 22:59:34.67	32.63	11.12	
2025-01-18 22:59:34.87	32.65	11.13	
2025-01-18 22:59:35.08	32.67	11.15	
2025-01-18 22:59:35.28	32.69	11.16	
2025-01-18 22:59:35.48	32.71	11.18	
2025-01-18 22:59:35.69	32.74	11.19	
2025-01-18 22:59:35.89	32.76	11.21	
2025-01-18 22:59:36.09	32.78	11.22	
2025-01-18 22:59:36.30	32.80	11.24	
2025-01-18 22:59:36.50	32.82	11.25	
2025-01-18 22:59:36.70	32.84	11.27	
2025-01-18 22:59:36.90	32.86	11.29	
2025-01-18 22:59:37.11	32.88	11.30	
2025-01-18 22:59:37.31	32.90	11.32	
2025-01-18 22:59:37.51	32.93	11.33	
2025-01-18 22:59:37.72	32.95	11.35	
2025-01-18 22:59:37.92	32.97	11.36	
2025-01-18 22:59:38.12	32.99	11.38	
2025-01-18 22:59:38.33	33.01	11.39	
2025-01-18 22:59:38.53	33.03	11.41	
2025-01-18 22:59:38.73	33.05	11.42	
2025-01-18 22:59:38.94	33.08	11.44	
2025-01-18 22:59:39.14	33.10	11.45	
2025-01-18 22:59:39.34	33.12	11.47	
2025-01-18 22:59:39.54	33.14	11.48	
2025-01-18 22:59:39.75	33.16	11.50	
2025-01-18 22:59:39.95	33.18	11.52	
2025-01-18 22:59:40.15	33.21	11.53	
2025-01-18 22:59:40.36	33.23	11.55	
2025-01-18 22:59:40.56	33.25	11.56	
2025-01-18 22:59:40.76	33.27	11.58	
2025-01-18 22:59:40.97	33.29	11.59	
2025-01-18 22:59:41.17	33.31	11.61	
2025-01-18 22:59:41.37	33.34	11.62	
2025-01-18 22:59:41.58	33.36	11.64	
2025-01-18 22:59:41.78	33.38	11.65	
2025-01-18 22:59:41.98	33.40	11.67	
2025-01-18 22:59:42.18	33.42	11.69	
2025-01-18 22:59:42.39	33.45	11.70	
2025-01-18 22:59:42.59	33.47	11.72	
2025-01-18 22:59:42.79	33.49	11.73	
2025-01-18 22:59:43.00	33.51	11.75	
2025-01-18 22:59:43.20	33.53	11.76	
2025-01-18 22:59:43.40	33.55	11.78	
2025-01-18 22:59:43.61	33.58	11.79	
2025-01-18 22:59:43.81	33.60	11.81	
2025-01-18 22:59:44.01	33.62	11.82	
2025-01-18 22:59:44.22	33.64	11.84	
2025-01-18 22:59:44.42	33.67	11.86	
2025-01-18 22:59:44.62	33.69	11.87	
2025-01-18 22:59:44.82	33.71	11.89	
2025-01-18 22:59:45.03	33.73	11.90	
2025-01-18 22:59:45.23	33.75	11.92	
2025-01-18 22:59:45.43	33.78	11.93	
2025-01-18 22:59:45.64	33.80	11.95	
2025-01-18 22:59:45.84	33.82	11.96	
2025-01-18 22:59:46.04	33.84	11.98	
2025-01-18 22:59:46.25	33.87	12.00	
2025-01-18 22:59:46.45	33.89	12.01	
2025-01-18 22:59:46.65	33.91	12.03	
2025-01-18 22:59:46.86	33.93	12.04	
2025-01-18 22:59:47.06	33.95	12.06	
2025-01-18 22:59:47.26	33.98	12.07	
2025-01-18 22:59:47.46	34.00	12.09	
2025-01-18 22:59:47.67	34.02	12.11	
2025-01-18 22:59:47.87	34.04	12.12	
2025-01-18 22:59:48.07	34.07	12.14	
2025-01-18 22:59:48.28	34.09	12.15	
2025-01-18 22:59:48.48	34.11	12.17	
2025-01-18 22:59:48.68	34.13	12.18	
2025-01-18 22:59:48.89	34.16	12.20	
2025-01-18 22:59:49.09	34.18	12.22	
2025-01-18 22:59:49.29	34.20	12.23	
2025-01-18 22:59:49.49	34.22	12.25	
2025-01-18 22:59:49.70	34.25	12.26	
2025-01-18 22:59:49.90	34.27	12.28	
2025-01-18 22:59:50.10	34.29	12.29	
2025-01-18 22:59:50.31	34.32	12.31	
2025-01-18 22:59:50.51	34.34	12.32	
2025-01-18 22:59:50.71	34.36	12.34	
2025-01-18 22:59:50.92	34.38	12.36	
2025-01-18 22:59:51.12	34.41	12.37	
2025-01-18 22:59:51.32	34.43	12.39	
2025-01-18 22:59:51.53	34.45	12.40	
2025-01-18 22:59:51.73	34.48	12.42	
2025-01-18 22:59:51.93	34.50	12.43	
2025-01-18 22:59:52.13	34.52	12.45	
2025-01-18 22:59:52.34	34.55	12.47	
2025-01-18 22:59:52.54	34.57	12.48	
2025-01-18 22:59:52.74	34.59	12.50	
2025-01-18 22:59:52.95	34.61	12.51	
2025-01-18 22:59:53.15	34.64	12.53	
2025-01-18 22:59:53.35	34.66	12.55	
2025-01-18 22:59:53.56	34.68	12.56	
2025-01-18 22:59:53.76	34.71	12.58	
2025-01-18 22:59:53.96	34.73	12.59	
2025-01-18 22:59:54.17	34.75	12.61	
2025-01-18 22:59:54.37	34.78	12.62	
2025-01-18 22:59:54.57	34.80	12.64	
2025-01-18 22:59:54.77	34.82	12.66	
2025-01-18 22:59:54.98	34.85	12.67	
2025-01-18 22:59:55.18	34.87	12.69	
2025-01-18 22:59:55.38	34.89	12.70	
2025-01-18 22:59:55.59	34.92	12.72	
2025-01-18 22:59:55.79	34.94	12.74	
2025-01-18 22:59:55.99	34.96	12.75	
2025-01-18 22:59:56.20	34.99	12.77	
2025-01-18 22:59:56.40	35.01	12.78	
2025-01-18 22:59:56.60	35.03	12.80	
2025-01-18 22:59:56.81	35.06	12.82	
2025-01-18 22:59:57.01	35.08	12.83	
2025-01-18 22:59:57.21	35.10	12.85	
2025-01-18 22:59:57.41	35.13	12.86	
2025-01-18 22:59:57.62	35.15	12.88	
2025-01-18 22:59:57.82	35.17	12.89	
2025-01-18 22:59:58.02	35.20	12.91	
2025-01-18 22:59:58.23	35.22	12.93	
2025-01-18 22:59:58.43	35.25	12.94	
2025-01-18 22:59:58.63	35.27	12.96	
2025-01-18 22:59:58.84	35.29	12.97	
2025-01-18 22:59:59.04	35.32	12.99	
2025-01-18 22:59:59.24	35.34	13.01	
2025-01-18 22:59:59.45	35.37	13.02	
2025-01-18 22:59:59.65	35.39	13.04	
2025-01-18 22:59:59.85	35.41	13.05	
2025-01-18 23:00:00.05	35.44	13.07	
2025-01-18 23:00:00.26	35.46	13.09	
2025-01-18 23:00:00.46	35.48	13.10	
2025-01-18 23:00:00.66	35.51	13.12	
2025-01-18 23:00:00.87	35.53	13.13	
2025-01-18 23:00:01.07	35.56	13.15	
2025-01-18 23:00:01.27	35.58	13.17	
2025-01-18 23:00:01.48	35.60	13.18	
2025-01-18 23:00:01.68	35.63	13.20	
2025-01-18 23:00:01.88	35.65	13.21	
2025-01-18 23:00:02.09	35.68	13.23	
2025-01-18 23:00:02.29	35.70	13.25	
2025-01-18 23:00:02.49	35.73	13.26	
2025-01-18 23:00:02.69	35.75	13.28	
2025-01-18 23:00:02.90	35.77	13.30	
2025-01-18 23:00:03.10	35.80	13.31	
2025-01-18 23:00:03.30	35.82	13.33	
2025-01-18 23:00:03.51	35.85	13.34	
2025-01-18 23:00:03.71	35.87	13.36	
2025-01-18 23:00:03.91	35.90	13.38	
2025-01-18 23:00:04.12	35.92	13.39	
2025-01-18 23:00:04.32	35.94	13.41	
2025-01-18 23:00:04.52	35.97	13.42	
2025-01-18 23:00:04.72	35.99	13.44	
2025-01-18 23:00:04.93	36.02	13.46	
2025-01-18 23:00:05.13	36.04	13.47	
2025-01-18 23:00:05.33	36.07	13.49	
2025-01-18 23:00:05.54	36.09	13.51	
2025-01-18 23:00:05.74	36.12	13.52	
2025-01-18 23:00:05.94	36.14	13.54	
2025-01-18 23:00:06.15	36.17	13.55	
2025-01-18 23:00:06.35	36.19	13.57	
2025-01-18 23:00:06.55	36.21	13.59	
2025-01-18 23:00:06.76	36.24	13.60	
2025-01-18 23:00:06.96	36.26	13.62	
2025-01-18 23:00:07.16	36.29	13.63	
2025-01-18 23:00:07.36	36.31	13.65	
2025-01-18 23:00:07.57	36.34	13.67	
2025-01-18 23:00:07.77	36.36	13.68	
2025-01-18 23:00:07.97	36.39	13.70	
2025-01-18 23:00:08.18	36.41	13.72	
2025-01-18 23:00:08.38	36.44	13.73	
2025-01-18 23:00:08.58	36.46	13.75	
2025-01-18 23:00:08.79	36.49	13.77	
2025-01-18 23:00:08.99	36.51	13.78	
2025-01-18 23:00:09.19	36.54	13.80	
2025-01-18 23:00:09.40	36.56	13.81	
2025-01-18 23:00:09.60	36.59	13.83	
2025-01-18 23:00:09.80	36.61	13.85	
2025-01-18 23:00:10.00	36.64	13.86	
2025-01-18 23:00:10.21	36.66	13.88	
2025-01-18 23:00:10.41	36.69	13.90	
2025-01-18 23:00:10.61	36.71	13.91	
2025-01-18 23:00:10.82	36.74	13.93	
2025-01-18 23:00:11.02	36.77	13.94	
2025-01-18 23:00:11.22	36.79	13.96	
2025-01-18 23:00:11.43	36.82	13.98	
2025-01-18 23:00:11.63	36.84	13.99	
2025-01-18 23:00:11.83	36.87	14.01	
2025-01-18 23:00:12.04	36.89	14.03	
2025-01-18 23:00:12.24	36.92	14.04	
2025-01-18 23:00:12.44	36.94	14.06	
2025-01-18 23:00:12.64	36.97	14.07	
2025-01-18 23:00:12.85	37.00	14.09	
2025-01-18 23:00:13.05	37.02	14.11	
2025-01-18 23:00:13.25	37.05	14.12	
2025-01-18 23:00:13.46	37.07	14.14	
2025-01-18 23:00:13.66	37.10	14.16	
2025-01-18 23:00:13.86	37.12	14.17	
2025-01-18 23:00:14.07	37.15	14.19	
2025-01-18 23:00:14.27	37.17	14.21	
2025-01-18 23:00:14.47	37.20	14.22	
2025-01-18 23:00:14.68	37.23	14.24	
2025-01-18 23:00:14.88	37.25	14.26	
2025-01-18 23:00:15.08	37.28	14.27	
2025-01-18 23:00:15.28	37.30	14.29	
2025-01-18 23:00:15.49	37.33	14.31	
2025-01-18 23:00:15.69	37.36	14.32	
2025-01-18 23:00:15.89	37.38	14.34	
2025-01-18 23:00:16.10	37.41	14.35	
2025-01-18 23:00:16.30	37.43	14.37	
2025-01-18 23:00:16.50	37.46	14.39	
2025-01-18 23:00:16.71	37.49	14.40	
2025-01-18 23:00:16.91	37.51	14.42	
2025-01-18 23:00:17.11	37.54	14.44	
2025-01-18 23:00:17.32	37.56	14.45	
2025-01-18 23:00:17.52	37.59	14.47	
2025-01-18 23:00:17.72	37.62	14.49	
2025-01-18 23:00:17.92	37.64	14.50	
2025-01-18 23:00:18.13	37.67	14.52	
2025-01-18 23:00:18.33	37.70	14.54	
2025-01-18 23:00:18.53	37.72	14.55	
2025-01-18 23:00:18.74	37.75	14.57	
2025-01-18 23:00:18.94	37.77	14.59	
2025-01-18 23:00:19.14	37.80	14.60	
2025-01-18 23:00:19.35	37.83	14.62	
2025-01-18 23:00:19.55	37.85	14.64	
2025-01-18 23:00:19.75	37.88	14.65	
2025-01-18 23:00:19.95	37.91	14.67	
2025-01-18 23:00:20.16	37.93	14.69	
2025-01-18 23:00:20.36	37.96	14.70	
2025-01-18 23:00:20.56	37.99	14.72	
2025-01-18 23:00:20.77	38.01	14.74	
2025-01-18 23:00:20.97	38.04	14.75	
2025-01-18 23:00:21.17	38.07	14.77	
2025-01-18 23:00:21.38	38.09	14.79	
2025-01-18 23:00:21.58	38.12	14.80	
2025-01-18 23:00:21.78	38.15	14.82	
2025-01-18 23:00:21.99	38.17	14.84	
2025-01-18 23:00:22.19	38.20	14.85	
2025-01-18 23:00:22.39	38.23	14.87	
2025-01-18 23:00:22.59	38.25	14.89	
2025-01-18 23:00:22.80	38.28	14.90	
2025-01-18 23:00:23.00	38.31	14.92	
2025-01-18 23:00:23.20	38.33	14.94	
2025-01-18 23:00:23.41	38.36	14.95	
2025-01-18 23:00:23.61	38.39	14.97	
2025-01-18 23:00:23.81	38.42	14.99	
2025-01-18 23:00:24.02	38.44	15.00	
2025-01-18 23:00:24.22	38.47	15.02	
2025-01-18 23:00:24.42	38.50	15.04	
2025-01-18 23:00:24.63	38.53	15.05	
2025-01-18 23:00:24.83	38.55	15.07	
2025-01-18 23:00:25.03	38.58	15.09	
2025-01-18 23:00:25.23	38.61	15.10	
2025-01-18 23:00:25.44	38.63	15.12	
2025-01-18 23:00:25.64	38.66	15.14	
2025-01-18 23:00:25.84	38.69	15.15	
2025-01-18 23:00:26.05	38.72	15.17	
2025-01-18 23:00:26.25	38.74	15.19	
2025-01-18 23:00:26.45	38.77	15.20	
2025-01-18 23:00:26.66	38.80	15.22	
2025-01-18 23:00:26.86	38.83	15.24	
2025-01-18 23:00:27.06	38.85	15.25	
2025-01-18 23:00:27.27	38.88	15.27	
2025-01-18 23:00:27.47	38.91	15.29	
2025-01-18 23:00:27.67	38.94	15.30	
2025-01-18 23:00:27.87	38.96	15.32	
2025-01-18 23:00:28.08	38.99	15.34	
2025-01-18 23:00:28.28	39.02	15.35	
2025-01-18 23:00:28.48	39.05	15.37	
2025-01-18 23:00:28.69	39.08	15.39	
2025-01-18 23:00:28.89	39.10	15.41	
2025-01-18 23:00:29.09	39.13	15.42	
2025-01-18 23:00:29.30	39.16	15.44	
2025-01-18 23:00:29.50	39.19	15.46	
2025-01-18 23:00:29.70	39.21	15.47	
2025-01-18 23:00:29.91	39.24	15.49	
2025-01-18 23:00:30.11	39.27	15.51	
2025-01-18 23:00:30.31	39.30	15.52	
2025-01-18 23:00:30.51	39.33	15.54	
2025-01-18 23:00:30.72	39.35	15.56	
2025-01-18 23:00:30.92	39.38	15.57	
2025-01-18 23:00:31.12	39.41	15.59	
2025-01-18 23:00:31.33	39.44	15.61	
2025-01-18 23:00:31.53	39.47	15.62	
2025-01-18 23:00:31.73	39.49	15.64	
2025-01-18 23:00:31.94	39.52	15.66	
2025-01-18 23:00:32.14	39.55	15.68	
2025-01-18 23:00:32.34	39.58	15.69	
2025-01-18 23:00:32.55	39.61	15.71	
2025-01-18 23:00:32.75	39.64	15.73	
2025-01-18 23:00:32.95	39.67	15.74	
2025-01-18 23:00:33.15	39.69	15.76	
2025-01-18 23:00:33.36	39.72	15.78	
2025-01-18 23:00:33.56	39.75	15.79	
2025-01-18 23:00:33.76	39.78	15.81	
2025-01-18 23:00:33.97	39.81	15.83	
2025-01-18 23:00:34.17	39.84	15.85	
2025-01-18 23:00:34.37	39.87	15.86	
2025-01-18 23:00:34.58	39.89	15.88	
2025-01-18 23:00:34.78	39.92	15.90	
2025-01-18 23:00:34.98	39.95	15.91	
2025-01-18 23:00:35.18	39.98	15.93	
2025-01-18 23:00:35.39	40.01	15.95	
2025-01-18 23:00:35.59	40.04	15.96	
2025-01-18 23:00:35.79	40.07	15.98	
2025-01-18 23:00:36.00	40.10	16.00	
2025-01-18 23:00:36.20	40.12	16.02	
2025-01-18 23:00:36.40	40.15	16.03	
2025-01-18 23:00:36.61	40.18	16.05	
2025-01-18 23:00:36.81	40.21	16.07	
2025-01-18 23:00:37.01	40.24	16.08	
2025-01-18 23:00:37.22	40.27	16.10	
2025-01-18 23:00:37.42	40.30	16.12	
2025-01-18 23:00:37.62	40.33	16.13	
2025-01-18 23:00:37.82	40.36	16.15	
2025-01-18 23:00:38.03	40.39	16.17	
2025-01-18 23:00:38.23	40.42	16.19	
2025-01-18 23:00:38.43	40.44	16.20	
2025-01-18 23:00:38.64	40.48	16.22	
2025-01-18 23:00:38.84	40.50	16.24	
2025-01-18 23:00:39.04	40.53	16.25	
2025-01-18 23:00:39.25	40.56	16.27	
2025-01-18 23:00:39.45	40.59	16.29	
2025-01-18 23:00:39.65	40.62	16.31	
2025-01-18 23:00:39.86	40.65	16.32	
2025-01-18 23:00:40.06	40.68	16.34	
2025-01-18 23:00:40.26	40.71	16.36	
2025-01-18 23:00:40.46	40.74	16.37	
2025-01-18 23:00:40.67	40.77	16.39	
2025-01-18 23:00:40.87	40.80	16.41	
2025-01-18 23:00:41.07	40.83	16.43	
2025-01-18 23:00:41.28	40.86	16.44	
2025-01-18 23:00:41.48	40.89	16.46	
2025-01-18 23:00:41.68	40.92	16.48	
2025-01-18 23:00:41.89	40.95	16.50	
2025-01-18 23:00:42.09	40.98	16.51	
2025-01-18 23:00:42.29	41.01	16.53	
2025-01-18 23:00:42.50	41.04	16.55	
2025-01-18 23:00:42.70	41.07	16.56	
2025-01-18 23:00:42.90	41.10	16.58	
2025-01-18 23:00:43.10	41.13	16.60	
2025-01-18 23:00:43.31	41.16	16.62	
2025-01-18 23:00:43.51	41.19	16.63	
2025-01-18 23:00:43.71	41.22	16.65	
2025-01-18 23:00:43.92	41.25	16.67	
2025-01-18 23:00:44.12	41.28	16.68	
2025-01-18 23:00:44.32	41.31	16.70	
2025-01-18 23:00:44.53	41.34	16.72	
2025-01-18 23:00:44.73	41.37	16.74	
2025-01-18 23:00:44.93	41.40	16.75	
2025-01-18 23:00:45.14	41.43	16.77	
2025-01-18 23:00:45.34	41.46	16.79	
2025-01-18 23:00:45.54	41.49	16.81	
2025-01-18 23:00:45.74	41.52	16.82	
2025-01-18 23:00:45.95	41.55	16.84	
2025-01-18 23:00:46.15	41.58	16.86	
2025-01-18 23:00:46.35	41.61	16.87	
2025-01-18 23:00:46.56	41.64	16.89	
2025-01-18 23:00:46.76	41.67	16.91	
2025-01-18 23:00:46.96	41.71	16.93	
2025-01-18 23:00:47.17	41.74	16.94	
2025-01-18 23:00:47.37	41.77	16.96	
2025-01-18 23:00:47.57	41.80	16.98	
2025-01-18 23:00:47.78	41.83	17.00	
2025-01-18 23:00:47.98	41.86	17.01	
2025-01-18 23:00:48.18	41.89	17.03	
2025-01-18 23:00:48.38	41.92	17.05	
2025-01-18 23:00:48.59	41.95	17.07	
2025-01-18 23:00:48.79	41.98	17.08	
2025-01-18 23:00:48.99	42.01	17.10	
2025-01-18 23:00:49.20	42.05	17.12	
2025-01-18 23:00:49.40	42.08	17.13	
2025-01-18 23:00:49.60	42.11	17.15	
2025-01-18 23:00:49.81	42.14	17.17	
2025-01-18 23:00:50.01	42.17	17.19	
2025-01-18 23:00:50.21	42.20	17.20	
2025-01-18 23:00:50.41	42.23	17.22	
2025-01-18 23:00:50.62	42.26	17.24	
2025-01-18 23:00:50.82	42.29	17.26	
2025-01-18 23:00:51.02	42.33	17.27	
2025-01-18 23:00:51.23	42.36	17.29	
2025-01-18 23:00:51.43	42.39	17.31	
2025-01-18 23:00:51.63	42.42	17.33	
2025-01-18 23:00:51.84	42.45	17.34	
2025-01-18 23:00:52.04	42.48	17.36	
2025-01-18 23:00:52.24	42.52	17.38	
2025-01-18 23:00:52.45	42.55	17.40	
2025-01-18 23:00:52.65	42.58	17.41	
2025-01-18 23:00:52.85	42.61	17.43	
2025-01-18 23:00:53.05	42.64	17.45	
2025-01-18 23:00:53.26	42.67	17.47	
2025-01-18 23:00:53.46	42.71	17.48	
2025-01-18 23:00:53.66	42.74	17.50	
2025-01-18 23:00:53.87	42.77	17.52	
2025-01-18 23:00:54.07	42.80	17.53	
2025-01-18 23:00:54.27	42.83	17.55	
2025-01-18 23:00:54.48	42.87	17.57	
2025-01-18 23:00:54.68	42.90	17.59	
2025-01-18 23:00:54.88	42.93	17.60	
2025-01-18 23:00:55.09	42.96	17.62	
2025-01-18 23:00:55.29	42.99	17.64	
2025-01-18 23:00:55.49	43.03	17.66	
2025-01-18 23:00:55.69	43.06	17.67	
2025-01-18 23:00:55.90	43.09	17.69	
2025-01-18 23:00:56.10	43.12	17.71	
2025-01-18 23:00:56.30	43.15	17.73	
2025-01-18 23:00:56.51	43.19	17.75	
2025-01-18 23:00:56.71	43.22	17.76	
2025-01-18 23:00:56.91	43.25	17.78	
2025-01-18 23:00:57.12	43.29	17.80	
2025-01-18 23:00:57.32	43.32	17.82	
2025-01-18 23:00:57.52	43.35	17.83	
2025-01-18 23:00:57.73	43.38	17.85	
2025-01-18 23:00:57.93	43.42	17.87	
2025-01-18 23:00:58.13	43.45	17.88	
2025-01-18 23:00:58.33	43.48	17.90	
2025-01-18 23:00:58.54	43.51	17.92	
2025-01-18 23:00:58.74	43.55	17.94	
2025-01-18 23:00:58.94	43.58	17.95	
2025-01-18 23:00:59.15	43.61	17.97	
2025-01-18 23:00:59.35	43.64	17.99	
2025-01-18 23:00:59.55	43.68	18.01	
2025-01-18 23:00:59.76	43.71	18.03	
2025-01-18 23:00:59.96	43.74	18.04	
2025-01-18 23:01:00.16	43.78	18.06	
2025-01-18 23:01:00.37	43.81	18.08	
2025-01-18 23:01:00.57	43.84	18.10	
2025-01-18 23:01:00.77	43.87	18.11	
2025-01-18 23:01:00.97	43.91	18.13	
2025-01-18 23:01:01.18	43.94	18.15	
2025-01-18 23:01:01.38	43.97	18.17	
2025-01-18 23:01:01.58	44.01	18.18	
2025-01-18 23:01:01.79	44.04	18.20	
2025-01-18 23:01:01.99	44.07	18.22	
2025-01-18 23:01:02.19	44.11	18.24	
2025-01-18 23:01:02.40	44.14	18.25	
2025-01-18 23:01:02.60	44.18	18.27	
2025-01-18 23:01:02.80	44.21	18.29	
2025-01-18 23:01:03.01	44.24	18.31	
2025-01-18 23:01:03.21	44.28	18.33	
2025-01-18 23:01:03.41	44.31	18.34	
2025-01-18 23:01:03.61	44.34	18.36	
2025-01-18 23:01:03.82	44.38	18.38	
2025-01-18 23:01:04.02	44.41	18.40	
2025-01-18 23:01:04.22	44.44	18.41	
2025-01-18 23:01:04.43	44.48	18.43	
2025-01-18 23:01:04.63	44.51	18.45	
2025-01-18 23:01:04.83	44.55	18.47	
2025-01-18 23:01:05.04	44.58	18.48	
2025-01-18 23:01:05.24	44.61	18.50	
2025-01-18 23:01:05.44	44.65	18.52	
2025-01-18 23:01:05.65	44.68	18.54	
2025-01-18 23:01:05.85	44.72	18.55	
2025-01-18 23:01:06.05	44.75	18.57	
2025-01-18 23:01:06.25	44.78	18.59	
2025-01-18 23:01:06.46	44.82	18.61	
2025-01-18 23:01:06.66	44.85	18.63	
2025-01-18 23:01:06.86	44.89	18.64	
2025-01-18 23:01:07.07	44.92	18.66	
2025-01-18 23:01:07.27	44.96	18.68	
2025-01-18 23:01:07.47	44.99	18.70	
2025-01-18 23:01:07.68	45.02	18.71	
2025-01-18 23:01:07.88	45.06	18.73	
2025-01-18 23:01:08.08	45.09	18.75	
2025-01-18 23:01:08.28	45.13	18.77	
2025-01-18 23:01:08.49	45.16	18.78	
2025-01-18 23:01:08.69	45.20	18.80	
2025-01-18 23:01:08.89	45.23	18.82	
2025-01-18 23:01:09.10	45.27	18.84	
2025-01-18 23:01:09.30	45.30	18.86	
2025-01-18 23:01:09.50	45.33	18.87	
2025-01-18 23:01:09.71	45.37	18.89	
2025-01-18 23:01:09.91	45.41	18.91	
2025-01-18 23:01:10.11	45.44	18.93	
2025-01-18 23:01:10.32	45.48	18.94	
2025-01-18 23:01:10.52	45.51	18.96	
2025-01-18 23:01:10.72	45.54	18.98	
2025-01-18 23:01:10.92	45.58	19.00	
2025-01-18 23:01:11.13	45.62	19.02	
2025-01-18 23:01:11.33	45.65	19.03	
2025-01-18 23:01:11.53	45.68	19.05	
2025-01-18 23:01:11.74	45.72	19.07	
2025-01-18 23:01:11.94	45.76	19.09	
2025-01-18 23:01:12.14	45.79	19.10	
2025-01-18 23:01:12.35	45.83	19.12	
2025-01-18 23:01:12.55	45.86	19.14	
2025-01-18 23:01:12.75	45.90	19.16	
2025-01-18 23:01:12.96	45.93	19.18	
2025-01-18 23:01:13.16	45.97	19.19	
2025-01-18 23:01:13.36	46.00	19.21	
2025-01-18 23:01:13.56	46.04	19.23	
2025-01-18 23:01:13.77	46.08	19.25	
2025-01-18 23:01:13.97	46.11	19.26	
2025-01-18 23:01:14.17	46.15	19.28	
2025-01-18 23:01:14.38	46.18	19.30	
2025-01-18 23:01:14.58	46.22	19.32	
2025-01-18 23:01:14.78	46.25	19.33	
2025-01-18 23:01:14.99	46.29	19.35	
2025-01-18 23:01:15.19	46.33	19.37	
2025-01-18 23:01:15.39	46.36	19.39	
2025-01-18 23:01:15.60	46.40	19.41	
2025-01-18 23:01:15.80	46.43	19.42	
2025-01-18 23:01:16.00	46.47	19.44	
2025-01-18 23:01:16.20	46.50	19.46	
2025-01-18 23:01:16.41	46.54	19.48	
2025-01-18 23:01:16.61	46.58	19.49	
2025-01-18 23:01:16.81	46.61	19.51	
2025-01-18 23:01:17.02	46.65	19.53	
2025-01-18 23:01:17.22	46.69	19.55	
2025-01-18 23:01:17.42	46.72	19.57	
2025-01-18 23:01:17.63	46.76	19.58	
2025-01-18 23:01:17.83	46.80	19.60	
2025-01-18 23:01:18.03	46.83	19.62	
2025-01-18 23:01:18.24	46.87	19.64	
2025-01-18 23:01:18.44	46.91	19.66	
2025-01-18 23:01:18.64	46.94	19.67	
2025-01-18 23:01:18.84	46.98	19.69	
2025-01-18 23:01:19.05	47.02	19.71	
2025-01-18 23:01:19.25	47.05	19.73	
2025-01-18 23:01:19.45	47.09	19.74	
2025-01-18 23:01:19.66	47.13	19.76	
2025-01-18 23:01:19.86	47.16	19.78	
2025-01-18 23:01:20.06	47.20	19.80	
2025-01-18 23:01:20.27	47.24	19.82	
2025-01-18 23:01:20.47	47.27	19.83	
2025-01-18 23:01:20.67	47.31	19.85	
2025-01-18 23:01:20.87	47.35	19.87	
2025-01-18 23:01:21.08	47.38	19.89	
2025-01-18 23:01:21.28	47.42	19.90	
2025-01-18 23:01:21.48	47.46	19.92	
2025-01-18 23:01:21.69	47.50	19.94	
2025-01-18 23:01:21.89	47.53	19.96	
2025-01-18 23:01:22.09	47.57	19.98	
2025-01-18 23:01:22.30	47.61	19.99	
2025-01-18 23:01:22.50	47.64	20.01	
2025-01-18 23:01:22.70	47.68	20.03	
2025-01-18 23:01:22.91	47.72	20.05	
2025-01-18 23:01:23.11	47.76	20.07	
2025-01-18 23:01:23.31	47.79	20.08	
2025-01-18 23:01:23.51	47.83	20.10	
2025-01-18 23:01:23.72	47.87	20.12	
2025-01-18 23:01:23.92	47.91	20.14	
2025-01-18 23:01:24.12	47.94	20.15	
2025-01-18 23:01:24.33	47.98	20.17	
2025-01-18 23:01:24.53	48.02	20.19	
2025-01-18 23:01:24.73	48.06	20.21	
2025-01-18 23:01:24.94	48.10	20.23	
2025-01-18 23:01:25.14	48.13	20.24	
2025-01-18 23:01:25.34	48.17	20.26	
2025-01-18 23:01:25.55	48.21	20.28	
2025-01-18 23:01:25.75	48.25	20.30	
2025-01-18 23:01:25.95	48.29	20.31	
2025-01-18 23:01:26.15	48.32	20.33	
2025-01-18 23:01:26.36	48.36	20.35	
2025-01-18 23:01:26.56	48.40	20.37	
2025-01-18 23:01:26.76	48.44	20.39	
2025-01-18 23:01:26.97	48.48	20.40	
2025-01-18 23:01:27.17	48.52	20.42	
2025-01-18 23:01:27.37	48.55	20.44	
2025-01-18 23:01:27.58	48.59	20.46	
2025-01-18 23:01:27.78	48.63	20.48	
2025-01-18 23:01:27.98	48.67	20.49	
2025-01-18 23:01:28.19	48.71	20.51	
2025-01-18 23:01:28.39	48.75	20.53	
2025-01-18 23:01:28.59	48.79	20.55	
2025-01-18 23:01:28.79	48.82	20.56	
2025-01-18 23:01:29.00	48.86	20.58	
2025-01-18 23:01:29.20	48.90	20.60	
2025-01-18 23:01:29.40	48.94	20.62	
2025-01-18 23:01:29.61	48.98	20.64	
2025-01-18 23:01:29.81	49.02	20.65	
2025-01-18 23:01:30.01	49.06	20.67	
2025-01-18 23:01:30.22	49.10	20.69	
2025-01-18 23:01:30.42	49.14	20.71	
2025-01-18 23:01:30.62	49.18	20.73	
2025-01-18 23:01:30.83	49.22	20.74	
2025-01-18 23:01:31.03	49.25	20.76	
2025-01-18 23:01:31.23	49.29	20.78	
2025-01-18 23:01:31.43	49.33	20.80	
2025-01-18 23:01:31.64	49.37	20.82	
2025-01-18 23:01:31.84	49.41	20.83	
2025-01-18 23:01:32.04	49.45	20.85	
2025-01-18 23:01:32.25	49.49	20.87	
2025-01-18 23:01:32.45	49.53	20.89	
2025-01-18 23:01:32.65	49.57	20.90	
2025-01-18 23:01:32.86	49.61	20.92	
2025-01-18 23:01:33.06	49.65	20.94	
2025-01-18 23:01:33.26	49.69	20.96	
2025-01-18 23:01:33.47	49.73	20.98	
2025-01-18 23:01:33.67	49.77	20.99	
2025-01-18 23:01:33.87	49.81	21.01	
2025-01-18 23:01:34.07	49.85	21.03	
2025-01-18 23:01:34.28	49.89	21.05	
2025-01-18 23:01:34.48	49.93	21.06	
2025-01-18 23:01:34.68	49.97	21.08	
2025-01-18 23:01:34.89	50.01	21.10	
2025-01-18 23:01:35.09	50.05	21.12	
2025-01-18 23:01:35.29	50.09	21.14	
2025-01-18 23:01:35.50	50.13	21.15	
2025-01-18 23:01:35.70	50.17	21.17	
2025-01-18 23:01:35.90	50.21	21.19	
2025-01-18 23:01:36.11	50.25	21.21	
2025-01-18 23:01:36.31	50.29	21.23	
2025-01-18 23:01:36.51	50.33	21.24	
2025-01-18 23:01:36.71	50.37	21.26	
2025-01-18 23:01:36.92	50.41	21.28	
2025-01-18 23:01:37.12	50.45	21.30	
2025-01-18 23:01:37.32	50.49	21.31	
2025-01-18 23:01:37.53	50.53	21.33	
2025-01-18 23:01:37.73	50.57	21.35	
2025-01-18 23:01:37.93	50.61	21.37	
2025-01-18 23:01:38.14	50.66	21.39	
2025-01-18 23:01:38.34	50.70	21.40	
2025-01-18 23:01:38.54	50.74	21.42	
2025-01-18 23:01:38.74	50.78	21.44	
2025-01-18 23:01:38.95	50.82	21.46	
2025-01-18 23:01:39.15	50.86	21.47	
2025-01-18 23:01:39.35	50.90	21.49	
2025-01-18 23:01:39.56	50.94	21.51	
2025-01-18 23:01:39.76	50.98	21.53	
2025-01-18 23:01:39.96	51.02	21.55	
2025-01-18 23:01:40.17	51.07	21.56	
2025-01-18 23:01:40.37	51.11	21.58	
2025-01-18 23:01:40.57	51.15	21.60	
2025-01-18 23:01:40.78	51.19	21.62	
2025-01-18 23:01:40.98	51.23	21.64	
2025-01-18 23:01:41.18	51.27	21.65	
2025-01-18 23:01:41.38	51.31	21.67	
2025-01-18 23:01:41.59	51.36	21.69	
2025-01-18 23:01:41.79	51.40	21.71	
2025-01-18 23:01:41.99	51.44	21.72	
2025-01-18 23:01:42.20	51.48	21.74	
2025-01-18 23:01:42.40	51.52	21.76	
2025-01-18 23:01:42.60	51.56	21.78	
2025-01-18 23:01:42.81	51.61	21.80	
2025-01-18 23:01:43.01	51.65	21.81	
2025-01-18 23:01:43.21	51.69	21.83	
2025-01-18 23:01:43.42	51.73	21.85	
2025-01-18 23:01:43.62	51.77	21.87	
2025-01-18 23:01:43.82	51.82	21.88	
2025-01-18 23:01:44.02	51.86	21.90	
2025-01-18 23:01:44.23	51.90	21.92	
2025-01-18 23:01:44.43	51.94	21.94	
2025-01-18 23:01:44.63	51.98	21.95	
2025-01-18 23:01:44.84	52.03	21.97	
2025-01-18 23:01:45.04	52.07	21.99	
2025-01-18 23:01:45.24	52.11	22.01	
2025-01-18 23:01:45.45	52.16	22.03	
2025-01-18 23:01:45.65	52.20	22.04	
2025-01-18 23:01:45.85	52.24	22.06	
2025-01-18 23:01:46.06	52.28	22.08	
2025-01-18 23:01:46.26	52.33	22.10	
2025-01-18 23:01:46.46	52.37	22.11	
2025-01-18 23:01:46.66	52.41	22.13	
2025-01-18 23:01:46.87	52.45	22.15	
2025-01-18 23:01:47.07	52.50	22.17	
2025-01-18 23:01:47.27	52.54	22.18	
2025-01-18 23:01:47.48	52.58	22.20	
2025-01-18 23:01:47.68	52.62	22.22	
2025-01-18 23:01:47.88	52.67	22.24	
2025-01-18 23:01:48.09	52.71	22.26	
2025-01-18 23:01:48.29	52.75	22.27	
2025-01-18 23:01:48.49	52.80	22.29	
2025-01-18 23:01:48.70	52.84	22.31	
2025-01-18 23:01:48.90	52.88	22.33	
2025-01-18 23:01:49.10	52.93	22.34	
2025-01-18 23:01:49.30	52.97	22.36	
2025-01-18 23:01:49.51	53.01	22.38	
2025-01-18 23:01:49.71	53.06	22.40	
2025-01-18 23:01:49.91	53.10	22.41	
2025-01-18 23:01:50.12	53.15	22.43	
2025-01-18 23:01:50.32	53.19	22.45	
2025-01-18 23:01:50.52	53.23	22.47	
2025-01-18 23:01:50.73	53.28	22.49	
2025-01-18 23:01:50.93	53.32	22.50	
2025-01-18 23:01:51.13	53.36	22.52	
2025-01-18 23:01:51.34	53.41	22.54	
2025-01-18 23:01:51.54	53.45	22.56	
2025-01-18 23:01:51.74	53.49	22.57	
2025-01-18 23:01:51.94	53.54	22.59	
2025-01-18 23:01:52.15	53.58	22.61	
2025-01-18 23:01:52.35	53.63	22.63	
2025-01-18 23:01:52.55	53.67	22.64	
2025-01-18 23:01:52.76	53.72	22.66	
2025-01-18 23:01:52.96	53.76	22.68	
2025-01-18 23:01:53.16	53.80	22.70	
2025-01-18 23:01:53.37	53.85	22.71	
2025-01-18 23:01:53.57	53.89	22.73	
2025-01-18 23:01:53.77	53.94	22.75	
2025-01-18 23:01:53.97	53.98	22.77	
2025-01-18 23:01:54.18	54.03	22.78	
2025-01-18 23:01:54.38	54.07	22.80	
2025-01-18 23:01:54.58	54.11	22.82	
2025-01-18 23:01:54.79	54.16	22.84	
2025-01-18 23:01:54.99	54.20	22.85	
2025-01-18 23:01:55.19	54.25	22.87	
2025-01-18 23:01:55.40	54.30	22.89	
2025-01-18 23:01:55.60	54.34	22.91	
2025-01-18 23:01:55.80	54.38	22.92	
2025-01-18 23:01:56.01	54.43	22.94	
2025-01-18 23:01:56.21	54.47	22.96	
2025-01-18 23:01:56.41	54.52	22.98	
2025-01-18 23:01:56.61	54.56	22.99	
2025-01-18 23:01:56.82	54.61	23.01	
2025-01-18 23:01:57.02	54.66	23.03	
2025-01-18 23:01:57.22	54.70	23.05	
2025-01-18 23:01:57.43	54.75	23.06	
2025-01-18 23:01:57.63	54.79	23.08	
2025-01-18 23:01:57.83	54.84	23.10	
2025-01-18 23:01:58.04	54.88	23.12	
2025-01-18 23:01:58.24	54.93	23.13	
2025-01-18 23:01:58.44	54.97	23.15	
2025-01-18 23:01:58.65	55.02	23.17	
2025-01-18 23:01:58.85	55.07	23.19	
2025-01-18 23:01:59.05	55.11	23.20	
2025-01-18 23:01:59.25	55.16	23.22	
2025-01-18 23:01:59.46	55.20	23.24	
2025-01-18 23:01:59.66	55.25	23.26	
2025-01-18 23:01:59.86	55.29	23.27	
2025-01-18 23:02:00.07	55.34	23.29	
2025-01-18 23:02:00.27	55.39	23.31	
2025-01-18 23:02:00.47	55.43	23.32	
2025-01-18 23:02:00.68	55.48	23.34	
2025-01-18 23:02:00.88	55.52	23.36	
2025-01-18 23:02:01.08	55.57	23.38	
2025-01-18 23:02:01.29	55.62	23.39	
2025-01-18 23:02:01.49	55.66	23.41	
2025-01-18 23:02:01.69	55.71	23.43	
2025-01-18 23:02:01.89	55.76	23.45	
2025-01-18 23:02:02.10	55.80	23.46	
2025-01-18 23:02:02.30	55.85	23.48	
2025-01-18 23:02:02.50	55.89	23.50	
2025-01-18 23:02:02.71	55.94	23.52	
2025-01-18 23:02:02.91	55.99	23.53	
2025-01-18 23:02:03.11	56.04	23.55	
2025-01-18 23:02:03.32	56.08	23.57	
2025-01-18 23:02:03.52	56.13	23.58	
2025-01-18 23:02:03.72	56.18	23.60	
2025-01-18 23:02:03.93	56.22	23.62	
2025-01-18 23:02:04.13	56.27	23.64	
2025-01-18 23:02:04.33	56.32	23.65	
2025-01-18 23:02:04.53	56.36	23.67	
2025-01-18 23:02:04.74	56.41	23.69	
2025-01-18 23:02:04.94	56.46	23.70	
2025-01-18 23:02:05.14	56.51	23.72	
2025-01-18 23:02:05.35	56.55	23.74	
2025-01-18 23:02:05.55	56.60	23.76	
2025-01-18 23:02:05.75	56.65	23.77	
2025-01-18 23:02:05.96	56.70	23.79	
2025-01-18 23:02:06.16	56.74	23.81	
2025-01-18 23:02:06.36	56.79	23.82	
2025-01-18 23:02:06.57	56.84	23.84	
2025-01-18 23:02:06.77	56.89	23.86	
2025-01-18 23:02:06.97	56.93	23.88	
2025-01-18 23:02:07.17	56.98	23.89	
2025-01-18 23:02:07.38	57.03	23.91	
2025-01-18 23:02:07.58	57.08	23.93	
2025-01-18 23:02:07.78	57.12	23.94	
2025-01-18 23:02:07.99	57.17	23.96	
2025-01-18 23:02:08.19	57.22	23.98	
2025-01-18 23:02:08.39	57.27	24.00	
2025-01-18 23:02:08.60	57.32	24.01	
2025-01-18 23:02:08.80	57.37	24.03	
2025-01-18 23:02:09.00	57.41	24.05	
2025-01-18 23:02:09.20	57.46	24.06	
2025-01-18 23:02:09.41	57.51	24.08	
2025-01-18 23:02:09.61	57.56	24.10	
2025-01-18 23:02:09.81	57.61	24.11	
2025-01-18 23:02:10.02	57.66	24.13	
2025-01-18 23:02:10.22	57.70	24.15	
2025-01-18 23:02:10.42	57.75	24.16	
2025-01-18 23:02:10.63	57.80	24.18	
2025-01-18 23:02:10.83	57.85	24.20	
2025-01-18 23:02:11.03	57.90	24.22	
2025-01-18 23:02:11.24	57.95	24.23	
2025-01-18 23:02:11.44	58.00	24.25	
2025-01-18 23:02:11.64	58.04	24.27	
2025-01-18 23:02:11.84	58.09	24.28	
2025-01-18 23:02:12.05	58.14	24.30	
2025-01-18 23:02:12.25	58.19	24.32	
2025-01-18 23:02:12.45	58.24	24.33	
2025-01-18 23:02:12.66	58.29	24.35	
2025-01-18 23:02:12.86	58.34	24.37	
2025-01-18 23:02:13.06	58.39	24.38	
2025-01-18 23:02:13.27	58.44	24.40	
2025-01-18 23:02:13.47	58.49	24.42	
2025-01-18 23:02:13.67	58.54	24.43	
2025-01-18 23:02:13.88	58.59	24.45	
2025-01-18 23:02:14.08	58.64	24.47	
2025-01-18 23:02:14.28	58.69	24.48	
2025-01-18 23:02:14.48	58.73	24.50	
2025-01-18 23:02:14.69	58.79	24.52	
2025-01-18 23:02:14.89	58.83	24.54	
2025-01-18 23:02:15.09	58.88	24.55	
2025-01-18 23:02:15.30	58.93	24.57	
2025-01-18 23:02:15.50	58.98	24.59	
2025-01-18 23:02:15.70	59.03	24.60	
2025-01-18 23:02:15.91	59.08	24.62	
2025-01-18 23:02:16.11	59.13	24.64	
2025-01-18 23:02:16.31	59.18	24.65	
2025-01-18 23:02:16.52	59.24	24.67	
2025-01-18 23:02:16.72	59.28	24.68	
2025-01-18 23:02:16.92	59.33	24.70	
2025-01-18 23:02:17.12	59.38	24.72	
2025-01-18 23:02:17.33	59.44	24.73	
2025-01-18 23:02:17.53	59.49	24.75	
2025-01-18 23:02:17.73	59.54	24.77	
2025-01-18 23:02:17.94	59.59	24.78	
2025-01-18 23:02:18.14	59.64	24.80	
2025-01-18 23:02:18.34	59.69	24.82	
2025-01-18 23:02:18.55	59.74	24.83	
2025-01-18 23:02:18.75	59.79	24.85	
2025-01-18 23:02:18.95	59.84	24.87	
2025-01-18 23:02:19.16	59.89	24.88	
2025-01-18 23:02:19.36	59.94	24.90	
2025-01-18 23:02:19.56	59.99	24.92	
2025-01-18 23:02:19.76	60.04	24.93	
2025-01-18 23:02:19.97	60.09	24.95	
2025-01-18 23:02:20.17	60.15	24.96	
2025-01-18 23:02:20.37	60.20	24.98	
2025-01-18 23:02:20.58	60.25	25.00	
2025-01-18 23:02:20.78	60.30	25.01	
2025-01-18 23:02:20.98	60.35	25.03	
2025-01-18 23:02:21.19	60.40	25.05	
2025-01-18 23:02:21.39	60.45	25.06	
2025-01-18 23:02:21.59	60.50	25.08	
2025-01-18 23:02:21.80	60.56	25.10	
2025-01-18 23:02:22.00	60.61	25.11	
2025-01-18 23:02:22.20	60.66	25.13	
2025-01-18 23:02:22.40	60.71	25.14	
2025-01-18 23:02:22.61	60.76	25.16	
2025-01-18 23:02:22.81	60.81	25.18	
2025-01-18 23:02:23.01	60.87	25.19	
2025-01-18 23:02:23.22	60.92	25.21	
2025-01-18 23:02:23.42	60.97	25.23	
2025-01-18 23:02:23.62	61.02	25.24	
2025-01-18 23:02:23.83	61.07	25.26	
2025-01-18 23:02:24.03	61.13	25.27	
2025-01-18 23:02:24.23	61.18	25.29	
2025-01-18 23:02:24.43	61.23	25.31	
2025-01-18 23:02:24.64	61.28	25.32	
2025-01-18 23:02:24.84	61.33	25.34	
2025-01-18 23:02:25.04	61.39	25.35	
2025-01-18 23:02:25.25	61.44	25.37	
2025-01-18 23:02:25.45	61.49	25.39	
2025-01-18 23:02:25.65	61.54	25.40	
2025-01-18 23:02:25.86	61.60	25.42	
2025-01-18 23:02:26.06	61.65	25.43	
2025-01-18 23:02:26.26	61.70	25.45	
2025-01-18 23:02:26.47	61.76	25.47	
2025-01-18 23:02:26.67	61.81	25.48	
2025-01-18 23:02:26.87	61.86	25.50	
2025-01-18 23:02:27.07	61.91	25.51	
2025-01-18 23:02:27.28	61.97	25.53	
2025-01-18 23:02:27.48	62.02	25.55	
2025-01-18 23:02:27.68	62.07	25.56	
2025-01-18 23:02:27.89	62.13	25.58	
2025-01-18 23:02:28.09	62.18	25.59	
2025-01-18 23:02:28.29	62.23	25.61	
2025-01-18 23:02:28.50	62.29	25.62	
2025-01-18 23:02:28.70	62.34	25.64	
2025-01-18 23:02:28.90	62.39	25.66	
2025-01-18 23:02:29.11	62.45	25.67	
2025-01-18 23:02:29.31	62.50	25.69	
2025-01-18 23:02:29.51	62.55	25.70	
2025-01-18 23:02:29.71	62.60	25.72	
2025-01-18 23:02:29.92	62.66	25.73	
2025-01-18 23:02:30.12	62.71	25.75	
2025-01-18 23:02:30.32	62.76	25.77	
2025-01-18 23:02:30.53	62.82	25.78	
2025-01-18 23:02:30.73	62.87	25.80	
2025-01-18 23:02:30.93	62.93	25.81	
2025-01-18 23:02:31.14	62.98	25.83	
2025-01-18 23:02:31.34	63.03	25.84	
2025-01-18 23:02:31.54	63.09	25.86	
2025-01-18 23:02:31.75	63.14	25.87	
2025-01-18 23:02:31.95	63.20	25.89	
2025-01-18 23:02:32.15	63.25	25.91	
2025-01-18 23:02:32.35	63.30	25.92	
2025-01-18 23:02:32.56	63.36	25.94	
2025-01-18 23:02:32.76	63.41	25.95	
2025-01-18 23:02:32.96	63.47	25.97	
2025-01-18 23:02:33.17	63.52	25.98	
2025-01-18 23:02:33.37	63.58	26.00	
2025-01-18 23:02:33.57	63.63	26.01	
2025-01-18 23:02:33.78	63.69	26.03	
2025-01-18 23:02:33.98	63.74	26.04	
2025-01-18 23:02:34.18	63.79	26.06	
2025-01-18 23:02:34.39	63.85	26.07	
2025-01-18 23:02:34.59	63.91	26.09	
2025-01-18 23:02:34.79	63.96	26.10	
2025-01-18 23:02:34.99	64.01	26.12	
2025-01-18 23:02:35.20	64.07	26.14	
2025-01-18 23:02:35.40	64.12	26.15	
2025-01-18 23:02:35.60	64.18	26.17	
2025-01-18 23:02:35.81	64.24	26.18	
2025-01-18 23:02:36.01	64.29	26.20	
2025-01-18 23:02:36.21	64.34	26.21	
2025-01-18 23:02:36.42	64.40	26.23	
2025-01-18 23:02:36.62	64.46	26.24	
2025-01-18 23:02:36.82	64.51	26.26	
2025-01-18 23:02:37.03	64.57	26.27	
2025-01-18 23:02:37.23	64.62	26.29	
2025-01-18 23:02:37.43	64.68	26.30	
2025-01-18 23:02:37.63	64.73	26.32	
2025-01-18 23:02:37.84	64.79	26.33	
2025-01-18 23:02:38.04	64.84	26.35	
2025-01-18 23:02:38.24	64.90	26.36	
2025-01-18 23:02:38.45	64.96	26.38	
2025-01-18 23:02:38.65	65.01	26.39	
2025-01-18 23:02:38.85	65.07	26.41	
2025-01-18 23:02:39.06	65.12	26.42	
2025-01-18 23:02:39.26	65.18	26.44	
2025-01-18 23:02:39.46	65.23	26.45	
2025-01-18 23:02:39.66	65.29	26.46	
2025-01-18 23:02:39.87	65.35	26.48	
2025-01-18 23:02:40.07	65.40	26.49	
2025-01-18 23:02:40.27	65.46	26.51	
2025-01-18 23:02:40.48	65.52	26.52	
2025-01-18 23:02:40.68	65.57	26.54	
2025-01-18 23:02:40.88	65.63	26.55	
2025-01-18 23:02:41.09	65.69	26.57	
2025-01-18 23:02:41.29	65.74	26.58	
2025-01-18 23:02:41.49	65.80	26.60	
2025-01-18 23:02:41.70	65.86	26.61	
2025-01-18 23:02:41.90	65.91	26.63	
2025-01-18 23:02:42.10	65.97	26.64	
2025-01-18 23:02:42.30	66.02	26.65	
2025-01-18 23:02:42.51	66.08	26.67	
2025-01-18 23:02:42.71	66.14	26.68	
2025-01-18 23:02:42.91	66.19	26.70	
2025-01-18 23:02:43.12	66.25	26.71	
2025-01-18 23:02:43.32	66.31	26.73	
2025-01-18 23:02:43.52	66.37	26.74	
2025-01-18 23:02:43.73	66.42	26.76	
2025-01-18 23:02:43.93	66.48	26.77	
2025-01-18 23:02:44.13	66.54	26.78	
2025-01-18 23:02:44.34	66.60	26.80	
2025-01-18 23:02:44.54	66.65	26.81	
2025-01-18 23:02:44.74	66.71	26.83	
2025-01-18 23:02:44.94	66.77	26.84	
2025-01-18 23:02:45.15	66.82	26.86	
2025-01-18 23:02:45.35	66.88	26.87	
2025-01-18 23:02:45.55	66.94	26.88	
2025-01-18 23:02:45.76	67.00	26.90	
2025-01-18 23:02:45.96	67.05	26.91	
2025-01-18 23:02:46.16	67.11	26.93	
2025-01-18 23:02:46.37	67.17	26.94	
2025-01-18 23:02:46.57	67.23	26.95	
2025-01-18 23:02:46.77	67.28	26.97	
2025-01-18 23:02:46.98	67.34	26.98	
2025-01-18 23:02:47.18	67.40	27.00	
2025-01-18 23:02:47.38	67.46	27.01	
2025-01-18 23:02:47.58	67.52	27.02	
2025-01-18 23:02:47.79	67.58	27.04	
2025-01-18 23:02:47.99	67.63	27.05	
2025-01-18 23:02:48.19	67.69	27.07	
2025-01-18 23:02:48.40	67.75	27.08	
2025-01-18 23:02:48.60	67.81	27.09	
2025-01-18 23:02:48.80	67.87	27.11	
2025-01-18 23:02:49.01	67.93	27.12	
2025-01-18 23:02:49.21	67.98	27.13	
2025-01-18 23:02:49.41	68.04	27.15	
2025-01-18 23:02:49.62	68.10	27.16	
2025-01-18 23:02:49.82	68.16	27.18	
2025-01-18 23:02:50.02	68.22	27.19	
2025-01-18 23:02:50.22	68.28	27.20	
2025-01-18 23:02:50.43	68.34	27.22	
2025-01-18 23:02:50.63	68.39	27.23	
2025-01-18 23:02:50.83	68.45	27.24	
2025-01-18 23:02:51.04	68.51	27.26	
2025-01-18 23:02:51.24	68.57	27.27	
2025-01-18 23:02:51.44	68.63	27.28	
2025-01-18 23:02:51.65	68.69	27.30	
2025-01-18 23:02:51.85	68.75	27.31	
2025-01-18 23:02:52.05	68.81	27.32	
2025-01-18 23:02:52.26	68.87	27.34	
2025-01-18 23:02:52.46	68.93	27.35	
2025-01-18 23:02:52.66	68.98	27.36	
2025-01-18 23:02:52.86	69.04	27.38	
2025-01-18 23:02:53.07	69.10	27.39	
2025-01-18 23:02:53.27	69.16	27.40	
2025-01-18 23:02:53.47	69.22	27.42	
2025-01-18 23:02:53.68	69.28	27.43	
2025-01-18 23:02:53.88	69.34	27.44	
2025-01-18 23:02:54.08	69.40	27.46	
2025-01-18 23:02:54.29	69.46	27.47	
2025-01-18 23:02:54.49	69.52	27.48	
2025-01-18 23:02:54.69	69.58	27.49	
2025-01-18 23:02:54.90	69.64	27.51	
2025-01-18 23:02:55.10	69.70	27.52	
2025-01-18 23:02:55.30	69.76	27.53	
2025-01-18 23:02:55.50	69.82	27.55	
2025-01-18 23:02:55.71	69.88	27.56	
2025-01-18 23:02:55.91	69.94	27.57	
2025-01-18 23:02:56.11	70.00	27.59	
2025-01-18 23:02:56.32	70.06	27.60	
2025-01-18 23:02:56.52	70.12	27.61	
2025-01-18 23:02:56.72	70.18	27.62	
2025-01-18 23:02:56.93	70.24	27.64	
2025-01-18 23:02:57.13	70.30	27.65	
2025-01-18 23:02:57.33	70.36	27.66	
2025-01-18 23:02:57.53	70.42	27.67	
2025-01-18 23:02:57.74	70.48	27.69	
2025-01-18 23:02:57.94	70.54	27.70	
2025-01-18 23:02:58.14	70.60	27.71	
2025-01-18 23:02:58.35	70.66	27.72	
2025-01-18 23:02:58.55	70.72	27.74	
2025-01-18 23:02:58.75	70.78	27.75	
2025-01-18 23:02:58.96	70.85	27.76	
2025-01-18 23:02:59.16	70.91	27.77	
2025-01-18 23:02:59.36	70.97	27.79	
2025-01-18 23:02:59.57	71.03	27.80	
2025-01-18 23:02:59.77	71.09	27.81	
2025-01-18 23:02:59.97	71.15	27.82	
2025-01-18 23:03:00.17	71.21	27.84	
2025-01-18 23:03:00.38	71.27	27.85	
2025-01-18 23:03:00.58	71.33	27.86	
2025-01-18 23:03:00.78	71.39	27.87	
2025-01-18 23:03:00.99	71.46	27.89	
2025-01-18 23:03:01.19	71.52	27.90	
2025-01-18 23:03:01.39	71.58	27.91	
2025-01-18 23:03:01.60	71.64	27.92	
2025-01-18 23:03:01.80	71.70	27.93	
2025-01-18 23:03:02.00	71.76	27.95	
2025-01-18 23:03:02.21	71.83	27.96	
2025-01-18 23:03:02.41	71.89	27.97	
2025-01-18 23:03:02.61	71.95	27.98	
2025-01-18 23:03:02.81	72.01	27.99	
2025-01-18 23:03:03.02	72.07	28.01	
2025-01-18 23:03:03.22	72.13	28.02	
2025-01-18 23:03:03.42	72.19	28.03	
2025-01-18 23:03:03.63	72.26	28.04	
2025-01-18 23:03:03.83	72.32	28.05	
2025-01-18 23:03:04.03	72.38	28.06	
2025-01-18 23:03:04.24	72.44	28.08	
2025-01-18 23:03:04.44	72.50	28.09	
2025-01-18 23:03:04.64	72.57	28.10	
2025-01-18 23:03:04.85	72.63	28.11	
2025-01-18 23:03:05.05	72.69	28.12	
2025-01-18 23:03:05.25	72.75	28.13	
2025-01-18 23:03:05.45	72.81	28.14	
2025-01-18 23:03:05.66	72.88	28.16	
2025-01-18 23:03:05.86	72.94	28.17	
2025-01-18 23:03:06.06	73.00	28.18	
2025-01-18 23:03:06.27	73.06	28.19	
2025-01-18 23:03:06.47	73.13	28.20	
2025-01-18 23:03:06.67	73.19	28.21	
2025-01-18 23:03:06.88	73.25	28.22	
2025-01-18 23:03:07.08	73.31	28.24	
2025-01-18 23:03:07.28	73.38	28.25	
2025-01-18 23:03:07.49	73.44	28.26	
2025-01-18 23:03:07.69	73.50	28.27	
2025-01-18 23:03:07.89	73.56	28.28	
2025-01-18 23:03:08.09	73.63	28.29	
2025-01-18 23:03:08.30	73.69	28.30	
2025-01-18 23:03:08.50	73.75	28.31	
2025-01-18 23:03:08.70	73.81	28.32	
2025-01-18 23:03:08.91	73.88	28.34	
2025-01-18 23:03:09.11	73.94	28.35	
2025-01-18 23:03:09.31	74.00	28.36	
2025-01-18 23:03:09.52	74.07	28.37	
2025-01-18 23:03:09.72	74.13	28.38	
2025-01-18 23:03:09.92	74.19	28.39	
2025-01-18 23:03:10.13	74.26	28.40	
2025-01-18 23:03:10.33	74.32	28.41	
2025-01-18 23:03:10.53	74.38	28.42	
2025-01-18 23:03:10.73	74.45	28.43	
2025-01-18 23:03:10.94	74.51	28.44	
2025-01-18 23:03:11.14	74.57	28.45	
2025-01-18 23:03:11.34	74.64	28.46	
2025-01-18 23:03:11.55	74.70	28.48	
2025-01-18 23:03:11.75	74.76	28.49	
2025-01-18 23:03:11.95	74.83	28.50	
2025-01-18 23:03:12.16	74.89	28.51	
2025-01-18 23:03:12.36	74.96	28.52	
2025-01-18 23:03:12.56	75.02	28.53	
2025-01-18 23:03:12.76	75.08	28.54	
2025-01-18 23:03:12.97	75.15	28.55	
2025-01-18 23:03:13.17	75.21	28.56	
2025-01-18 23:03:13.37	75.27	28.57	
2025-01-18 23:03:13.58	75.34	28.58	
2025-01-18 23:03:13.78	75.40	28.59	
2025-01-18 23:03:13.98	75.47	28.60	
2025-01-18 23:03:14.19	75.53	28.61	
2025-01-18 23:03:14.39	75.59	28.62	
2025-01-18 23:03:14.59	75.66	28.63	
2025-01-18 23:03:14.80	75.72	28.64	
2025-01-18 23:03:15.00	75.79	28.65	
2025-01-18 23:03:15.20	75.85	28.66	
2025-01-18 23:03:15.40	75.91	28.67	
2025-01-18 23:03:15.61	75.98	28.68	
2025-01-18 23:03:15.81	76.04	28.69	
2025-01-18 23:03:16.01	76.11	28.70	
2025-01-18 23:03:16.22	76.17	28.71	
2025-01-18 23:03:16.42	76.24	28.72	
2025-01-18 23:03:16.62	76.30	28.73	
2025-01-18 23:03:16.83	76.37	28.74	
2025-01-18 23:03:17.03	76.43	28.75	
2025-01-18 23:03:17.23	76.49	28.76	
2025-01-18 23:03:17.44	76.56	28.77	
2025-01-18 23:03:17.64	76.63	28.78	
2025-01-18 23:03:17.84	76.69	28.78	
2025-01-18 23:03:18.04	76.75	28.79	
2025-01-18 23:03:18.25	76.82	28.80	
2025-01-18 23:03:18.45	76.88	28.81	
2025-01-18 23:03:18.65	76.95	28.82	
2025-01-18 23:03:18.86	77.01	28.83	
2025-01-18 23:03:19.06	77.08	28.84	
2025-01-18 23:03:19.26	77.14	28.85	
2025-01-18 23:03:19.47	77.21	28.86	
2025-01-18 23:03:19.67	77.27	28.87	
2025-01-18 23:03:19.87	77.34	28.88	
2025-01-18 23:03:20.08	77.41	28.89	
2025-01-18 23:03:20.28	77.47	28.90	
2025-01-18 23:03:20.48	77.53	28.90	
2025-01-18 23:03:20.68	77.60	28.91	
2025-01-18 23:03:20.89	77.67	28.92	
2025-01-18 23:03:21.09	77.73	28.93	
2025-01-18 23:03:21.29	77.79	28.94	
2025-01-18 23:03:21.50	77.86	28.95	
2025-01-18 23:03:21.70	77.93	28.96	
2025-01-18 23:03:21.90	77.99	28.97	
2025-01-18 23:03:22.11	78.06	28.98	
2025-01-18 23:03:22.31	78.12	28.98	
2025-01-18 23:03:22.51	78.19	28.99	
2025-01-18 23:03:22.72	78.26	29.00	
2025-01-18 23:03:22.92	78.32	29.01	
2025-01-18 23:03:23.12	78.38	29.02	
2025-01-18 23:03:23.32	78.45	29.03	
2025-01-18 23:03:23.53	78.52	29.04	
2025-01-18 23:03:23.73	78.58	29.04	
2025-01-18 23:03:23.93	78.65	29.05	
2025-01-18 23:03:24.14	78.72	29.06	
2025-01-18 23:03:24.34	78.78	29.07	
2025-01-18 23:03:24.54	78.84	29.08	
2025-01-18 23:03:24.75	78.91	29.09	
2025-01-18 23:03:24.95	78.98	29.09	
2025-01-18 23:03:25.15	79.04	29.10	
2025-01-18 23:03:25.36	79.11	29.11	
2025-01-18 23:03:25.56	79.18	29.12	
2025-01-18 23:03:25.76	79.24	29.13	
2025-01-18 23:03:25.96	79.31	29.13	
2025-01-18 23:03:26.17	79.38	29.14	
2025-01-18 23:03:26.37	79.44	29.15	
2025-01-18 23:03:26.57	79.51	29.16	
2025-01-18 23:03:26.78	79.57	29.17	
2025-01-18 23:03:26.98	79.64	29.17	
2025-01-18 23:03:27.18	79.70	29.18	
2025-01-18 23:03:27.39	79.77	29.19	
2025-01-18 23:03:27.59	79.84	29.20	
2025-01-18 23:03:27.79	79.90	29.20	
2025-01-18 23:03:27.99	79.97	29.21	
2025-01-18 23:03:28.20	80.04	29.22	
2025-01-18 23:03:28.40	80.10	29.23	
2025-01-18 23:03:28.60	80.17	29.23	
2025-01-18 23:03:28.81	80.24	29.24	
2025-01-18 23:03:29.01	80.30	29.25	
2025-01-18 23:03:29.21	80.37	29.26	
