passes_logs/2025/01/18/SPB_Silybum_02/SPB_Silybum_02__20250118_175656_TERRA_rec.log

#Pass ID: 20250118_175656_TERRA
#Satellite: TERRA
#Configuration: TERRA
#Start time: 2025-01-18 17:56:56

#Version: 2.0.20230423
#Station: SPB_Silybum_02
#Location: 30.233357 lon 59.946436 lat
#TLE: 1 25994U 99068A   25017.80257355  .00000903  00000+0  19577-3 0  9994
#TLE: 2 25994  98.0211  80.7437 0003372  66.8373  47.3878 14.60400955334482

#Time	Az	El	Level	Level2	SNR	BER	Gain	Gain2
2025-01-18 17:56:58.67	143.73	4.19	
2025-01-18 17:56:58.88	143.73	4.21	
2025-01-18 17:56:59.08	143.72	4.22	
2025-01-18 17:56:59.28	143.72	4.23	
2025-01-18 17:56:59.49	143.71	4.25	
2025-01-18 17:56:59.69	143.70	4.26	
2025-01-18 17:56:59.89	143.70	4.28	
2025-01-18 17:57:00.10	143.69	4.29	
2025-01-18 17:57:00.30	143.69	4.31	
2025-01-18 17:57:00.50	143.68	4.32	
2025-01-18 17:57:00.70	143.68	4.34	
2025-01-18 17:57:00.91	143.67	4.35	
2025-01-18 17:57:01.11	143.66	4.37	
2025-01-18 17:57:01.31	143.66	4.38	
2025-01-18 17:57:01.52	143.65	4.40	
2025-01-18 17:57:01.72	143.65	4.41	
2025-01-18 17:57:01.92	143.64	4.42	
2025-01-18 17:57:02.13	143.64	4.44	
2025-01-18 17:57:02.33	143.63	4.45	
2025-01-18 17:57:02.53	143.62	4.47	
2025-01-18 17:57:02.73	143.62	4.48	
2025-01-18 17:57:02.94	143.61	4.50	
2025-01-18 17:57:03.14	143.61	4.51	
2025-01-18 17:57:03.34	143.60	4.53	
2025-01-18 17:57:03.55	143.60	4.54	
2025-01-18 17:57:03.75	143.59	4.56	
2025-01-18 17:57:03.95	143.58	4.57	
2025-01-18 17:57:04.16	143.58	4.59	
2025-01-18 17:57:04.36	143.57	4.60	
2025-01-18 17:57:04.56	143.57	4.62	
2025-01-18 17:57:04.77	143.56	4.63	
2025-01-18 17:57:04.97	143.56	4.65	
2025-01-18 17:57:05.17	143.55	4.66	
2025-01-18 17:57:05.37	143.54	4.68	
2025-01-18 17:57:05.58	143.54	4.69	
2025-01-18 17:57:05.78	143.53	4.71	
2025-01-18 17:57:05.98	143.53	4.72	
2025-01-18 17:57:06.19	143.52	4.74	
2025-01-18 17:57:06.39	143.51	4.75	
2025-01-18 17:57:06.59	143.51	4.77	
2025-01-18 17:57:06.80	143.50	4.78	
2025-01-18 17:57:07.00	143.50	4.80	
2025-01-18 17:57:07.20	143.49	4.81	
2025-01-18 17:57:07.41	143.48	4.83	
2025-01-18 17:57:07.61	143.48	4.84	
2025-01-18 17:57:07.81	143.47	4.85	
2025-01-18 17:57:08.01	143.47	4.87	
2025-01-18 17:57:08.22	143.46	4.88	
2025-01-18 17:57:08.42	143.46	4.90	
2025-01-18 17:57:08.62	143.45	4.91	
2025-01-18 17:57:08.83	143.44	4.93	
2025-01-18 17:57:09.03	143.44	4.94	
2025-01-18 17:57:09.23	143.43	4.96	
2025-01-18 17:57:09.44	143.43	4.98	
2025-01-18 17:57:09.64	143.42	4.99	
2025-01-18 17:57:09.84	143.41	5.00	
2025-01-18 17:57:10.05	143.41	5.02	
2025-01-18 17:57:10.25	143.40	5.04	
2025-01-18 17:57:10.45	143.40	5.05	
2025-01-18 17:57:10.65	143.39	5.06	
2025-01-18 17:57:10.86	143.38	5.08	
2025-01-18 17:57:11.06	143.38	5.10	
2025-01-18 17:57:11.26	143.37	5.11	
2025-01-18 17:57:11.47	143.37	5.13	
2025-01-18 17:57:11.67	143.36	5.14	
2025-01-18 17:57:11.87	143.35	5.16	
2025-01-18 17:57:12.08	143.35	5.17	
2025-01-18 17:57:12.28	143.34	5.19	
2025-01-18 17:57:12.48	143.33	5.20	
2025-01-18 17:57:12.69	143.33	5.22	
2025-01-18 17:57:12.89	143.32	5.23	
2025-01-18 17:57:13.09	143.32	5.25	
2025-01-18 17:57:13.29	143.31	5.26	
2025-01-18 17:57:13.50	143.30	5.28	
2025-01-18 17:57:13.70	143.30	5.29	
2025-01-18 17:57:13.90	143.29	5.31	
2025-01-18 17:57:14.11	143.29	5.32	
2025-01-18 17:57:14.31	143.28	5.34	
2025-01-18 17:57:14.51	143.27	5.35	
2025-01-18 17:57:14.72	143.27	5.37	
2025-01-18 17:57:14.92	143.26	5.38	
2025-01-18 17:57:15.12	143.26	5.40	
2025-01-18 17:57:15.33	143.25	5.41	
2025-01-18 17:57:15.53	143.24	5.43	
2025-01-18 17:57:15.73	143.24	5.44	
2025-01-18 17:57:15.93	143.23	5.46	
2025-01-18 17:57:16.14	143.22	5.48	
2025-01-18 17:57:16.34	143.22	5.49	
2025-01-18 17:57:16.54	143.21	5.51	
2025-01-18 17:57:16.75	143.21	5.52	
2025-01-18 17:57:16.95	143.20	5.54	
2025-01-18 17:57:17.15	143.19	5.55	
2025-01-18 17:57:17.36	143.19	5.57	
2025-01-18 17:57:17.56	143.18	5.58	
2025-01-18 17:57:17.76	143.17	5.60	
2025-01-18 17:57:17.96	143.17	5.61	
2025-01-18 17:57:18.17	143.16	5.63	
2025-01-18 17:57:18.37	143.15	5.64	
2025-01-18 17:57:18.57	143.15	5.66	
2025-01-18 17:57:18.78	143.14	5.68	
2025-01-18 17:57:18.98	143.14	5.69	
2025-01-18 17:57:19.18	143.13	5.71	
2025-01-18 17:57:19.39	143.12	5.72	
2025-01-18 17:57:19.59	143.12	5.74	
2025-01-18 17:57:19.79	143.11	5.75	
2025-01-18 17:57:20.00	143.10	5.77	
2025-01-18 17:57:20.20	143.10	5.78	
2025-01-18 17:57:20.40	143.09	5.80	
2025-01-18 17:57:20.60	143.09	5.81	
2025-01-18 17:57:20.81	143.08	5.83	
2025-01-18 17:57:21.01	143.07	5.85	
2025-01-18 17:57:21.21	143.07	5.86	
2025-01-18 17:57:21.42	143.06	5.88	
2025-01-18 17:57:21.62	143.05	5.89	
2025-01-18 17:57:21.82	143.05	5.91	
2025-01-18 17:57:22.03	143.04	5.92	
2025-01-18 17:57:22.23	143.03	5.94	
2025-01-18 17:57:22.43	143.03	5.96	
2025-01-18 17:57:22.64	143.02	5.97	
2025-01-18 17:57:22.84	143.01	5.99	
2025-01-18 17:57:23.04	143.01	6.00	
2025-01-18 17:57:23.24	143.00	6.02	
2025-01-18 17:57:23.45	142.99	6.03	
2025-01-18 17:57:23.65	142.99	6.05	
2025-01-18 17:57:23.85	142.98	6.06	
2025-01-18 17:57:24.06	142.97	6.08	
2025-01-18 17:57:24.26	142.97	6.10	
2025-01-18 17:57:24.46	142.96	6.11	
2025-01-18 17:57:24.67	142.96	6.13	
2025-01-18 17:57:24.87	142.95	6.14	
2025-01-18 17:57:25.07	142.94	6.16	
2025-01-18 17:57:25.28	142.94	6.18	
2025-01-18 17:57:25.48	142.93	6.19	
2025-01-18 17:57:25.68	142.92	6.21	
2025-01-18 17:57:25.88	142.92	6.22	
2025-01-18 17:57:26.09	142.91	6.24	
2025-01-18 17:57:26.29	142.90	6.25	
2025-01-18 17:57:26.49	142.90	6.27	
2025-01-18 17:57:26.70	142.89	6.29	
2025-01-18 17:57:26.90	142.88	6.30	
2025-01-18 17:57:27.10	142.88	6.32	
2025-01-18 17:57:27.31	142.87	6.33	
2025-01-18 17:57:27.51	142.86	6.35	
2025-01-18 17:57:27.71	142.86	6.37	
2025-01-18 17:57:27.92	142.85	6.38	
2025-01-18 17:57:28.12	142.84	6.40	
2025-01-18 17:57:28.32	142.84	6.41	
2025-01-18 17:57:28.52	142.83	6.43	
2025-01-18 17:57:28.73	142.82	6.45	
2025-01-18 17:57:28.93	142.82	6.46	
2025-01-18 17:57:29.13	142.81	6.48	
2025-01-18 17:57:29.34	142.80	6.49	
2025-01-18 17:57:29.54	142.80	6.51	
2025-01-18 17:57:29.74	142.79	6.52	
2025-01-18 17:57:29.95	142.78	6.54	
2025-01-18 17:57:30.15	142.77	6.56	
2025-01-18 17:57:30.35	142.77	6.57	
2025-01-18 17:57:30.56	142.76	6.59	
2025-01-18 17:57:30.76	142.75	6.61	
2025-01-18 17:57:30.96	142.75	6.62	
2025-01-18 17:57:31.16	142.74	6.64	
2025-01-18 17:57:31.37	142.73	6.65	
2025-01-18 17:57:31.57	142.73	6.67	
2025-01-18 17:57:31.77	142.72	6.69	
2025-01-18 17:57:31.98	142.71	6.70	
2025-01-18 17:57:32.18	142.71	6.72	
2025-01-18 17:57:32.38	142.70	6.73	
2025-01-18 17:57:32.59	142.69	6.75	
2025-01-18 17:57:32.79	142.69	6.77	
2025-01-18 17:57:32.99	142.68	6.78	
2025-01-18 17:57:33.19	142.67	6.80	
2025-01-18 17:57:33.40	142.66	6.81	
2025-01-18 17:57:33.60	142.66	6.83	
2025-01-18 17:57:33.80	142.65	6.85	
2025-01-18 17:57:34.01	142.64	6.86	
2025-01-18 17:57:34.21	142.64	6.88	
2025-01-18 17:57:34.41	142.63	6.90	
2025-01-18 17:57:34.62	142.62	6.91	
2025-01-18 17:57:34.82	142.62	6.93	
2025-01-18 17:57:35.02	142.61	6.94	
2025-01-18 17:57:35.23	142.60	6.96	
2025-01-18 17:57:35.43	142.59	6.98	
2025-01-18 17:57:35.63	142.59	6.99	
2025-01-18 17:57:35.83	142.58	7.01	
2025-01-18 17:57:36.04	142.57	7.03	
2025-01-18 17:57:36.24	142.57	7.04	
2025-01-18 17:57:36.44	142.56	7.06	
2025-01-18 17:57:36.65	142.55	7.08	
2025-01-18 17:57:36.85	142.55	7.09	
2025-01-18 17:57:37.05	142.54	7.11	
2025-01-18 17:57:37.26	142.53	7.12	
2025-01-18 17:57:37.46	142.52	7.14	
2025-01-18 17:57:37.66	142.52	7.16	
2025-01-18 17:57:37.87	142.51	7.17	
2025-01-18 17:57:38.07	142.50	7.19	
2025-01-18 17:57:38.27	142.50	7.21	
2025-01-18 17:57:38.47	142.49	7.22	
2025-01-18 17:57:38.68	142.48	7.24	
2025-01-18 17:57:38.88	142.47	7.26	
2025-01-18 17:57:39.08	142.47	7.27	
2025-01-18 17:57:39.29	142.46	7.29	
2025-01-18 17:57:39.49	142.45	7.31	
2025-01-18 17:57:39.69	142.45	7.32	
2025-01-18 17:57:39.90	142.44	7.34	
2025-01-18 17:57:40.10	142.43	7.36	
2025-01-18 17:57:40.30	142.42	7.37	
2025-01-18 17:57:40.51	142.42	7.39	
2025-01-18 17:57:40.71	142.41	7.41	
2025-01-18 17:57:40.91	142.40	7.42	
2025-01-18 17:57:41.11	142.39	7.44	
2025-01-18 17:57:41.32	142.39	7.46	
2025-01-18 17:57:41.52	142.38	7.47	
2025-01-18 17:57:41.72	142.37	7.49	
2025-01-18 17:57:41.93	142.37	7.51	
2025-01-18 17:57:42.13	142.36	7.52	
2025-01-18 17:57:42.33	142.35	7.54	
2025-01-18 17:57:42.54	142.34	7.56	
2025-01-18 17:57:42.74	142.34	7.57	
2025-01-18 17:57:42.94	142.33	7.59	
2025-01-18 17:57:43.15	142.32	7.61	
2025-01-18 17:57:43.35	142.31	7.62	
2025-01-18 17:57:43.55	142.31	7.64	
2025-01-18 17:57:43.75	142.30	7.66	
2025-01-18 17:57:43.96	142.29	7.67	
2025-01-18 17:57:44.16	142.28	7.69	
2025-01-18 17:57:44.36	142.28	7.71	
2025-01-18 17:57:44.57	142.27	7.72	
2025-01-18 17:57:44.77	142.26	7.74	
2025-01-18 17:57:44.97	142.25	7.76	
2025-01-18 17:57:45.18	142.25	7.77	
2025-01-18 17:57:45.38	142.24	7.79	
2025-01-18 17:57:45.58	142.23	7.81	
2025-01-18 17:57:45.79	142.22	7.82	
2025-01-18 17:57:45.99	142.22	7.84	
2025-01-18 17:57:46.19	142.21	7.86	
2025-01-18 17:57:46.39	142.20	7.87	
2025-01-18 17:57:46.60	142.19	7.89	
2025-01-18 17:57:46.80	142.19	7.91	
2025-01-18 17:57:47.00	142.18	7.93	
2025-01-18 17:57:47.21	142.17	7.94	
2025-01-18 17:57:47.41	142.16	7.96	
2025-01-18 17:57:47.61	142.16	7.98	
2025-01-18 17:57:47.82	142.15	7.99	
2025-01-18 17:57:48.02	142.14	8.01	
2025-01-18 17:57:48.22	142.13	8.03	
2025-01-18 17:57:48.42	142.13	8.04	
2025-01-18 17:57:48.63	142.12	8.06	
2025-01-18 17:57:48.83	142.11	8.08	
2025-01-18 17:57:49.03	142.10	8.10	
2025-01-18 17:57:49.24	142.09	8.11	
2025-01-18 17:57:49.44	142.09	8.13	
2025-01-18 17:57:49.64	142.08	8.15	
2025-01-18 17:57:49.85	142.07	8.16	
2025-01-18 17:57:50.05	142.06	8.18	
2025-01-18 17:57:50.25	142.06	8.20	
2025-01-18 17:57:50.46	142.05	8.22	
2025-01-18 17:57:50.66	142.04	8.23	
2025-01-18 17:57:50.86	142.03	8.25	
2025-01-18 17:57:51.06	142.02	8.27	
2025-01-18 17:57:51.27	142.02	8.29	
2025-01-18 17:57:51.47	142.01	8.30	
2025-01-18 17:57:51.67	142.00	8.32	
2025-01-18 17:57:51.88	141.99	8.34	
2025-01-18 17:57:52.08	141.99	8.35	
2025-01-18 17:57:52.28	141.98	8.37	
2025-01-18 17:57:52.49	141.97	8.39	
2025-01-18 17:57:52.69	141.96	8.41	
2025-01-18 17:57:52.89	141.95	8.42	
2025-01-18 17:57:53.10	141.95	8.44	
2025-01-18 17:57:53.30	141.94	8.46	
2025-01-18 17:57:53.50	141.93	8.48	
2025-01-18 17:57:53.70	141.92	8.49	
2025-01-18 17:57:53.91	141.91	8.51	
2025-01-18 17:57:54.11	141.91	8.53	
2025-01-18 17:57:54.31	141.90	8.54	
2025-01-18 17:57:54.52	141.89	8.56	
2025-01-18 17:57:54.72	141.88	8.58	
2025-01-18 17:57:54.92	141.87	8.60	
2025-01-18 17:57:55.13	141.87	8.62	
2025-01-18 17:57:55.33	141.86	8.63	
2025-01-18 17:57:55.53	141.85	8.65	
2025-01-18 17:57:55.74	141.84	8.67	
2025-01-18 17:57:55.94	141.83	8.68	
2025-01-18 17:57:56.14	141.83	8.70	
2025-01-18 17:57:56.34	141.82	8.72	
2025-01-18 17:57:56.55	141.81	8.74	
2025-01-18 17:57:56.75	141.80	8.75	
2025-01-18 17:57:56.95	141.79	8.77	
2025-01-18 17:57:57.16	141.79	8.79	
2025-01-18 17:57:57.36	141.78	8.81	
2025-01-18 17:57:57.56	141.77	8.83	
2025-01-18 17:57:57.77	141.76	8.84	
2025-01-18 17:57:57.97	141.75	8.86	
2025-01-18 17:57:58.17	141.75	8.88	
2025-01-18 17:57:58.38	141.74	8.90	
2025-01-18 17:57:58.58	141.73	8.91	
2025-01-18 17:57:58.78	141.72	8.93	
2025-01-18 17:57:58.98	141.71	8.95	
2025-01-18 17:57:59.19	141.70	8.97	
2025-01-18 17:57:59.39	141.70	8.98	
2025-01-18 17:57:59.59	141.69	9.00	
2025-01-18 17:57:59.80	141.68	9.02	
2025-01-18 17:58:00.00	141.67	9.04	
2025-01-18 17:58:00.22	141.66	9.06	
2025-01-18 17:58:00.42	141.65	9.07	
2025-01-18 17:58:00.62	141.65	9.09	
2025-01-18 17:58:00.83	141.64	9.11	
2025-01-18 17:58:01.03	141.63	9.13	
2025-01-18 17:58:01.23	141.62	9.15	
2025-01-18 17:58:01.44	141.61	9.16	
2025-01-18 17:58:01.64	141.60	9.18	
2025-01-18 17:58:01.84	141.60	9.20	
2025-01-18 17:58:02.05	141.59	9.22	
2025-01-18 17:58:02.25	141.58	9.24	
2025-01-18 17:58:02.45	141.57	9.25	
2025-01-18 17:58:02.66	141.56	9.27	
2025-01-18 17:58:02.86	141.55	9.29	
2025-01-18 17:58:03.06	141.54	9.31	
2025-01-18 17:58:03.26	141.54	9.33	
2025-01-18 17:58:03.47	141.53	9.34	
2025-01-18 17:58:03.67	141.52	9.36	
2025-01-18 17:58:03.87	141.51	9.38	
2025-01-18 17:58:04.08	141.50	9.40	
2025-01-18 17:58:04.28	141.49	9.42	
2025-01-18 17:58:04.48	141.49	9.43	
2025-01-18 17:58:04.69	141.48	9.45	
2025-01-18 17:58:04.89	141.47	9.47	
2025-01-18 17:58:05.09	141.46	9.49	
2025-01-18 17:58:05.30	141.45	9.51	
2025-01-18 17:58:05.50	141.44	9.53	
2025-01-18 17:58:05.70	141.43	9.54	
2025-01-18 17:58:05.90	141.42	9.56	
2025-01-18 17:58:06.11	141.42	9.58	
2025-01-18 17:58:06.31	141.41	9.60	
2025-01-18 17:58:06.51	141.40	9.62	
2025-01-18 17:58:06.72	141.39	9.63	
2025-01-18 17:58:06.92	141.38	9.65	
2025-01-18 17:58:07.12	141.37	9.67	
2025-01-18 17:58:07.33	141.36	9.69	
2025-01-18 17:58:07.53	141.36	9.71	
2025-01-18 17:58:07.73	141.35	9.73	
2025-01-18 17:58:07.93	141.34	9.74	
2025-01-18 17:58:08.14	141.33	9.76	
2025-01-18 17:58:08.34	141.32	9.78	
2025-01-18 17:58:08.54	141.31	9.80	
2025-01-18 17:58:08.75	141.30	9.82	
2025-01-18 17:58:08.95	141.29	9.84	
2025-01-18 17:58:09.15	141.29	9.85	
2025-01-18 17:58:09.36	141.28	9.87	
2025-01-18 17:58:09.56	141.27	9.89	
2025-01-18 17:58:09.76	141.26	9.91	
2025-01-18 17:58:09.97	141.25	9.93	
2025-01-18 17:58:10.17	141.24	9.95	
2025-01-18 17:58:10.37	141.23	9.97	
2025-01-18 17:58:10.57	141.22	9.98	
2025-01-18 17:58:10.78	141.21	10.00	
2025-01-18 17:58:10.98	141.20	10.02	
2025-01-18 17:58:11.18	141.20	10.04	
2025-01-18 17:58:11.39	141.19	10.06	
2025-01-18 17:58:11.59	141.18	10.08	
2025-01-18 17:58:11.79	141.17	10.10	
2025-01-18 17:58:12.00	141.16	10.11	
2025-01-18 17:58:12.20	141.15	10.13	
2025-01-18 17:58:12.40	141.14	10.15	
2025-01-18 17:58:12.61	141.13	10.17	
2025-01-18 17:58:12.81	141.12	10.19	
2025-01-18 17:58:13.01	141.11	10.21	
2025-01-18 17:58:13.21	141.11	10.23	
2025-01-18 17:58:13.42	141.10	10.25	
2025-01-18 17:58:13.62	141.09	10.26	
2025-01-18 17:58:13.82	141.08	10.28	
2025-01-18 17:58:14.03	141.07	10.30	
2025-01-18 17:58:14.23	141.06	10.32	
2025-01-18 17:58:14.43	141.05	10.34	
2025-01-18 17:58:14.64	141.04	10.36	
2025-01-18 17:58:14.84	141.03	10.38	
2025-01-18 17:58:15.04	141.02	10.40	
2025-01-18 17:58:15.25	141.01	10.41	
2025-01-18 17:58:15.45	141.00	10.43	
2025-01-18 17:58:15.65	141.00	10.45	
2025-01-18 17:58:15.85	140.99	10.47	
2025-01-18 17:58:16.06	140.98	10.49	
2025-01-18 17:58:16.26	140.97	10.51	
2025-01-18 17:58:16.46	140.96	10.53	
2025-01-18 17:58:16.67	140.95	10.55	
2025-01-18 17:58:16.87	140.94	10.57	
2025-01-18 17:58:17.07	140.93	10.58	
2025-01-18 17:58:17.28	140.92	10.60	
2025-01-18 17:58:17.48	140.91	10.62	
2025-01-18 17:58:17.68	140.90	10.64	
2025-01-18 17:58:17.89	140.89	10.66	
2025-01-18 17:58:18.09	140.88	10.68	
2025-01-18 17:58:18.29	140.87	10.70	
2025-01-18 17:58:18.49	140.86	10.72	
2025-01-18 17:58:18.70	140.85	10.74	
2025-01-18 17:58:18.90	140.85	10.76	
2025-01-18 17:58:19.10	140.84	10.78	
2025-01-18 17:58:19.31	140.83	10.80	
2025-01-18 17:58:19.51	140.82	10.81	
2025-01-18 17:58:19.71	140.81	10.83	
2025-01-18 17:58:19.92	140.80	10.85	
2025-01-18 17:58:20.12	140.79	10.87	
2025-01-18 17:58:20.32	140.78	10.89	
2025-01-18 17:58:20.53	140.77	10.91	
2025-01-18 17:58:20.73	140.76	10.93	
2025-01-18 17:58:20.93	140.75	10.95	
2025-01-18 17:58:21.13	140.74	10.97	
2025-01-18 17:58:21.34	140.73	10.99	
2025-01-18 17:58:21.54	140.72	11.01	
2025-01-18 17:58:21.74	140.71	11.03	
2025-01-18 17:58:21.95	140.70	11.05	
2025-01-18 17:58:22.15	140.69	11.07	
2025-01-18 17:58:22.35	140.68	11.08	
2025-01-18 17:58:22.56	140.67	11.10	
2025-01-18 17:58:22.76	140.66	11.12	
2025-01-18 17:58:22.96	140.65	11.14	
2025-01-18 17:58:23.17	140.64	11.16	
2025-01-18 17:58:23.37	140.63	11.18	
2025-01-18 17:58:23.57	140.62	11.20	
2025-01-18 17:58:23.77	140.61	11.22	
2025-01-18 17:58:23.98	140.60	11.24	
2025-01-18 17:58:24.18	140.59	11.26	
2025-01-18 17:58:24.38	140.58	11.28	
2025-01-18 17:58:24.59	140.57	11.30	
2025-01-18 17:58:24.79	140.56	11.32	
2025-01-18 17:58:24.99	140.55	11.34	
2025-01-18 17:58:25.20	140.54	11.36	
2025-01-18 17:58:25.40	140.53	11.38	
2025-01-18 17:58:25.60	140.52	11.40	
2025-01-18 17:58:25.80	140.51	11.42	
2025-01-18 17:58:26.01	140.50	11.44	
2025-01-18 17:58:26.21	140.49	11.46	
2025-01-18 17:58:26.41	140.48	11.48	
2025-01-18 17:58:26.62	140.47	11.50	
2025-01-18 17:58:26.82	140.46	11.52	
2025-01-18 17:58:27.02	140.45	11.54	
2025-01-18 17:58:27.23	140.44	11.56	
2025-01-18 17:58:27.43	140.43	11.58	
2025-01-18 17:58:27.63	140.42	11.60	
2025-01-18 17:58:27.84	140.41	11.62	
2025-01-18 17:58:28.04	140.40	11.64	
2025-01-18 17:58:28.24	140.39	11.66	
2025-01-18 17:58:28.44	140.38	11.67	
2025-01-18 17:58:28.65	140.37	11.70	
2025-01-18 17:58:28.85	140.36	11.72	
2025-01-18 17:58:29.05	140.35	11.73	
2025-01-18 17:58:29.26	140.34	11.76	
2025-01-18 17:58:29.46	140.33	11.78	
2025-01-18 17:58:29.66	140.32	11.79	
2025-01-18 17:58:29.87	140.31	11.82	
2025-01-18 17:58:30.07	140.30	11.84	
2025-01-18 17:58:30.27	140.29	11.86	
2025-01-18 17:58:30.48	140.28	11.88	
2025-01-18 17:58:30.68	140.27	11.90	
2025-01-18 17:58:30.88	140.26	11.92	
2025-01-18 17:58:31.08	140.25	11.94	
2025-01-18 17:58:31.29	140.24	11.96	
2025-01-18 17:58:31.49	140.23	11.98	
2025-01-18 17:58:31.69	140.22	12.00	
2025-01-18 17:58:31.90	140.21	12.02	
2025-01-18 17:58:32.10	140.20	12.04	
2025-01-18 17:58:32.30	140.19	12.06	
2025-01-18 17:58:32.51	140.18	12.08	
2025-01-18 17:58:32.71	140.17	12.10	
2025-01-18 17:58:32.91	140.16	12.12	
2025-01-18 17:58:33.12	140.14	12.14	
2025-01-18 17:58:33.32	140.13	12.16	
2025-01-18 17:58:33.52	140.12	12.18	
2025-01-18 17:58:33.72	140.11	12.20	
2025-01-18 17:58:33.93	140.10	12.22	
2025-01-18 17:58:34.13	140.09	12.24	
2025-01-18 17:58:34.33	140.08	12.26	
2025-01-18 17:58:34.54	140.07	12.28	
2025-01-18 17:58:34.74	140.06	12.30	
2025-01-18 17:58:34.94	140.05	12.32	
2025-01-18 17:58:35.15	140.04	12.34	
2025-01-18 17:58:35.35	140.03	12.36	
2025-01-18 17:58:35.55	140.02	12.38	
2025-01-18 17:58:35.76	140.01	12.40	
2025-01-18 17:58:35.96	140.00	12.43	
2025-01-18 17:58:36.16	139.98	12.45	
2025-01-18 17:58:36.36	139.97	12.47	
2025-01-18 17:58:36.57	139.96	12.49	
2025-01-18 17:58:36.77	139.95	12.51	
2025-01-18 17:58:36.97	139.94	12.53	
2025-01-18 17:58:37.18	139.93	12.55	
2025-01-18 17:58:37.38	139.92	12.57	
2025-01-18 17:58:37.58	139.91	12.59	
2025-01-18 17:58:37.79	139.90	12.61	
2025-01-18 17:58:37.99	139.89	12.63	
2025-01-18 17:58:38.19	139.88	12.65	
2025-01-18 17:58:38.40	139.86	12.67	
2025-01-18 17:58:38.60	139.85	12.69	
2025-01-18 17:58:38.80	139.84	12.71	
2025-01-18 17:58:39.00	139.83	12.74	
2025-01-18 17:58:39.21	139.82	12.76	
2025-01-18 17:58:39.41	139.81	12.78	
2025-01-18 17:58:39.61	139.80	12.80	
2025-01-18 17:58:39.82	139.79	12.82	
2025-01-18 17:58:40.02	139.78	12.84	
2025-01-18 17:58:40.22	139.77	12.86	
2025-01-18 17:58:40.43	139.75	12.88	
2025-01-18 17:58:40.63	139.74	12.90	
2025-01-18 17:58:40.83	139.73	12.92	
2025-01-18 17:58:41.03	139.72	12.95	
2025-01-18 17:58:41.24	139.71	12.97	
2025-01-18 17:58:41.44	139.70	12.99	
2025-01-18 17:58:41.64	139.69	13.01	
2025-01-18 17:58:41.85	139.67	13.03	
2025-01-18 17:58:42.05	139.66	13.05	
2025-01-18 17:58:42.25	139.65	13.07	
2025-01-18 17:58:42.46	139.64	13.09	
2025-01-18 17:58:42.66	139.63	13.11	
2025-01-18 17:58:42.86	139.62	13.14	
2025-01-18 17:58:43.07	139.61	13.16	
2025-01-18 17:58:43.27	139.60	13.18	
2025-01-18 17:58:43.47	139.58	13.20	
2025-01-18 17:58:43.67	139.57	13.22	
2025-01-18 17:58:43.88	139.56	13.24	
2025-01-18 17:58:44.08	139.55	13.26	
2025-01-18 17:58:44.28	139.54	13.28	
2025-01-18 17:58:44.49	139.53	13.31	
2025-01-18 17:58:44.69	139.52	13.33	
2025-01-18 17:58:44.89	139.50	13.35	
2025-01-18 17:58:45.10	139.49	13.37	
2025-01-18 17:58:45.30	139.48	13.39	
2025-01-18 17:58:45.50	139.47	13.41	
2025-01-18 17:58:45.71	139.46	13.44	
2025-01-18 17:58:45.91	139.45	13.46	
2025-01-18 17:58:46.11	139.43	13.48	
2025-01-18 17:58:46.31	139.42	13.50	
2025-01-18 17:58:46.52	139.41	13.52	
2025-01-18 17:58:46.72	139.40	13.54	
2025-01-18 17:58:46.92	139.39	13.56	
2025-01-18 17:58:47.13	139.37	13.59	
2025-01-18 17:58:47.33	139.36	13.61	
2025-01-18 17:58:47.53	139.35	13.63	
2025-01-18 17:58:47.74	139.34	13.65	
2025-01-18 17:58:47.94	139.33	13.67	
2025-01-18 17:58:48.14	139.32	13.69	
2025-01-18 17:58:48.35	139.30	13.72	
2025-01-18 17:58:48.55	139.29	13.74	
2025-01-18 17:58:48.75	139.28	13.76	
2025-01-18 17:58:48.95	139.27	13.78	
2025-01-18 17:58:49.16	139.26	13.80	
2025-01-18 17:58:49.36	139.24	13.83	
2025-01-18 17:58:49.56	139.23	13.85	
2025-01-18 17:58:49.77	139.22	13.87	
2025-01-18 17:58:49.97	139.21	13.89	
2025-01-18 17:58:50.17	139.20	13.91	
2025-01-18 17:58:50.38	139.18	13.94	
2025-01-18 17:58:50.58	139.17	13.96	
2025-01-18 17:58:50.78	139.16	13.98	
2025-01-18 17:58:50.99	139.15	14.00	
2025-01-18 17:58:51.19	139.14	14.02	
2025-01-18 17:58:51.39	139.12	14.05	
2025-01-18 17:58:51.59	139.11	14.07	
2025-01-18 17:58:51.80	139.10	14.09	
2025-01-18 17:58:52.00	139.09	14.11	
2025-01-18 17:58:52.20	139.07	14.13	
2025-01-18 17:58:52.41	139.06	14.16	
2025-01-18 17:58:52.61	139.05	14.18	
2025-01-18 17:58:52.81	139.04	14.20	
2025-01-18 17:58:53.02	139.02	14.22	
2025-01-18 17:58:53.22	139.01	14.24	
2025-01-18 17:58:53.42	139.00	14.27	
2025-01-18 17:58:53.63	138.99	14.29	
2025-01-18 17:58:53.83	138.98	14.31	
2025-01-18 17:58:54.03	138.96	14.33	
2025-01-18 17:58:54.23	138.95	14.36	
2025-01-18 17:58:54.44	138.94	14.38	
2025-01-18 17:58:54.64	138.93	14.40	
2025-01-18 17:58:54.84	138.91	14.42	
2025-01-18 17:58:55.05	138.90	14.45	
2025-01-18 17:58:55.25	138.89	14.47	
2025-01-18 17:58:55.45	138.88	14.49	
2025-01-18 17:58:55.66	138.86	14.51	
2025-01-18 17:58:55.86	138.85	14.54	
2025-01-18 17:58:56.06	138.84	14.56	
2025-01-18 17:58:56.26	138.82	14.58	
2025-01-18 17:58:56.47	138.81	14.60	
2025-01-18 17:58:56.67	138.80	14.63	
2025-01-18 17:58:56.87	138.79	14.65	
2025-01-18 17:58:57.08	138.77	14.67	
2025-01-18 17:58:57.28	138.76	14.69	
2025-01-18 17:58:57.48	138.75	14.72	
2025-01-18 17:58:57.69	138.73	14.74	
2025-01-18 17:58:57.89	138.72	14.76	
2025-01-18 17:58:58.09	138.71	14.79	
2025-01-18 17:58:58.30	138.70	14.81	
2025-01-18 17:58:58.50	138.68	14.83	
2025-01-18 17:58:58.70	138.67	14.85	
2025-01-18 17:58:58.90	138.66	14.88	
2025-01-18 17:58:59.11	138.64	14.90	
2025-01-18 17:58:59.31	138.63	14.92	
2025-01-18 17:58:59.51	138.62	14.94	
2025-01-18 17:58:59.72	138.61	14.97	
2025-01-18 17:58:59.92	138.59	14.99	
2025-01-18 17:59:00.12	138.58	15.01	
2025-01-18 17:59:00.33	138.57	15.04	
2025-01-18 17:59:00.53	138.55	15.06	
2025-01-18 17:59:00.73	138.54	15.08	
2025-01-18 17:59:00.94	138.53	15.11	
2025-01-18 17:59:01.14	138.51	15.13	
2025-01-18 17:59:01.34	138.50	15.15	
2025-01-18 17:59:01.54	138.49	15.18	
2025-01-18 17:59:01.75	138.47	15.20	
2025-01-18 17:59:01.95	138.46	15.22	
2025-01-18 17:59:02.15	138.45	15.25	
2025-01-18 17:59:02.36	138.43	15.27	
2025-01-18 17:59:02.56	138.42	15.29	
2025-01-18 17:59:02.76	138.41	15.31	
2025-01-18 17:59:02.97	138.39	15.34	
2025-01-18 17:59:03.17	138.38	15.36	
2025-01-18 17:59:03.37	138.37	15.39	
2025-01-18 17:59:03.58	138.35	15.41	
2025-01-18 17:59:03.78	138.34	15.43	
2025-01-18 17:59:03.98	138.33	15.46	
2025-01-18 17:59:04.18	138.31	15.48	
2025-01-18 17:59:04.39	138.30	15.50	
2025-01-18 17:59:04.59	138.28	15.53	
2025-01-18 17:59:04.79	138.27	15.55	
2025-01-18 17:59:05.00	138.26	15.57	
2025-01-18 17:59:05.20	138.24	15.60	
2025-01-18 17:59:05.40	138.23	15.62	
2025-01-18 17:59:05.61	138.22	15.64	
2025-01-18 17:59:05.81	138.20	15.67	
2025-01-18 17:59:06.01	138.19	15.69	
2025-01-18 17:59:06.22	138.17	15.72	
2025-01-18 17:59:06.42	138.16	15.74	
2025-01-18 17:59:06.62	138.15	15.76	
2025-01-18 17:59:06.82	138.13	15.79	
2025-01-18 17:59:07.03	138.12	15.81	
2025-01-18 17:59:07.23	138.11	15.83	
2025-01-18 17:59:07.43	138.09	15.86	
2025-01-18 17:59:07.64	138.08	15.88	
2025-01-18 17:59:07.84	138.06	15.91	
2025-01-18 17:59:08.04	138.05	15.93	
2025-01-18 17:59:08.25	138.04	15.95	
2025-01-18 17:59:08.45	138.02	15.98	
2025-01-18 17:59:08.65	138.01	16.00	
2025-01-18 17:59:08.86	137.99	16.03	
2025-01-18 17:59:09.06	137.98	16.05	
2025-01-18 17:59:09.26	137.97	16.07	
2025-01-18 17:59:09.46	137.95	16.10	
2025-01-18 17:59:09.67	137.94	16.12	
2025-01-18 17:59:09.87	137.92	16.15	
2025-01-18 17:59:10.07	137.91	16.17	
2025-01-18 17:59:10.28	137.89	16.19	
2025-01-18 17:59:10.48	137.88	16.22	
2025-01-18 17:59:10.68	137.87	16.24	
2025-01-18 17:59:10.89	137.85	16.27	
2025-01-18 17:59:11.09	137.84	16.29	
2025-01-18 17:59:11.29	137.82	16.31	
2025-01-18 17:59:11.49	137.81	16.34	
2025-01-18 17:59:11.70	137.79	16.36	
2025-01-18 17:59:11.90	137.78	16.39	
2025-01-18 17:59:12.10	137.76	16.41	
2025-01-18 17:59:12.31	137.75	16.44	
2025-01-18 17:59:12.51	137.73	16.46	
2025-01-18 17:59:12.71	137.72	16.49	
2025-01-18 17:59:12.92	137.71	16.51	
2025-01-18 17:59:13.12	137.69	16.53	
2025-01-18 17:59:13.32	137.68	16.56	
2025-01-18 17:59:13.53	137.66	16.58	
2025-01-18 17:59:13.73	137.65	16.61	
2025-01-18 17:59:13.93	137.63	16.63	
2025-01-18 17:59:14.13	137.62	16.66	
2025-01-18 17:59:14.34	137.60	16.68	
2025-01-18 17:59:14.54	137.59	16.71	
2025-01-18 17:59:14.74	137.57	16.73	
2025-01-18 17:59:14.95	137.56	16.76	
2025-01-18 17:59:15.15	137.54	16.78	
2025-01-18 17:59:15.35	137.53	16.81	
2025-01-18 17:59:15.56	137.51	16.83	
2025-01-18 17:59:15.76	137.50	16.86	
2025-01-18 17:59:15.96	137.48	16.88	
2025-01-18 17:59:16.17	137.47	16.91	
2025-01-18 17:59:16.37	137.45	16.93	
2025-01-18 17:59:16.57	137.44	16.96	
2025-01-18 17:59:16.77	137.42	16.98	
2025-01-18 17:59:16.98	137.41	17.01	
2025-01-18 17:59:17.18	137.39	17.03	
2025-01-18 17:59:17.38	137.38	17.06	
2025-01-18 17:59:17.59	137.36	17.08	
2025-01-18 17:59:17.79	137.35	17.11	
2025-01-18 17:59:17.99	137.33	17.13	
2025-01-18 17:59:18.20	137.32	17.16	
2025-01-18 17:59:18.40	137.30	17.18	
2025-01-18 17:59:18.60	137.28	17.21	
2025-01-18 17:59:18.81	137.27	17.23	
2025-01-18 17:59:19.01	137.25	17.26	
2025-01-18 17:59:19.21	137.24	17.28	
2025-01-18 17:59:19.41	137.22	17.31	
2025-01-18 17:59:19.62	137.21	17.33	
2025-01-18 17:59:19.82	137.19	17.36	
2025-01-18 17:59:20.02	137.18	17.38	
2025-01-18 17:59:20.23	137.16	17.41	
2025-01-18 17:59:20.43	137.14	17.43	
2025-01-18 17:59:20.63	137.13	17.46	
2025-01-18 17:59:20.84	137.11	17.49	
2025-01-18 17:59:21.04	137.10	17.51	
2025-01-18 17:59:21.24	137.08	17.54	
2025-01-18 17:59:21.45	137.07	17.56	
2025-01-18 17:59:21.65	137.05	17.59	
2025-01-18 17:59:21.85	137.03	17.61	
2025-01-18 17:59:22.05	137.02	17.64	
2025-01-18 17:59:22.26	137.00	17.67	
2025-01-18 17:59:22.46	136.99	17.69	
2025-01-18 17:59:22.66	136.97	17.72	
2025-01-18 17:59:22.87	136.95	17.74	
2025-01-18 17:59:23.07	136.94	17.77	
2025-01-18 17:59:23.27	136.92	17.79	
2025-01-18 17:59:23.48	136.91	17.82	
2025-01-18 17:59:23.68	136.89	17.85	
2025-01-18 17:59:23.88	136.87	17.87	
2025-01-18 17:59:24.09	136.86	17.90	
2025-01-18 17:59:24.29	136.84	17.92	
2025-01-18 17:59:24.49	136.83	17.95	
2025-01-18 17:59:24.69	136.81	17.98	
2025-01-18 17:59:24.90	136.79	18.00	
2025-01-18 17:59:25.10	136.78	18.03	
2025-01-18 17:59:25.30	136.76	18.05	
2025-01-18 17:59:25.51	136.74	18.08	
2025-01-18 17:59:25.71	136.73	18.11	
2025-01-18 17:59:25.91	136.71	18.13	
2025-01-18 17:59:26.12	136.69	18.16	
2025-01-18 17:59:26.32	136.68	18.19	
2025-01-18 17:59:26.52	136.66	18.21	
2025-01-18 17:59:26.72	136.65	18.24	
2025-01-18 17:59:26.93	136.63	18.26	
2025-01-18 17:59:27.13	136.61	18.29	
2025-01-18 17:59:27.33	136.60	18.32	
2025-01-18 17:59:27.54	136.58	18.34	
2025-01-18 17:59:27.74	136.56	18.37	
2025-01-18 17:59:27.94	136.54	18.40	
2025-01-18 17:59:28.15	136.53	18.42	
2025-01-18 17:59:28.35	136.51	18.45	
2025-01-18 17:59:28.55	136.49	18.48	
2025-01-18 17:59:28.76	136.48	18.50	
2025-01-18 17:59:28.96	136.46	18.53	
2025-01-18 17:59:29.16	136.44	18.56	
2025-01-18 17:59:29.36	136.43	18.58	
2025-01-18 17:59:29.57	136.41	18.61	
2025-01-18 17:59:29.77	136.39	18.64	
2025-01-18 17:59:29.97	136.38	18.66	
2025-01-18 17:59:30.18	136.36	18.69	
2025-01-18 17:59:30.38	136.34	18.72	
2025-01-18 17:59:30.58	136.32	18.74	
2025-01-18 17:59:30.79	136.31	18.77	
2025-01-18 17:59:30.99	136.29	18.80	
2025-01-18 17:59:31.19	136.27	18.82	
2025-01-18 17:59:31.40	136.25	18.85	
2025-01-18 17:59:31.60	136.24	18.88	
2025-01-18 17:59:31.80	136.22	18.90	
2025-01-18 17:59:32.00	136.20	18.93	
2025-01-18 17:59:32.21	136.18	18.96	
2025-01-18 17:59:32.41	136.17	18.99	
2025-01-18 17:59:32.61	136.15	19.01	
2025-01-18 17:59:32.82	136.13	19.04	
2025-01-18 17:59:33.02	136.11	19.07	
2025-01-18 17:59:33.22	136.10	19.09	
2025-01-18 17:59:33.43	136.08	19.12	
2025-01-18 17:59:33.63	136.06	19.15	
2025-01-18 17:59:33.83	136.04	19.18	
2025-01-18 17:59:34.04	136.03	19.21	
2025-01-18 17:59:34.24	136.01	19.23	
2025-01-18 17:59:34.44	135.99	19.26	
2025-01-18 17:59:34.64	135.97	19.29	
2025-01-18 17:59:34.85	135.95	19.31	
2025-01-18 17:59:35.05	135.94	19.34	
2025-01-18 17:59:35.25	135.92	19.37	
2025-01-18 17:59:35.46	135.90	19.40	
2025-01-18 17:59:35.66	135.88	19.42	
2025-01-18 17:59:35.86	135.86	19.45	
2025-01-18 17:59:36.07	135.85	19.48	
2025-01-18 17:59:36.27	135.83	19.51	
2025-01-18 17:59:36.47	135.81	19.53	
2025-01-18 17:59:36.68	135.79	19.56	
2025-01-18 17:59:36.88	135.77	19.59	
2025-01-18 17:59:37.08	135.75	19.62	
2025-01-18 17:59:37.28	135.74	19.65	
2025-01-18 17:59:37.49	135.72	19.67	
2025-01-18 17:59:37.69	135.70	19.70	
2025-01-18 17:59:37.89	135.68	19.73	
2025-01-18 17:59:38.10	135.66	19.76	
2025-01-18 17:59:38.30	135.64	19.79	
2025-01-18 17:59:38.50	135.63	19.81	
2025-01-18 17:59:38.71	135.61	19.84	
2025-01-18 17:59:38.91	135.59	19.87	
2025-01-18 17:59:39.11	135.57	19.90	
2025-01-18 17:59:39.31	135.55	19.93	
2025-01-18 17:59:39.52	135.53	19.96	
2025-01-18 17:59:39.72	135.51	19.98	
2025-01-18 17:59:39.92	135.50	20.01	
2025-01-18 17:59:40.13	135.48	20.04	
2025-01-18 17:59:40.33	135.46	20.07	
2025-01-18 17:59:40.53	135.44	20.10	
2025-01-18 17:59:40.74	135.42	20.13	
2025-01-18 17:59:40.94	135.40	20.15	
2025-01-18 17:59:41.14	135.38	20.18	
2025-01-18 17:59:41.35	135.36	20.21	
2025-01-18 17:59:41.55	135.34	20.24	
2025-01-18 17:59:41.75	135.32	20.27	
2025-01-18 17:59:41.95	135.30	20.30	
2025-01-18 17:59:42.16	135.28	20.32	
2025-01-18 17:59:42.36	135.27	20.35	
2025-01-18 17:59:42.56	135.25	20.38	
2025-01-18 17:59:42.77	135.23	20.41	
2025-01-18 17:59:42.97	135.21	20.44	
2025-01-18 17:59:43.17	135.19	20.47	
2025-01-18 17:59:43.38	135.17	20.50	
2025-01-18 17:59:43.58	135.15	20.53	
2025-01-18 17:59:43.78	135.13	20.55	
2025-01-18 17:59:43.99	135.11	20.58	
2025-01-18 17:59:44.19	135.09	20.61	
2025-01-18 17:59:44.39	135.07	20.64	
2025-01-18 17:59:44.59	135.05	20.67	
2025-01-18 17:59:44.80	135.03	20.70	
2025-01-18 17:59:45.00	135.01	20.73	
2025-01-18 17:59:45.20	134.99	20.76	
2025-01-18 17:59:45.41	134.97	20.79	
2025-01-18 17:59:45.61	134.95	20.82	
2025-01-18 17:59:45.81	134.93	20.84	
2025-01-18 17:59:46.02	134.91	20.88	
2025-01-18 17:59:46.22	134.89	20.90	
2025-01-18 17:59:46.42	134.87	20.93	
2025-01-18 17:59:46.63	134.85	20.96	
2025-01-18 17:59:46.83	134.83	20.99	
2025-01-18 17:59:47.03	134.81	21.02	
2025-01-18 17:59:47.23	134.79	21.05	
2025-01-18 17:59:47.44	134.77	21.08	
2025-01-18 17:59:47.64	134.75	21.11	
2025-01-18 17:59:47.84	134.73	21.14	
2025-01-18 17:59:48.05	134.71	21.17	
2025-01-18 17:59:48.25	134.69	21.20	
2025-01-18 17:59:48.45	134.67	21.23	
2025-01-18 17:59:48.66	134.65	21.26	
2025-01-18 17:59:48.86	134.63	21.29	
2025-01-18 17:59:49.06	134.61	21.32	
2025-01-18 17:59:49.27	134.59	21.35	
2025-01-18 17:59:49.47	134.57	21.38	
2025-01-18 17:59:49.67	134.55	21.41	
2025-01-18 17:59:49.87	134.52	21.44	
2025-01-18 17:59:50.08	134.50	21.47	
2025-01-18 17:59:50.28	134.48	21.50	
2025-01-18 17:59:50.48	134.46	21.53	
2025-01-18 17:59:50.69	134.44	21.56	
2025-01-18 17:59:50.89	134.42	21.59	
2025-01-18 17:59:51.09	134.40	21.62	
2025-01-18 17:59:51.30	134.38	21.65	
2025-01-18 17:59:51.50	134.36	21.68	
2025-01-18 17:59:51.70	134.34	21.71	
2025-01-18 17:59:51.91	134.31	21.74	
2025-01-18 17:59:52.11	134.29	21.77	
2025-01-18 17:59:52.31	134.27	21.80	
2025-01-18 17:59:52.51	134.25	21.83	
2025-01-18 17:59:52.72	134.23	21.86	
2025-01-18 17:59:52.92	134.21	21.89	
2025-01-18 17:59:53.12	134.19	21.92	
2025-01-18 17:59:53.33	134.16	21.95	
2025-01-18 17:59:53.53	134.14	21.98	
2025-01-18 17:59:53.73	134.12	22.01	
2025-01-18 17:59:53.94	134.10	22.04	
2025-01-18 17:59:54.14	134.08	22.07	
2025-01-18 17:59:54.34	134.06	22.10	
2025-01-18 17:59:54.55	134.03	22.13	
2025-01-18 17:59:54.75	134.01	22.16	
2025-01-18 17:59:54.95	133.99	22.20	
2025-01-18 17:59:55.15	133.97	22.23	
2025-01-18 17:59:55.36	133.95	22.26	
2025-01-18 17:59:55.56	133.92	22.29	
2025-01-18 17:59:55.76	133.90	22.32	
2025-01-18 17:59:55.97	133.88	22.35	
2025-01-18 17:59:56.17	133.86	22.38	
2025-01-18 17:59:56.37	133.84	22.41	
2025-01-18 17:59:56.58	133.81	22.44	
2025-01-18 17:59:56.78	133.79	22.47	
2025-01-18 17:59:56.98	133.77	22.50	
2025-01-18 17:59:57.19	133.74	22.54	
2025-01-18 17:59:57.39	133.72	22.57	
2025-01-18 17:59:57.59	133.70	22.60	
2025-01-18 17:59:57.79	133.68	22.63	
2025-01-18 17:59:58.00	133.65	22.66	
2025-01-18 17:59:58.20	133.63	22.69	
2025-01-18 17:59:58.40	133.61	22.72	
2025-01-18 17:59:58.61	133.59	22.76	
2025-01-18 17:59:58.81	133.56	22.79	
2025-01-18 17:59:59.01	133.54	22.82	
2025-01-18 17:59:59.22	133.52	22.85	
2025-01-18 17:59:59.42	133.50	22.88	
2025-01-18 17:59:59.62	133.47	22.91	
2025-01-18 17:59:59.82	133.45	22.94	
2025-01-18 18:00:00.03	133.43	22.98	
2025-01-18 18:00:00.23	133.40	23.01	
2025-01-18 18:00:00.43	133.38	23.04	
2025-01-18 18:00:00.64	133.36	23.07	
2025-01-18 18:00:00.84	133.33	23.10	
2025-01-18 18:00:01.04	133.31	23.13	
2025-01-18 18:00:01.25	133.29	23.17	
2025-01-18 18:00:01.45	133.26	23.20	
2025-01-18 18:00:01.65	133.24	23.23	
2025-01-18 18:00:01.86	133.22	23.26	
2025-01-18 18:00:02.06	133.19	23.30	
2025-01-18 18:00:02.26	133.17	23.33	
2025-01-18 18:00:02.46	133.15	23.36	
2025-01-18 18:00:02.67	133.12	23.39	
2025-01-18 18:00:02.87	133.10	23.42	
2025-01-18 18:00:03.07	133.07	23.46	
2025-01-18 18:00:03.28	133.05	23.49	
2025-01-18 18:00:03.48	133.03	23.52	
2025-01-18 18:00:03.68	133.00	23.55	
2025-01-18 18:00:03.89	132.98	23.59	
2025-01-18 18:00:04.09	132.95	23.62	
2025-01-18 18:00:04.29	132.93	23.65	
2025-01-18 18:00:04.50	132.90	23.68	
2025-01-18 18:00:04.70	132.88	23.72	
2025-01-18 18:00:04.90	132.86	23.75	
2025-01-18 18:00:05.10	132.83	23.78	
2025-01-18 18:00:05.31	132.81	23.81	
2025-01-18 18:00:05.51	132.78	23.85	
2025-01-18 18:00:05.71	132.76	23.88	
2025-01-18 18:00:05.92	132.73	23.91	
2025-01-18 18:00:06.12	132.71	23.94	
2025-01-18 18:00:06.32	132.68	23.98	
2025-01-18 18:00:06.53	132.66	24.01	
2025-01-18 18:00:06.73	132.63	24.04	
2025-01-18 18:00:06.93	132.61	24.08	
2025-01-18 18:00:07.14	132.58	24.11	
2025-01-18 18:00:07.34	132.56	24.14	
2025-01-18 18:00:07.54	132.53	24.18	
2025-01-18 18:00:07.74	132.51	24.21	
2025-01-18 18:00:07.95	132.48	24.24	
2025-01-18 18:00:08.15	132.46	24.28	
2025-01-18 18:00:08.35	132.43	24.31	
2025-01-18 18:00:08.56	132.41	24.34	
2025-01-18 18:00:08.76	132.38	24.38	
2025-01-18 18:00:08.96	132.36	24.41	
2025-01-18 18:00:09.17	132.33	24.44	
2025-01-18 18:00:09.37	132.31	24.48	
2025-01-18 18:00:09.57	132.28	24.51	
2025-01-18 18:00:09.78	132.25	24.54	
2025-01-18 18:00:09.98	132.23	24.58	
2025-01-18 18:00:10.18	132.20	24.61	
2025-01-18 18:00:10.38	132.18	24.64	
2025-01-18 18:00:10.59	132.15	24.68	
2025-01-18 18:00:10.79	132.12	24.71	
2025-01-18 18:00:10.99	132.10	24.74	
2025-01-18 18:00:11.20	132.07	24.78	
2025-01-18 18:00:11.40	132.05	24.81	
2025-01-18 18:00:11.60	132.02	24.85	
2025-01-18 18:00:11.81	131.99	24.88	
2025-01-18 18:00:12.01	131.97	24.91	
2025-01-18 18:00:12.21	131.94	24.95	
2025-01-18 18:00:12.42	131.91	24.98	
2025-01-18 18:00:12.62	131.89	25.02	
2025-01-18 18:00:12.82	131.86	25.05	
2025-01-18 18:00:13.02	131.83	25.08	
2025-01-18 18:00:13.23	131.81	25.12	
2025-01-18 18:00:13.43	131.78	25.15	
2025-01-18 18:00:13.63	131.75	25.19	
2025-01-18 18:00:13.84	131.73	25.22	
2025-01-18 18:00:14.04	131.70	25.26	
2025-01-18 18:00:14.24	131.67	25.29	
2025-01-18 18:00:14.45	131.65	25.33	
2025-01-18 18:00:14.65	131.62	25.36	
2025-01-18 18:00:14.85	131.59	25.39	
2025-01-18 18:00:15.05	131.56	25.43	
2025-01-18 18:00:15.26	131.54	25.46	
2025-01-18 18:00:15.46	131.51	25.50	
2025-01-18 18:00:15.66	131.48	25.53	
2025-01-18 18:00:15.87	131.45	25.57	
2025-01-18 18:00:16.07	131.43	25.60	
2025-01-18 18:00:16.27	131.40	25.64	
2025-01-18 18:00:16.48	131.37	25.67	
2025-01-18 18:00:16.68	131.34	25.71	
2025-01-18 18:00:16.88	131.32	25.74	
2025-01-18 18:00:17.09	131.29	25.78	
2025-01-18 18:00:17.29	131.26	25.81	
2025-01-18 18:00:17.49	131.23	25.85	
2025-01-18 18:00:17.69	131.20	25.88	
2025-01-18 18:00:17.90	131.17	25.92	
2025-01-18 18:00:18.10	131.15	25.95	
2025-01-18 18:00:18.30	131.12	25.99	
2025-01-18 18:00:18.51	131.09	26.02	
2025-01-18 18:00:18.71	131.06	26.06	
2025-01-18 18:00:18.91	131.03	26.09	
2025-01-18 18:00:19.12	131.00	26.13	
2025-01-18 18:00:19.32	130.98	26.17	
2025-01-18 18:00:19.52	130.95	26.20	
2025-01-18 18:00:19.73	130.92	26.24	
2025-01-18 18:00:19.93	130.89	26.27	
2025-01-18 18:00:20.13	130.86	26.31	
2025-01-18 18:00:20.33	130.83	26.34	
2025-01-18 18:00:20.54	130.80	26.38	
2025-01-18 18:00:20.74	130.77	26.41	
2025-01-18 18:00:20.94	130.74	26.45	
2025-01-18 18:00:21.15	130.71	26.49	
2025-01-18 18:00:21.35	130.69	26.52	
2025-01-18 18:00:21.55	130.66	26.56	
2025-01-18 18:00:21.76	130.63	26.60	
2025-01-18 18:00:21.96	130.60	26.63	
2025-01-18 18:00:22.16	130.57	26.67	
2025-01-18 18:00:22.37	130.54	26.70	
2025-01-18 18:00:22.57	130.51	26.74	
2025-01-18 18:00:22.77	130.48	26.78	
2025-01-18 18:00:22.97	130.45	26.81	
2025-01-18 18:00:23.18	130.42	26.85	
2025-01-18 18:00:23.38	130.39	26.88	
2025-01-18 18:00:23.58	130.36	26.92	
2025-01-18 18:00:23.79	130.33	26.96	
2025-01-18 18:00:23.99	130.30	26.99	
2025-01-18 18:00:24.19	130.27	27.03	
2025-01-18 18:00:24.40	130.24	27.07	
2025-01-18 18:00:24.60	130.21	27.10	
2025-01-18 18:00:24.80	130.18	27.14	
2025-01-18 18:00:25.01	130.14	27.18	
2025-01-18 18:00:25.21	130.11	27.21	
2025-01-18 18:00:25.41	130.08	27.25	
2025-01-18 18:00:25.61	130.05	27.29	
2025-01-18 18:00:25.82	130.02	27.32	
2025-01-18 18:00:26.02	129.99	27.36	
2025-01-18 18:00:26.22	129.96	27.40	
2025-01-18 18:00:26.43	129.93	27.44	
2025-01-18 18:00:26.63	129.90	27.47	
2025-01-18 18:00:26.83	129.87	27.51	
2025-01-18 18:00:27.04	129.83	27.55	
2025-01-18 18:00:27.24	129.80	27.58	
2025-01-18 18:00:27.44	129.77	27.62	
2025-01-18 18:00:27.65	129.74	27.66	
2025-01-18 18:00:27.85	129.71	27.70	
2025-01-18 18:00:28.05	129.68	27.73	
2025-01-18 18:00:28.25	129.64	27.77	
2025-01-18 18:00:28.46	129.61	27.81	
2025-01-18 18:00:28.66	129.58	27.85	
2025-01-18 18:00:28.86	129.55	27.88	
2025-01-18 18:00:29.07	129.51	27.92	
2025-01-18 18:00:29.27	129.48	27.96	
2025-01-18 18:00:29.47	129.45	28.00	
2025-01-18 18:00:29.68	129.42	28.03	
2025-01-18 18:00:29.88	129.39	28.07	
2025-01-18 18:00:30.08	129.35	28.11	
2025-01-18 18:00:30.28	129.32	28.15	
2025-01-18 18:00:30.49	129.29	28.19	
2025-01-18 18:00:30.69	129.25	28.22	
2025-01-18 18:00:30.89	129.22	28.26	
2025-01-18 18:00:31.10	129.19	28.30	
2025-01-18 18:00:31.30	129.16	28.34	
2025-01-18 18:00:31.50	129.12	28.37	
2025-01-18 18:00:31.71	129.09	28.41	
2025-01-18 18:00:31.91	129.06	28.45	
2025-01-18 18:00:32.11	129.02	28.49	
2025-01-18 18:00:32.32	128.99	28.53	
2025-01-18 18:00:32.52	128.96	28.57	
2025-01-18 18:00:32.72	128.92	28.60	
2025-01-18 18:00:32.92	128.89	28.64	
2025-01-18 18:00:33.13	128.85	28.68	
2025-01-18 18:00:33.33	128.82	28.72	
2025-01-18 18:00:33.53	128.79	28.76	
2025-01-18 18:00:33.74	128.75	28.80	
2025-01-18 18:00:33.94	128.72	28.84	
2025-01-18 18:00:34.14	128.68	28.87	
2025-01-18 18:00:34.35	128.65	28.91	
2025-01-18 18:00:34.55	128.61	28.95	
2025-01-18 18:00:34.75	128.58	28.99	
2025-01-18 18:00:34.96	128.54	29.03	
2025-01-18 18:00:35.16	128.51	29.07	
2025-01-18 18:00:35.36	128.48	29.11	
2025-01-18 18:00:35.56	128.44	29.15	
2025-01-18 18:00:35.77	128.41	29.19	
2025-01-18 18:00:35.97	128.37	29.23	
2025-01-18 18:00:36.17	128.34	29.26	
2025-01-18 18:00:36.38	128.30	29.31	
2025-01-18 18:00:36.58	128.27	29.34	
2025-01-18 18:00:36.78	128.23	29.38	
2025-01-18 18:00:36.99	128.19	29.42	
2025-01-18 18:00:37.19	128.16	29.46	
2025-01-18 18:00:37.39	128.12	29.50	
2025-01-18 18:00:37.60	128.09	29.54	
2025-01-18 18:00:37.80	128.05	29.58	
2025-01-18 18:00:38.00	128.02	29.62	
2025-01-18 18:00:38.20	127.98	29.66	
2025-01-18 18:00:38.41	127.94	29.70	
2025-01-18 18:00:38.61	127.91	29.74	
2025-01-18 18:00:38.81	127.87	29.78	
2025-01-18 18:00:39.02	127.83	29.82	
2025-01-18 18:00:39.22	127.80	29.86	
2025-01-18 18:00:39.42	127.76	29.90	
2025-01-18 18:00:39.63	127.72	29.94	
2025-01-18 18:00:39.83	127.69	29.98	
2025-01-18 18:00:40.03	127.65	30.02	
2025-01-18 18:00:40.24	127.61	30.06	
2025-01-18 18:00:40.44	127.58	30.10	
2025-01-18 18:00:40.64	127.54	30.14	
2025-01-18 18:00:40.84	127.50	30.18	
2025-01-18 18:00:41.05	127.46	30.22	
2025-01-18 18:00:41.25	127.43	30.26	
2025-01-18 18:00:41.45	127.39	30.30	
2025-01-18 18:00:41.66	127.35	30.34	
2025-01-18 18:00:41.86	127.31	30.38	
2025-01-18 18:00:42.06	127.28	30.42	
2025-01-18 18:00:42.27	127.24	30.46	
2025-01-18 18:00:42.47	127.20	30.50	
2025-01-18 18:00:42.67	127.16	30.54	
2025-01-18 18:00:42.88	127.12	30.59	
2025-01-18 18:00:43.08	127.08	30.63	
2025-01-18 18:00:43.28	127.05	30.67	
2025-01-18 18:00:43.48	127.01	30.71	
2025-01-18 18:00:43.69	126.97	30.75	
2025-01-18 18:00:43.89	126.93	30.79	
2025-01-18 18:00:44.09	126.89	30.83	
2025-01-18 18:00:44.30	126.85	30.87	
2025-01-18 18:00:44.50	126.81	30.91	
2025-01-18 18:00:44.70	126.77	30.95	
2025-01-18 18:00:44.91	126.73	31.00	
2025-01-18 18:00:45.11	126.69	31.04	
2025-01-18 18:00:45.31	126.66	31.08	
2025-01-18 18:00:45.51	126.62	31.12	
2025-01-18 18:00:45.72	126.58	31.16	
2025-01-18 18:00:45.92	126.54	31.20	
2025-01-18 18:00:46.12	126.50	31.24	
2025-01-18 18:00:46.33	126.46	31.29	
2025-01-18 18:00:46.53	126.42	31.33	
2025-01-18 18:00:46.73	126.38	31.37	
2025-01-18 18:00:46.94	126.33	31.41	
2025-01-18 18:00:47.14	126.29	31.45	
2025-01-18 18:00:47.34	126.25	31.49	
2025-01-18 18:00:47.55	126.21	31.54	
2025-01-18 18:00:47.75	126.17	31.58	
2025-01-18 18:00:47.95	126.13	31.62	
2025-01-18 18:00:48.15	126.09	31.66	
2025-01-18 18:00:48.36	126.05	31.70	
2025-01-18 18:00:48.56	126.01	31.75	
2025-01-18 18:00:48.76	125.97	31.79	
2025-01-18 18:00:48.97	125.92	31.83	
2025-01-18 18:00:49.17	125.88	31.87	
2025-01-18 18:00:49.37	125.84	31.91	
2025-01-18 18:00:49.58	125.80	31.96	
2025-01-18 18:00:49.78	125.76	32.00	
2025-01-18 18:00:49.98	125.72	32.04	
2025-01-18 18:00:50.19	125.67	32.08	
2025-01-18 18:00:50.39	125.63	32.13	
2025-01-18 18:00:50.59	125.59	32.17	
2025-01-18 18:00:50.79	125.55	32.21	
2025-01-18 18:00:51.00	125.50	32.25	
2025-01-18 18:00:51.20	125.46	32.30	
2025-01-18 18:00:51.40	125.42	32.34	
2025-01-18 18:00:51.61	125.38	32.38	
2025-01-18 18:00:51.81	125.33	32.42	
2025-01-18 18:00:52.01	125.29	32.47	
2025-01-18 18:00:52.22	125.25	32.51	
2025-01-18 18:00:52.42	125.20	32.55	
2025-01-18 18:00:52.62	125.16	32.60	
2025-01-18 18:00:52.83	125.11	32.64	
2025-01-18 18:00:53.03	125.07	32.68	
2025-01-18 18:00:53.23	125.03	32.73	
2025-01-18 18:00:53.43	124.98	32.77	
2025-01-18 18:00:53.64	124.94	32.81	
2025-01-18 18:00:53.84	124.90	32.86	
2025-01-18 18:00:54.04	124.85	32.90	
2025-01-18 18:00:54.25	124.81	32.94	
2025-01-18 18:00:54.45	124.76	32.99	
2025-01-18 18:00:54.65	124.72	33.03	
2025-01-18 18:00:54.86	124.67	33.07	
2025-01-18 18:00:55.06	124.63	33.12	
2025-01-18 18:00:55.26	124.58	33.16	
2025-01-18 18:00:55.47	124.54	33.20	
2025-01-18 18:00:55.67	124.49	33.25	
2025-01-18 18:00:55.87	124.45	33.29	
2025-01-18 18:00:56.07	124.40	33.33	
2025-01-18 18:00:56.28	124.35	33.38	
2025-01-18 18:00:56.48	124.31	33.42	
2025-01-18 18:00:56.68	124.26	33.47	
2025-01-18 18:00:56.89	124.21	33.51	
2025-01-18 18:00:57.09	124.17	33.55	
2025-01-18 18:00:57.29	124.12	33.60	
2025-01-18 18:00:57.50	124.08	33.64	
2025-01-18 18:00:57.70	124.03	33.69	
2025-01-18 18:00:57.90	123.98	33.73	
2025-01-18 18:00:58.11	123.93	33.78	
2025-01-18 18:00:58.31	123.89	33.82	
2025-01-18 18:00:58.51	123.84	33.86	
2025-01-18 18:00:58.71	123.79	33.91	
2025-01-18 18:00:58.92	123.75	33.95	
2025-01-18 18:00:59.12	123.70	34.00	
2025-01-18 18:00:59.32	123.65	34.04	
2025-01-18 18:00:59.53	123.60	34.09	
2025-01-18 18:00:59.73	123.55	34.13	
2025-01-18 18:00:59.93	123.51	34.18	
2025-01-18 18:01:00.14	123.46	34.22	
2025-01-18 18:01:00.34	123.41	34.27	
2025-01-18 18:01:00.54	123.36	34.31	
2025-01-18 18:01:00.74	123.31	34.35	
2025-01-18 18:01:00.95	123.26	34.40	
2025-01-18 18:01:01.15	123.22	34.44	
2025-01-18 18:01:01.35	123.17	34.49	
2025-01-18 18:01:01.56	123.12	34.54	
2025-01-18 18:01:01.76	123.07	34.58	
2025-01-18 18:01:01.96	123.02	34.62	
2025-01-18 18:01:02.17	122.97	34.67	
2025-01-18 18:01:02.37	122.92	34.72	
2025-01-18 18:01:02.57	122.87	34.76	
2025-01-18 18:01:02.78	122.82	34.81	
2025-01-18 18:01:02.98	122.77	34.85	
2025-01-18 18:01:03.18	122.72	34.90	
2025-01-18 18:01:03.38	122.67	34.94	
2025-01-18 18:01:03.59	122.61	34.99	
2025-01-18 18:01:03.79	122.56	35.03	
2025-01-18 18:01:03.99	122.51	35.08	
2025-01-18 18:01:04.20	122.46	35.13	
2025-01-18 18:01:04.40	122.41	35.17	
2025-01-18 18:01:04.60	122.36	35.22	
2025-01-18 18:01:04.81	122.31	35.26	
2025-01-18 18:01:05.01	122.26	35.31	
2025-01-18 18:01:05.21	122.20	35.35	
2025-01-18 18:01:05.42	122.15	35.40	
2025-01-18 18:01:05.62	122.10	35.45	
2025-01-18 18:01:05.82	122.05	35.49	
2025-01-18 18:01:06.02	122.00	35.54	
2025-01-18 18:01:06.23	121.94	35.58	
2025-01-18 18:01:06.43	121.89	35.63	
2025-01-18 18:01:06.63	121.84	35.67	
2025-01-18 18:01:06.84	121.78	35.72	
2025-01-18 18:01:07.04	121.73	35.77	
2025-01-18 18:01:07.24	121.68	35.81	
2025-01-18 18:01:07.45	121.62	35.86	
2025-01-18 18:01:07.65	121.57	35.91	
2025-01-18 18:01:07.85	121.52	35.95	
2025-01-18 18:01:08.06	121.46	36.00	
2025-01-18 18:01:08.26	121.41	36.05	
2025-01-18 18:01:08.46	121.35	36.09	
2025-01-18 18:01:08.66	121.30	36.14	
2025-01-18 18:01:08.87	121.24	36.19	
2025-01-18 18:01:09.07	121.19	36.23	
2025-01-18 18:01:09.27	121.13	36.28	
2025-01-18 18:01:09.48	121.08	36.33	
2025-01-18 18:01:09.68	121.02	36.37	
2025-01-18 18:01:09.88	120.97	36.42	
2025-01-18 18:01:10.09	120.91	36.47	
2025-01-18 18:01:10.29	120.86	36.51	
2025-01-18 18:01:10.49	120.80	36.56	
2025-01-18 18:01:10.70	120.74	36.61	
2025-01-18 18:01:10.90	120.69	36.65	
2025-01-18 18:01:11.10	120.63	36.70	
2025-01-18 18:01:11.30	120.57	36.75	
2025-01-18 18:01:11.51	120.52	36.80	
2025-01-18 18:01:11.71	120.46	36.84	
2025-01-18 18:01:11.91	120.40	36.89	
2025-01-18 18:01:12.12	120.34	36.94	
2025-01-18 18:01:12.32	120.29	36.98	
2025-01-18 18:01:12.52	120.23	37.03	
2025-01-18 18:01:12.73	120.17	37.08	
2025-01-18 18:01:12.93	120.11	37.13	
2025-01-18 18:01:13.13	120.06	37.17	
2025-01-18 18:01:13.34	120.00	37.22	
2025-01-18 18:01:13.54	119.94	37.27	
2025-01-18 18:01:13.74	119.88	37.32	
2025-01-18 18:01:13.94	119.82	37.36	
2025-01-18 18:01:14.15	119.76	37.41	
2025-01-18 18:01:14.35	119.70	37.46	
2025-01-18 18:01:14.55	119.64	37.51	
2025-01-18 18:01:14.76	119.58	37.56	
2025-01-18 18:01:14.96	119.52	37.60	
2025-01-18 18:01:15.16	119.46	37.65	
2025-01-18 18:01:15.37	119.40	37.70	
2025-01-18 18:01:15.57	119.34	37.75	
2025-01-18 18:01:15.77	119.28	37.79	
2025-01-18 18:01:15.97	119.22	37.84	
2025-01-18 18:01:16.18	119.16	37.89	
2025-01-18 18:01:16.38	119.10	37.94	
2025-01-18 18:01:16.58	119.04	37.99	
2025-01-18 18:01:16.79	118.98	38.04	
2025-01-18 18:01:16.99	118.91	38.08	
2025-01-18 18:01:17.19	118.85	38.13	
2025-01-18 18:01:17.40	118.79	38.18	
2025-01-18 18:01:17.60	118.73	38.23	
2025-01-18 18:01:17.80	118.67	38.28	
2025-01-18 18:01:18.01	118.60	38.33	
2025-01-18 18:01:18.21	118.54	38.37	
2025-01-18 18:01:18.41	118.48	38.42	
2025-01-18 18:01:18.61	118.42	38.47	
2025-01-18 18:01:18.82	118.35	38.52	
2025-01-18 18:01:19.02	118.29	38.57	
2025-01-18 18:01:19.22	118.23	38.61	
2025-01-18 18:01:19.43	118.16	38.66	
2025-01-18 18:01:19.63	118.10	38.71	
2025-01-18 18:01:19.83	118.03	38.76	
2025-01-18 18:01:20.04	117.97	38.81	
2025-01-18 18:01:20.24	117.90	38.86	
2025-01-18 18:01:20.44	117.84	38.91	
2025-01-18 18:01:20.65	117.77	38.96	
2025-01-18 18:01:20.85	117.71	39.01	
2025-01-18 18:01:21.05	117.64	39.05	
2025-01-18 18:01:21.25	117.58	39.10	
2025-01-18 18:01:21.46	117.51	39.15	
2025-01-18 18:01:21.66	117.44	39.20	
2025-01-18 18:01:21.86	117.38	39.25	
2025-01-18 18:01:22.07	117.31	39.30	
2025-01-18 18:01:22.27	117.24	39.35	
2025-01-18 18:01:22.47	117.18	39.40	
2025-01-18 18:01:22.68	117.11	39.45	
2025-01-18 18:01:22.88	117.04	39.49	
2025-01-18 18:01:23.08	116.97	39.54	
2025-01-18 18:01:23.29	116.90	39.59	
2025-01-18 18:01:23.49	116.84	39.64	
2025-01-18 18:01:23.69	116.77	39.69	
2025-01-18 18:01:23.89	116.70	39.74	
2025-01-18 18:01:24.10	116.63	39.79	
2025-01-18 18:01:24.30	116.56	39.84	
2025-01-18 18:01:24.50	116.50	39.89	
2025-01-18 18:01:24.71	116.42	39.94	
2025-01-18 18:01:24.91	116.36	39.99	
2025-01-18 18:01:25.11	116.29	40.04	
2025-01-18 18:01:25.32	116.21	40.09	
2025-01-18 18:01:25.52	116.15	40.14	
2025-01-18 18:01:25.72	116.08	40.18	
2025-01-18 18:01:25.93	116.00	40.24	
2025-01-18 18:01:26.13	115.93	40.28	
2025-01-18 18:01:26.33	115.86	40.33	
2025-01-18 18:01:26.53	115.79	40.38	
2025-01-18 18:01:26.74	115.72	40.43	
2025-01-18 18:01:26.94	115.65	40.48	
2025-01-18 18:01:27.14	115.58	40.53	
2025-01-18 18:01:27.35	115.50	40.58	
2025-01-18 18:01:27.55	115.43	40.63	
2025-01-18 18:01:27.75	115.36	40.68	
2025-01-18 18:01:27.96	115.28	40.73	
2025-01-18 18:01:28.16	115.21	40.78	
2025-01-18 18:01:28.36	115.14	40.83	
2025-01-18 18:01:28.57	115.06	40.88	
2025-01-18 18:01:28.77	114.99	40.93	
2025-01-18 18:01:28.97	114.92	40.98	
2025-01-18 18:01:29.17	114.84	41.03	
2025-01-18 18:01:29.38	114.77	41.08	
2025-01-18 18:01:29.58	114.69	41.13	
2025-01-18 18:01:29.78	114.62	41.18	
2025-01-18 18:01:29.99	114.54	41.23	
2025-01-18 18:01:30.19	114.47	41.28	
2025-01-18 18:01:30.39	114.39	41.33	
2025-01-18 18:01:30.60	114.32	41.38	
2025-01-18 18:01:30.80	114.24	41.43	
2025-01-18 18:01:31.00	114.16	41.48	
2025-01-18 18:01:31.20	114.09	41.53	
2025-01-18 18:01:31.41	114.01	41.58	
2025-01-18 18:01:31.61	113.93	41.63	
2025-01-18 18:01:31.81	113.86	41.68	
2025-01-18 18:01:32.02	113.78	41.73	
2025-01-18 18:01:32.22	113.70	41.78	
2025-01-18 18:01:32.42	113.62	41.83	
2025-01-18 18:01:32.63	113.54	41.88	
2025-01-18 18:01:32.83	113.47	41.93	
2025-01-18 18:01:33.03	113.39	41.98	
2025-01-18 18:01:33.24	113.31	42.03	
2025-01-18 18:01:33.44	113.23	42.08	
2025-01-18 18:01:33.64	113.15	42.13	
2025-01-18 18:01:33.84	113.07	42.18	
2025-01-18 18:01:34.05	112.99	42.23	
2025-01-18 18:01:34.25	112.91	42.28	
2025-01-18 18:01:34.45	112.83	42.33	
2025-01-18 18:01:34.66	112.75	42.38	
2025-01-18 18:01:34.86	112.67	42.43	
2025-01-18 18:01:35.06	112.59	42.48	
2025-01-18 18:01:35.27	112.50	42.53	
2025-01-18 18:01:35.47	112.42	42.58	
2025-01-18 18:01:35.67	112.34	42.63	
2025-01-18 18:01:35.88	112.25	42.68	
2025-01-18 18:01:36.08	112.17	42.73	
2025-01-18 18:01:36.28	112.09	42.78	
2025-01-18 18:01:36.48	112.01	42.83	
2025-01-18 18:01:36.69	111.92	42.88	
2025-01-18 18:01:36.89	111.84	42.93	
2025-01-18 18:01:37.09	111.76	42.98	
2025-01-18 18:01:37.30	111.67	43.03	
2025-01-18 18:01:37.50	111.59	43.08	
2025-01-18 18:01:37.70	111.50	43.13	
2025-01-18 18:01:37.91	111.41	43.18	
2025-01-18 18:01:38.11	111.33	43.23	
2025-01-18 18:01:38.31	111.25	43.28	
2025-01-18 18:01:38.52	111.16	43.33	
2025-01-18 18:01:38.72	111.07	43.38	
2025-01-18 18:01:38.92	110.99	43.43	
2025-01-18 18:01:39.12	110.90	43.48	
2025-01-18 18:01:39.33	110.81	43.53	
2025-01-18 18:01:39.53	110.73	43.58	
2025-01-18 18:01:39.73	110.64	43.63	
2025-01-18 18:01:39.94	110.55	43.69	
2025-01-18 18:01:40.14	110.46	43.73	
2025-01-18 18:01:40.34	110.37	43.78	
2025-01-18 18:01:40.55	110.28	43.84	
2025-01-18 18:01:40.75	110.19	43.89	
2025-01-18 18:01:40.95	110.11	43.93	
2025-01-18 18:01:41.16	110.01	43.99	
2025-01-18 18:01:41.36	109.93	44.04	
2025-01-18 18:01:41.56	109.84	44.09	
2025-01-18 18:01:41.76	109.75	44.13	
2025-01-18 18:01:41.97	109.65	44.19	
2025-01-18 18:01:42.17	109.56	44.24	
2025-01-18 18:01:42.37	109.47	44.28	
2025-01-18 18:01:42.58	109.38	44.34	
2025-01-18 18:01:42.78	109.29	44.39	
2025-01-18 18:01:42.98	109.20	44.44	
2025-01-18 18:01:43.19	109.10	44.49	
2025-01-18 18:01:43.39	109.01	44.54	
2025-01-18 18:01:43.59	108.92	44.59	
2025-01-18 18:01:43.80	108.82	44.64	
2025-01-18 18:01:44.00	108.73	44.69	
2025-01-18 18:01:44.20	108.64	44.74	
2025-01-18 18:01:44.40	108.54	44.78	
2025-01-18 18:01:44.61	108.45	44.84	
2025-01-18 18:01:44.81	108.35	44.89	
2025-01-18 18:01:45.01	108.26	44.93	
2025-01-18 18:01:45.22	108.16	44.99	
2025-01-18 18:01:45.42	108.07	45.03	
2025-01-18 18:01:45.62	107.97	45.08	
2025-01-18 18:01:45.83	107.87	45.14	
2025-01-18 18:01:46.03	107.78	45.18	
2025-01-18 18:01:46.23	107.68	45.23	
2025-01-18 18:01:46.44	107.58	45.28	
2025-01-18 18:01:46.64	107.48	45.33	
2025-01-18 18:01:46.84	107.39	45.38	
2025-01-18 18:01:47.04	107.29	45.43	
2025-01-18 18:01:47.25	107.19	45.48	
2025-01-18 18:01:47.45	107.09	45.53	
2025-01-18 18:01:47.65	106.99	45.58	
2025-01-18 18:01:47.86	106.89	45.63	
2025-01-18 18:01:48.06	106.79	45.68	
2025-01-18 18:01:48.26	106.69	45.73	
2025-01-18 18:01:48.47	106.59	45.78	
2025-01-18 18:01:48.67	106.49	45.83	
2025-01-18 18:01:48.87	106.39	45.88	
2025-01-18 18:01:49.07	106.29	45.92	
2025-01-18 18:01:49.28	106.19	45.98	
2025-01-18 18:01:49.48	106.08	46.02	
2025-01-18 18:01:49.68	105.98	46.07	
2025-01-18 18:01:49.89	105.88	46.12	
2025-01-18 18:01:50.09	105.78	46.17	
2025-01-18 18:01:50.29	105.67	46.22	
2025-01-18 18:01:50.50	105.57	46.27	
2025-01-18 18:01:50.70	105.46	46.32	
2025-01-18 18:01:50.90	105.36	46.37	
2025-01-18 18:01:51.11	105.25	46.42	
2025-01-18 18:01:51.31	105.15	46.47	
2025-01-18 18:01:51.51	105.05	46.51	
2025-01-18 18:01:51.71	104.94	46.56	
2025-01-18 18:01:51.92	104.83	46.61	
2025-01-18 18:01:52.12	104.73	46.66	
2025-01-18 18:01:52.32	104.62	46.71	
2025-01-18 18:01:52.53	104.51	46.76	
2025-01-18 18:01:52.73	104.41	46.81	
2025-01-18 18:01:52.93	104.30	46.85	
2025-01-18 18:01:53.14	104.19	46.90	
2025-01-18 18:01:53.34	104.08	46.95	
2025-01-18 18:01:53.54	103.97	47.00	
2025-01-18 18:01:53.75	103.86	47.05	
2025-01-18 18:01:53.95	103.75	47.10	
2025-01-18 18:01:54.15	103.65	47.14	
2025-01-18 18:01:54.35	103.54	47.19	
2025-01-18 18:01:54.56	103.42	47.24	
2025-01-18 18:01:54.76	103.31	47.29	
2025-01-18 18:01:54.96	103.20	47.33	
2025-01-18 18:01:55.17	103.09	47.38	
2025-01-18 18:01:55.37	102.98	47.43	
2025-01-18 18:01:55.57	102.87	47.48	
2025-01-18 18:01:55.78	102.75	47.53	
2025-01-18 18:01:55.98	102.64	47.57	
2025-01-18 18:01:56.18	102.53	47.62	
2025-01-18 18:01:56.39	102.41	47.67	
2025-01-18 18:01:56.59	102.30	47.72	
2025-01-18 18:01:56.79	102.19	47.76	
2025-01-18 18:01:56.99	102.07	47.81	
2025-01-18 18:01:57.20	101.95	47.86	
2025-01-18 18:01:57.40	101.84	47.90	
2025-01-18 18:01:57.60	101.73	47.95	
2025-01-18 18:01:57.81	101.61	48.00	
2025-01-18 18:01:58.01	101.49	48.05	
2025-01-18 18:01:58.21	101.38	48.09	
2025-01-18 18:01:58.42	101.26	48.14	
2025-01-18 18:01:58.62	101.14	48.19	
2025-01-18 18:01:58.82	101.02	48.23	
2025-01-18 18:01:59.03	100.90	48.28	
2025-01-18 18:01:59.23	100.78	48.32	
2025-01-18 18:01:59.43	100.67	48.37	
2025-01-18 18:01:59.63	100.55	48.42	
2025-01-18 18:01:59.84	100.43	48.46	
2025-01-18 18:02:00.04	100.31	48.51	
2025-01-18 18:02:00.24	100.19	48.55	
2025-01-18 18:02:00.45	100.06	48.60	
2025-01-18 18:02:00.65	99.94	48.65	
2025-01-18 18:02:00.85	99.83	48.69	
2025-01-18 18:02:01.06	99.70	48.74	
2025-01-18 18:02:01.26	99.58	48.78	
2025-01-18 18:02:01.46	99.46	48.83	
2025-01-18 18:02:01.67	99.33	48.88	
2025-01-18 18:02:01.87	99.21	48.92	
2025-01-18 18:02:02.07	99.09	48.96	
2025-01-18 18:02:02.27	98.97	49.01	
2025-01-18 18:02:02.48	98.84	49.06	
2025-01-18 18:02:02.68	98.71	49.10	
2025-01-18 18:02:02.88	98.59	49.14	
2025-01-18 18:02:03.09	98.46	49.19	
2025-01-18 18:02:03.29	98.34	49.23	
2025-01-18 18:02:03.49	98.21	49.28	
2025-01-18 18:02:03.70	98.08	49.32	
2025-01-18 18:02:03.90	97.96	49.37	
2025-01-18 18:02:04.10	97.83	49.41	
2025-01-18 18:02:04.30	97.70	49.45	
2025-01-18 18:02:04.51	97.57	49.50	
2025-01-18 18:02:04.71	97.45	49.54	
2025-01-18 18:02:04.91	97.32	49.59	
2025-01-18 18:02:05.12	97.18	49.63	
2025-01-18 18:02:05.32	97.06	49.67	
2025-01-18 18:02:05.52	96.93	49.72	
2025-01-18 18:02:05.73	96.79	49.76	
2025-01-18 18:02:05.93	96.67	49.80	
2025-01-18 18:02:06.13	96.54	49.85	
2025-01-18 18:02:06.34	96.40	49.89	
2025-01-18 18:02:06.54	96.27	49.93	
2025-01-18 18:02:06.74	96.14	49.97	
2025-01-18 18:02:06.94	96.01	50.02	
2025-01-18 18:02:07.15	95.87	50.06	
2025-01-18 18:02:07.35	95.74	50.10	
2025-01-18 18:02:07.55	95.61	50.14	
2025-01-18 18:02:07.76	95.47	50.19	
2025-01-18 18:02:07.96	95.34	50.23	
2025-01-18 18:02:08.16	95.20	50.27	
2025-01-18 18:02:08.37	95.06	50.31	
2025-01-18 18:02:08.57	94.93	50.35	
2025-01-18 18:02:08.77	94.80	50.39	
2025-01-18 18:02:08.98	94.66	50.44	
2025-01-18 18:02:09.18	94.52	50.48	
2025-01-18 18:02:09.38	94.39	50.52	
2025-01-18 18:02:09.58	94.25	50.56	
2025-01-18 18:02:09.79	94.11	50.60	
2025-01-18 18:02:09.99	93.97	50.64	
2025-01-18 18:02:10.19	93.83	50.68	
2025-01-18 18:02:10.40	93.69	50.72	
2025-01-18 18:02:10.60	93.55	50.76	
2025-01-18 18:02:10.80	93.42	50.80	
2025-01-18 18:02:11.01	93.27	50.84	
2025-01-18 18:02:11.21	93.13	50.88	
2025-01-18 18:02:11.41	92.99	50.92	
2025-01-18 18:02:11.62	92.85	50.96	
2025-01-18 18:02:11.82	92.71	51.00	
2025-01-18 18:02:12.02	92.57	51.04	
2025-01-18 18:02:12.22	92.43	51.08	
2025-01-18 18:02:12.43	92.28	51.12	
2025-01-18 18:02:12.63	92.14	51.16	
2025-01-18 18:02:12.83	92.00	51.19	
2025-01-18 18:02:13.04	91.85	51.23	
2025-01-18 18:02:13.24	91.71	51.27	
2025-01-18 18:02:13.44	91.56	51.31	
2025-01-18 18:02:13.65	91.41	51.35	
2025-01-18 18:02:13.85	91.27	51.39	
2025-01-18 18:02:14.05	91.13	51.42	
2025-01-18 18:02:14.26	90.98	51.46	
2025-01-18 18:02:14.46	90.83	51.50	
2025-01-18 18:02:14.66	90.69	51.53	
2025-01-18 18:02:14.86	90.54	51.57	
2025-01-18 18:02:15.07	90.39	51.61	
2025-01-18 18:02:15.27	90.24	51.64	
2025-01-18 18:02:15.47	90.10	51.68	
2025-01-18 18:02:15.68	89.94	51.72	
2025-01-18 18:02:15.88	89.80	51.75	
2025-01-18 18:02:16.08	89.65	51.79	
2025-01-18 18:02:16.29	89.49	51.83	
2025-01-18 18:02:16.49	89.35	51.86	
2025-01-18 18:02:16.69	89.20	51.90	
2025-01-18 18:02:16.90	89.04	51.93	
2025-01-18 18:02:17.10	88.89	51.97	
2025-01-18 18:02:17.30	88.74	52.00	
2025-01-18 18:02:17.50	88.59	52.04	
2025-01-18 18:02:17.71	88.44	52.07	
2025-01-18 18:02:17.91	88.29	52.11	
2025-01-18 18:02:18.11	88.13	52.14	
2025-01-18 18:02:18.32	87.98	52.17	
2025-01-18 18:02:18.52	87.82	52.21	
2025-01-18 18:02:18.72	87.67	52.24	
2025-01-18 18:02:18.93	87.51	52.27	
2025-01-18 18:02:19.13	87.36	52.31	
2025-01-18 18:02:19.33	87.21	52.34	
2025-01-18 18:02:19.53	87.05	52.37	
2025-01-18 18:02:19.74	86.89	52.41	
2025-01-18 18:02:19.94	86.74	52.44	
2025-01-18 18:02:20.14	86.59	52.47	
2025-01-18 18:02:20.35	86.42	52.50	
2025-01-18 18:02:20.55	86.27	52.53	
2025-01-18 18:02:20.75	86.11	52.57	
2025-01-18 18:02:20.96	85.95	52.60	
2025-01-18 18:02:21.16	85.79	52.63	
2025-01-18 18:02:21.36	85.64	52.66	
2025-01-18 18:02:21.57	85.47	52.69	
2025-01-18 18:02:21.77	85.32	52.72	
2025-01-18 18:02:21.97	85.16	52.75	
2025-01-18 18:02:22.17	85.00	52.78	
2025-01-18 18:02:22.38	84.83	52.81	
2025-01-18 18:02:22.58	84.68	52.84	
2025-01-18 18:02:22.78	84.52	52.87	
2025-01-18 18:02:22.99	84.35	52.90	
2025-01-18 18:02:23.19	84.19	52.93	
2025-01-18 18:02:23.39	84.03	52.96	
2025-01-18 18:02:23.60	83.86	52.99	
2025-01-18 18:02:23.80	83.70	53.02	
2025-01-18 18:02:24.00	83.54	53.04	
2025-01-18 18:02:24.21	83.38	53.07	
2025-01-18 18:02:24.41	83.21	53.10	
2025-01-18 18:02:24.61	83.05	53.13	
2025-01-18 18:02:24.81	82.89	53.15	
2025-01-18 18:02:25.02	82.72	53.18	
2025-01-18 18:02:25.22	82.56	53.21	
2025-01-18 18:02:25.42	82.40	53.24	
2025-01-18 18:02:25.63	82.23	53.26	
2025-01-18 18:02:25.83	82.06	53.29	
2025-01-18 18:02:26.03	81.90	53.31	
2025-01-18 18:02:26.24	81.73	53.34	
2025-01-18 18:02:26.44	81.56	53.37	
2025-01-18 18:02:26.64	81.40	53.39	
2025-01-18 18:02:26.85	81.22	53.42	
2025-01-18 18:02:27.05	81.06	53.44	
2025-01-18 18:02:27.25	80.89	53.47	
2025-01-18 18:02:27.45	80.73	53.49	
2025-01-18 18:02:27.66	80.56	53.51	
2025-01-18 18:02:27.86	80.39	53.54	
2025-01-18 18:02:28.06	80.22	53.56	
2025-01-18 18:02:28.27	80.05	53.59	
