passes_logs/2025/01/18/SPB_Silybum_02/SPB_Silybum_02__20250118_005653_SUOMI_NPP_rec.log

#Pass ID: 20250118_005653_SUOMI NPP
#Satellite: SUOMI NPP
#Configuration: NPP
#Start time: 2025-01-18 00:56:52

#Version: 2.0.20230423
#Station: SPB_Silybum_02
#Location: 30.233357 lon 59.946436 lat
#TLE: 1 37849U 11061A   25017.17539025  .00000183  00000+0  10766-3 0  9991
#TLE: 2 37849  98.7449 318.1364 0001599  37.8052 322.3236 14.19539290685226

#Time	Az	El	Level	Level2	SNR	BER	Gain	Gain2
2025-01-18 00:56:54.63	16.19	4.06	
2025-01-18 00:56:54.83	16.19	4.08	
2025-01-18 00:56:55.03	16.18	4.09	
2025-01-18 00:56:55.24	16.18	4.10	
2025-01-18 00:56:55.44	16.17	4.12	
2025-01-18 00:56:55.64	16.17	4.13	
2025-01-18 00:56:55.85	16.16	4.14	
2025-01-18 00:56:56.05	16.16	4.16	
2025-01-18 00:56:56.25	16.16	4.17	
2025-01-18 00:56:56.46	16.15	4.19	
2025-01-18 00:56:56.66	16.15	4.20	
2025-01-18 00:56:56.86	16.14	4.21	
2025-01-18 00:56:57.06	16.14	4.23	
2025-01-18 00:56:57.27	16.13	4.24	
2025-01-18 00:56:57.47	16.13	4.25	
2025-01-18 00:56:57.67	16.12	4.27	
2025-01-18 00:56:57.88	16.12	4.28	
2025-01-18 00:56:58.08	16.11	4.30	
2025-01-18 00:56:58.28	16.11	4.31	
2025-01-18 00:56:58.49	16.10	4.32	
2025-01-18 00:56:58.69	16.10	4.34	
2025-01-18 00:56:58.89	16.09	4.35	
2025-01-18 00:56:59.09	16.09	4.37	
2025-01-18 00:56:59.30	16.08	4.38	
2025-01-18 00:56:59.50	16.08	4.39	
2025-01-18 00:56:59.70	16.07	4.41	
2025-01-18 00:56:59.91	16.07	4.42	
2025-01-18 00:57:00.11	16.06	4.44	
2025-01-18 00:57:00.31	16.06	4.45	
2025-01-18 00:57:00.52	16.05	4.46	
2025-01-18 00:57:00.72	16.05	4.48	
2025-01-18 00:57:00.92	16.04	4.49	
2025-01-18 00:57:01.12	16.04	4.50	
2025-01-18 00:57:01.33	16.03	4.52	
2025-01-18 00:57:01.53	16.03	4.53	
2025-01-18 00:57:01.73	16.02	4.55	
2025-01-18 00:57:01.94	16.02	4.56	
2025-01-18 00:57:02.14	16.01	4.58	
2025-01-18 00:57:02.34	16.01	4.59	
2025-01-18 00:57:02.55	16.00	4.60	
2025-01-18 00:57:02.75	16.00	4.62	
2025-01-18 00:57:02.95	15.99	4.63	
2025-01-18 00:57:03.15	15.99	4.65	
2025-01-18 00:57:03.36	15.98	4.66	
2025-01-18 00:57:03.56	15.98	4.67	
2025-01-18 00:57:03.76	15.97	4.69	
2025-01-18 00:57:03.97	15.97	4.70	
2025-01-18 00:57:04.17	15.96	4.72	
2025-01-18 00:57:04.37	15.96	4.73	
2025-01-18 00:57:04.57	15.95	4.74	
2025-01-18 00:57:04.78	15.95	4.76	
2025-01-18 00:57:04.98	15.94	4.77	
2025-01-18 00:57:05.18	15.94	4.79	
2025-01-18 00:57:05.39	15.93	4.80	
2025-01-18 00:57:05.59	15.93	4.81	
2025-01-18 00:57:05.79	15.92	4.83	
2025-01-18 00:57:06.00	15.92	4.84	
2025-01-18 00:57:06.20	15.91	4.86	
2025-01-18 00:57:06.40	15.91	4.87	
2025-01-18 00:57:06.60	15.90	4.88	
2025-01-18 00:57:06.81	15.90	4.90	
2025-01-18 00:57:07.01	15.89	4.91	
2025-01-18 00:57:07.21	15.89	4.93	
2025-01-18 00:57:07.42	15.88	4.94	
2025-01-18 00:57:07.62	15.88	4.96	
2025-01-18 00:57:07.82	15.87	4.97	
2025-01-18 00:57:08.03	15.87	4.98	
2025-01-18 00:57:08.23	15.86	5.00	
2025-01-18 00:57:08.43	15.86	5.01	
2025-01-18 00:57:08.63	15.85	5.03	
2025-01-18 00:57:08.84	15.85	5.04	
2025-01-18 00:57:09.04	15.84	5.06	
2025-01-18 00:57:09.24	15.84	5.07	
2025-01-18 00:57:09.45	15.83	5.08	
2025-01-18 00:57:09.65	15.83	5.10	
2025-01-18 00:57:09.85	15.82	5.11	
2025-01-18 00:57:10.06	15.82	5.13	
2025-01-18 00:57:10.26	15.81	5.14	
2025-01-18 00:57:10.46	15.81	5.16	
2025-01-18 00:57:10.66	15.80	5.17	
2025-01-18 00:57:10.87	15.80	5.18	
2025-01-18 00:57:11.07	15.79	5.20	
2025-01-18 00:57:11.27	15.78	5.21	
2025-01-18 00:57:11.48	15.78	5.23	
2025-01-18 00:57:11.68	15.77	5.24	
2025-01-18 00:57:11.88	15.77	5.26	
2025-01-18 00:57:12.09	15.76	5.27	
2025-01-18 00:57:12.29	15.76	5.29	
2025-01-18 00:57:12.49	15.75	5.30	
2025-01-18 00:57:12.69	15.75	5.31	
2025-01-18 00:57:12.90	15.74	5.33	
2025-01-18 00:57:13.10	15.74	5.34	
2025-01-18 00:57:13.30	15.73	5.36	
2025-01-18 00:57:13.51	15.73	5.37	
2025-01-18 00:57:13.71	15.72	5.39	
2025-01-18 00:57:13.91	15.72	5.40	
2025-01-18 00:57:14.11	15.71	5.41	
2025-01-18 00:57:14.32	15.71	5.43	
2025-01-18 00:57:14.52	15.70	5.44	
2025-01-18 00:57:14.72	15.70	5.46	
2025-01-18 00:57:14.93	15.69	5.47	
2025-01-18 00:57:15.13	15.68	5.49	
2025-01-18 00:57:15.33	15.68	5.50	
2025-01-18 00:57:15.54	15.67	5.52	
2025-01-18 00:57:15.74	15.67	5.53	
2025-01-18 00:57:15.94	15.66	5.54	
2025-01-18 00:57:16.14	15.66	5.56	
2025-01-18 00:57:16.35	15.65	5.57	
2025-01-18 00:57:16.55	15.65	5.59	
2025-01-18 00:57:16.75	15.64	5.60	
2025-01-18 00:57:16.96	15.64	5.62	
2025-01-18 00:57:17.16	15.63	5.63	
2025-01-18 00:57:17.36	15.63	5.65	
2025-01-18 00:57:17.57	15.62	5.66	
2025-01-18 00:57:17.77	15.61	5.68	
2025-01-18 00:57:17.97	15.61	5.69	
2025-01-18 00:57:18.17	15.60	5.70	
2025-01-18 00:57:18.38	15.60	5.72	
2025-01-18 00:57:18.58	15.59	5.73	
2025-01-18 00:57:18.78	15.59	5.75	
2025-01-18 00:57:18.99	15.58	5.76	
2025-01-18 00:57:19.19	15.58	5.78	
2025-01-18 00:57:19.39	15.57	5.79	
2025-01-18 00:57:19.60	15.57	5.81	
2025-01-18 00:57:19.80	15.56	5.82	
2025-01-18 00:57:20.00	15.55	5.84	
2025-01-18 00:57:20.20	15.55	5.85	
2025-01-18 00:57:20.41	15.54	5.87	
2025-01-18 00:57:20.61	15.54	5.88	
2025-01-18 00:57:20.81	15.53	5.90	
2025-01-18 00:57:21.02	15.53	5.91	
2025-01-18 00:57:21.22	15.52	5.93	
2025-01-18 00:57:21.42	15.52	5.94	
2025-01-18 00:57:21.63	15.51	5.95	
2025-01-18 00:57:21.83	15.51	5.97	
2025-01-18 00:57:22.03	15.50	5.98	
2025-01-18 00:57:22.23	15.49	6.00	
2025-01-18 00:57:22.44	15.49	6.01	
2025-01-18 00:57:22.64	15.48	6.03	
2025-01-18 00:57:22.84	15.48	6.04	
2025-01-18 00:57:23.05	15.47	6.06	
2025-01-18 00:57:23.25	15.47	6.07	
2025-01-18 00:57:23.45	15.46	6.09	
2025-01-18 00:57:23.66	15.45	6.10	
2025-01-18 00:57:23.86	15.45	6.12	
2025-01-18 00:57:24.06	15.44	6.13	
2025-01-18 00:57:24.26	15.44	6.15	
2025-01-18 00:57:24.47	15.43	6.16	
2025-01-18 00:57:24.67	15.43	6.18	
2025-01-18 00:57:24.87	15.42	6.19	
2025-01-18 00:57:25.08	15.42	6.21	
2025-01-18 00:57:25.28	15.41	6.22	
2025-01-18 00:57:25.48	15.40	6.24	
2025-01-18 00:57:25.68	15.40	6.25	
2025-01-18 00:57:25.89	15.39	6.27	
2025-01-18 00:57:26.09	15.39	6.28	
2025-01-18 00:57:26.29	15.38	6.30	
2025-01-18 00:57:26.50	15.38	6.31	
2025-01-18 00:57:26.70	15.37	6.33	
2025-01-18 00:57:26.90	15.36	6.34	
2025-01-18 00:57:27.11	15.36	6.36	
2025-01-18 00:57:27.31	15.35	6.37	
2025-01-18 00:57:27.51	15.35	6.39	
2025-01-18 00:57:27.71	15.34	6.40	
2025-01-18 00:57:27.92	15.34	6.42	
2025-01-18 00:57:28.12	15.33	6.43	
2025-01-18 00:57:28.32	15.32	6.44	
2025-01-18 00:57:28.53	15.32	6.46	
2025-01-18 00:57:28.73	15.31	6.48	
2025-01-18 00:57:28.93	15.31	6.49	
2025-01-18 00:57:29.14	15.30	6.51	
2025-01-18 00:57:29.34	15.30	6.52	
2025-01-18 00:57:29.54	15.29	6.54	
2025-01-18 00:57:29.74	15.28	6.55	
2025-01-18 00:57:29.95	15.28	6.57	
2025-01-18 00:57:30.15	15.27	6.58	
2025-01-18 00:57:30.35	15.27	6.60	
2025-01-18 00:57:30.56	15.26	6.61	
2025-01-18 00:57:30.76	15.25	6.63	
2025-01-18 00:57:30.96	15.25	6.64	
2025-01-18 00:57:31.17	15.24	6.66	
2025-01-18 00:57:31.37	15.24	6.67	
2025-01-18 00:57:31.57	15.23	6.69	
2025-01-18 00:57:31.77	15.23	6.70	
2025-01-18 00:57:31.98	15.22	6.72	
2025-01-18 00:57:32.18	15.21	6.73	
2025-01-18 00:57:32.38	15.21	6.75	
2025-01-18 00:57:32.59	15.20	6.76	
2025-01-18 00:57:32.79	15.20	6.78	
2025-01-18 00:57:32.99	15.19	6.79	
2025-01-18 00:57:33.20	15.18	6.81	
2025-01-18 00:57:33.40	15.18	6.82	
2025-01-18 00:57:33.60	15.17	6.84	
2025-01-18 00:57:33.80	15.17	6.85	
2025-01-18 00:57:34.01	15.16	6.87	
2025-01-18 00:57:34.21	15.15	6.88	
2025-01-18 00:57:34.41	15.15	6.90	
2025-01-18 00:57:34.62	15.14	6.91	
2025-01-18 00:57:34.82	15.14	6.93	
2025-01-18 00:57:35.02	15.13	6.94	
2025-01-18 00:57:35.22	15.12	6.96	
2025-01-18 00:57:35.43	15.12	6.98	
2025-01-18 00:57:35.63	15.11	6.99	
2025-01-18 00:57:35.83	15.11	7.01	
2025-01-18 00:57:36.04	15.10	7.02	
2025-01-18 00:57:36.24	15.09	7.04	
2025-01-18 00:57:36.44	15.09	7.05	
2025-01-18 00:57:36.65	15.08	7.07	
2025-01-18 00:57:36.85	15.08	7.08	
2025-01-18 00:57:37.05	15.07	7.10	
2025-01-18 00:57:37.25	15.06	7.11	
2025-01-18 00:57:37.46	15.06	7.13	
2025-01-18 00:57:37.66	15.05	7.14	
2025-01-18 00:57:37.86	15.05	7.16	
2025-01-18 00:57:38.07	15.04	7.18	
2025-01-18 00:57:38.27	15.03	7.19	
2025-01-18 00:57:38.47	15.03	7.21	
2025-01-18 00:57:38.68	15.02	7.22	
2025-01-18 00:57:38.88	15.02	7.24	
2025-01-18 00:57:39.08	15.01	7.25	
2025-01-18 00:57:39.28	15.00	7.27	
2025-01-18 00:57:39.49	15.00	7.28	
2025-01-18 00:57:39.69	14.99	7.30	
2025-01-18 00:57:39.89	14.99	7.31	
2025-01-18 00:57:40.10	14.98	7.33	
2025-01-18 00:57:40.30	14.97	7.35	
2025-01-18 00:57:40.50	14.97	7.36	
2025-01-18 00:57:40.71	14.96	7.38	
2025-01-18 00:57:40.91	14.95	7.39	
2025-01-18 00:57:41.11	14.95	7.41	
2025-01-18 00:57:41.31	14.94	7.42	
2025-01-18 00:57:41.52	14.94	7.44	
2025-01-18 00:57:41.72	14.93	7.45	
2025-01-18 00:57:41.92	14.92	7.47	
2025-01-18 00:57:42.13	14.92	7.49	
2025-01-18 00:57:42.33	14.91	7.50	
2025-01-18 00:57:42.53	14.90	7.52	
2025-01-18 00:57:42.74	14.90	7.53	
2025-01-18 00:57:42.94	14.89	7.55	
2025-01-18 00:57:43.14	14.89	7.56	
2025-01-18 00:57:43.34	14.88	7.58	
2025-01-18 00:57:43.55	14.87	7.60	
2025-01-18 00:57:43.75	14.87	7.61	
2025-01-18 00:57:43.95	14.86	7.63	
2025-01-18 00:57:44.16	14.85	7.64	
2025-01-18 00:57:44.36	14.85	7.66	
2025-01-18 00:57:44.56	14.84	7.67	
2025-01-18 00:57:44.76	14.84	7.69	
2025-01-18 00:57:44.97	14.83	7.71	
2025-01-18 00:57:45.17	14.82	7.72	
2025-01-18 00:57:45.37	14.82	7.74	
2025-01-18 00:57:45.58	14.81	7.75	
2025-01-18 00:57:45.78	14.80	7.77	
2025-01-18 00:57:45.98	14.80	7.78	
2025-01-18 00:57:46.19	14.79	7.80	
2025-01-18 00:57:46.39	14.78	7.82	
2025-01-18 00:57:46.59	14.78	7.83	
2025-01-18 00:57:46.79	14.77	7.85	
2025-01-18 00:57:47.00	14.76	7.86	
2025-01-18 00:57:47.20	14.76	7.88	
2025-01-18 00:57:47.40	14.75	7.89	
2025-01-18 00:57:47.61	14.75	7.91	
2025-01-18 00:57:47.81	14.74	7.93	
2025-01-18 00:57:48.01	14.73	7.94	
2025-01-18 00:57:48.22	14.73	7.96	
2025-01-18 00:57:48.42	14.72	7.97	
2025-01-18 00:57:48.62	14.71	7.99	
2025-01-18 00:57:48.82	14.71	8.01	
2025-01-18 00:57:49.03	14.70	8.02	
2025-01-18 00:57:49.23	14.69	8.04	
2025-01-18 00:57:49.43	14.69	8.05	
2025-01-18 00:57:49.64	14.68	8.07	
2025-01-18 00:57:49.84	14.67	8.09	
2025-01-18 00:57:50.04	14.67	8.10	
2025-01-18 00:57:50.25	14.66	8.12	
2025-01-18 00:57:50.45	14.65	8.13	
2025-01-18 00:57:50.65	14.65	8.15	
2025-01-18 00:57:50.85	14.64	8.16	
2025-01-18 00:57:51.06	14.63	8.18	
2025-01-18 00:57:51.26	14.63	8.20	
2025-01-18 00:57:51.46	14.62	8.21	
2025-01-18 00:57:51.67	14.61	8.23	
2025-01-18 00:57:51.87	14.61	8.25	
2025-01-18 00:57:52.07	14.60	8.26	
2025-01-18 00:57:52.28	14.59	8.28	
2025-01-18 00:57:52.48	14.59	8.29	
2025-01-18 00:57:52.68	14.58	8.31	
2025-01-18 00:57:52.88	14.58	8.33	
2025-01-18 00:57:53.09	14.57	8.34	
2025-01-18 00:57:53.29	14.56	8.36	
2025-01-18 00:57:53.49	14.56	8.37	
2025-01-18 00:57:53.70	14.55	8.39	
2025-01-18 00:57:53.90	14.54	8.41	
2025-01-18 00:57:54.10	14.53	8.42	
2025-01-18 00:57:54.30	14.53	8.44	
2025-01-18 00:57:54.51	14.52	8.46	
2025-01-18 00:57:54.71	14.51	8.47	
2025-01-18 00:57:54.91	14.51	8.49	
2025-01-18 00:57:55.12	14.50	8.50	
2025-01-18 00:57:55.32	14.49	8.52	
2025-01-18 00:57:55.52	14.49	8.54	
2025-01-18 00:57:55.73	14.48	8.55	
2025-01-18 00:57:55.93	14.47	8.57	
2025-01-18 00:57:56.13	14.47	8.58	
2025-01-18 00:57:56.33	14.46	8.60	
2025-01-18 00:57:56.54	14.45	8.62	
2025-01-18 00:57:56.74	14.45	8.63	
2025-01-18 00:57:56.94	14.44	8.65	
2025-01-18 00:57:57.15	14.43	8.67	
2025-01-18 00:57:57.35	14.43	8.68	
2025-01-18 00:57:57.55	14.42	8.70	
2025-01-18 00:57:57.76	14.41	8.72	
2025-01-18 00:57:57.96	14.41	8.73	
2025-01-18 00:57:58.16	14.40	8.75	
2025-01-18 00:57:58.36	14.39	8.76	
2025-01-18 00:57:58.57	14.39	8.78	
2025-01-18 00:57:58.77	14.38	8.80	
2025-01-18 00:57:58.97	14.37	8.81	
2025-01-18 00:57:59.18	14.36	8.83	
2025-01-18 00:57:59.38	14.36	8.85	
2025-01-18 00:57:59.58	14.35	8.86	
2025-01-18 00:57:59.79	14.34	8.88	
2025-01-18 00:57:59.99	14.34	8.90	
2025-01-18 00:58:00.19	14.33	8.91	
2025-01-18 00:58:00.39	14.32	8.93	
2025-01-18 00:58:00.60	14.32	8.95	
2025-01-18 00:58:00.80	14.31	8.96	
2025-01-18 00:58:01.00	14.30	8.98	
2025-01-18 00:58:01.21	14.29	9.00	
2025-01-18 00:58:01.41	14.29	9.01	
2025-01-18 00:58:01.61	14.28	9.03	
2025-01-18 00:58:01.82	14.27	9.04	
2025-01-18 00:58:02.02	14.27	9.06	
2025-01-18 00:58:02.22	14.26	9.08	
2025-01-18 00:58:02.42	14.25	9.09	
2025-01-18 00:58:02.63	14.25	9.11	
2025-01-18 00:58:02.83	14.24	9.13	
2025-01-18 00:58:03.03	14.23	9.14	
2025-01-18 00:58:03.24	14.22	9.16	
2025-01-18 00:58:03.44	14.22	9.18	
2025-01-18 00:58:03.64	14.21	9.19	
2025-01-18 00:58:03.85	14.20	9.21	
2025-01-18 00:58:04.05	14.20	9.23	
2025-01-18 00:58:04.25	14.19	9.24	
2025-01-18 00:58:04.45	14.18	9.26	
2025-01-18 00:58:04.66	14.17	9.28	
2025-01-18 00:58:04.86	14.17	9.29	
2025-01-18 00:58:05.06	14.16	9.31	
2025-01-18 00:58:05.27	14.15	9.33	
2025-01-18 00:58:05.47	14.15	9.34	
2025-01-18 00:58:05.67	14.14	9.36	
2025-01-18 00:58:05.87	14.13	9.38	
2025-01-18 00:58:06.08	14.12	9.39	
2025-01-18 00:58:06.28	14.12	9.41	
2025-01-18 00:58:06.48	14.11	9.43	
2025-01-18 00:58:06.69	14.10	9.45	
2025-01-18 00:58:06.89	14.09	9.46	
2025-01-18 00:58:07.09	14.09	9.48	
2025-01-18 00:58:07.30	14.08	9.50	
2025-01-18 00:58:07.50	14.07	9.51	
2025-01-18 00:58:07.70	14.07	9.53	
2025-01-18 00:58:07.90	14.06	9.55	
2025-01-18 00:58:08.11	14.05	9.56	
2025-01-18 00:58:08.31	14.04	9.58	
2025-01-18 00:58:08.51	14.04	9.60	
2025-01-18 00:58:08.72	14.03	9.61	
2025-01-18 00:58:08.92	14.02	9.63	
2025-01-18 00:58:09.12	14.01	9.65	
2025-01-18 00:58:09.33	14.01	9.66	
2025-01-18 00:58:09.53	14.00	9.68	
2025-01-18 00:58:09.73	13.99	9.70	
2025-01-18 00:58:09.93	13.98	9.71	
2025-01-18 00:58:10.14	13.98	9.73	
2025-01-18 00:58:10.34	13.97	9.75	
2025-01-18 00:58:10.54	13.96	9.77	
2025-01-18 00:58:10.75	13.95	9.78	
2025-01-18 00:58:10.95	13.95	9.80	
2025-01-18 00:58:11.15	13.94	9.82	
2025-01-18 00:58:11.36	13.93	9.83	
2025-01-18 00:58:11.56	13.93	9.85	
2025-01-18 00:58:11.76	13.92	9.87	
2025-01-18 00:58:11.96	13.91	9.89	
2025-01-18 00:58:12.17	13.90	9.90	
2025-01-18 00:58:12.37	13.90	9.92	
2025-01-18 00:58:12.57	13.89	9.94	
2025-01-18 00:58:12.78	13.88	9.95	
2025-01-18 00:58:12.98	13.87	9.97	
2025-01-18 00:58:13.18	13.86	9.99	
2025-01-18 00:58:13.39	13.86	10.01	
2025-01-18 00:58:13.59	13.85	10.02	
2025-01-18 00:58:13.79	13.84	10.04	
2025-01-18 00:58:13.99	13.83	10.06	
2025-01-18 00:58:14.20	13.83	10.07	
2025-01-18 00:58:14.40	13.82	10.09	
2025-01-18 00:58:14.60	13.81	10.11	
2025-01-18 00:58:14.81	13.80	10.13	
2025-01-18 00:58:15.01	13.80	10.14	
2025-01-18 00:58:15.21	13.79	10.16	
2025-01-18 00:58:15.41	13.78	10.18	
2025-01-18 00:58:15.62	13.77	10.20	
2025-01-18 00:58:15.82	13.77	10.21	
2025-01-18 00:58:16.02	13.76	10.23	
2025-01-18 00:58:16.23	13.75	10.25	
2025-01-18 00:58:16.43	13.74	10.26	
2025-01-18 00:58:16.63	13.73	10.28	
2025-01-18 00:58:16.84	13.73	10.30	
2025-01-18 00:58:17.04	13.72	10.32	
2025-01-18 00:58:17.24	13.71	10.33	
2025-01-18 00:58:17.44	13.70	10.35	
2025-01-18 00:58:17.65	13.70	10.37	
2025-01-18 00:58:17.85	13.69	10.39	
2025-01-18 00:58:18.05	13.68	10.40	
2025-01-18 00:58:18.26	13.67	10.42	
2025-01-18 00:58:18.46	13.66	10.44	
2025-01-18 00:58:18.66	13.66	10.46	
2025-01-18 00:58:18.87	13.65	10.47	
2025-01-18 00:58:19.07	13.64	10.49	
2025-01-18 00:58:19.27	13.63	10.51	
2025-01-18 00:58:19.47	13.63	10.53	
2025-01-18 00:58:19.68	13.62	10.54	
2025-01-18 00:58:19.88	13.61	10.56	
2025-01-18 00:58:20.08	13.60	10.58	
2025-01-18 00:58:20.29	13.59	10.60	
2025-01-18 00:58:20.49	13.59	10.61	
2025-01-18 00:58:20.69	13.58	10.63	
2025-01-18 00:58:20.90	13.57	10.65	
2025-01-18 00:58:21.10	13.56	10.67	
2025-01-18 00:58:21.30	13.55	10.68	
2025-01-18 00:58:21.50	13.55	10.70	
2025-01-18 00:58:21.71	13.54	10.72	
2025-01-18 00:58:21.91	13.53	10.74	
2025-01-18 00:58:22.11	13.52	10.75	
2025-01-18 00:58:22.32	13.51	10.77	
2025-01-18 00:58:22.52	13.51	10.79	
2025-01-18 00:58:22.72	13.50	10.81	
2025-01-18 00:58:22.93	13.49	10.83	
2025-01-18 00:58:23.13	13.48	10.84	
2025-01-18 00:58:23.33	13.47	10.86	
2025-01-18 00:58:23.53	13.47	10.88	
2025-01-18 00:58:23.74	13.46	10.90	
2025-01-18 00:58:23.94	13.45	10.91	
2025-01-18 00:58:24.14	13.44	10.93	
2025-01-18 00:58:24.35	13.43	10.95	
2025-01-18 00:58:24.55	13.43	10.97	
2025-01-18 00:58:24.75	13.42	10.99	
2025-01-18 00:58:24.95	13.41	11.00	
2025-01-18 00:58:25.16	13.40	11.02	
2025-01-18 00:58:25.36	13.39	11.04	
2025-01-18 00:58:25.56	13.38	11.06	
2025-01-18 00:58:25.77	13.38	11.08	
2025-01-18 00:58:25.97	13.37	11.09	
2025-01-18 00:58:26.17	13.36	11.11	
2025-01-18 00:58:26.38	13.35	11.13	
2025-01-18 00:58:26.58	13.34	11.15	
2025-01-18 00:58:26.78	13.33	11.16	
2025-01-18 00:58:26.98	13.33	11.18	
2025-01-18 00:58:27.19	13.32	11.20	
2025-01-18 00:58:27.39	13.31	11.22	
2025-01-18 00:58:27.59	13.30	11.24	
2025-01-18 00:58:27.80	13.29	11.26	
2025-01-18 00:58:28.00	13.29	11.27	
2025-01-18 00:58:28.20	13.28	11.29	
2025-01-18 00:58:28.41	13.27	11.31	
2025-01-18 00:58:28.61	13.26	11.33	
2025-01-18 00:58:28.81	13.25	11.35	
2025-01-18 00:58:29.01	13.24	11.36	
2025-01-18 00:58:29.22	13.23	11.38	
2025-01-18 00:58:29.42	13.23	11.40	
2025-01-18 00:58:29.62	13.22	11.42	
2025-01-18 00:58:29.83	13.21	11.44	
2025-01-18 00:58:30.03	13.20	11.45	
2025-01-18 00:58:30.23	13.19	11.47	
2025-01-18 00:58:30.44	13.18	11.49	
2025-01-18 00:58:30.64	13.18	11.51	
2025-01-18 00:58:30.84	13.17	11.53	
2025-01-18 00:58:31.04	13.16	11.54	
2025-01-18 00:58:31.25	13.15	11.56	
2025-01-18 00:58:31.45	13.14	11.58	
2025-01-18 00:58:31.65	13.13	11.60	
2025-01-18 00:58:31.86	13.12	11.62	
2025-01-18 00:58:32.06	13.12	11.64	
2025-01-18 00:58:32.26	13.11	11.65	
2025-01-18 00:58:32.47	13.10	11.67	
2025-01-18 00:58:32.67	13.09	11.69	
2025-01-18 00:58:32.87	13.08	11.71	
2025-01-18 00:58:33.07	13.07	11.73	
2025-01-18 00:58:33.28	13.06	11.75	
2025-01-18 00:58:33.48	13.06	11.76	
2025-01-18 00:58:33.68	13.05	11.78	
2025-01-18 00:58:33.89	13.04	11.80	
2025-01-18 00:58:34.09	13.03	11.82	
2025-01-18 00:58:34.29	13.02	11.84	
2025-01-18 00:58:34.50	13.01	11.86	
2025-01-18 00:58:34.70	13.00	11.88	
2025-01-18 00:58:34.90	13.00	11.89	
2025-01-18 00:58:35.10	12.99	11.91	
2025-01-18 00:58:35.31	12.98	11.93	
2025-01-18 00:58:35.51	12.97	11.95	
2025-01-18 00:58:35.71	12.96	11.97	
2025-01-18 00:58:35.92	12.95	11.99	
2025-01-18 00:58:36.12	12.94	12.01	
2025-01-18 00:58:36.32	12.93	12.02	
2025-01-18 00:58:36.52	12.93	12.04	
2025-01-18 00:58:36.73	12.92	12.06	
2025-01-18 00:58:36.93	12.91	12.08	
2025-01-18 00:58:37.13	12.90	12.10	
2025-01-18 00:58:37.34	12.89	12.12	
2025-01-18 00:58:37.54	12.88	12.14	
2025-01-18 00:58:37.74	12.87	12.15	
2025-01-18 00:58:37.95	12.86	12.17	
2025-01-18 00:58:38.15	12.85	12.19	
2025-01-18 00:58:38.35	12.84	12.21	
2025-01-18 00:58:38.55	12.84	12.23	
2025-01-18 00:58:38.76	12.83	12.25	
2025-01-18 00:58:38.96	12.82	12.27	
2025-01-18 00:58:39.16	12.81	12.28	
2025-01-18 00:58:39.37	12.80	12.30	
2025-01-18 00:58:39.57	12.79	12.32	
2025-01-18 00:58:39.77	12.78	12.34	
2025-01-18 00:58:39.98	12.77	12.36	
2025-01-18 00:58:40.18	12.76	12.38	
2025-01-18 00:58:40.38	12.75	12.40	
2025-01-18 00:58:40.58	12.75	12.42	
2025-01-18 00:58:40.79	12.74	12.44	
2025-01-18 00:58:40.99	12.73	12.45	
2025-01-18 00:58:41.19	12.72	12.47	
2025-01-18 00:58:41.40	12.71	12.49	
2025-01-18 00:58:41.60	12.70	12.51	
2025-01-18 00:58:41.80	12.69	12.53	
2025-01-18 00:58:42.01	12.68	12.55	
2025-01-18 00:58:42.21	12.67	12.57	
2025-01-18 00:58:42.41	12.66	12.59	
2025-01-18 00:58:42.61	12.65	12.61	
2025-01-18 00:58:42.82	12.65	12.63	
2025-01-18 00:58:43.02	12.64	12.64	
2025-01-18 00:58:43.22	12.63	12.66	
2025-01-18 00:58:43.43	12.62	12.68	
2025-01-18 00:58:43.63	12.61	12.70	
2025-01-18 00:58:43.83	12.60	12.72	
2025-01-18 00:58:44.04	12.59	12.74	
2025-01-18 00:58:44.24	12.58	12.76	
2025-01-18 00:58:44.44	12.57	12.78	
2025-01-18 00:58:44.64	12.56	12.80	
2025-01-18 00:58:44.85	12.55	12.82	
2025-01-18 00:58:45.05	12.54	12.83	
2025-01-18 00:58:45.25	12.53	12.85	
2025-01-18 00:58:45.46	12.52	12.87	
2025-01-18 00:58:45.66	12.51	12.89	
2025-01-18 00:58:45.86	12.51	12.91	
2025-01-18 00:58:46.06	12.50	12.93	
2025-01-18 00:58:46.27	12.49	12.95	
2025-01-18 00:58:46.47	12.48	12.97	
2025-01-18 00:58:46.67	12.47	12.99	
2025-01-18 00:58:46.88	12.46	13.01	
2025-01-18 00:58:47.08	12.45	13.03	
2025-01-18 00:58:47.28	12.44	13.05	
2025-01-18 00:58:47.49	12.43	13.07	
2025-01-18 00:58:47.69	12.42	13.09	
2025-01-18 00:58:47.89	12.41	13.10	
2025-01-18 00:58:48.09	12.40	13.12	
2025-01-18 00:58:48.30	12.39	13.14	
2025-01-18 00:58:48.50	12.38	13.16	
2025-01-18 00:58:48.70	12.37	13.18	
2025-01-18 00:58:48.91	12.36	13.20	
2025-01-18 00:58:49.11	12.35	13.22	
2025-01-18 00:58:49.31	12.34	13.24	
2025-01-18 00:58:49.52	12.33	13.26	
2025-01-18 00:58:49.72	12.32	13.28	
2025-01-18 00:58:49.92	12.31	13.30	
2025-01-18 00:58:50.12	12.31	13.32	
2025-01-18 00:58:50.33	12.30	13.34	
2025-01-18 00:58:50.53	12.29	13.36	
2025-01-18 00:58:50.73	12.28	13.38	
2025-01-18 00:58:50.94	12.27	13.40	
2025-01-18 00:58:51.14	12.26	13.42	
2025-01-18 00:58:51.34	12.25	13.44	
2025-01-18 00:58:51.55	12.24	13.46	
2025-01-18 00:58:51.75	12.23	13.48	
2025-01-18 00:58:51.95	12.22	13.49	
2025-01-18 00:58:52.15	12.21	13.51	
2025-01-18 00:58:52.36	12.20	13.53	
2025-01-18 00:58:52.56	12.19	13.55	
2025-01-18 00:58:52.76	12.18	13.57	
2025-01-18 00:58:52.97	12.17	13.59	
2025-01-18 00:58:53.17	12.16	13.61	
2025-01-18 00:58:53.37	12.15	13.63	
2025-01-18 00:58:53.58	12.14	13.65	
2025-01-18 00:58:53.78	12.13	13.67	
2025-01-18 00:58:53.98	12.12	13.69	
2025-01-18 00:58:54.18	12.11	13.71	
2025-01-18 00:58:54.39	12.10	13.73	
2025-01-18 00:58:54.59	12.09	13.75	
2025-01-18 00:58:54.79	12.08	13.77	
2025-01-18 00:58:55.00	12.07	13.79	
2025-01-18 00:58:55.20	12.06	13.81	
2025-01-18 00:58:55.40	12.05	13.83	
2025-01-18 00:58:55.60	12.04	13.85	
2025-01-18 00:58:55.81	12.03	13.87	
2025-01-18 00:58:56.01	12.02	13.89	
2025-01-18 00:58:56.21	12.01	13.91	
2025-01-18 00:58:56.42	12.00	13.93	
2025-01-18 00:58:56.62	11.99	13.95	
2025-01-18 00:58:56.82	11.98	13.97	
2025-01-18 00:58:57.03	11.97	13.99	
2025-01-18 00:58:57.23	11.96	14.01	
2025-01-18 00:58:57.43	11.95	14.03	
2025-01-18 00:58:57.63	11.94	14.05	
2025-01-18 00:58:57.84	11.93	14.07	
2025-01-18 00:58:58.04	11.92	14.09	
2025-01-18 00:58:58.24	11.91	14.11	
2025-01-18 00:58:58.45	11.90	14.13	
2025-01-18 00:58:58.65	11.89	14.15	
2025-01-18 00:58:58.85	11.87	14.17	
2025-01-18 00:58:59.06	11.86	14.19	
2025-01-18 00:58:59.26	11.85	14.21	
2025-01-18 00:58:59.46	11.84	14.23	
2025-01-18 00:58:59.66	11.83	14.25	
2025-01-18 00:58:59.87	11.82	14.27	
2025-01-18 00:59:00.07	11.81	14.29	
2025-01-18 00:59:00.27	11.80	14.31	
2025-01-18 00:59:00.48	11.79	14.33	
2025-01-18 00:59:00.68	11.78	14.35	
2025-01-18 00:59:00.88	11.77	14.37	
2025-01-18 00:59:01.09	11.76	14.40	
2025-01-18 00:59:01.29	11.75	14.42	
2025-01-18 00:59:01.49	11.74	14.44	
2025-01-18 00:59:01.69	11.73	14.46	
2025-01-18 00:59:01.90	11.72	14.48	
2025-01-18 00:59:02.10	11.71	14.50	
2025-01-18 00:59:02.30	11.70	14.52	
2025-01-18 00:59:02.51	11.69	14.54	
2025-01-18 00:59:02.71	11.68	14.56	
2025-01-18 00:59:02.91	11.67	14.58	
2025-01-18 00:59:03.12	11.65	14.60	
2025-01-18 00:59:03.32	11.64	14.62	
2025-01-18 00:59:03.52	11.63	14.64	
2025-01-18 00:59:03.72	11.62	14.66	
2025-01-18 00:59:03.93	11.61	14.68	
2025-01-18 00:59:04.13	11.60	14.70	
2025-01-18 00:59:04.33	11.59	14.72	
2025-01-18 00:59:04.54	11.58	14.74	
2025-01-18 00:59:04.74	11.57	14.76	
2025-01-18 00:59:04.94	11.56	14.79	
2025-01-18 00:59:05.14	11.55	14.81	
2025-01-18 00:59:05.35	11.54	14.83	
2025-01-18 00:59:05.55	11.53	14.85	
2025-01-18 00:59:05.75	11.52	14.87	
2025-01-18 00:59:05.96	11.50	14.89	
2025-01-18 00:59:06.16	11.49	14.91	
2025-01-18 00:59:06.36	11.48	14.93	
2025-01-18 00:59:06.57	11.47	14.95	
2025-01-18 00:59:06.77	11.46	14.97	
2025-01-18 00:59:06.97	11.45	14.99	
2025-01-18 00:59:07.17	11.44	15.01	
2025-01-18 00:59:07.38	11.43	15.03	
2025-01-18 00:59:07.58	11.42	15.06	
2025-01-18 00:59:07.78	11.41	15.08	
2025-01-18 00:59:07.99	11.39	15.10	
2025-01-18 00:59:08.19	11.38	15.12	
2025-01-18 00:59:08.39	11.37	15.14	
2025-01-18 00:59:08.60	11.36	15.16	
2025-01-18 00:59:08.80	11.35	15.18	
2025-01-18 00:59:09.00	11.34	15.20	
2025-01-18 00:59:09.20	11.33	15.22	
2025-01-18 00:59:09.41	11.32	15.24	
2025-01-18 00:59:09.61	11.31	15.27	
2025-01-18 00:59:09.81	11.29	15.29	
2025-01-18 00:59:10.02	11.28	15.31	
2025-01-18 00:59:10.22	11.27	15.33	
2025-01-18 00:59:10.42	11.26	15.35	
2025-01-18 00:59:10.63	11.25	15.37	
2025-01-18 00:59:10.83	11.24	15.39	
2025-01-18 00:59:11.03	11.23	15.41	
2025-01-18 00:59:11.23	11.22	15.43	
2025-01-18 00:59:11.44	11.20	15.46	
2025-01-18 00:59:11.64	11.19	15.48	
2025-01-18 00:59:11.84	11.18	15.50	
2025-01-18 00:59:12.05	11.17	15.52	
2025-01-18 00:59:12.25	11.16	15.54	
2025-01-18 00:59:12.45	11.15	15.56	
2025-01-18 00:59:12.66	11.14	15.58	
2025-01-18 00:59:12.86	11.12	15.60	
2025-01-18 00:59:13.06	11.11	15.63	
2025-01-18 00:59:13.26	11.10	15.65	
2025-01-18 00:59:13.47	11.09	15.67	
2025-01-18 00:59:13.67	11.08	15.69	
2025-01-18 00:59:13.87	11.07	15.71	
2025-01-18 00:59:14.08	11.06	15.73	
2025-01-18 00:59:14.28	11.04	15.75	
2025-01-18 00:59:14.48	11.03	15.78	
2025-01-18 00:59:14.69	11.02	15.80	
2025-01-18 00:59:14.89	11.01	15.82	
2025-01-18 00:59:15.09	11.00	15.84	
2025-01-18 00:59:15.29	10.99	15.86	
2025-01-18 00:59:15.50	10.97	15.88	
2025-01-18 00:59:15.70	10.96	15.90	
2025-01-18 00:59:15.90	10.95	15.93	
2025-01-18 00:59:16.11	10.94	15.95	
2025-01-18 00:59:16.31	10.93	15.97	
2025-01-18 00:59:16.51	10.92	15.99	
2025-01-18 00:59:16.71	10.90	16.01	
2025-01-18 00:59:16.92	10.89	16.03	
2025-01-18 00:59:17.12	10.88	16.06	
2025-01-18 00:59:17.32	10.87	16.08	
2025-01-18 00:59:17.53	10.86	16.10	
2025-01-18 00:59:17.73	10.85	16.12	
2025-01-18 00:59:17.93	10.83	16.14	
2025-01-18 00:59:18.14	10.82	16.17	
2025-01-18 00:59:18.34	10.81	16.19	
2025-01-18 00:59:18.54	10.80	16.21	
2025-01-18 00:59:18.74	10.79	16.23	
2025-01-18 00:59:18.95	10.77	16.25	
2025-01-18 00:59:19.15	10.76	16.27	
2025-01-18 00:59:19.35	10.75	16.30	
2025-01-18 00:59:19.56	10.74	16.32	
2025-01-18 00:59:19.76	10.73	16.34	
2025-01-18 00:59:19.96	10.71	16.36	
2025-01-18 00:59:20.17	10.70	16.38	
2025-01-18 00:59:20.37	10.69	16.41	
2025-01-18 00:59:20.57	10.68	16.43	
2025-01-18 00:59:20.77	10.67	16.45	
2025-01-18 00:59:20.98	10.65	16.47	
2025-01-18 00:59:21.18	10.64	16.49	
2025-01-18 00:59:21.38	10.63	16.52	
2025-01-18 00:59:21.59	10.62	16.54	
2025-01-18 00:59:21.79	10.60	16.56	
2025-01-18 00:59:21.99	10.59	16.58	
2025-01-18 00:59:22.20	10.58	16.61	
2025-01-18 00:59:22.40	10.57	16.63	
2025-01-18 00:59:22.60	10.56	16.65	
2025-01-18 00:59:22.80	10.54	16.67	
2025-01-18 00:59:23.01	10.53	16.69	
2025-01-18 00:59:23.21	10.52	16.72	
2025-01-18 00:59:23.41	10.51	16.74	
2025-01-18 00:59:23.62	10.49	16.76	
2025-01-18 00:59:23.82	10.48	16.78	
2025-01-18 00:59:24.02	10.47	16.80	
2025-01-18 00:59:24.23	10.46	16.83	
2025-01-18 00:59:24.43	10.44	16.85	
2025-01-18 00:59:24.63	10.43	16.87	
2025-01-18 00:59:24.83	10.42	16.89	
2025-01-18 00:59:25.04	10.41	16.92	
2025-01-18 00:59:25.24	10.39	16.94	
2025-01-18 00:59:25.44	10.38	16.96	
2025-01-18 00:59:25.65	10.37	16.98	
2025-01-18 00:59:25.85	10.36	17.01	
2025-01-18 00:59:26.05	10.34	17.03	
2025-01-18 00:59:26.25	10.33	17.05	
2025-01-18 00:59:26.46	10.32	17.07	
2025-01-18 00:59:26.66	10.30	17.10	
2025-01-18 00:59:26.86	10.29	17.12	
2025-01-18 00:59:27.07	10.28	17.14	
2025-01-18 00:59:27.27	10.27	17.16	
2025-01-18 00:59:27.47	10.25	17.19	
2025-01-18 00:59:27.68	10.24	17.21	
2025-01-18 00:59:27.88	10.23	17.23	
2025-01-18 00:59:28.08	10.22	17.26	
2025-01-18 00:59:28.28	10.20	17.28	
2025-01-18 00:59:28.49	10.19	17.30	
2025-01-18 00:59:28.69	10.18	17.32	
2025-01-18 00:59:28.89	10.16	17.35	
2025-01-18 00:59:29.10	10.15	17.37	
2025-01-18 00:59:29.30	10.14	17.39	
2025-01-18 00:59:29.50	10.12	17.41	
2025-01-18 00:59:29.71	10.11	17.44	
2025-01-18 00:59:29.91	10.10	17.46	
2025-01-18 00:59:30.11	10.09	17.48	
2025-01-18 00:59:30.31	10.07	17.51	
2025-01-18 00:59:30.52	10.06	17.53	
2025-01-18 00:59:30.72	10.05	17.55	
2025-01-18 00:59:30.92	10.03	17.58	
2025-01-18 00:59:31.13	10.02	17.60	
2025-01-18 00:59:31.33	10.01	17.62	
2025-01-18 00:59:31.53	9.99	17.64	
2025-01-18 00:59:31.74	9.98	17.67	
2025-01-18 00:59:31.94	9.97	17.69	
2025-01-18 00:59:32.14	9.95	17.71	
2025-01-18 00:59:32.34	9.94	17.74	
2025-01-18 00:59:32.55	9.93	17.76	
2025-01-18 00:59:32.75	9.91	17.78	
2025-01-18 00:59:32.95	9.90	17.81	
2025-01-18 00:59:33.16	9.89	17.83	
2025-01-18 00:59:33.36	9.87	17.85	
2025-01-18 00:59:33.56	9.86	17.88	
2025-01-18 00:59:33.77	9.85	17.90	
2025-01-18 00:59:33.97	9.83	17.92	
2025-01-18 00:59:34.17	9.82	17.95	
2025-01-18 00:59:34.37	9.81	17.97	
2025-01-18 00:59:34.58	9.79	17.99	
2025-01-18 00:59:34.78	9.78	18.02	
2025-01-18 00:59:34.98	9.77	18.04	
2025-01-18 00:59:35.19	9.75	18.06	
2025-01-18 00:59:35.39	9.74	18.09	
2025-01-18 00:59:35.59	9.73	18.11	
2025-01-18 00:59:35.79	9.71	18.13	
2025-01-18 00:59:36.00	9.70	18.16	
2025-01-18 00:59:36.20	9.68	18.18	
2025-01-18 00:59:36.40	9.67	18.20	
2025-01-18 00:59:36.61	9.66	18.23	
2025-01-18 00:59:36.81	9.64	18.25	
2025-01-18 00:59:37.01	9.63	18.27	
2025-01-18 00:59:37.22	9.61	18.30	
2025-01-18 00:59:37.42	9.60	18.32	
2025-01-18 00:59:37.62	9.59	18.35	
2025-01-18 00:59:37.82	9.57	18.37	
2025-01-18 00:59:38.03	9.56	18.39	
2025-01-18 00:59:38.23	9.55	18.42	
2025-01-18 00:59:38.43	9.53	18.44	
2025-01-18 00:59:38.64	9.52	18.46	
2025-01-18 00:59:38.84	9.50	18.49	
2025-01-18 00:59:39.04	9.49	18.51	
2025-01-18 00:59:39.25	9.48	18.54	
2025-01-18 00:59:39.45	9.46	18.56	
2025-01-18 00:59:39.65	9.45	18.58	
2025-01-18 00:59:39.85	9.43	18.61	
2025-01-18 00:59:40.06	9.42	18.63	
2025-01-18 00:59:40.26	9.41	18.65	
2025-01-18 00:59:40.46	9.39	18.68	
2025-01-18 00:59:40.67	9.38	18.70	
2025-01-18 00:59:40.87	9.36	18.73	
2025-01-18 00:59:41.07	9.35	18.75	
2025-01-18 00:59:41.28	9.33	18.78	
2025-01-18 00:59:41.48	9.32	18.80	
2025-01-18 00:59:41.68	9.31	18.82	
2025-01-18 00:59:41.88	9.29	18.85	
2025-01-18 00:59:42.09	9.28	18.87	
2025-01-18 00:59:42.29	9.26	18.90	
2025-01-18 00:59:42.49	9.25	18.92	
2025-01-18 00:59:42.70	9.23	18.94	
2025-01-18 00:59:42.90	9.22	18.97	
2025-01-18 00:59:43.10	9.20	18.99	
2025-01-18 00:59:43.31	9.19	19.02	
2025-01-18 00:59:43.51	9.18	19.04	
2025-01-18 00:59:43.71	9.16	19.06	
2025-01-18 00:59:43.91	9.15	19.09	
2025-01-18 00:59:44.12	9.13	19.11	
2025-01-18 00:59:44.32	9.12	19.14	
2025-01-18 00:59:44.52	9.10	19.16	
2025-01-18 00:59:44.73	9.09	19.19	
2025-01-18 00:59:44.93	9.07	19.21	
2025-01-18 00:59:45.13	9.06	19.24	
2025-01-18 00:59:45.33	9.04	19.26	
2025-01-18 00:59:45.54	9.03	19.29	
2025-01-18 00:59:45.74	9.01	19.31	
2025-01-18 00:59:45.94	9.00	19.33	
2025-01-18 00:59:46.15	8.98	19.36	
2025-01-18 00:59:46.35	8.97	19.38	
2025-01-18 00:59:46.55	8.95	19.41	
2025-01-18 00:59:46.76	8.94	19.43	
2025-01-18 00:59:46.96	8.92	19.46	
2025-01-18 00:59:47.16	8.91	19.48	
2025-01-18 00:59:47.36	8.89	19.51	
2025-01-18 00:59:47.57	8.88	19.53	
2025-01-18 00:59:47.77	8.86	19.56	
2025-01-18 00:59:47.97	8.85	19.58	
2025-01-18 00:59:48.18	8.83	19.61	
2025-01-18 00:59:48.38	8.82	19.63	
2025-01-18 00:59:48.58	8.80	19.65	
2025-01-18 00:59:48.79	8.79	19.68	
2025-01-18 00:59:48.99	8.77	19.70	
2025-01-18 00:59:49.19	8.76	19.73	
2025-01-18 00:59:49.39	8.74	19.75	
2025-01-18 00:59:49.60	8.73	19.78	
2025-01-18 00:59:49.80	8.71	19.80	
2025-01-18 00:59:50.00	8.70	19.83	
2025-01-18 00:59:50.21	8.68	19.85	
2025-01-18 00:59:50.41	8.67	19.88	
2025-01-18 00:59:50.61	8.65	19.90	
2025-01-18 00:59:50.82	8.63	19.93	
2025-01-18 00:59:51.02	8.62	19.95	
2025-01-18 00:59:51.22	8.60	19.98	
2025-01-18 00:59:51.42	8.59	20.00	
2025-01-18 00:59:51.63	8.57	20.03	
2025-01-18 00:59:51.83	8.56	20.06	
2025-01-18 00:59:52.03	8.54	20.08	
2025-01-18 00:59:52.24	8.53	20.11	
2025-01-18 00:59:52.44	8.51	20.13	
2025-01-18 00:59:52.64	8.49	20.16	
2025-01-18 00:59:52.85	8.48	20.18	
2025-01-18 00:59:53.05	8.46	20.21	
2025-01-18 00:59:53.25	8.45	20.23	
2025-01-18 00:59:53.45	8.43	20.26	
2025-01-18 00:59:53.66	8.42	20.28	
2025-01-18 00:59:53.86	8.40	20.31	
2025-01-18 00:59:54.06	8.38	20.33	
2025-01-18 00:59:54.27	8.37	20.36	
2025-01-18 00:59:54.47	8.35	20.39	
2025-01-18 00:59:54.67	8.34	20.41	
2025-01-18 00:59:54.88	8.32	20.44	
2025-01-18 00:59:55.08	8.30	20.46	
2025-01-18 00:59:55.28	8.29	20.49	
2025-01-18 00:59:55.48	8.27	20.51	
2025-01-18 00:59:55.69	8.26	20.54	
2025-01-18 00:59:55.89	8.24	20.56	
2025-01-18 00:59:56.09	8.22	20.59	
2025-01-18 00:59:56.30	8.21	20.62	
2025-01-18 00:59:56.50	8.19	20.64	
2025-01-18 00:59:56.70	8.17	20.67	
2025-01-18 00:59:56.90	8.16	20.69	
2025-01-18 00:59:57.11	8.14	20.72	
2025-01-18 00:59:57.31	8.13	20.74	
2025-01-18 00:59:57.51	8.11	20.77	
2025-01-18 00:59:57.72	8.09	20.80	
2025-01-18 00:59:57.92	8.08	20.82	
2025-01-18 00:59:58.12	8.06	20.85	
2025-01-18 00:59:58.33	8.04	20.87	
2025-01-18 00:59:58.53	8.03	20.90	
2025-01-18 00:59:58.73	8.01	20.93	
2025-01-18 00:59:58.93	7.99	20.95	
2025-01-18 00:59:59.14	7.98	20.98	
2025-01-18 00:59:59.34	7.96	21.00	
2025-01-18 00:59:59.54	7.94	21.03	
2025-01-18 00:59:59.75	7.93	21.06	
2025-01-18 00:59:59.95	7.91	21.08	
2025-01-18 01:00:00.15	7.89	21.11	
2025-01-18 01:00:00.36	7.88	21.14	
2025-01-18 01:00:00.56	7.86	21.16	
2025-01-18 01:00:00.76	7.84	21.19	
2025-01-18 01:00:00.96	7.83	21.21	
2025-01-18 01:00:01.17	7.81	21.24	
2025-01-18 01:00:01.37	7.79	21.27	
2025-01-18 01:00:01.57	7.78	21.29	
2025-01-18 01:00:01.78	7.76	21.32	
2025-01-18 01:00:01.98	7.74	21.35	
2025-01-18 01:00:02.18	7.72	21.37	
2025-01-18 01:00:02.39	7.71	21.40	
2025-01-18 01:00:02.59	7.69	21.43	
2025-01-18 01:00:02.79	7.67	21.45	
2025-01-18 01:00:02.99	7.66	21.48	
2025-01-18 01:00:03.20	7.64	21.50	
2025-01-18 01:00:03.40	7.62	21.53	
2025-01-18 01:00:03.60	7.60	21.56	
2025-01-18 01:00:03.81	7.59	21.58	
2025-01-18 01:00:04.01	7.57	21.61	
2025-01-18 01:00:04.21	7.55	21.64	
2025-01-18 01:00:04.42	7.53	21.67	
2025-01-18 01:00:04.62	7.52	21.69	
2025-01-18 01:00:04.82	7.50	21.72	
2025-01-18 01:00:05.02	7.48	21.74	
2025-01-18 01:00:05.23	7.46	21.77	
2025-01-18 01:00:05.43	7.45	21.80	
2025-01-18 01:00:05.63	7.43	21.82	
2025-01-18 01:00:05.84	7.41	21.85	
2025-01-18 01:00:06.04	7.39	21.88	
2025-01-18 01:00:06.24	7.38	21.91	
2025-01-18 01:00:06.44	7.36	21.93	
2025-01-18 01:00:06.65	7.34	21.96	
2025-01-18 01:00:06.85	7.32	21.99	
2025-01-18 01:00:07.05	7.31	22.01	
2025-01-18 01:00:07.26	7.29	22.04	
2025-01-18 01:00:07.46	7.27	22.07	
2025-01-18 01:00:07.66	7.25	22.09	
2025-01-18 01:00:07.87	7.23	22.12	
2025-01-18 01:00:08.07	7.22	22.15	
2025-01-18 01:00:08.27	7.20	22.18	
2025-01-18 01:00:08.47	7.18	22.20	
2025-01-18 01:00:08.68	7.16	22.23	
2025-01-18 01:00:08.88	7.14	22.26	
2025-01-18 01:00:09.08	7.13	22.29	
2025-01-18 01:00:09.29	7.11	22.31	
2025-01-18 01:00:09.49	7.09	22.34	
2025-01-18 01:00:09.69	7.07	22.37	
2025-01-18 01:00:09.90	7.05	22.40	
2025-01-18 01:00:10.10	7.03	22.42	
2025-01-18 01:00:10.30	7.02	22.45	
2025-01-18 01:00:10.50	7.00	22.48	
2025-01-18 01:00:10.71	6.98	22.51	
2025-01-18 01:00:10.91	6.96	22.53	
2025-01-18 01:00:11.11	6.94	22.56	
2025-01-18 01:00:11.32	6.92	22.59	
2025-01-18 01:00:11.52	6.91	22.62	
2025-01-18 01:00:11.72	6.89	22.64	
2025-01-18 01:00:11.93	6.87	22.67	
2025-01-18 01:00:12.13	6.85	22.70	
2025-01-18 01:00:12.33	6.83	22.73	
2025-01-18 01:00:12.53	6.81	22.75	
2025-01-18 01:00:12.74	6.79	22.78	
2025-01-18 01:00:12.94	6.78	22.81	
2025-01-18 01:00:13.14	6.76	22.84	
2025-01-18 01:00:13.35	6.74	22.87	
2025-01-18 01:00:13.55	6.72	22.89	
2025-01-18 01:00:13.75	6.70	22.92	
2025-01-18 01:00:13.95	6.68	22.95	
2025-01-18 01:00:14.16	6.66	22.98	
2025-01-18 01:00:14.36	6.64	23.00	
2025-01-18 01:00:14.56	6.62	23.03	
2025-01-18 01:00:14.77	6.60	23.06	
2025-01-18 01:00:14.97	6.59	23.09	
2025-01-18 01:00:15.17	6.57	23.12	
2025-01-18 01:00:15.38	6.55	23.15	
2025-01-18 01:00:15.58	6.53	23.17	
2025-01-18 01:00:15.78	6.51	23.20	
2025-01-18 01:00:15.98	6.49	23.23	
2025-01-18 01:00:16.19	6.47	23.26	
2025-01-18 01:00:16.39	6.45	23.29	
2025-01-18 01:00:16.59	6.43	23.31	
2025-01-18 01:00:16.80	6.41	23.34	
2025-01-18 01:00:17.00	6.39	23.37	
2025-01-18 01:00:17.20	6.37	23.40	
2025-01-18 01:00:17.41	6.35	23.43	
2025-01-18 01:00:17.61	6.33	23.46	
2025-01-18 01:00:17.81	6.31	23.48	
2025-01-18 01:00:18.01	6.29	23.51	
2025-01-18 01:00:18.22	6.27	23.54	
2025-01-18 01:00:18.42	6.25	23.57	
2025-01-18 01:00:18.62	6.24	23.60	
2025-01-18 01:00:18.83	6.21	23.63	
2025-01-18 01:00:19.03	6.20	23.66	
2025-01-18 01:00:19.23	6.18	23.68	
2025-01-18 01:00:19.44	6.15	23.71	
2025-01-18 01:00:19.64	6.14	23.74	
2025-01-18 01:00:19.84	6.12	23.77	
2025-01-18 01:00:20.04	6.10	23.80	
2025-01-18 01:00:20.25	6.07	23.83	
2025-01-18 01:00:20.45	6.05	23.86	
2025-01-18 01:00:20.65	6.04	23.88	
2025-01-18 01:00:20.86	6.01	23.91	
2025-01-18 01:00:21.06	5.99	23.94	
2025-01-18 01:00:21.26	5.97	23.97	
2025-01-18 01:00:21.47	5.95	24.00	
2025-01-18 01:00:21.67	5.93	24.03	
2025-01-18 01:00:21.87	5.91	24.06	
2025-01-18 01:00:22.07	5.89	24.09	
2025-01-18 01:00:22.28	5.87	24.12	
2025-01-18 01:00:22.48	5.85	24.15	
2025-01-18 01:00:22.68	5.83	24.17	
2025-01-18 01:00:22.89	5.81	24.20	
2025-01-18 01:00:23.09	5.79	24.23	
2025-01-18 01:00:23.29	5.77	24.26	
2025-01-18 01:00:23.50	5.75	24.29	
2025-01-18 01:00:23.70	5.73	24.32	
2025-01-18 01:00:23.90	5.71	24.35	
2025-01-18 01:00:24.10	5.69	24.38	
2025-01-18 01:00:24.31	5.66	24.41	
2025-01-18 01:00:24.51	5.64	24.44	
2025-01-18 01:00:24.71	5.62	24.47	
2025-01-18 01:00:24.92	5.60	24.50	
2025-01-18 01:00:25.12	5.58	24.53	
2025-01-18 01:00:25.32	5.56	24.56	
2025-01-18 01:00:25.52	5.54	24.58	
2025-01-18 01:00:25.73	5.52	24.62	
2025-01-18 01:00:25.93	5.50	24.64	
2025-01-18 01:00:26.13	5.48	24.67	
2025-01-18 01:00:26.34	5.45	24.70	
2025-01-18 01:00:26.54	5.43	24.73	
2025-01-18 01:00:26.74	5.41	24.76	
2025-01-18 01:00:26.95	5.39	24.79	
2025-01-18 01:00:27.15	5.37	24.82	
2025-01-18 01:00:27.35	5.35	24.85	
2025-01-18 01:00:27.55	5.33	24.88	
2025-01-18 01:00:27.76	5.30	24.91	
2025-01-18 01:00:27.96	5.28	24.94	
2025-01-18 01:00:28.16	5.26	24.97	
2025-01-18 01:00:28.37	5.24	25.00	
2025-01-18 01:00:28.57	5.22	25.03	
2025-01-18 01:00:28.77	5.20	25.06	
2025-01-18 01:00:28.98	5.17	25.09	
2025-01-18 01:00:29.18	5.15	25.12	
2025-01-18 01:00:29.38	5.13	25.15	
2025-01-18 01:00:29.58	5.11	25.18	
2025-01-18 01:00:29.79	5.09	25.21	
2025-01-18 01:00:29.99	5.06	25.24	
2025-01-18 01:00:30.19	5.04	25.27	
2025-01-18 01:00:30.40	5.02	25.30	
2025-01-18 01:00:30.60	5.00	25.33	
2025-01-18 01:00:30.80	4.98	25.36	
2025-01-18 01:00:31.01	4.95	25.39	
2025-01-18 01:00:31.21	4.93	25.42	
2025-01-18 01:00:31.41	4.91	25.45	
2025-01-18 01:00:31.61	4.89	25.48	
2025-01-18 01:00:31.82	4.86	25.52	
2025-01-18 01:00:32.02	4.84	25.55	
2025-01-18 01:00:32.22	4.82	25.58	
2025-01-18 01:00:32.43	4.80	25.61	
2025-01-18 01:00:32.63	4.77	25.64	
2025-01-18 01:00:32.83	4.75	25.67	
2025-01-18 01:00:33.04	4.73	25.70	
2025-01-18 01:00:33.24	4.70	25.73	
2025-01-18 01:00:33.44	4.68	25.76	
2025-01-18 01:00:33.64	4.66	25.79	
2025-01-18 01:00:33.85	4.64	25.82	
2025-01-18 01:00:34.05	4.61	25.85	
2025-01-18 01:00:34.25	4.59	25.88	
2025-01-18 01:00:34.46	4.57	25.91	
2025-01-18 01:00:34.66	4.54	25.94	
2025-01-18 01:00:34.86	4.52	25.97	
2025-01-18 01:00:35.07	4.50	26.01	
2025-01-18 01:00:35.27	4.47	26.04	
2025-01-18 01:00:35.47	4.45	26.07	
2025-01-18 01:00:35.67	4.43	26.10	
2025-01-18 01:00:35.88	4.40	26.13	
2025-01-18 01:00:36.08	4.38	26.16	
2025-01-18 01:00:36.28	4.36	26.19	
2025-01-18 01:00:36.49	4.33	26.22	
2025-01-18 01:00:36.69	4.31	26.25	
2025-01-18 01:00:36.89	4.29	26.28	
2025-01-18 01:00:37.09	4.26	26.32	
2025-01-18 01:00:37.30	4.24	26.35	
2025-01-18 01:00:37.50	4.22	26.38	
2025-01-18 01:00:37.70	4.19	26.41	
2025-01-18 01:00:37.91	4.17	26.44	
2025-01-18 01:00:38.11	4.14	26.47	
2025-01-18 01:00:38.31	4.12	26.50	
2025-01-18 01:00:38.52	4.10	26.54	
2025-01-18 01:00:38.72	4.07	26.57	
2025-01-18 01:00:38.92	4.05	26.60	
2025-01-18 01:00:39.12	4.03	26.63	
2025-01-18 01:00:39.33	4.00	26.66	
2025-01-18 01:00:39.53	3.98	26.69	
2025-01-18 01:00:39.73	3.95	26.72	
2025-01-18 01:00:39.94	3.93	26.76	
2025-01-18 01:00:40.14	3.90	26.79	
2025-01-18 01:00:40.34	3.88	26.82	
2025-01-18 01:00:40.55	3.85	26.85	
2025-01-18 01:00:40.75	3.83	26.88	
2025-01-18 01:00:40.95	3.81	26.91	
2025-01-18 01:00:41.15	3.78	26.95	
2025-01-18 01:00:41.36	3.76	26.98	
2025-01-18 01:00:41.56	3.73	27.01	
2025-01-18 01:00:41.76	3.71	27.04	
2025-01-18 01:00:41.97	3.68	27.08	
2025-01-18 01:00:42.17	3.66	27.11	
2025-01-18 01:00:42.37	3.63	27.14	
2025-01-18 01:00:42.58	3.61	27.17	
2025-01-18 01:00:42.78	3.58	27.20	
2025-01-18 01:00:42.98	3.56	27.23	
2025-01-18 01:00:43.18	3.53	27.27	
2025-01-18 01:00:43.39	3.51	27.30	
2025-01-18 01:00:43.59	3.48	27.33	
2025-01-18 01:00:43.79	3.46	27.36	
2025-01-18 01:00:44.00	3.43	27.40	
2025-01-18 01:00:44.20	3.40	27.43	
2025-01-18 01:00:44.40	3.38	27.46	
2025-01-18 01:00:44.61	3.35	27.49	
2025-01-18 01:00:44.81	3.33	27.53	
2025-01-18 01:00:45.01	3.30	27.56	
2025-01-18 01:00:45.21	3.28	27.59	
2025-01-18 01:00:45.42	3.25	27.62	
2025-01-18 01:00:45.62	3.23	27.66	
2025-01-18 01:00:45.82	3.20	27.69	
2025-01-18 01:00:46.03	3.17	27.72	
2025-01-18 01:00:46.23	3.15	27.75	
2025-01-18 01:00:46.43	3.12	27.79	
2025-01-18 01:00:46.63	3.10	27.82	
2025-01-18 01:00:46.84	3.07	27.85	
2025-01-18 01:00:47.04	3.04	27.88	
2025-01-18 01:00:47.24	3.02	27.92	
2025-01-18 01:00:47.45	2.99	27.95	
2025-01-18 01:00:47.65	2.96	27.98	
2025-01-18 01:00:47.85	2.94	28.01	
2025-01-18 01:00:48.06	2.91	28.05	
2025-01-18 01:00:48.26	2.89	28.08	
2025-01-18 01:00:48.46	2.86	28.11	
2025-01-18 01:00:48.66	2.83	28.15	
2025-01-18 01:00:48.87	2.81	28.18	
2025-01-18 01:00:49.07	2.78	28.21	
2025-01-18 01:00:49.27	2.75	28.25	
2025-01-18 01:00:49.48	2.72	28.28	
2025-01-18 01:00:49.68	2.70	28.31	
2025-01-18 01:00:49.88	2.67	28.35	
2025-01-18 01:00:50.09	2.64	28.38	
2025-01-18 01:00:50.29	2.62	28.41	
2025-01-18 01:00:50.49	2.59	28.45	
2025-01-18 01:00:50.69	2.56	28.48	
2025-01-18 01:00:50.90	2.54	28.51	
2025-01-18 01:00:51.10	2.51	28.55	
2025-01-18 01:00:51.30	2.48	28.58	
2025-01-18 01:00:51.51	2.45	28.61	
2025-01-18 01:00:51.71	2.43	28.65	
2025-01-18 01:00:51.91	2.40	28.68	
2025-01-18 01:00:52.12	2.37	28.71	
2025-01-18 01:00:52.32	2.34	28.75	
2025-01-18 01:00:52.52	2.32	28.78	
2025-01-18 01:00:52.72	2.29	28.81	
2025-01-18 01:00:52.93	2.26	28.85	
2025-01-18 01:00:53.13	2.23	28.88	
2025-01-18 01:00:53.33	2.20	28.91	
2025-01-18 01:00:53.54	2.18	28.95	
2025-01-18 01:00:53.74	2.15	28.98	
2025-01-18 01:00:53.94	2.12	29.02	
2025-01-18 01:00:54.15	2.09	29.05	
2025-01-18 01:00:54.35	2.06	29.08	
2025-01-18 01:00:54.55	2.04	29.12	
2025-01-18 01:00:54.75	2.01	29.15	
2025-01-18 01:00:54.96	1.98	29.19	
2025-01-18 01:00:55.16	1.95	29.22	
2025-01-18 01:00:55.36	1.92	29.25	
2025-01-18 01:00:55.57	1.89	29.29	
2025-01-18 01:00:55.77	1.86	29.32	
2025-01-18 01:00:55.97	1.84	29.36	
2025-01-18 01:00:56.17	1.81	29.39	
2025-01-18 01:00:56.38	1.78	29.43	
2025-01-18 01:00:56.58	1.75	29.46	
2025-01-18 01:00:56.78	1.72	29.49	
2025-01-18 01:00:56.99	1.69	29.53	
2025-01-18 01:00:57.19	1.66	29.56	
2025-01-18 01:00:57.39	1.63	29.60	
2025-01-18 01:00:57.60	1.60	29.63	
2025-01-18 01:00:57.80	1.57	29.67	
2025-01-18 01:00:58.00	1.54	29.70	
2025-01-18 01:00:58.20	1.52	29.73	
2025-01-18 01:00:58.41	1.49	29.77	
2025-01-18 01:00:58.61	1.46	29.80	
2025-01-18 01:00:58.81	1.43	29.84	
2025-01-18 01:00:59.02	1.40	29.87	
2025-01-18 01:00:59.22	1.37	29.91	
2025-01-18 01:00:59.42	1.34	29.94	
2025-01-18 01:00:59.63	1.31	29.98	
2025-01-18 01:00:59.83	1.28	30.01	
2025-01-18 01:01:00.03	1.25	30.05	
2025-01-18 01:01:00.23	1.22	30.08	
2025-01-18 01:01:00.44	1.19	30.12	
2025-01-18 01:01:00.64	1.16	30.15	
2025-01-18 01:01:00.84	1.13	30.19	
2025-01-18 01:01:01.05	1.10	30.22	
2025-01-18 01:01:01.25	1.07	30.26	
2025-01-18 01:01:01.45	1.04	30.29	
2025-01-18 01:01:01.66	1.00	30.33	
2025-01-18 01:01:01.86	0.97	30.36	
2025-01-18 01:01:02.06	0.94	30.40	
2025-01-18 01:01:02.26	0.91	30.43	
2025-01-18 01:01:02.47	0.88	30.47	
2025-01-18 01:01:02.67	0.85	30.50	
2025-01-18 01:01:02.87	0.82	30.54	
2025-01-18 01:01:03.08	0.79	30.58	
2025-01-18 01:01:03.28	0.76	30.61	
2025-01-18 01:01:03.48	0.73	30.65	
2025-01-18 01:01:03.69	0.69	30.68	
2025-01-18 01:01:03.89	0.66	30.72	
2025-01-18 01:01:04.09	0.63	30.75	
2025-01-18 01:01:04.29	0.60	30.79	
2025-01-18 01:01:04.50	0.57	30.82	
2025-01-18 01:01:04.70	0.54	30.86	
2025-01-18 01:01:04.90	0.51	30.89	
2025-01-18 01:01:05.11	0.47	30.93	
2025-01-18 01:01:05.31	0.44	30.97	
2025-01-18 01:01:05.51	0.41	31.00	
2025-01-18 01:01:05.71	0.38	31.04	
2025-01-18 01:01:05.92	0.35	31.07	
2025-01-18 01:01:06.12	0.31	31.11	
2025-01-18 01:01:06.32	0.28	31.14	
2025-01-18 01:01:06.53	0.25	31.18	
2025-01-18 01:01:06.73	0.22	31.22	
2025-01-18 01:01:06.93	0.19	31.25	
2025-01-18 01:01:07.14	0.15	31.29	
2025-01-18 01:01:07.34	0.12	31.33	
2025-01-18 01:01:07.54	0.09	31.36	
2025-01-18 01:01:07.74	0.06	31.40	
2025-01-18 01:01:07.95	0.02	31.43	
2025-01-18 01:01:08.15	359.99	31.47	
2025-01-18 01:01:08.35	359.96	31.51	
2025-01-18 01:01:08.56	359.92	31.54	
2025-01-18 01:01:08.76	359.89	31.58	
2025-01-18 01:01:08.96	359.86	31.61	
2025-01-18 01:01:09.17	359.82	31.65	
2025-01-18 01:01:09.37	359.79	31.69	
2025-01-18 01:01:09.57	359.76	31.72	
2025-01-18 01:01:09.77	359.72	31.76	
2025-01-18 01:01:09.98	359.69	31.80	
2025-01-18 01:01:10.18	359.66	31.83	
2025-01-18 01:01:10.38	359.62	31.87	
2025-01-18 01:01:10.59	359.59	31.91	
2025-01-18 01:01:10.79	359.56	31.94	
2025-01-18 01:01:10.99	359.52	31.98	
2025-01-18 01:01:11.20	359.49	32.02	
2025-01-18 01:01:11.40	359.45	32.05	
2025-01-18 01:01:11.60	359.42	32.09	
2025-01-18 01:01:11.80	359.39	32.13	
2025-01-18 01:01:12.01	359.35	32.16	
2025-01-18 01:01:12.21	359.32	32.20	
2025-01-18 01:01:12.41	359.28	32.24	
2025-01-18 01:01:12.62	359.25	32.28	
2025-01-18 01:01:12.82	359.21	32.31	
2025-01-18 01:01:13.02	359.18	32.35	
2025-01-18 01:01:13.23	359.14	32.39	
2025-01-18 01:01:13.43	359.11	32.42	
2025-01-18 01:01:13.63	359.07	32.46	
2025-01-18 01:01:13.83	359.04	32.50	
2025-01-18 01:01:14.04	359.00	32.53	
2025-01-18 01:01:14.24	358.97	32.57	
2025-01-18 01:01:14.44	358.93	32.61	
2025-01-18 01:01:14.65	358.90	32.65	
2025-01-18 01:01:14.85	358.86	32.68	
2025-01-18 01:01:15.05	358.83	32.72	
2025-01-18 01:01:15.26	358.79	32.76	
2025-01-18 01:01:15.46	358.75	32.80	
2025-01-18 01:01:15.66	358.72	32.83	
2025-01-18 01:01:15.86	358.68	32.87	
2025-01-18 01:01:16.07	358.65	32.91	
2025-01-18 01:01:16.27	358.61	32.95	
2025-01-18 01:01:16.47	358.58	32.98	
2025-01-18 01:01:16.68	358.54	33.02	
2025-01-18 01:01:16.88	358.50	33.06	
2025-01-18 01:01:17.08	358.47	33.10	
2025-01-18 01:01:17.28	358.43	33.13	
2025-01-18 01:01:17.49	358.39	33.17	
2025-01-18 01:01:17.69	358.36	33.21	
2025-01-18 01:01:17.89	358.32	33.25	
2025-01-18 01:01:18.10	358.28	33.29	
2025-01-18 01:01:18.30	358.25	33.32	
2025-01-18 01:01:18.50	358.21	33.36	
2025-01-18 01:01:18.71	358.17	33.40	
2025-01-18 01:01:18.91	358.13	33.44	
2025-01-18 01:01:19.11	358.10	33.47	
2025-01-18 01:01:19.31	358.06	33.51	
2025-01-18 01:01:19.52	358.02	33.55	
2025-01-18 01:01:19.72	357.99	33.59	
2025-01-18 01:01:19.92	357.95	33.63	
2025-01-18 01:01:20.13	357.91	33.67	
2025-01-18 01:01:20.33	357.87	33.70	
2025-01-18 01:01:20.53	357.83	33.74	
2025-01-18 01:01:20.74	357.80	33.78	
2025-01-18 01:01:20.94	357.76	33.82	
2025-01-18 01:01:21.14	357.72	33.86	
2025-01-18 01:01:21.34	357.68	33.89	
2025-01-18 01:01:21.55	357.64	33.93	
2025-01-18 01:01:21.75	357.60	33.97	
2025-01-18 01:01:21.95	357.57	34.01	
2025-01-18 01:01:22.16	357.53	34.05	
2025-01-18 01:01:22.36	357.49	34.09	
2025-01-18 01:01:22.56	357.45	34.13	
2025-01-18 01:01:22.77	357.41	34.17	
2025-01-18 01:01:22.97	357.37	34.20	
2025-01-18 01:01:23.17	357.33	34.24	
2025-01-18 01:01:23.37	357.29	34.28	
2025-01-18 01:01:23.58	357.25	34.32	
2025-01-18 01:01:23.78	357.22	34.36	
2025-01-18 01:01:23.98	357.18	34.40	
2025-01-18 01:01:24.19	357.14	34.44	
2025-01-18 01:01:24.39	357.10	34.48	
2025-01-18 01:01:24.59	357.06	34.51	
2025-01-18 01:01:24.79	357.02	34.55	
2025-01-18 01:01:25.00	356.98	34.59	
2025-01-18 01:01:25.20	356.94	34.63	
2025-01-18 01:01:25.40	356.90	34.67	
2025-01-18 01:01:25.61	356.86	34.71	
2025-01-18 01:01:25.81	356.82	34.75	
2025-01-18 01:01:26.01	356.78	34.79	
2025-01-18 01:01:26.22	356.73	34.83	
2025-01-18 01:01:26.42	356.69	34.87	
2025-01-18 01:01:26.62	356.65	34.91	
2025-01-18 01:01:26.82	356.61	34.94	
2025-01-18 01:01:27.03	356.57	34.98	
2025-01-18 01:01:27.23	356.53	35.02	
2025-01-18 01:01:27.43	356.49	35.06	
2025-01-18 01:01:27.64	356.45	35.10	
2025-01-18 01:01:27.84	356.41	35.14	
2025-01-18 01:01:28.04	356.37	35.18	
2025-01-18 01:01:28.25	356.32	35.22	
2025-01-18 01:01:28.45	356.28	35.26	
2025-01-18 01:01:28.65	356.24	35.30	
2025-01-18 01:01:28.85	356.20	35.34	
2025-01-18 01:01:29.06	356.16	35.38	
2025-01-18 01:01:29.26	356.11	35.42	
2025-01-18 01:01:29.46	356.07	35.46	
2025-01-18 01:01:29.67	356.03	35.50	
2025-01-18 01:01:29.87	355.99	35.54	
2025-01-18 01:01:30.07	355.95	35.58	
2025-01-18 01:01:30.28	355.90	35.62	
2025-01-18 01:01:30.48	355.86	35.66	
2025-01-18 01:01:30.68	355.82	35.70	
2025-01-18 01:01:30.88	355.78	35.74	
2025-01-18 01:01:31.09	355.73	35.78	
2025-01-18 01:01:31.29	355.69	35.82	
2025-01-18 01:01:31.49	355.65	35.86	
2025-01-18 01:01:31.70	355.60	35.90	
2025-01-18 01:01:31.90	355.56	35.94	
2025-01-18 01:01:32.10	355.52	35.98	
2025-01-18 01:01:32.31	355.47	36.02	
2025-01-18 01:01:32.51	355.43	36.06	
2025-01-18 01:01:32.71	355.38	36.10	
2025-01-18 01:01:32.91	355.34	36.14	
2025-01-18 01:01:33.12	355.29	36.18	
2025-01-18 01:01:33.32	355.25	36.22	
2025-01-18 01:01:33.52	355.21	36.26	
2025-01-18 01:01:33.73	355.16	36.30	
2025-01-18 01:01:33.93	355.12	36.34	
2025-01-18 01:01:34.13	355.07	36.38	
2025-01-18 01:01:34.34	355.03	36.42	
2025-01-18 01:01:34.54	354.98	36.46	
2025-01-18 01:01:34.74	354.94	36.50	
2025-01-18 01:01:34.94	354.89	36.54	
2025-01-18 01:01:35.15	354.85	36.58	
2025-01-18 01:01:35.35	354.80	36.62	
2025-01-18 01:01:35.55	354.76	36.66	
2025-01-18 01:01:35.76	354.71	36.71	
2025-01-18 01:01:35.96	354.67	36.75	
2025-01-18 01:01:36.16	354.62	36.79	
2025-01-18 01:01:36.36	354.58	36.83	
2025-01-18 01:01:36.57	354.53	36.87	
2025-01-18 01:01:36.77	354.48	36.91	
2025-01-18 01:01:36.97	354.44	36.95	
2025-01-18 01:01:37.18	354.39	36.99	
2025-01-18 01:01:37.38	354.34	37.03	
2025-01-18 01:01:37.58	354.30	37.07	
2025-01-18 01:01:37.79	354.25	37.11	
2025-01-18 01:01:37.99	354.20	37.15	
2025-01-18 01:01:38.19	354.16	37.19	
2025-01-18 01:01:38.39	354.11	37.23	
2025-01-18 01:01:38.60	354.06	37.28	
2025-01-18 01:01:38.80	354.01	37.32	
2025-01-18 01:01:39.00	353.97	37.36	
2025-01-18 01:01:39.21	353.92	37.40	
2025-01-18 01:01:39.41	353.87	37.44	
2025-01-18 01:01:39.61	353.82	37.48	
2025-01-18 01:01:39.82	353.77	37.52	
2025-01-18 01:01:40.02	353.73	37.57	
2025-01-18 01:01:40.22	353.68	37.61	
2025-01-18 01:01:40.42	353.63	37.65	
2025-01-18 01:01:40.63	353.58	37.69	
2025-01-18 01:01:40.83	353.53	37.73	
2025-01-18 01:01:41.03	353.49	37.77	
2025-01-18 01:01:41.24	353.44	37.81	
2025-01-18 01:01:41.44	353.39	37.85	
2025-01-18 01:01:41.64	353.34	37.90	
2025-01-18 01:01:41.85	353.29	37.94	
2025-01-18 01:01:42.05	353.24	37.98	
2025-01-18 01:01:42.25	353.19	38.02	
2025-01-18 01:01:42.45	353.14	38.06	
2025-01-18 01:01:42.66	353.09	38.10	
2025-01-18 01:01:42.86	353.04	38.15	
2025-01-18 01:01:43.06	352.99	38.19	
2025-01-18 01:01:43.27	352.94	38.23	
2025-01-18 01:01:43.47	352.89	38.27	
2025-01-18 01:01:43.67	352.84	38.31	
2025-01-18 01:01:43.88	352.79	38.36	
2025-01-18 01:01:44.08	352.74	38.40	
2025-01-18 01:01:44.28	352.69	38.44	
2025-01-18 01:01:44.48	352.64	38.48	
2025-01-18 01:01:44.69	352.59	38.52	
2025-01-18 01:01:44.89	352.54	38.56	
2025-01-18 01:01:45.09	352.48	38.60	
2025-01-18 01:01:45.30	352.43	38.65	
2025-01-18 01:01:45.50	352.38	38.69	
2025-01-18 01:01:45.70	352.33	38.73	
2025-01-18 01:01:45.90	352.28	38.77	
2025-01-18 01:01:46.11	352.22	38.82	
2025-01-18 01:01:46.31	352.17	38.86	
2025-01-18 01:01:46.51	352.12	38.90	
2025-01-18 01:01:46.72	352.07	38.94	
2025-01-18 01:01:46.92	352.02	38.98	
2025-01-18 01:01:47.12	351.96	39.03	
2025-01-18 01:01:47.33	351.91	39.07	
2025-01-18 01:01:47.53	351.86	39.11	
2025-01-18 01:01:47.73	351.81	39.15	
2025-01-18 01:01:47.93	351.75	39.19	
2025-01-18 01:01:48.14	351.70	39.24	
2025-01-18 01:01:48.34	351.64	39.28	
2025-01-18 01:01:48.54	351.59	39.32	
2025-01-18 01:01:48.75	351.54	39.37	
2025-01-18 01:01:48.95	351.48	39.41	
2025-01-18 01:01:49.15	351.43	39.45	
2025-01-18 01:01:49.36	351.37	39.49	
2025-01-18 01:01:49.56	351.32	39.53	
2025-01-18 01:01:49.76	351.27	39.58	
2025-01-18 01:01:49.96	351.21	39.62	
2025-01-18 01:01:50.17	351.16	39.66	
2025-01-18 01:01:50.37	351.10	39.70	
2025-01-18 01:01:50.57	351.05	39.75	
2025-01-18 01:01:50.78	350.99	39.79	
2025-01-18 01:01:50.98	350.94	39.83	
2025-01-18 01:01:51.18	350.88	39.87	
2025-01-18 01:01:51.39	350.82	39.92	
2025-01-18 01:01:51.59	350.77	39.96	
2025-01-18 01:01:51.79	350.71	40.00	
2025-01-18 01:01:51.99	350.66	40.04	
2025-01-18 01:01:52.20	350.60	40.09	
2025-01-18 01:01:52.40	350.54	40.13	
2025-01-18 01:01:52.60	350.49	40.17	
2025-01-18 01:01:52.81	350.43	40.22	
2025-01-18 01:01:53.01	350.37	40.26	
2025-01-18 01:01:53.21	350.32	40.30	
2025-01-18 01:01:53.42	350.26	40.35	
2025-01-18 01:01:53.62	350.20	40.39	
2025-01-18 01:01:53.82	350.15	40.43	
2025-01-18 01:01:54.02	350.09	40.47	
2025-01-18 01:01:54.23	350.03	40.52	
2025-01-18 01:01:54.43	349.97	40.56	
2025-01-18 01:01:54.63	349.91	40.60	
2025-01-18 01:01:54.84	349.85	40.65	
2025-01-18 01:01:55.04	349.80	40.69	
2025-01-18 01:01:55.24	349.74	40.73	
2025-01-18 01:01:55.45	349.68	40.78	
2025-01-18 01:01:55.65	349.62	40.82	
2025-01-18 01:01:55.85	349.56	40.86	
2025-01-18 01:01:56.05	349.50	40.90	
2025-01-18 01:01:56.26	349.44	40.95	
2025-01-18 01:01:56.46	349.38	40.99	
2025-01-18 01:01:56.66	349.32	41.03	
2025-01-18 01:01:56.87	349.26	41.08	
2025-01-18 01:01:57.07	349.20	41.12	
2025-01-18 01:01:57.27	349.14	41.16	
2025-01-18 01:01:57.47	349.09	41.20	
2025-01-18 01:01:57.68	349.02	41.25	
2025-01-18 01:01:57.88	348.96	41.29	
2025-01-18 01:01:58.08	348.90	41.33	
2025-01-18 01:01:58.29	348.84	41.38	
2025-01-18 01:01:58.49	348.78	41.42	
2025-01-18 01:01:58.69	348.72	41.46	
2025-01-18 01:01:58.90	348.66	41.51	
2025-01-18 01:01:59.10	348.59	41.55	
2025-01-18 01:01:59.30	348.53	41.59	
2025-01-18 01:01:59.50	348.47	41.64	
2025-01-18 01:01:59.71	348.41	41.68	
2025-01-18 01:01:59.91	348.35	41.73	
2025-01-18 01:02:00.11	348.29	41.77	
2025-01-18 01:02:00.32	348.22	41.81	
2025-01-18 01:02:00.52	348.16	41.86	
2025-01-18 01:02:00.72	348.10	41.90	
2025-01-18 01:02:00.93	348.03	41.94	
2025-01-18 01:02:01.13	347.97	41.99	
2025-01-18 01:02:01.33	347.91	42.03	
2025-01-18 01:02:01.53	347.84	42.07	
2025-01-18 01:02:01.74	347.78	42.12	
2025-01-18 01:02:01.94	347.71	42.16	
2025-01-18 01:02:02.14	347.65	42.20	
2025-01-18 01:02:02.35	347.58	42.25	
2025-01-18 01:02:02.55	347.52	42.29	
2025-01-18 01:02:02.75	347.46	42.33	
2025-01-18 01:02:02.96	347.39	42.38	
2025-01-18 01:02:03.16	347.33	42.42	
2025-01-18 01:02:03.36	347.26	42.46	
2025-01-18 01:02:03.56	347.20	42.51	
2025-01-18 01:02:03.77	347.13	42.55	
2025-01-18 01:02:03.97	347.06	42.60	
2025-01-18 01:02:04.17	347.00	42.64	
2025-01-18 01:02:04.38	346.93	42.68	
2025-01-18 01:02:04.58	346.87	42.73	
2025-01-18 01:02:04.78	346.80	42.77	
2025-01-18 01:02:04.99	346.73	42.81	
2025-01-18 01:02:05.19	346.66	42.86	
2025-01-18 01:02:05.39	346.60	42.90	
2025-01-18 01:02:05.59	346.53	42.94	
2025-01-18 01:02:05.80	346.46	42.99	
2025-01-18 01:02:06.00	346.40	43.03	
2025-01-18 01:02:06.20	346.33	43.07	
2025-01-18 01:02:06.41	346.26	43.12	
2025-01-18 01:02:06.61	346.19	43.16	
2025-01-18 01:02:06.81	346.12	43.21	
2025-01-18 01:02:07.01	346.06	43.25	
2025-01-18 01:02:07.22	345.99	43.29	
2025-01-18 01:02:07.42	345.92	43.34	
2025-01-18 01:02:07.62	345.85	43.38	
2025-01-18 01:02:07.83	345.78	43.43	
2025-01-18 01:02:08.03	345.71	43.47	
2025-01-18 01:02:08.23	345.64	43.51	
2025-01-18 01:02:08.44	345.57	43.56	
2025-01-18 01:02:08.64	345.50	43.60	
2025-01-18 01:02:08.84	345.43	43.64	
2025-01-18 01:02:09.04	345.36	43.69	
2025-01-18 01:02:09.25	345.29	43.73	
2025-01-18 01:02:09.45	345.22	43.77	
2025-01-18 01:02:09.65	345.15	43.82	
2025-01-18 01:02:09.86	345.07	43.86	
2025-01-18 01:02:10.06	345.00	43.91	
2025-01-18 01:02:10.26	344.93	43.95	
2025-01-18 01:02:10.47	344.86	43.99	
2025-01-18 01:02:10.67	344.79	44.04	
2025-01-18 01:02:10.87	344.72	44.08	
2025-01-18 01:02:11.07	344.64	44.12	
2025-01-18 01:02:11.28	344.57	44.17	
2025-01-18 01:02:11.48	344.50	44.21	
2025-01-18 01:02:11.68	344.43	44.25	
2025-01-18 01:02:11.89	344.35	44.30	
2025-01-18 01:02:12.09	344.28	44.34	
2025-01-18 01:02:12.29	344.20	44.39	
2025-01-18 01:02:12.50	344.13	44.43	
2025-01-18 01:02:12.70	344.06	44.47	
2025-01-18 01:02:12.90	343.98	44.52	
2025-01-18 01:02:13.10	343.91	44.56	
2025-01-18 01:02:13.31	343.83	44.60	
2025-01-18 01:02:13.51	343.76	44.65	
2025-01-18 01:02:13.71	343.68	44.69	
2025-01-18 01:02:13.92	343.61	44.74	
2025-01-18 01:02:14.12	343.53	44.78	
2025-01-18 01:02:14.32	343.46	44.82	
2025-01-18 01:02:14.53	343.38	44.87	
2025-01-18 01:02:14.73	343.30	44.91	
2025-01-18 01:02:14.93	343.23	44.95	
2025-01-18 01:02:15.13	343.15	45.00	
2025-01-18 01:02:15.34	343.07	45.04	
2025-01-18 01:02:15.54	343.00	45.08	
2025-01-18 01:02:15.74	342.92	45.13	
2025-01-18 01:02:15.95	342.84	45.17	
2025-01-18 01:02:16.15	342.76	45.21	
2025-01-18 01:02:16.35	342.69	45.26	
2025-01-18 01:02:16.55	342.61	45.30	
2025-01-18 01:02:16.76	342.53	45.35	
2025-01-18 01:02:16.96	342.45	45.39	
2025-01-18 01:02:17.16	342.37	45.43	
2025-01-18 01:02:17.37	342.29	45.48	
2025-01-18 01:02:17.57	342.21	45.52	
2025-01-18 01:02:17.77	342.14	45.56	
2025-01-18 01:02:17.98	342.05	45.61	
2025-01-18 01:02:18.18	341.98	45.65	
2025-01-18 01:02:18.38	341.90	45.69	
2025-01-18 01:02:18.58	341.82	45.73	
2025-01-18 01:02:18.79	341.73	45.78	
2025-01-18 01:02:18.99	341.65	45.82	
2025-01-18 01:02:19.19	341.57	45.86	
2025-01-18 01:02:19.40	341.49	45.91	
2025-01-18 01:02:19.60	341.41	45.95	
2025-01-18 01:02:19.80	341.33	45.99	
2025-01-18 01:02:20.01	341.25	46.04	
2025-01-18 01:02:20.21	341.16	46.08	
2025-01-18 01:02:20.41	341.08	46.12	
2025-01-18 01:02:20.61	341.00	46.17	
2025-01-18 01:02:20.82	340.92	46.21	
2025-01-18 01:02:21.02	340.83	46.25	
2025-01-18 01:02:21.22	340.75	46.30	
2025-01-18 01:02:21.43	340.67	46.34	
2025-01-18 01:02:21.63	340.58	46.38	
2025-01-18 01:02:21.83	340.50	46.43	
2025-01-18 01:02:22.04	340.41	46.47	
2025-01-18 01:02:22.24	340.33	46.51	
2025-01-18 01:02:22.44	340.25	46.56	
2025-01-18 01:02:22.64	340.16	46.60	
2025-01-18 01:02:22.85	340.08	46.64	
2025-01-18 01:02:23.05	339.99	46.68	
2025-01-18 01:02:23.25	339.91	46.73	
2025-01-18 01:02:23.46	339.82	46.77	
2025-01-18 01:02:23.66	339.73	46.81	
2025-01-18 01:02:23.86	339.65	46.86	
2025-01-18 01:02:24.07	339.56	46.90	
2025-01-18 01:02:24.27	339.47	46.94	
2025-01-18 01:02:24.47	339.39	46.98	
2025-01-18 01:02:24.67	339.30	47.03	
2025-01-18 01:02:24.88	339.21	47.07	
2025-01-18 01:02:25.08	339.13	47.11	
2025-01-18 01:02:25.28	339.04	47.15	
2025-01-18 01:02:25.49	338.95	47.20	
2025-01-18 01:02:25.69	338.86	47.24	
2025-01-18 01:02:25.89	338.77	47.28	
2025-01-18 01:02:26.09	338.68	47.32	
2025-01-18 01:02:26.30	338.59	47.37	
2025-01-18 01:02:26.50	338.50	47.41	
2025-01-18 01:02:26.70	338.42	47.45	
2025-01-18 01:02:26.91	338.32	47.49	
2025-01-18 01:02:27.11	338.23	47.54	
2025-01-18 01:02:27.31	338.15	47.58	
2025-01-18 01:02:27.52	338.05	47.62	
2025-01-18 01:02:27.72	337.96	47.66	
2025-01-18 01:02:27.92	337.87	47.70	
2025-01-18 01:02:28.12	337.78	47.75	
2025-01-18 01:02:28.33	337.69	47.79	
2025-01-18 01:02:28.53	337.60	47.83	
2025-01-18 01:02:28.73	337.51	47.87	
2025-01-18 01:02:28.94	337.41	47.92	
2025-01-18 01:02:29.14	337.32	47.96	
2025-01-18 01:02:29.34	337.23	48.00	
2025-01-18 01:02:29.55	337.13	48.04	
2025-01-18 01:02:29.75	337.04	48.08	
2025-01-18 01:02:29.95	336.95	48.12	
2025-01-18 01:02:30.15	336.85	48.17	
2025-01-18 01:02:30.36	336.76	48.21	
2025-01-18 01:02:30.56	336.66	48.25	
2025-01-18 01:02:30.76	336.57	48.29	
2025-01-18 01:02:30.97	336.47	48.33	
2025-01-18 01:02:31.17	336.38	48.37	
2025-01-18 01:02:31.37	336.28	48.41	
2025-01-18 01:02:31.58	336.19	48.46	
2025-01-18 01:02:31.78	336.09	48.50	
2025-01-18 01:02:31.98	336.00	48.54	
2025-01-18 01:02:32.18	335.90	48.58	
2025-01-18 01:02:32.39	335.80	48.62	
2025-01-18 01:02:32.59	335.71	48.66	
2025-01-18 01:02:32.79	335.61	48.70	
2025-01-18 01:02:33.00	335.51	48.75	
