passes_logs/2025/01/18/SPB_Silybum_02/SPB_Silybum_02__20250118_162127_TERRA_rec.log

#Pass ID: 20250118_162127_TERRA
#Satellite: TERRA
#Configuration: TERRA
#Start time: 2025-01-18 16:21:27

#Version: 2.0.20230423
#Station: SPB_Silybum_02
#Location: 30.233357 lon 59.946436 lat
#TLE: 1 25994U 99068A   25017.80257355  .00000903  00000+0  19577-3 0  9994
#TLE: 2 25994  98.0211  80.7437 0003372  66.8373  47.3878 14.60400955334482

#Time	Az	El	Level	Level2	SNR	BER	Gain	Gain2
2025-01-18 16:21:29.59	94.01	4.13	
2025-01-18 16:21:29.79	93.99	4.14	
2025-01-18 16:21:30.00	93.97	4.16	
2025-01-18 16:21:30.20	93.95	4.17	
2025-01-18 16:21:30.40	93.93	4.18	
2025-01-18 16:21:30.61	93.91	4.19	
2025-01-18 16:21:30.81	93.89	4.20	
2025-01-18 16:21:31.01	93.87	4.21	
2025-01-18 16:21:31.22	93.84	4.22	
2025-01-18 16:21:31.42	93.82	4.24	
2025-01-18 16:21:31.62	93.80	4.25	
2025-01-18 16:21:31.82	93.78	4.26	
2025-01-18 16:21:32.03	93.76	4.27	
2025-01-18 16:21:32.23	93.74	4.28	
2025-01-18 16:21:32.43	93.72	4.29	
2025-01-18 16:21:32.64	93.69	4.30	
2025-01-18 16:21:32.84	93.67	4.32	
2025-01-18 16:21:33.04	93.65	4.33	
2025-01-18 16:21:33.25	93.63	4.34	
2025-01-18 16:21:33.45	93.61	4.35	
2025-01-18 16:21:33.65	93.59	4.36	
2025-01-18 16:21:33.86	93.56	4.37	
2025-01-18 16:21:34.06	93.54	4.38	
2025-01-18 16:21:34.26	93.52	4.40	
2025-01-18 16:21:34.46	93.50	4.41	
2025-01-18 16:21:34.67	93.48	4.42	
2025-01-18 16:21:34.87	93.46	4.43	
2025-01-18 16:21:35.07	93.44	4.44	
2025-01-18 16:21:35.28	93.41	4.45	
2025-01-18 16:21:35.48	93.39	4.46	
2025-01-18 16:21:35.68	93.37	4.48	
2025-01-18 16:21:35.89	93.35	4.49	
2025-01-18 16:21:36.09	93.33	4.50	
2025-01-18 16:21:36.29	93.30	4.51	
2025-01-18 16:21:36.50	93.28	4.52	
2025-01-18 16:21:36.70	93.26	4.53	
2025-01-18 16:21:36.90	93.24	4.54	
2025-01-18 16:21:37.10	93.22	4.56	
2025-01-18 16:21:37.31	93.20	4.57	
2025-01-18 16:21:37.51	93.17	4.58	
2025-01-18 16:21:37.71	93.15	4.59	
2025-01-18 16:21:37.92	93.13	4.60	
2025-01-18 16:21:38.12	93.11	4.61	
2025-01-18 16:21:38.32	93.09	4.62	
2025-01-18 16:21:38.53	93.06	4.64	
2025-01-18 16:21:38.73	93.04	4.65	
2025-01-18 16:21:38.93	93.02	4.66	
2025-01-18 16:21:39.14	93.00	4.67	
2025-01-18 16:21:39.34	92.98	4.68	
2025-01-18 16:21:39.54	92.95	4.69	
2025-01-18 16:21:39.74	92.93	4.70	
2025-01-18 16:21:39.95	92.91	4.72	
2025-01-18 16:21:40.15	92.89	4.73	
2025-01-18 16:21:40.35	92.86	4.74	
2025-01-18 16:21:40.56	92.84	4.75	
2025-01-18 16:21:40.76	92.82	4.76	
2025-01-18 16:21:40.96	92.80	4.77	
2025-01-18 16:21:41.17	92.78	4.79	
2025-01-18 16:21:41.37	92.75	4.80	
2025-01-18 16:21:41.57	92.73	4.81	
2025-01-18 16:21:41.78	92.71	4.82	
2025-01-18 16:21:41.98	92.69	4.83	
2025-01-18 16:21:42.18	92.66	4.84	
2025-01-18 16:21:42.38	92.64	4.85	
2025-01-18 16:21:42.59	92.62	4.87	
2025-01-18 16:21:42.79	92.60	4.88	
2025-01-18 16:21:42.99	92.57	4.89	
2025-01-18 16:21:43.20	92.55	4.90	
2025-01-18 16:21:43.40	92.53	4.91	
2025-01-18 16:21:43.60	92.51	4.92	
2025-01-18 16:21:43.81	92.48	4.94	
2025-01-18 16:21:44.01	92.46	4.95	
2025-01-18 16:21:44.21	92.44	4.96	
2025-01-18 16:21:44.42	92.42	4.97	
2025-01-18 16:21:44.62	92.39	4.98	
2025-01-18 16:21:44.82	92.37	4.99	
2025-01-18 16:21:45.02	92.35	5.00	
2025-01-18 16:21:45.23	92.33	5.02	
2025-01-18 16:21:45.43	92.30	5.03	
2025-01-18 16:21:45.63	92.28	5.04	
2025-01-18 16:21:45.84	92.26	5.05	
2025-01-18 16:21:46.04	92.24	5.06	
2025-01-18 16:21:46.24	92.21	5.07	
2025-01-18 16:21:46.45	92.19	5.09	
2025-01-18 16:21:46.65	92.17	5.10	
2025-01-18 16:21:46.85	92.14	5.11	
2025-01-18 16:21:47.06	92.12	5.12	
2025-01-18 16:21:47.26	92.10	5.13	
2025-01-18 16:21:47.46	92.08	5.14	
2025-01-18 16:21:47.67	92.05	5.15	
2025-01-18 16:21:47.87	92.03	5.17	
2025-01-18 16:21:48.07	92.01	5.18	
2025-01-18 16:21:48.27	91.98	5.19	
2025-01-18 16:21:48.48	91.96	5.20	
2025-01-18 16:21:48.68	91.94	5.21	
2025-01-18 16:21:48.88	91.91	5.22	
2025-01-18 16:21:49.09	91.89	5.24	
2025-01-18 16:21:49.29	91.87	5.25	
2025-01-18 16:21:49.49	91.85	5.26	
2025-01-18 16:21:49.70	91.82	5.27	
2025-01-18 16:21:49.90	91.80	5.28	
2025-01-18 16:21:50.10	91.78	5.29	
2025-01-18 16:21:50.31	91.75	5.30	
2025-01-18 16:21:50.51	91.73	5.32	
2025-01-18 16:21:50.71	91.71	5.33	
2025-01-18 16:21:50.91	91.68	5.34	
2025-01-18 16:21:51.12	91.66	5.35	
2025-01-18 16:21:51.32	91.64	5.36	
2025-01-18 16:21:51.52	91.61	5.37	
2025-01-18 16:21:51.73	91.59	5.39	
2025-01-18 16:21:51.93	91.57	5.40	
2025-01-18 16:21:52.13	91.54	5.41	
2025-01-18 16:21:52.34	91.52	5.42	
2025-01-18 16:21:52.54	91.50	5.43	
2025-01-18 16:21:52.74	91.47	5.44	
2025-01-18 16:21:52.95	91.45	5.46	
2025-01-18 16:21:53.15	91.43	5.47	
2025-01-18 16:21:53.35	91.40	5.48	
2025-01-18 16:21:53.55	91.38	5.49	
2025-01-18 16:21:53.76	91.36	5.50	
2025-01-18 16:21:53.96	91.33	5.51	
2025-01-18 16:21:54.16	91.31	5.52	
2025-01-18 16:21:54.37	91.28	5.54	
2025-01-18 16:21:54.57	91.26	5.55	
2025-01-18 16:21:54.77	91.24	5.56	
2025-01-18 16:21:54.98	91.21	5.57	
2025-01-18 16:21:55.18	91.19	5.58	
2025-01-18 16:21:55.38	91.17	5.59	
2025-01-18 16:21:55.59	91.14	5.61	
2025-01-18 16:21:55.79	91.12	5.62	
2025-01-18 16:21:55.99	91.10	5.63	
2025-01-18 16:21:56.19	91.07	5.64	
2025-01-18 16:21:56.40	91.05	5.65	
2025-01-18 16:21:56.60	91.02	5.66	
2025-01-18 16:21:56.80	91.00	5.68	
2025-01-18 16:21:57.01	90.98	5.69	
2025-01-18 16:21:57.21	90.95	5.70	
2025-01-18 16:21:57.41	90.93	5.71	
2025-01-18 16:21:57.62	90.90	5.72	
2025-01-18 16:21:57.82	90.88	5.73	
2025-01-18 16:21:58.02	90.86	5.75	
2025-01-18 16:21:58.23	90.83	5.76	
2025-01-18 16:21:58.43	90.81	5.77	
2025-01-18 16:21:58.63	90.78	5.78	
2025-01-18 16:21:58.83	90.76	5.79	
2025-01-18 16:21:59.04	90.74	5.80	
2025-01-18 16:21:59.24	90.71	5.82	
2025-01-18 16:21:59.44	90.69	5.83	
2025-01-18 16:21:59.65	90.66	5.84	
2025-01-18 16:21:59.85	90.64	5.85	
2025-01-18 16:22:00.05	90.62	5.86	
2025-01-18 16:22:00.26	90.59	5.87	
2025-01-18 16:22:00.46	90.57	5.88	
2025-01-18 16:22:00.66	90.54	5.90	
2025-01-18 16:22:00.87	90.52	5.91	
2025-01-18 16:22:01.07	90.49	5.92	
2025-01-18 16:22:01.27	90.47	5.93	
2025-01-18 16:22:01.47	90.45	5.94	
2025-01-18 16:22:01.68	90.42	5.95	
2025-01-18 16:22:01.88	90.40	5.97	
2025-01-18 16:22:02.08	90.37	5.98	
2025-01-18 16:22:02.29	90.35	5.99	
2025-01-18 16:22:02.49	90.32	6.00	
2025-01-18 16:22:02.69	90.30	6.01	
2025-01-18 16:22:02.90	90.27	6.02	
2025-01-18 16:22:03.10	90.25	6.04	
2025-01-18 16:22:03.30	90.23	6.05	
2025-01-18 16:22:03.51	90.20	6.06	
2025-01-18 16:22:03.71	90.18	6.07	
2025-01-18 16:22:03.91	90.15	6.08	
2025-01-18 16:22:04.11	90.13	6.09	
2025-01-18 16:22:04.32	90.10	6.11	
2025-01-18 16:22:04.52	90.08	6.12	
2025-01-18 16:22:04.72	90.05	6.13	
2025-01-18 16:22:04.93	90.03	6.14	
2025-01-18 16:22:05.13	90.00	6.15	
2025-01-18 16:22:05.33	89.98	6.16	
2025-01-18 16:22:05.54	89.95	6.18	
2025-01-18 16:22:05.74	89.93	6.19	
2025-01-18 16:22:05.94	89.91	6.20	
2025-01-18 16:22:06.15	89.88	6.21	
2025-01-18 16:22:06.35	89.86	6.22	
2025-01-18 16:22:06.55	89.83	6.23	
2025-01-18 16:22:06.76	89.81	6.25	
2025-01-18 16:22:06.96	89.78	6.26	
2025-01-18 16:22:07.16	89.76	6.27	
2025-01-18 16:22:07.36	89.73	6.28	
2025-01-18 16:22:07.57	89.71	6.29	
2025-01-18 16:22:07.77	89.68	6.30	
2025-01-18 16:22:07.97	89.66	6.32	
2025-01-18 16:22:08.18	89.63	6.33	
2025-01-18 16:22:08.38	89.61	6.34	
2025-01-18 16:22:08.58	89.58	6.35	
2025-01-18 16:22:08.79	89.56	6.36	
2025-01-18 16:22:08.99	89.53	6.37	
2025-01-18 16:22:09.19	89.51	6.39	
2025-01-18 16:22:09.40	89.48	6.40	
2025-01-18 16:22:09.60	89.45	6.41	
2025-01-18 16:22:09.80	89.43	6.42	
2025-01-18 16:22:10.00	89.41	6.43	
2025-01-18 16:22:10.21	89.38	6.45	
2025-01-18 16:22:10.41	89.35	6.46	
2025-01-18 16:22:10.61	89.33	6.47	
2025-01-18 16:22:10.82	89.30	6.48	
2025-01-18 16:22:11.02	89.28	6.49	
2025-01-18 16:22:11.22	89.25	6.50	
2025-01-18 16:22:11.43	89.23	6.52	
2025-01-18 16:22:11.63	89.20	6.53	
2025-01-18 16:22:11.83	89.18	6.54	
2025-01-18 16:22:12.04	89.15	6.55	
2025-01-18 16:22:12.24	89.12	6.56	
2025-01-18 16:22:12.44	89.10	6.57	
2025-01-18 16:22:12.64	89.07	6.59	
2025-01-18 16:22:12.85	89.05	6.60	
2025-01-18 16:22:13.05	89.02	6.61	
2025-01-18 16:22:13.25	89.00	6.62	
2025-01-18 16:22:13.46	88.97	6.63	
2025-01-18 16:22:13.66	88.95	6.64	
2025-01-18 16:22:13.86	88.92	6.66	
2025-01-18 16:22:14.07	88.89	6.67	
2025-01-18 16:22:14.27	88.87	6.68	
2025-01-18 16:22:14.47	88.84	6.69	
2025-01-18 16:22:14.68	88.82	6.70	
2025-01-18 16:22:14.88	88.79	6.71	
2025-01-18 16:22:15.08	88.77	6.73	
2025-01-18 16:22:15.28	88.74	6.74	
2025-01-18 16:22:15.49	88.71	6.75	
2025-01-18 16:22:15.69	88.69	6.76	
2025-01-18 16:22:15.89	88.66	6.77	
2025-01-18 16:22:16.10	88.64	6.78	
2025-01-18 16:22:16.30	88.61	6.80	
2025-01-18 16:22:16.50	88.58	6.81	
2025-01-18 16:22:16.71	88.56	6.82	
2025-01-18 16:22:16.91	88.53	6.83	
2025-01-18 16:22:17.11	88.51	6.84	
2025-01-18 16:22:17.32	88.48	6.86	
2025-01-18 16:22:17.52	88.45	6.87	
2025-01-18 16:22:17.72	88.43	6.88	
2025-01-18 16:22:17.92	88.40	6.89	
2025-01-18 16:22:18.13	88.38	6.90	
2025-01-18 16:22:18.33	88.35	6.91	
2025-01-18 16:22:18.53	88.32	6.92	
2025-01-18 16:22:18.74	88.30	6.94	
2025-01-18 16:22:18.94	88.27	6.95	
2025-01-18 16:22:19.14	88.24	6.96	
2025-01-18 16:22:19.35	88.22	6.97	
2025-01-18 16:22:19.55	88.19	6.98	
2025-01-18 16:22:19.75	88.17	7.00	
2025-01-18 16:22:19.96	88.14	7.01	
2025-01-18 16:22:20.16	88.11	7.02	
2025-01-18 16:22:20.36	88.09	7.03	
2025-01-18 16:22:20.56	88.06	7.04	
2025-01-18 16:22:20.77	88.03	7.05	
2025-01-18 16:22:20.97	88.01	7.07	
2025-01-18 16:22:21.17	87.98	7.08	
2025-01-18 16:22:21.38	87.95	7.09	
2025-01-18 16:22:21.58	87.93	7.10	
2025-01-18 16:22:21.78	87.90	7.11	
2025-01-18 16:22:21.99	87.87	7.12	
2025-01-18 16:22:22.19	87.85	7.14	
2025-01-18 16:22:22.39	87.82	7.15	
2025-01-18 16:22:22.60	87.79	7.16	
2025-01-18 16:22:22.80	87.77	7.17	
2025-01-18 16:22:23.00	87.74	7.18	
2025-01-18 16:22:23.20	87.71	7.19	
2025-01-18 16:22:23.41	87.69	7.21	
2025-01-18 16:22:23.61	87.66	7.22	
2025-01-18 16:22:23.81	87.63	7.23	
2025-01-18 16:22:24.02	87.61	7.24	
2025-01-18 16:22:24.22	87.58	7.25	
2025-01-18 16:22:24.42	87.55	7.27	
2025-01-18 16:22:24.63	87.53	7.28	
2025-01-18 16:22:24.83	87.50	7.29	
2025-01-18 16:22:25.03	87.47	7.30	
2025-01-18 16:22:25.24	87.44	7.31	
2025-01-18 16:22:25.44	87.42	7.32	
2025-01-18 16:22:25.64	87.39	7.34	
2025-01-18 16:22:25.85	87.36	7.35	
2025-01-18 16:22:26.05	87.34	7.36	
2025-01-18 16:22:26.25	87.31	7.37	
2025-01-18 16:22:26.45	87.28	7.38	
2025-01-18 16:22:26.66	87.26	7.39	
2025-01-18 16:22:26.86	87.23	7.41	
2025-01-18 16:22:27.06	87.20	7.42	
2025-01-18 16:22:27.27	87.17	7.43	
2025-01-18 16:22:27.47	87.15	7.44	
2025-01-18 16:22:27.67	87.12	7.45	
2025-01-18 16:22:27.88	87.09	7.47	
2025-01-18 16:22:28.08	87.06	7.48	
2025-01-18 16:22:28.28	87.04	7.49	
2025-01-18 16:22:28.49	87.01	7.50	
2025-01-18 16:22:28.69	86.98	7.51	
2025-01-18 16:22:28.89	86.96	7.52	
2025-01-18 16:22:29.09	86.93	7.54	
2025-01-18 16:22:29.30	86.90	7.55	
2025-01-18 16:22:29.50	86.87	7.56	
2025-01-18 16:22:29.70	86.85	7.57	
2025-01-18 16:22:29.91	86.82	7.58	
2025-01-18 16:22:30.11	86.79	7.59	
2025-01-18 16:22:30.31	86.76	7.61	
2025-01-18 16:22:30.52	86.73	7.62	
2025-01-18 16:22:30.72	86.71	7.63	
2025-01-18 16:22:30.92	86.68	7.64	
2025-01-18 16:22:31.13	86.65	7.65	
2025-01-18 16:22:31.33	86.62	7.66	
2025-01-18 16:22:31.53	86.60	7.68	
2025-01-18 16:22:31.73	86.57	7.69	
2025-01-18 16:22:31.94	86.54	7.70	
2025-01-18 16:22:32.14	86.51	7.71	
2025-01-18 16:22:32.34	86.49	7.72	
2025-01-18 16:22:32.55	86.46	7.74	
2025-01-18 16:22:32.75	86.43	7.75	
2025-01-18 16:22:32.95	86.40	7.76	
2025-01-18 16:22:33.16	86.37	7.77	
2025-01-18 16:22:33.36	86.35	7.78	
2025-01-18 16:22:33.56	86.32	7.79	
2025-01-18 16:22:33.77	86.29	7.81	
2025-01-18 16:22:33.97	86.26	7.82	
2025-01-18 16:22:34.17	86.23	7.83	
2025-01-18 16:22:34.37	86.21	7.84	
2025-01-18 16:22:34.58	86.18	7.85	
2025-01-18 16:22:34.78	86.15	7.86	
2025-01-18 16:22:34.98	86.12	7.88	
2025-01-18 16:22:35.19	86.09	7.89	
2025-01-18 16:22:35.39	86.06	7.90	
2025-01-18 16:22:35.59	86.04	7.91	
2025-01-18 16:22:35.80	86.01	7.92	
2025-01-18 16:22:36.00	85.98	7.94	
2025-01-18 16:22:36.20	85.95	7.95	
2025-01-18 16:22:36.41	85.92	7.96	
2025-01-18 16:22:36.61	85.89	7.97	
2025-01-18 16:22:36.81	85.87	7.98	
2025-01-18 16:22:37.01	85.84	7.99	
2025-01-18 16:22:37.22	85.81	8.01	
2025-01-18 16:22:37.42	85.78	8.02	
2025-01-18 16:22:37.62	85.75	8.03	
2025-01-18 16:22:37.83	85.72	8.04	
2025-01-18 16:22:38.03	85.70	8.05	
2025-01-18 16:22:38.23	85.67	8.06	
2025-01-18 16:22:38.44	85.64	8.08	
2025-01-18 16:22:38.64	85.61	8.09	
2025-01-18 16:22:38.84	85.58	8.10	
2025-01-18 16:22:39.05	85.55	8.11	
2025-01-18 16:22:39.25	85.52	8.12	
2025-01-18 16:22:39.45	85.49	8.13	
2025-01-18 16:22:39.65	85.47	8.15	
2025-01-18 16:22:39.86	85.44	8.16	
2025-01-18 16:22:40.06	85.41	8.17	
2025-01-18 16:22:40.26	85.38	8.18	
2025-01-18 16:22:40.47	85.35	8.19	
2025-01-18 16:22:40.67	85.32	8.21	
2025-01-18 16:22:40.87	85.29	8.22	
2025-01-18 16:22:41.08	85.26	8.23	
2025-01-18 16:22:41.28	85.23	8.24	
2025-01-18 16:22:41.48	85.21	8.25	
2025-01-18 16:22:41.69	85.18	8.26	
2025-01-18 16:22:41.89	85.15	8.28	
2025-01-18 16:22:42.09	85.12	8.29	
2025-01-18 16:22:42.29	85.09	8.30	
2025-01-18 16:22:42.50	85.06	8.31	
2025-01-18 16:22:42.70	85.03	8.32	
2025-01-18 16:22:42.90	85.00	8.33	
2025-01-18 16:22:43.11	84.97	8.35	
2025-01-18 16:22:43.31	84.94	8.36	
2025-01-18 16:22:43.51	84.92	8.37	
2025-01-18 16:22:43.72	84.88	8.38	
2025-01-18 16:22:43.92	84.86	8.39	
2025-01-18 16:22:44.12	84.83	8.40	
2025-01-18 16:22:44.33	84.80	8.42	
2025-01-18 16:22:44.53	84.77	8.43	
2025-01-18 16:22:44.73	84.74	8.44	
2025-01-18 16:22:44.94	84.71	8.45	
2025-01-18 16:22:45.14	84.68	8.46	
2025-01-18 16:22:45.34	84.65	8.48	
2025-01-18 16:22:45.54	84.62	8.49	
2025-01-18 16:22:45.75	84.59	8.50	
2025-01-18 16:22:45.95	84.56	8.51	
2025-01-18 16:22:46.15	84.53	8.52	
2025-01-18 16:22:46.36	84.50	8.53	
2025-01-18 16:22:46.56	84.47	8.55	
2025-01-18 16:22:46.76	84.44	8.56	
2025-01-18 16:22:46.97	84.41	8.57	
2025-01-18 16:22:47.17	84.38	8.58	
2025-01-18 16:22:47.37	84.35	8.59	
2025-01-18 16:22:47.58	84.32	8.60	
2025-01-18 16:22:47.78	84.29	8.62	
2025-01-18 16:22:47.98	84.27	8.63	
2025-01-18 16:22:48.18	84.24	8.64	
2025-01-18 16:22:48.39	84.20	8.65	
2025-01-18 16:22:48.59	84.18	8.66	
2025-01-18 16:22:48.79	84.15	8.67	
2025-01-18 16:22:49.00	84.11	8.69	
2025-01-18 16:22:49.20	84.09	8.70	
2025-01-18 16:22:49.40	84.06	8.71	
2025-01-18 16:22:49.61	84.02	8.72	
2025-01-18 16:22:49.81	84.00	8.73	
2025-01-18 16:22:50.01	83.97	8.74	
2025-01-18 16:22:50.22	83.93	8.76	
2025-01-18 16:22:50.42	83.90	8.77	
2025-01-18 16:22:50.62	83.88	8.78	
2025-01-18 16:22:50.82	83.85	8.79	
2025-01-18 16:22:51.03	83.81	8.80	
2025-01-18 16:22:51.23	83.78	8.81	
2025-01-18 16:22:51.43	83.75	8.83	
2025-01-18 16:22:51.64	83.72	8.84	
2025-01-18 16:22:51.84	83.69	8.85	
2025-01-18 16:22:52.04	83.66	8.86	
2025-01-18 16:22:52.25	83.63	8.87	
2025-01-18 16:22:52.45	83.60	8.89	
2025-01-18 16:22:52.65	83.57	8.90	
2025-01-18 16:22:52.86	83.54	8.91	
2025-01-18 16:22:53.06	83.51	8.92	
2025-01-18 16:22:53.26	83.48	8.93	
2025-01-18 16:22:53.46	83.45	8.94	
2025-01-18 16:22:53.67	83.42	8.96	
2025-01-18 16:22:53.87	83.39	8.97	
2025-01-18 16:22:54.07	83.36	8.98	
2025-01-18 16:22:54.28	83.33	8.99	
2025-01-18 16:22:54.48	83.30	9.00	
2025-01-18 16:22:54.68	83.27	9.01	
2025-01-18 16:22:54.89	83.23	9.03	
2025-01-18 16:22:55.09	83.20	9.04	
2025-01-18 16:22:55.29	83.17	9.05	
2025-01-18 16:22:55.50	83.14	9.06	
2025-01-18 16:22:55.70	83.11	9.07	
2025-01-18 16:22:55.90	83.08	9.08	
2025-01-18 16:22:56.10	83.05	9.10	
2025-01-18 16:22:56.31	83.02	9.11	
2025-01-18 16:22:56.51	82.99	9.12	
2025-01-18 16:22:56.71	82.96	9.13	
2025-01-18 16:22:56.92	82.93	9.14	
2025-01-18 16:22:57.12	82.90	9.15	
2025-01-18 16:22:57.32	82.87	9.17	
2025-01-18 16:22:57.53	82.83	9.18	
2025-01-18 16:22:57.73	82.80	9.19	
2025-01-18 16:22:57.93	82.77	9.20	
2025-01-18 16:22:58.14	82.74	9.21	
2025-01-18 16:22:58.34	82.71	9.22	
2025-01-18 16:22:58.54	82.68	9.24	
2025-01-18 16:22:58.74	82.65	9.25	
2025-01-18 16:22:58.95	82.62	9.26	
2025-01-18 16:22:59.15	82.58	9.27	
2025-01-18 16:22:59.35	82.55	9.28	
2025-01-18 16:22:59.56	82.52	9.29	
2025-01-18 16:22:59.76	82.49	9.31	
2025-01-18 16:22:59.96	82.46	9.32	
2025-01-18 16:23:00.17	82.43	9.33	
2025-01-18 16:23:00.37	82.40	9.34	
2025-01-18 16:23:00.57	82.36	9.35	
2025-01-18 16:23:00.78	82.33	9.36	
2025-01-18 16:23:00.98	82.30	9.38	
2025-01-18 16:23:01.18	82.27	9.39	
2025-01-18 16:23:01.38	82.24	9.40	
2025-01-18 16:23:01.59	82.21	9.41	
2025-01-18 16:23:01.79	82.18	9.42	
2025-01-18 16:23:01.99	82.14	9.43	
2025-01-18 16:23:02.20	82.11	9.45	
2025-01-18 16:23:02.40	82.08	9.46	
2025-01-18 16:23:02.60	82.05	9.47	
2025-01-18 16:23:02.81	82.02	9.48	
2025-01-18 16:23:03.01	81.98	9.49	
2025-01-18 16:23:03.21	81.95	9.50	
2025-01-18 16:23:03.42	81.92	9.52	
2025-01-18 16:23:03.62	81.89	9.53	
2025-01-18 16:23:03.82	81.86	9.54	
2025-01-18 16:23:04.03	81.82	9.55	
2025-01-18 16:23:04.23	81.79	9.56	
2025-01-18 16:23:04.43	81.76	9.57	
2025-01-18 16:23:04.63	81.73	9.58	
2025-01-18 16:23:04.84	81.70	9.60	
2025-01-18 16:23:05.04	81.66	9.61	
2025-01-18 16:23:05.24	81.63	9.62	
2025-01-18 16:23:05.45	81.60	9.63	
2025-01-18 16:23:05.65	81.57	9.64	
2025-01-18 16:23:05.85	81.54	9.65	
2025-01-18 16:23:06.06	81.50	9.67	
2025-01-18 16:23:06.26	81.47	9.68	
2025-01-18 16:23:06.46	81.44	9.69	
2025-01-18 16:23:06.67	81.41	9.70	
2025-01-18 16:23:06.87	81.37	9.71	
2025-01-18 16:23:07.07	81.34	9.72	
2025-01-18 16:23:07.27	81.31	9.73	
2025-01-18 16:23:07.48	81.28	9.75	
2025-01-18 16:23:07.68	81.25	9.76	
2025-01-18 16:23:07.88	81.21	9.77	
2025-01-18 16:23:08.09	81.18	9.78	
2025-01-18 16:23:08.29	81.15	9.79	
2025-01-18 16:23:08.49	81.12	9.80	
2025-01-18 16:23:08.70	81.08	9.82	
2025-01-18 16:23:08.90	81.05	9.83	
2025-01-18 16:23:09.10	81.02	9.84	
2025-01-18 16:23:09.31	80.98	9.85	
2025-01-18 16:23:09.51	80.95	9.86	
2025-01-18 16:23:09.71	80.92	9.87	
2025-01-18 16:23:09.91	80.89	9.88	
2025-01-18 16:23:10.12	80.85	9.90	
2025-01-18 16:23:10.32	80.82	9.91	
2025-01-18 16:23:10.52	80.79	9.92	
2025-01-18 16:23:10.73	80.75	9.93	
2025-01-18 16:23:10.93	80.72	9.94	
2025-01-18 16:23:11.13	80.69	9.95	
2025-01-18 16:23:11.34	80.66	9.97	
2025-01-18 16:23:11.54	80.62	9.98	
2025-01-18 16:23:11.74	80.59	9.99	
2025-01-18 16:23:11.95	80.56	10.00	
2025-01-18 16:23:12.15	80.52	10.01	
2025-01-18 16:23:12.35	80.49	10.02	
2025-01-18 16:23:12.55	80.46	10.03	
2025-01-18 16:23:12.76	80.42	10.05	
2025-01-18 16:23:12.96	80.39	10.06	
2025-01-18 16:23:13.16	80.36	10.07	
2025-01-18 16:23:13.37	80.32	10.08	
2025-01-18 16:23:13.57	80.29	10.09	
2025-01-18 16:23:13.77	80.26	10.10	
2025-01-18 16:23:13.98	80.22	10.12	
2025-01-18 16:23:14.18	80.19	10.13	
2025-01-18 16:23:14.38	80.16	10.14	
2025-01-18 16:23:14.59	80.12	10.15	
2025-01-18 16:23:14.79	80.09	10.16	
2025-01-18 16:23:14.99	80.06	10.17	
2025-01-18 16:23:15.19	80.03	10.18	
2025-01-18 16:23:15.40	79.99	10.20	
2025-01-18 16:23:15.60	79.96	10.21	
2025-01-18 16:23:15.80	79.92	10.22	
2025-01-18 16:23:16.01	79.89	10.23	
2025-01-18 16:23:16.21	79.86	10.24	
2025-01-18 16:23:16.41	79.82	10.25	
2025-01-18 16:23:16.62	79.79	10.26	
2025-01-18 16:23:16.82	79.76	10.28	
2025-01-18 16:23:17.02	79.72	10.29	
2025-01-18 16:23:17.23	79.69	10.30	
2025-01-18 16:23:17.43	79.65	10.31	
2025-01-18 16:23:17.63	79.62	10.32	
2025-01-18 16:23:17.83	79.59	10.33	
2025-01-18 16:23:18.04	79.55	10.34	
2025-01-18 16:23:18.24	79.52	10.36	
2025-01-18 16:23:18.44	79.49	10.37	
2025-01-18 16:23:18.65	79.45	10.38	
2025-01-18 16:23:18.85	79.42	10.39	
2025-01-18 16:23:19.05	79.38	10.40	
2025-01-18 16:23:19.26	79.35	10.41	
2025-01-18 16:23:19.46	79.31	10.42	
2025-01-18 16:23:19.66	79.28	10.44	
2025-01-18 16:23:19.87	79.25	10.45	
2025-01-18 16:23:20.07	79.21	10.46	
2025-01-18 16:23:20.27	79.18	10.47	
2025-01-18 16:23:20.47	79.14	10.48	
2025-01-18 16:23:20.68	79.11	10.49	
2025-01-18 16:23:20.88	79.07	10.50	
2025-01-18 16:23:21.08	79.04	10.52	
2025-01-18 16:23:21.29	79.01	10.53	
2025-01-18 16:23:21.49	78.97	10.54	
2025-01-18 16:23:21.69	78.94	10.55	
2025-01-18 16:23:21.90	78.90	10.56	
2025-01-18 16:23:22.10	78.87	10.57	
2025-01-18 16:23:22.30	78.83	10.58	
2025-01-18 16:23:22.51	78.80	10.60	
2025-01-18 16:23:22.71	78.76	10.61	
2025-01-18 16:23:22.91	78.73	10.62	
2025-01-18 16:23:23.12	78.69	10.63	
2025-01-18 16:23:23.32	78.66	10.64	
2025-01-18 16:23:23.52	78.63	10.65	
2025-01-18 16:23:23.72	78.59	10.66	
2025-01-18 16:23:23.93	78.56	10.67	
2025-01-18 16:23:24.13	78.52	10.69	
2025-01-18 16:23:24.33	78.49	10.70	
2025-01-18 16:23:24.54	78.45	10.71	
2025-01-18 16:23:24.74	78.42	10.72	
2025-01-18 16:23:24.94	78.38	10.73	
2025-01-18 16:23:25.15	78.35	10.74	
2025-01-18 16:23:25.35	78.31	10.75	
2025-01-18 16:23:25.55	78.28	10.76	
2025-01-18 16:23:25.76	78.24	10.78	
2025-01-18 16:23:25.96	78.21	10.79	
2025-01-18 16:23:26.16	78.17	10.80	
2025-01-18 16:23:26.36	78.14	10.81	
2025-01-18 16:23:26.57	78.10	10.82	
2025-01-18 16:23:26.77	78.07	10.83	
2025-01-18 16:23:26.97	78.03	10.84	
2025-01-18 16:23:27.18	78.00	10.86	
2025-01-18 16:23:27.38	77.96	10.87	
2025-01-18 16:23:27.58	77.93	10.88	
2025-01-18 16:23:27.79	77.89	10.89	
2025-01-18 16:23:27.99	77.86	10.90	
2025-01-18 16:23:28.19	77.82	10.91	
2025-01-18 16:23:28.40	77.78	10.92	
2025-01-18 16:23:28.60	77.75	10.93	
2025-01-18 16:23:28.80	77.71	10.94	
2025-01-18 16:23:29.00	77.68	10.96	
2025-01-18 16:23:29.21	77.64	10.97	
2025-01-18 16:23:29.41	77.61	10.98	
2025-01-18 16:23:29.61	77.57	10.99	
2025-01-18 16:23:29.82	77.54	11.00	
2025-01-18 16:23:30.02	77.50	11.01	
2025-01-18 16:23:30.22	77.47	11.02	
2025-01-18 16:23:30.43	77.43	11.03	
2025-01-18 16:23:30.63	77.39	11.05	
2025-01-18 16:23:30.83	77.36	11.06	
2025-01-18 16:23:31.04	77.32	11.07	
2025-01-18 16:23:31.24	77.29	11.08	
2025-01-18 16:23:31.44	77.25	11.09	
2025-01-18 16:23:31.64	77.22	11.10	
2025-01-18 16:23:31.85	77.18	11.11	
2025-01-18 16:23:32.05	77.14	11.12	
2025-01-18 16:23:32.25	77.11	11.13	
2025-01-18 16:23:32.46	77.07	11.15	
2025-01-18 16:23:32.66	77.03	11.16	
2025-01-18 16:23:32.86	77.00	11.17	
2025-01-18 16:23:33.07	76.96	11.18	
2025-01-18 16:23:33.27	76.93	11.19	
2025-01-18 16:23:33.47	76.89	11.20	
2025-01-18 16:23:33.68	76.85	11.21	
2025-01-18 16:23:33.88	76.82	11.22	
2025-01-18 16:23:34.08	76.78	11.24	
2025-01-18 16:23:34.28	76.75	11.25	
2025-01-18 16:23:34.49	76.71	11.26	
2025-01-18 16:23:34.69	76.67	11.27	
2025-01-18 16:23:34.89	76.64	11.28	
2025-01-18 16:23:35.10	76.60	11.29	
2025-01-18 16:23:35.30	76.56	11.30	
2025-01-18 16:23:35.50	76.53	11.31	
2025-01-18 16:23:35.71	76.49	11.32	
2025-01-18 16:23:35.91	76.45	11.34	
2025-01-18 16:23:36.11	76.42	11.35	
2025-01-18 16:23:36.32	76.38	11.36	
2025-01-18 16:23:36.52	76.34	11.37	
2025-01-18 16:23:36.72	76.31	11.38	
2025-01-18 16:23:36.92	76.27	11.39	
2025-01-18 16:23:37.13	76.23	11.40	
2025-01-18 16:23:37.33	76.20	11.41	
2025-01-18 16:23:37.53	76.16	11.42	
2025-01-18 16:23:37.74	76.12	11.43	
2025-01-18 16:23:37.94	76.09	11.45	
2025-01-18 16:23:38.14	76.05	11.46	
2025-01-18 16:23:38.35	76.01	11.47	
2025-01-18 16:23:38.55	75.98	11.48	
2025-01-18 16:23:38.75	75.94	11.49	
2025-01-18 16:23:38.96	75.90	11.50	
2025-01-18 16:23:39.16	75.87	11.51	
2025-01-18 16:23:39.36	75.83	11.52	
2025-01-18 16:23:39.56	75.79	11.53	
2025-01-18 16:23:39.77	75.75	11.54	
2025-01-18 16:23:39.97	75.72	11.56	
2025-01-18 16:23:40.17	75.68	11.57	
2025-01-18 16:23:40.38	75.64	11.58	
2025-01-18 16:23:40.58	75.61	11.59	
2025-01-18 16:23:40.78	75.57	11.60	
2025-01-18 16:23:40.99	75.53	11.61	
2025-01-18 16:23:41.19	75.49	11.62	
2025-01-18 16:23:41.39	75.46	11.63	
2025-01-18 16:23:41.60	75.42	11.64	
2025-01-18 16:23:41.80	75.38	11.65	
2025-01-18 16:23:42.00	75.35	11.66	
2025-01-18 16:23:42.21	75.31	11.68	
2025-01-18 16:23:42.41	75.27	11.69	
2025-01-18 16:23:42.61	75.23	11.70	
2025-01-18 16:23:42.81	75.20	11.71	
2025-01-18 16:23:43.02	75.16	11.72	
2025-01-18 16:23:43.22	75.12	11.73	
2025-01-18 16:23:43.42	75.08	11.74	
2025-01-18 16:23:43.63	75.04	11.75	
2025-01-18 16:23:43.83	75.01	11.76	
2025-01-18 16:23:44.03	74.97	11.77	
2025-01-18 16:23:44.24	74.93	11.78	
2025-01-18 16:23:44.44	74.89	11.79	
2025-01-18 16:23:44.64	74.86	11.81	
2025-01-18 16:23:44.85	74.82	11.82	
2025-01-18 16:23:45.05	74.78	11.83	
2025-01-18 16:23:45.25	74.74	11.84	
2025-01-18 16:23:45.45	74.71	11.85	
2025-01-18 16:23:45.66	74.67	11.86	
2025-01-18 16:23:45.86	74.63	11.87	
2025-01-18 16:23:46.06	74.59	11.88	
2025-01-18 16:23:46.27	74.55	11.89	
2025-01-18 16:23:46.47	74.52	11.90	
2025-01-18 16:23:46.67	74.48	11.91	
2025-01-18 16:23:46.88	74.44	11.92	
2025-01-18 16:23:47.08	74.40	11.93	
2025-01-18 16:23:47.28	74.36	11.95	
2025-01-18 16:23:47.49	74.32	11.96	
2025-01-18 16:23:47.69	74.29	11.97	
2025-01-18 16:23:47.89	74.25	11.98	
2025-01-18 16:23:48.09	74.21	11.99	
2025-01-18 16:23:48.30	74.17	12.00	
2025-01-18 16:23:48.50	74.13	12.01	
2025-01-18 16:23:48.70	74.10	12.02	
2025-01-18 16:23:48.91	74.06	12.03	
2025-01-18 16:23:49.11	74.02	12.04	
2025-01-18 16:23:49.31	73.98	12.05	
2025-01-18 16:23:49.52	73.94	12.06	
2025-01-18 16:23:49.72	73.90	12.07	
2025-01-18 16:23:49.92	73.86	12.08	
2025-01-18 16:23:50.13	73.82	12.10	
2025-01-18 16:23:50.33	73.79	12.11	
2025-01-18 16:23:50.53	73.75	12.12	
2025-01-18 16:23:50.73	73.71	12.13	
2025-01-18 16:23:50.94	73.67	12.14	
2025-01-18 16:23:51.14	73.63	12.15	
2025-01-18 16:23:51.34	73.59	12.16	
2025-01-18 16:23:51.55	73.55	12.17	
2025-01-18 16:23:51.75	73.52	12.18	
2025-01-18 16:23:51.95	73.48	12.19	
2025-01-18 16:23:52.16	73.44	12.20	
2025-01-18 16:23:52.36	73.40	12.21	
2025-01-18 16:23:52.56	73.36	12.22	
2025-01-18 16:23:52.77	73.32	12.23	
2025-01-18 16:23:52.97	73.28	12.24	
2025-01-18 16:23:53.17	73.24	12.25	
2025-01-18 16:23:53.37	73.20	12.26	
2025-01-18 16:23:53.58	73.16	12.27	
2025-01-18 16:23:53.78	73.13	12.29	
2025-01-18 16:23:53.98	73.09	12.30	
2025-01-18 16:23:54.19	73.05	12.31	
2025-01-18 16:23:54.39	73.01	12.32	
2025-01-18 16:23:54.59	72.97	12.33	
2025-01-18 16:23:54.80	72.93	12.34	
2025-01-18 16:23:55.00	72.89	12.35	
2025-01-18 16:23:55.20	72.85	12.36	
2025-01-18 16:23:55.41	72.81	12.37	
2025-01-18 16:23:55.61	72.77	12.38	
2025-01-18 16:23:55.81	72.73	12.39	
2025-01-18 16:23:56.01	72.69	12.40	
2025-01-18 16:23:56.22	72.65	12.41	
2025-01-18 16:23:56.42	72.61	12.42	
2025-01-18 16:23:56.62	72.57	12.43	
2025-01-18 16:23:56.83	72.53	12.44	
2025-01-18 16:23:57.03	72.49	12.45	
2025-01-18 16:23:57.23	72.46	12.46	
2025-01-18 16:23:57.44	72.41	12.47	
2025-01-18 16:23:57.64	72.38	12.48	
2025-01-18 16:23:57.84	72.34	12.49	
2025-01-18 16:23:58.05	72.30	12.50	
2025-01-18 16:23:58.25	72.26	12.51	
2025-01-18 16:23:58.45	72.22	12.52	
2025-01-18 16:23:58.65	72.18	12.54	
2025-01-18 16:23:58.86	72.14	12.55	
2025-01-18 16:23:59.06	72.10	12.56	
2025-01-18 16:23:59.26	72.06	12.57	
2025-01-18 16:23:59.47	72.02	12.58	
2025-01-18 16:23:59.67	71.98	12.59	
2025-01-18 16:23:59.87	71.94	12.60	
2025-01-18 16:24:00.08	71.90	12.61	
2025-01-18 16:24:00.28	71.86	12.62	
2025-01-18 16:24:00.48	71.82	12.63	
2025-01-18 16:24:00.69	71.78	12.64	
2025-01-18 16:24:00.89	71.74	12.65	
2025-01-18 16:24:01.09	71.70	12.66	
2025-01-18 16:24:01.30	71.65	12.67	
2025-01-18 16:24:01.50	71.62	12.68	
2025-01-18 16:24:01.70	71.58	12.69	
2025-01-18 16:24:01.90	71.54	12.70	
2025-01-18 16:24:02.11	71.49	12.71	
2025-01-18 16:24:02.31	71.45	12.72	
2025-01-18 16:24:02.51	71.41	12.73	
2025-01-18 16:24:02.72	71.37	12.74	
2025-01-18 16:24:02.92	71.33	12.75	
2025-01-18 16:24:03.12	71.29	12.76	
2025-01-18 16:24:03.33	71.25	12.77	
2025-01-18 16:24:03.53	71.21	12.78	
2025-01-18 16:24:03.73	71.17	12.79	
2025-01-18 16:24:03.94	71.13	12.80	
2025-01-18 16:24:04.14	71.09	12.81	
2025-01-18 16:24:04.34	71.05	12.82	
2025-01-18 16:24:04.54	71.01	12.83	
2025-01-18 16:24:04.75	70.97	12.84	
2025-01-18 16:24:04.95	70.93	12.85	
2025-01-18 16:24:05.15	70.89	12.86	
2025-01-18 16:24:05.36	70.84	12.87	
2025-01-18 16:24:05.56	70.80	12.88	
2025-01-18 16:24:05.76	70.76	12.89	
2025-01-18 16:24:05.97	70.72	12.90	
2025-01-18 16:24:06.17	70.68	12.91	
2025-01-18 16:24:06.37	70.64	12.92	
2025-01-18 16:24:06.58	70.60	12.93	
2025-01-18 16:24:06.78	70.56	12.94	
2025-01-18 16:24:06.98	70.52	12.95	
2025-01-18 16:24:07.18	70.48	12.96	
2025-01-18 16:24:07.39	70.43	12.97	
2025-01-18 16:24:07.59	70.39	12.98	
2025-01-18 16:24:07.79	70.35	12.99	
2025-01-18 16:24:08.00	70.31	13.00	
2025-01-18 16:24:08.20	70.27	13.01	
2025-01-18 16:24:08.40	70.23	13.02	
2025-01-18 16:24:08.61	70.19	13.03	
2025-01-18 16:24:08.81	70.15	13.04	
2025-01-18 16:24:09.01	70.10	13.05	
2025-01-18 16:24:09.22	70.06	13.06	
2025-01-18 16:24:09.42	70.02	13.07	
2025-01-18 16:24:09.62	69.98	13.08	
2025-01-18 16:24:09.82	69.94	13.09	
2025-01-18 16:24:10.03	69.90	13.10	
2025-01-18 16:24:10.23	69.85	13.11	
2025-01-18 16:24:10.43	69.81	13.12	
2025-01-18 16:24:10.64	69.77	13.13	
2025-01-18 16:24:10.84	69.73	13.14	
2025-01-18 16:24:11.04	69.69	13.15	
2025-01-18 16:24:11.25	69.65	13.16	
2025-01-18 16:24:11.45	69.60	13.17	
2025-01-18 16:24:11.65	69.56	13.18	
2025-01-18 16:24:11.86	69.52	13.19	
2025-01-18 16:24:12.06	69.48	13.20	
2025-01-18 16:24:12.26	69.44	13.21	
2025-01-18 16:24:12.46	69.40	13.22	
2025-01-18 16:24:12.67	69.35	13.23	
2025-01-18 16:24:12.87	69.31	13.24	
2025-01-18 16:24:13.07	69.27	13.25	
2025-01-18 16:24:13.28	69.23	13.26	
2025-01-18 16:24:13.48	69.19	13.27	
2025-01-18 16:24:13.68	69.14	13.27	
2025-01-18 16:24:13.89	69.10	13.28	
2025-01-18 16:24:14.09	69.06	13.29	
2025-01-18 16:24:14.29	69.02	13.30	
2025-01-18 16:24:14.50	68.97	13.31	
2025-01-18 16:24:14.70	68.93	13.32	
2025-01-18 16:24:14.90	68.89	13.33	
2025-01-18 16:24:15.10	68.85	13.34	
2025-01-18 16:24:15.31	68.81	13.35	
2025-01-18 16:24:15.51	68.76	13.36	
2025-01-18 16:24:15.71	68.72	13.37	
2025-01-18 16:24:15.92	68.68	13.38	
2025-01-18 16:24:16.12	68.64	13.39	
2025-01-18 16:24:16.32	68.59	13.40	
2025-01-18 16:24:16.53	68.55	13.41	
2025-01-18 16:24:16.73	68.51	13.42	
2025-01-18 16:24:16.93	68.47	13.43	
2025-01-18 16:24:17.14	68.42	13.44	
2025-01-18 16:24:17.34	68.38	13.45	
2025-01-18 16:24:17.54	68.34	13.46	
2025-01-18 16:24:17.74	68.30	13.47	
2025-01-18 16:24:17.95	68.25	13.48	
2025-01-18 16:24:18.15	68.21	13.48	
2025-01-18 16:24:18.35	68.17	13.49	
2025-01-18 16:24:18.56	68.12	13.50	
2025-01-18 16:24:18.76	68.08	13.51	
2025-01-18 16:24:18.96	68.04	13.52	
2025-01-18 16:24:19.17	68.00	13.53	
2025-01-18 16:24:19.37	67.95	13.54	
2025-01-18 16:24:19.57	67.91	13.55	
2025-01-18 16:24:19.78	67.87	13.56	
2025-01-18 16:24:19.98	67.82	13.57	
2025-01-18 16:24:20.18	67.78	13.58	
2025-01-18 16:24:20.39	67.74	13.59	
2025-01-18 16:24:20.59	67.69	13.60	
2025-01-18 16:24:20.79	67.65	13.61	
2025-01-18 16:24:20.99	67.61	13.62	
2025-01-18 16:24:21.20	67.57	13.62	
2025-01-18 16:24:21.40	67.52	13.63	
2025-01-18 16:24:21.60	67.48	13.64	
2025-01-18 16:24:21.81	67.44	13.65	
2025-01-18 16:24:22.01	67.39	13.66	
2025-01-18 16:24:22.21	67.35	13.67	
2025-01-18 16:24:22.42	67.31	13.68	
2025-01-18 16:24:22.62	67.26	13.69	
2025-01-18 16:24:22.82	67.22	13.70	
2025-01-18 16:24:23.03	67.18	13.71	
2025-01-18 16:24:23.23	67.13	13.72	
2025-01-18 16:24:23.43	67.09	13.73	
2025-01-18 16:24:23.63	67.05	13.73	
2025-01-18 16:24:23.84	67.00	13.74	
2025-01-18 16:24:24.04	66.96	13.75	
2025-01-18 16:24:24.24	66.92	13.76	
2025-01-18 16:24:24.45	66.87	13.77	
2025-01-18 16:24:24.65	66.83	13.78	
2025-01-18 16:24:24.85	66.78	13.79	
2025-01-18 16:24:25.06	66.74	13.80	
2025-01-18 16:24:25.26	66.70	13.81	
2025-01-18 16:24:25.46	66.65	13.82	
2025-01-18 16:24:25.67	66.61	13.83	
2025-01-18 16:24:25.87	66.56	13.83	
2025-01-18 16:24:26.07	66.52	13.84	
2025-01-18 16:24:26.27	66.48	13.85	
2025-01-18 16:24:26.48	66.43	13.86	
2025-01-18 16:24:26.68	66.39	13.87	
2025-01-18 16:24:26.88	66.35	13.88	
2025-01-18 16:24:27.09	66.30	13.89	
2025-01-18 16:24:27.29	66.26	13.90	
2025-01-18 16:24:27.49	66.21	13.91	
2025-01-18 16:24:27.70	66.17	13.91	
2025-01-18 16:24:27.90	66.13	13.92	
2025-01-18 16:24:28.10	66.08	13.93	
2025-01-18 16:24:28.31	66.04	13.94	
2025-01-18 16:24:28.51	65.99	13.95	
2025-01-18 16:24:28.71	65.95	13.96	
2025-01-18 16:24:28.91	65.91	13.97	
2025-01-18 16:24:29.12	65.86	13.98	
2025-01-18 16:24:29.32	65.82	13.99	
2025-01-18 16:24:29.52	65.77	13.99	
2025-01-18 16:24:29.73	65.73	14.00	
2025-01-18 16:24:29.93	65.68	14.01	
2025-01-18 16:24:30.13	65.64	14.02	
2025-01-18 16:24:30.34	65.59	14.03	
2025-01-18 16:24:30.54	65.55	14.04	
2025-01-18 16:24:30.74	65.51	14.05	
2025-01-18 16:24:30.95	65.46	14.05	
2025-01-18 16:24:31.15	65.42	14.06	
2025-01-18 16:24:31.35	65.37	14.07	
2025-01-18 16:24:31.55	65.33	14.08	
2025-01-18 16:24:31.76	65.28	14.09	
2025-01-18 16:24:31.96	65.24	14.10	
2025-01-18 16:24:32.16	65.19	14.11	
2025-01-18 16:24:32.37	65.15	14.12	
2025-01-18 16:24:32.57	65.10	14.12	
2025-01-18 16:24:32.77	65.06	14.13	
2025-01-18 16:24:32.98	65.01	14.14	
2025-01-18 16:24:33.18	64.97	14.15	
2025-01-18 16:24:33.38	64.92	14.16	
2025-01-18 16:24:33.59	64.88	14.17	
2025-01-18 16:24:33.79	64.83	14.17	
2025-01-18 16:24:33.99	64.79	14.18	
2025-01-18 16:24:34.19	64.75	14.19	
2025-01-18 16:24:34.40	64.70	14.20	
2025-01-18 16:24:34.60	64.65	14.21	
2025-01-18 16:24:34.80	64.61	14.22	
2025-01-18 16:24:35.01	64.56	14.23	
2025-01-18 16:24:35.21	64.52	14.23	
2025-01-18 16:24:35.41	64.47	14.24	
2025-01-18 16:24:35.62	64.43	14.25	
2025-01-18 16:24:35.82	64.38	14.26	
2025-01-18 16:24:36.02	64.34	14.27	
2025-01-18 16:24:36.23	64.29	14.28	
2025-01-18 16:24:36.43	64.25	14.28	
2025-01-18 16:24:36.63	64.20	14.29	
2025-01-18 16:24:36.83	64.16	14.30	
2025-01-18 16:24:37.04	64.11	14.31	
2025-01-18 16:24:37.24	64.07	14.32	
2025-01-18 16:24:37.44	64.02	14.32	
2025-01-18 16:24:37.65	63.97	14.33	
2025-01-18 16:24:37.85	63.93	14.34	
2025-01-18 16:24:38.05	63.89	14.35	
2025-01-18 16:24:38.26	63.84	14.36	
2025-01-18 16:24:38.46	63.79	14.37	
2025-01-18 16:24:38.66	63.75	14.37	
2025-01-18 16:24:38.87	63.70	14.38	
2025-01-18 16:24:39.07	63.66	14.39	
2025-01-18 16:24:39.27	63.61	14.40	
2025-01-18 16:24:39.48	63.56	14.41	
2025-01-18 16:24:39.68	63.52	14.41	
2025-01-18 16:24:39.88	63.47	14.42	
2025-01-18 16:24:40.08	63.43	14.43	
2025-01-18 16:24:40.29	63.38	14.44	
2025-01-18 16:24:40.49	63.34	14.45	
2025-01-18 16:24:40.69	63.29	14.45	
2025-01-18 16:24:40.90	63.24	14.46	
2025-01-18 16:24:41.10	63.20	14.47	
2025-01-18 16:24:41.30	63.15	14.48	
2025-01-18 16:24:41.51	63.11	14.49	
2025-01-18 16:24:41.71	63.06	14.49	
2025-01-18 16:24:41.91	63.02	14.50	
2025-01-18 16:24:42.12	62.97	14.51	
2025-01-18 16:24:42.32	62.92	14.52	
2025-01-18 16:24:42.52	62.88	14.53	
2025-01-18 16:24:42.72	62.83	14.53	
2025-01-18 16:24:42.93	62.78	14.54	
2025-01-18 16:24:43.13	62.74	14.55	
2025-01-18 16:24:43.33	62.69	14.56	
2025-01-18 16:24:43.54	62.65	14.57	
2025-01-18 16:24:43.74	62.60	14.57	
2025-01-18 16:24:43.94	62.55	14.58	
2025-01-18 16:24:44.15	62.51	14.59	
2025-01-18 16:24:44.35	62.46	14.60	
2025-01-18 16:24:44.55	62.42	14.60	
2025-01-18 16:24:44.76	62.37	14.61	
2025-01-18 16:24:44.96	62.32	14.62	
2025-01-18 16:24:45.16	62.28	14.63	
2025-01-18 16:24:45.36	62.23	14.64	
2025-01-18 16:24:45.57	62.18	14.64	
2025-01-18 16:24:45.77	62.14	14.65	
2025-01-18 16:24:45.97	62.09	14.66	
2025-01-18 16:24:46.18	62.04	14.67	
2025-01-18 16:24:46.38	62.00	14.67	
2025-01-18 16:24:46.58	61.95	14.68	
2025-01-18 16:24:46.79	61.90	14.69	
2025-01-18 16:24:46.99	61.86	14.70	
2025-01-18 16:24:47.19	61.81	14.70	
2025-01-18 16:24:47.40	61.76	14.71	
2025-01-18 16:24:47.60	61.72	14.72	
2025-01-18 16:24:47.80	61.67	14.73	
2025-01-18 16:24:48.00	61.62	14.73	
2025-01-18 16:24:48.21	61.58	14.74	
2025-01-18 16:24:48.41	61.53	14.75	
2025-01-18 16:24:48.61	61.48	14.76	
2025-01-18 16:24:48.82	61.44	14.76	
2025-01-18 16:24:49.02	61.39	14.77	
2025-01-18 16:24:49.22	61.34	14.78	
2025-01-18 16:24:49.43	61.29	14.79	
2025-01-18 16:24:49.63	61.25	14.79	
2025-01-18 16:24:49.83	61.20	14.80	
2025-01-18 16:24:50.04	61.15	14.81	
2025-01-18 16:24:50.24	61.11	14.81	
2025-01-18 16:24:50.44	61.06	14.82	
2025-01-18 16:24:50.64	61.01	14.83	
2025-01-18 16:24:50.85	60.97	14.84	
2025-01-18 16:24:51.05	60.92	14.84	
2025-01-18 16:24:51.25	60.87	14.85	
2025-01-18 16:24:51.46	60.82	14.86	
2025-01-18 16:24:51.66	60.78	14.87	
2025-01-18 16:24:51.86	60.73	14.87	
2025-01-18 16:24:52.07	60.68	14.88	
2025-01-18 16:24:52.27	60.64	14.89	
2025-01-18 16:24:52.47	60.59	14.89	
2025-01-18 16:24:52.68	60.54	14.90	
2025-01-18 16:24:52.88	60.49	14.91	
2025-01-18 16:24:53.08	60.45	14.92	
2025-01-18 16:24:53.28	60.40	14.92	
2025-01-18 16:24:53.49	60.35	14.93	
2025-01-18 16:24:53.69	60.30	14.94	
2025-01-18 16:24:53.89	60.26	14.94	
2025-01-18 16:24:54.10	60.21	14.95	
2025-01-18 16:24:54.30	60.16	14.96	
2025-01-18 16:24:54.50	60.11	14.96	
2025-01-18 16:24:54.71	60.07	14.97	
2025-01-18 16:24:54.91	60.02	14.98	
2025-01-18 16:24:55.11	59.97	14.98	
2025-01-18 16:24:55.32	59.92	14.99	
2025-01-18 16:24:55.52	59.88	15.00	
2025-01-18 16:24:55.72	59.83	15.01	
2025-01-18 16:24:55.92	59.78	15.01	
2025-01-18 16:24:56.13	59.73	15.02	
2025-01-18 16:24:56.33	59.69	15.03	
2025-01-18 16:24:56.53	59.64	15.03	
2025-01-18 16:24:56.74	59.59	15.04	
2025-01-18 16:24:56.94	59.54	15.05	
2025-01-18 16:24:57.14	59.49	15.05	
2025-01-18 16:24:57.35	59.44	15.06	
2025-01-18 16:24:57.55	59.40	15.07	
2025-01-18 16:24:57.75	59.35	15.07	
2025-01-18 16:24:57.96	59.30	15.08	
2025-01-18 16:24:58.16	59.25	15.09	
2025-01-18 16:24:58.36	59.21	15.09	
2025-01-18 16:24:58.56	59.16	15.10	
2025-01-18 16:24:58.77	59.11	15.11	
2025-01-18 16:24:58.97	59.06	15.11	
2025-01-18 16:24:59.17	59.01	15.12	
2025-01-18 16:24:59.38	58.97	15.13	
2025-01-18 16:24:59.58	58.92	15.13	
2025-01-18 16:24:59.78	58.87	15.14	
2025-01-18 16:24:59.99	58.82	15.15	
2025-01-18 16:25:00.19	58.77	15.15	
2025-01-18 16:25:00.39	58.73	15.16	
2025-01-18 16:25:00.60	58.68	15.17	
2025-01-18 16:25:00.80	58.63	15.17	
2025-01-18 16:25:01.00	58.58	15.18	
2025-01-18 16:25:01.21	58.53	15.18	
2025-01-18 16:25:01.41	58.48	15.19	
2025-01-18 16:25:01.61	58.44	15.20	
2025-01-18 16:25:01.81	58.39	15.20	
2025-01-18 16:25:02.02	58.34	15.21	
2025-01-18 16:25:02.22	58.29	15.22	
2025-01-18 16:25:02.42	58.24	15.22	
2025-01-18 16:25:02.63	58.19	15.23	
2025-01-18 16:25:02.83	58.14	15.23	
2025-01-18 16:25:03.03	58.10	15.24	
2025-01-18 16:25:03.24	58.05	15.25	
2025-01-18 16:25:03.44	58.00	15.25	
2025-01-18 16:25:03.64	57.95	15.26	
2025-01-18 16:25:03.85	57.90	15.27	
2025-01-18 16:25:04.05	57.85	15.27	
2025-01-18 16:25:04.25	57.81	15.28	
2025-01-18 16:25:04.45	57.76	15.28	
2025-01-18 16:25:04.66	57.71	15.29	
2025-01-18 16:25:04.86	57.66	15.30	
2025-01-18 16:25:05.06	57.61	15.30	
2025-01-18 16:25:05.27	57.56	15.31	
2025-01-18 16:25:05.47	57.51	15.31	
2025-01-18 16:25:05.67	57.46	15.32	
2025-01-18 16:25:05.88	57.41	15.33	
2025-01-18 16:25:06.08	57.37	15.33	
2025-01-18 16:25:06.28	57.32	15.34	
2025-01-18 16:25:06.49	57.27	15.34	
2025-01-18 16:25:06.69	57.22	15.35	
2025-01-18 16:25:06.89	57.17	15.36	
2025-01-18 16:25:07.09	57.12	15.36	
2025-01-18 16:25:07.30	57.07	15.37	
2025-01-18 16:25:07.50	57.02	15.37	
2025-01-18 16:25:07.70	56.98	15.38	
2025-01-18 16:25:07.91	56.93	15.39	
2025-01-18 16:25:08.11	56.88	15.39	
2025-01-18 16:25:08.32	56.83	15.40	
2025-01-18 16:25:08.52	56.78	15.40	
2025-01-18 16:25:08.72	56.73	15.41	
2025-01-18 16:25:08.93	56.68	15.41	
2025-01-18 16:25:09.13	56.63	15.42	
2025-01-18 16:25:09.33	56.58	15.43	
2025-01-18 16:25:09.54	56.53	15.43	
2025-01-18 16:25:09.74	56.48	15.44	
2025-01-18 16:25:09.94	56.43	15.44	
2025-01-18 16:25:10.15	56.38	15.45	
2025-01-18 16:25:10.35	56.33	15.45	
2025-01-18 16:25:10.55	56.29	15.46	
2025-01-18 16:25:10.75	56.24	15.46	
2025-01-18 16:25:10.96	56.19	15.47	
2025-01-18 16:25:11.16	56.14	15.48	
2025-01-18 16:25:11.36	56.09	15.48	
2025-01-18 16:25:11.57	56.04	15.49	
2025-01-18 16:25:11.77	55.99	15.49	
2025-01-18 16:25:11.97	55.94	15.50	
2025-01-18 16:25:12.18	55.89	15.50	
2025-01-18 16:25:12.38	55.84	15.51	
2025-01-18 16:25:12.58	55.79	15.51	
2025-01-18 16:25:12.79	55.74	15.52	
2025-01-18 16:25:12.99	55.69	15.52	
2025-01-18 16:25:13.19	55.64	15.53	
2025-01-18 16:25:13.39	55.60	15.53	
2025-01-18 16:25:13.60	55.54	15.54	
2025-01-18 16:25:13.80	55.50	15.54	
2025-01-18 16:25:14.00	55.45	15.55	
2025-01-18 16:25:14.21	55.40	15.56	
2025-01-18 16:25:14.41	55.35	15.56	
2025-01-18 16:25:14.61	55.30	15.57	
2025-01-18 16:25:14.82	55.25	15.57	
2025-01-18 16:25:15.02	55.20	15.58	
2025-01-18 16:25:15.22	55.15	15.58	
2025-01-18 16:25:15.43	55.10	15.59	
2025-01-18 16:25:15.63	55.05	15.59	
2025-01-18 16:25:15.83	55.00	15.60	
2025-01-18 16:25:16.03	54.95	15.60	
2025-01-18 16:25:16.24	54.90	15.61	
2025-01-18 16:25:16.44	54.85	15.61	
2025-01-18 16:25:16.64	54.80	15.62	
2025-01-18 16:25:16.85	54.75	15.62	
2025-01-18 16:25:17.05	54.70	15.63	
2025-01-18 16:25:17.25	54.65	15.63	
2025-01-18 16:25:17.46	54.60	15.64	
2025-01-18 16:25:17.66	54.55	15.64	
2025-01-18 16:25:17.86	54.50	15.65	
2025-01-18 16:25:18.07	54.45	15.65	
2025-01-18 16:25:18.27	54.40	15.66	
2025-01-18 16:25:18.47	54.35	15.66	
2025-01-18 16:25:18.67	54.30	15.66	
2025-01-18 16:25:18.88	54.25	15.67	
2025-01-18 16:25:19.08	54.20	15.67	
2025-01-18 16:25:19.28	54.15	15.68	
2025-01-18 16:25:19.49	54.10	15.68	
2025-01-18 16:25:19.69	54.05	15.69	
2025-01-18 16:25:19.89	54.00	15.69	
2025-01-18 16:25:20.10	53.95	15.70	
2025-01-18 16:25:20.30	53.90	15.70	
2025-01-18 16:25:20.50	53.85	15.71	
2025-01-18 16:25:20.71	53.80	15.71	
2025-01-18 16:25:20.91	53.75	15.72	
2025-01-18 16:25:21.11	53.70	15.72	
2025-01-18 16:25:21.32	53.65	15.73	
2025-01-18 16:25:21.52	53.60	15.73	
2025-01-18 16:25:21.72	53.55	15.73	
2025-01-18 16:25:21.92	53.50	15.74	
2025-01-18 16:25:22.13	53.45	15.74	
2025-01-18 16:25:22.33	53.40	15.75	
2025-01-18 16:25:22.53	53.35	15.75	
2025-01-18 16:25:22.74	53.30	15.76	
2025-01-18 16:25:22.94	53.25	15.76	
2025-01-18 16:25:23.14	53.20	15.76	
2025-01-18 16:25:23.35	53.15	15.77	
2025-01-18 16:25:23.55	53.10	15.77	
2025-01-18 16:25:23.75	53.05	15.78	
2025-01-18 16:25:23.96	52.99	15.78	
2025-01-18 16:25:24.16	52.94	15.79	
2025-01-18 16:25:24.36	52.89	15.79	
2025-01-18 16:25:24.56	52.85	15.79	
2025-01-18 16:25:24.77	52.79	15.80	
2025-01-18 16:25:24.97	52.74	15.80	
2025-01-18 16:25:25.17	52.69	15.81	
2025-01-18 16:25:25.38	52.64	15.81	
2025-01-18 16:25:25.58	52.59	15.82	
2025-01-18 16:25:25.78	52.54	15.82	
2025-01-18 16:25:25.99	52.49	15.82	
2025-01-18 16:25:26.19	52.44	15.83	
2025-01-18 16:25:26.39	52.39	15.83	
2025-01-18 16:25:26.60	52.34	15.84	
2025-01-18 16:25:26.80	52.29	15.84	
2025-01-18 16:25:27.00	52.24	15.84	
2025-01-18 16:25:27.20	52.19	15.85	
2025-01-18 16:25:27.41	52.14	15.85	
2025-01-18 16:25:27.61	52.09	15.86	
2025-01-18 16:25:27.81	52.04	15.86	
2025-01-18 16:25:28.02	51.98	15.86	
2025-01-18 16:25:28.22	51.93	15.87	
2025-01-18 16:25:28.42	51.88	15.87	
2025-01-18 16:25:28.63	51.83	15.87	
2025-01-18 16:25:28.83	51.78	15.88	
2025-01-18 16:25:29.03	51.73	15.88	
2025-01-18 16:25:29.24	51.68	15.89	
2025-01-18 16:25:29.44	51.63	15.89	
2025-01-18 16:25:29.64	51.58	15.89	
2025-01-18 16:25:29.84	51.53	15.90	
2025-01-18 16:25:30.05	51.48	15.90	
2025-01-18 16:25:30.25	51.43	15.90	
2025-01-18 16:25:30.45	51.38	15.91	
2025-01-18 16:25:30.66	51.32	15.91	
2025-01-18 16:25:30.86	51.27	15.91	
2025-01-18 16:25:31.06	51.22	15.92	
2025-01-18 16:25:31.27	51.17	15.92	
2025-01-18 16:25:31.47	51.12	15.92	
2025-01-18 16:25:31.67	51.07	15.93	
2025-01-18 16:25:31.88	51.02	15.93	
2025-01-18 16:25:32.08	50.97	15.94	
2025-01-18 16:25:32.28	50.92	15.94	
2025-01-18 16:25:32.48	50.87	15.94	
2025-01-18 16:25:32.69	50.81	15.95	
2025-01-18 16:25:32.89	50.76	15.95	
2025-01-18 16:25:33.09	50.71	15.95	
2025-01-18 16:25:33.30	50.66	15.96	
2025-01-18 16:25:33.50	50.61	15.96	
2025-01-18 16:25:33.70	50.56	15.96	
2025-01-18 16:25:33.91	50.51	15.97	
2025-01-18 16:25:34.11	50.46	15.97	
2025-01-18 16:25:34.31	50.41	15.97	
2025-01-18 16:25:34.52	50.35	15.97	
2025-01-18 16:25:34.72	50.30	15.98	
2025-01-18 16:25:34.92	50.25	15.98	
2025-01-18 16:25:35.12	50.20	15.98	
2025-01-18 16:25:35.33	50.15	15.99	
2025-01-18 16:25:35.53	50.10	15.99	
2025-01-18 16:25:35.73	50.05	15.99	
2025-01-18 16:25:35.94	50.00	16.00	
2025-01-18 16:25:36.14	49.95	16.00	
2025-01-18 16:25:36.34	49.90	16.00	
2025-01-18 16:25:36.55	49.84	16.00	
2025-01-18 16:25:36.75	49.79	16.01	
2025-01-18 16:25:36.95	49.74	16.01	
2025-01-18 16:25:37.16	49.69	16.01	
2025-01-18 16:25:37.36	49.64	16.02	
2025-01-18 16:25:37.56	49.59	16.02	
2025-01-18 16:25:37.77	49.54	16.02	
2025-01-18 16:25:37.97	49.48	16.02	
2025-01-18 16:25:38.17	49.43	16.03	
2025-01-18 16:25:38.37	49.38	16.03	
2025-01-18 16:25:38.58	49.33	16.03	
2025-01-18 16:25:38.78	49.28	16.04	
2025-01-18 16:25:38.98	49.23	16.04	
2025-01-18 16:25:39.19	49.18	16.04	
2025-01-18 16:25:39.39	49.13	16.04	
2025-01-18 16:25:39.59	49.08	16.05	
2025-01-18 16:25:39.80	49.02	16.05	
2025-01-18 16:25:40.00	48.97	16.05	
2025-01-18 16:25:40.20	48.92	16.05	
2025-01-18 16:25:40.41	48.87	16.06	
2025-01-18 16:25:40.61	48.82	16.06	
2025-01-18 16:25:40.81	48.77	16.06	
2025-01-18 16:25:41.01	48.72	16.06	
2025-01-18 16:25:41.22	48.66	16.07	
2025-01-18 16:25:41.42	48.61	16.07	
2025-01-18 16:25:41.62	48.56	16.07	
2025-01-18 16:25:41.83	48.51	16.07	
2025-01-18 16:25:42.03	48.46	16.08	
2025-01-18 16:25:42.23	48.41	16.08	
2025-01-18 16:25:42.44	48.35	16.08	
2025-01-18 16:25:42.64	48.30	16.08	
2025-01-18 16:25:42.84	48.25	16.09	
2025-01-18 16:25:43.05	48.20	16.09	
2025-01-18 16:25:43.25	48.15	16.09	
2025-01-18 16:25:43.45	48.10	16.09	
2025-01-18 16:25:43.65	48.05	16.09	
2025-01-18 16:25:43.86	47.99	16.10	
2025-01-18 16:25:44.06	47.94	16.10	
2025-01-18 16:25:44.26	47.89	16.10	
2025-01-18 16:25:44.47	47.84	16.10	
2025-01-18 16:25:44.67	47.79	16.10	
2025-01-18 16:25:44.87	47.74	16.11	
2025-01-18 16:25:45.08	47.68	16.11	
2025-01-18 16:25:45.28	47.63	16.11	
2025-01-18 16:25:45.48	47.58	16.11	
2025-01-18 16:25:45.69	47.53	16.11	
2025-01-18 16:25:45.89	47.48	16.12	
2025-01-18 16:25:46.09	47.43	16.12	
2025-01-18 16:25:46.29	47.38	16.12	
2025-01-18 16:25:46.50	47.32	16.12	
2025-01-18 16:25:46.70	47.27	16.12	
2025-01-18 16:25:46.90	47.22	16.13	
2025-01-18 16:25:47.11	47.17	16.13	
2025-01-18 16:25:47.31	47.12	16.13	
2025-01-18 16:25:47.51	47.07	16.13	
2025-01-18 16:25:47.72	47.01	16.13	
2025-01-18 16:25:47.92	46.96	16.13	
2025-01-18 16:25:48.12	46.91	16.14	
2025-01-18 16:25:48.33	46.86	16.14	
2025-01-18 16:25:48.53	46.81	16.14	
2025-01-18 16:25:48.73	46.76	16.14	
2025-01-18 16:25:48.93	46.70	16.14	
2025-01-18 16:25:49.14	46.65	16.14	
2025-01-18 16:25:49.34	46.60	16.15	
2025-01-18 16:25:49.54	46.55	16.15	
2025-01-18 16:25:49.75	46.50	16.15	
2025-01-18 16:25:49.95	46.45	16.15	
2025-01-18 16:25:50.15	46.39	16.15	
2025-01-18 16:25:50.36	46.34	16.15	
2025-01-18 16:25:50.56	46.29	16.16	
2025-01-18 16:25:50.76	46.24	16.16	
2025-01-18 16:25:50.97	46.19	16.16	
2025-01-18 16:25:51.17	46.13	16.16	
2025-01-18 16:25:51.37	46.08	16.16	
2025-01-18 16:25:51.57	46.03	16.16	
2025-01-18 16:25:51.78	45.98	16.16	
2025-01-18 16:25:51.98	45.93	16.16	
2025-01-18 16:25:52.18	45.88	16.17	
2025-01-18 16:25:52.39	45.82	16.17	
2025-01-18 16:25:52.59	45.77	16.17	
2025-01-18 16:25:52.79	45.72	16.17	
2025-01-18 16:25:53.00	45.67	16.17	
2025-01-18 16:25:53.20	45.62	16.17	
2025-01-18 16:25:53.40	45.57	16.17	
2025-01-18 16:25:53.61	45.51	16.17	
2025-01-18 16:25:53.81	45.46	16.17	
2025-01-18 16:25:54.01	45.41	16.18	
2025-01-18 16:25:54.21	45.36	16.18	
2025-01-18 16:25:54.42	45.31	16.18	
2025-01-18 16:25:54.62	45.25	16.18	
2025-01-18 16:25:54.82	45.20	16.18	
2025-01-18 16:25:55.03	45.15	16.18	
2025-01-18 16:25:55.23	45.10	16.18	
2025-01-18 16:25:55.43	45.05	16.18	
2025-01-18 16:25:55.64	44.99	16.18	
2025-01-18 16:25:55.84	44.94	16.18	
2025-01-18 16:25:56.04	44.89	16.18	
2025-01-18 16:25:56.25	44.84	16.19	
2025-01-18 16:25:56.45	44.79	16.19	
2025-01-18 16:25:56.65	44.74	16.19	
2025-01-18 16:25:56.86	44.68	16.19	
2025-01-18 16:25:57.06	44.63	16.19	
2025-01-18 16:25:57.26	44.58	16.19	
2025-01-18 16:25:57.46	44.53	16.19	
2025-01-18 16:25:57.67	44.48	16.19	
2025-01-18 16:25:57.87	44.42	16.19	
2025-01-18 16:25:58.07	44.37	16.19	
2025-01-18 16:25:58.28	44.32	16.19	
2025-01-18 16:25:58.48	44.27	16.19	
2025-01-18 16:25:58.68	44.22	16.19	
2025-01-18 16:25:58.89	44.16	16.19	
2025-01-18 16:25:59.09	44.11	16.19	
2025-01-18 16:25:59.29	44.06	16.19	
2025-01-18 16:25:59.50	44.01	16.20	
2025-01-18 16:25:59.70	43.96	16.20	
2025-01-18 16:25:59.90	43.91	16.20	
2025-01-18 16:26:00.10	43.86	16.20	
2025-01-18 16:26:00.31	43.80	16.20	
2025-01-18 16:26:00.51	43.75	16.20	
2025-01-18 16:26:00.71	43.70	16.20	
2025-01-18 16:26:00.92	43.65	16.20	
2025-01-18 16:26:01.12	43.59	16.20	
2025-01-18 16:26:01.32	43.54	16.20	
2025-01-18 16:26:01.53	43.49	16.20	
2025-01-18 16:26:01.73	43.44	16.20	
2025-01-18 16:26:01.93	43.39	16.20	
2025-01-18 16:26:02.14	43.33	16.20	
2025-01-18 16:26:02.34	43.28	16.20	
2025-01-18 16:26:02.54	43.23	16.20	
2025-01-18 16:26:02.74	43.18	16.20	
2025-01-18 16:26:02.95	43.13	16.20	
2025-01-18 16:26:03.15	43.08	16.20	
2025-01-18 16:26:03.35	43.02	16.20	
2025-01-18 16:26:03.56	42.97	16.20	
2025-01-18 16:26:03.76	42.92	16.20	
2025-01-18 16:26:03.96	42.87	16.20	
2025-01-18 16:26:04.17	42.82	16.20	
2025-01-18 16:26:04.37	42.76	16.20	
2025-01-18 16:26:04.57	42.71	16.20	
2025-01-18 16:26:04.78	42.66	16.20	
2025-01-18 16:26:04.98	42.61	16.20	
2025-01-18 16:26:05.18	42.56	16.20	
2025-01-18 16:26:05.38	42.51	16.20	
2025-01-18 16:26:05.59	42.45	16.20	
2025-01-18 16:26:05.79	42.40	16.20	
2025-01-18 16:26:05.99	42.35	16.20	
2025-01-18 16:26:06.20	42.30	16.20	
2025-01-18 16:26:06.40	42.25	16.20	
2025-01-18 16:26:06.60	42.19	16.20	
2025-01-18 16:26:06.81	42.14	16.20	
2025-01-18 16:26:07.01	42.09	16.20	
2025-01-18 16:26:07.21	42.04	16.19	
2025-01-18 16:26:07.42	41.98	16.19	
2025-01-18 16:26:07.62	41.93	16.19	
2025-01-18 16:26:07.82	41.88	16.19	
2025-01-18 16:26:08.02	41.83	16.19	
2025-01-18 16:26:08.23	41.78	16.19	
2025-01-18 16:26:08.43	41.73	16.19	
2025-01-18 16:26:08.63	41.68	16.19	
2025-01-18 16:26:08.84	41.62	16.19	
2025-01-18 16:26:09.04	41.57	16.19	
2025-01-18 16:26:09.24	41.52	16.19	
2025-01-18 16:26:09.45	41.47	16.19	
2025-01-18 16:26:09.65	41.42	16.19	
2025-01-18 16:26:09.85	41.36	16.19	
2025-01-18 16:26:10.06	41.31	16.19	
2025-01-18 16:26:10.26	41.26	16.19	
2025-01-18 16:26:10.46	41.21	16.18	
2025-01-18 16:26:10.66	41.16	16.18	
2025-01-18 16:26:10.87	41.10	16.18	
2025-01-18 16:26:11.07	41.05	16.18	
2025-01-18 16:26:11.27	41.00	16.18	
2025-01-18 16:26:11.48	40.95	16.18	
2025-01-18 16:26:11.68	40.90	16.18	
2025-01-18 16:26:11.88	40.85	16.18	
2025-01-18 16:26:12.09	40.79	16.18	
2025-01-18 16:26:12.29	40.74	16.18	
2025-01-18 16:26:12.49	40.69	16.18	
2025-01-18 16:26:12.70	40.64	16.17	
2025-01-18 16:26:12.90	40.59	16.17	
2025-01-18 16:26:13.10	40.54	16.17	
2025-01-18 16:26:13.30	40.48	16.17	
2025-01-18 16:26:13.51	40.43	16.17	
2025-01-18 16:26:13.71	40.38	16.17	
2025-01-18 16:26:13.91	40.33	16.17	
2025-01-18 16:26:14.12	40.28	16.17	
2025-01-18 16:26:14.32	40.22	16.17	
2025-01-18 16:26:14.52	40.17	16.16	
2025-01-18 16:26:14.73	40.12	16.16	
2025-01-18 16:26:14.93	40.07	16.16	
2025-01-18 16:26:15.13	40.02	16.16	
2025-01-18 16:26:15.34	39.96	16.16	
2025-01-18 16:26:15.54	39.91	16.16	
2025-01-18 16:26:15.74	39.86	16.16	
2025-01-18 16:26:15.95	39.81	16.15	
2025-01-18 16:26:16.15	39.76	16.15	
2025-01-18 16:26:16.35	39.71	16.15	
2025-01-18 16:26:16.55	39.66	16.15	
2025-01-18 16:26:16.76	39.60	16.15	
2025-01-18 16:26:16.96	39.55	16.15	
2025-01-18 16:26:17.16	39.50	16.15	
2025-01-18 16:26:17.37	39.45	16.14	
2025-01-18 16:26:17.57	39.40	16.14	
2025-01-18 16:26:17.77	39.35	16.14	
2025-01-18 16:26:17.98	39.29	16.14	
2025-01-18 16:26:18.18	39.24	16.14	
2025-01-18 16:26:18.38	39.19	16.14	
2025-01-18 16:26:18.59	39.14	16.13	
2025-01-18 16:26:18.79	39.09	16.13	
2025-01-18 16:26:18.99	39.04	16.13	
2025-01-18 16:26:19.19	38.98	16.13	
2025-01-18 16:26:19.40	38.93	16.13	
2025-01-18 16:26:19.60	38.88	16.13	
2025-01-18 16:26:19.80	38.83	16.12	
2025-01-18 16:26:20.01	38.78	16.12	
2025-01-18 16:26:20.21	38.73	16.12	
2025-01-18 16:26:20.41	38.67	16.12	
2025-01-18 16:26:20.62	38.62	16.12	
2025-01-18 16:26:20.82	38.57	16.11	
2025-01-18 16:26:21.02	38.52	16.11	
2025-01-18 16:26:21.23	38.47	16.11	
2025-01-18 16:26:21.43	38.42	16.11	
2025-01-18 16:26:21.63	38.36	16.11	
2025-01-18 16:26:21.83	38.31	16.10	
2025-01-18 16:26:22.04	38.26	16.10	
2025-01-18 16:26:22.24	38.21	16.10	
2025-01-18 16:26:22.44	38.16	16.10	
2025-01-18 16:26:22.65	38.11	16.10	
2025-01-18 16:26:22.85	38.06	16.09	
2025-01-18 16:26:23.05	38.00	16.09	
2025-01-18 16:26:23.26	37.95	16.09	
2025-01-18 16:26:23.46	37.90	16.09	
2025-01-18 16:26:23.66	37.85	16.08	
2025-01-18 16:26:23.87	37.80	16.08	
2025-01-18 16:26:24.07	37.75	16.08	
2025-01-18 16:26:24.27	37.70	16.08	
2025-01-18 16:26:24.47	37.65	16.08	
2025-01-18 16:26:24.68	37.59	16.07	
2025-01-18 16:26:24.88	37.54	16.07	
2025-01-18 16:26:25.08	37.49	16.07	
2025-01-18 16:26:25.29	37.44	16.07	
2025-01-18 16:26:25.49	37.39	16.06	
2025-01-18 16:26:25.69	37.34	16.06	
2025-01-18 16:26:25.90	37.28	16.06	
2025-01-18 16:26:26.10	37.23	16.06	
2025-01-18 16:26:26.30	37.18	16.05	
2025-01-18 16:26:26.51	37.13	16.05	
2025-01-18 16:26:26.71	37.08	16.05	
2025-01-18 16:26:26.91	37.03	16.05	
2025-01-18 16:26:27.11	36.98	16.04	
2025-01-18 16:26:27.32	36.92	16.04	
2025-01-18 16:26:27.52	36.87	16.04	
2025-01-18 16:26:27.72	36.82	16.04	
2025-01-18 16:26:27.93	36.77	16.03	
2025-01-18 16:26:28.13	36.72	16.03	
2025-01-18 16:26:28.33	36.67	16.03	
2025-01-18 16:26:28.54	36.62	16.02	
2025-01-18 16:26:28.74	36.57	16.02	
2025-01-18 16:26:28.94	36.52	16.02	
2025-01-18 16:26:29.15	36.46	16.02	
2025-01-18 16:26:29.35	36.41	16.01	
2025-01-18 16:26:29.55	36.36	16.01	
2025-01-18 16:26:29.75	36.31	16.01	
2025-01-18 16:26:29.96	36.26	16.00	
2025-01-18 16:26:30.16	36.21	16.00	
2025-01-18 16:26:30.36	36.16	16.00	
2025-01-18 16:26:30.57	36.11	16.00	
2025-01-18 16:26:30.77	36.05	15.99	
2025-01-18 16:26:30.97	36.00	15.99	
2025-01-18 16:26:31.18	35.95	15.99	
2025-01-18 16:26:31.38	35.90	15.98	
2025-01-18 16:26:31.58	35.85	15.98	
2025-01-18 16:26:31.79	35.80	15.98	
2025-01-18 16:26:31.99	35.75	15.97	
2025-01-18 16:26:32.19	35.70	15.97	
2025-01-18 16:26:32.39	35.65	15.97	
2025-01-18 16:26:32.60	35.59	15.96	
2025-01-18 16:26:32.80	35.54	15.96	
2025-01-18 16:26:33.00	35.49	15.96	
2025-01-18 16:26:33.21	35.44	15.95	
2025-01-18 16:26:33.41	35.39	15.95	
2025-01-18 16:26:33.61	35.34	15.95	
2025-01-18 16:26:33.82	35.29	15.94	
2025-01-18 16:26:34.02	35.24	15.94	
2025-01-18 16:26:34.22	35.19	15.94	
2025-01-18 16:26:34.43	35.14	15.93	
2025-01-18 16:26:34.63	35.09	15.93	
2025-01-18 16:26:34.83	35.04	15.93	
2025-01-18 16:26:35.03	34.99	15.92	
2025-01-18 16:26:35.24	34.93	15.92	
2025-01-18 16:26:35.44	34.88	15.92	
2025-01-18 16:26:35.64	34.83	15.91	
2025-01-18 16:26:35.85	34.78	15.91	
2025-01-18 16:26:36.05	34.73	15.91	
2025-01-18 16:26:36.25	34.68	15.90	
2025-01-18 16:26:36.46	34.63	15.90	
2025-01-18 16:26:36.66	34.58	15.90	
2025-01-18 16:26:36.86	34.53	15.89	
2025-01-18 16:26:37.07	34.48	15.89	
2025-01-18 16:26:37.27	34.43	15.88	
2025-01-18 16:26:37.47	34.38	15.88	
2025-01-18 16:26:37.68	34.32	15.88	
2025-01-18 16:26:37.88	34.27	15.87	
2025-01-18 16:26:38.08	34.22	15.87	
2025-01-18 16:26:38.28	34.17	15.87	
2025-01-18 16:26:38.49	34.12	15.86	
2025-01-18 16:26:38.69	34.07	15.86	
2025-01-18 16:26:38.89	34.02	15.85	
2025-01-18 16:26:39.10	33.97	15.85	
2025-01-18 16:26:39.30	33.92	15.85	
2025-01-18 16:26:39.50	33.87	15.84	
2025-01-18 16:26:39.71	33.82	15.84	
2025-01-18 16:26:39.91	33.77	15.84	
2025-01-18 16:26:40.11	33.72	15.83	
2025-01-18 16:26:40.32	33.67	15.83	
2025-01-18 16:26:40.52	33.62	15.82	
2025-01-18 16:26:40.72	33.57	15.82	
2025-01-18 16:26:40.92	33.52	15.82	
2025-01-18 16:26:41.13	33.46	15.81	
2025-01-18 16:26:41.33	33.41	15.81	
2025-01-18 16:26:41.53	33.37	15.80	
2025-01-18 16:26:41.74	33.31	15.80	
2025-01-18 16:26:41.94	33.26	15.79	
2025-01-18 16:26:42.14	33.21	15.79	
2025-01-18 16:26:42.35	33.16	15.79	
2025-01-18 16:26:42.55	33.11	15.78	
2025-01-18 16:26:42.75	33.06	15.78	
2025-01-18 16:26:42.96	33.01	15.77	
2025-01-18 16:26:43.16	32.96	15.77	
2025-01-18 16:26:43.36	32.91	15.76	
2025-01-18 16:26:43.56	32.86	15.76	
2025-01-18 16:26:43.77	32.81	15.76	
2025-01-18 16:26:43.97	32.76	15.75	
2025-01-18 16:26:44.17	32.71	15.75	
2025-01-18 16:26:44.38	32.66	15.74	
2025-01-18 16:26:44.58	32.61	15.74	
2025-01-18 16:26:44.78	32.56	15.73	
2025-01-18 16:26:44.99	32.51	15.73	
2025-01-18 16:26:45.19	32.46	15.72	
2025-01-18 16:26:45.39	32.41	15.72	
2025-01-18 16:26:45.60	32.36	15.72	
2025-01-18 16:26:45.80	32.31	15.71	
2025-01-18 16:26:46.00	32.26	15.71	
2025-01-18 16:26:46.20	32.21	15.70	
2025-01-18 16:26:46.41	32.16	15.70	
2025-01-18 16:26:46.61	32.11	15.69	
2025-01-18 16:26:46.81	32.06	15.69	
2025-01-18 16:26:47.02	32.01	15.68	
2025-01-18 16:26:47.22	31.96	15.68	
2025-01-18 16:26:47.42	31.91	15.67	
2025-01-18 16:26:47.63	31.86	15.67	
2025-01-18 16:26:47.83	31.81	15.66	
2025-01-18 16:26:48.03	31.76	15.66	
2025-01-18 16:26:48.24	31.71	15.65	
2025-01-18 16:26:48.44	31.66	15.65	
2025-01-18 16:26:48.64	31.61	15.65	
2025-01-18 16:26:48.84	31.56	15.64	
2025-01-18 16:26:49.05	31.51	15.64	
2025-01-18 16:26:49.25	31.46	15.63	
2025-01-18 16:26:49.45	31.41	15.63	
2025-01-18 16:26:49.66	31.36	15.62	
2025-01-18 16:26:49.86	31.31	15.62	
2025-01-18 16:26:50.06	31.26	15.61	
2025-01-18 16:26:50.27	31.21	15.61	
2025-01-18 16:26:50.47	31.16	15.60	
2025-01-18 16:26:50.67	31.11	15.60	
2025-01-18 16:26:50.88	31.06	15.59	
2025-01-18 16:26:51.08	31.01	15.59	
2025-01-18 16:26:51.28	30.96	15.58	
2025-01-18 16:26:51.48	30.92	15.58	
2025-01-18 16:26:51.69	30.86	15.57	
2025-01-18 16:26:51.89	30.82	15.57	
2025-01-18 16:26:52.09	30.77	15.56	
2025-01-18 16:26:52.30	30.72	15.56	
2025-01-18 16:26:52.50	30.67	15.55	
2025-01-18 16:26:52.70	30.62	15.54	
2025-01-18 16:26:52.91	30.57	15.54	
2025-01-18 16:26:53.11	30.52	15.53	
2025-01-18 16:26:53.31	30.47	15.53	
2025-01-18 16:26:53.52	30.42	15.52	
2025-01-18 16:26:53.72	30.37	15.52	
2025-01-18 16:26:53.92	30.32	15.51	
2025-01-18 16:26:54.13	30.27	15.51	
2025-01-18 16:26:54.33	30.22	15.50	
2025-01-18 16:26:54.53	30.17	15.50	
2025-01-18 16:26:54.73	30.12	15.49	
2025-01-18 16:26:54.94	30.07	15.49	
2025-01-18 16:26:55.14	30.02	15.48	
2025-01-18 16:26:55.34	29.98	15.48	
2025-01-18 16:26:55.55	29.93	15.47	
2025-01-18 16:26:55.75	29.88	15.46	
2025-01-18 16:26:55.95	29.83	15.46	
2025-01-18 16:26:56.16	29.78	15.45	
2025-01-18 16:26:56.36	29.73	15.45	
2025-01-18 16:26:56.56	29.68	15.44	
2025-01-18 16:26:56.77	29.63	15.44	
2025-01-18 16:26:56.97	29.58	15.43	
2025-01-18 16:26:57.17	29.53	15.43	
2025-01-18 16:26:57.37	29.49	15.42	
2025-01-18 16:26:57.58	29.43	15.41	
2025-01-18 16:26:57.78	29.39	15.41	
2025-01-18 16:26:57.98	29.34	15.40	
2025-01-18 16:26:58.19	29.29	15.40	
2025-01-18 16:26:58.39	29.24	15.39	
2025-01-18 16:26:58.59	29.19	15.39	
2025-01-18 16:26:58.80	29.14	15.38	
2025-01-18 16:26:59.00	29.09	15.37	
2025-01-18 16:26:59.20	29.04	15.37	
2025-01-18 16:26:59.41	28.99	15.36	
2025-01-18 16:26:59.61	28.95	15.36	
2025-01-18 16:26:59.81	28.90	15.35	
2025-01-18 16:27:00.01	28.85	15.34	
2025-01-18 16:27:00.22	28.80	15.34	
2025-01-18 16:27:00.42	28.75	15.33	
2025-01-18 16:27:00.62	28.70	15.33	
2025-01-18 16:27:00.83	28.65	15.32	
2025-01-18 16:27:01.03	28.61	15.31	
2025-01-18 16:27:01.23	28.56	15.31	
2025-01-18 16:27:01.44	28.51	15.30	
2025-01-18 16:27:01.64	28.46	15.30	
2025-01-18 16:27:01.84	28.41	15.29	
2025-01-18 16:27:02.05	28.36	15.28	
2025-01-18 16:27:02.25	28.31	15.28	
2025-01-18 16:27:02.45	28.27	15.27	
2025-01-18 16:27:02.65	28.22	15.27	
2025-01-18 16:27:02.86	28.17	15.26	
2025-01-18 16:27:03.06	28.12	15.25	
2025-01-18 16:27:03.26	28.07	15.25	
2025-01-18 16:27:03.47	28.02	15.24	
2025-01-18 16:27:03.67	27.97	15.23	
2025-01-18 16:27:03.87	27.93	15.23	
2025-01-18 16:27:04.08	27.88	15.22	
2025-01-18 16:27:04.28	27.83	15.22	
2025-01-18 16:27:04.48	27.78	15.21	
2025-01-18 16:27:04.69	27.73	15.20	
2025-01-18 16:27:04.89	27.68	15.20	
2025-01-18 16:27:05.09	27.64	15.19	
2025-01-18 16:27:05.29	27.59	15.18	
2025-01-18 16:27:05.50	27.54	15.18	
2025-01-18 16:27:05.70	27.49	15.17	
2025-01-18 16:27:05.90	27.45	15.17	
2025-01-18 16:27:06.11	27.40	15.16	
2025-01-18 16:27:06.31	27.35	15.15	
2025-01-18 16:27:06.51	27.30	15.15	
2025-01-18 16:27:06.72	27.25	15.14	
2025-01-18 16:27:06.92	27.20	15.13	
2025-01-18 16:27:07.12	27.16	15.13	
2025-01-18 16:27:07.33	27.11	15.12	
2025-01-18 16:27:07.53	27.06	15.11	
2025-01-18 16:27:07.73	27.01	15.11	
2025-01-18 16:27:07.93	26.97	15.10	
2025-01-18 16:27:08.14	26.92	15.09	
2025-01-18 16:27:08.34	26.87	15.09	
