passes_logs/2025/01/18/SPB_Silybum_02/SPB_Silybum_02__20250118_021655_AQUA_rec.log

#Pass ID: 20250118_021655_AQUA
#Satellite: AQUA
#Configuration: AQUA
#Start time: 2025-01-18 02:16:55

#Version: 2.0.20230423
#Station: SPB_Silybum_02
#Location: 30.233357 lon 59.946436 lat
#TLE: 1 27424U 02022A   25017.13491740  .00001953  00000+0  41075-3 0  9996
#TLE: 2 27424  98.3596 333.8179 0001829 109.1235 340.1836 14.60691632207930

#Time	Az	El	Level	Level2	SNR	BER	Gain	Gain2
2025-01-18 02:16:57.27	13.04	4.16	
2025-01-18 02:16:57.47	13.04	4.17	
2025-01-18 02:16:57.67	13.03	4.19	
2025-01-18 02:16:57.88	13.02	4.20	
2025-01-18 02:16:58.08	13.01	4.22	
2025-01-18 02:16:58.28	13.00	4.23	
2025-01-18 02:16:58.49	12.99	4.24	
2025-01-18 02:16:58.69	12.98	4.26	
2025-01-18 02:16:58.89	12.97	4.27	
2025-01-18 02:16:59.10	12.96	4.29	
2025-01-18 02:16:59.30	12.95	4.30	
2025-01-18 02:16:59.50	12.94	4.31	
2025-01-18 02:16:59.70	12.93	4.33	
2025-01-18 02:16:59.91	12.92	4.34	
2025-01-18 02:17:00.11	12.91	4.36	
2025-01-18 02:17:00.31	12.90	4.37	
2025-01-18 02:17:00.52	12.89	4.39	
2025-01-18 02:17:00.72	12.88	4.40	
2025-01-18 02:17:00.92	12.87	4.41	
2025-01-18 02:17:01.13	12.86	4.43	
2025-01-18 02:17:01.33	12.85	4.44	
2025-01-18 02:17:01.53	12.84	4.46	
2025-01-18 02:17:01.73	12.83	4.47	
2025-01-18 02:17:01.94	12.82	4.48	
2025-01-18 02:17:02.14	12.82	4.50	
2025-01-18 02:17:02.34	12.81	4.51	
2025-01-18 02:17:02.55	12.80	4.53	
2025-01-18 02:17:02.75	12.79	4.54	
2025-01-18 02:17:02.95	12.78	4.56	
2025-01-18 02:17:03.16	12.77	4.57	
2025-01-18 02:17:03.36	12.76	4.58	
2025-01-18 02:17:03.56	12.75	4.60	
2025-01-18 02:17:03.76	12.74	4.61	
2025-01-18 02:17:03.97	12.73	4.63	
2025-01-18 02:17:04.17	12.72	4.64	
2025-01-18 02:17:04.37	12.71	4.65	
2025-01-18 02:17:04.58	12.70	4.67	
2025-01-18 02:17:04.78	12.69	4.68	
2025-01-18 02:17:04.98	12.68	4.70	
2025-01-18 02:17:05.19	12.67	4.71	
2025-01-18 02:17:05.39	12.66	4.73	
2025-01-18 02:17:05.59	12.65	4.74	
2025-01-18 02:17:05.79	12.64	4.75	
2025-01-18 02:17:06.00	12.63	4.77	
2025-01-18 02:17:06.20	12.62	4.78	
2025-01-18 02:17:06.40	12.61	4.80	
2025-01-18 02:17:06.61	12.60	4.81	
2025-01-18 02:17:06.81	12.59	4.83	
2025-01-18 02:17:07.01	12.58	4.84	
2025-01-18 02:17:07.22	12.57	4.86	
2025-01-18 02:17:07.42	12.56	4.87	
2025-01-18 02:17:07.62	12.55	4.88	
2025-01-18 02:17:07.82	12.54	4.90	
2025-01-18 02:17:08.03	12.53	4.91	
2025-01-18 02:17:08.23	12.52	4.93	
2025-01-18 02:17:08.43	12.51	4.94	
2025-01-18 02:17:08.64	12.50	4.96	
2025-01-18 02:17:08.84	12.49	4.97	
2025-01-18 02:17:09.04	12.48	4.98	
2025-01-18 02:17:09.24	12.47	5.00	
2025-01-18 02:17:09.45	12.46	5.01	
2025-01-18 02:17:09.65	12.45	5.03	
2025-01-18 02:17:09.85	12.44	5.04	
2025-01-18 02:17:10.06	12.43	5.06	
2025-01-18 02:17:10.26	12.42	5.07	
2025-01-18 02:17:10.46	12.41	5.09	
2025-01-18 02:17:10.67	12.40	5.10	
2025-01-18 02:17:10.87	12.39	5.12	
2025-01-18 02:17:11.07	12.38	5.13	
2025-01-18 02:17:11.27	12.37	5.14	
2025-01-18 02:17:11.48	12.36	5.16	
2025-01-18 02:17:11.68	12.35	5.17	
2025-01-18 02:17:11.88	12.34	5.19	
2025-01-18 02:17:12.09	12.33	5.20	
2025-01-18 02:17:12.29	12.32	5.22	
2025-01-18 02:17:12.49	12.31	5.23	
2025-01-18 02:17:12.70	12.29	5.25	
2025-01-18 02:17:12.90	12.28	5.26	
2025-01-18 02:17:13.10	12.27	5.28	
2025-01-18 02:17:13.30	12.26	5.29	
2025-01-18 02:17:13.51	12.25	5.30	
2025-01-18 02:17:13.71	12.24	5.32	
2025-01-18 02:17:13.91	12.23	5.33	
2025-01-18 02:17:14.12	12.22	5.35	
2025-01-18 02:17:14.32	12.21	5.36	
2025-01-18 02:17:14.52	12.20	5.38	
2025-01-18 02:17:14.73	12.19	5.39	
2025-01-18 02:17:14.93	12.18	5.41	
2025-01-18 02:17:15.13	12.17	5.42	
2025-01-18 02:17:15.33	12.16	5.44	
2025-01-18 02:17:15.54	12.15	5.45	
2025-01-18 02:17:15.74	12.14	5.47	
2025-01-18 02:17:15.94	12.13	5.48	
2025-01-18 02:17:16.15	12.12	5.50	
2025-01-18 02:17:16.35	12.11	5.51	
2025-01-18 02:17:16.55	12.10	5.52	
2025-01-18 02:17:16.76	12.09	5.54	
2025-01-18 02:17:16.96	12.08	5.55	
2025-01-18 02:17:17.16	12.06	5.57	
2025-01-18 02:17:17.36	12.05	5.58	
2025-01-18 02:17:17.57	12.04	5.60	
2025-01-18 02:17:17.77	12.03	5.61	
2025-01-18 02:17:17.97	12.02	5.63	
2025-01-18 02:17:18.18	12.01	5.64	
2025-01-18 02:17:18.38	12.00	5.66	
2025-01-18 02:17:18.58	11.99	5.67	
2025-01-18 02:17:18.78	11.98	5.69	
2025-01-18 02:17:18.99	11.97	5.70	
2025-01-18 02:17:19.19	11.96	5.72	
2025-01-18 02:17:19.39	11.95	5.73	
2025-01-18 02:17:19.60	11.94	5.75	
2025-01-18 02:17:19.80	11.93	5.76	
2025-01-18 02:17:20.00	11.92	5.78	
2025-01-18 02:17:20.21	11.90	5.79	
2025-01-18 02:17:20.41	11.89	5.81	
2025-01-18 02:17:20.61	11.88	5.82	
2025-01-18 02:17:20.81	11.87	5.84	
2025-01-18 02:17:21.02	11.86	5.85	
2025-01-18 02:17:21.22	11.85	5.87	
2025-01-18 02:17:21.42	11.84	5.88	
2025-01-18 02:17:21.63	11.83	5.90	
2025-01-18 02:17:21.83	11.82	5.91	
2025-01-18 02:17:22.03	11.81	5.93	
2025-01-18 02:17:22.24	11.80	5.94	
2025-01-18 02:17:22.44	11.79	5.96	
2025-01-18 02:17:22.64	11.77	5.97	
2025-01-18 02:17:22.84	11.76	5.99	
2025-01-18 02:17:23.05	11.75	6.00	
2025-01-18 02:17:23.25	11.74	6.02	
2025-01-18 02:17:23.45	11.73	6.03	
2025-01-18 02:17:23.66	11.72	6.05	
2025-01-18 02:17:23.86	11.71	6.06	
2025-01-18 02:17:24.06	11.70	6.08	
2025-01-18 02:17:24.27	11.69	6.09	
2025-01-18 02:17:24.47	11.68	6.11	
2025-01-18 02:17:24.67	11.66	6.12	
2025-01-18 02:17:24.87	11.65	6.14	
2025-01-18 02:17:25.08	11.64	6.15	
2025-01-18 02:17:25.28	11.63	6.17	
2025-01-18 02:17:25.48	11.62	6.18	
2025-01-18 02:17:25.69	11.61	6.20	
2025-01-18 02:17:25.89	11.60	6.21	
2025-01-18 02:17:26.09	11.59	6.23	
2025-01-18 02:17:26.30	11.58	6.24	
2025-01-18 02:17:26.50	11.56	6.26	
2025-01-18 02:17:26.70	11.55	6.27	
2025-01-18 02:17:26.90	11.54	6.29	
2025-01-18 02:17:27.11	11.53	6.30	
2025-01-18 02:17:27.31	11.52	6.32	
2025-01-18 02:17:27.51	11.51	6.33	
2025-01-18 02:17:27.72	11.50	6.35	
2025-01-18 02:17:27.92	11.49	6.36	
2025-01-18 02:17:28.12	11.47	6.38	
2025-01-18 02:17:28.32	11.46	6.39	
2025-01-18 02:17:28.53	11.45	6.41	
2025-01-18 02:17:28.73	11.44	6.42	
2025-01-18 02:17:28.93	11.43	6.44	
2025-01-18 02:17:29.14	11.42	6.46	
2025-01-18 02:17:29.34	11.41	6.47	
2025-01-18 02:17:29.54	11.40	6.49	
2025-01-18 02:17:29.75	11.38	6.50	
2025-01-18 02:17:29.95	11.37	6.52	
2025-01-18 02:17:30.15	11.36	6.53	
2025-01-18 02:17:30.35	11.35	6.55	
2025-01-18 02:17:30.56	11.34	6.56	
2025-01-18 02:17:30.76	11.33	6.58	
2025-01-18 02:17:30.96	11.32	6.59	
2025-01-18 02:17:31.17	11.30	6.61	
2025-01-18 02:17:31.37	11.29	6.62	
2025-01-18 02:17:31.57	11.28	6.64	
2025-01-18 02:17:31.78	11.27	6.65	
2025-01-18 02:17:31.98	11.26	6.67	
2025-01-18 02:17:32.18	11.25	6.68	
2025-01-18 02:17:32.38	11.23	6.70	
2025-01-18 02:17:32.59	11.22	6.72	
2025-01-18 02:17:32.79	11.21	6.73	
2025-01-18 02:17:32.99	11.20	6.75	
2025-01-18 02:17:33.20	11.19	6.76	
2025-01-18 02:17:33.40	11.18	6.78	
2025-01-18 02:17:33.60	11.16	6.79	
2025-01-18 02:17:33.81	11.15	6.81	
2025-01-18 02:17:34.01	11.14	6.82	
2025-01-18 02:17:34.21	11.13	6.84	
2025-01-18 02:17:34.41	11.12	6.85	
2025-01-18 02:17:34.62	11.11	6.87	
2025-01-18 02:17:34.82	11.09	6.89	
2025-01-18 02:17:35.02	11.08	6.90	
2025-01-18 02:17:35.23	11.07	6.92	
2025-01-18 02:17:35.43	11.06	6.93	
2025-01-18 02:17:35.63	11.05	6.95	
2025-01-18 02:17:35.84	11.03	6.96	
2025-01-18 02:17:36.04	11.02	6.98	
2025-01-18 02:17:36.24	11.01	6.99	
2025-01-18 02:17:36.44	11.00	7.01	
2025-01-18 02:17:36.65	10.99	7.03	
2025-01-18 02:17:36.85	10.98	7.04	
2025-01-18 02:17:37.05	10.96	7.06	
2025-01-18 02:17:37.26	10.95	7.07	
2025-01-18 02:17:37.46	10.94	7.09	
2025-01-18 02:17:37.66	10.93	7.10	
2025-01-18 02:17:37.86	10.92	7.12	
2025-01-18 02:17:38.07	10.90	7.14	
2025-01-18 02:17:38.27	10.89	7.15	
2025-01-18 02:17:38.47	10.88	7.17	
2025-01-18 02:17:38.68	10.87	7.18	
2025-01-18 02:17:38.88	10.86	7.20	
2025-01-18 02:17:39.08	10.84	7.21	
2025-01-18 02:17:39.29	10.83	7.23	
2025-01-18 02:17:39.49	10.82	7.25	
2025-01-18 02:17:39.69	10.81	7.26	
2025-01-18 02:17:39.89	10.80	7.28	
2025-01-18 02:17:40.10	10.78	7.29	
2025-01-18 02:17:40.30	10.77	7.31	
2025-01-18 02:17:40.50	10.76	7.32	
2025-01-18 02:17:40.71	10.75	7.34	
2025-01-18 02:17:40.91	10.73	7.36	
2025-01-18 02:17:41.11	10.72	7.37	
2025-01-18 02:17:41.32	10.71	7.39	
2025-01-18 02:17:41.52	10.70	7.40	
2025-01-18 02:17:41.72	10.69	7.42	
2025-01-18 02:17:41.92	10.67	7.43	
2025-01-18 02:17:42.13	10.66	7.45	
2025-01-18 02:17:42.33	10.65	7.47	
2025-01-18 02:17:42.53	10.64	7.48	
2025-01-18 02:17:42.74	10.62	7.50	
2025-01-18 02:17:42.94	10.61	7.51	
2025-01-18 02:17:43.14	10.60	7.53	
2025-01-18 02:17:43.35	10.59	7.55	
2025-01-18 02:17:43.55	10.57	7.56	
2025-01-18 02:17:43.75	10.56	7.58	
2025-01-18 02:17:43.95	10.55	7.59	
2025-01-18 02:17:44.16	10.54	7.61	
2025-01-18 02:17:44.36	10.52	7.63	
2025-01-18 02:17:44.56	10.51	7.64	
2025-01-18 02:17:44.77	10.50	7.66	
2025-01-18 02:17:44.97	10.49	7.67	
2025-01-18 02:17:45.17	10.47	7.69	
2025-01-18 02:17:45.38	10.46	7.71	
2025-01-18 02:17:45.58	10.45	7.72	
2025-01-18 02:17:45.78	10.44	7.74	
2025-01-18 02:17:45.98	10.42	7.75	
2025-01-18 02:17:46.19	10.41	7.77	
2025-01-18 02:17:46.39	10.40	7.79	
2025-01-18 02:17:46.59	10.39	7.80	
2025-01-18 02:17:46.80	10.37	7.82	
2025-01-18 02:17:47.00	10.36	7.83	
2025-01-18 02:17:47.20	10.35	7.85	
2025-01-18 02:17:47.41	10.34	7.87	
2025-01-18 02:17:47.61	10.32	7.88	
2025-01-18 02:17:47.81	10.31	7.90	
2025-01-18 02:17:48.01	10.30	7.92	
2025-01-18 02:17:48.22	10.28	7.93	
2025-01-18 02:17:48.42	10.27	7.95	
2025-01-18 02:17:48.62	10.26	7.96	
2025-01-18 02:17:48.83	10.25	7.98	
2025-01-18 02:17:49.03	10.23	8.00	
2025-01-18 02:17:49.23	10.22	8.01	
2025-01-18 02:17:49.43	10.21	8.03	
2025-01-18 02:17:49.64	10.19	8.05	
2025-01-18 02:17:49.84	10.18	8.06	
2025-01-18 02:17:50.04	10.17	8.08	
2025-01-18 02:17:50.25	10.16	8.09	
2025-01-18 02:17:50.45	10.14	8.11	
2025-01-18 02:17:50.65	10.13	8.13	
2025-01-18 02:17:50.86	10.12	8.14	
2025-01-18 02:17:51.06	10.10	8.16	
2025-01-18 02:17:51.26	10.09	8.18	
2025-01-18 02:17:51.46	10.08	8.19	
2025-01-18 02:17:51.67	10.06	8.21	
2025-01-18 02:17:51.87	10.05	8.22	
2025-01-18 02:17:52.07	10.04	8.24	
2025-01-18 02:17:52.28	10.03	8.26	
2025-01-18 02:17:52.48	10.01	8.27	
2025-01-18 02:17:52.68	10.00	8.29	
2025-01-18 02:17:52.89	9.99	8.31	
2025-01-18 02:17:53.09	9.97	8.32	
2025-01-18 02:17:53.29	9.96	8.34	
2025-01-18 02:17:53.49	9.95	8.36	
2025-01-18 02:17:53.70	9.93	8.37	
2025-01-18 02:17:53.90	9.92	8.39	
2025-01-18 02:17:54.10	9.91	8.40	
2025-01-18 02:17:54.31	9.89	8.42	
2025-01-18 02:17:54.51	9.88	8.44	
2025-01-18 02:17:54.71	9.87	8.45	
2025-01-18 02:17:54.92	9.85	8.47	
2025-01-18 02:17:55.12	9.84	8.49	
2025-01-18 02:17:55.32	9.83	8.50	
2025-01-18 02:17:55.52	9.81	8.52	
2025-01-18 02:17:55.73	9.80	8.54	
2025-01-18 02:17:55.93	9.79	8.55	
2025-01-18 02:17:56.13	9.77	8.57	
2025-01-18 02:17:56.34	9.76	8.59	
2025-01-18 02:17:56.54	9.75	8.60	
2025-01-18 02:17:56.74	9.73	8.62	
2025-01-18 02:17:56.95	9.72	8.64	
2025-01-18 02:17:57.15	9.71	8.65	
2025-01-18 02:17:57.35	9.69	8.67	
2025-01-18 02:17:57.55	9.68	8.69	
2025-01-18 02:17:57.76	9.67	8.70	
2025-01-18 02:17:57.96	9.65	8.72	
2025-01-18 02:17:58.16	9.64	8.74	
2025-01-18 02:17:58.37	9.62	8.75	
2025-01-18 02:17:58.57	9.61	8.77	
2025-01-18 02:17:58.77	9.60	8.79	
2025-01-18 02:17:58.97	9.58	8.80	
2025-01-18 02:17:59.18	9.57	8.82	
2025-01-18 02:17:59.38	9.56	8.84	
2025-01-18 02:17:59.58	9.54	8.85	
2025-01-18 02:17:59.79	9.53	8.87	
2025-01-18 02:17:59.99	9.52	8.89	
2025-01-18 02:18:00.19	9.50	8.90	
2025-01-18 02:18:00.40	9.49	8.92	
2025-01-18 02:18:00.60	9.47	8.94	
2025-01-18 02:18:00.80	9.46	8.95	
2025-01-18 02:18:01.00	9.45	8.97	
2025-01-18 02:18:01.21	9.43	8.99	
2025-01-18 02:18:01.41	9.42	9.00	
2025-01-18 02:18:01.61	9.40	9.02	
2025-01-18 02:18:01.82	9.39	9.04	
2025-01-18 02:18:02.02	9.38	9.06	
2025-01-18 02:18:02.22	9.36	9.07	
2025-01-18 02:18:02.43	9.35	9.09	
2025-01-18 02:18:02.63	9.33	9.11	
2025-01-18 02:18:02.83	9.32	9.12	
2025-01-18 02:18:03.03	9.31	9.14	
2025-01-18 02:18:03.24	9.29	9.16	
2025-01-18 02:18:03.44	9.28	9.17	
2025-01-18 02:18:03.64	9.26	9.19	
2025-01-18 02:18:03.85	9.25	9.21	
2025-01-18 02:18:04.05	9.24	9.22	
2025-01-18 02:18:04.25	9.22	9.24	
2025-01-18 02:18:04.46	9.21	9.26	
2025-01-18 02:18:04.66	9.19	9.28	
2025-01-18 02:18:04.86	9.18	9.29	
2025-01-18 02:18:05.06	9.17	9.31	
2025-01-18 02:18:05.27	9.15	9.33	
2025-01-18 02:18:05.47	9.14	9.34	
2025-01-18 02:18:05.67	9.12	9.36	
2025-01-18 02:18:05.88	9.11	9.38	
2025-01-18 02:18:06.08	9.09	9.40	
2025-01-18 02:18:06.28	9.08	9.41	
2025-01-18 02:18:06.49	9.06	9.43	
2025-01-18 02:18:06.69	9.05	9.45	
2025-01-18 02:18:06.89	9.04	9.46	
2025-01-18 02:18:07.09	9.02	9.48	
2025-01-18 02:18:07.30	9.01	9.50	
2025-01-18 02:18:07.50	8.99	9.52	
2025-01-18 02:18:07.70	8.98	9.53	
2025-01-18 02:18:07.91	8.96	9.55	
2025-01-18 02:18:08.11	8.95	9.57	
2025-01-18 02:18:08.31	8.93	9.58	
2025-01-18 02:18:08.51	8.92	9.60	
2025-01-18 02:18:08.72	8.91	9.62	
2025-01-18 02:18:08.92	8.89	9.64	
2025-01-18 02:18:09.12	8.88	9.65	
2025-01-18 02:18:09.33	8.86	9.67	
2025-01-18 02:18:09.53	8.85	9.69	
2025-01-18 02:18:09.73	8.83	9.70	
2025-01-18 02:18:09.94	8.82	9.72	
2025-01-18 02:18:10.14	8.80	9.74	
2025-01-18 02:18:10.34	8.79	9.76	
2025-01-18 02:18:10.54	8.77	9.77	
2025-01-18 02:18:10.75	8.76	9.79	
2025-01-18 02:18:10.95	8.74	9.81	
2025-01-18 02:18:11.15	8.73	9.83	
2025-01-18 02:18:11.36	8.71	9.84	
2025-01-18 02:18:11.56	8.70	9.86	
2025-01-18 02:18:11.76	8.68	9.88	
2025-01-18 02:18:11.97	8.67	9.90	
2025-01-18 02:18:12.17	8.65	9.91	
2025-01-18 02:18:12.37	8.64	9.93	
2025-01-18 02:18:12.57	8.63	9.95	
2025-01-18 02:18:12.78	8.61	9.97	
2025-01-18 02:18:12.98	8.59	9.98	
2025-01-18 02:18:13.18	8.58	10.00	
2025-01-18 02:18:13.39	8.56	10.02	
2025-01-18 02:18:13.59	8.55	10.04	
2025-01-18 02:18:13.79	8.53	10.05	
2025-01-18 02:18:14.00	8.52	10.07	
2025-01-18 02:18:14.20	8.50	10.09	
2025-01-18 02:18:14.41	8.49	10.11	
2025-01-18 02:18:14.61	8.47	10.12	
2025-01-18 02:18:14.81	8.46	10.14	
2025-01-18 02:18:15.02	8.44	10.16	
2025-01-18 02:18:15.22	8.43	10.18	
2025-01-18 02:18:15.42	8.41	10.19	
2025-01-18 02:18:15.62	8.40	10.21	
2025-01-18 02:18:15.83	8.38	10.23	
2025-01-18 02:18:16.03	8.37	10.25	
2025-01-18 02:18:16.23	8.35	10.27	
2025-01-18 02:18:16.44	8.34	10.28	
2025-01-18 02:18:16.64	8.32	10.30	
2025-01-18 02:18:16.84	8.31	10.32	
2025-01-18 02:18:17.05	8.29	10.34	
2025-01-18 02:18:17.25	8.27	10.35	
2025-01-18 02:18:17.45	8.26	10.37	
2025-01-18 02:18:17.65	8.24	10.39	
2025-01-18 02:18:17.86	8.23	10.41	
2025-01-18 02:18:18.06	8.21	10.43	
2025-01-18 02:18:18.26	8.20	10.44	
2025-01-18 02:18:18.47	8.18	10.46	
2025-01-18 02:18:18.67	8.17	10.48	
2025-01-18 02:18:18.87	8.15	10.50	
2025-01-18 02:18:19.08	8.13	10.51	
2025-01-18 02:18:19.28	8.12	10.53	
2025-01-18 02:18:19.48	8.10	10.55	
2025-01-18 02:18:19.68	8.09	10.57	
2025-01-18 02:18:19.89	8.07	10.59	
2025-01-18 02:18:20.09	8.06	10.60	
2025-01-18 02:18:20.29	8.04	10.62	
2025-01-18 02:18:20.50	8.02	10.64	
2025-01-18 02:18:20.70	8.01	10.66	
2025-01-18 02:18:20.90	7.99	10.68	
2025-01-18 02:18:21.11	7.98	10.69	
2025-01-18 02:18:21.31	7.96	10.71	
2025-01-18 02:18:21.51	7.95	10.73	
2025-01-18 02:18:21.71	7.93	10.75	
2025-01-18 02:18:21.92	7.91	10.77	
2025-01-18 02:18:22.12	7.90	10.78	
2025-01-18 02:18:22.32	7.88	10.80	
2025-01-18 02:18:22.53	7.87	10.82	
2025-01-18 02:18:22.73	7.85	10.84	
2025-01-18 02:18:22.93	7.83	10.86	
2025-01-18 02:18:23.14	7.82	10.87	
2025-01-18 02:18:23.34	7.80	10.89	
2025-01-18 02:18:23.54	7.79	10.91	
2025-01-18 02:18:23.74	7.77	10.93	
2025-01-18 02:18:23.95	7.75	10.95	
2025-01-18 02:18:24.15	7.74	10.97	
2025-01-18 02:18:24.35	7.72	10.98	
2025-01-18 02:18:24.56	7.70	11.00	
2025-01-18 02:18:24.76	7.69	11.02	
2025-01-18 02:18:24.96	7.67	11.04	
2025-01-18 02:18:25.16	7.66	11.06	
2025-01-18 02:18:25.37	7.64	11.07	
2025-01-18 02:18:25.57	7.62	11.09	
2025-01-18 02:18:25.77	7.61	11.11	
2025-01-18 02:18:25.98	7.59	11.13	
2025-01-18 02:18:26.18	7.57	11.15	
2025-01-18 02:18:26.38	7.56	11.17	
2025-01-18 02:18:26.59	7.54	11.18	
2025-01-18 02:18:26.79	7.52	11.20	
2025-01-18 02:18:26.99	7.51	11.22	
2025-01-18 02:18:27.19	7.49	11.24	
2025-01-18 02:18:27.40	7.47	11.26	
2025-01-18 02:18:27.60	7.46	11.28	
2025-01-18 02:18:27.80	7.44	11.29	
2025-01-18 02:18:28.01	7.42	11.31	
2025-01-18 02:18:28.21	7.41	11.33	
2025-01-18 02:18:28.41	7.39	11.35	
2025-01-18 02:18:28.62	7.37	11.37	
2025-01-18 02:18:28.82	7.36	11.39	
2025-01-18 02:18:29.02	7.34	11.41	
2025-01-18 02:18:29.22	7.33	11.42	
2025-01-18 02:18:29.43	7.31	11.44	
2025-01-18 02:18:29.63	7.29	11.46	
2025-01-18 02:18:29.83	7.27	11.48	
2025-01-18 02:18:30.04	7.26	11.50	
2025-01-18 02:18:30.24	7.24	11.52	
2025-01-18 02:18:30.44	7.22	11.53	
2025-01-18 02:18:30.65	7.21	11.55	
2025-01-18 02:18:30.85	7.19	11.57	
2025-01-18 02:18:31.05	7.17	11.59	
2025-01-18 02:18:31.25	7.16	11.61	
2025-01-18 02:18:31.46	7.14	11.63	
2025-01-18 02:18:31.66	7.12	11.65	
2025-01-18 02:18:31.86	7.10	11.67	
2025-01-18 02:18:32.07	7.09	11.68	
2025-01-18 02:18:32.27	7.07	11.70	
2025-01-18 02:18:32.47	7.05	11.72	
2025-01-18 02:18:32.68	7.04	11.74	
2025-01-18 02:18:32.88	7.02	11.76	
2025-01-18 02:18:33.08	7.00	11.78	
2025-01-18 02:18:33.28	6.98	11.80	
2025-01-18 02:18:33.49	6.97	11.82	
2025-01-18 02:18:33.69	6.95	11.83	
2025-01-18 02:18:33.89	6.93	11.85	
2025-01-18 02:18:34.10	6.91	11.87	
2025-01-18 02:18:34.30	6.90	11.89	
2025-01-18 02:18:34.50	6.88	11.91	
2025-01-18 02:18:34.70	6.86	11.93	
2025-01-18 02:18:34.91	6.85	11.95	
2025-01-18 02:18:35.11	6.83	11.97	
2025-01-18 02:18:35.31	6.81	11.98	
2025-01-18 02:18:35.52	6.79	12.00	
2025-01-18 02:18:35.72	6.78	12.02	
2025-01-18 02:18:35.92	6.76	12.04	
2025-01-18 02:18:36.13	6.74	12.06	
2025-01-18 02:18:36.33	6.72	12.08	
2025-01-18 02:18:36.53	6.71	12.10	
2025-01-18 02:18:36.73	6.69	12.12	
2025-01-18 02:18:36.94	6.67	12.14	
2025-01-18 02:18:37.14	6.65	12.16	
2025-01-18 02:18:37.34	6.63	12.17	
2025-01-18 02:18:37.55	6.62	12.19	
2025-01-18 02:18:37.75	6.60	12.21	
2025-01-18 02:18:37.95	6.58	12.23	
2025-01-18 02:18:38.16	6.56	12.25	
2025-01-18 02:18:38.36	6.55	12.27	
2025-01-18 02:18:38.56	6.53	12.29	
2025-01-18 02:18:38.76	6.51	12.31	
2025-01-18 02:18:38.97	6.49	12.33	
2025-01-18 02:18:39.17	6.47	12.35	
2025-01-18 02:18:39.37	6.46	12.37	
2025-01-18 02:18:39.58	6.44	12.39	
2025-01-18 02:18:39.78	6.42	12.40	
2025-01-18 02:18:39.98	6.40	12.42	
2025-01-18 02:18:40.19	6.38	12.44	
2025-01-18 02:18:40.39	6.36	12.46	
2025-01-18 02:18:40.59	6.35	12.48	
2025-01-18 02:18:40.79	6.33	12.50	
2025-01-18 02:18:41.00	6.31	12.52	
2025-01-18 02:18:41.20	6.29	12.54	
2025-01-18 02:18:41.40	6.27	12.56	
2025-01-18 02:18:41.61	6.26	12.58	
2025-01-18 02:18:41.81	6.24	12.60	
2025-01-18 02:18:42.01	6.22	12.62	
2025-01-18 02:18:42.21	6.20	12.64	
2025-01-18 02:18:42.42	6.18	12.66	
2025-01-18 02:18:42.62	6.16	12.67	
2025-01-18 02:18:42.82	6.15	12.69	
2025-01-18 02:18:43.03	6.13	12.71	
2025-01-18 02:18:43.23	6.11	12.73	
2025-01-18 02:18:43.43	6.09	12.75	
2025-01-18 02:18:43.64	6.07	12.77	
2025-01-18 02:18:43.84	6.05	12.79	
2025-01-18 02:18:44.04	6.03	12.81	
2025-01-18 02:18:44.24	6.02	12.83	
2025-01-18 02:18:44.45	6.00	12.85	
2025-01-18 02:18:44.65	5.98	12.87	
2025-01-18 02:18:44.85	5.96	12.89	
2025-01-18 02:18:45.06	5.94	12.91	
2025-01-18 02:18:45.26	5.92	12.93	
2025-01-18 02:18:45.46	5.90	12.95	
2025-01-18 02:18:45.67	5.88	12.97	
2025-01-18 02:18:45.87	5.86	12.99	
2025-01-18 02:18:46.07	5.85	13.01	
2025-01-18 02:18:46.27	5.83	13.03	
2025-01-18 02:18:46.48	5.81	13.05	
2025-01-18 02:18:46.68	5.79	13.07	
2025-01-18 02:18:46.88	5.77	13.09	
2025-01-18 02:18:47.09	5.75	13.11	
2025-01-18 02:18:47.29	5.73	13.13	
2025-01-18 02:18:47.49	5.71	13.14	
2025-01-18 02:18:47.70	5.69	13.16	
2025-01-18 02:18:47.90	5.67	13.18	
2025-01-18 02:18:48.10	5.66	13.20	
2025-01-18 02:18:48.30	5.64	13.22	
2025-01-18 02:18:48.51	5.62	13.24	
2025-01-18 02:18:48.71	5.60	13.26	
2025-01-18 02:18:48.91	5.58	13.28	
2025-01-18 02:18:49.12	5.56	13.30	
2025-01-18 02:18:49.32	5.54	13.32	
2025-01-18 02:18:49.52	5.52	13.34	
2025-01-18 02:18:49.73	5.50	13.36	
2025-01-18 02:18:49.93	5.48	13.38	
2025-01-18 02:18:50.13	5.46	13.40	
2025-01-18 02:18:50.33	5.44	13.42	
2025-01-18 02:18:50.54	5.42	13.44	
2025-01-18 02:18:50.74	5.40	13.46	
2025-01-18 02:18:50.94	5.38	13.48	
2025-01-18 02:18:51.15	5.36	13.50	
2025-01-18 02:18:51.35	5.34	13.52	
2025-01-18 02:18:51.55	5.33	13.54	
2025-01-18 02:18:51.76	5.30	13.56	
2025-01-18 02:18:51.96	5.29	13.58	
2025-01-18 02:18:52.16	5.27	13.60	
2025-01-18 02:18:52.36	5.25	13.62	
2025-01-18 02:18:52.57	5.23	13.64	
2025-01-18 02:18:52.77	5.21	13.66	
2025-01-18 02:18:52.97	5.19	13.68	
2025-01-18 02:18:53.18	5.17	13.70	
2025-01-18 02:18:53.38	5.15	13.72	
2025-01-18 02:18:53.58	5.13	13.74	
2025-01-18 02:18:53.78	5.11	13.76	
2025-01-18 02:18:53.99	5.09	13.78	
2025-01-18 02:18:54.19	5.07	13.80	
2025-01-18 02:18:54.39	5.05	13.82	
2025-01-18 02:18:54.60	5.03	13.85	
2025-01-18 02:18:54.80	5.01	13.87	
2025-01-18 02:18:55.00	4.99	13.89	
2025-01-18 02:18:55.21	4.97	13.91	
2025-01-18 02:18:55.41	4.95	13.93	
2025-01-18 02:18:55.61	4.93	13.95	
2025-01-18 02:18:55.81	4.91	13.97	
2025-01-18 02:18:56.02	4.88	13.99	
2025-01-18 02:18:56.22	4.86	14.01	
2025-01-18 02:18:56.42	4.84	14.03	
2025-01-18 02:18:56.63	4.82	14.05	
2025-01-18 02:18:56.83	4.80	14.07	
2025-01-18 02:18:57.03	4.78	14.09	
2025-01-18 02:18:57.24	4.76	14.11	
2025-01-18 02:18:57.44	4.74	14.13	
2025-01-18 02:18:57.64	4.72	14.15	
2025-01-18 02:18:57.84	4.70	14.17	
2025-01-18 02:18:58.05	4.68	14.19	
2025-01-18 02:18:58.25	4.66	14.21	
2025-01-18 02:18:58.45	4.64	14.23	
2025-01-18 02:18:58.66	4.62	14.25	
2025-01-18 02:18:58.86	4.60	14.27	
2025-01-18 02:18:59.06	4.58	14.30	
2025-01-18 02:18:59.27	4.55	14.32	
2025-01-18 02:18:59.47	4.53	14.34	
2025-01-18 02:18:59.67	4.51	14.36	
2025-01-18 02:18:59.87	4.49	14.38	
2025-01-18 02:19:00.08	4.47	14.40	
2025-01-18 02:19:00.28	4.45	14.42	
2025-01-18 02:19:00.48	4.43	14.44	
2025-01-18 02:19:00.69	4.41	14.46	
2025-01-18 02:19:00.89	4.39	14.48	
2025-01-18 02:19:01.09	4.37	14.50	
2025-01-18 02:19:01.30	4.34	14.52	
2025-01-18 02:19:01.50	4.32	14.54	
2025-01-18 02:19:01.70	4.30	14.56	
2025-01-18 02:19:01.90	4.28	14.59	
2025-01-18 02:19:02.11	4.26	14.61	
2025-01-18 02:19:02.31	4.24	14.63	
2025-01-18 02:19:02.51	4.22	14.65	
2025-01-18 02:19:02.72	4.19	14.67	
2025-01-18 02:19:02.92	4.17	14.69	
2025-01-18 02:19:03.12	4.15	14.71	
2025-01-18 02:19:03.32	4.13	14.73	
2025-01-18 02:19:03.53	4.11	14.75	
2025-01-18 02:19:03.73	4.09	14.77	
2025-01-18 02:19:03.93	4.07	14.79	
2025-01-18 02:19:04.14	4.04	14.82	
2025-01-18 02:19:04.34	4.02	14.84	
2025-01-18 02:19:04.54	4.00	14.86	
2025-01-18 02:19:04.75	3.98	14.88	
2025-01-18 02:19:04.95	3.96	14.90	
2025-01-18 02:19:05.15	3.94	14.92	
2025-01-18 02:19:05.35	3.91	14.94	
2025-01-18 02:19:05.56	3.89	14.96	
2025-01-18 02:19:05.76	3.87	14.98	
2025-01-18 02:19:05.96	3.85	15.01	
2025-01-18 02:19:06.17	3.83	15.03	
2025-01-18 02:19:06.37	3.80	15.05	
2025-01-18 02:19:06.57	3.78	15.07	
2025-01-18 02:19:06.78	3.76	15.09	
2025-01-18 02:19:06.98	3.74	15.11	
2025-01-18 02:19:07.18	3.72	15.13	
2025-01-18 02:19:07.38	3.69	15.15	
2025-01-18 02:19:07.59	3.67	15.18	
2025-01-18 02:19:07.79	3.65	15.20	
2025-01-18 02:19:07.99	3.63	15.22	
2025-01-18 02:19:08.20	3.60	15.24	
2025-01-18 02:19:08.40	3.58	15.26	
2025-01-18 02:19:08.60	3.56	15.28	
2025-01-18 02:19:08.81	3.54	15.30	
2025-01-18 02:19:09.01	3.51	15.33	
2025-01-18 02:19:09.21	3.49	15.35	
2025-01-18 02:19:09.41	3.47	15.37	
2025-01-18 02:19:09.62	3.45	15.39	
2025-01-18 02:19:09.82	3.42	15.41	
2025-01-18 02:19:10.02	3.40	15.43	
2025-01-18 02:19:10.23	3.38	15.45	
2025-01-18 02:19:10.43	3.36	15.48	
2025-01-18 02:19:10.63	3.33	15.50	
2025-01-18 02:19:10.84	3.31	15.52	
2025-01-18 02:19:11.04	3.29	15.54	
2025-01-18 02:19:11.24	3.27	15.56	
2025-01-18 02:19:11.44	3.24	15.58	
2025-01-18 02:19:11.65	3.22	15.60	
2025-01-18 02:19:11.85	3.20	15.63	
2025-01-18 02:19:12.05	3.17	15.65	
2025-01-18 02:19:12.26	3.15	15.67	
2025-01-18 02:19:12.46	3.13	15.69	
2025-01-18 02:19:12.66	3.10	15.71	
2025-01-18 02:19:12.87	3.08	15.74	
2025-01-18 02:19:13.07	3.06	15.76	
2025-01-18 02:19:13.27	3.03	15.78	
2025-01-18 02:19:13.47	3.01	15.80	
2025-01-18 02:19:13.68	2.99	15.82	
2025-01-18 02:19:13.88	2.96	15.84	
2025-01-18 02:19:14.08	2.94	15.86	
2025-01-18 02:19:14.29	2.92	15.89	
2025-01-18 02:19:14.49	2.89	15.91	
2025-01-18 02:19:14.69	2.87	15.93	
2025-01-18 02:19:14.89	2.85	15.95	
2025-01-18 02:19:15.10	2.82	15.97	
2025-01-18 02:19:15.30	2.80	16.00	
2025-01-18 02:19:15.50	2.78	16.02	
2025-01-18 02:19:15.71	2.75	16.04	
2025-01-18 02:19:15.91	2.73	16.06	
2025-01-18 02:19:16.11	2.71	16.08	
2025-01-18 02:19:16.32	2.68	16.11	
2025-01-18 02:19:16.52	2.66	16.13	
2025-01-18 02:19:16.72	2.63	16.15	
2025-01-18 02:19:16.92	2.61	16.17	
2025-01-18 02:19:17.13	2.59	16.19	
2025-01-18 02:19:17.33	2.56	16.22	
2025-01-18 02:19:17.53	2.54	16.24	
2025-01-18 02:19:17.74	2.51	16.26	
2025-01-18 02:19:17.94	2.49	16.28	
2025-01-18 02:19:18.14	2.47	16.30	
2025-01-18 02:19:18.35	2.44	16.33	
2025-01-18 02:19:18.55	2.42	16.35	
2025-01-18 02:19:18.75	2.39	16.37	
2025-01-18 02:19:18.95	2.37	16.39	
2025-01-18 02:19:19.16	2.34	16.42	
2025-01-18 02:19:19.36	2.32	16.44	
2025-01-18 02:19:19.56	2.30	16.46	
2025-01-18 02:19:19.77	2.27	16.48	
2025-01-18 02:19:19.97	2.25	16.51	
2025-01-18 02:19:20.17	2.22	16.53	
2025-01-18 02:19:20.38	2.20	16.55	
2025-01-18 02:19:20.58	2.17	16.57	
2025-01-18 02:19:20.78	2.15	16.59	
2025-01-18 02:19:20.98	2.12	16.62	
2025-01-18 02:19:21.19	2.10	16.64	
2025-01-18 02:19:21.39	2.07	16.66	
2025-01-18 02:19:21.59	2.05	16.68	
2025-01-18 02:19:21.80	2.02	16.71	
2025-01-18 02:19:22.00	2.00	16.73	
2025-01-18 02:19:22.20	1.97	16.75	
2025-01-18 02:19:22.41	1.95	16.77	
2025-01-18 02:19:22.61	1.92	16.80	
2025-01-18 02:19:22.81	1.90	16.82	
2025-01-18 02:19:23.01	1.87	16.84	
2025-01-18 02:19:23.22	1.85	16.86	
2025-01-18 02:19:23.42	1.82	16.89	
2025-01-18 02:19:23.62	1.80	16.91	
2025-01-18 02:19:23.83	1.77	16.93	
2025-01-18 02:19:24.03	1.75	16.96	
2025-01-18 02:19:24.23	1.72	16.98	
2025-01-18 02:19:24.43	1.70	17.00	
2025-01-18 02:19:24.64	1.67	17.02	
2025-01-18 02:19:24.84	1.65	17.05	
2025-01-18 02:19:25.04	1.62	17.07	
2025-01-18 02:19:25.25	1.60	17.09	
2025-01-18 02:19:25.45	1.57	17.11	
2025-01-18 02:19:25.65	1.54	17.14	
2025-01-18 02:19:25.86	1.52	17.16	
2025-01-18 02:19:26.06	1.49	17.18	
2025-01-18 02:19:26.26	1.47	17.21	
2025-01-18 02:19:26.46	1.44	17.23	
2025-01-18 02:19:26.67	1.42	17.25	
2025-01-18 02:19:26.87	1.39	17.27	
2025-01-18 02:19:27.07	1.36	17.30	
2025-01-18 02:19:27.28	1.34	17.32	
2025-01-18 02:19:27.48	1.31	17.34	
2025-01-18 02:19:27.68	1.29	17.37	
2025-01-18 02:19:27.89	1.26	17.39	
2025-01-18 02:19:28.09	1.23	17.41	
2025-01-18 02:19:28.29	1.21	17.43	
2025-01-18 02:19:28.49	1.18	17.46	
2025-01-18 02:19:28.70	1.15	17.48	
2025-01-18 02:19:28.90	1.13	17.50	
2025-01-18 02:19:29.10	1.10	17.53	
2025-01-18 02:19:29.31	1.07	17.55	
2025-01-18 02:19:29.51	1.05	17.57	
2025-01-18 02:19:29.71	1.02	17.60	
2025-01-18 02:19:29.92	1.00	17.62	
2025-01-18 02:19:30.12	0.97	17.64	
2025-01-18 02:19:30.32	0.94	17.67	
2025-01-18 02:19:30.52	0.92	17.69	
2025-01-18 02:19:30.73	0.89	17.71	
2025-01-18 02:19:30.93	0.86	17.74	
2025-01-18 02:19:31.13	0.84	17.76	
2025-01-18 02:19:31.34	0.81	17.78	
2025-01-18 02:19:31.54	0.78	17.81	
2025-01-18 02:19:31.74	0.76	17.83	
2025-01-18 02:19:31.95	0.73	17.85	
2025-01-18 02:19:32.15	0.70	17.88	
2025-01-18 02:19:32.35	0.67	17.90	
2025-01-18 02:19:32.55	0.65	17.92	
2025-01-18 02:19:32.76	0.62	17.95	
2025-01-18 02:19:32.96	0.59	17.97	
2025-01-18 02:19:33.16	0.57	17.99	
2025-01-18 02:19:33.37	0.54	18.02	
2025-01-18 02:19:33.57	0.51	18.04	
2025-01-18 02:19:33.77	0.48	18.06	
2025-01-18 02:19:33.97	0.46	18.09	
2025-01-18 02:19:34.18	0.43	18.11	
2025-01-18 02:19:34.38	0.40	18.13	
2025-01-18 02:19:34.58	0.37	18.16	
2025-01-18 02:19:34.79	0.34	18.18	
2025-01-18 02:19:34.99	0.32	18.20	
2025-01-18 02:19:35.19	0.29	18.23	
2025-01-18 02:19:35.40	0.26	18.25	
2025-01-18 02:19:35.60	0.23	18.28	
2025-01-18 02:19:35.80	0.21	18.30	
2025-01-18 02:19:36.00	0.18	18.32	
2025-01-18 02:19:36.21	0.15	18.35	
2025-01-18 02:19:36.41	0.12	18.37	
2025-01-18 02:19:36.61	0.09	18.39	
2025-01-18 02:19:36.82	0.07	18.42	
2025-01-18 02:19:37.02	0.04	18.44	
2025-01-18 02:19:37.22	0.01	18.47	
2025-01-18 02:19:37.43	359.98	18.49	
2025-01-18 02:19:37.63	359.95	18.51	
2025-01-18 02:19:37.83	359.92	18.54	
2025-01-18 02:19:38.03	359.90	18.56	
2025-01-18 02:19:38.24	359.87	18.59	
2025-01-18 02:19:38.44	359.84	18.61	
2025-01-18 02:19:38.64	359.81	18.63	
2025-01-18 02:19:38.85	359.78	18.66	
2025-01-18 02:19:39.05	359.75	18.68	
2025-01-18 02:19:39.25	359.73	18.70	
2025-01-18 02:19:39.46	359.70	18.73	
2025-01-18 02:19:39.66	359.67	18.75	
2025-01-18 02:19:39.86	359.64	18.78	
2025-01-18 02:19:40.06	359.61	18.80	
2025-01-18 02:19:40.27	359.58	18.83	
2025-01-18 02:19:40.47	359.55	18.85	
2025-01-18 02:19:40.67	359.52	18.87	
2025-01-18 02:19:40.88	359.49	18.90	
2025-01-18 02:19:41.08	359.46	18.92	
2025-01-18 02:19:41.28	359.44	18.95	
2025-01-18 02:19:41.49	359.41	18.97	
2025-01-18 02:19:41.69	359.38	18.99	
2025-01-18 02:19:41.89	359.35	19.02	
2025-01-18 02:19:42.09	359.32	19.04	
2025-01-18 02:19:42.30	359.29	19.07	
2025-01-18 02:19:42.50	359.26	19.09	
2025-01-18 02:19:42.70	359.23	19.12	
2025-01-18 02:19:42.91	359.20	19.14	
2025-01-18 02:19:43.11	359.17	19.16	
2025-01-18 02:19:43.31	359.14	19.19	
2025-01-18 02:19:43.52	359.11	19.21	
2025-01-18 02:19:43.72	359.08	19.24	
2025-01-18 02:19:43.92	359.05	19.26	
2025-01-18 02:19:44.12	359.02	19.29	
2025-01-18 02:19:44.33	358.99	19.31	
2025-01-18 02:19:44.53	358.96	19.34	
2025-01-18 02:19:44.73	358.93	19.36	
2025-01-18 02:19:44.94	358.90	19.39	
2025-01-18 02:19:45.14	358.87	19.41	
2025-01-18 02:19:45.34	358.84	19.43	
2025-01-18 02:19:45.54	358.81	19.46	
2025-01-18 02:19:45.75	358.78	19.48	
2025-01-18 02:19:45.95	358.75	19.51	
2025-01-18 02:19:46.15	358.72	19.53	
2025-01-18 02:19:46.36	358.69	19.56	
2025-01-18 02:19:46.56	358.66	19.58	
2025-01-18 02:19:46.76	358.63	19.61	
2025-01-18 02:19:46.97	358.60	19.63	
2025-01-18 02:19:47.17	358.57	19.66	
2025-01-18 02:19:47.37	358.54	19.68	
2025-01-18 02:19:47.57	358.51	19.70	
2025-01-18 02:19:47.78	358.47	19.73	
2025-01-18 02:19:47.98	358.44	19.75	
2025-01-18 02:19:48.18	358.41	19.78	
2025-01-18 02:19:48.39	358.38	19.80	
2025-01-18 02:19:48.59	358.35	19.83	
2025-01-18 02:19:48.79	358.32	19.85	
2025-01-18 02:19:49.00	358.29	19.88	
2025-01-18 02:19:49.20	358.26	19.90	
2025-01-18 02:19:49.40	358.23	19.93	
2025-01-18 02:19:49.60	358.19	19.95	
2025-01-18 02:19:49.81	358.16	19.98	
2025-01-18 02:19:50.01	358.13	20.00	
2025-01-18 02:19:50.21	358.10	20.03	
2025-01-18 02:19:50.42	358.07	20.05	
2025-01-18 02:19:50.62	358.04	20.08	
2025-01-18 02:19:50.82	358.01	20.10	
2025-01-18 02:19:51.03	357.97	20.13	
2025-01-18 02:19:51.23	357.94	20.15	
2025-01-18 02:19:51.43	357.91	20.18	
2025-01-18 02:19:51.63	357.88	20.20	
2025-01-18 02:19:51.84	357.85	20.23	
2025-01-18 02:19:52.04	357.81	20.25	
2025-01-18 02:19:52.24	357.78	20.28	
2025-01-18 02:19:52.45	357.75	20.31	
2025-01-18 02:19:52.65	357.72	20.33	
2025-01-18 02:19:52.85	357.69	20.35	
2025-01-18 02:19:53.06	357.65	20.38	
2025-01-18 02:19:53.26	357.62	20.41	
2025-01-18 02:19:53.46	357.59	20.43	
2025-01-18 02:19:53.66	357.56	20.46	
2025-01-18 02:19:53.87	357.52	20.48	
2025-01-18 02:19:54.07	357.49	20.51	
2025-01-18 02:19:54.27	357.46	20.53	
2025-01-18 02:19:54.48	357.42	20.56	
2025-01-18 02:19:54.68	357.39	20.58	
2025-01-18 02:19:54.88	357.36	20.61	
2025-01-18 02:19:55.08	357.33	20.63	
2025-01-18 02:19:55.29	357.29	20.66	
2025-01-18 02:19:55.49	357.26	20.68	
2025-01-18 02:19:55.69	357.23	20.71	
2025-01-18 02:19:55.90	357.19	20.74	
2025-01-18 02:19:56.10	357.16	20.76	
2025-01-18 02:19:56.30	357.13	20.79	
2025-01-18 02:19:56.51	357.09	20.81	
2025-01-18 02:19:56.71	357.06	20.84	
2025-01-18 02:19:56.91	357.03	20.86	
2025-01-18 02:19:57.11	357.00	20.89	
2025-01-18 02:19:57.32	356.96	20.92	
2025-01-18 02:19:57.52	356.93	20.94	
2025-01-18 02:19:57.72	356.89	20.97	
2025-01-18 02:19:57.93	356.86	20.99	
2025-01-18 02:19:58.13	356.83	21.02	
2025-01-18 02:19:58.33	356.79	21.04	
2025-01-18 02:19:58.54	356.76	21.07	
2025-01-18 02:19:58.74	356.72	21.10	
2025-01-18 02:19:58.94	356.69	21.12	
2025-01-18 02:19:59.14	356.66	21.15	
2025-01-18 02:19:59.35	356.62	21.17	
2025-01-18 02:19:59.55	356.59	21.20	
2025-01-18 02:19:59.75	356.55	21.22	
2025-01-18 02:19:59.96	356.52	21.25	
2025-01-18 02:20:00.16	356.49	21.28	
2025-01-18 02:20:00.36	356.45	21.30	
2025-01-18 02:20:00.57	356.42	21.33	
2025-01-18 02:20:00.77	356.38	21.35	
2025-01-18 02:20:00.97	356.35	21.38	
2025-01-18 02:20:01.17	356.31	21.41	
2025-01-18 02:20:01.38	356.28	21.43	
2025-01-18 02:20:01.58	356.24	21.46	
2025-01-18 02:20:01.78	356.21	21.48	
2025-01-18 02:20:01.99	356.17	21.51	
2025-01-18 02:20:02.19	356.14	21.54	
2025-01-18 02:20:02.39	356.10	21.56	
2025-01-18 02:20:02.60	356.07	21.59	
2025-01-18 02:20:02.80	356.03	21.61	
2025-01-18 02:20:03.00	356.00	21.64	
2025-01-18 02:20:03.20	355.96	21.67	
2025-01-18 02:20:03.41	355.93	21.69	
2025-01-18 02:20:03.61	355.89	21.72	
2025-01-18 02:20:03.81	355.86	21.75	
2025-01-18 02:20:04.02	355.82	21.77	
2025-01-18 02:20:04.22	355.78	21.80	
2025-01-18 02:20:04.42	355.75	21.82	
2025-01-18 02:20:04.62	355.71	21.85	
2025-01-18 02:20:04.83	355.68	21.88	
2025-01-18 02:20:05.03	355.64	21.90	
2025-01-18 02:20:05.23	355.61	21.93	
2025-01-18 02:20:05.44	355.57	21.96	
2025-01-18 02:20:05.64	355.53	21.98	
2025-01-18 02:20:05.84	355.50	22.01	
2025-01-18 02:20:06.05	355.46	22.04	
2025-01-18 02:20:06.25	355.42	22.06	
2025-01-18 02:20:06.45	355.39	22.09	
2025-01-18 02:20:06.65	355.35	22.11	
2025-01-18 02:20:06.86	355.32	22.14	
2025-01-18 02:20:07.06	355.28	22.17	
2025-01-18 02:20:07.26	355.24	22.19	
2025-01-18 02:20:07.47	355.21	22.22	
2025-01-18 02:20:07.67	355.17	22.25	
2025-01-18 02:20:07.87	355.13	22.27	
2025-01-18 02:20:08.08	355.09	22.30	
2025-01-18 02:20:08.28	355.06	22.33	
2025-01-18 02:20:08.48	355.02	22.35	
2025-01-18 02:20:08.68	354.99	22.38	
2025-01-18 02:20:08.89	354.95	22.41	
2025-01-18 02:20:09.09	354.91	22.43	
2025-01-18 02:20:09.29	354.87	22.46	
2025-01-18 02:20:09.50	354.83	22.49	
2025-01-18 02:20:09.70	354.80	22.51	
2025-01-18 02:20:09.90	354.76	22.54	
2025-01-18 02:20:10.11	354.72	22.57	
2025-01-18 02:20:10.31	354.69	22.59	
2025-01-18 02:20:10.51	354.65	22.62	
2025-01-18 02:20:10.71	354.61	22.65	
2025-01-18 02:20:10.92	354.57	22.68	
2025-01-18 02:20:11.12	354.53	22.70	
2025-01-18 02:20:11.32	354.50	22.73	
2025-01-18 02:20:11.53	354.46	22.76	
2025-01-18 02:20:11.73	354.42	22.78	
2025-01-18 02:20:11.93	354.38	22.81	
2025-01-18 02:20:12.14	354.34	22.84	
2025-01-18 02:20:12.34	354.30	22.86	
2025-01-18 02:20:12.54	354.27	22.89	
2025-01-18 02:20:12.74	354.23	22.92	
2025-01-18 02:20:12.95	354.19	22.94	
2025-01-18 02:20:13.15	354.15	22.97	
2025-01-18 02:20:13.35	354.11	23.00	
2025-01-18 02:20:13.56	354.07	23.03	
2025-01-18 02:20:13.76	354.03	23.05	
2025-01-18 02:20:13.96	354.00	23.08	
2025-01-18 02:20:14.16	353.96	23.11	
2025-01-18 02:20:14.37	353.92	23.13	
2025-01-18 02:20:14.57	353.88	23.16	
2025-01-18 02:20:14.77	353.84	23.19	
2025-01-18 02:20:14.98	353.80	23.22	
2025-01-18 02:20:15.18	353.76	23.24	
2025-01-18 02:20:15.38	353.72	23.27	
2025-01-18 02:20:15.59	353.68	23.30	
2025-01-18 02:20:15.79	353.64	23.32	
2025-01-18 02:20:15.99	353.60	23.35	
2025-01-18 02:20:16.19	353.56	23.38	
2025-01-18 02:20:16.40	353.52	23.41	
2025-01-18 02:20:16.60	353.48	23.43	
2025-01-18 02:20:16.80	353.44	23.46	
2025-01-18 02:20:17.01	353.40	23.49	
2025-01-18 02:20:17.21	353.36	23.52	
2025-01-18 02:20:17.41	353.32	23.54	
2025-01-18 02:20:17.62	353.28	23.57	
2025-01-18 02:20:17.82	353.24	23.60	
2025-01-18 02:20:18.02	353.20	23.63	
2025-01-18 02:20:18.22	353.16	23.65	
2025-01-18 02:20:18.43	353.12	23.68	
2025-01-18 02:20:18.63	353.08	23.71	
2025-01-18 02:20:18.83	353.04	23.74	
2025-01-18 02:20:19.04	353.00	23.76	
2025-01-18 02:20:19.24	352.96	23.79	
2025-01-18 02:20:19.44	352.92	23.82	
2025-01-18 02:20:19.65	352.88	23.85	
2025-01-18 02:20:19.85	352.84	23.87	
2025-01-18 02:20:20.05	352.79	23.90	
2025-01-18 02:20:20.25	352.75	23.93	
2025-01-18 02:20:20.46	352.71	23.96	
2025-01-18 02:20:20.66	352.67	23.98	
2025-01-18 02:20:20.86	352.63	24.01	
2025-01-18 02:20:21.07	352.59	24.04	
2025-01-18 02:20:21.27	352.55	24.07	
2025-01-18 02:20:21.47	352.50	24.09	
2025-01-18 02:20:21.68	352.46	24.12	
2025-01-18 02:20:21.88	352.42	24.15	
2025-01-18 02:20:22.08	352.38	24.18	
2025-01-18 02:20:22.28	352.34	24.21	
2025-01-18 02:20:22.49	352.29	24.23	
2025-01-18 02:20:22.69	352.25	24.26	
2025-01-18 02:20:22.89	352.21	24.29	
2025-01-18 02:20:23.10	352.17	24.32	
2025-01-18 02:20:23.30	352.13	24.35	
2025-01-18 02:20:23.50	352.08	24.37	
2025-01-18 02:20:23.71	352.04	24.40	
2025-01-18 02:20:23.91	352.00	24.43	
2025-01-18 02:20:24.11	351.96	24.46	
2025-01-18 02:20:24.31	351.91	24.48	
2025-01-18 02:20:24.52	351.87	24.51	
2025-01-18 02:20:24.72	351.83	24.54	
2025-01-18 02:20:24.92	351.78	24.57	
2025-01-18 02:20:25.13	351.74	24.60	
2025-01-18 02:20:25.33	351.70	24.63	
2025-01-18 02:20:25.53	351.65	24.65	
2025-01-18 02:20:25.73	351.61	24.68	
2025-01-18 02:20:25.94	351.57	24.71	
2025-01-18 02:20:26.14	351.52	24.74	
2025-01-18 02:20:26.34	351.48	24.76	
2025-01-18 02:20:26.55	351.44	24.79	
2025-01-18 02:20:26.75	351.39	24.82	
2025-01-18 02:20:26.95	351.35	24.85	
2025-01-18 02:20:27.16	351.30	24.88	
2025-01-18 02:20:27.36	351.26	24.91	
2025-01-18 02:20:27.56	351.22	24.93	
2025-01-18 02:20:27.76	351.17	24.96	
2025-01-18 02:20:27.97	351.13	24.99	
2025-01-18 02:20:28.17	351.08	25.02	
2025-01-18 02:20:28.37	351.04	25.05	
2025-01-18 02:20:28.58	350.99	25.08	
2025-01-18 02:20:28.78	350.95	25.10	
2025-01-18 02:20:28.98	350.91	25.13	
2025-01-18 02:20:29.19	350.86	25.16	
2025-01-18 02:20:29.39	350.82	25.19	
2025-01-18 02:20:29.59	350.77	25.22	
2025-01-18 02:20:29.79	350.73	25.24	
2025-01-18 02:20:30.00	350.68	25.27	
2025-01-18 02:20:30.20	350.64	25.30	
2025-01-18 02:20:30.40	350.59	25.33	
2025-01-18 02:20:30.61	350.54	25.36	
2025-01-18 02:20:30.81	350.50	25.39	
2025-01-18 02:20:31.01	350.45	25.42	
2025-01-18 02:20:31.22	350.41	25.44	
2025-01-18 02:20:31.42	350.36	25.47	
2025-01-18 02:20:31.62	350.32	25.50	
2025-01-18 02:20:31.82	350.27	25.53	
2025-01-18 02:20:32.03	350.22	25.56	
2025-01-18 02:20:32.23	350.18	25.59	
2025-01-18 02:20:32.43	350.13	25.61	
2025-01-18 02:20:32.64	350.09	25.64	
2025-01-18 02:20:32.84	350.04	25.67	
2025-01-18 02:20:33.04	349.99	25.70	
2025-01-18 02:20:33.25	349.95	25.73	
2025-01-18 02:20:33.45	349.90	25.76	
2025-01-18 02:20:33.65	349.85	25.79	
2025-01-18 02:20:33.85	349.81	25.81	
2025-01-18 02:20:34.06	349.76	25.84	
2025-01-18 02:20:34.26	349.71	25.87	
2025-01-18 02:20:34.46	349.67	25.90	
2025-01-18 02:20:34.67	349.62	25.93	
2025-01-18 02:20:34.87	349.57	25.96	
2025-01-18 02:20:35.07	349.53	25.99	
2025-01-18 02:20:35.27	349.48	26.02	
2025-01-18 02:20:35.48	349.43	26.05	
2025-01-18 02:20:35.68	349.38	26.07	
2025-01-18 02:20:35.88	349.34	26.10	
2025-01-18 02:20:36.09	349.29	26.13	
2025-01-18 02:20:36.29	349.24	26.16	
2025-01-18 02:20:36.49	349.19	26.19	
2025-01-18 02:20:36.70	349.14	26.22	
2025-01-18 02:20:36.90	349.10	26.25	
2025-01-18 02:20:37.10	349.05	26.27	
2025-01-18 02:20:37.30	349.00	26.30	
2025-01-18 02:20:37.51	348.95	26.33	
2025-01-18 02:20:37.71	348.90	26.36	
2025-01-18 02:20:37.91	348.85	26.39	
2025-01-18 02:20:38.12	348.80	26.42	
2025-01-18 02:20:38.32	348.76	26.45	
2025-01-18 02:20:38.52	348.71	26.48	
2025-01-18 02:20:38.73	348.66	26.51	
2025-01-18 02:20:38.93	348.61	26.53	
2025-01-18 02:20:39.13	348.56	26.56	
2025-01-18 02:20:39.33	348.51	26.59	
2025-01-18 02:20:39.54	348.46	26.62	
2025-01-18 02:20:39.74	348.41	26.65	
2025-01-18 02:20:39.94	348.36	26.68	
2025-01-18 02:20:40.15	348.31	26.71	
2025-01-18 02:20:40.35	348.26	26.74	
2025-01-18 02:20:40.55	348.21	26.77	
2025-01-18 02:20:40.76	348.16	26.80	
2025-01-18 02:20:40.96	348.11	26.82	
2025-01-18 02:20:41.16	348.06	26.85	
2025-01-18 02:20:41.36	348.01	26.88	
2025-01-18 02:20:41.57	347.96	26.91	
2025-01-18 02:20:41.77	347.91	26.94	
2025-01-18 02:20:41.97	347.86	26.97	
2025-01-18 02:20:42.18	347.81	27.00	
2025-01-18 02:20:42.38	347.76	27.03	
2025-01-18 02:20:42.58	347.71	27.06	
2025-01-18 02:20:42.79	347.66	27.09	
2025-01-18 02:20:42.99	347.61	27.12	
2025-01-18 02:20:43.19	347.56	27.14	
2025-01-18 02:20:43.39	347.51	27.17	
2025-01-18 02:20:43.60	347.45	27.20	
2025-01-18 02:20:43.80	347.40	27.23	
2025-01-18 02:20:44.00	347.35	27.26	
2025-01-18 02:20:44.21	347.30	27.29	
2025-01-18 02:20:44.41	347.25	27.32	
2025-01-18 02:20:44.61	347.20	27.35	
2025-01-18 02:20:44.81	347.15	27.38	
2025-01-18 02:20:45.02	347.09	27.41	
2025-01-18 02:20:45.22	347.04	27.44	
2025-01-18 02:20:45.42	346.99	27.46	
2025-01-18 02:20:45.63	346.94	27.49	
2025-01-18 02:20:45.83	346.88	27.52	
2025-01-18 02:20:46.03	346.83	27.55	
2025-01-18 02:20:46.24	346.78	27.58	
2025-01-18 02:20:46.44	346.73	27.61	
2025-01-18 02:20:46.64	346.67	27.64	
2025-01-18 02:20:46.84	346.62	27.67	
2025-01-18 02:20:47.05	346.57	27.70	
2025-01-18 02:20:47.25	346.51	27.73	
2025-01-18 02:20:47.45	346.46	27.76	
2025-01-18 02:20:47.66	346.41	27.79	
2025-01-18 02:20:47.86	346.35	27.82	
2025-01-18 02:20:48.06	346.30	27.85	
2025-01-18 02:20:48.27	346.25	27.88	
2025-01-18 02:20:48.47	346.19	27.90	
2025-01-18 02:20:48.67	346.14	27.93	
2025-01-18 02:20:48.87	346.09	27.96	
2025-01-18 02:20:49.08	346.03	27.99	
2025-01-18 02:20:49.28	345.98	28.02	
2025-01-18 02:20:49.48	345.92	28.05	
2025-01-18 02:20:49.69	345.87	28.08	
2025-01-18 02:20:49.89	345.81	28.11	
2025-01-18 02:20:50.09	345.76	28.14	
2025-01-18 02:20:50.30	345.70	28.17	
2025-01-18 02:20:50.50	345.65	28.20	
2025-01-18 02:20:50.70	345.60	28.23	
2025-01-18 02:20:50.90	345.54	28.26	
2025-01-18 02:20:51.11	345.49	28.29	
2025-01-18 02:20:51.31	345.43	28.32	
2025-01-18 02:20:51.51	345.38	28.34	
2025-01-18 02:20:51.72	345.32	28.37	
2025-01-18 02:20:51.92	345.26	28.40	
2025-01-18 02:20:52.12	345.21	28.43	
2025-01-18 02:20:52.33	345.15	28.46	
2025-01-18 02:20:52.53	345.10	28.49	
2025-01-18 02:20:52.73	345.04	28.52	
2025-01-18 02:20:52.93	344.99	28.55	
2025-01-18 02:20:53.14	344.93	28.58	
2025-01-18 02:20:53.34	344.87	28.61	
2025-01-18 02:20:53.54	344.82	28.64	
2025-01-18 02:20:53.75	344.76	28.67	
2025-01-18 02:20:53.95	344.70	28.70	
2025-01-18 02:20:54.15	344.65	28.73	
2025-01-18 02:20:54.35	344.59	28.76	
2025-01-18 02:20:54.56	344.53	28.79	
2025-01-18 02:20:54.76	344.48	28.82	
2025-01-18 02:20:54.96	344.42	28.84	
2025-01-18 02:20:55.17	344.36	28.88	
2025-01-18 02:20:55.37	344.31	28.90	
2025-01-18 02:20:55.57	344.25	28.93	
2025-01-18 02:20:55.78	344.19	28.96	
2025-01-18 02:20:55.98	344.13	28.99	
2025-01-18 02:20:56.18	344.08	29.02	
2025-01-18 02:20:56.38	344.02	29.05	
2025-01-18 02:20:56.59	343.96	29.08	
2025-01-18 02:20:56.79	343.90	29.11	
2025-01-18 02:20:56.99	343.84	29.14	
2025-01-18 02:20:57.20	343.78	29.17	
2025-01-18 02:20:57.40	343.73	29.20	
2025-01-18 02:20:57.60	343.67	29.23	
2025-01-18 02:20:57.81	343.61	29.26	
2025-01-18 02:20:58.01	343.55	29.29	
2025-01-18 02:20:58.21	343.49	29.32	
2025-01-18 02:20:58.41	343.43	29.35	
2025-01-18 02:20:58.62	343.37	29.38	
2025-01-18 02:20:58.82	343.31	29.41	
2025-01-18 02:20:59.02	343.26	29.43	
2025-01-18 02:20:59.23	343.19	29.46	
2025-01-18 02:20:59.43	343.14	29.49	
2025-01-18 02:20:59.63	343.08	29.52	
2025-01-18 02:20:59.84	343.01	29.55	
2025-01-18 02:21:00.04	342.96	29.58	
2025-01-18 02:21:00.24	342.90	29.61	
2025-01-18 02:21:00.44	342.84	29.64	
2025-01-18 02:21:00.65	342.78	29.67	
2025-01-18 02:21:00.85	342.72	29.70	
2025-01-18 02:21:01.05	342.66	29.73	
2025-01-18 02:21:01.26	342.59	29.76	
2025-01-18 02:21:01.46	342.53	29.79	
2025-01-18 02:21:01.66	342.47	29.82	
2025-01-18 02:21:01.87	342.41	29.85	
2025-01-18 02:21:02.07	342.35	29.88	
2025-01-18 02:21:02.27	342.29	29.91	
2025-01-18 02:21:02.47	342.23	29.94	
2025-01-18 02:21:02.68	342.17	29.97	
2025-01-18 02:21:02.88	342.11	29.99	
2025-01-18 02:21:03.08	342.04	30.02	
2025-01-18 02:21:03.29	341.98	30.05	
2025-01-18 02:21:03.49	341.92	30.08	
2025-01-18 02:21:03.69	341.86	30.11	
2025-01-18 02:21:03.90	341.79	30.14	
2025-01-18 02:21:04.10	341.73	30.17	
2025-01-18 02:21:04.30	341.67	30.20	
2025-01-18 02:21:04.50	341.61	30.23	
2025-01-18 02:21:04.71	341.55	30.26	
2025-01-18 02:21:04.91	341.48	30.29	
2025-01-18 02:21:05.11	341.42	30.32	
2025-01-18 02:21:05.32	341.36	30.35	
2025-01-18 02:21:05.52	341.29	30.38	
2025-01-18 02:21:05.72	341.23	30.41	
2025-01-18 02:21:05.92	341.17	30.43	
2025-01-18 02:21:06.13	341.10	30.47	
2025-01-18 02:21:06.33	341.04	30.49	
2025-01-18 02:21:06.53	340.98	30.52	
2025-01-18 02:21:06.74	340.91	30.55	
2025-01-18 02:21:06.94	340.85	30.58	
2025-01-18 02:21:07.14	340.79	30.61	
2025-01-18 02:21:07.35	340.72	30.64	
2025-01-18 02:21:07.55	340.66	30.67	
2025-01-18 02:21:07.75	340.59	30.70	
2025-01-18 02:21:07.95	340.53	30.73	
2025-01-18 02:21:08.16	340.46	30.76	
2025-01-18 02:21:08.36	340.40	30.79	
2025-01-18 02:21:08.56	340.34	30.82	
2025-01-18 02:21:08.77	340.27	30.85	
2025-01-18 02:21:08.97	340.20	30.88	
2025-01-18 02:21:09.17	340.14	30.90	
2025-01-18 02:21:09.38	340.07	30.93	
2025-01-18 02:21:09.58	340.01	30.96	
2025-01-18 02:21:09.78	339.94	30.99	
2025-01-18 02:21:09.98	339.88	31.02	
2025-01-18 02:21:10.19	339.81	31.05	
2025-01-18 02:21:10.39	339.75	31.08	
2025-01-18 02:21:10.59	339.68	31.11	
2025-01-18 02:21:10.80	339.61	31.14	
2025-01-18 02:21:11.00	339.55	31.17	
2025-01-18 02:21:11.20	339.48	31.20	
2025-01-18 02:21:11.41	339.41	31.23	
2025-01-18 02:21:11.61	339.35	31.25	
2025-01-18 02:21:11.81	339.28	31.28	
2025-01-18 02:21:12.01	339.21	31.31	
2025-01-18 02:21:12.22	339.15	31.34	
2025-01-18 02:21:12.42	339.08	31.37	
2025-01-18 02:21:12.62	339.01	31.40	
2025-01-18 02:21:12.83	338.94	31.43	
2025-01-18 02:21:13.03	338.88	31.46	
2025-01-18 02:21:13.23	338.81	31.49	
2025-01-18 02:21:13.44	338.74	31.52	
2025-01-18 02:21:13.64	338.67	31.55	
2025-01-18 02:21:13.84	338.60	31.57	
2025-01-18 02:21:14.04	338.54	31.60	
2025-01-18 02:21:14.25	338.47	31.63	
2025-01-18 02:21:14.45	338.40	31.66	
2025-01-18 02:21:14.65	338.33	31.69	
2025-01-18 02:21:14.86	338.26	31.72	
2025-01-18 02:21:15.06	338.19	31.75	
2025-01-18 02:21:15.26	338.12	31.78	
2025-01-18 02:21:15.46	338.06	31.80	
2025-01-18 02:21:15.67	337.99	31.83	
2025-01-18 02:21:15.87	337.92	31.86	
2025-01-18 02:21:16.07	337.85	31.89	
2025-01-18 02:21:16.28	337.78	31.92	
2025-01-18 02:21:16.48	337.71	31.95	
2025-01-18 02:21:16.68	337.64	31.98	
2025-01-18 02:21:16.89	337.57	32.01	
2025-01-18 02:21:17.09	337.50	32.04	
2025-01-18 02:21:17.29	337.43	32.06	
2025-01-18 02:21:17.49	337.36	32.09	
2025-01-18 02:21:17.70	337.29	32.12	
2025-01-18 02:21:17.90	337.22	32.15	
2025-01-18 02:21:18.10	337.15	32.18	
2025-01-18 02:21:18.31	337.07	32.21	
2025-01-18 02:21:18.51	337.00	32.24	
2025-01-18 02:21:18.71	336.93	32.26	
2025-01-18 02:21:18.92	336.86	32.29	
2025-01-18 02:21:19.12	336.79	32.32	
2025-01-18 02:21:19.32	336.72	32.35	
2025-01-18 02:21:19.52	336.65	32.38	
2025-01-18 02:21:19.73	336.57	32.41	
2025-01-18 02:21:19.93	336.50	32.44	
2025-01-18 02:21:20.13	336.43	32.46	
2025-01-18 02:21:20.34	336.36	32.49	
2025-01-18 02:21:20.54	336.28	32.52	
2025-01-18 02:21:20.74	336.21	32.55	
2025-01-18 02:21:20.95	336.14	32.58	
2025-01-18 02:21:21.15	336.07	32.61	
2025-01-18 02:21:21.35	335.99	32.63	
2025-01-18 02:21:21.55	335.92	32.66	
2025-01-18 02:21:21.76	335.85	32.69	
2025-01-18 02:21:21.96	335.77	32.72	
2025-01-18 02:21:22.16	335.70	32.75	
2025-01-18 02:21:22.37	335.63	32.78	
2025-01-18 02:21:22.57	335.55	32.80	
2025-01-18 02:21:22.77	335.48	32.83	
2025-01-18 02:21:22.98	335.40	32.86	
2025-01-18 02:21:23.18	335.33	32.89	
2025-01-18 02:21:23.38	335.26	32.92	
2025-01-18 02:21:23.58	335.19	32.94	
2025-01-18 02:21:23.79	335.11	32.97	
2025-01-18 02:21:23.99	335.03	33.00	
2025-01-18 02:21:24.19	334.96	33.03	
2025-01-18 02:21:24.40	334.88	33.06	
2025-01-18 02:21:24.60	334.81	33.08	
2025-01-18 02:21:24.80	334.74	33.11	
2025-01-18 02:21:25.00	334.66	33.14	
2025-01-18 02:21:25.21	334.58	33.17	
2025-01-18 02:21:25.41	334.51	33.19	
2025-01-18 02:21:25.61	334.43	33.22	
2025-01-18 02:21:25.82	334.36	33.25	
2025-01-18 02:21:26.02	334.28	33.28	
2025-01-18 02:21:26.22	334.21	33.30	
2025-01-18 02:21:26.43	334.13	33.33	
2025-01-18 02:21:26.63	334.05	33.36	
2025-01-18 02:21:26.83	333.98	33.39	
2025-01-18 02:21:27.03	333.90	33.41	
2025-01-18 02:21:27.24	333.82	33.44	
2025-01-18 02:21:27.44	333.75	33.47	
2025-01-18 02:21:27.64	333.67	33.50	
2025-01-18 02:21:27.85	333.59	33.53	
2025-01-18 02:21:28.05	333.51	33.55	
2025-01-18 02:21:28.25	333.44	33.58	
2025-01-18 02:21:28.46	333.36	33.61	
2025-01-18 02:21:28.66	333.28	33.63	
2025-01-18 02:21:28.86	333.20	33.66	
2025-01-18 02:21:29.06	333.13	33.69	
2025-01-18 02:21:29.27	333.05	33.72	
2025-01-18 02:21:29.47	332.97	33.74	
2025-01-18 02:21:29.67	332.89	33.77	
2025-01-18 02:21:29.88	332.81	33.80	
2025-01-18 02:21:30.08	332.73	33.82	
2025-01-18 02:21:30.28	332.66	33.85	
2025-01-18 02:21:30.49	332.57	33.88	
2025-01-18 02:21:30.69	332.50	33.91	
2025-01-18 02:21:30.89	332.42	33.93	
2025-01-18 02:21:31.09	332.34	33.96	
2025-01-18 02:21:31.30	332.26	33.99	
2025-01-18 02:21:31.50	332.18	34.01	
2025-01-18 02:21:31.70	332.10	34.04	
2025-01-18 02:21:31.91	332.02	34.07	
2025-01-18 02:21:32.11	331.94	34.09	
2025-01-18 02:21:32.31	331.86	34.12	
2025-01-18 02:21:32.52	331.78	34.15	
2025-01-18 02:21:32.72	331.70	34.17	
2025-01-18 02:21:32.92	331.62	34.20	
2025-01-18 02:21:33.12	331.54	34.23	
2025-01-18 02:21:33.33	331.46	34.25	
2025-01-18 02:21:33.53	331.38	34.28	
2025-01-18 02:21:33.73	331.30	34.30	
2025-01-18 02:21:33.94	331.21	34.33	
2025-01-18 02:21:34.14	331.13	34.36	
2025-01-18 02:21:34.34	331.05	34.38	
2025-01-18 02:21:34.54	330.97	34.41	
2025-01-18 02:21:34.75	330.89	34.44	
2025-01-18 02:21:34.95	330.81	34.46	
2025-01-18 02:21:35.15	330.72	34.49	
2025-01-18 02:21:35.36	330.64	34.52	
2025-01-18 02:21:35.56	330.56	34.54	
2025-01-18 02:21:35.76	330.48	34.57	
2025-01-18 02:21:35.97	330.39	34.59	
2025-01-18 02:21:36.17	330.31	34.62	
2025-01-18 02:21:36.37	330.23	34.64	
2025-01-18 02:21:36.57	330.15	34.67	
2025-01-18 02:21:36.78	330.06	34.70	
2025-01-18 02:21:36.98	329.98	34.72	
2025-01-18 02:21:37.18	329.90	34.75	
2025-01-18 02:21:37.39	329.81	34.77	
2025-01-18 02:21:37.59	329.73	34.80	
2025-01-18 02:21:37.79	329.65	34.82	
2025-01-18 02:21:38.00	329.56	34.85	
2025-01-18 02:21:38.20	329.48	34.88	
2025-01-18 02:21:38.40	329.39	34.90	
2025-01-18 02:21:38.60	329.31	34.93	
2025-01-18 02:21:38.81	329.22	34.95	
2025-01-18 02:21:39.01	329.14	34.98	
2025-01-18 02:21:39.21	329.06	35.00	
2025-01-18 02:21:39.42	328.97	35.03	
2025-01-18 02:21:39.62	328.88	35.05	
2025-01-18 02:21:39.82	328.80	35.08	
2025-01-18 02:21:40.03	328.71	35.10	
2025-01-18 02:21:40.23	328.63	35.13	
2025-01-18 02:21:40.43	328.54	35.15	
2025-01-18 02:21:40.63	328.46	35.18	
2025-01-18 02:21:40.84	328.37	35.20	
2025-01-18 02:21:41.04	328.29	35.23	
2025-01-18 02:21:41.24	328.20	35.25	
2025-01-18 02:21:41.45	328.11	35.28	
2025-01-18 02:21:41.65	328.03	35.30	
2025-01-18 02:21:41.85	327.94	35.32	
2025-01-18 02:21:42.06	327.85	35.35	
2025-01-18 02:21:42.26	327.77	35.37	
2025-01-18 02:21:42.46	327.68	35.40	
2025-01-18 02:21:42.66	327.59	35.42	
2025-01-18 02:21:42.87	327.50	35.45	
2025-01-18 02:21:43.07	327.42	35.47	
2025-01-18 02:21:43.27	327.33	35.49	
2025-01-18 02:21:43.48	327.24	35.52	
2025-01-18 02:21:43.68	327.15	35.54	
2025-01-18 02:21:43.88	327.07	35.57	
2025-01-18 02:21:44.09	326.98	35.59	
2025-01-18 02:21:44.29	326.89	35.61	
2025-01-18 02:21:44.49	326.80	35.64	
2025-01-18 02:21:44.69	326.72	35.66	
2025-01-18 02:21:44.90	326.62	35.69	
2025-01-18 02:21:45.10	326.54	35.71	
2025-01-18 02:21:45.30	326.45	35.73	
2025-01-18 02:21:45.51	326.36	35.76	
2025-01-18 02:21:45.71	326.27	35.78	
2025-01-18 02:21:45.91	326.18	35.80	
2025-01-18 02:21:46.11	326.09	35.83	
2025-01-18 02:21:46.32	326.00	35.85	
2025-01-18 02:21:46.52	325.91	35.87	
2025-01-18 02:21:46.72	325.82	35.90	
2025-01-18 02:21:46.93	325.73	35.92	
2025-01-18 02:21:47.13	325.64	35.94	
2025-01-18 02:21:47.33	325.55	35.97	
2025-01-18 02:21:47.54	325.46	35.99	
2025-01-18 02:21:47.74	325.37	36.01	
2025-01-18 02:21:47.94	325.28	36.03	
2025-01-18 02:21:48.14	325.19	36.06	
2025-01-18 02:21:48.35	325.10	36.08	
2025-01-18 02:21:48.55	325.01	36.10	
2025-01-18 02:21:48.75	324.92	36.12	
2025-01-18 02:21:48.96	324.83	36.15	
2025-01-18 02:21:49.16	324.74	36.17	
2025-01-18 02:21:49.36	324.65	36.19	
2025-01-18 02:21:49.57	324.55	36.21	
2025-01-18 02:21:49.77	324.46	36.24	
2025-01-18 02:21:49.97	324.37	36.26	
2025-01-18 02:21:50.17	324.28	36.28	
2025-01-18 02:21:50.38	324.18	36.30	
2025-01-18 02:21:50.58	324.09	36.32	
2025-01-18 02:21:50.78	324.00	36.35	
2025-01-18 02:21:50.99	323.91	36.37	
2025-01-18 02:21:51.19	323.82	36.39	
2025-01-18 02:21:51.39	323.72	36.41	
2025-01-18 02:21:51.60	323.63	36.43	
2025-01-18 02:21:51.80	323.54	36.46	
2025-01-18 02:21:52.00	323.45	36.48	
2025-01-18 02:21:52.20	323.35	36.50	
2025-01-18 02:21:52.41	323.26	36.52	
2025-01-18 02:21:52.61	323.17	36.54	
2025-01-18 02:21:52.81	323.07	36.56	
2025-01-18 02:21:53.02	322.98	36.58	
2025-01-18 02:21:53.22	322.88	36.60	
2025-01-18 02:21:53.42	322.79	36.62	
2025-01-18 02:21:53.63	322.69	36.65	
2025-01-18 02:21:53.83	322.60	36.67	
2025-01-18 02:21:54.03	322.51	36.69	
2025-01-18 02:21:54.23	322.41	36.71	
2025-01-18 02:21:54.44	322.32	36.73	
2025-01-18 02:21:54.64	322.22	36.75	
2025-01-18 02:21:54.84	322.13	36.77	
2025-01-18 02:21:55.05	322.03	36.79	
2025-01-18 02:21:55.25	321.94	36.81	
2025-01-18 02:21:55.45	321.84	36.83	
2025-01-18 02:21:55.65	321.75	36.85	
2025-01-18 02:21:55.86	321.65	36.87	
2025-01-18 02:21:56.06	321.56	36.89	
2025-01-18 02:21:56.26	321.46	36.91	
2025-01-18 02:21:56.47	321.36	36.93	
2025-01-18 02:21:56.67	321.27	36.95	
2025-01-18 02:21:56.87	321.18	36.97	
2025-01-18 02:21:57.08	321.08	36.99	
2025-01-18 02:21:57.28	320.98	37.01	
2025-01-18 02:21:57.48	320.89	37.03	
2025-01-18 02:21:57.68	320.79	37.05	
2025-01-18 02:21:57.89	320.69	37.07	
2025-01-18 02:21:58.09	320.60	37.09	
2025-01-18 02:21:58.29	320.50	37.11	
2025-01-18 02:21:58.50	320.40	37.13	
2025-01-18 02:21:58.70	320.30	37.14	
2025-01-18 02:21:58.90	320.21	37.16	
2025-01-18 02:21:59.11	320.11	37.18	
2025-01-18 02:21:59.31	320.01	37.20	
2025-01-18 02:21:59.51	319.92	37.22	
2025-01-18 02:21:59.71	319.82	37.24	
2025-01-18 02:21:59.92	319.72	37.26	
2025-01-18 02:22:00.12	319.62	37.27	
2025-01-18 02:22:00.32	319.53	37.29	
2025-01-18 02:22:00.53	319.42	37.31	
2025-01-18 02:22:00.73	319.33	37.33	
2025-01-18 02:22:00.93	319.23	37.35	
2025-01-18 02:22:01.14	319.13	37.37	
2025-01-18 02:22:01.34	319.03	37.38	
2025-01-18 02:22:01.54	318.93	37.40	
2025-01-18 02:22:01.74	318.84	37.42	
2025-01-18 02:22:01.96	318.73	37.44	
2025-01-18 02:22:02.17	318.63	37.46	
2025-01-18 02:22:02.37	318.53	37.47	
2025-01-18 02:22:02.57	318.43	37.49	
2025-01-18 02:22:02.77	318.33	37.51	
2025-01-18 02:22:02.98	318.23	37.53	
2025-01-18 02:22:03.18	318.13	37.54	
2025-01-18 02:22:03.38	318.03	37.56	
2025-01-18 02:22:03.59	317.93	37.58	
2025-01-18 02:22:03.79	317.83	37.59	
2025-01-18 02:22:03.99	317.73	37.61	
2025-01-18 02:22:04.20	317.63	37.63	
2025-01-18 02:22:04.40	317.53	37.64	
2025-01-18 02:22:04.60	317.43	37.66	
2025-01-18 02:22:04.80	317.33	37.68	
2025-01-18 02:22:05.01	317.23	37.69	
2025-01-18 02:22:05.21	317.13	37.71	
2025-01-18 02:22:05.41	317.03	37.73	
2025-01-18 02:22:05.62	316.93	37.74	
2025-01-18 02:22:05.82	316.83	37.76	
2025-01-18 02:22:06.02	316.73	37.77	
2025-01-18 02:22:06.23	316.62	37.79	
2025-01-18 02:22:06.43	316.52	37.81	
2025-01-18 02:22:06.63	316.42	37.82	
2025-01-18 02:22:06.83	316.32	37.84	
2025-01-18 02:22:07.04	316.22	37.85	
2025-01-18 02:22:07.24	316.12	37.87	
2025-01-18 02:22:07.44	316.02	37.88	
2025-01-18 02:22:07.65	315.91	37.90	
2025-01-18 02:22:07.85	315.81	37.91	
2025-01-18 02:22:08.05	315.71	37.93	
2025-01-18 02:22:08.26	315.61	37.94	
2025-01-18 02:22:08.46	315.51	37.96	
2025-01-18 02:22:08.66	315.40	37.97	
2025-01-18 02:22:08.86	315.30	37.99	
2025-01-18 02:22:09.07	315.20	38.00	
2025-01-18 02:22:09.27	315.10	38.02	
2025-01-18 02:22:09.47	315.00	38.03	
2025-01-18 02:22:09.68	314.89	38.04	
2025-01-18 02:22:09.88	314.79	38.06	
2025-01-18 02:22:10.08	314.69	38.07	
2025-01-18 02:22:10.29	314.58	38.09	
2025-01-18 02:22:10.49	314.48	38.10	
2025-01-18 02:22:10.69	314.38	38.11	
2025-01-18 02:22:10.89	314.27	38.13	
2025-01-18 02:22:11.10	314.17	38.14	
2025-01-18 02:22:11.30	314.06	38.15	
2025-01-18 02:22:11.50	313.96	38.17	
2025-01-18 02:22:11.71	313.86	38.18	
2025-01-18 02:22:11.91	313.75	38.19	
2025-01-18 02:22:12.11	313.65	38.21	
2025-01-18 02:22:12.31	313.55	38.22	
2025-01-18 02:22:12.52	313.44	38.23	
2025-01-18 02:22:12.72	313.34	38.25	
2025-01-18 02:22:12.92	313.24	38.26	
2025-01-18 02:22:13.13	313.13	38.27	
2025-01-18 02:22:13.33	313.02	38.28	
2025-01-18 02:22:13.53	312.92	38.29	
2025-01-18 02:22:13.74	312.81	38.31	
2025-01-18 02:22:13.94	312.71	38.32	
2025-01-18 02:22:14.14	312.61	38.33	
2025-01-18 02:22:14.34	312.50	38.34	
2025-01-18 02:22:14.55	312.40	38.36	
2025-01-18 02:22:14.75	312.29	38.37	
2025-01-18 02:22:14.95	312.19	38.38	
2025-01-18 02:22:15.16	312.08	38.39	
2025-01-18 02:22:15.36	311.98	38.40	
2025-01-18 02:22:15.56	311.87	38.41	
2025-01-18 02:22:15.77	311.76	38.42	
2025-01-18 02:22:15.97	311.66	38.43	
2025-01-18 02:22:16.17	311.56	38.45	
2025-01-18 02:22:16.37	311.45	38.46	
2025-01-18 02:22:16.58	311.34	38.47	
2025-01-18 02:22:16.78	311.24	38.48	
2025-01-18 02:22:16.98	311.13	38.49	
2025-01-18 02:22:17.19	311.03	38.50	
2025-01-18 02:22:17.39	310.92	38.51	
2025-01-18 02:22:17.59	310.82	38.52	
2025-01-18 02:22:17.80	310.71	38.53	
2025-01-18 02:22:18.00	310.60	38.54	
2025-01-18 02:22:18.20	310.50	38.55	
2025-01-18 02:22:18.40	310.39	38.56	
2025-01-18 02:22:18.61	310.28	38.57	
2025-01-18 02:22:18.81	310.18	38.58	
2025-01-18 02:22:19.01	310.07	38.59	
2025-01-18 02:22:19.22	309.96	38.60	
2025-01-18 02:22:19.42	309.86	38.61	
2025-01-18 02:22:19.62	309.75	38.62	
2025-01-18 02:22:19.83	309.64	38.63	
2025-01-18 02:22:20.03	309.54	38.63	
2025-01-18 02:22:20.23	309.43	38.64	
2025-01-18 02:22:20.43	309.33	38.65	
2025-01-18 02:22:20.64	309.22	38.66	
2025-01-18 02:22:20.84	309.11	38.67	
2025-01-18 02:22:21.04	309.01	38.68	
2025-01-18 02:22:21.25	308.89	38.69	
2025-01-18 02:22:21.45	308.79	38.69	
2025-01-18 02:22:21.65	308.68	38.70	
2025-01-18 02:22:21.85	308.58	38.71	
2025-01-18 02:22:22.06	308.47	38.72	
2025-01-18 02:22:22.26	308.36	38.73	
2025-01-18 02:22:22.46	308.25	38.73	
2025-01-18 02:22:22.67	308.14	38.74	
2025-01-18 02:22:22.87	308.04	38.75	
2025-01-18 02:22:23.07	307.93	38.76	
2025-01-18 02:22:23.28	307.82	38.76	
2025-01-18 02:22:23.48	307.71	38.77	
2025-01-18 02:22:23.68	307.61	38.78	
2025-01-18 02:22:23.88	307.50	38.78	
2025-01-18 02:22:24.09	307.39	38.79	
2025-01-18 02:22:24.29	307.28	38.80	
2025-01-18 02:22:24.49	307.18	38.80	
2025-01-18 02:22:24.70	307.07	38.81	
2025-01-18 02:22:24.90	306.96	38.82	
2025-01-18 02:22:25.10	306.85	38.82	
2025-01-18 02:22:25.31	306.74	38.83	
2025-01-18 02:22:25.51	306.64	38.83	
2025-01-18 02:22:25.71	306.53	38.84	
2025-01-18 02:22:25.91	306.42	38.85	
2025-01-18 02:22:26.12	306.31	38.85	
2025-01-18 02:22:26.32	306.20	38.86	
2025-01-18 02:22:26.52	306.10	38.86	
2025-01-18 02:22:26.73	305.98	38.87	
2025-01-18 02:22:26.93	305.88	38.87	
2025-01-18 02:22:27.13	305.77	38.88	
2025-01-18 02:22:27.34	305.66	38.88	
2025-01-18 02:22:27.54	305.55	38.89	
2025-01-18 02:22:27.74	305.44	38.89	
2025-01-18 02:22:27.94	305.34	38.90	
2025-01-18 02:22:28.15	305.23	38.90	
2025-01-18 02:22:28.35	305.12	38.91	
2025-01-18 02:22:28.55	305.01	38.91	
2025-01-18 02:22:28.76	304.90	38.91	
2025-01-18 02:22:28.96	304.79	38.92	
2025-01-18 02:22:29.16	304.68	38.92	
2025-01-18 02:22:29.37	304.57	38.93	
2025-01-18 02:22:29.57	304.46	38.93	
2025-01-18 02:22:29.77	304.36	38.93	
2025-01-18 02:22:29.97	304.25	38.94	
2025-01-18 02:22:30.18	304.14	38.94	
2025-01-18 02:22:30.38	304.03	38.94	
2025-01-18 02:22:30.58	303.92	38.95	
2025-01-18 02:22:30.79	303.81	38.95	
2025-01-18 02:22:30.99	303.70	38.95	
2025-01-18 02:22:31.19	303.60	38.95	
2025-01-18 02:22:31.39	303.49	38.96	
2025-01-18 02:22:31.60	303.38	38.96	
2025-01-18 02:22:31.80	303.27	38.96	
2025-01-18 02:22:32.00	303.16	38.96	
2025-01-18 02:22:32.21	303.05	38.97	
2025-01-18 02:22:32.41	302.94	38.97	
2025-01-18 02:22:32.61	302.83	38.97	
2025-01-18 02:22:32.82	302.72	38.97	
2025-01-18 02:22:33.02	302.61	38.97	
2025-01-18 02:22:33.22	302.50	38.98	
