passes_logs/2025/01/18/SPB_Silybum_02/SPB_Silybum_02__20250118_064304_TERRA_rec.log

#Pass ID: 20250118_064304_TERRA
#Satellite: TERRA
#Configuration: TERRA
#Start time: 2025-01-18 06:43:03

#Version: 2.0.20230423
#Station: SPB_Silybum_02
#Location: 30.233357 lon 59.946436 lat
#TLE: 1 25994U 99068A   25017.80257355  .00000903  00000+0  19577-3 0  9994
#TLE: 2 25994  98.0211  80.7437 0003372  66.8373  47.3878 14.60400955334482

#Time	Az	El	Level	Level2	SNR	BER	Gain	Gain2
2025-01-18 06:43:06.03	28.52	4.11	
2025-01-18 06:43:06.23	28.54	4.12	
2025-01-18 06:43:06.43	28.56	4.13	
2025-01-18 06:43:06.64	28.58	4.14	
2025-01-18 06:43:06.84	28.60	4.15	
2025-01-18 06:43:07.04	28.62	4.16	
2025-01-18 06:43:07.25	28.64	4.18	
2025-01-18 06:43:07.45	28.66	4.19	
2025-01-18 06:43:07.65	28.68	4.20	
2025-01-18 06:43:07.86	28.70	4.21	
2025-01-18 06:43:08.06	28.72	4.22	
2025-01-18 06:43:08.26	28.74	4.23	
2025-01-18 06:43:08.46	28.76	4.25	
2025-01-18 06:43:08.67	28.78	4.26	
2025-01-18 06:43:08.87	28.80	4.27	
2025-01-18 06:43:09.07	28.82	4.28	
2025-01-18 06:43:09.28	28.84	4.29	
2025-01-18 06:43:09.48	28.86	4.31	
2025-01-18 06:43:09.68	28.88	4.32	
2025-01-18 06:43:09.89	28.90	4.33	
2025-01-18 06:43:10.09	28.92	4.34	
2025-01-18 06:43:10.29	28.94	4.35	
2025-01-18 06:43:10.49	28.96	4.36	
2025-01-18 06:43:10.70	28.98	4.38	
2025-01-18 06:43:10.90	29.00	4.39	
2025-01-18 06:43:11.10	29.02	4.40	
2025-01-18 06:43:11.31	29.04	4.41	
2025-01-18 06:43:11.51	29.06	4.42	
2025-01-18 06:43:11.71	29.08	4.44	
2025-01-18 06:43:11.92	29.10	4.45	
2025-01-18 06:43:12.12	29.12	4.46	
2025-01-18 06:43:12.32	29.14	4.47	
2025-01-18 06:43:12.53	29.16	4.48	
2025-01-18 06:43:12.73	29.18	4.49	
2025-01-18 06:43:12.93	29.20	4.51	
2025-01-18 06:43:13.14	29.22	4.52	
2025-01-18 06:43:13.34	29.24	4.53	
2025-01-18 06:43:13.54	29.26	4.54	
2025-01-18 06:43:13.74	29.28	4.55	
2025-01-18 06:43:13.95	29.30	4.57	
2025-01-18 06:43:14.15	29.32	4.58	
2025-01-18 06:43:14.35	29.34	4.59	
2025-01-18 06:43:14.56	29.36	4.60	
2025-01-18 06:43:14.76	29.38	4.61	
2025-01-18 06:43:14.96	29.40	4.62	
2025-01-18 06:43:15.17	29.42	4.64	
2025-01-18 06:43:15.37	29.44	4.65	
2025-01-18 06:43:15.57	29.47	4.66	
2025-01-18 06:43:15.77	29.49	4.67	
2025-01-18 06:43:15.98	29.51	4.68	
2025-01-18 06:43:16.18	29.53	4.70	
2025-01-18 06:43:16.38	29.55	4.71	
2025-01-18 06:43:16.59	29.57	4.72	
2025-01-18 06:43:16.79	29.59	4.73	
2025-01-18 06:43:16.99	29.61	4.74	
2025-01-18 06:43:17.20	29.63	4.76	
2025-01-18 06:43:17.40	29.65	4.77	
2025-01-18 06:43:17.60	29.67	4.78	
2025-01-18 06:43:17.81	29.69	4.79	
2025-01-18 06:43:18.01	29.71	4.80	
2025-01-18 06:43:18.21	29.73	4.81	
2025-01-18 06:43:18.41	29.75	4.83	
2025-01-18 06:43:18.62	29.78	4.84	
2025-01-18 06:43:18.82	29.80	4.85	
2025-01-18 06:43:19.02	29.82	4.86	
2025-01-18 06:43:19.23	29.84	4.87	
2025-01-18 06:43:19.43	29.86	4.89	
2025-01-18 06:43:19.63	29.88	4.90	
2025-01-18 06:43:19.84	29.90	4.91	
2025-01-18 06:43:20.04	29.92	4.92	
2025-01-18 06:43:20.24	29.94	4.93	
2025-01-18 06:43:20.45	29.96	4.95	
2025-01-18 06:43:20.65	29.98	4.96	
2025-01-18 06:43:20.85	30.01	4.97	
2025-01-18 06:43:21.05	30.03	4.98	
2025-01-18 06:43:21.26	30.05	4.99	
2025-01-18 06:43:21.46	30.07	5.01	
2025-01-18 06:43:21.66	30.09	5.02	
2025-01-18 06:43:21.87	30.11	5.03	
2025-01-18 06:43:22.07	30.13	5.04	
2025-01-18 06:43:22.27	30.15	5.05	
2025-01-18 06:43:22.48	30.17	5.07	
2025-01-18 06:43:22.68	30.20	5.08	
2025-01-18 06:43:22.88	30.22	5.09	
2025-01-18 06:43:23.09	30.24	5.10	
2025-01-18 06:43:23.29	30.26	5.11	
2025-01-18 06:43:23.49	30.28	5.13	
2025-01-18 06:43:23.69	30.30	5.14	
2025-01-18 06:43:23.90	30.32	5.15	
2025-01-18 06:43:24.10	30.34	5.16	
2025-01-18 06:43:24.30	30.37	5.17	
2025-01-18 06:43:24.51	30.39	5.19	
2025-01-18 06:43:24.71	30.41	5.20	
2025-01-18 06:43:24.91	30.43	5.21	
2025-01-18 06:43:25.12	30.45	5.22	
2025-01-18 06:43:25.32	30.47	5.23	
2025-01-18 06:43:25.52	30.49	5.25	
2025-01-18 06:43:25.73	30.52	5.26	
2025-01-18 06:43:25.93	30.54	5.27	
2025-01-18 06:43:26.13	30.56	5.28	
2025-01-18 06:43:26.33	30.58	5.29	
2025-01-18 06:43:26.54	30.60	5.31	
2025-01-18 06:43:26.74	30.62	5.32	
2025-01-18 06:43:26.94	30.64	5.33	
2025-01-18 06:43:27.15	30.67	5.34	
2025-01-18 06:43:27.35	30.69	5.35	
2025-01-18 06:43:27.55	30.71	5.37	
2025-01-18 06:43:27.76	30.73	5.38	
2025-01-18 06:43:27.96	30.75	5.39	
2025-01-18 06:43:28.16	30.77	5.40	
2025-01-18 06:43:28.37	30.80	5.41	
2025-01-18 06:43:28.57	30.82	5.43	
2025-01-18 06:43:28.77	30.84	5.44	
2025-01-18 06:43:28.97	30.86	5.45	
2025-01-18 06:43:29.18	30.88	5.46	
2025-01-18 06:43:29.38	30.90	5.47	
2025-01-18 06:43:29.58	30.93	5.49	
2025-01-18 06:43:29.79	30.95	5.50	
2025-01-18 06:43:29.99	30.97	5.51	
2025-01-18 06:43:30.19	30.99	5.52	
2025-01-18 06:43:30.40	31.01	5.54	
2025-01-18 06:43:30.60	31.04	5.55	
2025-01-18 06:43:30.80	31.06	5.56	
2025-01-18 06:43:31.01	31.08	5.57	
2025-01-18 06:43:31.21	31.10	5.58	
2025-01-18 06:43:31.41	31.12	5.60	
2025-01-18 06:43:31.61	31.14	5.61	
2025-01-18 06:43:31.82	31.17	5.62	
2025-01-18 06:43:32.02	31.19	5.63	
2025-01-18 06:43:32.22	31.21	5.64	
2025-01-18 06:43:32.43	31.23	5.66	
2025-01-18 06:43:32.63	31.25	5.67	
2025-01-18 06:43:32.83	31.28	5.68	
2025-01-18 06:43:33.04	31.30	5.69	
2025-01-18 06:43:33.24	31.32	5.70	
2025-01-18 06:43:33.44	31.34	5.72	
2025-01-18 06:43:33.65	31.37	5.73	
2025-01-18 06:43:33.85	31.39	5.74	
2025-01-18 06:43:34.05	31.41	5.75	
2025-01-18 06:43:34.25	31.43	5.77	
2025-01-18 06:43:34.46	31.45	5.78	
2025-01-18 06:43:34.66	31.48	5.79	
2025-01-18 06:43:34.86	31.50	5.80	
2025-01-18 06:43:35.07	31.52	5.81	
2025-01-18 06:43:35.27	31.54	5.83	
2025-01-18 06:43:35.47	31.57	5.84	
2025-01-18 06:43:35.68	31.59	5.85	
2025-01-18 06:43:35.88	31.61	5.86	
2025-01-18 06:43:36.08	31.63	5.87	
2025-01-18 06:43:36.29	31.66	5.89	
2025-01-18 06:43:36.49	31.68	5.90	
2025-01-18 06:43:36.69	31.70	5.91	
2025-01-18 06:43:36.89	31.72	5.92	
2025-01-18 06:43:37.10	31.75	5.94	
2025-01-18 06:43:37.30	31.77	5.95	
2025-01-18 06:43:37.50	31.79	5.96	
2025-01-18 06:43:37.71	31.81	5.97	
2025-01-18 06:43:37.91	31.84	5.98	
2025-01-18 06:43:38.11	31.86	6.00	
2025-01-18 06:43:38.32	31.88	6.01	
2025-01-18 06:43:38.52	31.90	6.02	
2025-01-18 06:43:38.72	31.93	6.03	
2025-01-18 06:43:38.93	31.95	6.05	
2025-01-18 06:43:39.13	31.97	6.06	
2025-01-18 06:43:39.33	31.99	6.07	
2025-01-18 06:43:39.53	32.02	6.08	
2025-01-18 06:43:39.74	32.04	6.09	
2025-01-18 06:43:39.94	32.06	6.11	
2025-01-18 06:43:40.14	32.08	6.12	
2025-01-18 06:43:40.35	32.11	6.13	
2025-01-18 06:43:40.55	32.13	6.14	
2025-01-18 06:43:40.75	32.15	6.16	
2025-01-18 06:43:40.96	32.18	6.17	
2025-01-18 06:43:41.16	32.20	6.18	
2025-01-18 06:43:41.36	32.22	6.19	
2025-01-18 06:43:41.57	32.25	6.21	
2025-01-18 06:43:41.77	32.27	6.22	
2025-01-18 06:43:41.97	32.29	6.23	
2025-01-18 06:43:42.17	32.31	6.24	
2025-01-18 06:43:42.38	32.34	6.25	
2025-01-18 06:43:42.58	32.36	6.27	
2025-01-18 06:43:42.78	32.38	6.28	
2025-01-18 06:43:42.99	32.41	6.29	
2025-01-18 06:43:43.19	32.43	6.30	
2025-01-18 06:43:43.39	32.45	6.32	
2025-01-18 06:43:43.60	32.48	6.33	
2025-01-18 06:43:43.80	32.50	6.34	
2025-01-18 06:43:44.00	32.52	6.35	
2025-01-18 06:43:44.21	32.55	6.36	
2025-01-18 06:43:44.41	32.57	6.38	
2025-01-18 06:43:44.61	32.59	6.39	
2025-01-18 06:43:44.81	32.61	6.40	
2025-01-18 06:43:45.02	32.64	6.41	
2025-01-18 06:43:45.22	32.66	6.43	
2025-01-18 06:43:45.42	32.68	6.44	
2025-01-18 06:43:45.63	32.71	6.45	
2025-01-18 06:43:45.83	32.73	6.46	
2025-01-18 06:43:46.03	32.75	6.48	
2025-01-18 06:43:46.24	32.78	6.49	
2025-01-18 06:43:46.44	32.80	6.50	
2025-01-18 06:43:46.64	32.83	6.51	
2025-01-18 06:43:46.85	32.85	6.52	
2025-01-18 06:43:47.05	32.87	6.54	
2025-01-18 06:43:47.25	32.90	6.55	
2025-01-18 06:43:47.45	32.92	6.56	
2025-01-18 06:43:47.66	32.94	6.57	
2025-01-18 06:43:47.86	32.97	6.59	
2025-01-18 06:43:48.06	32.99	6.60	
2025-01-18 06:43:48.27	33.01	6.61	
2025-01-18 06:43:48.47	33.04	6.62	
2025-01-18 06:43:48.67	33.06	6.64	
2025-01-18 06:43:48.88	33.09	6.65	
2025-01-18 06:43:49.08	33.11	6.66	
2025-01-18 06:43:49.28	33.13	6.67	
2025-01-18 06:43:49.49	33.16	6.69	
2025-01-18 06:43:49.69	33.18	6.70	
2025-01-18 06:43:49.89	33.20	6.71	
2025-01-18 06:43:50.09	33.23	6.72	
2025-01-18 06:43:50.30	33.25	6.73	
2025-01-18 06:43:50.50	33.27	6.75	
2025-01-18 06:43:50.70	33.30	6.76	
2025-01-18 06:43:50.91	33.32	6.77	
2025-01-18 06:43:51.11	33.35	6.78	
2025-01-18 06:43:51.31	33.37	6.80	
2025-01-18 06:43:51.52	33.39	6.81	
2025-01-18 06:43:51.72	33.42	6.82	
2025-01-18 06:43:51.92	33.44	6.83	
2025-01-18 06:43:52.13	33.47	6.85	
2025-01-18 06:43:52.33	33.49	6.86	
2025-01-18 06:43:52.53	33.51	6.87	
2025-01-18 06:43:52.73	33.54	6.88	
2025-01-18 06:43:52.94	33.56	6.90	
2025-01-18 06:43:53.14	33.59	6.91	
2025-01-18 06:43:53.34	33.61	6.92	
2025-01-18 06:43:53.55	33.64	6.93	
2025-01-18 06:43:53.75	33.66	6.95	
2025-01-18 06:43:53.95	33.68	6.96	
2025-01-18 06:43:54.16	33.71	6.97	
2025-01-18 06:43:54.36	33.73	6.98	
2025-01-18 06:43:54.56	33.76	7.00	
2025-01-18 06:43:54.77	33.78	7.01	
2025-01-18 06:43:54.97	33.80	7.02	
2025-01-18 06:43:55.17	33.83	7.03	
2025-01-18 06:43:55.37	33.85	7.04	
2025-01-18 06:43:55.58	33.88	7.06	
2025-01-18 06:43:55.78	33.90	7.07	
2025-01-18 06:43:55.98	33.93	7.08	
2025-01-18 06:43:56.19	33.95	7.10	
2025-01-18 06:43:56.39	33.98	7.11	
2025-01-18 06:43:56.59	34.00	7.12	
2025-01-18 06:43:56.80	34.02	7.13	
2025-01-18 06:43:57.00	34.05	7.14	
2025-01-18 06:43:57.20	34.07	7.16	
2025-01-18 06:43:57.41	34.10	7.17	
2025-01-18 06:43:57.61	34.12	7.18	
2025-01-18 06:43:57.81	34.15	7.19	
2025-01-18 06:43:58.01	34.17	7.21	
2025-01-18 06:43:58.22	34.20	7.22	
2025-01-18 06:43:58.42	34.22	7.23	
2025-01-18 06:43:58.62	34.25	7.24	
2025-01-18 06:43:58.83	34.27	7.26	
2025-01-18 06:43:59.03	34.30	7.27	
2025-01-18 06:43:59.23	34.32	7.28	
2025-01-18 06:43:59.44	34.35	7.29	
2025-01-18 06:43:59.64	34.37	7.31	
2025-01-18 06:43:59.84	34.39	7.32	
2025-01-18 06:44:00.05	34.42	7.33	
2025-01-18 06:44:00.25	34.44	7.34	
2025-01-18 06:44:00.45	34.47	7.36	
2025-01-18 06:44:00.65	34.49	7.37	
2025-01-18 06:44:00.86	34.52	7.38	
2025-01-18 06:44:01.06	34.54	7.39	
2025-01-18 06:44:01.26	34.57	7.41	
2025-01-18 06:44:01.47	34.59	7.42	
2025-01-18 06:44:01.67	34.62	7.43	
2025-01-18 06:44:01.87	34.64	7.44	
2025-01-18 06:44:02.08	34.67	7.46	
2025-01-18 06:44:02.28	34.69	7.47	
2025-01-18 06:44:02.48	34.72	7.48	
2025-01-18 06:44:02.69	34.75	7.50	
2025-01-18 06:44:02.89	34.77	7.51	
2025-01-18 06:44:03.09	34.79	7.52	
2025-01-18 06:44:03.29	34.82	7.53	
2025-01-18 06:44:03.50	34.85	7.55	
2025-01-18 06:44:03.70	34.87	7.56	
2025-01-18 06:44:03.90	34.90	7.57	
2025-01-18 06:44:04.11	34.92	7.58	
2025-01-18 06:44:04.31	34.95	7.60	
2025-01-18 06:44:04.51	34.97	7.61	
2025-01-18 06:44:04.72	35.00	7.62	
2025-01-18 06:44:04.92	35.02	7.63	
2025-01-18 06:44:05.12	35.05	7.65	
2025-01-18 06:44:05.33	35.07	7.66	
2025-01-18 06:44:05.53	35.10	7.67	
2025-01-18 06:44:05.73	35.12	7.68	
2025-01-18 06:44:05.93	35.15	7.70	
2025-01-18 06:44:06.14	35.18	7.71	
2025-01-18 06:44:06.34	35.20	7.72	
2025-01-18 06:44:06.54	35.23	7.73	
2025-01-18 06:44:06.75	35.25	7.75	
2025-01-18 06:44:06.95	35.28	7.76	
2025-01-18 06:44:07.15	35.30	7.77	
2025-01-18 06:44:07.36	35.33	7.78	
2025-01-18 06:44:07.56	35.36	7.80	
2025-01-18 06:44:07.76	35.38	7.81	
2025-01-18 06:44:07.97	35.41	7.82	
2025-01-18 06:44:08.17	35.43	7.83	
2025-01-18 06:44:08.37	35.46	7.85	
2025-01-18 06:44:08.57	35.48	7.86	
2025-01-18 06:44:08.78	35.51	7.87	
2025-01-18 06:44:08.98	35.54	7.88	
2025-01-18 06:44:09.18	35.56	7.90	
2025-01-18 06:44:09.39	35.59	7.91	
2025-01-18 06:44:09.59	35.61	7.92	
2025-01-18 06:44:09.79	35.64	7.94	
2025-01-18 06:44:10.00	35.67	7.95	
2025-01-18 06:44:10.20	35.69	7.96	
2025-01-18 06:44:10.40	35.72	7.97	
2025-01-18 06:44:10.60	35.74	7.99	
2025-01-18 06:44:10.81	35.77	8.00	
2025-01-18 06:44:11.01	35.80	8.01	
2025-01-18 06:44:11.21	35.82	8.02	
2025-01-18 06:44:11.42	35.85	8.04	
2025-01-18 06:44:11.62	35.87	8.05	
2025-01-18 06:44:11.82	35.90	8.06	
2025-01-18 06:44:12.03	35.93	8.07	
2025-01-18 06:44:12.23	35.95	8.09	
2025-01-18 06:44:12.43	35.98	8.10	
2025-01-18 06:44:12.64	36.01	8.11	
2025-01-18 06:44:12.84	36.03	8.13	
2025-01-18 06:44:13.04	36.06	8.14	
2025-01-18 06:44:13.25	36.09	8.15	
2025-01-18 06:44:13.45	36.11	8.16	
2025-01-18 06:44:13.65	36.14	8.18	
2025-01-18 06:44:13.85	36.16	8.19	
2025-01-18 06:44:14.06	36.19	8.20	
2025-01-18 06:44:14.26	36.22	8.21	
2025-01-18 06:44:14.46	36.24	8.23	
2025-01-18 06:44:14.67	36.27	8.24	
2025-01-18 06:44:14.87	36.30	8.25	
2025-01-18 06:44:15.07	36.32	8.26	
2025-01-18 06:44:15.28	36.35	8.28	
2025-01-18 06:44:15.48	36.38	8.29	
2025-01-18 06:44:15.68	36.40	8.30	
2025-01-18 06:44:15.89	36.43	8.32	
2025-01-18 06:44:16.09	36.46	8.33	
2025-01-18 06:44:16.29	36.48	8.34	
2025-01-18 06:44:16.49	36.51	8.35	
2025-01-18 06:44:16.70	36.54	8.37	
2025-01-18 06:44:16.90	36.56	8.38	
2025-01-18 06:44:17.10	36.59	8.39	
2025-01-18 06:44:17.31	36.62	8.40	
2025-01-18 06:44:17.51	36.64	8.42	
2025-01-18 06:44:17.71	36.67	8.43	
2025-01-18 06:44:17.92	36.70	8.44	
2025-01-18 06:44:18.12	36.72	8.46	
2025-01-18 06:44:18.32	36.75	8.47	
2025-01-18 06:44:18.53	36.78	8.48	
2025-01-18 06:44:18.73	36.81	8.49	
2025-01-18 06:44:18.93	36.83	8.51	
2025-01-18 06:44:19.13	36.86	8.52	
2025-01-18 06:44:19.34	36.89	8.53	
2025-01-18 06:44:19.54	36.91	8.54	
2025-01-18 06:44:19.74	36.94	8.56	
2025-01-18 06:44:19.95	36.97	8.57	
2025-01-18 06:44:20.15	37.00	8.58	
2025-01-18 06:44:20.35	37.02	8.60	
2025-01-18 06:44:20.56	37.05	8.61	
2025-01-18 06:44:20.76	37.08	8.62	
2025-01-18 06:44:20.96	37.10	8.63	
2025-01-18 06:44:21.17	37.13	8.65	
2025-01-18 06:44:21.37	37.16	8.66	
2025-01-18 06:44:21.57	37.19	8.67	
2025-01-18 06:44:21.77	37.21	8.68	
2025-01-18 06:44:21.98	37.24	8.70	
2025-01-18 06:44:22.18	37.27	8.71	
2025-01-18 06:44:22.38	37.30	8.72	
2025-01-18 06:44:22.59	37.32	8.74	
2025-01-18 06:44:22.79	37.35	8.75	
2025-01-18 06:44:22.99	37.38	8.76	
2025-01-18 06:44:23.20	37.41	8.77	
2025-01-18 06:44:23.40	37.43	8.79	
2025-01-18 06:44:23.60	37.46	8.80	
2025-01-18 06:44:23.81	37.49	8.81	
2025-01-18 06:44:24.01	37.52	8.83	
2025-01-18 06:44:24.21	37.54	8.84	
2025-01-18 06:44:24.41	37.57	8.85	
2025-01-18 06:44:24.62	37.60	8.86	
2025-01-18 06:44:24.82	37.63	8.88	
2025-01-18 06:44:25.02	37.65	8.89	
2025-01-18 06:44:25.23	37.68	8.90	
2025-01-18 06:44:25.43	37.71	8.91	
2025-01-18 06:44:25.63	37.74	8.93	
2025-01-18 06:44:25.84	37.77	8.94	
2025-01-18 06:44:26.04	37.79	8.95	
2025-01-18 06:44:26.24	37.82	8.97	
2025-01-18 06:44:26.44	37.85	8.98	
2025-01-18 06:44:26.65	37.88	8.99	
2025-01-18 06:44:26.85	37.91	9.00	
2025-01-18 06:44:27.05	37.93	9.02	
2025-01-18 06:44:27.26	37.96	9.03	
2025-01-18 06:44:27.46	37.99	9.04	
2025-01-18 06:44:27.66	38.02	9.06	
2025-01-18 06:44:27.87	38.05	9.07	
2025-01-18 06:44:28.07	38.08	9.08	
2025-01-18 06:44:28.27	38.10	9.09	
2025-01-18 06:44:28.48	38.13	9.11	
2025-01-18 06:44:28.68	38.16	9.12	
2025-01-18 06:44:28.88	38.19	9.13	
2025-01-18 06:44:29.08	38.22	9.14	
2025-01-18 06:44:29.29	38.25	9.16	
2025-01-18 06:44:29.49	38.27	9.17	
2025-01-18 06:44:29.69	38.30	9.18	
2025-01-18 06:44:29.90	38.33	9.20	
2025-01-18 06:44:30.10	38.36	9.21	
2025-01-18 06:44:30.30	38.39	9.22	
2025-01-18 06:44:30.51	38.42	9.24	
2025-01-18 06:44:30.71	38.44	9.25	
2025-01-18 06:44:30.91	38.47	9.26	
2025-01-18 06:44:31.12	38.50	9.27	
2025-01-18 06:44:31.32	38.53	9.29	
2025-01-18 06:44:31.52	38.56	9.30	
2025-01-18 06:44:31.72	38.59	9.31	
2025-01-18 06:44:31.93	38.62	9.32	
2025-01-18 06:44:32.13	38.64	9.34	
2025-01-18 06:44:32.33	38.67	9.35	
2025-01-18 06:44:32.54	38.70	9.36	
2025-01-18 06:44:32.74	38.73	9.38	
2025-01-18 06:44:32.94	38.76	9.39	
2025-01-18 06:44:33.15	38.79	9.40	
2025-01-18 06:44:33.35	38.82	9.41	
2025-01-18 06:44:33.55	38.85	9.43	
2025-01-18 06:44:33.76	38.88	9.44	
2025-01-18 06:44:33.96	38.90	9.45	
2025-01-18 06:44:34.16	38.93	9.47	
2025-01-18 06:44:34.36	38.96	9.48	
2025-01-18 06:44:34.57	38.99	9.49	
2025-01-18 06:44:34.77	39.02	9.50	
2025-01-18 06:44:34.97	39.05	9.52	
2025-01-18 06:44:35.18	39.08	9.53	
2025-01-18 06:44:35.38	39.11	9.54	
2025-01-18 06:44:35.58	39.14	9.56	
2025-01-18 06:44:35.79	39.17	9.57	
2025-01-18 06:44:35.99	39.19	9.58	
2025-01-18 06:44:36.19	39.22	9.59	
2025-01-18 06:44:36.40	39.25	9.61	
2025-01-18 06:44:36.60	39.28	9.62	
2025-01-18 06:44:36.80	39.31	9.63	
2025-01-18 06:44:37.00	39.34	9.65	
2025-01-18 06:44:37.21	39.37	9.66	
2025-01-18 06:44:37.41	39.40	9.67	
2025-01-18 06:44:37.61	39.43	9.68	
2025-01-18 06:44:37.82	39.46	9.70	
2025-01-18 06:44:38.02	39.49	9.71	
2025-01-18 06:44:38.22	39.52	9.72	
2025-01-18 06:44:38.43	39.55	9.74	
2025-01-18 06:44:38.63	39.58	9.75	
2025-01-18 06:44:38.83	39.61	9.76	
2025-01-18 06:44:39.04	39.64	9.78	
2025-01-18 06:44:39.24	39.67	9.79	
2025-01-18 06:44:39.44	39.69	9.80	
2025-01-18 06:44:39.64	39.72	9.81	
2025-01-18 06:44:39.85	39.75	9.83	
2025-01-18 06:44:40.05	39.78	9.84	
2025-01-18 06:44:40.25	39.81	9.85	
2025-01-18 06:44:40.46	39.84	9.87	
2025-01-18 06:44:40.66	39.87	9.88	
2025-01-18 06:44:40.86	39.90	9.89	
2025-01-18 06:44:41.07	39.93	9.90	
2025-01-18 06:44:41.27	39.96	9.92	
2025-01-18 06:44:41.47	39.99	9.93	
2025-01-18 06:44:41.68	40.02	9.94	
2025-01-18 06:44:41.88	40.05	9.96	
2025-01-18 06:44:42.08	40.08	9.97	
2025-01-18 06:44:42.28	40.11	9.98	
2025-01-18 06:44:42.49	40.14	9.99	
2025-01-18 06:44:42.69	40.17	10.01	
2025-01-18 06:44:42.89	40.20	10.02	
2025-01-18 06:44:43.10	40.23	10.03	
2025-01-18 06:44:43.30	40.26	10.05	
2025-01-18 06:44:43.50	40.29	10.06	
2025-01-18 06:44:43.71	40.33	10.07	
2025-01-18 06:44:43.91	40.36	10.09	
2025-01-18 06:44:44.11	40.38	10.10	
2025-01-18 06:44:44.32	40.42	10.11	
2025-01-18 06:44:44.52	40.45	10.12	
2025-01-18 06:44:44.72	40.48	10.14	
2025-01-18 06:44:44.92	40.51	10.15	
2025-01-18 06:44:45.13	40.54	10.16	
2025-01-18 06:44:45.33	40.57	10.18	
2025-01-18 06:44:45.53	40.60	10.19	
2025-01-18 06:44:45.74	40.63	10.20	
2025-01-18 06:44:45.94	40.66	10.21	
2025-01-18 06:44:46.14	40.69	10.23	
2025-01-18 06:44:46.35	40.72	10.24	
2025-01-18 06:44:46.55	40.75	10.25	
2025-01-18 06:44:46.75	40.78	10.27	
2025-01-18 06:44:46.96	40.81	10.28	
2025-01-18 06:44:47.16	40.84	10.29	
2025-01-18 06:44:47.36	40.87	10.30	
2025-01-18 06:44:47.56	40.90	10.32	
2025-01-18 06:44:47.77	40.94	10.33	
2025-01-18 06:44:47.97	40.97	10.34	
2025-01-18 06:44:48.17	41.00	10.36	
2025-01-18 06:44:48.38	41.03	10.37	
2025-01-18 06:44:48.58	41.06	10.38	
2025-01-18 06:44:48.78	41.09	10.40	
2025-01-18 06:44:48.99	41.12	10.41	
2025-01-18 06:44:49.19	41.15	10.42	
2025-01-18 06:44:49.39	41.18	10.43	
2025-01-18 06:44:49.60	41.21	10.45	
2025-01-18 06:44:49.80	41.25	10.46	
2025-01-18 06:44:50.00	41.28	10.47	
2025-01-18 06:44:50.20	41.31	10.49	
2025-01-18 06:44:50.41	41.34	10.50	
2025-01-18 06:44:50.61	41.37	10.51	
2025-01-18 06:44:50.81	41.40	10.52	
2025-01-18 06:44:51.02	41.43	10.54	
2025-01-18 06:44:51.22	41.46	10.55	
2025-01-18 06:44:51.42	41.49	10.56	
2025-01-18 06:44:51.63	41.53	10.58	
2025-01-18 06:44:51.83	41.56	10.59	
2025-01-18 06:44:52.03	41.59	10.60	
2025-01-18 06:44:52.24	41.62	10.62	
2025-01-18 06:44:52.44	41.65	10.63	
2025-01-18 06:44:52.64	41.68	10.64	
2025-01-18 06:44:52.84	41.71	10.65	
2025-01-18 06:44:53.05	41.75	10.67	
2025-01-18 06:44:53.25	41.78	10.68	
2025-01-18 06:44:53.45	41.81	10.69	
2025-01-18 06:44:53.66	41.84	10.71	
2025-01-18 06:44:53.86	41.87	10.72	
2025-01-18 06:44:54.06	41.90	10.73	
2025-01-18 06:44:54.27	41.94	10.75	
2025-01-18 06:44:54.47	41.97	10.76	
2025-01-18 06:44:54.67	42.00	10.77	
2025-01-18 06:44:54.88	42.03	10.78	
2025-01-18 06:44:55.08	42.06	10.80	
2025-01-18 06:44:55.28	42.10	10.81	
2025-01-18 06:44:55.48	42.13	10.82	
2025-01-18 06:44:55.69	42.16	10.84	
2025-01-18 06:44:55.89	42.19	10.85	
2025-01-18 06:44:56.09	42.22	10.86	
2025-01-18 06:44:56.30	42.26	10.88	
2025-01-18 06:44:56.50	42.29	10.89	
2025-01-18 06:44:56.70	42.32	10.90	
2025-01-18 06:44:56.91	42.35	10.91	
2025-01-18 06:44:57.11	42.38	10.93	
2025-01-18 06:44:57.31	42.42	10.94	
2025-01-18 06:44:57.52	42.45	10.95	
2025-01-18 06:44:57.72	42.48	10.97	
2025-01-18 06:44:57.92	42.51	10.98	
2025-01-18 06:44:58.12	42.54	10.99	
2025-01-18 06:44:58.33	42.58	11.00	
2025-01-18 06:44:58.53	42.61	11.02	
2025-01-18 06:44:58.73	42.64	11.03	
2025-01-18 06:44:58.94	42.68	11.04	
2025-01-18 06:44:59.14	42.71	11.06	
2025-01-18 06:44:59.34	42.74	11.07	
2025-01-18 06:44:59.55	42.77	11.08	
2025-01-18 06:44:59.75	42.81	11.10	
2025-01-18 06:44:59.95	42.84	11.11	
2025-01-18 06:45:00.16	42.87	11.12	
2025-01-18 06:45:00.36	42.90	11.13	
2025-01-18 06:45:00.56	42.94	11.15	
2025-01-18 06:45:00.76	42.97	11.16	
2025-01-18 06:45:00.97	43.00	11.17	
2025-01-18 06:45:01.17	43.03	11.19	
2025-01-18 06:45:01.37	43.07	11.20	
2025-01-18 06:45:01.58	43.10	11.21	
2025-01-18 06:45:01.78	43.13	11.22	
2025-01-18 06:45:01.98	43.16	11.24	
2025-01-18 06:45:02.19	43.20	11.25	
2025-01-18 06:45:02.39	43.23	11.26	
2025-01-18 06:45:02.59	43.26	11.28	
2025-01-18 06:45:02.80	43.30	11.29	
2025-01-18 06:45:03.00	43.33	11.30	
2025-01-18 06:45:03.20	43.36	11.32	
2025-01-18 06:45:03.40	43.40	11.33	
2025-01-18 06:45:03.61	43.43	11.34	
2025-01-18 06:45:03.81	43.46	11.35	
2025-01-18 06:45:04.01	43.49	11.37	
2025-01-18 06:45:04.22	43.53	11.38	
2025-01-18 06:45:04.42	43.56	11.39	
2025-01-18 06:45:04.62	43.59	11.41	
2025-01-18 06:45:04.83	43.63	11.42	
2025-01-18 06:45:05.03	43.66	11.43	
2025-01-18 06:45:05.23	43.69	11.44	
2025-01-18 06:45:05.44	43.73	11.46	
2025-01-18 06:45:05.64	43.76	11.47	
2025-01-18 06:45:05.84	43.80	11.48	
2025-01-18 06:45:06.04	43.83	11.50	
2025-01-18 06:45:06.25	43.86	11.51	
2025-01-18 06:45:06.45	43.90	11.52	
2025-01-18 06:45:06.65	43.93	11.54	
2025-01-18 06:45:06.86	43.96	11.55	
2025-01-18 06:45:07.06	44.00	11.56	
2025-01-18 06:45:07.26	44.03	11.57	
2025-01-18 06:45:07.47	44.06	11.59	
2025-01-18 06:45:07.67	44.10	11.60	
2025-01-18 06:45:07.87	44.13	11.61	
2025-01-18 06:45:08.08	44.17	11.63	
2025-01-18 06:45:08.28	44.20	11.64	
2025-01-18 06:45:08.48	44.23	11.65	
2025-01-18 06:45:08.68	44.27	11.66	
2025-01-18 06:45:08.89	44.30	11.68	
2025-01-18 06:45:09.09	44.33	11.69	
2025-01-18 06:45:09.29	44.37	11.70	
2025-01-18 06:45:09.50	44.40	11.72	
2025-01-18 06:45:09.70	44.44	11.73	
2025-01-18 06:45:09.90	44.47	11.74	
2025-01-18 06:45:10.11	44.51	11.76	
2025-01-18 06:45:10.31	44.54	11.77	
2025-01-18 06:45:10.51	44.57	11.78	
2025-01-18 06:45:10.72	44.61	11.79	
2025-01-18 06:45:10.92	44.64	11.81	
2025-01-18 06:45:11.12	44.68	11.82	
2025-01-18 06:45:11.32	44.71	11.83	
2025-01-18 06:45:11.53	44.75	11.85	
2025-01-18 06:45:11.73	44.78	11.86	
2025-01-18 06:45:11.93	44.81	11.87	
2025-01-18 06:45:12.14	44.85	11.88	
2025-01-18 06:45:12.34	44.88	11.90	
2025-01-18 06:45:12.54	44.92	11.91	
2025-01-18 06:45:12.75	44.95	11.92	
2025-01-18 06:45:12.95	44.99	11.94	
2025-01-18 06:45:13.15	45.02	11.95	
2025-01-18 06:45:13.36	45.06	11.96	
2025-01-18 06:45:13.56	45.09	11.98	
2025-01-18 06:45:13.76	45.12	11.99	
2025-01-18 06:45:13.96	45.16	12.00	
2025-01-18 06:45:14.17	45.19	12.01	
2025-01-18 06:45:14.37	45.23	12.03	
2025-01-18 06:45:14.57	45.26	12.04	
2025-01-18 06:45:14.78	45.30	12.05	
2025-01-18 06:45:14.98	45.33	12.07	
2025-01-18 06:45:15.18	45.37	12.08	
2025-01-18 06:45:15.39	45.40	12.09	
2025-01-18 06:45:15.59	45.44	12.10	
2025-01-18 06:45:15.79	45.47	12.12	
2025-01-18 06:45:16.00	45.51	12.13	
2025-01-18 06:45:16.20	45.54	12.14	
2025-01-18 06:45:16.40	45.58	12.16	
2025-01-18 06:45:16.60	45.61	12.17	
2025-01-18 06:45:16.81	45.65	12.18	
2025-01-18 06:45:17.01	45.68	12.19	
2025-01-18 06:45:17.21	45.72	12.21	
2025-01-18 06:45:17.42	45.75	12.22	
2025-01-18 06:45:17.62	45.79	12.23	
2025-01-18 06:45:17.82	45.82	12.25	
2025-01-18 06:45:18.03	45.86	12.26	
2025-01-18 06:45:18.23	45.90	12.27	
2025-01-18 06:45:18.43	45.93	12.28	
2025-01-18 06:45:18.64	45.97	12.30	
2025-01-18 06:45:18.84	46.00	12.31	
2025-01-18 06:45:19.04	46.04	12.32	
2025-01-18 06:45:19.24	46.07	12.34	
2025-01-18 06:45:19.45	46.11	12.35	
2025-01-18 06:45:19.65	46.14	12.36	
2025-01-18 06:45:19.85	46.18	12.37	
2025-01-18 06:45:20.06	46.22	12.39	
2025-01-18 06:45:20.26	46.25	12.40	
2025-01-18 06:45:20.46	46.29	12.41	
2025-01-18 06:45:20.67	46.32	12.43	
2025-01-18 06:45:20.87	46.36	12.44	
2025-01-18 06:45:21.07	46.39	12.45	
2025-01-18 06:45:21.28	46.43	12.46	
2025-01-18 06:45:21.48	46.47	12.48	
2025-01-18 06:45:21.68	46.50	12.49	
2025-01-18 06:45:21.88	46.54	12.50	
2025-01-18 06:45:22.09	46.57	12.52	
2025-01-18 06:45:22.29	46.61	12.53	
2025-01-18 06:45:22.49	46.65	12.54	
2025-01-18 06:45:22.70	46.68	12.55	
2025-01-18 06:45:22.90	46.72	12.57	
2025-01-18 06:45:23.10	46.75	12.58	
2025-01-18 06:45:23.31	46.79	12.59	
2025-01-18 06:45:23.51	46.83	12.61	
2025-01-18 06:45:23.71	46.86	12.62	
2025-01-18 06:45:23.92	46.90	12.63	
2025-01-18 06:45:24.12	46.94	12.64	
2025-01-18 06:45:24.32	46.97	12.66	
2025-01-18 06:45:24.52	47.01	12.67	
2025-01-18 06:45:24.73	47.05	12.68	
2025-01-18 06:45:24.93	47.08	12.70	
2025-01-18 06:45:25.13	47.12	12.71	
2025-01-18 06:45:25.34	47.15	12.72	
2025-01-18 06:45:25.54	47.19	12.73	
2025-01-18 06:45:25.74	47.23	12.75	
2025-01-18 06:45:25.95	47.26	12.76	
2025-01-18 06:45:26.15	47.30	12.77	
2025-01-18 06:45:26.35	47.34	12.79	
2025-01-18 06:45:26.56	47.38	12.80	
2025-01-18 06:45:26.76	47.41	12.81	
2025-01-18 06:45:26.96	47.45	12.82	
2025-01-18 06:45:27.16	47.48	12.84	
2025-01-18 06:45:27.37	47.52	12.85	
2025-01-18 06:45:27.57	47.56	12.86	
2025-01-18 06:45:27.77	47.59	12.87	
2025-01-18 06:45:27.98	47.63	12.89	
2025-01-18 06:45:28.18	47.67	12.90	
2025-01-18 06:45:28.38	47.71	12.91	
2025-01-18 06:45:28.59	47.74	12.93	
2025-01-18 06:45:28.79	47.78	12.94	
2025-01-18 06:45:28.99	47.82	12.95	
2025-01-18 06:45:29.20	47.86	12.96	
2025-01-18 06:45:29.40	47.89	12.98	
2025-01-18 06:45:29.60	47.93	12.99	
2025-01-18 06:45:29.80	47.97	13.00	
2025-01-18 06:45:30.01	48.00	13.02	
2025-01-18 06:45:30.21	48.04	13.03	
2025-01-18 06:45:30.41	48.08	13.04	
2025-01-18 06:45:30.62	48.12	13.05	
2025-01-18 06:45:30.82	48.15	13.07	
2025-01-18 06:45:31.02	48.19	13.08	
2025-01-18 06:45:31.23	48.23	13.09	
2025-01-18 06:45:31.43	48.27	13.10	
2025-01-18 06:45:31.63	48.30	13.12	
2025-01-18 06:45:31.84	48.34	13.13	
2025-01-18 06:45:32.04	48.38	13.14	
2025-01-18 06:45:32.24	48.42	13.15	
2025-01-18 06:45:32.44	48.45	13.17	
2025-01-18 06:45:32.65	48.49	13.18	
2025-01-18 06:45:32.85	48.53	13.19	
2025-01-18 06:45:33.05	48.57	13.21	
2025-01-18 06:45:33.26	48.61	13.22	
2025-01-18 06:45:33.46	48.64	13.23	
2025-01-18 06:45:33.66	48.68	13.24	
2025-01-18 06:45:33.87	48.72	13.26	
2025-01-18 06:45:34.07	48.76	13.27	
2025-01-18 06:45:34.27	48.79	13.28	
2025-01-18 06:45:34.47	48.83	13.29	
2025-01-18 06:45:34.68	48.87	13.31	
2025-01-18 06:45:34.88	48.91	13.32	
2025-01-18 06:45:35.08	48.95	13.33	
2025-01-18 06:45:35.29	48.99	13.35	
2025-01-18 06:45:35.49	49.02	13.36	
2025-01-18 06:45:35.69	49.06	13.37	
2025-01-18 06:45:35.90	49.10	13.38	
2025-01-18 06:45:36.10	49.14	13.40	
2025-01-18 06:45:36.30	49.18	13.41	
2025-01-18 06:45:36.51	49.22	13.42	
2025-01-18 06:45:36.71	49.25	13.43	
2025-01-18 06:45:36.91	49.29	13.45	
2025-01-18 06:45:37.11	49.33	13.46	
2025-01-18 06:45:37.32	49.37	13.47	
2025-01-18 06:45:37.52	49.41	13.48	
2025-01-18 06:45:37.72	49.45	13.50	
2025-01-18 06:45:37.93	49.49	13.51	
2025-01-18 06:45:38.13	49.52	13.52	
2025-01-18 06:45:38.33	49.56	13.53	
2025-01-18 06:45:38.54	49.60	13.55	
2025-01-18 06:45:38.74	49.64	13.56	
2025-01-18 06:45:38.94	49.68	13.57	
2025-01-18 06:45:39.15	49.72	13.59	
2025-01-18 06:45:39.35	49.76	13.60	
2025-01-18 06:45:39.55	49.79	13.61	
2025-01-18 06:45:39.75	49.83	13.62	
2025-01-18 06:45:39.96	49.87	13.64	
2025-01-18 06:45:40.16	49.91	13.65	
2025-01-18 06:45:40.36	49.95	13.66	
2025-01-18 06:45:40.57	49.99	13.67	
2025-01-18 06:45:40.77	50.03	13.69	
2025-01-18 06:45:40.97	50.07	13.70	
2025-01-18 06:45:41.18	50.11	13.71	
2025-01-18 06:45:41.38	50.15	13.72	
2025-01-18 06:45:41.58	50.19	13.74	
2025-01-18 06:45:41.79	50.23	13.75	
2025-01-18 06:45:41.99	50.26	13.76	
2025-01-18 06:45:42.19	50.30	13.77	
2025-01-18 06:45:42.39	50.34	13.79	
2025-01-18 06:45:42.60	50.38	13.80	
2025-01-18 06:45:42.80	50.42	13.81	
2025-01-18 06:45:43.00	50.46	13.82	
2025-01-18 06:45:43.21	50.50	13.84	
2025-01-18 06:45:43.41	50.54	13.85	
2025-01-18 06:45:43.61	50.58	13.86	
2025-01-18 06:45:43.82	50.62	13.87	
2025-01-18 06:45:44.02	50.66	13.89	
2025-01-18 06:45:44.22	50.70	13.90	
2025-01-18 06:45:44.43	50.74	13.91	
2025-01-18 06:45:44.63	50.78	13.92	
2025-01-18 06:45:44.83	50.82	13.94	
2025-01-18 06:45:45.03	50.86	13.95	
2025-01-18 06:45:45.24	50.90	13.96	
2025-01-18 06:45:45.44	50.94	13.97	
2025-01-18 06:45:45.64	50.98	13.98	
2025-01-18 06:45:45.85	51.02	14.00	
2025-01-18 06:45:46.05	51.06	14.01	
2025-01-18 06:45:46.25	51.10	14.02	
2025-01-18 06:45:46.46	51.14	14.03	
2025-01-18 06:45:46.66	51.18	14.05	
2025-01-18 06:45:46.86	51.22	14.06	
2025-01-18 06:45:47.07	51.26	14.07	
2025-01-18 06:45:47.27	51.30	14.08	
2025-01-18 06:45:47.47	51.34	14.10	
2025-01-18 06:45:47.67	51.38	14.11	
2025-01-18 06:45:47.88	51.42	14.12	
2025-01-18 06:45:48.08	51.46	14.13	
2025-01-18 06:45:48.28	51.50	14.15	
2025-01-18 06:45:48.49	51.54	14.16	
2025-01-18 06:45:48.69	51.58	14.17	
2025-01-18 06:45:48.89	51.62	14.18	
2025-01-18 06:45:49.10	51.66	14.20	
2025-01-18 06:45:49.30	51.70	14.21	
2025-01-18 06:45:49.50	51.74	14.22	
2025-01-18 06:45:49.71	51.79	14.23	
2025-01-18 06:45:49.91	51.83	14.24	
2025-01-18 06:45:50.11	51.87	14.26	
2025-01-18 06:45:50.31	51.91	14.27	
2025-01-18 06:45:50.52	51.95	14.28	
2025-01-18 06:45:50.72	51.99	14.29	
2025-01-18 06:45:50.92	52.03	14.31	
2025-01-18 06:45:51.13	52.07	14.32	
2025-01-18 06:45:51.33	52.11	14.33	
2025-01-18 06:45:51.53	52.15	14.34	
2025-01-18 06:45:51.74	52.19	14.36	
2025-01-18 06:45:51.94	52.23	14.37	
2025-01-18 06:45:52.14	52.27	14.38	
2025-01-18 06:45:52.35	52.32	14.39	
2025-01-18 06:45:52.55	52.36	14.40	
2025-01-18 06:45:52.75	52.40	14.42	
2025-01-18 06:45:52.95	52.44	14.43	
2025-01-18 06:45:53.16	52.48	14.44	
2025-01-18 06:45:53.36	52.52	14.45	
2025-01-18 06:45:53.56	52.56	14.47	
2025-01-18 06:45:53.77	52.61	14.48	
2025-01-18 06:45:53.97	52.65	14.49	
2025-01-18 06:45:54.17	52.69	14.50	
2025-01-18 06:45:54.38	52.73	14.51	
2025-01-18 06:45:54.58	52.77	14.53	
2025-01-18 06:45:54.78	52.81	14.54	
2025-01-18 06:45:54.99	52.85	14.55	
2025-01-18 06:45:55.19	52.90	14.56	
2025-01-18 06:45:55.39	52.94	14.57	
2025-01-18 06:45:55.59	52.98	14.59	
2025-01-18 06:45:55.80	53.02	14.60	
2025-01-18 06:45:56.00	53.06	14.61	
2025-01-18 06:45:56.20	53.10	14.62	
2025-01-18 06:45:56.41	53.15	14.64	
2025-01-18 06:45:56.61	53.19	14.65	
2025-01-18 06:45:56.81	53.23	14.66	
2025-01-18 06:45:57.02	53.27	14.67	
2025-01-18 06:45:57.22	53.31	14.68	
2025-01-18 06:45:57.42	53.35	14.70	
2025-01-18 06:45:57.63	53.40	14.71	
2025-01-18 06:45:57.83	53.44	14.72	
2025-01-18 06:45:58.03	53.48	14.73	
2025-01-18 06:45:58.23	53.52	14.74	
2025-01-18 06:45:58.44	53.57	14.76	
2025-01-18 06:45:58.64	53.61	14.77	
2025-01-18 06:45:58.84	53.65	14.78	
2025-01-18 06:45:59.05	53.69	14.79	
2025-01-18 06:45:59.25	53.73	14.80	
2025-01-18 06:45:59.45	53.78	14.82	
2025-01-18 06:45:59.66	53.82	14.83	
2025-01-18 06:45:59.86	53.86	14.84	
2025-01-18 06:46:00.06	53.90	14.85	
2025-01-18 06:46:00.27	53.95	14.86	
2025-01-18 06:46:00.47	53.99	14.88	
2025-01-18 06:46:00.67	54.03	14.89	
2025-01-18 06:46:00.87	54.07	14.90	
2025-01-18 06:46:01.08	54.12	14.91	
2025-01-18 06:46:01.28	54.16	14.92	
2025-01-18 06:46:01.48	54.20	14.94	
2025-01-18 06:46:01.69	54.25	14.95	
2025-01-18 06:46:01.89	54.29	14.96	
2025-01-18 06:46:02.09	54.33	14.97	
2025-01-18 06:46:02.30	54.37	14.98	
2025-01-18 06:46:02.50	54.42	15.00	
2025-01-18 06:46:02.70	54.46	15.01	
2025-01-18 06:46:02.91	54.50	15.02	
2025-01-18 06:46:03.11	54.55	15.03	
2025-01-18 06:46:03.31	54.59	15.04	
2025-01-18 06:46:03.51	54.63	15.05	
2025-01-18 06:46:03.72	54.67	15.07	
2025-01-18 06:46:03.92	54.72	15.08	
2025-01-18 06:46:04.12	54.76	15.09	
2025-01-18 06:46:04.33	54.80	15.10	
2025-01-18 06:46:04.53	54.85	15.11	
2025-01-18 06:46:04.73	54.89	15.13	
2025-01-18 06:46:04.94	54.93	15.14	
2025-01-18 06:46:05.14	54.98	15.15	
2025-01-18 06:46:05.34	55.02	15.16	
2025-01-18 06:46:05.55	55.06	15.17	
2025-01-18 06:46:05.75	55.11	15.19	
2025-01-18 06:46:05.95	55.15	15.20	
2025-01-18 06:46:06.15	55.19	15.21	
2025-01-18 06:46:06.36	55.24	15.22	
2025-01-18 06:46:06.56	55.28	15.23	
2025-01-18 06:46:06.76	55.32	15.24	
2025-01-18 06:46:06.97	55.37	15.26	
2025-01-18 06:46:07.17	55.41	15.27	
2025-01-18 06:46:07.37	55.46	15.28	
2025-01-18 06:46:07.58	55.50	15.29	
2025-01-18 06:46:07.78	55.54	15.30	
2025-01-18 06:46:07.98	55.59	15.31	
2025-01-18 06:46:08.19	55.63	15.33	
2025-01-18 06:46:08.39	55.68	15.34	
2025-01-18 06:46:08.59	55.72	15.35	
2025-01-18 06:46:08.79	55.76	15.36	
2025-01-18 06:46:09.00	55.81	15.37	
2025-01-18 06:46:09.20	55.85	15.38	
2025-01-18 06:46:09.40	55.89	15.40	
2025-01-18 06:46:09.61	55.94	15.41	
2025-01-18 06:46:09.81	55.98	15.42	
2025-01-18 06:46:10.01	56.03	15.43	
2025-01-18 06:46:10.22	56.07	15.44	
2025-01-18 06:46:10.42	56.12	15.45	
2025-01-18 06:46:10.62	56.16	15.46	
2025-01-18 06:46:10.83	56.21	15.48	
2025-01-18 06:46:11.03	56.25	15.49	
2025-01-18 06:46:11.23	56.29	15.50	
2025-01-18 06:46:11.43	56.34	15.51	
2025-01-18 06:46:11.64	56.38	15.52	
2025-01-18 06:46:11.84	56.43	15.53	
2025-01-18 06:46:12.04	56.47	15.55	
2025-01-18 06:46:12.25	56.52	15.56	
2025-01-18 06:46:12.45	56.56	15.57	
2025-01-18 06:46:12.65	56.61	15.58	
2025-01-18 06:46:12.86	56.65	15.59	
2025-01-18 06:46:13.06	56.70	15.60	
2025-01-18 06:46:13.26	56.74	15.61	
2025-01-18 06:46:13.47	56.79	15.63	
2025-01-18 06:46:13.67	56.83	15.64	
2025-01-18 06:46:13.87	56.87	15.65	
2025-01-18 06:46:14.07	56.92	15.66	
2025-01-18 06:46:14.28	56.97	15.67	
2025-01-18 06:46:14.48	57.01	15.68	
2025-01-18 06:46:14.68	57.05	15.69	
2025-01-18 06:46:14.89	57.10	15.71	
2025-01-18 06:46:15.09	57.14	15.72	
2025-01-18 06:46:15.29	57.19	15.73	
2025-01-18 06:46:15.50	57.24	15.74	
2025-01-18 06:46:15.70	57.28	15.75	
2025-01-18 06:46:15.90	57.32	15.76	
2025-01-18 06:46:16.11	57.37	15.77	
2025-01-18 06:46:16.31	57.42	15.78	
2025-01-18 06:46:16.51	57.46	15.80	
2025-01-18 06:46:16.71	57.51	15.81	
2025-01-18 06:46:16.92	57.55	15.82	
2025-01-18 06:46:17.12	57.60	15.83	
2025-01-18 06:46:17.32	57.64	15.84	
2025-01-18 06:46:17.53	57.69	15.85	
2025-01-18 06:46:17.73	57.73	15.86	
2025-01-18 06:46:17.93	57.78	15.87	
2025-01-18 06:46:18.14	57.83	15.89	
2025-01-18 06:46:18.34	57.87	15.90	
2025-01-18 06:46:18.54	57.92	15.91	
2025-01-18 06:46:18.75	57.96	15.92	
2025-01-18 06:46:18.95	58.01	15.93	
2025-01-18 06:46:19.15	58.05	15.94	
2025-01-18 06:46:19.35	58.10	15.95	
2025-01-18 06:46:19.56	58.15	15.96	
2025-01-18 06:46:19.76	58.19	15.97	
2025-01-18 06:46:19.96	58.24	15.99	
2025-01-18 06:46:20.17	58.28	16.00	
2025-01-18 06:46:20.37	58.33	16.01	
2025-01-18 06:46:20.57	58.38	16.02	
2025-01-18 06:46:20.78	58.42	16.03	
2025-01-18 06:46:20.98	58.47	16.04	
2025-01-18 06:46:21.18	58.51	16.05	
2025-01-18 06:46:21.39	58.56	16.06	
2025-01-18 06:46:21.59	58.61	16.07	
2025-01-18 06:46:21.79	58.65	16.09	
2025-01-18 06:46:21.99	58.70	16.10	
2025-01-18 06:46:22.20	58.75	16.11	
2025-01-18 06:46:22.40	58.79	16.12	
2025-01-18 06:46:22.60	58.84	16.13	
2025-01-18 06:46:22.81	58.89	16.14	
2025-01-18 06:46:23.01	58.93	16.15	
2025-01-18 06:46:23.21	58.98	16.16	
2025-01-18 06:46:23.42	59.03	16.17	
2025-01-18 06:46:23.62	59.07	16.18	
2025-01-18 06:46:23.82	59.12	16.19	
2025-01-18 06:46:24.03	59.17	16.21	
2025-01-18 06:46:24.23	59.21	16.22	
2025-01-18 06:46:24.43	59.26	16.23	
2025-01-18 06:46:24.63	59.30	16.24	
2025-01-18 06:46:24.84	59.35	16.25	
2025-01-18 06:46:25.04	59.40	16.26	
2025-01-18 06:46:25.24	59.44	16.27	
2025-01-18 06:46:25.45	59.49	16.28	
2025-01-18 06:46:25.65	59.54	16.29	
2025-01-18 06:46:25.85	59.59	16.30	
2025-01-18 06:46:26.06	59.63	16.31	
2025-01-18 06:46:26.26	59.68	16.32	
2025-01-18 06:46:26.46	59.73	16.33	
2025-01-18 06:46:26.67	59.78	16.35	
2025-01-18 06:46:26.87	59.82	16.36	
2025-01-18 06:46:27.07	59.87	16.37	
2025-01-18 06:46:27.27	59.91	16.38	
2025-01-18 06:46:27.48	59.96	16.39	
2025-01-18 06:46:27.68	60.01	16.40	
2025-01-18 06:46:27.88	60.06	16.41	
2025-01-18 06:46:28.09	60.11	16.42	
2025-01-18 06:46:28.29	60.15	16.43	
2025-01-18 06:46:28.49	60.20	16.44	
2025-01-18 06:46:28.70	60.25	16.45	
2025-01-18 06:46:28.90	60.29	16.46	
2025-01-18 06:46:29.10	60.34	16.47	
2025-01-18 06:46:29.31	60.39	16.48	
2025-01-18 06:46:29.51	60.44	16.49	
2025-01-18 06:46:29.71	60.48	16.50	
2025-01-18 06:46:29.91	60.53	16.51	
2025-01-18 06:46:30.12	60.58	16.53	
2025-01-18 06:46:30.32	60.63	16.54	
2025-01-18 06:46:30.52	60.68	16.55	
2025-01-18 06:46:30.73	60.72	16.56	
2025-01-18 06:46:30.93	60.77	16.57	
2025-01-18 06:46:31.13	60.82	16.58	
2025-01-18 06:46:31.34	60.87	16.59	
2025-01-18 06:46:31.54	60.92	16.60	
2025-01-18 06:46:31.74	60.96	16.61	
2025-01-18 06:46:31.95	61.01	16.62	
2025-01-18 06:46:32.15	61.06	16.63	
2025-01-18 06:46:32.35	61.11	16.64	
2025-01-18 06:46:32.55	61.15	16.65	
2025-01-18 06:46:32.76	61.20	16.66	
2025-01-18 06:46:32.96	61.25	16.67	
2025-01-18 06:46:33.16	61.30	16.68	
2025-01-18 06:46:33.37	61.35	16.69	
2025-01-18 06:46:33.57	61.40	16.70	
2025-01-18 06:46:33.77	61.44	16.71	
2025-01-18 06:46:33.98	61.49	16.72	
2025-01-18 06:46:34.18	61.54	16.73	
2025-01-18 06:46:34.38	61.59	16.74	
2025-01-18 06:46:34.59	61.64	16.75	
2025-01-18 06:46:34.79	61.69	16.76	
2025-01-18 06:46:34.99	61.74	16.77	
2025-01-18 06:46:35.19	61.78	16.78	
2025-01-18 06:46:35.40	61.83	16.79	
2025-01-18 06:46:35.60	61.88	16.80	
2025-01-18 06:46:35.80	61.93	16.81	
2025-01-18 06:46:36.01	61.98	16.82	
2025-01-18 06:46:36.21	62.03	16.83	
2025-01-18 06:46:36.41	62.08	16.84	
2025-01-18 06:46:36.62	62.13	16.85	
2025-01-18 06:46:36.82	62.17	16.86	
2025-01-18 06:46:37.02	62.22	16.87	
2025-01-18 06:46:37.23	62.27	16.88	
2025-01-18 06:46:37.43	62.32	16.89	
2025-01-18 06:46:37.63	62.37	16.90	
2025-01-18 06:46:37.83	62.42	16.91	
2025-01-18 06:46:38.04	62.47	16.92	
2025-01-18 06:46:38.24	62.52	16.93	
2025-01-18 06:46:38.44	62.57	16.94	
2025-01-18 06:46:38.65	62.62	16.95	
2025-01-18 06:46:38.85	62.66	16.96	
2025-01-18 06:46:39.05	62.71	16.97	
2025-01-18 06:46:39.26	62.76	16.98	
2025-01-18 06:46:39.46	62.81	16.99	
2025-01-18 06:46:39.66	62.86	17.00	
2025-01-18 06:46:39.87	62.91	17.01	
2025-01-18 06:46:40.07	62.96	17.02	
2025-01-18 06:46:40.27	63.01	17.03	
2025-01-18 06:46:40.47	63.06	17.04	
2025-01-18 06:46:40.68	63.11	17.05	
2025-01-18 06:46:40.88	63.16	17.06	
2025-01-18 06:46:41.08	63.21	17.07	
2025-01-18 06:46:41.29	63.26	17.08	
2025-01-18 06:46:41.49	63.31	17.09	
2025-01-18 06:46:41.69	63.36	17.10	
2025-01-18 06:46:41.90	63.41	17.11	
2025-01-18 06:46:42.10	63.46	17.12	
2025-01-18 06:46:42.30	63.51	17.13	
2025-01-18 06:46:42.51	63.56	17.14	
2025-01-18 06:46:42.71	63.61	17.15	
2025-01-18 06:46:42.91	63.66	17.16	
2025-01-18 06:46:43.11	63.70	17.17	
2025-01-18 06:46:43.32	63.76	17.18	
2025-01-18 06:46:43.52	63.81	17.19	
2025-01-18 06:46:43.72	63.85	17.20	
2025-01-18 06:46:43.93	63.91	17.21	
2025-01-18 06:46:44.13	63.96	17.22	
2025-01-18 06:46:44.33	64.00	17.23	
2025-01-18 06:46:44.54	64.06	17.23	
2025-01-18 06:46:44.74	64.11	17.24	
2025-01-18 06:46:44.94	64.16	17.25	
2025-01-18 06:46:45.15	64.21	17.26	
2025-01-18 06:46:45.35	64.26	17.27	
2025-01-18 06:46:45.55	64.31	17.28	
2025-01-18 06:46:45.75	64.36	17.29	
2025-01-18 06:46:45.96	64.41	17.30	
2025-01-18 06:46:46.16	64.46	17.31	
2025-01-18 06:46:46.36	64.51	17.32	
2025-01-18 06:46:46.57	64.56	17.33	
2025-01-18 06:46:46.77	64.61	17.34	
2025-01-18 06:46:46.97	64.66	17.35	
2025-01-18 06:46:47.18	64.71	17.36	
2025-01-18 06:46:47.38	64.76	17.37	
2025-01-18 06:46:47.58	64.81	17.37	
2025-01-18 06:46:47.78	64.86	17.38	
2025-01-18 06:46:47.99	64.91	17.39	
2025-01-18 06:46:48.19	64.96	17.40	
2025-01-18 06:46:48.39	65.01	17.41	
2025-01-18 06:46:48.60	65.07	17.42	
2025-01-18 06:46:48.80	65.12	17.43	
2025-01-18 06:46:49.00	65.17	17.44	
2025-01-18 06:46:49.21	65.22	17.45	
2025-01-18 06:46:49.41	65.27	17.46	
2025-01-18 06:46:49.61	65.32	17.47	
2025-01-18 06:46:49.82	65.37	17.47	
2025-01-18 06:46:50.02	65.42	17.48	
2025-01-18 06:46:50.22	65.47	17.49	
2025-01-18 06:46:50.42	65.52	17.50	
2025-01-18 06:46:50.63	65.57	17.51	
2025-01-18 06:46:50.83	65.63	17.52	
2025-01-18 06:46:51.03	65.68	17.53	
2025-01-18 06:46:51.24	65.73	17.54	
2025-01-18 06:46:51.44	65.78	17.55	
2025-01-18 06:46:51.64	65.83	17.56	
2025-01-18 06:46:51.85	65.88	17.56	
2025-01-18 06:46:52.05	65.93	17.57	
2025-01-18 06:46:52.25	65.98	17.58	
2025-01-18 06:46:52.46	66.04	17.59	
2025-01-18 06:46:52.66	66.09	17.60	
2025-01-18 06:46:52.86	66.14	17.61	
2025-01-18 06:46:53.06	66.19	17.62	
2025-01-18 06:46:53.27	66.24	17.63	
2025-01-18 06:46:53.47	66.29	17.63	
2025-01-18 06:46:53.67	66.34	17.64	
2025-01-18 06:46:53.88	66.40	17.65	
2025-01-18 06:46:54.08	66.45	17.66	
2025-01-18 06:46:54.28	66.50	17.67	
2025-01-18 06:46:54.49	66.55	17.68	
2025-01-18 06:46:54.69	66.60	17.69	
2025-01-18 06:46:54.89	66.65	17.69	
2025-01-18 06:46:55.10	66.71	17.70	
2025-01-18 06:46:55.30	66.76	17.71	
2025-01-18 06:46:55.50	66.81	17.72	
2025-01-18 06:46:55.70	66.86	17.73	
2025-01-18 06:46:55.91	66.91	17.74	
2025-01-18 06:46:56.11	66.97	17.75	
2025-01-18 06:46:56.31	67.02	17.75	
2025-01-18 06:46:56.52	67.07	17.76	
2025-01-18 06:46:56.72	67.12	17.77	
2025-01-18 06:46:56.92	67.17	17.78	
2025-01-18 06:46:57.13	67.23	17.79	
2025-01-18 06:46:57.33	67.28	17.80	
2025-01-18 06:46:57.53	67.33	17.80	
2025-01-18 06:46:57.74	67.38	17.81	
2025-01-18 06:46:57.94	67.43	17.82	
2025-01-18 06:46:58.14	67.49	17.83	
2025-01-18 06:46:58.34	67.54	17.84	
2025-01-18 06:46:58.55	67.59	17.85	
2025-01-18 06:46:58.75	67.64	17.85	
2025-01-18 06:46:58.95	67.69	17.86	
2025-01-18 06:46:59.16	67.75	17.87	
2025-01-18 06:46:59.36	67.80	17.88	
2025-01-18 06:46:59.56	67.85	17.89	
2025-01-18 06:46:59.77	67.91	17.90	
2025-01-18 06:46:59.97	67.96	17.90	
2025-01-18 06:47:00.17	68.01	17.91	
2025-01-18 06:47:00.38	68.06	17.92	
2025-01-18 06:47:00.58	68.12	17.93	
2025-01-18 06:47:00.78	68.17	17.94	
2025-01-18 06:47:00.98	68.22	17.94	
2025-01-18 06:47:01.19	68.27	17.95	
2025-01-18 06:47:01.39	68.33	17.96	
2025-01-18 06:47:01.59	68.38	17.97	
2025-01-18 06:47:01.80	68.43	17.98	
2025-01-18 06:47:02.00	68.48	17.98	
2025-01-18 06:47:02.20	68.54	17.99	
2025-01-18 06:47:02.41	68.59	18.00	
2025-01-18 06:47:02.61	68.64	18.01	
2025-01-18 06:47:02.81	68.69	18.01	
2025-01-18 06:47:03.02	68.75	18.02	
2025-01-18 06:47:03.22	68.80	18.03	
2025-01-18 06:47:03.42	68.85	18.04	
2025-01-18 06:47:03.62	68.91	18.05	
2025-01-18 06:47:03.83	68.96	18.05	
2025-01-18 06:47:04.03	69.01	18.06	
2025-01-18 06:47:04.23	69.07	18.07	
2025-01-18 06:47:04.44	69.12	18.08	
2025-01-18 06:47:04.64	69.17	18.08	
2025-01-18 06:47:04.84	69.23	18.09	
2025-01-18 06:47:05.05	69.28	18.10	
2025-01-18 06:47:05.25	69.33	18.11	
2025-01-18 06:47:05.45	69.39	18.11	
2025-01-18 06:47:05.66	69.44	18.12	
2025-01-18 06:47:05.86	69.49	18.13	
2025-01-18 06:47:06.06	69.55	18.14	
2025-01-18 06:47:06.26	69.60	18.14	
2025-01-18 06:47:06.47	69.65	18.15	
2025-01-18 06:47:06.67	69.71	18.16	
2025-01-18 06:47:06.87	69.76	18.17	
2025-01-18 06:47:07.08	69.81	18.17	
2025-01-18 06:47:07.28	69.87	18.18	
2025-01-18 06:47:07.48	69.92	18.19	
2025-01-18 06:47:07.69	69.97	18.20	
2025-01-18 06:47:07.89	70.03	18.20	
2025-01-18 06:47:08.09	70.08	18.21	
2025-01-18 06:47:08.30	70.14	18.22	
2025-01-18 06:47:08.50	70.19	18.23	
2025-01-18 06:47:08.70	70.24	18.23	
2025-01-18 06:47:08.90	70.29	18.24	
2025-01-18 06:47:09.11	70.35	18.25	
2025-01-18 06:47:09.31	70.40	18.25	
2025-01-18 06:47:09.51	70.46	18.26	
2025-01-18 06:47:09.72	70.51	18.27	
2025-01-18 06:47:09.92	70.56	18.28	
2025-01-18 06:47:10.12	70.62	18.28	
2025-01-18 06:47:10.33	70.67	18.29	
2025-01-18 06:47:10.53	70.73	18.30	
2025-01-18 06:47:10.73	70.78	18.30	
2025-01-18 06:47:10.94	70.84	18.31	
2025-01-18 06:47:11.14	70.89	18.32	
2025-01-18 06:47:11.34	70.94	18.33	
2025-01-18 06:47:11.54	71.00	18.33	
2025-01-18 06:47:11.75	71.05	18.34	
2025-01-18 06:47:11.95	71.10	18.35	
2025-01-18 06:47:12.15	71.16	18.35	
2025-01-18 06:47:12.36	71.21	18.36	
2025-01-18 06:47:12.56	71.27	18.37	
2025-01-18 06:47:12.76	71.32	18.37	
2025-01-18 06:47:12.97	71.38	18.38	
2025-01-18 06:47:13.17	71.43	18.39	
2025-01-18 06:47:13.37	71.48	18.39	
2025-01-18 06:47:13.58	71.54	18.40	
2025-01-18 06:47:13.78	71.59	18.41	
2025-01-18 06:47:13.98	71.65	18.41	
2025-01-18 06:47:14.18	71.70	18.42	
2025-01-18 06:47:14.39	71.76	18.43	
2025-01-18 06:47:14.59	71.81	18.43	
2025-01-18 06:47:14.79	71.86	18.44	
2025-01-18 06:47:15.00	71.92	18.45	
2025-01-18 06:47:15.20	71.97	18.45	
2025-01-18 06:47:15.40	72.03	18.46	
2025-01-18 06:47:15.61	72.08	18.47	
2025-01-18 06:47:15.81	72.14	18.47	
2025-01-18 06:47:16.01	72.19	18.48	
2025-01-18 06:47:16.22	72.25	18.49	
2025-01-18 06:47:16.42	72.30	18.49	
2025-01-18 06:47:16.62	72.36	18.50	
2025-01-18 06:47:16.82	72.41	18.51	
2025-01-18 06:47:17.03	72.47	18.51	
2025-01-18 06:47:17.23	72.52	18.52	
2025-01-18 06:47:17.43	72.57	18.52	
2025-01-18 06:47:17.64	72.63	18.53	
2025-01-18 06:47:17.84	72.69	18.54	
2025-01-18 06:47:18.04	72.74	18.54	
2025-01-18 06:47:18.25	72.80	18.55	
2025-01-18 06:47:18.45	72.85	18.56	
2025-01-18 06:47:18.65	72.90	18.56	
2025-01-18 06:47:18.86	72.96	18.57	
2025-01-18 06:47:19.06	73.02	18.57	
2025-01-18 06:47:19.26	73.07	18.58	
2025-01-18 06:47:19.46	73.12	18.59	
2025-01-18 06:47:19.67	73.18	18.59	
2025-01-18 06:47:19.87	73.23	18.60	
2025-01-18 06:47:20.07	73.29	18.60	
2025-01-18 06:47:20.28	73.35	18.61	
2025-01-18 06:47:20.48	73.40	18.62	
2025-01-18 06:47:20.68	73.45	18.62	
2025-01-18 06:47:20.89	73.51	18.63	
2025-01-18 06:47:21.09	73.57	18.63	
2025-01-18 06:47:21.29	73.62	18.64	
2025-01-18 06:47:21.50	73.68	18.65	
2025-01-18 06:47:21.70	73.73	18.65	
2025-01-18 06:47:21.90	73.79	18.66	
2025-01-18 06:47:22.10	73.84	18.66	
2025-01-18 06:47:22.31	73.90	18.67	
2025-01-18 06:47:22.51	73.95	18.67	
2025-01-18 06:47:22.71	74.01	18.68	
2025-01-18 06:47:22.92	74.06	18.69	
2025-01-18 06:47:23.12	74.12	18.69	
2025-01-18 06:47:23.32	74.17	18.70	
2025-01-18 06:47:23.53	74.23	18.70	
2025-01-18 06:47:23.73	74.29	18.71	
2025-01-18 06:47:23.93	74.34	18.71	
2025-01-18 06:47:24.14	74.40	18.72	
2025-01-18 06:47:24.34	74.45	18.72	
2025-01-18 06:47:24.54	74.51	18.73	
2025-01-18 06:47:24.74	74.56	18.74	
2025-01-18 06:47:24.95	74.62	18.74	
2025-01-18 06:47:25.15	74.67	18.75	
2025-01-18 06:47:25.35	74.73	18.75	
2025-01-18 06:47:25.56	74.79	18.76	
2025-01-18 06:47:25.76	74.84	18.76	
2025-01-18 06:47:25.96	74.90	18.77	
2025-01-18 06:47:26.17	74.95	18.77	
2025-01-18 06:47:26.37	75.01	18.78	
2025-01-18 06:47:26.57	75.06	18.78	
2025-01-18 06:47:26.78	75.12	18.79	
2025-01-18 06:47:26.98	75.18	18.79	
2025-01-18 06:47:27.18	75.23	18.80	
2025-01-18 06:47:27.38	75.29	18.80	
2025-01-18 06:47:27.59	75.34	18.81	
2025-01-18 06:47:27.79	75.40	18.81	
2025-01-18 06:47:27.99	75.45	18.82	
2025-01-18 06:47:28.20	75.51	18.82	
2025-01-18 06:47:28.40	75.57	18.83	
2025-01-18 06:47:28.60	75.62	18.83	
2025-01-18 06:47:28.81	75.68	18.84	
2025-01-18 06:47:29.01	75.74	18.84	
2025-01-18 06:47:29.21	75.79	18.85	
2025-01-18 06:47:29.42	75.85	18.85	
2025-01-18 06:47:29.62	75.90	18.86	
2025-01-18 06:47:29.82	75.96	18.86	
2025-01-18 06:47:30.02	76.01	18.87	
2025-01-18 06:47:30.23	76.07	18.87	
2025-01-18 06:47:30.43	76.13	18.88	
2025-01-18 06:47:30.63	76.18	18.88	
2025-01-18 06:47:30.84	76.24	18.89	
2025-01-18 06:47:31.04	76.30	18.89	
2025-01-18 06:47:31.24	76.35	18.90	
2025-01-18 06:47:31.45	76.41	18.90	
2025-01-18 06:47:31.65	76.47	18.91	
2025-01-18 06:47:31.85	76.52	18.91	
2025-01-18 06:47:32.06	76.58	18.92	
2025-01-18 06:47:32.26	76.63	18.92	
2025-01-18 06:47:32.46	76.69	18.93	
2025-01-18 06:47:32.66	76.75	18.93	
2025-01-18 06:47:32.87	76.80	18.93	
2025-01-18 06:47:33.07	76.86	18.94	
2025-01-18 06:47:33.27	76.92	18.94	
2025-01-18 06:47:33.48	76.97	18.95	
2025-01-18 06:47:33.68	77.03	18.95	
2025-01-18 06:47:33.88	77.08	18.96	
2025-01-18 06:47:34.09	77.14	18.96	
2025-01-18 06:47:34.29	77.20	18.96	
2025-01-18 06:47:34.49	77.25	18.97	
2025-01-18 06:47:34.70	77.31	18.97	
2025-01-18 06:47:34.90	77.37	18.98	
2025-01-18 06:47:35.10	77.42	18.98	
2025-01-18 06:47:35.30	77.48	18.99	
2025-01-18 06:47:35.51	77.54	18.99	
2025-01-18 06:47:35.71	77.59	18.99	
2025-01-18 06:47:35.91	77.65	19.00	
2025-01-18 06:47:36.12	77.71	19.00	
2025-01-18 06:47:36.32	77.76	19.01	
2025-01-18 06:47:36.52	77.82	19.01	
2025-01-18 06:47:36.73	77.88	19.01	
2025-01-18 06:47:36.93	77.93	19.02	
2025-01-18 06:47:37.13	77.99	19.02	
2025-01-18 06:47:37.34	78.05	19.03	
2025-01-18 06:47:37.54	78.10	19.03	
2025-01-18 06:47:37.74	78.16	19.03	
2025-01-18 06:47:37.94	78.22	19.04	
2025-01-18 06:47:38.15	78.28	19.04	
2025-01-18 06:47:38.35	78.33	19.05	
2025-01-18 06:47:38.55	78.39	19.05	
2025-01-18 06:47:38.76	78.45	19.05	
2025-01-18 06:47:38.96	78.50	19.06	
2025-01-18 06:47:39.16	78.56	19.06	
2025-01-18 06:47:39.37	78.62	19.06	
2025-01-18 06:47:39.57	78.67	19.07	
2025-01-18 06:47:39.77	78.73	19.07	
2025-01-18 06:47:39.98	78.79	19.08	
2025-01-18 06:47:40.18	78.84	19.08	
2025-01-18 06:47:40.38	78.90	19.08	
2025-01-18 06:47:40.58	78.96	19.09	
2025-01-18 06:47:40.79	79.01	19.09	
2025-01-18 06:47:40.99	79.07	19.09	
2025-01-18 06:47:41.19	79.13	19.10	
2025-01-18 06:47:41.40	79.19	19.10	
2025-01-18 06:47:41.60	79.24	19.10	
2025-01-18 06:47:41.80	79.30	19.11	
2025-01-18 06:47:42.01	79.36	19.11	
2025-01-18 06:47:42.21	79.41	19.11	
2025-01-18 06:47:42.41	79.47	19.12	
2025-01-18 06:47:42.62	79.53	19.12	
2025-01-18 06:47:42.82	79.59	19.12	
2025-01-18 06:47:43.02	79.64	19.13	
2025-01-18 06:47:43.22	79.70	19.13	
2025-01-18 06:47:43.43	79.76	19.13	
2025-01-18 06:47:43.63	79.81	19.13	
2025-01-18 06:47:43.83	79.87	19.14	
2025-01-18 06:47:44.04	79.93	19.14	
2025-01-18 06:47:44.24	79.98	19.14	
2025-01-18 06:47:44.44	80.04	19.15	
2025-01-18 06:47:44.65	80.10	19.15	
2025-01-18 06:47:44.85	80.16	19.15	
2025-01-18 06:47:45.05	80.21	19.16	
2025-01-18 06:47:45.26	80.27	19.16	
2025-01-18 06:47:45.46	80.33	19.16	
2025-01-18 06:47:45.66	80.39	19.16	
2025-01-18 06:47:45.86	80.44	19.17	
2025-01-18 06:47:46.07	80.50	19.17	
2025-01-18 06:47:46.27	80.56	19.17	
2025-01-18 06:47:46.47	80.61	19.18	
2025-01-18 06:47:46.68	80.67	19.18	
2025-01-18 06:47:46.88	80.73	19.18	
2025-01-18 06:47:47.08	80.79	19.18	
2025-01-18 06:47:47.29	80.85	19.19	
2025-01-18 06:47:47.49	80.90	19.19	
2025-01-18 06:47:47.69	80.96	19.19	
2025-01-18 06:47:47.90	81.02	19.19	
2025-01-18 06:47:48.10	81.07	19.20	
2025-01-18 06:47:48.30	81.13	19.20	
2025-01-18 06:47:48.50	81.19	19.20	
2025-01-18 06:47:48.71	81.25	19.20	
2025-01-18 06:47:48.91	81.30	19.21	
2025-01-18 06:47:49.11	81.36	19.21	
2025-01-18 06:47:49.32	81.42	19.21	
2025-01-18 06:47:49.52	81.48	19.21	
2025-01-18 06:47:49.72	81.53	19.22	
2025-01-18 06:47:49.93	81.59	19.22	
2025-01-18 06:47:50.13	81.65	19.22	
2025-01-18 06:47:50.33	81.71	19.22	
2025-01-18 06:47:50.54	81.76	19.22	
2025-01-18 06:47:50.74	81.82	19.23	
2025-01-18 06:47:50.94	81.88	19.23	
2025-01-18 06:47:51.14	81.93	19.23	
2025-01-18 06:47:51.35	81.99	19.23	
2025-01-18 06:47:51.55	82.05	19.24	
2025-01-18 06:47:51.75	82.11	19.24	
2025-01-18 06:47:51.96	82.17	19.24	
2025-01-18 06:47:52.16	82.22	19.24	
2025-01-18 06:47:52.36	82.28	19.24	
2025-01-18 06:47:52.57	82.34	19.25	
2025-01-18 06:47:52.77	82.40	19.25	
2025-01-18 06:47:52.97	82.45	19.25	
2025-01-18 06:47:53.17	82.51	19.25	
2025-01-18 06:47:53.38	82.57	19.25	
2025-01-18 06:47:53.58	82.63	19.25	
2025-01-18 06:47:53.78	82.68	19.26	
2025-01-18 06:47:53.99	82.74	19.26	
2025-01-18 06:47:54.19	82.80	19.26	
2025-01-18 06:47:54.39	82.86	19.26	
2025-01-18 06:47:54.60	82.92	19.26	
2025-01-18 06:47:54.80	82.97	19.26	
2025-01-18 06:47:55.00	83.03	19.27	
2025-01-18 06:47:55.21	83.09	19.27	
2025-01-18 06:47:55.41	83.15	19.27	
2025-01-18 06:47:55.61	83.20	19.27	
2025-01-18 06:47:55.82	83.26	19.27	
2025-01-18 06:47:56.02	83.32	19.27	
2025-01-18 06:47:56.22	83.38	19.28	
2025-01-18 06:47:56.42	83.43	19.28	
2025-01-18 06:47:56.63	83.49	19.28	
2025-01-18 06:47:56.83	83.55	19.28	
2025-01-18 06:47:57.03	83.61	19.28	
2025-01-18 06:47:57.24	83.67	19.28	
2025-01-18 06:47:57.44	83.72	19.28	
2025-01-18 06:47:57.64	83.78	19.28	
2025-01-18 06:47:57.85	83.84	19.29	
2025-01-18 06:47:58.05	83.90	19.29	
2025-01-18 06:47:58.25	83.95	19.29	
2025-01-18 06:47:58.45	84.01	19.29	
2025-01-18 06:47:58.66	84.07	19.29	
2025-01-18 06:47:58.86	84.13	19.29	
2025-01-18 06:47:59.06	84.18	19.29	
2025-01-18 06:47:59.27	84.24	19.29	
2025-01-18 06:47:59.47	84.30	19.29	
2025-01-18 06:47:59.67	84.36	19.30	
2025-01-18 06:47:59.88	84.42	19.30	
2025-01-18 06:48:00.08	84.47	19.30	
2025-01-18 06:48:00.28	84.53	19.30	
2025-01-18 06:48:00.49	84.59	19.30	
2025-01-18 06:48:00.69	84.65	19.30	
2025-01-18 06:48:00.89	84.71	19.30	
2025-01-18 06:48:01.09	84.76	19.30	
2025-01-18 06:48:01.30	84.82	19.30	
2025-01-18 06:48:01.50	84.88	19.30	
2025-01-18 06:48:01.70	84.94	19.30	
2025-01-18 06:48:01.91	85.00	19.30	
2025-01-18 06:48:02.11	85.05	19.31	
2025-01-18 06:48:02.31	85.11	19.31	
2025-01-18 06:48:02.52	85.17	19.31	
2025-01-18 06:48:02.72	85.23	19.31	
2025-01-18 06:48:02.92	85.28	19.31	
2025-01-18 06:48:03.13	85.34	19.31	
2025-01-18 06:48:03.33	85.40	19.31	
2025-01-18 06:48:03.53	85.46	19.31	
2025-01-18 06:48:03.73	85.51	19.31	
2025-01-18 06:48:03.94	85.57	19.31	
2025-01-18 06:48:04.14	85.63	19.31	
2025-01-18 06:48:04.34	85.69	19.31	
2025-01-18 06:48:04.55	85.75	19.31	
2025-01-18 06:48:04.75	85.81	19.31	
2025-01-18 06:48:04.95	85.86	19.31	
2025-01-18 06:48:05.16	85.92	19.31	
2025-01-18 06:48:05.36	85.98	19.31	
2025-01-18 06:48:05.56	86.04	19.31	
2025-01-18 06:48:05.77	86.10	19.31	
2025-01-18 06:48:05.97	86.15	19.31	
2025-01-18 06:48:06.17	86.21	19.31	
2025-01-18 06:48:06.37	86.27	19.31	
2025-01-18 06:48:06.58	86.33	19.31	
2025-01-18 06:48:06.78	86.38	19.31	
2025-01-18 06:48:06.98	86.44	19.31	
2025-01-18 06:48:07.19	86.50	19.31	
2025-01-18 06:48:07.39	86.56	19.31	
2025-01-18 06:48:07.59	86.61	19.31	
2025-01-18 06:48:07.80	86.67	19.31	
2025-01-18 06:48:08.00	86.73	19.31	
2025-01-18 06:48:08.20	86.79	19.31	
2025-01-18 06:48:08.41	86.85	19.31	
2025-01-18 06:48:08.61	86.91	19.31	
2025-01-18 06:48:08.81	86.96	19.31	
2025-01-18 06:48:09.01	87.02	19.31	
2025-01-18 06:48:09.22	87.08	19.31	
2025-01-18 06:48:09.42	87.14	19.31	
2025-01-18 06:48:09.62	87.19	19.31	
2025-01-18 06:48:09.83	87.25	19.31	
2025-01-18 06:48:10.03	87.31	19.31	
2025-01-18 06:48:10.23	87.37	19.31	
2025-01-18 06:48:10.44	87.43	19.31	
2025-01-18 06:48:10.64	87.48	19.31	
2025-01-18 06:48:10.84	87.54	19.31	
2025-01-18 06:48:11.05	87.60	19.31	
2025-01-18 06:48:11.25	87.66	19.31	
2025-01-18 06:48:11.45	87.72	19.30	
2025-01-18 06:48:11.65	87.77	19.30	
2025-01-18 06:48:11.86	87.83	19.30	
2025-01-18 06:48:12.06	87.89	19.30	
2025-01-18 06:48:12.26	87.95	19.30	
2025-01-18 06:48:12.47	88.01	19.30	
2025-01-18 06:48:12.67	88.06	19.30	
2025-01-18 06:48:12.87	88.12	19.30	
2025-01-18 06:48:13.08	88.18	19.30	
2025-01-18 06:48:13.28	88.24	19.30	
2025-01-18 06:48:13.48	88.29	19.30	
2025-01-18 06:48:13.69	88.35	19.30	
2025-01-18 06:48:13.89	88.41	19.29	
2025-01-18 06:48:14.09	88.47	19.29	
2025-01-18 06:48:14.29	88.52	19.29	
2025-01-18 06:48:14.50	88.58	19.29	
2025-01-18 06:48:14.70	88.64	19.29	
2025-01-18 06:48:14.90	88.70	19.29	
2025-01-18 06:48:15.11	88.76	19.29	
2025-01-18 06:48:15.31	88.81	19.29	
2025-01-18 06:48:15.51	88.87	19.29	
2025-01-18 06:48:15.72	88.93	19.28	
2025-01-18 06:48:15.92	88.99	19.28	
2025-01-18 06:48:16.12	89.05	19.28	
2025-01-18 06:48:16.33	89.10	19.28	
2025-01-18 06:48:16.53	89.16	19.28	
2025-01-18 06:48:16.73	89.22	19.28	
2025-01-18 06:48:16.93	89.28	19.28	
2025-01-18 06:48:17.14	89.34	19.28	
2025-01-18 06:48:17.34	89.39	19.27	
2025-01-18 06:48:17.54	89.45	19.27	
2025-01-18 06:48:17.75	89.51	19.27	
2025-01-18 06:48:17.95	89.57	19.27	
2025-01-18 06:48:18.15	89.62	19.27	
2025-01-18 06:48:18.36	89.68	19.27	
2025-01-18 06:48:18.56	89.74	19.27	
2025-01-18 06:48:18.76	89.80	19.26	
2025-01-18 06:48:18.97	89.86	19.26	
2025-01-18 06:48:19.17	89.91	19.26	
2025-01-18 06:48:19.37	89.97	19.26	
2025-01-18 06:48:19.57	90.03	19.26	
2025-01-18 06:48:19.78	90.09	19.26	
2025-01-18 06:48:19.98	90.14	19.25	
2025-01-18 06:48:20.18	90.20	19.25	
2025-01-18 06:48:20.39	90.26	19.25	
2025-01-18 06:48:20.59	90.32	19.25	
2025-01-18 06:48:20.79	90.37	19.25	
2025-01-18 06:48:21.00	90.43	19.24	
2025-01-18 06:48:21.20	90.49	19.24	
2025-01-18 06:48:21.40	90.55	19.24	
2025-01-18 06:48:21.61	90.61	19.24	
2025-01-18 06:48:21.81	90.66	19.24	
2025-01-18 06:48:22.01	90.72	19.23	
2025-01-18 06:48:22.21	90.78	19.23	
2025-01-18 06:48:22.42	90.84	19.23	
2025-01-18 06:48:22.62	90.89	19.23	
2025-01-18 06:48:22.82	90.95	19.23	
2025-01-18 06:48:23.03	91.01	19.22	
2025-01-18 06:48:23.23	91.06	19.22	
2025-01-18 06:48:23.43	91.12	19.22	
2025-01-18 06:48:23.64	91.18	19.22	
2025-01-18 06:48:23.84	91.24	19.21	
2025-01-18 06:48:24.04	91.29	19.21	
2025-01-18 06:48:24.25	91.35	19.21	
2025-01-18 06:48:24.45	91.41	19.21	
2025-01-18 06:48:24.65	91.47	19.20	
2025-01-18 06:48:24.85	91.52	19.20	
2025-01-18 06:48:25.06	91.58	19.20	
2025-01-18 06:48:25.26	91.64	19.20	
2025-01-18 06:48:25.46	91.70	19.19	
2025-01-18 06:48:25.67	91.76	19.19	
2025-01-18 06:48:25.87	91.81	19.19	
2025-01-18 06:48:26.07	91.87	19.19	
2025-01-18 06:48:26.28	91.93	19.18	
2025-01-18 06:48:26.48	91.98	19.18	
2025-01-18 06:48:26.68	92.04	19.18	
2025-01-18 06:48:26.89	92.10	19.18	
2025-01-18 06:48:27.09	92.16	19.17	
2025-01-18 06:48:27.29	92.21	19.17	
2025-01-18 06:48:27.49	92.27	19.17	
2025-01-18 06:48:27.70	92.33	19.17	
2025-01-18 06:48:27.90	92.39	19.16	
2025-01-18 06:48:28.10	92.44	19.16	
2025-01-18 06:48:28.31	92.50	19.16	
2025-01-18 06:48:28.51	92.56	19.15	
2025-01-18 06:48:28.71	92.61	19.15	
2025-01-18 06:48:28.92	92.67	19.15	
2025-01-18 06:48:29.12	92.73	19.14	
2025-01-18 06:48:29.32	92.79	19.14	
2025-01-18 06:48:29.53	92.85	19.14	
2025-01-18 06:48:29.73	92.90	19.14	
2025-01-18 06:48:29.93	92.96	19.13	
2025-01-18 06:48:30.13	93.01	19.13	
2025-01-18 06:48:30.34	93.07	19.13	
2025-01-18 06:48:30.54	93.13	19.12	
2025-01-18 06:48:30.74	93.19	19.12	
2025-01-18 06:48:30.95	93.25	19.12	
2025-01-18 06:48:31.15	93.30	19.11	
2025-01-18 06:48:31.35	93.36	19.11	
2025-01-18 06:48:31.56	93.42	19.11	
2025-01-18 06:48:31.76	93.47	19.10	
2025-01-18 06:48:31.96	93.53	19.10	
2025-01-18 06:48:32.17	93.59	19.10	
2025-01-18 06:48:32.37	93.65	19.09	
2025-01-18 06:48:32.57	93.70	19.09	
2025-01-18 06:48:32.77	93.76	19.09	
2025-01-18 06:48:32.98	93.82	19.08	
2025-01-18 06:48:33.18	93.87	19.08	
2025-01-18 06:48:33.38	93.93	19.08	
2025-01-18 06:48:33.59	93.99	19.07	
2025-01-18 06:48:33.79	94.04	19.07	
2025-01-18 06:48:33.99	94.10	19.06	
2025-01-18 06:48:34.20	94.16	19.06	
2025-01-18 06:48:34.40	94.21	19.06	
2025-01-18 06:48:34.60	94.27	19.05	
2025-01-18 06:48:34.81	94.33	19.05	
2025-01-18 06:48:35.01	94.39	19.05	
2025-01-18 06:48:35.21	94.44	19.04	
2025-01-18 06:48:35.41	94.50	19.04	
2025-01-18 06:48:35.62	94.56	19.03	
2025-01-18 06:48:35.82	94.61	19.03	
2025-01-18 06:48:36.02	94.67	19.03	
2025-01-18 06:48:36.23	94.73	19.02	
2025-01-18 06:48:36.43	94.78	19.02	
2025-01-18 06:48:36.63	94.84	19.02	
2025-01-18 06:48:36.84	94.90	19.01	
2025-01-18 06:48:37.04	94.95	19.01	
2025-01-18 06:48:37.24	95.01	19.00	
2025-01-18 06:48:37.45	95.07	19.00	
2025-01-18 06:48:37.65	95.12	18.99	
2025-01-18 06:48:37.85	95.18	18.99	
2025-01-18 06:48:38.05	95.24	18.99	
2025-01-18 06:48:38.26	95.29	18.98	
2025-01-18 06:48:38.46	95.35	18.98	
2025-01-18 06:48:38.66	95.41	18.97	
2025-01-18 06:48:38.87	95.46	18.97	
2025-01-18 06:48:39.07	95.52	18.97	
2025-01-18 06:48:39.27	95.58	18.96	
2025-01-18 06:48:39.48	95.63	18.96	
2025-01-18 06:48:39.68	95.69	18.95	
2025-01-18 06:48:39.88	95.75	18.95	
2025-01-18 06:48:40.09	95.80	18.94	
2025-01-18 06:48:40.29	95.86	18.94	
2025-01-18 06:48:40.49	95.92	18.93	
2025-01-18 06:48:40.69	95.97	18.93	
2025-01-18 06:48:40.90	96.03	18.93	
2025-01-18 06:48:41.10	96.09	18.92	
2025-01-18 06:48:41.30	96.14	18.92	
2025-01-18 06:48:41.51	96.20	18.91	
2025-01-18 06:48:41.71	96.25	18.91	
2025-01-18 06:48:41.91	96.31	18.90	
2025-01-18 06:48:42.12	96.37	18.90	
2025-01-18 06:48:42.32	96.42	18.89	
2025-01-18 06:48:42.52	96.48	18.89	
2025-01-18 06:48:42.73	96.54	18.88	
2025-01-18 06:48:42.93	96.59	18.88	
2025-01-18 06:48:43.13	96.65	18.87	
2025-01-18 06:48:43.33	96.70	18.87	
2025-01-18 06:48:43.54	96.76	18.86	
2025-01-18 06:48:43.74	96.82	18.86	
2025-01-18 06:48:43.94	96.87	18.86	
2025-01-18 06:48:44.15	96.93	18.85	
2025-01-18 06:48:44.35	96.99	18.85	
2025-01-18 06:48:44.55	97.04	18.84	
2025-01-18 06:48:44.76	97.10	18.84	
