passes_logs/2025/01/18/SPB_Silybum_02/SPB_Silybum_02__20250118_101609_AQUA_rec.log

#Pass ID: 20250118_101609_AQUA
#Satellite: AQUA
#Configuration: AQUA
#Start time: 2025-01-18 10:16:08

#Version: 2.0.20230423
#Station: SPB_Silybum_02
#Location: 30.233357 lon 59.946436 lat
#TLE: 1 27424U 02022A   25017.88331103  .00002112  00000+0  44339-3 0  9998
#TLE: 2 27424  98.3596 334.5732 0001847 108.4912 313.9167 14.60695357208043

#Time	Az	El	Level	Level2	SNR	BER	Gain	Gain2
2025-01-18 10:16:10.63	126.01	4.11	
2025-01-18 10:16:10.83	126.00	4.12	
2025-01-18 10:16:11.04	125.99	4.13	
2025-01-18 10:16:11.24	125.97	4.15	
2025-01-18 10:16:11.44	125.96	4.16	
2025-01-18 10:16:11.65	125.95	4.18	
2025-01-18 10:16:11.85	125.94	4.19	
2025-01-18 10:16:12.05	125.93	4.20	
2025-01-18 10:16:12.26	125.92	4.22	
2025-01-18 10:16:12.46	125.91	4.23	
2025-01-18 10:16:12.66	125.89	4.24	
2025-01-18 10:16:12.86	125.88	4.26	
2025-01-18 10:16:13.07	125.87	4.27	
2025-01-18 10:16:13.27	125.86	4.29	
2025-01-18 10:16:13.47	125.85	4.30	
2025-01-18 10:16:13.68	125.84	4.31	
2025-01-18 10:16:13.88	125.82	4.33	
2025-01-18 10:16:14.08	125.81	4.34	
2025-01-18 10:16:14.29	125.80	4.36	
2025-01-18 10:16:14.49	125.79	4.37	
2025-01-18 10:16:14.69	125.78	4.38	
2025-01-18 10:16:14.89	125.77	4.40	
2025-01-18 10:16:15.10	125.75	4.41	
2025-01-18 10:16:15.30	125.74	4.43	
2025-01-18 10:16:15.50	125.73	4.44	
2025-01-18 10:16:15.71	125.72	4.45	
2025-01-18 10:16:15.91	125.71	4.47	
2025-01-18 10:16:16.11	125.70	4.48	
2025-01-18 10:16:16.32	125.68	4.50	
2025-01-18 10:16:16.52	125.67	4.51	
2025-01-18 10:16:16.72	125.66	4.52	
2025-01-18 10:16:16.92	125.65	4.54	
2025-01-18 10:16:17.13	125.64	4.55	
2025-01-18 10:16:17.33	125.63	4.57	
2025-01-18 10:16:17.53	125.61	4.58	
2025-01-18 10:16:17.74	125.60	4.59	
2025-01-18 10:16:17.94	125.59	4.61	
2025-01-18 10:16:18.14	125.58	4.62	
2025-01-18 10:16:18.35	125.57	4.64	
2025-01-18 10:16:18.55	125.55	4.65	
2025-01-18 10:16:18.75	125.54	4.66	
2025-01-18 10:16:18.95	125.53	4.68	
2025-01-18 10:16:19.16	125.52	4.69	
2025-01-18 10:16:19.36	125.51	4.71	
2025-01-18 10:16:19.56	125.49	4.72	
2025-01-18 10:16:19.77	125.48	4.73	
2025-01-18 10:16:19.97	125.47	4.75	
2025-01-18 10:16:20.17	125.46	4.76	
2025-01-18 10:16:20.38	125.45	4.78	
2025-01-18 10:16:20.58	125.43	4.79	
2025-01-18 10:16:20.78	125.42	4.81	
2025-01-18 10:16:20.98	125.41	4.82	
2025-01-18 10:16:21.19	125.40	4.83	
2025-01-18 10:16:21.39	125.39	4.85	
2025-01-18 10:16:21.59	125.37	4.86	
2025-01-18 10:16:21.80	125.36	4.88	
2025-01-18 10:16:22.00	125.35	4.89	
2025-01-18 10:16:22.20	125.34	4.90	
2025-01-18 10:16:22.41	125.33	4.92	
2025-01-18 10:16:22.61	125.31	4.93	
2025-01-18 10:16:22.81	125.30	4.95	
2025-01-18 10:16:23.01	125.29	4.96	
2025-01-18 10:16:23.22	125.28	4.98	
2025-01-18 10:16:23.42	125.26	4.99	
2025-01-18 10:16:23.62	125.25	5.00	
2025-01-18 10:16:23.83	125.24	5.02	
2025-01-18 10:16:24.03	125.23	5.03	
2025-01-18 10:16:24.23	125.22	5.05	
2025-01-18 10:16:24.44	125.20	5.06	
2025-01-18 10:16:24.64	125.19	5.08	
2025-01-18 10:16:24.84	125.18	5.09	
2025-01-18 10:16:25.04	125.17	5.10	
2025-01-18 10:16:25.25	125.15	5.12	
2025-01-18 10:16:25.45	125.14	5.13	
2025-01-18 10:16:25.65	125.13	5.15	
2025-01-18 10:16:25.86	125.12	5.16	
2025-01-18 10:16:26.06	125.10	5.18	
2025-01-18 10:16:26.26	125.09	5.19	
2025-01-18 10:16:26.46	125.08	5.20	
2025-01-18 10:16:26.67	125.07	5.22	
2025-01-18 10:16:26.87	125.05	5.23	
2025-01-18 10:16:27.07	125.04	5.25	
2025-01-18 10:16:27.28	125.03	5.26	
2025-01-18 10:16:27.48	125.02	5.28	
2025-01-18 10:16:27.68	125.00	5.29	
2025-01-18 10:16:27.89	124.99	5.31	
2025-01-18 10:16:28.09	124.98	5.32	
2025-01-18 10:16:28.29	124.97	5.33	
2025-01-18 10:16:28.49	124.95	5.35	
2025-01-18 10:16:28.70	124.94	5.36	
2025-01-18 10:16:28.90	124.93	5.38	
2025-01-18 10:16:29.10	124.92	5.39	
2025-01-18 10:16:29.31	124.90	5.41	
2025-01-18 10:16:29.51	124.89	5.42	
2025-01-18 10:16:29.71	124.88	5.44	
2025-01-18 10:16:29.92	124.87	5.45	
2025-01-18 10:16:30.12	124.85	5.46	
2025-01-18 10:16:30.32	124.84	5.48	
2025-01-18 10:16:30.52	124.83	5.49	
2025-01-18 10:16:30.73	124.82	5.51	
2025-01-18 10:16:30.93	124.80	5.52	
2025-01-18 10:16:31.13	124.79	5.54	
2025-01-18 10:16:31.34	124.78	5.55	
2025-01-18 10:16:31.54	124.76	5.57	
2025-01-18 10:16:31.74	124.75	5.58	
2025-01-18 10:16:31.95	124.74	5.60	
2025-01-18 10:16:32.15	124.73	5.61	
2025-01-18 10:16:32.35	124.71	5.62	
2025-01-18 10:16:32.55	124.70	5.64	
2025-01-18 10:16:32.76	124.69	5.65	
2025-01-18 10:16:32.96	124.67	5.67	
2025-01-18 10:16:33.16	124.66	5.68	
2025-01-18 10:16:33.37	124.65	5.70	
2025-01-18 10:16:33.57	124.64	5.71	
2025-01-18 10:16:33.77	124.62	5.73	
2025-01-18 10:16:33.98	124.61	5.74	
2025-01-18 10:16:34.18	124.60	5.76	
2025-01-18 10:16:34.38	124.58	5.77	
2025-01-18 10:16:34.58	124.57	5.79	
2025-01-18 10:16:34.79	124.56	5.80	
2025-01-18 10:16:34.99	124.54	5.82	
2025-01-18 10:16:35.19	124.53	5.83	
2025-01-18 10:16:35.40	124.52	5.84	
2025-01-18 10:16:35.60	124.51	5.86	
2025-01-18 10:16:35.80	124.49	5.87	
2025-01-18 10:16:36.01	124.48	5.89	
2025-01-18 10:16:36.21	124.47	5.90	
2025-01-18 10:16:36.41	124.45	5.92	
2025-01-18 10:16:36.61	124.44	5.93	
2025-01-18 10:16:36.82	124.43	5.95	
2025-01-18 10:16:37.02	124.41	5.96	
2025-01-18 10:16:37.22	124.40	5.98	
2025-01-18 10:16:37.43	124.39	5.99	
2025-01-18 10:16:37.63	124.37	6.01	
2025-01-18 10:16:37.83	124.36	6.02	
2025-01-18 10:16:38.04	124.35	6.04	
2025-01-18 10:16:38.24	124.33	6.05	
2025-01-18 10:16:38.44	124.32	6.07	
2025-01-18 10:16:38.64	124.31	6.08	
2025-01-18 10:16:38.85	124.29	6.10	
2025-01-18 10:16:39.05	124.28	6.11	
2025-01-18 10:16:39.25	124.27	6.13	
2025-01-18 10:16:39.46	124.25	6.14	
2025-01-18 10:16:39.66	124.24	6.16	
2025-01-18 10:16:39.86	124.23	6.17	
2025-01-18 10:16:40.06	124.21	6.18	
2025-01-18 10:16:40.27	124.20	6.20	
2025-01-18 10:16:40.47	124.19	6.21	
2025-01-18 10:16:40.67	124.17	6.23	
2025-01-18 10:16:40.88	124.16	6.24	
2025-01-18 10:16:41.08	124.15	6.26	
2025-01-18 10:16:41.28	124.13	6.27	
2025-01-18 10:16:41.49	124.12	6.29	
2025-01-18 10:16:41.69	124.11	6.30	
2025-01-18 10:16:41.89	124.09	6.32	
2025-01-18 10:16:42.09	124.08	6.33	
2025-01-18 10:16:42.30	124.07	6.35	
2025-01-18 10:16:42.50	124.05	6.36	
2025-01-18 10:16:42.70	124.04	6.38	
2025-01-18 10:16:42.91	124.02	6.39	
2025-01-18 10:16:43.11	124.01	6.41	
2025-01-18 10:16:43.31	124.00	6.42	
2025-01-18 10:16:43.52	123.98	6.44	
2025-01-18 10:16:43.72	123.97	6.45	
2025-01-18 10:16:43.92	123.96	6.47	
2025-01-18 10:16:44.12	123.94	6.48	
2025-01-18 10:16:44.33	123.93	6.50	
2025-01-18 10:16:44.53	123.92	6.51	
2025-01-18 10:16:44.73	123.90	6.53	
2025-01-18 10:16:44.94	123.89	6.55	
2025-01-18 10:16:45.14	123.87	6.56	
2025-01-18 10:16:45.34	123.86	6.57	
2025-01-18 10:16:45.55	123.85	6.59	
2025-01-18 10:16:45.75	123.83	6.61	
2025-01-18 10:16:45.95	123.82	6.62	
2025-01-18 10:16:46.15	123.80	6.64	
2025-01-18 10:16:46.36	123.79	6.65	
2025-01-18 10:16:46.56	123.78	6.67	
2025-01-18 10:16:46.76	123.76	6.68	
2025-01-18 10:16:46.97	123.75	6.70	
2025-01-18 10:16:47.17	123.73	6.71	
2025-01-18 10:16:47.37	123.72	6.73	
2025-01-18 10:16:47.58	123.71	6.74	
2025-01-18 10:16:47.78	123.69	6.76	
2025-01-18 10:16:47.98	123.68	6.77	
2025-01-18 10:16:48.18	123.66	6.79	
2025-01-18 10:16:48.39	123.65	6.80	
2025-01-18 10:16:48.59	123.64	6.82	
2025-01-18 10:16:48.79	123.62	6.83	
2025-01-18 10:16:49.00	123.61	6.85	
2025-01-18 10:16:49.20	123.59	6.86	
2025-01-18 10:16:49.40	123.58	6.88	
2025-01-18 10:16:49.61	123.57	6.89	
2025-01-18 10:16:49.81	123.55	6.91	
2025-01-18 10:16:50.01	123.54	6.92	
2025-01-18 10:16:50.21	123.52	6.94	
2025-01-18 10:16:50.42	123.51	6.96	
2025-01-18 10:16:50.62	123.49	6.97	
2025-01-18 10:16:50.82	123.48	6.99	
2025-01-18 10:16:51.03	123.47	7.00	
2025-01-18 10:16:51.23	123.45	7.02	
2025-01-18 10:16:51.43	123.44	7.03	
2025-01-18 10:16:51.64	123.42	7.05	
2025-01-18 10:16:51.84	123.41	7.06	
2025-01-18 10:16:52.04	123.39	7.08	
2025-01-18 10:16:52.24	123.38	7.09	
2025-01-18 10:16:52.45	123.37	7.11	
2025-01-18 10:16:52.65	123.35	7.12	
2025-01-18 10:16:52.85	123.34	7.14	
2025-01-18 10:16:53.06	123.32	7.16	
2025-01-18 10:16:53.26	123.31	7.17	
2025-01-18 10:16:53.46	123.29	7.19	
2025-01-18 10:16:53.67	123.28	7.20	
2025-01-18 10:16:53.87	123.26	7.22	
2025-01-18 10:16:54.07	123.25	7.23	
2025-01-18 10:16:54.27	123.24	7.25	
2025-01-18 10:16:54.48	123.22	7.26	
2025-01-18 10:16:54.68	123.21	7.28	
2025-01-18 10:16:54.88	123.19	7.29	
2025-01-18 10:16:55.09	123.18	7.31	
2025-01-18 10:16:55.29	123.16	7.33	
2025-01-18 10:16:55.49	123.15	7.34	
2025-01-18 10:16:55.69	123.13	7.36	
2025-01-18 10:16:55.90	123.12	7.37	
2025-01-18 10:16:56.10	123.10	7.39	
2025-01-18 10:16:56.30	123.09	7.40	
2025-01-18 10:16:56.51	123.07	7.42	
2025-01-18 10:16:56.71	123.06	7.43	
2025-01-18 10:16:56.91	123.04	7.45	
2025-01-18 10:16:57.12	123.03	7.47	
2025-01-18 10:16:57.32	123.01	7.48	
2025-01-18 10:16:57.52	123.00	7.50	
2025-01-18 10:16:57.72	122.99	7.51	
2025-01-18 10:16:57.93	122.97	7.53	
2025-01-18 10:16:58.13	122.96	7.54	
2025-01-18 10:16:58.33	122.94	7.56	
2025-01-18 10:16:58.54	122.93	7.58	
2025-01-18 10:16:58.74	122.91	7.59	
2025-01-18 10:16:58.94	122.90	7.61	
2025-01-18 10:16:59.15	122.88	7.62	
2025-01-18 10:16:59.35	122.87	7.64	
2025-01-18 10:16:59.55	122.85	7.65	
2025-01-18 10:16:59.75	122.84	7.67	
2025-01-18 10:16:59.96	122.82	7.69	
2025-01-18 10:17:00.16	122.81	7.70	
2025-01-18 10:17:00.36	122.79	7.72	
2025-01-18 10:17:00.57	122.77	7.73	
2025-01-18 10:17:00.77	122.76	7.75	
2025-01-18 10:17:00.97	122.74	7.76	
2025-01-18 10:17:01.18	122.73	7.78	
2025-01-18 10:17:01.38	122.71	7.80	
2025-01-18 10:17:01.58	122.70	7.81	
2025-01-18 10:17:01.78	122.68	7.83	
2025-01-18 10:17:01.99	122.67	7.84	
2025-01-18 10:17:02.19	122.65	7.86	
2025-01-18 10:17:02.39	122.64	7.87	
2025-01-18 10:17:02.60	122.62	7.89	
2025-01-18 10:17:02.80	122.61	7.91	
2025-01-18 10:17:03.00	122.59	7.92	
2025-01-18 10:17:03.21	122.58	7.94	
2025-01-18 10:17:03.41	122.56	7.95	
2025-01-18 10:17:03.61	122.55	7.97	
2025-01-18 10:17:03.81	122.53	7.99	
2025-01-18 10:17:04.02	122.52	8.00	
2025-01-18 10:17:04.22	122.50	8.02	
2025-01-18 10:17:04.42	122.48	8.03	
2025-01-18 10:17:04.63	122.47	8.05	
2025-01-18 10:17:04.83	122.45	8.07	
2025-01-18 10:17:05.03	122.44	8.08	
2025-01-18 10:17:05.24	122.42	8.10	
2025-01-18 10:17:05.44	122.41	8.11	
2025-01-18 10:17:05.64	122.39	8.13	
2025-01-18 10:17:05.84	122.38	8.14	
2025-01-18 10:17:06.05	122.36	8.16	
2025-01-18 10:17:06.25	122.34	8.18	
2025-01-18 10:17:06.45	122.33	8.19	
2025-01-18 10:17:06.66	122.31	8.21	
2025-01-18 10:17:06.86	122.30	8.23	
2025-01-18 10:17:07.06	122.28	8.24	
2025-01-18 10:17:07.27	122.27	8.26	
2025-01-18 10:17:07.47	122.25	8.27	
2025-01-18 10:17:07.67	122.23	8.29	
2025-01-18 10:17:07.87	122.22	8.31	
2025-01-18 10:17:08.08	122.20	8.32	
2025-01-18 10:17:08.28	122.19	8.34	
2025-01-18 10:17:08.48	122.17	8.35	
2025-01-18 10:17:08.69	122.15	8.37	
2025-01-18 10:17:08.89	122.14	8.39	
2025-01-18 10:17:09.09	122.12	8.40	
2025-01-18 10:17:09.29	122.11	8.42	
2025-01-18 10:17:09.50	122.09	8.43	
2025-01-18 10:17:09.70	122.08	8.45	
2025-01-18 10:17:09.90	122.06	8.47	
2025-01-18 10:17:10.11	122.04	8.48	
2025-01-18 10:17:10.31	122.03	8.50	
2025-01-18 10:17:10.51	122.01	8.52	
2025-01-18 10:17:10.72	121.99	8.53	
2025-01-18 10:17:10.92	121.98	8.55	
2025-01-18 10:17:11.12	121.96	8.56	
2025-01-18 10:17:11.32	121.95	8.58	
2025-01-18 10:17:11.53	121.93	8.60	
2025-01-18 10:17:11.73	121.91	8.61	
2025-01-18 10:17:11.93	121.90	8.63	
2025-01-18 10:17:12.14	121.88	8.65	
2025-01-18 10:17:12.34	121.87	8.66	
2025-01-18 10:17:12.54	121.85	8.68	
2025-01-18 10:17:12.75	121.83	8.69	
2025-01-18 10:17:12.95	121.82	8.71	
2025-01-18 10:17:13.15	121.80	8.73	
2025-01-18 10:17:13.35	121.78	8.74	
2025-01-18 10:17:13.56	121.77	8.76	
2025-01-18 10:17:13.76	121.75	8.78	
2025-01-18 10:17:13.96	121.74	8.79	
2025-01-18 10:17:14.17	121.72	8.81	
2025-01-18 10:17:14.37	121.70	8.83	
2025-01-18 10:17:14.57	121.69	8.84	
2025-01-18 10:17:14.78	121.67	8.86	
2025-01-18 10:17:14.98	121.65	8.87	
2025-01-18 10:17:15.18	121.64	8.89	
2025-01-18 10:17:15.38	121.62	8.91	
2025-01-18 10:17:15.59	121.60	8.92	
2025-01-18 10:17:15.79	121.59	8.94	
2025-01-18 10:17:15.99	121.57	8.96	
2025-01-18 10:17:16.20	121.55	8.97	
2025-01-18 10:17:16.40	121.54	8.99	
2025-01-18 10:17:16.60	121.52	9.01	
2025-01-18 10:17:16.81	121.50	9.02	
2025-01-18 10:17:17.01	121.49	9.04	
2025-01-18 10:17:17.21	121.47	9.06	
2025-01-18 10:17:17.41	121.45	9.07	
2025-01-18 10:17:17.62	121.44	9.09	
2025-01-18 10:17:17.82	121.42	9.11	
2025-01-18 10:17:18.02	121.40	9.12	
2025-01-18 10:17:18.23	121.39	9.14	
2025-01-18 10:17:18.43	121.37	9.16	
2025-01-18 10:17:18.63	121.35	9.17	
2025-01-18 10:17:18.84	121.34	9.19	
2025-01-18 10:17:19.04	121.32	9.21	
2025-01-18 10:17:19.24	121.30	9.22	
2025-01-18 10:17:19.44	121.29	9.24	
2025-01-18 10:17:19.65	121.27	9.26	
2025-01-18 10:17:19.85	121.25	9.27	
2025-01-18 10:17:20.05	121.23	9.29	
2025-01-18 10:17:20.26	121.22	9.31	
2025-01-18 10:17:20.46	121.20	9.32	
2025-01-18 10:17:20.66	121.18	9.34	
2025-01-18 10:17:20.87	121.17	9.36	
2025-01-18 10:17:21.07	121.15	9.37	
2025-01-18 10:17:21.27	121.13	9.39	
2025-01-18 10:17:21.47	121.11	9.40	
2025-01-18 10:17:21.68	121.10	9.42	
2025-01-18 10:17:21.88	121.08	9.44	
2025-01-18 10:17:22.08	121.06	9.46	
2025-01-18 10:17:22.29	121.04	9.47	
2025-01-18 10:17:22.49	121.03	9.49	
2025-01-18 10:17:22.69	121.01	9.51	
2025-01-18 10:17:22.90	120.99	9.52	
2025-01-18 10:17:23.10	120.98	9.54	
2025-01-18 10:17:23.30	120.96	9.56	
2025-01-18 10:17:23.50	120.94	9.57	
2025-01-18 10:17:23.71	120.92	9.59	
2025-01-18 10:17:23.91	120.91	9.61	
2025-01-18 10:17:24.11	120.89	9.62	
2025-01-18 10:17:24.32	120.87	9.64	
2025-01-18 10:17:24.52	120.85	9.66	
2025-01-18 10:17:24.72	120.84	9.67	
2025-01-18 10:17:24.92	120.82	9.69	
2025-01-18 10:17:25.13	120.80	9.71	
2025-01-18 10:17:25.33	120.78	9.73	
2025-01-18 10:17:25.53	120.77	9.74	
2025-01-18 10:17:25.74	120.75	9.76	
2025-01-18 10:17:25.94	120.73	9.78	
2025-01-18 10:17:26.14	120.71	9.79	
2025-01-18 10:17:26.35	120.69	9.81	
2025-01-18 10:17:26.55	120.68	9.83	
2025-01-18 10:17:26.75	120.66	9.84	
2025-01-18 10:17:26.95	120.64	9.86	
2025-01-18 10:17:27.16	120.62	9.88	
2025-01-18 10:17:27.36	120.61	9.90	
2025-01-18 10:17:27.56	120.59	9.91	
2025-01-18 10:17:27.77	120.57	9.93	
2025-01-18 10:17:27.97	120.55	9.95	
2025-01-18 10:17:28.17	120.53	9.96	
2025-01-18 10:17:28.38	120.52	9.98	
2025-01-18 10:17:28.58	120.50	10.00	
2025-01-18 10:17:28.78	120.48	10.01	
2025-01-18 10:17:28.98	120.46	10.03	
2025-01-18 10:17:29.19	120.44	10.05	
2025-01-18 10:17:29.39	120.43	10.07	
2025-01-18 10:17:29.59	120.41	10.08	
2025-01-18 10:17:29.80	120.39	10.10	
2025-01-18 10:17:30.00	120.37	10.12	
2025-01-18 10:17:30.20	120.35	10.13	
2025-01-18 10:17:30.41	120.34	10.15	
2025-01-18 10:17:30.61	120.32	10.17	
2025-01-18 10:17:30.81	120.30	10.19	
2025-01-18 10:17:31.01	120.28	10.20	
2025-01-18 10:17:31.22	120.26	10.22	
2025-01-18 10:17:31.42	120.24	10.24	
2025-01-18 10:17:31.62	120.23	10.26	
2025-01-18 10:17:31.83	120.21	10.27	
2025-01-18 10:17:32.03	120.19	10.29	
2025-01-18 10:17:32.23	120.17	10.31	
2025-01-18 10:17:32.44	120.15	10.33	
2025-01-18 10:17:32.64	120.13	10.34	
2025-01-18 10:17:32.84	120.12	10.36	
2025-01-18 10:17:33.04	120.10	10.38	
2025-01-18 10:17:33.25	120.08	10.39	
2025-01-18 10:17:33.45	120.06	10.41	
2025-01-18 10:17:33.65	120.04	10.43	
2025-01-18 10:17:33.86	120.02	10.45	
2025-01-18 10:17:34.06	120.00	10.46	
2025-01-18 10:17:34.26	119.99	10.48	
2025-01-18 10:17:34.47	119.97	10.50	
2025-01-18 10:17:34.67	119.95	10.52	
2025-01-18 10:17:34.87	119.93	10.53	
2025-01-18 10:17:35.07	119.91	10.55	
2025-01-18 10:17:35.28	119.89	10.57	
2025-01-18 10:17:35.48	119.87	10.59	
2025-01-18 10:17:35.68	119.85	10.60	
2025-01-18 10:17:35.89	119.84	10.62	
2025-01-18 10:17:36.09	119.82	10.64	
2025-01-18 10:17:36.29	119.80	10.66	
2025-01-18 10:17:36.50	119.78	10.67	
2025-01-18 10:17:36.70	119.76	10.69	
2025-01-18 10:17:36.90	119.74	10.71	
2025-01-18 10:17:37.10	119.72	10.73	
2025-01-18 10:17:37.31	119.70	10.74	
2025-01-18 10:17:37.51	119.68	10.76	
2025-01-18 10:17:37.71	119.67	10.78	
2025-01-18 10:17:37.92	119.65	10.80	
2025-01-18 10:17:38.12	119.63	10.81	
2025-01-18 10:17:38.32	119.61	10.83	
2025-01-18 10:17:38.53	119.59	10.85	
2025-01-18 10:17:38.73	119.57	10.87	
2025-01-18 10:17:38.93	119.55	10.88	
2025-01-18 10:17:39.13	119.53	10.90	
2025-01-18 10:17:39.34	119.51	10.92	
2025-01-18 10:17:39.54	119.49	10.94	
2025-01-18 10:17:39.74	119.47	10.95	
2025-01-18 10:17:39.95	119.45	10.97	
2025-01-18 10:17:40.15	119.43	10.99	
2025-01-18 10:17:40.35	119.42	11.01	
2025-01-18 10:17:40.55	119.40	11.03	
2025-01-18 10:17:40.76	119.38	11.04	
2025-01-18 10:17:40.96	119.36	11.06	
2025-01-18 10:17:41.16	119.34	11.08	
2025-01-18 10:17:41.37	119.32	11.10	
2025-01-18 10:17:41.57	119.30	11.11	
2025-01-18 10:17:41.77	119.28	11.13	
2025-01-18 10:17:41.98	119.26	11.15	
2025-01-18 10:17:42.18	119.24	11.17	
2025-01-18 10:17:42.38	119.22	11.19	
2025-01-18 10:17:42.58	119.20	11.20	
2025-01-18 10:17:42.79	119.18	11.22	
2025-01-18 10:17:42.99	119.16	11.24	
2025-01-18 10:17:43.19	119.14	11.26	
2025-01-18 10:17:43.40	119.12	11.28	
2025-01-18 10:17:43.60	119.10	11.29	
2025-01-18 10:17:43.80	119.08	11.31	
2025-01-18 10:17:44.01	119.06	11.33	
2025-01-18 10:17:44.21	119.04	11.35	
2025-01-18 10:17:44.41	119.02	11.36	
2025-01-18 10:17:44.61	119.00	11.38	
2025-01-18 10:17:44.82	118.98	11.40	
2025-01-18 10:17:45.02	118.96	11.42	
2025-01-18 10:17:45.22	118.94	11.44	
2025-01-18 10:17:45.43	118.92	11.46	
2025-01-18 10:17:45.63	118.90	11.47	
2025-01-18 10:17:45.83	118.88	11.49	
2025-01-18 10:17:46.04	118.86	11.51	
2025-01-18 10:17:46.24	118.84	11.53	
2025-01-18 10:17:46.44	118.82	11.55	
2025-01-18 10:17:46.64	118.80	11.56	
2025-01-18 10:17:46.85	118.78	11.58	
2025-01-18 10:17:47.05	118.76	11.60	
2025-01-18 10:17:47.25	118.74	11.62	
2025-01-18 10:17:47.46	118.72	11.64	
2025-01-18 10:17:47.66	118.70	11.65	
2025-01-18 10:17:47.86	118.68	11.67	
2025-01-18 10:17:48.07	118.66	11.69	
2025-01-18 10:17:48.27	118.64	11.71	
2025-01-18 10:17:48.47	118.62	11.73	
2025-01-18 10:17:48.67	118.60	11.74	
2025-01-18 10:17:48.88	118.58	11.76	
2025-01-18 10:17:49.08	118.56	11.78	
2025-01-18 10:17:49.28	118.54	11.80	
2025-01-18 10:17:49.49	118.51	11.82	
2025-01-18 10:17:49.69	118.49	11.84	
2025-01-18 10:17:49.89	118.47	11.85	
2025-01-18 10:17:50.10	118.45	11.87	
2025-01-18 10:17:50.30	118.43	11.89	
2025-01-18 10:17:50.50	118.41	11.91	
2025-01-18 10:17:50.70	118.39	11.93	
2025-01-18 10:17:50.91	118.37	11.95	
2025-01-18 10:17:51.11	118.35	11.96	
2025-01-18 10:17:51.31	118.33	11.98	
2025-01-18 10:17:51.52	118.31	12.00	
2025-01-18 10:17:51.72	118.29	12.02	
2025-01-18 10:17:51.92	118.27	12.04	
2025-01-18 10:17:52.13	118.24	12.06	
2025-01-18 10:17:52.33	118.22	12.07	
2025-01-18 10:17:52.53	118.20	12.09	
2025-01-18 10:17:52.73	118.18	12.11	
2025-01-18 10:17:52.94	118.16	12.13	
2025-01-18 10:17:53.14	118.14	12.15	
2025-01-18 10:17:53.34	118.12	12.17	
2025-01-18 10:17:53.55	118.10	12.19	
2025-01-18 10:17:53.75	118.07	12.20	
2025-01-18 10:17:53.95	118.05	12.22	
2025-01-18 10:17:54.15	118.03	12.24	
2025-01-18 10:17:54.36	118.01	12.26	
2025-01-18 10:17:54.56	117.99	12.28	
2025-01-18 10:17:54.76	117.97	12.30	
2025-01-18 10:17:54.97	117.95	12.31	
2025-01-18 10:17:55.17	117.93	12.33	
2025-01-18 10:17:55.37	117.90	12.35	
2025-01-18 10:17:55.58	117.88	12.37	
2025-01-18 10:17:55.78	117.86	12.39	
2025-01-18 10:17:55.98	117.84	12.41	
2025-01-18 10:17:56.18	117.82	12.43	
2025-01-18 10:17:56.39	117.80	12.45	
2025-01-18 10:17:56.59	117.77	12.46	
2025-01-18 10:17:56.79	117.75	12.48	
2025-01-18 10:17:57.00	117.73	12.50	
2025-01-18 10:17:57.20	117.71	12.52	
2025-01-18 10:17:57.40	117.69	12.54	
2025-01-18 10:17:57.61	117.67	12.56	
2025-01-18 10:17:57.81	117.64	12.58	
2025-01-18 10:17:58.01	117.62	12.59	
2025-01-18 10:17:58.21	117.60	12.61	
2025-01-18 10:17:58.42	117.58	12.63	
2025-01-18 10:17:58.62	117.56	12.65	
2025-01-18 10:17:58.82	117.54	12.67	
2025-01-18 10:17:59.03	117.51	12.69	
2025-01-18 10:17:59.23	117.49	12.71	
2025-01-18 10:17:59.43	117.47	12.73	
2025-01-18 10:17:59.64	117.45	12.75	
2025-01-18 10:17:59.84	117.42	12.76	
2025-01-18 10:18:00.04	117.40	12.78	
2025-01-18 10:18:00.24	117.38	12.80	
2025-01-18 10:18:00.45	117.36	12.82	
2025-01-18 10:18:00.65	117.34	12.84	
2025-01-18 10:18:00.85	117.31	12.86	
2025-01-18 10:18:01.06	117.29	12.88	
2025-01-18 10:18:01.26	117.27	12.90	
2025-01-18 10:18:01.46	117.25	12.91	
2025-01-18 10:18:01.67	117.22	12.93	
2025-01-18 10:18:01.87	117.20	12.95	
2025-01-18 10:18:02.07	117.18	12.97	
2025-01-18 10:18:02.27	117.16	12.99	
2025-01-18 10:18:02.48	117.13	13.01	
2025-01-18 10:18:02.68	117.11	13.03	
2025-01-18 10:18:02.88	117.09	13.05	
2025-01-18 10:18:03.09	117.07	13.07	
2025-01-18 10:18:03.29	117.04	13.09	
2025-01-18 10:18:03.49	117.02	13.10	
2025-01-18 10:18:03.70	117.00	13.12	
2025-01-18 10:18:03.90	116.98	13.14	
2025-01-18 10:18:04.10	116.95	13.16	
2025-01-18 10:18:04.30	116.93	13.18	
2025-01-18 10:18:04.51	116.91	13.20	
2025-01-18 10:18:04.71	116.88	13.22	
2025-01-18 10:18:04.91	116.86	13.24	
2025-01-18 10:18:05.12	116.84	13.26	
2025-01-18 10:18:05.32	116.82	13.28	
2025-01-18 10:18:05.52	116.79	13.30	
2025-01-18 10:18:05.73	116.77	13.32	
2025-01-18 10:18:05.93	116.75	13.33	
2025-01-18 10:18:06.13	116.72	13.35	
2025-01-18 10:18:06.33	116.70	13.37	
2025-01-18 10:18:06.54	116.68	13.39	
2025-01-18 10:18:06.74	116.65	13.41	
2025-01-18 10:18:06.94	116.63	13.43	
2025-01-18 10:18:07.15	116.61	13.45	
2025-01-18 10:18:07.35	116.58	13.47	
2025-01-18 10:18:07.55	116.56	13.49	
2025-01-18 10:18:07.76	116.54	13.51	
2025-01-18 10:18:07.96	116.51	13.53	
2025-01-18 10:18:08.16	116.49	13.55	
2025-01-18 10:18:08.36	116.47	13.57	
2025-01-18 10:18:08.57	116.44	13.59	
2025-01-18 10:18:08.77	116.42	13.60	
2025-01-18 10:18:08.97	116.40	13.62	
2025-01-18 10:18:09.18	116.37	13.64	
2025-01-18 10:18:09.38	116.35	13.66	
2025-01-18 10:18:09.58	116.33	13.68	
2025-01-18 10:18:09.78	116.30	13.70	
2025-01-18 10:18:09.99	116.28	13.72	
2025-01-18 10:18:10.19	116.25	13.74	
2025-01-18 10:18:10.39	116.23	13.76	
2025-01-18 10:18:10.60	116.21	13.78	
2025-01-18 10:18:10.80	116.18	13.80	
2025-01-18 10:18:11.00	116.16	13.82	
2025-01-18 10:18:11.21	116.13	13.84	
2025-01-18 10:18:11.41	116.11	13.86	
2025-01-18 10:18:11.61	116.09	13.88	
2025-01-18 10:18:11.81	116.06	13.90	
2025-01-18 10:18:12.02	116.04	13.92	
2025-01-18 10:18:12.22	116.01	13.94	
2025-01-18 10:18:12.42	115.99	13.96	
2025-01-18 10:18:12.63	115.97	13.98	
2025-01-18 10:18:12.83	115.94	14.00	
2025-01-18 10:18:13.03	115.92	14.01	
2025-01-18 10:18:13.24	115.89	14.04	
2025-01-18 10:18:13.44	115.87	14.05	
2025-01-18 10:18:13.64	115.85	14.07	
2025-01-18 10:18:13.84	115.82	14.09	
2025-01-18 10:18:14.05	115.80	14.11	
2025-01-18 10:18:14.25	115.77	14.13	
2025-01-18 10:18:14.45	115.75	14.15	
2025-01-18 10:18:14.66	115.72	14.17	
2025-01-18 10:18:14.86	115.70	14.19	
2025-01-18 10:18:15.06	115.67	14.21	
2025-01-18 10:18:15.27	115.65	14.23	
2025-01-18 10:18:15.47	115.62	14.25	
2025-01-18 10:18:15.67	115.60	14.27	
2025-01-18 10:18:15.87	115.58	14.29	
2025-01-18 10:18:16.08	115.55	14.31	
2025-01-18 10:18:16.28	115.53	14.33	
2025-01-18 10:18:16.48	115.50	14.35	
2025-01-18 10:18:16.69	115.47	14.37	
2025-01-18 10:18:16.89	115.45	14.39	
2025-01-18 10:18:17.09	115.43	14.41	
2025-01-18 10:18:17.30	115.40	14.43	
2025-01-18 10:18:17.50	115.38	14.45	
2025-01-18 10:18:17.70	115.35	14.47	
2025-01-18 10:18:17.90	115.33	14.49	
2025-01-18 10:18:18.11	115.30	14.51	
2025-01-18 10:18:18.31	115.27	14.53	
2025-01-18 10:18:18.51	115.25	14.55	
2025-01-18 10:18:18.72	115.22	14.57	
2025-01-18 10:18:18.92	115.20	14.59	
2025-01-18 10:18:19.12	115.17	14.61	
2025-01-18 10:18:19.33	115.15	14.63	
2025-01-18 10:18:19.53	115.12	14.65	
2025-01-18 10:18:19.73	115.10	14.67	
2025-01-18 10:18:19.93	115.07	14.69	
2025-01-18 10:18:20.14	115.05	14.71	
2025-01-18 10:18:20.34	115.02	14.73	
2025-01-18 10:18:20.54	115.00	14.75	
2025-01-18 10:18:20.75	114.97	14.77	
2025-01-18 10:18:20.95	114.94	14.79	
2025-01-18 10:18:21.15	114.92	14.81	
2025-01-18 10:18:21.36	114.89	14.83	
2025-01-18 10:18:21.56	114.87	14.85	
2025-01-18 10:18:21.76	114.84	14.87	
2025-01-18 10:18:21.96	114.82	14.89	
2025-01-18 10:18:22.17	114.79	14.91	
2025-01-18 10:18:22.37	114.76	14.93	
2025-01-18 10:18:22.57	114.74	14.95	
2025-01-18 10:18:22.78	114.71	14.97	
2025-01-18 10:18:22.98	114.68	14.99	
2025-01-18 10:18:23.18	114.66	15.01	
2025-01-18 10:18:23.38	114.63	15.03	
2025-01-18 10:18:23.59	114.61	15.05	
2025-01-18 10:18:23.79	114.58	15.07	
2025-01-18 10:18:23.99	114.55	15.09	
2025-01-18 10:18:24.20	114.53	15.12	
2025-01-18 10:18:24.40	114.50	15.14	
2025-01-18 10:18:24.60	114.48	15.16	
2025-01-18 10:18:24.81	114.45	15.18	
2025-01-18 10:18:25.01	114.42	15.20	
2025-01-18 10:18:25.21	114.40	15.22	
2025-01-18 10:18:25.41	114.37	15.24	
2025-01-18 10:18:25.62	114.34	15.26	
2025-01-18 10:18:25.82	114.32	15.28	
2025-01-18 10:18:26.02	114.29	15.30	
2025-01-18 10:18:26.23	114.26	15.32	
2025-01-18 10:18:26.43	114.24	15.34	
2025-01-18 10:18:26.63	114.21	15.36	
2025-01-18 10:18:26.84	114.18	15.38	
2025-01-18 10:18:27.04	114.16	15.40	
2025-01-18 10:18:27.24	114.13	15.42	
2025-01-18 10:18:27.44	114.10	15.44	
2025-01-18 10:18:27.65	114.07	15.46	
2025-01-18 10:18:27.85	114.05	15.48	
2025-01-18 10:18:28.05	114.02	15.50	
2025-01-18 10:18:28.26	113.99	15.53	
2025-01-18 10:18:28.46	113.97	15.55	
2025-01-18 10:18:28.66	113.94	15.57	
2025-01-18 10:18:28.87	113.91	15.59	
2025-01-18 10:18:29.07	113.89	15.61	
2025-01-18 10:18:29.27	113.86	15.63	
2025-01-18 10:18:29.47	113.83	15.65	
2025-01-18 10:18:29.68	113.80	15.67	
2025-01-18 10:18:29.88	113.78	15.69	
2025-01-18 10:18:30.08	113.75	15.71	
2025-01-18 10:18:30.29	113.72	15.73	
2025-01-18 10:18:30.49	113.69	15.75	
2025-01-18 10:18:30.69	113.67	15.77	
2025-01-18 10:18:30.90	113.64	15.79	
2025-01-18 10:18:31.10	113.61	15.82	
2025-01-18 10:18:31.30	113.58	15.84	
2025-01-18 10:18:31.50	113.56	15.86	
2025-01-18 10:18:31.71	113.53	15.88	
2025-01-18 10:18:31.91	113.50	15.90	
2025-01-18 10:18:32.11	113.47	15.92	
2025-01-18 10:18:32.32	113.44	15.94	
2025-01-18 10:18:32.52	113.42	15.96	
2025-01-18 10:18:32.72	113.39	15.98	
2025-01-18 10:18:32.93	113.36	16.00	
2025-01-18 10:18:33.13	113.33	16.02	
2025-01-18 10:18:33.33	113.30	16.04	
2025-01-18 10:18:33.53	113.28	16.07	
2025-01-18 10:18:33.74	113.25	16.09	
2025-01-18 10:18:33.94	113.22	16.11	
2025-01-18 10:18:34.14	113.19	16.13	
2025-01-18 10:18:34.35	113.16	16.15	
2025-01-18 10:18:34.55	113.13	16.17	
2025-01-18 10:18:34.75	113.11	16.19	
2025-01-18 10:18:34.96	113.08	16.21	
2025-01-18 10:18:35.16	113.05	16.23	
2025-01-18 10:18:35.36	113.02	16.25	
2025-01-18 10:18:35.56	112.99	16.28	
2025-01-18 10:18:35.77	112.96	16.30	
2025-01-18 10:18:35.97	112.93	16.32	
2025-01-18 10:18:36.17	112.91	16.34	
2025-01-18 10:18:36.38	112.88	16.36	
2025-01-18 10:18:36.58	112.85	16.38	
2025-01-18 10:18:36.78	112.82	16.40	
2025-01-18 10:18:36.99	112.79	16.42	
2025-01-18 10:18:37.19	112.76	16.45	
2025-01-18 10:18:37.39	112.73	16.47	
2025-01-18 10:18:37.59	112.70	16.49	
2025-01-18 10:18:37.80	112.67	16.51	
2025-01-18 10:18:38.00	112.65	16.53	
2025-01-18 10:18:38.20	112.62	16.55	
2025-01-18 10:18:38.41	112.59	16.57	
2025-01-18 10:18:38.61	112.56	16.59	
2025-01-18 10:18:38.81	112.53	16.61	
2025-01-18 10:18:39.01	112.50	16.64	
2025-01-18 10:18:39.22	112.47	16.66	
2025-01-18 10:18:39.42	112.44	16.68	
2025-01-18 10:18:39.62	112.41	16.70	
2025-01-18 10:18:39.83	112.38	16.72	
2025-01-18 10:18:40.03	112.35	16.74	
2025-01-18 10:18:40.23	112.32	16.76	
2025-01-18 10:18:40.44	112.29	16.79	
2025-01-18 10:18:40.64	112.26	16.81	
2025-01-18 10:18:40.84	112.23	16.83	
2025-01-18 10:18:41.04	112.20	16.85	
2025-01-18 10:18:41.25	112.17	16.87	
2025-01-18 10:18:41.45	112.14	16.89	
2025-01-18 10:18:41.65	112.11	16.91	
2025-01-18 10:18:41.86	112.08	16.94	
2025-01-18 10:18:42.06	112.05	16.96	
2025-01-18 10:18:42.26	112.02	16.98	
2025-01-18 10:18:42.47	111.99	17.00	
2025-01-18 10:18:42.67	111.96	17.02	
2025-01-18 10:18:42.87	111.93	17.04	
2025-01-18 10:18:43.07	111.90	17.06	
2025-01-18 10:18:43.28	111.87	17.09	
2025-01-18 10:18:43.48	111.84	17.11	
2025-01-18 10:18:43.68	111.81	17.13	
2025-01-18 10:18:43.89	111.78	17.15	
2025-01-18 10:18:44.09	111.75	17.17	
2025-01-18 10:18:44.29	111.72	17.19	
2025-01-18 10:18:44.50	111.69	17.22	
2025-01-18 10:18:44.70	111.66	17.24	
2025-01-18 10:18:44.90	111.63	17.26	
2025-01-18 10:18:45.10	111.60	17.28	
2025-01-18 10:18:45.31	111.57	17.30	
2025-01-18 10:18:45.51	111.54	17.32	
2025-01-18 10:18:45.71	111.51	17.35	
2025-01-18 10:18:45.92	111.47	17.37	
2025-01-18 10:18:46.12	111.44	17.39	
2025-01-18 10:18:46.32	111.41	17.41	
2025-01-18 10:18:46.53	111.38	17.43	
2025-01-18 10:18:46.73	111.35	17.46	
2025-01-18 10:18:46.93	111.32	17.48	
2025-01-18 10:18:47.13	111.29	17.50	
2025-01-18 10:18:47.34	111.26	17.52	
2025-01-18 10:18:47.54	111.23	17.54	
2025-01-18 10:18:47.74	111.19	17.56	
2025-01-18 10:18:47.95	111.16	17.59	
2025-01-18 10:18:48.15	111.13	17.61	
2025-01-18 10:18:48.35	111.10	17.63	
2025-01-18 10:18:48.56	111.07	17.65	
2025-01-18 10:18:48.76	111.04	17.67	
2025-01-18 10:18:48.96	111.01	17.70	
2025-01-18 10:18:49.16	110.97	17.72	
2025-01-18 10:18:49.37	110.94	17.74	
2025-01-18 10:18:49.57	110.91	17.76	
2025-01-18 10:18:49.77	110.88	17.78	
2025-01-18 10:18:49.98	110.85	17.81	
2025-01-18 10:18:50.18	110.81	17.83	
2025-01-18 10:18:50.38	110.78	17.85	
2025-01-18 10:18:50.59	110.75	17.87	
2025-01-18 10:18:50.79	110.72	17.89	
2025-01-18 10:18:50.99	110.69	17.92	
2025-01-18 10:18:51.19	110.65	17.94	
2025-01-18 10:18:51.40	110.62	17.96	
2025-01-18 10:18:51.60	110.59	17.98	
2025-01-18 10:18:51.80	110.56	18.00	
2025-01-18 10:18:52.01	110.52	18.03	
2025-01-18 10:18:52.21	110.49	18.05	
2025-01-18 10:18:52.41	110.46	18.07	
2025-01-18 10:18:52.62	110.43	18.09	
2025-01-18 10:18:52.82	110.39	18.12	
2025-01-18 10:18:53.02	110.36	18.14	
2025-01-18 10:18:53.22	110.33	18.16	
2025-01-18 10:18:53.43	110.30	18.18	
2025-01-18 10:18:53.63	110.26	18.20	
2025-01-18 10:18:53.83	110.23	18.23	
2025-01-18 10:18:54.04	110.20	18.25	
2025-01-18 10:18:54.24	110.16	18.27	
2025-01-18 10:18:54.44	110.13	18.29	
2025-01-18 10:18:54.64	110.10	18.31	
2025-01-18 10:18:54.85	110.07	18.34	
2025-01-18 10:18:55.05	110.03	18.36	
2025-01-18 10:18:55.25	110.00	18.38	
2025-01-18 10:18:55.46	109.97	18.41	
2025-01-18 10:18:55.66	109.93	18.43	
2025-01-18 10:18:55.86	109.90	18.45	
2025-01-18 10:18:56.07	109.87	18.47	
2025-01-18 10:18:56.27	109.83	18.49	
2025-01-18 10:18:56.47	109.80	18.52	
2025-01-18 10:18:56.67	109.77	18.54	
2025-01-18 10:18:56.88	109.73	18.56	
2025-01-18 10:18:57.08	109.70	18.58	
2025-01-18 10:18:57.28	109.67	18.61	
2025-01-18 10:18:57.49	109.63	18.63	
2025-01-18 10:18:57.69	109.60	18.65	
2025-01-18 10:18:57.89	109.56	18.67	
2025-01-18 10:18:58.10	109.53	18.70	
2025-01-18 10:18:58.30	109.49	18.72	
2025-01-18 10:18:58.50	109.46	18.74	
2025-01-18 10:18:58.70	109.43	18.76	
2025-01-18 10:18:58.91	109.39	18.79	
2025-01-18 10:18:59.11	109.36	18.81	
2025-01-18 10:18:59.31	109.32	18.83	
2025-01-18 10:18:59.52	109.29	18.85	
2025-01-18 10:18:59.72	109.26	18.88	
2025-01-18 10:18:59.92	109.22	18.90	
2025-01-18 10:19:00.13	109.19	18.92	
2025-01-18 10:19:00.33	109.15	18.95	
2025-01-18 10:19:00.53	109.12	18.97	
2025-01-18 10:19:00.73	109.08	18.99	
2025-01-18 10:19:00.94	109.05	19.01	
2025-01-18 10:19:01.14	109.01	19.04	
2025-01-18 10:19:01.34	108.98	19.06	
2025-01-18 10:19:01.55	108.94	19.08	
2025-01-18 10:19:01.75	108.91	19.10	
2025-01-18 10:19:01.95	108.87	19.13	
2025-01-18 10:19:02.16	108.84	19.15	
2025-01-18 10:19:02.36	108.80	19.17	
2025-01-18 10:19:02.56	108.77	19.19	
2025-01-18 10:19:02.76	108.73	19.22	
2025-01-18 10:19:02.97	108.70	19.24	
2025-01-18 10:19:03.17	108.66	19.26	
2025-01-18 10:19:03.37	108.63	19.29	
2025-01-18 10:19:03.58	108.59	19.31	
2025-01-18 10:19:03.78	108.56	19.33	
2025-01-18 10:19:03.98	108.52	19.35	
2025-01-18 10:19:04.19	108.48	19.38	
2025-01-18 10:19:04.39	108.45	19.40	
2025-01-18 10:19:04.59	108.41	19.42	
2025-01-18 10:19:04.79	108.38	19.45	
2025-01-18 10:19:05.00	108.34	19.47	
2025-01-18 10:19:05.20	108.31	19.49	
2025-01-18 10:19:05.40	108.27	19.51	
2025-01-18 10:19:05.61	108.23	19.54	
2025-01-18 10:19:05.81	108.20	19.56	
2025-01-18 10:19:06.01	108.16	19.58	
2025-01-18 10:19:06.21	108.13	19.61	
2025-01-18 10:19:06.42	108.09	19.63	
2025-01-18 10:19:06.62	108.05	19.65	
2025-01-18 10:19:06.82	108.02	19.68	
2025-01-18 10:19:07.03	107.98	19.70	
2025-01-18 10:19:07.23	107.94	19.72	
2025-01-18 10:19:07.43	107.91	19.74	
2025-01-18 10:19:07.64	107.87	19.77	
2025-01-18 10:19:07.84	107.83	19.79	
2025-01-18 10:19:08.04	107.80	19.81	
2025-01-18 10:19:08.24	107.76	19.84	
2025-01-18 10:19:08.45	107.72	19.86	
2025-01-18 10:19:08.65	107.69	19.88	
2025-01-18 10:19:08.85	107.65	19.91	
2025-01-18 10:19:09.06	107.61	19.93	
2025-01-18 10:19:09.26	107.58	19.95	
2025-01-18 10:19:09.46	107.54	19.98	
2025-01-18 10:19:09.67	107.50	20.00	
2025-01-18 10:19:09.87	107.46	20.02	
2025-01-18 10:19:10.07	107.43	20.05	
2025-01-18 10:19:10.27	107.39	20.07	
2025-01-18 10:19:10.48	107.35	20.09	
2025-01-18 10:19:10.68	107.32	20.12	
2025-01-18 10:19:10.88	107.28	20.14	
2025-01-18 10:19:11.09	107.24	20.16	
2025-01-18 10:19:11.29	107.20	20.19	
2025-01-18 10:19:11.49	107.17	20.21	
2025-01-18 10:19:11.70	107.13	20.23	
2025-01-18 10:19:11.90	107.09	20.26	
2025-01-18 10:19:12.10	107.05	20.28	
2025-01-18 10:19:12.30	107.01	20.30	
2025-01-18 10:19:12.51	106.98	20.33	
2025-01-18 10:19:12.71	106.94	20.35	
2025-01-18 10:19:12.91	106.90	20.37	
2025-01-18 10:19:13.12	106.86	20.40	
2025-01-18 10:19:13.32	106.82	20.42	
2025-01-18 10:19:13.52	106.78	20.44	
2025-01-18 10:19:13.74	106.74	20.47	
2025-01-18 10:19:13.94	106.71	20.49	
2025-01-18 10:19:14.14	106.67	20.51	
2025-01-18 10:19:14.35	106.63	20.54	
2025-01-18 10:19:14.55	106.59	20.56	
2025-01-18 10:19:14.75	106.55	20.58	
2025-01-18 10:19:14.96	106.51	20.61	
2025-01-18 10:19:15.16	106.47	20.63	
2025-01-18 10:19:15.36	106.43	20.65	
2025-01-18 10:19:15.57	106.39	20.68	
2025-01-18 10:19:15.77	106.36	20.70	
2025-01-18 10:19:15.97	106.32	20.72	
2025-01-18 10:19:16.17	106.28	20.75	
2025-01-18 10:19:16.38	106.24	20.77	
2025-01-18 10:19:16.58	106.20	20.80	
2025-01-18 10:19:16.78	106.16	20.82	
2025-01-18 10:19:16.99	106.12	20.84	
2025-01-18 10:19:17.19	106.08	20.87	
2025-01-18 10:19:17.39	106.04	20.89	
2025-01-18 10:19:17.60	106.00	20.91	
2025-01-18 10:19:17.80	105.96	20.94	
2025-01-18 10:19:18.00	105.92	20.96	
2025-01-18 10:19:18.20	105.88	20.98	
2025-01-18 10:19:18.42	105.84	21.01	
2025-01-18 10:19:18.62	105.80	21.03	
2025-01-18 10:19:18.83	105.76	21.06	
2025-01-18 10:19:19.03	105.72	21.08	
2025-01-18 10:19:19.23	105.68	21.10	
2025-01-18 10:19:19.43	105.64	21.13	
2025-01-18 10:19:19.64	105.60	21.15	
2025-01-18 10:19:19.84	105.56	21.18	
2025-01-18 10:19:20.04	105.52	21.20	
2025-01-18 10:19:20.25	105.48	21.22	
2025-01-18 10:19:20.45	105.44	21.25	
2025-01-18 10:19:20.65	105.40	21.27	
2025-01-18 10:19:20.86	105.36	21.29	
2025-01-18 10:19:21.06	105.32	21.32	
2025-01-18 10:19:21.26	105.28	21.34	
2025-01-18 10:19:21.46	105.24	21.36	
2025-01-18 10:19:21.67	105.19	21.39	
2025-01-18 10:19:21.87	105.15	21.41	
2025-01-18 10:19:22.07	105.11	21.44	
2025-01-18 10:19:22.28	105.07	21.46	
2025-01-18 10:19:22.48	105.03	21.48	
2025-01-18 10:19:22.68	104.99	21.51	
2025-01-18 10:19:22.89	104.95	21.53	
2025-01-18 10:19:23.09	104.91	21.56	
2025-01-18 10:19:23.29	104.86	21.58	
2025-01-18 10:19:23.49	104.82	21.60	
2025-01-18 10:19:23.70	104.78	21.63	
2025-01-18 10:19:23.90	104.74	21.65	
2025-01-18 10:19:24.10	104.70	21.67	
2025-01-18 10:19:24.31	104.66	21.70	
2025-01-18 10:19:24.51	104.61	21.72	
2025-01-18 10:19:24.71	104.57	21.75	
2025-01-18 10:19:24.92	104.53	21.77	
2025-01-18 10:19:25.12	104.49	21.80	
2025-01-18 10:19:25.32	104.45	21.82	
2025-01-18 10:19:25.52	104.40	21.84	
2025-01-18 10:19:25.73	104.36	21.87	
2025-01-18 10:19:25.93	104.32	21.89	
2025-01-18 10:19:26.13	104.28	21.91	
2025-01-18 10:19:26.34	104.23	21.94	
2025-01-18 10:19:26.54	104.19	21.96	
2025-01-18 10:19:26.74	104.15	21.99	
2025-01-18 10:19:26.95	104.11	22.01	
2025-01-18 10:19:27.15	104.06	22.04	
2025-01-18 10:19:27.35	104.02	22.06	
2025-01-18 10:19:27.55	103.98	22.08	
2025-01-18 10:19:27.76	103.93	22.11	
2025-01-18 10:19:27.96	103.89	22.13	
2025-01-18 10:19:28.16	103.85	22.15	
2025-01-18 10:19:28.37	103.81	22.18	
2025-01-18 10:19:28.57	103.76	22.20	
2025-01-18 10:19:28.77	103.72	22.23	
2025-01-18 10:19:28.97	103.68	22.25	
2025-01-18 10:19:29.18	103.63	22.28	
2025-01-18 10:19:29.38	103.59	22.30	
2025-01-18 10:19:29.58	103.55	22.32	
2025-01-18 10:19:29.79	103.50	22.35	
2025-01-18 10:19:29.99	103.46	22.37	
2025-01-18 10:19:30.19	103.41	22.40	
2025-01-18 10:19:30.40	103.37	22.42	
2025-01-18 10:19:30.60	103.33	22.44	
2025-01-18 10:19:30.80	103.28	22.47	
2025-01-18 10:19:31.00	103.24	22.49	
2025-01-18 10:19:31.21	103.19	22.52	
2025-01-18 10:19:31.41	103.15	22.54	
2025-01-18 10:19:31.61	103.11	22.57	
2025-01-18 10:19:31.82	103.06	22.59	
2025-01-18 10:19:32.02	103.02	22.61	
2025-01-18 10:19:32.22	102.97	22.64	
2025-01-18 10:19:32.43	102.93	22.66	
2025-01-18 10:19:32.63	102.88	22.69	
2025-01-18 10:19:32.83	102.84	22.71	
2025-01-18 10:19:33.03	102.79	22.73	
2025-01-18 10:19:33.24	102.75	22.76	
2025-01-18 10:19:33.44	102.70	22.78	
2025-01-18 10:19:33.64	102.66	22.81	
2025-01-18 10:19:33.85	102.61	22.83	
2025-01-18 10:19:34.05	102.57	22.86	
2025-01-18 10:19:34.25	102.52	22.88	
2025-01-18 10:19:34.46	102.48	22.91	
2025-01-18 10:19:34.66	102.43	22.93	
2025-01-18 10:19:34.86	102.39	22.95	
2025-01-18 10:19:35.06	102.34	22.98	
2025-01-18 10:19:35.27	102.29	23.00	
2025-01-18 10:19:35.47	102.25	23.03	
2025-01-18 10:19:35.67	102.20	23.05	
2025-01-18 10:19:35.88	102.16	23.08	
2025-01-18 10:19:36.08	102.11	23.10	
2025-01-18 10:19:36.28	102.07	23.12	
2025-01-18 10:19:36.49	102.02	23.15	
2025-01-18 10:19:36.69	101.97	23.17	
2025-01-18 10:19:36.89	101.93	23.20	
2025-01-18 10:19:37.09	101.88	23.22	
2025-01-18 10:19:37.30	101.83	23.25	
2025-01-18 10:19:37.50	101.79	23.27	
2025-01-18 10:19:37.70	101.74	23.29	
2025-01-18 10:19:37.91	101.69	23.32	
2025-01-18 10:19:38.11	101.65	23.34	
2025-01-18 10:19:38.31	101.60	23.37	
2025-01-18 10:19:38.52	101.55	23.39	
2025-01-18 10:19:38.72	101.51	23.42	
2025-01-18 10:19:38.92	101.46	23.44	
2025-01-18 10:19:39.12	101.41	23.47	
2025-01-18 10:19:39.33	101.37	23.49	
2025-01-18 10:19:39.53	101.32	23.51	
2025-01-18 10:19:39.73	101.27	23.54	
2025-01-18 10:19:39.94	101.22	23.56	
2025-01-18 10:19:40.14	101.18	23.59	
2025-01-18 10:19:40.34	101.13	23.61	
2025-01-18 10:19:40.55	101.08	23.64	
2025-01-18 10:19:40.75	101.03	23.66	
2025-01-18 10:19:40.95	100.99	23.69	
2025-01-18 10:19:41.15	100.94	23.71	
2025-01-18 10:19:41.36	100.89	23.73	
2025-01-18 10:19:41.56	100.84	23.76	
2025-01-18 10:19:41.76	100.79	23.78	
2025-01-18 10:19:41.97	100.74	23.81	
2025-01-18 10:19:42.17	100.70	23.83	
2025-01-18 10:19:42.37	100.65	23.86	
2025-01-18 10:19:42.57	100.60	23.88	
2025-01-18 10:19:42.78	100.55	23.91	
2025-01-18 10:19:42.98	100.50	23.93	
2025-01-18 10:19:43.18	100.46	23.95	
2025-01-18 10:19:43.39	100.41	23.98	
2025-01-18 10:19:43.59	100.36	24.00	
2025-01-18 10:19:43.79	100.31	24.03	
2025-01-18 10:19:44.00	100.26	24.05	
2025-01-18 10:19:44.20	100.21	24.08	
2025-01-18 10:19:44.40	100.16	24.10	
2025-01-18 10:19:44.60	100.11	24.13	
2025-01-18 10:19:44.81	100.06	24.15	
2025-01-18 10:19:45.01	100.01	24.18	
2025-01-18 10:19:45.21	99.96	24.20	
2025-01-18 10:19:45.42	99.91	24.22	
2025-01-18 10:19:45.62	99.86	24.25	
2025-01-18 10:19:45.82	99.82	24.27	
2025-01-18 10:19:46.03	99.76	24.30	
2025-01-18 10:19:46.23	99.71	24.32	
2025-01-18 10:19:46.43	99.67	24.35	
2025-01-18 10:19:46.63	99.62	24.37	
2025-01-18 10:19:46.84	99.56	24.40	
2025-01-18 10:19:47.04	99.52	24.42	
2025-01-18 10:19:47.24	99.47	24.44	
2025-01-18 10:19:47.45	99.41	24.47	
2025-01-18 10:19:47.65	99.36	24.49	
2025-01-18 10:19:47.85	99.31	24.52	
2025-01-18 10:19:48.06	99.26	24.54	
2025-01-18 10:19:48.26	99.21	24.57	
2025-01-18 10:19:48.46	99.16	24.59	
2025-01-18 10:19:48.66	99.11	24.62	
2025-01-18 10:19:48.87	99.06	24.64	
2025-01-18 10:19:49.07	99.01	24.67	
2025-01-18 10:19:49.27	98.96	24.69	
2025-01-18 10:19:49.48	98.91	24.72	
2025-01-18 10:19:49.68	98.85	24.74	
2025-01-18 10:19:49.88	98.80	24.76	
2025-01-18 10:19:50.09	98.75	24.79	
2025-01-18 10:19:50.29	98.70	24.81	
2025-01-18 10:19:50.49	98.65	24.84	
2025-01-18 10:19:50.69	98.60	24.86	
2025-01-18 10:19:50.90	98.54	24.89	
2025-01-18 10:19:51.10	98.49	24.91	
2025-01-18 10:19:51.30	98.44	24.94	
2025-01-18 10:19:51.51	98.39	24.96	
2025-01-18 10:19:51.71	98.34	24.99	
2025-01-18 10:19:51.91	98.29	25.01	
2025-01-18 10:19:52.12	98.23	25.04	
2025-01-18 10:19:52.32	98.18	25.06	
2025-01-18 10:19:52.52	98.13	25.08	
2025-01-18 10:19:52.72	98.08	25.11	
2025-01-18 10:19:52.93	98.02	25.13	
2025-01-18 10:19:53.13	97.97	25.16	
2025-01-18 10:19:53.33	97.92	25.18	
2025-01-18 10:19:53.54	97.86	25.21	
2025-01-18 10:19:53.74	97.81	25.23	
2025-01-18 10:19:53.94	97.76	25.26	
2025-01-18 10:19:54.15	97.70	25.28	
2025-01-18 10:19:54.35	97.65	25.31	
2025-01-18 10:19:54.55	97.60	25.33	
2025-01-18 10:19:54.75	97.55	25.35	
2025-01-18 10:19:54.96	97.49	25.38	
2025-01-18 10:19:55.16	97.44	25.40	
2025-01-18 10:19:55.36	97.38	25.43	
2025-01-18 10:19:55.57	97.33	25.45	
2025-01-18 10:19:55.77	97.28	25.48	
2025-01-18 10:19:55.97	97.22	25.50	
2025-01-18 10:19:56.18	97.17	25.53	
2025-01-18 10:19:56.38	97.11	25.55	
2025-01-18 10:19:56.58	97.06	25.57	
2025-01-18 10:19:56.78	97.01	25.60	
2025-01-18 10:19:56.99	96.95	25.62	
2025-01-18 10:19:57.19	96.90	25.65	
2025-01-18 10:19:57.39	96.84	25.67	
2025-01-18 10:19:57.60	96.79	25.70	
2025-01-18 10:19:57.80	96.73	25.72	
2025-01-18 10:19:58.00	96.68	25.75	
2025-01-18 10:19:58.20	96.62	25.77	
2025-01-18 10:19:58.41	96.57	25.80	
2025-01-18 10:19:58.61	96.51	25.82	
2025-01-18 10:19:58.81	96.46	25.84	
2025-01-18 10:19:59.02	96.40	25.87	
2025-01-18 10:19:59.22	96.35	25.89	
2025-01-18 10:19:59.42	96.29	25.92	
2025-01-18 10:19:59.63	96.24	25.94	
2025-01-18 10:19:59.83	96.18	25.97	
2025-01-18 10:20:00.03	96.13	25.99	
2025-01-18 10:20:00.23	96.07	26.01	
2025-01-18 10:20:00.44	96.01	26.04	
2025-01-18 10:20:00.64	95.96	26.06	
2025-01-18 10:20:00.84	95.90	26.09	
2025-01-18 10:20:01.05	95.84	26.11	
2025-01-18 10:20:01.25	95.79	26.14	
2025-01-18 10:20:01.45	95.73	26.16	
2025-01-18 10:20:01.66	95.68	26.19	
2025-01-18 10:20:01.86	95.62	26.21	
2025-01-18 10:20:02.06	95.56	26.24	
2025-01-18 10:20:02.26	95.51	26.26	
2025-01-18 10:20:02.47	95.45	26.28	
2025-01-18 10:20:02.67	95.39	26.31	
2025-01-18 10:20:02.87	95.34	26.33	
2025-01-18 10:20:03.08	95.28	26.36	
2025-01-18 10:20:03.28	95.22	26.38	
2025-01-18 10:20:03.48	95.16	26.41	
2025-01-18 10:20:03.69	95.11	26.43	
2025-01-18 10:20:03.89	95.05	26.45	
2025-01-18 10:20:04.09	94.99	26.48	
2025-01-18 10:20:04.29	94.94	26.50	
2025-01-18 10:20:04.50	94.88	26.53	
2025-01-18 10:20:04.70	94.82	26.55	
2025-01-18 10:20:04.90	94.76	26.58	
2025-01-18 10:20:05.11	94.70	26.60	
2025-01-18 10:20:05.31	94.64	26.62	
2025-01-18 10:20:05.51	94.59	26.65	
2025-01-18 10:20:05.72	94.53	26.67	
2025-01-18 10:20:05.92	94.47	26.70	
2025-01-18 10:20:06.12	94.41	26.72	
2025-01-18 10:20:06.32	94.35	26.75	
2025-01-18 10:20:06.53	94.29	26.77	
2025-01-18 10:20:06.73	94.24	26.79	
2025-01-18 10:20:06.93	94.18	26.82	
2025-01-18 10:20:07.14	94.12	26.84	
2025-01-18 10:20:07.34	94.06	26.87	
2025-01-18 10:20:07.54	94.00	26.89	
2025-01-18 10:20:07.75	93.94	26.92	
2025-01-18 10:20:07.95	93.88	26.94	
2025-01-18 10:20:08.15	93.82	26.96	
2025-01-18 10:20:08.35	93.76	26.99	
2025-01-18 10:20:08.56	93.70	27.01	
2025-01-18 10:20:08.76	93.64	27.04	
2025-01-18 10:20:08.96	93.58	27.06	
2025-01-18 10:20:09.17	93.52	27.09	
2025-01-18 10:20:09.37	93.46	27.11	
2025-01-18 10:20:09.57	93.40	27.13	
2025-01-18 10:20:09.78	93.34	27.16	
2025-01-18 10:20:09.98	93.28	27.18	
2025-01-18 10:20:10.18	93.22	27.20	
2025-01-18 10:20:10.38	93.16	27.23	
2025-01-18 10:20:10.59	93.10	27.25	
2025-01-18 10:20:10.79	93.04	27.28	
2025-01-18 10:20:10.99	92.98	27.30	
2025-01-18 10:20:11.20	92.92	27.33	
2025-01-18 10:20:11.40	92.86	27.35	
2025-01-18 10:20:11.60	92.80	27.37	
2025-01-18 10:20:11.81	92.74	27.40	
2025-01-18 10:20:12.01	92.68	27.42	
2025-01-18 10:20:12.21	92.61	27.44	
2025-01-18 10:20:12.41	92.55	27.47	
2025-01-18 10:20:12.62	92.49	27.49	
2025-01-18 10:20:12.82	92.43	27.52	
2025-01-18 10:20:13.02	92.37	27.54	
2025-01-18 10:20:13.23	92.31	27.56	
2025-01-18 10:20:13.43	92.24	27.59	
2025-01-18 10:20:13.63	92.18	27.61	
2025-01-18 10:20:13.83	92.12	27.64	
2025-01-18 10:20:14.04	92.06	27.66	
2025-01-18 10:20:14.24	92.00	27.68	
2025-01-18 10:20:14.44	91.94	27.71	
2025-01-18 10:20:14.65	91.87	27.73	
2025-01-18 10:20:14.85	91.81	27.75	
2025-01-18 10:20:15.05	91.75	27.78	
2025-01-18 10:20:15.26	91.68	27.80	
2025-01-18 10:20:15.46	91.62	27.83	
2025-01-18 10:20:15.66	91.56	27.85	
2025-01-18 10:20:15.86	91.50	27.87	
2025-01-18 10:20:16.07	91.43	27.90	
2025-01-18 10:20:16.27	91.37	27.92	
2025-01-18 10:20:16.47	91.31	27.94	
2025-01-18 10:20:16.68	91.24	27.97	
2025-01-18 10:20:16.88	91.18	27.99	
2025-01-18 10:20:17.08	91.12	28.01	
2025-01-18 10:20:17.29	91.05	28.04	
2025-01-18 10:20:17.49	90.99	28.06	
2025-01-18 10:20:17.69	90.92	28.09	
2025-01-18 10:20:17.89	90.86	28.11	
2025-01-18 10:20:18.10	90.79	28.13	
2025-01-18 10:20:18.30	90.73	28.16	
2025-01-18 10:20:18.50	90.67	28.18	
2025-01-18 10:20:18.71	90.60	28.20	
2025-01-18 10:20:18.91	90.54	28.23	
2025-01-18 10:20:19.11	90.47	28.25	
2025-01-18 10:20:19.32	90.41	28.27	
2025-01-18 10:20:19.52	90.34	28.30	
2025-01-18 10:20:19.72	90.28	28.32	
2025-01-18 10:20:19.92	90.22	28.34	
2025-01-18 10:20:20.13	90.15	28.37	
2025-01-18 10:20:20.33	90.08	28.39	
2025-01-18 10:20:20.53	90.02	28.41	
2025-01-18 10:20:20.74	89.95	28.44	
2025-01-18 10:20:20.94	89.89	28.46	
2025-01-18 10:20:21.14	89.82	28.48	
2025-01-18 10:20:21.35	89.76	28.51	
2025-01-18 10:20:21.55	89.69	28.53	
2025-01-18 10:20:21.75	89.63	28.55	
2025-01-18 10:20:21.95	89.56	28.58	
2025-01-18 10:20:22.16	89.49	28.60	
2025-01-18 10:20:22.36	89.43	28.62	
2025-01-18 10:20:22.56	89.36	28.64	
2025-01-18 10:20:22.77	89.29	28.67	
2025-01-18 10:20:22.97	89.23	28.69	
2025-01-18 10:20:23.17	89.16	28.71	
2025-01-18 10:20:23.38	89.09	28.74	
2025-01-18 10:20:23.58	89.03	28.76	
2025-01-18 10:20:23.78	88.96	28.78	
2025-01-18 10:20:23.98	88.90	28.81	
2025-01-18 10:20:24.19	88.83	28.83	
2025-01-18 10:20:24.39	88.76	28.85	
2025-01-18 10:20:24.59	88.69	28.87	
2025-01-18 10:20:24.80	88.62	28.90	
2025-01-18 10:20:25.00	88.56	28.92	
2025-01-18 10:20:25.20	88.49	28.94	
2025-01-18 10:20:25.41	88.42	28.97	
2025-01-18 10:20:25.61	88.35	28.99	
2025-01-18 10:20:25.81	88.29	29.01	
2025-01-18 10:20:26.01	88.22	29.03	
2025-01-18 10:20:26.22	88.15	29.06	
2025-01-18 10:20:26.42	88.08	29.08	
2025-01-18 10:20:26.62	88.02	29.10	
2025-01-18 10:20:26.83	87.95	29.12	
2025-01-18 10:20:27.03	87.88	29.15	
2025-01-18 10:20:27.23	87.81	29.17	
2025-01-18 10:20:27.43	87.74	29.19	
2025-01-18 10:20:27.64	87.67	29.21	
2025-01-18 10:20:27.84	87.60	29.24	
2025-01-18 10:20:28.04	87.54	29.26	
2025-01-18 10:20:28.25	87.46	29.28	
2025-01-18 10:20:28.45	87.40	29.30	
2025-01-18 10:20:28.65	87.33	29.33	
2025-01-18 10:20:28.86	87.26	29.35	
2025-01-18 10:20:29.06	87.19	29.37	
2025-01-18 10:20:29.26	87.12	29.39	
2025-01-18 10:20:29.46	87.05	29.42	
2025-01-18 10:20:29.67	86.98	29.44	
2025-01-18 10:20:29.87	86.91	29.46	
2025-01-18 10:20:30.07	86.84	29.48	
2025-01-18 10:20:30.28	86.77	29.50	
2025-01-18 10:20:30.48	86.70	29.53	
2025-01-18 10:20:30.68	86.63	29.55	
2025-01-18 10:20:30.89	86.56	29.57	
2025-01-18 10:20:31.09	86.49	29.59	
2025-01-18 10:20:31.29	86.42	29.61	
2025-01-18 10:20:31.49	86.35	29.64	
2025-01-18 10:20:31.70	86.28	29.66	
2025-01-18 10:20:31.90	86.21	29.68	
2025-01-18 10:20:32.10	86.14	29.70	
2025-01-18 10:20:32.31	86.06	29.72	
2025-01-18 10:20:32.51	85.99	29.75	
2025-01-18 10:20:32.71	85.92	29.77	
2025-01-18 10:20:32.92	85.85	29.79	
2025-01-18 10:20:33.12	85.78	29.81	
2025-01-18 10:20:33.32	85.71	29.83	
2025-01-18 10:20:33.52	85.64	29.85	
2025-01-18 10:20:33.73	85.56	29.88	
2025-01-18 10:20:33.93	85.49	29.90	
2025-01-18 10:20:34.13	85.42	29.92	
2025-01-18 10:20:34.34	85.35	29.94	
2025-01-18 10:20:34.54	85.28	29.96	
2025-01-18 10:20:34.74	85.20	29.98	
2025-01-18 10:20:34.95	85.13	30.01	
2025-01-18 10:20:35.15	85.06	30.03	
2025-01-18 10:20:35.35	84.99	30.05	
2025-01-18 10:20:35.55	84.92	30.07	
2025-01-18 10:20:35.76	84.84	30.09	
2025-01-18 10:20:35.96	84.77	30.11	
2025-01-18 10:20:36.16	84.70	30.13	
2025-01-18 10:20:36.37	84.62	30.15	
2025-01-18 10:20:36.57	84.55	30.18	
2025-01-18 10:20:36.77	84.48	30.20	
2025-01-18 10:20:36.98	84.40	30.22	
2025-01-18 10:20:37.18	84.33	30.24	
2025-01-18 10:20:37.38	84.26	30.26	
2025-01-18 10:20:37.58	84.18	30.28	
2025-01-18 10:20:37.79	84.11	30.30	
2025-01-18 10:20:37.99	84.04	30.32	
2025-01-18 10:20:38.19	83.96	30.34	
2025-01-18 10:20:38.40	83.89	30.36	
2025-01-18 10:20:38.60	83.81	30.39	
2025-01-18 10:20:38.80	83.74	30.41	
2025-01-18 10:20:39.01	83.66	30.43	
2025-01-18 10:20:39.21	83.59	30.45	
2025-01-18 10:20:39.41	83.52	30.47	
2025-01-18 10:20:39.61	83.44	30.49	
2025-01-18 10:20:39.82	83.37	30.51	
2025-01-18 10:20:40.02	83.29	30.53	
2025-01-18 10:20:40.22	83.22	30.55	
2025-01-18 10:20:40.43	83.14	30.57	
2025-01-18 10:20:40.63	83.07	30.59	
2025-01-18 10:20:40.83	82.99	30.61	
2025-01-18 10:20:41.04	82.91	30.63	
2025-01-18 10:20:41.24	82.84	30.65	
2025-01-18 10:20:41.44	82.77	30.67	
2025-01-18 10:20:41.64	82.69	30.69	
2025-01-18 10:20:41.85	82.61	30.71	
2025-01-18 10:20:42.05	82.54	30.73	
2025-01-18 10:20:42.25	82.46	30.75	
2025-01-18 10:20:42.46	82.39	30.77	
2025-01-18 10:20:42.66	82.31	30.79	
2025-01-18 10:20:42.86	82.24	30.81	
2025-01-18 10:20:43.06	82.16	30.83	
2025-01-18 10:20:43.27	82.08	30.85	
2025-01-18 10:20:43.47	82.01	30.87	
2025-01-18 10:20:43.67	81.93	30.89	
2025-01-18 10:20:43.88	81.85	30.91	
2025-01-18 10:20:44.08	81.78	30.93	
2025-01-18 10:20:44.28	81.70	30.95	
2025-01-18 10:20:44.49	81.62	30.97	
2025-01-18 10:20:44.69	81.54	30.99	
2025-01-18 10:20:44.89	81.47	31.01	
2025-01-18 10:20:45.09	81.39	31.03	
2025-01-18 10:20:45.30	81.31	31.05	
2025-01-18 10:20:45.50	81.24	31.07	
2025-01-18 10:20:45.70	81.16	31.09	
2025-01-18 10:20:45.91	81.08	31.11	
2025-01-18 10:20:46.11	81.00	31.13	
2025-01-18 10:20:46.31	80.93	31.15	
2025-01-18 10:20:46.52	80.85	31.17	
2025-01-18 10:20:46.72	80.77	31.19	
2025-01-18 10:20:46.92	80.69	31.20	
2025-01-18 10:20:47.12	80.61	31.22	
2025-01-18 10:20:47.33	80.53	31.24	
2025-01-18 10:20:47.53	80.46	31.26	
2025-01-18 10:20:47.73	80.38	31.28	
2025-01-18 10:20:47.94	80.30	31.30	
2025-01-18 10:20:48.14	80.22	31.32	
2025-01-18 10:20:48.34	80.14	31.34	
2025-01-18 10:20:48.55	80.06	31.36	
2025-01-18 10:20:48.75	79.98	31.38	
2025-01-18 10:20:48.95	79.91	31.39	
2025-01-18 10:20:49.15	79.83	31.41	
2025-01-18 10:20:49.36	79.75	31.43	
2025-01-18 10:20:49.56	79.67	31.45	
2025-01-18 10:20:49.76	79.59	31.47	
2025-01-18 10:20:49.97	79.51	31.49	
2025-01-18 10:20:50.17	79.43	31.50	
2025-01-18 10:20:50.37	79.35	31.52	
2025-01-18 10:20:50.58	79.27	31.54	
2025-01-18 10:20:50.78	79.19	31.56	
2025-01-18 10:20:50.98	79.11	31.58	
2025-01-18 10:20:51.18	79.03	31.60	
2025-01-18 10:20:51.39	78.95	31.61	
2025-01-18 10:20:51.59	78.87	31.63	
2025-01-18 10:20:51.79	78.79	31.65	
2025-01-18 10:20:52.00	78.71	31.67	
2025-01-18 10:20:52.20	78.63	31.69	
2025-01-18 10:20:52.40	78.55	31.70	
2025-01-18 10:20:52.61	78.46	31.72	
2025-01-18 10:20:52.81	78.39	31.74	
2025-01-18 10:20:53.01	78.31	31.76	
2025-01-18 10:20:53.21	78.23	31.77	
2025-01-18 10:20:53.42	78.14	31.79	
2025-01-18 10:20:53.62	78.06	31.81	
2025-01-18 10:20:53.82	77.98	31.83	
2025-01-18 10:20:54.03	77.90	31.85	
2025-01-18 10:20:54.23	77.82	31.86	
2025-01-18 10:20:54.43	77.74	31.88	
2025-01-18 10:20:54.63	77.66	31.90	
2025-01-18 10:20:54.84	77.57	31.91	
2025-01-18 10:20:55.04	77.49	31.93	
2025-01-18 10:20:55.24	77.41	31.95	
2025-01-18 10:20:55.45	77.33	31.97	
2025-01-18 10:20:55.65	77.25	31.98	
2025-01-18 10:20:55.85	77.16	32.00	
2025-01-18 10:20:56.06	77.08	32.02	
2025-01-18 10:20:56.26	77.00	32.03	
2025-01-18 10:20:56.46	76.92	32.05	
2025-01-18 10:20:56.66	76.84	32.07	
2025-01-18 10:20:56.87	76.75	32.08	
2025-01-18 10:20:57.07	76.67	32.10	
2025-01-18 10:20:57.27	76.59	32.12	
2025-01-18 10:20:57.48	76.50	32.13	
2025-01-18 10:20:57.68	76.42	32.15	
2025-01-18 10:20:57.88	76.34	32.17	
2025-01-18 10:20:58.09	76.25	32.18	
2025-01-18 10:20:58.29	76.17	32.20	
2025-01-18 10:20:58.49	76.09	32.21	
2025-01-18 10:20:58.69	76.01	32.23	
2025-01-18 10:20:58.90	75.92	32.25	
2025-01-18 10:20:59.10	75.84	32.26	
2025-01-18 10:20:59.30	75.76	32.28	
2025-01-18 10:20:59.51	75.67	32.30	
2025-01-18 10:20:59.71	75.59	32.31	
2025-01-18 10:20:59.91	75.50	32.33	
2025-01-18 10:21:00.12	75.42	32.34	
2025-01-18 10:21:00.32	75.33	32.36	
2025-01-18 10:21:00.52	75.25	32.37	
2025-01-18 10:21:00.72	75.17	32.39	
2025-01-18 10:21:00.93	75.08	32.40	
2025-01-18 10:21:01.13	75.00	32.42	
2025-01-18 10:21:01.33	74.91	32.44	
2025-01-18 10:21:01.54	74.83	32.45	
2025-01-18 10:21:01.74	74.74	32.47	
2025-01-18 10:21:01.94	74.66	32.48	
2025-01-18 10:21:02.15	74.57	32.50	
2025-01-18 10:21:02.35	74.49	32.51	
2025-01-18 10:21:02.55	74.41	32.53	
2025-01-18 10:21:02.75	74.32	32.54	
2025-01-18 10:21:02.96	74.23	32.56	
2025-01-18 10:21:03.16	74.15	32.57	
2025-01-18 10:21:03.36	74.07	32.59	
2025-01-18 10:21:03.57	73.98	32.60	
2025-01-18 10:21:03.77	73.89	32.62	
2025-01-18 10:21:03.97	73.81	32.63	
2025-01-18 10:21:04.18	73.72	32.64	
2025-01-18 10:21:04.38	73.64	32.66	
2025-01-18 10:21:04.58	73.55	32.67	
2025-01-18 10:21:04.78	73.47	32.69	
2025-01-18 10:21:04.99	73.38	32.70	
2025-01-18 10:21:05.19	73.29	32.72	
2025-01-18 10:21:05.39	73.21	32.73	
2025-01-18 10:21:05.60	73.12	32.74	
2025-01-18 10:21:05.80	73.04	32.76	
2025-01-18 10:21:06.00	72.95	32.77	
2025-01-18 10:21:06.21	72.86	32.79	
2025-01-18 10:21:06.41	72.78	32.80	
2025-01-18 10:21:06.61	72.69	32.81	
2025-01-18 10:21:06.81	72.61	32.83	
2025-01-18 10:21:07.02	72.52	32.84	
2025-01-18 10:21:07.22	72.43	32.85	
2025-01-18 10:21:07.42	72.34	32.87	
2025-01-18 10:21:07.63	72.26	32.88	
2025-01-18 10:21:07.83	72.17	32.90	
2025-01-18 10:21:08.03	72.08	32.91	
2025-01-18 10:21:08.24	71.99	32.92	
2025-01-18 10:21:08.44	71.91	32.93	
2025-01-18 10:21:08.64	71.82	32.95	
2025-01-18 10:21:08.84	71.74	32.96	
2025-01-18 10:21:09.05	71.65	32.97	
2025-01-18 10:21:09.25	71.56	32.99	
2025-01-18 10:21:09.45	71.47	33.00	
2025-01-18 10:21:09.66	71.38	33.01	
2025-01-18 10:21:09.86	71.30	33.03	
2025-01-18 10:21:10.06	71.21	33.04	
2025-01-18 10:21:10.27	71.12	33.05	
2025-01-18 10:21:10.47	71.03	33.06	
2025-01-18 10:21:10.67	70.95	33.07	
2025-01-18 10:21:10.87	70.86	33.09	
2025-01-18 10:21:11.08	70.77	33.10	
2025-01-18 10:21:11.28	70.68	33.11	
2025-01-18 10:21:11.48	70.59	33.12	
2025-01-18 10:21:11.69	70.50	33.14	
2025-01-18 10:21:11.89	70.42	33.15	
2025-01-18 10:21:12.09	70.33	33.16	
2025-01-18 10:21:12.29	70.24	33.17	
2025-01-18 10:21:12.50	70.15	33.18	
2025-01-18 10:21:12.70	70.06	33.20	
2025-01-18 10:21:12.90	69.98	33.21	
2025-01-18 10:21:13.11	69.88	33.22	
2025-01-18 10:21:13.31	69.80	33.23	
2025-01-18 10:21:13.51	69.71	33.24	
2025-01-18 10:21:13.72	69.62	33.25	
2025-01-18 10:21:13.92	69.53	33.26	
2025-01-18 10:21:14.12	69.44	33.28	
2025-01-18 10:21:14.32	69.35	33.29	
2025-01-18 10:21:14.53	69.26	33.30	
2025-01-18 10:21:14.73	69.17	33.31	
2025-01-18 10:21:14.93	69.09	33.32	
2025-01-18 10:21:15.14	68.99	33.33	
2025-01-18 10:21:15.34	68.90	33.34	
2025-01-18 10:21:15.54	68.82	33.35	
2025-01-18 10:21:15.75	68.72	33.36	
2025-01-18 10:21:15.95	68.64	33.37	
2025-01-18 10:21:16.15	68.55	33.38	
2025-01-18 10:21:16.35	68.46	33.39	
2025-01-18 10:21:16.56	68.37	33.40	
2025-01-18 10:21:16.76	68.28	33.41	
2025-01-18 10:21:16.96	68.19	33.42	
2025-01-18 10:21:17.17	68.10	33.43	
2025-01-18 10:21:17.37	68.01	33.44	
2025-01-18 10:21:17.57	67.92	33.45	
2025-01-18 10:21:17.78	67.83	33.46	
2025-01-18 10:21:17.98	67.74	33.47	
2025-01-18 10:21:18.18	67.65	33.48	
2025-01-18 10:21:18.38	67.56	33.49	
2025-01-18 10:21:18.59	67.47	33.50	
2025-01-18 10:21:18.79	67.38	33.51	
2025-01-18 10:21:18.99	67.29	33.52	
2025-01-18 10:21:19.20	67.19	33.53	
2025-01-18 10:21:19.40	67.10	33.54	
2025-01-18 10:21:19.60	67.02	33.55	
2025-01-18 10:21:19.81	66.92	33.56	
2025-01-18 10:21:20.01	66.83	33.57	
2025-01-18 10:21:20.21	66.74	33.58	
2025-01-18 10:21:20.41	66.65	33.59	
2025-01-18 10:21:20.62	66.56	33.59	
2025-01-18 10:21:20.82	66.47	33.60	
2025-01-18 10:21:21.02	66.38	33.61	
2025-01-18 10:21:21.23	66.29	33.62	
2025-01-18 10:21:21.43	66.20	33.63	
2025-01-18 10:21:21.63	66.11	33.64	
2025-01-18 10:21:21.84	66.01	33.65	
2025-01-18 10:21:22.04	65.92	33.65	
2025-01-18 10:21:22.24	65.83	33.66	
2025-01-18 10:21:22.44	65.74	33.67	
2025-01-18 10:21:22.65	65.65	33.68	
2025-01-18 10:21:22.85	65.56	33.69	
2025-01-18 10:21:23.05	65.47	33.69	
2025-01-18 10:21:23.26	65.37	33.70	
2025-01-18 10:21:23.46	65.28	33.71	
2025-01-18 10:21:23.66	65.19	33.72	
2025-01-18 10:21:23.87	65.10	33.73	
2025-01-18 10:21:24.07	65.01	33.73	
2025-01-18 10:21:24.27	64.92	33.74	
2025-01-18 10:21:24.47	64.83	33.75	
2025-01-18 10:21:24.68	64.73	33.75	
2025-01-18 10:21:24.88	64.64	33.76	
2025-01-18 10:21:25.08	64.55	33.77	
2025-01-18 10:21:25.29	64.46	33.78	
2025-01-18 10:21:25.49	64.37	33.78	
2025-01-18 10:21:25.69	64.27	33.79	
2025-01-18 10:21:25.89	64.18	33.80	
2025-01-18 10:21:26.10	64.09	33.80	
2025-01-18 10:21:26.30	64.00	33.81	
2025-01-18 10:21:26.50	63.91	33.82	
2025-01-18 10:21:26.71	63.81	33.82	
2025-01-18 10:21:26.91	63.72	33.83	
2025-01-18 10:21:27.11	63.63	33.83	
2025-01-18 10:21:27.32	63.53	33.84	
2025-01-18 10:21:27.52	63.44	33.85	
2025-01-18 10:21:27.72	63.35	33.85	
2025-01-18 10:21:27.92	63.26	33.86	
2025-01-18 10:21:28.13	63.17	33.87	
2025-01-18 10:21:28.33	63.08	33.87	
2025-01-18 10:21:28.53	62.98	33.88	
2025-01-18 10:21:28.74	62.89	33.88	
2025-01-18 10:21:28.94	62.80	33.89	
2025-01-18 10:21:29.14	62.71	33.89	
2025-01-18 10:21:29.35	62.61	33.90	
2025-01-18 10:21:29.55	62.52	33.90	
2025-01-18 10:21:29.75	62.43	33.91	
2025-01-18 10:21:29.95	62.34	33.91	
2025-01-18 10:21:30.16	62.24	33.92	
2025-01-18 10:21:30.36	62.15	33.92	
2025-01-18 10:21:30.56	62.06	33.93	
2025-01-18 10:21:30.77	61.96	33.93	
2025-01-18 10:21:30.97	61.87	33.94	
2025-01-18 10:21:31.17	61.78	33.94	
2025-01-18 10:21:31.38	61.68	33.95	
2025-01-18 10:21:31.58	61.59	33.95	
2025-01-18 10:21:31.78	61.50	33.96	
2025-01-18 10:21:31.98	61.41	33.96	
2025-01-18 10:21:32.19	61.31	33.97	
2025-01-18 10:21:32.39	61.22	33.97	
2025-01-18 10:21:32.59	61.13	33.97	
2025-01-18 10:21:32.80	61.03	33.98	
2025-01-18 10:21:33.00	60.94	33.98	
2025-01-18 10:21:33.20	60.85	33.98	
2025-01-18 10:21:33.41	60.75	33.99	
2025-01-18 10:21:33.61	60.66	33.99	
2025-01-18 10:21:33.81	60.57	34.00	
2025-01-18 10:21:34.01	60.48	34.00	
2025-01-18 10:21:34.22	60.38	34.00	
2025-01-18 10:21:34.42	60.29	34.01	
2025-01-18 10:21:34.62	60.20	34.01	
2025-01-18 10:21:34.83	60.10	34.01	
2025-01-18 10:21:35.03	60.01	34.02	
2025-01-18 10:21:35.23	59.92	34.02	
2025-01-18 10:21:35.44	59.82	34.02	
2025-01-18 10:21:35.64	59.73	34.02	
2025-01-18 10:21:35.84	59.64	34.03	
2025-01-18 10:21:36.04	59.54	34.03	
2025-01-18 10:21:36.25	59.45	34.03	
2025-01-18 10:21:36.45	59.36	34.03	
2025-01-18 10:21:36.65	59.26	34.04	
2025-01-18 10:21:36.86	59.17	34.04	
2025-01-18 10:21:37.06	59.07	34.04	
2025-01-18 10:21:37.26	58.98	34.04	
2025-01-18 10:21:37.47	58.89	34.05	
2025-01-18 10:21:37.67	58.79	34.05	
2025-01-18 10:21:37.87	58.70	34.05	
2025-01-18 10:21:38.07	58.61	34.05	
2025-01-18 10:21:38.28	58.51	34.05	
2025-01-18 10:21:38.48	58.42	34.05	
2025-01-18 10:21:38.68	58.33	34.06	
2025-01-18 10:21:38.89	58.23	34.06	
2025-01-18 10:21:39.09	58.14	34.06	
2025-01-18 10:21:39.29	58.05	34.06	
2025-01-18 10:21:39.50	57.95	34.06	
2025-01-18 10:21:39.70	57.86	34.06	
2025-01-18 10:21:39.90	57.77	34.06	
2025-01-18 10:21:40.10	57.67	34.06	
2025-01-18 10:21:40.31	57.58	34.06	
2025-01-18 10:21:40.51	57.49	34.07	
2025-01-18 10:21:40.71	57.39	34.07	
2025-01-18 10:21:40.92	57.30	34.07	
2025-01-18 10:21:41.12	57.20	34.07	
2025-01-18 10:21:41.32	57.11	34.07	
2025-01-18 10:21:41.52	57.02	34.07	
2025-01-18 10:21:41.73	56.92	34.07	
2025-01-18 10:21:41.93	56.83	34.07	
2025-01-18 10:21:42.13	56.74	34.07	
2025-01-18 10:21:42.34	56.64	34.07	
2025-01-18 10:21:42.54	56.55	34.07	
2025-01-18 10:21:42.74	56.46	34.07	
