passes_logs/2025/01/18/SPB_Silybum_02/SPB_Silybum_02__20250118_035450_AQUA_rec.log

#Pass ID: 20250118_035450_AQUA
#Satellite: AQUA
#Configuration: AQUA
#Start time: 2025-01-18 03:54:50

#Version: 2.0.20230423
#Station: SPB_Silybum_02
#Location: 30.233357 lon 59.946436 lat
#TLE: 1 27424U 02022A   25017.13491740  .00001953  00000+0  41075-3 0  9996
#TLE: 2 27424  98.3596 333.8179 0001829 109.1235 340.1836 14.60691632207930

#Time	Az	El	Level	Level2	SNR	BER	Gain	Gain2
2025-01-18 03:54:52.71	7.71	4.10	
2025-01-18 03:54:52.91	7.69	4.11	
2025-01-18 03:54:53.12	7.66	4.12	
2025-01-18 03:54:53.32	7.64	4.13	
2025-01-18 03:54:53.52	7.62	4.14	
2025-01-18 03:54:53.72	7.59	4.15	
2025-01-18 03:54:53.93	7.57	4.16	
2025-01-18 03:54:54.13	7.54	4.17	
2025-01-18 03:54:54.33	7.52	4.18	
2025-01-18 03:54:54.54	7.50	4.19	
2025-01-18 03:54:54.74	7.47	4.20	
2025-01-18 03:54:54.94	7.45	4.21	
2025-01-18 03:54:55.15	7.42	4.22	
2025-01-18 03:54:55.35	7.40	4.23	
2025-01-18 03:54:55.55	7.38	4.24	
2025-01-18 03:54:55.75	7.35	4.25	
2025-01-18 03:54:55.96	7.33	4.26	
2025-01-18 03:54:56.16	7.30	4.27	
2025-01-18 03:54:56.36	7.28	4.28	
2025-01-18 03:54:56.57	7.26	4.29	
2025-01-18 03:54:56.77	7.23	4.30	
2025-01-18 03:54:56.97	7.21	4.31	
2025-01-18 03:54:57.18	7.18	4.32	
2025-01-18 03:54:57.38	7.16	4.33	
2025-01-18 03:54:57.58	7.14	4.34	
2025-01-18 03:54:57.79	7.11	4.35	
2025-01-18 03:54:57.99	7.09	4.36	
2025-01-18 03:54:58.19	7.06	4.37	
2025-01-18 03:54:58.40	7.04	4.38	
2025-01-18 03:54:58.60	7.01	4.39	
2025-01-18 03:54:58.80	6.99	4.40	
2025-01-18 03:54:59.00	6.97	4.41	
2025-01-18 03:54:59.21	6.94	4.42	
2025-01-18 03:54:59.41	6.92	4.43	
2025-01-18 03:54:59.61	6.89	4.44	
2025-01-18 03:54:59.82	6.87	4.45	
2025-01-18 03:55:00.02	6.84	4.46	
2025-01-18 03:55:00.22	6.82	4.47	
2025-01-18 03:55:00.43	6.80	4.48	
2025-01-18 03:55:00.63	6.77	4.49	
2025-01-18 03:55:00.83	6.75	4.50	
2025-01-18 03:55:01.04	6.72	4.52	
2025-01-18 03:55:01.24	6.70	4.53	
2025-01-18 03:55:01.44	6.67	4.54	
2025-01-18 03:55:01.64	6.65	4.55	
2025-01-18 03:55:01.85	6.62	4.56	
2025-01-18 03:55:02.05	6.60	4.57	
2025-01-18 03:55:02.25	6.58	4.58	
2025-01-18 03:55:02.46	6.55	4.59	
2025-01-18 03:55:02.66	6.53	4.60	
2025-01-18 03:55:02.86	6.50	4.61	
2025-01-18 03:55:03.07	6.48	4.62	
2025-01-18 03:55:03.27	6.45	4.63	
2025-01-18 03:55:03.47	6.43	4.64	
2025-01-18 03:55:03.68	6.40	4.65	
2025-01-18 03:55:03.88	6.38	4.66	
2025-01-18 03:55:04.08	6.35	4.67	
2025-01-18 03:55:04.28	6.33	4.68	
2025-01-18 03:55:04.49	6.30	4.69	
2025-01-18 03:55:04.69	6.28	4.70	
2025-01-18 03:55:04.89	6.25	4.71	
2025-01-18 03:55:05.10	6.23	4.72	
2025-01-18 03:55:05.30	6.20	4.73	
2025-01-18 03:55:05.50	6.18	4.74	
2025-01-18 03:55:05.71	6.15	4.75	
2025-01-18 03:55:05.91	6.13	4.76	
2025-01-18 03:55:06.11	6.10	4.77	
2025-01-18 03:55:06.32	6.08	4.78	
2025-01-18 03:55:06.52	6.05	4.79	
2025-01-18 03:55:06.72	6.03	4.80	
2025-01-18 03:55:06.92	6.00	4.81	
2025-01-18 03:55:07.13	5.98	4.82	
2025-01-18 03:55:07.33	5.95	4.83	
2025-01-18 03:55:07.53	5.93	4.84	
2025-01-18 03:55:07.74	5.90	4.85	
2025-01-18 03:55:07.94	5.88	4.86	
2025-01-18 03:55:08.14	5.85	4.87	
2025-01-18 03:55:08.35	5.83	4.88	
2025-01-18 03:55:08.55	5.80	4.89	
2025-01-18 03:55:08.75	5.78	4.90	
2025-01-18 03:55:08.96	5.75	4.91	
2025-01-18 03:55:09.16	5.73	4.92	
2025-01-18 03:55:09.36	5.70	4.93	
2025-01-18 03:55:09.56	5.68	4.94	
2025-01-18 03:55:09.77	5.65	4.95	
2025-01-18 03:55:09.97	5.63	4.96	
2025-01-18 03:55:10.17	5.60	4.97	
2025-01-18 03:55:10.38	5.57	4.99	
2025-01-18 03:55:10.58	5.55	5.00	
2025-01-18 03:55:10.78	5.52	5.01	
2025-01-18 03:55:10.99	5.50	5.02	
2025-01-18 03:55:11.19	5.47	5.03	
2025-01-18 03:55:11.39	5.45	5.04	
2025-01-18 03:55:11.60	5.42	5.05	
2025-01-18 03:55:11.80	5.40	5.06	
2025-01-18 03:55:12.00	5.37	5.07	
2025-01-18 03:55:12.20	5.35	5.08	
2025-01-18 03:55:12.41	5.32	5.09	
2025-01-18 03:55:12.61	5.29	5.10	
2025-01-18 03:55:12.81	5.27	5.11	
2025-01-18 03:55:13.02	5.24	5.12	
2025-01-18 03:55:13.22	5.22	5.13	
2025-01-18 03:55:13.42	5.19	5.14	
2025-01-18 03:55:13.63	5.17	5.15	
2025-01-18 03:55:13.83	5.14	5.16	
2025-01-18 03:55:14.03	5.12	5.17	
2025-01-18 03:55:14.24	5.09	5.18	
2025-01-18 03:55:14.44	5.06	5.19	
2025-01-18 03:55:14.64	5.04	5.20	
2025-01-18 03:55:14.84	5.01	5.21	
2025-01-18 03:55:15.05	4.99	5.22	
2025-01-18 03:55:15.25	4.96	5.23	
2025-01-18 03:55:15.45	4.93	5.24	
2025-01-18 03:55:15.66	4.91	5.25	
2025-01-18 03:55:15.86	4.88	5.26	
2025-01-18 03:55:16.06	4.86	5.27	
2025-01-18 03:55:16.27	4.83	5.28	
2025-01-18 03:55:16.47	4.80	5.29	
2025-01-18 03:55:16.67	4.78	5.30	
2025-01-18 03:55:16.88	4.75	5.31	
2025-01-18 03:55:17.08	4.73	5.32	
2025-01-18 03:55:17.28	4.70	5.33	
2025-01-18 03:55:17.49	4.67	5.34	
2025-01-18 03:55:17.69	4.65	5.35	
2025-01-18 03:55:17.89	4.62	5.36	
2025-01-18 03:55:18.09	4.60	5.37	
2025-01-18 03:55:18.30	4.57	5.38	
2025-01-18 03:55:18.50	4.54	5.39	
2025-01-18 03:55:18.70	4.52	5.40	
2025-01-18 03:55:18.91	4.49	5.41	
2025-01-18 03:55:19.11	4.47	5.42	
2025-01-18 03:55:19.31	4.44	5.43	
2025-01-18 03:55:19.52	4.41	5.44	
2025-01-18 03:55:19.72	4.39	5.45	
2025-01-18 03:55:19.92	4.36	5.46	
2025-01-18 03:55:20.13	4.33	5.47	
2025-01-18 03:55:20.33	4.31	5.48	
2025-01-18 03:55:20.53	4.28	5.49	
2025-01-18 03:55:20.73	4.25	5.50	
2025-01-18 03:55:20.94	4.23	5.52	
2025-01-18 03:55:21.14	4.20	5.53	
2025-01-18 03:55:21.34	4.18	5.54	
2025-01-18 03:55:21.55	4.15	5.55	
2025-01-18 03:55:21.75	4.12	5.56	
2025-01-18 03:55:21.95	4.10	5.57	
2025-01-18 03:55:22.16	4.07	5.58	
2025-01-18 03:55:22.36	4.04	5.59	
2025-01-18 03:55:22.56	4.02	5.60	
2025-01-18 03:55:22.77	3.99	5.61	
2025-01-18 03:55:22.97	3.96	5.62	
2025-01-18 03:55:23.17	3.94	5.63	
2025-01-18 03:55:23.37	3.91	5.64	
2025-01-18 03:55:23.58	3.88	5.65	
2025-01-18 03:55:23.78	3.86	5.66	
2025-01-18 03:55:23.98	3.83	5.67	
2025-01-18 03:55:24.19	3.80	5.68	
2025-01-18 03:55:24.39	3.78	5.69	
2025-01-18 03:55:24.59	3.75	5.70	
2025-01-18 03:55:24.80	3.72	5.71	
2025-01-18 03:55:25.00	3.69	5.72	
2025-01-18 03:55:25.20	3.67	5.73	
2025-01-18 03:55:25.41	3.64	5.74	
2025-01-18 03:55:25.61	3.61	5.75	
2025-01-18 03:55:25.81	3.59	5.76	
2025-01-18 03:55:26.01	3.56	5.77	
2025-01-18 03:55:26.22	3.53	5.78	
2025-01-18 03:55:26.42	3.51	5.79	
2025-01-18 03:55:26.62	3.48	5.80	
2025-01-18 03:55:26.83	3.45	5.81	
2025-01-18 03:55:27.03	3.43	5.82	
2025-01-18 03:55:27.23	3.40	5.83	
2025-01-18 03:55:27.44	3.37	5.84	
2025-01-18 03:55:27.64	3.34	5.85	
2025-01-18 03:55:27.84	3.32	5.86	
2025-01-18 03:55:28.05	3.29	5.87	
2025-01-18 03:55:28.25	3.26	5.88	
2025-01-18 03:55:28.45	3.24	5.89	
2025-01-18 03:55:28.65	3.21	5.90	
2025-01-18 03:55:28.86	3.18	5.91	
2025-01-18 03:55:29.06	3.15	5.92	
2025-01-18 03:55:29.26	3.13	5.93	
2025-01-18 03:55:29.47	3.10	5.94	
2025-01-18 03:55:29.67	3.07	5.95	
2025-01-18 03:55:29.87	3.04	5.96	
2025-01-18 03:55:30.08	3.02	5.97	
2025-01-18 03:55:30.28	2.99	5.98	
2025-01-18 03:55:30.48	2.96	5.99	
2025-01-18 03:55:30.69	2.93	6.00	
2025-01-18 03:55:30.89	2.91	6.01	
2025-01-18 03:55:31.09	2.88	6.02	
2025-01-18 03:55:31.29	2.85	6.03	
2025-01-18 03:55:31.50	2.82	6.04	
2025-01-18 03:55:31.70	2.80	6.05	
2025-01-18 03:55:31.90	2.77	6.06	
2025-01-18 03:55:32.11	2.74	6.07	
2025-01-18 03:55:32.31	2.71	6.08	
2025-01-18 03:55:32.51	2.69	6.09	
2025-01-18 03:55:32.72	2.66	6.10	
2025-01-18 03:55:32.92	2.63	6.11	
2025-01-18 03:55:33.12	2.60	6.12	
2025-01-18 03:55:33.33	2.58	6.13	
2025-01-18 03:55:33.53	2.55	6.14	
2025-01-18 03:55:33.73	2.52	6.15	
2025-01-18 03:55:33.93	2.49	6.16	
2025-01-18 03:55:34.14	2.46	6.17	
2025-01-18 03:55:34.34	2.44	6.18	
2025-01-18 03:55:34.54	2.41	6.19	
2025-01-18 03:55:34.75	2.38	6.20	
2025-01-18 03:55:34.95	2.35	6.21	
2025-01-18 03:55:35.15	2.33	6.22	
2025-01-18 03:55:35.36	2.30	6.23	
2025-01-18 03:55:35.56	2.27	6.24	
2025-01-18 03:55:35.76	2.24	6.25	
2025-01-18 03:55:35.97	2.21	6.26	
2025-01-18 03:55:36.17	2.19	6.27	
2025-01-18 03:55:36.37	2.16	6.28	
2025-01-18 03:55:36.57	2.13	6.29	
2025-01-18 03:55:36.78	2.10	6.30	
2025-01-18 03:55:36.98	2.07	6.31	
2025-01-18 03:55:37.18	2.05	6.32	
2025-01-18 03:55:37.39	2.02	6.34	
2025-01-18 03:55:37.59	1.99	6.34	
2025-01-18 03:55:37.79	1.96	6.35	
2025-01-18 03:55:38.00	1.93	6.37	
2025-01-18 03:55:38.20	1.90	6.38	
2025-01-18 03:55:38.40	1.88	6.39	
2025-01-18 03:55:38.61	1.85	6.40	
2025-01-18 03:55:38.81	1.82	6.41	
2025-01-18 03:55:39.01	1.79	6.42	
2025-01-18 03:55:39.22	1.76	6.43	
2025-01-18 03:55:39.42	1.73	6.44	
2025-01-18 03:55:39.62	1.71	6.45	
2025-01-18 03:55:39.82	1.68	6.46	
2025-01-18 03:55:40.03	1.65	6.47	
2025-01-18 03:55:40.23	1.62	6.48	
2025-01-18 03:55:40.43	1.59	6.49	
2025-01-18 03:55:40.64	1.56	6.50	
2025-01-18 03:55:40.84	1.54	6.51	
2025-01-18 03:55:41.04	1.51	6.52	
2025-01-18 03:55:41.25	1.48	6.53	
2025-01-18 03:55:41.45	1.45	6.54	
2025-01-18 03:55:41.65	1.42	6.55	
2025-01-18 03:55:41.86	1.39	6.56	
2025-01-18 03:55:42.06	1.36	6.57	
2025-01-18 03:55:42.26	1.34	6.58	
2025-01-18 03:55:42.46	1.31	6.59	
2025-01-18 03:55:42.67	1.28	6.60	
2025-01-18 03:55:42.87	1.25	6.61	
2025-01-18 03:55:43.07	1.22	6.62	
2025-01-18 03:55:43.28	1.19	6.63	
2025-01-18 03:55:43.48	1.16	6.64	
2025-01-18 03:55:43.68	1.13	6.65	
2025-01-18 03:55:43.89	1.10	6.66	
2025-01-18 03:55:44.09	1.08	6.67	
2025-01-18 03:55:44.29	1.05	6.68	
2025-01-18 03:55:44.50	1.02	6.69	
2025-01-18 03:55:44.70	0.99	6.70	
2025-01-18 03:55:44.90	0.96	6.71	
2025-01-18 03:55:45.10	0.93	6.72	
2025-01-18 03:55:45.31	0.90	6.73	
2025-01-18 03:55:45.51	0.87	6.74	
2025-01-18 03:55:45.71	0.84	6.75	
2025-01-18 03:55:45.92	0.81	6.76	
2025-01-18 03:55:46.12	0.79	6.77	
2025-01-18 03:55:46.32	0.76	6.78	
2025-01-18 03:55:46.53	0.73	6.79	
2025-01-18 03:55:46.73	0.70	6.80	
2025-01-18 03:55:46.93	0.67	6.81	
2025-01-18 03:55:47.14	0.64	6.82	
2025-01-18 03:55:47.34	0.61	6.83	
2025-01-18 03:55:47.54	0.58	6.84	
2025-01-18 03:55:47.74	0.55	6.85	
2025-01-18 03:55:47.95	0.52	6.86	
2025-01-18 03:55:48.15	0.49	6.87	
2025-01-18 03:55:48.35	0.47	6.87	
2025-01-18 03:55:48.56	0.43	6.89	
2025-01-18 03:55:48.76	0.41	6.90	
2025-01-18 03:55:48.96	0.38	6.90	
2025-01-18 03:55:49.17	0.35	6.92	
2025-01-18 03:55:49.37	0.32	6.92	
2025-01-18 03:55:49.57	0.29	6.93	
2025-01-18 03:55:49.78	0.26	6.94	
2025-01-18 03:55:49.98	0.23	6.95	
2025-01-18 03:55:50.18	0.20	6.96	
2025-01-18 03:55:50.38	0.17	6.97	
2025-01-18 03:55:50.59	0.14	6.98	
2025-01-18 03:55:50.79	0.11	6.99	
2025-01-18 03:55:50.99	0.08	7.00	
2025-01-18 03:55:51.20	0.05	7.01	
2025-01-18 03:55:51.40	0.02	7.02	
2025-01-18 03:55:51.60	359.99	7.03	
2025-01-18 03:55:51.81	359.96	7.04	
2025-01-18 03:55:52.01	359.93	7.05	
2025-01-18 03:55:52.21	359.90	7.06	
2025-01-18 03:55:52.42	359.87	7.07	
2025-01-18 03:55:52.62	359.84	7.08	
2025-01-18 03:55:52.82	359.81	7.09	
2025-01-18 03:55:53.02	359.78	7.10	
2025-01-18 03:55:53.23	359.75	7.11	
2025-01-18 03:55:53.43	359.72	7.12	
2025-01-18 03:55:53.63	359.69	7.13	
2025-01-18 03:55:53.84	359.66	7.14	
2025-01-18 03:55:54.04	359.63	7.15	
2025-01-18 03:55:54.24	359.60	7.16	
2025-01-18 03:55:54.45	359.57	7.17	
2025-01-18 03:55:54.65	359.54	7.18	
2025-01-18 03:55:54.85	359.51	7.19	
2025-01-18 03:55:55.06	359.48	7.20	
2025-01-18 03:55:55.26	359.45	7.21	
2025-01-18 03:55:55.46	359.42	7.22	
2025-01-18 03:55:55.66	359.39	7.23	
2025-01-18 03:55:55.87	359.36	7.24	
2025-01-18 03:55:56.07	359.33	7.25	
2025-01-18 03:55:56.27	359.30	7.26	
2025-01-18 03:55:56.48	359.27	7.27	
2025-01-18 03:55:56.68	359.24	7.28	
2025-01-18 03:55:56.88	359.21	7.29	
2025-01-18 03:55:57.09	359.18	7.30	
2025-01-18 03:55:57.29	359.15	7.31	
2025-01-18 03:55:57.49	359.12	7.32	
2025-01-18 03:55:57.70	359.09	7.33	
2025-01-18 03:55:57.90	359.06	7.34	
2025-01-18 03:55:58.10	359.03	7.35	
2025-01-18 03:55:58.30	359.00	7.36	
2025-01-18 03:55:58.51	358.97	7.37	
2025-01-18 03:55:58.71	358.94	7.38	
2025-01-18 03:55:58.91	358.91	7.39	
2025-01-18 03:55:59.12	358.88	7.40	
2025-01-18 03:55:59.32	358.85	7.41	
2025-01-18 03:55:59.52	358.82	7.42	
2025-01-18 03:55:59.73	358.79	7.43	
2025-01-18 03:55:59.93	358.76	7.44	
2025-01-18 03:56:00.13	358.73	7.45	
2025-01-18 03:56:00.34	358.69	7.46	
2025-01-18 03:56:00.54	358.66	7.47	
2025-01-18 03:56:00.74	358.63	7.48	
2025-01-18 03:56:00.95	358.60	7.49	
2025-01-18 03:56:01.15	358.57	7.50	
2025-01-18 03:56:01.35	358.54	7.51	
2025-01-18 03:56:01.55	358.51	7.52	
2025-01-18 03:56:01.76	358.48	7.53	
2025-01-18 03:56:01.96	358.45	7.54	
2025-01-18 03:56:02.16	358.42	7.55	
2025-01-18 03:56:02.37	358.39	7.56	
2025-01-18 03:56:02.57	358.36	7.56	
2025-01-18 03:56:02.77	358.32	7.57	
2025-01-18 03:56:02.98	358.29	7.58	
2025-01-18 03:56:03.18	358.26	7.59	
2025-01-18 03:56:03.38	358.23	7.60	
2025-01-18 03:56:03.59	358.20	7.61	
2025-01-18 03:56:03.79	358.17	7.62	
2025-01-18 03:56:03.99	358.14	7.63	
2025-01-18 03:56:04.19	358.11	7.64	
2025-01-18 03:56:04.40	358.08	7.65	
2025-01-18 03:56:04.60	358.04	7.66	
2025-01-18 03:56:04.80	358.01	7.67	
2025-01-18 03:56:05.01	357.98	7.68	
2025-01-18 03:56:05.21	357.95	7.69	
2025-01-18 03:56:05.41	357.92	7.70	
2025-01-18 03:56:05.62	357.89	7.71	
2025-01-18 03:56:05.82	357.86	7.72	
2025-01-18 03:56:06.02	357.83	7.73	
2025-01-18 03:56:06.23	357.79	7.74	
2025-01-18 03:56:06.43	357.76	7.75	
2025-01-18 03:56:06.63	357.73	7.76	
2025-01-18 03:56:06.83	357.70	7.77	
2025-01-18 03:56:07.04	357.67	7.78	
2025-01-18 03:56:07.24	357.64	7.79	
2025-01-18 03:56:07.44	357.61	7.80	
2025-01-18 03:56:07.65	357.57	7.81	
2025-01-18 03:56:07.85	357.54	7.82	
2025-01-18 03:56:08.05	357.51	7.83	
2025-01-18 03:56:08.26	357.48	7.84	
2025-01-18 03:56:08.46	357.45	7.85	
2025-01-18 03:56:08.66	357.42	7.86	
2025-01-18 03:56:08.87	357.38	7.87	
2025-01-18 03:56:09.07	357.35	7.88	
2025-01-18 03:56:09.27	357.32	7.88	
2025-01-18 03:56:09.47	357.29	7.89	
2025-01-18 03:56:09.68	357.26	7.90	
2025-01-18 03:56:09.88	357.23	7.91	
2025-01-18 03:56:10.08	357.20	7.92	
2025-01-18 03:56:10.29	357.16	7.93	
2025-01-18 03:56:10.49	357.13	7.94	
2025-01-18 03:56:10.69	357.10	7.95	
2025-01-18 03:56:10.90	357.07	7.96	
2025-01-18 03:56:11.10	357.04	7.97	
2025-01-18 03:56:11.30	357.00	7.98	
2025-01-18 03:56:11.51	356.97	7.99	
2025-01-18 03:56:11.71	356.94	8.00	
2025-01-18 03:56:11.91	356.91	8.01	
2025-01-18 03:56:12.11	356.88	8.02	
2025-01-18 03:56:12.32	356.84	8.03	
2025-01-18 03:56:12.52	356.81	8.04	
2025-01-18 03:56:12.72	356.78	8.05	
2025-01-18 03:56:12.93	356.75	8.06	
2025-01-18 03:56:13.13	356.72	8.07	
2025-01-18 03:56:13.33	356.68	8.08	
2025-01-18 03:56:13.54	356.65	8.09	
2025-01-18 03:56:13.74	356.62	8.10	
2025-01-18 03:56:13.94	356.59	8.11	
2025-01-18 03:56:14.15	356.55	8.11	
2025-01-18 03:56:14.35	356.52	8.12	
2025-01-18 03:56:14.55	356.49	8.13	
2025-01-18 03:56:14.75	356.46	8.14	
2025-01-18 03:56:14.96	356.43	8.15	
2025-01-18 03:56:15.16	356.39	8.16	
2025-01-18 03:56:15.36	356.36	8.17	
2025-01-18 03:56:15.57	356.33	8.18	
2025-01-18 03:56:15.77	356.30	8.19	
2025-01-18 03:56:15.97	356.26	8.20	
2025-01-18 03:56:16.18	356.23	8.21	
2025-01-18 03:56:16.38	356.20	8.22	
2025-01-18 03:56:16.58	356.17	8.23	
2025-01-18 03:56:16.79	356.13	8.24	
2025-01-18 03:56:16.99	356.10	8.25	
2025-01-18 03:56:17.19	356.07	8.26	
2025-01-18 03:56:17.39	356.04	8.27	
2025-01-18 03:56:17.60	356.00	8.28	
2025-01-18 03:56:17.80	355.97	8.29	
2025-01-18 03:56:18.00	355.94	8.29	
2025-01-18 03:56:18.21	355.90	8.30	
2025-01-18 03:56:18.41	355.87	8.31	
2025-01-18 03:56:18.61	355.84	8.32	
2025-01-18 03:56:18.82	355.81	8.33	
2025-01-18 03:56:19.02	355.77	8.34	
2025-01-18 03:56:19.22	355.74	8.35	
2025-01-18 03:56:19.43	355.71	8.36	
2025-01-18 03:56:19.63	355.68	8.37	
2025-01-18 03:56:19.83	355.64	8.38	
2025-01-18 03:56:20.03	355.61	8.39	
2025-01-18 03:56:20.24	355.58	8.40	
2025-01-18 03:56:20.44	355.54	8.41	
2025-01-18 03:56:20.64	355.51	8.42	
2025-01-18 03:56:20.85	355.48	8.43	
2025-01-18 03:56:21.05	355.44	8.44	
2025-01-18 03:56:21.25	355.41	8.45	
2025-01-18 03:56:21.46	355.38	8.46	
2025-01-18 03:56:21.66	355.35	8.46	
2025-01-18 03:56:21.86	355.31	8.47	
2025-01-18 03:56:22.07	355.28	8.48	
2025-01-18 03:56:22.27	355.25	8.49	
2025-01-18 03:56:22.47	355.21	8.50	
2025-01-18 03:56:22.67	355.18	8.51	
2025-01-18 03:56:22.88	355.15	8.52	
2025-01-18 03:56:23.08	355.11	8.53	
2025-01-18 03:56:23.28	355.08	8.54	
2025-01-18 03:56:23.49	355.05	8.55	
2025-01-18 03:56:23.69	355.01	8.56	
2025-01-18 03:56:23.89	354.98	8.57	
2025-01-18 03:56:24.10	354.95	8.58	
2025-01-18 03:56:24.30	354.91	8.59	
2025-01-18 03:56:24.50	354.88	8.60	
2025-01-18 03:56:24.71	354.85	8.60	
2025-01-18 03:56:24.91	354.81	8.61	
2025-01-18 03:56:25.11	354.78	8.62	
2025-01-18 03:56:25.32	354.74	8.63	
2025-01-18 03:56:25.52	354.71	8.64	
2025-01-18 03:56:25.72	354.68	8.65	
2025-01-18 03:56:25.92	354.65	8.66	
2025-01-18 03:56:26.13	354.61	8.67	
2025-01-18 03:56:26.33	354.58	8.68	
2025-01-18 03:56:26.53	354.54	8.69	
2025-01-18 03:56:26.74	354.51	8.70	
2025-01-18 03:56:26.94	354.48	8.71	
2025-01-18 03:56:27.14	354.44	8.72	
2025-01-18 03:56:27.35	354.41	8.73	
2025-01-18 03:56:27.55	354.37	8.73	
2025-01-18 03:56:27.75	354.34	8.74	
2025-01-18 03:56:27.96	354.31	8.75	
2025-01-18 03:56:28.16	354.27	8.76	
2025-01-18 03:56:28.36	354.24	8.77	
2025-01-18 03:56:28.56	354.21	8.78	
2025-01-18 03:56:28.77	354.17	8.79	
2025-01-18 03:56:28.97	354.14	8.80	
2025-01-18 03:56:29.17	354.10	8.81	
2025-01-18 03:56:29.38	354.07	8.82	
2025-01-18 03:56:29.58	354.04	8.83	
2025-01-18 03:56:29.78	354.00	8.84	
2025-01-18 03:56:29.99	353.97	8.85	
2025-01-18 03:56:30.19	353.93	8.85	
2025-01-18 03:56:30.39	353.90	8.86	
2025-01-18 03:56:30.60	353.86	8.87	
2025-01-18 03:56:30.80	353.83	8.88	
2025-01-18 03:56:31.00	353.80	8.89	
2025-01-18 03:56:31.20	353.76	8.90	
2025-01-18 03:56:31.41	353.73	8.91	
2025-01-18 03:56:31.61	353.69	8.92	
2025-01-18 03:56:31.81	353.66	8.93	
2025-01-18 03:56:32.02	353.62	8.94	
2025-01-18 03:56:32.22	353.59	8.95	
2025-01-18 03:56:32.42	353.56	8.95	
2025-01-18 03:56:32.63	353.52	8.96	
2025-01-18 03:56:32.83	353.49	8.97	
2025-01-18 03:56:33.03	353.45	8.98	
2025-01-18 03:56:33.24	353.42	8.99	
2025-01-18 03:56:33.44	353.38	9.00	
2025-01-18 03:56:33.64	353.35	9.01	
2025-01-18 03:56:33.84	353.32	9.02	
2025-01-18 03:56:34.05	353.28	9.03	
2025-01-18 03:56:34.25	353.25	9.04	
2025-01-18 03:56:34.45	353.21	9.05	
2025-01-18 03:56:34.66	353.18	9.05	
2025-01-18 03:56:34.86	353.14	9.06	
2025-01-18 03:56:35.06	353.11	9.07	
2025-01-18 03:56:35.27	353.07	9.08	
2025-01-18 03:56:35.47	353.04	9.09	
2025-01-18 03:56:35.67	353.00	9.10	
2025-01-18 03:56:35.88	352.97	9.11	
2025-01-18 03:56:36.08	352.93	9.12	
2025-01-18 03:56:36.28	352.90	9.13	
2025-01-18 03:56:36.48	352.87	9.14	
2025-01-18 03:56:36.69	352.83	9.14	
2025-01-18 03:56:36.89	352.79	9.15	
2025-01-18 03:56:37.09	352.76	9.16	
2025-01-18 03:56:37.30	352.72	9.17	
2025-01-18 03:56:37.50	352.69	9.18	
2025-01-18 03:56:37.70	352.66	9.19	
2025-01-18 03:56:37.91	352.62	9.20	
2025-01-18 03:56:38.11	352.58	9.21	
2025-01-18 03:56:38.31	352.55	9.22	
2025-01-18 03:56:38.52	352.51	9.23	
2025-01-18 03:56:38.72	352.48	9.23	
2025-01-18 03:56:38.92	352.44	9.24	
2025-01-18 03:56:39.12	352.41	9.25	
2025-01-18 03:56:39.33	352.37	9.26	
2025-01-18 03:56:39.53	352.34	9.27	
2025-01-18 03:56:39.73	352.30	9.28	
2025-01-18 03:56:39.94	352.27	9.29	
2025-01-18 03:56:40.14	352.23	9.30	
2025-01-18 03:56:40.34	352.20	9.30	
2025-01-18 03:56:40.55	352.16	9.31	
2025-01-18 03:56:40.75	352.13	9.32	
2025-01-18 03:56:40.95	352.09	9.33	
2025-01-18 03:56:41.16	352.06	9.34	
2025-01-18 03:56:41.36	352.02	9.35	
2025-01-18 03:56:41.56	351.99	9.36	
2025-01-18 03:56:41.76	351.95	9.37	
2025-01-18 03:56:41.97	351.91	9.38	
2025-01-18 03:56:42.17	351.88	9.38	
2025-01-18 03:56:42.37	351.84	9.39	
2025-01-18 03:56:42.58	351.81	9.40	
2025-01-18 03:56:42.78	351.77	9.41	
2025-01-18 03:56:42.98	351.74	9.42	
2025-01-18 03:56:43.19	351.70	9.43	
2025-01-18 03:56:43.39	351.67	9.44	
2025-01-18 03:56:43.59	351.63	9.45	
2025-01-18 03:56:43.80	351.59	9.46	
2025-01-18 03:56:44.00	351.56	9.46	
2025-01-18 03:56:44.20	351.52	9.47	
2025-01-18 03:56:44.40	351.49	9.48	
2025-01-18 03:56:44.61	351.45	9.49	
2025-01-18 03:56:44.81	351.42	9.50	
2025-01-18 03:56:45.01	351.38	9.51	
2025-01-18 03:56:45.22	351.34	9.52	
2025-01-18 03:56:45.42	351.31	9.52	
2025-01-18 03:56:45.62	351.27	9.53	
2025-01-18 03:56:45.83	351.24	9.54	
2025-01-18 03:56:46.03	351.20	9.55	
2025-01-18 03:56:46.23	351.17	9.56	
2025-01-18 03:56:46.44	351.13	9.57	
2025-01-18 03:56:46.64	351.09	9.58	
2025-01-18 03:56:46.84	351.06	9.59	
2025-01-18 03:56:47.05	351.02	9.59	
2025-01-18 03:56:47.25	350.98	9.60	
2025-01-18 03:56:47.45	350.95	9.61	
2025-01-18 03:56:47.65	350.91	9.62	
2025-01-18 03:56:47.86	350.88	9.63	
2025-01-18 03:56:48.06	350.84	9.64	
2025-01-18 03:56:48.26	350.80	9.65	
2025-01-18 03:56:48.47	350.77	9.65	
2025-01-18 03:56:48.67	350.73	9.66	
2025-01-18 03:56:48.87	350.70	9.67	
2025-01-18 03:56:49.08	350.66	9.68	
2025-01-18 03:56:49.28	350.62	9.69	
2025-01-18 03:56:49.48	350.59	9.70	
2025-01-18 03:56:49.69	350.55	9.71	
2025-01-18 03:56:49.89	350.51	9.71	
2025-01-18 03:56:50.09	350.48	9.72	
2025-01-18 03:56:50.29	350.44	9.73	
2025-01-18 03:56:50.50	350.40	9.74	
2025-01-18 03:56:50.70	350.37	9.75	
2025-01-18 03:56:50.90	350.33	9.76	
2025-01-18 03:56:51.11	350.29	9.77	
2025-01-18 03:56:51.31	350.26	9.77	
2025-01-18 03:56:51.51	350.22	9.78	
2025-01-18 03:56:51.72	350.18	9.79	
2025-01-18 03:56:51.92	350.15	9.80	
2025-01-18 03:56:52.12	350.11	9.81	
2025-01-18 03:56:52.33	350.07	9.82	
2025-01-18 03:56:52.53	350.04	9.83	
2025-01-18 03:56:52.73	350.00	9.83	
2025-01-18 03:56:52.93	349.97	9.84	
2025-01-18 03:56:53.14	349.93	9.85	
2025-01-18 03:56:53.34	349.89	9.86	
2025-01-18 03:56:53.54	349.85	9.87	
2025-01-18 03:56:53.75	349.82	9.88	
2025-01-18 03:56:53.95	349.78	9.88	
2025-01-18 03:56:54.15	349.74	9.89	
2025-01-18 03:56:54.36	349.71	9.90	
2025-01-18 03:56:54.56	349.67	9.91	
2025-01-18 03:56:54.76	349.63	9.92	
2025-01-18 03:56:54.97	349.59	9.93	
2025-01-18 03:56:55.17	349.56	9.93	
2025-01-18 03:56:55.37	349.52	9.94	
2025-01-18 03:56:55.57	349.49	9.95	
2025-01-18 03:56:55.78	349.45	9.96	
2025-01-18 03:56:55.98	349.41	9.97	
2025-01-18 03:56:56.18	349.37	9.98	
2025-01-18 03:56:56.39	349.34	9.98	
2025-01-18 03:56:56.59	349.30	9.99	
2025-01-18 03:56:56.79	349.26	10.00	
2025-01-18 03:56:57.00	349.22	10.01	
2025-01-18 03:56:57.20	349.19	10.02	
2025-01-18 03:56:57.40	349.15	10.03	
2025-01-18 03:56:57.61	349.11	10.03	
2025-01-18 03:56:57.81	349.08	10.04	
2025-01-18 03:56:58.01	349.04	10.05	
2025-01-18 03:56:58.21	349.00	10.06	
2025-01-18 03:56:58.42	348.96	10.07	
2025-01-18 03:56:58.62	348.93	10.08	
2025-01-18 03:56:58.82	348.89	10.08	
2025-01-18 03:56:59.03	348.85	10.09	
2025-01-18 03:56:59.23	348.81	10.10	
2025-01-18 03:56:59.43	348.78	10.11	
2025-01-18 03:56:59.64	348.74	10.12	
2025-01-18 03:56:59.84	348.70	10.12	
2025-01-18 03:57:00.04	348.66	10.13	
2025-01-18 03:57:00.25	348.63	10.14	
2025-01-18 03:57:00.45	348.59	10.15	
2025-01-18 03:57:00.65	348.55	10.16	
2025-01-18 03:57:00.85	348.51	10.17	
2025-01-18 03:57:01.06	348.48	10.17	
2025-01-18 03:57:01.26	348.44	10.18	
2025-01-18 03:57:01.46	348.40	10.19	
2025-01-18 03:57:01.67	348.36	10.20	
2025-01-18 03:57:01.87	348.32	10.21	
2025-01-18 03:57:02.07	348.29	10.21	
2025-01-18 03:57:02.28	348.25	10.22	
2025-01-18 03:57:02.48	348.21	10.23	
2025-01-18 03:57:02.68	348.17	10.24	
2025-01-18 03:57:02.89	348.13	10.25	
2025-01-18 03:57:03.09	348.10	10.25	
2025-01-18 03:57:03.29	348.06	10.26	
2025-01-18 03:57:03.49	348.02	10.27	
2025-01-18 03:57:03.70	347.98	10.28	
2025-01-18 03:57:03.90	347.95	10.29	
2025-01-18 03:57:04.10	347.91	10.29	
2025-01-18 03:57:04.31	347.87	10.30	
2025-01-18 03:57:04.51	347.83	10.31	
2025-01-18 03:57:04.71	347.79	10.32	
2025-01-18 03:57:04.92	347.75	10.33	
2025-01-18 03:57:05.12	347.72	10.33	
2025-01-18 03:57:05.32	347.68	10.34	
2025-01-18 03:57:05.53	347.64	10.35	
2025-01-18 03:57:05.73	347.60	10.36	
2025-01-18 03:57:05.93	347.56	10.37	
2025-01-18 03:57:06.13	347.53	10.37	
2025-01-18 03:57:06.34	347.49	10.38	
2025-01-18 03:57:06.54	347.45	10.39	
2025-01-18 03:57:06.74	347.41	10.40	
2025-01-18 03:57:06.95	347.37	10.41	
2025-01-18 03:57:07.15	347.33	10.41	
2025-01-18 03:57:07.35	347.30	10.42	
2025-01-18 03:57:07.56	347.26	10.43	
2025-01-18 03:57:07.76	347.22	10.44	
2025-01-18 03:57:07.96	347.18	10.44	
2025-01-18 03:57:08.17	347.14	10.45	
2025-01-18 03:57:08.37	347.10	10.46	
2025-01-18 03:57:08.57	347.07	10.47	
2025-01-18 03:57:08.78	347.03	10.48	
2025-01-18 03:57:08.98	346.99	10.48	
2025-01-18 03:57:09.18	346.95	10.49	
2025-01-18 03:57:09.38	346.91	10.50	
2025-01-18 03:57:09.59	346.87	10.51	
2025-01-18 03:57:09.79	346.83	10.52	
2025-01-18 03:57:09.99	346.80	10.52	
2025-01-18 03:57:10.20	346.76	10.53	
2025-01-18 03:57:10.40	346.72	10.54	
2025-01-18 03:57:10.60	346.68	10.55	
2025-01-18 03:57:10.81	346.64	10.55	
2025-01-18 03:57:11.01	346.60	10.56	
2025-01-18 03:57:11.21	346.56	10.57	
2025-01-18 03:57:11.42	346.52	10.58	
2025-01-18 03:57:11.62	346.48	10.58	
2025-01-18 03:57:11.82	346.45	10.59	
2025-01-18 03:57:12.02	346.41	10.60	
2025-01-18 03:57:12.23	346.37	10.61	
2025-01-18 03:57:12.43	346.33	10.62	
2025-01-18 03:57:12.63	346.29	10.62	
2025-01-18 03:57:12.84	346.25	10.63	
2025-01-18 03:57:13.04	346.21	10.64	
2025-01-18 03:57:13.24	346.17	10.65	
2025-01-18 03:57:13.45	346.13	10.65	
2025-01-18 03:57:13.65	346.09	10.66	
2025-01-18 03:57:13.85	346.06	10.67	
2025-01-18 03:57:14.06	346.02	10.68	
2025-01-18 03:57:14.26	345.98	10.68	
2025-01-18 03:57:14.46	345.94	10.69	
2025-01-18 03:57:14.66	345.90	10.70	
2025-01-18 03:57:14.87	345.86	10.71	
2025-01-18 03:57:15.07	345.82	10.71	
2025-01-18 03:57:15.27	345.78	10.72	
2025-01-18 03:57:15.48	345.74	10.73	
2025-01-18 03:57:15.68	345.70	10.74	
2025-01-18 03:57:15.88	345.66	10.74	
2025-01-18 03:57:16.09	345.62	10.75	
2025-01-18 03:57:16.29	345.58	10.76	
2025-01-18 03:57:16.49	345.55	10.77	
2025-01-18 03:57:16.70	345.51	10.77	
2025-01-18 03:57:16.90	345.47	10.78	
2025-01-18 03:57:17.10	345.43	10.79	
2025-01-18 03:57:17.30	345.39	10.80	
2025-01-18 03:57:17.51	345.35	10.80	
2025-01-18 03:57:17.71	345.31	10.81	
2025-01-18 03:57:17.91	345.27	10.82	
2025-01-18 03:57:18.12	345.23	10.83	
2025-01-18 03:57:18.32	345.19	10.83	
2025-01-18 03:57:18.52	345.15	10.84	
2025-01-18 03:57:18.73	345.11	10.85	
2025-01-18 03:57:18.93	345.07	10.85	
2025-01-18 03:57:19.13	345.03	10.86	
2025-01-18 03:57:19.34	344.99	10.87	
2025-01-18 03:57:19.54	344.95	10.88	
2025-01-18 03:57:19.74	344.91	10.88	
2025-01-18 03:57:19.94	344.87	10.89	
2025-01-18 03:57:20.15	344.83	10.90	
2025-01-18 03:57:20.35	344.79	10.91	
2025-01-18 03:57:20.55	344.75	10.91	
2025-01-18 03:57:20.76	344.71	10.92	
2025-01-18 03:57:20.96	344.67	10.93	
2025-01-18 03:57:21.16	344.63	10.93	
2025-01-18 03:57:21.37	344.59	10.94	
2025-01-18 03:57:21.57	344.55	10.95	
2025-01-18 03:57:21.77	344.51	10.96	
2025-01-18 03:57:21.98	344.47	10.96	
2025-01-18 03:57:22.18	344.43	10.97	
2025-01-18 03:57:22.38	344.39	10.98	
2025-01-18 03:57:22.58	344.35	10.98	
2025-01-18 03:57:22.79	344.31	10.99	
2025-01-18 03:57:22.99	344.27	11.00	
2025-01-18 03:57:23.19	344.23	11.01	
2025-01-18 03:57:23.40	344.19	11.01	
2025-01-18 03:57:23.60	344.15	11.02	
2025-01-18 03:57:23.80	344.11	11.03	
2025-01-18 03:57:24.01	344.07	11.03	
2025-01-18 03:57:24.21	344.03	11.04	
2025-01-18 03:57:24.41	343.99	11.05	
2025-01-18 03:57:24.62	343.95	11.06	
2025-01-18 03:57:24.82	343.91	11.06	
2025-01-18 03:57:25.02	343.87	11.07	
2025-01-18 03:57:25.22	343.83	11.08	
2025-01-18 03:57:25.43	343.79	11.08	
2025-01-18 03:57:25.63	343.75	11.09	
2025-01-18 03:57:25.83	343.71	11.10	
2025-01-18 03:57:26.04	343.67	11.10	
2025-01-18 03:57:26.24	343.63	11.11	
2025-01-18 03:57:26.44	343.59	11.12	
2025-01-18 03:57:26.65	343.55	11.13	
2025-01-18 03:57:26.85	343.51	11.13	
2025-01-18 03:57:27.05	343.47	11.14	
2025-01-18 03:57:27.26	343.43	11.15	
2025-01-18 03:57:27.46	343.39	11.15	
2025-01-18 03:57:27.66	343.35	11.16	
2025-01-18 03:57:27.86	343.31	11.17	
2025-01-18 03:57:28.07	343.26	11.17	
2025-01-18 03:57:28.27	343.22	11.18	
2025-01-18 03:57:28.47	343.18	11.19	
2025-01-18 03:57:28.68	343.14	11.19	
2025-01-18 03:57:28.88	343.10	11.20	
2025-01-18 03:57:29.08	343.06	11.21	
2025-01-18 03:57:29.29	343.02	11.21	
2025-01-18 03:57:29.49	342.98	11.22	
2025-01-18 03:57:29.69	342.94	11.23	
2025-01-18 03:57:29.90	342.90	11.23	
2025-01-18 03:57:30.10	342.86	11.24	
2025-01-18 03:57:30.30	342.82	11.25	
2025-01-18 03:57:30.50	342.78	11.25	
2025-01-18 03:57:30.71	342.73	11.26	
2025-01-18 03:57:30.91	342.69	11.27	
2025-01-18 03:57:31.11	342.65	11.27	
2025-01-18 03:57:31.32	342.61	11.28	
2025-01-18 03:57:31.52	342.57	11.29	
2025-01-18 03:57:31.72	342.53	11.29	
2025-01-18 03:57:31.93	342.49	11.30	
2025-01-18 03:57:32.13	342.45	11.31	
2025-01-18 03:57:32.33	342.41	11.31	
2025-01-18 03:57:32.54	342.37	11.32	
2025-01-18 03:57:32.74	342.33	11.33	
2025-01-18 03:57:32.94	342.28	11.33	
2025-01-18 03:57:33.15	342.24	11.34	
2025-01-18 03:57:33.35	342.20	11.35	
2025-01-18 03:57:33.55	342.16	11.35	
2025-01-18 03:57:33.75	342.12	11.36	
2025-01-18 03:57:33.96	342.08	11.37	
2025-01-18 03:57:34.16	342.04	11.37	
2025-01-18 03:57:34.36	342.00	11.38	
2025-01-18 03:57:34.57	341.95	11.39	
2025-01-18 03:57:34.77	341.91	11.39	
2025-01-18 03:57:34.97	341.87	11.40	
2025-01-18 03:57:35.18	341.83	11.41	
2025-01-18 03:57:35.38	341.79	11.41	
2025-01-18 03:57:35.58	341.75	11.42	
2025-01-18 03:57:35.78	341.71	11.42	
2025-01-18 03:57:35.99	341.66	11.43	
2025-01-18 03:57:36.19	341.62	11.44	
2025-01-18 03:57:36.39	341.58	11.44	
2025-01-18 03:57:36.60	341.54	11.45	
2025-01-18 03:57:36.80	341.50	11.46	
2025-01-18 03:57:37.00	341.46	11.46	
2025-01-18 03:57:37.21	341.42	11.47	
2025-01-18 03:57:37.41	341.37	11.48	
2025-01-18 03:57:37.61	341.33	11.48	
2025-01-18 03:57:37.82	341.29	11.49	
2025-01-18 03:57:38.02	341.25	11.49	
2025-01-18 03:57:38.22	341.21	11.50	
2025-01-18 03:57:38.43	341.17	11.51	
2025-01-18 03:57:38.63	341.12	11.51	
2025-01-18 03:57:38.83	341.08	11.52	
2025-01-18 03:57:39.03	341.04	11.53	
2025-01-18 03:57:39.24	341.00	11.53	
2025-01-18 03:57:39.44	340.96	11.54	
2025-01-18 03:57:39.64	340.92	11.54	
2025-01-18 03:57:39.85	340.87	11.55	
2025-01-18 03:57:40.05	340.83	11.56	
2025-01-18 03:57:40.25	340.79	11.56	
2025-01-18 03:57:40.46	340.75	11.57	
2025-01-18 03:57:40.66	340.71	11.58	
2025-01-18 03:57:40.86	340.67	11.58	
2025-01-18 03:57:41.07	340.62	11.59	
2025-01-18 03:57:41.27	340.58	11.59	
2025-01-18 03:57:41.47	340.54	11.60	
2025-01-18 03:57:41.67	340.50	11.61	
2025-01-18 03:57:41.88	340.46	11.61	
2025-01-18 03:57:42.08	340.41	11.62	
2025-01-18 03:57:42.28	340.37	11.62	
2025-01-18 03:57:42.49	340.33	11.63	
2025-01-18 03:57:42.69	340.29	11.64	
2025-01-18 03:57:42.89	340.25	11.64	
2025-01-18 03:57:43.10	340.20	11.65	
2025-01-18 03:57:43.30	340.16	11.65	
2025-01-18 03:57:43.50	340.12	11.66	
2025-01-18 03:57:43.71	340.08	11.67	
2025-01-18 03:57:43.91	340.04	11.67	
2025-01-18 03:57:44.11	339.99	11.68	
2025-01-18 03:57:44.31	339.95	11.68	
2025-01-18 03:57:44.52	339.91	11.69	
2025-01-18 03:57:44.72	339.87	11.69	
2025-01-18 03:57:44.92	339.83	11.70	
2025-01-18 03:57:45.13	339.78	11.71	
2025-01-18 03:57:45.33	339.74	11.71	
2025-01-18 03:57:45.53	339.70	11.72	
2025-01-18 03:57:45.74	339.65	11.72	
2025-01-18 03:57:45.94	339.61	11.73	
2025-01-18 03:57:46.14	339.57	11.74	
2025-01-18 03:57:46.35	339.53	11.74	
2025-01-18 03:57:46.55	339.49	11.75	
2025-01-18 03:57:46.75	339.44	11.75	
2025-01-18 03:57:46.95	339.40	11.76	
2025-01-18 03:57:47.16	339.36	11.76	
2025-01-18 03:57:47.36	339.32	11.77	
2025-01-18 03:57:47.56	339.27	11.78	
2025-01-18 03:57:47.77	339.23	11.78	
2025-01-18 03:57:47.97	339.19	11.79	
2025-01-18 03:57:48.17	339.15	11.79	
2025-01-18 03:57:48.38	339.10	11.80	
2025-01-18 03:57:48.58	339.06	11.80	
2025-01-18 03:57:48.78	339.02	11.81	
2025-01-18 03:57:48.99	338.97	11.82	
2025-01-18 03:57:49.19	338.93	11.82	
2025-01-18 03:57:49.39	338.89	11.83	
2025-01-18 03:57:49.59	338.85	11.83	
2025-01-18 03:57:49.80	338.80	11.84	
2025-01-18 03:57:50.00	338.76	11.84	
2025-01-18 03:57:50.20	338.72	11.85	
2025-01-18 03:57:50.41	338.68	11.85	
2025-01-18 03:57:50.61	338.63	11.86	
2025-01-18 03:57:50.81	338.59	11.86	
2025-01-18 03:57:51.02	338.55	11.87	
2025-01-18 03:57:51.22	338.51	11.88	
2025-01-18 03:57:51.42	338.46	11.88	
2025-01-18 03:57:51.63	338.42	11.89	
2025-01-18 03:57:51.83	338.38	11.89	
2025-01-18 03:57:52.03	338.34	11.90	
2025-01-18 03:57:52.23	338.29	11.90	
2025-01-18 03:57:52.44	338.25	11.91	
2025-01-18 03:57:52.64	338.21	11.91	
2025-01-18 03:57:52.84	338.16	11.92	
2025-01-18 03:57:53.05	338.12	11.92	
2025-01-18 03:57:53.25	338.08	11.93	
2025-01-18 03:57:53.45	338.03	11.93	
2025-01-18 03:57:53.66	337.99	11.94	
2025-01-18 03:57:53.86	337.95	11.95	
2025-01-18 03:57:54.06	337.91	11.95	
2025-01-18 03:57:54.27	337.86	11.96	
2025-01-18 03:57:54.47	337.82	11.96	
2025-01-18 03:57:54.67	337.78	11.97	
2025-01-18 03:57:54.88	337.73	11.97	
2025-01-18 03:57:55.08	337.69	11.98	
2025-01-18 03:57:55.28	337.65	11.98	
2025-01-18 03:57:55.48	337.60	11.99	
2025-01-18 03:57:55.69	337.56	11.99	
2025-01-18 03:57:55.89	337.52	12.00	
2025-01-18 03:57:56.09	337.47	12.00	
2025-01-18 03:57:56.30	337.43	12.01	
2025-01-18 03:57:56.50	337.39	12.01	
2025-01-18 03:57:56.70	337.34	12.02	
2025-01-18 03:57:56.91	337.30	12.02	
2025-01-18 03:57:57.11	337.26	12.03	
2025-01-18 03:57:57.31	337.21	12.03	
2025-01-18 03:57:57.52	337.17	12.04	
2025-01-18 03:57:57.72	337.13	12.04	
2025-01-18 03:57:57.92	337.08	12.05	
2025-01-18 03:57:58.12	337.04	12.05	
2025-01-18 03:57:58.33	337.00	12.06	
2025-01-18 03:57:58.53	336.95	12.06	
2025-01-18 03:57:58.73	336.91	12.07	
2025-01-18 03:57:58.94	336.87	12.07	
2025-01-18 03:57:59.14	336.82	12.08	
2025-01-18 03:57:59.34	336.78	12.08	
2025-01-18 03:57:59.55	336.74	12.09	
2025-01-18 03:57:59.75	336.69	12.09	
2025-01-18 03:57:59.95	336.65	12.10	
2025-01-18 03:58:00.16	336.61	12.10	
2025-01-18 03:58:00.36	336.56	12.11	
2025-01-18 03:58:00.56	336.52	12.11	
2025-01-18 03:58:00.76	336.48	12.12	
2025-01-18 03:58:00.97	336.43	12.12	
2025-01-18 03:58:01.17	336.39	12.13	
2025-01-18 03:58:01.37	336.35	12.13	
2025-01-18 03:58:01.58	336.30	12.14	
2025-01-18 03:58:01.78	336.26	12.14	
2025-01-18 03:58:01.98	336.21	12.14	
2025-01-18 03:58:02.19	336.17	12.15	
2025-01-18 03:58:02.39	336.13	12.15	
2025-01-18 03:58:02.59	336.08	12.16	
2025-01-18 03:58:02.80	336.04	12.16	
2025-01-18 03:58:03.00	335.99	12.17	
2025-01-18 03:58:03.20	335.95	12.17	
2025-01-18 03:58:03.40	335.91	12.18	
2025-01-18 03:58:03.61	335.86	12.18	
2025-01-18 03:58:03.81	335.82	12.19	
2025-01-18 03:58:04.01	335.78	12.19	
2025-01-18 03:58:04.22	335.73	12.20	
2025-01-18 03:58:04.42	335.69	12.20	
2025-01-18 03:58:04.62	335.65	12.20	
2025-01-18 03:58:04.83	335.60	12.21	
2025-01-18 03:58:05.03	335.56	12.21	
2025-01-18 03:58:05.23	335.51	12.22	
2025-01-18 03:58:05.44	335.47	12.22	
2025-01-18 03:58:05.64	335.43	12.23	
2025-01-18 03:58:05.84	335.38	12.23	
2025-01-18 03:58:06.04	335.34	12.24	
2025-01-18 03:58:06.25	335.29	12.24	
2025-01-18 03:58:06.45	335.25	12.25	
2025-01-18 03:58:06.65	335.21	12.25	
2025-01-18 03:58:06.86	335.16	12.25	
2025-01-18 03:58:07.06	335.12	12.26	
2025-01-18 03:58:07.26	335.07	12.26	
2025-01-18 03:58:07.47	335.03	12.27	
2025-01-18 03:58:07.67	334.99	12.27	
2025-01-18 03:58:07.87	334.94	12.28	
2025-01-18 03:58:08.08	334.90	12.28	
2025-01-18 03:58:08.28	334.85	12.28	
2025-01-18 03:58:08.48	334.81	12.29	
2025-01-18 03:58:08.68	334.77	12.29	
2025-01-18 03:58:08.89	334.72	12.30	
2025-01-18 03:58:09.09	334.68	12.30	
2025-01-18 03:58:09.29	334.63	12.30	
2025-01-18 03:58:09.50	334.59	12.31	
2025-01-18 03:58:09.70	334.54	12.31	
2025-01-18 03:58:09.90	334.50	12.32	
2025-01-18 03:58:10.11	334.45	12.32	
2025-01-18 03:58:10.31	334.41	12.33	
2025-01-18 03:58:10.51	334.37	12.33	
2025-01-18 03:58:10.72	334.32	12.33	
2025-01-18 03:58:10.92	334.28	12.34	
2025-01-18 03:58:11.12	334.23	12.34	
2025-01-18 03:58:11.32	334.19	12.35	
2025-01-18 03:58:11.53	334.14	12.35	
2025-01-18 03:58:11.73	334.10	12.35	
2025-01-18 03:58:11.93	334.06	12.36	
2025-01-18 03:58:12.14	334.01	12.36	
2025-01-18 03:58:12.34	333.97	12.37	
2025-01-18 03:58:12.54	333.92	12.37	
2025-01-18 03:58:12.75	333.88	12.37	
2025-01-18 03:58:12.95	333.83	12.38	
2025-01-18 03:58:13.15	333.79	12.38	
2025-01-18 03:58:13.36	333.74	12.39	
2025-01-18 03:58:13.56	333.70	12.39	
2025-01-18 03:58:13.76	333.66	12.39	
2025-01-18 03:58:13.96	333.61	12.40	
2025-01-18 03:58:14.17	333.57	12.40	
2025-01-18 03:58:14.37	333.52	12.40	
2025-01-18 03:58:14.57	333.48	12.41	
2025-01-18 03:58:14.78	333.43	12.41	
2025-01-18 03:58:14.98	333.39	12.42	
2025-01-18 03:58:15.18	333.35	12.42	
2025-01-18 03:58:15.39	333.30	12.42	
2025-01-18 03:58:15.59	333.26	12.43	
2025-01-18 03:58:15.79	333.21	12.43	
2025-01-18 03:58:16.00	333.17	12.43	
2025-01-18 03:58:16.20	333.12	12.44	
2025-01-18 03:58:16.40	333.08	12.44	
2025-01-18 03:58:16.60	333.03	12.45	
2025-01-18 03:58:16.81	332.99	12.45	
2025-01-18 03:58:17.01	332.94	12.45	
2025-01-18 03:58:17.21	332.90	12.46	
2025-01-18 03:58:17.42	332.85	12.46	
2025-01-18 03:58:17.62	332.81	12.46	
2025-01-18 03:58:17.82	332.77	12.47	
2025-01-18 03:58:18.03	332.72	12.47	
2025-01-18 03:58:18.23	332.67	12.47	
2025-01-18 03:58:18.43	332.63	12.48	
2025-01-18 03:58:18.64	332.58	12.48	
2025-01-18 03:58:18.84	332.54	12.48	
2025-01-18 03:58:19.04	332.50	12.49	
2025-01-18 03:58:19.25	332.45	12.49	
2025-01-18 03:58:19.45	332.41	12.49	
2025-01-18 03:58:19.65	332.36	12.50	
2025-01-18 03:58:19.85	332.32	12.50	
2025-01-18 03:58:20.06	332.27	12.51	
2025-01-18 03:58:20.26	332.23	12.51	
2025-01-18 03:58:20.46	332.18	12.51	
2025-01-18 03:58:20.67	332.14	12.52	
2025-01-18 03:58:20.87	332.09	12.52	
2025-01-18 03:58:21.07	332.05	12.52	
2025-01-18 03:58:21.28	332.00	12.52	
2025-01-18 03:58:21.48	331.96	12.53	
2025-01-18 03:58:21.68	331.91	12.53	
2025-01-18 03:58:21.89	331.87	12.53	
2025-01-18 03:58:22.09	331.82	12.54	
2025-01-18 03:58:22.29	331.78	12.54	
2025-01-18 03:58:22.49	331.73	12.54	
2025-01-18 03:58:22.70	331.69	12.55	
2025-01-18 03:58:22.90	331.64	12.55	
2025-01-18 03:58:23.10	331.60	12.55	
2025-01-18 03:58:23.31	331.55	12.56	
2025-01-18 03:58:23.51	331.51	12.56	
2025-01-18 03:58:23.71	331.46	12.56	
2025-01-18 03:58:23.92	331.42	12.57	
2025-01-18 03:58:24.12	331.37	12.57	
2025-01-18 03:58:24.32	331.33	12.57	
2025-01-18 03:58:24.53	331.28	12.58	
2025-01-18 03:58:24.73	331.24	12.58	
2025-01-18 03:58:24.93	331.19	12.58	
2025-01-18 03:58:25.13	331.15	12.58	
2025-01-18 03:58:25.34	331.10	12.59	
2025-01-18 03:58:25.54	331.06	12.59	
2025-01-18 03:58:25.74	331.01	12.59	
2025-01-18 03:58:25.95	330.97	12.60	
2025-01-18 03:58:26.15	330.92	12.60	
2025-01-18 03:58:26.35	330.88	12.60	
2025-01-18 03:58:26.56	330.83	12.60	
2025-01-18 03:58:26.76	330.79	12.61	
2025-01-18 03:58:26.96	330.74	12.61	
2025-01-18 03:58:27.17	330.69	12.61	
2025-01-18 03:58:27.37	330.65	12.62	
2025-01-18 03:58:27.57	330.60	12.62	
2025-01-18 03:58:27.77	330.56	12.62	
2025-01-18 03:58:27.98	330.51	12.62	
2025-01-18 03:58:28.18	330.47	12.63	
2025-01-18 03:58:28.38	330.42	12.63	
2025-01-18 03:58:28.59	330.38	12.63	
2025-01-18 03:58:28.79	330.33	12.63	
2025-01-18 03:58:28.99	330.29	12.64	
2025-01-18 03:58:29.20	330.24	12.64	
2025-01-18 03:58:29.40	330.20	12.64	
2025-01-18 03:58:29.60	330.15	12.65	
2025-01-18 03:58:29.81	330.11	12.65	
2025-01-18 03:58:30.01	330.06	12.65	
2025-01-18 03:58:30.21	330.02	12.65	
2025-01-18 03:58:30.41	329.97	12.66	
2025-01-18 03:58:30.62	329.92	12.66	
2025-01-18 03:58:30.82	329.88	12.66	
2025-01-18 03:58:31.02	329.83	12.66	
2025-01-18 03:58:31.23	329.79	12.67	
2025-01-18 03:58:31.43	329.74	12.67	
2025-01-18 03:58:31.63	329.70	12.67	
2025-01-18 03:58:31.84	329.65	12.67	
2025-01-18 03:58:32.04	329.61	12.68	
2025-01-18 03:58:32.24	329.56	12.68	
2025-01-18 03:58:32.45	329.52	12.68	
2025-01-18 03:58:32.65	329.47	12.68	
2025-01-18 03:58:32.85	329.43	12.68	
2025-01-18 03:58:33.05	329.38	12.69	
2025-01-18 03:58:33.26	329.33	12.69	
2025-01-18 03:58:33.46	329.29	12.69	
2025-01-18 03:58:33.66	329.24	12.69	
2025-01-18 03:58:33.87	329.20	12.70	
2025-01-18 03:58:34.07	329.15	12.70	
2025-01-18 03:58:34.27	329.11	12.70	
2025-01-18 03:58:34.48	329.06	12.70	
2025-01-18 03:58:34.68	329.02	12.71	
2025-01-18 03:58:34.88	328.97	12.71	
2025-01-18 03:58:35.09	328.92	12.71	
2025-01-18 03:58:35.29	328.88	12.71	
2025-01-18 03:58:35.49	328.83	12.71	
2025-01-18 03:58:35.69	328.79	12.72	
2025-01-18 03:58:35.90	328.74	12.72	
2025-01-18 03:58:36.10	328.70	12.72	
2025-01-18 03:58:36.30	328.65	12.72	
2025-01-18 03:58:36.51	328.60	12.72	
2025-01-18 03:58:36.71	328.56	12.73	
2025-01-18 03:58:36.91	328.52	12.73	
2025-01-18 03:58:37.12	328.47	12.73	
2025-01-18 03:58:37.32	328.42	12.73	
2025-01-18 03:58:37.52	328.38	12.73	
2025-01-18 03:58:37.73	328.33	12.74	
2025-01-18 03:58:37.93	328.29	12.74	
2025-01-18 03:58:38.13	328.24	12.74	
2025-01-18 03:58:38.33	328.20	12.74	
2025-01-18 03:58:38.54	328.15	12.74	
2025-01-18 03:58:38.74	328.10	12.75	
2025-01-18 03:58:38.94	328.06	12.75	
2025-01-18 03:58:39.15	328.01	12.75	
2025-01-18 03:58:39.35	327.97	12.75	
2025-01-18 03:58:39.55	327.92	12.75	
2025-01-18 03:58:39.76	327.87	12.76	
2025-01-18 03:58:39.96	327.83	12.76	
2025-01-18 03:58:40.16	327.78	12.76	
2025-01-18 03:58:40.37	327.74	12.76	
2025-01-18 03:58:40.57	327.69	12.76	
2025-01-18 03:58:40.77	327.65	12.76	
2025-01-18 03:58:40.98	327.60	12.77	
2025-01-18 03:58:41.18	327.55	12.77	
2025-01-18 03:58:41.38	327.51	12.77	
2025-01-18 03:58:41.58	327.46	12.77	
2025-01-18 03:58:41.79	327.42	12.77	
2025-01-18 03:58:41.99	327.37	12.77	
2025-01-18 03:58:42.19	327.33	12.78	
2025-01-18 03:58:42.40	327.28	12.78	
2025-01-18 03:58:42.60	327.23	12.78	
2025-01-18 03:58:42.80	327.19	12.78	
2025-01-18 03:58:43.01	327.14	12.78	
2025-01-18 03:58:43.21	327.10	12.78	
2025-01-18 03:58:43.41	327.05	12.78	
2025-01-18 03:58:43.62	327.00	12.79	
2025-01-18 03:58:43.82	326.96	12.79	
2025-01-18 03:58:44.02	326.91	12.79	
2025-01-18 03:58:44.22	326.87	12.79	
2025-01-18 03:58:44.43	326.82	12.79	
2025-01-18 03:58:44.63	326.78	12.79	
2025-01-18 03:58:44.83	326.73	12.79	
2025-01-18 03:58:45.04	326.68	12.80	
2025-01-18 03:58:45.24	326.64	12.80	
2025-01-18 03:58:45.44	326.59	12.80	
2025-01-18 03:58:45.65	326.55	12.80	
2025-01-18 03:58:45.85	326.50	12.80	
2025-01-18 03:58:46.05	326.46	12.80	
2025-01-18 03:58:46.26	326.41	12.80	
2025-01-18 03:58:46.46	326.36	12.80	
2025-01-18 03:58:46.66	326.32	12.81	
2025-01-18 03:58:46.86	326.27	12.81	
2025-01-18 03:58:47.07	326.23	12.81	
2025-01-18 03:58:47.27	326.18	12.81	
2025-01-18 03:58:47.47	326.14	12.81	
2025-01-18 03:58:47.68	326.09	12.81	
2025-01-18 03:58:47.88	326.04	12.81	
2025-01-18 03:58:48.08	326.00	12.81	
2025-01-18 03:58:48.29	325.95	12.81	
2025-01-18 03:58:48.49	325.90	12.82	
2025-01-18 03:58:48.69	325.86	12.82	
2025-01-18 03:58:48.90	325.81	12.82	
2025-01-18 03:58:49.10	325.77	12.82	
2025-01-18 03:58:49.30	325.72	12.82	
2025-01-18 03:58:49.50	325.68	12.82	
2025-01-18 03:58:49.71	325.63	12.82	
2025-01-18 03:58:49.91	325.58	12.82	
2025-01-18 03:58:50.11	325.54	12.82	
2025-01-18 03:58:50.32	325.49	12.82	
2025-01-18 03:58:50.52	325.45	12.83	
2025-01-18 03:58:50.72	325.40	12.83	
2025-01-18 03:58:50.93	325.35	12.83	
2025-01-18 03:58:51.13	325.31	12.83	
2025-01-18 03:58:51.33	325.26	12.83	
2025-01-18 03:58:51.54	325.21	12.83	
2025-01-18 03:58:51.74	325.17	12.83	
2025-01-18 03:58:51.94	325.12	12.83	
2025-01-18 03:58:52.14	325.08	12.83	
2025-01-18 03:58:52.35	325.03	12.83	
2025-01-18 03:58:52.55	324.99	12.83	
2025-01-18 03:58:52.75	324.94	12.83	
2025-01-18 03:58:52.96	324.89	12.83	
2025-01-18 03:58:53.16	324.85	12.84	
2025-01-18 03:58:53.36	324.80	12.84	
2025-01-18 03:58:53.57	324.75	12.84	
2025-01-18 03:58:53.77	324.71	12.84	
2025-01-18 03:58:53.97	324.66	12.84	
2025-01-18 03:58:54.18	324.62	12.84	
2025-01-18 03:58:54.38	324.57	12.84	
2025-01-18 03:58:54.58	324.53	12.84	
2025-01-18 03:58:54.78	324.48	12.84	
2025-01-18 03:58:54.99	324.43	12.84	
2025-01-18 03:58:55.19	324.39	12.84	
2025-01-18 03:58:55.39	324.34	12.84	
2025-01-18 03:58:55.60	324.30	12.84	
2025-01-18 03:58:55.80	324.25	12.84	
2025-01-18 03:58:56.00	324.20	12.84	
2025-01-18 03:58:56.21	324.16	12.84	
2025-01-18 03:58:56.41	324.11	12.84	
2025-01-18 03:58:56.61	324.07	12.84	
2025-01-18 03:58:56.82	324.02	12.84	
2025-01-18 03:58:57.02	323.97	12.84	
2025-01-18 03:58:57.22	323.93	12.85	
2025-01-18 03:58:57.42	323.88	12.85	
2025-01-18 03:58:57.63	323.84	12.85	
2025-01-18 03:58:57.83	323.79	12.85	
2025-01-18 03:58:58.03	323.74	12.85	
2025-01-18 03:58:58.24	323.70	12.85	
2025-01-18 03:58:58.44	323.65	12.85	
2025-01-18 03:58:58.64	323.61	12.85	
2025-01-18 03:58:58.85	323.56	12.85	
2025-01-18 03:58:59.05	323.51	12.85	
2025-01-18 03:58:59.25	323.47	12.85	
2025-01-18 03:58:59.46	323.42	12.85	
2025-01-18 03:58:59.66	323.38	12.85	
2025-01-18 03:58:59.86	323.33	12.85	
2025-01-18 03:59:00.06	323.28	12.85	
2025-01-18 03:59:00.27	323.24	12.85	
2025-01-18 03:59:00.47	323.19	12.85	
2025-01-18 03:59:00.67	323.15	12.85	
2025-01-18 03:59:00.88	323.10	12.85	
2025-01-18 03:59:01.08	323.05	12.85	
2025-01-18 03:59:01.28	323.01	12.85	
2025-01-18 03:59:01.49	322.96	12.85	
2025-01-18 03:59:01.69	322.91	12.85	
2025-01-18 03:59:01.89	322.87	12.85	
2025-01-18 03:59:02.10	322.82	12.85	
2025-01-18 03:59:02.30	322.78	12.85	
2025-01-18 03:59:02.50	322.73	12.85	
2025-01-18 03:59:02.71	322.68	12.85	
2025-01-18 03:59:02.91	322.64	12.85	
2025-01-18 03:59:03.11	322.59	12.85	
2025-01-18 03:59:03.31	322.55	12.85	
2025-01-18 03:59:03.52	322.50	12.85	
2025-01-18 03:59:03.72	322.45	12.85	
2025-01-18 03:59:03.92	322.41	12.85	
2025-01-18 03:59:04.13	322.36	12.85	
2025-01-18 03:59:04.33	322.32	12.85	
2025-01-18 03:59:04.53	322.27	12.85	
2025-01-18 03:59:04.74	322.22	12.84	
2025-01-18 03:59:04.94	322.18	12.84	
2025-01-18 03:59:05.14	322.13	12.84	
2025-01-18 03:59:05.35	322.09	12.84	
2025-01-18 03:59:05.55	322.04	12.84	
2025-01-18 03:59:05.75	321.99	12.84	
2025-01-18 03:59:05.95	321.95	12.84	
2025-01-18 03:59:06.16	321.90	12.84	
2025-01-18 03:59:06.36	321.86	12.84	
2025-01-18 03:59:06.56	321.81	12.84	
2025-01-18 03:59:06.77	321.76	12.84	
2025-01-18 03:59:06.97	321.72	12.84	
2025-01-18 03:59:07.17	321.67	12.84	
2025-01-18 03:59:07.38	321.63	12.84	
2025-01-18 03:59:07.58	321.58	12.84	
2025-01-18 03:59:07.78	321.53	12.84	
2025-01-18 03:59:07.99	321.49	12.84	
2025-01-18 03:59:08.19	321.44	12.84	
2025-01-18 03:59:08.39	321.40	12.84	
2025-01-18 03:59:08.59	321.35	12.84	
2025-01-18 03:59:08.80	321.30	12.83	
2025-01-18 03:59:09.00	321.26	12.83	
2025-01-18 03:59:09.20	321.21	12.83	
2025-01-18 03:59:09.41	321.17	12.83	
2025-01-18 03:59:09.61	321.12	12.83	
2025-01-18 03:59:09.81	321.07	12.83	
2025-01-18 03:59:10.02	321.03	12.83	
2025-01-18 03:59:10.22	320.98	12.83	
2025-01-18 03:59:10.42	320.94	12.83	
2025-01-18 03:59:10.63	320.89	12.83	
2025-01-18 03:59:10.83	320.84	12.83	
2025-01-18 03:59:11.03	320.80	12.83	
2025-01-18 03:59:11.23	320.75	12.83	
2025-01-18 03:59:11.44	320.71	12.82	
2025-01-18 03:59:11.64	320.66	12.82	
2025-01-18 03:59:11.84	320.62	12.82	
2025-01-18 03:59:12.05	320.57	12.82	
2025-01-18 03:59:12.25	320.52	12.82	
2025-01-18 03:59:12.45	320.48	12.82	
2025-01-18 03:59:12.66	320.43	12.82	
2025-01-18 03:59:12.86	320.38	12.82	
2025-01-18 03:59:13.06	320.34	12.82	
2025-01-18 03:59:13.27	320.29	12.82	
2025-01-18 03:59:13.47	320.25	12.82	
2025-01-18 03:59:13.67	320.20	12.81	
2025-01-18 03:59:13.87	320.16	12.81	
2025-01-18 03:59:14.08	320.11	12.81	
2025-01-18 03:59:14.28	320.06	12.81	
2025-01-18 03:59:14.48	320.02	12.81	
2025-01-18 03:59:14.69	319.97	12.81	
2025-01-18 03:59:14.89	319.93	12.81	
2025-01-18 03:59:15.09	319.88	12.81	
2025-01-18 03:59:15.30	319.83	12.80	
2025-01-18 03:59:15.50	319.79	12.80	
2025-01-18 03:59:15.70	319.74	12.80	
2025-01-18 03:59:15.91	319.69	12.80	
2025-01-18 03:59:16.11	319.65	12.80	
2025-01-18 03:59:16.31	319.60	12.80	
2025-01-18 03:59:16.51	319.56	12.80	
2025-01-18 03:59:16.72	319.51	12.80	
2025-01-18 03:59:16.92	319.47	12.79	
2025-01-18 03:59:17.12	319.42	12.79	
2025-01-18 03:59:17.33	319.37	12.79	
2025-01-18 03:59:17.53	319.33	12.79	
2025-01-18 03:59:17.73	319.28	12.79	
2025-01-18 03:59:17.94	319.24	12.79	
2025-01-18 03:59:18.14	319.19	12.79	
2025-01-18 03:59:18.34	319.15	12.78	
2025-01-18 03:59:18.55	319.10	12.78	
2025-01-18 03:59:18.75	319.05	12.78	
2025-01-18 03:59:18.95	319.01	12.78	
2025-01-18 03:59:19.15	318.96	12.78	
2025-01-18 03:59:19.36	318.92	12.78	
2025-01-18 03:59:19.56	318.87	12.78	
2025-01-18 03:59:19.76	318.83	12.77	
2025-01-18 03:59:19.97	318.78	12.77	
2025-01-18 03:59:20.17	318.73	12.77	
2025-01-18 03:59:20.37	318.69	12.77	
2025-01-18 03:59:20.58	318.64	12.77	
2025-01-18 03:59:20.78	318.60	12.77	
2025-01-18 03:59:20.98	318.55	12.76	
2025-01-18 03:59:21.19	318.50	12.76	
2025-01-18 03:59:21.39	318.46	12.76	
2025-01-18 03:59:21.59	318.41	12.76	
2025-01-18 03:59:21.79	318.37	12.76	
2025-01-18 03:59:22.00	318.32	12.76	
2025-01-18 03:59:22.20	318.28	12.75	
2025-01-18 03:59:22.40	318.23	12.75	
2025-01-18 03:59:22.61	318.18	12.75	
2025-01-18 03:59:22.81	318.14	12.75	
2025-01-18 03:59:23.01	318.09	12.75	
2025-01-18 03:59:23.22	318.05	12.74	
2025-01-18 03:59:23.42	318.00	12.74	
2025-01-18 03:59:23.62	317.96	12.74	
2025-01-18 03:59:23.83	317.91	12.74	
2025-01-18 03:59:24.03	317.86	12.74	
2025-01-18 03:59:24.23	317.82	12.73	
2025-01-18 03:59:24.43	317.77	12.73	
2025-01-18 03:59:24.64	317.73	12.73	
2025-01-18 03:59:24.84	317.68	12.73	
2025-01-18 03:59:25.04	317.64	12.73	
2025-01-18 03:59:25.25	317.59	12.72	
2025-01-18 03:59:25.45	317.54	12.72	
2025-01-18 03:59:25.65	317.50	12.72	
2025-01-18 03:59:25.86	317.45	12.72	
2025-01-18 03:59:26.06	317.41	12.72	
2025-01-18 03:59:26.26	317.36	12.71	
2025-01-18 03:59:26.47	317.32	12.71	
2025-01-18 03:59:26.67	317.27	12.71	
2025-01-18 03:59:26.87	317.23	12.71	
2025-01-18 03:59:27.08	317.18	12.71	
2025-01-18 03:59:27.28	317.13	12.70	
2025-01-18 03:59:27.48	317.09	12.70	
2025-01-18 03:59:27.68	317.04	12.70	
2025-01-18 03:59:27.89	317.00	12.70	
2025-01-18 03:59:28.09	316.95	12.69	
2025-01-18 03:59:28.29	316.91	12.69	
2025-01-18 03:59:28.50	316.86	12.69	
2025-01-18 03:59:28.70	316.82	12.69	
2025-01-18 03:59:28.90	316.77	12.69	
2025-01-18 03:59:29.11	316.72	12.68	
2025-01-18 03:59:29.31	316.68	12.68	
2025-01-18 03:59:29.51	316.63	12.68	
2025-01-18 03:59:29.72	316.59	12.68	
2025-01-18 03:59:29.92	316.54	12.67	
2025-01-18 03:59:30.12	316.50	12.67	
2025-01-18 03:59:30.32	316.45	12.67	
2025-01-18 03:59:30.53	316.41	12.67	
2025-01-18 03:59:30.73	316.36	12.66	
2025-01-18 03:59:30.93	316.32	12.66	
2025-01-18 03:59:31.14	316.27	12.66	
2025-01-18 03:59:31.34	316.22	12.66	
2025-01-18 03:59:31.54	316.18	12.65	
2025-01-18 03:59:31.75	316.13	12.65	
2025-01-18 03:59:31.95	316.09	12.65	
2025-01-18 03:59:32.15	316.04	12.65	
2025-01-18 03:59:32.36	316.00	12.64	
2025-01-18 03:59:32.56	315.95	12.64	
2025-01-18 03:59:32.76	315.91	12.64	
2025-01-18 03:59:32.96	315.86	12.64	
2025-01-18 03:59:33.17	315.82	12.63	
2025-01-18 03:59:33.37	315.77	12.63	
2025-01-18 03:59:33.57	315.73	12.63	
2025-01-18 03:59:33.78	315.68	12.62	
2025-01-18 03:59:33.98	315.63	12.62	
2025-01-18 03:59:34.18	315.59	12.62	
2025-01-18 03:59:34.39	315.54	12.62	
2025-01-18 03:59:34.59	315.50	12.61	
2025-01-18 03:59:34.79	315.45	12.61	
2025-01-18 03:59:35.00	315.41	12.61	
2025-01-18 03:59:35.20	315.36	12.60	
2025-01-18 03:59:35.40	315.32	12.60	
2025-01-18 03:59:35.60	315.27	12.60	
2025-01-18 03:59:35.81	315.23	12.60	
2025-01-18 03:59:36.01	315.18	12.59	
2025-01-18 03:59:36.21	315.14	12.59	
2025-01-18 03:59:36.42	315.09	12.59	
2025-01-18 03:59:36.62	315.05	12.58	
2025-01-18 03:59:36.82	315.00	12.58	
2025-01-18 03:59:37.03	314.96	12.58	
2025-01-18 03:59:37.23	314.91	12.58	
2025-01-18 03:59:37.43	314.87	12.57	
2025-01-18 03:59:37.64	314.82	12.57	
2025-01-18 03:59:37.84	314.78	12.57	
2025-01-18 03:59:38.04	314.73	12.56	
2025-01-18 03:59:38.24	314.69	12.56	
2025-01-18 03:59:38.45	314.64	12.56	
2025-01-18 03:59:38.65	314.60	12.55	
2025-01-18 03:59:38.85	314.55	12.55	
2025-01-18 03:59:39.06	314.50	12.55	
2025-01-18 03:59:39.26	314.46	12.54	
2025-01-18 03:59:39.46	314.42	12.54	
2025-01-18 03:59:39.67	314.37	12.54	
2025-01-18 03:59:39.87	314.32	12.54	
2025-01-18 03:59:40.07	314.28	12.53	
2025-01-18 03:59:40.28	314.23	12.53	
2025-01-18 03:59:40.48	314.19	12.53	
2025-01-18 03:59:40.68	314.15	12.52	
2025-01-18 03:59:40.88	314.10	12.52	
2025-01-18 03:59:41.09	314.05	12.52	
2025-01-18 03:59:41.29	314.01	12.51	
2025-01-18 03:59:41.49	313.97	12.51	
2025-01-18 03:59:41.70	313.92	12.51	
2025-01-18 03:59:41.90	313.88	12.50	
2025-01-18 03:59:42.10	313.83	12.50	
2025-01-18 03:59:42.31	313.78	12.50	
2025-01-18 03:59:42.51	313.74	12.49	
2025-01-18 03:59:42.71	313.70	12.49	
2025-01-18 03:59:42.92	313.65	12.48	
2025-01-18 03:59:43.12	313.61	12.48	
2025-01-18 03:59:43.32	313.56	12.48	
2025-01-18 03:59:43.52	313.52	12.47	
2025-01-18 03:59:43.73	313.47	12.47	
2025-01-18 03:59:43.93	313.43	12.47	
2025-01-18 03:59:44.13	313.38	12.46	
2025-01-18 03:59:44.34	313.34	12.46	
2025-01-18 03:59:44.54	313.29	12.46	
2025-01-18 03:59:44.74	313.25	12.45	
2025-01-18 03:59:44.95	313.20	12.45	
2025-01-18 03:59:45.15	313.16	12.45	
2025-01-18 03:59:45.35	313.11	12.44	
2025-01-18 03:59:45.56	313.07	12.44	
2025-01-18 03:59:45.76	313.02	12.44	
2025-01-18 03:59:45.96	312.98	12.43	
2025-01-18 03:59:46.16	312.94	12.43	
2025-01-18 03:59:46.37	312.89	12.42	
2025-01-18 03:59:46.57	312.85	12.42	
2025-01-18 03:59:46.77	312.80	12.42	
2025-01-18 03:59:46.98	312.76	12.41	
2025-01-18 03:59:47.18	312.71	12.41	
2025-01-18 03:59:47.38	312.67	12.41	
2025-01-18 03:59:47.59	312.62	12.40	
2025-01-18 03:59:47.79	312.58	12.40	
2025-01-18 03:59:47.99	312.53	12.39	
2025-01-18 03:59:48.20	312.49	12.39	
2025-01-18 03:59:48.40	312.44	12.39	
2025-01-18 03:59:48.60	312.40	12.38	
2025-01-18 03:59:48.81	312.35	12.38	
2025-01-18 03:59:49.01	312.31	12.37	
2025-01-18 03:59:49.21	312.27	12.37	
2025-01-18 03:59:49.41	312.22	12.37	
2025-01-18 03:59:49.62	312.18	12.36	
2025-01-18 03:59:49.82	312.13	12.36	
2025-01-18 03:59:50.02	312.09	12.35	
2025-01-18 03:59:50.23	312.04	12.35	
2025-01-18 03:59:50.43	312.00	12.35	
2025-01-18 03:59:50.63	311.96	12.34	
2025-01-18 03:59:50.84	311.91	12.34	
2025-01-18 03:59:51.04	311.87	12.33	
2025-01-18 03:59:51.24	311.82	12.33	
2025-01-18 03:59:51.45	311.78	12.33	
2025-01-18 03:59:51.65	311.73	12.32	
2025-01-18 03:59:51.85	311.69	12.32	
2025-01-18 03:59:52.05	311.65	12.31	
2025-01-18 03:59:52.26	311.60	12.31	
2025-01-18 03:59:52.46	311.56	12.31	
2025-01-18 03:59:52.66	311.51	12.30	
2025-01-18 03:59:52.87	311.47	12.30	
2025-01-18 03:59:53.07	311.42	12.29	
2025-01-18 03:59:53.27	311.38	12.29	
2025-01-18 03:59:53.48	311.33	12.28	
2025-01-18 03:59:53.68	311.29	12.28	
2025-01-18 03:59:53.88	311.25	12.28	
2025-01-18 03:59:54.09	311.20	12.27	
2025-01-18 03:59:54.29	311.16	12.27	
2025-01-18 03:59:54.49	311.11	12.26	
2025-01-18 03:59:54.69	311.07	12.26	
2025-01-18 03:59:54.90	311.02	12.25	
2025-01-18 03:59:55.10	310.98	12.25	
2025-01-18 03:59:55.30	310.94	12.25	
2025-01-18 03:59:55.51	310.89	12.24	
2025-01-18 03:59:55.71	310.85	12.24	
2025-01-18 03:59:55.91	310.81	12.23	
2025-01-18 03:59:56.12	310.76	12.23	
2025-01-18 03:59:56.32	310.72	12.22	
2025-01-18 03:59:56.52	310.67	12.22	
2025-01-18 03:59:56.73	310.63	12.21	
2025-01-18 03:59:56.93	310.58	12.21	
2025-01-18 03:59:57.13	310.54	12.21	
2025-01-18 03:59:57.33	310.50	12.20	
2025-01-18 03:59:57.54	310.45	12.20	
2025-01-18 03:59:57.74	310.41	12.19	
2025-01-18 03:59:57.94	310.37	12.19	
2025-01-18 03:59:58.15	310.32	12.18	
2025-01-18 03:59:58.35	310.28	12.18	
2025-01-18 03:59:58.55	310.23	12.17	
2025-01-18 03:59:58.76	310.19	12.17	
2025-01-18 03:59:58.96	310.15	12.16	
2025-01-18 03:59:59.16	310.10	12.16	
2025-01-18 03:59:59.37	310.06	12.15	
2025-01-18 03:59:59.57	310.01	12.15	
2025-01-18 03:59:59.77	309.97	12.15	
2025-01-18 03:59:59.97	309.93	12.14	
2025-01-18 04:00:00.18	309.88	12.14	
2025-01-18 04:00:00.38	309.84	12.13	
2025-01-18 04:00:00.58	309.80	12.13	
2025-01-18 04:00:00.79	309.75	12.12	
2025-01-18 04:00:00.99	309.71	12.12	
2025-01-18 04:00:01.19	309.67	12.11	
2025-01-18 04:00:01.40	309.62	12.11	
2025-01-18 04:00:01.60	309.58	12.10	
2025-01-18 04:00:01.80	309.53	12.10	
2025-01-18 04:00:02.01	309.49	12.09	
2025-01-18 04:00:02.21	309.45	12.09	
2025-01-18 04:00:02.41	309.40	12.08	
2025-01-18 04:00:02.61	309.36	12.08	
2025-01-18 04:00:02.82	309.32	12.07	
2025-01-18 04:00:03.02	309.27	12.07	
2025-01-18 04:00:03.22	309.23	12.06	
2025-01-18 04:00:03.43	309.19	12.06	
2025-01-18 04:00:03.63	309.14	12.05	
2025-01-18 04:00:03.83	309.10	12.05	
2025-01-18 04:00:04.04	309.05	12.04	
2025-01-18 04:00:04.24	309.01	12.04	
2025-01-18 04:00:04.44	308.97	12.03	
2025-01-18 04:00:04.65	308.92	12.03	
2025-01-18 04:00:04.85	308.88	12.02	
2025-01-18 04:00:05.05	308.84	12.02	
2025-01-18 04:00:05.25	308.80	12.01	
2025-01-18 04:00:05.46	308.75	12.01	
2025-01-18 04:00:05.66	308.71	12.00	
2025-01-18 04:00:05.86	308.67	12.00	
2025-01-18 04:00:06.07	308.62	11.99	
2025-01-18 04:00:06.27	308.58	11.99	
2025-01-18 04:00:06.47	308.54	11.98	
2025-01-18 04:00:06.68	308.49	11.98	
2025-01-18 04:00:06.88	308.45	11.97	
2025-01-18 04:00:07.08	308.41	11.97	
2025-01-18 04:00:07.29	308.36	11.96	
2025-01-18 04:00:07.49	308.32	11.96	
2025-01-18 04:00:07.69	308.28	11.95	
2025-01-18 04:00:07.89	308.23	11.95	
2025-01-18 04:00:08.10	308.19	11.94	
2025-01-18 04:00:08.30	308.15	11.94	
2025-01-18 04:00:08.50	308.10	11.93	
2025-01-18 04:00:08.71	308.06	11.92	
2025-01-18 04:00:08.91	308.02	11.92	
2025-01-18 04:00:09.11	307.98	11.91	
2025-01-18 04:00:09.32	307.93	11.91	
2025-01-18 04:00:09.52	307.89	11.90	
2025-01-18 04:00:09.72	307.85	11.90	
2025-01-18 04:00:09.93	307.80	11.89	
2025-01-18 04:00:10.13	307.76	11.89	
2025-01-18 04:00:10.33	307.72	11.88	
2025-01-18 04:00:10.54	307.67	11.88	
2025-01-18 04:00:10.74	307.63	11.87	
2025-01-18 04:00:10.94	307.59	11.86	
2025-01-18 04:00:11.14	307.55	11.86	
2025-01-18 04:00:11.35	307.50	11.85	
2025-01-18 04:00:11.55	307.46	11.85	
2025-01-18 04:00:11.75	307.42	11.84	
2025-01-18 04:00:11.96	307.37	11.84	
2025-01-18 04:00:12.16	307.33	11.83	
2025-01-18 04:00:12.36	307.29	11.83	
2025-01-18 04:00:12.57	307.24	11.82	
2025-01-18 04:00:12.77	307.20	11.82	
2025-01-18 04:00:12.97	307.16	11.81	
2025-01-18 04:00:13.18	307.12	11.80	
2025-01-18 04:00:13.38	307.07	11.80	
2025-01-18 04:00:13.58	307.03	11.79	
2025-01-18 04:00:13.78	306.99	11.79	
2025-01-18 04:00:13.99	306.95	11.78	
2025-01-18 04:00:14.19	306.90	11.78	
2025-01-18 04:00:14.39	306.86	11.77	
2025-01-18 04:00:14.60	306.82	11.76	
2025-01-18 04:00:14.80	306.78	11.76	
2025-01-18 04:00:15.00	306.73	11.75	
2025-01-18 04:00:15.21	306.69	11.75	
2025-01-18 04:00:15.41	306.65	11.74	
2025-01-18 04:00:15.61	306.61	11.74	
2025-01-18 04:00:15.82	306.56	11.73	
2025-01-18 04:00:16.02	306.52	11.72	
2025-01-18 04:00:16.22	306.48	11.72	
2025-01-18 04:00:16.42	306.44	11.71	
2025-01-18 04:00:16.63	306.39	11.71	
2025-01-18 04:00:16.83	306.35	11.70	
2025-01-18 04:00:17.03	306.31	11.69	
2025-01-18 04:00:17.24	306.27	11.69	
2025-01-18 04:00:17.44	306.23	11.68	
2025-01-18 04:00:17.64	306.18	11.68	
2025-01-18 04:00:17.85	306.14	11.67	
2025-01-18 04:00:18.05	306.10	11.67	
2025-01-18 04:00:18.25	306.06	11.66	
2025-01-18 04:00:18.46	306.01	11.65	
2025-01-18 04:00:18.66	305.97	11.65	
2025-01-18 04:00:18.86	305.93	11.64	
2025-01-18 04:00:19.06	305.89	11.64	
2025-01-18 04:00:19.27	305.84	11.63	
2025-01-18 04:00:19.47	305.80	11.62	
2025-01-18 04:00:19.67	305.76	11.62	
2025-01-18 04:00:19.88	305.72	11.61	
2025-01-18 04:00:20.08	305.68	11.61	
2025-01-18 04:00:20.28	305.64	11.60	
2025-01-18 04:00:20.49	305.59	11.59	
2025-01-18 04:00:20.69	305.55	11.59	
2025-01-18 04:00:20.89	305.51	11.58	
2025-01-18 04:00:21.10	305.47	11.57	
2025-01-18 04:00:21.30	305.42	11.57	
2025-01-18 04:00:21.50	305.38	11.56	
2025-01-18 04:00:21.70	305.34	11.56	
2025-01-18 04:00:21.91	305.30	11.55	
2025-01-18 04:00:22.11	305.26	11.54	
2025-01-18 04:00:22.31	305.22	11.54	
2025-01-18 04:00:22.52	305.17	11.53	
2025-01-18 04:00:22.72	305.13	11.53	
2025-01-18 04:00:22.92	305.09	11.52	
2025-01-18 04:00:23.13	305.05	11.51	
2025-01-18 04:00:23.33	305.01	11.51	
2025-01-18 04:00:23.53	304.96	11.50	
2025-01-18 04:00:23.74	304.92	11.49	
2025-01-18 04:00:23.94	304.88	11.49	
2025-01-18 04:00:24.14	304.84	11.48	
2025-01-18 04:00:24.34	304.80	11.48	
2025-01-18 04:00:24.55	304.76	11.47	
2025-01-18 04:00:24.75	304.71	11.46	
2025-01-18 04:00:24.95	304.67	11.46	
2025-01-18 04:00:25.16	304.63	11.45	
2025-01-18 04:00:25.36	304.59	11.44	
2025-01-18 04:00:25.56	304.55	11.44	
2025-01-18 04:00:25.77	304.51	11.43	
2025-01-18 04:00:25.97	304.46	11.42	
2025-01-18 04:00:26.17	304.42	11.42	
