passes_logs/2025/01/18/SPB_Silybum_02/SPB_Silybum_02__20250118_095814_TERRA_rec.log

#Pass ID: 20250118_095814_TERRA
#Satellite: TERRA
#Configuration: TERRA
#Start time: 2025-01-18 09:58:13

#Version: 2.0.20230423
#Station: SPB_Silybum_02
#Location: 30.233357 lon 59.946436 lat
#TLE: 1 25994U 99068A   25017.80257355  .00000903  00000+0  19577-3 0  9994
#TLE: 2 25994  98.0211  80.7437 0003372  66.8373  47.3878 14.60400955334482

#Time	Az	El	Level	Level2	SNR	BER	Gain	Gain2
2025-01-18 09:58:15.37	9.94	4.04	
2025-01-18 09:58:15.57	9.92	4.05	
2025-01-18 09:58:15.77	9.91	4.07	
2025-01-18 09:58:15.98	9.89	4.08	
2025-01-18 09:58:16.18	9.87	4.09	
2025-01-18 09:58:16.38	9.86	4.10	
2025-01-18 09:58:16.58	9.84	4.12	
2025-01-18 09:58:16.79	9.83	4.13	
2025-01-18 09:58:16.99	9.81	4.14	
2025-01-18 09:58:17.19	9.80	4.16	
2025-01-18 09:58:17.40	9.78	4.17	
2025-01-18 09:58:17.60	9.76	4.18	
2025-01-18 09:58:17.80	9.75	4.19	
2025-01-18 09:58:18.01	9.73	4.21	
2025-01-18 09:58:18.21	9.72	4.22	
2025-01-18 09:58:18.41	9.70	4.23	
2025-01-18 09:58:18.61	9.68	4.25	
2025-01-18 09:58:18.82	9.67	4.26	
2025-01-18 09:58:19.02	9.65	4.27	
2025-01-18 09:58:19.22	9.64	4.28	
2025-01-18 09:58:19.43	9.62	4.30	
2025-01-18 09:58:19.63	9.60	4.31	
2025-01-18 09:58:19.83	9.59	4.32	
2025-01-18 09:58:20.04	9.57	4.34	
2025-01-18 09:58:20.24	9.56	4.35	
2025-01-18 09:58:20.44	9.54	4.36	
2025-01-18 09:58:20.64	9.52	4.38	
2025-01-18 09:58:20.85	9.51	4.39	
2025-01-18 09:58:21.05	9.49	4.40	
2025-01-18 09:58:21.25	9.48	4.41	
2025-01-18 09:58:21.46	9.46	4.43	
2025-01-18 09:58:21.66	9.44	4.44	
2025-01-18 09:58:21.86	9.43	4.45	
2025-01-18 09:58:22.06	9.41	4.47	
2025-01-18 09:58:22.27	9.39	4.48	
2025-01-18 09:58:22.47	9.38	4.49	
2025-01-18 09:58:22.67	9.36	4.50	
2025-01-18 09:58:22.88	9.35	4.52	
2025-01-18 09:58:23.08	9.33	4.53	
2025-01-18 09:58:23.28	9.31	4.54	
2025-01-18 09:58:23.49	9.30	4.56	
2025-01-18 09:58:23.69	9.28	4.57	
2025-01-18 09:58:23.89	9.26	4.58	
2025-01-18 09:58:24.09	9.25	4.60	
2025-01-18 09:58:24.30	9.23	4.61	
2025-01-18 09:58:24.50	9.22	4.62	
2025-01-18 09:58:24.70	9.20	4.63	
2025-01-18 09:58:24.91	9.18	4.65	
2025-01-18 09:58:25.11	9.17	4.66	
2025-01-18 09:58:25.31	9.15	4.67	
2025-01-18 09:58:25.52	9.13	4.69	
2025-01-18 09:58:25.72	9.12	4.70	
2025-01-18 09:58:25.92	9.10	4.71	
2025-01-18 09:58:26.12	9.08	4.73	
2025-01-18 09:58:26.33	9.07	4.74	
2025-01-18 09:58:26.53	9.05	4.75	
2025-01-18 09:58:26.73	9.03	4.77	
2025-01-18 09:58:26.94	9.02	4.78	
2025-01-18 09:58:27.14	9.00	4.79	
2025-01-18 09:58:27.34	8.98	4.80	
2025-01-18 09:58:27.55	8.97	4.82	
2025-01-18 09:58:27.75	8.95	4.83	
2025-01-18 09:58:27.95	8.93	4.84	
2025-01-18 09:58:28.15	8.92	4.86	
2025-01-18 09:58:28.36	8.90	4.87	
2025-01-18 09:58:28.56	8.88	4.88	
2025-01-18 09:58:28.76	8.87	4.90	
2025-01-18 09:58:28.97	8.85	4.91	
2025-01-18 09:58:29.17	8.83	4.92	
2025-01-18 09:58:29.37	8.82	4.94	
2025-01-18 09:58:29.58	8.80	4.95	
2025-01-18 09:58:29.78	8.78	4.96	
2025-01-18 09:58:29.98	8.77	4.98	
2025-01-18 09:58:30.18	8.75	4.99	
2025-01-18 09:58:30.39	8.73	5.00	
2025-01-18 09:58:30.59	8.71	5.01	
2025-01-18 09:58:30.79	8.70	5.03	
2025-01-18 09:58:31.00	8.68	5.04	
2025-01-18 09:58:31.20	8.66	5.05	
2025-01-18 09:58:31.40	8.65	5.07	
2025-01-18 09:58:31.61	8.63	5.08	
2025-01-18 09:58:31.81	8.61	5.09	
2025-01-18 09:58:32.01	8.60	5.11	
2025-01-18 09:58:32.21	8.58	5.12	
2025-01-18 09:58:32.42	8.56	5.13	
2025-01-18 09:58:32.62	8.54	5.15	
2025-01-18 09:58:32.82	8.53	5.16	
2025-01-18 09:58:33.03	8.51	5.17	
2025-01-18 09:58:33.23	8.49	5.19	
2025-01-18 09:58:33.43	8.48	5.20	
2025-01-18 09:58:33.64	8.46	5.21	
2025-01-18 09:58:33.84	8.44	5.23	
2025-01-18 09:58:34.04	8.42	5.24	
2025-01-18 09:58:34.24	8.41	5.25	
2025-01-18 09:58:34.45	8.39	5.27	
2025-01-18 09:58:34.65	8.37	5.28	
2025-01-18 09:58:34.85	8.36	5.29	
2025-01-18 09:58:35.06	8.34	5.31	
2025-01-18 09:58:35.26	8.32	5.32	
2025-01-18 09:58:35.46	8.30	5.33	
2025-01-18 09:58:35.67	8.29	5.35	
2025-01-18 09:58:35.87	8.27	5.36	
2025-01-18 09:58:36.07	8.25	5.37	
2025-01-18 09:58:36.27	8.23	5.39	
2025-01-18 09:58:36.48	8.22	5.40	
2025-01-18 09:58:36.68	8.20	5.41	
2025-01-18 09:58:36.88	8.18	5.43	
2025-01-18 09:58:37.09	8.16	5.44	
2025-01-18 09:58:37.29	8.15	5.45	
2025-01-18 09:58:37.49	8.13	5.47	
2025-01-18 09:58:37.69	8.11	5.48	
2025-01-18 09:58:37.90	8.09	5.49	
2025-01-18 09:58:38.10	8.08	5.51	
2025-01-18 09:58:38.30	8.06	5.52	
2025-01-18 09:58:38.51	8.04	5.53	
2025-01-18 09:58:38.71	8.02	5.55	
2025-01-18 09:58:38.91	8.01	5.56	
2025-01-18 09:58:39.12	7.99	5.57	
2025-01-18 09:58:39.32	7.97	5.59	
2025-01-18 09:58:39.52	7.95	5.60	
2025-01-18 09:58:39.72	7.94	5.61	
2025-01-18 09:58:39.93	7.92	5.63	
2025-01-18 09:58:40.13	7.90	5.64	
2025-01-18 09:58:40.33	7.88	5.65	
2025-01-18 09:58:40.54	7.86	5.67	
2025-01-18 09:58:40.74	7.85	5.68	
2025-01-18 09:58:40.94	7.83	5.69	
2025-01-18 09:58:41.15	7.81	5.71	
2025-01-18 09:58:41.35	7.79	5.72	
2025-01-18 09:58:41.55	7.77	5.73	
2025-01-18 09:58:41.75	7.76	5.75	
2025-01-18 09:58:41.96	7.74	5.76	
2025-01-18 09:58:42.16	7.72	5.77	
2025-01-18 09:58:42.36	7.70	5.79	
2025-01-18 09:58:42.57	7.68	5.80	
2025-01-18 09:58:42.77	7.67	5.81	
2025-01-18 09:58:42.97	7.65	5.83	
2025-01-18 09:58:43.18	7.63	5.84	
2025-01-18 09:58:43.38	7.61	5.85	
2025-01-18 09:58:43.58	7.59	5.87	
2025-01-18 09:58:43.78	7.58	5.88	
2025-01-18 09:58:43.99	7.56	5.90	
2025-01-18 09:58:44.19	7.54	5.91	
2025-01-18 09:58:44.39	7.52	5.92	
2025-01-18 09:58:44.60	7.50	5.94	
2025-01-18 09:58:44.80	7.49	5.95	
2025-01-18 09:58:45.00	7.47	5.96	
2025-01-18 09:58:45.21	7.45	5.98	
2025-01-18 09:58:45.41	7.43	5.99	
2025-01-18 09:58:45.61	7.41	6.00	
2025-01-18 09:58:45.81	7.39	6.02	
2025-01-18 09:58:46.02	7.38	6.03	
2025-01-18 09:58:46.22	7.36	6.04	
2025-01-18 09:58:46.42	7.34	6.06	
2025-01-18 09:58:46.63	7.32	6.07	
2025-01-18 09:58:46.83	7.30	6.08	
2025-01-18 09:58:47.03	7.28	6.10	
2025-01-18 09:58:47.24	7.26	6.11	
2025-01-18 09:58:47.44	7.25	6.13	
2025-01-18 09:58:47.64	7.23	6.14	
2025-01-18 09:58:47.84	7.21	6.15	
2025-01-18 09:58:48.05	7.19	6.17	
2025-01-18 09:58:48.25	7.17	6.18	
2025-01-18 09:58:48.45	7.15	6.19	
2025-01-18 09:58:48.66	7.14	6.21	
2025-01-18 09:58:48.86	7.12	6.22	
2025-01-18 09:58:49.06	7.10	6.23	
2025-01-18 09:58:49.27	7.08	6.25	
2025-01-18 09:58:49.47	7.06	6.26	
2025-01-18 09:58:49.67	7.04	6.28	
2025-01-18 09:58:49.87	7.02	6.29	
2025-01-18 09:58:50.08	7.00	6.30	
2025-01-18 09:58:50.28	6.99	6.32	
2025-01-18 09:58:50.48	6.97	6.33	
2025-01-18 09:58:50.69	6.95	6.34	
2025-01-18 09:58:50.89	6.93	6.36	
2025-01-18 09:58:51.09	6.91	6.37	
2025-01-18 09:58:51.30	6.89	6.39	
2025-01-18 09:58:51.50	6.87	6.40	
2025-01-18 09:58:51.70	6.85	6.41	
2025-01-18 09:58:51.90	6.84	6.43	
2025-01-18 09:58:52.11	6.82	6.44	
2025-01-18 09:58:52.31	6.80	6.45	
2025-01-18 09:58:52.51	6.78	6.47	
2025-01-18 09:58:52.72	6.76	6.48	
2025-01-18 09:58:52.92	6.74	6.49	
2025-01-18 09:58:53.12	6.72	6.51	
2025-01-18 09:58:53.32	6.70	6.52	
2025-01-18 09:58:53.53	6.68	6.54	
2025-01-18 09:58:53.73	6.66	6.55	
2025-01-18 09:58:53.93	6.65	6.56	
2025-01-18 09:58:54.14	6.63	6.58	
2025-01-18 09:58:54.34	6.61	6.59	
2025-01-18 09:58:54.54	6.59	6.60	
2025-01-18 09:58:54.75	6.57	6.62	
2025-01-18 09:58:54.95	6.55	6.63	
2025-01-18 09:58:55.15	6.53	6.65	
2025-01-18 09:58:55.35	6.51	6.66	
2025-01-18 09:58:55.56	6.49	6.67	
2025-01-18 09:58:55.76	6.47	6.69	
2025-01-18 09:58:55.96	6.45	6.70	
2025-01-18 09:58:56.17	6.43	6.72	
2025-01-18 09:58:56.37	6.41	6.73	
2025-01-18 09:58:56.57	6.40	6.74	
2025-01-18 09:58:56.78	6.38	6.76	
2025-01-18 09:58:56.98	6.36	6.77	
2025-01-18 09:58:57.18	6.34	6.78	
2025-01-18 09:58:57.38	6.32	6.80	
2025-01-18 09:58:57.59	6.30	6.81	
2025-01-18 09:58:57.79	6.28	6.83	
2025-01-18 09:58:57.99	6.26	6.84	
2025-01-18 09:58:58.20	6.24	6.85	
2025-01-18 09:58:58.40	6.22	6.87	
2025-01-18 09:58:58.60	6.20	6.88	
2025-01-18 09:58:58.81	6.18	6.90	
2025-01-18 09:58:59.01	6.16	6.91	
2025-01-18 09:58:59.21	6.14	6.92	
2025-01-18 09:58:59.41	6.12	6.94	
2025-01-18 09:58:59.62	6.10	6.95	
2025-01-18 09:58:59.82	6.08	6.96	
2025-01-18 09:59:00.02	6.06	6.98	
2025-01-18 09:59:00.23	6.04	6.99	
2025-01-18 09:59:00.43	6.02	7.01	
2025-01-18 09:59:00.63	6.00	7.02	
2025-01-18 09:59:00.84	5.98	7.03	
2025-01-18 09:59:01.04	5.96	7.05	
2025-01-18 09:59:01.24	5.94	7.06	
2025-01-18 09:59:01.44	5.93	7.08	
2025-01-18 09:59:01.65	5.90	7.09	
2025-01-18 09:59:01.85	5.88	7.10	
2025-01-18 09:59:02.05	5.87	7.12	
2025-01-18 09:59:02.26	5.84	7.13	
2025-01-18 09:59:02.46	5.82	7.15	
2025-01-18 09:59:02.66	5.81	7.16	
2025-01-18 09:59:02.87	5.78	7.17	
2025-01-18 09:59:03.07	5.76	7.19	
2025-01-18 09:59:03.27	5.75	7.20	
2025-01-18 09:59:03.47	5.73	7.22	
2025-01-18 09:59:03.68	5.70	7.23	
2025-01-18 09:59:03.88	5.68	7.24	
2025-01-18 09:59:04.08	5.66	7.26	
2025-01-18 09:59:04.29	5.64	7.27	
2025-01-18 09:59:04.49	5.62	7.29	
2025-01-18 09:59:04.69	5.60	7.30	
2025-01-18 09:59:04.90	5.58	7.31	
2025-01-18 09:59:05.10	5.56	7.33	
2025-01-18 09:59:05.30	5.54	7.34	
2025-01-18 09:59:05.50	5.52	7.36	
2025-01-18 09:59:05.71	5.50	7.37	
2025-01-18 09:59:05.91	5.48	7.38	
2025-01-18 09:59:06.11	5.46	7.40	
2025-01-18 09:59:06.32	5.44	7.41	
2025-01-18 09:59:06.52	5.42	7.43	
2025-01-18 09:59:06.72	5.40	7.44	
2025-01-18 09:59:06.93	5.38	7.46	
2025-01-18 09:59:07.13	5.36	7.47	
2025-01-18 09:59:07.33	5.34	7.48	
2025-01-18 09:59:07.53	5.32	7.50	
2025-01-18 09:59:07.74	5.30	7.51	
2025-01-18 09:59:07.94	5.28	7.53	
2025-01-18 09:59:08.14	5.26	7.54	
2025-01-18 09:59:08.35	5.24	7.55	
2025-01-18 09:59:08.55	5.22	7.57	
2025-01-18 09:59:08.75	5.20	7.58	
2025-01-18 09:59:08.95	5.17	7.60	
2025-01-18 09:59:09.16	5.15	7.61	
2025-01-18 09:59:09.36	5.13	7.62	
2025-01-18 09:59:09.56	5.11	7.64	
2025-01-18 09:59:09.77	5.09	7.65	
2025-01-18 09:59:09.97	5.07	7.67	
2025-01-18 09:59:10.17	5.05	7.68	
2025-01-18 09:59:10.38	5.03	7.70	
2025-01-18 09:59:10.58	5.01	7.71	
2025-01-18 09:59:10.78	4.99	7.72	
2025-01-18 09:59:10.98	4.97	7.74	
2025-01-18 09:59:11.19	4.95	7.75	
2025-01-18 09:59:11.39	4.92	7.77	
2025-01-18 09:59:11.59	4.90	7.78	
2025-01-18 09:59:11.80	4.88	7.79	
2025-01-18 09:59:12.00	4.86	7.81	
2025-01-18 09:59:12.20	4.84	7.82	
2025-01-18 09:59:12.41	4.82	7.84	
2025-01-18 09:59:12.61	4.80	7.85	
2025-01-18 09:59:12.81	4.78	7.87	
2025-01-18 09:59:13.01	4.76	7.88	
2025-01-18 09:59:13.22	4.73	7.89	
2025-01-18 09:59:13.42	4.71	7.91	
2025-01-18 09:59:13.62	4.69	7.92	
2025-01-18 09:59:13.83	4.67	7.94	
2025-01-18 09:59:14.03	4.65	7.95	
2025-01-18 09:59:14.23	4.63	7.97	
2025-01-18 09:59:14.44	4.61	7.98	
2025-01-18 09:59:14.64	4.59	7.99	
2025-01-18 09:59:14.84	4.56	8.01	
2025-01-18 09:59:15.04	4.54	8.02	
2025-01-18 09:59:15.25	4.52	8.04	
2025-01-18 09:59:15.45	4.50	8.05	
2025-01-18 09:59:15.65	4.48	8.07	
2025-01-18 09:59:15.86	4.46	8.08	
2025-01-18 09:59:16.06	4.44	8.09	
2025-01-18 09:59:16.26	4.41	8.11	
2025-01-18 09:59:16.47	4.39	8.12	
2025-01-18 09:59:16.67	4.37	8.14	
2025-01-18 09:59:16.87	4.35	8.15	
2025-01-18 09:59:17.07	4.33	8.17	
2025-01-18 09:59:17.28	4.31	8.18	
2025-01-18 09:59:17.48	4.28	8.20	
2025-01-18 09:59:17.68	4.26	8.21	
2025-01-18 09:59:17.89	4.24	8.22	
2025-01-18 09:59:18.09	4.22	8.24	
2025-01-18 09:59:18.29	4.20	8.25	
2025-01-18 09:59:18.50	4.18	8.27	
2025-01-18 09:59:18.70	4.15	8.28	
2025-01-18 09:59:18.90	4.13	8.30	
2025-01-18 09:59:19.10	4.11	8.31	
2025-01-18 09:59:19.31	4.09	8.32	
2025-01-18 09:59:19.51	4.07	8.34	
2025-01-18 09:59:19.71	4.05	8.35	
2025-01-18 09:59:19.92	4.02	8.37	
2025-01-18 09:59:20.12	4.00	8.38	
2025-01-18 09:59:20.32	3.98	8.40	
2025-01-18 09:59:20.53	3.96	8.41	
2025-01-18 09:59:20.73	3.93	8.43	
2025-01-18 09:59:20.93	3.91	8.44	
2025-01-18 09:59:21.13	3.89	8.45	
2025-01-18 09:59:21.34	3.87	8.47	
2025-01-18 09:59:21.54	3.85	8.48	
2025-01-18 09:59:21.74	3.82	8.50	
2025-01-18 09:59:21.95	3.80	8.51	
2025-01-18 09:59:22.15	3.78	8.53	
2025-01-18 09:59:22.35	3.76	8.54	
2025-01-18 09:59:22.55	3.74	8.56	
2025-01-18 09:59:22.76	3.71	8.57	
2025-01-18 09:59:22.96	3.69	8.59	
2025-01-18 09:59:23.16	3.67	8.60	
2025-01-18 09:59:23.37	3.65	8.61	
2025-01-18 09:59:23.57	3.62	8.63	
2025-01-18 09:59:23.77	3.60	8.64	
2025-01-18 09:59:23.98	3.58	8.66	
2025-01-18 09:59:24.18	3.56	8.67	
2025-01-18 09:59:24.38	3.53	8.69	
2025-01-18 09:59:24.58	3.51	8.70	
2025-01-18 09:59:24.79	3.49	8.72	
2025-01-18 09:59:24.99	3.47	8.73	
2025-01-18 09:59:25.19	3.44	8.75	
2025-01-18 09:59:25.40	3.42	8.76	
2025-01-18 09:59:25.60	3.40	8.77	
2025-01-18 09:59:25.80	3.38	8.79	
2025-01-18 09:59:26.01	3.35	8.80	
2025-01-18 09:59:26.21	3.33	8.82	
2025-01-18 09:59:26.41	3.31	8.83	
2025-01-18 09:59:26.61	3.29	8.85	
2025-01-18 09:59:26.82	3.26	8.86	
2025-01-18 09:59:27.02	3.24	8.88	
2025-01-18 09:59:27.22	3.22	8.89	
2025-01-18 09:59:27.43	3.19	8.91	
2025-01-18 09:59:27.63	3.17	8.92	
2025-01-18 09:59:27.83	3.15	8.94	
2025-01-18 09:59:28.04	3.12	8.95	
2025-01-18 09:59:28.24	3.10	8.96	
2025-01-18 09:59:28.44	3.08	8.98	
2025-01-18 09:59:28.64	3.06	8.99	
2025-01-18 09:59:28.85	3.03	9.01	
2025-01-18 09:59:29.05	3.01	9.02	
2025-01-18 09:59:29.25	2.99	9.04	
2025-01-18 09:59:29.46	2.96	9.05	
2025-01-18 09:59:29.66	2.94	9.07	
2025-01-18 09:59:29.86	2.92	9.08	
2025-01-18 09:59:30.07	2.89	9.10	
2025-01-18 09:59:30.27	2.87	9.11	
2025-01-18 09:59:30.47	2.85	9.13	
2025-01-18 09:59:30.67	2.82	9.14	
2025-01-18 09:59:30.88	2.80	9.16	
2025-01-18 09:59:31.08	2.78	9.17	
2025-01-18 09:59:31.28	2.75	9.18	
2025-01-18 09:59:31.49	2.73	9.20	
2025-01-18 09:59:31.69	2.71	9.21	
2025-01-18 09:59:31.89	2.68	9.23	
2025-01-18 09:59:32.10	2.66	9.24	
2025-01-18 09:59:32.30	2.64	9.26	
2025-01-18 09:59:32.50	2.61	9.27	
2025-01-18 09:59:32.70	2.59	9.29	
2025-01-18 09:59:32.91	2.57	9.30	
2025-01-18 09:59:33.11	2.54	9.32	
2025-01-18 09:59:33.31	2.52	9.33	
2025-01-18 09:59:33.52	2.49	9.35	
2025-01-18 09:59:33.72	2.47	9.36	
2025-01-18 09:59:33.92	2.45	9.38	
2025-01-18 09:59:34.13	2.42	9.39	
2025-01-18 09:59:34.33	2.40	9.41	
2025-01-18 09:59:34.53	2.38	9.42	
2025-01-18 09:59:34.73	2.35	9.44	
2025-01-18 09:59:34.94	2.33	9.45	
2025-01-18 09:59:35.14	2.31	9.47	
2025-01-18 09:59:35.34	2.28	9.48	
2025-01-18 09:59:35.55	2.26	9.50	
2025-01-18 09:59:35.75	2.23	9.51	
2025-01-18 09:59:35.95	2.21	9.53	
2025-01-18 09:59:36.15	2.19	9.54	
2025-01-18 09:59:36.36	2.16	9.56	
2025-01-18 09:59:36.56	2.14	9.57	
2025-01-18 09:59:36.76	2.11	9.58	
2025-01-18 09:59:36.97	2.09	9.60	
2025-01-18 09:59:37.17	2.06	9.61	
2025-01-18 09:59:37.37	2.04	9.63	
2025-01-18 09:59:37.58	2.02	9.64	
2025-01-18 09:59:37.78	1.99	9.66	
2025-01-18 09:59:37.98	1.97	9.67	
2025-01-18 09:59:38.18	1.94	9.69	
2025-01-18 09:59:38.39	1.92	9.70	
2025-01-18 09:59:38.59	1.90	9.72	
2025-01-18 09:59:38.79	1.87	9.73	
2025-01-18 09:59:39.00	1.85	9.75	
2025-01-18 09:59:39.20	1.82	9.76	
2025-01-18 09:59:39.40	1.80	9.78	
2025-01-18 09:59:39.61	1.77	9.79	
2025-01-18 09:59:39.81	1.75	9.81	
2025-01-18 09:59:40.01	1.72	9.82	
2025-01-18 09:59:40.21	1.70	9.84	
2025-01-18 09:59:40.42	1.67	9.85	
2025-01-18 09:59:40.62	1.65	9.87	
2025-01-18 09:59:40.82	1.63	9.88	
2025-01-18 09:59:41.03	1.60	9.90	
2025-01-18 09:59:41.23	1.58	9.91	
2025-01-18 09:59:41.43	1.55	9.93	
2025-01-18 09:59:41.64	1.53	9.94	
2025-01-18 09:59:41.84	1.50	9.96	
2025-01-18 09:59:42.04	1.48	9.97	
2025-01-18 09:59:42.24	1.45	9.99	
2025-01-18 09:59:42.45	1.43	10.00	
2025-01-18 09:59:42.65	1.40	10.02	
2025-01-18 09:59:42.85	1.38	10.03	
2025-01-18 09:59:43.06	1.35	10.05	
2025-01-18 09:59:43.26	1.33	10.06	
2025-01-18 09:59:43.46	1.30	10.08	
2025-01-18 09:59:43.67	1.28	10.09	
2025-01-18 09:59:43.87	1.25	10.11	
2025-01-18 09:59:44.07	1.23	10.12	
2025-01-18 09:59:44.27	1.20	10.14	
2025-01-18 09:59:44.48	1.18	10.15	
2025-01-18 09:59:44.68	1.15	10.17	
2025-01-18 09:59:44.88	1.13	10.18	
2025-01-18 09:59:45.09	1.10	10.20	
2025-01-18 09:59:45.29	1.08	10.21	
2025-01-18 09:59:45.49	1.05	10.23	
2025-01-18 09:59:45.70	1.03	10.25	
2025-01-18 09:59:45.90	1.00	10.26	
2025-01-18 09:59:46.10	0.98	10.28	
2025-01-18 09:59:46.30	0.95	10.29	
2025-01-18 09:59:46.51	0.92	10.31	
2025-01-18 09:59:46.71	0.90	10.32	
2025-01-18 09:59:46.91	0.87	10.34	
2025-01-18 09:59:47.12	0.85	10.35	
2025-01-18 09:59:47.32	0.82	10.37	
2025-01-18 09:59:47.52	0.80	10.38	
2025-01-18 09:59:47.73	0.77	10.40	
2025-01-18 09:59:47.93	0.75	10.41	
2025-01-18 09:59:48.13	0.72	10.43	
2025-01-18 09:59:48.33	0.69	10.44	
2025-01-18 09:59:48.54	0.67	10.46	
2025-01-18 09:59:48.74	0.64	10.47	
2025-01-18 09:59:48.94	0.62	10.49	
2025-01-18 09:59:49.15	0.59	10.50	
2025-01-18 09:59:49.35	0.56	10.52	
2025-01-18 09:59:49.55	0.54	10.53	
2025-01-18 09:59:49.76	0.51	10.55	
2025-01-18 09:59:49.96	0.49	10.56	
2025-01-18 09:59:50.16	0.46	10.58	
2025-01-18 09:59:50.36	0.44	10.59	
2025-01-18 09:59:50.57	0.41	10.61	
2025-01-18 09:59:50.77	0.38	10.62	
2025-01-18 09:59:50.97	0.36	10.64	
2025-01-18 09:59:51.18	0.33	10.65	
2025-01-18 09:59:51.38	0.30	10.67	
2025-01-18 09:59:51.58	0.28	10.69	
2025-01-18 09:59:51.79	0.25	10.70	
2025-01-18 09:59:51.99	0.23	10.72	
2025-01-18 09:59:52.19	0.20	10.73	
2025-01-18 09:59:52.39	0.17	10.75	
2025-01-18 09:59:52.60	0.15	10.76	
2025-01-18 09:59:52.80	0.12	10.78	
2025-01-18 09:59:53.00	0.09	10.79	
2025-01-18 09:59:53.21	0.07	10.81	
2025-01-18 09:59:53.41	0.04	10.82	
2025-01-18 09:59:53.61	0.02	10.84	
2025-01-18 09:59:53.81	359.99	10.85	
2025-01-18 09:59:54.02	359.96	10.87	
2025-01-18 09:59:54.22	359.94	10.88	
2025-01-18 09:59:54.42	359.91	10.90	
2025-01-18 09:59:54.63	359.88	10.91	
2025-01-18 09:59:54.83	359.86	10.93	
2025-01-18 09:59:55.03	359.83	10.94	
2025-01-18 09:59:55.24	359.80	10.96	
2025-01-18 09:59:55.44	359.78	10.98	
2025-01-18 09:59:55.64	359.75	10.99	
2025-01-18 09:59:55.84	359.72	11.01	
2025-01-18 09:59:56.05	359.69	11.02	
2025-01-18 09:59:56.25	359.67	11.04	
2025-01-18 09:59:56.45	359.64	11.05	
2025-01-18 09:59:56.66	359.61	11.07	
2025-01-18 09:59:56.86	359.59	11.08	
2025-01-18 09:59:57.06	359.56	11.10	
2025-01-18 09:59:57.27	359.53	11.11	
2025-01-18 09:59:57.47	359.51	11.13	
2025-01-18 09:59:57.67	359.48	11.14	
2025-01-18 09:59:57.87	359.45	11.16	
2025-01-18 09:59:58.08	359.42	11.18	
2025-01-18 09:59:58.28	359.40	11.19	
2025-01-18 09:59:58.48	359.37	11.21	
2025-01-18 09:59:58.69	359.34	11.22	
2025-01-18 09:59:58.89	359.32	11.24	
2025-01-18 09:59:59.09	359.29	11.25	
2025-01-18 09:59:59.30	359.26	11.27	
2025-01-18 09:59:59.50	359.23	11.28	
2025-01-18 09:59:59.70	359.21	11.30	
2025-01-18 09:59:59.90	359.18	11.31	
2025-01-18 10:00:00.11	359.15	11.33	
2025-01-18 10:00:00.31	359.12	11.35	
2025-01-18 10:00:00.51	359.10	11.36	
2025-01-18 10:00:00.72	359.07	11.38	
2025-01-18 10:00:00.92	359.04	11.39	
2025-01-18 10:00:01.12	359.01	11.41	
2025-01-18 10:00:01.33	358.98	11.42	
2025-01-18 10:00:01.53	358.96	11.44	
2025-01-18 10:00:01.73	358.93	11.45	
2025-01-18 10:00:01.93	358.90	11.47	
2025-01-18 10:00:02.14	358.87	11.49	
2025-01-18 10:00:02.34	358.85	11.50	
2025-01-18 10:00:02.54	358.82	11.52	
2025-01-18 10:00:02.75	358.79	11.53	
2025-01-18 10:00:02.95	358.76	11.55	
2025-01-18 10:00:03.15	358.74	11.56	
2025-01-18 10:00:03.36	358.71	11.58	
2025-01-18 10:00:03.56	358.68	11.59	
2025-01-18 10:00:03.76	358.65	11.61	
2025-01-18 10:00:03.96	358.62	11.62	
2025-01-18 10:00:04.17	358.59	11.64	
2025-01-18 10:00:04.37	358.57	11.66	
2025-01-18 10:00:04.57	358.54	11.67	
2025-01-18 10:00:04.78	358.51	11.69	
2025-01-18 10:00:04.98	358.48	11.70	
2025-01-18 10:00:05.18	358.45	11.72	
2025-01-18 10:00:05.39	358.42	11.73	
2025-01-18 10:00:05.59	358.40	11.75	
2025-01-18 10:00:05.79	358.37	11.76	
2025-01-18 10:00:05.99	358.34	11.78	
2025-01-18 10:00:06.20	358.31	11.80	
2025-01-18 10:00:06.40	358.28	11.81	
2025-01-18 10:00:06.60	358.25	11.83	
2025-01-18 10:00:06.81	358.23	11.84	
2025-01-18 10:00:07.01	358.20	11.86	
2025-01-18 10:00:07.21	358.17	11.87	
2025-01-18 10:00:07.41	358.14	11.89	
2025-01-18 10:00:07.62	358.11	11.91	
2025-01-18 10:00:07.82	358.08	11.92	
2025-01-18 10:00:08.02	358.05	11.94	
2025-01-18 10:00:08.23	358.02	11.95	
2025-01-18 10:00:08.43	358.00	11.97	
2025-01-18 10:00:08.63	357.97	11.98	
2025-01-18 10:00:08.84	357.94	12.00	
2025-01-18 10:00:09.04	357.91	12.01	
2025-01-18 10:00:09.24	357.88	12.03	
2025-01-18 10:00:09.44	357.85	12.05	
2025-01-18 10:00:09.65	357.82	12.06	
2025-01-18 10:00:09.85	357.79	12.08	
2025-01-18 10:00:10.05	357.76	12.09	
2025-01-18 10:00:10.26	357.73	12.11	
2025-01-18 10:00:10.46	357.71	12.12	
2025-01-18 10:00:10.66	357.68	12.14	
2025-01-18 10:00:10.87	357.65	12.16	
2025-01-18 10:00:11.07	357.62	12.17	
2025-01-18 10:00:11.27	357.59	12.19	
2025-01-18 10:00:11.47	357.56	12.20	
2025-01-18 10:00:11.68	357.53	12.22	
2025-01-18 10:00:11.88	357.50	12.23	
2025-01-18 10:00:12.08	357.47	12.25	
2025-01-18 10:00:12.29	357.44	12.27	
2025-01-18 10:00:12.49	357.41	12.28	
2025-01-18 10:00:12.69	357.38	12.30	
2025-01-18 10:00:12.90	357.35	12.31	
2025-01-18 10:00:13.10	357.32	12.33	
2025-01-18 10:00:13.30	357.29	12.34	
2025-01-18 10:00:13.50	357.26	12.36	
2025-01-18 10:00:13.71	357.23	12.38	
2025-01-18 10:00:13.91	357.20	12.39	
2025-01-18 10:00:14.11	357.18	12.41	
2025-01-18 10:00:14.32	357.14	12.42	
2025-01-18 10:00:14.52	357.11	12.44	
2025-01-18 10:00:14.72	357.09	12.45	
2025-01-18 10:00:14.93	357.05	12.47	
2025-01-18 10:00:15.13	357.02	12.49	
2025-01-18 10:00:15.33	357.00	12.50	
2025-01-18 10:00:15.53	356.97	12.52	
2025-01-18 10:00:15.74	356.93	12.53	
2025-01-18 10:00:15.94	356.91	12.55	
2025-01-18 10:00:16.14	356.88	12.56	
2025-01-18 10:00:16.35	356.84	12.58	
2025-01-18 10:00:16.55	356.81	12.60	
2025-01-18 10:00:16.75	356.78	12.61	
2025-01-18 10:00:16.96	356.75	12.63	
2025-01-18 10:00:17.16	356.72	12.64	
2025-01-18 10:00:17.36	356.69	12.66	
2025-01-18 10:00:17.56	356.66	12.68	
2025-01-18 10:00:17.77	356.63	12.69	
2025-01-18 10:00:17.97	356.60	12.71	
2025-01-18 10:00:18.17	356.57	12.72	
2025-01-18 10:00:18.38	356.54	12.74	
2025-01-18 10:00:18.58	356.51	12.75	
2025-01-18 10:00:18.78	356.48	12.77	
2025-01-18 10:00:18.99	356.45	12.79	
2025-01-18 10:00:19.19	356.42	12.80	
2025-01-18 10:00:19.39	356.39	12.82	
2025-01-18 10:00:19.59	356.36	12.83	
2025-01-18 10:00:19.80	356.33	12.85	
2025-01-18 10:00:20.00	356.30	12.87	
2025-01-18 10:00:20.20	356.26	12.88	
2025-01-18 10:00:20.41	356.23	12.90	
2025-01-18 10:00:20.61	356.20	12.91	
2025-01-18 10:00:20.81	356.17	12.93	
2025-01-18 10:00:21.02	356.14	12.95	
2025-01-18 10:00:21.22	356.11	12.96	
2025-01-18 10:00:21.42	356.08	12.98	
2025-01-18 10:00:21.62	356.05	12.99	
2025-01-18 10:00:21.83	356.02	13.01	
2025-01-18 10:00:22.03	355.98	13.02	
2025-01-18 10:00:22.23	355.95	13.04	
2025-01-18 10:00:22.44	355.92	13.06	
2025-01-18 10:00:22.64	355.89	13.07	
2025-01-18 10:00:22.84	355.86	13.09	
2025-01-18 10:00:23.04	355.83	13.10	
2025-01-18 10:00:23.25	355.80	13.12	
2025-01-18 10:00:23.45	355.77	13.14	
2025-01-18 10:00:23.65	355.73	13.15	
2025-01-18 10:00:23.86	355.70	13.17	
2025-01-18 10:00:24.06	355.67	13.18	
2025-01-18 10:00:24.26	355.64	13.20	
2025-01-18 10:00:24.47	355.61	13.22	
2025-01-18 10:00:24.67	355.58	13.23	
2025-01-18 10:00:24.87	355.54	13.25	
2025-01-18 10:00:25.07	355.51	13.26	
2025-01-18 10:00:25.28	355.48	13.28	
2025-01-18 10:00:25.48	355.45	13.30	
2025-01-18 10:00:25.68	355.42	13.31	
2025-01-18 10:00:25.89	355.38	13.33	
2025-01-18 10:00:26.09	355.35	13.34	
2025-01-18 10:00:26.29	355.32	13.36	
2025-01-18 10:00:26.50	355.29	13.38	
2025-01-18 10:00:26.70	355.26	13.39	
2025-01-18 10:00:26.90	355.23	13.41	
2025-01-18 10:00:27.10	355.19	13.42	
2025-01-18 10:00:27.31	355.16	13.44	
2025-01-18 10:00:27.51	355.13	13.45	
2025-01-18 10:00:27.71	355.10	13.47	
2025-01-18 10:00:27.92	355.06	13.49	
2025-01-18 10:00:28.12	355.03	13.50	
2025-01-18 10:00:28.32	355.00	13.52	
2025-01-18 10:00:28.53	354.97	13.54	
2025-01-18 10:00:28.73	354.93	13.55	
2025-01-18 10:00:28.93	354.90	13.57	
2025-01-18 10:00:29.13	354.87	13.58	
2025-01-18 10:00:29.34	354.84	13.60	
2025-01-18 10:00:29.54	354.80	13.61	
2025-01-18 10:00:29.74	354.77	13.63	
2025-01-18 10:00:29.95	354.74	13.65	
2025-01-18 10:00:30.15	354.71	13.66	
2025-01-18 10:00:30.35	354.67	13.68	
2025-01-18 10:00:30.56	354.64	13.70	
2025-01-18 10:00:30.76	354.61	13.71	
2025-01-18 10:00:30.96	354.58	13.73	
2025-01-18 10:00:31.16	354.54	13.74	
2025-01-18 10:00:31.37	354.51	13.76	
2025-01-18 10:00:31.57	354.48	13.78	
2025-01-18 10:00:31.77	354.44	13.79	
2025-01-18 10:00:31.98	354.41	13.81	
2025-01-18 10:00:32.18	354.38	13.82	
2025-01-18 10:00:32.38	354.34	13.84	
2025-01-18 10:00:32.59	354.31	13.86	
2025-01-18 10:00:32.79	354.28	13.87	
2025-01-18 10:00:32.99	354.24	13.89	
2025-01-18 10:00:33.19	354.21	13.90	
2025-01-18 10:00:33.40	354.18	13.92	
2025-01-18 10:00:33.60	354.14	13.94	
2025-01-18 10:00:33.80	354.11	13.95	
2025-01-18 10:00:34.01	354.08	13.97	
2025-01-18 10:00:34.21	354.04	13.98	
2025-01-18 10:00:34.41	354.01	14.00	
2025-01-18 10:00:34.62	353.98	14.02	
2025-01-18 10:00:34.82	353.94	14.03	
2025-01-18 10:00:35.02	353.91	14.05	
2025-01-18 10:00:35.22	353.88	14.06	
2025-01-18 10:00:35.43	353.84	14.08	
2025-01-18 10:00:35.63	353.81	14.10	
2025-01-18 10:00:35.83	353.78	14.11	
2025-01-18 10:00:36.04	353.74	14.13	
2025-01-18 10:00:36.24	353.71	14.14	
2025-01-18 10:00:36.44	353.67	14.16	
2025-01-18 10:00:36.64	353.64	14.18	
2025-01-18 10:00:36.85	353.61	14.19	
2025-01-18 10:00:37.05	353.57	14.21	
2025-01-18 10:00:37.25	353.54	14.23	
2025-01-18 10:00:37.46	353.50	14.24	
2025-01-18 10:00:37.66	353.47	14.26	
2025-01-18 10:00:37.86	353.44	14.27	
2025-01-18 10:00:38.07	353.40	14.29	
2025-01-18 10:00:38.27	353.37	14.31	
2025-01-18 10:00:38.47	353.33	14.32	
2025-01-18 10:00:38.67	353.30	14.34	
2025-01-18 10:00:38.88	353.26	14.35	
2025-01-18 10:00:39.08	353.23	14.37	
2025-01-18 10:00:39.28	353.19	14.39	
2025-01-18 10:00:39.49	353.16	14.40	
2025-01-18 10:00:39.69	353.13	14.42	
2025-01-18 10:00:39.89	353.09	14.43	
2025-01-18 10:00:40.10	353.06	14.45	
2025-01-18 10:00:40.30	353.02	14.47	
2025-01-18 10:00:40.50	352.99	14.48	
2025-01-18 10:00:40.70	352.95	14.50	
2025-01-18 10:00:40.91	352.92	14.52	
2025-01-18 10:00:41.11	352.88	14.53	
2025-01-18 10:00:41.31	352.85	14.55	
2025-01-18 10:00:41.52	352.81	14.56	
2025-01-18 10:00:41.72	352.78	14.58	
2025-01-18 10:00:41.92	352.74	14.60	
2025-01-18 10:00:42.13	352.71	14.61	
2025-01-18 10:00:42.33	352.67	14.63	
2025-01-18 10:00:42.53	352.64	14.64	
2025-01-18 10:00:42.73	352.60	14.66	
2025-01-18 10:00:42.94	352.57	14.68	
2025-01-18 10:00:43.14	352.53	14.69	
2025-01-18 10:00:43.34	352.50	14.71	
2025-01-18 10:00:43.55	352.46	14.73	
2025-01-18 10:00:43.75	352.42	14.74	
2025-01-18 10:00:43.95	352.39	14.76	
2025-01-18 10:00:44.16	352.35	14.77	
2025-01-18 10:00:44.36	352.32	14.79	
2025-01-18 10:00:44.56	352.28	14.81	
2025-01-18 10:00:44.76	352.25	14.82	
2025-01-18 10:00:44.97	352.21	14.84	
2025-01-18 10:00:45.17	352.18	14.85	
2025-01-18 10:00:45.37	352.14	14.87	
2025-01-18 10:00:45.58	352.10	14.89	
2025-01-18 10:00:45.78	352.07	14.90	
2025-01-18 10:00:45.98	352.03	14.92	
2025-01-18 10:00:46.19	352.00	14.94	
2025-01-18 10:00:46.39	351.96	14.95	
2025-01-18 10:00:46.59	351.93	14.97	
2025-01-18 10:00:46.79	351.89	14.98	
2025-01-18 10:00:47.00	351.85	15.00	
2025-01-18 10:00:47.20	351.82	15.02	
2025-01-18 10:00:47.40	351.78	15.03	
2025-01-18 10:00:47.61	351.74	15.05	
2025-01-18 10:00:47.81	351.71	15.07	
2025-01-18 10:00:48.01	351.67	15.08	
2025-01-18 10:00:48.22	351.63	15.10	
2025-01-18 10:00:48.42	351.60	15.11	
2025-01-18 10:00:48.62	351.56	15.13	
2025-01-18 10:00:48.82	351.53	15.15	
2025-01-18 10:00:49.03	351.49	15.16	
2025-01-18 10:00:49.23	351.45	15.18	
2025-01-18 10:00:49.43	351.42	15.19	
2025-01-18 10:00:49.64	351.38	15.21	
2025-01-18 10:00:49.84	351.34	15.23	
2025-01-18 10:00:50.04	351.31	15.24	
2025-01-18 10:00:50.24	351.27	15.26	
2025-01-18 10:00:50.45	351.23	15.28	
2025-01-18 10:00:50.65	351.20	15.29	
2025-01-18 10:00:50.85	351.16	15.31	
2025-01-18 10:00:51.06	351.12	15.32	
2025-01-18 10:00:51.26	351.09	15.34	
2025-01-18 10:00:51.46	351.05	15.36	
2025-01-18 10:00:51.67	351.01	15.37	
2025-01-18 10:00:51.87	350.97	15.39	
2025-01-18 10:00:52.07	350.94	15.41	
2025-01-18 10:00:52.27	350.90	15.42	
2025-01-18 10:00:52.48	350.86	15.44	
2025-01-18 10:00:52.68	350.83	15.45	
2025-01-18 10:00:52.88	350.79	15.47	
2025-01-18 10:00:53.09	350.75	15.49	
2025-01-18 10:00:53.29	350.71	15.50	
2025-01-18 10:00:53.49	350.68	15.52	
2025-01-18 10:00:53.70	350.64	15.54	
2025-01-18 10:00:53.90	350.60	15.55	
2025-01-18 10:00:54.10	350.56	15.57	
2025-01-18 10:00:54.30	350.53	15.58	
2025-01-18 10:00:54.51	350.49	15.60	
2025-01-18 10:00:54.71	350.45	15.62	
2025-01-18 10:00:54.91	350.41	15.63	
2025-01-18 10:00:55.12	350.37	15.65	
2025-01-18 10:00:55.32	350.34	15.66	
2025-01-18 10:00:55.52	350.30	15.68	
2025-01-18 10:00:55.73	350.26	15.70	
2025-01-18 10:00:55.93	350.22	15.71	
2025-01-18 10:00:56.13	350.19	15.73	
2025-01-18 10:00:56.33	350.15	15.75	
2025-01-18 10:00:56.54	350.11	15.76	
2025-01-18 10:00:56.74	350.07	15.78	
2025-01-18 10:00:56.94	350.03	15.79	
2025-01-18 10:00:57.15	349.99	15.81	
2025-01-18 10:00:57.35	349.96	15.83	
2025-01-18 10:00:57.55	349.92	15.84	
2025-01-18 10:00:57.76	349.88	15.86	
2025-01-18 10:00:57.96	349.84	15.88	
2025-01-18 10:00:58.16	349.80	15.89	
2025-01-18 10:00:58.36	349.76	15.91	
2025-01-18 10:00:58.57	349.72	15.92	
2025-01-18 10:00:58.77	349.69	15.94	
2025-01-18 10:00:58.97	349.65	15.96	
2025-01-18 10:00:59.18	349.61	15.97	
2025-01-18 10:00:59.38	349.57	15.99	
2025-01-18 10:00:59.58	349.53	16.00	
2025-01-18 10:00:59.79	349.49	16.02	
2025-01-18 10:00:59.99	349.45	16.04	
2025-01-18 10:01:00.19	349.42	16.05	
2025-01-18 10:01:00.39	349.38	16.07	
2025-01-18 10:01:00.61	349.33	16.09	
2025-01-18 10:01:00.82	349.29	16.10	
2025-01-18 10:01:01.02	349.26	16.12	
2025-01-18 10:01:01.22	349.22	16.14	
2025-01-18 10:01:01.42	349.18	16.15	
2025-01-18 10:01:01.63	349.14	16.17	
2025-01-18 10:01:01.83	349.10	16.18	
2025-01-18 10:01:02.03	349.06	16.20	
2025-01-18 10:01:02.24	349.02	16.22	
2025-01-18 10:01:02.44	348.98	16.23	
2025-01-18 10:01:02.64	348.94	16.25	
2025-01-18 10:01:02.85	348.90	16.26	
2025-01-18 10:01:03.05	348.86	16.28	
2025-01-18 10:01:03.25	348.82	16.30	
2025-01-18 10:01:03.45	348.78	16.31	
2025-01-18 10:01:03.66	348.74	16.33	
2025-01-18 10:01:03.86	348.70	16.35	
2025-01-18 10:01:04.06	348.66	16.36	
2025-01-18 10:01:04.27	348.62	16.38	
2025-01-18 10:01:04.47	348.58	16.39	
2025-01-18 10:01:04.67	348.54	16.41	
2025-01-18 10:01:04.88	348.50	16.43	
2025-01-18 10:01:05.08	348.46	16.44	
2025-01-18 10:01:05.28	348.42	16.46	
2025-01-18 10:01:05.48	348.38	16.47	
2025-01-18 10:01:05.69	348.34	16.49	
2025-01-18 10:01:05.89	348.30	16.51	
2025-01-18 10:01:06.09	348.26	16.52	
2025-01-18 10:01:06.30	348.22	16.54	
2025-01-18 10:01:06.50	348.18	16.56	
2025-01-18 10:01:06.70	348.14	16.57	
2025-01-18 10:01:06.91	348.10	16.59	
2025-01-18 10:01:07.11	348.06	16.60	
2025-01-18 10:01:07.31	348.02	16.62	
2025-01-18 10:01:07.51	347.98	16.64	
2025-01-18 10:01:07.72	347.94	16.65	
2025-01-18 10:01:07.92	347.90	16.67	
2025-01-18 10:01:08.12	347.86	16.68	
2025-01-18 10:01:08.33	347.82	16.70	
2025-01-18 10:01:08.53	347.78	16.72	
2025-01-18 10:01:08.73	347.74	16.73	
2025-01-18 10:01:08.94	347.69	16.75	
2025-01-18 10:01:09.14	347.65	16.77	
2025-01-18 10:01:09.34	347.61	16.78	
2025-01-18 10:01:09.54	347.57	16.80	
2025-01-18 10:01:09.75	347.53	16.81	
2025-01-18 10:01:09.95	347.49	16.83	
2025-01-18 10:01:10.15	347.45	16.85	
2025-01-18 10:01:10.36	347.41	16.86	
2025-01-18 10:01:10.56	347.37	16.88	
2025-01-18 10:01:10.76	347.32	16.89	
2025-01-18 10:01:10.97	347.28	16.91	
2025-01-18 10:01:11.17	347.24	16.93	
2025-01-18 10:01:11.37	347.20	16.94	
2025-01-18 10:01:11.57	347.16	16.96	
2025-01-18 10:01:11.78	347.12	16.97	
2025-01-18 10:01:11.98	347.08	16.99	
2025-01-18 10:01:12.18	347.03	17.01	
2025-01-18 10:01:12.39	346.99	17.02	
2025-01-18 10:01:12.59	346.95	17.04	
2025-01-18 10:01:12.79	346.91	17.05	
2025-01-18 10:01:13.00	346.87	17.07	
2025-01-18 10:01:13.20	346.82	17.09	
2025-01-18 10:01:13.40	346.78	17.10	
2025-01-18 10:01:13.60	346.74	17.12	
2025-01-18 10:01:13.81	346.70	17.13	
2025-01-18 10:01:14.01	346.66	17.15	
2025-01-18 10:01:14.21	346.61	17.17	
2025-01-18 10:01:14.42	346.57	17.18	
2025-01-18 10:01:14.62	346.53	17.20	
2025-01-18 10:01:14.82	346.49	17.21	
2025-01-18 10:01:15.02	346.45	17.23	
2025-01-18 10:01:15.23	346.40	17.25	
2025-01-18 10:01:15.43	346.36	17.26	
2025-01-18 10:01:15.63	346.32	17.28	
2025-01-18 10:01:15.84	346.27	17.29	
2025-01-18 10:01:16.04	346.23	17.31	
2025-01-18 10:01:16.24	346.19	17.33	
2025-01-18 10:01:16.45	346.15	17.34	
2025-01-18 10:01:16.65	346.10	17.36	
2025-01-18 10:01:16.85	346.06	17.37	
2025-01-18 10:01:17.05	346.02	17.39	
2025-01-18 10:01:17.26	345.98	17.41	
2025-01-18 10:01:17.46	345.93	17.42	
2025-01-18 10:01:17.66	345.89	17.44	
2025-01-18 10:01:17.87	345.85	17.45	
2025-01-18 10:01:18.07	345.80	17.47	
2025-01-18 10:01:18.27	345.76	17.49	
2025-01-18 10:01:18.48	345.72	17.50	
2025-01-18 10:01:18.68	345.67	17.52	
2025-01-18 10:01:18.88	345.63	17.53	
2025-01-18 10:01:19.08	345.59	17.55	
2025-01-18 10:01:19.29	345.54	17.57	
2025-01-18 10:01:19.49	345.50	17.58	
2025-01-18 10:01:19.69	345.46	17.60	
2025-01-18 10:01:19.90	345.41	17.61	
2025-01-18 10:01:20.10	345.37	17.63	
2025-01-18 10:01:20.30	345.33	17.65	
2025-01-18 10:01:20.51	345.28	17.66	
2025-01-18 10:01:20.71	345.24	17.68	
2025-01-18 10:01:20.91	345.20	17.69	
2025-01-18 10:01:21.11	345.15	17.71	
2025-01-18 10:01:21.32	345.11	17.72	
2025-01-18 10:01:21.52	345.06	17.74	
2025-01-18 10:01:21.72	345.02	17.76	
2025-01-18 10:01:21.93	344.97	17.77	
2025-01-18 10:01:22.13	344.93	17.79	
2025-01-18 10:01:22.33	344.89	17.80	
2025-01-18 10:01:22.54	344.84	17.82	
2025-01-18 10:01:22.74	344.80	17.84	
2025-01-18 10:01:22.94	344.76	17.85	
2025-01-18 10:01:23.14	344.71	17.87	
2025-01-18 10:01:23.35	344.67	17.88	
2025-01-18 10:01:23.55	344.62	17.90	
2025-01-18 10:01:23.75	344.58	17.91	
2025-01-18 10:01:23.96	344.53	17.93	
2025-01-18 10:01:24.16	344.49	17.95	
2025-01-18 10:01:24.36	344.44	17.96	
2025-01-18 10:01:24.57	344.40	17.98	
2025-01-18 10:01:24.77	344.35	17.99	
2025-01-18 10:01:24.97	344.31	18.01	
2025-01-18 10:01:25.17	344.27	18.02	
2025-01-18 10:01:25.38	344.22	18.04	
2025-01-18 10:01:25.58	344.17	18.06	
2025-01-18 10:01:25.78	344.13	18.07	
2025-01-18 10:01:25.99	344.08	18.09	
2025-01-18 10:01:26.19	344.04	18.10	
2025-01-18 10:01:26.39	343.99	18.12	
2025-01-18 10:01:26.60	343.95	18.14	
2025-01-18 10:01:26.80	343.90	18.15	
2025-01-18 10:01:27.00	343.86	18.17	
2025-01-18 10:01:27.20	343.81	18.18	
2025-01-18 10:01:27.41	343.77	18.20	
2025-01-18 10:01:27.61	343.72	18.21	
2025-01-18 10:01:27.81	343.68	18.23	
2025-01-18 10:01:28.02	343.63	18.25	
2025-01-18 10:01:28.22	343.59	18.26	
2025-01-18 10:01:28.42	343.54	18.28	
2025-01-18 10:01:28.63	343.49	18.29	
2025-01-18 10:01:28.83	343.45	18.31	
2025-01-18 10:01:29.03	343.40	18.32	
2025-01-18 10:01:29.23	343.36	18.34	
2025-01-18 10:01:29.44	343.31	18.35	
2025-01-18 10:01:29.64	343.27	18.37	
2025-01-18 10:01:29.84	343.22	18.39	
2025-01-18 10:01:30.05	343.17	18.40	
2025-01-18 10:01:30.25	343.13	18.42	
2025-01-18 10:01:30.45	343.08	18.43	
2025-01-18 10:01:30.65	343.04	18.45	
2025-01-18 10:01:30.86	342.99	18.46	
2025-01-18 10:01:31.06	342.94	18.48	
2025-01-18 10:01:31.26	342.90	18.49	
2025-01-18 10:01:31.47	342.85	18.51	
2025-01-18 10:01:31.67	342.80	18.53	
2025-01-18 10:01:31.87	342.76	18.54	
2025-01-18 10:01:32.08	342.71	18.56	
2025-01-18 10:01:32.28	342.66	18.57	
2025-01-18 10:01:32.48	342.62	18.59	
2025-01-18 10:01:32.68	342.57	18.60	
2025-01-18 10:01:32.89	342.52	18.62	
2025-01-18 10:01:33.09	342.48	18.63	
2025-01-18 10:01:33.29	342.43	18.65	
2025-01-18 10:01:33.50	342.38	18.67	
2025-01-18 10:01:33.70	342.34	18.68	
2025-01-18 10:01:33.90	342.29	18.70	
2025-01-18 10:01:34.11	342.24	18.71	
2025-01-18 10:01:34.31	342.20	18.73	
2025-01-18 10:01:34.51	342.15	18.74	
2025-01-18 10:01:34.71	342.10	18.76	
2025-01-18 10:01:34.92	342.05	18.77	
2025-01-18 10:01:35.12	342.01	18.79	
2025-01-18 10:01:35.32	341.96	18.80	
2025-01-18 10:01:35.53	341.91	18.82	
2025-01-18 10:01:35.73	341.86	18.83	
2025-01-18 10:01:35.93	341.82	18.85	
2025-01-18 10:01:36.14	341.77	18.87	
2025-01-18 10:01:36.34	341.72	18.88	
2025-01-18 10:01:36.54	341.67	18.90	
2025-01-18 10:01:36.74	341.63	18.91	
2025-01-18 10:01:36.95	341.58	18.93	
2025-01-18 10:01:37.15	341.53	18.94	
2025-01-18 10:01:37.35	341.48	18.96	
2025-01-18 10:01:37.56	341.43	18.97	
2025-01-18 10:01:37.76	341.39	18.99	
2025-01-18 10:01:37.96	341.34	19.00	
2025-01-18 10:01:38.17	341.29	19.02	
2025-01-18 10:01:38.37	341.24	19.03	
2025-01-18 10:01:38.57	341.19	19.05	
2025-01-18 10:01:38.77	341.15	19.06	
2025-01-18 10:01:38.98	341.10	19.08	
2025-01-18 10:01:39.18	341.05	19.09	
2025-01-18 10:01:39.38	341.00	19.11	
2025-01-18 10:01:39.59	340.95	19.12	
2025-01-18 10:01:39.79	340.90	19.14	
2025-01-18 10:01:39.99	340.86	19.15	
2025-01-18 10:01:40.20	340.81	19.17	
2025-01-18 10:01:40.40	340.76	19.19	
2025-01-18 10:01:40.60	340.71	19.20	
2025-01-18 10:01:40.80	340.66	19.21	
2025-01-18 10:01:41.01	340.61	19.23	
2025-01-18 10:01:41.21	340.56	19.25	
2025-01-18 10:01:41.41	340.52	19.26	
2025-01-18 10:01:41.62	340.46	19.28	
2025-01-18 10:01:41.82	340.42	19.29	
2025-01-18 10:01:42.02	340.37	19.31	
2025-01-18 10:01:42.23	340.32	19.32	
2025-01-18 10:01:42.43	340.27	19.34	
2025-01-18 10:01:42.63	340.22	19.35	
2025-01-18 10:01:42.83	340.17	19.37	
2025-01-18 10:01:43.04	340.12	19.38	
2025-01-18 10:01:43.24	340.07	19.40	
2025-01-18 10:01:43.44	340.02	19.41	
2025-01-18 10:01:43.65	339.97	19.43	
2025-01-18 10:01:43.85	339.92	19.44	
2025-01-18 10:01:44.05	339.87	19.46	
2025-01-18 10:01:44.26	339.82	19.47	
2025-01-18 10:01:44.46	339.77	19.49	
2025-01-18 10:01:44.66	339.73	19.50	
2025-01-18 10:01:44.86	339.68	19.51	
2025-01-18 10:01:45.07	339.63	19.53	
2025-01-18 10:01:45.27	339.58	19.54	
2025-01-18 10:01:45.47	339.53	19.56	
2025-01-18 10:01:45.68	339.48	19.57	
2025-01-18 10:01:45.88	339.43	19.59	
2025-01-18 10:01:46.08	339.38	19.60	
2025-01-18 10:01:46.28	339.33	19.62	
2025-01-18 10:01:46.49	339.28	19.63	
2025-01-18 10:01:46.69	339.23	19.65	
2025-01-18 10:01:46.89	339.18	19.66	
2025-01-18 10:01:47.10	339.12	19.68	
2025-01-18 10:01:47.30	339.07	19.69	
2025-01-18 10:01:47.50	339.02	19.71	
2025-01-18 10:01:47.71	338.97	19.72	
2025-01-18 10:01:47.91	338.92	19.74	
2025-01-18 10:01:48.11	338.87	19.75	
2025-01-18 10:01:48.31	338.82	19.77	
2025-01-18 10:01:48.52	338.77	19.78	
2025-01-18 10:01:48.72	338.72	19.80	
2025-01-18 10:01:48.92	338.67	19.81	
2025-01-18 10:01:49.13	338.62	19.82	
2025-01-18 10:01:49.33	338.57	19.84	
2025-01-18 10:01:49.53	338.52	19.85	
2025-01-18 10:01:49.74	338.46	19.87	
2025-01-18 10:01:49.94	338.41	19.88	
2025-01-18 10:01:50.14	338.36	19.90	
2025-01-18 10:01:50.34	338.31	19.91	
2025-01-18 10:01:50.55	338.26	19.93	
2025-01-18 10:01:50.75	338.21	19.94	
2025-01-18 10:01:50.95	338.16	19.96	
2025-01-18 10:01:51.16	338.11	19.97	
2025-01-18 10:01:51.36	338.06	19.98	
2025-01-18 10:01:51.56	338.00	20.00	
2025-01-18 10:01:51.77	337.95	20.01	
2025-01-18 10:01:51.97	337.90	20.03	
2025-01-18 10:01:52.17	337.85	20.04	
2025-01-18 10:01:52.37	337.80	20.06	
2025-01-18 10:01:52.58	337.75	20.07	
2025-01-18 10:01:52.78	337.69	20.09	
2025-01-18 10:01:52.98	337.64	20.10	
2025-01-18 10:01:53.19	337.59	20.11	
2025-01-18 10:01:53.39	337.54	20.13	
2025-01-18 10:01:53.59	337.49	20.14	
2025-01-18 10:01:53.80	337.43	20.16	
2025-01-18 10:01:54.00	337.38	20.17	
2025-01-18 10:01:54.20	337.33	20.19	
2025-01-18 10:01:54.40	337.28	20.20	
2025-01-18 10:01:54.61	337.23	20.21	
2025-01-18 10:01:54.81	337.17	20.23	
2025-01-18 10:01:55.01	337.12	20.24	
2025-01-18 10:01:55.22	337.07	20.26	
2025-01-18 10:01:55.42	337.02	20.27	
2025-01-18 10:01:55.62	336.96	20.28	
2025-01-18 10:01:55.83	336.91	20.30	
2025-01-18 10:01:56.03	336.86	20.31	
2025-01-18 10:01:56.23	336.81	20.33	
2025-01-18 10:01:56.43	336.75	20.34	
2025-01-18 10:01:56.64	336.70	20.36	
2025-01-18 10:01:56.84	336.65	20.37	
2025-01-18 10:01:57.04	336.60	20.38	
2025-01-18 10:01:57.25	336.54	20.40	
2025-01-18 10:01:57.45	336.49	20.41	
2025-01-18 10:01:57.65	336.44	20.43	
2025-01-18 10:01:57.86	336.38	20.44	
2025-01-18 10:01:58.06	336.33	20.45	
2025-01-18 10:01:58.26	336.28	20.47	
2025-01-18 10:01:58.46	336.22	20.48	
2025-01-18 10:01:58.67	336.17	20.50	
2025-01-18 10:01:58.87	336.12	20.51	
2025-01-18 10:01:59.07	336.06	20.52	
2025-01-18 10:01:59.28	336.01	20.54	
2025-01-18 10:01:59.48	335.96	20.55	
2025-01-18 10:01:59.68	335.90	20.56	
2025-01-18 10:01:59.88	335.85	20.58	
2025-01-18 10:02:00.09	335.79	20.59	
2025-01-18 10:02:00.29	335.74	20.61	
2025-01-18 10:02:00.49	335.69	20.62	
2025-01-18 10:02:00.70	335.63	20.63	
2025-01-18 10:02:00.90	335.58	20.65	
2025-01-18 10:02:01.10	335.53	20.66	
2025-01-18 10:02:01.31	335.47	20.68	
2025-01-18 10:02:01.51	335.42	20.69	
2025-01-18 10:02:01.71	335.36	20.70	
2025-01-18 10:02:01.91	335.31	20.72	
2025-01-18 10:02:02.12	335.26	20.73	
2025-01-18 10:02:02.32	335.20	20.74	
2025-01-18 10:02:02.52	335.15	20.76	
2025-01-18 10:02:02.73	335.09	20.77	
2025-01-18 10:02:02.93	335.04	20.78	
2025-01-18 10:02:03.13	334.99	20.80	
2025-01-18 10:02:03.34	334.93	20.81	
2025-01-18 10:02:03.54	334.88	20.82	
2025-01-18 10:02:03.74	334.82	20.84	
2025-01-18 10:02:03.94	334.77	20.85	
2025-01-18 10:02:04.15	334.71	20.86	
2025-01-18 10:02:04.35	334.66	20.88	
2025-01-18 10:02:04.55	334.60	20.89	
2025-01-18 10:02:04.76	334.55	20.90	
2025-01-18 10:02:04.96	334.49	20.92	
2025-01-18 10:02:05.16	334.44	20.93	
2025-01-18 10:02:05.37	334.38	20.95	
2025-01-18 10:02:05.57	334.33	20.96	
2025-01-18 10:02:05.77	334.27	20.97	
2025-01-18 10:02:05.97	334.22	20.98	
2025-01-18 10:02:06.18	334.16	21.00	
2025-01-18 10:02:06.38	334.11	21.01	
2025-01-18 10:02:06.58	334.05	21.02	
2025-01-18 10:02:06.79	334.00	21.04	
2025-01-18 10:02:06.99	333.94	21.05	
2025-01-18 10:02:07.19	333.89	21.06	
2025-01-18 10:02:07.40	333.83	21.08	
2025-01-18 10:02:07.60	333.77	21.09	
2025-01-18 10:02:07.80	333.72	21.10	
2025-01-18 10:02:08.00	333.66	21.12	
2025-01-18 10:02:08.21	333.61	21.13	
2025-01-18 10:02:08.41	333.55	21.14	
2025-01-18 10:02:08.61	333.50	21.16	
2025-01-18 10:02:08.82	333.44	21.17	
2025-01-18 10:02:09.02	333.38	21.18	
2025-01-18 10:02:09.22	333.33	21.19	
2025-01-18 10:02:09.43	333.27	21.21	
2025-01-18 10:02:09.63	333.22	21.22	
2025-01-18 10:02:09.83	333.16	21.23	
2025-01-18 10:02:10.03	333.11	21.25	
2025-01-18 10:02:10.24	333.05	21.26	
2025-01-18 10:02:10.44	332.99	21.27	
2025-01-18 10:02:10.64	332.94	21.28	
2025-01-18 10:02:10.85	332.88	21.30	
2025-01-18 10:02:11.05	332.82	21.31	
2025-01-18 10:02:11.25	332.77	21.32	
2025-01-18 10:02:11.46	332.71	21.34	
2025-01-18 10:02:11.66	332.65	21.35	
2025-01-18 10:02:11.86	332.60	21.36	
2025-01-18 10:02:12.06	332.54	21.37	
2025-01-18 10:02:12.27	332.48	21.39	
2025-01-18 10:02:12.47	332.43	21.40	
2025-01-18 10:02:12.67	332.37	21.41	
2025-01-18 10:02:12.88	332.31	21.42	
2025-01-18 10:02:13.08	332.26	21.44	
2025-01-18 10:02:13.28	332.20	21.45	
2025-01-18 10:02:13.49	332.14	21.46	
2025-01-18 10:02:13.69	332.09	21.47	
2025-01-18 10:02:13.89	332.03	21.49	
2025-01-18 10:02:14.09	331.97	21.50	
2025-01-18 10:02:14.30	331.91	21.51	
2025-01-18 10:02:14.50	331.86	21.52	
2025-01-18 10:02:14.70	331.80	21.54	
2025-01-18 10:02:14.91	331.74	21.55	
2025-01-18 10:02:15.11	331.69	21.56	
2025-01-18 10:02:15.31	331.63	21.57	
2025-01-18 10:02:15.51	331.57	21.58	
2025-01-18 10:02:15.72	331.51	21.60	
2025-01-18 10:02:15.92	331.46	21.61	
2025-01-18 10:02:16.12	331.40	21.62	
2025-01-18 10:02:16.33	331.34	21.63	
2025-01-18 10:02:16.53	331.28	21.65	
2025-01-18 10:02:16.73	331.23	21.66	
2025-01-18 10:02:16.94	331.17	21.67	
2025-01-18 10:02:17.14	331.11	21.68	
2025-01-18 10:02:17.34	331.05	21.69	
2025-01-18 10:02:17.54	330.99	21.71	
2025-01-18 10:02:17.75	330.93	21.72	
2025-01-18 10:02:17.95	330.88	21.73	
2025-01-18 10:02:18.15	330.82	21.74	
2025-01-18 10:02:18.36	330.76	21.75	
2025-01-18 10:02:18.56	330.70	21.77	
2025-01-18 10:02:18.76	330.65	21.78	
2025-01-18 10:02:18.97	330.59	21.79	
2025-01-18 10:02:19.17	330.53	21.80	
2025-01-18 10:02:19.37	330.47	21.81	
2025-01-18 10:02:19.57	330.41	21.83	
2025-01-18 10:02:19.78	330.35	21.84	
2025-01-18 10:02:19.98	330.29	21.85	
2025-01-18 10:02:20.18	330.24	21.86	
2025-01-18 10:02:20.39	330.18	21.87	
2025-01-18 10:02:20.59	330.12	21.88	
2025-01-18 10:02:20.79	330.06	21.90	
2025-01-18 10:02:21.00	330.00	21.91	
2025-01-18 10:02:21.20	329.94	21.92	
2025-01-18 10:02:21.40	329.88	21.93	
2025-01-18 10:02:21.60	329.83	21.94	
2025-01-18 10:02:21.81	329.77	21.95	
2025-01-18 10:02:22.01	329.71	21.97	
2025-01-18 10:02:22.21	329.65	21.98	
2025-01-18 10:02:22.42	329.59	21.99	
2025-01-18 10:02:22.62	329.53	22.00	
2025-01-18 10:02:22.82	329.47	22.01	
2025-01-18 10:02:23.03	329.41	22.02	
2025-01-18 10:02:23.23	329.35	22.03	
2025-01-18 10:02:23.43	329.29	22.04	
2025-01-18 10:02:23.63	329.24	22.06	
2025-01-18 10:02:23.84	329.17	22.07	
2025-01-18 10:02:24.04	329.12	22.08	
2025-01-18 10:02:24.24	329.06	22.09	
2025-01-18 10:02:24.45	329.00	22.10	
2025-01-18 10:02:24.65	328.94	22.11	
2025-01-18 10:02:24.85	328.88	22.12	
2025-01-18 10:02:25.06	328.82	22.13	
2025-01-18 10:02:25.26	328.76	22.15	
2025-01-18 10:02:25.46	328.70	22.16	
2025-01-18 10:02:25.66	328.64	22.17	
2025-01-18 10:02:25.87	328.58	22.18	
2025-01-18 10:02:26.07	328.52	22.19	
2025-01-18 10:02:26.27	328.46	22.20	
2025-01-18 10:02:26.48	328.40	22.21	
2025-01-18 10:02:26.68	328.34	22.22	
2025-01-18 10:02:26.88	328.28	22.23	
2025-01-18 10:02:27.09	328.22	22.24	
2025-01-18 10:02:27.29	328.16	22.25	
2025-01-18 10:02:27.49	328.10	22.27	
2025-01-18 10:02:27.69	328.04	22.28	
2025-01-18 10:02:27.90	327.98	22.29	
2025-01-18 10:02:28.10	327.92	22.30	
2025-01-18 10:02:28.30	327.86	22.31	
2025-01-18 10:02:28.51	327.80	22.32	
2025-01-18 10:02:28.71	327.74	22.33	
2025-01-18 10:02:28.91	327.68	22.34	
2025-01-18 10:02:29.12	327.61	22.35	
2025-01-18 10:02:29.32	327.55	22.36	
2025-01-18 10:02:29.52	327.49	22.37	
2025-01-18 10:02:29.72	327.43	22.38	
2025-01-18 10:02:29.93	327.37	22.39	
2025-01-18 10:02:30.13	327.31	22.40	
2025-01-18 10:02:30.33	327.25	22.41	
2025-01-18 10:02:30.54	327.19	22.42	
2025-01-18 10:02:30.74	327.13	22.43	
2025-01-18 10:02:30.94	327.07	22.44	
2025-01-18 10:02:31.14	327.01	22.45	
2025-01-18 10:02:31.35	326.95	22.47	
2025-01-18 10:02:31.55	326.89	22.48	
2025-01-18 10:02:31.75	326.83	22.49	
2025-01-18 10:02:31.96	326.76	22.50	
2025-01-18 10:02:32.16	326.70	22.51	
2025-01-18 10:02:32.36	326.64	22.52	
2025-01-18 10:02:32.57	326.58	22.53	
2025-01-18 10:02:32.77	326.52	22.54	
2025-01-18 10:02:32.97	326.46	22.55	
2025-01-18 10:02:33.17	326.40	22.56	
2025-01-18 10:02:33.38	326.33	22.57	
2025-01-18 10:02:33.58	326.27	22.58	
2025-01-18 10:02:33.78	326.21	22.59	
2025-01-18 10:02:33.99	326.15	22.60	
2025-01-18 10:02:34.19	326.09	22.61	
2025-01-18 10:02:34.39	326.03	22.62	
2025-01-18 10:02:34.60	325.96	22.63	
2025-01-18 10:02:34.80	325.90	22.63	
2025-01-18 10:02:35.00	325.84	22.64	
2025-01-18 10:02:35.20	325.78	22.65	
2025-01-18 10:02:35.41	325.72	22.66	
2025-01-18 10:02:35.61	325.66	22.67	
2025-01-18 10:02:35.81	325.59	22.68	
2025-01-18 10:02:36.02	325.53	22.69	
2025-01-18 10:02:36.22	325.47	22.70	
2025-01-18 10:02:36.42	325.41	22.71	
2025-01-18 10:02:36.63	325.34	22.72	
2025-01-18 10:02:36.83	325.28	22.73	
2025-01-18 10:02:37.03	325.22	22.74	
2025-01-18 10:02:37.23	325.16	22.75	
2025-01-18 10:02:37.44	325.10	22.76	
2025-01-18 10:02:37.64	325.03	22.77	
2025-01-18 10:02:37.84	324.97	22.78	
2025-01-18 10:02:38.05	324.91	22.79	
2025-01-18 10:02:38.25	324.85	22.80	
2025-01-18 10:02:38.45	324.79	22.80	
2025-01-18 10:02:38.66	324.72	22.81	
2025-01-18 10:02:38.86	324.66	22.82	
2025-01-18 10:02:39.06	324.60	22.83	
2025-01-18 10:02:39.26	324.54	22.84	
2025-01-18 10:02:39.47	324.47	22.85	
2025-01-18 10:02:39.67	324.41	22.86	
2025-01-18 10:02:39.87	324.35	22.87	
2025-01-18 10:02:40.08	324.28	22.88	
2025-01-18 10:02:40.28	324.22	22.89	
2025-01-18 10:02:40.48	324.16	22.89	
2025-01-18 10:02:40.69	324.09	22.90	
2025-01-18 10:02:40.89	324.03	22.91	
2025-01-18 10:02:41.09	323.97	22.92	
2025-01-18 10:02:41.29	323.91	22.93	
2025-01-18 10:02:41.50	323.84	22.94	
2025-01-18 10:02:41.70	323.78	22.95	
2025-01-18 10:02:41.90	323.72	22.96	
2025-01-18 10:02:42.11	323.65	22.96	
2025-01-18 10:02:42.31	323.59	22.97	
2025-01-18 10:02:42.51	323.53	22.98	
2025-01-18 10:02:42.72	323.46	22.99	
2025-01-18 10:02:42.92	323.40	23.00	
2025-01-18 10:02:43.12	323.34	23.01	
2025-01-18 10:02:43.32	323.28	23.02	
2025-01-18 10:02:43.53	323.21	23.02	
2025-01-18 10:02:43.73	323.15	23.03	
2025-01-18 10:02:43.93	323.09	23.04	
2025-01-18 10:02:44.14	323.02	23.05	
2025-01-18 10:02:44.34	322.96	23.06	
2025-01-18 10:02:44.54	322.89	23.07	
2025-01-18 10:02:44.74	322.83	23.07	
2025-01-18 10:02:44.95	322.77	23.08	
2025-01-18 10:02:45.15	322.70	23.09	
2025-01-18 10:02:45.35	322.64	23.10	
2025-01-18 10:02:45.56	322.57	23.11	
2025-01-18 10:02:45.76	322.51	23.11	
2025-01-18 10:02:45.96	322.45	23.12	
2025-01-18 10:02:46.17	322.38	23.13	
2025-01-18 10:02:46.37	322.32	23.14	
2025-01-18 10:02:46.57	322.26	23.15	
2025-01-18 10:02:46.77	322.19	23.15	
2025-01-18 10:02:46.98	322.13	23.16	
2025-01-18 10:02:47.18	322.06	23.17	
2025-01-18 10:02:47.38	322.00	23.18	
2025-01-18 10:02:47.59	321.94	23.18	
2025-01-18 10:02:47.79	321.87	23.19	
2025-01-18 10:02:47.99	321.81	23.20	
2025-01-18 10:02:48.20	321.74	23.21	
2025-01-18 10:02:48.40	321.68	23.21	
2025-01-18 10:02:48.60	321.62	23.22	
2025-01-18 10:02:48.80	321.55	23.23	
2025-01-18 10:02:49.01	321.49	23.24	
2025-01-18 10:02:49.21	321.42	23.24	
2025-01-18 10:02:49.41	321.36	23.25	
2025-01-18 10:02:49.62	321.29	23.26	
2025-01-18 10:02:49.82	321.23	23.27	
2025-01-18 10:02:50.02	321.17	23.27	
2025-01-18 10:02:50.23	321.10	23.28	
2025-01-18 10:02:50.43	321.04	23.29	
2025-01-18 10:02:50.63	320.97	23.30	
2025-01-18 10:02:50.83	320.91	23.30	
2025-01-18 10:02:51.04	320.84	23.31	
2025-01-18 10:02:51.24	320.78	23.32	
2025-01-18 10:02:51.44	320.71	23.32	
2025-01-18 10:02:51.65	320.65	23.33	
2025-01-18 10:02:51.85	320.58	23.34	
2025-01-18 10:02:52.05	320.52	23.34	
2025-01-18 10:02:52.26	320.45	23.35	
2025-01-18 10:02:52.46	320.39	23.36	
2025-01-18 10:02:52.66	320.32	23.37	
2025-01-18 10:02:52.86	320.26	23.37	
2025-01-18 10:02:53.07	320.19	23.38	
2025-01-18 10:02:53.27	320.13	23.39	
2025-01-18 10:02:53.47	320.07	23.39	
2025-01-18 10:02:53.68	320.00	23.40	
2025-01-18 10:02:53.88	319.93	23.41	
2025-01-18 10:02:54.08	319.87	23.41	
2025-01-18 10:02:54.29	319.80	23.42	
2025-01-18 10:02:54.49	319.74	23.42	
2025-01-18 10:02:54.69	319.67	23.43	
2025-01-18 10:02:54.89	319.61	23.44	
2025-01-18 10:02:55.10	319.54	23.44	
2025-01-18 10:02:55.30	319.48	23.45	
2025-01-18 10:02:55.50	319.41	23.46	
2025-01-18 10:02:55.71	319.35	23.46	
2025-01-18 10:02:55.91	319.28	23.47	
2025-01-18 10:02:56.11	319.22	23.48	
2025-01-18 10:02:56.32	319.15	23.48	
2025-01-18 10:02:56.52	319.09	23.49	
2025-01-18 10:02:56.72	319.02	23.49	
2025-01-18 10:02:56.92	318.96	23.50	
2025-01-18 10:02:57.13	318.89	23.51	
2025-01-18 10:02:57.33	318.82	23.51	
2025-01-18 10:02:57.53	318.76	23.52	
2025-01-18 10:02:57.74	318.69	23.52	
2025-01-18 10:02:57.94	318.63	23.53	
2025-01-18 10:02:58.14	318.56	23.53	
2025-01-18 10:02:58.35	318.49	23.54	
2025-01-18 10:02:58.55	318.43	23.55	
2025-01-18 10:02:58.75	318.36	23.55	
2025-01-18 10:02:58.95	318.30	23.56	
2025-01-18 10:02:59.16	318.23	23.56	
2025-01-18 10:02:59.36	318.17	23.57	
2025-01-18 10:02:59.56	318.10	23.57	
2025-01-18 10:02:59.77	318.03	23.58	
2025-01-18 10:02:59.97	317.97	23.59	
2025-01-18 10:03:00.17	317.90	23.59	
2025-01-18 10:03:00.37	317.84	23.60	
2025-01-18 10:03:00.58	317.77	23.60	
2025-01-18 10:03:00.78	317.71	23.61	
2025-01-18 10:03:00.98	317.64	23.61	
2025-01-18 10:03:01.19	317.57	23.62	
2025-01-18 10:03:01.39	317.51	23.62	
2025-01-18 10:03:01.59	317.44	23.63	
2025-01-18 10:03:01.80	317.37	23.63	
2025-01-18 10:03:02.00	317.31	23.64	
2025-01-18 10:03:02.20	317.24	23.64	
2025-01-18 10:03:02.40	317.18	23.65	
2025-01-18 10:03:02.61	317.11	23.65	
2025-01-18 10:03:02.81	317.05	23.66	
2025-01-18 10:03:03.01	316.98	23.66	
2025-01-18 10:03:03.22	316.91	23.67	
2025-01-18 10:03:03.42	316.85	23.67	
2025-01-18 10:03:03.62	316.78	23.68	
2025-01-18 10:03:03.83	316.71	23.68	
2025-01-18 10:03:04.03	316.65	23.69	
2025-01-18 10:03:04.23	316.58	23.69	
2025-01-18 10:03:04.43	316.52	23.70	
2025-01-18 10:03:04.64	316.45	23.70	
2025-01-18 10:03:04.84	316.38	23.71	
2025-01-18 10:03:05.04	316.32	23.71	
2025-01-18 10:03:05.25	316.25	23.71	
2025-01-18 10:03:05.45	316.18	23.72	
2025-01-18 10:03:05.65	316.12	23.72	
2025-01-18 10:03:05.86	316.05	23.73	
2025-01-18 10:03:06.06	315.98	23.73	
2025-01-18 10:03:06.26	315.92	23.74	
2025-01-18 10:03:06.46	315.85	23.74	
2025-01-18 10:03:06.67	315.78	23.74	
2025-01-18 10:03:06.87	315.72	23.75	
2025-01-18 10:03:07.07	315.65	23.75	
2025-01-18 10:03:07.28	315.58	23.76	
2025-01-18 10:03:07.48	315.52	23.76	
2025-01-18 10:03:07.68	315.45	23.76	
2025-01-18 10:03:07.89	315.38	23.77	
2025-01-18 10:03:08.09	315.32	23.77	
2025-01-18 10:03:08.29	315.25	23.78	
2025-01-18 10:03:08.49	315.19	23.78	
2025-01-18 10:03:08.70	315.12	23.78	
2025-01-18 10:03:08.90	315.05	23.79	
2025-01-18 10:03:09.10	314.99	23.79	
2025-01-18 10:03:09.31	314.92	23.80	
2025-01-18 10:03:09.51	314.85	23.80	
2025-01-18 10:03:09.71	314.78	23.80	
2025-01-18 10:03:09.92	314.72	23.81	
2025-01-18 10:03:10.12	314.65	23.81	
2025-01-18 10:03:10.32	314.58	23.81	
2025-01-18 10:03:10.52	314.52	23.82	
2025-01-18 10:03:10.73	314.45	23.82	
2025-01-18 10:03:10.93	314.38	23.82	
2025-01-18 10:03:11.13	314.32	23.83	
2025-01-18 10:03:11.34	314.25	23.83	
2025-01-18 10:03:11.54	314.18	23.83	
2025-01-18 10:03:11.74	314.12	23.84	
2025-01-18 10:03:11.95	314.05	23.84	
2025-01-18 10:03:12.15	313.98	23.84	
2025-01-18 10:03:12.35	313.91	23.85	
2025-01-18 10:03:12.55	313.85	23.85	
2025-01-18 10:03:12.76	313.78	23.85	
2025-01-18 10:03:12.96	313.71	23.85	
2025-01-18 10:03:13.16	313.65	23.86	
2025-01-18 10:03:13.37	313.58	23.86	
2025-01-18 10:03:13.57	313.51	23.86	
2025-01-18 10:03:13.77	313.44	23.87	
2025-01-18 10:03:13.98	313.38	23.87	
2025-01-18 10:03:14.18	313.31	23.87	
2025-01-18 10:03:14.38	313.24	23.87	
2025-01-18 10:03:14.58	313.18	23.88	
2025-01-18 10:03:14.79	313.11	23.88	
2025-01-18 10:03:14.99	313.04	23.88	
2025-01-18 10:03:15.19	312.97	23.88	
2025-01-18 10:03:15.40	312.91	23.89	
2025-01-18 10:03:15.60	312.84	23.89	
2025-01-18 10:03:15.80	312.77	23.89	
2025-01-18 10:03:16.00	312.71	23.89	
2025-01-18 10:03:16.21	312.64	23.90	
2025-01-18 10:03:16.41	312.57	23.90	
2025-01-18 10:03:16.61	312.50	23.90	
2025-01-18 10:03:16.82	312.43	23.90	
2025-01-18 10:03:17.02	312.37	23.90	
2025-01-18 10:03:17.22	312.30	23.91	
2025-01-18 10:03:17.43	312.23	23.91	
2025-01-18 10:03:17.63	312.17	23.91	
2025-01-18 10:03:17.83	312.10	23.91	
2025-01-18 10:03:18.03	312.03	23.91	
2025-01-18 10:03:18.24	311.96	23.92	
2025-01-18 10:03:18.44	311.90	23.92	
2025-01-18 10:03:18.64	311.83	23.92	
2025-01-18 10:03:18.85	311.76	23.92	
2025-01-18 10:03:19.05	311.69	23.92	
2025-01-18 10:03:19.25	311.63	23.93	
2025-01-18 10:03:19.46	311.56	23.93	
2025-01-18 10:03:19.66	311.49	23.93	
2025-01-18 10:03:19.86	311.43	23.93	
2025-01-18 10:03:20.06	311.36	23.93	
2025-01-18 10:03:20.27	311.29	23.93	
2025-01-18 10:03:20.47	311.22	23.93	
2025-01-18 10:03:20.67	311.16	23.94	
2025-01-18 10:03:20.88	311.09	23.94	
2025-01-18 10:03:21.08	311.02	23.94	
2025-01-18 10:03:21.28	310.95	23.94	
2025-01-18 10:03:21.49	310.88	23.94	
2025-01-18 10:03:21.69	310.82	23.94	
2025-01-18 10:03:21.89	310.75	23.94	
2025-01-18 10:03:22.09	310.68	23.94	
2025-01-18 10:03:22.30	310.61	23.95	
2025-01-18 10:03:22.50	310.55	23.95	
2025-01-18 10:03:22.70	310.48	23.95	
2025-01-18 10:03:22.91	310.41	23.95	
2025-01-18 10:03:23.11	310.35	23.95	
2025-01-18 10:03:23.31	310.28	23.95	
2025-01-18 10:03:23.52	310.21	23.95	
2025-01-18 10:03:23.72	310.14	23.95	
2025-01-18 10:03:23.92	310.08	23.95	
2025-01-18 10:03:24.12	310.01	23.95	
2025-01-18 10:03:24.33	309.94	23.95	
2025-01-18 10:03:24.53	309.87	23.95	
2025-01-18 10:03:24.73	309.81	23.95	
2025-01-18 10:03:24.94	309.74	23.96	
2025-01-18 10:03:25.14	309.67	23.96	
2025-01-18 10:03:25.34	309.60	23.96	
2025-01-18 10:03:25.55	309.53	23.96	
2025-01-18 10:03:25.75	309.47	23.96	
2025-01-18 10:03:25.95	309.40	23.96	
2025-01-18 10:03:26.15	309.33	23.96	
2025-01-18 10:03:26.36	309.26	23.96	
2025-01-18 10:03:26.56	309.20	23.96	
2025-01-18 10:03:26.76	309.13	23.96	
2025-01-18 10:03:26.97	309.06	23.96	
2025-01-18 10:03:27.17	308.99	23.96	
2025-01-18 10:03:27.37	308.93	23.96	
2025-01-18 10:03:27.58	308.86	23.96	
2025-01-18 10:03:27.78	308.79	23.96	
2025-01-18 10:03:27.98	308.72	23.96	
2025-01-18 10:03:28.18	308.66	23.96	
2025-01-18 10:03:28.39	308.59	23.96	
2025-01-18 10:03:28.59	308.52	23.96	
2025-01-18 10:03:28.79	308.46	23.96	
2025-01-18 10:03:29.00	308.39	23.96	
2025-01-18 10:03:29.20	308.32	23.96	
2025-01-18 10:03:29.40	308.25	23.96	
2025-01-18 10:03:29.60	308.19	23.96	
2025-01-18 10:03:29.81	308.12	23.96	
2025-01-18 10:03:30.01	308.05	23.95	
2025-01-18 10:03:30.21	307.98	23.95	
2025-01-18 10:03:30.42	307.91	23.95	
2025-01-18 10:03:30.62	307.85	23.95	
2025-01-18 10:03:30.82	307.78	23.95	
2025-01-18 10:03:31.03	307.71	23.95	
2025-01-18 10:03:31.23	307.64	23.95	
2025-01-18 10:03:31.43	307.58	23.95	
2025-01-18 10:03:31.63	307.51	23.95	
2025-01-18 10:03:31.84	307.44	23.95	
2025-01-18 10:03:32.04	307.37	23.95	
2025-01-18 10:03:32.24	307.31	23.95	
2025-01-18 10:03:32.45	307.24	23.94	
2025-01-18 10:03:32.65	307.17	23.94	
2025-01-18 10:03:32.85	307.10	23.94	
2025-01-18 10:03:33.06	307.03	23.94	
2025-01-18 10:03:33.26	306.97	23.94	
2025-01-18 10:03:33.46	306.90	23.94	
2025-01-18 10:03:33.66	306.83	23.94	
2025-01-18 10:03:33.87	306.77	23.94	
2025-01-18 10:03:34.07	306.70	23.94	
2025-01-18 10:03:34.27	306.63	23.93	
2025-01-18 10:03:34.48	306.56	23.93	
2025-01-18 10:03:34.68	306.50	23.93	
2025-01-18 10:03:34.88	306.43	23.93	
2025-01-18 10:03:35.09	306.36	23.93	
2025-01-18 10:03:35.29	306.29	23.93	
2025-01-18 10:03:35.49	306.23	23.92	
2025-01-18 10:03:35.69	306.16	23.92	
2025-01-18 10:03:35.90	306.09	23.92	
2025-01-18 10:03:36.10	306.02	23.92	
2025-01-18 10:03:36.30	305.96	23.92	
2025-01-18 10:03:36.51	305.89	23.92	
2025-01-18 10:03:36.71	305.82	23.91	
2025-01-18 10:03:36.91	305.76	23.91	
2025-01-18 10:03:37.12	305.69	23.91	
2025-01-18 10:03:37.32	305.62	23.91	
2025-01-18 10:03:37.52	305.55	23.91	
2025-01-18 10:03:37.72	305.49	23.90	
2025-01-18 10:03:37.93	305.42	23.90	
2025-01-18 10:03:38.13	305.35	23.90	
2025-01-18 10:03:38.33	305.28	23.90	
2025-01-18 10:03:38.54	305.21	23.89	
2025-01-18 10:03:38.74	305.15	23.89	
2025-01-18 10:03:38.94	305.08	23.89	
2025-01-18 10:03:39.15	305.01	23.89	
2025-01-18 10:03:39.35	304.95	23.89	
2025-01-18 10:03:39.55	304.88	23.88	
2025-01-18 10:03:39.75	304.81	23.88	
2025-01-18 10:03:39.96	304.74	23.88	
2025-01-18 10:03:40.16	304.68	23.88	
2025-01-18 10:03:40.36	304.61	23.87	
2025-01-18 10:03:40.57	304.54	23.87	
2025-01-18 10:03:40.77	304.48	23.87	
2025-01-18 10:03:40.97	304.41	23.86	
2025-01-18 10:03:41.17	304.34	23.86	
2025-01-18 10:03:41.38	304.27	23.86	
2025-01-18 10:03:41.58	304.21	23.86	
2025-01-18 10:03:41.78	304.14	23.85	
2025-01-18 10:03:41.99	304.07	23.85	
2025-01-18 10:03:42.19	304.01	23.85	
2025-01-18 10:03:42.39	303.94	23.84	
2025-01-18 10:03:42.60	303.87	23.84	
2025-01-18 10:03:42.80	303.80	23.84	
2025-01-18 10:03:43.00	303.74	23.83	
2025-01-18 10:03:43.21	303.67	23.83	
2025-01-18 10:03:43.41	303.60	23.83	
2025-01-18 10:03:43.61	303.54	23.83	
2025-01-18 10:03:43.81	303.47	23.82	
2025-01-18 10:03:44.02	303.40	23.82	
2025-01-18 10:03:44.22	303.34	23.82	
2025-01-18 10:03:44.42	303.27	23.81	
2025-01-18 10:03:44.63	303.20	23.81	
2025-01-18 10:03:44.83	303.14	23.80	
2025-01-18 10:03:45.03	303.07	23.80	
2025-01-18 10:03:45.23	303.00	23.80	
2025-01-18 10:03:45.44	302.93	23.79	
2025-01-18 10:03:45.64	302.87	23.79	
2025-01-18 10:03:45.84	302.80	23.79	
2025-01-18 10:03:46.05	302.73	23.78	
2025-01-18 10:03:46.25	302.67	23.78	
2025-01-18 10:03:46.45	302.60	23.78	
2025-01-18 10:03:46.66	302.53	23.77	
2025-01-18 10:03:46.86	302.47	23.77	
2025-01-18 10:03:47.06	302.40	23.76	
2025-01-18 10:03:47.26	302.34	23.76	
2025-01-18 10:03:47.47	302.27	23.76	
2025-01-18 10:03:47.67	302.20	23.75	
2025-01-18 10:03:47.87	302.13	23.75	
2025-01-18 10:03:48.08	302.07	23.74	
2025-01-18 10:03:48.28	302.00	23.74	
2025-01-18 10:03:48.48	301.93	23.73	
2025-01-18 10:03:48.69	301.87	23.73	
2025-01-18 10:03:48.89	301.80	23.73	
2025-01-18 10:03:49.09	301.73	23.72	
2025-01-18 10:03:49.29	301.67	23.72	
2025-01-18 10:03:49.50	301.60	23.71	
2025-01-18 10:03:49.70	301.53	23.71	
