passes_logs/2025/01/18/SPB_Silybum_02/SPB_Silybum_02__20250118_113619_TERRA_rec.log

#Pass ID: 20250118_113619_TERRA
#Satellite: TERRA
#Configuration: TERRA
#Start time: 2025-01-18 11:36:19

#Version: 2.0.20230423
#Station: SPB_Silybum_02
#Location: 30.233357 lon 59.946436 lat
#TLE: 1 25994U 99068A   25017.80257355  .00000903  00000+0  19577-3 0  9994
#TLE: 2 25994  98.0211  80.7437 0003372  66.8373  47.3878 14.60400955334482

#Time	Az	El	Level	Level2	SNR	BER	Gain	Gain2
2025-01-18 11:36:21.84	4.49	4.10	
2025-01-18 11:36:22.04	4.46	4.10	
2025-01-18 11:36:22.24	4.43	4.11	
2025-01-18 11:36:22.44	4.40	4.12	
2025-01-18 11:36:22.65	4.37	4.13	
2025-01-18 11:36:22.85	4.35	4.13	
2025-01-18 11:36:23.05	4.32	4.14	
2025-01-18 11:36:23.26	4.29	4.15	
2025-01-18 11:36:23.46	4.26	4.16	
2025-01-18 11:36:23.66	4.23	4.17	
2025-01-18 11:36:23.87	4.21	4.17	
2025-01-18 11:36:24.07	4.18	4.18	
2025-01-18 11:36:24.27	4.15	4.19	
2025-01-18 11:36:24.47	4.12	4.20	
2025-01-18 11:36:24.68	4.09	4.21	
2025-01-18 11:36:24.88	4.06	4.21	
2025-01-18 11:36:25.08	4.04	4.22	
2025-01-18 11:36:25.29	4.01	4.23	
2025-01-18 11:36:25.49	3.98	4.24	
2025-01-18 11:36:25.69	3.95	4.24	
2025-01-18 11:36:25.90	3.92	4.25	
2025-01-18 11:36:26.10	3.89	4.26	
2025-01-18 11:36:26.30	3.87	4.27	
2025-01-18 11:36:26.50	3.84	4.28	
2025-01-18 11:36:26.71	3.81	4.28	
2025-01-18 11:36:26.91	3.78	4.29	
2025-01-18 11:36:27.11	3.75	4.30	
2025-01-18 11:36:27.32	3.72	4.31	
2025-01-18 11:36:27.52	3.70	4.31	
2025-01-18 11:36:27.72	3.67	4.32	
2025-01-18 11:36:27.93	3.64	4.33	
2025-01-18 11:36:28.13	3.61	4.34	
2025-01-18 11:36:28.33	3.58	4.35	
2025-01-18 11:36:28.53	3.55	4.35	
2025-01-18 11:36:28.74	3.52	4.36	
2025-01-18 11:36:28.94	3.50	4.37	
2025-01-18 11:36:29.14	3.47	4.38	
2025-01-18 11:36:29.35	3.44	4.38	
2025-01-18 11:36:29.55	3.41	4.39	
2025-01-18 11:36:29.75	3.38	4.40	
2025-01-18 11:36:29.96	3.35	4.41	
2025-01-18 11:36:30.16	3.32	4.41	
2025-01-18 11:36:30.36	3.29	4.42	
2025-01-18 11:36:30.56	3.27	4.43	
2025-01-18 11:36:30.77	3.24	4.44	
2025-01-18 11:36:30.97	3.21	4.45	
2025-01-18 11:36:31.17	3.18	4.45	
2025-01-18 11:36:31.38	3.15	4.46	
2025-01-18 11:36:31.58	3.12	4.47	
2025-01-18 11:36:31.78	3.09	4.48	
2025-01-18 11:36:31.99	3.06	4.48	
2025-01-18 11:36:32.19	3.04	4.49	
2025-01-18 11:36:32.39	3.01	4.50	
2025-01-18 11:36:32.59	2.98	4.51	
2025-01-18 11:36:32.80	2.95	4.51	
2025-01-18 11:36:33.00	2.92	4.52	
2025-01-18 11:36:33.20	2.89	4.53	
2025-01-18 11:36:33.41	2.86	4.54	
2025-01-18 11:36:33.61	2.83	4.55	
2025-01-18 11:36:33.81	2.80	4.55	
2025-01-18 11:36:34.02	2.77	4.56	
2025-01-18 11:36:34.22	2.75	4.57	
2025-01-18 11:36:34.42	2.72	4.58	
2025-01-18 11:36:34.62	2.69	4.58	
2025-01-18 11:36:34.83	2.66	4.59	
2025-01-18 11:36:35.03	2.63	4.60	
2025-01-18 11:36:35.23	2.60	4.61	
2025-01-18 11:36:35.44	2.57	4.61	
2025-01-18 11:36:35.64	2.54	4.62	
2025-01-18 11:36:35.84	2.51	4.63	
2025-01-18 11:36:36.04	2.48	4.64	
2025-01-18 11:36:36.25	2.45	4.64	
2025-01-18 11:36:36.45	2.43	4.65	
2025-01-18 11:36:36.65	2.40	4.66	
2025-01-18 11:36:36.86	2.37	4.67	
2025-01-18 11:36:37.06	2.34	4.67	
2025-01-18 11:36:37.26	2.31	4.68	
2025-01-18 11:36:37.47	2.28	4.69	
2025-01-18 11:36:37.67	2.25	4.70	
2025-01-18 11:36:37.87	2.22	4.70	
2025-01-18 11:36:38.07	2.19	4.71	
2025-01-18 11:36:38.28	2.16	4.72	
2025-01-18 11:36:38.48	2.13	4.73	
2025-01-18 11:36:38.68	2.10	4.74	
2025-01-18 11:36:38.89	2.07	4.74	
2025-01-18 11:36:39.09	2.04	4.75	
2025-01-18 11:36:39.29	2.01	4.76	
2025-01-18 11:36:39.50	1.98	4.77	
2025-01-18 11:36:39.70	1.95	4.77	
2025-01-18 11:36:39.90	1.93	4.78	
2025-01-18 11:36:40.10	1.90	4.79	
2025-01-18 11:36:40.31	1.87	4.80	
2025-01-18 11:36:40.51	1.84	4.80	
2025-01-18 11:36:40.71	1.81	4.81	
2025-01-18 11:36:40.92	1.78	4.82	
2025-01-18 11:36:41.12	1.75	4.83	
2025-01-18 11:36:41.32	1.72	4.83	
2025-01-18 11:36:41.53	1.69	4.84	
2025-01-18 11:36:41.73	1.66	4.85	
2025-01-18 11:36:41.93	1.63	4.86	
2025-01-18 11:36:42.13	1.60	4.86	
2025-01-18 11:36:42.34	1.57	4.87	
2025-01-18 11:36:42.54	1.54	4.88	
2025-01-18 11:36:42.74	1.51	4.89	
2025-01-18 11:36:42.95	1.48	4.89	
2025-01-18 11:36:43.15	1.45	4.90	
2025-01-18 11:36:43.35	1.42	4.91	
2025-01-18 11:36:43.56	1.39	4.92	
2025-01-18 11:36:43.76	1.36	4.92	
2025-01-18 11:36:43.96	1.33	4.93	
2025-01-18 11:36:44.16	1.30	4.94	
2025-01-18 11:36:44.37	1.27	4.94	
2025-01-18 11:36:44.57	1.24	4.95	
2025-01-18 11:36:44.77	1.21	4.96	
2025-01-18 11:36:44.98	1.18	4.97	
2025-01-18 11:36:45.18	1.15	4.97	
2025-01-18 11:36:45.38	1.12	4.98	
2025-01-18 11:36:45.59	1.09	4.99	
2025-01-18 11:36:45.79	1.06	5.00	
2025-01-18 11:36:45.99	1.03	5.00	
2025-01-18 11:36:46.19	1.00	5.01	
2025-01-18 11:36:46.40	0.97	5.02	
2025-01-18 11:36:46.60	0.94	5.03	
2025-01-18 11:36:46.80	0.91	5.03	
2025-01-18 11:36:47.01	0.88	5.04	
2025-01-18 11:36:47.21	0.85	5.05	
2025-01-18 11:36:47.41	0.82	5.06	
2025-01-18 11:36:47.62	0.79	5.06	
2025-01-18 11:36:47.82	0.76	5.07	
2025-01-18 11:36:48.02	0.73	5.08	
2025-01-18 11:36:48.22	0.70	5.08	
2025-01-18 11:36:48.43	0.67	5.09	
2025-01-18 11:36:48.63	0.64	5.10	
2025-01-18 11:36:48.83	0.61	5.11	
2025-01-18 11:36:49.04	0.58	5.11	
2025-01-18 11:36:49.24	0.55	5.12	
2025-01-18 11:36:49.44	0.52	5.13	
2025-01-18 11:36:49.65	0.49	5.14	
2025-01-18 11:36:49.85	0.46	5.14	
2025-01-18 11:36:50.05	0.43	5.15	
2025-01-18 11:36:50.25	0.40	5.16	
2025-01-18 11:36:50.46	0.37	5.17	
2025-01-18 11:36:50.66	0.34	5.17	
2025-01-18 11:36:50.86	0.31	5.18	
2025-01-18 11:36:51.07	0.27	5.19	
2025-01-18 11:36:51.27	0.24	5.19	
2025-01-18 11:36:51.47	0.21	5.20	
2025-01-18 11:36:51.67	0.18	5.21	
2025-01-18 11:36:51.88	0.15	5.22	
2025-01-18 11:36:52.08	0.12	5.22	
2025-01-18 11:36:52.28	0.09	5.23	
2025-01-18 11:36:52.49	0.06	5.24	
2025-01-18 11:36:52.69	0.03	5.25	
2025-01-18 11:36:52.89	0.00	5.25	
2025-01-18 11:36:53.10	359.97	5.26	
2025-01-18 11:36:53.30	359.94	5.27	
2025-01-18 11:36:53.50	359.91	5.27	
2025-01-18 11:36:53.70	359.88	5.28	
2025-01-18 11:36:53.91	359.85	5.29	
2025-01-18 11:36:54.11	359.82	5.30	
2025-01-18 11:36:54.31	359.79	5.30	
2025-01-18 11:36:54.52	359.75	5.31	
2025-01-18 11:36:54.72	359.72	5.32	
2025-01-18 11:36:54.92	359.69	5.32	
2025-01-18 11:36:55.13	359.66	5.33	
2025-01-18 11:36:55.33	359.63	5.34	
2025-01-18 11:36:55.53	359.60	5.35	
2025-01-18 11:36:55.73	359.57	5.35	
2025-01-18 11:36:55.94	359.54	5.36	
2025-01-18 11:36:56.14	359.51	5.37	
2025-01-18 11:36:56.34	359.48	5.37	
2025-01-18 11:36:56.55	359.45	5.38	
2025-01-18 11:36:56.75	359.42	5.39	
2025-01-18 11:36:56.95	359.38	5.40	
2025-01-18 11:36:57.16	359.35	5.40	
2025-01-18 11:36:57.36	359.32	5.41	
2025-01-18 11:36:57.56	359.29	5.42	
2025-01-18 11:36:57.76	359.26	5.42	
2025-01-18 11:36:57.97	359.23	5.43	
2025-01-18 11:36:58.17	359.20	5.44	
2025-01-18 11:36:58.37	359.17	5.45	
2025-01-18 11:36:58.58	359.14	5.45	
2025-01-18 11:36:58.78	359.11	5.46	
2025-01-18 11:36:58.98	359.07	5.47	
2025-01-18 11:36:59.19	359.04	5.47	
2025-01-18 11:36:59.39	359.01	5.48	
2025-01-18 11:36:59.59	358.98	5.49	
2025-01-18 11:36:59.79	358.95	5.49	
2025-01-18 11:37:00.00	358.92	5.50	
2025-01-18 11:37:00.20	358.89	5.51	
2025-01-18 11:37:00.40	358.86	5.52	
2025-01-18 11:37:00.61	358.82	5.52	
2025-01-18 11:37:00.81	358.79	5.53	
2025-01-18 11:37:01.01	358.76	5.54	
2025-01-18 11:37:01.22	358.73	5.54	
2025-01-18 11:37:01.42	358.70	5.55	
2025-01-18 11:37:01.62	358.67	5.56	
2025-01-18 11:37:01.82	358.64	5.57	
2025-01-18 11:37:02.03	358.61	5.57	
2025-01-18 11:37:02.23	358.57	5.58	
2025-01-18 11:37:02.43	358.54	5.59	
2025-01-18 11:37:02.64	358.51	5.59	
2025-01-18 11:37:02.84	358.48	5.60	
2025-01-18 11:37:03.04	358.45	5.61	
2025-01-18 11:37:03.25	358.42	5.61	
2025-01-18 11:37:03.45	358.39	5.62	
2025-01-18 11:37:03.65	358.35	5.63	
2025-01-18 11:37:03.85	358.32	5.63	
2025-01-18 11:37:04.06	358.29	5.64	
2025-01-18 11:37:04.26	358.26	5.65	
2025-01-18 11:37:04.46	358.23	5.66	
2025-01-18 11:37:04.67	358.20	5.66	
2025-01-18 11:37:04.87	358.16	5.67	
2025-01-18 11:37:05.07	358.13	5.68	
2025-01-18 11:37:05.28	358.10	5.68	
2025-01-18 11:37:05.48	358.07	5.69	
2025-01-18 11:37:05.68	358.04	5.70	
2025-01-18 11:37:05.88	358.01	5.70	
2025-01-18 11:37:06.09	357.97	5.71	
2025-01-18 11:37:06.29	357.94	5.72	
2025-01-18 11:37:06.49	357.91	5.72	
2025-01-18 11:37:06.70	357.88	5.73	
2025-01-18 11:37:06.90	357.85	5.74	
2025-01-18 11:37:07.10	357.82	5.75	
2025-01-18 11:37:07.30	357.78	5.75	
2025-01-18 11:37:07.51	357.75	5.76	
2025-01-18 11:37:07.71	357.72	5.77	
2025-01-18 11:37:07.91	357.69	5.77	
2025-01-18 11:37:08.12	357.66	5.78	
2025-01-18 11:37:08.32	357.62	5.79	
2025-01-18 11:37:08.52	357.59	5.79	
2025-01-18 11:37:08.73	357.56	5.80	
2025-01-18 11:37:08.93	357.53	5.81	
2025-01-18 11:37:09.13	357.50	5.81	
2025-01-18 11:37:09.33	357.47	5.82	
2025-01-18 11:37:09.54	357.43	5.83	
2025-01-18 11:37:09.74	357.40	5.83	
2025-01-18 11:37:09.94	357.37	5.84	
2025-01-18 11:37:10.15	357.34	5.85	
2025-01-18 11:37:10.35	357.31	5.85	
2025-01-18 11:37:10.55	357.27	5.86	
2025-01-18 11:37:10.76	357.24	5.87	
2025-01-18 11:37:10.96	357.21	5.87	
2025-01-18 11:37:11.16	357.18	5.88	
2025-01-18 11:37:11.36	357.15	5.89	
2025-01-18 11:37:11.57	357.11	5.89	
2025-01-18 11:37:11.77	357.08	5.90	
2025-01-18 11:37:11.97	357.05	5.91	
2025-01-18 11:37:12.18	357.02	5.91	
2025-01-18 11:37:12.38	356.98	5.92	
2025-01-18 11:37:12.58	356.95	5.93	
2025-01-18 11:37:12.79	356.92	5.93	
2025-01-18 11:37:12.99	356.89	5.94	
2025-01-18 11:37:13.19	356.85	5.95	
2025-01-18 11:37:13.39	356.82	5.95	
2025-01-18 11:37:13.60	356.79	5.96	
2025-01-18 11:37:13.80	356.76	5.97	
2025-01-18 11:37:14.00	356.73	5.97	
2025-01-18 11:37:14.21	356.69	5.98	
2025-01-18 11:37:14.41	356.66	5.99	
2025-01-18 11:37:14.61	356.63	5.99	
2025-01-18 11:37:14.82	356.60	6.00	
2025-01-18 11:37:15.02	356.56	6.01	
2025-01-18 11:37:15.22	356.53	6.01	
2025-01-18 11:37:15.42	356.50	6.02	
2025-01-18 11:37:15.63	356.47	6.03	
2025-01-18 11:37:15.83	356.43	6.03	
2025-01-18 11:37:16.03	356.40	6.04	
2025-01-18 11:37:16.24	356.37	6.05	
2025-01-18 11:37:16.44	356.34	6.05	
2025-01-18 11:37:16.64	356.30	6.06	
2025-01-18 11:37:16.85	356.27	6.07	
2025-01-18 11:37:17.05	356.24	6.07	
2025-01-18 11:37:17.25	356.21	6.08	
2025-01-18 11:37:17.45	356.17	6.09	
2025-01-18 11:37:17.66	356.14	6.09	
2025-01-18 11:37:17.86	356.11	6.10	
2025-01-18 11:37:18.06	356.08	6.11	
2025-01-18 11:37:18.27	356.04	6.11	
2025-01-18 11:37:18.47	356.01	6.12	
2025-01-18 11:37:18.67	355.98	6.13	
2025-01-18 11:37:18.88	355.94	6.13	
2025-01-18 11:37:19.08	355.91	6.14	
2025-01-18 11:37:19.28	355.88	6.15	
2025-01-18 11:37:19.48	355.85	6.15	
2025-01-18 11:37:19.69	355.81	6.16	
2025-01-18 11:37:19.89	355.78	6.16	
2025-01-18 11:37:20.09	355.75	6.17	
2025-01-18 11:37:20.30	355.71	6.18	
2025-01-18 11:37:20.50	355.68	6.18	
2025-01-18 11:37:20.70	355.65	6.19	
2025-01-18 11:37:20.90	355.62	6.20	
2025-01-18 11:37:21.11	355.58	6.20	
2025-01-18 11:37:21.31	355.55	6.21	
2025-01-18 11:37:21.51	355.52	6.22	
2025-01-18 11:37:21.72	355.48	6.22	
2025-01-18 11:37:21.92	355.45	6.23	
2025-01-18 11:37:22.12	355.42	6.24	
2025-01-18 11:37:22.33	355.38	6.24	
2025-01-18 11:37:22.53	355.35	6.25	
2025-01-18 11:37:22.73	355.32	6.25	
2025-01-18 11:37:22.93	355.29	6.26	
2025-01-18 11:37:23.14	355.25	6.27	
2025-01-18 11:37:23.34	355.22	6.27	
2025-01-18 11:37:23.54	355.19	6.28	
2025-01-18 11:37:23.75	355.15	6.29	
2025-01-18 11:37:23.95	355.12	6.29	
2025-01-18 11:37:24.15	355.09	6.30	
2025-01-18 11:37:24.36	355.05	6.31	
2025-01-18 11:37:24.56	355.02	6.31	
2025-01-18 11:37:24.76	354.99	6.32	
2025-01-18 11:37:24.96	354.96	6.32	
2025-01-18 11:37:25.17	354.92	6.33	
2025-01-18 11:37:25.37	354.89	6.34	
2025-01-18 11:37:25.57	354.86	6.34	
2025-01-18 11:37:25.78	354.82	6.35	
2025-01-18 11:37:25.98	354.79	6.36	
2025-01-18 11:37:26.18	354.76	6.36	
2025-01-18 11:37:26.39	354.72	6.37	
2025-01-18 11:37:26.59	354.69	6.37	
2025-01-18 11:37:26.79	354.66	6.38	
2025-01-18 11:37:26.99	354.62	6.39	
2025-01-18 11:37:27.20	354.59	6.39	
2025-01-18 11:37:27.40	354.55	6.40	
2025-01-18 11:37:27.60	354.52	6.41	
2025-01-18 11:37:27.81	354.49	6.41	
2025-01-18 11:37:28.01	354.45	6.42	
2025-01-18 11:37:28.21	354.42	6.42	
2025-01-18 11:37:28.42	354.39	6.43	
2025-01-18 11:37:28.62	354.35	6.44	
2025-01-18 11:37:28.82	354.32	6.44	
2025-01-18 11:37:29.02	354.29	6.45	
2025-01-18 11:37:29.23	354.25	6.46	
2025-01-18 11:37:29.43	354.22	6.46	
2025-01-18 11:37:29.63	354.19	6.47	
2025-01-18 11:37:29.84	354.15	6.47	
2025-01-18 11:37:30.04	354.12	6.48	
2025-01-18 11:37:30.24	354.09	6.49	
2025-01-18 11:37:30.45	354.05	6.49	
2025-01-18 11:37:30.65	354.02	6.50	
2025-01-18 11:37:30.85	353.98	6.50	
2025-01-18 11:37:31.05	353.95	6.51	
2025-01-18 11:37:31.26	353.92	6.52	
2025-01-18 11:37:31.46	353.88	6.52	
2025-01-18 11:37:31.66	353.85	6.53	
2025-01-18 11:37:31.87	353.82	6.53	
2025-01-18 11:37:32.07	353.78	6.54	
2025-01-18 11:37:32.27	353.75	6.55	
2025-01-18 11:37:32.48	353.71	6.55	
2025-01-18 11:37:32.68	353.68	6.56	
2025-01-18 11:37:32.88	353.65	6.57	
2025-01-18 11:37:33.08	353.61	6.57	
2025-01-18 11:37:33.29	353.58	6.58	
2025-01-18 11:37:33.49	353.55	6.58	
2025-01-18 11:37:33.69	353.51	6.59	
2025-01-18 11:37:33.90	353.48	6.60	
2025-01-18 11:37:34.10	353.44	6.60	
2025-01-18 11:37:34.30	353.41	6.61	
2025-01-18 11:37:34.51	353.37	6.61	
2025-01-18 11:37:34.71	353.34	6.62	
2025-01-18 11:37:34.91	353.31	6.62	
2025-01-18 11:37:35.11	353.27	6.63	
2025-01-18 11:37:35.32	353.24	6.64	
2025-01-18 11:37:35.52	353.21	6.64	
2025-01-18 11:37:35.72	353.17	6.65	
2025-01-18 11:37:35.93	353.14	6.65	
2025-01-18 11:37:36.13	353.10	6.66	
2025-01-18 11:37:36.33	353.07	6.67	
2025-01-18 11:37:36.53	353.04	6.67	
2025-01-18 11:37:36.74	353.00	6.68	
2025-01-18 11:37:36.94	352.97	6.68	
2025-01-18 11:37:37.14	352.93	6.69	
2025-01-18 11:37:37.35	352.90	6.70	
2025-01-18 11:37:37.55	352.86	6.70	
2025-01-18 11:37:37.75	352.83	6.71	
2025-01-18 11:37:37.96	352.80	6.71	
2025-01-18 11:37:38.16	352.76	6.72	
2025-01-18 11:37:38.36	352.73	6.73	
2025-01-18 11:37:38.56	352.69	6.73	
2025-01-18 11:37:38.77	352.66	6.74	
2025-01-18 11:37:38.97	352.62	6.74	
2025-01-18 11:37:39.17	352.59	6.75	
2025-01-18 11:37:39.38	352.56	6.75	
2025-01-18 11:37:39.58	352.52	6.76	
2025-01-18 11:37:39.78	352.49	6.77	
2025-01-18 11:37:39.99	352.45	6.77	
2025-01-18 11:37:40.19	352.42	6.78	
2025-01-18 11:37:40.39	352.38	6.78	
2025-01-18 11:37:40.59	352.35	6.79	
2025-01-18 11:37:40.80	352.31	6.79	
2025-01-18 11:37:41.00	352.28	6.80	
2025-01-18 11:37:41.20	352.25	6.81	
2025-01-18 11:37:41.41	352.21	6.81	
2025-01-18 11:37:41.61	352.18	6.82	
2025-01-18 11:37:41.81	352.14	6.82	
2025-01-18 11:37:42.02	352.11	6.83	
2025-01-18 11:37:42.22	352.07	6.83	
2025-01-18 11:37:42.42	352.04	6.84	
2025-01-18 11:37:42.62	352.01	6.85	
2025-01-18 11:37:42.83	351.97	6.85	
2025-01-18 11:37:43.03	351.94	6.86	
2025-01-18 11:37:43.23	351.90	6.86	
2025-01-18 11:37:43.44	351.87	6.87	
2025-01-18 11:37:43.64	351.83	6.87	
2025-01-18 11:37:43.84	351.80	6.88	
2025-01-18 11:37:44.05	351.76	6.89	
2025-01-18 11:37:44.25	351.73	6.89	
2025-01-18 11:37:44.45	351.69	6.90	
2025-01-18 11:37:44.65	351.66	6.90	
2025-01-18 11:37:44.86	351.62	6.91	
2025-01-18 11:37:45.06	351.59	6.91	
2025-01-18 11:37:45.26	351.55	6.92	
2025-01-18 11:37:45.47	351.52	6.92	
2025-01-18 11:37:45.67	351.48	6.93	
2025-01-18 11:37:45.87	351.45	6.94	
2025-01-18 11:37:46.08	351.41	6.94	
2025-01-18 11:37:46.28	351.38	6.95	
2025-01-18 11:37:46.48	351.35	6.95	
2025-01-18 11:37:46.68	351.31	6.96	
2025-01-18 11:37:46.89	351.27	6.96	
2025-01-18 11:37:47.09	351.24	6.97	
2025-01-18 11:37:47.29	351.21	6.97	
2025-01-18 11:37:47.50	351.17	6.98	
2025-01-18 11:37:47.70	351.14	6.99	
2025-01-18 11:37:47.90	351.10	6.99	
2025-01-18 11:37:48.11	351.07	7.00	
2025-01-18 11:37:48.31	351.03	7.00	
2025-01-18 11:37:48.51	351.00	7.01	
2025-01-18 11:37:48.71	350.96	7.01	
2025-01-18 11:37:48.92	350.93	7.02	
2025-01-18 11:37:49.12	350.89	7.02	
2025-01-18 11:37:49.32	350.86	7.03	
2025-01-18 11:37:49.53	350.82	7.03	
2025-01-18 11:37:49.73	350.79	7.04	
2025-01-18 11:37:49.93	350.75	7.04	
2025-01-18 11:37:50.14	350.71	7.05	
2025-01-18 11:37:50.34	350.68	7.06	
2025-01-18 11:37:50.54	350.65	7.06	
2025-01-18 11:37:50.74	350.61	7.07	
2025-01-18 11:37:50.95	350.57	7.07	
2025-01-18 11:37:51.15	350.54	7.08	
2025-01-18 11:37:51.35	350.51	7.08	
2025-01-18 11:37:51.56	350.47	7.09	
2025-01-18 11:37:51.76	350.43	7.09	
2025-01-18 11:37:51.96	350.40	7.10	
2025-01-18 11:37:52.16	350.36	7.10	
2025-01-18 11:37:52.37	350.33	7.11	
2025-01-18 11:37:52.57	350.29	7.11	
2025-01-18 11:37:52.77	350.26	7.12	
2025-01-18 11:37:52.98	350.22	7.12	
2025-01-18 11:37:53.18	350.19	7.13	
2025-01-18 11:37:53.38	350.15	7.14	
2025-01-18 11:37:53.59	350.12	7.14	
2025-01-18 11:37:53.79	350.08	7.15	
2025-01-18 11:37:53.99	350.05	7.15	
2025-01-18 11:37:54.19	350.01	7.16	
2025-01-18 11:37:54.40	349.97	7.16	
2025-01-18 11:37:54.60	349.94	7.17	
2025-01-18 11:37:54.80	349.90	7.17	
2025-01-18 11:37:55.01	349.87	7.18	
2025-01-18 11:37:55.21	349.83	7.18	
2025-01-18 11:37:55.41	349.80	7.19	
2025-01-18 11:37:55.62	349.76	7.19	
2025-01-18 11:37:55.82	349.73	7.20	
2025-01-18 11:37:56.02	349.69	7.20	
2025-01-18 11:37:56.22	349.66	7.21	
2025-01-18 11:37:56.43	349.62	7.21	
2025-01-18 11:37:56.63	349.58	7.22	
2025-01-18 11:37:56.83	349.55	7.22	
2025-01-18 11:37:57.04	349.51	7.23	
2025-01-18 11:37:57.24	349.48	7.23	
2025-01-18 11:37:57.44	349.44	7.24	
2025-01-18 11:37:57.65	349.41	7.24	
2025-01-18 11:37:57.85	349.37	7.25	
2025-01-18 11:37:58.05	349.34	7.25	
2025-01-18 11:37:58.25	349.30	7.26	
2025-01-18 11:37:58.46	349.26	7.26	
2025-01-18 11:37:58.66	349.23	7.27	
2025-01-18 11:37:58.86	349.19	7.27	
2025-01-18 11:37:59.07	349.16	7.28	
2025-01-18 11:37:59.27	349.12	7.28	
2025-01-18 11:37:59.47	349.09	7.29	
2025-01-18 11:37:59.68	349.05	7.29	
2025-01-18 11:37:59.88	349.01	7.30	
2025-01-18 11:38:00.08	348.98	7.30	
2025-01-18 11:38:00.28	348.94	7.31	
2025-01-18 11:38:00.49	348.91	7.31	
2025-01-18 11:38:00.69	348.87	7.32	
2025-01-18 11:38:00.89	348.84	7.32	
2025-01-18 11:38:01.10	348.80	7.33	
2025-01-18 11:38:01.30	348.76	7.33	
2025-01-18 11:38:01.50	348.73	7.34	
2025-01-18 11:38:01.71	348.69	7.34	
2025-01-18 11:38:01.91	348.65	7.35	
2025-01-18 11:38:02.11	348.62	7.35	
2025-01-18 11:38:02.31	348.58	7.36	
2025-01-18 11:38:02.52	348.55	7.36	
2025-01-18 11:38:02.72	348.51	7.37	
2025-01-18 11:38:02.92	348.48	7.37	
2025-01-18 11:38:03.13	348.44	7.38	
2025-01-18 11:38:03.33	348.40	7.38	
2025-01-18 11:38:03.53	348.37	7.39	
2025-01-18 11:38:03.74	348.33	7.39	
2025-01-18 11:38:03.94	348.30	7.40	
2025-01-18 11:38:04.14	348.26	7.40	
2025-01-18 11:38:04.34	348.22	7.41	
2025-01-18 11:38:04.55	348.19	7.41	
2025-01-18 11:38:04.75	348.15	7.42	
2025-01-18 11:38:04.95	348.12	7.42	
2025-01-18 11:38:05.16	348.08	7.42	
2025-01-18 11:38:05.36	348.04	7.43	
2025-01-18 11:38:05.56	348.01	7.43	
2025-01-18 11:38:05.76	347.97	7.44	
2025-01-18 11:38:05.97	347.93	7.44	
2025-01-18 11:38:06.17	347.90	7.45	
2025-01-18 11:38:06.37	347.86	7.45	
2025-01-18 11:38:06.58	347.83	7.46	
2025-01-18 11:38:06.78	347.79	7.46	
2025-01-18 11:38:06.98	347.75	7.47	
2025-01-18 11:38:07.19	347.72	7.47	
2025-01-18 11:38:07.39	347.68	7.48	
2025-01-18 11:38:07.59	347.64	7.48	
2025-01-18 11:38:07.79	347.61	7.49	
2025-01-18 11:38:08.00	347.57	7.49	
2025-01-18 11:38:08.20	347.54	7.49	
2025-01-18 11:38:08.40	347.50	7.50	
2025-01-18 11:38:08.61	347.46	7.50	
2025-01-18 11:38:08.81	347.43	7.51	
2025-01-18 11:38:09.01	347.39	7.51	
2025-01-18 11:38:09.22	347.35	7.52	
2025-01-18 11:38:09.42	347.32	7.52	
2025-01-18 11:38:09.62	347.28	7.53	
2025-01-18 11:38:09.82	347.25	7.53	
2025-01-18 11:38:10.03	347.21	7.54	
2025-01-18 11:38:10.23	347.17	7.54	
2025-01-18 11:38:10.43	347.14	7.54	
2025-01-18 11:38:10.64	347.10	7.55	
2025-01-18 11:38:10.84	347.06	7.55	
2025-01-18 11:38:11.04	347.03	7.56	
2025-01-18 11:38:11.25	346.99	7.56	
2025-01-18 11:38:11.45	346.95	7.57	
2025-01-18 11:38:11.65	346.92	7.57	
2025-01-18 11:38:11.85	346.88	7.58	
2025-01-18 11:38:12.06	346.84	7.58	
2025-01-18 11:38:12.26	346.81	7.58	
2025-01-18 11:38:12.46	346.77	7.59	
2025-01-18 11:38:12.67	346.73	7.59	
2025-01-18 11:38:12.87	346.70	7.60	
2025-01-18 11:38:13.07	346.66	7.60	
2025-01-18 11:38:13.28	346.62	7.61	
2025-01-18 11:38:13.48	346.59	7.61	
2025-01-18 11:38:13.68	346.55	7.62	
2025-01-18 11:38:13.88	346.51	7.62	
2025-01-18 11:38:14.09	346.48	7.62	
2025-01-18 11:38:14.29	346.44	7.63	
2025-01-18 11:38:14.49	346.40	7.63	
2025-01-18 11:38:14.70	346.37	7.64	
2025-01-18 11:38:14.90	346.33	7.64	
2025-01-18 11:38:15.10	346.29	7.65	
2025-01-18 11:38:15.31	346.26	7.65	
2025-01-18 11:38:15.51	346.22	7.65	
2025-01-18 11:38:15.71	346.18	7.66	
2025-01-18 11:38:15.91	346.15	7.66	
2025-01-18 11:38:16.12	346.11	7.67	
2025-01-18 11:38:16.32	346.07	7.67	
2025-01-18 11:38:16.52	346.04	7.68	
2025-01-18 11:38:16.73	346.00	7.68	
2025-01-18 11:38:16.93	345.96	7.68	
2025-01-18 11:38:17.13	345.93	7.69	
2025-01-18 11:38:17.34	345.89	7.69	
2025-01-18 11:38:17.54	345.85	7.70	
2025-01-18 11:38:17.74	345.82	7.70	
2025-01-18 11:38:17.94	345.78	7.70	
2025-01-18 11:38:18.15	345.74	7.71	
2025-01-18 11:38:18.35	345.70	7.71	
2025-01-18 11:38:18.55	345.67	7.72	
2025-01-18 11:38:18.76	345.63	7.72	
2025-01-18 11:38:18.96	345.59	7.72	
2025-01-18 11:38:19.16	345.56	7.73	
2025-01-18 11:38:19.37	345.52	7.73	
2025-01-18 11:38:19.57	345.48	7.74	
2025-01-18 11:38:19.77	345.45	7.74	
2025-01-18 11:38:19.97	345.41	7.75	
2025-01-18 11:38:20.18	345.37	7.75	
2025-01-18 11:38:20.38	345.33	7.75	
2025-01-18 11:38:20.58	345.30	7.76	
2025-01-18 11:38:20.79	345.26	7.76	
2025-01-18 11:38:20.99	345.22	7.77	
2025-01-18 11:38:21.19	345.19	7.77	
2025-01-18 11:38:21.39	345.15	7.77	
2025-01-18 11:38:21.60	345.11	7.78	
2025-01-18 11:38:21.80	345.07	7.78	
2025-01-18 11:38:22.00	345.04	7.79	
2025-01-18 11:38:22.21	345.00	7.79	
2025-01-18 11:38:22.41	344.96	7.79	
2025-01-18 11:38:22.61	344.93	7.80	
2025-01-18 11:38:22.82	344.89	7.80	
2025-01-18 11:38:23.02	344.85	7.80	
2025-01-18 11:38:23.22	344.82	7.81	
2025-01-18 11:38:23.42	344.78	7.81	
2025-01-18 11:38:23.63	344.74	7.82	
2025-01-18 11:38:23.83	344.70	7.82	
2025-01-18 11:38:24.03	344.67	7.82	
2025-01-18 11:38:24.24	344.63	7.83	
2025-01-18 11:38:24.44	344.59	7.83	
2025-01-18 11:38:24.64	344.55	7.84	
2025-01-18 11:38:24.85	344.52	7.84	
2025-01-18 11:38:25.05	344.48	7.84	
2025-01-18 11:38:25.25	344.44	7.85	
2025-01-18 11:38:25.45	344.41	7.85	
2025-01-18 11:38:25.66	344.37	7.85	
2025-01-18 11:38:25.86	344.33	7.86	
2025-01-18 11:38:26.06	344.29	7.86	
2025-01-18 11:38:26.27	344.25	7.87	
2025-01-18 11:38:26.47	344.22	7.87	
2025-01-18 11:38:26.67	344.18	7.87	
2025-01-18 11:38:26.88	344.14	7.88	
2025-01-18 11:38:27.08	344.11	7.88	
2025-01-18 11:38:27.28	344.07	7.88	
2025-01-18 11:38:27.48	344.03	7.89	
2025-01-18 11:38:27.69	343.99	7.89	
2025-01-18 11:38:27.89	343.96	7.90	
2025-01-18 11:38:28.09	343.92	7.90	
2025-01-18 11:38:28.30	343.88	7.90	
2025-01-18 11:38:28.50	343.84	7.91	
2025-01-18 11:38:28.70	343.81	7.91	
2025-01-18 11:38:28.91	343.77	7.91	
2025-01-18 11:38:29.11	343.73	7.92	
2025-01-18 11:38:29.31	343.69	7.92	
2025-01-18 11:38:29.51	343.66	7.92	
2025-01-18 11:38:29.72	343.62	7.93	
2025-01-18 11:38:29.92	343.58	7.93	
2025-01-18 11:38:30.12	343.54	7.93	
2025-01-18 11:38:30.33	343.51	7.94	
2025-01-18 11:38:30.53	343.47	7.94	
2025-01-18 11:38:30.73	343.43	7.95	
2025-01-18 11:38:30.94	343.39	7.95	
2025-01-18 11:38:31.14	343.36	7.95	
2025-01-18 11:38:31.34	343.32	7.96	
2025-01-18 11:38:31.54	343.28	7.96	
2025-01-18 11:38:31.75	343.24	7.96	
2025-01-18 11:38:31.95	343.21	7.97	
2025-01-18 11:38:32.15	343.17	7.97	
2025-01-18 11:38:32.36	343.13	7.97	
2025-01-18 11:38:32.56	343.09	7.98	
2025-01-18 11:38:32.76	343.06	7.98	
2025-01-18 11:38:32.97	343.02	7.98	
2025-01-18 11:38:33.17	342.98	7.99	
2025-01-18 11:38:33.37	342.94	7.99	
2025-01-18 11:38:33.57	342.90	7.99	
2025-01-18 11:38:33.78	342.87	8.00	
2025-01-18 11:38:33.98	342.83	8.00	
2025-01-18 11:38:34.18	342.79	8.00	
2025-01-18 11:38:34.39	342.75	8.01	
2025-01-18 11:38:34.59	342.72	8.01	
2025-01-18 11:38:34.79	342.68	8.01	
2025-01-18 11:38:34.99	342.64	8.02	
2025-01-18 11:38:35.20	342.60	8.02	
2025-01-18 11:38:35.40	342.56	8.02	
2025-01-18 11:38:35.60	342.53	8.03	
2025-01-18 11:38:35.81	342.49	8.03	
2025-01-18 11:38:36.01	342.45	8.03	
2025-01-18 11:38:36.21	342.41	8.04	
2025-01-18 11:38:36.42	342.37	8.04	
2025-01-18 11:38:36.62	342.34	8.04	
2025-01-18 11:38:36.82	342.30	8.05	
2025-01-18 11:38:37.02	342.26	8.05	
2025-01-18 11:38:37.23	342.22	8.05	
2025-01-18 11:38:37.43	342.19	8.06	
2025-01-18 11:38:37.63	342.15	8.06	
2025-01-18 11:38:37.84	342.11	8.06	
2025-01-18 11:38:38.04	342.07	8.06	
2025-01-18 11:38:38.24	342.03	8.07	
2025-01-18 11:38:38.45	342.00	8.07	
2025-01-18 11:38:38.65	341.96	8.07	
2025-01-18 11:38:38.85	341.92	8.08	
2025-01-18 11:38:39.05	341.88	8.08	
2025-01-18 11:38:39.26	341.84	8.08	
2025-01-18 11:38:39.46	341.81	8.09	
2025-01-18 11:38:39.66	341.77	8.09	
2025-01-18 11:38:39.87	341.73	8.09	
2025-01-18 11:38:40.07	341.69	8.10	
2025-01-18 11:38:40.27	341.65	8.10	
2025-01-18 11:38:40.48	341.62	8.10	
2025-01-18 11:38:40.68	341.58	8.10	
2025-01-18 11:38:40.88	341.54	8.11	
2025-01-18 11:38:41.08	341.50	8.11	
2025-01-18 11:38:41.29	341.46	8.11	
2025-01-18 11:38:41.49	341.43	8.12	
2025-01-18 11:38:41.69	341.39	8.12	
2025-01-18 11:38:41.90	341.35	8.12	
2025-01-18 11:38:42.10	341.31	8.12	
2025-01-18 11:38:42.30	341.27	8.13	
2025-01-18 11:38:42.51	341.23	8.13	
2025-01-18 11:38:42.71	341.20	8.13	
2025-01-18 11:38:42.91	341.16	8.14	
2025-01-18 11:38:43.11	341.12	8.14	
2025-01-18 11:38:43.32	341.08	8.14	
2025-01-18 11:38:43.52	341.04	8.14	
2025-01-18 11:38:43.72	341.01	8.15	
2025-01-18 11:38:43.93	340.97	8.15	
2025-01-18 11:38:44.13	340.93	8.15	
2025-01-18 11:38:44.33	340.89	8.16	
2025-01-18 11:38:44.54	340.85	8.16	
2025-01-18 11:38:44.74	340.82	8.16	
2025-01-18 11:38:44.94	340.78	8.16	
2025-01-18 11:38:45.14	340.74	8.17	
2025-01-18 11:38:45.35	340.70	8.17	
2025-01-18 11:38:45.55	340.66	8.17	
2025-01-18 11:38:45.75	340.63	8.18	
2025-01-18 11:38:45.96	340.59	8.18	
2025-01-18 11:38:46.16	340.55	8.18	
2025-01-18 11:38:46.36	340.51	8.18	
2025-01-18 11:38:46.56	340.47	8.19	
2025-01-18 11:38:46.77	340.43	8.19	
2025-01-18 11:38:46.97	340.40	8.19	
2025-01-18 11:38:47.17	340.36	8.19	
2025-01-18 11:38:47.38	340.32	8.20	
2025-01-18 11:38:47.58	340.28	8.20	
2025-01-18 11:38:47.78	340.24	8.20	
2025-01-18 11:38:47.99	340.20	8.20	
2025-01-18 11:38:48.19	340.16	8.21	
2025-01-18 11:38:48.39	340.13	8.21	
2025-01-18 11:38:48.60	340.09	8.21	
2025-01-18 11:38:48.80	340.05	8.21	
2025-01-18 11:38:49.00	340.01	8.22	
2025-01-18 11:38:49.20	339.97	8.22	
2025-01-18 11:38:49.41	339.93	8.22	
2025-01-18 11:38:49.61	339.90	8.22	
2025-01-18 11:38:49.81	339.86	8.23	
2025-01-18 11:38:50.02	339.82	8.23	
2025-01-18 11:38:50.22	339.78	8.23	
2025-01-18 11:38:50.42	339.74	8.23	
2025-01-18 11:38:50.62	339.71	8.24	
2025-01-18 11:38:50.83	339.67	8.24	
2025-01-18 11:38:51.03	339.63	8.24	
2025-01-18 11:38:51.23	339.59	8.24	
2025-01-18 11:38:51.44	339.55	8.25	
2025-01-18 11:38:51.64	339.51	8.25	
2025-01-18 11:38:51.84	339.47	8.25	
2025-01-18 11:38:52.05	339.43	8.25	
2025-01-18 11:38:52.25	339.40	8.26	
2025-01-18 11:38:52.45	339.36	8.26	
2025-01-18 11:38:52.65	339.32	8.26	
2025-01-18 11:38:52.86	339.28	8.26	
2025-01-18 11:38:53.06	339.24	8.27	
2025-01-18 11:38:53.26	339.20	8.27	
2025-01-18 11:38:53.47	339.17	8.27	
2025-01-18 11:38:53.67	339.13	8.27	
2025-01-18 11:38:53.87	339.09	8.27	
2025-01-18 11:38:54.08	339.05	8.28	
2025-01-18 11:38:54.28	339.01	8.28	
2025-01-18 11:38:54.48	338.97	8.28	
2025-01-18 11:38:54.68	338.94	8.28	
2025-01-18 11:38:54.89	338.90	8.29	
2025-01-18 11:38:55.09	338.86	8.29	
2025-01-18 11:38:55.29	338.82	8.29	
2025-01-18 11:38:55.50	338.78	8.29	
2025-01-18 11:38:55.70	338.74	8.29	
2025-01-18 11:38:55.90	338.70	8.30	
2025-01-18 11:38:56.11	338.66	8.30	
2025-01-18 11:38:56.31	338.63	8.30	
2025-01-18 11:38:56.51	338.59	8.30	
2025-01-18 11:38:56.71	338.55	8.31	
2025-01-18 11:38:56.92	338.51	8.31	
2025-01-18 11:38:57.12	338.47	8.31	
2025-01-18 11:38:57.32	338.43	8.31	
2025-01-18 11:38:57.53	338.39	8.31	
2025-01-18 11:38:57.73	338.36	8.32	
2025-01-18 11:38:57.93	338.32	8.32	
2025-01-18 11:38:58.14	338.28	8.32	
2025-01-18 11:38:58.34	338.24	8.32	
2025-01-18 11:38:58.54	338.20	8.32	
2025-01-18 11:38:58.74	338.16	8.33	
2025-01-18 11:38:58.95	338.12	8.33	
2025-01-18 11:38:59.15	338.08	8.33	
2025-01-18 11:38:59.35	338.05	8.33	
2025-01-18 11:38:59.56	338.01	8.33	
2025-01-18 11:38:59.76	337.97	8.34	
2025-01-18 11:38:59.96	337.93	8.34	
2025-01-18 11:39:00.17	337.89	8.34	
2025-01-18 11:39:00.37	337.85	8.34	
2025-01-18 11:39:00.57	337.81	8.34	
2025-01-18 11:39:00.77	337.78	8.35	
2025-01-18 11:39:00.98	337.74	8.35	
2025-01-18 11:39:01.18	337.70	8.35	
2025-01-18 11:39:01.38	337.66	8.35	
2025-01-18 11:39:01.59	337.62	8.35	
2025-01-18 11:39:01.79	337.58	8.35	
2025-01-18 11:39:01.99	337.54	8.36	
2025-01-18 11:39:02.20	337.50	8.36	
2025-01-18 11:39:02.40	337.46	8.36	
2025-01-18 11:39:02.60	337.43	8.36	
2025-01-18 11:39:02.80	337.39	8.36	
2025-01-18 11:39:03.01	337.35	8.37	
2025-01-18 11:39:03.21	337.31	8.37	
2025-01-18 11:39:03.41	337.27	8.37	
2025-01-18 11:39:03.62	337.23	8.37	
2025-01-18 11:39:03.82	337.19	8.37	
2025-01-18 11:39:04.02	337.15	8.37	
2025-01-18 11:39:04.23	337.11	8.38	
2025-01-18 11:39:04.43	337.08	8.38	
2025-01-18 11:39:04.63	337.04	8.38	
2025-01-18 11:39:04.83	337.00	8.38	
2025-01-18 11:39:05.04	336.96	8.38	
2025-01-18 11:39:05.24	336.92	8.38	
2025-01-18 11:39:05.44	336.88	8.39	
2025-01-18 11:39:05.65	336.84	8.39	
2025-01-18 11:39:05.85	336.80	8.39	
2025-01-18 11:39:06.05	336.77	8.39	
2025-01-18 11:39:06.25	336.73	8.39	
2025-01-18 11:39:06.46	336.69	8.39	
2025-01-18 11:39:06.66	336.65	8.39	
2025-01-18 11:39:06.86	336.61	8.40	
2025-01-18 11:39:07.07	336.57	8.40	
2025-01-18 11:39:07.27	336.53	8.40	
2025-01-18 11:39:07.47	336.49	8.40	
2025-01-18 11:39:07.68	336.45	8.40	
2025-01-18 11:39:07.88	336.42	8.40	
2025-01-18 11:39:08.08	336.38	8.41	
2025-01-18 11:39:08.28	336.34	8.41	
2025-01-18 11:39:08.49	336.30	8.41	
2025-01-18 11:39:08.69	336.26	8.41	
2025-01-18 11:39:08.89	336.22	8.41	
2025-01-18 11:39:09.10	336.18	8.41	
2025-01-18 11:39:09.30	336.14	8.41	
2025-01-18 11:39:09.50	336.10	8.42	
2025-01-18 11:39:09.71	336.06	8.42	
2025-01-18 11:39:09.91	336.03	8.42	
2025-01-18 11:39:10.11	335.99	8.42	
2025-01-18 11:39:10.31	335.95	8.42	
2025-01-18 11:39:10.52	335.91	8.42	
2025-01-18 11:39:10.72	335.87	8.42	
2025-01-18 11:39:10.92	335.83	8.42	
2025-01-18 11:39:11.13	335.79	8.43	
2025-01-18 11:39:11.33	335.75	8.43	
2025-01-18 11:39:11.53	335.71	8.43	
2025-01-18 11:39:11.74	335.67	8.43	
2025-01-18 11:39:11.94	335.64	8.43	
2025-01-18 11:39:12.14	335.60	8.43	
2025-01-18 11:39:12.34	335.56	8.43	
2025-01-18 11:39:12.55	335.52	8.43	
2025-01-18 11:39:12.75	335.48	8.44	
2025-01-18 11:39:12.95	335.44	8.44	
2025-01-18 11:39:13.16	335.40	8.44	
2025-01-18 11:39:13.36	335.36	8.44	
2025-01-18 11:39:13.56	335.32	8.44	
2025-01-18 11:39:13.77	335.28	8.44	
2025-01-18 11:39:13.97	335.25	8.44	
2025-01-18 11:39:14.17	335.21	8.44	
2025-01-18 11:39:14.37	335.17	8.45	
2025-01-18 11:39:14.58	335.13	8.45	
2025-01-18 11:39:14.78	335.09	8.45	
2025-01-18 11:39:14.98	335.05	8.45	
2025-01-18 11:39:15.19	335.01	8.45	
2025-01-18 11:39:15.39	334.97	8.45	
2025-01-18 11:39:15.59	334.93	8.45	
2025-01-18 11:39:15.80	334.89	8.45	
2025-01-18 11:39:16.00	334.86	8.45	
2025-01-18 11:39:16.20	334.82	8.45	
2025-01-18 11:39:16.40	334.78	8.46	
2025-01-18 11:39:16.61	334.74	8.46	
2025-01-18 11:39:16.81	334.70	8.46	
2025-01-18 11:39:17.01	334.66	8.46	
2025-01-18 11:39:17.22	334.62	8.46	
2025-01-18 11:39:17.42	334.58	8.46	
2025-01-18 11:39:17.62	334.54	8.46	
2025-01-18 11:39:17.82	334.50	8.46	
2025-01-18 11:39:18.03	334.46	8.46	
2025-01-18 11:39:18.23	334.43	8.46	
2025-01-18 11:39:18.43	334.39	8.46	
2025-01-18 11:39:18.64	334.35	8.47	
2025-01-18 11:39:18.84	334.31	8.47	
2025-01-18 11:39:19.04	334.27	8.47	
2025-01-18 11:39:19.25	334.23	8.47	
2025-01-18 11:39:19.45	334.19	8.47	
2025-01-18 11:39:19.65	334.15	8.47	
2025-01-18 11:39:19.85	334.11	8.47	
2025-01-18 11:39:20.06	334.07	8.47	
2025-01-18 11:39:20.26	334.03	8.47	
2025-01-18 11:39:20.46	334.00	8.47	
2025-01-18 11:39:20.67	333.96	8.47	
2025-01-18 11:39:20.87	333.92	8.47	
2025-01-18 11:39:21.07	333.88	8.47	
2025-01-18 11:39:21.28	333.84	8.48	
2025-01-18 11:39:21.48	333.80	8.48	
2025-01-18 11:39:21.68	333.76	8.48	
2025-01-18 11:39:21.88	333.72	8.48	
2025-01-18 11:39:22.09	333.68	8.48	
2025-01-18 11:39:22.29	333.64	8.48	
2025-01-18 11:39:22.49	333.60	8.48	
2025-01-18 11:39:22.70	333.56	8.48	
2025-01-18 11:39:22.90	333.53	8.48	
2025-01-18 11:39:23.10	333.49	8.48	
2025-01-18 11:39:23.31	333.45	8.48	
2025-01-18 11:39:23.51	333.41	8.48	
2025-01-18 11:39:23.71	333.37	8.48	
2025-01-18 11:39:23.91	333.33	8.48	
2025-01-18 11:39:24.12	333.29	8.48	
2025-01-18 11:39:24.32	333.25	8.48	
2025-01-18 11:39:24.52	333.21	8.49	
2025-01-18 11:39:24.73	333.17	8.49	
2025-01-18 11:39:24.93	333.13	8.49	
2025-01-18 11:39:25.13	333.10	8.49	
2025-01-18 11:39:25.34	333.06	8.49	
2025-01-18 11:39:25.54	333.02	8.49	
2025-01-18 11:39:25.74	332.98	8.49	
2025-01-18 11:39:25.94	332.94	8.49	
2025-01-18 11:39:26.15	332.90	8.49	
2025-01-18 11:39:26.35	332.86	8.49	
2025-01-18 11:39:26.55	332.82	8.49	
2025-01-18 11:39:26.76	332.78	8.49	
2025-01-18 11:39:26.96	332.74	8.49	
2025-01-18 11:39:27.16	332.70	8.49	
2025-01-18 11:39:27.37	332.66	8.49	
2025-01-18 11:39:27.57	332.62	8.49	
2025-01-18 11:39:27.77	332.59	8.49	
2025-01-18 11:39:27.97	332.55	8.49	
2025-01-18 11:39:28.18	332.51	8.49	
2025-01-18 11:39:28.38	332.47	8.49	
2025-01-18 11:39:28.58	332.43	8.49	
2025-01-18 11:39:28.79	332.39	8.49	
2025-01-18 11:39:28.99	332.35	8.49	
2025-01-18 11:39:29.19	332.31	8.49	
2025-01-18 11:39:29.40	332.27	8.49	
2025-01-18 11:39:29.60	332.23	8.49	
2025-01-18 11:39:29.80	332.19	8.49	
2025-01-18 11:39:30.00	332.16	8.49	
2025-01-18 11:39:30.21	332.11	8.49	
2025-01-18 11:39:30.41	332.08	8.49	
2025-01-18 11:39:30.61	332.04	8.49	
2025-01-18 11:39:30.82	332.00	8.49	
2025-01-18 11:39:31.02	331.96	8.50	
2025-01-18 11:39:31.22	331.92	8.50	
2025-01-18 11:39:31.43	331.88	8.50	
2025-01-18 11:39:31.63	331.84	8.50	
2025-01-18 11:39:31.83	331.80	8.50	
2025-01-18 11:39:32.03	331.76	8.50	
2025-01-18 11:39:32.24	331.72	8.50	
2025-01-18 11:39:32.44	331.68	8.50	
2025-01-18 11:39:32.64	331.65	8.50	
2025-01-18 11:39:32.85	331.61	8.50	
2025-01-18 11:39:33.05	331.57	8.50	
2025-01-18 11:39:33.25	331.53	8.50	
2025-01-18 11:39:33.46	331.49	8.50	
2025-01-18 11:39:33.66	331.45	8.50	
2025-01-18 11:39:33.86	331.41	8.50	
2025-01-18 11:39:34.06	331.37	8.50	
2025-01-18 11:39:34.27	331.33	8.50	
2025-01-18 11:39:34.47	331.29	8.50	
2025-01-18 11:39:34.67	331.25	8.50	
2025-01-18 11:39:34.88	331.21	8.50	
2025-01-18 11:39:35.08	331.17	8.50	
2025-01-18 11:39:35.28	331.14	8.49	
2025-01-18 11:39:35.48	331.10	8.49	
2025-01-18 11:39:35.69	331.06	8.49	
2025-01-18 11:39:35.89	331.02	8.49	
2025-01-18 11:39:36.09	330.98	8.49	
2025-01-18 11:39:36.30	330.94	8.49	
2025-01-18 11:39:36.50	330.90	8.49	
2025-01-18 11:39:36.70	330.86	8.49	
2025-01-18 11:39:36.91	330.82	8.49	
2025-01-18 11:39:37.11	330.78	8.49	
2025-01-18 11:39:37.31	330.74	8.49	
2025-01-18 11:39:37.51	330.71	8.49	
2025-01-18 11:39:37.72	330.66	8.49	
2025-01-18 11:39:37.92	330.63	8.49	
2025-01-18 11:39:38.12	330.59	8.49	
2025-01-18 11:39:38.33	330.55	8.49	
2025-01-18 11:39:38.53	330.51	8.49	
2025-01-18 11:39:38.73	330.47	8.49	
2025-01-18 11:39:38.94	330.43	8.49	
2025-01-18 11:39:39.14	330.39	8.49	
2025-01-18 11:39:39.34	330.35	8.49	
2025-01-18 11:39:39.54	330.31	8.49	
2025-01-18 11:39:39.75	330.27	8.49	
2025-01-18 11:39:39.95	330.23	8.49	
2025-01-18 11:39:40.15	330.20	8.49	
2025-01-18 11:39:40.36	330.16	8.49	
2025-01-18 11:39:40.56	330.12	8.49	
2025-01-18 11:39:40.76	330.08	8.49	
2025-01-18 11:39:40.97	330.04	8.49	
2025-01-18 11:39:41.17	330.00	8.49	
2025-01-18 11:39:41.37	329.96	8.49	
2025-01-18 11:39:41.57	329.92	8.49	
2025-01-18 11:39:41.78	329.88	8.48	
2025-01-18 11:39:41.98	329.84	8.48	
2025-01-18 11:39:42.18	329.80	8.48	
2025-01-18 11:39:42.39	329.76	8.48	
2025-01-18 11:39:42.59	329.72	8.48	
2025-01-18 11:39:42.79	329.69	8.48	
2025-01-18 11:39:43.00	329.65	8.48	
2025-01-18 11:39:43.20	329.61	8.48	
2025-01-18 11:39:43.40	329.57	8.48	
2025-01-18 11:39:43.60	329.53	8.48	
2025-01-18 11:39:43.81	329.49	8.48	
2025-01-18 11:39:44.01	329.45	8.48	
2025-01-18 11:39:44.21	329.41	8.48	
2025-01-18 11:39:44.42	329.37	8.48	
2025-01-18 11:39:44.62	329.33	8.48	
2025-01-18 11:39:44.82	329.29	8.48	
2025-01-18 11:39:45.03	329.25	8.48	
2025-01-18 11:39:45.23	329.22	8.47	
2025-01-18 11:39:45.43	329.18	8.47	
2025-01-18 11:39:45.63	329.14	8.47	
2025-01-18 11:39:45.84	329.10	8.47	
2025-01-18 11:39:46.04	329.06	8.47	
2025-01-18 11:39:46.24	329.02	8.47	
2025-01-18 11:39:46.45	328.98	8.47	
2025-01-18 11:39:46.65	328.94	8.47	
2025-01-18 11:39:46.85	328.90	8.47	
2025-01-18 11:39:47.06	328.86	8.47	
2025-01-18 11:39:47.26	328.82	8.47	
2025-01-18 11:39:47.46	328.79	8.47	
2025-01-18 11:39:47.66	328.75	8.46	
2025-01-18 11:39:47.87	328.71	8.46	
2025-01-18 11:39:48.07	328.67	8.46	
2025-01-18 11:39:48.27	328.63	8.46	
2025-01-18 11:39:48.48	328.59	8.46	
2025-01-18 11:39:48.68	328.55	8.46	
2025-01-18 11:39:48.88	328.51	8.46	
2025-01-18 11:39:49.08	328.47	8.46	
2025-01-18 11:39:49.29	328.43	8.46	
2025-01-18 11:39:49.49	328.39	8.46	
2025-01-18 11:39:49.69	328.36	8.46	
2025-01-18 11:39:49.90	328.32	8.45	
2025-01-18 11:39:50.10	328.28	8.45	
2025-01-18 11:39:50.30	328.24	8.45	
2025-01-18 11:39:50.51	328.20	8.45	
2025-01-18 11:39:50.71	328.16	8.45	
2025-01-18 11:39:50.91	328.12	8.45	
2025-01-18 11:39:51.11	328.08	8.45	
2025-01-18 11:39:51.32	328.04	8.45	
2025-01-18 11:39:51.52	328.00	8.45	
2025-01-18 11:39:51.72	327.97	8.45	
2025-01-18 11:39:51.93	327.93	8.44	
2025-01-18 11:39:52.13	327.89	8.44	
2025-01-18 11:39:52.33	327.85	8.44	
2025-01-18 11:39:52.54	327.81	8.44	
2025-01-18 11:39:52.74	327.77	8.44	
2025-01-18 11:39:52.94	327.73	8.44	
2025-01-18 11:39:53.14	327.69	8.44	
2025-01-18 11:39:53.35	327.65	8.44	
2025-01-18 11:39:53.55	327.61	8.44	
2025-01-18 11:39:53.75	327.58	8.43	
2025-01-18 11:39:53.96	327.53	8.43	
2025-01-18 11:39:54.16	327.50	8.43	
2025-01-18 11:39:54.36	327.46	8.43	
2025-01-18 11:39:54.57	327.42	8.43	
2025-01-18 11:39:54.77	327.38	8.43	
2025-01-18 11:39:54.97	327.34	8.43	
2025-01-18 11:39:55.17	327.30	8.43	
2025-01-18 11:39:55.38	327.26	8.42	
2025-01-18 11:39:55.58	327.22	8.42	
2025-01-18 11:39:55.78	327.19	8.42	
2025-01-18 11:39:55.99	327.14	8.42	
2025-01-18 11:39:56.19	327.11	8.42	
2025-01-18 11:39:56.39	327.07	8.42	
2025-01-18 11:39:56.60	327.03	8.42	
2025-01-18 11:39:56.80	326.99	8.41	
2025-01-18 11:39:57.00	326.95	8.41	
2025-01-18 11:39:57.20	326.91	8.41	
2025-01-18 11:39:57.41	326.87	8.41	
2025-01-18 11:39:57.61	326.83	8.41	
2025-01-18 11:39:57.81	326.80	8.41	
2025-01-18 11:39:58.02	326.76	8.41	
2025-01-18 11:39:58.22	326.72	8.40	
2025-01-18 11:39:58.42	326.68	8.40	
2025-01-18 11:39:58.63	326.64	8.40	
2025-01-18 11:39:58.83	326.60	8.40	
2025-01-18 11:39:59.03	326.56	8.40	
2025-01-18 11:39:59.23	326.52	8.40	
2025-01-18 11:39:59.44	326.48	8.40	
2025-01-18 11:39:59.64	326.44	8.39	
2025-01-18 11:39:59.84	326.41	8.39	
2025-01-18 11:40:00.05	326.37	8.39	
2025-01-18 11:40:00.25	326.33	8.39	
2025-01-18 11:40:00.45	326.29	8.39	
2025-01-18 11:40:00.66	326.25	8.39	
2025-01-18 11:40:00.86	326.21	8.38	
2025-01-18 11:40:01.06	326.17	8.38	
2025-01-18 11:40:01.26	326.13	8.38	
2025-01-18 11:40:01.47	326.09	8.38	
2025-01-18 11:40:01.67	326.06	8.38	
2025-01-18 11:40:01.87	326.02	8.38	
2025-01-18 11:40:02.08	325.98	8.37	
2025-01-18 11:40:02.28	325.94	8.37	
2025-01-18 11:40:02.48	325.90	8.37	
2025-01-18 11:40:02.69	325.86	8.37	
2025-01-18 11:40:02.89	325.82	8.37	
2025-01-18 11:40:03.09	325.78	8.37	
2025-01-18 11:40:03.29	325.75	8.36	
2025-01-18 11:40:03.50	325.71	8.36	
2025-01-18 11:40:03.70	325.67	8.36	
2025-01-18 11:40:03.90	325.63	8.36	
2025-01-18 11:40:04.11	325.59	8.36	
2025-01-18 11:40:04.31	325.55	8.36	
2025-01-18 11:40:04.51	325.51	8.35	
2025-01-18 11:40:04.71	325.47	8.35	
2025-01-18 11:40:04.92	325.43	8.35	
2025-01-18 11:40:05.12	325.40	8.35	
2025-01-18 11:40:05.32	325.36	8.35	
2025-01-18 11:40:05.53	325.32	8.34	
2025-01-18 11:40:05.73	325.28	8.34	
2025-01-18 11:40:05.93	325.24	8.34	
2025-01-18 11:40:06.14	325.20	8.34	
2025-01-18 11:40:06.34	325.16	8.34	
2025-01-18 11:40:06.54	325.12	8.33	
2025-01-18 11:40:06.74	325.09	8.33	
2025-01-18 11:40:06.95	325.05	8.33	
2025-01-18 11:40:07.15	325.01	8.33	
2025-01-18 11:40:07.35	324.97	8.33	
2025-01-18 11:40:07.56	324.93	8.32	
2025-01-18 11:40:07.76	324.89	8.32	
2025-01-18 11:40:07.96	324.85	8.32	
2025-01-18 11:40:08.17	324.81	8.32	
2025-01-18 11:40:08.37	324.78	8.32	
2025-01-18 11:40:08.57	324.74	8.31	
2025-01-18 11:40:08.77	324.70	8.31	
2025-01-18 11:40:08.98	324.66	8.31	
2025-01-18 11:40:09.18	324.62	8.31	
2025-01-18 11:40:09.38	324.58	8.31	
2025-01-18 11:40:09.59	324.54	8.30	
2025-01-18 11:40:09.79	324.51	8.30	
2025-01-18 11:40:09.99	324.47	8.30	
2025-01-18 11:40:10.20	324.43	8.30	
2025-01-18 11:40:10.40	324.39	8.30	
2025-01-18 11:40:10.60	324.35	8.29	
2025-01-18 11:40:10.80	324.31	8.29	
2025-01-18 11:40:11.01	324.27	8.29	
2025-01-18 11:40:11.21	324.23	8.29	
2025-01-18 11:40:11.41	324.20	8.28	
2025-01-18 11:40:11.62	324.16	8.28	
2025-01-18 11:40:11.82	324.12	8.28	
2025-01-18 11:40:12.02	324.08	8.28	
2025-01-18 11:40:12.23	324.04	8.28	
2025-01-18 11:40:12.43	324.00	8.27	
2025-01-18 11:40:12.63	323.97	8.27	
2025-01-18 11:40:12.83	323.93	8.27	
2025-01-18 11:40:13.04	323.89	8.27	
2025-01-18 11:40:13.24	323.85	8.26	
2025-01-18 11:40:13.44	323.81	8.26	
2025-01-18 11:40:13.65	323.77	8.26	
2025-01-18 11:40:13.85	323.73	8.26	
2025-01-18 11:40:14.05	323.70	8.26	
2025-01-18 11:40:14.26	323.66	8.25	
2025-01-18 11:40:14.46	323.62	8.25	
2025-01-18 11:40:14.66	323.58	8.25	
2025-01-18 11:40:14.86	323.54	8.25	
2025-01-18 11:40:15.07	323.50	8.24	
2025-01-18 11:40:15.27	323.46	8.24	
2025-01-18 11:40:15.47	323.43	8.24	
2025-01-18 11:40:15.68	323.39	8.24	
2025-01-18 11:40:15.88	323.35	8.23	
2025-01-18 11:40:16.08	323.31	8.23	
2025-01-18 11:40:16.29	323.27	8.23	
2025-01-18 11:40:16.49	323.23	8.23	
2025-01-18 11:40:16.69	323.20	8.22	
2025-01-18 11:40:16.89	323.16	8.22	
2025-01-18 11:40:17.10	323.12	8.22	
2025-01-18 11:40:17.30	323.08	8.22	
2025-01-18 11:40:17.50	323.04	8.21	
2025-01-18 11:40:17.71	323.00	8.21	
2025-01-18 11:40:17.91	322.96	8.21	
2025-01-18 11:40:18.11	322.93	8.21	
2025-01-18 11:40:18.32	322.89	8.20	
2025-01-18 11:40:18.52	322.85	8.20	
2025-01-18 11:40:18.72	322.81	8.20	
2025-01-18 11:40:18.92	322.77	8.20	
2025-01-18 11:40:19.13	322.73	8.19	
2025-01-18 11:40:19.33	322.70	8.19	
2025-01-18 11:40:19.53	322.66	8.19	
2025-01-18 11:40:19.74	322.62	8.18	
2025-01-18 11:40:19.94	322.58	8.18	
2025-01-18 11:40:20.14	322.54	8.18	
2025-01-18 11:40:20.34	322.51	8.18	
2025-01-18 11:40:20.55	322.47	8.17	
2025-01-18 11:40:20.75	322.43	8.17	
2025-01-18 11:40:20.95	322.39	8.17	
2025-01-18 11:40:21.16	322.35	8.17	
2025-01-18 11:40:21.36	322.31	8.16	
2025-01-18 11:40:21.56	322.28	8.16	
2025-01-18 11:40:21.77	322.24	8.16	
2025-01-18 11:40:21.97	322.20	8.15	
2025-01-18 11:40:22.17	322.16	8.15	
2025-01-18 11:40:22.37	322.12	8.15	
2025-01-18 11:40:22.58	322.08	8.15	
2025-01-18 11:40:22.78	322.05	8.14	
2025-01-18 11:40:22.98	322.01	8.14	
2025-01-18 11:40:23.19	321.97	8.14	
2025-01-18 11:40:23.39	321.93	8.13	
2025-01-18 11:40:23.59	321.89	8.13	
2025-01-18 11:40:23.80	321.85	8.13	
2025-01-18 11:40:24.00	321.82	8.13	
2025-01-18 11:40:24.20	321.78	8.12	
2025-01-18 11:40:24.40	321.74	8.12	
2025-01-18 11:40:24.61	321.70	8.12	
2025-01-18 11:40:24.81	321.66	8.11	
2025-01-18 11:40:25.01	321.63	8.11	
2025-01-18 11:40:25.22	321.59	8.11	
2025-01-18 11:40:25.42	321.55	8.11	
2025-01-18 11:40:25.62	321.51	8.10	
2025-01-18 11:40:25.83	321.47	8.10	
2025-01-18 11:40:26.03	321.44	8.10	
2025-01-18 11:40:26.23	321.40	8.09	
2025-01-18 11:40:26.43	321.36	8.09	
2025-01-18 11:40:26.64	321.32	8.09	
2025-01-18 11:40:26.84	321.28	8.08	
2025-01-18 11:40:27.04	321.25	8.08	
2025-01-18 11:40:27.25	321.21	8.08	
2025-01-18 11:40:27.45	321.17	8.08	
2025-01-18 11:40:27.65	321.13	8.07	
2025-01-18 11:40:27.86	321.09	8.07	
2025-01-18 11:40:28.06	321.06	8.07	
2025-01-18 11:40:28.26	321.02	8.06	
2025-01-18 11:40:28.46	320.98	8.06	
2025-01-18 11:40:28.67	320.94	8.06	
2025-01-18 11:40:28.87	320.90	8.05	
2025-01-18 11:40:29.07	320.87	8.05	
2025-01-18 11:40:29.28	320.83	8.05	
2025-01-18 11:40:29.48	320.79	8.04	
2025-01-18 11:40:29.68	320.75	8.04	
2025-01-18 11:40:29.89	320.71	8.04	
2025-01-18 11:40:30.09	320.68	8.03	
2025-01-18 11:40:30.29	320.64	8.03	
2025-01-18 11:40:30.49	320.60	8.03	
2025-01-18 11:40:30.70	320.56	8.02	
2025-01-18 11:40:30.90	320.53	8.02	
2025-01-18 11:40:31.10	320.49	8.02	
2025-01-18 11:40:31.31	320.45	8.01	
2025-01-18 11:40:31.51	320.41	8.01	
2025-01-18 11:40:31.71	320.37	8.01	
2025-01-18 11:40:31.91	320.34	8.00	
2025-01-18 11:40:32.12	320.30	8.00	
2025-01-18 11:40:32.32	320.26	8.00	
2025-01-18 11:40:32.52	320.22	7.99	
2025-01-18 11:40:32.73	320.18	7.99	
2025-01-18 11:40:32.93	320.15	7.99	
2025-01-18 11:40:33.13	320.11	7.98	
2025-01-18 11:40:33.34	320.07	7.98	
2025-01-18 11:40:33.54	320.03	7.98	
2025-01-18 11:40:33.74	320.00	7.97	
2025-01-18 11:40:33.94	319.96	7.97	
2025-01-18 11:40:34.15	319.92	7.97	
2025-01-18 11:40:34.35	319.88	7.96	
2025-01-18 11:40:34.55	319.85	7.96	
2025-01-18 11:40:34.76	319.81	7.96	
2025-01-18 11:40:34.96	319.77	7.95	
2025-01-18 11:40:35.16	319.73	7.95	
2025-01-18 11:40:35.37	319.69	7.95	
2025-01-18 11:40:35.57	319.66	7.94	
2025-01-18 11:40:35.77	319.62	7.94	
2025-01-18 11:40:35.97	319.58	7.94	
2025-01-18 11:40:36.18	319.54	7.93	
2025-01-18 11:40:36.38	319.51	7.93	
2025-01-18 11:40:36.58	319.47	7.93	
2025-01-18 11:40:36.79	319.43	7.92	
2025-01-18 11:40:36.99	319.39	7.92	
2025-01-18 11:40:37.19	319.36	7.91	
2025-01-18 11:40:37.40	319.32	7.91	
2025-01-18 11:40:37.60	319.28	7.91	
2025-01-18 11:40:37.80	319.24	7.90	
2025-01-18 11:40:38.00	319.21	7.90	
2025-01-18 11:40:38.21	319.17	7.90	
2025-01-18 11:40:38.41	319.13	7.89	
2025-01-18 11:40:38.61	319.09	7.89	
2025-01-18 11:40:38.82	319.06	7.89	
2025-01-18 11:40:39.02	319.02	7.88	
2025-01-18 11:40:39.22	318.98	7.88	
2025-01-18 11:40:39.43	318.94	7.87	
2025-01-18 11:40:39.63	318.91	7.87	
2025-01-18 11:40:39.83	318.87	7.87	
2025-01-18 11:40:40.03	318.83	7.86	
2025-01-18 11:40:40.24	318.79	7.86	
2025-01-18 11:40:40.44	318.76	7.86	
2025-01-18 11:40:40.64	318.72	7.85	
2025-01-18 11:40:40.85	318.68	7.85	
2025-01-18 11:40:41.05	318.65	7.84	
2025-01-18 11:40:41.25	318.61	7.84	
2025-01-18 11:40:41.46	318.57	7.84	
2025-01-18 11:40:41.66	318.53	7.83	
2025-01-18 11:40:41.86	318.50	7.83	
2025-01-18 11:40:42.06	318.46	7.83	
2025-01-18 11:40:42.27	318.42	7.82	
2025-01-18 11:40:42.47	318.38	7.82	
2025-01-18 11:40:42.67	318.35	7.81	
2025-01-18 11:40:42.88	318.31	7.81	
2025-01-18 11:40:43.08	318.27	7.81	
2025-01-18 11:40:43.28	318.24	7.80	
2025-01-18 11:40:43.49	318.20	7.80	
2025-01-18 11:40:43.69	318.16	7.79	
2025-01-18 11:40:43.89	318.12	7.79	
2025-01-18 11:40:44.09	318.09	7.79	
2025-01-18 11:40:44.30	318.05	7.78	
2025-01-18 11:40:44.50	318.01	7.78	
2025-01-18 11:40:44.70	317.98	7.77	
2025-01-18 11:40:44.91	317.94	7.77	
2025-01-18 11:40:45.11	317.90	7.77	
2025-01-18 11:40:45.31	317.86	7.76	
2025-01-18 11:40:45.52	317.83	7.76	
2025-01-18 11:40:45.72	317.79	7.75	
2025-01-18 11:40:45.92	317.75	7.75	
2025-01-18 11:40:46.12	317.72	7.75	
2025-01-18 11:40:46.33	317.68	7.74	
2025-01-18 11:40:46.53	317.64	7.74	
2025-01-18 11:40:46.73	317.60	7.73	
2025-01-18 11:40:46.94	317.57	7.73	
2025-01-18 11:40:47.14	317.53	7.73	
2025-01-18 11:40:47.34	317.49	7.72	
2025-01-18 11:40:47.55	317.45	7.72	
2025-01-18 11:40:47.75	317.42	7.71	
2025-01-18 11:40:47.95	317.38	7.71	
2025-01-18 11:40:48.15	317.35	7.71	
2025-01-18 11:40:48.36	317.31	7.70	
2025-01-18 11:40:48.56	317.27	7.70	
2025-01-18 11:40:48.76	317.23	7.69	
2025-01-18 11:40:48.97	317.20	7.69	
2025-01-18 11:40:49.17	317.16	7.68	
2025-01-18 11:40:49.37	317.12	7.68	
2025-01-18 11:40:49.57	317.09	7.68	
2025-01-18 11:40:49.78	317.05	7.67	
2025-01-18 11:40:49.98	317.01	7.67	
2025-01-18 11:40:50.18	316.98	7.66	
2025-01-18 11:40:50.39	316.94	7.66	
2025-01-18 11:40:50.59	316.90	7.66	
2025-01-18 11:40:50.79	316.87	7.65	
2025-01-18 11:40:51.00	316.83	7.65	
2025-01-18 11:40:51.20	316.79	7.64	
2025-01-18 11:40:51.40	316.76	7.64	
2025-01-18 11:40:51.60	316.72	7.63	
2025-01-18 11:40:51.81	316.68	7.63	
2025-01-18 11:40:52.01	316.64	7.63	
2025-01-18 11:40:52.21	316.61	7.62	
2025-01-18 11:40:52.42	316.57	7.62	
2025-01-18 11:40:52.62	316.53	7.61	
2025-01-18 11:40:52.82	316.50	7.61	
2025-01-18 11:40:53.03	316.46	7.60	
2025-01-18 11:40:53.23	316.42	7.60	
2025-01-18 11:40:53.43	316.39	7.60	
2025-01-18 11:40:53.63	316.35	7.59	
2025-01-18 11:40:53.84	316.31	7.59	
2025-01-18 11:40:54.04	316.28	7.58	
2025-01-18 11:40:54.24	316.24	7.58	
2025-01-18 11:40:54.45	316.20	7.57	
2025-01-18 11:40:54.65	316.17	7.57	
2025-01-18 11:40:54.85	316.13	7.56	
2025-01-18 11:40:55.06	316.09	7.56	
2025-01-18 11:40:55.26	316.06	7.56	
2025-01-18 11:40:55.46	316.02	7.55	
2025-01-18 11:40:55.66	315.99	7.55	
2025-01-18 11:40:55.87	315.95	7.54	
2025-01-18 11:40:56.07	315.91	7.54	
2025-01-18 11:40:56.27	315.88	7.53	
2025-01-18 11:40:56.48	315.84	7.53	
2025-01-18 11:40:56.68	315.80	7.52	
2025-01-18 11:40:56.88	315.77	7.52	
2025-01-18 11:40:57.09	315.73	7.51	
2025-01-18 11:40:57.29	315.69	7.51	
2025-01-18 11:40:57.49	315.66	7.51	
2025-01-18 11:40:57.69	315.62	7.50	
2025-01-18 11:40:57.90	315.58	7.50	
2025-01-18 11:40:58.10	315.55	7.49	
2025-01-18 11:40:58.30	315.51	7.49	
2025-01-18 11:40:58.51	315.47	7.48	
2025-01-18 11:40:58.71	315.44	7.48	
2025-01-18 11:40:58.91	315.40	7.47	
2025-01-18 11:40:59.12	315.37	7.47	
2025-01-18 11:40:59.32	315.33	7.46	
2025-01-18 11:40:59.52	315.29	7.46	
2025-01-18 11:40:59.72	315.26	7.45	
2025-01-18 11:40:59.93	315.22	7.45	
2025-01-18 11:41:00.13	315.19	7.45	
2025-01-18 11:41:00.33	315.15	7.44	
2025-01-18 11:41:00.54	315.11	7.44	
2025-01-18 11:41:00.74	315.08	7.43	
2025-01-18 11:41:00.94	315.04	7.43	
2025-01-18 11:41:01.15	315.00	7.42	
2025-01-18 11:41:01.35	314.97	7.42	
2025-01-18 11:41:01.55	314.93	7.41	
2025-01-18 11:41:01.75	314.90	7.41	
2025-01-18 11:41:01.96	314.86	7.40	
2025-01-18 11:41:02.16	314.82	7.40	
2025-01-18 11:41:02.36	314.79	7.39	
2025-01-18 11:41:02.57	314.75	7.39	
2025-01-18 11:41:02.77	314.71	7.38	
2025-01-18 11:41:02.97	314.68	7.38	
2025-01-18 11:41:03.18	314.64	7.37	
2025-01-18 11:41:03.38	314.61	7.37	
2025-01-18 11:41:03.58	314.57	7.36	
2025-01-18 11:41:03.78	314.54	7.36	
2025-01-18 11:41:03.99	314.50	7.35	
2025-01-18 11:41:04.19	314.46	7.35	
2025-01-18 11:41:04.39	314.43	7.34	
2025-01-18 11:41:04.60	314.39	7.34	
2025-01-18 11:41:04.80	314.35	7.33	
2025-01-18 11:41:05.00	314.32	7.33	
2025-01-18 11:41:05.20	314.28	7.32	
2025-01-18 11:41:05.41	314.25	7.32	
2025-01-18 11:41:05.61	314.21	7.32	
2025-01-18 11:41:05.81	314.18	7.31	
2025-01-18 11:41:06.02	314.14	7.31	
2025-01-18 11:41:06.22	314.10	7.30	
2025-01-18 11:41:06.42	314.07	7.30	
2025-01-18 11:41:06.63	314.03	7.29	
2025-01-18 11:41:06.83	314.00	7.29	
2025-01-18 11:41:07.03	313.96	7.28	
2025-01-18 11:41:07.23	313.93	7.28	
2025-01-18 11:41:07.44	313.89	7.27	
2025-01-18 11:41:07.64	313.85	7.27	
2025-01-18 11:41:07.84	313.82	7.26	
2025-01-18 11:41:08.05	313.78	7.26	
2025-01-18 11:41:08.25	313.75	7.25	
2025-01-18 11:41:08.45	313.71	7.25	
2025-01-18 11:41:08.66	313.67	7.24	
2025-01-18 11:41:08.86	313.64	7.23	
2025-01-18 11:41:09.06	313.60	7.23	
2025-01-18 11:41:09.26	313.57	7.22	
2025-01-18 11:41:09.47	313.53	7.22	
2025-01-18 11:41:09.67	313.50	7.21	
2025-01-18 11:41:09.87	313.46	7.21	
2025-01-18 11:41:10.08	313.42	7.20	
2025-01-18 11:41:10.28	313.39	7.20	
2025-01-18 11:41:10.48	313.35	7.19	
2025-01-18 11:41:10.69	313.32	7.19	
2025-01-18 11:41:10.89	313.28	7.18	
2025-01-18 11:41:11.09	313.25	7.18	
2025-01-18 11:41:11.29	313.21	7.17	
2025-01-18 11:41:11.50	313.18	7.17	
2025-01-18 11:41:11.70	313.14	7.16	
2025-01-18 11:41:11.90	313.11	7.16	
2025-01-18 11:41:12.11	313.07	7.15	
2025-01-18 11:41:12.31	313.03	7.15	
2025-01-18 11:41:12.51	313.00	7.14	
2025-01-18 11:41:12.72	312.96	7.14	
2025-01-18 11:41:12.92	312.93	7.13	
2025-01-18 11:41:13.12	312.89	7.13	
2025-01-18 11:41:13.32	312.86	7.12	
2025-01-18 11:41:13.53	312.82	7.12	
2025-01-18 11:41:13.73	312.79	7.11	
2025-01-18 11:41:13.93	312.75	7.11	
2025-01-18 11:41:14.14	312.72	7.10	
2025-01-18 11:41:14.34	312.68	7.09	
2025-01-18 11:41:14.54	312.65	7.09	
2025-01-18 11:41:14.75	312.61	7.08	
2025-01-18 11:41:14.95	312.57	7.08	
2025-01-18 11:41:15.15	312.54	7.07	
2025-01-18 11:41:15.35	312.50	7.07	
2025-01-18 11:41:15.56	312.47	7.06	
2025-01-18 11:41:15.76	312.43	7.06	
2025-01-18 11:41:15.96	312.40	7.05	
2025-01-18 11:41:16.17	312.36	7.05	
2025-01-18 11:41:16.37	312.33	7.04	
2025-01-18 11:41:16.57	312.29	7.04	
2025-01-18 11:41:16.78	312.26	7.03	
2025-01-18 11:41:16.98	312.22	7.02	
2025-01-18 11:41:17.18	312.19	7.02	
2025-01-18 11:41:17.38	312.15	7.01	
2025-01-18 11:41:17.59	312.12	7.01	
2025-01-18 11:41:17.79	312.08	7.00	
2025-01-18 11:41:17.99	312.05	7.00	
2025-01-18 11:41:18.20	312.01	6.99	
2025-01-18 11:41:18.40	311.98	6.99	
2025-01-18 11:41:18.60	311.94	6.98	
2025-01-18 11:41:18.80	311.91	6.98	
2025-01-18 11:41:19.01	311.87	6.97	
2025-01-18 11:41:19.21	311.84	6.96	
2025-01-18 11:41:19.41	311.80	6.96	
2025-01-18 11:41:19.62	311.77	6.95	
2025-01-18 11:41:19.82	311.73	6.95	
2025-01-18 11:41:20.02	311.70	6.94	
2025-01-18 11:41:20.23	311.66	6.94	
2025-01-18 11:41:20.43	311.63	6.93	
2025-01-18 11:41:20.63	311.59	6.93	
2025-01-18 11:41:20.83	311.56	6.92	
2025-01-18 11:41:21.04	311.52	6.91	
2025-01-18 11:41:21.24	311.49	6.91	
2025-01-18 11:41:21.44	311.45	6.90	
2025-01-18 11:41:21.65	311.42	6.90	
2025-01-18 11:41:21.85	311.38	6.89	
2025-01-18 11:41:22.05	311.35	6.89	
2025-01-18 11:41:22.26	311.31	6.88	
2025-01-18 11:41:22.46	311.28	6.88	
2025-01-18 11:41:22.66	311.25	6.87	
2025-01-18 11:41:22.86	311.21	6.86	
2025-01-18 11:41:23.07	311.18	6.86	
2025-01-18 11:41:23.27	311.14	6.85	
2025-01-18 11:41:23.47	311.11	6.85	
2025-01-18 11:41:23.68	311.07	6.84	
2025-01-18 11:41:23.88	311.04	6.84	
2025-01-18 11:41:24.08	311.00	6.83	
2025-01-18 11:41:24.29	310.97	6.82	
2025-01-18 11:41:24.49	310.93	6.82	
2025-01-18 11:41:24.69	310.90	6.81	
2025-01-18 11:41:24.89	310.87	6.81	
2025-01-18 11:41:25.10	310.83	6.80	
2025-01-18 11:41:25.30	310.80	6.80	
2025-01-18 11:41:25.50	310.76	6.79	
2025-01-18 11:41:25.71	310.73	6.78	
2025-01-18 11:41:25.91	310.69	6.78	
2025-01-18 11:41:26.11	310.66	6.77	
2025-01-18 11:41:26.32	310.62	6.77	
2025-01-18 11:41:26.52	310.59	6.76	
2025-01-18 11:41:26.72	310.55	6.76	
2025-01-18 11:41:26.92	310.52	6.75	
2025-01-18 11:41:27.13	310.48	6.74	
2025-01-18 11:41:27.33	310.45	6.74	
2025-01-18 11:41:27.53	310.42	6.73	
2025-01-18 11:41:27.74	310.38	6.73	
2025-01-18 11:41:27.94	310.35	6.72	
2025-01-18 11:41:28.14	310.31	6.72	
2025-01-18 11:41:28.35	310.28	6.71	
2025-01-18 11:41:28.55	310.24	6.70	
2025-01-18 11:41:28.75	310.21	6.70	
2025-01-18 11:41:28.95	310.18	6.69	
2025-01-18 11:41:29.16	310.14	6.69	
2025-01-18 11:41:29.36	310.11	6.68	
2025-01-18 11:41:29.56	310.07	6.67	
2025-01-18 11:41:29.77	310.04	6.67	
2025-01-18 11:41:29.97	310.01	6.66	
2025-01-18 11:41:30.17	309.97	6.66	
2025-01-18 11:41:30.38	309.94	6.65	
2025-01-18 11:41:30.58	309.90	6.64	
2025-01-18 11:41:30.78	309.87	6.64	
2025-01-18 11:41:30.98	309.84	6.63	
2025-01-18 11:41:31.19	309.80	6.63	
2025-01-18 11:41:31.39	309.77	6.62	
2025-01-18 11:41:31.59	309.73	6.61	
2025-01-18 11:41:31.80	309.70	6.61	
2025-01-18 11:41:32.00	309.66	6.60	
2025-01-18 11:41:32.20	309.63	6.60	
2025-01-18 11:41:32.41	309.60	6.59	
2025-01-18 11:41:32.61	309.56	6.58	
2025-01-18 11:41:32.81	309.53	6.58	
2025-01-18 11:41:33.01	309.50	6.57	
2025-01-18 11:41:33.22	309.46	6.57	
2025-01-18 11:41:33.42	309.43	6.56	
2025-01-18 11:41:33.62	309.39	6.55	
2025-01-18 11:41:33.83	309.36	6.55	
2025-01-18 11:41:34.03	309.33	6.54	
2025-01-18 11:41:34.23	309.29	6.54	
2025-01-18 11:41:34.43	309.26	6.53	
2025-01-18 11:41:34.64	309.22	6.52	
2025-01-18 11:41:34.84	309.19	6.52	
2025-01-18 11:41:35.04	309.16	6.51	
2025-01-18 11:41:35.25	309.12	6.51	
2025-01-18 11:41:35.45	309.09	6.50	
2025-01-18 11:41:35.65	309.06	6.49	
2025-01-18 11:41:35.86	309.02	6.49	
2025-01-18 11:41:36.06	308.99	6.48	
2025-01-18 11:41:36.26	308.95	6.48	
2025-01-18 11:41:36.46	308.92	6.47	
2025-01-18 11:41:36.67	308.89	6.46	
2025-01-18 11:41:36.87	308.85	6.46	
2025-01-18 11:41:37.07	308.82	6.45	
2025-01-18 11:41:37.28	308.79	6.44	
2025-01-18 11:41:37.48	308.75	6.44	
2025-01-18 11:41:37.68	308.72	6.43	
2025-01-18 11:41:37.89	308.68	6.43	
2025-01-18 11:41:38.09	308.65	6.42	
2025-01-18 11:41:38.29	308.62	6.41	
2025-01-18 11:41:38.49	308.58	6.41	
2025-01-18 11:41:38.70	308.55	6.40	
2025-01-18 11:41:38.90	308.52	6.39	
2025-01-18 11:41:39.10	308.48	6.39	
2025-01-18 11:41:39.31	308.45	6.38	
2025-01-18 11:41:39.51	308.42	6.38	
2025-01-18 11:41:39.71	308.38	6.37	
2025-01-18 11:41:39.92	308.35	6.36	
2025-01-18 11:41:40.12	308.32	6.36	
2025-01-18 11:41:40.32	308.28	6.35	
2025-01-18 11:41:40.52	308.25	6.34	
2025-01-18 11:41:40.73	308.22	6.34	
2025-01-18 11:41:40.93	308.18	6.33	
2025-01-18 11:41:41.13	308.15	6.33	
2025-01-18 11:41:41.34	308.12	6.32	
2025-01-18 11:41:41.54	308.08	6.31	
2025-01-18 11:41:41.74	308.05	6.31	
2025-01-18 11:41:41.95	308.02	6.30	
2025-01-18 11:41:42.15	307.98	6.29	
2025-01-18 11:41:42.35	307.95	6.29	
2025-01-18 11:41:42.55	307.92	6.28	
2025-01-18 11:41:42.76	307.88	6.28	
2025-01-18 11:41:42.96	307.85	6.27	
2025-01-18 11:41:43.16	307.82	6.26	
2025-01-18 11:41:43.37	307.78	6.26	
2025-01-18 11:41:43.57	307.75	6.25	
2025-01-18 11:41:43.77	307.72	6.24	
2025-01-18 11:41:43.98	307.68	6.24	
2025-01-18 11:41:44.18	307.65	6.23	
2025-01-18 11:41:44.38	307.62	6.22	
2025-01-18 11:41:44.58	307.59	6.22	
2025-01-18 11:41:44.79	307.55	6.21	
2025-01-18 11:41:44.99	307.52	6.20	
2025-01-18 11:41:45.19	307.49	6.20	
2025-01-18 11:41:45.40	307.45	6.19	
2025-01-18 11:41:45.60	307.42	6.19	
2025-01-18 11:41:45.80	307.39	6.18	
2025-01-18 11:41:46.01	307.35	6.17	
2025-01-18 11:41:46.21	307.32	6.17	
2025-01-18 11:41:46.41	307.29	6.16	
2025-01-18 11:41:46.61	307.26	6.15	
2025-01-18 11:41:46.82	307.22	6.15	
2025-01-18 11:41:47.02	307.19	6.14	
2025-01-18 11:41:47.22	307.16	6.13	
2025-01-18 11:41:47.43	307.12	6.13	
2025-01-18 11:41:47.63	307.09	6.12	
2025-01-18 11:41:47.83	307.06	6.11	
2025-01-18 11:41:48.03	307.03	6.11	
2025-01-18 11:41:48.24	306.99	6.10	
2025-01-18 11:41:48.44	306.96	6.09	
2025-01-18 11:41:48.64	306.93	6.09	
2025-01-18 11:41:48.85	306.90	6.08	
2025-01-18 11:41:49.05	306.86	6.08	
2025-01-18 11:41:49.25	306.83	6.07	
2025-01-18 11:41:49.46	306.80	6.06	
2025-01-18 11:41:49.66	306.76	6.06	
2025-01-18 11:41:49.86	306.73	6.05	
2025-01-18 11:41:50.06	306.70	6.04	
2025-01-18 11:41:50.27	306.67	6.04	
2025-01-18 11:41:50.47	306.63	6.03	
2025-01-18 11:41:50.67	306.60	6.02	
2025-01-18 11:41:50.88	306.57	6.02	
2025-01-18 11:41:51.08	306.54	6.01	
2025-01-18 11:41:51.28	306.50	6.00	
2025-01-18 11:41:51.49	306.47	6.00	
2025-01-18 11:41:51.69	306.44	5.99	
2025-01-18 11:41:51.89	306.41	5.98	
2025-01-18 11:41:52.09	306.38	5.98	
2025-01-18 11:41:52.30	306.34	5.97	
2025-01-18 11:41:52.50	306.31	5.96	
2025-01-18 11:41:52.70	306.28	5.96	
2025-01-18 11:41:52.91	306.24	5.95	
2025-01-18 11:41:53.11	306.21	5.94	
2025-01-18 11:41:53.31	306.18	5.94	
2025-01-18 11:41:53.52	306.15	5.93	
2025-01-18 11:41:53.72	306.12	5.92	
2025-01-18 11:41:53.92	306.08	5.92	
2025-01-18 11:41:54.12	306.05	5.91	
2025-01-18 11:41:54.33	306.02	5.90	
2025-01-18 11:41:54.53	305.99	5.90	
2025-01-18 11:41:54.73	305.95	5.89	
2025-01-18 11:41:54.94	305.92	5.88	
2025-01-18 11:41:55.14	305.89	5.88	
2025-01-18 11:41:55.34	305.86	5.87	
2025-01-18 11:41:55.55	305.82	5.86	
2025-01-18 11:41:55.75	305.79	5.86	
2025-01-18 11:41:55.95	305.76	5.85	
2025-01-18 11:41:56.15	305.73	5.84	
2025-01-18 11:41:56.36	305.70	5.83	
2025-01-18 11:41:56.56	305.66	5.83	
2025-01-18 11:41:56.76	305.63	5.82	
2025-01-18 11:41:56.97	305.60	5.81	
2025-01-18 11:41:57.17	305.57	5.81	
2025-01-18 11:41:57.37	305.54	5.80	
2025-01-18 11:41:57.58	305.50	5.79	
2025-01-18 11:41:57.78	305.47	5.79	
2025-01-18 11:41:57.98	305.44	5.78	
2025-01-18 11:41:58.18	305.41	5.77	
2025-01-18 11:41:58.39	305.38	5.77	
2025-01-18 11:41:58.59	305.34	5.76	
2025-01-18 11:41:58.79	305.31	5.75	
2025-01-18 11:41:59.00	305.28	5.75	
2025-01-18 11:41:59.20	305.25	5.74	
2025-01-18 11:41:59.40	305.22	5.73	
