passes_logs/2025/01/18/SPB_Silybum_02/SPB_Silybum_02__20250118_023723_SUOMI_NPP_rec.log

#Pass ID: 20250118_023723_SUOMI NPP
#Satellite: SUOMI NPP
#Configuration: NPP
#Start time: 2025-01-18 02:37:24

#Version: 2.0.20230423
#Station: SPB_Silybum_02
#Location: 30.233357 lon 59.946436 lat
#TLE: 1 37849U 11061A   25017.17539025  .00000183  00000+0  10766-3 0  9991
#TLE: 2 37849  98.7449 318.1364 0001599  37.8052 322.3236 14.19539290685226

#Time	Az	El	Level	Level2	SNR	BER	Gain	Gain2
2025-01-18 02:37:26.16	13.92	4.14	
2025-01-18 02:37:26.37	13.90	4.15	
2025-01-18 02:37:26.57	13.89	4.16	
2025-01-18 02:37:26.77	13.87	4.17	
2025-01-18 02:37:26.98	13.85	4.18	
2025-01-18 02:37:27.18	13.83	4.19	
2025-01-18 02:37:27.38	13.82	4.21	
2025-01-18 02:37:27.58	13.80	4.22	
2025-01-18 02:37:27.79	13.78	4.23	
2025-01-18 02:37:27.99	13.76	4.24	
2025-01-18 02:37:28.19	13.75	4.25	
2025-01-18 02:37:28.40	13.73	4.26	
2025-01-18 02:37:28.60	13.71	4.27	
2025-01-18 02:37:28.80	13.69	4.28	
2025-01-18 02:37:29.01	13.67	4.30	
2025-01-18 02:37:29.21	13.66	4.31	
2025-01-18 02:37:29.41	13.64	4.32	
2025-01-18 02:37:29.61	13.62	4.33	
2025-01-18 02:37:29.82	13.60	4.34	
2025-01-18 02:37:30.02	13.59	4.35	
2025-01-18 02:37:30.22	13.57	4.36	
2025-01-18 02:37:30.43	13.55	4.38	
2025-01-18 02:37:30.63	13.53	4.39	
2025-01-18 02:37:30.83	13.52	4.40	
2025-01-18 02:37:31.04	13.50	4.41	
2025-01-18 02:37:31.24	13.48	4.42	
2025-01-18 02:37:31.44	13.46	4.43	
2025-01-18 02:37:31.64	13.45	4.44	
2025-01-18 02:37:31.85	13.43	4.46	
2025-01-18 02:37:32.05	13.41	4.47	
2025-01-18 02:37:32.25	13.39	4.48	
2025-01-18 02:37:32.46	13.37	4.49	
2025-01-18 02:37:32.66	13.36	4.50	
2025-01-18 02:37:32.86	13.34	4.51	
2025-01-18 02:37:33.07	13.32	4.52	
2025-01-18 02:37:33.27	13.30	4.54	
2025-01-18 02:37:33.47	13.28	4.55	
2025-01-18 02:37:33.67	13.27	4.56	
2025-01-18 02:37:33.88	13.25	4.57	
2025-01-18 02:37:34.08	13.23	4.58	
2025-01-18 02:37:34.28	13.21	4.59	
2025-01-18 02:37:34.49	13.19	4.60	
2025-01-18 02:37:34.69	13.18	4.62	
2025-01-18 02:37:34.89	13.16	4.63	
2025-01-18 02:37:35.10	13.14	4.64	
2025-01-18 02:37:35.30	13.12	4.65	
2025-01-18 02:37:35.50	13.10	4.66	
2025-01-18 02:37:35.70	13.09	4.67	
2025-01-18 02:37:35.91	13.07	4.68	
2025-01-18 02:37:36.11	13.05	4.70	
2025-01-18 02:37:36.31	13.03	4.71	
2025-01-18 02:37:36.52	13.01	4.72	
2025-01-18 02:37:36.72	13.00	4.73	
2025-01-18 02:37:36.92	12.98	4.74	
2025-01-18 02:37:37.12	12.96	4.75	
2025-01-18 02:37:37.33	12.94	4.76	
2025-01-18 02:37:37.53	12.92	4.78	
2025-01-18 02:37:37.73	12.90	4.79	
2025-01-18 02:37:37.94	12.89	4.80	
2025-01-18 02:37:38.14	12.87	4.81	
2025-01-18 02:37:38.34	12.85	4.82	
2025-01-18 02:37:38.55	12.83	4.83	
2025-01-18 02:37:38.75	12.81	4.84	
2025-01-18 02:37:38.95	12.79	4.86	
2025-01-18 02:37:39.15	12.78	4.87	
2025-01-18 02:37:39.36	12.76	4.88	
2025-01-18 02:37:39.56	12.74	4.89	
2025-01-18 02:37:39.76	12.72	4.90	
2025-01-18 02:37:39.97	12.70	4.91	
2025-01-18 02:37:40.17	12.68	4.92	
2025-01-18 02:37:40.37	12.67	4.94	
2025-01-18 02:37:40.58	12.65	4.95	
2025-01-18 02:37:40.78	12.63	4.96	
2025-01-18 02:37:40.98	12.61	4.97	
2025-01-18 02:37:41.18	12.59	4.98	
2025-01-18 02:37:41.39	12.57	4.99	
2025-01-18 02:37:41.59	12.56	5.00	
2025-01-18 02:37:41.79	12.54	5.02	
2025-01-18 02:37:42.00	12.52	5.03	
2025-01-18 02:37:42.20	12.50	5.04	
2025-01-18 02:37:42.40	12.48	5.05	
2025-01-18 02:37:42.61	12.46	5.06	
2025-01-18 02:37:42.81	12.44	5.07	
2025-01-18 02:37:43.01	12.43	5.09	
2025-01-18 02:37:43.21	12.41	5.10	
2025-01-18 02:37:43.42	12.39	5.11	
2025-01-18 02:37:43.62	12.37	5.12	
2025-01-18 02:37:43.82	12.35	5.13	
2025-01-18 02:37:44.03	12.33	5.14	
2025-01-18 02:37:44.23	12.31	5.15	
2025-01-18 02:37:44.43	12.29	5.17	
2025-01-18 02:37:44.64	12.27	5.18	
2025-01-18 02:37:44.84	12.26	5.19	
2025-01-18 02:37:45.04	12.24	5.20	
2025-01-18 02:37:45.24	12.22	5.21	
2025-01-18 02:37:45.45	12.20	5.22	
2025-01-18 02:37:45.65	12.18	5.24	
2025-01-18 02:37:45.85	12.16	5.25	
2025-01-18 02:37:46.06	12.14	5.26	
2025-01-18 02:37:46.26	12.12	5.27	
2025-01-18 02:37:46.46	12.11	5.28	
2025-01-18 02:37:46.67	12.09	5.29	
2025-01-18 02:37:46.87	12.07	5.30	
2025-01-18 02:37:47.07	12.05	5.32	
2025-01-18 02:37:47.27	12.03	5.33	
2025-01-18 02:37:47.48	12.01	5.34	
2025-01-18 02:37:47.68	11.99	5.35	
2025-01-18 02:37:47.88	11.97	5.36	
2025-01-18 02:37:48.09	11.95	5.37	
2025-01-18 02:37:48.29	11.94	5.39	
2025-01-18 02:37:48.49	11.92	5.40	
2025-01-18 02:37:48.69	11.90	5.41	
2025-01-18 02:37:48.90	11.88	5.42	
2025-01-18 02:37:49.10	11.86	5.43	
2025-01-18 02:37:49.30	11.84	5.44	
2025-01-18 02:37:49.51	11.82	5.45	
2025-01-18 02:37:49.71	11.80	5.47	
2025-01-18 02:37:49.91	11.78	5.48	
2025-01-18 02:37:50.12	11.76	5.49	
2025-01-18 02:37:50.32	11.74	5.50	
2025-01-18 02:37:50.52	11.73	5.51	
2025-01-18 02:37:50.72	11.71	5.52	
2025-01-18 02:37:50.93	11.69	5.54	
2025-01-18 02:37:51.13	11.67	5.55	
2025-01-18 02:37:51.33	11.65	5.56	
2025-01-18 02:37:51.54	11.63	5.57	
2025-01-18 02:37:51.74	11.61	5.58	
2025-01-18 02:37:51.94	11.59	5.59	
2025-01-18 02:37:52.15	11.57	5.61	
2025-01-18 02:37:52.35	11.55	5.62	
2025-01-18 02:37:52.55	11.53	5.63	
2025-01-18 02:37:52.75	11.51	5.64	
2025-01-18 02:37:52.96	11.49	5.65	
2025-01-18 02:37:53.16	11.47	5.66	
2025-01-18 02:37:53.36	11.45	5.67	
2025-01-18 02:37:53.57	11.43	5.69	
2025-01-18 02:37:53.77	11.42	5.70	
2025-01-18 02:37:53.97	11.40	5.71	
2025-01-18 02:37:54.18	11.38	5.72	
2025-01-18 02:37:54.38	11.36	5.73	
2025-01-18 02:37:54.58	11.34	5.74	
2025-01-18 02:37:54.78	11.32	5.76	
2025-01-18 02:37:54.99	11.30	5.77	
2025-01-18 02:37:55.19	11.28	5.78	
2025-01-18 02:37:55.39	11.26	5.79	
2025-01-18 02:37:55.60	11.24	5.80	
2025-01-18 02:37:55.80	11.22	5.81	
2025-01-18 02:37:56.00	11.20	5.83	
2025-01-18 02:37:56.21	11.18	5.84	
2025-01-18 02:37:56.41	11.16	5.85	
2025-01-18 02:37:56.61	11.14	5.86	
2025-01-18 02:37:56.81	11.12	5.87	
2025-01-18 02:37:57.02	11.10	5.88	
2025-01-18 02:37:57.22	11.08	5.90	
2025-01-18 02:37:57.42	11.06	5.91	
2025-01-18 02:37:57.63	11.04	5.92	
2025-01-18 02:37:57.83	11.02	5.93	
2025-01-18 02:37:58.03	11.00	5.94	
2025-01-18 02:37:58.23	10.98	5.95	
2025-01-18 02:37:58.44	10.96	5.97	
2025-01-18 02:37:58.64	10.94	5.98	
2025-01-18 02:37:58.84	10.92	5.99	
2025-01-18 02:37:59.05	10.90	6.00	
2025-01-18 02:37:59.25	10.88	6.01	
2025-01-18 02:37:59.45	10.86	6.02	
2025-01-18 02:37:59.66	10.84	6.04	
2025-01-18 02:37:59.86	10.82	6.05	
2025-01-18 02:38:00.06	10.80	6.06	
2025-01-18 02:38:00.26	10.78	6.07	
2025-01-18 02:38:00.47	10.76	6.08	
2025-01-18 02:38:00.67	10.74	6.09	
2025-01-18 02:38:00.87	10.72	6.11	
2025-01-18 02:38:01.08	10.70	6.12	
2025-01-18 02:38:01.28	10.68	6.13	
2025-01-18 02:38:01.48	10.66	6.14	
2025-01-18 02:38:01.69	10.64	6.15	
2025-01-18 02:38:01.89	10.62	6.16	
2025-01-18 02:38:02.09	10.60	6.18	
2025-01-18 02:38:02.29	10.58	6.19	
2025-01-18 02:38:02.50	10.56	6.20	
2025-01-18 02:38:02.70	10.54	6.21	
2025-01-18 02:38:02.90	10.52	6.22	
2025-01-18 02:38:03.11	10.50	6.23	
2025-01-18 02:38:03.31	10.48	6.25	
2025-01-18 02:38:03.51	10.46	6.26	
2025-01-18 02:38:03.72	10.44	6.27	
2025-01-18 02:38:03.92	10.42	6.28	
2025-01-18 02:38:04.12	10.40	6.29	
2025-01-18 02:38:04.32	10.38	6.30	
2025-01-18 02:38:04.53	10.36	6.32	
2025-01-18 02:38:04.73	10.34	6.33	
2025-01-18 02:38:04.93	10.32	6.34	
2025-01-18 02:38:05.14	10.30	6.35	
2025-01-18 02:38:05.34	10.28	6.36	
2025-01-18 02:38:05.54	10.26	6.37	
2025-01-18 02:38:05.74	10.24	6.39	
2025-01-18 02:38:05.95	10.22	6.40	
2025-01-18 02:38:06.15	10.20	6.41	
2025-01-18 02:38:06.35	10.18	6.42	
2025-01-18 02:38:06.56	10.16	6.43	
2025-01-18 02:38:06.76	10.14	6.45	
2025-01-18 02:38:06.96	10.12	6.46	
2025-01-18 02:38:07.17	10.09	6.47	
2025-01-18 02:38:07.37	10.07	6.48	
2025-01-18 02:38:07.57	10.05	6.49	
2025-01-18 02:38:07.77	10.03	6.50	
2025-01-18 02:38:07.98	10.01	6.52	
2025-01-18 02:38:08.18	9.99	6.53	
2025-01-18 02:38:08.38	9.97	6.54	
2025-01-18 02:38:08.59	9.95	6.55	
2025-01-18 02:38:08.79	9.93	6.56	
2025-01-18 02:38:08.99	9.91	6.57	
2025-01-18 02:38:09.20	9.89	6.59	
2025-01-18 02:38:09.40	9.87	6.60	
2025-01-18 02:38:09.60	9.85	6.61	
2025-01-18 02:38:09.80	9.83	6.62	
2025-01-18 02:38:10.01	9.81	6.63	
2025-01-18 02:38:10.21	9.78	6.65	
2025-01-18 02:38:10.41	9.76	6.66	
2025-01-18 02:38:10.62	9.74	6.67	
2025-01-18 02:38:10.82	9.72	6.68	
2025-01-18 02:38:11.02	9.70	6.69	
2025-01-18 02:38:11.23	9.68	6.70	
2025-01-18 02:38:11.43	9.66	6.72	
2025-01-18 02:38:11.63	9.64	6.73	
2025-01-18 02:38:11.83	9.62	6.74	
2025-01-18 02:38:12.04	9.60	6.75	
2025-01-18 02:38:12.24	9.58	6.76	
2025-01-18 02:38:12.44	9.55	6.77	
2025-01-18 02:38:12.65	9.53	6.79	
2025-01-18 02:38:12.85	9.51	6.80	
2025-01-18 02:38:13.05	9.49	6.81	
2025-01-18 02:38:13.26	9.47	6.82	
2025-01-18 02:38:13.46	9.45	6.83	
2025-01-18 02:38:13.66	9.43	6.85	
2025-01-18 02:38:13.86	9.41	6.86	
2025-01-18 02:38:14.07	9.39	6.87	
2025-01-18 02:38:14.27	9.36	6.88	
2025-01-18 02:38:14.47	9.34	6.89	
2025-01-18 02:38:14.68	9.32	6.90	
2025-01-18 02:38:14.88	9.30	6.92	
2025-01-18 02:38:15.08	9.28	6.93	
2025-01-18 02:38:15.29	9.26	6.94	
2025-01-18 02:38:15.49	9.24	6.95	
2025-01-18 02:38:15.69	9.22	6.96	
2025-01-18 02:38:15.89	9.20	6.98	
2025-01-18 02:38:16.10	9.17	6.99	
2025-01-18 02:38:16.30	9.15	7.00	
2025-01-18 02:38:16.50	9.13	7.01	
2025-01-18 02:38:16.71	9.11	7.02	
2025-01-18 02:38:16.91	9.09	7.03	
2025-01-18 02:38:17.11	9.07	7.05	
2025-01-18 02:38:17.31	9.05	7.06	
2025-01-18 02:38:17.52	9.02	7.07	
2025-01-18 02:38:17.72	9.00	7.08	
2025-01-18 02:38:17.92	8.98	7.09	
2025-01-18 02:38:18.13	8.96	7.11	
2025-01-18 02:38:18.33	8.94	7.12	
2025-01-18 02:38:18.53	8.92	7.13	
2025-01-18 02:38:18.74	8.89	7.14	
2025-01-18 02:38:18.94	8.87	7.15	
2025-01-18 02:38:19.14	8.85	7.16	
2025-01-18 02:38:19.34	8.83	7.18	
2025-01-18 02:38:19.55	8.81	7.19	
2025-01-18 02:38:19.75	8.79	7.20	
2025-01-18 02:38:19.95	8.77	7.21	
2025-01-18 02:38:20.16	8.74	7.22	
2025-01-18 02:38:20.36	8.72	7.24	
2025-01-18 02:38:20.56	8.70	7.25	
2025-01-18 02:38:20.77	8.68	7.26	
2025-01-18 02:38:20.97	8.66	7.27	
2025-01-18 02:38:21.17	8.63	7.28	
2025-01-18 02:38:21.37	8.61	7.29	
2025-01-18 02:38:21.58	8.59	7.31	
2025-01-18 02:38:21.78	8.57	7.32	
2025-01-18 02:38:21.98	8.55	7.33	
2025-01-18 02:38:22.19	8.52	7.34	
2025-01-18 02:38:22.39	8.50	7.35	
2025-01-18 02:38:22.59	8.48	7.37	
2025-01-18 02:38:22.80	8.46	7.38	
2025-01-18 02:38:23.00	8.44	7.39	
2025-01-18 02:38:23.20	8.42	7.40	
2025-01-18 02:38:23.40	8.39	7.41	
2025-01-18 02:38:23.61	8.37	7.43	
2025-01-18 02:38:23.81	8.35	7.44	
2025-01-18 02:38:24.01	8.33	7.45	
2025-01-18 02:38:24.22	8.31	7.46	
2025-01-18 02:38:24.42	8.28	7.47	
2025-01-18 02:38:24.62	8.26	7.48	
2025-01-18 02:38:24.83	8.24	7.50	
2025-01-18 02:38:25.03	8.22	7.51	
2025-01-18 02:38:25.23	8.20	7.52	
2025-01-18 02:38:25.43	8.17	7.53	
2025-01-18 02:38:25.64	8.15	7.54	
2025-01-18 02:38:25.84	8.13	7.56	
2025-01-18 02:38:26.04	8.11	7.57	
2025-01-18 02:38:26.25	8.08	7.58	
2025-01-18 02:38:26.45	8.06	7.59	
2025-01-18 02:38:26.65	8.04	7.60	
2025-01-18 02:38:26.86	8.02	7.62	
2025-01-18 02:38:27.06	7.99	7.63	
2025-01-18 02:38:27.26	7.97	7.64	
2025-01-18 02:38:27.46	7.95	7.65	
2025-01-18 02:38:27.67	7.93	7.66	
2025-01-18 02:38:27.87	7.91	7.68	
2025-01-18 02:38:28.07	7.88	7.69	
2025-01-18 02:38:28.28	7.86	7.70	
2025-01-18 02:38:28.48	7.84	7.71	
2025-01-18 02:38:28.68	7.82	7.72	
2025-01-18 02:38:28.88	7.79	7.73	
2025-01-18 02:38:29.09	7.77	7.75	
2025-01-18 02:38:29.29	7.75	7.76	
2025-01-18 02:38:29.49	7.73	7.77	
2025-01-18 02:38:29.70	7.70	7.78	
2025-01-18 02:38:29.90	7.68	7.79	
2025-01-18 02:38:30.10	7.66	7.81	
2025-01-18 02:38:30.31	7.63	7.82	
2025-01-18 02:38:30.51	7.61	7.83	
2025-01-18 02:38:30.71	7.59	7.84	
2025-01-18 02:38:30.91	7.57	7.85	
2025-01-18 02:38:31.12	7.54	7.87	
2025-01-18 02:38:31.32	7.52	7.88	
2025-01-18 02:38:31.52	7.50	7.89	
2025-01-18 02:38:31.73	7.48	7.90	
2025-01-18 02:38:31.93	7.45	7.91	
2025-01-18 02:38:32.13	7.43	7.93	
2025-01-18 02:38:32.34	7.41	7.94	
2025-01-18 02:38:32.54	7.39	7.95	
2025-01-18 02:38:32.74	7.36	7.96	
2025-01-18 02:38:32.94	7.34	7.97	
2025-01-18 02:38:33.15	7.32	7.99	
2025-01-18 02:38:33.35	7.29	8.00	
2025-01-18 02:38:33.55	7.27	8.01	
2025-01-18 02:38:33.76	7.25	8.02	
2025-01-18 02:38:33.96	7.22	8.03	
2025-01-18 02:38:34.16	7.20	8.04	
2025-01-18 02:38:34.37	7.18	8.06	
2025-01-18 02:38:34.57	7.16	8.07	
2025-01-18 02:38:34.77	7.13	8.08	
2025-01-18 02:38:34.97	7.11	8.09	
2025-01-18 02:38:35.18	7.09	8.10	
2025-01-18 02:38:35.38	7.06	8.12	
2025-01-18 02:38:35.58	7.04	8.13	
2025-01-18 02:38:35.79	7.02	8.14	
2025-01-18 02:38:35.99	6.99	8.15	
2025-01-18 02:38:36.19	6.97	8.16	
2025-01-18 02:38:36.40	6.95	8.18	
2025-01-18 02:38:36.60	6.92	8.19	
2025-01-18 02:38:36.80	6.90	8.20	
2025-01-18 02:38:37.00	6.88	8.21	
2025-01-18 02:38:37.21	6.85	8.22	
2025-01-18 02:38:37.41	6.83	8.24	
2025-01-18 02:38:37.61	6.81	8.25	
2025-01-18 02:38:37.82	6.78	8.26	
2025-01-18 02:38:38.02	6.76	8.27	
2025-01-18 02:38:38.22	6.74	8.28	
2025-01-18 02:38:38.42	6.72	8.30	
2025-01-18 02:38:38.63	6.69	8.31	
2025-01-18 02:38:38.83	6.67	8.32	
2025-01-18 02:38:39.03	6.64	8.33	
2025-01-18 02:38:39.24	6.62	8.34	
2025-01-18 02:38:39.44	6.60	8.36	
2025-01-18 02:38:39.64	6.57	8.37	
2025-01-18 02:38:39.85	6.55	8.38	
2025-01-18 02:38:40.05	6.53	8.39	
2025-01-18 02:38:40.25	6.50	8.40	
2025-01-18 02:38:40.45	6.48	8.42	
2025-01-18 02:38:40.66	6.46	8.43	
2025-01-18 02:38:40.86	6.43	8.44	
2025-01-18 02:38:41.06	6.41	8.45	
2025-01-18 02:38:41.27	6.38	8.46	
2025-01-18 02:38:41.47	6.36	8.48	
2025-01-18 02:38:41.67	6.34	8.49	
2025-01-18 02:38:41.88	6.31	8.50	
2025-01-18 02:38:42.08	6.29	8.51	
2025-01-18 02:38:42.28	6.27	8.52	
2025-01-18 02:38:42.48	6.24	8.53	
2025-01-18 02:38:42.69	6.22	8.55	
2025-01-18 02:38:42.89	6.19	8.56	
2025-01-18 02:38:43.09	6.17	8.57	
2025-01-18 02:38:43.30	6.15	8.58	
2025-01-18 02:38:43.50	6.12	8.60	
2025-01-18 02:38:43.70	6.10	8.61	
2025-01-18 02:38:43.91	6.07	8.62	
2025-01-18 02:38:44.11	6.05	8.63	
2025-01-18 02:38:44.31	6.03	8.64	
2025-01-18 02:38:44.51	6.00	8.65	
2025-01-18 02:38:44.72	5.98	8.67	
2025-01-18 02:38:44.92	5.96	8.68	
2025-01-18 02:38:45.12	5.93	8.69	
2025-01-18 02:38:45.33	5.91	8.70	
2025-01-18 02:38:45.53	5.88	8.72	
2025-01-18 02:38:45.73	5.86	8.73	
2025-01-18 02:38:45.94	5.83	8.74	
2025-01-18 02:38:46.14	5.81	8.75	
2025-01-18 02:38:46.34	5.79	8.76	
2025-01-18 02:38:46.54	5.76	8.77	
2025-01-18 02:38:46.75	5.74	8.79	
2025-01-18 02:38:46.95	5.71	8.80	
2025-01-18 02:38:47.15	5.69	8.81	
2025-01-18 02:38:47.36	5.66	8.82	
2025-01-18 02:38:47.56	5.64	8.84	
2025-01-18 02:38:47.76	5.62	8.85	
2025-01-18 02:38:47.96	5.59	8.86	
2025-01-18 02:38:48.17	5.57	8.87	
2025-01-18 02:38:48.37	5.54	8.88	
2025-01-18 02:38:48.57	5.52	8.89	
2025-01-18 02:38:48.78	5.49	8.91	
2025-01-18 02:38:48.98	5.47	8.92	
2025-01-18 02:38:49.18	5.45	8.93	
2025-01-18 02:38:49.39	5.42	8.94	
2025-01-18 02:38:49.59	5.40	8.96	
2025-01-18 02:38:49.79	5.37	8.97	
2025-01-18 02:38:49.99	5.35	8.98	
2025-01-18 02:38:50.20	5.32	8.99	
2025-01-18 02:38:50.40	5.30	9.00	
2025-01-18 02:38:50.60	5.27	9.02	
2025-01-18 02:38:50.81	5.25	9.03	
2025-01-18 02:38:51.01	5.22	9.04	
2025-01-18 02:38:51.21	5.20	9.05	
2025-01-18 02:38:51.42	5.17	9.06	
2025-01-18 02:38:51.62	5.15	9.08	
2025-01-18 02:38:51.82	5.13	9.09	
2025-01-18 02:38:52.02	5.10	9.10	
2025-01-18 02:38:52.23	5.08	9.11	
2025-01-18 02:38:52.43	5.05	9.12	
2025-01-18 02:38:52.63	5.03	9.14	
2025-01-18 02:38:52.84	5.00	9.15	
2025-01-18 02:38:53.04	4.98	9.16	
2025-01-18 02:38:53.24	4.95	9.17	
2025-01-18 02:38:53.45	4.93	9.18	
2025-01-18 02:38:53.65	4.90	9.20	
2025-01-18 02:38:53.85	4.88	9.21	
2025-01-18 02:38:54.05	4.85	9.22	
2025-01-18 02:38:54.26	4.83	9.23	
2025-01-18 02:38:54.46	4.80	9.24	
2025-01-18 02:38:54.66	4.78	9.26	
2025-01-18 02:38:54.87	4.75	9.27	
2025-01-18 02:38:55.07	4.73	9.28	
2025-01-18 02:38:55.27	4.70	9.29	
2025-01-18 02:38:55.48	4.68	9.30	
2025-01-18 02:38:55.68	4.65	9.32	
2025-01-18 02:38:55.88	4.63	9.33	
2025-01-18 02:38:56.08	4.60	9.34	
2025-01-18 02:38:56.29	4.58	9.35	
2025-01-18 02:38:56.49	4.55	9.36	
2025-01-18 02:38:56.69	4.53	9.38	
2025-01-18 02:38:56.90	4.50	9.39	
2025-01-18 02:38:57.10	4.48	9.40	
2025-01-18 02:38:57.30	4.45	9.41	
2025-01-18 02:38:57.50	4.43	9.42	
2025-01-18 02:38:57.71	4.40	9.44	
2025-01-18 02:38:57.91	4.37	9.45	
2025-01-18 02:38:58.11	4.35	9.46	
2025-01-18 02:38:58.32	4.32	9.47	
2025-01-18 02:38:58.52	4.30	9.48	
2025-01-18 02:38:58.72	4.27	9.50	
2025-01-18 02:38:58.93	4.25	9.51	
2025-01-18 02:38:59.13	4.22	9.52	
2025-01-18 02:38:59.33	4.20	9.53	
2025-01-18 02:38:59.53	4.17	9.54	
2025-01-18 02:38:59.74	4.14	9.56	
2025-01-18 02:38:59.94	4.12	9.57	
2025-01-18 02:39:00.14	4.09	9.58	
2025-01-18 02:39:00.35	4.07	9.59	
2025-01-18 02:39:00.55	4.04	9.60	
2025-01-18 02:39:00.75	4.02	9.62	
2025-01-18 02:39:00.96	3.99	9.63	
2025-01-18 02:39:01.16	3.96	9.64	
2025-01-18 02:39:01.36	3.94	9.65	
2025-01-18 02:39:01.56	3.91	9.66	
2025-01-18 02:39:01.77	3.89	9.68	
2025-01-18 02:39:01.97	3.86	9.69	
2025-01-18 02:39:02.17	3.84	9.70	
2025-01-18 02:39:02.38	3.81	9.71	
2025-01-18 02:39:02.58	3.78	9.73	
2025-01-18 02:39:02.78	3.76	9.74	
2025-01-18 02:39:02.99	3.73	9.75	
2025-01-18 02:39:03.19	3.71	9.76	
2025-01-18 02:39:03.39	3.68	9.77	
2025-01-18 02:39:03.59	3.66	9.79	
2025-01-18 02:39:03.80	3.63	9.80	
2025-01-18 02:39:04.00	3.60	9.81	
2025-01-18 02:39:04.20	3.58	9.82	
2025-01-18 02:39:04.41	3.55	9.83	
2025-01-18 02:39:04.61	3.52	9.85	
2025-01-18 02:39:04.81	3.50	9.86	
2025-01-18 02:39:05.02	3.47	9.87	
2025-01-18 02:39:05.22	3.45	9.88	
2025-01-18 02:39:05.42	3.42	9.89	
2025-01-18 02:39:05.62	3.39	9.91	
2025-01-18 02:39:05.83	3.37	9.92	
2025-01-18 02:39:06.03	3.34	9.93	
2025-01-18 02:39:06.23	3.32	9.94	
2025-01-18 02:39:06.44	3.29	9.95	
2025-01-18 02:39:06.64	3.26	9.97	
2025-01-18 02:39:06.84	3.24	9.98	
2025-01-18 02:39:07.05	3.21	9.99	
2025-01-18 02:39:07.25	3.18	10.00	
2025-01-18 02:39:07.45	3.16	10.01	
2025-01-18 02:39:07.65	3.13	10.03	
2025-01-18 02:39:07.86	3.10	10.04	
2025-01-18 02:39:08.06	3.08	10.05	
2025-01-18 02:39:08.26	3.05	10.06	
2025-01-18 02:39:08.47	3.02	10.07	
2025-01-18 02:39:08.67	3.00	10.09	
2025-01-18 02:39:08.87	2.97	10.10	
2025-01-18 02:39:09.07	2.95	10.11	
2025-01-18 02:39:09.28	2.92	10.12	
2025-01-18 02:39:09.48	2.89	10.13	
2025-01-18 02:39:09.68	2.87	10.15	
2025-01-18 02:39:09.89	2.84	10.16	
2025-01-18 02:39:10.09	2.81	10.17	
2025-01-18 02:39:10.29	2.78	10.18	
2025-01-18 02:39:10.50	2.76	10.20	
2025-01-18 02:39:10.70	2.73	10.21	
2025-01-18 02:39:10.90	2.70	10.22	
2025-01-18 02:39:11.10	2.68	10.23	
2025-01-18 02:39:11.31	2.65	10.24	
2025-01-18 02:39:11.51	2.62	10.25	
2025-01-18 02:39:11.71	2.60	10.27	
2025-01-18 02:39:11.92	2.57	10.28	
2025-01-18 02:39:12.12	2.54	10.29	
2025-01-18 02:39:12.32	2.52	10.30	
2025-01-18 02:39:12.53	2.49	10.32	
2025-01-18 02:39:12.73	2.46	10.33	
2025-01-18 02:39:12.93	2.44	10.34	
2025-01-18 02:39:13.13	2.41	10.35	
2025-01-18 02:39:13.34	2.38	10.36	
2025-01-18 02:39:13.54	2.35	10.38	
2025-01-18 02:39:13.74	2.33	10.39	
2025-01-18 02:39:13.95	2.30	10.40	
2025-01-18 02:39:14.15	2.27	10.41	
2025-01-18 02:39:14.35	2.25	10.42	
2025-01-18 02:39:14.56	2.22	10.44	
2025-01-18 02:39:14.76	2.19	10.45	
2025-01-18 02:39:14.96	2.16	10.46	
2025-01-18 02:39:15.16	2.14	10.47	
2025-01-18 02:39:15.37	2.11	10.48	
2025-01-18 02:39:15.57	2.08	10.50	
2025-01-18 02:39:15.77	2.05	10.51	
2025-01-18 02:39:15.98	2.03	10.52	
2025-01-18 02:39:16.18	2.00	10.53	
2025-01-18 02:39:16.38	1.97	10.54	
2025-01-18 02:39:16.58	1.95	10.56	
2025-01-18 02:39:16.79	1.92	10.57	
2025-01-18 02:39:16.99	1.89	10.58	
2025-01-18 02:39:17.19	1.86	10.59	
2025-01-18 02:39:17.40	1.83	10.60	
2025-01-18 02:39:17.60	1.81	10.62	
2025-01-18 02:39:17.80	1.78	10.63	
2025-01-18 02:39:18.01	1.75	10.64	
2025-01-18 02:39:18.21	1.72	10.65	
2025-01-18 02:39:18.41	1.70	10.66	
2025-01-18 02:39:18.61	1.67	10.68	
2025-01-18 02:39:18.82	1.64	10.69	
2025-01-18 02:39:19.02	1.61	10.70	
2025-01-18 02:39:19.22	1.59	10.71	
2025-01-18 02:39:19.43	1.56	10.72	
2025-01-18 02:39:19.63	1.53	10.74	
2025-01-18 02:39:19.83	1.50	10.75	
2025-01-18 02:39:20.04	1.47	10.76	
2025-01-18 02:39:20.24	1.45	10.77	
2025-01-18 02:39:20.44	1.42	10.78	
2025-01-18 02:39:20.64	1.39	10.80	
2025-01-18 02:39:20.85	1.36	10.81	
2025-01-18 02:39:21.05	1.34	10.82	
2025-01-18 02:39:21.25	1.31	10.83	
2025-01-18 02:39:21.46	1.28	10.84	
2025-01-18 02:39:21.66	1.25	10.86	
2025-01-18 02:39:21.86	1.22	10.87	
2025-01-18 02:39:22.07	1.19	10.88	
2025-01-18 02:39:22.27	1.17	10.89	
2025-01-18 02:39:22.47	1.14	10.90	
2025-01-18 02:39:22.67	1.11	10.92	
2025-01-18 02:39:22.88	1.08	10.93	
2025-01-18 02:39:23.08	1.05	10.94	
2025-01-18 02:39:23.28	1.03	10.95	
2025-01-18 02:39:23.49	1.00	10.96	
2025-01-18 02:39:23.69	0.97	10.98	
2025-01-18 02:39:23.89	0.94	10.99	
2025-01-18 02:39:24.10	0.91	11.00	
2025-01-18 02:39:24.30	0.88	11.01	
2025-01-18 02:39:24.50	0.86	11.02	
2025-01-18 02:39:24.70	0.83	11.04	
2025-01-18 02:39:24.91	0.80	11.05	
2025-01-18 02:39:25.11	0.77	11.06	
2025-01-18 02:39:25.31	0.74	11.07	
2025-01-18 02:39:25.52	0.71	11.08	
2025-01-18 02:39:25.72	0.69	11.10	
2025-01-18 02:39:25.92	0.66	11.11	
2025-01-18 02:39:26.13	0.63	11.12	
2025-01-18 02:39:26.33	0.60	11.13	
2025-01-18 02:39:26.53	0.57	11.14	
2025-01-18 02:39:26.73	0.54	11.16	
2025-01-18 02:39:26.94	0.51	11.17	
2025-01-18 02:39:27.14	0.49	11.18	
2025-01-18 02:39:27.34	0.46	11.19	
2025-01-18 02:39:27.55	0.43	11.20	
2025-01-18 02:39:27.75	0.40	11.22	
2025-01-18 02:39:27.95	0.37	11.23	
2025-01-18 02:39:28.15	0.34	11.24	
2025-01-18 02:39:28.36	0.31	11.25	
2025-01-18 02:39:28.56	0.28	11.26	
2025-01-18 02:39:28.76	0.26	11.28	
2025-01-18 02:39:28.97	0.23	11.29	
2025-01-18 02:39:29.17	0.20	11.30	
2025-01-18 02:39:29.37	0.17	11.31	
2025-01-18 02:39:29.58	0.14	11.32	
2025-01-18 02:39:29.78	0.11	11.34	
2025-01-18 02:39:29.98	0.08	11.35	
2025-01-18 02:39:30.18	0.05	11.36	
2025-01-18 02:39:30.39	0.02	11.37	
2025-01-18 02:39:30.59	360.00	11.38	
2025-01-18 02:39:30.79	359.97	11.40	
2025-01-18 02:39:31.00	359.94	11.41	
2025-01-18 02:39:31.20	359.91	11.42	
2025-01-18 02:39:31.40	359.88	11.43	
2025-01-18 02:39:31.61	359.85	11.44	
2025-01-18 02:39:31.81	359.82	11.46	
2025-01-18 02:39:32.01	359.79	11.47	
2025-01-18 02:39:32.21	359.76	11.48	
2025-01-18 02:39:32.42	359.73	11.49	
2025-01-18 02:39:32.62	359.70	11.50	
2025-01-18 02:39:32.82	359.67	11.52	
2025-01-18 02:39:33.03	359.64	11.53	
2025-01-18 02:39:33.23	359.62	11.54	
2025-01-18 02:39:33.43	359.59	11.55	
2025-01-18 02:39:33.64	359.56	11.56	
2025-01-18 02:39:33.84	359.53	11.58	
2025-01-18 02:39:34.04	359.50	11.59	
2025-01-18 02:39:34.24	359.47	11.60	
2025-01-18 02:39:34.45	359.44	11.61	
2025-01-18 02:39:34.65	359.41	11.62	
2025-01-18 02:39:34.85	359.38	11.63	
2025-01-18 02:39:35.06	359.35	11.65	
2025-01-18 02:39:35.26	359.32	11.66	
2025-01-18 02:39:35.46	359.29	11.67	
2025-01-18 02:39:35.67	359.26	11.68	
2025-01-18 02:39:35.87	359.23	11.69	
2025-01-18 02:39:36.07	359.20	11.71	
2025-01-18 02:39:36.27	359.17	11.72	
2025-01-18 02:39:36.48	359.14	11.73	
2025-01-18 02:39:36.68	359.11	11.74	
2025-01-18 02:39:36.88	359.08	11.75	
2025-01-18 02:39:37.09	359.05	11.77	
2025-01-18 02:39:37.29	359.02	11.78	
2025-01-18 02:39:37.49	358.99	11.79	
2025-01-18 02:39:37.69	358.96	11.80	
2025-01-18 02:39:37.90	358.93	11.81	
2025-01-18 02:39:38.10	358.90	11.83	
2025-01-18 02:39:38.30	358.87	11.84	
2025-01-18 02:39:38.51	358.84	11.85	
2025-01-18 02:39:38.71	358.81	11.86	
2025-01-18 02:39:38.91	358.78	11.87	
2025-01-18 02:39:39.12	358.75	11.88	
2025-01-18 02:39:39.32	358.72	11.90	
2025-01-18 02:39:39.52	358.69	11.91	
2025-01-18 02:39:39.72	358.66	11.92	
2025-01-18 02:39:39.93	358.63	11.93	
2025-01-18 02:39:40.13	358.60	11.94	
2025-01-18 02:39:40.33	358.57	11.96	
2025-01-18 02:39:40.54	358.54	11.97	
2025-01-18 02:39:40.74	358.51	11.98	
2025-01-18 02:39:40.94	358.48	11.99	
2025-01-18 02:39:41.15	358.45	12.00	
2025-01-18 02:39:41.35	358.42	12.02	
2025-01-18 02:39:41.55	358.39	12.03	
2025-01-18 02:39:41.75	358.36	12.04	
2025-01-18 02:39:41.96	358.33	12.05	
2025-01-18 02:39:42.16	358.30	12.06	
2025-01-18 02:39:42.36	358.27	12.07	
2025-01-18 02:39:42.57	358.24	12.09	
2025-01-18 02:39:42.77	358.21	12.10	
2025-01-18 02:39:42.97	358.18	12.11	
2025-01-18 02:39:43.18	358.14	12.12	
2025-01-18 02:39:43.38	358.11	12.13	
2025-01-18 02:39:43.58	358.08	12.15	
2025-01-18 02:39:43.78	358.05	12.16	
2025-01-18 02:39:43.99	358.02	12.17	
2025-01-18 02:39:44.19	357.99	12.18	
2025-01-18 02:39:44.39	357.96	12.19	
2025-01-18 02:39:44.60	357.93	12.21	
2025-01-18 02:39:44.80	357.90	12.22	
2025-01-18 02:39:45.00	357.87	12.23	
2025-01-18 02:39:45.21	357.84	12.24	
2025-01-18 02:39:45.41	357.81	12.25	
2025-01-18 02:39:45.61	357.78	12.26	
2025-01-18 02:39:45.81	357.75	12.28	
2025-01-18 02:39:46.02	357.71	12.29	
2025-01-18 02:39:46.22	357.68	12.30	
2025-01-18 02:39:46.42	357.65	12.31	
2025-01-18 02:39:46.63	357.62	12.32	
2025-01-18 02:39:46.83	357.59	12.33	
2025-01-18 02:39:47.03	357.56	12.35	
2025-01-18 02:39:47.24	357.53	12.36	
2025-01-18 02:39:47.44	357.50	12.37	
2025-01-18 02:39:47.64	357.47	12.38	
2025-01-18 02:39:47.84	357.44	12.39	
2025-01-18 02:39:48.05	357.40	12.41	
2025-01-18 02:39:48.25	357.37	12.42	
2025-01-18 02:39:48.45	357.34	12.43	
2025-01-18 02:39:48.66	357.31	12.44	
2025-01-18 02:39:48.86	357.28	12.45	
2025-01-18 02:39:49.06	357.25	12.46	
2025-01-18 02:39:49.26	357.22	12.48	
2025-01-18 02:39:49.47	357.18	12.49	
2025-01-18 02:39:49.67	357.15	12.50	
2025-01-18 02:39:49.87	357.12	12.51	
2025-01-18 02:39:50.08	357.09	12.52	
2025-01-18 02:39:50.28	357.06	12.54	
2025-01-18 02:39:50.48	357.03	12.55	
2025-01-18 02:39:50.69	356.99	12.56	
2025-01-18 02:39:50.89	356.96	12.57	
2025-01-18 02:39:51.09	356.93	12.58	
2025-01-18 02:39:51.29	356.90	12.59	
2025-01-18 02:39:51.50	356.87	12.61	
2025-01-18 02:39:51.70	356.84	12.62	
2025-01-18 02:39:51.90	356.81	12.63	
2025-01-18 02:39:52.11	356.77	12.64	
2025-01-18 02:39:52.31	356.74	12.65	
2025-01-18 02:39:52.51	356.71	12.66	
2025-01-18 02:39:52.72	356.68	12.68	
2025-01-18 02:39:52.92	356.65	12.69	
2025-01-18 02:39:53.12	356.62	12.70	
2025-01-18 02:39:53.32	356.58	12.71	
2025-01-18 02:39:53.53	356.55	12.72	
2025-01-18 02:39:53.73	356.52	12.73	
2025-01-18 02:39:53.93	356.49	12.75	
2025-01-18 02:39:54.14	356.45	12.76	
2025-01-18 02:39:54.34	356.42	12.77	
2025-01-18 02:39:54.54	356.39	12.78	
2025-01-18 02:39:54.75	356.36	12.79	
2025-01-18 02:39:54.95	356.33	12.80	
2025-01-18 02:39:55.15	356.30	12.82	
2025-01-18 02:39:55.35	356.26	12.83	
2025-01-18 02:39:55.56	356.23	12.84	
2025-01-18 02:39:55.76	356.20	12.85	
2025-01-18 02:39:55.96	356.17	12.86	
2025-01-18 02:39:56.17	356.13	12.87	
2025-01-18 02:39:56.37	356.10	12.89	
2025-01-18 02:39:56.57	356.07	12.90	
2025-01-18 02:39:56.78	356.04	12.91	
2025-01-18 02:39:56.98	356.00	12.92	
2025-01-18 02:39:57.18	355.97	12.93	
2025-01-18 02:39:57.38	355.94	12.94	
2025-01-18 02:39:57.59	355.91	12.96	
2025-01-18 02:39:57.79	355.88	12.97	
2025-01-18 02:39:57.99	355.84	12.98	
2025-01-18 02:39:58.20	355.81	12.99	
2025-01-18 02:39:58.40	355.78	13.00	
2025-01-18 02:39:58.60	355.75	13.01	
2025-01-18 02:39:58.80	355.71	13.03	
2025-01-18 02:39:59.01	355.68	13.04	
2025-01-18 02:39:59.21	355.65	13.05	
2025-01-18 02:39:59.41	355.62	13.06	
2025-01-18 02:39:59.62	355.58	13.07	
2025-01-18 02:39:59.82	355.55	13.08	
2025-01-18 02:40:00.02	355.52	13.10	
2025-01-18 02:40:00.23	355.48	13.11	
2025-01-18 02:40:00.43	355.45	13.12	
2025-01-18 02:40:00.63	355.42	13.13	
2025-01-18 02:40:00.83	355.39	13.14	
2025-01-18 02:40:01.04	355.35	13.15	
2025-01-18 02:40:01.24	355.32	13.17	
2025-01-18 02:40:01.44	355.29	13.18	
2025-01-18 02:40:01.65	355.25	13.19	
2025-01-18 02:40:01.85	355.22	13.20	
2025-01-18 02:40:02.05	355.19	13.21	
2025-01-18 02:40:02.26	355.15	13.22	
2025-01-18 02:40:02.46	355.12	13.23	
2025-01-18 02:40:02.66	355.09	13.25	
2025-01-18 02:40:02.86	355.06	13.26	
2025-01-18 02:40:03.07	355.02	13.27	
2025-01-18 02:40:03.27	354.99	13.28	
2025-01-18 02:40:03.47	354.96	13.29	
2025-01-18 02:40:03.68	354.92	13.30	
2025-01-18 02:40:03.88	354.89	13.32	
2025-01-18 02:40:04.08	354.86	13.33	
2025-01-18 02:40:04.29	354.82	13.34	
2025-01-18 02:40:04.49	354.79	13.35	
2025-01-18 02:40:04.69	354.76	13.36	
2025-01-18 02:40:04.89	354.72	13.37	
2025-01-18 02:40:05.10	354.69	13.38	
2025-01-18 02:40:05.30	354.66	13.40	
2025-01-18 02:40:05.50	354.62	13.41	
2025-01-18 02:40:05.71	354.59	13.42	
2025-01-18 02:40:05.91	354.56	13.43	
2025-01-18 02:40:06.11	354.52	13.44	
2025-01-18 02:40:06.32	354.49	13.45	
2025-01-18 02:40:06.52	354.45	13.46	
2025-01-18 02:40:06.72	354.42	13.48	
2025-01-18 02:40:06.92	354.39	13.49	
2025-01-18 02:40:07.13	354.35	13.50	
2025-01-18 02:40:07.33	354.32	13.51	
2025-01-18 02:40:07.53	354.29	13.52	
2025-01-18 02:40:07.74	354.25	13.53	
2025-01-18 02:40:07.94	354.22	13.54	
2025-01-18 02:40:08.14	354.19	13.56	
2025-01-18 02:40:08.34	354.15	13.57	
2025-01-18 02:40:08.55	354.12	13.58	
2025-01-18 02:40:08.75	354.08	13.59	
2025-01-18 02:40:08.95	354.05	13.60	
2025-01-18 02:40:09.16	354.02	13.61	
2025-01-18 02:40:09.36	353.98	13.62	
2025-01-18 02:40:09.56	353.95	13.64	
2025-01-18 02:40:09.77	353.91	13.65	
2025-01-18 02:40:09.97	353.88	13.66	
2025-01-18 02:40:10.17	353.85	13.67	
2025-01-18 02:40:10.37	353.81	13.68	
2025-01-18 02:40:10.58	353.78	13.69	
2025-01-18 02:40:10.78	353.74	13.70	
2025-01-18 02:40:10.98	353.71	13.72	
2025-01-18 02:40:11.19	353.67	13.73	
2025-01-18 02:40:11.39	353.64	13.74	
2025-01-18 02:40:11.59	353.61	13.75	
2025-01-18 02:40:11.80	353.57	13.76	
2025-01-18 02:40:12.00	353.54	13.77	
2025-01-18 02:40:12.20	353.50	13.78	
2025-01-18 02:40:12.40	353.47	13.79	
2025-01-18 02:40:12.61	353.44	13.81	
2025-01-18 02:40:12.81	353.40	13.82	
2025-01-18 02:40:13.01	353.37	13.83	
2025-01-18 02:40:13.22	353.33	13.84	
2025-01-18 02:40:13.42	353.30	13.85	
2025-01-18 02:40:13.62	353.26	13.86	
2025-01-18 02:40:13.83	353.23	13.87	
2025-01-18 02:40:14.03	353.19	13.89	
2025-01-18 02:40:14.23	353.16	13.90	
2025-01-18 02:40:14.43	353.13	13.91	
2025-01-18 02:40:14.64	353.09	13.92	
2025-01-18 02:40:14.84	353.06	13.93	
2025-01-18 02:40:15.04	353.02	13.94	
2025-01-18 02:40:15.25	352.99	13.95	
2025-01-18 02:40:15.45	352.95	13.96	
2025-01-18 02:40:15.65	352.92	13.98	
2025-01-18 02:40:15.86	352.88	13.99	
2025-01-18 02:40:16.06	352.85	14.00	
2025-01-18 02:40:16.26	352.81	14.01	
2025-01-18 02:40:16.46	352.78	14.02	
2025-01-18 02:40:16.67	352.74	14.03	
2025-01-18 02:40:16.87	352.71	14.04	
2025-01-18 02:40:17.07	352.67	14.05	
2025-01-18 02:40:17.28	352.64	14.07	
2025-01-18 02:40:17.48	352.60	14.08	
2025-01-18 02:40:17.68	352.57	14.09	
2025-01-18 02:40:17.88	352.53	14.10	
2025-01-18 02:40:18.09	352.50	14.11	
2025-01-18 02:40:18.29	352.46	14.12	
2025-01-18 02:40:18.49	352.43	14.13	
2025-01-18 02:40:18.70	352.39	14.14	
2025-01-18 02:40:18.90	352.36	14.15	
2025-01-18 02:40:19.10	352.32	14.17	
2025-01-18 02:40:19.31	352.29	14.18	
2025-01-18 02:40:19.51	352.25	14.19	
2025-01-18 02:40:19.71	352.22	14.20	
2025-01-18 02:40:19.91	352.18	14.21	
2025-01-18 02:40:20.12	352.14	14.22	
2025-01-18 02:40:20.32	352.11	14.23	
2025-01-18 02:40:20.52	352.07	14.24	
2025-01-18 02:40:20.73	352.04	14.25	
2025-01-18 02:40:20.93	352.00	14.27	
2025-01-18 02:40:21.13	351.97	14.28	
2025-01-18 02:40:21.34	351.93	14.29	
2025-01-18 02:40:21.54	351.90	14.30	
2025-01-18 02:40:21.74	351.86	14.31	
2025-01-18 02:40:21.94	351.83	14.32	
2025-01-18 02:40:22.15	351.79	14.33	
2025-01-18 02:40:22.35	351.75	14.34	
2025-01-18 02:40:22.55	351.72	14.35	
2025-01-18 02:40:22.76	351.68	14.37	
2025-01-18 02:40:22.96	351.65	14.38	
2025-01-18 02:40:23.16	351.61	14.39	
2025-01-18 02:40:23.37	351.57	14.40	
2025-01-18 02:40:23.57	351.54	14.41	
2025-01-18 02:40:23.77	351.50	14.42	
2025-01-18 02:40:23.97	351.47	14.43	
2025-01-18 02:40:24.18	351.43	14.44	
2025-01-18 02:40:24.38	351.40	14.45	
2025-01-18 02:40:24.58	351.36	14.46	
2025-01-18 02:40:24.79	351.32	14.48	
2025-01-18 02:40:24.99	351.29	14.49	
2025-01-18 02:40:25.19	351.25	14.50	
2025-01-18 02:40:25.40	351.21	14.51	
2025-01-18 02:40:25.60	351.18	14.52	
2025-01-18 02:40:25.80	351.14	14.53	
2025-01-18 02:40:26.00	351.11	14.54	
2025-01-18 02:40:26.21	351.07	14.55	
2025-01-18 02:40:26.41	351.03	14.56	
2025-01-18 02:40:26.61	351.00	14.57	
2025-01-18 02:40:26.82	350.96	14.59	
2025-01-18 02:40:27.02	350.93	14.60	
2025-01-18 02:40:27.22	350.89	14.61	
2025-01-18 02:40:27.43	350.85	14.62	
2025-01-18 02:40:27.63	350.82	14.63	
2025-01-18 02:40:27.83	350.78	14.64	
2025-01-18 02:40:28.03	350.74	14.65	
2025-01-18 02:40:28.24	350.71	14.66	
2025-01-18 02:40:28.44	350.67	14.67	
2025-01-18 02:40:28.64	350.64	14.68	
2025-01-18 02:40:28.85	350.60	14.69	
2025-01-18 02:40:29.05	350.56	14.70	
2025-01-18 02:40:29.25	350.53	14.72	
2025-01-18 02:40:29.45	350.49	14.73	
2025-01-18 02:40:29.66	350.45	14.74	
2025-01-18 02:40:29.86	350.42	14.75	
2025-01-18 02:40:30.06	350.38	14.76	
2025-01-18 02:40:30.27	350.34	14.77	
2025-01-18 02:40:30.47	350.30	14.78	
2025-01-18 02:40:30.67	350.27	14.79	
2025-01-18 02:40:30.88	350.23	14.80	
2025-01-18 02:40:31.08	350.19	14.81	
2025-01-18 02:40:31.28	350.16	14.82	
2025-01-18 02:40:31.48	350.12	14.83	
2025-01-18 02:40:31.69	350.08	14.84	
2025-01-18 02:40:31.89	350.05	14.86	
2025-01-18 02:40:32.09	350.01	14.87	
2025-01-18 02:40:32.30	349.97	14.88	
2025-01-18 02:40:32.50	349.94	14.89	
2025-01-18 02:40:32.70	349.90	14.90	
2025-01-18 02:40:32.91	349.86	14.91	
2025-01-18 02:40:33.11	349.82	14.92	
2025-01-18 02:40:33.31	349.79	14.93	
2025-01-18 02:40:33.51	349.75	14.94	
2025-01-18 02:40:33.72	349.71	14.95	
2025-01-18 02:40:33.92	349.68	14.96	
2025-01-18 02:40:34.12	349.64	14.97	
2025-01-18 02:40:34.33	349.60	14.98	
2025-01-18 02:40:34.53	349.56	14.99	
2025-01-18 02:40:34.73	349.53	15.00	
2025-01-18 02:40:34.94	349.49	15.02	
2025-01-18 02:40:35.14	349.45	15.03	
2025-01-18 02:40:35.34	349.41	15.04	
2025-01-18 02:40:35.54	349.38	15.05	
2025-01-18 02:40:35.75	349.34	15.06	
2025-01-18 02:40:35.95	349.30	15.07	
2025-01-18 02:40:36.15	349.27	15.08	
2025-01-18 02:40:36.36	349.23	15.09	
2025-01-18 02:40:36.56	349.19	15.10	
2025-01-18 02:40:36.76	349.15	15.11	
2025-01-18 02:40:36.97	349.11	15.12	
2025-01-18 02:40:37.17	349.08	15.13	
2025-01-18 02:40:37.37	349.04	15.14	
2025-01-18 02:40:37.57	349.00	15.15	
2025-01-18 02:40:37.78	348.96	15.16	
2025-01-18 02:40:37.98	348.93	15.17	
2025-01-18 02:40:38.18	348.89	15.18	
2025-01-18 02:40:38.39	348.85	15.20	
2025-01-18 02:40:38.59	348.81	15.21	
2025-01-18 02:40:38.79	348.77	15.22	
2025-01-18 02:40:38.99	348.74	15.23	
2025-01-18 02:40:39.20	348.70	15.24	
2025-01-18 02:40:39.40	348.66	15.25	
2025-01-18 02:40:39.60	348.62	15.26	
2025-01-18 02:40:39.81	348.58	15.27	
2025-01-18 02:40:40.01	348.55	15.28	
2025-01-18 02:40:40.21	348.51	15.29	
2025-01-18 02:40:40.42	348.47	15.30	
2025-01-18 02:40:40.62	348.43	15.31	
2025-01-18 02:40:40.82	348.39	15.32	
2025-01-18 02:40:41.02	348.36	15.33	
2025-01-18 02:40:41.23	348.32	15.34	
2025-01-18 02:40:41.43	348.28	15.35	
2025-01-18 02:40:41.63	348.24	15.36	
2025-01-18 02:40:41.84	348.20	15.37	
2025-01-18 02:40:42.04	348.17	15.38	
2025-01-18 02:40:42.24	348.13	15.39	
2025-01-18 02:40:42.45	348.09	15.40	
2025-01-18 02:40:42.65	348.05	15.41	
2025-01-18 02:40:42.85	348.01	15.42	
2025-01-18 02:40:43.05	347.97	15.43	
2025-01-18 02:40:43.26	347.93	15.44	
2025-01-18 02:40:43.46	347.90	15.45	
2025-01-18 02:40:43.66	347.86	15.46	
2025-01-18 02:40:43.87	347.82	15.48	
2025-01-18 02:40:44.07	347.78	15.49	
2025-01-18 02:40:44.27	347.74	15.50	
2025-01-18 02:40:44.48	347.70	15.51	
2025-01-18 02:40:44.68	347.66	15.52	
2025-01-18 02:40:44.88	347.63	15.53	
2025-01-18 02:40:45.08	347.59	15.54	
2025-01-18 02:40:45.29	347.55	15.55	
2025-01-18 02:40:45.49	347.51	15.56	
2025-01-18 02:40:45.69	347.47	15.57	
2025-01-18 02:40:45.90	347.43	15.58	
2025-01-18 02:40:46.10	347.39	15.59	
2025-01-18 02:40:46.30	347.36	15.60	
2025-01-18 02:40:46.51	347.31	15.61	
2025-01-18 02:40:46.71	347.28	15.62	
2025-01-18 02:40:46.91	347.24	15.63	
2025-01-18 02:40:47.11	347.20	15.64	
2025-01-18 02:40:47.32	347.16	15.65	
2025-01-18 02:40:47.52	347.12	15.66	
2025-01-18 02:40:47.72	347.08	15.67	
2025-01-18 02:40:47.93	347.04	15.68	
2025-01-18 02:40:48.13	347.00	15.69	
2025-01-18 02:40:48.33	346.96	15.70	
2025-01-18 02:40:48.53	346.93	15.71	
2025-01-18 02:40:48.74	346.89	15.72	
2025-01-18 02:40:48.94	346.85	15.73	
2025-01-18 02:40:49.14	346.81	15.74	
2025-01-18 02:40:49.35	346.77	15.75	
2025-01-18 02:40:49.55	346.73	15.76	
2025-01-18 02:40:49.75	346.69	15.77	
2025-01-18 02:40:49.96	346.65	15.78	
2025-01-18 02:40:50.16	346.61	15.79	
2025-01-18 02:40:50.36	346.57	15.80	
2025-01-18 02:40:50.56	346.53	15.81	
2025-01-18 02:40:50.77	346.49	15.82	
2025-01-18 02:40:50.97	346.45	15.83	
2025-01-18 02:40:51.17	346.41	15.84	
2025-01-18 02:40:51.38	346.37	15.85	
2025-01-18 02:40:51.58	346.33	15.86	
2025-01-18 02:40:51.78	346.30	15.87	
2025-01-18 02:40:51.99	346.25	15.88	
2025-01-18 02:40:52.19	346.22	15.89	
2025-01-18 02:40:52.39	346.18	15.90	
2025-01-18 02:40:52.59	346.14	15.91	
2025-01-18 02:40:52.80	346.10	15.92	
2025-01-18 02:40:53.00	346.06	15.93	
2025-01-18 02:40:53.20	346.02	15.94	
2025-01-18 02:40:53.41	345.98	15.95	
2025-01-18 02:40:53.61	345.94	15.96	
2025-01-18 02:40:53.81	345.90	15.97	
2025-01-18 02:40:54.02	345.86	15.98	
2025-01-18 02:40:54.22	345.82	15.99	
2025-01-18 02:40:54.42	345.78	16.00	
2025-01-18 02:40:54.62	345.74	16.01	
2025-01-18 02:40:54.83	345.70	16.02	
2025-01-18 02:40:55.03	345.66	16.03	
2025-01-18 02:40:55.23	345.62	16.04	
2025-01-18 02:40:55.44	345.58	16.05	
2025-01-18 02:40:55.64	345.54	16.05	
2025-01-18 02:40:55.84	345.50	16.06	
2025-01-18 02:40:56.05	345.46	16.07	
2025-01-18 02:40:56.25	345.42	16.08	
2025-01-18 02:40:56.45	345.38	16.09	
2025-01-18 02:40:56.65	345.34	16.10	
2025-01-18 02:40:56.86	345.30	16.11	
2025-01-18 02:40:57.06	345.26	16.12	
2025-01-18 02:40:57.26	345.22	16.13	
2025-01-18 02:40:57.47	345.18	16.14	
2025-01-18 02:40:57.67	345.14	16.15	
2025-01-18 02:40:57.87	345.10	16.16	
2025-01-18 02:40:58.08	345.05	16.17	
2025-01-18 02:40:58.28	345.01	16.18	
2025-01-18 02:40:58.48	344.97	16.19	
2025-01-18 02:40:58.68	344.93	16.20	
2025-01-18 02:40:58.89	344.89	16.21	
2025-01-18 02:40:59.09	344.85	16.22	
2025-01-18 02:40:59.29	344.81	16.23	
2025-01-18 02:40:59.50	344.77	16.24	
2025-01-18 02:40:59.70	344.73	16.25	
2025-01-18 02:40:59.90	344.69	16.26	
2025-01-18 02:41:00.10	344.65	16.27	
2025-01-18 02:41:00.31	344.61	16.28	
2025-01-18 02:41:00.51	344.57	16.28	
2025-01-18 02:41:00.71	344.53	16.29	
2025-01-18 02:41:00.92	344.49	16.30	
2025-01-18 02:41:01.12	344.45	16.31	
2025-01-18 02:41:01.32	344.41	16.32	
2025-01-18 02:41:01.53	344.36	16.33	
2025-01-18 02:41:01.73	344.32	16.34	
2025-01-18 02:41:01.93	344.28	16.35	
2025-01-18 02:41:02.13	344.24	16.36	
2025-01-18 02:41:02.34	344.20	16.37	
2025-01-18 02:41:02.54	344.16	16.38	
2025-01-18 02:41:02.74	344.12	16.39	
2025-01-18 02:41:02.95	344.08	16.40	
2025-01-18 02:41:03.15	344.04	16.41	
2025-01-18 02:41:03.35	344.00	16.42	
2025-01-18 02:41:03.56	343.95	16.43	
2025-01-18 02:41:03.76	343.91	16.43	
2025-01-18 02:41:03.96	343.87	16.44	
2025-01-18 02:41:04.16	343.83	16.45	
2025-01-18 02:41:04.37	343.79	16.46	
2025-01-18 02:41:04.57	343.75	16.47	
2025-01-18 02:41:04.77	343.71	16.48	
2025-01-18 02:41:04.98	343.67	16.49	
2025-01-18 02:41:05.18	343.62	16.50	
2025-01-18 02:41:05.38	343.58	16.51	
2025-01-18 02:41:05.59	343.54	16.52	
2025-01-18 02:41:05.79	343.50	16.53	
2025-01-18 02:41:05.99	343.46	16.54	
2025-01-18 02:41:06.19	343.42	16.54	
2025-01-18 02:41:06.40	343.38	16.55	
2025-01-18 02:41:06.60	343.33	16.56	
2025-01-18 02:41:06.80	343.29	16.57	
2025-01-18 02:41:07.01	343.25	16.58	
2025-01-18 02:41:07.21	343.21	16.59	
2025-01-18 02:41:07.41	343.17	16.60	
2025-01-18 02:41:07.62	343.13	16.61	
2025-01-18 02:41:07.82	343.08	16.62	
2025-01-18 02:41:08.02	343.04	16.63	
2025-01-18 02:41:08.22	343.00	16.64	
2025-01-18 02:41:08.43	342.96	16.64	
2025-01-18 02:41:08.63	342.92	16.65	
2025-01-18 02:41:08.83	342.88	16.66	
2025-01-18 02:41:09.04	342.83	16.67	
2025-01-18 02:41:09.24	342.79	16.68	
2025-01-18 02:41:09.44	342.75	16.69	
2025-01-18 02:41:09.64	342.71	16.70	
2025-01-18 02:41:09.85	342.67	16.71	
2025-01-18 02:41:10.05	342.63	16.72	
2025-01-18 02:41:10.25	342.58	16.72	
2025-01-18 02:41:10.46	342.54	16.73	
2025-01-18 02:41:10.66	342.50	16.74	
2025-01-18 02:41:10.86	342.46	16.75	
2025-01-18 02:41:11.07	342.41	16.76	
2025-01-18 02:41:11.27	342.37	16.77	
2025-01-18 02:41:11.47	342.33	16.78	
2025-01-18 02:41:11.67	342.29	16.79	
2025-01-18 02:41:11.88	342.25	16.80	
2025-01-18 02:41:12.08	342.20	16.80	
2025-01-18 02:41:12.28	342.16	16.81	
2025-01-18 02:41:12.49	342.12	16.82	
2025-01-18 02:41:12.69	342.08	16.83	
2025-01-18 02:41:12.89	342.04	16.84	
2025-01-18 02:41:13.10	341.99	16.85	
2025-01-18 02:41:13.30	341.95	16.86	
2025-01-18 02:41:13.50	341.91	16.87	
2025-01-18 02:41:13.70	341.87	16.87	
2025-01-18 02:41:13.91	341.82	16.88	
2025-01-18 02:41:14.11	341.78	16.89	
2025-01-18 02:41:14.31	341.74	16.90	
2025-01-18 02:41:14.52	341.70	16.91	
2025-01-18 02:41:14.72	341.65	16.92	
2025-01-18 02:41:14.92	341.61	16.93	
2025-01-18 02:41:15.13	341.57	16.93	
2025-01-18 02:41:15.33	341.53	16.94	
2025-01-18 02:41:15.53	341.48	16.95	
2025-01-18 02:41:15.73	341.44	16.96	
2025-01-18 02:41:15.94	341.40	16.97	
2025-01-18 02:41:16.14	341.36	16.98	
2025-01-18 02:41:16.34	341.31	16.99	
2025-01-18 02:41:16.55	341.27	16.99	
2025-01-18 02:41:16.75	341.23	17.00	
2025-01-18 02:41:16.95	341.19	17.01	
2025-01-18 02:41:17.16	341.14	17.02	
2025-01-18 02:41:17.36	341.10	17.03	
2025-01-18 02:41:17.56	341.06	17.04	
2025-01-18 02:41:17.76	341.01	17.04	
2025-01-18 02:41:17.97	340.97	17.05	
2025-01-18 02:41:18.17	340.93	17.06	
2025-01-18 02:41:18.37	340.89	17.07	
2025-01-18 02:41:18.58	340.84	17.08	
2025-01-18 02:41:18.78	340.80	17.09	
2025-01-18 02:41:18.98	340.76	17.09	
2025-01-18 02:41:19.18	340.71	17.10	
2025-01-18 02:41:19.39	340.67	17.11	
2025-01-18 02:41:19.59	340.63	17.12	
2025-01-18 02:41:19.79	340.58	17.13	
2025-01-18 02:41:20.00	340.54	17.14	
2025-01-18 02:41:20.20	340.50	17.14	
2025-01-18 02:41:20.40	340.45	17.15	
2025-01-18 02:41:20.61	340.41	17.16	
2025-01-18 02:41:20.81	340.37	17.17	
2025-01-18 02:41:21.01	340.33	17.18	
2025-01-18 02:41:21.21	340.28	17.19	
2025-01-18 02:41:21.42	340.24	17.19	
2025-01-18 02:41:21.62	340.19	17.20	
2025-01-18 02:41:21.82	340.15	17.21	
2025-01-18 02:41:22.03	340.11	17.22	
2025-01-18 02:41:22.23	340.06	17.23	
2025-01-18 02:41:22.43	340.02	17.23	
2025-01-18 02:41:22.64	339.98	17.24	
2025-01-18 02:41:22.84	339.93	17.25	
2025-01-18 02:41:23.04	339.89	17.26	
2025-01-18 02:41:23.24	339.85	17.27	
2025-01-18 02:41:23.45	339.80	17.27	
2025-01-18 02:41:23.65	339.76	17.28	
2025-01-18 02:41:23.85	339.72	17.29	
2025-01-18 02:41:24.06	339.67	17.30	
2025-01-18 02:41:24.26	339.63	17.31	
2025-01-18 02:41:24.46	339.59	17.31	
2025-01-18 02:41:24.67	339.54	17.32	
2025-01-18 02:41:24.87	339.50	17.33	
2025-01-18 02:41:25.07	339.46	17.34	
2025-01-18 02:41:25.27	339.41	17.35	
2025-01-18 02:41:25.48	339.37	17.35	
2025-01-18 02:41:25.68	339.32	17.36	
2025-01-18 02:41:25.88	339.28	17.37	
2025-01-18 02:41:26.09	339.23	17.38	
2025-01-18 02:41:26.29	339.19	17.39	
2025-01-18 02:41:26.49	339.15	17.39	
2025-01-18 02:41:26.70	339.10	17.40	
2025-01-18 02:41:26.90	339.06	17.41	
2025-01-18 02:41:27.10	339.02	17.42	
2025-01-18 02:41:27.30	338.97	17.42	
2025-01-18 02:41:27.51	338.93	17.43	
2025-01-18 02:41:27.71	338.88	17.44	
2025-01-18 02:41:27.91	338.84	17.45	
2025-01-18 02:41:28.12	338.80	17.45	
2025-01-18 02:41:28.32	338.75	17.46	
2025-01-18 02:41:28.52	338.71	17.47	
2025-01-18 02:41:28.72	338.66	17.48	
2025-01-18 02:41:28.93	338.62	17.49	
2025-01-18 02:41:29.13	338.58	17.49	
2025-01-18 02:41:29.33	338.53	17.50	
2025-01-18 02:41:29.54	338.49	17.51	
2025-01-18 02:41:29.74	338.44	17.52	
2025-01-18 02:41:29.94	338.40	17.52	
2025-01-18 02:41:30.15	338.35	17.53	
2025-01-18 02:41:30.35	338.31	17.54	
2025-01-18 02:41:30.55	338.27	17.55	
2025-01-18 02:41:30.75	338.22	17.55	
2025-01-18 02:41:30.96	338.18	17.56	
2025-01-18 02:41:31.16	338.13	17.57	
2025-01-18 02:41:31.36	338.09	17.58	
2025-01-18 02:41:31.57	338.04	17.58	
2025-01-18 02:41:31.77	338.00	17.59	
2025-01-18 02:41:31.97	337.96	17.60	
2025-01-18 02:41:32.18	337.91	17.61	
2025-01-18 02:41:32.38	337.87	17.61	
2025-01-18 02:41:32.58	337.82	17.62	
2025-01-18 02:41:32.78	337.78	17.63	
2025-01-18 02:41:32.99	337.73	17.63	
2025-01-18 02:41:33.19	337.69	17.64	
2025-01-18 02:41:33.39	337.64	17.65	
2025-01-18 02:41:33.60	337.60	17.66	
2025-01-18 02:41:33.80	337.55	17.66	
2025-01-18 02:41:34.00	337.51	17.67	
2025-01-18 02:41:34.21	337.46	17.68	
2025-01-18 02:41:34.41	337.42	17.69	
2025-01-18 02:41:34.61	337.37	17.69	
2025-01-18 02:41:34.81	337.33	17.70	
2025-01-18 02:41:35.02	337.28	17.71	
2025-01-18 02:41:35.22	337.24	17.71	
2025-01-18 02:41:35.42	337.20	17.72	
2025-01-18 02:41:35.63	337.15	17.73	
2025-01-18 02:41:35.83	337.10	17.74	
2025-01-18 02:41:36.03	337.06	17.74	
2025-01-18 02:41:36.24	337.01	17.75	
2025-01-18 02:41:36.44	336.97	17.76	
2025-01-18 02:41:36.64	336.93	17.76	
2025-01-18 02:41:36.84	336.88	17.77	
2025-01-18 02:41:37.05	336.83	17.78	
2025-01-18 02:41:37.25	336.79	17.78	
2025-01-18 02:41:37.45	336.75	17.79	
2025-01-18 02:41:37.66	336.70	17.80	
2025-01-18 02:41:37.86	336.65	17.81	
2025-01-18 02:41:38.06	336.61	17.81	
2025-01-18 02:41:38.27	336.56	17.82	
2025-01-18 02:41:38.47	336.52	17.83	
2025-01-18 02:41:38.67	336.47	17.83	
2025-01-18 02:41:38.87	336.43	17.84	
2025-01-18 02:41:39.08	336.38	17.85	
2025-01-18 02:41:39.28	336.34	17.85	
2025-01-18 02:41:39.48	336.29	17.86	
2025-01-18 02:41:39.69	336.25	17.87	
2025-01-18 02:41:39.89	336.20	17.87	
2025-01-18 02:41:40.09	336.16	17.88	
2025-01-18 02:41:40.29	336.11	17.89	
2025-01-18 02:41:40.50	336.07	17.89	
2025-01-18 02:41:40.70	336.02	17.90	
2025-01-18 02:41:40.90	335.98	17.91	
2025-01-18 02:41:41.11	335.93	17.91	
2025-01-18 02:41:41.31	335.88	17.92	
2025-01-18 02:41:41.51	335.84	17.93	
2025-01-18 02:41:41.72	335.79	17.93	
2025-01-18 02:41:41.92	335.75	17.94	
2025-01-18 02:41:42.12	335.70	17.95	
2025-01-18 02:41:42.32	335.66	17.95	
2025-01-18 02:41:42.53	335.61	17.96	
2025-01-18 02:41:42.73	335.57	17.97	
2025-01-18 02:41:42.93	335.52	17.97	
2025-01-18 02:41:43.14	335.47	17.98	
2025-01-18 02:41:43.34	335.43	17.99	
2025-01-18 02:41:43.54	335.38	17.99	
2025-01-18 02:41:43.75	335.34	18.00	
2025-01-18 02:41:43.95	335.29	18.01	
2025-01-18 02:41:44.15	335.25	18.01	
2025-01-18 02:41:44.35	335.20	18.02	
2025-01-18 02:41:44.56	335.15	18.02	
2025-01-18 02:41:44.76	335.11	18.03	
2025-01-18 02:41:44.96	335.06	18.04	
2025-01-18 02:41:45.17	335.02	18.04	
2025-01-18 02:41:45.37	334.97	18.05	
2025-01-18 02:41:45.57	334.93	18.06	
2025-01-18 02:41:45.78	334.88	18.06	
2025-01-18 02:41:45.98	334.83	18.07	
2025-01-18 02:41:46.18	334.79	18.07	
2025-01-18 02:41:46.38	334.74	18.08	
2025-01-18 02:41:46.59	334.69	18.09	
2025-01-18 02:41:46.79	334.65	18.09	
2025-01-18 02:41:46.99	334.60	18.10	
2025-01-18 02:41:47.20	334.56	18.11	
2025-01-18 02:41:47.40	334.51	18.11	
2025-01-18 02:41:47.60	334.47	18.12	
2025-01-18 02:41:47.81	334.42	18.12	
2025-01-18 02:41:48.01	334.37	18.13	
2025-01-18 02:41:48.21	334.33	18.14	
2025-01-18 02:41:48.41	334.28	18.14	
2025-01-18 02:41:48.62	334.23	18.15	
2025-01-18 02:41:48.82	334.19	18.15	
2025-01-18 02:41:49.02	334.14	18.16	
2025-01-18 02:41:49.23	334.10	18.17	
2025-01-18 02:41:49.43	334.05	18.17	
2025-01-18 02:41:49.63	334.00	18.18	
2025-01-18 02:41:49.83	333.96	18.18	
2025-01-18 02:41:50.04	333.91	18.19	
2025-01-18 02:41:50.24	333.86	18.20	
2025-01-18 02:41:50.44	333.82	18.20	
2025-01-18 02:41:50.65	333.77	18.21	
2025-01-18 02:41:50.85	333.73	18.21	
2025-01-18 02:41:51.05	333.68	18.22	
2025-01-18 02:41:51.26	333.63	18.22	
2025-01-18 02:41:51.46	333.59	18.23	
2025-01-18 02:41:51.66	333.54	18.24	
2025-01-18 02:41:51.86	333.49	18.24	
2025-01-18 02:41:52.07	333.45	18.25	
2025-01-18 02:41:52.27	333.40	18.25	
2025-01-18 02:41:52.47	333.35	18.26	
2025-01-18 02:41:52.68	333.31	18.26	
2025-01-18 02:41:52.88	333.26	18.27	
2025-01-18 02:41:53.08	333.22	18.28	
2025-01-18 02:41:53.29	333.17	18.28	
2025-01-18 02:41:53.49	333.12	18.29	
2025-01-18 02:41:53.69	333.07	18.29	
2025-01-18 02:41:53.89	333.03	18.30	
2025-01-18 02:41:54.10	332.98	18.30	
2025-01-18 02:41:54.30	332.93	18.31	
2025-01-18 02:41:54.50	332.89	18.31	
2025-01-18 02:41:54.71	332.84	18.32	
2025-01-18 02:41:54.91	332.79	18.33	
2025-01-18 02:41:55.11	332.75	18.33	
2025-01-18 02:41:55.32	332.70	18.34	
2025-01-18 02:41:55.52	332.65	18.34	
2025-01-18 02:41:55.72	332.61	18.35	
2025-01-18 02:41:55.92	332.56	18.35	
2025-01-18 02:41:56.13	332.51	18.36	
2025-01-18 02:41:56.33	332.47	18.36	
2025-01-18 02:41:56.53	332.42	18.37	
2025-01-18 02:41:56.74	332.37	18.37	
2025-01-18 02:41:56.94	332.33	18.38	
2025-01-18 02:41:57.15	332.28	18.38	
2025-01-18 02:41:57.35	332.23	18.39	
2025-01-18 02:41:57.55	332.19	18.40	
2025-01-18 02:41:57.75	332.14	18.40	
2025-01-18 02:41:57.96	332.09	18.41	
2025-01-18 02:41:58.16	332.04	18.41	
2025-01-18 02:41:58.36	332.00	18.42	
2025-01-18 02:41:58.57	331.95	18.42	
2025-01-18 02:41:58.77	331.90	18.43	
2025-01-18 02:41:58.97	331.86	18.43	
2025-01-18 02:41:59.18	331.81	18.44	
2025-01-18 02:41:59.38	331.76	18.44	
2025-01-18 02:41:59.58	331.71	18.45	
2025-01-18 02:41:59.78	331.67	18.45	
2025-01-18 02:41:59.99	331.62	18.46	
2025-01-18 02:42:00.19	331.57	18.46	
2025-01-18 02:42:00.39	331.53	18.47	
2025-01-18 02:42:00.60	331.48	18.47	
2025-01-18 02:42:00.80	331.43	18.48	
2025-01-18 02:42:01.00	331.38	18.48	
2025-01-18 02:42:01.20	331.34	18.49	
2025-01-18 02:42:01.41	331.29	18.49	
2025-01-18 02:42:01.61	331.24	18.50	
2025-01-18 02:42:01.81	331.20	18.50	
2025-01-18 02:42:02.02	331.15	18.51	
2025-01-18 02:42:02.22	331.10	18.51	
2025-01-18 02:42:02.42	331.05	18.51	
2025-01-18 02:42:02.63	331.01	18.52	
2025-01-18 02:42:02.83	330.96	18.52	
2025-01-18 02:42:03.03	330.91	18.53	
2025-01-18 02:42:03.23	330.87	18.53	
2025-01-18 02:42:03.44	330.82	18.54	
2025-01-18 02:42:03.64	330.77	18.54	
2025-01-18 02:42:03.84	330.72	18.55	
2025-01-18 02:42:04.05	330.67	18.55	
2025-01-18 02:42:04.25	330.63	18.56	
2025-01-18 02:42:04.45	330.58	18.56	
2025-01-18 02:42:04.66	330.53	18.57	
2025-01-18 02:42:04.86	330.48	18.57	
2025-01-18 02:42:05.06	330.44	18.57	
2025-01-18 02:42:05.26	330.39	18.58	
2025-01-18 02:42:05.47	330.34	18.58	
2025-01-18 02:42:05.67	330.29	18.59	
2025-01-18 02:42:05.87	330.25	18.59	
2025-01-18 02:42:06.08	330.20	18.60	
2025-01-18 02:42:06.28	330.15	18.60	
2025-01-18 02:42:06.48	330.10	18.61	
2025-01-18 02:42:06.69	330.06	18.61	
2025-01-18 02:42:06.89	330.01	18.61	
2025-01-18 02:42:07.09	329.96	18.62	
2025-01-18 02:42:07.29	329.91	18.62	
2025-01-18 02:42:07.50	329.87	18.63	
2025-01-18 02:42:07.70	329.82	18.63	
2025-01-18 02:42:07.90	329.77	18.64	
2025-01-18 02:42:08.11	329.72	18.64	
2025-01-18 02:42:08.31	329.67	18.64	
2025-01-18 02:42:08.51	329.63	18.65	
2025-01-18 02:42:08.72	329.58	18.65	
2025-01-18 02:42:08.92	329.53	18.66	
2025-01-18 02:42:09.12	329.48	18.66	
2025-01-18 02:42:09.32	329.44	18.66	
2025-01-18 02:42:09.54	329.39	18.67	
2025-01-18 02:42:09.74	329.34	18.67	
2025-01-18 02:42:09.95	329.29	18.68	
2025-01-18 02:42:10.15	329.24	18.68	
2025-01-18 02:42:10.35	329.19	18.68	
2025-01-18 02:42:10.55	329.15	18.69	
2025-01-18 02:42:10.76	329.10	18.69	
2025-01-18 02:42:10.96	329.05	18.70	
2025-01-18 02:42:11.16	329.00	18.70	
2025-01-18 02:42:11.37	328.95	18.70	
2025-01-18 02:42:11.57	328.91	18.71	
2025-01-18 02:42:11.77	328.86	18.71	
2025-01-18 02:42:11.98	328.81	18.72	
2025-01-18 02:42:12.18	328.76	18.72	
2025-01-18 02:42:12.38	328.72	18.72	
2025-01-18 02:42:12.58	328.67	18.73	
2025-01-18 02:42:12.79	328.62	18.73	
2025-01-18 02:42:12.99	328.57	18.73	
2025-01-18 02:42:13.19	328.52	18.74	
2025-01-18 02:42:13.40	328.47	18.74	
2025-01-18 02:42:13.60	328.43	18.75	
2025-01-18 02:42:13.80	328.38	18.75	
2025-01-18 02:42:14.01	328.33	18.75	
2025-01-18 02:42:14.21	328.28	18.76	
2025-01-18 02:42:14.41	328.23	18.76	
2025-01-18 02:42:14.61	328.19	18.76	
2025-01-18 02:42:14.82	328.14	18.77	
2025-01-18 02:42:15.02	328.09	18.77	
2025-01-18 02:42:15.22	328.04	18.77	
2025-01-18 02:42:15.43	327.99	18.78	
2025-01-18 02:42:15.63	327.95	18.78	
2025-01-18 02:42:15.83	327.90	18.78	
2025-01-18 02:42:16.03	327.85	18.79	
2025-01-18 02:42:16.24	327.80	18.79	
2025-01-18 02:42:16.44	327.75	18.80	
2025-01-18 02:42:16.64	327.71	18.80	
2025-01-18 02:42:16.85	327.66	18.80	
2025-01-18 02:42:17.05	327.61	18.81	
2025-01-18 02:42:17.25	327.56	18.81	
2025-01-18 02:42:17.46	327.51	18.81	
2025-01-18 02:42:17.66	327.46	18.81	
2025-01-18 02:42:17.86	327.42	18.82	
2025-01-18 02:42:18.06	327.37	18.82	
2025-01-18 02:42:18.27	327.32	18.82	
2025-01-18 02:42:18.47	327.27	18.83	
2025-01-18 02:42:18.67	327.22	18.83	
2025-01-18 02:42:18.88	327.17	18.83	
2025-01-18 02:42:19.08	327.12	18.84	
2025-01-18 02:42:19.28	327.08	18.84	
2025-01-18 02:42:19.49	327.03	18.84	
2025-01-18 02:42:19.69	326.98	18.85	
2025-01-18 02:42:19.89	326.93	18.85	
2025-01-18 02:42:20.09	326.88	18.85	
2025-01-18 02:42:20.30	326.83	18.86	
2025-01-18 02:42:20.50	326.79	18.86	
2025-01-18 02:42:20.70	326.74	18.86	
2025-01-18 02:42:20.91	326.69	18.86	
2025-01-18 02:42:21.11	326.64	18.87	
2025-01-18 02:42:21.31	326.59	18.87	
2025-01-18 02:42:21.52	326.54	18.87	
2025-01-18 02:42:21.72	326.49	18.88	
2025-01-18 02:42:21.92	326.45	18.88	
2025-01-18 02:42:22.12	326.40	18.88	
2025-01-18 02:42:22.33	326.35	18.88	
2025-01-18 02:42:22.53	326.30	18.89	
2025-01-18 02:42:22.73	326.25	18.89	
2025-01-18 02:42:22.94	326.20	18.89	
2025-01-18 02:42:23.14	326.16	18.89	
2025-01-18 02:42:23.34	326.11	18.90	
2025-01-18 02:42:23.55	326.06	18.90	
2025-01-18 02:42:23.75	326.01	18.90	
2025-01-18 02:42:23.95	325.96	18.91	
2025-01-18 02:42:24.15	325.91	18.91	
2025-01-18 02:42:24.36	325.86	18.91	
2025-01-18 02:42:24.56	325.82	18.91	
2025-01-18 02:42:24.76	325.77	18.92	
2025-01-18 02:42:24.97	325.72	18.92	
2025-01-18 02:42:25.17	325.67	18.92	
2025-01-18 02:42:25.37	325.62	18.92	
2025-01-18 02:42:25.57	325.57	18.93	
2025-01-18 02:42:25.78	325.52	18.93	
2025-01-18 02:42:25.98	325.48	18.93	
2025-01-18 02:42:26.18	325.43	18.93	
2025-01-18 02:42:26.39	325.38	18.93	
2025-01-18 02:42:26.59	325.33	18.94	
2025-01-18 02:42:26.79	325.28	18.94	
2025-01-18 02:42:27.00	325.23	18.94	
2025-01-18 02:42:27.20	325.18	18.94	
2025-01-18 02:42:27.40	325.13	18.95	
2025-01-18 02:42:27.60	325.09	18.95	
2025-01-18 02:42:27.81	325.04	18.95	
2025-01-18 02:42:28.01	324.99	18.95	
2025-01-18 02:42:28.21	324.94	18.96	
2025-01-18 02:42:28.42	324.89	18.96	
2025-01-18 02:42:28.62	324.84	18.96	
2025-01-18 02:42:28.82	324.79	18.96	
2025-01-18 02:42:29.03	324.74	18.96	
2025-01-18 02:42:29.23	324.70	18.97	
2025-01-18 02:42:29.43	324.65	18.97	
2025-01-18 02:42:29.63	324.60	18.97	
2025-01-18 02:42:29.84	324.55	18.97	
2025-01-18 02:42:30.04	324.50	18.97	
2025-01-18 02:42:30.24	324.45	18.98	
2025-01-18 02:42:30.45	324.40	18.98	
2025-01-18 02:42:30.65	324.35	18.98	
2025-01-18 02:42:30.85	324.31	18.98	
2025-01-18 02:42:31.06	324.26	18.98	
2025-01-18 02:42:31.26	324.21	18.98	
2025-01-18 02:42:31.46	324.16	18.99	
2025-01-18 02:42:31.66	324.11	18.99	
2025-01-18 02:42:31.87	324.06	18.99	
2025-01-18 02:42:32.07	324.01	18.99	
2025-01-18 02:42:32.27	323.96	18.99	
2025-01-18 02:42:32.48	323.91	19.00	
2025-01-18 02:42:32.68	323.87	19.00	
2025-01-18 02:42:32.88	323.82	19.00	
2025-01-18 02:42:33.09	323.77	19.00	
2025-01-18 02:42:33.29	323.72	19.00	
2025-01-18 02:42:33.49	323.67	19.00	
2025-01-18 02:42:33.69	323.62	19.01	
2025-01-18 02:42:33.90	323.57	19.01	
2025-01-18 02:42:34.10	323.52	19.01	
2025-01-18 02:42:34.30	323.47	19.01	
2025-01-18 02:42:34.51	323.42	19.01	
2025-01-18 02:42:34.71	323.38	19.01	
2025-01-18 02:42:34.91	323.33	19.01	
2025-01-18 02:42:35.12	323.28	19.02	
2025-01-18 02:42:35.32	323.23	19.02	
2025-01-18 02:42:35.52	323.18	19.02	
2025-01-18 02:42:35.72	323.13	19.02	
2025-01-18 02:42:35.93	323.08	19.02	
2025-01-18 02:42:36.13	323.03	19.02	
2025-01-18 02:42:36.33	322.99	19.02	
2025-01-18 02:42:36.54	322.93	19.02	
2025-01-18 02:42:36.74	322.89	19.03	
2025-01-18 02:42:36.94	322.84	19.03	
2025-01-18 02:42:37.14	322.79	19.03	
2025-01-18 02:42:37.35	322.74	19.03	
2025-01-18 02:42:37.55	322.69	19.03	
2025-01-18 02:42:37.75	322.64	19.03	
2025-01-18 02:42:37.96	322.59	19.03	
2025-01-18 02:42:38.16	322.54	19.03	
2025-01-18 02:42:38.36	322.50	19.04	
2025-01-18 02:42:38.57	322.44	19.04	
2025-01-18 02:42:38.77	322.40	19.04	
2025-01-18 02:42:38.97	322.35	19.04	
2025-01-18 02:42:39.17	322.30	19.04	
2025-01-18 02:42:39.38	322.25	19.04	
2025-01-18 02:42:39.58	322.20	19.04	
2025-01-18 02:42:39.78	322.15	19.04	
2025-01-18 02:42:39.99	322.10	19.04	
2025-01-18 02:42:40.19	322.05	19.04	
2025-01-18 02:42:40.39	322.00	19.04	
2025-01-18 02:42:40.60	321.95	19.05	
2025-01-18 02:42:40.80	321.91	19.05	
2025-01-18 02:42:41.00	321.86	19.05	
2025-01-18 02:42:41.20	321.81	19.05	
2025-01-18 02:42:41.41	321.76	19.05	
2025-01-18 02:42:41.61	321.71	19.05	
2025-01-18 02:42:41.81	321.66	19.05	
2025-01-18 02:42:42.02	321.61	19.05	
2025-01-18 02:42:42.22	321.56	19.05	
2025-01-18 02:42:42.42	321.51	19.05	
2025-01-18 02:42:42.63	321.46	19.05	
2025-01-18 02:42:42.83	321.42	19.05	
2025-01-18 02:42:43.03	321.37	19.05	
2025-01-18 02:42:43.23	321.32	19.05	
2025-01-18 02:42:43.44	321.27	19.06	
2025-01-18 02:42:43.64	321.22	19.06	
2025-01-18 02:42:43.84	321.17	19.06	
2025-01-18 02:42:44.05	321.12	19.06	
2025-01-18 02:42:44.25	321.07	19.06	
2025-01-18 02:42:44.45	321.02	19.06	
2025-01-18 02:42:44.66	320.97	19.06	
2025-01-18 02:42:44.86	320.92	19.06	
2025-01-18 02:42:45.06	320.88	19.06	
2025-01-18 02:42:45.26	320.83	19.06	
2025-01-18 02:42:45.47	320.78	19.06	
2025-01-18 02:42:45.67	320.73	19.06	
2025-01-18 02:42:45.87	320.68	19.06	
2025-01-18 02:42:46.08	320.63	19.06	
2025-01-18 02:42:46.28	320.58	19.06	
2025-01-18 02:42:46.48	320.53	19.06	
2025-01-18 02:42:46.68	320.48	19.06	
2025-01-18 02:42:46.89	320.43	19.06	
2025-01-18 02:42:47.09	320.38	19.06	
2025-01-18 02:42:47.29	320.34	19.06	
2025-01-18 02:42:47.50	320.29	19.06	
2025-01-18 02:42:47.70	320.24	19.06	
2025-01-18 02:42:47.90	320.19	19.06	
2025-01-18 02:42:48.11	320.14	19.06	
2025-01-18 02:42:48.31	320.09	19.06	
2025-01-18 02:42:48.51	320.04	19.06	
2025-01-18 02:42:48.71	319.99	19.06	
2025-01-18 02:42:48.92	319.94	19.06	
2025-01-18 02:42:49.12	319.89	19.06	
2025-01-18 02:42:49.32	319.85	19.06	
2025-01-18 02:42:49.53	319.79	19.06	
2025-01-18 02:42:49.73	319.75	19.06	
2025-01-18 02:42:49.93	319.70	19.06	
2025-01-18 02:42:50.14	319.65	19.06	
2025-01-18 02:42:50.34	319.60	19.06	
2025-01-18 02:42:50.54	319.55	19.06	
2025-01-18 02:42:50.74	319.50	19.06	
2025-01-18 02:42:50.95	319.45	19.06	
2025-01-18 02:42:51.15	319.40	19.06	
2025-01-18 02:42:51.35	319.35	19.06	
2025-01-18 02:42:51.56	319.30	19.06	
2025-01-18 02:42:51.76	319.26	19.06	
2025-01-18 02:42:51.96	319.21	19.06	
2025-01-18 02:42:52.17	319.16	19.06	
2025-01-18 02:42:52.37	319.11	19.06	
2025-01-18 02:42:52.57	319.06	19.06	
2025-01-18 02:42:52.77	319.01	19.06	
2025-01-18 02:42:52.98	318.96	19.06	
2025-01-18 02:42:53.18	318.91	19.05	
2025-01-18 02:42:53.38	318.86	19.05	
2025-01-18 02:42:53.59	318.81	19.05	
2025-01-18 02:42:53.79	318.76	19.05	
2025-01-18 02:42:53.99	318.72	19.05	
2025-01-18 02:42:54.20	318.67	19.05	
2025-01-18 02:42:54.40	318.62	19.05	
2025-01-18 02:42:54.60	318.57	19.05	
2025-01-18 02:42:54.80	318.52	19.05	
2025-01-18 02:42:55.01	318.47	19.05	
2025-01-18 02:42:55.21	318.42	19.05	
2025-01-18 02:42:55.41	318.37	19.05	
2025-01-18 02:42:55.62	318.32	19.05	
2025-01-18 02:42:55.82	318.27	19.05	
2025-01-18 02:42:56.02	318.23	19.05	
2025-01-18 02:42:56.23	318.17	19.04	
2025-01-18 02:42:56.43	318.13	19.04	
2025-01-18 02:42:56.63	318.08	19.04	
2025-01-18 02:42:56.83	318.03	19.04	
2025-01-18 02:42:57.04	317.98	19.04	
2025-01-18 02:42:57.24	317.93	19.04	
2025-01-18 02:42:57.44	317.88	19.04	
2025-01-18 02:42:57.65	317.83	19.04	
2025-01-18 02:42:57.85	317.78	19.04	
2025-01-18 02:42:58.05	317.73	19.04	
2025-01-18 02:42:58.25	317.69	19.03	
2025-01-18 02:42:58.46	317.64	19.03	
2025-01-18 02:42:58.66	317.59	19.03	
2025-01-18 02:42:58.86	317.54	19.03	
2025-01-18 02:42:59.07	317.49	19.03	
2025-01-18 02:42:59.27	317.44	19.03	
2025-01-18 02:42:59.47	317.39	19.03	
2025-01-18 02:42:59.68	317.34	19.03	
2025-01-18 02:42:59.88	317.29	19.03	
2025-01-18 02:43:00.08	317.24	19.02	
2025-01-18 02:43:00.28	317.20	19.02	
2025-01-18 02:43:00.49	317.15	19.02	
2025-01-18 02:43:00.69	317.10	19.02	
2025-01-18 02:43:00.89	317.05	19.02	
2025-01-18 02:43:01.10	317.00	19.02	
