passes_logs/2025/01/18/SPB_Silybum_02/SPB_Silybum_02__20250118_234110_AQUA_rec.log

#Pass ID: 20250118_234110_AQUA
#Satellite: AQUA
#Configuration: AQUA
#Start time: 2025-01-18 23:41:09

#Version: 2.0.20230423
#Station: SPB_Silybum_02
#Location: 30.233357 lon 59.946436 lat
#TLE: 1 27424U 02022A   25018.15645899  .00002321  00000+0  48623-3 0  9991
#TLE: 2 27424  98.3597 334.8489 0001860 108.2535 309.6560 14.60697098208087

#Time	Az	El	Level	Level2	SNR	BER	Gain	Gain2
2025-01-18 23:41:11.12	29.00	4.04	
2025-01-18 23:41:11.33	29.02	4.05	
2025-01-18 23:41:11.53	29.04	4.06	
2025-01-18 23:41:11.73	29.06	4.08	
2025-01-18 23:41:11.94	29.08	4.09	
2025-01-18 23:41:12.14	29.10	4.10	
2025-01-18 23:41:12.34	29.12	4.11	
2025-01-18 23:41:12.55	29.14	4.12	
2025-01-18 23:41:12.75	29.16	4.13	
2025-01-18 23:41:12.95	29.17	4.15	
2025-01-18 23:41:13.16	29.20	4.16	
2025-01-18 23:41:13.36	29.21	4.17	
2025-01-18 23:41:13.56	29.23	4.18	
2025-01-18 23:41:13.76	29.25	4.19	
2025-01-18 23:41:13.97	29.27	4.20	
2025-01-18 23:41:14.17	29.29	4.22	
2025-01-18 23:41:14.37	29.31	4.23	
2025-01-18 23:41:14.58	29.33	4.24	
2025-01-18 23:41:14.78	29.35	4.25	
2025-01-18 23:41:14.98	29.37	4.26	
2025-01-18 23:41:15.19	29.39	4.28	
2025-01-18 23:41:15.39	29.41	4.29	
2025-01-18 23:41:15.59	29.43	4.30	
2025-01-18 23:41:15.80	29.45	4.31	
2025-01-18 23:41:16.00	29.47	4.32	
2025-01-18 23:41:16.20	29.49	4.33	
2025-01-18 23:41:16.41	29.51	4.35	
2025-01-18 23:41:16.61	29.53	4.36	
2025-01-18 23:41:16.81	29.55	4.37	
2025-01-18 23:41:17.02	29.57	4.38	
2025-01-18 23:41:17.22	29.59	4.39	
2025-01-18 23:41:17.42	29.61	4.41	
2025-01-18 23:41:17.63	29.63	4.42	
2025-01-18 23:41:17.83	29.65	4.43	
2025-01-18 23:41:18.03	29.67	4.44	
2025-01-18 23:41:18.24	29.69	4.45	
2025-01-18 23:41:18.44	29.71	4.47	
2025-01-18 23:41:18.64	29.73	4.48	
2025-01-18 23:41:18.85	29.75	4.49	
2025-01-18 23:41:19.05	29.77	4.50	
2025-01-18 23:41:19.25	29.79	4.51	
2025-01-18 23:41:19.45	29.81	4.52	
2025-01-18 23:41:19.66	29.84	4.54	
2025-01-18 23:41:19.86	29.86	4.55	
2025-01-18 23:41:20.06	29.88	4.56	
2025-01-18 23:41:20.27	29.90	4.57	
2025-01-18 23:41:20.47	29.92	4.58	
2025-01-18 23:41:20.67	29.94	4.60	
2025-01-18 23:41:20.88	29.96	4.61	
2025-01-18 23:41:21.08	29.98	4.62	
2025-01-18 23:41:21.28	30.00	4.63	
2025-01-18 23:41:21.49	30.02	4.64	
2025-01-18 23:41:21.69	30.04	4.66	
2025-01-18 23:41:21.89	30.06	4.67	
2025-01-18 23:41:22.10	30.08	4.68	
2025-01-18 23:41:22.30	30.10	4.69	
2025-01-18 23:41:22.50	30.12	4.70	
2025-01-18 23:41:22.71	30.14	4.72	
2025-01-18 23:41:22.91	30.16	4.73	
2025-01-18 23:41:23.11	30.18	4.74	
2025-01-18 23:41:23.32	30.20	4.75	
2025-01-18 23:41:23.52	30.22	4.76	
2025-01-18 23:41:23.72	30.24	4.77	
2025-01-18 23:41:23.93	30.27	4.79	
2025-01-18 23:41:24.13	30.29	4.80	
2025-01-18 23:41:24.33	30.31	4.81	
2025-01-18 23:41:24.54	30.33	4.82	
2025-01-18 23:41:24.74	30.35	4.83	
2025-01-18 23:41:24.94	30.37	4.85	
2025-01-18 23:41:25.14	30.39	4.86	
2025-01-18 23:41:25.35	30.41	4.87	
2025-01-18 23:41:25.55	30.43	4.88	
2025-01-18 23:41:25.75	30.45	4.89	
2025-01-18 23:41:25.96	30.47	4.91	
2025-01-18 23:41:26.16	30.49	4.92	
2025-01-18 23:41:26.36	30.51	4.93	
2025-01-18 23:41:26.57	30.54	4.94	
2025-01-18 23:41:26.77	30.56	4.95	
2025-01-18 23:41:26.97	30.58	4.97	
2025-01-18 23:41:27.18	30.60	4.98	
2025-01-18 23:41:27.38	30.62	4.99	
2025-01-18 23:41:27.58	30.64	5.00	
2025-01-18 23:41:27.79	30.66	5.01	
2025-01-18 23:41:27.99	30.68	5.03	
2025-01-18 23:41:28.19	30.70	5.04	
2025-01-18 23:41:28.40	30.72	5.05	
2025-01-18 23:41:28.60	30.74	5.06	
2025-01-18 23:41:28.80	30.77	5.07	
2025-01-18 23:41:29.01	30.79	5.09	
2025-01-18 23:41:29.21	30.81	5.10	
2025-01-18 23:41:29.41	30.83	5.11	
2025-01-18 23:41:29.62	30.85	5.12	
2025-01-18 23:41:29.82	30.87	5.13	
2025-01-18 23:41:30.02	30.89	5.15	
2025-01-18 23:41:30.23	30.91	5.16	
2025-01-18 23:41:30.43	30.93	5.17	
2025-01-18 23:41:30.63	30.96	5.18	
2025-01-18 23:41:30.83	30.98	5.19	
2025-01-18 23:41:31.04	31.00	5.21	
2025-01-18 23:41:31.24	31.02	5.22	
2025-01-18 23:41:31.44	31.04	5.23	
2025-01-18 23:41:31.65	31.06	5.24	
2025-01-18 23:41:31.85	31.08	5.26	
2025-01-18 23:41:32.05	31.10	5.27	
2025-01-18 23:41:32.26	31.13	5.28	
2025-01-18 23:41:32.46	31.15	5.29	
2025-01-18 23:41:32.66	31.17	5.30	
2025-01-18 23:41:32.87	31.19	5.32	
2025-01-18 23:41:33.07	31.21	5.33	
2025-01-18 23:41:33.27	31.23	5.34	
2025-01-18 23:41:33.48	31.26	5.35	
2025-01-18 23:41:33.68	31.28	5.36	
2025-01-18 23:41:33.88	31.30	5.38	
2025-01-18 23:41:34.09	31.32	5.39	
2025-01-18 23:41:34.29	31.34	5.40	
2025-01-18 23:41:34.49	31.36	5.41	
2025-01-18 23:41:34.70	31.38	5.42	
2025-01-18 23:41:34.90	31.41	5.44	
2025-01-18 23:41:35.10	31.43	5.45	
2025-01-18 23:41:35.31	31.45	5.46	
2025-01-18 23:41:35.51	31.47	5.47	
2025-01-18 23:41:35.71	31.49	5.49	
2025-01-18 23:41:35.91	31.51	5.50	
2025-01-18 23:41:36.12	31.54	5.51	
2025-01-18 23:41:36.32	31.56	5.52	
2025-01-18 23:41:36.52	31.58	5.53	
2025-01-18 23:41:36.73	31.60	5.55	
2025-01-18 23:41:36.93	31.62	5.56	
2025-01-18 23:41:37.13	31.64	5.57	
2025-01-18 23:41:37.34	31.67	5.58	
2025-01-18 23:41:37.54	31.69	5.59	
2025-01-18 23:41:37.74	31.71	5.61	
2025-01-18 23:41:37.95	31.73	5.62	
2025-01-18 23:41:38.15	31.75	5.63	
2025-01-18 23:41:38.35	31.78	5.64	
2025-01-18 23:41:38.56	31.80	5.66	
2025-01-18 23:41:38.76	31.82	5.67	
2025-01-18 23:41:38.96	31.84	5.68	
2025-01-18 23:41:39.17	31.86	5.69	
2025-01-18 23:41:39.37	31.89	5.70	
2025-01-18 23:41:39.57	31.91	5.72	
2025-01-18 23:41:39.78	31.93	5.73	
2025-01-18 23:41:39.98	31.95	5.74	
2025-01-18 23:41:40.18	31.97	5.75	
2025-01-18 23:41:40.39	32.00	5.77	
2025-01-18 23:41:40.59	32.02	5.78	
2025-01-18 23:41:40.79	32.04	5.79	
2025-01-18 23:41:41.00	32.06	5.80	
2025-01-18 23:41:41.20	32.09	5.81	
2025-01-18 23:41:41.40	32.11	5.83	
2025-01-18 23:41:41.61	32.13	5.84	
2025-01-18 23:41:41.81	32.15	5.85	
2025-01-18 23:41:42.01	32.17	5.86	
2025-01-18 23:41:42.21	32.20	5.87	
2025-01-18 23:41:42.42	32.22	5.89	
2025-01-18 23:41:42.62	32.24	5.90	
2025-01-18 23:41:42.82	32.26	5.91	
2025-01-18 23:41:43.03	32.29	5.92	
2025-01-18 23:41:43.23	32.31	5.94	
2025-01-18 23:41:43.43	32.33	5.95	
2025-01-18 23:41:43.64	32.35	5.96	
2025-01-18 23:41:43.84	32.38	5.97	
2025-01-18 23:41:44.04	32.40	5.99	
2025-01-18 23:41:44.25	32.42	6.00	
2025-01-18 23:41:44.45	32.44	6.01	
2025-01-18 23:41:44.65	32.47	6.02	
2025-01-18 23:41:44.86	32.49	6.03	
2025-01-18 23:41:45.06	32.51	6.05	
2025-01-18 23:41:45.26	32.53	6.06	
2025-01-18 23:41:45.47	32.56	6.07	
2025-01-18 23:41:45.67	32.58	6.08	
2025-01-18 23:41:45.87	32.60	6.10	
2025-01-18 23:41:46.08	32.62	6.11	
2025-01-18 23:41:46.28	32.65	6.12	
2025-01-18 23:41:46.48	32.67	6.13	
2025-01-18 23:41:46.69	32.69	6.15	
2025-01-18 23:41:46.89	32.72	6.16	
2025-01-18 23:41:47.09	32.74	6.17	
2025-01-18 23:41:47.30	32.76	6.18	
2025-01-18 23:41:47.50	32.78	6.19	
2025-01-18 23:41:47.70	32.81	6.21	
2025-01-18 23:41:47.90	32.83	6.22	
2025-01-18 23:41:48.11	32.85	6.23	
2025-01-18 23:41:48.31	32.88	6.24	
2025-01-18 23:41:48.51	32.90	6.26	
2025-01-18 23:41:48.72	32.92	6.27	
2025-01-18 23:41:48.92	32.94	6.28	
2025-01-18 23:41:49.12	32.97	6.29	
2025-01-18 23:41:49.33	32.99	6.31	
2025-01-18 23:41:49.53	33.01	6.32	
2025-01-18 23:41:49.73	33.04	6.33	
2025-01-18 23:41:49.94	33.06	6.34	
2025-01-18 23:41:50.14	33.08	6.35	
2025-01-18 23:41:50.34	33.10	6.37	
2025-01-18 23:41:50.55	33.13	6.38	
2025-01-18 23:41:50.75	33.15	6.39	
2025-01-18 23:41:50.95	33.17	6.40	
2025-01-18 23:41:51.16	33.20	6.42	
2025-01-18 23:41:51.36	33.22	6.43	
2025-01-18 23:41:51.56	33.24	6.44	
2025-01-18 23:41:51.77	33.27	6.45	
2025-01-18 23:41:51.97	33.29	6.47	
2025-01-18 23:41:52.17	33.31	6.48	
2025-01-18 23:41:52.38	33.34	6.49	
2025-01-18 23:41:52.58	33.36	6.50	
2025-01-18 23:41:52.78	33.38	6.52	
2025-01-18 23:41:52.98	33.41	6.53	
2025-01-18 23:41:53.19	33.43	6.54	
2025-01-18 23:41:53.39	33.45	6.55	
2025-01-18 23:41:53.59	33.48	6.56	
2025-01-18 23:41:53.80	33.50	6.58	
2025-01-18 23:41:54.00	33.52	6.59	
2025-01-18 23:41:54.20	33.55	6.60	
2025-01-18 23:41:54.41	33.57	6.61	
2025-01-18 23:41:54.61	33.60	6.63	
2025-01-18 23:41:54.81	33.62	6.64	
2025-01-18 23:41:55.02	33.64	6.65	
2025-01-18 23:41:55.22	33.67	6.66	
2025-01-18 23:41:55.42	33.69	6.68	
2025-01-18 23:41:55.63	33.71	6.69	
2025-01-18 23:41:55.83	33.74	6.70	
2025-01-18 23:41:56.03	33.76	6.71	
2025-01-18 23:41:56.24	33.78	6.73	
2025-01-18 23:41:56.44	33.81	6.74	
2025-01-18 23:41:56.64	33.83	6.75	
2025-01-18 23:41:56.85	33.86	6.76	
2025-01-18 23:41:57.05	33.88	6.78	
2025-01-18 23:41:57.25	33.90	6.79	
2025-01-18 23:41:57.46	33.93	6.80	
2025-01-18 23:41:57.66	33.95	6.81	
2025-01-18 23:41:57.86	33.97	6.83	
2025-01-18 23:41:58.07	34.00	6.84	
2025-01-18 23:41:58.27	34.02	6.85	
2025-01-18 23:41:58.47	34.05	6.86	
2025-01-18 23:41:58.67	34.07	6.88	
2025-01-18 23:41:58.89	34.10	6.89	
2025-01-18 23:41:59.10	34.12	6.90	
2025-01-18 23:41:59.30	34.14	6.91	
2025-01-18 23:41:59.50	34.17	6.93	
2025-01-18 23:41:59.71	34.19	6.94	
2025-01-18 23:41:59.91	34.22	6.95	
2025-01-18 23:42:00.11	34.24	6.96	
2025-01-18 23:42:00.32	34.27	6.98	
2025-01-18 23:42:00.52	34.29	6.99	
2025-01-18 23:42:00.72	34.31	7.00	
2025-01-18 23:42:00.93	34.34	7.01	
2025-01-18 23:42:01.13	34.36	7.03	
2025-01-18 23:42:01.33	34.39	7.04	
2025-01-18 23:42:01.54	34.41	7.05	
2025-01-18 23:42:01.74	34.43	7.06	
2025-01-18 23:42:01.94	34.46	7.08	
2025-01-18 23:42:02.15	34.48	7.09	
2025-01-18 23:42:02.35	34.51	7.10	
2025-01-18 23:42:02.55	34.53	7.11	
2025-01-18 23:42:02.75	34.56	7.13	
2025-01-18 23:42:02.96	34.58	7.14	
2025-01-18 23:42:03.16	34.60	7.15	
2025-01-18 23:42:03.36	34.63	7.16	
2025-01-18 23:42:03.57	34.65	7.18	
2025-01-18 23:42:03.77	34.68	7.19	
2025-01-18 23:42:03.97	34.70	7.20	
2025-01-18 23:42:04.18	34.73	7.21	
2025-01-18 23:42:04.38	34.75	7.23	
2025-01-18 23:42:04.58	34.78	7.24	
2025-01-18 23:42:04.79	34.80	7.25	
2025-01-18 23:42:04.99	34.83	7.26	
2025-01-18 23:42:05.19	34.85	7.28	
2025-01-18 23:42:05.40	34.88	7.29	
2025-01-18 23:42:05.60	34.90	7.30	
2025-01-18 23:42:05.80	34.92	7.32	
2025-01-18 23:42:06.01	34.95	7.33	
2025-01-18 23:42:06.21	34.97	7.34	
2025-01-18 23:42:06.41	35.00	7.35	
2025-01-18 23:42:06.62	35.02	7.37	
2025-01-18 23:42:06.82	35.05	7.38	
2025-01-18 23:42:07.02	35.07	7.39	
2025-01-18 23:42:07.23	35.10	7.40	
2025-01-18 23:42:07.43	35.12	7.42	
2025-01-18 23:42:07.63	35.15	7.43	
2025-01-18 23:42:07.84	35.17	7.44	
2025-01-18 23:42:08.04	35.20	7.45	
2025-01-18 23:42:08.24	35.22	7.47	
2025-01-18 23:42:08.44	35.25	7.48	
2025-01-18 23:42:08.65	35.27	7.49	
2025-01-18 23:42:08.85	35.30	7.50	
2025-01-18 23:42:09.05	35.32	7.52	
2025-01-18 23:42:09.26	35.35	7.53	
2025-01-18 23:42:09.46	35.37	7.54	
2025-01-18 23:42:09.66	35.40	7.55	
2025-01-18 23:42:09.87	35.42	7.57	
2025-01-18 23:42:10.07	35.45	7.58	
2025-01-18 23:42:10.27	35.47	7.59	
2025-01-18 23:42:10.48	35.50	7.61	
2025-01-18 23:42:10.68	35.52	7.62	
2025-01-18 23:42:10.88	35.55	7.63	
2025-01-18 23:42:11.09	35.58	7.64	
2025-01-18 23:42:11.29	35.60	7.66	
2025-01-18 23:42:11.49	35.63	7.67	
2025-01-18 23:42:11.70	35.65	7.68	
2025-01-18 23:42:11.90	35.68	7.69	
2025-01-18 23:42:12.10	35.70	7.71	
2025-01-18 23:42:12.31	35.73	7.72	
2025-01-18 23:42:12.51	35.75	7.73	
2025-01-18 23:42:12.71	35.78	7.74	
2025-01-18 23:42:12.92	35.80	7.76	
2025-01-18 23:42:13.12	35.83	7.77	
2025-01-18 23:42:13.32	35.86	7.78	
2025-01-18 23:42:13.53	35.88	7.80	
2025-01-18 23:42:13.73	35.91	7.81	
2025-01-18 23:42:13.93	35.93	7.82	
2025-01-18 23:42:14.13	35.96	7.83	
2025-01-18 23:42:14.34	35.98	7.85	
2025-01-18 23:42:14.54	36.01	7.86	
2025-01-18 23:42:14.74	36.03	7.87	
2025-01-18 23:42:14.95	36.06	7.88	
2025-01-18 23:42:15.15	36.09	7.90	
2025-01-18 23:42:15.35	36.11	7.91	
2025-01-18 23:42:15.56	36.14	7.92	
2025-01-18 23:42:15.76	36.16	7.93	
2025-01-18 23:42:15.96	36.19	7.95	
2025-01-18 23:42:16.17	36.22	7.96	
2025-01-18 23:42:16.37	36.24	7.97	
2025-01-18 23:42:16.57	36.27	7.98	
2025-01-18 23:42:16.78	36.29	8.00	
2025-01-18 23:42:16.98	36.32	8.01	
2025-01-18 23:42:17.18	36.35	8.02	
2025-01-18 23:42:17.39	36.37	8.04	
2025-01-18 23:42:17.59	36.40	8.05	
2025-01-18 23:42:17.79	36.42	8.06	
2025-01-18 23:42:18.00	36.45	8.07	
2025-01-18 23:42:18.20	36.48	8.09	
2025-01-18 23:42:18.40	36.50	8.10	
2025-01-18 23:42:18.61	36.53	8.11	
2025-01-18 23:42:18.81	36.55	8.13	
2025-01-18 23:42:19.01	36.58	8.14	
2025-01-18 23:42:19.22	36.61	8.15	
2025-01-18 23:42:19.42	36.63	8.16	
2025-01-18 23:42:19.62	36.66	8.18	
2025-01-18 23:42:19.82	36.69	8.19	
2025-01-18 23:42:20.03	36.71	8.20	
2025-01-18 23:42:20.23	36.74	8.21	
2025-01-18 23:42:20.43	36.76	8.23	
2025-01-18 23:42:20.64	36.79	8.24	
2025-01-18 23:42:20.84	36.82	8.25	
2025-01-18 23:42:21.04	36.84	8.27	
2025-01-18 23:42:21.25	36.87	8.28	
2025-01-18 23:42:21.45	36.90	8.29	
2025-01-18 23:42:21.65	36.92	8.30	
2025-01-18 23:42:21.86	36.95	8.32	
2025-01-18 23:42:22.06	36.98	8.33	
2025-01-18 23:42:22.26	37.00	8.34	
2025-01-18 23:42:22.47	37.03	8.35	
2025-01-18 23:42:22.67	37.06	8.37	
2025-01-18 23:42:22.87	37.08	8.38	
2025-01-18 23:42:23.08	37.11	8.39	
2025-01-18 23:42:23.28	37.14	8.41	
2025-01-18 23:42:23.48	37.16	8.42	
2025-01-18 23:42:23.69	37.19	8.43	
2025-01-18 23:42:23.89	37.22	8.44	
2025-01-18 23:42:24.09	37.24	8.46	
2025-01-18 23:42:24.30	37.27	8.47	
2025-01-18 23:42:24.50	37.30	8.48	
2025-01-18 23:42:24.70	37.32	8.50	
2025-01-18 23:42:24.90	37.35	8.51	
2025-01-18 23:42:25.11	37.38	8.52	
2025-01-18 23:42:25.31	37.41	8.53	
2025-01-18 23:42:25.51	37.43	8.55	
2025-01-18 23:42:25.72	37.46	8.56	
2025-01-18 23:42:25.92	37.49	8.57	
2025-01-18 23:42:26.12	37.51	8.58	
2025-01-18 23:42:26.33	37.54	8.60	
2025-01-18 23:42:26.53	37.57	8.61	
2025-01-18 23:42:26.73	37.59	8.62	
2025-01-18 23:42:26.94	37.62	8.64	
2025-01-18 23:42:27.14	37.65	8.65	
2025-01-18 23:42:27.34	37.68	8.66	
2025-01-18 23:42:27.55	37.70	8.68	
2025-01-18 23:42:27.75	37.73	8.69	
2025-01-18 23:42:27.95	37.76	8.70	
2025-01-18 23:42:28.16	37.79	8.71	
2025-01-18 23:42:28.36	37.81	8.73	
2025-01-18 23:42:28.56	37.84	8.74	
2025-01-18 23:42:28.77	37.87	8.75	
2025-01-18 23:42:28.97	37.90	8.76	
2025-01-18 23:42:29.17	37.92	8.78	
2025-01-18 23:42:29.38	37.95	8.79	
2025-01-18 23:42:29.58	37.98	8.80	
2025-01-18 23:42:29.78	38.01	8.82	
2025-01-18 23:42:29.99	38.03	8.83	
2025-01-18 23:42:30.19	38.06	8.84	
2025-01-18 23:42:30.39	38.09	8.85	
2025-01-18 23:42:30.59	38.12	8.87	
2025-01-18 23:42:30.80	38.14	8.88	
2025-01-18 23:42:31.00	38.17	8.89	
2025-01-18 23:42:31.20	38.20	8.91	
2025-01-18 23:42:31.41	38.23	8.92	
2025-01-18 23:42:31.61	38.25	8.93	
2025-01-18 23:42:31.81	38.28	8.94	
2025-01-18 23:42:32.02	38.31	8.96	
2025-01-18 23:42:32.22	38.34	8.97	
2025-01-18 23:42:32.42	38.37	8.98	
2025-01-18 23:42:32.63	38.39	9.00	
2025-01-18 23:42:32.83	38.42	9.01	
2025-01-18 23:42:33.03	38.45	9.02	
2025-01-18 23:42:33.24	38.48	9.04	
2025-01-18 23:42:33.44	38.51	9.05	
2025-01-18 23:42:33.64	38.53	9.06	
2025-01-18 23:42:33.85	38.56	9.07	
2025-01-18 23:42:34.05	38.59	9.09	
2025-01-18 23:42:34.25	38.62	9.10	
2025-01-18 23:42:34.46	38.65	9.11	
2025-01-18 23:42:34.66	38.67	9.13	
2025-01-18 23:42:34.86	38.70	9.14	
2025-01-18 23:42:35.07	38.73	9.15	
2025-01-18 23:42:35.27	38.76	9.16	
2025-01-18 23:42:35.47	38.79	9.18	
2025-01-18 23:42:35.68	38.82	9.19	
2025-01-18 23:42:35.88	38.84	9.20	
2025-01-18 23:42:36.08	38.87	9.22	
2025-01-18 23:42:36.28	38.90	9.23	
2025-01-18 23:42:36.49	38.93	9.24	
2025-01-18 23:42:36.69	38.96	9.25	
2025-01-18 23:42:36.89	38.99	9.27	
2025-01-18 23:42:37.10	39.01	9.28	
2025-01-18 23:42:37.30	39.04	9.29	
2025-01-18 23:42:37.50	39.07	9.31	
2025-01-18 23:42:37.71	39.10	9.32	
2025-01-18 23:42:37.91	39.13	9.33	
2025-01-18 23:42:38.11	39.16	9.34	
2025-01-18 23:42:38.32	39.19	9.36	
2025-01-18 23:42:38.52	39.21	9.37	
2025-01-18 23:42:38.72	39.24	9.38	
2025-01-18 23:42:38.93	39.27	9.40	
2025-01-18 23:42:39.13	39.30	9.41	
2025-01-18 23:42:39.33	39.33	9.42	
2025-01-18 23:42:39.54	39.36	9.44	
2025-01-18 23:42:39.74	39.39	9.45	
2025-01-18 23:42:39.94	39.42	9.46	
2025-01-18 23:42:40.15	39.44	9.47	
2025-01-18 23:42:40.35	39.47	9.49	
2025-01-18 23:42:40.55	39.50	9.50	
2025-01-18 23:42:40.76	39.53	9.51	
2025-01-18 23:42:40.96	39.56	9.53	
2025-01-18 23:42:41.16	39.59	9.54	
2025-01-18 23:42:41.37	39.62	9.55	
2025-01-18 23:42:41.57	39.65	9.57	
2025-01-18 23:42:41.77	39.68	9.58	
2025-01-18 23:42:41.97	39.70	9.59	
2025-01-18 23:42:42.18	39.73	9.60	
2025-01-18 23:42:42.38	39.76	9.62	
2025-01-18 23:42:42.58	39.79	9.63	
2025-01-18 23:42:42.79	39.82	9.64	
2025-01-18 23:42:42.99	39.85	9.66	
2025-01-18 23:42:43.19	39.88	9.67	
2025-01-18 23:42:43.40	39.91	9.68	
2025-01-18 23:42:43.60	39.94	9.69	
2025-01-18 23:42:43.80	39.97	9.71	
2025-01-18 23:42:44.01	40.00	9.72	
2025-01-18 23:42:44.21	40.03	9.73	
2025-01-18 23:42:44.41	40.06	9.75	
2025-01-18 23:42:44.62	40.09	9.76	
2025-01-18 23:42:44.82	40.12	9.77	
2025-01-18 23:42:45.02	40.14	9.79	
2025-01-18 23:42:45.23	40.18	9.80	
2025-01-18 23:42:45.43	40.20	9.81	
2025-01-18 23:42:45.63	40.23	9.82	
2025-01-18 23:42:45.84	40.26	9.84	
2025-01-18 23:42:46.04	40.29	9.85	
2025-01-18 23:42:46.24	40.32	9.86	
2025-01-18 23:42:46.45	40.35	9.88	
2025-01-18 23:42:46.65	40.38	9.89	
2025-01-18 23:42:46.85	40.41	9.90	
2025-01-18 23:42:47.06	40.44	9.92	
2025-01-18 23:42:47.26	40.47	9.93	
2025-01-18 23:42:47.46	40.50	9.94	
2025-01-18 23:42:47.66	40.53	9.95	
2025-01-18 23:42:47.87	40.56	9.97	
2025-01-18 23:42:48.07	40.59	9.98	
2025-01-18 23:42:48.27	40.62	9.99	
2025-01-18 23:42:48.48	40.65	10.01	
2025-01-18 23:42:48.68	40.68	10.02	
2025-01-18 23:42:48.88	40.71	10.03	
2025-01-18 23:42:49.09	40.74	10.05	
2025-01-18 23:42:49.29	40.77	10.06	
2025-01-18 23:42:49.49	40.80	10.07	
2025-01-18 23:42:49.70	40.83	10.08	
2025-01-18 23:42:49.90	40.86	10.10	
2025-01-18 23:42:50.10	40.89	10.11	
2025-01-18 23:42:50.31	40.92	10.12	
2025-01-18 23:42:50.51	40.95	10.14	
2025-01-18 23:42:50.71	40.98	10.15	
2025-01-18 23:42:50.92	41.01	10.16	
2025-01-18 23:42:51.12	41.04	10.18	
2025-01-18 23:42:51.32	41.07	10.19	
2025-01-18 23:42:51.53	41.11	10.20	
2025-01-18 23:42:51.73	41.14	10.21	
2025-01-18 23:42:51.93	41.17	10.23	
2025-01-18 23:42:52.14	41.20	10.24	
2025-01-18 23:42:52.34	41.23	10.25	
2025-01-18 23:42:52.54	41.26	10.27	
2025-01-18 23:42:52.75	41.29	10.28	
2025-01-18 23:42:52.95	41.32	10.29	
2025-01-18 23:42:53.15	41.35	10.31	
2025-01-18 23:42:53.35	41.38	10.32	
2025-01-18 23:42:53.56	41.41	10.33	
2025-01-18 23:42:53.76	41.44	10.35	
2025-01-18 23:42:53.96	41.47	10.36	
2025-01-18 23:42:54.17	41.50	10.37	
2025-01-18 23:42:54.37	41.53	10.38	
2025-01-18 23:42:54.57	41.56	10.40	
2025-01-18 23:42:54.78	41.60	10.41	
2025-01-18 23:42:54.98	41.63	10.42	
2025-01-18 23:42:55.18	41.66	10.44	
2025-01-18 23:42:55.39	41.69	10.45	
2025-01-18 23:42:55.59	41.72	10.46	
2025-01-18 23:42:55.79	41.75	10.48	
2025-01-18 23:42:56.00	41.78	10.49	
2025-01-18 23:42:56.20	41.81	10.50	
2025-01-18 23:42:56.40	41.84	10.51	
2025-01-18 23:42:56.61	41.87	10.53	
2025-01-18 23:42:56.81	41.91	10.54	
2025-01-18 23:42:57.01	41.94	10.55	
2025-01-18 23:42:57.22	41.97	10.57	
2025-01-18 23:42:57.42	42.00	10.58	
2025-01-18 23:42:57.62	42.03	10.59	
2025-01-18 23:42:57.83	42.06	10.61	
2025-01-18 23:42:58.03	42.09	10.62	
2025-01-18 23:42:58.23	42.12	10.63	
2025-01-18 23:42:58.44	42.16	10.65	
2025-01-18 23:42:58.64	42.19	10.66	
2025-01-18 23:42:58.84	42.22	10.67	
2025-01-18 23:42:59.04	42.25	10.68	
2025-01-18 23:42:59.25	42.28	10.70	
2025-01-18 23:42:59.45	42.31	10.71	
2025-01-18 23:42:59.65	42.34	10.72	
2025-01-18 23:42:59.86	42.38	10.74	
2025-01-18 23:43:00.06	42.41	10.75	
2025-01-18 23:43:00.26	42.44	10.76	
2025-01-18 23:43:00.47	42.47	10.78	
2025-01-18 23:43:00.67	42.50	10.79	
2025-01-18 23:43:00.87	42.53	10.80	
2025-01-18 23:43:01.08	42.57	10.82	
2025-01-18 23:43:01.28	42.60	10.83	
2025-01-18 23:43:01.48	42.63	10.84	
2025-01-18 23:43:01.69	42.66	10.85	
2025-01-18 23:43:01.89	42.69	10.87	
2025-01-18 23:43:02.09	42.72	10.88	
2025-01-18 23:43:02.30	42.76	10.89	
2025-01-18 23:43:02.50	42.79	10.91	
2025-01-18 23:43:02.70	42.82	10.92	
2025-01-18 23:43:02.91	42.85	10.93	
2025-01-18 23:43:03.11	42.89	10.95	
2025-01-18 23:43:03.31	42.92	10.96	
2025-01-18 23:43:03.52	42.95	10.97	
2025-01-18 23:43:03.72	42.98	10.98	
2025-01-18 23:43:03.92	43.01	11.00	
2025-01-18 23:43:04.12	43.05	11.01	
2025-01-18 23:43:04.33	43.08	11.02	
2025-01-18 23:43:04.53	43.11	11.04	
2025-01-18 23:43:04.73	43.14	11.05	
2025-01-18 23:43:04.94	43.18	11.06	
2025-01-18 23:43:05.14	43.21	11.08	
2025-01-18 23:43:05.34	43.24	11.09	
2025-01-18 23:43:05.55	43.27	11.10	
2025-01-18 23:43:05.75	43.30	11.12	
2025-01-18 23:43:05.95	43.34	11.13	
2025-01-18 23:43:06.16	43.37	11.14	
2025-01-18 23:43:06.36	43.40	11.15	
2025-01-18 23:43:06.56	43.43	11.17	
2025-01-18 23:43:06.77	43.47	11.18	
2025-01-18 23:43:06.97	43.50	11.19	
2025-01-18 23:43:07.17	43.53	11.21	
2025-01-18 23:43:07.38	43.57	11.22	
2025-01-18 23:43:07.58	43.60	11.23	
2025-01-18 23:43:07.78	43.63	11.25	
2025-01-18 23:43:07.99	43.66	11.26	
2025-01-18 23:43:08.19	43.70	11.27	
2025-01-18 23:43:08.39	43.73	11.28	
2025-01-18 23:43:08.60	43.76	11.30	
2025-01-18 23:43:08.80	43.80	11.31	
2025-01-18 23:43:09.00	43.83	11.32	
2025-01-18 23:43:09.21	43.86	11.34	
2025-01-18 23:43:09.41	43.89	11.35	
2025-01-18 23:43:09.61	43.93	11.36	
2025-01-18 23:43:09.81	43.96	11.38	
2025-01-18 23:43:10.02	43.99	11.39	
2025-01-18 23:43:10.22	44.03	11.40	
2025-01-18 23:43:10.42	44.06	11.42	
2025-01-18 23:43:10.63	44.09	11.43	
2025-01-18 23:43:10.83	44.13	11.44	
2025-01-18 23:43:11.03	44.16	11.45	
2025-01-18 23:43:11.24	44.19	11.47	
2025-01-18 23:43:11.44	44.23	11.48	
2025-01-18 23:43:11.64	44.26	11.49	
2025-01-18 23:43:11.85	44.29	11.51	
2025-01-18 23:43:12.05	44.33	11.52	
2025-01-18 23:43:12.25	44.36	11.53	
2025-01-18 23:43:12.46	44.39	11.55	
2025-01-18 23:43:12.66	44.43	11.56	
2025-01-18 23:43:12.86	44.46	11.57	
2025-01-18 23:43:13.07	44.49	11.59	
2025-01-18 23:43:13.27	44.53	11.60	
2025-01-18 23:43:13.47	44.56	11.61	
2025-01-18 23:43:13.68	44.60	11.62	
2025-01-18 23:43:13.88	44.63	11.64	
2025-01-18 23:43:14.08	44.66	11.65	
2025-01-18 23:43:14.29	44.70	11.66	
2025-01-18 23:43:14.49	44.73	11.68	
2025-01-18 23:43:14.69	44.76	11.69	
2025-01-18 23:43:14.90	44.80	11.70	
2025-01-18 23:43:15.10	44.83	11.72	
2025-01-18 23:43:15.30	44.86	11.73	
2025-01-18 23:43:15.50	44.90	11.74	
2025-01-18 23:43:15.71	44.93	11.76	
2025-01-18 23:43:15.91	44.97	11.77	
2025-01-18 23:43:16.11	45.00	11.78	
2025-01-18 23:43:16.32	45.04	11.79	
2025-01-18 23:43:16.52	45.07	11.81	
2025-01-18 23:43:16.72	45.10	11.82	
2025-01-18 23:43:16.93	45.14	11.83	
2025-01-18 23:43:17.13	45.17	11.85	
2025-01-18 23:43:17.33	45.21	11.86	
2025-01-18 23:43:17.54	45.24	11.87	
2025-01-18 23:43:17.74	45.27	11.89	
2025-01-18 23:43:17.94	45.31	11.90	
2025-01-18 23:43:18.15	45.34	11.91	
2025-01-18 23:43:18.35	45.38	11.92	
2025-01-18 23:43:18.55	45.41	11.94	
2025-01-18 23:43:18.76	45.45	11.95	
2025-01-18 23:43:18.96	45.48	11.96	
2025-01-18 23:43:19.16	45.52	11.98	
2025-01-18 23:43:19.37	45.55	11.99	
2025-01-18 23:43:19.57	45.58	12.00	
2025-01-18 23:43:19.77	45.62	12.02	
2025-01-18 23:43:19.98	45.65	12.03	
2025-01-18 23:43:20.18	45.69	12.04	
2025-01-18 23:43:20.38	45.72	12.05	
2025-01-18 23:43:20.59	45.76	12.07	
2025-01-18 23:43:20.79	45.79	12.08	
2025-01-18 23:43:20.99	45.83	12.09	
2025-01-18 23:43:21.19	45.86	12.11	
2025-01-18 23:43:21.40	45.90	12.12	
2025-01-18 23:43:21.60	45.93	12.13	
2025-01-18 23:43:21.80	45.97	12.15	
2025-01-18 23:43:22.01	46.00	12.16	
2025-01-18 23:43:22.21	46.04	12.17	
2025-01-18 23:43:22.41	46.07	12.19	
2025-01-18 23:43:22.62	46.11	12.20	
2025-01-18 23:43:22.82	46.14	12.21	
2025-01-18 23:43:23.02	46.18	12.22	
2025-01-18 23:43:23.23	46.21	12.24	
2025-01-18 23:43:23.43	46.25	12.25	
2025-01-18 23:43:23.63	46.28	12.26	
2025-01-18 23:43:23.84	46.32	12.28	
2025-01-18 23:43:24.04	46.35	12.29	
2025-01-18 23:43:24.24	46.39	12.30	
2025-01-18 23:43:24.45	46.42	12.32	
2025-01-18 23:43:24.65	46.46	12.33	
2025-01-18 23:43:24.85	46.49	12.34	
2025-01-18 23:43:25.06	46.53	12.35	
2025-01-18 23:43:25.26	46.57	12.37	
2025-01-18 23:43:25.46	46.60	12.38	
2025-01-18 23:43:25.67	46.64	12.39	
2025-01-18 23:43:25.87	46.67	12.41	
2025-01-18 23:43:26.07	46.71	12.42	
2025-01-18 23:43:26.28	46.74	12.43	
2025-01-18 23:43:26.48	46.78	12.45	
2025-01-18 23:43:26.68	46.82	12.46	
2025-01-18 23:43:26.88	46.85	12.47	
2025-01-18 23:43:27.09	46.89	12.48	
2025-01-18 23:43:27.29	46.92	12.50	
2025-01-18 23:43:27.49	46.96	12.51	
2025-01-18 23:43:27.70	46.99	12.52	
2025-01-18 23:43:27.90	47.03	12.54	
2025-01-18 23:43:28.10	47.07	12.55	
2025-01-18 23:43:28.31	47.10	12.56	
2025-01-18 23:43:28.51	47.14	12.57	
2025-01-18 23:43:28.71	47.17	12.59	
2025-01-18 23:43:28.92	47.21	12.60	
2025-01-18 23:43:29.12	47.25	12.61	
2025-01-18 23:43:29.32	47.28	12.63	
2025-01-18 23:43:29.53	47.32	12.64	
2025-01-18 23:43:29.73	47.36	12.65	
2025-01-18 23:43:29.93	47.39	12.67	
2025-01-18 23:43:30.14	47.43	12.68	
2025-01-18 23:43:30.34	47.46	12.69	
2025-01-18 23:43:30.54	47.50	12.70	
2025-01-18 23:43:30.75	47.54	12.72	
2025-01-18 23:43:30.95	47.57	12.73	
2025-01-18 23:43:31.15	47.61	12.74	
2025-01-18 23:43:31.36	47.65	12.76	
2025-01-18 23:43:31.56	47.68	12.77	
2025-01-18 23:43:31.76	47.72	12.78	
2025-01-18 23:43:31.97	47.76	12.80	
2025-01-18 23:43:32.17	47.79	12.81	
2025-01-18 23:43:32.37	47.83	12.82	
2025-01-18 23:43:32.57	47.86	12.83	
2025-01-18 23:43:32.78	47.90	12.85	
2025-01-18 23:43:32.98	47.94	12.86	
2025-01-18 23:43:33.18	47.97	12.87	
2025-01-18 23:43:33.39	48.01	12.89	
2025-01-18 23:43:33.59	48.05	12.90	
2025-01-18 23:43:33.79	48.09	12.91	
2025-01-18 23:43:34.00	48.12	12.92	
2025-01-18 23:43:34.20	48.16	12.94	
2025-01-18 23:43:34.40	48.20	12.95	
2025-01-18 23:43:34.61	48.23	12.96	
2025-01-18 23:43:34.81	48.27	12.98	
2025-01-18 23:43:35.01	48.31	12.99	
2025-01-18 23:43:35.22	48.35	13.00	
2025-01-18 23:43:35.42	48.38	13.01	
2025-01-18 23:43:35.62	48.42	13.03	
2025-01-18 23:43:35.83	48.46	13.04	
2025-01-18 23:43:36.03	48.49	13.05	
2025-01-18 23:43:36.23	48.53	13.07	
2025-01-18 23:43:36.44	48.57	13.08	
2025-01-18 23:43:36.64	48.61	13.09	
2025-01-18 23:43:36.84	48.64	13.10	
2025-01-18 23:43:37.05	48.68	13.12	
2025-01-18 23:43:37.25	48.72	13.13	
2025-01-18 23:43:37.45	48.76	13.14	
2025-01-18 23:43:37.66	48.79	13.16	
2025-01-18 23:43:37.86	48.83	13.17	
2025-01-18 23:43:38.06	48.87	13.18	
2025-01-18 23:43:38.26	48.91	13.19	
2025-01-18 23:43:38.47	48.94	13.21	
2025-01-18 23:43:38.67	48.98	13.22	
2025-01-18 23:43:38.87	49.02	13.23	
2025-01-18 23:43:39.08	49.06	13.25	
2025-01-18 23:43:39.28	49.09	13.26	
2025-01-18 23:43:39.48	49.13	13.27	
2025-01-18 23:43:39.69	49.17	13.28	
2025-01-18 23:43:39.89	49.21	13.30	
2025-01-18 23:43:40.09	49.25	13.31	
2025-01-18 23:43:40.30	49.29	13.32	
2025-01-18 23:43:40.50	49.32	13.34	
2025-01-18 23:43:40.70	49.36	13.35	
2025-01-18 23:43:40.91	49.40	13.36	
2025-01-18 23:43:41.11	49.44	13.37	
2025-01-18 23:43:41.31	49.47	13.39	
2025-01-18 23:43:41.52	49.51	13.40	
2025-01-18 23:43:41.72	49.55	13.41	
2025-01-18 23:43:41.92	49.59	13.42	
2025-01-18 23:43:42.13	49.63	13.44	
2025-01-18 23:43:42.33	49.67	13.45	
2025-01-18 23:43:42.53	49.70	13.46	
2025-01-18 23:43:42.74	49.74	13.48	
2025-01-18 23:43:42.94	49.78	13.49	
2025-01-18 23:43:43.14	49.82	13.50	
2025-01-18 23:43:43.34	49.86	13.51	
2025-01-18 23:43:43.55	49.90	13.53	
2025-01-18 23:43:43.75	49.93	13.54	
2025-01-18 23:43:43.95	49.97	13.55	
2025-01-18 23:43:44.16	50.01	13.57	
2025-01-18 23:43:44.36	50.05	13.58	
2025-01-18 23:43:44.56	50.09	13.59	
2025-01-18 23:43:44.77	50.13	13.60	
2025-01-18 23:43:44.97	50.17	13.62	
2025-01-18 23:43:45.17	50.21	13.63	
2025-01-18 23:43:45.38	50.25	13.64	
2025-01-18 23:43:45.58	50.28	13.65	
2025-01-18 23:43:45.78	50.32	13.67	
2025-01-18 23:43:45.99	50.36	13.68	
2025-01-18 23:43:46.19	50.40	13.69	
2025-01-18 23:43:46.39	50.44	13.71	
2025-01-18 23:43:46.60	50.48	13.72	
2025-01-18 23:43:46.80	50.52	13.73	
2025-01-18 23:43:47.00	50.56	13.74	
2025-01-18 23:43:47.21	50.60	13.76	
2025-01-18 23:43:47.41	50.64	13.77	
2025-01-18 23:43:47.61	50.67	13.78	
2025-01-18 23:43:47.82	50.71	13.79	
2025-01-18 23:43:48.02	50.75	13.81	
2025-01-18 23:43:48.22	50.79	13.82	
2025-01-18 23:43:48.43	50.83	13.83	
2025-01-18 23:43:48.63	50.87	13.84	
2025-01-18 23:43:48.83	50.91	13.86	
2025-01-18 23:43:49.03	50.95	13.87	
2025-01-18 23:43:49.24	50.99	13.88	
2025-01-18 23:43:49.44	51.03	13.90	
2025-01-18 23:43:49.64	51.07	13.91	
2025-01-18 23:43:49.85	51.11	13.92	
2025-01-18 23:43:50.05	51.15	13.93	
2025-01-18 23:43:50.25	51.19	13.95	
2025-01-18 23:43:50.46	51.23	13.96	
2025-01-18 23:43:50.66	51.27	13.97	
2025-01-18 23:43:50.86	51.31	13.98	
2025-01-18 23:43:51.07	51.35	14.00	
2025-01-18 23:43:51.27	51.39	14.01	
2025-01-18 23:43:51.47	51.43	14.02	
2025-01-18 23:43:51.68	51.47	14.03	
2025-01-18 23:43:51.88	51.51	14.05	
2025-01-18 23:43:52.08	51.55	14.06	
2025-01-18 23:43:52.29	51.59	14.07	
2025-01-18 23:43:52.49	51.63	14.08	
2025-01-18 23:43:52.69	51.67	14.10	
2025-01-18 23:43:52.90	51.71	14.11	
2025-01-18 23:43:53.10	51.75	14.12	
2025-01-18 23:43:53.30	51.79	14.13	
2025-01-18 23:43:53.51	51.83	14.15	
2025-01-18 23:43:53.71	51.87	14.16	
2025-01-18 23:43:53.91	51.91	14.17	
2025-01-18 23:43:54.12	51.95	14.18	
2025-01-18 23:43:54.32	51.99	14.20	
2025-01-18 23:43:54.52	52.03	14.21	
2025-01-18 23:43:54.72	52.07	14.22	
2025-01-18 23:43:54.93	52.11	14.23	
2025-01-18 23:43:55.13	52.15	14.25	
2025-01-18 23:43:55.33	52.19	14.26	
2025-01-18 23:43:55.54	52.23	14.27	
2025-01-18 23:43:55.74	52.27	14.28	
2025-01-18 23:43:55.94	52.31	14.30	
2025-01-18 23:43:56.15	52.35	14.31	
2025-01-18 23:43:56.35	52.39	14.32	
2025-01-18 23:43:56.55	52.43	14.33	
2025-01-18 23:43:56.76	52.48	14.35	
2025-01-18 23:43:56.96	52.52	14.36	
2025-01-18 23:43:57.16	52.56	14.37	
2025-01-18 23:43:57.37	52.60	14.38	
2025-01-18 23:43:57.57	52.64	14.40	
2025-01-18 23:43:57.77	52.68	14.41	
2025-01-18 23:43:57.98	52.72	14.42	
2025-01-18 23:43:58.18	52.76	14.43	
2025-01-18 23:43:58.38	52.80	14.45	
2025-01-18 23:43:58.59	52.85	14.46	
2025-01-18 23:43:58.79	52.89	14.47	
2025-01-18 23:43:58.99	52.93	14.48	
2025-01-18 23:43:59.20	52.97	14.50	
2025-01-18 23:43:59.40	53.01	14.51	
2025-01-18 23:43:59.60	53.05	14.52	
2025-01-18 23:43:59.81	53.09	14.53	
2025-01-18 23:44:00.01	53.13	14.54	
2025-01-18 23:44:00.21	53.18	14.56	
2025-01-18 23:44:00.41	53.22	14.57	
2025-01-18 23:44:00.62	53.26	14.58	
2025-01-18 23:44:00.82	53.30	14.59	
2025-01-18 23:44:01.02	53.34	14.61	
2025-01-18 23:44:01.23	53.38	14.62	
2025-01-18 23:44:01.43	53.42	14.63	
2025-01-18 23:44:01.63	53.47	14.64	
2025-01-18 23:44:01.84	53.51	14.66	
2025-01-18 23:44:02.04	53.55	14.67	
2025-01-18 23:44:02.24	53.59	14.68	
2025-01-18 23:44:02.45	53.63	14.69	
2025-01-18 23:44:02.65	53.68	14.70	
2025-01-18 23:44:02.85	53.72	14.72	
2025-01-18 23:44:03.06	53.76	14.73	
2025-01-18 23:44:03.26	53.80	14.74	
2025-01-18 23:44:03.46	53.84	14.75	
2025-01-18 23:44:03.67	53.89	14.77	
2025-01-18 23:44:03.87	53.93	14.78	
2025-01-18 23:44:04.07	53.97	14.79	
2025-01-18 23:44:04.28	54.01	14.80	
2025-01-18 23:44:04.48	54.05	14.81	
2025-01-18 23:44:04.68	54.10	14.83	
2025-01-18 23:44:04.89	54.14	14.84	
2025-01-18 23:44:05.09	54.18	14.85	
2025-01-18 23:44:05.29	54.22	14.86	
2025-01-18 23:44:05.50	54.27	14.88	
2025-01-18 23:44:05.70	54.31	14.89	
2025-01-18 23:44:05.90	54.35	14.90	
2025-01-18 23:44:06.10	54.39	14.91	
2025-01-18 23:44:06.31	54.44	14.92	
2025-01-18 23:44:06.51	54.48	14.94	
2025-01-18 23:44:06.71	54.52	14.95	
2025-01-18 23:44:06.92	54.56	14.96	
2025-01-18 23:44:07.12	54.61	14.97	
2025-01-18 23:44:07.32	54.65	14.98	
2025-01-18 23:44:07.53	54.69	15.00	
2025-01-18 23:44:07.73	54.73	15.01	
2025-01-18 23:44:07.93	54.78	15.02	
2025-01-18 23:44:08.14	54.82	15.03	
2025-01-18 23:44:08.34	54.86	15.05	
2025-01-18 23:44:08.54	54.90	15.06	
2025-01-18 23:44:08.75	54.95	15.07	
2025-01-18 23:44:08.95	54.99	15.08	
2025-01-18 23:44:09.15	55.03	15.09	
2025-01-18 23:44:09.36	55.08	15.11	
2025-01-18 23:44:09.56	55.12	15.12	
2025-01-18 23:44:09.76	55.16	15.13	
2025-01-18 23:44:09.97	55.21	15.14	
2025-01-18 23:44:10.17	55.25	15.15	
2025-01-18 23:44:10.37	55.29	15.17	
2025-01-18 23:44:10.58	55.34	15.18	
2025-01-18 23:44:10.78	55.38	15.19	
2025-01-18 23:44:10.98	55.42	15.20	
2025-01-18 23:44:11.19	55.47	15.21	
2025-01-18 23:44:11.39	55.51	15.23	
2025-01-18 23:44:11.59	55.55	15.24	
2025-01-18 23:44:11.79	55.60	15.25	
2025-01-18 23:44:12.00	55.64	15.26	
2025-01-18 23:44:12.20	55.68	15.27	
2025-01-18 23:44:12.40	55.73	15.28	
2025-01-18 23:44:12.61	55.77	15.30	
2025-01-18 23:44:12.81	55.81	15.31	
2025-01-18 23:44:13.01	55.86	15.32	
2025-01-18 23:44:13.22	55.90	15.33	
2025-01-18 23:44:13.42	55.95	15.34	
2025-01-18 23:44:13.62	55.99	15.36	
2025-01-18 23:44:13.83	56.03	15.37	
2025-01-18 23:44:14.03	56.08	15.38	
2025-01-18 23:44:14.23	56.12	15.39	
2025-01-18 23:44:14.44	56.17	15.40	
2025-01-18 23:44:14.64	56.21	15.42	
2025-01-18 23:44:14.84	56.25	15.43	
2025-01-18 23:44:15.05	56.30	15.44	
2025-01-18 23:44:15.25	56.34	15.45	
2025-01-18 23:44:15.45	56.39	15.46	
2025-01-18 23:44:15.66	56.43	15.47	
2025-01-18 23:44:15.86	56.47	15.49	
2025-01-18 23:44:16.06	56.52	15.50	
2025-01-18 23:44:16.27	56.56	15.51	
2025-01-18 23:44:16.47	56.61	15.52	
2025-01-18 23:44:16.67	56.65	15.53	
2025-01-18 23:44:16.88	56.70	15.55	
2025-01-18 23:44:17.08	56.74	15.56	
2025-01-18 23:44:17.28	56.78	15.57	
2025-01-18 23:44:17.48	56.83	15.58	
2025-01-18 23:44:17.69	56.87	15.59	
2025-01-18 23:44:17.89	56.92	15.60	
2025-01-18 23:44:18.09	56.96	15.61	
2025-01-18 23:44:18.30	57.01	15.63	
2025-01-18 23:44:18.50	57.05	15.64	
2025-01-18 23:44:18.70	57.10	15.65	
2025-01-18 23:44:18.91	57.14	15.66	
2025-01-18 23:44:19.11	57.19	15.67	
2025-01-18 23:44:19.31	57.23	15.68	
2025-01-18 23:44:19.52	57.28	15.70	
2025-01-18 23:44:19.72	57.32	15.71	
2025-01-18 23:44:19.92	57.37	15.72	
2025-01-18 23:44:20.13	57.41	15.73	
2025-01-18 23:44:20.33	57.46	15.74	
2025-01-18 23:44:20.53	57.50	15.75	
2025-01-18 23:44:20.74	57.55	15.77	
2025-01-18 23:44:20.94	57.59	15.78	
2025-01-18 23:44:21.14	57.64	15.79	
2025-01-18 23:44:21.35	57.68	15.80	
2025-01-18 23:44:21.55	57.73	15.81	
2025-01-18 23:44:21.75	57.77	15.82	
2025-01-18 23:44:21.96	57.82	15.84	
2025-01-18 23:44:22.16	57.86	15.85	
2025-01-18 23:44:22.36	57.91	15.86	
2025-01-18 23:44:22.56	57.95	15.87	
2025-01-18 23:44:22.77	58.00	15.88	
2025-01-18 23:44:22.97	58.04	15.89	
2025-01-18 23:44:23.17	58.09	15.90	
2025-01-18 23:44:23.38	58.14	15.91	
2025-01-18 23:44:23.58	58.18	15.93	
2025-01-18 23:44:23.78	58.23	15.94	
2025-01-18 23:44:23.99	58.27	15.95	
2025-01-18 23:44:24.19	58.32	15.96	
2025-01-18 23:44:24.39	58.36	15.97	
2025-01-18 23:44:24.60	58.41	15.98	
2025-01-18 23:44:24.80	58.46	15.99	
2025-01-18 23:44:25.00	58.50	16.01	
2025-01-18 23:44:25.21	58.55	16.02	
2025-01-18 23:44:25.41	58.59	16.03	
2025-01-18 23:44:25.61	58.64	16.04	
2025-01-18 23:44:25.82	58.69	16.05	
2025-01-18 23:44:26.02	58.73	16.06	
2025-01-18 23:44:26.22	58.78	16.07	
2025-01-18 23:44:26.43	58.82	16.08	
2025-01-18 23:44:26.63	58.87	16.10	
2025-01-18 23:44:26.83	58.92	16.11	
2025-01-18 23:44:27.04	58.96	16.12	
2025-01-18 23:44:27.24	59.01	16.13	
2025-01-18 23:44:27.44	59.05	16.14	
2025-01-18 23:44:27.65	59.10	16.15	
2025-01-18 23:44:27.85	59.15	16.16	
2025-01-18 23:44:28.05	59.19	16.17	
2025-01-18 23:44:28.25	59.24	16.19	
2025-01-18 23:44:28.46	59.29	16.20	
2025-01-18 23:44:28.66	59.33	16.21	
2025-01-18 23:44:28.86	59.38	16.22	
2025-01-18 23:44:29.07	59.43	16.23	
2025-01-18 23:44:29.27	59.47	16.24	
2025-01-18 23:44:29.47	59.52	16.25	
2025-01-18 23:44:29.68	59.57	16.26	
2025-01-18 23:44:29.88	59.61	16.27	
2025-01-18 23:44:30.08	59.66	16.28	
2025-01-18 23:44:30.29	59.71	16.30	
2025-01-18 23:44:30.49	59.75	16.31	
2025-01-18 23:44:30.69	59.80	16.32	
2025-01-18 23:44:30.90	59.85	16.33	
2025-01-18 23:44:31.10	59.89	16.34	
2025-01-18 23:44:31.30	59.94	16.35	
2025-01-18 23:44:31.51	59.99	16.36	
2025-01-18 23:44:31.71	60.03	16.37	
2025-01-18 23:44:31.91	60.08	16.38	
2025-01-18 23:44:32.12	60.13	16.40	
2025-01-18 23:44:32.32	60.18	16.41	
2025-01-18 23:44:32.52	60.22	16.42	
2025-01-18 23:44:32.73	60.27	16.43	
2025-01-18 23:44:32.93	60.32	16.44	
2025-01-18 23:44:33.13	60.36	16.45	
2025-01-18 23:44:33.34	60.41	16.46	
2025-01-18 23:44:33.54	60.46	16.47	
2025-01-18 23:44:33.74	60.51	16.48	
2025-01-18 23:44:33.94	60.55	16.49	
2025-01-18 23:44:34.15	60.60	16.50	
2025-01-18 23:44:34.35	60.65	16.51	
2025-01-18 23:44:34.55	60.70	16.52	
2025-01-18 23:44:34.76	60.75	16.54	
2025-01-18 23:44:34.96	60.79	16.55	
2025-01-18 23:44:35.16	60.84	16.56	
2025-01-18 23:44:35.37	60.89	16.57	
2025-01-18 23:44:35.57	60.94	16.58	
2025-01-18 23:44:35.77	60.98	16.59	
2025-01-18 23:44:35.98	61.03	16.60	
2025-01-18 23:44:36.18	61.08	16.61	
2025-01-18 23:44:36.38	61.13	16.62	
2025-01-18 23:44:36.59	61.18	16.63	
2025-01-18 23:44:36.79	61.22	16.64	
2025-01-18 23:44:36.99	61.27	16.65	
2025-01-18 23:44:37.20	61.32	16.66	
2025-01-18 23:44:37.40	61.37	16.67	
2025-01-18 23:44:37.60	61.41	16.68	
2025-01-18 23:44:37.81	61.46	16.70	
2025-01-18 23:44:38.01	61.51	16.71	
2025-01-18 23:44:38.21	61.56	16.72	
2025-01-18 23:44:38.42	61.61	16.73	
2025-01-18 23:44:38.62	61.66	16.74	
2025-01-18 23:44:38.82	61.70	16.75	
2025-01-18 23:44:39.03	61.75	16.76	
2025-01-18 23:44:39.23	61.80	16.77	
2025-01-18 23:44:39.43	61.85	16.78	
2025-01-18 23:44:39.63	61.90	16.79	
2025-01-18 23:44:39.84	61.95	16.80	
2025-01-18 23:44:40.04	61.99	16.81	
2025-01-18 23:44:40.24	62.04	16.82	
2025-01-18 23:44:40.45	62.09	16.83	
2025-01-18 23:44:40.65	62.14	16.84	
2025-01-18 23:44:40.85	62.19	16.85	
2025-01-18 23:44:41.06	62.24	16.86	
2025-01-18 23:44:41.26	62.29	16.87	
2025-01-18 23:44:41.46	62.33	16.88	
2025-01-18 23:44:41.67	62.38	16.89	
2025-01-18 23:44:41.87	62.43	16.90	
2025-01-18 23:44:42.07	62.48	16.91	
2025-01-18 23:44:42.28	62.53	16.92	
2025-01-18 23:44:42.48	62.58	16.93	
2025-01-18 23:44:42.68	62.63	16.94	
2025-01-18 23:44:42.89	62.68	16.96	
2025-01-18 23:44:43.09	62.73	16.97	
2025-01-18 23:44:43.29	62.77	16.98	
2025-01-18 23:44:43.50	62.82	16.99	
2025-01-18 23:44:43.70	62.87	17.00	
2025-01-18 23:44:43.90	62.92	17.01	
2025-01-18 23:44:44.11	62.97	17.02	
2025-01-18 23:44:44.31	63.02	17.03	
2025-01-18 23:44:44.51	63.07	17.04	
2025-01-18 23:44:44.72	63.12	17.05	
2025-01-18 23:44:44.92	63.17	17.06	
2025-01-18 23:44:45.12	63.22	17.07	
2025-01-18 23:44:45.32	63.27	17.08	
2025-01-18 23:44:45.53	63.32	17.09	
2025-01-18 23:44:45.73	63.37	17.10	
2025-01-18 23:44:45.93	63.41	17.11	
2025-01-18 23:44:46.14	63.47	17.12	
2025-01-18 23:44:46.34	63.51	17.13	
2025-01-18 23:44:46.54	63.56	17.14	
2025-01-18 23:44:46.75	63.61	17.15	
2025-01-18 23:44:46.95	63.66	17.16	
2025-01-18 23:44:47.15	63.71	17.17	
2025-01-18 23:44:47.36	63.76	17.18	
2025-01-18 23:44:47.56	63.81	17.19	
2025-01-18 23:44:47.76	63.86	17.20	
2025-01-18 23:44:47.97	63.91	17.21	
2025-01-18 23:44:48.17	63.96	17.22	
2025-01-18 23:44:48.37	64.01	17.23	
2025-01-18 23:44:48.58	64.06	17.24	
2025-01-18 23:44:48.78	64.11	17.25	
2025-01-18 23:44:48.98	64.16	17.25	
2025-01-18 23:44:49.19	64.21	17.26	
2025-01-18 23:44:49.39	64.26	17.27	
2025-01-18 23:44:49.59	64.31	17.28	
2025-01-18 23:44:49.80	64.36	17.29	
2025-01-18 23:44:50.00	64.41	17.30	
2025-01-18 23:44:50.20	64.46	17.31	
2025-01-18 23:44:50.41	64.51	17.32	
2025-01-18 23:44:50.61	64.56	17.33	
2025-01-18 23:44:50.81	64.61	17.34	
2025-01-18 23:44:51.01	64.66	17.35	
2025-01-18 23:44:51.22	64.72	17.36	
2025-01-18 23:44:51.42	64.76	17.37	
2025-01-18 23:44:51.62	64.81	17.38	
2025-01-18 23:44:51.83	64.87	17.39	
2025-01-18 23:44:52.03	64.92	17.40	
2025-01-18 23:44:52.23	64.97	17.41	
2025-01-18 23:44:52.44	65.02	17.42	
2025-01-18 23:44:52.64	65.07	17.43	
2025-01-18 23:44:52.84	65.12	17.44	
2025-01-18 23:44:53.05	65.17	17.45	
2025-01-18 23:44:53.25	65.22	17.46	
2025-01-18 23:44:53.45	65.27	17.47	
2025-01-18 23:44:53.66	65.32	17.48	
2025-01-18 23:44:53.86	65.37	17.48	
2025-01-18 23:44:54.06	65.42	17.49	
2025-01-18 23:44:54.27	65.48	17.50	
2025-01-18 23:44:54.47	65.53	17.51	
2025-01-18 23:44:54.67	65.58	17.52	
2025-01-18 23:44:54.88	65.63	17.53	
2025-01-18 23:44:55.08	65.68	17.54	
2025-01-18 23:44:55.28	65.73	17.55	
2025-01-18 23:44:55.49	65.78	17.56	
2025-01-18 23:44:55.69	65.83	17.57	
2025-01-18 23:44:55.89	65.88	17.58	
2025-01-18 23:44:56.09	65.93	17.59	
2025-01-18 23:44:56.30	65.99	17.60	
2025-01-18 23:44:56.50	66.04	17.60	
2025-01-18 23:44:56.70	66.09	17.61	
2025-01-18 23:44:56.91	66.14	17.62	
2025-01-18 23:44:57.11	66.19	17.63	
2025-01-18 23:44:57.31	66.24	17.64	
2025-01-18 23:44:57.52	66.29	17.65	
2025-01-18 23:44:57.72	66.34	17.66	
2025-01-18 23:44:57.92	66.39	17.67	
2025-01-18 23:44:58.13	66.45	17.68	
2025-01-18 23:44:58.33	66.50	17.69	
2025-01-18 23:44:58.53	66.55	17.70	
2025-01-18 23:44:58.74	66.60	17.70	
2025-01-18 23:44:58.94	66.65	17.71	
2025-01-18 23:44:59.14	66.70	17.72	
2025-01-18 23:44:59.35	66.76	17.73	
2025-01-18 23:44:59.55	66.81	17.74	
2025-01-18 23:44:59.75	66.86	17.75	
2025-01-18 23:44:59.96	66.91	17.76	
2025-01-18 23:45:00.16	66.96	17.77	
2025-01-18 23:45:00.36	67.02	17.78	
2025-01-18 23:45:00.57	67.07	17.78	
2025-01-18 23:45:00.77	67.12	17.79	
2025-01-18 23:45:00.97	67.17	17.80	
2025-01-18 23:45:01.18	67.22	17.81	
2025-01-18 23:45:01.38	67.28	17.82	
2025-01-18 23:45:01.58	67.33	17.83	
2025-01-18 23:45:01.79	67.38	17.84	
2025-01-18 23:45:01.99	67.43	17.85	
2025-01-18 23:45:02.19	67.48	17.85	
2025-01-18 23:45:02.39	67.53	17.86	
2025-01-18 23:45:02.60	67.59	17.87	
2025-01-18 23:45:02.80	67.64	17.88	
2025-01-18 23:45:03.00	67.69	17.89	
2025-01-18 23:45:03.21	67.75	17.90	
2025-01-18 23:45:03.41	67.80	17.91	
2025-01-18 23:45:03.61	67.85	17.91	
2025-01-18 23:45:03.82	67.90	17.92	
2025-01-18 23:45:04.02	67.95	17.93	
2025-01-18 23:45:04.22	68.01	17.94	
2025-01-18 23:45:04.43	68.06	17.95	
2025-01-18 23:45:04.63	68.11	17.96	
2025-01-18 23:45:04.83	68.16	17.96	
2025-01-18 23:45:05.04	68.22	17.97	
2025-01-18 23:45:05.24	68.27	17.98	
2025-01-18 23:45:05.44	68.32	17.99	
2025-01-18 23:45:05.65	68.38	18.00	
2025-01-18 23:45:05.85	68.43	18.01	
2025-01-18 23:45:06.05	68.48	18.01	
2025-01-18 23:45:06.26	68.53	18.02	
2025-01-18 23:45:06.46	68.59	18.03	
2025-01-18 23:45:06.66	68.64	18.04	
2025-01-18 23:45:06.87	68.69	18.05	
2025-01-18 23:45:07.07	68.74	18.06	
2025-01-18 23:45:07.27	68.80	18.06	
2025-01-18 23:45:07.47	68.85	18.07	
2025-01-18 23:45:07.68	68.90	18.08	
2025-01-18 23:45:07.88	68.96	18.09	
2025-01-18 23:45:08.08	69.01	18.10	
2025-01-18 23:45:08.29	69.06	18.10	
2025-01-18 23:45:08.49	69.12	18.11	
2025-01-18 23:45:08.69	69.17	18.12	
2025-01-18 23:45:08.90	69.22	18.13	
2025-01-18 23:45:09.10	69.27	18.14	
2025-01-18 23:45:09.30	69.33	18.14	
2025-01-18 23:45:09.51	69.38	18.15	
2025-01-18 23:45:09.71	69.43	18.16	
2025-01-18 23:45:09.91	69.49	18.17	
2025-01-18 23:45:10.12	69.54	18.18	
2025-01-18 23:45:10.32	69.59	18.18	
2025-01-18 23:45:10.52	69.65	18.19	
2025-01-18 23:45:10.73	69.70	18.20	
2025-01-18 23:45:10.93	69.75	18.21	
2025-01-18 23:45:11.13	69.81	18.22	
2025-01-18 23:45:11.34	69.86	18.22	
2025-01-18 23:45:11.54	69.92	18.23	
2025-01-18 23:45:11.74	69.97	18.24	
2025-01-18 23:45:11.95	70.02	18.25	
2025-01-18 23:45:12.15	70.08	18.25	
2025-01-18 23:45:12.35	70.13	18.26	
2025-01-18 23:45:12.56	70.18	18.27	
2025-01-18 23:45:12.76	70.24	18.28	
2025-01-18 23:45:12.96	70.29	18.28	
2025-01-18 23:45:13.16	70.34	18.29	
2025-01-18 23:45:13.37	70.40	18.30	
2025-01-18 23:45:13.57	70.45	18.31	
2025-01-18 23:45:13.77	70.50	18.31	
2025-01-18 23:45:13.98	70.56	18.32	
2025-01-18 23:45:14.18	70.61	18.33	
2025-01-18 23:45:14.38	70.67	18.34	
2025-01-18 23:45:14.59	70.72	18.34	
2025-01-18 23:45:14.79	70.77	18.35	
2025-01-18 23:45:14.99	70.83	18.36	
2025-01-18 23:45:15.20	70.88	18.37	
2025-01-18 23:45:15.40	70.94	18.37	
2025-01-18 23:45:15.60	70.99	18.38	
2025-01-18 23:45:15.81	71.05	18.39	
2025-01-18 23:45:16.01	71.10	18.40	
2025-01-18 23:45:16.21	71.15	18.40	
2025-01-18 23:45:16.42	71.21	18.41	
2025-01-18 23:45:16.62	71.26	18.42	
2025-01-18 23:45:16.82	71.32	18.43	
2025-01-18 23:45:17.03	71.37	18.43	
2025-01-18 23:45:17.23	71.42	18.44	
2025-01-18 23:45:17.43	71.48	18.45	
2025-01-18 23:45:17.64	71.53	18.45	
2025-01-18 23:45:17.84	71.59	18.46	
2025-01-18 23:45:18.04	71.64	18.47	
2025-01-18 23:45:18.25	71.70	18.48	
2025-01-18 23:45:18.45	71.75	18.48	
2025-01-18 23:45:18.65	71.80	18.49	
2025-01-18 23:45:18.85	71.86	18.50	
2025-01-18 23:45:19.06	71.91	18.50	
2025-01-18 23:45:19.26	71.97	18.51	
2025-01-18 23:45:19.46	72.02	18.52	
2025-01-18 23:45:19.67	72.08	18.52	
2025-01-18 23:45:19.87	72.13	18.53	
2025-01-18 23:45:20.07	72.19	18.54	
2025-01-18 23:45:20.28	72.24	18.54	
2025-01-18 23:45:20.48	72.30	18.55	
2025-01-18 23:45:20.68	72.35	18.56	
2025-01-18 23:45:20.89	72.41	18.56	
2025-01-18 23:45:21.09	72.46	18.57	
2025-01-18 23:45:21.29	72.51	18.58	
2025-01-18 23:45:21.50	72.57	18.59	
2025-01-18 23:45:21.70	72.63	18.59	
2025-01-18 23:45:21.90	72.68	18.60	
2025-01-18 23:45:22.11	72.74	18.60	
2025-01-18 23:45:22.31	72.79	18.61	
2025-01-18 23:45:22.51	72.84	18.62	
2025-01-18 23:45:22.72	72.90	18.62	
2025-01-18 23:45:22.92	72.96	18.63	
2025-01-18 23:45:23.12	73.01	18.64	
2025-01-18 23:45:23.33	73.07	18.64	
2025-01-18 23:45:23.53	73.12	18.65	
2025-01-18 23:45:23.73	73.17	18.66	
2025-01-18 23:45:23.94	73.23	18.66	
2025-01-18 23:45:24.14	73.29	18.67	
2025-01-18 23:45:24.34	73.34	18.68	
2025-01-18 23:45:24.54	73.39	18.68	
2025-01-18 23:45:24.75	73.45	18.69	
2025-01-18 23:45:24.95	73.51	18.70	
2025-01-18 23:45:25.15	73.56	18.70	
2025-01-18 23:45:25.36	73.62	18.71	
2025-01-18 23:45:25.56	73.67	18.71	
2025-01-18 23:45:25.76	73.73	18.72	
2025-01-18 23:45:25.97	73.78	18.73	
2025-01-18 23:45:26.17	73.84	18.73	
2025-01-18 23:45:26.37	73.89	18.74	
2025-01-18 23:45:26.58	73.95	18.74	
2025-01-18 23:45:26.78	74.00	18.75	
2025-01-18 23:45:26.98	74.06	18.76	
2025-01-18 23:45:27.19	74.12	18.76	
2025-01-18 23:45:27.39	74.17	18.77	
2025-01-18 23:45:27.59	74.23	18.78	
2025-01-18 23:45:27.80	74.28	18.78	
2025-01-18 23:45:28.00	74.34	18.79	
2025-01-18 23:45:28.20	74.39	18.79	
2025-01-18 23:45:28.41	74.45	18.80	
2025-01-18 23:45:28.61	74.51	18.80	
2025-01-18 23:45:28.81	74.56	18.81	
2025-01-18 23:45:29.02	74.62	18.82	
2025-01-18 23:45:29.22	74.67	18.82	
2025-01-18 23:45:29.42	74.73	18.83	
2025-01-18 23:45:29.63	74.79	18.83	
2025-01-18 23:45:29.83	74.84	18.84	
2025-01-18 23:45:30.03	74.90	18.85	
2025-01-18 23:45:30.23	74.95	18.85	
2025-01-18 23:45:30.44	75.01	18.86	
2025-01-18 23:45:30.64	75.06	18.86	
2025-01-18 23:45:30.84	75.12	18.87	
2025-01-18 23:45:31.05	75.18	18.87	
2025-01-18 23:45:31.25	75.23	18.88	
2025-01-18 23:45:31.45	75.29	18.88	
2025-01-18 23:45:31.66	75.34	18.89	
2025-01-18 23:45:31.86	75.40	18.90	
2025-01-18 23:45:32.06	75.45	18.90	
2025-01-18 23:45:32.27	75.51	18.91	
2025-01-18 23:45:32.47	75.57	18.91	
2025-01-18 23:45:32.67	75.62	18.92	
2025-01-18 23:45:32.88	75.68	18.92	
2025-01-18 23:45:33.08	75.74	18.93	
2025-01-18 23:45:33.28	75.79	18.93	
2025-01-18 23:45:33.49	75.85	18.94	
2025-01-18 23:45:33.69	75.90	18.94	
2025-01-18 23:45:33.89	75.96	18.95	
2025-01-18 23:45:34.10	76.02	18.95	
2025-01-18 23:45:34.30	76.07	18.96	
2025-01-18 23:45:34.50	76.13	18.96	
2025-01-18 23:45:34.71	76.19	18.97	
2025-01-18 23:45:34.91	76.24	18.98	
2025-01-18 23:45:35.11	76.30	18.98	
2025-01-18 23:45:35.32	76.36	18.99	
2025-01-18 23:45:35.52	76.41	18.99	
2025-01-18 23:45:35.72	76.47	19.00	
2025-01-18 23:45:35.92	76.52	19.00	
2025-01-18 23:45:36.13	76.58	19.01	
2025-01-18 23:45:36.33	76.64	19.01	
2025-01-18 23:45:36.53	76.69	19.02	
2025-01-18 23:45:36.74	76.75	19.02	
2025-01-18 23:45:36.94	76.81	19.03	
2025-01-18 23:45:37.14	76.86	19.03	
2025-01-18 23:45:37.35	76.92	19.03	
2025-01-18 23:45:37.55	76.98	19.04	
2025-01-18 23:45:37.75	77.03	19.04	
2025-01-18 23:45:37.96	77.09	19.05	
2025-01-18 23:45:38.16	77.15	19.05	
2025-01-18 23:45:38.36	77.20	19.06	
2025-01-18 23:45:38.57	77.26	19.06	
2025-01-18 23:45:38.77	77.32	19.07	
2025-01-18 23:45:38.97	77.37	19.07	
2025-01-18 23:45:39.18	77.43	19.08	
2025-01-18 23:45:39.38	77.49	19.08	
2025-01-18 23:45:39.58	77.54	19.09	
2025-01-18 23:45:39.79	77.60	19.09	
2025-01-18 23:45:39.99	77.66	19.10	
2025-01-18 23:45:40.19	77.71	19.10	
2025-01-18 23:45:40.40	77.77	19.10	
2025-01-18 23:45:40.60	77.83	19.11	
2025-01-18 23:45:40.80	77.88	19.11	
2025-01-18 23:45:41.01	77.94	19.12	
2025-01-18 23:45:41.21	78.00	19.12	
2025-01-18 23:45:41.41	78.05	19.13	
2025-01-18 23:45:41.61	78.11	19.13	
2025-01-18 23:45:41.82	78.17	19.13	
2025-01-18 23:45:42.02	78.23	19.14	
2025-01-18 23:45:42.22	78.28	19.14	
2025-01-18 23:45:42.43	78.34	19.15	
2025-01-18 23:45:42.63	78.40	19.15	
2025-01-18 23:45:42.83	78.45	19.16	
2025-01-18 23:45:43.04	78.51	19.16	
2025-01-18 23:45:43.24	78.57	19.16	
2025-01-18 23:45:43.44	78.62	19.17	
2025-01-18 23:45:43.65	78.68	19.17	
2025-01-18 23:45:43.85	78.74	19.18	
2025-01-18 23:45:44.05	78.80	19.18	
2025-01-18 23:45:44.26	78.85	19.18	
2025-01-18 23:45:44.46	78.91	19.19	
2025-01-18 23:45:44.66	78.97	19.19	
2025-01-18 23:45:44.87	79.03	19.20	
2025-01-18 23:45:45.07	79.08	19.20	
2025-01-18 23:45:45.27	79.14	19.20	
2025-01-18 23:45:45.48	79.20	19.21	
2025-01-18 23:45:45.68	79.25	19.21	
2025-01-18 23:45:45.88	79.31	19.21	
2025-01-18 23:45:46.09	79.37	19.22	
2025-01-18 23:45:46.29	79.43	19.22	
2025-01-18 23:45:46.49	79.48	19.23	
2025-01-18 23:45:46.69	79.54	19.23	
2025-01-18 23:45:46.90	79.60	19.23	
2025-01-18 23:45:47.10	79.65	19.24	
2025-01-18 23:45:47.30	79.71	19.24	
2025-01-18 23:45:47.51	79.77	19.24	
2025-01-18 23:45:47.71	79.83	19.25	
2025-01-18 23:45:47.91	79.88	19.25	
2025-01-18 23:45:48.12	79.94	19.25	
2025-01-18 23:45:48.32	80.00	19.26	
2025-01-18 23:45:48.52	80.06	19.26	
2025-01-18 23:45:48.73	80.12	19.26	
2025-01-18 23:45:48.93	80.17	19.27	
2025-01-18 23:45:49.13	80.23	19.27	
2025-01-18 23:45:49.34	80.29	19.27	
2025-01-18 23:45:49.54	80.34	19.28	
2025-01-18 23:45:49.74	80.40	19.28	
2025-01-18 23:45:49.95	80.46	19.28	
2025-01-18 23:45:50.15	80.52	19.29	
2025-01-18 23:45:50.35	80.57	19.29	
2025-01-18 23:45:50.56	80.63	19.29	
2025-01-18 23:45:50.76	80.69	19.30	
2025-01-18 23:45:50.96	80.75	19.30	
2025-01-18 23:45:51.17	80.81	19.30	
2025-01-18 23:45:51.37	80.86	19.31	
2025-01-18 23:45:51.57	80.92	19.31	
2025-01-18 23:45:51.78	80.98	19.31	
2025-01-18 23:45:51.98	81.04	19.31	
2025-01-18 23:45:52.18	81.09	19.32	
2025-01-18 23:45:52.38	81.15	19.32	
2025-01-18 23:45:52.59	81.21	19.32	
2025-01-18 23:45:52.79	81.27	19.33	
2025-01-18 23:45:52.99	81.32	19.33	
2025-01-18 23:45:53.20	81.38	19.33	
2025-01-18 23:45:53.40	81.44	19.33	
2025-01-18 23:45:53.60	81.50	19.34	
2025-01-18 23:45:53.81	81.56	19.34	
2025-01-18 23:45:54.01	81.61	19.34	
2025-01-18 23:45:54.21	81.67	19.35	
2025-01-18 23:45:54.42	81.73	19.35	
2025-01-18 23:45:54.62	81.79	19.35	
2025-01-18 23:45:54.82	81.84	19.35	
2025-01-18 23:45:55.03	81.90	19.36	
2025-01-18 23:45:55.23	81.96	19.36	
2025-01-18 23:45:55.43	82.02	19.36	
2025-01-18 23:45:55.64	82.08	19.36	
2025-01-18 23:45:55.84	82.13	19.37	
2025-01-18 23:45:56.04	82.19	19.37	
2025-01-18 23:45:56.25	82.25	19.37	
2025-01-18 23:45:56.45	82.31	19.37	
2025-01-18 23:45:56.65	82.36	19.37	
2025-01-18 23:45:56.86	82.42	19.38	
2025-01-18 23:45:57.06	82.48	19.38	
2025-01-18 23:45:57.26	82.54	19.38	
2025-01-18 23:45:57.47	82.60	19.38	
2025-01-18 23:45:57.67	82.66	19.39	
2025-01-18 23:45:57.87	82.71	19.39	
2025-01-18 23:45:58.07	82.77	19.39	
2025-01-18 23:45:58.28	82.83	19.39	
2025-01-18 23:45:58.48	82.89	19.39	
2025-01-18 23:45:58.68	82.94	19.40	
2025-01-18 23:45:58.89	83.00	19.40	
2025-01-18 23:45:59.09	83.06	19.40	
2025-01-18 23:45:59.29	83.12	19.40	
2025-01-18 23:45:59.50	83.18	19.40	
2025-01-18 23:45:59.70	83.24	19.41	
2025-01-18 23:45:59.90	83.29	19.41	
2025-01-18 23:46:00.11	83.35	19.41	
2025-01-18 23:46:00.31	83.41	19.41	
2025-01-18 23:46:00.51	83.47	19.41	
2025-01-18 23:46:00.72	83.53	19.42	
2025-01-18 23:46:00.92	83.58	19.42	
2025-01-18 23:46:01.12	83.64	19.42	
2025-01-18 23:46:01.33	83.70	19.42	
2025-01-18 23:46:01.53	83.76	19.42	
2025-01-18 23:46:01.73	83.82	19.42	
2025-01-18 23:46:01.94	83.88	19.43	
2025-01-18 23:46:02.14	83.93	19.43	
2025-01-18 23:46:02.34	83.99	19.43	
2025-01-18 23:46:02.55	84.05	19.43	
2025-01-18 23:46:02.75	84.11	19.43	
2025-01-18 23:46:02.95	84.16	19.43	
2025-01-18 23:46:03.15	84.22	19.43	
2025-01-18 23:46:03.36	84.28	19.44	
2025-01-18 23:46:03.56	84.34	19.44	
2025-01-18 23:46:03.76	84.40	19.44	
2025-01-18 23:46:03.97	84.46	19.44	
2025-01-18 23:46:04.17	84.51	19.44	
2025-01-18 23:46:04.37	84.57	19.44	
2025-01-18 23:46:04.58	84.63	19.44	
2025-01-18 23:46:04.78	84.69	19.44	
2025-01-18 23:46:04.98	84.75	19.45	
2025-01-18 23:46:05.19	84.81	19.45	
2025-01-18 23:46:05.39	84.86	19.45	
2025-01-18 23:46:05.59	84.92	19.45	
2025-01-18 23:46:05.80	84.98	19.45	
2025-01-18 23:46:06.00	85.04	19.45	
2025-01-18 23:46:06.20	85.10	19.45	
2025-01-18 23:46:06.41	85.16	19.45	
2025-01-18 23:46:06.61	85.21	19.45	
2025-01-18 23:46:06.81	85.27	19.46	
2025-01-18 23:46:07.03	85.33	19.46	
2025-01-18 23:46:07.23	85.39	19.46	
2025-01-18 23:46:07.44	85.45	19.46	
2025-01-18 23:46:07.64	85.51	19.46	
2025-01-18 23:46:07.84	85.57	19.46	
2025-01-18 23:46:08.05	85.63	19.46	
2025-01-18 23:46:08.25	85.68	19.46	
2025-01-18 23:46:08.45	85.74	19.46	
2025-01-18 23:46:08.66	85.80	19.46	
2025-01-18 23:46:08.86	85.86	19.46	
2025-01-18 23:46:09.06	85.92	19.46	
2025-01-18 23:46:09.26	85.97	19.46	
2025-01-18 23:46:09.47	86.03	19.46	
2025-01-18 23:46:09.67	86.09	19.47	
2025-01-18 23:46:09.87	86.15	19.47	
2025-01-18 23:46:10.08	86.21	19.47	
2025-01-18 23:46:10.28	86.27	19.47	
2025-01-18 23:46:10.48	86.32	19.47	
2025-01-18 23:46:10.69	86.38	19.47	
2025-01-18 23:46:10.89	86.44	19.47	
2025-01-18 23:46:11.09	86.50	19.47	
2025-01-18 23:46:11.30	86.56	19.47	
2025-01-18 23:46:11.50	86.62	19.47	
2025-01-18 23:46:11.70	86.67	19.47	
2025-01-18 23:46:11.91	86.73	19.47	
2025-01-18 23:46:12.11	86.79	19.47	
2025-01-18 23:46:12.31	86.85	19.47	
2025-01-18 23:46:12.52	86.91	19.47	
2025-01-18 23:46:12.72	86.97	19.47	
2025-01-18 23:46:12.92	87.02	19.47	
2025-01-18 23:46:13.13	87.08	19.47	
2025-01-18 23:46:13.33	87.14	19.47	
2025-01-18 23:46:13.53	87.20	19.47	
2025-01-18 23:46:13.74	87.26	19.47	
2025-01-18 23:46:13.94	87.32	19.47	
2025-01-18 23:46:14.14	87.37	19.47	
2025-01-18 23:46:14.35	87.43	19.47	
2025-01-18 23:46:14.55	87.49	19.47	
2025-01-18 23:46:14.75	87.55	19.47	
2025-01-18 23:46:14.95	87.61	19.47	
2025-01-18 23:46:15.16	87.67	19.47	
2025-01-18 23:46:15.36	87.72	19.47	
2025-01-18 23:46:15.56	87.78	19.47	
2025-01-18 23:46:15.77	87.84	19.47	
2025-01-18 23:46:15.97	87.90	19.47	
2025-01-18 23:46:16.17	87.96	19.47	
2025-01-18 23:46:16.38	88.02	19.47	
2025-01-18 23:46:16.58	88.07	19.47	
2025-01-18 23:46:16.78	88.13	19.47	
2025-01-18 23:46:16.99	88.19	19.47	
2025-01-18 23:46:17.19	88.25	19.47	
2025-01-18 23:46:17.39	88.31	19.46	
2025-01-18 23:46:17.60	88.37	19.46	
2025-01-18 23:46:17.80	88.42	19.46	
2025-01-18 23:46:18.00	88.48	19.46	
2025-01-18 23:46:18.21	88.54	19.46	
2025-01-18 23:46:18.41	88.60	19.46	
2025-01-18 23:46:18.61	88.66	19.46	
2025-01-18 23:46:18.82	88.72	19.46	
2025-01-18 23:46:19.02	88.77	19.46	
2025-01-18 23:46:19.22	88.83	19.46	
2025-01-18 23:46:19.43	88.89	19.46	
2025-01-18 23:46:19.63	88.95	19.46	
2025-01-18 23:46:19.83	89.01	19.46	
2025-01-18 23:46:20.04	89.07	19.46	
2025-01-18 23:46:20.24	89.12	19.45	
2025-01-18 23:46:20.44	89.18	19.45	
2025-01-18 23:46:20.64	89.24	19.45	
2025-01-18 23:46:20.85	89.30	19.45	
2025-01-18 23:46:21.05	89.36	19.45	
2025-01-18 23:46:21.25	89.41	19.45	
2025-01-18 23:46:21.46	89.47	19.45	
2025-01-18 23:46:21.66	89.53	19.45	
2025-01-18 23:46:21.86	89.59	19.45	
2025-01-18 23:46:22.07	89.65	19.44	
2025-01-18 23:46:22.27	89.71	19.44	
2025-01-18 23:46:22.47	89.76	19.44	
2025-01-18 23:46:22.68	89.82	19.44	
2025-01-18 23:46:22.88	89.88	19.44	
2025-01-18 23:46:23.08	89.94	19.44	
2025-01-18 23:46:23.29	90.00	19.44	
2025-01-18 23:46:23.49	90.06	19.44	
2025-01-18 23:46:23.69	90.11	19.43	
2025-01-18 23:46:23.90	90.17	19.43	
2025-01-18 23:46:24.10	90.23	19.43	
2025-01-18 23:46:24.30	90.29	19.43	
2025-01-18 23:46:24.51	90.35	19.43	
2025-01-18 23:46:24.71	90.41	19.43	
2025-01-18 23:46:24.91	90.46	19.43	
2025-01-18 23:46:25.12	90.52	19.42	
2025-01-18 23:46:25.32	90.58	19.42	
2025-01-18 23:46:25.52	90.64	19.42	
2025-01-18 23:46:25.73	90.70	19.42	
2025-01-18 23:46:25.93	90.75	19.42	
2025-01-18 23:46:26.13	90.81	19.42	
2025-01-18 23:46:26.33	90.87	19.41	
2025-01-18 23:46:26.54	90.93	19.41	
2025-01-18 23:46:26.74	90.99	19.41	
2025-01-18 23:46:26.94	91.04	19.41	
2025-01-18 23:46:27.15	91.10	19.41	
2025-01-18 23:46:27.35	91.16	19.40	
2025-01-18 23:46:27.55	91.22	19.40	
2025-01-18 23:46:27.76	91.28	19.40	
2025-01-18 23:46:27.96	91.34	19.40	
2025-01-18 23:46:28.16	91.39	19.40	
2025-01-18 23:46:28.37	91.45	19.39	
2025-01-18 23:46:28.57	91.51	19.39	
2025-01-18 23:46:28.77	91.57	19.39	
2025-01-18 23:46:28.98	91.63	19.39	
2025-01-18 23:46:29.18	91.68	19.39	
2025-01-18 23:46:29.38	91.74	19.38	
2025-01-18 23:46:29.59	91.80	19.38	
2025-01-18 23:46:29.79	91.86	19.38	
2025-01-18 23:46:29.99	91.91	19.38	
2025-01-18 23:46:30.20	91.97	19.37	
2025-01-18 23:46:30.40	92.03	19.37	
2025-01-18 23:46:30.60	92.09	19.37	
2025-01-18 23:46:30.81	92.15	19.37	
2025-01-18 23:46:31.01	92.21	19.37	
2025-01-18 23:46:31.21	92.26	19.36	
2025-01-18 23:46:31.42	92.32	19.36	
2025-01-18 23:46:31.62	92.38	19.36	
2025-01-18 23:46:31.82	92.44	19.36	
2025-01-18 23:46:32.02	92.49	19.35	
2025-01-18 23:46:32.23	92.55	19.35	
2025-01-18 23:46:32.43	92.61	19.35	
2025-01-18 23:46:32.63	92.67	19.35	
2025-01-18 23:46:32.84	92.73	19.34	
2025-01-18 23:46:33.04	92.78	19.34	
2025-01-18 23:46:33.24	92.84	19.34	
2025-01-18 23:46:33.45	92.90	19.33	
2025-01-18 23:46:33.65	92.96	19.33	
2025-01-18 23:46:33.85	93.01	19.33	
2025-01-18 23:46:34.06	93.07	19.33	
2025-01-18 23:46:34.26	93.13	19.32	
2025-01-18 23:46:34.46	93.19	19.32	
2025-01-18 23:46:34.67	93.25	19.32	
2025-01-18 23:46:34.87	93.30	19.31	
2025-01-18 23:46:35.07	93.36	19.31	
2025-01-18 23:46:35.28	93.42	19.31	
2025-01-18 23:46:35.48	93.48	19.31	
2025-01-18 23:46:35.68	93.53	19.30	
2025-01-18 23:46:35.89	93.59	19.30	
2025-01-18 23:46:36.09	93.65	19.30	
2025-01-18 23:46:36.29	93.71	19.29	
2025-01-18 23:46:36.50	93.77	19.29	
2025-01-18 23:46:36.70	93.82	19.29	
2025-01-18 23:46:36.90	93.88	19.28	
2025-01-18 23:46:37.10	93.94	19.28	
2025-01-18 23:46:37.31	94.00	19.28	
2025-01-18 23:46:37.51	94.05	19.27	
2025-01-18 23:46:37.71	94.11	19.27	
2025-01-18 23:46:37.92	94.17	19.27	
2025-01-18 23:46:38.12	94.23	19.26	
2025-01-18 23:46:38.32	94.28	19.26	
2025-01-18 23:46:38.53	94.34	19.26	
2025-01-18 23:46:38.73	94.40	19.25	
2025-01-18 23:46:38.93	94.46	19.25	
2025-01-18 23:46:39.14	94.52	19.25	
2025-01-18 23:46:39.34	94.57	19.24	
2025-01-18 23:46:39.54	94.63	19.24	
2025-01-18 23:46:39.75	94.69	19.24	
2025-01-18 23:46:39.95	94.74	19.23	
2025-01-18 23:46:40.15	94.80	19.23	
2025-01-18 23:46:40.36	94.86	19.23	
2025-01-18 23:46:40.56	94.92	19.22	
2025-01-18 23:46:40.76	94.97	19.22	
2025-01-18 23:46:40.97	95.03	19.21	
2025-01-18 23:46:41.17	95.09	19.21	
2025-01-18 23:46:41.37	95.15	19.21	
2025-01-18 23:46:41.58	95.21	19.20	
2025-01-18 23:46:41.78	95.26	19.20	
2025-01-18 23:46:41.98	95.32	19.20	
2025-01-18 23:46:42.19	95.38	19.19	
2025-01-18 23:46:42.39	95.43	19.19	
2025-01-18 23:46:42.59	95.49	19.18	
2025-01-18 23:46:42.79	95.55	19.18	
2025-01-18 23:46:43.00	95.61	19.18	
2025-01-18 23:46:43.20	95.66	19.17	
2025-01-18 23:46:43.40	95.72	19.17	
2025-01-18 23:46:43.61	95.78	19.16	
2025-01-18 23:46:43.81	95.83	19.16	
2025-01-18 23:46:44.01	95.89	19.16	
2025-01-18 23:46:44.22	95.95	19.15	
2025-01-18 23:46:44.42	96.01	19.15	
2025-01-18 23:46:44.62	96.06	19.14	
2025-01-18 23:46:44.83	96.12	19.14	
2025-01-18 23:46:45.03	96.18	19.13	
2025-01-18 23:46:45.23	96.23	19.13	
2025-01-18 23:46:45.44	96.29	19.13	
2025-01-18 23:46:45.64	96.35	19.12	
2025-01-18 23:46:45.84	96.40	19.12	
2025-01-18 23:46:46.05	96.46	19.11	
2025-01-18 23:46:46.25	96.52	19.11	
2025-01-18 23:46:46.45	96.57	19.10	
2025-01-18 23:46:46.66	96.63	19.10	
2025-01-18 23:46:46.86	96.69	19.09	
2025-01-18 23:46:47.06	96.75	19.09	
2025-01-18 23:46:47.27	96.80	19.09	
2025-01-18 23:46:47.47	96.86	19.08	
2025-01-18 23:46:47.67	96.92	19.08	
2025-01-18 23:46:47.88	96.98	19.07	
2025-01-18 23:46:48.08	97.03	19.07	
2025-01-18 23:46:48.28	97.09	19.06	
2025-01-18 23:46:48.48	97.14	19.06	
2025-01-18 23:46:48.69	97.20	19.05	
2025-01-18 23:46:48.89	97.26	19.05	
2025-01-18 23:46:49.09	97.31	19.04	
2025-01-18 23:46:49.30	97.37	19.04	
2025-01-18 23:46:49.50	97.43	19.03	
2025-01-18 23:46:49.70	97.48	19.03	
2025-01-18 23:46:49.91	97.54	19.02	
2025-01-18 23:46:50.11	97.60	19.02	
