passes_logs/2026/01/19/R2M6_AANII_01/R2M6_AANII_01__20260119_011040_NOAA_21_JPSS-2_rec.log

#Pass ID: 20260119_011040_NOAA 21 (JPSS-2)
#Satellite: NOAA 21 (JPSS-2)
#Configuration: NOAA 21
#almurnet v.1.7.20240730
#Start time: 2026-01-19 01:10:42

#Version: 2.2.20231116
#Station: R2M6_AANII_01
#Location: 30.233357 lon 59.946436 lat
#TLE: 1 54234U 22150A   26017.90260625  .00000050  00000+0  44518-4 0  9994
#TLE: 2 54234  98.7502 318.7672 0000612 269.1755  90.9351 14.19535344165221

#Time	Az	El	Level	Level2	SNR	BER	BlckErr	Temp	State	Recorded	gain1	gain2
2026-01-19 01:10:42.04	14.20	7.11	-31.2	-36.2	4.6	1.40e+00	0	44	0	0	22	6401
2026-01-19 01:10:43.04	14.16	7.18	-31.2	-36.2	4.6	1.41e+00	0	43	104	0	22	6412
2026-01-19 01:10:44.04	14.12	7.26	-31.3	-35.9	8.3	5.48e-02	0	43	0	0	22	6095
2026-01-19 01:10:45.04	14.08	7.33	-31.6	-36.2	7.7	8.37e-02	0	43	0	3145728	23	6144
2026-01-19 01:10:46.04	14.04	7.41	-31.4	-35.9	8.3	5.49e-02	0	44	0	6291456	22	6105
2026-01-19 01:10:47.05	14.00	7.49	-31.6	-36.2	7.8	7.33e-02	0	44	0	9437184	23	6133
2026-01-19 01:10:48.05	13.95	7.56	-31.8	-37.1	7.1	1.21e-01	0	44	0	12582912	23	6631
2026-01-19 01:10:49.06	13.91	7.64	-31.6	-36.1	7.8	9.66e-02	0	44	0	15728640	23	6092
2026-01-19 01:10:50.06	13.87	7.71	-31.2	-35.3	8.7	4.28e-02	0	44	0	18874368	22	5798
2026-01-19 01:10:51.06	13.83	7.79	-31.0	-34.5	9.4	1.99e-02	0	44	0	22020096	22	5436
2026-01-19 01:10:52.07	13.78	7.87	-30.6	-33.9	10.2	6.94e-03	0	44	0	24117248	21	5283
2026-01-19 01:10:53.07	13.74	7.95	-30.4	-33.8	10.6	9.66e-03	0	44	0	27262976	20	5363
2026-01-19 01:10:54.07	13.70	8.02	-30.1	-33.1	11.1	6.31e-03	0	44	0	30408704	20	5075
2026-01-19 01:10:55.08	13.65	8.10	-29.9	-32.6	11.5	9.09e-04	0	44	0	33554432	20	4896
2026-01-19 01:10:56.08	13.61	8.18	-29.9	-33.0	11.7	7.07e-04	0	43	0	36700160	19	5133
2026-01-19 01:10:57.08	13.57	8.26	-29.8	-32.8	11.7	5.71e-04	0	44	0	39845888	19	5079
2026-01-19 01:10:58.08	13.52	8.33	-29.6	-32.3	12.0	2.95e-04	0	44	0	42991616	19	4871
2026-01-19 01:10:59.09	13.48	8.41	-29.5	-31.8	12.2	4.96e-03	0	44	0	46137344	19	4723
2026-01-19 01:11:00.09	13.43	8.49	-29.3	-32.0	12.6	1.43e-04	0	44	0	49283072	18	4906
2026-01-19 01:11:01.09	13.39	8.57	-29.5	-32.3	12.4	1.12e-04	0	44	0	52428800	18	4995
2026-01-19 01:11:02.09	13.34	8.65	-29.5	-32.0	12.3	1.43e-04	0	44	0	55574528	19	4781
2026-01-19 01:11:03.09	13.30	8.73	-29.4	-32.2	12.5	1.52e-04	0	44	0	58720256	18	4965
2026-01-19 01:11:04.09	13.25	8.81	-29.3	-31.9	12.7	8.06e-04	0	44	0	61865984	18	4844
2026-01-19 01:11:05.09	13.21	8.89	-29.1	-31.3	13.1	2.67e-05	0	44	0	65011712	18	4658
2026-01-19 01:11:06.08	13.16	8.96	-29.2	-31.5	13.0	2.51e-05	0	44	0	68157440	18	4723
2026-01-19 01:11:07.09	13.11	9.05	-29.2	-31.7	12.9	4.65e-05	0	44	0	71303168	18	4791
2026-01-19 01:11:08.09	13.07	9.13	-29.3	-31.8	12.8	6.19e-04	0	44	0	74448896	18	4817
2026-01-19 01:11:09.10	13.02	9.21	-29.2	-31.6	12.9	4.11e-05	0	44	0	77594624	18	4759
2026-01-19 01:11:10.11	12.97	9.29	-29.1	-31.3	13.2	5.04e-04	0	44	0	80740352	18	4645
2026-01-19 01:11:11.11	12.92	9.37	-29.1	-31.3	13.1	1.98e-05	0	44	0	83886080	18	4661
2026-01-19 01:11:12.11	12.88	9.45	-29.0	-31.2	13.2	2.05e-05	0	44	0	87031808	18	4614
2026-01-19 01:11:13.11	12.83	9.53	-29.1	-31.5	13.1	4.77e-04	0	44	0	90177536	18	4706
2026-01-19 01:11:14.12	12.78	9.61	-29.0	-31.2	13.2	5.63e-04	0	44	0	93323264	18	4614
2026-01-19 01:11:15.12	12.73	9.70	-29.0	-31.2	13.2	1.75e-05	0	44	0	96468992	18	4622
2026-01-19 01:11:16.12	12.68	9.78	-29.0	-31.5	13.3	1.98e-05	0	44	0	99614720	17	4839
2026-01-19 01:11:17.13	12.63	9.86	-29.0	-31.2	13.3	2.44e-05	0	44	0	102760448	18	4624
2026-01-19 01:11:18.13	12.58	9.94	-29.1	-31.3	13.2	1.98e-05	0	44	0	105906176	18	4647
2026-01-19 01:11:19.13	12.53	10.03	-29.0	-31.6	13.3	4.42e-04	0	44	0	109051904	17	4856
2026-01-19 01:11:20.13	12.48	10.11	-28.9	-31.4	13.4	3.99e-04	0	44	0	112197632	17	4780
2026-01-19 01:11:21.14	12.43	10.19	-29.0	-31.2	13.3	1.29e-05	0	44	0	115343360	18	4602
2026-01-19 01:11:22.14	12.38	10.28	-28.8	-31.1	13.6	1.06e-05	0	44	0	118489088	17	4715
2026-01-19 01:11:23.15	12.33	10.36	-28.8	-31.2	13.6	4.10e-04	0	44	0	121634816	17	4722
2026-01-19 01:11:24.15	12.27	10.45	-28.9	-31.3	13.5	1.22e-05	0	44	0	124780544	17	4771
2026-01-19 01:11:25.15	12.22	10.53	-28.8	-31.0	13.7	4.73e-04	0	44	0	127926272	17	4680
2026-01-19 01:11:26.15	12.17	10.62	-28.8	-31.1	13.6	4.86e-04	0	44	0	131072000	17	4698
2026-01-19 01:11:27.15	12.12	10.70	-28.8	-31.1	13.6	1.14e-05	0	44	0	134217728	17	4698
2026-01-19 01:11:28.15	12.06	10.79	-28.9	-31.3	13.5	4.91e-04	0	44	0	137363456	17	4761
2026-01-19 01:11:29.15	12.01	10.87	-28.8	-31.0	13.7	4.07e-04	0	44	0	140509184	17	4665
2026-01-19 01:11:30.15	11.96	10.96	-28.7	-30.8	13.8	3.00e-06	0	44	0	143654912	17	4607
2026-01-19 01:11:31.15	11.90	11.04	-28.8	-31.0	13.7	3.76e-04	0	44	0	146800640	17	4671
2026-01-19 01:11:32.16	11.85	11.13	-28.7	-30.8	13.9	4.23e-04	0	44	0	149946368	17	4596
2026-01-19 01:11:33.16	11.79	11.22	-28.7	-30.7	13.9	1.50e-06	0	44	0	153092096	17	4580
2026-01-19 01:11:34.17	11.74	11.31	-28.7	-30.9	13.8	5.07e-04	0	44	0	156237824	17	4633
2026-01-19 01:11:35.17	11.68	11.39	-28.6	-30.7	14.0	4.58e-04	0	44	0	159383552	17	4560
2026-01-19 01:11:36.18	11.63	11.48	-28.5	-30.4	14.1	7.00e-07	0	44	0	162529280	17	4474
2026-01-19 01:11:37.18	11.57	11.57	-28.5	-30.4	14.1	4.75e-04	0	44	0	165675008	17	4460
2026-01-19 01:11:38.19	11.51	11.66	-28.6	-30.5	14.1	7.00e-07	0	44	0	168820736	17	4501
2026-01-19 01:11:39.19	11.46	11.75	-28.4	-30.2	14.3	0.00e+00	0	44	0	171966464	17	4405
2026-01-19 01:11:40.19	11.40	11.84	-28.4	-30.7	14.3	4.27e-04	0	44	0	175112192	16	4668
2026-01-19 01:11:41.20	11.34	11.93	-28.4	-30.7	14.3	3.76e-04	0	44	0	178257920	16	4672
2026-01-19 01:11:42.20	11.28	12.01	-28.3	-30.5	14.4	0.00e+00	0	44	0	181403648	16	4619
2026-01-19 01:11:43.20	11.22	12.10	-28.3	-30.3	14.5	1.50e-06	0	44	0	184549376	16	4563
2026-01-19 01:11:44.20	11.17	12.19	-28.3	-30.4	14.4	0.00e+00	0	44	0	187695104	16	4584
2026-01-19 01:11:45.20	11.11	12.28	-28.4	-30.6	14.4	7.00e-07	0	44	0	190840832	16	4633
2026-01-19 01:11:46.21	11.05	12.38	-28.2	-30.2	14.6	2.86e-04	0	44	0	193986560	16	4526
2026-01-19 01:11:47.21	10.99	12.47	-28.2	-30.2	14.6	2.03e-04	0	44	0	197132288	16	4524
2026-01-19 01:11:48.21	10.93	12.56	-28.2	-30.3	14.6	0.00e+00	0	44	0	200278016	16	4545
2026-01-19 01:11:49.22	10.87	12.65	-28.2	-30.1	14.7	0.00e+00	0	44	0	203423744	16	4491
2026-01-19 01:11:50.22	10.80	12.74	-28.2	-30.0	14.7	5.64e-05	0	44	0	206569472	16	4475
2026-01-19 01:11:51.22	10.74	12.83	-28.1	-29.9	14.8	0.00e+00	0	44	0	209715200	16	4440
2026-01-19 01:11:52.22	10.68	12.93	-28.1	-30.0	14.7	1.44e-05	0	44	0	212860928	16	4467
2026-01-19 01:11:53.22	10.62	13.02	-28.2	-30.1	14.6	0.00e+00	0	44	0	216006656	16	4503
2026-01-19 01:11:54.23	10.56	13.11	-28.2	-30.2	14.6	0.00e+00	0	44	0	219152384	16	4533
2026-01-19 01:11:55.23	10.49	13.21	-28.3	-30.3	14.6	1.50e-06	0	44	0	222298112	16	4541
2026-01-19 01:11:56.23	10.43	13.30	-28.1	-29.9	14.7	2.01e-04	0	44	0	225443840	16	4443
2026-01-19 01:11:57.24	10.36	13.39	-28.0	-29.8	14.8	0.00e+00	0	44	0	228589568	16	4406
2026-01-19 01:11:58.24	10.30	13.49	-28.1	-29.9	14.8	0.00e+00	0	44	0	231735296	16	4431
2026-01-19 01:11:59.25	10.23	13.58	-27.9	-30.0	14.9	0.00e+00	0	44	0	234881024	15	4576
2026-01-19 01:12:00.24	10.17	13.68	-28.0	-30.1	14.8	7.00e-07	0	44	0	238026752	15	4622
2026-01-19 01:12:01.25	10.10	13.77	-28.2	-30.1	14.7	4.18e-03	0	44	0	241172480	16	4501
2026-01-19 01:12:02.25	10.04	13.87	-28.4	-30.6	14.4	7.00e-07	0	44	0	244318208	16	4638
2026-01-19 01:12:03.25	9.97	13.97	-28.2	-30.2	14.6	0.00e+00	0	44	0	247463936	16	4522
2026-01-19 01:12:04.25	9.90	14.06	-28.2	-30.1	14.7	0.00e+00	0	44	0	250609664	16	4484
2026-01-19 01:12:05.25	9.84	14.16	-28.2	-30.0	14.8	0.00e+00	0	44	0	253755392	16	4468
2026-01-19 01:12:06.25	9.77	14.26	-28.2	-30.2	14.7	3.86e-04	0	44	0	256901120	16	4526
2026-01-19 01:12:07.25	9.70	14.35	-28.2	-30.1	14.7	3.68e-03	0	44	0	260046848	16	4499
2026-01-19 01:12:08.25	9.63	14.45	-28.3	-30.4	14.6	7.00e-07	0	44	0	263192576	16	4574
2026-01-19 01:12:09.26	9.56	14.55	-28.3	-30.3	14.6	7.00e-07	0	44	0	266338304	16	4548
2026-01-19 01:12:10.26	9.49	14.65	-28.4	-30.6	14.5	2.20e-06	0	44	0	269484032	16	4621
2026-01-19 01:12:11.26	9.42	14.75	-28.3	-30.3	14.7	3.93e-03	0	44	0	272629760	16	4533
2026-01-19 01:12:12.27	9.35	14.85	-28.2	-30.2	14.7	3.97e-04	0	44	0	275775488	16	4517
2026-01-19 01:12:13.27	9.28	14.95	-28.3	-30.4	14.6	7.00e-07	0	44	0	277872640	16	4569
2026-01-19 01:12:14.28	9.20	15.05	-28.2	-30.2	14.7	0.00e+00	0	44	0	281018368	16	4503
2026-01-19 01:12:15.28	9.13	15.15	-28.2	-30.2	14.7	0.00e+00	0	44	0	284164096	16	4505
2026-01-19 01:12:16.28	9.06	15.25	-28.2	-30.2	14.7	3.54e-03	0	44	0	287309824	16	4504
2026-01-19 01:12:17.29	8.98	15.35	-28.2	-30.1	14.8	4.05e-03	0	44	0	290455552	16	4482
2026-01-19 01:12:18.29	8.91	15.45	-28.3	-30.3	14.7	0.00e+00	0	44	0	293601280	16	4535
2026-01-19 01:12:19.29	8.84	15.55	-28.2	-30.2	14.8	7.00e-07	0	44	0	296747008	16	4500
2026-01-19 01:12:20.29	8.76	15.65	-28.2	-30.1	14.8	3.89e-03	0	44	0	299892736	16	4473
2026-01-19 01:12:21.28	8.69	15.75	-28.2	-30.2	14.7	3.26e-04	0	44	0	303038464	16	4512
2026-01-19 01:12:22.29	8.61	15.86	-28.2	-30.0	14.9	3.99e-03	0	44	0	306184192	16	4446
2026-01-19 01:12:23.29	8.53	15.96	-28.3	-30.2	14.8	3.65e-03	0	44	0	309329920	16	4512
2026-01-19 01:12:24.29	8.45	16.07	-28.3	-30.4	14.6	2.85e-04	0	44	0	312475648	16	4568
2026-01-19 01:12:25.30	8.38	16.17	-28.2	-30.1	14.8	3.57e-03	0	44	0	315621376	16	4496
2026-01-19 01:12:26.30	8.30	16.27	-28.3	-30.3	14.7	3.97e-03	0	44	0	318767104	16	4551
2026-01-19 01:12:27.31	8.22	16.38	-28.3	-30.4	14.6	3.17e-04	0	44	0	321912832	16	4578
2026-01-19 01:12:28.30	8.14	16.48	-28.4	-30.5	14.6	4.00e-03	0	44	0	325058560	16	4585
2026-01-19 01:12:29.31	8.06	16.59	-28.4	-30.5	14.6	3.84e-03	0	44	0	328204288	16	4589
2026-01-19 01:12:30.30	7.98	16.70	-28.4	-30.6	14.6	3.03e-04	0	44	0	331350016	16	4628
2026-01-19 01:12:31.31	7.90	16.80	-28.3	-30.4	14.7	3.84e-03	0	44	0	334495744	16	4559
2026-01-19 01:12:32.32	7.81	16.91	-28.3	-30.4	14.7	3.68e-03	0	44	0	337641472	16	4581
2026-01-19 01:12:33.31	7.73	17.02	-28.4	-30.6	14.6	3.31e-04	0	44	0	340787200	16	4624
2026-01-19 01:12:34.32	7.65	17.12	-28.5	-30.3	14.5	3.63e-03	0	44	0	343932928	17	4431
2026-01-19 01:12:35.32	7.56	17.23	-28.7	-30.7	14.3	1.50e-06	0	44	0	347078656	17	4530
2026-01-19 01:12:36.32	7.48	17.34	-28.7	-30.9	14.2	3.70e-04	0	44	0	350224384	17	4600
2026-01-19 01:12:37.32	7.39	17.45	-28.7	-30.7	14.3	4.02e-03	0	44	0	353370112	17	4550
2026-01-19 01:12:38.32	7.31	17.56	-28.5	-30.3	14.5	3.81e-03	0	44	0	356515840	17	4425
2026-01-19 01:12:39.32	7.22	17.67	-28.5	-30.3	14.5	3.55e-04	0	44	0	359661568	17	4431
2026-01-19 01:12:40.31	7.14	17.78	-28.5	-30.4	14.5	7.00e-07	0	44	0	362807296	17	4459
2026-01-19 01:12:41.32	7.05	17.89	-28.5	-30.4	14.5	3.46e-03	0	44	0	365953024	17	4452
2026-01-19 01:12:42.32	6.96	18.00	-28.6	-30.6	14.4	3.36e-04	0	44	0	369098752	17	4501
2026-01-19 01:12:43.32	6.87	18.11	-28.6	-30.4	14.4	3.44e-03	0	44	0	372244480	17	4453
2026-01-19 01:12:44.32	6.78	18.22	-28.6	-30.4	14.5	7.00e-07	0	44	0	375390208	17	4462
2026-01-19 01:12:45.32	6.69	18.33	-28.6	-30.5	14.4	7.00e-07	0	44	0	378535936	17	4485
2026-01-19 01:12:46.33	6.60	18.45	-28.5	-30.3	14.5	3.83e-03	0	44	0	381681664	17	4430
2026-01-19 01:12:47.33	6.51	18.56	-28.4	-30.6	14.6	3.64e-03	0	44	0	384827392	16	4632
2026-01-19 01:12:48.34	6.41	18.68	-28.4	-30.6	14.7	2.33e-04	0	44	0	387973120	16	4612
2026-01-19 01:12:49.34	6.32	18.79	-28.3	-30.4	14.8	0.00e+00	0	44	0	391118848	16	4561
2026-01-19 01:12:50.34	6.23	18.90	-28.4	-30.5	14.7	7.00e-07	0	44	0	394264576	16	4593
2026-01-19 01:12:51.35	6.13	19.02	-28.4	-30.5	14.7	0.00e+00	0	44	0	397410304	16	4603
2026-01-19 01:12:52.35	6.04	19.13	-28.3	-30.2	14.9	0.00e+00	0	44	0	400556032	16	4503
2026-01-19 01:12:53.36	5.94	19.25	-28.2	-30.1	14.9	3.96e-03	0	44	0	403701760	16	4475
2026-01-19 01:12:54.36	5.84	19.37	-28.2	-30.1	15.0	0.00e+00	0	44	0	406847488	16	4471
2026-01-19 01:12:55.36	5.74	19.48	-28.2	-30.0	15.0	0.00e+00	0	44	0	409993216	16	4448
2026-01-19 01:12:56.37	5.64	19.60	-28.2	-30.2	14.9	0.00e+00	0	44	0	413138944	16	4486
2026-01-19 01:12:57.37	5.54	19.72	-28.2	-30.1	15.0	0.00e+00	0	44	0	416284672	16	4462
2026-01-19 01:12:58.37	5.44	19.84	-28.1	-29.8	15.2	3.89e-03	0	44	0	419430400	16	4392
2026-01-19 01:12:59.38	5.34	19.96	-28.1	-29.9	15.1	0.00e+00	0	44	0	422576128	16	4420
2026-01-19 01:13:00.38	5.24	20.08	-28.1	-29.9	15.2	0.00e+00	0	44	0	425721856	16	4404
2026-01-19 01:13:01.38	5.14	20.20	-28.0	-29.7	15.3	0.00e+00	0	44	0	428867584	16	4358
2026-01-19 01:13:02.39	5.03	20.32	-27.9	-29.9	15.3	0.00e+00	0	44	0	432013312	15	4527
2026-01-19 01:13:03.39	4.93	20.44	-27.9	-30.0	15.2	0.00e+00	0	44	0	435159040	15	4576
2026-01-19 01:13:04.40	4.82	20.56	-27.9	-29.8	15.3	0.00e+00	0	44	0	438304768	15	4512
2026-01-19 01:13:05.40	4.72	20.68	-27.8	-29.6	15.4	0.00e+00	0	44	0	441450496	15	4444
2026-01-19 01:13:06.40	4.61	20.80	-27.8	-29.7	15.3	0.00e+00	0	44	0	444596224	15	4484
2026-01-19 01:13:07.40	4.50	20.92	-27.9	-29.9	15.3	0.00e+00	0	44	0	447741952	15	4533
2026-01-19 01:13:08.40	4.39	21.05	-28.0	-29.7	15.3	0.00e+00	0	44	0	450887680	16	4348
2026-01-19 01:13:09.40	4.28	21.17	-27.9	-29.4	15.4	0.00e+00	0	44	0	454033408	16	4273
2026-01-19 01:13:10.41	4.17	21.29	-27.8	-29.6	15.4	0.00e+00	0	44	0	457179136	15	4444
2026-01-19 01:13:11.41	4.06	21.42	-27.5	-29.1	15.7	0.00e+00	0	44	0	460324864	15	4297
2026-01-19 01:13:12.42	3.95	21.55	-27.4	-28.7	15.9	0.00e+00	0	44	0	463470592	15	4203
2026-01-19 01:13:13.42	3.84	21.67	-27.3	-29.1	16.0	0.00e+00	0	44	0	466616320	14	4414
2026-01-19 01:13:14.43	3.72	21.80	-27.4	-29.2	16.0	0.00e+00	0	44	0	469762048	14	4445
2026-01-19 01:13:15.43	3.61	21.92	-27.5	-29.1	15.7	0.00e+00	0	44	0	472907776	15	4301
2026-01-19 01:13:16.43	3.49	22.05	-27.7	-29.3	15.6	0.00e+00	0	44	0	476053504	15	4367
2026-01-19 01:13:17.43	3.37	22.18	-27.5	-28.9	15.8	0.00e+00	0	44	0	479199232	15	4244
2026-01-19 01:13:18.43	3.25	22.30	-27.3	-28.6	16.0	0.00e+00	0	44	0	482344960	15	4179
2026-01-19 01:13:19.44	3.13	22.43	-27.4	-29.2	16.0	0.00e+00	0	44	0	485490688	14	4442
2026-01-19 01:13:20.45	3.01	22.56	-27.5	-29.5	15.8	0.00e+00	0	44	0	488636416	14	4520
2026-01-19 01:13:21.45	2.89	22.69	-27.6	-29.3	15.7	0.00e+00	0	44	0	491782144	15	4345
2026-01-19 01:13:22.46	2.77	22.82	-27.6	-29.3	15.7	0.00e+00	0	44	0	494927872	15	4348
2026-01-19 01:13:23.46	2.64	22.95	-27.4	-28.8	15.9	0.00e+00	0	44	0	498073600	15	4216
2026-01-19 01:13:24.45	2.52	23.08	-27.4	-29.2	16.0	0.00e+00	0	44	0	501219328	14	4453
2026-01-19 01:13:25.45	2.40	23.22	-27.4	-29.2	16.0	0.00e+00	0	44	0	504365056	14	4437
2026-01-19 01:13:26.45	2.27	23.35	-27.2	-28.9	16.2	0.00e+00	0	44	0	507510784	14	4351
2026-01-19 01:13:27.45	2.14	23.48	-27.3	-29.0	16.2	0.00e+00	0	44	0	510656512	14	4378
2026-01-19 01:13:28.46	2.01	23.61	-27.2	-28.9	16.2	0.00e+00	0	44	0	513802240	14	4358
2026-01-19 01:13:29.46	1.88	23.75	-27.3	-29.0	16.1	0.00e+00	0	44	0	516947968	14	4382
2026-01-19 01:13:30.46	1.75	23.88	-27.4	-28.8	16.0	0.00e+00	0	44	0	520093696	15	4225
2026-01-19 01:13:31.46	1.62	24.02	-27.3	-28.9	16.2	0.00e+00	0	44	0	523239424	14	4363
2026-01-19 01:13:32.46	1.49	24.15	-27.3	-29.0	16.1	0.00e+00	0	44	0	526385152	14	4386
2026-01-19 01:13:33.47	1.35	24.29	-27.3	-29.0	16.1	0.00e+00	0	44	0	529530880	14	4388
2026-01-19 01:13:34.47	1.22	24.42	-27.3	-29.1	16.1	0.00e+00	0	44	0	531628032	14	4412
2026-01-19 01:13:35.47	1.08	24.56	-27.3	-29.1	16.1	0.00e+00	0	44	0	534773760	14	4421
2026-01-19 01:13:36.48	0.94	24.70	-27.4	-29.1	16.1	0.00e+00	0	44	0	537919488	14	4423
2026-01-19 01:13:37.48	0.80	24.84	-27.3	-29.1	16.1	0.00e+00	0	44	0	541065216	14	4400
2026-01-19 01:13:38.49	0.66	24.98	-27.4	-29.2	16.0	0.00e+00	0	44	0	544210944	14	4438
2026-01-19 01:13:39.50	0.51	25.12	-27.3	-29.1	16.1	0.00e+00	0	44	0	548405248	14	4417
2026-01-19 01:13:40.50	0.37	25.25	-27.5	-29.5	15.9	0.00e+00	0	44	0	551550976	14	4511
2026-01-19 01:13:41.50	0.23	25.39	-27.6	-29.3	15.7	0.00e+00	0	44	0	554696704	15	4347
2026-01-19 01:13:42.50	0.08	25.53	-27.7	-29.5	15.6	0.00e+00	0	44	0	556793856	15	4407
2026-01-19 01:13:43.50	359.93	25.68	-27.8	-29.6	15.6	0.00e+00	0	44	0	559939584	15	4452
2026-01-19 01:13:44.50	359.79	25.82	-27.9	-29.8	15.5	0.00e+00	0	44	0	563085312	15	4494
2026-01-19 01:13:45.50	359.64	25.96	-28.0	-30.1	15.3	7.00e-07	0	44	0	566231040	15	4575
2026-01-19 01:13:46.50	359.48	26.10	-28.3	-30.1	15.2	0.00e+00	0	44	0	569376768	16	4476
2026-01-19 01:13:47.50	359.33	26.24	-28.2	-30.1	15.2	0.00e+00	0	44	0	572522496	16	4466
2026-01-19 01:13:48.51	359.18	26.39	-28.3	-30.2	15.2	0.00e+00	0	44	0	575668224	16	4478
2026-01-19 01:13:49.51	359.02	26.53	-28.3	-30.4	15.1	0.00e+00	0	44	0	578813952	16	4538
2026-01-19 01:13:50.51	358.86	26.68	-28.3	-30.3	15.1	0.00e+00	0	44	0	581959680	16	4534
2026-01-19 01:13:51.51	358.71	26.82	-28.4	-30.4	15.1	0.00e+00	0	44	0	585105408	16	4556
2026-01-19 01:13:52.51	358.55	26.97	-28.3	-30.4	15.1	0.00e+00	0	44	0	588251136	16	4535
2026-01-19 01:13:53.52	358.38	27.12	-28.3	-30.2	15.1	0.00e+00	0	44	0	591396864	16	4499
2026-01-19 01:13:54.52	358.22	27.26	-28.3	-30.3	15.1	0.00e+00	0	44	0	594542592	16	4512
2026-01-19 01:13:55.52	358.06	27.41	-28.3	-30.3	15.1	0.00e+00	0	44	0	597688320	16	4524
2026-01-19 01:13:56.53	357.89	27.56	-27.5	-29.4	15.2	0.00e+00	0	44	0	600834048	16	4494
2026-01-19 01:13:57.53	357.72	27.71	-28.2	-30.1	12.8	0.00e+00	0	44	0	603979776	16	4456
2026-01-19 01:13:58.53	357.55	27.86	-28.3	-30.2	13.3	0.00e+00	0	44	0	607125504	16	4476
2026-01-19 01:13:59.53	357.38	28.01	-28.1	-29.8	15.3	0.00e+00	0	44	0	610271232	16	4372
2026-01-19 01:14:00.54	357.21	28.16	-28.2	-30.0	15.2	3.81e-03	0	44	0	613416960	16	4420
2026-01-19 01:14:01.54	357.03	28.31	-28.2	-30.1	15.2	0.00e+00	0	44	0	616562688	16	4458
2026-01-19 01:14:02.55	356.85	28.46	-28.3	-30.2	15.2	0.00e+00	0	44	0	619708416	16	4475
2026-01-19 01:14:03.55	356.68	28.61	-28.4	-30.4	15.1	0.00e+00	0	44	0	622854144	16	4542
2026-01-19 01:14:04.55	356.50	28.76	-28.2	-30.0	15.3	0.00e+00	0	44	0	625999872	16	4436
2026-01-19 01:14:05.55	356.32	28.92	-28.1	-29.9	15.4	2.14e-04	0	44	0	629145600	16	4393
2026-01-19 01:14:06.55	356.13	29.07	-28.2	-30.0	15.3	3.58e-03	0	44	0	632291328	16	4418
2026-01-19 01:14:07.55	355.95	29.22	-28.1	-29.8	15.4	0.00e+00	0	44	0	635437056	16	4375
2026-01-19 01:14:08.55	355.76	29.38	-28.1	-29.7	15.5	0.00e+00	0	44	0	638582784	16	4332
2026-01-19 01:14:09.56	355.57	29.53	-27.9	-29.8	15.5	0.00e+00	0	44	0	641728512	15	4488
2026-01-19 01:14:10.57	355.38	29.69	-27.8	-29.7	15.6	2.15e-03	0	44	0	644874240	15	4451
2026-01-19 01:14:11.57	355.19	29.84	-28.2	-30.1	15.3	1.55e-04	0	44	0	648019968	16	4441
2026-01-19 01:14:12.57	355.00	30.00	-28.3	-30.2	15.2	2.13e-03	0	44	0	651165696	16	4476
2026-01-19 01:14:13.57	354.80	30.16	-28.2	-30.1	15.3	0.00e+00	0	44	0	654311424	16	4460
2026-01-19 01:14:14.58	354.60	30.31	-28.4	-30.4	15.1	0.00e+00	0	44	0	657457152	16	4543
2026-01-19 01:14:15.58	354.40	30.47	-28.4	-30.5	15.1	2.12e-03	0	44	0	660602880	16	4560
2026-01-19 01:14:16.59	354.20	30.63	-28.4	-30.5	15.0	2.28e-03	0	44	0	663748608	16	4580
2026-01-19 01:14:17.59	353.99	30.79	-28.5	-30.6	15.0	1.73e-04	0	44	0	666894336	16	4602
2026-01-19 01:14:18.58	353.79	30.95	-28.5	-30.3	14.9	1.85e-04	0	44	0	670040064	17	4394
2026-01-19 01:14:19.58	353.58	31.11	-28.5	-30.2	14.9	2.83e-03	0	44	0	673185792	17	4366
2026-01-19 01:14:20.58	353.37	31.26	-28.1	-29.8	15.4	2.60e-04	0	44	0	676331520	16	4382
2026-01-19 01:14:21.58	353.16	31.42	-27.9	-29.4	15.7	2.63e-03	0	44	0	679477248	16	4257
2026-01-19 01:14:22.58	352.95	31.59	-27.8	-29.5	15.7	2.89e-03	0	44	0	682622976	15	4407
2026-01-19 01:14:23.58	352.73	31.75	-27.7	-29.5	15.7	0.00e+00	0	44	0	685768704	15	4391
2026-01-19 01:14:24.59	352.51	31.91	-27.7	-29.5	15.7	2.71e-03	0	44	0	688914432	15	4387
2026-01-19 01:14:25.59	352.29	32.07	-27.9	-29.8	15.6	2.17e-03	0	44	0	692060160	15	4481
2026-01-19 01:14:26.60	352.06	32.23	-28.1	-29.8	15.5	9.90e-06	0	44	0	695205888	16	4368
2026-01-19 01:14:27.60	351.84	32.40	-28.0	-30.0	15.5	1.97e-03	0	44	0	698351616	15	4538
2026-01-19 01:14:28.60	351.61	32.56	-28.2	-29.9	15.4	1.99e-03	0	44	0	701497344	16	4408
2026-01-19 01:14:29.61	351.38	32.72	-28.2	-30.1	15.3	0.00e+00	0	44	0	704643072	16	4454
2026-01-19 01:14:30.61	351.15	32.89	-28.3	-30.2	15.2	2.63e-03	0	44	0	707788800	16	4492
2026-01-19 01:14:31.61	350.91	33.05	-28.3	-30.2	15.2	3.05e-03	0	44	0	710934528	16	4477
2026-01-19 01:14:32.62	350.67	33.22	-28.4	-30.5	15.1	1.81e-04	0	44	0	714080256	16	4561
2026-01-19 01:14:33.62	350.43	33.38	-28.4	-30.0	15.0	3.72e-03	0	44	0	717225984	17	4329
2026-01-19 01:14:34.62	350.19	33.55	-28.7	-30.6	14.8	0.00e+00	0	44	0	720371712	17	4482
2026-01-19 01:14:35.62	349.95	33.71	-28.7	-30.7	14.7	3.65e-04	0	44	0	723517440	17	4522
2026-01-19 01:14:36.63	349.70	33.88	-28.8	-30.8	14.6	3.65e-03	0	44	0	726663168	17	4536
2026-01-19 01:14:37.63	349.45	34.05	-28.8	-30.8	14.6	3.30e-03	0	44	0	729808896	17	4550
2026-01-19 01:14:38.64	349.19	34.21	-28.8	-30.9	14.6	3.71e-04	0	44	0	732954624	17	4579
2026-01-19 01:14:39.64	348.94	34.38	-28.8	-30.9	14.5	0.00e+00	0	44	0	736100352	17	4578
2026-01-19 01:14:40.64	348.68	34.55	-28.9	-31.2	14.4	0.00e+00	0	44	0	739246080	17	4671
2026-01-19 01:14:41.64	348.42	34.71	-29.0	-30.9	14.3	2.35e-04	0	44	0	742391808	18	4480
2026-01-19 01:14:42.65	348.16	34.88	-29.4	-31.7	13.9	7.16e-04	0	44	0	745537536	18	4694
2026-01-19 01:14:43.65	347.89	35.05	-29.2	-31.4	14.0	3.00e-06	0	44	0	748683264	18	4603
2026-01-19 01:14:44.65	347.62	35.22	-29.3	-31.5	14.0	5.30e-06	0	44	0	751828992	18	4631
2026-01-19 01:14:45.65	347.35	35.38	-29.4	-31.7	13.9	3.80e-06	0	44	0	754974720	18	4711
2026-01-19 01:14:46.65	347.08	35.55	-29.4	-31.8	13.8	3.80e-06	0	44	0	758120448	18	4734
2026-01-19 01:14:47.66	346.80	35.72	-29.4	-31.8	13.8	5.30e-06	0	44	0	761266176	18	4746
2026-01-19 01:14:48.66	346.52	35.89	-29.4	-31.8	13.8	5.30e-06	0	44	0	764411904	18	4741
2026-01-19 01:14:49.66	346.24	36.06	-29.5	-32.0	13.7	2.20e-06	0	44	0	767557632	18	4796
2026-01-19 01:14:50.66	345.95	36.22	-29.8	-32.3	13.2	9.10e-06	0	44	0	770703360	19	4772
2026-01-19 01:14:51.67	345.66	36.39	-29.6	-31.6	13.6	1.37e-05	0	44	0	773849088	19	4575
2026-01-19 01:14:52.67	345.37	36.56	-29.3	-31.5	14.0	2.23e-03	0	44	0	776994816	18	4643
2026-01-19 01:14:53.68	345.07	36.73	-29.1	-31.1	14.2	2.20e-06	0	44	0	780140544	18	4534
2026-01-19 01:14:54.69	344.77	36.90	-29.0	-30.9	14.3	1.50e-06	0	44	0	783286272	18	4467
2026-01-19 01:14:55.69	344.47	37.07	-29.1	-31.0	14.2	0.00e+00	0	44	0	785383424	18	4501
2026-01-19 01:14:56.69	344.16	37.24	-29.0	-30.9	14.3	1.50e-06	0	44	0	788529152	18	4468
2026-01-19 01:14:57.70	343.85	37.41	-29.2	-31.2	14.1	0.00e+00	0	44	0	792723456	18	4556
2026-01-19 01:14:58.71	343.54	37.58	-29.2	-31.3	14.1	3.00e-06	0	44	0	795869184	18	4565
2026-01-19 01:14:59.71	343.23	37.74	-29.4	-31.7	13.9	2.20e-06	0	44	0	799014912	18	4702
2026-01-19 01:15:00.71	342.91	37.91	-29.4	-31.8	13.8	4.50e-06	0	44	0	802160640	18	4740
2026-01-19 01:15:01.72	342.59	38.08	-29.4	-31.7	13.9	1.50e-06	0	44	0	805306368	18	4710
2026-01-19 01:15:02.72	342.26	38.25	-29.4	-31.8	13.8	2.20e-06	0	44	0	808452096	18	4725
2026-01-19 01:15:03.73	341.93	38.41	-29.5	-31.5	13.7	5.30e-06	0	44	0	810549248	19	4525
2026-01-19 01:15:04.72	341.60	38.58	-29.6	-31.8	13.5	9.10e-06	0	44	0	813694976	19	4625
2026-01-19 01:15:05.73	341.27	38.75	-29.6	-31.7	13.6	1.29e-05	0	44	0	816840704	19	4587
2026-01-19 01:15:06.72	340.93	38.91	-29.4	-31.7	13.8	1.50e-06	0	44	0	819986432	18	4701
2026-01-19 01:15:07.72	340.59	39.08	-29.3	-31.6	13.9	7.60e-06	0	44	0	823132160	18	4686
2026-01-19 01:15:08.73	340.24	39.24	-29.4	-31.8	13.8	5.30e-06	0	44	0	826277888	18	4730
2026-01-19 01:15:09.74	339.89	39.41	-29.3	-31.5	14.0	5.30e-06	0	44	0	829423616	18	4637
2026-01-19 01:15:10.74	339.54	39.58	-29.4	-31.8	13.8	6.10e-06	0	44	0	832569344	18	4725
2026-01-19 01:15:11.74	339.18	39.74	-29.3	-31.0	14.0	1.50e-06	0	44	0	835715072	19	4392
2026-01-19 01:15:12.75	338.82	39.90	-29.3	-31.4	14.0	7.00e-07	0	44	0	838860800	18	4618
2026-01-19 01:15:13.75	338.46	40.07	-29.5	-31.9	13.8	4.50e-06	0	44	0	842006528	18	4786
2026-01-19 01:15:14.75	338.09	40.23	-29.4	-31.2	13.9	2.20e-06	0	44	0	845152256	19	4447
2026-01-19 01:15:15.76	337.72	40.39	-29.2	-31.3	14.1	1.50e-06	0	44	0	848297984	18	4576
2026-01-19 01:15:16.77	337.34	40.56	-29.3	-31.6	13.9	7.00e-07	0	44	0	851443712	18	4687
2026-01-19 01:15:17.77	336.96	40.72	-29.6	-31.8	13.5	6.10e-06	0	44	0	854589440	19	4625
2026-01-19 01:15:18.78	336.58	40.88	-29.7	-32.0	13.4	1.60e-05	0	44	0	857735168	19	4685
2026-01-19 01:15:19.78	336.19	41.04	-29.8	-32.3	13.1	2.36e-05	0	44	0	860880896	19	4795
2026-01-19 01:15:20.79	335.80	41.20	-29.9	-32.6	13.0	4.04e-05	0	44	0	864026624	19	4880
2026-01-19 01:15:21.79	335.41	41.35	-30.1	-32.6	12.6	6.25e-05	0	44	0	867172352	20	4773
2026-01-19 01:15:22.80	335.01	41.51	-30.4	-33.3	12.2	1.40e-04	0	44	0	870318080	20	5012
2026-01-19 01:15:23.80	334.61	41.67	-30.4	-33.4	12.2	2.42e-04	0	44	0	873463808	20	5050
2026-01-19 01:15:24.81	334.20	41.82	-30.5	-33.1	12.0	3.15e-04	0	44	0	876609536	21	4828
2026-01-19 01:15:25.82	333.78	41.98	-30.7	-33.6	11.7	5.69e-04	0	44	0	879755264	21	5011
2026-01-19 01:15:26.82	333.37	42.13	-30.6	-33.3	11.9	4.42e-04	0	44	0	882900992	21	4893
2026-01-19 01:15:27.82	332.96	42.28	-30.5	-33.1	12.0	3.02e-04	0	44	0	886046720	21	4837
2026-01-19 01:15:28.82	332.53	42.43	-30.7	-33.5	11.8	3.62e-04	0	44	0	889192448	21	4990
2026-01-19 01:15:29.82	332.11	42.58	-30.7	-33.5	11.7	4.81e-04	0	44	0	892338176	21	4962
2026-01-19 01:15:30.82	331.68	42.73	-31.0	-34.3	11.3	9.36e-04	0	44	0	895483904	21	5297
2026-01-19 01:15:31.83	331.25	42.88	-30.7	-33.1	11.6	8.96e-04	0	44	0	898629632	22	4734
2026-01-19 01:15:32.84	330.80	43.03	-30.4	-32.2	12.2	2.34e-04	0	44	0	901775360	22	4439
2026-01-19 01:15:33.84	330.36	43.17	-30.0	-32.3	12.9	6.79e-05	0	44	0	904921088	20	4666
2026-01-19 01:15:34.84	329.92	43.31	-29.9	-31.9	13.1	3.43e-05	0	44	0	908066816	20	4545
2026-01-19 01:15:35.84	329.47	43.45	-29.9	-32.0	13.1	3.28e-05	0	44	0	911212544	20	4570
2026-01-19 01:15:36.85	329.01	43.59	-30.1	-32.6	12.7	6.25e-05	0	44	0	914358272	20	4772
2026-01-19 01:15:37.85	328.56	43.73	-30.4	-33.4	12.2	1.80e-04	0	44	0	917504000	20	5048
2026-01-19 01:15:38.86	328.09	43.87	-30.6	-33.2	11.9	3.71e-04	0	44	0	920649728	21	4872
2026-01-19 01:15:39.86	327.63	44.01	-30.7	-33.5	11.7	6.86e-04	0	44	0	923795456	21	4987
2026-01-19 01:15:40.86	327.16	44.14	-30.8	-33.9	11.5	7.47e-04	0	44	0	926941184	21	5132
2026-01-19 01:15:41.87	326.68	44.27	-30.0	-33.3	11.3	1.06e-03	0	44	0	930086912	21	5250
2026-01-19 01:15:42.87	326.21	44.40	-30.8	-34.0	10.7	9.76e-04	0	44	0	933232640	21	5150
2026-01-19 01:15:43.87	325.73	44.53	-30.7	-33.5	11.8	5.19e-04	0	44	0	936378368	21	4967
2026-01-19 01:15:44.88	325.24	44.66	-30.7	-33.6	11.5	9.52e-04	0	44	0	939524096	21	5020
2026-01-19 01:15:45.88	324.75	44.78	-30.9	-34.0	11.3	7.99e-04	0	44	0	942669824	21	5162
2026-01-19 01:15:46.88	324.26	44.91	-30.5	-33.0	12.0	4.77e-04	0	44	0	945815552	21	4816
2026-01-19 01:15:47.89	323.76	45.03	-30.2	-32.8	12.5	1.53e-04	0	44	0	948961280	20	4842
2026-01-19 01:15:48.88	323.26	45.14	-30.0	-32.6	13.0	6.02e-05	0	44	0	952107008	19	4885
2026-01-19 01:15:49.89	322.75	45.26	-30.1	-32.6	12.7	7.40e-05	0	44	0	955252736	20	4774
2026-01-19 01:15:50.89	322.25	45.38	-30.2	-32.7	12.6	8.31e-05	0	44	0	958398464	20	4807
2026-01-19 01:15:51.89	321.74	45.49	-30.5	-33.4	12.1	3.38e-03	0	44	0	961544192	20	5043
2026-01-19 01:15:52.89	321.22	45.60	-30.5	-33.2	11.9	2.79e-04	0	44	0	964689920	21	4866
2026-01-19 01:15:53.89	320.70	45.70	-30.7	-33.6	11.6	5.19e-04	0	44	0	967835648	21	5026
2026-01-19 01:15:54.90	320.18	45.81	-30.9	-34.1	11.3	4.92e-03	0	44	0	970981376	21	5213
2026-01-19 01:15:55.89	319.66	45.91	-30.8	-33.8	11.5	1.08e-03	0	44	0	974127104	21	5103
2026-01-19 01:15:56.89	319.13	46.01	-31.2	-34.5	10.8	1.79e-03	0	44	0	977272832	22	5229
2026-01-19 01:15:57.89	318.60	46.11	-30.8	-33.9	11.4	1.41e-03	0	44	0	980418560	21	5129
2026-01-19 01:15:58.89	318.06	46.21	-30.5	-33.1	12.0	4.21e-04	0	44	0	983564288	21	4834
2026-01-19 01:15:59.89	317.53	46.30	-30.3	-32.5	12.4	6.59e-04	0	44	0	986710016	21	4647
2026-01-19 01:16:00.89	316.98	46.39	-29.8	-31.6	13.2	5.87e-04	0	44	0	989855744	20	4474
2026-01-19 01:16:01.89	316.44	46.48	-29.6	-31.7	13.6	9.84e-05	0	44	0	993001472	19	4576
2026-01-19 01:16:02.90	315.89	46.56	-29.9	-32.6	13.0	2.21e-05	0	44	0	996147200	19	4877
2026-01-19 01:16:03.89	315.34	46.64	-29.7	-32.1	13.2	3.66e-05	0	44	0	999292928	19	4712
2026-01-19 01:16:04.90	314.78	46.72	-29.5	-31.4	13.7	2.12e-04	0	44	0	1002438656	19	4502
2026-01-19 01:16:05.90	314.23	46.80	-29.6	-31.8	13.5	2.74e-03	0	44	0	1005584384	19	4619
2026-01-19 01:16:06.90	313.67	46.87	-29.6	-31.6	13.6	2.69e-03	0	44	0	1008730112	19	4566
2026-01-19 01:16:07.91	313.10	46.95	-29.6	-31.8	13.5	3.46e-04	0	44	0	1011875840	19	4619
2026-01-19 01:16:08.90	312.54	47.01	-29.7	-32.1	13.3	1.52e-05	0	44	0	1015021568	19	4722
2026-01-19 01:16:09.91	311.97	47.08	-29.4	-31.7	13.8	2.70e-03	0	44	0	1018167296	18	4703
2026-01-19 01:16:10.90	311.41	47.14	-29.4	-31.7	13.8	2.60e-04	0	44	0	1021313024	18	4694
2026-01-19 01:16:11.90	310.84	47.20	-29.6	-31.7	13.6	2.96e-03	0	44	0	1024458752	19	4591
2026-01-19 01:16:12.91	310.26	47.25	-30.0	-32.3	12.9	2.08e-03	0	44	0	1027604480	20	4687
2026-01-19 01:16:13.91	309.68	47.31	-29.8	-31.9	13.1	3.19e-04	0	44	0	1030750208	20	4557
2026-01-19 01:16:14.91	309.11	47.36	-29.8	-32.1	13.3	1.39e-03	0	44	0	1033895936	19	4735
2026-01-19 01:16:15.91	308.53	47.40	-29.6	-31.8	13.5	1.25e-03	0	44	0	1037041664	19	4640
2026-01-19 01:16:16.91	307.95	47.45	-29.9	-32.5	13.1	2.82e-05	0	44	0	1040187392	19	4860
2026-01-19 01:16:17.92	307.36	47.49	-29.8	-32.3	13.1	2.31e-03	0	44	0	1043333120	19	4799
2026-01-19 01:16:18.92	306.78	47.52	-29.8	-32.4	13.1	2.21e-05	0	44	0	1046478848	19	4804
2026-01-19 01:16:19.93	306.19	47.56	-30.0	-32.6	13.0	2.74e-05	0	44	0	1049624576	19	4891
2026-01-19 01:16:20.93	305.60	47.59	-29.8	-32.3	13.1	3.29e-04	0	44	0	1052770304	19	4786
2026-01-19 01:16:21.93	305.01	47.62	-29.8	-32.2	13.2	6.25e-05	0	44	0	1055916032	19	4773
2026-01-19 01:16:22.93	304.43	47.64	-29.8	-32.2	13.2	2.21e-05	0	44	0	1059061760	19	4772
2026-01-19 01:16:23.94	303.83	47.66	-29.7	-32.0	13.3	1.44e-05	0	44	0	1061158912	19	4690
2026-01-19 01:16:24.94	303.24	47.68	-30.0	-32.7	12.9	2.82e-05	0	44	0	1065353216	19	4933
2026-01-19 01:16:25.94	302.65	47.69	-29.7	-31.5	13.2	2.51e-05	0	44	0	1068498944	20	4454
2026-01-19 01:16:26.95	302.05	47.70	-29.6	-31.8	13.4	8.09e-04	0	44	0	1071644672	19	4630
2026-01-19 01:16:27.95	301.46	47.71	-29.8	-32.2	13.2	8.09e-04	0	44	0	1074790400	19	4762
2026-01-19 01:16:28.95	300.87	47.72	-30.0	-32.3	12.8	4.65e-05	0	44	0	1077936128	20	4685
2026-01-19 01:16:29.95	300.28	47.72	-30.2	-32.8	12.5	1.07e-04	0	44	0	1081081856	20	4854
2026-01-19 01:16:30.96	299.68	47.71	-30.1	-32.6	12.6	1.87e-04	0	44	0	1084227584	20	4789
2026-01-19 01:16:31.96	299.09	47.71	-30.2	-32.8	12.4	1.17e-04	0	44	0	1086324736	20	4868
2026-01-19 01:16:32.96	298.50	47.70	-30.0	-32.2	12.8	1.08e-04	0	44	0	1089470464	20	4640
2026-01-19 01:16:33.97	297.90	47.69	-30.1	-32.5	12.6	7.78e-05	0	44	0	1092616192	20	4761
2026-01-19 01:16:34.97	297.31	47.67	-30.2	-32.9	12.4	1.43e-04	0	44	0	1095761920	20	4899
2026-01-19 01:16:35.97	296.72	47.65	-30.3	-33.1	12.3	1.98e-04	0	44	0	1098907648	20	4967
2026-01-19 01:16:36.97	296.13	47.63	-30.2	-32.9	12.4	1.46e-03	0	44	0	1102053376	20	4899
2026-01-19 01:16:37.98	295.54	47.60	-30.2	-32.7	12.5	1.05e-04	0	44	0	1105199104	20	4822
2026-01-19 01:16:38.99	294.95	47.57	-29.9	-32.0	12.9	6.94e-05	0	44	0	1108344832	20	4605
2026-01-19 01:16:39.99	294.36	47.54	-29.9	-32.6	13.0	3.05e-05	0	44	0	1111490560	19	4873
2026-01-19 01:16:40.99	293.78	47.50	-29.8	-32.3	13.1	1.60e-05	0	44	0	1114636288	19	4799
2026-01-19 01:16:41.99	293.19	47.47	-29.7	-31.9	13.3	1.01e-03	0	44	0	1117782016	19	4669
2026-01-19 01:16:42.99	292.61	47.42	-29.7	-32.1	13.3	2.00e-04	0	44	0	1120927744	19	4719
2026-01-19 01:16:43.99	292.03	47.38	-29.9	-32.4	13.0	2.13e-05	0	44	0	1124073472	19	4836
2026-01-19 01:16:45.00	291.45	47.33	-29.8	-32.3	13.2	2.13e-05	0	44	0	1127219200	19	4800
2026-01-19 01:16:46.00	290.87	47.28	-29.8	-32.2	13.2	2.44e-05	0	44	0	1130364928	19	4760
2026-01-19 01:16:47.01	290.29	47.22	-29.9	-32.5	13.0	3.43e-05	0	44	0	1133510656	19	4865
2026-01-19 01:16:48.01	289.72	47.16	-29.6	-31.8	13.4	9.90e-06	0	44	0	1136656384	19	4635
2026-01-19 01:16:49.01	289.15	47.10	-29.7	-32.0	13.3	1.22e-05	0	44	0	1139802112	19	4695
2026-01-19 01:16:50.00	288.59	47.04	-30.0	-32.3	12.8	3.96e-05	0	44	0	1142947840	20	4698
2026-01-19 01:16:51.01	288.02	46.97	-30.2	-32.7	12.5	9.30e-05	0	44	0	1146093568	20	4830
2026-01-19 01:16:52.01	287.45	46.90	-30.5	-33.0	11.9	2.96e-04	0	44	0	1149239296	21	4841
2026-01-19 01:16:53.01	286.89	46.83	-30.2	-32.5	12.3	1.98e-04	0	44	0	1152385024	21	4642
2026-01-19 01:16:54.02	286.33	46.76	-30.0	-32.4	12.7	1.06e-04	0	44	0	1155530752	20	4722
2026-01-19 01:16:55.02	285.77	46.68	-29.9	-32.0	12.9	4.04e-05	0	44	0	1158676480	20	4604
2026-01-19 01:16:56.02	285.22	46.60	-30.0	-32.3	12.7	6.10e-05	0	44	0	1161822208	20	4706
2026-01-19 01:16:57.03	284.67	46.51	-30.1	-32.4	12.7	7.32e-05	0	44	0	1164967936	20	4738
2026-01-19 01:16:58.04	284.12	46.42	-30.1	-32.4	12.6	9.46e-05	0	44	0	1168113664	20	4737
2026-01-19 01:16:59.04	283.57	46.33	-29.9	-32.0	13.0	5.95e-05	0	44	0	1171259392	20	4579
2026-01-19 01:17:00.04	283.03	46.24	-29.8	-31.8	13.1	3.05e-05	0	44	0	1174405120	20	4535
2026-01-19 01:17:01.04	282.50	46.15	-29.9	-32.0	12.9	4.11e-05	0	44	0	1177550848	20	4591
2026-01-19 01:17:02.04	281.96	46.05	-29.5	-31.2	13.4	1.22e-05	0	44	0	1180696576	20	4340
2026-01-19 01:17:03.05	281.43	45.95	-29.8	-32.4	13.1	2.44e-05	0	44	0	1183842304	19	4811
2026-01-19 01:17:04.05	280.90	45.85	-30.3	-33.0	12.3	1.69e-04	0	44	0	1186988032	20	4934
2026-01-19 01:17:05.05	280.38	45.74	-30.6	-33.2	11.9	3.82e-04	0	44	0	1190133760	21	4895
2026-01-19 01:17:06.06	279.85	45.64	-30.5	-33.0	12.0	3.20e-04	0	44	0	1193279488	21	4819
2026-01-19 01:17:07.06	279.33	45.53	-30.3	-33.0	12.3	2.02e-04	0	44	0	1196425216	20	4926
2026-01-19 01:17:08.06	278.82	45.42	-30.0	-32.4	12.7	7.62e-05	0	44	0	1199570944	20	4746
2026-01-19 01:17:09.07	278.31	45.30	-30.1	-32.7	12.5	1.17e-04	0	44	0	1202716672	20	4815
2026-01-19 01:17:10.07	277.80	45.19	-30.2	-32.8	12.5	1.40e-04	0	44	0	1205862400	20	4855
2026-01-19 01:17:11.07	277.30	45.07	-30.6	-33.4	11.8	3.35e-04	0	44	0	1209008128	21	4951
2026-01-19 01:17:12.07	276.80	44.95	-30.7	-33.8	11.5	8.28e-04	0	45	0	1212153856	21	5114
2026-01-19 01:17:13.08	276.30	44.82	-30.7	-33.7	11.5	1.03e-03	0	45	0	1215299584	21	5066
2026-01-19 01:17:14.08	275.81	44.70	-30.0	-31.8	12.7	1.17e-04	0	44	0	1218445312	21	4447
2026-01-19 01:17:15.09	275.32	44.57	-29.3	-30.7	13.7	9.90e-06	0	44	0	1221591040	20	4210
2026-01-19 01:17:16.10	274.83	44.44	-29.2	-31.3	14.0	5.30e-06	0	44	0	1224736768	18	4583
2026-01-19 01:17:17.09	274.36	44.32	-29.4	-31.8	13.7	3.80e-06	0	44	0	1227882496	18	4760
2026-01-19 01:17:18.10	273.88	44.18	-30.0	-32.3	12.7	3.96e-05	0	44	0	1231028224	20	4693
2026-01-19 01:17:19.10	273.41	44.05	-29.9	-32.1	12.9	6.86e-05	0	44	0	1234173952	20	4614
2026-01-19 01:17:20.10	272.94	43.91	-29.3	-30.6	13.7	1.22e-05	0	44	0	1237319680	20	4189
2026-01-19 01:17:21.10	272.48	43.78	-28.7	-30.2	14.6	7.00e-07	0	44	0	1240465408	18	4258
2026-01-19 01:17:22.11	272.01	43.64	-28.4	-29.8	15.1	0.00e+00	0	44	0	1243611136	17	4267
2026-01-19 01:17:23.11	271.56	43.50	-28.5	-30.2	14.9	0.00e+00	0	44	0	1246756864	17	4358
2026-01-19 01:17:24.12	271.10	43.36	-28.7	-30.6	14.6	0.00e+00	0	44	0	1249902592	17	4495
2026-01-19 01:17:25.12	270.66	43.21	-29.9	-32.7	12.9	1.90e-05	0	44	0	1253048320	19	4925
2026-01-19 01:17:26.12	270.21	43.07	-30.9	-34.1	11.2	7.78e-04	0	44	0	1256194048	21	5242
2026-01-19 01:17:27.12	269.77	42.92	-30.8	-33.4	11.3	1.65e-03	0	44	0	1259339776	22	4859
2026-01-19 01:17:28.13	269.34	42.78	-29.8	-31.4	12.8	3.15e-04	0	44	0	1262485504	21	4310
2026-01-19 01:17:29.13	268.90	42.63	-29.0	-30.4	14.1	7.60e-06	0	44	0	1265631232	19	4210
2026-01-19 01:17:30.13	268.48	42.48	-28.5	-29.7	14.8	0.00e+00	0	44	0	1268776960	18	4136
2026-01-19 01:17:31.13	268.05	42.33	-28.6	-30.5	14.6	0.00e+00	0	44	0	1271922688	17	4466
2026-01-19 01:17:32.13	267.63	42.18	-28.7	-30.8	14.5	0.00e+00	0	44	0	1275068416	17	4540
2026-01-19 01:17:33.13	267.22	42.02	-29.5	-32.0	13.5	3.80e-06	0	44	0	1278214144	18	4806
2026-01-19 01:17:34.13	266.81	41.87	-30.0	-32.3	12.6	5.11e-05	0	44	0	1281359872	20	4708
2026-01-19 01:17:35.12	266.41	41.72	-30.6	-33.3	11.7	4.12e-04	0	44	0	1284505600	21	4938
2026-01-19 01:17:36.12	266.00	41.56	-29.9	-31.5	12.8	1.60e-04	0	44	0	1287651328	21	4347
2026-01-19 01:17:37.13	265.60	41.40	-28.8	-30.0	14.3	7.60e-06	0	44	0	1290797056	19	4100
2026-01-19 01:17:38.13	265.20	41.25	-28.2	-29.4	15.2	0.00e+00	0	44	0	1293942784	17	4155
2026-01-19 01:17:39.13	264.81	41.09	-28.3	-30.2	15.1	0.00e+00	0	44	0	1297088512	16	4493
2026-01-19 01:17:40.14	264.42	40.93	-29.0	-31.3	14.2	7.00e-07	0	44	0	1300234240	17	4720
2026-01-19 01:17:41.14	264.03	40.77	-30.1	-32.6	12.4	4.04e-05	0	44	0	1303379968	20	4814
2026-01-19 01:17:42.14	263.65	40.61	-30.5	-33.6	11.8	3.85e-04	0	44	0	1306525696	20	5166
2026-01-19 01:17:43.14	263.28	40.44	-30.6	-33.3	11.6	7.65e-04	0	44	0	1309671424	21	4942
2026-01-19 01:17:44.14	262.91	40.28	-29.8	-31.8	12.9	3.89e-03	0	44	0	1312817152	20	4535
2026-01-19 01:17:45.15	262.53	40.12	-28.9	-30.7	14.3	3.45e-03	0	44	0	1315962880	18	4413
2026-01-19 01:17:46.16	262.16	39.95	-28.1	-29.3	15.3	7.00e-07	0	44	0	1319108608	17	4123
2026-01-19 01:17:47.16	261.80	39.79	-27.9	-29.3	15.6	0.00e+00	0	44	0	1322254336	16	4239
2026-01-19 01:17:48.17	261.44	39.62	-28.3	-30.3	15.0	0.00e+00	0	44	0	1325400064	16	4509
2026-01-19 01:17:49.18	261.08	39.46	-29.0	-31.3	14.1	7.00e-07	0	44	0	1328545792	17	4723
2026-01-19 01:17:50.17	260.74	39.29	-30.3	-33.0	12.0	3.83e-03	0	44	0	1331691520	20	4957
2026-01-19 01:17:51.18	260.39	39.13	-31.1	-34.3	10.6	1.88e-03	0	44	0	1334837248	22	5210
2026-01-19 01:17:52.18	260.04	38.96	-31.0	-33.9	10.9	3.29e-03	0	44	0	1337982976	22	5074
2026-01-19 01:17:53.19	259.70	38.79	-30.1	-32.6	12.3	5.33e-04	0	45	0	1340080128	20	4818
2026-01-19 01:17:54.19	259.36	38.62	-29.4	-31.9	13.3	2.79e-03	0	44	0	1344274432	18	4790
2026-01-19 01:17:55.20	259.03	38.46	-29.4	-31.3	13.5	1.29e-05	0	44	0	1347420160	19	4485
2026-01-19 01:17:56.19	258.70	38.29	-29.1	-31.2	13.9	3.38e-03	0	44	0	1350565888	18	4567
2026-01-19 01:17:57.19	258.37	38.12	-29.5	-32.0	13.5	6.80e-06	0	44	0	1352663040	18	4809
2026-01-19 01:17:58.19	258.05	37.95	-30.0	-32.3	12.6	7.09e-05	0	44	0	1355808768	20	4694
2026-01-19 01:17:59.19	257.73	37.79	-30.4	-33.4	11.9	4.53e-03	0	44	0	1360003072	20	5087
2026-01-19 01:18:00.19	257.41	37.62	-30.8	-34.1	11.1	5.70e-03	0	44	0	1362100224	21	5241
2026-01-19 01:18:01.20	257.10	37.45	-30.9	-34.2	11.0	2.08e-03	0	44	0	1365245952	21	5288
2026-01-19 01:18:02.20	256.79	37.28	-30.7	-33.7	11.4	5.76e-03	0	45	0	1368391680	21	5091
2026-01-19 01:18:03.21	256.48	37.11	-29.9	-32.1	12.7	3.97e-03	0	44	0	1371537408	20	4640
2026-01-19 01:18:04.21	256.18	36.94	-29.3	-31.2	13.6	1.60e-05	0	44	0	1374683136	19	4458
2026-01-19 01:18:05.22	255.87	36.77	-28.9	-30.6	14.3	3.53e-03	0	44	0	1377828864	18	4386
2026-01-19 01:18:06.22	255.58	36.60	-28.8	-30.9	14.4	3.97e-03	0	44	0	1380974592	17	4577
2026-01-19 01:18:07.23	255.28	36.43	-29.0	-31.4	14.1	2.20e-06	0	44	0	1384120320	17	4732
2026-01-19 01:18:08.23	254.99	36.26	-29.3	-31.5	13.7	3.85e-03	0	45	0	1387266048	18	4676
2026-01-19 01:18:09.22	254.70	36.10	-29.6	-31.9	13.2	3.88e-03	0	44	0	1390411776	19	4683
2026-01-19 01:18:10.23	254.41	35.92	-29.6	-31.9	13.2	2.89e-05	0	44	0	1393557504	19	4669
2026-01-19 01:18:11.22	254.14	35.76	-29.6	-31.9	13.2	4.06e-03	0	44	0	1396703232	19	4679
2026-01-19 01:18:12.22	253.86	35.59	-29.4	-31.8	13.5	3.61e-03	0	45	0	1399848960	18	4774
2026-01-19 01:18:13.22	253.58	35.42	-29.3	-31.5	13.7	9.90e-06	0	45	0	1402994688	18	4665
2026-01-19 01:18:14.22	253.31	35.25	-28.8	-31.0	14.3	3.51e-03	0	44	0	1406140416	17	4623
2026-01-19 01:18:15.22	253.04	35.08	-28.6	-30.5	14.6	3.88e-03	0	44	0	1409286144	17	4476
2026-01-19 01:18:16.23	252.77	34.92	-28.6	-30.5	14.6	4.88e-05	0	44	0	1412431872	17	4493
2026-01-19 01:18:17.23	252.50	34.75	-28.8	-31.0	14.3	3.98e-03	0	44	0	1415577600	17	4624
2026-01-19 01:18:18.24	252.24	34.58	-28.8	-30.9	14.3	1.05e-04	0	45	0	1418723328	17	4612
2026-01-19 01:18:19.24	251.98	34.41	-28.9	-31.1	14.2	2.53e-04	0	44	0	1421869056	17	4667
2026-01-19 01:18:20.25	251.72	34.24	-28.8	-30.9	14.3	4.00e-03	0	44	0	1425014784	17	4599
2026-01-19 01:18:21.25	251.46	34.08	-28.7	-30.6	14.5	3.78e-03	0	44	0	1428160512	17	4508
2026-01-19 01:18:22.25	251.21	33.91	-28.6	-30.5	14.6	1.74e-04	0	44	0	1431306240	17	4460
2026-01-19 01:18:23.25	250.96	33.74	-28.6	-30.5	14.5	1.50e-06	0	44	0	1434451968	17	4461
2026-01-19 01:18:24.25	250.72	33.58	-28.5	-30.2	14.7	0.00e+00	0	44	0	1437597696	17	4383
2026-01-19 01:18:25.26	250.47	33.41	-28.1	-29.2	15.2	0.00e+00	0	44	0	1440743424	17	4114
2026-01-19 01:18:26.26	250.23	33.24	-28.0	-29.5	15.4	3.83e-03	0	44	0	1443889152	16	4294
2026-01-19 01:18:27.26	249.99	33.08	-27.9	-29.9	15.3	0.00e+00	0	44	0	1447034880	15	4521
2026-01-19 01:18:28.26	249.75	32.91	-27.8	-29.8	15.3	0.00e+00	0	44	0	1450180608	15	4496
2026-01-19 01:18:29.27	249.52	32.75	-28.3	-30.3	14.9	1.61e-04	0	44	0	1453326336	16	4529
2026-01-19 01:18:30.27	249.28	32.58	-28.5	-30.4	14.5	1.45e-04	0	44	0	1456472064	17	4449
2026-01-19 01:18:31.28	249.05	32.42	-28.9	-31.2	14.1	1.01e-04	0	44	0	1459617792	17	4704
2026-01-19 01:18:32.28	248.83	32.26	-29.2	-31.4	13.7	3.05e-05	0	44	0	1462763520	18	4646
2026-01-19 01:18:33.28	248.60	32.09	-28.8	-31.0	14.1	2.20e-06	0	44	0	1465909248	17	4652
2026-01-19 01:18:34.28	248.38	31.93	-28.5	-30.3	14.6	1.50e-06	0	44	0	1469054976	17	4432
2026-01-19 01:18:35.29	248.16	31.77	-28.3	-30.3	14.9	0.00e+00	0	44	0	1472200704	16	4523
2026-01-19 01:18:36.29	247.94	31.60	-28.2	-30.1	15.0	4.10e-03	0	44	0	1475346432	16	4478
2026-01-19 01:18:37.29	247.72	31.44	-28.2	-30.2	14.9	0.00e+00	0	44	0	1478492160	16	4495
2026-01-19 01:18:38.29	247.51	31.28	-28.3	-30.2	14.9	0.00e+00	0	44	0	1481637888	16	4519
2026-01-19 01:18:39.30	247.30	31.12	-28.0	-29.7	15.2	0.00e+00	0	44	0	1484783616	16	4354
2026-01-19 01:18:40.30	247.09	30.96	-27.9	-30.0	15.1	0.00e+00	0	44	0	1487929344	15	4557
2026-01-19 01:18:41.30	246.88	30.80	-28.3	-30.2	14.9	7.00e-07	0	44	0	1491075072	16	4511
2026-01-19 01:18:42.30	246.67	30.64	-28.4	-30.5	14.7	8.30e-06	0	44	0	1494220800	16	4601
2026-01-19 01:18:43.30	246.47	30.48	-28.5	-30.2	14.6	0.00e+00	0	44	0	1497366528	17	4409
2026-01-19 01:18:44.29	246.27	30.33	-28.6	-30.5	14.4	0.00e+00	0	44	0	1500512256	17	4481
2026-01-19 01:18:45.30	246.07	30.17	-28.9	-31.2	14.0	6.80e-06	0	44	0	1503657984	17	4699
2026-01-19 01:18:46.30	245.87	30.01	-29.0	-31.0	13.8	5.30e-06	0	44	0	1506803712	18	4518
2026-01-19 01:18:47.30	245.68	29.85	-28.4	-30.1	14.6	0.00e+00	0	44	0	1509949440	17	4361
2026-01-19 01:18:48.30	245.48	29.70	-28.0	-29.6	15.2	0.00e+00	0	44	0	1513095168	16	4347
2026-01-19 01:18:49.30	245.29	29.54	-27.6	-29.2	15.5	0.00e+00	0	44	0	1516240896	15	4346
2026-01-19 01:18:50.30	245.10	29.39	-27.5	-29.6	15.6	0.00e+00	0	44	0	1519386624	14	4563
2026-01-19 01:18:51.31	244.91	29.23	-27.7	-29.6	15.3	6.10e-06	0	44	0	1522532352	15	4463
2026-01-19 01:18:52.32	244.72	29.07	-27.7	-29.6	15.3	0.00e+00	0	44	0	1525678080	15	4457
2026-01-19 01:18:53.32	244.54	28.92	-27.8	-29.8	15.2	2.20e-06	0	44	0	1528823808	15	4508
2026-01-19 01:18:54.32	244.36	28.77	-27.8	-29.7	15.2	4.27e-05	0	44	0	1531969536	15	4487
2026-01-19 01:18:55.33	244.17	28.61	-27.7	-29.5	15.3	0.00e+00	0	44	0	1535115264	15	4431
2026-01-19 01:18:56.33	244.00	28.46	-27.7	-29.5	15.3	0.00e+00	0	44	0	1538260992	15	4426
2026-01-19 01:18:57.34	243.82	28.31	-27.6	-29.3	15.5	8.30e-06	0	44	0	1541406720	15	4368
2026-01-19 01:18:58.34	243.64	28.15	-27.7	-29.5	15.3	0.00e+00	0	44	0	1544552448	15	4425
2026-01-19 01:18:59.35	243.47	28.00	-27.5	-29.0	15.6	0.00e+00	0	44	0	1547698176	15	4285
2026-01-19 01:19:00.35	243.29	27.85	-27.2	-28.8	16.0	4.11e-04	0	44	0	1550843904	14	4342
2026-01-19 01:19:01.36	243.12	27.70	-27.1	-28.6	16.1	0.00e+00	0	44	0	1553989632	14	4296
2026-01-19 01:19:02.36	242.95	27.55	-27.0	-28.5	16.1	0.00e+00	0	45	0	1557135360	14	4261
2026-01-19 01:19:03.36	242.78	27.40	-27.2	-28.8	16.0	0.00e+00	0	44	0	1560281088	14	4328
2026-01-19 01:19:04.36	242.62	27.26	-27.3	-29.0	15.8	0.00e+00	0	44	0	1563426816	14	4401
2026-01-19 01:19:05.37	242.45	27.11	-27.4	-29.4	15.6	2.28e-04	0	44	0	1566572544	14	4517
2026-01-19 01:19:06.37	242.29	26.96	-27.8	-29.6	15.2	9.10e-06	0	44	0	1569718272	15	4475
2026-01-19 01:19:07.38	242.13	26.81	-27.8	-29.9	15.1	0.00e+00	0	44	0	1572864000	15	4543
2026-01-19 01:19:08.38	241.97	26.67	-27.9	-30.1	15.0	0.00e+00	0	44	0	1576009728	15	4610
2026-01-19 01:19:09.39	241.81	26.52	-27.8	-29.6	15.2	0.00e+00	0	44	0	1579155456	15	4476
2026-01-19 01:19:10.40	241.65	26.37	-27.5	-29.2	15.5	0.00e+00	0	44	0	1582301184	15	4333
2026-01-19 01:19:11.40	241.49	26.23	-27.5	-29.5	15.6	0.00e+00	0	44	0	1585446912	14	4544
2026-01-19 01:19:12.41	241.34	26.08	-27.3	-29.2	15.7	0.00e+00	0	44	0	1588592640	14	4452
2026-01-19 01:19:13.41	241.19	25.94	-27.1	-28.6	16.0	0.00e+00	0	44	0	1591738368	14	4303
2026-01-19 01:19:14.42	241.03	25.80	-26.9	-28.7	16.2	0.00e+00	0	44	0	1594884096	13	4441
2026-01-19 01:19:15.42	240.88	25.65	-26.9	-28.6	16.3	0.00e+00	0	44	0	1598029824	13	4405
2026-01-19 01:19:16.42	240.73	25.51	-26.8	-28.6	16.3	0.00e+00	0	44	0	1601175552	13	4405
2026-01-19 01:19:17.42	240.59	25.37	-26.8	-28.4	16.4	0.00e+00	0	44	0	1604321280	13	4354
2026-01-19 01:19:18.42	240.44	25.23	-26.8	-28.5	16.3	0.00e+00	0	44	0	1607467008	13	4361
2026-01-19 01:19:19.43	240.30	25.09	-26.8	-28.6	16.3	0.00e+00	0	44	0	1610612736	13	4397
2026-01-19 01:19:20.42	240.15	24.95	-26.8	-28.5	16.3	0.00e+00	0	44	0	1613758464	13	4364
2026-01-19 01:19:21.42	240.01	24.81	-26.8	-28.6	16.2	0.00e+00	0	44	0	1615855616	13	4399
2026-01-19 01:19:22.43	239.87	24.67	-27.0	-28.9	16.1	0.00e+00	0	44	0	1619001344	13	4481
2026-01-19 01:19:23.43	239.73	24.53	-27.1	-28.7	16.0	0.00e+00	0	44	0	1622147072	14	4318
2026-01-19 01:19:24.43	239.59	24.40	-27.2	-28.9	15.8	0.00e+00	0	44	0	1625292800	14	4371
2026-01-19 01:19:25.44	239.45	24.26	-27.3	-29.0	15.7	0.00e+00	0	44	0	1628438528	14	4419
2026-01-19 01:19:26.45	239.32	24.12	-27.4	-29.4	15.5	0.00e+00	0	44	0	1632632832	14	4535
2026-01-19 01:19:27.45	239.18	23.99	-27.5	-29.1	15.4	0.00e+00	0	44	0	1635778560	15	4316
2026-01-19 01:19:28.45	239.05	23.85	-27.3	-29.2	14.6	0.00e+00	0	44	0	1637875712	14	4456
2026-01-19 01:19:29.45	238.92	23.72	-27.3	-29.1	15.2	0.00e+00	0	44	0	1641021440	14	4437
2026-01-19 01:19:30.46	238.79	23.58	-27.3	-29.1	15.7	0.00e+00	0	44	0	1644167168	14	4450
2026-01-19 01:19:31.46	238.66	23.45	-27.4	-29.3	15.5	0.00e+00	0	44	0	1647312896	14	4497
2026-01-19 01:19:32.46	238.53	23.31	-27.4	-29.4	15.5	0.00e+00	0	44	0	1650458624	14	4522
2026-01-19 01:19:33.46	238.40	23.18	-27.6	-29.3	15.3	2.08e-04	0	44	0	1653604352	15	4365
2026-01-19 01:19:34.46	238.27	23.05	-27.6	-29.3	15.3	0.00e+00	0	44	0	1656750080	15	4392
2026-01-19 01:19:35.45	238.15	22.92	-27.6	-29.4	15.3	7.00e-07	0	44	0	1659895808	15	4398
2026-01-19 01:19:36.46	238.02	22.79	-27.5	-29.2	15.3	0.00e+00	0	44	0	1663041536	15	4350
2026-01-19 01:19:37.46	237.90	22.66	-27.7	-29.5	15.2	0.00e+00	0	44	0	1666187264	15	4447
2026-01-19 01:19:38.47	237.78	22.52	-27.7	-29.6	15.1	3.66e-03	0	45	0	1669332992	15	4459
2026-01-19 01:19:39.47	237.66	22.40	-27.6	-29.4	15.2	4.21e-04	0	44	0	1672478720	15	4402
2026-01-19 01:19:40.47	237.53	22.27	-27.6	-29.3	15.3	0.00e+00	0	44	0	1675624448	15	4383
2026-01-19 01:19:41.48	237.41	22.14	-27.5	-29.1	15.4	0.00e+00	0	44	0	1678770176	15	4316
2026-01-19 01:19:42.48	237.30	22.01	-27.4	-29.4	15.5	0.00e+00	0	44	0	1681915904	14	4514
2026-01-19 01:19:43.48	237.18	21.88	-27.5	-29.5	15.4	2.50e-03	0	44	0	1685061632	14	4558
2026-01-19 01:19:44.48	237.06	21.75	-27.4	-29.3	15.5	2.16e-03	0	44	0	1688207360	14	4484
2026-01-19 01:19:45.49	236.95	21.63	-27.2	-28.9	15.7	3.06e-04	0	44	0	1691353088	14	4398
2026-01-19 01:19:46.49	236.83	21.50	-27.3	-29.1	15.7	0.00e+00	0	44	0	1694498816	14	4428
2026-01-19 01:19:47.49	236.72	21.38	-27.3	-29.1	15.6	0.00e+00	0	44	0	1697644544	14	4443
2026-01-19 01:19:48.49	236.61	21.25	-27.1	-28.8	15.8	1.15e-04	0	44	0	1700790272	14	4340
2026-01-19 01:19:49.50	236.49	21.13	-27.1	-28.6	15.9	1.28e-03	0	44	0	1703936000	14	4300
2026-01-19 01:19:50.50	236.38	21.00	-27.1	-28.6	15.9	2.22e-03	0	44	0	1707081728	14	4296
2026-01-19 01:19:51.50	236.27	20.88	-27.0	-28.6	15.9	0.00e+00	0	44	0	1710227456	14	4289
2026-01-19 01:19:52.51	236.16	20.75	-27.0	-28.5	16.0	1.50e-06	0	44	0	1713373184	14	4263
2026-01-19 01:19:53.52	236.05	20.63	-26.9	-28.7	16.1	3.90e-03	0	44	0	1716518912	13	4443
2026-01-19 01:19:54.51	235.95	20.51	-26.8	-28.6	16.1	8.41e-04	0	44	0	1719664640	13	4412
2026-01-19 01:19:55.51	235.84	20.39	-26.7	-28.2	16.3	4.21e-03	0	44	0	1722810368	13	4310
2026-01-19 01:19:56.51	235.74	20.27	-26.7	-28.3	16.2	4.22e-03	0	44	0	1725956096	13	4336
2026-01-19 01:19:57.52	235.63	20.15	-26.8	-28.5	16.2	1.68e-03	0	44	0	1729101824	13	4370
2026-01-19 01:19:58.52	235.53	20.03	-26.8	-28.5	16.2	4.42e-03	0	44	0	1732247552	13	4397
2026-01-19 01:19:59.53	235.42	19.90	-26.9	-28.7	16.0	4.31e-03	0	44	0	1735393280	13	4443
2026-01-19 01:20:00.54	235.32	19.78	-27.0	-28.6	15.9	2.37e-03	0	44	0	1738539008	14	4287
2026-01-19 01:20:01.54	235.22	19.67	-27.2	-29.0	15.6	4.23e-03	0	44	0	1741684736	14	4410
2026-01-19 01:20:02.55	235.12	19.55	-27.3	-29.2	15.5	0.00e+00	0	44	0	1744830464	14	4461
2026-01-19 01:20:03.55	235.02	19.43	-27.4	-29.4	15.4	2.43e-03	0	44	0	1747976192	14	4517
2026-01-19 01:20:04.55	234.92	19.31	-27.5	-29.5	15.3	4.90e-03	0	44	0	1751121920	14	4560
2026-01-19 01:20:05.55	234.82	19.20	-27.7	-29.5	15.1	4.55e-03	0	44	0	1754267648	15	4433
2026-01-19 01:20:06.54	234.73	19.08	-27.7	-29.6	15.0	2.45e-03	0	44	0	1757413376	15	4472
2026-01-19 01:20:07.55	234.63	18.96	-27.3	-29.1	15.1	0.00e+00	0	44	0	1760559104	15	4417
2026-01-19 01:20:08.55	234.53	18.85	-27.5	-29.2	15.2	0.00e+00	0	44	0	1763704832	15	4343
2026-01-19 01:20:09.55	234.44	18.73	-27.6	-29.4	15.1	2.75e-03	0	44	0	1766850560	15	4414
2026-01-19 01:20:10.55	234.34	18.62	-27.6	-29.4	14.9	4.12e-03	0	44	0	1769996288	15	4415
2026-01-19 01:20:11.56	234.25	18.50	-27.6	-29.4	15.0	4.40e-03	0	44	0	1773142016	15	4410
2026-01-19 01:20:12.56	234.16	18.39	-27.6	-29.4	15.1	0.00e+00	0	44	0	1776287744	15	4410
2026-01-19 01:20:13.56	234.06	18.28	-27.5	-29.1	15.3	6.79e-05	0	44	0	1779433472	15	4323
2026-01-19 01:20:14.56	233.97	18.16	-27.5	-29.1	15.2	4.05e-03	0	44	0	1782579200	15	4333
2026-01-19 01:20:15.56	233.88	18.05	-27.5	-29.0	15.3	9.34e-04	0	44	0	1785724928	15	4317
2026-01-19 01:20:16.57	233.79	17.94	-27.6	-29.4	15.1	3.71e-03	0	44	0	1788870656	15	4422
2026-01-19 01:20:17.57	233.70	17.83	-27.8	-29.8	14.8	0.00e+00	0	44	0	1792016384	15	4549
2026-01-19 01:20:18.58	233.61	17.72	-27.7	-29.7	14.9	0.00e+00	0	44	0	1795162112	15	4504
2026-01-19 01:20:19.58	233.52	17.60	-27.6	-29.4	15.0	6.93e-04	0	44	0	1798307840	15	4410
2026-01-19 01:20:20.58	233.44	17.49	-27.5	-29.1	15.2	4.58e-04	0	44	0	1801453568	15	4331
2026-01-19 01:20:21.58	233.35	17.39	-27.6	-29.3	15.1	0.00e+00	0	44	0	1804599296	15	4381
2026-01-19 01:20:22.59	233.26	17.27	-27.6	-29.4	15.0	0.00e+00	0	44	0	1807745024	15	4422
2026-01-19 01:20:23.58	233.18	17.17	-27.7	-29.5	15.0	4.57e-05	0	44	0	1810890752	15	4447
2026-01-19 01:20:24.59	233.09	17.06	-27.6	-29.3	15.1	7.00e-07	0	44	0	1814036480	15	4396
2026-01-19 01:20:25.59	233.01	16.95	-27.6	-29.4	15.0	2.86e-03	0	44	0	1817182208	15	4410
2026-01-19 01:20:26.59	232.93	16.84	-27.7	-29.5	14.9	0.00e+00	0	44	0	1820327936	15	4454
2026-01-19 01:20:27.60	232.84	16.73	-27.7	-29.5	14.9	0.00e+00	0	44	0	1823473664	15	4458
2026-01-19 01:20:28.60	232.76	16.63	-27.8	-29.9	14.7	7.00e-07	0	44	0	1826619392	15	4575
2026-01-19 01:20:29.60	232.68	16.52	-27.8	-29.9	14.7	0.00e+00	0	44	0	1829765120	15	4570
2026-01-19 01:20:30.61	232.60	16.41	-27.9	-30.2	14.6	0.00e+00	0	44	0	1832910848	15	4654
2026-01-19 01:20:31.61	232.52	16.31	-28.1	-30.0	14.5	0.00e+00	0	44	0	1836056576	16	4486
2026-01-19 01:20:32.62	232.43	16.20	-28.0	-29.9	14.6	7.00e-07	0	44	0	1839202304	16	4443
2026-01-19 01:20:33.62	232.36	16.10	-28.2	-30.2	14.4	7.00e-07	0	44	0	1842348032	16	4555
2026-01-19 01:20:34.63	232.28	15.99	-28.2	-30.3	14.3	0.00e+00	0	44	0	1845493760	16	4587
2026-01-19 01:20:35.63	232.20	15.89	-28.2	-30.2	14.4	0.00e+00	0	44	0	1848639488	16	4553
2026-01-19 01:20:36.63	232.12	15.78	-28.3	-30.4	14.3	0.00e+00	0	44	0	1851785216	16	4599
2026-01-19 01:20:37.63	232.04	15.68	-28.4	-30.6	14.1	2.20e-06	0	44	0	1854930944	16	4665
2026-01-19 01:20:38.64	231.97	15.58	-28.3	-30.5	14.1	1.50e-06	0	44	0	1858076672	16	4647
2026-01-19 01:20:39.64	231.89	15.47	-28.4	-30.7	14.1	2.20e-06	0	44	0	1861222400	16	4685
2026-01-19 01:20:40.65	231.81	15.37	-28.4	-30.6	14.1	4.50e-06	0	44	0	1864368128	16	4680
2026-01-19 01:20:41.65	231.74	15.27	-28.4	-30.8	14.0	5.30e-06	0	44	0	1867513856	16	4719
2026-01-19 01:20:42.65	231.66	15.17	-28.4	-30.8	14.0	1.50e-06	0	44	0	1870659584	16	4721
2026-01-19 01:20:43.65	231.59	15.07	-28.5	-30.9	14.0	4.50e-06	0	44	0	1873805312	16	4747
2026-01-19 01:20:44.65	231.52	14.97	-28.5	-30.4	13.9	1.50e-06	0	44	0	1876951040	17	4508
2026-01-19 01:20:45.66	231.44	14.87	-28.3	-30.0	14.1	2.20e-06	0	44	0	1880096768	17	4390
2026-01-19 01:20:46.66	231.37	14.77	-28.3	-30.6	14.1	1.50e-06	0	44	0	1883242496	16	4672
2026-01-19 01:20:47.66	231.30	14.67	-28.3	-30.4	14.2	7.00e-07	0	44	0	1886388224	16	4605
2026-01-19 01:20:48.67	231.23	14.57	-28.4	-30.8	14.0	7.00e-07	0	44	0	1889533952	16	4730
2026-01-19 01:20:49.67	231.16	14.47	-28.3	-30.6	14.0	1.50e-06	0	44	0	1891631104	16	4675
2026-01-19 01:20:50.67	231.08	14.37	-28.3	-30.6	14.0	2.20e-06	0	44	0	1894776832	16	4676
2026-01-19 01:20:51.68	231.01	14.27	-28.3	-30.6	14.1	3.00e-06	0	44	0	1897922560	16	4664
2026-01-19 01:20:52.68	230.94	14.17	-28.4	-30.7	13.9	4.50e-06	0	44	0	1901068288	16	4715
2026-01-19 01:20:53.68	230.88	14.07	-28.4	-30.8	13.9	2.20e-06	0	44	0	1904214016	16	4732
2026-01-19 01:20:54.69	230.81	13.98	-28.3	-30.5	14.1	3.00e-06	0	45	0	1907359744	16	4636
2026-01-19 01:20:55.68	230.74	13.88	-28.4	-30.8	13.9	1.50e-06	0	44	0	1910505472	16	4723
2026-01-19 01:20:56.69	230.67	13.78	-28.4	-30.8	13.9	4.50e-06	0	44	0	1913651200	16	4736
2026-01-19 01:20:57.69	230.60	13.69	-28.4	-30.7	13.9	3.80e-06	0	44	0	1916796928	16	4722
2026-01-19 01:20:58.69	230.54	13.59	-28.5	-30.5	13.7	1.06e-05	0	44	0	1919942656	17	4543
2026-01-19 01:20:59.70	230.47	13.50	-28.8	-31.2	13.3	1.14e-05	0	44	0	1923088384	17	4762
2026-01-19 01:21:00.70	230.40	13.40	-28.7	-31.1	13.4	1.75e-05	0	44	0	1926234112	17	4728
2026-01-19 01:21:01.70	230.34	13.31	-28.5	-30.6	13.6	1.90e-05	0	44	0	1929379840	17	4572
2026-01-19 01:21:02.71	230.27	13.21	-28.4	-30.2	13.9	4.50e-06	0	44	0	1932525568	17	4447
2026-01-19 01:21:03.71	230.21	13.12	-28.3	-30.1	14.0	3.00e-06	0	44	0	1935671296	17	4404
2026-01-19 01:21:04.71	230.14	13.02	-28.3	-30.7	13.9	3.80e-06	0	44	0	1938817024	16	4702
2026-01-19 01:21:05.72	230.08	12.93	-28.3	-30.6	14.0	2.20e-06	0	44	0	1941962752	16	4665
2026-01-19 01:21:06.72	230.02	12.84	-28.3	-30.5	14.0	2.20e-06	0	44	0	1945108480	16	4649
2026-01-19 01:21:07.72	229.95	12.74	-28.4	-30.7	13.9	6.80e-06	0	44	0	1948254208	16	4717
2026-01-19 01:21:08.73	229.89	12.65	-28.3	-30.6	13.9	2.20e-06	0	44	0	1951399936	16	4688
2026-01-19 01:21:09.73	229.83	12.56	-28.4	-30.9	13.8	2.20e-06	0	44	0	1954545664	16	4769
2026-01-19 01:21:10.73	229.77	12.47	-28.4	-30.4	13.7	1.50e-06	0	44	0	1957691392	17	4509
2026-01-19 01:21:11.73	229.71	12.37	-28.4	-30.4	13.7	1.52e-05	0	44	0	1960837120	17	4508
2026-01-19 01:21:12.73	229.65	12.28	-28.5	-30.6	13.6	8.30e-06	0	44	0	1963982848	17	4575
2026-01-19 01:21:13.74	229.58	12.19	-28.5	-30.6	13.6	4.50e-06	0	44	0	1967128576	17	4579
2026-01-19 01:21:14.75	229.52	12.10	-28.6	-30.8	13.5	1.22e-05	0	44	0	1970274304	17	4622
2026-01-19 01:21:15.74	229.47	12.01	-28.6	-30.9	13.4	8.30e-06	0	44	0	1973420032	17	4661
2026-01-19 01:21:16.74	229.41	11.92	-28.7	-31.0	13.4	1.37e-05	0	44	0	1976565760	17	4684
2026-01-19 01:21:17.73	229.35	11.83	-28.8	-31.2	13.2	1.07e-04	0	44	0	1979711488	17	4776
2026-01-19 01:21:18.74	229.29	11.74	-28.7	-31.1	13.3	2.13e-05	0	44	0	1982857216	17	4728
2026-01-19 01:21:19.74	229.23	11.65	-28.9	-31.4	13.1	3.12e-05	0	44	0	1986002944	17	4837
2026-01-19 01:21:20.74	229.17	11.56	-28.8	-31.2	13.2	3.20e-05	0	44	0	1989148672	17	4774
2026-01-19 01:21:21.74	229.11	11.48	-29.1	-31.4	12.8	7.62e-05	0	44	0	1992294400	18	4728
2026-01-19 01:21:22.75	229.06	11.39	-29.0	-31.2	12.9	5.18e-05	0	44	0	1995440128	18	4641
2026-01-19 01:21:23.75	229.00	11.30	-29.0	-31.7	12.9	4.73e-05	0	44	0	1998585856	17	4936
2026-01-19 01:21:24.75	228.94	11.21	-29.1	-31.5	12.7	6.71e-05	0	44	0	2001731584	18	4752
2026-01-19 01:21:25.75	228.89	11.12	-28.1	-30.6	12.7	6.79e-05	0	44	0	2004877312	18	4762
2026-01-19 01:21:26.76	228.83	11.04	-29.0	-31.3	12.5	5.41e-05	0	44	0	2008023040	18	4691
2026-01-19 01:21:27.76	228.78	10.95	-29.0	-31.8	11.7	5.79e-05	0	44	0	2011168768	17	4973
2026-01-19 01:21:28.76	228.72	10.86	-29.0	-31.3	12.2	7.24e-05	0	44	0	2014314496	18	4693
2026-01-19 01:21:29.77	228.67	10.78	-29.2	-31.8	12.4	9.68e-05	0	44	0	2017460224	18	4878
2026-01-19 01:21:30.77	228.61	10.69	-29.1	-31.6	12.6	1.09e-04	0	44	0	2020605952	18	4782
2026-01-19 01:21:31.77	228.56	10.60	-29.0	-31.4	12.7	8.85e-05	0	44	0	2023751680	18	4731
2026-01-19 01:21:32.77	228.50	10.52	-29.1	-31.6	12.6	1.20e-04	0	44	0	2026897408	18	4792
2026-01-19 01:21:33.77	228.45	10.43	-29.1	-31.7	12.5	2.12e-03	0	44	0	2030043136	18	4816
2026-01-19 01:21:34.78	228.40	10.35	-29.2	-31.8	12.4	1.09e-04	0	44	0	2033188864	18	4859
2026-01-19 01:21:35.78	228.35	10.26	-29.1	-31.6	12.6	7.62e-05	0	44	0	2036334592	18	4789
2026-01-19 01:21:36.79	228.29	10.18	-29.1	-31.7	12.5	1.17e-04	0	44	0	2039480320	18	4814
2026-01-19 01:21:37.79	228.24	10.09	-29.2	-31.9	12.3	1.66e-04	0	44	0	2042626048	18	4911
2026-01-19 01:21:38.79	228.19	10.01	-29.1	-31.5	12.6	4.26e-04	0	44	0	2045771776	18	4762
2026-01-19 01:21:39.80	228.14	9.93	-29.4	-32.3	12.1	1.79e-03	0	44	0	2048917504	18	5028
2026-01-19 01:21:40.80	228.09	9.84	-29.2	-31.9	12.3	1.67e-04	0	44	0	2052063232	18	4907
2026-01-19 01:21:41.80	228.04	9.76	-29.3	-32.1	12.2	2.04e-04	0	44	0	2055208960	18	4967
2026-01-19 01:21:42.81	227.98	9.68	-29.2	-31.9	12.3	1.49e-03	0	44	0	2058354688	18	4893
2026-01-19 01:21:43.80	227.93	9.60	-29.2	-31.9	12.3	1.53e-03	0	44	0	2061500416	18	4907
2026-01-19 01:21:44.80	227.88	9.51	-29.2	-31.7	12.4	4.53e-04	0	44	0	2064646144	18	4841
2026-01-19 01:21:45.80	227.83	9.43	-29.3	-32.0	12.2	1.69e-03	0	44	0	2067791872	18	4943
2026-01-19 01:21:46.80	227.79	9.35	-29.2	-31.8	12.3	2.03e-04	0	44	0	2070937600	18	4883
2026-01-19 01:21:47.81	227.74	9.27	-29.2	-32.0	12.2	4.20e-04	0	44	0	2074083328	18	4930
2026-01-19 01:21:48.80	227.69	9.19	-29.2	-31.9	12.3	1.88e-03	0	44	0	2077229056	18	4892
2026-01-19 01:21:49.79	227.64	9.11	-29.1	-31.6	12.4	1.76e-03	0	44	0	2080374784	18	4800
2026-01-19 01:21:50.80	227.59	9.02	-29.1	-31.6	12.4	3.97e-04	0	44	0	2083520512	18	4813
2026-01-19 01:21:51.80	227.54	8.94	-29.1	-31.7	12.4	1.60e-04	0	44	0	2086666240	18	4829
2026-01-19 01:21:52.80	227.50	8.86	-29.1	-31.7	12.4	1.99e-03	0	44	0	2089811968	18	4825
2026-01-19 01:21:53.80	227.45	8.78	-29.2	-31.8	12.3	3.98e-04	0	44	0	2092957696	18	4878
2026-01-19 01:21:54.81	227.40	8.70	-29.1	-31.7	12.3	2.03e-03	0	44	0	2096103424	18	4850
2026-01-19 01:21:55.81	227.35	8.62	-29.3	-32.1	12.1	2.20e-03	0	44	0	2099249152	18	4970
2026-01-19 01:21:56.81	227.31	8.54	-29.2	-31.8	12.3	2.64e-04	0	44	0	2102394880	18	4863
2026-01-19 01:21:57.81	227.26	8.47	-29.0	-31.5	12.4	2.10e-03	0	44	0	2105540608	18	4771
2026-01-19 01:21:58.81	227.22	8.39	-29.2	-31.9	12.2	2.16e-03	0	44	0	2108686336	18	4899
2026-01-19 01:21:59.81	227.17	8.31	-29.3	-32.2	12.0	5.18e-04	0	44	0	2111832064	18	5004
2026-01-19 01:22:00.81	227.12	8.23	-29.2	-32.0	12.1	2.19e-03	0	44	0	2114977792	18	4941
2026-01-19 01:22:01.82	227.08	8.15	-29.4	-32.3	11.9	3.55e-04	0	44	0	2118123520	18	5049
2026-01-19 01:22:02.82	227.03	8.07	-29.3	-32.1	12.0	5.93e-04	0	44	0	2120220672	18	4972
2026-01-19 01:22:03.82	226.99	7.99	-29.1	-31.7	12.2	2.18e-03	0	44	0	2123366400	18	4859
2026-01-19 01:22:04.82	226.94	7.92	-29.3	-32.2	12.0	2.25e-03	0	44	0	2126512128	18	5024
2026-01-19 01:22:05.83	226.90	7.84	-29.3	-32.1	12.0	5.72e-04	0	44	0	2129657856	18	4972
2026-01-19 01:22:06.83	226.86	7.76	-29.3	-32.1	12.0	3.36e-04	0	44	0	2132803584	18	4978
