passes_logs/2026/01/19/R2M6_AANII_01/R2M6_AANII_01__20260119_141342_FENGYUN_3D_rec.log

#Pass ID: 20260119_141342_FENGYUN 3D
#Satellite: FENGYUN 3D
#Configuration: FENGYUN 3D
#almurnet v.1.7.20240730
#Start time: 2026-01-19 14:13:42

#Version: 2.2.20231116
#Station: R2M6_AANII_01
#Location: 30.233357 lon 59.946436 lat
#TLE: 1 43010U 17072A   26018.95027258  .00000058  00000+0  49274-4 0  9992
#TLE: 2 43010  98.9939 350.8271 0002416 102.0826 258.0620 14.19696908423819

#Time	Az	El	Level	Level2	SNR	BER	BlckErr	Temp	State	Recorded	gain1	gain2
2026-01-19 14:13:42.08	221.97	6.99	-28.3	-30.2	5.7	7.52e-01	0	41	0	0	17	4501
2026-01-19 14:13:43.08	222.07	7.05	-30.4	-34.3	5.2	7.80e-01	0	41	104	0	20	5692
2026-01-19 14:13:44.09	222.18	7.11	-30.7	-34.8	8.1	5.00e-02	0	41	0	0	21	5760
2026-01-19 14:13:45.09	222.29	7.17	-30.2	-33.4	9.1	2.57e-02	0	41	102	1048576	21	5175
2026-01-19 14:13:46.10	222.40	7.22	-30.4	-33.9	8.8	2.85e-02	0	41	102	1048576	21	5380
2026-01-19 14:13:47.10	222.51	7.28	-30.0	-32.8	9.5	1.59e-02	0	41	102	1048576	21	4937
2026-01-19 14:13:48.10	222.63	7.34	-29.6	-32.2	10.3	5.49e-03	0	41	102	1048576	20	4811
2026-01-19 14:13:49.10	222.74	7.40	-29.3	-31.7	11.0	1.91e-03	0	41	102	1048576	19	4750
2026-01-19 14:13:50.09	222.85	7.46	-28.9	-30.7	11.7	6.74e-04	0	41	102	1048576	19	4432
2026-01-19 14:13:51.10	222.96	7.51	-28.4	-30.0	12.5	8.81e-05	0	41	102	1048576	18	4316
2026-01-19 14:13:52.10	223.07	7.57	-28.1	-29.8	12.9	5.14e-05	0	41	102	1048576	17	4373
2026-01-19 14:13:53.10	223.19	7.63	-27.8	-29.1	13.3	1.83e-05	0	41	102	1048576	17	4170
2026-01-19 14:13:54.11	223.30	7.69	-27.9	-29.8	13.2	8.00e-06	0	41	102	1048576	16	4457
2026-01-19 14:13:55.11	223.41	7.75	-28.1	-30.3	12.9	1.14e-05	0	41	102	1048576	16	4615
2026-01-19 14:13:56.12	223.53	7.81	-27.8	-29.6	13.4	4.50e-06	0	41	102	1048576	16	4401
2026-01-19 14:13:57.13	223.64	7.87	-27.7	-29.3	13.5	8.00e-06	0	41	102	1048576	16	4330
2026-01-19 14:13:58.13	223.76	7.93	-27.7	-29.2	13.6	4.50e-06	0	41	102	1048576	16	4281
2026-01-19 14:13:59.14	223.88	7.98	-27.9	-29.7	13.3	8.00e-06	0	41	102	1048576	16	4431
2026-01-19 14:14:00.14	223.99	8.04	-27.7	-29.3	13.5	4.50e-06	0	41	102	1048576	16	4318
2026-01-19 14:14:01.14	224.11	8.10	-27.6	-29.1	13.7	1.10e-06	0	42	102	1048576	16	4257
2026-01-19 14:14:02.14	224.22	8.16	-27.4	-28.6	14.0	1.10e-06	0	41	102	1048576	16	4125
2026-01-19 14:14:03.15	224.34	8.22	-27.4	-28.6	13.9	1.10e-06	0	41	102	1048576	16	4119
2026-01-19 14:14:04.15	224.46	8.28	-27.8	-29.5	13.5	8.00e-06	0	41	102	1048576	16	4367
2026-01-19 14:14:05.15	224.58	8.34	-27.7	-29.4	13.5	4.50e-06	0	42	102	1048576	16	4343
2026-01-19 14:14:06.15	224.70	8.40	-27.3	-28.3	14.2	1.10e-06	0	42	102	1048576	16	4046
2026-01-19 14:14:07.15	224.82	8.45	-27.2	-28.7	14.1	1.10e-06	0	42	102	1048576	15	4267
2026-01-19 14:14:08.16	224.94	8.51	-27.1	-28.4	14.2	0.00e+00	0	42	102	1048576	15	4191
2026-01-19 14:14:09.16	225.06	8.57	-27.5	-29.2	13.8	3.40e-06	0	42	102	1048576	15	4417
2026-01-19 14:14:10.16	225.18	8.63	-27.1	-28.4	14.2	2.20e-06	0	42	102	1048576	15	4191
2026-01-19 14:14:11.16	225.30	8.69	-27.0	-28.2	14.4	0.00e+00	0	42	102	1048576	15	4125
2026-01-19 14:14:12.17	225.42	8.75	-26.9	-28.0	14.5	0.00e+00	0	42	102	1048576	15	4061
2026-01-19 14:14:13.17	225.54	8.81	-27.0	-28.2	14.4	1.10e-06	0	42	102	1048576	15	4135
2026-01-19 14:14:14.17	225.67	8.87	-27.0	-28.2	14.4	0.00e+00	0	42	102	1048576	15	4132
2026-01-19 14:14:15.17	225.79	8.93	-26.8	-27.7	14.7	0.00e+00	0	42	102	1048576	15	4003
2026-01-19 14:14:16.18	225.91	8.99	-27.0	-28.2	14.4	0.00e+00	0	42	102	1048576	15	4128
2026-01-19 14:14:17.18	226.04	9.05	-27.1	-28.5	14.3	0.00e+00	0	42	102	1048576	15	4206
2026-01-19 14:14:18.19	226.16	9.11	-26.8	-27.8	14.7	0.00e+00	0	42	102	1048576	15	4013
2026-01-19 14:14:19.19	226.29	9.17	-26.9	-28.4	14.6	0.00e+00	0	42	102	1048576	14	4297
2026-01-19 14:14:20.20	226.41	9.23	-27.0	-28.6	14.5	0.00e+00	0	42	102	1048576	14	4339
2026-01-19 14:14:21.20	226.54	9.28	-27.0	-28.6	14.5	0.00e+00	0	42	102	1048576	14	4341
2026-01-19 14:14:22.20	226.67	9.34	-26.8	-28.2	14.8	0.00e+00	0	42	102	1048576	14	4220
2026-01-19 14:14:23.20	226.79	9.40	-27.0	-28.6	14.5	0.00e+00	0	42	102	1048576	14	4347
2026-01-19 14:14:24.20	226.92	9.46	-27.1	-28.9	14.4	1.10e-06	0	42	102	1048576	14	4430
2026-01-19 14:14:25.21	227.05	9.52	-26.9	-28.4	14.6	0.00e+00	0	42	102	1048576	14	4283
2026-01-19 14:14:26.22	227.18	9.58	-26.4	-27.3	15.3	0.00e+00	0	42	102	1048576	14	3984
2026-01-19 14:14:27.22	227.31	9.64	-26.3	-27.0	15.4	0.00e+00	0	42	102	1048576	14	3918
2026-01-19 14:14:28.23	227.44	9.70	-26.4	-27.3	15.3	0.00e+00	0	42	102	1048576	14	3981
2026-01-19 14:14:29.23	227.57	9.76	-26.4	-27.2	15.3	0.00e+00	0	42	102	1048576	14	3966
2026-01-19 14:14:30.24	227.70	9.82	-26.5	-27.5	15.2	0.00e+00	0	42	102	1048576	14	4034
2026-01-19 14:14:31.24	227.83	9.88	-26.5	-27.5	15.2	0.00e+00	0	42	102	1048576	14	4042
2026-01-19 14:14:32.24	227.96	9.94	-26.7	-27.9	14.9	0.00e+00	0	42	102	1048576	14	4142
2026-01-19 14:14:33.25	228.10	10.00	-26.6	-27.6	15.1	0.00e+00	0	42	102	1048576	14	4076
2026-01-19 14:14:34.25	228.23	10.06	-26.5	-27.6	15.2	0.00e+00	0	42	102	1048576	14	4070
2026-01-19 14:14:35.24	228.36	10.12	-26.7	-27.9	15.0	0.00e+00	0	42	102	1048576	14	4144
2026-01-19 14:14:36.25	228.49	10.18	-26.6	-27.8	15.0	0.00e+00	0	43	102	1048576	14	4119
2026-01-19 14:14:37.25	228.63	10.24	-26.8	-28.2	14.8	0.00e+00	0	42	102	1048576	14	4226
2026-01-19 14:14:38.25	228.76	10.30	-26.8	-28.3	14.8	0.00e+00	0	42	102	1048576	14	4241
2026-01-19 14:14:39.25	228.90	10.36	-26.8	-28.3	14.8	0.00e+00	0	42	102	1048576	14	4253
2026-01-19 14:14:40.25	229.03	10.42	-26.8	-28.2	14.8	0.00e+00	0	42	102	1048576	14	4213
2026-01-19 14:14:41.26	229.17	10.48	-26.8	-28.1	14.9	0.00e+00	0	42	102	1048576	14	4189
2026-01-19 14:14:42.26	229.31	10.54	-26.8	-28.2	14.9	0.00e+00	0	42	102	1048576	14	4209
2026-01-19 14:14:43.27	229.45	10.60	-26.8	-28.1	14.9	0.00e+00	0	42	102	1048576	14	4199
2026-01-19 14:14:44.27	229.58	10.66	-26.6	-27.7	15.2	0.00e+00	0	42	102	1048576	14	4079
2026-01-19 14:14:45.28	229.72	10.72	-26.6	-27.7	15.2	0.00e+00	0	42	102	1048576	14	4080
2026-01-19 14:14:46.28	229.86	10.77	-26.6	-27.8	15.1	0.00e+00	0	43	102	1048576	14	4109
2026-01-19 14:14:47.28	230.00	10.83	-26.7	-28.0	15.0	0.00e+00	0	42	102	1048576	14	4178
2026-01-19 14:14:48.28	230.14	10.89	-26.5	-27.6	15.2	0.00e+00	0	42	102	1048576	14	4056
2026-01-19 14:14:49.29	230.28	10.95	-26.6	-27.6	15.2	0.00e+00	0	43	102	1048576	14	4076
2026-01-19 14:14:50.29	230.42	11.01	-26.6	-27.7	15.2	0.00e+00	0	42	102	1048576	14	4087
2026-01-19 14:14:51.30	230.57	11.07	-26.5	-27.5	15.2	0.00e+00	0	42	102	1048576	14	4042
2026-01-19 14:14:52.30	230.71	11.13	-26.5	-27.5	15.3	0.00e+00	0	42	102	1048576	14	4029
2026-01-19 14:14:53.29	230.85	11.19	-26.6	-27.6	15.2	0.00e+00	0	42	102	1048576	14	4073
2026-01-19 14:14:54.29	230.99	11.25	-26.5	-27.5	15.3	0.00e+00	0	42	102	1048576	14	4035
2026-01-19 14:14:55.30	231.14	11.31	-26.5	-27.6	15.2	0.00e+00	0	43	102	1048576	14	4057
2026-01-19 14:14:56.30	231.28	11.37	-26.3	-27.1	15.5	0.00e+00	0	43	102	1048576	14	3936
2026-01-19 14:14:57.31	231.43	11.43	-26.4	-27.2	15.5	0.00e+00	0	43	102	1048576	14	3962
2026-01-19 14:14:58.30	231.57	11.49	-26.3	-27.1	15.5	0.00e+00	0	42	102	1048576	14	3939
2026-01-19 14:14:59.30	231.72	11.55	-26.3	-27.5	15.6	0.00e+00	0	42	102	1048576	13	4127
2026-01-19 14:15:00.31	231.87	11.61	-26.2	-27.3	15.7	0.00e+00	0	43	102	1048576	13	4080
2026-01-19 14:15:01.31	232.02	11.67	-26.1	-27.0	15.8	0.00e+00	0	42	102	1048576	13	4007
2026-01-19 14:15:02.32	232.16	11.73	-26.1	-27.1	15.8	0.00e+00	0	43	102	1048576	13	4045
2026-01-19 14:15:03.32	232.31	11.79	-26.2	-27.4	15.6	0.00e+00	0	43	102	1048576	13	4103
2026-01-19 14:15:04.33	232.46	11.85	-25.9	-26.7	16.0	0.00e+00	0	43	102	1048576	13	3946
2026-01-19 14:15:05.33	232.61	11.91	-26.0	-26.9	15.9	0.00e+00	0	42	102	1048576	13	3991
2026-01-19 14:15:06.34	232.76	11.96	-26.1	-27.0	15.9	0.00e+00	0	43	102	1048576	13	4002
2026-01-19 14:15:07.34	232.92	12.02	-26.0	-26.8	16.0	0.00e+00	0	43	102	1048576	13	3963
2026-01-19 14:15:08.34	233.07	12.08	-26.0	-26.8	16.0	0.00e+00	0	43	102	1048576	13	3956
2026-01-19 14:15:09.34	233.22	12.14	-26.0	-26.8	16.0	0.00e+00	0	43	102	1048576	13	3952
2026-01-19 14:15:10.34	233.37	12.20	-26.1	-27.1	15.8	0.00e+00	0	43	102	1048576	13	4037
2026-01-19 14:15:11.35	233.53	12.26	-26.1	-27.1	15.8	0.00e+00	0	43	102	1048576	13	4037
2026-01-19 14:15:12.35	233.68	12.32	-26.1	-27.0	15.9	0.00e+00	0	43	102	1048576	13	4014
2026-01-19 14:15:13.35	233.83	12.38	-26.0	-26.8	16.0	0.00e+00	0	43	102	1048576	13	3968
2026-01-19 14:15:14.36	233.99	12.44	-26.1	-27.1	15.8	0.00e+00	0	43	102	1048576	13	4042
2026-01-19 14:15:15.36	234.15	12.50	-26.1	-27.1	15.8	0.00e+00	0	43	102	1048576	13	4041
2026-01-19 14:15:16.36	234.30	12.56	-26.0	-26.9	15.9	0.00e+00	0	43	102	1048576	13	3991
2026-01-19 14:15:17.36	234.46	12.61	-26.0	-26.9	15.9	0.00e+00	0	43	102	1048576	13	3981
2026-01-19 14:15:18.37	234.62	12.67	-25.9	-26.7	16.1	0.00e+00	0	43	102	1048576	13	3947
2026-01-19 14:15:19.38	234.78	12.73	-26.0	-26.9	16.0	0.00e+00	0	43	102	1048576	13	3986
2026-01-19 14:15:20.38	234.94	12.79	-26.1	-27.1	15.9	0.00e+00	0	43	102	1048576	13	4046
2026-01-19 14:15:21.39	235.10	12.85	-26.1	-27.1	15.8	0.00e+00	0	43	102	1048576	13	4046
2026-01-19 14:15:22.39	235.26	12.91	-26.1	-27.1	15.8	0.00e+00	0	43	102	1048576	13	4039
2026-01-19 14:15:23.39	235.42	12.97	-26.2	-27.4	15.7	0.00e+00	0	43	102	1048576	13	4104
2026-01-19 14:15:24.38	235.58	13.02	-26.2	-27.3	15.7	0.00e+00	0	43	102	1048576	13	4102
2026-01-19 14:15:25.39	235.74	13.08	-26.4	-27.8	15.5	0.00e+00	0	43	102	1048576	13	4206
2026-01-19 14:15:26.39	235.90	13.14	-26.4	-27.8	15.5	0.00e+00	0	43	102	1048576	13	4225
2026-01-19 14:15:27.40	236.07	13.20	-26.3	-27.6	15.6	0.00e+00	0	43	102	1048576	13	4179
2026-01-19 14:15:28.40	236.23	13.26	-26.2	-27.3	15.7	0.00e+00	0	43	102	1048576	13	4102
2026-01-19 14:15:29.40	236.39	13.32	-26.1	-27.2	15.8	0.00e+00	0	43	102	1048576	13	4053
2026-01-19 14:15:30.41	236.56	13.37	-26.1	-27.2	15.8	0.00e+00	0	43	102	1048576	13	4060
2026-01-19 14:15:31.41	236.73	13.43	-26.0	-26.9	16.0	0.00e+00	0	43	102	1048576	13	3998
2026-01-19 14:15:32.41	236.89	13.49	-26.0	-26.9	16.0	0.00e+00	0	43	102	1048576	13	3984
2026-01-19 14:15:33.42	237.06	13.55	-26.0	-26.9	16.0	0.00e+00	0	43	102	1048576	13	3987
2026-01-19 14:15:34.42	237.23	13.60	-25.9	-26.7	16.1	0.00e+00	0	43	102	1048576	13	3938
2026-01-19 14:15:35.43	237.40	13.66	-25.7	-26.6	16.4	0.00e+00	0	43	102	1048576	12	4024
2026-01-19 14:15:36.43	237.56	13.72	-25.6	-26.5	16.5	0.00e+00	0	43	102	1048576	12	3984
2026-01-19 14:15:37.43	237.73	13.78	-25.8	-26.8	16.3	0.00e+00	0	43	102	1048576	12	4065
2026-01-19 14:15:38.44	237.91	13.83	-25.8	-26.9	16.3	0.00e+00	0	43	102	1048576	12	4093
2026-01-19 14:15:39.45	238.08	13.89	-25.8	-26.9	16.3	0.00e+00	0	43	102	1048576	12	4099
2026-01-19 14:15:40.46	238.25	13.95	-25.8	-27.0	16.3	0.00e+00	0	43	102	1048576	12	4111
2026-01-19 14:15:41.46	238.42	14.01	-25.8	-27.0	16.3	0.00e+00	0	43	102	1048576	12	4111
2026-01-19 14:15:42.45	238.59	14.06	-25.9	-27.0	16.3	0.00e+00	0	43	102	1048576	12	4114
2026-01-19 14:15:43.45	238.77	14.12	-25.8	-26.9	16.3	0.00e+00	0	43	102	1048576	12	4098
2026-01-19 14:15:44.46	238.94	14.18	-25.7	-26.7	16.4	0.00e+00	0	43	102	1048576	12	4041
2026-01-19 14:15:45.46	239.12	14.23	-25.7	-26.7	16.4	0.00e+00	0	43	102	1048576	12	4038
2026-01-19 14:15:46.47	239.29	14.29	-25.7	-26.7	16.4	0.00e+00	0	43	102	1048576	12	4035
2026-01-19 14:15:47.48	239.47	14.35	-25.7	-26.6	16.5	0.00e+00	0	43	102	1048576	12	4024
2026-01-19 14:15:48.48	239.65	14.40	-25.8	-26.8	16.4	0.00e+00	0	43	102	1048576	12	4070
2026-01-19 14:15:49.49	239.82	14.46	-25.8	-26.8	16.4	0.00e+00	0	43	102	1048576	12	4071
2026-01-19 14:15:50.49	240.00	14.51	-25.6	-26.5	16.6	0.00e+00	0	43	102	1048576	12	3987
2026-01-19 14:15:51.49	240.18	14.57	-25.5	-26.3	16.7	0.00e+00	0	43	102	1048576	12	3927
2026-01-19 14:15:52.49	240.36	14.63	-25.4	-26.1	16.8	0.00e+00	0	43	102	1048576	12	3887
2026-01-19 14:15:53.49	240.54	14.68	-25.4	-26.1	16.8	0.00e+00	0	43	102	1048576	12	3874
2026-01-19 14:15:54.50	240.72	14.74	-25.4	-26.0	16.8	0.00e+00	0	43	102	1048576	12	3870
2026-01-19 14:15:55.50	240.90	14.79	-25.6	-26.4	16.6	0.00e+00	0	43	102	1048576	12	3958
2026-01-19 14:15:56.50	241.08	14.85	-25.5	-26.2	16.8	0.00e+00	0	43	102	1048576	12	3903
2026-01-19 14:15:57.51	241.27	14.90	-25.5	-26.2	16.8	0.00e+00	0	43	102	1048576	12	3916
2026-01-19 14:15:58.51	241.45	14.96	-25.4	-26.1	16.8	0.00e+00	0	43	102	1048576	12	3893
2026-01-19 14:15:59.51	241.63	15.01	-25.5	-26.2	16.7	0.00e+00	0	43	102	1048576	12	3923
2026-01-19 14:16:00.51	241.82	15.07	-25.5	-26.3	16.7	0.00e+00	0	43	102	1048576	12	3932
2026-01-19 14:16:01.51	242.00	15.12	-25.4	-26.1	16.8	0.00e+00	0	43	102	1048576	12	3892
2026-01-19 14:16:02.51	242.19	15.17	-25.4	-26.1	16.8	0.00e+00	0	43	102	1048576	12	3889
2026-01-19 14:16:03.52	242.37	15.23	-25.4	-26.1	16.8	0.00e+00	0	43	102	1048576	12	3894
2026-01-19 14:16:04.52	242.56	15.28	-25.5	-26.2	16.8	0.00e+00	0	43	102	1048576	12	3912
2026-01-19 14:16:05.52	242.75	15.34	-25.4	-25.9	16.9	0.00e+00	0	43	102	1048576	12	3843
2026-01-19 14:16:06.52	242.94	15.39	-25.4	-26.1	16.9	0.00e+00	0	43	102	1048576	12	3877
2026-01-19 14:16:07.52	243.12	15.44	-25.3	-25.9	16.9	0.00e+00	0	43	102	1048576	12	3830
2026-01-19 14:16:08.52	243.31	15.50	-25.4	-26.5	17.0	0.00e+00	0	43	102	1048576	11	4088
2026-01-19 14:16:09.53	243.50	15.55	-25.5	-26.6	16.9	0.00e+00	0	43	102	1048576	11	4123
2026-01-19 14:16:10.54	243.70	15.60	-25.3	-26.2	17.1	0.00e+00	0	43	102	1048576	11	4015
2026-01-19 14:16:11.54	243.89	15.65	-25.3	-26.2	17.1	0.00e+00	0	43	102	1048576	11	4018
2026-01-19 14:16:12.54	244.08	15.71	-25.2	-26.1	17.2	0.00e+00	0	43	102	1048576	11	3984
2026-01-19 14:16:13.54	244.27	15.76	-25.2	-26.0	17.2	0.00e+00	0	43	102	1048576	11	3969
2026-01-19 14:16:14.55	244.47	15.81	-25.2	-26.1	17.2	0.00e+00	0	43	102	1048576	11	3998
2026-01-19 14:16:15.55	244.66	15.86	-25.4	-26.5	17.0	0.00e+00	0	43	102	1048576	11	4098
2026-01-19 14:16:16.56	244.86	15.92	-25.5	-26.7	16.9	0.00e+00	0	43	102	1048576	11	4133
2026-01-19 14:16:17.56	245.05	15.97	-25.5	-26.6	16.9	0.00e+00	0	43	102	1048576	11	4121
2026-01-19 14:16:18.56	245.25	16.02	-25.7	-27.1	16.7	0.00e+00	0	43	102	1048576	11	4238
2026-01-19 14:16:19.56	245.45	16.07	-25.7	-27.1	16.6	0.00e+00	0	43	102	1048576	11	4248
2026-01-19 14:16:20.57	245.64	16.12	-25.7	-27.1	16.7	0.00e+00	0	43	102	1048576	11	4233
2026-01-19 14:16:21.57	245.84	16.17	-25.7	-27.1	16.7	0.00e+00	0	43	102	1048576	11	4242
2026-01-19 14:16:22.58	246.04	16.22	-25.9	-27.6	16.4	0.00e+00	0	43	102	1048576	11	4370
2026-01-19 14:16:23.57	246.24	16.27	-25.8	-27.3	16.5	0.00e+00	0	43	102	1048576	11	4298
2026-01-19 14:16:24.58	246.44	16.32	-25.4	-26.6	16.9	0.00e+00	0	43	102	1048576	11	4118
2026-01-19 14:16:25.59	246.64	16.37	-25.3	-26.4	17.1	0.00e+00	0	43	102	1048576	11	4053
2026-01-19 14:16:26.60	246.85	16.42	-25.3	-26.3	17.1	0.00e+00	0	43	102	1048576	11	4031
2026-01-19 14:16:27.59	247.05	16.47	-25.2	-26.1	17.2	0.00e+00	0	43	102	1048576	11	3989
2026-01-19 14:16:28.59	247.25	16.52	-25.3	-26.2	17.2	0.00e+00	0	43	102	1048576	11	4008
2026-01-19 14:16:29.60	247.45	16.57	-25.4	-26.5	17.0	0.00e+00	0	43	102	1048576	11	4093
2026-01-19 14:16:30.61	247.66	16.62	-25.4	-26.6	17.0	0.00e+00	0	43	102	1048576	11	4109
2026-01-19 14:16:31.60	247.86	16.66	-25.3	-26.3	17.1	0.00e+00	0	43	102	1048576	11	4030
2026-01-19 14:16:32.61	248.07	16.71	-25.3	-26.3	17.1	0.00e+00	0	43	102	1048576	11	4040
2026-01-19 14:16:33.61	248.27	16.76	-25.3	-26.4	17.1	0.00e+00	0	43	102	1048576	11	4056
2026-01-19 14:16:34.61	248.48	16.81	-25.3	-26.3	17.1	1.10e-06	0	43	102	1048576	11	4044
2026-01-19 14:16:35.62	248.69	16.86	-25.3	-26.2	17.2	0.00e+00	0	43	102	1048576	11	4004
2026-01-19 14:16:36.62	248.90	16.90	-25.2	-26.1	17.2	0.00e+00	0	43	102	1048576	11	3989
2026-01-19 14:16:37.62	249.10	16.95	-25.1	-25.9	17.4	1.10e-06	0	43	102	1048576	11	3928
2026-01-19 14:16:38.62	249.31	17.00	-25.1	-25.9	17.4	0.00e+00	0	43	102	1048576	11	3932
2026-01-19 14:16:39.63	249.52	17.04	-25.1	-25.9	17.4	0.00e+00	0	43	102	1048576	11	3929
2026-01-19 14:16:40.63	249.73	17.09	-25.1	-25.9	17.3	0.00e+00	0	43	102	1048576	11	3948
2026-01-19 14:16:41.64	249.95	17.13	-25.1	-25.9	17.3	0.00e+00	0	43	102	1048576	11	3946
2026-01-19 14:16:42.64	250.16	17.18	-25.1	-25.8	17.4	0.00e+00	0	43	102	1048576	11	3904
2026-01-19 14:16:43.65	250.37	17.22	-25.1	-25.9	17.4	0.00e+00	0	43	102	1048576	11	3935
2026-01-19 14:16:44.66	250.58	17.27	-25.1	-25.9	17.3	0.00e+00	0	43	102	1048576	11	3943
2026-01-19 14:16:45.66	250.80	17.31	-25.0	-25.7	17.5	0.00e+00	0	43	102	1048576	11	3886
2026-01-19 14:16:46.67	251.01	17.36	-25.1	-25.9	17.4	0.00e+00	0	43	102	1048576	11	3947
2026-01-19 14:16:47.67	251.23	17.40	-25.1	-25.8	17.5	0.00e+00	0	43	102	1048576	11	3908
2026-01-19 14:16:48.68	251.44	17.45	-25.0	-25.7	17.5	0.00e+00	0	43	102	1048576	11	3896
2026-01-19 14:16:49.69	251.66	17.49	-25.0	-25.6	17.5	0.00e+00	0	43	102	1048576	11	3876
2026-01-19 14:16:50.69	251.88	17.53	-25.0	-25.6	17.5	0.00e+00	0	43	102	1048576	11	3875
2026-01-19 14:16:51.70	252.10	17.57	-25.0	-25.5	17.6	0.00e+00	0	43	102	1048576	11	3848
2026-01-19 14:16:52.70	252.31	17.62	-24.8	-25.3	17.7	0.00e+00	0	43	102	1048576	11	3789
2026-01-19 14:16:53.70	252.53	17.66	-25.0	-25.5	17.6	0.00e+00	0	43	102	1048576	11	3846
2026-01-19 14:16:54.70	252.75	17.70	-24.9	-25.5	17.6	0.00e+00	0	43	102	1048576	11	3836
2026-01-19 14:16:55.70	252.97	17.74	-25.1	-25.8	17.5	0.00e+00	0	43	102	1048576	11	3909
2026-01-19 14:16:56.71	253.19	17.78	-25.1	-25.8	17.5	0.00e+00	0	43	102	1048576	11	3916
2026-01-19 14:16:57.71	253.41	17.82	-25.2	-26.1	17.3	0.00e+00	0	43	102	1048576	11	3983
2026-01-19 14:16:58.71	253.63	17.86	-25.1	-25.9	17.4	0.00e+00	0	43	102	1048576	11	3939
2026-01-19 14:16:59.72	253.85	17.90	-25.1	-25.9	17.4	0.00e+00	0	43	102	1048576	11	3927
2026-01-19 14:17:00.73	254.08	17.94	-25.0	-25.7	17.5	0.00e+00	0	43	102	1048576	11	3895
2026-01-19 14:17:01.73	254.30	17.98	-24.9	-25.4	17.7	0.00e+00	0	43	102	1048576	11	3827
2026-01-19 14:17:02.74	254.52	18.02	-25.0	-25.6	17.6	0.00e+00	0	43	102	1048576	11	3866
2026-01-19 14:17:03.74	254.75	18.06	-25.0	-25.6	17.6	0.00e+00	0	43	102	1048576	11	3855
2026-01-19 14:17:04.75	254.97	18.10	-25.1	-25.9	17.4	0.00e+00	0	43	102	1048576	11	3949
2026-01-19 14:17:05.76	255.20	18.13	-25.1	-26.0	17.4	0.00e+00	0	43	102	1048576	11	3956
2026-01-19 14:17:06.76	255.43	18.17	-25.2	-26.0	17.3	0.00e+00	0	43	102	1048576	11	3976
2026-01-19 14:17:07.77	255.65	18.21	-25.1	-25.9	17.4	0.00e+00	0	43	102	1048576	11	3934
2026-01-19 14:17:08.78	255.88	18.25	-25.2	-26.0	17.4	0.00e+00	0	43	102	1048576	11	3959
2026-01-19 14:17:09.78	256.11	18.28	-25.0	-25.7	17.5	1.10e-06	0	43	102	1048576	11	3891
2026-01-19 14:17:10.78	256.34	18.32	-25.0	-25.7	17.6	0.00e+00	0	43	102	1048576	11	3885
2026-01-19 14:17:11.78	256.56	18.35	-25.1	-25.9	17.4	0.00e+00	0	43	102	1048576	11	3934
2026-01-19 14:17:12.78	256.79	18.39	-25.1	-25.8	17.5	0.00e+00	0	43	102	1048576	11	3903
2026-01-19 14:17:13.78	257.02	18.42	-25.1	-25.8	17.5	0.00e+00	0	43	102	1048576	11	3910
2026-01-19 14:17:14.79	257.25	18.46	-25.0	-25.7	17.5	0.00e+00	0	43	102	1048576	11	3890
2026-01-19 14:17:15.80	257.48	18.49	-25.2	-26.1	17.4	0.00e+00	0	43	102	1048576	11	3977
2026-01-19 14:17:16.80	257.71	18.52	-25.0	-25.5	17.6	0.00e+00	0	43	102	1048576	11	3848
2026-01-19 14:17:17.80	257.94	18.56	-24.8	-25.6	17.8	0.00e+00	0	43	102	1048576	10	3978
2026-01-19 14:17:18.81	258.18	18.59	-24.8	-25.7	17.8	1.10e-06	0	43	102	1048576	10	3984
2026-01-19 14:17:19.81	258.41	18.62	-24.7	-25.5	18.0	0.00e+00	0	43	102	1048576	10	3934
2026-01-19 14:17:20.81	258.64	18.65	-24.7	-25.5	17.9	0.00e+00	0	43	102	1048576	10	3933
2026-01-19 14:17:21.81	258.87	18.69	-24.7	-25.6	17.9	1.10e-06	0	43	102	1048576	10	3965
2026-01-19 14:17:22.82	259.11	18.72	-24.8	-25.7	17.8	0.00e+00	0	43	102	1048576	10	3998
2026-01-19 14:17:23.82	259.34	18.75	-24.8	-25.6	17.8	0.00e+00	0	43	102	1048576	10	3978
2026-01-19 14:17:24.82	259.58	18.78	-24.8	-25.8	17.7	1.10e-06	0	43	102	1048576	10	4020
2026-01-19 14:17:25.83	259.81	18.81	-24.8	-25.6	17.8	0.00e+00	0	43	102	1048576	10	3980
2026-01-19 14:17:26.83	260.05	18.84	-24.7	-25.5	17.9	0.00e+00	0	43	102	1048576	10	3954
2026-01-19 14:17:27.84	260.28	18.86	-24.8	-25.8	17.8	0.00e+00	0	43	102	1048576	10	4012
2026-01-19 14:17:28.84	260.52	18.89	-24.7	-25.6	17.9	0.00e+00	0	43	102	1048576	10	3972
2026-01-19 14:17:29.84	260.76	18.92	-24.9	-26.0	17.7	0.00e+00	0	43	102	1048576	10	4059
2026-01-19 14:17:30.84	260.99	18.95	-24.7	-25.6	17.9	0.00e+00	0	43	102	1048576	10	3967
2026-01-19 14:17:31.84	261.23	18.98	-24.7	-25.4	18.0	0.00e+00	0	43	102	1048576	10	3925
2026-01-19 14:17:32.84	261.47	19.00	-24.6	-25.3	18.1	0.00e+00	0	43	102	1048576	10	3896
2026-01-19 14:17:33.85	261.71	19.03	-24.8	-25.7	17.9	0.00e+00	0	43	102	1048576	10	3979
2026-01-19 14:17:34.85	261.95	19.05	-24.7	-25.5	17.9	0.00e+00	0	43	102	1048576	10	3952
2026-01-19 14:17:35.85	262.18	19.08	-24.7	-25.5	18.0	0.00e+00	0	43	102	1048576	10	3935
2026-01-19 14:17:36.85	262.42	19.10	-24.9	-25.8	17.8	0.00e+00	0	43	102	1048576	10	4022
2026-01-19 14:17:37.86	262.66	19.13	-24.8	-25.7	17.8	0.00e+00	0	43	102	1048576	10	3995
2026-01-19 14:17:38.86	262.90	19.15	-24.8	-25.7	17.8	0.00e+00	0	43	102	1048576	10	4004
2026-01-19 14:17:39.87	263.15	19.17	-24.9	-25.9	17.7	0.00e+00	0	43	102	1048576	10	4050
2026-01-19 14:17:40.87	263.39	19.20	-24.8	-25.8	17.8	0.00e+00	0	43	102	1048576	10	4026
2026-01-19 14:17:41.88	263.63	19.22	-24.7	-25.6	17.9	0.00e+00	0	43	102	1048576	10	3959
2026-01-19 14:17:42.88	263.87	19.24	-24.7	-25.6	17.9	0.00e+00	0	43	102	1048576	10	3965
2026-01-19 14:17:43.88	264.11	19.26	-24.6	-25.3	18.1	0.00e+00	0	43	102	1048576	10	3899
2026-01-19 14:17:44.89	264.36	19.28	-24.6	-25.2	18.1	0.00e+00	0	43	102	1048576	10	3874
2026-01-19 14:17:45.89	264.60	19.30	-24.6	-25.3	18.0	0.00e+00	0	43	102	1048576	10	3898
2026-01-19 14:17:46.89	264.84	19.32	-24.9	-25.9	17.8	0.00e+00	0	43	102	1048576	10	4029
2026-01-19 14:17:47.89	265.08	19.34	-24.7	-25.5	17.9	0.00e+00	0	44	102	1048576	10	3946
2026-01-19 14:17:48.90	265.33	19.36	-24.7	-25.5	18.0	0.00e+00	0	44	102	1048576	10	3944
2026-01-19 14:17:49.90	265.57	19.38	-24.7	-25.4	18.0	0.00e+00	0	43	102	1048576	10	3924
2026-01-19 14:17:50.91	265.82	19.40	-24.8	-25.7	17.9	0.00e+00	0	43	102	1048576	10	3993
2026-01-19 14:17:51.91	266.06	19.42	-24.6	-25.4	18.1	0.00e+00	0	43	102	1048576	10	3912
2026-01-19 14:17:52.92	266.31	19.43	-24.7	-25.5	18.0	0.00e+00	0	43	102	1048576	10	3948
2026-01-19 14:17:53.93	266.55	19.45	-24.8	-25.7	17.9	0.00e+00	0	43	102	1048576	10	3984
2026-01-19 14:17:54.93	266.80	19.47	-24.7	-25.6	18.0	0.00e+00	0	43	102	1048576	10	3965
2026-01-19 14:17:55.94	267.04	19.48	-24.8	-25.6	17.9	0.00e+00	0	43	102	1048576	10	3976
2026-01-19 14:17:56.94	267.29	19.50	-24.9	-25.9	17.8	0.00e+00	0	43	102	1048576	10	4031
2026-01-19 14:17:57.94	267.53	19.51	-24.6	-25.4	18.1	0.00e+00	0	43	102	1048576	10	3907
2026-01-19 14:17:58.95	267.78	19.53	-24.6	-25.3	18.1	0.00e+00	0	43	102	1048576	10	3907
2026-01-19 14:17:59.95	268.03	19.54	-24.9	-25.8	17.8	0.00e+00	0	43	102	1048576	10	4026
2026-01-19 14:18:00.95	268.27	19.55	-24.9	-26.0	17.7	0.00e+00	0	43	102	1048576	10	4070
2026-01-19 14:18:01.95	268.52	19.56	-25.0	-26.1	17.7	0.00e+00	0	43	102	1048576	10	4084
2026-01-19 14:18:02.96	268.77	19.58	-25.2	-26.5	17.5	0.00e+00	0	43	102	1048576	10	4192
2026-01-19 14:18:03.96	269.01	19.59	-24.9	-25.9	17.8	0.00e+00	0	43	102	1048576	10	4037
2026-01-19 14:18:04.97	269.26	19.60	-24.7	-25.6	18.0	0.00e+00	0	43	102	1048576	10	3958
2026-01-19 14:18:05.98	269.51	19.61	-24.8	-25.7	17.9	0.00e+00	0	44	102	1048576	10	3993
2026-01-19 14:18:06.99	269.76	19.62	-24.9	-25.8	17.8	0.00e+00	0	43	102	1048576	10	4024
2026-01-19 14:18:07.99	270.01	19.63	-24.9	-26.0	17.7	0.00e+00	0	43	102	1048576	10	4063
2026-01-19 14:18:08.99	270.26	19.64	-24.8	-25.7	17.9	0.00e+00	0	43	102	1048576	10	3979
2026-01-19 14:18:10.00	270.50	19.64	-24.7	-25.4	18.1	0.00e+00	0	43	102	1048576	10	3915
2026-01-19 14:18:11.01	270.75	19.65	-24.8	-25.6	17.9	0.00e+00	0	43	102	1048576	10	3965
2026-01-19 14:18:12.01	271.00	19.66	-24.6	-25.3	18.1	0.00e+00	0	43	102	1048576	10	3883
2026-01-19 14:18:13.02	271.25	19.67	-24.5	-25.0	18.2	0.00e+00	0	43	102	1048576	10	3835
2026-01-19 14:18:14.02	271.50	19.67	-24.4	-24.9	18.3	0.00e+00	0	43	102	1048576	10	3807
2026-01-19 14:18:15.02	271.75	19.68	-24.6	-25.2	18.2	0.00e+00	0	43	102	1048576	10	3857
2026-01-19 14:18:16.02	272.00	19.68	-24.4	-24.9	18.3	0.00e+00	0	44	102	1048576	10	3800
2026-01-19 14:18:17.02	272.24	19.69	-24.4	-24.9	18.3	0.00e+00	0	43	102	1048576	10	3812
2026-01-19 14:18:18.03	272.49	19.69	-24.6	-25.3	18.1	0.00e+00	0	44	102	1048576	10	3891
2026-01-19 14:18:19.03	272.74	19.69	-24.7	-25.6	18.0	0.00e+00	0	43	102	1048576	10	3958
2026-01-19 14:18:20.04	272.99	19.70	-24.7	-25.5	18.0	0.00e+00	0	43	102	1048576	10	3929
2026-01-19 14:18:21.04	273.24	19.70	-24.7	-25.6	18.0	2.20e-06	0	43	102	1048576	10	3964
2026-01-19 14:18:22.04	273.49	19.70	-24.7	-25.6	18.0	0.00e+00	0	43	102	1048576	10	3964
2026-01-19 14:18:23.05	273.74	19.70	-24.8	-25.6	17.9	0.00e+00	0	43	102	1048576	10	3976
2026-01-19 14:18:24.06	273.99	19.70	-24.7	-25.4	18.1	0.00e+00	0	43	102	1048576	10	3927
2026-01-19 14:18:25.06	274.24	19.70	-25.0	-26.2	17.6	0.00e+00	0	43	102	1048576	10	4118
2026-01-19 14:18:26.06	274.49	19.70	-24.9	-25.9	17.8	0.00e+00	0	43	102	1048576	10	4036
2026-01-19 14:18:27.06	274.73	19.70	-25.2	-26.5	17.5	0.00e+00	0	44	102	1048576	10	4198
2026-01-19 14:18:28.07	274.98	19.70	-25.0	-26.2	17.6	0.00e+00	0	44	102	1048576	10	4128
2026-01-19 14:18:29.07	275.23	19.70	-25.2	-26.6	17.4	0.00e+00	0	43	102	1048576	10	4222
2026-01-19 14:18:30.08	275.48	19.70	-25.0	-26.2	17.6	0.00e+00	0	44	102	1048576	10	4113
2026-01-19 14:18:31.08	275.73	19.69	-24.9	-25.9	17.8	0.00e+00	0	43	102	1048576	10	4043
2026-01-19 14:18:32.08	275.98	19.69	-24.9	-25.9	17.8	0.00e+00	0	44	102	1048576	10	4036
2026-01-19 14:18:33.08	276.23	19.69	-25.0	-26.2	17.7	0.00e+00	0	43	102	1048576	10	4114
2026-01-19 14:18:34.09	276.48	19.68	-25.0	-26.2	17.7	0.00e+00	0	43	102	1048576	10	4103
2026-01-19 14:18:35.09	276.72	19.68	-25.3	-26.7	17.4	0.00e+00	0	43	102	1048576	10	4245
2026-01-19 14:18:36.10	276.97	19.67	-25.0	-26.1	17.7	0.00e+00	0	43	102	1048576	10	4096
2026-01-19 14:18:37.11	277.22	19.67	-24.8	-25.7	17.9	0.00e+00	0	43	102	1048576	10	3991
2026-01-19 14:18:38.11	277.47	19.66	-24.7	-25.5	18.0	0.00e+00	0	43	102	1048576	10	3955
2026-01-19 14:18:39.12	277.72	19.65	-24.7	-25.6	18.0	0.00e+00	0	44	102	1048576	10	3962
2026-01-19 14:18:40.12	277.97	19.64	-24.8	-25.8	17.9	0.00e+00	0	43	102	1048576	10	4007
2026-01-19 14:18:41.12	278.22	19.64	-24.8	-25.6	18.0	0.00e+00	0	43	102	1048576	10	3962
2026-01-19 14:18:42.13	278.46	19.63	-24.9	-25.8	17.8	0.00e+00	0	44	102	1048576	10	4026
2026-01-19 14:18:43.13	278.71	19.62	-24.8	-25.6	18.0	0.00e+00	0	43	102	1048576	10	3967
2026-01-19 14:18:44.14	278.96	19.61	-24.7	-25.5	18.0	0.00e+00	0	44	102	1048576	10	3949
2026-01-19 14:18:45.14	279.21	19.60	-24.9	-25.9	17.8	0.00e+00	0	44	102	1048576	10	4045
2026-01-19 14:18:46.14	279.45	19.59	-24.9	-25.9	17.8	0.00e+00	0	43	102	1048576	10	4032
2026-01-19 14:18:47.14	279.70	19.58	-24.9	-25.9	17.8	0.00e+00	0	44	102	1048576	10	4037
2026-01-19 14:18:48.14	279.94	19.56	-24.9	-25.9	17.8	0.00e+00	0	44	102	1048576	10	4033
2026-01-19 14:18:49.15	280.19	19.55	-24.8	-25.7	17.9	0.00e+00	0	43	102	1048576	10	4003
2026-01-19 14:18:50.15	280.44	19.54	-24.8	-25.7	17.9	0.00e+00	0	44	102	1048576	10	3986
2026-01-19 14:18:51.15	280.68	19.52	-24.9	-25.9	17.8	0.00e+00	0	43	102	1048576	10	4035
2026-01-19 14:18:52.15	280.93	19.51	-24.7	-25.4	18.1	0.00e+00	0	43	102	1048576	10	3928
2026-01-19 14:18:53.15	281.17	19.50	-24.6	-25.2	18.2	0.00e+00	0	43	102	1048576	10	3882
2026-01-19 14:18:54.15	281.42	19.48	-24.6	-25.2	18.2	0.00e+00	0	44	102	1048576	10	3868
2026-01-19 14:18:55.15	281.66	19.47	-24.5	-25.1	18.3	0.00e+00	0	43	102	1048576	10	3843
2026-01-19 14:18:56.16	281.91	19.45	-24.6	-25.2	18.2	0.00e+00	0	43	102	1048576	10	3858
2026-01-19 14:18:57.17	282.16	19.43	-24.6	-25.2	18.2	0.00e+00	0	43	102	1048576	10	3857
2026-01-19 14:18:58.18	282.40	19.42	-24.6	-25.3	18.1	0.00e+00	0	43	102	1048576	10	3896
2026-01-19 14:18:59.18	282.64	19.40	-24.7	-25.6	18.0	0.00e+00	0	43	102	1048576	10	3962
2026-01-19 14:19:00.18	282.89	19.38	-24.8	-25.7	17.9	0.00e+00	0	43	102	1048576	10	3992
2026-01-19 14:19:01.19	283.13	19.36	-24.9	-25.9	17.8	0.00e+00	0	44	102	1048576	10	4036
2026-01-19 14:19:02.19	283.37	19.34	-24.9	-25.9	17.8	0.00e+00	0	43	102	1048576	10	4052
2026-01-19 14:19:03.19	283.62	19.33	-25.0	-26.1	17.7	0.00e+00	0	43	102	1048576	10	4085
2026-01-19 14:19:04.19	283.86	19.31	-25.0	-26.0	17.7	0.00e+00	0	43	102	1048576	10	4079
2026-01-19 14:19:05.20	284.10	19.28	-25.0	-26.0	17.7	0.00e+00	0	43	102	1048576	10	4072
2026-01-19 14:19:06.20	284.34	19.26	-25.1	-26.3	17.6	0.00e+00	0	43	102	1048576	10	4150
2026-01-19 14:19:07.21	284.59	19.24	-25.1	-26.4	17.6	0.00e+00	0	43	102	1048576	10	4165
2026-01-19 14:19:08.21	284.83	19.22	-25.3	-26.7	17.4	0.00e+00	0	43	102	1048576	10	4254
2026-01-19 14:19:09.21	285.07	19.20	-25.3	-26.7	17.4	0.00e+00	0	43	102	1048576	10	4249
2026-01-19 14:19:10.22	285.31	19.18	-25.3	-26.8	17.3	0.00e+00	0	43	102	1048576	10	4276
2026-01-19 14:19:11.22	285.55	19.15	-25.3	-26.8	17.4	0.00e+00	0	43	102	1048576	10	4267
2026-01-19 14:19:12.22	285.79	19.13	-25.3	-26.7	17.4	0.00e+00	0	44	102	1048576	10	4254
2026-01-19 14:19:13.23	286.03	19.10	-25.4	-27.0	17.2	0.00e+00	0	43	102	1048576	10	4325
2026-01-19 14:19:14.23	286.27	19.08	-25.2	-26.6	17.4	0.00e+00	0	43	102	1048576	10	4208
2026-01-19 14:19:15.24	286.51	19.05	-25.3	-26.8	17.3	0.00e+00	0	43	102	1048576	10	4263
2026-01-19 14:19:16.25	286.75	19.03	-25.4	-26.9	17.3	0.00e+00	0	43	102	1048576	10	4285
2026-01-19 14:19:17.25	286.99	19.00	-25.2	-26.4	17.5	0.00e+00	0	44	102	1048576	10	4174
2026-01-19 14:19:18.24	287.22	18.98	-25.1	-26.2	17.6	0.00e+00	0	43	102	1048576	10	4124
2026-01-19 14:19:19.25	287.46	18.95	-25.1	-26.3	17.6	0.00e+00	0	44	102	1048576	10	4137
2026-01-19 14:19:20.25	287.69	18.92	-25.1	-26.3	17.6	0.00e+00	0	43	102	1048576	10	4135
2026-01-19 14:19:21.25	287.93	18.90	-25.0	-26.2	17.6	0.00e+00	0	43	102	1048576	10	4127
2026-01-19 14:19:22.26	288.17	18.87	-25.1	-26.4	17.5	0.00e+00	0	44	102	1048576	10	4174
2026-01-19 14:19:23.26	288.40	18.84	-25.2	-26.6	17.4	0.00e+00	0	44	102	1048576	10	4226
2026-01-19 14:19:24.26	288.64	18.81	-25.1	-26.3	17.6	0.00e+00	0	44	102	1048576	10	4152
2026-01-19 14:19:25.26	288.87	18.78	-25.0	-26.1	17.7	0.00e+00	0	43	102	1048576	10	4099
2026-01-19 14:19:26.26	289.10	18.75	-25.0	-26.2	17.6	0.00e+00	0	43	102	1048576	10	4117
2026-01-19 14:19:27.27	289.34	18.72	-25.0	-26.2	17.6	0.00e+00	0	43	102	1048576	10	4112
2026-01-19 14:19:28.28	289.57	18.69	-25.2	-26.5	17.5	0.00e+00	0	43	102	1048576	10	4198
2026-01-19 14:19:29.28	289.80	18.66	-25.1	-26.3	17.6	0.00e+00	0	44	102	1048576	10	4153
2026-01-19 14:19:30.28	290.04	18.63	-25.1	-26.2	17.6	0.00e+00	0	44	102	1048576	10	4124
2026-01-19 14:19:31.28	290.27	18.59	-25.1	-26.3	17.6	0.00e+00	0	44	102	1048576	10	4131
2026-01-19 14:19:32.29	290.50	18.56	-25.0	-26.2	17.6	0.00e+00	0	43	102	1048576	10	4103
2026-01-19 14:19:33.29	290.73	18.53	-25.1	-26.3	17.6	0.00e+00	0	44	102	1048576	10	4140
2026-01-19 14:19:34.30	290.96	18.49	-25.2	-26.5	17.5	0.00e+00	0	43	102	1048576	10	4179
2026-01-19 14:19:35.31	291.19	18.46	-25.2	-26.5	17.5	0.00e+00	0	43	102	1048576	10	4185
2026-01-19 14:19:36.30	291.42	18.43	-25.1	-26.4	17.5	0.00e+00	0	43	102	1048576	10	4169
2026-01-19 14:19:37.30	291.65	18.39	-25.3	-26.6	17.4	0.00e+00	0	43	102	1048576	10	4227
2026-01-19 14:19:38.31	291.88	18.36	-25.2	-26.6	17.4	0.00e+00	0	44	102	1048576	10	4216
2026-01-19 14:19:39.30	292.10	18.32	-25.2	-26.6	17.4	0.00e+00	0	43	102	1048576	10	4218
2026-01-19 14:19:40.31	292.33	18.29	-25.3	-26.8	17.4	0.00e+00	0	44	102	1048576	10	4259
2026-01-19 14:19:41.31	292.56	18.25	-25.5	-26.6	17.2	0.00e+00	0	43	102	1048576	11	4097
2026-01-19 14:19:42.32	292.78	18.21	-25.3	-26.2	17.4	0.00e+00	0	43	102	1048576	11	4008
2026-01-19 14:19:43.32	293.01	18.18	-25.1	-25.9	17.5	0.00e+00	0	43	102	1048576	11	3928
2026-01-19 14:19:44.32	293.23	18.14	-25.2	-26.1	17.4	0.00e+00	0	43	102	1048576	11	3976
2026-01-19 14:19:45.32	293.46	18.10	-25.4	-26.4	17.3	0.00e+00	0	43	102	1048576	11	4055
2026-01-19 14:19:46.33	293.68	18.07	-25.5	-26.7	17.1	0.00e+00	0	44	102	1048576	11	4140
2026-01-19 14:19:47.33	293.90	18.03	-25.5	-26.6	17.1	0.00e+00	0	43	102	1048576	11	4106
2026-01-19 14:19:48.34	294.13	17.99	-25.4	-26.5	17.2	0.00e+00	0	43	102	1048576	11	4080
2026-01-19 14:19:49.35	294.35	17.95	-25.3	-26.4	17.3	0.00e+00	0	44	102	1048576	11	4040
2026-01-19 14:19:50.35	294.57	17.91	-25.4	-26.5	17.2	0.00e+00	0	43	102	1048576	11	4065
2026-01-19 14:19:51.36	294.80	17.87	-25.4	-26.5	17.2	0.00e+00	0	43	102	1048576	11	4088
2026-01-19 14:19:52.36	295.02	17.83	-25.5	-26.8	17.1	0.00e+00	0	43	102	1048576	11	4147
2026-01-19 14:19:53.36	295.24	17.79	-25.6	-26.9	17.0	0.00e+00	0	43	102	1048576	11	4181
2026-01-19 14:19:54.36	295.45	17.75	-25.5	-26.6	17.1	0.00e+00	0	43	102	1048576	11	4122
2026-01-19 14:19:55.37	295.67	17.71	-25.4	-26.5	17.2	0.00e+00	0	44	102	1048576	11	4075
2026-01-19 14:19:56.37	295.89	17.67	-25.4	-26.5	17.2	0.00e+00	0	43	102	1048576	11	4087
2026-01-19 14:19:57.38	296.11	17.63	-25.4	-26.5	17.2	0.00e+00	0	43	102	1048576	11	4080
2026-01-19 14:19:58.38	296.33	17.58	-25.4	-26.4	17.3	0.00e+00	0	44	102	1048576	11	4055
2026-01-19 14:19:59.38	296.54	17.54	-25.5	-26.6	17.1	0.00e+00	0	44	102	1048576	11	4115
2026-01-19 14:20:00.38	296.76	17.50	-25.6	-27.0	16.9	0.00e+00	0	44	102	1048576	11	4207
2026-01-19 14:20:01.39	296.98	17.46	-25.7	-27.1	16.9	0.00e+00	0	44	102	1048576	11	4239
2026-01-19 14:20:02.39	297.19	17.41	-25.7	-27.2	16.8	0.00e+00	0	43	102	1048576	11	4255
2026-01-19 14:20:03.39	297.40	17.37	-25.8	-27.3	16.8	0.00e+00	0	43	102	1048576	11	4301
2026-01-19 14:20:04.39	297.62	17.33	-25.8	-27.5	16.7	0.00e+00	0	43	102	1048576	11	4332
2026-01-19 14:20:05.40	297.83	17.28	-25.8	-27.4	16.7	0.00e+00	0	43	102	1048576	11	4329
2026-01-19 14:20:06.41	298.04	17.24	-25.8	-27.4	16.7	0.00e+00	0	43	102	1048576	11	4316
2026-01-19 14:20:07.41	298.25	17.19	-25.8	-27.4	16.7	0.00e+00	0	44	102	1048576	11	4310
2026-01-19 14:20:08.42	298.47	17.15	-25.6	-26.9	16.9	0.00e+00	0	43	102	1048576	11	4192
2026-01-19 14:20:09.41	298.67	17.10	-25.6	-26.8	17.0	0.00e+00	0	44	102	1048576	11	4160
2026-01-19 14:20:10.42	298.89	17.06	-25.5	-26.8	17.0	0.00e+00	0	43	102	1048576	11	4148
2026-01-19 14:20:11.42	299.09	17.01	-25.6	-26.9	16.9	0.00e+00	0	44	102	1048576	11	4196
2026-01-19 14:20:12.43	299.30	16.96	-25.8	-27.4	16.7	0.00e+00	0	44	102	1048576	11	4320
2026-01-19 14:20:13.43	299.51	16.92	-25.9	-27.5	16.7	0.00e+00	0	43	102	1048576	11	4339
2026-01-19 14:20:14.43	299.72	16.87	-25.8	-27.3	16.7	0.00e+00	0	43	102	1048576	11	4298
2026-01-19 14:20:15.43	299.92	16.82	-25.8	-27.3	16.8	0.00e+00	0	44	102	1048576	11	4280
2026-01-19 14:20:16.43	300.13	16.78	-25.7	-27.2	16.8	1.10e-06	0	44	102	1048576	11	4269
2026-01-19 14:20:17.44	300.34	16.73	-25.7	-27.1	16.8	0.00e+00	0	44	102	1048576	11	4237
2026-01-19 14:20:18.44	300.54	16.68	-25.8	-27.3	16.8	0.00e+00	0	44	102	1048576	11	4296
2026-01-19 14:20:19.45	300.74	16.63	-25.8	-27.3	16.7	1.10e-06	0	44	102	1048576	11	4301
2026-01-19 14:20:20.45	300.95	16.59	-25.6	-27.0	16.9	0.00e+00	0	43	102	1048576	11	4209
2026-01-19 14:20:21.46	301.15	16.54	-25.6	-26.9	17.0	0.00e+00	0	44	102	1048576	11	4182
2026-01-19 14:20:22.46	301.35	16.49	-25.7	-27.0	16.9	0.00e+00	0	44	102	1048576	11	4219
2026-01-19 14:20:23.46	301.55	16.44	-25.7	-27.1	16.9	0.00e+00	0	44	102	1048576	11	4233
2026-01-19 14:20:24.46	301.75	16.39	-25.7	-27.0	16.9	0.00e+00	0	44	102	1048576	11	4220
2026-01-19 14:20:25.47	301.96	16.34	-25.7	-27.1	16.9	0.00e+00	0	43	102	1048576	11	4229
2026-01-19 14:20:26.47	302.15	16.29	-25.7	-27.2	16.8	0.00e+00	0	43	102	1048576	11	4252
2026-01-19 14:20:27.48	302.36	16.24	-25.7	-27.2	16.8	0.00e+00	0	43	102	1048576	11	4265
2026-01-19 14:20:28.49	302.55	16.19	-25.8	-27.4	16.7	1.10e-06	0	44	102	1048576	11	4307
2026-01-19 14:20:29.49	302.75	16.14	-25.8	-27.3	16.8	0.00e+00	0	43	102	1048576	11	4279
2026-01-19 14:20:30.50	302.95	16.09	-25.7	-27.2	16.8	0.00e+00	0	44	102	1048576	11	4265
2026-01-19 14:20:31.50	303.15	16.04	-25.8	-27.3	16.7	1.10e-06	0	44	102	1048576	11	4289
2026-01-19 14:20:32.50	303.34	15.99	-25.7	-27.2	16.8	0.00e+00	0	44	102	1048576	11	4249
2026-01-19 14:20:33.50	303.54	15.94	-25.7	-27.2	16.8	0.00e+00	0	44	102	1048576	11	4261
2026-01-19 14:20:34.50	303.73	15.89	-25.8	-27.2	16.8	0.00e+00	0	44	102	1048576	11	4274
2026-01-19 14:20:35.51	303.92	15.83	-25.8	-27.3	16.7	0.00e+00	0	44	102	1048576	11	4287
2026-01-19 14:20:36.51	304.12	15.78	-25.9	-27.5	16.6	0.00e+00	0	44	102	1048576	11	4348
2026-01-19 14:20:37.51	304.31	15.73	-26.0	-27.7	16.5	0.00e+00	0	43	102	1048576	11	4402
2026-01-19 14:20:38.51	304.50	15.68	-26.0	-27.2	16.4	0.00e+00	0	44	102	1048576	12	4156
2026-01-19 14:20:39.51	304.69	15.63	-26.1	-27.5	16.3	0.00e+00	0	43	102	1048576	12	4244
2026-01-19 14:20:40.52	304.88	15.57	-26.1	-27.5	16.2	0.00e+00	0	44	102	1048576	12	4246
2026-01-19 14:20:41.53	305.07	15.52	-26.2	-27.7	16.2	0.00e+00	0	43	102	1048576	12	4283
2026-01-19 14:20:42.53	305.26	15.47	-26.3	-28.0	16.0	0.00e+00	0	43	102	1048576	12	4375
2026-01-19 14:20:43.54	305.45	15.42	-26.3	-28.1	16.0	0.00e+00	0	44	102	1048576	12	4385
2026-01-19 14:20:44.55	305.64	15.36	-26.2	-27.7	16.2	0.00e+00	0	44	102	1048576	12	4283
2026-01-19 14:20:45.55	305.83	15.31	-26.2	-27.6	16.2	0.00e+00	0	43	102	1048576	12	4267
2026-01-19 14:20:46.55	306.01	15.26	-26.2	-27.8	16.1	0.00e+00	0	44	102	1048576	12	4325
2026-01-19 14:20:47.55	306.20	15.20	-26.2	-27.7	16.2	0.00e+00	0	43	102	1048576	12	4274
2026-01-19 14:20:48.56	306.38	15.15	-26.2	-27.8	16.1	0.00e+00	0	44	102	1048576	12	4300
2026-01-19 14:20:49.56	306.57	15.09	-26.2	-27.6	16.2	0.00e+00	0	44	102	1048576	12	4263
2026-01-19 14:20:50.56	306.75	15.04	-26.0	-27.2	16.4	0.00e+00	0	44	102	1048576	12	4156
2026-01-19 14:20:51.56	306.93	14.99	-25.8	-27.0	16.6	0.00e+00	0	43	102	1048576	12	4089
2026-01-19 14:20:52.57	307.12	14.93	-25.9	-27.0	16.5	0.00e+00	0	44	102	1048576	12	4108
2026-01-19 14:20:53.58	307.30	14.88	-25.9	-27.1	16.4	0.00e+00	0	44	102	1048576	12	4139
2026-01-19 14:20:54.58	307.48	14.82	-25.9	-27.2	16.4	0.00e+00	0	43	102	1048576	12	4151
2026-01-19 14:20:55.59	307.66	14.77	-25.9	-27.1	16.4	0.00e+00	0	44	102	1048576	12	4133
2026-01-19 14:20:56.59	307.84	14.71	-26.0	-27.3	16.3	0.00e+00	0	43	102	1048576	12	4192
2026-01-19 14:20:57.60	308.02	14.66	-26.1	-27.4	16.3	0.00e+00	0	43	102	1048576	12	4220
2026-01-19 14:20:58.60	308.20	14.60	-26.1	-27.6	16.1	0.00e+00	0	44	102	1048576	12	4269
2026-01-19 14:20:59.61	308.38	14.55	-26.2	-27.6	16.1	0.00e+00	0	44	102	1048576	12	4272
2026-01-19 14:21:00.61	308.56	14.49	-26.3	-27.9	16.0	0.00e+00	0	44	102	1048576	12	4343
2026-01-19 14:21:01.61	308.73	14.44	-26.4	-28.3	15.8	0.00e+00	0	43	102	1048576	12	4454
2026-01-19 14:21:02.61	308.91	14.38	-26.4	-27.8	15.8	0.00e+00	0	43	102	1048576	13	4205
2026-01-19 14:21:03.61	309.08	14.32	-26.4	-27.7	15.8	0.00e+00	0	44	102	1048576	13	4185
2026-01-19 14:21:04.61	309.26	14.27	-26.4	-27.7	15.8	0.00e+00	0	44	102	1048576	13	4169
2026-01-19 14:21:05.61	309.43	14.21	-26.5	-27.9	15.7	0.00e+00	0	44	102	1048576	13	4230
2026-01-19 14:21:06.62	309.61	14.16	-26.5	-27.8	15.8	0.00e+00	0	43	102	1048576	13	4211
2026-01-19 14:21:07.62	309.78	14.10	-26.7	-28.3	15.5	0.00e+00	0	43	102	1048576	13	4336
2026-01-19 14:21:08.63	309.95	14.04	-26.7	-28.3	15.5	0.00e+00	0	44	102	1048576	13	4337
2026-01-19 14:21:09.63	310.12	13.99	-26.5	-27.9	15.7	0.00e+00	0	43	102	1048576	13	4228
2026-01-19 14:21:10.63	310.29	13.93	-26.5	-27.9	15.7	0.00e+00	0	43	102	1048576	13	4237
2026-01-19 14:21:11.63	310.46	13.87	-26.5	-28.0	15.6	0.00e+00	0	44	102	1048576	13	4276
2026-01-19 14:21:12.63	310.63	13.82	-26.5	-27.9	15.7	0.00e+00	0	44	102	1048576	13	4238
2026-01-19 14:21:13.63	310.80	13.76	-26.4	-27.8	15.8	0.00e+00	0	44	102	1048576	13	4198
2026-01-19 14:21:14.62	310.97	13.70	-26.3	-27.5	15.9	0.00e+00	0	43	102	1048576	13	4143
2026-01-19 14:21:15.63	311.14	13.65	-26.4	-27.7	15.8	0.00e+00	0	43	102	1048576	13	4166
2026-01-19 14:21:16.64	311.31	13.59	-26.3	-27.4	16.0	0.00e+00	0	43	102	1048576	13	4086
2026-01-19 14:21:17.63	311.47	13.53	-26.2	-27.2	16.1	0.00e+00	0	43	102	1048576	13	4055
2026-01-19 14:21:18.63	311.64	13.48	-26.2	-27.1	16.1	0.00e+00	0	44	102	1048576	13	4029
2026-01-19 14:21:19.64	311.80	13.42	-26.2	-27.3	16.0	0.00e+00	0	44	102	1048576	13	4063
2026-01-19 14:21:20.64	311.97	13.36	-26.3	-27.5	15.9	0.00e+00	0	44	102	1048576	13	4122
2026-01-19 14:21:21.65	312.13	13.30	-26.3	-27.5	15.9	0.00e+00	0	43	102	1048576	13	4115
2026-01-19 14:21:22.64	312.29	13.25	-26.3	-27.5	15.9	0.00e+00	0	44	102	1048576	13	4140
2026-01-19 14:21:23.65	312.46	13.19	-26.4	-27.7	15.8	0.00e+00	0	43	102	1048576	13	4184
2026-01-19 14:21:24.65	312.62	13.13	-26.4	-27.6	15.8	0.00e+00	0	43	102	1048576	13	4158
2026-01-19 14:21:25.66	312.78	13.07	-26.5	-28.0	15.6	0.00e+00	0	43	102	1048576	13	4252
2026-01-19 14:21:26.66	312.94	13.01	-26.5	-27.9	15.6	0.00e+00	0	43	102	1048576	13	4237
2026-01-19 14:21:27.66	313.10	12.96	-26.5	-27.9	15.6	0.00e+00	0	43	102	1048576	13	4239
2026-01-19 14:21:28.66	313.26	12.90	-26.5	-27.9	15.6	0.00e+00	0	43	102	1048576	13	4238
2026-01-19 14:21:29.66	313.42	12.84	-26.5	-28.0	15.6	0.00e+00	0	44	102	1048576	13	4260
2026-01-19 14:21:30.66	313.58	12.78	-26.5	-28.0	15.6	0.00e+00	0	43	102	1048576	13	4251
2026-01-19 14:21:31.67	313.74	12.72	-26.5	-28.0	15.6	0.00e+00	0	43	102	1048576	13	4251
2026-01-19 14:21:32.67	313.89	12.67	-26.6	-28.1	15.5	0.00e+00	0	44	102	1048576	13	4277
2026-01-19 14:21:33.67	314.05	12.61	-26.4	-27.8	15.7	0.00e+00	0	44	102	1048576	13	4203
2026-01-19 14:21:34.67	314.21	12.55	-26.4	-27.7	15.7	0.00e+00	0	43	102	1048576	13	4186
2026-01-19 14:21:35.67	314.36	12.49	-26.5	-27.9	15.6	0.00e+00	0	44	102	1048576	13	4237
2026-01-19 14:21:36.68	314.52	12.43	-26.5	-28.0	15.6	0.00e+00	0	44	102	1048576	13	4259
2026-01-19 14:21:37.69	314.67	12.37	-26.6	-28.2	15.5	0.00e+00	0	44	102	1048576	13	4307
2026-01-19 14:21:38.68	314.82	12.32	-26.7	-28.3	15.4	0.00e+00	0	44	102	1048576	13	4347
2026-01-19 14:21:39.68	314.98	12.26	-26.8	-28.6	15.2	0.00e+00	0	44	102	1048576	13	4422
2026-01-19 14:21:40.69	315.13	12.20	-26.8	-28.6	15.2	0.00e+00	0	44	102	1048576	13	4421
2026-01-19 14:21:41.70	315.28	12.14	-26.8	-28.6	15.2	0.00e+00	0	43	102	1048576	13	4432
2026-01-19 14:21:42.70	315.43	12.08	-26.9	-28.9	15.0	0.00e+00	0	44	102	1048576	13	4514
2026-01-19 14:21:43.70	315.58	12.02	-27.0	-28.5	15.0	0.00e+00	0	44	102	1048576	14	4285
2026-01-19 14:21:44.71	315.74	11.96	-26.8	-28.1	15.2	0.00e+00	0	43	102	1048576	14	4169
2026-01-19 14:21:45.71	315.89	11.90	-26.7	-28.0	15.3	0.00e+00	0	44	102	1048576	14	4146
2026-01-19 14:21:46.70	316.03	11.85	-26.8	-28.2	15.2	0.00e+00	0	43	102	1048576	14	4196
2026-01-19 14:21:47.71	316.18	11.79	-26.8	-28.1	15.2	0.00e+00	0	44	102	1048576	14	4189
2026-01-19 14:21:48.71	316.33	11.73	-26.8	-28.1	15.2	0.00e+00	0	43	102	1048576	14	4190
2026-01-19 14:21:49.71	316.48	11.67	-26.8	-28.2	15.2	0.00e+00	0	44	102	1048576	14	4207
2026-01-19 14:21:50.71	316.62	11.61	-26.9	-28.2	15.1	0.00e+00	0	43	102	1048576	14	4214
2026-01-19 14:21:51.71	316.77	11.55	-26.9	-28.3	15.1	0.00e+00	0	44	102	1048576	14	4222
2026-01-19 14:21:52.72	316.92	11.49	-26.8	-28.1	15.2	0.00e+00	0	43	102	1048576	14	4186
2026-01-19 14:21:53.72	317.06	11.43	-27.0	-28.5	14.9	0.00e+00	0	44	102	1048576	14	4295
2026-01-19 14:21:54.72	317.20	11.38	-27.0	-28.5	14.9	0.00e+00	0	44	102	1048576	14	4288
2026-01-19 14:21:55.72	317.35	11.32	-26.9	-28.3	15.0	0.00e+00	0	44	102	1048576	14	4240
2026-01-19 14:21:56.73	317.49	11.26	-27.0	-28.4	15.0	0.00e+00	0	43	102	1048576	14	4274
2026-01-19 14:21:57.73	317.63	11.20	-27.1	-28.9	14.7	0.00e+00	0	44	102	1048576	14	4388
2026-01-19 14:21:58.73	317.78	11.14	-27.1	-28.7	14.8	0.00e+00	0	44	102	1048576	14	4356
2026-01-19 14:21:59.74	317.92	11.08	-27.2	-28.9	14.7	0.00e+00	0	44	102	1048576	14	4415
2026-01-19 14:22:00.74	318.06	11.02	-27.1	-28.7	14.8	0.00e+00	0	44	102	1048576	14	4349
2026-01-19 14:22:01.74	318.20	10.96	-26.9	-28.4	15.0	0.00e+00	0	43	102	1048576	14	4264
2026-01-19 14:22:02.75	318.34	10.90	-27.0	-28.5	15.0	0.00e+00	0	44	102	1048576	14	4277
2026-01-19 14:22:03.76	318.48	10.84	-27.0	-28.5	14.9	0.00e+00	0	44	102	1048576	14	4287
2026-01-19 14:22:04.76	318.62	10.78	-26.8	-28.2	15.1	0.00e+00	0	44	102	1048576	14	4200
2026-01-19 14:22:05.76	318.76	10.73	-27.1	-28.8	14.7	0.00e+00	0	44	102	1048576	14	4373
2026-01-19 14:22:06.77	318.90	10.67	-27.1	-28.7	14.8	0.00e+00	0	44	102	1048576	14	4344
2026-01-19 14:22:07.77	319.03	10.61	-27.2	-28.9	14.7	0.00e+00	0	44	102	1048576	14	4410
2026-01-19 14:22:08.77	319.17	10.55	-27.1	-28.8	14.7	0.00e+00	0	43	102	1048576	14	4374
2026-01-19 14:22:09.77	319.31	10.49	-27.0	-28.6	14.8	0.00e+00	0	44	102	1048576	14	4319
2026-01-19 14:22:10.78	319.44	10.43	-27.0	-28.6	14.8	0.00e+00	0	43	102	1048576	14	4329
2026-01-19 14:22:11.78	319.58	10.37	-27.1	-28.7	14.7	1.10e-06	0	44	102	1048576	14	4362
2026-01-19 14:22:12.78	319.71	10.31	-27.2	-29.0	14.6	1.10e-06	0	44	102	1048576	14	4444
2026-01-19 14:22:13.78	319.85	10.25	-27.1	-28.9	14.7	0.00e+00	0	44	102	1048576	14	4398
2026-01-19 14:22:14.78	319.98	10.19	-27.1	-28.7	14.8	0.00e+00	0	44	102	1048576	14	4346
2026-01-19 14:22:15.79	320.11	10.14	-27.1	-28.8	14.7	0.00e+00	0	44	102	1048576	14	4384
2026-01-19 14:22:16.79	320.25	10.08	-27.1	-28.9	14.7	0.00e+00	0	43	102	1048576	14	4404
2026-01-19 14:22:17.79	320.38	10.02	-27.2	-29.0	14.6	0.00e+00	0	43	102	1048576	14	4418
2026-01-19 14:22:18.80	320.51	9.96	-27.2	-28.9	14.6	1.10e-06	0	43	102	1048576	14	4404
2026-01-19 14:22:19.80	320.64	9.90	-27.4	-29.4	14.3	0.00e+00	0	44	102	1048576	14	4552
2026-01-19 14:22:20.80	320.77	9.84	-27.3	-29.3	14.4	1.10e-06	0	44	102	1048576	14	4531
2026-01-19 14:22:21.81	320.90	9.78	-27.3	-29.4	14.4	0.00e+00	0	43	102	1048576	14	4543
2026-01-19 14:22:22.80	321.03	9.72	-27.5	-29.6	14.2	1.10e-06	0	44	102	1048576	14	4620
2026-01-19 14:22:23.81	321.16	9.66	-27.5	-29.7	14.2	1.10e-06	0	44	102	1048576	14	4634
2026-01-19 14:22:24.82	321.29	9.60	-27.5	-29.1	14.2	1.10e-06	0	44	102	1048576	15	4364
2026-01-19 14:22:25.82	321.42	9.55	-27.7	-29.6	13.9	1.10e-06	0	43	102	1048576	15	4488
2026-01-19 14:22:26.83	321.54	9.49	-27.5	-29.3	14.1	0.00e+00	0	44	102	1048576	15	4401
2026-01-19 14:22:27.83	321.67	9.43	-27.4	-29.1	14.2	2.20e-06	0	43	102	1048576	15	4346
2026-01-19 14:22:28.83	321.80	9.37	-27.6	-29.4	14.1	3.40e-06	0	44	102	1048576	15	4426
2026-01-19 14:22:29.84	321.92	9.31	-27.5	-29.1	14.2	0.00e+00	0	43	102	1048576	15	4359
2026-01-19 14:22:30.83	322.05	9.25	-27.5	-29.2	14.2	0.00e+00	0	44	102	1048576	15	4374
2026-01-19 14:22:31.83	322.17	9.19	-27.5	-29.2	14.1	1.10e-06	0	43	102	1048576	15	4388
2026-01-19 14:22:32.83	322.30	9.13	-27.5	-29.1	14.1	1.10e-06	0	43	102	1048576	15	4354
2026-01-19 14:22:33.84	322.42	9.07	-27.6	-29.4	14.0	0.00e+00	0	44	102	1048576	15	4432
2026-01-19 14:22:34.84	322.55	9.02	-27.5	-29.2	14.1	2.20e-06	0	44	102	1048576	15	4389
2026-01-19 14:22:35.85	322.67	8.96	-27.6	-29.4	14.0	1.10e-06	0	44	102	1048576	15	4446
2026-01-19 14:22:36.86	322.79	8.90	-27.6	-29.5	13.9	1.10e-06	0	43	102	1048576	15	4459
2026-01-19 14:22:37.86	322.92	8.84	-27.7	-29.7	13.8	1.10e-06	0	43	102	1048576	15	4517
2026-01-19 14:22:38.87	323.04	8.78	-27.6	-29.5	13.9	3.40e-06	0	44	102	1048576	15	4474
2026-01-19 14:22:39.87	323.16	8.72	-27.6	-29.5	13.9	0.00e+00	0	43	102	1048576	15	4477
2026-01-19 14:22:40.87	323.28	8.66	-27.7	-29.6	13.8	3.40e-06	0	44	102	1048576	15	4496
2026-01-19 14:22:41.87	323.40	8.61	-27.7	-29.7	13.8	1.10e-06	0	43	102	1048576	15	4528
2026-01-19 14:22:42.88	323.52	8.55	-27.8	-30.1	13.6	3.40e-06	0	44	102	1048576	15	4651
2026-01-19 14:22:43.88	323.64	8.49	-27.9	-30.1	13.5	1.02e-05	0	43	102	1048576	15	4647
2026-01-19 14:22:44.88	323.76	8.43	-27.8	-30.0	13.6	6.80e-06	0	43	102	1048576	15	4613
2026-01-19 14:22:45.88	323.88	8.37	-27.9	-30.2	13.4	5.70e-06	0	43	102	1048576	15	4701
2026-01-19 14:22:46.89	323.99	8.31	-28.1	-30.2	13.3	4.50e-06	0	43	102	1048576	16	4554
2026-01-19 14:22:47.89	324.11	8.26	-28.2	-30.3	13.3	5.70e-06	0	43	102	1048576	16	4585
2026-01-19 14:22:48.90	324.23	8.20	-28.1	-30.1	13.4	8.00e-06	0	43	102	1048576	16	4537
2026-01-19 14:22:49.90	324.35	8.14	-27.9	-29.6	13.6	5.70e-06	0	43	102	1048576	16	4391
2026-01-19 14:22:50.90	324.46	8.08	-27.9	-29.6	13.7	0.00e+00	0	44	102	1048576	16	4386
2026-01-19 14:22:51.90	324.58	8.02	-28.0	-29.8	13.5	3.40e-06	0	44	102	1048576	16	4453
2026-01-19 14:22:52.91	324.69	7.96	-28.0	-30.0	13.4	1.14e-05	0	43	102	1048576	16	4488
2026-01-19 14:22:53.90	324.81	7.91	-28.2	-30.3	13.2	1.02e-05	0	44	102	1048576	16	4582
2026-01-19 14:22:54.91	324.92	7.85	-28.1	-30.0	13.4	8.00e-06	0	43	102	1048576	16	4488
2026-01-19 14:22:55.90	325.04	7.79	-27.9	-29.7	13.5	2.20e-06	0	43	102	1048576	16	4419
2026-01-19 14:22:56.90	325.15	7.73	-28.0	-29.9	13.5	5.70e-06	0	44	102	1048576	16	4463
2026-01-19 14:22:57.91	325.26	7.67	-27.9	-29.8	13.5	4.50e-06	0	44	102	1048576	16	4432
2026-01-19 14:22:58.91	325.37	7.62	-27.9	-29.6	13.6	5.70e-06	0	43	102	1048576	16	4380
2026-01-19 14:22:59.91	325.49	7.56	-28.3	-30.7	12.9	2.17e-05	0	44	102	1048576	16	4709
2026-01-19 14:23:00.92	325.60	7.50	-28.1	-30.1	13.3	1.83e-05	0	44	102	1048576	16	4548
2026-01-19 14:23:01.92	325.71	7.44	-28.2	-30.4	13.1	1.71e-05	0	44	102	1048576	16	4620
2026-01-19 14:23:02.93	325.82	7.39	-27.9	-29.8	13.5	9.10e-06	0	44	102	1048576	16	4446
2026-01-19 14:23:03.93	325.93	7.33	-27.9	-29.8	13.5	5.70e-06	0	43	102	1048576	16	4437
2026-01-19 14:23:04.93	326.04	7.27	-28.0	-30.0	13.3	1.48e-05	0	43	102	1048576	16	4500
2026-01-19 14:23:05.94	326.15	7.21	-28.2	-30.4	13.1	1.71e-05	0	43	102	1048576	16	4620
2026-01-19 14:23:06.95	326.26	7.15	-28.2	-30.3	13.1	1.94e-05	0	44	102	1048576	16	4608
2026-01-19 14:23:07.94	326.37	7.10	-28.2	-30.3	13.1	1.83e-05	0	43	102	1048576	16	4590
2026-01-19 14:23:08.95	326.48	7.04	-33.5	-44.7	3.8	8.46e-01	0	44	104	1048576	26	13069
2026-01-19 14:23:09.96	326.59	6.98	-33.8	-45.2	3.8	8.47e-01	0	44	104	1048576	27	13345

#Closed at: 2026-01-19 14:23:10
#Recorded file [1 MB]: D:/data/31010_260119_171343.dat