passes_logs/2026/01/19/R2M6_AANII_01/R2M6_AANII_01__20260119_115508_NOAA_20_JPSS-1_rec.log

#Pass ID: 20260119_115508_NOAA 20 (JPSS-1)
#Satellite: NOAA 20 (JPSS-1)
#Configuration: NOAA 20
#almurnet v.1.7.20240730
#Start time: 2026-01-19 11:55:09

#Version: 2.2.20231116
#Station: R2M6_AANII_01
#Location: 30.233357 lon 59.946436 lat
#TLE: 1 43013U 17073A   26017.93796159  .00000077  00000+0  57252-4 0  9992
#TLE: 2 43013  98.7639 318.8464 0001390  34.9771 325.1496 14.19536703423157

#Time	Az	El	Level	Level2	SNR	BER	BlckErr	Temp	State	Recorded	gain1	gain2
2026-01-19 11:55:09.00	212.49	7.00	-30.9	-34.9	5.5	1.14e+00	0	41	0	0	23	5663
2026-01-19 11:55:10.00	212.59	7.07	-31.7	-37.8	5.1	1.21e+00	0	41	104	0	23	7246
2026-01-19 11:55:11.00	212.68	7.13	-31.5	-36.8	9.0	3.87e-02	0	41	0	0	23	6649
2026-01-19 11:55:12.01	212.78	7.19	-31.7	-37.5	8.4	4.07e-02	0	41	0	1048576	23	7079
2026-01-19 11:55:13.01	212.87	7.26	-31.5	-36.8	9.0	2.73e-02	0	41	0	3145728	23	6646
2026-01-19 11:55:14.01	212.97	7.32	-31.4	-36.3	9.5	1.94e-02	0	41	0	5242880	23	6349
2026-01-19 11:55:15.01	213.06	7.39	-31.2	-35.6	10.0	1.19e-02	0	41	0	7340032	23	5970
2026-01-19 11:55:16.01	213.16	7.45	-31.1	-35.2	10.3	6.04e-03	0	41	0	9437184	23	5779
2026-01-19 11:55:17.00	213.26	7.51	-31.0	-34.7	10.8	3.89e-03	0	42	0	10485760	23	5544
2026-01-19 11:55:18.01	213.35	7.58	-30.9	-34.5	11.0	2.08e-03	0	42	0	12582912	23	5446
2026-01-19 11:55:19.01	213.45	7.64	-30.9	-34.4	11.0	1.86e-03	0	42	0	14680064	23	5394
2026-01-19 11:55:20.01	213.55	7.71	-30.8	-34.3	11.2	1.41e-03	0	42	0	16777216	23	5343
2026-01-19 11:55:21.01	213.65	7.77	-31.0	-34.6	10.9	1.98e-03	0	42	0	17825792	23	5507
2026-01-19 11:55:22.02	213.75	7.84	-30.8	-34.2	11.2	1.69e-03	0	42	0	19922944	23	5302
2026-01-19 11:55:23.02	213.85	7.90	-30.8	-34.6	11.4	1.10e-03	0	42	0	22020096	22	5557
2026-01-19 11:55:24.02	213.95	7.96	-30.8	-34.7	11.2	1.24e-03	0	42	0	24117248	22	5639
2026-01-19 11:55:25.03	214.05	8.03	-30.7	-34.4	11.5	1.13e-03	0	42	0	26214400	22	5487
2026-01-19 11:55:26.04	214.15	8.10	-30.7	-34.2	11.7	7.12e-04	0	42	0	27262976	22	5400
2026-01-19 11:55:27.04	214.25	8.16	-30.8	-34.5	11.4	7.72e-04	0	42	0	29360128	22	5524
2026-01-19 11:55:28.04	214.35	8.23	-30.7	-34.2	11.7	6.77e-04	0	42	0	31457280	22	5370
2026-01-19 11:55:29.04	214.46	8.29	-30.8	-34.5	11.5	8.40e-04	0	42	0	33554432	22	5522
2026-01-19 11:55:30.04	214.56	8.36	-30.7	-34.2	11.6	6.46e-04	0	42	0	35651584	22	5412
2026-01-19 11:55:31.04	214.66	8.42	-30.7	-34.3	11.6	5.53e-04	0	42	0	36700160	22	5437
2026-01-19 11:55:32.04	214.76	8.49	-30.8	-34.4	11.5	7.20e-04	0	42	0	38797312	22	5477
2026-01-19 11:55:33.05	214.87	8.55	-30.8	-34.6	11.5	7.63e-04	0	42	0	40894464	22	5549
2026-01-19 11:55:34.05	214.97	8.62	-30.8	-34.5	11.5	1.01e-03	0	42	0	42991616	22	5530
2026-01-19 11:55:35.05	215.08	8.69	-30.9	-34.7	11.4	8.24e-04	0	42	0	45088768	22	5594
2026-01-19 11:55:36.06	215.18	8.75	-30.9	-34.8	11.3	9.17e-04	0	42	0	46137344	22	5640
2026-01-19 11:55:37.07	215.29	8.82	-31.0	-35.0	11.2	1.40e-03	0	42	0	48234496	22	5732
2026-01-19 11:55:38.06	215.40	8.88	-30.8	-34.6	11.5	1.12e-03	0	42	0	50331648	22	5547
2026-01-19 11:55:39.07	215.50	8.95	-30.9	-34.7	11.4	1.10e-03	0	42	0	52428800	22	5609
2026-01-19 11:55:40.07	215.61	9.02	-30.9	-34.8	11.3	1.11e-03	0	42	0	54525952	22	5656
2026-01-19 11:55:41.08	215.72	9.08	-30.8	-34.4	11.6	8.86e-04	0	42	0	55574528	22	5480
2026-01-19 11:55:42.08	215.83	9.15	-30.9	-34.8	11.4	8.75e-04	0	42	0	57671680	22	5621
2026-01-19 11:55:43.09	215.94	9.22	-30.8	-34.5	11.6	9.18e-04	0	42	0	59768832	22	5492
2026-01-19 11:55:44.10	216.05	9.28	-30.9	-34.7	11.4	7.36e-04	0	42	0	61865984	22	5584
2026-01-19 11:55:45.10	216.15	9.35	-30.9	-34.7	11.4	8.59e-04	0	42	0	63963136	22	5608
2026-01-19 11:55:46.10	216.26	9.42	-30.8	-34.4	11.7	6.28e-04	0	42	0	65011712	22	5456
2026-01-19 11:55:47.10	216.38	9.48	-30.6	-34.0	12.0	4.32e-04	0	42	0	67108864	22	5282
2026-01-19 11:55:48.10	216.49	9.55	-30.6	-33.8	12.1	2.97e-04	0	42	0	69206016	22	5202
2026-01-19 11:55:49.09	216.60	9.62	-30.6	-33.7	12.1	2.53e-04	0	42	0	71303168	22	5185
2026-01-19 11:55:50.10	216.71	9.69	-30.7	-34.1	11.9	3.24e-04	0	42	0	73400320	22	5329
2026-01-19 11:55:51.10	216.82	9.75	-30.6	-33.7	12.2	2.26e-04	0	42	0	74448896	22	5145
2026-01-19 11:55:52.10	216.93	9.82	-30.6	-33.8	12.1	1.93e-04	0	42	0	76546048	22	5206
2026-01-19 11:55:53.11	217.05	9.89	-30.6	-33.7	12.2	2.71e-04	0	43	0	78643200	22	5177
2026-01-19 11:55:54.10	217.16	9.95	-30.5	-33.5	12.3	2.48e-04	0	42	0	80740352	22	5095
2026-01-19 11:55:55.10	217.28	10.02	-30.5	-33.5	12.3	1.65e-04	0	42	0	81788928	22	5094
2026-01-19 11:55:56.11	217.39	10.09	-30.6	-33.6	12.3	1.84e-04	0	42	0	83886080	22	5118
2026-01-19 11:55:57.11	217.51	10.16	-30.5	-33.4	12.4	1.63e-04	0	42	0	85983232	22	5047
2026-01-19 11:55:58.11	217.62	10.23	-30.6	-33.9	12.1	1.63e-04	0	42	0	88080384	22	5234
2026-01-19 11:55:59.12	217.74	10.29	-30.5	-33.5	12.4	2.20e-04	0	43	0	90177536	22	5086
2026-01-19 11:56:00.12	217.86	10.36	-30.5	-33.5	12.4	1.47e-04	0	42	0	91226112	22	5063
2026-01-19 11:56:01.13	217.98	10.43	-30.6	-33.7	12.3	1.59e-04	0	43	0	93323264	22	5169
2026-01-19 11:56:02.14	218.09	10.50	-30.6	-33.8	12.1	2.21e-04	0	43	0	95420416	22	5210
2026-01-19 11:56:03.14	218.21	10.57	-30.6	-33.6	12.3	1.69e-04	0	43	0	97517568	22	5115
2026-01-19 11:56:04.15	218.33	10.64	-30.7	-34.2	12.0	3.45e-04	0	43	0	99614720	22	5330
2026-01-19 11:56:05.15	218.45	10.71	-30.6	-33.7	12.3	2.04e-04	0	43	0	100663296	22	5162
2026-01-19 11:56:06.15	218.57	10.77	-30.6	-33.7	12.3	2.07e-04	0	43	0	102760448	22	5162
2026-01-19 11:56:07.16	218.69	10.84	-30.7	-34.0	12.1	1.72e-04	0	43	0	104857600	22	5266
2026-01-19 11:56:08.16	218.82	10.91	-30.8	-34.4	11.8	3.54e-04	0	43	0	106954752	22	5433
2026-01-19 11:56:09.16	218.94	10.98	-30.7	-34.1	12.1	3.39e-04	0	43	0	109051904	22	5301
2026-01-19 11:56:10.15	219.06	11.05	-30.7	-34.0	12.1	2.46e-04	0	43	0	110100480	22	5265
2026-01-19 11:56:11.16	219.18	11.12	-30.8	-34.2	12.0	3.68e-04	0	43	0	112197632	22	5360
2026-01-19 11:56:12.16	219.31	11.19	-30.8	-34.3	11.9	3.71e-04	0	43	0	114294784	22	5388
2026-01-19 11:56:13.16	219.43	11.26	-30.8	-34.2	12.0	3.30e-04	0	43	0	116391936	22	5336
2026-01-19 11:56:14.16	219.55	11.33	-30.9	-34.5	11.8	5.18e-04	0	43	0	118489088	22	5474
2026-01-19 11:56:15.16	219.68	11.39	-30.8	-34.2	12.0	4.49e-04	0	43	0	119537664	22	5362
2026-01-19 11:56:16.16	219.81	11.46	-30.7	-34.0	12.2	2.89e-04	0	43	0	121634816	22	5245
2026-01-19 11:56:17.16	219.93	11.53	-30.7	-33.8	12.3	1.65e-04	0	43	0	123731968	22	5190
2026-01-19 11:56:18.17	220.06	11.60	-30.6	-33.7	12.4	1.81e-04	0	43	0	125829120	22	5145
2026-01-19 11:56:19.18	220.19	11.67	-30.6	-33.6	12.5	1.16e-04	0	43	0	126877696	22	5084
2026-01-19 11:56:20.17	220.31	11.74	-30.6	-33.6	12.5	1.46e-04	0	43	0	128974848	22	5087
2026-01-19 11:56:21.18	220.44	11.81	-30.5	-33.4	12.6	8.69e-05	0	43	0	131072000	22	5012
2026-01-19 11:56:22.18	220.57	11.88	-30.5	-33.3	12.7	8.31e-05	0	43	0	133169152	22	4988
2026-01-19 11:56:23.18	220.70	11.95	-30.5	-33.3	12.6	1.05e-04	0	43	0	135266304	22	4998
2026-01-19 11:56:24.18	220.83	12.02	-30.5	-33.4	12.6	7.17e-05	0	43	0	136314880	22	5028
2026-01-19 11:56:25.18	220.96	12.09	-30.6	-33.6	12.5	1.27e-04	0	43	0	138412032	22	5105
2026-01-19 11:56:26.19	221.10	12.16	-30.4	-33.1	12.9	8.08e-05	0	43	0	140509184	22	4892
2026-01-19 11:56:27.19	221.23	12.23	-30.4	-33.0	12.9	4.88e-05	0	43	0	142606336	22	4874
2026-01-19 11:56:28.19	221.36	12.30	-30.4	-32.9	13.0	3.35e-05	0	43	0	144703488	22	4840
2026-01-19 11:56:29.20	221.50	12.37	-30.4	-32.9	13.0	4.11e-05	0	43	0	145752064	22	4824
2026-01-19 11:56:30.20	221.63	12.44	-30.4	-33.1	12.9	4.11e-05	0	43	0	147849216	22	4893
2026-01-19 11:56:31.21	221.77	12.51	-30.5	-33.2	12.8	7.17e-05	0	43	0	149946368	22	4943
2026-01-19 11:56:32.21	221.90	12.58	-30.3	-32.8	13.1	5.49e-05	0	43	0	152043520	22	4799
2026-01-19 11:56:33.22	222.04	12.66	-30.3	-32.9	13.0	3.73e-05	0	43	0	154140672	22	4815
2026-01-19 11:56:34.22	222.18	12.73	-30.4	-32.9	13.0	3.81e-05	0	43	0	155189248	22	4835
2026-01-19 11:56:35.22	222.31	12.80	-30.3	-32.8	13.1	3.89e-05	0	43	0	157286400	22	4789
2026-01-19 11:56:36.22	222.45	12.87	-30.3	-32.8	13.1	2.44e-05	0	43	0	159383552	22	4801
2026-01-19 11:56:37.23	222.59	12.94	-30.4	-33.0	13.0	3.89e-05	0	43	0	161480704	22	4851
2026-01-19 11:56:38.22	222.73	13.01	-30.3	-32.9	13.1	3.50e-05	0	43	0	163577856	22	4810
2026-01-19 11:56:39.23	222.87	13.08	-30.5	-33.2	12.8	3.81e-05	0	43	0	164626432	22	4936
2026-01-19 11:56:40.23	223.01	13.15	-30.6	-33.5	12.6	9.84e-05	0	43	0	166723584	22	5061
2026-01-19 11:56:41.23	223.15	13.22	-30.5	-33.3	12.8	7.24e-05	0	43	0	168820736	22	4982
2026-01-19 11:56:42.24	223.29	13.29	-30.5	-33.3	12.8	6.33e-05	0	43	0	170917888	22	4964
2026-01-19 11:56:43.24	223.44	13.36	-30.5	-33.2	12.8	7.40e-05	0	43	0	171966464	22	4943
2026-01-19 11:56:44.24	223.58	13.43	-30.5	-33.3	12.7	6.40e-05	0	43	0	174063616	22	4982
2026-01-19 11:56:45.24	223.72	13.51	-30.5	-33.3	12.8	7.47e-05	0	43	0	176160768	22	4972
2026-01-19 11:56:46.24	223.87	13.58	-30.6	-33.6	12.6	6.33e-05	0	43	0	178257920	22	5078
2026-01-19 11:56:47.25	224.01	13.65	-30.7	-33.9	12.4	1.64e-04	0	43	0	180355072	22	5211
2026-01-19 11:56:48.25	224.16	13.72	-30.8	-34.3	12.1	2.21e-04	0	43	0	181403648	22	5365
2026-01-19 11:56:49.26	224.31	13.79	-30.6	-33.6	12.6	1.43e-04	0	43	0	183500800	22	5068
2026-01-19 11:56:50.26	224.45	13.86	-30.5	-33.2	12.9	5.64e-05	0	43	0	185597952	22	4915
2026-01-19 11:56:51.26	224.60	13.93	-30.5	-33.4	12.7	6.94e-05	0	43	0	187695104	22	4989
2026-01-19 11:56:52.26	224.75	14.01	-30.4	-33.0	13.0	4.57e-05	0	43	0	189792256	22	4870
2026-01-19 11:56:53.25	224.90	14.08	-30.5	-33.3	12.9	6.10e-05	0	43	0	190840832	22	4965
2026-01-19 11:56:54.26	225.05	14.15	-30.5	-33.1	13.0	4.95e-05	0	43	0	192937984	22	4901
2026-01-19 11:56:55.26	225.20	14.22	-30.3	-32.8	13.2	2.51e-05	0	43	0	195035136	22	4763
2026-01-19 11:56:56.26	225.35	14.29	-30.2	-33.0	13.4	1.29e-05	0	43	0	197132288	21	4938
2026-01-19 11:56:57.26	225.50	14.36	-30.3	-33.1	13.3	1.44e-05	0	43	0	199229440	21	4990
2026-01-19 11:56:58.26	225.66	14.43	-30.3	-33.3	13.2	3.05e-05	0	44	0	200278016	21	5063
2026-01-19 11:56:59.26	225.81	14.51	-30.3	-33.2	13.3	2.97e-05	0	44	0	202375168	21	5011
2026-01-19 11:57:00.26	225.96	14.58	-30.4	-33.5	13.1	2.67e-05	0	43	0	204472320	21	5121
2026-01-19 11:57:01.25	226.12	14.65	-30.4	-33.5	13.1	3.96e-05	0	43	0	206569472	21	5146
2026-01-19 11:57:02.26	226.27	14.72	-30.4	-33.6	13.0	3.58e-05	0	43	0	208666624	21	5169
2026-01-19 11:57:03.26	226.43	14.79	-30.4	-33.4	13.1	3.58e-05	0	43	0	209715200	21	5106
2026-01-19 11:57:04.26	226.59	14.86	-30.5	-33.7	13.0	2.74e-05	0	43	0	211812352	21	5204
2026-01-19 11:57:05.26	226.74	14.93	-30.5	-33.9	12.8	5.56e-05	0	43	0	213909504	21	5276
2026-01-19 11:57:06.26	226.90	15.01	-30.5	-33.8	12.9	3.58e-05	0	43	0	216006656	21	5254
2026-01-19 11:57:07.27	227.06	15.08	-30.6	-34.0	12.7	5.87e-05	0	43	0	217055232	21	5332
2026-01-19 11:57:08.27	227.22	15.15	-30.4	-33.4	13.2	2.21e-05	0	43	0	219152384	21	5081
2026-01-19 11:57:09.27	227.38	15.22	-30.2	-32.8	13.6	1.22e-05	0	43	0	221249536	21	4860
2026-01-19 11:57:10.27	227.55	15.29	-30.1	-32.5	13.7	5.30e-06	0	43	0	223346688	21	4770
2026-01-19 11:57:11.27	227.71	15.36	-30.1	-32.6	13.7	4.50e-06	0	43	0	225443840	21	4799
2026-01-19 11:57:12.27	227.87	15.44	-30.0	-32.5	13.8	6.10e-06	0	43	0	226492416	21	4754
2026-01-19 11:57:13.27	228.03	15.51	-30.1	-32.5	13.8	4.50e-06	0	43	0	228589568	21	4750
2026-01-19 11:57:14.27	228.20	15.58	-30.0	-32.3	13.9	1.50e-06	0	43	0	230686720	21	4695
2026-01-19 11:57:15.27	228.36	15.65	-30.0	-32.2	14.0	1.50e-06	0	43	0	232783872	21	4665
2026-01-19 11:57:16.27	228.53	15.72	-30.0	-32.3	13.9	2.20e-06	0	43	0	234881024	21	4695
2026-01-19 11:57:17.27	228.70	15.79	-30.1	-32.5	13.8	6.80e-06	0	43	0	235929600	21	4751
2026-01-19 11:57:18.28	228.87	15.87	-30.0	-32.4	13.9	4.50e-06	0	43	0	238026752	21	4722
2026-01-19 11:57:19.28	229.03	15.94	-30.0	-32.3	14.0	1.50e-06	0	44	0	240123904	21	4675
2026-01-19 11:57:20.29	229.20	16.01	-30.0	-32.4	13.9	3.00e-06	0	43	0	242221056	21	4718
2026-01-19 11:57:21.28	229.37	16.08	-29.9	-32.1	14.0	1.50e-06	0	43	0	244318208	21	4633
2026-01-19 11:57:22.29	229.54	16.15	-30.1	-32.4	13.9	4.50e-06	0	43	0	245366784	21	4741
2026-01-19 11:57:23.29	229.72	16.22	-29.9	-32.1	14.1	4.50e-06	0	44	0	247463936	21	4615
2026-01-19 11:57:24.29	229.89	16.30	-30.0	-32.3	14.0	1.50e-06	0	43	0	249561088	21	4700
2026-01-19 11:57:25.29	230.06	16.37	-30.0	-32.4	13.9	4.50e-06	0	43	0	251658240	21	4713
2026-01-19 11:57:26.28	230.23	16.44	-30.1	-32.5	13.9	3.00e-06	0	44	0	252706816	21	4769
2026-01-19 11:57:27.29	230.41	16.51	-30.1	-32.7	13.7	8.30e-06	0	43	0	254803968	21	4824
2026-01-19 11:57:28.29	230.59	16.58	-30.2	-32.9	13.6	5.30e-06	0	43	0	256901120	21	4887
2026-01-19 11:57:29.29	230.76	16.65	-30.2	-32.8	13.7	1.14e-05	0	43	0	258998272	21	4876
2026-01-19 11:57:30.29	230.94	16.72	-30.3	-33.0	13.5	8.30e-06	0	43	0	261095424	21	4938
2026-01-19 11:57:31.29	231.12	16.79	-30.3	-33.1	13.5	6.80e-06	0	43	0	262144000	21	4977
2026-01-19 11:57:32.29	231.30	16.86	-30.3	-33.1	13.5	7.60e-06	0	43	0	264241152	21	4978
2026-01-19 11:57:33.30	231.48	16.94	-30.3	-33.2	13.4	1.06e-05	0	43	0	266338304	21	5002
2026-01-19 11:57:34.30	231.66	17.01	-30.4	-33.4	13.3	1.67e-05	0	44	0	268435456	21	5085
2026-01-19 11:57:35.30	231.84	17.08	-30.3	-33.2	13.4	1.67e-05	0	43	0	270532608	21	5005
2026-01-19 11:57:36.30	232.02	17.15	-30.3	-33.1	13.5	6.80e-06	0	43	0	271581184	21	4978
2026-01-19 11:57:37.30	232.20	17.22	-30.3	-33.2	13.4	6.80e-06	0	43	0	273678336	21	5002
2026-01-19 11:57:38.31	232.39	17.29	-30.3	-33.0	13.5	8.30e-06	0	44	0	275775488	21	4951
2026-01-19 11:57:39.31	232.57	17.36	-30.3	-33.1	13.5	1.52e-05	0	43	0	277872640	21	4973
2026-01-19 11:57:40.32	232.76	17.43	-30.4	-33.3	13.4	8.30e-06	0	43	0	279969792	21	5024
2026-01-19 11:57:41.32	232.95	17.50	-30.4	-33.3	13.4	1.83e-05	0	43	0	281018368	21	5046
2026-01-19 11:57:42.32	233.13	17.57	-30.2	-32.7	13.8	6.10e-06	0	43	0	283115520	21	4826
2026-01-19 11:57:43.32	233.32	17.64	-30.2	-32.7	13.8	1.50e-06	0	43	0	285212672	21	4820
2026-01-19 11:57:44.32	233.51	17.71	-30.2	-32.7	13.8	6.80e-06	0	43	0	287309824	21	4811
2026-01-19 11:57:45.32	233.70	17.78	-30.2	-32.7	13.8	9.10e-06	0	43	0	289406976	21	4823
2026-01-19 11:57:46.32	233.89	17.85	-30.2	-32.8	13.7	3.80e-06	0	43	0	290455552	21	4846
2026-01-19 11:57:47.33	234.08	17.92	-30.2	-32.8	13.7	4.50e-06	0	44	0	292552704	21	4857
2026-01-19 11:57:48.33	234.27	17.99	-30.3	-32.9	13.7	7.60e-06	0	44	0	294649856	21	4894
2026-01-19 11:57:49.33	234.47	18.06	-30.0	-32.3	14.1	7.00e-07	0	44	0	296747008	21	4681
2026-01-19 11:57:50.34	234.66	18.13	-29.9	-32.1	14.2	7.00e-07	0	43	0	297795584	21	4611
2026-01-19 11:57:51.34	234.86	18.20	-29.8	-31.8	14.4	2.20e-06	0	44	0	299892736	21	4502
2026-01-19 11:57:52.35	235.06	18.27	-29.8	-32.1	14.5	7.00e-07	0	44	0	301989888	20	4719
2026-01-19 11:57:53.35	235.25	18.34	-29.8	-32.1	14.5	0.00e+00	0	44	0	304087040	20	4716
2026-01-19 11:57:54.36	235.45	18.41	-29.8	-32.1	14.5	0.00e+00	0	43	0	306184192	20	4722
2026-01-19 11:57:55.36	235.65	18.48	-29.8	-32.1	14.6	7.00e-07	0	43	0	307232768	20	4695
2026-01-19 11:57:56.36	235.85	18.55	-29.7	-31.9	14.7	0.00e+00	0	44	0	309329920	20	4635
2026-01-19 11:57:57.36	236.05	18.62	-29.7	-31.8	14.7	0.00e+00	0	44	0	311427072	20	4628
2026-01-19 11:57:58.37	236.25	18.68	-29.7	-32.0	14.6	0.00e+00	0	44	0	313524224	20	4673
2026-01-19 11:57:59.36	236.45	18.75	-29.7	-31.9	14.6	0.00e+00	0	43	0	315621376	20	4653
2026-01-19 11:58:00.37	236.66	18.82	-29.8	-32.2	14.5	0.00e+00	0	44	0	316669952	20	4734
2026-01-19 11:58:01.38	236.86	18.89	-29.9	-32.4	14.3	7.00e-07	0	44	0	318767104	20	4822
2026-01-19 11:58:02.38	237.07	18.96	-30.0	-32.6	14.3	0.00e+00	0	44	0	320864256	20	4867
2026-01-19 11:58:03.37	237.27	19.02	-29.7	-32.0	14.6	7.00e-07	0	44	0	322961408	20	4665
2026-01-19 11:58:04.38	237.48	19.09	-29.5	-31.5	14.9	0.00e+00	0	44	0	325058560	20	4514
2026-01-19 11:58:05.39	237.69	19.16	-29.5	-31.4	15.0	7.00e-07	0	44	0	326107136	20	4466
2026-01-19 11:58:06.39	237.89	19.23	-29.5	-31.4	15.0	1.50e-06	0	44	0	328204288	20	4494
2026-01-19 11:58:07.40	238.11	19.29	-29.5	-31.4	15.0	0.00e+00	0	44	0	330301440	20	4490
2026-01-19 11:58:08.40	238.31	19.36	-29.6	-31.6	14.9	7.00e-07	0	44	0	332398592	20	4549
2026-01-19 11:58:09.40	238.53	19.43	-29.7	-31.8	14.8	7.00e-07	0	44	0	334495744	20	4616
2026-01-19 11:58:10.40	238.74	19.49	-29.7	-31.8	14.8	0.00e+00	0	43	0	335544320	20	4609
2026-01-19 11:58:11.41	238.95	19.56	-29.7	-31.9	14.7	7.00e-07	0	44	0	337641472	20	4630
2026-01-19 11:58:12.41	239.16	19.62	-29.7	-31.8	14.8	0.00e+00	0	44	0	339738624	20	4608
2026-01-19 11:58:13.41	239.38	19.69	-29.6	-31.6	14.9	0.00e+00	0	44	0	341835776	20	4548
2026-01-19 11:58:14.41	239.59	19.76	-29.6	-31.6	14.9	0.00e+00	0	44	0	343932928	20	4540
2026-01-19 11:58:15.42	239.81	19.82	-29.7	-31.8	14.8	0.00e+00	0	44	0	344981504	20	4587
2026-01-19 11:58:16.42	240.03	19.89	-29.7	-31.9	14.7	0.00e+00	0	44	0	347078656	20	4635
2026-01-19 11:58:17.43	240.25	19.95	-29.8	-32.1	14.6	0.00e+00	0	44	0	349175808	20	4691
2026-01-19 11:58:18.43	240.47	20.02	-29.8	-32.0	14.7	7.00e-07	0	44	0	351272960	20	4671
2026-01-19 11:58:19.43	240.69	20.08	-29.8	-32.1	14.6	0.00e+00	0	43	0	352321536	20	4708
2026-01-19 11:58:20.43	240.91	20.14	-29.8	-32.2	14.6	0.00e+00	0	43	0	354418688	20	4720
2026-01-19 11:58:21.43	241.13	20.21	-29.8	-32.1	14.6	0.00e+00	0	44	0	356515840	20	4705
2026-01-19 11:58:22.43	241.35	20.27	-29.8	-32.1	14.6	0.00e+00	0	44	0	358612992	20	4698
2026-01-19 11:58:23.43	241.57	20.33	-29.9	-32.4	14.4	7.00e-07	0	44	0	360710144	20	4818
2026-01-19 11:58:24.44	241.80	20.40	-30.0	-32.6	14.3	1.50e-06	0	44	0	361758720	20	4879
2026-01-19 11:58:25.44	242.02	20.46	-29.9	-32.3	14.5	7.00e-07	0	44	0	363855872	20	4764
2026-01-19 11:58:26.44	242.25	20.52	-29.9	-32.4	14.5	7.00e-07	0	44	0	365953024	20	4799
2026-01-19 11:58:27.45	242.48	20.58	-30.0	-32.7	14.3	2.20e-06	0	44	0	368050176	20	4920
2026-01-19 11:58:28.44	242.70	20.64	-30.1	-32.9	14.2	2.20e-06	0	43	0	370147328	20	4969
2026-01-19 11:58:29.45	242.94	20.71	-30.2	-33.1	14.0	3.00e-06	0	44	0	371195904	20	5061
2026-01-19 11:58:30.46	243.17	20.77	-30.2	-33.3	13.9	3.00e-06	0	44	0	373293056	20	5105
2026-01-19 11:58:31.46	243.40	20.83	-30.3	-33.5	13.8	3.00e-06	0	44	0	375390208	20	5190
2026-01-19 11:58:32.46	243.63	20.89	-30.4	-33.7	13.7	1.14e-05	0	44	0	377487360	20	5248
2026-01-19 11:58:33.46	243.86	20.95	-30.4	-33.7	13.7	3.00e-06	0	44	0	379584512	20	5260
2026-01-19 11:58:34.47	244.10	21.01	-30.3	-33.5	13.8	6.80e-06	0	44	0	380633088	20	5203
2026-01-19 11:58:35.47	244.33	21.07	-30.4	-33.6	13.7	6.10e-06	0	44	0	382730240	20	5230
2026-01-19 11:58:36.47	244.56	21.13	-30.4	-33.8	13.6	9.10e-06	0	43	0	384827392	20	5317
2026-01-19 11:58:37.48	244.80	21.19	-30.5	-33.9	13.6	6.10e-06	0	44	0	386924544	20	5342
2026-01-19 11:58:38.48	245.04	21.25	-30.7	-34.0	13.1	1.06e-05	0	44	0	389021696	21	5280
2026-01-19 11:58:39.49	245.28	21.30	-30.8	-34.2	13.0	3.58e-05	0	44	0	390070272	21	5366
2026-01-19 11:58:40.48	245.51	21.36	-30.8	-34.4	12.9	2.89e-05	0	44	0	392167424	21	5417
2026-01-19 11:58:41.49	245.75	21.42	-30.8	-34.5	12.8	7.01e-05	0	44	0	394264576	21	5467
2026-01-19 11:58:42.49	245.99	21.48	-30.9	-34.5	12.8	5.41e-05	0	44	0	396361728	21	5486
2026-01-19 11:58:43.49	246.23	21.53	-30.9	-34.6	12.8	5.95e-05	0	44	0	397410304	21	5510
2026-01-19 11:58:44.49	246.48	21.59	-30.9	-34.6	12.8	6.94e-05	0	43	0	399507456	21	5495
2026-01-19 11:58:45.50	246.72	21.64	-30.7	-33.9	13.2	3.12e-05	0	43	0	401604608	21	5230
2026-01-19 11:58:46.50	246.96	21.70	-30.6	-33.8	13.3	1.52e-05	0	44	0	403701760	21	5177
2026-01-19 11:58:47.51	247.21	21.76	-30.5	-33.5	13.5	1.67e-05	0	44	0	405798912	21	5069
2026-01-19 11:58:48.51	247.46	21.81	-30.3	-33.0	13.8	7.60e-06	0	44	0	407896064	21	4905
2026-01-19 11:58:49.52	247.70	21.86	-30.2	-32.7	14.0	3.80e-06	0	43	0	408944640	21	4801
2026-01-19 11:58:50.52	247.95	21.92	-30.3	-32.9	13.9	2.20e-06	0	44	0	411041792	21	4863
2026-01-19 11:58:51.52	248.20	21.97	-30.3	-32.9	13.9	3.80e-06	0	44	0	413138944	21	4869
2026-01-19 11:58:52.51	248.44	22.02	-30.4	-33.1	13.8	7.60e-06	0	44	0	415236096	21	4912
2026-01-19 11:58:53.51	248.69	22.08	-30.4	-33.1	13.7	3.00e-06	0	44	0	416284672	21	4945
2026-01-19 11:58:54.51	248.94	22.13	-30.4	-33.2	13.7	9.10e-06	0	44	0	418381824	21	4949
2026-01-19 11:58:55.52	249.20	22.18	-30.5	-33.3	13.7	9.10e-06	0	44	0	420478976	21	5002
2026-01-19 11:58:56.52	249.45	22.23	-30.4	-33.2	13.7	6.10e-06	0	44	0	422576128	21	4952
2026-01-19 11:58:57.52	249.70	22.28	-30.4	-33.1	13.8	8.30e-06	0	44	0	424673280	21	4919
2026-01-19 11:58:58.52	249.95	22.33	-30.4	-33.2	13.7	9.90e-06	0	44	0	425721856	21	4982
2026-01-19 11:58:59.52	250.21	22.38	-30.4	-33.1	13.8	5.30e-06	0	44	0	427819008	21	4935
2026-01-19 11:59:00.52	250.46	22.43	-30.4	-33.3	13.7	3.80e-06	0	44	0	429916160	21	4999
2026-01-19 11:59:01.53	250.72	22.48	-30.4	-33.2	13.7	6.10e-06	0	44	0	432013312	21	4969
2026-01-19 11:59:02.53	250.98	22.53	-30.3	-33.0	13.9	1.50e-06	0	44	0	434110464	21	4884
2026-01-19 11:59:03.54	251.24	22.58	-30.4	-33.1	13.8	1.29e-05	0	44	0	435159040	21	4919
2026-01-19 11:59:04.54	251.49	22.62	-30.5	-33.5	13.5	6.80e-06	0	44	0	437256192	21	5065
2026-01-19 11:59:05.54	251.75	22.67	-30.6	-33.8	13.3	1.06e-05	0	44	0	439353344	21	5187
2026-01-19 11:59:06.54	252.01	22.72	-30.8	-34.3	13.1	9.90e-06	0	44	0	441450496	21	5365
2026-01-19 11:59:07.55	252.27	22.76	-30.9	-34.5	12.8	5.11e-05	0	44	0	442499072	21	5475
2026-01-19 11:59:08.54	252.53	22.81	-30.9	-34.7	12.8	5.64e-05	0	44	0	444596224	21	5528
2026-01-19 11:59:09.55	252.80	22.85	-31.0	-34.4	12.7	8.01e-05	0	44	0	446693376	22	5313
2026-01-19 11:59:10.55	253.06	22.90	-31.1	-34.6	12.6	1.08e-04	0	44	0	448790528	22	5375
2026-01-19 11:59:11.56	253.32	22.94	-31.1	-34.5	12.6	1.28e-04	0	44	0	450887680	22	5345
2026-01-19 11:59:12.56	253.59	22.98	-30.9	-34.1	12.8	6.56e-05	0	44	0	452984832	22	5201
2026-01-19 11:59:13.57	253.85	23.03	-30.9	-34.0	13.0	5.26e-05	0	44	0	454033408	22	5134
2026-01-19 11:59:14.57	254.12	23.07	-30.8	-33.7	13.1	3.43e-05	0	44	0	456130560	22	5043
2026-01-19 11:59:15.57	254.38	23.11	-30.7	-33.5	13.3	2.51e-05	0	44	0	458227712	22	4958
2026-01-19 11:59:16.58	254.65	23.15	-30.7	-33.5	13.3	1.60e-05	0	44	0	460324864	22	4950
2026-01-19 11:59:17.59	254.92	23.19	-30.8	-33.9	13.0	2.13e-05	0	44	0	461373440	22	5095
2026-01-19 11:59:18.60	255.19	23.23	-30.9	-33.9	13.0	3.58e-05	0	44	0	463470592	22	5100
2026-01-19 11:59:19.60	255.46	23.27	-30.8	-33.7	13.2	2.89e-05	0	44	0	465567744	22	5017
2026-01-19 11:59:20.61	255.73	23.31	-30.8	-33.8	13.1	1.44e-05	0	44	0	467664896	22	5070
2026-01-19 11:59:21.61	256.00	23.35	-30.8	-33.9	13.1	2.67e-05	0	44	0	469762048	22	5094
2026-01-19 11:59:22.61	256.27	23.38	-30.8	-33.7	13.2	2.89e-05	0	44	0	470810624	22	5032
2026-01-19 11:59:23.60	256.54	23.42	-30.8	-33.7	13.1	2.59e-05	0	44	0	472907776	22	5023
2026-01-19 11:59:24.61	256.82	23.46	-30.9	-34.0	12.9	3.50e-05	0	44	0	475004928	22	5163
2026-01-19 11:59:25.61	257.09	23.49	-30.9	-33.9	13.0	5.95e-05	0	44	0	477102080	22	5101
2026-01-19 11:59:26.61	257.36	23.53	-30.7	-33.5	13.3	3.50e-05	0	44	0	479199232	22	4961
2026-01-19 11:59:27.61	257.64	23.56	-30.7	-33.4	13.4	1.60e-05	0	44	0	480247808	22	4917
2026-01-19 11:59:28.61	257.91	23.60	-30.7	-33.6	13.2	2.51e-05	0	44	0	482344960	22	5005
2026-01-19 11:59:29.62	258.19	23.63	-30.9	-33.9	13.0	2.89e-05	0	44	0	484442112	22	5103
2026-01-19 11:59:30.62	258.46	23.66	-30.9	-33.9	13.0	2.82e-05	0	44	0	486539264	22	5118
2026-01-19 11:59:31.62	258.74	23.69	-30.9	-34.0	13.0	5.18e-05	0	44	0	488636416	22	5131
2026-01-19 11:59:32.62	259.01	23.72	-31.0	-34.2	12.8	3.96e-05	0	44	0	489684992	22	5231
2026-01-19 11:59:33.62	259.29	23.75	-31.0	-34.2	12.8	5.03e-05	0	44	0	491782144	22	5216
2026-01-19 11:59:34.62	259.57	23.78	-31.0	-34.4	12.7	6.56e-05	0	44	0	493879296	22	5289
2026-01-19 11:59:35.62	259.84	23.81	-31.0	-34.3	12.7	6.25e-05	0	44	0	495976448	22	5270
2026-01-19 11:59:36.62	260.12	23.84	-31.1	-34.4	12.7	8.62e-05	0	44	0	498073600	22	5320
2026-01-19 11:59:37.63	260.40	23.87	-31.1	-34.5	12.6	8.31e-05	0	44	0	499122176	22	5346
2026-01-19 11:59:38.63	260.68	23.90	-31.0	-34.3	12.7	5.95e-05	0	44	0	501219328	22	5277
2026-01-19 11:59:39.63	260.96	23.92	-31.1	-34.5	12.7	7.55e-05	0	44	0	503316480	22	5325
2026-01-19 11:59:40.64	261.25	23.95	-31.2	-34.7	12.5	1.46e-04	0	44	0	505413632	22	5435
2026-01-19 11:59:41.64	261.53	23.97	-31.3	-35.0	12.3	1.25e-04	0	44	0	506462208	22	5561
2026-01-19 11:59:42.64	261.81	24.00	-31.4	-35.6	11.9	4.13e-04	0	44	0	508559360	22	5806
2026-01-19 11:59:43.64	262.09	24.02	-31.5	-35.3	11.8	4.12e-04	0	44	0	510656512	23	5563
2026-01-19 11:59:44.63	262.37	24.05	-31.5	-35.4	11.7	5.19e-04	0	44	0	512753664	23	5620
2026-01-19 11:59:45.63	262.65	24.07	-31.5	-35.2	11.8	5.05e-04	0	44	0	514850816	23	5541
2026-01-19 11:59:46.64	262.94	24.09	-31.5	-35.1	11.9	4.26e-04	0	44	0	515899392	23	5495
2026-01-19 11:59:47.64	263.22	24.11	-31.3	-34.7	12.1	3.15e-04	0	44	0	517996544	23	5324
2026-01-19 11:59:48.64	263.50	24.13	-31.4	-34.8	12.0	3.09e-04	0	44	0	520093696	23	5374
2026-01-19 11:59:49.64	263.78	24.15	-31.3	-34.7	12.2	2.18e-04	0	44	0	522190848	23	5316
2026-01-19 11:59:50.65	264.07	24.17	-31.4	-35.1	11.9	2.68e-04	0	44	0	524288000	23	5461
2026-01-19 11:59:51.66	264.36	24.19	-31.3	-34.7	12.2	3.54e-04	0	44	0	525336576	23	5305
2026-01-19 11:59:52.66	264.64	24.20	-31.0	-33.9	12.7	1.41e-04	0	43	0	527433728	23	4989
2026-01-19 11:59:53.67	264.93	24.22	-30.8	-33.3	13.1	4.88e-05	0	44	0	529530880	23	4766
2026-01-19 11:59:54.67	265.22	24.24	-30.8	-33.6	13.2	1.75e-05	0	44	0	531628032	22	5001
2026-01-19 11:59:55.67	265.50	24.25	-30.8	-33.7	13.2	2.05e-05	0	44	0	533725184	22	5041
2026-01-19 11:59:56.67	265.79	24.27	-30.8	-33.6	13.3	3.20e-05	0	44	0	534773760	22	4979
2026-01-19 11:59:57.67	266.07	24.28	-30.6	-33.1	13.6	1.83e-05	0	44	0	536870912	22	4796
2026-01-19 11:59:58.68	266.36	24.29	-30.4	-32.7	13.8	3.80e-06	0	44	0	538968064	22	4675
2026-01-19 11:59:59.68	266.65	24.31	-30.5	-32.8	13.8	3.00e-06	0	44	0	541065216	22	4704
2026-01-19 12:00:00.68	266.93	24.32	-30.4	-32.6	13.9	3.00e-06	0	44	0	543162368	22	4624
2026-01-19 12:00:01.68	267.22	24.33	-30.4	-32.7	13.9	1.50e-06	0	44	0	544210944	22	4669
2026-01-19 12:00:02.69	267.51	24.34	-30.5	-32.9	13.8	5.30e-06	0	44	0	546308096	22	4744
2026-01-19 12:00:03.68	267.80	24.35	-30.6	-33.0	13.6	4.50e-06	0	44	0	548405248	22	4778
2026-01-19 12:00:04.69	268.09	24.36	-30.6	-33.3	13.5	1.06e-05	0	44	0	550502400	22	4878
2026-01-19 12:00:05.69	268.37	24.36	-30.8	-33.7	13.2	1.83e-05	0	44	0	551550976	22	5024
2026-01-19 12:00:06.70	268.66	24.37	-31.0	-34.2	12.8	3.43e-05	0	44	0	553648128	22	5215
2026-01-19 12:00:07.71	268.95	24.38	-31.0	-34.3	12.8	7.40e-05	0	44	0	555745280	22	5243
2026-01-19 12:00:08.71	269.24	24.38	-31.0	-34.4	12.7	6.56e-05	0	44	0	557842432	22	5280
2026-01-19 12:00:09.71	269.53	24.39	-30.9	-34.0	13.0	5.41e-05	0	44	0	559939584	22	5146
2026-01-19 12:00:10.71	269.82	24.39	-30.8	-33.6	13.2	2.59e-05	0	44	0	562036736	22	5007
2026-01-19 12:00:11.72	270.11	24.40	-30.6	-33.2	13.5	1.60e-05	0	44	0	563085312	22	4857
2026-01-19 12:00:12.72	270.40	24.40	-30.6	-33.1	13.6	1.52e-05	0	44	0	565182464	22	4816
2026-01-19 12:00:13.72	270.68	24.40	-30.6	-33.1	13.6	1.44e-05	0	44	0	567279616	22	4793
2026-01-19 12:00:14.72	270.97	24.40	-30.5	-32.8	13.7	6.10e-06	0	44	0	569376768	22	4711
2026-01-19 12:00:15.72	271.26	24.40	-30.5	-32.9	13.8	6.10e-06	0	44	0	570425344	22	4728
2026-01-19 12:00:16.73	271.55	24.40	-30.6	-33.1	13.6	9.90e-06	0	44	0	572522496	22	4799
2026-01-19 12:00:17.73	271.84	24.40	-30.8	-33.6	13.3	9.10e-06	0	44	0	574619648	22	4969
2026-01-19 12:00:18.73	272.13	24.40	-30.8	-33.6	13.3	1.44e-05	0	44	0	576716800	22	4991
2026-01-19 12:00:19.73	272.42	24.40	-30.7	-33.5	13.4	1.22e-05	0	44	0	578813952	22	4941
2026-01-19 12:00:20.73	272.70	24.39	-30.6	-33.2	13.6	9.90e-06	0	44	0	579862528	22	4825
2026-01-19 12:00:21.73	272.99	24.39	-30.6	-33.1	13.6	3.00e-06	0	44	0	581959680	22	4817
2026-01-19 12:00:22.74	273.28	24.38	-30.5	-32.9	13.8	9.10e-06	0	44	0	584056832	22	4727
2026-01-19 12:00:23.74	273.57	24.38	-30.4	-32.6	13.9	2.20e-06	0	44	0	586153984	22	4642
2026-01-19 12:00:24.74	273.86	24.37	-30.4	-32.6	13.9	6.80e-06	0	44	0	588251136	22	4620
2026-01-19 12:00:25.74	274.14	24.36	-30.5	-32.8	13.8	8.30e-06	0	44	0	589299712	22	4694
2026-01-19 12:00:26.75	274.43	24.36	-30.5	-33.0	13.7	5.30e-06	0	44	0	591396864	22	4758
2026-01-19 12:00:27.75	274.72	24.35	-30.6	-33.2	13.6	3.00e-06	0	44	0	593494016	22	4834
2026-01-19 12:00:28.76	275.01	24.34	-30.6	-33.2	13.5	6.10e-06	0	44	0	595591168	22	4833
2026-01-19 12:00:29.76	275.30	24.33	-30.6	-33.3	13.5	1.44e-05	0	44	0	597688320	22	4869
2026-01-19 12:00:30.76	275.58	24.32	-30.7	-33.4	13.5	7.60e-06	0	44	0	598736896	22	4899
2026-01-19 12:00:31.76	275.87	24.31	-30.6	-33.1	13.6	1.52e-05	0	44	0	600834048	22	4808
2026-01-19 12:00:32.76	276.16	24.29	-30.6	-33.1	13.6	1.14e-05	0	44	0	602931200	22	4819
2026-01-19 12:00:33.76	276.44	24.28	-30.5	-32.9	13.7	6.10e-06	0	44	0	605028352	22	4750
2026-01-19 12:00:34.76	276.73	24.27	-30.4	-32.7	13.9	1.50e-06	0	44	0	607125504	22	4667
2026-01-19 12:00:35.76	277.01	24.25	-30.5	-32.7	13.8	3.80e-06	0	44	0	608174080	22	4676
2026-01-19 12:00:36.76	277.30	24.24	-30.6	-33.2	13.6	5.30e-06	0	44	0	610271232	22	4852
2026-01-19 12:00:37.77	277.59	24.22	-30.6	-33.2	13.6	1.06e-05	0	44	0	612368384	22	4850
2026-01-19 12:00:38.77	277.87	24.21	-30.7	-33.4	13.4	1.37e-05	0	44	0	614465536	22	4915
2026-01-19 12:00:39.77	278.15	24.19	-30.8	-33.7	13.3	1.06e-05	0	44	0	615514112	22	5011
2026-01-19 12:00:40.77	278.44	24.17	-30.9	-34.1	13.0	3.20e-05	0	44	0	617611264	22	5163
2026-01-19 12:00:41.78	278.72	24.15	-31.0	-34.4	12.7	5.11e-05	0	44	0	619708416	22	5295
2026-01-19 12:00:42.78	279.01	24.13	-31.1	-34.5	12.7	7.17e-05	0	44	0	621805568	22	5347
2026-01-19 12:00:43.79	279.29	24.11	-31.4	-35.3	12.1	1.52e-04	0	44	0	623902720	22	5675
2026-01-19 12:00:44.80	279.58	24.09	-31.3	-35.0	12.4	2.82e-04	0	44	0	624951296	22	5539
2026-01-19 12:00:45.79	279.86	24.07	-31.0	-34.4	12.8	7.78e-05	0	44	0	627048448	22	5286
2026-01-19 12:00:46.80	280.14	24.05	-30.9	-34.0	13.0	3.43e-05	0	44	0	629145600	22	5141
2026-01-19 12:00:47.81	280.43	24.02	-30.8	-33.7	13.2	2.05e-05	0	44	0	631242752	22	5004
2026-01-19 12:00:48.82	280.71	24.00	-30.8	-33.6	13.3	1.52e-05	0	44	0	633339904	22	4971
2026-01-19 12:00:49.82	280.99	23.98	-30.8	-33.6	13.3	1.29e-05	0	44	0	634388480	22	4977
2026-01-19 12:00:50.83	281.27	23.95	-30.7	-33.3	13.5	1.98e-05	0	44	0	636485632	22	4895
2026-01-19 12:00:51.83	281.55	23.92	-30.7	-33.5	13.4	7.60e-06	0	44	0	638582784	22	4952
2026-01-19 12:00:52.83	281.83	23.90	-30.7	-33.3	13.5	1.22e-05	0	44	0	640679936	22	4880
2026-01-19 12:00:53.84	282.11	23.87	-30.6	-33.2	13.5	8.30e-06	0	44	0	642777088	22	4839
2026-01-19 12:00:54.83	282.39	23.84	-30.6	-33.2	13.6	7.60e-06	0	44	0	643825664	22	4834
2026-01-19 12:00:55.84	282.67	23.82	-30.8	-33.6	13.3	1.90e-05	0	44	0	645922816	22	4999
2026-01-19 12:00:56.84	282.95	23.79	-30.8	-33.7	13.2	1.67e-05	0	44	0	648019968	22	5019
2026-01-19 12:00:57.84	283.22	23.76	-30.9	-34.0	13.1	2.21e-05	0	44	0	650117120	22	5139
2026-01-19 12:00:58.85	283.50	23.73	-31.0	-34.1	12.9	4.57e-05	0	44	0	652214272	22	5188
2026-01-19 12:00:59.86	283.78	23.69	-30.8	-33.5	13.3	2.28e-05	0	44	0	653262848	22	4960
2026-01-19 12:01:00.86	284.06	23.66	-30.6	-33.1	13.7	1.06e-05	0	44	0	655360000	22	4791
2026-01-19 12:01:01.87	284.33	23.63	-30.6	-33.1	13.7	6.10e-06	0	44	0	657457152	22	4818
2026-01-19 12:01:02.87	284.61	23.60	-30.7	-33.4	13.5	6.10e-06	0	44	0	659554304	22	4906
2026-01-19 12:01:03.87	284.88	23.56	-30.6	-33.2	13.6	8.30e-06	0	44	0	661651456	22	4827
2026-01-19 12:01:04.87	285.15	23.53	-30.7	-33.4	13.4	6.80e-06	0	44	0	662700032	22	4910
2026-01-19 12:01:05.86	285.42	23.50	-30.6	-33.2	13.5	1.29e-05	0	44	0	664797184	22	4850
2026-01-19 12:01:06.87	285.70	23.46	-30.4	-32.7	13.9	5.30e-06	0	44	0	666894336	22	4653
2026-01-19 12:01:07.87	285.97	23.42	-30.3	-32.3	14.1	2.20e-06	0	44	0	668991488	22	4532
2026-01-19 12:01:08.87	286.24	23.39	-30.2	-32.7	14.2	1.50e-06	0	44	0	670040064	21	4770
2026-01-19 12:01:09.87	286.51	23.35	-30.2	-32.5	14.3	7.00e-07	0	44	0	672137216	21	4698
2026-01-19 12:01:10.87	286.78	23.31	-30.3	-32.9	14.1	2.20e-06	0	44	0	674234368	21	4834
2026-01-19 12:01:11.87	287.04	23.27	-30.2	-32.7	14.2	1.50e-06	0	44	0	676331520	21	4763
2026-01-19 12:01:12.88	287.31	23.24	-30.3	-32.9	14.0	7.00e-07	0	44	0	678428672	21	4850
2026-01-19 12:01:13.88	287.58	23.20	-30.2	-32.5	14.3	7.00e-07	0	44	0	679477248	21	4697
2026-01-19 12:01:14.89	287.85	23.16	-30.1	-32.3	14.4	7.00e-07	0	44	0	681574400	21	4646
2026-01-19 12:01:15.88	288.11	23.12	-30.1	-32.3	14.5	7.00e-07	0	44	0	683671552	21	4630
2026-01-19 12:01:16.89	288.38	23.07	-30.0	-32.1	14.5	0.00e+00	0	44	0	685768704	21	4586
2026-01-19 12:01:17.89	288.65	23.03	-30.0	-32.1	14.6	0.00e+00	0	44	0	687865856	21	4564
2026-01-19 12:01:18.90	288.91	22.99	-30.0	-32.1	14.5	1.50e-06	0	44	0	688914432	21	4573
2026-01-19 12:01:19.90	289.17	22.95	-30.1	-32.3	14.4	0.00e+00	0	44	0	691011584	21	4639
2026-01-19 12:01:20.91	289.44	22.90	-30.0	-32.0	14.6	0.00e+00	0	44	0	693108736	21	4558
2026-01-19 12:01:21.91	289.70	22.86	-30.0	-31.9	14.7	0.00e+00	0	44	0	695205888	21	4523
2026-01-19 12:01:22.91	289.96	22.81	-29.9	-31.7	14.8	0.00e+00	0	44	0	697303040	21	4462
2026-01-19 12:01:23.91	290.22	22.77	-30.0	-32.0	14.6	0.00e+00	0	44	0	698351616	21	4535
2026-01-19 12:01:24.91	290.48	22.72	-29.8	-31.5	14.9	0.00e+00	0	44	0	700448768	21	4394
2026-01-19 12:01:25.91	290.74	22.68	-29.8	-32.0	14.9	0.00e+00	0	44	0	702545920	20	4639
2026-01-19 12:01:26.91	291.00	22.63	-29.6	-31.6	15.1	0.00e+00	0	44	0	704643072	20	4520
2026-01-19 12:01:27.90	291.25	22.59	-29.6	-31.6	15.2	0.00e+00	0	44	0	706740224	20	4505
2026-01-19 12:01:28.90	291.51	22.54	-29.6	-31.5	15.2	0.00e+00	0	44	0	707788800	20	4503
2026-01-19 12:01:29.90	291.76	22.49	-29.4	-31.1	15.4	0.00e+00	0	44	0	709885952	20	4383
2026-01-19 12:01:30.90	292.02	22.44	-29.3	-30.8	15.6	0.00e+00	0	44	0	711983104	20	4281
2026-01-19 12:01:31.90	292.27	22.39	-29.3	-31.2	15.8	0.00e+00	0	44	0	714080256	19	4485
2026-01-19 12:01:32.90	292.52	22.34	-29.1	-30.9	16.0	0.00e+00	0	44	0	715128832	19	4399
2026-01-19 12:01:33.90	292.78	22.29	-29.2	-31.1	15.8	0.00e+00	0	44	0	717225984	19	4467
2026-01-19 12:01:34.90	293.03	22.24	-29.3	-31.3	15.7	0.00e+00	0	44	0	719323136	19	4533
2026-01-19 12:01:35.90	293.28	22.19	-29.3	-31.4	15.7	0.00e+00	0	44	0	721420288	19	4545
2026-01-19 12:01:36.91	293.53	22.14	-29.4	-31.5	15.6	7.00e-07	0	44	0	723517440	19	4585
2026-01-19 12:01:37.91	293.78	22.09	-29.3	-31.3	15.7	0.00e+00	0	44	0	724566016	19	4515
2026-01-19 12:01:38.92	294.03	22.04	-29.3	-31.2	15.8	0.00e+00	0	44	0	726663168	19	4497
2026-01-19 12:01:39.92	294.28	21.98	-29.3	-31.3	15.7	0.00e+00	0	44	0	728760320	19	4541
2026-01-19 12:01:40.92	294.52	21.93	-29.6	-32.0	15.2	0.00e+00	0	44	0	730857472	19	4760
2026-01-19 12:01:41.93	294.77	21.88	-29.6	-32.1	15.2	0.00e+00	0	44	0	732954624	19	4769
2026-01-19 12:01:42.93	295.02	21.82	-29.9	-32.7	14.9	0.00e+00	0	44	0	734003200	19	4971
2026-01-19 12:01:43.94	295.26	21.77	-30.0	-32.9	14.7	0.00e+00	0	44	0	736100352	19	5060
2026-01-19 12:01:44.94	295.51	21.71	-30.1	-32.7	14.4	0.00e+00	0	44	0	738197504	20	4898
2026-01-19 12:01:45.93	295.75	21.66	-30.3	-33.4	14.0	1.50e-06	0	44	0	740294656	20	5136
2026-01-19 12:01:46.94	295.99	21.60	-30.1	-32.9	14.4	3.00e-06	0	44	0	742391808	20	4934
2026-01-19 12:01:47.95	296.23	21.55	-30.1	-32.7	14.4	7.00e-07	0	44	0	743440384	20	4878
2026-01-19 12:01:48.96	296.48	21.49	-30.0	-32.7	14.5	0.00e+00	0	44	0	745537536	20	4868
2026-01-19 12:01:49.96	296.71	21.44	-29.9	-32.2	14.8	0.00e+00	0	44	0	747634688	20	4719
2026-01-19 12:01:50.96	296.95	21.38	-29.7	-31.8	15.0	0.00e+00	0	44	0	749731840	20	4592
2026-01-19 12:01:51.97	297.19	21.32	-29.7	-31.8	15.0	0.00e+00	0	44	0	751828992	20	4594
2026-01-19 12:01:52.97	297.43	21.26	-29.7	-31.8	15.0	0.00e+00	0	44	0	752877568	20	4583
2026-01-19 12:01:53.97	297.66	21.20	-29.6	-31.6	15.1	0.00e+00	0	44	0	754974720	20	4529
2026-01-19 12:01:54.97	297.90	21.15	-29.5	-31.4	15.3	0.00e+00	0	44	0	757071872	20	4455
2026-01-19 12:01:55.97	298.13	21.09	-29.5	-31.3	15.3	0.00e+00	0	44	0	759169024	20	4421
2026-01-19 12:01:56.97	298.37	21.03	-29.6	-31.6	15.1	0.00e+00	0	44	0	760217600	20	4527
2026-01-19 12:01:57.98	298.60	20.97	-29.9	-32.2	14.8	0.00e+00	0	44	0	762314752	20	4726
2026-01-19 12:01:58.98	298.83	20.91	-30.2	-33.1	14.2	0.00e+00	0	44	0	764411904	20	5018
2026-01-19 12:01:59.99	299.06	20.85	-30.4	-33.6	13.8	3.00e-06	0	44	0	766509056	20	5224
2026-01-19 12:02:00.98	299.29	20.79	-30.6	-33.8	13.4	7.60e-06	0	44	0	768606208	21	5167
2026-01-19 12:02:01.99	299.52	20.73	-30.7	-33.9	13.3	1.37e-05	0	44	0	769654784	21	5230
2026-01-19 12:02:02.99	299.75	20.67	-30.8	-34.3	13.1	3.05e-05	0	44	0	771751936	21	5358
2026-01-19 12:02:03.99	299.97	20.61	-30.8	-34.3	13.1	2.97e-05	0	44	0	773849088	21	5356
2026-01-19 12:02:04.99	300.20	20.55	-30.8	-34.2	13.1	2.51e-05	0	44	0	775946240	21	5331
2026-01-19 12:02:06.00	300.43	20.48	-30.8	-34.3	13.1	2.51e-05	0	44	0	778043392	21	5362
2026-01-19 12:02:07.00	300.65	20.42	-30.8	-34.1	13.2	1.90e-05	0	44	0	779091968	21	5297
2026-01-19 12:02:08.01	300.88	20.36	-30.8	-34.2	13.1	3.05e-05	0	44	0	781189120	21	5326
2026-01-19 12:02:09.01	301.10	20.30	-30.8	-34.4	13.0	2.97e-05	0	44	0	783286272	21	5390
2026-01-19 12:02:10.01	301.32	20.23	-30.6	-33.6	13.5	2.21e-05	0	44	0	785383424	21	5096
2026-01-19 12:02:11.01	301.54	20.17	-30.3	-32.9	13.9	3.00e-06	0	44	0	787480576	21	4858
2026-01-19 12:02:12.01	301.76	20.11	-30.2	-32.6	14.1	2.20e-06	0	44	0	788529152	21	4747
2026-01-19 12:02:13.01	301.98	20.04	-30.2	-32.6	14.2	7.00e-07	0	44	0	790626304	21	4738
2026-01-19 12:02:14.02	302.20	19.98	-30.2	-32.5	14.3	0.00e+00	0	44	0	792723456	21	4714
2026-01-19 12:02:15.02	302.42	19.91	-30.4	-33.1	13.9	3.80e-06	0	44	0	794820608	21	4903
2026-01-19 12:02:16.02	302.63	19.85	-30.3	-33.0	13.9	1.50e-06	0	44	0	796917760	21	4866
2026-01-19 12:02:17.02	302.85	19.79	-30.6	-33.6	13.5	1.50e-06	0	44	0	797966336	21	5110
2026-01-19 12:02:18.03	303.06	19.72	-30.6	-33.6	13.5	8.30e-06	0	44	0	800063488	21	5123
2026-01-19 12:02:19.03	303.28	19.66	-30.7	-34.1	13.2	1.83e-05	0	44	0	802160640	21	5294
2026-01-19 12:02:20.04	303.49	19.59	-30.7	-33.9	13.3	2.36e-05	0	44	0	804257792	21	5228
2026-01-19 12:02:21.04	303.70	19.52	-30.8	-34.3	13.0	2.51e-05	0	44	0	806354944	21	5364
2026-01-19 12:02:22.05	303.92	19.46	-30.9	-34.5	12.9	3.50e-05	0	44	0	807403520	21	5471
2026-01-19 12:02:23.05	304.13	19.39	-30.9	-34.6	12.8	4.42e-05	0	44	0	809500672	21	5490
2026-01-19 12:02:24.05	304.33	19.33	-31.0	-34.8	12.7	6.40e-05	0	44	0	811597824	21	5574
2026-01-19 12:02:25.06	304.54	19.26	-30.9	-34.6	12.8	5.56e-05	0	44	0	813694976	21	5492
2026-01-19 12:02:26.06	304.75	19.19	-30.8	-34.4	13.0	4.19e-05	0	44	0	815792128	21	5401
2026-01-19 12:02:27.06	304.96	19.13	-30.8	-34.4	12.9	4.57e-05	0	44	0	816840704	21	5413
2026-01-19 12:02:28.06	305.16	19.06	-30.9	-34.5	12.9	5.11e-05	0	44	0	818937856	21	5467
2026-01-19 12:02:29.06	305.37	18.99	-30.9	-34.7	12.8	5.79e-05	0	44	0	821035008	21	5532
2026-01-19 12:02:30.06	305.57	18.93	-31.1	-34.7	12.4	8.31e-05	0	44	0	823132160	22	5443
2026-01-19 12:02:31.06	305.77	18.86	-31.4	-35.5	11.9	2.77e-04	0	44	0	824180736	22	5759
2026-01-19 12:02:32.06	305.98	18.79	-31.2	-35.0	12.2	2.50e-04	0	44	0	826277888	22	5537
2026-01-19 12:02:33.07	306.18	18.72	-31.1	-34.7	12.4	1.49e-04	0	44	0	828375040	22	5411
2026-01-19 12:02:34.08	306.38	18.65	-31.0	-34.4	12.6	9.23e-05	0	44	0	830472192	22	5290
2026-01-19 12:02:35.08	306.58	18.59	-31.0	-34.3	12.7	9.61e-05	0	44	0	832569344	22	5276
2026-01-19 12:02:36.08	306.78	18.52	-30.9	-34.1	12.8	7.62e-05	0	44	0	833617920	22	5191
2026-01-19 12:02:37.09	306.98	18.45	-30.9	-34.0	12.9	5.87e-05	0	44	0	835715072	22	5131
2026-01-19 12:02:38.09	307.17	18.38	-31.1	-34.5	12.5	8.85e-05	0	44	0	837812224	22	5342
2026-01-19 12:02:39.10	307.37	18.31	-30.8	-33.8	13.0	5.03e-05	0	44	0	839909376	22	5065
2026-01-19 12:02:40.11	307.57	18.24	-30.6	-33.2	13.4	1.98e-05	0	44	0	842006528	22	4865
2026-01-19 12:02:41.11	307.76	18.18	-30.5	-33.0	13.5	6.80e-06	0	44	0	843055104	22	4799
2026-01-19 12:02:42.10	307.95	18.11	-30.6	-33.1	13.5	9.10e-06	0	44	0	845152256	22	4821
2026-01-19 12:02:43.11	308.15	18.04	-30.6	-33.2	13.4	1.29e-05	0	44	0	847249408	22	4867
2026-01-19 12:02:44.11	308.34	17.97	-30.7	-33.4	13.3	9.90e-06	0	44	0	849346560	22	4937
2026-01-19 12:02:45.11	308.53	17.90	-30.6	-33.3	13.3	2.05e-05	0	44	0	851443712	22	4910
2026-01-19 12:02:46.11	308.72	17.83	-30.7	-33.4	13.2	1.90e-05	0	44	0	852492288	22	4942
2026-01-19 12:02:47.11	308.91	17.76	-30.7	-33.6	13.1	1.98e-05	0	44	0	854589440	22	5010
2026-01-19 12:02:48.11	309.10	17.69	-30.8	-33.8	13.0	3.05e-05	0	44	0	856686592	22	5083
2026-01-19 12:02:49.12	309.28	17.62	-31.0	-34.4	12.6	6.48e-05	0	44	0	858783744	22	5318
2026-01-19 12:02:50.12	309.47	17.55	-31.0	-34.5	12.5	1.14e-04	0	44	0	860880896	22	5342
2026-01-19 12:02:51.13	309.66	17.48	-31.0	-34.5	12.6	1.07e-04	0	44	0	861929472	22	5350
2026-01-19 12:02:52.13	309.84	17.41	-31.0	-34.5	12.5	1.13e-04	0	44	0	864026624	22	5354
2026-01-19 12:02:53.13	310.03	17.34	-31.1	-34.6	12.4	1.38e-04	0	44	0	866123776	22	5384
2026-01-19 12:02:54.14	310.21	17.27	-31.1	-34.6	12.4	1.40e-04	0	44	0	868220928	22	5419
2026-01-19 12:02:55.14	310.39	17.20	-31.1	-34.8	12.2	2.23e-04	0	44	0	869269504	22	5480
2026-01-19 12:02:56.15	310.58	17.13	-30.7	-33.6	13.1	5.87e-05	0	44	0	871366656	22	5015
2026-01-19 12:02:57.16	310.76	17.06	-30.7	-33.6	13.0	3.89e-05	0	44	0	873463808	22	5028
2026-01-19 12:02:58.17	310.94	16.99	-31.0	-34.3	12.6	6.63e-05	0	44	0	875560960	22	5283
2026-01-19 12:02:59.16	311.12	16.92	-31.0	-34.4	12.5	1.09e-04	0	44	0	877658112	22	5323
2026-01-19 12:03:00.16	311.30	16.85	-31.3	-35.1	12.0	1.96e-04	0	44	0	879755264	22	5635
2026-01-19 12:03:01.17	311.47	16.78	-31.4	-35.6	11.7	4.24e-04	0	44	0	880803840	22	5851
2026-01-19 12:03:02.17	311.65	16.71	-31.5	-35.5	11.4	9.49e-04	0	44	0	882900992	23	5703
2026-01-19 12:03:03.18	311.83	16.64	-31.7	-36.1	10.9	1.70e-03	0	44	0	884998144	23	5978
2026-01-19 12:03:04.18	312.00	16.57	-31.4	-35.1	11.7	1.21e-03	0	44	0	887095296	23	5494
2026-01-19 12:03:05.18	312.18	16.50	-31.0	-33.9	12.5	1.88e-04	0	44	0	888143872	23	5023
2026-01-19 12:03:06.18	312.35	16.42	-30.7	-33.6	13.1	5.72e-05	0	44	0	890241024	22	4995
2026-01-19 12:03:07.19	312.52	16.35	-30.6	-33.3	13.3	1.52e-05	0	44	0	892338176	22	4891
2026-01-19 12:03:08.19	312.70	16.28	-30.7	-33.5	13.1	1.75e-05	0	44	0	894435328	22	4962
2026-01-19 12:03:09.19	312.87	16.21	-30.7	-33.5	13.1	2.13e-05	0	44	0	896532480	22	4974
2026-01-19 12:03:10.20	313.04	16.14	-30.8	-33.9	12.8	3.89e-05	0	44	0	897581056	22	5120
2026-01-19 12:03:11.20	313.21	16.07	-31.0	-34.3	12.6	7.47e-05	0	44	0	899678208	22	5287
2026-01-19 12:03:12.21	313.38	16.00	-31.0	-34.4	12.5	1.11e-04	0	44	0	901775360	22	5326
2026-01-19 12:03:13.22	313.55	15.93	-30.9	-34.2	12.6	1.01e-04	0	44	0	903872512	22	5239
2026-01-19 12:03:14.22	313.71	15.86	-30.9	-34.1	12.7	9.07e-05	0	44	0	905969664	22	5205
2026-01-19 12:03:15.22	313.88	15.78	-30.8	-33.8	12.9	6.48e-05	0	44	0	907018240	22	5095
2026-01-19 12:03:16.22	314.05	15.71	-30.8	-33.9	12.8	4.42e-05	0	44	0	909115392	22	5143
2026-01-19 12:03:17.22	314.21	15.64	-30.9	-34.1	12.7	6.02e-05	0	44	0	911212544	22	5199
2026-01-19 12:03:18.22	314.37	15.57	-30.8	-33.7	12.9	6.56e-05	0	44	0	913309696	22	5058
2026-01-19 12:03:19.23	314.54	15.50	-31.0	-34.3	12.5	8.16e-05	0	44	0	915406848	22	5287
2026-01-19 12:03:20.23	314.70	15.43	-31.0	-34.3	12.6	9.38e-05	0	44	0	916455424	22	5281
2026-01-19 12:03:21.23	314.86	15.36	-31.2	-34.9	12.1	1.63e-04	0	44	0	918552576	22	5538
2026-01-19 12:03:22.23	315.02	15.29	-31.2	-35.0	12.0	2.60e-04	0	44	0	920649728	22	5600
2026-01-19 12:03:23.23	315.18	15.22	-31.3	-35.5	11.7	5.65e-04	0	44	0	922746880	22	5799
2026-01-19 12:03:24.24	315.35	15.15	-31.3	-35.2	11.9	5.42e-04	0	44	0	924844032	22	5667
2026-01-19 12:03:25.25	315.51	15.07	-31.1	-34.8	12.2	3.03e-04	0	44	0	925892608	22	5515
2026-01-19 12:03:26.25	315.66	15.00	-31.0	-34.4	12.5	1.65e-04	0	44	0	927989760	22	5323
2026-01-19 12:03:27.25	315.82	14.93	-30.9	-34.1	12.7	1.04e-04	0	44	0	930086912	22	5216
2026-01-19 12:03:28.25	315.98	14.86	-30.9	-34.1	12.6	7.40e-05	0	44	0	932184064	22	5209
2026-01-19 12:03:29.26	316.13	14.79	-30.8	-34.0	12.7	9.23e-05	0	44	0	934281216	22	5162
2026-01-19 12:03:30.26	316.29	14.72	-30.8	-33.9	12.8	5.87e-05	0	44	0	935329792	22	5144
2026-01-19 12:03:31.27	316.45	14.65	-30.9	-34.2	12.6	7.70e-05	0	44	0	937426944	22	5255
2026-01-19 12:03:32.27	316.60	14.58	-31.0	-34.5	12.4	1.27e-04	0	44	0	939524096	22	5361
2026-01-19 12:03:33.27	316.75	14.51	-31.2	-35.0	12.0	2.90e-04	0	44	0	941621248	22	5582
2026-01-19 12:03:34.27	316.90	14.43	-31.2	-35.1	11.9	3.19e-04	0	44	0	942669824	22	5636
2026-01-19 12:03:35.27	317.06	14.36	-31.3	-35.3	11.8	4.13e-04	0	44	0	944766976	22	5713
2026-01-19 12:03:36.27	317.21	14.29	-31.1	-34.8	12.1	2.92e-04	0	44	0	946864128	22	5496
2026-01-19 12:03:37.27	317.36	14.22	-30.9	-34.3	12.5	1.52e-04	0	44	0	948961280	22	5291
2026-01-19 12:03:38.28	317.51	14.15	-30.9	-34.2	12.6	1.16e-04	0	44	0	951058432	22	5238
2026-01-19 12:03:39.28	317.66	14.08	-31.0	-34.4	12.4	1.24e-04	0	44	0	952107008	22	5333
2026-01-19 12:03:40.29	317.81	14.01	-30.8	-33.9	12.7	7.62e-05	0	44	0	954204160	22	5146
2026-01-19 12:03:41.29	317.95	13.94	-30.8	-34.0	12.7	8.16e-05	0	44	0	956301312	22	5171
2026-01-19 12:03:42.29	318.10	13.87	-30.8	-33.9	12.7	5.72e-05	0	44	0	958398464	22	5136
2026-01-19 12:03:43.30	318.25	13.80	-30.9	-34.2	12.5	6.71e-05	0	44	0	960495616	22	5271
2026-01-19 12:03:44.30	318.39	13.73	-31.0	-34.5	12.3	1.32e-04	0	44	0	961544192	22	5392
2026-01-19 12:03:45.31	318.54	13.66	-31.1	-34.7	12.1	2.32e-04	0	44	0	963641344	22	5474
2026-01-19 12:03:46.31	318.68	13.59	-31.2	-35.2	11.8	4.07e-04	0	44	0	965738496	22	5664
2026-01-19 12:03:47.31	318.83	13.51	-31.2	-35.0	12.0	3.41e-04	0	44	0	967835648	22	5576
2026-01-19 12:03:48.31	318.97	13.44	-31.1	-34.8	12.1	2.97e-04	0	44	0	969932800	22	5520
2026-01-19 12:03:49.32	319.11	13.37	-31.0	-34.6	12.2	2.56e-04	0	44	0	970981376	22	5431
2026-01-19 12:03:50.31	319.25	13.30	-31.1	-34.8	12.0	2.97e-04	0	44	0	973078528	22	5505
2026-01-19 12:03:51.32	319.39	13.23	-31.1	-34.9	12.0	3.68e-04	0	44	0	975175680	22	5535
2026-01-19 12:03:52.32	319.53	13.16	-30.9	-34.1	12.5	1.60e-04	0	44	0	977272832	22	5243
2026-01-19 12:03:53.32	319.67	13.09	-30.8	-33.9	12.7	8.46e-05	0	44	0	979369984	22	5135
2026-01-19 12:03:54.32	319.81	13.02	-30.8	-33.9	12.7	6.79e-05	0	44	0	980418560	22	5143
2026-01-19 12:03:55.32	319.95	12.95	-30.9	-34.3	12.4	1.09e-04	0	44	0	982515712	22	5321
2026-01-19 12:03:56.32	320.09	12.88	-31.0	-34.6	12.2	2.23e-04	0	44	0	984612864	22	5434
2026-01-19 12:03:57.32	320.22	12.81	-31.1	-34.9	12.0	2.62e-04	0	44	0	986710016	22	5561
2026-01-19 12:03:58.33	320.36	12.74	-31.2	-35.2	11.7	4.87e-04	0	44	0	987758592	22	5704
2026-01-19 12:03:59.33	320.50	12.67	-31.2	-35.0	11.8	3.81e-04	0	44	0	989855744	22	5626
2026-01-19 12:04:00.34	320.63	12.60	-31.2	-35.0	11.8	4.45e-04	0	44	0	991952896	22	5618
2026-01-19 12:04:01.34	320.77	12.53	-31.1	-34.9	12.0	3.39e-04	0	44	0	994050048	22	5567
2026-01-19 12:04:02.34	320.90	12.46	-31.3	-35.3	11.6	4.07e-04	0	44	0	996147200	22	5764
2026-01-19 12:04:03.34	321.04	12.39	-31.3	-35.3	11.6	8.06e-04	0	44	0	997195776	22	5758
2026-01-19 12:04:04.35	321.17	12.32	-31.1	-34.7	12.0	4.62e-04	0	44	0	999292928	22	5501
2026-01-19 12:04:05.36	321.30	12.25	-30.9	-34.4	12.3	2.57e-04	0	44	0	1001390080	22	5341
2026-01-19 12:04:06.36	321.43	12.19	-30.9	-34.3	12.3	1.66e-04	0	44	0	1003487232	22	5325
2026-01-19 12:04:07.37	321.57	12.12	-31.0	-34.5	12.2	1.80e-04	0	44	0	1005584384	22	5382
2026-01-19 12:04:08.37	321.70	12.05	-31.1	-34.7	12.1	3.27e-04	0	44	0	1006632960	22	5479
2026-01-19 12:04:09.37	321.83	11.98	-31.1	-34.8	12.0	3.00e-04	0	44	0	1008730112	22	5507
2026-01-19 12:04:10.37	321.95	11.91	-31.2	-35.1	11.8	4.41e-04	0	44	0	1010827264	22	5641
2026-01-19 12:04:11.37	322.08	11.84	-31.3	-35.5	11.5	5.58e-04	0	44	0	1012924416	22	5841
2026-01-19 12:04:12.37	322.21	11.77	-31.2	-35.2	11.7	8.32e-04	0	44	0	1015021568	22	5722
2026-01-19 12:04:13.37	322.34	11.70	-31.3	-35.6	11.4	8.93e-04	0	44	0	1016070144	22	5887
2026-01-19 12:04:14.37	322.46	11.63	-31.3	-35.4	11.5	8.86e-04	0	44	0	1018167296	22	5784
2026-01-19 12:04:15.38	322.59	11.56	-31.2	-35.3	11.6	7.74e-04	0	44	0	1020264448	22	5761
2026-01-19 12:04:16.38	322.72	11.49	-31.3	-35.5	11.4	7.86e-04	0	44	0	1022361600	22	5854
2026-01-19 12:04:17.38	322.84	11.43	-31.2	-35.3	11.5	9.31e-04	0	44	0	1024458752	22	5760
2026-01-19 12:04:18.38	322.97	11.36	-31.1	-34.8	11.9	5.32e-04	0	44	0	1025507328	22	5552
2026-01-19 12:04:19.38	323.09	11.29	-31.0	-34.5	12.2	3.49e-04	0	44	0	1027604480	22	5400
2026-01-19 12:04:20.39	323.22	11.22	-30.9	-34.4	12.2	2.17e-04	0	44	0	1029701632	22	5354
2026-01-19 12:04:21.39	323.34	11.15	-31.0	-34.7	12.0	2.78e-04	0	44	0	1031798784	22	5493
2026-01-19 12:04:22.39	323.46	11.08	-31.0	-34.7	12.0	3.36e-04	0	44	0	1032847360	22	5495
2026-01-19 12:04:23.39	323.58	11.02	-31.1	-34.8	11.9	4.22e-04	0	44	0	1034944512	22	5535
2026-01-19 12:04:24.40	323.70	10.95	-31.0	-34.7	12.0	3.64e-04	0	44	0	1037041664	22	5500
2026-01-19 12:04:25.40	323.82	10.88	-31.0	-34.5	12.1	2.99e-04	0	44	0	1039138816	22	5424
2026-01-19 12:04:26.40	323.94	10.81	-31.0	-34.6	12.0	3.57e-04	0	44	0	1041235968	22	5466
2026-01-19 12:04:27.40	324.06	10.74	-31.1	-34.9	11.9	3.23e-04	0	44	0	1043333120	22	5566
2026-01-19 12:04:28.40	324.18	10.68	-31.1	-35.0	11.8	5.76e-04	0	44	0	1044381696	22	5622
2026-01-19 12:04:29.40	324.30	10.61	-31.1	-35.0	11.8	4.88e-04	0	44	0	1046478848	22	5612
2026-01-19 12:04:30.41	324.42	10.54	-31.1	-35.0	11.7	5.40e-04	0	44	0	1048576000	22	5635
2026-01-19 12:04:31.41	324.54	10.47	-31.2	-35.2	11.6	8.15e-04	0	44	0	1050673152	22	5726
2026-01-19 12:04:32.41	324.65	10.41	-31.1	-35.0	11.7	5.19e-04	0	44	0	1051721728	22	5630
2026-01-19 12:04:33.41	324.77	10.34	-31.2	-35.2	11.6	6.71e-04	0	44	0	1053818880	22	5713
2026-01-19 12:04:34.41	324.89	10.27	-31.3	-35.4	11.4	8.54e-04	0	44	0	1055916032	22	5823
2026-01-19 12:04:35.42	325.00	10.20	-31.3	-35.5	11.3	1.08e-03	0	44	0	1058013184	22	5864
2026-01-19 12:04:36.41	325.12	10.14	-31.4	-35.9	11.1	1.44e-03	0	44	0	1060110336	22	6024
2026-01-19 12:04:37.41	325.23	10.07	-31.5	-36.1	10.9	1.76e-03	0	44	0	1061158912	22	6140
2026-01-19 12:04:38.42	325.35	10.00	-31.5	-36.2	10.8	2.36e-03	0	44	0	1063256064	22	6194
2026-01-19 12:04:39.42	325.46	9.94	-31.4	-36.1	10.9	2.25e-03	0	44	0	1065353216	22	6161
2026-01-19 12:04:40.43	325.57	9.87	-31.4	-36.1	10.9	2.18e-03	0	44	0	1067450368	22	6147
2026-01-19 12:04:41.43	325.69	9.80	-31.5	-35.7	10.8	2.70e-03	0	44	0	1069547520	23	5853
2026-01-19 12:04:42.43	325.80	9.74	-31.5	-35.7	10.8	2.28e-03	0	44	0	1070596096	23	5833
2026-01-19 12:04:43.43	325.91	9.67	-31.5	-35.7	10.8	2.60e-03	0	44	0	1072693248	23	5857
2026-01-19 12:04:44.44	326.02	9.60	-31.5	-35.6	10.8	2.38e-03	0	44	0	1074790400	23	5821
2026-01-19 12:04:45.44	326.13	9.54	-31.4	-35.3	11.0	1.75e-03	0	44	0	1076887552	23	5681
2026-01-19 12:04:46.44	326.24	9.47	-31.4	-35.6	10.8	1.97e-03	0	44	0	1077936128	23	5794
2026-01-19 12:04:47.44	326.35	9.40	-31.4	-35.5	10.9	2.83e-03	0	44	0	1080033280	23	5777
2026-01-19 12:04:48.45	326.46	9.34	-31.3	-35.2	11.1	1.64e-03	0	44	0	1082130432	23	5620
2026-01-19 12:04:49.45	326.57	9.27	-31.3	-35.1	11.2	1.37e-03	0	44	0	1084227584	23	5594
2026-01-19 12:04:50.45	326.68	9.21	-31.2	-34.7	11.4	1.13e-03	0	44	0	1086324736	23	5427
2026-01-19 12:04:51.46	326.79	9.14	-31.4	-35.4	11.0	1.45e-03	0	44	0	1088421888	23	5719
2026-01-19 12:04:52.46	326.89	9.07	-31.4	-35.5	10.9	1.83e-03	0	44	0	1089470464	23	5771
2026-01-19 12:04:53.46	327.00	9.01	-31.3	-35.3	11.0	2.10e-03	0	44	0	1091567616	23	5687
2026-01-19 12:04:54.46	327.11	8.94	-31.4	-35.6	10.8	2.38e-03	0	44	0	1093664768	23	5817
2026-01-19 12:04:55.47	327.21	8.88	-31.5	-35.8	10.6	3.41e-03	0	44	0	1095761920	23	5928
2026-01-19 12:04:56.47	327.32	8.81	-31.5	-35.9	10.6	3.25e-03	0	44	0	1096810496	23	5960
2026-01-19 12:04:57.47	327.42	8.75	-31.6	-36.2	10.3	5.12e-03	0	44	0	1098907648	23	6120
2026-01-19 12:04:58.47	327.53	8.68	-31.6	-36.2	10.3	5.19e-03	0	44	0	1101004800	23	6123
2026-01-19 12:04:59.48	327.63	8.62	-31.6	-36.4	10.2	5.81e-03	0	44	0	1103101952	23	6201
2026-01-19 12:05:00.48	327.74	8.55	-31.7	-36.5	10.1	7.86e-03	0	44	0	1105199104	23	6252
2026-01-19 12:05:01.48	327.84	8.49	-31.6	-36.2	10.3	5.42e-03	0	44	0	1106247680	23	6141
2026-01-19 12:05:02.49	327.94	8.42	-31.6	-36.3	10.2	6.07e-03	0	44	0	1108344832	23	6196
2026-01-19 12:05:03.49	328.04	8.36	-31.6	-36.2	10.3	6.96e-03	0	44	0	1110441984	23	6130
2026-01-19 12:05:04.49	328.15	8.29	-31.6	-36.4	10.2	6.01e-03	0	44	0	1112539136	23	6207
2026-01-19 12:05:05.49	328.25	8.23	-31.7	-36.5	10.0	7.66e-03	0	44	0	1114636288	23	6296
2026-01-19 12:05:06.50	328.35	8.16	-31.6	-36.4	10.1	7.33e-03	0	44	0	1115684864	23	6238
2026-01-19 12:05:07.50	328.45	8.10	-31.9	-37.3	9.5	1.13e-02	0	44	0	1117782016	23	6704
2026-01-19 12:05:08.50	328.55	8.03	-31.9	-37.3	9.4	1.74e-02	0	44	0	1119879168	23	6730
2026-01-19 12:05:09.51	328.65	7.97	-31.8	-37.0	9.6	1.53e-02	0	44	0	1121976320	23	6566
2026-01-19 12:05:10.51	328.75	7.91	-31.9	-37.4	9.2	1.48e-02	0	44	0	1124073472	23	6802
2026-01-19 12:05:11.51	328.85	7.84	-31.9	-37.3	9.3	2.08e-02	0	44	0	1125122048	23	6731
2026-01-19 12:05:12.51	328.95	7.78	-31.9	-37.3	9.3	1.62e-02	0	44	0	1127219200	23	6736
2026-01-19 12:05:13.51	329.04	7.71	-31.9	-37.4	9.3	1.96e-02	0	44	0	1129316352	23	6779
2026-01-19 12:05:14.52	329.14	7.65	-31.8	-37.0	9.6	1.27e-02	0	44	0	1131413504	23	6575
2026-01-19 12:05:15.52	329.24	7.59	-31.9	-37.5	9.2	1.60e-02	0	44	0	1133510656	23	6878
2026-01-19 12:05:16.52	329.34	7.52	-31.9	-37.5	9.1	2.31e-02	0	44	0	1134559232	23	6839
2026-01-19 12:05:17.51	329.43	7.46	-31.8	-37.1	9.4	1.53e-02	0	44	0	1136656384	23	6633
2026-01-19 12:05:18.52	329.53	7.40	-32.0	-37.7	8.9	2.25e-02	0	44	0	1138753536	23	7007
2026-01-19 12:05:19.52	329.63	7.33	-31.9	-37.5	9.1	2.41e-02	0	44	0	1140850688	23	6895
2026-01-19 12:05:20.52	329.72	7.27	-31.9	-37.6	9.0	2.12e-02	0	44	0	1141899264	23	6943
2026-01-19 12:05:21.53	329.82	7.21	-31.9	-37.6	9.0	2.33e-02	0	44	0	1143996416	23	6937
2026-01-19 12:05:22.53	329.91	7.14	-31.9	-37.6	9.0	2.24e-02	0	44	0	1146093568	23	6924
2026-01-19 12:05:23.53	330.00	7.08	-33.5	-47.3	3.8	3.06e-02	0	44	104	1148190720	27	17560
2026-01-19 12:05:24.54	330.10	7.02	-33.9	-48.3	3.8	1.49e+00	0	44	104	1148190720	27	18918

#Closed at: 2026-01-19 12:05:25
#Recorded file [1148 MB]: D:/data/31010_260119_145510.dat