passes_logs/2026/01/19/R2M6_AANII_01/R2M6_AANII_01__20260119_005836_FENGYUN_3D_rec.log

#Pass ID: 20260119_005836_FENGYUN 3D
#Satellite: FENGYUN 3D
#Configuration: FENGYUN 3D
#almurnet v.1.7.20240730
#Start time: 2026-01-19 00:58:36

#Version: 2.2.20231116
#Station: R2M6_AANII_01
#Location: 30.233357 lon 59.946436 lat
#TLE: 1 43010U 17072A   26017.96359538  .00000271  00000+0  15011-3 0  9999
#TLE: 2 43010  98.9936 349.8252 0002386 103.8840 256.2601 14.19697057423673

#Time	Az	El	Level	Level2	SNR	BER	BlckErr	Temp	State	Recorded	gain1	gain2
2026-01-19 00:58:36.12	28.91	6.99	-28.5	-30.7	5.7	7.64e-01	0	42	0	0	17	4636
2026-01-19 00:58:37.12	28.99	7.05	-30.3	-33.9	5.3	7.83e-01	0	42	104	0	20	5448
2026-01-19 00:58:38.13	29.08	7.12	-30.4	-34.1	9.2	1.62e-02	0	42	0	0	20	5522
2026-01-19 00:58:39.14	29.17	7.18	-30.1	-33.3	9.8	7.72e-03	0	42	0	5242880	20	5188
2026-01-19 00:58:40.14	29.25	7.25	-30.4	-34.1	9.3	1.42e-02	0	42	0	11534336	20	5512
2026-01-19 00:58:41.14	29.34	7.32	-30.0	-33.1	10.0	8.22e-03	0	42	0	16777216	20	5115
2026-01-19 00:58:42.15	29.43	7.38	-29.7	-32.5	10.7	3.07e-03	0	42	0	22020096	19	5007
2026-01-19 00:58:43.15	29.52	7.45	-29.3	-31.6	11.4	1.41e-03	0	42	0	28311552	19	4681
2026-01-19 00:58:44.15	29.60	7.51	-29.0	-31.2	11.9	3.96e-04	0	42	0	33554432	18	4678
2026-01-19 00:58:45.15	29.69	7.58	-28.6	-30.9	12.4	4.20e-04	0	42	0	38797312	17	4682
2026-01-19 00:58:46.15	29.78	7.65	-28.4	-30.3	12.8	1.52e-04	0	42	0	45088768	17	4500
2026-01-19 00:58:47.15	29.87	7.71	-28.3	-30.7	12.9	2.74e-05	0	42	0	50331648	16	4715
2026-01-19 00:58:48.15	29.96	7.78	-28.4	-30.9	12.8	2.69e-04	0	42	0	55574528	16	4783
2026-01-19 00:58:49.15	30.05	7.85	-28.0	-29.9	13.4	1.83e-05	0	42	0	61865984	16	4494
2026-01-19 00:58:50.15	30.14	7.91	-27.7	-29.8	13.6	6.80e-06	0	42	0	67108864	15	4559
2026-01-19 00:58:51.15	30.23	7.98	-27.5	-29.3	13.9	1.10e-06	0	42	0	73400320	15	4407
2026-01-19 00:58:52.16	30.33	8.05	-27.4	-29.0	14.1	1.93e-04	0	42	0	78643200	15	4321
2026-01-19 00:58:53.17	30.42	8.11	-27.4	-29.6	14.1	0.00e+00	0	42	0	83886080	14	4611
2026-01-19 00:58:54.16	30.51	8.18	-27.3	-29.3	14.2	1.88e-04	0	42	0	90177536	14	4538
2026-01-19 00:58:55.17	30.60	8.25	-27.5	-29.1	14.0	1.88e-04	0	42	0	95420416	15	4376
2026-01-19 00:58:56.17	30.70	8.32	-27.3	-28.7	14.3	0.00e+00	0	42	0	101711872	15	4256
2026-01-19 00:58:57.18	30.79	8.38	-27.1	-28.9	14.5	2.20e-04	0	42	0	106954752	14	4399
2026-01-19 00:58:58.17	30.89	8.45	-27.2	-29.1	14.4	2.00e-04	0	42	0	112197632	14	4478
2026-01-19 00:58:59.17	30.98	8.52	-27.1	-28.8	14.6	0.00e+00	0	42	0	118489088	14	4381
2026-01-19 00:59:00.17	31.07	8.59	-27.1	-28.9	14.5	2.75e-04	0	42	0	123731968	14	4403
2026-01-19 00:59:01.17	31.17	8.65	-27.2	-29.0	14.5	3.07e-04	0	42	0	128974848	14	4442
2026-01-19 00:59:02.18	31.27	8.72	-27.1	-28.8	14.5	0.00e+00	0	42	0	135266304	14	4399
2026-01-19 00:59:03.18	31.36	8.79	-27.1	-28.9	14.5	3.38e-04	0	42	0	140509184	14	4404
2026-01-19 00:59:04.18	31.46	8.86	-27.1	-28.9	14.5	3.73e-04	0	42	0	146800640	14	4421
2026-01-19 00:59:05.18	31.56	8.93	-27.3	-29.3	14.3	0.00e+00	0	43	0	152043520	14	4542
2026-01-19 00:59:06.19	31.65	9.00	-27.1	-28.8	14.6	3.87e-04	0	42	0	157286400	14	4379
2026-01-19 00:59:07.19	31.75	9.07	-27.0	-28.7	14.7	3.70e-04	0	42	0	163577856	14	4351
2026-01-19 00:59:08.19	31.85	9.14	-27.0	-28.5	14.8	0.00e+00	0	43	0	168820736	14	4309
2026-01-19 00:59:09.19	31.95	9.20	-27.1	-28.7	14.7	3.23e-04	0	42	0	174063616	14	4349
2026-01-19 00:59:10.19	32.05	9.27	-27.1	-28.9	14.6	1.10e-06	0	43	0	180355072	14	4398
2026-01-19 00:59:11.20	32.15	9.34	-27.2	-29.0	14.5	1.10e-06	0	43	0	185597952	14	4432
2026-01-19 00:59:12.21	32.25	9.41	-27.3	-29.3	14.4	0.00e+00	0	43	0	190840832	14	4528
2026-01-19 00:59:13.20	32.35	9.48	-27.2	-29.1	14.5	1.88e-04	0	43	0	197132288	14	4459
2026-01-19 00:59:14.21	32.45	9.55	-27.1	-28.8	14.6	0.00e+00	0	43	0	202375168	14	4384
2026-01-19 00:59:15.21	32.55	9.62	-27.1	-28.8	14.6	0.00e+00	0	43	0	208666624	14	4393
2026-01-19 00:59:16.21	32.65	9.69	-27.1	-28.9	14.6	1.40e-04	0	43	0	213909504	14	4405
2026-01-19 00:59:17.21	32.76	9.76	-27.3	-29.2	14.4	0.00e+00	0	43	0	219152384	14	4496
2026-01-19 00:59:18.21	32.86	9.83	-27.1	-28.9	14.6	2.63e-05	0	43	0	225443840	14	4407
2026-01-19 00:59:19.22	32.96	9.90	-27.3	-29.3	14.3	0.00e+00	0	43	0	230686720	14	4535
2026-01-19 00:59:20.22	33.07	9.97	-27.3	-29.3	14.4	1.10e-06	0	43	0	235929600	14	4519
2026-01-19 00:59:21.22	33.17	10.04	-27.1	-28.9	14.6	0.00e+00	0	43	0	242221056	14	4394
2026-01-19 00:59:22.22	33.28	10.11	-27.0	-28.5	14.9	0.00e+00	0	43	0	247463936	14	4288
2026-01-19 00:59:23.22	33.38	10.18	-26.9	-28.9	14.9	0.00e+00	0	43	0	253755392	13	4510
2026-01-19 00:59:24.22	33.49	10.26	-26.8	-28.7	15.0	0.00e+00	0	43	0	258998272	13	4449
2026-01-19 00:59:25.22	33.59	10.33	-26.8	-28.6	15.0	0.00e+00	0	43	0	264241152	13	4447
2026-01-19 00:59:26.23	33.70	10.40	-26.7	-28.4	15.2	0.00e+00	0	43	0	270532608	13	4371
2026-01-19 00:59:27.23	33.81	10.47	-26.6	-28.3	15.3	0.00e+00	0	43	0	275775488	13	4344
2026-01-19 00:59:28.24	33.92	10.54	-26.7	-28.3	15.2	0.00e+00	0	43	0	282066944	13	4357
2026-01-19 00:59:29.24	34.03	10.61	-26.7	-28.4	15.2	0.00e+00	0	43	0	287309824	13	4372
2026-01-19 00:59:30.24	34.14	10.68	-26.7	-28.3	15.3	0.00e+00	0	43	0	292552704	13	4348
2026-01-19 00:59:31.24	34.24	10.76	-26.8	-28.5	15.1	0.00e+00	0	43	0	298844160	13	4408
2026-01-19 00:59:32.24	34.35	10.83	-26.7	-28.5	15.2	0.00e+00	0	43	0	304087040	13	4396
2026-01-19 00:59:33.24	34.46	10.90	-26.8	-28.6	15.1	0.00e+00	0	43	0	309329920	13	4427
2026-01-19 00:59:34.24	34.58	10.97	-26.7	-28.3	15.3	0.00e+00	0	43	0	315621376	13	4357
2026-01-19 00:59:35.24	34.69	11.04	-26.7	-28.4	15.3	0.00e+00	0	43	0	320864256	13	4377
2026-01-19 00:59:36.25	34.80	11.12	-26.7	-28.4	15.2	0.00e+00	0	43	0	326107136	13	4386
2026-01-19 00:59:37.25	34.91	11.19	-26.6	-28.1	15.4	0.00e+00	0	43	0	332398592	13	4301
2026-01-19 00:59:38.26	35.03	11.26	-26.6	-28.2	15.4	0.00e+00	0	43	0	337641472	13	4332
2026-01-19 00:59:39.26	35.14	11.33	-26.5	-28.0	15.5	0.00e+00	0	43	0	343932928	13	4260
2026-01-19 00:59:40.27	35.25	11.41	-26.5	-27.9	15.5	0.00e+00	0	43	0	349175808	13	4243
2026-01-19 00:59:41.28	35.37	11.48	-26.5	-28.0	15.5	0.00e+00	0	43	0	355467264	13	4270
2026-01-19 00:59:42.28	35.49	11.55	-26.3	-27.5	15.7	0.00e+00	0	43	0	360710144	13	4142
2026-01-19 00:59:43.29	35.60	11.63	-26.1	-27.7	15.9	0.00e+00	0	43	0	365953024	12	4292
2026-01-19 00:59:44.30	35.72	11.70	-26.2	-27.9	15.9	0.00e+00	0	43	0	372244480	12	4340
2026-01-19 00:59:45.31	35.84	11.78	-26.2	-27.9	15.8	0.00e+00	0	43	0	377487360	12	4340
2026-01-19 00:59:46.31	35.95	11.85	-26.2	-27.8	15.9	1.22e-04	0	43	0	382730240	12	4323
2026-01-19 00:59:47.32	36.07	11.92	-26.3	-28.0	15.8	0.00e+00	0	43	0	389021696	12	4369
2026-01-19 00:59:48.32	36.19	12.00	-26.4	-28.3	15.6	0.00e+00	0	43	0	394264576	12	4450
2026-01-19 00:59:49.32	36.31	12.07	-26.4	-28.2	15.7	0.00e+00	0	43	0	400556032	12	4442
2026-01-19 00:59:50.33	36.43	12.15	-26.5	-27.8	15.6	0.00e+00	0	43	0	405798912	13	4222
2026-01-19 00:59:51.33	36.55	12.22	-26.4	-27.7	15.7	0.00e+00	0	43	0	411041792	13	4196
2026-01-19 00:59:52.34	36.67	12.29	-26.4	-27.7	15.7	0.00e+00	0	43	0	417333248	13	4186
2026-01-19 00:59:53.34	36.80	12.37	-26.5	-28.0	15.7	5.03e-05	0	43	0	422576128	13	4260
2026-01-19 00:59:54.35	36.92	12.44	-26.5	-27.9	15.7	0.00e+00	0	43	0	428867584	13	4242
2026-01-19 00:59:55.35	37.04	12.52	-26.5	-27.8	15.8	1.02e-05	0	43	0	434110464	13	4216
2026-01-19 00:59:56.35	37.16	12.59	-26.4	-27.6	15.9	0.00e+00	0	43	0	439353344	13	4164
2026-01-19 00:59:57.36	37.29	12.67	-26.4	-27.6	15.9	0.00e+00	0	44	0	445644800	13	4162
2026-01-19 00:59:58.36	37.41	12.74	-26.4	-27.8	15.8	0.00e+00	0	43	0	450887680	13	4199
2026-01-19 00:59:59.37	37.54	12.82	-26.5	-27.9	15.7	0.00e+00	0	43	0	456130560	13	4228
2026-01-19 01:00:00.37	37.67	12.89	-26.4	-27.7	15.9	0.00e+00	0	44	0	462422016	13	4180
2026-01-19 01:00:01.37	37.79	12.97	-26.4	-27.8	15.9	0.00e+00	0	44	0	467664896	13	4199
2026-01-19 01:00:02.38	37.92	13.05	-26.6	-28.1	15.7	0.00e+00	0	43	0	473956352	13	4286
2026-01-19 01:00:03.38	38.05	13.12	-26.6	-28.2	15.6	0.00e+00	0	43	0	479199232	13	4319
2026-01-19 01:00:04.39	38.18	13.20	-26.5	-27.8	15.8	0.00e+00	0	43	0	484442112	13	4209
2026-01-19 01:00:05.39	38.31	13.27	-26.5	-28.0	15.7	0.00e+00	0	43	0	490733568	13	4262
2026-01-19 01:00:06.38	38.43	13.35	-26.6	-28.1	15.7	0.00e+00	0	43	0	495976448	13	4274
2026-01-19 01:00:07.39	38.57	13.42	-26.4	-27.6	15.9	0.00e+00	0	43	0	502267904	13	4151
2026-01-19 01:00:08.39	38.70	13.50	-26.2	-27.2	16.2	0.00e+00	0	43	0	507510784	13	4045
2026-01-19 01:00:09.40	38.83	13.58	-26.2	-27.1	16.2	0.00e+00	0	44	0	512753664	13	4031
2026-01-19 01:00:10.40	38.96	13.65	-26.2	-27.1	16.2	0.00e+00	0	44	0	519045120	13	4019
2026-01-19 01:00:11.41	39.09	13.73	-26.2	-27.2	16.2	0.00e+00	0	43	0	524288000	13	4057
2026-01-19 01:00:12.41	39.23	13.81	-26.2	-27.2	16.2	0.00e+00	0	44	0	529530880	13	4058
2026-01-19 01:00:13.41	39.36	13.88	-26.1	-27.1	16.2	0.00e+00	0	44	0	535822336	13	4021
2026-01-19 01:00:14.41	39.50	13.96	-26.2	-27.3	16.1	0.00e+00	0	44	0	541065216	13	4081
2026-01-19 01:00:15.41	39.63	14.04	-26.2	-27.3	16.1	0.00e+00	0	43	0	546308096	13	4070
2026-01-19 01:00:16.42	39.77	14.11	-26.1	-27.1	16.3	0.00e+00	0	43	0	552599552	13	4012
2026-01-19 01:00:17.42	39.91	14.19	-26.2	-27.3	16.1	0.00e+00	0	44	0	557842432	13	4067
2026-01-19 01:00:18.42	40.04	14.27	-26.1	-27.1	16.1	0.00e+00	0	43	0	564133888	13	4022
2026-01-19 01:00:19.42	40.18	14.34	-26.0	-26.7	16.5	0.00e+00	0	44	0	569376768	13	3924
2026-01-19 01:00:20.42	40.32	14.42	-25.9	-26.6	16.3	0.00e+00	0	44	0	574619648	13	3902
2026-01-19 01:00:21.42	40.46	14.50	-25.9	-26.7	16.4	0.00e+00	0	44	0	580911104	13	3910
2026-01-19 01:00:22.42	40.60	14.58	-25.9	-26.6	16.5	0.00e+00	0	44	0	586153984	13	3897
2026-01-19 01:00:23.42	40.74	14.65	-26.0	-26.8	16.5	0.00e+00	0	43	0	592445440	13	3934
2026-01-19 01:00:24.42	40.88	14.73	-26.0	-26.8	16.5	0.00e+00	0	43	0	597688320	13	3950
2026-01-19 01:00:25.42	41.02	14.81	-25.9	-26.6	16.5	0.00e+00	0	44	0	602931200	13	3892
2026-01-19 01:00:26.41	41.17	14.88	-25.9	-26.7	16.5	0.00e+00	0	44	0	608174080	13	3912
2026-01-19 01:00:27.41	41.31	14.96	-26.0	-26.8	16.4	0.00e+00	0	44	0	614465536	13	3952
2026-01-19 01:00:28.41	41.45	15.04	-26.0	-26.8	16.4	0.00e+00	0	44	0	619708416	13	3954
2026-01-19 01:00:29.41	41.60	15.12	-25.8	-26.4	16.7	1.04e-04	0	43	0	625999872	13	3853
2026-01-19 01:00:30.42	41.75	15.20	-25.8	-26.5	16.6	0.00e+00	0	44	0	631242752	13	3869
2026-01-19 01:00:31.42	41.89	15.27	-25.9	-26.6	16.6	0.00e+00	0	44	0	636485632	13	3896
2026-01-19 01:00:32.42	42.04	15.35	-25.8	-26.8	16.7	0.00e+00	0	44	0	642777088	12	4045
2026-01-19 01:00:33.42	42.19	15.43	-25.7	-26.6	16.8	0.00e+00	0	44	0	648019968	12	4004
2026-01-19 01:00:34.42	42.34	15.51	-25.8	-26.8	16.7	0.00e+00	0	44	0	654311424	12	4043
2026-01-19 01:00:35.43	42.49	15.59	-25.9	-27.2	16.5	0.00e+00	0	44	0	659554304	12	4146
2026-01-19 01:00:36.43	42.64	15.67	-26.1	-27.5	16.4	9.61e-05	0	44	0	664797184	12	4218
2026-01-19 01:00:37.43	42.79	15.75	-25.9	-27.0	16.6	0.00e+00	0	44	0	671088640	12	4109
2026-01-19 01:00:38.43	42.94	15.82	-25.8	-26.8	16.8	1.52e-04	0	44	0	676331520	12	4041
2026-01-19 01:00:39.44	43.10	15.90	-25.8	-26.8	16.8	8.92e-05	0	44	0	681574400	12	4062
2026-01-19 01:00:40.44	43.25	15.98	-25.8	-26.8	16.8	0.00e+00	0	44	0	687865856	12	4053
2026-01-19 01:00:41.44	43.40	16.06	-25.8	-26.9	16.7	1.74e-04	0	44	0	693108736	12	4082
2026-01-19 01:00:42.45	43.56	16.14	-25.8	-27.0	16.7	0.00e+00	0	44	0	699400192	12	4089
2026-01-19 01:00:43.45	43.72	16.22	-25.6	-26.3	17.0	0.00e+00	0	44	0	704643072	12	3930
2026-01-19 01:00:44.45	43.87	16.30	-25.5	-26.2	17.1	0.00e+00	0	44	0	709885952	12	3889
2026-01-19 01:00:45.46	44.03	16.38	-25.6	-26.8	17.1	2.02e-04	0	44	0	716177408	11	4156
2026-01-19 01:00:46.47	44.19	16.46	-25.5	-26.8	17.1	0.00e+00	0	44	0	721420288	11	4140
2026-01-19 01:00:47.48	44.35	16.54	-25.6	-26.9	17.0	1.05e-04	0	44	0	727711744	11	4189
2026-01-19 01:00:48.49	44.52	16.62	-25.6	-27.0	17.0	9.04e-05	0	44	0	732954624	11	4200
2026-01-19 01:00:49.49	44.68	16.70	-25.6	-26.9	17.1	0.00e+00	0	44	0	738197504	11	4181
2026-01-19 01:00:50.49	44.84	16.78	-25.5	-26.7	17.2	1.60e-05	0	44	0	744488960	11	4131
2026-01-19 01:00:51.50	45.00	16.86	-25.5	-26.7	17.2	3.31e-05	0	44	0	749731840	11	4138
2026-01-19 01:00:52.50	45.17	16.94	-25.5	-26.8	17.2	0.00e+00	0	44	0	754974720	11	4140
2026-01-19 01:00:53.51	45.33	17.02	-25.5	-26.6	17.2	4.80e-05	0	44	0	761266176	11	4116
2026-01-19 01:00:54.51	45.50	17.10	-25.4	-26.4	17.4	0.00e+00	0	44	0	766509056	11	4052
2026-01-19 01:00:55.51	45.66	17.18	-25.4	-26.5	17.3	0.00e+00	0	44	0	772800512	11	4073
2026-01-19 01:00:56.51	45.83	17.26	-25.4	-26.5	17.3	2.20e-06	0	44	0	778043392	11	4067
2026-01-19 01:00:57.52	46.00	17.34	-25.3	-26.2	17.5	2.86e-05	0	44	0	783286272	11	3995
2026-01-19 01:00:58.52	46.17	17.42	-25.3	-26.2	17.5	0.00e+00	0	44	0	789577728	11	4007
2026-01-19 01:00:59.52	46.34	17.49	-25.3	-26.2	17.5	1.83e-05	0	44	0	794820608	11	4001
2026-01-19 01:01:00.52	46.51	17.57	-25.4	-26.5	17.3	2.28e-05	0	44	0	801112064	11	4078
2026-01-19 01:01:01.53	46.68	17.65	-25.4	-26.4	17.4	0.00e+00	0	44	0	806354944	11	4050
2026-01-19 01:01:02.53	46.85	17.73	-25.3	-26.4	17.4	1.82e-04	0	44	0	811597824	11	4040
2026-01-19 01:01:03.54	47.03	17.82	-25.3	-26.3	17.4	0.00e+00	0	44	0	817889280	11	4038
2026-01-19 01:01:04.54	47.20	17.89	-25.4	-26.5	17.4	0.00e+00	0	44	0	823132160	11	4065
2026-01-19 01:01:05.55	47.38	17.98	-25.3	-26.2	17.5	0.00e+00	0	44	0	829423616	11	3991
2026-01-19 01:01:06.56	47.55	18.06	-25.3	-26.2	17.5	4.00e-05	0	44	0	834666496	11	3993
2026-01-19 01:01:07.57	47.73	18.14	-25.4	-26.5	17.3	0.00e+00	0	44	0	839909376	11	4079
2026-01-19 01:01:08.57	47.91	18.22	-25.5	-26.7	17.2	0.00e+00	0	44	0	846200832	11	4132
2026-01-19 01:01:09.58	48.09	18.30	-25.5	-26.7	17.3	0.00e+00	0	44	0	851443712	11	4136
2026-01-19 01:01:10.58	48.27	18.38	-25.5	-26.7	17.2	0.00e+00	0	44	0	857735168	11	4130
2026-01-19 01:01:11.58	48.45	18.46	-25.6	-26.8	17.2	1.38e-04	0	44	0	862978048	11	4158
2026-01-19 01:01:12.59	48.63	18.54	-25.5	-26.7	17.3	0.00e+00	0	44	0	868220928	11	4129
2026-01-19 01:01:13.59	48.81	18.62	-25.5	-26.7	17.3	0.00e+00	0	44	0	874512384	11	4125
2026-01-19 01:01:14.59	49.00	18.70	-25.7	-27.0	17.1	0.00e+00	0	44	0	879755264	11	4208
2026-01-19 01:01:15.59	49.18	18.78	-25.7	-27.1	17.1	0.00e+00	0	44	0	884998144	11	4221
2026-01-19 01:01:16.59	49.36	18.86	-25.5	-26.6	17.3	0.00e+00	0	44	0	891289600	11	4106
2026-01-19 01:01:17.59	49.55	18.93	-25.2	-26.1	17.6	0.00e+00	0	44	0	896532480	11	3968
2026-01-19 01:01:18.60	49.74	19.01	-25.1	-25.9	17.6	3.31e-04	0	44	0	902823936	11	3937
2026-01-19 01:01:19.60	49.93	19.09	-25.1	-25.9	17.7	0.00e+00	0	44	0	908066816	11	3936
2026-01-19 01:01:20.60	50.11	19.17	-25.2	-26.0	17.6	0.00e+00	0	44	0	913309696	11	3965
2026-01-19 01:01:21.60	50.30	19.25	-25.1	-25.8	17.8	0.00e+00	0	44	0	919601152	11	3908
2026-01-19 01:01:22.61	50.50	19.33	-25.2	-26.0	17.7	0.00e+00	0	44	0	924844032	11	3953
2026-01-19 01:01:23.62	50.69	19.41	-25.1	-25.7	17.8	0.00e+00	0	44	0	930086912	11	3894
2026-01-19 01:01:24.62	50.88	19.49	-25.0	-25.6	17.9	0.00e+00	0	44	0	936378368	11	3850
2026-01-19 01:01:25.62	51.08	19.57	-25.0	-25.7	17.8	0.00e+00	0	44	0	941621248	11	3877
2026-01-19 01:01:26.63	51.27	19.65	-25.0	-25.6	17.9	0.00e+00	0	44	0	947912704	11	3868
2026-01-19 01:01:27.63	51.47	19.73	-25.2	-26.0	17.7	0.00e+00	0	44	0	953155584	11	3942
2026-01-19 01:01:28.63	51.66	19.81	-25.1	-25.9	17.7	0.00e+00	0	44	0	958398464	11	3930
2026-01-19 01:01:29.64	51.86	19.89	-24.9	-25.4	18.0	0.00e+00	0	44	0	964689920	11	3814
2026-01-19 01:01:30.64	52.06	19.97	-24.7	-25.7	18.0	0.00e+00	0	44	0	969932800	10	4004
2026-01-19 01:01:31.65	52.26	20.05	-24.8	-25.8	18.0	0.00e+00	0	44	0	976224256	10	4041
2026-01-19 01:01:32.65	52.46	20.13	-24.9	-25.9	18.0	0.00e+00	0	44	0	981467136	10	4047
2026-01-19 01:01:33.64	52.66	20.20	-25.1	-26.2	17.9	0.00e+00	0	44	0	986710016	10	4114
2026-01-19 01:01:34.65	52.87	20.28	-25.0	-26.0	17.9	0.00e+00	0	44	0	993001472	10	4072
2026-01-19 01:01:35.65	53.07	20.36	-24.8	-26.3	18.0	0.00e+00	0	44	0	998244352	9	4247
2026-01-19 01:01:36.66	53.28	20.44	-24.7	-25.9	18.2	0.00e+00	0	44	0	1003487232	9	4158
2026-01-19 01:01:37.66	53.48	20.52	-24.6	-25.9	18.2	0.00e+00	0	44	0	1009778688	9	4145
2026-01-19 01:01:38.66	53.69	20.60	-24.5	-25.6	18.4	0.00e+00	0	44	0	1015021568	9	4079
2026-01-19 01:01:39.67	53.90	20.68	-24.5	-25.5	18.5	0.00e+00	0	44	0	1020264448	9	4044
2026-01-19 01:01:40.67	54.11	20.75	-24.5	-25.6	18.4	0.00e+00	0	44	0	1026555904	9	4064
2026-01-19 01:01:41.68	54.32	20.83	-24.6	-25.7	18.3	0.00e+00	0	44	0	1031798784	9	4108
2026-01-19 01:01:42.69	54.53	20.91	-24.7	-26.0	18.2	0.00e+00	0	44	0	1038090240	9	4182
2026-01-19 01:01:43.69	54.75	20.99	-24.7	-25.9	18.3	3.40e-06	0	44	0	1043333120	9	4157
2026-01-19 01:01:44.70	54.96	21.07	-24.8	-26.1	18.1	0.00e+00	0	44	0	1049624576	9	4203
2026-01-19 01:01:45.70	55.17	21.14	-24.6	-25.8	18.3	0.00e+00	0	44	0	1054867456	9	4126
2026-01-19 01:01:46.71	55.39	21.22	-24.6	-25.8	18.4	0.00e+00	0	44	0	1060110336	9	4105
2026-01-19 01:01:47.71	55.61	21.30	-24.6	-25.8	18.4	0.00e+00	0	44	0	1066401792	9	4115
2026-01-19 01:01:48.72	55.83	21.37	-24.7	-25.9	18.3	0.00e+00	0	44	0	1071644672	9	4143
2026-01-19 01:01:49.72	56.04	21.45	-24.7	-25.9	18.3	0.00e+00	0	44	0	1077936128	9	4153
2026-01-19 01:01:50.72	56.26	21.53	-24.7	-26.0	18.3	0.00e+00	0	44	0	1083179008	9	4162
2026-01-19 01:01:51.72	56.48	21.60	-24.7	-26.0	18.3	0.00e+00	0	44	0	1088421888	9	4171
2026-01-19 01:01:52.73	56.71	21.68	-24.8	-26.1	18.2	0.00e+00	0	44	0	1094713344	9	4202
2026-01-19 01:01:53.74	56.93	21.76	-25.0	-26.1	17.9	0.00e+00	0	44	0	1099956224	10	4089
2026-01-19 01:01:54.74	57.15	21.83	-25.3	-26.8	17.6	0.00e+00	0	44	0	1105199104	10	4263
2026-01-19 01:01:55.74	57.38	21.91	-25.1	-26.3	17.9	0.00e+00	0	44	0	1111490560	10	4130
2026-01-19 01:01:56.74	57.61	21.98	-24.7	-25.4	18.3	0.00e+00	0	44	0	1116733440	10	3916
2026-01-19 01:01:57.74	57.83	22.06	-24.3	-24.7	18.7	0.00e+00	0	44	0	1123024896	10	3745
2026-01-19 01:01:58.75	58.06	22.13	-24.2	-25.0	18.8	0.00e+00	0	44	0	1128267776	9	3914
2026-01-19 01:01:59.75	58.29	22.21	-24.2	-24.8	18.9	0.00e+00	0	44	0	1133510656	9	3884
2026-01-19 01:02:00.75	58.52	22.28	-24.3	-25.0	18.7	0.00e+00	0	44	0	1139802112	9	3928
2026-01-19 01:02:01.75	58.75	22.35	-24.5	-25.4	18.6	0.00e+00	0	44	0	1145044992	9	4035
2026-01-19 01:02:02.75	58.98	22.43	-24.6	-25.7	18.4	0.00e+00	0	44	0	1150287872	9	4086
2026-01-19 01:02:03.75	59.22	22.50	-24.7	-25.9	18.3	0.00e+00	0	44	0	1156579328	9	4138
2026-01-19 01:02:04.76	59.45	22.57	-24.5	-25.6	18.5	0.00e+00	0	44	0	1161822208	9	4060
2026-01-19 01:02:05.76	59.69	22.65	-24.5	-25.5	18.5	0.00e+00	0	44	0	1167065088	9	4045
2026-01-19 01:02:06.76	59.92	22.72	-24.5	-25.6	18.5	0.00e+00	0	44	0	1173356544	9	4069
2026-01-19 01:02:07.77	60.16	22.79	-23.7	-24.3	18.4	0.00e+00	0	44	0	1178599424	9	3839
2026-01-19 01:02:08.78	60.41	22.86	-24.1	-24.8	18.9	0.00e+00	0	44	0	1184890880	9	3869
2026-01-19 01:02:09.78	60.64	22.94	-24.4	-25.2	18.7	0.00e+00	0	44	0	1190133760	9	3972
2026-01-19 01:02:10.78	60.89	23.01	-24.4	-25.3	18.7	2.39e-04	0	44	0	1196425216	9	3989
2026-01-19 01:02:11.79	61.13	23.08	-24.6	-25.7	18.4	0.00e+00	0	44	0	1201668096	9	4095
2026-01-19 01:02:12.80	61.37	23.15	-24.6	-25.7	18.4	0.00e+00	0	44	0	1206910976	9	4094
2026-01-19 01:02:13.80	61.62	23.22	-24.7	-26.0	18.3	0.00e+00	0	44	0	1213202432	9	4173
2026-01-19 01:02:14.80	61.86	23.29	-24.5	-25.6	18.5	0.00e+00	0	44	0	1218445312	9	4062
2026-01-19 01:02:15.81	62.11	23.36	-24.2	-25.0	18.8	0.00e+00	0	44	0	1223688192	9	3921
2026-01-19 01:02:16.81	62.36	23.43	-24.1	-25.2	19.0	0.00e+00	0	44	0	1229979648	8	4072
2026-01-19 01:02:17.82	62.61	23.50	-24.0	-25.0	19.1	4.47e-04	0	44	0	1235222528	8	4026
2026-01-19 01:02:18.81	62.86	23.57	-24.1	-25.2	19.0	0.00e+00	0	44	0	1240465408	8	4083
2026-01-19 01:02:19.81	63.11	23.63	-24.1	-25.1	19.0	4.81e-04	0	44	0	1246756864	8	4066
2026-01-19 01:02:20.81	63.36	23.70	-24.1	-25.2	18.9	0.00e+00	0	44	0	1251999744	8	4088
2026-01-19 01:02:21.82	63.61	23.77	-24.2	-25.3	18.9	0.00e+00	0	44	0	1258291200	8	4121
2026-01-19 01:02:22.82	63.87	23.84	-24.2	-25.5	18.8	3.35e-04	0	44	0	1263534080	8	4151
2026-01-19 01:02:23.82	64.12	23.90	-24.1	-25.2	19.0	0.00e+00	0	44	0	1268776960	8	4078
2026-01-19 01:02:24.82	64.38	23.97	-24.0	-24.9	19.1	0.00e+00	0	44	0	1275068416	8	4005
2026-01-19 01:02:25.82	64.63	24.04	-24.0	-25.0	19.1	0.00e+00	0	44	0	1280311296	8	4033
2026-01-19 01:02:26.82	64.89	24.10	-24.0	-25.0	19.1	2.09e-04	0	44	0	1285554176	8	4028
2026-01-19 01:02:27.82	65.15	24.17	-24.0	-24.9	19.1	0.00e+00	0	44	0	1291845632	8	4015
2026-01-19 01:02:28.83	65.41	24.23	-23.9	-24.7	19.2	1.79e-04	0	44	0	1297088512	8	3967
2026-01-19 01:02:29.84	65.68	24.30	-23.9	-24.8	19.2	1.79e-04	0	44	0	1303379968	8	3982
2026-01-19 01:02:30.84	65.94	24.36	-23.9	-24.8	19.2	0.00e+00	0	44	0	1308622848	8	3979
2026-01-19 01:02:31.85	66.21	24.42	-24.0	-24.9	19.2	1.65e-04	0	44	0	1313865728	8	4005
2026-01-19 01:02:32.84	66.47	24.48	-24.0	-25.0	19.1	1.33e-04	0	44	0	1320157184	8	4034
2026-01-19 01:02:33.84	66.73	24.55	-24.1	-25.1	19.0	0.00e+00	0	44	0	1325400064	8	4060
2026-01-19 01:02:34.85	67.00	24.61	-24.0	-24.9	19.1	4.11e-05	0	44	0	1331691520	8	4012
2026-01-19 01:02:35.85	67.27	24.67	-23.9	-24.8	19.2	5.26e-05	0	44	0	1336934400	8	3987
2026-01-19 01:02:36.86	67.54	24.73	-24.0	-25.0	19.1	0.00e+00	0	44	0	1342177280	8	4040
2026-01-19 01:02:37.86	67.81	24.79	-24.0	-24.9	19.1	1.64e-04	0	44	0	1348468736	8	4017
2026-01-19 01:02:38.86	68.08	24.85	-23.9	-24.8	19.2	2.02e-04	0	44	0	1353711616	8	3978
2026-01-19 01:02:39.86	68.35	24.91	-23.9	-24.8	19.2	0.00e+00	0	44	0	1358954496	8	3993
2026-01-19 01:02:40.86	68.62	24.97	-24.0	-25.0	19.1	2.44e-04	0	44	0	1365245952	8	4040
2026-01-19 01:02:41.87	68.90	25.03	-24.0	-25.0	19.1	2.31e-04	0	44	0	1370488832	8	4024
2026-01-19 01:02:42.88	69.18	25.08	-24.0	-24.9	19.1	0.00e+00	0	44	0	1376780288	8	3999
2026-01-19 01:02:43.87	69.45	25.14	-24.0	-25.0	19.1	2.33e-04	0	44	0	1382023168	8	4042
2026-01-19 01:02:44.87	69.73	25.20	-24.0	-24.9	19.1	0.00e+00	0	44	0	1387266048	8	4013
2026-01-19 01:02:45.88	70.01	25.25	-24.0	-25.0	19.1	0.00e+00	0	44	0	1393557504	8	4043
2026-01-19 01:02:46.87	70.28	25.31	-24.0	-25.1	19.1	0.00e+00	0	44	0	1398800384	8	4047
2026-01-19 01:02:47.88	70.56	25.36	-23.8	-24.6	19.3	1.85e-04	0	44	0	1405091840	8	3948
2026-01-19 01:02:48.88	70.84	25.42	-23.6	-24.2	19.5	0.00e+00	0	44	0	1410334720	8	3839
2026-01-19 01:02:49.89	71.13	25.47	-23.6	-24.1	19.4	1.66e-04	0	44	0	1415577600	8	3834
2026-01-19 01:02:50.89	71.41	25.52	-23.7	-24.3	19.3	1.85e-04	0	44	0	1421869056	8	3882
2026-01-19 01:02:51.89	71.69	25.58	-23.7	-24.3	19.3	0.00e+00	0	44	0	1427111936	8	3888
2026-01-19 01:02:52.89	71.98	25.63	-23.8	-24.6	19.2	2.36e-04	0	44	0	1432354816	8	3945
2026-01-19 01:02:53.90	72.26	25.68	-23.8	-24.6	19.1	0.00e+00	0	44	0	1438646272	8	3946
2026-01-19 01:02:54.90	72.55	25.73	-23.7	-24.5	19.2	0.00e+00	0	44	0	1443889152	8	3917
2026-01-19 01:02:55.90	72.84	25.78	-23.8	-24.6	19.2	0.00e+00	0	44	0	1449132032	8	3944
2026-01-19 01:02:56.89	73.12	25.83	-23.7	-24.5	19.2	0.00e+00	0	44	0	1455423488	8	3921
2026-01-19 01:02:57.90	73.41	25.88	-23.8	-24.6	19.2	0.00e+00	0	44	0	1460666368	8	3939
2026-01-19 01:02:58.90	73.70	25.92	-23.7	-24.4	19.3	0.00e+00	0	44	0	1466957824	8	3902
2026-01-19 01:02:59.90	73.99	25.97	-23.9	-24.8	19.0	1.80e-04	0	44	0	1472200704	8	4011
2026-01-19 01:03:00.90	74.28	26.02	-23.7	-24.3	19.3	0.00e+00	0	44	0	1477443584	8	3893
2026-01-19 01:03:01.91	74.58	26.06	-23.5	-23.9	19.5	0.00e+00	0	44	0	1483735040	8	3799
2026-01-19 01:03:02.91	74.87	26.11	-23.5	-23.9	19.5	0.00e+00	0	44	0	1488977920	8	3787
2026-01-19 01:03:03.92	75.16	26.15	-23.6	-24.1	19.4	0.00e+00	0	44	0	1494220800	8	3828
2026-01-19 01:03:04.92	75.46	26.19	-23.6	-24.1	19.4	2.46e-04	0	44	0	1500512256	8	3835
2026-01-19 01:03:05.92	75.75	26.24	-23.7	-24.5	19.2	0.00e+00	0	44	0	1505755136	8	3932
2026-01-19 01:03:06.91	76.05	26.28	-23.8	-24.7	19.1	0.00e+00	0	44	0	1510998016	8	3970
2026-01-19 01:03:07.91	76.34	26.32	-23.8	-24.6	19.2	0.00e+00	0	44	0	1517289472	8	3943
2026-01-19 01:03:08.92	76.64	26.36	-23.7	-24.4	19.3	0.00e+00	0	44	0	1522532352	8	3898
2026-01-19 01:03:09.92	76.94	26.40	-23.8	-24.6	19.2	0.00e+00	0	44	0	1528823808	8	3947
2026-01-19 01:03:10.93	77.24	26.44	-23.6	-24.3	19.3	0.00e+00	0	44	0	1534066688	8	3878
2026-01-19 01:03:11.94	77.55	26.48	-23.7	-24.5	19.2	0.00e+00	0	44	0	1540358144	8	3927
2026-01-19 01:03:12.94	77.85	26.52	-23.7	-24.4	19.3	0.00e+00	0	44	0	1545601024	8	3918
2026-01-19 01:03:13.93	78.14	26.55	-23.8	-24.6	19.2	0.00e+00	0	44	0	1550843904	8	3941
2026-01-19 01:03:14.94	78.45	26.59	-23.4	-23.8	19.6	0.00e+00	0	44	0	1557135360	8	3752
2026-01-19 01:03:15.94	78.75	26.62	-23.2	-23.9	19.8	0.00e+00	0	44	0	1562378240	7	3886
2026-01-19 01:03:16.95	79.06	26.66	-23.4	-24.2	19.6	0.00e+00	0	44	0	1567621120	7	3965
2026-01-19 01:03:17.96	79.36	26.69	-23.3	-24.1	19.6	0.00e+00	0	44	0	1573912576	7	3938
2026-01-19 01:03:18.96	79.67	26.72	-23.2	-23.9	19.7	0.00e+00	0	44	0	1579155456	7	3893
2026-01-19 01:03:19.96	79.97	26.76	-23.2	-23.8	19.8	0.00e+00	0	44	0	1584398336	7	3871
2026-01-19 01:03:20.97	80.28	26.79	-23.0	-23.5	20.0	0.00e+00	0	44	0	1590689792	7	3788
2026-01-19 01:03:21.98	80.59	26.82	-23.2	-23.9	19.7	0.00e+00	0	44	0	1595932672	7	3896
2026-01-19 01:03:22.98	80.90	26.85	-23.3	-24.1	19.7	0.00e+00	0	44	0	1602224128	7	3932
2026-01-19 01:03:23.99	81.21	26.88	-23.6	-24.6	19.4	0.00e+00	0	44	0	1607467008	7	4069
2026-01-19 01:03:24.99	81.51	26.90	-23.5	-24.4	19.5	0.00e+00	0	44	0	1613758464	7	4020
2026-01-19 01:03:26.00	81.83	26.93	-23.4	-24.2	19.6	0.00e+00	0	44	0	1619001344	7	3974
2026-01-19 01:03:27.00	82.13	26.96	-23.4	-24.3	19.5	0.00e+00	0	44	0	1624244224	7	3996
2026-01-19 01:03:28.00	82.44	26.98	-23.4	-24.2	19.6	0.00e+00	0	44	0	1630535680	7	3974
2026-01-19 01:03:29.01	82.76	27.01	-23.4	-24.3	19.5	0.00e+00	0	44	0	1635778560	7	3994
2026-01-19 01:03:30.01	83.07	27.03	-23.6	-24.7	19.4	0.00e+00	0	44	0	1641021440	7	4079
2026-01-19 01:03:31.01	83.38	27.05	-23.5	-24.5	19.4	0.00e+00	0	44	0	1647312896	7	4049
2026-01-19 01:03:32.01	83.69	27.07	-23.7	-24.9	19.2	0.00e+00	0	44	0	1652555776	7	4145
2026-01-19 01:03:33.01	84.00	27.10	-23.6	-24.7	19.4	0.00e+00	0	44	0	1657798656	7	4081
2026-01-19 01:03:34.01	84.31	27.12	-23.6	-24.7	19.3	0.00e+00	0	44	0	1664090112	7	4092
2026-01-19 01:03:35.01	84.62	27.13	-23.5	-24.5	19.5	0.00e+00	0	44	0	1669332992	7	4044
2026-01-19 01:03:36.01	84.94	27.15	-23.5	-24.4	19.5	0.00e+00	0	44	0	1675624448	7	4010
2026-01-19 01:03:37.01	85.25	27.17	-23.6	-24.7	19.4	0.00e+00	0	44	0	1680867328	7	4080
2026-01-19 01:03:38.02	85.57	27.19	-23.4	-24.4	19.5	0.00e+00	0	44	0	1686110208	7	4004
2026-01-19 01:03:39.02	85.88	27.20	-23.4	-24.3	19.6	0.00e+00	0	44	0	1692401664	7	3989
2026-01-19 01:03:40.03	86.20	27.22	-23.5	-24.5	19.5	0.00e+00	0	44	0	1697644544	7	4029
2026-01-19 01:03:41.03	86.51	27.23	-23.4	-24.3	19.6	0.00e+00	0	44	0	1703936000	7	3989
2026-01-19 01:03:42.03	86.82	27.24	-23.5	-24.5	19.4	0.00e+00	0	44	0	1709178880	7	4050
2026-01-19 01:03:43.03	87.14	27.25	-23.3	-24.1	19.7	0.00e+00	0	44	0	1714421760	7	3947
2026-01-19 01:03:44.03	87.45	27.27	-23.2	-23.9	19.7	0.00e+00	0	44	0	1720713216	7	3902
2026-01-19 01:03:45.04	87.77	27.28	-23.3	-24.1	19.7	0.00e+00	0	44	0	1725956096	7	3943
2026-01-19 01:03:46.05	88.09	27.29	-23.2	-23.9	19.8	0.00e+00	0	44	0	1731198976	7	3895
2026-01-19 01:03:47.05	88.41	27.29	-23.3	-24.1	19.7	0.00e+00	0	44	0	1737490432	7	3943
2026-01-19 01:03:48.06	88.73	27.30	-23.3	-24.2	19.6	0.00e+00	0	44	0	1742733312	7	3963
2026-01-19 01:03:49.06	89.04	27.31	-23.5	-24.6	19.4	0.00e+00	0	44	0	1749024768	7	4073
2026-01-19 01:03:50.06	89.36	27.31	-23.5	-24.4	19.5	0.00e+00	0	44	0	1754267648	7	4025
2026-01-19 01:03:51.06	89.67	27.32	-23.4	-24.3	19.5	0.00e+00	0	44	0	1759510528	7	4003
2026-01-19 01:03:52.07	89.99	27.32	-23.5	-24.4	19.5	0.00e+00	0	44	0	1765801984	7	4025
2026-01-19 01:03:53.07	90.31	27.32	-23.7	-24.9	19.3	0.00e+00	0	44	0	1771044864	7	4126
2026-01-19 01:03:54.07	90.63	27.33	-23.4	-24.3	19.5	0.00e+00	0	44	0	1776287744	7	3998
2026-01-19 01:03:55.08	90.94	27.33	-23.5	-24.4	19.5	0.00e+00	0	44	0	1782579200	7	4020
2026-01-19 01:03:56.08	91.26	27.33	-23.7	-24.9	19.3	0.00e+00	0	44	0	1787822080	7	4141
2026-01-19 01:03:57.08	91.58	27.32	-23.5	-24.5	19.5	0.00e+00	0	44	0	1794113536	7	4035
2026-01-19 01:03:58.09	91.90	27.32	-23.4	-24.4	19.5	0.00e+00	0	44	0	1799356416	7	4003
2026-01-19 01:03:59.09	92.21	27.32	-23.4	-24.3	19.5	0.00e+00	0	44	0	1805647872	7	4003
2026-01-19 01:04:00.09	92.53	27.32	-23.5	-24.5	19.4	0.00e+00	0	44	0	1810890752	7	4040
2026-01-19 01:04:01.09	92.85	27.31	-23.3	-24.0	17.3	0.00e+00	0	44	0	1816133632	7	3910
2026-01-19 01:04:02.10	93.16	27.31	-23.2	-23.9	17.5	0.00e+00	0	44	0	1822425088	7	3887
2026-01-19 01:04:03.11	93.48	27.30	-23.3	-24.0	19.7	0.00e+00	0	44	0	1827667968	7	3917
2026-01-19 01:04:04.11	93.80	27.29	-23.2	-23.9	19.7	0.00e+00	0	44	0	1832910848	7	3893
2026-01-19 01:04:05.11	94.11	27.28	-23.3	-24.1	19.6	0.00e+00	0	44	0	1839202304	7	3947
2026-01-19 01:04:06.12	94.43	27.27	-23.3	-24.2	19.6	0.00e+00	0	44	0	1844445184	7	3958
2026-01-19 01:04:07.12	94.75	27.26	-23.5	-24.6	19.4	0.00e+00	0	44	0	1849688064	7	4060
2026-01-19 01:04:08.12	95.06	27.25	-23.8	-25.2	19.1	0.00e+00	0	44	0	1855979520	7	4214
2026-01-19 01:04:09.12	95.38	27.24	-23.7	-24.9	19.2	0.00e+00	0	44	0	1861222400	7	4138
2026-01-19 01:04:10.12	95.69	27.23	-23.5	-24.6	19.4	0.00e+00	0	44	0	1867513856	7	4058
2026-01-19 01:04:11.12	96.01	27.21	-23.6	-24.6	19.4	0.00e+00	0	44	0	1872756736	7	4065
2026-01-19 01:04:12.13	96.32	27.20	-23.6	-24.7	19.3	0.00e+00	0	44	0	1879048192	7	4085
2026-01-19 01:04:13.13	96.64	27.18	-23.7	-24.8	19.3	0.00e+00	0	44	0	1884291072	7	4120
2026-01-19 01:04:14.13	96.95	27.17	-23.6	-24.7	19.3	0.00e+00	0	44	0	1889533952	7	4084
2026-01-19 01:04:15.13	97.27	27.15	-23.6	-24.7	19.3	0.00e+00	0	44	0	1895825408	7	4096
2026-01-19 01:04:16.13	97.58	27.13	-23.7	-24.9	19.2	0.00e+00	0	44	0	1901068288	7	4134
2026-01-19 01:04:17.13	97.89	27.11	-23.8	-25.1	19.1	0.00e+00	0	44	0	1906311168	7	4183
2026-01-19 01:04:18.13	98.20	27.09	-23.4	-24.3	19.5	0.00e+00	0	44	0	1912602624	7	3996
2026-01-19 01:04:19.13	98.51	27.07	-23.3	-24.1	19.7	0.00e+00	0	44	0	1917845504	7	3929
2026-01-19 01:04:20.14	98.83	27.05	-23.4	-24.2	19.6	5.26e-05	0	44	0	1923088384	7	3971
2026-01-19 01:04:21.14	99.14	27.03	-23.5	-24.5	19.4	0.00e+00	0	44	0	1929379840	7	4049
2026-01-19 01:04:22.14	99.45	27.00	-23.6	-24.6	19.4	4.34e-05	0	44	0	1934622720	7	4082
2026-01-19 01:04:23.15	99.76	26.98	-23.6	-24.8	19.3	2.97e-05	0	44	0	1940914176	7	4115
2026-01-19 01:04:24.15	100.07	26.95	-23.5	-24.6	19.3	0.00e+00	0	44	0	1946157056	7	4066
2026-01-19 01:04:25.16	100.39	26.93	-23.5	-24.6	19.4	2.97e-05	0	44	0	1951399936	7	4068
2026-01-19 01:04:26.16	100.69	26.90	-23.5	-24.5	19.4	0.00e+00	0	44	0	1957691392	7	4045
2026-01-19 01:04:27.16	101.00	26.87	-23.5	-24.6	19.4	0.00e+00	0	44	0	1962934272	7	4059
2026-01-19 01:04:28.16	101.31	26.84	-23.7	-24.9	19.2	0.00e+00	0	44	0	1968177152	7	4133
2026-01-19 01:04:29.16	101.62	26.81	-23.7	-25.0	19.2	1.33e-04	0	44	0	1974468608	7	4162
2026-01-19 01:04:30.16	101.92	26.78	-23.7	-24.9	19.2	0.00e+00	0	44	0	1979711488	7	4137
2026-01-19 01:04:31.16	102.23	26.75	-23.6	-24.7	19.3	9.04e-05	0	44	0	1984954368	7	4082
2026-01-19 01:04:32.15	102.53	26.72	-23.6	-24.7	19.3	3.54e-05	0	44	0	1991245824	7	4089
2026-01-19 01:04:33.15	102.84	26.69	-23.8	-25.1	19.1	0.00e+00	0	44	0	1996488704	7	4183
2026-01-19 01:04:34.15	103.14	26.65	-23.8	-25.1	19.1	3.40e-06	0	44	0	2002780160	7	4180
2026-01-19 01:04:35.15	103.44	26.62	-24.2	-25.5	18.7	0.00e+00	0	44	0	2008023040	8	4164
2026-01-19 01:04:36.16	103.75	26.58	-24.0	-25.1	18.8	0.00e+00	0	44	0	2013265920	8	4086
2026-01-19 01:04:37.16	104.05	26.55	-23.9	-24.8	19.0	3.20e-05	0	44	0	2019557376	8	4018
2026-01-19 01:04:38.16	104.35	26.51	-23.7	-24.5	19.1	5.26e-05	0	44	0	2024800256	8	3942
2026-01-19 01:04:39.17	104.66	26.47	-23.8	-24.5	19.1	0.00e+00	0	44	0	2031091712	8	3945
2026-01-19 01:04:40.17	104.96	26.43	-23.8	-24.6	19.1	0.00e+00	0	44	0	2036334592	8	3964
2026-01-19 01:04:41.18	105.26	26.39	-23.6	-24.3	19.3	0.00e+00	0	44	0	2041577472	8	3880
2026-01-19 01:04:42.18	105.56	26.35	-23.6	-24.3	19.3	0.00e+00	0	44	0	2047868928	8	3873
2026-01-19 01:04:43.18	105.86	26.31	-23.7	-24.5	19.2	0.00e+00	0	44	0	2053111808	8	3936
2026-01-19 01:04:44.19	106.16	26.27	-23.7	-24.4	19.2	1.10e-06	0	44	0	2058354688	8	3911
2026-01-19 01:04:45.19	106.45	26.23	-23.7	-24.5	19.2	0.00e+00	0	44	0	2064646144	8	3933
2026-01-19 01:04:46.19	106.75	26.19	-23.6	-24.3	19.2	5.26e-05	0	44	0	2069889024	8	3887
2026-01-19 01:04:47.19	107.04	26.14	-23.6	-24.3	19.2	0.00e+00	0	44	0	2076180480	8	3873
2026-01-19 01:04:48.19	107.34	26.10	-23.7	-24.3	19.2	0.00e+00	0	44	0	2081423360	8	3889
2026-01-19 01:04:49.20	107.63	26.05	-23.5	-24.0	19.4	0.00e+00	0	44	0	2086666240	8	3824
2026-01-19 01:04:50.21	107.93	26.01	-23.5	-24.1	19.3	0.00e+00	0	44	0	2092957696	8	3837
2026-01-19 01:04:51.21	108.22	25.96	-23.7	-24.5	19.1	0.00e+00	0	44	0	2098200576	8	3930
2026-01-19 01:04:52.22	108.51	25.91	-23.7	-24.5	19.1	0.00e+00	0	44	0	2103443456	8	3926
2026-01-19 01:04:53.22	108.80	25.86	-23.8	-24.7	19.1	1.10e-06	0	44	0	2109734912	8	3970
2026-01-19 01:04:54.22	109.09	25.82	-23.8	-24.5	19.1	0.00e+00	0	44	0	2114977792	8	3938
2026-01-19 01:04:55.22	109.38	25.77	-23.8	-24.6	19.1	0.00e+00	0	44	0	2120220672	8	3954
2026-01-19 01:04:56.21	109.66	25.72	-23.7	-24.5	19.1	0.00e+00	0	44	0	2126512128	8	3920
2026-01-19 01:04:57.22	109.95	25.67	-23.7	-24.4	19.1	0.00e+00	0	44	0	2131755008	8	3906
2026-01-19 01:04:58.23	110.24	25.61	-23.8	-24.6	19.1	0.00e+00	0	44	0	2138046464	8	3944
2026-01-19 01:04:59.23	110.53	25.56	-23.8	-24.7	19.0	0.00e+00	0	44	0	2143289344	8	3994
2026-01-19 01:05:00.24	110.81	25.51	-23.9	-24.8	19.0	0.00e+00	0	44	0	2149580800	8	4004
2026-01-19 01:05:01.24	111.09	25.46	-23.9	-24.9	18.9	0.00e+00	0	44	0	2154823680	8	4025
2026-01-19 01:05:02.24	111.38	25.40	-23.7	-24.4	19.1	0.00e+00	0	44	0	2160066560	8	3919
2026-01-19 01:05:03.24	111.66	25.35	-23.7	-24.4	19.2	0.00e+00	0	44	0	2166358016	8	3894
2026-01-19 01:05:04.23	111.93	25.29	-23.8	-24.5	19.1	0.00e+00	0	44	0	2171600896	8	3931
2026-01-19 01:05:05.23	112.21	25.24	-23.6	-24.3	19.2	0.00e+00	0	44	0	2176843776	8	3878
2026-01-19 01:05:06.24	112.49	25.18	-23.8	-24.5	19.1	0.00e+00	0	44	0	2183135232	8	3943
2026-01-19 01:05:07.24	112.77	25.12	-23.9	-24.9	18.9	0.00e+00	0	44	0	2188378112	8	4026
2026-01-19 01:05:08.25	113.05	25.07	-23.9	-24.9	18.9	0.00e+00	0	44	0	2193620992	8	4033
2026-01-19 01:05:09.25	113.32	25.01	-24.0	-25.1	18.8	0.00e+00	0	44	0	2199912448	8	4063
2026-01-19 01:05:10.25	113.60	24.95	-24.0	-25.1	18.8	0.00e+00	0	44	0	2205155328	8	4074
2026-01-19 01:05:11.25	113.87	24.89	-23.8	-24.7	19.0	0.00e+00	0	44	0	2211446784	8	3972
2026-01-19 01:05:12.25	114.14	24.83	-23.8	-24.7	19.0	0.00e+00	0	44	0	2216689664	8	3965
2026-01-19 01:05:13.25	114.41	24.77	-23.9	-24.8	18.9	0.00e+00	0	44	0	2221932544	8	4013
2026-01-19 01:05:14.25	114.68	24.71	-24.0	-25.1	18.8	0.00e+00	0	44	0	2228224000	8	4069
2026-01-19 01:05:15.25	114.95	24.65	-24.1	-25.3	18.7	0.00e+00	0	44	0	2233466880	8	4130
2026-01-19 01:05:16.25	115.22	24.59	-24.1	-25.3	18.6	0.00e+00	0	44	0	2238709760	8	4135
2026-01-19 01:05:17.25	115.49	24.53	-24.2	-25.6	18.5	0.00e+00	0	44	0	2245001216	8	4192
2026-01-19 01:05:18.26	115.76	24.46	-24.1	-25.4	18.6	0.00e+00	0	44	0	2250244096	8	4143
2026-01-19 01:05:19.26	116.02	24.40	-24.1	-25.3	18.6	0.00e+00	0	44	0	2255486976	8	4141
2026-01-19 01:05:20.26	116.29	24.34	-24.1	-25.2	18.7	0.00e+00	0	44	0	2261778432	8	4105
2026-01-19 01:05:21.26	116.55	24.27	-24.1	-25.4	18.6	0.00e+00	0	44	0	2267021312	8	4148
2026-01-19 01:05:22.26	116.81	24.21	-24.3	-25.8	18.4	0.00e+00	0	44	0	2273312768	8	4250
2026-01-19 01:05:23.27	117.07	24.14	-24.4	-25.8	18.4	0.00e+00	0	44	0	2278555648	8	4265
2026-01-19 01:05:24.27	117.33	24.08	-24.4	-25.9	18.3	0.00e+00	0	44	0	2284847104	8	4288
2026-01-19 01:05:25.28	117.60	24.01	-24.5	-26.0	18.3	0.00e+00	0	44	0	2290089984	8	4312
2026-01-19 01:05:26.28	117.85	23.95	-24.5	-25.6	18.2	0.00e+00	0	44	0	2295332864	9	4104
2026-01-19 01:05:27.28	118.11	23.88	-24.7	-26.1	18.0	0.00e+00	0	44	0	2301624320	9	4212
2026-01-19 01:05:28.27	118.36	23.81	-24.9	-26.4	17.8	0.00e+00	0	44	0	2306867200	9	4292
2026-01-19 01:05:29.27	118.62	23.75	-24.9	-26.5	17.8	0.00e+00	0	44	0	2312110080	9	4331
2026-01-19 01:05:30.27	118.87	23.68	-25.2	-26.7	17.4	0.00e+00	0	44	0	2317352960	10	4250
2026-01-19 01:05:31.27	119.12	23.61	-24.9	-25.9	17.8	0.00e+00	0	44	0	2323644416	10	4053
2026-01-19 01:05:32.27	119.37	23.54	-24.6	-25.3	18.1	0.00e+00	0	44	0	2328887296	10	3920
2026-01-19 01:05:33.28	119.63	23.47	-24.5	-25.2	18.2	0.00e+00	0	44	0	2335178752	10	3883
2026-01-19 01:05:34.27	119.87	23.40	-24.4	-25.0	18.3	0.00e+00	0	44	0	2340421632	10	3838
2026-01-19 01:05:35.27	120.12	23.33	-24.4	-25.0	18.3	0.00e+00	0	44	0	2345664512	10	3845
2026-01-19 01:05:36.28	120.37	23.26	-24.2	-25.0	18.5	0.00e+00	0	44	0	2351955968	9	3946
2026-01-19 01:05:37.28	120.62	23.19	-24.1	-24.8	18.6	0.00e+00	0	44	0	2357198848	9	3896
2026-01-19 01:05:38.28	120.86	23.12	-24.3	-25.1	18.5	0.00e+00	0	44	0	2363490304	9	3970
2026-01-19 01:05:39.29	121.11	23.05	-24.3	-25.1	18.4	0.00e+00	0	44	0	2368733184	9	3983
2026-01-19 01:05:40.28	121.35	22.98	-24.4	-25.4	18.3	0.00e+00	0	44	0	2373976064	9	4039
2026-01-19 01:05:41.29	121.59	22.91	-24.3	-25.2	18.4	0.00e+00	0	44	0	2380267520	9	3996
2026-01-19 01:05:42.28	121.83	22.84	-24.2	-25.0	18.5	0.00e+00	0	44	0	2385510400	9	3951
2026-01-19 01:05:43.29	122.07	22.76	-24.2	-24.9	18.5	0.00e+00	0	44	0	2390753280	9	3924
2026-01-19 01:05:44.29	122.31	22.69	-24.0	-24.6	18.7	0.00e+00	0	44	0	2397044736	9	3849
2026-01-19 01:05:45.30	122.55	22.62	-24.1	-24.7	18.6	0.00e+00	0	44	0	2402287616	9	3880
2026-01-19 01:05:46.30	122.78	22.54	-24.2	-25.0	18.5	0.00e+00	0	44	0	2408579072	9	3934
2026-01-19 01:05:47.30	123.02	22.47	-24.2	-25.0	18.5	0.00e+00	0	44	0	2413821952	9	3957
2026-01-19 01:05:48.31	123.25	22.39	-24.3	-25.3	18.3	0.00e+00	0	44	0	2419064832	9	4024
2026-01-19 01:05:49.31	123.49	22.32	-24.3	-25.3	18.4	0.00e+00	0	44	0	2425356288	9	4012
2026-01-19 01:05:50.31	123.72	22.25	-24.4	-25.4	18.3	0.00e+00	0	44	0	2430599168	9	4041
2026-01-19 01:05:51.31	123.95	22.17	-24.3	-25.2	18.4	0.00e+00	0	44	0	2435842048	9	4002
2026-01-19 01:05:52.31	124.18	22.10	-24.3	-25.3	18.3	0.00e+00	0	44	0	2442133504	9	4013
2026-01-19 01:05:53.32	124.41	22.02	-24.4	-25.5	18.2	0.00e+00	0	44	0	2447376384	9	4072
2026-01-19 01:05:54.32	124.64	21.95	-24.5	-25.7	18.1	0.00e+00	0	44	0	2452619264	9	4113
2026-01-19 01:05:55.32	124.86	21.87	-24.3	-25.2	18.4	0.00e+00	0	44	0	2458910720	9	4001
2026-01-19 01:05:56.32	125.09	21.79	-24.3	-25.1	18.4	0.00e+00	0	44	0	2464153600	9	3969
2026-01-19 01:05:57.32	125.31	21.72	-24.3	-25.3	18.3	0.00e+00	0	44	0	2470445056	9	4004
2026-01-19 01:05:58.33	125.54	21.64	-24.5	-25.6	18.1	0.00e+00	0	44	0	2475687936	9	4098
2026-01-19 01:05:59.33	125.76	21.57	-24.6	-25.9	18.0	0.00e+00	0	44	0	2481979392	9	4175
2026-01-19 01:06:00.34	125.98	21.49	-24.8	-26.3	17.8	0.00e+00	0	44	0	2487222272	9	4268
2026-01-19 01:06:01.34	126.20	21.41	-24.9	-26.5	17.7	0.00e+00	0	44	0	2492465152	9	4329
2026-01-19 01:06:02.35	126.42	21.33	-24.8	-26.4	17.7	0.00e+00	0	44	0	2498756608	9	4306
2026-01-19 01:06:03.35	126.64	21.26	-24.8	-26.3	17.8	0.00e+00	0	44	0	2503999488	9	4270
2026-01-19 01:06:04.35	126.86	21.18	-24.7	-26.1	17.9	0.00e+00	0	44	0	2509242368	9	4217
2026-01-19 01:06:05.36	127.08	21.10	-24.7	-26.0	17.9	0.00e+00	0	44	0	2515533824	9	4199
2026-01-19 01:06:06.36	127.29	21.02	-24.7	-26.1	17.9	0.00e+00	0	44	0	2520776704	9	4220
2026-01-19 01:06:07.37	127.51	20.94	-24.5	-25.7	18.1	0.00e+00	0	44	0	2526019584	9	4114
2026-01-19 01:06:08.37	127.72	20.87	-24.5	-25.6	18.1	0.00e+00	0	44	0	2532311040	9	4093
2026-01-19 01:06:09.37	127.93	20.79	-24.6	-25.7	18.0	0.00e+00	0	44	0	2537553920	9	4122
2026-01-19 01:06:10.37	128.14	20.71	-24.6	-25.9	18.0	0.00e+00	0	44	0	2543845376	9	4165
2026-01-19 01:06:11.37	128.35	20.63	-24.7	-26.1	17.8	0.00e+00	0	44	0	2549088256	9	4219
2026-01-19 01:06:12.37	128.56	20.55	-24.8	-26.2	17.8	0.00e+00	0	44	0	2555379712	9	4243
2026-01-19 01:06:13.38	128.77	20.47	-24.8	-26.4	17.7	1.53e-04	0	44	0	2560622592	9	4301
2026-01-19 01:06:14.38	128.97	20.40	-24.7	-26.1	17.8	0.00e+00	0	44	0	2565865472	9	4228
2026-01-19 01:06:15.38	129.18	20.32	-24.7	-26.2	17.8	0.00e+00	0	44	0	2572156928	9	4243
2026-01-19 01:06:16.38	129.38	20.24	-24.8	-26.2	17.7	0.00e+00	0	44	0	2577399808	9	4262
2026-01-19 01:06:17.38	129.59	20.16	-24.9	-26.4	17.6	0.00e+00	0	44	0	2582642688	9	4312
2026-01-19 01:06:18.38	129.79	20.08	-24.9	-26.5	17.6	1.74e-04	0	44	0	2588934144	9	4326
2026-01-19 01:06:19.38	129.99	20.00	-24.9	-26.6	17.5	0.00e+00	0	44	0	2594177024	9	4362
2026-01-19 01:06:20.39	130.19	19.92	-25.1	-26.4	17.4	0.00e+00	0	44	0	2599419904	10	4181
2026-01-19 01:06:21.39	130.39	19.84	-25.1	-26.4	17.4	0.00e+00	0	44	0	2605711360	10	4207
2026-01-19 01:06:22.40	130.59	19.76	-25.1	-26.5	17.3	0.00e+00	0	44	0	2610954240	10	4216
2026-01-19 01:06:23.40	130.79	19.68	-25.2	-26.7	17.3	0.00e+00	0	44	0	2617245696	10	4261
2026-01-19 01:06:24.41	130.98	19.60	-25.3	-26.8	17.1	0.00e+00	0	44	0	2622488576	10	4300
2026-01-19 01:06:25.41	131.18	19.52	-25.1	-26.4	17.4	1.80e-04	0	44	0	2628780032	10	4177
2026-01-19 01:06:26.42	131.38	19.44	-25.0	-26.3	17.4	0.00e+00	0	44	0	2634022912	10	4151
2026-01-19 01:06:27.42	131.57	19.36	-25.1	-26.4	17.4	2.32e-04	0	44	0	2639265792	10	4178
2026-01-19 01:06:28.43	131.76	19.28	-25.1	-26.5	17.3	0.00e+00	0	44	0	2645557248	10	4215
2026-01-19 01:06:29.43	131.95	19.20	-25.2	-26.7	17.2	0.00e+00	0	44	0	2650800128	10	4278
2026-01-19 01:06:30.43	132.14	19.12	-25.3	-26.8	17.1	1.02e-04	0	44	0	2656043008	10	4309
2026-01-19 01:06:31.43	132.33	19.04	-25.3	-26.9	17.0	6.52e-05	0	44	0	2662334464	10	4317
2026-01-19 01:06:32.44	132.52	18.96	-25.3	-26.9	17.1	0.00e+00	0	44	0	2667577344	10	4313
2026-01-19 01:06:33.43	132.71	18.88	-25.3	-26.9	17.1	0.00e+00	0	44	0	2672820224	10	4322
2026-01-19 01:06:34.43	132.89	18.80	-25.4	-27.1	17.0	1.86e-04	0	44	0	2679111680	10	4368
2026-01-19 01:06:35.44	133.08	18.72	-25.4	-27.0	17.0	0.00e+00	0	44	0	2684354560	10	4361
2026-01-19 01:06:36.44	133.27	18.64	-25.5	-27.3	16.8	2.25e-04	0	44	0	2690646016	10	4425
2026-01-19 01:06:37.45	133.45	18.56	-25.7	-27.2	16.6	2.38e-04	0	44	0	2695888896	11	4296
2026-01-19 01:06:38.45	133.63	18.47	-25.7	-27.3	16.6	0.00e+00	0	45	0	2701131776	11	4311
2026-01-19 01:06:39.46	133.82	18.39	-25.5	-26.9	16.8	1.90e-04	0	44	0	2707423232	11	4199
2026-01-19 01:06:40.46	134.00	18.31	-25.4	-26.6	16.9	0.00e+00	0	44	0	2712666112	11	4122
2026-01-19 01:06:41.47	134.18	18.23	-25.4	-26.7	16.9	0.00e+00	0	44	0	2718957568	11	4151
2026-01-19 01:06:42.48	134.36	18.15	-25.5	-26.7	16.8	4.05e-04	0	44	0	2724200448	11	4160
2026-01-19 01:06:43.48	134.54	18.07	-25.4	-26.6	16.9	4.59e-04	0	44	0	2729443328	11	4121
2026-01-19 01:06:44.48	134.71	17.99	-25.5	-26.9	16.8	0.00e+00	0	44	0	2735734784	11	4202
2026-01-19 01:06:45.48	134.89	17.91	-25.6	-27.1	16.6	4.83e-04	0	44	0	2740977664	11	4266
2026-01-19 01:06:46.48	135.07	17.83	-25.7	-27.2	16.6	3.92e-04	0	44	0	2747269120	11	4287
2026-01-19 01:06:47.48	135.24	17.75	-25.7	-27.3	16.5	0.00e+00	0	44	0	2752512000	11	4316
2026-01-19 01:06:48.48	135.41	17.67	-25.7	-27.3	16.5	3.50e-04	0	44	0	2757754880	11	4311
2026-01-19 01:06:49.49	135.59	17.59	-25.6	-27.1	16.6	0.00e+00	0	44	0	2764046336	11	4260
2026-01-19 01:06:50.49	135.76	17.51	-25.7	-27.2	16.5	0.00e+00	0	44	0	2769289216	11	4282
2026-01-19 01:06:51.49	135.93	17.43	-25.6	-27.1	16.6	1.90e-04	0	44	0	2774532096	11	4266
2026-01-19 01:06:52.49	136.10	17.35	-25.5	-26.7	16.8	1.92e-04	0	44	0	2780823552	11	4164
2026-01-19 01:06:53.50	136.27	17.27	-25.5	-26.8	16.8	0.00e+00	0	44	0	2786066432	11	4176
2026-01-19 01:06:54.49	136.44	17.19	-25.5	-26.9	16.7	0.00e+00	0	44	0	2791309312	11	4208
2026-01-19 01:06:55.50	136.60	17.11	-25.5	-26.9	16.7	4.80e-04	0	44	0	2797600768	11	4206
2026-01-19 01:06:56.51	136.77	17.02	-25.5	-26.9	16.7	0.00e+00	0	44	0	2802843648	11	4227
2026-01-19 01:06:57.51	136.94	16.94	-25.6	-27.1	16.6	6.86e-04	0	44	0	2809135104	11	4258
2026-01-19 01:06:58.51	137.10	16.86	-25.8	-27.5	16.4	6.87e-04	0	44	0	2814377984	11	4369
2026-01-19 01:06:59.52	137.27	16.78	-25.7	-27.3	16.4	0.00e+00	0	44	0	2820669440	11	4319
2026-01-19 01:07:00.52	137.43	16.70	-25.7	-27.3	16.5	3.79e-04	0	44	0	2825912320	11	4313
2026-01-19 01:07:01.52	137.59	16.62	-25.7	-27.3	16.5	0.00e+00	0	44	0	2831155200	11	4311
2026-01-19 01:07:02.51	137.75	16.54	-25.8	-27.5	16.3	0.00e+00	0	44	0	2836398080	11	4378
2026-01-19 01:07:03.51	137.91	16.46	-25.8	-27.5	16.3	0.00e+00	0	44	0	2842689536	11	4371
2026-01-19 01:07:04.52	138.07	16.38	-25.7	-27.3	16.4	0.00e+00	0	44	0	2847932416	11	4334
2026-01-19 01:07:05.51	138.23	16.30	-25.8	-27.4	16.3	0.00e+00	0	44	0	2853175296	11	4362
2026-01-19 01:07:06.51	138.39	16.22	-25.8	-27.5	16.3	0.00e+00	0	44	0	2859466752	11	4379
2026-01-19 01:07:07.51	138.55	16.15	-25.8	-27.6	16.2	2.82e-04	0	44	0	2864709632	11	4401
2026-01-19 01:07:08.52	138.70	16.06	-25.9	-27.7	16.1	1.10e-06	0	44	0	2871001088	11	4452
2026-01-19 01:07:09.53	138.86	15.98	-26.0	-27.9	16.0	2.09e-04	0	44	0	2876243968	11	4494
2026-01-19 01:07:10.53	139.01	15.91	-26.0	-27.4	16.0	0.00e+00	0	44	0	2882535424	12	4245
2026-01-19 01:07:11.54	139.17	15.82	-26.0	-27.5	15.9	0.00e+00	0	44	0	2887778304	12	4260
2026-01-19 01:07:12.54	139.32	15.75	-26.0	-27.6	15.8	0.00e+00	0	44	0	2893021184	12	4294
2026-01-19 01:07:13.55	139.48	15.67	-26.0	-27.5	15.9	0.00e+00	0	44	0	2899312640	12	4269
2026-01-19 01:07:14.56	139.63	15.59	-26.1	-27.6	15.8	0.00e+00	0	44	0	2904555520	12	4306
2026-01-19 01:07:15.56	139.78	15.51	-26.1	-27.7	15.8	0.00e+00	0	44	0	2909798400	12	4318
2026-01-19 01:07:16.56	139.93	15.43	-26.1	-27.8	15.7	0.00e+00	0	44	0	2916089856	12	4342
2026-01-19 01:07:17.57	140.08	15.35	-26.1	-27.7	15.7	0.00e+00	0	44	0	2921332736	12	4323
2026-01-19 01:07:18.56	140.23	15.27	-26.2	-27.9	15.6	0.00e+00	0	44	0	2926575616	12	4370
2026-01-19 01:07:19.56	140.38	15.19	-26.2	-27.9	15.6	0.00e+00	0	44	0	2932867072	12	4380
2026-01-19 01:07:20.57	140.52	15.11	-26.3	-28.0	15.5	2.20e-06	0	44	0	2938109952	12	4421
2026-01-19 01:07:21.57	140.67	15.03	-26.3	-28.1	15.4	0.00e+00	0	44	0	2944401408	12	4432
2026-01-19 01:07:22.57	140.82	14.95	-26.3	-28.1	15.4	0.00e+00	0	44	0	2949644288	12	4459
2026-01-19 01:07:23.57	140.96	14.88	-26.3	-28.2	15.3	0.00e+00	0	44	0	2955935744	12	4488
2026-01-19 01:07:24.57	141.10	14.80	-26.4	-28.4	15.2	0.00e+00	0	44	0	2961178624	12	4544
2026-01-19 01:07:25.58	141.25	14.72	-26.4	-28.4	15.2	0.00e+00	0	44	0	2966421504	12	4536
2026-01-19 01:07:26.58	141.39	14.64	-26.3	-28.2	15.3	0.00e+00	0	45	0	2972712960	12	4492
2026-01-19 01:07:27.57	141.53	14.56	-26.3	-28.2	15.3	0.00e+00	0	44	0	2977955840	12	4467
2026-01-19 01:07:28.57	141.67	14.48	-26.3	-28.1	15.4	0.00e+00	0	44	0	2983198720	12	4457
2026-01-19 01:07:29.58	141.81	14.41	-26.2	-28.0	15.4	0.00e+00	0	44	0	2989490176	12	4428
2026-01-19 01:07:30.59	141.95	14.33	-26.4	-28.3	15.3	0.00e+00	0	44	0	2994733056	12	4493
2026-01-19 01:07:31.60	142.09	14.25	-26.3	-28.2	15.3	0.00e+00	0	44	0	2999975936	12	4466
2026-01-19 01:07:32.60	142.23	14.17	-26.2	-27.9	15.5	0.00e+00	0	44	0	3006267392	12	4372
2026-01-19 01:07:33.60	142.37	14.09	-26.1	-27.7	15.6	0.00e+00	0	45	0	3011510272	12	4321
2026-01-19 01:07:34.60	142.51	14.02	-26.1	-27.7	15.6	0.00e+00	0	44	0	3017801728	12	4323
2026-01-19 01:07:35.60	142.64	13.94	-26.1	-27.8	15.5	0.00e+00	0	44	0	3023044608	12	4352
2026-01-19 01:07:36.60	142.78	13.86	-26.2	-27.9	15.4	0.00e+00	0	44	0	3028287488	12	4386
2026-01-19 01:07:37.60	142.91	13.78	-26.2	-27.9	15.4	0.00e+00	0	44	0	3034578944	12	4401
2026-01-19 01:07:38.61	143.05	13.71	-26.2	-28.1	15.3	0.00e+00	0	44	0	3039821824	12	4451
2026-01-19 01:07:39.61	143.18	13.63	-26.2	-28.0	15.4	0.00e+00	0	44	0	3045064704	12	4418
2026-01-19 01:07:40.62	143.32	13.55	-26.3	-28.2	15.2	0.00e+00	0	44	0	3051356160	12	4485
2026-01-19 01:07:41.62	143.45	13.47	-26.3	-28.3	15.1	0.00e+00	0	44	0	3056599040	12	4525
2026-01-19 01:07:42.63	143.58	13.40	-26.4	-28.4	15.1	0.00e+00	0	44	0	3062890496	12	4553
2026-01-19 01:07:43.63	143.71	13.32	-26.4	-28.4	15.1	0.00e+00	0	44	0	3068133376	12	4564
2026-01-19 01:07:44.63	143.84	13.24	-26.1	-27.8	15.4	0.00e+00	0	44	0	3073376256	12	4383
2026-01-19 01:07:45.64	143.97	13.17	-26.1	-27.8	15.4	0.00e+00	0	44	0	3079667712	12	4365
2026-01-19 01:07:46.64	144.10	13.09	-26.1	-27.8	15.4	0.00e+00	0	44	0	3084910592	12	4381
2026-01-19 01:07:47.65	144.23	13.01	-26.1	-27.8	15.4	0.00e+00	0	44	0	3091202048	12	4383
2026-01-19 01:07:48.65	144.36	12.94	-26.2	-27.9	15.3	0.00e+00	0	44	0	3096444928	12	4408
2026-01-19 01:07:49.65	144.48	12.86	-26.3	-28.1	15.3	0.00e+00	0	44	0	3101687808	12	4464
2026-01-19 01:07:50.66	144.61	12.79	-26.2	-28.1	15.3	0.00e+00	0	44	0	3107979264	12	4445
2026-01-19 01:07:51.66	144.74	12.71	-26.3	-28.3	15.2	0.00e+00	0	44	0	3113222144	12	4501
2026-01-19 01:07:52.66	144.86	12.63	-26.3	-28.2	15.2	0.00e+00	0	44	0	3118465024	12	4479
2026-01-19 01:07:53.66	144.99	12.56	-26.4	-28.5	15.1	0.00e+00	0	44	0	3124756480	12	4573
2026-01-19 01:07:54.67	145.11	12.48	-26.5	-28.1	15.0	0.00e+00	0	44	0	3129999360	13	4341
2026-01-19 01:07:55.67	145.23	12.41	-26.6	-28.3	14.9	0.00e+00	0	44	0	3136290816	13	4392
2026-01-19 01:07:56.67	145.36	12.33	-26.6	-28.4	14.8	0.00e+00	0	44	0	3141533696	13	4418
2026-01-19 01:07:57.68	145.48	12.26	-26.0	-27.5	13.3	0.00e+00	0	44	0	3146776576	13	4311
2026-01-19 01:07:58.68	145.60	12.18	-26.6	-28.3	14.7	0.00e+00	0	44	0	3153068032	13	4400
2026-01-19 01:07:59.68	145.72	12.11	-26.6	-28.3	14.3	1.04e-03	0	44	0	3158310912	13	4401
2026-01-19 01:08:00.69	145.84	12.03	-26.6	-28.3	14.8	0.00e+00	0	44	0	3164602368	13	4412
2026-01-19 01:08:01.69	145.96	11.96	-26.7	-28.5	14.8	0.00e+00	0	44	0	3169845248	13	4471
2026-01-19 01:08:02.70	146.08	11.88	-26.6	-28.4	14.8	0.00e+00	0	45	0	3175088128	13	4439
2026-01-19 01:08:03.71	146.20	11.81	-26.5	-28.3	14.9	0.00e+00	0	44	0	3181379584	13	4391
2026-01-19 01:08:04.71	146.32	11.73	-26.4	-28.0	15.1	0.00e+00	0	44	0	3186622464	13	4310
2026-01-19 01:08:05.71	146.44	11.66	-26.5	-28.2	14.9	0.00e+00	0	45	0	3191865344	13	4368
2026-01-19 01:08:06.71	146.55	11.59	-26.5	-28.6	14.9	1.34e-03	0	44	0	3198156800	12	4605
2026-01-19 01:08:07.71	146.67	11.51	-26.5	-28.3	14.9	0.00e+00	0	44	0	3203399680	13	4393
2026-01-19 01:08:08.71	146.79	11.44	-26.8	-29.0	14.4	0.00e+00	0	44	0	3208642560	13	4614
2026-01-19 01:08:09.71	146.90	11.36	-26.7	-28.6	14.6	0.00e+00	0	45	0	3214934016	13	4513
2026-01-19 01:08:10.72	147.02	11.29	-26.6	-28.4	14.7	0.00e+00	0	44	0	3220176896	13	4446
2026-01-19 01:08:11.71	147.13	11.22	-26.6	-28.5	14.7	1.20e-03	0	44	0	3226468352	13	4477
2026-01-19 01:08:12.72	147.24	11.14	-26.7	-28.7	14.5	1.10e-06	0	44	0	3231711232	13	4526
2026-01-19 01:08:13.72	147.36	11.07	-26.7	-28.7	14.5	1.41e-04	0	44	0	3238002688	13	4537
2026-01-19 01:08:14.72	147.47	11.00	-26.9	-29.2	14.2	1.10e-06	0	44	0	3243245568	13	4697
2026-01-19 01:08:15.72	147.58	10.93	-26.9	-29.2	14.3	1.09e-03	0	44	0	3248488448	13	4678
2026-01-19 01:08:16.72	147.69	10.85	-26.8	-29.0	14.3	1.50e-04	0	44	0	3254779904	13	4633
2026-01-19 01:08:17.73	147.80	10.78	-27.0	-29.3	14.2	1.16e-03	0	45	0	3260022784	13	4713
2026-01-19 01:08:18.73	147.91	10.71	-26.9	-29.2	14.2	1.24e-03	0	44	0	3265265664	13	4672
2026-01-19 01:08:19.74	148.02	10.63	-27.0	-29.0	14.1	0.00e+00	0	44	0	3271557120	14	4483
2026-01-19 01:08:20.75	148.13	10.56	-27.3	-29.5	13.8	1.36e-03	0	44	0	3276800000	14	4640
2026-01-19 01:08:21.75	148.24	10.49	-27.2	-29.3	13.9	2.20e-06	0	44	0	3282042880	14	4580
2026-01-19 01:08:22.76	148.35	10.42	-27.1	-29.0	14.1	1.61e-04	0	44	0	3288334336	14	4495
2026-01-19 01:08:23.76	148.46	10.34	-27.0	-28.9	14.1	1.27e-03	0	44	0	3293577216	14	4462
2026-01-19 01:08:24.77	148.57	10.27	-27.1	-29.1	14.0	1.42e-03	0	44	0	3299868672	14	4513
2026-01-19 01:08:25.77	148.67	10.20	-27.1	-29.1	14.1	2.10e-04	0	44	0	3305111552	14	4507
2026-01-19 01:08:26.76	148.78	10.13	-27.2	-29.2	14.0	1.46e-03	0	45	0	3311403008	14	4559
2026-01-19 01:08:27.77	148.88	10.06	-27.1	-29.0	14.1	1.41e-03	0	44	0	3316645888	14	4483
2026-01-19 01:08:28.77	148.99	9.99	-27.2	-29.3	13.9	2.37e-04	0	44	0	3321888768	14	4587
2026-01-19 01:08:29.77	149.09	9.91	-27.2	-29.3	13.9	1.37e-03	0	44	0	3328180224	14	4569
2026-01-19 01:08:30.78	149.20	9.84	-27.3	-29.5	13.8	1.28e-03	0	44	0	3333423104	14	4641
2026-01-19 01:08:31.78	149.30	9.77	-27.3	-29.4	13.8	2.51e-04	0	44	0	3338665984	14	4616
2026-01-19 01:08:32.79	149.41	9.70	-27.3	-29.5	13.7	1.31e-03	0	44	0	3344957440	14	4643
2026-01-19 01:08:33.79	149.51	9.63	-27.3	-29.4	13.8	1.10e-06	0	44	0	3350200320	14	4621
2026-01-19 01:08:34.79	149.61	9.56	-27.3	-29.5	13.7	2.44e-04	0	45	0	3355443200	14	4642
2026-01-19 01:08:35.80	149.71	9.49	-27.3	-29.5	13.7	1.61e-03	0	44	0	3361734656	14	4655
2026-01-19 01:08:36.81	149.82	9.42	-27.6	-29.7	13.3	1.53e-03	0	44	0	3366977536	15	4596
2026-01-19 01:08:37.81	149.92	9.35	-27.6	-29.7	13.3	2.13e-04	0	44	0	3373268992	15	4573
2026-01-19 01:08:38.81	150.02	9.28	-27.5	-29.4	13.4	1.54e-03	0	44	0	3378511872	15	4502
2026-01-19 01:08:39.81	150.12	9.21	-27.5	-29.9	13.5	1.40e-03	0	44	0	3384803328	14	4750
2026-01-19 01:08:40.81	150.21	9.14	-27.5	-29.5	13.4	6.80e-06	0	44	0	3390046208	15	4514
2026-01-19 01:08:41.82	150.31	9.07	-27.4	-29.8	13.4	1.46e-03	0	44	0	3395289088	14	4754
2026-01-19 01:08:42.82	150.41	9.00	-27.4	-29.7	13.4	6.80e-06	0	44	0	3401580544	14	4729
2026-01-19 01:08:43.83	150.51	8.93	-27.5	-30.0	13.3	2.44e-04	0	44	0	3406823424	14	4814
2026-01-19 01:08:44.82	150.61	8.86	-27.6	-30.0	13.0	2.40e-05	0	44	0	3412066304	15	4713
2026-01-19 01:08:45.82	150.71	8.79	-27.4	-29.5	13.2	2.05e-05	0	44	0	3418357760	15	4571
2026-01-19 01:08:46.82	150.80	8.72	-27.4	-30.1	13.2	2.76e-04	0	44	0	3423600640	14	4885
2026-01-19 01:08:47.82	150.90	8.65	-27.3	-29.9	13.2	1.60e-05	0	44	0	3428843520	14	4862
2026-01-19 01:08:48.83	150.99	8.58	-27.5	-30.0	12.8	1.51e-03	0	44	0	3435134976	15	4817
2026-01-19 01:08:49.83	151.09	8.51	-27.4	-29.9	12.8	4.11e-05	0	44	0	3440377856	15	4769
2026-01-19 01:08:50.84	151.19	8.45	-27.2	-29.9	13.1	7.91e-04	0	44	0	3446669312	14	4884
2026-01-19 01:08:51.84	151.28	8.38	-27.3	-30.2	12.9	2.17e-05	0	44	0	3451912192	14	5017
2026-01-19 01:08:52.84	151.37	8.31	-27.2	-29.8	13.0	2.74e-05	0	44	0	3457155072	14	4899
2026-01-19 01:08:53.84	151.47	8.24	-27.3	-30.1	12.9	1.74e-03	0	44	0	3463446528	14	4998
2026-01-19 01:08:54.85	151.56	8.17	-27.4	-30.3	12.8	3.54e-05	0	44	0	3468689408	14	5036
2026-01-19 01:08:55.84	151.65	8.10	-27.3	-30.0	13.0	3.24e-04	0	44	0	3473932288	14	4920
2026-01-19 01:08:56.84	151.75	8.04	-27.4	-30.3	12.8	3.20e-05	0	44	0	3480223744	14	5023
2026-01-19 01:08:57.84	151.84	7.97	-27.6	-30.2	12.6	4.92e-05	0	44	0	3485466624	15	4850
2026-01-19 01:08:58.84	151.93	7.90	-27.7	-30.4	12.5	7.55e-05	0	44	0	3490709504	15	4911
2026-01-19 01:08:59.84	152.02	7.83	-27.6	-30.1	12.7	8.01e-05	0	44	0	3497000960	15	4786
2026-01-19 01:09:00.84	152.11	7.77	-27.4	-29.7	13.0	1.68e-03	0	44	0	3502243840	15	4657
2026-01-19 01:09:01.85	152.20	7.70	-27.4	-30.0	13.0	2.74e-05	0	44	0	3508535296	14	4889
2026-01-19 01:09:02.85	152.29	7.63	-27.4	-30.0	13.1	1.83e-05	0	44	0	3513778176	14	4872
2026-01-19 01:09:03.85	152.38	7.56	-27.6	-30.0	12.8	2.17e-05	0	45	0	3519021056	15	4732
2026-01-19 01:09:04.85	152.47	7.50	-27.7	-30.3	12.7	4.92e-05	0	45	0	3525312512	15	4813
2026-01-19 01:09:05.86	152.56	7.43	-27.8	-30.5	12.5	7.43e-05	0	44	0	3530555392	15	4883
2026-01-19 01:09:06.85	152.65	7.36	-27.7	-30.2	12.6	5.72e-05	0	44	0	3535798272	15	4809
2026-01-19 01:09:07.86	152.74	7.30	-27.8	-30.3	12.6	6.75e-05	0	44	0	3542089728	15	4844
2026-01-19 01:09:08.86	152.82	7.23	-27.8	-30.5	12.4	7.55e-05	0	44	0	3547332608	15	4897
2026-01-19 01:09:09.86	152.91	7.16	-27.8	-30.5	12.5	6.40e-05	0	44	0	3553624064	15	4882
2026-01-19 01:09:10.87	153.00	7.10	-28.3	-31.0	12.0	1.44e-04	0	44	0	3558866944	16	4934
2026-01-19 01:09:11.88	153.09	7.03	-31.6	-43.1	3.8	8.24e-01	0	44	104	3562012672	24	13533
2026-01-19 01:09:12.88	153.17	6.97	-33.4	-45.1	3.8	8.47e-01	0	44	104	3562012672	26	13751

#Closed at: 2026-01-19 01:09:13
#Recorded file [3562 MB]: D:/data/31010_260119_035838.dat