passes_logs/2026/01/19/R2M6_AANII_01/R2M6_AANII_01__20260119_023839_FENGYUN_3D_rec.log

#Pass ID: 20260119_023839_FENGYUN 3D
#Satellite: FENGYUN 3D
#Configuration: FENGYUN 3D
#almurnet v.1.7.20240730
#Start time: 2026-01-19 02:38:40

#Version: 2.2.20231116
#Station: R2M6_AANII_01
#Location: 30.233357 lon 59.946436 lat
#TLE: 1 43010U 17072A   26017.96359538  .00000271  00000+0  15011-3 0  9999
#TLE: 2 43010  98.9936 349.8252 0002386 103.8840 256.2601 14.19697057423673

#Time	Az	El	Level	Level2	SNR	BER	BlckErr	Temp	State	Recorded	gain1	gain2
2026-01-19 02:38:40.90	17.56	7.14	-30.4	-34.2	5.3	7.91e-01	0	42	0	0	20	5546
2026-01-19 02:38:41.90	17.55	7.21	-30.6	-34.2	5.2	7.99e-01	0	42	104	0	21	5464
2026-01-19 02:38:42.90	17.55	7.29	-30.8	-34.9	8.4	4.85e-02	0	42	0	0	21	5763
2026-01-19 02:38:43.90	17.54	7.37	-30.6	-34.3	8.9	4.18e-02	0	42	0	5242880	21	5466
2026-01-19 02:38:44.91	17.53	7.45	-30.3	-33.8	9.6	2.03e-02	0	42	0	11534336	20	5360
2026-01-19 02:38:45.92	17.52	7.53	-30.1	-33.1	10.1	1.24e-02	0	42	0	16777216	20	5110
2026-01-19 02:38:46.92	17.52	7.61	-29.5	-32.1	11.2	5.80e-03	0	42	0	22020096	19	4859
2026-01-19 02:38:47.92	17.51	7.68	-29.3	-32.1	11.5	1.83e-03	0	42	0	28311552	18	4944
2026-01-19 02:38:48.92	17.50	7.76	-29.4	-32.2	11.5	3.35e-03	0	42	0	33554432	18	4966
2026-01-19 02:38:49.92	17.49	7.84	-29.2	-31.7	11.8	8.26e-04	0	42	0	38797312	18	4816
2026-01-19 02:38:50.93	17.48	7.92	-28.9	-30.9	12.3	8.26e-04	0	42	0	45088768	18	4568
2026-01-19 02:38:51.93	17.48	8.00	-28.5	-30.5	12.9	2.16e-03	0	42	0	50331648	17	4529
2026-01-19 02:38:52.93	17.47	8.08	-28.3	-30.5	13.2	1.97e-03	0	42	0	55574528	16	4652
2026-01-19 02:38:53.93	17.46	8.16	-28.4	-30.9	12.9	4.20e-04	0	42	0	61865984	16	4781
2026-01-19 02:38:54.94	17.45	8.24	-28.2	-30.3	13.2	1.88e-03	0	42	0	67108864	16	4603
2026-01-19 02:38:55.94	17.44	8.32	-28.3	-30.5	13.2	2.05e-03	0	42	0	73400320	16	4661
2026-01-19 02:38:56.94	17.43	8.41	-28.1	-30.0	13.5	2.74e-05	0	42	0	78643200	16	4502
2026-01-19 02:38:57.95	17.43	8.49	-27.8	-29.8	13.7	1.85e-03	0	42	0	83886080	15	4567
2026-01-19 02:38:58.95	17.42	8.57	-27.6	-29.4	14.0	1.10e-06	0	42	0	90177536	15	4431
2026-01-19 02:38:59.96	17.41	8.65	-27.7	-29.7	13.8	3.62e-04	0	42	0	95420416	15	4517
2026-01-19 02:39:00.96	17.40	8.73	-27.5	-29.3	14.1	4.50e-06	0	42	0	101711872	15	4398
2026-01-19 02:39:01.97	17.39	8.82	-27.4	-29.0	14.2	3.40e-06	0	42	0	106954752	15	4317
2026-01-19 02:39:02.98	17.38	8.90	-27.3	-29.3	14.3	3.58e-04	0	42	0	112197632	14	4532
2026-01-19 02:39:03.98	17.37	8.98	-27.4	-29.5	14.2	2.20e-06	0	42	0	118489088	14	4586
2026-01-19 02:39:04.98	17.36	9.07	-27.2	-29.1	14.5	1.73e-03	0	43	0	123731968	14	4449
2026-01-19 02:39:05.98	17.36	9.15	-27.2	-29.1	14.5	3.40e-06	0	42	0	128974848	14	4457
2026-01-19 02:39:06.99	17.35	9.23	-27.4	-29.4	14.3	1.56e-03	0	42	0	135266304	14	4564
2026-01-19 02:39:07.99	17.34	9.32	-27.2	-29.0	14.6	0.00e+00	0	42	0	140509184	14	4432
2026-01-19 02:39:08.99	17.33	9.40	-27.3	-29.2	14.5	4.50e-06	0	42	0	146800640	14	4479
2026-01-19 02:39:09.98	17.32	9.49	-27.3	-29.3	14.4	1.71e-03	0	43	0	152043520	14	4519
2026-01-19 02:39:10.99	17.31	9.57	-27.1	-28.7	14.7	0.00e+00	0	43	0	157286400	14	4352
2026-01-19 02:39:11.99	17.30	9.66	-27.1	-28.7	14.8	3.80e-04	0	43	0	163577856	14	4348
2026-01-19 02:39:13.00	17.29	9.74	-27.2	-29.1	14.6	1.10e-06	0	43	0	168820736	14	4448
2026-01-19 02:39:14.00	17.28	9.83	-27.1	-28.7	14.8	0.00e+00	0	43	0	175112192	14	4351
2026-01-19 02:39:15.00	17.27	9.91	-27.0	-28.6	14.8	0.00e+00	0	43	0	180355072	14	4327
2026-01-19 02:39:16.00	17.26	10.00	-27.0	-28.5	14.9	0.00e+00	0	43	0	185597952	14	4295
2026-01-19 02:39:17.01	17.25	10.09	-27.1	-28.7	14.8	0.00e+00	0	42	0	191889408	14	4355
2026-01-19 02:39:18.01	17.24	10.18	-26.9	-28.3	15.0	1.10e-06	0	43	0	197132288	14	4247
2026-01-19 02:39:19.01	17.23	10.26	-26.9	-28.8	15.0	1.10e-06	0	43	0	202375168	13	4478
2026-01-19 02:39:20.01	17.22	10.35	-26.9	-28.8	15.0	0.00e+00	0	43	0	208666624	13	4502
2026-01-19 02:39:21.02	17.21	10.44	-26.8	-28.7	15.1	0.00e+00	0	43	0	213909504	13	4449
2026-01-19 02:39:22.02	17.20	10.53	-27.0	-29.0	14.9	1.10e-06	0	43	0	220200960	13	4554
2026-01-19 02:39:23.03	17.19	10.62	-26.8	-28.1	15.1	0.00e+00	0	43	0	225443840	14	4182
2026-01-19 02:39:24.04	17.18	10.71	-26.7	-28.5	15.2	0.00e+00	0	43	0	230686720	13	4402
2026-01-19 02:39:25.05	17.17	10.80	-26.8	-28.6	15.2	1.10e-06	0	43	0	236978176	13	4417
2026-01-19 02:39:26.05	17.16	10.89	-26.9	-28.9	15.0	0.00e+00	0	43	0	242221056	13	4513
2026-01-19 02:39:27.05	17.15	10.98	-27.0	-29.0	14.9	0.00e+00	0	43	0	248512512	13	4537
2026-01-19 02:39:28.06	17.14	11.07	-26.9	-28.8	15.0	0.00e+00	0	43	0	253755392	13	4495
2026-01-19 02:39:29.06	17.13	11.16	-27.1	-28.8	14.8	0.00e+00	0	43	0	258998272	14	4367
2026-01-19 02:39:30.06	17.11	11.25	-27.2	-29.1	14.6	1.10e-06	0	43	0	265289728	14	4454
2026-01-19 02:39:31.06	17.10	11.34	-27.0	-28.6	14.9	0.00e+00	0	43	0	270532608	14	4308
2026-01-19 02:39:32.07	17.09	11.43	-26.9	-28.3	15.1	0.00e+00	0	43	0	275775488	14	4227
2026-01-19 02:39:33.07	17.08	11.52	-26.8	-28.6	15.2	0.00e+00	0	43	0	282066944	13	4419
2026-01-19 02:39:34.07	17.07	11.62	-26.8	-28.6	15.1	0.00e+00	0	43	0	287309824	13	4438
2026-01-19 02:39:35.07	17.06	11.71	-27.1	-28.8	14.8	0.00e+00	0	43	0	293601280	14	4369
2026-01-19 02:39:36.07	17.05	11.80	-27.5	-29.2	14.2	1.10e-06	0	43	0	298844160	15	4384
2026-01-19 02:39:37.08	17.03	11.89	-27.1	-28.8	14.8	0.00e+00	0	43	0	304087040	14	4363
2026-01-19 02:39:38.08	17.02	11.99	-26.9	-28.2	15.1	2.20e-06	0	43	0	310378496	14	4215
2026-01-19 02:39:39.07	17.01	12.08	-26.7	-28.4	15.3	0.00e+00	0	43	0	315621376	13	4374
2026-01-19 02:39:40.08	17.00	12.18	-26.8	-28.7	15.1	0.00e+00	0	43	0	320864256	13	4451
2026-01-19 02:39:41.08	16.99	12.27	-26.7	-28.4	15.3	0.00e+00	0	43	0	327155712	13	4381
2026-01-19 02:39:42.09	16.97	12.37	-26.8	-28.5	15.3	0.00e+00	0	43	0	332398592	13	4393
2026-01-19 02:39:43.10	16.96	12.46	-26.8	-28.5	15.3	0.00e+00	0	43	0	337641472	13	4398
2026-01-19 02:39:44.10	16.95	12.56	-26.8	-28.6	15.2	0.00e+00	0	43	0	343932928	13	4433
2026-01-19 02:39:45.10	16.94	12.66	-26.7	-28.4	15.4	0.00e+00	0	43	0	349175808	13	4359
2026-01-19 02:39:46.10	16.92	12.75	-26.7	-28.4	15.3	0.00e+00	0	43	0	355467264	13	4380
2026-01-19 02:39:47.11	16.91	12.85	-26.8	-28.5	15.3	0.00e+00	0	43	0	360710144	13	4386
2026-01-19 02:39:48.11	16.90	12.95	-27.0	-28.5	15.0	0.00e+00	0	43	0	367001600	14	4293
2026-01-19 02:39:49.11	16.88	13.04	-26.7	-28.3	15.4	0.00e+00	0	43	0	372244480	13	4341
2026-01-19 02:39:50.12	16.87	13.14	-26.6	-28.1	15.5	0.00e+00	0	43	0	377487360	13	4282
2026-01-19 02:39:51.12	16.86	13.24	-26.5	-28.0	15.6	0.00e+00	0	43	0	383778816	13	4261
2026-01-19 02:39:52.12	16.84	13.34	-26.6	-28.2	15.5	0.00e+00	0	43	0	389021696	13	4313
2026-01-19 02:39:53.12	16.83	13.44	-26.5	-28.0	15.6	0.00e+00	0	43	0	394264576	13	4257
2026-01-19 02:39:54.13	16.82	13.54	-26.6	-28.0	15.6	0.00e+00	0	43	0	400556032	13	4267
2026-01-19 02:39:55.12	16.80	13.64	-26.6	-28.0	15.6	0.00e+00	0	43	0	405798912	13	4262
2026-01-19 02:39:56.13	16.79	13.74	-26.5	-27.8	15.7	0.00e+00	0	43	0	411041792	13	4214
2026-01-19 02:39:57.14	16.78	13.84	-26.5	-28.3	15.8	0.00e+00	0	43	0	417333248	12	4455
2026-01-19 02:39:58.14	16.76	13.95	-26.4	-28.2	15.8	0.00e+00	0	43	0	422576128	12	4418
2026-01-19 02:39:59.14	16.75	14.05	-26.5	-28.3	15.8	0.00e+00	0	43	0	428867584	12	4455
2026-01-19 02:40:00.14	16.73	14.15	-26.5	-27.8	15.8	0.00e+00	0	43	0	434110464	13	4216
2026-01-19 02:40:01.14	16.72	14.25	-26.5	-27.9	15.7	0.00e+00	0	43	0	439353344	13	4226
2026-01-19 02:40:02.14	16.70	14.36	-26.5	-27.8	15.8	0.00e+00	0	43	0	445644800	13	4209
2026-01-19 02:40:03.15	16.69	14.46	-26.5	-28.0	15.6	0.00e+00	0	43	0	450887680	13	4244
2026-01-19 02:40:04.15	16.67	14.56	-26.6	-28.2	15.6	1.45e-03	0	43	0	457179136	13	4319
2026-01-19 02:40:05.15	16.66	14.67	-26.4	-28.1	15.9	0.00e+00	0	43	0	462422016	12	4411
2026-01-19 02:40:06.16	16.64	14.77	-26.4	-28.1	15.9	0.00e+00	0	43	0	467664896	12	4402
2026-01-19 02:40:07.16	16.63	14.88	-26.4	-28.2	15.9	0.00e+00	0	44	0	473956352	12	4421
2026-01-19 02:40:08.16	16.61	14.98	-26.6	-28.2	15.6	0.00e+00	0	43	0	479199232	13	4306
2026-01-19 02:40:09.16	16.60	15.09	-26.9	-28.9	15.2	1.00e-03	0	43	0	484442112	13	4495
2026-01-19 02:40:10.16	16.58	15.20	-26.7	-28.3	15.6	0.00e+00	0	43	0	490733568	13	4338
2026-01-19 02:40:11.16	16.57	15.30	-26.4	-27.7	15.9	2.56e-04	0	43	0	495976448	13	4165
2026-01-19 02:40:12.16	16.55	15.41	-26.2	-27.7	16.2	0.00e+00	0	44	0	502267904	12	4294
2026-01-19 02:40:13.17	16.53	15.52	-26.1	-27.5	16.3	0.00e+00	0	43	0	507510784	12	4228
2026-01-19 02:40:14.17	16.52	15.63	-26.1	-27.5	16.3	0.00e+00	0	44	0	512753664	12	4235
2026-01-19 02:40:15.17	16.50	15.74	-26.3	-28.0	16.0	0.00e+00	0	44	0	519045120	12	4359
2026-01-19 02:40:16.17	16.48	15.85	-26.0	-27.2	16.4	1.61e-03	0	44	0	524288000	12	4164
2026-01-19 02:40:17.17	16.47	15.96	-26.0	-27.7	16.5	0.00e+00	0	44	0	529530880	11	4394
2026-01-19 02:40:18.18	16.45	16.07	-25.9	-27.7	16.5	1.58e-03	0	44	0	535822336	11	4392
2026-01-19 02:40:19.18	16.43	16.18	-25.9	-27.5	16.6	0.00e+00	0	44	0	541065216	11	4340
2026-01-19 02:40:20.18	16.42	16.29	-25.8	-27.3	16.7	0.00e+00	0	44	0	546308096	11	4304
2026-01-19 02:40:21.19	16.40	16.41	-25.9	-27.6	16.6	1.52e-03	0	44	0	552599552	11	4382
2026-01-19 02:40:22.19	16.38	16.52	-25.8	-27.4	16.7	0.00e+00	0	44	0	557842432	11	4304
2026-01-19 02:40:23.19	16.36	16.63	-25.6	-26.9	17.0	2.37e-04	0	44	0	564133888	11	4181
2026-01-19 02:40:24.19	16.35	16.75	-25.5	-26.7	17.1	0.00e+00	0	44	0	569376768	11	4133
2026-01-19 02:40:25.19	16.33	16.86	-25.5	-26.6	17.2	1.46e-03	0	43	0	574619648	11	4103
2026-01-19 02:40:26.19	16.31	16.97	-25.5	-26.8	17.1	0.00e+00	0	43	0	580911104	11	4150
2026-01-19 02:40:27.20	16.29	17.09	-25.5	-26.6	17.1	1.45e-03	0	43	0	586153984	11	4111
2026-01-19 02:40:28.20	16.27	17.21	-25.5	-26.8	17.1	1.45e-03	0	44	0	592445440	11	4146
2026-01-19 02:40:29.21	16.25	17.32	-25.6	-26.9	17.0	2.22e-04	0	44	0	597688320	11	4195
2026-01-19 02:40:30.21	16.23	17.44	-25.4	-26.5	17.2	1.47e-03	0	44	0	602931200	11	4080
2026-01-19 02:40:31.21	16.22	17.56	-25.3	-26.7	17.4	0.00e+00	0	44	0	609222656	10	4247
2026-01-19 02:40:32.21	16.20	17.68	-25.3	-26.8	17.4	1.92e-04	0	44	0	614465536	10	4258
2026-01-19 02:40:33.22	16.18	17.80	-25.2	-26.6	17.4	1.33e-03	0	44	0	619708416	10	4213
2026-01-19 02:40:34.22	16.16	17.92	-25.2	-26.4	17.5	1.53e-03	0	44	0	625999872	10	4180
2026-01-19 02:40:35.23	16.14	18.04	-25.1	-26.4	17.5	2.44e-04	0	44	0	631242752	10	4164
2026-01-19 02:40:36.24	16.12	18.16	-25.2	-26.6	17.5	1.48e-03	0	43	0	637534208	10	4210
2026-01-19 02:40:37.24	16.10	18.28	-25.0	-26.2	17.7	1.52e-03	0	44	0	642777088	10	4105
2026-01-19 02:40:38.24	16.08	18.40	-25.0	-26.0	17.8	0.00e+00	0	44	0	648019968	10	4076
2026-01-19 02:40:39.24	16.06	18.52	-25.0	-26.2	17.7	1.37e-03	0	44	0	654311424	10	4109
2026-01-19 02:40:40.25	16.03	18.65	-24.9	-25.9	17.8	1.34e-03	0	44	0	659554304	10	4035
2026-01-19 02:40:41.25	16.01	18.77	-24.9	-26.4	17.8	1.96e-04	0	44	0	665845760	9	4287
2026-01-19 02:40:42.26	15.99	18.90	-25.0	-26.2	17.7	1.34e-03	0	44	0	671088640	10	4116
2026-01-19 02:40:43.26	15.97	19.02	-24.8	-25.7	18.0	1.49e-03	0	44	0	676331520	10	3977
2026-01-19 02:40:44.26	15.95	19.15	-24.7	-26.0	18.0	1.92e-04	0	44	0	682622976	9	4187
2026-01-19 02:40:45.27	15.93	19.27	-24.7	-25.9	18.1	0.00e+00	0	44	0	687865856	9	4155
2026-01-19 02:40:46.27	15.91	19.40	-24.6	-25.8	18.1	1.47e-03	0	44	0	693108736	9	4130
2026-01-19 02:40:47.27	15.88	19.53	-24.7	-26.0	18.1	0.00e+00	0	44	0	699400192	9	4171
2026-01-19 02:40:48.28	15.86	19.66	-24.8	-26.2	17.9	1.45e-03	0	44	0	704643072	9	4231
2026-01-19 02:40:49.28	15.84	19.78	-24.7	-25.9	18.1	1.31e-03	0	44	0	710934528	9	4140
2026-01-19 02:40:50.28	15.81	19.91	-24.7	-26.0	18.1	0.00e+00	0	44	0	716177408	9	4163
2026-01-19 02:40:51.28	15.79	20.04	-24.7	-26.1	18.0	1.29e-03	0	44	0	721420288	9	4188
2026-01-19 02:40:52.28	15.77	20.17	-24.7	-26.0	18.1	0.00e+00	0	44	0	727711744	9	4167
2026-01-19 02:40:53.29	15.74	20.31	-24.8	-26.1	18.0	1.59e-04	0	44	0	732954624	9	4193
2026-01-19 02:40:54.28	15.72	20.44	-24.8	-26.2	17.9	0.00e+00	0	44	0	738197504	9	4231
2026-01-19 02:40:55.28	15.70	20.57	-24.9	-26.3	17.9	1.36e-03	0	44	0	744488960	9	4250
2026-01-19 02:40:56.28	15.67	20.70	-25.0	-26.5	17.8	1.98e-04	0	44	0	749731840	9	4304
2026-01-19 02:40:57.28	15.65	20.84	-25.1	-26.3	17.7	0.00e+00	0	44	0	754974720	10	4135
2026-01-19 02:40:58.29	15.62	20.97	-24.9	-26.0	17.8	1.33e-03	0	44	0	761266176	10	4057
2026-01-19 02:40:59.30	15.60	21.11	-25.0	-26.0	17.8	0.00e+00	0	44	0	766509056	10	4066
2026-01-19 02:41:00.30	15.57	21.24	-25.1	-26.3	17.7	1.38e-03	0	44	0	772800512	10	4127
2026-01-19 02:41:01.30	15.55	21.38	-25.3	-26.6	17.6	0.00e+00	0	44	0	778043392	10	4224
2026-01-19 02:41:02.30	15.52	21.52	-25.4	-26.5	17.4	0.00e+00	0	44	0	784334848	11	4065
2026-01-19 02:41:03.31	15.49	21.66	-25.3	-26.7	17.6	0.00e+00	0	44	0	789577728	10	4230
2026-01-19 02:41:04.32	15.47	21.80	-25.3	-26.7	17.5	0.00e+00	0	44	0	794820608	10	4248
2026-01-19 02:41:05.31	15.44	21.94	-25.1	-26.4	17.7	1.97e-04	0	44	0	801112064	10	4152
2026-01-19 02:41:06.32	15.41	22.08	-25.0	-26.1	17.9	0.00e+00	0	44	0	806354944	10	4083
2026-01-19 02:41:07.32	15.39	22.22	-25.0	-26.2	17.8	1.17e-03	0	44	0	811597824	10	4103
2026-01-19 02:41:08.32	15.36	22.36	-25.0	-26.2	17.8	0.00e+00	0	44	0	817889280	10	4104
2026-01-19 02:41:09.32	15.33	22.51	-25.0	-26.2	17.8	0.00e+00	0	44	0	823132160	10	4123
2026-01-19 02:41:10.32	15.30	22.65	-25.1	-26.4	17.7	0.00e+00	0	44	0	829423616	10	4159
2026-01-19 02:41:11.32	15.28	22.79	-24.8	-26.2	18.0	0.00e+00	0	44	0	834666496	9	4240
2026-01-19 02:41:12.32	15.25	22.94	-24.6	-25.9	18.2	0.00e+00	0	44	0	839909376	9	4146
2026-01-19 02:41:13.32	15.22	23.09	-24.7	-25.9	18.2	0.00e+00	0	44	0	846200832	9	4150
2026-01-19 02:41:14.33	15.19	23.24	-24.7	-26.0	18.2	0.00e+00	0	44	0	851443712	9	4178
2026-01-19 02:41:15.34	15.16	23.38	-24.9	-26.3	18.0	0.00e+00	0	44	0	856686592	9	4259
2026-01-19 02:41:16.34	15.13	23.53	-24.9	-26.4	17.9	0.00e+00	0	44	0	862978048	9	4292
2026-01-19 02:41:17.35	15.10	23.68	-25.0	-26.1	17.9	0.00e+00	0	44	0	868220928	10	4081
2026-01-19 02:41:18.35	15.07	23.83	-24.7	-25.5	18.2	0.00e+00	0	44	0	874512384	10	3946
2026-01-19 02:41:19.35	15.04	23.99	-24.6	-25.8	18.3	0.00e+00	0	44	0	879755264	9	4137
2026-01-19 02:41:20.36	15.00	24.14	-24.7	-25.9	18.2	0.00e+00	0	44	0	884998144	9	4157
2026-01-19 02:41:21.36	14.97	24.29	-24.8	-26.1	18.1	0.00e+00	0	44	0	891289600	9	4200
2026-01-19 02:41:22.36	14.94	24.45	-24.6	-25.8	18.3	0.00e+00	0	44	0	896532480	9	4126
2026-01-19 02:41:23.36	14.91	24.60	-24.6	-25.8	18.3	0.00e+00	0	44	0	902823936	9	4117
2026-01-19 02:41:24.35	14.88	24.76	-24.4	-25.2	18.6	0.00e+00	0	44	0	908066816	9	3981
2026-01-19 02:41:25.36	14.84	24.91	-24.2	-25.0	18.8	0.00e+00	0	44	0	913309696	9	3914
2026-01-19 02:41:26.37	14.81	25.07	-24.2	-25.3	18.8	0.00e+00	0	44	0	919601152	8	4117
2026-01-19 02:41:27.37	14.77	25.23	-24.2	-25.4	18.8	0.00e+00	0	44	0	924844032	8	4145
2026-01-19 02:41:28.37	14.74	25.39	-24.2	-25.3	18.8	0.00e+00	0	44	0	930086912	8	4110
2026-01-19 02:41:29.37	14.71	25.55	-24.2	-25.3	18.9	0.00e+00	0	44	0	936378368	8	4114
2026-01-19 02:41:30.38	14.67	25.72	-24.2	-25.3	18.8	0.00e+00	0	44	0	941621248	8	4122
2026-01-19 02:41:31.38	14.64	25.88	-24.0	-25.1	19.0	0.00e+00	0	44	0	946864128	8	4057
2026-01-19 02:41:32.39	14.60	26.04	-24.1	-25.1	19.0	0.00e+00	0	44	0	953155584	8	4071
2026-01-19 02:41:33.39	14.56	26.21	-24.0	-25.1	19.0	0.00e+00	0	44	0	958398464	8	4050
2026-01-19 02:41:34.40	14.53	26.37	-23.9	-24.8	19.2	0.00e+00	0	44	0	964689920	8	3981
2026-01-19 02:41:35.40	14.49	26.54	-23.9	-24.8	19.2	0.00e+00	0	44	0	969932800	8	3977
2026-01-19 02:41:36.41	14.45	26.71	-23.9	-24.7	19.2	0.00e+00	0	44	0	976224256	8	3964
2026-01-19 02:41:37.41	14.41	26.88	-23.7	-24.2	19.4	0.00e+00	0	44	0	981467136	8	3856
2026-01-19 02:41:38.41	14.37	27.05	-23.6	-24.1	19.5	0.00e+00	0	44	0	986710016	8	3815
2026-01-19 02:41:39.41	14.34	27.22	-23.5	-24.5	19.5	0.00e+00	0	44	0	993001472	7	4018
2026-01-19 02:41:40.42	14.30	27.39	-23.5	-24.5	19.5	0.00e+00	0	44	0	998244352	7	4027
2026-01-19 02:41:41.42	14.26	27.57	-23.6	-24.6	19.5	0.00e+00	0	44	0	1003487232	7	4037
2026-01-19 02:41:42.42	14.22	27.74	-23.7	-24.8	19.4	0.00e+00	0	44	0	1009778688	7	4100
2026-01-19 02:41:43.43	14.18	27.92	-23.7	-24.8	19.4	0.00e+00	0	44	0	1015021568	7	4099
2026-01-19 02:41:44.43	14.13	28.09	-23.8	-25.0	19.3	0.00e+00	0	44	0	1020264448	7	4148
2026-01-19 02:41:45.43	14.09	28.27	-23.8	-25.1	19.3	0.00e+00	0	44	0	1026555904	7	4162
2026-01-19 02:41:46.43	14.05	28.45	-23.9	-25.2	19.2	0.00e+00	0	44	0	1031798784	7	4207
2026-01-19 02:41:47.43	14.01	28.63	-23.8	-25.1	19.2	0.00e+00	0	44	0	1038090240	7	4179
2026-01-19 02:41:48.44	13.96	28.81	-23.8	-25.1	19.2	0.00e+00	0	44	0	1043333120	7	4176
2026-01-19 02:41:49.44	13.92	28.99	-23.8	-25.1	19.3	0.00e+00	0	44	0	1048576000	7	4173
2026-01-19 02:41:50.44	13.88	29.17	-23.9	-25.2	19.2	0.00e+00	0	44	0	1054867456	7	4205
2026-01-19 02:41:51.45	13.83	29.36	-23.8	-25.1	19.2	0.00e+00	0	44	0	1060110336	7	4182
2026-01-19 02:41:52.45	13.78	29.55	-24.0	-25.5	19.1	0.00e+00	0	44	0	1066401792	7	4263
2026-01-19 02:41:53.45	13.74	29.73	-24.1	-25.3	18.9	0.00e+00	0	44	0	1071644672	8	4100
2026-01-19 02:41:54.46	13.69	29.92	-24.1	-25.2	19.0	0.00e+00	0	44	0	1076887552	8	4092
2026-01-19 02:41:55.46	13.64	30.11	-24.2	-25.3	18.9	0.00e+00	0	44	0	1083179008	8	4120
2026-01-19 02:41:56.47	13.60	30.30	-24.2	-25.3	18.9	0.00e+00	0	44	0	1088421888	8	4111
2026-01-19 02:41:57.47	13.55	30.49	-24.1	-25.2	19.0	0.00e+00	0	44	0	1093664768	8	4087
2026-01-19 02:41:58.47	13.50	30.69	-24.0	-25.1	19.0	0.00e+00	0	44	0	1099956224	8	4058
2026-01-19 02:41:59.48	13.45	30.88	-24.0	-25.0	19.1	0.00e+00	0	44	0	1105199104	8	4024
2026-01-19 02:42:00.47	13.40	31.08	-24.0	-25.0	19.1	0.00e+00	0	44	0	1111490560	8	4026
2026-01-19 02:42:01.47	13.35	31.27	-24.0	-25.0	19.1	0.00e+00	0	44	0	1116733440	8	4031
2026-01-19 02:42:02.48	13.30	31.47	-23.3	-23.8	19.4	0.00e+00	0	44	0	1121976320	8	3820
2026-01-19 02:42:03.48	13.24	31.67	-23.6	-24.6	14.9	0.00e+00	0	44	0	1128267776	7	4037
2026-01-19 02:42:04.49	13.19	31.87	-23.5	-24.5	19.6	0.00e+00	0	44	0	1133510656	7	4031
2026-01-19 02:42:05.49	13.14	32.08	-23.6	-24.6	19.3	0.00e+00	0	44	0	1138753536	7	4045
2026-01-19 02:42:06.50	13.08	32.28	-23.5	-24.5	19.6	0.00e+00	0	44	0	1145044992	7	4015
2026-01-19 02:42:07.49	13.03	32.48	-23.5	-24.4	19.6	0.00e+00	0	44	0	1150287872	7	4002
2026-01-19 02:42:08.50	12.97	32.69	-23.6	-24.6	19.5	0.00e+00	0	44	0	1155530752	7	4049
2026-01-19 02:42:09.50	12.91	32.90	-23.6	-24.8	19.4	0.00e+00	0	44	0	1161822208	7	4089
2026-01-19 02:42:10.50	12.85	33.11	-23.7	-24.8	19.4	0.00e+00	0	44	0	1167065088	7	4098
2026-01-19 02:42:11.50	12.80	33.32	-23.7	-24.8	19.4	3.44e-04	0	44	0	1173356544	7	4100
2026-01-19 02:42:12.51	12.74	33.53	-23.6	-24.7	19.5	0.00e+00	0	44	0	1178599424	7	4069
2026-01-19 02:42:13.51	12.68	33.74	-23.5	-24.5	19.6	0.00e+00	0	44	0	1184890880	7	4036
2026-01-19 02:42:14.51	12.62	33.96	-23.6	-24.6	19.5	0.00e+00	0	44	0	1190133760	7	4047
2026-01-19 02:42:15.51	12.55	34.18	-23.6	-24.5	19.6	3.31e-04	0	44	0	1195376640	7	4037
2026-01-19 02:42:16.51	12.49	34.39	-23.3	-24.1	19.8	0.00e+00	0	44	0	1201668096	7	3928
2026-01-19 02:42:17.52	12.43	34.61	-23.3	-24.0	19.9	0.00e+00	0	44	0	1206910976	7	3905
2026-01-19 02:42:18.52	12.36	34.83	-23.4	-24.7	19.8	4.03e-04	0	44	0	1212153856	6	4176
2026-01-19 02:42:19.51	12.30	35.05	-23.3	-24.0	19.9	0.00e+00	0	44	0	1218445312	7	3899
2026-01-19 02:42:20.51	12.23	35.28	-23.1	-23.6	20.1	5.27e-04	0	44	0	1223688192	7	3822
2026-01-19 02:42:21.52	12.16	35.51	-23.3	-24.6	19.8	0.00e+00	0	44	0	1228931072	6	4151
2026-01-19 02:42:22.52	12.10	35.73	-23.4	-24.3	19.7	0.00e+00	0	44	0	1235222528	7	3981
2026-01-19 02:42:23.53	12.03	35.96	-23.4	-24.2	19.7	6.23e-04	0	44	0	1240465408	7	3962
2026-01-19 02:42:24.53	11.96	36.19	-23.5	-24.4	19.7	0.00e+00	0	44	0	1246756864	7	3991
2026-01-19 02:42:25.53	11.88	36.42	-23.6	-24.6	19.6	0.00e+00	0	44	0	1251999744	7	4053
2026-01-19 02:42:26.54	11.81	36.66	-23.8	-25.1	19.3	0.00e+00	0	44	0	1257242624	7	4167
2026-01-19 02:42:27.54	11.74	36.89	-23.8	-24.7	19.3	6.21e-04	0	44	0	1263534080	8	3955
2026-01-19 02:42:28.54	11.66	37.13	-23.6	-24.2	19.6	0.00e+00	0	44	0	1268776960	8	3834
2026-01-19 02:42:29.54	11.59	37.37	-23.4	-23.7	19.8	4.15e-04	0	44	0	1274019840	8	3739
2026-01-19 02:42:30.54	11.51	37.61	-23.4	-24.2	19.8	3.33e-04	0	44	0	1280311296	7	3957
2026-01-19 02:42:31.54	11.43	37.85	-23.4	-24.2	19.8	0.00e+00	0	44	0	1285554176	7	3947
2026-01-19 02:42:32.55	11.35	38.09	-23.3	-24.0	19.9	3.15e-04	0	44	0	1291845632	7	3904
2026-01-19 02:42:33.55	11.27	38.34	-23.3	-24.0	19.9	3.15e-04	0	44	0	1297088512	7	3901
2026-01-19 02:42:34.56	11.19	38.59	-23.2	-23.8	20.0	0.00e+00	0	44	0	1302331392	7	3857
2026-01-19 02:42:35.56	11.11	38.84	-23.1	-23.5	20.2	1.77e-04	0	44	0	1308622848	7	3796
2026-01-19 02:42:36.56	11.02	39.09	-23.1	-23.6	20.1	1.45e-04	0	44	0	1313865728	7	3811
2026-01-19 02:42:37.57	10.93	39.34	-23.1	-23.6	20.1	0.00e+00	0	44	0	1320157184	7	3804
2026-01-19 02:42:38.57	10.85	39.59	-23.1	-23.6	20.1	5.49e-05	0	44	0	1325400064	7	3814
2026-01-19 02:42:39.57	10.76	39.85	-23.3	-23.9	20.0	2.20e-06	0	44	0	1330642944	7	3882
2026-01-19 02:42:40.57	10.67	40.11	-23.4	-24.3	19.8	0.00e+00	0	44	0	1336934400	7	3969
2026-01-19 02:42:41.58	10.57	40.37	-23.6	-24.7	19.6	0.00e+00	0	44	0	1342177280	7	4059
2026-01-19 02:42:42.59	10.48	40.63	-23.8	-25.0	19.4	0.00e+00	0	44	0	1347420160	7	4142
2026-01-19 02:42:43.59	10.39	40.89	-23.9	-25.2	19.3	0.00e+00	0	44	0	1353711616	7	4212
2026-01-19 02:42:44.60	10.29	41.16	-23.9	-25.2	19.3	0.00e+00	0	44	0	1358954496	7	4212
2026-01-19 02:42:45.61	10.19	41.43	-23.7	-24.9	19.5	0.00e+00	0	44	0	1365245952	7	4126
2026-01-19 02:42:46.61	10.09	41.70	-23.7	-24.8	19.5	0.00e+00	0	44	0	1370488832	7	4105
2026-01-19 02:42:47.61	9.99	41.97	-23.8	-25.0	19.4	0.00e+00	0	44	0	1375731712	7	4147
2026-01-19 02:42:48.62	9.88	42.24	-24.0	-25.4	19.2	7.32e-05	0	44	0	1382023168	7	4255
2026-01-19 02:42:49.62	9.78	42.52	-24.0	-25.0	19.2	0.00e+00	0	44	0	1387266048	8	4034
2026-01-19 02:42:50.63	9.67	42.80	-23.9	-24.7	19.4	7.32e-05	0	44	0	1393557504	8	3950
2026-01-19 02:42:51.62	9.56	43.07	-23.8	-24.5	19.5	6.06e-05	0	44	0	1398800384	8	3909
2026-01-19 02:42:52.63	9.45	43.35	-23.9	-24.8	19.4	0.00e+00	0	44	0	1404043264	8	3970
2026-01-19 02:42:53.63	9.34	43.63	-23.8	-24.6	19.4	5.70e-06	0	44	0	1410334720	8	3947
2026-01-19 02:42:54.63	9.22	43.92	-23.9	-24.7	19.4	0.00e+00	0	44	0	1415577600	8	3961
2026-01-19 02:42:55.64	9.10	44.21	-24.2	-25.3	19.1	0.00e+00	0	44	0	1420820480	8	4110
2026-01-19 02:42:56.64	8.98	44.49	-24.4	-25.7	18.9	0.00e+00	0	44	0	1427111936	8	4214
2026-01-19 02:42:57.64	8.86	44.78	-24.4	-25.8	18.9	0.00e+00	0	44	0	1432354816	8	4217
2026-01-19 02:42:58.64	8.74	45.08	-24.4	-25.7	18.9	0.00e+00	0	44	0	1437597696	8	4213
2026-01-19 02:42:59.64	8.61	45.37	-24.6	-25.6	18.7	0.00e+00	0	44	0	1443889152	9	4077
2026-01-19 02:43:00.63	8.48	45.66	-24.6	-25.8	18.6	7.89e-05	0	44	0	1449132032	9	4106
2026-01-19 02:43:01.64	8.35	45.96	-24.4	-25.4	18.8	0.00e+00	0	44	0	1455423488	9	4007
2026-01-19 02:43:02.64	8.21	46.26	-24.2	-24.9	19.1	2.14e-04	0	44	0	1460666368	9	3887
2026-01-19 02:43:03.65	8.08	46.57	-24.0	-24.5	19.2	0.00e+00	0	44	0	1466957824	9	3814
2026-01-19 02:43:04.66	7.94	46.87	-24.1	-24.6	19.2	0.00e+00	0	44	0	1472200704	9	3828
2026-01-19 02:43:05.66	7.79	47.18	-23.9	-24.9	19.3	0.00e+00	0	44	0	1477443584	8	3997
2026-01-19 02:43:06.67	7.65	47.49	-24.2	-25.4	19.1	0.00e+00	0	44	0	1483735040	8	4123
2026-01-19 02:43:07.67	7.50	47.80	-24.3	-25.7	18.9	0.00e+00	0	44	0	1488977920	8	4205
2026-01-19 02:43:08.67	7.35	48.11	-24.4	-25.8	18.8	0.00e+00	0	44	0	1494220800	8	4234
2026-01-19 02:43:09.67	7.19	48.42	-24.5	-25.5	18.8	0.00e+00	0	44	0	1500512256	9	4045
2026-01-19 02:43:10.67	7.03	48.74	-24.8	-26.1	18.5	0.00e+00	0	44	0	1505755136	9	4177
2026-01-19 02:43:11.67	6.87	49.06	-24.7	-25.9	18.6	0.00e+00	0	44	0	1510998016	9	4140
2026-01-19 02:43:12.68	6.71	49.38	-24.6	-25.7	18.7	0.00e+00	0	44	0	1517289472	9	4081
2026-01-19 02:43:13.68	6.54	49.70	-24.8	-26.1	18.5	0.00e+00	0	44	0	1522532352	9	4201
2026-01-19 02:43:14.68	6.37	50.03	-24.8	-26.2	18.4	0.00e+00	0	44	0	1528823808	9	4216
2026-01-19 02:43:15.69	6.19	50.36	-25.1	-26.3	18.2	0.00e+00	0	44	0	1534066688	10	4116
2026-01-19 02:43:16.69	6.01	50.68	-24.9	-25.9	18.3	0.00e+00	0	44	0	1539309568	10	4038
2026-01-19 02:43:17.69	5.83	51.01	-24.7	-25.4	18.6	0.00e+00	0	44	0	1545601024	10	3911
2026-01-19 02:43:18.69	5.64	51.35	-24.7	-26.0	18.5	0.00e+00	0	44	0	1550843904	9	4165
2026-01-19 02:43:19.69	5.45	51.68	-25.1	-26.2	18.2	0.00e+00	0	44	0	1556086784	10	4102
2026-01-19 02:43:20.70	5.25	52.02	-25.3	-26.8	17.9	0.00e+00	0	44	0	1562378240	10	4256
2026-01-19 02:43:21.71	5.04	52.36	-25.5	-27.1	17.7	0.00e+00	0	44	0	1567621120	10	4333
2026-01-19 02:43:22.71	4.84	52.70	-25.0	-26.1	18.3	0.00e+00	0	44	0	1573912576	10	4071
2026-01-19 02:43:23.71	4.63	53.05	-24.5	-25.0	18.8	0.00e+00	0	44	0	1579155456	10	3811
2026-01-19 02:43:24.72	4.41	53.39	-24.5	-25.4	18.8	0.00e+00	0	44	0	1584398336	9	4010
2026-01-19 02:43:25.72	4.19	53.74	-24.7	-25.9	18.6	0.00e+00	0	44	0	1590689792	9	4133
2026-01-19 02:43:26.73	3.96	54.09	-24.9	-26.4	18.3	0.00e+00	0	44	0	1595932672	9	4276
2026-01-19 02:43:27.74	3.72	54.44	-25.0	-26.0	18.3	0.00e+00	0	44	0	1602224128	10	4058
2026-01-19 02:43:28.73	3.49	54.79	-24.9	-25.8	18.4	0.00e+00	0	44	0	1607467008	10	4011
2026-01-19 02:43:29.73	3.24	55.15	-25.2	-26.5	18.0	0.00e+00	0	44	0	1612709888	10	4184
2026-01-19 02:43:30.74	2.99	55.51	-25.2	-26.4	18.1	0.00e+00	0	44	0	1619001344	10	4150
2026-01-19 02:43:31.74	2.73	55.86	-24.6	-25.3	18.7	0.00e+00	0	44	0	1624244224	10	3882
2026-01-19 02:43:32.74	2.46	56.22	-24.2	-24.9	19.1	0.00e+00	0	44	0	1629487104	9	3891
2026-01-19 02:43:33.74	2.19	56.58	-24.1	-25.1	19.3	0.00e+00	0	44	0	1635778560	8	4041
2026-01-19 02:43:34.75	1.91	56.95	-24.1	-25.1	19.3	0.00e+00	0	44	0	1641021440	8	4056
2026-01-19 02:43:35.75	1.63	57.31	-24.0	-25.0	19.3	0.00e+00	0	44	0	1647312896	8	4027
2026-01-19 02:43:36.75	1.33	57.68	-24.1	-25.1	19.3	0.00e+00	0	44	0	1652555776	8	4055
2026-01-19 02:43:37.76	1.03	58.05	-24.2	-25.3	19.2	0.00e+00	0	44	0	1657798656	8	4111
2026-01-19 02:43:38.77	0.71	58.42	-24.8	-26.1	18.5	0.00e+00	0	44	0	1664090112	9	4197
2026-01-19 02:43:39.77	0.39	58.79	-24.6	-25.7	18.7	0.00e+00	0	44	0	1669332992	9	4109
2026-01-19 02:43:40.78	0.06	59.17	-23.8	-24.0	19.6	0.00e+00	0	44	0	1675624448	9	3693
2026-01-19 02:43:41.78	359.72	59.54	-23.4	-23.8	19.9	0.00e+00	0	44	0	1680867328	8	3742
2026-01-19 02:43:42.78	359.37	59.92	-23.9	-25.3	19.4	0.00e+00	0	44	0	1686110208	7	4225
2026-01-19 02:43:43.79	359.01	60.30	-24.3	-25.6	19.0	0.00e+00	0	44	0	1692401664	8	4187
2026-01-19 02:43:44.79	358.64	60.67	-23.9	-24.8	19.4	0.00e+00	0	44	0	1697644544	8	3989
2026-01-19 02:43:45.79	358.26	61.05	-24.0	-25.0	19.4	0.00e+00	0	44	0	1702887424	8	4018
2026-01-19 02:43:46.79	357.86	61.43	-23.8	-24.6	19.5	0.00e+00	0	44	0	1709178880	8	3941
2026-01-19 02:43:47.80	357.45	61.82	-23.7	-24.2	19.7	0.00e+00	0	44	0	1714421760	8	3838
2026-01-19 02:43:48.80	357.03	62.20	-23.6	-24.5	19.8	0.00e+00	0	44	0	1720713216	7	4027
2026-01-19 02:43:49.80	356.60	62.58	-23.6	-24.7	19.7	0.00e+00	0	44	0	1725956096	7	4064
2026-01-19 02:43:50.80	356.15	62.96	-23.7	-24.9	19.6	0.00e+00	0	44	0	1732247552	7	4119
2026-01-19 02:43:51.81	355.69	63.35	-23.8	-25.1	19.5	0.00e+00	0	44	0	1737490432	7	4165
2026-01-19 02:43:52.81	355.21	63.73	-24.1	-25.1	19.3	0.00e+00	0	44	0	1742733312	8	4053
2026-01-19 02:43:53.81	354.72	64.12	-23.8	-24.5	19.6	0.00e+00	0	44	0	1749024768	8	3913
2026-01-19 02:43:54.82	354.21	64.51	-23.5	-23.9	19.9	0.00e+00	0	44	0	1754267648	8	3780
2026-01-19 02:43:55.83	353.67	64.89	-23.6	-24.1	19.8	0.00e+00	0	44	0	1759510528	8	3810
2026-01-19 02:43:56.82	353.13	65.27	-23.6	-24.6	19.8	0.00e+00	0	44	0	1765801984	7	4041
2026-01-19 02:43:57.82	352.57	65.66	-23.4	-24.2	20.0	0.00e+00	0	44	0	1771044864	7	3954
2026-01-19 02:43:58.82	351.98	66.04	-23.0	-23.3	20.4	0.00e+00	0	44	0	1776287744	7	3742
2026-01-19 02:43:59.82	351.38	66.43	-22.9	-23.6	20.5	0.00e+00	0	44	0	1782579200	6	3923
2026-01-19 02:44:00.82	350.75	66.81	-22.9	-23.8	20.4	0.00e+00	0	44	0	1787822080	6	3958
2026-01-19 02:44:01.83	350.09	67.19	-23.0	-24.2	16.1	0.00e+00	0	44	0	1794113536	6	4109
2026-01-19 02:44:02.82	349.42	67.57	-22.7	-23.3	15.6	0.00e+00	0	44	0	1799356416	6	3860
2026-01-19 02:44:03.82	348.72	67.95	-22.2	-22.8	21.1	0.00e+00	0	44	0	1804599296	5	3831
2026-01-19 02:44:04.83	347.98	68.33	-22.5	-23.3	20.5	0.00e+00	0	44	0	1810890752	5	3955
2026-01-19 02:44:05.83	347.23	68.71	-22.8	-24.0	20.5	0.00e+00	0	44	0	1816133632	5	4133
2026-01-19 02:44:06.83	346.44	69.08	-22.5	-23.2	20.9	0.00e+00	0	44	0	1821376512	5	3943
2026-01-19 02:44:07.83	345.62	69.45	-22.5	-23.4	20.8	0.00e+00	0	44	0	1827667968	5	3970
2026-01-19 02:44:08.83	344.77	69.82	-22.6	-23.6	20.8	0.00e+00	0	44	0	1832910848	5	4025
2026-01-19 02:44:09.83	343.89	70.19	-22.8	-24.1	20.5	0.00e+00	0	44	0	1838153728	5	4138
2026-01-19 02:44:10.83	342.97	70.55	-22.4	-23.1	21.0	0.00e+00	0	44	0	1844445184	5	3905
2026-01-19 02:44:11.84	342.01	70.91	-22.2	-22.6	21.2	0.00e+00	0	44	0	1849688064	5	3801
2026-01-19 02:44:12.84	341.01	71.27	-22.4	-23.2	21.0	0.00e+00	0	44	0	1855979520	5	3930
2026-01-19 02:44:13.84	339.97	71.62	-22.5	-23.3	20.9	2.99e-04	0	44	0	1861222400	5	3960
2026-01-19 02:44:14.85	338.88	71.97	-22.7	-23.8	20.6	0.00e+00	0	44	0	1867513856	5	4087
2026-01-19 02:44:15.85	337.76	72.31	-22.7	-23.8	20.7	0.00e+00	0	44	0	1872756736	5	4074
2026-01-19 02:44:16.85	336.59	72.65	-22.9	-24.1	20.5	0.00e+00	0	44	0	1877999616	5	4157
2026-01-19 02:44:17.84	335.38	72.97	-22.8	-24.0	20.5	0.00e+00	0	44	0	1883242496	5	4121
2026-01-19 02:44:18.85	334.10	73.30	-22.7	-23.7	20.7	0.00e+00	0	44	0	1889533952	5	4057
2026-01-19 02:44:19.85	332.78	73.61	-22.7	-23.7	20.7	0.00e+00	0	44	0	1894776832	5	4055
2026-01-19 02:44:20.86	331.39	73.92	-22.3	-22.9	21.1	2.37e-04	0	44	0	1901068288	5	3865
2026-01-19 02:44:21.86	329.96	74.22	-22.3	-23.0	21.1	0.00e+00	0	44	0	1906311168	5	3882
2026-01-19 02:44:22.87	328.46	74.51	-22.0	-22.4	21.3	1.12e-04	0	44	0	1911554048	5	3750
2026-01-19 02:44:23.87	326.91	74.79	-22.2	-22.7	21.2	0.00e+00	0	44	0	1917845504	5	3825
2026-01-19 02:44:24.87	325.30	75.06	-22.1	-22.5	21.3	0.00e+00	0	44	0	1923088384	5	3784
2026-01-19 02:44:25.87	323.64	75.32	-21.9	-22.2	21.4	0.00e+00	0	44	0	1929379840	5	3710
2026-01-19 02:44:26.87	321.91	75.56	-21.9	-22.1	21.5	0.00e+00	0	44	0	1934622720	5	3677
2026-01-19 02:44:27.88	320.11	75.80	-22.0	-22.4	21.3	0.00e+00	0	44	0	1939865600	5	3749
2026-01-19 02:44:28.88	318.26	76.02	-21.7	-22.1	21.7	0.00e+00	0	44	0	1946157056	4	3799
2026-01-19 02:44:29.89	316.33	76.23	-21.5	-21.7	21.9	3.08e-04	0	44	0	1951399936	4	3704
2026-01-19 02:44:30.89	314.37	76.42	-21.6	-22.1	21.8	0.00e+00	0	44	0	1956642816	4	3780
2026-01-19 02:44:31.89	312.35	76.59	-21.4	-21.6	22.0	1.70e-04	0	44	0	1962934272	4	3672
2026-01-19 02:44:32.89	310.28	76.75	-21.3	-21.8	22.2	1.19e-04	0	44	0	1968177152	3	3834
2026-01-19 02:44:33.89	308.16	76.89	-21.4	-22.0	22.0	0.00e+00	0	44	0	1973420032	3	3882
2026-01-19 02:44:34.89	305.99	77.01	-21.5	-22.2	22.0	1.82e-04	0	44	0	1979711488	3	3924
2026-01-19 02:44:35.90	303.77	77.12	-21.4	-22.1	22.0	0.00e+00	0	44	0	1984954368	3	3898
2026-01-19 02:44:36.91	301.50	77.20	-21.3	-21.9	22.1	0.00e+00	0	44	0	1991245824	3	3845
2026-01-19 02:44:37.91	299.24	77.27	-21.7	-22.7	21.7	4.62e-04	0	44	0	1996488704	3	4032
2026-01-19 02:44:38.91	296.95	77.32	-21.8	-23.0	21.5	6.13e-04	0	44	0	2002780160	3	4120
2026-01-19 02:44:39.92	294.63	77.34	-21.9	-22.7	21.4	0.00e+00	0	44	0	2008023040	4	3935
2026-01-19 02:44:40.93	292.30	77.35	-22.1	-23.1	21.2	3.17e-04	0	44	0	2013265920	4	4020
2026-01-19 02:44:41.93	289.99	77.34	-21.9	-22.5	21.5	4.86e-04	0	44	0	2019557376	4	3893
2026-01-19 02:44:42.94	287.67	77.30	-22.2	-23.3	21.1	0.00e+00	0	44	0	2024800256	4	4087
2026-01-19 02:44:43.94	285.39	77.25	-21.8	-22.4	21.5	7.29e-04	0	44	0	2030043136	4	3863
2026-01-19 02:44:44.94	283.13	77.17	-22.0	-22.7	21.4	7.46e-04	0	44	0	2036334592	4	3935
2026-01-19 02:44:45.95	280.88	77.08	-22.1	-23.0	21.2	0.00e+00	0	44	0	2041577472	4	3998
2026-01-19 02:44:46.95	278.69	76.97	-22.0	-22.7	21.4	1.25e-04	0	44	0	2047868928	4	3929
2026-01-19 02:44:47.95	276.54	76.84	-22.3	-23.4	21.0	0.00e+00	0	44	0	2053111808	4	4102
2026-01-19 02:44:48.95	274.43	76.69	-22.4	-23.6	20.9	0.00e+00	0	44	0	2058354688	4	4150
2026-01-19 02:44:49.96	272.36	76.53	-23.1	-24.0	20.3	0.00e+00	0	44	0	2064646144	6	4010
2026-01-19 02:44:50.96	270.36	76.35	-22.5	-22.8	20.8	3.32e-04	0	44	0	2069889024	6	3743
2026-01-19 02:44:51.97	268.39	76.15	-22.2	-22.7	21.1	0.00e+00	0	44	0	2076180480	5	3825
2026-01-19 02:44:52.97	266.51	75.94	-21.5	-21.9	21.8	1.02e-03	0	44	0	2081423360	4	3731
2026-01-19 02:44:53.98	264.66	75.71	-21.3	-21.9	22.0	0.00e+00	0	44	0	2086666240	3	3857
2026-01-19 02:44:54.99	262.88	75.47	-21.4	-22.1	21.9	0.00e+00	0	44	0	2092957696	3	3905
2026-01-19 02:44:56.00	261.16	75.22	-21.5	-22.3	21.8	6.48e-04	0	44	0	2098200576	3	3935
2026-01-19 02:44:57.00	259.52	74.96	-21.7	-22.6	21.7	0.00e+00	0	44	0	2104492032	3	4015
2026-01-19 02:44:58.01	257.92	74.68	-21.7	-22.8	21.6	1.05e-04	0	44	0	2109734912	3	4058
2026-01-19 02:44:59.01	256.39	74.40	-21.9	-23.2	21.4	0.00e+00	0	44	0	2114977792	3	4157
2026-01-19 02:45:00.02	254.91	74.10	-21.9	-23.1	21.4	0.00e+00	0	44	0	2121269248	3	4147
2026-01-19 02:45:01.02	253.50	73.80	-22.0	-22.7	21.3	0.00e+00	0	44	0	2126512128	4	3934
2026-01-19 02:45:02.03	252.13	73.49	-22.3	-23.3	21.0	0.00e+00	0	44	0	2131755008	4	4082
2026-01-19 02:45:03.03	250.83	73.17	-22.3	-23.4	21.0	0.00e+00	0	44	0	2138046464	4	4084
2026-01-19 02:45:04.03	249.58	72.84	-22.1	-23.0	21.2	0.00e+00	0	44	0	2143289344	4	3990
2026-01-19 02:45:05.03	248.38	72.51	-21.9	-22.5	21.4	5.66e-04	0	44	0	2149580800	4	3889
2026-01-19 02:45:06.04	247.22	72.17	-21.8	-22.4	21.5	0.00e+00	0	44	0	2154823680	4	3853
2026-01-19 02:45:07.04	246.11	71.83	-22.1	-23.1	21.1	0.00e+00	0	44	0	2160066560	4	4025
2026-01-19 02:45:08.05	245.03	71.47	-22.1	-23.1	21.1	0.00e+00	0	44	0	2166358016	4	4024
2026-01-19 02:45:09.05	244.01	71.12	-22.3	-23.5	20.9	0.00e+00	0	44	0	2171600896	4	4114
2026-01-19 02:45:10.06	243.02	70.76	-22.5	-23.4	20.7	0.00e+00	0	44	0	2177892352	5	3992
2026-01-19 02:45:11.06	242.08	70.40	-22.6	-23.6	20.6	0.00e+00	0	44	0	2183135232	5	4026
2026-01-19 02:45:12.07	241.17	70.03	-22.6	-23.6	20.6	0.00e+00	0	44	0	2188378112	5	4033
2026-01-19 02:45:13.08	240.29	69.66	-22.3	-23.0	20.9	0.00e+00	0	44	0	2194669568	5	3891
2026-01-19 02:45:14.09	239.44	69.28	-22.4	-23.2	20.8	0.00e+00	0	44	0	2199912448	5	3928
2026-01-19 02:45:15.10	238.63	68.91	-22.5	-23.4	20.7	0.00e+00	0	44	0	2206203904	5	3993
2026-01-19 02:45:16.10	237.86	68.53	-22.5	-23.3	20.8	0.00e+00	0	44	0	2211446784	5	3951
2026-01-19 02:45:17.10	237.11	68.15	-22.2	-22.6	21.1	0.00e+00	0	44	0	2216689664	5	3798
2026-01-19 02:45:18.10	236.40	67.77	-22.5	-23.3	20.8	0.00e+00	0	44	0	2222981120	5	3952
2026-01-19 02:45:19.10	235.71	67.39	-22.8	-23.9	20.5	0.00e+00	0	44	0	2228224000	5	4111
2026-01-19 02:45:20.10	235.04	67.01	-22.8	-24.1	20.4	0.00e+00	0	44	0	2234515456	5	4143
2026-01-19 02:45:21.10	234.40	66.63	-22.4	-23.1	20.8	0.00e+00	0	44	0	2239758336	5	3915
2026-01-19 02:45:22.10	233.78	66.24	-22.6	-23.6	20.6	0.00e+00	0	44	0	2245001216	5	4031
2026-01-19 02:45:23.11	233.18	65.85	-22.7	-23.8	20.5	0.00e+00	0	44	0	2251292672	5	4077
2026-01-19 02:45:24.11	232.60	65.47	-22.5	-23.4	20.7	0.00e+00	0	44	0	2256535552	5	3993
2026-01-19 02:45:25.11	232.04	65.08	-22.7	-23.8	20.5	0.00e+00	0	44	0	2261778432	5	4071
2026-01-19 02:45:26.11	231.50	64.70	-23.0	-24.0	20.1	0.00e+00	0	44	0	2268069888	6	4024
2026-01-19 02:45:27.12	230.98	64.31	-23.1	-24.1	20.1	0.00e+00	0	44	0	2273312768	6	4057
2026-01-19 02:45:28.12	230.48	63.92	-23.0	-24.0	20.2	0.00e+00	0	44	0	2278555648	6	4008
2026-01-19 02:45:29.13	229.99	63.54	-23.3	-24.5	19.9	0.00e+00	0	44	0	2284847104	6	4127
2026-01-19 02:45:30.13	229.52	63.15	-22.9	-23.6	20.4	0.00e+00	0	44	0	2290089984	6	3923
2026-01-19 02:45:31.14	229.06	62.76	-22.7	-23.3	20.5	0.00e+00	0	44	0	2296381440	6	3851
2026-01-19 02:45:32.14	228.62	62.38	-23.0	-23.9	20.2	0.00e+00	0	44	0	2301624320	6	3986
2026-01-19 02:45:33.14	228.19	62.00	-23.2	-24.4	19.9	0.00e+00	0	44	0	2306867200	6	4113
2026-01-19 02:45:34.14	227.78	61.62	-23.1	-24.0	20.1	0.00e+00	0	44	0	2313158656	6	4024
2026-01-19 02:45:35.14	227.38	61.24	-23.1	-24.2	20.0	0.00e+00	0	44	0	2318401536	6	4060
2026-01-19 02:45:36.14	226.99	60.86	-23.7	-24.8	19.5	0.00e+00	0	44	0	2323644416	7	4110
2026-01-19 02:45:37.14	226.61	60.48	-23.6	-24.8	19.5	0.00e+00	0	44	0	2329935872	7	4096
2026-01-19 02:45:38.14	226.25	60.10	-23.8	-25.0	19.4	0.00e+00	0	44	0	2335178752	7	4144
2026-01-19 02:45:39.14	225.89	59.72	-23.4	-24.1	19.8	0.00e+00	0	44	0	2340421632	7	3936
2026-01-19 02:45:40.14	225.55	59.35	-23.5	-24.5	19.6	0.00e+00	0	44	0	2346713088	7	4027
2026-01-19 02:45:41.15	225.21	58.97	-23.9	-25.2	19.3	0.00e+00	0	44	0	2351955968	7	4209
2026-01-19 02:45:42.14	224.88	58.60	-23.8	-25.1	19.3	0.00e+00	0	44	0	2358247424	7	4165
2026-01-19 02:45:43.14	224.57	58.23	-23.8	-25.0	19.4	0.00e+00	0	44	0	2363490304	7	4145
2026-01-19 02:45:44.14	224.26	57.86	-23.7	-24.8	19.5	0.00e+00	0	44	0	2368733184	7	4092
2026-01-19 02:45:45.14	223.96	57.49	-23.8	-25.0	19.4	0.00e+00	0	44	0	2375024640	7	4153
2026-01-19 02:45:46.15	223.67	57.12	-23.8	-25.0	19.4	0.00e+00	0	44	0	2380267520	7	4141
2026-01-19 02:45:47.16	223.38	56.75	-24.1	-25.2	19.0	0.00e+00	0	44	0	2386558976	8	4089
2026-01-19 02:45:48.16	223.10	56.39	-24.2	-25.3	19.0	0.00e+00	0	44	0	2391801856	8	4120
2026-01-19 02:45:49.17	222.83	56.03	-24.2	-25.3	19.0	0.00e+00	0	44	0	2397044736	8	4107
2026-01-19 02:45:50.17	222.57	55.67	-24.1	-25.1	19.1	0.00e+00	0	44	0	2403336192	8	4054
2026-01-19 02:45:51.18	222.31	55.31	-24.5	-25.9	18.6	0.00e+00	0	44	0	2408579072	8	4262
2026-01-19 02:45:52.18	222.06	54.95	-24.6	-25.9	18.4	0.00e+00	0	44	0	2413821952	9	4136
2026-01-19 02:45:53.17	221.82	54.60	-24.9	-26.4	18.2	0.00e+00	0	44	0	2420113408	9	4281
2026-01-19 02:45:54.18	221.59	54.24	-25.0	-26.0	18.1	0.00e+00	0	44	0	2425356288	10	4076
2026-01-19 02:45:55.18	221.36	53.89	-24.6	-25.2	18.5	0.00e+00	0	44	0	2431647744	10	3870
2026-01-19 02:45:56.19	221.13	53.54	-24.4	-24.8	18.7	0.00e+00	0	44	0	2436890624	10	3778
2026-01-19 02:45:57.19	220.91	53.20	-24.6	-25.8	18.5	0.00e+00	0	44	0	2442133504	9	4116
2026-01-19 02:45:58.19	220.69	52.85	-24.7	-25.9	16.6	0.00e+00	0	44	0	2448424960	9	4152
2026-01-19 02:45:59.20	220.48	52.50	-24.2	-25.0	18.9	3.84e-04	0	44	0	2453667840	9	3937
2026-01-19 02:46:00.21	220.28	52.16	-23.8	-24.1	19.3	0.00e+00	0	44	0	2459959296	9	3718
2026-01-19 02:46:01.21	220.08	51.82	-23.7	-24.3	19.5	0.00e+00	0	44	0	2465202176	8	3856
2026-01-19 02:46:02.22	219.88	51.48	-23.5	-24.5	19.6	0.00e+00	0	44	0	2470445056	7	4021
2026-01-19 02:46:03.22	219.69	51.15	-23.6	-24.5	19.6	0.00e+00	0	44	0	2476736512	7	4035
2026-01-19 02:46:04.22	219.50	50.82	-23.4	-24.2	19.7	5.05e-04	0	44	0	2481979392	7	3955
2026-01-19 02:46:05.23	219.32	50.48	-23.4	-24.2	19.7	0.00e+00	0	44	0	2487222272	7	3950
2026-01-19 02:46:06.23	219.14	50.15	-23.5	-24.4	19.6	0.00e+00	0	44	0	2493513728	7	4009
2026-01-19 02:46:07.23	218.97	49.83	-23.5	-24.4	19.6	0.00e+00	0	44	0	2498756608	7	4010
2026-01-19 02:46:08.24	218.79	49.50	-23.6	-24.7	19.5	0.00e+00	0	44	0	2505048064	7	4084
2026-01-19 02:46:09.24	218.63	49.18	-23.5	-24.4	19.6	0.00e+00	0	44	0	2510290944	7	4002
2026-01-19 02:46:10.24	218.46	48.86	-23.5	-24.4	19.6	0.00e+00	0	44	0	2515533824	7	4007
2026-01-19 02:46:11.24	218.30	48.54	-23.5	-24.4	19.6	6.20e-04	0	44	0	2521825280	7	3989
2026-01-19 02:46:12.25	218.14	48.22	-23.5	-24.4	19.6	0.00e+00	0	44	0	2527068160	7	3994
2026-01-19 02:46:13.24	217.99	47.91	-23.6	-24.7	19.4	4.49e-04	0	44	0	2532311040	7	4087
2026-01-19 02:46:14.24	217.84	47.60	-23.7	-24.9	19.3	0.00e+00	0	44	0	2538602496	7	4134
2026-01-19 02:46:15.25	217.69	47.28	-23.7	-25.0	19.3	0.00e+00	0	44	0	2543845376	7	4145
2026-01-19 02:46:16.26	217.55	46.97	-23.6	-24.7	19.4	6.19e-04	0	44	0	2550136832	7	4071
2026-01-19 02:46:17.26	217.41	46.67	-23.5	-24.5	19.5	0.00e+00	0	44	0	2555379712	7	4026
2026-01-19 02:46:18.26	217.27	46.36	-23.3	-23.9	19.8	0.00e+00	0	44	0	2560622592	7	3894
2026-01-19 02:46:19.27	217.13	46.06	-23.2	-24.2	19.9	0.00e+00	0	44	0	2566914048	6	4069
2026-01-19 02:46:20.28	217.00	45.76	-23.2	-24.3	19.9	4.28e-04	0	44	0	2572156928	6	4082
2026-01-19 02:46:21.28	216.86	45.46	-23.2	-24.2	19.9	0.00e+00	0	44	0	2578448384	6	4069
2026-01-19 02:46:22.28	216.74	45.16	-23.2	-24.3	19.9	4.51e-04	0	44	0	2583691264	6	4081
2026-01-19 02:46:23.29	216.61	44.87	-23.2	-24.3	19.9	3.31e-04	0	44	0	2588934144	6	4090
2026-01-19 02:46:24.29	216.49	44.58	-23.3	-24.5	19.8	0.00e+00	0	44	0	2595225600	6	4144
2026-01-19 02:46:25.30	216.36	44.28	-23.3	-24.6	19.7	5.17e-04	0	44	0	2600468480	6	4155
2026-01-19 02:46:26.30	216.24	44.00	-23.3	-24.6	19.7	5.88e-04	0	44	0	2606759936	6	4159
2026-01-19 02:46:27.30	216.13	43.71	-23.2	-24.3	19.8	0.00e+00	0	44	0	2612002816	6	4089
2026-01-19 02:46:28.31	216.01	43.42	-23.2	-24.3	19.9	6.71e-04	0	44	0	2617245696	6	4079
2026-01-19 02:46:29.30	215.90	43.15	-23.2	-24.2	19.9	6.27e-04	0	44	0	2623537152	6	4073
2026-01-19 02:46:30.31	215.79	42.86	-23.0	-23.9	20.0	0.00e+00	0	44	0	2628780032	6	3986
2026-01-19 02:46:31.31	215.68	42.58	-23.1	-24.1	19.9	5.70e-04	0	44	0	2634022912	6	4039
2026-01-19 02:46:32.32	215.57	42.31	-23.0	-24.0	20.0	6.23e-04	0	44	0	2640314368	6	4012
2026-01-19 02:46:33.32	215.47	42.03	-23.2	-24.2	19.9	0.00e+00	0	44	0	2645557248	6	4076
2026-01-19 02:46:34.32	215.36	41.76	-23.2	-24.3	19.8	5.73e-04	0	44	0	2651848704	6	4087
2026-01-19 02:46:35.33	215.26	41.49	-23.1	-24.2	19.9	5.62e-04	0	44	0	2657091584	6	4073
2026-01-19 02:46:36.33	215.16	41.22	-23.1	-24.0	20.0	0.00e+00	0	44	0	2662334464	6	4024
2026-01-19 02:46:37.34	215.06	40.95	-22.9	-23.8	20.1	6.27e-04	0	44	0	2668625920	6	3966
2026-01-19 02:46:38.35	214.97	40.68	-22.9	-23.6	20.1	0.00e+00	0	44	0	2673868800	6	3933
2026-01-19 02:46:39.35	214.87	40.42	-22.8	-23.6	20.2	0.00e+00	0	44	0	2680160256	6	3912
2026-01-19 02:46:40.35	214.78	40.16	-22.9	-23.6	20.2	0.00e+00	0	44	0	2685403136	6	3920
2026-01-19 02:46:41.36	214.69	39.90	-22.8	-23.4	20.3	6.48e-04	0	44	0	2690646016	6	3884
2026-01-19 02:46:42.36	214.60	39.64	-22.8	-23.5	20.2	0.00e+00	0	44	0	2696937472	6	3909
2026-01-19 02:46:43.37	214.51	39.38	-22.8	-23.9	20.2	6.61e-04	0	44	0	2702180352	5	4113
2026-01-19 02:46:44.37	214.42	39.13	-22.8	-23.9	20.2	0.00e+00	0	44	0	2708471808	5	4106
2026-01-19 02:46:45.38	214.33	38.88	-22.8	-24.1	20.2	0.00e+00	0	44	0	2713714688	5	4151
2026-01-19 02:46:46.38	214.25	38.63	-22.9	-24.1	20.1	6.64e-04	0	44	0	2718957568	5	4160
2026-01-19 02:46:47.38	214.17	38.38	-22.9	-24.2	20.1	0.00e+00	0	44	0	2725249024	5	4173
2026-01-19 02:46:48.39	214.08	38.13	-22.9	-24.2	20.1	0.00e+00	0	44	0	2730491904	5	4181
2026-01-19 02:46:49.39	214.00	37.88	-22.9	-24.2	20.1	0.00e+00	0	44	0	2735734784	5	4169
2026-01-19 02:46:50.39	213.92	37.64	-22.9	-24.1	20.1	0.00e+00	0	44	0	2742026240	5	4161
2026-01-19 02:46:51.39	213.85	37.40	-22.9	-24.2	20.1	0.00e+00	0	44	0	2747269120	5	4185
2026-01-19 02:46:52.40	213.77	37.16	-22.8	-24.0	20.2	0.00e+00	0	44	0	2753560576	5	4126
2026-01-19 02:46:53.40	213.69	36.92	-22.9	-24.1	20.1	0.00e+00	0	44	0	2758803456	5	4150
2026-01-19 02:46:54.41	213.62	36.68	-22.9	-24.3	20.0	0.00e+00	0	44	0	2764046336	5	4207
2026-01-19 02:46:55.41	213.54	36.45	-23.2	-24.4	19.7	6.95e-04	0	44	0	2770337792	6	4112
2026-01-19 02:46:56.41	213.47	36.21	-23.3	-24.6	19.6	0.00e+00	0	44	0	2775580672	6	4177
2026-01-19 02:46:57.41	213.40	35.98	-23.2	-24.4	19.7	0.00e+00	0	44	0	2781872128	6	4128
2026-01-19 02:46:58.42	213.33	35.75	-23.3	-24.5	19.7	0.00e+00	0	44	0	2787115008	6	4150
2026-01-19 02:46:59.42	213.26	35.52	-23.3	-24.5	19.7	0.00e+00	0	44	0	2792357888	6	4157
2026-01-19 02:47:00.42	213.19	35.29	-23.4	-24.7	19.6	0.00e+00	0	44	0	2798649344	6	4190
2026-01-19 02:47:01.43	213.12	35.07	-23.2	-24.4	19.8	0.00e+00	0	44	0	2803892224	6	4116
2026-01-19 02:47:02.43	213.06	34.84	-23.1	-24.1	19.9	0.00e+00	0	44	0	2809135104	6	4032
2026-01-19 02:47:03.43	212.99	34.62	-23.0	-24.0	20.0	0.00e+00	0	44	0	2815426560	6	4009
2026-01-19 02:47:04.43	212.93	34.40	-22.9	-23.8	20.1	0.00e+00	0	44	0	2820669440	6	3958
2026-01-19 02:47:05.43	212.86	34.18	-22.9	-23.6	20.1	0.00e+00	0	44	0	2825912320	6	3923
2026-01-19 02:47:06.43	212.80	33.96	-22.9	-23.7	20.1	0.00e+00	0	44	0	2832203776	6	3954
2026-01-19 02:47:07.43	212.74	33.75	-23.0	-23.8	20.0	0.00e+00	0	44	0	2837446656	6	3966
2026-01-19 02:47:08.43	212.68	33.53	-22.9	-23.7	20.1	0.00e+00	0	44	0	2843738112	6	3946
2026-01-19 02:47:09.43	212.62	33.32	-23.0	-23.9	20.0	0.00e+00	0	44	0	2848980992	6	3991
2026-01-19 02:47:10.43	212.56	33.11	-23.0	-23.9	20.0	0.00e+00	0	44	0	2854223872	6	4000
2026-01-19 02:47:11.43	212.50	32.90	-23.2	-24.2	19.8	0.00e+00	0	44	0	2860515328	6	4069
2026-01-19 02:47:12.44	212.44	32.69	-23.2	-24.3	19.8	0.00e+00	0	44	0	2865758208	6	4096
2026-01-19 02:47:13.45	212.39	32.48	-23.2	-24.4	19.7	0.00e+00	0	44	0	2871001088	6	4117
2026-01-19 02:47:14.45	212.33	32.27	-23.3	-24.6	19.6	0.00e+00	0	44	0	2877292544	6	4163
2026-01-19 02:47:15.44	212.28	32.07	-23.4	-24.8	19.5	0.00e+00	0	44	0	2882535424	6	4204
2026-01-19 02:47:16.44	212.22	31.87	-23.5	-24.9	19.4	0.00e+00	0	44	0	2887778304	6	4249
2026-01-19 02:47:17.45	212.17	31.66	-23.5	-24.5	19.4	0.00e+00	0	44	0	2894069760	7	4019
2026-01-19 02:47:18.46	212.11	31.46	-23.5	-24.6	19.4	0.00e+00	0	44	0	2899312640	7	4047
2026-01-19 02:47:19.46	212.06	31.26	-23.6	-24.7	19.3	0.00e+00	0	44	0	2905604096	7	4089
2026-01-19 02:47:20.46	212.01	31.06	-23.6	-24.7	19.3	0.00e+00	0	44	0	2910846976	7	4080
2026-01-19 02:47:21.47	211.96	30.87	-23.7	-24.8	19.2	0.00e+00	0	44	0	2917138432	7	4098
2026-01-19 02:47:22.48	211.91	30.67	-23.7	-24.8	19.2	0.00e+00	0	44	0	2922381312	7	4117
2026-01-19 02:47:23.48	211.86	30.47	-23.7	-24.9	19.2	0.00e+00	0	44	0	2927624192	7	4125
2026-01-19 02:47:24.48	211.81	30.28	-23.7	-24.8	19.2	0.00e+00	0	44	0	2933915648	7	4107
2026-01-19 02:47:25.49	211.76	30.09	-23.6	-24.7	19.3	0.00e+00	0	44	0	2939158528	7	4087
2026-01-19 02:47:26.50	211.71	29.90	-23.7	-24.9	19.2	0.00e+00	0	44	0	2945449984	7	4135
2026-01-19 02:47:27.50	211.66	29.71	-23.8	-25.0	19.1	0.00e+00	0	44	0	2950692864	7	4156
2026-01-19 02:47:28.51	211.61	29.52	-23.6	-24.8	19.2	0.00e+00	0	44	0	2955935744	7	4095
2026-01-19 02:47:29.52	211.57	29.33	-23.5	-24.4	19.4	0.00e+00	0	44	0	2962227200	7	4014
2026-01-19 02:47:30.51	211.52	29.15	-23.5	-24.5	19.4	0.00e+00	0	44	0	2967470080	7	4021
2026-01-19 02:47:31.51	211.48	28.96	-23.4	-24.3	19.5	0.00e+00	0	44	0	2972712960	7	3982
2026-01-19 02:47:32.51	211.43	28.78	-23.3	-24.1	19.6	0.00e+00	0	44	0	2979004416	7	3926
2026-01-19 02:47:33.51	211.39	28.60	-23.3	-24.1	19.6	0.00e+00	0	44	0	2984247296	7	3922
2026-01-19 02:47:34.51	211.35	28.42	-23.3	-24.0	19.6	0.00e+00	0	44	0	2990538752	7	3911
2026-01-19 02:47:35.52	211.30	28.24	-23.4	-24.6	19.5	0.00e+00	0	44	0	2995781632	6	4177
2026-01-19 02:47:36.51	211.26	28.06	-23.3	-24.6	19.5	0.00e+00	0	44	0	3001024512	6	4173
2026-01-19 02:47:37.52	211.22	27.88	-23.3	-24.5	19.6	0.00e+00	0	44	0	3007315968	6	4145
2026-01-19 02:47:38.52	211.18	27.70	-23.4	-24.8	19.5	0.00e+00	0	44	0	3012558848	6	4209
2026-01-19 02:47:39.53	211.13	27.53	-23.4	-24.8	19.4	0.00e+00	0	44	0	3017801728	6	4228
2026-01-19 02:47:40.53	211.09	27.35	-23.4	-24.7	19.5	0.00e+00	0	44	0	3024093184	6	4202
2026-01-19 02:47:41.53	211.05	27.18	-23.4	-24.7	19.5	0.00e+00	0	44	0	3029336064	6	4186
2026-01-19 02:47:42.53	211.01	27.01	-23.5	-24.4	19.4	0.00e+00	0	44	0	3034578944	7	4017
2026-01-19 02:47:43.53	210.98	26.84	-23.5	-24.4	19.4	0.00e+00	0	44	0	3040870400	7	4002
2026-01-19 02:47:44.53	210.94	26.67	-23.5	-24.4	19.4	0.00e+00	0	44	0	3046113280	7	4012
2026-01-19 02:47:45.53	210.90	26.50	-23.5	-24.5	19.3	0.00e+00	0	44	0	3052404736	7	4043
2026-01-19 02:47:46.54	210.86	26.33	-23.5	-24.5	19.3	0.00e+00	0	44	0	3057647616	7	4045
2026-01-19 02:47:47.55	210.82	26.16	-23.7	-24.8	19.1	2.40e-05	0	44	0	3063939072	7	4118
2026-01-19 02:47:48.55	210.79	26.00	-23.7	-24.9	19.1	0.00e+00	0	44	0	3069181952	7	4124
2026-01-19 02:47:49.55	210.75	25.83	-23.7	-24.9	19.1	0.00e+00	0	44	0	3074424832	7	4126
2026-01-19 02:47:50.55	210.71	25.67	-23.7	-24.9	19.1	0.00e+00	0	44	0	3080716288	7	4133
2026-01-19 02:47:51.55	210.68	25.51	-23.6	-24.8	19.2	0.00e+00	0	44	0	3085959168	7	4101
2026-01-19 02:47:52.55	210.64	25.35	-23.7	-24.8	19.1	5.90e-04	0	44	0	3091202048	7	4107
2026-01-19 02:47:53.56	210.61	25.18	-23.6	-24.8	19.2	0.00e+00	0	44	0	3097493504	7	4095
2026-01-19 02:47:54.56	210.57	25.02	-23.7	-24.9	19.1	6.73e-04	0	44	0	3102736384	7	4116
2026-01-19 02:47:55.56	210.54	24.86	-23.6	-24.8	19.2	0.00e+00	0	44	0	3107979264	7	4092
2026-01-19 02:47:56.57	210.50	24.71	-23.6	-24.7	19.2	0.00e+00	0	44	0	3114270720	7	4084
2026-01-19 02:47:57.57	210.47	24.55	-23.6	-24.7	19.2	1.10e-06	0	44	0	3119513600	7	4076
2026-01-19 02:47:58.57	210.44	24.39	-23.7	-24.9	19.1	0.00e+00	0	44	0	3125805056	7	4129
2026-01-19 02:47:59.57	210.40	24.24	-23.7	-24.9	19.1	0.00e+00	0	44	0	3131047936	7	4135
2026-01-19 02:48:00.56	210.37	24.09	-23.8	-25.0	19.0	1.10e-06	0	44	0	3136290816	7	4163
2026-01-19 02:48:01.57	210.34	23.93	-23.8	-25.1	19.0	6.64e-04	0	44	0	3142582272	7	4175
2026-01-19 02:48:02.57	210.31	23.78	-23.9	-25.2	18.9	0.00e+00	0	44	0	3147825152	7	4207
2026-01-19 02:48:03.57	210.28	23.63	-23.9	-25.3	18.9	0.00e+00	0	44	0	3153068032	7	4228
2026-01-19 02:48:04.58	210.25	23.48	-24.0	-25.1	18.7	7.27e-04	0	44	0	3159359488	8	4063
2026-01-19 02:48:05.57	210.22	23.33	-24.2	-25.4	18.6	0.00e+00	0	44	0	3164602368	8	4146
2026-01-19 02:48:06.58	210.18	23.18	-24.4	-25.9	18.3	8.07e-04	0	44	0	3169845248	8	4272
2026-01-19 02:48:07.58	210.15	23.03	-24.5	-25.6	18.2	0.00e+00	0	44	0	3176136704	9	4086
2026-01-19 02:48:08.58	210.13	22.88	-24.6	-25.8	18.1	0.00e+00	0	44	0	3181379584	9	4137
2026-01-19 02:48:09.57	210.10	22.74	-24.7	-25.9	18.0	0.00e+00	0	44	0	3187671040	9	4166
2026-01-19 02:48:10.57	210.07	22.59	-24.7	-26.0	18.0	0.00e+00	0	44	0	3192913920	9	4177
2026-01-19 02:48:11.58	210.04	22.45	-24.7	-26.1	17.9	0.00e+00	0	44	0	3198156800	9	4208
2026-01-19 02:48:12.58	210.01	22.30	-24.8	-26.3	17.8	0.00e+00	0	44	0	3204448256	9	4257
2026-01-19 02:48:13.59	209.98	22.16	-24.8	-26.2	17.9	7.99e-04	0	44	0	3209691136	9	4245
2026-01-19 02:48:14.59	209.95	22.01	-24.8	-26.1	17.9	0.00e+00	0	44	0	3214934016	9	4227
2026-01-19 02:48:15.59	209.92	21.87	-24.8	-26.2	17.8	8.37e-04	0	44	0	3221225472	9	4242
2026-01-19 02:48:16.59	209.90	21.73	-24.8	-26.3	17.8	8.23e-04	0	44	0	3226468352	9	4266
2026-01-19 02:48:17.59	209.87	21.59	-24.8	-26.2	17.8	0.00e+00	0	44	0	3231711232	9	4232
2026-01-19 02:48:18.60	209.84	21.45	-24.7	-26.1	17.9	8.82e-04	0	44	0	3238002688	9	4204
2026-01-19 02:48:19.59	209.82	21.32	-24.9	-26.4	17.7	0.00e+00	0	44	0	3243245568	9	4300
2026-01-19 02:48:20.60	209.79	21.18	-24.9	-26.5	17.7	0.00e+00	0	44	0	3249537024	9	4303
2026-01-19 02:48:21.60	209.76	21.04	-24.7	-26.1	17.9	2.86e-05	0	44	0	3254779904	9	4212
2026-01-19 02:48:22.60	209.74	20.90	-24.5	-25.6	18.1	8.79e-04	0	44	0	3261071360	9	4078
2026-01-19 02:48:23.59	209.71	20.77	-24.5	-25.5	18.2	0.00e+00	0	44	0	3266314240	9	4056
2026-01-19 02:48:24.60	209.69	20.63	-24.4	-25.4	18.2	9.89e-04	0	44	0	3271557120	9	4041
2026-01-19 02:48:25.60	209.66	20.50	-24.5	-25.5	18.2	9.67e-04	0	44	0	3276800000	9	4055
2026-01-19 02:48:26.60	209.64	20.37	-24.4	-25.4	18.2	0.00e+00	0	44	0	3283091456	9	4029
2026-01-19 02:48:27.60	209.61	20.23	-24.4	-25.4	18.2	9.29e-04	0	44	0	3288334336	9	4039
2026-01-19 02:48:28.60	209.59	20.10	-24.5	-25.5	18.1	9.96e-04	0	44	0	3294625792	9	4049
2026-01-19 02:48:29.61	209.56	19.97	-24.5	-25.6	18.1	0.00e+00	0	44	0	3299868672	9	4071
2026-01-19 02:48:30.60	209.54	19.84	-24.5	-25.6	18.1	9.29e-04	0	44	0	3305111552	9	4084
2026-01-19 02:48:31.61	209.52	19.71	-24.5	-25.5	18.1	8.90e-04	0	44	0	3311403008	9	4059
2026-01-19 02:48:32.61	209.49	19.58	-24.5	-25.5	18.1	0.00e+00	0	44	0	3316645888	9	4054
2026-01-19 02:48:33.61	209.47	19.45	-24.6	-25.7	18.0	0.00e+00	0	44	0	3322937344	9	4109
2026-01-19 02:48:34.62	209.45	19.32	-24.6	-25.7	18.0	7.99e-04	0	44	0	3328180224	9	4109
2026-01-19 02:48:35.62	209.42	19.19	-24.6	-25.8	18.0	0.00e+00	0	44	0	3333423104	9	4137
2026-01-19 02:48:36.62	209.40	19.07	-24.7	-26.0	17.9	7.82e-04	0	44	0	3339714560	9	4185
2026-01-19 02:48:37.63	209.38	18.94	-24.7	-25.9	17.9	8.40e-04	0	45	0	3344957440	9	4153
2026-01-19 02:48:38.63	209.36	18.82	-24.8	-26.3	17.7	0.00e+00	0	44	0	3350200320	9	4249
2026-01-19 02:48:39.63	209.33	18.69	-25.0	-26.6	17.5	9.07e-04	0	44	0	3356491776	9	4341
2026-01-19 02:48:40.62	209.31	18.57	-25.0	-26.2	17.5	0.00e+00	0	44	0	3361734656	10	4122
2026-01-19 02:48:41.63	209.29	18.44	-25.0	-26.3	17.4	0.00e+00	0	44	0	3366977536	10	4135
2026-01-19 02:48:42.63	209.27	18.32	-25.2	-26.6	17.3	0.00e+00	0	44	0	3373268992	10	4217
2026-01-19 02:48:43.64	209.25	18.20	-25.2	-26.6	17.3	1.08e-03	0	44	0	3378511872	10	4237
2026-01-19 02:48:44.64	209.23	18.08	-25.3	-26.9	17.1	0.00e+00	0	44	0	3384803328	10	4293
2026-01-19 02:48:45.64	209.21	17.95	-25.4	-27.0	17.0	0.00e+00	0	44	0	3390046208	10	4333
2026-01-19 02:48:46.65	209.19	17.83	-25.3	-26.9	17.1	1.14e-03	0	44	0	3396337664	10	4296
2026-01-19 02:48:47.65	209.17	17.71	-25.6	-27.0	16.8	0.00e+00	0	44	0	3401580544	11	4223
2026-01-19 02:48:48.66	209.15	17.59	-25.6	-27.0	16.8	1.25e-03	0	44	0	3406823424	11	4216
2026-01-19 02:48:49.66	209.13	17.47	-25.5	-26.8	16.9	0.00e+00	0	44	0	3413114880	11	4155
2026-01-19 02:48:50.66	209.11	17.36	-25.5	-26.6	17.0	1.25e-05	0	44	0	3418357760	11	4118
2026-01-19 02:48:51.67	209.09	17.24	-25.4	-26.5	17.0	0.00e+00	0	44	0	3423600640	11	4080
2026-01-19 02:48:52.67	209.07	17.12	-25.4	-26.9	17.0	0.00e+00	0	44	0	3429892096	10	4310
2026-01-19 02:48:53.67	209.05	17.00	-25.4	-27.0	17.0	0.00e+00	0	44	0	3435134976	10	4340
2026-01-19 02:48:54.67	209.03	16.89	-25.2	-26.6	17.2	0.00e+00	0	44	0	3440377856	10	4234
2026-01-19 02:48:55.67	209.01	16.77	-25.1	-26.4	17.3	1.07e-03	0	44	0	3446669312	10	4174
2026-01-19 02:48:56.68	208.99	16.66	-25.1	-26.3	17.4	3.40e-06	0	44	0	3451912192	10	4157
2026-01-19 02:48:57.68	208.97	16.54	-25.1	-26.4	17.3	0.00e+00	0	44	0	3458203648	10	4167
2026-01-19 02:48:58.69	208.95	16.43	-25.1	-26.5	17.3	0.00e+00	0	44	0	3463446528	10	4192
2026-01-19 02:48:59.69	208.93	16.31	-25.1	-26.4	17.3	0.00e+00	0	44	0	3468689408	10	4175
2026-01-19 02:49:00.69	208.92	16.20	-25.2	-26.6	17.1	1.13e-03	0	44	0	3474980864	10	4235
2026-01-19 02:49:01.70	208.90	16.09	-25.2	-26.6	17.2	0.00e+00	0	44	0	3480223744	10	4227
2026-01-19 02:49:02.70	208.88	15.98	-25.2	-26.7	17.1	0.00e+00	0	44	0	3485466624	10	4251
2026-01-19 02:49:03.70	208.86	15.87	-25.2	-26.7	17.1	0.00e+00	0	44	0	3491758080	10	4255
2026-01-19 02:49:04.71	208.84	15.75	-25.3	-26.8	17.1	0.00e+00	0	44	0	3497000960	10	4269
2026-01-19 02:49:05.71	208.83	15.64	-25.4	-27.0	17.0	0.00e+00	0	44	0	3503292416	10	4324
2026-01-19 02:49:06.72	208.81	15.53	-25.5	-27.2	16.8	0.00e+00	0	44	0	3508535296	10	4375
2026-01-19 02:49:07.73	208.79	15.42	-25.5	-27.2	16.8	0.00e+00	0	44	0	3513778176	10	4382
2026-01-19 02:49:08.73	208.78	15.31	-25.5	-27.2	16.8	2.20e-06	0	44	0	3520069632	10	4376
2026-01-19 02:49:09.74	208.76	15.21	-25.5	-27.2	16.8	0.00e+00	0	44	0	3525312512	10	4390
2026-01-19 02:49:10.74	208.74	15.10	-25.5	-26.8	16.7	0.00e+00	0	44	0	3531603968	11	4171
2026-01-19 02:49:11.75	208.73	14.99	-25.6	-27.0	16.7	0.00e+00	0	44	0	3536846848	11	4214
2026-01-19 02:49:12.76	208.71	14.88	-25.6	-26.9	16.7	0.00e+00	0	44	0	3543138304	11	4186
2026-01-19 02:49:13.76	208.69	14.78	-25.6	-26.9	16.7	0.00e+00	0	44	0	3548381184	11	4199
2026-01-19 02:49:14.76	208.68	14.67	-25.6	-27.0	16.6	0.00e+00	0	44	0	3553624064	11	4228
2026-01-19 02:49:15.77	208.66	14.56	-25.6	-27.1	16.6	0.00e+00	0	44	0	3559915520	11	4244
2026-01-19 02:49:16.77	208.64	14.46	-25.7	-27.2	16.5	0.00e+00	0	44	0	3565158400	11	4267
2026-01-19 02:49:17.78	208.63	14.35	-25.7	-27.2	16.5	0.00e+00	0	44	0	3570401280	11	4284
2026-01-19 02:49:18.78	208.61	14.25	-25.8	-27.4	16.4	0.00e+00	0	44	0	3576692736	11	4329
2026-01-19 02:49:19.78	208.60	14.15	-25.8	-27.3	16.4	0.00e+00	0	44	0	3581935616	11	4315
2026-01-19 02:49:20.78	208.58	14.04	-25.8	-27.4	16.4	0.00e+00	0	44	0	3587178496	11	4330
2026-01-19 02:49:21.79	208.57	13.94	-25.9	-27.7	16.2	0.00e+00	0	44	0	3593469952	11	4404
2026-01-19 02:49:22.80	208.55	13.84	-25.9	-27.6	16.3	0.00e+00	0	44	0	3598712832	11	4380
2026-01-19 02:49:23.80	208.54	13.73	-25.9	-27.6	16.2	0.00e+00	0	44	0	3605004288	11	4394
2026-01-19 02:49:24.81	208.52	13.63	-25.9	-27.7	16.2	0.00e+00	0	44	0	3610247168	11	4416
2026-01-19 02:49:25.81	208.51	13.53	-25.9	-27.7	16.1	0.00e+00	0	44	0	3616538624	11	4425
2026-01-19 02:49:26.82	208.49	13.43	-25.9	-27.7	16.2	0.00e+00	0	44	0	3621781504	11	4410
2026-01-19 02:49:27.82	208.48	13.33	-25.9	-27.2	16.1	0.00e+00	0	44	0	3627024384	12	4183
2026-01-19 02:49:28.83	208.46	13.23	-26.3	-28.1	15.6	0.00e+00	0	44	0	3633315840	12	4403
2026-01-19 02:49:29.83	208.45	13.13	-26.2	-27.8	15.7	0.00e+00	0	44	0	3638558720	12	4345
2026-01-19 02:49:30.83	208.44	13.03	-26.1	-27.6	15.9	0.00e+00	0	44	0	3643801600	12	4274
2026-01-19 02:49:31.84	208.42	12.93	-26.1	-27.5	15.9	0.00e+00	0	44	0	3650093056	12	4254
2026-01-19 02:49:32.84	208.41	12.83	-26.0	-27.4	16.0	0.00e+00	0	44	0	3655335936	12	4222
2026-01-19 02:49:33.85	208.39	12.73	-26.0	-27.5	15.9	0.00e+00	0	44	0	3660578816	12	4252
2026-01-19 02:49:34.84	208.38	12.64	-26.0	-27.4	15.9	0.00e+00	0	44	0	3666870272	12	4236
2026-01-19 02:49:35.84	208.37	12.54	-26.1	-27.7	15.8	0.00e+00	0	44	0	3672113152	12	4302
2026-01-19 02:49:36.85	208.35	12.44	-26.1	-27.6	15.8	0.00e+00	0	44	0	3678404608	12	4286
2026-01-19 02:49:37.85	208.34	12.35	-26.1	-27.6	15.8	0.00e+00	0	44	0	3683647488	12	4273
2026-01-19 02:49:38.85	208.33	12.25	-26.1	-27.6	15.8	0.00e+00	0	44	0	3689938944	12	4276
2026-01-19 02:49:39.85	208.31	12.15	-26.2	-27.7	15.7	0.00e+00	0	44	0	3695181824	12	4316
2026-01-19 02:49:40.85	208.30	12.06	-26.1	-27.6	15.8	0.00e+00	0	44	0	3700424704	12	4287
2026-01-19 02:49:41.86	208.29	11.96	-26.2	-27.7	15.7	0.00e+00	0	44	0	3706716160	12	4313
2026-01-19 02:49:42.86	208.27	11.87	-26.3	-28.0	15.6	0.00e+00	0	44	0	3711959040	12	4398
2026-01-19 02:49:43.86	208.26	11.78	-26.2	-27.8	15.6	0.00e+00	0	44	0	3717201920	12	4335
2026-01-19 02:49:44.86	208.25	11.68	-26.2	-27.9	15.6	0.00e+00	0	44	0	3723493376	12	4355
2026-01-19 02:49:45.86	208.24	11.59	-26.2	-27.9	15.4	0.00e+00	0	44	0	3728736256	12	4379
2026-01-19 02:49:46.86	208.22	11.50	-26.4	-28.2	15.1	0.00e+00	0	44	0	3733979136	12	4439
2026-01-19 02:49:47.86	208.21	11.40	-26.4	-28.3	13.5	7.99e-04	0	44	0	3740270592	12	4477
2026-01-19 02:49:48.86	208.20	11.31	-26.6	-28.2	14.7	0.00e+00	0	44	0	3745513472	13	4342
2026-01-19 02:49:49.86	208.19	11.22	-27.0	-29.0	14.6	1.10e-06	0	44	0	3751804928	13	4571
2026-01-19 02:49:50.85	208.18	11.13	-26.8	-28.6	14.9	1.10e-06	0	44	0	3757047808	13	4438
2026-01-19 02:49:51.85	208.16	11.04	-26.6	-28.1	15.2	0.00e+00	0	44	0	3762290688	13	4302
2026-01-19 02:49:52.86	208.15	10.95	-26.4	-27.7	15.4	0.00e+00	0	44	0	3768582144	13	4204
2026-01-19 02:49:53.86	208.14	10.86	-26.5	-27.9	15.3	0.00e+00	0	44	0	3773825024	13	4248
2026-01-19 02:49:54.86	208.13	10.77	-26.4	-27.9	15.3	8.93e-04	0	44	0	3779067904	13	4239
2026-01-19 02:49:55.86	208.12	10.68	-26.6	-28.1	15.1	0.00e+00	0	44	0	3785359360	13	4309
2026-01-19 02:49:56.86	208.10	10.59	-26.8	-28.7	14.8	1.10e-06	0	44	0	3790602240	13	4484
2026-01-19 02:49:57.87	208.09	10.50	-26.7	-28.5	14.9	0.00e+00	0	44	0	3795845120	13	4407
2026-01-19 02:49:58.86	208.08	10.41	-26.6	-28.3	15.0	0.00e+00	0	44	0	3802136576	13	4362
2026-01-19 02:49:59.87	208.07	10.32	-26.6	-28.2	15.1	1.01e-03	0	44	0	3807379456	13	4338
2026-01-19 02:50:00.86	208.06	10.23	-26.6	-28.2	15.1	0.00e+00	0	44	0	3813670912	13	4337
2026-01-19 02:50:01.86	208.05	10.14	-26.7	-28.5	14.9	1.20e-04	0	44	0	3818913792	13	4421
2026-01-19 02:50:02.86	208.04	10.06	-26.7	-28.3	15.0	0.00e+00	0	44	0	3824156672	13	4370
2026-01-19 02:50:03.86	208.03	9.97	-26.9	-28.8	14.7	0.00e+00	0	44	0	3830448128	13	4501
2026-01-19 02:50:04.87	208.02	9.88	-26.9	-28.9	14.7	0.00e+00	0	44	0	3835691008	13	4522
2026-01-19 02:50:05.87	208.01	9.79	-26.8	-28.7	14.7	0.00e+00	0	44	0	3840933888	13	4484
2026-01-19 02:50:06.87	207.99	9.71	-27.1	-28.9	14.4	1.06e-03	0	44	0	3847225344	14	4425
2026-01-19 02:50:07.88	207.98	9.62	-26.9	-28.5	14.6	1.10e-06	0	44	0	3852468224	14	4303
2026-01-19 02:50:08.88	207.97	9.53	-27.2	-29.0	14.3	1.08e-03	0	44	0	3858759680	14	4464
2026-01-19 02:50:09.89	207.96	9.45	-27.1	-28.8	14.4	0.00e+00	0	44	0	3864002560	14	4402
