passes_logs/2026/01/19/R2M6_AANII_01/R2M6_AANII_01__20260119_025122_NOAA_21_JPSS-2_rec.log

#Pass ID: 20260119_025122_NOAA 21 (JPSS-2)
#Satellite: NOAA 21 (JPSS-2)
#Configuration: NOAA 21
#almurnet v.1.7.20240730
#Start time: 2026-01-19 02:52:27

#Version: 2.2.20231116
#Station: R2M6_AANII_01
#Location: 30.233357 lon 59.946436 lat
#TLE: 1 54234U 22150A   26017.90260625  .00000050  00000+0  44518-4 0  9994
#TLE: 2 54234  98.7502 318.7672 0000612 269.1755  90.9351 14.19535344165221

#Time	Az	El	Level	Level2	SNR	BER	BlckErr	Temp	State	Recorded	gain1	gain2
2026-01-19 02:52:27.14	0.33	10.55	-34.1	-43.5	3.8	8.46e-01	0	44	0	0	28	10703
2026-01-19 02:52:28.14	0.19	10.60	-34.6	-46.5	3.8	1.49e+00	0	44	104	0	29	14213
2026-01-19 02:52:29.14	0.04	10.66	-34.6	-46.6	3.8	1.49e+00	0	44	104	0	29	14255
2026-01-19 02:52:30.14	359.90	10.71	-34.6	-46.6	3.8	1.49e+00	0	44	104	0	29	14286
2026-01-19 02:52:31.14	359.75	10.76	-34.7	-46.6	3.8	1.49e+00	0	44	104	0	29	14289
2026-01-19 02:52:32.14	359.60	10.82	-34.6	-46.6	3.8	1.49e+00	0	44	104	0	29	14315
2026-01-19 02:52:33.14	359.45	10.87	-34.6	-46.6	3.8	1.49e+00	0	44	104	0	29	14255
2026-01-19 02:52:34.14	359.31	10.92	-34.6	-46.5	3.8	1.49e+00	0	44	104	0	29	14190
2026-01-19 02:52:35.15	359.16	10.98	-34.5	-46.5	3.8	1.49e+00	0	44	104	0	29	14254
2026-01-19 02:52:36.15	359.01	11.03	-34.6	-46.5	3.8	1.49e+00	0	44	104	0	29	14231
2026-01-19 02:52:37.15	358.86	11.08	-34.6	-46.5	3.8	1.49e+00	0	44	104	0	29	14210
2026-01-19 02:52:38.16	358.71	11.14	-34.6	-46.5	3.8	1.49e+00	0	44	104	0	29	14202
2026-01-19 02:52:39.15	358.56	11.19	-34.6	-46.5	3.8	1.49e+00	0	44	104	0	29	14189
2026-01-19 02:52:40.16	358.40	11.24	-34.6	-46.4	3.8	1.49e+00	0	44	104	0	29	14129
2026-01-19 02:52:41.16	358.25	11.29	-34.5	-46.4	3.8	1.49e+00	0	44	104	0	29	14140
2026-01-19 02:52:42.17	358.10	11.35	-34.5	-46.5	3.8	1.49e+00	0	44	104	0	29	14201
2026-01-19 02:52:43.18	357.94	11.40	-34.6	-46.5	3.8	1.49e+00	0	44	104	0	29	14216
2026-01-19 02:52:44.18	357.79	11.45	-34.6	-46.5	3.8	1.49e+00	0	44	104	0	29	14242
2026-01-19 02:52:45.18	357.64	11.51	-34.6	-46.6	3.8	1.49e+00	0	44	104	0	29	14261
2026-01-19 02:52:46.18	357.48	11.56	-34.6	-46.6	3.8	1.49e+00	0	44	104	0	29	14311
2026-01-19 02:52:47.19	357.33	11.61	-34.7	-46.7	3.8	1.49e+00	0	44	104	0	29	14333
2026-01-19 02:52:48.19	357.17	11.66	-34.6	-46.6	3.8	1.49e+00	0	44	104	0	29	14333
2026-01-19 02:52:49.20	357.01	11.72	-34.6	-46.6	3.8	1.49e+00	0	44	104	0	29	14262
2026-01-19 02:52:50.20	356.86	11.77	-34.6	-46.6	3.8	1.49e+00	0	44	104	0	29	14318
2026-01-19 02:52:51.20	356.70	11.82	-34.6	-46.6	3.8	1.49e+00	0	44	104	0	29	14283
2026-01-19 02:52:52.20	356.54	11.87	-34.6	-46.5	3.8	1.49e+00	0	44	104	0	29	14145
2026-01-19 02:52:53.20	356.38	11.92	-34.5	-46.4	3.8	1.49e+00	0	44	104	0	29	14124
2026-01-19 02:52:54.20	356.22	11.97	-34.5	-46.4	3.8	1.49e+00	0	44	104	0	29	14073
2026-01-19 02:52:55.20	356.06	12.03	-34.5	-46.3	3.8	1.49e+00	0	44	104	0	29	14014
2026-01-19 02:52:56.21	355.90	12.08	-34.4	-46.6	3.8	1.49e+00	0	44	104	0	28	14673
2026-01-19 02:52:57.21	355.74	12.13	-34.3	-46.4	3.8	1.49e+00	0	44	104	0	28	14536
2026-01-19 02:52:58.21	355.58	12.18	-34.2	-46.1	3.8	1.49e+00	0	44	104	0	28	14307
2026-01-19 02:52:59.22	355.41	12.23	-33.9	-45.5	3.8	1.49e+00	0	44	104	0	28	13591
2026-01-19 02:53:00.22	355.25	12.28	-33.8	-45.6	3.8	1.49e+00	0	44	104	0	27	13955
2026-01-19 02:53:01.22	355.09	12.33	-33.8	-45.7	3.8	1.49e+00	0	44	104	0	27	14057
2026-01-19 02:53:02.23	354.92	12.38	-33.8	-45.8	3.8	1.49e+00	0	44	104	0	27	14199
2026-01-19 02:53:03.24	354.76	12.43	-33.8	-45.8	3.8	1.49e+00	0	44	104	0	27	14299
2026-01-19 02:53:04.24	354.59	12.48	-33.8	-45.9	3.8	1.49e+00	0	44	104	0	27	14383
2026-01-19 02:53:05.24	354.43	12.53	-33.8	-45.9	3.8	1.49e+00	0	44	104	0	27	14345
2026-01-19 02:53:06.24	354.26	12.58	-33.8	-45.8	3.8	1.49e+00	0	44	104	0	27	14221
2026-01-19 02:53:07.24	354.09	12.63	-33.8	-45.7	3.8	1.49e+00	0	44	104	0	27	14104
2026-01-19 02:53:08.25	353.93	12.68	-33.8	-45.7	3.8	1.49e+00	0	44	104	0	27	14062
2026-01-19 02:53:09.25	353.76	12.73	-33.8	-45.7	3.8	1.49e+00	0	44	104	0	27	14072
2026-01-19 02:53:10.25	353.59	12.78	-33.8	-45.6	3.8	1.49e+00	0	44	104	0	27	13951
2026-01-19 02:53:11.25	353.42	12.83	-33.8	-45.5	3.8	1.49e+00	0	44	104	0	27	13795
2026-01-19 02:53:12.26	353.25	12.88	-33.8	-45.5	3.8	1.49e+00	0	44	104	0	27	13882
2026-01-19 02:53:13.26	353.08	12.93	-33.8	-45.8	3.8	1.49e+00	0	44	104	0	27	14217
2026-01-19 02:53:14.27	352.91	12.98	-33.8	-46.0	3.8	1.49e+00	0	44	104	0	27	14579
2026-01-19 02:53:15.28	352.73	13.03	-33.8	-45.4	3.8	1.49e+00	0	44	104	0	27	13757
2026-01-19 02:53:16.29	352.56	13.08	-33.6	-43.6	3.8	1.49e+00	0	44	104	0	27	11382
2026-01-19 02:53:17.29	352.39	13.13	-33.1	-40.2	5.0	1.47e+00	0	44	104	0	26	8173
2026-01-19 02:53:18.30	352.21	13.18	-32.4	-37.4	6.9	2.26e-01	0	44	0	0	25	6419
2026-01-19 02:53:19.30	352.04	13.22	-31.7	-35.6	8.4	7.31e-02	0	44	0	3145728	24	5631
2026-01-19 02:53:20.31	351.86	13.27	-31.2	-34.6	9.6	1.80e-02	0	44	0	6291456	23	5274
2026-01-19 02:53:21.31	351.69	13.32	-31.0	-34.4	10.0	8.52e-03	0	44	0	9437184	22	5319
2026-01-19 02:53:22.32	351.51	13.37	-31.0	-34.2	10.1	6.87e-03	0	44	0	12582912	22	5250
2026-01-19 02:53:23.32	351.34	13.42	-30.9	-34.2	10.2	7.13e-03	0	44	0	15728640	22	5229
2026-01-19 02:53:24.33	351.16	13.46	-30.9	-34.5	10.2	5.28e-03	0	44	0	18874368	21	5468
2026-01-19 02:53:25.34	350.98	13.51	-30.9	-34.6	10.2	6.33e-03	0	44	0	22020096	21	5504
2026-01-19 02:53:26.33	350.80	13.56	-30.9	-34.5	10.2	6.13e-03	0	44	0	25165824	21	5473
2026-01-19 02:53:27.34	350.62	13.60	-31.1	-34.6	9.9	7.17e-03	0	44	0	28311552	22	5403
2026-01-19 02:53:28.34	350.44	13.65	-31.3	-35.2	9.4	1.83e-02	0	44	0	31457280	22	5645
2026-01-19 02:53:29.35	350.26	13.70	-30.8	-33.8	10.4	6.08e-03	0	44	0	34603008	22	5073
2026-01-19 02:53:30.35	350.08	13.74	-30.4	-33.2	11.2	1.81e-03	0	44	0	37748736	21	4951
2026-01-19 02:53:31.35	349.90	13.79	-30.0	-32.1	11.9	6.60e-04	0	44	0	40894464	21	4588
2026-01-19 02:53:32.35	349.72	13.84	-29.6	-31.6	12.6	1.48e-04	0	44	0	44040192	20	4510
2026-01-19 02:53:33.35	349.54	13.88	-29.3	-31.3	13.1	4.11e-05	0	44	0	47185920	19	4538
2026-01-19 02:53:34.36	349.36	13.93	-29.1	-31.4	13.4	1.44e-05	0	44	0	50331648	18	4653
2026-01-19 02:53:35.36	349.17	13.97	-29.0	-30.9	13.6	6.10e-06	0	44	0	53477376	18	4525
2026-01-19 02:53:36.37	348.99	14.02	-28.9	-31.3	13.7	5.30e-06	0	44	0	56623104	17	4736
2026-01-19 02:53:37.37	348.80	14.06	-28.9	-31.3	13.7	5.30e-06	0	44	0	59768832	17	4750
2026-01-19 02:53:38.37	348.62	14.11	-28.8	-31.0	13.9	1.50e-06	0	44	0	62914560	17	4646
2026-01-19 02:53:39.37	348.44	14.15	-28.7	-30.7	14.0	1.50e-06	0	44	0	66060288	17	4561
2026-01-19 02:53:40.38	348.25	14.19	-28.7	-30.8	14.0	1.50e-06	0	44	0	69206016	17	4597
2026-01-19 02:53:41.39	348.06	14.24	-28.7	-30.9	14.0	2.20e-06	0	44	0	72351744	17	4623
2026-01-19 02:53:42.39	347.87	14.28	-28.7	-30.9	14.0	7.00e-07	0	44	0	75497472	17	4615
2026-01-19 02:53:43.40	347.68	14.33	-28.7	-30.8	14.0	3.80e-06	0	44	0	78643200	17	4591
2026-01-19 02:53:44.40	347.50	14.37	-28.6	-30.6	14.2	2.20e-06	0	44	0	81788928	17	4514
2026-01-19 02:53:45.41	347.31	14.41	-28.9	-31.2	13.8	5.30e-06	0	44	0	84934656	17	4725
2026-01-19 02:53:46.41	347.12	14.46	-28.9	-31.4	13.7	9.10e-06	0	44	0	88080384	17	4767
2026-01-19 02:53:47.42	346.93	14.50	-28.6	-30.7	14.1	5.30e-06	0	44	0	91226112	17	4556
2026-01-19 02:53:48.42	346.74	14.54	-28.6	-30.6	14.2	7.00e-07	0	44	0	94371840	17	4518
2026-01-19 02:53:49.42	346.54	14.58	-28.6	-30.6	13.3	1.50e-06	0	44	0	97517568	17	4522
2026-01-19 02:53:50.42	346.35	14.62	-28.5	-30.4	13.2	7.00e-07	0	44	0	100663296	17	4477
2026-01-19 02:53:51.43	346.16	14.67	-28.4	-30.2	14.4	0.00e+00	0	44	0	103809024	17	4410
2026-01-19 02:53:52.43	345.97	14.71	-28.5	-30.8	14.3	7.00e-07	0	44	0	106954752	16	4698
2026-01-19 02:53:53.43	345.78	14.75	-28.5	-30.3	14.3	3.17e-03	0	44	0	110100480	17	4450
2026-01-19 02:53:54.43	345.58	14.79	-28.4	-30.0	14.5	1.50e-06	0	44	0	113246208	17	4363
2026-01-19 02:53:55.44	345.39	14.83	-28.4	-30.6	14.5	1.50e-06	0	44	0	116391936	16	4637
2026-01-19 02:53:56.44	345.19	14.87	-28.4	-30.5	14.5	0.00e+00	0	44	0	119537664	16	4610
2026-01-19 02:53:57.44	345.00	14.91	-28.3	-30.4	14.6	0.00e+00	0	44	0	122683392	16	4579
2026-01-19 02:53:58.44	344.80	14.95	-28.4	-30.5	14.5	3.39e-03	0	44	0	125829120	16	4620
2026-01-19 02:53:59.44	344.61	14.99	-28.4	-30.5	14.5	0.00e+00	0	44	0	128974848	16	4608
2026-01-19 02:54:00.44	344.41	15.03	-28.2	-30.1	14.8	7.00e-07	0	44	0	132120576	16	4492
2026-01-19 02:54:01.44	344.21	15.07	-28.1	-29.9	14.9	0.00e+00	0	44	0	135266304	16	4431
2026-01-19 02:54:02.44	344.01	15.10	-28.2	-30.2	14.7	0.00e+00	0	44	0	138412032	16	4498
2026-01-19 02:54:03.45	343.81	15.14	-28.3	-30.5	14.5	0.00e+00	0	44	0	141557760	16	4592
2026-01-19 02:54:04.45	343.62	15.18	-28.2	-30.1	14.7	3.80e-03	0	44	0	144703488	16	4490
2026-01-19 02:54:05.46	343.41	15.22	-28.2	-30.2	14.7	3.57e-03	0	44	0	147849216	16	4501
2026-01-19 02:54:06.46	343.22	15.26	-28.3	-30.2	14.6	0.00e+00	0	44	0	150994944	16	4530
2026-01-19 02:54:07.47	343.01	15.29	-28.4	-30.5	14.5	2.20e-06	0	44	0	154140672	16	4615
2026-01-19 02:54:08.46	342.81	15.33	-28.4	-30.5	14.5	4.15e-03	0	44	0	157286400	16	4613
2026-01-19 02:54:09.46	342.61	15.37	-28.4	-30.7	14.4	1.39e-04	0	44	0	160432128	16	4656
2026-01-19 02:54:10.46	342.41	15.40	-28.6	-30.6	14.2	4.16e-03	0	44	0	163577856	17	4520
2026-01-19 02:54:11.47	342.21	15.44	-28.6	-30.7	14.1	3.00e-06	0	44	0	165675008	17	4548
2026-01-19 02:54:12.47	342.01	15.47	-28.5	-30.5	14.3	3.00e-06	0	44	0	168820736	17	4483
2026-01-19 02:54:13.47	341.80	15.51	-28.5	-30.3	14.3	4.10e-03	0	44	0	171966464	17	4443
2026-01-19 02:54:14.48	341.60	15.54	-28.5	-30.4	14.3	3.91e-03	0	44	0	175112192	17	4469
2026-01-19 02:54:15.48	341.39	15.58	-28.5	-30.4	14.3	2.58e-04	0	44	0	178257920	17	4451
2026-01-19 02:54:16.48	341.19	15.61	-28.6	-30.6	14.2	3.91e-03	0	44	0	181403648	17	4532
2026-01-19 02:54:17.48	340.98	15.65	-28.6	-30.5	14.2	1.50e-06	0	44	0	184549376	17	4493
2026-01-19 02:54:18.48	340.78	15.68	-28.5	-30.4	14.3	2.53e-04	0	44	0	187695104	17	4476
2026-01-19 02:54:19.48	340.57	15.71	-28.4	-30.6	14.5	4.48e-03	0	44	0	190840832	16	4627
2026-01-19 02:54:20.48	340.37	15.75	-28.3	-30.5	14.5	4.37e-03	0	44	0	193986560	16	4604
2026-01-19 02:54:21.49	340.16	15.78	-28.4	-30.7	14.4	2.79e-04	0	44	0	197132288	16	4660
2026-01-19 02:54:22.50	339.95	15.81	-28.4	-30.6	14.5	4.35e-03	0	44	0	200278016	16	4635
2026-01-19 02:54:23.50	339.74	15.84	-28.4	-30.7	14.4	4.14e-03	0	44	0	203423744	16	4657
2026-01-19 02:54:24.51	339.53	15.87	-28.6	-30.6	14.2	4.34e-04	0	44	0	206569472	17	4519
2026-01-19 02:54:25.51	339.32	15.91	-28.6	-30.6	14.2	4.16e-03	0	44	0	209715200	17	4526
2026-01-19 02:54:26.51	339.11	15.94	-28.4	-30.7	14.4	4.56e-03	0	44	0	212860928	16	4652
2026-01-19 02:54:27.50	338.90	15.97	-28.5	-30.3	14.4	1.55e-04	0	44	0	216006656	17	4424
2026-01-19 02:54:28.51	338.69	16.00	-28.4	-30.2	14.4	4.44e-03	0	44	0	219152384	17	4400
2026-01-19 02:54:29.51	338.48	16.03	-28.3	-30.5	14.6	4.11e-03	0	44	0	222298112	16	4594
2026-01-19 02:54:30.52	338.27	16.06	-28.4	-30.6	14.5	3.05e-04	0	44	0	225443840	16	4623
2026-01-19 02:54:31.51	338.06	16.09	-28.3	-30.3	14.7	4.08e-03	0	44	0	228589568	16	4537
2026-01-19 02:54:32.51	337.85	16.11	-28.3	-30.3	14.7	0.00e+00	0	44	0	231735296	16	4544
2026-01-19 02:54:33.51	337.64	16.14	-28.3	-30.3	14.7	0.00e+00	0	44	0	234881024	16	4536
2026-01-19 02:54:34.51	337.42	16.17	-28.3	-30.4	14.6	3.85e-03	0	44	0	238026752	16	4562
2026-01-19 02:54:35.52	337.21	16.20	-28.3	-30.3	14.6	4.43e-03	0	44	0	241172480	16	4549
2026-01-19 02:54:36.52	337.00	16.23	-28.3	-30.3	14.6	1.79e-04	0	44	0	244318208	16	4562
2026-01-19 02:54:37.52	336.78	16.25	-28.3	-30.5	14.6	0.00e+00	0	44	0	247463936	16	4598
2026-01-19 02:54:38.53	336.57	16.28	-28.4	-30.5	14.5	7.00e-07	0	44	0	250609664	16	4614
2026-01-19 02:54:39.53	336.35	16.31	-28.3	-30.5	14.5	1.44e-04	0	44	0	253755392	16	4595
2026-01-19 02:54:40.53	336.14	16.33	-28.5	-30.4	14.3	4.07e-03	0	44	0	256901120	17	4454
2026-01-19 02:54:41.53	335.92	16.36	-28.6	-30.5	14.2	3.88e-03	0	44	0	260046848	17	4498
2026-01-19 02:54:42.53	335.71	16.38	-28.6	-30.5	14.2	0.00e+00	0	44	0	263192576	17	4492
2026-01-19 02:54:43.54	335.49	16.41	-28.5	-30.3	14.4	2.20e-06	0	44	0	266338304	17	4423
2026-01-19 02:54:44.54	335.27	16.43	-28.3	-30.5	14.5	2.20e-06	0	44	0	269484032	16	4602
2026-01-19 02:54:45.54	335.05	16.45	-28.4	-30.5	14.5	0.00e+00	0	44	0	272629760	16	4619
2026-01-19 02:54:46.55	334.84	16.48	-28.4	-30.6	14.5	4.38e-03	0	44	0	275775488	16	4629
2026-01-19 02:54:47.55	334.62	16.50	-28.4	-30.7	14.4	0.00e+00	0	44	0	278921216	16	4676
2026-01-19 02:54:48.56	334.40	16.52	-28.7	-30.7	14.1	1.50e-06	0	44	0	282066944	17	4566
2026-01-19 02:54:49.56	334.18	16.55	-28.5	-30.4	14.3	1.50e-06	0	44	0	285212672	17	4470
2026-01-19 02:54:50.56	333.96	16.57	-28.4	-30.5	14.5	0.00e+00	0	44	0	288358400	16	4615
2026-01-19 02:54:51.56	333.74	16.59	-28.3	-30.5	14.5	7.00e-07	0	44	0	291504128	16	4595
2026-01-19 02:54:52.56	333.52	16.61	-28.4	-30.5	14.5	7.00e-07	0	44	0	294649856	16	4611
2026-01-19 02:54:53.56	333.30	16.63	-28.3	-30.4	14.6	0.00e+00	0	44	0	297795584	16	4572
2026-01-19 02:54:54.57	333.08	16.65	-28.4	-30.6	14.5	0.00e+00	0	44	0	300941312	16	4624
2026-01-19 02:54:55.57	332.86	16.67	-28.4	-30.5	14.5	1.50e-06	0	44	0	304087040	16	4611
2026-01-19 02:54:56.58	332.64	16.69	-28.2	-30.1	14.7	4.06e-03	0	44	0	307232768	16	4495
2026-01-19 02:54:57.58	332.42	16.71	-28.2	-30.2	14.6	0.00e+00	0	44	0	310378496	16	4526
2026-01-19 02:54:58.58	332.20	16.73	-28.3	-30.3	14.6	0.00e+00	0	44	0	313524224	16	4547
2026-01-19 02:54:59.59	331.98	16.75	-28.3	-30.3	14.7	0.00e+00	0	44	0	316669952	16	4538
2026-01-19 02:55:00.59	331.76	16.76	-28.2	-30.0	14.8	0.00e+00	0	44	0	319815680	16	4467
2026-01-19 02:55:01.60	331.53	16.78	-28.1	-29.9	14.8	1.50e-06	0	44	0	322961408	16	4433
2026-01-19 02:55:02.60	331.31	16.80	-28.1	-29.9	14.9	0.00e+00	0	44	0	326107136	16	4415
2026-01-19 02:55:03.61	331.09	16.81	-28.0	-29.7	14.9	7.00e-07	0	44	0	329252864	16	4385
2026-01-19 02:55:04.61	330.86	16.83	-27.9	-29.9	14.9	0.00e+00	0	44	0	332398592	15	4561
2026-01-19 02:55:05.60	330.64	16.85	-27.9	-30.0	14.9	0.00e+00	0	44	0	335544320	15	4571
2026-01-19 02:55:06.61	330.42	16.86	-28.0	-30.2	14.8	0.00e+00	0	44	0	338690048	15	4632
2026-01-19 02:55:07.61	330.19	16.87	-28.2	-30.1	14.8	0.00e+00	0	44	0	341835776	16	4480
2026-01-19 02:55:08.61	329.97	16.89	-28.3	-30.4	14.6	0.00e+00	0	44	0	344981504	16	4567
2026-01-19 02:55:09.61	329.75	16.90	-28.2	-30.3	14.7	7.00e-07	0	44	0	348127232	16	4535
2026-01-19 02:55:10.61	329.52	16.92	-28.2	-30.2	14.7	0.00e+00	0	44	0	351272960	16	4524
2026-01-19 02:55:11.61	329.30	16.93	-28.3	-30.3	14.6	0.00e+00	0	44	0	354418688	16	4558
2026-01-19 02:55:12.61	329.08	16.94	-28.3	-30.3	14.6	0.00e+00	0	44	0	357564416	16	4541
2026-01-19 02:55:13.62	328.85	16.95	-28.3	-30.3	14.6	7.00e-07	0	44	0	360710144	16	4550
2026-01-19 02:55:14.63	328.62	16.97	-28.4	-30.6	14.4	0.00e+00	0	44	0	363855872	16	4638
2026-01-19 02:55:15.64	328.40	16.98	-28.4	-30.5	14.5	0.00e+00	0	44	0	367001600	16	4613
2026-01-19 02:55:16.64	328.17	16.99	-28.2	-30.2	14.7	7.00e-07	0	44	0	370147328	16	4514
2026-01-19 02:55:17.64	327.95	17.00	-28.1	-29.8	14.9	0.00e+00	0	44	0	373293056	16	4408
2026-01-19 02:55:18.64	327.72	17.01	-27.9	-30.0	14.9	0.00e+00	0	44	0	376438784	15	4594
2026-01-19 02:55:19.65	327.49	17.02	-27.9	-30.0	14.9	0.00e+00	0	44	0	379584512	15	4575
2026-01-19 02:55:20.65	327.27	17.02	-28.0	-30.1	14.8	0.00e+00	0	44	0	382730240	15	4617
2026-01-19 02:55:21.65	327.04	17.03	-28.2	-30.1	14.7	7.00e-07	0	44	0	385875968	16	4502
2026-01-19 02:55:22.65	326.82	17.04	-28.1	-29.8	14.9	0.00e+00	0	44	0	389021696	16	4404
2026-01-19 02:55:23.65	326.59	17.05	-28.0	-29.7	15.0	0.00e+00	0	44	0	392167424	16	4371
2026-01-19 02:55:24.66	326.36	17.06	-28.2	-30.2	14.7	0.00e+00	0	44	0	395313152	16	4526
2026-01-19 02:55:25.67	326.14	17.06	-28.2	-30.1	14.7	7.00e-07	0	44	0	398458880	16	4498
2026-01-19 02:55:26.67	325.91	17.07	-28.2	-30.1	14.7	7.00e-07	0	44	0	401604608	16	4497
2026-01-19 02:55:27.68	325.68	17.07	-28.1	-30.0	14.8	7.00e-07	0	44	0	404750336	16	4457
2026-01-19 02:55:28.68	325.46	17.08	-28.1	-29.9	14.9	7.00e-07	0	44	0	407896064	16	4430
2026-01-19 02:55:29.68	325.23	17.08	-28.2	-30.1	14.7	7.00e-07	0	44	0	411041792	16	4487
2026-01-19 02:55:30.68	325.00	17.09	-28.1	-30.0	14.8	0.00e+00	0	44	0	414187520	16	4458
2026-01-19 02:55:31.68	324.78	17.09	-28.1	-29.9	14.8	7.00e-07	0	44	0	417333248	16	4434
2026-01-19 02:55:32.69	324.55	17.10	-28.1	-30.0	14.7	0.00e+00	0	44	0	419430400	16	4470
2026-01-19 02:55:33.69	324.32	17.10	-28.2	-30.2	14.7	0.00e+00	0	44	0	423624704	16	4507
2026-01-19 02:55:34.70	324.09	17.10	-28.4	-30.6	14.4	7.00e-07	0	44	0	426770432	16	4658
2026-01-19 02:55:35.70	323.87	17.10	-28.4	-30.6	14.5	3.00e-06	0	44	0	429916160	16	4631
2026-01-19 02:55:36.70	323.64	17.10	-28.4	-30.7	14.4	1.50e-06	0	44	0	433061888	16	4663
2026-01-19 02:55:37.70	323.41	17.11	-28.5	-30.4	14.3	2.20e-06	0	44	0	436207616	17	4467
2026-01-19 02:55:38.71	323.18	17.11	-28.6	-30.6	14.1	7.00e-07	0	44	0	439353344	17	4538
2026-01-19 02:55:39.71	322.96	17.11	-28.5	-30.3	14.3	2.20e-06	0	44	0	442499072	17	4438
2026-01-19 02:55:40.71	322.73	17.11	-28.4	-30.5	14.5	7.00e-07	0	44	0	444596224	16	4623
2026-01-19 02:55:41.71	322.50	17.11	-28.3	-30.3	14.6	2.20e-06	0	44	0	447741952	16	4562
2026-01-19 02:55:42.72	322.27	17.10	-28.2	-30.1	14.7	0.00e+00	0	44	0	450887680	16	4476
2026-01-19 02:55:43.73	322.05	17.10	-28.2	-30.1	14.7	0.00e+00	0	44	0	454033408	16	4484
2026-01-19 02:55:44.73	321.82	17.10	-28.2	-30.1	14.7	0.00e+00	0	44	0	457179136	16	4473
2026-01-19 02:55:45.73	321.59	17.10	-28.1	-30.0	14.8	0.00e+00	0	44	0	460324864	16	4456
2026-01-19 02:55:46.74	321.36	17.09	-28.2	-30.1	14.7	7.00e-07	0	44	0	463470592	16	4495
2026-01-19 02:55:47.74	321.14	17.09	-28.4	-30.6	14.4	1.50e-06	0	44	0	466616320	16	4633
2026-01-19 02:55:48.75	320.91	17.09	-28.3	-30.0	14.5	7.00e-07	0	44	0	469762048	17	4347
2026-01-19 02:55:49.75	320.68	17.08	-28.2	-30.2	14.7	1.50e-06	0	44	0	472907776	16	4516
2026-01-19 02:55:50.75	320.46	17.08	-28.0	-30.0	14.7	0.00e+00	0	44	0	476053504	16	4529
2026-01-19 02:55:51.75	320.23	17.07	-27.4	-29.5	12.8	0.00e+00	0	44	0	479199232	16	4552
2026-01-19 02:55:52.76	320.00	17.07	-28.4	-30.5	12.1	1.50e-06	0	44	0	482344960	16	4622
2026-01-19 02:55:53.75	319.78	17.06	-28.3	-30.3	14.1	0.00e+00	0	44	0	485490688	16	4558
2026-01-19 02:55:54.76	319.55	17.05	-28.2	-30.1	14.6	0.00e+00	0	44	0	488636416	16	4487
2026-01-19 02:55:55.76	319.32	17.05	-28.2	-30.1	14.6	0.00e+00	0	44	0	491782144	16	4497
2026-01-19 02:55:56.76	319.10	17.04	-28.2	-30.0	14.7	0.00e+00	0	44	0	494927872	16	4478
2026-01-19 02:55:57.76	318.87	17.03	-28.2	-30.1	14.7	7.00e-07	0	44	0	498073600	16	4481
2026-01-19 02:55:58.77	318.64	17.02	-27.9	-30.0	14.9	0.00e+00	0	44	0	501219328	15	4582
2026-01-19 02:55:59.78	318.42	17.01	-27.9	-30.0	14.9	6.15e-04	0	44	0	504365056	15	4589
2026-01-19 02:56:00.78	318.19	17.00	-27.8	-29.8	14.9	0.00e+00	0	44	0	507510784	15	4533
2026-01-19 02:56:01.78	317.97	16.99	-27.9	-30.0	14.9	0.00e+00	0	44	0	510656512	15	4595
2026-01-19 02:56:02.78	317.74	16.98	-28.0	-29.7	14.9	0.00e+00	0	44	0	513802240	16	4378
2026-01-19 02:56:03.79	317.51	16.97	-27.8	-29.7	15.0	0.00e+00	0	44	0	516947968	15	4497
2026-01-19 02:56:04.79	317.29	16.96	-27.8	-29.9	15.0	3.47e-03	0	44	0	520093696	15	4557
2026-01-19 02:56:05.79	317.07	16.95	-27.9	-29.9	14.9	7.84e-04	0	44	0	523239424	15	4554
2026-01-19 02:56:06.80	316.84	16.94	-28.0	-30.2	14.8	0.00e+00	0	44	0	526385152	15	4646
2026-01-19 02:56:07.80	316.61	16.92	-28.2	-30.2	14.6	7.00e-07	0	44	0	529530880	16	4527
2026-01-19 02:56:08.80	316.39	16.91	-28.2	-30.1	14.7	7.00e-07	0	44	0	532676608	16	4496
2026-01-19 02:56:09.81	316.16	16.90	-28.1	-29.9	14.8	3.69e-03	0	44	0	535822336	16	4443
2026-01-19 02:56:10.80	315.94	16.88	-28.1	-30.0	14.7	3.46e-03	0	44	0	538968064	16	4463
2026-01-19 02:56:11.80	315.72	16.87	-28.1	-30.0	14.7	7.41e-04	0	44	0	542113792	16	4461
2026-01-19 02:56:12.81	315.49	16.85	-28.2	-30.0	14.7	0.00e+00	0	44	0	545259520	16	4473
2026-01-19 02:56:13.81	315.27	16.84	-28.1	-30.0	14.7	4.12e-03	0	44	0	548405248	16	4471
2026-01-19 02:56:14.81	315.05	16.82	-28.0	-30.2	14.7	1.31e-03	0	44	0	551550976	15	4629
2026-01-19 02:56:15.82	314.82	16.81	-28.1	-29.8	14.8	3.97e-03	0	44	0	554696704	16	4411
2026-01-19 02:56:16.82	314.60	16.79	-28.1	-30.0	14.7	3.01e-03	0	44	0	557842432	16	4464
2026-01-19 02:56:17.82	314.38	16.77	-28.1	-29.8	14.8	7.00e-07	0	44	0	560988160	16	4420
2026-01-19 02:56:18.83	314.16	16.76	-27.9	-30.1	14.8	2.53e-03	0	44	0	564133888	15	4627
2026-01-19 02:56:19.84	313.93	16.74	-28.1	-29.8	14.8	3.25e-03	0	44	0	567279616	16	4411
2026-01-19 02:56:20.84	313.71	16.72	-28.3	-30.3	14.6	5.00e-04	0	44	0	570425344	16	4558
2026-01-19 02:56:21.85	313.49	16.70	-28.3	-30.4	14.5	3.66e-03	0	44	0	573571072	16	4597
2026-01-19 02:56:22.85	313.27	16.68	-28.5	-30.4	14.2	4.23e-03	0	44	0	576716800	17	4478
2026-01-19 02:56:23.85	313.05	16.66	-28.4	-30.7	14.3	8.26e-04	0	44	0	579862528	16	4677
2026-01-19 02:56:24.85	312.83	16.64	-28.2	-30.3	14.5	4.34e-03	0	44	0	583008256	16	4546
2026-01-19 02:56:25.85	312.61	16.62	-28.1	-30.0	14.7	4.01e-03	0	44	0	586153984	16	4449
2026-01-19 02:56:26.85	312.39	16.60	-28.1	-30.0	14.7	9.01e-04	0	44	0	589299712	16	4449
2026-01-19 02:56:27.86	312.17	16.58	-28.1	-30.0	14.7	3.78e-03	0	44	0	592445440	16	4464
2026-01-19 02:56:28.86	311.95	16.56	-28.0	-29.8	14.8	0.00e+00	0	44	0	595591168	16	4405
2026-01-19 02:56:29.86	311.73	16.54	-27.9	-29.5	14.9	4.01e-04	0	44	0	598736896	16	4331
2026-01-19 02:56:30.87	311.51	16.51	-28.1	-30.0	14.7	3.40e-03	0	44	0	601882624	16	4469
2026-01-19 02:56:31.86	311.29	16.49	-27.9	-30.1	14.8	3.73e-03	0	44	0	605028352	15	4612
2026-01-19 02:56:32.86	311.08	16.47	-28.3	-30.3	14.5	1.67e-05	0	44	0	608174080	16	4558
2026-01-19 02:56:33.86	310.86	16.45	-28.3	-30.3	14.5	0.00e+00	0	44	0	611319808	16	4570
2026-01-19 02:56:34.86	310.64	16.42	-28.5	-30.8	14.2	4.15e-03	0	44	0	614465536	16	4722
2026-01-19 02:56:35.86	310.43	16.40	-28.7	-30.8	13.9	5.51e-04	0	44	0	617611264	17	4597
2026-01-19 02:56:36.87	310.21	16.37	-28.6	-30.5	14.1	3.97e-03	0	44	0	620756992	17	4519
2026-01-19 02:56:37.87	309.99	16.35	-28.5	-30.3	14.2	1.50e-06	0	44	0	623902720	17	4460
2026-01-19 02:56:38.87	309.78	16.32	-28.4	-30.0	14.4	1.50e-06	0	44	0	627048448	17	4365
2026-01-19 02:56:39.87	309.56	16.30	-28.3	-30.5	14.4	0.00e+00	0	44	0	630194176	16	4608
2026-01-19 02:56:40.86	309.35	16.27	-28.2	-30.2	14.5	3.83e-03	0	44	0	633339904	16	4531
2026-01-19 02:56:41.86	309.13	16.24	-28.4	-30.6	14.3	2.05e-05	0	44	0	636485632	16	4641
2026-01-19 02:56:42.86	308.92	16.22	-28.3	-30.3	14.5	7.00e-07	0	44	0	639631360	16	4562
2026-01-19 02:56:43.86	308.71	16.19	-28.0	-29.8	14.8	0.00e+00	0	44	0	642777088	16	4409
2026-01-19 02:56:44.87	308.49	16.16	-28.0	-29.6	14.9	0.00e+00	0	44	0	645922816	16	4361
2026-01-19 02:56:45.87	308.28	16.13	-27.8	-29.8	14.9	3.97e-03	0	44	0	649068544	15	4548
2026-01-19 02:56:46.87	308.07	16.10	-28.0	-30.2	14.7	3.75e-03	0	44	0	652214272	15	4641
2026-01-19 02:56:47.87	307.85	16.07	-28.2	-30.2	14.5	0.00e+00	0	44	0	655360000	16	4533
2026-01-19 02:56:48.86	307.64	16.05	-28.2	-30.1	14.6	0.00e+00	0	44	0	658505728	16	4511
2026-01-19 02:56:49.86	307.43	16.02	-28.2	-30.2	14.5	0.00e+00	0	44	0	661651456	16	4524
2026-01-19 02:56:50.87	307.22	15.99	-28.3	-30.3	14.5	3.94e-04	0	44	0	664797184	16	4574
2026-01-19 02:56:51.87	307.01	15.96	-28.3	-30.3	14.5	3.99e-03	0	44	0	667942912	16	4565
2026-01-19 02:56:52.88	306.80	15.92	-28.3	-30.4	14.4	3.00e-06	0	44	0	671088640	16	4591
2026-01-19 02:56:53.88	306.59	15.89	-28.2	-30.3	14.5	0.00e+00	0	44	0	673185792	16	4554
2026-01-19 02:56:54.88	306.38	15.86	-28.4	-30.6	14.3	7.00e-07	0	44	0	676331520	16	4647
2026-01-19 02:56:55.88	306.17	15.83	-28.2	-30.2	14.5	1.50e-06	0	44	0	679477248	16	4533
2026-01-19 02:56:56.88	305.96	15.80	-28.0	-29.7	14.8	2.67e-05	0	44	0	682622976	16	4395
2026-01-19 02:56:57.89	305.75	15.77	-27.9	-29.5	14.9	0.00e+00	0	44	0	686817280	16	4339
2026-01-19 02:56:58.90	305.54	15.73	-27.8	-29.9	14.9	0.00e+00	0	44	0	689963008	15	4554
2026-01-19 02:56:59.91	305.34	15.70	-27.8	-29.7	14.9	2.20e-06	0	44	0	693108736	15	4511
2026-01-19 02:57:00.91	305.13	15.67	-27.8	-29.8	14.9	0.00e+00	0	44	0	696254464	15	4526
2026-01-19 02:57:01.91	304.92	15.63	-27.8	-29.9	14.8	0.00e+00	0	44	0	698351616	15	4560
2026-01-19 02:57:02.91	304.72	15.60	-27.8	-29.7	14.9	0.00e+00	0	44	0	701497344	15	4517
2026-01-19 02:57:03.91	304.51	15.56	-27.7	-29.6	15.0	0.00e+00	0	44	0	704643072	15	4477
2026-01-19 02:57:04.92	304.31	15.53	-27.8	-29.8	14.8	0.00e+00	0	44	0	707788800	15	4542
2026-01-19 02:57:05.92	304.10	15.49	-27.8	-29.9	14.8	0.00e+00	0	44	0	710934528	15	4556
2026-01-19 02:57:06.92	303.90	15.46	-28.0	-30.2	14.6	0.00e+00	0	44	0	714080256	15	4666
2026-01-19 02:57:07.92	303.70	15.42	-28.1	-30.1	14.6	0.00e+00	0	44	0	717225984	16	4485
2026-01-19 02:57:08.92	303.49	15.39	-28.3	-30.4	14.4	0.00e+00	0	44	0	720371712	16	4575
2026-01-19 02:57:09.92	303.29	15.35	-28.2	-30.2	14.5	1.50e-06	0	44	0	723517440	16	4537
2026-01-19 02:57:10.93	303.09	15.31	-28.2	-30.2	14.5	0.00e+00	0	44	0	726663168	16	4523
2026-01-19 02:57:11.94	302.89	15.28	-28.2	-30.3	14.5	3.00e-06	0	44	0	729808896	16	4552
2026-01-19 02:57:12.94	302.69	15.24	-28.1	-29.9	14.6	0.00e+00	0	44	0	732954624	16	4451
2026-01-19 02:57:13.94	302.49	15.20	-27.9	-30.0	14.7	0.00e+00	0	44	0	736100352	15	4597
2026-01-19 02:57:14.95	302.28	15.16	-27.8	-29.9	14.7	0.00e+00	0	44	0	739246080	15	4566
2026-01-19 02:57:15.94	302.09	15.13	-27.8	-29.9	14.8	7.00e-07	0	44	0	742391808	15	4554
2026-01-19 02:57:16.94	301.89	15.09	-27.9	-30.0	14.7	7.00e-07	0	44	0	745537536	15	4592
2026-01-19 02:57:17.94	301.69	15.05	-27.9	-30.0	14.7	7.60e-06	0	44	0	748683264	15	4604
2026-01-19 02:57:18.94	301.49	15.01	-27.8	-29.9	14.7	0.00e+00	0	44	0	751828992	15	4571
2026-01-19 02:57:19.94	301.30	14.97	-27.8	-29.9	14.7	0.00e+00	0	44	0	754974720	15	4580
2026-01-19 02:57:20.95	301.10	14.93	-27.9	-30.1	14.6	3.00e-06	0	44	0	758120448	15	4633
2026-01-19 02:57:21.96	300.90	14.89	-27.9	-30.0	14.6	7.00e-07	0	44	0	761266176	15	4601
2026-01-19 02:57:22.96	300.71	14.85	-28.2	-30.1	14.5	0.00e+00	0	44	0	764411904	16	4508
2026-01-19 02:57:23.96	300.51	14.81	-28.1	-29.9	14.6	4.50e-06	0	44	0	767557632	16	4461
2026-01-19 02:57:24.97	300.32	14.77	-28.1	-30.0	14.6	0.00e+00	0	44	0	770703360	16	4469
2026-01-19 02:57:25.98	300.12	14.73	-28.1	-30.0	14.6	7.00e-07	0	44	0	773849088	16	4460
2026-01-19 02:57:26.98	299.93	14.69	-28.2	-30.1	14.5	8.30e-06	0	44	0	776994816	16	4515
2026-01-19 02:57:27.98	299.73	14.65	-28.1	-30.0	14.6	0.00e+00	0	44	0	780140544	16	4456
2026-01-19 02:57:28.98	299.54	14.60	-28.0	-30.3	14.5	7.00e-07	0	44	0	783286272	15	4678
2026-01-19 02:57:29.98	299.35	14.56	-28.2	-30.2	14.4	7.00e-07	0	44	0	786432000	16	4531
2026-01-19 02:57:30.99	299.16	14.52	-28.3	-30.4	14.3	7.00e-07	0	44	0	789577728	16	4599
2026-01-19 02:57:31.99	298.97	14.48	-28.2	-30.3	14.3	7.00e-07	0	44	0	792723456	16	4581
2026-01-19 02:57:32.99	298.78	14.44	-28.4	-30.7	14.1	7.00e-07	0	44	0	795869184	16	4679
2026-01-19 02:57:33.99	298.59	14.39	-28.3	-30.5	14.2	7.00e-07	0	44	0	799014912	16	4629
2026-01-19 02:57:35.00	298.40	14.35	-28.4	-30.7	14.1	2.20e-06	0	44	0	802160640	16	4702
2026-01-19 02:57:36.00	298.21	14.31	-28.3	-30.6	14.2	2.20e-06	0	44	0	805306368	16	4659
2026-01-19 02:57:37.00	298.02	14.26	-28.4	-30.6	14.1	1.50e-06	0	44	0	808452096	16	4672
2026-01-19 02:57:38.01	297.83	14.22	-28.5	-30.9	14.0	1.50e-06	0	44	0	811597824	16	4742
2026-01-19 02:57:39.01	297.65	14.17	-28.3	-30.5	14.2	3.00e-06	0	44	0	814743552	16	4624
2026-01-19 02:57:40.02	297.46	14.13	-28.2	-30.3	14.3	2.20e-06	0	44	0	817889280	16	4565
2026-01-19 02:57:41.02	297.27	14.09	-28.3	-30.3	14.3	7.00e-07	0	44	0	821035008	16	4576
2026-01-19 02:57:42.03	297.09	14.04	-28.4	-30.6	14.1	1.50e-06	0	44	0	824180736	16	4657
2026-01-19 02:57:43.04	296.90	13.99	-28.2	-30.2	14.4	1.50e-06	0	44	0	827326464	16	4539
2026-01-19 02:57:44.04	296.72	13.95	-28.2	-30.2	14.4	0.00e+00	0	44	0	830472192	16	4536
2026-01-19 02:57:45.05	296.53	13.90	-28.3	-30.4	14.2	1.50e-06	0	44	0	833617920	16	4605
2026-01-19 02:57:46.05	296.35	13.86	-28.1	-30.0	14.5	7.00e-07	0	44	0	836763648	16	4473
2026-01-19 02:57:47.05	296.17	13.81	-28.0	-29.9	14.6	0.00e+00	0	44	0	839909376	16	4436
2026-01-19 02:57:48.05	295.98	13.77	-28.1	-30.0	14.5	7.00e-07	0	44	0	843055104	16	4478
2026-01-19 02:57:49.05	295.80	13.72	-27.9	-30.0	14.5	7.00e-07	0	44	0	846200832	15	4614
2026-01-19 02:57:50.05	295.62	13.67	-27.8	-29.9	14.6	7.00e-07	0	44	0	849346560	15	4591
2026-01-19 02:57:51.06	295.44	13.63	-27.3	-29.3	13.6	0.00e+00	0	44	0	852492288	15	4550
2026-01-19 02:57:52.06	295.26	13.58	-27.9	-30.1	12.9	7.00e-07	0	44	0	855638016	15	4616
2026-01-19 02:57:53.07	295.08	13.53	-27.8	-29.8	14.5	0.00e+00	0	44	0	858783744	15	4550
2026-01-19 02:57:54.06	294.91	13.49	-27.9	-30.0	14.5	3.14e-03	0	44	0	861929472	15	4594
2026-01-19 02:57:55.06	294.73	13.44	-28.2	-30.2	14.2	7.00e-07	0	44	0	865075200	16	4546
2026-01-19 02:57:56.06	294.55	13.39	-28.1	-30.0	14.4	0.00e+00	0	44	0	868220928	16	4481
2026-01-19 02:57:57.07	294.37	13.34	-28.1	-30.0	14.4	7.00e-07	0	44	0	871366656	16	4487
2026-01-19 02:57:58.08	294.20	13.30	-28.1	-30.1	14.4	3.00e-06	0	44	0	874512384	16	4499
2026-01-19 02:57:59.08	294.02	13.25	-28.2	-30.3	14.2	4.82e-04	0	44	0	877658112	16	4579
2026-01-19 02:58:00.09	293.84	13.20	-28.3	-30.4	14.2	7.00e-07	0	44	0	880803840	16	4612
2026-01-19 02:58:01.09	293.67	13.15	-28.3	-30.5	14.1	2.20e-06	0	44	0	883949568	16	4634
2026-01-19 02:58:02.09	293.50	13.10	-28.3	-30.5	14.1	7.00e-07	0	44	0	887095296	16	4646
2026-01-19 02:58:03.09	293.32	13.05	-28.5	-30.4	13.9	3.00e-06	0	44	0	890241024	17	4498
2026-01-19 02:58:04.09	293.15	13.01	-28.3	-30.5	14.1	2.67e-03	0	44	0	893386752	16	4631
2026-01-19 02:58:05.10	292.98	12.96	-28.3	-30.6	14.1	2.95e-04	0	44	0	896532480	16	4667
2026-01-19 02:58:06.10	292.81	12.91	-28.5	-30.6	13.7	3.04e-03	0	44	0	899678208	17	4546
2026-01-19 02:58:07.11	292.63	12.86	-28.6	-30.8	13.6	5.30e-06	0	44	0	902823936	17	4614
2026-01-19 02:58:08.12	292.46	12.81	-28.8	-31.2	13.4	1.67e-05	0	44	0	905969664	17	4758
2026-01-19 02:58:09.12	292.29	12.76	-28.8	-31.3	13.3	2.40e-03	0	44	0	909115392	17	4798
2026-01-19 02:58:10.12	292.12	12.71	-29.0	-31.7	13.1	1.73e-03	0	44	0	912261120	17	4906
2026-01-19 02:58:11.11	291.96	12.66	-29.2	-31.6	12.8	6.40e-05	0	44	0	915406848	18	4765
2026-01-19 02:58:12.11	291.79	12.61	-29.1	-31.4	12.9	4.80e-05	0	44	0	918552576	18	4701
2026-01-19 02:58:13.11	291.62	12.56	-29.0	-31.7	13.1	2.67e-05	0	44	0	921698304	17	4905
2026-01-19 02:58:14.12	291.46	12.51	-28.9	-31.5	13.1	5.49e-05	0	44	0	924844032	17	4858
2026-01-19 02:58:15.12	291.29	12.46	-28.8	-31.2	13.3	2.18e-03	0	44	0	927989760	17	4768
2026-01-19 02:58:16.12	291.12	12.41	-28.9	-31.4	13.2	2.47e-03	0	44	0	931135488	17	4801
2026-01-19 02:58:17.13	290.96	12.36	-28.6	-30.8	13.5	3.23e-04	0	44	0	934281216	17	4626
2026-01-19 02:58:18.13	290.79	12.31	-28.4	-30.4	13.8	6.80e-06	0	44	0	937426944	17	4483
2026-01-19 02:58:19.13	290.63	12.26	-28.4	-30.6	14.0	3.87e-03	0	44	0	940572672	16	4677
2026-01-19 02:58:20.13	290.47	12.20	-28.4	-30.8	13.9	3.65e-04	0	44	0	943718400	16	4729
2026-01-19 02:58:21.13	290.30	12.15	-28.3	-30.4	14.1	3.98e-03	0	44	0	946864128	16	4619
2026-01-19 02:58:22.14	290.14	12.10	-28.2	-30.3	14.1	3.94e-03	0	44	0	950009856	16	4592
2026-01-19 02:58:23.15	289.98	12.05	-28.3	-30.5	14.1	1.94e-04	0	44	0	953155584	16	4630
2026-01-19 02:58:24.15	289.82	12.00	-28.3	-30.4	14.1	3.99e-03	0	44	0	956301312	16	4626
2026-01-19 02:58:25.16	289.65	11.95	-28.3	-30.5	14.0	3.71e-03	0	44	0	959447040	16	4643
2026-01-19 02:58:26.15	289.50	11.90	-28.4	-30.9	13.8	3.11e-04	0	44	0	962592768	16	4760
2026-01-19 02:58:27.15	289.34	11.84	-28.5	-30.9	13.8	3.76e-03	0	44	0	965738496	16	4782
2026-01-19 02:58:28.16	289.18	11.79	-28.6	-30.7	13.6	7.60e-06	0	44	0	968884224	17	4602
2026-01-19 02:58:29.16	289.02	11.74	-28.8	-31.3	13.2	2.80e-04	0	44	0	972029952	17	4783
2026-01-19 02:58:30.17	288.86	11.69	-28.7	-31.0	13.4	4.03e-03	0	44	0	974127104	17	4689
2026-01-19 02:58:31.17	288.70	11.63	-28.7	-30.9	13.5	3.75e-03	0	44	0	977272832	17	4658
2026-01-19 02:58:32.18	288.55	11.58	-28.8	-31.2	13.2	2.13e-05	0	44	0	980418560	17	4764
2026-01-19 02:58:33.18	288.39	11.53	-28.8	-31.4	13.2	1.90e-05	0	44	0	983564288	17	4820
2026-01-19 02:58:34.18	288.23	11.48	-29.0	-31.3	12.9	3.28e-05	0	44	0	986710016	18	4682
2026-01-19 02:58:35.17	288.08	11.42	-29.2	-31.7	12.7	5.87e-05	0	44	0	989855744	18	4796
2026-01-19 02:58:36.18	287.93	11.37	-29.1	-31.5	12.8	1.08e-03	0	44	0	993001472	18	4737
2026-01-19 02:58:37.18	287.77	11.32	-29.2	-31.7	12.6	1.12e-03	0	44	0	996147200	18	4826
2026-01-19 02:58:38.19	287.62	11.27	-29.0	-31.3	12.9	5.64e-05	0	44	0	999292928	18	4668
2026-01-19 02:58:39.19	287.47	11.21	-28.8	-31.4	13.1	2.67e-05	0	44	0	1002438656	17	4806
2026-01-19 02:58:40.19	287.31	11.16	-28.8	-31.2	13.2	2.36e-05	0	44	0	1005584384	17	4775
2026-01-19 02:58:41.19	287.16	11.11	-28.7	-31.1	13.3	1.83e-05	0	44	0	1008730112	17	4721
2026-01-19 02:58:42.20	287.01	11.05	-28.5	-30.6	13.5	1.69e-03	0	44	0	1011875840	17	4565
2026-01-19 02:58:43.20	286.86	11.00	-28.5	-30.6	13.6	1.37e-05	0	44	0	1015021568	17	4579
2026-01-19 02:58:44.20	286.71	10.95	-28.6	-30.7	13.5	9.90e-06	0	44	0	1018167296	17	4612
2026-01-19 02:58:45.21	286.56	10.89	-28.7	-31.0	13.3	1.67e-05	0	44	0	1021313024	17	4714
2026-01-19 02:58:46.21	286.41	10.84	-28.6	-30.8	13.4	1.44e-05	0	44	0	1024458752	17	4620
2026-01-19 02:58:47.22	286.26	10.78	-28.6	-30.8	13.4	1.23e-04	0	44	0	1027604480	17	4617
2026-01-19 02:58:48.23	286.11	10.73	-28.5	-30.4	13.6	1.06e-05	0	44	0	1030750208	17	4517
2026-01-19 02:58:49.24	285.97	10.68	-28.4	-30.9	13.6	9.10e-06	0	44	0	1033895936	16	4779
2026-01-19 02:58:50.24	285.82	10.62	-28.4	-30.7	13.7	9.90e-06	0	44	0	1037041664	16	4717
2026-01-19 02:58:51.25	285.67	10.57	-28.6	-30.7	13.4	6.80e-06	0	44	0	1040187392	17	4608
2026-01-19 02:58:52.25	285.53	10.51	-28.8	-31.2	13.1	2.05e-05	0	44	0	1043333120	17	4744
2026-01-19 02:58:53.26	285.38	10.46	-28.7	-30.9	13.3	1.83e-05	0	44	0	1046478848	17	4666
2026-01-19 02:58:54.26	285.24	10.41	-28.8	-31.2	13.1	2.59e-05	0	44	0	1049624576	17	4763
2026-01-19 02:58:55.26	285.09	10.35	-28.9	-31.5	12.9	5.79e-05	0	44	0	1052770304	17	4853
2026-01-19 02:58:56.26	284.95	10.30	-29.0	-31.3	12.8	6.71e-05	0	44	0	1055916032	18	4688
2026-01-19 02:58:57.27	284.81	10.24	-29.1	-31.6	12.5	1.01e-04	0	44	0	1059061760	18	4804
2026-01-19 02:58:58.27	284.66	10.19	-29.2	-31.9	12.4	1.62e-04	0	44	0	1062207488	18	4880
2026-01-19 02:58:59.26	284.52	10.13	-29.0	-31.4	12.7	1.01e-04	0	44	0	1065353216	18	4723
2026-01-19 02:59:00.27	284.38	10.08	-29.0	-31.4	12.7	4.95e-05	0	44	0	1068498944	18	4707
2026-01-19 02:59:01.27	284.24	10.03	-29.2	-31.7	12.5	8.08e-05	0	44	0	1071644672	18	4832
2026-01-19 02:59:02.26	284.10	9.97	-29.2	-31.9	12.4	1.86e-04	0	44	0	1074790400	18	4895
2026-01-19 02:59:03.26	283.96	9.92	-29.1	-31.6	12.6	1.08e-04	0	44	0	1077936128	18	4784
2026-01-19 02:59:04.27	283.82	9.86	-29.0	-31.4	12.7	9.68e-05	0	44	0	1081081856	18	4725
2026-01-19 02:59:05.28	283.68	9.81	-28.9	-31.7	12.7	8.62e-05	0	44	0	1084227584	17	4942
2026-01-19 02:59:06.28	283.55	9.75	-29.0	-31.2	12.8	8.01e-05	0	44	0	1087373312	18	4650
2026-01-19 02:59:07.28	283.41	9.70	-28.9	-31.5	12.9	4.19e-05	0	44	0	1090519040	17	4861
2026-01-19 02:59:08.28	283.27	9.64	-28.8	-31.3	13.0	4.50e-05	0	44	0	1093664768	17	4803
2026-01-19 02:59:09.28	283.14	9.59	-28.7	-31.1	13.0	4.65e-05	0	44	0	1096810496	17	4753
2026-01-19 02:59:10.28	283.00	9.53	-28.5	-30.7	13.3	2.05e-05	0	44	0	1099956224	17	4607
2026-01-19 02:59:11.29	282.86	9.48	-28.5	-30.6	13.5	1.29e-05	0	44	0	1103101952	17	4568
2026-01-19 02:59:12.29	282.73	9.42	-28.5	-30.7	13.4	1.67e-05	0	44	0	1106247680	17	4600
2026-01-19 02:59:13.29	282.60	9.37	-28.5	-30.6	13.4	1.22e-05	0	44	0	1109393408	17	4592
2026-01-19 02:59:14.30	282.46	9.31	-28.6	-30.8	13.3	2.36e-05	0	44	0	1112539136	17	4628
2026-01-19 02:59:15.30	282.33	9.26	-28.7	-30.9	13.2	1.60e-05	0	44	0	1115684864	17	4683
2026-01-19 02:59:16.30	282.19	9.20	-28.8	-31.3	13.0	4.11e-05	0	44	0	1118830592	17	4800
2026-01-19 02:59:17.31	282.06	9.15	-28.7	-31.1	13.1	3.35e-05	0	44	0	1121976320	17	4756
2026-01-19 02:59:18.30	281.93	9.09	-28.7	-31.1	13.1	3.35e-05	0	44	0	1125122048	17	4739
2026-01-19 02:59:19.30	281.80	9.04	-28.7	-31.0	13.1	3.05e-05	0	44	0	1128267776	17	4709
2026-01-19 02:59:20.30	281.67	8.98	-28.7	-31.2	13.0	3.20e-05	0	44	0	1131413504	17	4768
2026-01-19 02:59:21.30	281.54	8.93	-28.6	-31.0	13.1	3.20e-05	0	44	0	1134559232	17	4695
2026-01-19 02:59:22.30	281.41	8.87	-28.7	-31.2	13.0	3.96e-05	0	44	0	1137704960	17	4774
2026-01-19 02:59:23.31	281.28	8.82	-28.7	-31.0	13.1	3.05e-05	0	44	0	1140850688	17	4714
2026-01-19 02:59:24.31	281.15	8.76	-28.9	-31.6	12.7	6.17e-05	0	44	0	1143996416	17	4898
2026-01-19 02:59:25.31	281.02	8.71	-28.8	-31.3	12.9	6.17e-05	0	44	0	1147142144	17	4822
2026-01-19 02:59:26.31	280.90	8.65	-28.9	-31.7	12.7	6.02e-05	0	44	0	1150287872	17	4935
2026-01-19 02:59:27.31	280.77	8.60	-29.0	-31.4	12.6	8.39e-05	0	44	0	1153433600	18	4727
2026-01-19 02:59:28.31	280.64	8.54	-29.1	-31.5	12.5	1.12e-04	0	44	0	1156579328	18	4772
2026-01-19 02:59:29.32	280.51	8.49	-29.2	-31.8	12.3	1.53e-04	0	44	0	1159725056	18	4861
2026-01-19 02:59:30.32	280.39	8.43	-29.1	-31.7	12.4	1.62e-04	0	44	0	1162870784	18	4841
2026-01-19 02:59:31.32	280.26	8.38	-29.2	-31.9	12.2	2.01e-04	0	44	0	1166016512	18	4912
2026-01-19 02:59:32.33	280.14	8.32	-29.4	-32.4	11.9	2.78e-04	0	44	0	1169162240	18	5064
2026-01-19 02:59:33.34	280.01	8.27	-29.4	-32.4	11.9	4.46e-04	0	44	0	1172307968	18	5098
2026-01-19 02:59:34.34	279.89	8.21	-29.4	-32.4	11.9	4.45e-04	0	44	0	1175453696	18	5083
2026-01-19 02:59:35.34	279.77	8.16	-29.5	-32.6	11.8	5.07e-04	0	44	0	1178599424	18	5159
2026-01-19 02:59:36.34	279.64	8.10	-29.7	-32.7	11.3	1.08e-03	0	44	0	1181745152	19	5096
2026-01-19 02:59:37.34	279.52	8.05	-29.7	-32.8	11.3	1.41e-03	0	44	0	1184890880	19	5120
2026-01-19 02:59:38.35	279.40	7.99	-29.7	-32.6	11.3	1.05e-03	0	44	0	1188036608	19	5064
2026-01-19 02:59:39.35	279.28	7.93	-29.7	-32.8	11.2	1.19e-03	0	44	0	1191182336	19	5143
2026-01-19 02:59:40.34	279.16	7.88	-29.9	-33.3	10.8	2.49e-03	0	44	0	1194328064	19	5331
2026-01-19 02:59:41.35	279.03	7.82	-29.7	-32.6	11.3	1.24e-03	0	44	0	1197473792	19	5053
2026-01-19 02:59:42.35	278.91	7.77	-29.5	-32.2	11.6	7.19e-04	0	44	0	1200619520	19	4924
2026-01-19 02:59:43.35	278.80	7.71	-29.4	-31.9	11.8	5.01e-04	0	44	0	1203765248	19	4787
2026-01-19 02:59:44.35	278.68	7.66	-29.2	-31.9	12.1	2.56e-04	0	44	0	1206910976	18	4925
2026-01-19 02:59:45.35	278.56	7.60	-29.1	-31.7	12.2	1.94e-04	0	44	0	1210056704	18	4854
2026-01-19 02:59:46.35	278.44	7.55	-29.3	-32.3	11.9	3.19e-04	0	44	0	1213202432	18	5038
2026-01-19 02:59:47.36	278.32	7.49	-29.3	-32.3	11.8	4.88e-04	0	44	0	1216348160	18	5061
2026-01-19 02:59:48.36	278.20	7.44	-29.3	-32.3	11.9	4.14e-04	0	44	0	1219493888	18	5043
2026-01-19 02:59:49.37	278.09	7.38	-29.3	-32.1	12.0	2.86e-04	0	44	0	1222639616	18	4989
2026-01-19 02:59:50.37	277.97	7.33	-29.3	-32.1	11.9	3.71e-04	0	44	0	1224736768	18	4990
2026-01-19 02:59:51.36	277.85	7.27	-28.6	-31.3	12.0	2.57e-04	0	44	0	1227882496	18	4925
2026-01-19 02:59:52.37	277.74	7.22	-28.4	-31.5	11.7	4.38e-04	0	44	0	1231028224	18	5109
2026-01-19 02:59:53.38	277.62	7.16	-28.1	-31.0	10.9	3.04e-04	0	44	0	1234173952	18	5018
2026-01-19 02:59:54.38	277.51	7.10	-28.9	-32.1	10.4	3.49e-04	0	44	0	1237319680	17	5209
2026-01-19 02:59:55.38	277.39	7.05	-32.0	-38.6	6.2	3.13e-04	0	44	0	1240465408	23	7694
2026-01-19 02:59:56.38	277.28	6.99	-33.3	-45.5	3.8	1.49e+00	0	44	104	1241513984	26	14644
2026-01-19 02:59:57.39	277.17	6.94	-33.8	-45.8	3.8	1.49e+00	0	44	104	1241513984	27	14458
2026-01-19 02:59:58.39	277.05	6.88	-34.0	-45.8	3.8	1.49e+00	0	44	104	1241513984	28	14052

#Closed at: 2026-01-19 02:59:58
#Recorded file [1241 MB]: D:/data/31010_260119_055318.dat