passes_logs/2026/01/19/R2M6_AANII_01/R2M6_AANII_01__20260119_060316_FENGYUN_3E_rec.log

#Pass ID: 20260119_060316_FENGYUN 3E
#Satellite: FENGYUN 3E
#Configuration: FENGYUN 3E
#almurnet v.1.7.20240730
#Start time: 2026-01-19 06:03:17

#Version: 2.2.20231116
#Station: R2M6_AANII_01
#Location: 30.233357 lon 59.946436 lat
#TLE: 1 49008U 21062A   26017.96535346 -.00000182  00000+0 -64922-4 0  9998
#TLE: 2 49008  98.7483  23.0589 0002171 131.9722 228.1640 14.19885139235265

#Time	Az	El	Level	Level2	SNR	BER	BlckErr	Temp	State	Recorded	gain1	gain2
2026-01-19 06:03:17.61	11.89	7.06	-30.9	-34.0	5.0	7.92e-01	0	41	0	0	21	5187
2026-01-19 06:03:18.60	11.82	7.13	-30.6	-33.2	5.1	7.85e-01	0	41	104	0	21	4854
2026-01-19 06:03:19.60	11.75	7.20	-30.4	-33.2	8.8	3.02e-02	0	41	0	0	20	4961
2026-01-19 06:03:20.61	11.68	7.27	-30.4	-33.2	8.9	3.61e-02	0	41	0	6291456	20	4948
2026-01-19 06:03:21.61	11.61	7.34	-30.5	-33.3	8.8	3.01e-02	0	41	0	14680064	20	4985
2026-01-19 06:03:22.61	11.54	7.41	-30.4	-33.0	9.0	3.73e-02	0	41	0	20971520	20	4881
2026-01-19 06:03:23.62	11.47	7.48	-30.0	-32.1	9.6	1.93e-02	0	41	0	28311552	20	4571
2026-01-19 06:03:24.62	11.39	7.55	-29.6	-31.9	10.5	7.72e-03	0	41	0	35651584	18	4686
2026-01-19 06:03:25.62	11.32	7.62	-29.0	-30.9	11.4	4.43e-03	0	41	0	42991616	17	4479
2026-01-19 06:03:26.63	11.25	7.69	-28.6	-29.9	12.0	6.06e-04	0	42	0	50331648	17	4207
2026-01-19 06:03:27.62	11.18	7.76	-28.3	-29.9	12.4	2.71e-03	0	41	0	57671680	16	4283
2026-01-19 06:03:28.62	11.10	7.84	-27.8	-29.1	13.0	6.75e-05	0	41	0	65011712	15	4183
2026-01-19 06:03:29.62	11.03	7.91	-27.6	-28.7	13.2	6.19e-04	0	41	0	72351744	15	4070
2026-01-19 06:03:30.61	10.96	7.98	-27.6	-29.1	13.3	2.20e-03	0	42	0	78643200	14	4293
2026-01-19 06:03:31.60	10.88	8.05	-27.8	-29.0	13.1	3.77e-05	0	42	0	85983232	15	4153
2026-01-19 06:03:32.60	10.81	8.12	-27.8	-29.0	13.0	5.92e-04	0	41	0	93323264	15	4167
2026-01-19 06:03:33.59	10.74	8.19	-27.7	-28.8	13.2	2.19e-03	0	42	0	100663296	15	4094
2026-01-19 06:03:34.59	10.66	8.26	-27.7	-28.8	13.1	3.66e-05	0	42	0	108003328	15	4116
2026-01-19 06:03:35.60	10.58	8.34	-27.8	-29.2	12.9	6.11e-04	0	42	0	115343360	15	4226
2026-01-19 06:03:36.60	10.51	8.41	-27.8	-29.1	13.0	1.83e-05	0	41	0	122683392	15	4181
2026-01-19 06:03:37.60	10.43	8.48	-27.6	-29.1	13.4	1.92e-03	0	42	0	128974848	14	4278
2026-01-19 06:03:38.60	10.35	8.55	-27.5	-28.5	13.4	3.79e-04	0	42	0	136314880	15	4017
2026-01-19 06:03:39.60	10.28	8.63	-27.9	-29.3	13.0	3.20e-05	0	42	0	143654912	15	4241
2026-01-19 06:03:40.60	10.20	8.70	-27.5	-28.5	13.4	2.05e-03	0	42	0	150994944	15	4014
2026-01-19 06:03:41.60	10.12	8.77	-27.6	-29.1	13.4	3.62e-04	0	42	0	158334976	14	4287
2026-01-19 06:03:42.61	10.04	8.85	-27.4	-28.8	13.6	1.96e-03	0	42	0	165675008	14	4205
2026-01-19 06:03:43.61	9.96	8.92	-27.4	-28.6	13.7	1.89e-03	0	42	0	173015040	14	4145
2026-01-19 06:03:44.62	9.88	9.00	-27.3	-28.5	13.7	3.27e-04	0	42	0	180355072	14	4114
2026-01-19 06:03:45.62	9.80	9.07	-27.3	-28.3	13.8	1.84e-03	0	42	0	187695104	14	4081
2026-01-19 06:03:46.62	9.72	9.14	-27.1	-28.1	14.0	3.40e-06	0	42	0	195035136	14	4008
2026-01-19 06:03:47.62	9.64	9.22	-27.2	-28.2	13.9	3.01e-04	0	42	0	202375168	14	4043
2026-01-19 06:03:48.62	9.56	9.29	-27.1	-28.1	14.0	1.64e-03	0	42	0	208666624	14	4010
2026-01-19 06:03:49.62	9.48	9.37	-27.0	-28.4	14.1	1.83e-03	0	42	0	216006656	13	4196
2026-01-19 06:03:50.62	9.40	9.44	-27.0	-28.2	14.2	2.70e-04	0	42	0	223346688	13	4139
2026-01-19 06:03:51.63	9.31	9.52	-26.9	-28.0	14.3	3.40e-06	0	42	0	230686720	13	4098
2026-01-19 06:03:52.63	9.23	9.59	-26.9	-28.2	14.2	1.76e-03	0	42	0	238026752	13	4138
2026-01-19 06:03:53.63	9.15	9.67	-26.8	-27.9	14.4	2.36e-04	0	42	0	245366784	13	4070
2026-01-19 06:03:54.64	9.06	9.74	-26.9	-28.0	14.3	0.00e+00	0	42	0	252706816	13	4103
2026-01-19 06:03:55.64	8.98	9.82	-26.9	-28.1	14.3	1.73e-03	0	42	0	260046848	13	4121
2026-01-19 06:03:56.65	8.89	9.89	-26.8	-27.8	14.4	2.20e-06	0	42	0	267386880	13	4050
2026-01-19 06:03:57.66	8.81	9.97	-26.7	-27.6	14.6	1.67e-03	0	42	0	274726912	13	3987
2026-01-19 06:03:58.66	8.72	10.05	-26.8	-27.9	14.4	0.00e+00	0	42	0	282066944	13	4063
2026-01-19 06:03:59.66	8.64	10.12	-26.9	-28.0	14.4	0.00e+00	0	42	0	288358400	13	4083
2026-01-19 06:04:00.66	8.55	10.20	-26.8	-27.9	14.4	1.88e-03	0	42	0	295698432	13	4058
2026-01-19 06:04:01.67	8.46	10.28	-26.9	-27.9	14.4	1.10e-06	0	42	0	303038464	13	4075
2026-01-19 06:04:02.66	8.37	10.35	-26.8	-27.7	14.5	0.00e+00	0	42	0	310378496	13	4014
2026-01-19 06:04:03.67	8.29	10.43	-26.9	-28.0	14.4	1.10e-06	0	42	0	317718528	13	4082
2026-01-19 06:04:04.66	8.20	10.51	-26.8	-27.8	14.5	0.00e+00	0	42	0	325058560	13	4046
2026-01-19 06:04:05.66	8.11	10.58	-26.7	-27.7	14.6	2.53e-04	0	42	0	332398592	13	4007
2026-01-19 06:04:06.67	8.02	10.66	-26.9	-28.0	14.4	1.10e-06	0	42	0	339738624	13	4086
2026-01-19 06:04:07.68	7.93	10.74	-27.0	-28.2	14.3	0.00e+00	0	42	0	347078656	13	4150
2026-01-19 06:04:08.68	7.84	10.82	-26.7	-27.6	14.6	1.10e-06	0	42	0	354418688	13	3992
2026-01-19 06:04:09.68	7.75	10.90	-26.9	-28.0	14.4	2.20e-06	0	42	0	360710144	13	4094
2026-01-19 06:04:10.69	7.65	10.98	-26.8	-27.9	14.5	0.00e+00	0	42	0	368050176	13	4059
2026-01-19 06:04:11.69	7.56	11.05	-26.9	-28.0	14.4	0.00e+00	0	42	0	375390208	13	4099
2026-01-19 06:04:12.70	7.47	11.13	-26.8	-27.8	14.5	1.10e-06	0	42	0	382730240	13	4034
2026-01-19 06:04:13.69	7.38	11.21	-26.8	-27.8	14.5	0.00e+00	0	42	0	390070272	13	4037
2026-01-19 06:04:14.70	7.28	11.29	-26.9	-28.0	14.4	0.00e+00	0	43	0	397410304	13	4090
2026-01-19 06:04:15.71	7.19	11.37	-26.8	-27.9	14.5	0.00e+00	0	43	0	404750336	13	4064
2026-01-19 06:04:16.71	7.09	11.45	-26.9	-27.9	14.5	1.10e-06	0	42	0	412090368	13	4073
2026-01-19 06:04:17.71	7.00	11.53	-26.8	-27.7	14.6	0.00e+00	0	43	0	419430400	13	4012
2026-01-19 06:04:18.71	6.90	11.61	-26.7	-27.6	14.7	0.00e+00	0	43	0	426770432	13	3994
2026-01-19 06:04:19.72	6.80	11.69	-26.5	-27.2	14.9	0.00e+00	0	42	0	434110464	13	3883
2026-01-19 06:04:20.71	6.71	11.77	-26.7	-27.5	14.8	0.00e+00	0	43	0	440401920	13	3957
2026-01-19 06:04:21.71	6.61	11.85	-26.6	-27.3	14.8	0.00e+00	0	43	0	447741952	13	3925
2026-01-19 06:04:22.71	6.51	11.93	-26.6	-27.3	14.9	0.00e+00	0	43	0	455081984	13	3913
2026-01-19 06:04:23.70	6.42	12.01	-26.6	-27.3	14.9	0.00e+00	0	43	0	462422016	13	3905
2026-01-19 06:04:24.71	6.32	12.09	-26.5	-27.2	14.9	0.00e+00	0	43	0	469762048	13	3886
2026-01-19 06:04:25.70	6.22	12.17	-26.5	-27.7	14.9	0.00e+00	0	43	0	477102080	12	4118
2026-01-19 06:04:26.71	6.12	12.25	-26.5	-27.6	15.0	0.00e+00	0	43	0	483393536	12	4095
2026-01-19 06:04:27.71	6.01	12.33	-26.4	-27.5	15.0	0.00e+00	0	43	0	491782144	12	4071
2026-01-19 06:04:28.72	5.91	12.42	-26.3	-27.1	15.2	0.00e+00	0	43	0	499122176	12	3977
2026-01-19 06:04:29.72	5.81	12.50	-26.5	-27.7	14.9	1.10e-06	0	43	0	505413632	12	4124
2026-01-19 06:04:30.73	5.71	12.58	-26.4	-27.4	15.1	0.00e+00	0	43	0	512753664	12	4054
2026-01-19 06:04:31.74	5.60	12.66	-26.5	-27.6	15.0	1.10e-06	0	43	0	520093696	12	4103
2026-01-19 06:04:32.74	5.50	12.74	-26.5	-27.7	15.0	0.00e+00	0	43	0	527433728	12	4117
2026-01-19 06:04:33.74	5.40	12.83	-26.6	-27.4	14.9	0.00e+00	0	43	0	534773760	13	3924
2026-01-19 06:04:34.74	5.29	12.91	-26.7	-27.6	14.7	0.00e+00	0	43	0	542113792	13	3980
2026-01-19 06:04:35.74	5.18	12.99	-26.7	-27.6	14.8	0.00e+00	0	43	0	549453824	13	3979
2026-01-19 06:04:36.75	5.08	13.07	-26.6	-27.3	14.9	0.00e+00	0	43	0	556793856	13	3916
2026-01-19 06:04:37.75	4.97	13.16	-26.7	-27.5	14.8	0.00e+00	0	43	0	564133888	13	3954
2026-01-19 06:04:38.75	4.86	13.24	-26.7	-27.5	14.8	0.00e+00	0	43	0	570425344	13	3973
2026-01-19 06:04:39.75	4.76	13.32	-26.7	-27.6	14.7	0.00e+00	0	43	0	577765376	13	3986
2026-01-19 06:04:40.75	4.65	13.41	-26.6	-27.4	14.9	0.00e+00	0	43	0	585105408	13	3941
2026-01-19 06:04:41.75	4.54	13.49	-26.9	-27.9	14.6	1.10e-06	0	43	0	592445440	13	4062
2026-01-19 06:04:42.75	4.43	13.58	-26.7	-27.6	14.7	0.00e+00	0	43	0	599785472	13	3991
2026-01-19 06:04:43.76	4.32	13.66	-26.7	-27.5	14.9	0.00e+00	0	43	0	607125504	13	3955
2026-01-19 06:04:44.76	4.20	13.74	-26.4	-27.0	15.1	0.00e+00	0	43	0	614465536	13	3835
2026-01-19 06:04:45.77	4.09	13.83	-26.6	-27.4	14.9	0.00e+00	0	43	0	621805568	13	3927
2026-01-19 06:04:46.77	3.98	13.91	-26.6	-27.2	15.0	0.00e+00	0	43	0	629145600	13	3897
2026-01-19 06:04:47.77	3.87	14.00	-26.5	-27.5	15.1	0.00e+00	0	43	0	636485632	12	4068
2026-01-19 06:04:48.78	3.75	14.09	-26.4	-27.4	15.2	0.00e+00	0	43	0	643825664	12	4034
2026-01-19 06:04:49.77	3.64	14.17	-26.4	-26.8	15.2	0.00e+00	0	43	0	650117120	13	3794
2026-01-19 06:04:50.78	3.52	14.26	-26.3	-27.2	15.3	0.00e+00	0	43	0	657457152	12	3992
2026-01-19 06:04:51.78	3.41	14.34	-26.3	-27.1	15.4	0.00e+00	0	43	0	664797184	12	3968
2026-01-19 06:04:52.79	3.29	14.43	-26.3	-27.1	15.3	0.00e+00	0	43	0	672137216	12	3961
2026-01-19 06:04:53.79	3.17	14.51	-26.4	-27.4	15.2	0.00e+00	0	43	0	679477248	12	4029
2026-01-19 06:04:54.80	3.05	14.60	-26.2	-27.1	15.4	0.00e+00	0	43	0	686817280	12	3953
2026-01-19 06:04:55.79	2.93	14.69	-26.3	-27.1	15.3	0.00e+00	0	43	0	694157312	12	3972
2026-01-19 06:04:56.79	2.81	14.77	-26.2	-26.9	15.5	0.00e+00	0	43	0	701497344	12	3918
2026-01-19 06:04:57.79	2.69	14.86	-26.2	-26.9	15.5	0.00e+00	0	43	0	708837376	12	3906
2026-01-19 06:04:58.80	2.57	14.95	-26.1	-26.8	15.6	0.00e+00	0	43	0	715128832	12	3888
2026-01-19 06:04:59.80	2.45	15.03	-26.2	-27.0	15.4	0.00e+00	0	43	0	722468864	12	3927
2026-01-19 06:05:00.80	2.33	15.12	-26.4	-26.9	15.2	0.00e+00	0	43	0	729808896	13	3821
2026-01-19 06:05:01.80	2.21	15.21	-26.6	-27.3	15.0	0.00e+00	0	43	0	737148928	13	3911
2026-01-19 06:05:02.80	2.08	15.30	-26.4	-27.0	15.2	0.00e+00	0	43	0	744488960	13	3822
2026-01-19 06:05:03.80	1.96	15.38	-26.2	-26.9	15.5	0.00e+00	0	43	0	751828992	12	3917
2026-01-19 06:05:04.80	1.83	15.47	-26.1	-26.8	15.6	0.00e+00	0	43	0	759169024	12	3891
2026-01-19 06:05:05.80	1.71	15.56	-26.1	-26.8	15.6	0.00e+00	0	43	0	766509056	12	3890
2026-01-19 06:05:06.81	1.58	15.65	-26.1	-26.7	15.6	0.00e+00	0	43	0	773849088	12	3859
2026-01-19 06:05:07.82	1.45	15.74	-26.4	-27.4	15.3	0.00e+00	0	43	0	781189120	12	4039
2026-01-19 06:05:08.82	1.32	15.83	-26.3	-27.1	15.4	0.00e+00	0	43	0	788529152	12	3954
2026-01-19 06:05:09.82	1.19	15.92	-26.0	-26.5	15.8	0.00e+00	0	43	0	794820608	12	3812
2026-01-19 06:05:10.83	1.06	16.01	-26.0	-26.6	15.7	0.00e+00	0	43	0	802160640	12	3826
2026-01-19 06:05:11.84	0.93	16.10	-26.1	-26.7	15.6	0.00e+00	0	43	0	809500672	12	3870
2026-01-19 06:05:12.84	0.80	16.18	-26.0	-26.5	15.8	0.00e+00	0	43	0	816840704	12	3827
2026-01-19 06:05:13.84	0.66	16.27	-26.0	-27.1	15.8	0.00e+00	0	43	0	824180736	11	4056
2026-01-19 06:05:14.84	0.53	16.36	-26.1	-27.1	15.8	0.00e+00	0	43	0	831520768	11	4067
2026-01-19 06:05:15.85	0.40	16.45	-26.1	-26.7	15.7	0.00e+00	0	43	0	838860800	12	3860
2026-01-19 06:05:16.85	0.26	16.54	-26.5	-27.5	15.3	0.00e+00	0	43	0	846200832	12	4062
2026-01-19 06:05:17.86	0.12	16.64	-26.3	-26.6	15.5	0.00e+00	0	43	0	853540864	13	3736
2026-01-19 06:05:18.85	359.99	16.73	-25.9	-26.2	16.0	0.00e+00	0	43	0	859832320	12	3747
2026-01-19 06:05:19.85	359.85	16.82	-25.6	-26.2	16.3	0.00e+00	0	43	0	867172352	11	3857
2026-01-19 06:05:20.85	359.71	16.91	-25.6	-26.2	16.3	0.00e+00	0	43	0	874512384	11	3842
2026-01-19 06:05:21.86	359.57	17.00	-25.8	-26.5	16.1	0.00e+00	0	43	0	881852416	11	3901
2026-01-19 06:05:22.87	359.43	17.09	-25.9	-26.8	16.0	2.09e-04	0	43	0	889192448	11	3982
2026-01-19 06:05:23.88	359.29	17.18	-25.8	-26.5	16.2	0.00e+00	0	43	0	896532480	11	3909
2026-01-19 06:05:24.88	359.15	17.27	-25.9	-26.7	16.1	0.00e+00	0	43	0	903872512	11	3954
2026-01-19 06:05:25.88	359.00	17.36	-25.7	-26.2	16.3	0.00e+00	0	43	0	911212544	11	3851
2026-01-19 06:05:26.88	358.86	17.46	-25.5	-26.0	16.4	0.00e+00	0	43	0	918552576	11	3784
2026-01-19 06:05:27.88	358.72	17.55	-25.6	-26.5	16.4	1.54e-03	0	43	0	925892608	10	4018
2026-01-19 06:05:28.89	358.57	17.64	-25.5	-26.4	16.5	0.00e+00	0	43	0	933232640	10	3997
2026-01-19 06:05:29.89	358.42	17.73	-25.8	-26.5	16.2	0.00e+00	0	43	0	940572672	11	3924
2026-01-19 06:05:30.90	358.27	17.83	-25.6	-26.2	16.4	1.46e-03	0	43	0	946864128	11	3835
2026-01-19 06:05:31.90	358.13	17.92	-25.4	-25.7	16.6	0.00e+00	0	43	0	954204160	11	3734
2026-01-19 06:05:32.90	357.98	18.01	-25.5	-25.9	16.5	1.40e-03	0	43	0	961544192	11	3762
2026-01-19 06:05:33.91	357.83	18.10	-25.6	-26.1	16.4	0.00e+00	0	43	0	968884224	11	3828
2026-01-19 06:05:34.91	357.68	18.20	-25.5	-26.5	16.5	2.35e-04	0	43	0	976224256	10	4019
2026-01-19 06:05:35.91	357.52	18.29	-25.6	-26.2	16.3	1.28e-03	0	43	0	983564288	11	3850
2026-01-19 06:05:36.92	357.37	18.38	-25.6	-26.1	16.4	1.44e-03	0	43	0	990904320	11	3827
2026-01-19 06:05:37.93	357.21	18.48	-25.7	-26.4	16.3	2.46e-04	0	43	0	998244352	11	3886
2026-01-19 06:05:38.93	357.06	18.57	-25.5	-26.0	16.5	1.01e-03	0	43	0	1005584384	11	3795
2026-01-19 06:05:39.94	356.90	18.67	-25.4	-26.2	16.6	1.39e-03	0	43	0	1012924416	10	3935
2026-01-19 06:05:40.94	356.75	18.76	-25.3	-26.0	16.7	2.35e-04	0	43	0	1020264448	10	3895
2026-01-19 06:05:41.95	356.59	18.85	-25.3	-26.1	16.7	1.36e-03	0	43	0	1026555904	10	3914
2026-01-19 06:05:42.96	356.43	18.95	-25.3	-26.0	16.7	1.30e-03	0	43	0	1033895936	10	3907
2026-01-19 06:05:43.96	356.27	19.04	-25.4	-26.2	16.6	0.00e+00	0	43	0	1042284544	10	3950
2026-01-19 06:05:44.97	356.10	19.14	-25.2	-25.8	16.9	1.25e-03	0	43	0	1048576000	10	3845
2026-01-19 06:05:45.97	355.94	19.23	-25.2	-25.7	16.9	1.27e-03	0	43	0	1055916032	10	3815
2026-01-19 06:05:46.98	355.78	19.33	-25.2	-25.8	16.9	1.23e-04	0	43	0	1063256064	10	3840
2026-01-19 06:05:47.99	355.61	19.42	-25.4	-26.3	16.6	1.24e-03	0	43	0	1070596096	10	3959
2026-01-19 06:05:48.99	355.45	19.52	-25.2	-25.8	16.9	0.00e+00	0	43	0	1077936128	10	3858
2026-01-19 06:05:49.99	355.28	19.61	-25.2	-25.9	16.8	1.59e-04	0	43	0	1085276160	10	3863
2026-01-19 06:05:50.99	355.11	19.71	-25.4	-26.1	16.7	9.17e-04	0	43	0	1092616192	10	3930
2026-01-19 06:05:52.00	354.94	19.80	-25.3	-26.1	16.7	0.00e+00	0	43	0	1099956224	10	3916
2026-01-19 06:05:53.01	354.77	19.90	-25.3	-26.1	16.7	1.45e-04	0	43	0	1107296256	10	3916
2026-01-19 06:05:54.01	354.60	19.99	-25.5	-26.4	16.5	0.00e+00	0	43	0	1114636288	10	4000
2026-01-19 06:05:55.02	354.43	20.09	-25.4	-26.2	16.7	9.76e-04	0	43	0	1121976320	10	3954
2026-01-19 06:05:56.03	354.26	20.19	-25.3	-26.0	16.8	0.00e+00	0	43	0	1129316352	10	3891
2026-01-19 06:05:57.04	354.08	20.28	-25.3	-26.0	16.8	0.00e+00	0	43	0	1135607808	10	3907
2026-01-19 06:05:58.04	353.91	20.38	-25.5	-26.3	16.6	0.00e+00	0	43	0	1142947840	10	3975
2026-01-19 06:05:59.05	353.73	20.47	-25.2	-25.8	16.9	0.00e+00	0	43	0	1150287872	10	3843
2026-01-19 06:06:00.05	353.55	20.57	-25.1	-25.6	17.0	0.00e+00	0	43	0	1157627904	10	3811
2026-01-19 06:06:01.05	353.37	20.67	-25.2	-25.8	16.9	0.00e+00	0	43	0	1164967936	10	3847
2026-01-19 06:06:02.05	353.20	20.76	-25.1	-25.6	17.0	0.00e+00	0	43	0	1172307968	10	3800
2026-01-19 06:06:03.05	353.02	20.86	-25.1	-25.5	17.1	0.00e+00	0	43	0	1179648000	10	3783
2026-01-19 06:06:04.04	352.84	20.95	-25.3	-25.9	16.9	0.00e+00	0	43	0	1186988032	10	3876
2026-01-19 06:06:05.04	352.65	21.05	-25.1	-25.6	17.0	0.00e+00	0	43	0	1194328064	10	3800
2026-01-19 06:06:06.04	352.47	21.14	-25.1	-25.6	17.0	0.00e+00	0	43	0	1200619520	10	3796
2026-01-19 06:06:07.05	352.28	21.24	-25.2	-25.8	17.0	0.00e+00	0	43	0	1207959552	10	3841
2026-01-19 06:06:08.06	352.10	21.34	-25.2	-25.8	16.9	0.00e+00	0	43	0	1215299584	10	3849
2026-01-19 06:06:09.06	351.91	21.44	-25.1	-25.6	17.0	0.00e+00	0	43	0	1222639616	10	3796
2026-01-19 06:06:10.06	351.72	21.53	-25.1	-25.6	17.0	0.00e+00	0	43	0	1229979648	10	3809
2026-01-19 06:06:11.06	351.53	21.63	-25.2	-25.7	17.0	0.00e+00	0	43	0	1237319680	10	3824
2026-01-19 06:06:12.07	351.34	21.72	-25.4	-26.2	16.7	0.00e+00	0	43	0	1244659712	10	3942
2026-01-19 06:06:13.07	351.15	21.82	-25.2	-25.7	17.0	0.00e+00	0	43	0	1251999744	10	3815
2026-01-19 06:06:14.08	350.95	21.92	-25.2	-25.7	17.0	0.00e+00	0	43	0	1259339776	10	3830
2026-01-19 06:06:15.07	350.76	22.01	-25.2	-25.8	17.0	0.00e+00	0	43	0	1266679808	10	3841
2026-01-19 06:06:16.08	350.56	22.11	-25.3	-26.0	16.8	0.00e+00	0	43	0	1274019840	10	3907
2026-01-19 06:06:17.08	350.36	22.21	-25.2	-25.7	17.0	0.00e+00	0	43	0	1280311296	10	3833
2026-01-19 06:06:18.08	350.16	22.30	-25.1	-25.6	17.1	0.00e+00	0	43	0	1287651328	10	3799
2026-01-19 06:06:19.09	349.96	22.40	-25.2	-25.8	16.9	0.00e+00	0	43	0	1294991360	10	3852
2026-01-19 06:06:20.08	349.76	22.50	-25.1	-25.6	17.0	0.00e+00	0	43	0	1302331392	10	3791
2026-01-19 06:06:21.08	349.56	22.59	-25.1	-25.6	17.1	0.00e+00	0	43	0	1309671424	10	3796
2026-01-19 06:06:22.08	349.36	22.69	-25.2	-25.7	17.0	0.00e+00	0	43	0	1317011456	10	3833
2026-01-19 06:06:23.08	349.15	22.78	-25.4	-26.2	16.7	0.00e+00	0	43	0	1324351488	10	3947
2026-01-19 06:06:24.08	348.95	22.88	-25.1	-25.5	17.1	0.00e+00	0	43	0	1331691520	10	3774
2026-01-19 06:06:25.08	348.74	22.98	-24.8	-25.5	17.4	0.00e+00	0	43	0	1339031552	9	3883
2026-01-19 06:06:26.08	348.53	23.07	-24.9	-25.6	17.3	0.00e+00	0	43	0	1345323008	9	3905
2026-01-19 06:06:27.09	348.32	23.17	-25.1	-25.5	17.1	0.00e+00	0	43	0	1352663040	10	3774
2026-01-19 06:06:28.10	348.11	23.27	-24.7	-24.7	17.6	0.00e+00	0	43	0	1360003072	10	3588
2026-01-19 06:06:29.11	347.89	23.36	-24.8	-25.3	17.4	0.00e+00	0	43	0	1367343104	9	3841
2026-01-19 06:06:30.12	347.68	23.46	-24.6	-25.1	17.6	0.00e+00	0	43	0	1374683136	9	3780
2026-01-19 06:06:31.12	347.46	23.56	-24.7	-25.2	17.5	0.00e+00	0	43	0	1382023168	9	3814
2026-01-19 06:06:32.12	347.25	23.65	-24.6	-25.0	17.6	0.00e+00	0	44	0	1389363200	9	3774
2026-01-19 06:06:33.12	347.03	23.75	-24.5	-24.7	17.7	0.00e+00	0	43	0	1396703232	9	3707
2026-01-19 06:06:34.12	346.81	23.84	-24.5	-24.8	17.7	0.00e+00	0	43	0	1404043264	9	3727
2026-01-19 06:06:35.12	346.59	23.94	-24.5	-24.8	17.7	0.00e+00	0	43	0	1411383296	9	3715
2026-01-19 06:06:36.13	346.37	24.03	-24.4	-24.6	17.8	0.00e+00	0	43	0	1418723328	9	3688
2026-01-19 06:06:37.13	346.14	24.13	-24.4	-24.5	17.9	0.00e+00	0	43	0	1426063360	9	3659
2026-01-19 06:06:38.14	345.92	24.23	-24.5	-24.7	17.8	0.00e+00	0	43	0	1432354816	9	3704
2026-01-19 06:06:39.14	345.69	24.32	-24.3	-24.8	18.0	0.00e+00	0	43	0	1439694848	8	3820
2026-01-19 06:06:40.15	345.46	24.42	-24.2	-24.6	18.1	0.00e+00	0	43	0	1447034880	8	3778
2026-01-19 06:06:41.15	345.23	24.51	-24.1	-24.5	18.1	0.00e+00	0	43	0	1454374912	8	3768
2026-01-19 06:06:42.16	345.00	24.61	-24.0	-24.3	18.3	0.00e+00	0	43	0	1461714944	8	3704
2026-01-19 06:06:43.16	344.77	24.70	-24.1	-24.3	18.2	0.00e+00	0	43	0	1469054976	8	3722
2026-01-19 06:06:44.17	344.53	24.80	-24.1	-24.4	18.2	0.00e+00	0	43	0	1476395008	8	3728
2026-01-19 06:06:45.17	344.30	24.89	-24.0	-24.2	18.3	0.00e+00	0	43	0	1483735040	8	3687
2026-01-19 06:06:46.18	344.06	24.98	-24.0	-24.2	18.3	0.00e+00	0	43	0	1491075072	8	3692
2026-01-19 06:06:47.18	343.82	25.08	-24.1	-24.5	18.2	0.00e+00	0	43	0	1498415104	8	3747
2026-01-19 06:06:48.18	343.58	25.17	-24.1	-24.3	18.2	0.00e+00	0	43	0	1505755136	8	3718
2026-01-19 06:06:49.19	343.34	25.26	-24.2	-24.6	18.1	0.00e+00	0	43	0	1512046592	8	3787
2026-01-19 06:06:50.18	343.10	25.36	-24.2	-24.7	18.0	0.00e+00	0	43	0	1519386624	8	3802
2026-01-19 06:06:51.19	342.86	25.45	-24.3	-24.9	18.0	0.00e+00	0	43	0	1526726656	8	3846
2026-01-19 06:06:52.19	342.61	25.54	-24.5	-25.4	17.7	0.00e+00	0	43	0	1534066688	8	3961
2026-01-19 06:06:53.19	342.37	25.63	-24.3	-24.9	18.0	0.00e+00	0	43	0	1541406720	8	3844
2026-01-19 06:06:54.19	342.12	25.73	-24.2	-24.7	18.1	0.00e+00	0	43	0	1548746752	8	3800
2026-01-19 06:06:55.19	341.87	25.82	-24.3	-24.8	18.0	0.00e+00	0	43	0	1556086784	8	3819
2026-01-19 06:06:56.19	341.62	25.91	-24.2	-24.6	18.1	0.00e+00	0	43	0	1563426816	8	3789
2026-01-19 06:06:57.19	341.37	26.00	-24.2	-24.6	18.1	0.00e+00	0	43	0	1570766848	8	3772
2026-01-19 06:06:58.19	341.11	26.09	-24.2	-24.6	18.1	0.00e+00	0	43	0	1577058304	8	3770
2026-01-19 06:06:59.20	340.86	26.18	-24.3	-24.7	18.0	0.00e+00	0	43	0	1584398336	8	3810
2026-01-19 06:07:00.20	340.60	26.27	-23.5	-23.9	15.6	0.00e+00	0	43	0	1592786944	8	3772
2026-01-19 06:07:01.21	340.34	26.36	-24.2	-24.6	18.1	0.00e+00	0	43	0	1599078400	8	3783
2026-01-19 06:07:02.22	340.08	26.45	-24.3	-24.7	16.5	0.00e+00	0	44	0	1606418432	8	3809
2026-01-19 06:07:03.23	339.82	26.54	-24.4	-25.1	17.8	0.00e+00	0	43	0	1613758464	8	3899
2026-01-19 06:07:04.23	339.55	26.63	-24.3	-24.9	18.0	0.00e+00	0	44	0	1621098496	8	3857
2026-01-19 06:07:05.23	339.29	26.72	-24.3	-24.9	18.0	1.06e-03	0	44	0	1628438528	8	3848
2026-01-19 06:07:06.23	339.02	26.81	-24.3	-24.8	18.0	0.00e+00	0	43	0	1635778560	8	3835
2026-01-19 06:07:07.24	338.75	26.90	-24.4	-25.0	17.9	0.00e+00	0	43	0	1643118592	8	3868
2026-01-19 06:07:08.24	338.49	26.98	-24.3	-24.7	18.0	0.00e+00	0	44	0	1650458624	8	3808
2026-01-19 06:07:09.25	338.21	27.07	-24.4	-25.1	17.9	0.00e+00	0	43	0	1656750080	8	3896
2026-01-19 06:07:10.25	337.94	27.16	-24.4	-25.0	18.0	3.08e-05	0	43	0	1665138688	8	3861
2026-01-19 06:07:11.25	337.67	27.24	-24.3	-24.8	18.0	0.00e+00	0	43	0	1671430144	8	3834
2026-01-19 06:07:12.25	337.40	27.33	-24.4	-25.1	17.9	8.47e-04	0	43	0	1678770176	8	3899
2026-01-19 06:07:13.26	337.12	27.41	-24.4	-25.1	17.9	1.51e-04	0	44	0	1686110208	8	3901
2026-01-19 06:07:14.27	336.84	27.50	-24.2	-24.7	18.0	0.00e+00	0	43	0	1693450240	8	3807
2026-01-19 06:07:15.27	336.56	27.58	-24.2	-24.7	18.1	8.75e-04	0	44	0	1700790272	8	3808
2026-01-19 06:07:16.28	336.28	27.67	-24.2	-24.7	18.1	0.00e+00	0	43	0	1708130304	8	3790
2026-01-19 06:07:17.29	335.99	27.75	-24.0	-24.3	18.3	3.96e-04	0	44	0	1715470336	8	3715
2026-01-19 06:07:18.30	335.71	27.83	-23.9	-24.4	18.4	2.96e-04	0	44	0	1722810368	7	3846
2026-01-19 06:07:19.30	335.42	27.91	-23.9	-24.5	18.4	2.85e-04	0	43	0	1730150400	7	3854
2026-01-19 06:07:20.31	335.13	28.00	-23.8	-24.2	18.5	3.36e-04	0	43	0	1737490432	7	3795
2026-01-19 06:07:21.30	334.85	28.08	-23.8	-24.3	18.5	6.06e-04	0	43	0	1744830464	7	3816
2026-01-19 06:07:22.30	334.56	28.16	-24.2	-24.6	18.2	2.71e-04	0	44	0	1752170496	8	3774
2026-01-19 06:07:23.30	334.27	28.24	-24.4	-25.0	17.9	5.24e-04	0	43	0	1758461952	8	3873
2026-01-19 06:07:24.30	333.98	28.31	-24.4	-25.1	17.9	2.93e-04	0	44	0	1765801984	8	3890
2026-01-19 06:07:25.30	333.69	28.39	-24.5	-25.2	17.8	3.57e-04	0	43	0	1773142016	8	3918
2026-01-19 06:07:26.31	333.39	28.47	-24.2	-24.7	18.1	0.00e+00	0	44	0	1780482048	8	3795
2026-01-19 06:07:27.31	333.09	28.55	-24.2	-24.7	18.1	8.46e-05	0	43	0	1787822080	8	3798
2026-01-19 06:07:28.31	332.79	28.62	-24.2	-24.7	18.1	4.60e-04	0	44	0	1795162112	8	3794
2026-01-19 06:07:29.31	332.50	28.70	-24.1	-24.5	18.2	7.92e-04	0	43	0	1802502144	8	3750
2026-01-19 06:07:30.32	332.19	28.78	-24.2	-24.6	18.2	7.91e-04	0	44	0	1809842176	8	3769
2026-01-19 06:07:31.32	331.89	28.85	-24.2	-24.7	18.1	0.00e+00	0	44	0	1817182208	8	3801
2026-01-19 06:07:32.32	331.59	28.92	-24.2	-24.6	18.2	7.75e-04	0	44	0	1824522240	8	3775
2026-01-19 06:07:33.33	331.28	29.00	-24.2	-24.6	18.1	4.08e-04	0	44	0	1830813696	8	3779
2026-01-19 06:07:34.33	330.97	29.07	-24.2	-24.7	18.1	0.00e+00	0	44	0	1838153728	8	3794
2026-01-19 06:07:35.33	330.67	29.14	-24.4	-25.0	17.9	5.12e-04	0	43	0	1845493760	8	3867
2026-01-19 06:07:36.33	330.36	29.21	-24.2	-24.6	18.1	0.00e+00	0	43	0	1852833792	8	3777
2026-01-19 06:07:37.34	330.04	29.28	-24.2	-24.6	18.2	6.91e-04	0	44	0	1860173824	8	3783
2026-01-19 06:07:38.34	329.73	29.35	-24.4	-25.0	17.9	1.22e-03	0	44	0	1867513856	8	3882
2026-01-19 06:07:39.34	329.42	29.42	-24.4	-25.0	17.9	0.00e+00	0	44	0	1874853888	8	3868
2026-01-19 06:07:40.34	329.10	29.49	-24.1	-24.5	18.2	5.35e-04	0	44	0	1882193920	8	3755
2026-01-19 06:07:41.35	328.79	29.55	-24.2	-24.7	18.1	0.00e+00	0	44	0	1888485376	8	3790
2026-01-19 06:07:42.35	328.47	29.62	-24.2	-24.6	18.2	3.34e-04	0	43	0	1895825408	8	3775
2026-01-19 06:07:43.35	328.15	29.69	-24.2	-24.7	18.1	0.00e+00	0	44	0	1904214016	8	3804
2026-01-19 06:07:44.35	327.83	29.75	-24.1	-24.5	18.2	0.00e+00	0	43	0	1910505472	8	3765
2026-01-19 06:07:45.34	327.51	29.81	-24.2	-24.7	18.1	1.37e-03	0	44	0	1917845504	8	3806
2026-01-19 06:07:46.35	327.19	29.88	-24.4	-25.0	18.0	0.00e+00	0	43	0	1925185536	8	3867
2026-01-19 06:07:47.35	326.86	29.94	-24.4	-25.0	18.0	0.00e+00	0	44	0	1932525568	8	3865
2026-01-19 06:07:48.35	326.54	30.00	-24.1	-24.4	18.2	1.47e-03	0	43	0	1939865600	8	3737
2026-01-19 06:07:49.35	326.21	30.06	-23.9	-24.5	18.4	0.00e+00	0	44	0	1947205632	7	3860
2026-01-19 06:07:50.36	325.88	30.12	-23.8	-24.3	18.5	0.00e+00	0	43	0	1954545664	7	3812
2026-01-19 06:07:51.36	325.56	30.18	-23.8	-24.2	18.5	0.00e+00	0	44	0	1961885696	7	3804
2026-01-19 06:07:52.37	325.22	30.23	-23.7	-24.1	18.6	0.00e+00	0	43	0	1969225728	7	3760
2026-01-19 06:07:53.36	324.90	30.29	-23.8	-24.2	18.5	0.00e+00	0	44	0	1975517184	7	3801
2026-01-19 06:07:54.36	324.56	30.34	-23.8	-24.3	18.5	0.00e+00	0	44	0	1982857216	7	3820
2026-01-19 06:07:55.37	324.23	30.40	-23.8	-24.3	18.5	0.00e+00	0	43	0	1990197248	7	3824
2026-01-19 06:07:56.37	323.89	30.45	-23.9	-24.4	18.5	0.00e+00	0	44	0	1997537280	7	3848
2026-01-19 06:07:57.38	323.55	30.50	-23.8	-24.3	18.5	0.00e+00	0	44	0	2004877312	7	3811
2026-01-19 06:07:58.38	323.22	30.56	-23.8	-24.3	18.5	0.00e+00	0	44	0	2012217344	7	3824
2026-01-19 06:07:59.39	322.88	30.61	-23.9	-24.5	18.4	0.00e+00	0	44	0	2019557376	7	3855
2026-01-19 06:08:00.38	322.54	30.65	-23.9	-24.5	18.4	0.00e+00	0	44	0	2026897408	7	3867
2026-01-19 06:08:01.38	322.20	30.70	-24.0	-24.7	18.3	0.00e+00	0	44	0	2034237440	7	3912
2026-01-19 06:08:02.39	321.86	30.75	-23.9	-24.6	18.4	0.00e+00	0	44	0	2040528896	7	3890
2026-01-19 06:08:03.39	321.52	30.80	-23.9	-24.5	18.4	0.00e+00	0	44	0	2047868928	7	3865
2026-01-19 06:08:04.38	321.18	30.84	-23.7	-24.2	18.6	0.00e+00	0	44	0	2055208960	7	3781
2026-01-19 06:08:05.39	320.83	30.88	-23.6	-24.0	18.7	0.00e+00	0	44	0	2062548992	7	3735
2026-01-19 06:08:06.38	320.49	30.93	-23.6	-23.9	18.7	0.00e+00	0	44	0	2069889024	7	3722
2026-01-19 06:08:07.39	320.14	30.97	-23.6	-23.9	18.8	0.00e+00	0	44	0	2077229056	7	3715
2026-01-19 06:08:08.40	319.79	31.01	-23.6	-23.9	18.7	0.00e+00	0	44	0	2084569088	7	3729
2026-01-19 06:08:09.39	319.45	31.05	-23.6	-23.9	18.7	0.00e+00	0	43	0	2091909120	7	3721
2026-01-19 06:08:10.39	319.10	31.09	-23.6	-23.9	18.8	0.00e+00	0	43	0	2098200576	7	3716
2026-01-19 06:08:11.40	318.75	31.12	-23.5	-23.8	18.8	0.00e+00	0	43	0	2106589184	7	3696
2026-01-19 06:08:12.40	318.40	31.16	-23.5	-23.7	18.8	0.00e+00	0	44	0	2112880640	7	3684
2026-01-19 06:08:13.40	318.05	31.19	-23.6	-24.3	18.8	0.00e+00	0	43	0	2120220672	6	3925
2026-01-19 06:08:14.41	317.70	31.23	-23.3	-23.8	19.0	0.00e+00	0	43	0	2127560704	6	3800
2026-01-19 06:08:15.41	317.34	31.26	-23.3	-23.8	19.0	0.00e+00	0	44	0	2134900736	6	3808
2026-01-19 06:08:16.41	316.99	31.29	-23.4	-24.0	19.0	0.00e+00	0	44	0	2142240768	6	3847
2026-01-19 06:08:17.41	316.64	31.32	-23.4	-23.9	19.0	0.00e+00	0	44	0	2149580800	6	3819
2026-01-19 06:08:18.41	316.29	31.35	-23.5	-24.1	18.9	0.00e+00	0	44	0	2156920832	6	3875
2026-01-19 06:08:19.41	315.93	31.38	-23.7	-24.0	18.6	0.00e+00	0	44	0	2164260864	7	3752
2026-01-19 06:08:20.41	315.58	31.40	-23.7	-24.2	18.6	0.00e+00	0	44	0	2171600896	7	3792
2026-01-19 06:08:21.42	315.22	31.43	-23.5	-23.7	18.8	0.00e+00	0	44	0	2178940928	7	3685
2026-01-19 06:08:22.42	314.86	31.45	-23.4	-24.0	18.9	0.00e+00	0	43	0	2185232384	6	3861
2026-01-19 06:08:23.43	314.50	31.48	-23.4	-24.0	18.9	0.00e+00	0	43	0	2192572416	6	3855
2026-01-19 06:08:24.44	314.14	31.50	-23.4	-23.9	18.9	0.00e+00	0	44	0	2199912448	6	3835
2026-01-19 06:08:25.45	313.78	31.52	-23.6	-23.9	18.7	0.00e+00	0	44	0	2207252480	7	3731
2026-01-19 06:08:26.45	313.42	31.54	-23.9	-24.6	18.4	0.00e+00	0	44	0	2214592512	7	3885
2026-01-19 06:08:27.45	313.06	31.55	-24.0	-24.3	18.3	0.00e+00	0	44	0	2221932544	8	3703
2026-01-19 06:08:28.45	312.70	31.57	-23.6	-23.5	18.7	0.00e+00	0	43	0	2229272576	8	3530
2026-01-19 06:08:29.46	312.34	31.58	-23.4	-23.5	18.9	0.00e+00	0	44	0	2236612608	7	3640
2026-01-19 06:08:30.46	311.98	31.60	-23.3	-23.2	19.1	0.00e+00	0	44	0	2243952640	7	3576
2026-01-19 06:08:31.47	311.62	31.61	-23.3	-23.8	19.0	0.00e+00	0	43	0	2251292672	6	3803
2026-01-19 06:08:32.47	311.26	31.62	-23.4	-24.0	18.9	0.00e+00	0	44	0	2258632704	6	3851
2026-01-19 06:08:33.47	310.90	31.63	-23.4	-23.9	19.0	0.00e+00	0	44	0	2264924160	6	3833
2026-01-19 06:08:34.48	310.53	31.64	-23.4	-24.0	18.9	0.00e+00	0	44	0	2272264192	6	3854
2026-01-19 06:08:35.48	310.17	31.65	-23.4	-24.0	18.9	0.00e+00	0	44	0	2279604224	6	3864
2026-01-19 06:08:36.48	309.81	31.65	-23.3	-23.8	19.0	0.00e+00	0	44	0	2286944256	6	3812
2026-01-19 06:08:37.48	309.45	31.66	-23.3	-23.8	19.0	0.00e+00	0	43	0	2294284288	6	3806
2026-01-19 06:08:38.48	309.09	31.66	-23.4	-23.9	19.0	0.00e+00	0	44	0	2301624320	6	3830
2026-01-19 06:08:39.48	308.73	31.67	-23.4	-23.9	18.9	0.00e+00	0	44	0	2308964352	6	3831
2026-01-19 06:08:40.49	308.36	31.67	-23.4	-23.9	19.0	0.00e+00	0	44	0	2316304384	6	3825
2026-01-19 06:08:41.49	308.00	31.67	-23.3	-23.8	19.0	0.00e+00	0	43	0	2323644416	6	3797
2026-01-19 06:08:42.50	307.64	31.66	-23.3	-23.8	19.0	0.00e+00	0	44	0	2329935872	6	3804
2026-01-19 06:08:43.50	307.28	31.66	-23.3	-23.8	19.0	0.00e+00	0	44	0	2337275904	6	3797
2026-01-19 06:08:44.50	306.92	31.66	-23.2	-23.5	19.2	0.00e+00	0	44	0	2345664512	6	3735
2026-01-19 06:08:45.51	306.55	31.65	-23.2	-23.6	19.1	0.00e+00	0	44	0	2351955968	6	3769
2026-01-19 06:08:46.51	306.19	31.64	-23.3	-23.7	19.1	0.00e+00	0	44	0	2359296000	6	3788
2026-01-19 06:08:47.51	305.83	31.64	-23.3	-23.7	19.0	0.00e+00	0	44	0	2366636032	6	3779
2026-01-19 06:08:48.51	305.47	31.63	-23.3	-23.8	19.0	0.00e+00	0	43	0	2373976064	6	3797
2026-01-19 06:08:49.51	305.11	31.62	-23.2	-23.5	19.1	0.00e+00	0	44	0	2381316096	6	3731
2026-01-19 06:08:50.51	304.75	31.60	-23.2	-23.5	19.1	0.00e+00	0	44	0	2388656128	6	3736
2026-01-19 06:08:51.51	304.39	31.59	-23.3	-23.7	19.1	0.00e+00	0	44	0	2395996160	6	3785
2026-01-19 06:08:52.51	304.03	31.58	-23.3	-23.8	19.0	0.00e+00	0	44	0	2403336192	6	3805
2026-01-19 06:08:53.50	303.67	31.56	-22.8	-23.4	18.9	0.00e+00	0	44	0	2410676224	6	3821
2026-01-19 06:08:54.51	303.31	31.54	-23.3	-23.8	17.6	0.00e+00	0	43	0	2416967680	6	3806
2026-01-19 06:08:55.51	302.95	31.53	-23.3	-23.7	17.8	5.12e-04	0	44	0	2424307712	6	3790
2026-01-19 06:08:56.51	302.59	31.51	-23.1	-23.3	19.3	0.00e+00	0	44	0	2431647744	6	3689
2026-01-19 06:08:57.52	302.23	31.49	-23.2	-23.5	19.2	0.00e+00	0	44	0	2438987776	6	3729
2026-01-19 06:08:58.52	301.88	31.46	-23.2	-23.5	19.1	0.00e+00	0	44	0	2446327808	6	3734
2026-01-19 06:08:59.53	301.52	31.44	-23.2	-23.5	19.2	0.00e+00	0	43	0	2453667840	6	3739
2026-01-19 06:09:00.53	301.16	31.42	-23.2	-23.6	19.0	0.00e+00	0	44	0	2461007872	6	3769
2026-01-19 06:09:01.53	300.80	31.39	-23.4	-23.9	19.0	0.00e+00	0	44	0	2468347904	6	3829
2026-01-19 06:09:02.53	300.45	31.36	-23.5	-24.1	18.8	0.00e+00	0	44	0	2474639360	6	3875
2026-01-19 06:09:03.53	300.09	31.34	-23.4	-24.0	18.9	4.11e-05	0	44	0	2481979392	6	3858
2026-01-19 06:09:04.54	299.74	31.31	-23.4	-24.0	18.9	0.00e+00	0	44	0	2489319424	6	3860
2026-01-19 06:09:05.54	299.38	31.28	-23.4	-23.9	18.9	7.04e-04	0	43	0	2496659456	6	3824
2026-01-19 06:09:06.54	299.03	31.24	-23.2	-23.6	19.1	0.00e+00	0	44	0	2503999488	6	3760
2026-01-19 06:09:07.54	298.68	31.21	-23.2	-23.5	19.2	0.00e+00	0	44	0	2511339520	6	3733
2026-01-19 06:09:08.55	298.33	31.18	-23.3	-23.8	19.0	8.41e-04	0	44	0	2518679552	6	3805
2026-01-19 06:09:09.56	297.97	31.14	-23.4	-23.9	18.9	0.00e+00	0	44	0	2526019584	6	3823
2026-01-19 06:09:10.56	297.62	31.10	-23.3	-23.8	19.0	7.99e-04	0	44	0	2533359616	6	3798
2026-01-19 06:09:11.57	297.27	31.07	-23.3	-23.7	19.0	0.00e+00	0	43	0	2540699648	6	3777
2026-01-19 06:09:12.57	296.92	31.03	-23.4	-24.1	18.9	1.46e-04	0	44	0	2548039680	6	3872
2026-01-19 06:09:13.57	296.58	30.99	-23.5	-24.2	18.8	8.71e-04	0	43	0	2555379712	6	3894
2026-01-19 06:09:14.57	296.23	30.95	-23.4	-24.1	18.8	0.00e+00	0	44	0	2561671168	6	3872
2026-01-19 06:09:15.58	295.88	30.90	-23.5	-24.1	18.8	1.71e-05	0	44	0	2569011200	6	3885
2026-01-19 06:09:16.58	295.54	30.86	-23.5	-23.7	18.8	1.36e-03	0	44	0	2576351232	7	3680
2026-01-19 06:09:17.59	295.19	30.82	-23.6	-23.8	18.7	1.21e-03	0	44	0	2583691264	7	3708
2026-01-19 06:09:18.59	294.85	30.77	-23.5	-23.7	18.8	2.06e-04	0	44	0	2591031296	7	3672
2026-01-19 06:09:19.59	294.51	30.72	-23.7	-24.1	18.6	1.06e-03	0	44	0	2598371328	7	3764
2026-01-19 06:09:20.60	294.16	30.68	-23.7	-24.1	18.6	9.74e-04	0	44	0	2605711360	7	3760
2026-01-19 06:09:21.60	293.82	30.63	-23.4	-24.0	18.8	0.00e+00	0	44	0	2613051392	6	3854
2026-01-19 06:09:22.61	293.48	30.58	-23.4	-24.0	18.8	1.18e-03	0	44	0	2620391424	6	3861
2026-01-19 06:09:23.61	293.14	30.53	-23.3	-23.7	19.0	1.18e-03	0	44	0	2627731456	6	3780
2026-01-19 06:09:24.61	292.81	30.47	-23.3	-23.8	19.0	0.00e+00	0	44	0	2635071488	6	3799
2026-01-19 06:09:25.61	292.47	30.42	-23.3	-23.7	19.0	1.17e-03	0	44	0	2642411520	6	3795
2026-01-19 06:09:26.62	292.13	30.37	-23.5	-24.2	18.7	0.00e+00	0	44	0	2648702976	6	3905
2026-01-19 06:09:27.63	291.80	30.31	-23.5	-24.1	18.8	5.49e-05	0	44	0	2656043008	6	3881
2026-01-19 06:09:28.63	291.47	30.26	-23.5	-24.2	18.8	1.26e-03	0	44	0	2663383040	6	3892
2026-01-19 06:09:29.62	291.14	30.20	-23.5	-23.7	18.7	0.00e+00	0	44	0	2670723072	7	3685
2026-01-19 06:09:30.63	290.81	30.14	-23.5	-23.6	18.8	0.00e+00	0	44	0	2678063104	7	3668
2026-01-19 06:09:31.64	290.47	30.08	-23.5	-23.6	18.8	0.00e+00	0	44	0	2685403136	7	3656
2026-01-19 06:09:32.64	290.15	30.02	-23.5	-23.7	18.7	1.57e-03	0	44	0	2692743168	7	3693
2026-01-19 06:09:33.64	289.82	29.96	-23.5	-23.6	18.8	1.20e-04	0	44	0	2700083200	7	3659
2026-01-19 06:09:34.64	289.50	29.90	-23.4	-23.4	18.9	0.00e+00	0	44	0	2706374656	7	3618
2026-01-19 06:09:35.65	289.17	29.84	-23.5	-23.7	18.7	1.33e-03	0	43	0	2713714688	7	3675
2026-01-19 06:09:36.65	288.85	29.78	-23.6	-24.3	18.7	0.00e+00	0	44	0	2721054720	6	3924
2026-01-19 06:09:37.66	288.52	29.71	-23.6	-23.9	18.6	0.00e+00	0	44	0	2728394752	7	3737
2026-01-19 06:09:38.66	288.20	29.65	-23.8	-24.2	18.4	0.00e+00	0	44	0	2735734784	7	3805
2026-01-19 06:09:39.66	287.89	29.58	-23.7	-24.2	18.5	0.00e+00	0	44	0	2743074816	7	3788
2026-01-19 06:09:40.67	287.56	29.51	-23.7	-24.1	18.5	9.62e-04	0	44	0	2750414848	7	3764
2026-01-19 06:09:41.67	287.25	29.45	-23.6	-24.0	18.6	0.00e+00	0	44	0	2757754880	7	3739
2026-01-19 06:09:42.68	286.93	29.38	-23.6	-23.8	18.7	0.00e+00	0	44	0	2765094912	7	3704
2026-01-19 06:09:43.68	286.62	29.31	-23.6	-23.9	18.6	0.00e+00	0	44	0	2772434944	7	3728
2026-01-19 06:09:44.68	286.31	29.24	-23.7	-24.1	18.6	0.00e+00	0	44	0	2779774976	7	3768
2026-01-19 06:09:45.68	286.00	29.17	-23.9	-24.4	18.3	0.00e+00	0	44	0	2787115008	7	3848
2026-01-19 06:09:46.69	285.68	29.10	-24.2	-24.7	18.0	0.00e+00	0	44	0	2793406464	8	3798
2026-01-19 06:09:47.70	285.37	29.02	-24.2	-24.6	18.0	0.00e+00	0	44	0	2800746496	8	3784
2026-01-19 06:09:48.71	285.07	28.95	-24.0	-24.2	18.3	0.00e+00	0	44	0	2809135104	8	3690
2026-01-19 06:09:49.72	284.76	28.87	-23.8	-23.9	18.4	0.00e+00	0	44	0	2815426560	8	3619
2026-01-19 06:09:50.72	284.45	28.80	-23.8	-24.4	18.3	0.00e+00	0	44	0	2822766592	7	3831
2026-01-19 06:09:51.72	284.15	28.73	-23.6	-24.0	18.5	0.00e+00	0	44	0	2830106624	7	3743
2026-01-19 06:09:52.72	283.85	28.65	-23.7	-24.0	18.5	0.00e+00	0	44	0	2837446656	7	3761
2026-01-19 06:09:53.73	283.55	28.57	-23.5	-23.8	18.7	0.00e+00	0	44	0	2844786688	7	3695
2026-01-19 06:09:54.73	283.25	28.50	-23.4	-23.4	18.8	0.00e+00	0	44	0	2852126720	7	3610
2026-01-19 06:09:55.74	282.95	28.42	-23.4	-23.5	18.8	0.00e+00	0	44	0	2859466752	7	3634
2026-01-19 06:09:56.74	282.66	28.34	-23.4	-23.9	18.8	0.00e+00	0	44	0	2866806784	6	3833
2026-01-19 06:09:57.74	282.36	28.26	-23.6	-24.3	18.6	0.00e+00	0	44	0	2873098240	6	3926
2026-01-19 06:09:58.74	282.07	28.18	-23.7	-24.2	18.4	0.00e+00	0	44	0	2880438272	7	3794
2026-01-19 06:09:59.74	281.78	28.10	-24.1	-24.8	18.1	0.00e+00	0	44	0	2887778304	7	3944
2026-01-19 06:10:00.75	281.49	28.02	-24.0	-24.3	18.1	0.00e+00	0	44	0	2895118336	8	3719
2026-01-19 06:10:01.74	281.21	27.94	-23.9	-24.1	18.3	0.00e+00	0	44	0	2902458368	8	3660
2026-01-19 06:10:02.75	280.92	27.86	-23.9	-23.9	18.4	0.00e+00	0	44	0	2909798400	8	3636
2026-01-19 06:10:03.75	280.63	27.77	-24.0	-24.2	18.2	0.00e+00	0	44	0	2917138432	8	3691
2026-01-19 06:10:04.76	280.35	27.69	-23.8	-23.9	18.4	0.00e+00	0	44	0	2924478464	8	3625
2026-01-19 06:10:05.76	280.07	27.61	-23.8	-24.3	18.3	0.00e+00	0	44	0	2931818496	7	3828
2026-01-19 06:10:06.76	279.79	27.52	-23.8	-24.2	18.4	0.00e+00	0	44	0	2939158528	7	3805
2026-01-19 06:10:07.77	279.50	27.44	-23.7	-24.2	18.4	0.00e+00	0	44	0	2946498560	7	3785
2026-01-19 06:10:08.77	279.23	27.35	-23.8	-24.4	18.3	0.00e+00	0	44	0	2953838592	7	3832
2026-01-19 06:10:09.78	278.95	27.27	-24.0	-24.7	18.2	0.00e+00	0	44	0	2960130048	7	3901
2026-01-19 06:10:10.79	278.67	27.18	-23.9	-24.5	18.2	0.00e+00	0	44	0	2967470080	7	3874
2026-01-19 06:10:11.78	278.40	27.09	-23.8	-24.4	18.3	0.00e+00	0	44	0	2974810112	7	3846
2026-01-19 06:10:12.79	278.13	27.01	-23.9	-24.6	18.2	0.00e+00	0	44	0	2982150144	7	3891
2026-01-19 06:10:13.79	277.86	26.92	-23.9	-24.5	18.2	0.00e+00	0	44	0	2989490176	7	3875
2026-01-19 06:10:14.80	277.59	26.83	-23.8	-24.4	18.3	0.00e+00	0	44	0	2996830208	7	3846
2026-01-19 06:10:15.80	277.32	26.74	-24.0	-24.8	18.1	0.00e+00	0	44	0	3004170240	7	3924
2026-01-19 06:10:16.80	277.06	26.65	-23.9	-24.5	18.2	0.00e+00	0	44	0	3011510272	7	3860
2026-01-19 06:10:17.80	276.79	26.57	-23.7	-24.2	18.4	0.00e+00	0	44	0	3018850304	7	3796
2026-01-19 06:10:18.81	276.53	26.48	-23.8	-24.4	18.3	0.00e+00	0	44	0	3026190336	7	3832
2026-01-19 06:10:19.81	276.27	26.39	-23.9	-24.5	18.2	0.00e+00	0	44	0	3033530368	7	3865
2026-01-19 06:10:20.81	276.01	26.30	-24.0	-24.8	18.1	0.00e+00	0	44	0	3040870400	7	3935
2026-01-19 06:10:21.81	275.75	26.21	-24.1	-24.9	18.0	0.00e+00	0	44	0	3047161856	7	3955
2026-01-19 06:10:22.82	275.49	26.11	-24.1	-24.8	18.1	0.00e+00	0	44	0	3054501888	7	3945
2026-01-19 06:10:23.82	275.24	26.02	-24.1	-24.5	18.0	0.00e+00	0	44	0	3061841920	8	3750
2026-01-19 06:10:24.81	274.98	25.93	-24.1	-24.5	18.0	0.00e+00	0	44	0	3069181952	8	3763
2026-01-19 06:10:25.81	274.73	25.84	-24.0	-24.2	18.2	0.00e+00	0	44	0	3076521984	8	3684
2026-01-19 06:10:26.82	274.48	25.75	-23.9	-24.1	18.2	0.00e+00	0	44	0	3083862016	8	3669
2026-01-19 06:10:27.82	274.23	25.66	-24.1	-24.4	18.0	0.00e+00	0	44	0	3091202048	8	3739
2026-01-19 06:10:28.83	273.98	25.56	-23.9	-24.1	18.2	0.00e+00	0	44	0	3098542080	8	3669
2026-01-19 06:10:29.82	273.74	25.47	-23.8	-23.7	18.4	0.00e+00	0	44	0	3104833536	8	3591
2026-01-19 06:10:30.82	273.49	25.38	-23.8	-23.8	18.3	0.00e+00	0	44	0	3112173568	8	3613
2026-01-19 06:10:31.82	273.25	25.29	-23.6	-24.0	18.4	0.00e+00	0	44	0	3119513600	7	3755
2026-01-19 06:10:32.82	273.01	25.19	-23.6	-24.0	18.4	0.00e+00	0	44	0	3126853632	7	3749
2026-01-19 06:10:33.82	272.77	25.10	-23.7	-24.1	18.3	0.00e+00	0	44	0	3134193664	7	3784
2026-01-19 06:10:34.82	272.53	25.01	-23.7	-24.0	18.4	0.00e+00	0	44	0	3141533696	7	3761
2026-01-19 06:10:35.83	272.29	24.91	-23.7	-24.1	18.4	0.00e+00	0	44	0	3148873728	7	3777
2026-01-19 06:10:36.83	272.05	24.82	-23.7	-24.2	18.4	0.00e+00	0	44	0	3156213760	7	3794
2026-01-19 06:10:37.83	271.82	24.72	-23.7	-24.2	18.3	0.00e+00	0	44	0	3163553792	7	3787
2026-01-19 06:10:38.84	271.58	24.63	-23.8	-24.4	18.3	0.00e+00	0	44	0	3169845248	7	3832
2026-01-19 06:10:39.84	271.35	24.53	-23.7	-24.2	18.3	0.00e+00	0	44	0	3177185280	7	3790
2026-01-19 06:10:40.85	271.12	24.44	-23.7	-24.2	18.3	0.00e+00	0	44	0	3184525312	7	3800
2026-01-19 06:10:41.85	270.89	24.34	-23.7	-24.1	18.4	0.00e+00	0	44	0	3191865344	7	3769
2026-01-19 06:10:42.85	270.66	24.25	-23.6	-24.0	18.4	0.00e+00	0	44	0	3199205376	7	3744
2026-01-19 06:10:43.85	270.43	24.15	-23.7	-24.2	18.3	0.00e+00	0	44	0	3206545408	7	3793
2026-01-19 06:10:44.85	270.21	24.06	-23.7	-24.2	18.3	0.00e+00	0	44	0	3213885440	7	3786
2026-01-19 06:10:45.86	269.98	23.96	-23.7	-24.0	18.3	0.00e+00	0	44	0	3221225472	7	3759
2026-01-19 06:10:46.86	269.76	23.86	-23.9	-24.5	18.1	0.00e+00	0	44	0	3228565504	7	3870
2026-01-19 06:10:47.87	269.54	23.77	-23.9	-24.5	18.2	0.00e+00	0	44	0	3235905536	7	3865
2026-01-19 06:10:48.86	269.32	23.67	-23.9	-24.6	18.1	0.00e+00	0	44	0	3243245568	7	3902
2026-01-19 06:10:49.86	269.10	23.58	-24.0	-24.8	18.0	0.00e+00	0	44	0	3249537024	7	3942
2026-01-19 06:10:50.87	268.89	23.48	-24.0	-24.8	18.0	0.00e+00	0	44	0	3256877056	7	3930
2026-01-19 06:10:51.87	268.67	23.38	-24.0	-24.8	17.9	0.00e+00	0	44	0	3264217088	7	3950
2026-01-19 06:10:52.87	268.46	23.29	-24.3	-24.9	17.7	5.55e-04	0	44	0	3271557120	8	3860
2026-01-19 06:10:53.88	268.24	23.19	-24.0	-24.3	18.0	0.00e+00	0	44	0	3278897152	8	3719
2026-01-19 06:10:54.88	268.03	23.09	-24.0	-24.2	18.1	0.00e+00	0	44	0	3286237184	8	3685
2026-01-19 06:10:55.88	267.82	23.00	-24.0	-24.2	18.1	8.19e-04	0	44	0	3293577216	8	3683
2026-01-19 06:10:56.89	267.61	22.90	-24.1	-24.5	17.9	0.00e+00	0	44	0	3300917248	8	3757
2026-01-19 06:10:57.89	267.40	22.80	-24.2	-24.6	17.8	1.09e-03	0	44	0	3308257280	8	3789
2026-01-19 06:10:58.90	267.19	22.70	-24.2	-24.6	17.9	0.00e+00	0	44	0	3314548736	8	3780
2026-01-19 06:10:59.90	266.99	22.61	-24.3	-25.0	17.7	0.00e+00	0	44	0	3321888768	8	3871
2026-01-19 06:11:00.90	266.79	22.51	-24.1	-24.6	17.8	1.48e-03	0	44	0	3330277376	8	3779
2026-01-19 06:11:01.91	266.58	22.41	-24.1	-24.4	17.9	0.00e+00	0	44	0	3336568832	8	3744
2026-01-19 06:11:02.91	266.38	22.32	-24.0	-24.8	18.0	2.40e-04	0	44	0	3343908864	7	3939
2026-01-19 06:11:03.92	266.18	22.22	-23.9	-24.5	18.1	7.13e-04	0	44	0	3351248896	7	3879
2026-01-19 06:11:04.93	265.98	22.12	-23.9	-24.5	18.1	1.63e-03	0	44	0	3358588928	7	3857
2026-01-19 06:11:05.93	265.78	22.02	-23.9	-24.5	18.1	3.03e-04	0	44	0	3365928960	7	3857
2026-01-19 06:11:06.92	265.59	21.93	-24.2	-24.7	17.8	0.00e+00	0	44	0	3373268992	8	3810
2026-01-19 06:11:07.93	265.39	21.83	-24.0	-24.3	17.9	1.91e-03	0	44	0	3380609024	8	3727
2026-01-19 06:11:08.94	265.19	21.73	-23.9	-24.1	18.1	1.96e-04	0	44	0	3387949056	8	3679
2026-01-19 06:11:09.94	265.00	21.64	-24.0	-24.7	18.0	1.80e-03	0	44	0	3395289088	7	3905
2026-01-19 06:11:10.95	264.81	21.54	-23.9	-24.6	18.0	1.70e-03	0	44	0	3402629120	7	3889
2026-01-19 06:11:11.96	264.62	21.44	-24.1	-24.9	17.9	4.57e-05	0	44	0	3409969152	7	3957
2026-01-19 06:11:12.97	264.43	21.34	-24.1	-24.5	17.8	1.57e-03	0	44	0	3417309184	8	3762
2026-01-19 06:11:13.97	264.24	21.25	-24.2	-24.6	17.8	2.20e-06	0	44	0	3423600640	8	3784
2026-01-19 06:11:14.97	264.05	21.15	-24.2	-24.7	17.7	0.00e+00	0	44	0	3430940672	8	3808
2026-01-19 06:11:15.98	263.87	21.05	-24.2	-24.7	17.7	1.20e-03	0	44	0	3438280704	8	3815
2026-01-19 06:11:16.98	263.68	20.96	-24.4	-25.1	17.5	1.10e-06	0	44	0	3445620736	8	3893
2026-01-19 06:11:17.98	263.50	20.86	-24.3	-25.0	17.6	0.00e+00	0	44	0	3452960768	8	3881
2026-01-19 06:11:18.99	263.32	20.76	-24.5	-25.2	17.4	0.00e+00	0	44	0	3460300800	8	3938
2026-01-19 06:11:19.99	263.14	20.67	-24.4	-25.1	17.5	9.26e-05	0	44	0	3467640832	8	3915
2026-01-19 06:11:20.99	262.96	20.57	-24.4	-25.1	17.5	0.00e+00	0	44	0	3474980864	8	3903
2026-01-19 06:11:21.99	262.78	20.47	-24.5	-25.2	17.4	0.00e+00	0	44	0	3481272320	8	3936
2026-01-19 06:11:22.99	262.60	20.38	-24.4	-25.2	17.4	1.51e-04	0	44	0	3488612352	8	3923
2026-01-19 06:11:24.00	262.42	20.28	-24.5	-25.3	17.4	0.00e+00	0	44	0	3495952384	8	3957
2026-01-19 06:11:25.00	262.25	20.19	-24.6	-25.4	17.3	0.00e+00	0	44	0	3503292416	8	3975
2026-01-19 06:11:26.00	262.07	20.09	-24.5	-25.4	17.2	0.00e+00	0	44	0	3510632448	8	3967
2026-01-19 06:11:27.01	261.90	19.99	-24.7	-25.2	17.2	0.00e+00	0	44	0	3517972480	9	3807
2026-01-19 06:11:28.02	261.73	19.90	-24.8	-25.5	17.0	9.93e-04	0	44	0	3525312512	9	3900
2026-01-19 06:11:29.02	261.56	19.80	-24.7	-25.2	17.1	0.00e+00	0	44	0	3532652544	9	3824
2026-01-19 06:11:30.03	261.39	19.70	-24.6	-25.0	17.3	0.00e+00	0	44	0	3539992576	9	3771
2026-01-19 06:11:31.03	261.22	19.61	-24.5	-24.9	17.3	0.00e+00	0	44	0	3547332608	9	3752
2026-01-19 06:11:32.03	261.05	19.51	-24.6	-25.1	17.2	0.00e+00	0	44	0	3554672640	9	3796
2026-01-19 06:11:33.03	260.88	19.42	-24.4	-24.7	17.4	0.00e+00	0	44	0	3562012672	9	3706
2026-01-19 06:11:34.04	260.72	19.32	-24.6	-25.0	17.3	0.00e+00	0	44	0	3568304128	9	3771
2026-01-19 06:11:35.04	260.55	19.23	-24.4	-24.6	17.4	0.00e+00	0	44	0	3575644160	9	3687
2026-01-19 06:11:36.04	260.39	19.13	-24.3	-24.3	17.6	0.00e+00	0	44	0	3582984192	9	3619
2026-01-19 06:11:37.04	260.23	19.04	-24.2	-24.8	17.6	0.00e+00	0	44	0	3590324224	8	3824
2026-01-19 06:11:38.04	260.07	18.94	-24.2	-24.6	17.7	0.00e+00	0	44	0	3597664256	8	3791
2026-01-19 06:11:39.04	259.91	18.85	-24.4	-25.1	17.4	0.00e+00	0	44	0	3605004288	8	3913
2026-01-19 06:11:40.05	259.75	18.76	-24.6	-25.5	17.2	0.00e+00	0	44	0	3612344320	8	3991
2026-01-19 06:11:41.04	259.59	18.66	-24.6	-25.5	17.2	0.00e+00	0	44	0	3619684352	8	3998
2026-01-19 06:11:42.05	259.43	18.57	-24.7	-25.2	17.1	0.00e+00	0	44	0	3627024384	9	3837
2026-01-19 06:11:43.06	259.27	18.47	-25.0	-25.8	16.8	0.00e+00	0	44	0	3634364416	9	3973
2026-01-19 06:11:44.06	259.12	18.38	-24.8	-25.5	16.9	0.00e+00	0	44	0	3641704448	9	3902
2026-01-19 06:11:45.07	258.96	18.28	-24.8	-25.5	16.9	0.00e+00	0	44	0	3649044480	9	3887
2026-01-19 06:11:46.08	258.81	18.19	-24.9	-25.7	16.8	0.00e+00	0	44	0	3655335936	9	3954
2026-01-19 06:11:47.08	258.66	18.10	-25.0	-26.0	16.6	0.00e+00	0	44	0	3662675968	9	4018
2026-01-19 06:11:48.08	258.50	18.00	-25.0	-25.8	16.8	0.00e+00	0	44	0	3670016000	9	3963
2026-01-19 06:11:49.08	258.35	17.91	-24.9	-25.6	16.9	0.00e+00	0	44	0	3677356032	9	3923
2026-01-19 06:11:50.08	258.20	17.82	-25.0	-26.0	16.7	0.00e+00	0	44	0	3684696064	9	4003
2026-01-19 06:11:51.08	258.06	17.72	-25.0	-25.8	16.8	0.00e+00	0	44	0	3692036096	9	3966
2026-01-19 06:11:52.09	257.91	17.63	-25.1	-26.1	16.6	0.00e+00	0	44	0	3699376128	9	4041
2026-01-19 06:11:53.08	257.76	17.54	-25.3	-26.1	16.4	0.00e+00	0	44	0	3706716160	10	3931
2026-01-19 06:11:54.09	257.61	17.45	-25.4	-26.2	16.3	0.00e+00	0	44	0	3713007616	10	3969
2026-01-19 06:11:55.10	257.47	17.35	-25.5	-26.4	16.2	0.00e+00	0	44	0	3720347648	10	4006
2026-01-19 06:11:56.10	257.32	17.26	-25.4	-26.3	16.2	0.00e+00	0	44	0	3727687680	10	3990
2026-01-19 06:11:57.10	257.18	17.17	-25.6	-26.1	16.0	0.00e+00	0	44	0	3735027712	11	3838
2026-01-19 06:11:58.11	257.04	17.08	-25.4	-25.8	16.2	0.00e+00	0	44	0	3742367744	11	3760
2026-01-19 06:11:59.12	256.90	16.99	-25.5	-25.9	16.2	0.00e+00	0	44	0	3749707776	11	3772
2026-01-19 06:12:00.13	256.75	16.89	-25.4	-25.7	16.3	0.00e+00	0	44	0	3757047808	11	3747
2026-01-19 06:12:01.13	256.61	16.80	-25.2	-25.4	16.4	0.00e+00	0	44	0	3764387840	11	3663
2026-01-19 06:12:02.14	256.47	16.71	-25.3	-25.9	16.4	0.00e+00	0	44	0	3771727872	10	3896
2026-01-19 06:12:03.13	256.34	16.62	-25.3	-26.1	16.3	0.00e+00	0	44	0	3779067904	10	3939
2026-01-19 06:12:04.14	256.20	16.53	-25.4	-26.2	16.3	0.00e+00	0	44	0	3786407936	10	3954
2026-01-19 06:12:05.14	256.06	16.44	-25.5	-26.5	16.1	0.00e+00	0	44	0	3793747968	10	4022
2026-01-19 06:12:06.15	255.93	16.35	-25.7	-26.5	15.8	0.00e+00	0	44	0	3800039424	11	3915
2026-01-19 06:12:07.14	255.79	16.26	-25.8	-26.7	15.7	0.00e+00	0	44	0	3807379456	11	3972
2026-01-19 06:12:08.14	255.66	16.17	-25.8	-26.7	15.7	0.00e+00	0	44	0	3814719488	11	3972
2026-01-19 06:12:09.14	255.53	16.08	-26.0	-27.1	15.5	0.00e+00	0	44	0	3822059520	11	4067
2026-01-19 06:12:10.14	255.39	15.99	-26.1	-27.2	15.4	1.10e-06	0	44	0	3829399552	11	4110
2026-01-19 06:12:11.14	255.26	15.90	-26.0	-26.5	15.4	0.00e+00	0	44	0	3836739584	12	3831
2026-01-19 06:12:12.14	255.13	15.81	-25.7	-26.0	15.7	0.00e+00	0	44	0	3844079616	12	3707
2026-01-19 06:12:13.13	255.00	15.72	-25.9	-26.8	15.6	0.00e+00	0	44	0	3851419648	11	4002
2026-01-19 06:12:14.14	254.87	15.63	-25.9	-26.8	15.6	0.00e+00	0	44	0	3857711104	11	4000
2026-01-19 06:12:15.14	254.75	15.54	-26.0	-27.1	15.4	0.00e+00	0	44	0	3865051136	11	4082
2026-01-19 06:12:16.14	254.62	15.46	-25.6	-26.3	15.9	0.00e+00	0	44	0	3872391168	11	3875
2026-01-19 06:12:17.15	254.49	15.37	-25.5	-26.1	16.0	0.00e+00	0	44	0	3879731200	11	3823
2026-01-19 06:12:18.15	254.37	15.28	-25.5	-26.4	16.0	0.00e+00	0	44	0	3887071232	10	4014
2026-01-19 06:12:19.15	254.24	15.19	-25.5	-26.4	16.1	2.20e-06	0	44	0	3894411264	10	4009
2026-01-19 06:12:20.15	254.12	15.10	-25.5	-26.4	16.0	0.00e+00	0	44	0	3901751296	10	4019
2026-01-19 06:12:21.16	253.99	15.01	-25.5	-26.4	16.1	0.00e+00	0	44	0	3909091328	10	3999
2026-01-19 06:12:22.16	253.87	14.93	-25.6	-26.6	16.0	1.10e-06	0	44	0	3916431360	10	4055
2026-01-19 06:12:23.16	253.75	14.84	-25.7	-26.4	15.8	0.00e+00	0	44	0	3923771392	11	3899
2026-01-19 06:12:24.15	253.63	14.75	-25.9	-26.9	15.5	0.00e+00	0	44	0	3931111424	11	4015
2026-01-19 06:12:25.16	253.50	14.66	-25.8	-26.5	15.7	1.10e-06	0	44	0	3938451456	11	3937
2026-01-19 06:12:26.16	253.38	14.58	-25.7	-26.3	15.8	0.00e+00	0	44	0	3944742912	11	3882
2026-01-19 06:12:27.16	253.26	14.49	-25.7	-26.4	15.8	0.00e+00	0	44	0	3952082944	11	3895
2026-01-19 06:12:28.16	253.15	14.41	-25.8	-26.6	15.6	3.40e-06	0	44	0	3959422976	11	3957
2026-01-19 06:12:29.16	253.03	14.32	-25.9	-26.7	15.6	0.00e+00	0	44	0	3966763008	11	3978
2026-01-19 06:12:30.16	252.91	14.23	-25.3	-26.4	13.6	0.00e+00	0	44	0	3974103040	11	4094
2026-01-19 06:12:31.16	252.79	14.15	-25.9	-27.0	11.4	0.00e+00	0	44	0	3981443072	11	4042
2026-01-19 06:12:32.17	252.68	14.06	-26.2	-27.0	14.8	1.10e-06	0	44	0	3988783104	12	3938
2026-01-19 06:12:33.17	252.56	13.98	-26.2	-27.0	15.0	0.00e+00	0	44	0	3996123136	12	3955
2026-01-19 06:12:34.17	252.45	13.89	-26.0	-26.7	15.2	0.00e+00	0	44	0	4003463168	12	3880
2026-01-19 06:12:35.17	252.33	13.81	-26.1	-27.2	15.3	0.00e+00	0	44	0	4009754624	11	4104
2026-01-19 06:12:36.18	252.22	13.72	-26.1	-27.2	15.3	0.00e+00	0	44	0	4017094656	11	4104
2026-01-19 06:12:37.18	252.11	13.63	-26.0	-27.0	15.4	0.00e+00	0	44	0	4024434688	11	4055
2026-01-19 06:12:38.18	252.00	13.55	-26.1	-26.7	15.2	1.09e-03	0	44	0	4031774720	12	3885
2026-01-19 06:12:39.19	251.88	13.46	-26.1	-26.9	15.1	0.00e+00	0	44	0	4039114752	12	3928
2026-01-19 06:12:40.19	251.77	13.38	-25.8	-26.6	15.5	0.00e+00	0	44	0	4046454784	11	3968
2026-01-19 06:12:41.19	251.66	13.30	-25.8	-26.7	15.5	1.01e-03	0	44	0	4053794816	11	3979
2026-01-19 06:12:42.19	251.56	13.21	-25.9	-26.8	15.5	0.00e+00	0	44	0	4061134848	11	4007
2026-01-19 06:12:43.19	251.45	13.13	-25.9	-26.9	15.3	2.53e-03	0	44	0	4067426304	11	4030
2026-01-19 06:12:44.19	251.34	13.05	-26.0	-27.1	15.3	0.00e+00	0	44	0	4074766336	11	4069
2026-01-19 06:12:45.19	251.23	12.96	-26.2	-27.0	15.0	0.00e+00	0	44	0	4082106368	12	3950
2026-01-19 06:12:46.19	251.12	12.88	-26.6	-27.8	14.5	2.97e-03	0	44	0	4089446400	12	4157
2026-01-19 06:12:47.20	251.02	12.80	-26.3	-27.2	14.8	0.00e+00	0	44	0	4096786432	12	4016
2026-01-19 06:12:48.20	250.91	12.71	-26.1	-26.8	15.1	2.73e-03	0	44	0	4104126464	12	3909
2026-01-19 06:12:49.20	250.81	12.63	-26.1	-26.9	15.0	1.72e-03	0	44	0	4111466496	12	3934
2026-01-19 06:12:50.20	250.70	12.55	-26.3	-27.2	14.9	9.53e-04	0	44	0	4118806528	12	4008
2026-01-19 06:12:51.21	250.60	12.47	-26.4	-27.5	14.7	2.81e-03	0	44	0	4126146560	12	4077
2026-01-19 06:12:52.21	250.50	12.38	-26.4	-27.5	14.7	0.00e+00	0	44	0	4133486592	12	4077
2026-01-19 06:12:53.21	250.39	12.30	-26.3	-27.3	14.8	1.10e-03	0	44	0	4140826624	12	4036
2026-01-19 06:12:54.22	250.29	12.22	-26.2	-27.0	14.9	2.59e-03	0	44	0	4148166656	12	3969
2026-01-19 06:12:55.22	250.19	12.14	-26.1	-26.9	15.0	2.93e-03	0	44	0	4154458112	12	3931
2026-01-19 06:12:56.21	250.09	12.06	-26.3	-27.2	14.8	1.07e-03	0	44	0	4161798144	12	3999
2026-01-19 06:12:57.22	249.99	11.98	-26.3	-27.2	14.8	1.54e-04	0	44	0	4169138176	12	3991
2026-01-19 06:12:58.22	249.89	11.90	-26.2	-27.1	14.9	2.42e-03	0	44	0	4176478208	12	3967
2026-01-19 06:12:59.23	249.79	11.81	-26.3	-27.2	14.8	9.01e-04	0	44	0	4183818240	12	4006
2026-01-19 06:13:00.23	249.69	11.73	-26.1	-26.8	15.0	2.08e-03	0	44	0	4191158272	12	3900
2026-01-19 06:13:01.23	249.59	11.65	-26.4	-27.5	14.6	1.61e-03	0	44	0	4198498304	12	4092
2026-01-19 06:13:02.23	249.49	11.57	-26.3	-27.4	14.7	7.32e-05	0	44	0	4205838336	12	4046
2026-01-19 06:13:03.24	249.40	11.49	-26.4	-27.4	14.7	1.39e-03	0	44	0	4212129792	12	4059
2026-01-19 06:13:04.24	249.30	11.41	-26.5	-27.6	14.6	1.70e-03	0	44	0	4219469824	12	4107
2026-01-19 06:13:05.24	249.20	11.33	-26.5	-27.8	14.4	9.10e-06	0	44	0	4226809856	12	4152
2026-01-19 06:13:06.25	249.11	11.25	-26.6	-27.5	14.3	2.06e-03	0	44	0	4234149888	13	3980
2026-01-19 06:13:07.25	249.01	11.17	-26.8	-27.9	14.1	4.50e-06	0	44	0	4241489920	13	4092
2026-01-19 06:13:08.26	248.92	11.09	-26.6	-27.5	14.3	3.83e-04	0	44	0	4248829952	13	3976
2026-01-19 06:13:09.26	248.82	11.02	-26.8	-27.9	14.0	4.50e-06	0	44	0	4256169984	13	4074
2026-01-19 06:13:10.27	248.73	10.94	-26.8	-27.8	14.1	5.70e-06	0	44	0	4263510016	13	4053
2026-01-19 06:13:11.27	248.64	10.86	-27.0	-28.3	13.9	1.21e-03	0	44	0	4270850048	13	4192
2026-01-19 06:13:12.27	248.55	10.78	-27.0	-28.3	13.8	5.70e-06	0	44	0	4278190080	13	4186
2026-01-19 06:13:13.28	248.45	10.70	-27.2	-28.3	13.6	3.43e-03	0	44	0	4285530112	14	4068
2026-01-19 06:13:14.29	248.36	10.62	-27.0	-28.3	13.8	1.10e-06	0	44	0	4292870144	13	4185
2026-01-19 06:13:15.28	248.27	10.54	-26.9	-28.2	13.9	4.50e-06	0	44	0	4299161600	13	4154
2026-01-19 06:13:16.28	248.18	10.47	-26.8	-27.9	14.0	3.05e-03	0	44	0	4306501632	13	4082
2026-01-19 06:13:17.28	248.09	10.39	-27.2	-28.3	13.6	1.25e-05	0	44	0	4313841664	14	4074
2026-01-19 06:13:18.29	248.00	10.31	-26.8	-27.9	14.0	3.31e-04	0	44	0	4321181696	13	4090
2026-01-19 06:13:19.28	247.91	10.23	-26.8	-28.0	14.0	5.70e-06	0	44	0	4328521728	13	4101
2026-01-19 06:13:20.29	247.82	10.16	-26.8	-27.9	14.0	3.40e-06	0	44	0	4335861760	13	4083
2026-01-19 06:13:21.29	247.74	10.08	-26.8	-27.9	14.0	1.75e-03	0	44	0	4343201792	13	4092
2026-01-19 06:13:22.29	247.65	10.00	-27.0	-28.3	13.8	8.00e-06	0	44	0	4350541824	13	4188
2026-01-19 06:13:23.29	247.56	9.93	-26.7	-27.8	14.1	5.70e-06	0	44	0	4357881856	13	4056
2026-01-19 06:13:24.30	247.48	9.85	-26.9	-28.1	13.8	2.20e-06	0	44	0	4364173312	13	4152
2026-01-19 06:13:25.30	247.39	9.77	-26.6	-27.5	14.2	3.40e-06	0	44	0	4371513344	13	3983
2026-01-19 06:13:26.30	247.30	9.70	-26.7	-27.7	14.1	3.40e-06	0	44	0	4379901952	13	4039
2026-01-19 06:13:27.31	247.22	9.62	-26.8	-27.8	14.0	8.00e-06	0	44	0	4386193408	13	4070
2026-01-19 06:13:28.31	247.13	9.55	-26.8	-28.0	13.9	8.00e-06	0	44	0	4393533440	13	4105
2026-01-19 06:13:29.31	247.05	9.47	-26.7	-27.8	14.0	4.50e-06	0	44	0	4400873472	13	4066
2026-01-19 06:13:30.32	246.97	9.40	-27.1	-28.1	13.5	1.25e-05	0	44	0	4408213504	14	4033
2026-01-19 06:13:31.32	246.88	9.32	-26.7	-27.7	14.0	3.40e-06	0	44	0	4415553536	13	4034
2026-01-19 06:13:32.32	246.80	9.25	-26.8	-28.0	13.9	5.70e-06	0	44	0	4422893568	13	4120
2026-01-19 06:13:33.32	246.72	9.17	-27.0	-28.3	13.6	6.80e-06	0	44	0	4430233600	13	4199
2026-01-19 06:13:34.32	246.64	9.10	-27.1	-28.5	13.6	9.10e-06	0	44	0	4437573632	13	4253
2026-01-19 06:13:35.32	246.55	9.02	-27.1	-28.2	13.4	1.60e-05	0	44	0	4443865088	14	4079
2026-01-19 06:13:36.32	246.47	8.95	-27.2	-28.3	13.4	2.17e-05	0	44	0	4451205120	14	4092
2026-01-19 06:13:37.32	246.39	8.87	-27.5	-29.0	12.9	2.51e-05	0	44	0	4458545152	14	4276
2026-01-19 06:13:38.32	246.31	8.80	-27.3	-28.5	13.2	2.05e-05	0	44	0	4465885184	14	4162
2026-01-19 06:13:39.33	246.23	8.73	-27.2	-28.3	13.3	1.83e-05	0	44	0	4473225216	14	4098
2026-01-19 06:13:40.33	246.15	8.65	-27.2	-28.5	13.2	1.60e-05	0	44	0	4480565248	14	4138
2026-01-19 06:13:41.34	246.07	8.58	-27.4	-28.9	13.0	5.49e-05	0	44	0	4487905280	14	4272
2026-01-19 06:13:42.35	245.99	8.50	-27.2	-28.4	13.3	1.48e-05	0	44	0	4495245312	14	4119
2026-01-19 06:13:43.35	245.92	8.43	-27.3	-28.7	13.1	5.60e-05	0	44	0	4502585344	14	4202
2026-01-19 06:13:44.36	245.84	8.36	-27.3	-28.7	13.1	3.31e-05	0	44	0	4509925376	14	4200
2026-01-19 06:13:45.35	245.76	8.28	-27.3	-28.6	13.1	3.31e-05	0	44	0	4517265408	14	4168
2026-01-19 06:13:46.36	245.68	8.21	-27.3	-28.5	13.2	3.08e-05	0	44	0	4524605440	14	4164
2026-01-19 06:13:47.35	245.61	8.14	-27.3	-28.6	13.1	4.46e-05	0	44	0	4530896896	14	4172
2026-01-19 06:13:48.35	245.53	8.07	-27.5	-29.0	12.8	4.34e-05	0	44	0	4538236928	14	4302
2026-01-19 06:13:49.35	245.46	8.00	-27.3	-28.7	13.0	4.00e-05	0	44	0	4545576960	14	4215
2026-01-19 06:13:50.35	245.38	7.92	-27.5	-29.2	12.7	5.37e-05	0	44	0	4552916992	14	4352
2026-01-19 06:13:51.36	245.31	7.85	-27.4	-28.9	12.8	7.20e-05	0	44	0	4560257024	14	4281
2026-01-19 06:13:52.36	245.23	7.78	-27.4	-28.9	12.8	8.12e-05	0	44	0	4567597056	14	4278
2026-01-19 06:13:53.36	245.16	7.71	-27.5	-29.0	12.8	6.06e-05	0	44	0	4574937088	14	4300
2026-01-19 06:13:54.37	245.08	7.64	-27.2	-28.5	13.1	5.37e-05	0	44	0	4582277120	14	4146
2026-01-19 06:13:55.37	245.01	7.56	-27.4	-28.8	12.9	3.77e-05	0	44	0	4589617152	14	4248
2026-01-19 06:13:56.37	244.94	7.49	-27.4	-28.8	12.9	5.03e-05	0	44	0	4595908608	14	4235
2026-01-19 06:13:57.38	244.86	7.42	-27.3	-28.5	13.0	4.69e-05	0	44	0	4603248640	14	4170
2026-01-19 06:13:58.38	244.79	7.35	-27.4	-28.9	12.8	6.06e-05	0	44	0	4610588672	14	4277
2026-01-19 06:13:59.38	244.72	7.28	-27.5	-28.6	12.7	1.22e-04	0	44	0	4617928704	15	4076
2026-01-19 06:14:00.39	244.65	7.21	-27.6	-29.0	12.5	1.58e-04	0	44	0	4625268736	15	4198
2026-01-19 06:14:01.39	244.58	7.14	-27.5	-28.7	12.6	1.85e-04	0	44	0	4632608768	15	4127
2026-01-19 06:14:02.40	244.50	7.07	-28.6	-30.7	11.6	5.49e-05	0	44	0	4639948800	16	4582
2026-01-19 06:14:03.41	244.43	7.00	-33.5	-43.4	3.8	8.47e-01	0	44	104	4639948800	26	11276

#Closed at: 2026-01-19 06:14:04
#Recorded file [4639 MB]: D:/data/31010_260119_090319.dat