passes_logs/2026/01/19/R2M6_AANII_01/R2M6_AANII_01__20260119_113348_SUOMI_NPP_rec.log

#Pass ID: 20260119_113348_SUOMI NPP
#Satellite: SUOMI NPP
#Configuration: NPP
#almurnet v.1.7.20240730
#Start time: 2026-01-19 11:33:49

#Version: 2.2.20231116
#Station: R2M6_AANII_01
#Location: 30.233357 lon 59.946436 lat
#TLE: 1 37849U 11061A   26017.92342359  .00000077  00000+0  57567-4 0  9990
#TLE: 2 37849  98.7814 319.9468 0002389  58.5705 301.5704 14.19525998737125

#Time	Az	El	Level	Level2	SNR	BER	BlckErr	Temp	State	Recorded	gain1	gain2
2026-01-19 11:33:49.59	197.70	7.11	-31.4	-35.2	5.2	1.23e+00	0	41	0	0	23	5584
2026-01-19 11:33:50.58	197.77	7.17	-31.7	-36.1	4.9	1.30e+00	0	41	104	0	24	5973
2026-01-19 11:33:51.59	197.85	7.25	-31.7	-36.0	7.7	8.21e-02	0	41	0	0	24	5876
2026-01-19 11:33:52.59	197.92	7.32	-31.9	-36.6	7.2	1.11e-01	0	41	0	1048576	24	6239
2026-01-19 11:33:53.60	197.99	7.39	-31.9	-36.6	7.2	1.36e-01	0	42	0	3145728	24	6242
2026-01-19 11:33:54.60	198.06	7.46	-31.6	-35.6	8.0	9.96e-02	0	42	0	5242880	24	5663
2026-01-19 11:33:55.61	198.14	7.53	-31.5	-34.9	8.5	4.48e-02	0	42	0	7340032	24	5345
2026-01-19 11:33:56.61	198.21	7.60	-31.3	-34.5	9.2	2.46e-02	0	42	0	9437184	23	5248
2026-01-19 11:33:57.60	198.28	7.67	-31.1	-33.8	9.7	1.34e-02	0	42	0	10485760	23	4947
2026-01-19 11:33:58.61	198.36	7.75	-30.9	-33.1	10.3	1.01e-02	0	42	0	12582912	23	4643
2026-01-19 11:33:59.62	198.43	7.82	-30.8	-33.2	10.6	4.16e-03	0	42	0	14680064	22	4777
2026-01-19 11:34:00.63	198.51	7.89	-30.9	-33.7	10.2	4.67e-03	0	42	0	16777216	22	4962
2026-01-19 11:34:01.63	198.58	7.96	-30.9	-33.6	10.3	5.12e-03	0	42	0	17825792	22	4927
2026-01-19 11:34:02.64	198.66	8.04	-30.7	-33.3	10.5	3.48e-03	0	42	0	19922944	22	4824
2026-01-19 11:34:03.64	198.73	8.11	-30.6	-33.3	9.9	6.50e-03	0	42	0	22020096	22	4917
2026-01-19 11:34:04.64	198.81	8.18	-30.2	-33.7	8.9	1.46e-02	0	42	0	24117248	21	5392
2026-01-19 11:34:05.65	198.88	8.25	-29.6	-34.0	7.3	8.84e-02	0	42	0	26214400	20	5984
2026-01-19 11:34:06.65	198.96	8.33	-29.1	-33.7	7.0	1.39e-01	0	42	0	28311552	19	6144
2026-01-19 11:34:07.66	199.04	8.40	-28.9	-33.4	6.9	1.37e-01	0	42	0	29360128	19	6057
2026-01-19 11:34:08.66	199.12	8.47	-28.8	-34.1	6.4	2.16e-01	0	42	0	31457280	18	6648
2026-01-19 11:34:09.66	199.19	8.55	-28.0	-33.4	6.0	3.20e-01	0	42	0	33554432	17	6729
2026-01-19 11:34:10.67	199.27	8.62	-27.0	-32.9	5.6	4.10e-01	0	42	0	35651584	15	7102
2026-01-19 11:34:11.67	199.35	8.70	-26.3	-32.3	5.3	5.40e-01	0	42	0	36700160	14	7215
2026-01-19 11:34:12.67	199.43	8.77	-26.1	-32.5	5.2	5.92e-01	0	42	0	38797312	13	7561
2026-01-19 11:34:13.67	199.51	8.84	-26.4	-32.6	5.6	5.35e-01	0	42	0	40894464	13	7391
2026-01-19 11:34:14.67	199.59	8.92	-27.0	-33.4	6.0	3.75e-01	0	42	0	42991616	13	7487
2026-01-19 11:34:15.67	199.67	8.99	-27.0	-32.9	5.9	2.92e-01	0	42	0	45088768	14	7133
2026-01-19 11:34:16.67	199.75	9.07	-26.6	-32.4	5.7	3.85e-01	0	42	0	46137344	14	7054
2026-01-19 11:34:17.67	199.83	9.14	-26.3	-32.5	5.2	5.27e-01	0	42	0	48234496	14	7316
2026-01-19 11:34:18.68	199.91	9.22	-26.8	-33.5	5.5	5.99e-01	0	42	0	50331648	13	7774
2026-01-19 11:34:19.69	199.99	9.29	-27.6	-33.0	6.6	2.67e-01	0	43	0	52428800	15	6686
2026-01-19 11:34:20.69	200.08	9.37	-28.6	-33.2	7.5	1.51e-01	0	42	0	54525952	17	6145
2026-01-19 11:34:21.70	200.16	9.45	-28.9	-33.5	7.9	8.09e-02	0	43	0	55574528	17	6145
2026-01-19 11:34:22.70	200.24	9.52	-29.3	-33.5	8.4	5.75e-02	0	43	0	57671680	18	5856
2026-01-19 11:34:23.69	200.32	9.60	-29.6	-33.5	8.6	3.39e-02	0	42	0	59768832	19	5653
2026-01-19 11:34:24.70	200.41	9.67	-29.7	-33.7	8.6	3.50e-02	0	43	0	61865984	19	5719
2026-01-19 11:34:25.71	200.49	9.75	-29.9	-33.8	9.1	3.95e-02	0	43	0	63963136	19	5668
2026-01-19 11:34:26.71	200.58	9.83	-30.0	-33.7	8.9	2.05e-02	0	42	0	65011712	20	5497
2026-01-19 11:34:27.71	200.66	9.90	-30.0	-34.0	8.5	3.85e-02	0	42	0	67108864	20	5667
2026-01-19 11:34:28.72	200.75	9.98	-30.1	-33.8	9.0	4.21e-02	0	43	0	69206016	20	5544
2026-01-19 11:34:29.72	200.83	10.06	-30.2	-33.4	9.9	1.08e-02	0	43	0	71303168	20	5249
2026-01-19 11:34:30.72	200.92	10.13	-30.2	-33.1	10.8	5.15e-03	0	42	0	73400320	20	5025
2026-01-19 11:34:31.71	201.01	10.21	-30.2	-32.8	11.4	1.94e-03	0	43	0	74448896	20	4839
2026-01-19 11:34:32.72	201.09	10.29	-30.4	-33.1	11.5	9.09e-04	0	43	0	76546048	20	4922
2026-01-19 11:34:33.72	201.18	10.37	-30.4	-33.0	11.6	5.01e-04	0	43	0	78643200	20	4870
2026-01-19 11:34:34.72	201.27	10.45	-30.2	-32.5	11.9	4.17e-04	0	43	0	80740352	20	4699
2026-01-19 11:34:35.73	201.36	10.52	-30.3	-32.8	11.7	4.20e-04	0	43	0	81788928	20	4808
2026-01-19 11:34:36.73	201.45	10.60	-30.3	-32.6	11.9	4.82e-04	0	43	0	83886080	20	4716
2026-01-19 11:34:37.74	201.54	10.68	-30.1	-32.2	12.1	3.08e-04	0	43	0	85983232	20	4580
2026-01-19 11:34:38.73	201.63	10.76	-30.2	-32.6	11.9	3.86e-04	0	43	0	88080384	20	4701
2026-01-19 11:34:39.74	201.72	10.84	-30.2	-32.6	11.9	4.93e-04	0	43	0	90177536	20	4709
2026-01-19 11:34:40.74	201.81	10.92	-30.2	-32.5	11.8	4.67e-04	0	43	0	91226112	20	4711
2026-01-19 11:34:41.74	201.90	11.00	-30.2	-32.6	11.8	5.10e-04	0	43	0	93323264	20	4709
2026-01-19 11:34:42.74	201.99	11.08	-30.3	-32.6	11.9	4.32e-04	0	43	0	95420416	20	4704
2026-01-19 11:34:43.74	202.08	11.16	-30.3	-32.6	12.0	3.00e-04	0	43	0	97517568	20	4714
2026-01-19 11:34:44.74	202.17	11.24	-30.5	-33.0	11.9	2.20e-04	0	43	0	99614720	20	4839
2026-01-19 11:34:45.75	202.27	11.32	-30.7	-33.0	11.7	3.65e-04	0	43	0	100663296	21	4706
2026-01-19 11:34:46.75	202.36	11.40	-30.7	-33.0	11.7	6.45e-04	0	43	0	102760448	21	4727
2026-01-19 11:34:47.76	202.46	11.48	-30.6	-32.8	11.8	4.84e-04	0	43	0	104857600	21	4648
2026-01-19 11:34:48.76	202.55	11.56	-30.7	-33.3	11.5	5.59e-04	0	43	0	106954752	21	4810
2026-01-19 11:34:49.76	202.65	11.64	-30.7	-33.3	11.5	7.38e-04	0	43	0	109051904	21	4816
2026-01-19 11:34:50.75	202.74	11.72	-30.6	-32.8	11.8	6.24e-04	0	43	0	110100480	21	4637
2026-01-19 11:34:51.76	202.84	11.80	-30.5	-32.5	11.9	6.29e-04	0	43	0	112197632	21	4545
2026-01-19 11:34:52.77	202.94	11.89	-30.7	-33.2	11.4	5.87e-04	0	43	0	114294784	21	4794
2026-01-19 11:34:53.78	203.03	11.97	-30.6	-32.7	11.8	6.27e-04	0	43	0	116391936	21	4614
2026-01-19 11:34:54.79	203.13	12.05	-30.4	-32.4	12.0	4.25e-04	0	43	0	118489088	21	4503
2026-01-19 11:34:55.79	203.23	12.13	-30.5	-32.5	11.9	2.88e-04	0	43	0	119537664	21	4534
2026-01-19 11:34:56.78	203.33	12.21	-30.3	-32.0	12.3	1.72e-04	0	43	0	121634816	21	4372
2026-01-19 11:34:57.79	203.43	12.30	-30.3	-32.0	12.3	1.47e-04	0	43	0	123731968	21	4373
2026-01-19 11:34:58.80	203.53	12.38	-30.3	-31.9	12.4	1.93e-04	0	43	0	125829120	21	4346
2026-01-19 11:34:59.79	203.63	12.46	-30.4	-32.1	12.4	1.56e-04	0	43	0	127926272	21	4378
2026-01-19 11:35:00.79	203.73	12.55	-30.3	-31.8	12.5	1.18e-04	0	43	0	128974848	21	4306
2026-01-19 11:35:01.80	203.83	12.63	-30.2	-31.7	12.6	9.91e-05	0	43	0	131072000	21	4265
2026-01-19 11:35:02.81	203.93	12.72	-30.3	-32.0	12.4	1.39e-04	0	43	0	133169152	21	4355
2026-01-19 11:35:03.81	204.04	12.80	-30.3	-31.9	12.4	1.03e-04	0	43	0	135266304	21	4340
2026-01-19 11:35:04.81	204.14	12.88	-30.2	-31.7	12.6	1.23e-04	0	43	0	136314880	21	4281
2026-01-19 11:35:05.81	204.24	12.97	-30.1	-31.5	12.8	5.49e-05	0	43	0	138412032	21	4194
2026-01-19 11:35:06.82	204.35	13.05	-30.3	-31.9	12.5	7.24e-05	0	43	0	140509184	21	4343
2026-01-19 11:35:07.82	204.45	13.14	-30.1	-31.4	12.8	7.24e-05	0	43	0	142606336	21	4184
2026-01-19 11:35:08.83	204.56	13.22	-30.2	-31.7	12.7	7.32e-05	0	43	0	144703488	21	4273
2026-01-19 11:35:09.84	204.67	13.31	-30.2	-31.7	12.6	7.09e-05	0	43	0	145752064	21	4281
2026-01-19 11:35:10.84	204.77	13.39	-30.2	-31.5	12.8	8.77e-05	0	43	0	147849216	21	4202
2026-01-19 11:35:11.84	204.88	13.48	-30.2	-31.6	12.8	8.62e-05	0	43	0	149946368	21	4241
2026-01-19 11:35:12.84	204.99	13.56	-30.2	-31.5	12.8	5.49e-05	0	43	0	152043520	21	4211
2026-01-19 11:35:13.84	205.10	13.65	-30.0	-31.1	13.1	4.19e-05	0	43	0	154140672	21	4083
2026-01-19 11:35:14.84	205.21	13.74	-30.0	-31.1	13.1	4.27e-05	0	43	0	155189248	21	4065
2026-01-19 11:35:15.84	205.32	13.82	-30.2	-31.4	12.9	2.89e-05	0	43	0	157286400	21	4169
2026-01-19 11:35:16.85	205.43	13.91	-30.0	-30.9	13.3	3.89e-05	0	43	0	159383552	21	4015
2026-01-19 11:35:17.85	205.54	14.00	-30.1	-31.3	13.2	1.75e-05	0	43	0	161480704	21	4121
2026-01-19 11:35:18.85	205.65	14.08	-30.0	-31.1	13.2	3.28e-05	0	43	0	163577856	21	4056
2026-01-19 11:35:19.85	205.76	14.17	-30.1	-31.3	13.1	1.90e-05	0	43	0	164626432	21	4140
2026-01-19 11:35:20.85	205.87	14.26	-30.1	-31.4	13.0	2.74e-05	0	43	0	166723584	21	4141
2026-01-19 11:35:21.85	205.99	14.35	-30.4	-32.1	12.6	5.26e-05	0	43	0	168820736	21	4385
2026-01-19 11:35:22.85	206.10	14.43	-30.3	-31.7	12.8	7.62e-05	0	43	0	170917888	21	4252
2026-01-19 11:35:23.85	206.22	14.52	-30.4	-32.0	12.6	6.94e-05	0	43	0	173015040	21	4344
2026-01-19 11:35:24.86	206.33	14.61	-30.4	-32.0	12.7	6.86e-05	0	43	0	174063616	21	4326
2026-01-19 11:35:25.86	206.45	14.70	-30.4	-32.1	12.6	1.08e-04	0	43	0	176160768	21	4364
2026-01-19 11:35:26.86	206.57	14.79	-30.5	-32.2	12.5	9.46e-05	0	43	0	178257920	21	4413
2026-01-19 11:35:27.87	206.68	14.88	-30.4	-32.0	12.7	7.62e-05	0	43	0	180355072	21	4347
2026-01-19 11:35:28.87	206.80	14.97	-30.4	-32.0	12.7	1.15e-04	0	43	0	181403648	21	4333
2026-01-19 11:35:29.88	206.92	15.06	-30.3	-31.9	12.8	5.41e-05	0	43	0	183500800	21	4296
2026-01-19 11:35:30.87	207.04	15.15	-30.2	-31.5	13.0	2.97e-05	0	43	0	185597952	21	4189
2026-01-19 11:35:31.88	207.16	15.24	-30.3	-31.6	13.0	2.21e-05	0	43	0	187695104	21	4215
2026-01-19 11:35:32.88	207.28	15.33	-30.3	-31.8	12.8	3.73e-05	0	43	0	189792256	21	4274
2026-01-19 11:35:33.89	207.40	15.42	-30.2	-31.6	13.0	4.95e-05	0	43	0	191889408	21	4201
2026-01-19 11:35:34.89	207.53	15.51	-30.3	-31.7	13.0	3.81e-05	0	43	0	192937984	21	4220
2026-01-19 11:35:35.89	207.65	15.60	-30.3	-31.7	12.9	4.73e-05	0	43	0	195035136	21	4241
2026-01-19 11:35:36.89	207.77	15.69	-30.2	-31.5	13.1	3.43e-05	0	43	0	197132288	21	4173
2026-01-19 11:35:37.89	207.90	15.78	-30.4	-32.1	12.7	6.63e-05	0	43	0	199229440	21	4373
2026-01-19 11:35:38.89	208.02	15.87	-30.3	-31.8	12.9	9.53e-05	0	44	0	200278016	21	4283
2026-01-19 11:35:39.89	208.15	15.96	-30.6	-32.6	12.4	1.11e-04	0	43	0	202375168	21	4519
2026-01-19 11:35:40.89	208.27	16.05	-30.6	-32.5	12.4	1.28e-04	0	43	0	204472320	21	4499
2026-01-19 11:35:41.89	208.40	16.15	-30.4	-32.1	12.7	5.18e-05	0	43	0	206569472	21	4354
2026-01-19 11:35:42.90	208.53	16.24	-30.3	-31.7	12.9	5.03e-05	0	43	0	208666624	21	4250
2026-01-19 11:35:43.90	208.66	16.33	-30.3	-31.8	13.0	5.56e-05	0	43	0	209715200	21	4248
2026-01-19 11:35:44.90	208.79	16.42	-30.4	-31.9	12.9	4.19e-05	0	43	0	211812352	21	4283
2026-01-19 11:35:45.90	208.92	16.52	-30.3	-31.7	13.0	4.65e-05	0	43	0	213909504	21	4214
2026-01-19 11:35:46.90	209.05	16.61	-30.4	-32.1	12.8	3.20e-05	0	43	0	216006656	21	4352
2026-01-19 11:35:47.91	209.18	16.70	-30.5	-32.2	12.7	6.63e-05	0	43	0	218103808	21	4376
2026-01-19 11:35:48.91	209.32	16.80	-30.5	-32.3	12.7	6.94e-05	0	44	0	219152384	21	4416
2026-01-19 11:35:49.91	209.45	16.89	-30.7	-32.8	12.3	7.47e-05	0	43	0	221249536	21	4591
2026-01-19 11:35:50.91	209.59	16.98	-30.7	-32.9	12.3	1.24e-04	0	43	0	223346688	21	4622
2026-01-19 11:35:51.92	209.72	17.08	-30.6	-32.7	12.4	9.46e-05	0	43	0	225443840	21	4563
2026-01-19 11:35:52.92	209.86	17.17	-30.6	-32.7	12.4	1.10e-04	0	43	0	226492416	21	4546
2026-01-19 11:35:53.93	210.00	17.27	-30.6	-32.6	12.4	1.67e-04	0	43	0	228589568	21	4540
2026-01-19 11:35:54.93	210.13	17.36	-30.6	-32.4	12.6	1.23e-04	0	43	0	230686720	21	4461
2026-01-19 11:35:55.93	210.27	17.46	-30.7	-32.8	12.3	1.30e-04	0	44	0	232783872	21	4607
2026-01-19 11:35:56.94	210.41	17.55	-30.6	-32.6	12.5	1.25e-04	0	43	0	234881024	21	4508
2026-01-19 11:35:57.94	210.55	17.65	-30.3	-31.8	13.0	4.27e-05	0	43	0	236978176	21	4260
2026-01-19 11:35:58.94	210.69	17.74	-30.4	-31.9	13.0	5.03e-05	0	43	0	238026752	21	4284
2026-01-19 11:35:59.94	210.84	17.84	-30.4	-31.9	13.0	3.81e-05	0	43	0	240123904	21	4284
2026-01-19 11:36:00.95	210.98	17.94	-30.4	-31.9	13.0	3.05e-05	0	43	0	242221056	21	4276
2026-01-19 11:36:01.95	211.12	18.03	-30.5	-32.1	12.8	4.27e-05	0	43	0	244318208	21	4349
2026-01-19 11:36:02.96	211.27	18.13	-30.5	-32.2	12.8	4.88e-05	0	44	0	245366784	21	4387
2026-01-19 11:36:03.96	211.42	18.23	-30.6	-32.5	12.6	6.56e-05	0	44	0	247463936	21	4475
2026-01-19 11:36:04.96	211.56	18.32	-30.6	-32.4	12.6	9.46e-05	0	44	0	249561088	21	4447
2026-01-19 11:36:05.96	211.71	18.42	-30.6	-32.5	12.6	1.07e-04	0	44	0	251658240	21	4470
2026-01-19 11:36:06.97	211.86	18.52	-30.5	-32.3	12.7	1.04e-04	0	44	0	253755392	21	4400
2026-01-19 11:36:07.96	212.01	18.62	-30.5	-32.2	12.8	6.79e-05	0	43	0	254803968	21	4382
2026-01-19 11:36:08.97	212.16	18.71	-30.6	-32.4	12.7	6.71e-05	0	43	0	256901120	21	4445
2026-01-19 11:36:09.97	212.31	18.81	-30.4	-31.9	13.0	6.33e-05	0	44	0	258998272	21	4276
2026-01-19 11:36:10.97	212.46	18.91	-30.4	-31.8	13.1	4.57e-05	0	44	0	261095424	21	4255
2026-01-19 11:36:11.97	212.61	19.01	-30.5	-32.2	12.8	4.65e-05	0	43	0	263192576	21	4392
2026-01-19 11:36:12.98	212.77	19.11	-30.5	-32.1	12.9	6.02e-05	0	43	0	264241152	21	4352
2026-01-19 11:36:13.98	212.92	19.21	-30.7	-32.7	12.5	6.56e-05	0	43	0	266338304	21	4527
2026-01-19 11:36:14.99	213.08	19.31	-30.6	-32.5	12.6	6.86e-05	0	44	0	268435456	21	4474
2026-01-19 11:36:15.99	213.24	19.40	-30.6	-32.4	12.7	1.18e-04	0	43	0	270532608	21	4453
2026-01-19 11:36:17.00	213.40	19.50	-30.6	-32.4	12.7	7.32e-05	0	43	0	272629760	21	4424
2026-01-19 11:36:18.01	213.56	19.60	-30.4	-31.9	13.1	6.48e-05	0	44	0	273678336	21	4266
2026-01-19 11:36:19.01	213.72	19.70	-30.5	-32.2	12.9	4.57e-05	0	43	0	275775488	21	4379
2026-01-19 11:36:20.25	213.92	19.83	-30.6	-32.5	12.7	6.40e-05	0	44	0	277872640	21	4476
2026-01-19 11:36:21.04	214.05	19.91	-30.5	-32.2	12.9	4.65e-05	0	44	0	278921216	21	4361
2026-01-19 11:36:22.23	214.24	20.02	-30.4	-31.9	13.1	4.19e-05	0	43	0	282066944	21	4292
2026-01-19 11:36:23.09	214.38	20.11	-30.5	-32.3	12.8	3.43e-05	0	43	0	283115520	21	4395
2026-01-19 11:36:24.24	214.57	20.23	-30.6	-32.4	12.8	3.89e-05	0	44	0	285212672	21	4431
2026-01-19 11:36:25.09	214.71	20.31	-30.6	-32.6	12.7	7.01e-05	0	44	0	287309824	21	4491
2026-01-19 11:36:26.24	214.90	20.43	-30.7	-32.6	12.6	6.71e-05	0	43	0	289406976	21	4513
2026-01-19 11:36:27.10	215.05	20.51	-30.8	-32.9	12.4	1.15e-04	0	43	0	290455552	21	4616
2026-01-19 11:36:28.25	215.24	20.63	-30.8	-33.0	12.3	1.84e-04	0	44	0	292552704	21	4623
2026-01-19 11:36:29.11	215.39	20.72	-30.7	-32.7	12.6	1.52e-04	0	43	0	294649856	21	4536
2026-01-19 11:36:30.26	215.59	20.83	-30.6	-32.5	12.7	7.70e-05	0	44	0	296747008	21	4483
2026-01-19 11:36:31.12	215.74	20.92	-30.6	-32.5	12.7	7.55e-05	0	44	0	297795584	21	4477
2026-01-19 11:36:32.27	215.94	21.04	-30.6	-32.6	12.7	7.01e-05	0	44	0	300941312	21	4487
2026-01-19 11:36:33.14	216.09	21.13	-30.7	-32.7	12.5	8.39e-05	0	44	0	301989888	21	4539
2026-01-19 11:36:34.28	216.29	21.24	-30.5	-32.1	13.0	6.10e-05	0	44	0	304087040	21	4330
2026-01-19 11:36:35.15	216.44	21.33	-30.4	-31.8	13.2	3.73e-05	0	44	0	306184192	21	4247
2026-01-19 11:36:36.29	216.65	21.45	-30.3	-31.6	13.3	3.50e-05	0	44	0	308281344	21	4179
2026-01-19 11:36:37.15	216.80	21.54	-30.2	-31.3	13.5	6.80e-06	0	44	0	309329920	21	4090
2026-01-19 11:36:38.29	217.01	21.65	-30.1	-31.0	13.8	1.52e-05	0	44	0	311427072	21	3985
2026-01-19 11:36:39.15	217.16	21.74	-30.2	-31.3	13.6	3.80e-06	0	44	0	313524224	21	4076
2026-01-19 11:36:40.29	217.37	21.86	-30.2	-31.3	13.6	9.10e-06	0	43	0	315621376	21	4083
2026-01-19 11:36:41.15	217.53	21.95	-30.1	-31.1	13.7	1.06e-05	0	43	0	316669952	21	4034
2026-01-19 11:36:42.30	217.74	22.06	-30.4	-32.0	13.1	1.14e-05	0	44	0	318767104	21	4294
2026-01-19 11:36:43.16	217.90	22.15	-30.2	-31.2	13.6	1.52e-05	0	44	0	320864256	21	4070
2026-01-19 11:36:44.30	218.12	22.27	-29.8	-30.3	14.2	5.30e-06	0	44	0	322961408	21	3805
2026-01-19 11:36:45.16	218.28	22.36	-29.7	-30.4	14.5	7.00e-07	0	44	0	324009984	20	3925
2026-01-19 11:36:46.30	218.50	22.48	-29.3	-29.9	15.1	0.00e+00	0	44	0	327155712	19	3873
2026-01-19 11:36:47.17	218.66	22.57	-29.3	-29.8	15.2	0.00e+00	0	44	0	328204288	19	3847
2026-01-19 11:36:48.31	218.88	22.69	-29.2	-29.6	15.3	7.00e-07	0	44	0	330301440	19	3796
2026-01-19 11:36:49.18	219.05	22.78	-28.9	-28.9	15.7	0.00e+00	0	44	0	332398592	19	3602
2026-01-19 11:36:50.32	219.28	22.89	-28.9	-28.9	15.7	0.00e+00	0	44	0	334495744	19	3616
2026-01-19 11:36:51.18	219.45	22.98	-28.9	-29.0	15.7	0.00e+00	0	44	0	335544320	19	3630
2026-01-19 11:36:52.32	219.67	23.10	-29.0	-29.1	15.6	0.00e+00	0	44	0	337641472	19	3666
2026-01-19 11:36:53.18	219.84	23.19	-29.0	-29.3	15.5	0.00e+00	0	44	0	339738624	19	3711
2026-01-19 11:36:54.32	220.07	23.31	-29.2	-29.6	15.3	0.00e+00	0	44	0	341835776	19	3782
2026-01-19 11:36:55.18	220.24	23.40	-29.0	-29.3	15.5	0.00e+00	0	44	0	342884352	19	3708
2026-01-19 11:36:56.33	220.48	23.52	-29.1	-29.4	15.4	0.00e+00	0	44	0	346030080	19	3743
2026-01-19 11:36:57.19	220.65	23.61	-29.2	-29.6	15.4	0.00e+00	0	44	0	347078656	19	3778
2026-01-19 11:36:58.33	220.89	23.73	-29.3	-29.8	15.2	0.00e+00	0	44	0	349175808	19	3844
2026-01-19 11:36:59.19	221.07	23.82	-29.2	-29.8	15.3	0.00e+00	0	44	0	351272960	19	3823
2026-01-19 11:37:00.34	221.31	23.94	-29.5	-30.5	14.8	0.00e+00	0	44	0	353370112	19	4024
2026-01-19 11:37:01.20	221.49	24.03	-29.5	-30.3	14.9	0.00e+00	0	44	0	354418688	19	3970
2026-01-19 11:37:02.34	221.73	24.15	-29.5	-30.3	14.9	0.00e+00	0	44	0	356515840	19	3979
2026-01-19 11:37:03.20	221.91	24.24	-29.4	-30.2	15.0	0.00e+00	0	44	0	358612992	19	3938
2026-01-19 11:37:04.35	222.15	24.36	-29.7	-30.9	14.6	0.00e+00	0	44	0	360710144	19	4137
2026-01-19 11:37:05.21	222.34	24.45	-29.5	-30.5	14.8	0.00e+00	0	44	0	361758720	19	4024
2026-01-19 11:37:06.34	222.58	24.56	-29.5	-30.6	14.8	0.00e+00	0	44	0	363855872	19	4045
2026-01-19 11:37:07.19	222.77	24.65	-29.8	-31.2	14.4	7.00e-07	0	44	0	365953024	19	4231
2026-01-19 11:37:08.34	223.02	24.77	-29.6	-30.7	14.7	7.00e-07	0	44	0	368050176	19	4073
2026-01-19 11:37:09.20	223.21	24.86	-29.5	-30.5	14.9	7.00e-07	0	44	0	369098752	19	4026
2026-01-19 11:37:10.35	223.47	24.98	-29.4	-30.1	15.0	0.00e+00	0	44	0	372244480	19	3929
2026-01-19 11:37:11.21	223.66	25.07	-29.5	-30.4	14.9	0.00e+00	0	44	0	373293056	19	4005
2026-01-19 11:37:12.36	223.92	25.19	-29.5	-30.5	14.8	0.00e+00	0	44	0	375390208	19	4032
2026-01-19 11:37:13.22	224.11	25.28	-29.7	-31.0	14.5	2.20e-06	0	43	0	377487360	19	4163
2026-01-19 11:37:14.36	224.38	25.40	-29.9	-31.3	14.3	3.00e-06	0	44	0	379584512	19	4261
2026-01-19 11:37:15.22	224.57	25.49	-30.1	-31.5	13.8	2.20e-06	0	44	0	380633088	20	4238
2026-01-19 11:37:16.37	224.84	25.61	-30.4	-32.2	13.4	9.10e-06	0	44	0	382730240	20	4458
2026-01-19 11:37:17.23	225.04	25.70	-30.2	-31.8	13.6	6.80e-06	0	44	0	384827392	20	4337
2026-01-19 11:37:18.37	225.31	25.82	-29.9	-31.0	14.1	1.50e-06	0	44	0	386924544	20	4093
2026-01-19 11:37:19.23	225.51	25.91	-29.8	-30.8	14.3	7.00e-07	0	44	0	387973120	20	4018
2026-01-19 11:37:20.38	225.78	26.03	-29.8	-30.7	14.4	2.20e-06	0	44	0	391118848	20	3990
2026-01-19 11:37:21.23	225.98	26.11	-29.9	-30.9	14.3	0.00e+00	0	44	0	392167424	20	4048
2026-01-19 11:37:22.38	226.26	26.23	-29.9	-30.9	14.3	7.00e-07	0	44	0	394264576	20	4031
2026-01-19 11:37:23.24	226.47	26.32	-29.8	-30.6	14.4	7.00e-07	0	44	0	396361728	20	3963
2026-01-19 11:37:24.39	226.75	26.44	-29.7	-30.4	14.6	0.00e+00	0	44	0	398458880	20	3899
2026-01-19 11:37:25.25	226.96	26.53	-29.6	-30.2	14.7	7.00e-07	0	44	0	399507456	20	3855
2026-01-19 11:37:26.39	227.24	26.65	-29.6	-30.2	14.7	0.00e+00	0	44	0	401604608	20	3843
2026-01-19 11:37:27.26	227.45	26.74	-29.7	-30.5	14.6	0.00e+00	0	44	0	403701760	20	3928
2026-01-19 11:37:28.40	227.74	26.85	-29.8	-30.7	14.5	0.00e+00	0	44	0	405798912	20	3985
2026-01-19 11:37:29.26	227.96	26.94	-30.0	-31.1	14.1	7.00e-07	0	44	0	406847488	20	4110
2026-01-19 11:37:30.40	228.24	27.06	-29.8	-30.6	14.5	7.00e-07	0	44	0	408944640	20	3954
2026-01-19 11:37:31.26	228.46	27.14	-29.8	-30.6	14.5	0.00e+00	0	44	0	411041792	20	3959
2026-01-19 11:37:32.40	228.75	27.26	-29.7	-30.3	14.7	0.00e+00	0	44	0	413138944	20	3879
2026-01-19 11:37:33.25	228.97	27.35	-29.7	-30.3	14.7	7.00e-07	0	44	0	414187520	20	3871
2026-01-19 11:37:34.40	229.27	27.46	-29.6	-30.2	14.8	0.00e+00	0	44	0	417333248	20	3839
2026-01-19 11:37:35.26	229.49	27.55	-29.8	-30.6	14.5	0.00e+00	0	44	0	418381824	20	3943
2026-01-19 11:37:36.40	229.79	27.67	-29.9	-30.9	14.4	3.00e-06	0	44	0	420478976	20	4020
2026-01-19 11:37:37.26	230.02	27.75	-30.1	-31.4	14.0	2.20e-06	0	44	0	422576128	20	4184
2026-01-19 11:37:38.40	230.32	27.87	-30.3	-31.8	13.8	4.50e-06	0	44	0	424673280	20	4315
2026-01-19 11:37:39.26	230.55	27.95	-30.4	-32.2	13.5	5.30e-06	0	44	0	425721856	20	4426
2026-01-19 11:37:40.41	230.86	28.07	-30.4	-32.3	13.5	1.22e-05	0	44	0	427819008	20	4455
2026-01-19 11:37:41.27	231.10	28.15	-30.6	-32.2	13.2	2.74e-05	0	44	0	429916160	21	4336
2026-01-19 11:37:42.41	231.41	28.26	-30.9	-33.0	12.7	5.79e-05	0	44	0	432013312	21	4606
2026-01-19 11:37:43.27	231.64	28.35	-30.8	-32.9	12.7	7.01e-05	0	44	0	433061888	21	4556
2026-01-19 11:37:44.40	231.95	28.46	-30.9	-33.1	12.6	8.31e-05	0	44	0	435159040	21	4633
2026-01-19 11:37:45.26	232.19	28.54	-30.9	-33.1	12.6	7.93e-05	0	44	0	437256192	21	4633
2026-01-19 11:37:46.41	232.51	28.66	-31.0	-33.3	12.5	8.77e-05	0	44	0	439353344	21	4706
2026-01-19 11:37:47.27	232.75	28.74	-31.0	-32.9	12.4	1.39e-04	0	44	0	441450496	22	4477
2026-01-19 11:37:48.41	233.07	28.85	-31.3	-33.8	11.8	3.57e-04	0	44	0	443547648	22	4789
2026-01-19 11:37:49.27	233.32	28.93	-31.4	-34.0	11.7	5.66e-04	0	44	0	444596224	22	4866
2026-01-19 11:37:50.42	233.65	29.04	-31.6	-34.1	11.3	1.04e-03	0	44	0	446693376	23	4817
2026-01-19 11:37:51.28	233.89	29.13	-31.7	-34.5	11.0	1.66e-03	0	44	0	448790528	23	4948
2026-01-19 11:37:52.43	234.22	29.23	-31.9	-35.2	10.5	2.46e-03	0	44	0	450887680	23	5217
2026-01-19 11:37:53.29	234.47	29.32	-32.1	-35.3	10.1	4.59e-03	0	44	0	451936256	24	5187
2026-01-19 11:37:54.44	234.81	29.42	-32.1	-35.1	10.2	7.21e-03	0	44	0	454033408	24	5105
2026-01-19 11:37:55.30	235.06	29.50	-32.1	-35.3	10.1	6.43e-03	0	44	0	456130560	24	5177
2026-01-19 11:37:56.45	235.40	29.61	-31.8	-34.3	10.8	3.11e-03	0	44	0	458227712	24	4772
2026-01-19 11:37:57.31	235.66	29.69	-31.8	-34.2	10.9	2.62e-03	0	44	0	459276288	24	4748
2026-01-19 11:37:58.46	236.00	29.80	-31.9	-34.6	10.7	3.52e-03	0	44	0	462422016	24	4889
2026-01-19 11:37:59.32	236.26	29.88	-32.1	-35.1	10.3	3.93e-03	0	44	0	463470592	24	5100
2026-01-19 11:38:00.47	236.61	29.98	-32.2	-35.5	9.9	4.65e-03	0	44	0	465567744	24	5248
2026-01-19 11:38:01.32	236.87	30.06	-32.2	-35.5	9.9	5.89e-03	0	44	0	467664896	24	5258
2026-01-19 11:38:02.46	237.21	30.16	-32.1	-35.2	10.2	6.52e-03	0	44	0	469762048	24	5123
2026-01-19 11:38:03.32	237.48	30.24	-32.4	-36.2	9.5	1.13e-02	0	44	0	470810624	24	5558
2026-01-19 11:38:04.47	237.83	30.34	-32.4	-36.3	9.4	1.45e-02	0	44	0	472907776	24	5604
2026-01-19 11:38:05.33	238.10	30.41	-32.7	-36.7	8.6	2.57e-02	0	44	0	475004928	25	5744
2026-01-19 11:38:06.48	238.46	30.51	-32.6	-36.4	8.9	3.08e-02	0	44	0	477102080	25	5600
2026-01-19 11:38:07.33	238.73	30.59	-32.7	-37.0	8.4	3.64e-02	0	44	0	478150656	25	5886
2026-01-19 11:38:08.48	239.09	30.69	-32.6	-36.3	9.0	2.60e-02	0	44	0	481296384	25	5533
2026-01-19 11:38:09.34	239.36	30.76	-32.5	-35.9	9.3	2.14e-02	0	44	0	482344960	25	5342
2026-01-19 11:38:10.48	239.72	30.86	-32.5	-36.1	9.2	2.10e-02	0	44	0	484442112	25	5431
2026-01-19 11:38:11.34	240.00	30.93	-32.8	-37.1	8.3	3.09e-02	0	44	0	486539264	25	5958
2026-01-19 11:38:12.48	240.37	31.02	-32.6	-36.6	8.8	3.83e-02	0	44	0	488636416	25	5687
2026-01-19 11:38:13.35	240.65	31.09	-32.6	-36.4	8.9	2.95e-02	0	44	0	489684992	25	5599
2026-01-19 11:38:14.50	241.02	31.19	-32.6	-36.3	9.0	2.62e-02	0	44	0	491782144	25	5541
2026-01-19 11:38:15.36	241.30	31.26	-32.5	-36.1	9.1	2.14e-02	0	44	0	493879296	25	5426
2026-01-19 11:38:16.51	241.68	31.35	-32.4	-35.6	9.5	2.19e-02	0	44	0	495976448	25	5217
2026-01-19 11:38:17.36	241.96	31.42	-32.3	-35.3	9.7	1.31e-02	0	44	0	497025024	25	5078
2026-01-19 11:38:18.51	242.34	31.51	-31.8	-34.0	11.2	2.78e-03	0	44	0	499122176	24	4640
2026-01-19 11:38:19.37	242.63	31.57	-31.8	-33.9	11.1	1.70e-03	0	44	0	501219328	24	4632
2026-01-19 11:38:20.52	243.01	31.66	-31.5	-33.1	11.7	5.18e-04	0	44	0	503316480	24	4336
2026-01-19 11:38:21.38	243.30	31.73	-31.4	-33.4	11.9	2.55e-04	0	44	0	505413632	23	4524
2026-01-19 11:38:22.52	243.69	31.81	-31.7	-34.4	11.2	5.84e-04	0	44	0	507510784	23	4878
2026-01-19 11:38:23.38	243.98	31.87	-32.0	-34.9	10.5	2.32e-03	0	44	0	508559360	24	4995
2026-01-19 11:38:24.52	244.37	31.96	-32.2	-35.3	10.2	6.47e-03	0	44	0	510656512	24	5181
2026-01-19 11:38:25.38	244.66	32.02	-32.2	-35.3	10.2	7.06e-03	0	44	0	512753664	24	5161
2026-01-19 11:38:26.52	245.06	32.10	-32.0	-34.9	10.5	4.11e-03	0	44	0	514850816	24	4997
2026-01-19 11:38:27.38	245.35	32.16	-31.9	-34.3	10.9	2.10e-03	0	44	0	515899392	24	4755
2026-01-19 11:38:28.53	245.75	32.24	-31.5	-33.2	11.7	6.57e-04	0	44	0	517996544	24	4357
2026-01-19 11:38:29.39	246.05	32.30	-31.4	-32.7	12.1	2.49e-04	0	44	0	520093696	24	4205
2026-01-19 11:38:30.54	246.45	32.38	-31.3	-33.2	12.1	1.35e-04	0	44	0	522190848	23	4439
2026-01-19 11:38:31.40	246.75	32.43	-31.6	-34.0	11.5	3.09e-04	0	44	0	523239424	23	4744
2026-01-19 11:38:32.55	247.16	32.51	-31.7	-34.3	11.3	8.48e-04	0	44	0	526385152	23	4848
2026-01-19 11:38:33.40	247.46	32.56	-32.1	-35.0	10.5	3.78e-03	0	44	0	527433728	24	5022
2026-01-19 11:38:34.54	247.87	32.64	-32.5	-35.8	9.4	1.23e-02	0	44	0	529530880	25	5319
2026-01-19 11:38:35.40	248.17	32.69	-32.5	-35.9	9.3	1.58e-02	0	44	0	531628032	25	5341
2026-01-19 11:38:36.54	248.58	32.76	-32.3	-35.1	10.0	1.10e-02	0	44	0	533725184	25	4976
2026-01-19 11:38:37.41	248.89	32.81	-32.3	-35.1	10.0	7.20e-03	0	44	0	534773760	25	4993
2026-01-19 11:38:38.55	249.30	32.88	-32.3	-35.2	10.0	9.24e-03	0	44	0	536870912	25	5037
2026-01-19 11:38:39.41	249.61	32.93	-32.3	-35.3	9.8	1.12e-02	0	44	0	538968064	25	5077
2026-01-19 11:38:40.56	250.03	32.99	-31.8	-33.6	11.1	4.28e-03	0	44	0	541065216	25	4415
2026-01-19 11:38:41.42	250.35	33.04	-31.7	-33.8	11.3	1.60e-03	0	44	0	542113792	24	4556
2026-01-19 11:38:42.57	250.77	33.10	-31.9	-34.3	10.9	1.69e-03	0	44	0	544210944	24	4772
2026-01-19 11:38:43.43	251.08	33.15	-32.5	-36.0	9.3	8.95e-03	0	44	0	546308096	25	5384
2026-01-19 11:38:44.57	251.50	33.21	-32.9	-37.5	8.2	2.93e-02	0	44	0	548405248	25	6126
2026-01-19 11:38:45.43	251.82	33.25	-33.1	-37.8	7.5	7.42e-02	0	44	0	550502400	26	6225
2026-01-19 11:38:46.56	252.24	33.30	-33.0	-37.4	7.9	8.16e-02	0	44	0	552599552	26	5977
2026-01-19 11:38:47.43	252.56	33.35	-33.0	-37.5	7.6	9.78e-02	0	44	0	553648128	26	6049
2026-01-19 11:38:48.57	252.98	33.40	-33.0	-37.5	7.8	9.44e-02	0	44	0	555745280	26	6037
2026-01-19 11:38:49.44	253.31	33.44	-33.2	-38.2	7.3	1.12e-01	0	44	0	557842432	26	6451
2026-01-19 11:38:50.58	253.73	33.49	-33.4	-39.3	6.5	2.48e-01	0	44	0	559939584	26	7095
2026-01-19 11:38:51.44	254.06	33.53	-33.2	-38.6	7.0	1.87e-01	0	44	0	560988160	26	6672
2026-01-19 11:38:52.59	254.49	33.57	-33.0	-37.3	8.0	9.00e-02	0	44	0	563085312	26	5909
2026-01-19 11:38:53.45	254.81	33.61	-32.9	-37.0	8.2	5.50e-02	0	44	0	565182464	26	5775
2026-01-19 11:38:54.59	255.24	33.65	-32.9	-36.8	8.3	4.75e-02	0	44	0	567279616	26	5681
2026-01-19 11:38:55.45	255.57	33.69	-33.0	-37.4	7.9	5.20e-02	0	44	0	568328192	26	5951
2026-01-19 11:38:56.60	256.01	33.73	-33.1	-38.0	7.5	9.47e-02	0	44	0	571473920	26	6293
2026-01-19 11:38:57.45	256.33	33.76	-33.2	-38.3	7.3	1.20e-01	0	44	0	572522496	26	6451
2026-01-19 11:38:58.60	256.77	33.80	-32.8	-36.6	8.4	1.03e-01	0	44	0	574619648	26	5587
2026-01-19 11:38:59.47	257.10	33.83	-32.5	-35.3	9.5	3.44e-02	0	44	0	576716800	26	4982
2026-01-19 11:39:00.61	257.54	33.86	-32.3	-35.2	9.9	7.86e-03	0	44	0	578813952	25	5022
2026-01-19 11:39:01.47	257.87	33.89	-32.1	-34.4	10.5	4.58e-03	0	44	0	579862528	25	4719
2026-01-19 11:39:02.61	258.30	33.92	-32.0	-34.2	10.7	3.16e-03	0	44	0	581959680	25	4624
2026-01-19 11:39:03.48	258.64	33.94	-32.2	-34.7	10.3	3.35e-03	0	44	0	584056832	25	4831
2026-01-19 11:39:04.63	259.08	33.97	-32.3	-35.2	10.0	6.16e-03	0	44	0	586153984	25	5021
2026-01-19 11:39:05.49	259.41	33.99	-32.4	-35.6	9.6	8.07e-03	0	44	0	587202560	25	5214
2026-01-19 11:39:06.64	259.86	34.02	-32.9	-37.4	8.3	3.10e-02	0	44	0	589299712	25	6058
2026-01-19 11:39:07.50	260.19	34.04	-32.9	-37.4	8.3	4.51e-02	0	44	0	591396864	25	6071
2026-01-19 11:39:08.64	260.63	34.06	-33.0	-37.5	7.8	7.03e-02	0	44	0	593494016	26	6025
2026-01-19 11:39:09.50	260.97	34.07	-33.0	-37.4	7.9	8.50e-02	0	44	0	595591168	26	5944
2026-01-19 11:39:10.65	261.41	34.09	-33.0	-37.3	8.0	5.44e-02	0	44	0	597688320	26	5938
2026-01-19 11:39:11.50	261.74	34.11	-33.0	-37.3	8.0	5.70e-02	0	44	0	598736896	26	5902
2026-01-19 11:39:12.65	262.19	34.12	-32.9	-37.1	8.2	5.80e-02	0	44	0	600834048	26	5803
2026-01-19 11:39:13.50	262.52	34.13	-32.8	-36.6	8.6	4.48e-02	0	44	0	602931200	26	5558
2026-01-19 11:39:14.65	262.97	34.15	-32.7	-36.2	8.9	4.27e-02	0	44	0	605028352	26	5355
2026-01-19 11:39:15.52	263.31	34.16	-32.7	-36.1	8.9	2.71e-02	0	44	0	606076928	26	5345
2026-01-19 11:39:16.66	263.75	34.17	-32.9	-36.8	8.3	5.23e-02	0	44	0	608174080	26	5650
2026-01-19 11:39:17.52	264.09	34.17	-33.0	-37.2	8.2	4.16e-02	0	44	0	610271232	26	5840
2026-01-19 11:39:18.66	264.53	34.18	-33.0	-37.3	8.1	6.67e-02	0	44	0	612368384	26	5880
2026-01-19 11:39:19.53	264.87	34.18	-32.9	-36.9	8.4	5.83e-02	0	44	0	614465536	26	5694
2026-01-19 11:39:20.67	265.32	34.18	-33.0	-37.5	7.9	5.54e-02	0	44	0	616562688	26	6036
2026-01-19 11:39:21.53	265.65	34.18	-33.3	-39.0	6.8	1.26e-01	0	44	0	617611264	26	6897
2026-01-19 11:39:22.67	266.10	34.18	-33.4	-39.4	6.5	2.39e-01	0	44	0	619708416	26	7152
2026-01-19 11:39:23.53	266.43	34.18	-33.4	-39.2	6.6	2.24e-01	0	44	0	621805568	26	7059
2026-01-19 11:39:24.68	266.88	34.18	-33.3	-38.7	7.0	1.50e-01	0	44	0	623902720	26	6687
2026-01-19 11:39:25.54	267.22	34.17	-33.3	-38.5	7.0	1.48e-01	0	44	0	624951296	26	6614
2026-01-19 11:39:26.68	267.66	34.17	-33.0	-37.3	8.0	9.44e-02	0	44	0	627048448	26	5921
2026-01-19 11:39:27.53	267.99	34.16	-32.9	-36.8	8.4	4.91e-02	0	44	0	629145600	26	5651
2026-01-19 11:39:28.68	268.44	34.15	-32.7	-36.0	9.0	2.98e-02	0	44	0	631242752	26	5279
2026-01-19 11:39:29.54	268.78	34.14	-32.5	-35.5	9.4	1.71e-02	0	44	0	632291328	26	5043
2026-01-19 11:39:30.69	269.23	34.13	-32.8	-36.3	8.8	1.80e-02	0	44	0	635437056	26	5421
2026-01-19 11:39:31.54	269.56	34.12	-32.9	-36.7	8.5	3.94e-02	0	44	0	636485632	26	5619
2026-01-19 11:39:32.68	270.00	34.10	-33.1	-37.7	7.6	7.29e-02	0	44	0	638582784	26	6137
2026-01-19 11:39:33.54	270.33	34.08	-33.2	-38.2	7.3	9.81e-02	0	44	0	640679936	26	6380
2026-01-19 11:39:34.68	270.77	34.06	-33.0	-37.4	7.9	8.68e-02	0	44	0	642777088	26	5981
2026-01-19 11:39:35.54	271.11	34.05	-32.9	-36.8	8.3	5.99e-02	0	44	0	643825664	26	5668
2026-01-19 11:39:36.69	271.55	34.02	-32.7	-36.2	8.9	3.38e-02	0	44	0	645922816	26	5362
2026-01-19 11:39:37.54	271.88	34.00	-32.3	-34.7	10.0	1.19e-02	0	44	0	648019968	26	4729
2026-01-19 11:39:38.68	272.32	33.98	-31.7	-33.5	11.6	1.99e-03	0	44	0	650117120	24	4457
2026-01-19 11:39:39.54	272.65	33.96	-31.2	-32.6	12.5	3.03e-04	0	44	0	651165696	23	4258
2026-01-19 11:39:40.69	273.09	33.93	-31.1	-32.5	12.7	9.68e-05	0	44	0	653262848	23	4200
2026-01-19 11:39:41.54	273.42	33.90	-31.3	-32.9	12.4	1.65e-04	0	44	0	655360000	23	4330
2026-01-19 11:39:42.69	273.86	33.87	-31.6	-33.9	11.7	3.16e-04	0	44	0	657457152	23	4666
2026-01-19 11:39:43.55	274.19	33.84	-31.8	-34.6	11.2	9.10e-04	0	44	0	658505728	23	4928
2026-01-19 11:39:44.70	274.63	33.81	-31.9	-34.7	11.1	1.38e-03	0	44	0	661651456	23	4998
2026-01-19 11:39:45.56	274.96	33.78	-32.0	-34.6	10.9	2.47e-03	0	44	0	662700032	24	4859
2026-01-19 11:39:46.70	275.39	33.74	-32.2	-35.2	10.4	3.98e-03	0	44	0	664797184	24	5107
2026-01-19 11:39:47.56	275.72	33.71	-32.6	-36.3	9.1	8.86e-03	0	44	0	666894336	25	5507
2026-01-19 11:39:48.71	276.15	33.67	-32.8	-36.9	8.8	3.37e-02	0	44	0	668991488	25	5784
2026-01-19 11:39:49.57	276.48	33.63	-32.6	-36.1	9.3	2.75e-02	0	44	0	670040064	25	5405
2026-01-19 11:39:50.71	276.91	33.59	-32.0	-34.2	10.8	5.79e-03	0	44	0	672137216	25	4620
2026-01-19 11:39:51.57	277.23	33.55	-31.9	-33.7	11.2	1.79e-03	0	44	0	674234368	25	4420
2026-01-19 11:39:52.71	277.66	33.50	-32.1	-34.3	10.7	2.17e-03	0	44	0	676331520	25	4647
2026-01-19 11:39:53.57	277.98	33.47	-32.2	-34.7	10.4	3.47e-03	0	44	0	677380096	25	4822
2026-01-19 11:39:54.72	278.41	33.41	-32.1	-34.3	10.7	3.63e-03	0	44	0	679477248	25	4644
2026-01-19 11:39:55.58	278.73	33.37	-31.8	-33.8	11.4	1.46e-03	0	44	0	681574400	24	4565
2026-01-19 11:39:56.72	279.15	33.32	-31.4	-32.8	12.2	5.16e-04	0	44	0	683671552	24	4224
2026-01-19 11:39:57.58	279.47	33.28	-31.5	-32.9	12.0	2.78e-04	0	44	0	685768704	24	4249
2026-01-19 11:39:58.72	279.89	33.22	-31.6	-33.5	11.6	4.49e-04	0	44	0	687865856	24	4451
2026-01-19 11:39:59.59	280.21	33.18	-31.9	-34.3	11.1	1.24e-03	0	44	0	688914432	24	4741
2026-01-19 11:40:00.73	280.63	33.12	-32.0	-34.7	10.7	2.29e-03	0	44	0	691011584	24	4909
2026-01-19 11:40:01.59	280.94	33.07	-31.6	-33.2	11.8	6.77e-04	0	44	0	693108736	24	4360
2026-01-19 11:40:02.73	281.35	33.01	-31.2	-32.7	12.5	1.47e-04	0	44	0	695205888	23	4263
2026-01-19 11:40:03.59	281.67	32.96	-31.2	-32.7	12.5	7.78e-05	0	44	0	696254464	23	4285
2026-01-19 11:40:04.73	282.08	32.90	-31.7	-34.2	11.5	5.04e-04	0	44	0	698351616	23	4786
2026-01-19 11:40:05.60	282.39	32.85	-32.1	-34.9	10.6	2.03e-03	0	44	0	700448768	24	4965
2026-01-19 11:40:06.74	282.80	32.78	-32.1	-34.8	10.7	3.58e-03	0	44	0	702545920	24	4949
2026-01-19 11:40:07.60	283.11	32.73	-31.5	-33.2	11.9	2.03e-03	0	44	0	703594496	24	4347
2026-01-19 11:40:08.75	283.52	32.66	-31.1	-32.3	12.8	1.72e-04	0	44	0	706740224	23	4157
2026-01-19 11:40:09.61	283.82	32.60	-31.2	-32.6	12.6	6.02e-05	0	44	0	707788800	23	4251
2026-01-19 11:40:10.76	284.23	32.53	-31.4	-33.1	12.3	2.30e-04	0	44	0	709885952	23	4398
2026-01-19 11:40:11.62	284.53	32.48	-31.3	-32.8	12.4	1.50e-04	0	44	0	711983104	23	4310
2026-01-19 11:40:12.77	284.94	32.40	-31.0	-32.1	12.9	1.51e-04	0	44	0	714080256	23	4084
2026-01-19 11:40:13.63	285.24	32.34	-30.7	-31.7	13.6	4.80e-05	0	44	0	715128832	22	4050
2026-01-19 11:40:14.77	285.63	32.27	-30.8	-32.0	13.3	1.75e-05	0	44	0	717225984	22	4131
2026-01-19 11:40:15.63	285.93	32.21	-30.9	-32.3	13.1	1.75e-05	0	44	0	719323136	22	4230
2026-01-19 11:40:16.78	286.33	32.13	-31.3	-33.5	12.4	7.24e-05	0	44	0	721420288	22	4616
2026-01-19 11:40:17.64	286.62	32.07	-31.4	-33.9	12.1	1.65e-04	0	44	0	722468864	22	4766
2026-01-19 11:40:18.79	287.02	31.98	-31.6	-33.7	11.7	7.00e-04	0	44	0	725614592	23	4606
2026-01-19 11:40:19.65	287.31	31.92	-31.4	-33.2	12.1	5.00e-04	0	44	0	726663168	23	4447
2026-01-19 11:40:20.80	287.70	31.84	-31.3	-33.1	12.3	2.11e-04	0	44	0	728760320	23	4395
2026-01-19 11:40:21.65	287.99	31.77	-31.3	-32.9	12.3	2.56e-04	0	44	0	730857472	23	4352
2026-01-19 11:40:22.80	288.37	31.69	-31.0	-32.0	13.0	7.24e-05	0	44	0	732954624	23	4050
2026-01-19 11:40:23.66	288.66	31.62	-31.0	-32.0	13.0	7.17e-05	0	44	0	734003200	23	4042
2026-01-19 11:40:24.80	289.04	31.54	-30.6	-31.6	13.6	1.52e-05	0	44	0	736100352	22	4015
2026-01-19 11:40:25.66	289.32	31.47	-30.3	-30.6	14.2	2.20e-06	0	44	0	738197504	22	3743
2026-01-19 11:40:26.81	289.70	31.38	-29.9	-30.2	14.8	7.00e-07	0	44	0	740294656	21	3720
2026-01-19 11:40:27.67	289.99	31.31	-30.2	-31.0	14.3	0.00e+00	0	44	0	741343232	21	3934
2026-01-19 11:40:28.81	290.36	31.22	-30.7	-32.3	13.4	6.10e-06	0	44	0	743440384	21	4337
2026-01-19 11:40:29.67	290.64	31.15	-31.2	-33.2	12.5	3.81e-05	0	44	0	745537536	22	4540
2026-01-19 11:40:30.82	291.01	31.06	-31.4	-33.1	12.2	3.22e-04	0	44	0	747634688	23	4408
2026-01-19 11:40:31.67	291.28	30.99	-31.0	-32.1	12.9	6.40e-05	0	44	0	749731840	23	4078
2026-01-19 11:40:32.81	291.65	30.89	-30.4	-30.9	14.0	1.29e-05	0	44	0	751828992	22	3812
2026-01-19 11:40:33.67	291.92	30.82	-30.2	-30.9	14.3	1.50e-06	0	44	0	752877568	21	3921
2026-01-19 11:40:34.81	292.28	30.72	-30.5	-31.8	13.8	3.80e-06	0	44	0	754974720	21	4172
2026-01-19 11:40:35.67	292.55	30.65	-30.9	-32.9	13.1	1.37e-05	0	44	0	757071872	21	4509
2026-01-19 11:40:36.81	292.91	30.55	-31.3	-33.5	12.3	8.01e-05	0	44	0	759169024	22	4634
2026-01-19 11:40:37.66	293.18	30.48	-31.4	-33.3	12.1	4.01e-04	0	44	0	760217600	23	4489
2026-01-19 11:40:38.82	293.54	30.38	-31.0	-32.0	13.0	8.01e-05	0	44	0	762314752	23	4066
2026-01-19 11:40:39.67	293.80	30.30	-30.5	-31.3	13.7	6.80e-06	0	44	0	764411904	22	3938
2026-01-19 11:40:40.81	294.15	30.20	-30.0	-30.5	14.5	3.00e-06	0	44	0	766509056	21	3820
2026-01-19 11:40:41.68	294.41	30.13	-30.0	-30.5	14.5	0.00e+00	0	44	0	767557632	21	3811
2026-01-19 11:40:42.82	294.76	30.02	-30.5	-31.8	13.7	4.50e-06	0	44	0	770703360	21	4183
2026-01-19 11:40:43.69	295.02	29.95	-30.7	-32.4	13.4	9.10e-06	0	44	0	771751936	21	4347
2026-01-19 11:40:44.83	295.36	29.84	-31.0	-32.5	13.0	3.81e-05	0	44	0	773849088	22	4292
2026-01-19 11:40:45.69	295.62	29.76	-31.1	-32.8	12.7	3.58e-05	0	44	0	775946240	22	4408
2026-01-19 11:40:46.84	295.96	29.66	-30.8	-31.9	13.3	1.52e-05	0	44	0	778043392	22	4114
2026-01-19 11:40:47.70	296.22	29.58	-30.8	-32.1	13.2	1.75e-05	0	44	0	779091968	22	4182
2026-01-19 11:40:48.84	296.55	29.47	-31.0	-32.6	12.9	2.89e-05	0	44	0	781189120	22	4334
2026-01-19 11:40:49.70	296.80	29.39	-31.3	-33.6	12.3	1.23e-04	0	44	0	783286272	22	4654
2026-01-19 11:40:50.85	297.14	29.28	-31.6	-33.9	11.7	3.93e-04	0	44	0	785383424	23	4666
2026-01-19 11:40:51.71	297.38	29.20	-31.6	-33.8	11.8	5.57e-04	0	44	0	786432000	23	4669
2026-01-19 11:40:52.85	297.71	29.10	-31.2	-32.7	12.5	1.30e-04	0	44	0	788529152	23	4286
2026-01-19 11:40:53.71	297.96	29.01	-31.1	-32.4	12.7	6.79e-05	0	44	0	790626304	23	4177
2026-01-19 11:40:54.86	298.28	28.90	-31.2	-32.5	12.6	5.26e-05	0	44	0	792723456	23	4222
2026-01-19 11:40:55.72	298.52	28.82	-31.3	-33.1	12.3	2.37e-04	0	44	0	794820608	23	4389
2026-01-19 11:40:56.87	298.85	28.71	-31.4	-33.2	12.1	2.45e-04	0	44	0	796917760	23	4441
2026-01-19 11:40:57.73	299.09	28.63	-31.3	-33.1	12.2	2.10e-04	0	44	0	797966336	23	4411
2026-01-19 11:40:58.88	299.40	28.52	-31.5	-33.5	11.9	2.28e-04	0	44	0	800063488	23	4543
2026-01-19 11:40:59.74	299.64	28.43	-31.2	-32.6	12.5	1.91e-04	0	44	0	802160640	23	4247
2026-01-19 11:41:00.89	299.96	28.32	-30.9	-31.8	13.1	2.13e-05	0	44	0	804257792	23	4009
2026-01-19 11:41:01.75	300.19	28.24	-30.9	-31.7	13.2	2.28e-05	0	44	0	805306368	23	3967
2026-01-19 11:41:02.89	300.50	28.12	-31.3	-32.9	12.4	7.17e-05	0	44	0	807403520	23	4346
2026-01-19 11:41:03.75	300.73	28.04	-31.9	-34.7	11.0	7.83e-04	0	44	0	809500672	23	5005
2026-01-19 11:41:04.90	301.04	27.92	-32.3	-35.5	10.1	6.21e-03	0	44	0	811597824	24	5240
2026-01-19 11:41:05.76	301.26	27.84	-32.3	-35.7	10.0	6.88e-03	0	44	0	812646400	24	5302
2026-01-19 11:41:06.91	301.57	27.72	-32.0	-34.7	10.8	6.31e-03	0	44	0	815792128	24	4898
2026-01-19 11:41:07.77	301.79	27.64	-31.5	-33.1	11.9	1.09e-03	0	44	0	816840704	24	4333
2026-01-19 11:41:08.91	302.09	27.52	-31.3	-32.6	12.2	3.69e-04	0	44	0	818937856	24	4162
2026-01-19 11:41:09.77	302.31	27.44	-31.3	-32.8	12.4	2.69e-04	0	44	0	821035008	23	4322
2026-01-19 11:41:10.92	302.61	27.32	-31.6	-33.8	11.8	3.28e-04	0	44	0	823132160	23	4661
2026-01-19 11:41:11.77	302.82	27.24	-32.0	-35.0	10.9	9.58e-04	0	44	0	824180736	23	5108
2026-01-19 11:41:12.93	303.12	27.12	-32.5	-36.4	9.5	1.05e-02	0	44	0	826277888	24	5622
2026-01-19 11:41:13.79	303.34	27.03	-32.3	-35.3	9.9	1.42e-02	0	44	0	828375040	25	5056
2026-01-19 11:41:14.93	303.62	26.92	-32.0	-34.1	10.7	3.94e-03	0	44	0	830472192	25	4610
2026-01-19 11:41:15.79	303.84	26.83	-31.8	-33.5	11.2	2.83e-03	0	44	0	831520768	25	4367
2026-01-19 11:41:16.93	304.12	26.71	-31.4	-32.9	12.0	6.69e-04	0	44	0	833617920	24	4260
2026-01-19 11:41:17.79	304.33	26.63	-31.7	-33.6	11.5	5.32e-04	0	44	0	835715072	24	4483
2026-01-19 11:41:18.94	304.61	26.51	-31.6	-33.5	11.5	6.64e-04	0	44	0	837812224	24	4458
2026-01-19 11:41:19.80	304.82	26.42	-31.7	-33.7	11.4	8.66e-04	0	44	0	839909376	24	4538
2026-01-19 11:41:20.95	305.10	26.30	-31.9	-34.3	11.0	2.17e-03	0	44	0	842006528	24	4751
2026-01-19 11:41:21.80	305.30	26.21	-31.9	-34.1	11.1	2.21e-03	0	44	0	843055104	24	4685
2026-01-19 11:41:22.95	305.58	26.10	-31.6	-33.2	11.7	7.19e-04	0	44	0	845152256	24	4365
2026-01-19 11:41:23.80	305.78	26.01	-31.4	-32.8	12.1	5.08e-04	0	44	0	847249408	24	4220
2026-01-19 11:41:24.95	306.05	25.89	-31.8	-34.0	11.2	5.30e-04	0	44	0	849346560	24	4640
2026-01-19 11:41:25.81	306.25	25.80	-31.9	-34.3	11.0	1.41e-03	0	44	0	850395136	24	4748
2026-01-19 11:41:26.96	306.52	25.68	-32.3	-35.5	10.1	4.20e-03	0	44	0	852492288	24	5249
2026-01-19 11:41:27.82	306.72	25.59	-32.6	-36.3	9.1	1.30e-02	0	44	0	854589440	25	5488
2026-01-19 11:41:28.96	306.98	25.48	-32.7	-36.6	8.8	2.83e-02	0	44	0	856686592	25	5652
2026-01-19 11:41:29.82	307.18	25.39	-32.7	-36.8	8.7	3.45e-02	0	44	0	857735168	25	5729
2026-01-19 11:41:30.96	307.43	25.27	-32.3	-35.2	9.9	1.54e-02	0	44	0	860880896	25	5021
2026-01-19 11:41:31.82	307.63	25.18	-32.0	-34.2	10.6	4.56e-03	0	44	0	861929472	25	4644
2026-01-19 11:41:32.98	307.89	25.06	-32.1	-34.3	10.6	2.52e-03	0	44	0	864026624	25	4659
2026-01-19 11:41:33.84	308.08	24.97	-32.3	-35.0	10.2	3.00e-03	0	44	0	866123776	25	4925
2026-01-19 11:41:34.98	308.33	24.85	-32.1	-34.6	10.4	7.10e-03	0	44	0	868220928	25	4795
2026-01-19 11:41:35.84	308.52	24.76	-32.3	-35.1	10.1	6.52e-03	0	44	0	869269504	25	4964
2026-01-19 11:41:36.99	308.77	24.65	-32.5	-35.9	9.4	1.28e-02	0	44	0	871366656	25	5316
2026-01-19 11:41:37.85	308.95	24.56	-32.2	-35.0	10.1	1.22e-02	0	44	0	873463808	25	4941
2026-01-19 11:41:39.00	309.20	24.44	-31.7	-33.8	11.3	1.44e-03	0	44	0	875560960	24	4568
2026-01-19 11:41:39.86	309.39	24.35	-31.4	-32.7	12.1	3.47e-04	0	44	0	876609536	24	4195
2026-01-19 11:41:41.00	309.63	24.23	-31.1	-32.5	12.6	1.10e-04	0	44	0	878706688	23	4222
2026-01-19 11:41:41.86	309.81	24.14	-31.2	-32.6	12.5	1.22e-04	0	44	0	880803840	23	4237
2026-01-19 11:41:43.01	310.05	24.02	-31.6	-34.0	11.5	3.83e-04	0	44	0	882900992	23	4733
2026-01-19 11:41:43.88	310.23	23.93	-31.8	-34.6	11.1	1.39e-03	0	44	0	884998144	23	4950
2026-01-19 11:41:45.01	310.47	23.81	-32.2	-35.4	10.1	2.41e-03	0	44	0	887095296	24	5201
2026-01-19 11:41:45.87	310.64	23.73	-32.0	-34.8	10.6	6.05e-03	0	44	0	888143872	24	4963
2026-01-19 11:41:47.02	310.88	23.61	-31.6	-33.3	11.6	1.43e-03	0	44	0	890241024	24	4397
2026-01-19 11:41:47.88	311.05	23.52	-31.2	-32.8	12.3	2.83e-04	0	44	0	892338176	23	4312
2026-01-19 11:41:49.03	311.28	23.40	-31.0	-32.1	12.8	4.57e-05	0	44	0	894435328	23	4100
2026-01-19 11:41:49.89	311.46	23.31	-30.9	-31.8	13.0	3.50e-05	0	44	0	895483904	23	4007
2026-01-19 11:41:51.04	311.69	23.19	-31.2	-32.7	12.4	6.56e-05	0	44	0	897581056	23	4287
2026-01-19 11:41:51.90	311.86	23.10	-31.5	-33.6	11.8	2.30e-04	0	44	0	899678208	23	4582
2026-01-19 11:41:53.04	312.08	22.98	-31.8	-34.6	11.1	1.37e-03	0	44	0	901775360	23	4960
2026-01-19 11:41:53.91	312.25	22.90	-32.0	-34.9	10.5	3.08e-03	0	44	0	903872512	24	5013
2026-01-19 11:41:55.06	312.47	22.78	-32.1	-34.9	10.4	3.49e-03	0	44	0	905969664	24	5015
2026-01-19 11:41:55.92	312.64	22.69	-31.9	-34.4	10.8	3.71e-03	0	44	0	907018240	24	4790
2026-01-19 11:41:57.06	312.86	22.57	-31.6	-33.4	11.5	1.18e-03	0	44	0	909115392	24	4448
2026-01-19 11:41:57.92	313.02	22.48	-31.3	-33.0	12.2	3.86e-04	0	44	0	911212544	23	4380
2026-01-19 11:41:59.07	313.24	22.37	-31.1	-32.5	12.6	1.60e-04	0	44	0	913309696	23	4213
2026-01-19 11:41:59.93	313.40	22.28	-31.1	-32.6	12.4	1.20e-04	0	44	0	914358272	23	4262
2026-01-19 11:42:01.08	313.61	22.16	-30.9	-31.9	12.8	1.37e-04	0	44	0	916455424	23	4053
2026-01-19 11:42:01.93	313.77	22.07	-30.9	-32.0	12.8	4.95e-05	0	44	0	918552576	23	4085
2026-01-19 11:42:03.07	313.98	21.96	-30.8	-31.7	13.0	4.88e-05	0	44	0	920649728	23	3997
2026-01-19 11:42:03.93	314.14	21.87	-30.7	-31.9	13.2	2.74e-05	0	44	0	922746880	22	4139
2026-01-19 11:42:05.08	314.35	21.75	-30.4	-31.0	13.7	1.83e-05	0	44	0	924844032	22	3885
2026-01-19 11:42:05.93	314.50	21.67	-30.0	-30.7	14.2	5.30e-06	0	44	0	925892608	21	3881
2026-01-19 11:42:07.07	314.71	21.55	-29.8	-30.6	14.6	7.00e-07	0	44	0	927989760	20	3952
2026-01-19 11:42:07.92	314.86	21.46	-30.1	-31.2	14.2	0.00e+00	0	44	0	930086912	20	4123
2026-01-19 11:42:09.07	315.06	21.35	-30.0	-31.0	14.4	2.20e-06	0	44	0	932184064	20	4034
2026-01-19 11:42:09.93	315.21	21.26	-30.0	-31.2	14.2	0.00e+00	0	44	0	933232640	20	4101
2026-01-19 11:42:11.06	315.41	21.15	-30.4	-32.1	13.7	5.30e-06	0	44	0	935329792	20	4366
2026-01-19 11:42:11.92	315.56	21.06	-30.6	-32.1	13.4	7.60e-06	0	44	0	937426944	21	4291
2026-01-19 11:42:13.06	315.76	20.94	-30.7	-32.5	13.0	2.74e-05	0	44	0	939524096	21	4429
2026-01-19 11:42:13.92	315.91	20.86	-30.8	-32.8	13.0	3.66e-05	0	44	0	940572672	21	4514
2026-01-19 11:42:15.06	316.10	20.74	-31.0	-32.7	12.5	9.46e-05	0	44	0	942669824	22	4400
2026-01-19 11:42:15.92	316.25	20.66	-30.9	-32.4	12.7	9.46e-05	0	44	0	944766976	22	4314
2026-01-19 11:42:17.07	316.44	20.54	-30.8	-32.3	12.8	4.11e-05	0	44	0	946864128	22	4288
2026-01-19 11:42:17.93	316.58	20.46	-30.7	-32.0	13.0	5.87e-05	0	44	0	948961280	22	4193
2026-01-19 11:42:19.08	316.77	20.34	-30.9	-32.4	12.8	5.03e-05	0	44	0	951058432	22	4314
2026-01-19 11:42:19.94	316.92	20.26	-30.7	-32.0	13.0	6.10e-05	0	44	0	952107008	22	4167
2026-01-19 11:42:21.09	317.11	20.14	-30.4	-31.2	13.5	1.60e-05	0	44	0	954204160	22	3943
2026-01-19 11:42:21.96	317.25	20.05	-30.2	-31.2	13.8	1.06e-05	0	44	0	956301312	21	4020
2026-01-19 11:42:23.10	317.43	19.94	-30.4	-31.6	13.6	8.30e-06	0	44	0	958398464	21	4162
2026-01-19 11:42:23.96	317.57	19.86	-30.4	-31.7	13.5	7.60e-06	0	44	0	959447040	21	4174
2026-01-19 11:42:25.11	317.76	19.74	-30.3	-31.5	13.6	9.90e-06	0	44	0	961544192	21	4107
2026-01-19 11:42:25.97	317.89	19.66	-30.3	-31.5	13.6	1.06e-05	0	44	0	963641344	21	4115
2026-01-19 11:42:27.11	318.07	19.55	-30.5	-31.8	13.4	1.37e-05	0	44	0	965738496	21	4213
2026-01-19 11:42:27.98	318.21	19.46	-30.4	-31.7	13.5	1.37e-05	0	44	0	967835648	21	4177
2026-01-19 11:42:29.12	318.39	19.35	-30.3	-31.4	13.7	5.30e-06	0	44	0	969932800	21	4097
2026-01-19 11:42:29.97	318.52	19.27	-30.3	-31.3	13.7	5.30e-06	0	44	0	970981376	21	4068
2026-01-19 11:42:31.12	318.70	19.15	-30.4	-31.6	13.6	6.80e-06	0	44	0	973078528	21	4148
2026-01-19 11:42:31.97	318.83	19.07	-30.3	-31.5	13.7	4.50e-06	0	44	0	975175680	21	4108
2026-01-19 11:42:33.11	319.00	18.96	-30.3	-31.3	13.7	1.50e-06	0	44	0	977272832	21	4067
2026-01-19 11:42:33.97	319.13	18.88	-30.5	-31.8	13.4	6.80e-06	0	44	0	978321408	21	4208
2026-01-19 11:42:35.12	319.30	18.76	-30.4	-31.6	13.5	1.14e-05	0	44	0	980418560	21	4144
2026-01-19 11:42:35.97	319.43	18.68	-30.2	-31.1	13.9	1.50e-06	0	44	0	982515712	21	4001
2026-01-19 11:42:37.12	319.60	18.57	-30.2	-31.0	13.9	1.50e-06	0	44	0	984612864	21	3982
2026-01-19 11:42:37.98	319.73	18.49	-30.2	-31.2	13.8	4.50e-06	0	44	0	985661440	21	4035
2026-01-19 11:42:39.13	319.90	18.38	-30.4	-31.7	13.5	7.60e-06	0	44	0	987758592	21	4168
2026-01-19 11:42:39.99	320.02	18.30	-30.4	-31.5	13.6	1.06e-05	0	44	0	989855744	21	4124
2026-01-19 11:42:41.14	320.19	18.19	-30.3	-31.3	13.7	9.90e-06	0	44	0	991952896	21	4065
2026-01-19 11:42:42.00	320.31	18.10	-30.3	-31.3	13.7	9.10e-06	0	44	0	994050048	21	4064
2026-01-19 11:42:43.15	320.48	17.99	-30.2	-31.1	13.9	6.10e-06	0	44	0	996147200	21	3996
2026-01-19 11:42:44.01	320.60	17.91	-30.2	-31.2	13.8	1.50e-06	0	44	0	997195776	21	4029
2026-01-19 11:42:45.15	320.76	17.80	-29.9	-30.4	14.2	3.80e-06	0	44	0	999292928	21	3810
2026-01-19 11:42:46.01	320.88	17.72	-29.8	-30.6	14.4	7.00e-07	0	44	0	1001390080	20	3945
2026-01-19 11:42:47.16	321.04	17.61	-29.9	-30.9	14.2	7.00e-07	0	44	0	1003487232	20	4041
2026-01-19 11:42:48.02	321.16	17.53	-29.7	-30.3	14.6	7.00e-07	0	44	0	1004535808	20	3878
2026-01-19 11:42:49.16	321.32	17.43	-29.5	-30.0	14.8	0.00e+00	0	44	0	1006632960	20	3776
2026-01-19 11:42:50.02	321.44	17.34	-29.7	-30.2	14.7	0.00e+00	0	44	0	1008730112	20	3846
2026-01-19 11:42:51.17	321.60	17.24	-29.8	-30.6	14.4	0.00e+00	0	44	0	1010827264	20	3952
2026-01-19 11:42:52.03	321.71	17.16	-30.2	-31.7	13.8	1.50e-06	0	44	0	1012924416	20	4267
2026-01-19 11:42:53.17	321.87	17.05	-30.5	-32.0	13.3	6.80e-06	0	44	0	1015021568	21	4255
2026-01-19 11:42:54.03	321.98	16.97	-30.7	-32.4	12.9	1.60e-05	0	44	0	1016070144	21	4403
2026-01-19 11:42:55.18	322.14	16.86	-30.8	-32.8	12.7	4.80e-05	0	44	0	1018167296	21	4521
2026-01-19 11:42:56.05	322.25	16.78	-30.9	-33.1	12.5	7.78e-05	0	44	0	1020264448	21	4637
2026-01-19 11:42:57.20	322.40	16.68	-30.8	-32.9	12.6	7.93e-05	0	44	0	1022361600	21	4557
2026-01-19 11:42:58.06	322.51	16.60	-30.7	-32.6	12.7	7.70e-05	0	44	0	1023410176	21	4470
2026-01-19 11:42:59.21	322.66	16.49	-30.5	-32.1	13.2	7.09e-05	0	44	0	1025507328	21	4293
2026-01-19 11:43:00.07	322.78	16.41	-30.7	-32.5	12.8	4.57e-05	0	44	0	1027604480	21	4421
2026-01-19 11:43:01.22	322.92	16.31	-30.6	-32.2	13.1	4.88e-05	0	44	0	1029701632	21	4330
2026-01-19 11:43:02.08	323.03	16.23	-30.7	-32.6	12.8	4.34e-05	0	44	0	1031798784	21	4464
2026-01-19 11:43:03.22	323.18	16.13	-30.6	-32.2	13.0	4.73e-05	0	44	0	1032847360	21	4348
2026-01-19 11:43:04.08	323.29	16.05	-30.5	-32.1	13.1	1.90e-05	0	44	0	1034944512	21	4306
2026-01-19 11:43:05.22	323.43	15.94	-30.6	-32.2	13.1	1.90e-05	0	44	0	1037041664	21	4317
2026-01-19 11:43:06.08	323.54	15.87	-30.5	-32.0	13.2	2.59e-05	0	44	0	1039138816	21	4270
2026-01-19 11:43:07.23	323.68	15.76	-30.7	-32.4	12.9	4.65e-05	0	44	0	1041235968	21	4418
2026-01-19 11:43:08.09	323.79	15.69	-30.8	-32.8	12.6	8.31e-05	0	44	0	1042284544	21	4543
2026-01-19 11:43:09.24	323.93	15.58	-30.8	-32.8	12.6	8.08e-05	0	44	0	1044381696	21	4527
2026-01-19 11:43:10.10	324.03	15.50	-30.9	-33.1	12.4	1.23e-04	0	44	0	1046478848	21	4652
2026-01-19 11:43:11.25	324.17	15.40	-30.8	-32.9	12.6	1.49e-04	0	44	0	1048576000	21	4564
2026-01-19 11:43:12.10	324.27	15.33	-31.1	-33.1	12.2	1.60e-04	0	44	0	1049624576	22	4538
2026-01-19 11:43:13.26	324.41	15.22	-31.1	-33.2	12.1	2.02e-04	0	44	0	1051721728	22	4569
2026-01-19 11:43:14.11	324.51	15.15	-31.1	-33.3	11.9	2.56e-04	0	44	0	1053818880	22	4614
2026-01-19 11:43:15.26	324.65	15.05	-31.1	-33.3	11.9	4.43e-04	0	44	0	1055916032	22	4630
2026-01-19 11:43:16.12	324.75	14.97	-31.2	-33.5	11.8	5.72e-04	0	44	0	1058013184	22	4703
2026-01-19 11:43:17.27	324.89	14.87	-31.4	-34.2	11.2	6.14e-04	0	44	0	1060110336	22	4964
2026-01-19 11:43:18.12	324.99	14.79	-31.4	-34.1	11.4	1.30e-03	0	44	0	1061158912	22	4902
2026-01-19 11:43:19.26	325.12	14.69	-31.5	-34.3	11.1	1.12e-03	0	44	0	1063256064	22	5020
2026-01-19 11:43:20.12	325.22	14.62	-31.5	-34.1	11.0	1.32e-03	0	44	0	1065353216	23	4847
2026-01-19 11:43:21.27	325.35	14.52	-31.6	-34.3	10.8	2.55e-03	0	44	0	1067450368	23	4913
2026-01-19 11:43:22.12	325.45	14.44	-31.6	-34.1	11.0	1.56e-03	0	44	0	1068498944	23	4849
2026-01-19 11:43:23.27	325.58	14.34	-31.5	-34.1	10.9	2.07e-03	0	44	0	1070596096	23	4850
2026-01-19 11:43:24.13	325.67	14.27	-31.5	-33.9	11.1	2.65e-03	0	44	0	1072693248	23	4765
2026-01-19 11:43:25.27	325.80	14.17	-31.5	-33.9	11.1	1.71e-03	0	44	0	1074790400	23	4749
2026-01-19 11:43:26.12	325.90	14.10	-31.5	-34.1	10.9	2.12e-03	0	44	0	1076887552	23	4821
2026-01-19 11:43:27.27	326.02	14.00	-31.5	-34.1	10.9	2.13e-03	0	44	0	1077936128	23	4826
2026-01-19 11:43:28.13	326.12	13.93	-31.3	-33.4	11.4	1.69e-03	0	44	0	1080033280	23	4580
2026-01-19 11:43:29.27	326.24	13.83	-31.0	-32.6	12.0	6.58e-04	0	44	0	1082130432	23	4299
2026-01-19 11:43:30.14	326.34	13.75	-30.8	-32.3	12.5	1.52e-04	0	44	0	1084227584	22	4294
2026-01-19 11:43:31.28	326.46	13.66	-30.7	-32.1	12.7	8.31e-05	0	44	0	1086324736	22	4232
2026-01-19 11:43:32.15	326.55	13.58	-30.7	-32.0	12.7	6.02e-05	0	44	0	1087373312	22	4197
2026-01-19 11:43:33.29	326.68	13.49	-30.6	-31.8	12.9	4.50e-05	0	44	0	1089470464	22	4147
2026-01-19 11:43:34.14	326.77	13.41	-30.7	-32.1	12.7	7.01e-05	0	44	0	1091567616	22	4218
2026-01-19 11:43:35.30	326.89	13.32	-30.4	-31.2	13.3	2.89e-05	0	44	0	1093664768	22	3958
2026-01-19 11:43:36.16	326.98	13.24	-30.5	-31.6	13.0	2.51e-05	0	44	0	1094713344	22	4070
2026-01-19 11:43:37.31	327.10	13.15	-30.4	-31.2	13.2	4.42e-05	0	44	0	1096810496	22	3946
2026-01-19 11:43:38.17	327.19	13.08	-30.3	-31.1	13.3	2.74e-05	0	44	0	1098907648	22	3931
2026-01-19 11:43:39.31	327.31	12.98	-30.7	-32.1	12.7	5.41e-05	0	44	0	1101004800	22	4219
2026-01-19 11:43:40.18	327.40	12.91	-30.4	-31.4	13.0	6.10e-05	0	44	0	1103101952	22	4028
2026-01-19 11:43:41.32	327.52	12.81	-30.5	-31.5	13.0	1.90e-05	0	44	0	1105199104	22	4063
2026-01-19 11:43:42.19	327.60	12.74	-30.6	-31.8	12.8	5.41e-05	0	44	0	1106247680	22	4146
2026-01-19 11:43:43.34	327.72	12.65	-30.6	-31.8	12.8	4.65e-05	0	44	0	1108344832	22	4136
2026-01-19 11:43:44.19	327.81	12.58	-30.8	-32.5	12.3	7.78e-05	0	44	0	1110441984	22	4365
2026-01-19 11:43:45.34	327.92	12.48	-30.9	-32.7	12.2	2.68e-04	0	44	0	1112539136	22	4427
2026-01-19 11:43:46.20	328.01	12.41	-31.0	-33.0	12.0	2.50e-04	0	44	0	1113587712	22	4519
2026-01-19 11:43:47.35	328.12	12.32	-31.1	-33.4	11.7	3.91e-04	0	44	0	1115684864	22	4678
2026-01-19 11:43:48.20	328.21	12.25	-31.1	-33.3	11.8	7.21e-04	0	44	0	1117782016	22	4630
2026-01-19 11:43:49.35	328.32	12.15	-31.2	-33.7	11.5	5.18e-04	0	44	0	1119879168	22	4777
2026-01-19 11:43:50.21	328.40	12.08	-31.3	-33.9	11.3	1.00e-03	0	44	0	1121976320	22	4866
2026-01-19 11:43:51.35	328.51	11.99	-31.1	-33.4	11.6	7.74e-04	0	44	0	1124073472	22	4698
2026-01-19 11:43:52.22	328.60	11.92	-31.3	-34.1	11.2	8.51e-04	0	44	0	1125122048	22	4938
2026-01-19 11:43:53.36	328.71	11.83	-31.2	-33.6	11.5	1.52e-03	0	44	0	1127219200	22	4737
2026-01-19 11:43:54.22	328.79	11.76	-31.2	-33.8	11.4	8.33e-04	0	44	0	1129316352	22	4844
2026-01-19 11:43:55.37	328.90	11.67	-31.5	-34.5	10.9	2.27e-03	0	44	0	1131413504	22	5101
2026-01-19 11:43:56.22	328.98	11.60	-31.2	-33.6	11.5	1.29e-03	0	44	0	1132462080	22	4770
2026-01-19 11:43:57.36	329.09	11.51	-31.1	-33.3	11.7	5.35e-04	0	44	0	1134559232	22	4636
2026-01-19 11:43:58.23	329.17	11.44	-31.1	-33.3	11.7	5.64e-04	0	44	0	1136656384	22	4667
2026-01-19 11:43:59.37	329.28	11.35	-30.9	-32.9	12.0	2.98e-04	0	44	0	1138753536	22	4506
2026-01-19 11:44:00.24	329.36	11.28	-31.2	-33.6	11.5	4.75e-04	0	44	0	1139802112	22	4744
2026-01-19 11:44:01.39	329.46	11.19	-31.0	-33.2	11.8	6.28e-04	0	44	0	1142947840	22	4607
2026-01-19 11:44:02.24	329.54	11.12	-31.0	-33.0	11.9	4.10e-04	0	44	0	1143996416	22	4536
2026-01-19 11:44:03.39	329.65	11.03	-31.1	-33.5	11.5	7.15e-04	0	44	0	1146093568	22	4730
2026-01-19 11:44:04.25	329.72	10.97	-31.1	-33.3	11.6	7.12e-04	0	44	0	1148190720	22	4648
2026-01-19 11:44:05.40	329.83	10.88	-31.2	-33.8	11.3	9.09e-04	0	44	0	1150287872	22	4826
2026-01-19 11:44:06.26	329.91	10.81	-31.3	-34.0	11.1	1.41e-03	0	44	0	1151336448	22	4926
2026-01-19 11:44:07.41	330.01	10.72	-31.1	-33.5	11.5	9.86e-04	0	44	0	1153433600	22	4741
2026-01-19 11:44:08.26	330.08	10.65	-31.2	-33.7	11.3	7.29e-04	0	44	0	1155530752	22	4823
2026-01-19 11:44:09.41	330.19	10.56	-31.3	-34.1	11.0	2.07e-03	0	44	0	1157627904	22	4963
2026-01-19 11:44:10.28	330.26	10.50	-31.3	-34.0	11.1	1.39e-03	0	44	0	1158676480	22	4923
2026-01-19 11:44:11.41	330.36	10.41	-31.4	-34.3	10.9	1.78e-03	0	44	0	1160773632	22	5027
2026-01-19 11:44:12.27	330.44	10.34	-31.2	-33.7	11.3	1.92e-03	0	44	0	1162870784	22	4813
2026-01-19 11:44:13.42	330.54	10.25	-31.4	-34.3	10.9	1.59e-03	0	44	0	1164967936	22	5037
2026-01-19 11:44:14.27	330.61	10.19	-31.2	-33.8	11.2	1.78e-03	0	44	0	1167065088	22	4839
2026-01-19 11:44:15.42	330.71	10.10	-31.2	-33.8	11.2	1.19e-03	0	44	0	1169162240	22	4836
2026-01-19 11:44:16.28	330.78	10.04	-31.3	-34.1	11.0	1.82e-03	0	44	0	1170210816	22	4968
2026-01-19 11:44:17.42	330.88	9.95	-31.0	-33.1	11.7	1.08e-03	0	44	0	1172307968	22	4608
2026-01-19 11:44:18.28	330.95	9.88	-30.9	-32.9	11.8	4.55e-04	0	44	0	1174405120	22	4529
2026-01-19 11:44:19.42	331.05	9.80	-30.9	-33.0	11.8	5.39e-04	0	44	0	1176502272	22	4547
2026-01-19 11:44:20.28	331.12	9.73	-30.7	-32.3	12.2	2.93e-04	0	44	0	1177550848	22	4336
2026-01-19 11:44:21.43	331.22	9.65	-30.9	-32.9	11.8	2.68e-04	0	44	0	1179648000	22	4517
2026-01-19 11:44:22.29	331.29	9.58	-30.8	-32.5	12.1	4.46e-04	0	44	0	1181745152	22	4376
2026-01-19 11:44:23.44	331.38	9.50	-30.6	-32.1	12.4	1.36e-04	0	44	0	1183842304	22	4267
2026-01-19 11:44:24.30	331.45	9.43	-30.8	-32.7	12.0	2.78e-04	0	44	0	1184890880	22	4444
2026-01-19 11:44:25.44	331.55	9.35	-30.4	-31.6	12.6	1.17e-04	0	44	0	1188036608	22	4096
2026-01-19 11:44:26.30	331.62	9.28	-30.5	-31.8	12.5	1.12e-04	0	44	0	1189085184	22	4173
2026-01-19 11:44:27.45	331.71	9.20	-30.7	-32.4	12.1	2.40e-04	0	44	0	1191182336	22	4376
2026-01-19 11:44:28.31	331.78	9.13	-30.6	-32.1	12.3	1.95e-04	0	44	0	1193279488	22	4278
2026-01-19 11:44:29.45	331.87	9.05	-30.8	-32.5	12.1	2.53e-04	0	44	0	1195376640	22	4405
2026-01-19 11:44:30.31	331.94	8.99	-30.7	-32.4	12.1	2.87e-04	0	44	0	1196425216	22	4378
2026-01-19 11:44:31.46	332.03	8.90	-30.8	-32.6	12.0	2.18e-04	0	44	0	1198522368	22	4429
2026-01-19 11:44:32.32	332.10	8.84	-31.0	-33.2	11.5	3.92e-04	0	44	0	1200619520	22	4646
2026-01-19 11:44:33.47	332.19	8.75	-30.8	-32.6	11.9	3.91e-04	0	44	0	1202716672	22	4445
2026-01-19 11:44:34.33	332.26	8.69	-30.8	-32.6	11.9	4.40e-04	0	44	0	1203765248	22	4450
2026-01-19 11:44:35.47	332.35	8.61	-30.9	-32.9	11.7	5.64e-04	0	44	0	1206910976	22	4537
2026-01-19 11:44:36.33	332.42	8.54	-30.9	-32.9	11.7	4.56e-04	0	44	0	1207959552	22	4555
2026-01-19 11:44:37.48	332.50	8.46	-30.9	-32.9	11.7	4.94e-04	0	44	0	1210056704	22	4528
2026-01-19 11:44:38.34	332.57	8.40	-30.9	-32.9	11.7	4.78e-04	0	44	0	1212153856	22	4546
2026-01-19 11:44:39.49	332.66	8.32	-31.0	-33.2	11.5	7.69e-04	0	44	0	1214251008	22	4652
2026-01-19 11:44:40.34	332.72	8.26	-30.9	-33.1	11.5	7.85e-04	0	44	0	1215299584	22	4603
2026-01-19 11:44:41.48	332.81	8.17	-31.0	-33.4	11.3	7.54e-04	0	44	0	1217396736	22	4736
2026-01-19 11:44:42.34	332.88	8.11	-31.1	-33.6	11.2	1.02e-03	0	44	0	1219493888	22	4820
2026-01-19 11:44:43.48	332.96	8.03	-31.0	-33.3	11.4	9.90e-04	0	44	0	1221591040	22	4681
2026-01-19 11:44:44.34	333.03	7.97	-31.0	-33.3	11.4	1.03e-03	0	44	0	1222639616	22	4683
2026-01-19 11:44:45.48	333.11	7.89	-31.0	-33.3	11.4	1.15e-03	0	44	0	1224736768	22	4690
2026-01-19 11:44:46.34	333.17	7.83	-31.0	-33.4	11.2	1.02e-03	0	44	0	1226833920	22	4748
2026-01-19 11:44:47.48	333.26	7.75	-31.1	-33.6	11.1	1.76e-03	0	44	0	1228931072	22	4816
2026-01-19 11:44:48.35	333.32	7.68	-31.0	-33.5	11.2	1.62e-03	0	44	0	1229979648	22	4777
2026-01-19 11:44:49.49	333.41	7.60	-31.2	-34.0	10.7	2.50e-03	0	44	0	1233125376	22	4988
2026-01-19 11:44:50.35	333.47	7.54	-31.1	-33.6	11.0	1.66e-03	0	44	0	1234173952	22	4826
2026-01-19 11:44:51.50	333.55	7.46	-31.0	-33.5	11.1	1.28e-03	0	44	0	1236271104	22	4790
2026-01-19 11:44:52.36	333.61	7.40	-30.9	-33.1	11.4	1.21e-03	0	44	0	1238368256	22	4637
2026-01-19 11:44:53.51	333.70	7.32	-31.1	-33.7	11.0	1.87e-03	0	44	0	1240465408	22	4854
2026-01-19 11:44:54.37	333.76	7.26	-31.1	-33.6	11.0	1.74e-03	0	44	0	1241513984	22	4829
2026-01-19 11:44:55.52	333.84	7.18	-31.1	-33.7	10.9	1.89e-03	0	44	0	1243611136	22	4872
2026-01-19 11:44:56.38	333.90	7.12	-31.1	-33.6	11.0	1.92e-03	0	44	0	1245708288	22	4831
2026-01-19 11:44:57.53	333.98	7.04	-31.7	-35.3	9.8	2.19e-03	0	44	0	1247805440	23	5450
2026-01-19 11:44:58.39	334.04	6.98	-33.7	-46.1	3.8	1.49e+00	0	44	104	1247805440	27	14919
2026-01-19 11:44:59.54	334.12	6.90	-34.0	-46.7	3.8	1.49e+00	0	44	104	1247805440	27	15637

#Closed at: 2026-01-19 11:45:00
#Recorded file [1247 MB]: D:/data/31010_260119_143351.dat