passes_logs/2026/01/19/R2M6_AANII_01/R2M6_AANII_01__20260119_002034_NOAA_20_JPSS-1_rec.log

#Pass ID: 20260119_002034_NOAA 20 (JPSS-1)
#Satellite: NOAA 20 (JPSS-1)
#Configuration: NOAA 20
#almurnet v.1.7.20240730
#Start time: 2026-01-19 00:20:35

#Version: 2.2.20231116
#Station: R2M6_AANII_01
#Location: 30.233357 lon 59.946436 lat
#TLE: 1 43013U 17073A   26017.93796159  .00000077  00000+0  57252-4 0  9992
#TLE: 2 43013  98.7639 318.8464 0001390  34.9771 325.1496 14.19536703423157

#Time	Az	El	Level	Level2	SNR	BER	BlckErr	Temp	State	Recorded	gain1	gain2
2026-01-19 00:20:35.47	18.14	7.05	-32.2	-39.3	4.8	1.33e+00	0	41	0	0	24	8143
2026-01-19 00:20:36.47	18.15	7.13	-32.4	-40.1	4.6	1.39e+00	0	41	104	0	25	8672
2026-01-19 00:20:37.47	18.15	7.20	-32.4	-40.4	6.1	2.49e-01	0	42	0	0	24	9027
2026-01-19 00:20:38.47	18.15	7.28	-32.5	-40.5	6.1	3.40e-01	0	42	0	1048576	24	9126
2026-01-19 00:20:39.47	18.16	7.36	-32.3	-39.4	6.8	2.25e-01	0	42	0	3145728	24	8207
2026-01-19 00:20:40.47	18.16	7.44	-32.2	-38.9	7.3	1.45e-01	0	42	0	5242880	24	7782
2026-01-19 00:20:41.47	18.17	7.52	-32.1	-38.5	7.7	9.65e-02	0	42	0	7340032	24	7484
2026-01-19 00:20:42.47	18.17	7.59	-31.9	-38.0	8.5	5.55e-02	0	42	0	8388608	23	7242
2026-01-19 00:20:43.47	18.17	7.67	-31.9	-38.1	8.4	4.66e-02	0	42	0	10485760	23	7320
2026-01-19 00:20:44.47	18.18	7.75	-32.0	-38.3	7.9	5.26e-02	0	42	0	12582912	23	7432
2026-01-19 00:20:45.47	18.18	7.83	-32.1	-38.2	7.8	7.54e-02	0	42	0	14680064	24	7325
2026-01-19 00:20:46.48	18.19	7.91	-32.1	-38.5	7.5	8.09e-02	0	42	0	16777216	24	7500
2026-01-19 00:20:47.49	18.19	7.99	-32.0	-38.1	7.8	8.29e-02	0	42	0	17825792	24	7223
2026-01-19 00:20:48.48	18.19	8.07	-32.0	-38.2	8.3	5.45e-02	0	42	0	19922944	23	7360
2026-01-19 00:20:49.49	18.20	8.15	-32.0	-38.2	8.3	4.49e-02	0	42	0	22020096	23	7362
2026-01-19 00:20:50.50	18.20	8.23	-31.9	-38.0	8.5	5.00e-02	0	42	0	24117248	23	7220
2026-01-19 00:20:51.50	18.21	8.31	-31.8	-37.6	8.9	3.26e-02	0	42	0	26214400	23	6981
2026-01-19 00:20:52.50	18.21	8.39	-31.9	-37.7	8.8	3.45e-02	0	42	0	27262976	23	7023
2026-01-19 00:20:53.51	18.21	8.48	-31.9	-37.7	8.8	2.89e-02	0	42	0	29360128	23	7019
2026-01-19 00:20:54.52	18.22	8.56	-31.9	-37.9	8.7	3.46e-02	0	42	0	31457280	23	7152
2026-01-19 00:20:55.52	18.22	8.64	-31.8	-37.6	8.9	3.29e-02	0	42	0	33554432	23	6956
2026-01-19 00:20:56.53	18.23	8.72	-31.9	-37.9	8.7	3.20e-02	0	43	0	35651584	23	7139
2026-01-19 00:20:57.53	18.23	8.81	-32.0	-38.1	8.5	4.77e-02	0	42	0	36700160	23	7293
2026-01-19 00:20:58.53	18.23	8.89	-31.9	-37.9	8.7	3.93e-02	0	42	0	38797312	23	7150
2026-01-19 00:20:59.53	18.24	8.97	-32.0	-37.6	8.5	4.29e-02	0	42	0	40894464	24	6868
2026-01-19 00:21:00.53	18.24	9.05	-32.2	-38.3	8.0	5.27e-02	0	42	0	42991616	24	7281
2026-01-19 00:21:01.54	18.25	9.14	-32.2	-38.3	8.0	7.37e-02	0	42	0	45088768	24	7319
2026-01-19 00:21:02.54	18.25	9.22	-32.0	-37.8	8.4	5.21e-02	0	42	0	46137344	24	6967
2026-01-19 00:21:03.55	18.25	9.31	-32.0	-37.9	8.8	3.85e-02	0	42	0	48234496	23	7127
2026-01-19 00:21:04.55	18.26	9.39	-31.9	-37.5	9.1	2.73e-02	0	42	0	50331648	23	6897
2026-01-19 00:21:05.56	18.26	9.48	-31.9	-37.5	9.1	2.63e-02	0	42	0	52428800	23	6842
2026-01-19 00:21:06.56	18.27	9.56	-31.9	-37.5	9.1	2.00e-02	0	42	0	54525952	23	6858
2026-01-19 00:21:07.56	18.27	9.65	-31.9	-37.5	9.1	2.53e-02	0	42	0	55574528	23	6879
2026-01-19 00:21:08.56	18.27	9.73	-31.9	-37.4	9.3	2.08e-02	0	42	0	57671680	23	6800
2026-01-19 00:21:09.58	18.28	9.82	-32.0	-37.5	8.7	2.93e-02	0	42	0	59768832	24	6773
2026-01-19 00:21:10.58	18.28	9.91	-32.2	-38.2	8.2	3.99e-02	0	43	0	61865984	24	7225
2026-01-19 00:21:11.58	18.29	9.99	-32.2	-38.3	8.1	6.46e-02	0	43	0	63963136	24	7270
2026-01-19 00:21:12.59	18.29	10.08	-32.2	-38.4	8.0	6.28e-02	0	43	0	65011712	24	7351
2026-01-19 00:21:13.59	18.29	10.17	-32.2	-38.4	8.0	6.97e-02	0	43	0	67108864	24	7352
2026-01-19 00:21:14.59	18.30	10.25	-32.2	-38.4	8.0	6.80e-02	0	43	0	69206016	24	7349
2026-01-19 00:21:15.59	18.30	10.34	-32.1	-38.0	8.3	5.58e-02	0	43	0	71303168	24	7092
2026-01-19 00:21:16.59	18.31	10.43	-32.0	-37.6	8.7	4.36e-02	0	43	0	73400320	24	6839
2026-01-19 00:21:17.59	18.31	10.52	-31.9	-37.7	9.0	3.00e-02	0	43	0	74448896	23	6985
2026-01-19 00:21:18.59	18.31	10.61	-31.9	-37.5	9.2	2.12e-02	0	43	0	76546048	23	6870
2026-01-19 00:21:19.59	18.32	10.69	-32.1	-37.7	8.7	3.00e-02	0	43	0	78643200	24	6859
2026-01-19 00:21:20.59	18.32	10.78	-32.1	-37.6	8.7	4.82e-02	0	43	0	80740352	24	6821
2026-01-19 00:21:21.60	18.32	10.87	-31.8	-37.1	9.5	2.47e-02	0	43	0	81788928	23	6609
2026-01-19 00:21:22.60	18.33	10.96	-31.6	-36.4	10.1	1.09e-02	0	43	0	83886080	23	6226
2026-01-19 00:21:23.61	18.33	11.05	-31.5	-35.9	10.5	7.70e-03	0	43	0	85983232	23	5986
2026-01-19 00:21:24.61	18.34	11.15	-31.4	-36.1	10.7	4.42e-03	0	43	0	88080384	22	6198
2026-01-19 00:21:25.62	18.34	11.24	-31.3	-35.8	11.0	4.39e-03	0	43	0	90177536	22	6030
2026-01-19 00:21:26.62	18.34	11.33	-31.4	-36.0	10.8	5.42e-03	0	43	0	91226112	22	6123
2026-01-19 00:21:27.63	18.35	11.42	-31.4	-35.9	10.9	3.49e-03	0	43	0	93323264	22	6088
2026-01-19 00:21:28.62	18.35	11.51	-31.2	-35.4	11.3	4.43e-03	0	43	0	95420416	22	5840
2026-01-19 00:21:29.62	18.36	11.60	-31.2	-35.2	11.4	4.10e-03	0	43	0	97517568	22	5761
2026-01-19 00:21:30.63	18.36	11.70	-31.1	-35.1	11.5	1.59e-03	0	43	0	99614720	22	5715
2026-01-19 00:21:31.63	18.36	11.79	-31.1	-35.2	11.4	3.38e-03	0	43	0	100663296	22	5744
2026-01-19 00:21:32.63	18.37	11.88	-31.2	-35.5	11.2	3.57e-03	0	43	0	102760448	22	5895
2026-01-19 00:21:33.63	18.37	11.98	-31.2	-35.4	11.3	2.11e-03	0	43	0	104857600	22	5828
2026-01-19 00:21:34.63	18.38	12.07	-31.1	-35.1	11.5	3.30e-03	0	43	0	106954752	22	5719
2026-01-19 00:21:35.64	18.38	12.17	-31.1	-34.9	11.7	3.79e-03	0	43	0	109051904	22	5627
2026-01-19 00:21:36.64	18.38	12.26	-31.0	-34.9	11.7	1.30e-03	0	43	0	110100480	22	5593
2026-01-19 00:21:37.64	18.39	12.36	-31.1	-35.0	11.6	3.16e-03	0	43	0	112197632	22	5654
2026-01-19 00:21:38.64	18.39	12.45	-31.1	-35.1	11.5	3.61e-03	0	43	0	114294784	22	5709
2026-01-19 00:21:39.64	18.39	12.55	-31.2	-35.3	11.5	1.21e-03	0	43	0	116391936	22	5773
2026-01-19 00:21:40.65	18.40	12.64	-31.2	-35.2	11.5	3.25e-03	0	43	0	118489088	22	5730
2026-01-19 00:21:41.65	18.40	12.74	-31.3	-35.6	11.2	3.66e-03	0	43	0	119537664	22	5921
2026-01-19 00:21:42.65	18.41	12.84	-31.3	-35.7	11.2	2.38e-03	0	43	0	121634816	22	5947
2026-01-19 00:21:43.66	18.41	12.94	-31.2	-35.2	11.5	3.34e-03	0	43	0	123731968	22	5742
2026-01-19 00:21:44.66	18.41	13.03	-31.1	-34.8	11.8	3.75e-03	0	43	0	125829120	22	5572
2026-01-19 00:21:45.66	18.42	13.13	-31.0	-35.1	11.9	1.12e-03	0	43	0	126877696	21	5798
2026-01-19 00:21:46.66	18.42	13.23	-30.8	-34.8	12.2	2.28e-04	0	43	0	128974848	21	5643
2026-01-19 00:21:47.66	18.43	13.33	-30.9	-35.0	12.0	3.16e-03	0	43	0	131072000	21	5761
2026-01-19 00:21:48.66	18.43	13.43	-31.0	-34.6	12.0	1.17e-03	0	43	0	133169152	22	5479
2026-01-19 00:21:49.65	18.43	13.53	-30.8	-34.8	12.2	2.71e-03	0	43	0	135266304	21	5646
2026-01-19 00:21:50.65	18.44	13.63	-30.9	-34.9	12.1	2.60e-03	0	43	0	136314880	21	5690
2026-01-19 00:21:51.65	18.44	13.73	-30.8	-34.7	12.2	1.01e-03	0	43	0	138412032	21	5627
2026-01-19 00:21:52.65	18.44	13.83	-30.8	-34.6	12.4	2.46e-03	0	43	0	140509184	21	5554
2026-01-19 00:21:53.66	18.45	13.93	-30.9	-34.8	12.2	2.13e-04	0	43	0	142606336	21	5665
2026-01-19 00:21:54.66	18.45	14.03	-30.8	-34.7	12.3	9.29e-04	0	43	0	144703488	21	5606
2026-01-19 00:21:55.67	18.46	14.14	-30.9	-34.8	12.3	2.65e-03	0	43	0	145752064	21	5633
2026-01-19 00:21:56.67	18.46	14.24	-30.8	-34.6	12.4	1.84e-04	0	43	0	147849216	21	5567
2026-01-19 00:21:57.68	18.46	14.34	-30.7	-34.4	12.6	3.14e-04	0	43	0	149946368	21	5464
2026-01-19 00:21:58.69	18.47	14.45	-30.7	-34.4	12.5	2.54e-03	0	43	0	152043520	21	5486
2026-01-19 00:21:59.69	18.47	14.55	-30.8	-34.6	12.4	2.83e-03	0	44	0	154140672	21	5560
2026-01-19 00:22:00.69	18.48	14.66	-30.8	-34.5	12.4	1.73e-04	0	43	0	155189248	21	5530
2026-01-19 00:22:01.69	18.48	14.76	-30.8	-34.4	12.5	2.35e-03	0	43	0	157286400	21	5495
2026-01-19 00:22:02.69	18.48	14.87	-30.8	-34.5	12.5	2.95e-03	0	43	0	159383552	21	5500
2026-01-19 00:22:03.69	18.49	14.97	-30.8	-34.6	12.4	1.17e-04	0	43	0	161480704	21	5545
2026-01-19 00:22:04.69	18.49	15.08	-30.8	-34.5	12.5	1.29e-04	0	43	0	163577856	21	5527
2026-01-19 00:22:05.68	18.49	15.18	-30.7	-34.2	12.7	2.98e-03	0	43	0	164626432	21	5401
2026-01-19 00:22:06.68	18.50	15.29	-30.8	-34.4	12.6	8.08e-05	0	44	0	166723584	21	5466
2026-01-19 00:22:07.68	18.50	15.40	-30.7	-34.3	12.6	8.01e-05	0	43	0	168820736	21	5434
2026-01-19 00:22:08.68	18.51	15.51	-30.7	-34.3	12.7	2.72e-03	0	43	0	170917888	21	5422
2026-01-19 00:22:09.68	18.51	15.62	-30.9	-34.8	12.3	7.36e-04	0	43	0	171966464	21	5637
2026-01-19 00:22:10.69	18.51	15.73	-30.9	-34.8	12.4	1.68e-04	0	44	0	174063616	21	5616
2026-01-19 00:22:11.70	18.52	15.84	-30.8	-34.4	12.6	1.20e-04	0	44	0	176160768	21	5461
2026-01-19 00:22:12.70	18.52	15.95	-30.7	-34.1	12.9	7.51e-04	0	43	0	178257920	21	5321
2026-01-19 00:22:13.71	18.52	16.06	-30.5	-33.7	13.1	2.74e-05	0	43	0	180355072	21	5179
2026-01-19 00:22:14.71	18.53	16.17	-30.5	-33.7	13.1	2.13e-05	0	43	0	181403648	21	5193
2026-01-19 00:22:15.71	18.53	16.28	-30.5	-33.6	13.1	2.36e-05	0	43	0	183500800	21	5149
2026-01-19 00:22:16.72	18.54	16.39	-30.5	-33.6	13.2	2.39e-03	0	43	0	185597952	21	5154
2026-01-19 00:22:17.72	18.54	16.51	-30.5	-33.7	13.1	2.51e-05	0	43	0	187695104	21	5191
2026-01-19 00:22:18.72	18.54	16.62	-30.5	-33.7	13.1	2.74e-05	0	43	0	189792256	21	5174
2026-01-19 00:22:19.72	18.55	16.73	-30.6	-33.9	13.0	2.21e-03	0	43	0	190840832	21	5258
2026-01-19 00:22:20.73	18.55	16.85	-30.6	-33.8	13.1	3.12e-05	0	43	0	192937984	21	5222
2026-01-19 00:22:21.73	18.56	16.96	-30.5	-33.5	13.3	2.13e-05	0	44	0	195035136	21	5082
2026-01-19 00:22:22.74	18.56	17.08	-30.5	-33.6	13.3	1.14e-05	0	44	0	197132288	21	5144
2026-01-19 00:22:23.74	18.56	17.20	-30.5	-33.5	13.3	1.44e-05	0	44	0	199229440	21	5104
2026-01-19 00:22:24.74	18.57	17.31	-30.5	-33.6	13.2	1.75e-05	0	44	0	200278016	21	5136
2026-01-19 00:22:25.75	18.57	17.43	-30.5	-33.7	13.2	2.28e-05	0	44	0	202375168	21	5169
2026-01-19 00:22:26.75	18.57	17.55	-30.6	-33.9	13.0	2.63e-03	0	44	0	204472320	21	5254
2026-01-19 00:22:27.76	18.58	17.67	-30.6	-33.7	13.2	2.97e-05	0	43	0	206569472	21	5185
2026-01-19 00:22:28.76	18.58	17.79	-30.5	-33.6	13.3	1.29e-05	0	44	0	208666624	21	5125
2026-01-19 00:22:29.77	18.59	17.91	-30.4	-33.3	13.5	1.06e-05	0	44	0	209715200	21	5007
2026-01-19 00:22:30.77	18.59	18.03	-30.4	-33.7	13.5	1.44e-05	0	44	0	211812352	20	5286
2026-01-19 00:22:31.77	18.59	18.15	-30.4	-33.7	13.6	8.30e-06	0	44	0	213909504	20	5272
2026-01-19 00:22:32.77	18.60	18.27	-30.4	-33.7	13.6	6.10e-06	0	43	0	216006656	20	5281
2026-01-19 00:22:33.78	18.60	18.39	-30.5	-34.0	13.4	1.37e-05	0	44	0	218103808	20	5388
2026-01-19 00:22:34.78	18.60	18.52	-30.4	-33.2	13.5	1.14e-05	0	44	0	219152384	21	4994
2026-01-19 00:22:35.78	18.61	18.64	-30.3	-33.5	13.7	5.30e-06	0	44	0	221249536	20	5178
2026-01-19 00:22:36.79	18.61	18.76	-30.3	-33.5	13.7	6.80e-06	0	44	0	223346688	20	5207
2026-01-19 00:22:37.79	18.61	18.89	-30.4	-33.7	13.6	8.30e-06	0	44	0	225443840	20	5280
2026-01-19 00:22:38.79	18.62	19.01	-30.4	-33.9	13.5	7.60e-06	0	44	0	226492416	20	5337
2026-01-19 00:22:39.79	18.62	19.14	-30.4	-33.8	13.5	9.90e-06	0	44	0	228589568	20	5305
2026-01-19 00:22:40.79	18.63	19.26	-30.4	-33.8	13.5	1.22e-05	0	44	0	230686720	20	5307
2026-01-19 00:22:41.79	18.63	19.39	-30.4	-33.8	13.5	1.22e-05	0	44	0	232783872	20	5300
2026-01-19 00:22:42.79	18.63	19.52	-30.4	-33.8	13.6	6.80e-06	0	44	0	234881024	20	5293
2026-01-19 00:22:43.79	18.64	19.65	-30.4	-33.7	13.6	7.60e-06	0	44	0	235929600	20	5267
2026-01-19 00:22:44.79	18.64	19.77	-30.6	-33.7	13.3	1.37e-05	0	44	0	238026752	21	5160
2026-01-19 00:22:45.79	18.64	19.90	-30.4	-33.3	13.6	2.05e-05	0	44	0	240123904	21	5015
2026-01-19 00:22:46.80	18.65	20.04	-30.3	-33.5	13.7	6.80e-06	0	44	0	242221056	20	5194
2026-01-19 00:22:47.81	18.65	20.17	-30.4	-33.7	13.6	5.30e-06	0	44	0	244318208	20	5277
2026-01-19 00:22:48.82	18.66	20.30	-29.5	-32.7	13.6	6.80e-06	0	44	0	245366784	20	5181
2026-01-19 00:22:49.82	18.66	20.43	-30.2	-33.2	13.2	3.80e-06	0	44	0	247463936	20	5096
2026-01-19 00:22:50.82	18.66	20.57	-30.3	-33.3	13.8	6.10e-06	0	44	0	249561088	20	5125
2026-01-19 00:22:51.82	18.67	20.70	-30.2	-33.3	12.6	6.10e-06	0	44	0	251658240	20	5099
2026-01-19 00:22:52.83	18.67	20.83	-30.3	-33.5	13.8	5.30e-06	0	44	0	253755392	20	5182
2026-01-19 00:22:53.83	18.67	20.97	-30.3	-33.3	14.0	3.00e-06	0	44	0	254803968	20	5117
2026-01-19 00:22:54.83	18.68	21.11	-30.2	-33.1	14.1	3.00e-06	0	44	0	256901120	20	5039
2026-01-19 00:22:55.82	18.68	21.24	-30.1	-32.9	14.2	1.50e-06	0	44	0	258998272	20	4964
2026-01-19 00:22:56.82	18.68	21.38	-30.1	-33.0	14.2	2.20e-06	0	44	0	261095424	20	4989
2026-01-19 00:22:57.82	18.69	21.52	-30.0	-32.7	14.3	2.28e-03	0	44	0	263192576	20	4902
2026-01-19 00:22:58.83	18.69	21.66	-30.1	-32.9	14.3	1.50e-06	0	44	0	264241152	20	4951
2026-01-19 00:22:59.82	18.70	21.79	-30.1	-32.8	14.1	2.20e-06	0	44	0	266338304	20	4923
2026-01-19 00:23:00.82	18.70	21.93	-30.2	-33.0	14.2	7.00e-07	0	44	0	268435456	20	4993
2026-01-19 00:23:01.82	18.70	22.08	-30.2	-33.0	14.2	2.01e-03	0	44	0	270532608	20	5000
2026-01-19 00:23:02.82	18.71	22.22	-30.2	-33.0	14.2	7.00e-07	0	44	0	271581184	20	4994
2026-01-19 00:23:03.82	18.71	22.36	-30.3	-33.3	14.0	4.50e-06	0	44	0	273678336	20	5088
2026-01-19 00:23:04.82	18.71	22.50	-30.3	-33.5	13.9	6.10e-06	0	44	0	275775488	20	5163
2026-01-19 00:23:05.82	18.72	22.65	-30.3	-33.5	13.9	2.20e-06	0	44	0	277872640	20	5162
2026-01-19 00:23:06.82	18.72	22.79	-30.4	-33.6	13.9	1.50e-06	0	44	0	279969792	20	5194
2026-01-19 00:23:07.83	18.72	22.94	-30.4	-33.7	13.8	6.80e-06	0	44	0	281018368	20	5251
2026-01-19 00:23:08.83	18.73	23.09	-30.5	-33.9	13.7	2.91e-04	0	44	0	283115520	20	5315
2026-01-19 00:23:09.84	18.73	23.24	-30.5	-33.5	13.6	6.10e-06	0	44	0	285212672	21	5069
2026-01-19 00:23:10.84	18.73	23.38	-30.7	-33.8	13.4	8.30e-06	0	44	0	287309824	21	5183
2026-01-19 00:23:11.85	18.74	23.54	-30.5	-33.5	13.5	3.36e-04	0	44	0	289406976	21	5073
2026-01-19 00:23:12.85	18.74	23.69	-30.5	-33.5	13.6	2.08e-03	0	44	0	290455552	21	5060
2026-01-19 00:23:13.85	18.75	23.84	-30.6	-33.6	13.5	8.30e-06	0	44	0	292552704	21	5108
2026-01-19 00:23:14.85	18.75	23.99	-30.8	-34.1	13.2	6.80e-06	0	44	0	294649856	21	5307
2026-01-19 00:23:15.85	18.75	24.14	-30.7	-33.8	13.4	2.34e-03	0	44	0	296747008	21	5174
2026-01-19 00:23:16.85	18.76	24.30	-30.5	-33.5	13.6	5.30e-06	0	44	0	298844160	21	5055
2026-01-19 00:23:17.86	18.76	24.45	-30.6	-33.7	13.5	6.80e-06	0	44	0	299892736	21	5112
2026-01-19 00:23:18.86	18.76	24.61	-30.5	-33.5	13.7	2.25e-03	0	44	0	301989888	21	5041
2026-01-19 00:23:19.86	18.77	24.76	-30.7	-33.8	13.5	2.04e-03	0	44	0	304087040	21	5161
2026-01-19 00:23:20.87	18.77	24.92	-30.6	-33.7	13.5	1.83e-05	0	44	0	306184192	21	5145
2026-01-19 00:23:21.87	18.77	25.08	-30.7	-33.9	13.4	2.06e-03	0	44	0	308281344	21	5196
2026-01-19 00:23:22.88	18.78	25.24	-30.7	-33.8	13.5	2.52e-03	0	44	0	309329920	21	5158
2026-01-19 00:23:23.88	18.78	25.40	-30.6	-33.5	13.6	9.10e-06	0	44	0	311427072	21	5070
2026-01-19 00:23:24.88	18.78	25.56	-30.6	-33.6	13.6	2.31e-03	0	44	0	313524224	21	5084
2026-01-19 00:23:25.89	18.79	25.73	-30.7	-33.9	13.4	2.42e-03	0	44	0	315621376	21	5201
2026-01-19 00:23:26.89	18.79	25.89	-30.6	-33.7	13.5	6.17e-05	0	44	0	317718528	21	5133
2026-01-19 00:23:27.90	18.79	26.06	-30.7	-33.8	13.5	1.14e-05	0	44	0	318767104	21	5180
2026-01-19 00:23:28.90	18.80	26.22	-30.8	-34.1	13.3	2.24e-03	0	44	0	320864256	21	5297
2026-01-19 00:23:29.90	18.80	26.39	-30.8	-34.2	13.2	1.82e-04	0	44	0	322961408	21	5310
2026-01-19 00:23:30.91	18.81	26.56	-30.9	-34.4	13.1	2.09e-03	0	44	0	325058560	21	5386
2026-01-19 00:23:31.91	18.81	26.73	-31.0	-34.7	12.9	2.51e-03	0	44	0	326107136	21	5498
2026-01-19 00:23:32.91	18.81	26.90	-31.1	-34.5	12.8	2.33e-04	0	44	0	328204288	22	5312
2026-01-19 00:23:33.92	18.82	27.07	-31.2	-34.8	12.6	2.44e-03	0	44	0	330301440	22	5443
2026-01-19 00:23:34.92	18.82	27.24	-31.3	-35.1	12.4	1.37e-04	0	44	0	332398592	22	5578
2026-01-19 00:23:35.93	18.82	27.41	-31.4	-35.3	12.3	2.78e-04	0	44	0	334495744	22	5634
2026-01-19 00:23:36.93	18.83	27.59	-31.5	-35.2	11.9	2.50e-03	0	44	0	335544320	23	5492
2026-01-19 00:23:37.94	18.83	27.77	-31.5	-35.3	11.8	2.46e-03	0	44	0	337641472	23	5542
2026-01-19 00:23:38.94	18.83	27.94	-31.6	-35.6	11.7	8.12e-04	0	44	0	339738624	23	5663
2026-01-19 00:23:39.94	18.84	28.12	-31.7	-35.7	11.6	2.87e-03	0	44	0	341835776	23	5698
2026-01-19 00:23:40.95	18.84	28.30	-31.8	-36.1	11.3	3.42e-03	0	44	0	343932928	23	5889
2026-01-19 00:23:41.96	18.84	28.48	-31.8	-36.1	11.3	1.20e-03	0	44	0	344981504	23	5876
2026-01-19 00:23:42.96	18.85	28.66	-32.0	-36.2	10.9	3.98e-03	0	44	0	347078656	24	5855
2026-01-19 00:23:43.97	18.85	28.85	-32.0	-36.2	10.9	4.64e-03	0	44	0	349175808	24	5857
2026-01-19 00:23:44.97	18.85	29.03	-32.0	-36.2	10.9	1.84e-03	0	44	0	351272960	24	5849
2026-01-19 00:23:45.98	18.86	29.22	-32.1	-36.4	10.8	4.97e-03	0	44	0	353370112	24	5948
2026-01-19 00:23:46.98	18.86	29.40	-32.0	-36.2	10.9	5.34e-03	0	44	0	354418688	24	5852
2026-01-19 00:23:47.99	18.86	29.59	-32.1	-36.5	10.7	2.65e-03	0	44	0	356515840	24	5961
2026-01-19 00:23:48.99	18.87	29.78	-32.1	-36.7	10.6	3.68e-03	0	44	0	358612992	24	6068
2026-01-19 00:23:49.99	18.87	29.97	-32.1	-36.5	10.7	5.80e-03	0	44	0	360710144	24	5968
2026-01-19 00:23:50.99	18.87	30.16	-32.2	-36.9	10.4	3.51e-03	0	44	0	362807296	24	6195
2026-01-19 00:23:51.99	18.88	30.35	-32.2	-36.9	10.4	4.42e-03	0	44	0	363855872	24	6192
2026-01-19 00:23:53.00	18.88	30.54	-32.3	-37.2	10.2	6.95e-03	0	44	0	365953024	24	6327
2026-01-19 00:23:54.00	18.88	30.74	-32.2	-36.9	10.4	5.19e-03	0	44	0	368050176	24	6174
2026-01-19 00:23:55.01	18.89	30.94	-32.2	-36.9	10.4	6.73e-03	0	44	0	370147328	24	6170
2026-01-19 00:23:56.01	18.89	31.13	-32.2	-36.9	10.4	4.81e-03	0	44	0	372244480	24	6166
2026-01-19 00:23:57.01	18.89	31.33	-32.1	-36.6	10.7	3.81e-03	0	44	0	373293056	24	5984
2026-01-19 00:23:58.01	18.90	31.53	-32.0	-36.3	10.9	5.52e-03	0	44	0	375390208	24	5859
2026-01-19 00:23:59.01	18.90	31.73	-32.2	-36.7	10.6	2.99e-03	0	44	0	377487360	24	6048
2026-01-19 00:24:00.02	18.90	31.94	-32.1	-36.4	10.8	2.70e-03	0	44	0	379584512	24	5897
2026-01-19 00:24:01.02	18.91	32.14	-32.1	-36.3	10.9	4.82e-03	0	44	0	381681664	24	5876
2026-01-19 00:24:02.02	18.91	32.35	-32.1	-36.5	10.8	4.75e-03	0	44	0	382730240	24	5988
2026-01-19 00:24:03.02	18.91	32.56	-32.1	-36.3	10.9	2.28e-03	0	44	0	384827392	24	5892
2026-01-19 00:24:04.02	18.92	32.76	-31.9	-36.4	11.2	3.69e-03	0	44	0	386924544	23	6008
2026-01-19 00:24:05.03	18.92	32.98	-31.8	-36.0	11.5	3.19e-03	0	44	0	389021696	23	5840
2026-01-19 00:24:06.03	18.92	33.19	-31.9	-36.2	11.3	1.17e-03	0	44	0	391118848	23	5936
2026-01-19 00:24:07.04	18.93	33.40	-32.0	-36.5	11.2	1.37e-03	0	44	0	392167424	23	6063
2026-01-19 00:24:08.04	18.93	33.62	-31.6	-35.5	11.9	3.35e-03	0	44	0	394264576	23	5586
2026-01-19 00:24:09.05	18.93	33.83	-31.4	-34.8	12.4	1.96e-04	0	44	0	396361728	23	5306
2026-01-19 00:24:10.06	18.94	34.05	-31.3	-34.9	12.7	9.38e-05	0	44	0	398458880	22	5446
2026-01-19 00:24:11.06	18.94	34.27	-31.2	-34.8	12.7	2.20e-03	0	44	0	399507456	22	5400
2026-01-19 00:24:12.06	18.94	34.49	-31.3	-34.8	12.7	9.00e-05	0	44	0	401604608	22	5430
2026-01-19 00:24:13.06	18.95	34.72	-31.2	-34.7	12.8	6.10e-05	0	44	0	403701760	22	5371
2026-01-19 00:24:14.06	18.95	34.94	-31.3	-35.1	12.5	8.77e-05	0	44	0	405798912	22	5537
2026-01-19 00:24:15.06	18.95	35.16	-31.1	-34.4	13.0	9.68e-05	0	44	0	407896064	22	5264
2026-01-19 00:24:16.07	18.95	35.39	-31.0	-34.0	13.3	1.83e-05	0	44	0	408944640	22	5099
2026-01-19 00:24:17.08	18.96	35.62	-30.8	-34.0	13.6	1.37e-05	0	44	0	411041792	21	5212
2026-01-19 00:24:18.07	18.96	35.85	-30.9	-34.3	13.4	1.90e-05	0	44	0	413138944	21	5317
2026-01-19 00:24:19.08	18.96	36.09	-31.0	-34.1	13.2	3.05e-05	0	44	0	415236096	22	5148
2026-01-19 00:24:20.08	18.97	36.32	-30.7	-33.8	13.6	1.44e-05	0	44	0	417333248	21	5155
2026-01-19 00:24:21.08	18.97	36.56	-30.5	-33.3	14.0	2.82e-05	0	44	0	418381824	21	4956
2026-01-19 00:24:22.08	18.97	36.79	-30.5	-33.7	14.1	1.99e-03	0	44	0	420478976	20	5207
2026-01-19 00:24:23.09	18.98	37.03	-30.4	-33.4	14.3	7.00e-07	0	44	0	422576128	20	5112
2026-01-19 00:24:24.09	18.98	37.27	-30.4	-33.6	14.2	7.00e-07	0	44	0	424673280	20	5167
2026-01-19 00:24:25.09	18.98	37.52	-30.2	-33.0	14.5	0.00e+00	0	44	0	426770432	20	4973
2026-01-19 00:24:26.09	18.99	37.76	-30.3	-33.3	14.3	0.00e+00	0	44	0	427819008	20	5063
2026-01-19 00:24:27.10	18.99	38.01	-30.2	-32.9	14.6	7.00e-07	0	44	0	429916160	20	4940
2026-01-19 00:24:28.10	18.99	38.26	-30.0	-32.6	14.8	0.00e+00	0	44	0	432013312	20	4818
2026-01-19 00:24:29.10	18.99	38.51	-29.9	-32.2	15.0	7.00e-07	0	44	0	434110464	20	4690
2026-01-19 00:24:30.10	19.00	38.76	-29.9	-32.3	15.0	7.00e-07	0	44	0	436207616	20	4719
2026-01-19 00:24:31.11	19.00	39.01	-30.0	-32.3	15.0	7.00e-07	0	44	0	437256192	20	4737
2026-01-19 00:24:32.10	19.00	39.27	-29.9	-32.1	15.1	4.50e-06	0	44	0	439353344	20	4661
2026-01-19 00:24:33.10	19.01	39.52	-29.8	-31.9	15.2	0.00e+00	0	44	0	441450496	20	4592
2026-01-19 00:24:34.10	19.01	39.78	-29.7	-32.2	15.4	0.00e+00	0	44	0	443547648	19	4777
2026-01-19 00:24:35.10	19.01	40.04	-29.8	-32.3	15.4	0.00e+00	0	44	0	444596224	19	4824
2026-01-19 00:24:36.10	19.01	40.31	-29.8	-32.4	15.3	7.00e-07	0	44	0	446693376	19	4851
2026-01-19 00:24:37.10	19.02	40.57	-29.6	-31.8	15.7	0.00e+00	0	44	0	448790528	19	4666
2026-01-19 00:24:38.11	19.02	40.84	-29.4	-31.4	15.9	0.00e+00	0	44	0	450887680	19	4536
2026-01-19 00:24:39.11	19.02	41.11	-29.5	-31.8	15.7	2.13e-05	0	44	0	452984832	19	4657
2026-01-19 00:24:40.11	19.03	41.38	-29.6	-31.8	15.7	0.00e+00	0	44	0	454033408	19	4660
2026-01-19 00:24:41.11	19.03	41.65	-29.8	-32.3	15.3	0.00e+00	0	44	0	456130560	19	4837
2026-01-19 00:24:42.11	19.03	41.93	-29.9	-32.7	15.2	0.00e+00	0	44	0	458227712	19	4950
2026-01-19 00:24:43.12	19.03	42.21	-30.1	-32.7	14.8	0.00e+00	0	44	0	460324864	20	4840
2026-01-19 00:24:44.12	19.04	42.49	-30.5	-33.6	14.2	7.00e-07	0	44	0	462422016	20	5190
2026-01-19 00:24:45.13	19.04	42.77	-30.4	-33.3	13.5	0.00e+00	0	44	0	463470592	20	5078
2026-01-19 00:24:46.13	19.04	43.06	-30.5	-33.2	13.5	0.00e+00	0	44	0	465567744	21	4914
2026-01-19 00:24:47.13	19.04	43.34	-30.6	-33.5	14.0	1.50e-06	0	44	0	467664896	21	5016
2026-01-19 00:24:48.14	19.05	43.63	-30.8	-34.1	13.5	4.50e-06	0	44	0	469762048	21	5251
2026-01-19 00:24:49.14	19.05	43.92	-30.8	-33.9	13.7	1.06e-05	0	44	0	471859200	21	5151
2026-01-19 00:24:50.14	19.05	44.21	-31.1	-34.5	13.0	1.98e-05	0	44	0	472907776	22	5275
2026-01-19 00:24:51.14	19.06	44.51	-31.4	-35.3	12.5	9.91e-05	0	44	0	475004928	22	5615
2026-01-19 00:24:52.14	19.06	44.80	-31.3	-34.8	12.8	8.77e-05	0	44	0	477102080	22	5390
2026-01-19 00:24:53.14	19.06	45.10	-31.6	-35.3	12.2	1.27e-04	0	44	0	479199232	23	5515
2026-01-19 00:24:54.15	19.06	45.41	-31.8	-35.7	11.9	3.07e-04	0	44	0	481296384	23	5687
2026-01-19 00:24:55.15	19.07	45.71	-32.1	-36.2	11.2	8.02e-04	0	44	0	482344960	24	5800
2026-01-19 00:24:56.16	19.07	46.02	-32.0	-36.0	11.4	1.31e-03	0	44	0	484442112	24	5677
2026-01-19 00:24:57.16	19.07	46.33	-32.0	-36.4	11.4	2.13e-03	0	44	0	486539264	23	6003
2026-01-19 00:24:58.16	19.07	46.64	-31.9	-36.2	11.6	8.09e-04	0	44	0	488636416	23	5884
2026-01-19 00:24:59.17	19.07	46.95	-32.0	-36.1	11.3	9.27e-04	0	44	0	489684992	24	5733
2026-01-19 00:25:00.17	19.08	47.27	-32.2	-36.7	10.8	3.33e-03	0	44	0	491782144	24	6037
2026-01-19 00:25:01.17	19.08	47.59	-31.8	-35.8	11.7	8.80e-04	0	44	0	493879296	23	5717
2026-01-19 00:25:02.17	19.08	47.91	-31.7	-35.6	12.0	4.13e-04	0	44	0	495976448	23	5627
2026-01-19 00:25:03.18	19.08	48.23	-31.8	-35.8	11.8	3.65e-04	0	44	0	498073600	23	5699
2026-01-19 00:25:04.18	19.09	48.56	-31.9	-36.2	11.5	1.38e-03	0	44	0	499122176	23	5907
2026-01-19 00:25:05.18	19.09	48.88	-32.0	-35.9	11.3	7.10e-04	0	44	0	501219328	24	5683
2026-01-19 00:25:06.18	19.09	49.21	-32.0	-35.9	11.4	9.70e-04	0	44	0	503316480	24	5662
2026-01-19 00:25:07.18	19.09	49.55	-32.0	-36.4	11.4	1.53e-03	0	44	0	505413632	23	5999
2026-01-19 00:25:08.18	19.09	49.88	-32.1	-36.3	11.0	1.52e-03	0	44	0	507510784	24	5863
2026-01-19 00:25:09.18	19.10	50.22	-31.8	-35.9	11.8	1.07e-03	0	44	0	508559360	23	5764
2026-01-19 00:25:10.19	19.10	50.56	-31.4	-34.7	12.6	6.61e-04	0	44	0	510656512	23	5238
2026-01-19 00:25:11.19	19.10	50.90	-30.8	-33.1	13.6	2.59e-05	0	44	0	512753664	23	4673
2026-01-19 00:25:12.19	19.10	51.25	-30.4	-32.4	14.4	7.00e-07	0	44	0	514850816	22	4539
2026-01-19 00:25:13.19	19.10	51.59	-29.9	-32.2	15.1	0.00e+00	0	44	0	516947968	20	4670
2026-01-19 00:25:14.20	19.11	51.95	-29.7	-31.6	15.5	0.00e+00	0	44	0	517996544	20	4503
2026-01-19 00:25:15.20	19.11	52.30	-29.8	-32.3	15.4	6.70e-04	0	44	0	520093696	19	4810
2026-01-19 00:25:16.21	19.11	52.66	-29.4	-31.3	16.0	0.00e+00	0	44	0	522190848	19	4500
2026-01-19 00:25:17.21	19.11	53.02	-29.5	-31.6	15.8	0.00e+00	0	44	0	524288000	19	4601
2026-01-19 00:25:18.22	19.11	53.38	-29.3	-31.6	16.2	3.92e-04	0	44	0	526385152	18	4693
2026-01-19 00:25:19.23	19.11	53.75	-29.3	-31.7	16.0	0.00e+00	0	44	0	527433728	18	4756
2026-01-19 00:25:20.22	19.12	54.11	-29.4	-31.9	16.0	0.00e+00	0	44	0	529530880	18	4799
2026-01-19 00:25:21.22	19.12	54.48	-29.4	-31.9	16.0	4.16e-04	0	44	0	531628032	18	4797
2026-01-19 00:25:22.23	19.12	54.85	-29.7	-32.0	15.6	3.73e-04	0	44	0	533725184	19	4735
2026-01-19 00:25:23.23	19.12	55.22	-29.9	-32.7	15.2	0.00e+00	0	44	0	535822336	19	4967
2026-01-19 00:25:24.23	19.12	55.60	-30.1	-32.7	14.8	4.16e-04	0	44	0	536870912	20	4852
2026-01-19 00:25:25.23	19.12	55.98	-30.0	-32.5	14.9	4.15e-04	0	44	0	538968064	20	4792
2026-01-19 00:25:26.23	19.12	56.36	-30.2	-32.9	14.7	0.00e+00	0	44	0	541065216	20	4917
2026-01-19 00:25:27.23	19.12	56.74	-30.4	-33.6	14.3	3.31e-04	0	44	0	543162368	20	5164
2026-01-19 00:25:28.23	19.12	57.13	-30.6	-33.5	14.0	1.71e-04	0	44	0	545259520	21	5012
2026-01-19 00:25:29.24	19.13	57.52	-30.8	-33.9	13.7	4.50e-06	0	44	0	546308096	21	5169
2026-01-19 00:25:30.24	19.13	57.91	-30.7	-33.8	13.8	1.50e-06	0	44	0	548405248	21	5116
2026-01-19 00:25:31.24	19.13	58.31	-30.8	-34.0	13.7	1.50e-06	0	44	0	550502400	21	5210
2026-01-19 00:25:32.24	19.13	58.71	-30.8	-34.0	13.7	3.00e-06	0	44	0	552599552	21	5214
2026-01-19 00:25:33.24	19.13	59.11	-30.5	-33.3	14.2	3.00e-06	0	44	0	553648128	21	4928
2026-01-19 00:25:34.24	19.13	59.51	-30.4	-32.9	14.4	7.00e-07	0	44	0	555745280	21	4817
2026-01-19 00:25:35.25	19.13	59.92	-30.1	-32.3	14.7	0.00e+00	0	44	0	557842432	21	4596
2026-01-19 00:25:36.25	19.13	60.33	-30.0	-32.5	15.0	7.17e-05	0	44	0	559939584	20	4773
2026-01-19 00:25:37.25	19.13	60.74	-29.9	-32.2	15.1	1.33e-04	0	44	0	562036736	20	4675
2026-01-19 00:25:38.25	19.13	61.15	-29.4	-30.8	15.9	0.00e+00	0	44	0	563085312	20	4266
2026-01-19 00:25:39.26	19.13	61.57	-28.9	-30.7	16.7	2.79e-04	0	44	0	565182464	18	4441
2026-01-19 00:25:40.26	19.13	61.99	-28.6	-30.1	17.0	3.26e-04	0	44	0	567279616	18	4250
2026-01-19 00:25:41.26	19.13	62.41	-28.6	-30.1	17.0	0.00e+00	0	44	0	569376768	18	4250
2026-01-19 00:25:42.26	19.13	62.83	-28.6	-30.4	17.1	2.62e-04	0	44	0	571473920	17	4461
2026-01-19 00:25:43.26	19.13	63.26	-28.4	-30.1	17.3	2.49e-04	0	44	0	572522496	17	4359
2026-01-19 00:25:44.26	19.13	63.69	-28.4	-30.0	17.3	0.00e+00	0	44	0	574619648	17	4332
2026-01-19 00:25:45.26	19.12	64.12	-28.7	-30.8	16.9	3.67e-04	0	44	0	576716800	17	4572
2026-01-19 00:25:46.26	19.12	64.55	-29.3	-31.7	16.1	3.87e-04	0	44	0	578813952	18	4753
2026-01-19 00:25:47.26	19.12	64.99	-30.0	-32.4	15.0	0.00e+00	0	44	0	579862528	20	4736
2026-01-19 00:25:48.26	19.12	65.43	-30.3	-33.2	14.5	5.41e-04	0	44	0	581959680	20	5035
2026-01-19 00:25:49.27	19.12	65.87	-30.7	-33.7	13.9	9.31e-04	0	44	0	584056832	21	5103
2026-01-19 00:25:50.27	19.12	66.32	-30.9	-34.2	13.6	5.30e-06	0	44	0	586153984	21	5295
2026-01-19 00:25:51.28	19.11	66.77	-31.1	-34.3	13.2	2.36e-05	0	44	0	588251136	22	5199
2026-01-19 00:25:52.28	19.11	67.22	-31.0	-34.0	13.4	1.35e-03	0	44	0	590348288	22	5083
2026-01-19 00:25:53.29	19.11	67.67	-31.3	-34.8	12.9	3.35e-05	0	44	0	591396864	22	5401
2026-01-19 00:25:54.29	19.10	68.13	-31.2	-34.7	12.9	1.38e-03	0	44	0	593494016	22	5360
2026-01-19 00:25:55.29	19.10	68.58	-31.3	-34.9	12.8	5.26e-05	0	44	0	595591168	22	5455
2026-01-19 00:25:56.29	19.10	69.04	-31.3	-34.9	12.7	7.09e-05	0	44	0	597688320	22	5455
2026-01-19 00:25:57.29	19.09	69.50	-31.1	-34.3	13.2	1.19e-03	0	44	0	598736896	22	5208
2026-01-19 00:25:58.30	19.09	69.97	-31.0	-33.9	13.4	2.05e-05	0	44	0	600834048	22	5078
2026-01-19 00:25:59.30	19.08	70.44	-31.0	-34.1	13.3	1.83e-05	0	44	0	602931200	22	5127
2026-01-19 00:26:00.30	19.08	70.90	-30.8	-34.0	13.7	1.55e-03	0	44	0	605028352	21	5211
2026-01-19 00:26:01.31	19.07	71.38	-30.6	-33.5	14.0	1.48e-03	0	44	0	607125504	21	5023
2026-01-19 00:26:02.31	19.06	71.85	-31.2	-34.5	13.1	2.05e-05	0	44	0	608174080	22	5277
2026-01-19 00:26:03.31	19.06	72.32	-31.8	-35.9	11.7	1.88e-03	0	44	0	610271232	23	5775
2026-01-19 00:26:04.32	19.05	72.81	-32.3	-36.9	10.7	3.92e-03	0	44	0	612368384	24	6127
2026-01-19 00:26:05.32	19.04	73.28	-32.3	-37.0	10.5	3.93e-03	0	44	0	614465536	24	6182
2026-01-19 00:26:06.32	19.03	73.76	-32.2	-36.7	10.8	2.34e-03	0	44	0	616562688	24	6048
2026-01-19 00:26:07.33	19.02	74.25	-32.1	-36.3	11.1	3.71e-03	0	44	0	617611264	24	5848
2026-01-19 00:26:08.33	19.01	74.73	-32.1	-36.3	11.1	1.72e-03	0	44	0	619708416	24	5847
2026-01-19 00:26:09.34	19.00	75.23	-31.9	-35.7	11.6	8.42e-04	0	44	0	621805568	24	5566
2026-01-19 00:26:10.34	18.98	75.71	-31.8	-35.8	11.8	2.36e-03	0	44	0	623902720	23	5723
2026-01-19 00:26:11.34	18.97	76.20	-31.7	-35.4	12.1	4.22e-04	0	44	0	625999872	23	5538
2026-01-19 00:26:12.35	18.95	76.70	-31.6	-35.1	12.4	1.94e-04	0	44	0	627048448	23	5400
2026-01-19 00:26:13.35	18.94	77.19	-31.7	-35.4	12.2	1.59e-04	0	44	0	629145600	23	5532
2026-01-19 00:26:14.35	18.92	77.69	-32.1	-36.3	11.2	8.28e-04	0	44	0	631242752	24	5841
2026-01-19 00:26:15.36	18.89	78.19	-31.9	-35.6	11.7	1.06e-03	0	44	0	633339904	24	5502
2026-01-19 00:26:16.36	18.87	78.68	-31.1	-33.7	13.3	9.38e-05	0	44	0	635437056	23	4852
2026-01-19 00:26:17.36	18.85	79.18	-30.1	-32.1	14.9	0.00e+00	0	44	0	636485632	21	4535
2026-01-19 00:26:18.37	18.82	79.69	-29.9	-32.2	15.2	0.00e+00	0	44	0	638582784	20	4672
2026-01-19 00:26:19.37	18.78	80.19	-30.2	-32.8	14.8	0.00e+00	0	44	0	640679936	20	4870
2026-01-19 00:26:20.37	18.75	80.69	-30.6	-33.4	14.1	7.00e-07	0	44	0	642777088	21	4972
2026-01-19 00:26:21.37	18.71	81.20	-31.3	-34.7	13.0	9.80e-04	0	44	0	644874240	22	5343
2026-01-19 00:26:22.38	18.66	81.71	-32.0	-36.4	11.5	3.23e-04	0	44	0	645922816	23	5967
2026-01-19 00:26:23.38	18.61	82.21	-32.5	-37.4	10.3	2.28e-03	0	44	0	648019968	24	6381
2026-01-19 00:26:24.38	18.55	82.72	-32.5	-36.9	10.4	7.68e-03	0	44	0	650117120	25	5998
2026-01-19 00:26:25.38	18.47	83.23	-31.7	-35.1	12.1	7.23e-04	0	44	0	652214272	24	5278
2026-01-19 00:26:26.39	18.39	83.74	-31.2	-34.0	13.2	9.15e-05	0	44	0	653262848	23	4962
2026-01-19 00:26:27.39	18.29	84.25	-30.6	-32.9	14.2	1.29e-05	0	44	0	655360000	22	4703
2026-01-19 00:26:28.39	18.17	84.76	-30.7	-33.6	14.1	2.20e-06	0	44	0	657457152	21	5052
2026-01-19 00:26:29.40	18.03	85.28	-31.1	-34.2	13.3	9.10e-06	0	44	0	659554304	22	5142
2026-01-19 00:26:30.40	17.84	85.79	-31.5	-34.9	12.6	7.62e-05	0	44	0	661651456	23	5319
2026-01-19 00:26:31.40	17.61	86.31	-31.9	-36.2	11.6	2.46e-04	0	44	0	662700032	23	5888
2026-01-19 00:26:32.39	17.30	86.81	-32.2	-36.5	11.0	1.57e-03	0	44	0	664797184	24	5911
2026-01-19 00:26:33.40	16.87	87.33	-31.9	-35.5	11.8	9.39e-04	0	44	0	666894336	24	5473
2026-01-19 00:26:34.40	16.23	87.85	-31.1	-33.7	13.3	1.58e-04	0	44	0	668991488	23	4868
2026-01-19 00:26:35.41	15.17	88.36	-30.0	-31.9	15.1	0.00e+00	0	44	0	671088640	21	4474
2026-01-19 00:26:36.41	13.16	88.88	-31.0	-34.4	13.7	4.50e-06	0	44	0	672137216	21	5344
2026-01-19 00:26:37.41	7.78	89.39	-29.9	-31.7	15.3	3.80e-06	0	44	0	674234368	21	4414
2026-01-19 00:26:38.41	323.96	89.85	-28.3	-29.7	17.7	0.00e+00	0	44	0	676331520	17	4235
2026-01-19 00:26:39.41	215.88	89.55	-30.4	-33.3	14.7	0.00e+00	0	44	0	678428672	20	5044
2026-01-19 00:26:40.42	207.11	89.04	-31.9	-36.1	11.7	3.42e-04	0	44	0	680525824	23	5849
2026-01-19 00:26:41.42	204.49	88.53	-31.0	-33.5	13.4	9.53e-05	0	44	0	681574400	23	4801
2026-01-19 00:26:42.43	203.21	88.01	-30.4	-32.4	14.4	7.60e-06	0	44	0	683671552	22	4551
2026-01-19 00:26:43.43	202.47	87.50	-30.5	-33.4	14.1	1.50e-06	0	44	0	685768704	21	4992
2026-01-19 00:26:44.43	201.98	86.98	-30.5	-33.8	13.9	1.50e-06	0	44	0	687865856	20	5264
2026-01-19 00:26:45.43	201.64	86.47	-30.5	-33.6	13.3	1.14e-05	0	44	0	689963008	20	5182
2026-01-19 00:26:46.44	201.38	85.95	-30.1	-32.7	14.8	1.50e-06	0	44	0	691011584	20	4866
2026-01-19 00:26:47.44	201.19	85.44	-29.6	-31.9	14.6	0.00e+00	0	44	0	693108736	19	4704
2026-01-19 00:26:48.44	201.03	84.93	-29.3	-31.5	15.4	0.00e+00	0	44	0	695205888	18	4687
2026-01-19 00:26:49.44	200.90	84.42	-29.7	-32.2	15.4	0.00e+00	0	44	0	697303040	19	4781
2026-01-19 00:26:50.45	200.80	83.90	-30.1	-32.8	14.7	0.00e+00	0	44	0	698351616	20	4885
2026-01-19 00:26:51.44	200.71	83.40	-30.6	-33.5	13.9	0.00e+00	0	44	0	700448768	21	5035
2026-01-19 00:26:52.44	200.64	82.89	-31.3	-34.9	12.7	4.11e-05	0	44	0	702545920	22	5477
2026-01-19 00:26:53.45	200.57	82.37	-31.7	-35.5	12.0	3.42e-04	0	44	0	704643072	23	5599
2026-01-19 00:26:54.45	200.52	81.87	-31.6	-35.4	12.1	5.58e-04	0	44	0	706740224	23	5555
2026-01-19 00:26:55.45	200.47	81.36	-31.1	-33.9	13.1	1.47e-04	0	44	0	707788800	23	4944
2026-01-19 00:26:56.46	200.42	80.85	-30.5	-33.3	14.1	7.60e-06	0	44	0	709885952	21	4954
2026-01-19 00:26:57.47	200.39	80.34	-29.8	-31.9	15.3	0.00e+00	0	44	0	711983104	20	4587
2026-01-19 00:26:58.48	200.35	79.83	-30.0	-32.5	14.9	0.00e+00	0	44	0	714080256	20	4779
2026-01-19 00:26:59.48	200.32	79.33	-30.9	-34.2	13.5	1.27e-03	0	44	0	716177408	21	5280
2026-01-19 00:27:00.48	200.30	78.83	-30.8	-33.9	13.6	3.00e-06	0	44	0	717225984	21	5175
2026-01-19 00:27:01.48	200.27	78.34	-31.1	-34.2	13.1	8.30e-06	0	44	0	719323136	22	5176
2026-01-19 00:27:02.49	200.25	77.83	-31.5	-35.0	12.3	1.07e-03	0	44	0	721420288	23	5385
2026-01-19 00:27:03.49	200.23	77.34	-31.7	-35.6	11.9	1.21e-03	0	44	0	723517440	23	5637
2026-01-19 00:27:04.50	200.21	76.84	-31.8	-35.9	11.6	6.02e-04	0	44	0	725614592	23	5790
2026-01-19 00:27:05.50	200.19	76.35	-31.9	-36.2	11.4	8.89e-04	0	44	0	726663168	23	5903
2026-01-19 00:27:06.49	200.18	75.86	-31.9	-36.2	11.4	1.34e-03	0	44	0	728760320	23	5933
2026-01-19 00:27:07.49	200.17	75.37	-32.3	-37.0	10.5	2.57e-03	0	44	0	730857472	24	6176
2026-01-19 00:27:08.49	200.15	74.88	-32.5	-37.4	9.8	7.17e-03	0	44	0	732954624	25	6312
2026-01-19 00:27:09.49	200.14	74.40	-32.4	-37.4	10.2	7.39e-03	0	44	0	735051776	24	6406
2026-01-19 00:27:10.49	200.13	73.92	-32.3	-37.2	10.3	3.82e-03	0	44	0	736100352	24	6284
2026-01-19 00:27:11.50	200.12	73.43	-32.3	-37.2	10.3	8.09e-03	0	44	0	738197504	24	6292
2026-01-19 00:27:12.49	200.11	72.95	-32.0	-36.0	11.2	3.00e-03	0	44	0	740294656	24	5711
2026-01-19 00:27:13.49	200.10	72.48	-31.6	-34.9	11.9	5.03e-04	0	44	0	742391808	24	5237
2026-01-19 00:27:14.49	200.10	72.00	-31.2	-34.1	12.9	1.48e-04	0	44	0	743440384	23	5023
2026-01-19 00:27:15.49	200.09	71.53	-30.5	-32.9	14.0	9.90e-06	0	44	0	745537536	22	4704
2026-01-19 00:27:16.49	200.08	71.06	-30.7	-33.2	13.8	2.20e-06	0	44	0	747634688	22	4814
2026-01-19 00:27:17.49	200.08	70.59	-31.8	-35.9	11.6	5.09e-04	0	44	0	749731840	23	5789
2026-01-19 00:27:18.49	200.07	70.12	-32.4	-37.6	10.1	3.41e-03	0	44	0	751828992	24	6500
2026-01-19 00:27:19.49	200.07	69.66	-32.2	-36.6	10.7	8.36e-03	0	44	0	752877568	24	6035
2026-01-19 00:27:20.48	200.06	69.20	-31.9	-36.4	11.3	2.08e-03	0	44	0	754974720	23	6012
2026-01-19 00:27:21.49	200.06	68.73	-32.1	-36.5	10.8	2.08e-03	0	44	0	757071872	24	5945
2026-01-19 00:27:22.49	200.05	68.27	-32.7	-37.9	9.3	6.91e-03	0	44	0	759169024	25	6605
2026-01-19 00:27:23.50	200.05	67.81	-32.8	-38.6	8.9	3.12e-02	0	44	0	761266176	25	6979
2026-01-19 00:27:24.51	200.05	67.36	-32.3	-36.7	10.3	1.66e-02	0	44	0	762314752	25	5952
2026-01-19 00:27:25.51	200.04	66.91	-31.6	-34.9	11.9	1.47e-03	0	44	0	764411904	24	5263
2026-01-19 00:27:26.51	200.04	66.46	-31.7	-35.5	11.9	2.14e-04	0	44	0	766509056	23	5612
2026-01-19 00:27:27.52	200.04	66.01	-32.0	-36.2	11.1	2.24e-03	0	44	0	768606208	24	5852
2026-01-19 00:27:28.52	200.04	65.56	-31.7	-35.2	11.7	1.38e-03	0	44	0	770703360	24	5401
2026-01-19 00:27:29.52	200.04	65.12	-30.7	-33.3	13.8	1.54e-04	0	44	0	771751936	22	4844
2026-01-19 00:27:30.53	200.03	64.68	-29.8	-32.0	15.1	1.37e-03	0	44	0	773849088	20	4638
2026-01-19 00:27:31.53	200.03	64.24	-29.7	-31.7	15.3	0.00e+00	0	44	0	775946240	20	4542
2026-01-19 00:27:32.53	200.03	63.81	-29.6	-31.9	15.5	1.54e-03	0	44	0	778043392	19	4704
2026-01-19 00:27:33.53	200.03	63.38	-29.3	-31.6	16.1	1.62e-03	0	44	0	780140544	18	4710
2026-01-19 00:27:34.54	200.03	62.95	-29.4	-32.1	15.8	0.00e+00	0	44	0	781189120	18	4861
2026-01-19 00:27:35.53	200.03	62.53	-29.2	-31.3	16.2	1.67e-03	0	44	0	783286272	18	4628
2026-01-19 00:27:36.54	200.03	62.10	-28.9	-31.2	16.6	0.00e+00	0	44	0	785383424	17	4697
2026-01-19 00:27:37.55	200.03	61.67	-29.3	-31.7	16.0	0.00e+00	0	44	0	787480576	18	4736
2026-01-19 00:27:38.55	200.03	61.26	-30.2	-32.9	14.6	1.66e-03	0	44	0	789577728	20	4942
2026-01-19 00:27:39.55	200.03	60.84	-31.0	-34.7	13.2	1.60e-03	0	44	0	790626304	21	5485
2026-01-19 00:27:40.55	200.03	60.43	-31.5	-35.2	12.2	1.33e-04	0	44	0	792723456	23	5482
2026-01-19 00:27:41.54	200.03	60.02	-31.8	-36.0	11.6	2.64e-03	0	44	0	794820608	23	5835
2026-01-19 00:27:42.55	200.03	59.61	-31.5	-35.1	12.2	2.32e-03	0	44	0	796917760	23	5432
2026-01-19 00:27:43.55	200.03	59.21	-31.3	-34.5	12.6	9.84e-05	0	44	0	797966336	23	5188
2026-01-19 00:27:44.56	200.03	58.80	-31.3	-35.0	12.6	2.05e-03	0	44	0	800063488	22	5521
2026-01-19 00:27:45.56	200.03	58.40	-31.9	-36.2	11.4	2.19e-03	0	44	0	802160640	23	5909
2026-01-19 00:27:46.56	200.03	58.01	-32.3	-37.3	10.2	2.31e-03	0	44	0	804257792	24	6394
2026-01-19 00:27:47.57	200.03	57.61	-32.4	-37.6	9.9	1.11e-02	0	44	0	806354944	24	6516
2026-01-19 00:27:48.57	200.03	57.22	-31.8	-35.5	11.5	4.15e-03	0	44	0	807403520	24	5516
2026-01-19 00:27:49.57	200.03	56.83	-31.2	-34.2	12.9	2.55e-04	0	44	0	809500672	23	5070
2026-01-19 00:27:50.57	200.03	56.44	-30.9	-34.0	13.3	1.44e-05	0	44	0	811597824	22	5099
2026-01-19 00:27:51.57	200.03	56.06	-30.8	-34.2	13.5	1.67e-03	0	44	0	813694976	21	5285
2026-01-19 00:27:52.58	200.03	55.67	-30.7	-33.7	13.7	8.30e-06	0	44	0	815792128	21	5129
2026-01-19 00:27:53.58	200.03	55.30	-30.5	-33.2	14.0	3.00e-06	0	44	0	816840704	21	4946
2026-01-19 00:27:54.58	200.03	54.92	-30.4	-33.6	14.2	7.00e-07	0	44	0	818937856	20	5200
2026-01-19 00:27:55.59	200.03	54.55	-30.4	-33.6	14.1	3.80e-06	0	44	0	821035008	20	5198
2026-01-19 00:27:56.59	200.04	54.18	-30.4	-32.9	14.2	1.33e-03	0	44	0	823132160	21	4844
2026-01-19 00:27:57.59	200.04	53.81	-30.2	-33.0	14.5	0.00e+00	0	44	0	825229312	20	4966
2026-01-19 00:27:58.60	200.04	53.44	-29.6	-31.4	15.5	0.00e+00	0	44	0	826277888	20	4438
2026-01-19 00:27:59.59	200.04	53.08	-29.3	-31.3	15.9	1.38e-03	0	44	0	828375040	19	4516
2026-01-19 00:28:00.59	200.04	52.72	-29.6	-31.9	15.6	0.00e+00	0	44	0	830472192	19	4686
2026-01-19 00:28:01.59	200.04	52.36	-30.2	-33.0	14.5	0.00e+00	0	44	0	832569344	20	4970
2026-01-19 00:28:02.59	200.04	52.01	-30.7	-33.9	13.6	1.70e-03	0	44	0	834666496	21	5187
2026-01-19 00:28:03.59	200.05	51.66	-30.8	-34.2	13.4	1.73e-03	0	44	0	835715072	21	5314
2026-01-19 00:28:04.60	200.05	51.31	-30.7	-34.0	13.5	1.22e-05	0	44	0	837812224	21	5208
2026-01-19 00:28:05.61	200.05	50.96	-31.1	-34.4	13.0	1.66e-03	0	44	0	839909376	22	5270
2026-01-19 00:28:06.61	200.05	50.61	-31.4	-35.4	12.3	1.53e-03	0	44	0	842006528	22	5691
2026-01-19 00:28:07.61	200.05	50.27	-31.7	-35.7	11.7	4.12e-04	0	44	0	843055104	23	5707
2026-01-19 00:28:08.62	200.05	49.93	-31.8	-35.9	11.6	8.41e-04	0	44	0	845152256	23	5801
2026-01-19 00:28:09.62	200.06	49.59	-32.1	-36.4	10.8	2.07e-03	0	44	0	847249408	24	5915
2026-01-19 00:28:10.62	200.06	49.26	-32.5	-37.4	9.7	8.04e-03	0	44	0	849346560	25	6325
2026-01-19 00:28:11.62	200.06	48.93	-32.8	-38.5	8.9	2.11e-02	0	44	0	851443712	25	6952
2026-01-19 00:28:12.62	200.06	48.60	-32.9	-39.0	8.5	4.36e-02	0	44	0	852492288	25	7286
2026-01-19 00:28:13.63	200.06	48.27	-32.3	-37.0	10.0	2.64e-02	0	44	0	854589440	25	6118
2026-01-19 00:28:14.63	200.06	47.94	-31.6	-34.8	11.9	1.10e-03	0	44	0	856686592	24	5234
2026-01-19 00:28:15.63	200.07	47.62	-31.0	-33.5	13.2	6.86e-05	0	44	0	858783744	23	4835
2026-01-19 00:28:16.63	200.07	47.30	-31.1	-33.9	13.0	2.28e-05	0	44	0	860880896	23	4955
2026-01-19 00:28:17.63	200.07	46.99	-31.1	-34.4	12.9	4.42e-05	0	44	0	861929472	22	5269
2026-01-19 00:28:18.63	200.07	46.67	-31.3	-35.1	12.5	6.79e-05	0	44	0	864026624	22	5539
2026-01-19 00:28:19.63	200.07	46.36	-31.7	-35.7	11.7	2.66e-04	0	44	0	866123776	23	5719
2026-01-19 00:28:20.63	200.08	46.05	-32.2	-36.8	10.6	3.24e-03	0	44	0	868220928	24	6120
2026-01-19 00:28:21.64	200.08	45.74	-32.4	-37.6	9.9	7.40e-03	0	44	0	870318080	24	6553
2026-01-19 00:28:22.64	200.08	45.43	-32.5	-37.6	9.6	1.13e-02	0	44	0	871366656	25	6430
2026-01-19 00:28:23.64	200.08	45.13	-32.4	-37.1	9.8	1.27e-02	0	44	0	873463808	25	6202
2026-01-19 00:28:24.65	200.09	44.83	-32.2	-37.0	10.3	5.95e-03	0	44	0	875560960	24	6218
2026-01-19 00:28:25.65	200.09	44.53	-31.7	-35.2	11.7	1.66e-03	0	44	0	877658112	24	5382
2026-01-19 00:28:26.66	200.09	44.23	-30.9	-33.5	13.2	1.73e-04	0	44	0	879755264	23	4828
2026-01-19 00:28:27.66	200.09	43.94	-30.5	-32.9	13.9	1.90e-05	0	44	0	880803840	22	4718
2026-01-19 00:28:28.66	200.09	43.64	-30.2	-32.6	14.3	7.00e-07	0	44	0	882900992	21	4732
2026-01-19 00:28:29.66	200.10	43.35	-30.5	-33.3	13.9	0.00e+00	0	44	0	884998144	21	4969
2026-01-19 00:28:30.65	200.10	43.07	-30.7	-33.9	13.5	2.20e-06	0	44	0	887095296	21	5212
2026-01-19 00:28:31.66	200.10	42.78	-31.2	-34.8	12.7	5.72e-05	0	44	0	888143872	22	5429
2026-01-19 00:28:32.65	200.10	42.50	-31.5	-35.7	12.0	2.07e-04	0	44	0	890241024	22	5813
2026-01-19 00:28:33.66	200.11	42.22	-31.9	-36.5	11.0	7.71e-04	0	44	0	892338176	23	6093
2026-01-19 00:28:34.66	200.11	41.94	-32.1	-36.8	10.4	2.84e-03	0	44	0	894435328	24	6144
2026-01-19 00:28:35.66	200.11	41.66	-32.2	-37.1	10.2	5.70e-03	0	44	0	896532480	24	6279
2026-01-19 00:28:36.66	200.11	41.39	-32.1	-36.4	10.7	4.87e-03	0	44	0	897581056	24	5966
2026-01-19 00:28:37.66	200.12	41.12	-31.8	-35.7	11.2	1.89e-03	0	44	0	899678208	24	5621
2026-01-19 00:28:38.66	200.12	40.85	-31.6	-35.4	11.8	6.53e-04	0	44	0	901775360	23	5585
2026-01-19 00:28:39.67	200.12	40.57	-31.3	-34.5	12.4	2.65e-04	0	44	0	903872512	23	5214
2026-01-19 00:28:40.67	200.12	40.31	-31.2	-34.1	12.7	8.39e-05	0	44	0	905969664	23	5050
2026-01-19 00:28:41.67	200.13	40.04	-31.1	-34.5	12.7	6.33e-05	0	44	0	907018240	22	5329
2026-01-19 00:28:42.67	200.13	39.78	-31.4	-35.2	12.3	1.89e-04	0	44	0	909115392	22	5602
2026-01-19 00:28:43.67	200.13	39.52	-31.5	-35.3	11.9	2.75e-04	0	44	0	911212544	23	5538
2026-01-19 00:28:44.67	200.13	39.26	-31.9	-36.4	11.0	7.23e-04	0	44	0	913309696	23	6052
2026-01-19 00:28:45.68	200.14	39.00	-32.2	-36.9	10.3	4.29e-03	0	44	0	915406848	24	6200
2026-01-19 00:28:46.68	200.14	38.75	-32.5	-38.0	9.5	8.92e-03	0	44	0	916455424	24	6803
2026-01-19 00:28:47.68	200.14	38.49	-32.7	-38.3	8.8	2.02e-02	0	44	0	918552576	25	6911
2026-01-19 00:28:48.69	200.14	38.24	-32.8	-38.7	8.5	4.33e-02	0	44	0	920649728	25	7115
2026-01-19 00:28:49.69	200.15	37.99	-32.7	-38.4	8.8	3.90e-02	0	44	0	922746880	25	6918
2026-01-19 00:28:50.69	200.15	37.74	-32.6	-38.1	9.0	2.81e-02	0	44	0	924844032	25	6781
2026-01-19 00:28:51.69	200.15	37.50	-32.5	-37.7	9.2	2.63e-02	0	44	0	925892608	25	6553
2026-01-19 00:28:52.69	200.15	37.26	-32.4	-37.8	9.5	1.51e-02	0	44	0	927989760	24	6710
2026-01-19 00:28:53.70	200.16	37.01	-32.2	-37.5	9.9	8.81e-03	0	44	0	930086912	23	6605
2026-01-19 00:28:54.70	200.16	36.77	-31.9	-36.0	10.9	3.40e-03	0	44	0	932184064	24	5770
2026-01-19 00:28:55.71	200.16	36.53	-31.9	-36.4	10.5	1.82e-03	0	44	0	933232640	23	6049
2026-01-19 00:28:56.71	200.17	36.29	-31.9	-36.3	10.7	1.77e-03	0	44	0	935329792	23	6014
2026-01-19 00:28:57.72	200.17	36.06	-31.9	-36.3	11.1	1.33e-03	0	44	0	937426944	23	5999
2026-01-19 00:28:58.72	200.17	35.82	-32.0	-36.2	10.6	4.18e-03	0	44	0	939524096	24	5875
2026-01-19 00:28:59.72	200.17	35.59	-32.1	-36.7	10.4	3.41e-03	0	44	0	941621248	24	6116
2026-01-19 00:29:00.72	200.18	35.36	-32.3	-37.2	10.1	7.73e-03	0	44	0	942669824	24	6349
2026-01-19 00:29:01.72	200.18	35.13	-32.5	-38.0	9.4	9.49e-03	0	44	0	944766976	24	6790
2026-01-19 00:29:02.72	200.18	34.91	-32.6	-38.2	8.9	2.56e-02	0	44	0	946864128	25	6816
2026-01-19 00:29:03.73	200.18	34.68	-32.8	-38.9	8.4	3.53e-02	0	44	0	948961280	25	7249
2026-01-19 00:29:04.74	200.19	34.45	-32.9	-39.5	7.8	6.78e-02	0	44	0	951058432	25	7664
2026-01-19 00:29:05.74	200.19	34.23	-33.0	-39.5	7.5	9.57e-02	0	44	0	952107008	26	7563
2026-01-19 00:29:06.74	200.19	34.01	-33.0	-39.5	7.5	1.14e-01	0	44	0	954204160	26	7601
2026-01-19 00:29:07.74	200.20	33.79	-33.0	-39.4	7.6	1.04e-01	0	44	0	956301312	26	7501
2026-01-19 00:29:08.74	200.20	33.58	-33.0	-39.2	7.7	9.63e-02	0	44	0	958398464	26	7397
2026-01-19 00:29:09.75	200.20	33.36	-33.0	-39.5	7.5	9.84e-02	0	44	0	960495616	26	7557
2026-01-19 00:29:10.75	200.20	33.15	-32.9	-39.0	7.8	8.78e-02	0	44	0	961544192	26	7210
2026-01-19 00:29:11.74	200.21	32.93	-32.8	-39.1	8.1	7.31e-02	0	44	0	963641344	25	7412
2026-01-19 00:29:12.75	200.21	32.72	-32.7	-38.7	8.5	4.50e-02	0	44	0	965738496	25	7138
2026-01-19 00:29:13.76	200.21	32.51	-32.5	-37.8	9.2	2.79e-02	0	44	0	967835648	25	6578
2026-01-19 00:29:14.77	200.22	32.30	-32.2	-37.1	10.0	1.33e-02	0	44	0	969932800	24	6310
2026-01-19 00:29:15.77	200.22	32.09	-31.8	-35.8	11.0	2.55e-03	0	44	0	970981376	24	5687
2026-01-19 00:29:16.77	200.22	31.89	-31.6	-35.7	11.5	2.92e-03	0	44	0	973078528	23	5724
2026-01-19 00:29:17.77	200.22	31.68	-31.5	-35.3	11.7	5.70e-04	0	44	0	975175680	23	5576
2026-01-19 00:29:18.77	200.23	31.48	-31.6	-35.7	11.4	1.01e-03	0	44	0	977272832	23	5723
2026-01-19 00:29:19.77	200.23	31.28	-31.7	-35.8	11.4	3.16e-03	0	44	0	979369984	23	5789
2026-01-19 00:29:20.77	200.23	31.08	-31.9	-36.4	10.9	1.49e-03	0	44	0	980418560	23	6099
2026-01-19 00:29:21.78	200.24	30.88	-32.0	-36.8	10.7	3.16e-03	0	44	0	982515712	23	6255
2026-01-19 00:29:22.78	200.24	30.68	-32.1	-36.8	10.2	7.56e-03	0	44	0	984612864	24	6198
2026-01-19 00:29:23.79	200.24	30.49	-32.2	-37.2	9.9	1.05e-02	0	44	0	986710016	24	6420
2026-01-19 00:29:24.79	200.24	30.29	-32.3	-37.6	9.7	1.13e-02	0	44	0	987758592	24	6590
2026-01-19 00:29:25.80	200.25	30.10	-32.3	-37.5	9.6	1.55e-02	0	44	0	989855744	24	6580
2026-01-19 00:29:26.80	200.25	29.91	-32.4	-37.9	9.4	1.60e-02	0	44	0	991952896	24	6796
2026-01-19 00:29:27.81	200.25	29.71	-32.5	-38.1	9.2	2.14e-02	0	44	0	994050048	24	6938
2026-01-19 00:29:28.81	200.26	29.52	-32.4	-38.0	9.3	2.18e-02	0	44	0	996147200	24	6842
2026-01-19 00:29:29.81	200.26	29.34	-32.3	-37.6	9.6	1.60e-02	0	44	0	997195776	24	6601
2026-01-19 00:29:30.81	200.26	29.15	-32.1	-37.0	10.0	9.57e-03	0	44	0	999292928	24	6313
2026-01-19 00:29:31.81	200.26	28.96	-32.0	-36.5	10.4	6.10e-03	0	44	0	1001390080	24	6040
2026-01-19 00:29:32.82	200.27	28.78	-32.0	-36.9	10.4	7.27e-03	0	44	0	1003487232	23	6365
2026-01-19 00:29:33.82	200.27	28.60	-31.8	-36.3	10.9	3.05e-03	0	44	0	1005584384	23	6061
2026-01-19 00:29:34.82	200.27	28.41	-31.8	-36.3	10.9	5.15e-03	0	44	0	1006632960	23	6069
2026-01-19 00:29:35.82	200.28	28.23	-31.5	-35.6	11.4	3.82e-03	0	44	0	1008730112	23	5724
2026-01-19 00:29:36.83	200.28	28.05	-31.2	-35.1	12.1	3.58e-04	0	44	0	1010827264	22	5602
2026-01-19 00:29:37.83	200.28	27.87	-31.0	-34.3	12.6	2.89e-03	0	44	0	1012924416	22	5283
2026-01-19 00:29:38.83	200.28	27.70	-30.7	-34.2	13.1	2.61e-03	0	44	0	1015021568	21	5359
2026-01-19 00:29:39.83	200.29	27.52	-30.6	-33.9	13.2	3.50e-05	0	44	0	1016070144	21	5258
2026-01-19 00:29:40.84	200.29	27.34	-30.4	-33.7	13.7	2.52e-03	0	44	0	1018167296	20	5284
2026-01-19 00:29:41.84	200.29	27.17	-30.4	-33.7	13.7	2.39e-03	0	44	0	1020264448	20	5266
2026-01-19 00:29:42.84	200.30	27.00	-30.4	-33.7	13.7	8.30e-06	0	44	0	1022361600	20	5298
2026-01-19 00:29:43.85	200.30	26.82	-30.4	-33.9	13.5	2.42e-03	0	44	0	1024458752	20	5382
2026-01-19 00:29:44.86	200.30	26.65	-30.5	-33.5	13.4	2.19e-03	0	44	0	1025507328	21	5123
2026-01-19 00:29:45.86	200.30	26.48	-30.4	-33.8	13.6	5.26e-04	0	44	0	1027604480	20	5325
2026-01-19 00:29:46.86	200.31	26.31	-30.4	-33.9	13.5	2.26e-03	0	44	0	1029701632	20	5364
2026-01-19 00:29:47.87	200.31	26.15	-30.5	-34.1	13.3	2.56e-03	0	44	0	1031798784	20	5449
2026-01-19 00:29:48.88	200.31	25.98	-30.5	-34.0	13.4	5.49e-04	0	44	0	1033895936	20	5432
2026-01-19 00:29:49.88	200.32	25.81	-30.5	-33.7	13.2	2.55e-03	0	44	0	1034944512	21	5205
2026-01-19 00:29:50.88	200.32	25.65	-30.7	-34.2	12.9	2.41e-03	0	44	0	1037041664	21	5367
2026-01-19 00:29:51.88	200.32	25.49	-30.6	-33.9	13.2	1.73e-04	0	44	0	1039138816	21	5241
2026-01-19 00:29:52.88	200.33	25.32	-30.5	-33.6	13.4	1.37e-05	0	44	0	1041235968	21	5135
2026-01-19 00:29:53.89	200.33	25.16	-30.5	-33.7	13.2	2.16e-03	0	44	0	1043333120	21	5203
2026-01-19 00:29:54.89	200.33	25.00	-30.5	-33.7	13.2	2.08e-04	0	44	0	1044381696	21	5201
2026-01-19 00:29:55.90	200.33	24.84	-30.5	-33.6	13.3	2.65e-03	0	44	0	1046478848	21	5142
2026-01-19 00:29:56.90	200.34	24.68	-30.5	-34.0	13.4	1.14e-05	0	44	0	1048576000	20	5405
2026-01-19 00:29:57.90	200.34	24.52	-30.4	-33.8	13.5	2.46e-04	0	44	0	1050673152	20	5332
2026-01-19 00:29:58.90	200.34	24.37	-30.5	-34.1	13.3	2.38e-03	0	44	0	1051721728	20	5438
2026-01-19 00:29:59.90	200.35	24.21	-30.5	-33.5	13.4	1.22e-05	0	44	0	1053818880	21	5115
2026-01-19 00:30:00.91	200.35	24.06	-30.3	-33.6	13.6	2.34e-04	0	44	0	1055916032	20	5251
2026-01-19 00:30:01.91	200.35	23.90	-30.4	-33.7	13.6	2.29e-03	0	44	0	1058013184	20	5281
2026-01-19 00:30:02.92	200.36	23.75	-30.3	-33.5	13.7	2.15e-03	0	44	0	1060110336	20	5224
2026-01-19 00:30:03.92	200.36	23.60	-30.3	-33.5	13.7	5.30e-06	0	44	0	1061158912	20	5197
2026-01-19 00:30:04.92	200.36	23.45	-30.2	-33.2	13.9	2.14e-03	0	44	0	1063256064	20	5096
2026-01-19 00:30:05.92	200.36	23.30	-30.1	-33.1	14.0	2.34e-03	0	44	0	1065353216	20	5044
2026-01-19 00:30:06.93	200.37	23.14	-30.2	-33.2	13.9	1.50e-06	0	44	0	1067450368	20	5105
2026-01-19 00:30:07.93	200.37	23.00	-30.3	-33.5	13.7	2.35e-03	0	44	0	1069547520	20	5207
2026-01-19 00:30:08.93	200.37	22.85	-30.2	-33.3	13.8	2.20e-03	0	44	0	1070596096	20	5134
2026-01-19 00:30:09.94	200.38	22.70	-30.2	-33.3	13.8	2.20e-06	0	44	0	1072693248	20	5118
2026-01-19 00:30:10.94	200.38	22.55	-30.3	-33.6	13.6	2.20e-06	0	44	0	1074790400	20	5247
2026-01-19 00:30:11.94	200.38	22.41	-30.2	-33.4	13.7	2.02e-03	0	44	0	1076887552	20	5159
2026-01-19 00:30:12.94	200.39	22.27	-30.2	-33.3	13.8	3.24e-04	0	44	0	1078984704	20	5152
2026-01-19 00:30:13.95	200.39	22.12	-30.5	-34.0	13.3	9.10e-06	0	44	0	1080033280	20	5425
2026-01-19 00:30:14.95	200.39	21.98	-30.4	-33.9	13.4	9.90e-06	0	44	0	1082130432	20	5353
2026-01-19 00:30:15.96	200.39	21.84	-30.7	-34.0	13.0	3.58e-04	0	44	0	1084227584	21	5312
2026-01-19 00:30:16.97	200.40	21.69	-31.1	-34.7	12.2	1.35e-04	0	44	0	1086324736	22	5471
2026-01-19 00:30:17.97	200.40	21.55	-30.8	-33.9	12.7	1.32e-04	0	44	0	1088421888	22	5169
2026-01-19 00:30:18.98	200.40	21.41	-30.7	-34.0	12.9	3.73e-04	0	44	0	1089470464	21	5310
2026-01-19 00:30:19.98	200.41	21.27	-30.9	-34.8	12.4	9.68e-05	0	44	0	1091567616	21	5615
2026-01-19 00:30:20.98	200.41	21.14	-30.7	-34.2	12.7	8.39e-05	0	44	0	1093664768	21	5395
2026-01-19 00:30:21.98	200.41	21.00	-30.7	-34.1	12.8	5.26e-05	0	44	0	1095761920	21	5354
2026-01-19 00:30:22.99	200.42	20.86	-30.7	-34.1	12.9	1.67e-03	0	44	0	1097859072	21	5354
2026-01-19 00:30:23.99	200.42	20.73	-30.8	-34.6	12.5	9.23e-05	0	44	0	1098907648	21	5548
2026-01-19 00:30:24.99	200.42	20.59	-31.0	-35.0	12.3	1.34e-04	0	44	0	1101004800	21	5717
2026-01-19 00:30:26.00	200.43	20.45	-30.9	-34.8	12.3	1.73e-04	0	44	0	1103101952	21	5656
2026-01-19 00:30:27.00	200.43	20.32	-31.0	-34.6	12.2	5.13e-04	0	44	0	1105199104	22	5447
2026-01-19 00:30:28.00	200.43	20.19	-31.2	-35.3	11.7	3.73e-04	0	44	0	1107296256	22	5731
2026-01-19 00:30:29.01	200.43	20.06	-31.2	-35.1	11.8	5.26e-04	0	44	0	1108344832	22	5668
2026-01-19 00:30:30.01	200.44	19.92	-31.3	-35.4	11.6	2.07e-03	0	44	0	1110441984	22	5797
2026-01-19 00:30:31.01	200.44	19.79	-31.5	-36.0	11.2	1.14e-03	0	44	0	1112539136	22	6077
2026-01-19 00:30:32.01	200.44	19.66	-31.4	-35.7	11.4	1.18e-03	0	44	0	1114636288	22	5946
2026-01-19 00:30:33.01	200.45	19.53	-31.3	-35.4	11.6	7.77e-04	0	44	0	1115684864	22	5794
2026-01-19 00:30:34.02	200.45	19.40	-31.3	-35.5	11.5	9.27e-04	0	44	0	1117782016	22	5849
2026-01-19 00:30:35.02	200.45	19.28	-31.2	-35.3	11.7	7.92e-04	0	44	0	1119879168	22	5754
2026-01-19 00:30:36.02	200.46	19.15	-31.4	-35.8	11.4	8.65e-04	0	44	0	1121976320	22	5966
2026-01-19 00:30:37.02	200.46	19.02	-31.6	-35.9	10.9	2.18e-03	0	44	0	1124073472	23	5910
2026-01-19 00:30:38.02	200.46	18.90	-31.4	-35.3	11.2	1.48e-03	0	44	0	1125122048	23	5661
2026-01-19 00:30:39.03	200.46	18.77	-31.3	-35.4	11.5	1.02e-03	0	44	0	1127219200	22	5811
2026-01-19 00:30:40.03	200.47	18.65	-31.1	-35.0	11.8	6.65e-04	0	44	0	1129316352	22	5634
2026-01-19 00:30:41.03	200.47	18.52	-31.2	-35.1	11.8	4.61e-04	0	44	0	1131413504	22	5645
2026-01-19 00:30:42.04	200.47	18.40	-31.4	-35.7	11.3	7.52e-04	0	44	0	1133510656	22	5959
2026-01-19 00:30:43.04	200.48	18.27	-31.2	-35.2	11.7	9.77e-04	0	44	0	1134559232	22	5706
2026-01-19 00:30:44.04	200.48	18.15	-31.3	-35.5	11.4	7.86e-04	0	44	0	1136656384	22	5869
2026-01-19 00:30:45.04	200.48	18.03	-31.3	-35.6	11.4	1.09e-03	0	44	0	1138753536	22	5901
2026-01-19 00:30:46.04	200.49	17.91	-31.3	-35.6	11.4	9.46e-04	0	44	0	1140850688	22	5873
2026-01-19 00:30:47.04	200.49	17.79	-31.4	-35.8	11.3	1.20e-03	0	44	0	1142947840	22	5981
2026-01-19 00:30:48.04	200.49	17.67	-31.2	-35.7	11.1	1.48e-03	0	44	0	1143996416	22	6066
2026-01-19 00:30:49.05	200.49	17.55	-31.3	-35.8	10.9	1.39e-03	0	44	0	1146093568	22	6072
2026-01-19 00:30:50.06	200.50	17.43	-31.8	-36.4	10.8	1.45e-03	0	44	0	1148190720	22	6118
2026-01-19 00:30:51.06	200.50	17.31	-31.2	-35.3	11.6	9.36e-04	0	44	0	1150287872	22	5744
2026-01-19 00:30:52.06	200.50	17.19	-31.1	-35.0	11.4	5.43e-04	0	44	0	1152385024	22	5608
2026-01-19 00:30:53.06	200.51	17.08	-31.0	-35.2	11.4	4.05e-04	0	44	0	1153433600	21	5822
2026-01-19 00:30:54.06	200.51	16.96	-31.0	-34.6	12.0	4.33e-04	0	44	0	1155530752	22	5467
2026-01-19 00:30:55.07	200.51	16.84	-30.9	-35.0	12.0	3.53e-04	0	44	0	1157627904	21	5743
2026-01-19 00:30:56.07	200.52	16.73	-31.0	-35.1	12.0	3.18e-04	0	44	0	1159725056	21	5775
2026-01-19 00:30:57.07	200.52	16.61	-31.0	-34.6	12.0	3.31e-04	0	44	0	1160773632	22	5474
2026-01-19 00:30:58.06	200.52	16.50	-31.1	-34.9	11.8	4.21e-04	0	44	0	1162870784	22	5594
2026-01-19 00:30:59.06	200.53	16.39	-31.0	-34.8	11.9	3.75e-04	0	44	0	1164967936	22	5527
2026-01-19 00:31:00.07	200.53	16.27	-31.1	-34.9	11.8	3.86e-04	0	44	0	1167065088	22	5582
2026-01-19 00:31:01.07	200.53	16.16	-31.0	-34.8	11.8	2.89e-03	0	44	0	1169162240	22	5554
2026-01-19 00:31:02.07	200.53	16.05	-31.1	-34.9	11.8	5.10e-04	0	44	0	1170210816	22	5575
2026-01-19 00:31:03.07	200.54	15.93	-31.1	-34.9	11.8	5.02e-04	0	44	0	1172307968	22	5595
2026-01-19 00:31:04.07	200.54	15.82	-31.0	-34.7	11.8	4.54e-04	0	44	0	1174405120	22	5530
2026-01-19 00:31:05.08	200.54	15.71	-31.0	-34.7	11.8	2.65e-03	0	44	0	1176502272	22	5532
2026-01-19 00:31:06.08	200.55	15.60	-31.0	-34.8	11.8	4.71e-04	0	44	0	1178599424	22	5559
2026-01-19 00:31:07.09	200.55	15.49	-31.1	-35.0	11.7	5.29e-04	0	44	0	1179648000	22	5645
2026-01-19 00:31:08.09	200.55	15.38	-31.1	-35.0	11.6	3.16e-03	0	44	0	1181745152	22	5651
2026-01-19 00:31:09.10	200.56	15.27	-31.0	-34.8	11.8	4.87e-04	0	44	0	1183842304	22	5566
2026-01-19 00:31:10.09	200.56	15.17	-31.1	-35.1	11.6	6.23e-04	0	44	0	1185939456	22	5701
2026-01-19 00:31:11.10	200.56	15.06	-31.0	-34.8	11.7	2.94e-03	0	44	0	1188036608	22	5570
2026-01-19 00:31:12.10	200.56	14.95	-31.0	-34.8	11.7	6.48e-04	0	44	0	1189085184	22	5576
2026-01-19 00:31:13.10	200.57	14.84	-31.1	-35.2	11.5	7.26e-04	0	44	0	1191182336	22	5739
2026-01-19 00:31:14.11	200.57	14.74	-31.0	-34.8	11.7	7.17e-04	0	44	0	1193279488	22	5583
2026-01-19 00:31:15.10	200.57	14.63	-31.1	-34.9	11.6	7.37e-04	0	44	0	1195376640	22	5616
2026-01-19 00:31:16.10	200.58	14.53	-31.1	-35.0	11.6	6.81e-04	0	44	0	1197473792	22	5667
2026-01-19 00:31:17.11	200.58	14.42	-30.9	-35.1	11.8	6.14e-04	0	44	0	1198522368	21	5819
2026-01-19 00:31:18.11	200.58	14.31	-30.9	-35.1	11.8	6.71e-04	0	44	0	1200619520	21	5815
2026-01-19 00:31:19.11	200.59	14.21	-31.0	-35.2	11.8	2.96e-03	0	44	0	1202716672	21	5848
2026-01-19 00:31:20.12	200.59	14.11	-30.9	-35.0	11.9	4.94e-04	0	44	0	1204813824	21	5776
2026-01-19 00:31:21.11	200.59	14.00	-31.0	-35.2	11.7	4.73e-04	0	44	0	1205862400	21	5854
2026-01-19 00:31:22.12	200.60	13.90	-30.9	-35.0	11.8	2.81e-03	0	44	0	1207959552	21	5795
2026-01-19 00:31:23.13	200.60	13.80	-30.9	-35.2	11.7	2.62e-03	0	44	0	1210056704	21	5866
2026-01-19 00:31:24.13	200.60	13.70	-31.0	-35.2	11.7	5.21e-04	0	44	0	1212153856	21	5859
2026-01-19 00:31:25.13	200.60	13.59	-30.9	-35.1	11.8	2.62e-03	0	44	0	1214251008	21	5816
2026-01-19 00:31:26.13	200.61	13.49	-31.0	-35.3	11.6	3.05e-03	0	44	0	1215299584	21	5905
2026-01-19 00:31:27.13	200.61	13.39	-30.9	-35.2	11.7	5.90e-04	0	44	0	1217396736	21	5858
2026-01-19 00:31:28.13	200.61	13.29	-30.9	-35.1	11.7	3.00e-03	0	44	0	1219493888	21	5846
2026-01-19 00:31:29.14	200.62	13.19	-31.1	-35.0	11.4	3.11e-03	0	44	0	1221591040	22	5693
2026-01-19 00:31:30.14	200.62	13.09	-31.1	-35.2	11.3	1.22e-03	0	44	0	1223688192	22	5750
2026-01-19 00:31:31.15	200.62	12.99	-31.2	-35.4	11.1	1.20e-03	0	44	0	1224736768	22	5876
2026-01-19 00:31:32.15	200.63	12.89	-31.2	-35.4	11.1	3.71e-03	0	44	0	1226833920	22	5883
2026-01-19 00:31:33.14	200.63	12.80	-31.2	-35.6	11.0	1.77e-03	0	44	0	1228931072	22	5948
2026-01-19 00:31:34.14	200.63	12.70	-31.3	-35.9	10.8	3.31e-03	0	44	0	1231028224	22	6120
2026-01-19 00:31:35.14	200.64	12.60	-31.3	-35.8	10.8	4.84e-03	0	44	0	1233125376	22	6055
2026-01-19 00:31:36.15	200.64	12.50	-31.4	-36.2	10.5	3.80e-03	0	44	0	1234173952	22	6240
2026-01-19 00:31:37.15	200.64	12.41	-31.3	-35.8	10.8	5.25e-03	0	44	0	1236271104	22	6065
2026-01-19 00:31:38.15	200.64	12.31	-31.2	-35.6	11.0	2.15e-03	0	44	0	1238368256	22	5986
2026-01-19 00:31:39.16	200.65	12.22	-31.2	-35.7	10.9	2.18e-03	0	44	0	1240465408	22	5989
2026-01-19 00:31:40.16	200.65	12.12	-31.3	-35.8	10.8	4.78e-03	0	44	0	1242562560	22	6047
2026-01-19 00:31:41.17	200.65	12.02	-31.3	-35.8	10.8	4.65e-03	0	44	0	1243611136	22	6065
2026-01-19 00:31:42.17	200.66	11.93	-31.3	-36.0	10.6	3.25e-03	0	44	0	1245708288	22	6171
2026-01-19 00:31:43.18	200.66	11.83	-31.4	-36.3	10.4	6.17e-03	0	44	0	1247805440	22	6317
2026-01-19 00:31:44.18	200.66	11.74	-31.4	-36.2	10.5	6.89e-03	0	44	0	1249902592	22	6250
2026-01-19 00:31:45.19	200.67	11.65	-31.5	-36.4	10.3	5.04e-03	0	44	0	1251999744	22	6397
2026-01-19 00:31:46.19	200.67	11.55	-31.6	-36.5	9.9	9.47e-03	0	44	0	1253048320	23	6322
2026-01-19 00:31:47.19	200.67	11.46	-31.8	-37.1	9.4	1.57e-02	0	44	0	1255145472	23	6631
2026-01-19 00:31:48.20	200.67	11.37	-31.7	-36.9	9.6	1.40e-02	0	44	0	1257242624	23	6540
2026-01-19 00:31:49.20	200.68	11.27	-31.8	-37.2	9.3	1.92e-02	0	44	0	1259339776	23	6684
2026-01-19 00:31:50.19	200.68	11.18	-31.7	-37.0	9.4	1.68e-02	0	44	0	1260388352	23	6606
2026-01-19 00:31:51.19	200.68	11.09	-31.8	-37.3	9.2	1.72e-02	0	44	0	1262485504	23	6755
2026-01-19 00:31:52.19	200.69	11.00	-31.7	-36.9	9.5	1.61e-02	0	44	0	1264582656	23	6567
2026-01-19 00:31:53.20	200.69	10.91	-31.7	-37.0	9.4	1.81e-02	0	44	0	1266679808	23	6602
2026-01-19 00:31:54.20	200.69	10.82	-31.8	-37.3	9.2	1.79e-02	0	44	0	1268776960	23	6783
2026-01-19 00:31:55.20	200.70	10.73	-31.8	-37.3	9.2	2.48e-02	0	44	0	1269825536	23	6774
2026-01-19 00:31:56.20	200.70	10.64	-31.8	-37.2	9.2	2.21e-02	0	44	0	1271922688	23	6755
2026-01-19 00:31:57.21	200.70	10.55	-31.7	-36.9	9.4	1.74e-02	0	44	0	1274019840	23	6563
2026-01-19 00:31:58.22	200.71	10.46	-31.6	-36.6	9.7	1.57e-02	0	44	0	1276116992	23	6386
2026-01-19 00:31:59.22	200.71	10.37	-31.5	-36.4	9.9	9.36e-03	0	44	0	1278214144	23	6266
2026-01-19 00:32:00.23	200.71	10.28	-31.4	-36.0	10.1	8.32e-03	0	44	0	1279262720	23	6089
2026-01-19 00:32:01.23	200.71	10.19	-31.4	-36.5	10.1	8.39e-03	0	44	0	1281359872	22	6454
2026-01-19 00:32:02.22	200.72	10.11	-31.4	-36.5	10.1	6.85e-03	0	44	0	1283457024	22	6451
2026-01-19 00:32:03.23	200.72	10.02	-31.5	-36.7	9.9	8.19e-03	0	44	0	1285554176	22	6555
2026-01-19 00:32:04.23	200.72	9.93	-31.4	-36.6	10.0	9.60e-03	0	44	0	1287651328	22	6494
2026-01-19 00:32:05.24	200.73	9.84	-31.4	-36.5	10.1	9.92e-03	0	44	0	1288699904	22	6474
