passes_logs/2026/01/19/R2M6_AANII_01/R2M6_AANII_01__20260119_155642_FENGYUN_3E_rec.log

#Pass ID: 20260119_155642_FENGYUN 3E
#Satellite: FENGYUN 3E
#Configuration: FENGYUN 3E
#almurnet v.1.7.20240730
#Start time: 2026-01-19 15:56:43

#Version: 2.2.20231116
#Station: R2M6_AANII_01
#Location: 30.233357 lon 59.946436 lat
#TLE: 1 49008U 21062A   26018.95190407 -.00000301  00000+0 -12097-3 0  9991
#TLE: 2 49008  98.7482  24.0337 0002210 129.7386 230.3985 14.19884646235406

#Time	Az	El	Level	Level2	SNR	BER	BlckErr	Temp	State	Recorded	gain1	gain2
2026-01-19 15:56:43.68	203.66	7.08	-28.2	-29.1	5.6	7.51e-01	0	44	0	0	17	4018
2026-01-19 15:56:44.68	203.74	7.14	-28.6	-30.1	5.6	7.56e-01	0	44	104	0	17	4301
2026-01-19 15:56:45.69	203.82	7.21	-28.4	-29.8	11.5	7.37e-04	0	44	0	0	17	4194
2026-01-19 15:56:46.69	203.90	7.28	-28.8	-30.8	10.9	1.64e-03	0	44	0	7340032	17	4495
2026-01-19 15:56:47.69	203.98	7.35	-28.8	-30.7	11.0	2.41e-03	0	44	0	14680064	17	4468
2026-01-19 15:56:48.70	204.07	7.42	-28.6	-30.1	11.3	1.02e-03	0	44	0	22020096	17	4300
2026-01-19 15:56:49.70	204.15	7.49	-28.4	-29.6	11.7	6.24e-04	0	44	0	28311552	17	4142
2026-01-19 15:56:50.71	204.23	7.55	-28.2	-29.1	12.0	4.73e-04	0	44	0	35651584	17	4008
2026-01-19 15:56:51.71	204.32	7.62	-28.1	-29.1	12.1	3.16e-04	0	44	0	42991616	17	3996
2026-01-19 15:56:52.70	204.40	7.69	-28.1	-29.0	12.0	3.74e-04	0	44	0	50331648	17	3990
2026-01-19 15:56:53.71	204.48	7.76	-27.8	-28.6	12.6	1.40e-04	0	44	0	57671680	16	3979
2026-01-19 15:56:54.71	204.57	7.83	-27.6	-28.3	12.8	7.55e-05	0	44	0	65011712	16	3900
2026-01-19 15:56:55.71	204.65	7.90	-27.5	-28.0	13.1	4.23e-05	0	44	0	72351744	16	3814
2026-01-19 15:56:56.70	204.74	7.97	-27.1	-27.7	13.3	2.74e-05	0	44	0	79691776	15	3842
2026-01-19 15:56:57.70	204.82	8.04	-27.2	-27.9	13.2	1.37e-05	0	44	0	85983232	15	3899
2026-01-19 15:56:58.71	204.91	8.11	-27.2	-27.9	13.2	2.28e-05	0	44	0	93323264	15	3893
2026-01-19 15:56:59.71	204.99	8.18	-26.9	-27.7	13.6	1.60e-05	0	44	0	100663296	14	3952
2026-01-19 15:57:00.71	205.08	8.25	-26.9	-27.8	13.6	1.14e-05	0	44	0	108003328	14	3956
2026-01-19 15:57:01.71	205.17	8.32	-27.1	-28.1	13.4	1.25e-05	0	44	0	115343360	14	4051
2026-01-19 15:57:02.71	205.26	8.39	-26.9	-27.8	13.6	1.02e-05	0	44	0	122683392	14	3962
2026-01-19 15:57:03.71	205.34	8.46	-27.0	-27.9	13.6	1.02e-05	0	44	0	130023424	14	3980
2026-01-19 15:57:04.71	205.43	8.53	-27.0	-28.0	13.5	1.37e-05	0	44	0	137363456	14	4009
2026-01-19 15:57:05.71	205.52	8.60	-26.9	-27.8	13.7	4.50e-06	0	44	0	144703488	14	3955
2026-01-19 15:57:06.71	205.61	8.67	-27.0	-28.0	13.5	1.60e-05	0	45	0	150994944	14	4009
2026-01-19 15:57:07.71	205.70	8.74	-27.0	-27.8	13.6	1.14e-05	0	44	0	158334976	14	3980
2026-01-19 15:57:08.71	205.79	8.81	-26.9	-27.8	13.7	5.70e-06	0	44	0	165675008	14	3954
2026-01-19 15:57:09.71	205.88	8.88	-27.0	-27.8	13.6	6.80e-06	0	44	0	173015040	14	3969
2026-01-19 15:57:10.72	205.97	8.96	-26.9	-27.7	13.7	3.40e-06	0	45	0	180355072	14	3932
2026-01-19 15:57:11.72	206.06	9.03	-27.0	-27.8	13.7	6.80e-06	0	45	0	187695104	14	3972
2026-01-19 15:57:12.73	206.15	9.10	-26.9	-27.7	13.7	4.50e-06	0	45	0	195035136	14	3943
2026-01-19 15:57:13.74	206.25	9.17	-26.9	-27.7	13.7	5.70e-06	0	45	0	202375168	14	3950
2026-01-19 15:57:14.74	206.34	9.24	-26.9	-27.7	13.7	4.50e-06	0	45	0	209715200	14	3943
2026-01-19 15:57:15.74	206.43	9.32	-26.7	-27.3	14.0	3.40e-06	0	45	0	217055232	14	3838
2026-01-19 15:57:16.75	206.53	9.39	-26.7	-27.3	14.0	2.20e-06	0	45	0	224395264	14	3838
2026-01-19 15:57:17.75	206.62	9.46	-26.6	-27.0	14.2	0.00e+00	0	45	0	230686720	14	3761
2026-01-19 15:57:18.75	206.71	9.53	-26.7	-27.2	14.0	1.10e-06	0	45	0	238026752	14	3825
2026-01-19 15:57:19.74	206.81	9.61	-26.6	-26.9	14.2	0.00e+00	0	45	0	245366784	14	3742
2026-01-19 15:57:20.74	206.90	9.68	-26.5	-26.8	14.3	1.10e-06	0	45	0	252706816	14	3711
2026-01-19 15:57:21.74	207.00	9.75	-26.5	-26.8	14.3	0.00e+00	0	45	0	260046848	14	3716
2026-01-19 15:57:22.74	207.09	9.83	-26.4	-27.0	14.4	3.40e-06	0	45	0	267386880	13	3858
2026-01-19 15:57:23.74	207.19	9.90	-26.5	-27.1	14.4	1.10e-06	0	45	0	274726912	13	3896
2026-01-19 15:57:24.75	207.29	9.97	-26.4	-27.0	14.4	1.10e-06	0	45	0	282066944	13	3869
2026-01-19 15:57:25.75	207.39	10.05	-26.5	-27.3	14.3	3.40e-06	0	45	0	289406976	13	3931
2026-01-19 15:57:26.75	207.48	10.12	-26.6	-27.4	14.2	4.50e-06	0	45	0	295698432	13	3964
2026-01-19 15:57:27.75	207.58	10.19	-26.6	-27.4	14.2	1.10e-06	0	45	0	303038464	13	3973
2026-01-19 15:57:28.75	207.68	10.27	-26.8	-27.9	14.0	2.20e-06	0	45	0	310378496	13	4082
2026-01-19 15:57:29.75	207.78	10.34	-26.6	-27.3	14.3	1.10e-06	0	45	0	317718528	13	3945
2026-01-19 15:57:30.75	207.88	10.42	-26.5	-27.3	14.3	3.40e-06	0	45	0	325058560	13	3929
2026-01-19 15:57:31.76	207.98	10.49	-26.5	-27.4	14.3	2.20e-06	0	45	0	332398592	13	3952
2026-01-19 15:57:32.76	208.08	10.57	-26.4	-27.0	14.5	0.00e+00	0	45	0	339738624	13	3871
2026-01-19 15:57:33.75	208.18	10.64	-26.3	-26.8	14.6	0.00e+00	0	45	0	347078656	13	3808
2026-01-19 15:57:34.75	208.28	10.72	-26.3	-26.9	14.6	0.00e+00	0	45	0	354418688	13	3831
2026-01-19 15:57:35.75	208.39	10.79	-26.4	-27.1	14.5	0.00e+00	0	45	0	360710144	13	3888
2026-01-19 15:57:36.76	208.49	10.87	-26.5	-27.2	14.4	2.20e-06	0	45	0	368050176	13	3907
2026-01-19 15:57:37.76	208.59	10.94	-26.4	-27.1	14.5	0.00e+00	0	45	0	375390208	13	3886
2026-01-19 15:57:38.75	208.70	11.02	-26.4	-26.9	14.6	2.20e-06	0	45	0	382730240	13	3847
2026-01-19 15:57:39.76	208.80	11.09	-26.4	-27.0	14.5	1.10e-06	0	45	0	390070272	13	3863
2026-01-19 15:57:40.76	208.91	11.17	-26.5	-27.3	14.4	1.10e-06	0	45	0	397410304	13	3939
2026-01-19 15:57:41.77	209.01	11.25	-26.5	-27.1	14.4	0.00e+00	0	45	0	404750336	13	3899
2026-01-19 15:57:42.77	209.12	11.32	-26.6	-27.6	14.2	1.10e-06	0	45	0	412090368	13	3999
2026-01-19 15:57:43.76	209.22	11.40	-26.6	-27.4	14.3	2.20e-06	0	45	0	418381824	13	3960
2026-01-19 15:57:44.76	209.33	11.47	-26.5	-27.2	14.5	1.10e-06	0	45	0	425721856	13	3908
2026-01-19 15:57:45.76	209.44	11.55	-26.2	-26.5	14.9	1.10e-06	0	45	0	433061888	13	3747
2026-01-19 15:57:46.77	209.55	11.63	-26.5	-27.2	14.5	0.00e+00	0	45	0	440401920	13	3904
2026-01-19 15:57:47.78	209.66	11.71	-26.4	-27.1	14.5	0.00e+00	0	45	0	447741952	13	3886
2026-01-19 15:57:48.77	209.76	11.78	-26.4	-27.1	14.5	2.20e-06	0	45	0	455081984	13	3887
2026-01-19 15:57:49.78	209.88	11.86	-26.6	-27.4	14.3	1.10e-06	0	45	0	462422016	13	3955
2026-01-19 15:57:50.78	209.99	11.94	-26.5	-27.3	14.4	1.10e-06	0	45	0	469762048	13	3924
2026-01-19 15:57:51.79	210.10	12.01	-26.4	-27.1	14.5	2.20e-06	0	45	0	477102080	13	3886
2026-01-19 15:57:52.79	210.21	12.09	-26.5	-27.2	14.5	0.00e+00	0	45	0	484442112	13	3915
2026-01-19 15:57:53.79	210.32	12.17	-26.6	-27.5	14.3	4.50e-06	0	45	0	491782144	13	3997
2026-01-19 15:57:54.78	210.43	12.25	-26.5	-27.3	14.4	0.00e+00	0	45	0	499122176	13	3935
2026-01-19 15:57:55.79	210.55	12.33	-26.3	-26.8	14.7	0.00e+00	0	45	0	505413632	13	3823
2026-01-19 15:57:56.79	210.66	12.40	-26.1	-26.4	14.9	0.00e+00	0	45	0	512753664	13	3722
2026-01-19 15:57:57.79	210.77	12.48	-26.1	-26.4	14.9	0.00e+00	0	45	0	520093696	13	3727
2026-01-19 15:57:58.79	210.89	12.56	-26.1	-26.4	14.9	0.00e+00	0	45	0	527433728	13	3725
2026-01-19 15:57:59.79	211.01	12.64	-26.2	-26.5	14.9	0.00e+00	0	45	0	534773760	13	3739
2026-01-19 15:58:00.80	211.12	12.72	-26.2	-26.6	14.8	0.00e+00	0	45	0	542113792	13	3759
2026-01-19 15:58:01.81	211.24	12.80	-26.2	-26.7	14.8	0.00e+00	0	45	0	549453824	13	3777
2026-01-19 15:58:02.81	211.36	12.88	-26.0	-26.2	15.1	0.00e+00	0	45	0	556793856	13	3669
2026-01-19 15:58:03.82	211.48	12.96	-26.0	-26.1	15.1	0.00e+00	0	45	0	564133888	13	3642
2026-01-19 15:58:04.83	211.60	13.04	-26.1	-26.3	15.0	0.00e+00	0	45	0	570425344	13	3684
2026-01-19 15:58:05.83	211.72	13.12	-26.0	-26.1	15.2	0.00e+00	0	45	0	577765376	13	3634
2026-01-19 15:58:06.83	211.84	13.20	-26.1	-26.3	15.0	0.00e+00	0	45	0	586153984	13	3700
2026-01-19 15:58:07.84	211.96	13.28	-26.2	-26.6	14.9	0.00e+00	0	45	0	592445440	13	3761
2026-01-19 15:58:08.84	212.08	13.36	-26.1	-26.4	15.0	0.00e+00	0	45	0	599785472	13	3710
2026-01-19 15:58:09.84	212.20	13.44	-26.1	-26.3	15.0	0.00e+00	0	45	0	607125504	13	3695
2026-01-19 15:58:10.85	212.32	13.52	-26.0	-26.2	15.1	0.00e+00	0	45	0	614465536	13	3672
2026-01-19 15:58:11.85	212.45	13.60	-26.0	-26.2	15.1	1.10e-06	0	45	0	621805568	13	3674
2026-01-19 15:58:12.85	212.57	13.68	-26.2	-26.5	14.9	0.00e+00	0	45	0	629145600	13	3750
2026-01-19 15:58:13.85	212.69	13.76	-26.1	-26.3	15.0	0.00e+00	0	45	0	636485632	13	3688
2026-01-19 15:58:14.85	212.82	13.84	-26.2	-26.6	14.9	0.00e+00	0	45	0	643825664	13	3750
2026-01-19 15:58:15.85	212.94	13.92	-26.0	-26.2	15.2	0.00e+00	0	45	0	650117120	13	3657
2026-01-19 15:58:16.84	213.07	14.01	-26.0	-26.0	15.2	0.00e+00	0	45	0	657457152	13	3630
2026-01-19 15:58:17.85	213.20	14.09	-26.1	-26.3	15.1	0.00e+00	0	45	0	664797184	13	3697
2026-01-19 15:58:18.85	213.32	14.17	-25.9	-25.9	15.3	0.00e+00	0	45	0	672137216	13	3596
2026-01-19 15:58:19.85	213.45	14.25	-26.2	-26.5	15.0	0.00e+00	0	45	0	679477248	13	3744
2026-01-19 15:58:20.85	213.58	14.33	-26.0	-26.1	15.2	0.00e+00	0	45	0	686817280	13	3654
2026-01-19 15:58:21.86	213.71	14.42	-25.8	-26.1	15.5	0.00e+00	0	45	0	694157312	12	3734
2026-01-19 15:58:22.86	213.84	14.50	-25.8	-26.2	15.4	0.00e+00	0	45	0	701497344	12	3768
2026-01-19 15:58:23.86	213.97	14.58	-25.6	-25.8	15.6	0.00e+00	0	45	0	708837376	12	3685
2026-01-19 15:58:24.86	214.11	14.66	-25.6	-25.7	15.7	0.00e+00	0	45	0	715128832	12	3656
2026-01-19 15:58:25.86	214.24	14.74	-25.6	-25.7	15.7	0.00e+00	0	45	0	722468864	12	3658
2026-01-19 15:58:26.87	214.37	14.83	-25.6	-25.8	15.7	0.00e+00	0	45	0	729808896	12	3665
2026-01-19 15:58:27.87	214.51	14.91	-25.4	-25.4	15.9	0.00e+00	0	45	0	737148928	12	3578
2026-01-19 15:58:28.87	214.64	14.99	-25.5	-25.4	15.9	0.00e+00	0	45	0	744488960	12	3591
2026-01-19 15:58:29.88	214.78	15.08	-25.4	-25.4	15.9	2.20e-06	0	45	0	751828992	12	3569
2026-01-19 15:58:30.88	214.91	15.16	-25.5	-26.0	16.0	0.00e+00	0	45	0	759169024	11	3810
2026-01-19 15:58:31.88	215.05	15.24	-25.4	-25.8	16.0	0.00e+00	0	45	0	766509056	11	3778
2026-01-19 15:58:32.89	215.19	15.33	-25.5	-26.1	15.9	3.40e-06	0	45	0	773849088	11	3824
2026-01-19 15:58:33.88	215.33	15.41	-25.4	-25.8	16.0	0.00e+00	0	45	0	781189120	11	3770
2026-01-19 15:58:34.89	215.47	15.50	-25.3	-25.6	16.2	0.00e+00	0	45	0	788529152	11	3711
2026-01-19 15:58:35.89	215.61	15.58	-25.3	-25.6	16.2	0.00e+00	0	45	0	795869184	11	3726
2026-01-19 15:58:36.89	215.75	15.66	-25.4	-25.7	16.1	0.00e+00	0	45	0	802160640	11	3743
2026-01-19 15:58:37.90	215.89	15.75	-25.4	-25.7	16.1	0.00e+00	0	45	0	809500672	11	3745
2026-01-19 15:58:38.90	216.03	15.83	-25.6	-26.2	15.8	3.40e-06	0	45	0	816840704	11	3865
2026-01-19 15:58:39.89	216.17	15.92	-25.6	-26.3	15.8	0.00e+00	0	45	0	824180736	11	3883
2026-01-19 15:58:40.90	216.32	16.00	-25.6	-26.1	15.9	0.00e+00	0	45	0	831520768	11	3847
2026-01-19 15:58:41.89	216.46	16.09	-25.6	-26.3	15.8	0.00e+00	0	45	0	838860800	11	3889
2026-01-19 15:58:42.90	216.61	16.17	-25.8	-26.6	15.6	0.00e+00	0	45	0	846200832	11	3963
2026-01-19 15:58:43.90	216.75	16.26	-25.5	-26.0	15.9	0.00e+00	0	45	0	853540864	11	3821
2026-01-19 15:58:44.89	216.90	16.34	-25.4	-25.8	16.1	0.00e+00	0	45	0	859832320	11	3759
2026-01-19 15:58:45.90	217.05	16.43	-25.4	-25.8	16.1	0.00e+00	0	45	0	867172352	11	3757
2026-01-19 15:58:46.89	217.20	16.51	-25.5	-26.1	16.0	0.00e+00	0	45	0	874512384	11	3828
2026-01-19 15:58:47.90	217.35	16.60	-25.4	-25.8	16.1	0.00e+00	0	45	0	881852416	11	3753
2026-01-19 15:58:48.90	217.50	16.68	-25.5	-26.0	16.0	0.00e+00	0	45	0	889192448	11	3815
2026-01-19 15:58:49.90	217.65	16.77	-25.3	-25.5	16.3	0.00e+00	0	45	0	896532480	11	3691
2026-01-19 15:58:50.91	217.80	16.86	-25.0	-25.0	16.6	0.00e+00	0	45	0	903872512	11	3576
2026-01-19 15:58:51.91	217.95	16.94	-24.9	-24.7	16.7	0.00e+00	0	45	0	911212544	11	3526
2026-01-19 15:58:52.91	218.11	17.03	-24.9	-24.8	16.7	0.00e+00	0	45	0	918552576	11	3532
2026-01-19 15:58:53.92	218.26	17.11	-24.8	-25.0	16.9	0.00e+00	0	45	0	924844032	10	3672
2026-01-19 15:58:54.92	218.42	17.20	-24.9	-25.1	16.8	0.00e+00	0	45	0	932184064	10	3692
2026-01-19 15:58:55.92	218.57	17.29	-24.7	-24.8	16.9	0.00e+00	0	45	0	939524096	10	3637
2026-01-19 15:58:56.93	218.73	17.37	-24.6	-24.6	17.0	0.00e+00	0	45	0	946864128	10	3589
2026-01-19 15:58:57.93	218.89	17.46	-24.7	-24.8	17.0	0.00e+00	0	45	0	954204160	10	3622
2026-01-19 15:58:58.93	219.05	17.55	-24.9	-25.3	16.7	0.00e+00	0	46	0	961544192	10	3747
2026-01-19 15:58:59.93	219.21	17.63	-24.8	-25.1	16.8	0.00e+00	0	45	0	968884224	10	3699
2026-01-19 15:59:00.93	219.37	17.72	-24.9	-25.3	16.7	0.00e+00	0	45	0	976224256	10	3745
2026-01-19 15:59:01.93	219.53	17.81	-24.9	-25.3	16.7	0.00e+00	0	46	0	983564288	10	3741
2026-01-19 15:59:02.94	219.69	17.90	-25.0	-25.5	16.6	0.00e+00	0	45	0	990904320	10	3795
2026-01-19 15:59:03.94	219.86	17.98	-25.0	-25.3	16.7	0.00e+00	0	45	0	998244352	10	3752
2026-01-19 15:59:04.95	220.02	18.07	-24.9	-25.1	16.8	0.00e+00	0	45	0	1004535808	10	3707
2026-01-19 15:59:05.95	220.19	18.16	-24.9	-25.2	16.8	0.00e+00	0	45	0	1011875840	10	3719
2026-01-19 15:59:06.96	220.36	18.25	-24.8	-25.0	16.9	0.00e+00	0	45	0	1019215872	10	3680
2026-01-19 15:59:07.96	220.52	18.33	-25.0	-25.4	16.7	0.00e+00	0	45	0	1026555904	10	3768
2026-01-19 15:59:08.97	220.69	18.42	-24.8	-24.9	16.9	0.00e+00	0	45	0	1033895936	10	3657
2026-01-19 15:59:09.97	220.86	18.51	-24.6	-24.6	17.1	0.00e+00	0	45	0	1041235968	10	3597
2026-01-19 15:59:10.97	221.03	18.60	-24.6	-24.6	17.1	0.00e+00	0	45	0	1048576000	10	3589
2026-01-19 15:59:11.98	221.20	18.68	-24.5	-24.4	17.2	0.00e+00	0	46	0	1055916032	10	3555
2026-01-19 15:59:12.98	221.38	18.77	-24.7	-24.7	17.0	0.00e+00	0	45	0	1063256064	10	3609
2026-01-19 15:59:13.98	221.55	18.86	-24.6	-24.6	17.1	0.00e+00	0	45	0	1069547520	10	3587
2026-01-19 15:59:14.98	221.72	18.95	-24.5	-24.3	17.3	0.00e+00	0	45	0	1076887552	10	3517
2026-01-19 15:59:15.99	221.90	19.04	-24.6	-24.6	17.1	0.00e+00	0	45	0	1085276160	10	3596
2026-01-19 15:59:16.99	222.07	19.12	-24.5	-24.3	17.3	0.00e+00	0	45	0	1091567616	10	3530
2026-01-19 15:59:18.00	222.25	19.21	-24.4	-24.2	17.3	0.00e+00	0	45	0	1098907648	10	3509
2026-01-19 15:59:18.99	222.43	19.30	-24.6	-24.5	17.2	0.00e+00	0	45	0	1106247680	10	3564
2026-01-19 15:59:20.00	222.61	19.39	-24.6	-24.6	17.2	0.00e+00	0	46	0	1113587712	10	3589
2026-01-19 15:59:21.00	222.79	19.48	-24.7	-24.8	17.1	0.00e+00	0	45	0	1120927744	10	3622
2026-01-19 15:59:22.00	222.97	19.57	-24.6	-24.6	17.1	0.00e+00	0	46	0	1128267776	10	3599
2026-01-19 15:59:23.01	223.15	19.66	-24.7	-24.8	17.0	0.00e+00	0	46	0	1135607808	10	3635
2026-01-19 15:59:24.01	223.33	19.74	-24.9	-25.2	16.8	0.00e+00	0	45	0	1142947840	10	3713
2026-01-19 15:59:25.01	223.52	19.83	-25.1	-25.6	16.6	0.00e+00	0	45	0	1150287872	10	3810
2026-01-19 15:59:26.02	223.70	19.92	-24.9	-25.1	16.9	0.00e+00	0	45	0	1156579328	10	3708
2026-01-19 15:59:27.02	223.89	20.01	-24.9	-25.2	16.9	0.00e+00	0	45	0	1163919360	10	3724
2026-01-19 15:59:28.03	224.08	20.10	-24.9	-25.2	16.8	0.00e+00	0	45	0	1171259392	10	3722
2026-01-19 15:59:29.03	224.27	20.19	-25.0	-25.5	16.7	0.00e+00	0	45	0	1178599424	10	3789
2026-01-19 15:59:30.04	224.46	20.28	-24.7	-24.8	17.1	0.00e+00	0	45	0	1185939456	10	3625
2026-01-19 15:59:31.04	224.65	20.36	-24.8	-25.1	16.9	0.00e+00	0	45	0	1193279488	10	3690
2026-01-19 15:59:32.04	224.84	20.45	-24.6	-24.6	17.2	2.20e-06	0	45	0	1200619520	10	3584
2026-01-19 15:59:33.05	225.03	20.54	-24.5	-24.3	17.4	0.00e+00	0	46	0	1207959552	10	3518
2026-01-19 15:59:34.05	225.23	20.63	-24.4	-24.1	17.4	0.00e+00	0	45	0	1215299584	10	3481
2026-01-19 15:59:35.06	225.42	20.72	-24.4	-24.6	17.4	1.10e-06	0	45	0	1222639616	9	3692
2026-01-19 15:59:36.05	225.62	20.81	-24.4	-24.6	17.4	0.00e+00	0	45	0	1229979648	9	3687
2026-01-19 15:59:37.06	225.81	20.90	-24.4	-24.5	17.5	0.00e+00	0	46	0	1236271104	9	3668
2026-01-19 15:59:38.06	226.01	20.98	-24.3	-24.3	17.6	8.00e-06	0	45	0	1243611136	9	3630
2026-01-19 15:59:39.07	226.21	21.07	-24.2	-24.3	17.6	0.00e+00	0	46	0	1250951168	9	3613
2026-01-19 15:59:40.07	226.41	21.16	-24.3	-24.3	17.6	0.00e+00	0	46	0	1258291200	9	3625
2026-01-19 15:59:41.07	226.61	21.25	-24.3	-24.4	17.5	3.40e-06	0	45	0	1265631232	9	3631
2026-01-19 15:59:42.07	226.81	21.34	-24.2	-24.1	17.7	0.00e+00	0	46	0	1272971264	9	3586
2026-01-19 15:59:43.07	227.02	21.43	-24.3	-24.4	17.5	0.00e+00	0	45	0	1280311296	9	3653
2026-01-19 15:59:44.08	227.22	21.51	-24.4	-24.6	17.4	5.70e-06	0	45	0	1287651328	9	3688
2026-01-19 15:59:45.08	227.43	21.60	-24.4	-24.7	17.4	0.00e+00	0	45	0	1294991360	9	3718
2026-01-19 15:59:46.09	227.64	21.69	-24.3	-24.5	17.5	0.00e+00	0	45	0	1302331392	9	3669
2026-01-19 15:59:47.09	227.85	21.78	-24.4	-24.6	17.5	0.00e+00	0	46	0	1309671424	9	3686
2026-01-19 15:59:48.10	228.06	21.87	-24.3	-24.4	17.6	0.00e+00	0	45	0	1317011456	9	3654
2026-01-19 15:59:49.10	228.27	21.96	-24.3	-24.4	17.6	0.00e+00	0	45	0	1323302912	9	3640
2026-01-19 15:59:50.10	228.48	22.04	-24.4	-24.6	17.5	0.00e+00	0	45	0	1330642944	9	3688
2026-01-19 15:59:51.10	228.69	22.13	-24.2	-24.3	17.6	0.00e+00	0	45	0	1337982976	9	3623
2026-01-19 15:59:52.10	228.90	22.22	-24.4	-24.6	17.5	0.00e+00	0	45	0	1345323008	9	3694
2026-01-19 15:59:53.10	229.12	22.30	-24.2	-24.2	17.7	0.00e+00	0	45	0	1352663040	9	3598
2026-01-19 15:59:54.10	229.33	22.39	-24.1	-23.9	17.8	0.00e+00	0	45	0	1360003072	9	3535
2026-01-19 15:59:55.09	229.55	22.48	-24.0	-23.9	17.8	0.00e+00	0	45	0	1367343104	9	3532
2026-01-19 15:59:56.10	229.77	22.57	-24.2	-24.2	17.7	0.00e+00	0	45	0	1374683136	9	3588
2026-01-19 15:59:57.10	229.99	22.65	-24.0	-23.7	17.9	0.00e+00	0	45	0	1382023168	9	3495
2026-01-19 15:59:58.10	230.21	22.74	-24.0	-23.8	17.9	0.00e+00	0	45	0	1388314624	9	3504
2026-01-19 15:59:59.11	230.43	22.83	-24.0	-23.8	17.9	0.00e+00	0	45	0	1395654656	9	3512
2026-01-19 16:00:00.12	230.66	22.91	-24.1	-23.9	17.9	0.00e+00	0	45	0	1402994688	9	3533
2026-01-19 16:00:01.12	230.88	23.00	-24.1	-24.0	17.8	0.00e+00	0	45	0	1410334720	9	3544
2026-01-19 16:00:02.11	231.11	23.09	-23.9	-24.0	18.1	0.00e+00	0	45	0	1417674752	8	3659
2026-01-19 16:00:03.11	231.33	23.17	-23.8	-23.8	18.1	0.00e+00	0	45	0	1425014784	8	3615
2026-01-19 16:00:04.11	231.56	23.26	-23.9	-23.9	18.1	0.00e+00	0	45	0	1432354816	8	3634
2026-01-19 16:00:05.11	231.79	23.34	-23.9	-24.0	18.1	0.00e+00	0	45	0	1439694848	8	3644
2026-01-19 16:00:06.12	232.02	23.43	-24.0	-24.2	17.9	0.00e+00	0	45	0	1445986304	8	3700
2026-01-19 16:00:07.11	232.25	23.51	-23.9	-24.1	18.0	0.00e+00	0	45	0	1453326336	8	3675
2026-01-19 16:00:08.12	232.49	23.60	-24.0	-24.2	17.9	0.00e+00	0	45	0	1460666368	8	3707
2026-01-19 16:00:09.12	232.72	23.68	-24.0	-24.3	17.9	0.00e+00	0	45	0	1468006400	8	3718
2026-01-19 16:00:10.12	232.96	23.77	-24.1	-24.5	17.8	0.00e+00	0	45	0	1475346432	8	3767
2026-01-19 16:00:11.12	233.19	23.85	-24.0	-24.3	17.9	0.00e+00	0	45	0	1482686464	8	3730
2026-01-19 16:00:12.13	233.43	23.94	-24.0	-24.3	17.9	0.00e+00	0	45	0	1490026496	8	3724
2026-01-19 16:00:13.13	233.67	24.02	-24.0	-24.3	18.0	0.00e+00	0	45	0	1497366528	8	3709
2026-01-19 16:00:14.14	233.91	24.11	-23.9	-24.0	18.1	0.00e+00	0	45	0	1504706560	8	3646
2026-01-19 16:00:15.13	234.15	24.19	-23.8	-23.8	18.2	0.00e+00	0	45	0	1512046592	8	3614
2026-01-19 16:00:16.14	234.40	24.27	-23.8	-23.9	18.2	0.00e+00	0	45	0	1519386624	8	3617
2026-01-19 16:00:17.15	234.65	24.36	-23.7	-23.7	18.2	0.00e+00	0	45	0	1526726656	8	3589
2026-01-19 16:00:18.16	234.89	24.44	-23.8	-23.9	18.2	0.00e+00	0	45	0	1533018112	8	3635
2026-01-19 16:00:19.16	235.14	24.52	-23.7	-23.7	18.3	0.00e+00	0	46	0	1540358144	8	3577
2026-01-19 16:00:20.17	235.39	24.60	-23.7	-23.7	18.3	0.00e+00	0	46	0	1547698176	8	3591
2026-01-19 16:00:21.17	235.64	24.69	-23.8	-23.9	18.2	0.00e+00	0	45	0	1555038208	8	3626
2026-01-19 16:00:22.17	235.89	24.77	-23.7	-23.7	18.2	0.00e+00	0	45	0	1562378240	8	3582
2026-01-19 16:00:23.17	236.14	24.85	-23.7	-23.7	18.3	0.00e+00	0	45	0	1569718272	8	3593
2026-01-19 16:00:24.17	236.39	24.93	-23.7	-23.5	18.4	0.00e+00	0	46	0	1577058304	8	3543
2026-01-19 16:00:25.17	236.65	25.01	-23.7	-23.5	18.3	0.00e+00	0	45	0	1584398336	8	3549
2026-01-19 16:00:26.18	236.91	25.09	-23.7	-23.6	18.3	0.00e+00	0	45	0	1591738368	8	3571
2026-01-19 16:00:27.18	237.16	25.17	-23.6	-23.4	18.5	0.00e+00	0	45	0	1598029824	8	3513
2026-01-19 16:00:28.18	237.42	25.25	-23.5	-23.2	18.5	0.00e+00	0	45	0	1605369856	8	3482
2026-01-19 16:00:29.18	237.68	25.33	-23.6	-23.4	18.4	0.00e+00	0	45	0	1612709888	8	3509
2026-01-19 16:00:30.19	237.94	25.41	-23.6	-23.3	18.5	0.00e+00	0	45	0	1620049920	8	3504
2026-01-19 16:00:31.20	238.21	25.49	-23.6	-23.4	18.5	0.00e+00	0	45	0	1627389952	8	3514
2026-01-19 16:00:32.19	238.47	25.56	-23.6	-23.4	18.5	0.00e+00	0	45	0	1634729984	8	3518
2026-01-19 16:00:33.20	238.74	25.64	-23.6	-23.4	18.4	0.00e+00	0	45	0	1642070016	8	3528
2026-01-19 16:00:34.20	239.00	25.72	-23.6	-23.4	18.4	0.00e+00	0	46	0	1649410048	8	3530
2026-01-19 16:00:35.20	239.27	25.79	-23.7	-23.6	18.3	0.00e+00	0	45	0	1656750080	8	3563
2026-01-19 16:00:36.21	239.54	25.87	-23.6	-23.4	18.4	0.00e+00	0	45	0	1664090112	8	3533
2026-01-19 16:00:37.21	239.81	25.95	-23.7	-23.6	18.3	0.00e+00	0	45	0	1671430144	8	3573
2026-01-19 16:00:38.21	240.08	26.02	-23.6	-23.5	18.4	0.00e+00	0	45	0	1677721600	8	3554
2026-01-19 16:00:39.22	240.35	26.10	-23.7	-23.6	18.4	0.00e+00	0	45	0	1685061632	8	3560
2026-01-19 16:00:40.22	240.63	26.17	-23.6	-23.4	18.5	1.10e-06	0	45	0	1692401664	8	3521
2026-01-19 16:00:41.23	240.90	26.25	-23.6	-23.5	18.4	0.00e+00	0	45	0	1699741696	8	3542
2026-01-19 16:00:42.22	241.18	26.32	-23.5	-23.3	18.5	0.00e+00	0	45	0	1707081728	8	3501
2026-01-19 16:00:43.22	241.45	26.39	-23.6	-23.4	18.5	1.10e-06	0	45	0	1714421760	8	3510
2026-01-19 16:00:44.23	241.73	26.47	-23.6	-23.4	18.4	0.00e+00	0	45	0	1721761792	8	3523
2026-01-19 16:00:45.23	242.01	26.54	-23.5	-23.1	18.6	0.00e+00	0	45	0	1729101824	8	3466
2026-01-19 16:00:46.24	242.30	26.61	-23.5	-23.2	18.6	0.00e+00	0	45	0	1736441856	8	3483
2026-01-19 16:00:47.24	242.58	26.68	-23.5	-23.2	18.6	0.00e+00	0	45	0	1743781888	8	3467
2026-01-19 16:00:48.24	242.86	26.75	-23.6	-23.4	18.5	0.00e+00	0	45	0	1751121920	8	3529
2026-01-19 16:00:49.23	243.14	26.82	-23.4	-23.1	18.6	0.00e+00	0	45	0	1758461952	8	3456
2026-01-19 16:00:50.23	243.43	26.89	-23.5	-23.1	18.6	0.00e+00	0	45	0	1764753408	8	3463
2026-01-19 16:00:51.24	243.72	26.96	-23.4	-23.0	18.7	0.00e+00	0	45	0	1772093440	8	3438
2026-01-19 16:00:52.24	244.01	27.02	-23.4	-23.4	18.7	0.00e+00	0	45	0	1779433472	7	3620
2026-01-19 16:00:53.24	244.30	27.09	-23.3	-23.4	18.7	0.00e+00	0	45	0	1786773504	7	3612
2026-01-19 16:00:54.24	244.59	27.16	-23.3	-23.3	18.8	0.00e+00	0	45	0	1794113536	7	3588
2026-01-19 16:00:55.24	244.88	27.22	-23.4	-23.5	18.7	0.00e+00	0	45	0	1801453568	7	3639
2026-01-19 16:00:56.24	245.17	27.29	-23.3	-23.3	18.8	0.00e+00	0	45	0	1808793600	7	3586
2026-01-19 16:00:57.24	245.46	27.35	-23.3	-23.3	18.8	0.00e+00	0	45	0	1816133632	7	3585
2026-01-19 16:00:58.24	245.76	27.42	-23.3	-23.3	18.7	1.10e-06	0	45	0	1822425088	7	3607
2026-01-19 16:00:59.24	246.05	27.48	-23.4	-23.5	18.7	0.00e+00	0	45	0	1829765120	7	3639
2026-01-19 16:01:00.23	246.35	27.54	-23.4	-23.5	18.7	0.00e+00	0	45	0	1837105152	7	3633
2026-01-19 16:01:01.24	246.65	27.61	-23.5	-23.6	18.6	0.00e+00	0	45	0	1844445184	7	3673
2026-01-19 16:01:02.24	246.95	27.67	-23.5	-23.7	18.6	0.00e+00	0	45	0	1851785216	7	3676
2026-01-19 16:01:03.24	247.25	27.73	-23.7	-24.0	18.4	0.00e+00	0	45	0	1859125248	7	3763
2026-01-19 16:01:04.24	247.55	27.79	-23.8	-24.4	18.2	0.00e+00	0	45	0	1866465280	7	3838
2026-01-19 16:01:05.24	247.86	27.85	-24.0	-24.8	18.0	0.00e+00	0	45	0	1873805312	7	3928
2026-01-19 16:01:06.24	248.16	27.91	-24.0	-24.8	18.0	0.00e+00	0	45	0	1881145344	7	3936
2026-01-19 16:01:07.25	248.47	27.97	-24.1	-25.0	17.9	0.00e+00	0	45	0	1887436800	7	3976
2026-01-19 16:01:08.25	248.77	28.02	-24.1	-24.5	18.0	0.00e+00	0	45	0	1894776832	8	3754
2026-01-19 16:01:09.26	249.08	28.08	-24.2	-24.6	17.9	0.00e+00	0	45	0	1902116864	8	3782
2026-01-19 16:01:10.25	249.39	28.13	-24.1	-24.6	17.9	0.00e+00	0	45	0	1909456896	8	3774
2026-01-19 16:01:11.26	249.70	28.19	-24.3	-25.0	17.7	0.00e+00	0	45	0	1916796928	8	3871
2026-01-19 16:01:12.27	250.01	28.24	-23.9	-24.0	18.2	0.00e+00	0	45	0	1924136960	8	3643
2026-01-19 16:01:13.26	250.32	28.30	-23.6	-23.4	18.5	0.00e+00	0	45	0	1931476992	8	3515
2026-01-19 16:01:14.26	250.64	28.35	-23.5	-23.2	18.6	0.00e+00	0	45	0	1938817024	8	3469
2026-01-19 16:01:15.27	250.95	28.40	-23.5	-23.3	18.6	0.00e+00	0	45	0	1946157056	8	3497
2026-01-19 16:01:16.27	251.27	28.45	-23.6	-23.3	18.6	0.00e+00	0	45	0	1952448512	8	3501
2026-01-19 16:01:17.28	251.58	28.50	-23.6	-23.5	18.5	0.00e+00	0	45	0	1959788544	8	3533
2026-01-19 16:01:18.28	251.90	28.55	-23.6	-23.4	18.5	0.00e+00	0	45	0	1967128576	8	3529
2026-01-19 16:01:19.29	252.22	28.60	-23.6	-23.4	18.5	0.00e+00	0	45	0	1974468608	8	3530
2026-01-19 16:01:20.29	252.54	28.65	-23.6	-23.5	18.5	0.00e+00	0	45	0	1981808640	8	3537
2026-01-19 16:01:21.30	252.86	28.70	-23.7	-23.5	18.5	0.00e+00	0	45	0	1989148672	8	3550
2026-01-19 16:01:22.31	253.18	28.74	-23.6	-23.4	18.5	0.00e+00	0	45	0	1996488704	8	3525
2026-01-19 16:01:23.31	253.51	28.79	-23.6	-23.5	18.5	0.00e+00	0	45	0	2003828736	8	3534
2026-01-19 16:01:24.31	253.83	28.83	-23.6	-23.5	18.5	0.00e+00	0	45	0	2011168768	8	3541
2026-01-19 16:01:25.32	254.15	28.87	-23.8	-23.8	18.4	0.00e+00	0	45	0	2018508800	8	3601
2026-01-19 16:01:26.32	254.48	28.92	-23.7	-23.7	18.4	0.00e+00	0	45	0	2025848832	8	3582
2026-01-19 16:01:27.32	254.80	28.96	-23.7	-23.6	18.4	0.00e+00	0	45	0	2032140288	8	3574
2026-01-19 16:01:28.32	255.13	29.00	-23.7	-23.7	18.4	0.00e+00	0	45	0	2039480320	8	3580
2026-01-19 16:01:29.33	255.45	29.04	-23.8	-23.8	18.3	0.00e+00	0	45	0	2046820352	8	3609
2026-01-19 16:01:30.33	255.78	29.07	-23.9	-23.9	18.3	0.00e+00	0	45	0	2054160384	8	3633
2026-01-19 16:01:31.34	256.11	29.11	-23.9	-24.0	18.3	0.00e+00	0	45	0	2061500416	8	3636
2026-01-19 16:01:32.34	256.44	29.15	-23.7	-23.5	18.5	0.00e+00	0	45	0	2068840448	8	3544
2026-01-19 16:01:33.34	256.77	29.18	-23.6	-23.5	18.5	0.00e+00	0	45	0	2076180480	8	3532
2026-01-19 16:01:34.34	257.10	29.22	-23.7	-23.7	18.4	0.00e+00	0	45	0	2083520512	8	3575
2026-01-19 16:01:35.34	257.43	29.25	-23.9	-23.9	18.3	0.00e+00	0	45	0	2090860544	8	3636
2026-01-19 16:01:36.35	257.76	29.29	-24.0	-24.2	18.1	0.00e+00	0	45	0	2098200576	8	3702
2026-01-19 16:01:37.35	258.09	29.32	-23.8	-23.8	18.4	0.00e+00	0	45	0	2105540608	8	3601
2026-01-19 16:01:38.36	258.43	29.35	-23.5	-23.2	18.7	0.00e+00	0	45	0	2112880640	8	3474
2026-01-19 16:01:39.36	258.76	29.38	-23.5	-23.1	18.7	0.00e+00	0	45	0	2119172096	8	3461
2026-01-19 16:01:40.36	259.10	29.41	-23.5	-23.2	18.7	0.00e+00	0	45	0	2126512128	8	3466
2026-01-19 16:01:41.37	259.43	29.43	-23.5	-23.7	18.7	0.00e+00	0	45	0	2133852160	7	3679
2026-01-19 16:01:42.38	259.77	29.46	-23.5	-23.7	18.6	0.00e+00	0	45	0	2141192192	7	3692
2026-01-19 16:01:43.39	260.11	29.49	-23.6	-24.0	18.5	0.00e+00	0	45	0	2148532224	7	3742
2026-01-19 16:01:44.39	260.44	29.51	-23.8	-24.3	18.3	0.00e+00	0	45	0	2155872256	7	3823
2026-01-19 16:01:45.39	260.78	29.53	-23.7	-24.1	18.4	0.00e+00	0	45	0	2163212288	7	3783
2026-01-19 16:01:46.39	261.12	29.56	-23.7	-24.2	18.4	0.00e+00	0	45	0	2170552320	7	3786
2026-01-19 16:01:47.40	261.46	29.58	-23.7	-24.1	18.5	0.00e+00	0	45	0	2177892352	7	3768
2026-01-19 16:01:48.40	261.79	29.60	-23.6	-23.9	18.5	0.00e+00	0	45	0	2185232384	7	3728
2026-01-19 16:01:49.40	262.13	29.62	-23.6	-23.9	18.6	0.00e+00	0	45	0	2192572416	7	3712
2026-01-19 16:01:50.40	262.47	29.64	-23.5	-23.7	18.7	0.00e+00	0	45	0	2199912448	7	3670
2026-01-19 16:01:51.41	262.81	29.65	-23.6	-24.0	18.5	0.00e+00	0	45	0	2206203904	7	3744
2026-01-19 16:01:52.41	263.15	29.67	-23.8	-24.3	18.3	0.00e+00	0	45	0	2213543936	7	3819
2026-01-19 16:01:53.42	263.49	29.68	-23.5	-23.7	18.7	0.00e+00	0	45	0	2220883968	7	3692
2026-01-19 16:01:54.42	263.83	29.70	-23.4	-23.5	18.8	0.00e+00	0	45	0	2228224000	7	3634
2026-01-19 16:01:55.42	264.17	29.71	-23.4	-23.5	18.8	0.00e+00	0	45	0	2235564032	7	3633
2026-01-19 16:01:56.43	264.51	29.72	-23.4	-23.6	18.7	0.00e+00	0	45	0	2242904064	7	3656
2026-01-19 16:01:57.43	264.85	29.73	-23.4	-23.6	18.7	0.00e+00	0	45	0	2250244096	7	3650
2026-01-19 16:01:58.43	265.19	29.74	-23.6	-23.9	18.6	0.00e+00	0	45	0	2257584128	7	3722
2026-01-19 16:01:59.43	265.53	29.75	-23.6	-24.0	18.6	0.00e+00	0	45	0	2263875584	7	3748
2026-01-19 16:02:00.43	265.88	29.76	-23.7	-24.1	18.4	0.00e+00	0	45	0	2271215616	7	3783
2026-01-19 16:02:01.42	266.21	29.76	-23.7	-24.1	18.5	0.00e+00	0	45	0	2278555648	7	3772
2026-01-19 16:02:02.42	266.55	29.77	-23.8	-24.4	18.3	0.00e+00	0	45	0	2285895680	7	3844
2026-01-19 16:02:03.43	266.90	29.77	-23.9	-24.6	18.2	0.00e+00	0	45	0	2293235712	7	3894
2026-01-19 16:02:04.43	267.24	29.78	-23.9	-24.5	18.3	0.00e+00	0	45	0	2300575744	7	3866
2026-01-19 16:02:05.44	267.58	29.78	-24.0	-24.7	18.2	0.00e+00	0	45	0	2307915776	7	3907
2026-01-19 16:02:06.44	267.92	29.78	-23.9	-24.5	18.3	0.00e+00	0	45	0	2315255808	7	3860
2026-01-19 16:02:07.45	268.27	29.78	-23.9	-24.4	18.3	0.00e+00	0	45	0	2322595840	7	3850
2026-01-19 16:02:08.45	268.61	29.78	-23.9	-24.5	18.3	0.00e+00	0	45	0	2329935872	7	3858
2026-01-19 16:02:09.45	268.95	29.78	-23.9	-24.5	18.3	0.00e+00	0	45	0	2337275904	7	3857
2026-01-19 16:02:10.44	269.29	29.77	-23.6	-24.0	18.5	0.00e+00	0	45	0	2344615936	7	3740
2026-01-19 16:02:11.43	269.63	29.77	-23.6	-24.0	18.5	0.00e+00	0	45	0	2350907392	7	3748
2026-01-19 16:02:12.43	269.97	29.76	-23.6	-23.9	18.5	0.00e+00	0	45	0	2358247424	7	3732
2026-01-19 16:02:13.44	270.31	29.76	-23.7	-24.0	18.5	0.00e+00	0	45	0	2365587456	7	3761
2026-01-19 16:02:14.44	270.65	29.75	-23.7	-24.0	18.5	0.00e+00	0	45	0	2372927488	7	3755
2026-01-19 16:02:15.43	270.99	29.74	-23.7	-24.1	18.5	0.00e+00	0	45	0	2380267520	7	3778
2026-01-19 16:02:16.43	271.33	29.73	-23.8	-24.2	18.4	0.00e+00	0	45	0	2386558976	7	3802
2026-01-19 16:02:17.43	271.67	29.72	-23.6	-23.8	18.6	0.00e+00	0	46	0	2393899008	7	3711
2026-01-19 16:02:18.42	272.00	29.71	-23.7	-24.1	18.5	0.00e+00	0	45	0	2401239040	7	3769
2026-01-19 16:02:19.41	272.34	29.69	-23.7	-24.0	18.5	0.00e+00	0	45	0	2408579072	7	3759
2026-01-19 16:02:20.41	272.68	29.68	-23.9	-24.5	18.2	0.00e+00	0	46	0	2415919104	7	3859
2026-01-19 16:02:21.41	273.02	29.66	-23.8	-24.3	18.4	0.00e+00	0	45	0	2423259136	7	3810
2026-01-19 16:02:22.41	273.36	29.65	-23.8	-24.4	18.3	0.00e+00	0	46	0	2430599168	7	3840
2026-01-19 16:02:23.40	273.69	29.63	-23.7	-24.2	18.4	0.00e+00	0	46	0	2437939200	7	3786
2026-01-19 16:02:24.40	274.03	29.61	-23.7	-24.1	18.4	0.00e+00	0	46	0	2445279232	7	3778
2026-01-19 16:02:25.40	274.36	29.59	-23.7	-24.2	18.4	0.00e+00	0	46	0	2451570688	7	3789
2026-01-19 16:02:26.40	274.70	29.57	-23.6	-23.8	18.6	0.00e+00	0	46	0	2458910720	7	3706
2026-01-19 16:02:27.39	275.03	29.55	-23.6	-24.0	18.5	0.00e+00	0	46	0	2466250752	7	3749
2026-01-19 16:02:28.39	275.37	29.53	-23.6	-23.9	18.6	0.00e+00	0	46	0	2473590784	7	3721
2026-01-19 16:02:29.39	275.71	29.50	-23.4	-23.5	18.7	0.00e+00	0	46	0	2480930816	7	3645
2026-01-19 16:02:30.39	276.04	29.48	-23.5	-23.7	18.7	0.00e+00	0	46	0	2488270848	7	3682
2026-01-19 16:02:31.39	276.37	29.45	-23.6	-23.8	18.6	0.00e+00	0	46	0	2495610880	7	3715
2026-01-19 16:02:32.40	276.71	29.43	-23.6	-23.9	18.6	0.00e+00	0	46	0	2502950912	7	3717
2026-01-19 16:02:33.40	277.05	29.40	-23.7	-24.1	18.5	0.00e+00	0	46	0	2510290944	7	3768
2026-01-19 16:02:34.39	277.37	29.37	-23.7	-24.1	18.5	0.00e+00	0	46	0	2516582400	7	3777
2026-01-19 16:02:35.38	277.70	29.34	-23.7	-24.1	18.5	0.00e+00	0	46	0	2523922432	7	3760
2026-01-19 16:02:36.39	278.04	29.31	-23.9	-24.6	18.2	0.00e+00	0	46	0	2531262464	7	3889
2026-01-19 16:02:37.38	278.37	29.28	-24.1	-24.4	18.1	0.00e+00	0	46	0	2538602496	8	3744
2026-01-19 16:02:38.38	278.70	29.24	-23.9	-24.0	18.3	0.00e+00	0	46	0	2545942528	8	3647
2026-01-19 16:02:39.38	279.03	29.21	-23.8	-23.9	18.4	0.00e+00	0	46	0	2552233984	8	3619
2026-01-19 16:02:40.39	279.36	29.18	-23.7	-23.5	18.5	0.00e+00	0	46	0	2560622592	8	3544
2026-01-19 16:02:41.38	279.68	29.14	-23.7	-23.6	18.5	0.00e+00	0	46	0	2566914048	8	3568
2026-01-19 16:02:42.38	280.01	29.10	-23.7	-23.6	18.5	0.00e+00	0	46	0	2574254080	8	3554
2026-01-19 16:02:43.38	280.34	29.07	-23.5	-23.2	18.7	0.00e+00	0	46	0	2581594112	8	3484
2026-01-19 16:02:44.38	280.66	29.03	-23.5	-23.2	18.7	0.00e+00	0	46	0	2588934144	8	3468
2026-01-19 16:02:45.38	280.99	28.99	-23.6	-23.3	18.6	0.00e+00	0	46	0	2596274176	8	3495
2026-01-19 16:02:46.38	281.31	28.95	-23.5	-23.3	18.7	0.00e+00	0	46	0	2603614208	8	3487
2026-01-19 16:02:47.38	281.63	28.91	-23.6	-23.5	18.5	0.00e+00	0	46	0	2610954240	8	3527
2026-01-19 16:02:48.39	281.96	28.86	-23.7	-23.5	18.5	0.00e+00	0	46	0	2618294272	8	3548
2026-01-19 16:02:49.38	282.28	28.82	-23.5	-23.3	18.6	0.00e+00	0	46	0	2625634304	8	3490
2026-01-19 16:02:50.39	282.60	28.78	-23.6	-23.4	18.6	0.00e+00	0	46	0	2632974336	8	3512
2026-01-19 16:02:51.39	282.92	28.73	-23.6	-23.5	18.5	0.00e+00	0	46	0	2639265792	8	3532
2026-01-19 16:02:52.39	283.24	28.69	-23.7	-23.5	18.5	0.00e+00	0	46	0	2646605824	8	3547
2026-01-19 16:02:53.39	283.56	28.64	-23.4	-23.0	18.8	0.00e+00	0	46	0	2653945856	8	3431
2026-01-19 16:02:54.39	283.88	28.59	-23.5	-23.1	18.7	0.00e+00	0	46	0	2661285888	8	3464
2026-01-19 16:02:55.39	284.19	28.54	-23.5	-23.2	18.7	0.00e+00	0	46	0	2668625920	8	3478
2026-01-19 16:02:56.39	284.51	28.50	-23.7	-23.6	18.5	0.00e+00	0	46	0	2675965952	8	3560
2026-01-19 16:02:57.39	284.82	28.45	-23.8	-23.9	18.3	0.00e+00	0	46	0	2683305984	8	3623
2026-01-19 16:02:58.39	285.14	28.39	-23.7	-23.6	18.4	0.00e+00	0	46	0	2690646016	8	3565
2026-01-19 16:02:59.39	285.45	28.34	-23.7	-23.6	18.5	0.00e+00	0	46	0	2697986048	8	3562
2026-01-19 16:03:00.40	285.76	28.29	-23.6	-23.5	18.5	0.00e+00	0	46	0	2704277504	8	3536
2026-01-19 16:03:01.40	286.07	28.24	-23.5	-23.2	18.7	0.00e+00	0	46	0	2711617536	8	3475
2026-01-19 16:03:02.41	286.39	28.18	-23.5	-23.3	18.6	0.00e+00	0	46	0	2718957568	8	3493
2026-01-19 16:03:03.41	286.69	28.13	-23.6	-23.3	18.6	0.00e+00	0	46	0	2726297600	8	3502
2026-01-19 16:03:04.42	287.01	28.07	-23.5	-23.2	18.6	0.00e+00	0	46	0	2733637632	8	3485
2026-01-19 16:03:05.42	287.31	28.02	-23.6	-23.4	18.6	0.00e+00	0	46	0	2740977664	8	3521
2026-01-19 16:03:06.42	287.62	27.96	-23.7	-23.6	18.5	0.00e+00	0	46	0	2748317696	8	3553
2026-01-19 16:03:07.42	287.92	27.90	-23.8	-23.8	18.4	0.00e+00	0	46	0	2755657728	8	3600
2026-01-19 16:03:08.42	288.22	27.84	-23.8	-23.8	18.4	0.00e+00	0	46	0	2761949184	8	3595
2026-01-19 16:03:09.42	288.53	27.78	-23.8	-23.8	18.3	0.00e+00	0	46	0	2769289216	8	3608
2026-01-19 16:03:10.42	288.83	27.72	-23.7	-23.7	18.4	0.00e+00	0	46	0	2776629248	8	3576
2026-01-19 16:03:11.42	289.13	27.66	-23.7	-23.7	18.4	0.00e+00	0	46	0	2783969280	8	3572
2026-01-19 16:03:12.43	289.43	27.60	-23.8	-23.9	18.3	0.00e+00	0	46	0	2791309312	8	3633
2026-01-19 16:03:13.43	289.72	27.54	-23.8	-23.8	18.4	0.00e+00	0	46	0	2798649344	8	3593
2026-01-19 16:03:14.43	290.02	27.48	-23.8	-23.7	18.4	0.00e+00	0	46	0	2805989376	8	3584
2026-01-19 16:03:15.44	290.32	27.41	-23.8	-23.9	18.3	0.00e+00	0	46	0	2813329408	8	3624
2026-01-19 16:03:16.44	290.61	27.35	-23.8	-23.8	18.4	0.00e+00	0	46	0	2820669440	8	3590
2026-01-19 16:03:17.45	290.91	27.28	-23.9	-24.0	18.3	0.00e+00	0	46	0	2828009472	8	3658
2026-01-19 16:03:18.45	291.20	27.22	-23.9	-24.0	18.3	0.00e+00	0	46	0	2835349504	8	3646
2026-01-19 16:03:19.46	291.49	27.15	-23.8	-23.8	18.4	0.00e+00	0	46	0	2842689536	8	3595
2026-01-19 16:03:20.47	291.79	27.08	-23.8	-23.8	18.4	0.00e+00	0	46	0	2848980992	8	3604
2026-01-19 16:03:21.47	292.07	27.02	-23.9	-24.0	18.3	0.00e+00	0	46	0	2856321024	8	3638
2026-01-19 16:03:22.47	292.36	26.95	-24.0	-24.2	18.0	0.00e+00	0	46	0	2863661056	8	3704
2026-01-19 16:03:23.48	292.65	26.88	-24.0	-24.2	18.1	0.00e+00	0	46	0	2871001088	8	3685
2026-01-19 16:03:24.48	292.93	26.81	-24.0	-24.2	18.2	0.00e+00	0	46	0	2878341120	8	3681
2026-01-19 16:03:25.48	293.22	26.74	-24.0	-24.3	18.0	0.00e+00	0	46	0	2885681152	8	3722
2026-01-19 16:03:26.49	293.50	26.67	-24.1	-24.5	18.0	0.00e+00	0	46	0	2893021184	8	3759
2026-01-19 16:03:27.49	293.78	26.60	-24.2	-24.6	17.9	0.00e+00	0	46	0	2900361216	8	3787
2026-01-19 16:03:28.50	294.06	26.53	-24.0	-24.2	18.1	0.00e+00	0	46	0	2907701248	8	3701
2026-01-19 16:03:29.50	294.34	26.46	-23.9	-24.0	18.3	0.00e+00	0	46	0	2915041280	8	3640
2026-01-19 16:03:30.50	294.62	26.39	-23.9	-24.0	18.3	0.00e+00	0	46	0	2922381312	8	3642
2026-01-19 16:03:31.50	294.89	26.31	-23.8	-23.8	18.3	0.00e+00	0	46	0	2929721344	8	3606
2026-01-19 16:03:32.51	295.17	26.24	-23.7	-23.7	18.3	0.00e+00	0	46	0	2936012800	8	3572
2026-01-19 16:03:33.51	295.45	26.17	-23.9	-24.0	18.3	0.00e+00	0	46	0	2943352832	8	3635
2026-01-19 16:03:34.52	295.72	26.09	-23.9	-24.0	18.2	0.00e+00	0	46	0	2950692864	8	3653
2026-01-19 16:03:35.52	295.99	26.02	-23.7	-23.7	18.4	0.00e+00	0	46	0	2958032896	8	3581
2026-01-19 16:03:36.53	296.26	25.94	-23.7	-23.7	18.4	0.00e+00	0	46	0	2965372928	8	3572
2026-01-19 16:03:37.54	296.53	25.86	-23.8	-23.7	18.4	0.00e+00	0	46	0	2972712960	8	3589
2026-01-19 16:03:38.53	296.80	25.79	-23.9	-23.9	18.3	0.00e+00	0	46	0	2980052992	8	3635
2026-01-19 16:03:39.54	297.07	25.71	-23.8	-23.7	18.4	0.00e+00	0	46	0	2987393024	8	3586
2026-01-19 16:03:40.54	297.33	25.64	-23.9	-24.0	18.2	0.00e+00	0	46	0	2994733056	8	3651
2026-01-19 16:03:41.54	297.59	25.56	-24.1	-24.4	18.1	0.00e+00	0	46	0	3002073088	8	3727
2026-01-19 16:03:42.55	297.86	25.48	-24.2	-24.7	17.9	0.00e+00	0	46	0	3009413120	8	3800
2026-01-19 16:03:43.55	298.12	25.40	-24.3	-24.9	17.8	0.00e+00	0	46	0	3015704576	8	3851
2026-01-19 16:03:44.55	298.38	25.33	-24.4	-25.2	17.6	0.00e+00	0	46	0	3023044608	8	3918
2026-01-19 16:03:45.55	298.64	25.25	-24.4	-25.2	17.6	0.00e+00	0	46	0	3030384640	8	3915
2026-01-19 16:03:46.55	298.89	25.17	-24.4	-25.1	17.6	0.00e+00	0	46	0	3037724672	8	3909
2026-01-19 16:03:47.55	299.15	25.09	-24.4	-25.1	17.7	0.00e+00	0	46	0	3045064704	8	3892
2026-01-19 16:03:48.55	299.40	25.01	-24.4	-25.1	17.7	0.00e+00	0	46	0	3052404736	8	3899
2026-01-19 16:03:49.55	299.66	24.93	-24.3	-24.9	17.8	0.00e+00	0	46	0	3059744768	8	3848
2026-01-19 16:03:50.54	299.90	24.85	-24.2	-24.6	17.9	0.00e+00	0	46	0	3067084800	8	3770
2026-01-19 16:03:51.55	300.16	24.77	-24.1	-24.5	18.0	0.00e+00	0	46	0	3074424832	8	3767
2026-01-19 16:03:52.55	300.41	24.69	-24.1	-24.4	18.0	0.00e+00	0	46	0	3080716288	8	3733
2026-01-19 16:03:53.55	300.66	24.61	-24.1	-24.5	17.9	0.00e+00	0	46	0	3088056320	8	3759
2026-01-19 16:03:54.55	300.90	24.52	-24.2	-24.6	17.9	0.00e+00	0	46	0	3095396352	8	3769
2026-01-19 16:03:55.56	301.15	24.44	-24.1	-24.4	18.0	0.00e+00	0	46	0	3102736384	8	3732
2026-01-19 16:03:56.56	301.39	24.36	-24.2	-24.6	17.9	0.00e+00	0	46	0	3110076416	8	3790
2026-01-19 16:03:57.57	301.64	24.28	-24.1	-24.6	17.9	0.00e+00	0	46	0	3117416448	8	3772
2026-01-19 16:03:58.57	301.88	24.19	-24.2	-24.6	18.0	0.00e+00	0	46	0	3124756480	8	3769
2026-01-19 16:03:59.56	302.12	24.11	-24.2	-24.6	17.9	0.00e+00	0	46	0	3132096512	8	3786
2026-01-19 16:04:00.56	302.36	24.03	-24.2	-24.7	17.8	0.00e+00	0	46	0	3138387968	8	3808
2026-01-19 16:04:01.57	302.60	23.94	-24.2	-24.7	17.8	0.00e+00	0	46	0	3145728000	8	3815
2026-01-19 16:04:02.57	302.84	23.86	-24.3	-25.0	17.7	0.00e+00	0	46	0	3153068032	8	3868
2026-01-19 16:04:03.58	303.07	23.78	-24.4	-25.2	17.6	0.00e+00	0	46	0	3160408064	8	3914
2026-01-19 16:04:04.58	303.31	23.69	-24.4	-25.1	17.6	0.00e+00	0	46	0	3167748096	8	3909
2026-01-19 16:04:05.58	303.54	23.61	-24.6	-25.5	17.4	0.00e+00	0	46	0	3175088128	8	3991
2026-01-19 16:04:06.59	303.77	23.52	-24.7	-25.2	17.3	0.00e+00	0	46	0	3182428160	9	3812
2026-01-19 16:04:07.59	304.01	23.44	-24.7	-25.1	17.4	0.00e+00	0	46	0	3189768192	9	3796
2026-01-19 16:04:08.60	304.24	23.35	-24.8	-25.3	17.3	0.00e+00	0	46	0	3197108224	9	3844
2026-01-19 16:04:09.60	304.46	23.27	-24.8	-25.3	17.3	0.00e+00	0	46	0	3204448256	9	3841
2026-01-19 16:04:10.61	304.69	23.18	-24.8	-25.4	17.2	0.00e+00	0	46	0	3211788288	9	3859
2026-01-19 16:04:11.61	304.92	23.10	-24.7	-25.3	17.3	0.00e+00	0	46	0	3219128320	9	3830
2026-01-19 16:04:12.62	305.15	23.01	-24.8	-25.3	17.2	0.00e+00	0	46	0	3225419776	9	3847
2026-01-19 16:04:13.62	305.37	22.92	-25.0	-25.8	17.0	0.00e+00	0	46	0	3232759808	9	3959
2026-01-19 16:04:14.62	305.59	22.84	-25.0	-25.3	17.0	0.00e+00	0	46	0	3240099840	10	3730
2026-01-19 16:04:15.62	305.81	22.75	-24.6	-24.5	17.4	0.00e+00	0	46	0	3247439872	10	3567
2026-01-19 16:04:16.63	306.03	22.67	-24.5	-24.3	17.6	0.00e+00	0	46	0	3254779904	10	3509
2026-01-19 16:04:17.63	306.25	22.58	-24.4	-24.5	17.7	0.00e+00	0	46	0	3262119936	9	3667
2026-01-19 16:04:18.64	306.47	22.49	-24.5	-24.8	17.6	0.00e+00	0	46	0	3269459968	9	3721
2026-01-19 16:04:19.64	306.69	22.41	-24.6	-25.0	17.4	0.00e+00	0	46	0	3276800000	9	3771
2026-01-19 16:04:20.65	306.91	22.32	-24.6	-25.1	17.4	0.00e+00	0	46	0	3284140032	9	3786
2026-01-19 16:04:21.65	307.12	22.23	-24.6	-25.1	17.4	0.00e+00	0	46	0	3291480064	9	3797
2026-01-19 16:04:22.64	307.33	22.15	-24.7	-25.1	17.3	0.00e+00	0	46	0	3298820096	9	3804
2026-01-19 16:04:23.65	307.54	22.06	-24.7	-25.2	17.3	0.00e+00	0	46	0	3306160128	9	3810
2026-01-19 16:04:24.65	307.75	21.97	-24.7	-25.1	17.3	0.00e+00	0	46	0	3312451584	9	3803
2026-01-19 16:04:25.65	307.96	21.88	-24.7	-25.3	17.2	0.00e+00	0	46	0	3319791616	9	3839
2026-01-19 16:04:26.66	308.17	21.80	-24.8	-25.4	17.2	0.00e+00	0	46	0	3327131648	9	3857
2026-01-19 16:04:27.66	308.38	21.71	-24.7	-25.3	17.3	0.00e+00	0	46	0	3334471680	9	3833
2026-01-19 16:04:28.67	308.59	21.62	-24.7	-25.3	17.2	0.00e+00	0	46	0	3341811712	9	3842
2026-01-19 16:04:29.67	308.79	21.53	-24.8	-25.4	17.2	0.00e+00	0	46	0	3349151744	9	3870
2026-01-19 16:04:30.67	308.99	21.45	-24.8	-25.4	17.2	0.00e+00	0	46	0	3356491776	9	3864
2026-01-19 16:04:31.67	309.20	21.36	-24.8	-25.5	17.1	0.00e+00	0	46	0	3363831808	9	3888
2026-01-19 16:04:32.68	309.40	21.27	-24.9	-25.7	17.0	0.00e+00	0	46	0	3370123264	9	3924
2026-01-19 16:04:33.68	309.60	21.18	-24.8	-25.5	17.1	0.00e+00	0	46	0	3377463296	9	3892
2026-01-19 16:04:34.68	309.80	21.10	-24.8	-25.4	17.2	0.00e+00	0	46	0	3384803328	9	3872
2026-01-19 16:04:35.68	310.00	21.01	-24.8	-25.5	17.1	0.00e+00	0	46	0	3392143360	9	3891
2026-01-19 16:04:36.68	310.19	20.92	-24.8	-25.4	17.2	0.00e+00	0	46	0	3399483392	9	3874
2026-01-19 16:04:37.68	310.39	20.83	-24.6	-25.1	17.3	0.00e+00	0	46	0	3406823424	9	3797
2026-01-19 16:04:38.68	310.58	20.74	-24.6	-25.1	17.3	0.00e+00	0	46	0	3414163456	9	3792
2026-01-19 16:04:39.68	310.78	20.66	-24.9	-25.6	17.0	0.00e+00	0	46	0	3421503488	9	3909
2026-01-19 16:04:40.68	310.97	20.57	-24.9	-25.7	17.0	0.00e+00	0	46	0	3428843520	9	3944
2026-01-19 16:04:41.69	311.16	20.48	-25.0	-25.9	16.9	0.00e+00	0	46	0	3436183552	9	3990
2026-01-19 16:04:42.70	311.35	20.39	-25.1	-25.7	16.8	0.00e+00	0	46	0	3443523584	10	3829
2026-01-19 16:04:43.70	311.54	20.30	-25.4	-26.2	16.5	0.00e+00	0	46	0	3450863616	10	3952
2026-01-19 16:04:44.71	311.73	20.22	-25.5	-26.4	16.4	0.00e+00	0	46	0	3457155072	10	3998
2026-01-19 16:04:45.71	311.92	20.13	-25.7	-26.3	16.2	0.00e+00	0	46	0	3464495104	11	3872
2026-01-19 16:04:46.71	312.11	20.04	-26.1	-27.1	15.7	0.00e+00	0	46	0	3471835136	11	4079
2026-01-19 16:04:47.72	312.29	19.95	-25.9	-26.3	15.8	0.00e+00	0	46	0	3479175168	12	3763
2026-01-19 16:04:48.72	312.48	19.86	-25.7	-25.8	16.1	0.00e+00	0	46	0	3486515200	12	3663
2026-01-19 16:04:49.72	312.66	19.78	-25.5	-25.4	16.3	0.00e+00	0	46	0	3493855232	12	3573
2026-01-19 16:04:50.72	312.84	19.69	-25.4	-25.3	16.4	0.00e+00	0	46	0	3501195264	12	3540
2026-01-19 16:04:51.73	313.03	19.60	-25.5	-25.9	16.4	0.00e+00	0	46	0	3508535296	11	3769
2026-01-19 16:04:52.73	313.21	19.51	-25.4	-25.7	16.5	0.00e+00	0	45	0	3514826752	11	3727
2026-01-19 16:04:53.72	313.38	19.43	-25.4	-25.8	16.4	0.00e+00	0	46	0	3522166784	11	3745
2026-01-19 16:04:54.73	313.56	19.34	-25.3	-25.4	16.6	0.00e+00	0	46	0	3529506816	11	3655
2026-01-19 16:04:55.73	313.74	19.25	-25.0	-24.9	16.9	0.00e+00	0	46	0	3536846848	11	3547
2026-01-19 16:04:56.72	313.91	19.16	-24.9	-24.7	17.0	0.00e+00	0	46	0	3544186880	11	3514
2026-01-19 16:04:57.73	314.09	19.08	-24.9	-24.7	17.0	0.00e+00	0	46	0	3551526912	11	3509
2026-01-19 16:04:58.73	314.26	18.99	-25.0	-24.8	17.0	0.00e+00	0	46	0	3558866944	11	3517
2026-01-19 16:04:59.73	314.44	18.90	-24.9	-24.7	17.0	0.00e+00	0	46	0	3566206976	11	3515
2026-01-19 16:05:00.73	314.61	18.81	-25.0	-24.9	16.9	0.00e+00	0	45	0	3573547008	11	3541
2026-01-19 16:05:01.74	314.78	18.73	-25.0	-24.9	16.9	0.00e+00	0	46	0	3580887040	11	3550
2026-01-19 16:05:02.74	314.95	18.64	-25.2	-25.2	16.7	0.00e+00	0	45	0	3588227072	11	3623
2026-01-19 16:05:03.74	315.12	18.55	-25.2	-25.3	16.6	0.00e+00	0	45	0	3595567104	11	3632
2026-01-19 16:05:04.74	315.29	18.47	-25.4	-25.8	16.4	0.00e+00	0	46	0	3601858560	11	3746
2026-01-19 16:05:05.74	315.46	18.38	-25.5	-25.9	16.3	0.00e+00	0	46	0	3609198592	11	3772
2026-01-19 16:05:06.74	315.62	18.29	-25.6	-26.1	16.2	0.00e+00	0	46	0	3616538624	11	3826
2026-01-19 16:05:07.73	315.79	18.21	-25.7	-26.4	16.0	0.00e+00	0	45	0	3623878656	11	3901
2026-01-19 16:05:08.73	315.95	18.12	-25.8	-26.6	15.9	0.00e+00	0	46	0	3631218688	11	3934
2026-01-19 16:05:09.73	316.12	18.03	-25.8	-26.6	15.9	0.00e+00	0	46	0	3638558720	11	3938
2026-01-19 16:05:10.73	316.28	17.95	-25.7	-26.5	16.0	0.00e+00	0	46	0	3644850176	11	3909
2026-01-19 16:05:11.73	316.44	17.86	-25.7	-26.4	16.0	0.00e+00	0	45	0	3653238784	11	3900
2026-01-19 16:05:12.73	316.60	17.78	-25.8	-26.6	15.9	0.00e+00	0	46	0	3660578816	11	3947
2026-01-19 16:05:13.73	316.76	17.69	-25.7	-26.3	16.1	0.00e+00	0	46	0	3666870272	11	3875
2026-01-19 16:05:14.74	316.92	17.60	-25.7	-26.3	16.1	0.00e+00	0	46	0	3674210304	11	3872
2026-01-19 16:05:15.75	317.08	17.52	-25.6	-26.0	16.2	0.00e+00	0	46	0	3681550336	11	3811
2026-01-19 16:05:16.75	317.24	17.43	-25.4	-25.7	16.4	0.00e+00	0	46	0	3688890368	11	3729
2026-01-19 16:05:17.75	317.40	17.34	-25.3	-25.5	16.5	0.00e+00	0	45	0	3696230400	11	3674
2026-01-19 16:05:18.75	317.55	17.26	-25.4	-25.7	16.4	0.00e+00	0	45	0	3703570432	11	3725
2026-01-19 16:05:19.75	317.71	17.17	-25.3	-25.5	16.5	0.00e+00	0	46	0	3710910464	11	3683
2026-01-19 16:05:20.75	317.86	17.09	-25.2	-25.4	16.6	0.00e+00	0	46	0	3718250496	11	3650
2026-01-19 16:05:21.75	318.01	17.00	-25.3	-25.6	16.4	0.00e+00	0	45	0	3724541952	11	3698
2026-01-19 16:05:22.75	318.17	16.92	-25.4	-25.7	16.4	0.00e+00	0	46	0	3731881984	11	3715
2026-01-19 16:05:23.76	318.32	16.83	-25.5	-25.8	16.3	0.00e+00	0	45	0	3739222016	11	3762
2026-01-19 16:05:24.76	318.47	16.75	-25.6	-26.1	16.2	0.00e+00	0	45	0	3746562048	11	3812
2026-01-19 16:05:25.76	318.62	16.66	-25.7	-26.3	16.0	0.00e+00	0	46	0	3753902080	11	3873
2026-01-19 16:05:26.76	318.77	16.58	-25.7	-26.4	16.0	0.00e+00	0	46	0	3761242112	11	3885
2026-01-19 16:05:27.75	318.91	16.49	-25.8	-26.5	15.9	0.00e+00	0	46	0	3768582144	11	3930
2026-01-19 16:05:28.76	319.06	16.41	-25.8	-26.6	15.9	0.00e+00	0	45	0	3775922176	11	3951
2026-01-19 16:05:29.76	319.21	16.32	-25.9	-26.7	15.8	0.00e+00	0	46	0	3783262208	11	3973
2026-01-19 16:05:30.76	319.36	16.24	-25.9	-26.8	15.8	1.10e-06	0	46	0	3789553664	11	3983
2026-01-19 16:05:31.76	319.50	16.15	-25.9	-26.8	15.7	0.00e+00	0	46	0	3796893696	11	4004
2026-01-19 16:05:32.77	319.65	16.07	-25.9	-26.8	15.8	0.00e+00	0	46	0	3804233728	11	3995
2026-01-19 16:05:33.77	319.79	15.99	-26.0	-27.0	15.6	0.00e+00	0	46	0	3811573760	11	4047
2026-01-19 16:05:34.78	319.93	15.90	-25.9	-26.9	15.7	0.00e+00	0	45	0	3818913792	11	4012
2026-01-19 16:05:35.78	320.08	15.82	-25.9	-26.7	15.8	0.00e+00	0	45	0	3826253824	11	3970
2026-01-19 16:05:36.79	320.22	15.73	-25.9	-26.9	15.7	0.00e+00	0	46	0	3833593856	11	4010
2026-01-19 16:05:37.80	320.36	15.65	-25.8	-26.6	15.8	0.00e+00	0	46	0	3840933888	11	3943
2026-01-19 16:05:38.79	320.50	15.57	-25.7	-26.4	15.9	0.00e+00	0	45	0	3848273920	11	3883
2026-01-19 16:05:39.79	320.64	15.48	-25.6	-26.3	16.0	0.00e+00	0	46	0	3855613952	11	3860
2026-01-19 16:05:40.80	320.78	15.40	-25.7	-26.3	16.0	0.00e+00	0	45	0	3862953984	11	3879
2026-01-19 16:05:41.80	320.91	15.32	-25.7	-26.3	16.0	0.00e+00	0	46	0	3870294016	11	3873
2026-01-19 16:05:42.80	321.05	15.23	-25.6	-26.2	16.1	0.00e+00	0	46	0	3876585472	11	3835
2026-01-19 16:05:43.80	321.19	15.15	-25.7	-26.3	16.0	0.00e+00	0	46	0	3883925504	11	3869
2026-01-19 16:05:44.80	321.32	15.07	-25.8	-26.7	15.8	0.00e+00	0	46	0	3891265536	11	3954
2026-01-19 16:05:45.81	321.46	14.99	-25.7	-26.3	15.9	0.00e+00	0	46	0	3898605568	11	3880
2026-01-19 16:05:46.81	321.59	14.90	-25.7	-26.3	16.0	0.00e+00	0	45	0	3905945600	11	3864
2026-01-19 16:05:47.82	321.73	14.82	-25.7	-26.5	15.9	0.00e+00	0	46	0	3913285632	11	3905
2026-01-19 16:05:48.83	321.86	14.74	-25.6	-26.2	16.0	0.00e+00	0	46	0	3920625664	11	3852
2026-01-19 16:05:49.83	321.99	14.66	-25.8	-26.5	15.8	0.00e+00	0	46	0	3927965696	11	3929
2026-01-19 16:05:50.84	322.12	14.57	-25.8	-26.5	15.8	0.00e+00	0	45	0	3935305728	11	3926
2026-01-19 16:05:51.84	322.25	14.49	-25.9	-26.8	15.7	0.00e+00	0	46	0	3942645760	11	3990
2026-01-19 16:05:52.85	322.38	14.41	-25.9	-26.8	15.7	0.00e+00	0	45	0	3949985792	11	3984
2026-01-19 16:05:53.85	322.51	14.33	-25.9	-26.8	15.7	0.00e+00	0	45	0	3956277248	11	3992
2026-01-19 16:05:54.85	322.64	14.25	-26.0	-26.9	15.6	0.00e+00	0	46	0	3963617280	11	4025
2026-01-19 16:05:55.86	322.77	14.17	-26.0	-27.0	15.6	0.00e+00	0	46	0	3970957312	11	4039
2026-01-19 16:05:56.86	322.90	14.09	-26.0	-27.0	15.6	0.00e+00	0	46	0	3978297344	11	4034
2026-01-19 16:05:57.86	323.02	14.01	-26.1	-27.2	15.4	0.00e+00	0	45	0	3985637376	11	4083
2026-01-19 16:05:58.86	323.15	13.93	-26.1	-27.3	15.4	0.00e+00	0	45	0	3992977408	11	4110
2026-01-19 16:05:59.86	323.27	13.84	-25.9	-26.4	15.5	0.00e+00	0	46	0	4000317440	12	3791
2026-01-19 16:06:00.86	323.40	13.76	-26.1	-26.8	15.2	0.00e+00	0	45	0	4007657472	12	3905
2026-01-19 16:06:01.85	323.52	13.69	-25.9	-26.4	15.5	0.00e+00	0	46	0	4014997504	12	3788
2026-01-19 16:06:02.86	323.64	13.60	-26.0	-26.5	15.5	0.00e+00	0	45	0	4021288960	12	3815
2026-01-19 16:06:03.87	323.77	13.52	-25.9	-26.3	15.5	0.00e+00	0	46	0	4028628992	12	3786
2026-01-19 16:06:04.87	323.89	13.44	-26.0	-26.6	15.4	0.00e+00	0	46	0	4035969024	12	3841
2026-01-19 16:06:05.88	324.01	13.36	-26.0	-26.6	15.4	0.00e+00	0	46	0	4043309056	12	3841
2026-01-19 16:06:06.88	324.13	13.29	-26.0	-26.6	15.4	0.00e+00	0	46	0	4050649088	12	3848
2026-01-19 16:06:07.88	324.25	13.21	-26.2	-26.9	15.2	0.00e+00	0	46	0	4057989120	12	3927
2026-01-19 16:06:08.88	324.37	13.13	-26.3	-27.3	14.9	0.00e+00	0	46	0	4065329152	12	4023
2026-01-19 16:06:09.89	324.49	13.05	-26.3	-27.2	15.1	1.10e-06	0	46	0	4072669184	12	3987
2026-01-19 16:06:10.89	324.61	12.97	-26.3	-27.3	15.0	0.00e+00	0	45	0	4080009216	12	4010
2026-01-19 16:06:11.90	324.73	12.89	-26.3	-27.2	15.0	0.00e+00	0	46	0	4087349248	12	3992
2026-01-19 16:06:12.91	324.84	12.81	-26.5	-27.6	14.8	0.00e+00	0	46	0	4094689280	12	4083
2026-01-19 16:06:13.91	324.96	12.73	-26.4	-27.4	14.9	1.10e-06	0	46	0	4100980736	12	4055
2026-01-19 16:06:14.92	325.08	12.65	-26.7	-27.6	14.5	2.20e-06	0	46	0	4108320768	13	3998
2026-01-19 16:06:15.92	325.19	12.58	-26.9	-28.1	14.2	1.10e-06	0	46	0	4115660800	13	4130
2026-01-19 16:06:16.92	325.31	12.50	-26.8	-27.8	14.4	0.00e+00	0	46	0	4123000832	13	4050
2026-01-19 16:06:17.93	325.42	12.42	-26.6	-27.4	14.6	0.00e+00	0	45	0	4130340864	13	3944
2026-01-19 16:06:18.92	325.53	12.34	-26.5	-27.2	14.7	0.00e+00	0	46	0	4137680896	13	3888
2026-01-19 16:06:19.93	325.65	12.26	-26.5	-27.2	14.7	0.00e+00	0	45	0	4145020928	13	3883
2026-01-19 16:06:20.92	325.76	12.19	-26.6	-27.3	14.7	0.00e+00	0	46	0	4152360960	13	3929
2026-01-19 16:06:21.93	325.87	12.11	-26.7	-27.5	14.5	0.00e+00	0	46	0	4159700992	13	3966
2026-01-19 16:06:22.93	325.98	12.03	-26.7	-27.5	14.5	1.10e-06	0	46	0	4165992448	13	3978
2026-01-19 16:06:23.93	326.09	11.96	-26.7	-27.6	14.4	2.20e-06	0	46	0	4174381056	13	4006
2026-01-19 16:06:24.94	326.20	11.88	-26.8	-27.9	14.3	1.10e-06	0	46	0	4181721088	13	4075
2026-01-19 16:06:25.94	326.31	11.80	-26.8	-27.9	14.3	2.20e-06	0	46	0	4188012544	13	4063
2026-01-19 16:06:26.95	326.42	11.73	-26.8	-27.8	14.4	1.10e-06	0	46	0	4195352576	13	4038
2026-01-19 16:06:27.94	326.53	11.65	-27.0	-28.2	14.1	0.00e+00	0	46	0	4202692608	13	4149
2026-01-19 16:06:28.94	326.64	11.57	-26.7	-27.7	14.4	1.10e-06	0	46	0	4210032640	13	4022
2026-01-19 16:06:29.95	326.74	11.50	-26.7	-27.7	14.4	0.00e+00	0	45	0	4217372672	13	4014
2026-01-19 16:06:30.96	326.85	11.42	-26.6	-27.5	14.5	0.00e+00	0	46	0	4224712704	13	3970
2026-01-19 16:06:31.96	326.96	11.35	-26.9	-28.0	14.2	1.10e-06	0	45	0	4232052736	13	4098
2026-01-19 16:06:32.96	327.06	11.27	-26.7	-27.6	14.4	4.50e-06	0	45	0	4239392768	13	3996
2026-01-19 16:06:33.96	327.17	11.19	-26.8	-27.9	14.3	0.00e+00	0	46	0	4246732800	13	4068
2026-01-19 16:06:34.96	327.27	11.12	-27.2	-28.2	13.8	4.50e-06	0	45	0	4253024256	14	4041
2026-01-19 16:06:35.96	327.38	11.04	-27.0	-27.7	14.1	4.50e-06	0	45	0	4260364288	14	3921
2026-01-19 16:06:36.97	327.48	10.97	-26.9	-27.6	14.1	2.20e-06	0	46	0	4267704320	14	3888
2026-01-19 16:06:37.97	327.58	10.89	-26.9	-27.5	14.2	0.00e+00	0	46	0	4275044352	14	3863
2026-01-19 16:06:38.98	327.69	10.82	-26.9	-27.6	14.2	1.10e-06	0	46	0	4282384384	14	3886
2026-01-19 16:06:39.98	327.79	10.74	-26.9	-27.7	14.1	2.20e-06	0	46	0	4289724416	14	3913
2026-01-19 16:06:40.99	327.89	10.67	-27.0	-27.7	14.0	3.40e-06	0	46	0	4297064448	14	3933
2026-01-19 16:06:42.00	328.00	10.60	-27.0	-27.8	14.0	4.50e-06	0	45	0	4304404480	14	3934
2026-01-19 16:06:43.00	328.10	10.52	-27.1	-28.0	13.9	5.70e-06	0	46	0	4311744512	14	3998
2026-01-19 16:06:44.01	328.20	10.45	-27.0	-27.9	13.9	2.20e-06	0	46	0	4319084544	14	3968
2026-01-19 16:06:45.01	328.30	10.37	-27.1	-28.1	13.8	5.70e-06	0	45	0	4326424576	14	4018
2026-01-19 16:06:46.01	328.40	10.30	-27.1	-28.0	13.9	8.00e-06	0	46	0	4332716032	14	3985
2026-01-19 16:06:47.00	328.49	10.23	-27.1	-28.1	13.8	4.50e-06	0	46	0	4340056064	14	4030
2026-01-19 16:06:48.01	328.59	10.15	-27.1	-28.0	13.9	8.00e-06	0	45	0	4347396096	14	3984
2026-01-19 16:06:49.01	328.69	10.08	-27.0	-27.7	14.0	4.50e-06	0	46	0	4354736128	14	3937
2026-01-19 16:06:50.02	328.79	10.01	-27.0	-27.8	14.0	1.10e-06	0	45	0	4362076160	14	3946
2026-01-19 16:06:51.02	328.88	9.93	-27.0	-27.7	14.0	6.80e-06	0	45	0	4369416192	14	3929
2026-01-19 16:06:52.02	328.98	9.86	-26.9	-27.6	14.1	1.10e-06	0	45	0	4376756224	14	3890
2026-01-19 16:06:53.02	329.08	9.79	-27.0	-27.8	13.9	3.40e-06	0	45	0	4384096256	14	3954
2026-01-19 16:06:54.02	329.17	9.72	-26.9	-27.6	14.1	0.00e+00	0	46	0	4391436288	14	3888
2026-01-19 16:06:55.02	329.27	9.64	-26.9	-27.5	14.1	1.10e-06	0	45	0	4397727744	14	3873
2026-01-19 16:06:56.03	329.36	9.57	-26.9	-27.7	14.0	3.40e-06	0	46	0	4405067776	14	3913
2026-01-19 16:06:57.04	329.46	9.50	-26.9	-27.6	14.0	2.20e-06	0	45	0	4413456384	14	3903
2026-01-19 16:06:58.04	329.55	9.43	-27.0	-27.7	14.0	2.20e-06	0	46	0	4419747840	14	3925
2026-01-19 16:06:59.05	329.65	9.36	-26.9	-27.6	14.1	1.10e-06	0	46	0	4427087872	14	3888
2026-01-19 16:07:00.05	329.74	9.28	-27.1	-28.1	13.7	3.40e-06	0	46	0	4434427904	14	4033
2026-01-19 16:07:01.04	329.83	9.21	-27.3	-28.6	13.4	1.48e-05	0	46	0	4441767936	14	4151
2026-01-19 16:07:02.05	329.92	9.14	-27.2	-28.3	13.6	1.48e-05	0	45	0	4449107968	14	4071
2026-01-19 16:07:03.05	330.01	9.07	-27.1	-28.1	13.7	1.02e-05	0	45	0	4456448000	14	4035
2026-01-19 16:07:04.05	330.10	9.00	-27.2	-28.3	13.6	6.80e-06	0	45	0	4463788032	14	4069
2026-01-19 16:07:05.05	330.20	8.93	-27.1	-28.0	13.8	1.02e-05	0	45	0	4471128064	14	4013
2026-01-19 16:07:06.06	330.29	8.86	-27.3	-28.4	13.5	1.02e-05	0	45	0	4477419520	14	4106
2026-01-19 16:07:07.06	330.38	8.79	-27.2	-28.2	13.6	1.71e-05	0	45	0	4484759552	14	4060
2026-01-19 16:07:08.07	330.47	8.72	-27.5	-28.9	13.3	1.83e-05	0	46	0	4492099584	14	4236
2026-01-19 16:07:09.07	330.56	8.65	-27.3	-28.6	13.4	1.94e-05	0	45	0	4499439616	14	4158
2026-01-19 16:07:10.07	330.64	8.58	-27.7	-28.9	12.9	3.43e-05	0	45	0	4506779648	15	4127
2026-01-19 16:07:11.07	330.73	8.51	-28.0	-29.5	12.5	9.26e-05	0	46	0	4514119680	15	4311
2026-01-19 16:07:12.08	330.82	8.44	-27.7	-28.9	12.9	7.89e-05	0	46	0	4521459712	15	4127
2026-01-19 16:07:13.08	330.91	8.37	-27.6	-28.6	13.0	2.97e-05	0	46	0	4528799744	15	4070
2026-01-19 16:07:14.09	331.00	8.30	-27.5	-28.6	13.1	3.43e-05	0	46	0	4536139776	15	4053
2026-01-19 16:07:15.09	331.08	8.23	-27.7	-28.9	12.9	5.49e-05	0	46	0	4543479808	15	4146
2026-01-19 16:07:16.10	331.17	8.16	-27.7	-28.9	12.9	9.38e-05	0	45	0	4550819840	15	4129
2026-01-19 16:07:17.11	331.26	8.09	-27.8	-29.1	12.8	7.32e-05	0	46	0	4558159872	15	4193
2026-01-19 16:07:18.11	331.34	8.02	-27.9	-29.3	12.6	8.23e-05	0	46	0	4564451328	15	4257
2026-01-19 16:07:19.12	331.43	7.95	-27.7	-29.0	12.8	6.52e-05	0	45	0	4571791360	15	4160
2026-01-19 16:07:20.12	331.51	7.88	-27.9	-29.3	12.6	1.06e-04	0	46	0	4579131392	15	4260
2026-01-19 16:07:21.13	331.60	7.81	-27.8	-29.3	12.6	8.46e-05	0	45	0	4586471424	15	4247
2026-01-19 16:07:22.13	331.68	7.74	-28.2	-29.7	12.3	2.54e-04	0	46	0	4593811456	16	4247
2026-01-19 16:07:23.14	331.77	7.67	-28.0	-29.0	12.6	1.36e-04	0	45	0	4601151488	16	4063
2026-01-19 16:07:24.14	331.85	7.61	-27.8	-28.7	12.8	6.06e-05	0	45	0	4608491520	16	3983
2026-01-19 16:07:25.15	331.93	7.54	-27.7	-28.4	13.0	5.95e-05	0	46	0	4615831552	16	3908
2026-01-19 16:07:26.15	332.01	7.47	-27.9	-28.9	12.7	9.49e-05	0	46	0	4623171584	16	4037
2026-01-19 16:07:27.15	332.10	7.40	-27.7	-28.4	13.0	3.54e-05	0	46	0	4630511616	16	3915
2026-01-19 16:07:28.16	332.18	7.33	-27.8	-28.7	12.8	7.55e-05	0	46	0	4637851648	16	3978
2026-01-19 16:07:29.16	332.26	7.27	-27.9	-28.8	12.7	8.81e-05	0	46	0	4645191680	16	4025
2026-01-19 16:07:30.17	332.34	7.20	-27.9	-28.8	12.7	8.58e-05	0	45	0	4651483136	16	4014
2026-01-19 16:07:31.17	332.42	7.13	-28.0	-29.2	12.5	7.55e-05	0	45	0	4658823168	16	4122
2026-01-19 16:07:32.17	332.50	7.07	-27.8	-28.7	12.7	8.01e-05	0	46	0	4666163200	16	3990
2026-01-19 16:07:33.17	332.58	7.00	-33.5	-43.4	3.8	8.46e-01	0	46	104	4668260352	26	11163

#Closed at: 2026-01-19 16:07:33
#Recorded file [4668 MB]: D:/data/31010_260119_185645.dat