passes_logs/2026/01/19/R2M6_AANII_01/R2M6_AANII_01__20260119_014026_SUOMI_NPP_rec.log

#Pass ID: 20260119_014026_SUOMI NPP
#Satellite: SUOMI NPP
#Configuration: NPP
#almurnet v.1.7.20240730
#Start time: 2026-01-19 01:40:26

#Version: 2.2.20231116
#Station: R2M6_AANII_01
#Location: 30.233357 lon 59.946436 lat
#TLE: 1 37849U 11061A   26017.92342359  .00000077  00000+0  57567-4 0  9990
#TLE: 2 37849  98.7814 319.9468 0002389  58.5705 301.5704 14.19525998737125

#Time	Az	El	Level	Level2	SNR	BER	BlckErr	Temp	State	Recorded	gain1	gain2
2026-01-19 01:40:26.92	12.66	7.05	-32.5	-38.9	4.4	1.39e+00	0	42	0	0	25	7540
2026-01-19 01:40:27.92	12.60	7.12	-32.5	-38.7	4.5	1.39e+00	0	42	104	0	25	7385
2026-01-19 01:40:28.92	12.54	7.20	-32.5	-38.3	6.2	3.51e-01	0	42	0	0	25	7034
2026-01-19 01:40:29.93	12.48	7.27	-32.5	-38.6	6.0	3.13e-01	0	42	0	1048576	25	7219
2026-01-19 01:40:30.93	12.41	7.34	-32.5	-38.3	6.2	2.95e-01	0	42	0	3145728	25	7011
2026-01-19 01:40:31.93	12.35	7.41	-32.5	-38.4	6.2	2.60e-01	0	42	0	5242880	25	7059
2026-01-19 01:40:32.94	12.29	7.49	-32.6	-38.7	6.0	3.00e-01	0	42	0	7340032	25	7295
2026-01-19 01:40:33.93	12.23	7.56	-32.5	-38.5	6.1	3.08e-01	0	42	0	9437184	25	7152
2026-01-19 01:40:34.93	12.16	7.63	-32.4	-37.5	6.8	2.45e-01	0	42	0	10485760	25	6531
2026-01-19 01:40:35.93	12.10	7.70	-32.2	-37.1	7.5	1.44e-01	0	42	0	12582912	24	6332
2026-01-19 01:40:36.93	12.04	7.78	-32.1	-36.6	7.9	7.44e-02	0	42	0	14680064	24	6049
2026-01-19 01:40:37.93	11.97	7.85	-31.8	-35.5	8.8	4.84e-02	0	42	0	16777216	24	5496
2026-01-19 01:40:38.94	11.91	7.92	-31.7	-35.5	9.1	2.46e-02	0	42	0	17825792	23	5596
2026-01-19 01:40:39.94	11.84	8.00	-31.9	-36.2	8.6	2.74e-02	0	42	0	19922944	23	5917
2026-01-19 01:40:40.94	11.78	8.07	-31.9	-36.1	8.7	3.86e-02	0	42	0	22020096	23	5856
2026-01-19 01:40:41.94	11.71	8.14	-31.7	-35.5	9.2	2.69e-02	0	42	0	24117248	23	5552
2026-01-19 01:40:42.94	11.65	8.22	-31.7	-35.4	9.3	2.22e-02	0	42	0	26214400	23	5495
2026-01-19 01:40:43.94	11.58	8.29	-31.8	-35.9	8.9	2.34e-02	0	42	0	27262976	23	5754
2026-01-19 01:40:44.94	11.51	8.37	-31.6	-35.1	9.5	1.68e-02	0	42	0	29360128	23	5381
2026-01-19 01:40:45.94	11.45	8.44	-31.7	-35.3	9.4	1.44e-02	0	42	0	31457280	23	5462
2026-01-19 01:40:46.95	11.38	8.52	-31.6	-34.8	9.8	1.11e-02	0	42	0	33554432	23	5254
2026-01-19 01:40:47.95	11.31	8.59	-31.7	-35.4	9.3	1.42e-02	0	42	0	35651584	23	5525
2026-01-19 01:40:48.95	11.24	8.67	-31.5	-34.5	10.0	1.27e-02	0	42	0	36700160	23	5126
2026-01-19 01:40:49.95	11.17	8.74	-31.4	-34.3	10.2	6.99e-03	0	42	0	38797312	23	5016
2026-01-19 01:40:50.95	11.11	8.82	-31.3	-34.3	10.6	4.36e-03	0	42	0	40894464	22	5089
2026-01-19 01:40:51.95	11.04	8.89	-31.3	-34.3	10.6	3.58e-03	0	42	0	42991616	22	5118
2026-01-19 01:40:52.95	10.97	8.97	-31.3	-34.3	10.7	3.49e-03	0	42	0	45088768	22	5087
2026-01-19 01:40:53.95	10.90	9.05	-31.1	-33.8	11.0	2.18e-03	0	42	0	46137344	22	4897
2026-01-19 01:40:54.96	10.83	9.12	-31.3	-34.3	10.6	2.44e-03	0	42	0	48234496	22	5109
2026-01-19 01:40:55.96	10.76	9.20	-31.3	-34.3	10.6	3.11e-03	0	42	0	50331648	22	5106
2026-01-19 01:40:56.96	10.68	9.28	-31.3	-34.4	10.6	3.02e-03	0	43	0	52428800	22	5127
2026-01-19 01:40:57.97	10.61	9.35	-31.4	-34.7	10.3	4.09e-03	0	43	0	53477376	22	5269
2026-01-19 01:40:58.98	10.54	9.43	-31.3	-34.4	10.6	4.45e-03	0	43	0	55574528	22	5143
2026-01-19 01:40:59.98	10.47	9.51	-31.2	-33.9	10.9	3.34e-03	0	42	0	57671680	22	4949
2026-01-19 01:41:00.98	10.39	9.59	-31.1	-33.7	11.1	1.87e-03	0	43	0	59768832	22	4859
2026-01-19 01:41:01.98	10.32	9.66	-31.2	-33.9	11.0	1.89e-03	0	43	0	61865984	22	4924
2026-01-19 01:41:02.99	10.25	9.74	-30.2	-32.9	10.9	2.18e-03	0	43	0	62914560	22	4949
2026-01-19 01:41:03.99	10.17	9.82	-31.0	-34.0	11.0	1.39e-03	0	43	0	65011712	21	5054
2026-01-19 01:41:05.00	10.10	9.90	-31.2	-33.9	10.9	1.49e-03	0	43	0	67108864	22	4911
2026-01-19 01:41:06.01	10.02	9.98	-31.2	-34.0	10.1	1.81e-03	0	43	0	69206016	22	4966
2026-01-19 01:41:07.01	9.95	10.06	-31.1	-33.8	10.3	1.86e-03	0	42	0	71303168	22	4875
2026-01-19 01:41:08.01	9.87	10.14	-31.1	-33.5	11.2	1.06e-03	0	43	0	72351744	22	4768
2026-01-19 01:41:09.01	9.80	10.21	-31.1	-33.5	11.0	1.24e-03	0	43	0	74448896	22	4763
2026-01-19 01:41:10.01	9.72	10.29	-31.1	-33.8	11.0	1.38e-03	0	43	0	76546048	22	4860
2026-01-19 01:41:11.02	9.64	10.37	-31.2	-33.9	11.0	1.87e-03	0	43	0	78643200	22	4924
2026-01-19 01:41:12.02	9.56	10.45	-31.2	-33.8	11.1	1.49e-03	0	43	0	80740352	22	4887
2026-01-19 01:41:13.02	9.49	10.53	-31.2	-34.0	11.0	2.00e-03	0	43	0	81788928	22	4959
2026-01-19 01:41:14.01	9.41	10.61	-31.2	-34.1	10.9	1.91e-03	0	43	0	83886080	22	4980
2026-01-19 01:41:15.01	9.33	10.69	-31.4	-34.4	10.7	2.35e-03	0	43	0	85983232	22	5131
2026-01-19 01:41:16.02	9.25	10.77	-31.3	-34.2	10.9	2.40e-03	0	43	0	88080384	22	5022
2026-01-19 01:41:17.02	9.17	10.86	-31.2	-33.8	11.1	2.40e-03	0	43	0	90177536	22	4886
2026-01-19 01:41:18.02	9.09	10.94	-31.3	-34.3	10.8	5.79e-03	0	43	0	91226112	22	5094
2026-01-19 01:41:19.03	9.01	11.02	-31.4	-34.7	10.5	2.58e-03	0	43	0	93323264	22	5235
2026-01-19 01:41:20.03	8.93	11.10	-31.5	-34.9	10.4	3.13e-03	0	43	0	95420416	22	5317
2026-01-19 01:41:21.03	8.85	11.18	-31.4	-34.6	10.5	6.82e-03	0	43	0	97517568	22	5220
2026-01-19 01:41:22.03	8.77	11.26	-31.3	-34.3	10.8	5.50e-03	0	43	0	99614720	22	5072
2026-01-19 01:41:23.04	8.68	11.35	-31.4	-34.4	10.7	1.74e-03	0	43	0	100663296	22	5126
2026-01-19 01:41:24.04	8.60	11.43	-31.3	-34.2	10.9	2.39e-03	0	43	0	102760448	22	5032
2026-01-19 01:41:25.04	8.52	11.51	-31.1	-33.6	11.3	5.22e-03	0	43	0	104857600	22	4811
2026-01-19 01:41:26.05	8.43	11.59	-31.3	-34.3	10.8	2.24e-03	0	43	0	106954752	22	5088
2026-01-19 01:41:27.05	8.35	11.68	-31.5	-34.5	10.4	2.86e-03	0	43	0	108003328	23	5048
2026-01-19 01:41:28.05	8.26	11.76	-31.3	-34.2	10.9	4.57e-03	0	43	0	110100480	22	5039
2026-01-19 01:41:29.05	8.18	11.84	-31.2	-33.8	11.2	2.48e-03	0	43	0	112197632	22	4873
2026-01-19 01:41:30.05	8.09	11.93	-31.2	-33.9	11.1	1.29e-03	0	43	0	114294784	22	4921
2026-01-19 01:41:31.05	8.00	12.01	-31.1	-33.5	11.4	5.94e-04	0	43	0	116391936	22	4752
2026-01-19 01:41:32.05	7.92	12.09	-30.8	-32.7	12.0	9.39e-04	0	43	0	117440512	22	4486
2026-01-19 01:41:33.05	7.83	12.18	-30.8	-33.1	12.1	1.14e-03	0	43	0	119537664	21	4689
2026-01-19 01:41:34.05	7.74	12.26	-31.0	-33.3	11.6	4.92e-04	0	43	0	121634816	22	4691
2026-01-19 01:41:35.05	7.65	12.35	-31.0	-33.4	11.6	9.66e-04	0	43	0	123731968	22	4707
2026-01-19 01:41:36.06	7.56	12.43	-31.1	-33.5	11.5	3.00e-03	0	43	0	125829120	22	4741
2026-01-19 01:41:37.06	7.47	12.52	-31.0	-33.7	11.7	8.03e-04	0	43	0	126877696	21	4933
2026-01-19 01:41:38.06	7.38	12.60	-31.0	-33.2	11.7	5.55e-04	0	43	0	128974848	22	4631
2026-01-19 01:41:39.06	7.29	12.69	-30.9	-33.6	11.8	2.67e-03	0	43	0	131072000	21	4881
2026-01-19 01:41:40.07	7.20	12.77	-31.0	-33.2	11.7	3.14e-03	0	43	0	133169152	22	4634
2026-01-19 01:41:41.07	7.11	12.86	-30.8	-32.7	12.1	6.26e-04	0	43	0	135266304	22	4448
2026-01-19 01:41:42.07	7.02	12.95	-31.0	-33.3	11.6	3.29e-03	0	43	0	136314880	22	4702
2026-01-19 01:41:43.07	6.92	13.03	-31.1	-33.4	11.7	3.02e-03	0	43	0	138412032	22	4692
2026-01-19 01:41:44.07	6.83	13.12	-31.1	-33.4	11.6	4.07e-04	0	43	0	140509184	22	4698
2026-01-19 01:41:45.08	6.74	13.21	-31.3	-34.2	11.0	4.03e-03	0	43	0	142606336	22	4987
2026-01-19 01:41:46.08	6.64	13.29	-31.1	-33.3	11.7	3.03e-03	0	43	0	144703488	22	4658
2026-01-19 01:41:47.09	6.54	13.38	-30.8	-32.6	12.1	3.97e-04	0	43	0	145752064	22	4433
2026-01-19 01:41:48.08	6.45	13.47	-30.6	-32.5	12.6	1.76e-04	0	43	0	147849216	21	4481
2026-01-19 01:41:49.08	6.35	13.56	-30.6	-32.4	12.7	2.65e-03	0	43	0	149946368	21	4442
2026-01-19 01:41:50.08	6.26	13.64	-30.7	-32.9	12.4	3.48e-04	0	43	0	152043520	21	4600
2026-01-19 01:41:51.08	6.16	13.73	-30.7	-32.8	12.4	2.67e-03	0	43	0	153092096	21	4561
2026-01-19 01:41:52.08	6.06	13.82	-30.8	-33.0	12.3	2.65e-03	0	43	0	155189248	21	4634
2026-01-19 01:41:53.08	5.96	13.91	-30.9	-33.4	12.0	5.90e-04	0	43	0	157286400	21	4779
2026-01-19 01:41:54.08	5.86	14.00	-30.7	-32.7	12.5	2.76e-03	0	43	0	159383552	21	4528
2026-01-19 01:41:55.09	5.76	14.09	-30.7	-32.6	12.6	6.86e-05	0	44	0	161480704	21	4495
2026-01-19 01:41:56.09	5.66	14.18	-30.6	-32.6	12.6	4.59e-04	0	43	0	162529280	21	4482
2026-01-19 01:41:57.08	5.56	14.27	-30.6	-32.4	12.7	2.57e-03	0	43	0	164626432	21	4429
2026-01-19 01:41:58.08	5.46	14.36	-30.9	-33.3	12.1	2.87e-03	0	43	0	166723584	21	4752
2026-01-19 01:41:59.07	5.36	14.45	-30.8	-33.0	12.4	6.45e-04	0	43	0	168820736	21	4639
2026-01-19 01:42:00.07	5.25	14.54	-30.9	-33.4	12.1	2.96e-03	0	43	0	170917888	21	4762
2026-01-19 01:42:01.07	5.15	14.63	-31.2	-33.7	11.5	3.30e-03	0	43	0	171966464	22	4808
2026-01-19 01:42:02.07	5.05	14.72	-31.0	-33.0	12.0	6.66e-04	0	44	0	174063616	22	4549
2026-01-19 01:42:03.07	4.94	14.81	-30.9	-33.4	12.1	2.79e-03	0	43	0	176160768	21	4780
2026-01-19 01:42:04.07	4.83	14.90	-31.1	-33.3	11.8	2.82e-03	0	43	0	178257920	22	4645
2026-01-19 01:42:05.07	4.73	14.99	-31.2	-33.6	11.6	9.29e-04	0	43	0	180355072	22	4743
2026-01-19 01:42:06.07	4.62	15.08	-31.2	-33.5	11.7	3.20e-03	0	43	0	181403648	22	4724
2026-01-19 01:42:07.08	4.51	15.18	-31.3	-33.9	11.4	3.48e-03	0	44	0	183500800	22	4854
2026-01-19 01:42:08.08	4.40	15.27	-31.2	-33.6	11.6	1.02e-03	0	44	0	185597952	22	4758
2026-01-19 01:42:09.08	4.29	15.36	-31.3	-34.0	11.4	7.92e-04	0	44	0	187695104	22	4894
2026-01-19 01:42:10.08	4.18	15.45	-31.3	-34.0	11.4	3.97e-03	0	43	0	188743680	22	4919
2026-01-19 01:42:11.09	4.07	15.55	-31.2	-33.8	11.5	9.30e-04	0	44	0	190840832	22	4809
2026-01-19 01:42:12.09	3.96	15.64	-31.2	-33.5	11.7	3.35e-03	0	44	0	192937984	22	4722
2026-01-19 01:42:13.10	3.85	15.74	-31.2	-33.5	11.8	4.43e-04	0	43	0	195035136	22	4714
2026-01-19 01:42:14.11	3.73	15.83	-31.4	-34.2	11.3	1.26e-03	0	43	0	197132288	22	4957
2026-01-19 01:42:15.12	3.62	15.93	-31.1	-33.5	11.8	3.33e-03	0	43	0	198180864	22	4705
2026-01-19 01:42:16.12	3.51	16.02	-31.0	-32.9	12.2	2.68e-04	0	44	0	200278016	22	4499
2026-01-19 01:42:17.12	3.39	16.11	-31.0	-33.0	12.1	5.07e-04	0	43	0	202375168	22	4548
2026-01-19 01:42:18.13	3.27	16.21	-30.8	-32.4	12.5	2.89e-03	0	44	0	204472320	22	4317
2026-01-19 01:42:19.13	3.16	16.30	-31.0	-33.4	12.2	1.72e-04	0	44	0	206569472	21	4768
2026-01-19 01:42:20.13	3.04	16.40	-30.8	-32.8	12.5	1.30e-04	0	43	0	207618048	21	4569
2026-01-19 01:42:21.13	2.92	16.50	-30.7	-32.6	12.8	2.51e-03	0	43	0	209715200	21	4479
2026-01-19 01:42:22.14	2.80	16.59	-30.6	-32.3	12.9	2.38e-03	0	44	0	211812352	21	4393
2026-01-19 01:42:23.13	2.68	16.69	-30.5	-32.1	13.1	3.35e-05	0	43	0	213909504	21	4310
2026-01-19 01:42:24.13	2.56	16.78	-30.6	-32.3	12.9	5.03e-05	0	43	0	216006656	21	4397
2026-01-19 01:42:25.14	2.44	16.88	-30.5	-31.9	13.2	2.61e-03	0	44	0	217055232	21	4259
2026-01-19 01:42:26.14	2.32	16.98	-30.5	-32.0	13.1	2.89e-05	0	43	0	219152384	21	4283
2026-01-19 01:42:27.14	2.19	17.07	-30.5	-32.1	13.1	3.20e-05	0	44	0	221249536	21	4307
2026-01-19 01:42:28.14	2.07	17.17	-30.3	-32.1	13.4	2.43e-03	0	44	0	223346688	20	4395
2026-01-19 01:42:29.15	1.95	17.27	-30.5	-32.4	13.2	2.12e-04	0	43	0	225443840	20	4512
2026-01-19 01:42:30.15	1.82	17.37	-30.6	-32.1	13.0	5.41e-05	0	43	0	226492416	21	4322
2026-01-19 01:42:31.15	1.69	17.47	-30.4	-31.8	13.3	2.51e-05	0	44	0	228589568	21	4224
2026-01-19 01:42:32.15	1.57	17.56	-30.3	-31.5	13.5	2.09e-04	0	44	0	230686720	21	4139
2026-01-19 01:42:33.15	1.44	17.66	-30.5	-32.0	13.2	1.37e-05	0	44	0	232783872	21	4268
2026-01-19 01:42:34.16	1.31	17.76	-30.4	-31.8	13.2	2.51e-05	0	44	0	233832448	21	4213
2026-01-19 01:42:35.16	1.18	17.86	-30.6	-32.3	13.0	2.59e-05	0	43	0	235929600	21	4373
2026-01-19 01:42:36.16	1.05	17.96	-30.5	-32.1	13.2	2.61e-03	0	44	0	238026752	21	4293
2026-01-19 01:42:37.17	0.92	18.06	-30.7	-32.5	12.9	3.05e-05	0	44	0	240123904	21	4452
2026-01-19 01:42:38.17	0.78	18.16	-30.6	-32.2	13.1	1.02e-04	0	44	0	242221056	21	4343
2026-01-19 01:42:39.18	0.65	18.26	-30.7	-32.5	12.9	2.59e-03	0	44	0	243269632	21	4431
2026-01-19 01:42:40.18	0.51	18.36	-30.5	-32.1	13.2	4.73e-05	0	44	0	245366784	21	4307
2026-01-19 01:42:41.19	0.38	18.46	-30.6	-32.3	12.9	9.38e-05	0	44	0	247463936	21	4386
2026-01-19 01:42:42.19	0.24	18.56	-30.8	-32.7	12.7	8.77e-05	0	44	0	249561088	21	4515
2026-01-19 01:42:43.19	0.11	18.66	-30.7	-32.0	12.9	6.33e-05	0	44	0	251658240	22	4198
2026-01-19 01:42:44.20	359.97	18.77	-30.7	-32.0	12.9	1.22e-04	0	44	0	252706816	22	4187
2026-01-19 01:42:45.20	359.83	18.87	-30.9	-33.0	12.5	1.56e-04	0	44	0	254803968	21	4607
2026-01-19 01:42:46.21	359.69	18.97	-30.6	-32.2	13.1	3.43e-05	0	44	0	256901120	21	4351
2026-01-19 01:42:47.21	359.55	19.07	-30.6	-32.3	13.0	2.46e-04	0	44	0	258998272	21	4381
2026-01-19 01:42:48.21	359.40	19.17	-30.8	-32.7	12.7	3.08e-04	0	44	0	261095424	21	4523
2026-01-19 01:42:49.21	359.26	19.28	-30.7	-32.4	12.9	6.25e-05	0	44	0	262144000	21	4421
2026-01-19 01:42:50.21	359.12	19.38	-30.6	-32.3	13.0	2.33e-04	0	44	0	264241152	21	4359
2026-01-19 01:42:51.22	358.97	19.48	-30.7	-32.7	12.8	2.69e-04	0	44	0	266338304	21	4503
2026-01-19 01:42:52.22	358.83	19.59	-30.7	-32.6	12.9	4.80e-05	0	44	0	268435456	21	4471
2026-01-19 01:42:53.21	358.68	19.69	-31.1	-33.1	12.1	7.17e-05	0	44	0	270532608	22	4538
2026-01-19 01:42:54.22	358.53	19.79	-30.9	-33.1	12.6	4.80e-04	0	44	0	271581184	21	4626
2026-01-19 01:42:55.22	358.38	19.90	-31.1	-33.2	12.2	1.67e-04	0	44	0	273678336	22	4578
2026-01-19 01:42:56.22	358.23	20.00	-31.3	-33.1	11.8	1.16e-03	0	44	0	275775488	23	4470
2026-01-19 01:42:57.23	358.08	20.11	-31.2	-33.4	12.1	6.74e-04	0	44	0	277872640	22	4650
2026-01-19 01:42:58.23	357.93	20.21	-30.4	-32.9	12.1	2.02e-04	0	44	0	279969792	22	4776
2026-01-19 01:42:59.24	357.78	20.32	-30.6	-32.9	11.8	5.66e-04	0	44	0	281018368	21	4702
2026-01-19 01:43:00.24	357.62	20.42	-31.7	-34.1	11.3	2.94e-04	0	44	0	283115520	22	4772
2026-01-19 01:43:01.25	357.47	20.53	-31.2	-33.0	11.7	5.75e-04	0	44	0	285212672	23	4428
2026-01-19 01:43:02.25	357.31	20.63	-31.0	-33.3	11.7	6.30e-04	0	44	0	287309824	21	4711
2026-01-19 01:43:03.25	357.15	20.74	-31.1	-33.1	11.9	5.24e-04	0	44	0	289406976	22	4541
2026-01-19 01:43:04.25	356.99	20.84	-31.0	-32.9	12.4	3.95e-04	0	44	0	290455552	22	4467
2026-01-19 01:43:05.25	356.83	20.95	-30.9	-33.1	12.4	4.75e-04	0	44	0	292552704	21	4647
2026-01-19 01:43:06.25	356.67	21.06	-31.2	-33.4	12.2	3.06e-04	0	44	0	294649856	22	4653
2026-01-19 01:43:07.25	356.51	21.16	-31.0	-32.9	12.4	1.41e-04	0	44	0	296747008	22	4477
2026-01-19 01:43:08.24	356.35	21.27	-31.1	-33.0	12.3	4.89e-04	0	44	0	297795584	22	4511
2026-01-19 01:43:09.25	356.19	21.38	-31.1	-33.1	12.3	4.80e-04	0	44	0	299892736	22	4525
2026-01-19 01:43:10.25	356.02	21.48	-31.1	-33.1	12.3	1.12e-04	0	44	0	301989888	22	4527
2026-01-19 01:43:11.25	355.85	21.59	-31.1	-33.0	12.4	4.12e-04	0	44	0	304087040	22	4511
2026-01-19 01:43:12.25	355.69	21.70	-31.1	-33.2	12.2	7.53e-04	0	44	0	306184192	22	4567
2026-01-19 01:43:13.25	355.52	21.80	-31.0	-33.3	12.5	1.56e-04	0	44	0	307232768	21	4724
2026-01-19 01:43:14.25	355.35	21.91	-31.1	-33.2	12.4	1.91e-03	0	44	0	309329920	22	4568
2026-01-19 01:43:15.25	355.18	22.02	-30.9	-33.2	12.5	2.97e-04	0	44	0	311427072	21	4673
2026-01-19 01:43:16.25	355.00	22.13	-30.9	-32.6	12.6	1.45e-04	0	44	0	313524224	22	4369
2026-01-19 01:43:17.25	354.83	22.24	-30.6	-32.3	13.1	1.51e-03	0	44	0	315621376	21	4360
2026-01-19 01:43:18.25	354.66	22.34	-30.6	-32.1	13.3	1.37e-05	0	44	0	316669952	21	4314
2026-01-19 01:43:19.26	354.48	22.45	-30.5	-32.1	13.3	1.67e-05	0	44	0	318767104	21	4300
2026-01-19 01:43:20.26	354.30	22.56	-30.5	-32.3	13.5	2.46e-04	0	44	0	320864256	20	4477
2026-01-19 01:43:21.27	354.12	22.67	-30.6	-32.3	13.1	1.38e-03	0	44	0	322961408	21	4382
2026-01-19 01:43:22.27	353.94	22.78	-30.9	-33.2	12.6	3.96e-05	0	44	0	325058560	21	4673
2026-01-19 01:43:23.27	353.76	22.89	-30.7	-32.5	13.1	2.04e-04	0	44	0	326107136	21	4430
2026-01-19 01:43:24.28	353.58	23.00	-30.8	-32.8	12.9	1.62e-03	0	44	0	328204288	21	4528
2026-01-19 01:43:25.28	353.39	23.11	-30.5	-32.0	13.3	2.41e-04	0	44	0	330301440	21	4277
2026-01-19 01:43:26.28	353.21	23.22	-30.5	-31.8	13.5	4.65e-05	0	44	0	332398592	21	4201
2026-01-19 01:43:27.28	353.02	23.33	-30.5	-32.3	13.6	1.66e-03	0	44	0	334495744	20	4460
2026-01-19 01:43:28.28	352.83	23.44	-30.4	-31.6	13.6	1.98e-04	0	44	0	335544320	21	4142
2026-01-19 01:43:29.28	352.64	23.55	-30.4	-32.1	13.7	1.26e-04	0	44	0	337641472	20	4381
2026-01-19 01:43:30.28	352.45	23.66	-30.6	-32.3	13.3	8.39e-05	0	44	0	339738624	21	4350
2026-01-19 01:43:31.28	352.26	23.77	-30.5	-32.0	13.4	1.40e-04	0	44	0	341835776	21	4266
2026-01-19 01:43:32.29	352.07	23.88	-30.7	-32.4	13.2	9.83e-04	0	44	0	342884352	21	4381
2026-01-19 01:43:33.29	351.87	23.99	-30.9	-32.5	12.8	4.73e-05	0	44	0	344981504	22	4319
2026-01-19 01:43:34.30	351.68	24.11	-31.0	-32.8	12.6	1.46e-04	0	44	0	347078656	22	4433
2026-01-19 01:43:35.30	351.48	24.22	-31.2	-33.3	12.3	1.39e-03	0	44	0	349175808	22	4602
2026-01-19 01:43:36.30	351.28	24.33	-31.4	-33.9	11.9	6.96e-04	0	44	0	351272960	22	4810
2026-01-19 01:43:37.31	351.08	24.44	-31.4	-33.9	11.9	5.10e-04	0	44	0	352321536	22	4793
2026-01-19 01:43:38.31	350.87	24.55	-31.6	-33.9	11.5	2.35e-03	0	44	0	354418688	23	4734
2026-01-19 01:43:39.31	350.67	24.66	-31.6	-34.0	11.4	2.66e-03	0	44	0	356515840	23	4753
2026-01-19 01:43:40.31	350.47	24.77	-31.7	-34.3	11.2	9.99e-04	0	44	0	358612992	23	4857
2026-01-19 01:43:41.31	350.26	24.88	-31.9	-34.4	10.8	5.83e-03	0	44	0	360710144	24	4800
2026-01-19 01:43:42.31	350.05	24.99	-31.7	-34.5	11.1	3.89e-03	0	44	0	361758720	23	4954
2026-01-19 01:43:43.31	349.84	25.11	-31.6	-33.9	11.4	1.12e-03	0	44	0	363855872	23	4726
2026-01-19 01:43:44.32	349.63	25.22	-31.8	-34.6	11.0	1.60e-03	0	44	0	365953024	23	4977
2026-01-19 01:43:45.32	349.42	25.33	-31.8	-34.8	10.9	4.11e-03	0	44	0	368050176	23	5061
2026-01-19 01:43:46.33	349.20	25.44	-31.8	-34.7	10.9	2.24e-03	0	44	0	370147328	23	5038
2026-01-19 01:43:47.33	348.99	25.55	-31.9	-35.1	10.7	2.31e-03	0	44	0	371195904	23	5178
2026-01-19 01:43:48.33	348.77	25.67	-31.9	-35.0	10.7	4.45e-03	0	44	0	373293056	23	5158
2026-01-19 01:43:49.34	348.55	25.78	-31.8	-34.8	10.8	2.57e-03	0	44	0	375390208	23	5079
2026-01-19 01:43:50.34	348.33	25.89	-31.7	-34.5	11.1	3.12e-03	0	44	0	377487360	23	4931
2026-01-19 01:43:51.35	348.11	26.00	-31.6	-34.1	11.4	2.65e-03	0	44	0	379584512	23	4790
2026-01-19 01:43:52.35	347.89	26.11	-31.5	-33.8	11.6	9.39e-04	0	44	0	380633088	23	4683
2026-01-19 01:43:53.36	347.66	26.23	-31.6	-33.9	11.5	1.20e-03	0	44	0	382730240	23	4728
2026-01-19 01:43:54.36	347.43	26.34	-31.2	-32.7	12.3	5.71e-04	0	44	0	384827392	23	4315
2026-01-19 01:43:55.36	347.20	26.45	-31.0	-32.3	12.6	1.38e-04	0	44	0	386924544	23	4186
2026-01-19 01:43:56.37	346.97	26.56	-31.3	-33.2	12.1	2.27e-04	0	44	0	387973120	23	4466
2026-01-19 01:43:57.37	346.74	26.67	-31.3	-33.2	12.1	3.60e-04	0	44	0	390070272	23	4450
2026-01-19 01:43:58.37	346.51	26.79	-31.4	-33.4	11.9	2.48e-04	0	44	0	392167424	23	4520
2026-01-19 01:43:59.37	346.27	26.90	-31.4	-33.5	11.9	5.08e-04	0	44	0	394264576	23	4554
2026-01-19 01:44:00.38	346.04	27.01	-31.3	-33.7	12.1	6.00e-04	0	44	0	396361728	22	4720
2026-01-19 01:44:01.38	345.80	27.12	-31.4	-34.0	11.9	4.03e-04	0	44	0	397410304	22	4839
2026-01-19 01:44:02.38	345.56	27.23	-31.2	-33.2	12.4	1.29e-03	0	44	0	399507456	22	4544
2026-01-19 01:44:03.38	345.32	27.34	-31.3	-33.6	12.2	1.30e-03	0	44	0	401604608	22	4676
2026-01-19 01:44:04.38	345.08	27.45	-31.4	-33.4	11.9	4.23e-04	0	44	0	403701760	23	4525
2026-01-19 01:44:05.39	344.83	27.56	-31.4	-33.8	11.9	2.11e-04	0	44	0	405798912	22	4776
2026-01-19 01:44:06.39	344.58	27.67	-31.5	-33.8	11.7	2.22e-03	0	44	0	406847488	23	4668
2026-01-19 01:44:07.40	344.33	27.79	-31.6	-34.1	11.4	6.79e-04	0	44	0	408944640	23	4808
2026-01-19 01:44:08.40	344.08	27.90	-31.6	-34.1	11.4	1.09e-03	0	44	0	411041792	23	4794
2026-01-19 01:44:09.40	343.83	28.01	-31.3	-33.5	12.1	2.34e-03	0	44	0	413138944	22	4677
2026-01-19 01:44:10.40	343.58	28.12	-31.0	-32.9	12.7	1.55e-04	0	44	0	415236096	22	4434
2026-01-19 01:44:11.41	343.32	28.23	-31.2	-33.2	12.5	2.14e-03	0	44	0	416284672	22	4552
2026-01-19 01:44:12.41	343.06	28.34	-31.3	-33.5	12.3	1.87e-04	0	44	0	418381824	22	4651
2026-01-19 01:44:13.41	342.80	28.44	-31.4	-33.4	11.8	2.54e-04	0	44	0	420478976	23	4547
2026-01-19 01:44:14.42	342.54	28.55	-30.3	-32.7	11.9	2.20e-03	0	44	0	422576128	22	4730
2026-01-19 01:44:15.42	342.28	28.66	-31.4	-34.0	11.8	3.51e-04	0	44	0	424673280	22	4819
2026-01-19 01:44:16.43	342.01	28.77	-31.7	-34.8	11.2	1.07e-03	0	44	0	425721856	22	5129
2026-01-19 01:44:17.42	341.75	28.88	-31.7	-34.4	11.0	2.82e-03	0	44	0	427819008	23	4925
2026-01-19 01:44:18.43	341.48	28.99	-31.8	-34.6	11.1	1.40e-03	0	44	0	429916160	23	4972
2026-01-19 01:44:19.44	341.21	29.10	-31.6	-33.9	11.2	9.44e-04	0	44	0	432013312	23	4699
2026-01-19 01:44:20.44	340.94	29.21	-31.3	-33.7	11.4	2.37e-03	0	44	0	434110464	22	4732
2026-01-19 01:44:21.44	340.66	29.31	-31.1	-33.0	12.5	2.08e-03	0	44	0	435159040	22	4494
2026-01-19 01:44:22.44	340.39	29.42	-31.2	-33.3	12.2	2.07e-04	0	44	0	437256192	22	4593
2026-01-19 01:44:23.44	340.11	29.52	-31.4	-33.9	11.9	2.92e-04	0	44	0	439353344	22	4780
2026-01-19 01:44:24.45	339.83	29.63	-31.3	-33.6	12.2	9.96e-04	0	44	0	441450496	22	4699
2026-01-19 01:44:25.45	339.55	29.74	-31.5	-33.8	11.6	4.83e-04	0	44	0	442499072	23	4674
2026-01-19 01:44:26.45	339.27	29.84	-31.6	-34.2	11.4	1.03e-03	0	44	0	444596224	23	4821
2026-01-19 01:44:27.46	338.98	29.95	-31.8	-34.7	10.9	2.97e-03	0	44	0	446693376	23	5048
2026-01-19 01:44:28.46	338.69	30.05	-31.6	-34.3	11.2	2.15e-03	0	44	0	448790528	23	4860
2026-01-19 01:44:29.47	338.40	30.16	-31.7	-34.4	11.2	9.99e-04	0	44	0	450887680	23	4916
2026-01-19 01:44:30.47	338.11	30.26	-31.7	-34.3	11.3	1.13e-03	0	44	0	452984832	23	4861
2026-01-19 01:44:31.47	337.82	30.36	-31.7	-34.6	11.1	1.35e-03	0	44	0	454033408	23	4978
2026-01-19 01:44:32.47	337.53	30.47	-32.0	-34.9	10.5	4.40e-03	0	44	0	456130560	24	5031
2026-01-19 01:44:33.47	337.23	30.57	-32.3	-36.0	9.6	7.47e-03	0	44	0	458227712	24	5528
2026-01-19 01:44:34.48	336.93	30.67	-32.6	-36.8	8.6	2.36e-02	0	44	0	460324864	25	5824
2026-01-19 01:44:35.48	336.63	30.77	-32.6	-36.8	8.6	3.60e-02	0	44	0	461373440	25	5836
2026-01-19 01:44:36.49	336.33	30.87	-32.6	-36.6	8.9	3.84e-02	0	44	0	463470592	25	5740
2026-01-19 01:44:37.49	336.02	30.97	-32.2	-35.3	9.8	2.22e-02	0	44	0	465567744	25	5108
2026-01-19 01:44:38.49	335.72	31.07	-31.9	-33.9	10.8	6.30e-03	0	44	0	467664896	25	4562
2026-01-19 01:44:39.49	335.41	31.17	-31.7	-33.9	11.4	1.25e-03	0	44	0	469762048	24	4636
2026-01-19 01:44:40.49	335.10	31.27	-31.7	-34.3	11.3	8.61e-04	0	44	0	470810624	23	4890
2026-01-19 01:44:41.50	334.79	31.37	-31.9	-35.1	10.8	1.39e-03	0	44	0	472907776	23	5206
2026-01-19 01:44:42.50	334.48	31.47	-31.9	-35.1	10.7	2.76e-03	0	44	0	475004928	23	5199
2026-01-19 01:44:43.50	334.16	31.56	-32.4	-36.6	9.2	9.58e-03	0	44	0	477102080	24	5799
2026-01-19 01:44:44.51	333.84	31.66	-32.6	-36.7	8.7	2.66e-02	0	44	0	479199232	25	5767
2026-01-19 01:44:45.50	333.53	31.75	-32.7	-36.9	8.4	4.38e-02	0	44	0	480247808	25	5886
2026-01-19 01:44:46.51	333.20	31.85	-32.6	-36.9	8.6	5.05e-02	0	44	0	482344960	25	5871
2026-01-19 01:44:47.51	332.88	31.94	-32.6	-36.5	8.8	3.57e-02	0	44	0	484442112	25	5678
2026-01-19 01:44:48.50	332.56	32.03	-32.4	-36.0	9.2	3.03e-02	0	44	0	486539264	25	5442
2026-01-19 01:44:49.50	332.24	32.12	-32.4	-36.3	9.3	1.62e-02	0	44	0	487587840	24	5662
2026-01-19 01:44:50.50	331.91	32.22	-32.5	-36.3	8.8	1.79e-02	0	44	0	489684992	25	5588
2026-01-19 01:44:51.50	331.58	32.31	-32.5	-36.3	9.0	2.29e-02	0	44	0	491782144	25	5582
2026-01-19 01:44:52.51	331.24	32.40	-32.8	-37.9	7.8	7.37e-02	0	44	0	493879296	25	6441
2026-01-19 01:44:53.52	330.91	32.49	-33.0	-38.3	7.0	1.19e-01	0	44	0	495976448	26	6572
2026-01-19 01:44:54.52	330.57	32.57	-33.1	-38.8	6.7	1.71e-01	0	44	0	498073600	26	6928
2026-01-19 01:44:55.52	330.23	32.66	-32.9	-37.4	7.6	1.31e-01	0	44	0	499122176	26	6074
2026-01-19 01:44:56.53	329.89	32.75	-32.8	-37.5	8.0	9.96e-02	0	44	0	501219328	25	6197
2026-01-19 01:44:57.53	329.55	32.83	-32.5	-36.5	8.9	5.63e-02	0	44	0	503316480	25	5660
2026-01-19 01:44:58.53	329.21	32.92	-31.3	-34.5	9.8	2.20e-02	0	44	0	505413632	25	5171
2026-01-19 01:44:59.54	328.86	33.00	-31.9	-35.7	9.3	1.49e-02	0	44	0	506462208	24	5569
2026-01-19 01:45:00.55	328.51	33.08	-32.4	-35.9	9.4	1.81e-02	0	44	0	508559360	25	5378
2026-01-19 01:45:01.56	328.16	33.17	-32.6	-36.5	8.5	2.40e-02	0	44	0	510656512	25	5680
2026-01-19 01:45:02.55	327.82	33.25	-32.6	-36.7	8.5	2.89e-02	0	44	0	512753664	25	5747
2026-01-19 01:45:03.54	327.47	33.33	-32.6	-36.8	8.8	3.38e-02	0	44	0	514850816	25	5821
2026-01-19 01:45:04.54	327.11	33.40	-32.4	-36.4	9.1	2.36e-02	0	44	0	515899392	24	5713
2026-01-19 01:45:05.53	326.76	33.48	-32.2	-35.8	9.7	1.66e-02	0	44	0	517996544	24	5410
2026-01-19 01:45:06.53	326.41	33.56	-31.9	-35.0	10.8	4.74e-03	0	44	0	520093696	23	5149
2026-01-19 01:45:07.54	326.05	33.63	-31.8	-34.8	10.9	2.22e-03	0	44	0	522190848	23	5075
2026-01-19 01:45:08.54	325.69	33.71	-32.0	-35.4	10.4	3.14e-03	0	44	0	524288000	23	5341
2026-01-19 01:45:09.54	325.32	33.78	-32.4	-36.7	9.0	1.80e-02	0	44	0	525336576	24	5857
2026-01-19 01:45:10.54	324.96	33.85	-32.7	-37.5	8.0	6.22e-02	0	44	0	527433728	25	6249
2026-01-19 01:45:11.54	324.60	33.92	-32.8	-37.7	7.7	8.58e-02	0	44	0	529530880	25	6313
2026-01-19 01:45:12.54	324.23	33.99	-32.6	-36.8	8.5	6.08e-02	0	44	0	531628032	25	5849
2026-01-19 01:45:13.55	323.86	34.06	-32.5	-36.6	9.2	2.76e-02	0	44	0	532676608	24	5823
2026-01-19 01:45:14.55	323.49	34.13	-32.4	-36.2	9.5	2.32e-02	0	44	0	534773760	24	5599
2026-01-19 01:45:15.56	323.12	34.20	-32.2	-35.8	9.8	1.91e-02	0	44	0	536870912	24	5412
2026-01-19 01:45:16.56	322.74	34.26	-32.4	-36.6	9.2	2.99e-02	0	44	0	538968064	24	5794
2026-01-19 01:45:17.57	322.37	34.32	-32.7	-37.0	8.5	2.99e-02	0	44	0	541065216	25	5908
2026-01-19 01:45:18.56	321.99	34.39	-32.8	-37.3	8.2	6.48e-02	0	44	0	542113792	25	6087
2026-01-19 01:45:19.57	321.61	34.45	-32.4	-36.5	9.2	4.07e-02	0	44	0	544210944	24	5784
2026-01-19 01:45:20.57	321.23	34.51	-31.8	-34.7	10.9	7.81e-03	0	44	0	546308096	23	5042
2026-01-19 01:45:21.57	320.86	34.57	-30.9	-32.0	12.8	5.86e-04	0	44	0	548405248	23	4094
2026-01-19 01:45:22.57	320.47	34.62	-30.2	-31.1	14.1	1.84e-04	0	44	0	550502400	21	3988
2026-01-19 01:45:23.57	320.09	34.68	-30.0	-31.1	14.4	2.45e-03	0	44	0	551550976	20	4077
2026-01-19 01:45:24.58	319.70	34.73	-30.1	-31.2	14.3	0.00e+00	0	44	0	553648128	20	4129
2026-01-19 01:45:25.58	319.32	34.79	-30.1	-31.5	14.2	4.50e-05	0	44	0	555745280	20	4192
2026-01-19 01:45:26.59	318.93	34.84	-30.1	-31.4	14.1	1.88e-03	0	44	0	557842432	20	4186
2026-01-19 01:45:27.59	318.54	34.89	-29.9	-30.9	14.4	1.85e-04	0	44	0	559939584	20	4044
2026-01-19 01:45:28.60	318.15	34.94	-29.8	-30.7	14.5	1.50e-06	0	44	0	560988160	20	3983
2026-01-19 01:45:29.61	317.76	34.98	-30.2	-31.5	14.1	9.90e-06	0	44	0	563085312	20	4214
2026-01-19 01:45:30.61	317.37	35.03	-30.3	-32.0	13.9	1.67e-05	0	44	0	565182464	20	4347
2026-01-19 01:45:31.61	316.97	35.08	-30.5	-32.1	13.4	2.12e-03	0	44	0	567279616	21	4294
2026-01-19 01:45:32.61	316.58	35.12	-30.7	-32.5	13.2	1.94e-04	0	44	0	569376768	21	4428
2026-01-19 01:45:33.61	316.19	35.16	-30.7	-32.6	13.1	3.68e-04	0	44	0	570425344	21	4455
2026-01-19 01:45:34.61	315.79	35.20	-30.7	-32.4	13.3	2.00e-04	0	44	0	572522496	21	4385
2026-01-19 01:45:35.61	315.40	35.24	-30.9	-32.9	12.9	2.82e-05	0	44	0	574619648	21	4542
2026-01-19 01:45:36.61	315.00	35.27	-30.5	-32.0	13.5	2.13e-05	0	44	0	576716800	21	4259
2026-01-19 01:45:37.61	314.60	35.31	-30.5	-32.0	13.5	8.68e-04	0	44	0	578813952	21	4270
2026-01-19 01:45:38.61	314.20	35.34	-30.5	-31.9	13.6	1.27e-03	0	44	0	579862528	21	4242
2026-01-19 01:45:39.61	313.80	35.38	-30.1	-31.4	14.2	3.80e-06	0	44	0	581959680	20	4172
2026-01-19 01:45:40.61	313.40	35.41	-30.0	-31.2	14.3	1.68e-03	0	44	0	584056832	20	4105
2026-01-19 01:45:41.61	313.00	35.44	-30.2	-31.7	14.0	2.12e-03	0	44	0	586153984	20	4279
2026-01-19 01:45:42.61	312.60	35.46	-30.7	-32.4	13.2	9.10e-06	0	44	0	587202560	21	4394
2026-01-19 01:45:43.61	312.20	35.49	-31.2	-33.2	12.5	2.08e-04	0	44	0	589299712	22	4568
2026-01-19 01:45:44.61	311.79	35.51	-30.9	-32.6	12.8	2.61e-03	0	44	0	591396864	22	4369
2026-01-19 01:45:45.61	311.39	35.54	-30.3	-31.5	13.9	5.02e-04	0	44	0	593494016	21	4100
2026-01-19 01:45:46.62	310.98	35.56	-29.7	-30.4	14.9	3.26e-04	0	44	0	595591168	20	3873
2026-01-19 01:45:47.61	310.58	35.58	-29.7	-30.7	15.1	1.99e-03	0	44	0	596639744	19	4037
2026-01-19 01:45:48.61	310.18	35.59	-29.7	-30.7	15.1	2.10e-04	0	44	0	598736896	19	4052
2026-01-19 01:45:49.61	309.77	35.61	-30.0	-31.1	14.4	2.62e-03	0	44	0	600834048	20	4086
2026-01-19 01:45:50.61	309.36	35.63	-30.4	-32.2	13.8	2.40e-03	0	44	0	602931200	20	4411
2026-01-19 01:45:51.61	308.96	35.64	-30.8	-32.6	13.2	3.50e-04	0	44	0	605028352	21	4446
2026-01-19 01:45:52.61	308.55	35.65	-31.1	-33.1	12.6	2.81e-03	0	44	0	606076928	22	4495
2026-01-19 01:45:53.61	308.15	35.66	-31.3	-33.5	12.3	5.28e-04	0	44	0	608174080	22	4664
2026-01-19 01:45:54.61	307.74	35.67	-31.1	-33.0	12.7	2.66e-04	0	44	0	610271232	22	4477
2026-01-19 01:45:55.61	307.33	35.67	-30.9	-32.3	13.1	3.02e-03	0	44	0	612368384	22	4243
2026-01-19 01:45:56.61	306.92	35.68	-30.6	-32.1	13.6	2.84e-03	0	44	0	613416960	21	4263
2026-01-19 01:45:57.62	306.51	35.68	-30.6	-32.0	13.6	1.63e-04	0	44	0	615514112	21	4245
2026-01-19 01:45:58.62	306.10	35.68	-30.6	-32.1	13.6	2.22e-03	0	44	0	617611264	21	4268
2026-01-19 01:45:59.63	305.69	35.68	-30.7	-32.4	13.3	2.77e-03	0	44	0	619708416	21	4374
2026-01-19 01:46:00.63	305.28	35.68	-30.7	-32.4	13.3	1.52e-05	0	44	0	621805568	21	4385
2026-01-19 01:46:01.63	304.88	35.68	-30.9	-32.9	13.0	2.12e-03	0	44	0	623902720	21	4545
2026-01-19 01:46:02.63	304.47	35.67	-31.0	-32.7	12.9	2.76e-03	0	44	0	624951296	22	4359
2026-01-19 01:46:03.63	304.06	35.67	-30.9	-32.5	13.1	6.25e-05	0	44	0	627048448	22	4306
2026-01-19 01:46:04.63	303.65	35.66	-30.7	-32.2	13.5	2.23e-03	0	44	0	629145600	21	4320
2026-01-19 01:46:05.62	303.25	35.65	-30.8	-32.6	13.3	1.92e-03	0	44	0	631242752	21	4434
2026-01-19 01:46:06.63	302.84	35.64	-30.9	-32.9	12.9	6.63e-05	0	44	0	632291328	21	4548
2026-01-19 01:46:07.62	302.44	35.62	-30.9	-33.0	12.9	3.20e-05	0	44	0	634388480	21	4554
2026-01-19 01:46:08.62	302.03	35.61	-30.8	-32.2	13.2	1.91e-03	0	44	0	636485632	22	4208
2026-01-19 01:46:09.62	301.63	35.59	-31.3	-33.4	12.4	7.32e-05	0	44	0	638582784	22	4618
2026-01-19 01:46:10.62	301.22	35.57	-31.4	-33.4	12.1	2.28e-03	0	44	0	640679936	23	4513
2026-01-19 01:46:11.63	300.81	35.55	-31.9	-34.9	10.9	3.54e-03	0	44	0	641728512	23	5102
2026-01-19 01:46:12.62	300.41	35.53	-32.0	-35.0	10.4	4.19e-03	0	44	0	643825664	24	5050
2026-01-19 01:46:13.62	300.01	35.51	-31.7	-34.0	11.0	5.02e-03	0	44	0	645922816	24	4693
2026-01-19 01:46:14.62	299.61	35.48	-31.4	-33.5	11.9	5.71e-04	0	44	0	648019968	23	4575
2026-01-19 01:46:15.62	299.20	35.46	-31.1	-32.7	12.4	2.78e-04	0	44	0	650117120	23	4316
2026-01-19 01:46:16.62	298.80	35.43	-31.1	-33.0	12.6	6.57e-04	0	44	0	651165696	22	4508
2026-01-19 01:46:17.62	298.40	35.40	-31.3	-33.7	12.1	8.60e-04	0	44	0	653262848	22	4726
2026-01-19 01:46:18.62	298.00	35.37	-31.6	-33.9	11.6	5.50e-04	0	44	0	655360000	23	4744
2026-01-19 01:46:19.62	297.60	35.34	-32.0	-34.9	10.5	5.50e-03	0	44	0	657457152	24	5018
2026-01-19 01:46:20.62	297.20	35.30	-32.1	-35.5	10.0	7.54e-03	0	44	0	658505728	24	5282
2026-01-19 01:46:21.63	296.80	35.27	-32.0	-35.1	10.2	4.54e-03	0	44	0	660602880	24	5142
2026-01-19 01:46:22.64	296.40	35.23	-31.7	-34.5	11.1	4.32e-03	0	44	0	662700032	23	4955
2026-01-19 01:46:23.64	296.00	35.19	-31.6	-34.3	11.2	3.47e-03	0	44	0	664797184	23	4889
2026-01-19 01:46:24.65	295.60	35.15	-31.1	-32.6	12.5	6.61e-04	0	44	0	666894336	23	4272
2026-01-19 01:46:25.64	295.21	35.11	-31.0	-32.8	12.6	8.16e-05	0	44	0	667942912	22	4431
2026-01-19 01:46:26.64	294.82	35.07	-30.8	-32.3	13.0	2.33e-03	0	44	0	670040064	22	4261
2026-01-19 01:46:27.64	294.43	35.02	-31.0	-32.8	12.6	4.14e-04	0	44	0	672137216	22	4455
2026-01-19 01:46:28.65	294.03	34.97	-31.2	-33.4	12.3	1.76e-04	0	44	0	674234368	22	4645
2026-01-19 01:46:29.65	293.64	34.93	-31.5	-33.8	11.6	6.45e-04	0	44	0	676331520	23	4678
2026-01-19 01:46:30.65	293.25	34.88	-31.6	-34.2	11.3	8.93e-04	0	44	0	677380096	23	4833
2026-01-19 01:46:31.66	292.86	34.83	-31.9	-35.1	10.6	4.09e-03	0	44	0	679477248	23	5217
2026-01-19 01:46:32.66	292.48	34.77	-31.6	-34.1	11.3	1.21e-03	0	44	0	681574400	23	4818
2026-01-19 01:46:33.67	292.09	34.72	-31.5	-33.9	11.5	1.53e-03	0	44	0	683671552	23	4754
2026-01-19 01:46:34.67	291.70	34.67	-31.6	-34.2	11.3	4.39e-03	0	44	0	685768704	23	4839
2026-01-19 01:46:35.68	291.32	34.61	-31.3	-33.4	11.9	1.28e-03	0	44	0	686817280	23	4544
2026-01-19 01:46:36.68	290.94	34.55	-31.0	-32.9	12.5	2.18e-04	0	44	0	688914432	22	4465
2026-01-19 01:46:37.68	290.56	34.49	-30.9	-33.2	12.7	2.53e-03	0	44	0	691011584	21	4659
2026-01-19 01:46:38.68	290.18	34.43	-31.2	-33.4	12.1	1.93e-04	0	44	0	693108736	22	4667
2026-01-19 01:46:39.69	289.80	34.37	-31.5	-33.8	11.5	3.97e-04	0	44	0	695205888	23	4740
2026-01-19 01:46:40.70	289.42	34.31	-31.2	-33.1	11.9	3.69e-03	0	44	0	696254464	23	4469
2026-01-19 01:46:41.70	289.04	34.24	-31.1	-33.2	12.3	2.61e-03	0	44	0	698351616	22	4590
2026-01-19 01:46:42.70	288.67	34.18	-31.1	-33.0	12.4	2.44e-04	0	44	0	700448768	22	4518
2026-01-19 01:46:43.71	288.30	34.11	-30.9	-32.6	12.8	7.62e-05	0	44	0	702545920	22	4361
2026-01-19 01:46:44.71	287.93	34.04	-30.5	-32.0	13.4	2.40e-03	0	44	0	703594496	21	4273
2026-01-19 01:46:45.71	287.56	33.98	-30.3	-31.6	13.6	7.60e-06	0	44	0	705691648	21	4153
2026-01-19 01:46:46.71	287.19	33.91	-30.3	-32.1	13.6	9.10e-06	0	44	0	707788800	20	4396
2026-01-19 01:46:47.70	286.83	33.83	-31.0	-33.3	12.5	2.51e-05	0	44	0	709885952	21	4738
2026-01-19 01:46:48.71	286.46	33.76	-31.4	-34.2	11.6	1.63e-04	0	44	0	711983104	22	4958
2026-01-19 01:46:49.71	286.10	33.69	-31.8	-35.0	10.6	1.91e-03	0	44	0	713031680	23	5206
2026-01-19 01:46:50.72	285.74	33.61	-31.9	-34.9	10.4	4.82e-03	0	44	0	715128832	24	5085
2026-01-19 01:46:51.72	285.38	33.54	-31.6	-33.8	11.1	3.39e-03	0	44	0	717225984	24	4616
2026-01-19 01:46:52.73	285.02	33.46	-31.1	-32.6	12.3	4.29e-04	0	44	0	719323136	23	4292
2026-01-19 01:46:53.73	284.66	33.38	-30.7	-32.4	13.1	6.02e-05	0	44	0	721420288	21	4407
2026-01-19 01:46:54.73	284.31	33.30	-30.7	-32.6	13.1	2.21e-05	0	44	0	722468864	21	4457
2026-01-19 01:46:55.74	283.96	33.22	-30.7	-32.4	13.2	2.36e-05	0	44	0	724566016	21	4412
2026-01-19 01:46:56.74	283.61	33.14	-31.0	-33.0	12.5	7.93e-05	0	44	0	726663168	22	4504
2026-01-19 01:46:57.75	283.25	33.06	-31.2	-33.6	12.1	2.01e-04	0	44	0	728760320	22	4704
2026-01-19 01:46:58.75	282.91	32.98	-31.3	-33.8	11.4	5.65e-04	0	44	0	730857472	23	4776
2026-01-19 01:46:59.75	282.56	32.89	-31.9	-35.2	10.5	1.81e-03	0	44	0	731906048	23	5264
2026-01-19 01:47:00.74	282.22	32.81	-32.1	-35.3	9.9	6.13e-03	0	44	0	734003200	24	5224
2026-01-19 01:47:01.75	281.88	32.72	-32.3	-36.3	9.2	1.80e-02	0	44	0	736100352	24	5668
2026-01-19 01:47:02.76	281.54	32.63	-32.4	-36.1	9.0	3.39e-02	0	44	0	738197504	25	5509
2026-01-19 01:47:03.76	281.20	32.55	-32.2	-35.4	9.5	2.26e-02	0	44	0	740294656	25	5203
2026-01-19 01:47:04.75	280.87	32.46	-32.3	-36.0	9.5	1.53e-02	0	44	0	741343232	24	5535
2026-01-19 01:47:05.76	280.53	32.37	-32.2	-35.6	9.8	1.07e-02	0	44	0	743440384	24	5369
2026-01-19 01:47:06.77	280.20	32.28	-32.1	-35.3	10.1	6.55e-03	0	44	0	745537536	24	5205
2026-01-19 01:47:07.77	279.87	32.19	-32.0	-35.1	10.2	1.01e-02	0	44	0	747634688	24	5152
2026-01-19 01:47:08.77	279.54	32.10	-31.4	-34.5	10.3	9.39e-03	0	44	0	749731840	24	5124
2026-01-19 01:47:09.78	279.21	32.00	-31.9	-35.3	10.2	8.31e-03	0	44	0	750780416	23	5350
2026-01-19 01:47:10.78	278.88	31.91	-31.6	-34.2	10.8	3.19e-03	0	44	0	752877568	23	4869
2026-01-19 01:47:11.79	278.56	31.81	-30.9	-32.6	12.5	6.35e-04	0	44	0	754974720	22	4378
2026-01-19 01:47:12.79	278.24	31.72	-30.8	-33.0	11.7	7.32e-05	0	44	0	757071872	21	4595
2026-01-19 01:47:13.80	277.92	31.62	-30.8	-32.8	12.5	8.08e-05	0	44	0	759169024	21	4538
2026-01-19 01:47:14.80	277.60	31.53	-30.8	-33.0	12.7	6.86e-05	0	44	0	760217600	21	4609
2026-01-19 01:47:15.80	277.29	31.43	-30.8	-32.8	12.8	4.89e-04	0	44	0	762314752	21	4559
2026-01-19 01:47:16.81	276.97	31.33	-30.5	-32.1	13.3	2.59e-05	0	44	0	764411904	21	4312
2026-01-19 01:47:17.81	276.66	31.23	-30.6	-32.3	13.2	3.73e-05	0	44	0	766509056	21	4380
2026-01-19 01:47:18.81	276.35	31.14	-30.7	-32.6	13.0	3.50e-05	0	44	0	767557632	21	4485
2026-01-19 01:47:19.81	276.04	31.04	-31.2	-33.4	12.0	3.43e-04	0	44	0	769654784	22	4668
2026-01-19 01:47:20.82	275.73	30.94	-31.8	-34.8	10.7	1.49e-03	0	44	0	771751936	23	5110
2026-01-19 01:47:21.82	275.43	30.84	-32.2	-35.8	9.6	6.86e-03	0	44	0	773849088	24	5446
2026-01-19 01:47:22.82	275.13	30.73	-32.2	-35.6	9.7	1.19e-02	0	44	0	775946240	24	5382
2026-01-19 01:47:23.82	274.83	30.63	-32.0	-35.1	10.1	8.30e-03	0	44	0	776994816	24	5140
2026-01-19 01:47:24.83	274.53	30.53	-31.6	-34.2	11.1	3.60e-03	0	44	0	779091968	23	4861
2026-01-19 01:47:25.83	274.23	30.43	-31.5	-34.3	11.5	3.53e-03	0	44	0	781189120	22	4976
2026-01-19 01:47:26.83	273.94	30.32	-31.0	-32.4	12.4	3.44e-04	0	44	0	783286272	23	4216
2026-01-19 01:47:27.84	273.64	30.22	-31.0	-32.9	12.5	1.98e-04	0	44	0	785383424	22	4496
2026-01-19 01:47:28.85	273.35	30.12	-31.6	-34.2	11.2	3.97e-04	0	44	0	786432000	23	4875
2026-01-19 01:47:29.85	273.06	30.01	-32.1	-35.3	10.0	5.20e-03	0	44	0	788529152	24	5253
2026-01-19 01:47:30.85	272.77	29.91	-32.4	-36.8	8.8	1.50e-02	0	44	0	790626304	24	5924
2026-01-19 01:47:31.85	272.49	29.80	-32.5	-36.6	8.5	4.99e-02	0	44	0	792723456	25	5754
2026-01-19 01:47:32.85	272.21	29.70	-32.2	-35.5	9.5	1.94e-02	0	44	0	794820608	25	5216
2026-01-19 01:47:33.86	271.92	29.59	-32.1	-35.4	9.8	1.46e-02	0	44	0	795869184	24	5261
2026-01-19 01:47:34.86	271.64	29.48	-32.0	-35.0	10.2	5.58e-03	0	44	0	797966336	24	5085
2026-01-19 01:47:35.86	271.37	29.38	-31.9	-34.8	10.4	4.46e-03	0	44	0	800063488	24	5005
2026-01-19 01:47:36.87	271.09	29.27	-31.9	-35.3	10.4	7.10e-03	0	44	0	802160640	23	5281
2026-01-19 01:47:37.87	270.82	29.16	-31.9	-35.1	10.6	5.72e-03	0	44	0	804257792	23	5198
2026-01-19 01:47:38.87	270.54	29.05	-31.9	-35.2	10.5	3.04e-03	0	44	0	805306368	23	5252
2026-01-19 01:47:39.86	270.28	28.95	-32.0	-34.9	10.2	8.35e-03	0	44	0	807403520	24	5078
2026-01-19 01:47:40.87	270.01	28.84	-32.2	-35.6	9.8	1.14e-02	0	44	0	809500672	24	5358
2026-01-19 01:47:41.88	269.74	28.73	-32.2	-35.6	9.7	7.71e-03	0	44	0	811597824	24	5364
2026-01-19 01:47:42.88	269.47	28.62	-31.8	-34.9	10.6	6.41e-03	0	44	0	813694976	23	5130
2026-01-19 01:47:43.88	269.21	28.51	-31.5	-33.8	11.5	3.23e-03	0	44	0	814743552	23	4704
2026-01-19 01:47:44.89	268.95	28.40	-31.0	-32.4	12.4	3.27e-04	0	44	0	816840704	23	4204
2026-01-19 01:47:45.89	268.69	28.29	-30.8	-32.3	12.9	8.31e-05	0	44	0	818937856	22	4264
2026-01-19 01:47:46.89	268.43	28.18	-30.8	-32.9	12.7	1.89e-03	0	44	0	821035008	21	4563
2026-01-19 01:47:47.90	268.17	28.07	-30.9	-33.1	12.6	4.88e-05	0	44	0	822083584	21	4641
2026-01-19 01:47:48.90	267.92	27.96	-31.0	-32.9	12.5	6.72e-04	0	44	0	824180736	22	4485
2026-01-19 01:47:49.90	267.67	27.85	-31.2	-33.5	12.1	3.73e-04	0	44	0	826277888	22	4668
2026-01-19 01:47:50.90	267.42	27.74	-31.3	-33.8	11.8	4.23e-04	0	44	0	828375040	22	4786
2026-01-19 01:47:51.91	267.17	27.62	-31.4	-33.6	11.7	6.69e-04	0	44	0	830472192	23	4627
2026-01-19 01:47:52.91	266.92	27.51	-31.6	-34.1	11.3	6.98e-04	0	44	0	831520768	23	4810
2026-01-19 01:47:53.91	266.68	27.40	-31.2	-33.0	12.0	4.33e-04	0	44	0	833617920	23	4413
2026-01-19 01:47:54.92	266.43	27.29	-31.2	-33.4	12.1	1.09e-03	0	44	0	835715072	22	4635
2026-01-19 01:47:55.92	266.19	27.18	-30.6	-32.3	13.1	8.15e-04	0	44	0	837812224	21	4351
2026-01-19 01:47:56.93	265.95	27.07	-30.4	-31.7	13.5	8.30e-06	0	44	0	839909376	21	4167
2026-01-19 01:47:57.93	265.71	26.95	-30.3	-31.4	13.7	3.10e-04	0	44	0	840957952	21	4086
2026-01-19 01:47:58.93	265.47	26.84	-30.6	-32.2	13.2	6.18e-04	0	44	0	843055104	21	4334
2026-01-19 01:47:59.93	265.24	26.73	-30.6	-32.2	13.2	7.55e-05	0	44	0	845152256	21	4331
2026-01-19 01:48:00.91	265.01	26.62	-30.8	-32.8	12.8	2.99e-03	0	44	0	847249408	21	4523
2026-01-19 01:48:01.91	264.78	26.51	-30.7	-32.4	13.0	3.39e-03	0	44	0	849346560	21	4387
2026-01-19 01:48:02.92	264.54	26.40	-30.4	-31.7	13.5	8.69e-05	0	44	0	850395136	21	4174
2026-01-19 01:48:03.93	264.31	26.28	-30.2	-31.7	13.8	3.89e-03	0	44	0	852492288	20	4263
2026-01-19 01:48:04.92	264.09	26.17	-29.8	-30.6	14.4	4.62e-03	0	44	0	854589440	20	3960
2026-01-19 01:48:05.92	263.86	26.06	-29.6	-30.2	14.7	7.60e-06	0	44	0	856686592	20	3840
2026-01-19 01:48:06.92	263.64	25.95	-29.8	-31.0	14.7	0.00e+00	0	44	0	858783744	19	4133
2026-01-19 01:48:07.92	263.42	25.84	-29.5	-30.4	15.0	3.60e-03	0	44	0	859832320	19	3982
2026-01-19 01:48:08.93	263.20	25.72	-29.7	-30.7	14.8	0.00e+00	0	44	0	861929472	19	4076
2026-01-19 01:48:09.93	262.98	25.61	-29.8	-31.0	14.6	2.25e-03	0	44	0	864026624	19	4149
2026-01-19 01:48:10.94	262.76	25.50	-30.0	-31.2	14.2	1.88e-03	0	44	0	866123776	20	4125
2026-01-19 01:48:11.94	262.54	25.39	-30.3	-32.0	13.6	4.50e-06	0	44	0	867172352	20	4362
2026-01-19 01:48:12.95	262.33	25.27	-30.3	-31.9	13.7	1.79e-03	0	44	0	869269504	20	4337
2026-01-19 01:48:13.95	262.11	25.16	-30.6	-32.4	13.1	1.90e-05	0	44	0	871366656	21	4393
2026-01-19 01:48:14.95	261.90	25.05	-30.3	-31.4	13.7	6.80e-06	0	44	0	873463808	21	4090
2026-01-19 01:48:15.95	261.69	24.94	-29.7	-30.4	14.6	2.09e-03	0	44	0	875560960	20	3905
2026-01-19 01:48:16.95	261.49	24.83	-29.7	-30.8	14.7	2.19e-03	0	44	0	876609536	19	4087
2026-01-19 01:48:17.96	261.28	24.71	-29.6	-30.5	14.9	0.00e+00	0	44	0	878706688	19	4020
2026-01-19 01:48:18.97	261.07	24.60	-29.7	-30.9	14.7	2.22e-03	0	44	0	880803840	19	4134
2026-01-19 01:48:19.97	260.87	24.49	-29.7	-30.9	14.7	1.99e-03	0	44	0	882900992	19	4112
2026-01-19 01:48:20.97	260.66	24.38	-29.8	-31.2	14.4	1.50e-06	0	44	0	884998144	19	4223
2026-01-19 01:48:21.98	260.46	24.27	-29.8	-31.2	14.5	2.02e-03	0	44	0	886046720	19	4197
2026-01-19 01:48:22.99	260.26	24.15	-29.7	-30.9	14.6	2.44e-03	0	44	0	888143872	19	4143
2026-01-19 01:48:23.99	260.06	24.04	-29.4	-30.2	15.0	0.00e+00	0	44	0	890241024	19	3938
2026-01-19 01:48:24.99	259.87	23.93	-29.5	-30.5	14.9	0.00e+00	0	44	0	892338176	19	4013
2026-01-19 01:48:25.99	259.67	23.82	-29.6	-30.7	14.7	2.91e-03	0	44	0	894435328	19	4088
2026-01-19 01:48:26.99	259.48	23.71	-29.5	-30.4	14.9	2.02e-04	0	44	0	895483904	19	3988
2026-01-19 01:48:28.00	259.28	23.60	-29.5	-30.4	14.9	0.00e+00	0	44	0	897581056	19	3976
2026-01-19 01:48:29.00	259.09	23.49	-29.3	-30.0	15.2	2.91e-03	0	44	0	899678208	19	3875
2026-01-19 01:48:30.00	258.90	23.38	-29.2	-30.2	15.3	2.15e-04	0	44	0	901775360	18	4027
2026-01-19 01:48:31.00	258.72	23.27	-29.3	-30.4	15.2	0.00e+00	0	44	0	903872512	18	4073
2026-01-19 01:48:32.00	258.53	23.16	-29.5	-30.3	15.0	0.00e+00	0	44	0	904921088	19	3950
2026-01-19 01:48:33.01	258.34	23.05	-29.4	-30.2	15.0	0.00e+00	0	44	0	907018240	19	3922
2026-01-19 01:48:34.01	258.16	22.94	-29.7	-30.8	14.7	1.87e-03	0	44	0	909115392	19	4087
2026-01-19 01:48:35.02	257.97	22.83	-29.7	-30.9	14.6	1.50e-06	0	44	0	911212544	19	4126
2026-01-19 01:48:36.02	257.79	22.72	-29.8	-31.2	14.4	1.50e-06	0	44	0	913309696	19	4220
2026-01-19 01:48:37.02	257.61	22.61	-29.8	-31.1	14.5	2.57e-03	0	44	0	914358272	19	4193
2026-01-19 01:48:38.02	257.43	22.50	-29.8	-31.1	14.5	7.00e-07	0	44	0	916455424	19	4176
2026-01-19 01:48:39.03	257.25	22.39	-29.8	-31.2	14.4	1.50e-06	0	44	0	918552576	19	4222
2026-01-19 01:48:40.03	257.08	22.28	-29.8	-31.1	14.4	3.22e-03	0	44	0	920649728	19	4206
2026-01-19 01:48:41.03	256.90	22.17	-30.0	-31.2	14.1	0.00e+00	0	44	0	922746880	20	4130
2026-01-19 01:48:42.04	256.72	22.06	-30.1	-31.5	13.8	3.80e-06	0	44	0	923795456	20	4216
2026-01-19 01:48:43.04	256.55	21.95	-30.5	-32.0	13.2	1.67e-05	0	44	0	925892608	21	4297
2026-01-19 01:48:44.05	256.38	21.84	-30.3	-32.1	13.4	3.83e-03	0	44	0	927989760	20	4423
2026-01-19 01:48:45.05	256.21	21.73	-30.6	-32.3	13.0	2.51e-05	0	44	0	930086912	21	4384
2026-01-19 01:48:46.06	256.04	21.63	-30.7	-32.6	12.8	7.17e-05	0	44	0	931135488	21	4497
2026-01-19 01:48:47.06	255.87	21.52	-30.4	-31.7	13.3	1.07e-03	0	44	0	933232640	21	4214
2026-01-19 01:48:48.07	255.70	21.41	-30.2	-31.3	13.6	1.22e-05	0	44	0	935329792	21	4084
2026-01-19 01:48:49.07	255.54	21.30	-30.3	-31.9	13.5	8.30e-06	0	44	0	937426944	20	4364
2026-01-19 01:48:50.07	255.37	21.19	-30.3	-32.1	13.3	1.14e-05	0	44	0	939524096	20	4410
2026-01-19 01:48:51.07	255.21	21.09	-30.5	-32.1	13.0	2.21e-05	0	44	0	941621248	21	4344
2026-01-19 01:48:52.07	255.05	20.98	-30.7	-32.7	12.6	7.70e-05	0	44	0	942669824	21	4516
2026-01-19 01:48:53.07	254.88	20.87	-30.8	-33.0	12.5	1.15e-04	0	44	0	944766976	21	4639
2026-01-19 01:48:54.08	254.72	20.77	-30.8	-33.0	12.4	9.76e-05	0	44	0	946864128	21	4648
2026-01-19 01:48:55.08	254.56	20.66	-30.8	-33.1	12.4	1.50e-04	0	44	0	948961280	21	4680
2026-01-19 01:48:56.07	254.41	20.56	-30.9	-33.3	12.2	1.56e-04	0	44	0	950009856	21	4737
2026-01-19 01:48:57.08	254.25	20.45	-30.6	-32.4	12.8	8.46e-05	0	44	0	952107008	21	4440
2026-01-19 01:48:58.08	254.09	20.34	-30.5	-32.2	13.0	4.34e-05	0	44	0	954204160	21	4379
2026-01-19 01:48:59.08	253.94	20.24	-30.5	-32.3	12.9	6.33e-05	0	44	0	956301312	21	4392
2026-01-19 01:49:00.09	253.79	20.13	-30.5	-32.1	13.0	4.19e-05	0	44	0	958398464	21	4320
2026-01-19 01:49:01.09	253.63	20.03	-30.6	-32.5	12.7	6.86e-05	0	44	0	959447040	21	4452
2026-01-19 01:49:02.09	253.48	19.92	-30.6	-32.5	12.7	5.34e-05	0	44	0	961544192	21	4463
2026-01-19 01:49:03.10	253.33	19.82	-30.7	-32.8	12.5	1.01e-04	0	44	0	963641344	21	4569
2026-01-19 01:49:04.10	253.18	19.72	-30.3	-31.6	13.3	7.70e-05	0	44	0	965738496	21	4173
2026-01-19 01:49:05.10	253.03	19.61	-30.4	-32.3	13.2	2.74e-05	0	44	0	967835648	20	4488
2026-01-19 01:49:06.10	252.89	19.51	-30.2	-31.9	13.4	1.98e-05	0	44	0	968884224	20	4366
2026-01-19 01:49:07.10	252.74	19.40	-30.2	-31.8	13.5	9.90e-06	0	44	0	970981376	20	4332
2026-01-19 01:49:08.11	252.59	19.30	-30.3	-32.0	13.4	1.29e-05	0	44	0	973078528	20	4380
2026-01-19 01:49:09.12	252.45	19.20	-30.0	-31.3	13.8	4.50e-06	0	44	0	975175680	20	4179
2026-01-19 01:49:10.12	252.30	19.09	-30.0	-31.3	13.7	9.10e-06	0	44	0	977272832	20	4190
2026-01-19 01:49:11.12	252.16	18.99	-30.1	-31.5	13.6	1.74e-03	0	44	0	978321408	20	4237
2026-01-19 01:49:12.13	252.02	18.89	-30.2	-31.9	13.4	6.80e-06	0	44	0	980418560	20	4369
2026-01-19 01:49:13.13	251.88	18.79	-30.2	-31.8	13.4	4.50e-06	0	44	0	982515712	20	4347
2026-01-19 01:49:14.13	251.74	18.68	-30.4	-32.5	13.0	9.90e-06	0	44	0	984612864	20	4548
2026-01-19 01:49:15.13	251.60	18.58	-30.2	-31.9	13.3	9.30e-04	0	44	0	986710016	20	4366
2026-01-19 01:49:16.13	251.47	18.48	-30.1	-31.7	13.5	1.14e-05	0	44	0	987758592	20	4286
2026-01-19 01:49:17.14	251.33	18.38	-30.2	-31.9	13.4	1.29e-05	0	44	0	989855744	20	4367
2026-01-19 01:49:18.13	251.19	18.28	-30.3	-32.1	13.2	3.36e-03	0	44	0	991952896	20	4429
2026-01-19 01:49:19.14	251.06	18.18	-30.4	-32.4	13.0	3.58e-05	0	44	0	994050048	20	4535
2026-01-19 01:49:20.15	250.92	18.08	-30.1	-31.4	13.7	7.60e-06	0	44	0	995098624	20	4219
2026-01-19 01:49:21.14	250.79	17.98	-30.1	-31.7	13.5	6.80e-06	0	44	0	997195776	20	4288
2026-01-19 01:49:22.15	250.66	17.88	-30.2	-31.8	13.4	2.61e-03	0	44	0	999292928	20	4328
2026-01-19 01:49:23.15	250.53	17.78	-29.9	-31.1	13.8	3.80e-06	0	44	0	1001390080	20	4123
2026-01-19 01:49:24.15	250.40	17.68	-28.8	-30.1	14.2	1.50e-06	0	44	0	1003487232	19	4227
2026-01-19 01:49:25.16	250.27	17.58	-29.8	-31.3	14.1	2.94e-03	0	44	0	1004535808	19	4280
2026-01-19 01:49:26.16	250.14	17.48	-29.9	-31.5	14.0	2.20e-06	0	44	0	1006632960	19	4326
2026-01-19 01:49:27.17	250.01	17.38	-29.9	-31.4	13.9	4.50e-06	0	44	0	1008730112	19	4318
2026-01-19 01:49:28.17	249.88	17.28	-30.1	-31.6	13.5	3.49e-03	0	44	0	1010827264	20	4262
2026-01-19 01:49:29.17	249.76	17.19	-30.3	-32.1	13.2	1.49e-03	0	44	0	1012924416	20	4450
2026-01-19 01:49:30.18	249.63	17.09	-30.5	-32.1	12.8	3.28e-05	0	44	0	1013972992	21	4357
2026-01-19 01:49:31.17	249.51	16.99	-30.6	-32.6	12.5	9.23e-05	0	44	0	1016070144	21	4536
2026-01-19 01:49:32.18	249.38	16.89	-30.9	-33.5	11.9	2.48e-03	0	44	0	1018167296	21	4826
2026-01-19 01:49:33.18	249.26	16.79	-31.2	-33.9	11.2	4.78e-03	0	44	0	1020264448	22	4913
2026-01-19 01:49:34.18	249.14	16.70	-31.5	-34.4	10.5	1.83e-03	0	44	0	1022361600	23	5020
2026-01-19 01:49:35.19	249.02	16.60	-31.6	-34.5	10.5	6.01e-03	0	44	0	1023410176	23	5052
2026-01-19 01:49:36.19	248.90	16.50	-31.6	-34.5	10.5	8.86e-03	0	44	0	1025507328	23	5033
2026-01-19 01:49:37.19	248.78	16.41	-31.3	-34.1	11.2	2.75e-03	0	44	0	1027604480	22	4935
2026-01-19 01:49:38.20	248.66	16.31	-31.2	-33.6	11.6	9.10e-04	0	44	0	1029701632	22	4739
2026-01-19 01:49:39.20	248.54	16.22	-30.7	-32.8	12.4	3.95e-03	0	44	0	1031798784	21	4567
2026-01-19 01:49:40.20	248.42	16.12	-30.6	-32.4	12.7	2.75e-03	0	44	0	1032847360	21	4446
2026-01-19 01:49:41.20	248.30	16.03	-30.5	-32.2	12.8	7.24e-05	0	44	0	1034944512	21	4376
2026-01-19 01:49:42.21	248.19	15.93	-30.6	-32.4	12.7	3.12e-03	0	44	0	1037041664	21	4437
2026-01-19 01:49:43.21	248.07	15.84	-30.8	-33.0	12.3	2.98e-03	0	44	0	1039138816	21	4622
2026-01-19 01:49:44.21	247.96	15.74	-30.8	-32.9	12.3	1.52e-04	0	44	0	1040187392	21	4618
2026-01-19 01:49:45.22	247.84	15.65	-30.9	-33.3	12.0	2.72e-04	0	44	0	1042284544	21	4745
2026-01-19 01:49:46.22	247.73	15.55	-31.1	-33.5	11.6	3.86e-03	0	44	0	1044381696	22	4708
2026-01-19 01:49:47.22	247.62	15.46	-31.2	-33.7	11.4	1.30e-03	0	44	0	1046478848	22	4805
2026-01-19 01:49:48.22	247.51	15.37	-31.4	-34.5	10.8	1.47e-03	0	44	0	1048576000	22	5118
2026-01-19 01:49:49.23	247.40	15.27	-31.6	-34.5	10.5	7.30e-03	0	44	0	1049624576	23	5046
2026-01-19 01:49:50.23	247.29	15.18	-31.8	-35.4	9.8	9.50e-03	0	44	0	1051721728	23	5408
2026-01-19 01:49:51.23	247.18	15.09	-31.7	-34.9	10.1	1.30e-02	0	44	0	1053818880	23	5215
2026-01-19 01:49:52.23	247.07	14.99	-31.5	-34.1	10.6	8.18e-03	0	44	0	1055916032	23	4894
2026-01-19 01:49:53.24	246.96	14.90	-31.4	-34.3	10.9	3.02e-03	0	44	0	1058013184	22	5035
2026-01-19 01:49:54.24	246.85	14.81	-31.2	-33.9	11.2	4.60e-03	0	44	0	1059061760	22	4892
2026-01-19 01:49:55.24	246.75	14.72	-31.3	-33.9	11.2	1.28e-03	0	44	0	1061158912	22	4891
2026-01-19 01:49:56.23	246.64	14.63	-31.3	-34.0	11.1	2.66e-03	0	44	0	1063256064	22	4918
2026-01-19 01:49:57.24	246.54	14.54	-31.1	-33.4	11.5	4.02e-03	0	44	0	1065353216	22	4697
2026-01-19 01:49:58.25	246.43	14.44	-31.1	-33.6	11.4	3.86e-03	0	44	0	1067450368	22	4772
2026-01-19 01:49:59.26	246.33	14.35	-31.1	-33.6	11.4	2.42e-03	0	44	0	1068498944	22	4762
2026-01-19 01:50:00.26	246.22	14.26	-31.1	-33.6	11.3	3.79e-03	0	44	0	1070596096	22	4775
2026-01-19 01:50:01.25	246.12	14.17	-31.2	-33.8	11.2	4.24e-03	0	44	0	1072693248	22	4875
2026-01-19 01:50:02.26	246.02	14.08	-31.1	-33.4	11.6	1.35e-03	0	44	0	1074790400	22	4691
2026-01-19 01:50:03.26	245.92	13.99	-31.2	-33.7	11.3	3.97e-03	0	44	0	1076887552	22	4811
2026-01-19 01:50:04.27	245.82	13.90	-31.1	-33.6	11.3	3.78e-03	0	44	0	1077936128	22	4782
2026-01-19 01:50:05.27	245.72	13.81	-31.2	-33.7	11.3	1.11e-03	0	44	0	1080033280	22	4817
2026-01-19 01:50:06.27	245.62	13.72	-31.0	-33.3	11.5	3.50e-03	0	44	0	1082130432	22	4685
2026-01-19 01:50:07.28	245.52	13.64	-30.9	-33.0	11.8	3.39e-03	0	44	0	1084227584	22	4551
2026-01-19 01:50:08.28	245.42	13.55	-31.0	-33.3	11.6	8.48e-04	0	44	0	1086324736	22	4661
2026-01-19 01:50:09.28	245.32	13.46	-31.3	-34.2	10.9	1.96e-03	0	44	0	1087373312	22	4998
2026-01-19 01:50:10.28	245.22	13.37	-31.1	-33.6	11.3	5.40e-03	0	44	0	1089470464	22	4770
2026-01-19 01:50:11.28	245.13	13.28	-31.4	-34.3	10.7	3.09e-03	0	44	0	1091567616	22	5067
2026-01-19 01:50:12.28	245.03	13.20	-31.3	-34.2	10.8	6.16e-03	0	44	0	1093664768	22	5018
2026-01-19 01:50:13.28	244.94	13.11	-31.3	-34.2	10.8	5.55e-03	0	44	0	1094713344	22	5024
2026-01-19 01:50:14.28	244.84	13.02	-31.3	-34.2	10.8	4.49e-03	0	44	0	1096810496	22	5013
2026-01-19 01:50:15.29	244.75	12.93	-31.4	-34.5	10.6	6.47e-03	0	44	0	1098907648	22	5141
2026-01-19 01:50:16.30	244.65	12.85	-31.4	-34.4	10.7	3.05e-03	0	44	0	1101004800	22	5124
2026-01-19 01:50:17.30	244.56	12.76	-31.3	-34.1	10.9	4.22e-03	0	44	0	1103101952	22	4980
2026-01-19 01:50:18.30	244.47	12.67	-31.3	-34.4	10.7	6.45e-03	0	44	0	1104150528	22	5097
2026-01-19 01:50:19.30	244.38	12.59	-31.1	-33.6	11.2	1.90e-03	0	44	0	1106247680	22	4804
2026-01-19 01:50:20.31	244.28	12.50	-30.7	-33.0	12.0	4.91e-04	0	44	0	1108344832	21	4671
2026-01-19 01:50:21.31	244.19	12.42	-30.6	-32.5	12.3	3.12e-03	0	44	0	1110441984	21	4497
2026-01-19 01:50:22.31	244.10	12.33	-30.4	-32.4	12.6	2.54e-03	0	44	0	1112539136	20	4572
2026-01-19 01:50:23.31	244.01	12.25	-30.4	-32.6	12.6	7.78e-05	0	44	0	1113587712	20	4616
2026-01-19 01:50:24.31	243.92	12.16	-30.4	-32.5	12.6	2.27e-03	0	44	0	1115684864	20	4603
2026-01-19 01:50:25.31	243.83	12.08	-30.4	-32.6	12.5	1.25e-03	0	44	0	1117782016	20	4636
2026-01-19 01:50:26.31	243.75	11.99	-30.4	-32.2	12.5	1.11e-04	0	44	0	1119879168	21	4396
2026-01-19 01:50:27.32	243.66	11.91	-30.4	-32.6	12.6	4.39e-04	0	44	0	1121976320	20	4626
2026-01-19 01:50:28.31	243.57	11.83	-30.6	-32.6	12.3	2.54e-03	0	44	0	1123024896	21	4519
2026-01-19 01:50:29.31	243.49	11.74	-30.7	-33.1	11.9	2.92e-04	0	44	0	1125122048	21	4705
2026-01-19 01:50:30.32	243.40	11.66	-30.9	-33.5	11.5	9.42e-04	0	44	0	1127219200	21	4891
2026-01-19 01:50:31.33	243.31	11.57	-31.1	-33.6	11.2	1.54e-03	0	44	0	1129316352	22	4806
2026-01-19 01:50:32.33	243.23	11.49	-31.3	-34.4	10.6	2.78e-03	0	44	0	1131413504	22	5141
2026-01-19 01:50:33.33	243.14	11.41	-31.4	-34.7	10.3	4.53e-03	0	44	0	1132462080	22	5266
2026-01-19 01:50:34.34	243.06	11.32	-31.6	-34.7	9.9	7.45e-03	0	44	0	1134559232	23	5178
2026-01-19 01:50:35.34	242.97	11.24	-31.6	-35.0	9.7	1.26e-02	0	44	0	1136656384	23	5291
2026-01-19 01:50:36.34	242.89	11.16	-31.7	-35.3	9.5	1.42e-02	0	44	0	1138753536	23	5447
2026-01-19 01:50:37.34	242.81	11.08	-31.7	-35.4	9.4	1.92e-02	0	44	0	1139802112	23	5488
2026-01-19 01:50:38.34	242.73	11.00	-31.8	-35.7	9.1	1.97e-02	0	44	0	1141899264	23	5627
2026-01-19 01:50:39.34	242.64	10.92	-31.8	-35.8	9.1	2.44e-02	0	44	0	1143996416	23	5659
2026-01-19 01:50:40.34	242.56	10.83	-31.8	-35.5	9.2	1.86e-02	0	44	0	1146093568	23	5554
2026-01-19 01:50:41.34	242.48	10.75	-31.7	-35.2	9.5	1.75e-02	0	44	0	1148190720	23	5398
2026-01-19 01:50:42.34	242.40	10.67	-31.5	-34.8	9.8	1.55e-02	0	44	0	1149239296	23	5218
2026-01-19 01:50:43.34	242.32	10.59	-31.5	-34.8	9.8	1.13e-02	0	44	0	1151336448	23	5209
2026-01-19 01:50:44.35	242.24	10.51	-31.5	-34.7	9.8	9.53e-03	0	44	0	1153433600	23	5209
2026-01-19 01:50:45.35	242.16	10.43	-31.5	-34.6	9.8	1.05e-02	0	44	0	1155530752	23	5171
2026-01-19 01:50:46.36	242.08	10.35	-31.6	-35.1	9.5	1.18e-02	0	44	0	1157627904	23	5380
2026-01-19 01:50:47.36	242.01	10.27	-31.6	-35.0	9.6	1.39e-02	0	44	0	1158676480	23	5344
2026-01-19 01:50:48.36	241.93	10.19	-31.3	-34.6	10.3	7.46e-03	0	44	0	1160773632	22	5239
2026-01-19 01:50:49.37	241.85	10.11	-31.2	-34.2	10.6	4.95e-03	0	44	0	1162870784	22	5073
2026-01-19 01:50:50.37	241.77	10.03	-31.1	-33.8	10.8	2.98e-03	0	44	0	1164967936	22	4910
2026-01-19 01:50:51.37	241.70	9.95	-31.0	-33.6	11.0	2.26e-03	0	44	0	1167065088	22	4845
2026-01-19 01:50:52.38	241.62	9.87	-31.0	-33.6	10.9	1.97e-03	0	44	0	1168113664	22	4846
2026-01-19 01:50:53.38	241.55	9.79	-31.0	-33.6	11.0	1.89e-03	0	44	0	1170210816	22	4834
2026-01-19 01:50:54.38	241.47	9.72	-31.0	-33.5	11.0	2.51e-03	0	44	0	1172307968	22	4787
2026-01-19 01:50:55.38	241.40	9.64	-31.0	-34.0	11.0	1.90e-03	0	44	0	1174405120	21	5074
2026-01-19 01:50:56.39	241.32	9.56	-31.1	-33.7	10.9	2.53e-03	0	44	0	1176502272	22	4872
2026-01-19 01:50:57.39	241.25	9.48	-31.1	-33.7	10.8	2.74e-03	0	44	0	1177550848	22	4890
2026-01-19 01:50:58.39	241.17	9.40	-30.9	-33.3	11.1	2.48e-03	0	44	0	1179648000	22	4729
2026-01-19 01:50:59.39	241.10	9.33	-30.8	-33.0	11.4	9.32e-04	0	44	0	1181745152	22	4601
2026-01-19 01:51:00.39	241.03	9.25	-30.9	-33.6	11.2	1.50e-03	0	44	0	1183842304	21	4947
2026-01-19 01:51:01.40	240.96	9.17	-30.8	-33.3	11.4	1.28e-03	0	44	0	1184890880	21	4834
2026-01-19 01:51:02.40	240.88	9.09	-30.8	-33.5	11.3	1.18e-03	0	44	0	1186988032	21	4906
2026-01-19 01:51:03.41	240.81	9.02	-30.8	-33.5	11.2	1.37e-03	0	44	0	1189085184	21	4912
2026-01-19 01:51:04.41	240.74	8.94	-30.9	-33.9	11.0	1.53e-03	0	44	0	1191182336	21	5049
2026-01-19 01:51:05.42	240.67	8.86	-30.8	-33.5	11.3	1.29e-03	0	44	0	1193279488	21	4886
2026-01-19 01:51:06.42	240.60	8.79	-31.0	-33.4	11.0	1.42e-03	0	44	0	1195376640	22	4783
2026-01-19 01:51:07.42	240.53	8.71	-31.0	-33.6	10.8	2.17e-03	0	44	0	1196425216	22	4864
2026-01-19 01:51:08.42	240.46	8.64	-30.1	-32.9	10.7	2.78e-03	0	44	0	1198522368	22	4962
2026-01-19 01:51:09.42	240.39	8.56	-30.1	-33.1	10.5	3.79e-03	0	44	0	1200619520	22	5036
2026-01-19 01:51:10.43	240.32	8.48	-31.2	-34.2	10.3	4.93e-03	0	44	0	1202716672	22	5108
2026-01-19 01:51:11.42	240.25	8.41	-31.3	-34.5	9.3	6.51e-03	0	44	0	1203765248	22	5208
2026-01-19 01:51:12.42	240.19	8.34	-31.4	-34.9	9.1	7.03e-03	0	44	0	1205862400	22	5384
2026-01-19 01:51:13.42	240.12	8.26	-31.5	-34.9	9.4	1.43e-02	0	44	0	1207959552	23	5327
2026-01-19 01:51:14.42	240.05	8.19	-31.5	-34.9	9.2	1.52e-02	0	44	0	1210056704	23	5316
2026-01-19 01:51:15.43	239.98	8.11	-31.6	-35.1	9.1	1.56e-02	0	44	0	1212153856	23	5419
2026-01-19 01:51:16.43	239.92	8.04	-31.6	-35.2	9.1	2.09e-02	0	44	0	1213202432	23	5467
2026-01-19 01:51:17.44	239.85	7.96	-31.5	-35.1	9.2	2.30e-02	0	44	0	1215299584	23	5425
2026-01-19 01:51:18.45	239.78	7.89	-31.6	-35.3	9.1	1.88e-02	0	44	0	1217396736	23	5535
2026-01-19 01:51:19.45	239.72	7.81	-31.6	-35.4	9.1	2.67e-02	0	44	0	1219493888	23	5540
2026-01-19 01:51:20.45	239.65	7.74	-31.5	-35.4	9.4	1.78e-02	0	44	0	1221591040	22	5646
2026-01-19 01:51:21.45	239.59	7.67	-31.6	-35.4	9.0	2.28e-02	0	44	0	1222639616	23	5561
2026-01-19 01:51:22.45	239.52	7.59	-31.6	-35.2	9.1	2.50e-02	0	44	0	1224736768	23	5497
2026-01-19 01:51:23.46	239.46	7.52	-31.5	-35.4	9.3	1.82e-02	0	44	0	1226833920	22	5650
2026-01-19 01:51:24.46	239.39	7.45	-31.6	-35.3	9.0	2.77e-02	0	44	0	1228931072	23	5526
2026-01-19 01:51:25.46	239.33	7.38	-31.5	-35.2	9.0	3.09e-02	0	44	0	1229979648	23	5479
2026-01-19 01:51:26.46	239.27	7.30	-31.5	-35.4	9.3	2.17e-02	0	44	0	1232076800	22	5674
2026-01-19 01:51:27.47	239.20	7.23	-31.5	-35.1	9.1	1.92e-02	0	44	0	1234173952	23	5451
2026-01-19 01:51:28.46	239.14	7.16	-31.5	-35.0	9.1	2.27e-02	0	44	0	1236271104	23	5419
2026-01-19 01:51:29.47	239.08	7.09	-33.1	-44.4	3.8	2.15e-02	0	44	0	1238368256	26	13116
2026-01-19 01:51:30.47	239.02	7.01	-33.5	-45.8	3.8	1.49e+00	0	44	104	1238368256	27	14724
2026-01-19 01:51:31.47	238.96	6.94	-33.9	-46.4	3.8	1.49e+00	0	44	104	1238368256	27	15316

#Closed at: 2026-01-19 01:51:31
#Recorded file [1238 MB]: D:/data/31010_260119_044028.dat