passes_logs/2026/01/19/R2M6_AANII_01/R2M6_AANII_01__20260119_020109_NOAA_20_JPSS-1_rec.log

#Pass ID: 20260119_020109_NOAA 20 (JPSS-1)
#Satellite: NOAA 20 (JPSS-1)
#Configuration: NOAA 20
#almurnet v.1.7.20240730
#Start time: 2026-01-19 02:01:10

#Version: 2.2.20231116
#Station: R2M6_AANII_01
#Location: 30.233357 lon 59.946436 lat
#TLE: 1 43013U 17073A   26017.93796159  .00000077  00000+0  57252-4 0  9992
#TLE: 2 43013  98.7639 318.8464 0001390  34.9771 325.1496 14.19536703423157

#Time	Az	El	Level	Level2	SNR	BER	BlckErr	Temp	State	Recorded	gain1	gain2
2026-01-19 02:01:10.32	11.13	7.06	-32.6	-40.4	4.5	1.36e+00	0	42	0	0	25	8901
2026-01-19 02:01:11.32	11.05	7.12	-32.5	-39.8	4.7	1.33e+00	0	42	104	0	25	8331
2026-01-19 02:01:12.32	10.97	7.19	-32.5	-40.2	6.5	2.39e-01	0	42	0	0	24	8763
2026-01-19 02:01:13.33	10.88	7.26	-32.5	-39.9	6.3	2.56e-01	0	42	0	1048576	25	8448
2026-01-19 02:01:14.33	10.80	7.33	-32.5	-39.8	6.4	2.55e-01	0	42	0	3145728	25	8335
2026-01-19 02:01:15.33	10.72	7.39	-32.5	-39.7	6.5	2.34e-01	0	42	0	5242880	25	8229
2026-01-19 02:01:16.34	10.64	7.46	-32.5	-39.6	6.6	2.23e-01	0	42	0	7340032	25	8142
2026-01-19 02:01:17.34	10.56	7.53	-32.4	-39.8	6.8	1.83e-01	0	42	0	9437184	24	8428
2026-01-19 02:01:18.34	10.47	7.60	-32.5	-39.6	6.6	1.99e-01	0	42	0	10485760	25	8166
2026-01-19 02:01:19.34	10.39	7.67	-32.6	-40.2	6.2	2.82e-01	0	42	0	12582912	25	8606
2026-01-19 02:01:20.35	10.31	7.73	-32.4	-39.1	7.0	1.81e-01	0	42	0	14680064	25	7745
2026-01-19 02:01:21.35	10.22	7.80	-32.2	-38.6	7.8	1.08e-01	0	42	0	16777216	24	7501
2026-01-19 02:01:22.35	10.14	7.87	-32.1	-37.9	8.4	5.87e-02	0	42	0	17825792	24	7002
2026-01-19 02:01:23.35	10.05	7.94	-31.8	-37.4	9.2	2.53e-02	0	42	0	19922944	23	6792
2026-01-19 02:01:24.36	9.97	8.01	-31.7	-36.7	9.7	1.33e-02	0	42	0	22020096	23	6410
2026-01-19 02:01:25.36	9.88	8.08	-31.5	-36.1	10.2	7.46e-03	0	42	0	24117248	23	6100
2026-01-19 02:01:26.37	9.79	8.15	-31.4	-35.7	10.5	8.01e-03	0	42	0	26214400	23	5889
2026-01-19 02:01:27.37	9.71	8.22	-31.5	-36.4	10.4	4.31e-03	0	42	0	27262976	22	6337
2026-01-19 02:01:28.38	9.62	8.28	-31.5	-35.9	10.4	5.91e-03	0	42	0	29360128	23	6018
2026-01-19 02:01:29.37	9.53	8.35	-31.5	-36.1	10.3	6.38e-03	0	42	0	31457280	23	6073
2026-01-19 02:01:30.37	9.44	8.42	-31.5	-36.0	10.4	4.94e-03	0	42	0	33554432	23	6029
2026-01-19 02:01:31.38	9.36	8.49	-31.5	-36.0	10.3	4.95e-03	0	42	0	35651584	23	6039
2026-01-19 02:01:32.38	9.27	8.56	-31.5	-35.9	10.5	7.20e-03	0	42	0	36700160	23	5980
2026-01-19 02:01:33.38	9.18	8.63	-31.5	-36.0	10.4	4.36e-03	0	42	0	38797312	23	6051
2026-01-19 02:01:34.38	9.09	8.70	-31.6	-36.3	10.1	5.97e-03	0	42	0	40894464	23	6186
2026-01-19 02:01:35.38	9.00	8.77	-31.6	-36.4	10.1	7.39e-03	0	42	0	42991616	23	6222
2026-01-19 02:01:36.38	8.91	8.84	-31.6	-36.3	10.2	7.86e-03	0	42	0	45088768	23	6196
2026-01-19 02:01:37.38	8.82	8.91	-31.6	-36.3	10.2	7.19e-03	0	43	0	46137344	23	6178
2026-01-19 02:01:38.39	8.72	8.98	-31.5	-36.0	10.5	4.51e-03	0	43	0	48234496	23	6011
2026-01-19 02:01:39.39	8.63	9.05	-31.5	-35.8	10.6	6.39e-03	0	43	0	50331648	23	5951
2026-01-19 02:01:40.39	8.54	9.12	-31.6	-36.1	10.3	4.80e-03	0	43	0	52428800	23	6093
2026-01-19 02:01:41.39	8.45	9.19	-31.6	-36.3	10.2	5.88e-03	0	43	0	54525952	23	6195
2026-01-19 02:01:42.39	8.35	9.27	-31.5	-36.0	10.4	5.14e-03	0	43	0	55574528	23	6039
2026-01-19 02:01:43.39	8.26	9.34	-31.5	-35.9	10.6	4.26e-03	0	43	0	57671680	23	5950
2026-01-19 02:01:44.39	8.17	9.41	-31.5	-36.2	10.7	3.22e-03	0	42	0	59768832	22	6245
2026-01-19 02:01:45.39	8.07	9.48	-31.4	-35.7	10.7	3.41e-03	0	43	0	61865984	23	5862
2026-01-19 02:01:46.39	7.98	9.55	-31.4	-35.5	10.8	2.43e-03	0	43	0	62914560	23	5790
2026-01-19 02:01:47.39	7.88	9.62	-31.4	-36.2	10.7	2.90e-03	0	43	0	65011712	22	6214
2026-01-19 02:01:48.40	7.78	9.69	-31.5	-36.2	10.7	2.76e-03	0	43	0	67108864	22	6222
2026-01-19 02:01:49.40	7.69	9.77	-31.6	-36.1	10.4	3.28e-03	0	43	0	69206016	23	6057
2026-01-19 02:01:50.40	7.59	9.84	-31.7	-36.7	10.0	7.80e-03	0	43	0	71303168	23	6348
2026-01-19 02:01:51.40	7.49	9.91	-31.8	-37.0	9.7	1.23e-02	0	43	0	72351744	23	6520
2026-01-19 02:01:52.41	7.39	9.98	-31.6	-36.3	10.3	6.59e-03	0	43	0	74448896	23	6150
2026-01-19 02:01:53.41	7.29	10.05	-31.5	-35.8	10.7	4.38e-03	0	43	0	76546048	23	5916
2026-01-19 02:01:54.41	7.20	10.13	-31.5	-36.2	10.8	2.64e-03	0	43	0	78643200	22	6200
2026-01-19 02:01:55.42	7.09	10.20	-31.5	-36.0	10.6	3.30e-03	0	43	0	80740352	23	5987
2026-01-19 02:01:56.42	6.99	10.27	-31.5	-35.9	10.6	3.50e-03	0	43	0	81788928	23	5963
2026-01-19 02:01:57.42	6.89	10.35	-31.5	-35.8	10.8	4.49e-03	0	43	0	83886080	23	5887
2026-01-19 02:01:58.42	6.79	10.42	-31.5	-35.7	10.8	2.73e-03	0	43	0	85983232	23	5859
2026-01-19 02:01:59.42	6.69	10.49	-31.5	-35.7	10.8	2.73e-03	0	43	0	88080384	23	5870
2026-01-19 02:02:00.43	6.59	10.56	-31.5	-35.7	10.8	2.71e-03	0	43	0	90177536	23	5848
2026-01-19 02:02:01.43	6.48	10.64	-31.5	-35.7	10.8	2.45e-03	0	43	0	91226112	23	5858
2026-01-19 02:02:02.42	6.38	10.71	-31.4	-36.0	11.0	2.41e-03	0	43	0	93323264	22	6094
2026-01-19 02:02:03.43	6.28	10.78	-31.3	-35.6	11.3	1.59e-03	0	43	0	95420416	22	5911
2026-01-19 02:02:04.43	6.17	10.86	-31.2	-35.4	11.4	1.04e-03	0	43	0	97517568	22	5814
2026-01-19 02:02:05.43	6.07	10.93	-31.2	-35.4	11.4	1.01e-03	0	43	0	99614720	22	5809
2026-01-19 02:02:06.43	5.96	11.01	-31.3	-35.6	11.3	9.06e-04	0	43	0	100663296	22	5899
2026-01-19 02:02:07.43	5.86	11.08	-31.3	-35.6	11.3	1.32e-03	0	43	0	102760448	22	5886
2026-01-19 02:02:08.43	5.75	11.15	-31.2	-35.4	11.5	9.86e-04	0	43	0	104857600	22	5810
2026-01-19 02:02:09.43	5.64	11.23	-31.3	-35.6	11.3	1.41e-03	0	43	0	106954752	22	5928
2026-01-19 02:02:10.44	5.53	11.30	-30.6	-34.9	11.4	1.03e-03	0	43	0	108003328	22	5889
2026-01-19 02:02:11.45	5.42	11.38	-31.3	-35.5	10.9	8.31e-04	0	43	0	110100480	22	5856
2026-01-19 02:02:12.45	5.32	11.45	-31.3	-35.6	11.2	1.04e-03	0	43	0	112197632	22	5894
2026-01-19 02:02:13.45	5.21	11.53	-31.4	-35.8	10.7	1.18e-03	0	43	0	114294784	22	5973
2026-01-19 02:02:14.45	5.10	11.60	-31.5	-36.2	10.6	1.44e-03	0	43	0	116391936	22	6163
2026-01-19 02:02:15.45	4.99	11.68	-31.6	-35.9	10.8	2.62e-03	0	43	0	117440512	23	5913
2026-01-19 02:02:16.44	4.88	11.75	-31.6	-36.0	10.7	3.63e-03	0	43	0	119537664	23	5969
2026-01-19 02:02:17.45	4.76	11.83	-31.5	-36.1	11.0	2.48e-03	0	43	0	121634816	22	6126
2026-01-19 02:02:18.46	4.65	11.90	-31.5	-36.1	11.0	1.99e-03	0	43	0	123731968	22	6128
2026-01-19 02:02:19.45	4.54	11.98	-31.5	-35.8	10.8	1.99e-03	0	43	0	125829120	23	5900
2026-01-19 02:02:20.45	4.42	12.05	-31.7	-36.4	10.4	3.28e-03	0	43	0	126877696	23	6147
2026-01-19 02:02:21.45	4.31	12.13	-31.7	-36.4	10.4	5.30e-03	0	43	0	128974848	23	6174
2026-01-19 02:02:22.46	4.19	12.21	-31.6	-36.1	10.6	3.53e-03	0	43	0	131072000	23	6006
2026-01-19 02:02:23.46	4.08	12.28	-31.6	-35.9	10.8	3.01e-03	0	43	0	133169152	23	5915
2026-01-19 02:02:24.46	3.96	12.36	-31.5	-35.7	11.0	2.42e-03	0	43	0	135266304	23	5827
2026-01-19 02:02:25.46	3.85	12.43	-31.5	-35.7	11.0	4.74e-03	0	43	0	136314880	23	5797
2026-01-19 02:02:26.46	3.73	12.51	-31.5	-35.7	10.9	2.11e-03	0	43	0	138412032	23	5844
2026-01-19 02:02:27.46	3.61	12.59	-31.5	-35.8	10.9	2.03e-03	0	43	0	140509184	23	5881
2026-01-19 02:02:28.46	3.49	12.66	-31.6	-35.9	10.8	5.62e-03	0	43	0	142606336	23	5900
2026-01-19 02:02:29.46	3.37	12.74	-31.4	-35.8	11.2	1.73e-03	0	43	0	143654912	22	5992
2026-01-19 02:02:30.47	3.25	12.82	-31.4	-35.7	11.4	1.03e-03	0	43	0	145752064	22	5918
2026-01-19 02:02:31.47	3.13	12.89	-31.5	-36.0	11.1	1.04e-03	0	43	0	147849216	22	6074
2026-01-19 02:02:32.47	3.01	12.97	-31.5	-35.8	11.0	4.72e-03	0	43	0	149946368	23	5846
2026-01-19 02:02:33.48	2.89	13.05	-31.7	-36.4	10.4	3.99e-03	0	43	0	152043520	23	6181
2026-01-19 02:02:34.48	2.77	13.13	-31.7	-36.4	10.5	4.22e-03	0	44	0	153092096	23	6141
2026-01-19 02:02:35.49	2.64	13.21	-31.7	-36.4	10.5	6.46e-03	0	44	0	155189248	23	6173
2026-01-19 02:02:36.48	2.52	13.28	-31.8	-36.6	10.4	4.74e-03	0	43	0	157286400	23	6244
2026-01-19 02:02:37.48	2.39	13.36	-31.8	-36.8	10.2	5.28e-03	0	43	0	159383552	23	6340
2026-01-19 02:02:38.48	2.27	13.44	-31.7	-36.4	10.5	6.85e-03	0	43	0	161480704	23	6172
2026-01-19 02:02:39.49	2.14	13.52	-31.7	-36.3	10.6	3.63e-03	0	43	0	162529280	23	6082
2026-01-19 02:02:40.49	2.02	13.59	-31.7	-36.3	10.6	3.25e-03	0	43	0	164626432	23	6082
2026-01-19 02:02:41.49	1.89	13.67	-31.6	-35.9	10.9	3.76e-03	0	43	0	166723584	23	5908
2026-01-19 02:02:42.49	1.76	13.75	-31.4	-35.8	11.3	1.43e-03	0	43	0	168820736	22	5952
2026-01-19 02:02:43.50	1.63	13.83	-31.3	-35.3	11.8	3.19e-03	0	43	0	170917888	22	5716
2026-01-19 02:02:44.50	1.50	13.91	-31.3	-35.4	11.6	6.12e-04	0	44	0	171966464	22	5773
2026-01-19 02:02:45.51	1.37	13.99	-31.4	-35.7	11.4	1.10e-03	0	43	0	174063616	22	5927
2026-01-19 02:02:46.51	1.24	14.06	-31.4	-35.8	11.3	3.74e-03	0	43	0	176160768	22	5978
2026-01-19 02:02:47.51	1.11	14.14	-31.4	-35.6	11.5	3.08e-03	0	43	0	178257920	22	5871
2026-01-19 02:02:48.52	0.98	14.22	-31.3	-35.5	11.6	7.84e-04	0	43	0	180355072	22	5803
2026-01-19 02:02:49.53	0.84	14.30	-31.4	-35.9	11.3	3.38e-03	0	44	0	181403648	22	5989
2026-01-19 02:02:50.53	0.71	14.38	-31.5	-36.0	11.2	4.12e-03	0	44	0	183500800	22	6047
2026-01-19 02:02:51.53	0.57	14.46	-31.3	-35.5	11.6	8.77e-04	0	44	0	185597952	22	5832
2026-01-19 02:02:52.53	0.44	14.54	-31.3	-35.6	11.6	3.31e-03	0	43	0	187695104	22	5856
2026-01-19 02:02:53.54	0.30	14.62	-31.3	-35.3	11.7	3.37e-03	0	43	0	189792256	22	5735
2026-01-19 02:02:54.54	0.17	14.70	-31.2	-35.1	11.9	7.23e-04	0	43	0	190840832	22	5619
2026-01-19 02:02:55.54	0.03	14.78	-31.1	-34.8	12.2	2.82e-03	0	44	0	192937984	22	5501
2026-01-19 02:02:56.54	359.89	14.86	-31.0	-34.5	12.3	2.52e-03	0	44	0	195035136	22	5383
2026-01-19 02:02:57.54	359.75	14.94	-31.0	-34.5	12.3	3.78e-04	0	44	0	197132288	22	5397
2026-01-19 02:02:58.55	359.61	15.02	-31.0	-34.4	12.4	2.62e-03	0	44	0	198180864	22	5340
2026-01-19 02:02:59.55	359.47	15.10	-30.9	-34.6	12.6	2.60e-03	0	44	0	200278016	21	5516
2026-01-19 02:03:00.56	359.33	15.18	-30.9	-34.7	12.6	3.31e-04	0	44	0	202375168	21	5557
2026-01-19 02:03:01.56	359.19	15.26	-31.0	-34.5	12.4	2.75e-03	0	44	0	204472320	22	5379
2026-01-19 02:03:02.56	359.04	15.34	-31.1	-34.8	12.2	2.75e-03	0	44	0	206569472	22	5485
2026-01-19 02:03:03.56	358.90	15.42	-31.1	-34.7	12.2	4.61e-04	0	43	0	207618048	22	5456
2026-01-19 02:03:04.56	358.76	15.50	-31.0	-34.4	12.5	2.59e-03	0	44	0	209715200	22	5325
2026-01-19 02:03:05.57	358.61	15.58	-31.0	-34.5	12.4	2.40e-03	0	44	0	211812352	22	5372
2026-01-19 02:03:06.57	358.46	15.66	-31.0	-34.4	12.5	4.15e-04	0	44	0	213909504	22	5322
2026-01-19 02:03:07.57	358.32	15.74	-31.0	-34.8	12.5	2.33e-03	0	44	0	216006656	21	5608
2026-01-19 02:03:08.57	358.17	15.82	-31.0	-34.4	12.5	2.62e-03	0	44	0	217055232	22	5320
2026-01-19 02:03:09.57	358.02	15.90	-30.8	-34.0	12.8	1.33e-04	0	44	0	219152384	22	5154
2026-01-19 02:03:10.57	357.87	15.98	-30.8	-34.3	12.8	2.47e-03	0	44	0	221249536	21	5409
2026-01-19 02:03:11.58	357.72	16.06	-30.7	-34.2	13.0	2.37e-03	0	44	0	223346688	21	5351
2026-01-19 02:03:12.58	357.57	16.14	-30.7	-34.0	13.0	3.05e-05	0	44	0	225443840	21	5293
2026-01-19 02:03:13.58	357.42	16.22	-30.7	-34.1	13.0	2.34e-03	0	44	0	226492416	21	5309
2026-01-19 02:03:14.58	357.27	16.31	-30.8	-34.2	13.0	2.16e-03	0	44	0	228589568	21	5359
2026-01-19 02:03:15.59	357.11	16.39	-30.8	-34.5	12.8	3.57e-04	0	44	0	230686720	21	5456
2026-01-19 02:03:16.59	356.96	16.47	-30.9	-34.6	12.7	8.85e-05	0	44	0	232783872	21	5504
2026-01-19 02:03:17.59	356.80	16.55	-30.7	-34.2	13.0	2.40e-03	0	44	0	234881024	21	5347
2026-01-19 02:03:18.58	356.65	16.63	-30.8	-34.3	12.9	3.23e-04	0	44	0	235929600	21	5388
2026-01-19 02:03:19.59	356.49	16.71	-30.8	-34.3	12.9	5.18e-05	0	44	0	238026752	21	5415
2026-01-19 02:03:20.59	356.33	16.79	-30.8	-34.4	12.8	2.31e-03	0	44	0	240123904	21	5436
2026-01-19 02:03:21.60	356.17	16.87	-30.8	-34.4	12.9	2.87e-04	0	44	0	242221056	21	5419
2026-01-19 02:03:22.59	356.02	16.96	-30.9	-34.6	12.7	2.31e-03	0	44	0	244318208	21	5506
2026-01-19 02:03:23.59	355.86	17.04	-30.9	-34.6	12.7	6.86e-05	0	44	0	245366784	21	5501
2026-01-19 02:03:24.60	355.69	17.12	-30.8	-34.3	13.0	2.72e-04	0	44	0	247463936	21	5372
2026-01-19 02:03:25.60	355.53	17.20	-30.8	-34.3	12.9	1.80e-03	0	44	0	249561088	21	5383
2026-01-19 02:03:26.60	355.37	17.28	-30.9	-34.6	12.7	7.32e-05	0	44	0	251658240	21	5527
2026-01-19 02:03:27.61	355.20	17.36	-31.0	-34.4	12.5	1.09e-04	0	44	0	252706816	22	5325
2026-01-19 02:03:28.61	355.04	17.45	-31.0	-34.5	12.5	1.60e-03	0	44	0	254803968	22	5353
2026-01-19 02:03:29.61	354.87	17.53	-31.0	-34.3	12.6	1.54e-03	0	44	0	256901120	22	5291
2026-01-19 02:03:30.61	354.71	17.61	-31.0	-34.4	12.5	1.07e-04	0	44	0	258998272	22	5318
2026-01-19 02:03:31.62	354.54	17.69	-31.1	-34.6	12.4	1.60e-03	0	44	0	261095424	22	5378
2026-01-19 02:03:32.62	354.37	17.77	-31.1	-34.8	12.3	1.61e-03	0	44	0	262144000	22	5477
2026-01-19 02:03:33.63	354.20	17.85	-31.1	-34.7	12.3	2.00e-04	0	44	0	264241152	22	5437
2026-01-19 02:03:34.63	354.03	17.94	-31.1	-34.7	12.4	1.70e-04	0	44	0	266338304	22	5420
2026-01-19 02:03:35.63	353.86	18.02	-31.2	-34.9	12.3	2.08e-03	0	44	0	268435456	22	5507
2026-01-19 02:03:36.63	353.69	18.10	-31.3	-35.1	12.1	1.88e-04	0	44	0	270532608	22	5591
2026-01-19 02:03:37.63	353.51	18.18	-31.2	-35.0	12.2	2.52e-04	0	44	0	271581184	22	5568
2026-01-19 02:03:38.63	353.34	18.26	-31.2	-35.1	12.2	8.37e-04	0	44	0	273678336	22	5586
2026-01-19 02:03:39.63	353.16	18.34	-31.3	-35.2	12.1	6.56e-04	0	44	0	275775488	22	5650
2026-01-19 02:03:40.64	352.99	18.43	-31.2	-35.1	12.2	2.55e-04	0	44	0	277872640	22	5592
2026-01-19 02:03:41.64	352.81	18.51	-31.2	-35.0	12.2	2.18e-04	0	44	0	279969792	22	5563
2026-01-19 02:03:42.64	352.63	18.59	-31.2	-35.0	12.2	4.61e-04	0	44	0	281018368	22	5564
2026-01-19 02:03:43.64	352.45	18.67	-31.3	-35.2	12.0	2.88e-04	0	44	0	283115520	22	5659
2026-01-19 02:03:44.64	352.27	18.75	-31.3	-35.3	12.0	2.71e-04	0	44	0	285212672	22	5695
2026-01-19 02:03:45.64	352.09	18.83	-31.4	-35.5	11.9	3.75e-04	0	44	0	287309824	22	5770
2026-01-19 02:03:46.65	351.91	18.92	-31.4	-35.4	11.9	3.64e-04	0	44	0	289406976	22	5716
2026-01-19 02:03:47.65	351.73	19.00	-31.3	-35.1	12.1	2.59e-04	0	44	0	290455552	22	5594
2026-01-19 02:03:48.65	351.54	19.08	-31.2	-35.0	12.2	2.19e-04	0	44	0	292552704	22	5559
2026-01-19 02:03:49.65	351.36	19.16	-31.3	-35.2	12.1	8.03e-04	0	44	0	294649856	22	5657
2026-01-19 02:03:50.66	351.17	19.24	-31.3	-35.3	12.1	3.57e-04	0	44	0	296747008	22	5667
2026-01-19 02:03:51.66	350.98	19.32	-31.3	-35.0	12.2	2.36e-04	0	44	0	297795584	22	5563
2026-01-19 02:03:52.67	350.80	19.41	-31.2	-34.9	12.3	1.98e-04	0	44	0	299892736	22	5522
2026-01-19 02:03:53.67	350.61	19.49	-31.3	-35.1	12.2	2.37e-04	0	44	0	301989888	22	5578
2026-01-19 02:03:54.67	350.42	19.57	-31.2	-34.9	12.3	2.06e-04	0	44	0	304087040	22	5495
2026-01-19 02:03:55.68	350.22	19.65	-31.3	-35.1	12.2	1.20e-04	0	44	0	306184192	22	5603
2026-01-19 02:03:56.68	350.03	19.73	-31.2	-34.9	12.3	2.02e-04	0	44	0	307232768	22	5526
2026-01-19 02:03:57.69	349.84	19.81	-31.1	-34.5	12.6	1.02e-04	0	44	0	309329920	22	5350
2026-01-19 02:03:58.69	349.64	19.89	-31.1	-34.5	12.7	1.05e-04	0	44	0	311427072	22	5327
2026-01-19 02:03:59.68	349.45	19.97	-31.1	-34.5	12.6	9.30e-05	0	44	0	313524224	22	5363
2026-01-19 02:04:00.69	349.25	20.05	-31.2	-34.9	12.4	1.28e-04	0	44	0	315621376	22	5493
2026-01-19 02:04:01.69	349.06	20.13	-31.2	-34.9	12.3	1.62e-04	0	44	0	316669952	22	5508
2026-01-19 02:04:02.68	348.86	20.21	-31.4	-35.4	12.0	2.57e-04	0	44	0	318767104	22	5722
2026-01-19 02:04:03.69	348.66	20.30	-31.3	-35.2	12.1	3.42e-04	0	44	0	320864256	22	5643
2026-01-19 02:04:04.69	348.46	20.38	-31.1	-34.7	12.5	1.72e-04	0	44	0	322961408	22	5433
2026-01-19 02:04:05.69	348.26	20.46	-31.0	-34.4	12.7	1.04e-04	0	44	0	325058560	22	5298
2026-01-19 02:04:06.68	348.06	20.53	-31.0	-34.3	12.8	8.69e-05	0	44	0	326107136	22	5255
2026-01-19 02:04:07.68	347.85	20.61	-30.9	-34.1	12.9	5.11e-05	0	44	0	328204288	22	5178
2026-01-19 02:04:08.68	347.65	20.69	-31.0	-34.2	12.9	4.88e-05	0	44	0	330301440	22	5207
2026-01-19 02:04:09.69	347.44	20.77	-30.9	-33.9	13.0	5.03e-05	0	44	0	332398592	22	5123
2026-01-19 02:04:10.69	347.24	20.85	-30.8	-33.6	13.2	2.36e-05	0	44	0	334495744	22	4992
2026-01-19 02:04:11.70	347.03	20.93	-30.7	-33.4	13.3	1.29e-05	0	44	0	335544320	22	4911
2026-01-19 02:04:12.70	346.82	21.01	-30.7	-33.5	13.3	1.52e-05	0	44	0	337641472	22	4943
2026-01-19 02:04:13.70	346.61	21.09	-30.7	-33.9	13.4	1.60e-05	0	44	0	339738624	21	5220
2026-01-19 02:04:14.70	346.40	21.17	-30.6	-33.6	13.5	1.14e-05	0	44	0	341835776	21	5119
2026-01-19 02:04:15.70	346.18	21.25	-30.6	-33.7	13.5	1.06e-05	0	44	0	342884352	21	5145
2026-01-19 02:04:16.71	345.97	21.33	-29.7	-32.7	13.6	1.60e-05	0	44	0	344981504	21	5055
2026-01-19 02:04:17.71	345.75	21.41	-30.5	-33.5	13.6	1.06e-05	0	44	0	347078656	21	5070
2026-01-19 02:04:18.71	345.54	21.48	-30.5	-33.5	12.6	5.30e-06	0	44	0	349175808	21	5072
2026-01-19 02:04:19.72	345.32	21.56	-30.6	-33.6	12.5	6.10e-06	0	44	0	351272960	21	5107
2026-01-19 02:04:20.72	345.10	21.64	-30.5	-33.3	13.8	2.28e-05	0	44	0	352321536	21	4996
2026-01-19 02:04:21.72	344.88	21.72	-30.3	-33.2	14.0	1.50e-06	0	44	0	354418688	20	5067
2026-01-19 02:04:22.73	344.66	21.80	-30.1	-32.9	14.3	7.00e-07	0	44	0	356515840	20	4961
2026-01-19 02:04:23.73	344.44	21.87	-30.3	-33.2	14.1	1.50e-06	0	44	0	358612992	20	5074
2026-01-19 02:04:24.73	344.22	21.95	-30.3	-33.4	14.0	2.27e-03	0	44	0	360710144	20	5137
2026-01-19 02:04:25.74	343.99	22.03	-30.4	-33.6	13.9	3.00e-06	0	44	0	361758720	20	5221
2026-01-19 02:04:26.74	343.77	22.10	-30.4	-33.6	13.9	6.80e-06	0	44	0	363855872	20	5222
2026-01-19 02:04:27.74	343.54	22.18	-30.3	-33.4	14.1	2.17e-03	0	44	0	365953024	20	5114
2026-01-19 02:04:28.74	343.32	22.26	-30.2	-33.1	14.2	7.00e-07	0	44	0	368050176	20	5030
2026-01-19 02:04:29.73	343.09	22.33	-30.2	-33.1	14.2	2.20e-06	0	44	0	370147328	20	5023
2026-01-19 02:04:30.74	342.86	22.41	-30.0	-32.6	14.5	7.00e-07	0	44	0	371195904	20	4861
2026-01-19 02:04:31.73	342.63	22.48	-29.9	-32.9	14.8	2.37e-03	0	44	0	373293056	19	5036
2026-01-19 02:04:32.74	342.40	22.56	-29.9	-32.9	14.8	0.00e+00	0	44	0	375390208	19	5036
2026-01-19 02:04:33.74	342.17	22.63	-30.0	-32.5	14.6	0.00e+00	0	44	0	377487360	20	4812
2026-01-19 02:04:34.74	341.94	22.70	-30.1	-32.8	14.4	2.31e-03	0	44	0	379584512	20	4915
2026-01-19 02:04:35.75	341.70	22.78	-30.1	-32.8	14.5	0.00e+00	0	44	0	380633088	20	4902
2026-01-19 02:04:36.75	341.46	22.85	-30.1	-32.7	14.5	0.00e+00	0	44	0	382730240	20	4885
2026-01-19 02:04:37.74	341.23	22.92	-30.0	-32.6	14.6	0.00e+00	0	44	0	384827392	20	4853
2026-01-19 02:04:38.75	340.99	23.00	-30.0	-32.5	14.6	0.00e+00	0	44	0	386924544	20	4826
2026-01-19 02:04:39.75	340.75	23.07	-30.0	-32.6	14.6	0.00e+00	0	44	0	387973120	20	4844
2026-01-19 02:04:40.76	340.51	23.14	-30.0	-32.4	14.6	0.00e+00	0	44	0	390070272	20	4792
2026-01-19 02:04:41.76	340.27	23.22	-30.0	-32.6	14.5	0.00e+00	0	44	0	392167424	20	4858
2026-01-19 02:04:42.77	340.02	23.29	-30.0	-32.6	14.5	2.31e-03	0	44	0	394264576	20	4860
2026-01-19 02:04:43.77	339.78	23.36	-30.1	-32.7	14.5	0.00e+00	0	44	0	396361728	20	4868
2026-01-19 02:04:44.77	339.53	23.43	-30.1	-32.8	14.4	1.50e-06	0	44	0	397410304	20	4909
2026-01-19 02:04:45.76	339.29	23.50	-30.2	-33.0	14.4	2.30e-03	0	44	0	399507456	20	4976
2026-01-19 02:04:46.77	339.04	23.57	-30.2	-33.0	14.4	7.00e-07	0	44	0	401604608	20	4970
2026-01-19 02:04:47.77	338.79	23.64	-30.2	-33.0	14.4	0.00e+00	0	44	0	403701760	20	4969
2026-01-19 02:04:48.77	338.54	23.71	-30.3	-33.2	14.1	2.64e-03	0	44	0	405798912	20	5074
2026-01-19 02:04:49.78	338.29	23.78	-30.1	-32.8	14.5	2.46e-03	0	44	0	406847488	20	4905
2026-01-19 02:04:50.78	338.04	23.85	-29.9	-32.4	14.7	0.00e+00	0	44	0	408944640	20	4784
2026-01-19 02:04:51.78	337.79	23.92	-30.0	-32.5	14.7	2.32e-03	0	44	0	411041792	20	4801
2026-01-19 02:04:52.79	337.53	23.98	-30.0	-32.5	14.7	2.17e-03	0	44	0	413138944	20	4807
2026-01-19 02:04:53.79	337.28	24.05	-30.1	-32.7	14.5	0.00e+00	0	44	0	415236096	20	4872
2026-01-19 02:04:54.80	337.02	24.12	-30.3	-33.2	14.2	2.20e-06	0	44	0	416284672	20	5053
2026-01-19 02:04:55.81	336.76	24.18	-30.2	-33.1	14.3	2.49e-03	0	44	0	418381824	20	5030
2026-01-19 02:04:56.81	336.50	24.25	-30.1	-32.8	14.5	0.00e+00	0	44	0	420478976	20	4902
2026-01-19 02:04:57.82	336.24	24.32	-30.1	-32.9	14.4	0.00e+00	0	44	0	422576128	20	4933
2026-01-19 02:04:58.82	335.98	24.38	-30.2	-33.0	14.4	2.38e-03	0	44	0	424673280	20	4968
2026-01-19 02:04:59.82	335.72	24.45	-30.3	-33.2	14.2	0.00e+00	0	44	0	425721856	20	5058
2026-01-19 02:05:00.82	335.46	24.51	-30.3	-33.3	14.2	2.19e-03	0	44	0	427819008	20	5077
2026-01-19 02:05:01.82	335.19	24.57	-30.4	-33.7	13.9	2.16e-03	0	44	0	429916160	20	5239
2026-01-19 02:05:02.83	334.93	24.64	-30.4	-33.5	14.0	3.00e-06	0	44	0	432013312	20	5181
2026-01-19 02:05:03.83	334.66	24.70	-30.3	-33.4	14.1	2.25e-03	0	44	0	434110464	20	5114
2026-01-19 02:05:04.83	334.40	24.76	-30.2	-33.2	14.3	7.67e-04	0	44	0	435159040	20	5036
2026-01-19 02:05:05.82	334.13	24.82	-30.2	-32.9	14.4	2.20e-06	0	44	0	437256192	20	4956
2026-01-19 02:05:06.83	333.86	24.88	-30.1	-32.8	14.4	2.32e-03	0	44	0	439353344	20	4913
2026-01-19 02:05:07.83	333.59	24.94	-30.4	-33.4	14.1	2.19e-03	0	44	0	441450496	20	5132
2026-01-19 02:05:08.83	333.32	25.00	-30.3	-33.2	14.2	1.91e-04	0	44	0	442499072	20	5067
2026-01-19 02:05:09.83	333.05	25.06	-30.1	-32.8	14.5	1.92e-03	0	44	0	444596224	20	4917
2026-01-19 02:05:10.83	332.77	25.12	-30.1	-32.8	14.5	2.02e-03	0	44	0	446693376	20	4897
2026-01-19 02:05:11.83	332.50	25.18	-30.0	-32.6	14.6	7.00e-07	0	44	0	448790528	20	4831
2026-01-19 02:05:12.84	332.22	25.23	-30.0	-32.9	14.8	2.03e-03	0	44	0	450887680	19	5044
2026-01-19 02:05:13.83	331.95	25.29	-29.9	-32.7	14.9	2.27e-03	0	44	0	451936256	19	4975
2026-01-19 02:05:14.84	331.67	25.35	-29.9	-32.6	15.0	2.39e-04	0	44	0	454033408	19	4945
2026-01-19 02:05:15.85	331.39	25.40	-29.9	-32.3	14.8	2.32e-03	0	44	0	456130560	20	4737
2026-01-19 02:05:16.84	331.11	25.46	-30.1	-32.8	14.5	2.23e-03	0	44	0	458227712	20	4921
2026-01-19 02:05:17.85	330.83	25.51	-30.1	-32.8	14.5	2.90e-04	0	44	0	460324864	20	4909
2026-01-19 02:05:18.85	330.55	25.57	-30.0	-32.4	14.7	0.00e+00	0	44	0	461373440	20	4783
2026-01-19 02:05:19.85	330.27	25.62	-29.9	-32.3	14.9	8.12e-04	0	44	0	463470592	20	4727
2026-01-19 02:05:20.85	329.99	25.67	-30.0	-32.6	14.6	6.81e-04	0	44	0	465567744	20	4840
2026-01-19 02:05:21.85	329.70	25.72	-29.9	-32.2	14.9	1.56e-03	0	44	0	467664896	20	4688
2026-01-19 02:05:22.85	329.42	25.77	-29.8	-32.6	15.0	0.00e+00	0	44	0	469762048	19	4928
2026-01-19 02:05:23.85	329.13	25.82	-29.9	-32.6	15.0	5.13e-04	0	44	0	470810624	19	4952
2026-01-19 02:05:24.86	328.84	25.87	-29.9	-32.7	14.9	1.41e-03	0	44	0	472907776	19	4979
2026-01-19 02:05:25.86	328.56	25.92	-29.9	-32.8	14.9	0.00e+00	0	44	0	475004928	19	5008
2026-01-19 02:05:26.87	328.27	25.97	-29.9	-32.8	14.9	7.87e-04	0	44	0	477102080	19	4997
2026-01-19 02:05:27.87	327.98	26.02	-29.9	-32.8	14.9	0.00e+00	0	44	0	478150656	19	5000
2026-01-19 02:05:28.86	327.69	26.06	-30.0	-32.9	14.8	5.56e-05	0	44	0	480247808	19	5065
2026-01-19 02:05:29.87	327.40	26.11	-30.0	-32.9	14.8	0.00e+00	0	44	0	482344960	19	5033
2026-01-19 02:05:30.87	327.10	26.16	-29.8	-32.4	15.1	4.58e-04	0	44	0	484442112	19	4887
2026-01-19 02:05:31.87	326.81	26.20	-29.8	-32.5	15.0	4.04e-04	0	44	0	486539264	19	4893
2026-01-19 02:05:32.88	326.52	26.24	-29.9	-32.7	14.9	0.00e+00	0	44	0	488636416	19	4989
2026-01-19 02:05:33.89	326.22	26.29	-29.9	-32.4	14.8	7.62e-05	0	44	0	489684992	20	4762
2026-01-19 02:05:34.89	325.92	26.33	-30.2	-33.1	14.4	3.15e-04	0	44	0	491782144	20	5015
2026-01-19 02:05:35.90	325.63	26.37	-30.3	-33.3	14.2	7.00e-07	0	44	0	493879296	20	5091
2026-01-19 02:05:36.90	325.33	26.41	-30.3	-33.4	14.1	7.00e-07	0	44	0	495976448	20	5130
2026-01-19 02:05:37.91	325.03	26.45	-30.3	-33.4	14.1	1.91e-03	0	44	0	497025024	20	5121
2026-01-19 02:05:38.91	324.73	26.49	-30.4	-33.6	14.0	1.53e-03	0	44	0	499122176	20	5204
2026-01-19 02:05:39.92	324.43	26.53	-30.4	-33.5	14.0	3.80e-06	0	44	0	501219328	20	5156
2026-01-19 02:05:40.92	324.13	26.57	-30.6	-33.5	13.7	3.80e-06	0	44	0	503316480	21	5047
2026-01-19 02:05:41.92	323.83	26.60	-31.0	-34.6	13.0	1.51e-03	0	44	0	505413632	21	5485
2026-01-19 02:05:42.92	323.53	26.64	-30.9	-34.4	13.1	3.50e-05	0	44	0	506462208	21	5394
2026-01-19 02:05:43.92	323.23	26.67	-30.9	-34.5	13.1	2.21e-05	0	44	0	508559360	21	5423
2026-01-19 02:05:44.92	322.92	26.71	-30.9	-34.4	13.2	1.71e-03	0	44	0	510656512	21	5389
2026-01-19 02:05:45.93	322.62	26.74	-30.9	-34.5	13.1	3.28e-05	0	44	0	512753664	21	5443
2026-01-19 02:05:46.93	322.32	26.77	-31.1	-34.5	12.8	4.19e-05	0	44	0	514850816	22	5322
2026-01-19 02:05:47.94	322.01	26.81	-31.3	-35.0	12.5	8.62e-05	0	44	0	515899392	22	5530
2026-01-19 02:05:48.94	321.70	26.84	-31.2	-34.6	12.7	2.83e-03	0	44	0	517996544	22	5372
2026-01-19 02:05:49.94	321.40	26.87	-31.1	-34.4	12.8	7.55e-05	0	44	0	520093696	22	5291
2026-01-19 02:05:50.95	321.09	26.90	-31.1	-34.5	12.8	5.72e-05	0	44	0	522190848	22	5320
2026-01-19 02:05:51.95	320.78	26.92	-31.2	-34.8	12.6	6.56e-05	0	44	0	524288000	22	5426
2026-01-19 02:05:52.95	320.48	26.95	-31.2	-34.7	12.6	9.38e-05	0	44	0	525336576	22	5413
2026-01-19 02:05:53.95	320.17	26.98	-31.2	-34.8	12.5	8.46e-05	0	44	0	527433728	22	5450
2026-01-19 02:05:54.96	319.86	27.00	-31.3	-35.1	12.4	1.36e-04	0	44	0	529530880	22	5551
2026-01-19 02:05:55.96	319.55	27.03	-31.5	-35.6	12.1	3.32e-03	0	44	0	531628032	22	5768
2026-01-19 02:05:56.96	319.24	27.05	-31.3	-35.1	12.3	2.08e-04	0	44	0	533725184	22	5580
2026-01-19 02:05:57.96	318.93	27.07	-31.2	-34.7	12.7	1.14e-04	0	44	0	534773760	22	5391
2026-01-19 02:05:58.97	318.62	27.10	-31.1	-34.6	12.7	7.55e-05	0	44	0	536870912	22	5355
2026-01-19 02:05:59.97	318.31	27.12	-31.2	-34.6	12.7	7.93e-05	0	44	0	538968064	22	5374
2026-01-19 02:06:00.97	318.00	27.14	-31.2	-34.6	12.7	6.56e-05	0	44	0	541065216	22	5369
2026-01-19 02:06:01.97	317.69	27.16	-31.1	-34.6	12.7	6.79e-05	0	44	0	542113792	22	5344
2026-01-19 02:06:02.98	317.37	27.17	-31.3	-35.0	12.5	1.08e-04	0	44	0	544210944	22	5516
2026-01-19 02:06:03.98	317.06	27.19	-31.2	-34.7	12.6	9.46e-05	0	44	0	546308096	22	5401
2026-01-19 02:06:04.99	316.74	27.21	-31.1	-34.5	12.8	7.55e-05	0	44	0	548405248	22	5318
2026-01-19 02:06:05.99	316.43	27.22	-31.2	-34.6	12.8	6.48e-05	0	44	0	550502400	22	5341
2026-01-19 02:06:06.99	316.12	27.24	-31.2	-34.7	12.7	6.71e-05	0	44	0	551550976	22	5377
2026-01-19 02:06:07.99	315.81	27.25	-31.1	-34.6	12.7	7.40e-05	0	44	0	553648128	22	5347
2026-01-19 02:06:08.99	315.49	27.26	-31.3	-34.9	12.5	8.08e-05	0	44	0	555745280	22	5470
2026-01-19 02:06:09.99	315.18	27.27	-31.2	-34.7	12.6	8.77e-05	0	44	0	557842432	22	5378
2026-01-19 02:06:10.99	314.87	27.29	-31.2	-34.6	12.7	8.01e-05	0	44	0	559939584	22	5353
2026-01-19 02:06:12.00	314.55	27.30	-31.2	-34.7	12.7	7.09e-05	0	44	0	560988160	22	5379
2026-01-19 02:06:13.00	314.23	27.30	-31.2	-34.6	12.7	5.56e-05	0	44	0	563085312	22	5369
2026-01-19 02:06:14.01	313.92	27.31	-31.3	-35.0	12.5	8.23e-05	0	44	0	565182464	22	5509
2026-01-19 02:06:15.02	313.60	27.32	-31.2	-34.8	12.6	8.85e-05	0	44	0	567279616	22	5456
2026-01-19 02:06:16.02	313.28	27.32	-30.3	-34.1	12.4	1.12e-04	0	44	0	569376768	22	5564
2026-01-19 02:06:17.03	312.97	27.33	-31.4	-35.3	12.2	1.74e-04	0	44	0	570425344	22	5654
2026-01-19 02:06:18.03	312.65	27.33	-31.3	-34.9	12.6	1.54e-04	0	44	0	572522496	22	5470
2026-01-19 02:06:19.03	312.34	27.34	-31.2	-34.8	12.6	1.01e-04	0	44	0	574619648	22	5439
2026-01-19 02:06:20.02	312.03	27.34	-31.2	-34.7	12.7	4.74e-04	0	44	0	576716800	22	5385
2026-01-19 02:06:21.03	311.71	27.34	-31.3	-34.9	12.5	1.03e-04	0	44	0	578813952	22	5480
2026-01-19 02:06:22.04	311.39	27.34	-31.4	-35.3	12.4	1.27e-04	0	44	0	579862528	22	5628
2026-01-19 02:06:23.04	311.07	27.34	-31.4	-35.4	12.2	1.85e-04	0	44	0	581959680	22	5673
2026-01-19 02:06:24.05	310.76	27.34	-31.2	-34.7	12.7	9.61e-05	0	44	0	584056832	22	5382
2026-01-19 02:06:25.05	310.44	27.33	-31.0	-34.3	12.9	5.64e-05	0	44	0	586153984	22	5229
2026-01-19 02:06:26.06	310.12	27.33	-31.0	-34.6	13.1	2.51e-05	0	44	0	588251136	21	5449
2026-01-19 02:06:27.06	309.81	27.33	-31.0	-34.2	13.0	8.78e-04	0	44	0	589299712	22	5209
2026-01-19 02:06:28.06	309.49	27.32	-30.8	-34.2	13.2	2.36e-05	0	44	0	591396864	21	5317
2026-01-19 02:06:29.07	309.18	27.31	-30.8	-34.2	13.3	1.75e-05	0	44	0	593494016	21	5312
2026-01-19 02:06:30.07	308.86	27.30	-30.8	-34.1	13.4	2.43e-03	0	44	0	595591168	21	5256
2026-01-19 02:06:31.07	308.55	27.30	-31.0	-34.3	12.9	3.58e-05	0	44	0	597688320	22	5234
2026-01-19 02:06:32.07	308.23	27.29	-30.8	-34.2	13.3	3.20e-05	0	44	0	598736896	21	5304
2026-01-19 02:06:33.08	307.92	27.28	-30.7	-33.8	13.6	8.30e-06	0	44	0	600834048	21	5146
2026-01-19 02:06:34.08	307.60	27.26	-30.8	-34.2	13.3	2.65e-03	0	44	0	602931200	21	5324
2026-01-19 02:06:35.09	307.29	27.25	-30.7	-33.8	13.6	1.06e-05	0	44	0	605028352	21	5152
2026-01-19 02:06:36.09	306.97	27.24	-30.6	-33.5	13.7	6.80e-06	0	44	0	607125504	21	5044
2026-01-19 02:06:37.10	306.66	27.22	-30.5	-33.4	13.8	2.41e-03	0	44	0	608174080	21	5016
2026-01-19 02:06:38.10	306.34	27.21	-30.6	-33.5	13.8	4.62e-04	0	44	0	610271232	21	5061
2026-01-19 02:06:39.10	306.03	27.19	-30.5	-33.4	13.8	5.30e-06	0	44	0	612368384	21	5028
2026-01-19 02:06:40.10	305.72	27.18	-30.6	-33.5	13.7	2.15e-03	0	44	0	614465536	21	5065
2026-01-19 02:06:41.11	305.40	27.16	-30.6	-33.6	13.7	3.07e-04	0	44	0	615514112	21	5065
2026-01-19 02:06:42.11	305.09	27.14	-30.7	-33.9	13.4	9.10e-06	0	44	0	617611264	21	5189
2026-01-19 02:06:43.11	304.78	27.12	-30.4	-33.5	14.0	6.80e-06	0	44	0	619708416	20	5174
2026-01-19 02:06:44.11	304.47	27.10	-30.2	-33.0	14.4	2.08e-04	0	44	0	621805568	20	4970
2026-01-19 02:06:45.11	304.16	27.08	-30.0	-32.6	14.6	2.27e-03	0	44	0	623902720	20	4836
2026-01-19 02:06:46.11	303.85	27.05	-30.0	-32.4	14.8	7.00e-07	0	44	0	624951296	20	4763
2026-01-19 02:06:47.11	303.54	27.03	-30.0	-32.4	14.7	1.79e-04	0	44	0	627048448	20	4774
2026-01-19 02:06:48.11	303.23	27.01	-29.9	-32.8	14.9	2.23e-03	0	44	0	629145600	19	4994
2026-01-19 02:06:49.11	302.92	26.98	-29.9	-32.8	14.8	0.00e+00	0	44	0	631242752	19	5025
2026-01-19 02:06:50.11	302.62	26.95	-30.0	-32.5	14.7	0.00e+00	0	44	0	633339904	20	4786
2026-01-19 02:06:51.11	302.31	26.93	-30.1	-32.7	14.6	1.98e-03	0	44	0	634388480	20	4869
2026-01-19 02:06:52.11	302.00	26.90	-30.0	-32.4	14.8	2.31e-03	0	44	0	636485632	20	4774
2026-01-19 02:06:53.12	301.69	26.87	-29.9	-32.7	14.9	0.00e+00	0	44	0	638582784	19	4978
2026-01-19 02:06:54.13	301.38	26.84	-29.8	-32.5	15.0	2.27e-03	0	44	0	640679936	19	4920
2026-01-19 02:06:55.13	301.08	26.81	-29.8	-32.5	15.1	2.18e-03	0	44	0	642777088	19	4898
2026-01-19 02:06:56.13	300.78	26.78	-29.8	-32.6	15.0	3.26e-04	0	44	0	643825664	19	4928
2026-01-19 02:06:57.14	300.47	26.75	-29.7	-32.2	15.2	2.18e-03	0	44	0	645922816	19	4803
2026-01-19 02:06:58.13	300.17	26.71	-29.6	-32.0	15.3	1.77e-03	0	44	0	648019968	19	4750
2026-01-19 02:06:59.14	299.86	26.68	-29.6	-32.0	15.3	1.43e-04	0	44	0	650117120	19	4738
2026-01-19 02:07:00.13	299.56	26.64	-29.7	-32.2	15.2	0.00e+00	0	44	0	652214272	19	4827
2026-01-19 02:07:01.13	299.26	26.61	-29.8	-32.5	15.1	2.24e-03	0	44	0	653262848	19	4914
2026-01-19 02:07:02.14	298.96	26.57	-29.8	-32.6	15.0	3.80e-06	0	44	0	655360000	19	4938
2026-01-19 02:07:03.14	298.66	26.53	-30.0	-32.9	14.8	2.36e-03	0	44	0	657457152	19	5061
2026-01-19 02:07:04.15	298.36	26.50	-29.9	-32.8	14.8	2.24e-03	0	44	0	659554304	19	5023
2026-01-19 02:07:05.15	298.06	26.46	-29.9	-32.8	14.9	7.47e-05	0	44	0	660602880	19	5020
2026-01-19 02:07:06.15	297.76	26.42	-29.9	-32.8	14.8	2.20e-03	0	44	0	662700032	19	5027
2026-01-19 02:07:07.16	297.46	26.38	-30.0	-32.6	14.6	2.08e-03	0	44	0	664797184	20	4846
2026-01-19 02:07:08.15	297.17	26.33	-30.2	-33.1	14.3	5.79e-05	0	44	0	666894336	20	5017
2026-01-19 02:07:09.16	296.87	26.29	-30.0	-32.6	14.6	1.97e-03	0	44	0	668991488	20	4843
2026-01-19 02:07:10.17	296.57	26.25	-30.0	-32.6	14.5	1.64e-03	0	44	0	670040064	20	4857
2026-01-19 02:07:11.16	296.28	26.21	-30.0	-32.4	14.7	4.50e-05	0	44	0	672137216	20	4789
2026-01-19 02:07:12.17	295.98	26.16	-29.9	-32.9	14.8	6.80e-04	0	44	0	674234368	19	5031
2026-01-19 02:07:13.17	295.69	26.12	-30.1	-32.7	14.5	1.85e-03	0	44	0	676331520	20	4867
2026-01-19 02:07:14.18	295.40	26.07	-30.3	-33.2	14.2	2.20e-06	0	44	0	678428672	20	5054
2026-01-19 02:07:15.18	295.11	26.02	-30.2	-33.2	14.2	2.19e-03	0	44	0	679477248	20	5038
2026-01-19 02:07:16.17	294.82	25.98	-30.6	-33.5	13.7	2.06e-03	0	44	0	681574400	21	5062
2026-01-19 02:07:17.18	294.53	25.93	-30.4	-33.1	13.9	6.10e-06	0	44	0	683671552	21	4911
2026-01-19 02:07:18.18	294.24	25.88	-30.3	-33.5	14.0	1.50e-06	0	44	0	685768704	20	5147
2026-01-19 02:07:19.18	293.95	25.83	-30.5	-33.4	13.7	5.84e-04	0	44	0	687865856	21	4998
2026-01-19 02:07:20.19	293.66	25.78	-30.4	-33.2	13.9	2.20e-06	0	44	0	688914432	21	4936
2026-01-19 02:07:21.19	293.38	25.73	-30.3	-33.5	14.0	2.20e-06	0	44	0	691011584	20	5161
2026-01-19 02:07:22.20	293.09	25.68	-30.4	-33.6	13.9	2.21e-03	0	44	0	693108736	20	5210
2026-01-19 02:07:23.20	292.81	25.62	-30.4	-33.7	13.8	6.80e-06	0	44	0	695205888	20	5258
2026-01-19 02:07:24.20	292.53	25.57	-30.4	-33.6	13.9	2.16e-03	0	44	0	697303040	20	5203
2026-01-19 02:07:25.21	292.24	25.52	-30.4	-33.6	13.9	3.80e-06	0	44	0	698351616	20	5191
2026-01-19 02:07:26.21	291.96	25.46	-30.6	-33.7	13.5	1.20e-04	0	44	0	700448768	21	5130
2026-01-19 02:07:27.21	291.68	25.41	-30.8	-34.1	13.2	7.93e-05	0	44	0	702545920	21	5297
2026-01-19 02:07:28.21	291.40	25.35	-30.8	-34.1	13.2	1.75e-05	0	44	0	704643072	21	5280
2026-01-19 02:07:29.22	291.12	25.30	-31.0	-34.7	12.9	3.20e-05	0	44	0	706740224	21	5505
2026-01-19 02:07:30.22	290.85	25.24	-31.0	-34.4	12.8	2.13e-03	0	44	0	707788800	22	5289
2026-01-19 02:07:31.22	290.57	25.18	-31.1	-34.5	12.6	7.24e-05	0	44	0	709885952	22	5349
2026-01-19 02:07:32.22	290.30	25.12	-31.1	-34.5	12.6	1.24e-04	0	44	0	711983104	22	5342
2026-01-19 02:07:33.22	290.02	25.07	-30.9	-34.0	12.9	2.32e-03	0	44	0	714080256	22	5163
2026-01-19 02:07:34.22	289.75	25.01	-30.8	-34.4	13.0	2.12e-03	0	44	0	715128832	21	5405
2026-01-19 02:07:35.23	289.48	24.95	-30.9	-34.4	13.0	5.18e-05	0	44	0	717225984	21	5404
2026-01-19 02:07:36.23	289.21	24.89	-30.8	-34.3	13.1	4.57e-05	0	44	0	719323136	21	5361
2026-01-19 02:07:37.23	288.94	24.82	-30.9	-34.4	13.0	2.42e-03	0	44	0	721420288	21	5406
2026-01-19 02:07:38.24	288.66	24.76	-30.9	-34.4	13.0	3.89e-05	0	44	0	723517440	21	5411
2026-01-19 02:07:39.24	288.40	24.70	-30.9	-34.5	12.9	4.42e-05	0	44	0	724566016	21	5448
2026-01-19 02:07:40.24	288.13	24.64	-30.9	-34.6	12.9	2.09e-03	0	44	0	726663168	21	5505
2026-01-19 02:07:41.24	287.87	24.58	-31.1	-34.6	12.6	3.23e-04	0	44	0	728760320	22	5391
2026-01-19 02:07:42.25	287.60	24.51	-31.2	-34.9	12.3	1.80e-04	0	44	0	730857472	22	5521
2026-01-19 02:07:43.26	287.33	24.45	-31.1	-34.6	12.5	1.46e-04	0	44	0	732954624	22	5383
2026-01-19 02:07:44.26	287.07	24.38	-31.1	-34.5	12.7	3.66e-04	0	44	0	734003200	22	5321
2026-01-19 02:07:45.26	286.81	24.32	-31.1	-34.4	12.7	9.38e-05	0	44	0	736100352	22	5304
2026-01-19 02:07:46.27	286.55	24.25	-31.0	-34.3	12.7	6.94e-05	0	44	0	738197504	22	5258
2026-01-19 02:07:47.27	286.29	24.19	-31.1	-34.5	12.6	7.09e-05	0	44	0	740294656	22	5337
2026-01-19 02:07:48.27	286.03	24.12	-31.1	-34.6	12.5	1.28e-04	0	44	0	742391808	22	5404
2026-01-19 02:07:49.27	285.78	24.05	-31.1	-34.5	12.6	9.68e-05	0	44	0	743440384	22	5342
2026-01-19 02:07:50.27	285.52	23.99	-31.0	-34.3	12.8	7.70e-05	0	44	0	745537536	22	5263
2026-01-19 02:07:51.28	285.26	23.92	-31.1	-34.6	12.6	2.45e-03	0	44	0	747634688	22	5381
2026-01-19 02:07:52.28	285.01	23.85	-31.2	-34.9	12.4	1.78e-04	0	44	0	749731840	22	5507
2026-01-19 02:07:53.28	284.76	23.78	-31.0	-34.4	12.6	1.17e-04	0	44	0	751828992	22	5323
2026-01-19 02:07:54.28	284.51	23.71	-31.0	-34.3	12.8	6.10e-05	0	44	0	752877568	22	5254
2026-01-19 02:07:55.28	284.26	23.64	-30.9	-34.5	12.9	5.18e-05	0	44	0	754974720	21	5442
2026-01-19 02:07:56.29	284.01	23.57	-30.9	-34.6	12.8	4.27e-05	0	44	0	757071872	21	5502
2026-01-19 02:07:57.29	283.76	23.50	-31.1	-34.6	12.5	8.54e-05	0	44	0	759169024	22	5379
2026-01-19 02:07:58.29	283.51	23.43	-31.2	-34.8	12.3	1.36e-04	0	44	0	760217600	22	5489
2026-01-19 02:07:59.30	283.26	23.36	-30.9	-34.0	12.9	6.71e-05	0	44	0	762314752	22	5133
2026-01-19 02:08:00.29	283.02	23.29	-30.7	-34.0	13.2	3.66e-05	0	44	0	764411904	21	5271
2026-01-19 02:08:01.30	282.78	23.22	-30.6	-33.7	13.4	1.52e-05	0	44	0	766509056	21	5139
2026-01-19 02:08:02.30	282.53	23.14	-30.5	-33.5	13.5	1.37e-05	0	44	0	768606208	21	5080
2026-01-19 02:08:03.31	282.29	23.07	-30.5	-33.4	13.5	1.22e-05	0	44	0	769654784	21	5053
2026-01-19 02:08:04.31	282.05	23.00	-30.5	-33.3	13.7	1.06e-05	0	44	0	771751936	21	4996
2026-01-19 02:08:05.31	281.81	22.92	-30.5	-33.4	13.6	8.30e-06	0	44	0	773849088	21	5031
2026-01-19 02:08:06.30	281.58	22.85	-30.3	-33.0	13.9	2.20e-06	0	44	0	775946240	21	4892
2026-01-19 02:08:07.30	281.34	22.78	-30.3	-32.8	14.0	3.80e-06	0	44	0	778043392	21	4820
2026-01-19 02:08:08.30	281.11	22.70	-30.2	-32.7	14.1	3.80e-06	0	44	0	779091968	21	4780
2026-01-19 02:08:09.30	280.87	22.63	-30.3	-33.0	13.9	3.00e-06	0	44	0	781189120	21	4875
2026-01-19 02:08:10.30	280.64	22.56	-30.4	-33.7	13.8	6.10e-06	0	44	0	783286272	20	5242
2026-01-19 02:08:11.30	280.41	22.48	-30.4	-33.7	13.7	8.30e-06	0	44	0	785383424	20	5259
2026-01-19 02:08:12.29	280.18	22.41	-30.4	-33.6	13.8	4.50e-06	0	44	0	787480576	20	5209
2026-01-19 02:08:13.30	279.95	22.33	-30.4	-33.7	13.7	2.20e-06	0	44	0	788529152	20	5266
2026-01-19 02:08:14.30	279.72	22.25	-30.3	-33.5	13.8	7.60e-06	0	44	0	790626304	20	5202
2026-01-19 02:08:15.30	279.49	22.18	-30.3	-33.5	13.8	6.80e-06	0	44	0	792723456	20	5182
2026-01-19 02:08:16.31	279.26	22.10	-30.3	-33.5	13.8	1.50e-06	0	44	0	794820608	20	5194
2026-01-19 02:08:17.32	279.03	22.02	-30.4	-33.8	13.6	1.14e-05	0	44	0	796917760	20	5294
2026-01-19 02:08:18.32	278.81	21.95	-30.1	-33.0	14.1	3.80e-06	0	44	0	797966336	20	5005
2026-01-19 02:08:19.32	278.59	21.87	-30.0	-32.5	14.4	1.50e-06	0	44	0	800063488	20	4831
2026-01-19 02:08:20.33	278.36	21.79	-30.0	-33.0	14.5	1.50e-06	0	44	0	802160640	19	5107
2026-01-19 02:08:21.32	278.14	21.72	-29.9	-32.8	14.6	0.00e+00	0	44	0	804257792	19	5038
2026-01-19 02:08:22.33	277.92	21.64	-29.9	-32.3	14.5	2.97e-05	0	44	0	806354944	20	4772
2026-01-19 02:08:23.33	277.70	21.56	-29.9	-32.9	14.6	1.50e-06	0	44	0	807403520	19	5076
2026-01-19 02:08:24.34	277.48	21.48	-30.0	-33.1	14.4	7.00e-07	0	44	0	809500672	19	5129
2026-01-19 02:08:25.33	277.27	21.40	-29.9	-32.5	14.4	7.00e-07	0	44	0	811597824	20	4840
2026-01-19 02:08:26.33	277.05	21.32	-30.0	-32.7	14.3	2.54e-03	0	44	0	813694976	20	4912
2026-01-19 02:08:27.34	276.84	21.25	-30.0	-32.6	14.3	0.00e+00	0	44	0	814743552	20	4881
2026-01-19 02:08:28.33	276.63	21.17	-30.0	-32.7	14.3	7.00e-07	0	44	0	816840704	20	4912
2026-01-19 02:08:29.34	276.41	21.09	-30.1	-32.8	14.2	2.45e-03	0	44	0	818937856	20	4945
2026-01-19 02:08:30.34	276.20	21.01	-30.0	-32.7	14.3	1.50e-06	0	44	0	821035008	20	4900
2026-01-19 02:08:31.34	275.99	20.93	-29.9	-32.4	14.5	7.00e-07	0	44	0	823132160	20	4799
2026-01-19 02:08:32.34	275.78	20.85	-30.0	-33.0	14.4	2.20e-06	0	44	0	824180736	19	5129
2026-01-19 02:08:33.35	275.57	20.77	-30.0	-32.6	14.4	2.35e-03	0	44	0	826277888	20	4853
2026-01-19 02:08:34.36	275.37	20.69	-30.0	-32.6	14.3	0.00e+00	0	44	0	828375040	20	4873
2026-01-19 02:08:35.37	275.16	20.61	-29.9	-32.9	14.5	0.00e+00	0	44	0	830472192	19	5080
2026-01-19 02:08:36.37	274.95	20.53	-29.9	-32.9	14.5	2.38e-03	0	44	0	832569344	19	5085
2026-01-19 02:08:37.38	274.75	20.45	-29.8	-32.5	14.7	5.61e-04	0	44	0	833617920	19	4949
2026-01-19 02:08:38.38	274.55	20.37	-29.9	-32.8	14.6	0.00e+00	0	44	0	835715072	19	5033
2026-01-19 02:08:39.38	274.35	20.29	-29.9	-32.8	14.5	2.84e-03	0	44	0	837812224	19	5046
2026-01-19 02:08:40.38	274.15	20.21	-29.6	-32.2	15.0	5.64e-04	0	44	0	839909376	19	4836
2026-01-19 02:08:41.38	273.95	20.13	-29.4	-32.2	15.3	0.00e+00	0	44	0	842006528	18	4938
2026-01-19 02:08:42.38	273.75	20.04	-29.4	-32.1	15.3	0.00e+00	0	44	0	843055104	18	4926
2026-01-19 02:08:43.39	273.55	19.96	-29.5	-32.2	15.2	1.43e-04	0	44	0	845152256	18	4963
2026-01-19 02:08:44.39	273.35	19.88	-29.5	-32.3	15.2	2.15e-03	0	44	0	847249408	18	4981
2026-01-19 02:08:45.40	273.16	19.80	-29.5	-32.0	15.1	0.00e+00	0	44	0	849346560	19	4753
2026-01-19 02:08:46.40	272.96	19.72	-29.7	-32.3	14.9	0.00e+00	0	44	0	851443712	19	4855
2026-01-19 02:08:47.40	272.77	19.64	-29.7	-32.4	14.8	1.65e-03	0	44	0	852492288	19	4892
2026-01-19 02:08:48.41	272.58	19.56	-29.5	-31.8	15.1	7.00e-07	0	44	0	854589440	19	4705
2026-01-19 02:08:49.42	272.38	19.47	-29.3	-31.3	15.4	0.00e+00	0	44	0	856686592	19	4546
2026-01-19 02:08:50.42	272.20	19.39	-29.2	-31.6	15.6	1.93e-03	0	44	0	858783744	18	4740
2026-01-19 02:08:51.43	272.00	19.31	-29.1	-31.5	15.7	1.99e-03	0	44	0	860880896	18	4700
2026-01-19 02:08:52.43	271.82	19.23	-29.0	-31.2	15.8	0.00e+00	0	44	0	861929472	18	4615
2026-01-19 02:08:53.44	271.63	19.15	-29.1	-31.3	15.7	2.15e-03	0	44	0	864026624	18	4643
2026-01-19 02:08:54.44	271.44	19.06	-29.0	-31.1	15.8	1.97e-03	0	44	0	866123776	18	4599
2026-01-19 02:08:55.44	271.26	18.98	-29.1	-31.5	15.6	1.29e-05	0	44	0	868220928	18	4716
2026-01-19 02:08:56.45	271.07	18.90	-29.2	-31.5	15.6	1.87e-03	0	44	0	869269504	18	4719
2026-01-19 02:08:57.46	270.89	18.82	-29.3	-31.9	15.4	1.84e-03	0	44	0	871366656	18	4837
2026-01-19 02:08:58.46	270.71	18.74	-29.3	-31.8	15.4	0.00e+00	0	45	0	873463808	18	4825
2026-01-19 02:08:59.46	270.53	18.65	-29.2	-31.5	15.6	0.00e+00	0	44	0	875560960	18	4731
2026-01-19 02:09:00.47	270.35	18.57	-29.2	-31.5	15.6	2.15e-03	0	44	0	877658112	18	4729
2026-01-19 02:09:01.47	270.17	18.49	-29.2	-31.7	15.5	2.20e-04	0	44	0	879755264	18	4771
2026-01-19 02:09:02.47	269.99	18.41	-29.3	-31.8	15.4	2.19e-03	0	44	0	880803840	18	4816
2026-01-19 02:09:03.48	269.81	18.33	-29.1	-31.4	15.7	2.00e-03	0	44	0	882900992	18	4674
2026-01-19 02:09:04.48	269.63	18.24	-29.1	-31.4	15.7	1.91e-04	0	44	0	884998144	18	4676
2026-01-19 02:09:05.48	269.46	18.16	-29.1	-31.5	15.6	1.99e-03	0	44	0	887095296	18	4707
2026-01-19 02:09:06.49	269.28	18.08	-29.2	-31.6	15.5	0.00e+00	0	44	0	888143872	18	4770
2026-01-19 02:09:07.49	269.11	18.00	-29.3	-31.9	15.3	1.22e-04	0	44	0	890241024	18	4860
2026-01-19 02:09:08.49	268.94	17.92	-29.4	-32.3	15.1	2.30e-03	0	44	0	892338176	18	4976
2026-01-19 02:09:09.50	268.77	17.83	-29.5	-32.3	15.0	2.27e-03	0	44	0	894435328	18	4993
2026-01-19 02:09:10.50	268.60	17.75	-29.5	-31.9	15.0	1.73e-04	0	44	0	896532480	19	4746
2026-01-19 02:09:11.50	268.43	17.67	-29.6	-32.2	14.8	2.29e-03	0	44	0	897581056	19	4849
2026-01-19 02:09:12.51	268.26	17.59	-29.5	-31.9	15.0	2.01e-03	0	44	0	899678208	19	4761
2026-01-19 02:09:13.51	268.09	17.50	-29.5	-31.9	15.0	0.00e+00	0	44	0	901775360	19	4751
2026-01-19 02:09:14.52	267.92	17.42	-29.4	-31.7	15.1	1.92e-03	0	44	0	903872512	19	4699
2026-01-19 02:09:15.52	267.76	17.34	-29.4	-32.1	15.2	2.05e-03	0	44	0	905969664	18	4924
2026-01-19 02:09:16.52	267.59	17.26	-29.5	-32.3	15.1	0.00e+00	0	44	0	907018240	18	4989
2026-01-19 02:09:17.52	267.43	17.18	-29.5	-32.0	14.9	0.00e+00	0	44	0	909115392	19	4789
2026-01-19 02:09:18.53	267.26	17.09	-29.6	-32.3	14.7	2.43e-03	0	44	0	911212544	19	4878
2026-01-19 02:09:19.54	267.10	17.01	-29.6	-32.3	14.7	1.08e-03	0	44	0	913309696	19	4869
2026-01-19 02:09:20.54	266.94	16.93	-29.7	-32.5	14.6	3.00e-06	0	44	0	915406848	19	4955
2026-01-19 02:09:21.54	266.78	16.85	-29.7	-32.5	14.6	3.15e-03	0	44	0	916455424	19	4955
2026-01-19 02:09:22.54	266.62	16.77	-29.6	-32.1	14.8	1.63e-03	0	44	0	918552576	19	4825
2026-01-19 02:09:23.54	266.46	16.69	-29.5	-32.0	14.9	0.00e+00	0	44	0	920649728	19	4798
2026-01-19 02:09:24.54	266.31	16.60	-29.5	-32.0	14.9	0.00e+00	0	44	0	922746880	19	4791
2026-01-19 02:09:25.55	266.15	16.52	-29.5	-32.0	14.8	9.35e-04	0	44	0	924844032	19	4774
2026-01-19 02:09:26.55	265.99	16.44	-29.6	-32.3	14.7	2.93e-03	0	44	0	925892608	19	4878
2026-01-19 02:09:27.55	265.84	16.36	-29.8	-32.6	14.5	0.00e+00	0	44	0	927989760	19	4979
2026-01-19 02:09:28.56	265.68	16.28	-29.8	-32.8	14.4	2.77e-04	0	44	0	930086912	19	5050
2026-01-19 02:09:29.56	265.53	16.20	-30.0	-33.2	14.1	2.55e-03	0	44	0	932184064	19	5203
2026-01-19 02:09:30.57	265.37	16.11	-30.2	-33.3	13.6	4.50e-06	0	44	0	934281216	20	5162
2026-01-19 02:09:31.57	265.22	16.03	-30.3	-33.6	13.4	1.52e-05	0	44	0	935329792	20	5279
2026-01-19 02:09:32.57	265.07	15.95	-30.3	-33.7	13.4	2.40e-03	0	44	0	937426944	20	5305
2026-01-19 02:09:33.57	264.92	15.87	-30.6	-33.9	12.9	2.67e-05	0	44	0	939524096	21	5270
2026-01-19 02:09:34.57	264.77	15.79	-30.5	-33.8	12.9	7.78e-05	0	44	0	941621248	21	5225
2026-01-19 02:09:35.58	264.62	15.71	-30.5	-33.7	13.0	2.82e-05	0	44	0	942669824	21	5207
2026-01-19 02:09:36.58	264.48	15.63	-30.7	-34.3	12.6	2.75e-03	0	44	0	944766976	21	5436
2026-01-19 02:09:37.58	264.33	15.55	-30.7	-34.2	12.7	1.04e-04	0	44	0	946864128	21	5387
2026-01-19 02:09:38.58	264.18	15.47	-30.5	-33.6	13.1	4.88e-05	0	44	0	948961280	21	5156
2026-01-19 02:09:39.59	264.04	15.39	-30.5	-34.0	13.1	2.62e-03	0	44	0	951058432	20	5446
2026-01-19 02:09:40.60	263.89	15.30	-30.5	-33.6	13.0	4.34e-05	0	44	0	952107008	21	5170
2026-01-19 02:09:41.60	263.75	15.22	-30.4	-33.9	13.2	3.50e-05	0	44	0	954204160	20	5374
2026-01-19 02:09:42.60	263.61	15.14	-30.4	-33.8	13.2	2.21e-05	0	44	0	956301312	20	5359
2026-01-19 02:09:43.60	263.46	15.06	-30.4	-33.9	13.2	1.98e-05	0	44	0	958398464	20	5401
2026-01-19 02:09:44.60	263.32	14.98	-30.4	-34.0	13.1	4.19e-05	0	44	0	960495616	20	5451
2026-01-19 02:09:45.60	263.18	14.90	-30.6	-33.9	12.9	3.58e-05	0	44	0	961544192	21	5268
2026-01-19 02:09:46.60	263.04	14.82	-30.9	-34.8	12.2	9.15e-05	0	44	0	963641344	21	5643
2026-01-19 02:09:47.60	262.90	14.74	-30.8	-34.6	12.3	2.20e-04	0	44	0	965738496	21	5563
2026-01-19 02:09:48.60	262.77	14.67	-30.5	-33.7	13.0	5.79e-05	0	44	0	967835648	21	5199
2026-01-19 02:09:49.61	262.63	14.58	-30.3	-33.2	13.2	2.89e-05	0	44	0	969932800	21	5033
2026-01-19 02:09:50.61	262.49	14.51	-30.2	-32.8	13.6	9.90e-06	0	44	0	970981376	21	4857
2026-01-19 02:09:51.61	262.35	14.43	-30.1	-32.6	13.7	9.10e-06	0	44	0	973078528	21	4808
2026-01-19 02:09:52.61	262.22	14.35	-30.1	-32.5	13.7	4.50e-06	0	44	0	975175680	21	4783
2026-01-19 02:09:53.62	262.08	14.27	-30.1	-33.3	13.6	9.90e-06	0	44	0	977272832	20	5148
2026-01-19 02:09:54.62	261.95	14.19	-30.2	-33.3	13.5	1.29e-05	0	44	0	979369984	20	5180
2026-01-19 02:09:55.62	261.82	14.11	-30.3	-33.6	13.3	1.22e-05	0	44	0	980418560	20	5285
2026-01-19 02:09:56.62	261.69	14.03	-30.3	-33.7	13.2	2.82e-05	0	44	0	982515712	20	5324
2026-01-19 02:09:57.62	261.55	13.95	-30.3	-33.7	13.2	2.21e-05	0	44	0	984612864	20	5336
2026-01-19 02:09:58.61	261.42	13.87	-30.5	-33.7	12.9	4.42e-05	0	44	0	986710016	21	5213
2026-01-19 02:09:59.62	261.29	13.79	-30.4	-34.1	13.0	4.42e-05	0	44	0	987758592	20	5482
2026-01-19 02:10:00.62	261.16	13.72	-30.4	-33.6	12.9	4.80e-05	0	44	0	989855744	21	5192
2026-01-19 02:10:01.62	261.03	13.64	-30.5	-33.9	12.8	5.56e-05	0	44	0	991952896	21	5284
2026-01-19 02:10:02.62	260.91	13.56	-30.5	-33.8	12.8	6.17e-05	0	44	0	994050048	21	5241
2026-01-19 02:10:03.62	260.78	13.48	-30.5	-34.1	12.9	5.49e-05	0	44	0	996147200	20	5503
2026-01-19 02:10:04.63	260.65	13.40	-30.3	-33.4	12.9	6.25e-05	0	44	0	997195776	21	5155
2026-01-19 02:10:05.63	260.53	13.32	-29.6	-33.3	12.8	3.35e-05	0	44	0	999292928	20	5518
2026-01-19 02:10:06.64	260.40	13.24	-30.1	-33.7	12.4	6.86e-05	0	44	0	1001390080	20	5483
2026-01-19 02:10:07.64	260.27	13.17	-29.7	-33.7	11.3	9.46e-05	0	44	0	1003487232	20	5693
2026-01-19 02:10:08.65	260.15	13.09	-30.7	-34.4	10.8	1.59e-04	0	44	0	1005584384	21	5521
2026-01-19 02:10:09.65	260.03	13.01	-30.8	-34.6	11.5	2.76e-04	0	44	0	1006632960	21	5595
2026-01-19 02:10:10.65	259.90	12.93	-30.8	-34.8	11.3	2.01e-04	0	44	0	1008730112	21	5705
2026-01-19 02:10:11.65	259.78	12.86	-30.7	-34.6	11.9	3.16e-04	0	44	0	1010827264	21	5600
2026-01-19 02:10:12.66	259.66	12.78	-30.7	-34.5	12.3	2.31e-04	0	44	0	1012924416	21	5550
2026-01-19 02:10:13.66	259.54	12.70	-30.6	-34.1	12.5	1.92e-04	0	44	0	1015021568	21	5395
2026-01-19 02:10:14.66	259.42	12.63	-30.7	-34.3	12.3	4.86e-03	0	44	0	1016070144	21	5489
2026-01-19 02:10:15.67	259.30	12.55	-30.7	-34.3	12.3	1.72e-04	0	44	0	1018167296	21	5486
2026-01-19 02:10:16.67	259.18	12.47	-30.5	-34.3	12.6	1.30e-04	0	44	0	1020264448	20	5604
2026-01-19 02:10:17.67	259.06	12.39	-30.5	-34.0	12.6	4.20e-03	0	44	0	1022361600	21	5361
2026-01-19 02:10:18.67	258.94	12.32	-30.7	-34.3	12.3	1.40e-04	0	44	0	1024458752	21	5483
2026-01-19 02:10:19.68	258.83	12.24	-30.8	-34.8	12.0	2.34e-04	0	44	0	1025507328	21	5673
2026-01-19 02:10:20.68	258.71	12.16	-30.7	-34.6	12.1	4.87e-04	0	44	0	1027604480	21	5582
2026-01-19 02:10:21.69	258.59	12.09	-30.7	-34.5	12.2	1.27e-03	0	44	0	1029701632	21	5555
2026-01-19 02:10:22.69	258.48	12.01	-30.8	-34.8	12.0	2.43e-04	0	44	0	1031798784	21	5678
2026-01-19 02:10:23.70	258.36	11.94	-30.8	-34.7	12.1	3.55e-04	0	44	0	1032847360	21	5637
2026-01-19 02:10:24.70	258.25	11.86	-30.8	-34.7	12.0	6.51e-04	0	44	0	1034944512	21	5661
2026-01-19 02:10:25.70	258.13	11.78	-30.8	-34.9	11.9	2.62e-03	0	44	0	1037041664	21	5728
2026-01-19 02:10:26.70	258.02	11.71	-30.8	-34.8	11.9	4.36e-04	0	44	0	1039138816	21	5709
2026-01-19 02:10:27.71	257.91	11.63	-30.8	-34.7	12.0	3.33e-04	0	44	0	1041235968	21	5644
2026-01-19 02:10:28.71	257.80	11.56	-30.9	-35.0	11.8	9.39e-04	0	44	0	1042284544	21	5776
2026-01-19 02:10:29.72	257.69	11.48	-30.9	-34.9	11.8	4.87e-04	0	44	0	1044381696	21	5762
2026-01-19 02:10:30.72	257.58	11.41	-30.8	-34.9	11.9	4.43e-04	0	44	0	1046478848	21	5757
2026-01-19 02:10:31.72	257.47	11.33	-31.0	-35.2	11.6	3.39e-03	0	44	0	1048576000	21	5897
2026-01-19 02:10:32.72	257.36	11.26	-30.9	-35.0	11.7	3.21e-03	0	44	0	1050673152	21	5806
2026-01-19 02:10:33.73	257.25	11.18	-30.8	-34.9	11.8	4.81e-04	0	44	0	1051721728	21	5730
2026-01-19 02:10:34.73	257.14	11.11	-30.9	-35.0	11.8	3.16e-03	0	44	0	1053818880	21	5794
2026-01-19 02:10:35.73	257.03	11.03	-30.9	-35.2	11.6	3.71e-03	0	44	0	1055916032	21	5908
2026-01-19 02:10:36.73	256.92	10.96	-30.9	-34.6	11.7	1.55e-03	0	44	0	1058013184	22	5529
2026-01-19 02:10:37.73	256.82	10.88	-31.0	-35.4	11.5	6.63e-04	0	44	0	1060110336	21	5955
2026-01-19 02:10:38.73	256.71	10.81	-31.0	-35.0	11.5	3.45e-03	0	44	0	1061158912	22	5669
2026-01-19 02:10:39.74	256.61	10.74	-31.2	-35.6	10.9	2.76e-03	0	44	0	1063256064	22	5980
2026-01-19 02:10:40.74	256.50	10.66	-31.2	-35.5	11.0	2.28e-03	0	44	0	1065353216	22	5917
2026-01-19 02:10:41.74	256.40	10.59	-31.2	-35.5	11.0	5.12e-03	0	44	0	1067450368	22	5927
2026-01-19 02:10:42.74	256.29	10.52	-31.3	-35.7	10.9	4.22e-03	0	44	0	1069547520	22	6026
2026-01-19 02:10:43.75	256.19	10.44	-31.3	-35.9	10.7	6.36e-03	0	44	0	1070596096	22	6120
2026-01-19 02:10:44.75	256.09	10.37	-31.3	-35.9	10.7	3.93e-03	0	44	0	1072693248	22	6134
2026-01-19 02:10:45.75	255.98	10.30	-31.3	-36.1	10.5	6.03e-03	0	44	0	1074790400	22	6211
2026-01-19 02:10:46.75	255.88	10.22	-31.2	-35.8	10.7	8.54e-03	0	44	0	1076887552	22	6055
2026-01-19 02:10:47.75	255.78	10.15	-31.2	-35.5	10.9	3.58e-03	0	44	0	1077936128	22	5912
2026-01-19 02:10:48.75	255.68	10.08	-31.2	-35.5	11.0	4.45e-03	0	44	0	1080033280	22	5910
2026-01-19 02:10:49.76	255.58	10.00	-31.1	-35.2	11.1	6.89e-03	0	44	0	1082130432	22	5814
2026-01-19 02:10:50.76	255.48	9.93	-31.1	-35.4	11.0	6.03e-03	0	44	0	1084227584	22	5890
2026-01-19 02:10:51.76	255.38	9.86	-31.1	-35.2	11.2	1.79e-03	0	44	0	1086324736	22	5784
2026-01-19 02:10:52.77	255.28	9.79	-31.0	-34.9	11.3	5.04e-03	0	44	0	1088421888	22	5663
2026-01-19 02:10:53.77	255.19	9.71	-30.9	-35.1	11.5	4.57e-03	0	44	0	1089470464	21	5861
2026-01-19 02:10:54.77	255.09	9.64	-31.0	-35.1	11.2	2.80e-03	0	44	0	1091567616	22	5751
2026-01-19 02:10:55.77	254.99	9.57	-31.1	-35.2	11.1	4.39e-03	0	44	0	1093664768	22	5805
2026-01-19 02:10:56.78	254.89	9.50	-31.1	-35.2	11.1	4.06e-03	0	44	0	1095761920	22	5785
2026-01-19 02:10:57.78	254.80	9.43	-31.1	-35.3	11.0	1.82e-03	0	44	0	1096810496	22	5845
2026-01-19 02:10:58.79	254.70	9.35	-31.1	-35.5	10.9	2.14e-03	0	44	0	1098907648	22	5919
2026-01-19 02:10:59.79	254.61	9.28	-31.1	-35.5	10.9	2.24e-03	0	44	0	1101004800	22	5932
2026-01-19 02:11:00.79	254.51	9.21	-31.2	-35.7	10.7	2.93e-03	0	44	0	1103101952	22	6042
2026-01-19 02:11:01.79	254.42	9.14	-31.2	-35.6	10.8	4.88e-03	0	44	0	1105199104	22	5994
2026-01-19 02:11:02.80	254.32	9.07	-31.2	-35.6	10.7	5.29e-03	0	44	0	1106247680	22	6017
2026-01-19 02:11:03.80	254.23	9.00	-31.2	-35.8	10.6	3.23e-03	0	44	0	1108344832	22	6081
2026-01-19 02:11:04.81	254.14	8.93	-31.2	-35.8	10.6	6.31e-03	0	44	0	1110441984	22	6104
2026-01-19 02:11:05.81	254.04	8.86	-31.3	-36.1	10.4	4.38e-03	0	44	0	1112539136	22	6233
2026-01-19 02:11:06.81	253.95	8.79	-31.2	-35.9	10.5	4.98e-03	0	44	0	1114636288	22	6145
2026-01-19 02:11:07.81	253.86	8.72	-31.1	-35.4	10.9	6.20e-03	0	44	0	1115684864	22	5911
2026-01-19 02:11:08.82	253.77	8.65	-31.1	-35.3	10.9	2.31e-03	0	44	0	1117782016	22	5876
2026-01-19 02:11:09.82	253.68	8.58	-31.1	-35.5	10.8	3.62e-03	0	44	0	1119879168	22	5953
2026-01-19 02:11:10.82	253.59	8.51	-31.2	-35.7	10.7	6.51e-03	0	44	0	1121976320	22	6034
2026-01-19 02:11:11.82	253.50	8.44	-31.1	-35.5	10.8	6.87e-03	0	44	0	1124073472	22	5936
2026-01-19 02:11:12.82	253.41	8.37	-31.1	-35.4	10.9	2.04e-03	0	44	0	1125122048	22	5897
2026-01-19 02:11:13.82	253.32	8.30	-31.1	-35.6	10.7	6.97e-03	0	44	0	1127219200	22	5995
2026-01-19 02:11:14.83	253.23	8.23	-31.2	-35.9	10.5	6.87e-03	0	44	0	1129316352	22	6142
2026-01-19 02:11:15.83	253.14	8.16	-31.2	-35.9	10.4	4.50e-03	0	44	0	1131413504	22	6170
2026-01-19 02:11:16.83	253.06	8.09	-31.3	-36.0	10.4	6.80e-03	0	44	0	1133510656	22	6196
2026-01-19 02:11:17.83	252.97	8.02	-31.2	-36.0	10.4	8.37e-03	0	44	0	1134559232	22	6197
2026-01-19 02:11:18.83	252.88	7.95	-31.4	-36.4	10.0	6.62e-03	0	44	0	1136656384	22	6451
2026-01-19 02:11:19.83	252.80	7.88	-31.4	-36.4	10.0	8.93e-03	0	44	0	1138753536	22	6443
2026-01-19 02:11:20.83	252.71	7.81	-31.4	-36.5	10.0	1.17e-02	0	44	0	1140850688	22	6469
2026-01-19 02:11:21.84	252.62	7.74	-31.6	-36.7	9.4	1.29e-02	0	44	0	1141899264	23	6515
2026-01-19 02:11:22.84	252.54	7.68	-31.4	-36.1	9.7	1.44e-02	0	44	0	1143996416	23	6197
2026-01-19 02:11:23.84	252.46	7.61	-31.5	-36.9	9.6	9.46e-03	0	44	0	1146093568	22	6740
2026-01-19 02:11:24.85	252.37	7.54	-31.4	-36.3	9.6	1.74e-02	0	44	0	1148190720	23	6296
2026-01-19 02:11:25.85	252.29	7.47	-31.4	-36.5	9.8	1.07e-02	0	44	0	1150287872	22	6517
2026-01-19 02:11:26.85	252.20	7.40	-31.4	-36.7	9.7	1.02e-02	0	44	0	1151336448	22	6619
2026-01-19 02:11:27.86	252.12	7.33	-31.5	-36.9	9.6	1.33e-02	0	44	0	1153433600	22	6721
2026-01-19 02:11:28.85	252.04	7.27	-31.4	-36.9	9.5	1.81e-02	0	44	0	1155530752	22	6733
2026-01-19 02:11:29.85	251.96	7.20	-31.5	-36.6	9.3	1.64e-02	0	44	0	1157627904	23	6475
2026-01-19 02:11:30.85	251.87	7.13	-31.4	-36.3	9.5	1.79e-02	0	44	0	1159725056	23	6337
2026-01-19 02:11:31.86	251.79	7.06	-33.3	-47.3	3.8	3.68e-01	0	44	104	1160773632	26	18001
2026-01-19 02:11:32.86	251.71	7.00	-33.6	-47.8	3.8	1.49e+00	0	44	104	1160773632	27	18448
2026-01-19 02:11:33.87	251.63	6.93	-33.9	-48.4	3.8	1.49e+00	0	44	104	1160773632	27	19079
2026-01-19 02:11:34.87	251.55	6.86	-34.1	-48.2	3.8	1.49e+00	0	44	104	1160773632	28	18361

#Closed at: 2026-01-19 02:11:35
#Recorded file [1160 MB]: D:/data/31010_260119_050112.dat