passes_logs/2026/01/19/R2M6_AANII_01/R2M6_AANII_01__20260119_111706_AQUA_rec.log

#Pass ID: 20260119_111706_AQUA
#Satellite: AQUA
#Configuration: AQUA
#almurnet v.1.7.20240730
#Start time: 2026-01-19 11:17:06

#Version: 2.2.20231116
#Station: R2M6_AANII_01
#Location: 30.233357 lon 59.946436 lat
#TLE: 1 27424U 02022A   26017.96925465  .00000866  00000+0  18326-3 0  9999
#TLE: 2 27424  98.4087 344.4465 0002004  74.6027 356.0068 14.61826972261327

#Time	Az	El	Level	Level2	SNR	BER	BlckErr	Temp	State	Recorded	gain1	gain2
2026-01-19 11:17:06.90	134.59	7.03	-32.2	-39.3	5.0	7.15e-01	0	43	0	0	26	8120
2026-01-19 11:17:07.90	134.54	7.11	-32.1	-38.7	5.0	7.09e-01	0	43	104	0	26	7738
2026-01-19 11:17:08.90	134.49	7.19	-32.0	-37.7	13.2	6.09e-01	0	43	0	0	26	6956
2026-01-19 11:17:09.91	134.44	7.27	-32.0	-37.8	13.2	6.09e-01	0	43	0	1572864	26	7031
2026-01-19 11:17:10.91	134.39	7.35	-31.9	-37.6	13.3	6.10e-01	0	43	0	3670016	26	6914
2026-01-19 11:17:11.91	134.34	7.43	-31.8	-37.7	13.6	6.09e-01	0	43	0	5242880	25	7078
2026-01-19 11:17:12.91	134.29	7.51	-31.8	-37.7	13.5	6.10e-01	0	43	0	7340032	25	7132
2026-01-19 11:17:13.91	134.24	7.59	-31.6	-36.8	14.2	6.07e-01	0	43	0	9437184	25	6594
2026-01-19 11:17:14.92	134.18	7.67	-31.3	-36.2	15.1	6.07e-01	0	43	0	11010048	24	6332
2026-01-19 11:17:15.92	134.13	7.76	-31.0	-35.3	15.8	6.08e-01	0	43	0	13107200	24	5874
2026-01-19 11:17:16.92	134.08	7.84	-30.9	-35.2	16.2	6.05e-01	0	43	0	14680064	23	5948
2026-01-19 11:17:17.92	134.03	7.92	-30.7	-34.6	16.7	6.07e-01	0	43	0	16777216	23	5624
2026-01-19 11:17:18.92	133.97	8.00	-30.6	-34.1	17.1	6.06e-01	0	43	0	18350080	23	5412
2026-01-19 11:17:19.93	133.92	8.08	-30.6	-34.0	17.2	6.04e-01	0	43	0	20447232	23	5377
2026-01-19 11:17:20.93	133.87	8.17	-30.5	-33.8	17.4	6.06e-01	0	43	0	22544384	23	5263
2026-01-19 11:17:21.94	133.81	8.25	-30.5	-34.0	17.2	6.07e-01	0	43	0	24117248	23	5367
2026-01-19 11:17:22.93	133.76	8.33	-30.5	-33.8	17.4	6.05e-01	0	43	0	26214400	23	5267
2026-01-19 11:17:23.93	133.70	8.42	-30.6	-34.0	17.3	6.07e-01	0	43	0	27787264	23	5327
2026-01-19 11:17:24.93	133.65	8.50	-30.5	-33.8	17.3	6.07e-01	0	43	0	29884416	23	5274
2026-01-19 11:17:25.94	133.59	8.59	-30.5	-33.7	17.4	6.08e-01	0	43	0	31457280	23	5218
2026-01-19 11:17:26.95	133.53	8.67	-30.5	-33.7	17.4	6.06e-01	0	43	0	33554432	23	5219
2026-01-19 11:17:27.95	133.48	8.76	-30.5	-33.6	17.5	6.06e-01	0	43	0	35651584	23	5178
2026-01-19 11:17:28.94	133.42	8.84	-30.5	-33.7	17.5	6.06e-01	0	43	0	37224448	23	5200
2026-01-19 11:17:29.95	133.36	8.93	-30.5	-33.7	17.5	6.05e-01	0	43	0	39321600	23	5203
2026-01-19 11:17:30.95	133.31	9.01	-30.5	-33.7	17.5	6.08e-01	0	43	0	40894464	23	5210
2026-01-19 11:17:31.95	133.25	9.10	-30.6	-34.0	17.4	6.08e-01	0	43	0	42991616	23	5315
2026-01-19 11:17:32.96	133.19	9.19	-30.6	-33.8	17.5	6.07e-01	0	43	0	45088768	23	5233
2026-01-19 11:17:33.96	133.13	9.27	-30.5	-33.7	17.6	6.06e-01	0	43	0	46661632	23	5189
2026-01-19 11:17:34.97	133.07	9.36	-30.4	-33.4	17.8	6.08e-01	0	43	0	48758784	23	5052
2026-01-19 11:17:35.97	133.01	9.45	-30.4	-33.4	17.8	6.07e-01	0	43	0	50331648	23	5048
2026-01-19 11:17:36.97	132.95	9.53	-30.5	-33.5	17.8	6.05e-01	0	43	0	52428800	23	5085
2026-01-19 11:17:37.98	132.89	9.62	-30.7	-33.9	17.6	6.08e-01	0	43	0	54525952	23	5213
2026-01-19 11:17:38.97	132.83	9.71	-30.5	-33.3	17.9	6.05e-01	0	43	0	56098816	23	5010
2026-01-19 11:17:39.98	132.77	9.80	-30.4	-33.2	18.0	6.06e-01	0	43	0	58195968	23	4959
2026-01-19 11:17:40.98	132.71	9.89	-30.5	-33.4	17.9	6.07e-01	0	43	0	59768832	23	5027
2026-01-19 11:17:41.99	132.65	9.98	-30.4	-33.7	18.1	6.07e-01	0	43	0	61865984	22	5246
2026-01-19 11:17:42.98	132.59	10.07	-30.5	-33.9	17.9	6.06e-01	0	43	0	63438848	22	5321
2026-01-19 11:17:43.98	132.52	10.16	-30.4	-33.7	18.0	6.06e-01	0	43	0	65536000	22	5270
2026-01-19 11:17:44.98	132.46	10.25	-30.4	-33.7	18.0	6.08e-01	0	43	0	67633152	22	5265
2026-01-19 11:17:45.99	132.40	10.34	-30.5	-34.0	17.8	6.06e-01	0	43	0	69206016	22	5395
2026-01-19 11:17:47.00	132.33	10.43	-30.4	-33.8	18.0	6.06e-01	0	43	0	71303168	22	5310
2026-01-19 11:17:48.00	132.27	10.52	-30.2	-33.3	18.2	6.07e-01	0	43	0	72876032	22	5140
2026-01-19 11:17:49.00	132.20	10.61	-30.2	-33.3	18.2	6.07e-01	0	43	0	74973184	22	5149
2026-01-19 11:17:50.00	132.14	10.70	-30.3	-33.6	18.1	6.06e-01	0	44	0	76546048	22	5244
2026-01-19 11:17:51.00	132.07	10.80	-30.2	-33.4	18.2	6.06e-01	0	43	0	78643200	22	5172
2026-01-19 11:17:52.01	132.00	10.89	-30.2	-33.2	18.3	6.07e-01	0	43	0	80740352	22	5120
2026-01-19 11:17:53.00	131.94	10.98	-30.3	-33.6	18.1	6.06e-01	0	43	0	82313216	22	5246
2026-01-19 11:17:54.01	131.87	11.08	-30.3	-33.5	18.2	6.07e-01	0	43	0	84410368	22	5202
2026-01-19 11:17:55.01	131.80	11.17	-30.3	-33.4	18.2	6.06e-01	0	43	0	86507520	22	5169
2026-01-19 11:17:56.02	131.73	11.26	-30.4	-33.6	18.1	6.08e-01	0	43	0	88080384	22	5238
2026-01-19 11:17:57.03	131.66	11.36	-30.3	-33.4	18.3	6.05e-01	0	43	0	90177536	22	5158
2026-01-19 11:17:58.03	131.59	11.45	-30.3	-33.5	18.2	6.09e-01	0	43	0	91750400	22	5189
2026-01-19 11:17:59.03	131.52	11.55	-30.3	-33.5	18.3	6.08e-01	0	43	0	93847552	22	5160
2026-01-19 11:18:00.04	131.45	11.65	-30.5	-33.8	18.1	6.05e-01	0	44	0	95420416	22	5264
2026-01-19 11:18:01.04	131.38	11.74	-30.4	-33.4	18.3	6.08e-01	0	44	0	97517568	22	5137
2026-01-19 11:18:02.04	131.31	11.84	-30.4	-33.5	18.3	6.07e-01	0	44	0	99614720	22	5137
2026-01-19 11:18:03.04	131.24	11.93	-30.4	-33.4	18.4	6.07e-01	0	43	0	101187584	22	5120
2026-01-19 11:18:04.04	131.17	12.03	-30.4	-33.6	18.3	6.05e-01	0	44	0	103284736	22	5183
2026-01-19 11:18:05.05	131.09	12.13	-30.5	-33.9	18.1	6.05e-01	0	44	0	104857600	22	5292
2026-01-19 11:18:06.05	131.02	12.23	-30.4	-33.5	18.3	6.06e-01	0	43	0	106954752	22	5150
2026-01-19 11:18:07.06	130.95	12.33	-30.3	-33.4	18.4	6.06e-01	0	43	0	109051904	22	5135
2026-01-19 11:18:08.06	130.87	12.43	-30.3	-33.3	18.5	6.06e-01	0	43	0	110624768	22	5082
2026-01-19 11:18:09.06	130.80	12.52	-30.4	-33.5	18.2	6.06e-01	0	43	0	112721920	22	5188
2026-01-19 11:18:10.06	130.72	12.62	-30.3	-33.3	18.4	6.08e-01	0	43	0	114294784	22	5094
2026-01-19 11:18:11.07	130.64	12.72	-30.4	-33.7	18.1	6.06e-01	0	43	0	116391936	22	5246
2026-01-19 11:18:12.07	130.57	12.82	-30.1	-32.9	18.6	6.04e-01	0	44	0	118489088	22	4975
2026-01-19 11:18:13.07	130.49	12.92	-30.0	-32.7	18.8	6.06e-01	0	44	0	120061952	22	4887
2026-01-19 11:18:14.07	130.41	13.03	-30.0	-32.8	18.7	6.09e-01	0	43	0	122159104	22	4926
2026-01-19 11:18:15.08	130.33	13.13	-30.0	-32.7	18.8	6.06e-01	0	43	0	123731968	22	4910
2026-01-19 11:18:16.08	130.25	13.23	-30.0	-32.7	18.8	6.08e-01	0	43	0	125829120	22	4889
2026-01-19 11:18:17.09	130.17	13.33	-30.0	-32.7	18.8	6.07e-01	0	43	0	127401984	22	4885
2026-01-19 11:18:18.10	130.09	13.44	-30.0	-32.6	18.8	6.06e-01	0	44	0	129499136	22	4871
2026-01-19 11:18:19.10	130.01	13.54	-30.2	-33.2	18.5	6.07e-01	0	44	0	131596288	22	5058
2026-01-19 11:18:20.11	129.93	13.64	-30.1	-32.8	18.8	6.08e-01	0	43	0	133169152	22	4899
2026-01-19 11:18:21.11	129.84	13.75	-30.0	-32.6	18.9	6.08e-01	0	44	0	135266304	22	4824
2026-01-19 11:18:22.11	129.76	13.85	-30.1	-32.7	18.8	6.07e-01	0	44	0	136839168	22	4873
2026-01-19 11:18:23.11	129.68	13.96	-30.2	-33.0	18.6	6.06e-01	0	44	0	138936320	22	4968
2026-01-19 11:18:24.12	129.59	14.06	-30.1	-32.6	19.0	6.05e-01	0	44	0	141033472	22	4833
2026-01-19 11:18:25.11	129.51	14.17	-30.2	-32.8	18.9	6.06e-01	0	43	0	142606336	22	4890
2026-01-19 11:18:26.12	129.42	14.28	-30.1	-32.7	19.0	6.06e-01	0	44	0	144703488	22	4847
2026-01-19 11:18:27.12	129.34	14.38	-30.2	-32.8	19.0	6.08e-01	0	43	0	146276352	22	4883
2026-01-19 11:18:28.12	129.25	14.49	-30.1	-32.7	19.1	6.07e-01	0	43	0	148373504	22	4838
2026-01-19 11:18:29.12	129.16	14.60	-30.1	-32.7	19.1	6.06e-01	0	44	0	150470656	22	4829
2026-01-19 11:18:30.13	129.07	14.71	-30.2	-33.0	18.9	6.08e-01	0	43	0	152043520	22	4925
2026-01-19 11:18:31.13	128.98	14.81	-30.0	-32.5	19.2	6.06e-01	0	44	0	154140672	22	4789
2026-01-19 11:18:32.13	128.89	14.92	-30.2	-33.0	18.9	6.05e-01	0	44	0	155713536	22	4962
2026-01-19 11:18:33.13	128.80	15.03	-30.0	-32.4	19.2	6.05e-01	0	44	0	157810688	22	4794
2026-01-19 11:18:34.14	128.71	15.14	-29.8	-32.7	19.3	6.08e-01	0	44	0	159383552	21	5002
2026-01-19 11:18:35.14	128.62	15.25	-29.9	-32.8	19.2	6.06e-01	0	44	0	161480704	21	5078
2026-01-19 11:18:36.15	128.53	15.37	-29.7	-32.6	19.3	6.06e-01	0	43	0	163577856	21	5010
2026-01-19 11:18:37.16	128.43	15.48	-29.7	-32.5	19.3	6.07e-01	0	44	0	165150720	21	5001
2026-01-19 11:18:38.16	128.34	15.59	-29.6	-32.4	19.4	6.08e-01	0	44	0	167247872	21	4953
2026-01-19 11:18:39.15	128.24	15.70	-29.6	-32.4	19.4	6.07e-01	0	44	0	168820736	21	4977
2026-01-19 11:18:40.16	128.15	15.82	-29.6	-32.4	19.4	6.05e-01	0	44	0	170917888	21	4947
2026-01-19 11:18:41.16	128.05	15.93	-29.6	-32.2	19.6	6.06e-01	0	44	0	173015040	21	4892
2026-01-19 11:18:42.17	127.95	16.04	-29.6	-32.4	19.5	6.05e-01	0	44	0	174587904	21	4917
2026-01-19 11:18:43.17	127.85	16.16	-29.7	-32.4	19.5	6.05e-01	0	44	0	176685056	21	4915
2026-01-19 11:18:44.17	127.75	16.27	-29.8	-32.7	19.4	6.08e-01	0	44	0	178257920	21	4986
2026-01-19 11:18:45.18	127.65	16.39	-29.9	-32.9	19.3	6.06e-01	0	44	0	180355072	21	5050
2026-01-19 11:18:46.18	127.55	16.51	-29.9	-32.7	19.5	6.06e-01	0	44	0	181927936	21	4972
2026-01-19 11:18:47.18	127.45	16.62	-30.0	-32.8	19.4	6.06e-01	0	44	0	184025088	21	4994
2026-01-19 11:18:48.18	127.35	16.74	-30.1	-33.0	19.4	6.07e-01	0	44	0	186122240	21	5044
2026-01-19 11:18:49.18	127.24	16.86	-30.2	-33.4	19.1	6.06e-01	0	44	0	187695104	21	5165
2026-01-19 11:18:50.19	127.14	16.98	-30.1	-33.1	19.3	6.06e-01	0	44	0	189792256	21	5082
2026-01-19 11:18:51.19	127.03	17.09	-30.1	-32.9	19.4	6.06e-01	0	44	0	191365120	21	5014
2026-01-19 11:18:52.19	126.93	17.21	-30.1	-32.9	19.4	6.07e-01	0	44	0	193462272	21	5017
2026-01-19 11:18:53.19	126.82	17.33	-30.0	-32.8	19.4	6.07e-01	0	44	0	195559424	21	4984
2026-01-19 11:18:54.19	126.71	17.45	-30.1	-33.2	19.2	6.05e-01	0	44	0	197132288	21	5129
2026-01-19 11:18:55.20	126.60	17.57	-30.0	-32.8	19.4	6.06e-01	0	44	0	199229440	21	4984
2026-01-19 11:18:56.20	126.49	17.70	-30.0	-32.8	19.5	6.07e-01	0	44	0	200802304	21	4999
2026-01-19 11:18:57.20	126.38	17.82	-30.0	-32.9	19.4	6.05e-01	0	43	0	202899456	21	5003
2026-01-19 11:18:58.20	126.27	17.94	-30.0	-32.9	19.4	6.06e-01	0	44	0	204472320	21	5017
2026-01-19 11:18:59.20	126.16	18.06	-30.0	-32.8	19.4	6.04e-01	0	44	0	206569472	21	5002
2026-01-19 11:19:00.21	126.04	18.19	-30.0	-33.0	19.4	6.08e-01	0	44	0	208666624	21	5074
2026-01-19 11:19:01.21	125.93	18.31	-30.1	-33.0	19.4	6.05e-01	0	44	0	210239488	21	5072
2026-01-19 11:19:02.21	125.81	18.44	-30.0	-33.0	19.4	6.05e-01	0	44	0	212336640	21	5054
2026-01-19 11:19:03.22	125.70	18.56	-30.1	-33.0	19.4	6.06e-01	0	44	0	213909504	21	5031
2026-01-19 11:19:04.22	125.58	18.69	-30.2	-33.2	19.3	6.05e-01	0	44	0	216006656	21	5120
2026-01-19 11:19:05.22	125.46	18.81	-30.3	-33.5	19.2	6.08e-01	0	44	0	218103808	21	5200
2026-01-19 11:19:06.22	125.34	18.94	-30.2	-33.3	19.3	6.06e-01	0	44	0	219676672	21	5112
2026-01-19 11:19:07.22	125.22	19.07	-30.3	-33.4	19.3	6.06e-01	0	44	0	221773824	21	5153
2026-01-19 11:19:08.22	125.10	19.20	-30.3	-33.4	19.3	6.07e-01	0	44	0	223346688	21	5145
2026-01-19 11:19:09.22	124.97	19.33	-30.3	-33.4	19.3	6.06e-01	0	44	0	225443840	21	5157
2026-01-19 11:19:10.21	124.85	19.45	-30.3	-33.5	19.2	6.04e-01	0	44	0	227016704	21	5207
2026-01-19 11:19:11.20	124.73	19.58	-30.2	-33.0	19.5	6.05e-01	0	44	0	229113856	21	5019
2026-01-19 11:19:12.19	124.60	19.71	-30.1	-33.0	19.6	6.08e-01	0	44	0	230686720	21	4996
2026-01-19 11:19:13.19	124.47	19.84	-30.2	-33.1	19.5	6.05e-01	0	44	0	232783872	21	5042
2026-01-19 11:19:14.18	124.35	19.97	-30.2	-33.2	19.4	6.07e-01	0	44	0	234881024	21	5074
2026-01-19 11:19:15.18	124.22	20.11	-30.2	-33.2	19.4	6.07e-01	0	44	0	236453888	21	5087
2026-01-19 11:19:16.18	124.08	20.24	-30.1	-33.0	19.5	6.06e-01	0	44	0	238551040	21	5018
2026-01-19 11:19:17.18	123.95	20.37	-30.1	-33.0	19.6	6.04e-01	0	44	0	240123904	21	5010
2026-01-19 11:19:18.18	123.82	20.51	-30.1	-33.0	19.6	6.06e-01	0	44	0	242221056	21	5015
2026-01-19 11:19:19.19	123.68	20.64	-30.2	-33.2	19.4	6.06e-01	0	44	0	243793920	21	5087
2026-01-19 11:19:20.20	123.54	20.78	-30.1	-33.0	19.6	6.05e-01	0	44	0	245891072	21	4990
2026-01-19 11:19:21.20	123.41	20.92	-30.1	-32.9	19.7	6.07e-01	0	44	0	247988224	21	4953
2026-01-19 11:19:22.20	123.27	21.05	-30.1	-33.0	19.6	6.08e-01	0	44	0	249561088	21	4986
2026-01-19 11:19:23.20	123.13	21.19	-30.1	-33.0	19.6	6.07e-01	0	44	0	251658240	21	4999
2026-01-19 11:19:24.21	122.98	21.33	-30.3	-33.3	19.4	6.08e-01	0	44	0	253755392	21	5094
2026-01-19 11:19:25.21	122.84	21.47	-30.2	-33.2	19.5	6.07e-01	0	44	0	255328256	21	5055
2026-01-19 11:19:26.21	122.70	21.61	-30.3	-33.3	19.4	6.08e-01	0	44	0	257425408	21	5113
2026-01-19 11:19:27.21	122.55	21.75	-30.6	-34.0	19.0	6.05e-01	0	44	0	258998272	21	5351
2026-01-19 11:19:28.21	122.40	21.89	-30.5	-33.9	19.1	6.05e-01	0	44	0	261095424	21	5335
2026-01-19 11:19:29.21	122.25	22.03	-30.5	-33.9	19.2	6.05e-01	0	44	0	262668288	21	5300
2026-01-19 11:19:30.22	122.10	22.17	-30.5	-33.8	19.2	6.06e-01	0	44	0	264765440	21	5297
2026-01-19 11:19:31.21	121.95	22.31	-30.5	-33.8	19.2	6.06e-01	0	44	0	266862592	21	5276
2026-01-19 11:19:32.22	121.80	22.46	-30.5	-33.8	19.2	6.08e-01	0	44	0	268435456	21	5289
2026-01-19 11:19:33.22	121.64	22.60	-30.5	-33.8	19.2	6.06e-01	0	44	0	270532608	21	5259
2026-01-19 11:19:34.23	121.49	22.75	-30.4	-33.7	19.2	6.05e-01	0	44	0	272105472	21	5252
2026-01-19 11:19:35.23	121.33	22.89	-30.4	-33.6	19.3	6.06e-01	0	44	0	274202624	21	5220
2026-01-19 11:19:36.23	121.17	23.04	-30.5	-33.8	19.2	6.06e-01	0	44	0	275775488	21	5280
2026-01-19 11:19:37.24	121.01	23.19	-30.5	-34.0	19.0	6.04e-01	0	44	0	277872640	21	5357
2026-01-19 11:19:38.23	120.85	23.33	-30.4	-33.5	19.3	6.06e-01	0	44	0	279969792	21	5185
2026-01-19 11:19:39.24	120.68	23.48	-30.3	-33.3	19.5	6.04e-01	0	44	0	281542656	21	5104
2026-01-19 11:19:40.24	120.51	23.63	-30.3	-33.3	19.5	6.06e-01	0	44	0	283639808	21	5079
2026-01-19 11:19:41.24	120.35	23.78	-30.3	-33.4	19.4	6.08e-01	0	44	0	285212672	21	5140
2026-01-19 11:19:42.24	120.18	23.93	-30.3	-33.4	19.4	6.06e-01	0	44	0	287309824	21	5138
2026-01-19 11:19:43.25	120.01	24.08	-30.5	-33.8	19.2	6.10e-01	0	44	0	289406976	21	5276
2026-01-19 11:19:44.24	119.83	24.23	-30.5	-33.8	19.2	6.09e-01	0	44	0	290979840	21	5284
2026-01-19 11:19:45.25	119.66	24.39	-30.7	-33.9	18.9	6.07e-01	0	44	0	293076992	22	5175
2026-01-19 11:19:46.25	119.48	24.54	-30.8	-34.1	18.7	6.05e-01	0	44	0	294649856	22	5276
2026-01-19 11:19:47.25	119.30	24.69	-30.6	-33.6	19.1	6.08e-01	0	44	0	296747008	22	5077
2026-01-19 11:19:48.25	119.12	24.85	-30.4	-33.1	19.4	6.06e-01	0	44	0	298319872	22	4915
2026-01-19 11:19:49.25	118.94	25.00	-30.4	-33.0	19.4	6.08e-01	0	44	0	300417024	22	4878
2026-01-19 11:19:50.25	118.76	25.16	-30.4	-33.1	19.4	6.06e-01	0	44	0	302514176	22	4914
2026-01-19 11:19:51.25	118.57	25.31	-30.4	-33.1	19.4	6.08e-01	0	44	0	304087040	22	4902
2026-01-19 11:19:52.26	118.38	25.47	-30.4	-33.1	19.4	6.06e-01	0	44	0	306184192	22	4904
2026-01-19 11:19:53.27	118.19	25.63	-30.4	-33.2	19.3	6.05e-01	0	44	0	307757056	22	4941
2026-01-19 11:19:54.27	118.00	25.79	-30.4	-33.2	19.3	6.06e-01	0	44	0	309854208	22	4934
2026-01-19 11:19:55.27	117.81	25.95	-30.3	-32.8	19.5	6.05e-01	0	44	0	311951360	22	4802
2026-01-19 11:19:56.27	117.61	26.11	-30.2	-32.6	19.7	6.08e-01	0	44	0	313524224	22	4722
2026-01-19 11:19:57.28	117.41	26.27	-30.2	-32.6	19.7	6.07e-01	0	44	0	315621376	22	4727
2026-01-19 11:19:58.28	117.21	26.43	-30.2	-32.5	19.8	6.06e-01	0	44	0	317194240	22	4702
2026-01-19 11:19:59.28	117.01	26.59	-30.2	-32.5	19.8	6.05e-01	0	44	0	319291392	22	4715
2026-01-19 11:20:00.28	116.81	26.75	-30.3	-32.7	19.7	6.08e-01	0	44	0	320864256	22	4772
2026-01-19 11:20:01.29	116.60	26.92	-30.3	-32.9	19.5	6.06e-01	0	44	0	322961408	22	4837
2026-01-19 11:20:02.29	116.39	27.08	-30.2	-32.6	19.8	6.06e-01	0	44	0	325058560	22	4722
2026-01-19 11:20:03.30	116.18	27.25	-30.2	-32.5	19.8	6.05e-01	0	44	0	326631424	22	4712
2026-01-19 11:20:04.30	115.97	27.41	-30.3	-32.8	19.7	6.10e-01	0	44	0	328728576	22	4788
2026-01-19 11:20:05.30	115.75	27.58	-30.3	-32.9	19.6	6.06e-01	0	44	0	330301440	22	4820
2026-01-19 11:20:06.30	115.53	27.74	-30.3	-32.8	19.6	6.08e-01	0	44	0	332398592	22	4818
2026-01-19 11:20:07.30	115.31	27.91	-30.2	-32.5	19.8	6.07e-01	0	44	0	334495744	22	4695
2026-01-19 11:20:08.31	115.09	28.08	-30.0	-32.1	20.1	6.07e-01	0	44	0	336068608	22	4554
2026-01-19 11:20:09.31	114.86	28.24	-30.0	-32.1	20.1	6.05e-01	0	44	0	338165760	22	4568
2026-01-19 11:20:10.31	114.64	28.41	-30.1	-32.2	20.0	6.07e-01	0	44	0	339738624	22	4592
2026-01-19 11:20:11.31	114.41	28.58	-30.0	-32.0	20.2	6.07e-01	0	44	0	341835776	22	4513
2026-01-19 11:20:12.32	114.17	28.75	-30.0	-31.9	20.2	6.08e-01	0	44	0	343932928	22	4499
2026-01-19 11:20:13.32	113.94	28.92	-30.0	-31.9	20.2	6.07e-01	0	44	0	345505792	22	4511
2026-01-19 11:20:14.31	113.70	29.09	-30.0	-32.1	20.2	6.06e-01	0	44	0	347602944	22	4545
2026-01-19 11:20:15.32	113.46	29.27	-30.1	-32.3	20.0	6.07e-01	0	44	0	349175808	22	4611
2026-01-19 11:20:16.32	113.21	29.44	-30.2	-32.5	19.9	6.09e-01	0	44	0	351272960	22	4680
2026-01-19 11:20:17.33	112.97	29.61	-30.1	-32.3	20.0	6.06e-01	0	44	0	352845824	22	4609
2026-01-19 11:20:18.33	112.72	29.78	-30.0	-32.1	20.1	6.08e-01	0	44	0	354942976	22	4551
2026-01-19 11:20:19.33	112.47	29.96	-29.9	-31.8	20.3	6.07e-01	0	44	0	357040128	22	4458
2026-01-19 11:20:20.33	112.21	30.13	-29.8	-32.0	20.5	6.07e-01	0	44	0	358612992	21	4625
2026-01-19 11:20:21.34	111.95	30.31	-29.8	-31.9	20.5	6.05e-01	0	44	0	360710144	21	4609
2026-01-19 11:20:22.34	111.69	30.48	-29.9	-32.1	20.5	6.06e-01	0	44	0	362283008	21	4651
2026-01-19 11:20:23.34	111.43	30.66	-29.9	-32.2	20.4	6.05e-01	0	44	0	364380160	21	4683
2026-01-19 11:20:24.33	111.17	30.83	-30.0	-32.3	20.3	6.06e-01	0	44	0	365953024	21	4723
2026-01-19 11:20:25.34	110.89	31.01	-30.0	-32.4	20.3	6.08e-01	0	44	0	368050176	21	4750
2026-01-19 11:20:26.34	110.62	31.19	-29.9	-32.2	20.4	6.06e-01	0	44	0	370147328	21	4700
2026-01-19 11:20:27.35	110.34	31.37	-29.8	-31.9	20.6	6.07e-01	0	44	0	371720192	21	4601
2026-01-19 11:20:28.36	110.06	31.55	-29.8	-32.0	20.5	6.07e-01	0	44	0	373817344	21	4625
2026-01-19 11:20:29.36	109.78	31.72	-30.0	-32.3	20.3	6.06e-01	0	44	0	375914496	21	4732
2026-01-19 11:20:30.36	109.50	31.90	-29.9	-32.3	20.3	6.07e-01	0	44	0	377487360	21	4724
2026-01-19 11:20:31.37	109.21	32.08	-29.9	-32.2	20.4	6.06e-01	0	44	0	379584512	21	4701
2026-01-19 11:20:32.37	108.92	32.26	-29.9	-32.1	20.5	6.07e-01	0	44	0	381157376	21	4664
2026-01-19 11:20:33.37	108.62	32.44	-29.9	-32.2	20.4	6.04e-01	0	44	0	383254528	21	4687
2026-01-19 11:20:34.38	108.32	32.62	-30.0	-32.5	20.2	6.08e-01	0	44	0	384827392	21	4801
2026-01-19 11:20:35.37	108.02	32.80	-30.1	-32.8	20.1	6.07e-01	0	44	0	386924544	21	4875
2026-01-19 11:20:36.38	107.71	32.98	-30.0	-32.4	20.3	6.06e-01	0	44	0	389021696	21	4747
2026-01-19 11:20:37.38	107.40	33.16	-29.9	-32.2	20.5	6.07e-01	0	44	0	390594560	21	4670
2026-01-19 11:20:38.38	107.09	33.35	-30.0	-32.5	20.3	6.07e-01	0	44	0	392691712	21	4776
2026-01-19 11:20:39.39	106.77	33.53	-30.1	-32.8	20.1	6.09e-01	0	44	0	394264576	21	4870
2026-01-19 11:20:40.39	106.45	33.71	-30.2	-33.0	20.0	6.06e-01	0	44	0	396361728	21	4933
2026-01-19 11:20:41.39	106.13	33.89	-30.3	-33.1	19.9	6.04e-01	0	44	0	397934592	21	4998
2026-01-19 11:20:42.39	105.80	34.07	-30.4	-33.3	19.8	6.06e-01	0	44	0	400031744	21	5068
2026-01-19 11:20:43.39	105.47	34.25	-30.3	-33.2	19.9	6.09e-01	0	44	0	402128896	21	5002
2026-01-19 11:20:44.40	105.14	34.44	-30.3	-33.0	20.0	6.06e-01	0	44	0	403701760	21	4953
2026-01-19 11:20:45.40	104.80	34.62	-30.3	-33.1	19.9	6.07e-01	0	44	0	405798912	21	4992
2026-01-19 11:20:46.40	104.46	34.80	-30.4	-33.5	19.8	6.03e-01	0	44	0	407371776	21	5106
2026-01-19 11:20:47.41	104.11	34.98	-30.5	-33.8	19.6	6.07e-01	0	44	0	409468928	21	5225
2026-01-19 11:20:48.41	103.76	35.16	-30.7	-33.6	19.4	6.07e-01	0	44	0	411566080	22	5028
2026-01-19 11:20:49.40	103.40	35.34	-30.7	-33.8	19.3	6.05e-01	0	44	0	413138944	22	5093
2026-01-19 11:20:50.41	103.04	35.53	-30.8	-33.8	19.3	6.05e-01	0	44	0	415236096	22	5128
2026-01-19 11:20:51.42	102.68	35.71	-30.6	-33.4	19.5	6.06e-01	0	44	0	416808960	22	4971
2026-01-19 11:20:52.42	102.31	35.89	-30.7	-33.7	19.3	6.07e-01	0	44	0	418906112	22	5075
2026-01-19 11:20:53.42	101.94	36.07	-30.7	-33.7	19.4	6.05e-01	0	44	0	421003264	22	5079
2026-01-19 11:20:54.42	101.56	36.25	-30.9	-34.3	19.0	6.07e-01	0	44	0	422576128	22	5286
2026-01-19 11:20:55.43	101.18	36.43	-31.2	-34.4	18.6	6.05e-01	0	44	0	424673280	23	5234
2026-01-19 11:20:56.43	100.80	36.61	-31.0	-34.0	18.9	6.07e-01	0	44	0	426246144	23	5067
2026-01-19 11:20:57.44	100.41	36.79	-30.9	-33.8	19.0	6.09e-01	0	44	0	428343296	23	4985
2026-01-19 11:20:58.45	100.01	36.97	-30.9	-33.6	19.1	6.07e-01	0	44	0	429916160	23	4926
2026-01-19 11:20:59.45	99.61	37.15	-31.0	-33.8	19.0	6.06e-01	0	44	0	432013312	23	5013
2026-01-19 11:21:00.46	99.21	37.33	-31.2	-34.4	18.6	6.06e-01	0	44	0	434110464	23	5226
2026-01-19 11:21:01.46	98.80	37.51	-31.2	-34.6	18.5	6.07e-01	0	44	0	435683328	23	5282
2026-01-19 11:21:02.46	98.39	37.68	-31.2	-34.5	18.6	6.06e-01	0	44	0	437780480	23	5236
2026-01-19 11:21:03.47	97.97	37.86	-31.4	-34.9	18.4	6.05e-01	0	44	0	439877632	23	5413
2026-01-19 11:21:04.47	97.55	38.04	-31.5	-34.8	18.1	6.06e-01	0	44	0	441450496	24	5266
2026-01-19 11:21:05.47	97.13	38.21	-31.2	-34.0	18.6	6.07e-01	0	44	0	443547648	24	4943
2026-01-19 11:21:06.48	96.69	38.38	-31.2	-33.9	18.7	6.04e-01	0	44	0	445120512	24	4911
2026-01-19 11:21:07.49	96.26	38.56	-31.4	-34.4	18.4	6.07e-01	0	44	0	447217664	24	5112
2026-01-19 11:21:08.48	95.82	38.73	-31.4	-34.4	18.4	6.06e-01	0	44	0	448790528	24	5099
2026-01-19 11:21:09.48	95.38	38.90	-31.4	-34.4	18.4	6.07e-01	0	44	0	450887680	24	5103
2026-01-19 11:21:10.49	94.93	39.07	-31.4	-34.6	18.3	6.05e-01	0	44	0	452984832	24	5168
2026-01-19 11:21:11.49	94.47	39.24	-31.4	-34.5	18.3	6.05e-01	0	44	0	454557696	24	5133
2026-01-19 11:21:12.50	94.01	39.41	-31.4	-34.5	18.3	6.05e-01	0	44	0	456654848	24	5143
2026-01-19 11:21:13.50	93.55	39.57	-31.5	-34.7	18.2	6.05e-01	0	44	0	458227712	24	5211
2026-01-19 11:21:14.50	93.08	39.74	-31.4	-34.5	18.3	6.05e-01	0	44	0	460324864	24	5148
2026-01-19 11:21:15.50	92.61	39.90	-31.3	-34.1	18.6	6.05e-01	0	44	0	461897728	24	5005
2026-01-19 11:21:16.51	92.13	40.06	-31.5	-34.7	18.3	6.06e-01	0	44	0	463994880	24	5200
2026-01-19 11:21:17.52	91.64	40.23	-31.4	-34.5	18.3	6.04e-01	0	44	0	466092032	24	5139
2026-01-19 11:21:18.52	91.16	40.38	-31.4	-34.4	18.4	6.06e-01	0	44	0	467664896	24	5093
2026-01-19 11:21:19.52	90.66	40.54	-31.3	-34.2	18.5	6.07e-01	0	44	0	469762048	24	5009
2026-01-19 11:21:20.52	90.17	40.70	-31.2	-33.9	18.7	6.07e-01	0	44	0	471334912	24	4915
2026-01-19 11:21:21.53	89.66	40.85	-31.2	-33.9	18.8	6.06e-01	0	44	0	473432064	24	4898
2026-01-19 11:21:22.52	89.16	41.00	-31.1	-33.7	18.8	6.05e-01	0	44	0	475529216	24	4855
2026-01-19 11:21:23.52	88.65	41.15	-31.2	-34.0	18.7	6.05e-01	0	44	0	477102080	24	4942
2026-01-19 11:21:24.52	88.13	41.30	-31.3	-34.1	18.6	6.06e-01	0	44	0	479199232	24	4989
2026-01-19 11:21:25.53	87.61	41.45	-31.2	-33.8	18.8	6.05e-01	0	44	0	480772096	24	4882
2026-01-19 11:21:26.53	87.08	41.59	-31.3	-34.1	18.6	6.06e-01	0	44	0	482869248	24	4990
2026-01-19 11:21:27.54	86.55	41.74	-31.1	-33.7	18.9	6.05e-01	0	44	0	484966400	24	4840
2026-01-19 11:21:28.54	86.01	41.88	-31.1	-33.6	18.9	6.07e-01	0	44	0	486539264	24	4803
2026-01-19 11:21:29.54	85.47	42.01	-31.0	-33.5	19.0	6.07e-01	0	44	0	488636416	24	4773
2026-01-19 11:21:30.54	84.93	42.15	-31.1	-33.6	18.9	6.06e-01	0	44	0	490209280	24	4818
2026-01-19 11:21:31.54	84.38	42.28	-31.2	-33.9	18.7	6.06e-01	0	44	0	492306432	24	4905
2026-01-19 11:21:32.55	83.82	42.41	-30.8	-33.5	19.2	6.05e-01	0	44	0	493879296	23	4866
2026-01-19 11:21:33.55	83.26	42.54	-30.9	-33.7	19.1	6.06e-01	0	44	0	495976448	23	4968
2026-01-19 11:21:34.54	82.70	42.66	-31.0	-33.9	19.1	6.05e-01	0	44	0	498073600	23	5014
2026-01-19 11:21:35.54	82.14	42.79	-31.1	-34.1	18.9	6.05e-01	0	44	0	499646464	23	5080
2026-01-19 11:21:36.55	81.56	42.91	-30.9	-33.6	19.2	6.08e-01	0	44	0	501743616	23	4909
2026-01-19 11:21:37.55	80.98	43.03	-30.9	-33.5	19.3	6.07e-01	0	44	0	503316480	23	4888
2026-01-19 11:21:38.55	80.40	43.14	-31.0	-34.0	19.0	6.06e-01	0	44	0	505413632	23	5044
2026-01-19 11:21:39.56	79.81	43.25	-31.1	-34.1	18.9	6.05e-01	0	44	0	507510784	23	5110
2026-01-19 11:21:40.56	79.23	43.36	-31.0	-33.8	19.1	6.09e-01	0	44	0	509083648	23	4993
2026-01-19 11:21:41.56	78.63	43.47	-30.8	-33.3	19.4	6.08e-01	0	44	0	511180800	23	4815
2026-01-19 11:21:42.57	78.03	43.57	-30.9	-33.7	19.2	6.05e-01	0	44	0	512753664	23	4937
2026-01-19 11:21:43.57	77.43	43.67	-31.0	-33.9	19.0	6.06e-01	0	44	0	514850816	23	5024
2026-01-19 11:21:44.57	76.83	43.76	-30.9	-33.7	19.1	6.06e-01	0	44	0	516423680	23	4955
2026-01-19 11:21:45.57	76.22	43.86	-31.1	-34.1	18.9	6.08e-01	0	44	0	518520832	23	5112
2026-01-19 11:21:46.58	75.60	43.95	-30.9	-33.6	19.2	6.05e-01	0	44	0	520617984	23	4917
2026-01-19 11:21:47.59	74.98	44.03	-30.9	-33.6	19.2	6.07e-01	0	44	0	522190848	23	4922
2026-01-19 11:21:48.59	74.37	44.11	-31.1	-34.2	18.9	6.07e-01	0	44	0	524288000	23	5117
2026-01-19 11:21:49.59	73.75	44.19	-30.7	-33.1	19.6	6.05e-01	0	44	0	525860864	23	4730
2026-01-19 11:21:50.60	73.12	44.27	-30.9	-33.5	19.3	6.06e-01	0	44	0	527958016	23	4865
2026-01-19 11:21:51.59	72.50	44.34	-30.9	-33.5	19.3	6.07e-01	0	44	0	530055168	23	4883
2026-01-19 11:21:52.59	71.87	44.41	-30.7	-33.0	19.6	6.08e-01	0	44	0	531628032	23	4716
2026-01-19 11:21:53.60	71.23	44.47	-30.9	-33.6	19.3	6.04e-01	0	44	0	533725184	23	4900
2026-01-19 11:21:54.60	70.59	44.53	-30.8	-33.3	19.4	6.06e-01	0	44	0	535298048	23	4809
2026-01-19 11:21:55.59	69.96	44.59	-30.7	-33.1	19.6	6.05e-01	0	44	0	537395200	23	4726
2026-01-19 11:21:56.60	69.32	44.64	-31.0	-33.9	19.1	6.06e-01	0	44	0	538968064	23	5028
2026-01-19 11:21:57.60	68.68	44.69	-31.0	-33.7	19.1	6.04e-01	0	44	0	541065216	23	4959
2026-01-19 11:21:58.60	68.03	44.73	-30.8	-33.3	19.4	6.04e-01	0	44	0	543162368	23	4795
2026-01-19 11:21:59.61	67.38	44.77	-30.6	-32.9	19.7	6.07e-01	0	44	0	544735232	23	4661
2026-01-19 11:22:00.61	66.74	44.81	-30.6	-32.9	19.7	6.08e-01	0	44	0	546832384	23	4673
2026-01-19 11:22:01.61	66.09	44.84	-30.9	-33.6	19.2	6.06e-01	0	44	0	548405248	23	4925
2026-01-19 11:22:02.61	65.44	44.87	-30.7	-33.2	19.5	6.06e-01	0	44	0	550502400	23	4764
2026-01-19 11:22:03.61	64.79	44.90	-30.6	-32.9	19.7	6.08e-01	0	44	0	552599552	23	4670
2026-01-19 11:22:04.61	64.14	44.92	-30.9	-33.7	19.2	6.08e-01	0	44	0	554172416	23	4947
2026-01-19 11:22:05.62	63.48	44.94	-30.9	-33.5	19.3	6.08e-01	0	44	0	556269568	23	4891
2026-01-19 11:22:06.63	62.82	44.95	-30.8	-33.3	19.5	6.05e-01	0	44	0	557842432	23	4803
2026-01-19 11:22:07.63	62.17	44.96	-30.9	-33.5	19.3	6.07e-01	0	44	0	559939584	23	4881
2026-01-19 11:22:08.64	61.51	44.96	-30.6	-32.7	19.8	6.08e-01	0	44	0	562036736	23	4603
2026-01-19 11:22:09.64	60.85	44.96	-30.7	-33.1	19.6	6.06e-01	0	44	0	563609600	23	4733
2026-01-19 11:22:10.65	60.20	44.96	-30.5	-32.5	20.0	6.05e-01	0	44	0	565706752	23	4535
2026-01-19 11:22:11.65	59.54	44.95	-30.5	-32.5	19.9	6.06e-01	0	44	0	567279616	23	4553
2026-01-19 11:22:12.65	58.89	44.94	-30.7	-33.0	19.6	6.05e-01	0	44	0	569376768	23	4688
2026-01-19 11:22:13.65	58.24	44.92	-30.3	-32.6	20.1	6.04e-01	0	44	0	571473920	22	4686
2026-01-19 11:22:14.65	57.59	44.90	-30.7	-33.4	19.7	6.08e-01	0	44	0	573046784	22	4951
2026-01-19 11:22:15.66	56.93	44.88	-30.7	-33.6	19.6	6.06e-01	0	44	0	575143936	22	5012
2026-01-19 11:22:16.66	56.28	44.85	-30.5	-33.1	19.9	6.05e-01	0	44	0	576716800	22	4837
2026-01-19 11:22:17.67	55.63	44.82	-30.7	-33.5	19.6	6.06e-01	0	44	0	578813952	22	4991
2026-01-19 11:22:18.67	54.98	44.78	-30.7	-33.5	19.6	6.06e-01	0	44	0	580386816	22	4980
2026-01-19 11:22:19.67	54.34	44.74	-30.5	-33.1	19.9	6.06e-01	0	44	0	582483968	22	4851
2026-01-19 11:22:20.68	53.69	44.70	-30.8	-33.7	19.5	6.05e-01	0	44	0	584581120	22	5052
2026-01-19 11:22:21.68	53.05	44.65	-30.7	-33.5	19.6	6.08e-01	0	44	0	586153984	22	4982
2026-01-19 11:22:22.69	52.40	44.60	-30.8	-33.8	19.5	6.04e-01	0	44	0	588251136	22	5071
2026-01-19 11:22:23.69	51.76	44.54	-30.5	-33.1	19.8	6.04e-01	0	44	0	589824000	22	4852
2026-01-19 11:22:24.69	51.13	44.48	-30.4	-32.8	20.0	6.03e-01	0	44	0	591921152	22	4758
2026-01-19 11:22:25.69	50.50	44.42	-30.4	-32.9	20.0	6.06e-01	0	44	0	593494016	22	4783
2026-01-19 11:22:26.70	49.86	44.35	-30.4	-32.9	20.0	6.07e-01	0	44	0	595591168	22	4774
2026-01-19 11:22:27.70	49.24	44.28	-30.4	-32.7	20.1	6.05e-01	0	44	0	597688320	22	4715
2026-01-19 11:22:28.70	48.61	44.21	-30.3	-32.5	20.3	6.06e-01	0	44	0	599261184	22	4636
2026-01-19 11:22:29.70	47.99	44.13	-30.5	-33.0	20.0	6.05e-01	0	44	0	601358336	22	4803
2026-01-19 11:22:30.71	47.37	44.05	-30.3	-32.6	20.2	6.04e-01	0	44	0	603455488	22	4676
2026-01-19 11:22:31.70	46.76	43.96	-30.4	-32.9	20.0	6.05e-01	0	44	0	605028352	22	4777
2026-01-19 11:22:32.70	46.15	43.87	-30.4	-32.8	20.0	6.07e-01	0	44	0	607125504	22	4754
2026-01-19 11:22:33.70	45.54	43.78	-30.3	-32.7	20.1	6.07e-01	0	44	0	608698368	22	4696
2026-01-19 11:22:34.70	44.94	43.69	-30.6	-33.2	19.8	6.06e-01	0	44	0	610795520	22	4893
2026-01-19 11:22:35.70	44.34	43.59	-30.4	-32.8	20.1	6.05e-01	0	44	0	612368384	22	4740
2026-01-19 11:22:36.70	43.74	43.49	-30.6	-33.3	19.8	6.07e-01	0	44	0	614465536	22	4911
2026-01-19 11:22:37.71	43.15	43.38	-30.5	-33.1	19.9	6.07e-01	0	44	0	616562688	22	4827
2026-01-19 11:22:38.71	42.56	43.27	-30.5	-33.1	19.9	6.06e-01	0	43	0	618135552	22	4850
2026-01-19 11:22:39.72	41.97	43.16	-30.8	-33.9	19.5	6.05e-01	0	44	0	620232704	22	5111
2026-01-19 11:22:40.73	41.38	43.05	-30.6	-33.3	19.7	6.10e-01	0	44	0	621805568	22	4915
2026-01-19 11:22:41.74	40.80	42.93	-30.8	-33.8	19.4	6.07e-01	0	44	0	623902720	22	5089
2026-01-19 11:22:42.74	40.23	42.81	-30.6	-33.2	19.8	6.06e-01	0	44	0	625475584	22	4885
2026-01-19 11:22:43.74	39.66	42.69	-30.4	-32.9	20.0	6.05e-01	0	44	0	627572736	22	4787
2026-01-19 11:22:44.74	39.10	42.57	-30.5	-33.1	19.9	6.07e-01	0	44	0	629669888	22	4848
2026-01-19 11:22:45.74	38.54	42.44	-30.4	-32.8	20.0	6.09e-01	0	44	0	631242752	22	4741
2026-01-19 11:22:46.75	37.99	42.31	-30.5	-33.1	19.9	6.06e-01	0	44	0	633339904	22	4856
2026-01-19 11:22:47.75	37.44	42.18	-30.5	-33.1	19.8	6.09e-01	0	44	0	635437056	22	4855
2026-01-19 11:22:48.76	36.89	42.04	-30.3	-32.7	20.1	6.06e-01	0	44	0	637009920	22	4703
2026-01-19 11:22:49.76	36.35	41.90	-30.6	-33.3	19.8	6.07e-01	0	44	0	639107072	22	4904
2026-01-19 11:22:50.76	35.81	41.76	-30.5	-33.0	19.9	6.08e-01	0	44	0	640679936	22	4812
2026-01-19 11:22:51.76	35.28	41.62	-30.4	-32.7	20.0	6.07e-01	0	44	0	642777088	22	4728
2026-01-19 11:22:52.77	34.75	41.48	-30.8	-34.0	19.3	6.07e-01	0	44	0	644349952	22	5163
2026-01-19 11:22:53.77	34.23	41.33	-30.6	-33.4	19.7	6.07e-01	0	44	0	646447104	22	4944
2026-01-19 11:22:54.78	33.71	41.18	-30.6	-33.3	19.7	6.04e-01	0	44	0	648544256	22	4913
2026-01-19 11:22:55.78	33.20	41.03	-30.7	-33.7	19.5	6.06e-01	0	44	0	650117120	22	5057
2026-01-19 11:22:56.78	32.70	40.88	-30.4	-32.9	19.9	6.05e-01	0	44	0	652214272	22	4782
2026-01-19 11:22:57.78	32.20	40.73	-30.5	-33.1	19.9	6.06e-01	0	44	0	653787136	22	4842
2026-01-19 11:22:58.78	31.70	40.58	-31.0	-34.5	19.0	6.05e-01	0	44	0	655884288	22	5373
2026-01-19 11:22:59.79	31.21	40.42	-30.7	-33.7	19.4	6.07e-01	0	44	0	657457152	22	5062
2026-01-19 11:23:00.80	30.71	40.26	-30.7	-33.6	19.5	6.07e-01	0	44	0	659554304	22	5030
2026-01-19 11:23:01.80	30.23	40.10	-30.7	-33.7	19.5	6.05e-01	0	44	0	661651456	22	5055
2026-01-19 11:23:02.80	29.76	39.94	-30.8	-33.9	19.4	6.05e-01	0	44	0	663224320	22	5136
2026-01-19 11:23:03.81	29.28	39.77	-31.2	-34.6	18.6	6.06e-01	0	44	0	665321472	23	5281
2026-01-19 11:23:04.81	28.81	39.61	-31.0	-33.8	19.1	6.04e-01	0	44	0	666894336	23	4989
2026-01-19 11:23:05.81	28.35	39.44	-30.6	-32.9	19.7	6.05e-01	0	44	0	668991488	23	4658
2026-01-19 11:23:06.81	27.89	39.28	-30.9	-33.5	19.3	6.07e-01	0	44	0	671088640	23	4885
2026-01-19 11:23:07.81	27.44	39.11	-30.8	-33.4	19.3	6.05e-01	0	44	0	672661504	23	4861
2026-01-19 11:23:08.81	27.00	38.94	-30.9	-33.6	19.2	6.05e-01	0	44	0	674758656	23	4917
2026-01-19 11:23:09.81	26.55	38.77	-31.2	-34.3	18.7	6.08e-01	0	44	0	676331520	23	5193
2026-01-19 11:23:10.81	26.11	38.60	-30.9	-33.6	19.2	6.09e-01	0	44	0	678428672	23	4919
2026-01-19 11:23:11.81	25.68	38.43	-30.7	-33.0	19.5	6.05e-01	0	44	0	680525824	23	4726
2026-01-19 11:23:12.82	25.25	38.26	-31.0	-33.9	19.1	6.06e-01	0	44	0	682098688	23	5014
2026-01-19 11:23:13.82	24.82	38.08	-30.9	-33.7	19.1	6.06e-01	0	44	0	684195840	23	4954
2026-01-19 11:23:14.82	24.41	37.91	-30.9	-33.6	19.2	6.07e-01	0	44	0	685768704	23	4909
2026-01-19 11:23:15.82	23.99	37.73	-31.1	-34.1	18.9	6.06e-01	0	44	0	687865856	23	5094
2026-01-19 11:23:16.83	23.58	37.56	-30.9	-33.7	19.1	6.08e-01	0	44	0	689438720	23	4935
2026-01-19 11:23:17.82	23.18	37.38	-30.9	-33.6	19.2	6.06e-01	0	44	0	691535872	23	4902
2026-01-19 11:23:18.83	22.77	37.20	-31.3	-34.7	18.5	6.07e-01	0	44	0	693633024	23	5322
2026-01-19 11:23:19.83	22.37	37.03	-31.4	-35.0	18.3	6.05e-01	0	44	0	695205888	23	5430
2026-01-19 11:23:20.83	21.98	36.85	-31.3	-34.7	18.5	6.04e-01	0	44	0	697303040	23	5308
2026-01-19 11:23:21.82	21.60	36.67	-31.2	-34.6	18.5	6.07e-01	0	44	0	698875904	23	5278
2026-01-19 11:23:22.83	21.21	36.49	-31.6	-35.5	18.0	6.06e-01	0	44	0	700973056	23	5639
2026-01-19 11:23:23.83	20.83	36.31	-31.5	-34.7	18.1	6.08e-01	0	44	0	702545920	24	5229
2026-01-19 11:23:24.84	20.45	36.13	-31.5	-34.8	18.1	6.07e-01	0	44	0	704643072	24	5255
2026-01-19 11:23:25.84	20.08	35.95	-31.5	-34.7	18.1	6.07e-01	0	44	0	706740224	24	5229
2026-01-19 11:23:26.85	19.71	35.77	-31.4	-34.6	18.2	6.07e-01	0	44	0	708313088	24	5174
2026-01-19 11:23:27.86	19.35	35.59	-31.6	-35.1	17.9	6.04e-01	0	44	0	710410240	24	5395
2026-01-19 11:23:28.86	18.99	35.41	-31.6	-35.0	18.0	6.05e-01	0	44	0	711983104	24	5323
2026-01-19 11:23:29.86	18.64	35.23	-31.8	-35.6	17.6	6.07e-01	0	44	0	714080256	24	5583
2026-01-19 11:23:30.87	18.28	35.05	-31.6	-35.0	17.9	6.05e-01	0	44	0	716177408	24	5347
2026-01-19 11:23:31.87	17.94	34.87	-31.2	-33.9	18.7	6.05e-01	0	44	0	717750272	24	4906
2026-01-19 11:23:32.87	17.60	34.69	-31.0	-33.4	19.0	6.05e-01	0	44	0	719847424	24	4734
2026-01-19 11:23:33.87	17.26	34.50	-30.9	-33.3	19.0	6.08e-01	0	44	0	721420288	24	4721
2026-01-19 11:23:34.87	16.92	34.32	-30.7	-33.2	19.3	6.07e-01	0	44	0	723517440	23	4798
2026-01-19 11:23:35.87	16.59	34.14	-30.7	-33.2	19.3	6.05e-01	0	44	0	725614592	23	4797
2026-01-19 11:23:36.88	16.26	33.96	-31.2	-34.4	18.6	6.05e-01	0	44	0	727187456	23	5208
2026-01-19 11:23:37.88	15.94	33.78	-31.5	-35.4	17.9	6.04e-01	0	44	0	729284608	23	5612
2026-01-19 11:23:38.88	15.62	33.60	-31.2	-34.4	18.5	6.08e-01	0	44	0	730857472	23	5236
2026-01-19 11:23:39.89	15.30	33.42	-30.9	-33.6	19.1	6.07e-01	0	44	0	732954624	23	4911
2026-01-19 11:23:40.89	14.99	33.24	-30.8	-33.3	19.2	6.07e-01	0	44	0	734527488	23	4841
2026-01-19 11:23:41.89	14.68	33.06	-30.7	-33.2	19.3	6.06e-01	0	44	0	736624640	23	4808
2026-01-19 11:23:42.89	14.38	32.88	-30.6	-33.0	19.5	6.05e-01	0	44	0	738721792	23	4703
2026-01-19 11:23:43.89	14.08	32.70	-30.7	-33.3	19.3	6.06e-01	0	44	0	740294656	23	4807
2026-01-19 11:23:44.89	13.78	32.52	-30.8	-33.4	19.2	6.04e-01	0	44	0	742391808	23	4874
2026-01-19 11:23:45.90	13.48	32.34	-30.6	-32.8	19.5	6.07e-01	0	44	0	743964672	23	4668
2026-01-19 11:23:46.91	13.19	32.16	-30.1	-32.0	20.3	6.07e-01	0	44	0	746061824	22	4516
2026-01-19 11:23:47.92	12.90	31.98	-30.0	-32.0	20.3	6.06e-01	0	44	0	748158976	22	4503
2026-01-19 11:23:48.92	12.61	31.80	-30.3	-32.7	19.9	6.07e-01	0	44	0	749731840	22	4748
2026-01-19 11:23:49.93	12.33	31.62	-30.2	-32.4	20.0	6.06e-01	0	44	0	751828992	22	4634
2026-01-19 11:23:50.93	12.05	31.45	-29.9	-31.7	20.5	6.08e-01	0	44	0	753401856	22	4400
2026-01-19 11:23:51.94	11.77	31.27	-30.0	-32.4	20.4	6.05e-01	0	44	0	755499008	21	4727
2026-01-19 11:23:52.94	11.50	31.09	-30.2	-32.8	20.1	6.05e-01	0	44	0	757596160	21	4894
2026-01-19 11:23:53.95	11.23	30.91	-30.4	-33.4	19.7	6.06e-01	0	44	0	759169024	21	5090
2026-01-19 11:23:54.95	10.97	30.74	-30.1	-32.6	20.1	6.07e-01	0	44	0	761266176	21	4827
2026-01-19 11:23:55.95	10.70	30.56	-29.9	-32.2	20.4	6.06e-01	0	44	0	762839040	21	4678
2026-01-19 11:23:56.95	10.44	30.39	-30.1	-32.7	20.2	6.08e-01	0	44	0	764936192	21	4845
2026-01-19 11:23:57.96	10.19	30.21	-30.1	-32.7	20.1	6.06e-01	0	44	0	767033344	21	4846
2026-01-19 11:23:58.96	9.93	30.04	-30.1	-32.6	20.2	6.05e-01	0	44	0	768606208	21	4813
2026-01-19 11:23:59.96	9.68	29.87	-30.1	-32.7	20.1	6.07e-01	0	44	0	770703360	21	4858
2026-01-19 11:24:00.96	9.43	29.70	-30.1	-32.7	20.2	6.02e-01	0	44	0	772276224	21	4851
2026-01-19 11:24:01.96	9.19	29.52	-30.2	-33.0	19.9	6.02e-01	0	44	0	774373376	21	4947
2026-01-19 11:24:02.96	8.94	29.35	-30.3	-33.1	19.8	6.01e-01	0	44	0	775946240	21	5005
2026-01-19 11:24:03.97	8.70	29.18	-30.0	-32.3	20.3	6.01e-01	0	44	0	778043392	21	4733
2026-01-19 11:24:04.97	8.47	29.01	-29.8	-32.0	20.5	6.04e-01	0	44	0	780140544	21	4613
2026-01-19 11:24:05.98	8.23	28.84	-30.1	-32.7	20.1	5.99e-01	0	44	0	781713408	21	4863
2026-01-19 11:24:06.98	8.00	28.67	-30.3	-33.1	19.8	6.01e-01	0	44	0	783810560	21	5003
2026-01-19 11:24:07.99	7.76	28.50	-30.5	-33.6	19.5	6.03e-01	0	44	0	785383424	21	5176
2026-01-19 11:24:08.99	7.54	28.33	-30.2	-33.0	19.9	6.01e-01	0	44	0	787480576	21	4948
2026-01-19 11:24:09.99	7.31	28.17	-30.0	-32.5	20.2	6.02e-01	0	44	0	789053440	21	4779
2026-01-19 11:24:10.99	7.09	28.00	-30.0	-32.4	20.3	6.02e-01	0	44	0	791150592	21	4749
2026-01-19 11:24:11.99	6.87	27.83	-30.2	-33.0	19.9	6.04e-01	0	44	0	793247744	21	4961
2026-01-19 11:24:12.99	6.65	27.67	-30.2	-33.0	19.9	6.05e-01	0	44	0	794820608	21	4945
2026-01-19 11:24:13.99	6.44	27.50	-30.2	-32.9	19.9	6.01e-01	0	44	0	796917760	21	4923
2026-01-19 11:24:14.99	6.23	27.34	-30.2	-32.9	19.9	6.03e-01	0	44	0	798490624	21	4930
2026-01-19 11:24:16.00	6.01	27.17	-30.3	-33.2	19.7	6.02e-01	0	44	0	800587776	21	5042
2026-01-19 11:24:17.00	5.81	27.01	-30.2	-33.1	19.8	6.02e-01	0	44	0	802684928	21	4988
2026-01-19 11:24:18.00	5.60	26.85	-30.2	-33.0	19.8	6.01e-01	0	44	0	804257792	21	4977
2026-01-19 11:24:19.01	5.40	26.69	-30.2	-33.0	19.8	6.02e-01	0	44	0	806354944	21	4954
2026-01-19 11:24:20.01	5.19	26.53	-30.0	-32.5	20.0	6.01e-01	0	44	0	807927808	21	4802
2026-01-19 11:24:21.02	4.99	26.36	-30.0	-32.6	20.1	6.02e-01	0	44	0	810024960	21	4810
2026-01-19 11:24:22.03	4.79	26.20	-30.3	-33.3	19.7	5.99e-01	0	44	0	812122112	21	5067
2026-01-19 11:24:23.03	4.60	26.04	-30.4	-33.4	19.6	6.03e-01	0	44	0	813694976	21	5106
2026-01-19 11:24:24.02	4.41	25.89	-30.6	-33.6	19.2	6.01e-01	0	44	0	815792128	22	5084
2026-01-19 11:24:25.03	4.21	25.73	-30.5	-33.2	19.4	6.01e-01	0	44	0	817364992	22	4922
2026-01-19 11:24:26.03	4.03	25.57	-30.3	-32.6	19.8	6.02e-01	0	44	0	819462144	22	4720
2026-01-19 11:24:27.03	3.84	25.42	-30.1	-32.3	19.9	6.02e-01	0	44	0	821035008	22	4629
2026-01-19 11:24:28.03	3.65	25.26	-30.2	-32.5	19.8	6.01e-01	0	44	0	823132160	22	4686
2026-01-19 11:24:29.02	3.47	25.11	-30.2	-32.5	19.8	6.05e-01	0	44	0	825229312	22	4682
2026-01-19 11:24:30.02	3.29	24.95	-30.6	-33.4	19.2	6.00e-01	0	44	0	826802176	22	5004
2026-01-19 11:24:31.02	3.11	24.80	-30.6	-33.4	19.3	6.03e-01	0	44	0	828899328	22	5003
2026-01-19 11:24:32.03	2.93	24.65	-30.7	-33.9	18.9	6.02e-01	0	44	0	830472192	22	5190
2026-01-19 11:24:33.03	2.76	24.49	-30.6	-33.5	19.2	6.03e-01	0	44	0	832569344	22	5012
2026-01-19 11:24:34.04	2.58	24.34	-30.4	-32.9	19.5	5.99e-01	0	44	0	834142208	22	4812
2026-01-19 11:24:35.04	2.41	24.19	-30.3	-32.8	19.6	6.03e-01	0	44	0	836239360	22	4778
2026-01-19 11:24:36.04	2.24	24.04	-30.5	-33.2	19.4	6.01e-01	0	44	0	838336512	22	4918
2026-01-19 11:24:37.04	2.07	23.89	-30.4	-33.0	19.5	6.03e-01	0	44	0	839909376	22	4861
2026-01-19 11:24:38.05	1.90	23.74	-30.5	-33.2	19.4	6.02e-01	0	44	0	842006528	22	4943
2026-01-19 11:24:39.06	1.74	23.59	-30.6	-33.5	19.2	6.03e-01	0	44	0	844103680	22	5049
2026-01-19 11:24:40.06	1.57	23.44	-30.6	-33.4	19.3	6.04e-01	0	44	0	845676544	22	5005
2026-01-19 11:24:41.06	1.41	23.30	-30.6	-33.6	19.1	6.01e-01	0	44	0	847773696	22	5061
2026-01-19 11:24:42.06	1.25	23.15	-30.7	-33.8	19.0	6.02e-01	0	44	0	849346560	22	5152
2026-01-19 11:24:43.07	1.09	23.00	-30.6	-33.4	19.2	6.01e-01	0	44	0	851443712	22	5008
2026-01-19 11:24:44.07	0.93	22.86	-30.5	-33.2	19.3	6.01e-01	0	44	0	853016576	22	4942
2026-01-19 11:24:45.07	0.78	22.71	-30.5	-33.3	19.3	6.03e-01	0	44	0	855113728	22	4960
2026-01-19 11:24:46.08	0.62	22.57	-30.5	-33.4	19.2	6.02e-01	0	44	0	857210880	22	4995
2026-01-19 11:24:47.08	0.47	22.43	-30.7	-33.8	18.9	6.01e-01	0	44	0	858783744	22	5153
2026-01-19 11:24:48.09	0.32	22.28	-30.5	-33.3	19.3	6.03e-01	0	44	0	860880896	22	4963
2026-01-19 11:24:49.09	0.17	22.14	-30.5	-33.3	19.3	6.02e-01	0	44	0	862453760	22	4966
2026-01-19 11:24:50.08	0.02	22.00	-30.6	-33.6	19.1	6.05e-01	0	44	0	864550912	22	5078
2026-01-19 11:24:51.09	359.87	21.86	-30.6	-33.6	19.0	6.03e-01	0	44	0	866123776	22	5084
2026-01-19 11:24:52.09	359.73	21.72	-30.8	-34.1	18.7	6.02e-01	0	44	0	868220928	22	5276
2026-01-19 11:24:53.10	359.58	21.58	-30.6	-33.5	19.1	6.02e-01	0	44	0	870318080	22	5027
2026-01-19 11:24:54.10	359.44	21.44	-30.4	-33.1	19.3	6.04e-01	0	44	0	871890944	22	4912
2026-01-19 11:24:55.11	359.30	21.30	-30.4	-33.0	19.4	6.02e-01	0	44	0	873988096	22	4865
2026-01-19 11:24:56.11	359.16	21.17	-30.5	-33.2	19.2	6.05e-01	0	44	0	876085248	22	4949
2026-01-19 11:24:57.11	359.02	21.03	-30.4	-33.1	19.3	6.02e-01	0	44	0	877658112	22	4910
2026-01-19 11:24:58.12	358.88	20.89	-30.5	-33.4	19.1	6.01e-01	0	44	0	879755264	22	5009
2026-01-19 11:24:59.12	358.74	20.76	-30.5	-33.4	19.1	6.03e-01	0	44	0	881328128	22	5007
2026-01-19 11:25:00.12	358.61	20.62	-30.4	-33.0	19.3	5.99e-01	0	44	0	883425280	22	4883
2026-01-19 11:25:01.13	358.47	20.49	-30.3	-32.8	19.4	6.02e-01	0	44	0	884998144	22	4812
2026-01-19 11:25:02.13	358.34	20.36	-30.3	-32.9	19.4	6.04e-01	0	44	0	887095296	22	4833
2026-01-19 11:25:03.14	358.21	20.22	-30.5	-33.2	19.2	6.02e-01	0	44	0	889192448	22	4949
2026-01-19 11:25:04.15	358.08	20.09	-30.3	-32.8	19.5	6.03e-01	0	44	0	890765312	22	4814
2026-01-19 11:25:05.15	357.95	19.96	-30.5	-33.3	19.2	6.04e-01	0	44	0	892862464	22	4966
2026-01-19 11:25:06.15	357.82	19.83	-30.7	-33.8	18.8	6.02e-01	0	44	0	894435328	22	5183
2026-01-19 11:25:07.16	357.70	19.70	-30.6	-33.7	18.9	6.03e-01	0	44	0	896532480	22	5115
2026-01-19 11:25:08.16	357.57	19.57	-30.8	-34.1	18.7	6.03e-01	0	44	0	898629632	22	5267
2026-01-19 11:25:09.16	357.45	19.44	-30.6	-33.7	18.9	6.01e-01	0	44	0	900202496	22	5120
2026-01-19 11:25:10.16	357.33	19.31	-30.5	-33.4	19.0	6.01e-01	0	44	0	902299648	22	5030
2026-01-19 11:25:11.17	357.20	19.18	-30.5	-33.2	19.1	6.02e-01	0	44	0	903872512	22	4965
2026-01-19 11:25:12.16	357.08	19.05	-30.4	-33.2	19.2	6.03e-01	0	44	0	905969664	22	4936
2026-01-19 11:25:13.17	356.96	18.93	-30.4	-33.1	19.2	6.02e-01	0	44	0	907542528	22	4917
2026-01-19 11:25:14.17	356.85	18.80	-30.3	-32.9	19.4	6.04e-01	0	44	0	909639680	22	4835
2026-01-19 11:25:15.17	356.73	18.67	-30.3	-32.9	19.3	6.02e-01	0	44	0	911736832	22	4839
2026-01-19 11:25:16.17	356.61	18.55	-30.3	-33.0	19.2	6.00e-01	0	44	0	913309696	22	4868
2026-01-19 11:25:17.18	356.50	18.42	-30.3	-32.9	19.3	6.01e-01	0	44	0	915406848	22	4853
2026-01-19 11:25:18.18	356.38	18.30	-30.3	-33.0	19.2	6.01e-01	0	44	0	916979712	22	4875
2026-01-19 11:25:19.19	356.27	18.18	-30.3	-32.9	19.3	6.03e-01	0	44	0	919076864	22	4845
2026-01-19 11:25:20.20	356.15	18.05	-30.3	-33.0	19.2	6.04e-01	0	44	0	921174016	22	4875
2026-01-19 11:25:21.20	356.04	17.93	-30.4	-33.2	19.1	6.02e-01	0	44	0	922746880	22	4965
2026-01-19 11:25:22.21	355.93	17.81	-30.3	-33.0	19.2	6.03e-01	0	44	0	924844032	22	4870
2026-01-19 11:25:23.21	355.82	17.69	-30.3	-33.0	19.2	6.02e-01	0	44	0	926416896	22	4879
2026-01-19 11:25:24.20	355.72	17.57	-30.4	-33.2	19.1	6.02e-01	0	44	0	928514048	22	4955
2026-01-19 11:25:25.20	355.61	17.45	-30.4	-33.1	19.2	6.02e-01	0	44	0	930611200	22	4908
2026-01-19 11:25:26.21	355.50	17.33	-30.4	-33.1	19.2	6.02e-01	0	44	0	932184064	22	4916
2026-01-19 11:25:27.22	355.40	17.21	-30.4	-33.1	19.2	6.02e-01	0	44	0	934281216	22	4909
2026-01-19 11:25:28.22	355.29	17.09	-30.4	-33.2	19.0	6.04e-01	0	44	0	935854080	22	4971
2026-01-19 11:25:29.22	355.19	16.97	-30.5	-33.5	18.9	6.02e-01	0	44	0	937951232	22	5063
2026-01-19 11:25:30.23	355.08	16.85	-30.4	-33.2	19.1	6.04e-01	0	44	0	939524096	22	4952
2026-01-19 11:25:31.23	354.98	16.74	-30.3	-32.9	19.2	6.04e-01	0	44	0	941621248	22	4853
2026-01-19 11:25:32.23	354.88	16.62	-30.3	-33.0	19.1	6.03e-01	0	44	0	943718400	22	4910
2026-01-19 11:25:33.23	354.78	16.51	-30.3	-33.0	19.1	6.00e-01	0	44	0	945291264	22	4900
2026-01-19 11:25:34.24	354.68	16.39	-30.4	-33.2	19.1	6.02e-01	0	44	0	947388416	22	4960
2026-01-19 11:25:35.24	354.58	16.28	-30.5	-33.4	18.9	6.04e-01	0	44	0	948961280	22	5024
2026-01-19 11:25:36.24	354.49	16.16	-30.4	-33.1	19.1	6.04e-01	0	44	0	951058432	22	4944
2026-01-19 11:25:37.24	354.39	16.05	-30.3	-32.9	19.2	6.02e-01	0	44	0	953155584	22	4848
2026-01-19 11:25:38.25	354.29	15.93	-30.3	-32.9	19.2	6.03e-01	0	44	0	954728448	22	4879
2026-01-19 11:25:39.25	354.20	15.82	-30.4	-33.1	19.1	6.02e-01	0	44	0	956825600	22	4942
2026-01-19 11:25:40.26	354.10	15.71	-30.3	-32.9	19.2	6.05e-01	0	44	0	958398464	22	4854
2026-01-19 11:25:41.26	354.01	15.60	-30.3	-33.0	19.1	6.01e-01	0	43	0	960495616	22	4917
2026-01-19 11:25:42.27	353.91	15.49	-30.4	-33.2	19.0	6.00e-01	0	44	0	962592768	22	4978
2026-01-19 11:25:43.27	353.82	15.37	-30.3	-32.9	19.2	6.02e-01	0	44	0	964165632	22	4852
2026-01-19 11:25:44.27	353.73	15.26	-30.3	-32.9	19.1	6.04e-01	0	44	0	966262784	22	4868
2026-01-19 11:25:45.27	353.64	15.16	-30.3	-33.0	19.1	6.03e-01	0	44	0	967835648	22	4892
2026-01-19 11:25:46.27	353.55	15.05	-30.3	-32.9	19.1	6.02e-01	0	44	0	969932800	22	4863
2026-01-19 11:25:47.28	353.46	14.94	-30.3	-33.1	19.0	6.02e-01	0	44	0	971505664	22	4924
2026-01-19 11:25:48.28	353.37	14.83	-30.4	-33.2	18.9	6.03e-01	0	44	0	973602816	22	4969
2026-01-19 11:25:49.28	353.28	14.72	-30.3	-33.1	19.0	6.03e-01	0	44	0	975699968	22	4923
2026-01-19 11:25:50.28	353.20	14.61	-30.3	-33.1	19.0	6.04e-01	0	44	0	977272832	22	4943
2026-01-19 11:25:51.29	353.11	14.51	-30.3	-33.1	19.0	6.01e-01	0	44	0	979369984	22	4937
2026-01-19 11:25:52.29	353.02	14.40	-30.4	-33.3	18.8	6.04e-01	0	44	0	980942848	22	5018
2026-01-19 11:25:53.29	352.94	14.29	-30.5	-33.6	18.6	6.01e-01	0	44	0	983040000	22	5142
2026-01-19 11:25:54.29	352.86	14.19	-30.6	-33.8	18.5	6.04e-01	0	44	0	984612864	22	5190
2026-01-19 11:25:55.29	352.77	14.08	-30.5	-33.6	18.6	6.03e-01	0	44	0	986710016	22	5136
2026-01-19 11:25:56.29	352.69	13.98	-30.6	-33.7	18.6	6.01e-01	0	44	0	988807168	22	5158
2026-01-19 11:25:57.30	352.61	13.87	-30.5	-33.6	18.6	6.03e-01	0	44	0	990380032	22	5126
2026-01-19 11:25:58.31	352.52	13.77	-30.6	-33.8	18.5	6.03e-01	0	44	0	992477184	22	5188
2026-01-19 11:25:59.31	352.44	13.67	-30.6	-33.9	18.4	6.05e-01	0	44	0	994574336	22	5245
2026-01-19 11:26:00.31	352.36	13.56	-30.7	-34.1	18.2	6.01e-01	0	44	0	996147200	22	5347
2026-01-19 11:26:01.31	352.28	13.46	-30.5	-33.6	18.6	6.02e-01	0	44	0	998244352	22	5125
2026-01-19 11:26:02.32	352.20	13.36	-30.5	-33.5	18.7	6.02e-01	0	44	0	999817216	22	5087
2026-01-19 11:26:03.32	352.12	13.26	-30.4	-33.2	18.9	6.03e-01	0	44	0	1001914368	22	4970
2026-01-19 11:26:04.32	352.05	13.16	-30.4	-33.2	18.8	6.04e-01	0	44	0	1003487232	22	4993
2026-01-19 11:26:05.32	351.97	13.06	-30.4	-33.3	18.7	6.05e-01	0	44	0	1005584384	22	5042
2026-01-19 11:26:06.33	351.89	12.95	-30.4	-33.3	18.8	6.04e-01	0	44	0	1007681536	22	5027
2026-01-19 11:26:07.33	351.82	12.85	-30.5	-33.5	18.7	6.01e-01	0	44	0	1009254400	22	5098
2026-01-19 11:26:08.33	351.74	12.75	-30.5	-33.5	18.6	6.01e-01	0	44	0	1011351552	22	5111
2026-01-19 11:26:09.33	351.67	12.66	-30.5	-33.5	18.7	6.03e-01	0	44	0	1012924416	22	5079
2026-01-19 11:26:10.34	351.59	12.56	-30.4	-33.4	18.7	6.01e-01	0	44	0	1015021568	22	5082
2026-01-19 11:26:11.34	351.52	12.46	-30.6	-33.7	18.5	6.02e-01	0	44	0	1016594432	22	5193
2026-01-19 11:26:12.35	351.44	12.36	-30.6	-33.8	18.4	6.04e-01	0	44	0	1018691584	22	5223
2026-01-19 11:26:13.35	351.37	12.26	-30.6	-33.8	18.4	6.00e-01	0	44	0	1020788736	22	5206
2026-01-19 11:26:14.35	351.30	12.16	-30.7	-34.2	18.2	6.02e-01	0	44	0	1022361600	22	5375
2026-01-19 11:26:15.35	351.23	12.07	-30.8	-34.5	17.9	6.01e-01	0	44	0	1024458752	22	5515
2026-01-19 11:26:16.35	351.16	11.97	-30.6	-33.9	18.3	6.04e-01	0	44	0	1026031616	22	5260
2026-01-19 11:26:17.35	351.08	11.88	-30.5	-33.6	18.5	6.03e-01	0	44	0	1028128768	22	5133
2026-01-19 11:26:18.36	351.01	11.78	-30.5	-33.7	18.5	6.03e-01	0	44	0	1030225920	22	5174
2026-01-19 11:26:19.37	350.94	11.68	-30.7	-34.1	18.2	6.02e-01	0	44	0	1031798784	22	5349
2026-01-19 11:26:20.37	350.87	11.59	-30.7	-34.2	18.1	6.01e-01	0	44	0	1033895936	22	5370
2026-01-19 11:26:21.38	350.81	11.49	-30.6	-33.8	18.4	6.03e-01	0	44	0	1035468800	22	5219
2026-01-19 11:26:22.38	350.74	11.40	-30.4	-33.4	18.6	6.02e-01	0	44	0	1037565952	22	5072
2026-01-19 11:26:23.38	350.67	11.31	-30.5	-33.6	18.5	6.03e-01	0	44	0	1039663104	22	5144
2026-01-19 11:26:24.38	350.60	11.21	-30.5	-33.7	18.4	6.04e-01	0	44	0	1041235968	22	5170
2026-01-19 11:26:25.39	350.54	11.12	-30.6	-33.9	18.3	6.02e-01	0	44	0	1043333120	22	5258
2026-01-19 11:26:26.39	350.47	11.03	-30.6	-33.9	18.3	6.03e-01	0	44	0	1044905984	22	5267
2026-01-19 11:26:27.40	350.40	10.93	-30.7	-34.2	18.0	6.01e-01	0	44	0	1047003136	22	5405
2026-01-19 11:26:28.41	350.34	10.84	-30.6	-33.9	18.2	6.02e-01	0	44	0	1049100288	22	5263
2026-01-19 11:26:29.41	350.27	10.75	-30.8	-34.5	17.9	6.04e-01	0	44	0	1050673152	22	5508
2026-01-19 11:26:30.41	350.21	10.66	-30.8	-34.4	17.9	6.02e-01	0	44	0	1052770304	22	5475
2026-01-19 11:26:31.41	350.15	10.57	-30.7	-34.2	18.0	6.04e-01	0	44	0	1054343168	22	5387
2026-01-19 11:26:32.41	350.08	10.47	-30.8	-34.5	17.8	6.05e-01	0	44	0	1056440320	22	5526
2026-01-19 11:26:33.42	350.02	10.38	-30.7	-34.3	17.9	6.01e-01	0	44	0	1058013184	22	5445
2026-01-19 11:26:34.42	349.96	10.29	-30.8	-34.5	17.8	6.04e-01	0	44	0	1060110336	22	5512
2026-01-19 11:26:35.42	349.89	10.20	-30.6	-33.9	18.1	6.03e-01	0	44	0	1062207488	22	5290
2026-01-19 11:26:36.43	349.83	10.11	-30.6	-33.8	18.2	6.02e-01	0	44	0	1063780352	22	5248
2026-01-19 11:26:37.43	349.77	10.03	-30.6	-33.9	18.2	6.03e-01	0	44	0	1065877504	22	5294
2026-01-19 11:26:38.43	349.71	9.94	-30.7	-34.3	17.9	6.03e-01	0	44	0	1067450368	22	5423
2026-01-19 11:26:39.43	349.65	9.85	-30.7	-34.2	17.9	6.01e-01	0	44	0	1069547520	22	5407
2026-01-19 11:26:40.44	349.59	9.76	-30.7	-34.2	17.9	6.04e-01	0	44	0	1071644672	22	5412
2026-01-19 11:26:41.44	349.53	9.67	-30.7	-34.3	17.8	6.01e-01	0	44	0	1073217536	22	5442
2026-01-19 11:26:42.44	349.47	9.58	-30.6	-34.1	17.9	6.02e-01	0	44	0	1075314688	22	5374
2026-01-19 11:26:43.44	349.41	9.50	-30.6	-34.1	18.0	6.04e-01	0	44	0	1076887552	22	5360
2026-01-19 11:26:44.44	349.35	9.41	-30.7	-34.2	17.9	6.03e-01	0	44	0	1078984704	22	5402
2026-01-19 11:26:45.44	349.30	9.32	-30.6	-34.1	17.9	6.03e-01	0	44	0	1080557568	22	5383
2026-01-19 11:26:46.45	349.24	9.24	-30.6	-34.1	17.9	6.02e-01	0	44	0	1082654720	22	5362
2026-01-19 11:26:47.45	349.18	9.15	-30.7	-34.4	17.7	6.04e-01	0	44	0	1084751872	22	5503
2026-01-19 11:26:48.45	349.13	9.07	-30.7	-34.3	17.8	6.02e-01	0	44	0	1086324736	22	5461
2026-01-19 11:26:49.45	349.07	8.98	-30.8	-34.7	17.5	5.99e-01	0	44	0	1088421888	22	5616
2026-01-19 11:26:50.46	349.01	8.90	-30.7	-34.3	17.7	6.04e-01	0	44	0	1089994752	22	5464
2026-01-19 11:26:51.47	348.96	8.81	-30.8	-34.7	17.5	6.03e-01	0	44	0	1092091904	22	5647
2026-01-19 11:26:52.47	348.90	8.73	-30.8	-34.7	17.5	6.03e-01	0	44	0	1094189056	22	5634
2026-01-19 11:26:53.47	348.85	8.64	-30.8	-34.5	17.6	6.06e-01	0	44	0	1095761920	22	5560
2026-01-19 11:26:54.48	348.79	8.56	-30.8	-34.6	17.5	6.03e-01	0	44	0	1097859072	22	5603
2026-01-19 11:26:55.48	348.74	8.47	-30.9	-35.0	17.3	6.04e-01	0	44	0	1099431936	22	5768
2026-01-19 11:26:56.48	348.68	8.39	-30.7	-34.4	17.7	6.04e-01	0	44	0	1101529088	22	5495
2026-01-19 11:26:57.48	348.63	8.31	-30.9	-34.8	17.4	6.03e-01	0	44	0	1103101952	22	5686
2026-01-19 11:26:58.48	348.58	8.23	-30.9	-34.8	17.4	6.05e-01	0	44	0	1105199104	22	5696
2026-01-19 11:26:59.48	348.53	8.14	-30.9	-34.8	17.4	6.02e-01	0	44	0	1107296256	22	5696
2026-01-19 11:27:00.49	348.47	8.06	-30.7	-34.4	17.6	6.01e-01	0	44	0	1108869120	22	5529
2026-01-19 11:27:01.48	348.42	7.98	-30.9	-34.9	17.3	6.02e-01	0	44	0	1110966272	22	5710
2026-01-19 11:27:02.49	348.37	7.90	-30.9	-35.1	17.1	6.04e-01	0	44	0	1112539136	22	5811
2026-01-19 11:27:03.49	348.32	7.82	-31.0	-35.3	17.0	6.02e-01	0	44	0	1114636288	22	5912
2026-01-19 11:27:04.49	348.27	7.74	-31.0	-34.8	17.0	6.03e-01	0	44	0	1116733440	23	5568
2026-01-19 11:27:05.50	348.22	7.65	-30.8	-34.2	17.4	6.02e-01	0	44	0	1118306304	23	5316
2026-01-19 11:27:06.50	348.17	7.57	-30.9	-34.4	17.2	6.02e-01	0	44	0	1120403456	23	5415
2026-01-19 11:27:07.51	348.12	7.49	-30.8	-34.3	17.3	6.03e-01	0	44	0	1121976320	23	5373
2026-01-19 11:27:08.51	348.07	7.41	-30.9	-34.5	17.1	6.04e-01	0	44	0	1124073472	23	5475
2026-01-19 11:27:09.52	348.02	7.33	-30.9	-34.6	17.1	6.03e-01	0	44	0	1126170624	23	5498
2026-01-19 11:27:10.52	347.97	7.25	-30.9	-34.6	17.0	6.05e-01	0	44	0	1127743488	23	5527
2026-01-19 11:27:11.52	347.92	7.17	-30.9	-34.6	17.1	6.02e-01	0	44	0	1129840640	23	5499
2026-01-19 11:27:12.53	347.87	7.09	-33.5	-45.2	8.5	6.50e-01	0	44	0	1131413504	27	13837
2026-01-19 11:27:13.53	347.82	7.02	-34.0	-51.8	3.8	7.43e-01	0	44	104	1131413504	28	28147

#Closed at: 2026-01-19 11:27:14
#Recorded file [1131 MB]: D:/data/31010_260119_141708.dat