passes_logs/2026/01/19/R2M6_AANII_01/R2M6_AANII_01__20260119_095251_SUOMI_NPP_rec.log

#Pass ID: 20260119_095251_SUOMI NPP
#Satellite: SUOMI NPP
#Configuration: NPP
#almurnet v.1.7.20240730
#Start time: 2026-01-19 09:52:52

#Version: 2.2.20231116
#Station: R2M6_AANII_01
#Location: 30.233357 lon 59.946436 lat
#TLE: 1 37849U 11061A   26017.92342359  .00000077  00000+0  57567-4 0  9990
#TLE: 2 37849  98.7814 319.9468 0002389  58.5705 301.5704 14.19525998737125

#Time	Az	El	Level	Level2	SNR	BER	BlckErr	Temp	State	Recorded	gain1	gain2
2026-01-19 09:52:52.38	144.24	7.06	-31.2	-34.9	5.2	1.27e+00	0	41	0	0	23	5469
2026-01-19 09:52:53.38	144.21	7.13	-31.4	-35.0	5.0	1.31e+00	0	41	104	0	24	5452
2026-01-19 09:52:54.38	144.19	7.21	-31.4	-34.9	8.4	4.99e-02	0	41	0	0	24	5353
2026-01-19 09:52:55.38	144.17	7.29	-31.5	-35.0	8.4	4.72e-02	0	41	0	1048576	24	5414
2026-01-19 09:52:56.38	144.14	7.37	-31.3	-34.2	9.0	2.99e-02	0	41	0	3145728	24	5051
2026-01-19 09:52:57.39	144.12	7.45	-31.2	-34.4	9.3	2.24e-02	0	41	0	5242880	23	5213
2026-01-19 09:52:58.39	144.09	7.52	-31.2	-34.2	9.4	1.92e-02	0	42	0	7340032	23	5138
2026-01-19 09:52:59.40	144.07	7.60	-31.1	-34.0	9.6	1.36e-02	0	41	0	9437184	23	5043
2026-01-19 09:53:00.40	144.04	7.68	-30.8	-33.0	10.4	7.80e-03	0	41	0	10485760	23	4625
2026-01-19 09:53:01.41	144.02	7.76	-30.7	-33.0	10.7	4.09e-03	0	42	0	12582912	22	4732
2026-01-19 09:53:02.41	143.99	7.84	-30.3	-32.0	11.4	1.29e-03	0	41	0	14680064	22	4363
2026-01-19 09:53:03.41	143.97	7.92	-30.3	-32.0	11.4	8.79e-04	0	41	0	16777216	22	4379
2026-01-19 09:53:04.41	143.94	8.00	-30.1	-31.9	11.8	5.45e-04	0	42	0	17825792	21	4451
2026-01-19 09:53:05.41	143.92	8.08	-30.1	-31.9	11.8	7.00e-04	0	42	0	19922944	21	4435
2026-01-19 09:53:06.42	143.89	8.16	-29.9	-31.6	12.0	4.52e-04	0	42	0	22020096	21	4349
2026-01-19 09:53:07.42	143.87	8.24	-30.0	-31.7	11.9	3.38e-04	0	42	0	24117248	21	4400
2026-01-19 09:53:08.42	143.84	8.32	-30.0	-31.8	11.9	3.20e-04	0	42	0	26214400	21	4418
2026-01-19 09:53:09.43	143.82	8.40	-30.0	-31.7	12.0	3.66e-04	0	42	0	28311552	21	4386
2026-01-19 09:53:10.44	143.79	8.48	-30.0	-31.7	12.0	4.03e-04	0	42	0	29360128	21	4392
2026-01-19 09:53:11.44	143.76	8.57	-30.0	-31.8	11.9	2.76e-04	0	42	0	31457280	21	4434
2026-01-19 09:53:12.45	143.74	8.65	-30.1	-31.9	11.8	4.90e-04	0	42	0	33554432	21	4458
2026-01-19 09:53:13.45	143.71	8.73	-30.1	-32.0	11.8	4.05e-04	0	42	0	35651584	21	4485
2026-01-19 09:53:14.45	143.68	8.81	-30.1	-32.1	11.8	5.65e-04	0	42	0	36700160	21	4502
2026-01-19 09:53:15.46	143.66	8.90	-30.2	-32.3	11.7	4.99e-04	0	42	0	38797312	21	4563
2026-01-19 09:53:16.46	143.63	8.98	-30.2	-32.2	11.7	6.35e-04	0	42	0	40894464	21	4554
2026-01-19 09:53:17.46	143.60	9.06	-30.2	-32.3	11.6	6.00e-04	0	42	0	42991616	21	4573
2026-01-19 09:53:18.46	143.58	9.14	-30.3	-32.5	11.5	8.18e-04	0	42	0	45088768	21	4645
2026-01-19 09:53:19.46	143.55	9.23	-30.4	-32.8	11.3	9.44e-04	0	42	0	46137344	21	4744
2026-01-19 09:53:20.47	143.52	9.31	-30.4	-32.8	11.4	1.31e-03	0	42	0	48234496	21	4726
2026-01-19 09:53:21.47	143.49	9.40	-30.5	-32.9	11.3	1.17e-03	0	42	0	50331648	21	4778
2026-01-19 09:53:22.47	143.47	9.48	-30.4	-32.7	11.4	1.26e-03	0	42	0	52428800	21	4710
2026-01-19 09:53:23.47	143.44	9.57	-30.3	-32.4	11.7	6.55e-04	0	42	0	54525952	21	4598
2026-01-19 09:53:24.48	143.41	9.65	-30.2	-32.2	11.8	4.31e-04	0	42	0	55574528	21	4506
2026-01-19 09:53:25.48	143.38	9.74	-30.2	-32.1	11.9	2.87e-04	0	42	0	57671680	21	4461
2026-01-19 09:53:26.48	143.35	9.82	-30.3	-32.3	11.8	3.92e-04	0	42	0	59768832	21	4544
2026-01-19 09:53:27.48	143.32	9.91	-30.2	-31.9	11.9	4.45e-04	0	42	0	61865984	21	4417
2026-01-19 09:53:28.49	143.29	9.99	-30.0	-31.4	12.4	2.14e-04	0	42	0	63963136	21	4237
2026-01-19 09:53:29.49	143.26	10.08	-29.8	-30.9	12.8	8.39e-05	0	42	0	65011712	21	4068
2026-01-19 09:53:30.49	143.23	10.17	-29.8	-31.4	12.8	5.18e-05	0	42	0	67108864	20	4322
2026-01-19 09:53:31.50	143.20	10.26	-29.9	-31.5	12.8	7.70e-05	0	42	0	69206016	20	4342
2026-01-19 09:53:32.50	143.17	10.34	-29.8	-31.4	12.9	4.04e-05	0	42	0	71303168	20	4292
2026-01-19 09:53:33.51	143.14	10.43	-29.9	-31.4	12.8	6.40e-05	0	42	0	73400320	20	4314
2026-01-19 09:53:34.51	143.11	10.52	-29.9	-31.5	12.9	6.48e-05	0	42	0	74448896	20	4323
2026-01-19 09:53:35.52	143.08	10.61	-29.9	-31.5	12.8	4.34e-05	0	42	0	76546048	20	4310
2026-01-19 09:53:36.52	143.05	10.70	-30.0	-31.8	12.7	7.17e-05	0	42	0	78643200	20	4415
2026-01-19 09:53:37.52	143.02	10.79	-30.0	-31.9	12.7	9.61e-05	0	42	0	80740352	20	4445
2026-01-19 09:53:38.53	142.99	10.88	-30.1	-32.0	12.6	8.31e-05	0	42	0	82837504	20	4486
2026-01-19 09:53:39.53	142.96	10.96	-30.1	-32.1	12.5	1.12e-04	0	42	0	83886080	20	4539
2026-01-19 09:53:40.52	142.93	11.05	-30.1	-32.1	12.5	1.01e-04	0	42	0	85983232	20	4543
2026-01-19 09:53:41.53	142.90	11.14	-30.1	-32.1	12.5	1.20e-04	0	42	0	88080384	20	4515
2026-01-19 09:53:42.53	142.86	11.23	-30.1	-32.2	12.5	1.26e-04	0	42	0	90177536	20	4540
2026-01-19 09:53:43.54	142.83	11.33	-30.1	-32.0	12.6	1.36e-04	0	42	0	91226112	20	4486
2026-01-19 09:53:44.54	142.80	11.42	-29.9	-31.4	13.0	5.11e-05	0	42	0	93323264	20	4277
2026-01-19 09:53:45.55	142.77	11.51	-29.7	-30.8	13.4	1.52e-05	0	42	0	95420416	20	4100
2026-01-19 09:53:46.55	142.73	11.60	-29.7	-30.7	13.5	1.06e-05	0	43	0	97517568	20	4073
2026-01-19 09:53:47.56	142.70	11.69	-29.5	-30.4	13.8	8.30e-06	0	43	0	99614720	20	3965
2026-01-19 09:53:48.56	142.67	11.79	-29.6	-30.5	13.7	7.60e-06	0	42	0	100663296	20	3986
2026-01-19 09:53:49.56	142.63	11.88	-29.7	-30.8	13.5	6.10e-06	0	42	0	102760448	20	4070
2026-01-19 09:53:50.57	142.60	11.97	-29.6	-30.5	13.7	4.50e-06	0	43	0	104857600	20	3998
2026-01-19 09:53:51.57	142.57	12.07	-29.7	-30.7	13.6	6.10e-06	0	43	0	106954752	20	4061
2026-01-19 09:53:52.58	142.53	12.16	-29.8	-31.2	13.2	1.52e-05	0	43	0	109051904	20	4228
2026-01-19 09:53:53.58	142.50	12.26	-29.8	-31.2	13.2	1.75e-05	0	43	0	110100480	20	4223
2026-01-19 09:53:54.59	142.46	12.35	-30.0	-31.6	13.0	2.36e-05	0	43	0	112197632	20	4362
2026-01-19 09:53:55.59	142.43	12.45	-30.0	-31.8	12.9	3.66e-05	0	43	0	114294784	20	4408
2026-01-19 09:53:56.59	142.39	12.54	-30.0	-31.8	12.8	6.33e-05	0	43	0	116391936	20	4441
2026-01-19 09:53:57.59	142.36	12.64	-30.0	-31.9	12.7	8.85e-05	0	43	0	118489088	20	4455
2026-01-19 09:53:58.59	142.32	12.73	-29.9	-31.6	13.0	5.72e-05	0	42	0	119537664	20	4359
2026-01-19 09:53:59.59	142.29	12.83	-29.9	-31.5	13.0	3.28e-05	0	43	0	121634816	20	4324
2026-01-19 09:54:00.59	142.25	12.93	-29.7	-31.0	13.4	1.44e-05	0	43	0	123731968	20	4160
2026-01-19 09:54:01.59	142.21	13.02	-29.8	-31.1	13.3	1.44e-05	0	43	0	125829120	20	4184
2026-01-19 09:54:02.60	142.18	13.12	-29.9	-31.4	13.1	1.90e-05	0	43	0	127926272	20	4292
2026-01-19 09:54:03.60	142.14	13.22	-29.7	-30.9	13.5	6.10e-06	0	43	0	128974848	20	4125
2026-01-19 09:54:04.60	142.10	13.32	-29.7	-31.0	13.5	1.37e-05	0	43	0	131072000	20	4151
2026-01-19 09:54:05.61	142.06	13.42	-29.9	-31.3	13.3	4.42e-05	0	43	0	133169152	20	4230
2026-01-19 09:54:06.61	142.03	13.52	-29.9	-31.3	13.2	2.36e-05	0	43	0	135266304	20	4241
2026-01-19 09:54:07.62	141.99	13.62	-30.0	-31.5	13.1	2.05e-05	0	43	0	136314880	20	4307
2026-01-19 09:54:08.62	141.95	13.72	-30.1	-31.8	13.0	4.73e-05	0	43	0	138412032	20	4376
2026-01-19 09:54:09.63	141.91	13.82	-30.2	-32.1	12.8	7.40e-05	0	43	0	140509184	20	4476
2026-01-19 09:54:10.63	141.87	13.92	-30.2	-32.2	12.7	9.30e-05	0	43	0	142606336	20	4510
2026-01-19 09:54:11.63	141.83	14.02	-30.3	-32.3	12.7	4.34e-05	0	43	0	144703488	20	4531
2026-01-19 09:54:12.63	141.79	14.12	-30.2	-32.1	12.8	9.68e-05	0	43	0	146800640	20	4483
2026-01-19 09:54:13.64	141.75	14.22	-30.1	-31.8	13.0	5.26e-05	0	43	0	147849216	20	4358
2026-01-19 09:54:14.64	141.71	14.32	-30.0	-31.4	13.3	2.89e-05	0	43	0	149946368	20	4251
2026-01-19 09:54:15.64	141.67	14.43	-30.0	-31.6	13.2	2.67e-05	0	43	0	152043520	20	4304
2026-01-19 09:54:16.65	141.63	14.53	-29.9	-31.1	13.5	1.06e-05	0	43	0	154140672	20	4174
2026-01-19 09:54:17.65	141.59	14.63	-29.9	-31.2	13.4	1.06e-05	0	43	0	155189248	20	4190
2026-01-19 09:54:18.65	141.55	14.74	-29.9	-31.3	13.3	2.21e-05	0	43	0	157286400	20	4217
2026-01-19 09:54:19.66	141.51	14.84	-29.7	-30.9	13.6	7.60e-06	0	43	0	159383552	20	4117
2026-01-19 09:54:20.66	141.47	14.95	-29.6	-30.6	13.8	3.80e-06	0	43	0	161480704	20	4036
2026-01-19 09:54:21.67	141.42	15.05	-29.7	-30.7	13.8	7.60e-06	0	43	0	163577856	20	4042
2026-01-19 09:54:22.68	141.38	15.16	-29.7	-30.6	13.8	5.30e-06	0	43	0	164626432	20	4018
2026-01-19 09:54:23.68	141.34	15.27	-29.7	-30.9	13.7	1.50e-06	0	43	0	166723584	20	4089
2026-01-19 09:54:24.69	141.30	15.37	-29.7	-30.7	13.8	3.00e-06	0	43	0	168820736	20	4052
2026-01-19 09:54:25.69	141.25	15.48	-29.7	-30.7	13.8	2.20e-06	0	43	0	170917888	20	4026
2026-01-19 09:54:26.70	141.21	15.59	-29.7	-30.7	13.9	4.50e-06	0	43	0	173015040	20	4035
2026-01-19 09:54:27.70	141.16	15.70	-29.7	-30.6	13.9	2.20e-06	0	43	0	174063616	20	4012
2026-01-19 09:54:28.70	141.12	15.81	-29.7	-30.6	14.0	6.10e-06	0	43	0	176160768	20	3994
2026-01-19 09:54:29.71	141.07	15.92	-29.6	-30.3	14.2	1.76e-04	0	43	0	178257920	20	3914
2026-01-19 09:54:30.72	141.03	16.03	-29.6	-30.4	14.1	3.00e-06	0	43	0	180355072	20	3938
2026-01-19 09:54:31.72	140.98	16.14	-29.8	-30.9	13.8	1.50e-06	0	43	0	182452224	20	4092
2026-01-19 09:54:32.72	140.94	16.25	-29.7	-30.6	14.0	3.00e-06	0	43	0	183500800	20	4020
2026-01-19 09:54:33.72	140.89	16.36	-29.6	-30.4	14.1	0.00e+00	0	43	0	185597952	20	3948
2026-01-19 09:54:34.73	140.84	16.47	-29.7	-30.6	14.0	4.50e-06	0	43	0	187695104	20	3998
2026-01-19 09:54:35.73	140.80	16.58	-29.8	-30.8	13.9	2.20e-06	0	43	0	189792256	20	4064
2026-01-19 09:54:36.73	140.75	16.69	-29.9	-31.1	13.7	6.10e-06	0	43	0	191889408	20	4150
2026-01-19 09:54:37.73	140.70	16.81	-29.9	-31.2	13.7	3.80e-06	0	43	0	192937984	20	4164
2026-01-19 09:54:38.73	140.65	16.92	-30.0	-31.3	13.7	2.20e-06	0	43	0	195035136	20	4200
2026-01-19 09:54:39.74	140.61	17.03	-30.1	-31.5	13.5	7.60e-06	0	43	0	197132288	20	4263
2026-01-19 09:54:40.74	140.56	17.15	-30.0	-31.3	13.7	6.10e-06	0	43	0	199229440	20	4185
2026-01-19 09:54:41.75	140.51	17.26	-29.9	-31.1	13.8	4.50e-06	0	43	0	201326592	20	4129
2026-01-19 09:54:42.76	140.46	17.38	-29.9	-31.2	13.8	6.80e-06	0	43	0	202375168	20	4139
2026-01-19 09:54:43.75	140.41	17.50	-29.9	-31.0	14.0	3.00e-06	0	43	0	204472320	20	4088
2026-01-19 09:54:44.75	140.36	17.61	-29.8	-30.8	14.1	7.00e-07	0	43	0	206569472	20	4020
2026-01-19 09:54:45.76	140.31	17.73	-29.7	-30.5	14.3	7.00e-07	0	43	0	208666624	20	3959
2026-01-19 09:54:46.75	140.26	17.85	-29.7	-30.6	14.2	2.20e-06	0	43	0	209715200	20	3972
2026-01-19 09:54:47.76	140.20	17.96	-29.8	-30.8	14.1	1.50e-06	0	43	0	211812352	20	4030
2026-01-19 09:54:48.75	140.15	18.08	-29.6	-30.3	14.4	7.00e-07	0	43	0	213909504	20	3896
2026-01-19 09:54:49.76	140.10	18.20	-29.7	-30.6	14.2	1.50e-06	0	43	0	216006656	20	3978
2026-01-19 09:54:50.76	140.05	18.32	-29.8	-30.7	14.2	5.30e-06	0	43	0	218103808	20	4014
2026-01-19 09:54:51.75	139.99	18.44	-29.8	-30.8	14.1	7.00e-07	0	43	0	219152384	20	4052
2026-01-19 09:54:52.76	139.94	18.56	-29.9	-31.1	14.0	3.00e-06	0	43	0	221249536	20	4136
2026-01-19 09:54:53.76	139.88	18.68	-29.9	-31.0	14.0	3.80e-06	0	43	0	223346688	20	4107
2026-01-19 09:54:54.77	139.83	18.81	-29.9	-31.0	14.0	2.20e-06	0	43	0	225443840	20	4107
2026-01-19 09:54:55.77	139.77	18.93	-29.9	-31.1	14.0	1.50e-06	0	43	0	227540992	20	4117
2026-01-19 09:54:56.77	139.72	19.05	-29.9	-30.9	14.2	7.00e-07	0	43	0	228589568	20	4060
2026-01-19 09:54:57.77	139.66	19.18	-29.7	-30.6	14.3	1.50e-06	0	43	0	230686720	20	3968
2026-01-19 09:54:58.77	139.61	19.30	-29.9	-31.0	14.1	1.50e-06	0	43	0	232783872	20	4073
2026-01-19 09:54:59.77	139.55	19.42	-29.8	-30.7	14.3	2.20e-06	0	43	0	234881024	20	3981
2026-01-19 09:55:00.77	139.49	19.55	-29.8	-30.8	14.3	1.50e-06	0	43	0	236978176	20	4006
2026-01-19 09:55:01.78	139.43	19.68	-29.7	-30.4	14.5	7.00e-07	0	43	0	238026752	20	3904
2026-01-19 09:55:02.77	139.37	19.80	-30.0	-31.2	14.0	7.00e-07	0	43	0	240123904	20	4128
2026-01-19 09:55:03.78	139.31	19.93	-30.0	-31.3	14.0	1.50e-06	0	43	0	242221056	20	4156
2026-01-19 09:55:04.79	139.25	20.06	-29.8	-30.7	14.4	7.00e-07	0	43	0	244318208	20	3986
2026-01-19 09:55:05.79	139.19	20.19	-29.7	-30.4	14.6	0.00e+00	0	43	0	246415360	20	3906
2026-01-19 09:55:06.80	139.13	20.32	-29.7	-30.5	14.4	7.00e-07	0	43	0	247463936	20	3948
2026-01-19 09:55:07.80	139.07	20.45	-29.7	-30.4	14.5	0.00e+00	0	43	0	249561088	20	3918
2026-01-19 09:55:08.80	139.01	20.58	-29.7	-30.5	14.5	0.00e+00	0	43	0	251658240	20	3932
2026-01-19 09:55:09.81	138.95	20.71	-29.7	-30.4	14.5	2.20e-06	0	43	0	253755392	20	3922
2026-01-19 09:55:10.81	138.88	20.84	-29.6	-30.3	14.6	0.00e+00	0	43	0	254803968	20	3865
2026-01-19 09:55:11.81	138.82	20.97	-29.8	-30.7	14.4	0.00e+00	0	43	0	256901120	20	3969
2026-01-19 09:55:12.82	138.76	21.11	-29.9	-30.8	14.3	0.00e+00	0	43	0	258998272	20	4018
2026-01-19 09:55:13.81	138.69	21.24	-30.0	-31.1	14.3	7.00e-07	0	43	0	261095424	20	4087
2026-01-19 09:55:14.82	138.63	21.38	-30.0	-31.2	14.1	2.20e-06	0	43	0	263192576	20	4128
2026-01-19 09:55:15.82	138.56	21.51	-30.3	-31.9	13.7	3.80e-06	0	43	0	264241152	20	4342
2026-01-19 09:55:16.83	138.49	21.65	-30.3	-32.0	13.6	4.50e-06	0	43	0	266338304	20	4363
2026-01-19 09:55:17.82	138.43	21.78	-30.6	-32.2	13.1	1.52e-05	0	43	0	268435456	21	4346
2026-01-19 09:55:18.83	138.36	21.92	-30.6	-32.1	13.2	2.51e-05	0	43	0	270532608	21	4325
2026-01-19 09:55:19.83	138.29	22.06	-30.7	-32.5	13.0	2.05e-05	0	43	0	272629760	21	4428
2026-01-19 09:55:20.83	138.22	22.20	-30.5	-31.9	13.4	1.90e-05	0	43	0	273678336	21	4263
2026-01-19 09:55:21.83	138.15	22.34	-30.5	-32.0	13.3	1.37e-05	0	43	0	275775488	21	4272
2026-01-19 09:55:22.83	138.08	22.48	-30.3	-31.4	13.7	1.14e-05	0	43	0	277872640	21	4084
2026-01-19 09:55:23.84	138.01	22.62	-30.1	-30.8	14.1	2.20e-06	0	43	0	279969792	21	3926
2026-01-19 09:55:24.85	137.94	22.76	-30.1	-31.0	13.9	1.50e-06	0	43	0	282066944	21	3978
2026-01-19 09:55:25.85	137.87	22.90	-30.0	-30.6	14.3	1.50e-06	0	43	0	283115520	21	3853
2026-01-19 09:55:26.85	137.79	23.05	-30.1	-30.8	14.1	1.50e-06	0	43	0	285212672	21	3925
2026-01-19 09:55:27.85	137.72	23.19	-30.3	-31.5	13.7	4.50e-06	0	43	0	287309824	21	4113
2026-01-19 09:55:28.85	137.65	23.33	-30.3	-31.3	13.8	7.00e-07	0	43	0	289406976	21	4047
2026-01-19 09:55:29.85	137.57	23.48	-30.2	-31.0	14.1	7.00e-07	0	43	0	291504128	21	3969
2026-01-19 09:55:30.86	137.49	23.63	-30.2	-31.0	14.1	2.20e-06	0	43	0	292552704	21	3957
2026-01-19 09:55:31.86	137.42	23.77	-30.2	-31.0	14.1	3.80e-06	0	43	0	294649856	21	3962
2026-01-19 09:55:32.86	137.34	23.92	-30.2	-31.1	14.0	2.20e-06	0	43	0	296747008	21	3982
2026-01-19 09:55:33.86	137.26	24.07	-30.2	-31.0	14.1	7.60e-06	0	43	0	298844160	21	3960
2026-01-19 09:55:34.87	137.18	24.22	-30.5	-31.8	13.6	1.37e-05	0	43	0	300941312	21	4186
2026-01-19 09:55:35.86	137.10	24.37	-30.6	-32.1	13.4	9.10e-06	0	43	0	301989888	21	4308
2026-01-19 09:55:36.86	137.02	24.52	-30.5	-32.1	13.3	1.67e-05	0	43	0	304087040	21	4315
2026-01-19 09:55:37.87	136.94	24.67	-30.6	-32.4	13.2	3.35e-05	0	43	0	306184192	21	4415
2026-01-19 09:55:38.87	136.86	24.82	-30.7	-32.7	12.9	4.65e-05	0	43	0	308281344	21	4529
2026-01-19 09:55:39.86	136.78	24.97	-30.7	-32.5	13.1	2.13e-05	0	43	0	309329920	21	4455
2026-01-19 09:55:40.86	136.69	25.13	-30.8	-32.8	12.9	2.89e-05	0	43	0	311427072	21	4541
2026-01-19 09:55:41.86	136.61	25.28	-30.8	-32.7	13.0	3.96e-05	0	43	0	313524224	21	4480
2026-01-19 09:55:42.87	136.52	25.44	-30.7	-32.5	13.2	2.21e-05	0	43	0	315621376	21	4432
2026-01-19 09:55:43.87	136.44	25.59	-31.0	-33.3	12.7	2.67e-05	0	43	0	317718528	21	4677
2026-01-19 09:55:44.88	136.35	25.75	-30.8	-32.1	13.1	3.28e-05	0	43	0	318767104	22	4199
2026-01-19 09:55:45.88	136.26	25.91	-30.7	-31.9	13.3	1.83e-05	0	43	0	320864256	22	4129
2026-01-19 09:55:46.89	136.17	26.07	-30.8	-32.2	13.1	3.43e-05	0	43	0	322961408	22	4234
2026-01-19 09:55:47.89	136.08	26.23	-30.9	-32.4	12.9	3.81e-05	0	43	0	325058560	22	4298
2026-01-19 09:55:48.89	135.99	26.39	-30.8	-32.2	13.1	4.95e-05	0	43	0	327155712	22	4235
2026-01-19 09:55:49.89	135.90	26.55	-31.1	-33.0	12.5	7.93e-05	0	43	0	328204288	22	4491
2026-01-19 09:55:50.89	135.81	26.71	-30.9	-32.4	12.9	9.76e-05	0	43	0	330301440	22	4291
2026-01-19 09:55:51.89	135.71	26.88	-30.9	-32.4	13.0	2.13e-05	0	43	0	332398592	22	4293
2026-01-19 09:55:52.89	135.62	27.04	-30.9	-32.5	12.9	2.89e-05	0	43	0	334495744	22	4335
2026-01-19 09:55:53.89	135.52	27.21	-31.0	-32.7	12.7	4.73e-05	0	43	0	336592896	22	4377
2026-01-19 09:55:54.90	135.43	27.37	-31.0	-32.9	12.7	7.93e-05	0	43	0	337641472	22	4450
2026-01-19 09:55:55.90	135.33	27.54	-31.3	-33.7	12.1	2.48e-04	0	43	0	339738624	22	4735
2026-01-19 09:55:56.90	135.23	27.71	-31.5	-33.6	11.8	2.97e-04	0	43	0	341835776	23	4617
2026-01-19 09:55:57.90	135.13	27.88	-31.4	-33.3	12.1	4.27e-04	0	43	0	343932928	23	4495
2026-01-19 09:55:58.90	135.03	28.05	-31.6	-34.0	11.6	3.53e-04	0	43	0	346030080	23	4749
2026-01-19 09:55:59.90	134.93	28.22	-31.6	-33.8	11.7	4.46e-04	0	43	0	347078656	23	4682
2026-01-19 09:56:00.91	134.82	28.39	-31.3	-33.1	12.2	2.41e-04	0	44	0	349175808	23	4423
2026-01-19 09:56:01.91	134.72	28.56	-31.5	-33.8	11.8	2.15e-04	0	43	0	351272960	23	4660
2026-01-19 09:56:02.91	134.61	28.74	-31.5	-33.6	11.9	5.77e-04	0	43	0	353370112	23	4587
2026-01-19 09:56:03.92	134.51	28.91	-31.4	-33.3	12.1	3.90e-04	0	43	0	354418688	23	4511
2026-01-19 09:56:04.91	134.40	29.09	-31.4	-33.4	12.1	2.29e-04	0	43	0	356515840	23	4518
2026-01-19 09:56:05.92	134.29	29.26	-31.5	-33.8	11.8	4.52e-04	0	43	0	358612992	23	4675
2026-01-19 09:56:06.92	134.18	29.44	-31.6	-34.1	11.5	6.02e-04	0	43	0	360710144	23	4784
2026-01-19 09:56:07.92	134.07	29.62	-31.6	-33.9	11.6	4.13e-04	0	43	0	362807296	23	4723
2026-01-19 09:56:08.92	133.96	29.80	-31.6	-33.9	11.7	3.24e-04	0	43	0	363855872	23	4703
2026-01-19 09:56:09.93	133.84	29.98	-31.6	-34.0	11.6	4.81e-04	0	44	0	365953024	23	4745
2026-01-19 09:56:10.93	133.72	30.16	-31.3	-33.0	12.3	5.44e-04	0	43	0	368050176	23	4381
2026-01-19 09:56:11.93	133.61	30.34	-31.3	-33.0	12.3	2.62e-04	0	43	0	370147328	23	4391
2026-01-19 09:56:12.93	133.49	30.53	-31.4	-33.4	12.1	3.02e-04	0	44	0	372244480	23	4527
2026-01-19 09:56:13.93	133.37	30.71	-31.3	-33.2	12.2	2.82e-04	0	43	0	373293056	23	4477
2026-01-19 09:56:14.94	133.25	30.90	-31.3	-33.3	12.2	2.40e-04	0	43	0	375390208	23	4485
2026-01-19 09:56:15.94	133.13	31.09	-31.6	-33.9	11.7	5.12e-04	0	43	0	377487360	23	4722
2026-01-19 09:56:16.93	133.00	31.27	-31.5	-33.6	12.1	2.83e-04	0	43	0	379584512	23	4586
2026-01-19 09:56:17.94	132.88	31.46	-31.5	-33.6	12.0	3.23e-04	0	43	0	381681664	23	4583
2026-01-19 09:56:18.94	132.75	31.65	-31.7	-34.3	11.6	8.69e-04	0	43	0	382730240	23	4824
2026-01-19 09:56:19.95	132.62	31.84	-31.6	-34.0	11.8	6.54e-04	0	44	0	384827392	23	4726
2026-01-19 09:56:20.95	132.49	32.04	-32.0	-34.7	10.9	1.06e-03	0	44	0	386924544	24	4907
2026-01-19 09:56:21.96	132.36	32.23	-31.6	-33.4	11.8	2.45e-03	0	44	0	389021696	24	4412
2026-01-19 09:56:22.95	132.23	32.42	-31.7	-33.5	11.8	3.47e-04	0	43	0	391118848	24	4449
2026-01-19 09:56:23.96	132.09	32.62	-31.8	-34.1	11.3	7.02e-04	0	44	0	392167424	24	4672
2026-01-19 09:56:24.96	131.95	32.82	-31.5	-32.9	12.2	4.35e-04	0	43	0	394264576	24	4241
2026-01-19 09:56:25.96	131.82	33.01	-31.5	-32.9	12.2	1.71e-04	0	44	0	396361728	24	4250
2026-01-19 09:56:26.96	131.68	33.21	-31.8	-33.8	11.6	1.58e-03	0	43	0	398458880	24	4550
2026-01-19 09:56:27.96	131.54	33.41	-32.1	-34.9	10.8	1.53e-03	0	43	0	399507456	24	4963
2026-01-19 09:56:28.96	131.39	33.61	-32.4	-35.9	10.2	2.60e-03	0	43	0	401604608	24	5344
2026-01-19 09:56:29.96	131.25	33.81	-32.4	-35.1	10.3	4.02e-03	0	44	0	403701760	25	4943
2026-01-19 09:56:30.96	131.10	34.02	-32.3	-34.8	10.5	3.20e-03	0	43	0	405798912	25	4830
2026-01-19 09:56:31.97	130.95	34.22	-32.6	-35.7	9.8	3.15e-03	0	43	0	407896064	25	5198
2026-01-19 09:56:32.97	130.80	34.43	-32.0	-33.7	11.3	1.34e-03	0	43	0	408944640	25	4413
2026-01-19 09:56:33.97	130.65	34.63	-32.0	-33.9	11.3	9.29e-04	0	44	0	411041792	25	4484
2026-01-19 09:56:34.98	130.49	34.84	-32.3	-34.7	10.7	3.80e-03	0	44	0	413138944	25	4770
2026-01-19 09:56:35.98	130.33	35.05	-32.4	-35.0	10.5	3.85e-03	0	43	0	415236096	25	4889
2026-01-19 09:56:36.99	130.17	35.26	-32.5	-35.4	10.2	5.03e-03	0	44	0	417333248	25	5031
2026-01-19 09:56:37.99	130.01	35.47	-32.6	-35.8	9.9	4.91e-03	0	43	0	418381824	25	5232
2026-01-19 09:56:38.99	129.85	35.68	-32.5	-35.6	10.0	9.34e-03	0	43	0	420478976	25	5138
2026-01-19 09:56:39.99	129.68	35.90	-32.5	-35.4	10.2	5.11e-03	0	44	0	422576128	25	5050
2026-01-19 09:56:40.99	129.52	36.11	-32.4	-35.2	10.3	3.73e-03	0	43	0	424673280	25	4981
2026-01-19 09:56:41.99	129.35	36.33	-32.6	-36.0	9.7	6.95e-03	0	44	0	426770432	25	5323
2026-01-19 09:56:42.99	129.18	36.54	-32.6	-35.9	9.8	1.34e-02	0	44	0	427819008	25	5275
2026-01-19 09:56:43.99	129.00	36.76	-32.6	-36.0	9.8	1.47e-02	0	44	0	429916160	25	5309
2026-01-19 09:56:45.00	128.82	36.98	-32.6	-35.7	9.9	1.34e-02	0	44	0	432013312	25	5190
2026-01-19 09:56:46.00	128.64	37.20	-32.5	-35.7	10.0	1.08e-02	0	43	0	434110464	25	5153
2026-01-19 09:56:47.00	128.46	37.42	-32.9	-36.8	9.1	1.60e-02	0	43	0	436207616	25	5687
2026-01-19 09:56:48.00	128.28	37.64	-32.9	-36.9	9.1	2.08e-02	0	43	0	437256192	25	5714
2026-01-19 09:56:49.00	128.09	37.87	-33.0	-36.6	8.7	2.94e-02	0	43	0	439353344	26	5482
2026-01-19 09:56:50.00	127.90	38.09	-33.0	-36.8	8.7	3.29e-02	0	44	0	441450496	26	5602
2026-01-19 09:56:51.00	127.71	38.32	-32.5	-35.1	10.1	2.04e-02	0	44	0	443547648	26	4813
2026-01-19 09:56:52.01	127.51	38.54	-32.2	-34.5	10.8	4.05e-03	0	44	0	444596224	25	4683
2026-01-19 09:56:53.01	127.32	38.77	-32.1	-34.2	11.1	1.37e-03	0	44	0	446693376	25	4552
2026-01-19 09:56:54.02	127.11	39.00	-32.1	-34.1	11.2	1.17e-03	0	44	0	448790528	25	4525
2026-01-19 09:56:55.02	126.91	39.23	-32.1	-34.1	11.3	1.30e-03	0	44	0	450887680	25	4521
2026-01-19 09:56:56.02	126.71	39.46	-31.7	-33.3	12.1	9.00e-04	0	43	0	452984832	24	4345
2026-01-19 09:56:57.03	126.49	39.70	-31.5	-32.8	12.5	1.86e-04	0	44	0	454033408	24	4190
2026-01-19 09:56:58.03	126.28	39.93	-31.2	-32.4	13.0	7.78e-05	0	44	0	456130560	23	4149
2026-01-19 09:56:59.04	126.07	40.17	-31.4	-33.4	12.7	9.90e-06	0	44	0	458227712	22	4561
2026-01-19 09:57:00.04	125.85	40.40	-31.5	-33.4	12.3	1.01e-04	0	44	0	460324864	23	4456
2026-01-19 09:57:01.04	125.63	40.64	-31.4	-33.1	12.5	2.00e-04	0	44	0	462422016	23	4357
2026-01-19 09:57:02.04	125.40	40.88	-31.7	-33.9	12.0	2.44e-04	0	44	0	463470592	23	4648
2026-01-19 09:57:03.04	125.17	41.12	-31.5	-33.2	12.5	2.18e-04	0	44	0	465567744	23	4404
2026-01-19 09:57:04.05	124.94	41.36	-31.7	-34.0	12.2	1.23e-04	0	44	0	467664896	23	4690
2026-01-19 09:57:05.05	124.70	41.60	-32.1	-34.6	11.2	6.07e-04	0	44	0	469762048	24	4810
2026-01-19 09:57:06.05	124.46	41.84	-32.0	-34.3	11.5	7.89e-04	0	44	0	471859200	24	4713
2026-01-19 09:57:07.06	124.22	42.09	-31.9	-34.0	11.7	9.61e-04	0	43	0	472907776	24	4589
2026-01-19 09:57:08.06	123.97	42.33	-32.0	-34.4	11.4	6.40e-04	0	43	0	475004928	24	4725
2026-01-19 09:57:09.07	123.72	42.58	-32.2	-35.1	11.0	8.34e-04	0	44	0	477102080	24	5015
2026-01-19 09:57:10.07	123.47	42.82	-32.4	-35.0	10.6	4.42e-03	0	44	0	479199232	25	4860
2026-01-19 09:57:11.08	123.21	43.07	-32.3	-34.7	10.8	5.40e-03	0	44	0	481296384	25	4750
2026-01-19 09:57:12.08	122.94	43.32	-32.2	-34.3	11.0	3.36e-03	0	43	0	482344960	25	4618
2026-01-19 09:57:13.09	122.67	43.57	-31.7	-33.5	11.9	6.03e-04	0	44	0	484442112	24	4421
2026-01-19 09:57:14.09	122.40	43.82	-31.6	-33.2	12.3	1.56e-04	0	44	0	486539264	24	4320
2026-01-19 09:57:15.09	122.13	44.07	-32.1	-34.5	11.3	6.77e-04	0	44	0	488636416	24	4773
2026-01-19 09:57:16.09	121.85	44.32	-32.5	-35.6	10.1	3.26e-03	0	44	0	490733568	25	5127
2026-01-19 09:57:17.09	121.57	44.57	-32.0	-33.7	11.5	2.04e-03	0	44	0	491782144	25	4408
2026-01-19 09:57:18.09	121.28	44.83	-31.9	-33.4	11.7	6.36e-04	0	44	0	493879296	25	4293
2026-01-19 09:57:19.09	120.99	45.08	-31.8	-33.6	12.0	4.13e-04	0	44	0	495976448	24	4457
2026-01-19 09:57:20.10	120.68	45.34	-31.8	-33.6	12.0	1.94e-04	0	44	0	498073600	24	4446
2026-01-19 09:57:21.10	120.38	45.59	-32.0	-34.2	11.5	9.47e-04	0	44	0	499122176	24	4660
2026-01-19 09:57:22.10	120.07	45.85	-31.8	-33.7	11.8	9.44e-04	0	44	0	501219328	24	4470
2026-01-19 09:57:23.10	119.76	46.11	-31.7	-33.4	12.1	3.68e-04	0	44	0	503316480	24	4390
2026-01-19 09:57:24.11	119.44	46.37	-31.5	-32.9	12.5	1.50e-04	0	44	0	505413632	24	4209
2026-01-19 09:57:25.11	119.12	46.62	-31.6	-33.0	12.4	2.14e-04	0	44	0	507510784	24	4228
2026-01-19 09:57:26.11	118.79	46.88	-31.5	-32.7	12.7	1.27e-04	0	44	0	508559360	24	4152
2026-01-19 09:57:27.11	118.46	47.14	-31.1	-32.2	13.3	4.73e-05	0	44	0	510656512	23	4074
2026-01-19 09:57:28.11	118.12	47.40	-31.2	-32.4	13.2	2.05e-05	0	43	0	512753664	23	4122
2026-01-19 09:57:29.11	117.77	47.66	-31.3	-32.8	12.9	2.97e-05	0	44	0	514850816	23	4253
2026-01-19 09:57:30.11	117.42	47.92	-31.4	-33.1	12.8	4.57e-05	0	44	0	516947968	23	4347
2026-01-19 09:57:31.11	117.06	48.18	-31.4	-32.8	12.9	4.95e-05	0	44	0	517996544	23	4274
2026-01-19 09:57:32.11	116.70	48.44	-30.9	-31.6	13.6	1.22e-05	0	44	0	520093696	23	3915
2026-01-19 09:57:33.11	116.33	48.70	-30.9	-32.1	13.7	6.10e-06	0	44	0	522190848	22	4119
2026-01-19 09:57:34.12	115.95	48.97	-31.4	-33.5	12.8	2.51e-05	0	44	0	524288000	22	4591
2026-01-19 09:57:35.13	115.56	49.23	-32.0	-34.7	11.7	2.24e-04	0	44	0	526385152	23	4940
2026-01-19 09:57:36.13	115.17	49.49	-31.6	-33.7	12.4	3.13e-04	0	44	0	527433728	23	4552
2026-01-19 09:57:37.13	114.78	49.76	-31.6	-33.6	12.4	1.54e-04	0	44	0	529530880	23	4545
2026-01-19 09:57:38.13	114.38	50.02	-31.7	-33.7	12.2	2.49e-04	0	44	0	531628032	23	4553
2026-01-19 09:57:39.13	113.97	50.28	-31.3	-32.8	12.9	1.09e-04	0	44	0	533725184	23	4267
2026-01-19 09:57:40.12	113.55	50.54	-30.8	-31.3	13.9	1.75e-05	0	44	0	534773760	23	3835
2026-01-19 09:57:41.13	113.12	50.80	-30.1	-30.7	14.9	0.00e+00	0	44	0	536870912	21	3822
2026-01-19 09:57:42.13	112.69	51.06	-30.4	-31.3	14.5	7.00e-07	0	44	0	538968064	21	3990
2026-01-19 09:57:43.12	112.26	51.32	-30.5	-31.4	14.3	1.50e-06	0	43	0	541065216	21	4034
2026-01-19 09:57:44.13	111.81	51.59	-30.0	-30.2	15.1	0.00e+00	0	43	0	543162368	21	3711
2026-01-19 09:57:45.13	111.35	51.85	-29.4	-29.3	16.0	0.00e+00	0	44	0	544210944	20	3564
2026-01-19 09:57:46.14	110.88	52.11	-29.4	-29.9	16.1	0.00e+00	0	43	0	546308096	19	3783
2026-01-19 09:57:47.14	110.41	52.37	-29.3	-29.5	16.3	0.00e+00	0	44	0	548405248	19	3692
2026-01-19 09:57:48.14	109.93	52.63	-29.8	-30.7	15.6	0.00e+00	0	44	0	550502400	19	4008
2026-01-19 09:57:49.14	109.44	52.88	-30.3	-31.5	14.8	0.00e+00	0	44	0	552599552	20	4134
2026-01-19 09:57:50.14	108.95	53.14	-30.5	-31.7	14.3	0.00e+00	0	44	0	553648128	21	4101
2026-01-19 09:57:51.15	108.43	53.40	-30.7	-32.1	14.1	7.00e-07	0	44	0	555745280	21	4228
2026-01-19 09:57:52.15	107.92	53.65	-31.2	-32.9	13.3	1.29e-05	0	44	0	557842432	22	4369
2026-01-19 09:57:53.15	107.40	53.91	-31.4	-33.6	12.8	2.13e-05	0	44	0	559939584	22	4604
2026-01-19 09:57:54.15	106.86	54.16	-32.0	-34.3	11.6	1.52e-04	0	44	0	562036736	24	4678
2026-01-19 09:57:55.15	106.32	54.41	-32.0	-34.1	11.7	4.06e-04	0	44	0	563085312	24	4628
2026-01-19 09:57:56.15	105.77	54.66	-31.7	-33.5	12.2	3.16e-04	0	44	0	565182464	24	4385
2026-01-19 09:57:57.16	105.20	54.91	-31.0	-31.7	13.6	5.56e-05	0	44	0	567279616	23	3936
2026-01-19 09:57:58.16	104.63	55.16	-30.4	-30.9	14.5	1.50e-06	0	44	0	569376768	22	3787
2026-01-19 09:57:59.17	104.04	55.40	-30.4	-31.2	14.6	0.00e+00	0	44	0	571473920	21	3960
2026-01-19 09:58:00.17	103.44	55.65	-30.5	-31.5	14.4	0.00e+00	0	44	0	572522496	21	4047
2026-01-19 09:58:01.18	102.84	55.89	-31.1	-32.6	13.5	1.50e-06	0	44	0	574619648	22	4271
2026-01-19 09:58:02.19	102.22	56.13	-31.4	-33.4	13.0	2.13e-05	0	44	0	576716800	22	4546
2026-01-19 09:58:03.19	101.59	56.37	-30.9	-32.0	13.9	2.97e-05	0	43	0	578813952	22	4099
2026-01-19 09:58:04.20	100.95	56.60	-30.5	-31.1	14.5	7.00e-07	0	44	0	580911104	22	3831
2026-01-19 09:58:05.19	100.31	56.83	-30.3	-30.5	14.8	1.50e-06	0	44	0	581959680	22	3671
2026-01-19 09:58:06.19	99.65	57.06	-30.7	-31.4	14.2	1.50e-06	0	44	0	584056832	22	3936
2026-01-19 09:58:07.20	98.98	57.29	-31.0	-32.3	13.7	7.00e-07	0	44	0	586153984	22	4175
2026-01-19 09:58:08.20	98.30	57.51	-30.7	-31.5	14.2	7.00e-07	0	43	0	588251136	22	3950
2026-01-19 09:58:09.20	97.61	57.73	-30.9	-32.0	13.9	5.30e-06	0	44	0	590348288	22	4094
2026-01-19 09:58:10.20	96.91	57.95	-30.8	-31.7	14.2	2.20e-06	0	43	0	591396864	22	4004
2026-01-19 09:58:11.21	96.19	58.17	-30.6	-31.2	14.4	4.50e-06	0	43	0	593494016	22	3877
2026-01-19 09:58:12.21	95.46	58.38	-30.2	-30.7	15.0	0.00e+00	0	44	0	595591168	21	3805
2026-01-19 09:58:13.21	94.73	58.58	-30.3	-31.1	14.7	7.00e-07	0	44	0	597688320	21	3933
2026-01-19 09:58:14.22	93.97	58.79	-30.5	-31.6	14.4	0.00e+00	0	44	0	598736896	21	4072
2026-01-19 09:58:15.22	93.21	58.99	-30.7	-31.9	14.3	7.00e-07	0	44	0	600834048	21	4156
2026-01-19 09:58:16.22	92.44	59.18	-30.7	-31.9	14.2	0.00e+00	0	44	0	602931200	21	4155
2026-01-19 09:58:17.23	91.65	59.37	-30.9	-32.6	13.8	1.50e-06	0	44	0	605028352	21	4362
2026-01-19 09:58:18.23	90.86	59.56	-30.8	-31.9	14.0	9.10e-06	0	44	0	607125504	22	4077
2026-01-19 09:58:19.24	90.05	59.74	-30.6	-31.3	14.3	7.00e-07	0	44	0	608174080	22	3889
2026-01-19 09:58:20.24	89.23	59.92	-30.5	-30.9	14.6	0.00e+00	0	43	0	610271232	22	3784
2026-01-19 09:58:21.24	88.40	60.09	-30.8	-31.7	14.0	7.00e-07	0	43	0	612368384	22	4007
2026-01-19 09:58:22.25	87.56	60.26	-30.5	-31.0	14.5	7.00e-07	0	44	0	614465536	22	3824
2026-01-19 09:58:23.26	86.70	60.42	-30.3	-31.1	14.8	0.00e+00	0	44	0	616562688	21	3916
2026-01-19 09:58:24.25	85.85	60.58	-30.5	-31.4	14.6	0.00e+00	0	44	0	617611264	21	4008
2026-01-19 09:58:25.25	84.98	60.73	-30.8	-32.3	14.0	2.20e-06	0	44	0	619708416	21	4265
2026-01-19 09:58:26.26	84.09	60.87	-31.6	-33.4	12.8	1.29e-05	0	43	0	621805568	23	4434
2026-01-19 09:58:27.25	83.21	61.01	-32.8	-36.1	10.0	1.58e-03	0	43	0	623902720	25	5314
2026-01-19 09:58:28.26	82.30	61.15	-31.8	-33.0	12.2	2.47e-03	0	44	0	625999872	25	4146
2026-01-19 09:58:29.26	81.39	61.27	-30.7	-31.4	14.4	1.50e-06	0	44	0	627048448	22	3908
2026-01-19 09:58:30.26	80.47	61.40	-30.8	-31.8	14.1	7.00e-07	0	43	0	629145600	22	4045
2026-01-19 09:58:31.26	79.54	61.51	-31.2	-32.8	13.4	1.50e-06	0	43	0	631242752	22	4320
2026-01-19 09:58:32.27	78.60	61.62	-31.1	-32.5	13.6	9.10e-06	0	43	0	633339904	22	4229
2026-01-19 09:58:33.27	77.65	61.72	-30.9	-32.0	13.9	7.00e-07	0	43	0	635437056	22	4099
2026-01-19 09:58:34.28	76.69	61.82	-31.4	-32.9	13.0	2.21e-05	0	44	0	636485632	23	4285
2026-01-19 09:58:35.27	75.74	61.91	-31.3	-32.5	13.3	2.82e-05	0	44	0	638582784	23	4154
2026-01-19 09:58:36.27	74.78	61.99	-31.0	-31.7	13.8	3.80e-06	0	44	0	640679936	23	3909
2026-01-19 09:58:37.27	73.81	62.06	-30.3	-30.6	14.8	0.00e+00	0	43	0	642777088	22	3693
2026-01-19 09:58:38.27	72.83	62.13	-29.3	-28.9	16.3	7.00e-07	0	44	0	643825664	20	3466
2026-01-19 09:58:39.28	71.84	62.19	-28.7	-28.7	17.1	0.00e+00	0	44	0	645922816	18	3584
2026-01-19 09:58:40.28	70.85	62.25	-29.2	-29.9	16.5	0.00e+00	0	44	0	648019968	18	3867
2026-01-19 09:58:41.29	69.85	62.29	-29.1	-29.6	16.6	2.20e-06	0	44	0	650117120	18	3809
2026-01-19 09:58:42.29	68.85	62.33	-28.5	-28.2	17.4	0.00e+00	0	44	0	652214272	18	3466
2026-01-19 09:58:43.28	67.87	62.36	-28.8	-28.8	17.1	0.00e+00	0	44	0	653262848	18	3595
2026-01-19 09:58:44.29	66.86	62.39	-29.3	-30.0	16.3	1.50e-06	0	44	0	655360000	18	3905
2026-01-19 09:58:45.29	65.86	62.40	-29.3	-30.0	16.5	0.00e+00	0	43	0	657457152	18	3906
2026-01-19 09:58:46.30	64.84	62.41	-29.7	-30.6	15.7	0.00e+00	0	44	0	659554304	19	3973
2026-01-19 09:58:47.30	63.84	62.41	-30.3	-31.4	14.8	0.00e+00	0	43	0	661651456	20	4104
2026-01-19 09:58:48.31	62.83	62.41	-29.4	-29.3	16.1	0.00e+00	0	43	0	662700032	20	3558
2026-01-19 09:58:49.31	61.83	62.40	-29.0	-28.9	16.8	0.00e+00	0	44	0	664797184	19	3543
2026-01-19 09:58:50.31	60.83	62.38	-29.6	-30.3	15.9	0.00e+00	0	44	0	666894336	19	3881
2026-01-19 09:58:51.31	59.83	62.35	-29.7	-30.5	15.8	0.00e+00	0	44	0	668991488	19	3941
2026-01-19 09:58:52.31	58.83	62.31	-30.3	-31.5	14.8	0.00e+00	0	44	0	671088640	20	4121
2026-01-19 09:58:53.31	57.84	62.27	-29.9	-30.5	15.4	0.00e+00	0	44	0	672137216	20	3866
2026-01-19 09:58:54.32	56.84	62.22	-29.4	-29.3	16.1	0.00e+00	0	43	0	674234368	20	3562
2026-01-19 09:58:55.33	55.85	62.16	-29.4	-29.8	16.2	0.00e+00	0	43	0	676331520	19	3772
2026-01-19 09:58:56.34	54.86	62.10	-29.6	-29.8	15.7	0.00e+00	0	44	0	678428672	20	3674
2026-01-19 09:58:57.34	53.88	62.02	-29.2	-29.3	16.5	0.00e+00	0	44	0	680525824	19	3644
2026-01-19 09:58:58.35	52.91	61.94	-29.9	-30.9	15.6	0.00e+00	0	44	0	681574400	19	4049
2026-01-19 09:58:59.36	51.93	61.86	-31.1	-32.6	13.5	5.30e-06	0	43	0	683671552	22	4274
2026-01-19 09:59:00.36	50.98	61.76	-30.6	-31.2	14.4	6.80e-06	0	43	0	685768704	22	3867
2026-01-19 09:59:01.36	50.03	61.67	-30.1	-30.4	15.1	0.00e+00	0	44	0	687865856	21	3732
2026-01-19 09:59:02.37	49.09	61.56	-29.6	-29.7	15.9	7.00e-07	0	44	0	689963008	20	3652
2026-01-19 09:59:03.37	48.16	61.45	-28.8	-28.4	16.9	0.00e+00	0	43	0	691011584	19	3438
2026-01-19 09:59:04.38	47.22	61.33	-28.9	-29.0	16.9	0.00e+00	0	44	0	693108736	18	3653
2026-01-19 09:59:05.38	46.31	61.20	-28.9	-29.1	16.9	0.00e+00	0	43	0	695205888	18	3689
2026-01-19 09:59:06.39	45.40	61.07	-29.1	-29.4	16.7	0.00e+00	0	43	0	697303040	18	3754
2026-01-19 09:59:07.39	44.51	60.93	-29.2	-29.7	16.5	0.00e+00	0	43	0	699400192	18	3839
2026-01-19 09:59:08.39	43.62	60.79	-29.3	-30.1	16.4	0.00e+00	0	43	0	700448768	18	3923
2026-01-19 09:59:09.40	42.74	60.64	-29.3	-29.5	16.4	0.00e+00	0	44	0	702545920	19	3698
2026-01-19 09:59:10.40	41.88	60.49	-29.9	-30.9	15.6	0.00e+00	0	44	0	704643072	19	4047
2026-01-19 09:59:11.40	41.02	60.33	-30.2	-31.2	15.0	0.00e+00	0	43	0	706740224	20	4041
2026-01-19 09:59:12.40	40.18	60.16	-30.1	-31.0	15.1	0.00e+00	0	43	0	708837376	20	3980
2026-01-19 09:59:13.40	39.35	59.99	-29.3	-29.1	16.2	0.00e+00	0	43	0	709885952	20	3513
2026-01-19 09:59:14.40	38.53	59.82	-29.0	-28.8	16.7	0.00e+00	0	44	0	711983104	19	3509
2026-01-19 09:59:15.40	37.72	59.64	-29.9	-31.0	15.5	0.00e+00	0	44	0	714080256	19	4082
2026-01-19 09:59:16.41	36.92	59.46	-30.7	-32.0	14.2	1.50e-06	0	44	0	716177408	21	4200
2026-01-19 09:59:17.41	36.13	59.27	-31.3	-33.3	13.1	6.10e-06	0	44	0	717225984	22	4502
2026-01-19 09:59:18.41	35.36	59.08	-31.5	-33.3	12.7	6.25e-05	0	44	0	719323136	23	4396
2026-01-19 09:59:19.41	34.60	58.88	-31.4	-32.9	12.9	6.40e-05	0	43	0	721420288	23	4267
2026-01-19 09:59:20.41	33.85	58.68	-31.4	-32.8	13.0	1.60e-05	0	44	0	723517440	23	4253
2026-01-19 09:59:21.41	33.11	58.47	-32.3	-35.0	11.2	3.29e-04	0	44	0	725614592	24	4924
2026-01-19 09:59:22.41	32.38	58.27	-32.6	-35.7	10.4	5.65e-03	0	43	0	726663168	25	5096
2026-01-19 09:59:23.42	31.65	58.05	-31.7	-33.2	12.3	9.51e-04	0	44	0	728760320	24	4274
2026-01-19 09:59:24.43	30.94	57.84	-31.6	-32.9	12.7	8.77e-05	0	43	0	730857472	24	4199
2026-01-19 09:59:25.43	30.25	57.62	-32.2	-34.6	11.6	2.94e-04	0	43	0	732954624	24	4756
2026-01-19 09:59:26.43	29.56	57.40	-32.4	-34.7	10.9	3.64e-03	0	44	0	735051776	25	4721
2026-01-19 09:59:27.43	28.89	57.17	-32.4	-34.7	10.9	2.59e-03	0	44	0	736100352	25	4718
2026-01-19 09:59:28.44	28.22	56.94	-32.1	-34.0	11.5	1.35e-03	0	43	0	738197504	25	4467
2026-01-19 09:59:29.44	27.58	56.71	-32.0	-33.5	11.9	3.13e-04	0	44	0	740294656	25	4305
2026-01-19 09:59:30.44	26.94	56.48	-31.8	-33.0	12.2	3.90e-04	0	44	0	742391808	25	4120
2026-01-19 09:59:31.44	26.31	56.25	-31.9	-33.3	12.1	5.98e-04	0	44	0	744488960	25	4225
2026-01-19 09:59:32.44	25.69	56.01	-31.8	-33.4	12.4	1.74e-04	0	43	0	745537536	24	4360
2026-01-19 09:59:33.44	25.08	55.77	-31.7	-33.3	12.3	1.46e-04	0	44	0	747634688	24	4316
2026-01-19 09:59:34.45	24.48	55.53	-31.4	-32.4	13.0	5.26e-05	0	43	0	749731840	24	4043
2026-01-19 09:59:35.45	23.90	55.28	-32.1	-34.4	12.1	1.79e-04	0	44	0	751828992	24	4715
2026-01-19 09:59:36.44	23.33	55.04	-32.6	-35.5	10.4	1.57e-03	0	44	0	753926144	25	5059
2026-01-19 09:59:37.44	22.76	54.79	-32.8	-36.4	9.8	1.08e-02	0	43	0	754974720	25	5411
2026-01-19 09:59:38.45	22.20	54.54	-32.3	-34.6	11.1	5.99e-03	0	44	0	757071872	25	4701
2026-01-19 09:59:39.45	21.65	54.29	-32.2	-34.2	11.3	2.15e-03	0	44	0	759169024	25	4545
2026-01-19 09:59:40.46	21.11	54.04	-31.6	-33.0	12.4	3.64e-04	0	44	0	761266176	24	4233
2026-01-19 09:59:41.46	20.58	53.79	-30.7	-31.5	14.1	3.66e-05	0	43	0	762314752	22	3965
2026-01-19 09:59:42.47	20.06	53.53	-30.8	-31.9	13.8	2.20e-06	0	44	0	764411904	22	4053
2026-01-19 09:59:43.47	19.55	53.28	-31.3	-33.2	13.1	2.51e-05	0	43	0	766509056	22	4459
2026-01-19 09:59:44.47	19.05	53.02	-31.7	-33.7	12.3	1.56e-04	0	44	0	768606208	23	4560
2026-01-19 09:59:45.47	18.56	52.77	-31.6	-33.6	12.4	1.39e-04	0	44	0	770703360	23	4512
2026-01-19 09:59:46.47	18.08	52.51	-31.9	-34.5	11.8	1.18e-04	0	44	0	771751936	23	4841
2026-01-19 09:59:47.48	17.60	52.25	-31.3	-32.2	13.0	1.76e-04	0	44	0	773849088	24	3984
2026-01-19 09:59:48.48	17.13	51.99	-30.8	-31.7	14.0	6.10e-06	0	44	0	775946240	22	4020
2026-01-19 09:59:49.48	16.67	51.73	-30.3	-31.1	14.6	0.00e+00	0	43	0	778043392	21	3929
2026-01-19 09:59:50.48	16.22	51.47	-30.3	-30.9	14.8	0.00e+00	0	44	0	780140544	21	3877
2026-01-19 09:59:51.47	15.78	51.21	-30.1	-30.6	14.9	0.00e+00	0	44	0	781189120	21	3786
2026-01-19 09:59:52.48	15.35	50.95	-30.8	-32.2	13.9	1.50e-06	0	44	0	783286272	21	4244
2026-01-19 09:59:53.48	14.92	50.69	-31.1	-32.6	13.4	6.10e-06	0	44	0	785383424	22	4283
2026-01-19 09:59:54.49	14.49	50.43	-31.3	-33.2	12.9	2.36e-05	0	44	0	787480576	22	4462
2026-01-19 09:59:55.49	14.08	50.16	-30.1	-30.4	15.0	0.00e+00	0	44	0	789577728	21	3743
2026-01-19 09:59:56.49	13.68	49.90	-30.0	-30.3	15.2	0.00e+00	0	44	0	790626304	21	3712
2026-01-19 09:59:57.49	13.28	49.64	-30.4	-31.3	14.5	0.00e+00	0	44	0	792723456	21	3985
2026-01-19 09:59:58.49	12.89	49.38	-31.1	-32.7	13.3	1.67e-05	0	44	0	794820608	22	4311
2026-01-19 09:59:59.49	12.50	49.12	-31.1	-32.5	13.4	1.29e-05	0	44	0	796917760	22	4233
2026-01-19 10:00:00.50	12.12	48.86	-31.3	-33.2	13.0	3.20e-05	0	44	0	799014912	22	4463
2026-01-19 10:00:01.50	11.75	48.60	-32.3	-35.0	11.0	4.47e-04	0	43	0	800063488	24	4942
2026-01-19 10:00:02.51	11.38	48.33	-32.3	-34.8	10.8	4.51e-03	0	44	0	802160640	25	4767
2026-01-19 10:00:03.51	11.02	48.07	-32.2	-34.4	11.2	1.72e-03	0	44	0	804257792	25	4615
2026-01-19 10:00:04.51	10.67	47.82	-32.5	-35.3	10.5	2.08e-03	0	44	0	806354944	25	4967
2026-01-19 10:00:05.51	10.32	47.56	-32.8	-36.5	9.6	8.28e-03	0	44	0	807403520	25	5458
2026-01-19 10:00:06.51	9.98	47.30	-32.9	-36.8	9.4	1.19e-02	0	44	0	809500672	25	5596
2026-01-19 10:00:07.51	9.64	47.04	-32.8	-36.2	9.7	9.77e-03	0	43	0	811597824	25	5365
2026-01-19 10:00:08.52	9.31	46.78	-32.5	-35.4	10.5	5.26e-03	0	44	0	813694976	25	5015
2026-01-19 10:00:09.51	8.99	46.52	-32.4	-34.9	10.8	4.74e-03	0	44	0	815792128	25	4820
2026-01-19 10:00:10.52	8.67	46.27	-32.2	-34.3	11.2	2.30e-03	0	44	0	816840704	25	4593
2026-01-19 10:00:11.52	8.35	46.01	-32.3	-34.6	11.0	1.24e-03	0	44	0	818937856	25	4712
2026-01-19 10:00:12.52	8.04	45.75	-32.4	-35.0	10.7	3.07e-03	0	44	0	821035008	25	4871
2026-01-19 10:00:13.53	7.74	45.50	-32.7	-36.0	9.9	2.08e-03	0	44	0	823132160	25	5257
2026-01-19 10:00:14.53	7.44	45.24	-32.7	-36.2	9.7	1.39e-02	0	44	0	825229312	25	5367
2026-01-19 10:00:15.53	7.14	44.99	-32.4	-35.0	10.7	4.72e-03	0	44	0	826277888	25	4870
2026-01-19 10:00:16.53	6.85	44.74	-32.3	-34.6	10.8	2.54e-03	0	44	0	828375040	25	4722
2026-01-19 10:00:17.54	6.57	44.48	-32.5	-35.2	10.4	3.59e-03	0	44	0	830472192	25	4953
2026-01-19 10:00:18.54	6.28	44.23	-32.4	-34.9	10.6	3.33e-03	0	44	0	832569344	25	4834
2026-01-19 10:00:19.55	6.01	43.98	-32.0	-33.7	11.6	1.04e-03	0	43	0	834666496	25	4387
2026-01-19 10:00:20.55	5.73	43.73	-32.0	-33.9	11.5	4.16e-04	0	44	0	835715072	25	4457
2026-01-19 10:00:21.55	5.47	43.48	-32.1	-34.7	11.2	7.16e-04	0	44	0	837812224	24	4827
2026-01-19 10:00:22.56	5.20	43.23	-32.2	-34.9	11.0	2.43e-03	0	44	0	839909376	24	4916
2026-01-19 10:00:23.56	4.94	42.99	-31.9	-34.0	11.9	7.83e-04	0	44	0	842006528	24	4603
2026-01-19 10:00:24.56	4.69	42.74	-31.2	-32.6	13.0	1.17e-04	0	43	0	844103680	23	4188
2026-01-19 10:00:25.57	4.43	42.50	-31.3	-32.8	12.9	4.50e-05	0	44	0	845152256	23	4256
2026-01-19 10:00:26.57	4.19	42.25	-32.0	-34.2	11.5	1.29e-04	0	43	0	847249408	24	4636
2026-01-19 10:00:27.57	3.94	42.01	-32.4	-35.4	10.7	7.64e-04	0	44	0	849346560	24	5112
2026-01-19 10:00:28.58	3.70	41.77	-32.5	-35.3	10.3	3.55e-03	0	44	0	851443712	25	4991
2026-01-19 10:00:29.59	3.46	41.52	-32.8	-36.3	9.6	6.36e-03	0	44	0	853540864	25	5430
2026-01-19 10:00:30.59	3.23	41.29	-33.1	-37.2	8.5	2.56e-02	0	44	0	854589440	26	5765
2026-01-19 10:00:31.60	3.00	41.04	-33.0	-36.9	8.7	5.10e-02	0	44	0	856686592	26	5605
2026-01-19 10:00:32.60	2.77	40.81	-33.3	-37.9	7.9	4.64e-02	0	44	0	858783744	26	6129
2026-01-19 10:00:33.61	2.55	40.57	-33.3	-38.0	7.9	5.89e-02	0	44	0	860880896	26	6171
2026-01-19 10:00:34.61	2.33	40.33	-33.7	-39.2	6.6	1.80e-01	0	44	0	861929472	27	6822
2026-01-19 10:00:35.61	2.11	40.10	-33.3	-37.6	7.7	9.15e-02	0	44	0	864026624	27	5911
2026-01-19 10:00:36.61	1.90	39.87	-32.7	-35.5	9.7	2.51e-02	0	44	0	866123776	26	5001
2026-01-19 10:00:37.61	1.69	39.64	-32.1	-34.1	11.1	6.84e-03	0	44	0	868220928	25	4546
2026-01-19 10:00:38.61	1.48	39.41	-32.1	-34.2	11.1	1.90e-03	0	44	0	870318080	25	4586
2026-01-19 10:00:39.61	1.28	39.18	-32.0	-33.9	11.3	1.82e-03	0	44	0	871366656	25	4473
2026-01-19 10:00:40.62	1.08	38.95	-32.4	-35.2	10.4	2.92e-03	0	44	0	873463808	25	4949
2026-01-19 10:00:41.62	0.88	38.72	-32.5	-35.4	10.2	3.21e-03	0	44	0	875560960	25	5054
2026-01-19 10:00:42.63	0.68	38.49	-32.5	-35.6	10.0	7.14e-03	0	44	0	877658112	25	5126
2026-01-19 10:00:43.63	0.49	38.26	-32.6	-35.8	9.8	7.29e-03	0	44	0	879755264	25	5227
2026-01-19 10:00:44.64	0.30	38.04	-32.7	-36.1	9.7	1.37e-02	0	44	0	880803840	25	5328
2026-01-19 10:00:45.64	0.11	37.82	-33.1	-37.2	8.5	2.58e-02	0	44	0	882900992	26	5787
2026-01-19 10:00:46.64	359.92	37.59	-33.1	-37.2	8.6	4.33e-02	0	44	0	884998144	26	5754
2026-01-19 10:00:47.65	359.74	37.37	-33.0	-37.0	8.6	4.69e-02	0	44	0	887095296	26	5672
2026-01-19 10:00:48.65	359.56	37.15	-33.1	-37.3	8.3	2.91e-02	0	44	0	889192448	26	5850
2026-01-19 10:00:49.65	359.38	36.93	-33.2	-37.8	7.9	4.18e-02	0	44	0	890241024	26	6084
2026-01-19 10:00:50.65	359.21	36.72	-32.9	-36.6	8.9	5.61e-02	0	44	0	892338176	26	5471
2026-01-19 10:00:51.65	359.04	36.50	-33.1	-37.1	8.5	4.80e-02	0	44	0	894435328	26	5748
2026-01-19 10:00:52.65	358.87	36.29	-33.1	-37.2	8.4	4.05e-02	0	43	0	896532480	26	5788
2026-01-19 10:00:53.66	358.70	36.07	-33.0	-37.1	8.5	6.15e-02	0	44	0	898629632	26	5714
2026-01-19 10:00:54.67	358.53	35.86	-32.6	-35.2	10.0	9.99e-03	0	43	0	899678208	26	4880
2026-01-19 10:00:55.67	358.37	35.64	-32.4	-35.1	10.4	3.83e-03	0	44	0	901775360	25	4919
2026-01-19 10:00:56.66	358.21	35.44	-32.2	-34.7	10.7	3.77e-03	0	44	0	903872512	25	4761
2026-01-19 10:00:57.67	358.05	35.22	-32.1	-34.2	11.1	2.19e-03	0	44	0	905969664	25	4589
2026-01-19 10:00:58.66	357.89	35.02	-32.2	-34.6	10.7	2.35e-03	0	44	0	907018240	25	4739
2026-01-19 10:00:59.67	357.74	34.81	-32.2	-34.7	10.6	3.31e-03	0	44	0	909115392	25	4766
2026-01-19 10:01:00.68	357.58	34.60	-31.8	-33.3	11.7	1.03e-03	0	44	0	911212544	25	4272
2026-01-19 10:01:01.68	357.43	34.40	-31.5	-32.9	12.2	1.65e-04	0	44	0	913309696	24	4245
2026-01-19 10:01:02.68	357.28	34.19	-31.7	-33.5	11.8	2.94e-04	0	43	0	915406848	24	4434
2026-01-19 10:01:03.68	357.13	33.99	-31.5	-32.9	12.2	3.81e-04	0	44	0	917504000	24	4231
2026-01-19 10:01:04.69	356.99	33.79	-31.5	-33.0	12.1	2.75e-04	0	44	0	918552576	24	4271
2026-01-19 10:01:05.69	356.84	33.59	-31.7	-33.6	11.9	4.79e-04	0	44	0	920649728	24	4453
2026-01-19 10:01:06.69	356.70	33.39	-32.5	-36.0	10.1	1.64e-03	0	44	0	922746880	24	5414
2026-01-19 10:01:07.69	356.56	33.19	-32.7	-36.5	9.3	9.92e-03	0	44	0	924844032	25	5544
2026-01-19 10:01:08.70	356.42	32.99	-32.7	-36.2	9.5	1.60e-02	0	44	0	925892608	25	5400
2026-01-19 10:01:09.70	356.29	32.80	-32.3	-35.0	10.4	8.45e-03	0	44	0	927989760	25	4915
2026-01-19 10:01:10.70	356.15	32.60	-32.2	-34.6	10.7	4.47e-03	0	44	0	930086912	25	4754
2026-01-19 10:01:11.69	356.02	32.41	-32.3	-34.9	10.4	4.65e-03	0	44	0	932184064	25	4882
2026-01-19 10:01:12.70	355.89	32.22	-32.5	-35.7	9.8	7.31e-03	0	44	0	934281216	25	5204
2026-01-19 10:01:13.70	355.76	32.02	-32.3	-34.9	10.4	8.81e-03	0	44	0	935329792	25	4876
2026-01-19 10:01:14.71	355.63	31.83	-31.8	-33.4	11.5	2.14e-03	0	43	0	937426944	25	4310
2026-01-19 10:01:15.70	355.50	31.64	-31.2	-32.6	12.7	1.23e-04	0	44	0	939524096	23	4229
2026-01-19 10:01:16.70	355.38	31.46	-30.9	-31.7	13.3	3.20e-05	0	44	0	941621248	23	3952
2026-01-19 10:01:17.71	355.25	31.27	-30.7	-31.7	13.6	1.75e-05	0	44	0	943718400	22	4034
2026-01-19 10:01:18.71	355.13	31.08	-30.8	-32.0	13.4	5.30e-06	0	44	0	944766976	22	4136
2026-01-19 10:01:19.72	355.01	30.89	-30.8	-32.0	13.4	1.83e-05	0	44	0	946864128	22	4150
2026-01-19 10:01:20.73	354.89	30.71	-30.9	-32.2	13.3	3.43e-05	0	44	0	948961280	22	4193
2026-01-19 10:01:21.72	354.77	30.53	-30.9	-32.3	13.2	3.05e-05	0	44	0	951058432	22	4211
2026-01-19 10:01:22.73	354.65	30.34	-30.9	-32.3	13.2	2.05e-05	0	44	0	953155584	22	4233
2026-01-19 10:01:23.73	354.54	30.16	-31.1	-32.8	13.0	1.90e-05	0	44	0	954204160	22	4363
2026-01-19 10:01:24.73	354.42	29.98	-31.2	-33.1	12.7	7.47e-05	0	44	0	956301312	22	4475
2026-01-19 10:01:25.74	354.31	29.80	-31.4	-33.8	12.3	8.46e-05	0	44	0	958398464	22	4723
2026-01-19 10:01:26.74	354.20	29.62	-31.8	-34.3	11.5	4.55e-04	0	44	0	960495616	23	4820
2026-01-19 10:01:27.74	354.09	29.45	-32.2	-35.3	10.4	2.48e-03	0	44	0	962592768	24	5117
2026-01-19 10:01:28.73	353.98	29.27	-32.6	-36.3	9.3	1.49e-02	0	44	0	963641344	25	5463
2026-01-19 10:01:29.73	353.87	29.10	-32.7	-36.7	9.0	3.00e-02	0	44	0	965738496	25	5652
2026-01-19 10:01:30.74	353.76	28.92	-33.0	-37.5	8.3	3.99e-02	0	44	0	967835648	25	6071
2026-01-19 10:01:31.75	353.66	28.74	-32.7	-36.6	9.0	3.80e-02	0	43	0	969932800	25	5622
2026-01-19 10:01:32.75	353.55	28.57	-32.6	-36.1	9.4	1.79e-02	0	44	0	970981376	25	5364
2026-01-19 10:01:33.76	353.45	28.40	-32.4	-35.5	9.8	1.15e-02	0	44	0	973078528	25	5139
2026-01-19 10:01:34.76	353.35	28.23	-32.4	-35.4	9.8	7.67e-03	0	44	0	975175680	25	5077
2026-01-19 10:01:35.77	353.24	28.06	-32.2	-34.6	10.5	6.10e-03	0	43	0	977272832	25	4766
2026-01-19 10:01:36.77	353.14	27.89	-32.4	-35.3	10.0	7.60e-03	0	44	0	979369984	25	5050
2026-01-19 10:01:37.78	353.05	27.72	-32.3	-34.9	10.3	6.13e-03	0	44	0	980418560	25	4879
2026-01-19 10:01:38.78	352.95	27.55	-32.2	-34.6	10.5	5.81e-03	0	44	0	982515712	25	4758
2026-01-19 10:01:39.79	352.85	27.39	-32.0	-34.1	10.9	3.37e-03	0	44	0	984612864	25	4571
2026-01-19 10:01:40.80	352.75	27.22	-31.9	-33.7	11.1	1.95e-03	0	44	0	986710016	25	4439
2026-01-19 10:01:41.80	352.66	27.06	-31.9	-34.3	11.1	2.09e-03	0	44	0	988807168	24	4723
2026-01-19 10:01:42.81	352.57	26.89	-31.8	-34.1	11.3	1.26e-03	0	44	0	989855744	24	4647
2026-01-19 10:01:43.80	352.47	26.73	-31.7	-33.7	11.5	8.75e-04	0	44	0	991952896	24	4535
2026-01-19 10:01:44.80	352.38	26.57	-31.7	-33.5	11.6	6.13e-04	0	44	0	994050048	24	4454
2026-01-19 10:01:45.80	352.29	26.41	-31.7	-33.6	11.5	6.89e-04	0	44	0	996147200	24	4498
2026-01-19 10:01:46.81	352.20	26.25	-31.8	-33.9	11.3	8.28e-04	0	44	0	998244352	24	4609
2026-01-19 10:01:47.81	352.11	26.09	-31.8	-33.9	11.3	7.39e-04	0	44	0	999292928	24	4607
2026-01-19 10:01:48.82	352.02	25.93	-31.8	-34.0	11.3	6.86e-04	0	44	0	1001390080	24	4647
2026-01-19 10:01:49.83	351.94	25.77	-31.9	-34.3	11.1	1.18e-03	0	44	0	1003487232	24	4753
2026-01-19 10:01:50.83	351.85	25.62	-32.0	-34.8	10.7	2.68e-03	0	44	0	1005584384	24	4944
2026-01-19 10:01:51.83	351.77	25.46	-32.0	-34.7	10.7	3.46e-03	0	44	0	1007681536	24	4902
2026-01-19 10:01:52.83	351.68	25.31	-32.1	-35.1	10.5	3.51e-03	0	44	0	1008730112	24	5049
2026-01-19 10:01:53.83	351.60	25.15	-32.3	-35.8	9.9	6.21e-03	0	44	0	1010827264	24	5386
2026-01-19 10:01:54.84	351.51	25.00	-32.5	-35.8	9.5	1.15e-02	0	44	0	1012924416	25	5259
2026-01-19 10:01:55.84	351.43	24.85	-32.3	-35.3	9.9	1.14e-02	0	44	0	1015021568	25	5046
2026-01-19 10:01:56.84	351.35	24.70	-32.5	-36.0	9.6	9.69e-03	0	44	0	1017118720	25	5367
2026-01-19 10:01:57.84	351.27	24.55	-32.4	-35.4	9.8	1.15e-02	0	44	0	1018167296	25	5123
2026-01-19 10:01:58.85	351.19	24.40	-32.2	-34.9	10.2	7.89e-03	0	44	0	1020264448	25	4899
2026-01-19 10:01:59.84	351.11	24.25	-32.2	-34.8	10.3	5.42e-03	0	44	0	1022361600	25	4843
2026-01-19 10:02:00.84	351.04	24.10	-32.2	-34.6	10.4	5.95e-03	0	44	0	1024458752	25	4797
2026-01-19 10:02:01.84	350.96	23.95	-32.2	-34.9	10.2	6.51e-03	0	44	0	1026555904	25	4885
2026-01-19 10:02:02.84	350.88	23.81	-32.0	-34.0	10.8	3.31e-03	0	44	0	1027604480	25	4571
2026-01-19 10:02:03.84	350.81	23.66	-31.9	-33.7	11.0	1.55e-03	0	44	0	1029701632	25	4450
2026-01-19 10:02:04.84	350.73	23.52	-31.8	-33.8	11.1	1.83e-03	0	44	0	1031798784	24	4547
2026-01-19 10:02:05.84	350.66	23.37	-32.1	-35.0	10.5	2.77e-03	0	44	0	1033895936	24	5042
2026-01-19 10:02:06.84	350.59	23.23	-32.1	-34.9	10.5	4.58e-03	0	44	0	1034944512	24	5003
2026-01-19 10:02:07.84	350.51	23.09	-32.2	-35.3	10.2	4.03e-03	0	44	0	1037041664	24	5163
2026-01-19 10:02:08.85	350.44	22.94	-32.1	-35.0	10.4	6.09e-03	0	44	0	1039138816	24	5035
2026-01-19 10:02:09.85	350.37	22.80	-32.1	-34.9	10.5	4.03e-03	0	44	0	1041235968	24	4995
2026-01-19 10:02:10.86	350.30	22.66	-31.8	-33.9	11.2	1.72e-03	0	44	0	1043333120	24	4604
2026-01-19 10:02:11.85	350.23	22.52	-31.7	-33.6	11.4	1.15e-03	0	44	0	1044381696	24	4509
2026-01-19 10:02:12.86	350.16	22.38	-31.8	-33.9	11.5	6.83e-04	0	44	0	1046478848	24	4618
2026-01-19 10:02:13.87	350.09	22.24	-31.5	-33.0	11.9	4.70e-04	0	44	0	1048576000	24	4300
2026-01-19 10:02:14.87	350.02	22.11	-31.4	-33.2	12.1	2.29e-04	0	44	0	1050673152	23	4443
2026-01-19 10:02:15.87	349.96	21.97	-31.2	-32.8	12.3	2.49e-04	0	44	0	1052770304	23	4329
2026-01-19 10:02:16.87	349.89	21.83	-31.0	-32.2	12.7	1.33e-04	0	44	0	1053818880	23	4115
2026-01-19 10:02:17.87	349.82	21.70	-30.9	-31.8	13.0	3.05e-05	0	44	0	1055916032	23	4008
2026-01-19 10:02:18.88	349.76	21.56	-31.0	-32.3	12.7	5.72e-05	0	44	0	1058013184	23	4155
2026-01-19 10:02:19.87	349.69	21.43	-30.9	-31.9	12.9	4.65e-05	0	44	0	1060110336	23	4029
2026-01-19 10:02:20.88	349.63	21.29	-30.9	-32.0	12.8	4.27e-05	0	44	0	1062207488	23	4079
2026-01-19 10:02:21.87	349.57	21.16	-31.1	-32.5	12.5	7.78e-05	0	44	0	1063256064	23	4220
2026-01-19 10:02:22.87	349.50	21.03	-31.2	-32.9	12.2	1.12e-04	0	44	0	1065353216	23	4358
2026-01-19 10:02:23.87	349.44	20.90	-31.4	-33.3	12.0	3.01e-04	0	44	0	1067450368	23	4481
2026-01-19 10:02:24.88	349.38	20.77	-31.6	-33.9	11.6	4.79e-04	0	43	0	1069547520	23	4696
2026-01-19 10:02:25.89	349.32	20.64	-31.6	-33.9	11.5	8.48e-04	0	44	0	1071644672	23	4703
2026-01-19 10:02:26.90	349.25	20.50	-31.6	-33.9	11.5	7.50e-04	0	44	0	1072693248	23	4700
2026-01-19 10:02:27.90	349.19	20.38	-31.8	-34.7	10.9	1.66e-03	0	44	0	1074790400	23	5024
2026-01-19 10:02:28.91	349.13	20.25	-31.5	-33.7	11.6	1.90e-03	0	44	0	1076887552	23	4629
2026-01-19 10:02:29.91	349.07	20.12	-31.6	-34.1	11.3	8.52e-04	0	44	0	1078984704	23	4801
2026-01-19 10:02:30.92	349.02	19.99	-31.6	-34.0	11.4	1.28e-03	0	44	0	1080033280	23	4733
2026-01-19 10:02:31.92	348.96	19.86	-31.4	-33.3	11.9	5.10e-04	0	44	0	1082130432	23	4495
2026-01-19 10:02:32.92	348.90	19.74	-31.3	-33.1	12.0	2.77e-04	0	44	0	1084227584	23	4440
2026-01-19 10:02:33.92	348.84	19.61	-31.5	-33.6	11.7	4.33e-04	0	44	0	1086324736	23	4607
2026-01-19 10:02:34.93	348.79	19.49	-31.2	-32.7	12.3	3.46e-04	0	44	0	1088421888	23	4290
2026-01-19 10:02:35.93	348.73	19.36	-31.0	-32.3	12.5	1.75e-04	0	44	0	1089470464	23	4177
2026-01-19 10:02:36.92	348.67	19.24	-31.1	-32.5	12.4	1.13e-04	0	44	0	1091567616	23	4232
2026-01-19 10:02:37.92	348.62	19.12	-31.0	-32.4	12.5	1.65e-04	0	44	0	1093664768	23	4195
2026-01-19 10:02:38.93	348.56	18.99	-31.0	-32.3	12.6	8.08e-05	0	44	0	1095761920	23	4187
2026-01-19 10:02:39.93	348.51	18.87	-31.3	-33.0	12.0	2.27e-04	0	44	0	1097859072	23	4412
2026-01-19 10:02:40.94	348.45	18.75	-31.2	-32.7	12.2	2.54e-04	0	44	0	1098907648	23	4311
2026-01-19 10:02:41.94	348.40	18.63	-31.3	-33.0	12.0	1.88e-04	0	44	0	1101004800	23	4404
2026-01-19 10:02:42.95	348.35	18.51	-31.5	-33.9	11.4	4.42e-04	0	44	0	1103101952	23	4709
2026-01-19 10:02:43.95	348.30	18.39	-31.3	-33.1	11.9	5.08e-04	0	44	0	1105199104	23	4443
2026-01-19 10:02:44.95	348.24	18.27	-31.1	-32.7	12.2	1.97e-04	0	44	0	1107296256	23	4301
2026-01-19 10:02:45.95	348.19	18.15	-31.2	-32.9	12.0	2.71e-04	0	44	0	1108344832	23	4383
2026-01-19 10:02:46.96	348.14	18.03	-31.5	-33.7	11.6	7.12e-04	0	44	0	1110441984	23	4659
2026-01-19 10:02:47.96	348.09	17.92	-31.6	-34.0	11.3	1.22e-03	0	44	0	1112539136	23	4750
2026-01-19 10:02:48.96	348.04	17.80	-31.4	-33.6	11.6	8.94e-04	0	44	0	1114636288	23	4601
2026-01-19 10:02:49.97	347.99	17.68	-31.3	-33.1	11.9	5.42e-04	0	44	0	1116733440	23	4430
2026-01-19 10:02:50.97	347.94	17.57	-31.2	-32.8	12.1	2.72e-04	0	44	0	1117782016	23	4322
2026-01-19 10:02:51.97	347.89	17.45	-31.3	-33.1	11.9	3.04e-04	0	44	0	1119879168	23	4435
2026-01-19 10:02:52.97	347.84	17.34	-31.2	-33.0	11.9	4.07e-04	0	44	0	1121976320	23	4426
2026-01-19 10:02:53.98	347.79	17.22	-31.3	-33.1	11.9	2.46e-04	0	44	0	1124073472	23	4442
2026-01-19 10:02:54.98	347.75	17.11	-31.4	-33.4	11.6	5.81e-04	0	44	0	1126170624	23	4558
2026-01-19 10:02:55.98	347.70	17.00	-31.3	-33.1	11.8	5.87e-04	0	44	0	1127219200	23	4462
2026-01-19 10:02:56.98	347.65	16.88	-31.6	-34.0	11.2	9.67e-04	0	44	0	1129316352	23	4782
2026-01-19 10:02:57.98	347.60	16.77	-31.5	-33.7	11.4	9.70e-04	0	44	0	1131413504	23	4675
2026-01-19 10:02:58.98	347.56	16.66	-31.7	-34.3	10.9	1.66e-03	0	44	0	1133510656	23	4904
2026-01-19 10:02:59.98	347.51	16.55	-31.6	-34.2	11.0	2.33e-03	0	44	0	1134559232	23	4864
2026-01-19 10:03:00.99	347.47	16.44	-31.9	-35.2	10.3	3.47e-03	0	44	0	1136656384	23	5278
2026-01-19 10:03:01.99	347.42	16.33	-31.7	-34.6	10.7	2.68e-03	0	44	0	1138753536	23	5002
2026-01-19 10:03:02.99	347.38	16.22	-31.7	-34.5	10.8	3.09e-03	0	44	0	1140850688	23	4977
2026-01-19 10:03:03.98	347.33	16.11	-31.9	-35.1	10.3	4.12e-03	0	44	0	1142947840	23	5221
2026-01-19 10:03:04.98	347.29	16.00	-31.8	-35.0	10.5	5.07e-03	0	44	0	1143996416	23	5166
2026-01-19 10:03:05.98	347.24	15.89	-31.8	-34.9	10.5	4.29e-03	0	44	0	1146093568	23	5145
2026-01-19 10:03:06.98	347.20	15.78	-31.7	-34.6	10.7	3.29e-03	0	44	0	1148190720	23	5030
2026-01-19 10:03:07.98	347.16	15.68	-31.8	-34.9	10.5	3.71e-03	0	44	0	1150287872	23	5145
2026-01-19 10:03:08.98	347.11	15.57	-31.7	-34.7	10.6	3.78e-03	0	44	0	1152385024	23	5081
2026-01-19 10:03:09.99	347.07	15.46	-31.6	-34.1	11.0	2.83e-03	0	44	0	1153433600	23	4829
2026-01-19 10:03:10.98	347.03	15.36	-31.4	-33.6	11.4	8.98e-04	0	44	0	1155530752	23	4646
2026-01-19 10:03:11.98	346.99	15.25	-31.3	-33.3	11.6	9.05e-04	0	44	0	1157627904	23	4542
2026-01-19 10:03:12.99	346.95	15.15	-31.3	-33.3	11.6	9.35e-04	0	44	0	1159725056	23	4535
2026-01-19 10:03:13.99	346.90	15.04	-31.4	-33.8	11.3	8.36e-04	0	44	0	1161822208	23	4703
2026-01-19 10:03:15.00	346.86	14.94	-31.5	-33.8	11.2	1.37e-03	0	44	0	1162870784	23	4738
2026-01-19 10:03:16.00	346.82	14.83	-31.4	-33.7	11.3	1.15e-03	0	44	0	1164967936	23	4687
2026-01-19 10:03:17.00	346.78	14.73	-31.5	-34.1	11.0	1.28e-03	0	44	0	1167065088	23	4826
2026-01-19 10:03:18.00	346.74	14.63	-31.6	-34.1	10.9	2.47e-03	0	44	0	1169162240	23	4851
2026-01-19 10:03:19.01	346.70	14.52	-31.6	-34.3	10.8	2.22e-03	0	44	0	1170210816	23	4918
2026-01-19 10:03:20.01	346.66	14.42	-31.6	-34.4	10.8	2.25e-03	0	44	0	1172307968	23	4955
2026-01-19 10:03:21.02	346.62	14.32	-31.7	-34.8	10.5	3.37e-03	0	44	0	1174405120	23	5098
2026-01-19 10:03:22.02	346.59	14.22	-31.8	-35.1	10.2	4.52e-03	0	44	0	1176502272	23	5236
2026-01-19 10:03:23.02	346.55	14.12	-32.0	-35.2	9.7	6.93e-03	0	44	0	1178599424	24	5224
2026-01-19 10:03:24.02	346.51	14.02	-32.0	-35.1	9.8	1.03e-02	0	44	0	1179648000	24	5178
2026-01-19 10:03:25.03	346.47	13.91	-32.0	-35.4	9.6	1.27e-02	0	44	0	1181745152	24	5285
2026-01-19 10:03:26.02	346.43	13.82	-32.2	-36.0	9.1	2.03e-02	0	44	0	1183842304	24	5587
2026-01-19 10:03:27.03	346.40	13.72	-32.1	-35.8	9.3	2.52e-02	0	44	0	1185939456	24	5457
2026-01-19 10:03:28.03	346.36	13.62	-32.3	-36.4	8.8	2.67e-02	0	44	0	1188036608	24	5778
2026-01-19 10:03:29.04	346.32	13.52	-32.4	-36.6	8.6	3.29e-02	0	44	0	1189085184	24	5900
2026-01-19 10:03:30.04	346.29	13.42	-32.4	-36.7	8.5	3.93e-02	0	44	0	1191182336	24	5930
2026-01-19 10:03:31.05	346.25	13.32	-32.3	-36.3	8.8	3.84e-02	0	44	0	1193279488	24	5711
2026-01-19 10:03:32.05	346.21	13.22	-32.3	-36.5	8.7	3.03e-02	0	44	0	1195376640	24	5803
2026-01-19 10:03:33.05	346.18	13.13	-32.3	-36.3	8.9	3.29e-02	0	44	0	1197473792	24	5750
2026-01-19 10:03:34.05	346.14	13.03	-32.3	-36.4	8.8	3.28e-02	0	44	0	1198522368	24	5762
2026-01-19 10:03:35.05	346.11	12.93	-32.2	-36.1	9.0	2.73e-02	0	44	0	1200619520	24	5624
2026-01-19 10:03:36.05	346.07	12.84	-32.4	-36.8	8.4	3.20e-02	0	44	0	1202716672	24	5990
2026-01-19 10:03:37.06	346.04	12.74	-32.1	-35.9	9.1	3.14e-02	0	44	0	1204813824	24	5523
2026-01-19 10:03:38.06	346.00	12.65	-31.8	-34.7	10.0	1.05e-02	0	44	0	1206910976	24	5031
2026-01-19 10:03:39.06	345.97	12.55	-31.6	-33.9	10.6	5.14e-03	0	44	0	1207959552	24	4712
2026-01-19 10:03:40.07	345.93	12.46	-31.6	-33.9	10.6	2.71e-03	0	44	0	1210056704	24	4689
2026-01-19 10:03:41.07	345.90	12.36	-31.4	-33.3	11.1	1.71e-03	0	44	0	1212153856	24	4475
2026-01-19 10:03:42.07	345.87	12.27	-31.3	-33.5	11.2	1.23e-03	0	44	0	1214251008	23	4636
2026-01-19 10:03:43.08	345.83	12.17	-31.3	-33.5	11.2	1.31e-03	0	44	0	1215299584	23	4637
2026-01-19 10:03:44.08	345.80	12.08	-31.1	-32.9	11.6	9.85e-04	0	44	0	1217396736	23	4431
2026-01-19 10:03:45.08	345.77	11.99	-31.1	-32.7	11.8	4.25e-04	0	44	0	1219493888	23	4358
2026-01-19 10:03:46.08	345.73	11.90	-31.1	-32.8	11.7	5.77e-04	0	44	0	1221591040	23	4376
2026-01-19 10:03:47.09	345.70	11.80	-31.0	-32.7	11.8	7.14e-04	0	44	0	1223688192	23	4355
2026-01-19 10:03:48.09	345.67	11.71	-30.9	-32.3	12.1	3.67e-04	0	44	0	1224736768	23	4211
2026-01-19 10:03:49.08	345.64	11.62	-31.0	-32.6	11.8	3.49e-04	0	44	0	1226833920	23	4323
2026-01-19 10:03:50.08	345.61	11.53	-31.0	-32.7	11.8	4.81e-04	0	44	0	1228931072	23	4348
2026-01-19 10:03:51.09	345.58	11.44	-31.0	-32.4	11.9	3.39e-04	0	44	0	1231028224	23	4271
2026-01-19 10:03:52.09	345.54	11.35	-31.0	-32.6	11.8	4.15e-04	0	44	0	1233125376	23	4328
2026-01-19 10:03:53.09	345.51	11.26	-31.0	-32.6	11.8	4.52e-04	0	44	0	1234173952	23	4342
2026-01-19 10:03:54.10	345.48	11.17	-31.0	-32.5	11.9	3.96e-04	0	44	0	1236271104	23	4294
2026-01-19 10:03:55.09	345.45	11.08	-31.1	-32.9	11.6	5.44e-04	0	44	0	1238368256	23	4419
2026-01-19 10:03:56.10	345.42	10.99	-31.1	-32.8	11.6	5.55e-04	0	44	0	1240465408	23	4414
2026-01-19 10:03:57.10	345.39	10.90	-31.0	-32.5	11.8	5.32e-04	0	44	0	1242562560	23	4306
2026-01-19 10:03:58.09	345.36	10.81	-30.9	-32.4	11.9	4.90e-04	0	44	0	1243611136	23	4274
2026-01-19 10:03:59.10	345.33	10.72	-31.0	-32.7	11.7	4.52e-04	0	44	0	1245708288	23	4377
2026-01-19 10:04:00.09	345.30	10.64	-31.1	-33.0	11.4	7.85e-04	0	44	0	1247805440	23	4474
2026-01-19 10:04:01.09	345.27	10.55	-31.0	-32.8	11.6	8.13e-04	0	44	0	1249902592	23	4397
2026-01-19 10:04:02.09	345.24	10.46	-31.1	-32.8	11.6	6.78e-04	0	44	0	1251999744	23	4423
2026-01-19 10:04:03.09	345.22	10.38	-31.2	-33.2	11.3	1.18e-03	0	44	0	1253048320	23	4557
2026-01-19 10:04:04.09	345.19	10.29	-31.1	-32.9	11.5	9.19e-04	0	44	0	1255145472	23	4455
2026-01-19 10:04:05.10	345.16	10.20	-31.2	-33.2	11.3	9.18e-04	0	44	0	1257242624	23	4546
2026-01-19 10:04:06.10	345.13	10.12	-31.2	-33.2	11.3	1.26e-03	0	44	0	1259339776	23	4562
2026-01-19 10:04:07.11	345.10	10.03	-31.2	-33.4	11.1	1.66e-03	0	44	0	1260388352	23	4632
2026-01-19 10:04:08.11	345.07	9.94	-31.2	-33.4	11.1	1.82e-03	0	44	0	1262485504	23	4611
2026-01-19 10:04:09.11	345.05	9.86	-31.4	-33.9	10.8	2.10e-03	0	44	0	1264582656	23	4798
2026-01-19 10:04:10.11	345.02	9.77	-31.4	-34.0	10.7	2.64e-03	0	44	0	1266679808	23	4834
2026-01-19 10:04:11.12	344.99	9.69	-31.3	-33.7	10.8	2.17e-03	0	44	0	1268776960	23	4725
2026-01-19 10:04:12.12	344.96	9.60	-31.4	-34.0	10.7	2.62e-03	0	44	0	1269825536	23	4840
2026-01-19 10:04:13.12	344.94	9.52	-31.4	-34.1	10.6	3.95e-03	0	44	0	1271922688	23	4882
2026-01-19 10:04:14.12	344.91	9.44	-31.5	-34.3	10.5	4.64e-03	0	44	0	1274019840	23	4957
2026-01-19 10:04:15.13	344.88	9.35	-31.5	-34.2	10.4	4.25e-03	0	44	0	1276116992	23	4943
2026-01-19 10:04:16.12	344.86	9.27	-31.5	-34.4	10.3	4.84e-03	0	44	0	1278214144	23	5015
2026-01-19 10:04:17.13	344.83	9.19	-31.7	-34.9	9.9	7.53e-03	0	44	0	1279262720	23	5230
2026-01-19 10:04:18.13	344.80	9.10	-31.6	-34.8	10.0	7.61e-03	0	44	0	1281359872	23	5184
2026-01-19 10:04:19.13	344.78	9.02	-31.7	-35.1	9.8	9.08e-03	0	44	0	1283457024	23	5305
2026-01-19 10:04:20.13	344.75	8.94	-31.9	-35.9	9.1	1.95e-02	0	44	0	1285554176	23	5708
