passes_logs/2026/01/19/R2M6_AANII_01/R2M6_AANII_01__20260119_042246_FENGYUN_3E_rec.log

#Pass ID: 20260119_042246_FENGYUN 3E
#Satellite: FENGYUN 3E
#Configuration: FENGYUN 3E
#almurnet v.1.7.20240730
#Start time: 2026-01-19 04:29:20

#Version: 2.2.20231116
#Station: R2M6_AANII_01
#Location: 30.233357 lon 59.946436 lat
#TLE: 1 49008U 21062A   26017.96535346 -.00000182  00000+0 -64922-4 0  9998
#TLE: 2 49008  98.7483  23.0589 0002171 131.9722 228.1640 14.19885139235265

#Time	Az	El	Level	Level2	SNR	BER	BlckErr	Temp	State	Recorded	gain1	gain2
2026-01-19 04:29:20.36	153.88	68.80	-34.0	-45.5	3.8	8.46e-01	0	44	0	0	27	13582
2026-01-19 04:29:21.36	154.78	68.46	-34.6	-44.2	3.8	8.47e-01	0	44	104	0	29	10788
2026-01-19 04:29:22.36	155.65	68.12	-34.7	-44.2	3.8	8.47e-01	0	44	104	0	29	10811
2026-01-19 04:29:23.37	156.50	67.77	-34.7	-44.2	3.8	8.46e-01	0	44	104	0	29	10772
2026-01-19 04:29:24.37	157.31	67.42	-34.7	-44.2	3.8	8.46e-01	0	44	104	0	29	10835
2026-01-19 04:29:25.37	158.09	67.07	-34.7	-44.3	3.8	8.46e-01	0	44	104	0	29	10860
2026-01-19 04:29:26.37	158.85	66.71	-34.7	-44.3	3.8	8.45e-01	0	44	104	0	29	10864
2026-01-19 04:29:27.38	159.59	66.35	-34.6	-44.1	3.8	8.45e-01	0	44	104	0	29	10752
2026-01-19 04:29:28.38	160.30	65.99	-34.6	-44.2	3.8	8.46e-01	0	44	104	0	29	10776
2026-01-19 04:29:29.38	160.99	65.63	-34.6	-44.5	3.8	8.46e-01	0	44	104	0	28	11336
2026-01-19 04:29:30.38	161.65	65.27	-34.6	-44.6	3.8	8.46e-01	0	44	104	0	28	11400
2026-01-19 04:29:31.39	162.30	64.91	-34.6	-44.6	3.8	8.46e-01	0	44	104	0	28	11397
2026-01-19 04:29:32.40	162.93	64.54	-34.6	-44.5	3.8	8.46e-01	0	44	104	0	28	11261
2026-01-19 04:29:33.40	163.54	64.18	-34.5	-44.5	3.8	8.47e-01	0	44	104	0	28	11353
2026-01-19 04:29:34.40	164.12	63.81	-34.5	-44.5	3.8	8.46e-01	0	44	104	0	28	11309
2026-01-19 04:29:35.41	164.70	63.44	-34.5	-44.5	3.8	8.46e-01	0	44	104	0	28	11337
2026-01-19 04:29:36.41	165.25	63.08	-34.6	-44.5	3.8	8.47e-01	0	44	104	0	28	11368
2026-01-19 04:29:37.40	165.77	62.72	-34.6	-44.1	3.8	8.47e-01	0	44	104	0	29	10781
2026-01-19 04:29:38.40	166.29	62.35	-34.6	-44.0	3.8	8.47e-01	0	44	104	0	29	10728
2026-01-19 04:29:39.40	166.79	61.98	-34.6	-44.0	3.8	8.46e-01	0	44	104	0	29	10707
2026-01-19 04:29:40.40	167.28	61.62	-34.5	-44.4	3.8	8.45e-01	0	44	104	0	28	11293
2026-01-19 04:29:41.40	167.76	61.25	-34.5	-44.4	3.8	8.45e-01	0	44	104	0	28	11297
2026-01-19 04:29:42.40	168.22	60.89	-34.4	-44.2	3.8	8.46e-01	0	44	104	0	28	11169
2026-01-19 04:29:43.40	168.66	60.52	-34.3	-44.0	3.8	8.47e-01	0	44	104	0	28	11066
2026-01-19 04:29:44.40	169.10	60.16	-34.2	-43.8	3.8	8.46e-01	0	44	104	0	28	10887
2026-01-19 04:29:45.40	169.52	59.80	-34.1	-43.7	3.8	8.46e-01	0	44	104	0	28	10803
2026-01-19 04:29:46.41	169.94	59.43	-34.1	-43.7	3.8	8.47e-01	0	44	104	0	28	10806
2026-01-19 04:29:47.41	170.34	59.07	-34.1	-43.7	3.8	8.46e-01	0	44	104	0	28	10827
2026-01-19 04:29:48.41	170.72	58.71	-34.1	-43.6	3.8	8.46e-01	0	44	104	0	28	10795
2026-01-19 04:29:49.41	171.10	58.35	-34.1	-43.7	3.8	8.46e-01	0	44	104	0	28	10851
2026-01-19 04:29:50.42	171.48	57.99	-34.1	-43.7	3.8	8.46e-01	0	44	104	0	28	10842
2026-01-19 04:29:51.42	171.83	57.63	-34.1	-43.7	3.8	8.45e-01	0	44	104	0	28	10783
2026-01-19 04:29:52.42	172.18	57.27	-34.1	-43.7	3.8	8.46e-01	0	45	104	0	28	10817
2026-01-19 04:29:53.42	172.53	56.92	-34.1	-43.6	3.8	8.46e-01	0	45	104	0	28	10667
2026-01-19 04:29:54.42	172.86	56.56	-34.1	-43.4	3.8	8.46e-01	0	44	104	0	28	10560
2026-01-19 04:29:55.43	173.19	56.21	-34.1	-43.3	3.8	8.45e-01	0	45	104	0	28	10350
2026-01-19 04:29:56.43	173.50	55.86	-34.1	-43.4	3.8	8.46e-01	0	44	104	0	28	10463
2026-01-19 04:29:57.44	173.81	55.50	-34.1	-43.6	3.8	8.44e-01	0	44	104	0	28	10723
2026-01-19 04:29:58.44	174.11	55.16	-34.1	-43.6	3.8	8.47e-01	0	44	104	0	28	10751
2026-01-19 04:29:59.45	174.41	54.81	-34.1	-43.6	3.8	8.46e-01	0	45	104	0	28	10755
2026-01-19 04:30:00.45	174.70	54.46	-34.1	-43.5	3.8	8.46e-01	0	44	104	0	28	10625
2026-01-19 04:30:01.45	174.98	54.12	-34.0	-42.7	3.8	8.47e-01	0	44	104	0	28	9752
2026-01-19 04:30:02.45	175.25	53.78	-33.8	-41.4	3.8	8.44e-01	0	44	104	0	28	8592
2026-01-19 04:30:03.46	175.52	53.43	-33.7	-40.7	3.9	8.45e-01	0	44	104	0	28	8019
2026-01-19 04:30:04.46	175.78	53.10	-33.9	-41.7	3.8	8.45e-01	0	45	104	0	28	8856
2026-01-19 04:30:05.47	176.04	52.76	-34.0	-42.6	3.8	8.46e-01	0	45	104	0	28	9675
2026-01-19 04:30:06.47	176.29	52.42	-34.1	-43.2	3.8	8.46e-01	0	45	104	0	28	10259
2026-01-19 04:30:07.47	176.53	52.09	-34.1	-43.4	3.8	8.47e-01	0	45	104	0	28	10539
2026-01-19 04:30:08.48	176.77	51.75	-34.1	-43.1	3.8	8.46e-01	0	45	104	0	28	10179
2026-01-19 04:30:09.49	177.01	51.42	-33.9	-42.0	3.8	8.46e-01	0	45	104	0	28	9161
2026-01-19 04:30:10.50	177.24	51.09	-33.5	-39.5	4.0	8.43e-01	0	45	104	0	28	7134
2026-01-19 04:30:11.50	177.46	50.76	-33.0	-37.1	5.2	7.74e-01	0	45	0	0	27	5786
2026-01-19 04:30:12.51	177.68	50.44	-31.6	-33.9	8.1	9.95e-02	0	45	0	5242880	24	4677
2026-01-19 04:30:13.51	177.90	50.11	-29.0	-29.6	12.4	8.75e-04	0	44	0	12582912	19	3860
2026-01-19 04:30:14.51	178.11	49.79	-26.5	-26.6	15.3	0.00e+00	0	45	0	18874368	14	3639
2026-01-19 04:30:15.51	178.31	49.47	-25.7	-25.9	16.3	0.00e+00	0	45	0	26214400	12	3667
2026-01-19 04:30:16.51	178.51	49.16	-25.9	-26.3	16.0	0.00e+00	0	44	0	33554432	12	3772
2026-01-19 04:30:17.51	178.71	48.84	-25.8	-26.1	16.2	0.00e+00	0	45	0	40894464	12	3727
2026-01-19 04:30:18.51	178.91	48.53	-25.4	-25.7	16.5	0.00e+00	0	44	0	48234496	11	3725
2026-01-19 04:30:19.52	179.10	48.22	-25.1	-25.1	17.0	0.00e+00	0	45	0	55574528	11	3587
2026-01-19 04:30:20.52	179.28	47.91	-24.9	-24.7	17.3	0.00e+00	0	44	0	62914560	11	3508
2026-01-19 04:30:21.53	179.47	47.60	-24.9	-24.7	16.6	0.00e+00	0	44	0	70254592	11	3504
2026-01-19 04:30:22.53	179.65	47.29	-25.1	-25.1	17.0	0.00e+00	0	44	0	77594624	11	3595
2026-01-19 04:30:23.53	179.82	46.99	-25.3	-25.4	16.8	0.00e+00	0	44	0	84934656	11	3654
2026-01-19 04:30:24.54	179.99	46.68	-25.3	-25.5	16.8	0.00e+00	0	44	0	91226112	11	3676
2026-01-19 04:30:25.54	180.16	46.38	-24.7	-24.8	17.5	0.00e+00	0	45	0	98566144	10	3613
2026-01-19 04:30:26.55	180.33	46.08	-24.4	-24.1	17.8	0.00e+00	0	45	0	105906176	10	3468
2026-01-19 04:30:27.55	180.49	45.79	-24.1	-23.9	18.2	0.00e+00	0	45	0	113246208	9	3524
2026-01-19 04:30:28.55	180.65	45.49	-24.0	-23.7	18.2	0.00e+00	0	45	0	120586240	9	3490
2026-01-19 04:30:29.56	180.81	45.20	-23.9	-24.0	18.3	0.00e+00	0	45	0	127926272	8	3644
2026-01-19 04:30:30.56	180.97	44.91	-23.8	-23.8	18.4	0.00e+00	0	45	0	135266304	8	3607
2026-01-19 04:30:31.56	181.12	44.62	-23.6	-23.5	18.6	0.00e+00	0	45	0	142606336	8	3532
2026-01-19 04:30:32.57	181.27	44.33	-23.6	-23.4	18.7	0.00e+00	0	44	0	149946368	8	3523
2026-01-19 04:30:33.58	181.42	44.04	-23.6	-23.4	18.7	0.00e+00	0	44	0	157286400	8	3508
2026-01-19 04:30:34.58	181.56	43.76	-23.6	-23.8	18.6	0.00e+00	0	44	0	164626432	7	3711
2026-01-19 04:30:35.59	181.70	43.48	-23.6	-23.9	18.6	0.00e+00	0	44	0	170917888	7	3715
2026-01-19 04:30:36.59	181.84	43.20	-23.7	-24.2	18.4	0.00e+00	0	45	0	178257920	7	3784
2026-01-19 04:30:37.59	181.98	42.92	-23.6	-23.9	18.0	0.00e+00	0	45	0	185597952	7	3717
2026-01-19 04:30:38.59	182.11	42.65	-23.6	-23.9	18.5	0.00e+00	0	45	0	192937984	7	3733
2026-01-19 04:30:39.59	182.24	42.38	-23.8	-24.2	18.4	0.00e+00	0	44	0	200278016	7	3794
2026-01-19 04:30:40.60	182.38	42.10	-23.7	-24.0	18.5	0.00e+00	0	45	0	207618048	7	3759
2026-01-19 04:30:41.60	182.50	41.83	-23.6	-23.8	18.6	0.00e+00	0	45	0	214958080	7	3708
2026-01-19 04:30:42.61	182.63	41.56	-23.6	-23.9	18.2	0.00e+00	0	45	0	222298112	7	3726
2026-01-19 04:30:43.61	182.75	41.30	-23.6	-23.9	18.6	0.00e+00	0	45	0	229638144	7	3723
2026-01-19 04:30:44.62	182.88	41.03	-23.7	-24.1	18.5	0.00e+00	0	45	0	236978176	7	3764
2026-01-19 04:30:45.62	183.00	40.77	-23.9	-24.5	18.3	0.00e+00	0	44	0	244318208	7	3871
2026-01-19 04:30:46.63	183.12	40.50	-24.2	-24.6	18.0	0.00e+00	0	45	0	251658240	8	3789
2026-01-19 04:30:47.63	183.23	40.24	-24.3	-24.8	17.9	0.00e+00	0	45	0	257949696	8	3838
2026-01-19 04:30:48.63	183.35	39.99	-24.4	-25.1	17.7	0.00e+00	0	44	0	265289728	8	3913
2026-01-19 04:30:49.62	183.46	39.74	-24.5	-25.2	17.7	0.00e+00	0	45	0	272629760	8	3935
2026-01-19 04:30:50.62	183.57	39.48	-24.4	-25.2	17.6	0.00e+00	0	44	0	279969792	8	3932
2026-01-19 04:30:51.63	183.68	39.23	-24.5	-25.3	17.6	0.00e+00	0	44	0	287309824	8	3959
2026-01-19 04:30:52.63	183.79	38.98	-24.3	-25.0	17.8	0.00e+00	0	45	0	294649856	8	3874
2026-01-19 04:30:53.62	183.89	38.73	-23.9	-24.1	18.2	0.00e+00	0	44	0	301989888	8	3677
2026-01-19 04:30:54.63	184.00	38.48	-23.6	-23.5	18.5	0.00e+00	0	45	0	309329920	8	3536
2026-01-19 04:30:55.63	184.10	38.24	-23.5	-23.2	18.7	0.00e+00	0	45	0	316669952	8	3482
2026-01-19 04:30:56.64	184.20	37.99	-23.5	-23.1	18.8	0.00e+00	0	44	0	322961408	8	3454
2026-01-19 04:30:57.65	184.31	37.75	-23.4	-23.5	18.8	0.00e+00	0	44	0	330301440	7	3629
2026-01-19 04:30:58.65	184.40	37.51	-23.4	-23.4	18.8	0.00e+00	0	45	0	337641472	7	3624
2026-01-19 04:30:59.66	184.50	37.27	-23.3	-23.3	18.9	0.00e+00	0	44	0	344981504	7	3597
2026-01-19 04:31:00.66	184.60	37.03	-23.4	-23.5	18.7	0.00e+00	0	45	0	352321536	7	3644
2026-01-19 04:31:01.66	184.69	36.80	-23.5	-23.7	18.6	0.00e+00	0	45	0	359661568	7	3684
2026-01-19 04:31:02.67	184.79	36.56	-23.6	-23.9	18.5	0.00e+00	0	44	0	367001600	7	3738
2026-01-19 04:31:03.67	184.88	36.33	-23.8	-24.4	18.3	0.00e+00	0	45	0	374341632	7	3835
2026-01-19 04:31:04.68	184.97	36.10	-23.8	-24.4	18.3	0.00e+00	0	44	0	381681664	7	3846
2026-01-19 04:31:05.67	185.06	35.87	-23.8	-24.3	18.3	0.00e+00	0	45	0	389021696	7	3828
2026-01-19 04:31:06.68	185.15	35.64	-23.9	-24.5	18.2	0.00e+00	0	45	0	396361728	7	3865
2026-01-19 04:31:07.68	185.24	35.41	-23.8	-24.3	18.4	0.00e+00	0	44	0	402653184	7	3817
2026-01-19 04:31:08.67	185.32	35.19	-23.6	-23.9	18.5	0.00e+00	0	44	0	409993216	7	3728
2026-01-19 04:31:09.68	185.41	34.97	-23.6	-23.9	18.6	0.00e+00	0	44	0	417333248	7	3723
2026-01-19 04:31:10.68	185.49	34.75	-23.5	-23.6	18.7	3.74e-04	0	45	0	424673280	7	3665
2026-01-19 04:31:11.69	185.58	34.52	-23.5	-23.7	18.6	0.00e+00	0	44	0	432013312	7	3689
2026-01-19 04:31:12.69	185.66	34.31	-23.4	-23.5	18.7	6.23e-04	0	44	0	439353344	7	3647
2026-01-19 04:31:13.69	185.74	34.09	-23.3	-23.2	18.9	7.21e-04	0	44	0	446693376	7	3580
2026-01-19 04:31:14.69	185.82	33.87	-23.2	-23.1	18.9	0.00e+00	0	44	0	454033408	7	3553
2026-01-19 04:31:15.70	185.90	33.66	-23.2	-23.7	18.9	7.66e-04	0	45	0	461373440	6	3783
2026-01-19 04:31:16.71	185.98	33.44	-23.3	-23.9	18.8	0.00e+00	0	45	0	467664896	6	3826
2026-01-19 04:31:17.71	186.05	33.23	-23.4	-24.0	18.7	0.00e+00	0	45	0	475004928	6	3867
2026-01-19 04:31:18.71	186.13	33.02	-23.4	-24.1	18.7	8.78e-04	0	45	0	482344960	6	3871
2026-01-19 04:31:19.71	186.20	32.81	-23.5	-24.1	18.6	0.00e+00	0	44	0	489684992	6	3887
2026-01-19 04:31:20.72	186.28	32.61	-23.5	-24.2	18.6	1.10e-06	0	44	0	497025024	6	3909
2026-01-19 04:31:21.71	186.35	32.40	-23.5	-24.2	18.5	0.00e+00	0	44	0	504365056	6	3913
2026-01-19 04:31:22.71	186.42	32.20	-23.6	-24.0	18.5	9.89e-04	0	44	0	511705088	7	3748
2026-01-19 04:31:23.71	186.49	32.00	-23.8	-24.4	18.1	0.00e+00	0	44	0	519045120	7	3843
2026-01-19 04:31:24.71	186.56	31.79	-23.8	-24.3	18.3	1.03e-03	0	44	0	526385152	7	3815
2026-01-19 04:31:25.72	186.63	31.59	-23.8	-24.3	18.3	1.13e-03	0	44	0	533725184	7	3821
2026-01-19 04:31:26.73	186.70	31.39	-23.9	-24.5	18.2	0.00e+00	0	44	0	541065216	7	3857
2026-01-19 04:31:27.73	186.77	31.19	-23.8	-24.4	18.2	1.23e-03	0	44	0	547356672	7	3836
2026-01-19 04:31:28.73	186.84	31.00	-23.8	-24.4	18.2	1.12e-03	0	45	0	554696704	7	3853
2026-01-19 04:31:29.74	186.91	30.80	-23.8	-24.4	18.2	0.00e+00	0	44	0	562036736	7	3849
2026-01-19 04:31:30.73	186.97	30.61	-24.1	-24.9	18.0	1.13e-03	0	44	0	569376768	7	3954
2026-01-19 04:31:31.74	187.04	30.42	-24.0	-24.3	18.1	1.27e-03	0	44	0	576716800	8	3721
2026-01-19 04:31:32.75	187.10	30.22	-23.8	-23.8	18.3	5.70e-06	0	44	0	584056832	8	3612
2026-01-19 04:31:33.75	187.17	30.03	-23.7	-24.0	18.4	1.22e-03	0	44	0	591396864	7	3764
2026-01-19 04:31:34.75	187.23	29.84	-23.7	-24.2	18.3	0.00e+00	0	45	0	598736896	7	3798
2026-01-19 04:31:35.75	187.29	29.66	-23.7	-24.2	18.3	6.52e-05	0	45	0	606076928	7	3793
2026-01-19 04:31:36.75	187.35	29.47	-23.8	-24.3	18.3	1.21e-03	0	44	0	612368384	7	3819
2026-01-19 04:31:37.75	187.41	29.29	-23.9	-24.6	18.1	1.12e-03	0	45	0	619708416	7	3884
2026-01-19 04:31:38.75	187.47	29.10	-23.9	-24.5	18.1	1.15e-04	0	45	0	627048448	7	3872
2026-01-19 04:31:39.75	187.53	28.92	-23.9	-24.5	18.2	0.00e+00	0	45	0	634388480	7	3860
2026-01-19 04:31:40.76	187.59	28.74	-23.8	-24.4	18.2	1.32e-03	0	45	0	641728512	7	3845
2026-01-19 04:31:41.76	187.65	28.56	-23.9	-24.6	18.1	0.00e+00	0	44	0	649068544	7	3891
2026-01-19 04:31:42.77	187.71	28.37	-23.9	-24.5	18.1	1.83e-04	0	45	0	656408576	7	3861
2026-01-19 04:31:43.78	187.77	28.19	-24.0	-24.6	18.1	0.00e+00	0	44	0	663748608	7	3900
2026-01-19 04:31:44.78	187.82	28.02	-23.9	-24.5	18.1	0.00e+00	0	44	0	671088640	7	3867
2026-01-19 04:31:45.78	187.88	27.84	-23.7	-24.2	18.3	1.27e-03	0	45	0	678428672	7	3796
2026-01-19 04:31:46.78	187.94	27.67	-23.7	-24.2	18.3	0.00e+00	0	44	0	685768704	7	3788
2026-01-19 04:31:47.78	187.99	27.49	-23.7	-24.2	18.3	0.00e+00	0	45	0	693108736	7	3803
2026-01-19 04:31:48.79	188.04	27.32	-23.8	-24.4	18.2	0.00e+00	0	45	0	699400192	7	3839
2026-01-19 04:31:49.79	188.10	27.15	-23.8	-24.3	18.2	0.00e+00	0	44	0	706740224	7	3826
2026-01-19 04:31:50.79	188.15	26.98	-23.9	-24.6	18.0	1.65e-04	0	45	0	714080256	7	3889
2026-01-19 04:31:51.79	188.20	26.81	-23.9	-24.6	18.0	0.00e+00	0	44	0	721420288	7	3902
2026-01-19 04:31:52.79	188.26	26.64	-23.9	-24.7	18.0	0.00e+00	0	45	0	728760320	7	3910
2026-01-19 04:31:53.80	188.31	26.47	-24.0	-24.9	17.9	0.00e+00	0	45	0	736100352	7	3955
2026-01-19 04:31:54.79	188.36	26.31	-24.1	-24.9	17.9	0.00e+00	0	44	0	743440384	7	3964
2026-01-19 04:31:55.79	188.41	26.14	-24.1	-24.4	17.9	0.00e+00	0	45	0	750780416	8	3741
2026-01-19 04:31:56.79	188.46	25.98	-24.1	-24.5	17.8	0.00e+00	0	44	0	757071872	8	3761
2026-01-19 04:31:57.80	188.51	25.81	-24.1	-24.5	17.9	0.00e+00	0	44	0	764411904	8	3760
2026-01-19 04:31:58.80	188.56	25.65	-24.2	-24.7	17.7	0.00e+00	0	45	0	771751936	8	3820
2026-01-19 04:31:59.80	188.61	25.49	-24.2	-24.7	17.8	0.00e+00	0	45	0	779091968	8	3811
2026-01-19 04:32:00.80	188.66	25.33	-24.3	-24.9	17.7	0.00e+00	0	44	0	786432000	8	3858
2026-01-19 04:32:01.80	188.70	25.17	-24.2	-24.8	17.7	0.00e+00	0	45	0	793772032	8	3830
2026-01-19 04:32:02.81	188.75	25.01	-24.3	-24.8	17.7	0.00e+00	0	45	0	801112064	8	3843
2026-01-19 04:32:03.82	188.80	24.85	-24.5	-25.3	17.4	0.00e+00	0	45	0	808452096	8	3954
2026-01-19 04:32:04.82	188.85	24.69	-24.3	-24.9	17.6	0.00e+00	0	45	0	815792128	8	3866
2026-01-19 04:32:05.83	188.89	24.53	-24.1	-24.5	17.8	0.00e+00	0	44	0	823132160	8	3768
2026-01-19 04:32:06.83	188.94	24.38	-24.1	-24.4	17.9	0.00e+00	0	45	0	830472192	8	3737
2026-01-19 04:32:07.84	188.98	24.22	-24.1	-24.5	17.8	0.00e+00	0	45	0	837812224	8	3769
2026-01-19 04:32:08.84	189.03	24.07	-24.0	-24.8	17.9	0.00e+00	0	45	0	844103680	7	3935
2026-01-19 04:32:09.84	189.07	23.92	-24.0	-24.8	17.9	0.00e+00	0	45	0	851443712	7	3951
2026-01-19 04:32:10.84	189.12	23.76	-24.2	-24.7	17.7	0.00e+00	0	45	0	858783744	8	3811
2026-01-19 04:32:11.84	189.16	23.61	-24.4	-25.2	17.4	0.00e+00	0	45	0	866123776	8	3922
2026-01-19 04:32:12.85	189.20	23.46	-24.4	-25.1	17.5	0.00e+00	0	44	0	873463808	8	3899
2026-01-19 04:32:13.85	189.25	23.31	-24.0	-24.3	17.9	0.00e+00	0	45	0	880803840	8	3723
2026-01-19 04:32:14.85	189.29	23.17	-23.9	-24.0	18.1	0.00e+00	0	45	0	888143872	8	3653
2026-01-19 04:32:15.86	189.33	23.02	-23.7	-24.2	18.2	0.00e+00	0	45	0	895483904	7	3806
2026-01-19 04:32:16.86	189.37	22.87	-23.8	-24.3	18.1	0.00e+00	0	45	0	901775360	7	3826
2026-01-19 04:32:17.86	189.42	22.73	-23.8	-24.3	18.1	0.00e+00	0	45	0	910163968	7	3832
2026-01-19 04:32:18.86	189.46	22.58	-23.9	-24.6	18.0	0.00e+00	0	45	0	917504000	7	3900
2026-01-19 04:32:19.86	189.50	22.44	-23.7	-24.2	18.2	2.20e-06	0	44	0	923795456	7	3809
2026-01-19 04:32:20.86	189.54	22.29	-23.7	-24.2	18.1	0.00e+00	0	44	0	931135488	7	3811
2026-01-19 04:32:21.87	189.58	22.15	-23.8	-24.4	18.0	0.00e+00	0	44	0	938475520	7	3851
2026-01-19 04:32:22.87	189.62	22.01	-23.8	-24.3	18.1	1.10e-06	0	44	0	945815552	7	3836
2026-01-19 04:32:23.87	189.66	21.87	-23.9	-24.6	18.0	0.00e+00	0	45	0	953155584	7	3892
2026-01-19 04:32:24.87	189.70	21.73	-23.9	-24.5	18.0	0.00e+00	0	44	0	960495616	7	3874
2026-01-19 04:32:25.86	189.73	21.59	-23.8	-24.5	18.0	0.00e+00	0	45	0	967835648	7	3869
2026-01-19 04:32:26.87	189.77	21.45	-23.9	-24.6	18.0	0.00e+00	0	44	0	975175680	7	3890
2026-01-19 04:32:27.87	189.81	21.31	-23.9	-24.5	18.0	0.00e+00	0	45	0	982515712	7	3872
2026-01-19 04:32:28.87	189.85	21.18	-24.0	-24.7	17.9	1.10e-06	0	45	0	988807168	7	3929
2026-01-19 04:32:29.88	189.89	21.04	-23.9	-24.7	17.9	0.00e+00	0	45	0	996147200	7	3921
2026-01-19 04:32:30.88	189.92	20.90	-24.0	-24.7	17.9	0.00e+00	0	44	0	1003487232	7	3931
2026-01-19 04:32:31.88	189.96	20.77	-24.2	-24.7	17.6	5.70e-06	0	45	0	1010827264	8	3817
2026-01-19 04:32:32.88	190.00	20.63	-24.4	-25.2	17.4	0.00e+00	0	44	0	1018167296	8	3929
2026-01-19 04:32:33.89	190.03	20.50	-24.3	-25.0	17.5	0.00e+00	0	44	0	1025507328	8	3875
2026-01-19 04:32:34.89	190.07	20.37	-24.1	-24.6	17.7	1.10e-06	0	44	0	1032847360	8	3788
2026-01-19 04:32:35.90	190.11	20.23	-24.2	-24.7	17.6	0.00e+00	0	45	0	1040187392	8	3810
2026-01-19 04:32:36.90	190.14	20.10	-24.3	-24.8	17.5	0.00e+00	0	45	0	1047527424	8	3846
2026-01-19 04:32:37.89	190.18	19.97	-24.3	-24.9	17.5	3.40e-06	0	45	0	1053818880	8	3867
2026-01-19 04:32:38.89	190.21	19.84	-24.3	-25.0	17.5	0.00e+00	0	45	0	1061158912	8	3880
2026-01-19 04:32:39.89	190.25	19.71	-24.4	-25.1	17.5	0.00e+00	0	45	0	1068498944	8	3896
2026-01-19 04:32:40.90	190.28	19.58	-24.4	-25.1	17.4	4.50e-06	0	44	0	1075838976	8	3901
2026-01-19 04:32:41.90	190.32	19.46	-24.5	-25.4	17.3	0.00e+00	0	45	0	1083179008	8	3975
2026-01-19 04:32:42.90	190.35	19.33	-24.4	-25.2	17.3	0.00e+00	0	44	0	1090519040	8	3933
2026-01-19 04:32:43.90	190.38	19.20	-24.6	-25.0	17.2	6.80e-06	0	44	0	1097859072	9	3787
2026-01-19 04:32:44.91	190.42	19.07	-24.9	-25.6	16.8	0.00e+00	0	45	0	1105199104	9	3930
2026-01-19 04:32:45.91	190.45	18.95	-24.7	-25.2	17.0	0.00e+00	0	45	0	1111490560	9	3824
2026-01-19 04:32:46.91	190.48	18.82	-24.6	-25.1	17.1	0.00e+00	0	45	0	1119879168	9	3795
2026-01-19 04:32:47.92	190.52	18.70	-24.7	-25.2	17.1	0.00e+00	0	45	0	1127219200	9	3812
2026-01-19 04:32:48.92	190.55	18.57	-24.6	-25.1	17.1	0.00e+00	0	45	0	1133510656	9	3800
2026-01-19 04:32:49.92	190.58	18.45	-24.7	-25.2	17.0	0.00e+00	0	45	0	1140850688	9	3832
2026-01-19 04:32:50.92	190.61	18.33	-24.7	-25.2	17.0	0.00e+00	0	45	0	1148190720	9	3835
2026-01-19 04:32:51.93	190.64	18.21	-24.8	-25.6	16.9	0.00e+00	0	45	0	1155530752	9	3915
2026-01-19 04:32:52.93	190.68	18.09	-24.8	-25.5	16.9	0.00e+00	0	44	0	1162870784	9	3898
2026-01-19 04:32:53.94	190.71	17.96	-24.8	-25.5	16.8	0.00e+00	0	45	0	1170210816	9	3910
2026-01-19 04:32:54.94	190.74	17.84	-24.9	-25.6	16.8	0.00e+00	0	44	0	1177550848	9	3916
2026-01-19 04:32:55.94	190.77	17.72	-24.9	-25.7	16.8	0.00e+00	0	44	0	1184890880	9	3948
2026-01-19 04:32:56.95	190.80	17.60	-24.9	-25.8	16.7	0.00e+00	0	45	0	1192230912	9	3962
2026-01-19 04:32:57.96	190.83	17.49	-25.1	-25.7	16.5	0.00e+00	0	44	0	1198522368	10	3829
2026-01-19 04:32:58.96	190.86	17.37	-25.0	-25.4	16.5	0.00e+00	0	45	0	1206910976	10	3755
2026-01-19 04:32:59.96	190.89	17.25	-25.0	-25.5	16.6	0.00e+00	0	45	0	1213202432	10	3784
2026-01-19 04:33:00.96	190.92	17.13	-25.1	-25.5	16.6	0.00e+00	0	45	0	1220542464	10	3800
2026-01-19 04:33:01.96	190.95	17.02	-25.1	-25.6	16.6	0.00e+00	0	45	0	1227882496	10	3805
2026-01-19 04:33:02.96	190.98	16.90	-25.2	-25.8	16.4	0.00e+00	0	45	0	1235222528	10	3854
2026-01-19 04:33:03.97	191.01	16.79	-25.3	-26.0	16.3	0.00e+00	0	44	0	1242562560	10	3905
2026-01-19 04:33:04.97	191.04	16.67	-25.2	-25.8	16.4	0.00e+00	0	45	0	1249902592	10	3867
2026-01-19 04:33:05.97	191.07	16.56	-25.3	-25.9	16.4	7.49e-04	0	44	0	1257242624	10	3896
2026-01-19 04:33:06.98	191.09	16.44	-25.5	-26.4	16.1	0.00e+00	0	44	0	1264582656	10	4007
2026-01-19 04:33:07.97	191.12	16.33	-25.4	-26.2	16.2	0.00e+00	0	45	0	1271922688	10	3958
2026-01-19 04:33:08.97	191.15	16.22	-25.6	-26.7	15.9	0.00e+00	0	45	0	1278214144	10	4072
2026-01-19 04:33:09.97	191.18	16.11	-25.6	-26.2	15.9	0.00e+00	0	44	0	1285554176	11	3855
2026-01-19 04:33:10.97	191.21	16.00	-25.7	-26.4	15.9	0.00e+00	0	45	0	1292894208	11	3897
2026-01-19 04:33:11.98	191.23	15.88	-25.7	-26.4	15.7	0.00e+00	0	45	0	1300234240	11	3912
2026-01-19 04:33:12.99	191.26	15.77	-25.7	-26.4	15.8	1.00e-03	0	45	0	1307574272	11	3915
2026-01-19 04:33:13.99	191.29	15.66	-25.8	-26.5	15.7	0.00e+00	0	45	0	1314914304	11	3936
2026-01-19 04:33:14.99	191.32	15.55	-25.8	-26.6	15.7	0.00e+00	0	45	0	1322254336	11	3947
2026-01-19 04:33:16.00	191.34	15.44	-25.7	-26.4	15.8	8.93e-04	0	45	0	1329594368	11	3914
2026-01-19 04:33:17.00	191.37	15.34	-25.6	-26.3	15.8	0.00e+00	0	44	0	1336934400	11	3877
2026-01-19 04:33:18.00	191.40	15.23	-25.6	-26.2	15.9	9.20e-04	0	45	0	1343225856	11	3853
2026-01-19 04:33:19.01	191.42	15.12	-25.6	-26.2	15.9	1.06e-03	0	45	0	1350565888	11	3846
2026-01-19 04:33:20.01	191.45	15.01	-25.7	-26.4	15.8	0.00e+00	0	45	0	1357905920	11	3914
2026-01-19 04:33:21.01	191.48	14.91	-25.7	-26.4	15.7	1.05e-03	0	45	0	1365245952	11	3901
2026-01-19 04:33:22.02	191.50	14.80	-25.8	-26.6	15.6	0.00e+00	0	45	0	1372585984	11	3949
2026-01-19 04:33:23.02	191.53	14.69	-26.0	-27.1	15.4	0.00e+00	0	45	0	1379926016	11	4080
2026-01-19 04:33:24.03	191.55	14.59	-25.9	-26.8	15.6	1.04e-03	0	45	0	1387266048	11	3992
2026-01-19 04:33:25.03	191.58	14.48	-25.7	-26.5	15.6	9.91e-04	0	45	0	1394606080	11	3936
2026-01-19 04:33:26.04	191.61	14.38	-25.8	-26.7	15.6	0.00e+00	0	45	0	1401946112	11	3981
2026-01-19 04:33:27.05	191.63	14.27	-25.8	-26.7	15.6	1.14e-03	0	45	0	1409286144	11	3974
2026-01-19 04:33:28.05	191.66	14.17	-25.9	-26.8	15.5	1.14e-03	0	45	0	1416626176	11	4012
2026-01-19 04:33:29.05	191.68	14.07	-26.0	-26.7	15.2	0.00e+00	0	45	0	1423966208	12	3879
2026-01-19 04:33:30.05	191.71	13.96	-25.9	-26.8	15.4	1.12e-03	0	45	0	1430257664	11	4012
2026-01-19 04:33:31.06	191.73	13.86	-25.8	-26.7	15.5	1.05e-03	0	44	0	1437597696	11	3981
2026-01-19 04:33:32.05	191.75	13.76	-25.7	-26.4	15.7	0.00e+00	0	45	0	1444937728	11	3920
2026-01-19 04:33:33.06	191.78	13.66	-25.8	-26.6	15.6	1.05e-03	0	45	0	1452277760	11	3968
2026-01-19 04:33:34.06	191.80	13.56	-25.8	-26.7	15.5	9.47e-04	0	45	0	1459617792	11	3976
2026-01-19 04:33:35.06	191.83	13.46	-25.9	-27.0	15.4	0.00e+00	0	45	0	1466957824	11	4053
2026-01-19 04:33:36.07	191.85	13.36	-25.9	-26.8	15.4	9.90e-04	0	45	0	1474297856	11	4018
2026-01-19 04:33:37.07	191.87	13.26	-25.9	-26.9	15.4	0.00e+00	0	45	0	1481637888	11	4021
2026-01-19 04:33:38.08	191.90	13.16	-25.9	-26.9	15.3	0.00e+00	0	45	0	1488977920	11	4046
2026-01-19 04:33:39.08	191.92	13.06	-25.9	-27.0	15.3	0.00e+00	0	44	0	1496317952	11	4048
2026-01-19 04:33:40.08	191.94	12.96	-26.0	-27.0	15.3	0.00e+00	0	45	0	1503657984	11	4067
2026-01-19 04:33:41.08	191.97	12.86	-26.0	-27.2	15.2	1.10e-06	0	45	0	1509949440	11	4101
2026-01-19 04:33:42.08	191.99	12.77	-26.0	-27.0	15.3	0.00e+00	0	44	0	1517289472	11	4065
2026-01-19 04:33:43.09	192.01	12.67	-26.1	-27.2	15.2	9.66e-04	0	45	0	1524629504	11	4121
2026-01-19 04:33:44.09	192.04	12.57	-26.1	-26.8	15.1	0.00e+00	0	45	0	1531969536	12	3903
2026-01-19 04:33:45.10	192.06	12.47	-26.1	-26.9	15.0	0.00e+00	0	45	0	1539309568	12	3930
2026-01-19 04:33:46.10	192.08	12.38	-26.2	-27.1	14.8	1.08e-03	0	45	0	1546649600	12	3980
2026-01-19 04:33:47.11	192.10	12.28	-26.2	-27.1	14.9	0.00e+00	0	45	0	1553989632	12	3978
2026-01-19 04:33:48.12	192.13	12.18	-26.3	-27.3	14.7	0.00e+00	0	44	0	1561329664	12	4042
2026-01-19 04:33:49.11	192.15	12.09	-26.2	-27.0	14.9	0.00e+00	0	44	0	1568669696	12	3959
2026-01-19 04:33:50.11	192.17	12.00	-26.3	-27.2	14.8	0.00e+00	0	45	0	1576009728	12	4007
2026-01-19 04:33:51.11	192.19	11.90	-26.3	-27.3	14.7	0.00e+00	0	45	0	1583349760	12	4034
2026-01-19 04:33:52.12	192.21	11.81	-26.3	-27.4	14.7	0.00e+00	0	45	0	1590689792	12	4056
2026-01-19 04:33:53.12	192.24	11.71	-26.4	-27.6	14.6	0.00e+00	0	44	0	1596981248	12	4100
2026-01-19 04:33:54.11	192.26	11.62	-26.5	-27.6	14.5	1.10e-06	0	45	0	1604321280	12	4118
2026-01-19 04:33:55.12	192.28	11.53	-26.6	-27.5	14.3	0.00e+00	0	45	0	1611661312	13	3988
2026-01-19 04:33:56.12	192.30	11.44	-26.6	-27.5	14.3	1.10e-06	0	45	0	1619001344	13	3976
2026-01-19 04:33:57.12	192.32	11.34	-26.5	-27.2	14.5	1.10e-06	0	45	0	1626341376	13	3904
2026-01-19 04:33:58.12	192.34	11.25	-26.5	-27.7	14.5	1.10e-06	0	45	0	1633681408	12	4135
2026-01-19 04:33:59.13	192.36	11.16	-26.4	-27.6	14.5	2.20e-06	0	45	0	1641021440	12	4113
2026-01-19 04:34:00.13	192.38	11.07	-26.3	-27.4	14.6	0.00e+00	0	45	0	1648361472	12	4058
2026-01-19 04:34:01.12	192.41	10.98	-26.6	-27.9	14.3	0.00e+00	0	45	0	1654652928	12	4203
2026-01-19 04:34:02.13	192.43	10.89	-26.5	-27.8	14.4	0.00e+00	0	44	0	1661992960	12	4165
2026-01-19 04:34:03.13	192.45	10.80	-26.6	-27.5	14.3	3.40e-06	0	45	0	1669332992	13	3986
2026-01-19 04:34:04.14	192.47	10.71	-26.7	-27.7	14.1	3.40e-06	0	45	0	1676673024	13	4042
2026-01-19 04:34:05.14	192.49	10.62	-26.7	-27.6	14.2	2.20e-06	0	45	0	1684013056	13	4015
2026-01-19 04:34:06.14	192.51	10.53	-26.8	-27.8	14.1	2.20e-06	0	45	0	1691353088	13	4072
2026-01-19 04:34:07.14	192.53	10.44	-26.8	-27.8	14.1	0.00e+00	0	45	0	1698693120	13	4067
2026-01-19 04:34:08.14	192.55	10.35	-26.8	-27.9	14.0	1.10e-06	0	45	0	1706033152	13	4088
2026-01-19 04:34:09.15	192.57	10.26	-26.8	-27.8	14.0	3.40e-06	0	45	0	1713373184	13	4076
2026-01-19 04:34:10.15	192.59	10.18	-26.8	-27.9	14.0	1.10e-06	0	45	0	1719664640	13	4084
2026-01-19 04:34:11.15	192.61	10.09	-26.8	-27.9	14.0	3.40e-06	0	44	0	1727004672	13	4081
2026-01-19 04:34:12.15	192.63	10.00	-26.8	-28.0	13.9	6.80e-06	0	45	0	1734344704	13	4118
2026-01-19 04:34:13.16	192.65	9.91	-27.1	-28.0	13.6	4.50e-06	0	45	0	1741684736	14	4015
2026-01-19 04:34:14.16	192.67	9.83	-26.9	-27.6	13.9	1.10e-06	0	45	0	1749024768	14	3901
2026-01-19 04:34:15.16	192.68	9.74	-26.9	-28.1	13.9	4.50e-06	0	44	0	1756364800	13	4146
2026-01-19 04:34:16.16	192.70	9.66	-27.1	-28.5	13.6	1.48e-05	0	45	0	1763704832	13	4255
2026-01-19 04:34:17.16	192.72	9.57	-26.9	-28.1	13.9	6.80e-06	0	44	0	1771044864	13	4145
2026-01-19 04:34:18.17	192.74	9.48	-26.9	-28.2	13.8	2.20e-06	0	45	0	1778384896	13	4169
2026-01-19 04:34:19.17	192.76	9.40	-27.1	-28.1	13.5	1.10e-06	0	45	0	1785724928	14	4047
2026-01-19 04:34:20.17	192.78	9.31	-27.0	-27.9	13.7	2.20e-06	0	44	0	1793064960	14	3984
2026-01-19 04:34:21.18	192.80	9.23	-27.2	-28.3	13.5	1.83e-05	0	45	0	1800404992	14	4089
2026-01-19 04:34:22.18	192.82	9.14	-27.1	-28.1	13.6	1.25e-05	0	45	0	1806696448	14	4034
2026-01-19 04:34:23.18	192.84	9.06	-27.1	-28.0	13.6	1.48e-05	0	45	0	1814036480	14	4019
2026-01-19 04:34:24.19	192.85	8.98	-27.1	-28.2	13.5	5.70e-06	0	45	0	1821376512	14	4062
2026-01-19 04:34:25.19	192.87	8.89	-27.2	-28.3	13.4	1.60e-05	0	45	0	1828716544	14	4089
2026-01-19 04:34:26.19	192.89	8.81	-27.2	-28.2	13.5	1.37e-05	0	45	0	1836056576	14	4071
2026-01-19 04:34:27.19	192.91	8.73	-27.1	-28.2	13.5	9.10e-06	0	45	0	1843396608	14	4064
2026-01-19 04:34:28.19	192.93	8.64	-27.2	-28.4	13.3	1.83e-05	0	45	0	1850736640	14	4126
2026-01-19 04:34:29.19	192.95	8.56	-27.1	-28.1	13.5	9.10e-06	0	45	0	1858076672	14	4035
2026-01-19 04:34:30.20	192.96	8.48	-27.2	-28.3	13.4	2.51e-05	0	45	0	1864368128	14	4094
2026-01-19 04:34:31.20	192.98	8.40	-27.3	-28.6	13.2	2.17e-05	0	45	0	1871708160	14	4171
2026-01-19 04:34:32.21	193.00	8.32	-27.3	-28.7	13.1	2.97e-05	0	45	0	1879048192	14	4193
2026-01-19 04:34:33.21	193.02	8.23	-27.3	-28.6	13.2	4.00e-05	0	44	0	1886388224	14	4176
2026-01-19 04:34:34.22	193.03	8.15	-27.2	-28.4	13.3	1.60e-05	0	45	0	1893728256	14	4129
2026-01-19 04:34:35.22	193.05	8.07	-27.2	-28.4	13.3	1.94e-05	0	45	0	1901068288	14	4130
2026-01-19 04:34:36.23	193.07	7.99	-27.2	-28.4	13.2	3.89e-05	0	45	0	1908408320	14	4134
2026-01-19 04:34:37.23	193.09	7.91	-27.1	-28.1	13.4	2.40e-05	0	45	0	1915748352	14	4049
2026-01-19 04:34:38.24	193.10	7.83	-27.2	-28.4	13.3	1.60e-05	0	45	0	1923088384	14	4117
2026-01-19 04:34:39.24	193.12	7.75	-27.2	-28.4	13.2	2.28e-05	0	45	0	1930428416	14	4129
2026-01-19 04:34:40.25	193.14	7.67	-27.3	-28.5	13.2	2.86e-05	0	44	0	1937768448	14	4163
2026-01-19 04:34:41.26	193.16	7.59	-27.2	-28.3	13.3	1.48e-05	0	44	0	1945108480	14	4095
2026-01-19 04:34:42.26	193.17	7.51	-27.0	-28.4	13.5	1.02e-05	0	45	0	1951399936	13	4243
2026-01-19 04:34:43.26	193.19	7.43	-27.3	-28.5	13.1	3.31e-05	0	45	0	1959788544	14	4163
2026-01-19 04:34:44.26	193.21	7.35	-27.2	-28.3	13.3	1.71e-05	0	45	0	1966080000	14	4094
2026-01-19 04:34:45.26	193.22	7.28	-27.2	-28.5	13.2	3.89e-05	0	45	0	1973420032	14	4143
2026-01-19 04:34:46.26	193.24	7.20	-27.2	-28.4	13.2	2.86e-05	0	45	0	1980760064	14	4128
2026-01-19 04:34:47.26	193.26	7.12	-29.0	-31.1	11.1	3.66e-05	0	45	0	1988100096	17	4580
2026-01-19 04:34:48.27	193.27	7.04	-33.4	-43.3	3.8	8.46e-01	0	45	104	1989148672	26	11194
2026-01-19 04:34:49.27	193.29	6.97	-33.7	-43.3	3.8	8.46e-01	0	45	104	1989148672	27	10928
2026-01-19 04:34:50.27	193.31	6.89	-33.9	-43.8	3.8	8.47e-01	0	45	104	1989148672	27	11162
2026-01-19 04:34:51.28	193.32	6.81	-34.0	-43.5	3.8	8.45e-01	0	45	104	1989148672	28	10674

#Closed at: 2026-01-19 04:34:51
#Recorded file [1989 MB]: D:/data/31010_260119_073011.dat