passes_logs/2026/01/19/R2M6_AANII_01/R2M6_AANII_01__20260119_123120_FENGYUN_3D_rec.log

#Pass ID: 20260119_123120_FENGYUN 3D
#Satellite: FENGYUN 3D
#Configuration: FENGYUN 3D
#almurnet v.1.7.20240730
#Start time: 2026-01-19 12:31:21

#Version: 2.2.20231116
#Station: R2M6_AANII_01
#Location: 30.233357 lon 59.946436 lat
#TLE: 1 43010U 17072A   26017.96359538  .00000271  00000+0  15011-3 0  9999
#TLE: 2 43010  98.9936 349.8252 0002386 103.8840 256.2601 14.19697057423673

#Time	Az	El	Level	Level2	SNR	BER	BlckErr	Temp	State	Recorded	gain1	gain2
2026-01-19 12:31:21.21	164.72	7.08	-29.6	-32.4	5.4	7.88e-01	0	41	0	0	20	4957
2026-01-19 12:31:22.20	164.74	7.16	-29.5	-32.2	5.4	7.86e-01	0	42	104	0	20	4880
2026-01-19 12:31:23.21	164.75	7.23	-29.5	-32.1	10.3	4.35e-03	0	41	0	0	20	4836
2026-01-19 12:31:24.21	164.76	7.31	-29.7	-32.5	10.0	4.71e-03	0	41	0	5242880	20	4998
2026-01-19 12:31:25.22	164.78	7.39	-29.7	-32.7	9.9	7.05e-03	0	41	0	10485760	20	5043
2026-01-19 12:31:26.22	164.79	7.47	-29.7	-32.5	10.0	7.03e-03	0	42	0	16777216	20	4971
2026-01-19 12:31:27.22	164.81	7.55	-29.8	-32.9	9.7	6.70e-03	0	42	0	22020096	20	5140
2026-01-19 12:31:28.22	164.82	7.63	-29.5	-31.9	10.4	4.06e-03	0	42	0	28311552	20	4766
2026-01-19 12:31:29.22	164.84	7.71	-29.1	-31.4	11.2	1.91e-03	0	42	0	33554432	19	4675
2026-01-19 12:31:30.22	164.85	7.79	-28.9	-30.8	11.6	4.81e-04	0	42	0	38797312	19	4487
2026-01-19 12:31:31.23	164.86	7.87	-28.5	-30.4	12.1	2.02e-04	0	42	0	45088768	18	4477
2026-01-19 12:31:32.23	164.88	7.95	-28.8	-31.1	11.7	2.76e-04	0	42	0	50331648	18	4691
2026-01-19 12:31:33.24	164.89	8.03	-28.4	-30.1	12.3	1.25e-04	0	42	0	55574528	18	4387
2026-01-19 12:31:34.23	164.91	8.11	-28.6	-30.6	12.0	2.32e-04	0	42	0	61865984	18	4537
2026-01-19 12:31:35.24	164.92	8.19	-28.5	-30.3	12.2	1.53e-04	0	42	0	67108864	18	4433
2026-01-19 12:31:36.24	164.94	8.27	-28.1	-29.9	12.7	5.72e-05	0	42	0	73400320	17	4432
2026-01-19 12:31:37.24	164.95	8.35	-28.2	-30.0	12.8	3.89e-05	0	42	0	78643200	17	4453
2026-01-19 12:31:38.24	164.97	8.43	-28.2	-30.0	12.8	5.14e-05	0	42	0	83886080	17	4451
2026-01-19 12:31:39.25	164.98	8.52	-28.0	-29.6	13.0	3.54e-05	0	42	0	90177536	17	4343
2026-01-19 12:31:40.25	165.00	8.60	-28.2	-30.1	12.7	1.83e-05	0	42	0	95420416	17	4464
2026-01-19 12:31:41.25	165.01	8.68	-28.3	-30.4	12.5	8.46e-05	0	42	0	100663296	17	4583
2026-01-19 12:31:42.26	165.03	8.77	-28.2	-30.1	12.7	5.03e-05	0	42	0	106954752	17	4491
2026-01-19 12:31:43.25	165.04	8.85	-27.9	-29.3	13.2	3.20e-05	0	42	0	112197632	17	4254
2026-01-19 12:31:44.25	165.06	8.93	-27.6	-29.2	13.6	4.50e-06	0	42	0	117440512	16	4323
2026-01-19 12:31:45.25	165.07	9.01	-27.3	-28.6	14.0	1.10e-06	0	42	0	123731968	16	4143
2026-01-19 12:31:46.25	165.09	9.10	-27.4	-28.7	13.9	3.40e-06	0	42	0	128974848	16	4182
2026-01-19 12:31:47.26	165.10	9.18	-27.5	-28.8	13.9	1.10e-06	0	42	0	135266304	16	4202
2026-01-19 12:31:48.27	165.12	9.27	-27.5	-29.0	13.8	6.80e-06	0	42	0	140509184	16	4243
2026-01-19 12:31:49.28	165.13	9.35	-27.6	-29.1	13.7	3.40e-06	0	42	0	146800640	16	4274
2026-01-19 12:31:50.28	165.15	9.44	-27.7	-29.3	13.6	2.20e-06	0	42	0	152043520	16	4333
2026-01-19 12:31:51.28	165.17	9.52	-27.4	-28.6	14.0	5.70e-06	0	42	0	157286400	16	4141
2026-01-19 12:31:52.28	165.18	9.61	-27.3	-28.4	14.2	0.00e+00	0	42	0	163577856	16	4078
2026-01-19 12:31:53.28	165.20	9.70	-27.3	-28.4	14.2	1.10e-06	0	42	0	168820736	16	4076
2026-01-19 12:31:54.29	165.21	9.78	-27.1	-28.4	14.3	8.00e-06	0	43	0	174063616	15	4188
2026-01-19 12:31:55.29	165.23	9.87	-27.2	-28.7	14.1	1.10e-06	0	42	0	180355072	15	4274
2026-01-19 12:31:56.29	165.25	9.96	-27.2	-28.7	14.1	1.10e-06	0	42	0	185597952	15	4282
2026-01-19 12:31:57.29	165.26	10.04	-27.2	-28.7	14.1	5.70e-06	0	42	0	190840832	15	4258
2026-01-19 12:31:58.29	165.28	10.13	-27.1	-28.5	14.3	0.00e+00	0	42	0	197132288	15	4210
2026-01-19 12:31:59.29	165.29	10.22	-27.3	-29.0	14.0	0.00e+00	0	42	0	202375168	15	4347
2026-01-19 12:32:00.29	165.31	10.31	-27.4	-29.2	13.8	9.10e-06	0	43	0	208666624	15	4410
2026-01-19 12:32:01.30	165.33	10.39	-27.2	-28.7	14.2	1.10e-06	0	43	0	213909504	15	4265
2026-01-19 12:32:02.30	165.34	10.48	-27.0	-28.2	14.5	0.00e+00	0	42	0	219152384	15	4130
2026-01-19 12:32:03.30	165.36	10.57	-26.9	-27.9	14.6	4.50e-06	0	43	0	225443840	15	4059
2026-01-19 12:32:04.30	165.38	10.66	-26.8	-27.8	14.7	0.00e+00	0	43	0	230686720	15	4025
2026-01-19 12:32:05.30	165.39	10.75	-26.8	-28.3	14.7	0.00e+00	0	43	0	235929600	14	4273
2026-01-19 12:32:06.31	165.41	10.84	-26.7	-28.1	14.8	4.50e-06	0	43	0	242221056	14	4203
2026-01-19 12:32:07.31	165.43	10.93	-26.7	-28.1	14.8	0.00e+00	0	43	0	247463936	14	4208
2026-01-19 12:32:08.31	165.45	11.02	-26.7	-28.1	14.8	0.00e+00	0	43	0	253755392	14	4228
2026-01-19 12:32:09.31	165.46	11.11	-26.7	-28.1	14.8	0.00e+00	0	43	0	258998272	14	4220
2026-01-19 12:32:10.31	165.48	11.21	-26.7	-28.0	14.8	1.10e-06	0	43	0	264241152	14	4207
2026-01-19 12:32:11.31	165.50	11.30	-26.7	-28.1	14.8	0.00e+00	0	42	0	270532608	14	4222
2026-01-19 12:32:12.31	165.51	11.39	-26.6	-27.8	15.0	0.00e+00	0	43	0	275775488	14	4148
2026-01-19 12:32:13.31	165.53	11.48	-26.5	-27.7	15.1	0.00e+00	0	43	0	282066944	14	4099
2026-01-19 12:32:14.31	165.55	11.57	-26.6	-27.9	15.0	0.00e+00	0	43	0	287309824	14	4160
2026-01-19 12:32:15.31	165.57	11.67	-26.7	-27.9	14.9	3.40e-06	0	43	0	292552704	14	4174
2026-01-19 12:32:16.31	165.59	11.76	-26.6	-27.8	15.0	0.00e+00	0	43	0	298844160	14	4145
2026-01-19 12:32:17.32	165.60	11.85	-26.6	-27.9	15.0	0.00e+00	0	43	0	304087040	14	4167
2026-01-19 12:32:18.32	165.62	11.95	-26.6	-27.8	15.0	0.00e+00	0	43	0	309329920	14	4133
2026-01-19 12:32:19.33	165.64	12.04	-26.7	-27.9	15.0	0.00e+00	0	43	0	315621376	14	4179
2026-01-19 12:32:20.33	165.66	12.14	-26.7	-28.1	14.9	0.00e+00	0	43	0	320864256	14	4219
2026-01-19 12:32:21.34	165.68	12.23	-26.7	-28.0	14.9	0.00e+00	0	43	0	326107136	14	4198
2026-01-19 12:32:22.34	165.69	12.33	-26.7	-28.0	15.0	0.00e+00	0	43	0	332398592	14	4180
2026-01-19 12:32:23.34	165.71	12.43	-26.7	-28.0	14.9	0.00e+00	0	43	0	337641472	14	4200
2026-01-19 12:32:24.35	165.73	12.52	-26.8	-28.2	14.9	0.00e+00	0	43	0	343932928	14	4241
2026-01-19 12:32:25.34	165.75	12.62	-26.8	-28.3	14.8	0.00e+00	0	43	0	349175808	14	4261
2026-01-19 12:32:26.35	165.77	12.72	-26.7	-28.1	14.9	0.00e+00	0	43	0	354418688	14	4219
2026-01-19 12:32:27.35	165.79	12.81	-26.9	-28.5	14.7	1.10e-06	0	43	0	360710144	14	4323
2026-01-19 12:32:28.35	165.81	12.91	-27.0	-28.8	14.6	0.00e+00	0	43	0	365953024	14	4404
2026-01-19 12:32:29.36	165.83	13.01	-26.8	-28.2	14.8	0.00e+00	0	43	0	372244480	14	4254
2026-01-19 12:32:30.36	165.85	13.11	-26.6	-27.9	15.0	0.00e+00	0	43	0	377487360	14	4161
2026-01-19 12:32:31.36	165.87	13.21	-26.6	-27.7	15.2	0.00e+00	0	43	0	382730240	14	4108
2026-01-19 12:32:32.36	165.88	13.31	-26.4	-27.4	15.3	0.00e+00	0	43	0	389021696	14	4015
2026-01-19 12:32:33.37	165.90	13.41	-26.4	-27.4	15.4	0.00e+00	0	43	0	394264576	14	4033
2026-01-19 12:32:34.37	165.92	13.51	-26.4	-27.2	15.4	0.00e+00	0	43	0	399507456	14	3980
2026-01-19 12:32:35.38	165.94	13.61	-26.5	-27.4	15.3	0.00e+00	0	43	0	405798912	14	4036
2026-01-19 12:32:36.38	165.96	13.71	-26.5	-27.4	15.3	0.00e+00	0	43	0	411041792	14	4035
2026-01-19 12:32:37.39	165.98	13.81	-26.3	-27.2	15.5	0.00e+00	0	43	0	417333248	14	3960
2026-01-19 12:32:38.40	166.00	13.92	-26.4	-27.3	15.5	0.00e+00	0	43	0	422576128	14	3987
2026-01-19 12:32:39.41	166.03	14.02	-26.3	-27.0	15.6	0.00e+00	0	43	0	428867584	14	3931
2026-01-19 12:32:40.41	166.05	14.12	-26.3	-27.6	15.5	0.00e+00	0	43	0	434110464	13	4181
2026-01-19 12:32:41.42	166.07	14.23	-26.2	-27.5	15.6	0.00e+00	0	43	0	439353344	13	4143
2026-01-19 12:32:42.41	166.09	14.33	-26.3	-27.5	15.6	0.00e+00	0	43	0	445644800	13	4165
2026-01-19 12:32:43.42	166.11	14.44	-26.3	-27.7	15.5	0.00e+00	0	43	0	450887680	13	4198
2026-01-19 12:32:44.41	166.13	14.54	-26.4	-27.7	15.5	0.00e+00	0	43	0	456130560	13	4215
2026-01-19 12:32:45.42	166.15	14.65	-26.2	-27.4	15.7	0.00e+00	0	43	0	462422016	13	4126
2026-01-19 12:32:46.42	166.17	14.75	-26.1	-27.1	15.8	0.00e+00	0	43	0	467664896	13	4040
2026-01-19 12:32:47.43	166.19	14.86	-26.1	-27.2	15.8	9.10e-06	0	43	0	472907776	13	4069
2026-01-19 12:32:48.43	166.21	14.96	-26.1	-27.1	15.8	0.00e+00	0	43	0	479199232	13	4054
2026-01-19 12:32:49.43	166.23	15.07	-26.1	-27.1	15.8	0.00e+00	0	43	0	484442112	13	4060
2026-01-19 12:32:50.44	166.26	15.18	-26.1	-27.1	15.9	1.14e-05	0	43	0	490733568	13	4042
2026-01-19 12:32:51.44	166.28	15.29	-26.0	-26.9	16.0	0.00e+00	0	43	0	495976448	13	3987
2026-01-19 12:32:52.43	166.30	15.39	-25.8	-26.6	16.2	0.00e+00	0	43	0	501219328	13	3915
2026-01-19 12:32:53.44	166.32	15.50	-25.8	-26.9	16.3	0.00e+00	0	43	0	507510784	12	4106
2026-01-19 12:32:54.45	166.34	15.61	-25.9	-27.1	16.1	0.00e+00	0	43	0	512753664	12	4161
2026-01-19 12:32:55.45	166.37	15.72	-25.8	-27.1	16.2	0.00e+00	0	43	0	517996544	12	4150
2026-01-19 12:32:56.46	166.39	15.84	-25.5	-26.4	16.5	6.80e-06	0	43	0	524288000	12	3976
2026-01-19 12:32:57.46	166.41	15.95	-25.5	-26.4	16.5	0.00e+00	0	43	0	529530880	12	3973
2026-01-19 12:32:58.47	166.44	16.06	-25.5	-26.2	16.7	0.00e+00	0	43	0	535822336	12	3923
2026-01-19 12:32:59.47	166.46	16.17	-25.5	-26.3	16.6	0.00e+00	0	43	0	541065216	12	3957
2026-01-19 12:33:00.48	166.48	16.28	-25.6	-26.5	16.5	0.00e+00	0	43	0	546308096	12	4003
2026-01-19 12:33:01.47	166.50	16.40	-25.5	-26.3	16.6	0.00e+00	0	43	0	552599552	12	3946
2026-01-19 12:33:02.47	166.53	16.51	-25.5	-26.3	16.6	2.20e-06	0	43	0	557842432	12	3959
2026-01-19 12:33:03.47	166.55	16.62	-25.5	-26.3	16.6	0.00e+00	0	43	0	564133888	12	3960
2026-01-19 12:33:04.48	166.57	16.74	-25.6	-26.6	16.5	0.00e+00	0	43	0	569376768	12	4030
2026-01-19 12:33:05.49	166.60	16.85	-25.6	-26.6	16.5	0.00e+00	0	43	0	574619648	12	4029
2026-01-19 12:33:06.48	166.62	16.97	-25.5	-26.3	16.6	0.00e+00	0	43	0	580911104	12	3956
2026-01-19 12:33:07.49	166.65	17.09	-25.5	-26.3	16.6	0.00e+00	0	43	0	586153984	12	3963
2026-01-19 12:33:08.50	166.67	17.20	-25.5	-26.3	16.7	0.00e+00	0	43	0	591396864	12	3948
2026-01-19 12:33:09.50	166.70	17.32	-25.5	-26.3	16.6	0.00e+00	0	43	0	597688320	12	3967
2026-01-19 12:33:10.51	166.72	17.44	-25.5	-26.4	16.6	0.00e+00	0	43	0	602931200	12	3973
2026-01-19 12:33:11.52	166.75	17.56	-25.3	-26.4	16.9	0.00e+00	0	43	0	609222656	11	4093
2026-01-19 12:33:12.52	166.77	17.68	-25.3	-26.4	16.9	0.00e+00	0	43	0	614465536	11	4082
2026-01-19 12:33:13.53	166.80	17.80	-25.3	-26.3	17.0	0.00e+00	0	43	0	619708416	11	4062
2026-01-19 12:33:14.53	166.82	17.92	-25.1	-26.0	17.1	0.00e+00	0	43	0	625999872	11	3986
2026-01-19 12:33:15.53	166.85	18.04	-25.1	-25.9	17.2	0.00e+00	0	43	0	631242752	11	3958
2026-01-19 12:33:16.53	166.87	18.16	-25.1	-25.9	17.2	0.00e+00	0	43	0	637534208	11	3954
2026-01-19 12:33:17.53	166.90	18.28	-25.0	-25.8	17.3	0.00e+00	0	43	0	642777088	11	3925
2026-01-19 12:33:18.53	166.92	18.40	-25.0	-25.7	17.3	0.00e+00	0	43	0	648019968	11	3915
2026-01-19 12:33:19.53	166.95	18.53	-25.2	-26.1	17.1	0.00e+00	0	43	0	654311424	11	4000
2026-01-19 12:33:20.54	166.98	18.65	-25.1	-26.1	17.2	0.00e+00	0	44	0	659554304	11	3996
2026-01-19 12:33:21.54	167.00	18.78	-25.0	-25.7	17.4	0.00e+00	0	43	0	664797184	11	3900
2026-01-19 12:33:22.55	167.03	18.90	-25.0	-25.7	17.3	0.00e+00	0	43	0	671088640	11	3907
2026-01-19 12:33:23.55	167.06	19.03	-24.9	-25.6	17.4	0.00e+00	0	43	0	676331520	11	3886
2026-01-19 12:33:24.54	167.08	19.15	-24.9	-25.5	17.5	0.00e+00	0	44	0	681574400	11	3854
2026-01-19 12:33:25.55	167.11	19.28	-24.9	-25.6	17.4	0.00e+00	0	43	0	687865856	11	3880
2026-01-19 12:33:26.56	167.14	19.41	-25.0	-25.6	17.4	0.00e+00	0	43	0	693108736	11	3889
2026-01-19 12:33:27.56	167.17	19.54	-24.9	-25.4	17.5	0.00e+00	0	43	0	699400192	11	3831
2026-01-19 12:33:28.57	167.20	19.67	-24.8	-25.3	17.6	0.00e+00	0	43	0	704643072	11	3812
2026-01-19 12:33:29.58	167.22	19.80	-24.8	-25.7	17.6	0.00e+00	0	43	0	710934528	10	4010
2026-01-19 12:33:30.57	167.25	19.93	-24.7	-25.5	17.7	0.00e+00	0	43	0	716177408	10	3976
2026-01-19 12:33:31.58	167.28	20.06	-24.6	-25.4	17.8	0.00e+00	0	43	0	721420288	10	3939
2026-01-19 12:33:32.58	167.31	20.19	-24.6	-25.4	17.8	0.00e+00	0	43	0	727711744	10	3944
2026-01-19 12:33:33.59	167.34	20.32	-24.7	-25.6	17.7	0.00e+00	0	44	0	732954624	10	3988
2026-01-19 12:33:34.59	167.37	20.46	-24.7	-25.5	17.7	0.00e+00	0	43	0	738197504	10	3964
2026-01-19 12:33:35.60	167.40	20.59	-24.5	-25.1	18.0	0.00e+00	0	43	0	744488960	10	3866
2026-01-19 12:33:36.60	167.43	20.73	-24.5	-25.1	18.0	0.00e+00	0	43	0	749731840	10	3868
2026-01-19 12:33:37.60	167.46	20.86	-24.5	-25.1	18.0	0.00e+00	0	43	0	754974720	10	3861
2026-01-19 12:33:38.59	167.49	20.99	-24.4	-25.0	18.0	0.00e+00	0	44	0	761266176	10	3848
2026-01-19 12:33:39.59	167.52	21.13	-24.5	-25.2	18.0	0.00e+00	0	44	0	766509056	10	3889
2026-01-19 12:33:40.59	167.55	21.27	-24.5	-25.2	17.9	0.00e+00	0	44	0	772800512	10	3892
2026-01-19 12:33:41.59	167.58	21.41	-24.5	-25.2	17.9	0.00e+00	0	43	0	778043392	10	3895
2026-01-19 12:33:42.59	167.61	21.54	-24.6	-25.4	17.8	0.00e+00	0	44	0	783286272	10	3948
2026-01-19 12:33:43.60	167.64	21.69	-24.6	-25.4	17.8	0.00e+00	0	43	0	789577728	10	3945
2026-01-19 12:33:44.61	167.68	21.83	-24.6	-25.3	17.9	0.00e+00	0	43	0	794820608	10	3910
2026-01-19 12:33:45.61	167.71	21.97	-24.6	-25.4	17.8	0.00e+00	0	43	0	801112064	10	3951
2026-01-19 12:33:46.61	167.74	22.11	-24.6	-25.3	17.9	0.00e+00	0	44	0	806354944	10	3925
2026-01-19 12:33:47.62	167.77	22.25	-24.5	-25.1	18.0	0.00e+00	0	43	0	811597824	10	3858
2026-01-19 12:33:48.62	167.81	22.40	-24.5	-25.1	18.1	0.00e+00	0	44	0	817889280	10	3859
2026-01-19 12:33:49.62	167.84	22.54	-24.3	-24.8	18.2	0.00e+00	0	44	0	823132160	10	3799
2026-01-19 12:33:50.62	167.87	22.69	-24.2	-25.0	18.3	0.00e+00	0	43	0	829423616	9	3944
2026-01-19 12:33:51.63	167.91	22.83	-24.2	-24.9	18.4	0.00e+00	0	44	0	834666496	9	3934
2026-01-19 12:33:52.63	167.94	22.98	-24.2	-24.9	18.4	0.00e+00	0	44	0	839909376	9	3933
2026-01-19 12:33:53.63	167.97	23.13	-24.0	-24.6	18.6	0.00e+00	0	44	0	846200832	9	3852
2026-01-19 12:33:54.63	168.01	23.28	-24.1	-24.7	18.5	0.00e+00	0	43	0	851443712	9	3881
2026-01-19 12:33:55.64	168.04	23.43	-24.1	-24.8	18.5	0.00e+00	0	44	0	856686592	9	3899
2026-01-19 12:33:56.64	168.08	23.58	-24.1	-24.7	18.5	0.00e+00	0	43	0	862978048	9	3891
2026-01-19 12:33:57.64	168.11	23.73	-24.2	-25.0	18.4	0.00e+00	0	43	0	868220928	9	3940
2026-01-19 12:33:58.65	168.15	23.88	-24.1	-24.9	18.4	0.00e+00	0	44	0	873463808	9	3921
2026-01-19 12:33:59.66	168.19	24.03	-24.0	-24.7	18.5	0.00e+00	0	43	0	879755264	9	3872
2026-01-19 12:34:00.65	168.22	24.19	-24.1	-24.8	18.5	0.00e+00	0	43	0	884998144	9	3895
2026-01-19 12:34:01.65	168.26	24.34	-24.2	-25.1	18.3	0.00e+00	0	44	0	891289600	9	3964
2026-01-19 12:34:02.66	168.30	24.50	-24.2	-25.0	18.4	0.00e+00	0	44	0	896532480	9	3954
2026-01-19 12:34:03.66	168.33	24.65	-24.2	-25.0	18.4	0.00e+00	0	43	0	902823936	9	3950
2026-01-19 12:34:04.66	168.37	24.81	-24.2	-25.0	18.4	0.00e+00	0	44	0	908066816	9	3952
2026-01-19 12:34:05.67	168.41	24.97	-24.3	-25.3	18.3	0.00e+00	0	44	0	913309696	9	4017
2026-01-19 12:34:06.67	168.45	25.13	-24.3	-25.1	18.3	0.00e+00	0	44	0	919601152	9	3978
2026-01-19 12:34:07.67	168.49	25.29	-24.1	-24.9	18.5	0.00e+00	0	43	0	924844032	9	3918
2026-01-19 12:34:08.68	168.52	25.45	-24.1	-24.7	18.5	0.00e+00	0	44	0	930086912	9	3886
2026-01-19 12:34:09.68	168.56	25.61	-24.0	-24.5	18.7	0.00e+00	0	44	0	936378368	9	3831
2026-01-19 12:34:10.69	168.60	25.78	-23.9	-24.3	18.8	0.00e+00	0	43	0	941621248	9	3791
2026-01-19 12:34:11.69	168.64	25.94	-23.9	-24.3	18.8	0.00e+00	0	44	0	946864128	9	3774
2026-01-19 12:34:12.69	168.68	26.11	-23.8	-24.1	18.9	0.00e+00	0	44	0	953155584	9	3736
2026-01-19 12:34:13.70	168.73	26.27	-23.7	-24.5	19.0	0.00e+00	0	43	0	958398464	8	3921
2026-01-19 12:34:14.70	168.77	26.44	-23.9	-24.9	18.8	0.00e+00	0	43	0	964689920	8	4022
2026-01-19 12:34:15.70	168.81	26.61	-23.8	-24.7	18.8	0.00e+00	0	44	0	969932800	8	3986
2026-01-19 12:34:16.70	168.85	26.78	-23.8	-24.6	18.9	0.00e+00	0	44	0	975175680	8	3962
2026-01-19 12:34:17.71	168.89	26.95	-24.0	-25.0	18.7	0.00e+00	0	43	0	981467136	8	4052
2026-01-19 12:34:18.71	168.94	27.12	-23.9	-25.0	18.7	0.00e+00	0	44	0	986710016	8	4048
2026-01-19 12:34:19.71	168.98	27.29	-24.1	-25.3	18.6	0.00e+00	0	44	0	993001472	8	4121
2026-01-19 12:34:20.71	169.02	27.47	-24.1	-25.3	18.6	0.00e+00	0	44	0	998244352	8	4121
2026-01-19 12:34:21.71	169.07	27.64	-24.1	-25.4	18.5	0.00e+00	0	44	0	1003487232	8	4149
2026-01-19 12:34:22.72	169.11	27.82	-24.4	-25.9	18.2	0.00e+00	0	44	0	1009778688	8	4295
2026-01-19 12:34:23.72	169.16	27.99	-24.3	-25.7	18.4	0.00e+00	0	43	0	1015021568	8	4228
2026-01-19 12:34:24.72	169.20	28.17	-24.1	-25.2	18.6	0.00e+00	0	44	0	1020264448	8	4110
2026-01-19 12:34:25.73	169.25	28.35	-24.0	-25.0	18.7	0.00e+00	0	44	0	1026555904	8	4064
2026-01-19 12:34:26.73	169.30	28.53	-24.1	-25.2	18.6	0.00e+00	0	44	0	1031798784	8	4105
2026-01-19 12:34:27.73	169.34	28.71	-24.0	-25.0	18.7	0.00e+00	0	44	0	1038090240	8	4063
2026-01-19 12:34:28.73	169.39	28.89	-23.9	-24.9	18.8	0.00e+00	0	44	0	1043333120	8	4028
2026-01-19 12:34:29.74	169.44	29.08	-24.0	-25.1	18.7	0.00e+00	0	44	0	1048576000	8	4075
2026-01-19 12:34:30.74	169.49	29.26	-23.9	-25.0	18.7	0.00e+00	0	44	0	1054867456	8	4058
2026-01-19 12:34:31.74	169.54	29.45	-24.0	-25.2	18.6	0.00e+00	0	44	0	1060110336	8	4101
2026-01-19 12:34:32.74	169.59	29.64	-24.1	-25.2	18.6	0.00e+00	0	44	0	1065353216	8	4104
2026-01-19 12:34:33.74	169.64	29.83	-23.9	-24.8	18.8	0.00e+00	0	44	0	1071644672	8	4020
2026-01-19 12:34:34.75	169.69	30.02	-23.8	-24.8	18.8	0.00e+00	0	44	0	1076887552	8	4002
2026-01-19 12:34:35.75	169.74	30.21	-23.9	-24.8	18.8	0.00e+00	0	44	0	1082130432	8	4005
2026-01-19 12:34:36.75	169.79	30.40	-23.9	-24.9	18.8	0.00e+00	0	44	0	1088421888	8	4039
2026-01-19 12:34:37.75	169.84	30.59	-24.0	-25.1	18.7	0.00e+00	0	44	0	1093664768	8	4088
2026-01-19 12:34:38.76	169.90	30.79	-23.9	-24.9	18.8	0.00e+00	0	44	0	1099956224	8	4021
2026-01-19 12:34:39.76	169.95	30.99	-23.8	-24.7	18.9	0.00e+00	0	44	0	1105199104	8	3985
2026-01-19 12:34:40.76	170.01	31.18	-23.9	-24.8	18.9	0.00e+00	0	44	0	1111490560	8	3998
2026-01-19 12:34:41.76	170.06	31.38	-24.1	-25.3	18.6	0.00e+00	0	44	0	1116733440	8	4133
2026-01-19 12:34:42.77	170.12	31.58	-24.0	-25.0	18.8	0.00e+00	0	44	0	1121976320	8	4067
2026-01-19 12:34:43.77	170.17	31.78	-24.1	-25.3	18.6	0.00e+00	0	44	0	1128267776	8	4142
2026-01-19 12:34:44.77	170.23	31.99	-24.0	-25.2	18.7	0.00e+00	0	44	0	1133510656	8	4101
2026-01-19 12:34:45.77	170.29	32.19	-23.9	-24.8	18.8	0.00e+00	0	44	0	1138753536	8	4018
2026-01-19 12:34:46.77	170.35	32.39	-23.8	-24.6	18.9	0.00e+00	0	44	0	1145044992	8	3970
2026-01-19 12:34:47.77	170.40	32.60	-23.8	-24.7	18.9	0.00e+00	0	44	0	1150287872	8	3992
2026-01-19 12:34:48.77	170.46	32.81	-23.8	-24.7	19.0	0.00e+00	0	44	0	1155530752	8	3973
2026-01-19 12:34:49.78	170.53	33.02	-23.6	-24.2	19.2	0.00e+00	0	44	0	1161822208	8	3852
2026-01-19 12:34:50.78	170.59	33.23	-23.4	-23.9	19.4	0.00e+00	0	44	0	1167065088	8	3794
2026-01-19 12:34:51.79	170.65	33.45	-23.5	-23.9	19.4	0.00e+00	0	44	0	1173356544	8	3790
2026-01-19 12:34:52.79	170.71	33.66	-23.3	-23.6	19.6	0.00e+00	0	44	0	1178599424	8	3715
2026-01-19 12:34:53.79	170.77	33.87	-23.2	-23.9	19.6	0.00e+00	0	44	0	1183842304	7	3887
2026-01-19 12:34:54.79	170.84	34.09	-23.2	-24.0	19.6	2.20e-06	0	44	0	1190133760	7	3915
2026-01-19 12:34:55.80	170.90	34.31	-23.3	-24.0	19.5	0.00e+00	0	43	0	1195376640	7	3928
2026-01-19 12:34:56.80	170.97	34.53	-23.3	-24.1	19.5	0.00e+00	0	44	0	1200619520	7	3951
2026-01-19 12:34:57.80	171.04	34.75	-23.4	-24.3	19.4	0.00e+00	0	44	0	1206910976	7	3992
2026-01-19 12:34:58.80	171.10	34.98	-23.5	-24.4	19.3	0.00e+00	0	44	0	1212153856	7	4024
2026-01-19 12:34:59.81	171.17	35.20	-23.5	-24.5	19.3	0.00e+00	0	44	0	1218445312	7	4036
2026-01-19 12:35:00.81	171.24	35.43	-23.5	-24.5	19.3	9.10e-06	0	44	0	1223688192	7	4034
2026-01-19 12:35:01.82	171.31	35.66	-23.5	-24.6	19.3	0.00e+00	0	44	0	1228931072	7	4056
2026-01-19 12:35:02.82	171.38	35.89	-23.5	-24.6	19.3	0.00e+00	0	44	0	1235222528	7	4059
2026-01-19 12:35:03.82	171.46	36.12	-23.3	-24.2	19.5	8.00e-06	0	44	0	1240465408	7	3962
2026-01-19 12:35:04.82	171.53	36.35	-23.3	-24.1	19.5	0.00e+00	0	44	0	1246756864	7	3942
2026-01-19 12:35:05.83	171.60	36.59	-23.4	-24.3	19.4	0.00e+00	0	44	0	1251999744	7	3986
2026-01-19 12:35:06.83	171.68	36.82	-23.2	-23.9	19.7	4.50e-06	0	44	0	1257242624	7	3887
2026-01-19 12:35:07.84	171.76	37.06	-23.1	-23.7	19.7	0.00e+00	0	44	0	1263534080	7	3842
2026-01-19 12:35:08.84	171.83	37.30	-23.1	-23.6	19.8	0.00e+00	0	44	0	1268776960	7	3826
2026-01-19 12:35:09.85	171.91	37.54	-23.3	-24.0	19.6	0.00e+00	0	44	0	1274019840	7	3922
2026-01-19 12:35:10.85	171.99	37.78	-23.1	-23.6	19.8	0.00e+00	0	44	0	1280311296	7	3838
2026-01-19 12:35:11.85	172.07	38.03	-23.3	-24.1	19.5	0.00e+00	0	44	0	1285554176	7	3951
2026-01-19 12:35:12.85	172.15	38.27	-23.3	-24.1	19.5	0.00e+00	0	44	0	1290797056	7	3957
2026-01-19 12:35:13.85	172.24	38.52	-23.6	-24.6	19.3	0.00e+00	0	44	0	1297088512	7	4075
2026-01-19 12:35:14.86	172.32	38.77	-23.5	-24.5	19.3	0.00e+00	0	43	0	1302331392	7	4045
2026-01-19 12:35:15.85	172.41	39.02	-23.4	-24.2	19.5	0.00e+00	0	44	0	1308622848	7	3981
2026-01-19 12:35:16.85	172.49	39.27	-23.4	-24.4	19.4	0.00e+00	0	44	0	1313865728	7	4009
2026-01-19 12:35:17.85	172.58	39.53	-23.4	-24.3	19.5	0.00e+00	0	44	0	1319108608	7	3983
2026-01-19 12:35:18.85	172.67	39.79	-23.2	-23.9	19.7	0.00e+00	0	44	0	1325400064	7	3890
2026-01-19 12:35:19.86	172.76	40.05	-23.1	-23.8	19.7	0.00e+00	0	44	0	1330642944	7	3860
2026-01-19 12:35:20.86	172.85	40.31	-23.3	-24.0	19.6	0.00e+00	0	44	0	1335885824	7	3917
2026-01-19 12:35:21.86	172.95	40.57	-23.3	-24.1	19.6	0.00e+00	0	44	0	1342177280	7	3934
2026-01-19 12:35:22.86	173.04	40.83	-23.6	-24.8	19.2	0.00e+00	0	44	0	1347420160	7	4111
2026-01-19 12:35:23.86	173.14	41.10	-23.7	-24.8	19.2	0.00e+00	0	44	0	1353711616	7	4127
2026-01-19 12:35:24.86	173.24	41.36	-23.9	-25.3	19.0	0.00e+00	0	44	0	1358954496	7	4254
2026-01-19 12:35:25.87	173.34	41.64	-24.0	-25.5	18.9	0.00e+00	0	44	0	1364197376	7	4293
2026-01-19 12:35:26.87	173.44	41.91	-24.0	-25.5	18.8	0.00e+00	0	44	0	1370488832	7	4300
2026-01-19 12:35:27.87	173.54	42.18	-24.1	-25.2	18.8	0.00e+00	0	44	0	1375731712	8	4099
2026-01-19 12:35:28.87	173.65	42.46	-24.3	-25.8	18.5	0.00e+00	0	44	0	1382023168	8	4241
2026-01-19 12:35:29.88	173.75	42.74	-24.1	-25.4	18.8	0.00e+00	0	44	0	1387266048	8	4144
2026-01-19 12:35:30.88	173.86	43.01	-23.8	-24.6	19.1	0.00e+00	0	44	0	1392508928	8	3963
2026-01-19 12:35:31.87	173.97	43.29	-23.7	-24.4	19.3	0.00e+00	0	44	0	1398800384	8	3893
2026-01-19 12:35:32.87	174.08	43.58	-23.8	-24.7	19.1	0.00e+00	0	44	0	1404043264	8	3971
2026-01-19 12:35:33.86	174.20	43.86	-23.8	-24.7	19.1	0.00e+00	0	44	0	1409286144	8	3979
2026-01-19 12:35:34.87	174.31	44.15	-23.8	-24.5	19.2	0.00e+00	0	44	0	1415577600	8	3935
2026-01-19 12:35:35.87	174.43	44.44	-23.7	-24.4	19.2	0.00e+00	0	44	0	1420820480	8	3908
2026-01-19 12:35:36.88	174.55	44.73	-23.8	-24.7	19.1	0.00e+00	0	44	0	1426063360	8	3971
2026-01-19 12:35:37.88	174.67	45.02	-23.9	-24.7	19.1	0.00e+00	0	44	0	1432354816	8	3980
2026-01-19 12:35:38.89	174.80	45.32	-24.0	-25.0	19.0	0.00e+00	0	44	0	1437597696	8	4044
2026-01-19 12:35:39.89	174.93	45.62	-24.0	-25.1	18.9	0.00e+00	0	44	0	1443889152	8	4083
2026-01-19 12:35:40.90	175.06	45.92	-24.2	-25.5	18.7	0.00e+00	0	44	0	1449132032	8	4168
2026-01-19 12:35:41.90	175.19	46.22	-24.1	-25.2	18.9	0.00e+00	0	44	0	1454374912	8	4087
2026-01-19 12:35:42.90	175.32	46.52	-23.8	-24.5	19.2	0.00e+00	0	44	0	1460666368	8	3935
2026-01-19 12:35:43.90	175.46	46.83	-23.6	-24.1	19.4	0.00e+00	0	44	0	1465909248	8	3844
2026-01-19 12:35:44.91	175.60	47.14	-23.5	-23.9	19.6	0.00e+00	0	44	0	1471152128	8	3786
2026-01-19 12:35:45.90	175.74	47.45	-23.8	-24.6	19.2	0.00e+00	0	44	0	1477443584	8	3951
2026-01-19 12:35:46.90	175.88	47.76	-23.8	-24.5	19.3	0.00e+00	0	44	0	1482686464	8	3927
2026-01-19 12:35:47.90	176.03	48.07	-24.1	-25.2	18.9	0.00e+00	0	44	0	1487929344	8	4097
2026-01-19 12:35:48.90	176.18	48.39	-24.2	-25.5	18.8	0.00e+00	0	44	0	1494220800	8	4172
2026-01-19 12:35:49.90	176.33	48.70	-24.2	-25.4	18.9	0.00e+00	0	44	0	1499463680	8	4142
2026-01-19 12:35:50.90	176.49	49.02	-24.2	-25.4	18.8	0.00e+00	0	44	0	1505755136	8	4145
2026-01-19 12:35:51.91	176.65	49.35	-24.1	-25.2	18.9	0.00e+00	0	44	0	1510998016	8	4096
2026-01-19 12:35:52.91	176.82	49.67	-24.3	-25.7	18.7	0.00e+00	0	44	0	1517289472	8	4224
2026-01-19 12:35:53.92	176.98	50.00	-24.6	-25.9	18.3	0.00e+00	0	44	0	1522532352	9	4151
2026-01-19 12:35:54.92	177.15	50.33	-25.2	-26.5	17.8	0.00e+00	0	44	0	1527775232	10	4205
2026-01-19 12:35:55.92	177.33	50.66	-24.9	-25.8	18.2	0.00e+00	0	44	0	1534066688	10	4030
2026-01-19 12:35:56.92	177.50	50.99	-24.5	-25.0	18.6	0.00e+00	0	44	0	1539309568	10	3821
2026-01-19 12:35:57.93	177.69	51.33	-24.4	-25.0	18.6	0.00e+00	0	44	0	1544552448	10	3825
2026-01-19 12:35:58.94	177.88	51.67	-24.6	-25.3	18.4	0.00e+00	0	44	0	1550843904	10	3912
2026-01-19 12:35:59.94	178.06	52.01	-24.8	-25.8	18.2	0.00e+00	0	44	0	1556086784	10	4014
2026-01-19 12:36:00.94	178.26	52.35	-24.7	-25.6	18.3	0.00e+00	0	44	0	1562378240	10	3960
2026-01-19 12:36:01.94	178.46	52.69	-24.7	-25.5	18.2	0.00e+00	0	44	0	1567621120	10	3957
2026-01-19 12:36:02.95	178.66	53.04	-24.8	-25.8	18.1	0.00e+00	0	44	0	1572864000	10	4021
2026-01-19 12:36:03.95	178.87	53.39	-24.9	-25.9	18.1	0.00e+00	0	44	0	1579155456	10	4047
2026-01-19 12:36:04.95	179.08	53.74	-24.5	-25.0	18.5	0.00e+00	0	44	0	1584398336	10	3832
2026-01-19 12:36:05.95	179.30	54.09	-24.3	-24.7	18.7	0.00e+00	0	44	0	1589641216	10	3759
2026-01-19 12:36:06.95	179.52	54.44	-24.6	-25.4	18.4	0.00e+00	0	44	0	1595932672	10	3921
2026-01-19 12:36:07.95	179.75	54.80	-24.7	-25.6	18.2	0.00e+00	0	44	0	1601175552	10	3974
2026-01-19 12:36:08.95	179.99	55.16	-24.9	-26.0	18.0	0.00e+00	0	44	0	1606418432	10	4069
2026-01-19 12:36:09.95	180.23	55.51	-25.0	-26.2	17.9	0.00e+00	0	44	0	1612709888	10	4123
2026-01-19 12:36:10.95	180.47	55.87	-24.7	-25.5	18.3	0.00e+00	0	44	0	1617952768	10	3941
2026-01-19 12:36:11.95	180.73	56.24	-24.6	-25.3	18.4	0.00e+00	0	44	0	1624244224	10	3891
2026-01-19 12:36:12.94	180.98	56.60	-24.8	-25.7	18.2	0.00e+00	0	44	0	1629487104	10	4000
2026-01-19 12:36:13.94	181.25	56.96	-24.6	-25.3	18.4	0.00e+00	0	44	0	1634729984	10	3900
2026-01-19 12:36:14.94	181.52	57.33	-24.7	-25.5	18.3	0.00e+00	0	44	0	1641021440	10	3962
2026-01-19 12:36:15.94	181.80	57.70	-24.8	-25.7	18.2	0.00e+00	0	44	0	1646264320	10	4015
2026-01-19 12:36:16.94	182.09	58.07	-24.5	-25.1	18.5	0.00e+00	0	44	0	1651507200	10	3867
2026-01-19 12:36:17.94	182.39	58.45	-24.0	-24.5	19.1	0.00e+00	0	44	0	1657798656	9	3814
2026-01-19 12:36:18.94	182.69	58.82	-23.9	-24.3	19.2	0.00e+00	0	44	0	1663041536	9	3776
2026-01-19 12:36:19.95	183.01	59.20	-24.6	-25.9	18.4	0.00e+00	0	44	0	1668284416	9	4145
2026-01-19 12:36:20.95	183.33	59.58	-24.5	-25.5	18.6	0.00e+00	0	44	0	1674575872	9	4069
2026-01-19 12:36:21.95	183.66	59.96	-24.0	-24.6	19.1	0.00e+00	0	44	0	1679818752	9	3837
2026-01-19 12:36:22.96	184.01	60.35	-24.0	-24.5	19.1	0.00e+00	0	44	0	1686110208	9	3823
2026-01-19 12:36:23.96	184.36	60.73	-24.3	-25.1	18.9	0.00e+00	0	44	0	1691353088	9	3947
2026-01-19 12:36:24.97	184.73	61.11	-24.1	-24.7	19.0	0.00e+00	0	44	0	1697644544	9	3856
2026-01-19 12:36:25.96	185.10	61.50	-23.9	-24.4	19.2	0.00e+00	0	44	0	1702887424	9	3803
2026-01-19 12:36:26.97	185.49	61.89	-23.6	-24.2	19.5	0.00e+00	0	44	0	1708130304	8	3852
2026-01-19 12:36:27.97	185.88	62.27	-23.3	-23.5	19.9	0.00e+00	0	44	0	1714421760	8	3701
2026-01-19 12:36:28.97	186.29	62.66	-23.5	-23.9	19.7	0.00e+00	0	44	0	1719664640	8	3776
2026-01-19 12:36:29.97	186.72	63.05	-24.2	-25.5	18.9	0.00e+00	0	44	0	1724907520	8	4171
2026-01-19 12:36:30.98	187.16	63.44	-24.8	-26.1	18.3	0.00e+00	0	44	0	1731198976	9	4218
2026-01-19 12:36:31.97	187.61	63.83	-24.0	-24.5	19.1	0.00e+00	0	44	0	1736441856	9	3828
2026-01-19 12:36:32.98	188.08	64.23	-23.7	-24.4	19.4	0.00e+00	0	44	0	1741684736	8	3902
2026-01-19 12:36:33.99	188.57	64.62	-24.1	-25.3	19.0	0.00e+00	0	44	0	1747976192	8	4120
2026-01-19 12:36:34.99	189.07	65.01	-24.0	-25.1	19.1	0.00e+00	0	44	0	1753219072	8	4082
2026-01-19 12:36:35.99	189.59	65.41	-23.8	-24.6	19.3	0.00e+00	0	44	0	1759510528	8	3947
2026-01-19 12:36:36.99	190.13	65.80	-24.5	-25.6	18.6	0.00e+00	0	44	0	1764753408	9	4090
2026-01-19 12:36:38.00	190.69	66.20	-23.7	-24.4	19.4	0.00e+00	0	44	0	1769996288	8	3915
2026-01-19 12:36:39.00	191.27	66.59	-22.8	-23.0	20.3	0.00e+00	0	44	0	1776287744	7	3676
2026-01-19 12:36:39.99	191.86	66.98	-22.8	-23.6	20.3	0.00e+00	0	44	0	1781530624	6	3932
2026-01-19 12:36:40.99	192.48	67.37	-23.1	-24.2	20.0	0.00e+00	0	44	0	1786773504	6	4088
2026-01-19 12:36:42.00	193.13	67.76	-23.0	-23.9	20.1	0.00e+00	0	44	0	1793064960	6	4018
2026-01-19 12:36:43.00	193.80	68.15	-23.1	-24.3	20.0	0.00e+00	0	44	0	1798307840	6	4093
2026-01-19 12:36:44.00	194.50	68.54	-23.2	-24.4	19.9	0.00e+00	0	44	0	1804599296	6	4120
2026-01-19 12:36:45.00	195.22	68.93	-23.0	-24.0	20.1	0.00e+00	0	44	0	1809842176	6	4017
2026-01-19 12:36:46.00	195.98	69.31	-23.1	-24.2	20.1	0.00e+00	0	44	0	1815085056	6	4069
2026-01-19 12:36:47.00	196.76	69.70	-23.0	-24.0	20.2	0.00e+00	0	44	0	1821376512	6	4016
2026-01-19 12:36:48.00	197.58	70.08	-22.9	-23.7	20.3	0.00e+00	0	44	0	1826619392	6	3949
2026-01-19 12:36:49.01	198.43	70.46	-22.8	-23.5	20.4	0.00e+00	0	44	0	1832910848	6	3897
2026-01-19 12:36:50.01	199.32	70.84	-22.9	-23.6	20.3	0.00e+00	0	44	0	1838153728	6	3938
2026-01-19 12:36:51.02	200.25	71.22	-22.7	-23.3	20.6	0.00e+00	0	44	0	1843396608	6	3847
2026-01-19 12:36:52.02	201.22	71.59	-22.6	-23.0	20.8	0.00e+00	0	44	0	1849688064	6	3771
2026-01-19 12:36:53.02	202.22	71.95	-22.5	-22.9	20.9	0.00e+00	0	44	0	1854930944	6	3765
2026-01-19 12:36:54.02	203.27	72.31	-22.3	-22.5	21.1	0.00e+00	0	44	0	1860173824	6	3675
2026-01-19 12:36:55.02	204.36	72.67	-22.2	-22.7	21.2	0.00e+00	0	44	0	1866465280	5	3831
2026-01-19 12:36:56.02	205.50	73.02	-22.2	-22.8	21.1	0.00e+00	0	44	0	1871708160	5	3845
2026-01-19 12:36:57.03	206.71	73.37	-22.3	-23.0	21.0	0.00e+00	0	44	0	1876951040	5	3895
2026-01-19 12:36:58.03	207.95	73.72	-22.4	-23.1	21.0	0.00e+00	0	44	0	1883242496	5	3902
2026-01-19 12:36:59.04	209.26	74.05	-22.1	-22.6	21.3	0.00e+00	0	44	0	1888485376	5	3798
2026-01-19 12:37:00.04	210.62	74.38	-21.8	-21.9	21.6	0.00e+00	0	44	0	1894776832	5	3647
2026-01-19 12:37:01.04	212.04	74.70	-21.6	-22.0	21.8	0.00e+00	0	44	0	1900019712	4	3765
2026-01-19 12:37:02.04	213.52	75.01	-22.1	-23.1	21.3	0.00e+00	0	44	0	1905262592	4	4024
2026-01-19 12:37:03.04	215.06	75.31	-22.0	-22.8	21.4	0.00e+00	0	44	0	1911554048	4	3954
2026-01-19 12:37:04.05	216.69	75.60	-21.6	-22.0	21.8	0.00e+00	0	44	0	1916796928	4	3775
2026-01-19 12:37:05.06	218.38	75.89	-21.8	-22.3	21.7	0.00e+00	0	44	0	1923088384	4	3831
2026-01-19 12:37:06.06	220.13	76.15	-21.7	-22.2	21.7	0.00e+00	0	44	0	1928331264	4	3800
2026-01-19 12:37:07.06	221.94	76.41	-21.8	-22.3	21.7	0.00e+00	0	44	0	1933574144	4	3840
2026-01-19 12:37:08.06	223.83	76.65	-21.8	-22.4	21.6	0.00e+00	0	44	0	1939865600	4	3868
2026-01-19 12:37:09.06	225.78	76.88	-21.7	-22.2	21.7	0.00e+00	0	44	0	1945108480	4	3820
2026-01-19 12:37:10.06	227.80	77.09	-21.7	-22.1	21.7	0.00e+00	0	44	0	1950351360	4	3797
2026-01-19 12:37:11.06	229.89	77.29	-21.6	-22.0	21.8	0.00e+00	0	44	0	1956642816	4	3765
2026-01-19 12:37:12.06	232.05	77.47	-21.4	-21.5	22.0	0.00e+00	0	44	0	1961885696	4	3646
2026-01-19 12:37:13.06	234.26	77.64	-21.7	-22.1	21.7	0.00e+00	0	44	0	1968177152	4	3787
2026-01-19 12:37:14.07	236.56	77.78	-21.7	-22.2	21.7	0.00e+00	0	44	0	1973420032	4	3817
2026-01-19 12:37:15.07	238.89	77.91	-21.8	-22.4	21.6	0.00e+00	0	44	0	1978662912	4	3859
2026-01-19 12:37:16.07	241.26	78.02	-21.9	-22.5	21.5	0.00e+00	0	44	0	1984954368	4	3889
2026-01-19 12:37:17.07	243.67	78.10	-22.5	-23.8	21.0	0.00e+00	0	44	0	1990197248	4	4209
2026-01-19 12:37:18.07	246.12	78.17	-22.1	-22.6	21.4	0.00e+00	0	44	0	1995440128	5	3788
2026-01-19 12:37:19.07	248.58	78.21	-21.7	-22.2	21.8	0.00e+00	0	44	0	2001731584	4	3803
2026-01-19 12:37:20.08	251.09	78.23	-21.8	-22.4	21.8	0.00e+00	0	44	0	2006974464	4	3846
2026-01-19 12:37:21.09	253.60	78.23	-21.8	-22.4	21.7	0.00e+00	0	44	0	2012217344	4	3860
2026-01-19 12:37:22.08	256.06	78.21	-21.7	-22.2	21.8	0.00e+00	0	44	0	2018508800	4	3815
2026-01-19 12:37:23.09	258.55	78.17	-21.6	-22.0	21.9	0.00e+00	0	44	0	2023751680	4	3774
2026-01-19 12:37:24.10	261.02	78.11	-21.4	-21.6	22.1	0.00e+00	0	44	0	2030043136	4	3676
2026-01-19 12:37:25.10	263.44	78.02	-21.8	-22.3	21.8	0.00e+00	0	44	0	2035286016	4	3835
2026-01-19 12:37:26.10	265.81	77.92	-21.8	-22.5	21.7	0.00e+00	0	44	0	2041577472	4	3878
2026-01-19 12:37:27.10	268.14	77.79	-21.6	-22.0	21.9	0.00e+00	0	44	0	2046820352	4	3768
2026-01-19 12:37:28.10	270.42	77.65	-21.9	-22.7	21.5	0.00e+00	0	44	0	2052063232	4	3918
2026-01-19 12:37:29.10	272.64	77.49	-21.9	-22.6	21.6	0.00e+00	0	44	0	2058354688	4	3907
2026-01-19 12:37:30.11	274.82	77.31	-21.9	-22.7	21.6	0.00e+00	0	44	0	2063597568	4	3914
2026-01-19 12:37:31.12	276.94	77.11	-22.4	-23.5	21.1	0.00e+00	0	44	0	2068840448	4	4126
2026-01-19 12:37:32.11	278.94	76.90	-22.0	-22.9	21.5	0.00e+00	0	44	0	2075131904	4	3971
2026-01-19 12:37:33.12	280.92	76.67	-21.8	-22.3	21.7	0.00e+00	0	44	0	2080374784	4	3835
2026-01-19 12:37:34.12	282.81	76.43	-21.7	-22.1	21.8	0.00e+00	0	44	0	2085617664	4	3790
2026-01-19 12:37:35.12	284.63	76.17	-21.6	-21.9	21.9	0.00e+00	0	44	0	2091909120	4	3741
2026-01-19 12:37:36.13	286.39	75.90	-21.7	-22.1	21.8	0.00e+00	0	44	0	2097152000	4	3789
2026-01-19 12:37:37.14	288.09	75.62	-21.9	-22.6	21.6	0.00e+00	0	44	0	2103443456	4	3912
2026-01-19 12:37:38.14	289.70	75.33	-21.9	-22.6	21.5	0.00e+00	0	44	0	2108686336	4	3913
2026-01-19 12:37:39.14	291.25	75.03	-21.7	-22.1	21.8	0.00e+00	0	44	0	2113929216	4	3791
2026-01-19 12:37:40.15	292.75	74.72	-21.9	-22.6	21.5	0.00e+00	0	44	0	2120220672	4	3908
2026-01-19 12:37:41.14	294.15	74.40	-22.3	-23.4	21.2	0.00e+00	0	44	0	2125463552	4	4095
2026-01-19 12:37:42.14	295.51	74.08	-22.2	-23.2	21.3	0.00e+00	0	44	0	2130706432	4	4031
2026-01-19 12:37:43.15	296.83	73.74	-22.3	-23.4	21.2	0.00e+00	0	44	0	2136997888	4	4089
2026-01-19 12:37:44.15	298.08	73.40	-22.7	-23.8	20.7	0.00e+00	0	44	0	2142240768	5	4082
2026-01-19 12:37:45.16	299.28	73.05	-22.5	-23.4	20.9	0.00e+00	0	44	0	2148532224	5	3979
2026-01-19 12:37:46.16	300.43	72.70	-22.6	-23.5	20.9	0.00e+00	0	44	0	2153775104	5	4006
2026-01-19 12:37:47.16	301.53	72.35	-23.1	-24.1	20.3	0.00e+00	0	44	0	2159017984	6	4043
2026-01-19 12:37:48.16	302.58	71.98	-22.6	-23.1	20.8	0.00e+00	0	44	0	2165309440	6	3807
2026-01-19 12:37:49.16	303.58	71.62	-22.5	-22.7	21.0	0.00e+00	0	44	0	2170552320	6	3714
2026-01-19 12:37:50.16	304.55	71.25	-22.8	-23.5	20.6	0.00e+00	0	44	0	2176843776	6	3893
2026-01-19 12:37:51.16	305.47	70.88	-22.8	-23.4	20.7	0.00e+00	0	44	0	2182086656	6	3865
2026-01-19 12:37:52.16	306.36	70.50	-22.6	-23.0	20.9	0.00e+00	0	44	0	2187329536	6	3779
2026-01-19 12:37:53.16	307.21	70.12	-22.7	-23.3	20.7	0.00e+00	0	44	0	2193620992	6	3847
2026-01-19 12:37:54.17	308.04	69.74	-22.7	-23.2	20.7	0.00e+00	0	44	0	2198863872	6	3822
2026-01-19 12:37:55.18	308.83	69.35	-22.7	-23.2	20.8	0.00e+00	0	44	0	2204106752	6	3812
2026-01-19 12:37:56.18	309.59	68.97	-23.0	-23.8	20.5	0.00e+00	0	44	0	2210398208	6	3976
2026-01-19 12:37:57.19	310.32	68.58	-23.3	-24.5	20.1	0.00e+00	0	44	0	2215641088	6	4132
2026-01-19 12:37:58.19	311.02	68.19	-23.3	-24.4	20.1	0.00e+00	0	44	0	2220883968	6	4126
2026-01-19 12:37:59.19	311.69	67.80	-23.1	-24.1	20.3	0.00e+00	0	44	0	2227175424	6	4044
2026-01-19 12:38:00.19	312.33	67.41	-23.1	-24.0	20.3	0.00e+00	0	44	0	2232418304	6	4018
2026-01-19 12:38:01.19	312.96	67.02	-22.8	-23.5	20.6	0.00e+00	0	44	0	2238709760	6	3888
2026-01-19 12:38:02.20	313.56	66.62	-22.7	-23.3	20.7	0.00e+00	0	44	0	2243952640	6	3845
2026-01-19 12:38:03.20	314.14	66.23	-22.9	-23.6	20.6	0.00e+00	0	44	0	2250244096	6	3915
2026-01-19 12:38:04.20	314.70	65.84	-23.2	-24.4	20.2	0.00e+00	0	44	0	2255486976	6	4108
2026-01-19 12:38:05.20	315.24	65.45	-23.2	-24.4	20.1	0.00e+00	0	44	0	2260729856	6	4111
2026-01-19 12:38:06.21	315.76	65.05	-23.1	-24.0	20.3	0.00e+00	0	44	0	2267021312	6	4013
2026-01-19 12:38:07.21	316.26	64.66	-23.2	-24.3	20.2	0.00e+00	0	44	0	2272264192	6	4095
2026-01-19 12:38:08.22	316.75	64.27	-23.6	-24.6	19.8	0.00e+00	0	44	0	2277507072	7	4051
2026-01-19 12:38:09.22	317.22	63.88	-24.1	-25.3	19.2	0.00e+00	0	44	0	2283798528	8	4107
2026-01-19 12:38:10.22	317.68	63.49	-23.6	-24.2	19.8	0.00e+00	0	44	0	2289041408	8	3840
2026-01-19 12:38:11.23	318.12	63.10	-23.3	-23.5	20.1	0.00e+00	0	44	0	2294284288	8	3683
2026-01-19 12:38:12.23	318.54	62.71	-23.3	-23.5	20.1	0.00e+00	0	44	0	2300575744	8	3693
2026-01-19 12:38:13.24	318.96	62.32	-23.4	-23.8	19.9	0.00e+00	0	44	0	2305818624	8	3759
2026-01-19 12:38:14.25	319.36	61.93	-23.4	-23.6	20.0	0.00e+00	0	44	0	2312110080	8	3716
2026-01-19 12:38:15.25	319.75	61.54	-23.5	-24.0	19.8	0.00e+00	0	44	0	2317352960	8	3790
2026-01-19 12:38:16.25	320.12	61.16	-23.8	-24.5	19.6	0.00e+00	0	44	0	2323644416	8	3911
2026-01-19 12:38:17.25	320.48	60.78	-23.6	-24.1	19.8	0.00e+00	0	44	0	2328887296	8	3806
2026-01-19 12:38:18.25	320.84	60.39	-23.4	-23.7	20.0	0.00e+00	0	44	0	2334130176	8	3723
2026-01-19 12:38:19.26	321.18	60.01	-23.4	-23.7	20.0	0.00e+00	0	44	0	2340421632	8	3718
2026-01-19 12:38:20.25	321.51	59.64	-23.6	-24.2	19.8	0.00e+00	0	44	0	2345664512	8	3830
2026-01-19 12:38:21.26	321.84	59.25	-23.8	-24.6	19.5	0.00e+00	0	44	0	2350907392	8	3926
2026-01-19 12:38:22.26	322.15	58.88	-24.0	-25.1	19.3	0.00e+00	0	44	0	2357198848	8	4051
2026-01-19 12:38:23.27	322.46	58.50	-24.1	-25.1	19.3	0.00e+00	0	44	0	2362441728	8	4054
2026-01-19 12:38:24.26	322.75	58.13	-24.3	-25.5	19.1	0.00e+00	0	44	0	2367684608	8	4158
2026-01-19 12:38:25.27	323.04	57.76	-24.3	-25.6	19.0	0.00e+00	0	44	0	2373976064	8	4177
2026-01-19 12:38:26.28	323.33	57.39	-24.3	-25.6	19.0	0.00e+00	0	44	0	2379218944	8	4189
2026-01-19 12:38:27.29	323.60	57.02	-24.3	-25.7	18.9	0.00e+00	0	44	0	2385510400	8	4190
2026-01-19 12:38:28.28	323.87	56.65	-24.6	-25.6	18.7	0.00e+00	0	44	0	2390753280	9	4078
2026-01-19 12:38:29.29	324.13	56.29	-24.7	-25.9	18.6	0.00e+00	0	44	0	2395996160	9	4157
2026-01-19 12:38:30.30	324.39	55.92	-24.6	-25.7	18.6	0.00e+00	0	44	0	2402287616	9	4108
2026-01-19 12:38:31.29	324.63	55.57	-24.3	-25.1	18.9	0.00e+00	0	44	0	2407530496	9	3952
2026-01-19 12:38:32.29	324.87	55.21	-24.3	-25.1	18.9	0.00e+00	0	44	0	2412773376	9	3948
2026-01-19 12:38:33.29	325.10	54.85	-24.6	-25.6	18.7	0.00e+00	0	44	0	2419064832	9	4070
2026-01-19 12:38:34.30	325.34	54.49	-24.6	-25.7	18.7	0.00e+00	0	44	0	2424307712	9	4081
2026-01-19 12:38:35.30	325.56	54.14	-24.7	-25.9	18.5	0.00e+00	0	44	0	2430599168	9	4144
2026-01-19 12:38:36.30	325.78	53.79	-24.6	-25.6	18.6	0.00e+00	0	44	0	2435842048	9	4079
2026-01-19 12:38:37.31	325.99	53.44	-24.7	-25.9	18.5	0.00e+00	0	44	0	2441084928	9	4142
2026-01-19 12:38:38.31	326.20	53.09	-24.7	-26.0	18.5	0.00e+00	0	44	0	2447376384	9	4173
2026-01-19 12:38:39.32	326.40	52.75	-24.6	-25.6	18.6	0.00e+00	0	44	0	2452619264	9	4077
2026-01-19 12:38:40.32	326.60	52.41	-24.5	-25.4	18.8	0.00e+00	0	44	0	2458910720	9	4019
2026-01-19 12:38:41.33	326.80	52.06	-24.5	-25.6	18.7	0.00e+00	0	44	0	2464153600	9	4063
2026-01-19 12:38:42.33	326.99	51.73	-24.7	-25.9	18.5	0.00e+00	0	44	0	2469396480	9	4135
2026-01-19 12:38:43.33	327.17	51.39	-24.4	-25.4	18.7	0.00e+00	0	44	0	2475687936	9	4024
2026-01-19 12:38:44.34	327.36	51.05	-24.1	-24.7	19.1	0.00e+00	0	44	0	2480930816	9	3857
2026-01-19 12:38:45.34	327.54	50.72	-23.9	-24.3	19.3	0.00e+00	0	44	0	2486173696	9	3764
2026-01-19 12:38:46.35	327.71	50.39	-23.9	-24.3	19.3	0.00e+00	0	44	0	2492465152	9	3763
2026-01-19 12:38:47.35	327.88	50.06	-24.0	-24.5	19.2	0.00e+00	0	44	0	2497708032	9	3801
2026-01-19 12:38:48.35	328.05	49.74	-24.0	-24.4	19.3	0.00e+00	0	44	0	2503999488	9	3784
2026-01-19 12:38:49.36	328.21	49.41	-23.9	-24.3	19.3	0.00e+00	0	44	0	2509242368	9	3772
2026-01-19 12:38:50.35	328.37	49.09	-23.8	-24.0	19.4	0.00e+00	0	44	0	2515533824	9	3710
2026-01-19 12:38:51.35	328.53	48.77	-23.5	-24.0	19.7	0.00e+00	0	44	0	2520776704	8	3805
2026-01-19 12:38:52.36	328.68	48.45	-23.4	-23.8	19.8	0.00e+00	0	44	0	2526019584	8	3756
2026-01-19 12:38:53.36	328.83	48.14	-23.4	-23.8	19.8	0.00e+00	0	44	0	2532311040	8	3746
2026-01-19 12:38:54.37	328.98	47.82	-23.4	-23.6	19.9	0.00e+00	0	44	0	2537553920	8	3709
2026-01-19 12:38:55.37	329.13	47.51	-23.5	-23.9	19.8	0.00e+00	0	44	0	2542796800	8	3761
2026-01-19 12:38:56.37	329.27	47.20	-23.6	-24.0	19.6	0.00e+00	0	44	0	2549088256	8	3803
2026-01-19 12:38:57.38	329.41	46.90	-23.6	-24.1	19.6	0.00e+00	0	44	0	2554331136	8	3828
2026-01-19 12:38:58.38	329.55	46.59	-23.5	-24.0	19.7	0.00e+00	0	44	0	2559574016	8	3796
2026-01-19 12:38:59.39	329.68	46.29	-23.5	-24.0	19.7	0.00e+00	0	44	0	2565865472	8	3793
2026-01-19 12:39:00.39	329.81	45.99	-23.6	-24.2	19.6	0.00e+00	0	44	0	2571108352	8	3848
2026-01-19 12:39:01.40	329.94	45.69	-23.8	-24.5	19.4	0.00e+00	0	44	0	2577399808	8	3908
2026-01-19 12:39:02.41	330.07	45.39	-23.7	-24.3	19.5	0.00e+00	0	44	0	2582642688	8	3875
2026-01-19 12:39:03.40	330.19	45.10	-23.7	-24.3	19.5	0.00e+00	0	44	0	2588934144	8	3880
2026-01-19 12:39:04.41	330.32	44.80	-23.6	-24.1	19.6	0.00e+00	0	44	0	2594177024	8	3831
2026-01-19 12:39:05.42	330.44	44.51	-23.6	-24.1	19.6	0.00e+00	0	44	0	2599419904	8	3817
2026-01-19 12:39:06.42	330.56	44.22	-23.7	-24.2	19.5	0.00e+00	0	44	0	2605711360	8	3851
2026-01-19 12:39:07.43	330.67	43.93	-23.8	-24.5	19.4	0.00e+00	0	44	0	2610954240	8	3909
2026-01-19 12:39:08.43	330.79	43.65	-23.8	-24.7	19.3	0.00e+00	0	44	0	2616197120	8	3959
2026-01-19 12:39:09.43	330.90	43.37	-24.2	-25.3	19.0	0.00e+00	0	44	0	2622488576	8	4117
2026-01-19 12:39:10.43	331.01	43.09	-24.4	-25.7	18.7	0.00e+00	0	44	0	2627731456	8	4224
2026-01-19 12:39:11.44	331.12	42.80	-24.0	-25.0	19.1	0.00e+00	0	44	0	2632974336	8	4043
2026-01-19 12:39:12.45	331.23	42.53	-23.9	-24.7	19.3	0.00e+00	0	44	0	2639265792	8	3965
2026-01-19 12:39:13.44	331.33	42.25	-23.7	-24.5	19.4	0.00e+00	0	44	0	2644508672	8	3906
2026-01-19 12:39:14.45	331.44	41.98	-23.8	-24.5	19.3	0.00e+00	0	44	0	2650800128	8	3914
2026-01-19 12:39:15.45	331.54	41.71	-23.7	-24.4	19.4	0.00e+00	0	44	0	2656043008	8	3893
2026-01-19 12:39:16.45	331.64	41.44	-23.6	-24.2	19.5	0.00e+00	0	44	0	2662334464	8	3842
2026-01-19 12:39:17.46	331.74	41.17	-23.5	-23.9	19.6	0.00e+00	0	44	0	2667577344	8	3773
2026-01-19 12:39:18.46	331.83	40.91	-23.1	-23.6	20.0	0.00e+00	0	44	0	2672820224	7	3809
2026-01-19 12:39:19.46	331.93	40.65	-22.8	-23.0	20.3	0.00e+00	0	44	0	2679111680	7	3676
2026-01-19 12:39:20.47	332.02	40.38	-22.7	-23.3	20.4	0.00e+00	0	44	0	2684354560	6	3846
2026-01-19 12:39:21.47	332.11	40.12	-22.8	-23.4	20.3	0.00e+00	0	44	0	2689597440	6	3878
2026-01-19 12:39:22.46	332.20	39.87	-22.8	-23.4	20.3	0.00e+00	0	44	0	2695888896	6	3876
2026-01-19 12:39:23.47	332.29	39.61	-22.8	-23.4	20.4	0.00e+00	0	44	0	2701131776	6	3864
2026-01-19 12:39:24.47	332.38	39.36	-22.9	-23.6	20.2	0.00e+00	0	44	0	2706374656	6	3928
2026-01-19 12:39:25.48	332.47	39.10	-23.0	-23.9	20.1	0.00e+00	0	44	0	2712666112	6	3995
2026-01-19 12:39:26.47	332.56	38.86	-23.1	-24.1	20.0	0.00e+00	0	44	0	2717908992	6	4036
2026-01-19 12:39:27.47	332.64	38.61	-23.2	-24.2	19.9	0.00e+00	0	44	0	2724200448	6	4079
2026-01-19 12:39:28.47	332.72	38.36	-23.1	-24.2	19.9	0.00e+00	0	44	0	2729443328	6	4073
2026-01-19 12:39:29.48	332.81	38.11	-23.2	-24.4	19.8	0.00e+00	0	44	0	2734686208	6	4104
2026-01-19 12:39:30.48	332.89	37.87	-23.3	-24.4	19.8	0.00e+00	0	44	0	2740977664	6	4118
2026-01-19 12:39:31.48	332.97	37.63	-23.2	-24.4	19.8	0.00e+00	0	44	0	2746220544	6	4111
2026-01-19 12:39:32.48	333.05	37.39	-23.3	-24.5	19.7	0.00e+00	0	44	0	2751463424	6	4147
2026-01-19 12:39:33.49	333.12	37.15	-23.4	-24.7	19.7	0.00e+00	0	44	0	2757754880	6	4183
2026-01-19 12:39:34.49	333.20	36.91	-23.3	-24.6	19.7	0.00e+00	0	44	0	2762997760	6	4160
2026-01-19 12:39:35.50	333.28	36.68	-23.4	-24.8	19.6	0.00e+00	0	44	0	2769289216	6	4212
2026-01-19 12:39:36.50	333.35	36.44	-23.6	-24.6	19.5	0.00e+00	0	44	0	2774532096	7	4054
2026-01-19 12:39:37.50	333.42	36.21	-23.9	-25.3	19.1	0.00e+00	0	44	0	2779774976	7	4223
2026-01-19 12:39:38.50	333.50	35.98	-24.1	-25.2	18.9	0.00e+00	0	44	0	2786066432	8	4091
2026-01-19 12:39:39.49	333.57	35.76	-23.8	-24.5	19.3	0.00e+00	0	44	0	2791309312	8	3927
2026-01-19 12:39:40.50	333.64	35.53	-23.5	-24.0	19.5	0.00e+00	0	44	0	2796552192	8	3805
2026-01-19 12:39:41.49	333.71	35.30	-23.4	-23.7	19.7	0.00e+00	0	44	0	2802843648	8	3741
2026-01-19 12:39:42.50	333.78	35.08	-23.3	-23.6	19.7	0.00e+00	0	44	0	2808086528	8	3708
2026-01-19 12:39:43.50	333.84	34.86	-23.3	-23.6	19.7	0.00e+00	0	44	0	2813329408	8	3704
2026-01-19 12:39:44.50	333.91	34.64	-23.3	-24.0	19.7	0.00e+00	0	44	0	2819620864	7	3894
2026-01-19 12:39:45.50	333.98	34.42	-23.3	-24.0	19.7	0.00e+00	0	44	0	2824863744	7	3904
2026-01-19 12:39:46.50	334.04	34.20	-23.3	-24.0	19.7	0.00e+00	0	44	0	2831155200	7	3908
2026-01-19 12:39:47.50	334.11	33.98	-23.4	-24.3	19.6	0.00e+00	0	44	0	2836398080	7	3980
2026-01-19 12:39:48.49	334.17	33.77	-23.5	-24.4	19.5	0.00e+00	0	44	0	2841640960	7	4013
2026-01-19 12:39:49.50	334.23	33.56	-23.4	-24.3	19.5	0.00e+00	0	44	0	2847932416	7	3986
2026-01-19 12:39:50.50	334.30	33.34	-23.5	-24.5	19.5	0.00e+00	0	44	0	2853175296	7	4024
2026-01-19 12:39:51.51	334.36	33.13	-23.5	-24.6	19.4	0.00e+00	0	44	0	2859466752	7	4045
2026-01-19 12:39:52.51	334.42	32.92	-23.6	-24.7	19.4	0.00e+00	0	44	0	2864709632	7	4072
2026-01-19 12:39:53.52	334.48	32.71	-23.6	-24.6	19.4	0.00e+00	0	44	0	2869952512	7	4064
2026-01-19 12:39:54.52	334.54	32.51	-23.6	-24.6	19.4	0.00e+00	0	44	0	2876243968	7	4049
2026-01-19 12:39:55.52	334.60	32.30	-23.6	-24.6	19.4	0.00e+00	0	44	0	2881486848	7	4050
2026-01-19 12:39:56.52	334.65	32.10	-23.6	-24.7	19.4	0.00e+00	0	44	0	2886729728	7	4071
2026-01-19 12:39:57.52	334.71	31.90	-23.7	-24.8	19.3	0.00e+00	0	44	0	2893021184	7	4111
2026-01-19 12:39:58.53	334.77	31.70	-23.7	-25.0	19.2	0.00e+00	0	44	0	2898264064	7	4141
2026-01-19 12:39:59.53	334.82	31.50	-23.8	-25.0	19.2	0.00e+00	0	44	0	2903506944	7	4154
2026-01-19 12:40:00.53	334.88	31.30	-23.8	-25.1	19.1	0.00e+00	0	44	0	2909798400	7	4171
2026-01-19 12:40:01.54	334.94	31.10	-23.9	-25.3	19.0	0.00e+00	0	44	0	2915041280	7	4220
2026-01-19 12:40:02.54	334.99	30.91	-23.9	-25.2	19.0	0.00e+00	0	44	0	2921332736	7	4212
2026-01-19 12:40:03.53	335.04	30.71	-23.8	-25.0	19.1	0.00e+00	0	44	0	2926575616	7	4163
2026-01-19 12:40:04.54	335.10	30.52	-23.8	-25.0	19.1	0.00e+00	0	44	0	2931818496	7	4164
2026-01-19 12:40:05.55	335.15	30.33	-23.7	-25.0	19.2	0.00e+00	0	44	0	2938109952	7	4143
2026-01-19 12:40:06.55	335.20	30.14	-23.8	-25.0	19.1	0.00e+00	0	44	0	2943352832	7	4163
2026-01-19 12:40:07.55	335.25	29.95	-23.8	-25.2	19.1	0.00e+00	0	44	0	2949644288	7	4189
2026-01-19 12:40:08.55	335.30	29.76	-23.5	-24.5	19.4	0.00e+00	0	44	0	2954887168	7	4024
2026-01-19 12:40:09.56	335.35	29.57	-23.3	-24.0	19.6	0.00e+00	0	44	0	2960130048	7	3919
2026-01-19 12:40:10.56	335.40	29.39	-23.2	-23.9	19.7	0.00e+00	0	44	0	2966421504	7	3890
2026-01-19 12:40:11.56	335.45	29.20	-23.3	-24.1	19.6	0.00e+00	0	44	0	2971664384	7	3934
2026-01-19 12:40:12.56	335.50	29.02	-23.3	-24.1	19.6	0.00e+00	0	44	0	2976907264	7	3937
2026-01-19 12:40:13.55	335.55	28.84	-23.3	-24.1	19.6	0.00e+00	0	44	0	2983198720	7	3925
2026-01-19 12:40:14.55	335.59	28.66	-23.4	-24.2	19.5	0.00e+00	0	44	0	2988441600	7	3966
2026-01-19 12:40:15.55	335.64	28.48	-23.4	-24.2	19.5	0.00e+00	0	44	0	2994733056	7	3952
2026-01-19 12:40:16.56	335.69	28.30	-23.4	-24.3	19.5	0.00e+00	0	44	0	2999975936	7	3986
2026-01-19 12:40:17.56	335.73	28.12	-23.4	-24.3	19.4	0.00e+00	0	44	0	3005218816	7	3975
2026-01-19 12:40:18.56	335.78	27.95	-23.4	-24.2	19.5	0.00e+00	0	44	0	3011510272	7	3966
2026-01-19 12:40:19.56	335.83	27.77	-23.5	-24.3	19.4	0.00e+00	0	44	0	3016753152	7	3991
2026-01-19 12:40:20.56	335.87	27.60	-23.5	-24.4	19.4	0.00e+00	0	44	0	3021996032	7	4013
2026-01-19 12:40:21.56	335.91	27.43	-23.5	-24.5	19.3	0.00e+00	0	44	0	3028287488	7	4039
2026-01-19 12:40:22.56	335.96	27.26	-23.6	-24.6	19.3	0.00e+00	0	44	0	3033530368	7	4062
2026-01-19 12:40:23.57	336.00	27.08	-23.6	-24.7	19.2	0.00e+00	0	44	0	3038773248	7	4072
2026-01-19 12:40:24.57	336.05	26.91	-23.6	-24.7	19.2	0.00e+00	0	44	0	3045064704	7	4079
2026-01-19 12:40:25.58	336.09	26.74	-23.7	-24.8	19.2	0.00e+00	0	44	0	3050307584	7	4111
2026-01-19 12:40:26.58	336.13	26.58	-23.7	-25.0	19.1	0.00e+00	0	44	0	3056599040	7	4147
2026-01-19 12:40:27.58	336.17	26.41	-23.8	-25.0	19.0	0.00e+00	0	44	0	3061841920	7	4165
2026-01-19 12:40:28.59	336.21	26.24	-23.9	-25.2	18.9	0.00e+00	0	44	0	3067084800	7	4201
2026-01-19 12:40:29.59	336.26	26.08	-23.9	-25.3	18.9	0.00e+00	0	44	0	3073376256	7	4217
2026-01-19 12:40:30.59	336.30	25.92	-24.0	-25.4	18.8	0.00e+00	0	44	0	3078619136	7	4259
2026-01-19 12:40:31.60	336.34	25.75	-24.3	-25.6	18.5	0.00e+00	0	44	0	3084910592	8	4189
2026-01-19 12:40:32.59	336.38	25.59	-24.3	-25.6	18.5	0.00e+00	0	44	0	3090153472	8	4188
2026-01-19 12:40:33.60	336.42	25.43	-24.3	-25.6	18.5	0.00e+00	0	44	0	3095396352	8	4195
2026-01-19 12:40:34.60	336.45	25.27	-24.3	-25.7	18.5	0.00e+00	0	44	0	3100639232	8	4201
2026-01-19 12:40:35.61	336.49	25.11	-24.2	-25.4	18.6	0.00e+00	0	44	0	3106930688	8	4132
2026-01-19 12:40:36.61	336.53	24.95	-24.2	-25.3	18.6	0.00e+00	0	44	0	3112173568	8	4114
2026-01-19 12:40:37.61	336.57	24.80	-24.2	-25.3	18.7	0.00e+00	0	44	0	3118465024	8	4116
2026-01-19 12:40:38.61	336.61	24.64	-24.2	-25.5	18.6	0.00e+00	0	44	0	3123707904	8	4157
2026-01-19 12:40:39.62	336.65	24.48	-24.4	-25.9	18.4	0.00e+00	0	44	0	3129999360	8	4264
2026-01-19 12:40:40.63	336.68	24.33	-24.4	-25.4	18.4	0.00e+00	0	44	0	3135242240	9	4016
2026-01-19 12:40:41.63	336.72	24.17	-24.2	-24.9	18.6	0.00e+00	0	44	0	3140485120	9	3903
2026-01-19 12:40:42.63	336.76	24.02	-24.1	-24.8	18.7	0.00e+00	0	44	0	3146776576	9	3889
2026-01-19 12:40:43.63	336.79	23.87	-24.2	-24.9	18.5	0.00e+00	0	44	0	3152019456	9	3918
2026-01-19 12:40:44.64	336.83	23.72	-24.2	-25.0	18.5	0.00e+00	0	44	0	3157262336	9	3938
2026-01-19 12:40:45.63	336.86	23.57	-24.2	-25.0	18.5	0.00e+00	0	44	0	3163553792	9	3934
2026-01-19 12:40:46.63	336.90	23.42	-24.3	-25.2	18.4	0.00e+00	0	44	0	3168796672	9	3986
2026-01-19 12:40:47.63	336.94	23.28	-24.4	-25.3	18.4	0.00e+00	0	44	0	3174039552	9	4001
2026-01-19 12:40:48.64	336.97	23.13	-24.4	-25.3	18.4	0.00e+00	0	44	0	3180331008	9	4008
2026-01-19 12:40:49.64	337.00	22.98	-24.4	-25.3	18.3	0.00e+00	0	44	0	3185573888	9	4018
2026-01-19 12:40:50.64	337.04	22.84	-24.3	-25.1	18.5	0.00e+00	0	44	0	3191865344	9	3956
2026-01-19 12:40:51.65	337.07	22.69	-24.3	-25.2	18.4	0.00e+00	0	44	0	3197108224	9	3982
2026-01-19 12:40:52.65	337.11	22.55	-24.3	-25.1	18.5	0.00e+00	0	44	0	3203399680	9	3957
2026-01-19 12:40:53.65	337.14	22.40	-24.3	-25.1	18.5	0.00e+00	0	44	0	3208642560	9	3971
2026-01-19 12:40:54.65	337.17	22.26	-24.3	-25.1	18.4	0.00e+00	0	44	0	3213885440	9	3971
2026-01-19 12:40:55.64	337.21	22.12	-24.3	-25.2	18.4	0.00e+00	0	44	0	3219128320	9	3984
2026-01-19 12:40:56.65	337.24	21.98	-24.3	-25.2	18.4	0.00e+00	0	44	0	3225419776	9	3983
2026-01-19 12:40:57.65	337.27	21.84	-24.3	-25.1	18.4	0.00e+00	0	44	0	3230662656	9	3960
2026-01-19 12:40:58.66	337.30	21.70	-24.4	-25.3	18.3	0.00e+00	0	44	0	3236954112	9	4011
2026-01-19 12:40:59.67	337.33	21.56	-24.4	-25.4	18.3	0.00e+00	0	44	0	3242196992	9	4021
2026-01-19 12:41:00.67	337.37	21.42	-24.4	-25.3	18.3	0.00e+00	0	44	0	3247439872	9	4008
2026-01-19 12:41:01.67	337.40	21.29	-24.4	-25.4	18.3	0.00e+00	0	44	0	3253731328	9	4032
2026-01-19 12:41:02.68	337.43	21.15	-24.5	-25.5	18.2	0.00e+00	0	44	0	3258974208	9	4066
2026-01-19 12:41:03.68	337.46	21.01	-24.5	-25.5	18.2	0.00e+00	0	44	0	3265265664	9	4052
2026-01-19 12:41:04.68	337.49	20.88	-24.7	-25.9	18.0	0.00e+00	0	44	0	3270508544	9	4159
2026-01-19 12:41:05.68	337.52	20.74	-24.7	-26.1	17.9	0.00e+00	0	44	0	3275751424	9	4194
2026-01-19 12:41:06.69	337.55	20.61	-24.8	-26.1	17.9	0.00e+00	0	44	0	3282042880	9	4211
2026-01-19 12:41:07.69	337.58	20.48	-24.8	-26.2	17.8	0.00e+00	0	44	0	3287285760	9	4227
2026-01-19 12:41:08.69	337.61	20.35	-24.8	-26.3	17.8	0.00e+00	0	44	0	3292528640	9	4247
2026-01-19 12:41:09.69	337.64	20.21	-24.8	-26.3	17.7	0.00e+00	0	44	0	3298820096	9	4262
2026-01-19 12:41:10.70	337.67	20.08	-24.9	-26.4	17.7	0.00e+00	0	44	0	3304062976	9	4274
2026-01-19 12:41:11.70	337.70	19.95	-24.8	-26.3	17.7	0.00e+00	0	44	0	3310354432	9	4266
2026-01-19 12:41:12.70	337.73	19.82	-24.8	-26.3	17.8	0.00e+00	0	44	0	3315597312	9	4254
2026-01-19 12:41:13.70	337.76	19.70	-24.8	-26.3	17.8	0.00e+00	0	44	0	3320840192	9	4243
2026-01-19 12:41:14.71	337.78	19.57	-25.0	-26.6	17.6	0.00e+00	0	44	0	3327131648	9	4339
2026-01-19 12:41:15.72	337.81	19.44	-25.2	-26.6	17.4	0.00e+00	0	44	0	3332374528	10	4215
2026-01-19 12:41:16.72	337.84	19.31	-25.3	-26.7	17.3	0.00e+00	0	44	0	3338665984	10	4257
2026-01-19 12:41:17.73	337.87	19.18	-25.5	-27.2	17.1	0.00e+00	0	44	0	3343908864	10	4370
2026-01-19 12:41:18.73	337.90	19.06	-25.7	-27.1	16.8	0.00e+00	0	44	0	3349151744	11	4233
2026-01-19 12:41:19.73	337.92	18.94	-25.7	-27.2	16.7	0.00e+00	0	44	0	3355443200	11	4275
2026-01-19 12:41:20.74	337.95	18.81	-25.9	-27.5	16.6	0.00e+00	0	44	0	3360686080	11	4347
2026-01-19 12:41:21.75	337.98	18.69	-25.8	-27.4	16.6	0.00e+00	0	44	0	3365928960	11	4323
2026-01-19 12:41:22.75	338.01	18.56	-26.0	-27.8	16.4	0.00e+00	0	44	0	3372220416	11	4424
2026-01-19 12:41:23.76	338.03	18.44	-26.1	-27.5	16.2	0.00e+00	0	44	0	3377463296	12	4223
2026-01-19 12:41:24.76	338.06	18.32	-25.9	-27.1	16.4	0.00e+00	0	44	0	3383754752	12	4121
2026-01-19 12:41:25.76	338.09	18.20	-26.1	-27.4	16.2	0.00e+00	0	44	0	3388997632	12	4217
2026-01-19 12:41:26.76	338.11	18.08	-26.1	-27.5	16.2	0.00e+00	0	44	0	3394240512	12	4240
2026-01-19 12:41:27.76	338.14	17.96	-26.0	-27.2	16.3	0.00e+00	0	44	0	3400531968	12	4165
2026-01-19 12:41:28.77	338.16	17.84	-26.3	-28.0	15.9	0.00e+00	0	44	0	3405774848	12	4372
2026-01-19 12:41:29.77	338.19	17.72	-26.4	-28.2	15.8	0.00e+00	0	44	0	3412066304	12	4412
2026-01-19 12:41:30.78	338.22	17.60	-26.6	-28.1	15.6	0.00e+00	0	44	0	3417309184	13	4273
2026-01-19 12:41:31.79	338.24	17.48	-26.7	-28.4	15.4	0.00e+00	0	44	0	3422552064	13	4372
2026-01-19 12:41:32.79	338.27	17.36	-27.0	-28.9	15.1	0.00e+00	0	44	0	3428843520	13	4520
2026-01-19 12:41:33.79	338.29	17.25	-27.0	-28.6	15.0	1.10e-06	0	44	0	3434086400	14	4302
2026-01-19 12:41:34.79	338.32	17.13	-27.2	-28.9	14.8	0.00e+00	0	44	0	3439329280	14	4394
2026-01-19 12:41:35.79	338.34	17.02	-27.0	-28.6	15.0	0.00e+00	0	44	0	3445620736	14	4294
2026-01-19 12:41:36.80	338.37	16.90	-27.2	-29.0	14.8	0.00e+00	0	44	0	3450863616	14	4408
2026-01-19 12:41:37.80	338.39	16.79	-27.2	-29.0	14.7	0.00e+00	0	44	0	3457155072	14	4434
2026-01-19 12:41:38.80	338.41	16.67	-27.4	-29.4	14.6	0.00e+00	0	44	0	3462397952	14	4523
2026-01-19 12:41:39.81	338.44	16.56	-27.3	-29.3	14.6	0.00e+00	0	44	0	3467640832	14	4510
2026-01-19 12:41:40.81	338.46	16.45	-26.9	-28.3	15.1	0.00e+00	0	44	0	3473932288	14	4231
2026-01-19 12:41:41.81	338.49	16.34	-26.5	-27.3	15.7	0.00e+00	0	44	0	3479175168	14	3977
2026-01-19 12:41:42.81	338.51	16.22	-26.1	-27.0	16.1	0.00e+00	0	44	0	3485466624	13	4007
2026-01-19 12:41:43.81	338.53	16.11	-25.8	-26.3	16.5	0.00e+00	0	44	0	3490709504	13	3835
2026-01-19 12:41:44.82	338.56	16.00	-25.6	-26.4	16.7	0.00e+00	0	44	0	3495952384	12	3944
2026-01-19 12:41:45.82	338.58	15.89	-25.7	-26.6	16.6	0.00e+00	0	44	0	3502243840	12	3995
2026-01-19 12:41:46.83	338.60	15.78	-25.8	-26.8	16.5	0.00e+00	0	44	0	3507486720	12	4049
2026-01-19 12:41:47.83	338.63	15.67	-25.8	-27.0	16.4	0.00e+00	0	44	0	3512729600	12	4097
2026-01-19 12:41:48.83	338.65	15.56	-25.8	-27.0	16.4	0.00e+00	0	44	0	3519021056	12	4102
2026-01-19 12:41:49.83	338.67	15.46	-25.9	-27.2	16.2	0.00e+00	0	44	0	3524263936	12	4165
2026-01-19 12:41:50.83	338.69	15.35	-25.9	-27.2	16.2	0.00e+00	0	44	0	3529506816	12	4149
2026-01-19 12:41:51.83	338.72	15.24	-25.9	-27.2	16.2	0.00e+00	0	44	0	3535798272	12	4148
2026-01-19 12:41:52.84	338.74	15.13	-26.0	-27.2	16.2	0.00e+00	0	44	0	3541041152	12	4171
2026-01-19 12:41:53.84	338.76	15.03	-26.0	-27.2	16.2	0.00e+00	0	44	0	3547332608	12	4169
2026-01-19 12:41:54.85	338.78	14.92	-26.3	-27.9	15.8	0.00e+00	0	44	0	3552575488	12	4359
2026-01-19 12:41:55.85	338.80	14.82	-26.2	-27.8	15.8	0.00e+00	0	44	0	3558866944	12	4325
2026-01-19 12:41:56.85	338.83	14.71	-26.3	-28.1	15.7	0.00e+00	0	44	0	3564109824	12	4398
2026-01-19 12:41:57.86	338.85	14.61	-26.3	-28.0	15.7	0.00e+00	0	44	0	3569352704	12	4375
2026-01-19 12:41:58.85	338.87	14.50	-26.4	-28.1	15.6	0.00e+00	0	44	0	3575644160	12	4421
2026-01-19 12:41:59.85	338.89	14.40	-26.4	-28.2	15.6	0.00e+00	0	44	0	3580887040	12	4439
2026-01-19 12:42:00.86	338.91	14.29	-26.5	-28.0	15.4	0.00e+00	0	44	0	3586129920	13	4278
2026-01-19 12:42:01.86	338.93	14.19	-26.6	-28.1	15.4	0.00e+00	0	44	0	3592421376	13	4306
2026-01-19 12:42:02.87	338.95	14.09	-26.7	-28.3	15.2	0.00e+00	0	44	0	3597664256	13	4351
2026-01-19 12:42:03.87	338.98	13.99	-26.8	-28.5	15.1	0.00e+00	0	44	0	3602907136	13	4414
2026-01-19 12:42:04.88	339.00	13.89	-26.9	-28.8	15.0	0.00e+00	0	44	0	3609198592	13	4487
2026-01-19 12:42:05.88	339.02	13.78	-26.7	-28.5	15.1	0.00e+00	0	44	0	3614441472	13	4404
2026-01-19 12:42:06.88	339.04	13.68	-26.5	-28.0	15.4	0.00e+00	0	44	0	3620732928	13	4278
2026-01-19 12:42:07.89	339.06	13.58	-26.4	-27.7	15.6	0.00e+00	0	44	0	3625975808	13	4178
2026-01-19 12:42:08.90	339.08	13.48	-26.2	-27.4	15.8	0.00e+00	0	44	0	3631218688	13	4114
2026-01-19 12:42:09.90	339.10	13.38	-26.3	-27.4	15.7	0.00e+00	0	44	0	3637510144	13	4128
2026-01-19 12:42:10.90	339.12	13.28	-26.3	-27.5	15.7	0.00e+00	0	44	0	3642753024	13	4143
2026-01-19 12:42:11.90	339.14	13.19	-26.2	-27.2	15.8	0.00e+00	0	44	0	3647995904	13	4065
2026-01-19 12:42:12.89	339.16	13.09	-26.1	-27.1	15.9	0.00e+00	0	44	0	3654287360	13	4041
2026-01-19 12:42:13.90	339.18	12.99	-26.4	-27.7	15.5	0.00e+00	0	44	0	3659530240	13	4181
2026-01-19 12:42:14.90	339.20	12.89	-26.2	-27.4	15.7	0.00e+00	0	44	0	3665821696	13	4102
2026-01-19 12:42:15.91	339.22	12.80	-26.2	-27.3	15.8	0.00e+00	0	44	0	3671064576	13	4084
2026-01-19 12:42:16.91	339.24	12.70	-26.2	-27.4	15.7	0.00e+00	0	44	0	3677356032	13	4118
2026-01-19 12:42:17.91	339.26	12.60	-26.2	-27.3	15.7	0.00e+00	0	44	0	3682598912	13	4094
2026-01-19 12:42:18.91	339.28	12.51	-26.3	-27.6	15.6	0.00e+00	0	44	0	3687841792	13	4156
2026-01-19 12:42:19.91	339.30	12.41	-26.2	-27.3	15.7	0.00e+00	0	44	0	3694133248	13	4077
2026-01-19 12:42:20.92	339.32	12.32	-26.3	-27.5	15.6	0.00e+00	0	44	0	3699376128	13	4134
2026-01-19 12:42:21.92	339.33	12.22	-26.3	-27.5	15.6	0.00e+00	0	44	0	3704619008	13	4135
2026-01-19 12:42:22.92	339.35	12.13	-26.3	-27.5	15.6	0.00e+00	0	44	0	3710910464	13	4144
2026-01-19 12:42:23.92	339.37	12.03	-26.3	-27.4	15.6	0.00e+00	0	44	0	3716153344	13	4130
2026-01-19 12:42:24.93	339.39	11.94	-26.3	-27.6	15.5	0.00e+00	0	44	0	3721396224	13	4181
2026-01-19 12:42:25.93	339.41	11.85	-26.4	-27.8	15.4	0.00e+00	0	44	0	3727687680	13	4211
2026-01-19 12:42:26.93	339.43	11.75	-26.3	-27.5	15.6	0.00e+00	0	44	0	3732930560	13	4134
2026-01-19 12:42:27.93	339.45	11.66	-26.4	-27.7	15.5	0.00e+00	0	44	0	3739222016	13	4199
2026-01-19 12:42:28.93	339.47	11.57	-26.4	-27.7	15.4	0.00e+00	0	44	0	3744464896	13	4199
2026-01-19 12:42:29.92	339.48	11.48	-26.3	-27.7	15.5	0.00e+00	0	44	0	3749707776	13	4182
2026-01-19 12:42:30.93	339.50	11.39	-26.4	-27.8	15.4	0.00e+00	0	44	0	3755999232	13	4221
2026-01-19 12:42:31.93	339.52	11.29	-26.5	-28.0	15.2	0.00e+00	0	44	0	3761242112	13	4286
2026-01-19 12:42:32.93	339.54	11.20	-26.7	-28.4	15.0	0.00e+00	0	44	0	3766484992	13	4393
2026-01-19 12:42:33.92	339.56	11.11	-26.6	-28.1	15.1	0.00e+00	0	44	0	3772776448	13	4320
2026-01-19 12:42:34.92	339.57	11.02	-26.9	-28.8	14.8	0.00e+00	0	44	0	3778019328	13	4509
2026-01-19 12:42:35.92	339.59	10.93	-26.8	-28.7	14.8	1.10e-06	0	44	0	3783262208	13	4481
2026-01-19 12:42:36.92	339.61	10.85	-26.9	-28.8	14.7	0.00e+00	0	44	0	3789553664	13	4516
2026-01-19 12:42:37.93	339.63	10.76	-27.1	-28.8	14.5	1.10e-06	0	44	0	3794796544	14	4378
2026-01-19 12:42:38.93	339.64	10.67	-27.1	-28.9	14.4	0.00e+00	0	44	0	3801088000	14	4425
2026-01-19 12:42:39.93	339.66	10.58	-27.3	-29.2	14.3	1.10e-06	0	44	0	3806330880	14	4503
2026-01-19 12:42:40.94	339.68	10.49	-27.4	-29.5	14.1	1.10e-06	0	44	0	3811573760	14	4582
2026-01-19 12:42:41.94	339.70	10.40	-27.3	-29.2	14.3	0.00e+00	0	44	0	3817865216	14	4511
2026-01-19 12:42:42.94	339.71	10.31	-27.6	-29.5	13.8	1.10e-06	0	44	0	3823108096	15	4481
2026-01-19 12:42:43.95	339.73	10.23	-27.4	-29.1	14.0	1.10e-06	0	44	0	3828350976	15	4365
2026-01-19 12:42:44.95	339.75	10.14	-27.3	-28.9	14.1	0.00e+00	0	44	0	3834642432	15	4297
2026-01-19 12:42:45.95	339.77	10.05	-27.2	-28.6	14.3	0.00e+00	0	44	0	3839885312	15	4216
