passes_logs/2026/01/19/R2M6_AANII_01/R2M6_AANII_01__20260119_234111_SUOMI_NPP_rec.log

#Pass ID: 20260119_234111_SUOMI NPP
#Satellite: SUOMI NPP
#Configuration: NPP
#almurnet v.1.7.20240730
#Start time: 2026-01-19 23:41:12

#Version: 2.2.20231116
#Station: R2M6_AANII_01
#Location: 30.233357 lon 59.946436 lat
#TLE: 1 37849U 11061A   26019.26265094  .00000081  00000+0  59609-4 0  9993
#TLE: 2 37849  98.7817 321.2746 0002356  56.2510 303.8890 14.19526363737315

#Time	Az	El	Level	Level2	SNR	BER	BlckErr	Temp	State	Recorded	gain1	gain2
2026-01-19 23:41:12.10	22.56	7.04	-31.4	-36.1	5.1	1.26e+00	0	42	0	0	22	6162
2026-01-19 23:41:13.10	22.60	7.11	-31.8	-37.4	4.8	1.34e+00	0	42	104	0	23	6843
2026-01-19 23:41:14.11	22.65	7.19	-31.8	-37.0	7.2	1.52e-01	0	42	0	0	23	6572
2026-01-19 23:41:15.11	22.70	7.26	-31.9	-37.7	6.7	1.65e-01	0	42	0	1048576	23	6998
2026-01-19 23:41:16.11	22.74	7.34	-31.8	-36.8	7.4	1.40e-01	0	42	0	3145728	23	6462
2026-01-19 23:41:17.11	22.79	7.41	-31.6	-36.3	7.8	1.10e-01	0	42	0	5242880	23	6177
2026-01-19 23:41:18.12	22.83	7.49	-31.6	-36.2	7.8	8.53e-02	0	42	0	7340032	23	6093
2026-01-19 23:41:19.12	22.88	7.56	-31.6	-36.1	7.9	8.44e-02	0	42	0	9437184	23	6031
2026-01-19 23:41:20.11	22.93	7.64	-31.6	-36.1	7.9	7.68e-02	0	42	0	10485760	23	6047
2026-01-19 23:41:21.12	22.97	7.71	-31.5	-35.6	8.3	5.66e-02	0	42	0	12582912	23	5757
2026-01-19 23:41:22.13	23.02	7.79	-31.5	-36.1	8.3	3.65e-02	0	42	0	14680064	22	6111
2026-01-19 23:41:23.13	23.07	7.87	-31.5	-35.4	8.5	4.52e-02	0	42	0	16777216	23	5683
2026-01-19 23:41:24.13	23.11	7.94	-31.6	-36.3	7.8	6.53e-02	0	42	0	17825792	23	6127
2026-01-19 23:41:25.14	23.16	8.02	-31.5	-35.5	8.5	4.56e-02	0	42	0	19922944	23	5699
2026-01-19 23:41:26.14	23.21	8.10	-31.6	-35.9	8.2	4.56e-02	0	42	0	22020096	23	5924
2026-01-19 23:41:27.14	23.26	8.17	-31.8	-36.9	7.4	9.71e-02	0	42	0	24117248	23	6455
2026-01-19 23:41:28.14	23.31	8.25	-31.6	-36.0	8.1	8.55e-02	0	42	0	26214400	23	5962
2026-01-19 23:41:29.14	23.36	8.33	-31.5	-35.6	8.4	4.79e-02	0	42	0	27262976	23	5763
2026-01-19 23:41:30.14	23.40	8.41	-31.4	-35.2	8.7	3.77e-02	0	42	0	29360128	23	5583
2026-01-19 23:41:31.15	23.45	8.48	-31.2	-34.9	9.3	2.33e-02	0	43	0	31457280	22	5504
2026-01-19 23:41:32.16	23.50	8.56	-31.1	-34.5	9.7	1.18e-02	0	42	0	33554432	22	5325
2026-01-19 23:41:33.16	23.55	8.64	-31.1	-34.3	9.8	1.31e-02	0	43	0	35651584	22	5221
2026-01-19 23:41:34.16	23.60	8.72	-31.1	-34.3	9.9	1.08e-02	0	42	0	36700160	22	5207
2026-01-19 23:41:35.16	23.65	8.80	-31.0	-34.0	10.1	7.10e-03	0	43	0	38797312	22	5073
2026-01-19 23:41:36.16	23.70	8.88	-30.8	-33.5	10.5	5.61e-03	0	43	0	40894464	22	4875
2026-01-19 23:41:37.17	23.75	8.96	-31.0	-34.4	10.1	4.76e-03	0	43	0	42991616	21	5370
2026-01-19 23:41:38.17	23.80	9.04	-31.1	-34.2	9.9	6.99e-03	0	43	0	45088768	22	5164
2026-01-19 23:41:39.18	23.86	9.12	-30.8	-33.3	10.7	2.64e-03	0	43	0	46137344	22	4803
2026-01-19 23:41:40.18	23.91	9.20	-30.8	-33.7	10.7	3.15e-03	0	43	0	48234496	21	5055
2026-01-19 23:41:41.19	23.96	9.28	-30.7	-33.6	10.8	2.63e-03	0	43	0	50331648	21	5007
2026-01-19 23:41:42.19	24.01	9.36	-30.8	-33.8	10.6	4.25e-03	0	43	0	52428800	21	5092
2026-01-19 23:41:43.20	24.06	9.44	-30.8	-34.1	10.4	3.82e-03	0	43	0	54525952	21	5246
2026-01-19 23:41:44.20	24.11	9.52	-30.7	-33.5	10.9	2.62e-03	0	43	0	55574528	21	4955
2026-01-19 23:41:45.20	24.17	9.60	-30.6	-33.0	11.2	2.39e-03	0	43	0	57671680	21	4783
2026-01-19 23:41:46.20	24.22	9.68	-30.7	-33.4	11.0	2.01e-03	0	43	0	59768832	21	4908
2026-01-19 23:41:47.21	24.27	9.77	-30.7	-33.5	10.6	1.94e-03	0	43	0	61865984	21	4955
2026-01-19 23:41:48.21	24.33	9.85	-30.7	-33.5	10.6	2.72e-03	0	43	0	63963136	21	4951
2026-01-19 23:41:49.21	24.38	9.93	-30.6	-33.2	11.2	2.62e-03	0	43	0	65011712	21	4844
2026-01-19 23:41:50.21	24.43	10.01	-30.5	-32.9	11.2	1.33e-03	0	43	0	67108864	21	4730
2026-01-19 23:41:51.21	24.49	10.10	-30.5	-33.3	11.4	1.03e-03	0	43	0	69206016	20	4960
2026-01-19 23:41:52.22	24.54	10.18	-30.4	-33.0	11.7	1.89e-03	0	43	0	71303168	20	4850
2026-01-19 23:41:53.23	24.60	10.26	-30.6	-33.1	11.2	1.17e-03	0	43	0	73400320	21	4795
2026-01-19 23:41:54.23	24.65	10.35	-30.6	-33.0	11.3	8.93e-04	0	43	0	74448896	21	4759
2026-01-19 23:41:55.24	24.71	10.43	-30.7	-33.6	10.9	2.08e-03	0	43	0	76546048	21	4984
2026-01-19 23:41:56.25	24.77	10.52	-30.7	-33.4	11.0	1.65e-03	0	43	0	78643200	21	4920
2026-01-19 23:41:57.25	24.82	10.60	-30.6	-33.1	11.2	1.26e-03	0	43	0	80740352	21	4811
2026-01-19 23:41:58.25	24.88	10.68	-30.5	-32.6	11.6	9.03e-04	0	43	0	81788928	21	4626
2026-01-19 23:41:59.25	24.93	10.77	-30.5	-32.7	11.6	1.52e-03	0	43	0	83886080	21	4630
2026-01-19 23:42:00.26	24.99	10.86	-30.6	-32.9	11.4	6.81e-04	0	43	0	85983232	21	4724
2026-01-19 23:42:01.26	25.05	10.94	-30.5	-32.8	11.5	9.48e-04	0	43	0	88080384	21	4679
2026-01-19 23:42:02.26	25.11	11.03	-30.4	-32.8	11.8	1.18e-03	0	43	0	90177536	20	4784
2026-01-19 23:42:03.27	25.16	11.11	-30.3	-32.7	12.0	1.95e-03	0	43	0	91226112	20	4724
2026-01-19 23:42:04.27	25.22	11.20	-30.3	-32.5	12.1	3.92e-04	0	43	0	93323264	20	4644
2026-01-19 23:42:05.27	25.28	11.29	-30.3	-32.6	12.0	2.20e-04	0	43	0	95420416	20	4710
2026-01-19 23:42:06.27	25.34	11.37	-30.2	-32.2	12.3	1.64e-03	0	43	0	97517568	20	4544
2026-01-19 23:42:07.27	25.40	11.46	-30.2	-32.2	12.3	7.39e-04	0	43	0	99614720	20	4540
2026-01-19 23:42:08.28	25.46	11.55	-30.2	-32.2	12.3	1.59e-04	0	43	0	100663296	20	4564
2026-01-19 23:42:09.28	25.52	11.64	-30.2	-32.2	12.3	1.44e-03	0	43	0	102760448	20	4559
2026-01-19 23:42:10.28	25.58	11.72	-30.3	-32.5	12.1	6.56e-04	0	43	0	104857600	20	4664
2026-01-19 23:42:11.28	25.64	11.81	-30.4	-32.8	12.0	2.94e-04	0	43	0	106954752	20	4756
2026-01-19 23:42:12.29	25.70	11.90	-30.2	-32.4	12.2	3.30e-04	0	43	0	109051904	20	4636
2026-01-19 23:42:13.29	25.76	11.99	-30.4	-33.0	11.8	7.90e-04	0	43	0	110100480	20	4838
2026-01-19 23:42:14.30	25.82	12.08	-30.4	-32.5	11.8	5.75e-04	0	43	0	112197632	21	4547
2026-01-19 23:42:15.30	25.88	12.17	-30.6	-33.1	11.4	6.68e-04	0	43	0	114294784	21	4769
2026-01-19 23:42:16.31	25.95	12.26	-30.5	-32.5	11.8	8.60e-04	0	43	0	116391936	21	4577
2026-01-19 23:42:17.30	26.01	12.35	-30.5	-33.1	11.8	1.40e-03	0	43	0	118489088	20	4857
2026-01-19 23:42:18.31	26.07	12.44	-30.6	-32.8	11.6	7.70e-04	0	43	0	119537664	21	4687
2026-01-19 23:42:19.31	26.13	12.53	-30.4	-32.5	11.8	4.21e-04	0	43	0	121634816	21	4560
2026-01-19 23:42:20.32	26.20	12.62	-30.5	-32.6	11.8	1.44e-03	0	43	0	123731968	21	4593
2026-01-19 23:42:21.32	26.26	12.71	-30.5	-32.5	11.8	3.20e-04	0	43	0	125829120	21	4577
2026-01-19 23:42:22.32	26.33	12.81	-30.6	-32.9	11.5	6.40e-04	0	43	0	127926272	21	4718
2026-01-19 23:42:23.32	26.39	12.90	-30.5	-32.5	11.8	1.38e-03	0	43	0	128974848	21	4573
2026-01-19 23:42:24.33	26.46	12.99	-30.1	-32.0	12.6	1.09e-03	0	43	0	131072000	20	4470
2026-01-19 23:42:25.33	26.52	13.08	-30.1	-31.9	12.6	1.49e-04	0	43	0	133169152	20	4454
2026-01-19 23:42:26.34	26.59	13.18	-30.2	-32.3	12.4	1.20e-03	0	43	0	135266304	20	4555
2026-01-19 23:42:27.33	26.65	13.27	-30.0	-31.7	12.8	1.18e-03	0	44	0	136314880	20	4363
2026-01-19 23:42:28.34	26.72	13.36	-30.0	-31.8	12.8	3.29e-04	0	43	0	138412032	20	4386
2026-01-19 23:42:29.34	26.79	13.46	-29.9	-31.5	13.0	4.11e-05	0	43	0	140509184	20	4309
2026-01-19 23:42:30.35	26.85	13.55	-30.0	-31.8	12.8	1.44e-03	0	43	0	142606336	20	4391
2026-01-19 23:42:31.36	26.92	13.65	-30.0	-31.6	12.9	4.01e-04	0	44	0	144703488	20	4329
2026-01-19 23:42:32.36	26.99	13.74	-29.9	-31.8	13.2	3.73e-05	0	44	0	146800640	19	4481
2026-01-19 23:42:33.37	27.06	13.84	-29.9	-32.0	13.1	1.12e-03	0	43	0	147849216	19	4534
2026-01-19 23:42:34.37	27.13	13.93	-29.8	-31.2	13.2	2.58e-04	0	43	0	149946368	20	4205
2026-01-19 23:42:35.36	27.20	14.03	-29.9	-31.7	13.2	7.62e-04	0	43	0	152043520	19	4463
2026-01-19 23:42:36.36	27.27	14.13	-29.9	-31.8	13.2	7.79e-04	0	44	0	154140672	19	4491
2026-01-19 23:42:37.36	27.34	14.22	-29.8	-31.4	13.4	2.93e-04	0	44	0	155189248	19	4365
2026-01-19 23:42:38.36	27.41	14.32	-29.8	-31.5	13.4	5.70e-04	0	44	0	157286400	19	4397
2026-01-19 23:42:39.35	27.48	14.41	-29.9	-31.7	13.2	2.63e-04	0	44	0	159383552	19	4456
2026-01-19 23:42:40.35	27.55	14.51	-29.9	-31.9	13.1	2.73e-04	0	44	0	161480704	19	4504
2026-01-19 23:42:41.35	27.62	14.61	-29.8	-31.5	13.4	4.74e-04	0	44	0	163577856	19	4369
2026-01-19 23:42:42.35	27.69	14.71	-29.8	-31.5	13.4	6.81e-04	0	44	0	164626432	19	4385
2026-01-19 23:42:43.35	27.77	14.81	-29.8	-31.5	13.4	1.45e-04	0	44	0	166723584	19	4381
2026-01-19 23:42:44.36	27.84	14.91	-29.7	-31.2	13.6	4.34e-04	0	44	0	168820736	19	4299
2026-01-19 23:42:45.36	27.91	15.01	-29.6	-30.9	13.8	5.56e-04	0	44	0	170917888	19	4209
2026-01-19 23:42:46.36	27.99	15.11	-29.6	-31.1	13.7	1.11e-04	0	44	0	173015040	19	4252
2026-01-19 23:42:47.36	28.06	15.21	-29.5	-30.8	13.9	6.33e-04	0	44	0	174063616	19	4176
2026-01-19 23:42:48.36	28.14	15.31	-29.6	-30.9	13.8	8.23e-04	0	44	0	176160768	19	4194
2026-01-19 23:42:49.36	28.21	15.41	-29.7	-31.2	13.7	1.32e-04	0	44	0	178257920	19	4268
2026-01-19 23:42:50.36	28.29	15.51	-29.6	-31.0	13.8	9.25e-04	0	44	0	180355072	19	4217
2026-01-19 23:42:51.36	28.37	15.61	-29.6	-31.0	13.8	1.08e-03	0	44	0	181403648	19	4215
2026-01-19 23:42:52.36	28.44	15.71	-29.7	-31.2	13.7	6.86e-05	0	44	0	183500800	19	4281
2026-01-19 23:42:53.36	28.52	15.82	-29.5	-30.8	13.9	6.10e-06	0	44	0	185597952	19	4157
2026-01-19 23:42:54.36	28.60	15.92	-29.4	-30.4	14.1	9.91e-04	0	44	0	187695104	19	4044
2026-01-19 23:42:55.36	28.68	16.02	-29.6	-30.8	13.9	1.46e-04	0	44	0	189792256	19	4168
2026-01-19 23:42:56.36	28.76	16.13	-29.4	-30.5	14.1	1.05e-03	0	44	0	190840832	19	4075
2026-01-19 23:42:57.37	28.84	16.23	-29.4	-30.3	14.3	1.04e-03	0	44	0	192937984	19	4013
2026-01-19 23:42:58.37	28.92	16.33	-29.4	-30.4	14.2	2.20e-06	0	44	0	195035136	19	4047
2026-01-19 23:42:59.37	29.00	16.44	-29.4	-31.0	14.1	9.47e-04	0	44	0	197132288	18	4317
2026-01-19 23:43:00.37	29.08	16.54	-29.4	-31.0	14.1	2.20e-06	0	44	0	199229440	18	4313
2026-01-19 23:43:01.38	29.16	16.65	-29.4	-30.3	14.2	7.00e-07	0	44	0	200278016	19	4024
2026-01-19 23:43:02.39	29.24	16.76	-29.6	-30.9	13.9	8.53e-04	0	44	0	202375168	19	4173
2026-01-19 23:43:03.40	29.33	16.87	-29.5	-30.7	14.0	7.95e-04	0	44	0	204472320	19	4122
2026-01-19 23:43:04.41	29.41	16.97	-29.5	-30.5	14.1	1.50e-06	0	44	0	206569472	19	4081
2026-01-19 23:43:05.41	29.50	17.08	-29.7	-31.2	13.7	7.29e-04	0	44	0	208666624	19	4288
2026-01-19 23:43:06.41	29.58	17.19	-29.5	-30.8	14.0	5.80e-04	0	44	0	209715200	19	4153
2026-01-19 23:43:07.41	29.67	17.30	-29.6	-31.0	13.8	5.30e-06	0	44	0	211812352	19	4231
2026-01-19 23:43:08.40	29.75	17.40	-29.6	-30.8	14.0	4.66e-04	0	44	0	213909504	19	4163
2026-01-19 23:43:09.40	29.84	17.51	-29.7	-31.1	13.8	4.03e-04	0	44	0	216006656	19	4241
2026-01-19 23:43:10.41	29.92	17.62	-29.7	-31.2	13.7	3.00e-06	0	44	0	218103808	19	4292
2026-01-19 23:43:11.40	30.01	17.73	-29.6	-30.9	13.9	2.20e-06	0	44	0	219152384	19	4187
2026-01-19 23:43:12.41	30.10	17.84	-29.5	-30.7	14.1	3.66e-04	0	44	0	221249536	19	4119
2026-01-19 23:43:13.41	30.19	17.95	-29.7	-31.0	13.9	3.50e-05	0	44	0	223346688	19	4216
2026-01-19 23:43:14.41	30.28	18.07	-29.6	-30.9	14.0	5.30e-06	0	44	0	225443840	19	4181
2026-01-19 23:43:15.41	30.37	18.18	-29.6	-30.8	14.0	3.54e-04	0	44	0	226492416	19	4147
2026-01-19 23:43:16.42	30.46	18.29	-29.6	-31.0	13.9	4.50e-06	0	44	0	228589568	19	4197
2026-01-19 23:43:17.42	30.55	18.40	-29.8	-31.4	13.6	9.10e-06	0	44	0	230686720	19	4346
2026-01-19 23:43:18.43	30.64	18.52	-29.7	-31.2	13.8	6.80e-06	0	44	0	232783872	19	4283
2026-01-19 23:43:19.43	30.74	18.63	-29.8	-31.5	13.6	5.30e-06	0	44	0	234881024	19	4365
2026-01-19 23:43:20.43	30.83	18.74	-29.8	-31.5	13.6	4.39e-04	0	44	0	235929600	19	4369
2026-01-19 23:43:21.43	30.92	18.86	-29.9	-31.2	13.4	9.10e-06	0	44	0	238026752	20	4189
2026-01-19 23:43:22.44	31.02	18.97	-29.8	-30.9	13.7	9.90e-06	0	44	0	240123904	20	4112
2026-01-19 23:43:23.44	31.11	19.09	-29.9	-31.7	13.5	5.42e-04	0	44	0	242221056	19	4438
2026-01-19 23:43:24.44	31.21	19.21	-30.0	-31.4	13.3	2.05e-05	0	44	0	244318208	20	4253
2026-01-19 23:43:25.44	31.31	19.32	-30.0	-31.5	13.2	1.75e-05	0	44	0	245366784	20	4292
2026-01-19 23:43:26.44	31.40	19.44	-30.0	-31.4	13.3	5.44e-04	0	44	0	247463936	20	4238
2026-01-19 23:43:27.45	31.50	19.56	-29.9	-31.2	13.4	5.45e-04	0	44	0	249561088	20	4179
2026-01-19 23:43:28.44	31.60	19.67	-29.9	-31.1	13.6	5.30e-06	0	44	0	251658240	20	4143
2026-01-19 23:43:29.45	31.70	19.79	-30.0	-31.9	13.4	9.90e-06	0	44	0	253755392	19	4493
2026-01-19 23:43:30.45	31.80	19.91	-30.0	-31.4	13.4	4.22e-04	0	44	0	254803968	20	4242
2026-01-19 23:43:31.46	31.90	20.03	-29.9	-31.2	13.4	1.06e-05	0	44	0	256901120	20	4191
2026-01-19 23:43:32.46	32.00	20.15	-30.1	-31.7	13.2	2.21e-05	0	44	0	258998272	20	4341
2026-01-19 23:43:33.46	32.11	20.27	-30.0	-31.4	13.3	3.97e-04	0	44	0	261095424	20	4254
2026-01-19 23:43:34.47	32.21	20.39	-30.2	-32.1	12.9	3.81e-05	0	44	0	263192576	20	4470
2026-01-19 23:43:35.47	32.31	20.51	-30.1	-31.7	13.2	4.11e-05	0	44	0	264241152	20	4340
2026-01-19 23:43:36.48	32.42	20.64	-30.2	-31.9	13.0	1.83e-05	0	44	0	266338304	20	4403
2026-01-19 23:43:37.48	32.53	20.76	-30.3	-32.3	12.7	4.95e-05	0	44	0	268435456	20	4540
2026-01-19 23:43:38.48	32.63	20.88	-30.0	-31.5	13.0	2.28e-05	0	44	0	270532608	20	4287
2026-01-19 23:43:39.48	32.74	21.00	-30.1	-31.6	13.1	2.28e-05	0	44	0	271581184	20	4313
2026-01-19 23:43:40.48	32.85	21.13	-30.0	-31.5	13.2	1.83e-05	0	44	0	273678336	20	4270
2026-01-19 23:43:41.49	32.96	21.25	-30.1	-31.8	13.0	2.44e-05	0	44	0	275775488	20	4368
2026-01-19 23:43:42.49	33.07	21.38	-30.1	-31.8	13.1	4.88e-05	0	44	0	277872640	20	4383
2026-01-19 23:43:43.49	33.18	21.50	-30.2	-32.1	12.9	9.15e-05	0	44	0	279969792	20	4456
2026-01-19 23:43:44.50	33.29	21.63	-30.2	-31.9	13.1	2.49e-04	0	44	0	281018368	20	4400
2026-01-19 23:43:45.50	33.40	21.76	-30.1	-31.8	13.2	1.67e-05	0	44	0	283115520	20	4349
2026-01-19 23:43:46.50	33.51	21.88	-30.2	-31.9	13.1	2.28e-05	0	44	0	285212672	20	4401
2026-01-19 23:43:47.51	33.63	22.01	-30.0	-31.4	13.4	2.44e-05	0	44	0	287309824	20	4239
2026-01-19 23:43:48.51	33.75	22.14	-30.2	-32.0	13.0	8.92e-05	0	44	0	289406976	20	4425
2026-01-19 23:43:49.51	33.86	22.27	-30.1	-31.7	13.2	1.83e-05	0	44	0	290455552	20	4331
2026-01-19 23:43:50.51	33.98	22.40	-29.9	-31.1	13.6	1.22e-05	0	44	0	292552704	20	4142
2026-01-19 23:43:51.52	34.10	22.53	-30.1	-31.6	13.3	2.57e-04	0	44	0	294649856	20	4305
2026-01-19 23:43:52.52	34.22	22.66	-30.0	-31.3	13.5	8.30e-06	0	44	0	296747008	20	4187
2026-01-19 23:43:53.52	34.34	22.79	-29.7	-30.7	13.9	1.14e-05	0	44	0	298844160	20	4009
2026-01-19 23:43:54.52	34.46	22.92	-29.7	-31.1	14.0	5.30e-06	0	44	0	299892736	19	4217
2026-01-19 23:43:55.52	34.58	23.05	-29.9	-31.5	13.8	4.50e-06	0	44	0	301989888	19	4340
2026-01-19 23:43:56.52	34.70	23.18	-29.8	-31.4	13.8	5.30e-06	0	44	0	304087040	19	4321
2026-01-19 23:43:57.52	34.82	23.31	-29.9	-31.5	13.8	4.50e-06	0	44	0	306184192	19	4332
2026-01-19 23:43:58.52	34.95	23.45	-29.9	-31.1	13.7	1.06e-05	0	44	0	308281344	20	4123
2026-01-19 23:43:59.53	35.08	23.58	-30.0	-31.5	13.4	6.02e-05	0	44	0	309329920	20	4254
2026-01-19 23:44:00.52	35.20	23.71	-29.9	-31.2	13.6	1.60e-05	0	44	0	311427072	20	4178
2026-01-19 23:44:01.52	35.33	23.85	-29.8	-30.9	13.8	1.22e-05	0	44	0	313524224	20	4071
2026-01-19 23:44:02.52	35.46	23.98	-29.8	-30.7	13.9	4.50e-06	0	44	0	315621376	20	4029
2026-01-19 23:44:03.52	35.59	24.12	-29.9	-31.2	13.6	1.06e-05	0	44	0	317718528	20	4166
2026-01-19 23:44:04.53	35.72	24.26	-29.9	-31.1	13.8	3.80e-06	0	44	0	318767104	20	4126
2026-01-19 23:44:05.53	35.85	24.40	-30.0	-31.2	13.6	6.80e-06	0	44	0	320864256	20	4171
2026-01-19 23:44:06.52	35.98	24.53	-29.9	-31.1	13.7	7.60e-06	0	44	0	322961408	20	4130
2026-01-19 23:44:07.53	36.12	24.67	-29.9	-31.0	13.8	9.10e-06	0	44	0	325058560	20	4099
2026-01-19 23:44:08.53	36.25	24.81	-30.0	-31.2	13.6	1.52e-05	0	44	0	326107136	20	4169
2026-01-19 23:44:09.54	36.39	24.95	-30.0	-31.4	13.6	2.67e-05	0	44	0	328204288	20	4216
2026-01-19 23:44:10.54	36.53	25.09	-29.7	-31.0	13.6	6.10e-06	0	44	0	330301440	20	4197
2026-01-19 23:44:11.54	36.67	25.23	-30.0	-31.3	13.6	5.30e-06	0	44	0	332398592	20	4187
2026-01-19 23:44:12.55	36.81	25.37	-30.0	-31.4	13.5	5.79e-05	0	44	0	334495744	20	4213
2026-01-19 23:44:13.54	36.95	25.52	-29.9	-31.1	13.7	1.22e-05	0	44	0	335544320	20	4128
2026-01-19 23:44:14.55	37.10	25.66	-30.0	-31.4	13.5	1.06e-05	0	44	0	337641472	20	4216
2026-01-19 23:44:15.56	37.24	25.80	-30.1	-31.5	13.5	5.41e-05	0	44	0	339738624	20	4246
2026-01-19 23:44:16.56	37.39	25.95	-30.2	-31.8	13.3	1.60e-05	0	44	0	341835776	20	4348
2026-01-19 23:44:17.56	37.53	26.09	-30.4	-32.5	12.9	3.50e-05	0	44	0	343932928	20	4584
2026-01-19 23:44:18.56	37.68	26.24	-30.4	-32.0	12.9	9.53e-05	0	44	0	344981504	21	4308
2026-01-19 23:44:19.56	37.83	26.38	-30.4	-31.9	12.9	4.65e-05	0	44	0	347078656	21	4294
2026-01-19 23:44:20.55	37.98	26.53	-30.5	-32.1	12.8	5.49e-05	0	44	0	349175808	21	4355
2026-01-19 23:44:21.55	38.13	26.67	-30.8	-33.1	12.2	8.39e-05	0	44	0	351272960	21	4681
2026-01-19 23:44:22.55	38.28	26.82	-30.8	-33.1	12.1	1.70e-04	0	44	0	353370112	21	4674
2026-01-19 23:44:23.55	38.44	26.97	-30.7	-32.7	12.4	2.14e-04	0	44	0	354418688	21	4542
2026-01-19 23:44:24.56	38.60	27.12	-30.8	-32.9	12.2	1.75e-04	0	44	0	356515840	21	4626
2026-01-19 23:44:25.56	38.75	27.27	-30.8	-33.1	12.2	2.68e-04	0	44	0	358612992	21	4672
2026-01-19 23:44:26.57	38.91	27.42	-30.7	-32.8	12.4	2.99e-04	0	44	0	360710144	21	4568
2026-01-19 23:44:27.58	39.08	27.57	-30.7	-32.9	12.3	2.77e-04	0	44	0	362807296	21	4596
2026-01-19 23:44:28.58	39.24	27.72	-30.6	-32.5	12.5	1.46e-04	0	44	0	363855872	21	4480
2026-01-19 23:44:29.58	39.40	27.87	-30.5	-32.2	12.7	9.23e-05	0	44	0	365953024	21	4382
2026-01-19 23:44:30.58	39.57	28.02	-30.6	-32.5	12.5	8.69e-05	0	44	0	368050176	21	4484
2026-01-19 23:44:31.58	39.73	28.17	-30.8	-33.0	12.3	1.35e-04	0	44	0	370147328	21	4634
2026-01-19 23:44:32.59	39.90	28.33	-30.9	-33.2	12.1	2.59e-04	0	44	0	371195904	21	4714
2026-01-19 23:44:33.59	40.07	28.48	-30.8	-33.2	12.1	3.59e-04	0	44	0	373293056	21	4698
2026-01-19 23:44:34.59	40.24	28.64	-30.9	-32.8	12.1	5.07e-04	0	44	0	375390208	22	4470
2026-01-19 23:44:35.59	40.42	28.79	-30.9	-32.7	12.2	6.68e-04	0	44	0	377487360	22	4432
2026-01-19 23:44:36.59	40.59	28.95	-31.1	-33.3	11.7	7.48e-04	0	44	0	379584512	22	4670
2026-01-19 23:44:37.59	40.77	29.10	-31.1	-33.4	11.7	6.77e-04	0	44	0	380633088	22	4671
2026-01-19 23:44:38.60	40.95	29.26	-31.1	-33.5	11.6	6.18e-04	0	44	0	382730240	22	4717
2026-01-19 23:44:39.60	41.12	29.42	-31.0	-33.2	11.8	6.78e-04	0	44	0	384827392	22	4633
2026-01-19 23:44:40.60	41.31	29.58	-31.3	-33.9	11.3	1.87e-03	0	44	0	386924544	22	4883
2026-01-19 23:44:41.61	41.49	29.74	-31.2	-33.7	11.5	1.11e-03	0	44	0	389021696	22	4811
2026-01-19 23:44:42.61	41.67	29.89	-31.3	-33.9	11.3	8.51e-04	0	44	0	390070272	22	4870
2026-01-19 23:44:43.61	41.86	30.05	-31.2	-33.8	11.4	1.17e-03	0	44	0	392167424	22	4837
2026-01-19 23:44:44.62	42.05	30.22	-31.4	-34.3	11.1	1.17e-03	0	44	0	394264576	22	5014
2026-01-19 23:44:45.63	42.24	30.38	-31.3	-34.0	11.3	2.03e-03	0	44	0	396361728	22	4893
2026-01-19 23:44:46.63	42.44	30.54	-31.2	-33.7	11.5	8.42e-04	0	44	0	398458880	22	4803
2026-01-19 23:44:47.64	42.63	30.70	-31.1	-33.3	11.8	5.90e-04	0	44	0	399507456	22	4646
2026-01-19 23:44:48.64	42.83	30.87	-30.9	-32.8	12.3	3.45e-04	0	44	0	401604608	22	4489
2026-01-19 23:44:49.64	43.02	31.03	-31.0	-33.1	12.0	2.26e-04	0	44	0	403701760	22	4560
2026-01-19 23:44:50.65	43.23	31.19	-31.1	-33.3	11.9	3.13e-04	0	44	0	405798912	22	4646
2026-01-19 23:44:51.65	43.43	31.36	-31.0	-33.2	11.9	3.58e-04	0	44	0	407896064	22	4593
2026-01-19 23:44:52.66	43.63	31.52	-31.2	-33.6	11.7	3.94e-04	0	44	0	408944640	22	4738
2026-01-19 23:44:53.65	43.84	31.69	-31.3	-33.9	11.4	5.45e-04	0	44	0	411041792	22	4846
2026-01-19 23:44:54.66	44.05	31.85	-31.2	-33.6	11.7	6.10e-04	0	44	0	413138944	22	4733
2026-01-19 23:44:55.66	44.26	32.02	-31.1	-33.3	11.8	6.93e-04	0	44	0	415236096	22	4646
2026-01-19 23:44:56.67	44.47	32.19	-31.4	-34.2	11.2	1.53e-03	0	44	0	417333248	22	4964
2026-01-19 23:44:57.67	44.69	32.36	-31.2	-33.7	11.5	1.02e-03	0	44	0	418381824	22	4804
2026-01-19 23:44:58.67	44.90	32.52	-31.0	-33.2	11.9	4.90e-04	0	44	0	420478976	22	4597
2026-01-19 23:44:59.68	45.12	32.69	-31.0	-33.0	12.0	2.79e-04	0	44	0	422576128	22	4546
2026-01-19 23:45:00.67	45.34	32.86	-30.9	-32.6	12.3	2.08e-04	0	44	0	424673280	22	4398
2026-01-19 23:45:01.68	45.57	33.03	-30.5	-31.6	13.0	8.23e-05	0	44	0	425721856	22	4085
2026-01-19 23:45:02.68	45.79	33.20	-30.3	-31.1	13.3	2.74e-05	0	44	0	427819008	22	3950
2026-01-19 23:45:03.68	46.02	33.37	-30.4	-31.7	13.2	1.52e-05	0	44	0	429916160	21	4211
2026-01-19 23:45:04.69	46.25	33.54	-30.2	-31.2	13.6	1.06e-05	0	44	0	432013312	21	4060
2026-01-19 23:45:05.69	46.48	33.71	-30.1	-31.0	13.6	9.90e-06	0	44	0	434110464	21	3988
2026-01-19 23:45:06.69	46.72	33.89	-30.2	-31.3	13.6	1.37e-05	0	44	0	435159040	21	4071
2026-01-19 23:45:07.69	46.96	34.06	-30.3	-31.6	13.3	1.22e-05	0	44	0	437256192	21	4185
2026-01-19 23:45:08.69	47.20	34.23	-30.4	-31.7	13.3	1.22e-05	0	44	0	439353344	21	4200
2026-01-19 23:45:09.69	47.44	34.40	-30.4	-31.8	13.2	1.83e-05	0	44	0	441450496	21	4223
2026-01-19 23:45:10.69	47.68	34.58	-30.4	-31.8	13.2	1.98e-05	0	44	0	443547648	21	4242
2026-01-19 23:45:11.69	47.93	34.75	-30.2	-31.3	13.6	1.75e-05	0	44	0	444596224	21	4071
2026-01-19 23:45:12.70	48.18	34.93	-30.0	-30.8	13.8	6.80e-06	0	44	0	446693376	21	3923
2026-01-19 23:45:13.70	48.44	35.10	-30.1	-31.1	13.7	2.20e-06	0	45	0	448790528	21	4027
2026-01-19 23:45:14.70	48.69	35.28	-30.1	-31.0	13.8	6.80e-06	0	44	0	450887680	21	3991
2026-01-19 23:45:15.70	48.95	35.45	-30.1	-31.1	13.7	4.50e-06	0	44	0	452984832	21	4013
2026-01-19 23:45:16.71	49.21	35.63	-30.2	-31.3	13.6	6.80e-06	0	44	0	454033408	21	4065
2026-01-19 23:45:17.72	49.48	35.81	-30.2	-31.3	13.6	1.14e-05	0	44	0	456130560	21	4067
2026-01-19 23:45:18.71	49.74	35.98	-30.2	-31.2	13.6	6.80e-06	0	44	0	458227712	21	4056
2026-01-19 23:45:19.72	50.02	36.16	-30.3	-31.5	13.4	9.90e-06	0	44	0	460324864	21	4130
2026-01-19 23:45:20.71	50.28	36.33	-30.3	-31.4	13.4	1.60e-05	0	44	0	462422016	21	4115
2026-01-19 23:45:21.71	50.56	36.51	-30.1	-31.1	13.8	5.30e-06	0	44	0	463470592	21	4007
2026-01-19 23:45:22.71	50.84	36.69	-30.2	-31.1	13.8	2.20e-06	0	44	0	465567744	21	4011
2026-01-19 23:45:23.72	51.12	36.87	-29.9	-30.5	14.1	6.10e-06	0	44	0	467664896	21	3838
2026-01-19 23:45:24.71	51.40	37.04	-30.1	-30.9	13.9	2.20e-06	0	44	0	469762048	21	3948
2026-01-19 23:45:25.72	51.69	37.22	-29.8	-30.1	14.3	5.30e-06	0	44	0	470810624	21	3750
2026-01-19 23:45:26.71	51.98	37.40	-29.8	-30.5	14.4	7.00e-07	0	44	0	472907776	20	3939
2026-01-19 23:45:27.72	52.28	37.58	-29.7	-30.5	14.4	0.00e+00	0	44	0	475004928	20	3917
2026-01-19 23:45:28.73	52.58	37.76	-29.5	-29.9	14.8	0.00e+00	0	44	0	477102080	20	3766
2026-01-19 23:45:29.73	52.88	37.94	-29.9	-31.0	14.1	0.00e+00	0	44	0	479199232	20	4080
2026-01-19 23:45:30.73	53.18	38.11	-29.9	-30.9	14.2	3.00e-06	0	44	0	480247808	20	4047
2026-01-19 23:45:31.73	53.49	38.29	-29.9	-31.0	14.1	1.50e-06	0	44	0	482344960	20	4080
2026-01-19 23:45:32.73	53.79	38.47	-29.9	-30.9	14.2	6.10e-06	0	44	0	484442112	20	4039
2026-01-19 23:45:33.74	54.11	38.65	-30.1	-31.4	13.8	3.80e-06	0	44	0	486539264	20	4197
2026-01-19 23:45:34.74	54.43	38.83	-30.1	-31.4	13.9	5.30e-06	0	44	0	488636416	20	4176
2026-01-19 23:45:35.74	54.75	39.01	-30.2	-31.7	13.6	5.30e-06	0	44	0	489684992	20	4292
2026-01-19 23:45:36.74	55.07	39.19	-30.3	-31.9	13.5	6.10e-06	0	44	0	491782144	20	4344
2026-01-19 23:45:37.75	55.40	39.37	-30.3	-32.0	13.4	7.60e-06	0	44	0	493879296	20	4373
2026-01-19 23:45:38.75	55.73	39.54	-30.1	-31.0	13.7	2.67e-05	0	44	0	495976448	21	3995
2026-01-19 23:45:39.75	56.07	39.72	-30.5	-31.9	13.2	1.44e-05	0	44	0	498073600	21	4249
2026-01-19 23:45:40.75	56.40	39.90	-30.4	-31.7	13.4	3.50e-05	0	44	0	499122176	21	4202
2026-01-19 23:45:41.76	56.75	40.08	-30.8	-33.0	12.5	4.42e-05	0	44	0	501219328	21	4617
2026-01-19 23:45:42.76	57.09	40.26	-30.9	-33.3	12.4	1.25e-04	0	44	0	503316480	21	4707
2026-01-19 23:45:43.76	57.44	40.44	-30.9	-33.2	12.4	1.30e-04	0	44	0	505413632	21	4691
2026-01-19 23:45:44.76	57.80	40.61	-30.5	-32.0	13.2	4.11e-05	0	44	0	507510784	21	4271
2026-01-19 23:45:45.76	58.15	40.79	-30.0	-30.8	14.0	9.90e-06	0	44	0	508559360	21	3914
2026-01-19 23:45:46.77	58.52	40.97	-30.1	-31.0	13.8	6.80e-06	0	44	0	510656512	21	3993
2026-01-19 23:45:47.77	58.88	41.14	-30.1	-31.4	13.9	6.63e-05	0	44	0	512753664	20	4176
2026-01-19 23:45:48.77	59.25	41.32	-30.4	-32.2	13.4	7.60e-06	0	44	0	514850816	20	4427
2026-01-19 23:45:49.78	59.62	41.49	-30.9	-33.1	12.4	2.59e-05	0	44	0	515899392	21	4648
2026-01-19 23:45:50.77	60.00	41.67	-30.8	-32.8	12.7	2.78e-04	0	44	0	517996544	21	4531
2026-01-19 23:45:51.78	60.38	41.84	-30.3	-31.4	13.6	2.28e-05	0	44	0	520093696	21	4102
2026-01-19 23:45:52.78	60.77	42.02	-29.9	-30.8	14.4	2.20e-06	0	44	0	522190848	20	3993
2026-01-19 23:45:53.78	61.15	42.19	-29.7	-30.3	14.6	7.00e-07	0	44	0	524288000	20	3876
2026-01-19 23:45:54.79	61.55	42.36	-30.3	-31.9	13.7	3.80e-06	0	44	0	525336576	20	4335
2026-01-19 23:45:55.79	61.95	42.54	-30.6	-32.2	13.1	1.75e-05	0	44	0	527433728	21	4352
2026-01-19 23:45:56.79	62.35	42.71	-30.8	-32.9	12.6	5.18e-05	0	44	0	529530880	21	4583
2026-01-19 23:45:57.79	62.75	42.88	-30.8	-32.2	12.8	8.01e-05	0	44	0	531628032	22	4242
2026-01-19 23:45:58.79	63.16	43.05	-30.8	-32.4	12.8	8.62e-05	0	44	0	533725184	22	4308
2026-01-19 23:45:59.80	63.58	43.22	-31.1	-33.2	12.2	1.18e-04	0	44	0	534773760	22	4567
2026-01-19 23:46:00.80	64.00	43.38	-31.1	-33.1	12.2	3.39e-04	0	44	0	536870912	22	4531
2026-01-19 23:46:01.80	64.42	43.55	-30.7	-32.0	13.0	4.65e-05	0	44	0	538968064	22	4182
2026-01-19 23:46:02.80	64.85	43.71	-30.4	-31.2	13.5	1.67e-05	0	44	0	541065216	22	3945
2026-01-19 23:46:03.81	65.29	43.88	-30.5	-31.9	13.3	1.60e-05	0	44	0	543162368	21	4254
2026-01-19 23:46:04.81	65.72	44.04	-30.5	-32.1	13.1	2.44e-05	0	44	0	544210944	21	4298
2026-01-19 23:46:05.82	66.17	44.21	-30.8	-32.8	12.7	5.34e-05	0	44	0	546308096	21	4538
2026-01-19 23:46:06.82	66.61	44.37	-30.6	-32.4	13.0	1.09e-04	0	44	0	548405248	21	4392
2026-01-19 23:46:07.83	67.06	44.53	-30.5	-31.9	13.3	1.67e-05	0	44	0	550502400	21	4258
2026-01-19 23:46:08.84	67.52	44.69	-30.4	-31.7	13.5	9.90e-06	0	44	0	552599552	21	4178
2026-01-19 23:46:09.85	67.99	44.85	-30.3	-31.5	13.6	6.10e-06	0	45	0	553648128	21	4118
2026-01-19 23:46:10.85	68.45	45.01	-30.2	-31.2	13.7	5.30e-06	0	44	0	555745280	21	4043
2026-01-19 23:46:11.86	68.92	45.16	-30.1	-30.7	14.1	7.00e-07	0	44	0	557842432	21	3896
2026-01-19 23:46:12.86	69.39	45.31	-30.5	-32.1	13.2	4.50e-06	0	44	0	559939584	21	4293
2026-01-19 23:46:13.86	69.87	45.47	-30.8	-33.0	12.7	5.34e-05	0	44	0	562036736	21	4593
2026-01-19 23:46:14.87	70.35	45.62	-31.1	-33.1	12.3	1.49e-04	0	44	0	563085312	22	4531
2026-01-19 23:46:15.87	70.84	45.76	-30.9	-32.6	12.6	1.51e-04	0	44	0	565182464	22	4369
2026-01-19 23:46:16.88	71.34	45.91	-30.8	-32.4	12.7	7.55e-05	0	45	0	567279616	22	4307
2026-01-19 23:46:17.88	71.83	46.06	-31.2	-33.4	12.1	1.52e-04	0	44	0	569376768	22	4627
2026-01-19 23:46:18.88	72.33	46.20	-31.6	-34.2	11.0	1.16e-03	0	44	0	571473920	23	4868
2026-01-19 23:46:19.88	72.83	46.34	-32.3	-35.9	9.5	9.09e-03	0	44	0	572522496	24	5492
2026-01-19 23:46:20.88	73.34	46.48	-32.5	-36.3	8.8	2.85e-02	0	44	0	574619648	25	5567
2026-01-19 23:46:21.89	73.86	46.62	-32.5	-36.5	8.6	3.77e-02	0	44	0	576716800	25	5675
2026-01-19 23:46:22.90	74.38	46.76	-32.7	-37.1	8.2	4.25e-02	0	44	0	578813952	25	5972
2026-01-19 23:46:23.90	74.90	46.89	-32.8	-37.7	7.7	5.32e-02	0	44	0	580911104	25	6322
2026-01-19 23:46:24.91	75.43	47.02	-32.5	-36.4	8.7	3.83e-02	0	44	0	581959680	25	5628
2026-01-19 23:46:25.91	75.96	47.15	-31.9	-34.0	10.5	7.82e-03	0	44	0	584056832	25	4611
2026-01-19 23:46:26.91	76.50	47.28	-31.3	-32.8	11.8	1.80e-03	0	44	0	586153984	24	4274
2026-01-19 23:46:27.92	77.04	47.40	-31.3	-33.2	11.9	4.69e-04	0	44	0	588251136	23	4477
2026-01-19 23:46:28.92	77.58	47.52	-31.6	-34.1	11.2	8.03e-04	0	44	0	590348288	23	4794
2026-01-19 23:46:29.92	78.13	47.64	-31.4	-33.7	11.6	9.73e-04	0	44	0	591396864	23	4651
2026-01-19 23:46:30.92	78.68	47.76	-31.9	-35.2	10.4	2.14e-03	0	44	0	593494016	23	5258
2026-01-19 23:46:31.91	79.23	47.87	-31.9	-34.6	10.5	3.49e-03	0	44	0	595591168	24	4929
2026-01-19 23:46:32.92	79.80	47.98	-32.0	-35.0	10.2	8.88e-03	0	44	0	597688320	24	5065
2026-01-19 23:46:33.91	80.36	48.09	-32.2	-35.9	9.6	8.44e-03	0	45	0	598736896	24	5462
2026-01-19 23:46:34.92	80.93	48.20	-32.0	-35.1	10.2	5.93e-03	0	44	0	600834048	24	5111
2026-01-19 23:46:35.92	81.50	48.30	-31.9	-34.5	10.6	4.70e-03	0	44	0	602931200	24	4874
2026-01-19 23:46:36.93	82.08	48.41	-31.7	-34.0	10.9	3.91e-03	0	44	0	605028352	24	4688
2026-01-19 23:46:37.92	82.65	48.50	-31.9	-34.7	10.5	2.21e-03	0	44	0	607125504	24	4952
2026-01-19 23:46:38.93	83.24	48.60	-32.1	-35.3	10.0	7.17e-03	0	44	0	608174080	24	5197
2026-01-19 23:46:39.93	83.83	48.69	-31.7	-33.9	10.9	3.46e-03	0	44	0	610271232	24	4634
2026-01-19 23:46:40.94	84.42	48.78	-31.2	-32.9	12.1	1.14e-03	0	44	0	612368384	23	4385
2026-01-19 23:46:41.94	85.02	48.87	-30.5	-31.3	13.4	2.97e-05	0	44	0	614465536	22	3976
2026-01-19 23:46:42.94	85.61	48.95	-30.1	-30.8	14.0	6.10e-06	0	44	0	616562688	21	3917
2026-01-19 23:46:43.94	86.21	49.03	-29.5	-29.7	15.0	3.50e-05	0	45	0	617611264	20	3717
2026-01-19 23:46:44.95	86.82	49.11	-29.7	-30.4	14.6	4.88e-05	0	44	0	619708416	20	3900
2026-01-19 23:46:45.94	87.42	49.18	-30.1	-31.3	14.1	1.50e-06	0	44	0	621805568	20	4158
2026-01-19 23:46:46.95	88.03	49.25	-30.3	-31.9	13.7	5.30e-06	0	44	0	623902720	20	4334
2026-01-19 23:46:47.95	88.65	49.32	-29.5	-29.9	15.0	0.00e+00	0	44	0	625999872	20	3747
2026-01-19 23:46:48.96	89.26	49.38	-29.2	-29.5	15.6	0.00e+00	0	44	0	627048448	19	3732
2026-01-19 23:46:49.96	89.88	49.44	-29.0	-29.1	15.8	0.00e+00	0	45	0	629145600	19	3634
2026-01-19 23:46:50.96	90.50	49.50	-28.9	-28.9	15.9	0.00e+00	0	44	0	631242752	19	3598
2026-01-19 23:46:51.96	91.12	49.55	-29.0	-29.0	15.8	0.00e+00	0	44	0	633339904	19	3618
2026-01-19 23:46:52.96	91.74	49.60	-29.2	-29.6	15.4	0.00e+00	0	44	0	635437056	19	3772
2026-01-19 23:46:53.97	92.37	49.65	-29.2	-29.5	15.6	0.00e+00	0	44	0	636485632	19	3738
2026-01-19 23:46:54.97	93.00	49.69	-29.0	-29.1	15.8	0.00e+00	0	44	0	638582784	19	3647
2026-01-19 23:46:55.97	93.63	49.73	-29.0	-29.5	15.8	0.00e+00	0	44	0	640679936	18	3820
2026-01-19 23:46:56.97	94.26	49.77	-28.9	-29.3	16.0	0.00e+00	0	44	0	642777088	18	3765
2026-01-19 23:46:57.97	94.89	49.80	-28.5	-28.4	16.5	0.00e+00	0	44	0	643825664	18	3547
2026-01-19 23:46:58.97	95.52	49.83	-28.4	-28.1	16.7	0.00e+00	0	44	0	645922816	18	3477
2026-01-19 23:46:59.97	96.15	49.85	-29.1	-29.9	15.7	0.00e+00	0	44	0	648019968	18	3920
2026-01-19 23:47:00.98	96.80	49.87	-29.7	-30.7	14.9	0.00e+00	0	44	0	650117120	19	4066
2026-01-19 23:47:01.98	97.43	49.89	-30.0	-31.1	14.3	7.00e-07	0	44	0	652214272	20	4086
2026-01-19 23:47:02.98	98.07	49.91	-29.6	-30.2	14.8	1.50e-06	0	44	0	653262848	20	3827
2026-01-19 23:47:03.98	98.70	49.92	-29.9	-30.8	14.4	0.00e+00	0	44	0	655360000	20	4000
2026-01-19 23:47:04.99	99.35	49.92	-30.1	-31.4	14.1	7.00e-07	0	44	0	657457152	20	4173
2026-01-19 23:47:05.99	99.98	49.93	-29.9	-30.8	14.4	7.00e-07	0	44	0	659554304	20	3988
2026-01-19 23:47:06.99	100.62	49.92	-29.4	-29.5	15.3	0.00e+00	0	44	0	661651456	20	3648
2026-01-19 23:47:07.99	101.26	49.92	-29.2	-29.5	15.6	0.00e+00	0	44	0	662700032	19	3722
2026-01-19 23:47:09.00	101.90	49.91	-29.2	-29.4	15.6	0.00e+00	0	44	0	664797184	19	3718
2026-01-19 23:47:10.00	102.54	49.90	-29.1	-29.3	15.7	0.00e+00	0	44	0	666894336	19	3675
2026-01-19 23:47:11.01	103.18	49.88	-29.1	-29.3	15.7	0.00e+00	0	44	0	668991488	19	3693
2026-01-19 23:47:12.01	103.81	49.86	-29.1	-29.4	15.6	0.00e+00	0	44	0	671088640	19	3705
2026-01-19 23:47:13.02	104.45	49.84	-29.7	-30.7	14.9	0.00e+00	0	44	0	672137216	19	4068
2026-01-19 23:47:14.02	105.09	49.81	-29.9	-30.8	14.4	0.00e+00	0	44	0	674234368	20	4010
2026-01-19 23:47:15.02	105.72	49.78	-29.5	-29.7	15.0	0.00e+00	0	44	0	676331520	20	3720
2026-01-19 23:47:16.02	106.35	49.75	-29.4	-29.6	15.2	0.00e+00	0	44	0	678428672	20	3687
2026-01-19 23:47:17.02	106.98	49.71	-29.7	-30.9	14.8	0.00e+00	0	44	0	680525824	19	4122
2026-01-19 23:47:18.02	107.61	49.67	-30.3	-32.0	13.7	1.50e-06	0	44	0	681574400	20	4347
2026-01-19 23:47:19.02	108.23	49.63	-30.7	-32.4	13.2	4.19e-05	0	44	0	683671552	21	4381
2026-01-19 23:47:20.03	108.86	49.58	-29.9	-30.5	14.3	5.30e-06	0	44	0	685768704	21	3815
2026-01-19 23:47:21.03	109.49	49.53	-29.9	-30.8	14.5	0.00e+00	0	44	0	687865856	20	3995
2026-01-19 23:47:22.03	110.11	49.47	-30.3	-31.9	13.7	0.00e+00	0	44	0	688914432	20	4331
2026-01-19 23:47:23.03	110.72	49.41	-30.9	-33.0	12.8	4.27e-05	0	44	0	691011584	21	4590
2026-01-19 23:47:24.03	111.34	49.35	-31.5	-33.7	11.5	4.17e-04	0	44	0	693108736	23	4650
2026-01-19 23:47:25.04	111.96	49.28	-31.4	-33.5	11.6	9.58e-04	0	44	0	695205888	23	4594
2026-01-19 23:47:26.04	112.57	49.22	-31.4	-33.6	11.6	4.61e-04	0	44	0	697303040	23	4608
2026-01-19 23:47:27.05	113.18	49.14	-31.5	-33.9	11.6	5.10e-04	0	44	0	698351616	23	4739
2026-01-19 23:47:28.04	113.78	49.07	-31.7	-34.4	11.2	1.22e-03	0	44	0	700448768	23	4906
2026-01-19 23:47:29.05	114.39	48.99	-31.8	-34.7	10.9	2.04e-03	0	44	0	702545920	23	5026
2026-01-19 23:47:30.05	114.99	48.91	-31.6	-34.0	11.3	1.37e-03	0	44	0	704643072	23	4773
2026-01-19 23:47:31.05	115.58	48.82	-31.4	-33.4	12.0	8.72e-04	0	44	0	706740224	23	4540
2026-01-19 23:47:32.06	116.18	48.73	-31.6	-33.9	11.5	8.41e-04	0	44	0	707788800	23	4713
2026-01-19 23:47:33.06	116.77	48.64	-32.0	-34.8	10.5	2.63e-03	0	44	0	709885952	24	4994
2026-01-19 23:47:34.07	117.36	48.55	-32.3	-36.0	9.4	1.24e-02	0	44	0	711983104	24	5511
2026-01-19 23:47:35.07	117.94	48.45	-32.6	-36.6	8.7	1.97e-02	0	44	0	714080256	25	5693
2026-01-19 23:47:36.07	118.52	48.35	-32.7	-37.0	8.5	4.34e-02	0	44	0	716177408	25	5883
2026-01-19 23:47:37.08	119.10	48.25	-32.2	-34.8	10.0	1.59e-02	0	44	0	717225984	25	4910
2026-01-19 23:47:38.07	119.66	48.14	-31.9	-34.5	10.9	2.03e-03	0	44	0	719323136	24	4846
2026-01-19 23:47:39.08	120.23	48.04	-32.4	-35.8	9.3	1.36e-02	0	45	0	721420288	25	5321
2026-01-19 23:47:40.08	120.80	47.92	-32.8	-37.3	8.2	4.60e-02	0	44	0	723517440	25	6044
2026-01-19 23:47:41.09	121.36	47.81	-32.4	-35.8	9.2	3.62e-02	0	44	0	725614592	25	5337
2026-01-19 23:47:42.09	121.91	47.69	-32.3	-35.4	9.6	1.21e-02	0	44	0	726663168	25	5136
2026-01-19 23:47:43.10	122.47	47.58	-32.9	-37.9	7.8	4.58e-02	0	44	0	728760320	25	6375
2026-01-19 23:47:44.10	123.02	47.45	-33.5	-40.1	5.6	3.05e-01	0	44	0	730857472	27	7695
2026-01-19 23:47:45.10	123.56	47.33	-33.3	-39.3	5.9	4.65e-01	0	44	0	732954624	27	7117
2026-01-19 23:47:46.10	124.09	47.21	-33.0	-37.2	7.3	3.02e-01	0	44	0	734003200	27	5877
2026-01-19 23:47:47.10	124.63	47.08	-32.5	-35.5	9.1	3.65e-02	0	44	0	736100352	26	5119
2026-01-19 23:47:48.11	125.16	46.95	-32.3	-35.4	9.7	1.26e-02	0	44	0	738197504	25	5137
2026-01-19 23:47:49.11	125.69	46.81	-32.0	-34.5	10.4	6.09e-03	0	44	0	740294656	25	4778
2026-01-19 23:47:50.10	126.20	46.68	-32.0	-34.2	10.5	4.34e-03	0	44	0	742391808	25	4677
2026-01-19 23:47:51.11	126.72	46.54	-32.1	-34.9	10.1	6.97e-03	0	44	0	743440384	25	4924
2026-01-19 23:47:52.12	127.24	46.40	-31.8	-34.1	10.9	4.82e-03	0	44	0	745537536	24	4715
2026-01-19 23:47:53.12	127.74	46.26	-31.8	-34.0	11.0	1.24e-03	0	45	0	747634688	24	4677
2026-01-19 23:47:54.13	128.25	46.12	-32.3	-36.0	9.5	5.12e-03	0	44	0	749731840	24	5480
2026-01-19 23:47:55.13	128.75	45.97	-32.3	-36.0	9.5	1.25e-02	0	44	0	751828992	24	5512
2026-01-19 23:47:56.13	129.24	45.83	-32.4	-36.5	9.1	1.34e-02	0	45	0	752877568	24	5734
2026-01-19 23:47:57.14	129.74	45.68	-32.0	-35.0	10.2	8.90e-03	0	45	0	754974720	24	5049
2026-01-19 23:47:58.13	130.22	45.53	-32.4	-36.4	9.4	9.70e-03	0	44	0	757071872	24	5687
2026-01-19 23:47:59.13	130.70	45.38	-33.2	-38.8	6.7	6.10e-02	0	45	0	759169024	26	6870
2026-01-19 23:48:00.13	131.17	45.23	-33.3	-40.0	5.7	3.87e-01	0	44	0	761266176	26	7785
2026-01-19 23:48:01.14	131.65	45.07	-32.7	-37.0	8.0	1.65e-01	0	44	0	762314752	26	5846
2026-01-19 23:48:02.14	132.11	44.92	-31.9	-34.7	10.6	2.04e-02	0	44	0	764411904	24	4986
2026-01-19 23:48:03.15	132.58	44.76	-31.4	-33.2	11.5	1.70e-03	0	44	0	766509056	24	4414
2026-01-19 23:48:04.15	133.03	44.60	-31.4	-33.1	11.6	1.24e-03	0	44	0	768606208	24	4386
2026-01-19 23:48:05.16	133.49	44.44	-31.4	-33.6	11.6	7.51e-04	0	44	0	770703360	23	4616
2026-01-19 23:48:06.16	133.94	44.28	-31.5	-33.8	11.5	8.25e-04	0	44	0	771751936	23	4687
2026-01-19 23:48:07.16	134.38	44.11	-30.8	-31.7	12.9	1.80e-04	0	44	0	773849088	23	4000
2026-01-19 23:48:08.16	134.82	43.95	-30.3	-30.8	13.8	3.20e-05	0	44	0	775946240	22	3836
2026-01-19 23:48:09.16	135.26	43.79	-30.1	-30.9	14.1	2.20e-06	0	44	0	778043392	21	3947
2026-01-19 23:48:10.16	135.69	43.62	-30.4	-31.6	13.6	6.10e-06	0	44	0	780140544	21	4136
2026-01-19 23:48:11.16	136.11	43.45	-30.1	-30.8	14.1	2.91e-04	0	44	0	781189120	21	3908
2026-01-19 23:48:12.17	136.54	43.28	-29.9	-30.2	14.4	7.00e-07	0	44	0	783286272	21	3748
2026-01-19 23:48:13.17	136.96	43.12	-29.5	-29.9	15.0	1.90e-05	0	44	0	785383424	20	3744
2026-01-19 23:48:14.18	137.37	42.94	-30.2	-31.5	14.0	2.20e-06	0	44	0	787480576	20	4195
2026-01-19 23:48:15.18	137.78	42.77	-30.2	-31.7	13.8	5.30e-06	0	44	0	788529152	20	4264
2026-01-19 23:48:16.18	138.18	42.60	-30.6	-32.1	13.4	3.65e-04	0	44	0	790626304	21	4283
2026-01-19 23:48:17.18	138.58	42.43	-30.1	-30.9	14.0	3.00e-06	0	44	0	792723456	21	3941
2026-01-19 23:48:18.18	138.98	42.26	-29.9	-30.8	14.4	0.00e+00	0	44	0	794820608	20	4004
2026-01-19 23:48:19.18	139.37	42.09	-30.1	-31.4	14.1	5.29e-04	0	44	0	796917760	20	4171
2026-01-19 23:48:20.18	139.76	41.91	-30.3	-31.8	13.8	5.29e-04	0	44	0	797966336	20	4287
2026-01-19 23:48:21.19	140.15	41.73	-30.6	-32.1	13.3	1.37e-05	0	44	0	800063488	21	4302
2026-01-19 23:48:22.19	140.53	41.56	-30.7	-32.4	13.1	2.53e-04	0	44	0	802160640	21	4410
2026-01-19 23:48:23.19	140.90	41.38	-30.9	-32.6	12.7	2.67e-04	0	44	0	804257792	22	4370
2026-01-19 23:48:24.18	141.27	41.21	-30.2	-31.0	14.0	9.10e-06	0	44	0	806354944	21	3975
2026-01-19 23:48:25.18	141.64	41.03	-29.6	-30.1	14.8	4.65e-04	0	44	0	807403520	20	3805
2026-01-19 23:48:26.18	142.00	40.86	-29.9	-31.3	14.5	5.98e-04	0	44	0	809500672	19	4243
2026-01-19 23:48:27.19	142.36	40.68	-30.6	-32.2	13.2	6.10e-06	0	44	0	811597824	21	4335
2026-01-19 23:48:28.19	142.72	40.50	-30.8	-32.9	12.8	2.97e-05	0	44	0	813694976	21	4550
2026-01-19 23:48:29.19	143.07	40.32	-31.2	-33.4	12.1	8.13e-04	0	44	0	815792128	22	4644
2026-01-19 23:48:30.19	143.42	40.14	-31.4	-34.0	11.7	5.50e-04	0	44	0	816840704	22	4869
2026-01-19 23:48:31.20	143.76	39.96	-30.9	-32.5	12.7	1.33e-04	0	44	0	818937856	22	4349
2026-01-19 23:48:32.20	144.10	39.78	-30.9	-33.0	12.6	7.78e-05	0	44	0	821035008	21	4609
2026-01-19 23:48:33.20	144.44	39.61	-31.0	-32.7	12.5	9.00e-05	0	44	0	823132160	22	4420
2026-01-19 23:48:34.21	144.78	39.43	-31.8	-34.7	10.9	8.54e-04	0	44	0	825229312	23	5060
2026-01-19 23:48:35.21	145.11	39.25	-32.1	-35.5	9.8	4.23e-03	0	44	0	826277888	24	5299
2026-01-19 23:48:36.21	145.43	39.07	-32.5	-36.6	8.5	2.86e-02	0	44	0	828375040	25	5760
2026-01-19 23:48:37.22	145.76	38.89	-32.0	-35.1	10.0	1.62e-02	0	45	0	830472192	24	5143
2026-01-19 23:48:38.22	146.08	38.71	-31.3	-32.8	11.8	1.42e-03	0	44	0	832569344	24	4262
2026-01-19 23:48:39.22	146.39	38.53	-31.0	-32.3	12.5	2.00e-04	0	44	0	833617920	23	4196
2026-01-19 23:48:40.22	146.70	38.35	-31.2	-33.4	12.1	1.58e-03	0	44	0	835715072	22	4642
2026-01-19 23:48:41.22	147.01	38.17	-31.6	-34.3	11.0	6.48e-04	0	44	0	837812224	23	4916
2026-01-19 23:48:42.22	147.32	37.99	-32.1	-35.5	9.8	7.59e-03	0	44	0	839909376	24	5296
2026-01-19 23:48:43.22	147.62	37.81	-31.9	-34.9	10.2	9.68e-03	0	44	0	842006528	24	5050
2026-01-19 23:48:44.23	147.92	37.63	-31.4	-33.5	11.5	1.24e-03	0	44	0	843055104	23	4615
2026-01-19 23:48:45.23	148.22	37.45	-31.1	-32.6	12.2	2.22e-04	0	44	0	845152256	23	4296
2026-01-19 23:48:46.24	148.51	37.27	-31.1	-33.2	12.2	3.67e-04	0	44	0	847249408	22	4579
2026-01-19 23:48:47.24	148.80	37.09	-31.0	-32.8	12.5	1.87e-03	0	45	0	849346560	22	4449
2026-01-19 23:48:48.24	149.09	36.91	-31.8	-34.8	10.7	2.34e-03	0	44	0	851443712	23	5105
2026-01-19 23:48:49.25	149.38	36.73	-32.7	-37.2	8.1	3.02e-02	0	44	0	852492288	25	6066
2026-01-19 23:48:50.25	149.66	36.55	-32.7	-37.3	7.9	9.12e-02	0	44	0	854589440	25	6119
2026-01-19 23:48:51.25	149.93	36.38	-32.2	-35.2	9.5	2.04e-02	0	44	0	856686592	25	5113
2026-01-19 23:48:52.26	150.21	36.20	-31.3	-32.9	11.7	2.89e-03	0	44	0	858783744	24	4304
2026-01-19 23:48:53.26	150.48	36.02	-31.0	-32.9	12.4	3.14e-04	0	44	0	860880896	22	4464
2026-01-19 23:48:54.27	150.75	35.84	-30.9	-32.5	12.7	6.86e-05	0	45	0	861929472	22	4334
2026-01-19 23:48:55.27	151.02	35.66	-31.3	-33.6	11.9	2.82e-04	0	44	0	864026624	22	4733
2026-01-19 23:48:56.28	151.28	35.48	-31.8	-35.0	10.5	9.32e-04	0	44	0	866123776	23	5194
2026-01-19 23:48:57.28	151.54	35.31	-32.4	-36.5	9.0	1.02e-02	0	44	0	868220928	24	5756
2026-01-19 23:48:58.28	151.80	35.13	-31.8	-34.6	10.4	9.06e-03	0	44	0	870318080	24	4928
2026-01-19 23:48:59.27	152.05	34.96	-30.7	-32.1	12.8	1.03e-03	0	44	0	871366656	22	4216
2026-01-19 23:49:00.27	152.30	34.78	-29.9	-30.4	14.2	1.52e-05	0	44	0	873463808	21	3814
2026-01-19 23:49:01.28	152.55	34.61	-29.7	-30.4	14.6	0.00e+00	0	44	0	875560960	20	3893
2026-01-19 23:49:02.28	152.80	34.43	-30.0	-31.1	14.1	7.00e-07	0	44	0	877658112	20	4098
2026-01-19 23:49:03.28	153.04	34.26	-30.6	-32.2	13.2	4.50e-06	0	44	0	878706688	21	4328
2026-01-19 23:49:04.27	153.28	34.09	-31.8	-34.8	10.7	1.51e-04	0	44	0	880803840	23	5103
2026-01-19 23:49:05.28	153.52	33.91	-32.3	-36.2	9.2	1.67e-02	0	44	0	882900992	24	5631
2026-01-19 23:49:06.28	153.76	33.74	-32.7	-37.2	8.0	7.41e-02	0	44	0	884998144	25	6080
2026-01-19 23:49:07.28	153.99	33.57	-32.5	-36.6	8.5	8.68e-02	0	44	0	887095296	25	5730
2026-01-19 23:49:08.29	154.23	33.39	-32.0	-34.7	9.9	1.30e-02	0	44	0	888143872	25	4897
2026-01-19 23:49:09.29	154.46	33.22	-31.4	-33.1	11.5	2.32e-03	0	44	0	890241024	24	4364
2026-01-19 23:49:10.29	154.68	33.05	-31.0	-32.4	12.3	2.60e-04	0	44	0	892338176	23	4226
2026-01-19 23:49:11.30	154.91	32.88	-31.2	-33.4	12.0	2.95e-04	0	44	0	894435328	22	4644
2026-01-19 23:49:12.30	155.13	32.71	-31.3	-33.8	11.3	5.19e-04	0	45	0	896532480	22	4799
2026-01-19 23:49:13.30	155.35	32.54	-31.8	-34.8	10.6	2.18e-03	0	44	0	897581056	23	5120
2026-01-19 23:49:14.31	155.57	32.37	-32.4	-36.5	8.9	7.26e-03	0	44	0	899678208	24	5810
2026-01-19 23:49:15.30	155.79	32.20	-32.6	-37.0	8.0	5.19e-02	0	44	0	901775360	25	5981
2026-01-19 23:49:16.30	156.00	32.04	-32.6	-37.0	8.1	6.09e-02	0	44	0	903872512	25	5971
2026-01-19 23:49:17.31	156.21	31.87	-32.4	-36.0	8.8	4.73e-02	0	44	0	905969664	25	5468
2026-01-19 23:49:18.32	156.42	31.70	-32.2	-36.1	9.2	2.51e-02	0	44	0	907018240	24	5591
2026-01-19 23:49:19.32	156.63	31.53	-32.1	-35.5	9.6	2.00e-02	0	44	0	909115392	24	5318
2026-01-19 23:49:20.31	156.83	31.37	-31.6	-33.6	11.1	2.72e-03	0	44	0	911212544	24	4575
2026-01-19 23:49:21.32	157.04	31.20	-31.2	-33.0	11.8	9.24e-04	0	45	0	913309696	23	4443
2026-01-19 23:49:22.32	157.24	31.04	-31.3	-33.7	11.7	1.13e-03	0	44	0	915406848	22	4780
2026-01-19 23:49:23.33	157.44	30.87	-31.5	-33.9	11.2	1.20e-03	0	45	0	916455424	23	4748
2026-01-19 23:49:24.33	157.64	30.71	-31.7	-34.6	10.7	1.66e-03	0	44	0	918552576	23	5034
2026-01-19 23:49:25.34	157.83	30.54	-31.9	-35.5	10.0	7.40e-03	0	45	0	920649728	23	5415
2026-01-19 23:49:26.34	158.03	30.38	-32.5	-37.0	8.5	2.08e-02	0	44	0	922746880	24	6073
2026-01-19 23:49:27.34	158.22	30.22	-32.7	-37.5	7.7	5.69e-02	0	44	0	924844032	25	6274
2026-01-19 23:49:28.34	158.41	30.06	-32.5	-36.7	8.3	5.93e-02	0	44	0	925892608	25	5857
2026-01-19 23:49:29.34	158.59	29.90	-32.1	-34.9	9.6	2.11e-02	0	44	0	927989760	25	5011
2026-01-19 23:49:30.35	158.78	29.74	-31.9	-34.8	10.1	8.97e-03	0	44	0	930086912	24	5051
2026-01-19 23:49:31.35	158.97	29.58	-31.6	-34.3	10.8	4.97e-03	0	45	0	932184064	23	4915
2026-01-19 23:49:32.35	159.15	29.42	-31.6	-34.2	10.9	2.43e-03	0	44	0	933232640	23	4878
2026-01-19 23:49:33.35	159.33	29.26	-31.7	-34.7	10.6	4.69e-03	0	44	0	935329792	23	5071
2026-01-19 23:49:34.35	159.51	29.10	-31.6	-34.4	10.8	2.54e-03	0	44	0	937426944	23	4982
2026-01-19 23:49:35.35	159.68	28.94	-31.8	-35.0	10.4	4.44e-03	0	44	0	939524096	23	5194
2026-01-19 23:49:36.35	159.86	28.79	-31.9	-35.2	10.1	9.09e-03	0	44	0	941621248	23	5320
2026-01-19 23:49:37.35	160.03	28.63	-32.2	-35.9	9.3	1.04e-02	0	44	0	942669824	24	5515
2026-01-19 23:49:38.36	160.21	28.48	-32.1	-35.7	9.4	1.75e-02	0	44	0	944766976	24	5450
2026-01-19 23:49:39.36	160.38	28.32	-31.9	-35.5	9.8	1.07e-02	0	44	0	946864128	23	5459
2026-01-19 23:49:40.36	160.55	28.17	-32.0	-35.4	9.7	1.42e-02	0	44	0	948961280	24	5298
2026-01-19 23:49:41.36	160.71	28.01	-31.4	-33.2	11.2	5.32e-03	0	44	0	951058432	24	4452
2026-01-19 23:49:42.36	160.88	27.86	-31.1	-33.3	11.9	2.26e-03	0	44	0	952107008	22	4634
2026-01-19 23:49:43.36	161.04	27.71	-30.6	-32.5	12.7	2.13e-03	0	44	0	954204160	21	4448
2026-01-19 23:49:44.36	161.20	27.56	-30.0	-30.8	13.9	1.44e-05	0	45	0	956301312	21	3927
2026-01-19 23:49:45.37	161.37	27.40	-30.1	-31.6	13.6	2.92e-04	0	44	0	958398464	20	4271
2026-01-19 23:49:46.37	161.53	27.25	-29.9	-30.9	14.1	2.26e-03	0	44	0	960495616	20	4060
2026-01-19 23:49:47.38	161.69	27.10	-29.6	-30.1	14.6	2.20e-06	0	44	0	961544192	20	3842
2026-01-19 23:49:48.39	161.84	26.95	-29.7	-30.9	14.5	3.51e-04	0	44	0	963641344	19	4129
2026-01-19 23:49:49.39	162.00	26.80	-29.6	-30.6	14.6	1.72e-03	0	44	0	965738496	19	4067
2026-01-19 23:49:50.38	162.15	26.65	-29.8	-31.3	14.1	1.50e-06	0	44	0	967835648	19	4277
2026-01-19 23:49:51.38	162.30	26.51	-30.0	-31.2	13.8	1.91e-03	0	45	0	969932800	20	4164
2026-01-19 23:49:52.38	162.46	26.36	-30.2	-31.7	13.6	1.71e-03	0	45	0	970981376	20	4307
2026-01-19 23:49:53.38	162.61	26.21	-30.5	-32.2	12.9	3.89e-05	0	44	0	973078528	21	4370
2026-01-19 23:49:54.38	162.75	26.07	-30.9	-33.4	12.0	2.12e-03	0	44	0	975175680	21	4793
2026-01-19 23:49:55.39	162.90	25.92	-31.2	-33.7	11.6	8.17e-04	0	44	0	977272832	22	4793
2026-01-19 23:49:56.39	163.05	25.78	-31.3	-33.9	11.4	6.66e-04	0	44	0	978321408	22	4907
2026-01-19 23:49:57.39	163.19	25.63	-31.2	-33.6	11.6	3.32e-03	0	44	0	980418560	22	4756
2026-01-19 23:49:58.39	163.34	25.49	-31.0	-33.0	12.0	2.82e-03	0	45	0	982515712	22	4546
2026-01-19 23:49:59.39	163.48	25.35	-30.6	-31.9	12.7	1.23e-04	0	44	0	984612864	22	4195
2026-01-19 23:50:00.39	163.62	25.20	-30.4	-32.2	13.2	1.66e-03	0	45	0	986710016	20	4474
2026-01-19 23:50:01.40	163.76	25.06	-30.1	-31.6	13.6	2.21e-03	0	44	0	987758592	20	4270
2026-01-19 23:50:02.40	163.90	24.92	-30.3	-32.1	13.3	2.05e-05	0	45	0	989855744	20	4434
2026-01-19 23:50:03.41	164.04	24.78	-30.3	-31.6	13.2	1.78e-03	0	45	0	991952896	21	4174
2026-01-19 23:50:04.41	164.17	24.64	-29.9	-31.0	13.9	2.07e-03	0	44	0	994050048	20	4102
2026-01-19 23:50:05.40	164.31	24.50	-30.2	-31.8	13.4	5.26e-05	0	44	0	996147200	20	4324
2026-01-19 23:50:06.41	164.44	24.36	-30.1	-31.6	13.6	1.51e-03	0	44	0	997195776	20	4280
2026-01-19 23:50:07.42	164.57	24.22	-30.2	-31.9	13.3	1.39e-03	0	44	0	999292928	20	4385
2026-01-19 23:50:08.42	164.71	24.08	-30.7	-32.8	12.4	5.79e-05	0	44	0	1001390080	21	4605
2026-01-19 23:50:09.42	164.84	23.95	-30.6	-32.5	12.6	8.77e-05	0	44	0	1003487232	21	4476
2026-01-19 23:50:10.42	164.97	23.81	-30.7	-33.0	12.3	1.64e-03	0	44	0	1005584384	21	4663
2026-01-19 23:50:11.42	165.09	23.67	-30.8	-33.2	12.1	4.04e-04	0	44	0	1006632960	21	4728
2026-01-19 23:50:12.43	165.22	23.54	-31.0	-33.4	11.6	2.64e-03	0	44	0	1008730112	22	4714
2026-01-19 23:50:13.43	165.35	23.40	-31.4	-34.6	10.7	2.01e-03	0	44	0	1010827264	22	5205
2026-01-19 23:50:14.44	165.47	23.27	-30.9	-33.0	11.9	1.02e-03	0	45	0	1012924416	22	4582
2026-01-19 23:50:15.44	165.60	23.13	-30.6	-32.7	12.5	2.16e-03	0	44	0	1015021568	21	4546
2026-01-19 23:50:16.44	165.72	23.00	-30.5	-32.3	12.7	1.04e-04	0	44	0	1016070144	21	4430
2026-01-19 23:50:17.45	165.84	22.87	-30.0	-31.0	13.6	3.81e-05	0	44	0	1018167296	21	4010
2026-01-19 23:50:18.45	165.96	22.74	-30.0	-31.8	13.8	1.30e-03	0	44	0	1020264448	19	4427
2026-01-19 23:50:19.45	166.08	22.60	-29.8	-30.9	13.9	1.38e-03	0	44	0	1022361600	20	4069
2026-01-19 23:50:20.44	166.20	22.47	-29.7	-30.7	14.0	3.80e-06	0	44	0	1023410176	20	4023
2026-01-19 23:50:21.45	166.32	22.34	-29.9	-31.7	13.8	6.03e-04	0	44	0	1025507328	19	4387
2026-01-19 23:50:22.44	166.44	22.21	-29.8	-31.2	14.1	9.31e-04	0	45	0	1027604480	19	4257
2026-01-19 23:50:23.45	166.55	22.08	-29.8	-31.3	14.1	1.50e-06	0	44	0	1029701632	19	4258
2026-01-19 23:50:24.45	166.67	21.96	-29.9	-31.0	13.9	4.41e-04	0	44	0	1031798784	20	4109
2026-01-19 23:50:25.45	166.78	21.83	-29.8	-31.4	14.0	5.68e-04	0	45	0	1032847360	19	4296
2026-01-19 23:50:26.45	166.90	21.70	-29.9	-31.5	13.9	4.50e-06	0	45	0	1034944512	19	4341
2026-01-19 23:50:27.45	167.01	21.57	-30.1	-31.6	13.5	5.30e-06	0	45	0	1037041664	20	4274
2026-01-19 23:50:28.46	167.12	21.45	-30.3	-32.1	13.2	5.31e-04	0	45	0	1039138816	20	4447
2026-01-19 23:50:29.46	167.23	21.32	-30.5	-32.2	12.7	2.82e-05	0	44	0	1041235968	21	4384
2026-01-19 23:50:30.46	167.34	21.19	-30.6	-32.4	12.6	6.94e-05	0	45	0	1042284544	21	4449
2026-01-19 23:50:31.46	167.45	21.07	-30.6	-32.6	12.3	1.54e-04	0	45	0	1044381696	21	4519
2026-01-19 23:50:32.46	167.56	20.94	-30.9	-33.5	11.9	1.95e-04	0	45	0	1046478848	21	4820
2026-01-19 23:50:33.46	167.67	20.82	-31.0	-33.2	11.7	4.75e-04	0	45	0	1048576000	22	4634
2026-01-19 23:50:34.47	167.77	20.70	-30.8	-32.7	12.1	4.90e-04	0	44	0	1050673152	22	4448
2026-01-19 23:50:35.48	167.88	20.57	-30.9	-33.0	11.9	4.94e-04	0	44	0	1051721728	22	4575
2026-01-19 23:50:36.48	167.99	20.45	-31.0	-33.1	11.7	1.48e-03	0	44	0	1053818880	22	4603
2026-01-19 23:50:37.48	168.09	20.33	-30.9	-33.4	11.9	2.75e-04	0	44	0	1055916032	21	4812
2026-01-19 23:50:38.48	168.19	20.21	-30.8	-33.2	12.0	3.03e-04	0	44	0	1058013184	21	4742
2026-01-19 23:50:39.49	168.30	20.08	-30.8	-33.0	12.1	8.10e-04	0	45	0	1060110336	21	4661
2026-01-19 23:50:40.49	168.40	19.96	-30.8	-33.3	12.0	2.77e-04	0	44	0	1061158912	21	4758
2026-01-19 23:50:41.50	168.50	19.84	-30.7	-32.9	12.2	3.30e-04	0	44	0	1063256064	21	4621
2026-01-19 23:50:42.50	168.60	19.72	-30.5	-32.1	12.8	1.09e-04	0	44	0	1065353216	21	4350
2026-01-19 23:50:43.51	168.70	19.60	-30.7	-32.8	12.3	1.27e-04	0	44	0	1067450368	21	4580
2026-01-19 23:50:44.51	168.80	19.49	-30.7	-32.8	12.3	2.62e-04	0	44	0	1069547520	21	4576
2026-01-19 23:50:45.51	168.90	19.37	-30.4	-31.9	12.9	5.64e-05	0	45	0	1070596096	21	4277
2026-01-19 23:50:46.51	168.99	19.25	-30.4	-32.5	12.8	5.29e-04	0	44	0	1072693248	20	4575
2026-01-19 23:50:47.52	169.09	19.13	-30.6	-32.4	12.6	1.12e-04	0	45	0	1074790400	21	4450
2026-01-19 23:50:48.53	169.19	19.01	-31.0	-33.6	11.7	3.04e-04	0	44	0	1076887552	21	4876
2026-01-19 23:50:49.53	169.28	18.90	-31.1	-33.6	11.4	8.42e-04	0	45	0	1077936128	22	4779
2026-01-19 23:50:50.53	169.38	18.78	-31.1	-33.4	11.5	8.44e-04	0	45	0	1080033280	22	4700
2026-01-19 23:50:51.54	169.47	18.67	-31.3	-34.1	11.0	1.87e-03	0	44	0	1082130432	22	4996
2026-01-19 23:50:52.53	169.56	18.55	-31.4	-34.4	10.8	1.63e-03	0	45	0	1084227584	22	5103
2026-01-19 23:50:53.53	169.66	18.44	-31.3	-34.2	10.9	2.87e-03	0	45	0	1086324736	22	5028
2026-01-19 23:50:54.54	169.75	18.32	-31.3	-34.4	10.8	1.90e-03	0	45	0	1087373312	22	5091
2026-01-19 23:50:55.54	169.84	18.21	-31.3	-34.1	11.1	3.31e-03	0	45	0	1089470464	22	4974
2026-01-19 23:50:56.54	169.93	18.10	-30.2	-32.5	11.5	1.08e-03	0	44	0	1091567616	22	4690
2026-01-19 23:50:57.54	170.02	17.99	-30.9	-33.4	11.7	4.15e-04	0	44	0	1093664768	21	4808
2026-01-19 23:50:58.53	170.11	17.88	-31.0	-33.2	11.7	8.02e-04	0	44	0	1095761920	22	4634
2026-01-19 23:50:59.54	170.20	17.76	-31.3	-34.2	10.8	1.09e-03	0	44	0	1096810496	22	5025
2026-01-19 23:51:00.52	170.28	17.65	-31.5	-34.5	10.2	3.12e-03	0	45	0	1098907648	23	5054
2026-01-19 23:51:01.52	170.37	17.54	-31.4	-33.9	10.7	4.01e-03	0	44	0	1101004800	23	4837
2026-01-19 23:51:02.53	170.46	17.43	-31.2	-33.9	11.0	2.33e-03	0	45	0	1103101952	22	4922
2026-01-19 23:51:03.53	170.54	17.32	-30.9	-33.6	11.6	1.05e-03	0	44	0	1105199104	21	4878
2026-01-19 23:51:04.53	170.63	17.21	-31.0	-33.7	11.6	4.97e-04	0	44	0	1106247680	21	4921
2026-01-19 23:51:05.53	170.71	17.10	-30.9	-33.4	11.7	5.19e-04	0	44	0	1108344832	21	4809
2026-01-19 23:51:06.53	170.80	17.00	-30.8	-33.3	11.8	5.29e-04	0	45	0	1110441984	21	4785
2026-01-19 23:51:07.54	170.88	16.89	-31.0	-33.7	11.5	7.74e-04	0	45	0	1112539136	21	4946
2026-01-19 23:51:08.54	170.97	16.78	-30.3	-32.7	11.9	5.60e-04	0	45	0	1113587712	21	4722
2026-01-19 23:51:09.55	171.05	16.67	-30.4	-32.6	12.4	1.43e-04	0	44	0	1115684864	20	4618
2026-01-19 23:51:10.55	171.13	16.56	-30.1	-31.8	13.1	5.18e-05	0	45	0	1117782016	20	4372
2026-01-19 23:51:11.56	171.21	16.46	-29.9	-31.2	13.5	2.97e-05	0	45	0	1119879168	20	4193
2026-01-19 23:51:12.56	171.29	16.35	-29.9	-31.7	13.6	6.10e-06	0	44	0	1121976320	19	4425
2026-01-19 23:51:13.56	171.38	16.25	-30.0	-31.5	13.3	1.37e-05	0	44	0	1123024896	20	4285
2026-01-19 23:51:14.56	171.46	16.14	-30.0	-31.5	13.3	4.58e-04	0	45	0	1125122048	20	4292
2026-01-19 23:51:15.57	171.54	16.04	-30.3	-32.3	12.7	5.03e-05	0	44	0	1127219200	20	4556
2026-01-19 23:51:16.57	171.61	15.93	-30.3	-32.3	12.7	7.40e-05	0	45	0	1129316352	20	4565
2026-01-19 23:51:17.57	171.69	15.83	-30.4	-32.6	12.5	4.99e-04	0	44	0	1131413504	20	4670
2026-01-19 23:51:18.57	171.77	15.72	-30.5	-32.5	12.2	5.31e-04	0	45	0	1132462080	21	4542
2026-01-19 23:51:19.57	171.85	15.62	-30.6	-32.9	11.9	2.54e-04	0	44	0	1134559232	21	4681
2026-01-19 23:51:20.57	171.92	15.52	-30.7	-33.2	11.7	4.02e-04	0	44	0	1136656384	21	4797
2026-01-19 23:51:21.57	172.00	15.42	-30.6	-32.9	11.9	7.39e-04	0	45	0	1138753536	21	4696
2026-01-19 23:51:22.56	172.07	15.31	-30.5	-32.6	12.1	3.26e-04	0	45	0	1140850688	21	4605
2026-01-19 23:51:23.56	172.15	15.21	-30.7	-33.3	11.6	3.78e-04	0	44	0	1141899264	21	4865
2026-01-19 23:51:24.57	172.23	15.11	-30.6	-32.9	11.9	8.25e-04	0	44	0	1143996416	21	4694
2026-01-19 23:51:25.57	172.30	15.01	-30.6	-32.9	11.8	4.22e-04	0	44	0	1146093568	21	4719
2026-01-19 23:51:26.56	172.37	14.91	-30.7	-33.1	11.7	5.75e-04	0	45	0	1148190720	21	4783
2026-01-19 23:51:27.56	172.45	14.81	-30.7	-33.1	11.7	4.32e-04	0	44	0	1150287872	21	4775
2026-01-19 23:51:28.56	172.52	14.71	-30.7	-33.3	11.6	6.13e-04	0	44	0	1151336448	21	4855
2026-01-19 23:51:29.56	172.59	14.61	-30.6	-32.9	11.9	4.79e-04	0	45	0	1153433600	21	4697
2026-01-19 23:51:30.56	172.66	14.51	-30.6	-32.8	11.9	3.91e-04	0	44	0	1155530752	21	4657
2026-01-19 23:51:31.56	172.73	14.41	-30.6	-33.0	11.8	4.39e-04	0	44	0	1157627904	21	4728
2026-01-19 23:51:32.57	172.81	14.32	-30.5	-32.7	12.0	1.03e-03	0	44	0	1158676480	21	4611
2026-01-19 23:51:33.57	172.88	14.22	-30.4	-32.7	12.4	2.25e-04	0	44	0	1160773632	20	4702
2026-01-19 23:51:34.58	172.95	14.12	-30.2	-32.2	12.7	9.53e-05	0	45	0	1162870784	20	4516
2026-01-19 23:51:35.58	173.02	14.02	-30.2	-32.0	12.8	5.04e-04	0	44	0	1164967936	20	4462
2026-01-19 23:51:36.58	173.09	13.92	-30.2	-32.0	12.9	3.87e-04	0	45	0	1167065088	20	4433
2026-01-19 23:51:37.58	173.16	13.83	-30.0	-31.5	13.2	7.78e-05	0	45	0	1168113664	20	4284
2026-01-19 23:51:38.59	173.22	13.73	-30.0	-31.4	13.2	2.84e-04	0	44	0	1170210816	20	4258
2026-01-19 23:51:39.60	173.29	13.63	-30.0	-31.5	13.2	2.55e-04	0	44	0	1172307968	20	4281
2026-01-19 23:51:40.60	173.36	13.54	-29.7	-30.7	13.7	6.80e-06	0	44	0	1174405120	20	4036
2026-01-19 23:51:41.61	173.43	13.44	-29.7	-30.7	13.7	2.13e-04	0	44	0	1176502272	20	4049
2026-01-19 23:51:42.61	173.50	13.35	-29.7	-31.1	13.8	2.27e-04	0	45	0	1177550848	19	4242
2026-01-19 23:51:43.62	173.56	13.25	-29.8	-31.5	13.6	3.80e-06	0	44	0	1179648000	19	4360
2026-01-19 23:51:44.62	173.63	13.16	-29.8	-31.6	13.6	9.90e-06	0	44	0	1181745152	19	4379
2026-01-19 23:51:45.63	173.69	13.06	-29.8	-31.5	13.5	5.23e-04	0	44	0	1183842304	19	4376
2026-01-19 23:51:46.62	173.76	12.97	-29.7	-31.2	13.7	6.80e-06	0	44	0	1185939456	19	4281
2026-01-19 23:51:47.63	173.82	12.88	-30.0	-31.9	13.3	7.93e-05	0	45	0	1186988032	19	4480
2026-01-19 23:51:48.64	173.89	12.78	-29.9	-31.7	13.4	6.20e-04	0	45	0	1189085184	19	4431
2026-01-19 23:51:49.64	173.95	12.69	-30.0	-31.7	13.0	1.52e-05	0	44	0	1191182336	20	4342
2026-01-19 23:51:50.65	174.02	12.60	-30.1	-31.8	12.9	7.99e-04	0	44	0	1193279488	20	4389
2026-01-19 23:51:51.65	174.08	12.51	-30.2	-32.2	12.7	4.42e-05	0	45	0	1195376640	20	4504
2026-01-19 23:51:52.66	174.14	12.41	-30.3	-32.5	12.5	1.50e-04	0	44	0	1196425216	20	4614
2026-01-19 23:51:53.66	174.21	12.32	-30.2	-32.1	12.7	7.61e-04	0	44	0	1198522368	20	4483
2026-01-19 23:51:54.66	174.27	12.23	-30.4	-32.6	12.4	8.50e-04	0	44	0	1200619520	20	4651
2026-01-19 23:51:55.66	174.33	12.14	-30.4	-32.6	12.4	1.91e-04	0	44	0	1202716672	20	4643
2026-01-19 23:51:56.67	174.39	12.05	-30.5	-32.9	12.1	8.60e-04	0	45	0	1204813824	20	4782
2026-01-19 23:51:57.67	174.45	11.96	-30.5	-32.4	12.2	9.50e-04	0	44	0	1205862400	21	4502
2026-01-19 23:51:58.67	174.51	11.87	-30.5	-32.4	12.1	2.08e-04	0	45	0	1207959552	21	4512
2026-01-19 23:51:59.67	174.58	11.78	-30.4	-32.7	12.3	7.23e-04	0	44	0	1210056704	20	4710
2026-01-19 23:52:00.67	174.64	11.69	-30.5	-32.6	12.0	6.96e-04	0	44	0	1212153856	21	4556
2026-01-19 23:52:01.67	174.69	11.60	-30.4	-32.2	12.3	2.43e-04	0	45	0	1213202432	21	4421
2026-01-19 23:52:02.67	174.75	11.52	-30.6	-32.7	11.9	7.62e-04	0	44	0	1215299584	21	4603
2026-01-19 23:52:03.67	174.81	11.43	-30.6	-32.8	11.9	1.01e-03	0	44	0	1217396736	21	4622
2026-01-19 23:52:04.67	174.87	11.34	-30.4	-32.3	12.2	2.70e-04	0	44	0	1219493888	21	4477
2026-01-19 23:52:05.67	174.93	11.25	-30.4	-32.2	12.2	4.69e-04	0	44	0	1221591040	21	4438
2026-01-19 23:52:06.67	174.99	11.17	-30.6	-32.8	11.8	7.58e-04	0	44	0	1222639616	21	4658
2026-01-19 23:52:07.67	175.05	11.08	-30.4	-32.2	12.2	5.35e-04	0	45	0	1224736768	21	4445
2026-01-19 23:52:08.67	175.10	10.99	-30.3	-32.4	12.4	5.23e-04	0	44	0	1226833920	20	4601
2026-01-19 23:52:09.68	175.16	10.90	-30.4	-32.7	12.2	5.45e-04	0	44	0	1228931072	20	4701
2026-01-19 23:52:10.68	175.22	10.82	-30.4	-32.7	12.2	1.79e-04	0	44	0	1231028224	20	4697
2026-01-19 23:52:11.68	175.27	10.73	-30.6	-33.0	11.7	6.52e-04	0	44	0	1232076800	21	4702
2026-01-19 23:52:12.68	175.33	10.65	-30.8	-33.3	11.4	7.14e-04	0	44	0	1234173952	21	4829
2026-01-19 23:52:13.68	175.39	10.56	-30.7	-33.1	11.6	1.08e-03	0	45	0	1236271104	21	4740
2026-01-19 23:52:14.69	175.44	10.48	-30.4	-32.7	12.2	6.10e-04	0	44	0	1238368256	20	4690
2026-01-19 23:52:15.69	175.50	10.39	-30.2	-32.1	12.5	4.03e-04	0	44	0	1240465408	20	4504
2026-01-19 23:52:16.69	175.55	10.31	-30.1	-31.9	12.7	7.17e-05	0	44	0	1241513984	20	4428
2026-01-19 23:52:17.69	175.61	10.22	-30.2	-32.1	12.5	3.02e-04	0	44	0	1243611136	20	4500
2026-01-19 23:52:18.69	175.66	10.14	-30.0	-31.8	12.8	3.13e-04	0	45	0	1245708288	20	4398
2026-01-19 23:52:19.69	175.71	10.05	-30.1	-32.0	12.6	1.25e-04	0	44	0	1247805440	20	4474
2026-01-19 23:52:20.69	175.77	9.97	-30.2	-32.1	12.5	3.01e-04	0	44	0	1248854016	20	4518
2026-01-19 23:52:21.69	175.82	9.89	-30.1	-32.0	12.5	3.19e-04	0	44	0	1250951168	20	4481
2026-01-19 23:52:22.69	175.88	9.81	-30.0	-31.6	12.9	5.41e-05	0	44	0	1253048320	20	4329
2026-01-19 23:52:23.69	175.93	9.72	-30.1	-31.9	12.7	2.33e-04	0	44	0	1255145472	20	4420
2026-01-19 23:52:24.69	175.98	9.64	-30.1	-31.8	12.7	3.17e-04	0	45	0	1257242624	20	4419
2026-01-19 23:52:25.69	176.03	9.56	-30.1	-32.0	12.6	7.62e-05	0	44	0	1258291200	20	4466
2026-01-19 23:52:26.69	176.09	9.48	-30.1	-31.9	12.6	1.20e-04	0	44	0	1260388352	20	4435
2026-01-19 23:52:27.70	176.14	9.39	-30.2	-32.4	12.3	3.47e-04	0	44	0	1262485504	20	4592
2026-01-19 23:52:28.70	176.19	9.31	-30.1	-32.0	12.6	1.29e-04	0	45	0	1264582656	20	4482
2026-01-19 23:52:29.71	176.24	9.23	-30.2	-32.3	12.3	1.43e-04	0	44	0	1266679808	20	4587
2026-01-19 23:52:30.71	176.29	9.15	-30.5	-33.1	11.8	3.36e-04	0	45	0	1267728384	20	4852
2026-01-19 23:52:31.71	176.34	9.07	-30.3	-32.2	12.0	4.96e-04	0	44	0	1269825536	21	4455
2026-01-19 23:52:32.72	176.39	8.99	-30.3	-32.2	12.0	2.85e-04	0	44	0	1271922688	21	4461
2026-01-19 23:52:33.72	176.44	8.91	-30.4	-32.4	11.9	5.66e-04	0	45	0	1274019840	21	4539
2026-01-19 23:52:34.72	176.49	8.83	-30.4	-32.5	11.8	5.58e-04	0	44	0	1276116992	21	4553
2026-01-19 23:52:35.72	176.54	8.75	-30.4	-32.9	11.8	8.61e-04	0	45	0	1277165568	20	4811
2026-01-19 23:52:36.72	176.59	8.67	-30.5	-32.8	11.6	7.87e-04	0	44	0	1279262720	21	4667
2026-01-19 23:52:37.73	176.64	8.59	-30.5	-32.7	11.6	6.96e-04	0	44	0	1281359872	21	4633
2026-01-19 23:52:38.73	176.69	8.51	-30.4	-32.9	11.8	7.46e-04	0	44	0	1283457024	20	4798
2026-01-19 23:52:39.72	176.74	8.43	-30.6	-33.0	11.4	7.17e-04	0	45	0	1285554176	21	4745
2026-01-19 23:52:40.72	176.79	8.35	-30.7	-33.2	11.2	1.05e-03	0	44	0	1286602752	21	4841
2026-01-19 23:52:41.73	176.84	8.27	-30.6	-32.9	11.4	1.17e-03	0	44	0	1288699904	21	4737
