passes_logs/2026/01/19/R2M6_AANII_01/R2M6_AANII_01__20260119_110337_NOAA_21_JPSS-2_rec.log

#Pass ID: 20260119_110337_NOAA 21 (JPSS-2)
#Satellite: NOAA 21 (JPSS-2)
#Configuration: NOAA 21
#almurnet v.1.7.20240730
#Start time: 2026-01-19 11:03:39

#Version: 2.2.20231116
#Station: R2M6_AANII_01
#Location: 30.233357 lon 59.946436 lat
#TLE: 1 54234U 22150A   26017.90260625  .00000050  00000+0  44518-4 0  9994
#TLE: 2 54234  98.7502 318.7672 0000612 269.1755  90.9351 14.19535344165221

#Time	Az	El	Level	Level2	SNR	BER	BlckErr	Temp	State	Recorded	gain1	gain2
2026-01-19 11:03:39.64	183.60	7.12	-33.6	-45.0	3.8	1.49e+00	0	44	0	0	28	13366
2026-01-19 11:03:40.63	183.64	7.20	-32.0	-38.0	4.3	1.44e+00	0	44	104	0	25	7207
2026-01-19 11:03:41.64	183.69	7.27	-31.6	-36.1	7.0	1.76e-01	0	44	0	0	24	6087
2026-01-19 11:03:42.64	183.74	7.35	-31.2	-35.3	7.9	8.90e-02	0	44	0	3145728	23	5784
2026-01-19 11:03:43.65	183.78	7.42	-30.8	-34.0	8.9	3.75e-02	0	44	0	6291456	23	5200
2026-01-19 11:03:44.65	183.83	7.50	-30.4	-33.2	9.8	1.19e-02	0	44	0	9437184	22	4973
2026-01-19 11:03:45.66	183.88	7.58	-30.1	-32.8	10.4	6.76e-03	0	44	0	12582912	21	4938
2026-01-19 11:03:46.66	183.93	7.65	-29.7	-32.3	11.1	2.54e-03	0	44	0	15728640	20	4841
2026-01-19 11:03:47.66	183.98	7.73	-29.4	-31.5	11.6	8.84e-04	0	43	0	18874368	20	4591
2026-01-19 11:03:48.66	184.02	7.80	-29.3	-31.7	11.9	5.32e-04	0	44	0	22020096	19	4743
2026-01-19 11:03:49.66	184.07	7.88	-29.2	-31.4	12.0	2.96e-04	0	44	0	24117248	19	4653
2026-01-19 11:03:50.67	184.12	7.96	-28.9	-30.6	12.6	1.31e-04	0	44	0	27262976	19	4381
2026-01-19 11:03:51.67	184.17	8.04	-29.1	-31.1	12.3	2.05e-04	0	44	0	30408704	19	4532
2026-01-19 11:03:52.67	184.22	8.11	-28.9	-30.8	12.5	1.43e-04	0	44	0	33554432	19	4439
2026-01-19 11:03:53.67	184.27	8.19	-29.1	-31.1	12.3	1.79e-04	0	44	0	36700160	19	4542
2026-01-19 11:03:54.67	184.32	8.27	-29.3	-31.8	11.8	3.85e-04	0	44	0	39845888	19	4775
2026-01-19 11:03:55.67	184.37	8.35	-29.7	-32.8	11.2	1.11e-03	0	44	0	42991616	19	5125
2026-01-19 11:03:56.67	184.42	8.42	-29.9	-33.3	10.9	1.93e-03	0	44	0	46137344	19	5305
2026-01-19 11:03:57.68	184.47	8.50	-30.0	-33.1	10.6	5.25e-03	0	44	0	49283072	20	5128
2026-01-19 11:03:58.68	184.52	8.58	-29.8	-32.5	10.9	2.92e-03	0	44	0	52428800	20	4936
2026-01-19 11:03:59.68	184.57	8.66	-29.9	-32.7	10.8	2.11e-03	0	44	0	55574528	20	5006
2026-01-19 11:04:00.69	184.63	8.74	-29.9	-32.7	10.9	2.79e-03	0	44	0	58720256	20	4997
2026-01-19 11:04:01.69	184.68	8.82	-29.6	-31.9	11.4	1.18e-03	0	44	0	61865984	20	4689
2026-01-19 11:04:02.70	184.73	8.90	-29.3	-31.5	12.1	3.35e-04	0	44	0	65011712	19	4679
2026-01-19 11:04:03.70	184.78	8.98	-29.1	-31.2	12.3	2.10e-04	0	44	0	68157440	19	4579
2026-01-19 11:04:04.70	184.84	9.06	-28.8	-30.4	12.8	7.01e-05	0	44	0	71303168	19	4325
2026-01-19 11:04:05.71	184.89	9.14	-28.7	-30.6	13.0	5.72e-05	0	44	0	74448896	18	4495
2026-01-19 11:04:06.72	184.94	9.22	-28.7	-30.5	13.1	2.97e-05	0	44	0	77594624	18	4453
2026-01-19 11:04:07.71	185.00	9.30	-28.7	-30.7	13.0	6.33e-05	0	44	0	80740352	18	4520
2026-01-19 11:04:08.72	185.05	9.39	-28.6	-30.4	13.2	4.80e-05	0	44	0	83886080	18	4409
2026-01-19 11:04:09.72	185.10	9.47	-28.7	-30.6	13.1	2.36e-05	0	44	0	87031808	18	4476
2026-01-19 11:04:10.72	185.16	9.55	-28.7	-30.6	13.0	4.27e-05	0	44	0	90177536	18	4494
2026-01-19 11:04:11.72	185.21	9.63	-28.7	-30.6	13.1	3.05e-05	0	44	0	93323264	18	4485
2026-01-19 11:04:12.73	185.27	9.71	-28.6	-30.3	13.2	2.44e-05	0	44	0	96468992	18	4395
2026-01-19 11:04:13.73	185.32	9.80	-28.7	-30.7	13.0	2.44e-05	0	44	0	99614720	18	4506
2026-01-19 11:04:14.73	185.38	9.88	-28.6	-30.4	13.2	3.43e-05	0	44	0	102760448	18	4427
2026-01-19 11:04:15.73	185.43	9.96	-28.5	-30.2	13.4	1.44e-05	0	44	0	105906176	18	4346
2026-01-19 11:04:16.74	185.49	10.04	-28.5	-30.1	13.4	1.67e-05	0	44	0	109051904	18	4338
2026-01-19 11:04:17.74	185.55	10.13	-28.5	-30.1	13.4	1.67e-05	0	44	0	112197632	18	4325
2026-01-19 11:04:18.74	185.60	10.21	-28.5	-30.0	13.5	1.90e-05	0	44	0	115343360	18	4304
2026-01-19 11:04:19.75	185.66	10.30	-28.6	-30.4	13.2	3.28e-05	0	44	0	118489088	18	4426
2026-01-19 11:04:20.75	185.72	10.38	-28.7	-30.6	13.1	3.05e-05	0	44	0	121634816	18	4478
2026-01-19 11:04:21.75	185.77	10.46	-28.6	-30.4	13.2	2.05e-05	0	44	0	124780544	18	4425
2026-01-19 11:04:22.75	185.83	10.55	-28.6	-30.4	13.3	1.75e-05	0	44	0	127926272	18	4425
2026-01-19 11:04:23.76	185.89	10.63	-28.7	-30.6	13.2	2.59e-05	0	44	0	131072000	18	4463
2026-01-19 11:04:24.76	185.95	10.72	-28.6	-30.4	13.3	1.90e-05	0	44	0	134217728	18	4399
2026-01-19 11:04:25.77	186.01	10.81	-28.6	-30.4	13.3	2.05e-05	0	44	0	137363456	18	4411
2026-01-19 11:04:26.78	186.07	10.89	-28.6	-30.3	13.4	1.44e-05	0	44	0	140509184	18	4370
2026-01-19 11:04:27.78	186.13	10.98	-28.7	-30.6	13.3	1.52e-05	0	44	0	143654912	18	4452
2026-01-19 11:04:28.79	186.19	11.07	-28.6	-30.4	13.4	2.05e-05	0	44	0	146800640	18	4395
2026-01-19 11:04:29.79	186.25	11.15	-28.4	-29.7	13.8	3.00e-06	0	44	0	149946368	18	4203
2026-01-19 11:04:30.79	186.31	11.24	-28.3	-29.6	13.9	5.30e-06	0	44	0	153092096	18	4166
2026-01-19 11:04:31.79	186.37	11.33	-28.3	-29.5	13.9	7.00e-07	0	44	0	156237824	18	4159
2026-01-19 11:04:32.79	186.43	11.41	-28.3	-29.6	13.9	1.50e-06	0	44	0	159383552	18	4160
2026-01-19 11:04:33.79	186.49	11.50	-28.2	-29.8	14.0	2.20e-06	0	44	0	162529280	17	4344
2026-01-19 11:04:34.80	186.55	11.59	-28.2	-29.9	14.0	1.50e-06	0	44	0	165675008	17	4351
2026-01-19 11:04:35.81	186.62	11.68	-28.1	-29.7	14.1	3.80e-06	0	44	0	168820736	17	4302
2026-01-19 11:04:36.81	186.68	11.77	-28.1	-29.7	14.2	7.00e-07	0	44	0	171966464	17	4295
2026-01-19 11:04:37.81	186.74	11.86	-28.3	-30.0	14.0	7.00e-07	0	44	0	175112192	17	4395
2026-01-19 11:04:38.82	186.81	11.95	-28.3	-30.0	14.0	4.50e-06	0	44	0	178257920	17	4388
2026-01-19 11:04:39.83	186.87	12.04	-28.1	-29.7	14.2	7.00e-07	0	44	0	181403648	17	4296
2026-01-19 11:04:40.83	186.93	12.13	-28.1	-29.6	14.2	7.00e-07	0	44	0	184549376	17	4281
2026-01-19 11:04:41.83	187.00	12.22	-28.0	-29.4	14.3	3.00e-06	0	44	0	187695104	17	4220
2026-01-19 11:04:42.83	187.06	12.31	-28.0	-29.4	14.4	1.50e-06	0	44	0	190840832	17	4204
2026-01-19 11:04:43.84	187.13	12.40	-28.0	-29.4	14.4	0.00e+00	0	44	0	193986560	17	4214
2026-01-19 11:04:44.84	187.19	12.49	-28.0	-29.3	14.4	0.00e+00	0	44	0	197132288	17	4195
2026-01-19 11:04:45.84	187.26	12.58	-28.0	-29.4	14.3	0.00e+00	0	44	0	200278016	17	4229
2026-01-19 11:04:46.84	187.33	12.67	-28.0	-29.4	14.4	1.50e-06	0	44	0	203423744	17	4207
2026-01-19 11:04:47.84	187.39	12.76	-28.0	-29.3	14.4	0.00e+00	0	44	0	206569472	17	4190
2026-01-19 11:04:48.84	187.46	12.86	-28.1	-29.5	14.3	2.20e-06	0	44	0	209715200	17	4257
2026-01-19 11:04:49.85	187.53	12.95	-28.0	-29.4	14.4	7.00e-07	0	44	0	212860928	17	4217
2026-01-19 11:04:50.85	187.60	13.04	-28.0	-29.4	14.4	0.00e+00	0	44	0	216006656	17	4224
2026-01-19 11:04:51.85	187.66	13.14	-28.0	-29.4	14.4	0.00e+00	0	44	0	219152384	17	4226
2026-01-19 11:04:52.85	187.73	13.23	-28.2	-29.9	14.1	2.20e-06	0	44	0	222298112	17	4349
2026-01-19 11:04:53.86	187.80	13.32	-28.1	-29.6	14.3	3.00e-06	0	44	0	225443840	17	4272
2026-01-19 11:04:54.86	187.87	13.42	-28.0	-29.4	14.4	7.00e-07	0	44	0	228589568	17	4208
2026-01-19 11:04:55.87	187.94	13.51	-28.1	-29.5	14.3	7.00e-07	0	44	0	231735296	17	4253
2026-01-19 11:04:56.87	188.01	13.61	-28.0	-29.4	14.4	0.00e+00	0	44	0	234881024	17	4228
2026-01-19 11:04:57.87	188.08	13.70	-27.9	-29.1	14.5	1.50e-06	0	44	0	238026752	17	4135
2026-01-19 11:04:58.88	188.16	13.80	-28.0	-29.3	14.3	1.50e-06	0	44	0	241172480	17	4197
2026-01-19 11:04:59.88	188.23	13.90	-27.9	-29.2	14.4	7.00e-07	0	44	0	244318208	17	4160
2026-01-19 11:05:00.88	188.30	13.99	-28.0	-29.3	14.3	7.00e-07	0	44	0	247463936	17	4190
2026-01-19 11:05:01.88	188.37	14.09	-28.1	-29.5	14.2	2.20e-06	0	44	0	250609664	17	4249
2026-01-19 11:05:02.88	188.44	14.19	-28.0	-29.3	14.3	1.50e-06	0	44	0	253755392	17	4193
2026-01-19 11:05:03.88	188.52	14.28	-28.1	-29.5	14.2	3.80e-06	0	44	0	256901120	17	4247
2026-01-19 11:05:04.88	188.59	14.38	-28.1	-29.5	14.2	2.20e-06	0	44	0	260046848	17	4251
2026-01-19 11:05:05.89	188.67	14.48	-28.1	-29.6	14.2	7.00e-07	0	44	0	263192576	17	4274
2026-01-19 11:05:06.90	188.74	14.58	-28.0	-29.4	14.3	7.00e-07	0	44	0	266338304	17	4214
2026-01-19 11:05:07.89	188.82	14.68	-28.0	-29.3	14.3	7.00e-07	0	44	0	269484032	17	4200
2026-01-19 11:05:08.90	188.89	14.78	-28.1	-29.5	14.2	1.50e-06	0	44	0	272629760	17	4250
2026-01-19 11:05:09.90	188.97	14.88	-28.0	-29.4	14.3	0.00e+00	0	44	0	275775488	17	4202
2026-01-19 11:05:10.90	189.05	14.98	-28.0	-29.4	14.4	7.00e-07	0	44	0	278921216	17	4206
2026-01-19 11:05:11.91	189.12	15.08	-28.0	-29.2	14.5	7.00e-07	0	44	0	282066944	17	4166
2026-01-19 11:05:12.91	189.20	15.18	-27.9	-29.2	14.5	1.50e-06	0	44	0	285212672	17	4154
2026-01-19 11:05:13.91	189.28	15.28	-28.0	-29.4	14.4	0.00e+00	0	44	0	288358400	17	4206
2026-01-19 11:05:14.91	189.36	15.38	-28.0	-29.3	14.5	1.50e-06	0	44	0	291504128	17	4180
2026-01-19 11:05:15.92	189.44	15.48	-28.1	-29.6	14.3	7.60e-06	0	44	0	294649856	17	4284
2026-01-19 11:05:16.92	189.52	15.58	-28.1	-29.6	14.3	7.00e-07	0	44	0	297795584	17	4281
2026-01-19 11:05:17.92	189.60	15.69	-28.2	-29.7	14.3	7.00e-07	0	44	0	300941312	17	4295
2026-01-19 11:05:18.92	189.68	15.79	-28.1	-29.6	14.4	7.00e-07	0	44	0	303038464	17	4261
2026-01-19 11:05:19.93	189.76	15.89	-28.2	-29.9	14.2	7.00e-07	0	44	0	306184192	17	4347
2026-01-19 11:05:20.93	189.84	16.00	-28.2	-29.8	14.2	0.00e+00	0	44	0	309329920	17	4327
2026-01-19 11:05:21.94	189.93	16.10	-28.2	-29.8	14.3	6.80e-06	0	44	0	312475648	17	4321
2026-01-19 11:05:22.94	190.01	16.20	-28.3	-30.1	14.1	2.20e-06	0	44	0	315621376	17	4405
2026-01-19 11:05:23.94	190.09	16.31	-28.4	-30.4	13.9	4.50e-06	0	44	0	319815680	17	4492
2026-01-19 11:05:24.94	190.18	16.41	-28.4	-30.2	14.0	6.10e-06	0	44	0	322961408	17	4441
2026-01-19 11:05:25.95	190.26	16.52	-28.3	-30.1	14.1	7.00e-07	0	44	0	325058560	17	4424
2026-01-19 11:05:26.96	190.35	16.63	-28.4	-30.3	14.0	2.20e-06	0	44	0	328204288	17	4461
2026-01-19 11:05:27.96	190.44	16.73	-28.4	-30.3	14.0	9.90e-06	0	44	0	331350016	17	4458
2026-01-19 11:05:28.96	190.52	16.84	-28.5	-30.4	13.9	0.00e+00	0	44	0	334495744	17	4493
2026-01-19 11:05:29.96	190.61	16.95	-28.6	-30.7	13.8	5.30e-06	0	44	0	337641472	17	4581
2026-01-19 11:05:30.97	190.70	17.06	-28.4	-30.2	14.0	1.22e-05	0	44	0	340787200	17	4440
2026-01-19 11:05:31.97	190.78	17.16	-28.3	-30.0	14.2	0.00e+00	0	44	0	343932928	17	4387
2026-01-19 11:05:32.97	190.87	17.27	-28.3	-29.9	14.3	2.20e-06	0	44	0	347078656	17	4344
2026-01-19 11:05:33.98	190.96	17.38	-28.3	-30.1	14.2	1.50e-06	0	44	0	350224384	17	4395
2026-01-19 11:05:34.98	191.05	17.49	-28.2	-29.7	14.4	7.00e-07	0	44	0	353370112	17	4294
2026-01-19 11:05:35.99	191.15	17.60	-28.4	-30.2	14.1	1.50e-06	0	44	0	356515840	17	4436
2026-01-19 11:05:36.98	191.24	17.71	-28.2	-29.8	14.4	1.37e-05	0	44	0	359661568	17	4306
2026-01-19 11:05:37.98	191.33	17.82	-28.1	-29.4	14.6	7.00e-07	0	44	0	362807296	17	4202
2026-01-19 11:05:38.99	191.42	17.93	-28.0	-29.1	14.8	0.00e+00	0	44	0	365953024	17	4130
2026-01-19 11:05:39.99	191.51	18.04	-28.0	-29.1	14.7	0.00e+00	0	44	0	369098752	17	4128
2026-01-19 11:05:40.99	191.61	18.16	-27.9	-28.9	14.9	0.00e+00	0	44	0	372244480	17	4070
2026-01-19 11:05:42.00	191.70	18.27	-27.9	-29.1	14.8	0.00e+00	0	44	0	375390208	17	4108
2026-01-19 11:05:43.00	191.80	18.38	-28.0	-29.1	14.8	0.00e+00	0	44	0	378535936	17	4126
2026-01-19 11:05:44.01	191.90	18.50	-28.1	-29.5	14.6	7.00e-07	0	44	0	381681664	17	4216
2026-01-19 11:05:45.02	191.99	18.61	-27.9	-29.1	14.8	0.00e+00	0	44	0	384827392	17	4103
2026-01-19 11:05:46.02	192.09	18.72	-27.9	-29.0	14.9	0.00e+00	0	44	0	387973120	17	4086
2026-01-19 11:05:47.02	192.19	18.84	-27.9	-29.1	14.8	7.00e-07	0	44	0	391118848	17	4101
2026-01-19 11:05:48.03	192.29	18.95	-27.8	-28.7	15.0	0.00e+00	0	44	0	394264576	17	4013
2026-01-19 11:05:49.02	192.39	19.07	-27.8	-29.3	15.0	0.00e+00	0	44	0	397410304	16	4270
2026-01-19 11:05:50.03	192.49	19.19	-27.8	-29.2	15.1	0.00e+00	0	44	0	400556032	16	4240
2026-01-19 11:05:51.03	192.59	19.30	-27.9	-29.5	14.9	0.00e+00	0	44	0	403701760	16	4341
2026-01-19 11:05:52.03	192.69	19.42	-27.8	-29.2	15.1	0.00e+00	0	44	0	406847488	16	4248
2026-01-19 11:05:53.03	192.79	19.54	-27.7	-28.9	15.2	0.00e+00	0	44	0	409993216	16	4178
2026-01-19 11:05:54.04	192.90	19.65	-27.7	-29.0	15.2	0.00e+00	0	44	0	413138944	16	4184
2026-01-19 11:05:55.04	193.00	19.77	-27.8	-29.2	15.1	0.00e+00	0	44	0	416284672	16	4251
2026-01-19 11:05:56.04	193.11	19.89	-27.6	-28.7	15.3	0.00e+00	0	44	0	419430400	16	4117
2026-01-19 11:05:57.04	193.21	20.01	-27.7	-29.0	15.2	0.00e+00	0	44	0	422576128	16	4185
2026-01-19 11:05:58.04	193.32	20.13	-27.9	-29.4	15.0	0.00e+00	0	44	0	425721856	16	4308
2026-01-19 11:05:59.05	193.43	20.25	-27.7	-29.0	15.2	0.00e+00	0	44	0	428867584	16	4178
2026-01-19 11:06:00.05	193.53	20.37	-27.6	-28.7	15.4	0.00e+00	0	44	0	432013312	16	4113
2026-01-19 11:06:01.05	193.64	20.49	-27.5	-28.6	15.4	0.00e+00	0	44	0	435159040	16	4082
2026-01-19 11:06:02.06	193.75	20.61	-27.6	-28.9	15.3	0.00e+00	0	44	0	438304768	16	4150
2026-01-19 11:06:03.06	193.86	20.74	-27.5	-28.5	15.5	0.00e+00	0	44	0	441450496	16	4058
2026-01-19 11:06:04.06	193.97	20.86	-27.4	-28.4	15.6	7.00e-07	0	44	0	444596224	16	4022
2026-01-19 11:06:05.06	194.09	20.98	-27.5	-28.5	15.5	0.00e+00	0	44	0	447741952	16	4049
2026-01-19 11:06:06.07	194.20	21.11	-27.6	-28.9	15.3	0.00e+00	0	44	0	450887680	16	4156
2026-01-19 11:06:07.07	194.31	21.23	-27.4	-28.3	15.6	0.00e+00	0	44	0	454033408	16	4002
2026-01-19 11:06:08.07	194.43	21.35	-27.1	-28.2	15.8	0.00e+00	0	44	0	457179136	15	4105
2026-01-19 11:06:09.08	194.55	21.48	-27.0	-28.1	15.9	0.00e+00	0	43	0	460324864	15	4057
2026-01-19 11:06:10.07	194.66	21.60	-27.0	-28.0	15.9	0.00e+00	0	44	0	463470592	15	4048
2026-01-19 11:06:11.08	194.78	21.73	-26.9	-27.9	16.0	0.00e+00	0	44	0	466616320	15	4005
2026-01-19 11:06:12.08	194.90	21.86	-26.9	-27.8	16.1	0.00e+00	0	44	0	469762048	15	3994
2026-01-19 11:06:13.08	195.02	21.99	-27.1	-28.1	15.9	0.00e+00	0	44	0	472907776	15	4066
2026-01-19 11:06:14.08	195.14	22.11	-26.9	-27.7	16.1	0.00e+00	0	44	0	476053504	15	3975
2026-01-19 11:06:15.09	195.26	22.24	-26.8	-27.5	16.2	0.00e+00	0	44	0	479199232	15	3921
2026-01-19 11:06:16.09	195.38	22.37	-26.8	-27.6	16.2	0.00e+00	0	44	0	482344960	15	3930
2026-01-19 11:06:17.10	195.51	22.50	-26.7	-27.9	16.2	0.00e+00	0	44	0	485490688	14	4122
2026-01-19 11:06:18.11	195.63	22.63	-26.7	-27.9	16.3	0.00e+00	0	44	0	488636416	14	4127
2026-01-19 11:06:19.11	195.76	22.76	-26.7	-27.8	16.3	0.00e+00	0	44	0	491782144	14	4099
2026-01-19 11:06:20.09	195.88	22.89	-26.8	-28.0	16.2	0.00e+00	0	44	0	494927872	14	4152
2026-01-19 11:06:21.09	196.01	23.02	-26.7	-27.9	16.3	0.00e+00	0	44	0	498073600	14	4133
2026-01-19 11:06:22.10	196.14	23.15	-26.8	-28.0	16.2	0.00e+00	0	44	0	501219328	14	4151
2026-01-19 11:06:23.10	196.27	23.29	-27.0	-28.5	15.9	0.00e+00	0	44	0	504365056	14	4289
2026-01-19 11:06:24.11	196.40	23.42	-27.1	-28.6	15.9	0.00e+00	0	44	0	507510784	14	4311
2026-01-19 11:06:25.12	196.53	23.55	-27.0	-28.4	16.0	0.00e+00	0	44	0	510656512	14	4260
2026-01-19 11:06:26.12	196.66	23.69	-27.0	-28.5	16.0	0.00e+00	0	44	0	513802240	14	4277
2026-01-19 11:06:27.12	196.80	23.82	-27.0	-28.5	16.0	0.00e+00	0	44	0	516947968	14	4273
2026-01-19 11:06:28.12	196.93	23.96	-27.0	-28.5	16.0	0.00e+00	0	44	0	520093696	14	4284
2026-01-19 11:06:29.13	197.07	24.09	-27.1	-28.7	15.9	0.00e+00	0	44	0	523239424	14	4323
2026-01-19 11:06:30.12	197.20	24.23	-27.0	-28.4	16.0	1.50e-06	0	44	0	526385152	14	4261
2026-01-19 11:06:31.12	197.34	24.36	-27.1	-28.8	15.8	0.00e+00	0	44	0	529530880	14	4377
2026-01-19 11:06:32.11	197.48	24.50	-26.9	-28.4	16.1	0.00e+00	0	44	0	532676608	14	4246
2026-01-19 11:06:33.11	197.62	24.64	-26.9	-28.2	16.2	3.00e-06	0	44	0	535822336	14	4193
2026-01-19 11:06:34.11	197.76	24.78	-26.9	-28.2	16.2	0.00e+00	0	44	0	538968064	14	4199
2026-01-19 11:06:35.11	197.91	24.91	-27.0	-28.4	16.0	0.00e+00	0	44	0	542113792	14	4266
2026-01-19 11:06:36.12	198.05	25.05	-27.0	-28.5	16.0	0.00e+00	0	44	0	545259520	14	4279
2026-01-19 11:06:37.12	198.20	25.19	-27.0	-28.6	16.0	0.00e+00	0	44	0	548405248	14	4303
2026-01-19 11:06:38.12	198.34	25.33	-27.1	-28.7	16.0	0.00e+00	0	44	0	551550976	14	4322
2026-01-19 11:06:39.13	198.49	25.48	-27.1	-28.8	15.9	0.00e+00	0	44	0	554696704	14	4350
2026-01-19 11:06:40.14	198.64	25.62	-27.2	-29.0	15.8	0.00e+00	0	44	0	557842432	14	4420
2026-01-19 11:06:41.14	198.79	25.76	-27.3	-29.1	15.8	0.00e+00	0	44	0	560988160	14	4437
2026-01-19 11:06:42.15	198.95	25.91	-27.3	-29.1	15.7	0.00e+00	0	44	0	564133888	14	4448
2026-01-19 11:06:43.15	199.10	26.05	-27.4	-29.4	15.6	0.00e+00	0	44	0	567279616	14	4549
2026-01-19 11:06:44.15	199.25	26.19	-27.3	-29.3	15.7	0.00e+00	0	44	0	570425344	14	4493
2026-01-19 11:06:45.15	199.41	26.34	-27.5	-29.5	15.5	0.00e+00	0	44	0	573571072	14	4568
2026-01-19 11:06:46.15	199.57	26.48	-27.4	-29.4	15.6	0.00e+00	0	44	0	576716800	14	4540
2026-01-19 11:06:47.16	199.73	26.63	-27.6	-29.3	15.3	0.00e+00	0	44	0	578813952	15	4406
2026-01-19 11:06:48.16	199.89	26.77	-27.8	-29.9	15.0	7.00e-07	0	44	0	581959680	15	4576
2026-01-19 11:06:49.17	200.05	26.92	-27.6	-29.4	15.3	0.00e+00	0	44	0	586153984	15	4417
2026-01-19 11:06:50.18	200.22	27.07	-27.6	-29.3	15.4	0.00e+00	0	44	0	589299712	15	4379
2026-01-19 11:06:51.18	200.38	27.22	-27.5	-29.2	15.4	0.00e+00	0	44	0	592445440	15	4365
2026-01-19 11:06:52.19	200.55	27.37	-27.6	-29.4	15.3	0.00e+00	0	44	0	595591168	15	4406
2026-01-19 11:06:53.20	200.72	27.52	-27.7	-29.5	15.3	0.00e+00	0	44	0	598736896	15	4450
2026-01-19 11:06:54.20	200.89	27.67	-27.6	-29.4	15.3	0.00e+00	0	44	0	601882624	15	4421
2026-01-19 11:06:55.20	201.06	27.82	-27.6	-29.4	15.4	0.00e+00	0	44	0	603979776	15	4402
2026-01-19 11:06:56.21	201.23	27.97	-27.7	-29.6	15.3	0.00e+00	0	44	0	607125504	15	4456
2026-01-19 11:06:57.20	201.40	28.12	-27.6	-29.3	15.4	0.00e+00	0	44	0	610271232	15	4378
2026-01-19 11:06:58.21	201.58	28.27	-27.6	-29.3	15.4	0.00e+00	0	44	0	613416960	15	4392
2026-01-19 11:06:59.21	201.76	28.42	-27.7	-29.5	15.3	0.00e+00	0	44	0	616562688	15	4443
2026-01-19 11:07:00.22	201.94	28.58	-27.7	-29.6	15.3	0.00e+00	0	44	0	620756992	15	4452
2026-01-19 11:07:01.22	202.12	28.73	-27.7	-29.6	15.3	0.00e+00	0	44	0	623902720	15	4466
2026-01-19 11:07:02.22	202.30	28.88	-27.7	-29.4	15.4	0.00e+00	0	44	0	625999872	15	4416
2026-01-19 11:07:03.23	202.49	29.04	-27.7	-29.4	15.4	0.00e+00	0	44	0	629145600	15	4409
2026-01-19 11:07:04.22	202.67	29.19	-27.7	-29.5	15.4	0.00e+00	0	44	0	632291328	15	4421
2026-01-19 11:07:05.23	202.86	29.35	-27.7	-29.6	15.3	0.00e+00	0	44	0	635437056	15	4459
2026-01-19 11:07:06.24	203.05	29.50	-27.7	-29.5	15.3	0.00e+00	0	44	0	638582784	15	4447
2026-01-19 11:07:07.24	203.24	29.66	-27.7	-29.6	15.3	0.00e+00	0	44	0	641728512	15	4452
2026-01-19 11:07:08.24	203.43	29.82	-27.8	-29.7	15.3	0.00e+00	0	44	0	644874240	15	4482
2026-01-19 11:07:09.25	203.63	29.98	-27.8	-29.6	15.3	0.00e+00	0	44	0	648019968	15	4473
2026-01-19 11:07:10.25	203.83	30.13	-27.8	-29.7	15.3	0.00e+00	0	44	0	651165696	15	4493
2026-01-19 11:07:11.25	204.02	30.29	-27.8	-29.8	15.2	0.00e+00	0	44	0	654311424	15	4529
2026-01-19 11:07:12.25	204.22	30.45	-27.8	-29.9	15.2	0.00e+00	0	44	0	657457152	15	4539
2026-01-19 11:07:13.26	204.43	30.61	-27.9	-30.1	15.0	0.00e+00	0	44	0	660602880	15	4607
2026-01-19 11:07:14.26	204.63	30.77	-28.2	-30.0	15.0	0.00e+00	0	44	0	663748608	16	4466
2026-01-19 11:07:15.26	204.84	30.93	-28.0	-29.8	15.1	0.00e+00	0	44	0	666894336	16	4389
2026-01-19 11:07:16.27	205.05	31.09	-27.9	-29.4	15.3	0.00e+00	0	44	0	670040064	16	4284
2026-01-19 11:07:17.27	205.26	31.26	-27.9	-29.4	15.3	0.00e+00	0	44	0	673185792	16	4295
2026-01-19 11:07:18.27	205.47	31.42	-27.8	-29.2	15.5	0.00e+00	0	44	0	676331520	16	4234
2026-01-19 11:07:19.28	205.69	31.58	-27.8	-29.1	15.5	0.00e+00	0	44	0	679477248	16	4194
2026-01-19 11:07:20.28	205.90	31.74	-27.8	-29.1	15.5	0.00e+00	0	44	0	682622976	16	4209
2026-01-19 11:07:21.28	206.12	31.91	-27.9	-29.5	15.3	0.00e+00	0	44	0	685768704	16	4307
2026-01-19 11:07:22.29	206.34	32.07	-28.0	-29.7	15.2	0.00e+00	0	44	0	688914432	16	4360
2026-01-19 11:07:23.28	206.56	32.23	-27.9	-29.5	15.3	0.00e+00	0	44	0	692060160	16	4315
2026-01-19 11:07:24.29	206.79	32.40	-28.0	-29.7	15.2	0.00e+00	0	44	0	695205888	16	4373
2026-01-19 11:07:25.29	207.02	32.56	-28.0	-29.7	15.2	0.00e+00	0	44	0	698351616	16	4358
2026-01-19 11:07:26.29	207.25	32.73	-27.9	-29.5	15.3	0.00e+00	0	44	0	701497344	16	4310
2026-01-19 11:07:27.29	207.48	32.90	-28.0	-29.6	15.2	0.00e+00	0	44	0	704643072	16	4342
2026-01-19 11:07:28.29	207.71	33.06	-28.0	-29.6	15.3	0.00e+00	0	44	0	707788800	16	4340
2026-01-19 11:07:29.29	207.95	33.23	-27.8	-29.3	15.4	0.00e+00	0	44	0	710934528	16	4235
2026-01-19 11:07:30.29	208.19	33.40	-27.9	-29.4	15.4	0.00e+00	0	44	0	714080256	16	4274
2026-01-19 11:07:31.29	208.43	33.56	-27.8	-29.1	15.6	0.00e+00	0	44	0	717225984	16	4192
2026-01-19 11:07:32.30	208.68	33.73	-27.9	-29.5	15.3	0.00e+00	0	44	0	720371712	16	4304
2026-01-19 11:07:33.30	208.92	33.90	-28.0	-29.6	15.3	0.00e+00	0	44	0	723517440	16	4340
2026-01-19 11:07:34.31	209.18	34.07	-28.1	-29.9	15.1	0.00e+00	0	44	0	726663168	16	4417
2026-01-19 11:07:35.30	209.42	34.24	-28.2	-30.1	15.0	0.00e+00	0	44	0	729808896	16	4473
2026-01-19 11:07:36.31	209.68	34.41	-28.1	-29.9	15.1	0.00e+00	0	44	0	732954624	16	4431
2026-01-19 11:07:37.31	209.94	34.58	-28.0	-29.7	15.2	0.00e+00	0	44	0	736100352	16	4369
2026-01-19 11:07:38.31	210.20	34.75	-28.1	-29.9	15.1	0.00e+00	0	44	0	739246080	16	4423
2026-01-19 11:07:39.31	210.46	34.91	-28.2	-30.0	15.0	0.00e+00	0	44	0	742391808	16	4456
2026-01-19 11:07:40.31	210.72	35.08	-28.3	-30.3	14.9	0.00e+00	0	44	0	745537536	16	4539
2026-01-19 11:07:41.32	210.99	35.26	-28.5	-30.3	14.7	0.00e+00	0	44	0	748683264	17	4415
2026-01-19 11:07:42.32	211.26	35.43	-28.7	-30.8	14.4	0.00e+00	0	44	0	751828992	17	4578
2026-01-19 11:07:43.33	211.54	35.60	-28.8	-30.9	14.3	0.00e+00	0	44	0	754974720	17	4617
2026-01-19 11:07:44.33	211.81	35.77	-28.8	-31.0	14.2	1.50e-06	0	44	0	758120448	17	4635
2026-01-19 11:07:45.33	212.09	35.94	-28.8	-30.9	14.3	0.00e+00	0	44	0	761266176	17	4603
2026-01-19 11:07:46.33	212.37	36.11	-28.8	-30.9	14.4	7.00e-07	0	44	0	764411904	17	4584
2026-01-19 11:07:47.33	212.66	36.28	-28.9	-31.2	14.1	7.00e-07	0	44	0	767557632	17	4690
2026-01-19 11:07:48.33	212.94	36.46	-29.1	-31.2	13.9	3.00e-06	0	44	0	770703360	18	4572
2026-01-19 11:07:49.33	213.23	36.63	-29.3	-31.6	13.6	7.60e-06	0	44	0	773849088	18	4713
2026-01-19 11:07:50.32	213.52	36.80	-29.4	-31.5	13.4	1.60e-05	0	44	0	776994816	19	4575
2026-01-19 11:07:51.32	213.82	36.97	-29.4	-31.4	13.5	1.14e-05	0	44	0	780140544	19	4522
2026-01-19 11:07:52.32	214.12	37.14	-29.4	-31.4	13.5	9.90e-06	0	44	0	783286272	19	4524
2026-01-19 11:07:53.33	214.43	37.31	-29.4	-31.5	13.4	1.98e-05	0	44	0	786432000	19	4565
2026-01-19 11:07:54.33	214.73	37.49	-29.4	-31.5	13.4	1.44e-05	0	44	0	789577728	19	4564
2026-01-19 11:07:55.33	215.04	37.66	-29.6	-31.9	13.2	3.66e-05	0	44	0	792723456	19	4682
2026-01-19 11:07:56.34	215.36	37.83	-29.7	-32.2	13.0	5.49e-05	0	44	0	795869184	19	4794
2026-01-19 11:07:57.34	215.67	38.00	-29.6	-31.9	13.2	1.98e-05	0	44	0	799014912	19	4684
2026-01-19 11:07:58.35	215.99	38.18	-29.6	-31.9	13.2	2.21e-05	0	44	0	802160640	19	4674
2026-01-19 11:07:59.35	216.31	38.35	-29.7	-32.1	13.1	3.05e-05	0	44	0	805306368	19	4758
2026-01-19 11:08:00.35	216.64	38.52	-29.6	-31.8	13.2	2.28e-05	0	44	0	808452096	19	4656
2026-01-19 11:08:01.36	216.97	38.69	-29.7	-32.2	13.0	2.51e-05	0	44	0	811597824	19	4773
2026-01-19 11:08:02.36	217.30	38.86	-29.7	-32.2	13.0	3.58e-05	0	44	0	814743552	19	4765
2026-01-19 11:08:03.36	217.64	39.03	-29.7	-32.1	13.1	3.28e-05	0	44	0	817889280	19	4760
2026-01-19 11:08:04.36	217.98	39.20	-29.8	-32.2	13.0	4.50e-05	0	44	0	821035008	19	4796
2026-01-19 11:08:05.36	218.32	39.37	-29.8	-32.4	12.9	5.79e-05	0	44	0	824180736	19	4859
2026-01-19 11:08:06.36	218.67	39.54	-29.7	-32.2	13.1	3.05e-05	0	44	0	827326464	19	4773
2026-01-19 11:08:07.36	219.02	39.71	-29.6	-32.0	13.2	2.28e-05	0	44	0	830472192	19	4702
2026-01-19 11:08:08.37	219.37	39.88	-29.6	-31.8	13.3	2.36e-05	0	44	0	833617920	19	4657
2026-01-19 11:08:09.37	219.73	40.05	-29.6	-31.9	13.2	1.90e-05	0	44	0	836763648	19	4694
2026-01-19 11:08:10.37	220.09	40.22	-29.9	-32.6	12.8	5.64e-05	0	44	0	839909376	19	4905
2026-01-19 11:08:11.37	220.45	40.39	-29.8	-32.4	13.0	4.50e-05	0	44	0	843055104	19	4839
2026-01-19 11:08:12.38	220.83	40.56	-30.0	-32.3	12.6	7.17e-05	0	44	0	846200832	20	4712
2026-01-19 11:08:13.38	221.20	40.72	-30.1	-32.7	12.4	1.53e-04	0	44	0	849346560	20	4837
2026-01-19 11:08:14.39	221.58	40.89	-30.0	-32.3	12.5	1.25e-04	0	44	0	852492288	20	4721
2026-01-19 11:08:15.39	221.96	41.06	-29.9	-32.1	12.8	7.70e-05	0	44	0	855638016	20	4639
2026-01-19 11:08:16.40	222.34	41.23	-29.8	-31.8	12.9	6.56e-05	0	44	0	857735168	20	4564
2026-01-19 11:08:17.40	222.73	41.39	-29.8	-31.8	12.9	4.65e-05	0	44	0	860880896	20	4568
2026-01-19 11:08:18.41	223.13	41.56	-29.8	-32.0	12.8	7.24e-05	0	44	0	864026624	20	4624
2026-01-19 11:08:19.41	223.52	41.72	-30.0	-32.4	12.5	1.24e-04	0	44	0	867172352	20	4749
2026-01-19 11:08:20.41	223.92	41.88	-29.9	-32.1	12.7	8.08e-05	0	44	0	870318080	20	4638
2026-01-19 11:08:21.41	224.32	42.04	-29.8	-32.0	12.8	6.94e-05	0	44	0	873463808	20	4631
2026-01-19 11:08:22.41	224.73	42.20	-29.9	-32.2	12.8	6.94e-05	0	44	0	876609536	20	4690
2026-01-19 11:08:23.42	225.14	42.36	-29.8	-31.9	12.9	6.94e-05	0	44	0	879755264	20	4580
2026-01-19 11:08:24.42	225.56	42.52	-29.6	-31.4	13.2	2.59e-05	0	44	0	882900992	20	4436
2026-01-19 11:08:25.42	225.98	42.68	-29.6	-31.4	13.2	1.60e-05	0	44	0	886046720	20	4429
2026-01-19 11:08:26.42	226.40	42.84	-29.6	-31.4	13.2	2.05e-05	0	44	0	889192448	20	4424
2026-01-19 11:08:27.42	226.83	42.99	-29.7	-31.6	13.1	4.19e-05	0	44	0	892338176	20	4504
2026-01-19 11:08:28.42	227.26	43.15	-29.8	-31.9	12.9	3.28e-05	0	44	0	895483904	20	4591
2026-01-19 11:08:29.43	227.70	43.30	-29.8	-32.0	12.9	5.72e-05	0	44	0	898629632	20	4621
2026-01-19 11:08:30.44	228.14	43.45	-29.8	-31.9	12.9	4.88e-05	0	44	0	901775360	20	4576
2026-01-19 11:08:31.44	228.59	43.60	-30.0	-32.4	12.6	1.04e-04	0	44	0	904921088	20	4760
2026-01-19 11:08:32.45	229.04	43.76	-30.1	-32.6	12.5	1.02e-04	0	44	0	908066816	20	4810
2026-01-19 11:08:33.45	229.49	43.90	-30.1	-32.8	12.3	1.57e-04	0	44	0	911212544	20	4864
2026-01-19 11:08:34.46	229.95	44.05	-30.1	-32.5	12.5	1.54e-04	0	44	0	914358272	20	4792
2026-01-19 11:08:35.46	230.41	44.20	-29.9	-32.1	12.8	6.17e-05	0	44	0	917504000	20	4648
2026-01-19 11:08:36.46	230.88	44.34	-29.8	-31.9	12.9	5.03e-05	0	44	0	920649728	20	4575
2026-01-19 11:08:37.47	231.35	44.48	-29.9	-32.2	12.7	7.17e-05	0	44	0	923795456	20	4664
2026-01-19 11:08:38.47	231.82	44.63	-30.0	-32.5	12.5	1.19e-04	0	44	0	926941184	20	4766
2026-01-19 11:08:39.48	232.30	44.77	-30.0	-32.3	12.6	9.38e-05	0	44	0	930086912	20	4729
2026-01-19 11:08:40.48	232.79	44.90	-30.0	-32.4	12.6	1.07e-04	0	44	0	933232640	20	4734
2026-01-19 11:08:41.48	233.27	45.04	-29.9	-32.1	12.7	6.79e-05	0	44	0	936378368	20	4654
2026-01-19 11:08:42.49	233.76	45.17	-29.8	-32.0	12.9	5.34e-05	0	44	0	939524096	20	4611
2026-01-19 11:08:43.49	234.26	45.30	-29.7	-31.6	13.1	4.19e-05	0	44	0	942669824	20	4470
2026-01-19 11:08:44.49	234.75	45.43	-29.6	-31.4	13.2	2.05e-05	0	44	0	945815552	20	4433
2026-01-19 11:08:45.50	235.26	45.56	-29.5	-31.2	13.3	1.90e-05	0	44	0	948961280	20	4360
2026-01-19 11:08:46.50	235.77	45.69	-29.7	-31.5	13.1	3.20e-05	0	44	0	952107008	20	4445
2026-01-19 11:08:47.51	236.28	45.82	-29.6	-31.4	13.2	2.05e-05	0	44	0	955252736	20	4424
2026-01-19 11:08:48.51	236.79	45.94	-29.6	-31.4	13.3	2.51e-05	0	44	0	958398464	20	4426
2026-01-19 11:08:49.52	237.32	46.06	-29.7	-31.6	13.1	4.11e-05	0	44	0	961544192	20	4475
2026-01-19 11:08:50.52	237.84	46.18	-29.8	-31.8	13.0	4.19e-05	0	44	0	964689920	20	4553
2026-01-19 11:08:51.53	238.37	46.29	-29.9	-32.2	12.8	5.26e-05	0	44	0	967835648	20	4654
2026-01-19 11:08:52.53	238.90	46.41	-30.0	-32.3	12.7	8.77e-05	0	44	0	970981376	20	4696
2026-01-19 11:08:53.53	239.43	46.52	-30.2	-32.8	12.4	8.85e-05	0	44	0	974127104	20	4877
2026-01-19 11:08:54.53	239.96	46.62	-29.9	-32.1	12.8	9.15e-05	0	44	0	977272832	20	4641
2026-01-19 11:08:55.53	240.50	46.73	-29.8	-31.8	13.0	4.04e-05	0	44	0	980418560	20	4525
2026-01-19 11:08:56.54	241.05	46.83	-29.7	-31.6	13.1	2.28e-05	0	44	0	983564288	20	4475
2026-01-19 11:08:57.54	241.60	46.93	-30.0	-32.2	12.8	4.57e-05	0	44	0	986710016	20	4675
2026-01-19 11:08:58.54	242.15	47.03	-30.0	-32.4	12.6	8.85e-05	0	44	0	989855744	20	4745
2026-01-19 11:08:59.54	242.70	47.13	-30.1	-32.6	12.5	1.30e-04	0	44	0	993001472	20	4800
2026-01-19 11:09:00.54	243.26	47.22	-30.1	-32.6	12.5	1.21e-04	0	44	0	996147200	20	4817
2026-01-19 11:09:01.54	243.82	47.31	-29.8	-31.8	13.0	3.12e-05	0	44	0	999292928	20	4531
2026-01-19 11:09:02.55	244.39	47.40	-29.6	-31.2	13.4	2.05e-05	0	44	0	1002438656	20	4369
2026-01-19 11:09:03.55	244.96	47.48	-29.3	-30.6	13.7	4.50e-06	0	44	0	1005584384	20	4178
2026-01-19 11:09:04.56	245.53	47.57	-29.6	-31.3	13.3	1.44e-05	0	44	0	1008730112	20	4389
2026-01-19 11:09:05.56	246.10	47.65	-29.9	-32.1	12.8	6.56e-05	0	44	0	1011875840	20	4642
2026-01-19 11:09:06.55	246.67	47.72	-30.0	-32.4	12.6	7.78e-05	0	44	0	1015021568	20	4745
2026-01-19 11:09:07.56	247.26	47.80	-30.0	-32.3	12.7	1.04e-04	0	44	0	1018167296	20	4681
2026-01-19 11:09:08.56	247.84	47.87	-29.6	-31.3	13.3	3.89e-05	0	44	0	1021313024	20	4386
2026-01-19 11:09:09.57	248.43	47.93	-29.5	-31.0	13.4	1.90e-05	0	44	0	1024458752	20	4301
2026-01-19 11:09:10.57	249.01	48.00	-29.6	-31.3	13.3	9.10e-06	0	44	0	1027604480	20	4395
2026-01-19 11:09:11.57	249.60	48.06	-29.9	-32.0	12.9	3.89e-05	0	44	0	1030750208	20	4595
2026-01-19 11:09:12.57	250.19	48.12	-30.1	-32.6	12.6	1.01e-04	0	44	0	1033895936	20	4784
2026-01-19 11:09:13.58	250.79	48.17	-29.9	-32.0	12.9	5.64e-05	0	44	0	1037041664	20	4588
2026-01-19 11:09:14.59	251.39	48.22	-29.6	-31.4	13.3	3.05e-05	0	44	0	1040187392	20	4403
2026-01-19 11:09:15.59	251.98	48.27	-29.4	-30.9	13.5	1.29e-05	0	44	0	1043333120	20	4276
2026-01-19 11:09:16.59	252.58	48.32	-29.4	-30.8	13.6	9.90e-06	0	44	0	1046478848	20	4242
2026-01-19 11:09:17.59	253.18	48.36	-29.3	-31.1	13.8	7.60e-06	0	44	0	1049624576	19	4426
2026-01-19 11:09:18.60	253.79	48.40	-29.4	-31.2	13.7	3.80e-06	0	44	0	1052770304	19	4457
2026-01-19 11:09:19.59	254.38	48.43	-29.6	-31.8	13.5	6.10e-06	0	44	0	1055916032	19	4623
2026-01-19 11:09:20.60	254.99	48.46	-29.7	-32.1	13.2	2.36e-05	0	44	0	1059061760	19	4731
2026-01-19 11:09:21.61	255.60	48.49	-29.9	-32.6	12.9	3.35e-05	0	44	0	1062207488	19	4881
2026-01-19 11:09:22.61	256.21	48.52	-29.8	-32.3	13.1	4.27e-05	0	44	0	1065353216	19	4802
2026-01-19 11:09:23.61	256.82	48.54	-29.7	-32.0	13.3	1.60e-05	0	44	0	1068498944	19	4705
2026-01-19 11:09:24.61	257.42	48.55	-29.6	-31.8	13.5	1.44e-05	0	44	0	1071644672	19	4623
2026-01-19 11:09:25.62	258.04	48.57	-29.6	-31.8	13.4	1.29e-05	0	44	0	1074790400	19	4630
2026-01-19 11:09:26.62	258.65	48.58	-29.8	-32.3	13.1	1.67e-05	0	44	0	1077936128	19	4790
2026-01-19 11:09:27.62	259.26	48.59	-29.9	-32.0	12.9	3.96e-05	0	44	0	1081081856	20	4590
2026-01-19 11:09:28.63	259.87	48.59	-30.0	-32.2	12.8	5.26e-05	0	44	0	1084227584	20	4640
2026-01-19 11:09:29.62	260.47	48.59	-30.2	-32.9	12.4	1.02e-04	0	44	0	1087373312	20	4871
2026-01-19 11:09:30.62	261.08	48.59	-30.4	-33.2	12.2	1.93e-04	0	44	0	1090519040	20	5007
2026-01-19 11:09:31.63	261.70	48.59	-30.2	-32.9	12.4	1.63e-04	0	44	0	1093664768	20	4874
2026-01-19 11:09:32.63	262.31	48.58	-30.1	-32.6	12.6	9.99e-05	0	44	0	1096810496	20	4780
2026-01-19 11:09:33.63	262.92	48.56	-30.1	-32.5	12.6	8.77e-05	0	44	0	1099956224	20	4741
2026-01-19 11:09:34.64	263.53	48.55	-30.2	-32.9	12.4	1.33e-04	0	44	0	1103101952	20	4879
2026-01-19 11:09:35.64	264.14	48.53	-30.0	-32.3	12.8	7.09e-05	0	44	0	1106247680	20	4682
2026-01-19 11:09:36.65	264.75	48.50	-29.4	-30.9	13.6	1.14e-05	0	44	0	1109393408	20	4240
2026-01-19 11:09:37.66	265.36	48.48	-29.3	-30.9	14.0	0.00e+00	0	44	0	1112539136	19	4353
2026-01-19 11:09:38.66	265.96	48.45	-29.6	-31.9	13.4	5.30e-06	0	44	0	1115684864	19	4650
2026-01-19 11:09:39.67	266.57	48.42	-29.8	-32.2	13.3	3.35e-05	0	44	0	1118830592	19	4749
2026-01-19 11:09:40.67	267.17	48.38	-29.8	-32.3	13.1	2.59e-05	0	44	0	1121976320	19	4810
2026-01-19 11:09:41.67	267.77	48.34	-29.8	-32.3	13.2	3.28e-05	0	44	0	1125122048	19	4778
2026-01-19 11:09:42.68	268.38	48.30	-29.8	-32.4	13.1	3.35e-05	0	44	0	1128267776	19	4821
2026-01-19 11:09:43.68	268.97	48.25	-29.9	-32.6	13.0	3.35e-05	0	44	0	1131413504	19	4895
2026-01-19 11:09:44.69	269.57	48.20	-30.0	-32.4	12.7	5.11e-05	0	44	0	1134559232	20	4737
2026-01-19 11:09:45.69	270.17	48.15	-30.2	-32.7	12.5	1.18e-04	0	44	0	1137704960	20	4832
2026-01-19 11:09:46.69	270.76	48.09	-30.2	-32.7	12.6	8.23e-05	0	44	0	1140850688	20	4834
2026-01-19 11:09:47.69	271.35	48.03	-30.2	-32.7	12.6	1.02e-04	0	44	0	1143996416	20	4825
2026-01-19 11:09:48.70	271.94	47.97	-29.7	-31.6	13.2	3.58e-05	0	44	0	1147142144	20	4482
2026-01-19 11:09:49.71	272.53	47.90	-29.6	-31.3	13.4	1.29e-05	0	44	0	1150287872	20	4391
2026-01-19 11:09:50.71	273.11	47.84	-29.7	-31.5	13.3	1.44e-05	0	44	0	1153433600	20	4439
2026-01-19 11:09:51.72	273.69	47.76	-29.8	-31.9	13.0	3.50e-05	0	44	0	1156579328	20	4562
2026-01-19 11:09:52.72	274.27	47.69	-30.1	-32.7	12.5	8.31e-05	0	44	0	1159725056	20	4814
2026-01-19 11:09:53.72	274.84	47.61	-30.2	-32.9	12.4	1.45e-04	0	44	0	1162870784	20	4880
2026-01-19 11:09:54.72	275.41	47.53	-30.3	-33.0	12.4	1.87e-04	0	44	0	1166016512	20	4924
2026-01-19 11:09:55.72	275.98	47.45	-30.2	-32.8	12.5	1.10e-04	0	44	0	1169162240	20	4865
2026-01-19 11:09:56.73	276.55	47.36	-30.1	-32.5	12.7	1.14e-04	0	44	0	1172307968	20	4745
2026-01-19 11:09:57.73	277.11	47.27	-29.8	-31.9	13.0	4.04e-05	0	44	0	1175453696	20	4556
2026-01-19 11:09:58.73	277.67	47.18	-30.2	-32.7	12.6	8.16e-05	0	44	0	1178599424	20	4814
2026-01-19 11:09:59.73	278.22	47.09	-30.2	-32.7	12.6	1.11e-04	0	44	0	1180696576	20	4831
2026-01-19 11:10:00.73	278.77	46.99	-30.2	-32.8	12.5	1.07e-04	0	44	0	1183842304	20	4838
2026-01-19 11:10:01.73	279.32	46.89	-30.3	-32.9	12.4	1.62e-04	0	44	0	1186988032	20	4907
2026-01-19 11:10:02.73	279.87	46.79	-30.4	-33.2	12.2	2.49e-04	0	44	0	1190133760	20	5013
2026-01-19 11:10:03.73	280.41	46.69	-30.0	-32.4	12.8	9.91e-05	0	44	0	1193279488	20	4724
2026-01-19 11:10:04.74	280.95	46.58	-29.9	-32.0	12.9	4.50e-05	0	44	0	1196425216	20	4595
2026-01-19 11:10:05.74	281.48	46.47	-30.0	-32.2	12.9	6.48e-05	0	44	0	1199570944	20	4665
2026-01-19 11:10:06.75	282.02	46.36	-29.9	-32.0	13.1	3.58e-05	0	44	0	1202716672	20	4572
2026-01-19 11:10:07.75	282.54	46.24	-29.9	-32.0	13.0	3.28e-05	0	44	0	1205862400	20	4589
2026-01-19 11:10:08.75	283.07	46.13	-30.3	-33.0	12.4	9.15e-05	0	44	0	1209008128	20	4903
2026-01-19 11:10:09.75	283.58	46.01	-30.4	-33.2	12.2	1.97e-04	0	44	0	1212153856	20	4998
2026-01-19 11:10:10.76	284.10	45.89	-30.2	-32.9	12.5	1.56e-04	0	44	0	1215299584	20	4895
2026-01-19 11:10:11.76	284.61	45.77	-29.7	-31.6	13.2	3.20e-05	0	44	0	1218445312	20	4475
2026-01-19 11:10:12.76	285.12	45.64	-29.4	-30.7	13.8	6.80e-06	0	44	0	1221591040	20	4201
2026-01-19 11:10:13.77	285.63	45.52	-29.4	-31.1	13.9	0.00e+00	0	44	0	1224736768	19	4417
2026-01-19 11:10:14.76	286.12	45.39	-29.2	-30.8	14.1	1.50e-06	0	44	0	1227882496	19	4332
2026-01-19 11:10:15.77	286.62	45.26	-29.3	-31.0	14.0	7.00e-07	0	44	0	1231028224	19	4383
2026-01-19 11:10:16.77	287.11	45.12	-29.5	-31.5	13.7	3.80e-06	0	44	0	1234173952	19	4525
2026-01-19 11:10:17.78	287.60	44.99	-29.5	-31.6	13.6	1.14e-05	0	44	0	1237319680	19	4576
2026-01-19 11:10:18.78	288.08	44.85	-29.7	-32.0	13.4	1.83e-05	0	44	0	1240465408	19	4690
2026-01-19 11:10:19.78	288.56	44.72	-29.4	-31.3	13.9	9.10e-06	0	44	0	1243611136	19	4462
2026-01-19 11:10:20.78	289.04	44.58	-29.4	-31.2	13.8	3.80e-06	0	44	0	1246756864	19	4456
2026-01-19 11:10:21.79	289.51	44.43	-29.6	-31.8	13.5	1.22e-05	0	44	0	1249902592	19	4627
2026-01-19 11:10:22.79	289.98	44.29	-29.9	-32.4	13.1	2.44e-05	0	44	0	1253048320	19	4823
2026-01-19 11:10:23.79	290.44	44.15	-29.8	-32.3	13.2	3.05e-05	0	44	0	1256194048	19	4792
2026-01-19 11:10:24.79	290.90	44.00	-29.7	-32.1	13.3	2.21e-05	0	44	0	1259339776	19	4703
2026-01-19 11:10:25.79	291.35	43.86	-29.9	-32.5	13.1	3.50e-05	0	44	0	1262485504	19	4856
2026-01-19 11:10:26.80	291.80	43.71	-30.2	-32.7	12.6	1.01e-04	0	44	0	1265631232	20	4815
2026-01-19 11:10:27.80	292.25	43.56	-30.3	-32.9	12.4	1.16e-04	0	44	0	1268776960	20	4901
2026-01-19 11:10:28.81	292.69	43.41	-30.1	-32.6	12.7	1.07e-04	0	44	0	1271922688	20	4767
2026-01-19 11:10:29.81	293.13	43.25	-30.2	-32.8	12.5	1.03e-04	0	44	0	1275068416	20	4848
2026-01-19 11:10:30.81	293.56	43.10	-30.3	-33.1	12.4	1.34e-04	0	44	0	1278214144	20	4934
2026-01-19 11:10:31.81	293.99	42.95	-30.5	-33.5	12.1	1.66e-04	0	44	0	1281359872	20	5091
2026-01-19 11:10:32.82	294.42	42.79	-30.4	-32.8	12.2	2.84e-04	0	44	0	1284505600	21	4736
2026-01-19 11:10:33.82	294.84	42.63	-30.4	-32.8	12.2	2.67e-04	0	44	0	1287651328	21	4754
2026-01-19 11:10:34.82	295.26	42.48	-30.4	-32.8	12.2	1.93e-04	0	44	0	1290797056	21	4724
2026-01-19 11:10:35.83	295.67	42.32	-30.5	-32.9	12.1	2.81e-04	0	44	0	1293942784	21	4785
2026-01-19 11:10:36.83	296.08	42.16	-30.3	-32.4	12.4	1.65e-04	0	44	0	1297088512	21	4616
2026-01-19 11:10:37.84	296.49	42.00	-30.1	-31.9	12.8	8.46e-05	0	44	0	1300234240	21	4456
2026-01-19 11:10:38.84	296.89	41.84	-29.9	-31.4	13.1	3.58e-05	0	44	0	1303379968	21	4304
2026-01-19 11:10:39.83	297.28	41.68	-29.9	-31.5	13.0	3.96e-05	0	44	0	1306525696	21	4318
2026-01-19 11:10:40.84	297.68	41.51	-29.9	-31.6	13.0	3.89e-05	0	44	0	1309671424	21	4347
2026-01-19 11:10:41.84	298.07	41.35	-30.3	-32.6	12.4	9.00e-05	0	44	0	1312817152	21	4667
2026-01-19 11:10:42.85	298.46	41.18	-30.3	-32.6	12.3	1.78e-04	0	44	0	1315962880	21	4682
2026-01-19 11:10:43.86	298.84	41.02	-30.3	-32.5	12.4	1.41e-04	0	44	0	1319108608	21	4648
2026-01-19 11:10:44.87	299.22	40.85	-30.2	-32.4	12.5	1.15e-04	0	44	0	1322254336	21	4601
2026-01-19 11:10:45.87	299.59	40.68	-30.4	-32.9	12.1	2.25e-04	0	44	0	1325400064	21	4775
2026-01-19 11:10:46.87	299.96	40.52	-30.1	-32.1	12.6	1.60e-04	0	44	0	1328545792	21	4519
2026-01-19 11:10:47.88	300.33	40.35	-29.8	-31.3	13.1	2.97e-05	0	44	0	1331691520	21	4271
2026-01-19 11:10:48.88	300.69	40.18	-29.7	-31.4	13.4	1.52e-05	0	44	0	1334837248	20	4402
2026-01-19 11:10:49.87	301.05	40.02	-29.8	-31.8	13.2	1.52e-05	0	44	0	1337982976	20	4518
2026-01-19 11:10:50.88	301.41	39.85	-29.8	-31.8	13.1	3.58e-05	0	44	0	1341128704	20	4530
2026-01-19 11:10:51.88	301.76	39.68	-29.9	-32.1	12.9	4.88e-05	0	44	0	1344274432	20	4618
2026-01-19 11:10:52.88	302.11	39.51	-30.1	-32.5	12.6	6.94e-05	0	44	0	1347420160	20	4759
2026-01-19 11:10:53.88	302.45	39.34	-30.0	-32.3	12.8	6.63e-05	0	44	0	1350565888	20	4677
2026-01-19 11:10:54.88	302.79	39.17	-29.8	-31.8	13.1	2.89e-05	0	44	0	1353711616	20	4533
2026-01-19 11:10:55.89	303.13	39.00	-30.0	-32.2	12.9	5.26e-05	0	44	0	1356857344	20	4642
2026-01-19 11:10:56.90	303.47	38.83	-29.9	-32.0	13.0	4.88e-05	0	44	0	1360003072	20	4575
2026-01-19 11:10:57.91	303.80	38.66	-30.1	-32.6	12.6	7.32e-05	0	44	0	1363148800	20	4784
2026-01-19 11:10:58.91	304.13	38.49	-29.9	-32.1	12.9	6.56e-05	0	44	0	1366294528	20	4635
2026-01-19 11:10:59.92	304.45	38.31	-29.8	-31.8	13.1	3.28e-05	0	44	0	1369440256	20	4529
2026-01-19 11:11:00.92	304.77	38.14	-29.7	-31.5	13.3	1.90e-05	0	44	0	1372585984	20	4442
2026-01-19 11:11:01.93	305.09	37.97	-29.6	-31.4	13.4	2.28e-05	0	44	0	1375731712	20	4398
2026-01-19 11:11:02.93	305.40	37.80	-29.5	-31.0	13.6	8.30e-06	0	44	0	1378877440	20	4276
2026-01-19 11:11:03.93	305.71	37.63	-29.4	-31.2	13.8	6.80e-06	0	44	0	1382023168	19	4454
2026-01-19 11:11:04.94	306.02	37.46	-28.9	-30.0	14.5	1.50e-06	0	44	0	1385168896	19	4111
2026-01-19 11:11:05.93	306.32	37.29	-28.7	-30.1	14.7	0.00e+00	0	44	0	1388314624	18	4238
2026-01-19 11:11:06.93	306.62	37.12	-28.8	-30.3	14.6	7.00e-07	0	44	0	1391460352	18	4289
2026-01-19 11:11:07.94	306.92	36.94	-28.8	-30.3	14.7	7.00e-07	0	44	0	1394606080	18	4305
2026-01-19 11:11:08.94	307.22	36.77	-28.8	-30.4	14.6	7.00e-07	0	44	0	1397751808	18	4321
2026-01-19 11:11:09.94	307.51	36.60	-28.8	-30.2	14.6	0.00e+00	0	44	0	1400897536	18	4278
2026-01-19 11:11:10.95	307.80	36.43	-28.8	-30.4	14.5	0.00e+00	0	44	0	1404043264	18	4331
2026-01-19 11:11:11.95	308.09	36.26	-28.7	-30.2	14.6	0.00e+00	0	44	0	1407188992	18	4276
2026-01-19 11:11:12.95	308.37	36.09	-28.6	-29.8	14.9	0.00e+00	0	44	0	1410334720	18	4162
2026-01-19 11:11:13.95	308.65	35.92	-28.6	-29.9	14.9	7.00e-07	0	44	0	1413480448	18	4183
2026-01-19 11:11:14.95	308.93	35.75	-28.8	-30.3	14.6	0.00e+00	0	44	0	1416626176	18	4307
2026-01-19 11:11:15.96	309.20	35.58	-28.7	-30.2	14.7	0.00e+00	0	44	0	1419771904	18	4274
2026-01-19 11:11:16.96	309.47	35.41	-28.8	-30.3	14.6	0.00e+00	0	44	0	1422917632	18	4306
2026-01-19 11:11:17.97	309.74	35.24	-29.0	-30.8	14.3	7.00e-07	0	44	0	1426063360	18	4446
2026-01-19 11:11:18.97	310.01	35.07	-29.0	-30.8	14.4	0.00e+00	0	44	0	1429209088	18	4451
2026-01-19 11:11:19.98	310.27	34.90	-28.9	-30.6	14.5	1.50e-06	0	44	0	1432354816	18	4367
2026-01-19 11:11:20.98	310.53	34.73	-28.9	-30.6	14.4	2.20e-06	0	44	0	1435500544	18	4392
2026-01-19 11:11:21.98	310.79	34.56	-28.9	-30.5	14.5	0.00e+00	0	44	0	1438646272	18	4362
2026-01-19 11:11:22.98	311.05	34.39	-29.0	-31.0	14.2	7.00e-07	0	44	0	1441792000	18	4490
2026-01-19 11:11:23.98	311.30	34.23	-29.2	-31.4	14.0	0.00e+00	0	44	0	1444937728	18	4618
2026-01-19 11:11:24.99	311.55	34.06	-29.1	-31.2	14.1	7.00e-07	0	44	0	1448083456	18	4557
2026-01-19 11:11:25.99	311.80	33.89	-29.3	-31.5	13.9	1.50e-06	0	44	0	1451229184	18	4652
2026-01-19 11:11:26.99	312.04	33.72	-29.0	-30.9	14.3	1.50e-06	0	44	0	1454374912	18	4476
2026-01-19 11:11:28.00	312.29	33.55	-28.8	-30.3	14.6	1.50e-06	0	44	0	1456472064	18	4301
2026-01-19 11:11:29.00	312.53	33.39	-28.7	-30.1	14.7	0.00e+00	0	44	0	1459617792	18	4243
2026-01-19 11:11:30.00	312.77	33.22	-28.7	-30.2	14.7	0.00e+00	0	44	0	1462763520	18	4252
2026-01-19 11:11:31.01	313.00	33.06	-28.7	-30.1	14.7	0.00e+00	0	44	0	1465909248	18	4246
2026-01-19 11:11:32.01	313.24	32.89	-28.8	-30.5	14.5	0.00e+00	0	44	0	1469054976	18	4352
2026-01-19 11:11:33.01	313.47	32.73	-28.8	-30.4	14.5	0.00e+00	0	44	0	1472200704	18	4318
2026-01-19 11:11:34.01	313.69	32.56	-28.8	-30.3	14.6	7.00e-07	0	44	0	1475346432	18	4304
2026-01-19 11:11:35.01	313.92	32.40	-28.8	-30.5	14.5	1.50e-06	0	44	0	1478492160	18	4358
2026-01-19 11:11:36.02	314.15	32.23	-28.5	-29.8	14.9	0.00e+00	0	44	0	1481637888	18	4157
2026-01-19 11:11:37.02	314.37	32.07	-28.4	-29.4	15.1	0.00e+00	0	44	0	1484783616	18	4050
2026-01-19 11:11:38.02	314.59	31.91	-28.2	-29.6	15.2	0.00e+00	0	44	0	1487929344	17	4202
2026-01-19 11:11:39.03	314.81	31.75	-28.3	-29.7	15.1	0.00e+00	0	44	0	1491075072	17	4253
2026-01-19 11:11:40.03	315.02	31.58	-28.2	-29.5	15.3	0.00e+00	0	44	0	1494220800	17	4196
2026-01-19 11:11:41.03	315.23	31.42	-28.2	-29.5	15.3	0.00e+00	0	44	0	1497366528	17	4182
2026-01-19 11:11:42.04	315.45	31.26	-28.4	-29.9	15.0	0.00e+00	0	44	0	1500512256	17	4291
2026-01-19 11:11:43.04	315.66	31.10	-28.3	-29.7	15.2	0.00e+00	0	44	0	1503657984	17	4228
2026-01-19 11:11:44.04	315.86	30.94	-28.2	-29.5	15.3	0.00e+00	0	44	0	1506803712	17	4171
2026-01-19 11:11:45.05	316.07	30.78	-28.2	-29.5	15.2	0.00e+00	0	44	0	1509949440	17	4188
2026-01-19 11:11:46.05	316.27	30.62	-28.0	-29.1	15.5	0.00e+00	0	44	0	1513095168	17	4076
2026-01-19 11:11:47.06	316.48	30.46	-27.9	-28.9	15.6	0.00e+00	0	44	0	1516240896	17	4022
2026-01-19 11:11:48.06	316.67	30.31	-28.1	-29.2	15.4	0.00e+00	0	44	0	1519386624	17	4099
2026-01-19 11:11:49.06	316.87	30.15	-28.0	-29.1	15.5	0.00e+00	0	44	0	1522532352	17	4080
2026-01-19 11:11:50.06	317.07	29.99	-28.0	-29.0	15.5	0.00e+00	0	44	0	1525678080	17	4058
2026-01-19 11:11:51.06	317.26	29.84	-28.0	-29.0	15.5	0.00e+00	0	44	0	1528823808	17	4053
2026-01-19 11:11:52.07	317.45	29.68	-28.2	-29.4	15.3	0.00e+00	0	44	0	1531969536	17	4171
2026-01-19 11:11:53.06	317.64	29.52	-28.3	-29.7	15.1	0.00e+00	0	44	0	1535115264	17	4248
2026-01-19 11:11:54.07	317.83	29.37	-28.3	-29.8	15.1	0.00e+00	0	44	0	1538260992	17	4273
2026-01-19 11:11:55.07	318.02	29.21	-28.4	-29.9	15.0	0.00e+00	0	44	0	1541406720	17	4297
2026-01-19 11:11:56.07	318.20	29.06	-28.2	-29.6	15.2	0.00e+00	0	44	0	1544552448	17	4216
2026-01-19 11:11:57.07	318.39	28.91	-28.3	-29.7	15.1	0.00e+00	0	44	0	1547698176	17	4246
2026-01-19 11:11:58.07	318.57	28.76	-28.4	-29.9	15.0	7.00e-07	0	44	0	1550843904	17	4305
2026-01-19 11:11:59.07	318.75	28.60	-28.3	-29.7	15.1	0.00e+00	0	44	0	1553989632	17	4242
2026-01-19 11:12:00.07	318.92	28.45	-28.3	-29.7	15.1	0.00e+00	0	44	0	1557135360	17	4245
2026-01-19 11:12:01.07	319.10	28.30	-28.2	-29.6	15.2	7.00e-07	0	44	0	1560281088	17	4210
2026-01-19 11:12:02.06	319.27	28.15	-28.3	-29.8	15.0	0.00e+00	0	44	0	1563426816	17	4282
2026-01-19 11:12:03.06	319.45	28.00	-28.2	-29.5	15.2	0.00e+00	0	44	0	1566572544	17	4198
2026-01-19 11:12:04.07	319.62	27.85	-28.3	-29.9	15.0	0.00e+00	0	44	0	1569718272	17	4283
2026-01-19 11:12:05.07	319.79	27.70	-28.5	-30.1	14.8	0.00e+00	0	44	0	1572864000	17	4366
2026-01-19 11:12:06.07	319.96	27.56	-28.2	-29.6	15.1	7.00e-07	0	44	0	1576009728	17	4205
2026-01-19 11:12:07.08	320.13	27.41	-28.1	-29.2	15.3	0.00e+00	0	44	0	1579155456	17	4114
2026-01-19 11:12:08.08	320.29	27.26	-28.0	-29.0	15.5	0.00e+00	0	44	0	1582301184	17	4043
2026-01-19 11:12:09.08	320.45	27.11	-27.9	-28.9	15.5	0.00e+00	0	44	0	1585446912	17	4036
2026-01-19 11:12:10.09	320.62	26.97	-28.1	-29.3	15.3	0.00e+00	0	44	0	1588592640	17	4120
2026-01-19 11:12:11.09	320.78	26.82	-27.9	-28.8	15.6	0.00e+00	0	44	0	1591738368	17	3999
2026-01-19 11:12:12.10	320.94	26.68	-28.2	-29.4	15.2	0.00e+00	0	44	0	1594884096	17	4170
2026-01-19 11:12:13.10	321.10	26.53	-28.0	-29.0	15.5	0.00e+00	0	44	0	1598029824	17	4056
2026-01-19 11:12:14.11	321.26	26.39	-27.9	-28.7	15.6	0.00e+00	0	44	0	1601175552	17	3988
2026-01-19 11:12:15.11	321.41	26.24	-27.9	-28.9	15.6	0.00e+00	0	44	0	1604321280	17	4017
2026-01-19 11:12:16.11	321.57	26.10	-28.0	-29.1	15.4	0.00e+00	0	44	0	1607467008	17	4082
2026-01-19 11:12:17.11	321.72	25.96	-28.0	-29.1	15.4	0.00e+00	0	44	0	1610612736	17	4078
2026-01-19 11:12:18.11	321.87	25.82	-27.9	-28.8	15.6	0.00e+00	0	44	0	1613758464	17	3993
2026-01-19 11:12:19.11	322.02	25.68	-27.8	-29.1	15.7	0.00e+00	0	44	0	1616904192	16	4178
2026-01-19 11:12:20.12	322.17	25.53	-27.7	-28.9	15.8	0.00e+00	0	44	0	1620049920	16	4126
2026-01-19 11:12:21.12	322.32	25.39	-27.6	-28.7	15.9	0.00e+00	0	44	0	1623195648	16	4074
2026-01-19 11:12:22.13	322.47	25.25	-27.7	-28.8	15.8	0.00e+00	0	44	0	1626341376	16	4117
2026-01-19 11:12:23.13	322.61	25.12	-27.8	-29.2	15.6	0.00e+00	0	44	0	1629487104	16	4211
2026-01-19 11:12:24.13	322.76	24.98	-27.8	-29.1	15.6	0.00e+00	0	44	0	1632632832	16	4190
2026-01-19 11:12:25.13	322.90	24.84	-27.7	-28.8	15.7	0.00e+00	0	44	0	1635778560	16	4113
2026-01-19 11:12:26.14	323.04	24.70	-27.6	-28.8	15.8	0.00e+00	0	44	0	1638924288	16	4096
2026-01-19 11:12:27.14	323.18	24.56	-27.7	-28.9	15.7	0.00e+00	0	44	0	1642070016	16	4128
2026-01-19 11:12:28.14	323.32	24.43	-27.6	-28.6	15.9	0.00e+00	0	44	0	1645215744	16	4063
2026-01-19 11:12:29.14	323.46	24.29	-27.7	-28.8	15.8	0.00e+00	0	44	0	1648361472	16	4107
2026-01-19 11:12:30.14	323.59	24.16	-27.8	-29.2	15.5	0.00e+00	0	44	0	1651507200	16	4212
2026-01-19 11:12:31.14	323.73	24.02	-27.7	-29.0	15.6	0.00e+00	0	44	0	1654652928	16	4169
2026-01-19 11:12:32.14	323.86	23.89	-27.8	-29.0	15.6	0.00e+00	0	44	0	1657798656	16	4172
2026-01-19 11:12:33.15	324.00	23.76	-27.8	-29.1	15.6	0.00e+00	0	44	0	1660944384	16	4199
2026-01-19 11:12:34.16	324.13	23.62	-27.8	-29.1	15.6	0.00e+00	0	44	0	1664090112	16	4187
2026-01-19 11:12:35.16	324.26	23.49	-27.8	-29.2	15.6	0.00e+00	0	44	0	1667235840	16	4213
2026-01-19 11:12:36.17	324.40	23.36	-27.7	-29.0	15.7	0.00e+00	0	44	0	1670381568	16	4157
2026-01-19 11:12:37.17	324.52	23.23	-27.9	-29.5	15.4	0.00e+00	0	44	0	1673527296	16	4287
2026-01-19 11:12:38.18	324.65	23.09	-27.7	-28.9	15.7	0.00e+00	0	44	0	1676673024	16	4134
2026-01-19 11:12:39.17	324.78	22.96	-27.5	-28.5	15.9	0.00e+00	0	44	0	1679818752	16	4033
2026-01-19 11:12:40.17	324.91	22.83	-27.5	-28.5	15.9	0.00e+00	0	44	0	1682964480	16	4037
2026-01-19 11:12:41.17	325.03	22.71	-27.6	-28.7	15.7	0.00e+00	0	44	0	1686110208	16	4089
2026-01-19 11:12:42.17	325.15	22.58	-27.7	-28.9	15.6	0.00e+00	0	44	0	1689255936	16	4130
2026-01-19 11:12:43.18	325.28	22.45	-27.7	-29.0	15.6	0.00e+00	0	44	0	1692401664	16	4167
2026-01-19 11:12:44.18	325.40	22.32	-27.8	-29.1	15.6	0.00e+00	0	44	0	1695547392	16	4185
2026-01-19 11:12:45.18	325.52	22.19	-27.9	-29.4	15.4	0.00e+00	0	44	0	1698693120	16	4266
2026-01-19 11:12:46.19	325.64	22.07	-27.8	-29.1	15.5	0.00e+00	0	44	0	1701838848	16	4201
2026-01-19 11:12:47.19	325.76	21.94	-27.9	-29.5	15.3	0.00e+00	0	44	0	1704984576	16	4296
2026-01-19 11:12:48.20	325.88	21.81	-28.0	-29.7	15.2	0.00e+00	0	44	0	1708130304	16	4346
2026-01-19 11:12:49.20	326.00	21.69	-28.1	-29.8	15.2	0.00e+00	0	44	0	1710227456	16	4388
2026-01-19 11:12:50.20	326.11	21.56	-28.1	-29.8	15.1	0.00e+00	0	44	0	1713373184	16	4384
2026-01-19 11:12:51.20	326.23	21.44	-28.1	-30.0	15.0	0.00e+00	0	44	0	1716518912	16	4433
2026-01-19 11:12:52.20	326.34	21.32	-28.2	-30.0	15.0	0.00e+00	0	44	0	1719664640	16	4448
2026-01-19 11:12:53.20	326.46	21.19	-28.3	-30.2	14.9	0.00e+00	0	44	0	1722810368	16	4504
2026-01-19 11:12:54.20	326.57	21.07	-28.3	-30.3	14.9	0.00e+00	0	44	0	1725956096	16	4520
2026-01-19 11:12:55.20	326.68	20.95	-28.4	-30.5	14.7	7.00e-07	0	44	0	1729101824	16	4608
2026-01-19 11:12:56.19	326.79	20.83	-28.7	-30.7	14.3	7.00e-07	0	44	0	1732247552	17	4531
2026-01-19 11:12:57.20	326.91	20.71	-28.4	-30.1	14.7	1.50e-06	0	44	0	1735393280	17	4354
2026-01-19 11:12:58.20	327.01	20.59	-28.2	-29.6	14.9	0.00e+00	0	44	0	1738539008	17	4222
2026-01-19 11:12:59.20	327.12	20.47	-28.2	-29.5	15.0	0.00e+00	0	44	0	1741684736	17	4202
2026-01-19 11:13:00.21	327.23	20.34	-28.1	-29.5	15.0	0.00e+00	0	44	0	1744830464	17	4197
2026-01-19 11:13:01.21	327.34	20.23	-28.2	-29.5	15.0	0.00e+00	0	44	0	1747976192	17	4199
2026-01-19 11:13:02.21	327.45	20.11	-28.1	-29.3	15.1	0.00e+00	0	44	0	1751121920	17	4146
2026-01-19 11:13:03.21	327.55	19.99	-28.2	-29.5	15.0	0.00e+00	0	44	0	1754267648	17	4204
2026-01-19 11:13:04.21	327.66	19.87	-28.0	-29.2	15.1	0.00e+00	0	44	0	1757413376	17	4133
2026-01-19 11:13:05.22	327.76	19.75	-28.1	-29.3	15.1	0.00e+00	0	44	0	1760559104	17	4149
2026-01-19 11:13:06.22	327.86	19.64	-28.1	-29.3	15.1	0.00e+00	0	44	0	1763704832	17	4134
2026-01-19 11:13:07.22	327.97	19.52	-27.9	-29.0	15.3	0.00e+00	0	44	0	1766850560	17	4057
2026-01-19 11:13:08.22	328.07	19.40	-27.8	-28.8	15.3	0.00e+00	0	44	0	1769996288	17	4010
2026-01-19 11:13:09.22	328.17	19.29	-27.9	-28.9	15.3	0.00e+00	0	44	0	1773142016	17	4041
2026-01-19 11:13:10.23	328.27	19.17	-27.8	-28.8	15.3	0.00e+00	0	44	0	1776287744	17	4006
2026-01-19 11:13:11.24	328.37	19.06	-27.9	-28.9	15.3	0.00e+00	0	44	0	1779433472	17	4030
2026-01-19 11:13:12.24	328.47	18.94	-28.0	-29.2	15.1	0.00e+00	0	44	0	1782579200	17	4120
2026-01-19 11:13:13.24	328.57	18.83	-27.9	-28.9	15.2	7.00e-07	0	44	0	1785724928	17	4046
2026-01-19 11:13:14.25	328.67	18.71	-27.8	-28.8	15.3	0.00e+00	0	44	0	1788870656	17	4013
2026-01-19 11:13:15.26	328.76	18.60	-27.9	-29.0	15.2	0.00e+00	0	44	0	1792016384	17	4061
2026-01-19 11:13:16.26	328.86	18.49	-27.9	-28.8	15.3	0.00e+00	0	44	0	1795162112	17	4026
2026-01-19 11:13:17.27	328.96	18.38	-27.8	-28.7	15.3	0.00e+00	0	44	0	1798307840	17	4002
2026-01-19 11:13:18.27	329.05	18.26	-27.8	-29.1	15.4	0.00e+00	0	44	0	1801453568	16	4208
2026-01-19 11:13:19.27	329.14	18.15	-27.8	-29.1	15.4	0.00e+00	0	44	0	1804599296	16	4208
2026-01-19 11:13:20.27	329.24	18.04	-27.7	-29.0	15.5	0.00e+00	0	44	0	1807745024	16	4181
2026-01-19 11:13:21.28	329.33	17.93	-27.9	-29.4	15.3	0.00e+00	0	44	0	1810890752	16	4268
2026-01-19 11:13:22.28	329.42	17.82	-27.9	-29.4	15.2	0.00e+00	0	44	0	1814036480	16	4293
2026-01-19 11:13:23.28	329.52	17.71	-27.8	-29.1	15.4	0.00e+00	0	44	0	1817182208	16	4206
2026-01-19 11:13:24.29	329.61	17.60	-27.8	-29.2	15.4	0.00e+00	0	44	0	1820327936	16	4226
2026-01-19 11:13:25.29	329.70	17.49	-27.8	-29.2	15.4	0.00e+00	0	44	0	1823473664	16	4222
2026-01-19 11:13:26.29	329.79	17.39	-27.9	-29.4	15.2	0.00e+00	0	44	0	1826619392	16	4291
2026-01-19 11:13:27.29	329.88	17.28	-27.9	-29.4	15.2	0.00e+00	0	44	0	1829765120	16	4294
2026-01-19 11:13:28.29	329.96	17.17	-28.0	-29.7	15.0	3.00e-06	0	44	0	1832910848	16	4374
2026-01-19 11:13:29.30	330.05	17.06	-28.0	-29.6	15.1	0.00e+00	0	44	0	1836056576	16	4331
2026-01-19 11:13:30.31	330.14	16.96	-28.1	-29.8	15.0	0.00e+00	0	44	0	1839202304	16	4391
2026-01-19 11:13:31.31	330.23	16.85	-28.1	-29.9	14.9	0.00e+00	0	44	0	1842348032	16	4425
2026-01-19 11:13:32.31	330.31	16.75	-28.1	-29.9	14.9	0.00e+00	0	44	0	1845493760	16	4424
2026-01-19 11:13:33.31	330.40	16.64	-28.2	-30.1	14.8	0.00e+00	0	44	0	1848639488	16	4479
2026-01-19 11:13:34.31	330.48	16.54	-28.3	-30.4	14.6	7.00e-07	0	44	0	1851785216	16	4573
2026-01-19 11:13:35.31	330.57	16.43	-28.4	-30.7	14.4	0.00e+00	0	44	0	1854930944	16	4655
2026-01-19 11:13:36.32	330.65	16.33	-28.6	-30.6	14.2	7.00e-07	0	44	0	1858076672	17	4530
2026-01-19 11:13:37.32	330.74	16.22	-28.8	-31.0	13.9	3.80e-06	0	44	0	1861222400	17	4660
2026-01-19 11:13:38.32	330.82	16.12	-28.8	-31.1	13.9	4.50e-06	0	44	0	1864368128	17	4690
2026-01-19 11:13:39.32	330.90	16.02	-28.9	-31.4	13.7	4.50e-06	0	44	0	1867513856	17	4772
2026-01-19 11:13:40.33	330.98	15.91	-29.0	-31.4	13.7	6.10e-06	0	44	0	1870659584	17	4791
2026-01-19 11:13:41.32	331.06	15.81	-29.2	-31.4	13.4	1.90e-05	0	44	0	1873805312	18	4677
2026-01-19 11:13:42.33	331.15	15.71	-29.1	-31.4	13.4	1.67e-05	0	44	0	1876951040	18	4662
2026-01-19 11:13:43.33	331.23	15.61	-29.1	-31.3	13.5	1.22e-05	0	44	0	1880096768	18	4625
2026-01-19 11:13:44.33	331.31	15.51	-29.1	-31.2	13.5	8.30e-06	0	44	0	1883242496	18	4593
2026-01-19 11:13:45.34	331.39	15.41	-29.2	-31.4	13.4	1.22e-05	0	44	0	1886388224	18	4671
2026-01-19 11:13:46.34	331.46	15.31	-29.1	-31.3	13.5	1.67e-05	0	44	0	1889533952	18	4627
2026-01-19 11:13:47.34	331.54	15.21	-28.9	-30.8	13.7	5.30e-06	0	44	0	1892679680	18	4486
2026-01-19 11:13:48.35	331.62	15.11	-28.8	-30.6	13.9	5.30e-06	0	44	0	1895825408	18	4413
2026-01-19 11:13:49.35	331.70	15.01	-28.7	-30.3	14.0	3.00e-06	0	44	0	1898971136	18	4319
2026-01-19 11:13:50.35	331.77	14.91	-28.8	-30.5	13.9	2.20e-06	0	44	0	1902116864	18	4385
2026-01-19 11:13:51.35	331.85	14.81	-28.8	-30.5	13.9	4.50e-06	0	44	0	1905262592	18	4403
2026-01-19 11:13:52.35	331.93	14.71	-28.9	-30.9	13.7	7.60e-06	0	44	0	1908408320	18	4505
2026-01-19 11:13:53.35	332.00	14.61	-28.9	-30.9	13.6	5.30e-06	0	44	0	1911554048	18	4521
2026-01-19 11:13:54.36	332.08	14.52	-29.1	-31.3	13.4	1.44e-05	0	44	0	1914699776	18	4629
2026-01-19 11:13:55.36	332.15	14.42	-28.9	-30.9	13.6	6.10e-06	0	44	0	1917845504	18	4504
2026-01-19 11:13:56.36	332.22	14.32	-28.8	-30.5	13.9	7.60e-06	0	44	0	1920991232	18	4394
2026-01-19 11:13:57.37	332.30	14.23	-28.8	-30.6	13.8	2.20e-06	0	44	0	1924136960	18	4411
2026-01-19 11:13:58.37	332.37	14.13	-28.8	-30.5	13.9	4.50e-06	0	44	0	1927282688	18	4392
2026-01-19 11:13:59.37	332.44	14.03	-28.8	-30.5	13.9	5.30e-06	0	44	0	1930428416	18	4390
2026-01-19 11:14:00.37	332.52	13.94	-28.7	-30.3	13.9	2.20e-06	0	44	0	1933574144	18	4339
2026-01-19 11:14:01.38	332.59	13.84	-28.7	-30.4	13.9	4.50e-06	0	44	0	1936719872	18	4357
2026-01-19 11:14:02.38	332.66	13.75	-28.6	-30.1	14.0	2.20e-06	0	44	0	1939865600	18	4287
2026-01-19 11:14:03.38	332.73	13.65	-28.6	-30.0	14.1	0.00e+00	0	44	0	1943011328	18	4261
2026-01-19 11:14:04.38	332.80	13.56	-28.6	-30.0	14.1	3.00e-06	0	44	0	1946157056	18	4264
2026-01-19 11:14:05.38	332.87	13.47	-28.6	-30.2	14.0	2.20e-06	0	44	0	1949302784	18	4295
2026-01-19 11:14:06.39	332.94	13.37	-28.5	-30.0	14.1	1.50e-06	0	44	0	1952448512	18	4245
2026-01-19 11:14:07.39	333.01	13.28	-28.6	-30.1	14.0	1.50e-06	0	44	0	1955594240	18	4279
2026-01-19 11:14:08.40	333.08	13.19	-28.7	-30.3	13.9	6.10e-06	0	44	0	1958739968	18	4347
2026-01-19 11:14:09.40	333.15	13.09	-28.6	-30.2	14.0	4.50e-06	0	44	0	1960837120	18	4297
2026-01-19 11:14:10.40	333.22	13.00	-28.7	-30.3	13.9	3.00e-06	0	44	0	1963982848	18	4323
2026-01-19 11:14:11.40	333.28	12.91	-28.7	-30.4	13.8	4.50e-06	0	44	0	1967128576	18	4368
2026-01-19 11:14:12.41	333.35	12.82	-28.7	-30.3	13.9	3.80e-06	0	44	0	1970274304	18	4348
2026-01-19 11:14:13.41	333.42	12.73	-28.7	-30.4	13.8	6.80e-06	0	44	0	1973420032	18	4371
2026-01-19 11:14:14.41	333.48	12.64	-28.8	-30.5	13.8	8.30e-06	0	44	0	1976565760	18	4385
2026-01-19 11:14:15.42	333.55	12.54	-28.9	-30.9	13.5	6.10e-06	0	44	0	1980760064	18	4513
2026-01-19 11:14:16.42	333.62	12.45	-28.8	-30.6	13.7	5.30e-06	0	44	0	1983905792	18	4429
2026-01-19 11:14:17.43	333.68	12.36	-29.0	-31.0	13.4	1.37e-05	0	44	0	1986002944	18	4561
2026-01-19 11:14:18.44	333.75	12.27	-29.0	-31.0	13.4	1.29e-05	0	44	0	1989148672	18	4562
2026-01-19 11:14:19.44	333.81	12.18	-28.9	-30.8	13.5	1.14e-05	0	44	0	1992294400	18	4496
2026-01-19 11:14:20.45	333.88	12.09	-28.9	-30.9	13.5	9.90e-06	0	44	0	1995440128	18	4513
2026-01-19 11:14:21.45	333.94	12.01	-29.0	-31.0	13.4	1.22e-05	0	44	0	1998585856	18	4557
2026-01-19 11:14:22.46	334.01	11.92	-29.0	-31.1	13.4	1.44e-05	0	44	0	2001731584	18	4578
2026-01-19 11:14:23.46	334.07	11.83	-29.0	-31.0	13.4	1.37e-05	0	44	0	2004877312	18	4565
2026-01-19 11:14:24.46	334.13	11.74	-28.9	-31.0	13.4	1.14e-05	0	44	0	2008023040	18	4537
2026-01-19 11:14:25.47	334.19	11.65	-29.1	-31.3	13.2	1.29e-05	0	44	0	2011168768	18	4643
2026-01-19 11:14:26.47	334.26	11.57	-29.1	-31.4	13.2	2.36e-05	0	44	0	2014314496	18	4679
2026-01-19 11:14:27.47	334.32	11.48	-29.1	-31.4	13.1	3.28e-05	0	44	0	2017460224	18	4682
2026-01-19 11:14:28.48	334.38	11.39	-29.1	-31.3	13.2	2.74e-05	0	44	0	2020605952	18	4647
2026-01-19 11:14:29.48	334.44	11.30	-29.1	-31.3	13.2	2.05e-05	0	44	0	2023751680	18	4658
2026-01-19 11:14:30.48	334.50	11.22	-29.0	-31.2	13.3	2.74e-05	0	44	0	2026897408	18	4613
2026-01-19 11:14:31.48	334.56	11.13	-29.0	-31.2	13.3	1.90e-05	0	44	0	2030043136	18	4619
2026-01-19 11:14:32.48	334.62	11.05	-29.0	-31.2	13.3	2.36e-05	0	44	0	2033188864	18	4619
2026-01-19 11:14:33.49	334.68	10.96	-29.1	-31.3	13.2	1.83e-05	0	44	0	2036334592	18	4645
2026-01-19 11:14:34.50	334.74	10.88	-29.1	-31.4	13.1	2.44e-05	0	44	0	2039480320	18	4677
2026-01-19 11:14:35.50	334.80	10.79	-29.0	-31.2	13.2	3.73e-05	0	44	0	2042626048	18	4618
2026-01-19 11:14:36.49	334.86	10.71	-29.0	-31.2	13.2	1.14e-05	0	44	0	2045771776	18	4627
2026-01-19 11:14:37.50	334.92	10.62	-29.1	-31.3	13.2	2.13e-05	0	44	0	2048917504	18	4650
2026-01-19 11:14:38.51	334.98	10.54	-29.1	-31.4	13.1	2.59e-05	0	44	0	2052063232	18	4681
2026-01-19 11:14:39.51	335.04	10.45	-29.2	-31.5	13.0	2.97e-05	0	44	0	2055208960	18	4727
2026-01-19 11:14:40.51	335.09	10.37	-29.2	-31.6	12.9	4.95e-05	0	44	0	2058354688	18	4748
2026-01-19 11:14:41.51	335.15	10.29	-29.2	-31.5	13.0	4.19e-05	0	44	0	2061500416	18	4725
2026-01-19 11:14:42.51	335.21	10.21	-29.1	-31.4	13.1	2.74e-05	0	44	0	2064646144	18	4677
2026-01-19 11:14:43.51	335.26	10.12	-29.2	-31.6	12.9	5.11e-05	0	44	0	2067791872	18	4748
2026-01-19 11:14:44.51	335.32	10.04	-29.2	-31.7	12.9	4.65e-05	0	44	0	2070937600	18	4772
2026-01-19 11:14:45.51	335.38	9.96	-29.4	-32.1	12.6	1.03e-04	0	44	0	2074083328	18	4912
2026-01-19 11:14:46.50	335.43	9.88	-29.3	-31.8	12.8	6.17e-05	0	44	0	2077229056	18	4811
2026-01-19 11:14:47.50	335.49	9.80	-29.3	-31.9	12.7	6.48e-05	0	44	0	2080374784	18	4860
2026-01-19 11:14:48.50	335.54	9.71	-29.2	-31.8	12.8	5.87e-05	0	44	0	2083520512	18	4813
2026-01-19 11:14:49.51	335.60	9.63	-29.3	-31.9	12.7	8.85e-05	0	44	0	2086666240	18	4854
2026-01-19 11:14:50.51	335.65	9.55	-29.3	-32.0	12.6	9.07e-05	0	44	0	2089811968	18	4896
2026-01-19 11:14:51.52	335.71	9.47	-29.3	-32.0	12.6	8.08e-05	0	44	0	2092957696	18	4876
2026-01-19 11:14:52.52	335.76	9.39	-29.4	-32.0	12.6	9.91e-05	0	44	0	2096103424	18	4905
2026-01-19 11:14:53.53	335.81	9.31	-29.4	-32.3	12.4	1.06e-04	0	44	0	2099249152	18	4993
2026-01-19 11:14:54.53	335.87	9.23	-29.4	-32.2	12.5	1.20e-04	0	44	0	2102394880	18	4952
2026-01-19 11:14:55.54	335.92	9.15	-29.4	-32.2	12.5	1.14e-04	0	44	0	2105540608	18	4951
2026-01-19 11:14:56.55	335.98	9.07	-29.5	-32.4	12.4	1.32e-04	0	44	0	2108686336	18	5029
2026-01-19 11:14:57.54	336.03	8.99	-29.6	-32.1	12.2	1.85e-04	0	44	0	2111832064	19	4823
2026-01-19 11:14:58.55	336.08	8.91	-29.5	-31.9	12.3	2.03e-04	0	44	0	2114977792	19	4737
2026-01-19 11:14:59.55	336.13	8.83	-29.6	-32.1	12.2	1.76e-04	0	44	0	2118123520	19	4822
2026-01-19 11:15:00.56	336.19	8.75	-29.5	-32.1	12.2	2.72e-04	0	44	0	2121269248	19	4811
2026-01-19 11:15:01.56	336.24	8.67	-29.5	-31.8	12.3	1.50e-04	0	44	0	2124414976	19	4727
