passes_logs/2026/01/19/R2M6_AANII_01/R2M6_AANII_01__20260119_092328_NOAA_21_JPSS-2_rec.log

#Pass ID: 20260119_092328_NOAA 21 (JPSS-2)
#Satellite: NOAA 21 (JPSS-2)
#Configuration: NOAA 21
#almurnet v.1.7.20240730
#Start time: 2026-01-19 09:23:29

#Version: 2.2.20231116
#Station: R2M6_AANII_01
#Location: 30.233357 lon 59.946436 lat
#TLE: 1 54234U 22150A   26017.90260625  .00000050  00000+0  44518-4 0  9994
#TLE: 2 54234  98.7502 318.7672 0000612 269.1755  90.9351 14.19535344165221

#Time	Az	El	Level	Level2	SNR	BER	BlckErr	Temp	State	Recorded	gain1	gain2
2026-01-19 09:23:29.09	131.50	7.05	-30.6	-34.7	4.7	1.39e+00	0	41	0	0	22	5769
2026-01-19 09:23:30.09	131.46	7.12	-30.7	-34.8	4.7	1.39e+00	0	41	104	0	22	5767
2026-01-19 09:23:31.10	131.41	7.20	-30.5	-33.5	9.8	1.26e-02	0	41	0	0	22	5067
2026-01-19 09:23:32.11	131.37	7.28	-30.6	-33.8	9.5	1.29e-02	0	41	0	3145728	22	5217
2026-01-19 09:23:33.10	131.32	7.35	-30.6	-34.0	9.4	1.80e-02	0	41	0	6291456	22	5270
2026-01-19 09:23:34.11	131.28	7.43	-30.3	-33.0	10.1	6.87e-03	0	41	0	9437184	22	4879
2026-01-19 09:23:35.11	131.23	7.50	-30.3	-33.4	10.2	5.49e-03	0	41	0	12582912	21	5123
2026-01-19 09:23:36.12	131.18	7.58	-30.2	-33.1	10.4	4.00e-03	0	41	0	15728640	21	5028
2026-01-19 09:23:37.12	131.13	7.66	-30.3	-33.3	10.3	4.87e-03	0	41	0	18874368	21	5115
2026-01-19 09:23:38.12	131.09	7.73	-30.5	-34.0	9.8	9.75e-03	0	42	0	22020096	21	5384
2026-01-19 09:23:39.12	131.04	7.81	-30.1	-32.8	10.6	4.01e-03	0	42	0	24117248	21	4929
2026-01-19 09:23:40.12	130.99	7.89	-29.7	-32.3	11.4	1.29e-03	0	42	0	27262976	20	4817
2026-01-19 09:23:41.11	130.95	7.96	-29.7	-32.0	11.5	5.80e-04	0	41	0	30408704	20	4740
2026-01-19 09:23:42.11	130.90	8.04	-29.3	-31.5	12.3	2.56e-04	0	42	0	33554432	19	4656
2026-01-19 09:23:43.11	130.85	8.12	-29.2	-31.4	12.4	1.07e-04	0	42	0	36700160	19	4606
2026-01-19 09:23:44.11	130.80	8.19	-29.0	-30.8	12.7	1.03e-04	0	42	0	39845888	19	4440
2026-01-19 09:23:45.12	130.75	8.27	-29.1	-31.0	12.6	1.02e-04	0	42	0	42991616	19	4494
2026-01-19 09:23:46.12	130.70	8.35	-29.2	-31.3	12.5	8.92e-05	0	42	0	46137344	19	4574
2026-01-19 09:23:47.13	130.65	8.43	-29.2	-31.3	12.5	1.07e-04	0	42	0	49283072	19	4575
2026-01-19 09:23:48.13	130.60	8.51	-29.2	-31.3	12.5	1.27e-04	0	42	0	52428800	19	4598
2026-01-19 09:23:49.13	130.55	8.59	-29.2	-31.2	12.5	1.18e-04	0	42	0	55574528	19	4564
2026-01-19 09:23:50.13	130.50	8.67	-29.3	-31.5	12.3	1.20e-04	0	42	0	58720256	19	4655
2026-01-19 09:23:51.14	130.45	8.75	-29.2	-31.2	12.6	8.85e-05	0	42	0	61865984	19	4544
2026-01-19 09:23:52.15	130.40	8.83	-29.1	-31.1	12.7	7.85e-05	0	42	0	65011712	19	4511
2026-01-19 09:23:53.15	130.35	8.90	-29.2	-31.3	12.5	8.54e-05	0	42	0	68157440	19	4588
2026-01-19 09:23:54.16	130.29	8.99	-29.3	-31.5	12.4	1.17e-04	0	42	0	71303168	19	4651
2026-01-19 09:23:55.16	130.24	9.07	-29.4	-31.9	12.2	2.49e-04	0	42	0	74448896	19	4781
2026-01-19 09:23:56.16	130.19	9.15	-29.2	-31.2	12.6	1.03e-04	0	42	0	77594624	19	4565
2026-01-19 09:23:57.16	130.14	9.23	-29.0	-30.9	12.8	6.63e-05	0	42	0	80740352	19	4442
2026-01-19 09:23:58.16	130.09	9.31	-28.9	-30.6	13.0	4.88e-05	0	42	0	83886080	19	4350
2026-01-19 09:23:59.16	130.03	9.39	-29.0	-30.8	12.9	4.73e-05	0	42	0	87031808	19	4421
2026-01-19 09:24:00.17	129.98	9.47	-29.0	-30.7	13.0	4.88e-05	0	42	0	90177536	19	4391
2026-01-19 09:24:01.17	129.92	9.55	-29.0	-30.8	12.9	5.34e-05	0	42	0	93323264	19	4433
2026-01-19 09:24:02.17	129.87	9.63	-29.0	-30.9	12.9	3.96e-05	0	42	0	96468992	19	4448
2026-01-19 09:24:03.17	129.82	9.72	-29.0	-30.8	13.0	5.11e-05	0	42	0	99614720	19	4410
2026-01-19 09:24:04.17	129.76	9.80	-29.0	-30.9	12.9	5.87e-05	0	42	0	102760448	19	4440
2026-01-19 09:24:05.18	129.71	9.88	-29.0	-30.8	12.9	4.95e-05	0	42	0	105906176	19	4432
2026-01-19 09:24:06.18	129.65	9.96	-28.9	-30.6	13.1	2.89e-05	0	42	0	109051904	19	4360
2026-01-19 09:24:07.18	129.60	10.05	-28.9	-30.6	13.1	1.90e-05	0	42	0	112197632	19	4355
2026-01-19 09:24:08.19	129.54	10.13	-28.9	-30.5	13.2	2.51e-05	0	42	0	115343360	19	4327
2026-01-19 09:24:09.19	129.48	10.21	-28.9	-30.5	13.2	2.05e-05	0	42	0	118489088	19	4330
2026-01-19 09:24:10.19	129.43	10.30	-28.9	-30.4	13.3	1.44e-05	0	42	0	121634816	19	4294
2026-01-19 09:24:11.19	129.37	10.38	-28.9	-30.4	13.3	2.05e-05	0	42	0	124780544	19	4283
2026-01-19 09:24:12.20	129.31	10.47	-28.8	-30.2	13.4	2.05e-05	0	42	0	127926272	19	4233
2026-01-19 09:24:13.20	129.25	10.55	-28.8	-30.2	13.4	1.29e-05	0	42	0	131072000	19	4217
2026-01-19 09:24:14.20	129.19	10.64	-28.9	-30.5	13.2	1.22e-05	0	42	0	134217728	19	4319
2026-01-19 09:24:15.21	129.14	10.72	-28.9	-30.3	13.4	1.67e-05	0	42	0	137363456	19	4267
2026-01-19 09:24:16.20	129.08	10.81	-28.7	-30.5	13.6	9.10e-06	0	43	0	140509184	18	4423
2026-01-19 09:24:17.21	129.02	10.89	-28.8	-30.6	13.5	1.60e-05	0	42	0	143654912	18	4446
2026-01-19 09:24:18.21	128.96	10.98	-28.8	-30.7	13.4	1.60e-05	0	42	0	146800640	18	4476
2026-01-19 09:24:19.21	128.90	11.07	-28.7	-30.4	13.6	6.80e-06	0	42	0	149946368	18	4378
2026-01-19 09:24:20.22	128.84	11.15	-28.5	-30.0	13.9	2.20e-06	0	42	0	153092096	18	4278
2026-01-19 09:24:21.22	128.78	11.24	-28.6	-30.1	13.8	4.50e-06	0	42	0	156237824	18	4298
2026-01-19 09:24:22.22	128.72	11.33	-28.6	-30.3	13.7	3.80e-06	0	43	0	159383552	18	4347
2026-01-19 09:24:23.22	128.65	11.41	-28.6	-30.3	13.7	4.50e-06	0	42	0	162529280	18	4345
2026-01-19 09:24:24.23	128.59	11.50	-28.6	-30.1	13.8	3.00e-06	0	42	0	165675008	18	4300
2026-01-19 09:24:25.24	128.53	11.59	-28.5	-29.9	14.0	1.50e-06	0	43	0	168820736	18	4231
2026-01-19 09:24:26.24	128.47	11.68	-28.5	-29.9	14.0	5.30e-06	0	42	0	171966464	18	4242
2026-01-19 09:24:27.25	128.40	11.77	-28.5	-29.9	14.0	1.50e-06	0	42	0	175112192	18	4241
2026-01-19 09:24:28.25	128.34	11.86	-28.5	-30.0	13.9	3.00e-06	0	42	0	178257920	18	4280
2026-01-19 09:24:29.25	128.28	11.95	-28.4	-29.7	14.1	7.00e-07	0	42	0	181403648	18	4185
2026-01-19 09:24:30.25	128.21	12.03	-28.2	-29.8	14.3	7.60e-06	0	43	0	184549376	17	4335
2026-01-19 09:24:31.26	128.15	12.12	-28.3	-30.0	14.2	7.00e-07	0	43	0	187695104	17	4376
2026-01-19 09:24:32.26	128.08	12.21	-28.3	-30.0	14.2	7.00e-07	0	42	0	190840832	17	4379
2026-01-19 09:24:33.26	128.02	12.30	-28.3	-30.1	14.2	2.20e-06	0	43	0	193986560	17	4407
2026-01-19 09:24:34.26	127.95	12.40	-28.3	-30.0	14.3	0.00e+00	0	43	0	197132288	17	4370
2026-01-19 09:24:35.26	127.89	12.49	-28.3	-29.9	14.3	1.50e-06	0	42	0	200278016	17	4347
2026-01-19 09:24:36.27	127.82	12.58	-28.4	-30.1	14.1	8.30e-06	0	43	0	203423744	17	4417
2026-01-19 09:24:37.26	127.75	12.67	-28.3	-30.0	14.3	1.50e-06	0	43	0	206569472	17	4360
2026-01-19 09:24:38.27	127.68	12.76	-28.2	-29.8	14.4	7.00e-07	0	43	0	209715200	17	4325
2026-01-19 09:24:39.28	127.61	12.85	-28.3	-30.0	14.2	6.80e-06	0	43	0	212860928	17	4383
2026-01-19 09:24:40.28	127.55	12.95	-28.4	-30.1	14.2	1.50e-06	0	43	0	216006656	17	4406
2026-01-19 09:24:41.29	127.48	13.04	-28.3	-29.9	14.3	7.00e-07	0	43	0	219152384	17	4351
2026-01-19 09:24:42.29	127.41	13.13	-28.3	-29.8	14.4	1.50e-06	0	43	0	222298112	17	4321
2026-01-19 09:24:43.29	127.34	13.22	-28.3	-30.0	14.3	0.00e+00	0	43	0	225443840	17	4362
2026-01-19 09:24:44.29	127.27	13.32	-28.3	-29.9	14.4	0.00e+00	0	43	0	228589568	17	4328
2026-01-19 09:24:45.30	127.20	13.41	-28.3	-29.9	14.4	4.50e-06	0	43	0	231735296	17	4320
2026-01-19 09:24:46.30	127.13	13.51	-28.2	-29.8	14.5	7.00e-07	0	43	0	234881024	17	4297
2026-01-19 09:24:47.30	127.05	13.60	-28.3	-29.9	14.4	1.50e-06	0	43	0	238026752	17	4318
2026-01-19 09:24:48.31	126.98	13.70	-28.2	-29.8	14.5	7.00e-07	0	43	0	241172480	17	4298
2026-01-19 09:24:49.31	126.91	13.79	-28.3	-29.9	14.4	0.00e+00	0	43	0	244318208	17	4344
2026-01-19 09:24:50.31	126.84	13.89	-28.3	-29.9	14.4	0.00e+00	0	43	0	247463936	17	4332
2026-01-19 09:24:51.32	126.76	13.98	-28.2	-29.6	14.6	0.00e+00	0	43	0	250609664	17	4235
2026-01-19 09:24:52.32	126.69	14.08	-28.1	-29.5	14.7	7.00e-07	0	43	0	253755392	17	4215
2026-01-19 09:24:53.32	126.61	14.18	-28.1	-29.4	14.7	0.00e+00	0	43	0	256901120	17	4193
2026-01-19 09:24:54.32	126.54	14.27	-28.1	-29.4	14.8	0.00e+00	0	43	0	260046848	17	4173
2026-01-19 09:24:55.33	126.46	14.37	-28.2	-29.6	14.6	0.00e+00	0	43	0	263192576	17	4232
2026-01-19 09:24:56.33	126.39	14.47	-28.1	-29.5	14.7	0.00e+00	0	43	0	266338304	17	4210
2026-01-19 09:24:57.33	126.31	14.57	-28.1	-29.5	14.7	0.00e+00	0	43	0	269484032	17	4213
2026-01-19 09:24:58.34	126.23	14.67	-28.0	-29.3	14.8	0.00e+00	0	43	0	272629760	17	4154
2026-01-19 09:24:59.34	126.15	14.76	-28.1	-29.4	14.7	0.00e+00	0	43	0	275775488	17	4196
2026-01-19 09:25:00.34	126.08	14.86	-28.2	-29.6	14.6	1.50e-06	0	43	0	278921216	17	4243
2026-01-19 09:25:01.35	126.00	14.96	-28.2	-29.6	14.7	0.00e+00	0	43	0	282066944	17	4247
2026-01-19 09:25:02.35	125.92	15.06	-28.2	-29.7	14.6	0.00e+00	0	43	0	285212672	17	4270
2026-01-19 09:25:03.35	125.84	15.16	-28.3	-29.9	14.5	0.00e+00	0	43	0	288358400	17	4338
2026-01-19 09:25:04.35	125.76	15.26	-28.3	-29.8	14.5	1.50e-06	0	43	0	291504128	17	4308
2026-01-19 09:25:05.35	125.68	15.36	-28.2	-29.8	14.6	7.00e-07	0	43	0	294649856	17	4288
2026-01-19 09:25:06.35	125.60	15.46	-28.3	-29.8	14.6	0.00e+00	0	43	0	297795584	17	4301
2026-01-19 09:25:07.35	125.51	15.56	-28.4	-30.0	14.4	0.00e+00	0	43	0	300941312	17	4363
2026-01-19 09:25:08.35	125.43	15.67	-28.4	-30.0	14.5	0.00e+00	0	43	0	303038464	17	4361
2026-01-19 09:25:09.35	125.35	15.77	-28.3	-30.0	14.5	0.00e+00	0	43	0	306184192	17	4348
2026-01-19 09:25:10.34	125.26	15.87	-28.4	-30.2	14.4	1.50e-06	0	43	0	309329920	17	4406
2026-01-19 09:25:11.35	125.18	15.97	-28.4	-30.2	14.4	0.00e+00	0	43	0	312475648	17	4412
2026-01-19 09:25:12.36	125.09	16.08	-28.4	-30.0	14.5	7.00e-07	0	43	0	315621376	17	4358
2026-01-19 09:25:13.36	125.01	16.18	-28.4	-30.0	14.5	0.00e+00	0	43	0	318767104	17	4363
2026-01-19 09:25:14.36	124.92	16.28	-28.4	-30.1	14.5	1.50e-06	0	43	0	321912832	17	4373
2026-01-19 09:25:15.36	124.84	16.39	-28.5	-30.4	14.3	7.00e-07	0	43	0	325058560	17	4463
2026-01-19 09:25:16.36	124.75	16.49	-28.3	-30.0	14.6	0.00e+00	0	43	0	328204288	17	4337
2026-01-19 09:25:17.37	124.66	16.60	-28.3	-29.9	14.6	7.00e-07	0	43	0	331350016	17	4309
2026-01-19 09:25:18.37	124.57	16.70	-28.3	-29.9	14.6	7.00e-07	0	43	0	334495744	17	4332
2026-01-19 09:25:19.38	124.48	16.81	-28.3	-30.0	14.6	7.00e-07	0	43	0	337641472	17	4346
2026-01-19 09:25:20.38	124.39	16.92	-28.4	-30.1	14.5	0.00e+00	0	43	0	340787200	17	4378
2026-01-19 09:25:21.38	124.30	17.02	-28.3	-29.9	14.6	0.00e+00	0	43	0	343932928	17	4332
2026-01-19 09:25:22.38	124.21	17.13	-28.4	-30.2	14.5	3.80e-06	0	43	0	347078656	17	4409
2026-01-19 09:25:23.38	124.12	17.24	-28.3	-29.9	14.6	0.00e+00	0	43	0	350224384	17	4309
2026-01-19 09:25:24.38	124.02	17.34	-28.4	-30.0	14.6	0.00e+00	0	43	0	353370112	17	4339
2026-01-19 09:25:25.39	123.93	17.45	-28.4	-30.1	14.5	0.00e+00	0	43	0	356515840	17	4383
2026-01-19 09:25:26.39	123.84	17.56	-28.5	-30.2	14.5	7.00e-07	0	43	0	359661568	17	4416
2026-01-19 09:25:27.39	123.74	17.67	-28.6	-30.5	14.3	1.50e-06	0	43	0	362807296	17	4498
2026-01-19 09:25:28.39	123.65	17.78	-28.4	-30.1	14.5	0.00e+00	0	43	0	365953024	17	4384
2026-01-19 09:25:29.39	123.55	17.89	-28.4	-30.1	14.5	0.00e+00	0	43	0	369098752	17	4389
2026-01-19 09:25:30.39	123.45	18.00	-28.4	-30.2	14.5	1.50e-06	0	43	0	372244480	17	4410
2026-01-19 09:25:31.40	123.35	18.11	-28.5	-30.2	14.5	7.00e-07	0	43	0	375390208	17	4424
2026-01-19 09:25:32.40	123.26	18.22	-28.5	-30.3	14.4	0.00e+00	0	43	0	378535936	17	4448
2026-01-19 09:25:33.41	123.16	18.33	-28.5	-30.4	14.4	1.50e-06	0	43	0	381681664	17	4470
2026-01-19 09:25:34.40	123.06	18.45	-28.5	-30.4	14.4	0.00e+00	0	43	0	384827392	17	4479
2026-01-19 09:25:35.41	122.96	18.56	-28.5	-30.3	14.5	0.00e+00	0	43	0	387973120	17	4444
2026-01-19 09:25:36.41	122.85	18.67	-28.5	-30.3	14.5	0.00e+00	0	43	0	391118848	17	4435
2026-01-19 09:25:37.41	122.75	18.78	-28.5	-30.2	14.5	0.00e+00	0	43	0	394264576	17	4417
2026-01-19 09:25:38.41	122.65	18.90	-28.4	-30.1	14.6	0.00e+00	0	43	0	397410304	17	4365
2026-01-19 09:25:39.42	122.55	19.01	-28.3	-29.9	14.7	0.00e+00	0	43	0	400556032	17	4329
2026-01-19 09:25:40.42	122.44	19.13	-28.4	-30.0	14.7	7.00e-07	0	43	0	403701760	17	4342
2026-01-19 09:25:41.42	122.34	19.24	-28.3	-29.9	14.8	0.00e+00	0	43	0	406847488	17	4312
2026-01-19 09:25:42.43	122.23	19.36	-28.2	-29.6	14.9	7.00e-07	0	43	0	409993216	17	4243
2026-01-19 09:25:43.44	122.12	19.47	-28.2	-29.5	15.0	0.00e+00	0	43	0	413138944	17	4201
2026-01-19 09:25:44.44	122.01	19.59	-28.2	-29.5	15.0	0.00e+00	0	43	0	416284672	17	4215
2026-01-19 09:25:45.45	121.90	19.71	-28.1	-29.4	15.0	0.00e+00	0	43	0	419430400	17	4182
2026-01-19 09:25:46.45	121.79	19.82	-28.1	-29.3	15.1	0.00e+00	0	43	0	422576128	17	4142
2026-01-19 09:25:47.45	121.68	19.94	-28.0	-29.0	15.3	1.50e-06	0	43	0	425721856	17	4075
2026-01-19 09:25:48.46	121.57	20.06	-28.0	-29.1	15.3	0.00e+00	0	43	0	428867584	17	4079
2026-01-19 09:25:49.45	121.46	20.18	-28.0	-29.1	15.2	0.00e+00	0	43	0	432013312	17	4100
2026-01-19 09:25:50.45	121.35	20.29	-28.0	-29.1	15.2	0.00e+00	0	43	0	435159040	17	4087
2026-01-19 09:25:51.45	121.23	20.41	-27.9	-28.9	15.3	0.00e+00	0	43	0	438304768	17	4046
2026-01-19 09:25:52.45	121.12	20.53	-27.9	-28.9	15.3	0.00e+00	0	43	0	441450496	17	4052
2026-01-19 09:25:53.45	121.00	20.65	-27.8	-28.7	15.5	0.00e+00	0	43	0	444596224	17	3997
2026-01-19 09:25:54.45	120.89	20.77	-27.8	-28.7	15.5	0.00e+00	0	43	0	447741952	17	3994
2026-01-19 09:25:55.45	120.77	20.89	-27.7	-29.0	15.6	0.00e+00	0	43	0	450887680	16	4164
2026-01-19 09:25:56.45	120.65	21.02	-27.7	-28.9	15.7	0.00e+00	0	43	0	454033408	16	4134
2026-01-19 09:25:57.45	120.53	21.14	-27.6	-28.8	15.7	0.00e+00	0	43	0	457179136	16	4105
2026-01-19 09:25:58.45	120.41	21.26	-27.5	-28.5	15.9	0.00e+00	0	43	0	460324864	16	4029
2026-01-19 09:25:59.45	120.29	21.38	-27.4	-28.3	16.0	0.00e+00	0	43	0	463470592	16	3989
2026-01-19 09:26:00.45	120.17	21.50	-27.5	-28.5	16.0	0.00e+00	0	43	0	466616320	16	4024
2026-01-19 09:26:01.45	120.05	21.63	-27.4	-28.2	16.1	0.00e+00	0	43	0	469762048	16	3961
2026-01-19 09:26:02.45	119.92	21.75	-27.1	-28.1	16.2	0.00e+00	0	43	0	472907776	15	4040
2026-01-19 09:26:03.45	119.80	21.88	-27.1	-28.1	16.2	0.00e+00	0	43	0	476053504	15	4045
2026-01-19 09:26:04.46	119.67	22.00	-27.2	-28.2	16.2	0.00e+00	0	43	0	479199232	15	4080
2026-01-19 09:26:05.47	119.54	22.13	-27.2	-28.4	16.1	0.00e+00	0	43	0	482344960	15	4113
2026-01-19 09:26:06.48	119.41	22.26	-27.2	-28.3	16.2	0.00e+00	0	44	0	485490688	15	4083
2026-01-19 09:26:07.48	119.28	22.38	-27.2	-28.4	16.1	0.00e+00	0	43	0	488636416	15	4106
2026-01-19 09:26:08.48	119.15	22.51	-27.2	-28.4	16.1	0.00e+00	0	43	0	491782144	15	4120
2026-01-19 09:26:09.48	119.02	22.64	-27.1	-28.2	16.2	0.00e+00	0	43	0	494927872	15	4074
2026-01-19 09:26:10.49	118.89	22.77	-27.1	-28.1	16.3	0.00e+00	0	43	0	498073600	15	4039
2026-01-19 09:26:11.49	118.75	22.89	-27.2	-28.4	16.1	0.00e+00	0	43	0	501219328	15	4132
2026-01-19 09:26:12.49	118.62	23.02	-27.3	-28.6	16.0	0.00e+00	0	43	0	504365056	15	4170
2026-01-19 09:26:13.49	118.48	23.15	-27.3	-28.5	16.1	0.00e+00	0	43	0	507510784	15	4137
2026-01-19 09:26:14.50	118.34	23.28	-27.2	-28.4	16.1	0.00e+00	0	43	0	510656512	15	4123
2026-01-19 09:26:15.51	118.20	23.41	-27.3	-28.6	16.0	0.00e+00	0	43	0	513802240	15	4177
2026-01-19 09:26:16.51	118.06	23.54	-27.3	-28.6	16.0	0.00e+00	0	43	0	516947968	15	4184
2026-01-19 09:26:17.51	117.92	23.67	-27.2	-28.4	16.2	0.00e+00	0	43	0	520093696	15	4116
2026-01-19 09:26:18.51	117.78	23.81	-27.1	-28.1	16.3	0.00e+00	0	43	0	523239424	15	4042
2026-01-19 09:26:19.52	117.64	23.94	-27.3	-28.6	16.0	0.00e+00	0	43	0	526385152	15	4180
2026-01-19 09:26:20.52	117.49	24.07	-27.3	-28.5	16.1	0.00e+00	0	43	0	529530880	15	4146
2026-01-19 09:26:21.53	117.34	24.21	-27.1	-28.2	16.3	0.00e+00	0	43	0	531628032	15	4061
2026-01-19 09:26:22.53	117.20	24.34	-27.1	-28.1	16.3	0.00e+00	0	44	0	534773760	15	4047
2026-01-19 09:26:23.54	117.05	24.47	-27.1	-28.1	16.3	0.00e+00	0	43	0	537919488	15	4043
2026-01-19 09:26:24.53	116.90	24.61	-27.1	-28.1	16.3	0.00e+00	0	43	0	541065216	15	4051
2026-01-19 09:26:25.54	116.75	24.74	-27.2	-28.3	16.2	0.00e+00	0	44	0	544210944	15	4097
2026-01-19 09:26:26.54	116.59	24.88	-27.2	-28.3	16.2	0.00e+00	0	43	0	548405248	15	4083
2026-01-19 09:26:27.55	116.44	25.01	-27.2	-28.2	16.3	0.00e+00	0	43	0	551550976	15	4070
2026-01-19 09:26:28.55	116.28	25.15	-27.1	-28.2	16.3	0.00e+00	0	43	0	554696704	15	4048
2026-01-19 09:26:29.55	116.13	25.29	-27.2	-28.3	16.2	0.00e+00	0	43	0	556793856	15	4078
2026-01-19 09:26:30.55	115.97	25.42	-27.2	-28.3	16.2	0.00e+00	0	43	0	559939584	15	4097
2026-01-19 09:26:31.56	115.81	25.56	-27.3	-28.5	16.1	0.00e+00	0	43	0	563085312	15	4135
2026-01-19 09:26:32.56	115.65	25.70	-27.3	-28.6	16.1	0.00e+00	0	43	0	566231040	15	4166
2026-01-19 09:26:33.56	115.49	25.84	-27.4	-28.8	16.0	0.00e+00	0	43	0	569376768	15	4226
2026-01-19 09:26:34.56	115.32	25.98	-27.5	-29.1	15.9	0.00e+00	0	44	0	572522496	15	4294
2026-01-19 09:26:35.57	115.16	26.12	-27.5	-29.0	15.8	0.00e+00	0	43	0	575668224	15	4282
2026-01-19 09:26:36.57	114.99	26.26	-27.6	-29.2	15.8	0.00e+00	0	43	0	578813952	15	4338
2026-01-19 09:26:37.57	114.82	26.40	-27.6	-29.2	15.8	0.00e+00	0	43	0	581959680	15	4326
2026-01-19 09:26:38.57	114.66	26.54	-27.7	-29.4	15.7	0.00e+00	0	43	0	585105408	15	4370
2026-01-19 09:26:39.58	114.48	26.68	-27.7	-29.3	15.7	0.00e+00	0	43	0	588251136	15	4363
2026-01-19 09:26:40.58	114.31	26.82	-27.7	-29.5	15.7	1.50e-06	0	43	0	591396864	15	4408
2026-01-19 09:26:41.58	114.14	26.97	-27.8	-29.6	15.6	0.00e+00	0	44	0	594542592	15	4424
2026-01-19 09:26:42.58	113.96	27.11	-27.9	-29.8	15.5	0.00e+00	0	43	0	597688320	15	4487
2026-01-19 09:26:43.59	113.78	27.25	-27.8	-29.7	15.6	7.00e-07	0	43	0	600834048	15	4458
2026-01-19 09:26:44.59	113.60	27.40	-27.9	-29.8	15.5	0.00e+00	0	43	0	603979776	15	4493
2026-01-19 09:26:45.59	113.42	27.54	-28.1	-29.8	15.4	0.00e+00	0	43	0	607125504	16	4368
2026-01-19 09:26:46.60	113.24	27.69	-28.2	-30.1	15.3	1.50e-06	0	43	0	610271232	16	4460
2026-01-19 09:26:47.60	113.06	27.83	-28.3	-30.3	15.1	7.00e-07	0	43	0	613416960	16	4523
2026-01-19 09:26:48.60	112.87	27.98	-28.5	-30.6	15.0	0.00e+00	0	43	0	616562688	16	4608
2026-01-19 09:26:49.61	112.68	28.12	-28.4	-30.0	15.0	7.00e-07	0	43	0	619708416	17	4326
2026-01-19 09:26:50.62	112.49	28.27	-28.4	-29.9	15.1	7.00e-07	0	43	0	622854144	17	4287
2026-01-19 09:26:51.62	112.30	28.42	-28.3	-29.7	15.2	0.00e+00	0	43	0	625999872	17	4236
2026-01-19 09:26:52.62	112.11	28.56	-28.4	-30.0	15.1	0.00e+00	0	43	0	629145600	17	4313
2026-01-19 09:26:53.62	111.92	28.71	-28.3	-29.7	15.2	7.00e-07	0	43	0	632291328	17	4249
2026-01-19 09:26:54.62	111.72	28.86	-28.2	-29.5	15.4	0.00e+00	0	43	0	635437056	17	4168
2026-01-19 09:26:55.63	111.52	29.01	-28.1	-29.3	15.5	3.80e-06	0	43	0	638582784	17	4120
2026-01-19 09:26:56.64	111.32	29.16	-28.2	-29.5	15.3	0.00e+00	0	43	0	641728512	17	4192
2026-01-19 09:26:57.64	111.12	29.31	-28.2	-29.6	15.3	0.00e+00	0	44	0	644874240	17	4200
2026-01-19 09:26:58.64	110.91	29.46	-28.3	-29.6	15.3	0.00e+00	0	43	0	648019968	17	4209
2026-01-19 09:26:59.64	110.71	29.61	-28.3	-29.7	15.3	0.00e+00	0	43	0	651165696	17	4232
2026-01-19 09:27:00.65	110.50	29.76	-28.4	-29.9	15.2	0.00e+00	0	43	0	654311424	17	4277
2026-01-19 09:27:01.65	110.29	29.91	-28.3	-29.7	15.2	0.00e+00	0	43	0	657457152	17	4246
2026-01-19 09:27:02.65	110.08	30.06	-28.3	-29.8	15.2	0.00e+00	0	43	0	660602880	17	4254
2026-01-19 09:27:03.65	109.87	30.21	-28.4	-30.0	15.1	0.00e+00	0	43	0	663748608	17	4322
2026-01-19 09:27:04.65	109.65	30.36	-28.4	-30.0	15.1	0.00e+00	0	43	0	666894336	17	4316
2026-01-19 09:27:05.65	109.43	30.51	-28.6	-30.4	14.9	0.00e+00	0	43	0	670040064	17	4439
2026-01-19 09:27:06.65	109.21	30.67	-28.5	-30.2	15.0	0.00e+00	0	43	0	673185792	17	4365
2026-01-19 09:27:07.65	108.99	30.82	-28.3	-29.7	15.3	7.00e-07	0	44	0	676331520	17	4227
2026-01-19 09:27:08.66	108.77	30.97	-28.3	-29.7	15.3	0.00e+00	0	43	0	679477248	17	4241
2026-01-19 09:27:09.66	108.54	31.12	-28.3	-29.8	15.2	0.00e+00	0	44	0	682622976	17	4245
2026-01-19 09:27:10.66	108.31	31.28	-28.5	-30.2	15.0	0.00e+00	0	44	0	685768704	17	4373
2026-01-19 09:27:11.66	108.08	31.43	-28.4	-30.0	15.1	0.00e+00	0	43	0	688914432	17	4321
2026-01-19 09:27:12.66	107.85	31.59	-28.2	-29.6	15.4	0.00e+00	0	43	0	692060160	17	4190
2026-01-19 09:27:13.67	107.61	31.74	-28.1	-29.3	15.5	0.00e+00	0	43	0	695205888	17	4112
2026-01-19 09:27:14.67	107.38	31.90	-28.1	-29.2	15.6	0.00e+00	0	43	0	698351616	17	4085
2026-01-19 09:27:15.67	107.14	32.05	-28.0	-29.1	15.6	0.00e+00	0	43	0	701497344	17	4062
2026-01-19 09:27:16.67	106.90	32.20	-28.2	-29.4	15.5	0.00e+00	0	43	0	704643072	17	4134
2026-01-19 09:27:17.68	106.65	32.36	-28.1	-29.3	15.5	0.00e+00	0	43	0	707788800	17	4129
2026-01-19 09:27:18.69	106.40	32.52	-28.0	-29.1	15.7	0.00e+00	0	43	0	710934528	17	4078
2026-01-19 09:27:19.69	106.15	32.67	-28.0	-29.1	15.6	0.00e+00	0	44	0	714080256	17	4067
2026-01-19 09:27:20.68	105.91	32.83	-28.1	-29.3	15.5	0.00e+00	0	44	0	717225984	17	4114
2026-01-19 09:27:21.68	105.65	32.98	-28.1	-29.1	15.6	0.00e+00	0	44	0	720371712	17	4076
2026-01-19 09:27:22.69	105.39	33.14	-28.1	-29.2	15.6	0.00e+00	0	44	0	723517440	17	4090
2026-01-19 09:27:23.70	105.13	33.30	-28.2	-29.6	15.4	0.00e+00	0	43	0	726663168	17	4191
2026-01-19 09:27:24.70	104.87	33.45	-28.3	-29.7	15.3	0.00e+00	0	43	0	729808896	17	4227
2026-01-19 09:27:25.71	104.61	33.61	-28.4	-29.9	15.2	0.00e+00	0	43	0	732954624	17	4271
2026-01-19 09:27:26.71	104.34	33.77	-28.3	-29.8	15.3	0.00e+00	0	43	0	736100352	17	4239
2026-01-19 09:27:27.72	104.07	33.93	-28.4	-30.0	15.2	0.00e+00	0	43	0	739246080	17	4316
2026-01-19 09:27:28.71	103.80	34.08	-28.5	-30.1	15.1	0.00e+00	0	44	0	742391808	17	4332
2026-01-19 09:27:29.71	103.53	34.24	-28.5	-30.2	15.1	0.00e+00	0	44	0	745537536	17	4367
2026-01-19 09:27:30.72	103.25	34.40	-28.7	-30.7	14.8	0.00e+00	0	44	0	748683264	17	4496
2026-01-19 09:27:31.72	102.97	34.55	-28.9	-31.0	14.6	1.50e-06	0	44	0	751828992	17	4603
2026-01-19 09:27:32.72	102.69	34.71	-28.9	-31.1	14.6	7.00e-07	0	44	0	754974720	17	4631
2026-01-19 09:27:33.72	102.40	34.87	-29.0	-30.9	14.4	0.00e+00	0	44	0	758120448	18	4454
2026-01-19 09:27:34.73	102.11	35.02	-29.2	-31.4	14.2	1.50e-06	0	43	0	761266176	18	4596
2026-01-19 09:27:35.72	101.83	35.18	-29.2	-31.3	14.2	1.50e-06	0	44	0	764411904	18	4567
2026-01-19 09:27:36.72	101.53	35.34	-29.2	-31.4	14.2	7.00e-07	0	44	0	767557632	18	4595
2026-01-19 09:27:37.73	101.23	35.49	-29.2	-31.4	14.1	1.50e-06	0	43	0	770703360	18	4594
2026-01-19 09:27:38.73	100.94	35.65	-29.2	-31.2	14.3	7.00e-07	0	44	0	773849088	18	4538
2026-01-19 09:27:39.73	100.63	35.81	-29.2	-31.1	14.3	6.10e-06	0	43	0	776994816	18	4516
2026-01-19 09:27:40.74	100.33	35.96	-29.3	-31.5	14.1	1.50e-06	0	44	0	780140544	18	4643
2026-01-19 09:27:41.73	100.02	36.12	-29.4	-31.7	14.0	3.00e-06	0	44	0	783286272	18	4702
2026-01-19 09:27:42.74	99.71	36.28	-29.5	-31.6	13.8	8.30e-06	0	43	0	785383424	19	4558
2026-01-19 09:27:43.73	99.40	36.43	-29.8	-32.1	13.4	1.44e-05	0	43	0	788529152	19	4721
2026-01-19 09:27:44.75	99.08	36.59	-29.7	-32.0	13.5	9.90e-06	0	44	0	792723456	19	4694
2026-01-19 09:27:45.75	98.76	36.74	-29.8	-32.2	13.4	1.29e-05	0	44	0	795869184	19	4731
2026-01-19 09:27:46.76	98.43	36.90	-29.8	-32.3	13.3	1.52e-05	0	43	0	799014912	19	4787
2026-01-19 09:27:47.77	98.10	37.05	-30.0	-32.2	13.0	4.04e-05	0	43	0	802160640	20	4634
2026-01-19 09:27:48.76	97.78	37.21	-30.3	-33.0	12.6	6.63e-05	0	44	0	805306368	20	4894
2026-01-19 09:27:49.77	97.44	37.36	-30.3	-33.0	12.5	1.24e-04	0	44	0	808452096	20	4917
2026-01-19 09:27:50.77	97.11	37.51	-30.3	-32.9	12.6	8.92e-05	0	44	0	810549248	20	4870
2026-01-19 09:27:51.77	96.77	37.67	-30.3	-33.1	12.5	1.01e-04	0	44	0	813694976	20	4932
2026-01-19 09:27:52.77	96.43	37.82	-30.5	-33.1	12.2	1.47e-04	0	44	0	816840704	21	4813
2026-01-19 09:27:53.77	96.08	37.97	-30.7	-33.6	11.8	2.78e-04	0	44	0	819986432	21	5012
2026-01-19 09:27:54.77	95.74	38.12	-30.7	-33.5	11.9	4.35e-04	0	44	0	823132160	21	4968
2026-01-19 09:27:55.78	95.38	38.27	-30.9	-33.9	11.6	5.79e-04	0	43	0	826277888	21	5123
2026-01-19 09:27:56.78	95.03	38.42	-30.6	-33.3	12.0	3.93e-04	0	44	0	829423616	21	4889
2026-01-19 09:27:57.79	94.67	38.57	-30.2	-32.1	12.7	9.99e-05	0	44	0	832569344	21	4510
2026-01-19 09:27:58.79	94.31	38.72	-29.8	-31.3	13.3	3.05e-05	0	43	0	835715072	21	4251
2026-01-19 09:27:59.79	93.94	38.87	-29.7	-31.4	13.5	1.06e-05	0	44	0	838860800	20	4395
2026-01-19 09:28:00.80	93.57	39.02	-29.8	-31.6	13.4	1.44e-05	0	44	0	842006528	20	4454
2026-01-19 09:28:01.80	93.20	39.17	-30.2	-32.7	12.8	4.80e-05	0	43	0	845152256	20	4788
2026-01-19 09:28:02.80	92.82	39.31	-30.0	-32.3	13.0	4.88e-05	0	44	0	848297984	20	4658
2026-01-19 09:28:03.80	92.45	39.46	-29.8	-31.6	13.4	1.75e-05	0	44	0	851443712	20	4437
2026-01-19 09:28:04.80	92.07	39.60	-29.6	-31.3	13.6	9.90e-06	0	43	0	854589440	20	4343
2026-01-19 09:28:05.80	91.68	39.75	-29.7	-31.5	13.4	9.90e-06	0	43	0	857735168	20	4428
2026-01-19 09:28:06.81	91.29	39.89	-30.1	-32.4	12.9	4.19e-05	0	44	0	860880896	20	4685
2026-01-19 09:28:07.81	90.90	40.03	-30.2	-32.7	12.7	8.01e-05	0	44	0	864026624	20	4805
2026-01-19 09:28:08.82	90.50	40.17	-30.2	-32.7	12.7	6.56e-05	0	44	0	867172352	20	4812
2026-01-19 09:28:09.81	90.11	40.31	-30.4	-33.2	12.4	1.06e-04	0	44	0	870318080	20	4979
2026-01-19 09:28:10.82	89.70	40.45	-30.3	-32.9	12.6	1.20e-04	0	44	0	873463808	20	4856
2026-01-19 09:28:11.82	89.29	40.59	-30.2	-32.8	12.7	7.62e-05	0	44	0	876609536	20	4842
2026-01-19 09:28:12.82	88.89	40.72	-30.2	-32.6	12.8	5.79e-05	0	44	0	879755264	20	4768
2026-01-19 09:28:13.82	88.47	40.86	-30.2	-32.7	12.8	6.40e-05	0	43	0	882900992	20	4785
2026-01-19 09:28:14.83	88.05	41.00	-30.0	-32.2	13.1	3.73e-05	0	44	0	886046720	20	4633
2026-01-19 09:28:15.83	87.64	41.13	-29.8	-31.7	13.4	1.67e-05	0	43	0	889192448	20	4471
2026-01-19 09:28:16.84	87.21	41.26	-30.0	-32.1	13.2	1.29e-05	0	44	0	892338176	20	4614
2026-01-19 09:28:17.85	86.78	41.39	-29.7	-31.5	13.5	1.67e-05	0	44	0	895483904	20	4421
2026-01-19 09:28:18.85	86.35	41.52	-29.8	-31.6	13.5	1.22e-05	0	44	0	898629632	20	4457
2026-01-19 09:28:19.86	85.91	41.65	-29.9	-31.8	13.3	1.14e-05	0	44	0	901775360	20	4520
2026-01-19 09:28:20.87	85.47	41.78	-29.7	-31.4	13.5	1.29e-05	0	43	0	904921088	20	4395
2026-01-19 09:28:21.87	85.03	41.90	-29.6	-31.1	13.7	5.30e-06	0	43	0	908066816	20	4302
2026-01-19 09:28:22.87	84.59	42.02	-29.7	-31.4	13.6	6.80e-06	0	43	0	911212544	20	4366
2026-01-19 09:28:23.87	84.14	42.15	-29.8	-31.7	13.4	1.37e-05	0	44	0	914358272	20	4474
2026-01-19 09:28:24.87	83.69	42.27	-30.1	-32.4	13.1	1.98e-05	0	44	0	917504000	20	4684
2026-01-19 09:28:25.87	83.24	42.38	-30.1	-32.5	12.9	4.73e-05	0	44	0	920649728	20	4714
2026-01-19 09:28:26.87	82.78	42.50	-30.1	-32.4	13.0	3.43e-05	0	44	0	923795456	20	4680
2026-01-19 09:28:27.87	82.32	42.61	-29.9	-32.0	13.2	3.12e-05	0	44	0	926941184	20	4569
2026-01-19 09:28:28.86	81.87	42.73	-30.0	-32.2	13.1	1.75e-05	0	44	0	930086912	20	4623
2026-01-19 09:28:29.86	81.40	42.84	-30.0	-32.1	13.2	1.75e-05	0	43	0	933232640	20	4586
2026-01-19 09:28:30.87	80.93	42.95	-30.2	-32.8	12.8	6.10e-05	0	44	0	936378368	20	4829
2026-01-19 09:28:31.87	80.45	43.06	-30.3	-32.9	12.7	7.09e-05	0	44	0	939524096	20	4860
2026-01-19 09:28:32.87	79.98	43.16	-30.3	-32.9	12.7	6.10e-05	0	43	0	942669824	20	4849
2026-01-19 09:28:33.88	79.49	43.27	-30.5	-33.0	12.3	1.41e-04	0	44	0	945815552	21	4775
2026-01-19 09:28:34.89	79.01	43.37	-30.6	-33.2	12.2	2.23e-04	0	44	0	948961280	21	4862
2026-01-19 09:28:35.89	78.52	43.47	-30.6	-33.2	12.2	2.23e-04	0	44	0	952107008	21	4859
2026-01-19 09:28:36.89	78.03	43.57	-30.6	-33.1	12.3	1.85e-04	0	44	0	955252736	21	4832
2026-01-19 09:28:37.89	77.54	43.66	-31.0	-34.2	11.6	5.84e-04	0	44	0	958398464	21	5204
2026-01-19 09:28:38.89	77.05	43.76	-30.8	-33.3	11.9	5.07e-04	0	44	0	961544192	22	4762
2026-01-19 09:28:39.89	76.55	43.85	-30.5	-32.4	12.4	1.76e-04	0	44	0	964689920	22	4486
2026-01-19 09:28:40.89	76.05	43.94	-30.4	-32.2	12.5	1.22e-04	0	44	0	967835648	22	4432
2026-01-19 09:28:41.89	75.55	44.02	-30.4	-32.2	12.6	9.61e-05	0	44	0	970981376	22	4404
2026-01-19 09:28:42.89	75.05	44.11	-30.4	-32.1	12.6	8.39e-05	0	44	0	974127104	22	4396
2026-01-19 09:28:43.89	74.54	44.19	-30.5	-32.4	12.5	1.27e-04	0	44	0	977272832	22	4463
2026-01-19 09:28:44.89	74.03	44.27	-30.9	-33.5	11.8	2.91e-04	0	44	0	980418560	22	4832
2026-01-19 09:28:45.90	73.51	44.35	-30.7	-33.0	12.1	2.66e-04	0	44	0	983564288	22	4690
2026-01-19 09:28:46.91	72.99	44.42	-30.7	-33.0	12.1	2.66e-04	0	44	0	986710016	22	4674
2026-01-19 09:28:47.91	72.47	44.49	-30.5	-32.3	12.5	1.49e-04	0	44	0	989855744	22	4460
2026-01-19 09:28:48.92	71.95	44.56	-30.3	-32.0	12.7	7.70e-05	0	44	0	993001472	22	4339
2026-01-19 09:28:49.92	71.42	44.63	-30.5	-32.4	12.5	1.17e-04	0	43	0	996147200	22	4465
2026-01-19 09:28:50.93	70.89	44.70	-30.2	-32.2	12.8	6.48e-05	0	44	0	999292928	21	4521
2026-01-19 09:28:51.93	70.37	44.76	-30.3	-32.5	12.7	5.34e-05	0	44	0	1002438656	21	4604
2026-01-19 09:28:52.94	69.83	44.82	-30.3	-32.3	12.8	5.95e-05	0	44	0	1005584384	21	4568
2026-01-19 09:28:53.93	69.31	44.88	-30.3	-32.4	12.7	7.09e-05	0	44	0	1008730112	21	4588
2026-01-19 09:28:54.93	68.78	44.93	-30.6	-33.2	12.2	1.39e-04	0	44	0	1011875840	21	4853
2026-01-19 09:28:55.93	68.24	44.98	-30.4	-32.5	12.6	1.05e-04	0	44	0	1015021568	21	4620
2026-01-19 09:28:56.94	67.70	45.03	-30.0	-31.5	13.3	3.12e-05	0	44	0	1018167296	21	4320
2026-01-19 09:28:57.94	67.16	45.08	-29.7	-31.3	13.7	3.00e-06	0	44	0	1021313024	20	4362
2026-01-19 09:28:58.95	66.62	45.12	-29.6	-31.1	13.8	3.00e-06	0	44	0	1024458752	20	4298
2026-01-19 09:28:59.95	66.08	45.16	-29.4	-30.7	14.0	2.20e-06	0	44	0	1027604480	20	4188
2026-01-19 09:29:00.95	65.54	45.20	-29.7	-31.3	13.7	3.80e-06	0	44	0	1030750208	20	4359
2026-01-19 09:29:01.95	65.00	45.23	-29.6	-31.2	13.8	1.06e-05	0	44	0	1033895936	20	4309
2026-01-19 09:29:02.95	64.45	45.27	-29.8	-31.5	13.6	6.80e-06	0	44	0	1037041664	20	4414
2026-01-19 09:29:03.96	63.90	45.30	-30.2	-32.7	12.9	2.21e-05	0	44	0	1040187392	20	4786
2026-01-19 09:29:04.97	63.35	45.32	-30.3	-33.0	12.6	1.20e-04	0	44	0	1043333120	20	4897
2026-01-19 09:29:05.97	62.80	45.34	-30.2	-32.6	12.9	4.11e-05	0	44	0	1046478848	20	4755
2026-01-19 09:29:06.98	62.25	45.37	-30.2	-32.6	12.9	4.42e-05	0	44	0	1049624576	20	4747
2026-01-19 09:29:07.98	61.70	45.38	-30.0	-32.1	13.3	2.05e-05	0	44	0	1052770304	20	4583
2026-01-19 09:29:08.98	61.15	45.40	-30.1	-32.3	13.1	1.52e-05	0	44	0	1055916032	20	4654
2026-01-19 09:29:09.99	60.60	45.41	-30.5	-33.3	12.5	9.07e-05	0	44	0	1059061760	20	5005
2026-01-19 09:29:11.00	60.04	45.42	-30.4	-33.1	12.6	1.11e-04	0	44	0	1062207488	20	4934
2026-01-19 09:29:12.00	59.49	45.42	-30.4	-33.2	12.6	9.91e-05	0	44	0	1065353216	20	4943
2026-01-19 09:29:13.01	58.94	45.43	-30.4	-33.2	12.6	8.01e-05	0	44	0	1068498944	20	4952
2026-01-19 09:29:14.01	58.39	45.43	-30.0	-32.3	13.2	3.12e-05	0	44	0	1071644672	20	4655
2026-01-19 09:29:15.00	57.84	45.42	-29.9	-31.9	13.4	1.98e-05	0	44	0	1074790400	20	4540
2026-01-19 09:29:16.00	57.29	45.42	-30.0	-32.3	13.2	1.90e-05	0	44	0	1077936128	20	4645
2026-01-19 09:29:17.01	56.74	45.41	-29.9	-31.9	13.4	1.22e-05	0	43	0	1081081856	20	4517
2026-01-19 09:29:18.01	56.19	45.40	-29.9	-31.9	13.4	1.60e-05	0	44	0	1084227584	20	4516
2026-01-19 09:29:19.01	55.64	45.38	-30.2	-32.5	13.0	1.75e-05	0	44	0	1086324736	20	4715
2026-01-19 09:29:20.02	55.09	45.37	-30.1	-32.5	13.0	2.74e-05	0	44	0	1089470464	20	4719
2026-01-19 09:29:21.02	54.54	45.34	-30.3	-32.8	12.8	7.55e-05	0	44	0	1092616192	20	4834
2026-01-19 09:29:22.01	54.00	45.32	-29.9	-32.0	13.4	1.75e-05	0	43	0	1095761920	20	4564
2026-01-19 09:29:23.02	53.45	45.30	-29.7	-31.4	13.6	9.90e-06	0	44	0	1098907648	20	4380
2026-01-19 09:29:24.03	52.90	45.27	-30.0	-32.2	13.2	1.98e-05	0	44	0	1102053376	20	4633
2026-01-19 09:29:25.03	52.35	45.23	-30.1	-32.4	13.1	1.83e-05	0	44	0	1105199104	20	4699
2026-01-19 09:29:26.03	51.81	45.20	-30.3	-32.9	12.8	4.73e-05	0	44	0	1108344832	20	4840
2026-01-19 09:29:27.03	51.27	45.16	-30.4	-33.0	12.7	8.46e-05	0	44	0	1111490560	20	4905
2026-01-19 09:29:28.03	50.73	45.12	-30.1	-32.3	13.1	3.35e-05	0	44	0	1114636288	20	4675
2026-01-19 09:29:29.03	50.19	45.08	-30.1	-32.3	13.2	2.13e-05	0	44	0	1117782016	20	4647
2026-01-19 09:29:30.03	49.65	45.03	-30.2	-32.5	13.0	4.65e-05	0	44	0	1120927744	20	4728
2026-01-19 09:29:31.03	49.12	44.98	-30.1	-32.3	13.2	2.05e-05	0	44	0	1124073472	20	4641
2026-01-19 09:29:32.03	48.59	44.93	-30.5	-32.9	12.5	7.78e-05	0	44	0	1127219200	21	4748
2026-01-19 09:29:33.04	48.05	44.88	-30.6	-33.1	12.3	1.75e-04	0	44	0	1130364928	21	4811
2026-01-19 09:29:34.04	47.52	44.82	-30.6	-33.1	12.4	1.40e-04	0	44	0	1133510656	21	4792
2026-01-19 09:29:35.04	46.99	44.76	-30.7	-33.5	12.0	2.46e-04	0	44	0	1136656384	21	4946
2026-01-19 09:29:36.05	46.46	44.70	-30.4	-32.7	12.6	1.22e-04	0	44	0	1139802112	21	4670
2026-01-19 09:29:37.06	45.93	44.63	-30.2	-32.2	12.9	7.55e-05	0	44	0	1142947840	21	4522
2026-01-19 09:29:38.06	45.41	44.57	-30.2	-32.1	12.9	4.73e-05	0	44	0	1146093568	21	4507
2026-01-19 09:29:39.05	44.89	44.50	-30.3	-32.3	12.8	5.87e-05	0	44	0	1149239296	21	4562
2026-01-19 09:29:40.06	44.37	44.42	-30.2	-32.2	12.9	5.41e-05	0	44	0	1152385024	21	4525
2026-01-19 09:29:41.07	43.85	44.35	-30.0	-31.6	13.2	2.51e-05	0	44	0	1155530752	21	4347
2026-01-19 09:29:42.07	43.34	44.27	-30.0	-31.7	13.2	2.21e-05	0	44	0	1158676480	21	4366
2026-01-19 09:29:43.07	42.83	44.19	-30.2	-32.3	12.8	3.28e-05	0	44	0	1161822208	21	4543
2026-01-19 09:29:44.07	42.32	44.11	-30.4	-32.7	12.6	8.62e-05	0	44	0	1164967936	21	4669
2026-01-19 09:29:45.08	41.81	44.02	-30.6	-33.2	12.2	1.87e-04	0	44	0	1168113664	21	4862
2026-01-19 09:29:46.08	41.31	43.94	-30.8	-33.8	11.8	4.31e-04	0	44	0	1171259392	21	5072
2026-01-19 09:29:47.08	40.81	43.85	-30.7	-33.6	12.0	4.29e-04	0	44	0	1174405120	21	4980
2026-01-19 09:29:48.08	40.32	43.76	-30.1	-32.0	13.0	7.17e-05	0	44	0	1177550848	21	4458
2026-01-19 09:29:49.08	39.83	43.67	-29.7	-31.5	13.6	6.10e-06	0	44	0	1180696576	20	4401
2026-01-19 09:29:50.08	39.34	43.57	-29.8	-31.6	13.5	5.30e-06	0	44	0	1183842304	20	4440
2026-01-19 09:29:51.08	38.85	43.47	-29.9	-32.0	13.3	1.29e-05	0	44	0	1186988032	20	4557
2026-01-19 09:29:52.09	38.36	43.37	-31.1	-33.9	11.6	1.97e-04	0	44	0	1190133760	22	4974
2026-01-19 09:29:53.09	37.88	43.27	-31.7	-35.1	10.3	3.00e-03	0	44	0	1193279488	23	5348
2026-01-19 09:29:54.10	37.40	43.17	-31.8	-35.4	10.2	7.30e-03	0	44	0	1196425216	23	5443
2026-01-19 09:29:55.10	36.92	43.06	-31.3	-34.0	11.1	2.73e-03	0	44	0	1199570944	23	4935
2026-01-19 09:29:56.10	36.45	42.95	-30.7	-33.0	12.1	4.61e-04	0	44	0	1202716672	22	4680
2026-01-19 09:29:57.10	35.98	42.84	-30.5	-32.3	12.5	1.11e-04	0	44	0	1205862400	22	4440
2026-01-19 09:29:58.10	35.51	42.73	-30.8	-33.1	12.0	2.14e-04	0	44	0	1209008128	22	4712
2026-01-19 09:29:59.10	35.05	42.62	-31.2	-34.2	11.3	5.48e-04	0	44	0	1212153856	22	5105
2026-01-19 09:30:00.11	34.59	42.51	-31.8	-35.3	10.2	4.49e-03	0	44	0	1215299584	23	5419
2026-01-19 09:30:01.12	34.13	42.39	-31.4	-34.4	10.8	3.60e-03	0	44	0	1218445312	23	5059
2026-01-19 09:30:02.11	33.68	42.27	-31.4	-34.2	11.0	2.05e-03	0	44	0	1221591040	23	4987
2026-01-19 09:30:03.12	33.23	42.15	-31.3	-33.9	11.1	1.58e-03	0	44	0	1224736768	23	4889
2026-01-19 09:30:04.12	32.78	42.03	-31.4	-34.3	10.9	2.06e-03	0	44	0	1227882496	23	5008
2026-01-19 09:30:05.12	32.34	41.91	-31.1	-33.4	11.4	9.09e-04	0	44	0	1231028224	23	4702
2026-01-19 09:30:06.12	31.90	41.78	-31.4	-34.2	10.9	1.39e-03	0	44	0	1234173952	23	5005
2026-01-19 09:30:07.12	31.47	41.66	-31.9	-35.8	9.9	8.36e-03	0	44	0	1237319680	23	5611
2026-01-19 09:30:08.13	31.03	41.53	-31.5	-34.7	10.5	5.43e-03	0	44	0	1240465408	23	5186
2026-01-19 09:30:09.13	30.60	41.40	-30.9	-33.0	11.6	1.82e-03	0	44	0	1243611136	23	4585
2026-01-19 09:30:10.13	30.18	41.27	-30.2	-32.2	12.8	1.17e-04	0	44	0	1246756864	21	4513
2026-01-19 09:30:11.14	29.75	41.14	-29.8	-31.2	13.5	1.67e-05	0	44	0	1249902592	21	4221
2026-01-19 09:30:12.14	29.34	41.01	-30.1	-31.8	13.0	3.50e-05	0	44	0	1253048320	21	4418
2026-01-19 09:30:13.15	28.92	40.87	-30.8	-33.7	11.7	2.55e-04	0	44	0	1256194048	21	5043
2026-01-19 09:30:14.15	28.51	40.74	-32.1	-35.8	9.3	1.26e-02	0	44	0	1259339776	24	5548
2026-01-19 09:30:15.15	28.10	40.60	-32.4	-37.1	8.5	3.67e-02	0	44	0	1262485504	24	6133
2026-01-19 09:30:16.16	27.69	40.46	-32.4	-36.5	8.5	5.95e-02	0	44	0	1265631232	25	5767
2026-01-19 09:30:17.16	27.29	40.32	-31.2	-33.8	10.9	6.79e-03	0	44	0	1268776960	23	4862
2026-01-19 09:30:18.16	26.89	40.19	-29.9	-31.6	13.1	1.06e-04	0	44	0	1271922688	21	4338
2026-01-19 09:30:19.16	26.50	40.05	-29.1	-30.6	14.4	1.50e-06	0	44	0	1275068416	19	4251
2026-01-19 09:30:20.17	26.10	39.90	-28.8	-29.8	14.8	7.00e-07	0	44	0	1278214144	19	4037
2026-01-19 09:30:21.17	25.72	39.76	-29.0	-30.7	14.5	0.00e+00	0	44	0	1281359872	18	4386
2026-01-19 09:30:22.17	25.33	39.62	-29.8	-32.1	13.4	3.80e-06	0	44	0	1284505600	19	4715
2026-01-19 09:30:23.16	24.96	39.48	-30.2	-32.7	12.7	4.88e-05	0	44	0	1287651328	20	4798
2026-01-19 09:30:24.17	24.58	39.33	-30.0	-32.3	13.0	5.26e-05	0	44	0	1290797056	20	4682
2026-01-19 09:30:25.17	24.20	39.18	-29.6	-31.1	13.7	7.60e-06	0	44	0	1293942784	20	4307
2026-01-19 09:30:26.17	23.83	39.04	-29.2	-30.8	14.2	7.00e-07	0	44	0	1297088512	19	4315
2026-01-19 09:30:27.18	23.46	38.89	-29.2	-30.8	14.2	0.00e+00	0	44	0	1300234240	19	4321
2026-01-19 09:30:28.18	23.10	38.74	-29.7	-31.9	13.6	4.50e-06	0	44	0	1303379968	19	4636
2026-01-19 09:30:29.19	22.74	38.59	-29.8	-32.2	13.3	8.30e-06	0	44	0	1306525696	19	4760
2026-01-19 09:30:30.19	22.38	38.44	-30.3	-33.0	12.5	8.31e-05	0	44	0	1309671424	20	4903
2026-01-19 09:30:31.19	22.03	38.29	-30.9	-34.1	11.5	7.74e-04	0	44	0	1312817152	21	5187
2026-01-19 09:30:32.19	21.68	38.14	-30.7	-33.4	11.9	5.87e-04	0	44	0	1314914304	21	4940
2026-01-19 09:30:33.20	21.33	37.99	-30.4	-32.8	12.3	3.29e-04	0	44	0	1319108608	21	4733
2026-01-19 09:30:34.20	20.98	37.84	-30.1	-32.0	12.8	9.23e-05	0	44	0	1322254336	21	4469
2026-01-19 09:30:35.20	20.64	37.69	-30.2	-32.1	12.8	4.04e-05	0	44	0	1325400064	21	4485
2026-01-19 09:30:36.20	20.31	37.54	-30.3	-32.5	12.5	1.07e-04	0	44	0	1328545792	21	4614
2026-01-19 09:30:37.20	19.97	37.39	-30.0	-31.7	13.0	3.35e-05	0	44	0	1331691520	21	4372
2026-01-19 09:30:38.21	19.64	37.23	-30.2	-32.1	12.7	4.73e-05	0	44	0	1334837248	21	4500
2026-01-19 09:30:39.20	19.31	37.08	-30.6	-33.3	12.0	2.59e-04	0	44	0	1337982976	21	4896
2026-01-19 09:30:40.21	18.99	36.92	-30.7	-33.5	11.9	3.24e-04	0	44	0	1340080128	21	4962
2026-01-19 09:30:41.21	18.66	36.77	-30.9	-34.1	11.5	9.42e-04	0	44	0	1343225856	21	5177
2026-01-19 09:30:42.22	18.34	36.61	-30.7	-33.4	11.9	4.66e-04	0	44	0	1346371584	21	4944
2026-01-19 09:30:43.22	18.03	36.46	-30.2	-32.1	12.7	8.39e-05	0	44	0	1349517312	21	4512
2026-01-19 09:30:44.22	17.72	36.31	-29.7	-31.5	13.4	3.66e-05	0	44	0	1352663040	20	4437
2026-01-19 09:30:45.22	17.41	36.15	-29.5	-31.1	13.6	2.20e-06	0	44	0	1355808768	20	4304
2026-01-19 09:30:46.23	17.10	35.99	-29.8	-31.6	13.3	1.90e-05	0	44	0	1358954496	20	4465
2026-01-19 09:30:47.23	16.79	35.84	-30.1	-32.4	12.9	3.50e-05	0	44	0	1362100224	20	4701
2026-01-19 09:30:48.23	16.49	35.68	-30.7	-33.5	11.8	4.23e-04	0	44	0	1365245952	21	4985
2026-01-19 09:30:49.23	16.19	35.53	-30.4	-32.8	12.3	2.59e-04	0	44	0	1368391680	21	4742
2026-01-19 09:30:50.23	15.90	35.37	-29.8	-31.3	13.1	5.41e-05	0	44	0	1371537408	21	4271
2026-01-19 09:30:51.23	15.61	35.22	-29.3	-30.6	13.9	4.50e-06	0	44	0	1374683136	20	4154
2026-01-19 09:30:52.23	15.32	35.06	-28.9	-30.1	14.6	0.00e+00	0	44	0	1377828864	19	4125
2026-01-19 09:30:53.24	15.03	34.90	-28.7	-30.1	14.9	0.00e+00	0	44	0	1380974592	18	4234
2026-01-19 09:30:54.24	14.75	34.75	-28.7	-30.2	14.8	7.00e-07	0	44	0	1384120320	18	4253
2026-01-19 09:30:55.24	14.47	34.59	-28.9	-30.5	14.6	0.00e+00	0	44	0	1387266048	18	4345
2026-01-19 09:30:56.24	14.19	34.43	-29.0	-30.8	14.5	0.00e+00	0	44	0	1390411776	18	4423
2026-01-19 09:30:57.24	13.91	34.28	-29.3	-31.4	14.1	3.00e-06	0	44	0	1393557504	18	4622
2026-01-19 09:30:58.25	13.64	34.12	-29.2	-31.2	14.2	2.20e-06	0	44	0	1396703232	18	4565
2026-01-19 09:30:59.24	13.37	33.97	-29.1	-31.2	14.2	7.00e-07	0	44	0	1399848960	18	4542
2026-01-19 09:31:00.24	13.10	33.81	-29.1	-31.1	14.3	0.00e+00	0	44	0	1402994688	18	4518
2026-01-19 09:31:01.24	12.84	33.66	-28.9	-30.6	14.5	1.50e-06	0	44	0	1406140416	18	4378
2026-01-19 09:31:02.23	12.58	33.50	-28.7	-30.1	14.8	0.00e+00	0	44	0	1409286144	18	4233
2026-01-19 09:31:03.24	12.31	33.34	-28.6	-29.9	14.9	0.00e+00	0	44	0	1412431872	18	4179
2026-01-19 09:31:04.25	12.05	33.19	-28.6	-29.9	14.9	0.00e+00	0	44	0	1415577600	18	4179
2026-01-19 09:31:05.25	11.80	33.03	-28.3	-29.6	15.4	0.00e+00	0	44	0	1418723328	17	4205
2026-01-19 09:31:06.26	11.54	32.88	-28.4	-29.8	15.2	0.00e+00	0	44	0	1421869056	17	4257
2026-01-19 09:31:07.26	11.29	32.72	-28.6	-30.3	15.0	0.00e+00	0	44	0	1425014784	17	4401
2026-01-19 09:31:08.27	11.04	32.56	-28.8	-30.9	14.6	0.00e+00	0	44	0	1428160512	17	4573
2026-01-19 09:31:09.27	10.80	32.41	-29.0	-30.9	14.4	1.50e-06	0	44	0	1431306240	18	4450
2026-01-19 09:31:10.28	10.55	32.25	-29.0	-30.9	14.4	0.00e+00	0	44	0	1434451968	18	4458
2026-01-19 09:31:11.28	10.31	32.10	-29.0	-30.7	14.4	1.50e-06	0	44	0	1437597696	18	4407
2026-01-19 09:31:12.29	10.07	31.94	-29.0	-30.7	14.4	7.00e-07	0	44	0	1440743424	18	4412
2026-01-19 09:31:13.29	9.84	31.79	-29.0	-30.8	14.3	3.00e-06	0	44	0	1443889152	18	4445
2026-01-19 09:31:14.29	9.60	31.64	-28.7	-30.1	14.8	7.00e-07	0	44	0	1447034880	18	4232
2026-01-19 09:31:15.30	9.37	31.48	-28.6	-29.8	14.9	0.00e+00	0	44	0	1450180608	18	4154
2026-01-19 09:31:16.30	9.14	31.33	-28.5	-29.7	15.0	0.00e+00	0	44	0	1453326336	18	4131
2026-01-19 09:31:17.31	8.91	31.18	-28.6	-29.8	14.9	7.00e-07	0	44	0	1456472064	18	4160
2026-01-19 09:31:18.31	8.69	31.02	-28.6	-29.9	14.9	7.00e-07	0	44	0	1459617792	18	4184
2026-01-19 09:31:19.31	8.46	30.87	-28.5	-29.7	15.0	0.00e+00	0	44	0	1462763520	18	4117
2026-01-19 09:31:20.31	8.24	30.72	-28.5	-29.6	15.0	0.00e+00	0	44	0	1465909248	18	4097
2026-01-19 09:31:21.32	8.02	30.57	-28.6	-29.8	14.9	0.00e+00	0	44	0	1469054976	18	4164
2026-01-19 09:31:22.32	7.81	30.42	-28.6	-29.9	14.8	7.00e-07	0	44	0	1472200704	18	4188
2026-01-19 09:31:23.32	7.59	30.26	-28.8	-30.4	14.5	0.00e+00	0	44	0	1475346432	18	4330
2026-01-19 09:31:24.32	7.38	30.11	-28.4	-29.5	15.0	0.00e+00	0	44	0	1478492160	18	4088
2026-01-19 09:31:25.33	7.17	29.96	-28.1	-29.3	15.4	0.00e+00	0	44	0	1481637888	17	4129
2026-01-19 09:31:26.32	6.96	29.81	-28.1	-29.3	15.4	0.00e+00	0	44	0	1484783616	17	4122
2026-01-19 09:31:27.33	6.75	29.66	-28.2	-29.5	15.3	0.00e+00	0	44	0	1487929344	17	4177
2026-01-19 09:31:28.34	6.55	29.51	-28.1	-29.4	15.4	0.00e+00	0	44	0	1491075072	17	4147
2026-01-19 09:31:29.34	6.34	29.36	-28.2	-29.5	15.3	0.00e+00	0	44	0	1494220800	17	4179
2026-01-19 09:31:30.35	6.14	29.22	-28.2	-29.5	15.3	0.00e+00	0	44	0	1497366528	17	4179
2026-01-19 09:31:31.36	5.94	29.07	-28.1	-29.3	15.4	0.00e+00	0	44	0	1500512256	17	4130
2026-01-19 09:31:32.36	5.74	28.92	-28.0	-29.1	15.5	0.00e+00	0	44	0	1503657984	17	4083
2026-01-19 09:31:33.37	5.55	28.77	-28.0	-29.1	15.5	0.00e+00	0	44	0	1506803712	17	4079
2026-01-19 09:31:34.36	5.35	28.62	-28.0	-29.1	15.5	0.00e+00	0	44	0	1509949440	17	4072
2026-01-19 09:31:35.37	5.16	28.48	-27.9	-28.8	15.7	0.00e+00	0	44	0	1513095168	17	3985
2026-01-19 09:31:36.37	4.97	28.33	-27.8	-28.6	15.8	0.00e+00	0	44	0	1516240896	17	3953
2026-01-19 09:31:37.37	4.78	28.19	-27.9	-28.8	15.7	0.00e+00	0	44	0	1519386624	17	3991
2026-01-19 09:31:38.38	4.60	28.04	-27.8	-28.7	15.7	0.00e+00	0	44	0	1522532352	17	3975
2026-01-19 09:31:39.38	4.41	27.90	-28.0	-29.0	15.6	0.00e+00	0	44	0	1525678080	17	4050
2026-01-19 09:31:40.38	4.23	27.75	-27.9	-28.8	15.6	0.00e+00	0	44	0	1528823808	17	4005
2026-01-19 09:31:41.39	4.05	27.61	-28.1	-29.2	15.4	0.00e+00	0	44	0	1531969536	17	4112
2026-01-19 09:31:42.40	3.86	27.46	-28.1	-29.3	15.4	0.00e+00	0	44	0	1535115264	17	4123
2026-01-19 09:31:43.39	3.69	27.32	-28.0	-29.1	15.4	0.00e+00	0	44	0	1538260992	17	4089
2026-01-19 09:31:44.40	3.51	27.18	-28.1	-29.4	15.2	7.00e-07	0	44	0	1541406720	17	4166
2026-01-19 09:31:45.40	3.34	27.03	-28.2	-29.5	15.2	0.00e+00	0	44	0	1544552448	17	4179
2026-01-19 09:31:46.41	3.16	26.89	-28.0	-29.1	15.4	0.00e+00	0	44	0	1547698176	17	4080
2026-01-19 09:31:47.41	2.99	26.75	-27.9	-28.8	15.6	0.00e+00	0	44	0	1550843904	17	3998
2026-01-19 09:31:48.41	2.82	26.61	-27.9	-28.8	15.6	0.00e+00	0	44	0	1553989632	17	4014
2026-01-19 09:31:49.41	2.65	26.47	-27.9	-28.8	15.6	0.00e+00	0	44	0	1557135360	17	4011
2026-01-19 09:31:50.42	2.48	26.33	-27.9	-29.0	15.5	0.00e+00	0	44	0	1560281088	17	4047
2026-01-19 09:31:51.42	2.32	26.19	-28.0	-29.1	15.4	0.00e+00	0	44	0	1563426816	17	4089
2026-01-19 09:31:52.43	2.15	26.05	-27.9	-28.9	15.5	0.00e+00	0	44	0	1566572544	17	4033
2026-01-19 09:31:53.43	1.99	25.91	-27.9	-28.8	15.5	0.00e+00	0	44	0	1569718272	17	4009
2026-01-19 09:31:54.43	1.83	25.77	-27.8	-28.7	15.6	0.00e+00	0	44	0	1572864000	17	3984
2026-01-19 09:31:55.44	1.67	25.63	-27.8	-28.7	15.6	0.00e+00	0	44	0	1576009728	17	3982
2026-01-19 09:31:56.44	1.51	25.50	-27.9	-28.8	15.5	0.00e+00	0	44	0	1579155456	17	4009
2026-01-19 09:31:57.45	1.35	25.36	-27.8	-28.7	15.6	0.00e+00	0	44	0	1582301184	17	3992
2026-01-19 09:31:58.45	1.19	25.22	-27.9	-28.9	15.4	0.00e+00	0	44	0	1585446912	17	4036
2026-01-19 09:31:59.45	1.04	25.09	-27.9	-28.8	15.5	0.00e+00	0	44	0	1588592640	17	4003
2026-01-19 09:32:00.45	0.89	24.95	-27.7	-28.9	15.7	0.00e+00	0	44	0	1591738368	16	4146
2026-01-19 09:32:01.45	0.74	24.82	-27.7	-28.8	15.8	0.00e+00	0	44	0	1594884096	16	4118
2026-01-19 09:32:02.45	0.59	24.68	-27.6	-28.7	15.8	0.00e+00	0	44	0	1598029824	16	4086
2026-01-19 09:32:03.46	0.44	24.55	-27.6	-28.6	15.9	0.00e+00	0	44	0	1601175552	16	4048
2026-01-19 09:32:04.46	0.29	24.42	-27.6	-28.6	15.9	0.00e+00	0	44	0	1604321280	16	4058
2026-01-19 09:32:05.47	0.14	24.28	-27.7	-28.9	15.7	0.00e+00	0	44	0	1607467008	16	4126
2026-01-19 09:32:06.46	360.00	24.15	-27.7	-29.0	15.7	0.00e+00	0	44	0	1610612736	16	4154
2026-01-19 09:32:07.47	359.85	24.02	-27.7	-28.8	15.7	0.00e+00	0	44	0	1613758464	16	4118
2026-01-19 09:32:08.47	359.71	23.89	-27.7	-28.9	15.7	0.00e+00	0	44	0	1615855616	16	4137
2026-01-19 09:32:09.48	359.57	23.75	-27.8	-29.1	15.6	0.00e+00	0	44	0	1619001344	16	4181
2026-01-19 09:32:10.47	359.43	23.62	-27.7	-29.0	15.7	0.00e+00	0	44	0	1622147072	16	4149
2026-01-19 09:32:11.48	359.29	23.49	-27.8	-29.1	15.6	0.00e+00	0	44	0	1625292800	16	4184
2026-01-19 09:32:12.48	359.15	23.36	-27.7	-29.0	15.6	0.00e+00	0	44	0	1628438528	16	4164
2026-01-19 09:32:13.49	359.01	23.23	-27.8	-29.2	15.5	0.00e+00	0	44	0	1631584256	16	4233
2026-01-19 09:32:14.49	358.88	23.11	-27.9	-29.3	15.5	0.00e+00	0	44	0	1634729984	16	4243
2026-01-19 09:32:15.49	358.74	22.98	-27.8	-29.0	15.7	0.00e+00	0	44	0	1637875712	16	4173
2026-01-19 09:32:16.50	358.61	22.85	-27.8	-29.1	15.6	0.00e+00	0	44	0	1641021440	16	4187
2026-01-19 09:32:17.50	358.48	22.72	-27.8	-29.2	15.5	0.00e+00	0	44	0	1644167168	16	4218
2026-01-19 09:32:18.49	358.35	22.60	-27.8	-29.1	15.6	0.00e+00	0	44	0	1647312896	16	4196
2026-01-19 09:32:19.50	358.22	22.47	-27.8	-29.1	15.6	0.00e+00	0	44	0	1650458624	16	4179
2026-01-19 09:32:20.50	358.09	22.34	-27.8	-29.0	15.6	0.00e+00	0	44	0	1653604352	16	4175
2026-01-19 09:32:21.51	357.96	22.22	-27.7	-28.8	15.7	0.00e+00	0	44	0	1656750080	16	4115
2026-01-19 09:32:22.51	357.83	22.09	-27.7	-29.0	15.6	0.00e+00	0	44	0	1659895808	16	4172
2026-01-19 09:32:23.52	357.71	21.97	-27.7	-28.9	15.7	0.00e+00	0	44	0	1663041536	16	4142
2026-01-19 09:32:24.53	357.58	21.84	-27.7	-28.8	15.7	0.00e+00	0	44	0	1666187264	16	4114
2026-01-19 09:32:25.53	357.46	21.72	-27.6	-28.8	15.7	0.00e+00	0	44	0	1669332992	16	4114
2026-01-19 09:32:26.54	357.33	21.59	-27.6	-28.7	15.7	0.00e+00	0	44	0	1672478720	16	4098
2026-01-19 09:32:27.54	357.21	21.47	-27.6	-28.7	15.8	0.00e+00	0	44	0	1675624448	16	4080
2026-01-19 09:32:28.54	357.09	21.35	-27.6	-28.7	15.8	0.00e+00	0	44	0	1678770176	16	4071
2026-01-19 09:32:29.54	356.97	21.23	-27.6	-28.7	15.7	0.00e+00	0	44	0	1681915904	16	4097
2026-01-19 09:32:30.54	356.85	21.11	-27.8	-29.1	15.5	0.00e+00	0	44	0	1685061632	16	4194
2026-01-19 09:32:31.54	356.73	20.98	-27.9	-29.3	15.4	0.00e+00	0	44	0	1688207360	16	4238
2026-01-19 09:32:32.53	356.62	20.87	-27.9	-29.4	15.3	0.00e+00	0	44	0	1691353088	16	4278
2026-01-19 09:32:33.54	356.50	20.74	-28.0	-29.6	15.3	0.00e+00	0	44	0	1694498816	16	4324
2026-01-19 09:32:34.53	356.39	20.63	-27.9	-29.5	15.3	0.00e+00	0	44	0	1697644544	16	4301
2026-01-19 09:32:35.54	356.27	20.51	-28.1	-29.8	15.1	0.00e+00	0	44	0	1700790272	16	4385
2026-01-19 09:32:36.54	356.16	20.39	-28.0	-29.7	15.2	0.00e+00	0	44	0	1703936000	16	4357
2026-01-19 09:32:37.55	356.05	20.27	-28.0	-29.7	15.2	0.00e+00	0	44	0	1707081728	16	4360
2026-01-19 09:32:38.55	355.94	20.15	-28.2	-30.1	14.9	0.00e+00	0	44	0	1710227456	16	4471
2026-01-19 09:32:39.55	355.83	20.03	-28.1	-29.9	15.1	0.00e+00	0	44	0	1713373184	16	4408
2026-01-19 09:32:40.56	355.72	19.92	-27.8	-29.2	15.4	0.00e+00	0	44	0	1716518912	16	4238
2026-01-19 09:32:41.56	355.61	19.80	-27.7	-28.9	15.6	0.00e+00	0	44	0	1719664640	16	4148
2026-01-19 09:32:42.56	355.50	19.68	-27.6	-28.7	15.7	0.00e+00	0	44	0	1722810368	16	4100
2026-01-19 09:32:43.57	355.39	19.57	-27.6	-28.7	15.7	0.00e+00	0	44	0	1725956096	16	4076
2026-01-19 09:32:44.57	355.29	19.45	-27.6	-28.7	15.7	0.00e+00	0	44	0	1729101824	16	4099
2026-01-19 09:32:45.58	355.18	19.34	-27.6	-28.7	15.7	0.00e+00	0	44	0	1732247552	16	4090
2026-01-19 09:32:46.59	355.07	19.22	-27.5	-28.5	15.8	0.00e+00	0	44	0	1735393280	16	4047
2026-01-19 09:32:47.59	354.97	19.11	-27.5	-28.6	15.7	0.00e+00	0	44	0	1738539008	16	4067
2026-01-19 09:32:48.59	354.87	18.99	-27.6	-28.7	15.7	0.00e+00	0	44	0	1741684736	16	4095
2026-01-19 09:32:49.60	354.76	18.88	-27.7	-28.9	15.6	0.00e+00	0	44	0	1744830464	16	4139
2026-01-19 09:32:50.60	354.66	18.77	-27.8	-29.2	15.4	0.00e+00	0	44	0	1747976192	16	4222
2026-01-19 09:32:51.60	354.56	18.66	-27.9	-29.3	15.3	0.00e+00	0	44	0	1751121920	16	4262
2026-01-19 09:32:52.60	354.46	18.54	-27.9	-29.5	15.2	0.00e+00	0	44	0	1754267648	16	4307
2026-01-19 09:32:53.60	354.36	18.43	-28.0	-29.6	15.2	0.00e+00	0	44	0	1757413376	16	4333
2026-01-19 09:32:54.60	354.27	18.32	-28.1	-29.8	15.1	0.00e+00	0	44	0	1760559104	16	4395
2026-01-19 09:32:55.60	354.17	18.21	-28.1	-29.9	15.0	0.00e+00	0	44	0	1763704832	16	4418
2026-01-19 09:32:56.60	354.07	18.10	-28.2	-30.2	14.8	7.00e-07	0	44	0	1766850560	16	4515
2026-01-19 09:32:57.60	353.97	17.99	-28.3	-30.2	14.8	0.00e+00	0	44	0	1769996288	16	4523
2026-01-19 09:32:58.60	353.88	17.88	-28.3	-30.4	14.7	7.00e-07	0	44	0	1773142016	16	4569
2026-01-19 09:32:59.61	353.78	17.77	-28.3	-30.4	14.7	0.00e+00	0	44	0	1776287744	16	4555
2026-01-19 09:33:00.61	353.69	17.66	-28.3	-30.3	14.8	1.50e-06	0	44	0	1779433472	16	4530
2026-01-19 09:33:01.61	353.60	17.56	-28.3	-30.4	14.7	0.00e+00	0	44	0	1782579200	16	4582
2026-01-19 09:33:02.61	353.50	17.45	-28.3	-30.3	14.7	0.00e+00	0	44	0	1785724928	16	4547
2026-01-19 09:33:03.62	353.41	17.34	-28.4	-30.6	14.6	0.00e+00	0	44	0	1788870656	16	4621
2026-01-19 09:33:04.63	353.32	17.23	-28.4	-30.6	14.6	7.00e-07	0	44	0	1792016384	16	4628
2026-01-19 09:33:05.63	353.23	17.13	-28.4	-30.5	14.6	7.00e-07	0	44	0	1795162112	16	4599
2026-01-19 09:33:06.63	353.14	17.02	-28.5	-30.7	14.5	7.00e-07	0	44	0	1798307840	16	4669
2026-01-19 09:33:07.64	353.05	16.91	-28.4	-30.1	14.5	2.20e-06	0	44	0	1801453568	17	4366
2026-01-19 09:33:08.64	352.96	16.81	-28.4	-30.1	14.6	0.00e+00	0	44	0	1804599296	17	4366
2026-01-19 09:33:09.64	352.87	16.70	-28.3	-30.0	14.6	7.00e-07	0	44	0	1807745024	17	4329
2026-01-19 09:33:10.64	352.79	16.60	-28.5	-30.2	14.5	7.00e-07	0	44	0	1810890752	17	4404
2026-01-19 09:33:11.64	352.70	16.49	-28.4	-30.1	14.5	0.00e+00	0	44	0	1814036480	17	4368
2026-01-19 09:33:12.64	352.61	16.39	-28.4	-30.0	14.6	1.50e-06	0	44	0	1817182208	17	4342
2026-01-19 09:33:13.64	352.53	16.29	-28.3	-29.9	14.6	0.00e+00	0	44	0	1820327936	17	4318
2026-01-19 09:33:14.65	352.44	16.18	-28.3	-29.9	14.6	0.00e+00	0	44	0	1823473664	17	4313
2026-01-19 09:33:15.65	352.36	16.08	-28.3	-29.7	14.7	0.00e+00	0	44	0	1826619392	17	4275
2026-01-19 09:33:16.65	352.27	15.98	-28.3	-29.9	14.6	0.00e+00	0	44	0	1829765120	17	4308
2026-01-19 09:33:17.66	352.19	15.87	-28.2	-29.6	14.8	0.00e+00	0	44	0	1832910848	17	4238
2026-01-19 09:33:18.66	352.11	15.77	-28.1	-29.5	14.9	0.00e+00	0	44	0	1836056576	17	4189
2026-01-19 09:33:19.66	352.03	15.67	-28.2	-29.6	14.8	0.00e+00	0	44	0	1839202304	17	4234
2026-01-19 09:33:20.66	351.95	15.57	-28.1	-29.3	14.9	0.00e+00	0	44	0	1842348032	17	4154
2026-01-19 09:33:21.67	351.86	15.47	-28.1	-29.5	14.8	0.00e+00	0	44	0	1845493760	17	4198
2026-01-19 09:33:22.67	351.78	15.37	-28.1	-29.5	14.8	0.00e+00	0	44	0	1848639488	17	4193
2026-01-19 09:33:23.67	351.70	15.27	-28.1	-29.4	14.9	0.00e+00	0	44	0	1851785216	17	4173
2026-01-19 09:33:24.67	351.63	15.17	-28.1	-29.5	14.8	0.00e+00	0	44	0	1854930944	17	4207
2026-01-19 09:33:25.67	351.55	15.07	-28.2	-29.6	14.7	7.00e-07	0	44	0	1858076672	17	4242
2026-01-19 09:33:26.68	351.47	14.97	-28.2	-29.6	14.7	7.00e-07	0	44	0	1861222400	17	4246
2026-01-19 09:33:27.68	351.39	14.87	-28.2	-29.7	14.7	0.00e+00	0	44	0	1864368128	17	4250
2026-01-19 09:33:28.69	351.31	14.77	-28.3	-29.9	14.6	0.00e+00	0	44	0	1866465280	17	4307
2026-01-19 09:33:29.69	351.24	14.68	-28.4	-30.1	14.5	0.00e+00	0	44	0	1869611008	17	4377
2026-01-19 09:33:30.69	351.16	14.58	-28.5	-30.4	14.2	7.00e-07	0	44	0	1872756736	17	4457
2026-01-19 09:33:31.68	351.09	14.48	-28.5	-30.3	14.3	7.00e-07	0	44	0	1875902464	17	4438
2026-01-19 09:33:32.69	351.01	14.39	-28.5	-30.4	14.2	1.50e-06	0	44	0	1879048192	17	4474
2026-01-19 09:33:33.69	350.94	14.29	-28.6	-30.5	14.2	1.50e-06	0	44	0	1883242496	17	4507
2026-01-19 09:33:34.70	350.86	14.19	-28.7	-30.8	13.9	7.00e-07	0	44	0	1886388224	17	4605
2026-01-19 09:33:35.71	350.79	14.10	-28.6	-30.7	14.1	2.20e-06	0	44	0	1889533952	17	4552
2026-01-19 09:33:36.71	350.72	14.00	-28.7	-30.9	13.9	7.00e-07	0	44	0	1891631104	17	4620
2026-01-19 09:33:37.71	350.64	13.90	-28.8	-31.0	13.8	2.20e-06	0	44	0	1894776832	17	4670
2026-01-19 09:33:38.71	350.57	13.81	-28.8	-31.0	13.8	7.60e-06	0	44	0	1897922560	17	4646
2026-01-19 09:33:39.71	350.50	13.72	-29.0	-31.2	13.5	6.80e-06	0	44	0	1901068288	18	4597
2026-01-19 09:33:40.71	350.43	13.62	-29.0	-31.0	13.6	1.60e-05	0	44	0	1904214016	18	4535
2026-01-19 09:33:41.71	350.36	13.53	-28.8	-30.7	13.7	5.30e-06	0	44	0	1907359744	18	4457
2026-01-19 09:33:42.71	350.29	13.43	-28.8	-30.6	13.8	3.00e-06	0	44	0	1910505472	18	4410
2026-01-19 09:33:43.72	350.22	13.34	-28.8	-30.6	13.7	6.80e-06	0	44	0	1913651200	18	4440
2026-01-19 09:33:44.72	350.15	13.25	-28.8	-30.6	13.7	3.80e-06	0	44	0	1916796928	18	4435
2026-01-19 09:33:45.72	350.08	13.15	-28.9	-30.7	13.7	6.80e-06	0	44	0	1919942656	18	4470
2026-01-19 09:33:46.73	350.01	13.06	-28.9	-30.8	13.6	5.30e-06	0	44	0	1923088384	18	4484
2026-01-19 09:33:47.73	349.95	12.97	-28.9	-30.8	13.7	8.30e-06	0	44	0	1926234112	18	4487
2026-01-19 09:33:48.73	349.88	12.88	-29.0	-31.0	13.5	7.60e-06	0	44	0	1929379840	18	4547
2026-01-19 09:33:49.73	349.81	12.79	-28.9	-30.8	13.6	9.90e-06	0	44	0	1932525568	18	4489
2026-01-19 09:33:50.73	349.75	12.70	-28.8	-30.6	13.7	6.80e-06	0	44	0	1935671296	18	4440
2026-01-19 09:33:51.74	349.68	12.60	-28.8	-30.6	13.8	6.10e-06	0	44	0	1938817024	18	4416
2026-01-19 09:33:52.74	349.62	12.51	-28.8	-30.7	13.7	6.80e-06	0	44	0	1941962752	18	4451
2026-01-19 09:33:53.74	349.55	12.42	-28.8	-30.6	13.7	3.80e-06	0	44	0	1945108480	18	4437
2026-01-19 09:33:54.75	349.49	12.33	-28.7	-30.5	13.8	6.10e-06	0	44	0	1948254208	18	4384
2026-01-19 09:33:55.75	349.42	12.24	-28.8	-30.7	13.6	5.30e-06	0	44	0	1951399936	18	4466
2026-01-19 09:33:56.74	349.36	12.16	-28.8	-30.7	13.6	6.10e-06	0	44	0	1954545664	18	4455
2026-01-19 09:33:57.74	349.29	12.07	-28.9	-30.7	13.6	5.30e-06	0	44	0	1957691392	18	4468
2026-01-19 09:33:58.74	349.23	11.98	-29.0	-31.0	13.4	1.22e-05	0	44	0	1960837120	18	4563
2026-01-19 09:33:59.74	349.17	11.89	-28.9	-30.9	13.5	1.52e-05	0	44	0	1963982848	18	4518
2026-01-19 09:34:00.75	349.11	11.80	-28.7	-30.5	13.7	6.80e-06	0	44	0	1967128576	18	4392
2026-01-19 09:34:01.75	349.05	11.71	-28.8	-30.6	13.7	6.10e-06	0	44	0	1970274304	18	4423
2026-01-19 09:34:02.75	348.98	11.63	-28.8	-30.6	13.6	1.22e-05	0	44	0	1973420032	18	4436
2026-01-19 09:34:03.75	348.92	11.54	-28.8	-30.5	13.7	6.80e-06	0	44	0	1976565760	18	4411
2026-01-19 09:34:04.76	348.86	11.45	-28.8	-30.7	13.6	1.06e-05	0	44	0	1979711488	18	4451
2026-01-19 09:34:05.77	348.80	11.36	-28.8	-30.7	13.6	1.14e-05	0	44	0	1982857216	18	4472
2026-01-19 09:34:06.77	348.74	11.28	-29.0	-31.1	13.3	1.06e-05	0	44	0	1986002944	18	4596
2026-01-19 09:34:07.78	348.68	11.19	-28.9	-31.0	13.4	1.29e-05	0	44	0	1989148672	18	4549
2026-01-19 09:34:08.79	348.62	11.10	-28.9	-30.8	13.5	9.10e-06	0	44	0	1992294400	18	4484
2026-01-19 09:34:09.80	348.56	11.02	-28.8	-30.6	13.6	1.22e-05	0	44	0	1995440128	18	4448
2026-01-19 09:34:10.80	348.50	10.93	-28.9	-30.8	13.5	1.37e-05	0	44	0	1998585856	18	4510
2026-01-19 09:34:11.80	348.45	10.85	-28.9	-30.8	13.5	6.80e-06	0	44	0	2001731584	18	4485
2026-01-19 09:34:12.80	348.39	10.76	-28.9	-30.8	13.5	8.30e-06	0	44	0	2004877312	18	4494
2026-01-19 09:34:13.80	348.33	10.68	-28.8	-30.6	13.6	1.29e-05	0	44	0	2008023040	18	4437
2026-01-19 09:34:14.81	348.27	10.59	-28.9	-30.9	13.4	9.90e-06	0	44	0	2011168768	18	4543
2026-01-19 09:34:15.81	348.22	10.51	-29.0	-31.1	13.3	1.75e-05	0	44	0	2014314496	18	4585
2026-01-19 09:34:16.81	348.16	10.42	-29.0	-31.1	13.3	1.44e-05	0	44	0	2017460224	18	4592
2026-01-19 09:34:17.81	348.11	10.34	-29.2	-31.7	12.9	3.58e-05	0	44	0	2020605952	18	4779
2026-01-19 09:34:18.82	348.05	10.26	-29.1	-31.5	13.0	3.35e-05	0	44	0	2023751680	18	4708
2026-01-19 09:34:19.83	347.99	10.17	-29.3	-31.8	12.8	4.57e-05	0	44	0	2026897408	18	4818
2026-01-19 09:34:20.83	347.94	10.09	-29.3	-31.8	12.8	7.24e-05	0	44	0	2030043136	18	4829
2026-01-19 09:34:21.83	347.88	10.01	-29.3	-31.8	12.8	7.40e-05	0	44	0	2033188864	18	4832
2026-01-19 09:34:22.84	347.83	9.92	-29.3	-32.0	12.7	6.40e-05	0	44	0	2036334592	18	4877
2026-01-19 09:34:23.85	347.78	9.84	-29.3	-31.9	12.7	8.46e-05	0	44	0	2039480320	18	4868
2026-01-19 09:34:24.85	347.72	9.76	-29.5	-32.4	12.4	1.10e-04	0	44	0	2042626048	18	5027
2026-01-19 09:34:25.86	347.67	9.68	-29.4	-31.6	12.6	1.43e-04	0	44	0	2045771776	19	4653
2026-01-19 09:34:26.86	347.62	9.60	-29.2	-31.1	12.9	4.57e-05	0	44	0	2048917504	19	4483
2026-01-19 09:34:27.86	347.56	9.51	-29.1	-30.9	13.0	3.89e-05	0	44	0	2052063232	19	4417
2026-01-19 09:34:28.87	347.51	9.43	-29.1	-30.9	13.0	3.81e-05	0	44	0	2055208960	19	4437
2026-01-19 09:34:29.87	347.46	9.35	-29.1	-31.0	12.9	4.27e-05	0	44	0	2058354688	19	4458
2026-01-19 09:34:30.87	347.41	9.27	-29.2	-31.2	12.8	5.18e-05	0	44	0	2061500416	19	4535
2026-01-19 09:34:31.88	347.36	9.19	-29.3	-31.3	12.7	8.16e-05	0	44	0	2064646144	19	4564
2026-01-19 09:34:32.88	347.30	9.11	-29.5	-32.1	12.2	1.98e-04	0	44	0	2067791872	19	4813
2026-01-19 09:34:33.88	347.25	9.03	-29.3	-31.6	12.5	1.41e-04	0	44	0	2070937600	19	4644
2026-01-19 09:34:34.88	347.20	8.95	-29.4	-31.7	12.4	1.27e-04	0	44	0	2074083328	19	4683
2026-01-19 09:34:35.88	347.15	8.87	-29.4	-31.7	12.4	1.71e-04	0	44	0	2077229056	19	4685
2026-01-19 09:34:36.89	347.10	8.79	-29.6	-32.3	12.0	2.46e-04	0	44	0	2080374784	19	4902
2026-01-19 09:34:37.89	347.05	8.71	-29.6	-32.1	12.1	2.93e-04	0	44	0	2083520512	19	4827
2026-01-19 09:34:38.90	347.00	8.63	-29.5	-31.9	12.3	1.75e-04	0	44	0	2086666240	19	4746
2026-01-19 09:34:39.90	346.95	8.56	-29.5	-32.0	12.2	2.20e-04	0	44	0	2089811968	19	4805
2026-01-19 09:34:40.90	346.91	8.48	-29.6	-32.2	12.1	2.59e-04	0	44	0	2092957696	19	4871
2026-01-19 09:34:41.90	346.86	8.40	-29.6	-32.2	12.0	3.08e-04	0	44	0	2096103424	19	4870
2026-01-19 09:34:42.90	346.81	8.32	-29.5	-32.0	12.2	2.26e-04	0	44	0	2099249152	19	4789
2026-01-19 09:34:43.90	346.76	8.25	-29.8	-32.7	11.7	4.09e-04	0	44	0	2102394880	19	5032
2026-01-19 09:34:44.90	346.71	8.17	-29.6	-32.3	12.0	4.00e-04	0	44	0	2105540608	19	4904
2026-01-19 09:34:45.90	346.67	8.09	-29.5	-31.9	12.2	3.16e-04	0	44	0	2108686336	19	4764
2026-01-19 09:34:46.91	346.62	8.01	-29.5	-32.0	12.2	2.66e-04	0	44	0	2111832064	19	4789
2026-01-19 09:34:47.92	346.57	7.94	-29.4	-31.8	12.2	1.86e-04	0	44	0	2114977792	19	4743
2026-01-19 09:34:48.92	346.53	7.86	-29.8	-32.7	11.7	5.00e-04	0	44	0	2118123520	19	5035
2026-01-19 09:34:49.92	346.48	7.78	-29.6	-32.2	12.0	3.55e-04	0	44	0	2121269248	19	4867
2026-01-19 09:34:50.92	346.43	7.71	-29.5	-32.1	12.1	3.14e-04	0	44	0	2124414976	19	4825
2026-01-19 09:34:51.93	346.39	7.63	-29.7	-32.6	11.7	5.48e-04	0	44	0	2127560704	19	5024
2026-01-19 09:34:52.94	346.34	7.56	-29.6	-32.3	11.9	5.18e-04	0	44	0	2130706432	19	4916
2026-01-19 09:34:53.94	346.30	7.48	-29.7	-32.6	11.7	4.93e-04	0	44	0	2133852160	19	5016
2026-01-19 09:34:54.94	346.25	7.41	-29.6	-32.2	11.9	3.52e-04	0	44	0	2136997888	19	4881
