passes_logs/2026/01/19/R2M6_AANII_01/R2M6_AANII_01__20260119_105210_FENGYUN_3D_rec.log

#Pass ID: 20260119_105210_FENGYUN 3D
#Satellite: FENGYUN 3D
#Configuration: FENGYUN 3D
#almurnet v.1.7.20240730
#Start time: 2026-01-19 10:52:12

#Version: 2.2.20231116
#Station: R2M6_AANII_01
#Location: 30.233357 lon 59.946436 lat
#TLE: 1 43010U 17072A   26017.96359538  .00000271  00000+0  15011-3 0  9999
#TLE: 2 43010  98.9936 349.8252 0002386 103.8840 256.2601 14.19697057423673

#Time	Az	El	Level	Level2	SNR	BER	BlckErr	Temp	State	Recorded	gain1	gain2
2026-01-19 10:52:12.71	113.64	7.14	-30.4	-33.3	5.2	7.89e-01	0	41	0	0	22	5028
2026-01-19 10:52:13.70	113.57	7.21	-29.9	-32.2	5.4	7.83e-01	0	41	104	0	21	4734
2026-01-19 10:52:14.71	113.49	7.28	-30.0	-33.0	10.0	5.64e-03	0	41	0	0	20	5086
2026-01-19 10:52:15.72	113.42	7.35	-29.9	-32.9	10.1	5.12e-03	0	42	0	5242880	20	5055
2026-01-19 10:52:16.72	113.34	7.42	-29.9	-32.7	10.2	5.09e-03	0	41	0	11534336	20	4989
2026-01-19 10:52:17.72	113.27	7.49	-29.6	-32.1	10.7	2.95e-03	0	41	0	16777216	20	4758
2026-01-19 10:52:18.73	113.19	7.56	-29.3	-31.6	11.4	1.62e-03	0	42	0	22020096	19	4686
2026-01-19 10:52:19.73	113.12	7.63	-28.9	-30.6	12.1	2.70e-04	0	41	0	28311552	19	4377
2026-01-19 10:52:20.74	113.04	7.70	-28.4	-29.9	12.8	8.12e-05	0	42	0	33554432	18	4264
2026-01-19 10:52:21.74	112.97	7.78	-28.2	-30.0	13.0	2.51e-05	0	42	0	38797312	17	4423
2026-01-19 10:52:22.74	112.89	7.85	-28.3	-30.1	13.0	1.83e-05	0	42	0	45088768	17	4443
2026-01-19 10:52:23.74	112.81	7.92	-28.4	-30.4	12.8	3.20e-05	0	42	0	50331648	17	4535
2026-01-19 10:52:24.75	112.74	7.99	-28.2	-29.9	13.1	1.60e-05	0	42	0	55574528	17	4388
2026-01-19 10:52:25.76	112.66	8.06	-28.4	-30.4	12.8	5.26e-05	0	42	0	61865984	17	4523
2026-01-19 10:52:26.76	112.58	8.13	-28.3	-30.0	13.1	1.60e-05	0	42	0	67108864	17	4427
2026-01-19 10:52:27.76	112.50	8.21	-28.5	-30.5	12.8	2.97e-05	0	42	0	73400320	17	4554
2026-01-19 10:52:28.76	112.42	8.28	-28.3	-30.2	13.0	3.54e-05	0	42	0	78643200	17	4466
2026-01-19 10:52:29.76	112.34	8.35	-28.5	-30.6	12.7	3.89e-05	0	42	0	84934656	17	4607
2026-01-19 10:52:30.77	112.26	8.42	-28.4	-30.5	12.8	5.72e-05	0	42	0	90177536	17	4549
2026-01-19 10:52:31.76	112.18	8.50	-28.0	-29.5	13.4	1.48e-05	0	42	0	95420416	17	4268
2026-01-19 10:52:32.77	112.10	8.57	-27.9	-29.2	13.6	4.50e-06	0	42	0	101711872	17	4173
2026-01-19 10:52:33.76	112.02	8.64	-27.9	-29.1	13.7	3.40e-06	0	42	0	106954752	17	4159
2026-01-19 10:52:34.77	111.94	8.71	-27.8	-29.4	13.8	1.10e-06	0	42	0	112197632	16	4336
2026-01-19 10:52:35.77	111.86	8.79	-27.8	-29.5	13.8	3.40e-06	0	42	0	118489088	16	4364
2026-01-19 10:52:36.78	111.78	8.86	-27.9	-29.6	13.7	4.50e-06	0	42	0	123731968	16	4404
2026-01-19 10:52:37.78	111.69	8.94	-27.7	-29.3	13.9	2.20e-06	0	42	0	128974848	16	4300
2026-01-19 10:52:38.78	111.61	9.01	-27.7	-29.3	13.9	3.40e-06	0	42	0	135266304	16	4300
2026-01-19 10:52:39.78	111.53	9.08	-27.6	-29.0	14.1	3.40e-06	0	42	0	140509184	16	4219
2026-01-19 10:52:40.78	111.44	9.16	-27.6	-29.1	14.0	1.10e-06	0	42	0	146800640	16	4243
2026-01-19 10:52:41.78	111.36	9.23	-27.6	-28.9	14.1	1.10e-06	0	42	0	152043520	16	4199
2026-01-19 10:52:42.79	111.27	9.31	-27.5	-28.8	14.2	1.10e-06	0	42	0	157286400	16	4178
2026-01-19 10:52:43.79	111.19	9.38	-27.6	-29.0	14.1	4.50e-06	0	42	0	163577856	16	4228
2026-01-19 10:52:44.80	111.10	9.46	-27.5	-28.8	14.2	0.00e+00	0	42	0	168820736	16	4161
2026-01-19 10:52:45.80	111.02	9.53	-27.4	-28.5	14.4	0.00e+00	0	42	0	174063616	16	4089
2026-01-19 10:52:46.80	110.93	9.60	-27.5	-28.8	14.3	0.00e+00	0	42	0	180355072	16	4161
2026-01-19 10:52:47.80	110.84	9.68	-27.4	-28.5	14.4	0.00e+00	0	42	0	185597952	16	4087
2026-01-19 10:52:48.80	110.76	9.76	-27.4	-28.4	14.5	0.00e+00	0	42	0	190840832	16	4069
2026-01-19 10:52:49.80	110.67	9.83	-27.2	-28.5	14.5	0.00e+00	0	42	0	197132288	15	4205
2026-01-19 10:52:50.80	110.58	9.91	-27.1	-28.3	14.6	0.00e+00	0	42	0	202375168	15	4148
2026-01-19 10:52:51.80	110.49	9.98	-27.2	-28.5	14.5	0.00e+00	0	42	0	208666624	15	4206
2026-01-19 10:52:52.81	110.40	10.06	-27.1	-28.3	14.7	0.00e+00	0	42	0	213909504	15	4134
2026-01-19 10:52:53.81	110.31	10.13	-27.1	-28.4	14.6	0.00e+00	0	42	0	220200960	15	4186
2026-01-19 10:52:54.81	110.22	10.21	-27.1	-28.5	14.6	0.00e+00	0	42	0	225443840	15	4196
2026-01-19 10:52:55.82	110.13	10.29	-27.2	-28.5	14.6	0.00e+00	0	43	0	230686720	15	4197
2026-01-19 10:52:56.83	110.04	10.37	-27.1	-28.4	14.7	0.00e+00	0	43	0	236978176	15	4162
2026-01-19 10:52:57.83	109.95	10.44	-27.0	-28.2	14.8	0.00e+00	0	42	0	242221056	15	4124
2026-01-19 10:52:58.84	109.85	10.52	-27.1	-28.3	14.7	0.00e+00	0	42	0	247463936	15	4134
2026-01-19 10:52:59.84	109.76	10.60	-27.4	-29.0	14.3	0.00e+00	0	43	0	253755392	15	4334
2026-01-19 10:53:00.84	109.67	10.67	-27.2	-28.6	14.5	0.00e+00	0	43	0	258998272	15	4224
2026-01-19 10:53:01.84	109.57	10.75	-27.0	-28.0	14.8	1.10e-06	0	43	0	264241152	15	4075
2026-01-19 10:53:02.85	109.48	10.83	-26.9	-27.9	14.9	0.00e+00	0	43	0	270532608	15	4046
2026-01-19 10:53:03.84	109.39	10.91	-26.9	-28.0	14.9	0.00e+00	0	43	0	275775488	15	4059
2026-01-19 10:53:04.84	109.29	10.98	-26.9	-27.9	15.0	0.00e+00	0	43	0	282066944	15	4036
2026-01-19 10:53:05.85	109.19	11.06	-27.0	-28.0	14.9	0.00e+00	0	43	0	287309824	15	4068
2026-01-19 10:53:06.85	109.10	11.14	-26.9	-28.0	14.9	0.00e+00	0	43	0	292552704	15	4057
2026-01-19 10:53:07.86	109.00	11.22	-26.9	-27.9	15.0	0.00e+00	0	43	0	298844160	15	4033
2026-01-19 10:53:08.86	108.90	11.30	-27.1	-28.3	14.8	0.00e+00	0	43	0	304087040	15	4133
2026-01-19 10:53:09.86	108.81	11.38	-27.0	-28.0	14.9	0.00e+00	0	43	0	310378496	15	4074
2026-01-19 10:53:10.86	108.71	11.46	-26.8	-28.1	15.2	0.00e+00	0	43	0	315621376	14	4183
2026-01-19 10:53:11.87	108.61	11.54	-26.9	-28.4	15.0	0.00e+00	0	43	0	320864256	14	4276
2026-01-19 10:53:12.87	108.51	11.62	-26.9	-28.3	15.1	0.00e+00	0	43	0	327155712	14	4249
2026-01-19 10:53:13.87	108.41	11.70	-26.8	-28.1	15.2	0.00e+00	0	43	0	332398592	14	4193
2026-01-19 10:53:14.87	108.31	11.77	-26.9	-28.3	15.1	0.00e+00	0	43	0	337641472	14	4248
2026-01-19 10:53:15.87	108.21	11.85	-26.9	-28.3	15.1	0.00e+00	0	43	0	343932928	14	4243
2026-01-19 10:53:16.88	108.10	11.94	-26.8	-28.3	15.1	0.00e+00	0	43	0	349175808	14	4241
2026-01-19 10:53:17.89	108.00	12.02	-27.1	-28.8	14.8	0.00e+00	0	43	0	355467264	14	4387
2026-01-19 10:53:18.89	107.90	12.10	-27.0	-28.5	15.0	0.00e+00	0	43	0	360710144	14	4315
2026-01-19 10:53:19.89	107.79	12.18	-27.0	-28.6	15.0	0.00e+00	0	43	0	365953024	14	4317
2026-01-19 10:53:20.89	107.69	12.26	-27.1	-28.8	14.8	0.00e+00	0	43	0	372244480	14	4381
2026-01-19 10:53:21.89	107.59	12.34	-26.9	-28.3	15.1	0.00e+00	0	43	0	377487360	14	4255
2026-01-19 10:53:22.89	107.48	12.42	-26.8	-28.3	15.1	0.00e+00	0	43	0	382730240	14	4240
2026-01-19 10:53:23.88	107.38	12.50	-26.8	-28.1	15.2	0.00e+00	0	43	0	389021696	14	4208
2026-01-19 10:53:24.88	107.27	12.58	-26.8	-28.2	15.2	1.10e-06	0	43	0	394264576	14	4212
2026-01-19 10:53:25.88	107.16	12.66	-26.7	-27.9	15.3	0.00e+00	0	43	0	399507456	14	4151
2026-01-19 10:53:26.89	107.05	12.75	-26.7	-27.9	15.4	0.00e+00	0	43	0	405798912	14	4141
2026-01-19 10:53:27.89	106.95	12.83	-26.8	-28.1	15.3	3.40e-06	0	43	0	411041792	14	4189
2026-01-19 10:53:28.89	106.84	12.91	-26.7	-28.0	15.3	0.00e+00	0	43	0	417333248	14	4161
2026-01-19 10:53:29.90	106.73	12.99	-26.8	-28.2	15.2	0.00e+00	0	43	0	422576128	14	4222
2026-01-19 10:53:30.90	106.62	13.07	-26.7	-28.0	15.3	1.10e-06	0	43	0	427819008	14	4158
2026-01-19 10:53:31.90	106.51	13.16	-26.7	-27.9	15.4	0.00e+00	0	43	0	434110464	14	4141
2026-01-19 10:53:32.90	106.39	13.24	-26.7	-28.0	15.3	0.00e+00	0	43	0	439353344	14	4161
2026-01-19 10:53:33.91	106.28	13.32	-26.9	-28.4	15.1	0.00e+00	0	43	0	445644800	14	4292
2026-01-19 10:53:34.91	106.17	13.41	-27.0	-28.6	15.0	0.00e+00	0	43	0	450887680	14	4325
2026-01-19 10:53:35.91	106.05	13.49	-27.0	-28.6	15.0	0.00e+00	0	43	0	456130560	14	4324
2026-01-19 10:53:36.91	105.94	13.57	-26.9	-28.4	15.1	0.00e+00	0	43	0	462422016	14	4281
2026-01-19 10:53:37.91	105.83	13.66	-27.0	-28.7	14.9	0.00e+00	0	43	0	467664896	14	4358
2026-01-19 10:53:38.92	105.71	13.74	-26.8	-28.2	15.2	0.00e+00	0	43	0	472907776	14	4233
2026-01-19 10:53:39.92	105.59	13.82	-26.7	-28.0	15.3	0.00e+00	0	43	0	479199232	14	4174
2026-01-19 10:53:40.92	105.48	13.91	-26.7	-27.9	15.4	0.00e+00	0	43	0	484442112	14	4156
2026-01-19 10:53:41.92	105.36	13.99	-26.8	-28.0	15.3	0.00e+00	0	43	0	490733568	14	4180
2026-01-19 10:53:42.93	105.24	14.08	-26.6	-27.8	15.5	0.00e+00	0	43	0	495976448	14	4101
2026-01-19 10:53:43.94	105.12	14.16	-26.9	-28.4	15.2	0.00e+00	0	43	0	501219328	14	4264
2026-01-19 10:53:44.93	105.00	14.25	-26.6	-27.6	15.6	0.00e+00	0	43	0	507510784	14	4071
2026-01-19 10:53:45.94	104.88	14.33	-26.4	-27.3	15.8	0.00e+00	0	43	0	512753664	14	3978
2026-01-19 10:53:46.94	104.76	14.42	-26.2	-27.4	15.9	0.00e+00	0	43	0	517996544	13	4118
2026-01-19 10:53:47.94	104.64	14.50	-26.4	-27.7	15.8	0.00e+00	0	43	0	524288000	13	4194
2026-01-19 10:53:48.94	104.52	14.59	-26.3	-27.5	15.9	0.00e+00	0	43	0	529530880	13	4147
2026-01-19 10:53:49.95	104.39	14.68	-26.1	-27.2	16.1	0.00e+00	0	43	0	534773760	13	4064
2026-01-19 10:53:50.95	104.27	14.76	-26.2	-27.3	16.0	0.00e+00	0	43	0	541065216	13	4086
2026-01-19 10:53:51.95	104.15	14.85	-26.2	-27.4	16.0	0.00e+00	0	43	0	546308096	13	4112
2026-01-19 10:53:52.95	104.02	14.93	-26.1	-27.1	16.1	0.00e+00	0	43	0	552599552	13	4054
2026-01-19 10:53:53.96	103.89	15.02	-26.3	-27.5	16.0	0.00e+00	0	43	0	557842432	13	4151
2026-01-19 10:53:54.95	103.77	15.11	-26.2	-27.3	16.1	0.00e+00	0	43	0	563085312	13	4092
2026-01-19 10:53:55.95	103.64	15.19	-26.1	-27.1	16.2	0.00e+00	0	43	0	569376768	13	4029
2026-01-19 10:53:56.95	103.51	15.28	-26.3	-27.5	16.0	0.00e+00	0	43	0	574619648	13	4143
2026-01-19 10:53:57.95	103.38	15.37	-26.1	-27.1	16.2	0.00e+00	0	43	0	579862528	13	4030
2026-01-19 10:53:58.95	103.25	15.45	-26.0	-27.0	16.3	0.00e+00	0	43	0	586153984	13	4005
2026-01-19 10:53:59.96	103.12	15.54	-26.2	-27.2	16.1	0.00e+00	0	43	0	591396864	13	4069
2026-01-19 10:54:00.96	102.99	15.63	-26.0	-26.9	16.3	0.00e+00	0	43	0	597688320	13	3984
2026-01-19 10:54:01.96	102.86	15.72	-26.0	-27.0	16.3	0.00e+00	0	43	0	602931200	13	4001
2026-01-19 10:54:02.97	102.73	15.81	-25.9	-26.7	16.4	0.00e+00	0	43	0	608174080	13	3940
2026-01-19 10:54:03.97	102.59	15.89	-25.8	-26.5	16.5	0.00e+00	0	43	0	614465536	13	3894
2026-01-19 10:54:04.97	102.46	15.98	-25.8	-26.4	16.6	0.00e+00	0	43	0	619708416	13	3873
2026-01-19 10:54:05.96	102.32	16.07	-25.8	-26.9	16.6	0.00e+00	0	43	0	625999872	12	4084
2026-01-19 10:54:06.96	102.19	16.16	-25.7	-26.8	16.7	0.00e+00	0	43	0	631242752	12	4061
2026-01-19 10:54:07.97	102.05	16.25	-25.8	-27.0	16.5	0.00e+00	0	43	0	636485632	12	4126
2026-01-19 10:54:08.98	101.91	16.34	-25.7	-26.7	16.7	0.00e+00	0	43	0	642777088	12	4033
2026-01-19 10:54:09.98	101.77	16.43	-25.7	-26.7	16.7	0.00e+00	0	43	0	648019968	12	4040
2026-01-19 10:54:10.98	101.63	16.51	-25.9	-27.1	16.5	0.00e+00	0	43	0	653262848	12	4148
2026-01-19 10:54:11.99	101.49	16.60	-25.7	-26.7	16.7	0.00e+00	0	43	0	659554304	12	4048
2026-01-19 10:54:12.99	101.35	16.69	-25.6	-26.5	16.8	0.00e+00	0	43	0	664797184	12	3997
2026-01-19 10:54:14.00	101.21	16.78	-25.6	-26.6	16.8	0.00e+00	0	43	0	670040064	12	4008
2026-01-19 10:54:15.00	101.07	16.87	-25.6	-26.4	16.9	0.00e+00	0	43	0	676331520	12	3972
2026-01-19 10:54:16.00	100.92	16.96	-25.6	-26.5	16.9	0.00e+00	0	43	0	681574400	12	3990
2026-01-19 10:54:17.00	100.78	17.05	-25.7	-26.7	16.8	0.00e+00	0	43	0	687865856	12	4039
2026-01-19 10:54:18.00	100.63	17.14	-25.6	-26.6	16.8	0.00e+00	0	43	0	693108736	12	4004
2026-01-19 10:54:18.99	100.49	17.23	-25.7	-26.6	16.8	0.00e+00	0	43	0	698351616	12	4024
2026-01-19 10:54:20.01	100.34	17.33	-25.9	-27.1	16.6	0.00e+00	0	43	0	704643072	12	4138
2026-01-19 10:54:21.01	100.19	17.42	-25.6	-26.5	16.8	0.00e+00	0	43	0	709885952	12	4003
2026-01-19 10:54:22.01	100.04	17.51	-25.6	-26.5	16.9	0.00e+00	0	43	0	716177408	12	3993
2026-01-19 10:54:23.02	99.89	17.60	-25.8	-26.9	16.7	0.00e+00	0	43	0	721420288	12	4080
2026-01-19 10:54:24.02	99.74	17.69	-25.6	-26.4	16.9	0.00e+00	0	43	0	726663168	12	3972
2026-01-19 10:54:25.02	99.59	17.78	-25.5	-26.2	17.0	0.00e+00	0	43	0	732954624	12	3919
2026-01-19 10:54:26.02	99.44	17.87	-25.5	-26.2	17.1	0.00e+00	0	43	0	738197504	12	3906
2026-01-19 10:54:27.02	99.28	17.96	-25.3	-25.8	17.3	0.00e+00	0	44	0	743440384	12	3824
2026-01-19 10:54:28.02	99.13	18.05	-25.3	-25.9	17.2	0.00e+00	0	43	0	749731840	12	3848
2026-01-19 10:54:29.02	98.97	18.14	-25.6	-26.4	17.0	0.00e+00	0	43	0	754974720	12	3970
2026-01-19 10:54:30.02	98.82	18.24	-25.7	-26.7	16.8	0.00e+00	0	43	0	761266176	12	4046
2026-01-19 10:54:31.03	98.66	18.33	-25.5	-26.3	17.0	0.00e+00	0	43	0	766509056	12	3945
2026-01-19 10:54:32.04	98.50	18.42	-25.4	-26.1	17.1	0.00e+00	0	43	0	771751936	12	3881
2026-01-19 10:54:33.04	98.34	18.51	-25.4	-26.0	17.1	0.00e+00	0	43	0	778043392	12	3881
2026-01-19 10:54:34.04	98.18	18.61	-25.4	-26.0	17.2	0.00e+00	0	43	0	783286272	12	3874
2026-01-19 10:54:35.05	98.02	18.70	-25.4	-26.1	17.1	0.00e+00	0	43	0	788529152	12	3901
2026-01-19 10:54:36.05	97.85	18.79	-25.3	-26.4	17.3	0.00e+00	0	44	0	794820608	11	4067
2026-01-19 10:54:37.05	97.69	18.88	-25.1	-26.0	17.5	0.00e+00	0	43	0	800063488	11	3968
2026-01-19 10:54:38.06	97.52	18.98	-25.0	-25.7	17.7	0.00e+00	0	43	0	806354944	11	3899
2026-01-19 10:54:39.07	97.36	19.07	-25.1	-25.9	17.6	0.00e+00	0	43	0	811597824	11	3942
2026-01-19 10:54:40.07	97.19	19.16	-25.1	-25.8	17.7	0.00e+00	0	43	0	817889280	11	3916
2026-01-19 10:54:41.07	97.02	19.26	-25.2	-26.1	17.5	0.00e+00	0	44	0	823132160	11	3988
2026-01-19 10:54:42.07	96.86	19.35	-25.1	-26.0	17.6	0.00e+00	0	43	0	828375040	11	3967
2026-01-19 10:54:43.07	96.69	19.44	-25.3	-26.2	17.4	0.00e+00	0	43	0	834666496	11	4026
2026-01-19 10:54:44.08	96.51	19.54	-25.3	-26.3	17.4	0.00e+00	0	43	0	839909376	11	4038
2026-01-19 10:54:45.08	96.34	19.63	-25.6	-26.9	17.1	0.00e+00	0	43	0	845152256	11	4198
2026-01-19 10:54:46.09	96.17	19.72	-25.4	-26.6	17.3	0.00e+00	0	44	0	851443712	11	4117
2026-01-19 10:54:47.09	95.99	19.82	-25.3	-26.3	17.4	0.00e+00	0	44	0	856686592	11	4046
2026-01-19 10:54:48.09	95.82	19.91	-25.3	-26.3	17.4	0.00e+00	0	43	0	861929472	11	4050
2026-01-19 10:54:49.09	95.64	20.00	-25.3	-26.2	17.5	0.00e+00	0	44	0	868220928	11	4021
2026-01-19 10:54:50.10	95.47	20.10	-25.3	-26.2	17.4	0.00e+00	0	44	0	873463808	11	4026
2026-01-19 10:54:51.10	95.29	20.19	-25.2	-26.1	17.6	0.00e+00	0	43	0	879755264	11	3983
2026-01-19 10:54:52.09	95.11	20.28	-25.2	-26.0	17.6	0.00e+00	0	44	0	884998144	11	3978
2026-01-19 10:54:53.10	94.93	20.38	-25.3	-26.4	17.4	0.00e+00	0	43	0	890241024	11	4063
2026-01-19 10:54:54.11	94.75	20.47	-25.1	-25.9	17.7	0.00e+00	0	43	0	896532480	11	3940
2026-01-19 10:54:55.11	94.56	20.57	-25.0	-25.7	17.7	0.00e+00	0	43	0	901775360	11	3896
2026-01-19 10:54:56.12	94.38	20.66	-25.1	-25.8	17.7	0.00e+00	0	44	0	908066816	11	3932
2026-01-19 10:54:57.12	94.19	20.75	-25.1	-25.9	17.6	0.00e+00	0	44	0	913309696	11	3938
2026-01-19 10:54:58.12	94.01	20.85	-25.0	-25.7	17.7	0.00e+00	0	43	0	918552576	11	3904
2026-01-19 10:54:59.13	93.82	20.94	-25.2	-26.0	17.6	0.00e+00	0	44	0	924844032	11	3973
2026-01-19 10:55:00.13	93.63	21.04	-25.1	-25.8	17.7	0.00e+00	0	43	0	930086912	11	3929
2026-01-19 10:55:01.13	93.44	21.13	-25.0	-25.7	17.8	0.00e+00	0	43	0	935329792	11	3898
2026-01-19 10:55:02.13	93.25	21.23	-25.1	-25.9	17.7	0.00e+00	0	43	0	941621248	11	3956
2026-01-19 10:55:03.14	93.06	21.32	-24.9	-25.5	17.9	0.00e+00	0	43	0	946864128	11	3842
2026-01-19 10:55:04.14	92.86	21.41	-25.0	-25.7	17.7	0.00e+00	0	43	0	953155584	11	3900
2026-01-19 10:55:05.14	92.67	21.51	-25.0	-25.6	17.8	0.00e+00	0	43	0	958398464	11	3875
2026-01-19 10:55:06.15	92.47	21.60	-24.9	-25.5	17.9	0.00e+00	0	43	0	963641344	11	3852
2026-01-19 10:55:07.16	92.28	21.70	-25.0	-25.7	17.8	0.00e+00	0	43	0	969932800	11	3903
2026-01-19 10:55:08.16	92.08	21.79	-24.8	-25.3	18.0	0.00e+00	0	44	0	975175680	11	3808
2026-01-19 10:55:09.16	91.88	21.89	-24.8	-25.3	18.0	0.00e+00	0	43	0	981467136	11	3804
2026-01-19 10:55:10.16	91.68	21.98	-24.9	-25.5	17.8	0.00e+00	0	44	0	986710016	11	3862
2026-01-19 10:55:11.16	91.48	22.07	-24.8	-25.7	18.0	0.00e+00	0	43	0	991952896	10	3996
2026-01-19 10:55:12.17	91.27	22.17	-24.7	-25.6	18.1	0.00e+00	0	44	0	998244352	10	3971
2026-01-19 10:55:13.18	91.07	22.26	-24.5	-25.1	18.3	0.00e+00	0	43	0	1003487232	10	3857
2026-01-19 10:55:14.18	90.86	22.36	-24.5	-25.1	18.4	0.00e+00	0	44	0	1008730112	10	3848
2026-01-19 10:55:15.18	90.66	22.45	-24.7	-25.5	18.1	0.00e+00	0	44	0	1015021568	10	3961
2026-01-19 10:55:16.18	90.45	22.54	-24.6	-25.3	18.2	0.00e+00	0	43	0	1020264448	10	3912
2026-01-19 10:55:17.19	90.24	22.64	-24.5	-25.2	18.3	0.00e+00	0	43	0	1026555904	10	3876
2026-01-19 10:55:18.19	90.03	22.73	-24.5	-25.1	18.3	0.00e+00	0	43	0	1031798784	10	3867
2026-01-19 10:55:19.19	89.82	22.82	-24.6	-25.4	18.2	0.00e+00	0	43	0	1037041664	10	3937
2026-01-19 10:55:20.20	89.60	22.92	-24.7	-25.6	18.1	0.00e+00	0	44	0	1043333120	10	3981
2026-01-19 10:55:21.20	89.39	23.01	-24.7	-25.5	18.2	0.00e+00	0	44	0	1048576000	10	3950
2026-01-19 10:55:22.21	89.17	23.11	-24.6	-25.4	18.2	0.00e+00	0	44	0	1054867456	10	3926
2026-01-19 10:55:23.21	88.95	23.20	-24.5	-25.2	18.3	0.00e+00	0	44	0	1060110336	10	3875
2026-01-19 10:55:24.22	88.73	23.29	-24.5	-25.0	18.4	0.00e+00	0	44	0	1065353216	10	3835
2026-01-19 10:55:25.23	88.51	23.39	-24.7	-25.4	18.2	0.00e+00	0	44	0	1071644672	10	3938
2026-01-19 10:55:26.23	88.29	23.48	-24.4	-24.9	18.5	0.00e+00	0	44	0	1076887552	10	3817
2026-01-19 10:55:27.24	88.07	23.57	-24.5	-25.1	18.4	0.00e+00	0	44	0	1082130432	10	3852
2026-01-19 10:55:28.25	87.84	23.67	-24.6	-25.3	18.3	0.00e+00	0	43	0	1088421888	10	3894
2026-01-19 10:55:29.24	87.62	23.76	-24.4	-24.8	18.5	0.00e+00	0	43	0	1093664768	10	3790
2026-01-19 10:55:30.25	87.39	23.85	-24.4	-25.0	18.5	0.00e+00	0	44	0	1099956224	10	3826
2026-01-19 10:55:31.25	87.17	23.94	-24.5	-25.1	18.4	0.00e+00	0	44	0	1105199104	10	3869
2026-01-19 10:55:32.25	86.94	24.03	-24.3	-24.8	18.6	0.00e+00	0	43	0	1110441984	10	3778
2026-01-19 10:55:33.26	86.71	24.13	-24.2	-24.9	18.7	0.00e+00	0	44	0	1116733440	9	3928
2026-01-19 10:55:34.26	86.48	24.22	-24.1	-24.9	18.7	0.00e+00	0	44	0	1121976320	9	3909
2026-01-19 10:55:35.27	86.24	24.31	-24.1	-24.9	18.8	0.00e+00	0	43	0	1128267776	9	3906
2026-01-19 10:55:36.28	86.00	24.40	-24.0	-24.5	18.9	0.00e+00	0	44	0	1133510656	9	3829
2026-01-19 10:55:37.28	85.77	24.49	-23.9	-24.3	19.1	0.00e+00	0	44	0	1138753536	9	3774
2026-01-19 10:55:38.28	85.53	24.58	-24.0	-24.5	19.0	0.00e+00	0	44	0	1145044992	9	3811
2026-01-19 10:55:39.29	85.29	24.67	-24.0	-24.5	19.0	0.00e+00	0	43	0	1150287872	9	3823
2026-01-19 10:55:40.29	85.05	24.76	-24.1	-24.8	18.8	0.00e+00	0	43	0	1155530752	9	3885
2026-01-19 10:55:41.29	84.81	24.85	-24.2	-24.9	18.7	0.00e+00	0	43	0	1161822208	9	3917
2026-01-19 10:55:42.29	84.57	24.94	-24.3	-25.1	18.6	0.00e+00	0	44	0	1167065088	9	3969
2026-01-19 10:55:43.30	84.32	25.03	-24.3	-25.1	18.6	0.00e+00	0	43	0	1173356544	9	3978
2026-01-19 10:55:44.30	84.08	25.12	-24.4	-25.5	18.5	0.00e+00	0	44	0	1178599424	9	4056
2026-01-19 10:55:45.30	83.83	25.21	-24.5	-25.7	18.4	0.00e+00	0	43	0	1183842304	9	4107
2026-01-19 10:55:46.31	83.58	25.30	-24.5	-25.6	18.4	0.00e+00	0	43	0	1190133760	9	4079
2026-01-19 10:55:47.31	83.33	25.39	-24.3	-25.2	18.6	0.00e+00	0	44	0	1195376640	9	3990
2026-01-19 10:55:48.32	83.08	25.48	-24.3	-25.1	18.7	0.00e+00	0	44	0	1201668096	9	3956
2026-01-19 10:55:49.32	82.83	25.57	-24.3	-25.1	18.7	0.00e+00	0	43	0	1206910976	9	3969
2026-01-19 10:55:50.32	82.58	25.65	-24.2	-24.9	18.8	0.00e+00	0	43	0	1212153856	9	3905
2026-01-19 10:55:51.32	82.32	25.74	-24.2	-25.0	18.7	0.00e+00	0	44	0	1218445312	9	3951
2026-01-19 10:55:52.32	82.06	25.83	-24.3	-25.2	18.6	0.00e+00	0	43	0	1223688192	9	3994
2026-01-19 10:55:53.32	81.81	25.91	-24.2	-25.0	18.7	0.00e+00	0	44	0	1228931072	9	3947
2026-01-19 10:55:54.32	81.55	26.00	-24.1	-24.8	18.8	0.00e+00	0	43	0	1235222528	9	3896
2026-01-19 10:55:55.33	81.28	26.09	-24.1	-24.8	18.8	0.00e+00	0	44	0	1240465408	9	3887
2026-01-19 10:55:56.33	81.02	26.17	-24.0	-24.6	19.0	0.00e+00	0	44	0	1246756864	9	3844
2026-01-19 10:55:57.34	80.76	26.26	-24.1	-24.7	18.9	0.00e+00	0	43	0	1251999744	9	3872
2026-01-19 10:55:58.34	80.49	26.34	-24.1	-24.8	18.9	0.00e+00	0	44	0	1257242624	9	3882
2026-01-19 10:55:59.34	80.23	26.42	-24.0	-24.5	19.0	0.00e+00	0	44	0	1263534080	9	3835
2026-01-19 10:56:00.34	79.96	26.51	-24.0	-24.5	19.0	0.00e+00	0	44	0	1268776960	9	3829
2026-01-19 10:56:01.35	79.69	26.59	-23.8	-24.1	19.2	0.00e+00	0	44	0	1274019840	9	3735
2026-01-19 10:56:02.35	79.42	26.67	-23.7	-24.5	19.3	0.00e+00	0	44	0	1280311296	8	3922
2026-01-19 10:56:03.36	79.14	26.76	-23.7	-24.5	19.3	0.00e+00	0	44	0	1285554176	8	3918
2026-01-19 10:56:04.36	78.87	26.84	-23.8	-24.6	19.2	0.00e+00	0	44	0	1291845632	8	3956
2026-01-19 10:56:05.36	78.60	26.92	-23.7	-24.5	19.3	0.00e+00	0	44	0	1297088512	8	3932
2026-01-19 10:56:06.36	78.32	27.00	-23.8	-24.6	19.2	0.00e+00	0	44	0	1302331392	8	3947
2026-01-19 10:56:07.37	78.04	27.08	-23.9	-24.8	19.1	0.00e+00	0	44	0	1308622848	8	3994
2026-01-19 10:56:08.37	77.76	27.16	-23.9	-24.9	19.1	0.00e+00	0	44	0	1313865728	8	4021
2026-01-19 10:56:09.37	77.48	27.24	-24.0	-25.0	19.0	0.00e+00	0	44	0	1320157184	8	4046
2026-01-19 10:56:10.38	77.20	27.32	-24.0	-25.0	19.1	0.00e+00	0	44	0	1325400064	8	4037
2026-01-19 10:56:11.37	76.92	27.40	-24.0	-25.1	19.0	0.00e+00	0	44	0	1330642944	8	4071
2026-01-19 10:56:12.37	76.63	27.47	-24.0	-25.1	18.9	0.00e+00	0	43	0	1336934400	8	4080
2026-01-19 10:56:13.38	76.34	27.55	-24.0	-25.0	19.0	0.00e+00	0	44	0	1342177280	8	4054
2026-01-19 10:56:14.38	76.06	27.63	-24.1	-25.3	18.9	0.00e+00	0	44	0	1347420160	8	4112
2026-01-19 10:56:15.38	75.77	27.70	-24.2	-25.4	18.9	0.00e+00	0	44	0	1353711616	8	4144
2026-01-19 10:56:16.39	75.47	27.78	-24.0	-25.0	19.0	0.00e+00	0	44	0	1358954496	8	4056
2026-01-19 10:56:17.39	75.18	27.85	-23.9	-24.9	19.1	0.00e+00	0	44	0	1364197376	8	4024
2026-01-19 10:56:18.40	74.89	27.93	-24.0	-25.0	19.0	0.00e+00	0	44	0	1370488832	8	4045
2026-01-19 10:56:19.40	74.59	28.00	-24.0	-25.0	19.1	0.00e+00	0	44	0	1375731712	8	4035
2026-01-19 10:56:20.40	74.30	28.08	-23.9	-24.7	19.2	0.00e+00	0	44	0	1382023168	8	3982
2026-01-19 10:56:21.41	74.00	28.15	-24.0	-25.0	19.1	0.00e+00	0	43	0	1387266048	8	4036
2026-01-19 10:56:22.41	73.70	28.22	-24.0	-25.1	19.0	0.00e+00	0	44	0	1393557504	8	4070
2026-01-19 10:56:23.42	73.40	28.29	-24.1	-25.2	19.0	0.00e+00	0	44	0	1398800384	8	4100
2026-01-19 10:56:24.42	73.10	28.36	-23.8	-24.7	19.2	0.00e+00	0	44	0	1404043264	8	3977
2026-01-19 10:56:25.42	72.80	28.43	-23.7	-24.4	19.4	0.00e+00	0	43	0	1410334720	8	3904
2026-01-19 10:56:26.42	72.49	28.50	-23.6	-24.3	19.4	0.00e+00	0	44	0	1415577600	8	3873
2026-01-19 10:56:27.42	72.19	28.57	-23.5	-24.0	19.6	0.00e+00	0	44	0	1420820480	8	3817
2026-01-19 10:56:28.42	71.88	28.63	-23.5	-24.0	19.6	0.00e+00	0	44	0	1427111936	8	3808
2026-01-19 10:56:29.43	71.57	28.70	-23.6	-24.1	19.5	0.00e+00	0	44	0	1432354816	8	3843
2026-01-19 10:56:30.44	71.26	28.77	-23.6	-24.3	19.4	0.00e+00	0	44	0	1437597696	8	3877
2026-01-19 10:56:31.44	70.95	28.83	-23.8	-24.5	19.3	0.00e+00	0	44	0	1443889152	8	3940
2026-01-19 10:56:32.44	70.64	28.89	-23.8	-24.7	19.2	0.00e+00	0	44	0	1449132032	8	3965
2026-01-19 10:56:33.44	70.33	28.96	-23.8	-24.6	19.2	0.00e+00	0	44	0	1455423488	8	3964
2026-01-19 10:56:34.44	70.02	29.02	-23.7	-24.4	19.4	0.00e+00	0	44	0	1460666368	8	3893
2026-01-19 10:56:35.45	69.70	29.08	-23.6	-24.2	19.5	0.00e+00	0	44	0	1465909248	8	3861
2026-01-19 10:56:36.45	69.38	29.14	-23.7	-24.3	19.5	0.00e+00	0	44	0	1472200704	8	3870
2026-01-19 10:56:37.45	69.07	29.20	-23.8	-24.7	19.3	0.00e+00	0	44	0	1477443584	8	3964
2026-01-19 10:56:38.45	68.75	29.26	-23.7	-24.3	19.4	0.00e+00	0	44	0	1482686464	8	3887
2026-01-19 10:56:39.45	68.43	29.32	-23.6	-24.3	19.5	0.00e+00	0	43	0	1488977920	8	3879
2026-01-19 10:56:40.45	68.11	29.38	-23.7	-24.3	19.4	0.00e+00	0	44	0	1494220800	8	3887
2026-01-19 10:56:41.45	67.79	29.43	-23.7	-24.4	19.6	0.00e+00	0	43	0	1499463680	8	3889
2026-01-19 10:56:42.46	67.46	29.49	-23.8	-24.5	19.5	0.00e+00	0	43	0	1505755136	8	3910
2026-01-19 10:56:43.46	67.14	29.54	-23.7	-24.4	19.6	0.00e+00	0	44	0	1510998016	8	3891
2026-01-19 10:56:44.46	66.81	29.60	-23.7	-24.3	19.6	0.00e+00	0	43	0	1517289472	8	3856
2026-01-19 10:56:45.46	66.49	29.65	-23.7	-24.3	19.6	0.00e+00	0	44	0	1522532352	8	3863
2026-01-19 10:56:46.46	66.16	29.70	-23.7	-24.4	19.6	0.00e+00	0	44	0	1528823808	8	3886
2026-01-19 10:56:47.47	65.83	29.75	-23.7	-24.4	19.6	0.00e+00	0	44	0	1534066688	8	3894
2026-01-19 10:56:48.48	65.50	29.80	-23.7	-24.3	19.6	0.00e+00	0	44	0	1539309568	8	3863
2026-01-19 10:56:49.47	65.17	29.85	-23.7	-24.3	19.6	0.00e+00	0	44	0	1545601024	8	3875
2026-01-19 10:56:50.48	64.83	29.90	-23.6	-24.1	19.7	0.00e+00	0	44	0	1550843904	8	3831
2026-01-19 10:56:51.49	64.50	29.94	-23.3	-23.6	20.0	0.00e+00	0	44	0	1556086784	8	3700
2026-01-19 10:56:52.50	64.16	29.99	-23.3	-23.6	20.0	0.00e+00	0	44	0	1562378240	8	3699
2026-01-19 10:56:53.50	63.83	30.03	-23.5	-23.8	19.9	0.00e+00	0	44	0	1567621120	8	3760
2026-01-19 10:56:54.51	63.49	30.08	-23.5	-24.0	19.8	0.00e+00	0	44	0	1573912576	8	3802
2026-01-19 10:56:55.51	63.15	30.12	-23.4	-23.7	19.9	0.00e+00	0	44	0	1579155456	8	3735
2026-01-19 10:56:56.51	62.82	30.16	-23.4	-23.7	19.9	0.00e+00	0	44	0	1584398336	8	3727
2026-01-19 10:56:57.52	62.48	30.20	-23.5	-23.9	19.8	0.00e+00	0	43	0	1590689792	8	3766
2026-01-19 10:56:58.52	62.14	30.24	-23.7	-24.3	19.6	0.00e+00	0	43	0	1595932672	8	3871
2026-01-19 10:56:59.52	61.80	30.28	-23.8	-24.5	19.5	0.00e+00	0	43	0	1602224128	8	3923
2026-01-19 10:57:00.53	61.46	30.32	-23.8	-24.5	19.5	0.00e+00	0	44	0	1607467008	8	3921
2026-01-19 10:57:01.53	61.12	30.35	-23.9	-24.8	19.4	0.00e+00	0	44	0	1612709888	8	3984
2026-01-19 10:57:02.54	60.77	30.39	-23.8	-24.6	19.5	0.00e+00	0	44	0	1619001344	8	3940
2026-01-19 10:57:03.54	60.43	30.42	-23.6	-24.0	19.8	0.00e+00	0	44	0	1624244224	8	3802
2026-01-19 10:57:04.53	60.09	30.46	-23.4	-23.7	19.9	0.00e+00	0	44	0	1629487104	8	3737
2026-01-19 10:57:05.54	59.74	30.49	-23.5	-23.9	19.9	0.00e+00	0	44	0	1635778560	8	3763
2026-01-19 10:57:06.54	59.40	30.52	-23.5	-23.8	19.9	0.00e+00	0	44	0	1641021440	8	3756
2026-01-19 10:57:07.55	59.05	30.55	-23.5	-23.9	19.8	0.00e+00	0	44	0	1646264320	8	3782
2026-01-19 10:57:08.56	58.70	30.58	-23.5	-23.9	19.8	0.00e+00	0	44	0	1652555776	8	3782
2026-01-19 10:57:09.56	58.35	30.60	-23.5	-23.9	19.9	0.00e+00	0	44	0	1657798656	8	3768
2026-01-19 10:57:10.56	58.01	30.63	-23.5	-24.0	19.8	0.00e+00	0	44	0	1664090112	8	3785
2026-01-19 10:57:11.57	57.66	30.66	-23.4	-23.8	19.9	0.00e+00	0	44	0	1669332992	8	3741
2026-01-19 10:57:12.57	57.31	30.68	-23.3	-23.9	20.1	0.00e+00	0	44	0	1675624448	7	3872
2026-01-19 10:57:13.57	56.96	30.70	-23.2	-23.8	20.1	0.00e+00	0	44	0	1680867328	7	3861
2026-01-19 10:57:14.58	56.61	30.72	-23.4	-24.2	19.9	0.00e+00	0	44	0	1686110208	7	3947
2026-01-19 10:57:15.58	56.26	30.74	-23.4	-24.3	19.9	0.00e+00	0	44	0	1692401664	7	3965
2026-01-19 10:57:16.58	55.91	30.76	-23.6	-24.5	19.8	0.00e+00	0	44	0	1697644544	7	4025
2026-01-19 10:57:17.58	55.56	30.78	-23.5	-24.4	19.8	0.00e+00	0	44	0	1702887424	7	4000
2026-01-19 10:57:18.59	55.21	30.80	-23.3	-24.1	20.0	0.00e+00	0	44	0	1709178880	7	3920
2026-01-19 10:57:19.59	54.86	30.81	-23.4	-24.2	19.9	0.00e+00	0	44	0	1714421760	7	3934
2026-01-19 10:57:20.60	54.50	30.83	-23.4	-24.3	19.9	0.00e+00	0	44	0	1720713216	7	3964
2026-01-19 10:57:21.60	54.15	30.84	-23.6	-24.7	19.7	0.00e+00	0	44	0	1725956096	7	4063
2026-01-19 10:57:22.61	53.80	30.85	-23.6	-24.6	19.7	0.00e+00	0	44	0	1731198976	7	4038
2026-01-19 10:57:23.62	53.44	30.86	-23.4	-24.2	19.9	0.00e+00	0	44	0	1737490432	7	3952
2026-01-19 10:57:24.63	53.09	30.87	-23.4	-24.2	19.9	0.00e+00	0	44	0	1742733312	7	3948
2026-01-19 10:57:25.63	52.73	30.88	-23.5	-24.3	19.9	0.00e+00	0	44	0	1749024768	7	3976
2026-01-19 10:57:26.63	52.38	30.88	-23.5	-24.4	19.8	0.00e+00	0	44	0	1754267648	7	4002
2026-01-19 10:57:27.63	52.03	30.89	-23.5	-24.5	19.8	0.00e+00	0	44	0	1759510528	7	4025
2026-01-19 10:57:28.64	51.67	30.89	-23.4	-24.2	19.9	0.00e+00	0	44	0	1765801984	7	3944
2026-01-19 10:57:29.64	51.32	30.90	-23.3	-23.9	20.1	0.00e+00	0	44	0	1771044864	7	3887
2026-01-19 10:57:30.65	50.96	30.90	-23.3	-24.0	20.0	0.00e+00	0	44	0	1776287744	7	3905
2026-01-19 10:57:31.65	50.61	30.90	-23.3	-24.0	20.0	0.00e+00	0	44	0	1782579200	7	3912
2026-01-19 10:57:32.65	50.26	30.90	-23.3	-23.9	20.1	0.00e+00	0	44	0	1787822080	7	3880
2026-01-19 10:57:33.66	49.90	30.90	-23.5	-24.3	19.9	0.00e+00	0	44	0	1794113536	7	3978
2026-01-19 10:57:34.66	49.55	30.89	-23.6	-24.6	19.8	0.00e+00	0	44	0	1799356416	7	4033
2026-01-19 10:57:35.66	49.20	30.89	-23.7	-24.8	19.6	0.00e+00	0	44	0	1805647872	7	4095
2026-01-19 10:57:36.66	48.85	30.89	-23.7	-24.8	19.7	0.00e+00	0	44	0	1810890752	7	4084
2026-01-19 10:57:37.67	48.49	30.88	-23.6	-24.6	19.7	0.00e+00	0	44	0	1816133632	7	4039
2026-01-19 10:57:38.67	48.14	30.87	-23.7	-24.8	19.6	0.00e+00	0	44	0	1822425088	7	4093
2026-01-19 10:57:39.67	47.79	30.86	-23.7	-24.9	19.6	0.00e+00	0	44	0	1827667968	7	4121
2026-01-19 10:57:40.68	47.43	30.85	-23.7	-24.9	19.6	0.00e+00	0	44	0	1832910848	7	4110
2026-01-19 10:57:41.69	47.08	30.84	-23.6	-24.7	19.7	0.00e+00	0	44	0	1839202304	7	4067
2026-01-19 10:57:42.69	46.72	30.83	-23.6	-24.6	19.7	0.00e+00	0	44	0	1844445184	7	4036
2026-01-19 10:57:43.69	46.37	30.81	-23.5	-24.5	19.8	0.00e+00	0	44	0	1849688064	7	4008
2026-01-19 10:57:44.69	46.02	30.80	-23.5	-24.4	19.8	0.00e+00	0	44	0	1855979520	7	3993
2026-01-19 10:57:45.69	45.67	30.78	-23.6	-24.7	19.7	0.00e+00	0	44	0	1861222400	7	4076
2026-01-19 10:57:46.69	45.32	30.76	-23.6	-24.6	19.7	0.00e+00	0	44	0	1867513856	7	4050
2026-01-19 10:57:47.70	44.97	30.74	-23.5	-24.3	19.9	0.00e+00	0	43	0	1872756736	7	3974
2026-01-19 10:57:48.70	44.62	30.72	-23.5	-24.5	19.8	0.00e+00	0	44	0	1877999616	7	4018
2026-01-19 10:57:49.70	44.27	30.70	-23.5	-24.5	19.8	0.00e+00	0	44	0	1884291072	7	4022
2026-01-19 10:57:50.70	43.93	30.68	-23.6	-24.5	19.7	0.00e+00	0	43	0	1889533952	7	4029
2026-01-19 10:57:51.71	43.57	30.66	-23.7	-24.8	19.6	0.00e+00	0	44	0	1895825408	7	4094
2026-01-19 10:57:52.71	43.23	30.63	-23.8	-25.0	19.5	0.00e+00	0	44	0	1901068288	7	4154
2026-01-19 10:57:53.71	42.88	30.61	-23.8	-25.1	19.5	0.00e+00	0	44	0	1906311168	7	4164
2026-01-19 10:57:54.71	42.54	30.58	-23.7	-24.8	19.6	0.00e+00	0	44	0	1912602624	7	4102
2026-01-19 10:57:55.71	42.19	30.55	-23.6	-24.7	19.7	0.00e+00	0	44	0	1917845504	7	4069
2026-01-19 10:57:56.71	41.85	30.52	-23.6	-24.5	19.7	0.00e+00	0	44	0	1923088384	7	4029
2026-01-19 10:57:57.71	41.50	30.49	-23.6	-24.6	19.7	0.00e+00	0	44	0	1929379840	7	4040
2026-01-19 10:57:58.71	41.16	30.46	-23.3	-24.1	20.0	0.00e+00	0	44	0	1934622720	7	3926
2026-01-19 10:57:59.71	40.82	30.43	-23.2	-23.7	20.2	0.00e+00	0	44	0	1940914176	7	3837
2026-01-19 10:58:00.72	40.47	30.39	-23.1	-23.6	20.2	0.00e+00	0	44	0	1946157056	7	3818
2026-01-19 10:58:01.72	40.13	30.36	-23.3	-24.0	20.0	0.00e+00	0	44	0	1951399936	7	3893
2026-01-19 10:58:02.72	39.79	30.32	-23.3	-24.0	20.0	0.00e+00	0	43	0	1957691392	7	3901
2026-01-19 10:58:03.73	39.45	30.29	-23.4	-24.2	19.9	0.00e+00	0	44	0	1962934272	7	3937
2026-01-19 10:58:04.72	39.11	30.25	-23.4	-24.2	19.9	0.00e+00	0	44	0	1968177152	7	3943
2026-01-19 10:58:05.73	38.77	30.21	-23.5	-24.5	19.8	0.00e+00	0	44	0	1974468608	7	4019
2026-01-19 10:58:06.74	38.43	30.17	-23.6	-24.6	19.7	0.00e+00	0	44	0	1979711488	7	4036
2026-01-19 10:58:07.74	38.09	30.13	-23.7	-24.8	19.6	0.00e+00	0	44	0	1984954368	7	4083
2026-01-19 10:58:08.74	37.76	30.08	-23.8	-25.0	19.5	0.00e+00	0	44	0	1991245824	7	4132
2026-01-19 10:58:09.74	37.42	30.04	-23.9	-25.2	19.4	0.00e+00	0	44	0	1996488704	7	4188
2026-01-19 10:58:10.75	37.09	30.00	-24.1	-25.3	19.2	0.00e+00	0	44	0	2002780160	8	4094
2026-01-19 10:58:11.75	36.75	29.95	-23.9	-24.8	19.4	0.00e+00	0	44	0	2008023040	8	3975
2026-01-19 10:58:12.75	36.42	29.90	-23.7	-24.3	19.6	0.00e+00	0	44	0	2013265920	8	3858
2026-01-19 10:58:13.76	36.09	29.86	-23.6	-24.2	19.7	0.00e+00	0	44	0	2019557376	8	3830
2026-01-19 10:58:14.76	35.76	29.81	-23.8	-24.4	19.6	0.00e+00	0	44	0	2024800256	8	3897
2026-01-19 10:58:15.76	35.43	29.76	-23.6	-24.1	19.7	0.00e+00	0	44	0	2031091712	8	3827
2026-01-19 10:58:16.77	35.10	29.71	-23.6	-24.2	19.7	0.00e+00	0	44	0	2036334592	8	3833
2026-01-19 10:58:17.78	34.77	29.65	-23.5	-23.9	19.8	0.00e+00	0	44	0	2041577472	8	3765
2026-01-19 10:58:18.78	34.44	29.60	-23.4	-23.6	19.9	0.00e+00	0	44	0	2047868928	8	3715
2026-01-19 10:58:19.78	34.12	29.55	-23.4	-23.8	19.9	0.00e+00	0	44	0	2053111808	8	3743
2026-01-19 10:58:20.78	33.80	29.49	-23.5	-23.9	19.8	0.00e+00	0	44	0	2058354688	8	3780
2026-01-19 10:58:21.79	33.47	29.44	-23.7	-24.3	19.6	0.00e+00	0	44	0	2064646144	8	3854
2026-01-19 10:58:22.79	33.15	29.38	-23.8	-24.6	19.5	0.00e+00	0	44	0	2069889024	8	3932
2026-01-19 10:58:23.79	32.83	29.33	-23.7	-24.3	19.6	0.00e+00	0	44	0	2076180480	8	3874
2026-01-19 10:58:24.79	32.51	29.27	-23.7	-24.2	19.7	0.00e+00	0	44	0	2081423360	8	3847
2026-01-19 10:58:25.80	32.19	29.21	-23.7	-24.4	19.6	0.00e+00	0	44	0	2086666240	8	3874
2026-01-19 10:58:26.80	31.87	29.15	-23.8	-24.6	19.5	0.00e+00	0	44	0	2092957696	8	3939
2026-01-19 10:58:27.80	31.56	29.09	-24.0	-24.9	19.3	0.00e+00	0	44	0	2098200576	8	4005
2026-01-19 10:58:28.81	31.24	29.03	-23.9	-24.8	19.4	0.00e+00	0	44	0	2104492032	8	3990
2026-01-19 10:58:29.81	30.93	28.97	-23.8	-24.6	19.5	0.00e+00	0	44	0	2109734912	8	3930
2026-01-19 10:58:30.82	30.61	28.90	-23.9	-24.7	19.4	0.00e+00	0	44	0	2114977792	8	3959
2026-01-19 10:58:31.82	30.30	28.84	-23.7	-24.4	19.6	0.00e+00	0	44	0	2121269248	8	3881
2026-01-19 10:58:32.82	29.99	28.77	-23.6	-24.1	19.7	0.00e+00	0	44	0	2126512128	8	3815
2026-01-19 10:58:33.83	29.68	28.71	-23.6	-24.1	19.7	0.00e+00	0	44	0	2131755008	8	3820
2026-01-19 10:58:34.83	29.38	28.64	-23.5	-23.9	19.8	0.00e+00	0	44	0	2138046464	8	3764
2026-01-19 10:58:35.83	29.07	28.58	-23.7	-24.4	19.6	0.00e+00	0	44	0	2143289344	8	3877
2026-01-19 10:58:36.84	28.77	28.51	-23.6	-24.1	19.7	0.00e+00	0	44	0	2149580800	8	3818
2026-01-19 10:58:37.84	28.46	28.44	-23.5	-24.0	19.7	0.00e+00	0	44	0	2154823680	8	3798
2026-01-19 10:58:38.83	28.16	28.37	-23.6	-24.2	19.7	0.00e+00	0	44	0	2160066560	8	3836
2026-01-19 10:58:39.83	27.86	28.30	-23.5	-24.0	19.8	0.00e+00	0	44	0	2166358016	8	3789
2026-01-19 10:58:40.84	27.56	28.23	-23.5	-24.0	19.8	0.00e+00	0	44	0	2171600896	8	3786
2026-01-19 10:58:41.84	27.27	28.16	-23.5	-23.8	19.8	0.00e+00	0	44	0	2176843776	8	3759
2026-01-19 10:58:42.85	26.97	28.09	-23.4	-23.7	19.9	0.00e+00	0	44	0	2183135232	8	3734
2026-01-19 10:58:43.85	26.67	28.01	-23.5	-23.9	19.8	0.00e+00	0	44	0	2188378112	8	3766
2026-01-19 10:58:44.85	26.38	27.94	-23.5	-23.8	19.8	0.00e+00	0	44	0	2193620992	8	3751
2026-01-19 10:58:45.86	26.08	27.87	-23.5	-24.0	19.8	0.00e+00	0	44	0	2199912448	8	3787
2026-01-19 10:58:46.86	25.79	27.79	-23.7	-24.3	19.6	0.00e+00	0	44	0	2205155328	8	3878
2026-01-19 10:58:47.87	25.50	27.72	-23.7	-24.4	19.6	0.00e+00	0	44	0	2211446784	8	3883
2026-01-19 10:58:48.87	25.21	27.64	-23.7	-24.4	19.6	0.00e+00	0	44	0	2216689664	8	3877
2026-01-19 10:58:49.87	24.93	27.57	-23.8	-24.6	19.4	0.00e+00	0	44	0	2222981120	8	3930
2026-01-19 10:58:50.88	24.64	27.49	-23.6	-24.2	19.6	0.00e+00	0	44	0	2228224000	8	3836
2026-01-19 10:58:51.88	24.35	27.41	-23.6	-24.0	19.7	0.00e+00	0	44	0	2233466880	8	3799
2026-01-19 10:58:52.88	24.07	27.33	-23.6	-24.1	19.7	0.00e+00	0	44	0	2239758336	8	3813
2026-01-19 10:58:53.89	23.79	27.25	-23.7	-24.2	19.6	0.00e+00	0	44	0	2245001216	8	3851
2026-01-19 10:58:54.89	23.51	27.18	-23.7	-24.3	19.6	0.00e+00	0	43	0	2250244096	8	3861
2026-01-19 10:58:55.89	23.23	27.10	-23.8	-24.6	19.5	0.00e+00	0	44	0	2256535552	8	3925
2026-01-19 10:58:56.90	22.95	27.02	-23.7	-24.4	19.5	0.00e+00	0	44	0	2261778432	8	3891
2026-01-19 10:58:57.91	22.67	26.93	-23.7	-24.3	19.5	0.00e+00	0	44	0	2268069888	8	3866
2026-01-19 10:58:58.90	22.40	26.85	-23.8	-24.5	19.4	0.00e+00	0	44	0	2273312768	8	3904
2026-01-19 10:58:59.90	22.13	26.77	-23.8	-24.4	19.5	0.00e+00	0	44	0	2278555648	8	3894
2026-01-19 10:59:00.90	21.86	26.69	-23.8	-24.5	19.4	0.00e+00	0	44	0	2284847104	8	3916
2026-01-19 10:59:01.91	21.59	26.61	-23.9	-24.8	19.3	0.00e+00	0	44	0	2290089984	8	3986
2026-01-19 10:59:02.91	21.32	26.53	-23.9	-24.8	19.3	0.00e+00	0	44	0	2296381440	8	3982
2026-01-19 10:59:03.92	21.05	26.44	-23.8	-24.6	19.4	0.00e+00	0	44	0	2301624320	8	3942
2026-01-19 10:59:04.92	20.78	26.36	-24.0	-24.9	19.2	0.00e+00	0	44	0	2306867200	8	3995
2026-01-19 10:59:05.92	20.52	26.27	-23.9	-24.7	19.4	0.00e+00	0	44	0	2313158656	8	3951
2026-01-19 10:59:06.93	20.26	26.19	-23.9	-24.8	19.3	0.00e+00	0	44	0	2318401536	8	3984
2026-01-19 10:59:07.93	19.99	26.10	-24.2	-25.3	19.0	0.00e+00	0	44	0	2323644416	8	4100
2026-01-19 10:59:08.93	19.73	26.02	-24.1	-25.2	19.0	0.00e+00	0	44	0	2329935872	8	4088
2026-01-19 10:59:09.93	19.48	25.93	-24.3	-25.5	18.9	0.00e+00	0	44	0	2335178752	8	4147
2026-01-19 10:59:10.94	19.22	25.85	-24.2	-25.3	18.9	0.00e+00	0	44	0	2340421632	8	4116
2026-01-19 10:59:11.94	18.96	25.76	-24.2	-25.3	19.0	0.00e+00	0	44	0	2346713088	8	4103
2026-01-19 10:59:12.95	18.71	25.67	-24.2	-25.4	18.9	0.00e+00	0	44	0	2351955968	8	4125
2026-01-19 10:59:13.94	18.46	25.59	-24.2	-25.5	18.9	0.00e+00	0	44	0	2358247424	8	4145
2026-01-19 10:59:14.95	18.20	25.50	-24.5	-25.6	18.6	0.00e+00	0	44	0	2363490304	9	4068
2026-01-19 10:59:15.96	17.95	25.41	-24.2	-24.9	18.9	0.00e+00	0	44	0	2369781760	9	3906
2026-01-19 10:59:16.96	17.70	25.32	-24.0	-24.4	19.2	0.00e+00	0	44	0	2375024640	9	3772
2026-01-19 10:59:17.96	17.45	25.23	-23.8	-24.0	19.4	0.00e+00	0	44	0	2380267520	9	3693
2026-01-19 10:59:18.97	17.21	25.14	-23.8	-24.1	19.3	0.00e+00	0	44	0	2386558976	9	3714
2026-01-19 10:59:19.96	16.96	25.06	-23.8	-24.1	19.3	0.00e+00	0	44	0	2391801856	9	3716
2026-01-19 10:59:20.97	16.72	24.97	-23.9	-24.2	19.3	0.00e+00	0	44	0	2397044736	9	3743
2026-01-19 10:59:21.96	16.48	24.88	-23.9	-24.3	19.2	0.00e+00	0	44	0	2403336192	9	3761
2026-01-19 10:59:22.96	16.24	24.79	-23.9	-24.2	19.2	0.00e+00	0	44	0	2408579072	9	3748
2026-01-19 10:59:23.96	16.00	24.70	-24.0	-24.4	19.2	0.00e+00	0	44	0	2413821952	9	3779
2026-01-19 10:59:24.96	15.76	24.61	-24.1	-24.7	19.0	0.00e+00	0	44	0	2420113408	9	3838
2026-01-19 10:59:25.97	15.53	24.52	-23.9	-24.2	19.3	0.00e+00	0	44	0	2425356288	9	3728
2026-01-19 10:59:26.97	15.29	24.43	-23.8	-24.1	19.3	0.00e+00	0	44	0	2431647744	9	3720
2026-01-19 10:59:27.97	15.06	24.34	-24.0	-24.4	19.1	0.00e+00	0	44	0	2436890624	9	3794
2026-01-19 10:59:28.98	14.82	24.24	-24.1	-24.6	19.0	0.00e+00	0	44	0	2442133504	9	3842
2026-01-19 10:59:29.98	14.59	24.15	-24.1	-24.7	19.0	0.00e+00	0	44	0	2448424960	9	3855
2026-01-19 10:59:30.99	14.36	24.06	-24.2	-24.9	18.9	0.00e+00	0	44	0	2453667840	9	3905
2026-01-19 10:59:32.00	14.13	23.97	-24.3	-25.1	18.8	0.00e+00	0	44	0	2458910720	9	3959
2026-01-19 10:59:33.00	13.91	23.88	-24.1	-24.7	18.9	0.00e+00	0	44	0	2465202176	9	3862
2026-01-19 10:59:34.00	13.68	23.79	-24.0	-24.5	19.1	0.00e+00	0	44	0	2470445056	9	3814
2026-01-19 10:59:35.01	13.46	23.69	-24.1	-24.7	19.0	0.00e+00	0	44	0	2476736512	9	3852
2026-01-19 10:59:36.01	13.23	23.60	-24.1	-24.6	19.0	0.00e+00	0	44	0	2481979392	9	3843
2026-01-19 10:59:37.02	13.01	23.51	-24.1	-24.8	18.9	0.00e+00	0	44	0	2487222272	9	3877
2026-01-19 10:59:38.02	12.79	23.42	-24.3	-25.1	18.8	0.00e+00	0	44	0	2493513728	9	3942
2026-01-19 10:59:39.02	12.57	23.32	-24.0	-24.5	19.0	0.00e+00	0	44	0	2498756608	9	3811
2026-01-19 10:59:40.03	12.35	23.23	-24.0	-24.5	19.0	0.00e+00	0	44	0	2505048064	9	3804
2026-01-19 10:59:41.03	12.14	23.14	-24.2	-24.9	18.8	0.00e+00	0	44	0	2510290944	9	3898
2026-01-19 10:59:42.03	11.92	23.04	-24.2	-24.8	18.9	0.00e+00	0	44	0	2515533824	9	3884
2026-01-19 10:59:43.03	11.71	22.95	-24.2	-24.9	18.8	0.00e+00	0	44	0	2521825280	9	3913
2026-01-19 10:59:44.04	11.50	22.86	-24.2	-24.8	18.9	0.00e+00	0	44	0	2527068160	9	3882
2026-01-19 10:59:45.03	11.29	22.77	-24.2	-24.8	18.8	0.00e+00	0	44	0	2532311040	9	3886
2026-01-19 10:59:46.02	11.08	22.67	-24.1	-24.7	18.9	0.00e+00	0	44	0	2538602496	9	3855
2026-01-19 10:59:47.02	10.87	22.58	-24.2	-24.9	18.8	0.00e+00	0	44	0	2543845376	9	3903
2026-01-19 10:59:48.02	10.66	22.49	-24.4	-25.4	18.6	0.00e+00	0	44	0	2549088256	9	4023
2026-01-19 10:59:49.03	10.46	22.39	-24.6	-25.8	18.3	0.00e+00	0	44	0	2555379712	9	4128
2026-01-19 10:59:50.03	10.25	22.30	-24.5	-25.6	18.4	0.00e+00	0	44	0	2560622592	9	4074
2026-01-19 10:59:51.03	10.05	22.21	-24.6	-25.7	18.4	0.00e+00	0	44	0	2566914048	9	4104
2026-01-19 10:59:52.03	9.85	22.11	-24.5	-25.6	18.4	0.00e+00	0	44	0	2572156928	9	4061
2026-01-19 10:59:53.04	9.65	22.02	-24.7	-25.8	18.3	0.00e+00	0	44	0	2577399808	9	4132
2026-01-19 10:59:54.04	9.45	21.92	-24.6	-25.6	18.4	0.00e+00	0	44	0	2583691264	9	4081
2026-01-19 10:59:55.05	9.25	21.83	-24.7	-25.9	18.3	0.00e+00	0	44	0	2588934144	9	4144
2026-01-19 10:59:56.04	9.05	21.74	-25.0	-26.6	17.9	0.00e+00	0	44	0	2594177024	9	4314
2026-01-19 10:59:57.05	8.85	21.64	-24.7	-25.9	18.3	0.00e+00	0	44	0	2600468480	9	4134
2026-01-19 10:59:58.05	8.66	21.55	-24.4	-25.4	18.5	0.00e+00	0	44	0	2605711360	9	4009
2026-01-19 10:59:59.06	8.46	21.45	-24.3	-25.1	18.7	0.00e+00	0	44	0	2612002816	9	3939
2026-01-19 11:00:00.06	8.27	21.36	-24.3	-25.1	18.7	0.00e+00	0	44	0	2617245696	9	3946
2026-01-19 11:00:01.06	8.08	21.27	-24.4	-25.4	18.5	0.00e+00	0	44	0	2622488576	9	4011
2026-01-19 11:00:02.06	7.89	21.17	-24.3	-25.1	18.6	0.00e+00	0	44	0	2628780032	9	3952
2026-01-19 11:00:03.07	7.70	21.08	-24.2	-25.0	18.7	0.00e+00	0	44	0	2634022912	9	3923
2026-01-19 11:00:04.07	7.51	20.99	-24.3	-25.2	18.6	0.00e+00	0	44	0	2640314368	9	3972
2026-01-19 11:00:05.08	7.32	20.89	-24.2	-24.9	18.8	0.00e+00	0	44	0	2645557248	9	3905
2026-01-19 11:00:06.08	7.14	20.80	-24.2	-25.0	18.7	0.00e+00	0	44	0	2650800128	9	3924
2026-01-19 11:00:07.08	6.96	20.70	-24.3	-25.2	18.6	0.00e+00	0	44	0	2657091584	9	3979
2026-01-19 11:00:08.08	6.77	20.61	-24.3	-25.1	18.6	0.00e+00	0	44	0	2662334464	9	3961
2026-01-19 11:00:09.09	6.59	20.52	-24.4	-25.3	18.6	0.00e+00	0	44	0	2667577344	9	3989
2026-01-19 11:00:10.10	6.41	20.42	-24.5	-25.6	18.4	0.00e+00	0	44	0	2673868800	9	4075
2026-01-19 11:00:11.09	6.23	20.33	-24.6	-25.7	18.3	0.00e+00	0	44	0	2679111680	9	4093
2026-01-19 11:00:12.10	6.05	20.24	-24.7	-25.9	18.2	0.00e+00	0	44	0	2684354560	9	4155
2026-01-19 11:00:13.10	5.87	20.14	-24.6	-25.8	18.3	0.00e+00	0	44	0	2690646016	9	4118
2026-01-19 11:00:14.11	5.69	20.05	-24.6	-25.7	18.3	0.00e+00	0	44	0	2695888896	9	4095
2026-01-19 11:00:15.12	5.52	19.95	-24.6	-25.8	18.2	0.00e+00	0	44	0	2702180352	9	4136
2026-01-19 11:00:16.12	5.34	19.86	-24.6	-25.8	18.2	0.00e+00	0	44	0	2707423232	9	4126
2026-01-19 11:00:17.12	5.17	19.77	-24.7	-25.9	18.1	0.00e+00	0	44	0	2713714688	9	4157
2026-01-19 11:00:18.13	5.00	19.68	-24.7	-25.9	18.2	0.00e+00	0	44	0	2718957568	9	4148
2026-01-19 11:00:19.13	4.83	19.58	-24.6	-25.7	18.2	0.00e+00	0	44	0	2724200448	9	4093
2026-01-19 11:00:20.13	4.66	19.49	-24.7	-26.0	18.1	0.00e+00	0	44	0	2730491904	9	4173
2026-01-19 11:00:21.13	4.49	19.40	-24.7	-26.0	18.1	0.00e+00	0	44	0	2735734784	9	4178
2026-01-19 11:00:22.13	4.32	19.30	-24.7	-26.0	18.1	0.00e+00	0	44	0	2740977664	9	4176
2026-01-19 11:00:23.13	4.15	19.21	-24.9	-26.3	17.9	0.00e+00	0	44	0	2747269120	9	4246
2026-01-19 11:00:24.14	3.99	19.12	-24.9	-26.4	17.9	0.00e+00	0	44	0	2752512000	9	4272
2026-01-19 11:00:25.14	3.82	19.03	-25.0	-26.1	17.9	0.00e+00	0	44	0	2757754880	10	4087
2026-01-19 11:00:26.14	3.66	18.93	-24.9	-25.8	18.0	0.00e+00	0	44	0	2764046336	10	4015
2026-01-19 11:00:27.15	3.49	18.84	-24.9	-25.9	17.9	0.00e+00	0	44	0	2769289216	10	4039
2026-01-19 11:00:28.15	3.33	18.75	-24.9	-25.9	18.0	0.00e+00	0	44	0	2775580672	10	4026
2026-01-19 11:00:29.16	3.17	18.66	-25.0	-26.1	17.8	0.00e+00	0	44	0	2780823552	10	4096
2026-01-19 11:00:30.16	3.01	18.56	-25.4	-26.9	17.4	0.00e+00	0	44	0	2787115008	10	4294
2026-01-19 11:00:31.15	2.85	18.47	-25.3	-26.8	17.4	0.00e+00	0	44	0	2792357888	10	4275
2026-01-19 11:00:32.16	2.70	18.38	-25.4	-27.0	17.3	0.00e+00	0	44	0	2797600768	10	4331
2026-01-19 11:00:33.16	2.54	18.29	-25.5	-26.7	17.2	0.00e+00	0	44	0	2803892224	11	4139
2026-01-19 11:00:34.17	2.38	18.20	-25.4	-26.4	17.4	0.00e+00	0	44	0	2809135104	11	4060
2026-01-19 11:00:35.17	2.23	18.11	-25.4	-26.6	17.3	0.00e+00	0	44	0	2814377984	11	4093
2026-01-19 11:00:36.17	2.07	18.02	-25.6	-27.0	17.1	0.00e+00	0	44	0	2820669440	11	4200
2026-01-19 11:00:37.17	1.92	17.93	-25.5	-26.7	17.2	0.00e+00	0	44	0	2825912320	11	4128
2026-01-19 11:00:38.17	1.77	17.83	-25.8	-27.4	16.9	0.00e+00	0	44	0	2832203776	11	4296
2026-01-19 11:00:39.17	1.62	17.74	-25.4	-26.5	17.3	0.00e+00	0	44	0	2837446656	11	4063
2026-01-19 11:00:40.18	1.47	17.65	-25.2	-26.1	17.5	0.00e+00	0	44	0	2842689536	11	3970
2026-01-19 11:00:41.18	1.32	17.56	-25.3	-26.2	17.5	0.00e+00	0	44	0	2848980992	11	4005
2026-01-19 11:00:42.19	1.17	17.47	-25.3	-26.3	17.4	0.00e+00	0	44	0	2854223872	11	4020
2026-01-19 11:00:43.19	1.02	17.38	-25.4	-26.5	17.3	0.00e+00	0	44	0	2859466752	11	4068
2026-01-19 11:00:44.20	0.87	17.29	-25.6	-26.8	17.1	0.00e+00	0	44	0	2865758208	11	4162
2026-01-19 11:00:45.20	0.73	17.20	-25.5	-26.6	17.3	0.00e+00	0	44	0	2871001088	11	4110
2026-01-19 11:00:46.21	0.58	17.11	-25.6	-27.0	17.0	0.00e+00	0	44	0	2877292544	11	4206
2026-01-19 11:00:47.21	0.44	17.02	-25.4	-26.5	17.3	0.00e+00	0	44	0	2882535424	11	4078
2026-01-19 11:00:48.21	0.29	16.93	-25.4	-26.6	17.3	0.00e+00	0	44	0	2887778304	11	4091
2026-01-19 11:00:49.22	0.15	16.84	-25.5	-26.8	17.2	0.00e+00	0	44	0	2894069760	11	4142
2026-01-19 11:00:50.22	0.01	16.75	-25.6	-26.8	17.1	0.00e+00	0	44	0	2899312640	11	4150
2026-01-19 11:00:51.22	359.87	16.66	-25.6	-26.8	17.1	0.00e+00	0	44	0	2905604096	11	4148
2026-01-19 11:00:52.22	359.73	16.57	-25.8	-27.3	16.9	0.00e+00	0	44	0	2910846976	11	4281
2026-01-19 11:00:53.22	359.59	16.48	-25.8	-27.2	16.9	0.00e+00	0	44	0	2916089856	11	4271
2026-01-19 11:00:54.22	359.45	16.40	-25.8	-27.4	16.8	0.00e+00	0	44	0	2922381312	11	4303
2026-01-19 11:00:55.23	359.32	16.31	-25.9	-27.5	16.7	0.00e+00	0	44	0	2927624192	11	4337
2026-01-19 11:00:56.23	359.18	16.22	-25.7	-27.2	16.9	0.00e+00	0	44	0	2932867072	11	4262
2026-01-19 11:00:57.23	359.05	16.13	-25.9	-27.5	16.7	0.00e+00	0	44	0	2939158528	11	4342
2026-01-19 11:00:58.24	358.91	16.04	-25.9	-27.5	16.7	0.00e+00	0	44	0	2944401408	11	4326
2026-01-19 11:00:59.24	358.78	15.95	-25.8	-27.2	16.8	0.00e+00	0	44	0	2949644288	11	4265
2026-01-19 11:01:00.25	358.64	15.86	-25.7	-27.2	16.9	0.00e+00	0	44	0	2955935744	11	4263
2026-01-19 11:01:01.26	358.51	15.78	-25.8	-27.3	16.8	0.00e+00	0	44	0	2961178624	11	4289
2026-01-19 11:01:02.26	358.38	15.69	-25.9	-27.7	16.6	0.00e+00	0	44	0	2967470080	11	4385
2026-01-19 11:01:03.26	358.25	15.60	-25.9	-27.5	16.7	0.00e+00	0	44	0	2972712960	11	4344
2026-01-19 11:01:04.27	358.12	15.51	-25.9	-27.1	16.5	0.00e+00	0	44	0	2979004416	12	4142
2026-01-19 11:01:05.27	357.99	15.43	-26.2	-27.7	16.2	0.00e+00	0	44	0	2984247296	12	4290
2026-01-19 11:01:06.27	357.86	15.34	-26.4	-28.2	15.9	0.00e+00	0	44	0	2989490176	12	4425
2026-01-19 11:01:07.27	357.73	15.25	-26.1	-27.6	16.3	0.00e+00	0	44	0	2995781632	12	4251
2026-01-19 11:01:08.27	357.61	15.17	-26.1	-27.5	16.3	0.00e+00	0	44	0	3001024512	12	4233
2026-01-19 11:01:09.28	357.48	15.08	-26.0	-27.3	16.4	0.00e+00	0	44	0	3006267392	12	4176
2026-01-19 11:01:10.28	357.35	14.99	-26.0	-27.4	16.4	0.00e+00	0	44	0	3012558848	12	4194
2026-01-19 11:01:11.29	357.23	14.91	-26.1	-27.4	16.4	0.00e+00	0	44	0	3017801728	12	4210
2026-01-19 11:01:12.29	357.10	14.82	-26.2	-27.8	16.1	0.00e+00	0	44	0	3023044608	12	4309
2026-01-19 11:01:13.29	356.98	14.74	-26.0	-27.3	16.4	0.00e+00	0	44	0	3029336064	12	4166
2026-01-19 11:01:14.30	356.86	14.65	-26.0	-27.2	16.5	0.00e+00	0	44	0	3034578944	12	4152
2026-01-19 11:01:15.30	356.74	14.57	-25.9	-27.2	16.5	0.00e+00	0	44	0	3040870400	12	4139
2026-01-19 11:01:16.30	356.62	14.48	-26.1	-27.4	16.3	0.00e+00	0	44	0	3046113280	12	4209
2026-01-19 11:01:17.30	356.50	14.40	-26.2	-27.6	16.2	0.00e+00	0	44	0	3051356160	12	4260
2026-01-19 11:01:18.31	356.38	14.31	-26.2	-27.7	16.2	0.00e+00	0	44	0	3057647616	12	4294
2026-01-19 11:01:19.31	356.26	14.23	-26.2	-27.8	16.1	0.00e+00	0	44	0	3062890496	12	4308
2026-01-19 11:01:20.32	356.14	14.14	-26.3	-27.9	16.1	0.00e+00	0	44	0	3069181952	12	4331
2026-01-19 11:01:21.32	356.02	14.06	-26.3	-28.0	16.0	0.00e+00	0	44	0	3074424832	12	4372
2026-01-19 11:01:22.32	355.90	13.97	-26.3	-27.9	16.1	0.00e+00	0	44	0	3079667712	12	4341
2026-01-19 11:01:23.32	355.79	13.89	-26.3	-28.0	16.0	0.00e+00	0	44	0	3085959168	12	4356
2026-01-19 11:01:24.32	355.67	13.80	-26.2	-27.7	16.2	0.00e+00	0	44	0	3091202048	12	4288
2026-01-19 11:01:25.32	355.56	13.72	-26.3	-28.0	16.0	0.00e+00	0	44	0	3096444928	12	4355
2026-01-19 11:01:26.32	355.44	13.64	-26.3	-28.0	16.0	0.00e+00	0	44	0	3102736384	12	4359
2026-01-19 11:01:27.32	355.33	13.55	-26.4	-28.1	15.9	0.00e+00	0	44	0	3107979264	12	4391
2026-01-19 11:01:28.32	355.22	13.47	-26.2	-27.7	16.1	0.00e+00	0	44	0	3114270720	12	4299
2026-01-19 11:01:29.32	355.11	13.39	-26.4	-28.2	15.8	0.00e+00	0	44	0	3119513600	12	4428
2026-01-19 11:01:30.32	355.00	13.31	-26.5	-27.9	15.7	0.00e+00	0	44	0	3124756480	13	4242
2026-01-19 11:01:31.31	354.89	13.22	-26.5	-27.9	15.8	0.00e+00	0	44	0	3131047936	13	4219
2026-01-19 11:01:32.32	354.78	13.14	-26.5	-27.9	15.8	0.00e+00	0	44	0	3136290816	13	4233
2026-01-19 11:01:33.32	354.67	13.06	-26.4	-27.8	15.8	0.00e+00	0	44	0	3141533696	13	4204
2026-01-19 11:01:34.33	354.56	12.98	-26.5	-28.0	15.7	0.00e+00	0	44	0	3147825152	13	4252
2026-01-19 11:01:35.33	354.45	12.89	-26.4	-27.7	15.8	0.00e+00	0	44	0	3153068032	13	4194
2026-01-19 11:01:36.34	354.34	12.81	-26.5	-27.8	15.8	0.00e+00	0	44	0	3158310912	13	4202
2026-01-19 11:01:37.34	354.23	12.73	-26.4	-27.6	15.9	0.00e+00	0	44	0	3164602368	13	4158
2026-01-19 11:01:38.35	354.13	12.65	-26.4	-27.8	15.8	0.00e+00	0	44	0	3169845248	13	4196
2026-01-19 11:01:39.36	354.02	12.57	-26.6	-28.0	15.6	0.00e+00	0	44	0	3176136704	13	4264
2026-01-19 11:01:40.36	353.91	12.49	-26.7	-28.3	15.5	0.00e+00	0	44	0	3181379584	13	4332
2026-01-19 11:01:41.36	353.81	12.40	-26.6	-28.2	15.6	0.00e+00	0	44	0	3187671040	13	4307
2026-01-19 11:01:42.37	353.70	12.32	-26.7	-28.3	15.5	0.00e+00	0	44	0	3192913920	13	4338
2026-01-19 11:01:43.37	353.60	12.24	-26.5	-27.9	15.7	0.00e+00	0	44	0	3198156800	13	4222
2026-01-19 11:01:44.38	353.50	12.16	-26.5	-27.9	15.6	0.00e+00	0	44	0	3204448256	13	4244
2026-01-19 11:01:45.39	353.39	12.08	-26.5	-28.0	15.6	0.00e+00	0	44	0	3209691136	13	4249
2026-01-19 11:01:46.39	353.29	12.00	-26.5	-28.0	15.6	0.00e+00	0	44	0	3214934016	13	4262
2026-01-19 11:01:47.40	353.19	11.92	-26.6	-28.0	15.6	0.00e+00	0	44	0	3221225472	13	4268
2026-01-19 11:01:48.40	353.09	11.84	-26.7	-28.4	15.4	0.00e+00	0	44	0	3226468352	13	4372
2026-01-19 11:01:49.41	352.99	11.76	-26.5	-28.1	14.8	1.87e-03	0	44	0	3232759808	13	4357
2026-01-19 11:01:50.41	352.89	11.68	-26.4	-28.0	14.7	9.77e-03	0	44	0	3238002688	13	4325
2026-01-19 11:01:51.42	352.79	11.60	-26.4	-28.1	14.5	1.23e-02	0	44	0	3243245568	13	4385
2026-01-19 11:01:52.42	352.69	11.52	-26.5	-28.2	14.7	1.07e-02	0	44	0	3249537024	13	4364
2026-01-19 11:01:53.43	352.59	11.44	-26.6	-28.3	15.0	1.77e-03	0	44	0	3254779904	13	4391
2026-01-19 11:01:54.44	352.50	11.36	-26.6	-28.3	14.9	3.05e-03	0	44	0	3261071360	13	4376
2026-01-19 11:01:55.44	352.40	11.29	-26.6	-28.4	14.7	1.80e-03	0	44	0	3266314240	13	4439
2026-01-19 11:01:56.45	352.30	11.21	-26.7	-28.7	14.5	7.58e-03	0	44	0	3271557120	13	4517
2026-01-19 11:01:57.44	352.21	11.13	-26.9	-28.9	14.4	3.94e-03	0	44	0	3277848576	13	4566
2026-01-19 11:01:58.45	352.11	11.05	-26.8	-28.8	14.7	1.27e-03	0	44	0	3283091456	13	4524
2026-01-19 11:01:59.45	352.02	10.97	-26.9	-28.9	14.7	1.66e-04	0	44	0	3288334336	13	4527
2026-01-19 11:02:00.45	351.93	10.90	-26.8	-28.7	14.4	7.70e-03	0	44	0	3294625792	13	4493
2026-01-19 11:02:01.45	351.83	10.82	-26.9	-29.0	14.3	1.04e-02	0	44	0	3299868672	13	4573
2026-01-19 11:02:02.46	351.74	10.74	-27.0	-28.7	14.2	1.19e-02	0	44	0	3306160128	14	4376
2026-01-19 11:02:03.46	351.65	10.66	-27.0	-28.5	15.0	3.96e-04	0	44	0	3311403008	14	4293
2026-01-19 11:02:04.46	351.55	10.59	-27.1	-28.7	14.9	0.00e+00	0	44	0	3316645888	14	4336
2026-01-19 11:02:05.45	351.46	10.51	-27.1	-28.7	14.9	0.00e+00	0	44	0	3322937344	14	4341
2026-01-19 11:02:06.46	351.37	10.43	-27.1	-28.9	14.8	0.00e+00	0	44	0	3328180224	14	4391
2026-01-19 11:02:07.47	351.28	10.36	-27.1	-28.8	14.8	0.00e+00	0	44	0	3334471680	14	4384
2026-01-19 11:02:08.47	351.19	10.28	-27.2	-29.0	14.7	1.10e-06	0	44	0	3339714560	14	4428
2026-01-19 11:02:09.48	351.10	10.20	-27.2	-29.0	14.7	0.00e+00	0	44	0	3344957440	14	4418
2026-01-19 11:02:10.49	351.01	10.13	-27.0	-28.6	14.9	0.00e+00	0	44	0	3351248896	14	4331
2026-01-19 11:02:11.48	350.92	10.05	-26.9	-28.4	15.0	0.00e+00	0	44	0	3356491776	14	4256
2026-01-19 11:02:12.49	350.83	9.98	-27.0	-28.6	14.9	0.00e+00	0	44	0	3361734656	14	4330
2026-01-19 11:02:13.49	350.75	9.90	-27.1	-28.8	14.8	0.00e+00	0	44	0	3368026112	14	4383
2026-01-19 11:02:14.49	350.66	9.83	-27.1	-28.7	14.8	0.00e+00	0	44	0	3373268992	14	4354
2026-01-19 11:02:15.49	350.57	9.75	-27.0	-28.6	14.9	0.00e+00	0	44	0	3378511872	14	4309
2026-01-19 11:02:16.50	350.49	9.67	-27.1	-28.7	14.8	1.10e-06	0	44	0	3384803328	14	4345
2026-01-19 11:02:17.50	350.40	9.60	-27.1	-28.8	14.8	0.00e+00	0	44	0	3390046208	14	4375
2026-01-19 11:02:18.50	350.32	9.53	-27.2	-29.1	14.6	1.10e-06	0	44	0	3396337664	14	4448
2026-01-19 11:02:19.51	350.23	9.45	-27.1	-28.8	14.7	0.00e+00	0	44	0	3401580544	14	4386
2026-01-19 11:02:20.51	350.15	9.38	-27.3	-29.2	14.5	0.00e+00	0	44	0	3407872000	14	4493
2026-01-19 11:02:21.52	350.06	9.30	-27.2	-29.1	14.5	0.00e+00	0	44	0	3413114880	14	4461
2026-01-19 11:02:22.52	349.98	9.23	-27.2	-29.0	14.6	0.00e+00	0	44	0	3418357760	14	4440
2026-01-19 11:02:23.52	349.90	9.15	-27.2	-29.0	14.6	0.00e+00	0	44	0	3424649216	14	4432
2026-01-19 11:02:24.53	349.81	9.08	-27.2	-29.1	14.5	0.00e+00	0	44	0	3429892096	14	4465
2026-01-19 11:02:25.54	349.73	9.01	-27.3	-29.2	14.5	0.00e+00	0	44	0	3435134976	14	4482
2026-01-19 11:02:26.54	349.65	8.93	-27.3	-29.3	14.4	0.00e+00	0	44	0	3441426432	14	4529
2026-01-19 11:02:27.54	349.57	8.86	-27.3	-29.4	14.3	0.00e+00	0	44	0	3446669312	14	4552
2026-01-19 11:02:28.55	349.49	8.79	-27.4	-29.5	14.2	0.00e+00	0	44	0	3451912192	14	4596
2026-01-19 11:02:29.55	349.41	8.71	-27.6	-29.5	13.9	0.00e+00	0	44	0	3458203648	15	4480
2026-01-19 11:02:30.56	349.32	8.64	-27.6	-29.5	14.0	2.20e-06	0	44	0	3463446528	15	4463
2026-01-19 11:02:31.55	349.25	8.57	-27.3	-28.9	14.3	0.00e+00	0	44	0	3469737984	15	4293
2026-01-19 11:02:32.55	349.17	8.50	-27.6	-29.6	13.9	1.10e-06	0	44	0	3474980864	15	4488
2026-01-19 11:02:33.56	349.09	8.42	-27.6	-29.4	14.0	8.00e-06	0	44	0	3481272320	15	4441
2026-01-19 11:02:34.56	349.01	8.35	-27.5	-29.3	14.1	0.00e+00	0	44	0	3486515200	15	4408
2026-01-19 11:02:35.56	348.93	8.28	-27.6	-29.4	14.0	0.00e+00	0	44	0	3491758080	15	4432
2026-01-19 11:02:36.56	348.85	8.21	-27.7	-29.6	13.9	1.10e-06	0	44	0	3498049536	15	4499
2026-01-19 11:02:37.56	348.78	8.14	-27.6	-29.5	13.9	2.20e-06	0	44	0	3503292416	15	4470
2026-01-19 11:02:38.56	348.70	8.06	-27.6	-29.4	13.9	1.10e-06	0	44	0	3508535296	15	4450
2026-01-19 11:02:39.57	348.62	7.99	-27.6	-29.3	14.0	3.40e-06	0	44	0	3514826752	15	4423
2026-01-19 11:02:40.57	348.55	7.92	-27.5	-29.2	14.1	1.10e-06	0	44	0	3520069632	15	4370
2026-01-19 11:02:41.58	348.47	7.85	-27.5	-29.2	14.1	0.00e+00	0	44	0	3525312512	15	4372
2026-01-19 11:02:42.59	348.40	7.78	-27.7	-29.7	13.8	4.50e-06	0	44	0	3531603968	15	4514
2026-01-19 11:02:43.59	348.32	7.71	-27.5	-29.1	14.1	1.10e-06	0	44	0	3536846848	15	4366
2026-01-19 11:02:44.59	348.25	7.64	-27.5	-29.3	13.9	1.10e-06	0	44	0	3543138304	15	4408
2026-01-19 11:02:45.59	348.17	7.57	-27.7	-29.8	13.7	4.50e-06	0	44	0	3548381184	15	4557
2026-01-19 11:02:46.59	348.10	7.50	-27.8	-29.9	13.6	3.40e-06	0	44	0	3553624064	15	4601
2026-01-19 11:02:47.60	348.03	7.43	-27.9	-30.1	13.5	3.40e-06	0	44	0	3559915520	15	4644
2026-01-19 11:02:48.60	347.95	7.36	-27.9	-30.1	13.4	3.40e-06	0	44	0	3565158400	15	4654
2026-01-19 11:02:49.61	347.88	7.28	-27.7	-29.6	13.7	2.20e-06	0	44	0	3571449856	15	4514
2026-01-19 11:02:50.61	347.81	7.22	-27.8	-29.8	13.6	3.40e-06	0	44	0	3576692736	15	4582
2026-01-19 11:02:51.61	347.74	7.15	-27.9	-30.1	13.4	3.40e-06	0	44	0	3581935616	15	4652
2026-01-19 11:02:52.61	347.66	7.08	-33.3	-43.5	3.8	4.94e-01	0	44	104	3587178496	26	11615
2026-01-19 11:02:53.62	347.59	7.01	-33.7	-44.7	3.8	8.46e-01	0	44	104	3587178496	27	12816
2026-01-19 11:02:54.62	347.52	6.94	-34.0	-45.4	3.8	8.46e-01	0	44	104	3587178496	27	13446
2026-01-19 11:02:55.63	347.45	6.87	-34.1	-45.3	3.8	8.46e-01	0	44	104	3587178496	28	13011

#Closed at: 2026-01-19 11:02:56
#Recorded file [3587 MB]: D:/data/31010_260119_135214.dat