passes_logs/2026/01/19/R2M6_AANII_01/R2M6_AANII_01__20260119_125438_AQUA_rec.log

#Pass ID: 20260119_125438_AQUA
#Satellite: AQUA
#Configuration: AQUA
#almurnet v.1.7.20240730
#Start time: 2026-01-19 12:54:39

#Version: 2.2.20231116
#Station: R2M6_AANII_01
#Location: 30.233357 lon 59.946436 lat
#TLE: 1 27424U 02022A   26018.92652823  .00000914  00000+0  19290-3 0  9996
#TLE: 2 27424  98.4089 345.4199 0001997  73.4625 351.8991 14.61828815261466

#Time	Az	El	Level	Level2	SNR	BER	BlckErr	Temp	State	Recorded	gain1	gain2
2026-01-19 12:54:39.13	189.27	7.02	-30.9	-35.7	5.2	7.07e-01	0	41	0	0	23	6276
2026-01-19 12:54:40.14	189.34	7.10	-31.8	-38.5	5.0	7.08e-01	0	41	104	0	24	7761
2026-01-19 12:54:41.14	189.40	7.18	-31.5	-36.6	14.8	6.07e-01	0	41	0	0	24	6457
2026-01-19 12:54:42.15	189.47	7.26	-31.8	-37.7	13.9	6.08e-01	0	41	0	1572864	24	7106
2026-01-19 12:54:43.16	189.53	7.33	-31.4	-36.4	15.0	6.06e-01	0	41	0	3670016	24	6338
2026-01-19 12:54:44.16	189.60	7.41	-31.2	-35.4	15.7	6.07e-01	0	41	0	5242880	24	5858
2026-01-19 12:54:45.17	189.67	7.49	-31.1	-35.0	16.0	6.05e-01	0	41	0	7340032	24	5683
2026-01-19 12:54:46.18	189.73	7.57	-30.9	-34.8	16.5	6.05e-01	0	41	0	9437184	23	5678
2026-01-19 12:54:47.18	189.80	7.65	-30.7	-34.2	16.9	6.08e-01	0	42	0	11010048	23	5400
2026-01-19 12:54:48.19	189.87	7.73	-30.7	-34.3	16.9	6.07e-01	0	41	0	13107200	23	5431
2026-01-19 12:54:49.19	189.93	7.81	-30.5	-33.7	17.3	6.04e-01	0	42	0	14680064	23	5181
2026-01-19 12:54:50.20	190.00	7.89	-30.6	-34.0	17.1	6.06e-01	0	41	0	16777216	23	5317
2026-01-19 12:54:51.20	190.07	7.97	-30.6	-34.1	17.0	6.06e-01	0	42	0	18874368	23	5333
2026-01-19 12:54:52.20	190.14	8.05	-30.5	-33.6	17.4	6.07e-01	0	42	0	20447232	23	5155
2026-01-19 12:54:53.21	190.21	8.13	-30.6	-33.8	17.3	6.09e-01	0	42	0	22544384	23	5242
2026-01-19 12:54:54.21	190.28	8.21	-30.5	-33.6	17.4	6.06e-01	0	42	0	24117248	23	5156
2026-01-19 12:54:55.21	190.35	8.29	-30.6	-33.8	17.3	6.07e-01	0	42	0	26214400	23	5215
2026-01-19 12:54:56.22	190.42	8.38	-30.6	-33.8	17.3	6.08e-01	0	42	0	28311552	23	5230
2026-01-19 12:54:57.22	190.49	8.46	-30.5	-33.7	17.3	6.06e-01	0	42	0	29884416	23	5205
2026-01-19 12:54:58.23	190.56	8.54	-30.6	-33.9	17.3	6.07e-01	0	42	0	31981568	23	5247
2026-01-19 12:54:59.24	190.63	8.62	-30.5	-33.5	17.5	6.05e-01	0	42	0	33554432	23	5082
2026-01-19 12:55:00.23	190.70	8.70	-30.4	-33.9	17.6	6.07e-01	0	42	0	35651584	22	5351
2026-01-19 12:55:01.23	190.77	8.79	-30.4	-33.8	17.7	6.07e-01	0	42	0	37224448	22	5309
2026-01-19 12:55:02.23	190.84	8.87	-30.4	-33.8	17.6	6.07e-01	0	42	0	39321600	22	5338
2026-01-19 12:55:03.24	190.92	8.95	-30.4	-33.8	17.7	6.07e-01	0	42	0	41418752	22	5313
2026-01-19 12:55:04.24	190.99	9.04	-30.4	-33.7	17.8	6.07e-01	0	42	0	42991616	22	5274
2026-01-19 12:55:05.25	191.07	9.12	-30.3	-33.6	17.9	6.05e-01	0	42	0	45088768	22	5224
2026-01-19 12:55:06.26	191.14	9.21	-30.4	-33.8	17.7	6.04e-01	0	42	0	46661632	22	5302
2026-01-19 12:55:07.27	191.22	9.29	-30.4	-33.8	17.7	6.07e-01	0	42	0	48758784	22	5331
2026-01-19 12:55:08.27	191.29	9.38	-30.5	-34.0	17.5	6.06e-01	0	42	0	50855936	22	5422
2026-01-19 12:55:09.28	191.37	9.46	-30.5	-33.9	17.6	6.08e-01	0	42	0	52428800	22	5376
2026-01-19 12:55:10.27	191.44	9.55	-30.5	-33.9	17.7	6.04e-01	0	42	0	54525952	22	5373
2026-01-19 12:55:11.27	191.52	9.63	-30.5	-33.9	17.7	6.05e-01	0	42	0	56098816	22	5357
2026-01-19 12:55:12.28	191.60	9.72	-30.4	-33.7	17.8	6.07e-01	0	42	0	58195968	22	5293
2026-01-19 12:55:13.28	191.67	9.80	-30.4	-33.8	17.7	6.06e-01	0	42	0	60293120	22	5331
2026-01-19 12:55:14.28	191.75	9.89	-30.4	-33.7	17.8	6.07e-01	0	42	0	61865984	22	5255
2026-01-19 12:55:15.29	191.83	9.98	-30.5	-34.2	17.5	6.06e-01	0	42	0	63963136	22	5451
2026-01-19 12:55:16.29	191.91	10.07	-30.6	-34.2	17.4	6.05e-01	0	42	0	65536000	22	5484
2026-01-19 12:55:17.28	191.99	10.15	-30.4	-33.8	17.8	6.04e-01	0	42	0	67633152	22	5293
2026-01-19 12:55:18.28	192.07	10.24	-30.3	-33.4	18.0	6.07e-01	0	42	0	69730304	22	5149
2026-01-19 12:55:19.28	192.15	10.33	-30.3	-33.4	18.1	6.08e-01	0	42	0	71303168	22	5130
2026-01-19 12:55:20.28	192.23	10.41	-30.2	-33.1	18.3	6.06e-01	0	42	0	73400320	22	5015
2026-01-19 12:55:21.28	192.31	10.50	-30.2	-33.1	18.2	6.06e-01	0	42	0	74973184	22	5044
2026-01-19 12:55:22.29	192.39	10.59	-30.2	-33.1	18.2	6.06e-01	0	42	0	77070336	22	5046
2026-01-19 12:55:23.29	192.47	10.68	-30.2	-33.2	18.2	6.05e-01	0	42	0	78643200	22	5068
2026-01-19 12:55:24.30	192.56	10.77	-30.2	-33.2	18.2	6.07e-01	0	43	0	80740352	22	5065
2026-01-19 12:55:25.30	192.64	10.86	-30.2	-33.0	18.3	6.07e-01	0	42	0	82837504	22	5010
2026-01-19 12:55:26.31	192.72	10.95	-30.1	-32.9	18.4	6.06e-01	0	42	0	84410368	22	4972
2026-01-19 12:55:27.31	192.81	11.04	-30.2	-33.1	18.3	6.06e-01	0	42	0	86507520	22	5016
2026-01-19 12:55:28.32	192.89	11.13	-30.1	-32.9	18.4	6.05e-01	0	42	0	88080384	22	4947
2026-01-19 12:55:29.32	192.98	11.22	-30.4	-33.5	18.0	6.08e-01	0	43	0	90177536	22	5199
2026-01-19 12:55:30.32	193.07	11.32	-30.2	-33.2	18.2	6.08e-01	0	43	0	91750400	22	5078
2026-01-19 12:55:31.32	193.15	11.41	-30.1	-32.8	18.5	6.07e-01	0	43	0	93847552	22	4928
2026-01-19 12:55:32.32	193.24	11.50	-30.3	-33.2	18.2	6.06e-01	0	42	0	95944704	22	5080
2026-01-19 12:55:33.33	193.33	11.59	-30.3	-33.5	18.1	6.06e-01	0	42	0	97517568	22	5164
2026-01-19 12:55:34.33	193.42	11.69	-30.5	-33.8	17.9	6.05e-01	0	43	0	99614720	22	5300
2026-01-19 12:55:35.34	193.51	11.78	-30.4	-33.7	17.9	6.05e-01	0	43	0	101711872	22	5261
2026-01-19 12:55:36.35	193.60	11.87	-30.4	-33.7	17.9	6.10e-01	0	43	0	103284736	22	5241
2026-01-19 12:55:37.35	193.69	11.97	-30.4	-33.7	18.0	6.08e-01	0	43	0	105381888	22	5246
2026-01-19 12:55:38.35	193.78	12.06	-30.5	-33.8	17.9	6.06e-01	0	43	0	106954752	22	5267
2026-01-19 12:55:39.35	193.87	12.15	-30.4	-33.6	18.0	6.06e-01	0	43	0	109051904	22	5199
2026-01-19 12:55:40.36	193.96	12.25	-30.4	-33.5	18.1	6.07e-01	0	43	0	110624768	22	5188
2026-01-19 12:55:41.36	194.05	12.35	-30.4	-33.5	18.1	6.07e-01	0	43	0	112721920	22	5181
2026-01-19 12:55:42.36	194.15	12.44	-30.4	-33.7	18.0	6.08e-01	0	43	0	114819072	22	5231
2026-01-19 12:55:43.37	194.24	12.54	-30.4	-33.7	18.0	6.07e-01	0	43	0	116391936	22	5230
2026-01-19 12:55:44.37	194.33	12.63	-30.3	-33.3	18.3	6.05e-01	0	43	0	118489088	22	5087
2026-01-19 12:55:45.37	194.43	12.73	-30.1	-32.8	18.6	6.06e-01	0	43	0	120061952	22	4919
2026-01-19 12:55:46.36	194.52	12.83	-30.0	-32.5	18.8	6.07e-01	0	43	0	122159104	22	4805
2026-01-19 12:55:47.37	194.62	12.92	-30.0	-32.5	18.8	6.07e-01	0	43	0	123731968	22	4810
2026-01-19 12:55:48.37	194.72	13.02	-30.1	-32.6	18.7	6.07e-01	0	43	0	125829120	22	4845
2026-01-19 12:55:49.37	194.82	13.12	-30.0	-32.5	18.8	6.07e-01	0	43	0	127926272	22	4789
2026-01-19 12:55:50.38	194.92	13.22	-30.0	-32.5	18.8	6.05e-01	0	43	0	129499136	22	4778
2026-01-19 12:55:51.38	195.01	13.32	-30.0	-32.3	18.9	6.05e-01	0	43	0	131596288	22	4740
2026-01-19 12:55:52.39	195.11	13.42	-30.0	-32.4	18.9	6.08e-01	0	43	0	133169152	22	4762
2026-01-19 12:55:53.40	195.22	13.52	-30.0	-32.4	18.9	6.04e-01	0	43	0	135266304	22	4743
2026-01-19 12:55:54.40	195.32	13.62	-29.8	-32.5	19.1	6.05e-01	0	43	0	137363456	21	4915
2026-01-19 12:55:55.40	195.42	13.72	-29.8	-32.5	19.2	6.02e-01	0	43	0	138936320	21	4901
2026-01-19 12:55:56.41	195.52	13.82	-29.8	-32.4	19.2	6.06e-01	0	43	0	141033472	21	4874
2026-01-19 12:55:57.42	195.63	13.92	-29.8	-32.5	19.2	6.06e-01	0	43	0	142606336	21	4906
2026-01-19 12:55:58.42	195.73	14.02	-29.9	-32.7	19.0	6.08e-01	0	43	0	144703488	21	4981
2026-01-19 12:55:59.42	195.83	14.12	-29.8	-32.5	19.2	6.06e-01	0	43	102	145227776	21	4904
2026-01-19 12:56:00.42	195.94	14.22	-29.9	-32.7	19.0	6.06e-01	0	43	102	145227776	21	4964
2026-01-19 12:56:01.43	196.05	14.33	-30.0	-32.9	18.9	6.06e-01	0	43	102	145227776	21	5022
2026-01-19 12:56:02.43	196.15	14.43	-29.9	-32.7	19.1	6.06e-01	0	43	102	145227776	21	4951
2026-01-19 12:56:03.44	196.26	14.54	-29.9	-32.8	19.0	6.09e-01	0	43	102	145227776	21	4980
2026-01-19 12:56:04.44	196.37	14.64	-29.9	-32.7	19.0	6.04e-01	0	43	102	145227776	21	4977
2026-01-19 12:56:05.44	196.48	14.74	-29.8	-32.5	19.2	6.08e-01	0	43	102	145227776	21	4885
2026-01-19 12:56:06.43	196.59	14.85	-29.8	-32.4	19.3	6.06e-01	0	43	102	145227776	21	4836
2026-01-19 12:56:07.44	196.70	14.95	-29.9	-32.5	19.2	6.07e-01	0	43	102	145227776	21	4884
2026-01-19 12:56:08.44	196.81	15.06	-29.9	-32.5	19.2	6.08e-01	0	43	102	145227776	21	4900
2026-01-19 12:56:09.44	196.92	15.16	-29.9	-32.7	19.1	6.04e-01	0	43	102	145227776	21	4969
2026-01-19 12:56:10.44	197.04	15.27	-30.0	-32.8	19.0	6.08e-01	0	43	102	145227776	21	5006
2026-01-19 12:56:11.44	197.15	15.38	-29.9	-32.7	19.1	6.08e-01	0	43	102	145227776	21	4956
2026-01-19 12:56:12.44	197.27	15.48	-29.9	-32.6	19.2	6.09e-01	0	43	102	145227776	21	4945
2026-01-19 12:56:13.45	197.38	15.59	-29.8	-32.5	19.3	6.08e-01	0	43	102	145227776	21	4885
2026-01-19 12:56:14.46	197.50	15.70	-29.8	-32.4	19.3	6.05e-01	0	43	102	145227776	21	4859
2026-01-19 12:56:15.46	197.62	15.81	-29.8	-32.3	19.3	6.07e-01	0	43	102	145227776	21	4836
2026-01-19 12:56:16.47	197.74	15.92	-29.9	-32.6	19.2	6.07e-01	0	43	102	145227776	21	4936
2026-01-19 12:56:17.47	197.86	16.03	-29.9	-32.7	19.1	6.07e-01	0	43	102	145227776	21	4969
2026-01-19 12:56:18.47	197.98	16.14	-29.8	-32.3	19.4	6.06e-01	0	43	102	145227776	21	4829
2026-01-19 12:56:19.47	198.10	16.25	-29.8	-32.4	19.4	6.06e-01	0	43	102	145227776	21	4835
2026-01-19 12:56:20.47	198.22	16.36	-29.7	-32.2	19.4	6.06e-01	0	43	102	145227776	21	4789
2026-01-19 12:56:21.48	198.34	16.47	-29.8	-32.3	19.5	6.07e-01	0	43	102	145227776	21	4799
2026-01-19 12:56:22.48	198.47	16.58	-29.7	-32.2	19.5	6.05e-01	0	43	102	145227776	21	4774
2026-01-19 12:56:23.48	198.59	16.69	-29.7	-32.0	19.6	6.07e-01	0	43	102	145227776	21	4724
2026-01-19 12:56:24.48	198.72	16.80	-29.7	-32.1	19.6	6.09e-01	0	43	102	145227776	21	4734
2026-01-19 12:56:25.48	198.84	16.92	-29.6	-31.9	19.7	6.05e-01	0	43	102	145227776	21	4672
2026-01-19 12:56:26.49	198.97	17.03	-29.6	-31.9	19.7	6.05e-01	0	43	102	145227776	21	4687
2026-01-19 12:56:27.50	199.10	17.14	-29.8	-32.2	19.5	6.07e-01	0	43	102	145227776	21	4782
2026-01-19 12:56:28.50	199.23	17.26	-29.8	-32.4	19.4	6.07e-01	0	43	102	145227776	21	4841
2026-01-19 12:56:29.51	199.36	17.37	-29.8	-32.2	19.5	6.08e-01	0	43	102	145227776	21	4785
2026-01-19 12:56:30.52	199.50	17.49	-29.8	-32.3	19.5	6.06e-01	0	43	102	145227776	21	4797
2026-01-19 12:56:31.52	199.63	17.60	-29.7	-32.2	19.6	6.08e-01	0	43	102	145227776	21	4753
2026-01-19 12:56:32.52	199.76	17.72	-29.7	-31.9	19.7	6.05e-01	0	43	102	145227776	21	4687
2026-01-19 12:56:33.52	199.90	17.84	-29.7	-32.1	19.6	6.06e-01	0	43	102	145227776	21	4733
2026-01-19 12:56:34.52	200.03	17.95	-29.8	-32.3	19.5	6.08e-01	0	43	102	145227776	21	4792
2026-01-19 12:56:35.53	200.17	18.07	-29.8	-32.3	19.5	6.04e-01	0	43	102	145227776	21	4796
2026-01-19 12:56:36.53	200.31	18.19	-29.8	-32.3	19.5	6.07e-01	0	43	102	145227776	21	4817
2026-01-19 12:56:37.54	200.45	18.31	-29.8	-32.4	19.4	6.06e-01	0	43	102	145227776	21	4857
2026-01-19 12:56:38.54	200.59	18.43	-29.8	-32.3	19.5	6.06e-01	0	43	102	145227776	21	4813
2026-01-19 12:56:39.55	200.73	18.55	-29.9	-32.5	19.4	6.06e-01	0	43	102	145227776	21	4858
2026-01-19 12:56:40.55	200.88	18.67	-29.8	-32.3	19.5	6.05e-01	0	43	102	145227776	21	4796
2026-01-19 12:56:41.54	201.02	18.79	-29.7	-32.0	19.7	6.04e-01	0	43	102	145227776	21	4718
2026-01-19 12:56:42.55	201.17	18.91	-29.7	-32.0	19.7	6.08e-01	0	43	102	145227776	21	4709
2026-01-19 12:56:43.55	201.31	19.03	-29.8	-32.4	19.5	6.06e-01	0	43	102	145227776	21	4839
2026-01-19 12:56:44.56	201.46	19.15	-29.8	-32.3	19.5	6.05e-01	0	43	102	145227776	21	4815
2026-01-19 12:56:45.56	201.61	19.27	-29.8	-32.3	19.6	6.05e-01	0	43	102	145227776	21	4800
2026-01-19 12:56:46.57	201.76	19.40	-29.8	-32.2	19.6	6.08e-01	0	43	102	145227776	21	4771
2026-01-19 12:56:47.58	201.91	19.52	-29.8	-32.2	19.7	6.06e-01	0	43	102	145227776	21	4761
2026-01-19 12:56:48.58	202.07	19.64	-29.9	-32.6	19.4	6.06e-01	0	43	102	145227776	21	4911
2026-01-19 12:56:49.59	202.22	19.77	-29.8	-32.4	19.5	6.08e-01	0	43	102	145227776	21	4833
2026-01-19 12:56:50.59	202.38	19.89	-29.8	-32.2	19.6	6.06e-01	0	44	102	145227776	21	4779
2026-01-19 12:56:51.59	202.53	20.02	-29.8	-32.4	19.6	6.05e-01	0	43	102	145227776	21	4819
2026-01-19 12:56:52.60	202.69	20.14	-30.0	-32.7	19.3	6.06e-01	0	43	102	145227776	21	4953
2026-01-19 12:56:53.60	202.85	20.27	-30.0	-32.8	19.4	6.10e-01	0	43	102	145227776	21	4955
2026-01-19 12:56:54.61	203.01	20.40	-29.9	-32.7	19.4	6.10e-01	0	43	102	145227776	21	4926
2026-01-19 12:56:55.60	203.17	20.52	-30.0	-32.8	19.3	6.06e-01	0	44	102	145227776	21	4987
2026-01-19 12:56:56.60	203.33	20.65	-30.0	-32.8	19.3	6.07e-01	0	43	102	145227776	21	4969
2026-01-19 12:56:57.61	203.50	20.78	-29.9	-32.5	19.5	6.05e-01	0	43	102	145227776	21	4871
2026-01-19 12:56:58.62	203.67	20.91	-30.0	-32.7	19.4	6.05e-01	0	43	102	145227776	21	4940
2026-01-19 12:56:59.62	203.83	21.04	-30.0	-32.7	19.4	6.04e-01	0	43	102	145227776	21	4949
2026-01-19 12:57:00.62	204.00	21.17	-29.9	-32.4	19.6	6.06e-01	0	43	102	145227776	21	4845
2026-01-19 12:57:01.63	204.17	21.30	-29.8	-32.2	19.7	6.05e-01	0	43	102	145227776	21	4755
2026-01-19 12:57:02.62	204.34	21.43	-29.9	-32.6	19.5	6.06e-01	0	43	102	145227776	21	4904
2026-01-19 12:57:03.63	204.52	21.56	-30.0	-32.7	19.4	6.08e-01	0	43	102	145227776	21	4940
2026-01-19 12:57:04.64	204.69	21.69	-29.9	-32.6	19.5	6.05e-01	0	43	102	145227776	21	4880
2026-01-19 12:57:05.64	204.87	21.82	-29.9	-32.5	19.5	6.05e-01	0	43	102	145227776	21	4868
2026-01-19 12:57:06.64	205.05	21.95	-30.0	-32.6	19.5	6.04e-01	0	43	102	145227776	21	4904
2026-01-19 12:57:07.64	205.23	22.09	-30.0	-32.7	19.4	6.05e-01	0	43	102	145227776	21	4926
2026-01-19 12:57:08.65	205.41	22.22	-30.0	-32.7	19.5	6.05e-01	0	43	102	145227776	21	4912
2026-01-19 12:57:09.65	205.59	22.35	-29.9	-32.6	19.5	6.05e-01	0	43	102	145227776	21	4883
2026-01-19 12:57:10.65	205.78	22.49	-30.1	-32.9	19.3	6.06e-01	0	43	102	145227776	21	5005
2026-01-19 12:57:11.66	205.96	22.62	-30.0	-32.8	19.4	6.05e-01	0	43	102	145227776	21	4952
2026-01-19 12:57:12.66	206.15	22.76	-29.9	-32.4	19.6	6.05e-01	0	43	102	145227776	21	4832
2026-01-19 12:57:13.66	206.34	22.89	-30.0	-32.7	19.5	6.07e-01	0	43	102	145227776	21	4919
2026-01-19 12:57:14.66	206.53	23.03	-30.0	-32.7	19.5	6.06e-01	0	43	102	145227776	21	4912
2026-01-19 12:57:15.66	206.72	23.17	-29.9	-32.4	19.6	6.07e-01	0	43	102	145227776	21	4836
2026-01-19 12:57:16.66	206.91	23.30	-29.8	-32.3	19.7	6.05e-01	0	43	102	145227776	21	4776
2026-01-19 12:57:17.67	207.11	23.44	-29.9	-32.6	19.6	6.07e-01	0	43	102	145227776	21	4868
2026-01-19 12:57:18.67	207.31	23.58	-30.0	-32.6	19.6	6.06e-01	0	43	102	145227776	21	4894
2026-01-19 12:57:19.68	207.51	23.72	-29.9	-32.6	19.6	6.05e-01	0	43	102	145227776	21	4882
2026-01-19 12:57:20.68	207.71	23.86	-29.8	-32.3	19.8	6.06e-01	0	43	102	145227776	21	4799
2026-01-19 12:57:21.68	207.91	24.00	-29.8	-32.3	19.8	6.07e-01	0	43	102	145227776	21	4777
2026-01-19 12:57:22.69	208.12	24.14	-29.9	-32.6	19.6	6.07e-01	0	43	102	145227776	21	4884
2026-01-19 12:57:23.69	208.33	24.28	-29.9	-32.6	19.6	6.06e-01	0	43	102	145227776	21	4873
2026-01-19 12:57:24.69	208.54	24.42	-29.9	-32.5	19.7	6.04e-01	0	43	102	145227776	21	4836
2026-01-19 12:57:25.70	208.75	24.56	-30.0	-32.7	19.6	6.06e-01	0	43	102	145227776	21	4910
2026-01-19 12:57:26.70	208.96	24.70	-30.0	-32.8	19.5	6.04e-01	0	43	102	145227776	21	4940
2026-01-19 12:57:27.71	209.18	24.85	-30.0	-32.6	19.6	6.06e-01	0	43	102	145227776	21	4892
2026-01-19 12:57:28.71	209.39	24.99	-30.0	-32.6	19.6	6.05e-01	0	43	102	145227776	21	4889
2026-01-19 12:57:29.71	209.61	25.13	-29.9	-32.4	19.7	6.07e-01	0	43	102	145227776	21	4820
2026-01-19 12:57:30.72	209.83	25.28	-29.8	-32.3	19.8	6.05e-01	0	43	102	145227776	21	4783
2026-01-19 12:57:31.72	210.06	25.42	-30.0	-32.6	19.7	6.06e-01	0	43	102	145227776	21	4867
2026-01-19 12:57:32.72	210.28	25.56	-29.9	-32.4	19.7	6.06e-01	0	43	102	145227776	21	4826
2026-01-19 12:57:33.72	210.51	25.71	-29.9	-32.4	19.8	6.06e-01	0	43	102	145227776	21	4790
2026-01-19 12:57:34.72	210.74	25.85	-29.9	-32.5	19.7	6.05e-01	0	43	102	145227776	21	4848
2026-01-19 12:57:35.73	210.97	26.00	-30.0	-32.6	19.7	6.06e-01	0	43	102	145227776	21	4883
2026-01-19 12:57:36.73	211.20	26.14	-30.0	-32.6	19.7	6.05e-01	0	43	102	145227776	21	4871
2026-01-19 12:57:37.75	211.44	26.29	-29.9	-32.5	19.8	6.07e-01	0	43	102	145227776	21	4827
2026-01-19 12:57:38.75	211.68	26.44	-30.1	-32.9	19.5	6.04e-01	0	43	102	145227776	21	4995
2026-01-19 12:57:39.74	211.92	26.58	-30.0	-32.8	19.6	6.08e-01	0	43	102	145227776	21	4931
2026-01-19 12:57:40.75	212.16	26.73	-29.9	-32.3	19.8	6.07e-01	0	43	102	145227776	21	4781
2026-01-19 12:57:41.75	212.40	26.88	-29.8	-32.3	19.9	6.05e-01	0	43	102	145227776	21	4756
2026-01-19 12:57:42.76	212.65	27.03	-30.0	-32.6	19.7	6.05e-01	0	44	102	145227776	21	4866
2026-01-19 12:57:43.76	212.90	27.18	-29.9	-32.5	19.8	6.07e-01	0	44	102	145227776	21	4833
2026-01-19 12:57:44.75	213.15	27.32	-29.8	-32.3	19.9	6.03e-01	0	44	102	145227776	21	4768
2026-01-19 12:57:45.76	213.41	27.47	-29.9	-32.4	19.8	6.06e-01	0	43	102	145227776	21	4820
2026-01-19 12:57:46.77	213.67	27.62	-29.9	-32.3	19.8	6.06e-01	0	43	102	145227776	21	4790
2026-01-19 12:57:47.77	213.92	27.77	-29.9	-32.5	19.7	6.08e-01	0	44	102	145227776	21	4850
2026-01-19 12:57:48.77	214.19	27.92	-30.0	-32.7	19.7	6.06e-01	0	44	102	145227776	21	4915
2026-01-19 12:57:49.77	214.45	28.07	-30.0	-32.6	19.7	6.07e-01	0	43	102	145227776	21	4861
2026-01-19 12:57:50.77	214.71	28.22	-30.1	-32.9	19.6	6.05e-01	0	44	102	145227776	21	4960
2026-01-19 12:57:51.78	214.99	28.37	-30.2	-33.2	19.4	6.04e-01	0	44	102	145227776	21	5080
2026-01-19 12:57:52.78	215.26	28.52	-30.2	-33.1	19.4	6.06e-01	0	44	102	145227776	21	5046
2026-01-19 12:57:53.79	215.53	28.67	-30.2	-33.0	19.5	6.08e-01	0	43	102	145227776	21	5013
2026-01-19 12:57:54.79	215.81	28.83	-30.1	-32.9	19.6	6.07e-01	0	44	102	145227776	21	4982
2026-01-19 12:57:55.80	216.09	28.98	-30.1	-33.0	19.5	6.06e-01	0	44	102	145227776	21	5025
2026-01-19 12:57:56.81	216.38	29.13	-30.1	-32.8	19.6	6.06e-01	0	44	102	145227776	21	4947
2026-01-19 12:57:57.81	216.66	29.28	-29.9	-32.4	19.8	6.07e-01	0	44	102	145227776	21	4800
2026-01-19 12:57:58.81	216.95	29.43	-29.8	-32.2	20.0	6.06e-01	0	43	102	145227776	21	4730
2026-01-19 12:57:59.82	217.24	29.59	-29.9	-32.3	20.0	6.08e-01	0	44	102	145227776	21	4749
2026-01-19 12:58:00.82	217.53	29.74	-29.9	-32.4	19.9	6.07e-01	0	44	102	145227776	21	4788
2026-01-19 12:58:01.82	217.83	29.89	-30.0	-32.6	19.7	6.02e-01	0	44	102	145227776	21	4871
2026-01-19 12:58:02.82	218.13	30.04	-29.9	-32.4	19.9	6.08e-01	0	43	102	145227776	21	4791
2026-01-19 12:58:03.82	218.43	30.19	-29.9	-32.5	19.8	6.07e-01	0	43	102	145227776	21	4824
2026-01-19 12:58:04.83	218.73	30.34	-29.9	-32.3	19.9	6.04e-01	0	43	102	145227776	21	4777
2026-01-19 12:58:05.83	219.04	30.50	-29.8	-32.0	20.1	6.07e-01	0	43	102	145227776	21	4673
2026-01-19 12:58:06.83	219.35	30.65	-30.0	-32.6	19.8	6.08e-01	0	43	102	145227776	21	4870
2026-01-19 12:58:07.84	219.67	30.80	-30.0	-32.6	19.8	6.08e-01	0	44	102	145227776	21	4869
2026-01-19 12:58:08.85	219.99	30.95	-29.8	-32.2	20.0	6.04e-01	0	43	102	145227776	21	4728
2026-01-19 12:58:09.85	220.30	31.11	-29.8	-32.1	20.1	6.07e-01	0	43	102	145227776	21	4713
2026-01-19 12:58:10.86	220.63	31.26	-30.1	-32.8	19.7	6.06e-01	0	44	102	145227776	21	4940
2026-01-19 12:58:11.86	220.95	31.41	-29.9	-32.5	19.8	6.06e-01	0	44	102	145227776	21	4825
2026-01-19 12:58:12.87	221.29	31.56	-29.6	-31.7	20.3	6.06e-01	0	44	102	145227776	21	4569
2026-01-19 12:58:13.87	221.62	31.71	-29.8	-32.2	20.1	6.08e-01	0	44	102	145227776	21	4732
2026-01-19 12:58:14.88	221.95	31.87	-29.9	-32.4	19.9	6.06e-01	0	43	102	145227776	21	4794
2026-01-19 12:58:15.89	222.30	32.02	-29.9	-32.4	19.9	6.03e-01	0	43	102	145227776	21	4804
2026-01-19 12:58:16.89	222.64	32.17	-30.2	-33.1	19.5	6.06e-01	0	43	102	145227776	21	5040
2026-01-19 12:58:17.89	222.98	32.32	-30.0	-32.7	19.7	6.04e-01	0	44	102	145227776	21	4909
2026-01-19 12:58:18.90	223.33	32.47	-29.9	-32.3	20.0	6.05e-01	0	43	102	145227776	21	4776
2026-01-19 12:58:19.91	223.68	32.62	-29.9	-32.3	20.0	6.05e-01	0	44	102	145227776	21	4752
2026-01-19 12:58:20.91	224.04	32.77	-30.0	-32.7	19.7	6.10e-01	0	44	102	145227776	21	4913
2026-01-19 12:58:21.91	224.40	32.92	-30.0	-32.6	19.8	6.05e-01	0	43	102	145227776	21	4864
2026-01-19 12:58:22.92	224.76	33.07	-30.2	-33.1	19.6	6.04e-01	0	44	102	145227776	21	5027
2026-01-19 12:58:23.93	225.13	33.21	-30.0	-32.7	19.8	6.06e-01	0	44	102	145227776	21	4888
2026-01-19 12:58:24.93	225.49	33.36	-30.0	-32.7	19.8	6.05e-01	0	43	102	145227776	21	4879
2026-01-19 12:58:25.94	225.87	33.51	-30.2	-33.3	19.5	6.06e-01	0	43	102	145227776	21	5096
2026-01-19 12:58:26.94	226.24	33.66	-30.1	-32.8	19.7	6.07e-01	0	43	102	145227776	21	4936
2026-01-19 12:58:27.95	226.62	33.80	-30.1	-32.8	19.7	6.04e-01	0	43	102	145227776	21	4936
2026-01-19 12:58:28.96	227.01	33.95	-30.2	-33.1	19.5	6.06e-01	0	44	102	145227776	21	5048
2026-01-19 12:58:29.96	227.39	34.09	-30.0	-32.6	19.9	6.07e-01	0	43	102	145227776	21	4855
2026-01-19 12:58:30.96	227.78	34.24	-30.1	-32.8	19.8	6.07e-01	0	43	102	145227776	21	4923
2026-01-19 12:58:31.97	228.17	34.38	-30.1	-32.9	19.7	6.07e-01	0	44	102	145227776	21	4978
2026-01-19 12:58:32.98	228.57	34.52	-29.9	-32.5	19.9	6.06e-01	0	43	102	145227776	21	4830
2026-01-19 12:58:33.98	228.97	34.67	-30.1	-32.9	19.7	6.07e-01	0	44	102	145227776	21	4983
2026-01-19 12:58:34.98	229.37	34.81	-30.1	-32.8	19.7	6.05e-01	0	43	102	145227776	21	4937
2026-01-19 12:58:35.98	229.78	34.95	-30.0	-32.6	19.8	6.08e-01	0	44	102	145227776	21	4876
2026-01-19 12:58:36.98	230.19	35.08	-30.1	-32.8	19.8	6.06e-01	0	44	102	145227776	21	4926
2026-01-19 12:58:37.99	230.60	35.22	-30.2	-33.1	19.6	6.06e-01	0	44	102	145227776	21	5033
2026-01-19 12:58:38.99	231.02	35.36	-30.1	-32.9	19.7	6.06e-01	0	43	102	145227776	21	4972
2026-01-19 12:58:40.00	231.44	35.50	-30.1	-32.9	19.7	6.07e-01	0	43	102	145227776	21	4956
2026-01-19 12:58:41.00	231.86	35.63	-30.2	-33.2	19.5	6.07e-01	0	44	102	145227776	21	5090
2026-01-19 12:58:42.01	232.29	35.77	-30.2	-33.1	19.6	6.06e-01	0	44	102	145227776	21	5056
2026-01-19 12:58:43.02	232.73	35.90	-30.1	-33.0	19.7	6.06e-01	0	44	102	145227776	21	4979
2026-01-19 12:58:44.03	233.17	36.03	-30.5	-33.8	19.2	6.05e-01	0	44	102	145227776	21	5287
2026-01-19 12:58:45.03	233.60	36.16	-30.5	-33.8	19.2	6.04e-01	0	44	102	145227776	21	5279
2026-01-19 12:58:46.04	234.05	36.29	-30.5	-33.9	19.1	6.06e-01	0	43	102	145227776	21	5315
2026-01-19 12:58:47.04	234.49	36.42	-30.8	-34.0	18.7	6.05e-01	0	43	102	145227776	22	5257
2026-01-19 12:58:48.05	234.94	36.55	-31.2	-34.7	18.0	6.06e-01	0	43	102	145227776	23	5390
2026-01-19 12:58:49.04	235.39	36.67	-30.8	-33.6	18.7	6.03e-01	0	43	102	145227776	23	4971
2026-01-19 12:58:50.04	235.84	36.79	-30.8	-33.6	18.8	6.07e-01	0	44	102	145227776	23	4960
2026-01-19 12:58:51.04	236.30	36.92	-30.8	-33.7	18.7	6.06e-01	0	44	102	145227776	23	4991
2026-01-19 12:58:52.04	236.76	37.04	-30.9	-33.8	18.6	6.06e-01	0	44	102	145227776	23	5030
2026-01-19 12:58:53.04	237.23	37.15	-30.8	-33.6	18.7	6.07e-01	0	43	102	145227776	23	4967
2026-01-19 12:58:54.04	237.69	37.27	-30.8	-33.6	18.8	6.07e-01	0	44	102	145227776	23	4964
2026-01-19 12:58:55.04	238.17	37.39	-31.1	-34.5	18.2	6.07e-01	0	44	102	145227776	23	5314
2026-01-19 12:58:56.05	238.65	37.50	-31.4	-35.3	17.6	6.07e-01	0	44	102	145227776	23	5653
2026-01-19 12:58:57.05	239.12	37.61	-31.0	-34.2	18.4	6.06e-01	0	44	102	145227776	23	5178
2026-01-19 12:58:58.06	239.61	37.72	-30.8	-33.6	18.7	6.07e-01	0	43	102	145227776	23	4961
2026-01-19 12:58:59.07	240.10	37.83	-30.7	-33.2	19.0	6.07e-01	0	44	102	145227776	23	4825
2026-01-19 12:59:00.08	240.59	37.94	-30.5	-32.7	19.3	6.07e-01	0	44	102	145227776	23	4669
2026-01-19 12:59:01.09	241.09	38.05	-30.6	-32.9	19.2	6.07e-01	0	44	102	145227776	23	4721
2026-01-19 12:59:02.09	241.58	38.15	-30.5	-32.9	19.3	6.07e-01	0	44	102	145227776	23	4704
2026-01-19 12:59:03.10	242.08	38.25	-30.8	-33.7	18.7	6.07e-01	0	44	102	145227776	23	4986
2026-01-19 12:59:04.10	242.59	38.35	-30.4	-32.5	19.5	6.06e-01	0	44	102	145227776	23	4583
2026-01-19 12:59:05.10	243.09	38.44	-30.4	-33.0	19.5	6.07e-01	0	44	102	145227776	22	4877
2026-01-19 12:59:06.10	243.60	38.54	-30.4	-33.1	19.3	6.08e-01	0	44	102	145227776	22	4896
2026-01-19 12:59:07.11	244.11	38.63	-30.2	-32.5	19.8	6.06e-01	0	44	102	145227776	22	4687
2026-01-19 12:59:08.10	244.62	38.72	-30.1	-32.3	19.9	6.08e-01	0	44	102	145227776	22	4616
2026-01-19 12:59:09.11	245.14	38.81	-30.2	-32.4	19.8	6.08e-01	0	44	102	145227776	22	4663
2026-01-19 12:59:10.11	245.65	38.89	-30.2	-32.5	19.8	6.07e-01	0	44	102	145227776	22	4692
2026-01-19 12:59:11.11	246.17	38.97	-30.1	-32.2	19.9	6.06e-01	0	44	102	145227776	22	4604
2026-01-19 12:59:12.12	246.70	39.06	-30.3	-32.7	19.7	6.06e-01	0	44	102	145227776	22	4748
2026-01-19 12:59:13.12	247.23	39.13	-30.3	-32.7	19.7	6.07e-01	0	44	102	145227776	22	4742
2026-01-19 12:59:14.12	247.76	39.21	-30.4	-33.0	19.5	6.07e-01	0	44	102	145227776	22	4856
2026-01-19 12:59:15.12	248.29	39.28	-30.5	-33.2	19.3	6.05e-01	0	44	102	145227776	22	4939
2026-01-19 12:59:16.13	248.83	39.35	-30.1	-32.3	19.9	6.07e-01	0	44	102	145227776	22	4638
2026-01-19 12:59:17.13	249.36	39.42	-30.3	-32.7	19.7	6.07e-01	0	44	102	145227776	22	4759
2026-01-19 12:59:18.13	249.90	39.49	-30.2	-32.5	19.9	6.07e-01	0	44	102	145227776	22	4688
2026-01-19 12:59:19.13	250.44	39.55	-30.5	-33.3	19.3	6.07e-01	0	44	102	145227776	22	4978
2026-01-19 12:59:20.14	250.99	39.61	-30.1	-32.2	20.0	6.08e-01	0	44	102	145227776	22	4599
2026-01-19 12:59:21.14	251.53	39.67	-30.2	-32.4	19.9	6.07e-01	0	44	102	145227776	22	4650
2026-01-19 12:59:22.15	252.08	39.72	-30.2	-32.6	19.7	6.06e-01	0	44	102	145227776	22	4722
2026-01-19 12:59:23.15	252.63	39.77	-30.2	-32.4	19.9	6.05e-01	0	44	102	145227776	22	4644
2026-01-19 12:59:24.15	253.18	39.82	-30.1	-32.2	20.0	6.04e-01	0	44	102	145227776	22	4602
2026-01-19 12:59:25.16	253.73	39.87	-30.2	-32.5	19.9	6.06e-01	0	44	102	145227776	22	4697
2026-01-19 12:59:26.16	254.28	39.91	-30.3	-32.9	19.6	6.06e-01	0	44	102	145227776	22	4810
2026-01-19 12:59:27.16	254.84	39.95	-30.1	-32.2	20.0	6.08e-01	0	44	102	145227776	22	4578
2026-01-19 12:59:28.17	255.40	39.99	-30.1	-32.3	20.0	6.04e-01	0	44	102	145227776	22	4616
2026-01-19 12:59:29.17	255.95	40.02	-30.1	-32.3	19.9	6.07e-01	0	44	102	145227776	22	4616
2026-01-19 12:59:30.17	256.51	40.06	-30.2	-32.4	19.9	6.08e-01	0	44	102	145227776	22	4655
2026-01-19 12:59:31.18	257.07	40.09	-30.1	-32.1	20.0	6.07e-01	0	43	102	145227776	22	4561
2026-01-19 12:59:32.19	257.64	40.11	-30.1	-32.2	20.0	6.09e-01	0	44	102	145227776	22	4600
2026-01-19 12:59:33.19	258.20	40.13	-30.1	-32.1	20.1	6.05e-01	0	44	102	145227776	22	4557
2026-01-19 12:59:34.19	258.76	40.15	-30.1	-32.3	20.0	6.02e-01	0	44	102	145227776	22	4614
2026-01-19 12:59:35.19	259.32	40.17	-30.1	-32.3	20.0	6.06e-01	0	44	102	145227776	22	4612
2026-01-19 12:59:36.19	259.88	40.18	-30.0	-32.0	20.2	6.05e-01	0	44	102	145227776	22	4511
2026-01-19 12:59:37.19	260.45	40.20	-30.3	-32.7	19.8	6.05e-01	0	44	102	145227776	22	4753
2026-01-19 12:59:38.19	261.01	40.20	-30.5	-33.2	19.4	6.05e-01	0	44	102	145227776	22	4930
2026-01-19 12:59:39.20	261.58	40.21	-30.5	-33.3	19.4	6.07e-01	0	44	102	145227776	22	4962
2026-01-19 12:59:40.21	262.14	40.21	-30.5	-33.3	19.4	6.09e-01	0	44	102	145227776	22	4946
2026-01-19 12:59:41.20	262.70	40.21	-30.5	-33.1	19.5	6.07e-01	0	44	102	145227776	22	4878
2026-01-19 12:59:42.21	263.27	40.20	-30.6	-33.6	19.2	6.10e-01	0	43	102	145227776	22	5052
2026-01-19 12:59:43.21	263.83	40.20	-30.7	-33.8	19.1	6.06e-01	0	44	102	145227776	22	5140
2026-01-19 12:59:44.21	264.40	40.19	-30.5	-33.2	19.5	6.08e-01	0	44	102	145227776	22	4905
2026-01-19 12:59:45.21	264.96	40.17	-30.6	-33.4	19.4	6.06e-01	0	44	102	145227776	22	4972
2026-01-19 12:59:46.21	265.52	40.16	-30.9	-34.4	18.7	6.08e-01	0	44	102	145227776	22	5346
2026-01-19 12:59:47.22	266.08	40.14	-30.8	-34.0	18.9	6.04e-01	0	44	102	145227776	22	5210
2026-01-19 12:59:48.22	266.64	40.12	-30.8	-34.0	18.9	6.05e-01	0	44	102	145227776	22	5223
2026-01-19 12:59:49.22	267.20	40.09	-30.6	-33.6	19.2	6.06e-01	0	44	102	145227776	22	5053
2026-01-19 12:59:50.23	267.77	40.06	-30.4	-33.0	19.5	6.04e-01	0	44	102	145227776	22	4851
2026-01-19 12:59:51.24	268.33	40.03	-30.3	-32.6	19.8	6.06e-01	0	43	102	145227776	22	4718
2026-01-19 12:59:52.24	268.89	40.00	-30.3	-32.8	19.7	6.07e-01	0	44	102	145227776	22	4797
2026-01-19 12:59:53.24	269.44	39.96	-30.3	-32.8	19.7	6.04e-01	0	44	102	145227776	22	4765
2026-01-19 12:59:54.25	270.00	39.92	-30.4	-32.8	19.7	6.03e-01	0	44	102	145227776	22	4784
2026-01-19 12:59:55.25	270.55	39.88	-30.3	-32.8	19.7	6.07e-01	0	44	102	145227776	22	4790
2026-01-19 12:59:56.25	271.10	39.83	-30.2	-32.5	19.9	6.05e-01	0	44	102	145227776	22	4678
2026-01-19 12:59:57.25	271.65	39.79	-30.5	-33.1	19.5	6.09e-01	0	44	102	145227776	22	4899
2026-01-19 12:59:58.25	272.20	39.73	-30.4	-32.9	19.6	6.07e-01	0	44	102	145227776	22	4798
2026-01-19 12:59:59.26	272.75	39.68	-30.4	-32.9	19.6	6.08e-01	0	44	102	145227776	22	4828
2026-01-19 13:00:00.26	273.29	39.62	-30.5	-33.2	19.4	6.08e-01	0	44	102	145227776	22	4935
2026-01-19 13:00:01.26	273.83	39.56	-30.4	-33.0	19.6	6.05e-01	0	44	102	145227776	22	4853
2026-01-19 13:00:02.26	274.37	39.50	-30.3	-32.7	19.8	6.07e-01	0	44	102	145227776	22	4739
2026-01-19 13:00:03.26	274.91	39.44	-30.3	-32.6	19.8	6.05e-01	0	44	102	145227776	22	4722
2026-01-19 13:00:04.26	275.44	39.37	-30.4	-32.8	19.7	6.06e-01	0	44	102	145227776	22	4795
2026-01-19 13:00:05.26	275.98	39.30	-30.5	-33.1	19.5	6.05e-01	0	44	102	145227776	22	4898
2026-01-19 13:00:06.26	276.51	39.23	-30.4	-33.0	19.6	6.04e-01	0	44	102	145227776	22	4834
2026-01-19 13:00:07.26	277.03	39.16	-30.4	-32.9	19.6	6.06e-01	0	44	102	145227776	22	4810
2026-01-19 13:00:08.26	277.56	39.08	-30.3	-32.7	19.8	6.06e-01	0	44	102	145227776	22	4743
2026-01-19 13:00:09.26	278.08	39.00	-30.4	-32.9	19.7	6.05e-01	0	44	102	145227776	22	4805
2026-01-19 13:00:10.26	278.60	38.92	-30.5	-33.1	19.5	6.06e-01	0	44	102	145227776	22	4881
2026-01-19 13:00:11.26	279.12	38.83	-30.5	-33.2	19.4	6.06e-01	0	44	102	145227776	22	4927
2026-01-19 13:00:12.25	279.63	38.75	-30.4	-32.9	19.7	6.05e-01	0	44	102	145227776	22	4795
2026-01-19 13:00:13.25	280.14	38.66	-30.4	-33.0	19.6	6.05e-01	0	43	102	145227776	22	4833
2026-01-19 13:00:14.25	280.65	38.57	-30.4	-33.0	19.6	6.05e-01	0	44	102	145227776	22	4853
2026-01-19 13:00:15.26	281.16	38.47	-30.4	-33.0	19.6	6.07e-01	0	44	102	145227776	22	4840
2026-01-19 13:00:16.26	281.67	38.38	-30.5	-33.1	19.5	6.08e-01	0	44	102	145227776	22	4890
2026-01-19 13:00:17.27	282.17	38.28	-30.4	-32.9	19.7	6.05e-01	0	44	102	145227776	22	4804
2026-01-19 13:00:18.28	282.67	38.18	-30.4	-32.9	19.7	6.08e-01	0	44	102	145227776	22	4805
2026-01-19 13:00:19.27	283.16	38.08	-30.5	-33.1	19.5	6.05e-01	0	44	102	145227776	22	4887
2026-01-19 13:00:20.28	283.66	37.98	-30.2	-32.5	19.9	6.07e-01	0	44	102	145227776	22	4663
2026-01-19 13:00:21.28	284.15	37.87	-30.3	-32.6	19.8	6.06e-01	0	44	102	145227776	22	4714
2026-01-19 13:00:22.28	284.63	37.76	-30.5	-33.2	19.5	6.06e-01	0	44	102	145227776	22	4917
2026-01-19 13:00:23.29	285.12	37.65	-30.2	-32.4	19.9	6.06e-01	0	44	102	145227776	22	4644
2026-01-19 13:00:24.30	285.60	37.54	-30.3	-32.6	19.8	6.07e-01	0	44	102	145227776	22	4721
2026-01-19 13:00:25.29	286.07	37.43	-30.4	-32.9	19.7	6.05e-01	0	44	102	145227776	22	4798
2026-01-19 13:00:26.29	286.54	37.32	-30.3	-32.7	19.8	6.06e-01	0	44	102	145227776	22	4741
2026-01-19 13:00:27.30	287.01	37.20	-30.4	-33.0	19.6	6.05e-01	0	44	102	145227776	22	4862
2026-01-19 13:00:28.31	287.48	37.08	-30.4	-33.0	19.5	6.07e-01	0	44	102	145227776	22	4829
2026-01-19 13:00:29.31	287.94	36.96	-30.2	-32.4	19.9	6.07e-01	0	44	102	145227776	22	4653
2026-01-19 13:00:30.31	288.40	36.84	-30.3	-32.6	19.8	6.07e-01	0	44	102	145227776	22	4719
2026-01-19 13:00:31.32	288.86	36.72	-30.3	-32.8	19.7	6.07e-01	0	44	102	145227776	22	4774
2026-01-19 13:00:32.32	289.31	36.59	-30.2	-32.5	19.8	6.05e-01	0	44	102	145227776	22	4686
2026-01-19 13:00:33.31	289.75	36.47	-30.0	-32.0	20.2	6.06e-01	0	44	102	145227776	22	4512
2026-01-19 13:00:34.32	290.20	36.34	-30.1	-32.2	20.1	6.05e-01	0	44	102	145227776	22	4584
2026-01-19 13:00:35.33	290.64	36.21	-30.0	-32.0	20.2	6.06e-01	0	44	102	145227776	22	4506
2026-01-19 13:00:36.33	291.08	36.08	-30.1	-32.3	20.1	6.07e-01	0	44	102	145227776	22	4597
2026-01-19 13:00:37.33	291.51	35.95	-30.2	-32.3	20.0	6.07e-01	0	44	102	145227776	22	4622
2026-01-19 13:00:38.34	291.95	35.82	-30.0	-32.0	20.2	6.05e-01	0	44	102	145227776	22	4515
2026-01-19 13:00:39.35	292.38	35.69	-29.9	-31.6	20.4	6.06e-01	0	44	102	145227776	22	4399
2026-01-19 13:00:40.35	292.80	35.55	-30.0	-31.9	20.3	6.07e-01	0	44	102	145227776	22	4493
2026-01-19 13:00:41.36	293.22	35.42	-30.1	-32.3	20.0	6.07e-01	0	44	102	145227776	22	4615
2026-01-19 13:00:42.37	293.64	35.28	-30.1	-32.3	20.1	6.06e-01	0	44	102	145227776	22	4609
2026-01-19 13:00:43.37	294.06	35.14	-30.1	-32.2	20.0	6.06e-01	0	44	102	145227776	22	4596
2026-01-19 13:00:44.37	294.46	35.01	-29.8	-32.0	20.5	6.06e-01	0	44	102	145227776	21	4614
2026-01-19 13:00:45.38	294.87	34.87	-29.7	-31.7	20.6	6.07e-01	0	44	102	145227776	21	4546
2026-01-19 13:00:46.38	295.27	34.73	-29.7	-31.7	20.6	6.07e-01	0	44	102	145227776	21	4535
2026-01-19 13:00:47.38	295.67	34.59	-29.9	-32.2	20.3	6.06e-01	0	44	102	145227776	21	4691
2026-01-19 13:00:48.39	296.07	34.45	-29.9	-32.2	20.3	6.08e-01	0	44	102	145227776	21	4693
2026-01-19 13:00:49.39	296.46	34.30	-29.8	-31.9	20.5	6.05e-01	0	44	102	145227776	21	4608
2026-01-19 13:00:50.40	296.85	34.16	-29.8	-32.0	20.4	6.06e-01	0	44	102	145227776	21	4634
2026-01-19 13:00:51.41	297.24	34.01	-29.7	-31.6	20.6	6.04e-01	0	44	102	145227776	21	4500
2026-01-19 13:00:52.41	297.62	33.87	-29.6	-31.5	20.7	6.05e-01	0	44	102	145227776	21	4478
2026-01-19 13:00:53.41	298.00	33.73	-29.6	-31.5	20.7	6.06e-01	0	44	102	145227776	21	4466
2026-01-19 13:00:54.42	298.37	33.58	-29.7	-31.7	20.6	6.07e-01	0	44	102	145227776	21	4545
2026-01-19 13:00:55.42	298.75	33.43	-29.8	-31.9	20.5	6.06e-01	0	44	102	145227776	21	4605
2026-01-19 13:00:56.43	299.12	33.29	-29.7	-31.8	20.5	6.05e-01	0	44	102	145227776	21	4562
2026-01-19 13:00:57.44	299.48	33.14	-29.5	-31.2	20.9	6.06e-01	0	44	102	145227776	21	4377
2026-01-19 13:00:58.44	299.84	32.99	-29.5	-31.3	20.8	6.06e-01	0	44	102	145227776	21	4407
2026-01-19 13:00:59.45	300.20	32.84	-29.7	-31.7	20.6	6.07e-01	0	44	102	145227776	21	4536
2026-01-19 13:01:00.45	300.56	32.69	-29.6	-31.4	20.8	6.06e-01	0	44	102	145227776	21	4434
2026-01-19 13:01:01.46	300.91	32.55	-29.5	-31.3	20.8	6.08e-01	0	44	102	145227776	21	4418
2026-01-19 13:01:02.46	301.26	32.40	-29.5	-31.3	20.8	6.06e-01	0	44	102	145227776	21	4424
2026-01-19 13:01:03.46	301.60	32.25	-29.6	-31.4	20.8	6.03e-01	0	44	102	145227776	21	4428
2026-01-19 13:01:04.47	301.95	32.10	-29.6	-31.5	20.7	6.06e-01	0	44	102	145227776	21	4464
2026-01-19 13:01:05.47	302.28	31.95	-29.5	-31.1	20.9	6.04e-01	0	44	102	145227776	21	4361
2026-01-19 13:01:06.47	302.62	31.80	-29.4	-31.0	21.0	6.08e-01	0	44	102	145227776	21	4336
2026-01-19 13:01:07.48	302.95	31.65	-29.5	-31.2	20.9	6.05e-01	0	44	102	145227776	21	4376
2026-01-19 13:01:08.48	303.28	31.50	-29.5	-31.2	20.9	6.06e-01	0	44	102	145227776	21	4383
2026-01-19 13:01:09.48	303.61	31.35	-29.4	-31.1	20.9	6.07e-01	0	44	102	145227776	21	4358
2026-01-19 13:01:10.48	303.93	31.20	-29.5	-31.1	20.9	6.05e-01	0	44	102	145227776	21	4365
2026-01-19 13:01:11.49	304.25	31.04	-29.5	-31.3	20.8	6.06e-01	0	44	102	145227776	21	4414
2026-01-19 13:01:12.49	304.56	30.89	-29.5	-31.3	20.8	6.07e-01	0	44	102	145227776	21	4432
2026-01-19 13:01:13.50	304.88	30.74	-29.6	-31.4	20.7	6.07e-01	0	44	102	145227776	21	4461
2026-01-19 13:01:14.50	305.19	30.59	-29.6	-31.5	20.7	6.05e-01	0	44	102	145227776	21	4463
2026-01-19 13:01:15.50	305.50	30.44	-29.6	-31.4	20.7	6.06e-01	0	44	102	145227776	21	4437
2026-01-19 13:01:16.50	305.80	30.29	-29.6	-31.4	20.8	6.05e-01	0	44	102	145227776	21	4437
2026-01-19 13:01:17.51	306.11	30.14	-29.6	-31.4	20.8	6.07e-01	0	44	102	145227776	21	4436
2026-01-19 13:01:18.51	306.40	29.99	-29.6	-31.4	20.7	6.06e-01	0	44	102	145227776	21	4453
2026-01-19 13:01:19.52	306.70	29.83	-29.6	-31.4	20.8	6.09e-01	0	44	102	145227776	21	4441
2026-01-19 13:01:20.52	306.99	29.68	-29.6	-31.6	20.7	6.05e-01	0	44	102	145227776	21	4501
2026-01-19 13:01:21.53	307.29	29.53	-29.7	-31.8	20.5	6.08e-01	0	44	102	145227776	21	4559
2026-01-19 13:01:22.54	307.58	29.38	-29.7	-31.7	20.5	6.05e-01	0	44	102	145227776	21	4553
2026-01-19 13:01:23.54	307.86	29.23	-29.6	-31.6	20.6	6.06e-01	0	44	102	145227776	21	4493
2026-01-19 13:01:24.54	308.14	29.08	-29.6	-31.6	20.6	6.08e-01	0	44	102	145227776	21	4504
2026-01-19 13:01:25.54	308.42	28.93	-29.7	-31.8	20.5	6.08e-01	0	44	102	145227776	21	4571
2026-01-19 13:01:26.55	308.70	28.78	-29.8	-32.1	20.3	6.07e-01	0	44	102	145227776	21	4675
2026-01-19 13:01:27.56	308.98	28.63	-29.9	-32.4	20.2	6.05e-01	0	44	102	145227776	21	4758
2026-01-19 13:01:28.57	309.25	28.48	-29.9	-32.3	20.1	6.06e-01	0	44	102	145227776	21	4751
2026-01-19 13:01:29.57	309.52	28.33	-29.9	-32.4	20.1	6.07e-01	0	44	102	145227776	21	4753
2026-01-19 13:01:30.58	309.79	28.18	-29.9	-32.1	20.3	6.07e-01	0	44	102	145227776	21	4670
2026-01-19 13:01:31.59	310.06	28.03	-29.8	-32.0	20.4	6.06e-01	0	43	102	145227776	21	4624
2026-01-19 13:01:32.60	310.32	27.88	-29.9	-32.2	20.2	6.05e-01	0	44	102	145227776	21	4707
2026-01-19 13:01:33.60	310.58	27.73	-30.0	-32.4	20.1	6.08e-01	0	44	102	145227776	21	4765
2026-01-19 13:01:34.61	310.84	27.58	-30.0	-32.4	20.1	6.06e-01	0	44	102	145227776	21	4764
2026-01-19 13:01:35.61	311.09	27.43	-30.0	-32.4	20.1	6.07e-01	0	44	102	145227776	21	4761
2026-01-19 13:01:36.62	311.34	27.28	-29.9	-32.3	20.2	6.08e-01	0	44	102	145227776	21	4724
2026-01-19 13:01:37.62	311.59	27.14	-30.0	-32.4	20.1	6.06e-01	0	44	102	145227776	21	4771
2026-01-19 13:01:38.62	311.84	26.99	-30.0	-32.4	20.1	6.05e-01	0	44	102	145227776	21	4769
2026-01-19 13:01:39.63	312.08	26.84	-30.0	-32.4	20.1	6.07e-01	0	44	102	145227776	21	4783
2026-01-19 13:01:40.63	312.33	26.70	-30.1	-32.7	19.9	6.06e-01	0	44	102	145227776	21	4873
2026-01-19 13:01:41.63	312.57	26.55	-30.1	-32.9	19.8	6.06e-01	0	44	102	145227776	21	4941
2026-01-19 13:01:42.63	312.80	26.40	-30.2	-32.9	19.8	6.03e-01	0	44	102	145227776	21	4946
2026-01-19 13:01:43.64	313.04	26.26	-30.1	-32.8	19.8	6.05e-01	0	44	102	145227776	21	4913
2026-01-19 13:01:44.65	313.28	26.11	-30.0	-32.6	20.0	6.06e-01	0	44	102	145227776	21	4839
2026-01-19 13:01:45.65	313.51	25.97	-30.2	-33.0	19.8	6.07e-01	0	44	102	145227776	21	4958
2026-01-19 13:01:46.66	313.74	25.82	-30.2	-33.1	19.7	6.07e-01	0	44	102	145227776	21	4995
2026-01-19 13:01:47.66	313.97	25.68	-30.3	-33.3	19.5	6.06e-01	0	44	102	145227776	21	5076
2026-01-19 13:01:48.66	314.19	25.54	-30.3	-33.2	19.6	6.05e-01	0	44	102	145227776	21	5051
2026-01-19 13:01:49.67	314.41	25.39	-30.2	-33.1	19.6	6.07e-01	0	44	102	145227776	21	5025
2026-01-19 13:01:50.67	314.63	25.25	-30.2	-33.1	19.6	6.06e-01	0	44	102	145227776	21	5021
2026-01-19 13:01:51.68	314.86	25.11	-30.3	-33.3	19.5	6.08e-01	0	44	102	145227776	21	5094
2026-01-19 13:01:52.68	315.07	24.97	-30.4	-33.6	19.3	6.07e-01	0	44	102	145227776	21	5174
2026-01-19 13:01:53.68	315.29	24.82	-30.5	-33.8	19.2	6.04e-01	0	44	102	145227776	21	5277
2026-01-19 13:01:54.69	315.50	24.68	-30.5	-33.7	19.3	6.04e-01	0	44	102	145227776	21	5233
2026-01-19 13:01:55.69	315.71	24.54	-30.5	-33.7	19.3	6.06e-01	0	44	102	145227776	21	5232
2026-01-19 13:01:56.69	315.92	24.40	-30.5	-33.8	19.2	6.04e-01	0	44	102	145227776	21	5263
2026-01-19 13:01:57.69	316.13	24.26	-30.6	-34.0	19.1	6.09e-01	0	44	102	145227776	21	5340
2026-01-19 13:01:58.70	316.33	24.12	-30.6	-33.5	19.1	6.05e-01	0	44	102	145227776	22	5049
2026-01-19 13:01:59.71	316.54	23.98	-30.6	-33.5	19.1	6.05e-01	0	44	102	145227776	22	5060
2026-01-19 13:02:00.71	316.74	23.85	-30.7	-33.8	18.9	6.05e-01	0	44	102	145227776	22	5148
2026-01-19 13:02:01.72	316.94	23.71	-30.6	-33.6	19.0	6.07e-01	0	44	102	145227776	22	5073
2026-01-19 13:02:02.72	317.14	23.57	-30.4	-33.2	19.3	6.07e-01	0	44	102	145227776	22	4926
2026-01-19 13:02:03.72	317.33	23.43	-30.3	-32.8	19.5	6.06e-01	0	44	102	145227776	22	4796
2026-01-19 13:02:04.73	317.53	23.30	-30.2	-32.6	19.6	6.05e-01	0	44	102	145227776	22	4725
2026-01-19 13:02:05.73	317.72	23.16	-30.3	-32.8	19.5	6.05e-01	0	44	102	145227776	22	4799
2026-01-19 13:02:06.73	317.91	23.02	-30.2	-32.6	19.5	6.05e-01	0	44	102	145227776	22	4748
2026-01-19 13:02:07.73	318.10	22.89	-30.2	-32.6	19.6	6.07e-01	0	44	102	145227776	22	4745
2026-01-19 13:02:08.73	318.29	22.76	-30.2	-32.5	19.6	6.04e-01	0	44	102	145227776	22	4714
2026-01-19 13:02:09.74	318.48	22.62	-30.1	-32.3	19.8	6.10e-01	0	44	102	145227776	22	4652
2026-01-19 13:02:10.75	318.66	22.49	-30.1	-32.4	19.7	6.07e-01	0	44	102	145227776	22	4668
2026-01-19 13:02:11.75	318.84	22.35	-30.3	-32.7	19.5	6.04e-01	0	44	102	145227776	22	4772
2026-01-19 13:02:12.75	319.03	22.22	-30.3	-32.8	19.5	6.07e-01	0	44	102	145227776	22	4790
2026-01-19 13:02:13.76	319.21	22.09	-30.2	-32.7	19.5	6.05e-01	0	44	102	145227776	22	4766
2026-01-19 13:02:14.76	319.38	21.96	-30.2	-32.7	19.5	6.10e-01	0	44	102	145227776	22	4763
2026-01-19 13:02:15.76	319.56	21.83	-30.2	-32.6	19.5	6.07e-01	0	44	102	145227776	22	4758
2026-01-19 13:02:16.76	319.74	21.70	-30.2	-32.6	19.5	6.07e-01	0	44	102	145227776	22	4754
2026-01-19 13:02:17.77	319.91	21.56	-30.2	-32.7	19.5	6.06e-01	0	44	102	145227776	22	4761
2026-01-19 13:02:18.77	320.08	21.43	-30.2	-32.7	19.5	6.05e-01	0	44	102	145227776	22	4759
2026-01-19 13:02:19.78	320.25	21.30	-30.3	-32.7	19.4	6.07e-01	0	44	102	145227776	22	4793
2026-01-19 13:02:20.79	320.42	21.17	-30.2	-32.6	19.5	6.05e-01	0	44	102	145227776	22	4734
2026-01-19 13:02:21.79	320.59	21.05	-30.1	-32.4	19.6	6.06e-01	0	44	102	145227776	22	4692
2026-01-19 13:02:22.80	320.76	20.92	-30.2	-32.5	19.6	6.05e-01	0	44	102	145227776	22	4708
2026-01-19 13:02:23.80	320.92	20.79	-30.1	-32.4	19.6	6.04e-01	0	44	102	145227776	22	4667
2026-01-19 13:02:24.81	321.09	20.66	-30.2	-32.5	19.6	6.05e-01	0	44	102	145227776	22	4708
2026-01-19 13:02:25.82	321.25	20.54	-30.2	-32.7	19.5	6.05e-01	0	44	102	145227776	22	4763
2026-01-19 13:02:26.82	321.41	20.41	-30.2	-32.7	19.4	6.05e-01	0	44	102	145227776	22	4775
2026-01-19 13:02:27.82	321.57	20.29	-30.2	-32.6	19.5	6.07e-01	0	44	102	145227776	22	4759
2026-01-19 13:02:28.83	321.73	20.16	-30.3	-32.9	19.3	6.05e-01	0	44	102	145227776	22	4855
2026-01-19 13:02:29.84	321.89	20.03	-30.3	-32.7	19.4	6.05e-01	0	44	102	145227776	22	4793
2026-01-19 13:02:30.84	322.04	19.91	-30.2	-32.5	19.5	6.05e-01	0	44	102	145227776	22	4719
2026-01-19 13:02:31.84	322.20	19.79	-30.2	-32.6	19.5	6.05e-01	0	44	102	145227776	22	4758
2026-01-19 13:02:32.84	322.35	19.66	-30.2	-32.6	19.5	6.06e-01	0	44	102	145227776	22	4737
2026-01-19 13:02:33.85	322.50	19.54	-30.3	-32.9	19.3	6.06e-01	0	44	102	145227776	22	4854
2026-01-19 13:02:34.85	322.65	19.42	-30.2	-32.7	19.4	6.04e-01	0	44	102	145227776	22	4780
2026-01-19 13:02:35.85	322.80	19.30	-30.1	-32.4	19.6	6.06e-01	0	44	102	145227776	22	4669
2026-01-19 13:02:36.86	322.95	19.18	-30.1	-32.3	19.6	6.01e-01	0	44	102	145227776	22	4657
2026-01-19 13:02:37.86	323.10	19.06	-30.1	-32.4	19.6	6.01e-01	0	44	102	145227776	22	4683
2026-01-19 13:02:38.87	323.24	18.94	-30.1	-32.3	19.6	6.01e-01	0	44	102	145227776	22	4643
2026-01-19 13:02:39.87	323.39	18.82	-30.0	-32.2	19.7	6.01e-01	0	44	102	145227776	22	4624
2026-01-19 13:02:40.87	323.53	18.70	-30.1	-32.4	19.6	6.01e-01	0	44	102	145227776	22	4669
2026-01-19 13:02:41.87	323.67	18.58	-30.3	-32.8	19.3	6.01e-01	0	44	102	145227776	22	4812
2026-01-19 13:02:42.87	323.81	18.46	-30.1	-32.5	19.5	6.01e-01	0	44	102	145227776	22	4707
2026-01-19 13:02:43.87	323.95	18.34	-30.0	-32.1	19.7	6.03e-01	0	44	102	145227776	22	4572
2026-01-19 13:02:44.88	324.09	18.23	-29.9	-31.8	19.9	6.00e-01	0	44	102	145227776	22	4492
2026-01-19 13:02:45.88	324.23	18.11	-29.8	-32.2	19.9	6.01e-01	0	44	102	145227776	21	4711
2026-01-19 13:02:46.89	324.37	17.99	-29.8	-32.2	19.9	6.02e-01	0	44	102	145227776	21	4719
2026-01-19 13:02:47.89	324.50	17.88	-29.8	-32.2	19.9	6.01e-01	0	44	102	145227776	21	4721
2026-01-19 13:02:48.90	324.64	17.76	-29.8	-32.1	20.0	6.02e-01	0	44	102	145227776	21	4703
2026-01-19 13:02:49.90	324.77	17.64	-29.9	-32.3	19.8	6.02e-01	0	44	102	145227776	21	4755
2026-01-19 13:02:50.90	324.90	17.53	-29.8	-32.2	19.9	6.00e-01	0	44	102	145227776	21	4746
2026-01-19 13:02:51.90	325.03	17.42	-29.9	-32.3	19.8	6.01e-01	0	44	102	145227776	21	4776
2026-01-19 13:02:52.91	325.17	17.30	-30.0	-32.5	19.7	6.01e-01	0	44	102	145227776	21	4840
2026-01-19 13:02:53.91	325.29	17.19	-29.9	-32.5	19.8	6.03e-01	0	44	102	145227776	21	4820
2026-01-19 13:02:54.91	325.42	17.08	-30.0	-32.6	19.7	5.98e-01	0	44	102	145227776	21	4864
2026-01-19 13:02:55.92	325.55	16.96	-30.0	-32.7	19.6	6.03e-01	0	44	102	145227776	21	4901
2026-01-19 13:02:56.93	325.68	16.85	-30.1	-32.8	19.5	5.99e-01	0	44	102	145227776	21	4948
2026-01-19 13:02:57.93	325.80	16.74	-30.2	-33.2	19.3	6.02e-01	0	44	102	145227776	21	5080
2026-01-19 13:02:58.93	325.93	16.63	-30.1	-32.9	19.4	6.01e-01	0	44	102	145227776	21	4971
2026-01-19 13:02:59.94	326.05	16.52	-30.0	-32.6	19.6	6.01e-01	0	44	102	145227776	21	4872
2026-01-19 13:03:00.94	326.17	16.41	-30.0	-32.7	19.6	6.04e-01	0	44	102	145227776	21	4904
2026-01-19 13:03:01.95	326.30	16.30	-30.0	-32.7	19.5	6.00e-01	0	44	102	145227776	21	4922
2026-01-19 13:03:02.95	326.42	16.19	-30.0	-32.6	19.6	6.02e-01	0	44	102	145227776	21	4881
2026-01-19 13:03:03.95	326.54	16.08	-30.0	-32.6	19.6	6.01e-01	0	44	102	145227776	21	4888
2026-01-19 13:03:04.96	326.66	15.97	-30.1	-32.9	19.4	6.03e-01	0	44	102	145227776	21	4973
2026-01-19 13:03:05.96	326.77	15.86	-30.0	-32.5	19.6	6.02e-01	0	44	102	145227776	21	4849
2026-01-19 13:03:06.97	326.89	15.76	-29.9	-32.4	19.7	6.00e-01	0	44	102	145227776	21	4790
2026-01-19 13:03:07.98	327.01	15.65	-29.9	-32.4	19.7	6.00e-01	0	44	102	145227776	21	4801
2026-01-19 13:03:08.98	327.13	15.54	-29.9	-32.4	19.7	6.01e-01	0	44	102	145227776	21	4817
2026-01-19 13:03:09.99	327.24	15.43	-30.0	-32.6	19.6	6.04e-01	0	44	102	145227776	21	4871
2026-01-19 13:03:10.99	327.35	15.33	-30.2	-33.1	19.3	6.04e-01	0	44	102	145227776	21	5062
2026-01-19 13:03:11.99	327.47	15.22	-30.1	-32.8	19.4	6.04e-01	0	44	102	145227776	21	4960
2026-01-19 13:03:12.99	327.58	15.12	-30.3	-33.4	19.0	6.00e-01	0	44	102	145227776	21	5149
2026-01-19 13:03:14.00	327.69	15.01	-30.1	-33.0	19.2	6.02e-01	0	44	102	145227776	21	5036
2026-01-19 13:03:15.00	327.80	14.91	-30.0	-32.7	19.5	6.02e-01	0	44	102	145227776	21	4897
2026-01-19 13:03:16.01	327.91	14.81	-30.0	-32.7	19.4	6.03e-01	0	44	102	145227776	21	4900
2026-01-19 13:03:17.01	328.02	14.70	-30.0	-32.7	19.4	6.03e-01	0	44	102	145227776	21	4920
2026-01-19 13:03:18.01	328.13	14.60	-30.1	-32.9	19.3	6.04e-01	0	44	102	145227776	21	4996
2026-01-19 13:03:19.01	328.24	14.50	-30.0	-32.8	19.4	6.03e-01	0	44	102	145227776	21	4963
2026-01-19 13:03:20.02	328.34	14.39	-30.0	-32.8	19.4	6.00e-01	0	44	102	145227776	21	4944
2026-01-19 13:03:21.02	328.45	14.29	-30.1	-33.1	19.2	6.02e-01	0	44	102	145227776	21	5060
2026-01-19 13:03:22.03	328.56	14.19	-30.1	-32.9	19.3	6.01e-01	0	44	102	145227776	21	4990
2026-01-19 13:03:23.04	328.66	14.09	-30.0	-32.8	19.3	6.01e-01	0	44	102	145227776	21	4971
2026-01-19 13:03:24.04	328.77	13.99	-30.1	-33.0	19.3	6.01e-01	0	44	102	145227776	21	5010
2026-01-19 13:03:25.05	328.87	13.89	-30.2	-33.3	19.0	6.00e-01	0	44	102	145227776	21	5145
2026-01-19 13:03:26.05	328.97	13.79	-30.1	-33.0	19.2	6.01e-01	0	44	102	145227776	21	5011
2026-01-19 13:03:27.06	329.07	13.69	-30.0	-32.8	19.3	6.03e-01	0	44	102	145227776	21	4972
2026-01-19 13:03:28.06	329.18	13.59	-30.1	-33.1	19.2	5.99e-01	0	44	102	145227776	21	5047
2026-01-19 13:03:29.07	329.28	13.49	-30.2	-33.4	19.0	6.01e-01	0	44	102	145227776	21	5173
2026-01-19 13:03:30.07	329.38	13.39	-30.1	-33.0	19.2	6.03e-01	0	44	102	145227776	21	5025
2026-01-19 13:03:31.08	329.48	13.29	-30.3	-33.4	18.9	6.02e-01	0	44	102	145227776	21	5183
2026-01-19 13:03:32.08	329.57	13.19	-30.2	-33.2	19.1	6.01e-01	0	44	102	145227776	21	5104
2026-01-19 13:03:33.07	329.67	13.10	-30.1	-33.0	19.2	6.02e-01	0	44	102	145227776	21	5041
2026-01-19 13:03:34.08	329.77	13.00	-30.1	-33.1	19.1	5.99e-01	0	44	102	145227776	21	5073
2026-01-19 13:03:35.08	329.86	12.90	-30.2	-33.2	19.1	6.01e-01	0	44	102	145227776	21	5094
2026-01-19 13:03:36.08	329.96	12.81	-30.2	-33.3	19.0	6.03e-01	0	44	102	145227776	21	5128
2026-01-19 13:03:37.09	330.05	12.71	-30.3	-33.5	18.9	6.00e-01	0	44	102	145227776	21	5218
2026-01-19 13:03:38.09	330.15	12.62	-30.2	-33.4	19.0	6.04e-01	0	44	102	145227776	21	5162
2026-01-19 13:03:39.10	330.24	12.52	-30.3	-33.7	18.7	6.04e-01	0	44	102	145227776	21	5289
2026-01-19 13:03:40.10	330.34	12.43	-30.2	-33.4	18.9	6.00e-01	0	44	102	145227776	21	5205
2026-01-19 13:03:41.11	330.43	12.33	-30.2	-33.4	18.9	6.02e-01	0	44	102	145227776	21	5199
2026-01-19 13:03:42.11	330.52	12.24	-30.3	-33.6	18.8	6.02e-01	0	44	102	145227776	21	5245
2026-01-19 13:03:43.12	330.61	12.14	-30.2	-33.4	18.9	6.03e-01	0	44	102	145227776	21	5169
2026-01-19 13:03:44.12	330.70	12.05	-30.3	-33.5	18.8	6.01e-01	0	44	102	145227776	21	5213
2026-01-19 13:03:45.13	330.79	11.96	-30.3	-33.6	18.8	6.02e-01	0	44	102	145227776	21	5247
2026-01-19 13:03:46.14	330.89	11.86	-30.3	-33.6	18.7	6.02e-01	0	44	102	145227776	21	5274
2026-01-19 13:03:47.14	330.97	11.77	-30.2	-33.4	18.9	6.02e-01	0	44	102	145227776	21	5176
2026-01-19 13:03:48.14	331.06	11.68	-30.3	-33.5	18.8	6.01e-01	0	44	102	145227776	21	5221
2026-01-19 13:03:49.14	331.15	11.59	-30.4	-33.8	18.6	6.01e-01	0	44	102	145227776	21	5360
2026-01-19 13:03:50.14	331.24	11.50	-30.3	-33.7	18.6	6.01e-01	0	44	102	145227776	21	5305
2026-01-19 13:03:51.14	331.32	11.41	-30.4	-34.0	18.5	6.01e-01	0	44	102	145227776	21	5417
2026-01-19 13:03:52.15	331.41	11.31	-30.5	-34.3	18.3	6.00e-01	0	44	102	145227776	21	5529
2026-01-19 13:03:53.15	331.50	11.22	-30.3	-33.7	18.6	6.01e-01	0	44	102	145227776	21	5306
2026-01-19 13:03:54.15	331.58	11.13	-30.4	-33.9	18.5	6.03e-01	0	44	102	145227776	21	5397
2026-01-19 13:03:55.16	331.67	11.04	-30.5	-34.1	18.3	6.01e-01	0	44	102	145227776	21	5480
2026-01-19 13:03:56.16	331.75	10.95	-30.6	-34.0	18.1	6.03e-01	0	44	102	145227776	22	5315
2026-01-19 13:03:57.16	331.83	10.87	-30.5	-33.6	18.3	6.04e-01	0	44	102	145227776	22	5176
2026-01-19 13:03:58.17	331.92	10.78	-30.4	-33.5	18.4	6.00e-01	0	44	102	145227776	22	5107
2026-01-19 13:03:59.17	332.00	10.69	-30.3	-33.2	18.6	6.02e-01	0	44	102	145227776	22	5000
2026-01-19 13:04:00.17	332.08	10.60	-30.4	-33.2	18.6	6.02e-01	0	44	102	145227776	22	5024
2026-01-19 13:04:01.18	332.16	10.51	-30.5	-33.6	18.4	6.03e-01	0	44	102	145227776	22	5146
2026-01-19 13:04:02.18	332.24	10.42	-30.4	-33.4	18.5	6.02e-01	0	44	102	145227776	22	5071
2026-01-19 13:04:03.19	332.33	10.34	-30.4	-33.4	18.5	6.02e-01	0	44	102	145227776	22	5066
2026-01-19 13:04:04.20	332.41	10.25	-30.4	-33.3	18.5	6.03e-01	0	44	102	145227776	22	5073
2026-01-19 13:04:05.20	332.49	10.16	-30.5	-33.7	18.3	5.99e-01	0	44	102	145227776	22	5183
2026-01-19 13:04:06.20	332.56	10.08	-30.5	-33.6	18.3	6.04e-01	0	44	102	145227776	22	5171
2026-01-19 13:04:07.21	332.64	9.99	-30.5	-33.8	18.1	6.00e-01	0	44	102	145227776	22	5261
2026-01-19 13:04:08.21	332.72	9.90	-30.5	-33.7	18.2	6.02e-01	0	44	102	145227776	22	5202
2026-01-19 13:04:09.21	332.80	9.82	-30.6	-33.9	18.1	6.00e-01	0	44	102	145227776	22	5277
2026-01-19 13:04:10.22	332.88	9.73	-30.6	-33.9	18.1	6.03e-01	0	44	102	145227776	22	5294
2026-01-19 13:04:11.22	332.95	9.65	-30.6	-33.9	18.1	6.00e-01	0	44	102	145227776	22	5274
2026-01-19 13:04:12.22	333.03	9.56	-30.7	-34.4	17.8	6.00e-01	0	44	102	145227776	22	5473
2026-01-19 13:04:13.23	333.11	9.48	-30.6	-33.9	18.0	6.05e-01	0	44	102	145227776	22	5309
2026-01-19 13:04:14.24	333.18	9.39	-30.5	-33.8	18.1	6.01e-01	0	44	102	145227776	22	5241
2026-01-19 13:04:15.24	333.26	9.31	-30.6	-34.0	18.0	6.04e-01	0	44	102	145227776	22	5347
2026-01-19 13:04:16.25	333.33	9.23	-30.7	-34.2	17.8	6.02e-01	0	44	102	145227776	22	5429
2026-01-19 13:04:17.25	333.41	9.14	-30.7	-34.4	17.7	6.00e-01	0	44	102	145227776	22	5496
2026-01-19 13:04:18.26	333.48	9.06	-30.9	-35.1	17.2	6.01e-01	0	44	102	145227776	22	5796
2026-01-19 13:04:19.26	333.55	8.98	-30.9	-35.0	17.3	6.03e-01	0	44	102	145227776	22	5753
2026-01-19 13:04:20.26	333.63	8.89	-31.1	-35.5	16.9	5.99e-01	0	44	102	145227776	22	5977
2026-01-19 13:04:21.26	333.70	8.81	-30.8	-34.8	17.4	6.01e-01	0	44	102	145227776	22	5659
2026-01-19 13:04:22.27	333.77	8.73	-30.7	-34.3	17.7	6.00e-01	0	44	102	145227776	22	5467
2026-01-19 13:04:23.27	333.84	8.65	-30.7	-34.4	17.7	6.04e-01	0	44	102	145227776	22	5493
2026-01-19 13:04:24.27	333.91	8.57	-30.8	-34.7	17.5	6.03e-01	0	44	102	145227776	22	5623
2026-01-19 13:04:25.27	333.98	8.49	-30.7	-34.4	17.6	6.02e-01	0	44	102	145227776	22	5517
2026-01-19 13:04:26.27	334.05	8.41	-30.8	-34.7	17.5	6.00e-01	0	44	102	145227776	22	5634
2026-01-19 13:04:27.27	334.12	8.33	-30.7	-34.4	17.6	6.03e-01	0	44	102	145227776	22	5490
2026-01-19 13:04:28.27	334.19	8.25	-30.8	-34.7	17.4	6.02e-01	0	44	102	145227776	22	5657
2026-01-19 13:04:29.28	334.26	8.16	-30.8	-34.6	17.5	6.03e-01	0	44	102	145227776	22	5601
2026-01-19 13:04:30.28	334.33	8.09	-30.9	-34.9	17.3	6.02e-01	0	44	102	145227776	22	5731
2026-01-19 13:04:31.28	334.40	8.01	-30.9	-35.1	17.0	6.02e-01	0	44	102	145227776	22	5838
2026-01-19 13:04:32.29	334.47	7.93	-31.0	-35.2	17.0	6.02e-01	0	44	102	145227776	22	5897
2026-01-19 13:04:33.29	334.54	7.85	-30.8	-34.9	17.2	6.01e-01	0	44	102	145227776	22	5753
2026-01-19 13:04:34.29	334.60	7.77	-30.9	-35.2	16.9	6.02e-01	0	44	102	145227776	22	5890
2026-01-19 13:04:35.29	334.67	7.69	-30.8	-34.8	17.2	6.00e-01	0	44	102	145227776	22	5719
2026-01-19 13:04:36.30	334.74	7.61	-31.0	-35.4	16.9	6.02e-01	0	44	102	145227776	22	5958
2026-01-19 13:04:37.30	334.80	7.53	-30.9	-35.0	17.1	6.02e-01	0	44	102	145227776	22	5792
2026-01-19 13:04:38.30	334.87	7.46	-30.7	-34.6	17.3	6.02e-01	0	44	102	145227776	22	5624
2026-01-19 13:04:39.30	334.93	7.38	-30.9	-35.0	17.1	6.00e-01	0	44	102	145227776	22	5800
2026-01-19 13:04:40.31	335.00	7.30	-30.9	-35.0	17.1	6.01e-01	0	44	102	145227776	22	5774
2026-01-19 13:04:41.32	335.06	7.22	-30.9	-35.0	17.1	6.01e-01	0	44	102	145227776	22	5779
2026-01-19 13:04:42.32	335.13	7.15	-30.9	-35.0	17.0	6.02e-01	0	44	102	145227776	22	5813
2026-01-19 13:04:43.32	335.19	7.07	-31.4	-36.2	16.4	5.99e-01	0	44	102	145227776	23	6269
2026-01-19 13:04:44.33	335.26	6.99	-33.9	-53.4	3.8	7.44e-01	0	44	104	145227776	28	33700
2026-01-19 13:04:45.33	335.32	6.92	-34.2	-53.4	3.8	7.49e-01	0	44	104	145227776	29	32963
2026-01-19 13:04:46.33	335.38	6.84	-34.4	-53.8	3.8	7.47e-01	0	44	104	145227776	29	33557

#Closed at: 2026-01-19 13:04:46
#Recorded file [145 MB]: D:/data/31010_260119_155441.dat