passes_logs/2026/01/19/R2M6_AANII_01/R2M6_AANII_01__20260119_031839_AQUA_rec.log

#Pass ID: 20260119_031839_AQUA
#Satellite: AQUA
#Configuration: AQUA
#almurnet v.1.7.20240730
#Start time: 2026-01-19 03:18:41

#Version: 2.2.20231116
#Station: R2M6_AANII_01
#Location: 30.233357 lon 59.946436 lat
#TLE: 1 27424U 02022A   26017.96925465  .00000866  00000+0  18326-3 0  9999
#TLE: 2 27424  98.4087 344.4465 0002004  74.6027 356.0068 14.61826972261327

#Time	Az	El	Level	Level2	SNR	BER	BlckErr	Temp	State	Recorded	gain1	gain2
2026-01-19 03:18:41.37	8.79	7.10	-32.5	-48.1	3.8	7.47e-01	0	41	0	0	25	21812
2026-01-19 03:18:42.36	8.71	7.17	-32.4	-47.9	3.8	7.47e-01	0	42	104	0	25	21319
2026-01-19 03:18:43.37	8.63	7.25	-32.5	-48.0	3.8	7.44e-01	0	42	104	0	25	21506
2026-01-19 03:18:44.38	8.55	7.32	-32.5	-48.0	3.8	7.44e-01	0	42	104	0	25	21414
2026-01-19 03:18:45.38	8.47	7.40	-32.6	-48.3	3.8	7.42e-01	0	42	104	0	25	21931
2026-01-19 03:18:46.39	8.38	7.47	-32.5	-47.5	3.8	7.42e-01	0	42	104	0	26	20264
2026-01-19 03:18:47.39	8.30	7.55	-32.2	-47.0	3.8	7.47e-01	0	42	104	0	25	19612
2026-01-19 03:18:48.40	8.22	7.62	-32.0	-46.7	3.8	7.44e-01	0	42	104	0	24	19497
2026-01-19 03:18:49.40	8.13	7.70	-31.9	-46.3	3.8	7.45e-01	0	42	104	0	24	18884
2026-01-19 03:18:50.40	8.05	7.77	-31.6	-45.4	3.8	7.43e-01	0	42	104	0	24	17608
2026-01-19 03:18:51.40	7.96	7.85	-31.5	-45.6	3.8	7.44e-01	0	42	104	0	23	18059
2026-01-19 03:18:52.40	7.88	7.92	-31.6	-45.4	3.8	7.42e-01	0	42	104	0	24	17514
2026-01-19 03:18:53.41	7.79	8.00	-31.6	-45.2	3.8	7.44e-01	0	42	104	0	24	17243
2026-01-19 03:18:54.41	7.70	8.08	-31.3	-44.8	3.8	7.46e-01	0	42	104	0	23	17093
2026-01-19 03:18:55.41	7.62	8.15	-31.1	-44.3	3.8	7.45e-01	0	42	104	0	23	16360
2026-01-19 03:18:56.42	7.53	8.23	-31.0	-44.6	3.8	7.47e-01	0	42	104	0	22	17139
2026-01-19 03:18:57.42	7.44	8.30	-31.0	-44.4	3.8	7.46e-01	0	42	104	0	22	16881
2026-01-19 03:18:58.43	7.35	8.38	-31.1	-44.6	3.8	7.45e-01	0	42	104	0	22	17127
2026-01-19 03:18:59.43	7.26	8.46	-31.2	-44.4	3.8	7.43e-01	0	42	104	0	23	16557
2026-01-19 03:19:00.43	7.17	8.54	-31.4	-45.1	3.8	7.45e-01	0	42	104	0	23	17371
2026-01-19 03:19:01.43	7.08	8.61	-31.7	-45.4	3.8	7.47e-01	0	42	104	0	24	17528
2026-01-19 03:19:02.43	6.99	8.69	-32.0	-46.4	3.8	7.44e-01	0	42	104	0	24	19018
2026-01-19 03:19:03.44	6.90	8.77	-32.2	-46.8	3.8	7.45e-01	0	42	104	0	25	19217
2026-01-19 03:19:04.44	6.81	8.85	-32.4	-47.5	3.8	7.44e-01	0	42	104	0	25	20336
2026-01-19 03:19:05.44	6.72	8.92	-32.5	-47.7	3.8	7.47e-01	0	42	104	0	25	20793
2026-01-19 03:19:06.45	6.62	9.00	-32.5	-47.9	3.8	7.44e-01	0	42	104	0	25	21213
2026-01-19 03:19:07.45	6.53	9.08	-32.7	-47.9	3.8	7.47e-01	0	42	104	0	26	20836
2026-01-19 03:19:08.45	6.44	9.16	-32.8	-48.4	3.8	7.48e-01	0	42	104	0	26	21644
2026-01-19 03:19:09.45	6.34	9.24	-32.9	-49.0	3.8	7.48e-01	0	42	104	0	26	22836
2026-01-19 03:19:10.45	6.25	9.32	-33.0	-49.4	3.8	7.44e-01	0	42	104	0	26	23784
2026-01-19 03:19:11.46	6.15	9.40	-33.2	-49.7	3.8	7.45e-01	0	43	104	0	27	23963
2026-01-19 03:19:12.46	6.05	9.48	-33.3	-50.3	3.8	7.45e-01	0	42	104	0	27	25288
2026-01-19 03:19:13.47	5.96	9.56	-33.4	-50.8	3.8	7.46e-01	0	42	104	0	27	26717
2026-01-19 03:19:14.47	5.86	9.64	-33.5	-51.3	3.8	7.46e-01	0	43	104	0	27	27801
2026-01-19 03:19:15.47	5.76	9.72	-33.6	-51.6	3.8	7.43e-01	0	43	104	0	27	28867
2026-01-19 03:19:16.47	5.66	9.80	-33.5	-51.3	3.8	7.43e-01	0	43	104	0	28	27698
2026-01-19 03:19:17.47	5.56	9.88	-33.5	-51.3	3.8	7.47e-01	0	43	104	0	28	27778
2026-01-19 03:19:18.47	5.46	9.96	-33.5	-51.0	3.8	7.46e-01	0	43	104	0	28	26847
2026-01-19 03:19:19.47	5.36	10.04	-33.5	-51.3	3.8	7.43e-01	0	43	104	0	27	27876
2026-01-19 03:19:20.48	5.26	10.12	-33.5	-50.9	3.8	7.44e-01	0	43	104	0	27	26780
2026-01-19 03:19:21.49	5.16	10.20	-33.4	-50.6	3.8	7.43e-01	0	43	104	0	27	26046
2026-01-19 03:19:22.49	5.06	10.29	-33.4	-50.5	3.8	7.44e-01	0	43	104	0	27	25663
2026-01-19 03:19:23.49	4.95	10.37	-33.4	-50.2	3.8	7.42e-01	0	43	104	0	27	24932
2026-01-19 03:19:24.50	4.85	10.45	-33.3	-49.8	3.8	7.47e-01	0	43	104	0	27	24053
2026-01-19 03:19:25.51	4.74	10.53	-33.2	-49.3	3.8	7.43e-01	0	43	104	0	27	22941
2026-01-19 03:19:26.51	4.64	10.62	-33.0	-48.5	3.8	7.43e-01	0	43	104	0	27	21405
2026-01-19 03:19:27.52	4.53	10.70	-32.8	-48.1	3.8	7.47e-01	0	43	104	0	26	20986
2026-01-19 03:19:28.52	4.42	10.78	-32.5	-47.0	3.8	7.44e-01	0	43	104	0	26	19053
2026-01-19 03:19:29.52	4.32	10.87	-32.3	-46.8	3.8	7.41e-01	0	43	104	0	25	19015
2026-01-19 03:19:30.52	4.21	10.95	-32.3	-46.7	3.8	7.45e-01	0	43	104	0	25	19030
2026-01-19 03:19:31.53	4.10	11.03	-32.3	-46.7	3.8	7.47e-01	0	43	104	0	25	18983
2026-01-19 03:19:32.54	3.99	11.12	-32.4	-47.1	3.8	7.45e-01	0	43	104	0	25	19496
2026-01-19 03:19:33.54	3.88	11.20	-32.4	-47.1	3.8	7.43e-01	0	43	104	0	25	19584
2026-01-19 03:19:34.54	3.77	11.29	-32.6	-47.6	3.8	7.41e-01	0	43	104	0	25	20345
2026-01-19 03:19:35.54	3.66	11.37	-32.6	-47.3	3.8	7.43e-01	0	43	104	0	26	19529
2026-01-19 03:19:36.55	3.55	11.46	-32.4	-47.2	3.8	7.44e-01	0	43	104	0	25	19682
2026-01-19 03:19:37.55	3.43	11.54	-32.1	-46.2	3.8	7.48e-01	0	43	104	0	25	18198
2026-01-19 03:19:38.55	3.32	11.63	-31.9	-46.0	3.8	7.44e-01	0	43	104	0	24	18102
2026-01-19 03:19:39.56	3.20	11.71	-31.7	-45.1	3.8	7.43e-01	0	43	104	0	24	16960
2026-01-19 03:19:40.56	3.09	11.80	-31.5	-45.1	3.8	7.46e-01	0	43	104	0	23	17323
2026-01-19 03:19:41.57	2.97	11.88	-31.4	-44.9	3.8	7.41e-01	0	43	104	0	23	17039
2026-01-19 03:19:42.57	2.86	11.97	-31.2	-44.3	3.8	7.46e-01	0	43	104	0	23	16328
2026-01-19 03:19:43.58	2.74	12.06	-31.0	-43.7	3.8	7.44e-01	0	43	104	0	23	15532
2026-01-19 03:19:44.59	2.62	12.14	-30.8	-43.7	3.8	7.45e-01	0	43	104	0	22	15893
2026-01-19 03:19:45.58	2.50	12.23	-30.7	-43.5	3.8	7.45e-01	0	43	104	0	22	15678
2026-01-19 03:19:46.58	2.38	12.32	-30.7	-43.4	3.9	7.44e-01	0	43	104	0	22	15537
2026-01-19 03:19:47.58	2.26	12.40	-30.7	-43.4	3.8	7.44e-01	0	43	104	0	22	15582
2026-01-19 03:19:48.59	2.14	12.49	-30.8	-43.6	3.8	7.48e-01	0	43	104	0	22	15822
2026-01-19 03:19:49.59	2.02	12.58	-31.0	-44.2	3.8	7.45e-01	0	43	104	0	22	16469
2026-01-19 03:19:50.58	1.90	12.67	-31.2	-44.3	3.8	7.45e-01	0	43	104	0	23	16231
2026-01-19 03:19:51.59	1.77	12.75	-31.5	-45.2	3.8	7.42e-01	0	43	104	0	23	17320
2026-01-19 03:19:52.59	1.65	12.84	-31.9	-45.8	3.8	7.44e-01	0	43	104	0	24	17801
2026-01-19 03:19:53.60	1.52	12.93	-32.2	-46.3	3.8	7.48e-01	0	43	104	0	25	18180
2026-01-19 03:19:54.61	1.39	13.02	-32.4	-47.0	3.8	7.44e-01	0	43	104	0	25	19259
2026-01-19 03:19:55.62	1.27	13.11	-32.5	-47.3	3.8	7.45e-01	0	43	104	0	25	19792
2026-01-19 03:19:56.62	1.14	13.20	-32.6	-47.3	3.9	7.44e-01	0	43	104	0	26	19441
2026-01-19 03:19:57.62	1.01	13.29	-32.8	-48.0	3.8	7.45e-01	0	43	104	0	26	20588
2026-01-19 03:19:58.62	0.88	13.38	-33.0	-48.6	3.8	7.47e-01	0	43	104	0	26	21763
2026-01-19 03:19:59.62	0.75	13.47	-32.9	-48.4	3.8	7.47e-01	0	43	104	0	26	21461
2026-01-19 03:20:00.63	0.62	13.56	-32.8	-47.8	3.8	7.47e-01	0	43	104	0	26	20241
2026-01-19 03:20:01.63	0.49	13.65	-32.9	-48.2	3.8	7.44e-01	0	43	104	0	26	21000
2026-01-19 03:20:02.64	0.35	13.74	-33.1	-48.7	3.8	7.46e-01	0	43	104	0	27	21534
2026-01-19 03:20:03.65	0.22	13.83	-33.3	-49.5	3.8	7.44e-01	0	43	104	0	27	23132
2026-01-19 03:20:04.65	0.08	13.92	-33.5	-50.2	3.8	7.44e-01	0	43	104	0	27	24581
2026-01-19 03:20:05.65	359.95	14.02	-33.5	-50.1	3.9	7.44e-01	0	43	104	0	28	24190
2026-01-19 03:20:06.65	359.81	14.11	-33.6	-50.5	3.8	7.47e-01	0	43	104	0	28	25255
2026-01-19 03:20:07.66	359.67	14.20	-33.6	-50.5	3.8	7.46e-01	0	43	104	0	28	25159
2026-01-19 03:20:08.66	359.53	14.29	-33.5	-50.1	3.8	7.45e-01	0	43	104	0	28	24341
2026-01-19 03:20:09.67	359.39	14.38	-33.5	-49.8	3.8	7.44e-01	0	43	104	0	28	23661
2026-01-19 03:20:10.67	359.25	14.48	-33.5	-50.3	3.8	7.46e-01	0	43	104	0	27	24858
2026-01-19 03:20:11.68	359.11	14.57	-33.5	-50.2	3.8	7.42e-01	0	44	104	0	27	24473
2026-01-19 03:20:12.68	358.97	14.66	-33.5	-50.0	3.8	7.42e-01	0	43	104	0	27	24147
2026-01-19 03:20:13.68	358.83	14.76	-33.5	-49.8	3.8	7.46e-01	0	43	104	0	27	23683
2026-01-19 03:20:14.68	358.68	14.85	-33.4	-49.4	3.8	7.47e-01	0	43	104	0	27	22728
2026-01-19 03:20:15.69	358.53	14.94	-33.2	-48.6	3.8	7.46e-01	0	43	104	0	27	21310
2026-01-19 03:20:16.69	358.39	15.04	-33.0	-47.8	3.8	7.43e-01	0	43	104	0	27	19769
2026-01-19 03:20:17.69	358.24	15.13	-32.6	-47.1	3.8	7.45e-01	0	43	104	0	26	19019
2026-01-19 03:20:18.69	358.09	15.23	-32.3	-46.0	3.8	7.47e-01	0	43	104	0	26	17371
2026-01-19 03:20:19.69	357.94	15.32	-32.2	-46.1	3.8	7.44e-01	0	43	104	0	25	17859
2026-01-19 03:20:20.69	357.79	15.41	-32.3	-46.6	3.8	7.45e-01	0	43	104	0	25	18529
2026-01-19 03:20:21.69	357.64	15.51	-32.5	-47.1	3.8	7.42e-01	0	44	104	0	25	19297
2026-01-19 03:20:22.70	357.49	15.60	-31.6	-46.2	3.8	7.47e-01	0	43	104	0	26	19365
2026-01-19 03:20:23.71	357.33	15.70	-32.7	-47.3	3.8	7.44e-01	0	43	104	0	25	19292
2026-01-19 03:20:24.72	357.18	15.80	-32.5	-47.0	3.8	7.44e-01	0	43	104	0	25	19120
2026-01-19 03:20:25.72	357.02	15.89	-32.3	-46.4	3.8	7.44e-01	0	44	104	0	25	18286
2026-01-19 03:20:26.73	356.86	15.99	-32.1	-46.1	3.8	7.47e-01	0	43	104	0	24	18232
2026-01-19 03:20:27.74	356.70	16.09	-31.7	-45.0	3.8	7.45e-01	0	43	104	0	24	16637
2026-01-19 03:20:28.74	356.55	16.18	-31.3	-44.5	3.8	7.45e-01	0	43	104	0	23	16384
2026-01-19 03:20:29.74	356.39	16.28	-31.0	-44.1	3.8	7.42e-01	0	43	104	0	22	16290
2026-01-19 03:20:30.75	356.22	16.38	-30.8	-43.6	3.8	7.44e-01	0	43	104	0	22	15629
2026-01-19 03:20:31.76	356.06	16.47	-30.6	-43.1	3.8	7.44e-01	0	43	104	0	22	15163
2026-01-19 03:20:32.76	355.90	16.57	-30.5	-43.3	3.8	7.44e-01	0	43	104	0	21	15674
2026-01-19 03:20:33.76	355.73	16.67	-30.4	-43.1	3.8	7.44e-01	0	44	104	0	21	15433
2026-01-19 03:20:34.76	355.57	16.77	-30.4	-42.9	3.8	7.42e-01	0	43	104	0	21	15272
2026-01-19 03:20:35.77	355.40	16.86	-30.4	-43.0	3.8	7.45e-01	0	43	104	0	21	15306
2026-01-19 03:20:36.77	355.23	16.96	-30.5	-43.2	3.8	7.42e-01	0	43	104	0	21	15531
2026-01-19 03:20:37.78	355.06	17.06	-30.7	-43.3	3.8	7.41e-01	0	44	104	0	22	15273
2026-01-19 03:20:38.78	354.89	17.16	-30.9	-43.8	3.8	7.46e-01	0	43	104	0	22	15970
2026-01-19 03:20:39.79	354.71	17.26	-31.1	-43.9	3.8	7.48e-01	0	44	104	0	23	15697
2026-01-19 03:20:40.80	354.54	17.36	-31.5	-44.7	3.9	7.41e-01	0	43	104	0	23	16574
2026-01-19 03:20:41.81	354.36	17.46	-31.6	-36.4	5.3	7.08e-01	0	44	0	0	24	6211
2026-01-19 03:20:42.81	354.19	17.56	-32.0	-37.5	5.2	7.08e-01	0	44	0	0	24	6796
2026-01-19 03:20:43.82	354.01	17.66	-31.7	-36.6	5.3	7.06e-01	0	43	0	0	24	6324
2026-01-19 03:20:44.82	353.83	17.76	-31.8	-36.9	5.3	7.11e-01	0	44	0	0	24	6445
2026-01-19 03:20:45.82	353.65	17.85	-31.7	-36.5	5.3	7.09e-01	0	44	0	0	24	6271
2026-01-19 03:20:46.83	353.47	17.96	-31.5	-36.4	5.3	7.09e-01	0	43	0	0	23	6319
2026-01-19 03:20:47.83	353.29	18.05	-31.3	-35.8	5.3	7.07e-01	0	43	0	0	23	6066
2026-01-19 03:20:48.83	353.11	18.15	-31.2	-35.6	5.3	7.08e-01	0	44	0	0	23	5953
2026-01-19 03:20:49.83	352.92	18.25	-31.1	-35.3	5.3	7.09e-01	0	43	0	0	23	5850
2026-01-19 03:20:50.84	352.73	18.36	-31.2	-35.6	5.3	7.06e-01	0	44	0	0	23	5963
2026-01-19 03:20:51.84	352.55	18.46	-31.2	-35.6	5.2	7.09e-01	0	44	0	0	23	5959
2026-01-19 03:20:52.85	352.36	18.56	-31.6	-36.7	5.2	7.09e-01	0	44	0	0	23	6455
2026-01-19 03:20:53.86	352.17	18.66	-31.3	-35.9	5.2	7.11e-01	0	44	0	0	23	6075
2026-01-19 03:20:54.85	351.98	18.76	-31.0	-34.9	5.3	7.10e-01	0	44	0	0	23	5633
2026-01-19 03:20:55.86	351.78	18.86	-30.7	-34.7	5.3	7.06e-01	0	44	0	0	22	5664
2026-01-19 03:20:56.86	351.59	18.96	-30.4	-34.4	5.3	7.08e-01	0	44	0	0	21	5670
2026-01-19 03:20:57.87	351.39	19.06	-30.3	-34.0	5.3	7.09e-01	0	44	0	0	21	5519
2026-01-19 03:20:58.87	351.20	19.16	-30.2	-33.7	5.3	7.06e-01	0	44	0	0	21	5417
2026-01-19 03:20:59.88	351.00	19.27	-30.2	-33.8	5.3	7.09e-01	0	44	0	0	21	5436
2026-01-19 03:21:00.89	350.79	19.37	-30.1	-33.6	5.3	7.06e-01	0	44	0	0	21	5366
2026-01-19 03:21:01.89	350.59	19.47	-30.0	-33.9	5.3	7.07e-01	0	44	0	0	20	5611
2026-01-19 03:21:02.89	350.39	19.57	-30.1	-34.0	5.3	7.04e-01	0	44	0	0	20	5635
2026-01-19 03:21:03.90	350.19	19.68	-30.1	-33.6	5.3	7.08e-01	0	44	0	0	21	5371
2026-01-19 03:21:04.89	349.98	19.78	-30.2	-33.8	5.4	7.06e-01	0	44	0	0	21	5451
2026-01-19 03:21:05.90	349.77	19.88	-30.1	-33.6	5.4	7.06e-01	0	44	0	0	21	5388
2026-01-19 03:21:06.90	349.57	19.98	-30.2	-33.7	5.3	7.09e-01	0	44	0	0	21	5425
2026-01-19 03:21:07.90	349.36	20.08	-30.1	-33.6	5.3	7.07e-01	0	44	0	0	21	5380
2026-01-19 03:21:08.90	349.14	20.19	-30.3	-34.0	5.3	7.08e-01	0	44	0	0	21	5516
2026-01-19 03:21:09.90	348.93	20.29	-30.3	-34.0	5.3	7.06e-01	0	44	0	0	21	5513
2026-01-19 03:21:10.90	348.72	20.39	-30.3	-34.1	5.3	7.08e-01	0	44	0	0	21	5550
2026-01-19 03:21:11.91	348.50	20.49	-30.4	-34.4	5.3	7.08e-01	0	44	0	0	21	5663
2026-01-19 03:21:12.91	348.28	20.60	-30.3	-34.1	5.3	7.06e-01	0	44	0	0	21	5564
2026-01-19 03:21:13.92	348.06	20.70	-30.4	-34.4	5.3	7.09e-01	0	44	0	0	21	5678
2026-01-19 03:21:14.92	347.84	20.80	-30.5	-34.6	5.3	7.08e-01	0	44	0	0	21	5762
2026-01-19 03:21:15.93	347.62	20.90	-30.5	-34.6	5.3	7.08e-01	0	43	0	0	21	5753
2026-01-19 03:21:16.93	347.39	21.01	-30.5	-34.7	5.3	7.10e-01	0	44	0	0	21	5786
2026-01-19 03:21:17.93	347.17	21.11	-30.7	-34.5	5.3	7.05e-01	0	44	0	0	22	5589
2026-01-19 03:21:18.93	346.94	21.21	-30.8	-34.8	5.3	7.04e-01	0	44	0	0	22	5721
2026-01-19 03:21:19.93	346.71	21.31	-30.7	-34.5	5.3	7.03e-01	0	44	0	0	22	5587
2026-01-19 03:21:20.94	346.48	21.42	-30.5	-34.4	5.3	7.09e-01	0	44	0	0	21	5677
2026-01-19 03:21:21.95	346.25	21.52	-30.4	-34.2	5.3	7.06e-01	0	44	0	0	21	5609
2026-01-19 03:21:22.95	346.01	21.62	-30.6	-34.7	5.3	7.06e-01	0	44	0	0	21	5792
2026-01-19 03:21:23.96	345.78	21.73	-30.4	-34.2	5.3	7.05e-01	0	44	0	0	21	5609
2026-01-19 03:21:24.96	345.54	21.83	-30.2	-33.8	5.3	7.06e-01	0	44	0	0	21	5435
2026-01-19 03:21:25.97	345.30	21.93	-30.2	-33.8	5.3	7.05e-01	0	44	0	0	21	5442
2026-01-19 03:21:26.97	345.06	22.03	-30.3	-34.1	5.3	7.07e-01	0	44	0	0	21	5558
2026-01-19 03:21:27.98	344.82	22.14	-30.4	-34.3	5.3	7.07e-01	0	44	0	0	21	5622
2026-01-19 03:21:28.99	344.57	22.24	-30.5	-34.5	5.3	7.06e-01	0	44	0	0	21	5709
2026-01-19 03:21:29.99	344.33	22.34	-30.4	-34.3	5.3	7.07e-01	0	44	0	0	21	5618
2026-01-19 03:21:31.00	344.08	22.45	-30.5	-34.5	5.3	7.07e-01	0	44	0	0	21	5699
2026-01-19 03:21:32.00	343.83	22.55	-30.4	-34.2	5.3	7.07e-01	0	44	0	0	21	5591
2026-01-19 03:21:33.01	343.58	22.65	-30.4	-34.1	5.3	7.07e-01	0	44	0	0	21	5560
2026-01-19 03:21:34.01	343.32	22.75	-30.4	-34.3	5.3	7.07e-01	0	44	0	0	21	5644
2026-01-19 03:21:35.01	343.07	22.85	-30.4	-34.1	5.3	7.07e-01	0	44	0	0	21	5546
2026-01-19 03:21:36.02	342.81	22.95	-30.3	-34.1	5.3	7.07e-01	0	44	0	0	21	5538
2026-01-19 03:21:37.02	342.55	23.06	-30.4	-34.3	5.3	7.06e-01	0	44	0	0	21	5622
2026-01-19 03:21:38.03	342.29	23.16	-30.4	-34.3	5.3	7.06e-01	0	44	0	0	21	5611
2026-01-19 03:21:39.03	342.03	23.26	-30.5	-34.6	5.3	7.08e-01	0	44	0	0	21	5743
2026-01-19 03:21:40.03	341.77	23.36	-30.4	-34.2	5.4	7.07e-01	0	44	0	0	21	5585
2026-01-19 03:21:41.04	341.50	23.46	-30.3	-34.0	5.3	7.07e-01	0	44	0	0	21	5503
2026-01-19 03:21:42.04	341.24	23.56	-30.4	-34.3	5.3	7.06e-01	0	44	0	0	21	5609
2026-01-19 03:21:43.05	340.97	23.66	-30.3	-34.1	5.3	7.07e-01	0	44	0	0	21	5546
2026-01-19 03:21:44.05	340.70	23.76	-30.4	-34.3	5.3	7.08e-01	0	44	0	0	21	5606
2026-01-19 03:21:45.06	340.42	23.86	-30.4	-34.4	5.3	7.04e-01	0	44	0	0	21	5646
2026-01-19 03:21:46.06	340.15	23.96	-30.4	-34.1	5.3	7.06e-01	0	44	0	0	21	5563
2026-01-19 03:21:47.07	339.87	24.06	-30.4	-34.4	5.3	7.05e-01	0	44	0	0	21	5652
2026-01-19 03:21:48.07	339.59	24.16	-30.4	-34.3	5.3	7.08e-01	0	44	0	0	21	5612
2026-01-19 03:21:49.08	339.31	24.26	-30.4	-34.3	5.3	7.08e-01	0	44	0	0	21	5608
2026-01-19 03:21:50.08	339.03	24.35	-30.4	-34.1	5.3	7.05e-01	0	44	0	0	21	5544
2026-01-19 03:21:51.09	338.74	24.45	-30.2	-33.8	5.3	7.09e-01	0	44	0	0	21	5434
2026-01-19 03:21:52.10	338.46	24.55	-30.2	-33.8	5.3	7.08e-01	0	44	0	0	21	5437
2026-01-19 03:21:53.10	338.17	24.65	-30.5	-34.4	5.3	7.07e-01	0	44	0	0	21	5666
2026-01-19 03:21:54.11	337.88	24.74	-30.3	-34.1	5.3	7.09e-01	0	44	0	0	21	5537
2026-01-19 03:21:55.11	337.59	24.84	-30.3	-33.9	5.3	7.05e-01	0	44	0	0	21	5485
2026-01-19 03:21:56.12	337.29	24.94	-30.3	-34.1	5.3	7.08e-01	0	44	0	0	21	5540
2026-01-19 03:21:57.12	337.00	25.03	-30.4	-34.1	5.3	7.08e-01	0	44	0	0	21	5549
2026-01-19 03:21:58.12	336.70	25.13	-30.3	-34.0	5.3	7.02e-01	0	44	0	0	21	5492
2026-01-19 03:21:59.13	336.40	25.22	-30.4	-34.1	5.3	7.08e-01	0	44	0	0	21	5566
2026-01-19 03:22:00.14	336.10	25.32	-30.5	-34.4	5.3	7.04e-01	0	44	0	0	21	5678
2026-01-19 03:22:01.15	335.80	25.41	-30.4	-34.2	5.3	7.04e-01	0	44	0	0	21	5567
2026-01-19 03:22:02.15	335.49	25.50	-29.8	-33.4	5.3	7.05e-01	0	44	0	0	21	5453
2026-01-19 03:22:03.15	335.19	25.60	-30.2	-33.6	5.3	7.09e-01	0	44	0	0	21	5351
2026-01-19 03:22:04.15	334.88	25.69	-30.2	-34.0	5.3	7.04e-01	0	44	0	0	21	5548
2026-01-19 03:22:05.16	334.57	25.78	-30.2	-33.6	5.3	7.08e-01	0	44	0	0	21	5367
2026-01-19 03:22:06.16	334.26	25.87	-30.2	-33.8	5.3	7.07e-01	0	44	0	0	21	5415
2026-01-19 03:22:07.17	333.94	25.96	-30.3	-33.9	5.3	7.06e-01	0	44	0	0	21	5478
2026-01-19 03:22:08.17	333.63	26.05	-30.4	-34.3	5.3	7.04e-01	0	44	0	0	21	5603
2026-01-19 03:22:09.18	333.31	26.14	-30.4	-34.3	5.3	7.10e-01	0	44	0	0	21	5622
2026-01-19 03:22:10.19	332.99	26.23	-30.4	-34.4	5.3	7.06e-01	0	44	0	0	21	5648
2026-01-19 03:22:11.18	332.67	26.32	-30.2	-33.7	5.3	7.05e-01	0	44	0	0	21	5401
2026-01-19 03:22:12.18	332.35	26.40	-30.2	-33.7	5.3	7.06e-01	0	44	0	0	21	5400
2026-01-19 03:22:13.18	332.02	26.49	-30.2	-33.8	5.3	7.08e-01	0	44	0	0	21	5439
2026-01-19 03:22:14.18	331.70	26.58	-30.2	-33.6	5.3	7.04e-01	0	44	0	0	21	5360
2026-01-19 03:22:15.19	331.37	26.66	-30.1	-33.6	5.3	7.06e-01	0	44	0	0	21	5352
2026-01-19 03:22:16.19	331.04	26.75	-30.3	-33.9	5.3	7.05e-01	0	44	0	0	21	5470
2026-01-19 03:22:17.20	330.70	26.83	-30.2	-33.8	5.3	7.04e-01	0	44	0	0	21	5443
2026-01-19 03:22:18.19	330.37	26.91	-30.2	-33.7	5.3	7.06e-01	0	44	0	0	21	5409
2026-01-19 03:22:19.20	330.03	27.00	-30.1	-33.5	5.3	7.05e-01	0	44	0	0	21	5310
2026-01-19 03:22:20.21	329.69	27.08	-30.1	-33.5	5.3	7.09e-01	0	44	0	0	21	5324
2026-01-19 03:22:21.21	329.36	27.16	-30.1	-33.9	5.3	7.06e-01	0	44	0	0	20	5576
2026-01-19 03:22:22.21	329.02	27.24	-30.1	-33.4	5.3	7.05e-01	0	44	0	0	21	5291
2026-01-19 03:22:23.21	328.67	27.32	-30.0	-33.7	5.3	7.08e-01	0	44	0	0	20	5520
2026-01-19 03:22:24.22	328.33	27.39	-30.0	-33.7	5.3	7.03e-01	0	44	0	0	20	5515
2026-01-19 03:22:25.22	327.98	27.47	-30.0	-33.6	5.3	7.06e-01	0	44	0	0	20	5487
2026-01-19 03:22:26.23	327.63	27.55	-29.9	-33.4	5.3	7.06e-01	0	44	0	0	20	5390
2026-01-19 03:22:27.23	327.28	27.62	-29.9	-33.5	5.3	7.07e-01	0	44	0	0	20	5439
2026-01-19 03:22:28.23	326.93	27.70	-29.9	-33.5	5.3	7.03e-01	0	44	0	0	20	5431
2026-01-19 03:22:29.23	326.58	27.77	-29.9	-33.6	5.3	7.04e-01	0	44	0	0	20	5460
2026-01-19 03:22:30.23	326.22	27.84	-29.9	-33.3	5.3	7.02e-01	0	44	0	0	20	5363
2026-01-19 03:22:31.24	325.86	27.92	-29.9	-33.4	5.3	7.04e-01	0	44	0	0	20	5395
2026-01-19 03:22:32.24	325.51	27.99	-29.9	-33.3	5.3	7.04e-01	0	44	0	0	20	5360
2026-01-19 03:22:33.25	325.14	28.06	-29.9	-33.5	5.3	7.08e-01	0	44	0	0	20	5424
2026-01-19 03:22:34.25	324.78	28.12	-30.0	-33.7	5.3	7.06e-01	0	44	0	0	20	5521
2026-01-19 03:22:35.26	324.42	28.19	-29.9	-33.5	5.3	7.05e-01	0	44	0	0	20	5422
2026-01-19 03:22:36.27	324.05	28.26	-29.8	-33.3	5.3	7.06e-01	0	44	0	0	20	5361
2026-01-19 03:22:37.27	323.68	28.32	-29.8	-33.3	5.3	7.07e-01	0	44	0	0	20	5371
2026-01-19 03:22:38.27	323.31	28.39	-29.8	-33.2	5.3	7.08e-01	0	44	0	0	20	5325
2026-01-19 03:22:39.27	322.95	28.45	-29.8	-33.1	5.3	7.07e-01	0	44	0	0	20	5286
2026-01-19 03:22:40.28	322.57	28.51	-29.8	-33.3	5.3	7.08e-01	0	44	0	0	20	5364
2026-01-19 03:22:41.28	322.20	28.57	-29.8	-33.2	5.3	7.05e-01	0	44	0	0	20	5307
2026-01-19 03:22:42.29	321.82	28.63	-30.0	-33.6	5.3	7.03e-01	0	44	0	0	20	5482
2026-01-19 03:22:43.29	321.45	28.69	-29.8	-33.1	5.3	7.05e-01	0	44	0	0	20	5306
2026-01-19 03:22:44.30	321.07	28.75	-29.7	-33.0	5.3	7.04e-01	0	44	0	0	20	5245
2026-01-19 03:22:45.31	320.69	28.80	-29.8	-33.2	5.3	7.07e-01	0	44	0	0	20	5342
2026-01-19 03:22:46.31	320.31	28.86	-29.7	-33.0	5.3	7.04e-01	0	44	0	0	20	5243
2026-01-19 03:22:47.32	319.92	28.91	-29.8	-33.3	5.3	7.03e-01	0	44	0	0	20	5357
2026-01-19 03:22:48.32	319.54	28.96	-29.9	-33.3	5.3	7.07e-01	0	44	0	0	20	5370
2026-01-19 03:22:49.32	319.16	29.02	-29.8	-33.2	5.3	7.07e-01	0	44	0	0	20	5306
2026-01-19 03:22:50.31	318.78	29.06	-29.7	-33.0	5.3	7.03e-01	0	44	0	0	20	5247
2026-01-19 03:22:51.31	318.39	29.11	-29.7	-32.9	5.3	7.03e-01	0	44	0	0	20	5225
2026-01-19 03:22:52.31	318.01	29.16	-29.7	-32.9	5.3	7.06e-01	0	44	0	0	20	5202
2026-01-19 03:22:53.31	317.62	29.20	-29.7	-32.9	5.3	7.08e-01	0	44	0	0	20	5230
2026-01-19 03:22:54.32	317.23	29.25	-29.8	-33.3	5.3	7.04e-01	0	44	0	0	20	5354
2026-01-19 03:22:55.32	316.84	29.29	-29.7	-33.0	5.3	7.05e-01	0	44	0	0	20	5251
2026-01-19 03:22:56.33	316.44	29.33	-29.5	-32.5	5.3	7.08e-01	0	44	0	0	20	5087
2026-01-19 03:22:57.34	316.05	29.37	-29.8	-33.1	5.3	7.08e-01	0	44	0	0	20	5293
2026-01-19 03:22:58.35	315.65	29.41	-29.9	-33.5	5.3	7.04e-01	0	44	0	0	20	5426
2026-01-19 03:22:59.35	315.26	29.45	-29.9	-33.0	5.3	7.07e-01	0	44	0	0	21	5120
2026-01-19 03:23:00.35	314.86	29.49	-29.9	-33.4	5.3	7.08e-01	0	44	0	0	20	5406
2026-01-19 03:23:01.35	314.47	29.52	-29.9	-33.4	5.3	7.06e-01	0	44	0	0	20	5409
2026-01-19 03:23:02.35	314.07	29.55	-29.8	-33.3	5.3	7.04e-01	0	44	0	0	20	5360
2026-01-19 03:23:03.35	313.67	29.58	-29.9	-33.3	5.3	7.08e-01	0	44	0	0	20	5364
2026-01-19 03:23:04.35	313.27	29.61	-29.9	-33.5	5.3	7.06e-01	0	44	0	0	20	5424
2026-01-19 03:23:05.35	312.88	29.64	-29.8	-33.1	5.3	7.08e-01	0	44	0	0	20	5273
2026-01-19 03:23:06.35	312.48	29.67	-29.8	-33.1	5.3	7.05e-01	0	44	0	0	20	5290
2026-01-19 03:23:07.36	312.07	29.69	-30.0	-33.7	5.3	7.03e-01	0	44	0	0	20	5511
2026-01-19 03:23:08.36	311.67	29.72	-30.0	-33.8	5.3	7.06e-01	0	44	0	0	20	5532
2026-01-19 03:23:09.36	311.27	29.74	-29.9	-33.5	5.3	7.04e-01	0	44	0	0	20	5426
2026-01-19 03:23:10.36	310.87	29.76	-30.2	-33.7	5.3	7.04e-01	0	44	0	0	21	5402
2026-01-19 03:23:11.36	310.46	29.78	-29.9	-33.6	5.3	7.07e-01	0	44	0	0	20	5471
2026-01-19 03:23:12.37	310.06	29.80	-29.7	-32.9	5.3	7.07e-01	0	44	0	0	20	5229
2026-01-19 03:23:13.37	309.65	29.81	-29.6	-32.7	5.3	7.07e-01	0	44	0	0	20	5128
2026-01-19 03:23:14.38	309.24	29.83	-29.7	-32.9	5.3	7.06e-01	0	44	0	0	20	5205
2026-01-19 03:23:15.39	308.84	29.84	-29.9	-33.5	5.3	7.05e-01	0	44	0	0	20	5432
2026-01-19 03:23:16.39	308.43	29.85	-30.0	-33.7	5.3	7.06e-01	0	44	0	0	20	5509
2026-01-19 03:23:17.39	308.03	29.86	-29.8	-33.1	5.3	7.04e-01	0	44	0	0	20	5308
2026-01-19 03:23:18.40	307.62	29.87	-29.5	-32.5	5.3	7.07e-01	0	44	0	0	20	5085
2026-01-19 03:23:19.40	307.21	29.88	-29.7	-32.9	5.3	7.04e-01	0	44	0	0	20	5200
2026-01-19 03:23:20.41	306.80	29.88	-30.2	-33.7	5.3	7.05e-01	0	44	0	0	21	5403
2026-01-19 03:23:21.41	306.39	29.89	-30.0	-33.8	5.3	7.05e-01	0	44	0	0	20	5562
2026-01-19 03:23:22.42	305.98	29.89	-29.5	-31.9	5.3	7.06e-01	0	44	0	0	21	4754
2026-01-19 03:23:23.42	305.58	29.89	-29.6	-32.1	5.3	7.05e-01	0	44	0	0	21	4807
2026-01-19 03:23:24.42	305.17	29.89	-30.2	-33.9	5.3	7.06e-01	0	44	0	0	21	5459
2026-01-19 03:23:25.43	304.76	29.89	-29.9	-33.6	5.3	7.06e-01	0	44	0	0	20	5474
2026-01-19 03:23:26.43	304.36	29.88	-29.3	-31.9	5.3	7.08e-01	0	44	0	0	20	4856
2026-01-19 03:23:27.44	303.95	29.88	-29.6	-32.1	5.3	7.04e-01	0	44	0	0	21	4810
2026-01-19 03:23:28.44	303.54	29.87	-30.3	-34.0	5.3	7.07e-01	0	44	0	0	21	5523
2026-01-19 03:23:29.44	303.14	29.86	-30.4	-34.3	5.3	7.05e-01	0	44	0	0	21	5627
2026-01-19 03:23:30.44	302.73	29.85	-29.9	-32.9	5.3	7.08e-01	0	44	0	0	21	5072
2026-01-19 03:23:31.45	302.32	29.84	-29.8	-32.8	5.3	7.07e-01	0	44	0	0	21	5042
2026-01-19 03:23:32.45	301.92	29.82	-30.7	-34.6	5.3	7.08e-01	0	44	0	0	22	5623
2026-01-19 03:23:33.46	301.51	29.81	-30.6	-34.3	5.3	7.09e-01	0	44	0	0	22	5481
2026-01-19 03:23:34.46	301.11	29.79	-30.0	-32.7	5.3	7.08e-01	0	44	0	0	22	4884
2026-01-19 03:23:35.47	300.70	29.77	-30.6	-34.3	5.3	7.03e-01	0	44	0	0	22	5506
2026-01-19 03:23:36.47	300.30	29.75	-31.3	-35.7	5.2	7.06e-01	0	44	0	0	23	6007
2026-01-19 03:23:37.47	299.89	29.73	-30.7	-34.4	5.3	7.07e-01	0	44	0	0	22	5547
2026-01-19 03:23:38.48	299.49	29.71	-30.2	-33.3	5.3	7.08e-01	0	44	0	0	22	5094
2026-01-19 03:23:39.48	299.09	29.69	-31.1	-35.0	5.3	7.05e-01	0	44	0	0	23	5658
2026-01-19 03:23:40.49	298.68	29.66	-30.7	-34.6	5.3	7.08e-01	0	44	0	0	22	5612
2026-01-19 03:23:41.48	298.29	29.63	-30.4	-33.7	5.3	7.06e-01	0	44	0	0	22	5249
2026-01-19 03:23:42.49	297.88	29.60	-30.8	-34.8	5.3	7.08e-01	0	44	0	0	22	5704
2026-01-19 03:23:43.50	297.48	29.57	-30.7	-34.4	5.3	7.06e-01	0	44	0	0	22	5564
2026-01-19 03:23:44.51	297.08	29.54	-30.4	-33.9	5.3	7.08e-01	0	44	0	0	22	5336
2026-01-19 03:23:45.51	296.68	29.51	-30.4	-34.4	5.2	7.05e-01	0	44	0	0	21	5655
2026-01-19 03:23:46.52	296.28	29.47	-30.1	-33.5	5.3	7.06e-01	0	44	0	0	21	5312
2026-01-19 03:23:47.52	295.89	29.44	-30.2	-33.1	5.3	7.08e-01	0	44	0	0	22	5045
2026-01-19 03:23:48.52	295.49	29.40	-30.9	-35.1	5.2	7.06e-01	0	44	0	0	22	5814
2026-01-19 03:23:49.53	295.10	29.36	-30.6	-34.2	5.2	7.06e-01	0	44	0	0	22	5474
2026-01-19 03:23:50.53	294.70	29.32	-30.2	-33.6	5.3	7.07e-01	0	44	0	0	21	5368
2026-01-19 03:23:51.53	294.31	29.28	-29.0	-32.3	5.3	7.10e-01	0	44	0	0	21	5283
2026-01-19 03:23:52.53	293.92	29.23	-28.9	-32.1	5.3	7.06e-01	0	44	0	0	21	5194
2026-01-19 03:23:53.53	293.53	29.19	-30.4	-34.3	5.3	7.08e-01	0	44	0	0	21	5653
2026-01-19 03:23:54.54	293.14	29.14	-30.0	-33.8	5.3	7.03e-01	0	44	0	0	20	5549
2026-01-19 03:23:55.54	292.76	29.10	-29.8	-33.2	5.3	7.08e-01	0	44	0	0	20	5333
2026-01-19 03:23:56.54	292.37	29.05	-30.7	-34.6	5.3	7.05e-01	0	44	0	0	22	5644
2026-01-19 03:23:57.55	291.98	29.00	-30.2	-33.8	5.3	7.05e-01	0	44	0	0	21	5425
2026-01-19 03:23:58.55	291.60	28.95	-30.1	-33.9	5.3	7.04e-01	0	44	0	0	20	5578
2026-01-19 03:23:59.55	291.22	28.89	-30.9	-35.0	5.3	7.06e-01	0	44	0	0	22	5817
2026-01-19 03:24:00.56	290.83	28.84	-30.5	-34.5	5.3	7.06e-01	0	44	0	0	21	5727
2026-01-19 03:24:01.57	290.45	28.78	-30.2	-33.7	5.2	7.05e-01	0	44	0	0	21	5369
2026-01-19 03:24:02.57	290.07	28.73	-30.8	-34.9	5.3	7.05e-01	0	44	0	0	22	5771
2026-01-19 03:24:03.58	289.69	28.67	-31.0	-35.3	5.3	7.06e-01	0	44	0	0	22	5929
2026-01-19 03:24:04.57	289.32	28.61	-30.3	-34.1	5.3	7.10e-01	0	44	0	0	21	5523
2026-01-19 03:24:05.57	288.95	28.55	-31.5	-36.4	5.2	7.08e-01	0	44	0	0	23	6315
2026-01-19 03:24:06.58	288.57	28.49	-30.9	-35.2	5.2	7.07e-01	0	44	0	0	22	5864
2026-01-19 03:24:07.58	288.20	28.43	-30.6	-34.3	5.2	7.08e-01	0	44	0	0	22	5521
2026-01-19 03:24:08.58	287.83	28.36	-31.3	-35.7	5.2	7.09e-01	0	44	0	0	23	6010
2026-01-19 03:24:09.59	287.46	28.30	-30.2	-33.8	5.3	7.06e-01	0	44	0	0	21	5419
2026-01-19 03:24:10.58	287.10	28.23	-31.2	-35.6	5.2	7.08e-01	0	44	0	0	23	5955
2026-01-19 03:24:11.59	286.73	28.17	-31.2	-35.4	5.3	7.07e-01	0	44	0	0	23	5836
2026-01-19 03:24:12.60	286.36	28.10	-30.7	-34.7	5.3	7.04e-01	0	44	0	0	22	5655
2026-01-19 03:24:13.60	286.00	28.03	-30.8	-34.9	5.3	7.06e-01	0	44	0	0	22	5756
2026-01-19 03:24:14.60	285.64	27.96	-30.5	-34.0	5.3	7.06e-01	0	44	0	0	22	5394
2026-01-19 03:24:15.60	285.29	27.89	-30.8	-34.8	5.3	7.08e-01	0	44	0	0	22	5728
2026-01-19 03:24:16.60	284.93	27.82	-30.7	-34.7	5.3	7.06e-01	0	44	0	0	22	5692
2026-01-19 03:24:17.60	284.57	27.74	-30.2	-33.3	5.3	7.07e-01	0	44	0	0	22	5119
2026-01-19 03:24:18.61	284.22	27.67	-31.1	-35.3	5.2	7.06e-01	0	44	0	0	23	5843
2026-01-19 03:24:19.61	283.87	27.60	-30.1	-33.0	5.3	7.06e-01	0	44	0	0	22	4999
2026-01-19 03:24:20.62	283.51	27.52	-30.9	-35.1	5.2	7.06e-01	0	44	0	0	22	5870
2026-01-19 03:24:21.62	283.17	27.44	-30.3	-33.9	5.3	7.01e-01	0	44	0	0	21	5453
2026-01-19 03:24:22.62	282.82	27.36	-30.9	-35.2	5.2	7.07e-01	0	44	0	0	22	5882
2026-01-19 03:24:23.63	282.47	27.29	-30.7	-34.7	5.3	7.09e-01	0	44	0	0	22	5680
2026-01-19 03:24:24.63	282.13	27.21	-30.7	-34.6	5.3	7.07e-01	0	44	0	0	22	5617
2026-01-19 03:24:25.62	281.79	27.13	-30.6	-34.7	5.3	7.07e-01	0	44	0	0	21	5813
2026-01-19 03:24:26.62	281.45	27.05	-31.2	-35.5	5.2	7.05e-01	0	44	0	0	23	5896
2026-01-19 03:24:27.63	281.11	26.96	-30.8	-34.4	5.3	7.10e-01	0	44	0	0	23	5442
2026-01-19 03:24:28.63	280.78	26.88	-31.3	-35.8	5.2	7.09e-01	0	44	0	0	23	6017
2026-01-19 03:24:29.63	280.44	26.80	-31.3	-35.8	5.2	7.05e-01	0	44	0	0	23	6038
2026-01-19 03:24:30.63	280.11	26.71	-30.6	-34.4	5.3	7.08e-01	0	44	0	0	22	5530
2026-01-19 03:24:31.64	279.78	26.63	-30.5	-34.5	5.3	7.06e-01	0	44	0	0	21	5721
2026-01-19 03:24:32.64	279.45	26.54	-30.8	-34.9	5.2	7.04e-01	0	44	0	0	22	5775
2026-01-19 03:24:33.65	279.12	26.46	-30.3	-34.1	5.3	7.08e-01	0	44	0	0	21	5534
2026-01-19 03:24:34.65	278.80	26.37	-30.8	-35.0	5.3	7.09e-01	0	44	0	0	22	5806
2026-01-19 03:24:35.66	278.47	26.28	-30.6	-34.3	5.3	7.06e-01	0	44	0	0	22	5516
2026-01-19 03:24:36.66	278.15	26.19	-30.7	-34.6	5.3	7.08e-01	0	44	0	0	22	5642
2026-01-19 03:24:37.66	277.83	26.10	-30.7	-34.8	5.3	7.06e-01	0	44	0	0	22	5721
2026-01-19 03:24:38.67	277.51	26.01	-30.3	-34.1	5.3	7.07e-01	0	44	0	0	21	5572
2026-01-19 03:24:39.67	277.20	25.92	-30.3	-34.1	5.3	7.06e-01	0	44	0	0	21	5580
2026-01-19 03:24:40.68	276.88	25.83	-30.4	-34.4	5.3	7.06e-01	0	44	0	0	21	5683
2026-01-19 03:24:41.68	276.57	25.74	-30.7	-34.6	5.3	7.08e-01	0	44	0	0	22	5660
2026-01-19 03:24:42.68	276.26	25.65	-30.3	-34.1	5.3	7.05e-01	0	44	0	0	21	5579
2026-01-19 03:24:43.68	275.95	25.56	-30.2	-33.9	5.3	7.07e-01	0	44	0	0	21	5476
2026-01-19 03:24:44.69	275.64	25.46	-30.3	-34.2	5.3	7.06e-01	0	44	0	0	21	5602
2026-01-19 03:24:45.69	275.34	25.37	-30.2	-33.9	5.3	7.05e-01	0	44	0	0	21	5481
2026-01-19 03:24:46.70	275.03	25.27	-30.3	-34.0	5.3	7.09e-01	0	44	0	0	21	5511
2026-01-19 03:24:47.69	274.74	25.18	-30.4	-34.4	5.3	7.04e-01	0	44	0	0	21	5680
2026-01-19 03:24:48.70	274.44	25.09	-30.3	-34.1	5.3	7.05e-01	0	44	0	0	21	5566
2026-01-19 03:24:49.70	274.14	24.99	-30.1	-33.5	5.3	7.07e-01	0	44	0	0	21	5326
2026-01-19 03:24:50.70	273.85	24.89	-30.2	-33.7	5.3	7.05e-01	0	44	0	0	21	5436
2026-01-19 03:24:51.69	273.56	24.80	-30.3	-34.1	5.3	7.06e-01	0	44	0	0	21	5591
2026-01-19 03:24:52.69	273.27	24.70	-30.1	-33.6	5.3	7.06e-01	0	44	0	0	21	5372
2026-01-19 03:24:53.69	272.98	24.61	-30.3	-34.1	5.3	7.07e-01	0	44	0	0	21	5567
2026-01-19 03:24:54.70	272.69	24.51	-30.3	-34.1	5.3	7.05e-01	0	44	0	0	21	5595
2026-01-19 03:24:55.71	272.40	24.41	-30.3	-34.1	5.3	7.06e-01	0	44	0	0	21	5565
2026-01-19 03:24:56.72	272.11	24.31	-30.2	-34.0	5.3	7.08e-01	0	44	0	0	21	5515
2026-01-19 03:24:57.71	271.83	24.21	-30.4	-34.5	5.3	7.06e-01	0	44	0	0	21	5740
2026-01-19 03:24:58.71	271.55	24.11	-30.5	-34.7	5.3	7.08e-01	0	44	0	0	21	5835
2026-01-19 03:24:59.72	271.27	24.01	-30.5	-34.7	5.3	7.07e-01	0	44	0	0	21	5811
2026-01-19 03:25:00.72	271.00	23.92	-30.3	-34.0	5.3	7.07e-01	0	44	0	0	21	5550
2026-01-19 03:25:01.73	270.72	23.82	-30.3	-34.0	5.3	7.04e-01	0	44	0	0	21	5536
2026-01-19 03:25:02.73	270.45	23.72	-30.5	-34.6	5.3	7.06e-01	0	44	0	0	21	5802
2026-01-19 03:25:03.74	270.18	23.61	-30.5	-34.7	5.3	7.05e-01	0	44	0	0	21	5825
2026-01-19 03:25:04.75	269.91	23.51	-30.2	-33.9	5.3	7.07e-01	0	44	0	0	21	5488
2026-01-19 03:25:05.76	269.64	23.41	-30.2	-33.9	5.3	7.06e-01	0	44	0	0	21	5521
2026-01-19 03:25:06.75	269.37	23.31	-30.7	-34.6	5.3	7.08e-01	0	44	0	0	22	5693
2026-01-19 03:25:07.75	269.11	23.21	-30.5	-34.3	5.3	7.05e-01	0	44	0	0	22	5541
2026-01-19 03:25:08.76	268.85	23.11	-30.1	-33.2	5.3	7.05e-01	0	44	0	0	22	5119
2026-01-19 03:25:09.77	268.58	23.01	-30.1	-33.6	5.3	7.07e-01	0	44	0	0	21	5371
2026-01-19 03:25:10.76	268.33	22.91	-30.3	-34.1	5.3	7.05e-01	0	44	0	0	21	5566
2026-01-19 03:25:11.77	268.07	22.80	-30.4	-34.5	5.3	7.09e-01	0	44	0	0	21	5767
2026-01-19 03:25:12.77	267.82	22.70	-30.4	-34.5	5.3	7.05e-01	0	44	0	0	21	5759
2026-01-19 03:25:13.78	267.56	22.60	-30.2	-33.9	5.3	7.04e-01	0	44	0	0	21	5523
2026-01-19 03:25:14.79	267.31	22.50	-30.3	-34.2	5.2	7.09e-01	0	44	0	0	21	5603
2026-01-19 03:25:15.79	267.06	22.39	-30.3	-34.1	5.3	7.06e-01	0	44	0	0	21	5574
2026-01-19 03:25:16.80	266.81	22.29	-30.3	-34.2	5.3	7.08e-01	0	44	0	0	21	5645
2026-01-19 03:25:17.81	266.56	22.19	-30.5	-34.6	5.3	7.04e-01	0	44	0	0	21	5810
2026-01-19 03:25:18.81	266.32	22.08	-30.5	-34.7	5.2	7.06e-01	0	44	0	0	21	5840
2026-01-19 03:25:19.82	266.07	21.98	-30.7	-34.6	5.3	7.07e-01	0	44	0	0	22	5660
2026-01-19 03:25:20.82	265.83	21.88	-30.9	-35.3	5.3	7.06e-01	0	44	0	0	22	5968
2026-01-19 03:25:21.81	265.60	21.78	-30.7	-34.6	5.3	7.04e-01	0	44	0	0	22	5687
2026-01-19 03:25:22.82	265.36	21.67	-30.5	-34.2	5.2	7.06e-01	0	44	0	0	22	5531
2026-01-19 03:25:23.82	265.12	21.57	-30.5	-34.2	5.3	7.05e-01	0	44	0	0	22	5521
2026-01-19 03:25:24.83	264.88	21.47	-30.5	-34.8	5.3	7.05e-01	0	44	0	0	21	5883
2026-01-19 03:25:25.83	264.65	21.36	-30.3	-34.3	5.3	7.06e-01	0	44	0	0	21	5666
2026-01-19 03:25:26.84	264.42	21.26	-30.1	-33.6	5.3	7.06e-01	0	44	0	0	21	5403
2026-01-19 03:25:27.84	264.19	21.16	-30.0	-33.9	5.3	7.03e-01	0	44	0	0	20	5640
2026-01-19 03:25:28.85	263.96	21.05	-30.1	-34.1	5.3	7.07e-01	0	44	0	0	20	5716
2026-01-19 03:25:29.85	263.74	20.95	-30.1	-33.7	5.3	7.04e-01	0	44	0	0	21	5440
2026-01-19 03:25:30.86	263.51	20.85	-30.1	-33.7	5.3	7.08e-01	0	44	0	0	21	5446
2026-01-19 03:25:31.86	263.29	20.74	-30.1	-33.6	5.3	7.08e-01	0	44	0	0	21	5409
2026-01-19 03:25:32.86	263.07	20.64	-30.0	-33.5	5.3	7.06e-01	0	44	0	0	21	5374
2026-01-19 03:25:33.87	262.84	20.54	-30.2	-33.9	5.3	7.05e-01	0	44	0	0	21	5508
2026-01-19 03:25:34.87	262.63	20.43	-30.1	-33.6	5.3	7.07e-01	0	44	0	0	21	5422
2026-01-19 03:25:35.86	262.41	20.33	-30.0	-33.4	5.3	7.04e-01	0	44	0	0	21	5333
2026-01-19 03:25:36.86	262.20	20.23	-30.0	-34.0	5.3	7.07e-01	0	44	0	0	20	5699
2026-01-19 03:25:37.86	261.98	20.13	-30.0	-34.0	5.3	7.08e-01	0	44	0	0	20	5680
2026-01-19 03:25:38.85	261.77	20.03	-30.0	-34.0	5.3	7.06e-01	0	44	0	0	20	5673
2026-01-19 03:25:39.86	261.56	19.92	-30.3	-34.2	5.2	7.05e-01	0	44	0	0	21	5636
2026-01-19 03:25:40.86	261.35	19.82	-30.2	-33.9	5.3	7.06e-01	0	44	0	0	21	5540
2026-01-19 03:25:41.85	261.15	19.72	-30.0	-33.3	5.3	7.08e-01	0	44	0	0	21	5316
2026-01-19 03:25:42.86	260.94	19.62	-29.8	-33.4	5.3	7.08e-01	0	44	0	0	20	5461
2026-01-19 03:25:43.86	260.74	19.51	-29.9	-33.6	5.3	7.07e-01	0	44	0	0	20	5546
2026-01-19 03:25:44.87	260.53	19.41	-29.9	-33.7	5.3	7.05e-01	0	44	0	0	20	5566
2026-01-19 03:25:45.87	260.33	19.31	-30.1	-34.2	5.2	7.07e-01	0	44	0	0	20	5785
2026-01-19 03:25:46.87	260.13	19.21	-30.2	-34.0	5.2	7.08e-01	0	44	0	0	21	5560
2026-01-19 03:25:47.88	259.93	19.10	-30.1	-33.8	5.3	7.08e-01	0	44	0	0	21	5487
2026-01-19 03:25:48.88	259.73	19.00	-30.1	-33.8	5.2	7.10e-01	0	44	0	0	21	5502
2026-01-19 03:25:49.89	259.53	18.90	-30.3	-34.2	5.3	7.07e-01	0	44	0	0	21	5644
2026-01-19 03:25:50.89	259.34	18.80	-30.1	-33.8	5.2	7.07e-01	0	44	0	0	21	5485
2026-01-19 03:25:51.88	259.15	18.70	-30.2	-34.0	5.3	7.07e-01	0	44	0	0	21	5582
2026-01-19 03:25:52.89	258.95	18.60	-30.0	-34.1	5.2	7.09e-01	0	44	0	0	20	5727
2026-01-19 03:25:53.90	258.76	18.49	-30.1	-33.9	5.3	7.07e-01	0	44	0	0	21	5527
2026-01-19 03:25:54.90	258.57	18.39	-30.3	-34.2	5.3	7.04e-01	0	44	0	0	21	5664
2026-01-19 03:25:55.91	258.38	18.29	-30.1	-33.7	5.3	7.07e-01	0	44	0	0	21	5447
2026-01-19 03:25:56.92	258.20	18.19	-30.0	-33.5	5.3	7.04e-01	0	44	0	0	21	5399
2026-01-19 03:25:57.92	258.01	18.09	-30.0	-34.1	5.3	7.05e-01	0	44	0	0	20	5739
2026-01-19 03:25:58.92	257.83	17.99	-30.2	-33.9	5.3	7.06e-01	0	44	0	0	21	5541
2026-01-19 03:25:59.92	257.65	17.89	-29.9	-33.9	5.3	7.02e-01	0	44	0	0	20	5655
2026-01-19 03:26:00.93	257.46	17.79	-30.1	-34.1	5.3	7.05e-01	0	44	0	0	20	5758
2026-01-19 03:26:01.93	257.28	17.69	-30.2	-34.0	5.3	7.06e-01	0	44	0	0	21	5587
2026-01-19 03:26:02.94	257.10	17.59	-30.6	-35.0	5.2	7.06e-01	0	44	0	0	21	6006
2026-01-19 03:26:03.94	256.93	17.49	-30.3	-34.4	5.3	7.08e-01	0	44	0	0	21	5764
2026-01-19 03:26:04.95	256.75	17.39	-30.1	-33.9	5.3	7.05e-01	0	44	0	0	21	5530
2026-01-19 03:26:05.95	256.57	17.29	-30.1	-33.7	5.3	7.08e-01	0	44	0	0	21	5456
2026-01-19 03:26:06.95	256.40	17.19	-29.8	-33.4	5.3	7.07e-01	0	44	0	0	20	5488
2026-01-19 03:26:07.95	256.23	17.09	-29.8	-33.5	5.3	7.05e-01	0	44	0	0	20	5520
2026-01-19 03:26:08.96	256.05	16.99	-29.8	-33.5	5.3	7.08e-01	0	44	0	0	20	5530
2026-01-19 03:26:09.96	255.88	16.89	-29.9	-33.7	5.3	7.07e-01	0	44	0	0	20	5592
2026-01-19 03:26:10.96	255.72	16.80	-29.9	-33.8	5.3	7.08e-01	0	44	0	0	20	5629
2026-01-19 03:26:11.96	255.55	16.70	-30.0	-33.9	5.3	7.07e-01	0	44	0	0	20	5686
2026-01-19 03:26:12.97	255.38	16.60	-29.9	-33.9	5.3	7.05e-01	0	44	0	0	20	5667
2026-01-19 03:26:13.97	255.21	16.50	-30.0	-34.1	5.3	7.07e-01	0	44	0	0	20	5771
2026-01-19 03:26:14.98	255.05	16.40	-29.9	-33.9	5.3	7.03e-01	0	44	0	0	20	5656
2026-01-19 03:26:15.98	254.89	16.31	-29.9	-33.9	5.3	7.03e-01	0	44	0	0	20	5676
2026-01-19 03:26:16.98	254.72	16.21	-30.2	-34.2	5.3	7.08e-01	0	44	0	0	21	5669
2026-01-19 03:26:17.99	254.56	16.11	-30.1	-33.8	5.3	7.06e-01	0	44	0	0	21	5523
2026-01-19 03:26:18.99	254.40	16.01	-30.0	-34.0	5.3	7.07e-01	0	44	0	0	20	5716
2026-01-19 03:26:19.99	254.24	15.92	-29.9	-33.8	5.3	7.06e-01	0	44	0	0	20	5620
2026-01-19 03:26:21.00	254.09	15.82	-30.0	-34.1	5.3	7.08e-01	0	44	0	0	20	5742
2026-01-19 03:26:22.00	253.93	15.73	-29.8	-33.7	5.3	7.08e-01	0	44	0	0	20	5583
2026-01-19 03:26:22.99	253.78	15.63	-29.9	-33.8	5.3	7.04e-01	0	44	0	0	20	5625
2026-01-19 03:26:24.00	253.62	15.53	-29.9	-33.9	5.3	7.07e-01	0	44	0	0	20	5684
2026-01-19 03:26:25.00	253.47	15.44	-30.0	-34.0	5.3	7.06e-01	0	44	0	0	20	5707
2026-01-19 03:26:26.00	253.31	15.34	-30.0	-34.0	5.3	7.09e-01	0	44	0	0	20	5742
2026-01-19 03:26:27.00	253.16	15.25	-30.1	-33.9	5.3	7.06e-01	0	44	0	0	21	5561
2026-01-19 03:26:28.01	253.01	15.15	-30.2	-34.1	5.3	7.02e-01	0	44	0	0	21	5642
2026-01-19 03:26:29.02	252.86	15.06	-30.4	-34.7	5.3	7.07e-01	0	44	0	0	21	5886
2026-01-19 03:26:30.02	252.71	14.96	-30.6	-35.1	5.2	7.09e-01	0	44	0	0	21	6103
2026-01-19 03:26:31.02	252.57	14.87	-30.4	-34.7	5.2	7.06e-01	0	44	0	0	21	5902
2026-01-19 03:26:32.03	252.42	14.78	-30.5	-34.9	5.2	7.07e-01	0	44	0	0	21	5994
2026-01-19 03:26:33.03	252.28	14.68	-30.7	-35.0	5.2	7.05e-01	0	44	0	0	22	5934
2026-01-19 03:26:34.04	252.13	14.59	-30.5	-35.0	5.2	7.09e-01	0	44	0	0	21	6048
2026-01-19 03:26:35.04	251.99	14.49	-30.8	-35.4	5.3	7.05e-01	0	44	0	0	22	6104
2026-01-19 03:26:36.05	251.84	14.40	-30.6	-34.8	5.2	7.10e-01	0	44	0	0	22	5853
2026-01-19 03:26:37.05	251.70	14.31	-30.4	-34.7	5.3	7.07e-01	0	44	0	0	21	5898
2026-01-19 03:26:38.05	251.56	14.22	-30.3	-34.5	5.2	7.08e-01	0	44	0	0	21	5812
2026-01-19 03:26:39.05	251.42	14.12	-30.2	-34.2	5.3	7.07e-01	0	44	0	0	21	5701
2026-01-19 03:26:40.06	251.28	14.03	-30.2	-34.1	5.3	7.06e-01	0	44	0	0	21	5657
2026-01-19 03:26:41.06	251.15	13.94	-30.2	-34.2	5.3	7.08e-01	0	44	0	0	21	5685
2026-01-19 03:26:42.06	251.01	13.85	-30.0	-33.7	5.3	7.05e-01	0	44	0	0	21	5482
2026-01-19 03:26:43.07	250.87	13.76	-30.2	-34.3	5.3	7.05e-01	0	44	0	0	21	5718
2026-01-19 03:26:44.07	250.74	13.66	-30.5	-35.1	5.2	7.10e-01	0	44	0	0	21	6070
2026-01-19 03:26:45.06	250.61	13.57	-30.3	-34.4	5.2	7.07e-01	0	44	0	0	21	5776
2026-01-19 03:26:46.07	250.47	13.48	-30.2	-34.1	5.3	7.05e-01	0	44	0	0	21	5641
2026-01-19 03:26:47.07	250.34	13.39	-30.0	-33.7	5.3	7.05e-01	0	44	0	0	21	5509
2026-01-19 03:26:48.08	250.21	13.30	-30.0	-34.3	5.3	7.06e-01	0	44	0	0	20	5853
2026-01-19 03:26:49.08	250.08	13.21	-30.1	-34.4	5.3	7.05e-01	0	44	0	0	20	5893
2026-01-19 03:26:50.08	249.95	13.12	-30.2	-34.1	5.3	7.06e-01	0	44	0	0	21	5680
2026-01-19 03:26:51.09	249.82	13.03	-30.4	-34.7	5.2	7.05e-01	0	44	0	0	21	5909
2026-01-19 03:26:52.09	249.69	12.94	-30.1	-34.0	5.2	7.07e-01	0	44	0	0	21	5618
2026-01-19 03:26:53.09	249.57	12.85	-30.0	-34.3	5.3	7.06e-01	0	44	0	0	20	5856
2026-01-19 03:26:54.09	249.44	12.76	-30.0	-34.3	5.3	7.03e-01	0	44	0	0	20	5857
2026-01-19 03:26:55.10	249.31	12.68	-30.1	-34.0	5.3	7.07e-01	0	44	0	0	21	5608
2026-01-19 03:26:56.10	249.19	12.59	-30.1	-33.9	5.2	7.08e-01	0	44	0	0	21	5597
2026-01-19 03:26:57.11	249.07	12.50	-30.3	-34.4	5.3	7.05e-01	0	44	0	0	21	5810
2026-01-19 03:26:58.11	248.94	12.41	-30.1	-33.9	5.3	7.06e-01	0	44	0	0	21	5585
2026-01-19 03:26:59.11	248.82	12.32	-30.0	-34.2	5.3	7.08e-01	0	44	0	0	20	5843
2026-01-19 03:27:00.12	248.70	12.23	-30.1	-34.0	5.2	7.06e-01	0	44	0	0	21	5640
2026-01-19 03:27:01.11	248.58	12.15	-30.1	-34.0	5.3	7.06e-01	0	44	0	0	21	5614
2026-01-19 03:27:02.12	248.46	12.06	-30.1	-34.1	5.3	7.05e-01	0	44	0	0	21	5663
2026-01-19 03:27:03.12	248.34	11.97	-30.1	-34.0	5.2	7.08e-01	0	44	0	0	21	5651
2026-01-19 03:27:04.12	248.22	11.89	-30.2	-34.2	5.2	7.07e-01	0	44	0	0	21	5706
2026-01-19 03:27:05.11	248.11	11.80	-30.3	-34.5	5.2	7.07e-01	0	44	0	0	21	5859
2026-01-19 03:27:06.12	247.99	11.72	-30.3	-34.4	5.3	7.02e-01	0	44	0	0	21	5823
2026-01-19 03:27:07.12	247.87	11.63	-30.3	-34.5	5.3	7.05e-01	0	44	0	0	21	5842
2026-01-19 03:27:08.12	247.76	11.54	-30.5	-35.1	5.2	7.06e-01	0	44	0	0	21	6146
2026-01-19 03:27:09.13	247.64	11.46	-30.3	-34.6	5.2	7.06e-01	0	44	0	0	21	5908
2026-01-19 03:27:10.14	247.53	11.37	-30.4	-34.8	5.2	7.08e-01	0	44	0	0	21	5983
2026-01-19 03:27:11.13	247.42	11.29	-30.5	-35.3	5.2	7.07e-01	0	44	0	0	21	6192
2026-01-19 03:27:12.13	247.31	11.20	-30.4	-34.8	5.2	7.07e-01	0	44	0	0	21	5977
2026-01-19 03:27:13.13	247.20	11.12	-30.4	-34.8	5.2	7.08e-01	0	44	0	0	21	6003
2026-01-19 03:27:14.14	247.08	11.03	-30.4	-34.7	5.3	7.08e-01	0	44	0	0	21	5959
2026-01-19 03:27:15.14	246.97	10.95	-30.3	-34.6	5.3	7.06e-01	0	44	0	0	21	5901
2026-01-19 03:27:16.15	246.86	10.86	-30.2	-34.4	5.3	7.03e-01	0	44	0	0	21	5801
2026-01-19 03:27:17.15	246.75	10.78	-30.2	-34.3	5.3	7.04e-01	0	44	0	0	21	5789
2026-01-19 03:27:18.15	246.65	10.70	-30.2	-34.2	5.3	7.05e-01	0	44	0	0	21	5735
2026-01-19 03:27:19.16	246.54	10.61	-30.1	-34.1	5.3	7.06e-01	0	44	0	0	21	5697
2026-01-19 03:27:20.15	246.43	10.53	-30.2	-34.4	5.3	7.05e-01	0	44	0	0	21	5810
2026-01-19 03:27:21.15	246.33	10.45	-30.4	-34.8	5.2	7.05e-01	0	44	0	0	21	6010
2026-01-19 03:27:22.15	246.22	10.37	-30.4	-34.8	5.2	7.05e-01	0	44	0	0	21	6029
2026-01-19 03:27:23.15	246.12	10.28	-30.4	-35.0	5.2	7.08e-01	0	44	0	0	21	6079
2026-01-19 03:27:24.15	246.01	10.20	-30.4	-35.0	5.3	7.06e-01	0	44	0	0	21	6102
2026-01-19 03:27:25.15	245.91	10.12	-30.5	-35.2	5.2	7.08e-01	0	44	0	0	21	6177
2026-01-19 03:27:26.15	245.81	10.04	-30.5	-35.1	5.2	7.06e-01	0	44	0	0	21	6154
2026-01-19 03:27:27.16	245.71	9.96	-30.4	-35.0	5.2	7.06e-01	0	44	0	0	21	6079
2026-01-19 03:27:28.16	245.60	9.88	-30.4	-34.9	5.2	7.07e-01	0	44	0	0	21	6077
2026-01-19 03:27:29.16	245.50	9.80	-30.3	-34.8	5.2	7.07e-01	0	44	0	0	21	5993
2026-01-19 03:27:30.16	245.40	9.71	-30.4	-34.9	5.3	7.07e-01	0	44	0	0	21	6032
2026-01-19 03:27:31.17	245.30	9.63	-30.3	-34.8	5.2	7.05e-01	0	44	0	0	21	6011
2026-01-19 03:27:32.17	245.20	9.55	-30.4	-34.9	5.2	7.07e-01	0	44	0	0	21	6074
2026-01-19 03:27:33.17	245.11	9.47	-30.6	-35.0	5.2	7.06e-01	0	44	0	0	22	5969
2026-01-19 03:27:34.17	245.01	9.39	-30.5	-35.3	5.2	7.04e-01	0	44	0	0	21	6250
2026-01-19 03:27:35.17	244.91	9.31	-30.3	-34.7	5.2	7.06e-01	0	44	0	0	21	5981
2026-01-19 03:27:36.17	244.82	9.23	-30.3	-34.8	5.2	7.06e-01	0	44	0	0	21	6033
2026-01-19 03:27:37.18	244.72	9.15	-30.5	-35.4	5.2	7.09e-01	0	44	0	0	21	6298
2026-01-19 03:27:38.18	244.62	9.07	-29.3	-33.3	5.2	7.09e-01	0	44	0	0	22	5705
2026-01-19 03:27:39.18	244.53	9.00	-28.7	-33.6	5.2	7.08e-01	0	44	0	0	20	6329
2026-01-19 03:27:40.19	244.43	8.92	-30.4	-35.1	5.2	7.10e-01	0	44	0	0	21	6192
2026-01-19 03:27:41.18	244.34	8.84	-31.1	-36.1	5.2	7.07e-01	0	44	0	0	22	6381
2026-01-19 03:27:42.19	244.25	8.76	-30.5	-35.5	5.2	7.05e-01	0	44	0	0	21	6343
2026-01-19 03:27:43.19	244.15	8.68	-30.5	-35.3	5.2	7.05e-01	0	44	0	0	21	6281
2026-01-19 03:27:44.19	244.06	8.60	-30.5	-35.4	5.2	7.04e-01	0	44	0	0	21	6336
2026-01-19 03:27:45.20	243.97	8.53	-30.7	-35.4	5.2	7.07e-01	0	44	0	0	22	6217
2026-01-19 03:27:46.21	243.88	8.45	-30.8	-35.7	5.2	7.09e-01	0	44	104	0	22	6358
2026-01-19 03:27:47.21	243.79	8.37	-30.6	-34.6	15.9	6.02e-01	0	44	104	0	22	5667
2026-01-19 03:27:48.21	243.70	8.29	-30.6	-34.6	16.6	6.04e-01	0	44	0	1572864	22	5661
2026-01-19 03:27:49.22	243.61	8.22	-30.8	-35.0	16.8	6.04e-01	0	44	0	3145728	22	5840
2026-01-19 03:27:50.22	243.52	8.14	-31.0	-35.7	16.3	6.02e-01	0	44	0	5242880	22	6184
2026-01-19 03:27:51.23	243.43	8.06	-30.7	-34.9	16.8	6.04e-01	0	44	0	6815744	22	5828
2026-01-19 03:27:52.23	243.34	7.99	-30.8	-35.3	16.5	6.04e-01	0	44	0	8912896	22	5993
2026-01-19 03:27:53.23	243.26	7.91	-30.6	-34.7	16.9	6.03e-01	0	44	0	11010048	22	5730
2026-01-19 03:27:54.24	243.17	7.83	-30.7	-34.8	16.8	6.03e-01	0	44	0	12582912	22	5790
2026-01-19 03:27:55.24	243.08	7.76	-30.7	-34.9	16.7	6.01e-01	0	44	0	14680064	22	5829
2026-01-19 03:27:56.24	243.00	7.68	-30.8	-35.2	16.5	6.02e-01	0	44	0	16252928	22	5971
2026-01-19 03:27:57.25	242.91	7.61	-30.7	-34.8	16.8	6.02e-01	0	44	0	18350080	22	5787
2026-01-19 03:27:58.25	242.83	7.53	-30.5	-34.4	17.1	6.03e-01	0	44	0	19922944	22	5591
2026-01-19 03:27:59.25	242.74	7.46	-30.3	-34.3	17.5	6.03e-01	0	44	0	22020096	21	5662
2026-01-19 03:28:00.26	242.66	7.38	-30.5	-34.6	17.2	6.03e-01	0	44	0	24117248	21	5836
2026-01-19 03:28:01.26	242.57	7.31	-30.6	-35.0	16.9	6.02e-01	0	44	0	25690112	21	5992
2026-01-19 03:28:02.26	242.49	7.23	-30.6	-35.0	17.0	6.04e-01	0	44	0	27787264	21	5983
2026-01-19 03:28:03.26	242.41	7.16	-30.6	-35.0	16.9	6.04e-01	0	44	0	29360128	21	5995
2026-01-19 03:28:04.26	242.33	7.08	-30.9	-35.6	16.6	6.02e-01	0	44	0	31457280	22	6168
2026-01-19 03:28:05.27	242.24	7.01	-33.6	-52.8	3.8	7.45e-01	0	44	104	31981568	28	32627
2026-01-19 03:28:06.27	242.16	6.94	-34.0	-53.5	3.8	7.46e-01	0	44	104	31981568	28	34067

#Closed at: 2026-01-19 03:28:06
#Recorded file [31 MB]: D:/data/31010_260119_062747.dat