passes_logs/2026/01/19/R2M6_AANII_01/R2M6_AANII_01__20260119_083434_NOAA_20_JPSS-1_rec.log

#Pass ID: 20260119_083434_NOAA 20 (JPSS-1)
#Satellite: NOAA 20 (JPSS-1)
#Configuration: NOAA 20
#almurnet v.1.7.20240730
#Start time: 2026-01-19 08:34:36

#Version: 2.2.20231116
#Station: R2M6_AANII_01
#Location: 30.233357 lon 59.946436 lat
#TLE: 1 43013U 17073A   26017.93796159  .00000077  00000+0  57252-4 0  9992
#TLE: 2 43013  98.7639 318.8464 0001390  34.9771 325.1496 14.19536703423157

#Time	Az	El	Level	Level2	SNR	BER	BlckErr	Temp	State	Recorded	gain1	gain2
2026-01-19 08:34:36.03	106.03	7.12	-32.4	-39.2	4.7	1.33e+00	0	41	0	0	26	7823
2026-01-19 08:34:37.03	105.94	7.19	-32.3	-38.5	4.8	1.28e+00	0	41	104	0	26	7337
2026-01-19 08:34:38.04	105.86	7.26	-32.2	-38.5	7.4	1.32e-01	0	41	0	0	25	7396
2026-01-19 08:34:39.05	105.77	7.32	-32.3	-38.6	7.2	1.47e-01	0	41	0	1048576	25	7501
2026-01-19 08:34:40.05	105.68	7.39	-32.2	-38.4	7.4	1.19e-01	0	41	0	3145728	25	7333
2026-01-19 08:34:41.05	105.60	7.46	-32.3	-38.6	7.3	1.13e-01	0	41	0	5242880	25	7450
2026-01-19 08:34:42.05	105.51	7.53	-32.2	-38.1	7.7	1.12e-01	0	41	0	7340032	25	7096
2026-01-19 08:34:43.04	105.43	7.59	-32.0	-37.4	8.2	7.52e-02	0	42	0	9437184	25	6672
2026-01-19 08:34:44.05	105.34	7.66	-31.9	-37.0	8.6	4.97e-02	0	41	0	10485760	25	6425
2026-01-19 08:34:45.05	105.25	7.73	-31.8	-36.4	9.1	2.83e-02	0	41	0	12582912	25	6116
2026-01-19 08:34:46.06	105.16	7.80	-31.8	-36.5	9.0	2.49e-02	0	41	0	14680064	25	6156
2026-01-19 08:34:47.06	105.07	7.86	-31.8	-36.9	9.1	1.92e-02	0	42	0	16777216	24	6468
2026-01-19 08:34:48.07	104.98	7.93	-31.6	-36.2	9.6	2.30e-02	0	42	0	17825792	24	6101
2026-01-19 08:34:49.07	104.89	8.00	-31.7	-36.6	9.3	1.14e-02	0	42	0	19922944	24	6273
2026-01-19 08:34:50.07	104.80	8.07	-31.7	-36.3	9.7	1.25e-02	0	42	0	22020096	24	6114
2026-01-19 08:34:51.07	104.71	8.14	-31.7	-36.4	9.6	1.38e-02	0	41	0	24117248	24	6194
2026-01-19 08:34:52.07	104.62	8.20	-31.6	-36.0	9.9	1.33e-02	0	42	0	26214400	24	5990
2026-01-19 08:34:53.07	104.53	8.27	-31.7	-36.4	9.5	1.35e-02	0	41	0	27262976	24	6204
2026-01-19 08:34:54.08	104.43	8.34	-31.7	-36.4	9.5	1.23e-02	0	42	0	29360128	24	6196
2026-01-19 08:34:55.08	104.34	8.41	-31.8	-36.8	9.2	1.49e-02	0	42	0	31457280	24	6413
2026-01-19 08:34:56.09	104.25	8.48	-31.7	-36.3	9.7	1.35e-02	0	42	0	33554432	24	6131
2026-01-19 08:34:57.09	104.16	8.55	-31.6	-36.1	9.9	9.26e-03	0	42	0	35651584	24	5997
2026-01-19 08:34:58.09	104.06	8.62	-31.6	-35.9	10.1	9.37e-03	0	42	0	36700160	24	5888
2026-01-19 08:34:59.08	103.97	8.69	-31.7	-36.3	9.7	8.66e-03	0	42	0	38797312	24	6120
2026-01-19 08:35:00.09	103.87	8.76	-31.7	-36.1	9.9	9.13e-03	0	42	0	40894464	24	5989
2026-01-19 08:35:01.08	103.78	8.83	-31.7	-36.3	9.8	8.63e-03	0	42	0	42991616	24	6085
2026-01-19 08:35:02.07	103.68	8.89	-31.6	-35.9	10.1	6.87e-03	0	42	0	45088768	24	5880
2026-01-19 08:35:03.07	103.59	8.96	-31.7	-36.2	9.8	9.93e-03	0	42	0	46137344	24	6062
2026-01-19 08:35:04.07	103.49	9.03	-31.6	-35.7	10.2	6.51e-03	0	42	0	48234496	24	5806
2026-01-19 08:35:05.07	103.39	9.10	-31.6	-35.8	10.2	5.80e-03	0	42	0	50331648	24	5831
2026-01-19 08:35:06.07	103.30	9.17	-31.6	-35.7	10.3	5.17e-03	0	42	0	52428800	24	5769
2026-01-19 08:35:07.08	103.20	9.24	-31.6	-35.9	10.1	7.21e-03	0	42	0	53477376	24	5897
2026-01-19 08:35:08.08	103.10	9.31	-31.6	-35.7	10.3	6.65e-03	0	42	0	55574528	24	5771
2026-01-19 08:35:09.09	103.00	9.38	-31.5	-35.4	10.5	4.91e-03	0	42	0	57671680	24	5671
2026-01-19 08:35:10.09	102.90	9.45	-31.7	-36.0	10.0	5.66e-03	0	42	0	59768832	24	5951
2026-01-19 08:35:11.10	102.80	9.53	-31.5	-35.6	10.4	6.99e-03	0	42	0	61865984	24	5733
2026-01-19 08:35:12.10	102.70	9.60	-31.6	-35.7	10.2	4.73e-03	0	42	0	62914560	24	5792
2026-01-19 08:35:13.10	102.60	9.67	-31.8	-36.4	9.7	1.13e-02	0	42	0	65011712	24	6153
2026-01-19 08:35:14.10	102.50	9.74	-31.5	-35.6	10.4	5.87e-03	0	42	0	67108864	24	5726
2026-01-19 08:35:15.11	102.39	9.81	-31.4	-35.2	10.6	4.04e-03	0	42	0	69206016	24	5565
2026-01-19 08:35:16.12	102.29	9.88	-31.4	-35.1	10.7	3.20e-03	0	42	0	71303168	24	5527
2026-01-19 08:35:17.12	102.19	9.95	-31.4	-35.2	10.7	3.43e-03	0	42	0	72351744	24	5536
2026-01-19 08:35:18.12	102.08	10.02	-31.4	-35.2	10.6	3.01e-03	0	42	0	74448896	24	5560
2026-01-19 08:35:19.13	101.98	10.10	-31.6	-35.7	10.2	3.81e-03	0	42	0	76546048	24	5813
2026-01-19 08:35:20.13	101.88	10.17	-31.5	-35.4	10.5	5.30e-03	0	42	0	78643200	24	5670
2026-01-19 08:35:21.13	101.77	10.24	-31.6	-35.9	10.1	6.64e-03	0	42	0	80740352	24	5890
2026-01-19 08:35:22.13	101.66	10.31	-31.5	-35.3	10.6	5.13e-03	0	42	0	81788928	24	5624
2026-01-19 08:35:23.13	101.56	10.38	-31.4	-34.9	10.9	3.05e-03	0	42	0	83886080	24	5430
2026-01-19 08:35:24.13	101.45	10.45	-31.3	-34.7	11.1	1.76e-03	0	42	0	85983232	24	5321
2026-01-19 08:35:25.13	101.35	10.53	-31.3	-34.8	11.1	1.47e-03	0	42	0	88080384	24	5377
2026-01-19 08:35:26.13	101.24	10.60	-31.4	-34.9	11.0	1.88e-03	0	42	0	90177536	24	5409
2026-01-19 08:35:27.13	101.13	10.67	-31.5	-35.3	10.7	2.31e-03	0	43	0	91226112	24	5585
2026-01-19 08:35:28.14	101.02	10.74	-31.5	-35.3	10.7	3.08e-03	0	42	0	93323264	24	5590
2026-01-19 08:35:29.14	100.91	10.82	-31.5	-35.5	10.6	3.40e-03	0	42	0	95420416	24	5654
2026-01-19 08:35:30.14	100.80	10.89	-31.4	-35.1	10.8	2.46e-03	0	42	0	97517568	24	5491
2026-01-19 08:35:31.14	100.69	10.96	-31.5	-35.4	10.6	2.41e-03	0	42	0	99614720	24	5627
2026-01-19 08:35:32.14	100.58	11.04	-31.4	-35.0	11.0	2.36e-03	0	42	0	100663296	24	5444
2026-01-19 08:35:33.15	100.47	11.11	-31.5	-35.2	10.8	2.39e-03	0	42	0	102760448	24	5543
2026-01-19 08:35:34.15	100.35	11.18	-31.4	-35.1	10.9	1.96e-03	0	43	0	104857600	24	5493
2026-01-19 08:35:35.16	100.24	11.26	-31.6	-35.6	10.5	3.58e-03	0	43	0	106954752	24	5703
2026-01-19 08:35:36.15	100.13	11.33	-31.5	-35.3	10.7	3.47e-03	0	43	0	108003328	24	5569
2026-01-19 08:35:37.15	100.01	11.40	-31.5	-35.4	10.6	3.11e-03	0	43	0	110100480	24	5611
2026-01-19 08:35:38.16	99.90	11.48	-31.4	-35.2	10.8	2.85e-03	0	43	0	112197632	24	5533
2026-01-19 08:35:39.17	99.78	11.55	-31.5	-35.4	10.6	3.43e-03	0	43	0	114294784	24	5647
2026-01-19 08:35:40.17	99.67	11.62	-31.4	-35.0	11.0	2.86e-03	0	43	0	116391936	24	5436
2026-01-19 08:35:41.17	99.55	11.70	-31.4	-34.9	11.0	1.70e-03	0	43	0	117440512	24	5418
2026-01-19 08:35:42.18	99.43	11.77	-31.4	-35.0	10.9	1.87e-03	0	42	0	119537664	24	5466
2026-01-19 08:35:43.18	99.32	11.85	-31.4	-34.9	11.0	1.71e-03	0	43	0	121634816	24	5414
2026-01-19 08:35:44.18	99.20	11.92	-31.4	-34.9	11.0	1.85e-03	0	43	0	123731968	24	5415
2026-01-19 08:35:45.19	99.08	12.00	-31.4	-34.8	11.1	1.62e-03	0	43	0	125829120	24	5368
2026-01-19 08:35:46.19	98.96	12.07	-31.4	-34.8	11.1	1.50e-03	0	43	0	126877696	24	5355
2026-01-19 08:35:47.20	98.84	12.15	-31.3	-34.5	11.4	1.04e-03	0	43	0	128974848	24	5243
2026-01-19 08:35:48.20	98.72	12.22	-31.4	-34.7	11.2	1.24e-03	0	43	0	131072000	24	5317
2026-01-19 08:35:49.20	98.60	12.29	-31.3	-34.9	11.4	8.81e-04	0	43	0	133169152	23	5502
2026-01-19 08:35:50.20	98.47	12.37	-31.3	-34.9	11.5	9.46e-04	0	43	0	135266304	23	5494
2026-01-19 08:35:51.20	98.35	12.44	-31.3	-34.9	11.5	9.18e-04	0	43	0	136314880	23	5500
2026-01-19 08:35:52.20	98.23	12.52	-31.3	-35.1	11.3	9.53e-04	0	43	0	138412032	23	5552
2026-01-19 08:35:53.20	98.10	12.59	-31.4	-35.3	11.2	1.19e-03	0	43	0	140509184	23	5652
2026-01-19 08:35:54.20	97.98	12.67	-31.3	-35.2	11.3	1.29e-03	0	43	0	142606336	23	5626
2026-01-19 08:35:55.21	97.85	12.75	-31.3	-35.1	11.3	1.01e-03	0	43	0	144703488	23	5565
2026-01-19 08:35:56.21	97.73	12.82	-31.3	-35.2	11.3	9.96e-04	0	43	0	145752064	23	5612
2026-01-19 08:35:57.22	97.60	12.90	-31.3	-35.0	11.4	1.12e-03	0	43	0	147849216	23	5541
2026-01-19 08:35:58.21	97.48	12.97	-31.3	-35.2	11.3	1.12e-03	0	43	0	149946368	23	5592
2026-01-19 08:35:59.22	97.35	13.05	-31.4	-35.3	11.3	1.21e-03	0	43	0	152043520	23	5667
2026-01-19 08:36:00.22	97.22	13.12	-31.4	-35.2	11.3	1.40e-03	0	43	0	153092096	23	5626
2026-01-19 08:36:01.22	97.09	13.20	-31.4	-35.2	11.4	1.11e-03	0	43	0	155189248	23	5587
2026-01-19 08:36:02.22	96.96	13.28	-31.3	-34.8	11.6	6.98e-04	0	43	0	157286400	23	5441
2026-01-19 08:36:03.22	96.83	13.35	-31.3	-35.0	11.6	6.58e-04	0	43	0	159383552	23	5485
2026-01-19 08:36:04.22	96.70	13.43	-31.3	-34.9	11.6	6.72e-04	0	43	0	161480704	23	5468
2026-01-19 08:36:05.22	96.57	13.50	-31.3	-35.2	11.4	9.16e-04	0	43	0	162529280	23	5584
2026-01-19 08:36:06.23	96.43	13.58	-31.3	-35.0	11.5	9.73e-04	0	43	0	164626432	23	5506
2026-01-19 08:36:07.23	96.30	13.66	-31.3	-34.9	11.6	6.71e-04	0	43	0	166723584	23	5465
2026-01-19 08:36:08.23	96.17	13.73	-31.3	-34.9	11.6	6.18e-04	0	43	0	168820736	23	5459
2026-01-19 08:36:09.23	96.03	13.81	-31.3	-35.0	11.5	7.32e-04	0	43	0	170917888	23	5515
2026-01-19 08:36:10.23	95.90	13.89	-31.3	-35.1	11.5	7.89e-04	0	43	0	171966464	23	5534
2026-01-19 08:36:11.24	95.76	13.96	-31.3	-35.0	11.6	6.58e-04	0	43	0	174063616	23	5484
2026-01-19 08:36:12.24	95.62	14.04	-31.3	-35.0	11.6	8.26e-04	0	43	0	176160768	23	5518
2026-01-19 08:36:13.24	95.49	14.12	-31.2	-34.5	11.9	5.29e-04	0	43	0	178257920	23	5294
2026-01-19 08:36:14.24	95.35	14.20	-31.1	-34.3	12.1	2.75e-04	0	43	0	180355072	23	5195
2026-01-19 08:36:15.24	95.21	14.27	-31.1	-34.3	12.2	2.52e-04	0	43	0	181403648	23	5207
2026-01-19 08:36:16.25	95.07	14.35	-31.1	-34.4	12.2	2.58e-04	0	43	0	183500800	23	5223
2026-01-19 08:36:17.25	94.93	14.43	-31.1	-34.3	12.1	2.79e-04	0	43	0	185597952	23	5213
2026-01-19 08:36:18.26	94.79	14.51	-31.1	-34.3	12.2	2.40e-04	0	43	0	187695104	23	5188
2026-01-19 08:36:19.26	94.64	14.58	-31.1	-34.3	12.2	2.09e-04	0	43	0	189792256	23	5185
2026-01-19 08:36:20.26	94.50	14.66	-31.1	-34.4	12.2	2.87e-04	0	43	0	190840832	23	5224
2026-01-19 08:36:21.27	94.36	14.74	-31.1	-34.1	12.3	1.92e-04	0	43	0	192937984	23	5130
2026-01-19 08:36:22.27	94.21	14.82	-31.0	-33.9	12.5	1.40e-04	0	43	0	195035136	23	5026
2026-01-19 08:36:23.28	94.07	14.89	-31.0	-33.8	12.5	1.28e-04	0	43	0	197132288	23	5017
2026-01-19 08:36:24.29	93.92	14.97	-30.9	-33.8	12.5	1.11e-04	0	43	0	199229440	23	5015
2026-01-19 08:36:25.30	93.77	15.05	-31.0	-34.0	12.4	1.07e-04	0	43	0	200278016	23	5069
2026-01-19 08:36:26.30	93.63	15.13	-31.1	-34.1	12.4	1.34e-04	0	43	0	202375168	23	5123
2026-01-19 08:36:27.31	93.48	15.21	-31.2	-34.4	12.1	2.11e-04	0	43	0	204472320	23	5253
2026-01-19 08:36:28.31	93.33	15.29	-31.0	-33.9	12.5	1.30e-04	0	43	0	206569472	23	5047
2026-01-19 08:36:29.31	93.18	15.36	-31.0	-33.9	12.6	1.01e-04	0	43	0	208666624	23	5021
2026-01-19 08:36:30.31	93.03	15.44	-31.0	-34.0	12.5	9.68e-05	0	43	0	209715200	23	5052
2026-01-19 08:36:31.32	92.88	15.52	-31.0	-34.0	12.5	1.15e-04	0	43	0	211812352	23	5086
2026-01-19 08:36:32.32	92.72	15.60	-31.1	-34.2	12.4	1.52e-04	0	43	0	213909504	23	5143
2026-01-19 08:36:33.33	92.57	15.68	-31.1	-34.3	12.3	1.32e-04	0	43	0	216006656	23	5181
2026-01-19 08:36:34.32	92.42	15.75	-31.1	-34.3	12.3	1.98e-04	0	43	0	217055232	23	5201
2026-01-19 08:36:35.32	92.26	15.83	-31.2	-34.6	12.1	2.47e-04	0	43	0	219152384	23	5321
2026-01-19 08:36:36.33	92.11	15.91	-31.2	-34.6	12.1	2.39e-04	0	43	0	221249536	23	5295
2026-01-19 08:36:37.33	91.95	15.99	-31.2	-34.6	12.1	2.97e-04	0	43	0	223346688	23	5311
2026-01-19 08:36:38.33	91.79	16.07	-31.2	-34.5	12.2	1.86e-04	0	43	0	225443840	23	5257
2026-01-19 08:36:39.34	91.63	16.15	-31.2	-34.5	12.2	2.42e-04	0	43	0	226492416	23	5260
2026-01-19 08:36:40.35	91.47	16.23	-31.2	-34.3	12.3	2.30e-04	0	43	0	228589568	23	5192
2026-01-19 08:36:41.36	91.31	16.31	-31.2	-34.5	12.2	2.31e-04	0	43	0	230686720	23	5261
2026-01-19 08:36:42.36	91.15	16.38	-31.3	-34.9	11.9	3.04e-04	0	43	0	232783872	23	5406
2026-01-19 08:36:43.36	90.99	16.46	-31.4	-34.9	11.9	4.71e-04	0	43	0	234881024	23	5428
2026-01-19 08:36:44.36	90.83	16.54	-31.4	-34.9	11.9	2.94e-04	0	43	0	235929600	23	5424
2026-01-19 08:36:45.36	90.67	16.62	-31.4	-35.1	11.8	5.52e-04	0	43	0	238026752	23	5485
2026-01-19 08:36:46.37	90.50	16.70	-31.4	-35.0	11.9	3.98e-04	0	43	0	240123904	23	5459
2026-01-19 08:36:47.37	90.34	16.78	-31.3	-34.7	12.1	3.49e-04	0	43	0	242221056	23	5346
2026-01-19 08:36:48.37	90.17	16.86	-31.3	-34.8	12.0	3.65e-04	0	43	0	244318208	23	5388
2026-01-19 08:36:49.38	90.01	16.93	-31.4	-34.9	11.9	3.87e-04	0	43	0	245366784	23	5429
2026-01-19 08:36:50.38	89.84	17.01	-31.4	-35.0	11.8	4.10e-04	0	43	0	247463936	23	5482
2026-01-19 08:36:51.39	89.67	17.09	-31.4	-35.1	11.8	5.24e-04	0	43	0	249561088	23	5478
2026-01-19 08:36:52.39	89.50	17.17	-31.3	-34.8	12.1	3.21e-04	0	43	0	251658240	23	5357
2026-01-19 08:36:53.39	89.33	17.25	-31.2	-34.4	12.3	2.02e-04	0	43	0	253755392	23	5223
2026-01-19 08:36:54.39	89.16	17.33	-31.2	-34.4	12.4	1.70e-04	0	43	0	254803968	23	5203
2026-01-19 08:36:55.40	88.99	17.41	-31.3	-34.6	12.2	2.12e-04	0	43	0	256901120	23	5281
2026-01-19 08:36:56.40	88.81	17.49	-31.3	-34.7	12.1	2.46e-04	0	43	0	258998272	23	5334
2026-01-19 08:36:57.40	88.64	17.56	-31.4	-35.0	12.0	2.78e-04	0	43	0	261095424	23	5426
2026-01-19 08:36:58.41	88.46	17.64	-31.4	-35.1	11.9	3.57e-04	0	43	0	263192576	23	5479
2026-01-19 08:36:59.40	88.29	17.72	-31.5	-35.3	11.7	4.76e-04	0	43	0	264241152	23	5591
2026-01-19 08:37:00.41	88.11	17.80	-31.6	-35.5	11.6	6.45e-04	0	43	0	266338304	23	5652
2026-01-19 08:37:01.41	87.94	17.88	-31.5	-35.4	11.7	6.24e-04	0	43	0	268435456	23	5624
2026-01-19 08:37:02.41	87.76	17.96	-31.5	-35.4	11.7	6.45e-04	0	43	0	270532608	23	5612
2026-01-19 08:37:03.41	87.58	18.03	-31.6	-35.5	11.6	6.10e-04	0	43	0	272629760	23	5649
2026-01-19 08:37:04.41	87.40	18.11	-31.6	-35.6	11.6	6.28e-04	0	43	0	273678336	23	5683
2026-01-19 08:37:05.41	87.22	18.19	-31.7	-35.9	11.3	1.18e-03	0	43	0	275775488	23	5821
2026-01-19 08:37:06.42	87.04	18.27	-31.6	-35.4	11.7	7.47e-04	0	43	0	277872640	23	5630
2026-01-19 08:37:07.42	86.85	18.35	-31.5	-35.2	11.9	4.43e-04	0	43	0	279969792	23	5523
2026-01-19 08:37:08.41	86.67	18.43	-31.5	-35.2	11.9	4.00e-04	0	43	0	281018368	23	5507
2026-01-19 08:37:09.41	86.49	18.50	-31.5	-35.2	11.9	4.92e-04	0	43	0	283115520	23	5532
2026-01-19 08:37:10.42	86.30	18.58	-31.4	-35.1	12.0	3.78e-04	0	43	0	285212672	23	5463
2026-01-19 08:37:11.43	86.11	18.66	-31.5	-35.1	11.9	4.62e-04	0	43	0	287309824	23	5494
2026-01-19 08:37:12.43	85.92	18.74	-31.4	-34.8	12.1	3.04e-04	0	43	0	289406976	23	5357
2026-01-19 08:37:13.44	85.73	18.82	-31.3	-34.6	12.3	2.03e-04	0	43	0	290455552	23	5286
2026-01-19 08:37:14.44	85.54	18.89	-31.3	-34.5	12.4	1.62e-04	0	43	0	292552704	23	5227
2026-01-19 08:37:15.45	85.35	18.97	-31.3	-34.5	12.4	1.40e-04	0	43	0	294649856	23	5236
2026-01-19 08:37:16.45	85.16	19.05	-31.2	-34.4	12.4	1.49e-04	0	43	0	296747008	23	5192
2026-01-19 08:37:17.45	84.97	19.13	-31.2	-34.5	12.4	1.14e-04	0	43	0	298844160	23	5206
2026-01-19 08:37:18.46	84.77	19.21	-31.3	-34.5	12.4	1.43e-04	0	43	0	299892736	23	5219
2026-01-19 08:37:19.45	84.58	19.28	-31.1	-34.1	12.6	9.68e-05	0	43	0	301989888	23	5081
2026-01-19 08:37:20.46	84.38	19.36	-31.1	-34.1	12.7	6.17e-05	0	43	0	304087040	23	5058
2026-01-19 08:37:21.45	84.19	19.44	-31.1	-34.1	12.6	9.38e-05	0	43	0	306184192	23	5085
2026-01-19 08:37:22.45	83.99	19.51	-31.1	-34.0	12.7	7.17e-05	0	43	0	308281344	23	5040
2026-01-19 08:37:23.45	83.79	19.59	-31.1	-34.0	12.7	8.16e-05	0	43	0	309329920	23	5033
2026-01-19 08:37:24.45	83.59	19.67	-31.2	-34.2	12.6	7.32e-05	0	44	0	311427072	23	5109
2026-01-19 08:37:25.46	83.39	19.74	-31.1	-34.1	12.7	1.11e-04	0	43	0	313524224	23	5059
2026-01-19 08:37:26.46	83.19	19.82	-30.9	-33.5	13.0	2.13e-05	0	43	0	315621376	23	4856
2026-01-19 08:37:27.46	82.99	19.89	-30.9	-33.3	13.1	2.89e-05	0	43	0	317718528	23	4790
2026-01-19 08:37:28.47	82.78	19.97	-30.8	-33.6	13.4	1.98e-05	0	43	0	318767104	22	4963
2026-01-19 08:37:29.47	82.58	20.05	-30.6	-33.1	13.7	5.30e-06	0	43	0	320864256	22	4807
2026-01-19 08:37:30.48	82.37	20.12	-30.5	-32.9	13.8	9.90e-06	0	44	0	322961408	22	4747
2026-01-19 08:37:31.48	82.17	20.20	-30.5	-32.9	13.8	6.80e-06	0	44	0	325058560	22	4734
2026-01-19 08:37:32.49	81.96	20.28	-30.6	-33.0	13.8	3.80e-06	0	43	0	327155712	22	4769
2026-01-19 08:37:33.49	81.75	20.35	-30.5	-32.9	13.8	8.30e-06	0	43	0	328204288	22	4731
2026-01-19 08:37:34.49	81.54	20.43	-30.3	-32.3	14.2	4.50e-06	0	43	0	330301440	22	4539
2026-01-19 08:37:35.49	81.33	20.50	-30.2	-32.5	14.4	2.20e-06	0	44	0	332398592	21	4703
2026-01-19 08:37:36.50	81.11	20.58	-30.3	-32.9	14.1	7.00e-07	0	43	0	334495744	21	4838
2026-01-19 08:37:37.50	80.90	20.65	-30.3	-32.8	14.2	7.00e-07	0	43	0	335544320	21	4800
2026-01-19 08:37:38.50	80.69	20.72	-30.2	-32.5	14.4	0.00e+00	0	43	0	337641472	21	4702
2026-01-19 08:37:39.50	80.47	20.80	-30.2	-32.6	14.3	7.00e-07	0	43	0	339738624	21	4738
2026-01-19 08:37:40.50	80.26	20.87	-30.2	-32.7	14.3	7.00e-07	0	43	0	341835776	21	4758
2026-01-19 08:37:41.51	80.04	20.95	-30.2	-32.5	14.5	7.00e-07	0	43	0	343932928	21	4688
2026-01-19 08:37:42.51	79.82	21.02	-30.2	-32.6	14.4	0.00e+00	0	44	0	344981504	21	4724
2026-01-19 08:37:43.52	79.60	21.09	-30.3	-32.8	14.3	7.00e-07	0	43	0	347078656	21	4786
2026-01-19 08:37:44.51	79.38	21.17	-30.1	-32.4	14.5	7.00e-07	0	43	0	349175808	21	4646
2026-01-19 08:37:45.52	79.16	21.24	-30.0	-31.9	14.8	7.00e-07	0	43	0	351272960	21	4519
2026-01-19 08:37:46.53	78.94	21.31	-30.0	-31.9	14.8	0.00e+00	0	43	0	353370112	21	4508
2026-01-19 08:37:47.53	78.71	21.38	-30.0	-32.0	14.7	1.50e-06	0	43	0	354418688	21	4544
2026-01-19 08:37:48.54	78.49	21.46	-30.1	-32.2	14.7	7.00e-07	0	43	0	356515840	21	4582
2026-01-19 08:37:49.54	78.26	21.53	-29.9	-31.8	14.9	0.00e+00	0	43	0	358612992	21	4473
2026-01-19 08:37:50.54	78.03	21.60	-29.9	-31.8	14.9	0.00e+00	0	43	0	360710144	21	4473
2026-01-19 08:37:51.54	77.81	21.67	-30.0	-31.9	14.9	7.00e-07	0	43	0	362807296	21	4493
2026-01-19 08:37:52.54	77.58	21.74	-29.9	-31.8	14.9	0.00e+00	0	43	0	363855872	21	4469
2026-01-19 08:37:53.54	77.35	21.81	-30.0	-32.0	14.8	7.00e-07	0	43	0	365953024	21	4515
2026-01-19 08:37:54.54	77.12	21.88	-30.0	-31.9	14.9	0.00e+00	0	43	0	368050176	21	4491
2026-01-19 08:37:55.54	76.89	21.95	-29.9	-31.7	15.0	0.00e+00	0	43	0	370147328	21	4447
2026-01-19 08:37:56.54	76.66	22.02	-29.8	-31.5	15.1	0.00e+00	0	43	0	372244480	21	4380
2026-01-19 08:37:57.55	76.42	22.09	-30.0	-31.9	14.9	0.00e+00	0	43	0	373293056	21	4499
2026-01-19 08:37:58.54	76.19	22.16	-29.9	-31.8	14.9	0.00e+00	0	43	0	375390208	21	4449
2026-01-19 08:37:59.55	75.95	22.23	-29.8	-31.6	15.1	0.00e+00	0	43	0	377487360	21	4384
2026-01-19 08:38:00.55	75.71	22.30	-29.9	-31.8	15.0	0.00e+00	0	43	0	379584512	21	4464
2026-01-19 08:38:01.55	75.48	22.37	-30.1	-32.1	14.8	0.00e+00	0	43	0	380633088	21	4571
2026-01-19 08:38:02.55	75.24	22.43	-30.1	-32.3	14.6	0.00e+00	0	43	0	382730240	21	4628
2026-01-19 08:38:03.55	75.00	22.50	-30.1	-32.2	14.7	0.00e+00	0	43	0	384827392	21	4601
2026-01-19 08:38:04.56	74.75	22.57	-30.2	-32.4	14.6	0.00e+00	0	44	0	386924544	21	4641
2026-01-19 08:38:05.56	74.51	22.63	-30.2	-32.3	14.6	0.00e+00	0	43	0	389021696	21	4630
2026-01-19 08:38:06.56	74.27	22.70	-30.1	-32.2	14.7	7.00e-07	0	44	0	390070272	21	4596
2026-01-19 08:38:07.56	74.02	22.77	-30.1	-32.3	14.6	0.00e+00	0	43	0	392167424	21	4626
2026-01-19 08:38:08.57	73.78	22.83	-30.1	-32.3	14.6	0.00e+00	0	44	0	394264576	21	4620
2026-01-19 08:38:09.57	73.53	22.90	-30.3	-32.7	14.4	7.00e-07	0	43	0	396361728	21	4748
2026-01-19 08:38:10.57	73.28	22.96	-30.3	-32.8	14.4	0.00e+00	0	43	0	398458880	21	4766
2026-01-19 08:38:11.57	73.04	23.03	-30.3	-32.7	14.5	1.50e-06	0	43	0	399507456	21	4737
2026-01-19 08:38:12.58	72.78	23.09	-30.3	-32.7	14.4	7.00e-07	0	43	0	401604608	21	4750
2026-01-19 08:38:13.58	72.53	23.15	-30.4	-32.9	14.3	7.00e-07	0	44	0	403701760	21	4816
2026-01-19 08:38:14.58	72.28	23.22	-30.3	-32.8	14.4	3.00e-06	0	43	0	405798912	21	4775
2026-01-19 08:38:15.59	72.03	23.28	-30.3	-32.7	14.4	0.00e+00	0	43	0	407896064	21	4763
2026-01-19 08:38:16.60	71.77	23.34	-30.3	-32.8	14.4	1.50e-06	0	43	0	408944640	21	4774
2026-01-19 08:38:17.60	71.52	23.40	-30.5	-33.3	14.1	7.00e-07	0	44	0	411041792	21	4958
2026-01-19 08:38:18.60	71.26	23.46	-30.5	-33.1	14.2	4.50e-06	0	44	0	413138944	21	4878
2026-01-19 08:38:19.61	71.01	23.52	-30.5	-33.1	14.2	1.50e-06	0	43	0	415236096	21	4890
2026-01-19 08:38:20.61	70.75	23.58	-30.5	-33.2	14.1	3.00e-06	0	44	0	417333248	21	4915
2026-01-19 08:38:21.61	70.49	23.64	-30.3	-32.7	14.5	7.00e-07	0	43	0	418381824	21	4732
2026-01-19 08:38:22.62	70.23	23.70	-30.1	-32.2	14.7	0.00e+00	0	43	0	420478976	21	4596
2026-01-19 08:38:23.62	69.97	23.76	-30.1	-32.2	14.8	0.00e+00	0	44	0	422576128	21	4600
2026-01-19 08:38:24.63	69.70	23.82	-30.0	-32.1	14.9	0.00e+00	0	44	0	424673280	21	4545
2026-01-19 08:38:25.63	69.44	23.88	-29.8	-31.6	15.1	0.00e+00	0	44	0	426770432	21	4384
2026-01-19 08:38:26.63	69.18	23.93	-29.7	-31.7	15.4	0.00e+00	0	43	0	427819008	20	4515
2026-01-19 08:38:27.63	68.92	23.99	-29.6	-31.5	15.5	0.00e+00	0	43	0	429916160	20	4479
2026-01-19 08:38:28.64	68.65	24.05	-29.8	-32.1	15.2	0.00e+00	0	43	0	432013312	20	4641
2026-01-19 08:38:29.64	68.38	24.10	-29.7	-31.8	15.3	0.00e+00	0	44	0	434110464	20	4553
2026-01-19 08:38:30.65	68.11	24.16	-29.5	-31.2	15.6	0.00e+00	0	43	0	436207616	20	4387
2026-01-19 08:38:31.65	67.84	24.21	-29.4	-31.0	15.8	0.00e+00	0	44	0	437256192	20	4313
2026-01-19 08:38:32.65	67.58	24.27	-29.4	-31.0	15.8	0.00e+00	0	43	0	439353344	20	4314
2026-01-19 08:38:33.65	67.31	24.32	-29.5	-31.1	15.7	0.00e+00	0	43	0	441450496	20	4352
2026-01-19 08:38:34.66	67.03	24.37	-29.6	-31.4	15.6	0.00e+00	0	43	0	443547648	20	4441
2026-01-19 08:38:35.66	66.76	24.42	-29.6	-31.5	15.5	0.00e+00	0	43	0	444596224	20	4457
2026-01-19 08:38:36.66	66.49	24.48	-29.8	-31.8	15.3	0.00e+00	0	43	0	446693376	20	4570
2026-01-19 08:38:37.67	66.21	24.53	-29.9	-32.1	15.1	0.00e+00	0	44	0	448790528	20	4659
2026-01-19 08:38:38.66	65.94	24.58	-29.9	-32.3	15.0	0.00e+00	0	44	0	450887680	20	4713
2026-01-19 08:38:39.67	65.66	24.63	-30.0	-32.5	14.9	7.00e-07	0	43	0	452984832	20	4802
2026-01-19 08:38:40.67	65.39	24.67	-30.1	-32.7	14.8	0.00e+00	0	43	0	454033408	20	4844
2026-01-19 08:38:41.66	65.12	24.72	-30.1	-32.7	14.8	0.00e+00	0	43	0	456130560	20	4841
2026-01-19 08:38:42.67	64.84	24.77	-30.1	-32.7	14.8	7.00e-07	0	43	0	458227712	20	4842
2026-01-19 08:38:43.67	64.56	24.82	-30.2	-33.1	14.6	0.00e+00	0	44	0	460324864	20	4981
2026-01-19 08:38:44.66	64.28	24.86	-30.1	-32.7	14.8	0.00e+00	0	44	0	462422016	20	4844
2026-01-19 08:38:45.66	64.00	24.91	-30.1	-32.6	14.8	7.00e-07	0	44	0	463470592	20	4832
2026-01-19 08:38:46.66	63.72	24.95	-30.1	-32.8	14.8	0.00e+00	0	44	0	465567744	20	4883
2026-01-19 08:38:47.66	63.44	25.00	-30.3	-33.1	14.5	7.00e-07	0	44	0	467664896	20	4999
2026-01-19 08:38:48.67	63.15	25.04	-30.3	-33.3	14.4	0.00e+00	0	44	0	469762048	20	5055
2026-01-19 08:38:49.67	62.87	25.08	-30.4	-33.4	14.3	2.20e-06	0	43	0	470810624	20	5111
2026-01-19 08:38:50.67	62.59	25.13	-30.4	-33.5	14.3	0.00e+00	0	44	0	472907776	20	5114
2026-01-19 08:38:51.67	62.30	25.17	-30.5	-33.1	14.3	1.50e-06	0	44	0	475004928	21	4889
2026-01-19 08:38:52.67	62.02	25.21	-30.6	-33.5	14.0	1.50e-06	0	44	0	477102080	21	5006
2026-01-19 08:38:53.68	61.73	25.25	-30.6	-33.5	13.9	5.30e-06	0	43	0	479199232	21	5035
2026-01-19 08:38:54.68	61.44	25.29	-30.7	-33.6	13.9	3.80e-06	0	44	0	481296384	21	5063
2026-01-19 08:38:55.69	61.15	25.33	-30.7	-33.7	13.9	5.30e-06	0	43	0	482344960	21	5089
2026-01-19 08:38:56.69	60.86	25.36	-30.7	-33.8	13.8	7.60e-06	0	44	0	484442112	21	5135
2026-01-19 08:38:57.70	60.57	25.40	-30.9	-34.2	13.6	9.10e-06	0	44	0	486539264	21	5265
2026-01-19 08:38:58.69	60.28	25.44	-30.9	-34.3	13.5	8.30e-06	0	43	0	488636416	21	5325
2026-01-19 08:38:59.70	59.99	25.47	-30.9	-34.2	13.5	1.60e-05	0	43	0	489684992	21	5294
2026-01-19 08:39:00.70	59.70	25.51	-31.1	-34.2	13.3	9.90e-06	0	44	0	491782144	22	5175
2026-01-19 08:39:01.70	59.41	25.54	-31.3	-34.8	12.8	4.27e-05	0	44	0	493879296	22	5412
2026-01-19 08:39:02.71	59.11	25.58	-31.4	-35.2	12.5	8.54e-05	0	44	0	495976448	22	5586
2026-01-19 08:39:03.70	58.82	25.61	-31.4	-34.6	12.7	1.09e-04	0	44	0	498073600	23	5195
2026-01-19 08:39:04.71	58.53	25.64	-31.2	-34.0	13.0	4.19e-05	0	44	0	499122176	23	4996
2026-01-19 08:39:05.71	58.23	25.67	-31.2	-34.0	13.1	2.21e-05	0	44	0	501219328	23	4969
2026-01-19 08:39:06.71	57.94	25.70	-31.2	-34.1	13.0	3.81e-05	0	44	0	503316480	23	5026
2026-01-19 08:39:07.72	57.64	25.73	-31.3	-34.3	12.8	2.67e-05	0	44	0	505413632	23	5106
2026-01-19 08:39:08.72	57.35	25.76	-31.2	-34.0	13.1	4.27e-05	0	43	0	507510784	23	4992
2026-01-19 08:39:09.73	57.05	25.79	-31.0	-33.5	13.4	9.90e-06	0	44	0	508559360	23	4804
2026-01-19 08:39:10.72	56.75	25.81	-31.0	-33.5	13.4	1.29e-05	0	44	0	510656512	23	4824
2026-01-19 08:39:11.72	56.46	25.84	-31.1	-33.9	13.1	2.59e-05	0	43	0	512753664	23	4950
2026-01-19 08:39:12.73	56.16	25.86	-31.3	-34.2	12.9	4.27e-05	0	43	0	514850816	23	5070
2026-01-19 08:39:13.74	55.85	25.89	-31.3	-34.3	12.9	5.34e-05	0	44	0	516947968	23	5097
2026-01-19 08:39:14.74	55.56	25.91	-31.4	-34.6	12.6	8.46e-05	0	44	0	517996544	23	5225
2026-01-19 08:39:15.74	55.26	25.94	-31.3	-34.5	12.7	1.04e-04	0	44	0	520093696	23	5186
2026-01-19 08:39:16.74	54.96	25.96	-31.3	-34.4	12.8	5.87e-05	0	44	0	522190848	23	5138
2026-01-19 08:39:17.74	54.66	25.98	-31.3	-34.3	12.8	7.62e-05	0	44	0	524288000	23	5096
2026-01-19 08:39:18.74	54.36	26.00	-31.3	-34.4	12.8	6.02e-05	0	44	0	526385152	23	5145
2026-01-19 08:39:19.74	54.06	26.02	-31.3	-34.3	12.9	5.72e-05	0	44	0	527433728	23	5095
2026-01-19 08:39:20.75	53.75	26.04	-31.2	-34.1	13.0	6.25e-05	0	44	0	529530880	23	5013
2026-01-19 08:39:21.75	53.45	26.05	-31.3	-34.4	12.8	4.65e-05	0	44	0	531628032	23	5130
2026-01-19 08:39:22.76	53.15	26.07	-31.3	-34.5	12.8	5.72e-05	0	44	0	533725184	23	5156
2026-01-19 08:39:23.76	52.85	26.09	-31.4	-34.7	12.6	8.01e-05	0	44	0	534773760	23	5243
2026-01-19 08:39:24.77	52.54	26.10	-31.4	-34.6	12.6	9.38e-05	0	44	0	536870912	23	5226
2026-01-19 08:39:25.78	52.24	26.12	-31.4	-34.8	12.6	9.53e-05	0	44	0	538968064	23	5284
2026-01-19 08:39:26.79	51.93	26.13	-31.4	-34.7	12.6	9.15e-05	0	44	0	541065216	23	5240
2026-01-19 08:39:27.79	51.63	26.14	-31.4	-34.5	12.7	6.71e-05	0	44	0	543162368	23	5182
2026-01-19 08:39:28.80	51.32	26.15	-31.2	-34.2	13.0	5.34e-05	0	43	0	545259520	23	5042
2026-01-19 08:39:29.80	51.02	26.16	-31.1	-33.9	13.1	4.34e-05	0	44	0	546308096	23	4961
2026-01-19 08:39:30.81	50.71	26.17	-31.2	-34.0	13.1	2.82e-05	0	44	0	548405248	23	4984
2026-01-19 08:39:31.81	50.41	26.18	-31.1	-33.7	13.2	2.13e-05	0	43	0	550502400	23	4889
2026-01-19 08:39:32.81	50.10	26.19	-31.0	-33.4	13.4	1.37e-05	0	43	0	552599552	23	4774
2026-01-19 08:39:33.81	49.80	26.20	-30.9	-33.2	13.7	7.60e-06	0	44	0	553648128	23	4683
2026-01-19 08:39:34.81	49.50	26.20	-31.0	-33.4	13.4	1.06e-05	0	43	0	555745280	23	4766
2026-01-19 08:39:35.82	49.19	26.21	-30.9	-33.4	13.5	1.14e-05	0	44	0	557842432	23	4750
2026-01-19 08:39:36.82	48.89	26.21	-31.1	-33.9	13.2	1.22e-05	0	44	0	559939584	23	4932
2026-01-19 08:39:37.83	48.58	26.22	-31.0	-33.6	13.3	2.59e-05	0	44	0	562036736	23	4849
2026-01-19 08:39:38.82	48.28	26.22	-30.9	-33.2	13.6	1.60e-05	0	44	0	563085312	23	4684
2026-01-19 08:39:39.83	47.97	26.22	-30.7	-33.3	13.9	6.80e-06	0	44	0	565182464	22	4828
2026-01-19 08:39:40.83	47.67	26.22	-30.6	-33.0	14.0	1.50e-06	0	44	0	567279616	22	4731
2026-01-19 08:39:41.84	47.36	26.22	-30.5	-32.8	14.2	7.00e-07	0	44	0	569376768	22	4649
2026-01-19 08:39:42.84	47.05	26.22	-30.7	-33.2	14.0	1.50e-06	0	43	0	571473920	22	4800
2026-01-19 08:39:43.85	46.75	26.22	-30.6	-33.0	14.1	1.50e-06	0	44	0	572522496	22	4717
2026-01-19 08:39:44.86	46.44	26.22	-30.5	-32.7	14.3	0.00e+00	0	44	0	574619648	22	4622
2026-01-19 08:39:45.87	46.13	26.21	-30.4	-32.4	14.4	7.00e-07	0	44	0	576716800	22	4531
2026-01-19 08:39:46.87	45.83	26.21	-30.4	-32.5	14.4	0.00e+00	0	43	0	578813952	22	4565
2026-01-19 08:39:47.87	45.52	26.20	-30.4	-32.4	14.5	0.00e+00	0	44	0	580911104	22	4520
2026-01-19 08:39:48.87	45.22	26.20	-30.4	-32.4	14.4	0.00e+00	0	44	0	581959680	22	4550
2026-01-19 08:39:49.87	44.92	26.19	-30.5	-32.6	14.3	0.00e+00	0	44	0	584056832	22	4605
2026-01-19 08:39:50.88	44.61	26.18	-30.6	-32.9	14.1	3.00e-06	0	43	0	586153984	22	4712
2026-01-19 08:39:51.88	44.31	26.17	-30.4	-32.4	14.4	0.00e+00	0	43	0	588251136	22	4540
2026-01-19 08:39:52.88	44.00	26.16	-30.2	-32.4	14.7	0.00e+00	0	44	0	590348288	21	4651
2026-01-19 08:39:53.88	43.70	26.15	-30.1	-32.2	14.8	0.00e+00	0	44	0	591396864	21	4580
2026-01-19 08:39:54.89	43.39	26.14	-30.3	-32.6	14.6	7.00e-07	0	44	0	593494016	21	4691
2026-01-19 08:39:55.89	43.09	26.13	-30.1	-32.1	14.9	0.00e+00	0	44	0	595591168	21	4557
2026-01-19 08:39:56.90	42.79	26.11	-30.0	-31.9	15.0	0.00e+00	0	44	0	597688320	21	4473
2026-01-19 08:39:57.89	42.49	26.10	-29.9	-31.7	15.2	0.00e+00	0	44	0	599785472	21	4411
2026-01-19 08:39:58.89	42.18	26.08	-29.9	-31.8	15.1	0.00e+00	0	43	0	600834048	21	4436
2026-01-19 08:39:59.90	41.88	26.07	-29.8	-31.5	15.3	0.00e+00	0	43	0	602931200	21	4351
2026-01-19 08:40:00.90	41.58	26.05	-29.9	-31.7	15.1	0.00e+00	0	43	0	605028352	21	4416
2026-01-19 08:40:01.90	41.28	26.03	-29.9	-31.6	15.2	0.00e+00	0	44	0	607125504	21	4375
2026-01-19 08:40:02.90	40.98	26.02	-29.8	-31.3	15.3	0.00e+00	0	44	0	608174080	21	4308
2026-01-19 08:40:03.90	40.68	26.00	-29.8	-31.5	15.3	0.00e+00	0	44	0	610271232	21	4359
2026-01-19 08:40:04.90	40.38	25.98	-29.8	-31.4	15.3	0.00e+00	0	43	0	612368384	21	4324
2026-01-19 08:40:05.90	40.08	25.95	-29.8	-32.0	15.2	0.00e+00	0	44	0	614465536	20	4627
2026-01-19 08:40:06.91	39.78	25.93	-29.8	-31.8	15.4	0.00e+00	0	44	0	616562688	20	4560
2026-01-19 08:40:07.91	39.48	25.91	-29.7	-31.7	15.4	0.00e+00	0	44	0	617611264	20	4526
2026-01-19 08:40:08.91	39.18	25.89	-29.8	-32.0	15.3	0.00e+00	0	44	0	619708416	20	4613
2026-01-19 08:40:09.91	38.88	25.86	-29.8	-31.9	15.3	0.00e+00	0	44	0	621805568	20	4593
2026-01-19 08:40:10.92	38.58	25.84	-29.8	-31.9	15.3	0.00e+00	0	44	0	623902720	20	4595
2026-01-19 08:40:11.92	38.29	25.81	-29.8	-31.9	15.3	0.00e+00	0	44	0	625999872	20	4603
2026-01-19 08:40:12.92	37.99	25.78	-29.9	-32.2	15.1	0.00e+00	0	44	0	627048448	20	4681
2026-01-19 08:40:13.92	37.69	25.76	-30.0	-32.4	15.0	0.00e+00	0	44	0	629145600	20	4738
2026-01-19 08:40:14.92	37.40	25.73	-30.2	-32.8	14.7	0.00e+00	0	43	0	631242752	20	4887
2026-01-19 08:40:15.93	37.10	25.70	-30.0	-32.5	14.9	0.00e+00	0	44	0	633339904	20	4771
2026-01-19 08:40:16.94	36.80	25.67	-30.0	-32.4	15.0	0.00e+00	0	44	0	635437056	20	4758
2026-01-19 08:40:17.94	36.51	25.64	-30.1	-32.6	14.9	0.00e+00	0	44	0	636485632	20	4813
2026-01-19 08:40:18.93	36.22	25.60	-30.3	-33.1	14.5	7.00e-07	0	44	0	638582784	20	5008
2026-01-19 08:40:19.94	35.93	25.57	-30.3	-33.1	14.6	0.00e+00	0	43	0	640679936	20	4984
2026-01-19 08:40:20.95	35.63	25.54	-30.3	-33.2	14.5	1.50e-06	0	44	0	642777088	20	5021
2026-01-19 08:40:21.95	35.34	25.50	-30.3	-33.1	14.5	1.50e-06	0	44	0	644874240	20	4992
2026-01-19 08:40:22.96	35.05	25.47	-30.3	-33.3	14.4	0.00e+00	0	43	0	645922816	20	5062
2026-01-19 08:40:23.96	34.76	25.43	-30.3	-33.3	14.4	0.00e+00	0	44	0	648019968	20	5075
2026-01-19 08:40:24.96	34.47	25.40	-30.4	-33.5	14.3	7.00e-07	0	43	0	650117120	20	5127
2026-01-19 08:40:25.97	34.18	25.36	-30.4	-33.6	14.2	1.50e-06	0	44	0	652214272	20	5164
2026-01-19 08:40:26.98	33.89	25.32	-30.6	-33.5	14.0	1.50e-06	0	44	0	653262848	21	5021
2026-01-19 08:40:27.98	33.60	25.28	-30.9	-34.4	13.5	6.10e-06	0	44	0	655360000	21	5346
2026-01-19 08:40:28.99	33.31	25.24	-30.7	-33.7	13.8	3.80e-06	0	44	0	657457152	21	5102
2026-01-19 08:40:29.99	33.03	25.20	-30.6	-33.4	14.0	2.20e-06	0	43	0	659554304	21	5002
2026-01-19 08:40:31.00	32.74	25.16	-30.5	-33.3	14.1	1.50e-06	0	44	0	661651456	21	4957
2026-01-19 08:40:32.00	32.46	25.12	-30.5	-33.2	14.1	3.00e-06	0	43	0	663748608	21	4930
2026-01-19 08:40:33.00	32.17	25.08	-30.7	-33.7	13.9	2.20e-06	0	44	0	664797184	21	5086
2026-01-19 08:40:34.00	31.89	25.04	-30.8	-34.0	13.6	3.00e-06	0	43	0	666894336	21	5202
2026-01-19 08:40:35.00	31.61	24.99	-30.8	-34.1	13.6	4.50e-06	0	44	0	668991488	21	5243
2026-01-19 08:40:36.00	31.33	24.95	-30.9	-34.2	13.5	9.10e-06	0	44	0	671088640	21	5293
2026-01-19 08:40:37.01	31.04	24.90	-31.0	-34.2	13.2	1.90e-05	0	43	0	672137216	22	5157
2026-01-19 08:40:38.01	30.77	24.86	-30.9	-33.7	13.5	1.44e-05	0	44	0	674234368	22	4991
2026-01-19 08:40:39.01	30.49	24.81	-30.9	-33.8	13.5	7.60e-06	0	44	0	676331520	22	5007
2026-01-19 08:40:40.02	30.21	24.76	-31.0	-34.0	13.3	1.14e-05	0	44	0	678428672	22	5097
2026-01-19 08:40:41.02	29.93	24.72	-31.0	-33.9	13.4	1.67e-05	0	44	0	680525824	22	5076
2026-01-19 08:40:42.03	29.65	24.67	-31.1	-34.5	13.1	2.13e-05	0	43	0	681574400	22	5276
2026-01-19 08:40:43.03	29.38	24.62	-31.1	-34.2	13.2	2.36e-05	0	43	0	683671552	22	5189
2026-01-19 08:40:44.03	29.10	24.57	-31.0	-34.1	13.3	2.05e-05	0	44	0	685768704	22	5119
2026-01-19 08:40:45.04	28.83	24.52	-31.0	-34.2	13.2	1.29e-05	0	44	0	687865856	22	5165
2026-01-19 08:40:46.05	28.55	24.47	-31.0	-34.2	13.2	1.90e-05	0	44	0	689963008	22	5169
2026-01-19 08:40:47.04	28.28	24.42	-31.3	-34.8	12.8	3.73e-05	0	43	0	691011584	22	5409
2026-01-19 08:40:48.04	28.01	24.37	-31.1	-34.3	13.1	4.88e-05	0	43	0	693108736	22	5213
2026-01-19 08:40:49.04	27.74	24.31	-31.0	-34.0	13.3	2.21e-05	0	44	0	695205888	22	5108
2026-01-19 08:40:50.04	27.47	24.26	-31.0	-34.1	13.3	1.75e-05	0	44	0	697303040	22	5145
2026-01-19 08:40:51.05	27.20	24.21	-31.0	-34.1	13.2	2.13e-05	0	43	0	699400192	22	5151
2026-01-19 08:40:52.05	26.94	24.15	-31.1	-34.2	13.2	2.21e-05	0	43	0	700448768	22	5182
2026-01-19 08:40:53.05	26.67	24.10	-31.1	-34.4	13.0	3.05e-05	0	43	0	702545920	22	5248
2026-01-19 08:40:54.05	26.41	24.04	-31.1	-34.4	13.0	2.89e-05	0	44	0	704643072	22	5255
2026-01-19 08:40:55.05	26.14	23.99	-31.1	-34.3	13.1	2.44e-05	0	43	0	706740224	22	5219
2026-01-19 08:40:56.05	25.88	23.93	-31.1	-34.4	13.1	1.90e-05	0	44	0	708837376	22	5251
2026-01-19 08:40:57.06	25.61	23.87	-31.2	-34.5	13.0	3.35e-05	0	44	0	709885952	22	5288
2026-01-19 08:40:58.05	25.36	23.82	-31.4	-35.1	12.6	6.02e-05	0	44	0	711983104	22	5522
2026-01-19 08:40:59.05	25.10	23.76	-31.3	-35.0	12.7	9.99e-05	0	44	0	714080256	22	5493
2026-01-19 08:41:00.04	24.84	23.70	-31.5	-35.1	12.3	1.82e-04	0	43	0	716177408	23	5405
2026-01-19 08:41:01.04	24.58	23.64	-31.7	-35.7	11.8	3.13e-04	0	43	0	717225984	23	5669
2026-01-19 08:41:02.04	24.32	23.58	-31.4	-34.7	12.5	2.57e-04	0	44	0	719323136	23	5263
2026-01-19 08:41:03.04	24.07	23.52	-31.1	-33.9	13.1	5.11e-05	0	44	0	721420288	23	4959
2026-01-19 08:41:04.05	23.81	23.46	-30.9	-33.4	13.3	2.51e-05	0	44	0	723517440	23	4782
2026-01-19 08:41:05.06	23.55	23.40	-30.9	-33.3	13.5	1.37e-05	0	43	0	725614592	23	4729
2026-01-19 08:41:06.05	23.30	23.34	-31.0	-33.5	13.3	1.67e-05	0	44	0	726663168	23	4809
2026-01-19 08:41:07.06	23.05	23.28	-30.9	-33.3	13.4	1.83e-05	0	44	0	728760320	23	4754
2026-01-19 08:41:08.06	22.80	23.22	-31.0	-33.6	13.2	1.75e-05	0	44	0	730857472	23	4870
2026-01-19 08:41:09.06	22.55	23.15	-31.0	-33.6	13.2	2.44e-05	0	44	0	732954624	23	4866
2026-01-19 08:41:10.06	22.30	23.09	-31.0	-33.7	13.1	3.20e-05	0	44	0	735051776	23	4879
2026-01-19 08:41:11.05	22.05	23.03	-30.9	-33.3	13.4	2.44e-05	0	44	0	736100352	23	4765
2026-01-19 08:41:12.05	21.80	22.96	-30.9	-33.2	13.5	1.14e-05	0	44	0	738197504	23	4714
2026-01-19 08:41:13.05	21.56	22.90	-30.8	-33.1	13.6	1.14e-05	0	44	0	740294656	23	4673
2026-01-19 08:41:14.06	21.31	22.83	-30.9	-33.2	13.4	9.90e-06	0	44	0	742391808	23	4721
2026-01-19 08:41:15.07	21.06	22.77	-30.6	-33.1	13.9	8.30e-06	0	44	0	743440384	22	4770
2026-01-19 08:41:16.07	20.82	22.70	-30.7	-33.3	13.7	6.10e-06	0	44	0	745537536	22	4844
2026-01-19 08:41:17.08	20.58	22.64	-30.9	-33.7	13.5	1.06e-05	0	44	0	747634688	22	5001
2026-01-19 08:41:18.08	20.34	22.57	-30.6	-33.1	13.9	2.20e-06	0	43	0	749731840	22	4778
2026-01-19 08:41:19.09	20.09	22.50	-30.6	-32.9	14.0	3.80e-06	0	44	0	751828992	22	4705
2026-01-19 08:41:20.09	19.86	22.43	-30.5	-32.8	14.1	7.00e-07	0	44	0	753926144	22	4663
2026-01-19 08:41:21.10	19.61	22.37	-30.6	-32.9	13.9	2.20e-06	0	44	0	754974720	22	4713
2026-01-19 08:41:22.11	19.38	22.30	-30.4	-32.5	14.2	1.50e-06	0	44	0	757071872	22	4562
2026-01-19 08:41:23.12	19.14	22.23	-30.3	-32.1	14.5	0.00e+00	0	44	0	759169024	22	4461
2026-01-19 08:41:24.12	18.90	22.16	-30.3	-32.6	14.5	0.00e+00	0	44	0	761266176	21	4712
2026-01-19 08:41:25.13	18.67	22.09	-30.3	-32.6	14.4	1.50e-06	0	44	0	762314752	21	4731
2026-01-19 08:41:26.13	18.44	22.02	-30.3	-32.7	14.4	7.00e-07	0	44	0	764411904	21	4747
2026-01-19 08:41:27.14	18.20	21.95	-30.3	-32.8	14.3	1.50e-06	0	44	0	766509056	21	4777
2026-01-19 08:41:28.14	17.97	21.88	-30.3	-32.8	14.3	0.00e+00	0	43	0	768606208	21	4794
2026-01-19 08:41:29.14	17.74	21.81	-30.3	-32.6	14.4	0.00e+00	0	44	0	770703360	21	4733
2026-01-19 08:41:30.14	17.51	21.74	-30.2	-32.6	14.4	7.00e-07	0	44	0	771751936	21	4720
2026-01-19 08:41:31.15	17.28	21.67	-30.2	-32.4	14.5	7.00e-07	0	43	0	773849088	21	4660
2026-01-19 08:41:32.15	17.06	21.60	-30.1	-32.3	14.6	7.00e-07	0	44	0	775946240	21	4614
2026-01-19 08:41:33.15	16.83	21.53	-30.3	-32.6	14.4	7.00e-07	0	43	0	778043392	21	4725
2026-01-19 08:41:34.15	16.61	21.46	-30.2	-32.6	14.4	7.00e-07	0	44	0	780140544	21	4709
2026-01-19 08:41:35.15	16.39	21.39	-30.3	-32.8	14.3	0.00e+00	0	44	0	781189120	21	4796
2026-01-19 08:41:36.16	16.16	21.31	-30.4	-33.0	14.1	7.00e-07	0	44	0	783286272	21	4851
2026-01-19 08:41:37.16	15.94	21.24	-30.5	-33.2	14.0	2.20e-06	0	44	0	785383424	21	4916
2026-01-19 08:41:38.16	15.72	21.17	-30.4	-33.1	14.1	1.50e-06	0	44	0	787480576	21	4889
2026-01-19 08:41:39.15	15.50	21.10	-30.4	-33.0	14.1	7.00e-07	0	44	0	789577728	21	4858
2026-01-19 08:41:40.16	15.28	21.02	-30.3	-32.9	14.2	2.20e-06	0	44	0	790626304	21	4811
2026-01-19 08:41:41.17	15.07	20.95	-30.3	-32.7	14.3	7.00e-07	0	44	0	792723456	21	4766
2026-01-19 08:41:42.17	14.85	20.88	-30.1	-32.3	14.6	0.00e+00	0	44	0	794820608	21	4611
2026-01-19 08:41:43.17	14.64	20.80	-30.1	-32.1	14.7	0.00e+00	0	43	0	796917760	21	4565
2026-01-19 08:41:44.17	14.42	20.73	-30.0	-32.1	14.7	0.00e+00	0	44	0	799014912	21	4555
2026-01-19 08:41:45.17	14.21	20.66	-29.9	-31.7	14.9	0.00e+00	0	44	0	800063488	21	4439
2026-01-19 08:41:46.17	14.00	20.58	-29.9	-31.8	14.9	0.00e+00	0	44	0	802160640	21	4462
2026-01-19 08:41:47.18	13.79	20.51	-29.9	-31.8	14.8	0.00e+00	0	44	0	804257792	21	4466
2026-01-19 08:41:48.18	13.58	20.43	-30.1	-32.2	14.6	1.50e-06	0	44	0	806354944	21	4584
2026-01-19 08:41:49.18	13.37	20.36	-29.8	-31.6	15.0	0.00e+00	0	44	0	808452096	21	4399
2026-01-19 08:41:50.18	13.16	20.28	-29.8	-31.4	15.1	0.00e+00	0	44	0	809500672	21	4360
2026-01-19 08:41:51.18	12.95	20.21	-29.7	-31.8	15.1	0.00e+00	0	44	0	811597824	20	4585
2026-01-19 08:41:52.19	12.75	20.13	-29.6	-31.6	15.2	0.00e+00	0	44	0	813694976	20	4507
2026-01-19 08:41:53.19	12.54	20.06	-29.7	-31.7	15.2	0.00e+00	0	43	0	815792128	20	4542
2026-01-19 08:41:54.19	12.34	19.98	-29.7	-31.7	15.2	0.00e+00	0	44	0	816840704	20	4526
2026-01-19 08:41:55.20	12.13	19.90	-29.6	-31.5	15.3	0.00e+00	0	43	0	818937856	20	4474
2026-01-19 08:41:56.20	11.93	19.83	-29.6	-31.4	15.3	0.00e+00	0	44	0	821035008	20	4464
2026-01-19 08:41:57.20	11.73	19.75	-29.5	-31.3	15.4	0.00e+00	0	44	0	823132160	20	4429
2026-01-19 08:41:58.21	11.53	19.68	-29.6	-31.5	15.3	0.00e+00	0	44	0	825229312	20	4469
2026-01-19 08:41:59.21	11.33	19.60	-29.5	-31.2	15.5	0.00e+00	0	44	0	826277888	20	4394
2026-01-19 08:42:00.21	11.14	19.52	-29.4	-31.1	15.5	0.00e+00	0	44	0	828375040	20	4367
2026-01-19 08:42:01.21	10.94	19.45	-29.4	-31.1	15.5	0.00e+00	0	44	0	830472192	20	4347
2026-01-19 08:42:02.21	10.75	19.37	-29.3	-30.8	15.7	0.00e+00	0	44	0	832569344	20	4270
2026-01-19 08:42:03.22	10.55	19.29	-29.4	-31.0	15.6	0.00e+00	0	44	0	834666496	20	4335
2026-01-19 08:42:04.22	10.36	19.22	-29.4	-30.9	15.7	0.00e+00	0	44	0	835715072	20	4302
2026-01-19 08:42:05.22	10.16	19.14	-29.5	-31.3	15.4	0.00e+00	0	44	0	837812224	20	4416
2026-01-19 08:42:06.22	9.97	19.06	-29.4	-30.9	15.7	0.00e+00	0	44	0	839909376	20	4302
2026-01-19 08:42:07.23	9.78	18.98	-29.4	-30.9	15.6	0.00e+00	0	44	0	842006528	20	4302
2026-01-19 08:42:08.23	9.59	18.91	-29.4	-31.0	15.6	0.00e+00	0	44	0	844103680	20	4326
2026-01-19 08:42:09.24	9.40	18.83	-29.5	-31.3	15.4	0.00e+00	0	44	0	845152256	20	4412
2026-01-19 08:42:10.24	9.21	18.75	-29.4	-31.1	15.5	0.00e+00	0	44	0	847249408	20	4351
2026-01-19 08:42:11.25	9.03	18.67	-29.4	-30.9	15.6	0.00e+00	0	44	0	849346560	20	4316
2026-01-19 08:42:12.26	8.84	18.59	-29.4	-31.1	15.5	0.00e+00	0	44	0	851443712	20	4355
2026-01-19 08:42:13.27	8.65	18.52	-29.5	-31.3	15.4	0.00e+00	0	44	0	853540864	20	4409
2026-01-19 08:42:14.26	8.47	18.44	-29.4	-31.1	15.5	0.00e+00	0	44	0	854589440	20	4352
2026-01-19 08:42:15.27	8.29	18.36	-29.4	-31.1	15.5	0.00e+00	0	44	0	856686592	20	4375
2026-01-19 08:42:16.26	8.11	18.28	-29.5	-31.4	15.4	0.00e+00	0	44	0	858783744	20	4448
2026-01-19 08:42:17.27	7.92	18.21	-29.6	-31.6	15.2	0.00e+00	0	44	0	860880896	20	4507
2026-01-19 08:42:18.27	7.74	18.13	-29.7	-31.8	15.1	0.00e+00	0	43	0	862978048	20	4572
2026-01-19 08:42:19.28	7.56	18.05	-29.6	-31.4	15.3	0.00e+00	0	44	0	864026624	20	4469
2026-01-19 08:42:20.28	7.39	17.97	-29.6	-31.5	15.2	0.00e+00	0	44	0	866123776	20	4479
2026-01-19 08:42:21.28	7.21	17.89	-29.6	-31.4	15.3	0.00e+00	0	43	0	868220928	20	4469
2026-01-19 08:42:22.28	7.03	17.82	-29.5	-31.3	15.4	0.00e+00	0	44	0	870318080	20	4413
2026-01-19 08:42:23.28	6.86	17.74	-29.5	-31.3	15.3	0.00e+00	0	44	0	872415232	20	4430
2026-01-19 08:42:24.28	6.68	17.66	-29.5	-31.4	15.3	0.00e+00	0	44	0	873463808	20	4443
2026-01-19 08:42:25.28	6.51	17.58	-29.6	-31.6	15.2	0.00e+00	0	44	0	875560960	20	4512
2026-01-19 08:42:26.29	6.34	17.50	-29.7	-31.7	15.1	0.00e+00	0	44	0	877658112	20	4552
2026-01-19 08:42:27.29	6.17	17.42	-29.8	-31.9	14.9	0.00e+00	0	44	0	879755264	20	4629
2026-01-19 08:42:28.29	6.00	17.35	-29.8	-32.1	14.9	0.00e+00	0	44	0	880803840	20	4676
2026-01-19 08:42:29.29	5.83	17.27	-29.9	-32.3	14.7	0.00e+00	0	44	0	882900992	20	4736
2026-01-19 08:42:30.30	5.66	17.19	-29.8	-32.1	14.8	0.00e+00	0	44	0	884998144	20	4695
2026-01-19 08:42:31.30	5.49	17.11	-30.0	-32.5	14.5	0.00e+00	0	44	0	887095296	20	4823
2026-01-19 08:42:32.31	5.32	17.03	-30.1	-32.7	14.4	1.50e-06	0	44	0	889192448	20	4880
2026-01-19 08:42:33.31	5.15	16.95	-30.0	-32.5	14.6	7.00e-07	0	44	0	890241024	20	4811
2026-01-19 08:42:34.31	4.99	16.88	-30.0	-32.5	14.6	0.00e+00	0	44	0	892338176	20	4810
2026-01-19 08:42:35.31	4.82	16.80	-30.1	-32.8	14.4	7.00e-07	0	44	0	894435328	20	4928
2026-01-19 08:42:36.32	4.66	16.72	-30.1	-32.8	14.3	3.00e-06	0	44	0	896532480	20	4928
2026-01-19 08:42:37.32	4.50	16.64	-30.1	-32.9	14.3	0.00e+00	0	44	0	898629632	20	4944
2026-01-19 08:42:38.32	4.34	16.56	-30.2	-33.1	14.2	0.00e+00	0	44	0	899678208	20	5021
2026-01-19 08:42:39.32	4.17	16.48	-30.2	-33.2	14.1	2.20e-06	0	44	0	901775360	20	5050
2026-01-19 08:42:40.32	4.01	16.41	-30.3	-33.4	13.9	2.20e-06	0	44	0	903872512	20	5153
2026-01-19 08:42:41.32	3.86	16.33	-30.3	-33.4	14.0	5.30e-06	0	44	0	905969664	20	5149
2026-01-19 08:42:42.32	3.70	16.25	-30.4	-33.7	13.8	6.10e-06	0	44	0	908066816	20	5255
2026-01-19 08:42:43.32	3.54	16.17	-30.5	-33.5	13.5	6.10e-06	0	44	0	909115392	21	5081
2026-01-19 08:42:44.32	3.38	16.09	-30.6	-33.8	13.3	9.90e-06	0	44	0	911212544	21	5194
2026-01-19 08:42:45.32	3.23	16.02	-30.6	-33.8	13.3	1.60e-05	0	44	0	913309696	21	5199
2026-01-19 08:42:46.32	3.07	15.94	-30.7	-33.9	13.3	1.75e-05	0	44	0	915406848	21	5200
2026-01-19 08:42:47.32	2.92	15.86	-30.6	-33.7	13.4	1.52e-05	0	44	0	916455424	21	5133
2026-01-19 08:42:48.32	2.77	15.78	-30.6	-33.6	13.5	1.14e-05	0	44	0	918552576	21	5122
2026-01-19 08:42:49.32	2.61	15.70	-30.5	-33.6	13.5	1.06e-05	0	44	0	920649728	21	5100
2026-01-19 08:42:50.33	2.46	15.63	-30.6	-33.8	13.4	6.10e-06	0	44	0	922746880	21	5168
2026-01-19 08:42:51.34	2.31	15.55	-30.7	-34.1	13.2	2.59e-05	0	44	0	924844032	21	5298
2026-01-19 08:42:52.34	2.16	15.47	-30.5	-33.4	13.6	1.75e-05	0	44	0	925892608	21	5043
2026-01-19 08:42:53.34	2.01	15.39	-30.4	-33.1	13.8	6.80e-06	0	44	0	927989760	21	4925
2026-01-19 08:42:54.34	1.86	15.31	-30.4	-33.0	13.8	3.80e-06	0	44	0	930086912	21	4909
2026-01-19 08:42:55.35	1.71	15.24	-30.4	-33.1	13.8	3.00e-06	0	43	0	932184064	21	4926
2026-01-19 08:42:56.35	1.56	15.16	-30.4	-33.1	13.8	7.60e-06	0	44	0	934281216	21	4934
2026-01-19 08:42:57.35	1.42	15.08	-30.4	-33.3	13.7	5.30e-06	0	44	0	935329792	21	4984
2026-01-19 08:42:58.36	1.27	15.00	-30.5	-33.4	13.6	9.90e-06	0	44	0	937426944	21	5029
2026-01-19 08:42:59.36	1.13	14.93	-30.4	-33.2	13.7	4.50e-06	0	44	0	939524096	21	4958
2026-01-19 08:43:00.36	0.98	14.85	-30.5	-33.5	13.4	1.14e-05	0	44	0	941621248	21	5089
2026-01-19 08:43:01.36	0.84	14.77	-30.6	-33.6	13.4	6.10e-06	0	44	0	943718400	21	5119
2026-01-19 08:43:02.37	0.70	14.69	-30.6	-33.8	13.3	1.52e-05	0	44	0	944766976	21	5200
2026-01-19 08:43:03.37	0.55	14.62	-30.7	-34.1	13.1	2.59e-05	0	44	0	946864128	21	5298
2026-01-19 08:43:04.38	0.41	14.54	-30.7	-33.9	13.2	1.98e-05	0	44	0	948961280	21	5238
2026-01-19 08:43:05.38	0.27	14.46	-30.7	-34.0	13.1	3.05e-05	0	44	0	951058432	21	5256
2026-01-19 08:43:06.38	0.13	14.38	-30.7	-34.1	13.1	2.74e-05	0	44	0	953155584	21	5299
2026-01-19 08:43:07.38	359.99	14.31	-30.8	-34.3	12.9	4.50e-05	0	44	0	954204160	21	5377
2026-01-19 08:43:08.38	359.86	14.23	-30.7	-34.1	13.0	3.58e-05	0	44	0	956301312	21	5302
2026-01-19 08:43:09.38	359.72	14.15	-30.7	-34.1	13.0	2.97e-05	0	44	0	958398464	21	5312
2026-01-19 08:43:10.38	359.58	14.08	-30.8	-34.2	13.0	3.43e-05	0	44	0	960495616	21	5370
2026-01-19 08:43:11.38	359.45	14.00	-30.8	-34.5	12.8	5.64e-05	0	44	0	962592768	21	5454
2026-01-19 08:43:12.38	359.31	13.93	-30.8	-34.3	12.9	5.34e-05	0	44	0	963641344	21	5383
2026-01-19 08:43:13.38	359.18	13.85	-30.8	-34.3	12.9	5.79e-05	0	44	0	965738496	21	5387
2026-01-19 08:43:14.38	359.05	13.77	-30.8	-34.4	12.8	6.10e-05	0	44	0	967835648	21	5453
2026-01-19 08:43:15.38	358.91	13.70	-30.8	-34.3	12.9	5.64e-05	0	44	0	969932800	21	5388
2026-01-19 08:43:16.38	358.78	13.62	-30.8	-34.5	12.6	7.40e-05	0	44	0	970981376	21	5505
2026-01-19 08:43:17.39	358.65	13.54	-30.8	-34.5	12.6	1.20e-04	0	44	0	973078528	21	5511
2026-01-19 08:43:18.39	358.52	13.47	-30.8	-34.5	12.7	9.76e-05	0	43	0	975175680	21	5472
2026-01-19 08:43:19.40	358.39	13.39	-31.0	-34.9	12.4	1.46e-04	0	44	0	977272832	21	5647
2026-01-19 08:43:20.40	358.26	13.32	-31.0	-34.5	12.3	2.22e-04	0	44	0	979369984	22	5381
2026-01-19 08:43:21.41	358.13	13.24	-30.9	-34.1	12.6	1.43e-04	0	44	0	980418560	22	5233
2026-01-19 08:43:22.42	358.00	13.16	-30.9	-34.0	12.6	1.40e-04	0	44	0	982515712	22	5200
2026-01-19 08:43:23.42	357.87	13.09	-30.9	-34.1	12.6	1.27e-04	0	44	0	984612864	22	5238
2026-01-19 08:43:24.42	357.74	13.01	-30.9	-34.3	12.5	1.31e-04	0	44	0	986710016	22	5297
2026-01-19 08:43:25.42	357.62	12.94	-30.9	-34.3	12.5	1.47e-04	0	44	0	988807168	22	5280
2026-01-19 08:43:26.42	357.49	12.86	-31.0	-34.4	12.4	1.86e-04	0	43	0	989855744	22	5346
2026-01-19 08:43:27.42	357.37	12.79	-31.0	-34.4	12.4	1.35e-04	0	44	0	991952896	22	5350
2026-01-19 08:43:28.42	357.24	12.71	-31.1	-34.8	12.1	2.14e-04	0	44	0	994050048	22	5487
2026-01-19 08:43:29.42	357.12	12.64	-31.0	-34.6	12.2	2.50e-04	0	44	0	996147200	22	5439
2026-01-19 08:43:30.42	357.00	12.56	-31.1	-34.9	12.0	3.24e-04	0	44	0	998244352	22	5555
2026-01-19 08:43:31.42	356.88	12.49	-31.1	-34.9	12.0	3.68e-04	0	44	0	999292928	22	5566
2026-01-19 08:43:32.42	356.75	12.41	-31.3	-35.3	11.7	3.51e-04	0	44	0	1001390080	22	5726
2026-01-19 08:43:33.43	356.63	12.34	-31.3	-35.4	11.6	6.94e-04	0	44	0	1003487232	22	5775
2026-01-19 08:43:34.43	356.51	12.26	-31.2	-35.3	11.7	4.33e-04	0	44	0	1005584384	22	5716
2026-01-19 08:43:35.44	356.39	12.19	-31.3	-35.4	11.6	5.86e-04	0	44	0	1007681536	22	5793
2026-01-19 08:43:36.44	356.27	12.11	-31.3	-35.6	11.6	7.03e-04	0	44	0	1008730112	22	5849
2026-01-19 08:43:37.45	356.15	12.04	-31.3	-35.4	11.6	8.54e-04	0	44	0	1010827264	22	5798
2026-01-19 08:43:38.45	356.04	11.97	-31.3	-35.5	11.6	7.03e-04	0	44	0	1012924416	22	5819
2026-01-19 08:43:39.46	355.92	11.89	-31.3	-35.6	11.5	7.05e-04	0	44	0	1015021568	22	5853
2026-01-19 08:43:40.45	355.80	11.82	-31.3	-35.6	11.5	6.76e-04	0	44	0	1016070144	22	5861
2026-01-19 08:43:41.46	355.69	11.74	-31.5	-36.0	11.2	1.13e-03	0	44	0	1018167296	22	6075
2026-01-19 08:43:42.46	355.57	11.67	-31.3	-35.0	11.6	1.40e-03	0	44	0	1020264448	23	5499
2026-01-19 08:43:43.46	355.46	11.60	-31.2	-34.8	11.7	4.97e-04	0	44	0	1022361600	23	5394
2026-01-19 08:43:44.46	355.34	11.52	-31.4	-35.1	11.5	7.31e-04	0	44	0	1024458752	23	5551
2026-01-19 08:43:45.47	355.23	11.45	-31.3	-34.8	11.7	7.44e-04	0	44	0	1025507328	23	5431
2026-01-19 08:43:46.47	355.11	11.38	-31.3	-35.0	11.5	8.41e-04	0	44	0	1027604480	23	5520
2026-01-19 08:43:47.48	355.00	11.30	-31.3	-35.0	11.5	8.22e-04	0	44	0	1029701632	23	5503
2026-01-19 08:43:48.48	354.89	11.23	-31.3	-35.0	11.5	8.06e-04	0	44	0	1031798784	23	5500
2026-01-19 08:43:49.49	354.78	11.16	-31.4	-35.3	11.3	7.99e-04	0	44	0	1033895936	23	5640
2026-01-19 08:43:50.49	354.67	11.08	-31.5	-35.5	11.1	1.71e-03	0	44	0	1034944512	23	5755
2026-01-19 08:43:51.49	354.56	11.01	-31.4	-35.4	11.2	1.38e-03	0	44	0	1037041664	23	5663
2026-01-19 08:43:52.50	354.45	10.94	-31.5	-35.5	11.1	1.61e-03	0	44	0	1039138816	23	5747
2026-01-19 08:43:53.50	354.34	10.87	-31.5	-35.7	10.9	2.06e-03	0	44	0	1041235968	23	5847
2026-01-19 08:43:54.51	354.23	10.79	-31.3	-35.2	11.3	1.21e-03	0	44	0	1043333120	23	5587
2026-01-19 08:43:55.51	354.12	10.72	-31.4	-35.3	11.2	1.31e-03	0	44	0	1044381696	23	5628
2026-01-19 08:43:56.51	354.01	10.65	-31.4	-35.5	11.1	1.42e-03	0	44	0	1046478848	23	5725
2026-01-19 08:43:57.51	353.91	10.58	-31.5	-35.5	11.1	2.03e-03	0	44	0	1048576000	23	5740
2026-01-19 08:43:58.52	353.80	10.50	-31.4	-35.3	11.2	1.40e-03	0	44	0	1050673152	23	5635
2026-01-19 08:43:59.52	353.69	10.43	-31.3	-35.1	11.4	1.24e-03	0	44	0	1052770304	23	5552
2026-01-19 08:44:00.52	353.59	10.36	-31.4	-35.3	11.2	1.09e-03	0	44	0	1053818880	23	5651
2026-01-19 08:44:01.52	353.48	10.29	-31.3	-35.2	11.2	1.53e-03	0	44	0	1055916032	23	5621
2026-01-19 08:44:02.53	353.38	10.22	-31.3	-35.0	11.4	1.08e-03	0	44	0	1058013184	23	5503
2026-01-19 08:44:03.53	353.27	10.15	-31.3	-35.0	11.4	9.66e-04	0	44	0	1060110336	23	5541
2026-01-19 08:44:04.54	353.17	10.07	-31.3	-34.9	11.4	1.04e-03	0	44	0	1062207488	23	5489
2026-01-19 08:44:05.54	353.07	10.00	-31.2	-34.9	11.5	9.22e-04	0	44	0	1063256064	23	5471
2026-01-19 08:44:06.55	352.96	9.93	-31.3	-35.1	11.3	1.02e-03	0	44	0	1065353216	23	5549
2026-01-19 08:44:07.55	352.86	9.86	-31.4	-35.2	11.2	1.46e-03	0	44	0	1067450368	23	5628
2026-01-19 08:44:08.55	352.76	9.79	-31.2	-34.8	11.5	1.11e-03	0	44	0	1069547520	23	5445
2026-01-19 08:44:09.54	352.66	9.72	-31.5	-35.6	10.9	1.44e-03	0	44	0	1071644672	23	5808
2026-01-19 08:44:10.54	352.56	9.65	-31.4	-35.5	11.0	2.12e-03	0	44	0	1072693248	23	5746
2026-01-19 08:44:11.55	352.46	9.58	-31.4	-35.5	11.0	1.97e-03	0	44	0	1074790400	23	5766
2026-01-19 08:44:12.55	352.36	9.51	-31.5	-35.7	10.8	2.11e-03	0	44	0	1076887552	23	5843
2026-01-19 08:44:13.56	352.26	9.44	-31.5	-35.8	10.7	2.44e-03	0	43	0	1078984704	23	5894
2026-01-19 08:44:14.56	352.17	9.37	-31.5	-35.7	10.8	3.04e-03	0	44	0	1080033280	23	5873
2026-01-19 08:44:15.56	352.07	9.30	-31.5	-35.9	10.6	2.75e-03	0	44	0	1082130432	23	5943
2026-01-19 08:44:16.57	351.97	9.23	-31.6	-36.0	10.6	3.51e-03	0	44	0	1084227584	23	5992
2026-01-19 08:44:17.57	351.87	9.16	-31.5	-35.9	10.6	3.36e-03	0	44	0	1086324736	23	5957
2026-01-19 08:44:18.57	351.78	9.09	-31.6	-36.3	10.3	4.61e-03	0	44	0	1088421888	23	6165
2026-01-19 08:44:19.56	351.68	9.02	-31.7	-36.4	10.2	6.86e-03	0	44	0	1089470464	23	6204
2026-01-19 08:44:20.56	351.59	8.95	-31.6	-36.1	10.4	4.78e-03	0	44	0	1091567616	23	6072
2026-01-19 08:44:21.57	351.49	8.88	-31.5	-36.0	10.5	4.19e-03	0	44	0	1093664768	23	6021
2026-01-19 08:44:22.57	351.40	8.81	-31.5	-35.9	10.5	4.05e-03	0	44	0	1095761920	23	5985
2026-01-19 08:44:23.57	351.31	8.74	-31.6	-36.4	10.2	5.18e-03	0	44	0	1097859072	23	6205
2026-01-19 08:44:24.57	351.21	8.67	-31.7	-36.5	10.1	6.10e-03	0	44	0	1098907648	23	6258
2026-01-19 08:44:25.58	351.12	8.60	-31.8	-36.8	9.8	8.06e-03	0	44	0	1101004800	23	6433
2026-01-19 08:44:26.58	351.03	8.54	-31.7	-36.7	10.0	8.01e-03	0	43	0	1103101952	23	6361
2026-01-19 08:44:27.58	350.93	8.47	-31.7	-36.5	10.0	8.55e-03	0	44	0	1105199104	23	6303
2026-01-19 08:44:28.59	350.84	8.40	-31.8	-36.9	9.8	8.39e-03	0	44	0	1107296256	23	6470
2026-01-19 08:44:29.59	350.75	8.33	-31.8	-36.8	9.8	1.05e-02	0	44	0	1108344832	23	6432
2026-01-19 08:44:30.60	350.66	8.26	-31.7	-36.6	10.0	8.35e-03	0	44	0	1110441984	23	6335
2026-01-19 08:44:31.60	350.57	8.19	-31.8	-36.8	9.8	8.15e-03	0	44	0	1112539136	23	6466
2026-01-19 08:44:32.60	350.48	8.12	-31.7	-36.7	9.9	1.38e-02	0	44	0	1114636288	23	6394
2026-01-19 08:44:33.61	350.39	8.06	-31.7	-36.7	9.9	9.87e-03	0	44	0	1116733440	23	6377
2026-01-19 08:44:34.60	350.30	7.99	-31.5	-35.9	10.5	4.66e-03	0	44	0	1117782016	23	5966
2026-01-19 08:44:35.60	350.21	7.92	-31.6	-36.4	10.1	5.04e-03	0	44	0	1119879168	23	6240
2026-01-19 08:44:36.61	350.13	7.85	-31.5	-36.0	10.4	6.00e-03	0	44	0	1121976320	23	6027
2026-01-19 08:44:37.62	350.04	7.79	-31.5	-35.8	10.5	3.57e-03	0	44	0	1124073472	23	5969
2026-01-19 08:44:38.62	349.95	7.72	-31.5	-36.0	10.4	5.14e-03	0	44	0	1125122048	23	6015
2026-01-19 08:44:39.62	349.86	7.65	-31.5	-36.1	10.3	4.35e-03	0	44	0	1127219200	23	6097
2026-01-19 08:44:40.62	349.78	7.58	-31.5	-36.1	10.2	4.36e-03	0	44	0	1129316352	23	6105
2026-01-19 08:44:41.63	349.69	7.52	-31.5	-36.0	10.3	6.38e-03	0	44	0	1131413504	23	6029
2026-01-19 08:44:42.63	349.61	7.45	-31.5	-36.1	10.3	5.25e-03	0	44	0	1133510656	23	6085
2026-01-19 08:44:43.64	349.52	7.38	-31.6	-36.4	10.0	7.04e-03	0	44	0	1134559232	23	6244
2026-01-19 08:44:44.65	349.43	7.32	-31.6	-36.4	10.0	6.24e-03	0	44	0	1136656384	23	6261
2026-01-19 08:44:45.65	349.35	7.25	-31.6	-36.4	10.0	8.39e-03	0	44	0	1138753536	23	6241
2026-01-19 08:44:46.66	349.27	7.18	-31.6	-36.2	10.1	7.62e-03	0	44	0	1140850688	23	6152
2026-01-19 08:44:47.66	349.18	7.12	-31.7	-36.8	9.7	9.78e-03	0	44	0	1142947840	23	6485
2026-01-19 08:44:48.66	349.10	7.05	-33.5	-46.7	3.8	2.59e-01	0	44	104	1143996416	27	16360

#Closed at: 2026-01-19 08:44:49
#Recorded file [1143 MB]: D:/data/31010_260119_113437.dat