passes_logs/2026/01/19/R2M6_AANII_01/R2M6_AANII_01__20260119_101320_NOAA_20_JPSS-1_rec.log

#Pass ID: 20260119_101320_NOAA 20 (JPSS-1)
#Satellite: NOAA 20 (JPSS-1)
#Configuration: NOAA 20
#almurnet v.1.7.20240730
#Start time: 2026-01-19 10:13:20

#Version: 2.2.20231116
#Station: R2M6_AANII_01
#Location: 30.233357 lon 59.946436 lat
#TLE: 1 43013U 17073A   26017.93796159  .00000077  00000+0  57252-4 0  9992
#TLE: 2 43013  98.7639 318.8464 0001390  34.9771 325.1496 14.19536703423157

#Time	Az	El	Level	Level2	SNR	BER	BlckErr	Temp	State	Recorded	gain1	gain2
2026-01-19 10:13:20.85	157.06	7.01	-31.5	-37.8	4.9	1.30e+00	0	41	0	0	24	7441
2026-01-19 10:13:21.85	157.06	7.09	-31.7	-38.9	4.7	1.35e+00	0	41	104	0	24	8290
2026-01-19 10:13:22.85	157.06	7.17	-31.6	-38.1	7.3	1.67e-01	0	41	0	0	24	7592
2026-01-19 10:13:23.86	157.05	7.24	-31.7	-38.5	7.1	1.41e-01	0	41	0	1048576	24	7849
2026-01-19 10:13:24.86	157.05	7.32	-31.7	-38.2	7.3	1.32e-01	0	41	0	3145728	24	7604
2026-01-19 10:13:25.87	157.05	7.40	-31.7	-37.8	7.8	1.01e-01	0	41	0	5242880	24	7232
2026-01-19 10:13:26.87	157.05	7.48	-31.7	-37.6	8.0	7.42e-02	0	41	0	7340032	24	7063
2026-01-19 10:13:27.87	157.05	7.56	-31.6	-37.1	8.4	5.26e-02	0	41	0	9437184	24	6766
2026-01-19 10:13:28.87	157.05	7.64	-31.6	-37.1	8.4	4.95e-02	0	41	0	10485760	24	6734
2026-01-19 10:13:29.87	157.05	7.72	-31.6	-37.2	8.4	4.06e-02	0	42	0	12582912	24	6795
2026-01-19 10:13:30.87	157.05	7.80	-31.4	-36.4	9.0	3.58e-02	0	42	0	14680064	24	6344
2026-01-19 10:13:31.87	157.05	7.88	-31.4	-36.3	9.1	2.62e-02	0	41	0	16777216	24	6307
2026-01-19 10:13:32.87	157.05	7.96	-31.3	-35.9	9.3	2.23e-02	0	41	0	17825792	24	6102
2026-01-19 10:13:33.88	157.05	8.04	-31.3	-36.3	9.4	1.67e-02	0	42	0	19922944	23	6440
2026-01-19 10:13:34.88	157.04	8.12	-31.2	-36.2	9.5	1.44e-02	0	42	0	22020096	23	6384
2026-01-19 10:13:35.89	157.04	8.20	-31.3	-36.6	9.2	1.69e-02	0	42	0	24117248	23	6592
2026-01-19 10:13:36.89	157.04	8.29	-31.3	-36.3	9.5	1.92e-02	0	42	0	26214400	23	6399
2026-01-19 10:13:37.89	157.04	8.37	-31.2	-36.2	9.5	1.55e-02	0	42	0	27262976	23	6382
2026-01-19 10:13:38.89	157.04	8.45	-31.3	-36.3	9.4	1.52e-02	0	42	0	29360128	23	6447
2026-01-19 10:13:39.89	157.04	8.53	-31.4	-36.8	9.1	1.96e-02	0	42	0	31457280	23	6685
2026-01-19 10:13:40.90	157.04	8.61	-31.3	-36.5	9.3	1.85e-02	0	42	0	33554432	23	6534
2026-01-19 10:13:41.90	157.04	8.70	-31.3	-36.3	9.5	1.58e-02	0	42	0	35651584	23	6410
2026-01-19 10:13:42.90	157.04	8.78	-31.3	-36.0	9.8	1.37e-02	0	42	0	36700160	23	6214
2026-01-19 10:13:43.90	157.03	8.86	-31.4	-36.2	9.7	1.01e-02	0	42	0	38797312	23	6287
2026-01-19 10:13:44.91	157.03	8.95	-31.3	-36.1	9.8	1.11e-02	0	42	0	40894464	23	6224
2026-01-19 10:13:45.91	157.03	9.03	-31.3	-36.0	9.9	9.62e-03	0	42	0	42991616	23	6140
2026-01-19 10:13:46.91	157.03	9.12	-31.4	-36.1	9.8	8.72e-03	0	42	0	45088768	23	6210
2026-01-19 10:13:47.91	157.03	9.20	-31.5	-36.4	9.7	1.03e-02	0	42	0	46137344	23	6338
2026-01-19 10:13:48.92	157.03	9.29	-31.4	-36.1	9.9	9.52e-03	0	42	0	48234496	23	6180
2026-01-19 10:13:49.92	157.03	9.37	-31.4	-36.0	10.0	8.11e-03	0	42	0	50331648	23	6107
2026-01-19 10:13:50.92	157.02	9.46	-31.3	-35.7	10.2	6.80e-03	0	42	0	52428800	23	5989
2026-01-19 10:13:51.93	157.02	9.54	-31.4	-36.0	10.0	8.22e-03	0	42	0	54525952	23	6100
2026-01-19 10:13:52.94	157.02	9.63	-31.4	-36.0	10.0	8.35e-03	0	42	0	55574528	23	6111
2026-01-19 10:13:53.94	157.02	9.72	-31.3	-35.7	10.2	7.28e-03	0	42	0	57671680	23	5992
2026-01-19 10:13:54.94	157.02	9.80	-31.4	-36.1	9.9	7.47e-03	0	42	0	59768832	23	6165
2026-01-19 10:13:55.94	157.02	9.89	-31.2	-35.5	10.4	6.08e-03	0	42	0	61865984	23	5895
2026-01-19 10:13:56.94	157.02	9.98	-31.3	-35.6	10.3	4.51e-03	0	42	0	62914560	23	5924
2026-01-19 10:13:57.95	157.01	10.06	-31.3	-35.5	10.4	4.22e-03	0	42	0	65011712	23	5891
2026-01-19 10:13:58.95	157.01	10.15	-31.3	-35.9	10.1	5.63e-03	0	42	0	67108864	23	6060
2026-01-19 10:13:59.96	157.01	10.24	-31.4	-36.0	10.1	7.43e-03	0	42	0	69206016	23	6129
2026-01-19 10:14:00.95	157.01	10.33	-31.3	-35.8	10.2	5.68e-03	0	42	0	71303168	23	6006
2026-01-19 10:14:01.95	157.01	10.42	-31.3	-35.7	10.3	5.87e-03	0	42	0	73400320	23	5949
2026-01-19 10:14:02.95	157.01	10.51	-31.4	-35.9	10.1	4.89e-03	0	42	0	74448896	23	6087
2026-01-19 10:14:03.95	157.00	10.60	-31.5	-36.4	9.8	7.94e-03	0	43	0	76546048	23	6310
2026-01-19 10:14:04.95	157.00	10.69	-31.4	-35.9	10.1	7.54e-03	0	42	0	78643200	23	6090
2026-01-19 10:14:05.95	157.00	10.78	-31.5	-36.4	9.8	7.86e-03	0	42	0	80740352	23	6340
2026-01-19 10:14:06.96	157.00	10.87	-31.4	-36.1	10.1	9.02e-03	0	42	0	81788928	23	6139
2026-01-19 10:14:07.96	157.00	10.96	-31.5	-36.3	9.9	8.13e-03	0	43	0	83886080	23	6257
2026-01-19 10:14:08.97	156.99	11.05	-31.7	-37.0	9.3	1.46e-02	0	42	0	85983232	23	6643
2026-01-19 10:14:09.97	156.99	11.14	-31.5	-36.5	9.8	1.43e-02	0	43	0	88080384	23	6356
2026-01-19 10:14:10.97	156.99	11.23	-31.5	-36.1	10.1	8.24e-03	0	42	0	90177536	23	6137
2026-01-19 10:14:11.97	156.99	11.32	-31.3	-35.7	10.4	4.94e-03	0	43	0	91226112	23	5960
2026-01-19 10:14:12.97	156.99	11.42	-31.2	-35.4	10.6	3.44e-03	0	42	0	93323264	23	5793
2026-01-19 10:14:13.97	156.98	11.51	-31.3	-35.5	10.6	3.54e-03	0	43	0	95420416	23	5845
2026-01-19 10:14:14.97	156.98	11.60	-31.2	-35.2	10.8	2.95e-03	0	43	0	97517568	23	5714
2026-01-19 10:14:15.97	156.98	11.70	-31.2	-35.1	10.8	2.46e-03	0	43	0	99614720	23	5679
2026-01-19 10:14:16.97	156.98	11.79	-31.2	-35.1	10.9	2.47e-03	0	43	0	100663296	23	5653
2026-01-19 10:14:17.98	156.98	11.89	-31.1	-34.9	11.1	2.05e-03	0	43	0	102760448	23	5572
2026-01-19 10:14:18.98	156.97	11.98	-31.1	-35.0	10.9	2.04e-03	0	43	0	104857600	23	5637
2026-01-19 10:14:19.98	156.97	12.07	-31.0	-34.8	11.1	1.61e-03	0	43	0	106954752	23	5527
2026-01-19 10:14:20.99	156.97	12.17	-31.0	-34.8	11.1	1.50e-03	0	43	0	108003328	23	5541
2026-01-19 10:14:21.99	156.97	12.27	-31.0	-34.7	11.2	1.48e-03	0	43	0	110100480	23	5510
2026-01-19 10:14:22.99	156.96	12.36	-31.0	-34.7	11.2	1.39e-03	0	43	0	112197632	23	5510
2026-01-19 10:14:23.99	156.96	12.46	-31.1	-34.9	11.0	1.57e-03	0	43	0	114294784	23	5583
2026-01-19 10:14:25.00	156.96	12.56	-31.0	-34.7	11.2	1.77e-03	0	43	0	116391936	23	5517
2026-01-19 10:14:26.00	156.96	12.65	-30.9	-34.5	11.4	1.12e-03	0	43	0	118489088	23	5411
2026-01-19 10:14:27.00	156.95	12.75	-31.0	-34.7	11.2	1.03e-03	0	43	0	119537664	23	5523
2026-01-19 10:14:27.99	156.95	12.85	-31.0	-34.5	11.4	1.42e-03	0	43	0	121634816	23	5406
2026-01-19 10:14:29.00	156.95	12.95	-31.0	-34.6	11.4	9.86e-04	0	43	0	123731968	23	5444
2026-01-19 10:14:30.00	156.95	13.05	-31.1	-34.9	11.1	1.34e-03	0	43	0	125829120	23	5561
2026-01-19 10:14:30.99	156.94	13.15	-31.0	-34.5	11.4	1.25e-03	0	43	0	126877696	23	5405
2026-01-19 10:14:31.99	156.94	13.24	-31.0	-34.5	11.5	9.26e-04	0	43	0	128974848	23	5370
2026-01-19 10:14:33.00	156.94	13.35	-31.0	-34.5	11.5	9.71e-04	0	43	0	131072000	23	5364
2026-01-19 10:14:34.00	156.94	13.45	-31.0	-34.4	11.5	7.99e-04	0	43	0	133169152	23	5332
2026-01-19 10:14:35.00	156.93	13.55	-31.0	-34.4	11.6	7.69e-04	0	43	0	135266304	23	5315
2026-01-19 10:14:36.01	156.93	13.65	-31.0	-34.5	11.4	7.80e-04	0	43	0	136314880	23	5373
2026-01-19 10:14:37.01	156.93	13.75	-31.0	-34.3	11.7	6.14e-04	0	43	0	138412032	23	5267
2026-01-19 10:14:38.01	156.92	13.85	-31.0	-34.3	11.7	6.54e-04	0	43	0	140509184	23	5262
2026-01-19 10:14:39.01	156.92	13.96	-31.0	-34.2	11.7	5.65e-04	0	43	0	142606336	23	5243
2026-01-19 10:14:40.02	156.92	14.06	-31.0	-34.5	11.6	6.00e-04	0	43	0	144703488	23	5342
2026-01-19 10:14:41.02	156.92	14.16	-31.0	-34.3	11.7	7.52e-04	0	43	0	145752064	23	5278
2026-01-19 10:14:42.02	156.91	14.27	-31.1	-34.5	11.6	6.42e-04	0	43	0	147849216	23	5343
2026-01-19 10:14:43.02	156.91	14.37	-31.1	-34.6	11.5	8.48e-04	0	43	0	149946368	23	5387
2026-01-19 10:14:44.02	156.91	14.48	-31.0	-34.3	11.7	6.88e-04	0	43	0	152043520	23	5281
2026-01-19 10:14:45.03	156.90	14.58	-31.0	-34.2	11.8	5.71e-04	0	43	0	153092096	23	5232
2026-01-19 10:14:46.03	156.90	14.69	-31.0	-34.3	11.7	4.84e-04	0	43	0	155189248	23	5258
2026-01-19 10:14:47.03	156.90	14.79	-31.0	-34.4	11.7	5.50e-04	0	43	0	157286400	23	5288
2026-01-19 10:14:48.03	156.89	14.90	-31.0	-34.2	11.8	4.53e-04	0	43	0	159383552	23	5219
2026-01-19 10:14:49.03	156.89	15.01	-31.0	-34.1	11.9	4.54e-04	0	43	0	161480704	23	5179
2026-01-19 10:14:50.04	156.89	15.12	-31.0	-34.2	11.9	3.78e-04	0	43	0	162529280	23	5210
2026-01-19 10:14:51.04	156.88	15.22	-31.0	-34.3	11.8	4.77e-04	0	43	0	164626432	23	5244
2026-01-19 10:14:52.03	156.88	15.33	-30.9	-34.0	12.0	4.20e-04	0	43	0	166723584	23	5137
2026-01-19 10:14:53.04	156.87	15.44	-30.9	-33.9	12.1	2.60e-04	0	43	0	168820736	23	5101
2026-01-19 10:14:54.03	156.87	15.55	-30.9	-33.9	12.1	2.69e-04	0	43	0	170917888	23	5099
2026-01-19 10:14:55.04	156.87	15.66	-30.9	-34.0	12.0	2.58e-04	0	43	0	171966464	23	5142
2026-01-19 10:14:56.04	156.86	15.77	-31.1	-34.5	11.7	4.69e-04	0	43	0	174063616	23	5311
2026-01-19 10:14:57.04	156.86	15.88	-31.0	-34.1	12.0	4.39e-04	0	43	0	176160768	23	5141
2026-01-19 10:14:58.04	156.86	15.99	-30.8	-33.7	12.2	2.17e-04	0	43	0	178257920	23	5021
2026-01-19 10:14:59.05	156.85	16.11	-30.8	-34.0	12.4	1.43e-04	0	43	0	180355072	22	5205
2026-01-19 10:15:00.05	156.85	16.22	-30.7	-33.7	12.6	1.03e-04	0	43	0	181403648	22	5118
2026-01-19 10:15:01.05	156.84	16.33	-30.7	-33.7	12.6	8.39e-05	0	43	0	183500800	22	5099
2026-01-19 10:15:02.05	156.84	16.45	-30.8	-33.9	12.5	8.23e-05	0	43	0	185597952	22	5198
2026-01-19 10:15:03.05	156.84	16.56	-30.8	-34.1	12.3	1.23e-04	0	43	0	187695104	22	5253
2026-01-19 10:15:04.05	156.83	16.67	-30.7	-33.8	12.6	1.07e-04	0	43	0	189792256	22	5120
2026-01-19 10:15:05.05	156.83	16.79	-30.6	-33.5	12.8	8.08e-05	0	43	0	190840832	22	5020
2026-01-19 10:15:06.05	156.82	16.91	-30.6	-33.4	12.8	4.65e-05	0	43	0	192937984	22	4999
2026-01-19 10:15:07.06	156.82	17.02	-30.6	-33.6	12.7	6.17e-05	0	43	0	195035136	22	5054
2026-01-19 10:15:08.05	156.81	17.14	-30.6	-33.3	12.9	6.56e-05	0	43	0	197132288	22	4958
2026-01-19 10:15:09.05	156.81	17.26	-30.6	-33.4	12.9	4.80e-05	0	43	0	198180864	22	4987
2026-01-19 10:15:10.06	156.81	17.38	-30.7	-33.7	12.7	6.86e-05	0	43	0	200278016	22	5090
2026-01-19 10:15:11.06	156.80	17.49	-30.6	-33.4	12.9	5.87e-05	0	43	0	202375168	22	4969
2026-01-19 10:15:12.06	156.80	17.61	-30.5	-33.2	13.1	3.73e-05	0	43	0	204472320	22	4888
2026-01-19 10:15:13.07	156.79	17.73	-30.4	-33.0	13.2	3.28e-05	0	43	0	206569472	22	4831
2026-01-19 10:15:14.08	156.79	17.86	-30.5	-33.2	13.1	2.59e-05	0	43	0	207618048	22	4888
2026-01-19 10:15:15.08	156.78	17.98	-30.5	-33.0	13.2	1.75e-05	0	43	0	209715200	22	4838
2026-01-19 10:15:16.08	156.78	18.10	-30.4	-32.9	13.3	2.05e-05	0	43	0	211812352	22	4792
2026-01-19 10:15:17.09	156.77	18.22	-30.4	-33.0	13.2	1.67e-05	0	43	0	213909504	22	4828
2026-01-19 10:15:18.09	156.77	18.34	-30.4	-32.8	13.4	9.90e-06	0	43	0	216006656	22	4734
2026-01-19 10:15:19.10	156.76	18.47	-30.4	-32.7	13.4	1.75e-05	0	43	0	217055232	22	4726
2026-01-19 10:15:20.09	156.76	18.59	-30.3	-32.6	13.5	6.80e-06	0	43	0	219152384	22	4674
2026-01-19 10:15:21.10	156.75	18.72	-30.4	-32.8	13.4	1.67e-05	0	43	0	221249536	22	4732
2026-01-19 10:15:22.10	156.75	18.84	-30.3	-32.6	13.5	1.22e-05	0	43	0	223346688	22	4681
2026-01-19 10:15:23.10	156.74	18.97	-30.3	-32.5	13.6	1.14e-05	0	43	0	225443840	22	4658
2026-01-19 10:15:24.11	156.74	19.10	-30.3	-32.6	13.5	7.60e-06	0	43	0	226492416	22	4690
2026-01-19 10:15:25.12	156.73	19.22	-30.4	-32.7	13.5	8.30e-06	0	43	0	228589568	22	4700
2026-01-19 10:15:26.12	156.72	19.35	-30.3	-32.6	13.6	8.30e-06	0	43	0	230686720	22	4668
2026-01-19 10:15:27.12	156.72	19.48	-30.2	-32.9	13.7	1.14e-05	0	43	0	232783872	21	4888
2026-01-19 10:15:28.13	156.71	19.61	-30.3	-32.9	13.7	7.60e-06	0	43	0	234881024	21	4883
2026-01-19 10:15:29.13	156.71	19.74	-30.3	-33.1	13.5	1.37e-05	0	43	0	235929600	21	4958
2026-01-19 10:15:30.13	156.70	19.87	-30.3	-33.0	13.6	1.37e-05	0	43	0	238026752	21	4905
2026-01-19 10:15:31.14	156.70	20.00	-30.3	-33.1	13.5	7.60e-06	0	43	0	240123904	21	4960
2026-01-19 10:15:32.14	156.69	20.14	-30.3	-33.1	13.5	1.83e-05	0	43	0	242221056	21	4970
2026-01-19 10:15:33.14	156.68	20.27	-30.3	-33.1	13.5	4.50e-06	0	43	0	244318208	21	4967
2026-01-19 10:15:34.14	156.68	20.40	-30.5	-33.5	13.3	1.22e-05	0	43	0	245366784	21	5120
2026-01-19 10:15:35.15	156.67	20.54	-30.4	-33.4	13.4	1.29e-05	0	44	0	247463936	21	5064
2026-01-19 10:15:36.15	156.66	20.67	-30.4	-33.3	13.4	1.52e-05	0	44	0	249561088	21	5035
2026-01-19 10:15:37.15	156.66	20.81	-30.5	-33.5	13.3	2.05e-05	0	43	0	251658240	21	5098
2026-01-19 10:15:38.15	156.65	20.94	-30.4	-33.3	13.5	1.52e-05	0	43	0	253755392	21	5034
2026-01-19 10:15:39.15	156.65	21.08	-30.4	-33.3	13.4	1.22e-05	0	43	0	254803968	21	5035
2026-01-19 10:15:40.15	156.64	21.22	-30.4	-33.3	13.5	9.10e-06	0	43	0	256901120	21	5027
2026-01-19 10:15:41.15	156.63	21.36	-30.4	-33.2	13.5	6.10e-06	0	43	0	258998272	21	5002
2026-01-19 10:15:42.16	156.63	21.50	-30.6	-33.8	13.1	2.13e-05	0	44	0	261095424	21	5213
2026-01-19 10:15:43.16	156.62	21.64	-30.4	-33.1	13.6	1.98e-05	0	43	0	262144000	21	4949
2026-01-19 10:15:44.16	156.61	21.78	-30.2	-32.6	14.0	3.00e-06	0	44	0	264241152	21	4777
2026-01-19 10:15:45.16	156.60	21.92	-30.2	-32.6	14.0	4.50e-06	0	44	0	266338304	21	4782
2026-01-19 10:15:46.16	156.60	22.06	-30.2	-32.7	13.9	3.00e-06	0	43	0	268435456	21	4811
2026-01-19 10:15:47.16	156.59	22.20	-30.2	-32.7	13.9	5.30e-06	0	44	0	270532608	21	4817
2026-01-19 10:15:48.16	156.58	22.35	-30.2	-32.7	13.9	5.30e-06	0	43	0	271581184	21	4808
2026-01-19 10:15:49.16	156.57	22.49	-30.2	-32.7	13.9	3.00e-06	0	44	0	273678336	21	4812
2026-01-19 10:15:50.16	156.57	22.64	-30.3	-33.1	13.7	2.20e-06	0	44	0	275775488	21	4940
2026-01-19 10:15:51.16	156.56	22.78	-30.2	-32.7	14.0	5.30e-06	0	43	0	277872640	21	4802
2026-01-19 10:15:52.17	156.55	22.93	-30.1	-32.5	14.1	1.50e-06	0	43	0	279969792	21	4725
2026-01-19 10:15:53.17	156.54	23.08	-30.1	-32.5	14.1	7.00e-07	0	44	0	281018368	21	4726
2026-01-19 10:15:54.17	156.54	23.23	-30.2	-32.6	14.0	1.50e-06	0	43	0	283115520	21	4770
2026-01-19 10:15:55.17	156.53	23.38	-30.2	-32.8	13.9	3.80e-06	0	44	0	285212672	21	4835
2026-01-19 10:15:56.17	156.52	23.53	-30.2	-32.8	14.0	3.80e-06	0	44	0	287309824	21	4827
2026-01-19 10:15:57.18	156.51	23.68	-30.3	-33.0	13.8	3.00e-06	0	43	0	289406976	21	4900
2026-01-19 10:15:58.18	156.50	23.84	-30.3	-33.0	13.8	1.50e-06	0	43	0	290455552	21	4917
2026-01-19 10:15:59.18	156.49	23.99	-30.4	-33.2	13.7	7.00e-07	0	43	0	292552704	21	4985
2026-01-19 10:16:00.18	156.49	24.14	-30.5	-33.4	13.6	4.50e-06	0	43	0	294649856	21	5033
2026-01-19 10:16:01.19	156.48	24.30	-30.5	-33.5	13.5	1.52e-05	0	44	0	296747008	21	5086
2026-01-19 10:16:02.20	156.47	24.46	-30.5	-33.6	13.5	9.10e-06	0	43	0	297795584	21	5095
2026-01-19 10:16:03.20	156.46	24.61	-30.6	-33.6	13.5	1.06e-05	0	44	0	299892736	21	5131
2026-01-19 10:16:04.20	156.45	24.77	-30.6	-33.8	13.4	9.10e-06	0	43	0	301989888	21	5189
2026-01-19 10:16:05.21	156.44	24.93	-30.6	-33.7	13.4	1.98e-05	0	43	0	304087040	21	5166
2026-01-19 10:16:06.21	156.43	25.09	-30.7	-34.0	13.2	1.44e-05	0	43	0	306184192	21	5257
2026-01-19 10:16:07.21	156.42	25.25	-30.8	-34.3	13.1	3.28e-05	0	44	0	307232768	21	5377
2026-01-19 10:16:08.21	156.41	25.42	-30.6	-33.8	13.4	1.60e-05	0	43	0	309329920	21	5173
2026-01-19 10:16:09.22	156.40	25.58	-30.6	-33.8	13.4	9.90e-06	0	44	0	311427072	21	5168
2026-01-19 10:16:10.22	156.39	25.74	-30.7	-34.0	13.3	1.67e-05	0	43	0	313524224	21	5244
2026-01-19 10:16:11.23	156.38	25.91	-30.6	-33.7	13.5	1.06e-05	0	43	0	315621376	21	5134
2026-01-19 10:16:12.23	156.37	26.08	-30.7	-34.0	13.3	1.75e-05	0	44	0	316669952	21	5265
2026-01-19 10:16:13.23	156.36	26.24	-30.8	-34.3	13.1	1.60e-05	0	44	0	318767104	21	5380
2026-01-19 10:16:14.23	156.35	26.41	-31.0	-34.7	12.8	4.34e-05	0	44	0	320864256	21	5522
2026-01-19 10:16:15.23	156.34	26.58	-30.9	-34.5	13.0	4.11e-05	0	43	0	322961408	21	5464
2026-01-19 10:16:16.24	156.33	26.75	-31.0	-34.3	12.7	5.41e-05	0	44	0	325058560	22	5274
2026-01-19 10:16:17.24	156.32	26.92	-30.9	-33.9	13.1	4.11e-05	0	44	0	326107136	22	5115
2026-01-19 10:16:18.24	156.31	27.10	-30.8	-33.8	13.1	2.82e-05	0	44	0	328204288	22	5064
2026-01-19 10:16:19.24	156.30	27.27	-30.9	-33.9	13.1	3.35e-05	0	43	0	330301440	22	5088
2026-01-19 10:16:20.25	156.28	27.45	-31.0	-34.2	12.9	2.44e-05	0	44	0	332398592	22	5214
2026-01-19 10:16:21.25	156.27	27.62	-31.1	-34.6	12.7	6.94e-05	0	43	0	334495744	22	5367
2026-01-19 10:16:22.26	156.26	27.80	-31.1	-34.4	12.7	5.34e-05	0	43	0	335544320	22	5302
2026-01-19 10:16:23.26	156.25	27.98	-31.2	-34.8	12.5	8.46e-05	0	44	0	337641472	22	5459
2026-01-19 10:16:24.26	156.24	28.16	-31.4	-35.3	12.2	1.72e-04	0	44	0	339738624	22	5662
2026-01-19 10:16:25.26	156.22	28.34	-31.4	-35.5	12.1	2.59e-04	0	44	0	341835776	22	5728
2026-01-19 10:16:26.26	156.21	28.52	-31.5	-35.3	11.9	2.82e-04	0	44	0	343932928	23	5523
2026-01-19 10:16:27.26	156.20	28.70	-31.6	-35.6	11.7	4.93e-04	0	43	0	344981504	23	5659
2026-01-19 10:16:28.26	156.19	28.88	-31.9	-36.3	11.2	1.37e-03	0	44	0	347078656	23	5985
2026-01-19 10:16:29.25	156.17	29.07	-31.9	-36.3	11.2	1.36e-03	0	43	0	349175808	23	6006
2026-01-19 10:16:30.26	156.16	29.26	-32.0	-36.7	10.9	1.83e-03	0	44	0	351272960	23	6167
2026-01-19 10:16:31.26	156.15	29.44	-32.0	-36.1	11.0	2.03e-03	0	44	0	352321536	24	5816
2026-01-19 10:16:32.27	156.13	29.63	-32.0	-36.0	11.0	1.69e-03	0	44	0	354418688	24	5766
2026-01-19 10:16:33.27	156.12	29.82	-31.9	-35.9	11.1	1.55e-03	0	44	0	356515840	24	5690
2026-01-19 10:16:34.27	156.11	30.01	-31.9	-36.0	11.1	1.61e-03	0	44	0	358612992	24	5736
2026-01-19 10:16:35.27	156.09	30.21	-32.0	-36.0	11.0	2.16e-03	0	44	0	360710144	24	5769
2026-01-19 10:16:36.27	156.08	30.40	-32.1	-36.4	10.7	2.69e-03	0	44	0	361758720	24	5942
2026-01-19 10:16:37.27	156.06	30.60	-32.0	-36.3	10.8	2.52e-03	0	44	0	363855872	24	5879
2026-01-19 10:16:38.27	156.05	30.79	-32.1	-36.5	10.7	2.76e-03	0	44	0	365953024	24	5993
2026-01-19 10:16:39.27	156.03	30.99	-32.1	-36.6	10.6	3.60e-03	0	44	0	368050176	24	6042
2026-01-19 10:16:40.28	156.02	31.19	-32.1	-36.4	10.8	2.88e-03	0	44	0	370147328	24	5924
2026-01-19 10:16:41.28	156.00	31.39	-32.0	-36.3	10.9	2.53e-03	0	44	0	371195904	24	5867
2026-01-19 10:16:42.28	155.99	31.59	-32.0	-36.3	10.9	2.33e-03	0	44	0	373293056	24	5889
2026-01-19 10:16:43.28	155.97	31.80	-32.1	-36.4	10.8	2.69e-03	0	44	0	375390208	24	5903
2026-01-19 10:16:44.29	155.95	32.00	-32.1	-36.6	10.7	2.95e-03	0	44	0	377487360	24	6009
2026-01-19 10:16:45.29	155.94	32.21	-32.1	-36.6	10.7	3.16e-03	0	44	0	379584512	24	5998
2026-01-19 10:16:46.30	155.92	32.42	-32.2	-36.8	10.5	3.62e-03	0	44	0	380633088	24	6120
2026-01-19 10:16:47.29	155.90	32.63	-32.2	-36.8	10.5	3.87e-03	0	44	0	382730240	24	6132
2026-01-19 10:16:48.29	155.89	32.84	-32.2	-36.9	10.5	4.03e-03	0	44	0	384827392	24	6150
2026-01-19 10:16:49.30	155.87	33.05	-32.3	-37.3	10.2	6.00e-03	0	43	0	386924544	24	6354
2026-01-19 10:16:50.30	155.85	33.26	-32.3	-37.2	10.2	6.43e-03	0	43	0	389021696	24	6326
2026-01-19 10:16:51.30	155.83	33.48	-32.2	-36.9	10.4	5.46e-03	0	44	0	390070272	24	6172
2026-01-19 10:16:52.31	155.82	33.70	-32.2	-36.7	10.7	3.41e-03	0	44	0	392167424	24	6050
2026-01-19 10:16:53.31	155.80	33.92	-32.1	-36.5	10.8	2.64e-03	0	44	0	394264576	24	5940
2026-01-19 10:16:54.31	155.78	34.13	-32.0	-36.2	11.0	3.10e-03	0	44	0	396361728	24	5809
2026-01-19 10:16:55.32	155.76	34.36	-31.8	-35.5	11.5	9.70e-04	0	44	0	397410304	24	5499
2026-01-19 10:16:56.33	155.74	34.58	-31.8	-35.4	11.6	7.26e-04	0	44	0	399507456	24	5450
2026-01-19 10:16:57.33	155.72	34.81	-31.8	-35.5	11.5	9.70e-04	0	44	0	401604608	24	5514
2026-01-19 10:16:58.33	155.70	35.03	-31.5	-34.6	12.1	6.17e-04	0	43	0	403701760	24	5149
2026-01-19 10:16:59.33	155.68	35.26	-31.3	-34.4	12.7	1.11e-04	0	44	0	405798912	23	5161
2026-01-19 10:17:00.33	155.66	35.49	-31.0	-33.5	13.3	3.66e-05	0	44	0	406847488	23	4820
2026-01-19 10:17:01.33	155.64	35.72	-30.7	-33.2	13.8	1.22e-05	0	44	0	408944640	22	4812
2026-01-19 10:17:02.34	155.62	35.95	-30.5	-32.8	14.1	3.00e-06	0	44	0	411041792	22	4678
2026-01-19 10:17:03.34	155.59	36.19	-30.3	-32.3	14.3	0.00e+00	0	44	0	413138944	22	4510
2026-01-19 10:17:04.34	155.57	36.42	-30.2	-32.5	14.5	7.00e-07	0	44	0	415236096	21	4694
2026-01-19 10:17:05.35	155.55	36.66	-30.2	-32.5	14.5	0.00e+00	0	44	0	416284672	21	4678
2026-01-19 10:17:06.35	155.53	36.90	-30.2	-32.5	14.5	7.00e-07	0	44	0	418381824	21	4693
2026-01-19 10:17:07.35	155.50	37.15	-30.0	-32.1	14.8	0.00e+00	0	44	0	420478976	21	4547
2026-01-19 10:17:08.35	155.48	37.39	-29.9	-31.6	15.1	0.00e+00	0	44	0	422576128	21	4402
2026-01-19 10:17:09.36	155.46	37.63	-29.9	-31.6	15.1	0.00e+00	0	44	0	424673280	21	4411
2026-01-19 10:17:10.37	155.43	37.88	-29.8	-31.6	15.1	0.00e+00	0	44	0	425721856	21	4391
2026-01-19 10:17:11.37	155.41	38.13	-30.0	-31.9	14.9	0.00e+00	0	44	0	427819008	21	4490
2026-01-19 10:17:12.36	155.38	38.38	-30.0	-32.0	14.9	0.00e+00	0	43	0	429916160	21	4513
2026-01-19 10:17:13.37	155.35	38.63	-30.1	-32.1	14.8	1.50e-06	0	44	0	432013312	21	4555
2026-01-19 10:17:14.37	155.33	38.89	-30.1	-32.2	14.8	7.00e-07	0	44	0	434110464	21	4602
2026-01-19 10:17:15.37	155.30	39.14	-30.3	-32.7	14.5	1.50e-06	0	43	0	435159040	21	4737
2026-01-19 10:17:16.38	155.27	39.40	-30.5	-33.3	14.1	2.20e-06	0	44	0	437256192	21	4944
2026-01-19 10:17:17.38	155.25	39.66	-30.5	-33.4	14.1	3.80e-06	0	44	0	439353344	21	4983
2026-01-19 10:17:18.38	155.22	39.92	-30.6	-33.5	14.0	5.30e-06	0	44	0	441450496	21	5033
2026-01-19 10:17:19.39	155.19	40.19	-30.7	-33.8	13.8	1.06e-05	0	44	0	442499072	21	5133
2026-01-19 10:17:20.39	155.16	40.46	-30.7	-33.8	13.8	6.80e-06	0	44	0	444596224	21	5151
2026-01-19 10:17:21.40	155.13	40.73	-30.8	-33.9	13.7	3.80e-06	0	44	0	446693376	21	5169
2026-01-19 10:17:22.40	155.10	41.00	-30.8	-34.1	13.6	6.10e-06	0	43	0	448790528	21	5223
2026-01-19 10:17:23.40	155.07	41.27	-30.9	-34.4	13.4	9.10e-06	0	44	0	450887680	21	5346
2026-01-19 10:17:24.40	155.04	41.54	-31.0	-34.4	13.4	9.10e-06	0	44	0	452984832	21	5365
2026-01-19 10:17:25.40	155.01	41.82	-31.1	-34.5	13.1	2.28e-05	0	44	0	454033408	22	5266
2026-01-19 10:17:26.41	154.97	42.10	-31.3	-35.0	12.7	6.17e-05	0	44	0	456130560	22	5483
2026-01-19 10:17:27.41	154.94	42.38	-31.2	-34.5	13.1	3.96e-05	0	44	0	458227712	22	5266
2026-01-19 10:17:28.41	154.91	42.66	-30.9	-33.8	13.5	2.05e-05	0	44	0	460324864	22	5033
2026-01-19 10:17:29.41	154.87	42.94	-30.7	-33.3	13.9	3.00e-06	0	44	0	461373440	22	4825
2026-01-19 10:17:30.41	154.84	43.23	-30.7	-33.2	13.9	6.10e-06	0	44	0	463470592	22	4812
2026-01-19 10:17:31.42	154.80	43.52	-30.8	-33.4	13.8	6.80e-06	0	44	0	465567744	22	4873
2026-01-19 10:17:32.42	154.76	43.81	-30.9	-33.6	13.6	3.00e-06	0	44	0	467664896	22	4960
2026-01-19 10:17:33.42	154.72	44.10	-30.9	-33.6	13.6	1.29e-05	0	44	0	469762048	22	4956
2026-01-19 10:17:34.42	154.69	44.40	-30.8	-33.6	13.7	1.90e-05	0	44	0	470810624	22	4928
2026-01-19 10:17:35.42	154.65	44.69	-31.0	-34.1	13.4	5.30e-06	0	44	0	472907776	22	5143
2026-01-19 10:17:36.41	154.61	44.99	-31.2	-34.6	13.0	3.50e-05	0	44	0	475004928	22	5315
2026-01-19 10:17:37.41	154.57	45.29	-31.5	-35.1	12.5	7.01e-05	0	44	0	477102080	23	5400
2026-01-19 10:17:38.41	154.53	45.59	-31.8	-35.8	11.8	2.36e-04	0	43	0	479199232	23	5734
2026-01-19 10:17:39.42	154.48	45.90	-32.0	-36.5	11.4	8.50e-04	0	43	0	480247808	23	6017
2026-01-19 10:17:40.42	154.44	46.21	-32.1	-36.4	11.0	1.79e-03	0	44	0	482344960	24	5899
2026-01-19 10:17:41.42	154.40	46.52	-32.3	-36.8	10.7	1.91e-03	0	44	0	484442112	24	6104
2026-01-19 10:17:42.43	154.35	46.84	-32.4	-37.3	10.5	3.20e-03	0	44	0	486539264	24	6312
2026-01-19 10:17:43.43	154.30	47.15	-32.4	-37.5	10.2	6.09e-03	0	44	0	488636416	24	6426
2026-01-19 10:17:44.43	154.26	47.47	-32.4	-37.3	10.3	5.55e-03	0	44	0	489684992	24	6350
2026-01-19 10:17:45.44	154.21	47.79	-32.2	-36.7	10.8	3.11e-03	0	44	0	491782144	24	6014
2026-01-19 10:17:46.44	154.16	48.12	-32.1	-36.3	11.1	1.69e-03	0	44	0	493879296	24	5833
2026-01-19 10:17:47.44	154.11	48.44	-32.1	-36.1	11.3	1.46e-03	0	44	0	495976448	24	5745
2026-01-19 10:17:48.44	154.06	48.77	-32.1	-36.2	11.2	1.59e-03	0	44	0	497025024	24	5770
2026-01-19 10:17:49.44	154.01	49.10	-32.2	-36.4	11.1	1.49e-03	0	44	0	499122176	24	5895
2026-01-19 10:17:50.45	153.95	49.43	-32.2	-36.5	10.9	2.68e-03	0	44	0	501219328	24	5949
2026-01-19 10:17:51.45	153.90	49.77	-32.0	-35.9	11.5	8.96e-04	0	44	0	503316480	24	5639
2026-01-19 10:17:52.45	153.84	50.10	-31.9	-35.5	11.7	7.35e-04	0	44	0	505413632	24	5497
2026-01-19 10:17:53.45	153.78	50.44	-31.5	-34.5	12.4	2.47e-04	0	44	0	506462208	24	5077
2026-01-19 10:17:54.45	153.72	50.78	-31.4	-34.2	12.7	1.07e-04	0	44	0	508559360	24	4947
2026-01-19 10:17:55.45	153.66	51.13	-31.4	-34.2	12.6	1.10e-04	0	44	0	510656512	24	4965
2026-01-19 10:17:56.45	153.60	51.48	-31.4	-34.1	12.8	1.08e-04	0	44	0	512753664	24	4907
2026-01-19 10:17:57.45	153.54	51.83	-30.8	-33.0	13.8	1.75e-05	0	44	0	514850816	23	4623
2026-01-19 10:17:58.46	153.47	52.18	-30.4	-32.3	14.5	1.50e-06	0	44	0	515899392	22	4503
2026-01-19 10:17:59.46	153.40	52.53	-30.3	-32.5	14.7	0.00e+00	0	44	0	517996544	21	4677
2026-01-19 10:18:00.46	153.34	52.89	-30.2	-32.4	14.8	0.00e+00	0	44	0	520093696	21	4637
2026-01-19 10:18:01.46	153.26	53.25	-30.1	-32.1	14.9	0.00e+00	0	44	0	522190848	21	4541
2026-01-19 10:18:02.47	153.19	53.62	-29.7	-31.7	15.5	0.00e+00	0	44	0	524288000	20	4530
2026-01-19 10:18:03.47	153.12	53.98	-29.5	-31.3	15.7	0.00e+00	0	44	0	525336576	20	4390
2026-01-19 10:18:04.47	153.04	54.35	-29.6	-31.5	15.6	0.00e+00	0	44	0	527433728	20	4471
2026-01-19 10:18:05.47	152.96	54.72	-29.7	-31.6	15.5	0.00e+00	0	44	0	529530880	20	4495
2026-01-19 10:18:06.48	152.88	55.09	-29.7	-31.8	15.4	0.00e+00	0	44	0	531628032	20	4541
2026-01-19 10:18:07.48	152.80	55.47	-30.0	-32.4	15.1	0.00e+00	0	44	0	533725184	20	4736
2026-01-19 10:18:08.48	152.71	55.85	-30.4	-33.5	14.4	0.00e+00	0	44	0	534773760	20	5107
2026-01-19 10:18:09.49	152.63	56.23	-30.9	-34.4	13.6	2.20e-06	0	44	0	536870912	21	5332
2026-01-19 10:18:10.50	152.54	56.62	-31.3	-34.9	12.9	3.58e-05	0	44	0	538968064	22	5418
2026-01-19 10:18:11.51	152.44	57.00	-31.7	-35.5	12.2	1.36e-04	0	44	0	541065216	23	5570
2026-01-19 10:18:12.51	152.35	57.39	-32.0	-35.9	11.5	4.32e-04	0	44	0	543162368	24	5648
2026-01-19 10:18:13.51	152.25	57.78	-32.4	-37.1	10.6	2.46e-03	0	43	0	544210944	24	6228
2026-01-19 10:18:14.50	152.15	58.17	-32.7	-37.7	9.9	6.83e-03	0	44	0	546308096	25	6394
2026-01-19 10:18:15.51	152.04	58.57	-32.7	-37.9	9.6	1.28e-02	0	44	0	548405248	25	6536
2026-01-19 10:18:16.51	151.94	58.97	-32.6	-37.6	9.8	1.10e-02	0	44	0	550502400	25	6364
2026-01-19 10:18:17.51	151.82	59.37	-32.3	-36.2	10.9	3.77e-03	0	43	0	551550976	25	5689
2026-01-19 10:18:18.51	151.71	59.77	-32.0	-35.6	11.4	1.43e-03	0	44	0	553648128	25	5395
2026-01-19 10:18:19.52	151.59	60.18	-31.7	-35.0	12.1	5.34e-04	0	44	0	555745280	24	5276
2026-01-19 10:18:20.52	151.47	60.59	-31.7	-34.9	12.2	2.04e-04	0	44	0	557842432	24	5205
2026-01-19 10:18:21.53	151.34	61.00	-31.5	-34.3	12.6	2.75e-04	0	44	0	559939584	24	4995
2026-01-19 10:18:22.52	151.21	61.41	-31.1	-33.7	13.4	3.05e-05	0	44	0	560988160	23	4865
2026-01-19 10:18:23.52	151.08	61.83	-30.9	-33.3	13.6	1.29e-05	0	44	0	563085312	23	4717
2026-01-19 10:18:24.53	150.94	62.25	-30.8	-33.4	13.8	3.80e-06	0	44	0	565182464	22	4863
2026-01-19 10:18:25.53	150.79	62.67	-30.7	-33.1	14.0	4.50e-06	0	44	0	567279616	22	4775
2026-01-19 10:18:26.53	150.64	63.09	-30.6	-33.0	14.2	7.00e-07	0	44	0	569376768	22	4715
2026-01-19 10:18:27.54	150.48	63.52	-30.6	-33.0	14.2	7.00e-07	0	44	0	570425344	22	4715
2026-01-19 10:18:28.54	150.32	63.95	-30.6	-33.0	14.2	7.00e-07	0	44	0	572522496	22	4732
2026-01-19 10:18:29.54	150.15	64.37	-30.6	-32.8	14.3	1.50e-06	0	44	0	574619648	22	4661
2026-01-19 10:18:30.55	149.98	64.81	-30.4	-32.3	14.6	1.50e-06	0	44	0	576716800	22	4503
2026-01-19 10:18:31.55	149.79	65.24	-30.9	-33.6	13.7	4.50e-06	0	44	0	578813952	22	4943
2026-01-19 10:18:32.56	149.60	65.69	-31.2	-34.5	13.1	2.44e-05	0	44	0	579862528	22	5276
2026-01-19 10:18:33.56	149.41	66.12	-31.1	-34.5	13.0	2.74e-05	0	44	0	581959680	22	5360
2026-01-19 10:18:34.56	149.20	66.56	-31.0	-34.1	13.3	2.21e-05	0	44	0	584056832	22	5180
2026-01-19 10:18:35.57	148.99	67.01	-30.9	-34.0	13.4	2.05e-05	0	44	0	586153984	22	5138
2026-01-19 10:18:36.57	148.76	67.46	-31.0	-34.2	13.3	1.52e-05	0	44	0	588251136	22	5208
2026-01-19 10:18:37.57	148.53	67.90	-31.2	-34.8	12.9	4.19e-05	0	44	0	589299712	22	5434
2026-01-19 10:18:38.57	148.29	68.35	-31.4	-34.8	12.5	1.60e-04	0	44	0	591396864	23	5325
2026-01-19 10:18:39.57	148.03	68.80	-31.3	-34.5	12.7	1.05e-04	0	44	0	593494016	23	5174
2026-01-19 10:18:40.57	147.76	69.25	-31.4	-34.5	12.8	5.95e-05	0	44	0	595591168	23	5174
2026-01-19 10:18:41.57	147.48	69.71	-31.4	-34.5	12.8	6.40e-05	0	44	0	596639744	23	5180
2026-01-19 10:18:42.58	147.19	70.17	-31.2	-34.2	13.0	4.50e-05	0	44	0	598736896	23	5037
2026-01-19 10:18:43.57	146.88	70.62	-31.0	-33.4	13.6	2.13e-05	0	44	0	600834048	23	4757
2026-01-19 10:18:44.57	146.55	71.08	-30.9	-33.6	13.8	5.30e-06	0	44	0	602931200	22	4944
2026-01-19 10:18:45.58	146.21	71.54	-31.0	-34.0	13.5	6.10e-06	0	44	0	605028352	22	5097
2026-01-19 10:18:46.58	145.85	72.00	-31.2	-34.4	13.3	2.67e-05	0	44	0	606076928	22	5248
2026-01-19 10:18:47.58	145.46	72.47	-30.9	-33.6	13.7	5.30e-06	0	44	0	608174080	22	4951
2026-01-19 10:18:48.58	145.06	72.93	-30.8	-33.5	13.8	4.50e-06	0	44	0	610271232	22	4898
2026-01-19 10:18:49.58	144.63	73.39	-31.2	-34.6	13.2	1.67e-05	0	44	0	612368384	22	5308
2026-01-19 10:18:50.59	144.17	73.87	-31.4	-35.1	12.8	5.18e-05	0	44	0	614465536	22	5507
2026-01-19 10:18:51.58	143.69	74.33	-31.4	-35.0	12.8	5.49e-05	0	44	0	615514112	22	5495
2026-01-19 10:18:52.59	143.17	74.80	-31.4	-35.2	12.6	4.11e-05	0	44	0	617611264	22	5548
2026-01-19 10:18:53.59	142.62	75.27	-31.3	-34.8	12.9	6.79e-05	0	44	0	619708416	22	5405
2026-01-19 10:18:54.59	142.04	75.73	-30.9	-33.8	13.7	1.06e-05	0	44	0	621805568	22	4998
2026-01-19 10:18:55.59	141.41	76.20	-31.1	-34.3	13.4	7.60e-06	0	44	0	623902720	22	5172
2026-01-19 10:18:56.60	140.73	76.67	-31.4	-35.1	12.8	2.67e-05	0	44	0	624951296	22	5497
2026-01-19 10:18:57.59	140.01	77.14	-31.5	-34.9	12.6	7.17e-05	0	44	0	627048448	23	5321
2026-01-19 10:18:58.60	139.22	77.61	-31.6	-35.2	12.4	8.39e-05	0	44	0	629145600	23	5433
2026-01-19 10:18:59.60	138.38	78.07	-31.9	-35.6	11.8	2.78e-04	0	44	0	631242752	24	5500
2026-01-19 10:19:00.61	137.46	78.54	-31.7	-35.0	12.2	4.61e-04	0	44	0	633339904	24	5254
2026-01-19 10:19:01.61	136.46	79.00	-31.3	-34.1	13.2	5.56e-05	0	44	0	634388480	23	5012
2026-01-19 10:19:02.61	135.38	79.46	-30.8	-33.3	14.0	4.50e-06	0	44	0	636485632	22	4828
2026-01-19 10:19:03.61	134.20	79.92	-30.4	-32.5	14.6	1.50e-06	0	44	0	638582784	22	4534
2026-01-19 10:19:04.61	132.90	80.37	-30.7	-33.2	14.2	7.00e-07	0	44	0	640679936	22	4776
2026-01-19 10:19:05.60	131.49	80.81	-31.3	-34.7	13.2	1.22e-05	0	44	0	641728512	22	5343
2026-01-19 10:19:06.61	129.89	81.26	-31.8	-35.6	12.2	8.16e-05	0	44	0	643825664	23	5608
2026-01-19 10:19:07.61	128.15	81.70	-32.1	-36.1	11.5	4.59e-04	0	44	0	645922816	24	5723
2026-01-19 10:19:08.62	126.19	82.13	-31.8	-35.3	12.1	4.42e-04	0	44	0	648019968	24	5348
2026-01-19 10:19:09.61	124.04	82.55	-31.5	-34.3	12.8	1.24e-04	0	44	0	650117120	24	4973
2026-01-19 10:19:10.62	121.60	82.96	-31.2	-33.8	13.4	2.59e-05	0	44	0	651165696	23	4895
2026-01-19 10:19:11.62	118.88	83.36	-30.8	-32.9	14.1	3.80e-06	0	44	0	653262848	23	4569
2026-01-19 10:19:12.63	115.78	83.74	-30.4	-32.3	14.7	7.00e-07	0	44	0	655360000	22	4491
2026-01-19 10:19:13.63	112.33	84.10	-29.9	-31.5	15.5	0.00e+00	0	44	0	657457152	21	4323
2026-01-19 10:19:14.63	108.45	84.43	-29.6	-31.4	15.9	0.00e+00	0	44	0	659554304	20	4415
2026-01-19 10:19:15.64	104.05	84.74	-29.0	-30.4	16.8	0.00e+00	0	44	0	660602880	19	4218
2026-01-19 10:19:16.64	99.17	85.01	-29.2	-30.8	16.6	0.00e+00	0	44	0	662700032	19	4348
2026-01-19 10:19:17.64	93.77	85.25	-30.1	-32.5	15.2	0.00e+00	0	44	0	664797184	20	4750
2026-01-19 10:19:18.64	87.87	85.43	-30.7	-33.7	14.2	7.00e-07	0	44	0	666894336	21	5070
2026-01-19 10:19:19.65	81.48	85.57	-31.2	-34.5	13.3	3.00e-06	0	44	0	668991488	22	5246
2026-01-19 10:19:20.65	74.84	85.65	-31.6	-35.2	12.6	3.96e-05	0	44	0	670040064	23	5421
2026-01-19 10:19:21.65	68.05	85.66	-32.1	-36.1	11.6	6.14e-04	0	44	0	672137216	24	5734
2026-01-19 10:19:22.65	61.31	85.62	-32.2	-36.3	11.6	8.59e-04	0	44	0	674234368	24	5791
2026-01-19 10:19:23.66	54.72	85.52	-32.0	-35.8	12.0	5.23e-04	0	44	0	676331520	24	5540
2026-01-19 10:19:24.66	48.57	85.36	-31.9	-35.4	12.2	4.61e-04	0	44	0	678428672	24	5375
2026-01-19 10:19:25.66	42.89	85.15	-31.5	-34.3	13.0	8.23e-05	0	43	0	679477248	24	4930
2026-01-19 10:19:26.67	37.67	84.90	-31.0	-33.3	13.9	1.44e-05	0	44	0	681574400	23	4684
2026-01-19 10:19:27.67	33.02	84.61	-30.7	-33.1	14.4	7.00e-07	0	44	0	683671552	22	4723
2026-01-19 10:19:28.67	28.88	84.29	-30.8	-33.2	14.2	7.00e-07	0	44	0	685768704	22	4775
2026-01-19 10:19:29.67	25.19	83.94	-31.2	-34.3	13.5	5.30e-06	0	44	0	686817280	22	5164
2026-01-19 10:19:30.67	21.92	83.58	-31.5	-34.8	12.9	2.82e-05	0	44	0	688914432	23	5243
2026-01-19 10:19:31.68	18.98	83.19	-31.8	-35.7	12.2	6.10e-05	0	44	0	691011584	23	5639
2026-01-19 10:19:32.68	16.39	82.78	-32.2	-36.4	11.3	5.41e-04	0	44	0	693108736	24	5860
2026-01-19 10:19:33.68	14.09	82.37	-32.4	-37.1	10.8	2.23e-03	0	44	0	695205888	24	6191
2026-01-19 10:19:34.68	12.02	81.95	-32.0	-35.9	11.6	1.72e-03	0	44	0	696254464	24	5620
2026-01-19 10:19:35.69	10.15	81.51	-31.5	-34.3	12.8	1.45e-04	0	44	0	698351616	24	4973
2026-01-19 10:19:36.69	8.48	81.07	-31.0	-33.3	13.8	9.10e-06	0	44	0	700448768	23	4705
2026-01-19 10:19:37.69	6.98	80.63	-30.6	-33.0	14.3	7.00e-07	0	44	0	702545920	22	4694
2026-01-19 10:19:38.69	5.61	80.18	-30.7	-33.0	14.3	7.00e-07	0	44	0	704643072	22	4707
2026-01-19 10:19:39.69	4.36	79.72	-30.4	-32.3	14.7	7.00e-07	0	44	0	705691648	22	4483
2026-01-19 10:19:40.70	3.21	79.26	-30.4	-32.3	14.7	0.00e+00	0	44	0	707788800	22	4493
2026-01-19 10:19:41.70	2.17	78.80	-30.2	-32.3	15.0	0.00e+00	0	44	0	709885952	21	4595
2026-01-19 10:19:42.70	1.21	78.34	-30.1	-32.1	15.1	0.00e+00	0	44	0	711983104	21	4530
2026-01-19 10:19:43.70	0.33	77.88	-30.5	-33.0	14.5	7.00e-07	0	44	0	714080256	21	4832
2026-01-19 10:19:44.70	359.52	77.41	-31.1	-34.2	13.5	4.50e-06	0	44	0	715128832	22	5153
2026-01-19 10:19:45.71	358.75	76.94	-31.4	-35.0	13.0	4.04e-05	0	44	0	717225984	22	5428
2026-01-19 10:19:46.71	358.05	76.47	-31.4	-35.1	12.9	4.34e-05	0	44	0	719323136	22	5496
2026-01-19 10:19:47.72	357.39	76.00	-31.2	-34.5	13.2	4.34e-05	0	44	0	721420288	22	5265
2026-01-19 10:19:48.72	356.78	75.54	-31.2	-34.4	13.4	1.52e-05	0	44	0	723517440	22	5219
2026-01-19 10:19:49.72	356.22	75.07	-31.8	-35.6	12.2	1.01e-04	0	44	0	724566016	23	5602
2026-01-19 10:19:50.72	355.68	74.60	-32.3	-36.6	11.0	7.11e-04	0	44	0	726663168	24	5944
2026-01-19 10:19:51.72	355.18	74.14	-32.2	-36.3	11.3	2.44e-03	0	44	0	728760320	24	5795
2026-01-19 10:19:52.73	354.71	73.67	-31.8	-35.0	12.3	3.09e-04	0	44	0	730857472	24	5259
2026-01-19 10:19:53.74	354.26	73.20	-31.2	-33.9	13.4	4.95e-05	0	44	0	732954624	23	4907
2026-01-19 10:19:54.74	353.84	72.73	-31.0	-33.5	13.7	6.10e-06	0	44	0	734003200	23	4763
2026-01-19 10:19:55.74	353.45	72.27	-31.2	-33.9	13.3	1.90e-05	0	44	0	736100352	23	4933
2026-01-19 10:19:56.75	353.07	71.81	-31.3	-34.3	13.0	4.11e-05	0	44	0	738197504	23	5071
2026-01-19 10:19:57.75	352.72	71.35	-31.3	-34.3	13.0	4.04e-05	0	44	0	740294656	23	5079
2026-01-19 10:19:58.76	352.38	70.88	-31.5	-34.7	12.8	3.35e-05	0	44	0	742391808	23	5232
2026-01-19 10:19:59.75	352.07	70.43	-31.8	-35.7	12.0	1.91e-04	0	44	0	743440384	23	5644
2026-01-19 10:20:00.76	351.76	69.97	-32.2	-36.4	11.2	8.42e-04	0	44	0	745537536	24	5853
2026-01-19 10:20:01.76	351.48	69.52	-32.2	-36.4	11.2	1.31e-03	0	44	0	747634688	24	5876
2026-01-19 10:20:02.77	351.20	69.06	-32.2	-36.3	11.3	1.05e-03	0	44	0	749731840	24	5807
2026-01-19 10:20:03.76	350.94	68.61	-32.4	-37.0	10.7	2.23e-03	0	44	0	750780416	24	6155
2026-01-19 10:20:04.76	350.69	68.17	-32.6	-37.3	10.2	3.84e-03	0	44	0	752877568	25	6173
2026-01-19 10:20:05.76	350.45	67.72	-33.3	-39.3	8.3	3.23e-02	0	44	0	754974720	26	7257
2026-01-19 10:20:06.77	350.22	67.27	-33.3	-39.5	8.0	6.77e-02	0	44	0	757071872	26	7392
2026-01-19 10:20:07.77	350.00	66.83	-33.0	-38.2	9.0	3.54e-02	0	44	0	759169024	26	6581
2026-01-19 10:20:08.77	349.79	66.39	-32.8	-37.5	9.6	1.72e-02	0	44	0	760217600	26	6208
2026-01-19 10:20:09.78	349.59	65.94	-32.9	-37.9	9.4	1.45e-02	0	44	0	762314752	26	6407
2026-01-19 10:20:10.79	349.40	65.50	-32.6	-36.9	10.2	1.34e-02	0	44	0	764411904	26	5885
2026-01-19 10:20:11.79	349.21	65.07	-32.4	-36.1	10.8	3.71e-03	0	44	0	766509056	26	5515
2026-01-19 10:20:12.79	349.03	64.64	-32.1	-35.8	11.3	1.57e-03	0	44	0	768606208	25	5480
2026-01-19 10:20:13.79	348.86	64.21	-31.8	-34.9	11.9	7.97e-04	0	44	0	769654784	25	5093
2026-01-19 10:20:14.80	348.69	63.78	-31.7	-34.9	12.3	2.38e-04	0	44	0	771751936	24	5203
2026-01-19 10:20:15.80	348.54	63.35	-31.5	-34.2	12.7	1.69e-04	0	44	0	773849088	24	4951
2026-01-19 10:20:16.80	348.38	62.93	-31.1	-33.8	13.3	3.81e-05	0	44	0	775946240	23	4885
2026-01-19 10:20:17.80	348.24	62.51	-30.9	-33.1	13.8	7.60e-06	0	44	0	778043392	23	4640
2026-01-19 10:20:18.81	348.09	62.09	-30.6	-32.7	14.4	2.20e-06	0	44	0	779091968	22	4630
2026-01-19 10:20:19.80	347.96	61.68	-30.5	-32.5	14.6	0.00e+00	0	44	0	781189120	22	4561
2026-01-19 10:20:20.80	347.82	61.26	-30.8	-33.5	13.9	7.00e-07	0	44	0	783286272	22	4884
2026-01-19 10:20:21.80	347.69	60.85	-31.5	-34.9	12.7	7.60e-06	0	44	0	785383424	23	5292
2026-01-19 10:20:22.81	347.57	60.44	-32.5	-37.1	10.3	2.95e-03	0	44	0	787480576	25	6096
2026-01-19 10:20:23.81	347.45	60.04	-32.6	-37.2	10.2	7.36e-03	0	44	0	788529152	25	6155
2026-01-19 10:20:24.81	347.33	59.63	-32.7	-37.5	10.0	5.86e-03	0	44	0	790626304	25	6301
2026-01-19 10:20:25.82	347.22	59.23	-32.5	-36.9	10.4	9.27e-03	0	44	0	792723456	25	6009
2026-01-19 10:20:26.82	347.11	58.83	-32.3	-36.4	10.8	3.15e-03	0	44	0	794820608	25	5754
2026-01-19 10:20:27.83	347.00	58.43	-32.2	-35.9	11.2	1.35e-03	0	44	0	795869184	25	5525
2026-01-19 10:20:28.83	346.90	58.04	-32.2	-35.9	11.2	1.32e-03	0	44	0	797966336	25	5522
2026-01-19 10:20:29.84	346.80	57.65	-32.8	-38.0	9.6	7.83e-03	0	44	0	800063488	25	6580
2026-01-19 10:20:30.84	346.70	57.26	-32.8	-38.1	9.5	1.71e-02	0	44	0	802160640	25	6607
2026-01-19 10:20:31.84	346.61	56.87	-32.3	-36.4	10.8	6.12e-03	0	44	0	804257792	25	5740
2026-01-19 10:20:32.84	346.52	56.49	-31.8	-34.7	12.0	9.70e-04	0	44	0	805306368	25	5021
2026-01-19 10:20:33.84	346.43	56.11	-31.6	-34.8	12.3	1.75e-04	0	44	0	807403520	24	5152
2026-01-19 10:20:34.84	346.34	55.73	-32.0	-35.8	11.6	3.62e-04	0	44	0	809500672	24	5588
2026-01-19 10:20:35.85	346.26	55.35	-31.8	-35.3	11.9	7.32e-04	0	44	0	811597824	24	5382
2026-01-19 10:20:36.85	346.18	54.98	-31.4	-34.1	12.7	1.17e-04	0	44	0	813694976	24	4900
2026-01-19 10:20:37.85	346.10	54.61	-31.2	-33.9	13.2	3.05e-05	0	44	0	814743552	23	4931
2026-01-19 10:20:38.85	346.02	54.24	-30.9	-33.3	13.6	7.60e-06	0	44	0	816840704	23	4726
2026-01-19 10:20:39.85	345.95	53.88	-30.8	-32.9	13.9	2.20e-06	0	44	0	818937856	23	4568
2026-01-19 10:20:40.86	345.87	53.51	-30.5	-32.7	14.3	0.00e+00	0	44	0	821035008	22	4615
2026-01-19 10:20:41.87	345.80	53.15	-30.4	-32.3	14.5	7.00e-07	0	44	0	823132160	22	4504
2026-01-19 10:20:42.87	345.73	52.79	-30.6	-32.8	14.2	0.00e+00	0	44	0	824180736	22	4665
2026-01-19 10:20:43.87	345.66	52.44	-31.0	-33.8	13.6	4.50e-06	0	44	0	826277888	22	5022
2026-01-19 10:20:44.87	345.60	52.09	-31.3	-34.9	12.9	1.44e-05	0	44	0	828375040	22	5433
2026-01-19 10:20:45.88	345.53	51.73	-32.0	-36.3	11.5	2.10e-04	0	44	0	830472192	23	5938
2026-01-19 10:20:46.89	345.47	51.38	-32.0	-35.8	11.5	8.73e-04	0	44	0	832569344	24	5595
2026-01-19 10:20:47.90	345.41	51.04	-31.6	-34.8	12.2	4.07e-04	0	44	0	833617920	24	5204
2026-01-19 10:20:48.90	345.35	50.69	-31.4	-34.2	12.6	9.99e-05	0	44	0	835715072	24	4965
2026-01-19 10:20:49.90	345.29	50.36	-31.4	-34.2	12.7	6.48e-05	0	44	0	837812224	24	4943
2026-01-19 10:20:50.90	345.23	50.02	-31.7	-34.9	12.2	1.40e-04	0	44	0	839909376	24	5235
2026-01-19 10:20:51.91	345.18	49.68	-31.8	-35.3	11.9	3.75e-04	0	44	0	842006528	24	5397
2026-01-19 10:20:52.91	345.12	49.35	-31.9	-35.7	11.6	4.58e-04	0	44	0	843055104	24	5543
2026-01-19 10:20:53.91	345.07	49.02	-32.4	-37.4	10.3	2.61e-03	0	44	0	845152256	24	6371
2026-01-19 10:20:54.91	345.02	48.69	-33.1	-38.8	8.6	1.56e-02	0	44	0	847249408	26	6962
2026-01-19 10:20:55.92	344.97	48.36	-33.3	-40.0	7.5	7.95e-02	0	44	0	849346560	26	7773
2026-01-19 10:20:56.92	344.92	48.04	-32.8	-37.6	9.3	3.26e-02	0	44	0	851443712	26	6307
2026-01-19 10:20:57.93	344.87	47.72	-32.1	-35.8	11.0	4.96e-03	0	44	0	852492288	25	5515
2026-01-19 10:20:58.93	344.82	47.40	-31.7	-34.9	12.1	4.95e-04	0	44	0	854589440	24	5233
2026-01-19 10:20:59.93	344.78	47.08	-31.6	-34.7	12.2	1.92e-04	0	44	0	856686592	24	5155
2026-01-19 10:21:00.93	344.73	46.77	-31.9	-35.5	11.7	2.98e-04	0	44	0	858783744	24	5488
2026-01-19 10:21:01.94	344.69	46.46	-31.9	-35.8	11.5	7.38e-04	0	44	0	859832320	24	5593
2026-01-19 10:21:02.94	344.64	46.15	-32.5	-37.2	10.1	2.05e-03	0	44	0	861929472	25	6189
2026-01-19 10:21:03.95	344.60	45.84	-32.9	-38.6	9.0	2.00e-02	0	44	0	864026624	25	6958
2026-01-19 10:21:04.95	344.56	45.54	-32.9	-38.8	8.9	2.85e-02	0	44	0	866123776	25	7051
2026-01-19 10:21:05.96	344.52	45.23	-33.1	-39.1	8.2	4.16e-02	0	44	0	868220928	26	7143
2026-01-19 10:21:06.96	344.48	44.93	-33.0	-38.4	8.7	4.00e-02	0	44	0	869269504	26	6715
2026-01-19 10:21:07.97	344.44	44.63	-32.6	-37.1	9.8	1.54e-02	0	44	0	871366656	26	6012
2026-01-19 10:21:08.97	344.40	44.34	-32.1	-35.8	11.0	3.99e-03	0	44	0	873463808	25	5525
2026-01-19 10:21:09.96	344.36	44.05	-31.9	-35.2	11.5	1.04e-03	0	44	0	875560960	25	5245
2026-01-19 10:21:10.96	344.33	43.76	-31.9	-35.0	11.7	6.10e-04	0	44	0	877658112	25	5180
2026-01-19 10:21:11.96	344.29	43.47	-32.2	-36.0	11.0	1.04e-03	0	44	0	878706688	25	5595
2026-01-19 10:21:12.96	344.25	43.18	-32.2	-36.2	10.8	2.36e-03	0	44	0	880803840	25	5677
2026-01-19 10:21:13.96	344.22	42.90	-32.2	-36.2	10.8	2.51e-03	0	44	0	882900992	25	5675
2026-01-19 10:21:14.97	344.18	42.62	-32.3	-36.4	10.7	2.99e-03	0	44	0	884998144	25	5783
2026-01-19 10:21:15.97	344.15	42.34	-32.8	-38.3	9.2	6.79e-03	0	44	0	887095296	25	6773
2026-01-19 10:21:16.98	344.12	42.06	-32.9	-39.0	8.7	2.72e-02	0	44	0	888143872	25	7200
2026-01-19 10:21:17.98	344.09	41.78	-33.3	-39.9	7.6	7.58e-02	0	44	0	890241024	26	7704
2026-01-19 10:21:18.99	344.05	41.50	-33.1	-39.1	8.2	7.99e-02	0	44	0	892338176	26	7199
2026-01-19 10:21:19.99	344.02	41.23	-32.8	-37.9	9.1	4.16e-02	0	44	0	894435328	26	6466
2026-01-19 10:21:20.99	343.99	40.96	-32.5	-36.7	10.0	1.20e-02	0	44	0	896532480	26	5837
2026-01-19 10:21:21.99	343.96	40.70	-32.1	-35.9	10.9	3.26e-03	0	44	0	897581056	25	5554
2026-01-19 10:21:23.00	343.93	40.43	-31.8	-35.0	11.6	1.08e-03	0	44	0	899678208	25	5170
2026-01-19 10:21:24.01	343.91	40.16	-31.7	-35.1	11.9	4.82e-04	0	44	0	901775360	24	5305
2026-01-19 10:21:25.00	343.88	39.90	-31.7	-35.1	11.9	3.41e-04	0	44	0	903872512	24	5301
2026-01-19 10:21:26.00	343.85	39.64	-31.6	-34.8	12.2	2.81e-04	0	44	0	905969664	24	5196
2026-01-19 10:21:27.00	343.82	39.39	-31.7	-35.2	11.8	2.59e-04	0	44	0	907018240	24	5353
2026-01-19 10:21:28.00	343.80	39.13	-32.3	-37.1	10.4	2.14e-03	0	44	0	909115392	24	6244
2026-01-19 10:21:29.00	343.77	38.88	-32.5	-37.7	10.0	5.26e-03	0	44	0	911212544	24	6548
2026-01-19 10:21:29.99	343.74	38.63	-32.9	-38.6	8.9	1.55e-02	0	44	0	913309696	25	6995
2026-01-19 10:21:31.00	343.72	38.37	-33.0	-38.8	8.4	4.25e-02	0	44	0	914358272	26	6991
2026-01-19 10:21:32.00	343.69	38.13	-33.1	-39.1	8.1	5.62e-02	0	44	0	916455424	26	7178
2026-01-19 10:21:33.00	343.67	37.88	-33.0	-38.6	8.5	4.86e-02	0	44	0	918552576	26	6895
2026-01-19 10:21:34.01	343.65	37.63	-32.9	-38.2	8.8	3.29e-02	0	44	0	920649728	26	6668
2026-01-19 10:21:35.01	343.62	37.39	-32.7	-37.4	9.5	1.71e-02	0	44	0	922746880	26	6175
2026-01-19 10:21:36.01	343.60	37.15	-32.5	-36.7	10.0	1.04e-02	0	44	0	923795456	26	5860
2026-01-19 10:21:37.01	343.58	36.91	-32.5	-36.7	10.0	7.85e-03	0	44	0	925892608	26	5846
2026-01-19 10:21:38.02	343.55	36.67	-32.6	-37.0	9.8	8.92e-03	0	44	0	927989760	26	5978
2026-01-19 10:21:39.01	343.53	36.43	-32.3	-36.1	10.4	6.65e-03	0	44	0	930086912	26	5561
2026-01-19 10:21:40.02	343.51	36.20	-32.2	-36.2	10.7	3.88e-03	0	44	0	932184064	25	5718
2026-01-19 10:21:41.02	343.49	35.97	-32.1	-36.0	10.9	2.28e-03	0	44	0	933232640	25	5600
2026-01-19 10:21:42.03	343.47	35.73	-32.3	-36.4	10.6	2.71e-03	0	44	0	935329792	25	5786
2026-01-19 10:21:43.03	343.45	35.50	-32.4	-36.7	10.4	4.09e-03	0	44	0	937426944	25	5937
2026-01-19 10:21:44.03	343.43	35.28	-32.6	-37.5	9.7	6.56e-03	0	44	0	939524096	25	6331
2026-01-19 10:21:45.03	343.41	35.05	-32.7	-37.8	9.5	1.32e-02	0	44	0	941621248	25	6517
2026-01-19 10:21:46.04	343.39	34.82	-33.0	-38.8	8.4	3.15e-02	0	44	0	942669824	26	7025
2026-01-19 10:21:47.04	343.37	34.60	-33.1	-39.3	8.0	5.95e-02	0	44	0	944766976	26	7313
2026-01-19 10:21:48.05	343.35	34.38	-33.2	-39.5	7.8	8.13e-02	0	44	0	946864128	26	7446
2026-01-19 10:21:49.05	343.33	34.16	-33.3	-40.4	7.1	1.16e-01	0	44	0	948961280	26	8113
2026-01-19 10:21:50.05	343.31	33.94	-33.3	-40.3	7.1	1.49e-01	0	44	0	951058432	26	8021
2026-01-19 10:21:51.06	343.29	33.72	-33.4	-40.6	6.9	1.57e-01	0	44	0	952107008	26	8309
2026-01-19 10:21:52.06	343.28	33.51	-33.4	-40.6	7.0	1.65e-01	0	44	0	954204160	26	8269
2026-01-19 10:21:53.06	343.26	33.29	-33.4	-40.5	7.0	1.56e-01	0	44	0	956301312	26	8162
2026-01-19 10:21:54.07	343.24	33.08	-33.4	-40.6	7.0	1.49e-01	0	44	0	958398464	26	8248
2026-01-19 10:21:55.08	343.23	32.87	-33.3	-40.4	7.1	1.57e-01	0	44	0	959447040	26	8089
2026-01-19 10:21:56.08	343.21	32.66	-33.1	-39.3	7.9	9.92e-02	0	44	0	961544192	26	7322
2026-01-19 10:21:57.08	343.19	32.45	-32.8	-37.9	9.0	4.33e-02	0	44	0	963641344	26	6471
2026-01-19 10:21:58.08	343.18	32.24	-32.6	-37.0	9.7	1.32e-02	0	44	0	965738496	26	5992
2026-01-19 10:21:59.09	343.16	32.04	-32.4	-36.5	10.1	7.96e-03	0	44	0	967835648	26	5731
2026-01-19 10:22:00.09	343.14	31.83	-32.3	-36.1	10.4	4.74e-03	0	44	0	968884224	26	5555
2026-01-19 10:22:01.09	343.13	31.63	-32.3	-36.1	10.4	4.53e-03	0	44	0	970981376	26	5584
2026-01-19 10:22:02.09	343.11	31.43	-32.2	-36.4	10.5	4.04e-03	0	44	0	973078528	25	5819
2026-01-19 10:22:03.09	343.10	31.23	-32.2	-36.2	10.6	3.45e-03	0	44	0	975175680	25	5717
2026-01-19 10:22:04.09	343.08	31.03	-32.2	-36.3	10.6	3.22e-03	0	44	0	977272832	25	5775
2026-01-19 10:22:05.10	343.07	30.84	-32.3	-36.5	10.4	4.51e-03	0	44	0	978321408	25	5879
2026-01-19 10:22:06.10	343.06	30.64	-32.5	-37.3	9.8	7.24e-03	0	44	0	980418560	25	6249
2026-01-19 10:22:07.10	343.04	30.45	-32.6	-37.7	9.6	1.04e-02	0	44	0	982515712	25	6458
2026-01-19 10:22:08.10	343.03	30.25	-32.7	-38.3	9.0	2.17e-02	0	44	0	984612864	25	6797
2026-01-19 10:22:09.10	343.01	30.06	-32.7	-38.2	9.0	2.44e-02	0	44	0	986710016	25	6790
2026-01-19 10:22:10.11	343.00	29.87	-32.8	-38.7	8.6	3.05e-02	0	44	0	987758592	25	7085
2026-01-19 10:22:11.11	342.99	29.68	-32.7	-38.1	9.1	3.16e-02	0	44	0	989855744	25	6726
2026-01-19 10:22:12.12	342.98	29.49	-32.6	-37.8	9.4	1.85e-02	0	44	0	991952896	25	6535
2026-01-19 10:22:13.12	342.96	29.31	-32.5	-37.6	9.5	1.63e-02	0	44	0	994050048	25	6427
2026-01-19 10:22:14.13	342.95	29.12	-32.5	-37.5	9.6	1.28e-02	0	44	0	996147200	25	6400
2026-01-19 10:22:15.14	342.94	28.94	-32.5	-37.4	9.6	1.28e-02	0	44	0	997195776	25	6350
2026-01-19 10:22:16.14	342.93	28.75	-32.5	-37.6	9.5	1.42e-02	0	44	0	999292928	25	6456
2026-01-19 10:22:17.14	342.91	28.57	-32.4	-37.1	9.9	1.16e-02	0	44	0	1001390080	25	6162
2026-01-19 10:22:18.14	342.90	28.39	-32.2	-36.4	10.5	6.78e-03	0	44	0	1003487232	25	5820
2026-01-19 10:22:19.14	342.89	28.21	-32.1	-36.0	10.7	3.33e-03	0	44	0	1004535808	25	5639
2026-01-19 10:22:20.14	342.88	28.03	-32.0	-35.8	10.8	2.76e-03	0	44	0	1006632960	25	5542
2026-01-19 10:22:21.14	342.87	27.86	-31.7	-35.4	11.5	1.50e-03	0	44	0	1008730112	24	5468
2026-01-19 10:22:22.15	342.86	27.68	-31.6	-34.9	11.9	5.16e-04	0	44	0	1010827264	24	5255
2026-01-19 10:22:23.15	342.84	27.51	-31.5	-34.5	12.1	2.53e-04	0	44	0	1012924416	24	5100
2026-01-19 10:22:24.15	342.83	27.33	-31.6	-35.0	11.8	3.88e-04	0	44	0	1015021568	24	5287
2026-01-19 10:22:25.16	342.82	27.16	-31.2	-34.2	12.6	1.37e-04	0	44	0	1016070144	23	5110
2026-01-19 10:22:26.16	342.81	26.99	-31.0	-33.5	13.1	5.11e-05	0	44	0	1018167296	23	4850
2026-01-19 10:22:27.17	342.80	26.82	-30.7	-33.4	13.5	1.44e-05	0	44	0	1020264448	22	4889
2026-01-19 10:22:28.17	342.79	26.65	-30.6	-33.1	13.7	9.10e-06	0	44	0	1022361600	22	4796
2026-01-19 10:22:29.18	342.78	26.48	-30.7	-33.2	13.6	3.00e-06	0	44	0	1023410176	22	4842
2026-01-19 10:22:30.18	342.77	26.31	-30.7	-33.3	13.6	6.10e-06	0	44	0	1025507328	22	4859
2026-01-19 10:22:31.19	342.76	26.14	-30.7	-33.3	13.6	9.10e-06	0	44	0	1027604480	22	4855
2026-01-19 10:22:32.20	342.75	25.98	-30.7	-33.5	13.4	1.75e-05	0	44	0	1029701632	22	4937
2026-01-19 10:22:33.19	342.74	25.81	-30.6	-33.2	13.6	7.60e-06	0	44	0	1031798784	22	4844
2026-01-19 10:22:34.20	342.73	25.65	-30.7	-33.3	13.5	9.10e-06	0	44	0	1032847360	22	4868
2026-01-19 10:22:35.19	342.72	25.49	-30.7	-33.5	13.4	1.22e-05	0	44	0	1034944512	22	4936
2026-01-19 10:22:36.18	342.72	25.33	-30.9	-33.9	13.1	1.90e-05	0	44	0	1037041664	22	5082
2026-01-19 10:22:37.18	342.71	25.17	-30.7	-33.5	13.4	1.67e-05	0	44	0	1039138816	22	4942
2026-01-19 10:22:38.18	342.70	25.01	-30.8	-33.8	13.2	1.37e-05	0	44	0	1041235968	22	5042
2026-01-19 10:22:39.18	342.69	24.85	-30.6	-33.2	13.5	1.29e-05	0	44	0	1042284544	22	4846
2026-01-19 10:22:40.18	342.68	24.70	-30.6	-33.2	13.6	6.80e-06	0	44	0	1044381696	22	4843
2026-01-19 10:22:41.18	342.67	24.54	-30.7	-33.3	13.5	1.29e-05	0	44	0	1046478848	22	4870
2026-01-19 10:22:42.19	342.66	24.38	-30.6	-33.1	13.6	7.60e-06	0	44	0	1048576000	22	4806
2026-01-19 10:22:43.20	342.66	24.23	-30.6	-33.2	13.6	5.30e-06	0	44	0	1049624576	22	4846
2026-01-19 10:22:44.20	342.65	24.07	-30.7	-33.3	13.5	9.10e-06	0	44	0	1051721728	22	4881
2026-01-19 10:22:45.20	342.64	23.92	-30.6	-33.2	13.6	1.14e-05	0	44	0	1053818880	22	4825
2026-01-19 10:22:46.20	342.63	23.77	-30.7	-33.6	13.3	1.90e-05	0	44	0	1055916032	22	4973
2026-01-19 10:22:47.21	342.62	23.62	-30.5	-32.8	13.8	9.10e-06	0	44	0	1058013184	22	4694
2026-01-19 10:22:48.21	342.62	23.47	-30.3	-32.3	14.1	3.00e-06	0	44	0	1060110336	22	4547
2026-01-19 10:22:49.21	342.61	23.32	-30.1	-32.4	14.3	2.20e-06	0	44	0	1061158912	21	4685
2026-01-19 10:22:50.21	342.60	23.17	-30.1	-32.4	14.3	7.00e-07	0	44	0	1063256064	21	4687
2026-01-19 10:22:51.22	342.59	23.02	-30.3	-32.7	14.1	7.00e-07	0	44	0	1065353216	21	4788
2026-01-19 10:22:52.22	342.59	22.88	-30.0	-32.0	14.6	7.00e-07	0	44	0	1067450368	21	4527
2026-01-19 10:22:53.23	342.58	22.73	-29.9	-31.7	14.8	0.00e+00	0	44	0	1068498944	21	4446
2026-01-19 10:22:54.24	342.57	22.58	-29.8	-31.7	14.8	0.00e+00	0	44	0	1070596096	21	4431
2026-01-19 10:22:55.24	342.57	22.44	-29.9	-31.9	14.7	0.00e+00	0	44	0	1072693248	21	4512
2026-01-19 10:22:56.25	342.56	22.29	-29.9	-31.7	14.8	7.00e-07	0	44	0	1074790400	21	4454
2026-01-19 10:22:57.25	342.55	22.15	-29.8	-31.6	14.8	0.00e+00	0	44	0	1076887552	21	4420
2026-01-19 10:22:58.25	342.55	22.01	-29.9	-31.8	14.7	0.00e+00	0	44	0	1077936128	21	4479
2026-01-19 10:22:59.24	342.54	21.87	-29.9	-31.8	14.7	1.50e-06	0	44	0	1080033280	21	4467
2026-01-19 10:23:00.25	342.53	21.73	-30.0	-32.0	14.6	7.00e-07	0	44	0	1082130432	21	4545
2026-01-19 10:23:01.26	342.53	21.59	-29.9	-31.9	14.6	0.00e+00	0	44	0	1084227584	21	4530
2026-01-19 10:23:02.26	342.52	21.45	-30.0	-32.1	14.5	7.00e-07	0	44	0	1086324736	21	4576
2026-01-19 10:23:03.27	342.51	21.31	-30.0	-32.2	14.4	0.00e+00	0	44	0	1087373312	21	4615
2026-01-19 10:23:04.27	342.51	21.18	-30.0	-32.2	14.4	0.00e+00	0	44	0	1089470464	21	4602
2026-01-19 10:23:05.28	342.50	21.04	-30.0	-32.2	14.4	0.00e+00	0	44	0	1091567616	21	4618
2026-01-19 10:23:06.28	342.50	20.90	-30.1	-32.5	14.2	2.20e-06	0	44	0	1093664768	21	4707
2026-01-19 10:23:07.27	342.49	20.77	-30.2	-32.6	14.1	7.00e-07	0	44	0	1095761920	21	4748
2026-01-19 10:23:08.28	342.49	20.63	-30.1	-32.4	14.2	0.00e+00	0	44	0	1096810496	21	4699
2026-01-19 10:23:09.28	342.48	20.50	-30.1	-32.4	14.2	7.00e-07	0	44	0	1098907648	21	4675
2026-01-19 10:23:10.29	342.47	20.37	-30.2	-32.6	14.1	2.20e-06	0	44	0	1101004800	21	4756
2026-01-19 10:23:11.29	342.47	20.23	-30.2	-32.5	14.1	1.50e-06	0	44	0	1103101952	21	4735
2026-01-19 10:23:12.29	342.46	20.10	-30.2	-32.7	14.0	2.20e-06	0	44	0	1105199104	21	4772
2026-01-19 10:23:13.30	342.46	19.97	-30.3	-32.9	13.9	2.20e-06	0	44	0	1106247680	21	4865
2026-01-19 10:23:14.31	342.45	19.84	-30.3	-32.8	13.9	3.80e-06	0	44	0	1108344832	21	4828
2026-01-19 10:23:15.31	342.45	19.71	-30.3	-33.0	13.8	3.80e-06	0	44	0	1110441984	21	4893
2026-01-19 10:23:16.31	342.44	19.58	-30.3	-33.0	13.8	9.90e-06	0	44	0	1112539136	21	4885
2026-01-19 10:23:17.32	342.44	19.45	-30.3	-33.0	13.8	3.00e-06	0	44	0	1114636288	21	4894
2026-01-19 10:23:18.32	342.43	19.33	-30.5	-33.4	13.6	9.90e-06	0	44	0	1115684864	21	5048
2026-01-19 10:23:19.33	342.43	19.20	-30.4	-33.2	13.7	5.30e-06	0	44	0	1117782016	21	4973
2026-01-19 10:23:20.33	342.42	19.07	-30.5	-33.6	13.4	8.30e-06	0	44	0	1119879168	21	5103
2026-01-19 10:23:21.33	342.42	18.95	-30.6	-33.7	13.3	1.67e-05	0	44	0	1121976320	21	5150
2026-01-19 10:23:22.33	342.41	18.82	-30.4	-33.3	13.6	1.14e-05	0	44	0	1124073472	21	5012
2026-01-19 10:23:23.33	342.41	18.70	-30.4	-33.4	13.6	9.90e-06	0	44	0	1125122048	21	5030
2026-01-19 10:23:24.34	342.41	18.58	-30.4	-33.2	13.7	9.10e-06	0	44	0	1127219200	21	4951
2026-01-19 10:23:25.34	342.40	18.45	-30.4	-33.2	13.6	6.10e-06	0	44	0	1129316352	21	4967
2026-01-19 10:23:26.34	342.40	18.33	-30.5	-33.5	13.5	1.14e-05	0	44	0	1131413504	21	5069
2026-01-19 10:23:27.34	342.39	18.21	-30.4	-33.2	13.6	3.80e-06	0	44	0	1132462080	21	4988
2026-01-19 10:23:28.35	342.39	18.09	-30.5	-33.4	13.5	9.90e-06	0	44	0	1134559232	21	5058
2026-01-19 10:23:29.35	342.38	17.97	-30.5	-33.4	13.5	1.37e-05	0	44	0	1136656384	21	5042
2026-01-19 10:23:30.35	342.38	17.85	-30.4	-33.3	13.5	7.60e-06	0	44	0	1138753536	21	5032
2026-01-19 10:23:31.35	342.38	17.73	-30.5	-33.5	13.4	7.60e-06	0	44	0	1140850688	21	5070
2026-01-19 10:23:32.36	342.37	17.61	-30.5	-33.5	13.4	1.14e-05	0	44	0	1141899264	21	5081
2026-01-19 10:23:33.35	342.37	17.49	-30.5	-33.6	13.3	1.67e-05	0	44	0	1143996416	21	5115
2026-01-19 10:23:34.35	342.36	17.38	-30.5	-33.6	13.3	1.14e-05	0	44	0	1146093568	21	5114
2026-01-19 10:23:35.36	342.36	17.26	-30.6	-33.8	13.2	2.82e-05	0	44	0	1148190720	21	5186
2026-01-19 10:23:36.36	342.36	17.14	-30.6	-33.8	13.2	2.89e-05	0	44	0	1150287872	21	5187
2026-01-19 10:23:37.37	342.35	17.02	-30.7	-34.1	13.0	3.66e-05	0	44	0	1151336448	21	5316
2026-01-19 10:23:38.37	342.35	16.91	-30.9	-34.6	12.6	6.17e-05	0	44	0	1153433600	21	5530
2026-01-19 10:23:39.37	342.35	16.79	-30.8	-34.4	12.7	8.85e-05	0	44	0	1155530752	21	5462
2026-01-19 10:23:40.37	342.34	16.68	-30.9	-34.7	12.5	1.01e-04	0	44	0	1157627904	21	5583
2026-01-19 10:23:41.37	342.34	16.57	-31.0	-34.9	12.4	1.46e-04	0	44	0	1159725056	21	5653
2026-01-19 10:23:42.38	342.34	16.45	-31.0	-34.9	12.4	1.06e-04	0	44	0	1160773632	21	5644
2026-01-19 10:23:43.38	342.33	16.34	-31.0	-34.9	12.3	1.62e-04	0	44	0	1162870784	21	5661
2026-01-19 10:23:44.39	342.33	16.23	-31.0	-34.5	12.3	1.62e-04	0	44	0	1164967936	22	5388
2026-01-19 10:23:45.39	342.33	16.12	-31.3	-35.3	11.8	3.31e-04	0	44	0	1167065088	22	5725
2026-01-19 10:23:46.39	342.32	16.00	-31.4	-35.6	11.5	7.62e-04	0	44	0	1169162240	22	5862
2026-01-19 10:23:47.40	342.32	15.89	-31.1	-34.8	12.0	3.12e-04	0	44	0	1170210816	22	5533
2026-01-19 10:23:48.40	342.32	15.78	-30.9	-34.2	12.5	1.77e-04	0	44	0	1172307968	22	5277
2026-01-19 10:23:49.41	342.31	15.67	-30.8	-34.0	12.6	1.28e-04	0	44	0	1174405120	22	5200
2026-01-19 10:23:50.41	342.31	15.56	-30.8	-33.8	12.8	8.92e-05	0	44	0	1176502272	22	5108
2026-01-19 10:23:51.41	342.31	15.46	-30.8	-33.9	12.7	8.31e-05	0	44	0	1178599424	22	5132
2026-01-19 10:23:52.42	342.31	15.35	-30.8	-33.8	12.8	9.15e-05	0	44	0	1179648000	22	5099
2026-01-19 10:23:53.42	342.30	15.24	-30.9	-34.1	12.5	9.30e-05	0	44	0	1181745152	22	5242
2026-01-19 10:23:54.42	342.30	15.13	-30.9	-34.3	12.4	1.51e-04	0	44	0	1183842304	22	5297
2026-01-19 10:23:55.42	342.30	15.03	-30.8	-33.9	12.6	1.21e-04	0	44	0	1185939456	22	5171
2026-01-19 10:23:56.42	342.30	14.92	-30.7	-33.8	12.7	7.40e-05	0	44	0	1186988032	22	5100
2026-01-19 10:23:57.42	342.29	14.81	-30.7	-33.7	12.8	5.34e-05	0	44	0	1189085184	22	5069
2026-01-19 10:23:58.42	342.29	14.71	-30.7	-33.7	12.7	6.17e-05	0	44	0	1191182336	22	5087
2026-01-19 10:23:59.42	342.29	14.60	-30.8	-33.9	12.6	1.01e-04	0	44	0	1193279488	22	5147
2026-01-19 10:24:00.42	342.29	14.50	-30.7	-33.7	12.7	7.47e-05	0	44	0	1195376640	22	5085
2026-01-19 10:24:01.42	342.28	14.40	-30.8	-33.9	12.6	9.38e-05	0	44	0	1196425216	22	5141
2026-01-19 10:24:02.42	342.28	14.29	-30.7	-33.8	12.7	5.95e-05	0	44	0	1198522368	22	5103
2026-01-19 10:24:03.42	342.28	14.19	-30.8	-33.9	12.6	7.17e-05	0	44	0	1200619520	22	5150
2026-01-19 10:24:04.43	342.28	14.09	-30.7	-33.8	12.7	7.62e-05	0	44	0	1202716672	22	5135
2026-01-19 10:24:05.43	342.27	13.98	-30.8	-34.0	12.5	1.17e-04	0	44	0	1204813824	22	5191
2026-01-19 10:24:06.43	342.27	13.88	-30.8	-34.1	12.5	1.39e-04	0	44	0	1205862400	22	5228
2026-01-19 10:24:07.43	342.27	13.78	-30.9	-34.3	12.3	1.41e-04	0	44	0	1207959552	22	5323
2026-01-19 10:24:08.44	342.27	13.68	-30.9	-34.3	12.3	1.52e-04	0	44	0	1210056704	22	5335
2026-01-19 10:24:09.44	342.27	13.58	-30.9	-34.4	12.2	2.08e-04	0	44	0	1212153856	22	5377
2026-01-19 10:24:10.44	342.26	13.48	-31.0	-34.5	12.1	2.08e-04	0	44	0	1214251008	22	5404
2026-01-19 10:24:11.45	342.26	13.38	-31.0	-34.6	12.1	2.81e-04	0	44	0	1215299584	22	5443
2026-01-19 10:24:12.45	342.26	13.28	-31.0	-34.5	12.1	2.28e-04	0	44	0	1217396736	22	5433
2026-01-19 10:24:13.45	342.26	13.18	-31.0	-34.5	12.0	3.04e-04	0	44	0	1219493888	22	5437
2026-01-19 10:24:14.46	342.26	13.08	-31.0	-34.7	11.9	3.50e-04	0	44	0	1221591040	22	5503
2026-01-19 10:24:15.45	342.25	12.98	-31.0	-34.7	11.9	3.79e-04	0	44	0	1223688192	22	5524
2026-01-19 10:24:16.46	342.25	12.89	-31.0	-34.8	11.9	3.01e-04	0	44	0	1224736768	22	5532
2026-01-19 10:24:17.46	342.25	12.79	-31.1	-34.9	11.8	5.81e-04	0	44	0	1226833920	22	5598
2026-01-19 10:24:18.46	342.25	12.69	-31.0	-34.7	11.9	4.07e-04	0	44	0	1228931072	22	5509
2026-01-19 10:24:19.47	342.25	12.60	-31.1	-34.9	11.8	5.21e-04	0	44	0	1231028224	22	5578
2026-01-19 10:24:20.47	342.25	12.50	-31.0	-34.7	11.9	4.48e-04	0	44	0	1232076800	22	5509
2026-01-19 10:24:21.46	342.24	12.40	-31.1	-34.9	11.8	4.45e-04	0	44	0	1234173952	22	5581
2026-01-19 10:24:22.47	342.24	12.31	-31.1	-34.9	11.8	5.34e-04	0	44	0	1236271104	22	5593
2026-01-19 10:24:23.48	342.24	12.21	-31.1	-34.9	11.7	5.99e-04	0	44	0	1238368256	22	5615
2026-01-19 10:24:24.49	342.24	12.12	-31.1	-35.0	11.7	7.00e-04	0	44	0	1240465408	22	5654
2026-01-19 10:24:25.49	342.24	12.02	-31.1	-35.1	11.6	7.56e-04	0	44	0	1241513984	22	5689
2026-01-19 10:24:26.49	342.24	11.93	-31.2	-35.2	11.5	8.85e-04	0	44	0	1243611136	22	5738
2026-01-19 10:24:27.50	342.24	11.83	-31.1	-35.1	11.5	7.66e-04	0	44	0	1245708288	22	5708
2026-01-19 10:24:28.50	342.24	11.74	-31.2	-35.4	11.4	8.67e-04	0	44	0	1247805440	22	5808
2026-01-19 10:24:29.50	342.23	11.65	-31.2	-35.5	11.3	1.51e-03	0	44	0	1249902592	22	5873
2026-01-19 10:24:30.50	342.23	11.56	-31.2	-35.3	11.4	1.12e-03	0	44	0	1250951168	22	5767
2026-01-19 10:24:31.50	342.23	11.46	-31.1	-35.2	11.5	7.49e-04	0	44	0	1253048320	22	5735
2026-01-19 10:24:32.49	342.23	11.37	-31.1	-35.1	11.5	8.75e-04	0	44	0	1255145472	22	5693
2026-01-19 10:24:33.49	342.23	11.28	-31.1	-35.2	11.5	8.64e-04	0	44	0	1257242624	22	5728
2026-01-19 10:24:34.50	342.23	11.19	-31.1	-35.1	11.5	8.15e-04	0	44	0	1259339776	22	5711
2026-01-19 10:24:35.50	342.23	11.10	-31.1	-35.1	11.5	9.00e-04	0	44	0	1260388352	22	5682
2026-01-19 10:24:36.50	342.23	11.01	-31.1	-35.1	11.5	8.43e-04	0	44	0	1262485504	22	5704
2026-01-19 10:24:37.50	342.23	10.92	-31.2	-35.3	11.3	1.04e-03	0	44	0	1264582656	22	5783
2026-01-19 10:24:38.51	342.22	10.83	-31.2	-35.5	11.2	1.21e-03	0	44	0	1266679808	22	5873
2026-01-19 10:24:39.51	342.22	10.74	-31.2	-35.3	11.3	1.36e-03	0	44	0	1268776960	22	5791
2026-01-19 10:24:40.52	342.22	10.65	-31.2	-35.3	11.3	1.00e-03	0	44	0	1269825536	22	5804
2026-01-19 10:24:41.52	342.22	10.56	-31.2	-35.5	11.1	1.53e-03	0	44	0	1271922688	22	5890
2026-01-19 10:24:42.52	342.22	10.47	-31.2	-35.5	11.2	1.10e-03	0	44	0	1274019840	22	5889
2026-01-19 10:24:43.53	342.22	10.38	-31.1	-35.3	11.3	1.23e-03	0	44	0	1276116992	22	5790
2026-01-19 10:24:44.53	342.22	10.30	-31.2	-35.4	11.2	1.64e-03	0	44	0	1277165568	22	5827
2026-01-19 10:24:45.53	342.22	10.21	-31.2	-35.5	11.1	1.16e-03	0	44	0	1279262720	22	5879
2026-01-19 10:24:46.53	342.22	10.12	-31.2	-35.6	11.1	1.85e-03	0	44	0	1281359872	22	5946
