passes_logs/2026/01/19/R2M6_AANII_01/R2M6_AANII_01__20260119_074554_NOAA_21_JPSS-2_rec.log

#Pass ID: 20260119_074554_NOAA 21 (JPSS-2)
#Satellite: NOAA 21 (JPSS-2)
#Configuration: NOAA 21
#almurnet v.1.7.20240730
#Start time: 2026-01-19 07:45:53

#Version: 2.2.20231116
#Station: R2M6_AANII_01
#Location: 30.233357 lon 59.946436 lat
#TLE: 1 54234U 22150A   26017.90260625  .00000050  00000+0  44518-4 0  9994
#TLE: 2 54234  98.7502 318.7672 0000612 269.1755  90.9351 14.19535344165221

#Time	Az	El	Level	Level2	SNR	BER	BlckErr	Temp	State	Recorded	gain1	gain2
2026-01-19 07:45:53.89	80.71	6.97	-32.8	-40.6	3.9	1.48e+00	0	41	0	0	27	8874
2026-01-19 07:45:54.89	80.59	7.02	-31.4	-35.9	4.6	1.41e+00	0	41	104	0	24	6045
2026-01-19 07:45:55.89	80.48	7.08	-31.2	-35.1	8.5	5.13e-02	0	41	0	0	23	5621
2026-01-19 07:45:56.90	80.36	7.13	-31.2	-35.0	8.6	4.36e-02	0	41	0	3145728	23	5589
2026-01-19 07:45:57.90	80.24	7.19	-31.2	-35.0	8.6	4.29e-02	0	41	0	6291456	23	5563
2026-01-19 07:45:58.90	80.12	7.24	-31.1	-34.6	8.9	2.66e-02	0	41	0	9437184	23	5383
2026-01-19 07:45:59.90	80.01	7.29	-31.1	-34.6	8.9	3.60e-02	0	41	0	12582912	23	5389
2026-01-19 07:46:00.89	79.89	7.35	-31.1	-34.7	8.9	2.68e-02	0	41	0	15728640	23	5433
2026-01-19 07:46:01.89	79.77	7.40	-31.4	-35.7	8.1	5.19e-02	0	41	0	18874368	23	5904
2026-01-19 07:46:02.90	79.65	7.46	-31.0	-34.4	9.1	3.05e-02	0	41	0	22020096	23	5310
2026-01-19 07:46:03.90	79.53	7.51	-30.7	-33.9	9.8	1.26e-02	0	41	0	24117248	22	5199
2026-01-19 07:46:04.90	79.41	7.56	-30.4	-32.9	10.5	4.33e-03	0	41	0	27262976	22	4813
2026-01-19 07:46:05.91	79.29	7.62	-30.0	-32.4	11.1	2.65e-03	0	41	0	30408704	21	4731
2026-01-19 07:46:06.91	79.17	7.67	-29.7	-32.1	11.7	7.78e-04	0	41	0	33554432	20	4752
2026-01-19 07:46:07.91	79.05	7.73	-29.4	-31.3	12.2	2.39e-04	0	41	0	36700160	20	4465
2026-01-19 07:46:08.91	78.92	7.78	-29.3	-31.0	12.4	1.83e-04	0	41	0	39845888	20	4364
2026-01-19 07:46:09.91	78.80	7.84	-29.3	-31.5	12.5	1.37e-04	0	42	0	42991616	19	4631
2026-01-19 07:46:10.91	78.68	7.89	-29.4	-31.8	12.4	1.51e-04	0	41	0	46137344	19	4720
2026-01-19 07:46:11.92	78.55	7.94	-29.4	-31.7	12.4	1.13e-04	0	42	0	49283072	19	4682
2026-01-19 07:46:12.92	78.43	8.00	-29.6	-32.3	12.1	2.25e-04	0	42	0	52428800	19	4891
2026-01-19 07:46:13.92	78.31	8.05	-29.5	-32.0	12.2	2.66e-04	0	42	0	55574528	19	4785
2026-01-19 07:46:14.93	78.18	8.11	-29.3	-31.5	12.5	1.05e-04	0	42	0	58720256	19	4632
2026-01-19 07:46:15.93	78.05	8.16	-29.2	-31.1	12.8	9.46e-05	0	42	0	61865984	19	4518
2026-01-19 07:46:16.93	77.93	8.21	-29.3	-31.6	12.5	8.46e-05	0	42	0	65011712	19	4650
2026-01-19 07:46:17.93	77.80	8.27	-29.1	-31.0	12.9	6.48e-05	0	42	0	68157440	19	4476
2026-01-19 07:46:18.94	77.67	8.32	-29.2	-31.2	12.7	5.87e-05	0	42	0	71303168	19	4552
2026-01-19 07:46:19.95	77.55	8.38	-29.2	-31.2	12.8	5.26e-05	0	42	0	74448896	19	4530
2026-01-19 07:46:20.95	77.42	8.43	-29.1	-30.8	13.0	3.50e-05	0	42	0	77594624	19	4420
2026-01-19 07:46:21.96	77.29	8.48	-29.3	-31.3	12.7	8.01e-05	0	42	0	80740352	19	4567
2026-01-19 07:46:22.96	77.16	8.54	-29.1	-30.9	12.9	4.95e-05	0	42	0	83886080	19	4436
2026-01-19 07:46:23.96	77.03	8.59	-29.1	-30.9	13.0	4.65e-05	0	42	0	87031808	19	4441
2026-01-19 07:46:24.97	76.90	8.65	-29.0	-30.8	13.1	3.81e-05	0	42	0	90177536	19	4398
2026-01-19 07:46:25.97	76.77	8.70	-29.2	-31.1	12.9	5.03e-05	0	42	0	93323264	19	4499
2026-01-19 07:46:26.97	76.64	8.75	-29.1	-30.8	13.0	4.27e-05	0	42	0	96468992	19	4419
2026-01-19 07:46:27.98	76.51	8.81	-29.0	-30.8	13.1	3.05e-05	0	42	0	99614720	19	4407
2026-01-19 07:46:28.98	76.38	8.86	-29.2	-31.1	12.8	2.44e-05	0	42	0	102760448	19	4513
2026-01-19 07:46:29.98	76.24	8.91	-29.1	-31.0	13.0	5.18e-05	0	42	0	105906176	19	4463
2026-01-19 07:46:30.98	76.11	8.97	-29.1	-31.0	13.0	2.59e-05	0	42	0	109051904	19	4461
2026-01-19 07:46:31.98	75.98	9.02	-29.2	-31.1	12.9	3.28e-05	0	42	0	112197632	19	4485
2026-01-19 07:46:32.98	75.85	9.07	-29.3	-31.5	12.6	8.54e-05	0	42	0	115343360	19	4619
2026-01-19 07:46:33.99	75.71	9.13	-29.2	-31.1	12.9	4.19e-05	0	42	0	118489088	19	4498
2026-01-19 07:46:34.99	75.58	9.18	-29.0	-30.7	13.2	3.81e-05	0	42	0	121634816	19	4377
2026-01-19 07:46:36.00	75.44	9.24	-29.0	-30.7	13.2	1.75e-05	0	42	0	124780544	19	4355
2026-01-19 07:46:36.99	75.31	9.29	-28.9	-30.5	13.3	1.52e-05	0	42	0	127926272	19	4308
2026-01-19 07:46:37.99	75.17	9.34	-29.0	-30.7	13.1	2.67e-05	0	42	0	131072000	19	4380
2026-01-19 07:46:39.00	75.03	9.40	-28.9	-30.5	13.3	3.12e-05	0	42	0	134217728	19	4308
2026-01-19 07:46:40.01	74.89	9.45	-29.1	-30.9	13.1	4.42e-05	0	42	0	137363456	19	4417
2026-01-19 07:46:41.01	74.76	9.50	-29.1	-30.8	13.1	3.35e-05	0	42	0	140509184	19	4396
2026-01-19 07:46:42.01	74.62	9.56	-29.1	-30.9	13.1	3.20e-05	0	42	0	143654912	19	4415
2026-01-19 07:46:43.01	74.48	9.61	-29.0	-30.7	13.2	2.21e-05	0	42	0	146800640	19	4379
2026-01-19 07:46:44.01	74.34	9.66	-29.0	-30.7	13.2	2.28e-05	0	42	0	149946368	19	4358
2026-01-19 07:46:45.02	74.20	9.72	-29.1	-31.0	13.0	2.13e-05	0	42	0	153092096	19	4457
2026-01-19 07:46:46.02	74.06	9.77	-29.2	-31.0	13.0	3.35e-05	0	42	0	156237824	19	4465
2026-01-19 07:46:47.02	73.92	9.82	-29.3	-31.4	12.8	4.65e-05	0	42	0	159383552	19	4571
2026-01-19 07:46:48.02	73.78	9.87	-29.2	-31.2	12.9	5.79e-05	0	42	0	162529280	19	4523
2026-01-19 07:46:49.03	73.63	9.93	-29.4	-31.6	12.7	5.95e-05	0	42	0	165675008	19	4643
2026-01-19 07:46:50.03	73.49	9.98	-29.2	-31.3	12.9	5.49e-05	0	42	0	168820736	19	4538
2026-01-19 07:46:51.03	73.35	10.03	-29.3	-31.4	12.8	6.48e-05	0	43	0	171966464	19	4575
2026-01-19 07:46:52.03	73.21	10.08	-29.3	-31.5	12.7	6.79e-05	0	42	0	175112192	19	4619
2026-01-19 07:46:53.04	73.06	10.14	-29.4	-31.8	12.6	1.12e-04	0	42	0	178257920	19	4704
2026-01-19 07:46:54.04	72.92	10.19	-29.3	-31.5	12.8	7.47e-05	0	43	0	181403648	19	4603
2026-01-19 07:46:55.04	72.77	10.24	-29.3	-31.5	12.8	6.25e-05	0	42	0	184549376	19	4603
2026-01-19 07:46:56.04	72.63	10.30	-29.3	-31.4	12.8	6.63e-05	0	42	0	187695104	19	4576
2026-01-19 07:46:57.05	72.48	10.35	-29.2	-31.1	13.0	3.50e-05	0	42	0	190840832	19	4499
2026-01-19 07:46:58.05	72.33	10.40	-29.3	-31.4	12.8	5.64e-05	0	42	0	193986560	19	4577
2026-01-19 07:46:59.06	72.18	10.45	-29.3	-31.3	12.9	6.17e-05	0	43	0	197132288	19	4538
2026-01-19 07:47:00.06	72.04	10.50	-29.2	-31.2	13.0	5.34e-05	0	42	0	200278016	19	4514
2026-01-19 07:47:01.06	71.89	10.56	-29.3	-31.3	12.9	4.27e-05	0	43	0	203423744	19	4554
2026-01-19 07:47:02.07	71.74	10.61	-29.2	-31.2	13.0	3.58e-05	0	42	0	206569472	19	4523
2026-01-19 07:47:03.07	71.59	10.66	-29.3	-31.3	12.9	3.96e-05	0	43	0	209715200	19	4537
2026-01-19 07:47:04.07	71.44	10.71	-29.3	-31.4	12.9	4.57e-05	0	43	0	212860928	19	4584
2026-01-19 07:47:05.07	71.29	10.76	-29.3	-31.3	12.9	4.57e-05	0	43	0	216006656	19	4551
2026-01-19 07:47:06.08	71.14	10.82	-29.4	-31.5	12.8	4.50e-05	0	43	0	219152384	19	4605
2026-01-19 07:47:07.08	70.99	10.87	-29.5	-32.0	12.5	9.61e-05	0	42	0	222298112	19	4759
2026-01-19 07:47:08.08	70.83	10.92	-29.7	-32.4	12.3	1.52e-04	0	43	0	225443840	19	4908
2026-01-19 07:47:09.08	70.68	10.97	-29.5	-32.0	12.5	1.20e-04	0	43	0	228589568	19	4759
2026-01-19 07:47:10.08	70.53	11.02	-29.4	-31.5	12.8	5.87e-05	0	43	0	231735296	19	4620
2026-01-19 07:47:11.09	70.37	11.07	-29.4	-31.6	12.8	5.56e-05	0	43	0	234881024	19	4626
2026-01-19 07:47:12.09	70.22	11.12	-29.4	-31.6	12.7	5.11e-05	0	43	0	238026752	19	4653
2026-01-19 07:47:13.09	70.07	11.17	-29.5	-31.9	12.6	1.01e-04	0	43	0	241172480	19	4734
2026-01-19 07:47:14.10	69.91	11.23	-29.4	-31.6	12.8	5.79e-05	0	43	0	244318208	19	4632
2026-01-19 07:47:15.10	69.75	11.28	-29.4	-31.7	12.7	7.78e-05	0	43	0	247463936	19	4662
2026-01-19 07:47:16.11	69.60	11.33	-29.2	-31.2	13.0	4.42e-05	0	43	0	250609664	19	4505
2026-01-19 07:47:17.11	69.44	11.38	-29.0	-30.6	13.4	2.44e-05	0	43	0	253755392	19	4320
2026-01-19 07:47:18.11	69.28	11.43	-28.9	-30.4	13.5	8.30e-06	0	43	0	256901120	19	4267
2026-01-19 07:47:19.11	69.13	11.48	-28.9	-30.3	13.6	1.06e-05	0	43	0	260046848	19	4244
2026-01-19 07:47:20.12	68.97	11.53	-28.8	-30.1	13.7	4.50e-06	0	43	0	263192576	19	4194
2026-01-19 07:47:21.12	68.81	11.58	-28.8	-30.7	13.7	4.50e-06	0	43	0	266338304	18	4464
2026-01-19 07:47:22.13	68.65	11.63	-28.9	-30.8	13.6	6.80e-06	0	43	0	269484032	18	4505
2026-01-19 07:47:23.12	68.49	11.68	-28.8	-30.5	13.8	5.30e-06	0	43	0	272629760	18	4404
2026-01-19 07:47:24.13	68.33	11.73	-28.9	-30.8	13.6	4.50e-06	0	43	0	275775488	18	4489
2026-01-19 07:47:25.13	68.16	11.78	-29.0	-31.0	13.5	7.60e-06	0	43	0	277872640	18	4562
2026-01-19 07:47:26.13	68.00	11.83	-29.0	-31.2	13.4	1.52e-05	0	43	0	281018368	18	4617
2026-01-19 07:47:27.13	67.84	11.88	-29.1	-31.3	13.4	1.37e-05	0	43	0	284164096	18	4631
2026-01-19 07:47:28.14	67.68	11.93	-29.0	-31.1	13.4	1.06e-05	0	43	0	288358400	18	4585
2026-01-19 07:47:29.15	67.51	11.98	-29.2	-31.5	13.2	1.60e-05	0	43	0	291504128	18	4702
2026-01-19 07:47:30.15	67.35	12.03	-29.2	-31.6	13.2	3.20e-05	0	43	0	294649856	18	4729
2026-01-19 07:47:31.16	67.18	12.08	-29.0	-31.1	13.5	1.52e-05	0	43	0	297795584	18	4582
2026-01-19 07:47:32.16	67.02	12.12	-28.9	-30.8	13.7	4.50e-06	0	43	0	300941312	18	4479
2026-01-19 07:47:33.17	66.85	12.17	-28.9	-30.9	13.6	9.10e-06	0	43	0	303038464	18	4508
2026-01-19 07:47:34.17	66.68	12.22	-28.9	-30.9	13.7	4.50e-06	0	43	0	306184192	18	4509
2026-01-19 07:47:35.18	66.52	12.27	-29.1	-31.2	13.4	7.60e-06	0	43	0	309329920	18	4618
2026-01-19 07:47:36.18	66.35	12.32	-28.9	-30.8	13.7	8.30e-06	0	43	0	312475648	18	4474
2026-01-19 07:47:37.18	66.18	12.37	-28.9	-30.8	13.7	6.80e-06	0	43	0	315621376	18	4475
2026-01-19 07:47:38.19	66.01	12.41	-28.9	-30.9	13.7	8.30e-06	0	43	0	318767104	18	4503
2026-01-19 07:47:39.19	65.84	12.46	-29.0	-31.0	13.6	9.10e-06	0	43	0	322961408	18	4538
2026-01-19 07:47:40.19	65.67	12.51	-28.8	-30.6	13.8	1.50e-06	0	43	0	325058560	18	4425
2026-01-19 07:47:41.20	65.50	12.56	-28.9	-30.8	13.7	5.30e-06	0	43	0	328204288	18	4485
2026-01-19 07:47:42.19	65.33	12.60	-29.0	-31.1	13.6	8.30e-06	0	43	0	331350016	18	4579
2026-01-19 07:47:43.19	65.16	12.65	-28.9	-30.9	13.7	5.30e-06	0	43	0	334495744	18	4499
2026-01-19 07:47:44.20	64.99	12.70	-28.8	-30.6	13.9	7.00e-07	0	43	0	337641472	18	4411
2026-01-19 07:47:45.20	64.82	12.75	-28.9	-30.8	13.7	5.30e-06	0	43	0	340787200	18	4469
2026-01-19 07:47:46.21	64.64	12.79	-29.0	-31.0	13.7	4.50e-06	0	43	0	343932928	18	4529
2026-01-19 07:47:47.20	64.47	12.84	-28.8	-30.7	13.8	3.00e-06	0	43	0	347078656	18	4438
2026-01-19 07:47:48.21	64.29	12.89	-29.0	-31.0	13.6	6.80e-06	0	43	0	350224384	18	4537
2026-01-19 07:47:49.21	64.12	12.93	-28.9	-30.7	13.8	3.80e-06	0	43	0	353370112	18	4453
2026-01-19 07:47:50.22	63.94	12.98	-28.7	-30.3	14.0	3.00e-06	0	43	0	356515840	18	4348
2026-01-19 07:47:51.22	63.77	13.02	-28.8	-30.5	13.9	3.00e-06	0	43	0	359661568	18	4383
2026-01-19 07:47:52.23	63.59	13.07	-28.8	-30.6	13.9	1.50e-06	0	43	0	362807296	18	4413
2026-01-19 07:47:53.23	63.41	13.11	-28.8	-30.4	14.0	7.00e-07	0	43	0	365953024	18	4369
2026-01-19 07:47:54.24	63.24	13.16	-28.7	-30.3	14.1	1.50e-06	0	43	0	369098752	18	4325
2026-01-19 07:47:55.24	63.06	13.21	-28.7	-30.2	14.1	3.00e-06	0	43	0	372244480	18	4296
2026-01-19 07:47:56.24	62.88	13.25	-28.7	-30.2	14.1	0.00e+00	0	43	0	375390208	18	4305
2026-01-19 07:47:57.25	62.70	13.30	-28.8	-30.5	13.9	2.20e-06	0	43	0	378535936	18	4401
2026-01-19 07:47:58.25	62.52	13.34	-28.8	-30.5	14.0	7.00e-07	0	43	0	381681664	18	4377
2026-01-19 07:47:59.26	62.34	13.38	-28.8	-30.4	14.0	2.20e-06	0	43	0	384827392	18	4371
2026-01-19 07:48:00.25	62.16	13.43	-28.9	-30.7	13.8	3.00e-06	0	43	0	387973120	18	4450
2026-01-19 07:48:01.24	61.98	13.47	-28.9	-30.8	13.8	1.50e-06	0	43	0	391118848	18	4470
2026-01-19 07:48:02.24	61.80	13.51	-29.0	-31.1	13.7	9.10e-06	0	43	0	394264576	18	4564
2026-01-19 07:48:03.24	61.62	13.56	-28.9	-30.8	13.8	3.80e-06	0	43	0	397410304	18	4490
2026-01-19 07:48:04.25	61.43	13.60	-28.9	-30.9	13.8	3.80e-06	0	43	0	400556032	18	4498
2026-01-19 07:48:05.25	61.25	13.64	-29.0	-31.0	13.7	5.30e-06	0	43	0	403701760	18	4534
2026-01-19 07:48:06.26	61.07	13.69	-29.1	-31.2	13.6	1.22e-05	0	43	0	406847488	18	4614
2026-01-19 07:48:07.26	60.88	13.73	-28.9	-30.8	13.8	6.80e-06	0	43	0	409993216	18	4471
2026-01-19 07:48:08.26	60.70	13.77	-28.8	-30.7	13.9	4.50e-06	0	43	0	413138944	18	4432
2026-01-19 07:48:09.27	60.51	13.81	-29.0	-30.9	13.7	6.80e-06	0	43	0	416284672	18	4514
2026-01-19 07:48:10.27	60.32	13.86	-28.9	-30.8	13.9	4.50e-06	0	43	0	419430400	18	4465
2026-01-19 07:48:11.27	60.14	13.90	-28.9	-30.8	13.9	6.10e-06	0	43	0	422576128	18	4461
2026-01-19 07:48:12.27	59.95	13.94	-28.8	-30.6	14.0	1.50e-06	0	43	0	425721856	18	4413
2026-01-19 07:48:13.28	59.76	13.98	-28.8	-30.6	13.9	3.00e-06	0	43	0	428867584	18	4427
2026-01-19 07:48:14.29	59.57	14.02	-28.8	-30.5	14.0	0.00e+00	0	43	0	432013312	18	4396
2026-01-19 07:48:15.29	59.38	14.06	-28.8	-30.5	14.0	1.50e-06	0	43	0	435159040	18	4373
2026-01-19 07:48:16.29	59.20	14.10	-28.8	-30.6	13.9	3.80e-06	0	43	0	438304768	18	4422
2026-01-19 07:48:17.28	59.01	14.14	-28.8	-30.5	14.0	6.80e-06	0	43	0	441450496	18	4397
2026-01-19 07:48:18.29	58.82	14.18	-28.8	-30.5	14.1	7.00e-07	0	43	0	444596224	18	4368
2026-01-19 07:48:19.29	58.63	14.22	-28.7	-30.4	14.1	3.80e-06	0	43	0	447741952	18	4347
2026-01-19 07:48:20.30	58.43	14.26	-28.8	-30.5	14.0	2.20e-06	0	43	0	450887680	18	4386
2026-01-19 07:48:21.30	58.24	14.30	-28.7	-30.4	14.1	1.50e-06	0	43	0	454033408	18	4358
2026-01-19 07:48:22.30	58.05	14.34	-28.8	-30.5	14.0	3.80e-06	0	43	0	457179136	18	4391
2026-01-19 07:48:23.31	57.86	14.38	-28.8	-30.6	14.0	3.00e-06	0	43	0	460324864	18	4405
2026-01-19 07:48:24.31	57.66	14.42	-28.9	-30.8	13.9	3.00e-06	0	43	0	463470592	18	4468
2026-01-19 07:48:25.31	57.47	14.46	-28.9	-30.7	13.9	3.00e-06	0	43	0	466616320	18	4445
2026-01-19 07:48:26.31	57.28	14.49	-28.9	-30.8	13.9	5.30e-06	0	43	0	469762048	18	4460
2026-01-19 07:48:27.31	57.08	14.53	-28.9	-30.9	13.8	9.90e-06	0	43	0	472907776	18	4494
2026-01-19 07:48:28.31	56.89	14.57	-28.9	-30.9	13.8	5.30e-06	0	43	0	476053504	18	4493
2026-01-19 07:48:29.31	56.69	14.61	-28.8	-30.6	14.0	2.20e-06	0	43	0	479199232	18	4411
2026-01-19 07:48:30.31	56.50	14.64	-28.9	-30.7	14.0	3.80e-06	0	43	0	482344960	18	4424
2026-01-19 07:48:31.32	56.30	14.68	-28.8	-30.6	14.0	3.00e-06	0	43	0	485490688	18	4410
2026-01-19 07:48:32.31	56.10	14.72	-28.8	-30.4	14.1	1.50e-06	0	43	0	488636416	18	4349
2026-01-19 07:48:33.31	55.90	14.75	-28.8	-30.6	14.0	1.50e-06	0	43	0	491782144	18	4403
2026-01-19 07:48:34.32	55.70	14.79	-28.9	-30.7	13.9	5.30e-06	0	43	0	494927872	18	4449
2026-01-19 07:48:35.32	55.51	14.82	-28.8	-30.6	14.0	2.20e-06	0	43	0	498073600	18	4411
2026-01-19 07:48:36.33	55.31	14.86	-28.9	-30.8	13.8	7.00e-07	0	43	0	501219328	18	4485
2026-01-19 07:48:37.33	55.11	14.89	-28.9	-30.9	13.8	6.10e-06	0	43	0	504365056	18	4496
2026-01-19 07:48:38.33	54.91	14.93	-28.7	-30.3	14.2	7.00e-07	0	43	0	507510784	18	4335
2026-01-19 07:48:39.33	54.71	14.96	-28.6	-29.9	14.4	2.20e-06	0	43	0	510656512	18	4222
2026-01-19 07:48:40.33	54.51	14.99	-28.6	-29.9	14.4	7.00e-07	0	43	0	513802240	18	4225
2026-01-19 07:48:41.33	54.31	15.03	-28.6	-30.0	14.4	1.50e-06	0	43	0	516947968	18	4228
2026-01-19 07:48:42.34	54.10	15.06	-28.5	-29.9	14.4	7.00e-07	0	43	0	520093696	18	4198
2026-01-19 07:48:43.35	53.90	15.09	-28.6	-30.1	14.3	1.50e-06	0	43	0	523239424	18	4258
2026-01-19 07:48:44.36	53.69	15.13	-28.8	-30.4	14.2	7.00e-07	0	43	0	526385152	18	4349
2026-01-19 07:48:45.36	53.49	15.16	-28.7	-30.2	14.3	1.50e-06	0	43	0	529530880	18	4296
2026-01-19 07:48:46.36	53.29	15.19	-28.7	-30.3	14.2	4.50e-06	0	43	0	532676608	18	4329
2026-01-19 07:48:47.37	53.08	15.22	-28.7	-30.2	14.3	7.00e-07	0	43	0	535822336	18	4290
2026-01-19 07:48:48.37	52.88	15.25	-28.5	-29.9	14.5	1.50e-06	0	43	0	538968064	18	4195
2026-01-19 07:48:49.38	52.67	15.29	-28.5	-29.9	14.5	7.00e-07	0	43	0	542113792	18	4197
2026-01-19 07:48:50.38	52.47	15.32	-28.5	-29.8	14.5	1.50e-06	0	43	0	545259520	18	4172
2026-01-19 07:48:51.38	52.26	15.35	-28.6	-29.9	14.4	0.00e+00	0	43	0	548405248	18	4220
2026-01-19 07:48:52.39	52.05	15.38	-28.6	-30.0	14.4	1.50e-06	0	43	0	551550976	18	4244
2026-01-19 07:48:53.39	51.85	15.41	-28.5	-29.9	14.5	7.00e-07	0	43	0	554696704	18	4205
2026-01-19 07:48:54.39	51.64	15.44	-28.7	-30.2	14.3	7.00e-07	0	43	0	557842432	18	4281
2026-01-19 07:48:55.40	51.43	15.47	-28.7	-30.4	14.2	1.50e-06	0	43	0	560988160	18	4338
2026-01-19 07:48:56.40	51.22	15.49	-28.6	-30.0	14.4	0.00e+00	0	43	0	564133888	18	4227
2026-01-19 07:48:57.41	51.01	15.52	-28.6	-29.9	14.5	7.00e-07	0	43	0	567279616	18	4218
2026-01-19 07:48:58.42	50.80	15.55	-28.6	-30.1	14.3	7.00e-07	0	43	0	570425344	18	4269
2026-01-19 07:48:59.42	50.59	15.58	-28.6	-30.0	14.4	7.00e-07	0	43	0	573571072	18	4239
2026-01-19 07:49:00.43	50.38	15.61	-28.6	-30.1	14.4	7.00e-07	0	43	0	576716800	18	4273
2026-01-19 07:49:01.43	50.17	15.63	-28.7	-30.2	14.3	1.50e-06	0	43	0	578813952	18	4283
2026-01-19 07:49:02.44	49.96	15.66	-28.6	-29.9	14.4	3.00e-06	0	43	0	581959680	18	4216
2026-01-19 07:49:03.44	49.75	15.68	-28.5	-29.7	14.6	0.00e+00	0	43	0	586153984	18	4143
2026-01-19 07:49:04.44	49.54	15.71	-28.5	-29.7	14.6	0.00e+00	0	43	0	588251136	18	4141
2026-01-19 07:49:05.44	49.33	15.74	-28.5	-29.7	14.6	1.50e-06	0	43	0	592445440	18	4158
2026-01-19 07:49:06.45	49.12	15.76	-28.4	-29.5	14.7	1.50e-06	0	43	0	595591168	18	4096
2026-01-19 07:49:07.44	48.91	15.79	-28.4	-29.6	14.7	0.00e+00	0	43	0	598736896	18	4125
2026-01-19 07:49:08.45	48.69	15.81	-28.4	-29.5	14.7	0.00e+00	0	43	0	601882624	18	4089
2026-01-19 07:49:09.45	48.48	15.83	-28.3	-29.3	14.8	7.00e-07	0	43	0	603979776	18	4039
2026-01-19 07:49:10.45	48.27	15.86	-28.3	-29.4	14.8	7.00e-07	0	43	0	607125504	18	4073
2026-01-19 07:49:11.46	48.05	15.88	-28.3	-29.4	14.8	0.00e+00	0	43	0	610271232	18	4068
2026-01-19 07:49:12.47	47.84	15.90	-28.3	-29.4	14.8	0.00e+00	0	43	0	613416960	18	4076
2026-01-19 07:49:13.48	47.62	15.93	-28.3	-29.4	14.8	0.00e+00	0	43	0	616562688	18	4068
2026-01-19 07:49:14.47	47.41	15.95	-28.3	-29.4	14.8	0.00e+00	0	44	0	619708416	18	4066
2026-01-19 07:49:15.46	47.20	15.97	-28.4	-29.5	14.7	0.00e+00	0	43	0	622854144	18	4084
2026-01-19 07:49:16.46	46.98	15.99	-28.4	-29.5	14.7	7.00e-07	0	43	0	625999872	18	4103
2026-01-19 07:49:17.46	46.77	16.01	-28.3	-29.3	14.8	0.00e+00	0	44	0	629145600	18	4044
2026-01-19 07:49:18.46	46.55	16.03	-28.3	-29.8	14.8	7.00e-07	0	43	0	632291328	17	4278
2026-01-19 07:49:19.47	46.34	16.05	-28.4	-30.0	14.7	7.00e-07	0	43	0	635437056	17	4339
2026-01-19 07:49:20.47	46.12	16.07	-28.4	-29.9	14.7	7.00e-07	0	43	0	638582784	17	4325
2026-01-19 07:49:21.47	45.90	16.09	-28.4	-30.1	14.7	1.50e-06	0	43	0	641728512	17	4361
2026-01-19 07:49:22.48	45.69	16.11	-28.4	-30.0	14.7	7.00e-07	0	43	0	644874240	17	4343
2026-01-19 07:49:23.48	45.47	16.13	-28.4	-30.2	14.6	0.00e+00	0	43	0	648019968	17	4389
2026-01-19 07:49:24.49	45.25	16.15	-28.4	-30.0	14.7	0.00e+00	0	43	0	651165696	17	4341
2026-01-19 07:49:25.49	45.03	16.16	-28.5	-30.2	14.6	0.00e+00	0	43	0	654311424	17	4403
2026-01-19 07:49:26.50	44.81	16.18	-28.5	-30.3	14.5	0.00e+00	0	43	0	657457152	17	4430
2026-01-19 07:49:27.50	44.60	16.20	-28.4	-30.0	14.7	0.00e+00	0	43	0	660602880	17	4352
2026-01-19 07:49:28.50	44.38	16.21	-28.4	-30.0	14.7	0.00e+00	0	43	0	663748608	17	4325
2026-01-19 07:49:29.50	44.16	16.23	-28.5	-30.2	14.6	0.00e+00	0	43	0	666894336	17	4390
2026-01-19 07:49:30.50	43.94	16.25	-28.3	-29.8	14.8	7.00e-07	0	43	0	670040064	17	4280
2026-01-19 07:49:31.50	43.72	16.26	-28.2	-29.6	14.9	0.00e+00	0	43	0	673185792	17	4215
2026-01-19 07:49:32.50	43.51	16.28	-28.2	-29.6	15.0	0.00e+00	0	43	0	676331520	17	4216
2026-01-19 07:49:33.50	43.29	16.29	-28.2	-29.6	14.9	0.00e+00	0	43	0	679477248	17	4231
2026-01-19 07:49:34.50	43.07	16.30	-28.3	-29.7	14.9	0.00e+00	0	43	0	682622976	17	4254
2026-01-19 07:49:35.50	42.85	16.32	-28.4	-30.0	14.7	0.00e+00	0	43	0	685768704	17	4324
2026-01-19 07:49:36.50	42.63	16.33	-28.4	-30.0	14.7	0.00e+00	0	43	0	688914432	17	4339
2026-01-19 07:49:37.50	42.41	16.34	-28.6	-30.5	14.4	7.00e-07	0	43	0	692060160	17	4478
2026-01-19 07:49:38.50	42.19	16.36	-28.6	-30.6	14.4	1.50e-06	0	43	0	695205888	17	4501
2026-01-19 07:49:39.50	41.97	16.37	-28.6	-30.6	14.3	1.50e-06	0	44	0	698351616	17	4519
2026-01-19 07:49:40.50	41.75	16.38	-28.7	-30.7	14.3	1.50e-06	0	43	0	701497344	17	4538
2026-01-19 07:49:41.51	41.53	16.39	-28.6	-30.6	14.3	7.00e-07	0	43	0	704643072	17	4527
2026-01-19 07:49:42.51	41.31	16.40	-28.6	-30.5	14.4	7.00e-07	0	43	0	707788800	17	4495
2026-01-19 07:49:43.51	41.09	16.41	-28.6	-30.5	14.4	1.50e-06	0	44	0	710934528	17	4469
2026-01-19 07:49:44.51	40.86	16.42	-28.6	-30.4	14.5	0.00e+00	0	43	0	714080256	17	4466
2026-01-19 07:49:45.52	40.64	16.43	-28.6	-30.6	14.4	2.20e-06	0	43	0	717225984	17	4510
2026-01-19 07:49:46.52	40.42	16.44	-28.7	-30.8	14.2	7.00e-07	0	43	0	720371712	17	4589
2026-01-19 07:49:47.52	40.20	16.45	-28.8	-30.9	14.2	0.00e+00	0	43	0	723517440	17	4602
2026-01-19 07:49:48.53	39.98	16.45	-28.8	-30.9	14.2	1.50e-06	0	43	0	726663168	17	4612
2026-01-19 07:49:49.53	39.75	16.46	-28.8	-31.1	14.1	4.50e-06	0	43	0	729808896	17	4658
2026-01-19 07:49:50.53	39.53	16.47	-28.9	-31.2	14.0	5.30e-06	0	43	0	732954624	17	4692
2026-01-19 07:49:51.54	39.31	16.48	-28.9	-31.3	14.0	2.20e-06	0	43	0	736100352	17	4722
2026-01-19 07:49:52.54	39.09	16.48	-28.8	-31.0	14.1	1.50e-06	0	43	0	739246080	17	4643
2026-01-19 07:49:53.54	38.86	16.49	-28.8	-30.9	14.2	2.20e-06	0	43	0	742391808	17	4601
2026-01-19 07:49:54.54	38.64	16.49	-28.7	-30.9	14.2	2.20e-06	0	43	0	745537536	17	4595
2026-01-19 07:49:55.53	38.42	16.50	-28.6	-30.5	14.4	7.00e-07	0	43	0	748683264	17	4492
2026-01-19 07:49:56.54	38.20	16.50	-28.5	-30.3	14.5	0.00e+00	0	43	0	751828992	17	4434
2026-01-19 07:49:57.54	37.98	16.51	-28.5	-30.3	14.6	0.00e+00	0	44	0	754974720	17	4418
2026-01-19 07:49:58.54	37.75	16.51	-28.5	-30.2	14.6	1.50e-06	0	43	0	758120448	17	4390
2026-01-19 07:49:59.55	37.53	16.51	-28.4	-30.1	14.6	7.00e-07	0	43	0	761266176	17	4383
2026-01-19 07:50:00.55	37.31	16.52	-28.5	-30.3	14.5	0.00e+00	0	43	0	764411904	17	4420
2026-01-19 07:50:01.56	37.08	16.52	-28.5	-30.4	14.5	0.00e+00	0	44	0	767557632	17	4446
2026-01-19 07:50:02.56	36.86	16.52	-28.6	-30.4	14.4	7.00e-07	0	43	0	770703360	17	4468
2026-01-19 07:50:03.56	36.64	16.52	-28.6	-30.4	14.5	1.50e-06	0	43	0	773849088	17	4467
2026-01-19 07:50:04.56	36.42	16.52	-28.6	-30.6	14.4	7.00e-07	0	43	0	776994816	17	4509
2026-01-19 07:50:05.56	36.19	16.52	-28.7	-30.9	14.2	7.00e-07	0	43	0	780140544	17	4602
2026-01-19 07:50:06.56	35.97	16.52	-28.7	-30.8	14.2	1.50e-06	0	43	0	783286272	17	4587
2026-01-19 07:50:07.56	35.75	16.52	-28.7	-30.7	14.3	0.00e+00	0	43	0	786432000	17	4541
2026-01-19 07:50:08.56	35.53	16.52	-28.7	-30.7	14.3	1.50e-06	0	43	0	789577728	17	4564
2026-01-19 07:50:09.56	35.30	16.52	-28.8	-31.0	14.1	7.00e-07	0	44	0	792723456	17	4631
2026-01-19 07:50:10.56	35.08	16.52	-28.7	-30.9	14.2	2.20e-06	0	43	0	795869184	17	4597
2026-01-19 07:50:11.55	34.86	16.52	-28.7	-30.8	14.2	7.00e-07	0	43	0	799014912	17	4583
2026-01-19 07:50:12.56	34.64	16.51	-28.7	-30.8	14.2	1.50e-06	0	43	0	802160640	17	4567
2026-01-19 07:50:13.56	34.42	16.51	-28.5	-30.2	14.6	7.00e-07	0	44	0	805306368	17	4414
2026-01-19 07:50:14.57	34.19	16.51	-28.4	-30.1	14.7	0.00e+00	0	43	0	807403520	17	4356
2026-01-19 07:50:15.57	33.97	16.50	-28.4	-30.0	14.7	0.00e+00	0	43	0	810549248	17	4331
2026-01-19 07:50:16.58	33.75	16.50	-28.3	-29.9	14.7	7.00e-07	0	44	0	813694976	17	4316
2026-01-19 07:50:17.59	33.52	16.49	-28.3	-29.8	14.8	0.00e+00	0	43	0	817889280	17	4293
2026-01-19 07:50:18.59	33.30	16.49	-28.4	-30.0	14.7	0.00e+00	0	43	0	821035008	17	4330
2026-01-19 07:50:19.59	33.08	16.48	-28.3	-29.9	14.7	7.00e-07	0	44	0	824180736	17	4324
2026-01-19 07:50:20.59	32.86	16.48	-28.2	-29.6	14.9	0.00e+00	0	43	0	827326464	17	4238
2026-01-19 07:50:21.60	32.63	16.47	-28.2	-29.7	14.9	0.00e+00	0	43	0	830472192	17	4252
2026-01-19 07:50:22.60	32.41	16.46	-28.3	-29.8	14.8	0.00e+00	0	43	0	832569344	17	4292
2026-01-19 07:50:23.60	32.19	16.46	-28.4	-30.0	14.7	1.50e-06	0	43	0	835715072	17	4349
2026-01-19 07:50:24.60	31.97	16.45	-28.3	-29.8	14.9	0.00e+00	0	44	0	838860800	17	4268
2026-01-19 07:50:25.60	31.75	16.44	-28.2	-29.5	15.0	0.00e+00	0	44	0	842006528	17	4198
2026-01-19 07:50:26.60	31.53	16.43	-28.1	-29.4	15.0	0.00e+00	0	44	0	845152256	17	4185
2026-01-19 07:50:27.61	31.30	16.42	-28.3	-29.8	14.8	0.00e+00	0	43	0	848297984	17	4280
2026-01-19 07:50:28.61	31.08	16.41	-28.3	-29.8	14.8	7.00e-07	0	44	0	851443712	17	4294
2026-01-19 07:50:29.62	30.86	16.40	-28.2	-29.6	14.9	0.00e+00	0	44	0	854589440	17	4233
2026-01-19 07:50:30.62	30.64	16.39	-28.3	-29.8	14.8	0.00e+00	0	43	0	857735168	17	4283
2026-01-19 07:50:31.61	30.42	16.38	-28.3	-29.8	14.8	0.00e+00	0	44	0	860880896	17	4274
2026-01-19 07:50:32.61	30.20	16.37	-28.3	-29.7	14.9	0.00e+00	0	44	0	864026624	17	4257
2026-01-19 07:50:33.61	29.98	16.36	-28.3	-29.8	14.8	0.00e+00	0	44	0	867172352	17	4286
2026-01-19 07:50:34.61	29.76	16.35	-28.3	-29.8	14.8	0.00e+00	0	44	0	870318080	17	4284
2026-01-19 07:50:35.62	29.54	16.33	-28.3	-29.8	14.8	0.00e+00	0	43	0	873463808	17	4290
2026-01-19 07:50:36.63	29.32	16.32	-28.5	-30.3	14.6	0.00e+00	0	44	0	876609536	17	4413
2026-01-19 07:50:37.62	29.10	16.31	-28.6	-30.5	14.4	3.00e-06	0	44	0	879755264	17	4486
2026-01-19 07:50:38.63	28.88	16.29	-28.5	-30.4	14.5	7.00e-07	0	43	0	882900992	17	4456
2026-01-19 07:50:39.62	28.66	16.28	-28.6	-30.6	14.4	1.50e-06	0	43	0	886046720	17	4504
2026-01-19 07:50:40.62	28.45	16.26	-28.5	-30.2	14.5	7.00e-07	0	44	0	889192448	17	4403
2026-01-19 07:50:41.63	28.22	16.25	-28.3	-29.9	14.7	0.00e+00	0	44	0	892338176	17	4310
2026-01-19 07:50:42.63	28.01	16.23	-28.3	-29.9	14.8	7.00e-07	0	43	0	895483904	17	4311
2026-01-19 07:50:43.63	27.79	16.22	-28.3	-29.9	14.8	0.00e+00	0	43	0	898629632	17	4296
2026-01-19 07:50:44.63	27.57	16.20	-28.2	-29.7	14.9	0.00e+00	0	43	0	901775360	17	4252
2026-01-19 07:50:45.64	27.35	16.18	-28.3	-29.8	14.8	0.00e+00	0	44	0	904921088	17	4286
2026-01-19 07:50:46.64	27.13	16.17	-28.5	-30.3	14.5	0.00e+00	0	44	0	908066816	17	4441
2026-01-19 07:50:47.64	26.92	16.15	-28.7	-30.7	14.3	7.00e-07	0	44	0	911212544	17	4551
2026-01-19 07:50:48.64	26.70	16.13	-28.7	-30.8	14.2	2.20e-06	0	43	0	914358272	17	4593
2026-01-19 07:50:49.65	26.48	16.11	-28.9	-31.2	13.9	3.80e-06	0	43	0	917504000	17	4717
2026-01-19 07:50:50.65	26.27	16.09	-28.9	-31.3	13.9	3.00e-06	0	44	0	920649728	17	4743
2026-01-19 07:50:51.66	26.05	16.08	-29.0	-31.5	13.8	1.50e-06	0	43	0	923795456	17	4788
2026-01-19 07:50:52.66	25.83	16.06	-29.1	-31.2	13.7	3.00e-06	0	44	0	926941184	18	4581
2026-01-19 07:50:53.67	25.62	16.04	-29.0	-31.0	13.8	5.30e-06	0	44	0	930086912	18	4513
2026-01-19 07:50:54.67	25.40	16.02	-29.0	-31.0	13.8	6.80e-06	0	44	0	933232640	18	4539
2026-01-19 07:50:55.67	25.19	15.99	-29.0	-30.9	13.9	3.00e-06	0	44	0	936378368	18	4510
2026-01-19 07:50:56.68	24.97	15.97	-28.7	-30.2	14.3	2.20e-06	0	44	0	939524096	18	4302
2026-01-19 07:50:57.68	24.76	15.95	-28.6	-29.9	14.5	7.00e-07	0	44	0	942669824	18	4203
2026-01-19 07:50:58.68	24.54	15.93	-28.5	-29.8	14.5	7.00e-07	0	43	0	945815552	18	4176
2026-01-19 07:50:59.69	24.33	15.91	-28.6	-30.0	14.4	1.50e-06	0	43	0	948961280	18	4237
2026-01-19 07:51:00.69	24.11	15.89	-28.5	-29.8	14.5	7.00e-07	0	43	0	952107008	18	4169
2026-01-19 07:51:01.70	23.90	15.86	-28.4	-29.4	14.7	0.00e+00	0	44	0	955252736	18	4081
2026-01-19 07:51:02.70	23.69	15.84	-28.3	-29.3	14.8	0.00e+00	0	43	0	958398464	18	4042
2026-01-19 07:51:03.70	23.47	15.81	-28.4	-29.5	14.7	0.00e+00	0	43	0	961544192	18	4098
2026-01-19 07:51:04.70	23.26	15.79	-28.3	-29.3	14.8	0.00e+00	0	44	0	964689920	18	4053
2026-01-19 07:51:05.71	23.05	15.77	-28.3	-29.4	14.7	0.00e+00	0	43	0	967835648	18	4078
2026-01-19 07:51:06.70	22.84	15.74	-28.4	-29.5	14.6	7.00e-07	0	43	0	970981376	18	4108
2026-01-19 07:51:07.71	22.63	15.72	-28.4	-29.6	14.7	7.00e-07	0	44	0	974127104	18	4119
2026-01-19 07:51:08.72	22.42	15.69	-28.4	-29.5	14.7	0.00e+00	0	43	0	977272832	18	4102
2026-01-19 07:51:09.72	22.21	15.66	-28.2	-29.7	14.8	0.00e+00	0	43	0	980418560	17	4262
2026-01-19 07:51:10.72	22.00	15.64	-28.2	-29.5	14.9	0.00e+00	0	43	0	983564288	17	4211
2026-01-19 07:51:11.73	21.79	15.61	-28.2	-29.7	14.8	0.00e+00	0	44	0	986710016	17	4244
2026-01-19 07:51:12.73	21.58	15.58	-28.2	-29.6	14.9	7.00e-07	0	43	0	989855744	17	4228
2026-01-19 07:51:13.74	21.37	15.56	-28.1	-29.4	15.0	7.00e-07	0	43	0	993001472	17	4187
2026-01-19 07:51:14.74	21.16	15.53	-28.3	-29.9	14.7	0.00e+00	0	43	0	996147200	17	4301
2026-01-19 07:51:15.75	20.95	15.50	-28.3	-29.8	14.8	0.00e+00	0	43	0	999292928	17	4296
2026-01-19 07:51:16.76	20.74	15.47	-28.3	-29.8	14.7	0.00e+00	0	44	0	1002438656	17	4296
2026-01-19 07:51:17.76	20.53	15.44	-28.3	-29.8	14.8	0.00e+00	0	43	0	1005584384	17	4277
2026-01-19 07:51:18.76	20.33	15.41	-28.2	-29.6	14.9	0.00e+00	0	44	0	1008730112	17	4229
2026-01-19 07:51:19.77	20.12	15.38	-28.2	-29.6	14.9	0.00e+00	0	43	0	1011875840	17	4229
2026-01-19 07:51:20.77	19.91	15.35	-28.4	-30.0	14.6	0.00e+00	0	44	0	1015021568	17	4344
2026-01-19 07:51:21.78	19.71	15.32	-28.4	-30.1	14.6	7.00e-07	0	44	0	1018167296	17	4358
2026-01-19 07:51:22.78	19.50	15.29	-28.5	-30.2	14.5	7.00e-07	0	44	0	1021313024	17	4409
2026-01-19 07:51:23.78	19.30	15.26	-28.5	-30.3	14.5	0.00e+00	0	44	0	1024458752	17	4417
2026-01-19 07:51:24.78	19.09	15.23	-28.5	-30.4	14.4	0.00e+00	0	44	0	1027604480	17	4448
2026-01-19 07:51:25.79	18.89	15.20	-28.5	-30.3	14.5	7.00e-07	0	44	0	1030750208	17	4421
2026-01-19 07:51:26.79	18.69	15.17	-28.5	-30.4	14.4	0.00e+00	0	44	0	1033895936	17	4459
2026-01-19 07:51:27.80	18.48	15.13	-28.4	-30.1	14.5	7.00e-07	0	43	0	1037041664	17	4385
2026-01-19 07:51:28.79	18.28	15.10	-28.4	-30.1	14.6	7.00e-07	0	43	0	1040187392	17	4370
2026-01-19 07:51:29.80	18.08	15.07	-28.4	-30.0	14.6	1.50e-06	0	43	0	1043333120	17	4349
2026-01-19 07:51:30.80	17.88	15.04	-28.4	-30.2	14.5	0.00e+00	0	44	0	1046478848	17	4394
2026-01-19 07:51:31.80	17.68	15.00	-28.4	-30.1	14.6	7.00e-07	0	44	0	1049624576	17	4381
2026-01-19 07:51:32.80	17.48	14.97	-28.4	-30.2	14.5	0.00e+00	0	44	0	1052770304	17	4403
2026-01-19 07:51:33.80	17.28	14.94	-28.5	-30.2	14.5	7.00e-07	0	43	0	1055916032	17	4400
2026-01-19 07:51:34.81	17.07	14.90	-28.6	-30.6	14.3	0.00e+00	0	44	0	1059061760	17	4512
2026-01-19 07:51:35.81	16.88	14.87	-28.5	-30.3	14.4	3.00e-06	0	44	0	1062207488	17	4442
2026-01-19 07:51:36.81	16.68	14.83	-28.5	-30.4	14.4	7.00e-07	0	43	0	1065353216	17	4456
2026-01-19 07:51:37.82	16.48	14.80	-28.5	-30.3	14.4	7.00e-07	0	44	0	1068498944	17	4431
2026-01-19 07:51:38.82	16.28	14.76	-28.6	-30.6	14.3	7.00e-07	0	43	0	1071644672	17	4513
2026-01-19 07:51:39.83	16.08	14.72	-28.5	-30.3	14.4	0.00e+00	0	44	0	1074790400	17	4438
2026-01-19 07:51:40.83	15.89	14.69	-28.5	-30.4	14.3	1.50e-06	0	44	0	1077936128	17	4457
2026-01-19 07:51:41.83	15.69	14.65	-28.5	-30.2	14.4	0.00e+00	0	44	0	1081081856	17	4411
2026-01-19 07:51:42.83	15.49	14.61	-28.5	-30.4	14.4	7.00e-07	0	43	0	1083179008	17	4448
2026-01-19 07:51:43.83	15.30	14.58	-28.5	-30.2	14.5	1.50e-06	0	44	0	1086324736	17	4403
2026-01-19 07:51:44.84	15.10	14.54	-28.4	-30.0	14.6	0.00e+00	0	44	0	1089470464	17	4338
2026-01-19 07:51:45.84	14.91	14.50	-28.5	-30.3	14.4	0.00e+00	0	44	0	1093664768	17	4436
2026-01-19 07:51:46.84	14.72	14.47	-28.5	-30.2	14.4	0.00e+00	0	44	0	1096810496	17	4401
2026-01-19 07:51:47.85	14.52	14.43	-28.5	-30.3	14.4	7.00e-07	0	43	0	1099956224	17	4445
2026-01-19 07:51:48.84	14.33	14.39	-28.5	-30.4	14.4	7.00e-07	0	44	0	1103101952	17	4459
2026-01-19 07:51:49.85	14.14	14.35	-28.5	-30.4	14.4	7.00e-07	0	44	0	1106247680	17	4450
2026-01-19 07:51:50.86	13.94	14.31	-28.5	-30.3	14.4	7.00e-07	0	43	0	1108344832	17	4435
2026-01-19 07:51:51.86	13.75	14.27	-28.7	-30.8	14.1	0.00e+00	0	44	0	1111490560	17	4586
2026-01-19 07:51:52.87	13.56	14.23	-28.5	-30.4	14.3	2.20e-06	0	44	0	1114636288	17	4469
2026-01-19 07:51:53.86	13.37	14.19	-28.5	-30.3	14.4	1.50e-06	0	43	0	1117782016	17	4428
2026-01-19 07:51:54.87	13.18	14.15	-28.4	-30.0	14.5	7.00e-07	0	44	0	1120927744	17	4355
2026-01-19 07:51:55.87	12.99	14.11	-28.6	-30.5	14.3	2.20e-06	0	43	0	1124073472	17	4475
2026-01-19 07:51:56.87	12.80	14.07	-28.4	-30.0	14.6	7.00e-07	0	43	0	1127219200	17	4344
2026-01-19 07:51:57.87	12.62	14.03	-28.5	-30.3	14.4	0.00e+00	0	44	0	1130364928	17	4443
2026-01-19 07:51:58.87	12.43	13.99	-28.6	-30.5	14.3	7.00e-07	0	43	0	1133510656	17	4478
2026-01-19 07:51:59.87	12.24	13.95	-28.6	-30.5	14.3	0.00e+00	0	44	0	1136656384	17	4487
2026-01-19 07:52:00.88	12.05	13.91	-28.6	-30.5	14.3	0.00e+00	0	44	0	1139802112	17	4482
2026-01-19 07:52:01.88	11.87	13.87	-28.5	-30.4	14.4	0.00e+00	0	44	0	1142947840	17	4457
2026-01-19 07:52:02.88	11.68	13.83	-28.6	-30.4	14.3	3.80e-06	0	44	0	1146093568	17	4467
2026-01-19 07:52:03.88	11.50	13.78	-28.4	-30.1	14.5	0.00e+00	0	44	0	1149239296	17	4379
2026-01-19 07:52:04.88	11.31	13.74	-28.4	-30.1	14.5	7.00e-07	0	44	0	1152385024	17	4378
2026-01-19 07:52:05.88	11.13	13.70	-28.4	-30.1	14.5	0.00e+00	0	43	0	1155530752	17	4383
2026-01-19 07:52:06.88	10.95	13.66	-28.6	-30.6	14.2	1.50e-06	0	44	0	1158676480	17	4511
2026-01-19 07:52:07.88	10.76	13.61	-28.5	-30.3	14.4	0.00e+00	0	44	0	1161822208	17	4428
2026-01-19 07:52:08.88	10.58	13.57	-28.5	-30.2	14.4	7.00e-07	0	43	0	1164967936	17	4415
2026-01-19 07:52:09.88	10.40	13.53	-28.6	-30.5	14.2	3.80e-06	0	44	0	1168113664	17	4503
2026-01-19 07:52:10.88	10.22	13.48	-28.6	-30.6	14.2	3.00e-06	0	43	0	1171259392	17	4536
2026-01-19 07:52:11.88	10.04	13.44	-28.7	-30.9	14.0	1.50e-06	0	44	0	1174405120	17	4609
2026-01-19 07:52:12.88	9.86	13.40	-28.7	-30.8	14.1	7.00e-07	0	43	0	1177550848	17	4581
2026-01-19 07:52:13.88	9.68	13.35	-28.7	-30.8	14.1	3.80e-06	0	44	0	1180696576	17	4582
2026-01-19 07:52:14.88	9.50	13.31	-28.7	-30.9	14.0	7.00e-07	0	44	0	1183842304	17	4621
2026-01-19 07:52:15.89	9.32	13.26	-28.7	-30.9	14.0	3.80e-06	0	43	0	1186988032	17	4621
2026-01-19 07:52:16.89	9.14	13.22	-28.8	-30.9	14.0	2.20e-06	0	44	0	1190133760	17	4631
2026-01-19 07:52:17.90	8.97	13.17	-28.9	-31.3	13.7	3.80e-06	0	43	0	1193279488	17	4755
2026-01-19 07:52:18.90	8.79	13.13	-28.7	-30.9	14.0	3.80e-06	0	43	0	1196425216	17	4622
2026-01-19 07:52:19.91	8.61	13.08	-28.8	-31.0	14.0	2.20e-06	0	43	0	1199570944	17	4633
2026-01-19 07:52:20.91	8.44	13.04	-28.8	-31.0	13.9	3.00e-06	0	44	0	1202716672	17	4651
2026-01-19 07:52:21.91	8.26	12.99	-28.8	-31.1	13.9	3.80e-06	0	44	0	1205862400	17	4688
2026-01-19 07:52:22.91	8.09	12.95	-28.9	-31.3	13.8	8.30e-06	0	44	0	1209008128	17	4731
2026-01-19 07:52:23.91	7.91	12.90	-28.9	-31.2	13.8	5.30e-06	0	44	0	1212153856	17	4721
2026-01-19 07:52:24.91	7.74	12.85	-29.0	-31.1	13.6	7.60e-06	0	44	0	1215299584	18	4575
2026-01-19 07:52:25.92	7.57	12.81	-29.0	-31.2	13.6	9.90e-06	0	44	0	1218445312	18	4590
2026-01-19 07:52:26.92	7.39	12.76	-29.0	-31.1	13.6	6.80e-06	0	44	0	1221591040	18	4571
2026-01-19 07:52:27.93	7.22	12.71	-29.1	-31.3	13.5	1.14e-05	0	44	0	1224736768	18	4615
2026-01-19 07:52:28.93	7.05	12.67	-29.1	-31.3	13.5	1.60e-05	0	43	0	1227882496	18	4622
2026-01-19 07:52:29.94	6.88	12.62	-29.0	-31.1	13.5	4.50e-06	0	44	0	1231028224	18	4580
2026-01-19 07:52:30.94	6.71	12.57	-29.1	-31.2	13.5	8.30e-06	0	44	0	1234173952	18	4616
2026-01-19 07:52:31.95	6.54	12.53	-29.3	-31.7	13.2	1.90e-05	0	44	0	1237319680	18	4772
2026-01-19 07:52:32.96	6.37	12.48	-29.2	-31.4	13.4	1.52e-05	0	43	0	1240465408	18	4666
2026-01-19 07:52:33.96	6.20	12.43	-28.8	-30.6	13.8	3.00e-06	0	44	0	1243611136	18	4434
2026-01-19 07:52:34.97	6.03	12.38	-28.8	-30.5	13.9	4.50e-06	0	44	0	1246756864	18	4391
2026-01-19 07:52:35.98	5.86	12.33	-28.7	-30.3	14.0	2.20e-06	0	44	0	1249902592	18	4342
2026-01-19 07:52:36.98	5.69	12.29	-28.8	-30.7	13.8	3.80e-06	0	43	0	1253048320	18	4434
2026-01-19 07:52:37.98	5.53	12.24	-28.7	-30.4	14.0	3.80e-06	0	43	0	1256194048	18	4361
2026-01-19 07:52:38.97	5.36	12.19	-28.8	-30.4	14.0	2.20e-06	0	44	0	1259339776	18	4375
2026-01-19 07:52:39.98	5.20	12.14	-28.9	-30.8	13.7	3.80e-06	0	44	0	1262485504	18	4475
2026-01-19 07:52:40.97	5.03	12.09	-28.7	-30.3	14.0	6.10e-06	0	44	0	1265631232	18	4345
2026-01-19 07:52:41.98	4.87	12.04	-28.7	-30.2	14.0	7.00e-07	0	44	0	1268776960	18	4310
2026-01-19 07:52:42.99	4.70	11.99	-28.8	-30.4	13.9	3.00e-06	0	43	0	1271922688	18	4373
2026-01-19 07:52:43.98	4.54	11.95	-28.7	-30.4	13.9	3.80e-06	0	44	0	1275068416	18	4362
2026-01-19 07:52:44.98	4.38	11.90	-28.8	-30.5	13.9	2.20e-06	0	43	0	1278214144	18	4396
2026-01-19 07:52:45.98	4.22	11.85	-28.9	-30.9	13.6	3.80e-06	0	44	0	1281359872	18	4508
2026-01-19 07:52:46.99	4.06	11.80	-29.0	-31.0	13.6	6.80e-06	0	44	0	1284505600	18	4529
2026-01-19 07:52:47.99	3.90	11.75	-28.9	-30.8	13.7	5.30e-06	0	44	0	1287651328	18	4480
2026-01-19 07:52:48.99	3.74	11.70	-29.1	-31.4	13.4	1.14e-05	0	44	0	1290797056	18	4653
2026-01-19 07:52:50.00	3.58	11.65	-29.0	-31.1	13.5	6.80e-06	0	44	0	1293942784	18	4583
2026-01-19 07:52:51.00	3.42	11.60	-29.1	-31.2	13.4	9.10e-06	0	44	0	1297088512	18	4610
2026-01-19 07:52:52.01	3.26	11.55	-29.1	-31.3	13.4	1.06e-05	0	43	0	1300234240	18	4632
2026-01-19 07:52:53.02	3.10	11.50	-29.1	-31.3	13.4	1.06e-05	0	44	0	1303379968	18	4624
2026-01-19 07:52:54.02	2.94	11.45	-29.0	-31.0	13.5	1.29e-05	0	44	0	1306525696	18	4558
2026-01-19 07:52:55.02	2.78	11.40	-29.1	-31.3	13.4	1.83e-05	0	44	0	1309671424	18	4645
2026-01-19 07:52:56.03	2.63	11.35	-29.1	-31.3	13.4	1.44e-05	0	43	0	1312817152	18	4643
2026-01-19 07:52:57.03	2.47	11.30	-29.1	-31.2	13.4	1.83e-05	0	43	0	1315962880	18	4600
2026-01-19 07:52:58.04	2.31	11.25	-29.1	-31.4	13.3	1.44e-05	0	44	0	1319108608	18	4670
2026-01-19 07:52:59.04	2.16	11.20	-29.3	-31.8	13.0	2.21e-05	0	44	0	1322254336	18	4801
2026-01-19 07:53:00.05	2.00	11.14	-29.2	-31.6	13.2	3.28e-05	0	44	0	1325400064	18	4724
2026-01-19 07:53:01.05	1.85	11.09	-29.2	-31.5	13.2	1.83e-05	0	44	0	1328545792	18	4689
2026-01-19 07:53:02.05	1.70	11.04	-29.3	-31.8	13.1	2.74e-05	0	43	0	1331691520	18	4795
2026-01-19 07:53:03.06	1.54	10.99	-29.1	-31.3	13.4	1.75e-05	0	44	0	1334837248	18	4625
2026-01-19 07:53:04.07	1.39	10.94	-29.2	-31.4	13.3	1.44e-05	0	44	0	1337982976	18	4676
2026-01-19 07:53:05.07	1.24	10.89	-29.2	-31.6	13.2	1.37e-05	0	43	0	1341128704	18	4735
2026-01-19 07:53:06.07	1.09	10.84	-29.2	-31.6	13.2	2.59e-05	0	44	0	1344274432	18	4722
2026-01-19 07:53:07.08	0.94	10.78	-29.3	-31.8	13.1	2.59e-05	0	44	0	1347420160	18	4790
2026-01-19 07:53:08.08	0.79	10.73	-29.2	-31.5	13.2	3.43e-05	0	43	0	1350565888	18	4695
2026-01-19 07:53:09.07	0.64	10.68	-29.2	-31.6	13.2	2.82e-05	0	43	0	1353711616	18	4724
2026-01-19 07:53:10.08	0.49	10.63	-29.4	-32.0	12.9	3.12e-05	0	44	0	1356857344	18	4854
2026-01-19 07:53:11.08	0.34	10.58	-29.4	-32.0	12.9	5.95e-05	0	44	0	1360003072	18	4863
2026-01-19 07:53:12.09	0.19	10.53	-29.4	-32.1	12.8	5.95e-05	0	43	0	1363148800	18	4917
2026-01-19 07:53:13.09	0.05	10.47	-29.4	-32.0	12.9	4.80e-05	0	44	0	1366294528	18	4870
2026-01-19 07:53:14.09	359.90	10.42	-29.4	-32.1	12.8	6.02e-05	0	43	0	1369440256	18	4909
2026-01-19 07:53:15.09	359.76	10.37	-29.4	-32.1	12.8	6.17e-05	0	43	0	1372585984	18	4912
2026-01-19 07:53:16.10	359.61	10.32	-29.5	-31.9	12.6	7.93e-05	0	43	0	1375731712	19	4737
2026-01-19 07:53:17.11	359.46	10.26	-29.8	-32.6	12.2	1.83e-04	0	44	0	1378877440	19	4976
2026-01-19 07:53:18.11	359.32	10.21	-29.6	-32.0	12.5	1.14e-04	0	44	0	1382023168	19	4764
2026-01-19 07:53:19.12	359.17	10.16	-29.2	-31.1	13.1	3.35e-05	0	44	0	1384120320	19	4484
2026-01-19 07:53:20.12	359.03	10.11	-29.2	-31.1	13.1	3.05e-05	0	44	0	1387266048	19	4469
2026-01-19 07:53:21.12	358.89	10.05	-29.1	-30.8	13.3	1.37e-05	0	44	0	1390411776	19	4397
2026-01-19 07:53:22.13	358.74	10.00	-29.1	-30.8	13.3	1.90e-05	0	43	0	1393557504	19	4375
2026-01-19 07:53:23.14	358.60	9.95	-29.0	-30.7	13.3	1.52e-05	0	44	0	1397751808	19	4357
2026-01-19 07:53:24.14	358.46	9.90	-29.0	-30.7	13.3	1.29e-05	0	44	0	1400897536	19	4353
2026-01-19 07:53:25.15	358.32	9.84	-29.2	-31.0	13.1	2.67e-05	0	44	0	1404043264	19	4441
2026-01-19 07:53:26.15	358.18	9.79	-29.0	-30.6	13.4	1.44e-05	0	43	0	1407188992	19	4334
2026-01-19 07:53:27.15	358.04	9.74	-29.0	-30.7	13.3	1.29e-05	0	44	0	1409286144	19	4355
2026-01-19 07:53:28.15	357.90	9.68	-29.2	-31.0	13.1	2.28e-05	0	44	0	1412431872	19	4452
2026-01-19 07:53:29.14	357.76	9.63	-29.2	-31.0	13.1	1.98e-05	0	44	0	1415577600	19	4444
2026-01-19 07:53:30.14	357.63	9.58	-29.2	-31.1	13.1	3.35e-05	0	44	0	1418723328	19	4467
2026-01-19 07:53:31.13	357.49	9.53	-29.2	-31.1	13.1	3.58e-05	0	44	0	1421869056	19	4472
2026-01-19 07:53:32.14	357.35	9.47	-29.2	-31.2	13.0	3.20e-05	0	43	0	1425014784	19	4510
2026-01-19 07:53:33.14	357.21	9.42	-29.3	-31.5	12.8	4.65e-05	0	44	0	1428160512	19	4596
2026-01-19 07:53:34.13	357.08	9.37	-29.3	-31.4	12.9	6.02e-05	0	43	0	1431306240	19	4566
2026-01-19 07:53:35.13	356.94	9.32	-29.3	-31.2	12.9	3.96e-05	0	43	0	1434451968	19	4521
2026-01-19 07:53:36.13	356.81	9.26	-29.4	-31.7	12.6	9.38e-05	0	44	0	1437597696	19	4675
2026-01-19 07:53:37.13	356.68	9.21	-29.3	-31.4	12.8	6.33e-05	0	44	0	1440743424	19	4589
2026-01-19 07:53:38.12	356.54	9.16	-29.5	-31.7	12.6	6.02e-05	0	44	0	1443889152	19	4686
2026-01-19 07:53:39.11	356.41	9.10	-29.6	-32.0	12.4	1.16e-04	0	43	0	1447034880	19	4768
2026-01-19 07:53:40.11	356.28	9.05	-29.4	-31.6	12.7	1.01e-04	0	44	0	1450180608	19	4644
2026-01-19 07:53:41.11	356.15	9.00	-29.3	-31.2	12.9	5.72e-05	0	44	0	1453326336	19	4524
2026-01-19 07:53:42.11	356.01	8.94	-29.2	-31.1	13.0	3.43e-05	0	44	0	1456472064	19	4479
2026-01-19 07:53:43.11	355.88	8.89	-29.3	-31.4	12.8	5.56e-05	0	43	0	1459617792	19	4590
2026-01-19 07:53:44.11	355.75	8.84	-29.3	-31.3	12.9	5.03e-05	0	44	0	1462763520	19	4534
2026-01-19 07:53:45.11	355.62	8.78	-29.2	-31.2	12.9	3.96e-05	0	44	0	1465909248	19	4501
2026-01-19 07:53:46.10	355.49	8.73	-29.3	-31.5	12.8	4.80e-05	0	43	0	1469054976	19	4596
2026-01-19 07:53:47.11	355.36	8.68	-29.6	-32.1	12.4	1.59e-04	0	44	0	1472200704	19	4801
2026-01-19 07:53:48.12	355.23	8.62	-29.5	-31.8	12.6	1.23e-04	0	43	0	1475346432	19	4690
2026-01-19 07:53:49.12	355.10	8.57	-29.4	-31.7	12.5	1.12e-04	0	43	0	1478492160	19	4694
2026-01-19 07:53:50.11	354.98	8.52	-29.3	-31.5	12.7	5.56e-05	0	43	0	1481637888	19	4609
2026-01-19 07:53:51.12	354.85	8.46	-29.5	-32.0	12.4	1.04e-04	0	44	0	1484783616	19	4780
2026-01-19 07:53:52.12	354.72	8.41	-29.5	-31.9	12.4	1.51e-04	0	44	0	1487929344	19	4759
2026-01-19 07:53:53.11	354.60	8.35	-29.4	-31.7	12.5	1.07e-04	0	43	0	1491075072	19	4686
2026-01-19 07:53:54.11	354.47	8.30	-29.5	-32.0	12.3	1.16e-04	0	43	0	1494220800	19	4781
2026-01-19 07:53:55.11	354.34	8.25	-29.8	-32.7	11.9	4.10e-04	0	43	0	1497366528	19	5021
2026-01-19 07:53:56.12	354.22	8.19	-29.7	-32.5	12.0	2.78e-04	0	43	0	1500512256	19	4936
2026-01-19 07:53:57.12	354.09	8.14	-29.5	-31.9	12.4	1.81e-04	0	43	0	1503657984	19	4761
2026-01-19 07:53:58.13	353.97	8.08	-29.4	-31.8	12.5	1.18e-04	0	44	0	1506803712	19	4696
2026-01-19 07:53:59.13	353.84	8.03	-29.6	-32.0	12.3	1.59e-04	0	43	0	1509949440	19	4797
2026-01-19 07:54:00.13	353.72	7.98	-29.5	-31.8	12.4	1.59e-04	0	43	0	1513095168	19	4722
2026-01-19 07:54:01.13	353.60	7.92	-29.6	-32.1	12.3	1.61e-04	0	43	0	1516240896	19	4807
2026-01-19 07:54:02.13	353.48	7.87	-29.7	-32.4	12.0	2.43e-04	0	43	0	1519386624	19	4917
2026-01-19 07:54:03.14	353.35	7.82	-29.7	-32.4	12.1	2.64e-04	0	44	0	1522532352	19	4916
2026-01-19 07:54:04.15	353.23	7.76	-29.6	-32.2	12.2	2.08e-04	0	44	0	1525678080	19	4864
2026-01-19 07:54:05.15	353.11	7.71	-29.7	-32.4	12.0	2.66e-04	0	43	0	1528823808	19	4926
2026-01-19 07:54:06.16	352.99	7.65	-29.8	-32.7	11.8	3.96e-04	0	43	0	1531969536	19	5034
2026-01-19 07:54:07.15	352.87	7.60	-29.8	-32.8	11.7	6.27e-04	0	43	0	1535115264	19	5077
2026-01-19 07:54:08.15	352.75	7.55	-29.9	-33.0	11.6	5.66e-04	0	44	0	1538260992	19	5122
2026-01-19 07:54:09.16	352.63	7.49	-29.8	-32.8	11.7	6.44e-04	0	44	0	1541406720	19	5077
2026-01-19 07:54:10.16	352.51	7.44	-29.8	-32.8	11.7	4.65e-04	0	44	0	1544552448	19	5062
2026-01-19 07:54:11.17	352.39	7.38	-29.8	-32.8	11.7	4.93e-04	0	43	0	1547698176	19	5081
2026-01-19 07:54:12.17	352.27	7.33	-29.8	-32.8	11.7	6.25e-04	0	43	0	1550843904	19	5078
2026-01-19 07:54:13.18	352.15	7.27	-29.8	-32.8	11.7	4.95e-04	0	43	0	1553989632	19	5066
2026-01-19 07:54:14.18	352.04	7.22	-29.8	-32.7	11.8	4.83e-04	0	43	0	1557135360	19	5032
2026-01-19 07:54:15.18	351.92	7.17	-29.8	-32.8	11.7	5.79e-04	0	43	0	1560281088	19	5072
2026-01-19 07:54:16.19	351.80	7.11	-29.9	-32.9	11.6	6.48e-04	0	44	0	1563426816	19	5110
2026-01-19 07:54:17.19	351.69	7.06	-30.0	-32.8	11.3	5.71e-04	0	44	0	1566572544	20	4975
2026-01-19 07:54:18.19	351.57	7.00	-33.6	-45.6	3.8	1.49e+00	0	44	104	1566572544	27	14387

#Closed at: 2026-01-19 07:54:19
#Recorded file [1566 MB]: D:/data/31010_260119_104555.dat