passes_logs/2026/01/19/R2M6_AANII_01/R2M6_AANII_01__20260119_081442_SUOMI_NPP_rec.log

#Pass ID: 20260119_081442_SUOMI NPP
#Satellite: SUOMI NPP
#Configuration: NPP
#almurnet v.1.7.20240730
#Start time: 2026-01-19 08:14:44

#Version: 2.2.20231116
#Station: R2M6_AANII_01
#Location: 30.233357 lon 59.946436 lat
#TLE: 1 37849U 11061A   26017.92342359  .00000077  00000+0  57567-4 0  9990
#TLE: 2 37849  98.7814 319.9468 0002389  58.5705 301.5704 14.19525998737125

#Time	Az	El	Level	Level2	SNR	BER	BlckErr	Temp	State	Recorded	gain1	gain2
2026-01-19 08:14:44.07	93.30	7.10	-31.8	-43.8	3.7	1.50e+00	0	41	0	0	24	14394
2026-01-19 08:14:45.08	93.19	7.16	-31.7	-43.5	3.8	1.49e+00	0	41	104	0	24	14036
2026-01-19 08:14:46.07	93.09	7.22	-31.6	-43.4	3.8	1.49e+00	0	41	104	0	24	13930
2026-01-19 08:14:47.08	92.99	7.28	-31.7	-43.4	3.8	1.49e+00	0	41	104	0	24	13886
2026-01-19 08:14:48.08	92.89	7.34	-31.7	-43.4	3.8	1.49e+00	0	41	104	0	24	13802
2026-01-19 08:14:49.09	92.78	7.40	-31.8	-43.4	3.8	1.49e+00	0	41	104	0	24	13590
2026-01-19 08:14:50.10	92.68	7.46	-31.9	-42.9	3.8	1.49e+00	0	41	104	0	24	12786
2026-01-19 08:14:51.10	92.57	7.52	-32.1	-42.5	3.8	1.49e+00	0	41	104	0	24	12025
2026-01-19 08:14:52.10	92.47	7.59	-32.2	-41.9	3.9	1.48e+00	0	41	104	0	24	10940
2026-01-19 08:14:53.10	92.36	7.65	-32.3	-41.2	4.3	1.38e+00	0	41	0	0	24	10009
2026-01-19 08:14:54.10	92.26	7.71	-32.3	-40.1	4.9	8.76e-01	0	41	0	1048576	24	8770
2026-01-19 08:14:55.11	92.15	7.77	-32.2	-38.5	6.0	4.64e-01	0	42	0	3145728	24	7407
2026-01-19 08:14:56.11	92.04	7.83	-32.2	-37.8	6.6	2.94e-01	0	42	0	5242880	24	6844
2026-01-19 08:14:57.11	91.94	7.89	-32.1	-37.1	7.2	1.29e-01	0	41	0	7340032	24	6396
2026-01-19 08:14:58.11	91.83	7.95	-32.2	-37.5	7.0	1.56e-01	0	41	0	9437184	24	6610
2026-01-19 08:14:59.11	91.72	8.02	-32.1	-37.0	7.3	1.43e-01	0	41	0	10485760	24	6363
2026-01-19 08:15:00.12	91.61	8.08	-32.4	-38.4	6.4	1.56e-01	0	42	0	12582912	24	7168
2026-01-19 08:15:01.12	91.50	8.14	-32.3	-37.9	6.7	2.04e-01	0	42	0	14680064	24	6871
2026-01-19 08:15:02.13	91.39	8.20	-32.2	-37.3	7.2	1.40e-01	0	42	0	16777216	24	6513
2026-01-19 08:15:03.13	91.28	8.26	-32.0	-36.4	8.0	9.89e-02	0	42	0	18874368	24	5961
2026-01-19 08:15:04.13	91.17	8.33	-31.9	-35.8	8.4	5.32e-02	0	42	0	19922944	24	5665
2026-01-19 08:15:05.14	91.06	8.39	-31.6	-34.9	9.1	2.77e-02	0	42	0	22020096	24	5239
2026-01-19 08:15:06.14	90.95	8.45	-31.6	-34.7	9.2	2.38e-02	0	42	0	24117248	24	5163
2026-01-19 08:15:07.15	90.83	8.51	-31.4	-34.0	9.8	1.17e-02	0	42	0	26214400	24	4869
2026-01-19 08:15:08.15	90.72	8.58	-31.5	-34.2	9.6	1.08e-02	0	42	0	28311552	24	4947
2026-01-19 08:15:09.15	90.61	8.64	-31.6	-34.5	9.5	1.32e-02	0	42	0	29360128	24	5065
2026-01-19 08:15:10.15	90.50	8.70	-31.7	-35.1	9.1	1.87e-02	0	42	0	31457280	24	5301
2026-01-19 08:15:11.16	90.38	8.76	-31.6	-34.5	9.6	1.37e-02	0	42	0	33554432	24	5038
2026-01-19 08:15:12.16	90.27	8.82	-31.6	-34.5	9.6	1.61e-02	0	42	0	35651584	24	5025
2026-01-19 08:15:13.16	90.15	8.89	-31.5	-34.2	9.8	1.24e-02	0	42	0	36700160	24	4909
2026-01-19 08:15:14.17	90.03	8.95	-31.4	-33.9	10.0	8.62e-03	0	42	0	38797312	24	4793
2026-01-19 08:15:15.17	89.92	9.01	-31.5	-34.1	9.9	7.09e-03	0	42	0	40894464	24	4855
2026-01-19 08:15:16.18	89.80	9.07	-31.4	-34.0	9.9	8.52e-03	0	42	0	42991616	24	4826
2026-01-19 08:15:17.18	89.68	9.14	-31.3	-33.6	10.3	5.61e-03	0	42	0	45088768	24	4653
2026-01-19 08:15:18.19	89.57	9.20	-31.5	-34.0	10.1	6.93e-03	0	42	0	46137344	24	4811
2026-01-19 08:15:19.19	89.45	9.26	-31.5	-34.1	10.0	8.68e-03	0	42	0	48234496	24	4852
2026-01-19 08:15:20.19	89.33	9.32	-31.7	-34.8	9.4	1.21e-02	0	42	0	50331648	24	5162
2026-01-19 08:15:21.19	89.21	9.39	-31.6	-34.5	9.7	1.29e-02	0	42	0	52428800	24	5017
2026-01-19 08:15:22.20	89.09	9.45	-31.7	-34.8	9.5	1.08e-02	0	42	0	54525952	24	5140
2026-01-19 08:15:23.20	88.97	9.51	-31.6	-34.3	10.0	1.09e-02	0	42	0	55574528	24	4907
2026-01-19 08:15:24.20	88.85	9.58	-31.6	-34.3	10.0	8.37e-03	0	42	0	57671680	24	4908
2026-01-19 08:15:25.21	88.73	9.64	-31.4	-33.7	10.4	4.64e-03	0	42	0	59768832	24	4672
2026-01-19 08:15:26.21	88.61	9.70	-31.4	-33.6	10.5	4.39e-03	0	42	0	61865984	24	4624
2026-01-19 08:15:27.20	88.48	9.76	-31.5	-34.0	10.3	3.74e-03	0	42	0	63963136	24	4779
2026-01-19 08:15:28.20	88.36	9.83	-31.7	-34.6	9.8	1.01e-02	0	42	0	65011712	24	5020
2026-01-19 08:15:29.20	88.24	9.89	-31.7	-34.7	9.7	1.01e-02	0	42	0	67108864	24	5071
2026-01-19 08:15:30.20	88.12	9.95	-31.7	-34.7	9.6	1.02e-02	0	42	0	69206016	24	5089
2026-01-19 08:15:31.21	87.99	10.02	-31.7	-34.6	9.8	1.11e-02	0	42	0	71303168	24	5026
2026-01-19 08:15:32.20	87.87	10.08	-31.6	-34.1	10.2	7.97e-03	0	42	0	73400320	24	4825
2026-01-19 08:15:33.21	87.74	10.14	-31.4	-33.4	10.7	4.17e-03	0	42	0	74448896	24	4568
2026-01-19 08:15:34.21	87.61	10.21	-31.5	-33.9	10.3	3.74e-03	0	42	0	76546048	24	4759
2026-01-19 08:15:35.22	87.49	10.27	-31.5	-34.0	10.3	4.73e-03	0	42	0	78643200	24	4802
2026-01-19 08:15:36.22	87.36	10.33	-31.7	-34.7	9.8	8.23e-03	0	42	0	80740352	24	5068
2026-01-19 08:15:37.23	87.23	10.40	-31.7	-34.7	9.8	1.15e-02	0	43	0	82837504	24	5065
2026-01-19 08:15:38.23	87.10	10.46	-31.7	-34.7	9.9	9.73e-03	0	42	0	83886080	24	5047
2026-01-19 08:15:39.23	86.97	10.52	-31.7	-34.4	10.1	7.04e-03	0	42	0	85983232	24	4918
2026-01-19 08:15:40.24	86.84	10.59	-31.5	-33.8	10.5	4.66e-03	0	42	0	88080384	24	4693
2026-01-19 08:15:41.24	86.71	10.65	-31.5	-33.6	10.7	4.28e-03	0	43	0	90177536	24	4614
2026-01-19 08:15:42.24	86.58	10.71	-31.6	-34.0	10.4	4.71e-03	0	43	0	91226112	24	4766
2026-01-19 08:15:43.25	86.45	10.78	-31.5	-33.7	10.6	4.19e-03	0	43	0	93323264	24	4665
2026-01-19 08:15:44.25	86.32	10.84	-31.4	-33.5	10.8	3.14e-03	0	43	0	95420416	24	4561
2026-01-19 08:15:45.25	86.19	10.90	-31.4	-33.3	10.8	2.61e-03	0	43	0	97517568	24	4513
2026-01-19 08:15:46.26	86.05	10.97	-31.5	-33.6	10.8	2.44e-03	0	43	0	99614720	24	4604
2026-01-19 08:15:47.26	85.92	11.03	-31.4	-33.3	10.9	2.22e-03	0	43	0	100663296	24	4505
2026-01-19 08:15:48.27	85.78	11.09	-31.5	-33.8	10.6	3.57e-03	0	43	0	102760448	24	4672
2026-01-19 08:15:49.27	85.65	11.16	-31.4	-33.4	10.9	3.18e-03	0	42	0	104857600	24	4516
2026-01-19 08:15:50.28	85.51	11.22	-31.3	-33.2	11.0	1.78e-03	0	43	0	106954752	24	4470
2026-01-19 08:15:51.28	85.38	11.28	-31.4	-33.5	10.8	2.28e-03	0	43	0	109051904	24	4562
2026-01-19 08:15:52.28	85.24	11.35	-31.4	-33.3	11.0	2.29e-03	0	43	0	110100480	24	4491
2026-01-19 08:15:53.28	85.10	11.41	-31.3	-33.1	11.1	2.50e-03	0	43	0	112197632	24	4410
2026-01-19 08:15:54.29	84.97	11.47	-31.4	-33.7	11.1	1.59e-03	0	43	0	114294784	23	4717
2026-01-19 08:15:55.28	84.83	11.54	-31.3	-33.8	10.8	1.55e-03	0	42	0	116391936	23	4824
2026-01-19 08:15:56.28	84.69	11.60	-31.3	-33.7	10.9	2.36e-03	0	43	0	118489088	23	4753
2026-01-19 08:15:57.29	84.55	11.66	-31.3	-33.7	11.0	2.03e-03	0	43	0	119537664	23	4763
2026-01-19 08:15:58.29	84.41	11.73	-31.3	-33.9	10.8	2.41e-03	0	43	0	121634816	23	4852
2026-01-19 08:15:59.30	84.27	11.79	-31.3	-33.8	10.9	2.18e-03	0	43	0	123731968	23	4783
2026-01-19 08:16:00.30	84.13	11.85	-31.2	-33.5	11.1	2.02e-03	0	43	0	125829120	23	4686
2026-01-19 08:16:01.30	83.98	11.92	-31.4	-33.9	10.9	1.86e-03	0	43	0	127926272	23	4817
2026-01-19 08:16:02.31	83.84	11.98	-31.4	-34.0	10.8	1.75e-03	0	43	0	128974848	23	4848
2026-01-19 08:16:03.32	83.70	12.05	-31.4	-34.0	10.8	1.73e-03	0	43	0	131072000	23	4869
2026-01-19 08:16:04.32	83.55	12.11	-31.4	-34.0	10.8	1.94e-03	0	43	0	133169152	23	4879
2026-01-19 08:16:05.33	83.41	12.17	-31.4	-34.1	10.7	3.23e-03	0	43	0	135266304	23	4913
2026-01-19 08:16:06.34	83.26	12.24	-31.5	-34.5	10.5	5.07e-03	0	43	0	137363456	23	5057
2026-01-19 08:16:07.34	83.12	12.30	-31.3	-33.8	10.9	3.44e-03	0	43	0	138412032	23	4804
2026-01-19 08:16:08.35	82.97	12.36	-31.4	-33.9	10.9	2.16e-03	0	43	0	140509184	23	4836
2026-01-19 08:16:09.35	82.82	12.43	-31.4	-33.9	10.9	2.10e-03	0	43	0	142606336	23	4817
2026-01-19 08:16:10.36	82.67	12.49	-31.4	-33.9	10.8	1.80e-03	0	43	0	144703488	23	4840
2026-01-19 08:16:11.36	82.52	12.55	-31.3	-33.8	11.0	1.54e-03	0	43	0	146800640	23	4796
2026-01-19 08:16:12.36	82.37	12.62	-31.5	-34.4	10.6	2.15e-03	0	43	0	147849216	23	5040
2026-01-19 08:16:13.37	82.22	12.68	-31.7	-35.0	10.1	6.80e-03	0	43	0	149946368	23	5254
2026-01-19 08:16:14.36	82.08	12.74	-31.5	-34.3	10.6	5.50e-03	0	43	0	152043520	23	4997
2026-01-19 08:16:15.37	81.92	12.81	-31.4	-34.0	10.8	2.80e-03	0	43	0	154140672	23	4855
2026-01-19 08:16:16.36	81.77	12.87	-31.3	-33.8	10.9	2.58e-03	0	43	0	155189248	23	4799
2026-01-19 08:16:17.36	81.62	12.93	-31.5	-34.3	10.6	2.35e-03	0	43	0	157286400	23	4986
2026-01-19 08:16:18.36	81.47	12.99	-31.5	-34.6	10.4	4.09e-03	0	43	0	159383552	23	5090
2026-01-19 08:16:19.37	81.31	13.06	-31.6	-34.7	10.4	3.48e-03	0	43	0	161480704	23	5126
2026-01-19 08:16:20.37	81.16	13.12	-31.6	-34.6	10.4	4.75e-03	0	43	0	163577856	23	5117
2026-01-19 08:16:21.38	81.00	13.18	-31.6	-34.6	10.5	4.42e-03	0	43	0	164626432	23	5109
2026-01-19 08:16:22.38	80.85	13.25	-31.7	-34.9	10.1	6.46e-03	0	43	0	166723584	23	5243
2026-01-19 08:16:23.39	80.69	13.31	-31.6	-34.8	10.3	5.42e-03	0	43	0	168820736	23	5195
2026-01-19 08:16:24.39	80.53	13.37	-31.6	-34.7	10.4	6.20e-03	0	43	0	170917888	23	5153
2026-01-19 08:16:25.40	80.37	13.44	-31.5	-34.3	10.7	3.39e-03	0	43	0	173015040	23	4998
2026-01-19 08:16:26.40	80.22	13.50	-31.5	-34.2	10.8	3.48e-03	0	43	0	174063616	23	4920
2026-01-19 08:16:27.40	80.06	13.56	-31.5	-34.5	10.6	3.03e-03	0	43	0	176160768	23	5049
2026-01-19 08:16:28.40	79.90	13.62	-31.6	-34.8	10.4	4.18e-03	0	43	0	178257920	23	5169
2026-01-19 08:16:29.40	79.74	13.68	-31.6	-34.7	10.5	5.15e-03	0	43	0	180355072	23	5132
2026-01-19 08:16:30.40	79.58	13.75	-31.5	-34.4	10.6	3.30e-03	0	43	0	182452224	23	5030
2026-01-19 08:16:31.40	79.42	13.81	-31.4	-34.1	10.8	2.30e-03	0	43	0	183500800	23	4905
2026-01-19 08:16:32.40	79.25	13.87	-31.4	-33.9	11.0	1.86e-03	0	43	0	185597952	23	4807
2026-01-19 08:16:33.41	79.09	13.93	-31.5	-34.2	10.8	2.35e-03	0	43	0	187695104	23	4938
2026-01-19 08:16:34.41	78.93	14.00	-31.5	-34.3	10.8	2.77e-03	0	43	0	189792256	23	4958
2026-01-19 08:16:35.41	78.76	14.06	-31.6	-34.5	10.6	3.02e-03	0	43	0	191889408	23	5043
2026-01-19 08:16:36.42	78.60	14.12	-31.6	-34.5	10.6	3.45e-03	0	43	0	192937984	23	5033
2026-01-19 08:16:37.42	78.43	14.18	-31.7	-34.8	10.4	3.25e-03	0	43	0	195035136	23	5165
2026-01-19 08:16:38.42	78.26	14.24	-31.7	-35.1	10.2	4.88e-03	0	43	0	197132288	23	5287
2026-01-19 08:16:39.43	78.10	14.31	-31.7	-35.1	10.1	6.31e-03	0	43	0	199229440	23	5311
2026-01-19 08:16:40.43	77.93	14.37	-31.6	-34.7	10.4	5.67e-03	0	43	0	201326592	23	5119
2026-01-19 08:16:41.43	77.76	14.43	-31.4	-34.1	10.9	2.97e-03	0	43	0	202375168	23	4878
2026-01-19 08:16:42.44	77.59	14.49	-31.4	-34.1	10.9	1.67e-03	0	43	0	204472320	23	4907
2026-01-19 08:16:43.44	77.42	14.55	-31.4	-33.9	11.0	2.31e-03	0	43	0	206569472	23	4813
2026-01-19 08:16:44.44	77.25	14.61	-31.4	-33.9	11.1	1.66e-03	0	43	0	208666624	23	4797
2026-01-19 08:16:45.45	77.07	14.67	-31.3	-33.7	11.2	1.68e-03	0	43	0	209715200	23	4724
2026-01-19 08:16:46.45	76.90	14.74	-31.1	-33.0	11.7	6.40e-04	0	43	0	211812352	23	4492
2026-01-19 08:16:47.46	76.73	14.80	-30.9	-32.6	11.9	3.78e-04	0	43	0	213909504	23	4335
2026-01-19 08:16:48.47	76.55	14.86	-31.0	-32.7	11.9	5.58e-04	0	43	0	216006656	23	4383
2026-01-19 08:16:49.47	76.38	14.92	-30.9	-32.4	12.1	3.46e-04	0	43	0	218103808	23	4290
2026-01-19 08:16:50.46	76.21	14.98	-31.0	-32.6	12.0	2.33e-04	0	43	0	219152384	23	4362
2026-01-19 08:16:51.47	76.03	15.04	-30.9	-32.4	12.0	3.81e-04	0	43	0	221249536	23	4305
2026-01-19 08:16:52.47	75.85	15.10	-30.9	-32.9	12.2	1.91e-04	0	43	0	223346688	22	4525
2026-01-19 08:16:53.48	75.67	15.16	-30.7	-32.4	12.4	1.73e-04	0	43	0	225443840	22	4380
2026-01-19 08:16:54.48	75.50	15.22	-30.7	-32.4	12.5	9.68e-05	0	43	0	227540992	22	4372
2026-01-19 08:16:55.49	75.32	15.28	-30.7	-32.5	12.5	1.28e-04	0	43	0	228589568	22	4397
2026-01-19 08:16:56.49	75.14	15.34	-30.8	-32.7	12.3	1.82e-04	0	43	0	230686720	22	4476
2026-01-19 08:16:57.49	74.96	15.40	-30.7	-32.3	12.5	1.40e-04	0	43	0	232783872	22	4354
2026-01-19 08:16:58.48	74.78	15.46	-30.6	-32.2	12.6	9.76e-05	0	43	0	234881024	22	4304
2026-01-19 08:16:59.49	74.59	15.52	-30.8	-32.6	12.4	1.23e-04	0	43	0	236978176	22	4440
2026-01-19 08:17:00.49	74.41	15.58	-30.6	-32.2	12.7	1.38e-04	0	43	0	238026752	22	4282
2026-01-19 08:17:01.49	74.23	15.64	-30.6	-32.1	12.7	8.16e-05	0	43	0	240123904	22	4260
2026-01-19 08:17:02.49	74.05	15.69	-30.7	-32.2	12.7	8.77e-05	0	43	0	242221056	22	4281
2026-01-19 08:17:03.49	73.86	15.75	-30.5	-31.7	12.9	9.07e-05	0	43	0	244318208	22	4135
2026-01-19 08:17:04.49	73.68	15.81	-30.6	-32.0	12.8	4.95e-05	0	43	0	246415360	22	4220
2026-01-19 08:17:05.49	73.49	15.87	-30.5	-31.6	13.1	5.95e-05	0	43	0	247463936	22	4103
2026-01-19 08:17:06.50	73.30	15.93	-30.3	-31.2	13.3	1.83e-05	0	43	0	249561088	22	3993
2026-01-19 08:17:07.50	73.12	15.99	-30.4	-31.3	13.3	2.05e-05	0	43	0	251658240	22	4021
2026-01-19 08:17:08.51	72.93	16.05	-30.5	-31.7	13.1	2.44e-05	0	43	0	253755392	22	4128
2026-01-19 08:17:09.50	72.74	16.10	-30.6	-32.2	12.7	4.11e-05	0	43	0	254803968	22	4283
2026-01-19 08:17:10.51	72.55	16.16	-30.6	-32.0	12.8	9.53e-05	0	43	0	256901120	22	4246
2026-01-19 08:17:11.51	72.36	16.22	-30.6	-31.9	12.9	5.87e-05	0	43	0	258998272	22	4208
2026-01-19 08:17:12.51	72.17	16.27	-30.5	-31.6	13.1	3.96e-05	0	43	0	261095424	22	4124
2026-01-19 08:17:13.52	71.97	16.33	-30.4	-31.4	13.2	2.28e-05	0	43	0	263192576	22	4049
2026-01-19 08:17:14.52	71.78	16.39	-30.4	-31.5	13.2	1.83e-05	0	43	0	264241152	22	4065
2026-01-19 08:17:15.53	71.59	16.45	-30.4	-31.5	13.2	2.13e-05	0	43	0	266338304	22	4068
2026-01-19 08:17:16.53	71.39	16.50	-30.5	-31.8	13.0	2.13e-05	0	43	0	268435456	22	4168
2026-01-19 08:17:17.53	71.20	16.56	-30.5	-31.6	13.1	2.89e-05	0	43	0	270532608	22	4111
2026-01-19 08:17:18.53	71.00	16.61	-30.4	-31.5	13.2	2.82e-05	0	43	0	272629760	22	4072
2026-01-19 08:17:19.53	70.81	16.67	-30.4	-31.5	13.2	2.51e-05	0	43	0	273678336	22	4067
2026-01-19 08:17:20.53	70.61	16.72	-30.3	-31.7	13.4	1.22e-05	0	43	0	275775488	21	4211
2026-01-19 08:17:21.54	70.41	16.78	-30.3	-31.6	13.5	1.29e-05	0	43	0	277872640	21	4178
2026-01-19 08:17:22.54	70.21	16.84	-30.1	-31.2	13.7	9.10e-06	0	43	0	279969792	21	4071
2026-01-19 08:17:23.54	70.01	16.89	-30.2	-31.5	13.5	9.10e-06	0	43	0	282066944	21	4166
2026-01-19 08:17:24.55	69.81	16.95	-30.3	-31.7	13.3	1.37e-05	0	43	0	283115520	21	4222
2026-01-19 08:17:25.56	69.61	17.00	-30.3	-31.7	13.4	1.67e-05	0	43	0	285212672	21	4231
2026-01-19 08:17:26.57	69.41	17.05	-30.5	-32.2	13.0	3.81e-05	0	43	0	287309824	21	4394
2026-01-19 08:17:27.56	69.21	17.11	-30.5	-32.3	13.0	5.11e-05	0	43	0	289406976	21	4407
2026-01-19 08:17:28.56	69.00	17.16	-30.5	-32.3	13.0	3.81e-05	0	43	0	291504128	21	4405
2026-01-19 08:17:29.56	68.80	17.21	-30.7	-32.6	12.8	3.58e-05	0	43	0	292552704	21	4512
2026-01-19 08:17:30.56	68.60	17.27	-30.7	-32.8	12.7	6.33e-05	0	43	0	294649856	21	4579
2026-01-19 08:17:31.56	68.39	17.32	-30.5	-32.0	13.2	3.58e-05	0	43	0	296747008	21	4309
2026-01-19 08:17:32.57	68.19	17.37	-30.4	-32.0	13.3	1.83e-05	0	43	0	298844160	21	4289
2026-01-19 08:17:33.57	67.98	17.43	-30.6	-32.3	13.0	3.58e-05	0	43	0	299892736	21	4416
2026-01-19 08:17:34.56	67.77	17.48	-30.5	-32.1	13.2	2.51e-05	0	43	0	301989888	21	4345
2026-01-19 08:17:35.57	67.56	17.53	-30.5	-32.2	13.1	3.12e-05	0	43	0	304087040	21	4355
2026-01-19 08:17:36.57	67.36	17.58	-30.5	-32.2	13.1	1.90e-05	0	43	0	306184192	21	4352
2026-01-19 08:17:37.57	67.15	17.63	-30.4	-31.7	13.4	2.36e-05	0	43	0	308281344	21	4220
2026-01-19 08:17:38.58	66.94	17.68	-30.0	-30.7	14.1	6.80e-06	0	43	0	310378496	21	3912
2026-01-19 08:17:39.58	66.73	17.73	-29.8	-30.7	14.4	3.80e-06	0	43	0	311427072	20	3999
2026-01-19 08:17:40.58	66.51	17.78	-29.6	-30.2	14.7	7.00e-07	0	43	0	313524224	20	3864
2026-01-19 08:17:41.58	66.30	17.83	-29.4	-29.8	14.9	0.00e+00	0	43	0	315621376	20	3740
2026-01-19 08:17:42.59	66.09	17.88	-29.5	-30.0	14.9	0.00e+00	0	43	0	317718528	20	3816
2026-01-19 08:17:43.59	65.87	17.93	-29.5	-29.9	14.9	0.00e+00	0	43	0	318767104	20	3779
2026-01-19 08:17:44.60	65.66	17.98	-29.5	-30.3	15.1	0.00e+00	0	43	0	320864256	19	3968
2026-01-19 08:17:45.60	65.44	18.03	-29.5	-30.5	15.0	0.00e+00	0	43	0	322961408	19	4012
2026-01-19 08:17:46.61	65.23	18.08	-29.7	-31.0	14.7	0.00e+00	0	43	0	325058560	19	4165
2026-01-19 08:17:47.61	65.01	18.13	-29.9	-31.3	14.5	7.00e-07	0	43	0	327155712	19	4247
2026-01-19 08:17:48.61	64.79	18.18	-29.9	-31.4	14.4	7.00e-07	0	43	0	328204288	19	4261
2026-01-19 08:17:49.62	64.57	18.22	-30.0	-31.5	14.4	7.00e-07	0	43	0	330301440	19	4320
2026-01-19 08:17:50.62	64.36	18.27	-29.9	-31.0	14.3	2.20e-06	0	43	0	332398592	20	4079
2026-01-19 08:17:51.62	64.14	18.32	-30.1	-31.4	14.1	0.00e+00	0	43	0	334495744	20	4178
2026-01-19 08:17:52.63	63.92	18.36	-30.2	-31.6	13.9	4.50e-06	0	43	0	336592896	20	4251
2026-01-19 08:17:53.63	63.70	18.41	-30.1	-31.6	14.0	3.00e-06	0	43	0	337641472	20	4241
2026-01-19 08:17:54.63	63.47	18.46	-30.2	-31.7	13.9	6.10e-06	0	43	0	339738624	20	4289
2026-01-19 08:17:55.63	63.25	18.50	-30.2	-31.8	13.8	4.50e-06	0	43	0	341835776	20	4329
2026-01-19 08:17:56.63	63.03	18.55	-30.3	-32.0	13.7	4.50e-06	0	43	0	343932928	20	4365
2026-01-19 08:17:57.63	62.81	18.59	-30.3	-32.0	13.7	3.00e-06	0	43	0	346030080	20	4368
2026-01-19 08:17:58.64	62.58	18.64	-30.2	-31.8	13.8	1.06e-05	0	43	0	347078656	20	4317
2026-01-19 08:17:59.64	62.36	18.68	-30.1	-31.4	14.1	4.50e-06	0	44	0	349175808	20	4199
2026-01-19 08:18:00.65	62.13	18.72	-29.9	-31.0	14.3	1.50e-06	0	43	0	351272960	20	4086
2026-01-19 08:18:01.65	61.91	18.77	-29.8	-30.7	14.5	2.20e-06	0	43	0	353370112	20	3995
2026-01-19 08:18:02.65	61.68	18.81	-30.0	-31.2	14.2	0.00e+00	0	43	0	355467264	20	4134
2026-01-19 08:18:03.66	61.45	18.85	-29.9	-31.0	14.3	1.50e-06	0	43	0	356515840	20	4079
2026-01-19 08:18:04.67	61.22	18.89	-29.6	-30.1	14.9	0.00e+00	0	43	0	358612992	20	3825
2026-01-19 08:18:05.67	60.99	18.94	-29.4	-29.7	15.1	0.00e+00	0	43	0	360710144	20	3712
2026-01-19 08:18:06.68	60.76	18.98	-29.4	-30.0	15.3	0.00e+00	0	43	0	362807296	19	3889
2026-01-19 08:18:07.68	60.53	19.02	-29.4	-30.2	15.2	0.00e+00	0	43	0	364904448	19	3936
2026-01-19 08:18:08.70	60.30	19.06	-29.5	-30.4	15.1	0.00e+00	0	43	0	365953024	19	3989
2026-01-19 08:18:09.70	60.07	19.10	-29.5	-30.3	15.1	0.00e+00	0	43	0	368050176	19	3945
2026-01-19 08:18:10.70	59.84	19.14	-29.5	-30.3	15.1	0.00e+00	0	43	0	370147328	19	3946
2026-01-19 08:18:11.70	59.61	19.18	-29.5	-30.4	15.1	0.00e+00	0	43	0	372244480	19	3980
2026-01-19 08:18:12.70	59.37	19.22	-29.5	-30.4	15.1	7.00e-07	0	43	0	374341632	19	3981
2026-01-19 08:18:13.70	59.14	19.25	-29.5	-30.2	15.2	0.00e+00	0	43	0	375390208	19	3928
2026-01-19 08:18:14.70	58.91	19.29	-29.6	-30.5	15.0	0.00e+00	0	43	0	377487360	19	4005
2026-01-19 08:18:15.71	58.67	19.33	-29.5	-30.4	15.2	0.00e+00	0	43	0	379584512	19	3970
2026-01-19 08:18:16.71	58.44	19.37	-29.8	-31.0	14.8	0.00e+00	0	43	0	381681664	19	4139
2026-01-19 08:18:17.72	58.20	19.40	-29.8	-31.0	14.8	0.00e+00	0	43	0	382730240	19	4150
2026-01-19 08:18:18.72	57.96	19.44	-29.9	-31.3	14.6	0.00e+00	0	43	0	384827392	19	4233
2026-01-19 08:18:19.72	57.73	19.47	-30.0	-31.0	14.4	1.50e-06	0	43	0	386924544	20	4056
2026-01-19 08:18:20.72	57.49	19.51	-30.0	-31.2	14.3	0.00e+00	0	43	0	389021696	20	4110
2026-01-19 08:18:21.72	57.25	19.54	-30.1	-31.4	14.2	1.50e-06	0	43	0	391118848	20	4178
2026-01-19 08:18:22.73	57.01	19.58	-30.1	-31.5	14.0	7.00e-07	0	43	0	392167424	20	4218
2026-01-19 08:18:23.74	56.77	19.61	-30.1	-31.5	14.1	7.00e-07	0	43	0	394264576	20	4207
2026-01-19 08:18:24.74	56.53	19.64	-30.1	-31.3	14.2	2.20e-06	0	43	0	396361728	20	4155
2026-01-19 08:18:25.75	56.29	19.68	-30.1	-31.4	14.1	1.50e-06	0	43	0	398458880	20	4174
2026-01-19 08:18:26.75	56.05	19.71	-30.3	-31.9	13.8	2.20e-06	0	43	0	400556032	20	4339
2026-01-19 08:18:27.76	55.81	19.74	-30.5	-32.5	13.5	7.60e-06	0	43	0	401604608	20	4513
2026-01-19 08:18:28.75	55.57	19.77	-30.6	-32.2	13.3	9.10e-06	0	43	0	403701760	21	4332
2026-01-19 08:18:29.75	55.33	19.80	-30.5	-31.9	13.4	1.14e-05	0	43	0	405798912	21	4254
2026-01-19 08:18:30.75	55.09	19.83	-30.6	-32.3	13.2	1.60e-05	0	43	0	407896064	21	4388
2026-01-19 08:18:31.76	54.84	19.86	-30.7	-32.6	13.1	1.98e-05	0	44	0	409993216	21	4465
2026-01-19 08:18:32.76	54.60	19.89	-30.6	-32.4	13.1	3.05e-05	0	44	0	411041792	21	4415
2026-01-19 08:18:33.76	54.36	19.92	-30.7	-32.6	13.0	2.51e-05	0	43	0	413138944	21	4477
2026-01-19 08:18:34.77	54.11	19.95	-30.5	-32.0	13.4	3.12e-05	0	43	0	415236096	21	4289
2026-01-19 08:18:35.77	53.87	19.98	-30.4	-31.8	13.6	6.10e-06	0	43	0	417333248	21	4218
2026-01-19 08:18:36.78	53.62	20.00	-30.3	-31.5	13.6	2.20e-06	0	43	0	419430400	21	4123
2026-01-19 08:18:37.79	53.37	20.03	-30.5	-31.9	13.5	3.00e-06	0	43	0	420478976	21	4237
2026-01-19 08:18:38.80	53.13	20.06	-30.4	-31.8	13.5	6.80e-06	0	43	0	422576128	21	4205
2026-01-19 08:18:39.80	52.88	20.08	-30.5	-32.0	13.4	1.14e-05	0	43	0	424673280	21	4285
2026-01-19 08:18:40.81	52.63	20.11	-30.9	-33.1	12.7	6.25e-05	0	43	0	426770432	21	4633
2026-01-19 08:18:41.81	52.38	20.13	-31.1	-33.3	12.3	1.79e-04	0	43	0	428867584	22	4613
2026-01-19 08:18:42.81	52.14	20.16	-31.0	-33.1	12.4	3.07e-04	0	43	0	429916160	22	4545
2026-01-19 08:18:43.81	51.89	20.18	-30.8	-32.5	12.7	1.07e-04	0	43	0	432013312	22	4343
2026-01-19 08:18:44.81	51.64	20.20	-30.7	-32.2	12.9	4.42e-05	0	43	0	434110464	22	4266
2026-01-19 08:18:45.81	51.39	20.22	-30.8	-32.4	12.8	5.11e-05	0	43	0	436207616	22	4327
2026-01-19 08:18:46.82	51.14	20.25	-30.9	-32.5	12.8	7.47e-05	0	43	0	437256192	22	4358
2026-01-19 08:18:47.82	50.89	20.27	-31.0	-32.9	12.5	6.48e-05	0	43	0	439353344	22	4475
2026-01-19 08:18:48.83	50.64	20.29	-30.8	-32.5	12.8	6.56e-05	0	43	0	441450496	22	4342
2026-01-19 08:18:49.83	50.39	20.31	-31.0	-32.9	12.5	7.01e-05	0	43	0	443547648	22	4484
2026-01-19 08:18:50.84	50.14	20.33	-31.0	-33.1	12.4	1.50e-04	0	43	0	445644800	22	4544
2026-01-19 08:18:51.84	49.89	20.35	-31.1	-33.3	12.2	1.76e-04	0	43	0	447741952	22	4611
2026-01-19 08:18:52.84	49.64	20.36	-31.0	-33.0	12.4	1.55e-04	0	43	0	448790528	22	4509
2026-01-19 08:18:53.85	49.39	20.38	-30.8	-32.5	12.7	7.24e-05	0	43	0	450887680	22	4365
2026-01-19 08:18:54.85	49.14	20.40	-30.7	-32.2	12.9	4.73e-05	0	43	0	452984832	22	4268
2026-01-19 08:18:55.86	48.88	20.42	-30.7	-32.2	12.9	5.03e-05	0	44	0	455081984	22	4255
2026-01-19 08:18:56.86	48.63	20.43	-30.8	-32.3	12.9	4.50e-05	0	43	0	456130560	22	4272
2026-01-19 08:18:57.86	48.38	20.45	-30.8	-32.3	12.9	3.73e-05	0	43	0	458227712	22	4291
2026-01-19 08:18:58.86	48.13	20.46	-31.1	-33.1	12.4	1.09e-04	0	43	0	460324864	22	4560
2026-01-19 08:18:59.87	47.87	20.48	-31.0	-33.0	12.4	1.87e-04	0	43	0	462422016	22	4527
2026-01-19 08:19:00.87	47.62	20.49	-31.2	-33.7	11.9	1.75e-04	0	43	0	464519168	22	4762
2026-01-19 08:19:01.87	47.37	20.50	-31.2	-33.6	12.0	4.17e-04	0	43	0	465567744	22	4739
2026-01-19 08:19:02.88	47.11	20.52	-31.2	-33.7	11.9	3.92e-04	0	43	0	467664896	22	4772
2026-01-19 08:19:03.89	46.86	20.53	-31.3	-33.9	11.7	3.21e-04	0	43	0	469762048	22	4859
2026-01-19 08:19:04.89	46.60	20.54	-31.4	-34.2	11.6	5.79e-04	0	43	0	471859200	22	4951
2026-01-19 08:19:05.89	46.35	20.55	-31.1	-33.4	12.1	4.68e-04	0	43	0	473956352	22	4678
2026-01-19 08:19:06.89	46.10	20.56	-31.1	-33.1	12.3	2.10e-04	0	43	0	475004928	22	4581
2026-01-19 08:19:07.89	45.84	20.57	-31.0	-33.0	12.4	1.56e-04	0	43	0	477102080	22	4536
2026-01-19 08:19:08.90	45.59	20.58	-30.9	-32.7	12.6	1.56e-04	0	44	0	479199232	22	4435
2026-01-19 08:19:09.90	45.33	20.59	-31.1	-33.3	12.2	1.80e-04	0	43	0	481296384	22	4618
2026-01-19 08:19:10.90	45.08	20.60	-31.0	-32.9	12.5	1.67e-04	0	43	0	483393536	22	4499
2026-01-19 08:19:11.91	44.82	20.60	-30.9	-32.6	12.7	5.49e-05	0	43	0	484442112	22	4391
2026-01-19 08:19:12.91	44.57	20.61	-30.8	-32.4	12.8	5.49e-05	0	43	0	486539264	22	4336
2026-01-19 08:19:13.92	44.31	20.62	-30.9	-32.7	12.7	5.64e-05	0	43	0	488636416	22	4406
2026-01-19 08:19:14.92	44.05	20.62	-30.7	-32.0	13.1	3.50e-05	0	43	0	490733568	22	4197
2026-01-19 08:19:15.92	43.80	20.63	-30.5	-31.6	13.3	2.05e-05	0	44	0	492830720	22	4091
2026-01-19 08:19:16.93	43.54	20.63	-30.5	-31.4	13.4	1.14e-05	0	43	0	493879296	22	4025
2026-01-19 08:19:17.93	43.29	20.64	-30.5	-31.5	13.4	8.30e-06	0	43	0	495976448	22	4032
2026-01-19 08:19:18.93	43.03	20.64	-30.6	-31.8	13.2	1.75e-05	0	44	0	498073600	22	4143
2026-01-19 08:19:19.94	42.77	20.64	-30.5	-31.6	13.3	1.52e-05	0	43	0	500170752	22	4075
2026-01-19 08:19:20.95	42.52	20.64	-30.6	-31.8	13.3	1.29e-05	0	43	0	502267904	22	4127
2026-01-19 08:19:21.95	42.26	20.64	-30.7	-32.2	13.0	3.28e-05	0	43	0	503316480	22	4255
2026-01-19 08:19:22.95	42.01	20.65	-30.8	-32.4	12.8	5.64e-05	0	43	0	505413632	22	4308
2026-01-19 08:19:23.96	41.75	20.65	-30.9	-32.6	12.7	6.33e-05	0	43	0	507510784	22	4393
2026-01-19 08:19:24.96	41.49	20.65	-31.1	-33.3	12.2	1.80e-04	0	44	0	509607936	22	4616
2026-01-19 08:19:25.96	41.24	20.64	-31.0	-32.9	12.4	1.31e-04	0	43	0	510656512	22	4493
2026-01-19 08:19:26.96	40.98	20.64	-31.3	-33.6	11.9	2.26e-04	0	43	0	512753664	22	4737
2026-01-19 08:19:27.96	40.73	20.64	-31.1	-33.1	12.3	3.46e-04	0	43	0	514850816	22	4554
2026-01-19 08:19:28.96	40.47	20.64	-31.1	-33.3	12.2	2.58e-04	0	43	0	516947968	22	4613
2026-01-19 08:19:29.95	40.22	20.63	-31.0	-32.9	12.4	1.84e-04	0	43	0	519045120	22	4471
2026-01-19 08:19:30.95	39.97	20.63	-31.0	-33.0	12.4	1.25e-04	0	43	0	520093696	22	4497
2026-01-19 08:19:31.95	39.71	20.63	-30.9	-32.6	12.7	7.24e-05	0	43	0	522190848	22	4361
2026-01-19 08:19:32.95	39.46	20.62	-30.9	-32.5	12.8	6.25e-05	0	44	0	524288000	22	4332
2026-01-19 08:19:33.95	39.20	20.61	-30.5	-31.6	13.3	4.57e-05	0	43	0	526385152	22	4061
2026-01-19 08:19:34.96	38.95	20.61	-30.3	-30.9	13.8	8.30e-06	0	43	0	528482304	22	3869
2026-01-19 08:19:35.95	38.69	20.60	-30.1	-30.9	14.0	3.00e-06	0	43	0	529530880	21	3956
2026-01-19 08:19:36.96	38.44	20.59	-30.1	-30.9	14.0	7.00e-07	0	43	0	531628032	21	3955
2026-01-19 08:19:37.96	38.18	20.58	-30.4	-31.6	13.7	4.50e-06	0	43	0	533725184	21	4152
2026-01-19 08:19:38.97	37.93	20.58	-30.0	-30.7	14.2	2.20e-06	0	43	0	535822336	21	3897
2026-01-19 08:19:39.96	37.67	20.57	-29.8	-30.2	14.5	0.00e+00	0	44	0	537919488	21	3764
2026-01-19 08:19:40.96	37.42	20.56	-29.6	-30.1	14.9	7.00e-07	0	43	0	538968064	20	3805
2026-01-19 08:19:41.96	37.17	20.55	-29.7	-30.5	14.7	0.00e+00	0	43	0	541065216	20	3913
2026-01-19 08:19:42.97	36.91	20.53	-29.7	-30.3	14.8	1.50e-06	0	44	0	543162368	20	3866
2026-01-19 08:19:43.97	36.66	20.52	-29.7	-30.5	14.7	0.00e+00	0	43	0	545259520	20	3921
2026-01-19 08:19:44.97	36.41	20.51	-29.7	-30.5	14.7	7.00e-07	0	43	0	546308096	20	3912
2026-01-19 08:19:45.98	36.15	20.50	-30.0	-31.1	14.3	2.20e-06	0	43	0	548405248	20	4091
2026-01-19 08:19:46.98	35.90	20.48	-29.9	-31.0	14.3	1.50e-06	0	43	0	550502400	20	4055
2026-01-19 08:19:47.97	35.65	20.47	-30.0	-31.1	14.3	7.00e-07	0	43	0	552599552	20	4083
2026-01-19 08:19:48.98	35.39	20.45	-29.8	-30.7	14.5	7.00e-07	0	43	0	554696704	20	3990
2026-01-19 08:19:49.98	35.14	20.44	-29.6	-30.2	14.8	0.00e+00	0	43	0	555745280	20	3838
2026-01-19 08:19:50.98	34.89	20.42	-29.6	-30.2	14.8	0.00e+00	0	43	0	557842432	20	3839
2026-01-19 08:19:51.98	34.64	20.41	-29.6	-30.1	14.8	0.00e+00	0	43	0	559939584	20	3819
2026-01-19 08:19:52.99	34.39	20.39	-29.6	-30.1	14.9	0.00e+00	0	44	0	562036736	20	3815
2026-01-19 08:19:53.99	34.14	20.37	-29.7	-30.3	14.8	0.00e+00	0	44	0	564133888	20	3863
2026-01-19 08:19:54.99	33.89	20.35	-29.5	-29.7	15.1	0.00e+00	0	43	0	565182464	20	3717
2026-01-19 08:19:56.00	33.63	20.34	-29.5	-29.9	15.0	0.00e+00	0	44	0	567279616	20	3763
2026-01-19 08:19:57.00	33.38	20.32	-29.7	-30.3	14.8	0.00e+00	0	43	0	569376768	20	3875
2026-01-19 08:19:58.00	33.13	20.30	-29.7	-30.3	14.8	0.00e+00	0	44	0	571473920	20	3865
2026-01-19 08:19:59.01	32.88	20.28	-29.8	-30.6	14.6	0.00e+00	0	43	0	573571072	20	3971
2026-01-19 08:20:00.02	32.63	20.26	-29.8	-30.6	14.6	7.00e-07	0	44	0	574619648	20	3944
2026-01-19 08:20:01.02	32.38	20.23	-29.6	-30.1	14.9	0.00e+00	0	43	0	576716800	20	3805
2026-01-19 08:20:02.02	32.14	20.21	-29.6	-30.1	14.9	7.00e-07	0	43	0	578813952	20	3810
2026-01-19 08:20:03.03	31.89	20.19	-29.5	-30.0	15.0	7.00e-07	0	44	0	580911104	20	3787
2026-01-19 08:20:04.03	31.64	20.17	-29.6	-30.1	14.9	0.00e+00	0	44	0	583008256	20	3830
2026-01-19 08:20:05.03	31.39	20.14	-29.5	-29.8	15.1	7.00e-07	0	43	0	584056832	20	3736
2026-01-19 08:20:06.03	31.15	20.12	-29.7	-30.3	14.8	7.00e-07	0	43	0	586153984	20	3865
2026-01-19 08:20:07.04	30.90	20.09	-29.6	-30.0	14.9	0.00e+00	0	43	0	588251136	20	3780
2026-01-19 08:20:08.04	30.65	20.07	-29.4	-29.7	15.2	0.00e+00	0	43	0	590348288	20	3700
2026-01-19 08:20:09.04	30.41	20.04	-29.7	-30.4	14.7	0.00e+00	0	43	0	592445440	20	3897
2026-01-19 08:20:10.04	30.16	20.02	-30.0	-31.0	14.4	1.50e-06	0	43	0	593494016	20	4060
2026-01-19 08:20:11.04	29.92	19.99	-30.3	-32.0	13.7	2.20e-06	0	44	0	595591168	20	4352
2026-01-19 08:20:12.05	29.67	19.96	-30.4	-32.3	13.5	4.50e-06	0	43	0	597688320	20	4447
2026-01-19 08:20:13.05	29.43	19.93	-30.7	-32.4	13.1	1.29e-05	0	44	0	599785472	21	4395
2026-01-19 08:20:14.06	29.18	19.91	-30.6	-32.2	13.2	2.44e-05	0	44	0	600834048	21	4325
2026-01-19 08:20:15.06	28.94	19.88	-30.6	-32.3	13.1	2.28e-05	0	43	0	602931200	21	4373
2026-01-19 08:20:16.06	28.70	19.85	-30.5	-31.9	13.4	1.44e-05	0	44	0	605028352	21	4238
2026-01-19 08:20:17.07	28.45	19.82	-30.6	-32.2	13.3	1.06e-05	0	44	0	607125504	21	4343
2026-01-19 08:20:18.07	28.21	19.79	-30.5	-32.1	13.3	1.14e-05	0	44	0	609222656	21	4294
2026-01-19 08:20:19.08	27.97	19.76	-30.5	-32.1	13.3	1.22e-05	0	44	0	611319808	21	4315
2026-01-19 08:20:20.08	27.73	19.72	-30.7	-32.4	13.0	2.28e-05	0	43	0	612368384	21	4421
2026-01-19 08:20:21.08	27.49	19.69	-30.8	-32.7	12.9	3.05e-05	0	44	0	614465536	21	4504
2026-01-19 08:20:22.09	27.25	19.66	-30.8	-32.9	12.8	4.50e-05	0	43	0	616562688	21	4573
2026-01-19 08:20:23.09	27.01	19.63	-30.8	-32.9	12.7	6.33e-05	0	43	0	618659840	21	4574
2026-01-19 08:20:24.10	26.77	19.59	-31.1	-33.2	12.3	7.24e-05	0	43	0	619708416	22	4559
2026-01-19 08:20:25.10	26.53	19.56	-31.1	-33.0	12.4	1.30e-04	0	43	0	621805568	22	4489
2026-01-19 08:20:26.10	26.29	19.53	-31.2	-33.3	12.2	2.22e-04	0	43	0	623902720	22	4616
2026-01-19 08:20:27.11	26.06	19.49	-31.2	-33.5	12.1	2.29e-04	0	44	0	625999872	22	4690
2026-01-19 08:20:28.11	25.82	19.46	-31.4	-34.0	11.7	4.11e-04	0	43	0	628097024	22	4863
2026-01-19 08:20:29.11	25.58	19.42	-31.1	-33.3	12.2	3.82e-04	0	44	0	629145600	22	4613
2026-01-19 08:20:30.12	25.35	19.38	-31.1	-33.2	12.2	1.66e-04	0	44	0	631242752	22	4582
2026-01-19 08:20:31.12	25.11	19.35	-30.9	-32.6	12.6	9.46e-05	0	44	0	633339904	22	4381
2026-01-19 08:20:32.13	24.88	19.31	-30.9	-32.6	12.6	7.55e-05	0	44	0	635437056	22	4381
2026-01-19 08:20:33.13	24.64	19.27	-30.9	-32.5	12.7	8.08e-05	0	43	0	637534208	22	4338
2026-01-19 08:20:34.13	24.41	19.23	-30.6	-31.6	13.3	4.11e-05	0	44	0	638582784	22	4076
2026-01-19 08:20:35.14	24.18	19.20	-30.5	-31.4	13.4	2.05e-05	0	44	0	640679936	22	4004
2026-01-19 08:20:36.14	23.95	19.16	-30.5	-31.5	13.4	1.14e-05	0	44	0	642777088	22	4026
2026-01-19 08:20:37.14	23.72	19.12	-30.7	-32.1	13.0	1.22e-05	0	44	0	644874240	22	4207
2026-01-19 08:20:38.14	23.49	19.08	-30.7	-32.1	12.9	2.67e-05	0	44	0	646971392	22	4210
2026-01-19 08:20:39.15	23.25	19.04	-30.7	-31.9	13.1	3.50e-05	0	44	0	648019968	22	4163
2026-01-19 08:20:40.15	23.03	19.00	-30.6	-31.9	13.0	4.04e-05	0	44	0	650117120	22	4165
2026-01-19 08:20:41.14	22.80	18.96	-30.6	-31.8	13.1	4.27e-05	0	43	0	652214272	22	4141
2026-01-19 08:20:42.14	22.57	18.92	-30.4	-31.2	13.4	2.05e-05	0	43	0	654311424	22	3952
2026-01-19 08:20:43.15	22.34	18.87	-30.2	-31.2	13.8	3.00e-06	0	44	0	656408576	21	4048
2026-01-19 08:20:44.15	22.12	18.83	-30.0	-30.8	14.1	7.00e-07	0	44	0	657457152	21	3921
2026-01-19 08:20:45.16	21.89	18.79	-29.9	-30.8	14.4	0.00e+00	0	44	0	659554304	20	4009
2026-01-19 08:20:46.16	21.66	18.75	-29.9	-30.9	14.3	0.00e+00	0	43	0	661651456	20	4029
2026-01-19 08:20:47.16	21.44	18.70	-29.7	-30.5	14.5	7.00e-07	0	44	0	663748608	20	3930
2026-01-19 08:20:48.17	21.21	18.66	-29.9	-31.0	14.2	2.20e-06	0	44	0	664797184	20	4054
2026-01-19 08:20:49.17	20.99	18.62	-29.9	-31.0	14.2	0.00e+00	0	44	0	666894336	20	4062
2026-01-19 08:20:50.17	20.77	18.57	-29.9	-31.0	14.3	7.00e-07	0	44	0	668991488	20	4067
2026-01-19 08:20:51.18	20.54	18.53	-30.0	-31.1	14.2	7.00e-07	0	43	0	671088640	20	4094
2026-01-19 08:20:52.18	20.32	18.48	-30.1	-31.5	13.9	7.00e-07	0	43	0	673185792	20	4218
2026-01-19 08:20:53.19	20.10	18.44	-30.3	-32.1	13.5	6.80e-06	0	44	0	674234368	20	4397
2026-01-19 08:20:54.20	19.88	18.39	-30.6	-32.4	12.9	3.05e-05	0	44	0	676331520	21	4431
2026-01-19 08:20:55.20	19.66	18.34	-31.0	-33.4	12.3	8.01e-05	0	44	0	678428672	21	4754
2026-01-19 08:20:56.20	19.44	18.30	-31.3	-33.8	11.7	2.07e-04	0	44	0	680525824	22	4813
2026-01-19 08:20:57.20	19.22	18.25	-31.4	-34.0	11.6	7.12e-04	0	44	0	682622976	22	4902
2026-01-19 08:20:58.20	19.01	18.20	-31.3	-33.7	11.7	6.96e-04	0	44	0	683671552	22	4772
2026-01-19 08:20:59.20	18.79	18.16	-31.0	-33.1	12.2	3.54e-04	0	44	0	685768704	22	4573
2026-01-19 08:21:00.20	18.57	18.11	-31.0	-33.1	12.2	1.96e-04	0	44	0	687865856	22	4547
2026-01-19 08:21:01.20	18.36	18.06	-31.2	-33.5	11.9	3.35e-04	0	44	0	689963008	22	4713
2026-01-19 08:21:02.20	18.14	18.01	-31.2	-33.5	11.9	3.90e-04	0	43	0	692060160	22	4695
2026-01-19 08:21:03.21	17.93	17.96	-31.4	-34.1	11.4	4.65e-04	0	44	0	693108736	22	4953
2026-01-19 08:21:04.21	17.72	17.91	-31.5	-34.2	11.0	1.56e-03	0	44	0	695205888	23	4883
2026-01-19 08:21:05.21	17.50	17.86	-31.7	-34.5	10.8	2.01e-03	0	43	0	697303040	23	5020
2026-01-19 08:21:06.21	17.29	17.81	-31.7	-34.6	10.8	3.06e-03	0	43	0	699400192	23	5039
2026-01-19 08:21:07.22	17.08	17.76	-31.7	-34.8	10.6	3.29e-03	0	44	0	701497344	23	5106
2026-01-19 08:21:08.23	16.87	17.71	-31.5	-34.1	11.0	2.75e-03	0	43	0	702545920	23	4864
2026-01-19 08:21:09.23	16.66	17.66	-31.2	-33.3	11.7	1.46e-03	0	43	0	704643072	23	4541
2026-01-19 08:21:10.24	16.45	17.61	-31.0	-32.6	12.1	2.97e-04	0	44	0	706740224	23	4328
2026-01-19 08:21:11.24	16.24	17.56	-30.9	-32.2	12.4	1.29e-04	0	44	0	708837376	23	4170
2026-01-19 08:21:12.24	16.03	17.51	-30.8	-32.4	12.7	1.03e-04	0	44	0	710934528	22	4313
2026-01-19 08:21:13.24	15.83	17.46	-30.7	-32.1	12.8	8.01e-05	0	43	0	711983104	22	4235
2026-01-19 08:21:14.24	15.62	17.41	-30.7	-32.0	13.0	3.28e-05	0	44	0	714080256	22	4205
2026-01-19 08:21:15.24	15.41	17.35	-30.6	-31.8	13.1	6.25e-05	0	44	0	716177408	22	4125
2026-01-19 08:21:16.24	15.21	17.30	-30.5	-31.6	13.1	3.28e-05	0	44	0	718274560	22	4070
2026-01-19 08:21:17.25	15.00	17.25	-30.6	-31.8	13.0	3.12e-05	0	44	0	720371712	22	4150
2026-01-19 08:21:18.26	14.80	17.19	-30.5	-31.6	13.1	3.12e-05	0	44	0	721420288	22	4090
2026-01-19 08:21:19.27	14.60	17.14	-30.7	-32.1	12.8	4.50e-05	0	44	0	723517440	22	4231
2026-01-19 08:21:20.27	14.39	17.09	-30.7	-32.2	12.8	7.24e-05	0	44	0	725614592	22	4267
2026-01-19 08:21:21.28	14.19	17.03	-30.8	-32.5	12.5	1.11e-04	0	44	0	727711744	22	4376
2026-01-19 08:21:22.28	13.99	16.98	-31.0	-33.0	12.2	2.54e-04	0	44	0	729808896	22	4532
2026-01-19 08:21:23.29	13.79	16.92	-31.1	-33.3	12.0	2.24e-04	0	44	0	730857472	22	4645
2026-01-19 08:21:24.29	13.59	16.87	-31.1	-33.4	11.9	4.57e-04	0	44	0	732954624	22	4655
2026-01-19 08:21:25.29	13.39	16.81	-30.8	-32.5	12.5	1.89e-04	0	43	0	735051776	22	4381
2026-01-19 08:21:26.30	13.20	16.76	-30.5	-31.6	13.1	4.95e-05	0	44	0	737148928	22	4080
2026-01-19 08:21:27.30	13.00	16.70	-30.2	-31.3	13.6	1.22e-05	0	43	0	738197504	21	4084
2026-01-19 08:21:28.30	12.80	16.65	-30.2	-31.4	13.6	1.67e-05	0	44	0	740294656	21	4117
2026-01-19 08:21:29.31	12.61	16.59	-30.3	-31.6	13.4	9.90e-06	0	44	0	742391808	21	4165
2026-01-19 08:21:30.30	12.42	16.54	-30.6	-32.3	12.9	1.52e-05	0	44	0	744488960	21	4401
2026-01-19 08:21:31.31	12.22	16.48	-30.8	-33.1	12.4	8.69e-05	0	44	0	746586112	21	4661
2026-01-19 08:21:32.32	12.03	16.42	-31.1	-33.5	11.8	2.84e-04	0	44	0	747634688	22	4709
2026-01-19 08:21:33.32	11.83	16.37	-31.2	-33.7	11.6	6.51e-04	0	44	0	749731840	22	4807
2026-01-19 08:21:34.32	11.64	16.31	-31.6	-34.4	10.8	1.55e-03	0	43	0	751828992	23	4974
2026-01-19 08:21:35.33	11.45	16.25	-31.5	-34.1	10.9	2.34e-03	0	43	0	753926144	23	4866
2026-01-19 08:21:36.33	11.26	16.20	-31.5	-34.3	10.9	2.19e-03	0	43	0	756023296	23	4930
2026-01-19 08:21:37.33	11.07	16.14	-31.5	-34.1	11.0	1.77e-03	0	44	0	757071872	23	4842
2026-01-19 08:21:38.34	10.88	16.08	-31.4	-33.9	11.2	1.36e-03	0	44	0	759169024	23	4774
2026-01-19 08:21:39.34	10.69	16.02	-31.3	-33.4	11.5	1.44e-03	0	44	0	761266176	23	4588
2026-01-19 08:21:40.35	10.51	15.97	-31.0	-32.7	12.0	5.65e-04	0	44	0	763363328	23	4348
2026-01-19 08:21:41.35	10.32	15.91	-30.8	-32.0	12.4	2.12e-04	0	44	0	765460480	23	4134
2026-01-19 08:21:42.36	10.13	15.85	-30.7	-32.1	12.7	8.54e-05	0	43	0	766509056	22	4230
2026-01-19 08:21:43.36	9.95	15.79	-30.7	-32.1	12.7	6.10e-05	0	44	0	768606208	22	4246
2026-01-19 08:21:44.36	9.76	15.73	-30.7	-32.1	12.7	5.11e-05	0	44	0	770703360	22	4234
2026-01-19 08:21:45.37	9.58	15.67	-30.7	-32.2	12.6	8.85e-05	0	43	0	772800512	22	4284
2026-01-19 08:21:46.37	9.40	15.61	-30.6	-31.9	12.9	7.93e-05	0	44	0	774897664	22	4175
2026-01-19 08:21:47.37	9.22	15.56	-30.7	-32.0	12.8	7.40e-05	0	44	0	775946240	22	4227
2026-01-19 08:21:48.36	9.04	15.50	-30.7	-32.1	12.7	9.07e-05	0	43	0	778043392	22	4240
2026-01-19 08:21:49.36	8.86	15.44	-30.6	-31.9	12.8	6.86e-05	0	44	0	780140544	22	4200
2026-01-19 08:21:50.36	8.68	15.38	-30.7	-32.2	12.7	6.33e-05	0	44	0	782237696	22	4272
2026-01-19 08:21:51.36	8.50	15.32	-30.9	-32.7	12.3	1.69e-04	0	43	0	783286272	22	4445
2026-01-19 08:21:52.36	8.32	15.26	-31.0	-33.2	12.0	3.17e-04	0	44	0	785383424	22	4614
2026-01-19 08:21:53.37	8.14	15.20	-31.1	-33.4	11.9	3.97e-04	0	44	0	787480576	22	4678
2026-01-19 08:21:54.37	7.97	15.14	-31.2	-33.8	11.6	6.03e-04	0	44	0	789577728	22	4829
2026-01-19 08:21:55.38	7.79	15.08	-31.2	-33.6	11.7	5.51e-04	0	44	0	791674880	22	4755
2026-01-19 08:21:56.38	7.61	15.02	-31.0	-33.2	12.0	3.72e-04	0	44	0	793772032	22	4598
2026-01-19 08:21:57.39	7.44	14.96	-31.0	-32.9	12.1	2.97e-04	0	44	0	794820608	22	4520
2026-01-19 08:21:58.39	7.26	14.90	-30.8	-32.6	12.4	1.51e-04	0	44	0	796917760	22	4401
2026-01-19 08:21:59.39	7.09	14.84	-30.9	-32.7	12.3	1.32e-04	0	44	0	799014912	22	4425
2026-01-19 08:22:00.40	6.92	14.78	-30.9	-32.8	12.2	1.62e-04	0	44	0	801112064	22	4484
2026-01-19 08:22:01.40	6.74	14.72	-31.0	-32.9	12.1	1.90e-04	0	44	0	802160640	22	4517
2026-01-19 08:22:02.40	6.57	14.66	-31.0	-33.1	12.0	4.29e-04	0	44	0	804257792	22	4574
2026-01-19 08:22:03.41	6.40	14.59	-31.1	-33.3	11.9	3.08e-04	0	44	0	806354944	22	4652
2026-01-19 08:22:04.41	6.23	14.53	-31.1	-33.4	11.8	5.54e-04	0	44	0	808452096	22	4701
2026-01-19 08:22:05.41	6.06	14.47	-31.1	-33.5	11.7	4.77e-04	0	44	0	810549248	22	4722
2026-01-19 08:22:06.41	5.90	14.41	-31.1	-33.3	11.9	4.09e-04	0	44	0	811597824	22	4643
2026-01-19 08:22:07.41	5.73	14.35	-31.2	-33.6	11.8	4.86e-04	0	44	0	813694976	22	4743
2026-01-19 08:22:08.41	5.56	14.29	-31.2	-33.8	11.5	1.04e-03	0	43	0	815792128	22	4815
2026-01-19 08:22:09.42	5.40	14.23	-31.0	-33.1	12.0	4.47e-04	0	44	0	817889280	22	4589
2026-01-19 08:22:10.42	5.23	14.17	-31.0	-32.9	12.1	3.12e-04	0	44	0	819986432	22	4516
2026-01-19 08:22:11.42	5.07	14.10	-30.9	-32.6	12.3	2.07e-04	0	44	0	821035008	22	4421
2026-01-19 08:22:12.43	4.90	14.04	-30.8	-32.4	12.4	1.52e-04	0	44	0	823132160	22	4342
2026-01-19 08:22:13.43	4.74	13.98	-30.9	-32.6	12.3	1.42e-04	0	44	0	825229312	22	4419
2026-01-19 08:22:14.43	4.58	13.92	-30.9	-32.6	12.3	1.94e-04	0	44	0	827326464	22	4412
2026-01-19 08:22:15.44	4.41	13.86	-30.8	-32.4	12.5	1.28e-04	0	44	0	829423616	22	4351
2026-01-19 08:22:16.43	4.25	13.79	-30.6	-31.9	12.8	5.87e-05	0	44	0	830472192	22	4173
2026-01-19 08:22:17.44	4.09	13.73	-30.7	-32.0	12.7	5.64e-05	0	44	0	832569344	22	4222
2026-01-19 08:22:18.44	3.93	13.67	-30.5	-31.7	12.9	6.33e-05	0	44	0	834666496	22	4119
2026-01-19 08:22:19.44	3.77	13.61	-30.6	-31.8	12.8	4.73e-05	0	44	0	836763648	22	4144
2026-01-19 08:22:20.44	3.61	13.55	-30.6	-31.9	12.8	5.41e-05	0	44	0	838860800	22	4180
2026-01-19 08:22:21.44	3.46	13.48	-30.6	-31.9	12.8	5.79e-05	0	44	0	839909376	22	4174
2026-01-19 08:22:22.44	3.30	13.42	-30.6	-32.0	12.8	5.56e-05	0	44	0	842006528	22	4194
2026-01-19 08:22:23.45	3.14	13.36	-30.6	-31.7	12.9	7.93e-05	0	44	0	844103680	22	4111
2026-01-19 08:22:24.45	2.99	13.30	-30.5	-31.5	13.0	5.03e-05	0	44	0	846200832	22	4062
2026-01-19 08:22:25.46	2.83	13.23	-30.4	-31.3	13.2	2.74e-05	0	44	0	847249408	22	3998
2026-01-19 08:22:26.46	2.68	13.17	-30.4	-31.4	13.1	3.12e-05	0	44	0	849346560	22	4023
2026-01-19 08:22:27.46	2.52	13.11	-30.6	-31.8	12.8	3.43e-05	0	44	0	851443712	22	4148
2026-01-19 08:22:28.46	2.37	13.04	-30.6	-32.0	12.7	9.91e-05	0	44	0	853540864	22	4209
2026-01-19 08:22:29.47	2.22	12.98	-30.4	-31.4	13.1	3.43e-05	0	44	0	855638016	22	4044
2026-01-19 08:22:30.47	2.07	12.92	-30.4	-31.5	13.0	4.04e-05	0	44	0	856686592	22	4046
2026-01-19 08:22:31.47	1.91	12.86	-30.6	-32.0	12.8	3.73e-05	0	43	0	858783744	22	4214
2026-01-19 08:22:32.48	1.76	12.79	-30.6	-32.0	12.7	6.33e-05	0	43	0	860880896	22	4227
2026-01-19 08:22:33.48	1.61	12.73	-30.8	-32.3	12.5	1.17e-04	0	43	0	862978048	22	4323
2026-01-19 08:22:34.49	1.46	12.67	-30.8	-32.5	12.3	1.47e-04	0	44	0	865075200	22	4387
2026-01-19 08:22:35.50	1.31	12.60	-30.9	-32.7	12.2	2.04e-04	0	44	0	866123776	22	4429
2026-01-19 08:22:36.50	1.17	12.54	-30.7	-32.2	12.5	1.56e-04	0	43	0	868220928	22	4292
2026-01-19 08:22:37.50	1.02	12.48	-30.7	-32.3	12.5	1.11e-04	0	44	0	870318080	22	4293
2026-01-19 08:22:38.50	0.87	12.41	-30.5	-31.7	12.8	6.86e-05	0	44	0	872415232	22	4133
2026-01-19 08:22:39.51	0.73	12.35	-30.6	-31.9	12.7	5.72e-05	0	44	0	874512384	22	4187
2026-01-19 08:22:40.51	0.58	12.29	-30.6	-31.9	12.7	1.11e-04	0	44	0	875560960	22	4178
2026-01-19 08:22:41.51	0.44	12.22	-30.6	-31.8	12.8	4.65e-05	0	44	0	877658112	22	4149
2026-01-19 08:22:42.51	0.29	12.16	-30.6	-31.9	12.7	7.70e-05	0	44	0	879755264	22	4174
2026-01-19 08:22:43.51	0.15	12.10	-30.4	-31.3	13.1	4.42e-05	0	44	0	881852416	22	3993
2026-01-19 08:22:44.51	0.01	12.04	-30.4	-31.4	13.1	2.59e-05	0	44	0	883949568	22	4029
2026-01-19 08:22:45.51	359.87	11.97	-30.3	-31.2	13.2	2.97e-05	0	44	0	884998144	22	3969
2026-01-19 08:22:46.52	359.72	11.91	-30.5	-31.6	12.9	3.35e-05	0	44	0	887095296	22	4097
2026-01-19 08:22:47.52	359.58	11.85	-30.6	-31.9	12.6	8.54e-05	0	44	0	889192448	22	4186
2026-01-19 08:22:48.53	359.44	11.78	-30.7	-32.2	12.5	9.76e-05	0	44	0	891289600	22	4287
2026-01-19 08:22:49.53	359.30	11.72	-30.8	-32.6	12.2	2.98e-04	0	44	0	893386752	22	4429
2026-01-19 08:22:50.54	359.16	11.66	-30.8	-32.7	12.2	2.52e-04	0	44	0	894435328	22	4430
2026-01-19 08:22:51.55	359.02	11.59	-31.2	-33.7	11.4	3.46e-04	0	44	0	896532480	22	4816
2026-01-19 08:22:52.55	358.88	11.53	-31.2	-33.7	11.4	1.08e-03	0	43	0	898629632	22	4799
2026-01-19 08:22:53.56	358.75	11.47	-31.0	-33.3	11.7	4.40e-04	0	44	0	900726784	22	4646
2026-01-19 08:22:54.56	358.61	11.40	-30.8	-32.5	12.2	3.23e-04	0	44	0	901775360	22	4395
2026-01-19 08:22:55.57	358.47	11.34	-30.8	-32.5	12.3	1.69e-04	0	44	0	903872512	22	4388
2026-01-19 08:22:56.57	358.34	11.28	-30.6	-32.0	12.6	1.49e-04	0	44	0	905969664	22	4219
2026-01-19 08:22:57.57	358.20	11.21	-30.4	-31.3	13.0	4.80e-05	0	44	0	908066816	22	4017
2026-01-19 08:22:58.57	358.07	11.15	-30.4	-31.8	13.0	2.67e-05	0	43	0	910163968	21	4265
2026-01-19 08:22:59.58	357.93	11.09	-30.2	-31.2	13.4	1.83e-05	0	44	0	912261120	21	4077
2026-01-19 08:23:00.58	357.80	11.02	-29.9	-30.6	13.7	8.30e-06	0	44	0	913309696	21	3910
2026-01-19 08:23:01.58	357.67	10.96	-29.9	-30.4	13.9	3.00e-06	0	44	0	915406848	21	3848
2026-01-19 08:23:02.58	357.54	10.90	-30.0	-30.9	13.6	7.60e-06	0	44	0	917504000	21	3985
2026-01-19 08:23:03.59	357.41	10.83	-30.0	-30.7	13.7	9.90e-06	0	43	0	919601152	21	3929
2026-01-19 08:23:04.60	357.27	10.77	-29.9	-30.6	13.8	6.10e-06	0	43	0	920649728	21	3907
2026-01-19 08:23:05.61	357.14	10.71	-30.1	-31.2	13.4	9.10e-06	0	44	0	922746880	21	4071
2026-01-19 08:23:06.62	357.01	10.64	-30.2	-31.5	13.1	3.05e-05	0	44	0	924844032	21	4157
2026-01-19 08:23:07.62	356.88	10.58	-30.4	-32.1	12.8	4.42e-05	0	44	0	926941184	21	4346
2026-01-19 08:23:08.62	356.76	10.52	-30.8	-33.1	12.1	1.13e-04	0	43	0	929038336	21	4708
2026-01-19 08:23:09.62	356.63	10.45	-30.9	-33.5	11.8	3.21e-04	0	44	0	930086912	21	4853
2026-01-19 08:23:10.62	356.50	10.39	-31.0	-33.7	11.7	5.76e-04	0	44	0	932184064	21	4911
2026-01-19 08:23:11.62	356.38	10.33	-31.1	-33.5	11.5	7.67e-04	0	44	0	934281216	22	4741
2026-01-19 08:23:12.63	356.25	10.26	-31.0	-33.0	11.8	6.58e-04	0	44	0	936378368	22	4571
2026-01-19 08:23:13.63	356.12	10.20	-30.8	-32.6	12.1	3.31e-04	0	44	0	938475520	22	4426
2026-01-19 08:23:14.64	356.00	10.14	-31.0	-33.1	11.8	3.40e-04	0	44	0	939524096	22	4604
2026-01-19 08:23:15.64	355.87	10.08	-30.8	-32.5	12.1	2.83e-04	0	44	0	941621248	22	4382
2026-01-19 08:23:16.64	355.75	10.01	-30.7	-32.3	12.3	2.10e-04	0	44	0	943718400	22	4325
2026-01-19 08:23:17.64	355.63	9.95	-30.5	-31.9	12.5	1.94e-04	0	44	0	945815552	22	4207
2026-01-19 08:23:18.65	355.50	9.89	-30.5	-31.9	12.5	1.07e-04	0	44	0	947912704	22	4197
2026-01-19 08:23:19.66	355.38	9.82	-30.6	-32.0	12.4	1.29e-04	0	44	0	948961280	22	4232
2026-01-19 08:23:20.66	355.26	9.76	-30.5	-31.8	12.5	1.02e-04	0	44	0	951058432	22	4190
2026-01-19 08:23:21.67	355.14	9.70	-30.7	-32.4	12.2	1.14e-04	0	44	0	953155584	22	4374
2026-01-19 08:23:22.67	355.01	9.64	-30.5	-31.8	12.5	1.47e-04	0	44	0	955252736	22	4178
2026-01-19 08:23:23.68	354.89	9.57	-30.6	-32.1	12.4	1.63e-04	0	44	0	957349888	22	4273
2026-01-19 08:23:24.68	354.77	9.51	-30.7	-32.2	12.2	1.73e-04	0	44	0	958398464	22	4322
2026-01-19 08:23:25.68	354.66	9.45	-30.7	-32.4	12.1	1.94e-04	0	44	0	960495616	22	4380
2026-01-19 08:23:26.68	354.54	9.38	-30.7	-32.4	12.1	2.83e-04	0	44	0	962592768	22	4377
2026-01-19 08:23:27.69	354.42	9.32	-30.8	-32.7	11.9	2.90e-04	0	44	0	964689920	22	4466
2026-01-19 08:23:28.69	354.30	9.26	-30.6	-32.1	12.3	3.04e-04	0	43	0	966787072	22	4288
2026-01-19 08:23:29.69	354.18	9.20	-30.7	-32.5	12.0	2.29e-04	0	44	0	967835648	22	4408
2026-01-19 08:23:30.69	354.07	9.14	-30.9	-33.0	11.7	4.10e-04	0	44	0	969932800	22	4583
2026-01-19 08:23:31.69	353.95	9.07	-30.9	-33.1	11.6	4.67e-04	0	44	0	972029952	22	4609
2026-01-19 08:23:32.69	353.84	9.01	-30.9	-32.9	11.7	8.41e-04	0	44	0	974127104	22	4564
2026-01-19 08:23:33.69	353.72	8.95	-31.0	-33.2	11.4	1.01e-03	0	44	0	975175680	22	4673
2026-01-19 08:23:34.69	353.61	8.89	-30.9	-33.0	11.6	9.28e-04	0	44	0	977272832	22	4589
2026-01-19 08:23:35.69	353.49	8.82	-31.0	-33.3	11.4	6.74e-04	0	44	0	979369984	22	4711
2026-01-19 08:23:36.70	353.38	8.76	-31.0	-33.4	11.3	1.12e-03	0	44	0	981467136	22	4740
2026-01-19 08:23:37.71	353.27	8.70	-31.0	-33.3	11.4	9.71e-04	0	44	0	983564288	22	4709
2026-01-19 08:23:38.71	353.15	8.64	-31.0	-33.5	11.2	9.58e-04	0	44	0	984612864	22	4779
2026-01-19 08:23:39.71	353.04	8.58	-31.0	-33.4	11.3	1.34e-03	0	44	0	986710016	22	4726
2026-01-19 08:23:40.72	352.93	8.51	-31.1	-33.6	11.2	1.56e-03	0	43	0	988807168	22	4797
2026-01-19 08:23:41.71	352.82	8.45	-31.1	-33.7	11.0	1.68e-03	0	44	0	990904320	22	4872
2026-01-19 08:23:42.72	352.71	8.39	-31.1	-33.9	10.9	2.47e-03	0	44	0	993001472	22	4920
2026-01-19 08:23:43.72	352.60	8.33	-31.1	-33.8	10.9	2.22e-03	0	44	0	994050048	22	4914
2026-01-19 08:23:44.73	352.49	8.27	-31.4	-34.8	10.2	3.22e-03	0	44	0	996147200	22	5302
2026-01-19 08:23:45.73	352.38	8.20	-31.4	-34.1	10.3	7.00e-03	0	44	0	998244352	23	4935
2026-01-19 08:23:46.73	352.27	8.14	-31.5	-34.6	10.0	6.97e-03	0	44	0	1000341504	23	5141
2026-01-19 08:23:47.73	352.16	8.08	-31.6	-34.9	9.7	7.98e-03	0	44	0	1002438656	23	5284
2026-01-19 08:23:48.72	352.06	8.02	-31.7	-35.3	9.4	1.28e-02	0	43	0	1003487232	23	5463
2026-01-19 08:23:49.72	351.95	7.96	-31.6	-35.2	9.5	1.38e-02	0	44	0	1005584384	23	5392
2026-01-19 08:23:50.72	351.84	7.90	-31.7	-35.3	9.4	1.66e-02	0	44	0	1007681536	23	5454
2026-01-19 08:23:51.73	351.74	7.84	-31.6	-35.1	9.6	1.28e-02	0	44	0	1009778688	23	5346
2026-01-19 08:23:52.74	351.63	7.78	-31.6	-34.9	9.6	1.30e-02	0	44	0	1011875840	23	5294
2026-01-19 08:23:53.74	351.53	7.71	-31.7	-35.4	9.3	1.59e-02	0	44	0	1012924416	23	5508
2026-01-19 08:23:54.75	351.42	7.65	-31.6	-34.8	9.7	1.43e-02	0	44	0	1015021568	23	5238
2026-01-19 08:23:55.75	351.32	7.59	-31.6	-34.8	9.7	9.83e-03	0	44	0	1017118720	23	5244
2026-01-19 08:23:56.75	351.21	7.53	-31.5	-34.8	9.7	1.14e-02	0	44	0	1019215872	23	5231
2026-01-19 08:23:57.76	351.11	7.47	-31.4	-34.3	10.1	6.61e-03	0	44	0	1020264448	23	5033
2026-01-19 08:23:58.75	351.01	7.41	-31.5	-34.7	9.8	8.72e-03	0	44	0	1022361600	23	5204
2026-01-19 08:23:59.75	350.90	7.35	-31.4	-34.3	10.1	7.00e-03	0	44	0	1024458752	23	5018
2026-01-19 08:24:00.76	350.80	7.29	-31.4	-34.3	10.0	8.20e-03	0	43	0	1026555904	23	5045
2026-01-19 08:24:01.76	350.70	7.23	-31.3	-34.2	10.2	6.29e-03	0	44	0	1028653056	23	4974
2026-01-19 08:24:02.77	350.60	7.16	-31.4	-34.3	10.0	6.28e-03	0	44	0	1029701632	23	5050
2026-01-19 08:24:03.77	350.50	7.10	-31.4	-34.3	10.0	1.20e-02	0	44	0	1031798784	23	5042
2026-01-19 08:24:04.77	350.40	7.04	-33.5	-45.3	3.8	6.08e-01	0	44	104	1032847360	26	14030
2026-01-19 08:24:05.78	350.30	6.98	-33.8	-46.0	3.8	1.49e+00	0	44	104	1032847360	27	14777

#Closed at: 2026-01-19 08:24:06
#Recorded file [1032 MB]: D:/data/31010_260119_111452.dat