passes_logs/2026/01/19/R2M6_AANII_01/R2M6_AANII_01__20260119_222204_NOAA_20_JPSS-1_rec.log

#Pass ID: 20260119_222204_NOAA 20 (JPSS-1)
#Satellite: NOAA 20 (JPSS-1)
#Configuration: NOAA 20
#almurnet v.1.7.20240730
#Start time: 2026-01-19 22:22:04

#Version: 2.2.20231116
#Station: R2M6_AANII_01
#Location: 30.233357 lon 59.946436 lat
#TLE: 1 43013U 17073A   26019.27717929  .00000087  00000+0  62288-4 0  9995
#TLE: 2 43013  98.7641 320.1715 0001339  33.1986 326.9274 14.19537047423343

#Time	Az	El	Level	Level2	SNR	BER	BlckErr	Temp	State	Recorded	gain1	gain2
2026-01-19 22:22:04.06	34.48	6.96	-31.6	-37.0	5.3	1.15e+00	0	41	0	0	23	6671
2026-01-19 22:22:05.06	34.60	7.01	-32.7	-41.6	4.3	1.35e+00	0	42	104	0	25	10060
2026-01-19 22:22:06.06	34.71	7.06	-32.8	-42.2	5.0	6.80e-01	0	41	0	0	25	10673
2026-01-19 22:22:07.07	34.83	7.12	-32.7	-41.2	5.5	5.54e-01	0	42	0	1048576	25	9632
2026-01-19 22:22:08.07	34.94	7.17	-32.8	-42.0	5.0	6.07e-01	0	42	0	3145728	25	10437
2026-01-19 22:22:09.07	35.06	7.23	-32.6	-41.0	5.6	5.58e-01	0	42	0	5242880	25	9415
2026-01-19 22:22:10.07	35.17	7.28	-32.5	-40.1	6.1	3.38e-01	0	42	0	7340032	25	8597
2026-01-19 22:22:11.08	35.29	7.34	-32.4	-39.3	6.7	2.25e-01	0	42	0	9437184	25	7989
2026-01-19 22:22:12.07	35.41	7.39	-32.3	-39.2	7.2	1.54e-01	0	42	0	10485760	24	8000
2026-01-19 22:22:13.07	35.52	7.44	-32.0	-38.0	8.1	1.08e-01	0	42	0	12582912	24	7175
2026-01-19 22:22:14.07	35.64	7.50	-31.8	-37.1	9.0	3.79e-02	0	42	0	14680064	24	6600
2026-01-19 22:22:15.07	35.76	7.55	-31.7	-36.7	9.2	1.49e-02	0	42	0	16777216	24	6401
2026-01-19 22:22:16.08	35.88	7.61	-31.4	-35.4	10.2	1.94e-02	0	42	0	17825792	24	5712
2026-01-19 22:22:17.08	36.00	7.66	-31.5	-35.9	9.8	9.14e-03	0	42	0	19922944	24	5963
2026-01-19 22:22:18.08	36.12	7.72	-31.5	-36.3	9.8	9.36e-03	0	42	0	22020096	23	6271
2026-01-19 22:22:19.08	36.24	7.77	-31.4	-36.0	10.1	8.02e-03	0	42	0	24117248	23	6085
2026-01-19 22:22:20.09	36.36	7.83	-31.2	-35.4	10.6	3.88e-03	0	42	0	26214400	23	5797
2026-01-19 22:22:21.09	36.48	7.88	-31.1	-35.0	10.9	2.46e-03	0	42	0	27262976	23	5609
2026-01-19 22:22:22.10	36.60	7.94	-31.0	-34.7	11.1	2.13e-03	0	42	0	29360128	23	5479
2026-01-19 22:22:23.11	36.73	7.99	-31.1	-34.9	11.0	1.10e-03	0	42	0	31457280	23	5574
2026-01-19 22:22:24.10	36.85	8.05	-31.2	-35.3	10.7	3.23e-03	0	42	0	33554432	23	5758
2026-01-19 22:22:25.11	36.97	8.10	-31.0	-34.5	11.3	1.59e-03	0	42	0	35651584	23	5412
2026-01-19 22:22:26.11	37.09	8.15	-31.3	-35.4	10.6	2.32e-03	0	42	0	36700160	23	5819
2026-01-19 22:22:27.11	37.22	8.21	-31.0	-34.5	11.3	3.46e-03	0	42	0	38797312	23	5391
2026-01-19 22:22:28.11	37.34	8.26	-31.1	-34.7	11.2	1.32e-03	0	42	0	40894464	23	5478
2026-01-19 22:22:29.11	37.46	8.32	-31.0	-34.6	11.3	1.26e-03	0	42	0	42991616	23	5420
2026-01-19 22:22:30.11	37.59	8.37	-31.0	-34.6	11.2	7.87e-04	0	42	0	45088768	23	5447
2026-01-19 22:22:31.12	37.72	8.43	-31.1	-34.7	11.2	1.28e-03	0	43	0	46137344	23	5492
2026-01-19 22:22:32.12	37.84	8.48	-31.1	-34.8	11.2	1.29e-03	0	42	0	48234496	23	5511
2026-01-19 22:22:33.13	37.97	8.54	-31.2	-34.9	11.1	1.65e-03	0	43	0	50331648	23	5571
2026-01-19 22:22:34.13	38.09	8.59	-31.1	-34.7	11.2	1.68e-03	0	42	0	52428800	23	5483
2026-01-19 22:22:35.13	38.22	8.65	-31.1	-34.8	11.1	1.30e-03	0	42	0	54525952	23	5523
2026-01-19 22:22:36.14	38.35	8.70	-31.1	-34.9	11.1	2.00e-03	0	42	0	55574528	23	5538
2026-01-19 22:22:37.14	38.48	8.76	-31.2	-35.2	10.9	1.51e-03	0	43	0	57671680	23	5693
2026-01-19 22:22:38.15	38.61	8.81	-31.2	-35.2	10.9	2.06e-03	0	43	0	59768832	23	5707
2026-01-19 22:22:39.15	38.74	8.87	-31.4	-36.0	10.3	4.06e-03	0	43	0	61865984	23	6053
2026-01-19 22:22:40.15	38.87	8.92	-31.2	-35.1	11.0	3.06e-03	0	43	0	62914560	23	5647
2026-01-19 22:22:41.15	39.00	8.98	-31.1	-34.8	11.2	1.84e-03	0	43	0	65011712	23	5503
2026-01-19 22:22:42.15	39.13	9.03	-31.1	-34.8	11.3	9.59e-04	0	43	0	67108864	23	5491
2026-01-19 22:22:43.15	39.26	9.09	-31.0	-34.5	11.4	9.05e-04	0	43	0	69206016	23	5385
2026-01-19 22:22:44.15	39.39	9.14	-31.0	-34.6	11.4	7.96e-04	0	43	0	71303168	23	5411
2026-01-19 22:22:45.15	39.52	9.19	-31.0	-34.4	11.4	1.12e-03	0	43	0	72351744	23	5351
2026-01-19 22:22:46.15	39.65	9.25	-31.0	-34.5	11.5	1.01e-03	0	43	0	74448896	23	5385
2026-01-19 22:22:47.15	39.78	9.30	-31.3	-35.3	10.9	1.69e-03	0	43	0	76546048	23	5710
2026-01-19 22:22:48.15	39.92	9.36	-31.1	-34.9	11.2	1.36e-03	0	43	0	78643200	23	5534
2026-01-19 22:22:49.16	40.05	9.41	-31.0	-34.3	11.6	8.22e-04	0	43	0	80740352	23	5278
2026-01-19 22:22:50.16	40.19	9.47	-31.0	-34.5	11.5	6.92e-04	0	43	0	81788928	23	5374
2026-01-19 22:22:51.16	40.32	9.52	-31.1	-34.7	11.3	1.36e-03	0	43	0	83886080	23	5456
2026-01-19 22:22:52.17	40.46	9.58	-30.9	-34.1	11.8	5.68e-04	0	43	0	85983232	23	5197
2026-01-19 22:22:53.17	40.59	9.63	-31.1	-34.6	11.4	6.92e-04	0	43	0	88080384	23	5423
2026-01-19 22:22:54.17	40.73	9.69	-30.9	-34.1	11.8	9.49e-04	0	43	0	90177536	23	5196
2026-01-19 22:22:55.18	40.87	9.74	-30.9	-34.2	11.7	4.85e-04	0	43	0	91226112	23	5252
2026-01-19 22:22:56.18	41.00	9.80	-30.9	-34.2	11.7	6.30e-04	0	43	0	93323264	23	5262
2026-01-19 22:22:57.18	41.14	9.85	-30.9	-34.2	11.7	4.65e-04	0	43	0	95420416	23	5227
2026-01-19 22:22:58.19	41.28	9.90	-30.7	-34.0	12.3	1.97e-04	0	43	0	97517568	22	5241
2026-01-19 22:22:59.19	41.42	9.96	-30.8	-34.3	12.0	3.65e-04	0	43	0	99614720	22	5390
2026-01-19 22:23:00.19	41.56	10.01	-30.8	-34.1	12.1	4.04e-04	0	43	0	100663296	22	5314
2026-01-19 22:23:01.20	41.70	10.07	-30.7	-33.8	12.3	2.36e-04	0	43	0	102760448	22	5192
2026-01-19 22:23:02.20	41.84	10.12	-30.6	-33.8	12.3	1.28e-04	0	43	0	104857600	22	5171
2026-01-19 22:23:03.20	41.98	10.18	-30.6	-33.8	12.4	1.52e-04	0	43	0	106954752	22	5166
2026-01-19 22:23:04.20	42.12	10.23	-30.6	-33.5	12.6	1.60e-04	0	43	0	108003328	22	5057
2026-01-19 22:23:05.20	42.26	10.28	-30.6	-33.7	12.5	1.29e-04	0	43	0	110100480	22	5137
2026-01-19 22:23:06.21	42.40	10.34	-30.6	-33.8	12.4	1.24e-04	0	43	0	112197632	22	5177
2026-01-19 22:23:07.21	42.55	10.39	-30.7	-33.9	12.4	1.52e-04	0	43	0	114294784	22	5201
2026-01-19 22:23:08.21	42.69	10.45	-30.6	-33.6	12.5	1.19e-04	0	43	0	116391936	22	5077
2026-01-19 22:23:09.21	42.83	10.50	-30.3	-32.8	13.1	4.34e-05	0	43	0	117440512	22	4785
2026-01-19 22:23:10.21	42.98	10.56	-30.5	-33.4	12.8	4.73e-05	0	43	0	119537664	22	4996
2026-01-19 22:23:11.21	43.12	10.61	-30.5	-33.4	12.7	7.09e-05	0	43	0	121634816	22	5034
2026-01-19 22:23:12.21	43.27	10.66	-30.4	-33.0	13.0	5.18e-05	0	43	0	123731968	22	4846
2026-01-19 22:23:13.21	43.41	10.72	-30.4	-33.5	13.0	3.28e-05	0	43	0	125829120	21	5158
2026-01-19 22:23:14.22	43.56	10.77	-30.5	-33.7	12.9	5.72e-05	0	43	0	126877696	21	5237
2026-01-19 22:23:15.22	43.71	10.83	-30.3	-33.2	13.1	3.96e-05	0	43	0	128974848	21	5022
2026-01-19 22:23:16.23	43.85	10.88	-30.2	-33.1	13.3	3.66e-05	0	43	0	131072000	21	4985
2026-01-19 22:23:17.23	44.00	10.93	-30.3	-33.2	13.2	4.50e-05	0	43	0	133169152	21	5045
2026-01-19 22:23:18.23	44.15	10.99	-30.4	-33.5	12.9	2.74e-05	0	43	0	135266304	21	5149
2026-01-19 22:23:19.23	44.30	11.04	-30.3	-33.4	13.1	4.95e-05	0	43	0	136314880	21	5099
2026-01-19 22:23:20.23	44.45	11.09	-30.3	-33.3	13.2	2.59e-05	0	43	0	138412032	21	5059
2026-01-19 22:23:21.24	44.60	11.15	-30.4	-33.5	12.9	4.42e-05	0	43	0	140509184	21	5162
2026-01-19 22:23:22.25	44.75	11.20	-30.4	-33.4	13.0	3.35e-05	0	43	0	142606336	21	5126
2026-01-19 22:23:23.26	44.90	11.26	-30.4	-33.4	13.0	2.28e-05	0	43	0	144703488	21	5117
2026-01-19 22:23:24.26	45.05	11.31	-30.5	-33.8	12.8	5.26e-05	0	43	0	145752064	21	5261
2026-01-19 22:23:25.27	45.21	11.36	-30.4	-33.5	12.9	6.02e-05	0	43	0	147849216	21	5137
2026-01-19 22:23:26.26	45.36	11.42	-30.5	-33.8	12.8	6.94e-05	0	43	0	149946368	21	5245
2026-01-19 22:23:27.26	45.51	11.47	-30.4	-33.6	12.9	4.27e-05	0	43	0	152043520	21	5195
2026-01-19 22:23:28.27	45.67	11.52	-30.5	-33.8	12.8	5.34e-05	0	43	0	154140672	21	5264
2026-01-19 22:23:29.27	45.82	11.58	-30.5	-33.6	13.0	8.39e-05	0	43	0	155189248	21	5187
2026-01-19 22:23:30.28	45.98	11.63	-30.4	-33.6	13.0	2.89e-05	0	43	0	157286400	21	5194
2026-01-19 22:23:31.28	46.13	11.68	-30.4	-33.4	13.0	8.54e-05	0	43	0	159383552	21	5110
2026-01-19 22:23:32.28	46.29	11.73	-30.5	-33.7	12.9	3.96e-05	0	43	0	161480704	21	5204
2026-01-19 22:23:33.28	46.44	11.79	-30.4	-33.5	13.0	2.89e-05	0	43	0	163577856	21	5139
2026-01-19 22:23:34.29	46.60	11.84	-30.4	-33.5	13.1	4.11e-05	0	43	0	164626432	21	5121
2026-01-19 22:23:35.29	46.76	11.89	-30.4	-33.4	13.1	2.67e-05	0	43	0	166723584	21	5093
2026-01-19 22:23:36.29	46.92	11.95	-30.3	-33.3	13.1	2.13e-05	0	44	0	168820736	21	5065
2026-01-19 22:23:37.30	47.08	12.00	-30.5	-33.7	12.9	3.05e-05	0	44	0	170917888	21	5204
2026-01-19 22:23:38.30	47.24	12.05	-30.5	-33.9	12.8	4.19e-05	0	44	0	171966464	21	5283
2026-01-19 22:23:39.31	47.40	12.10	-30.5	-33.8	12.9	6.40e-05	0	44	0	174063616	21	5248
2026-01-19 22:23:40.31	47.56	12.16	-30.5	-33.7	12.9	3.81e-05	0	44	0	176160768	21	5214
2026-01-19 22:23:41.31	47.72	12.21	-30.7	-34.2	12.6	6.10e-05	0	43	0	178257920	21	5430
2026-01-19 22:23:42.31	47.88	12.26	-30.6	-34.1	12.6	1.39e-04	0	43	0	180355072	21	5366
2026-01-19 22:23:43.31	48.04	12.31	-30.6	-34.0	12.7	9.23e-05	0	43	0	181403648	21	5326
2026-01-19 22:23:44.31	48.20	12.36	-30.5	-33.7	12.9	5.56e-05	0	44	0	183500800	21	5211
2026-01-19 22:23:45.30	48.36	12.41	-30.2	-33.0	13.3	2.89e-05	0	43	0	185597952	21	4960
2026-01-19 22:23:46.31	48.53	12.47	-30.4	-33.3	13.1	2.28e-05	0	44	0	187695104	21	5084
2026-01-19 22:23:47.30	48.69	12.52	-30.5	-33.7	13.0	3.58e-05	0	44	0	189792256	21	5202
2026-01-19 22:23:48.30	48.86	12.57	-30.3	-33.3	13.2	2.44e-05	0	44	0	190840832	21	5075
2026-01-19 22:23:49.31	49.02	12.62	-30.4	-33.6	13.0	2.67e-05	0	44	0	192937984	21	5161
2026-01-19 22:23:50.31	49.19	12.67	-30.5	-33.7	12.9	5.49e-05	0	44	0	195035136	21	5203
2026-01-19 22:23:51.32	49.36	12.72	-30.5	-33.7	13.0	4.65e-05	0	44	0	197132288	21	5207
2026-01-19 22:23:52.32	49.52	12.77	-30.6	-34.2	12.6	8.62e-05	0	44	0	199229440	21	5403
2026-01-19 22:23:53.33	49.69	12.83	-30.7	-34.5	12.4	1.13e-04	0	44	0	200278016	21	5524
2026-01-19 22:23:54.34	49.86	12.88	-30.6	-34.2	12.6	9.84e-05	0	44	0	202375168	21	5401
2026-01-19 22:23:55.34	50.03	12.93	-30.7	-34.3	12.6	4.75e-04	0	44	0	204472320	21	5441
2026-01-19 22:23:56.35	50.20	12.98	-30.7	-34.4	12.5	1.35e-04	0	44	0	206569472	21	5483
2026-01-19 22:23:57.35	50.37	13.03	-30.9	-34.8	12.2	1.67e-04	0	44	0	208666624	21	5677
2026-01-19 22:23:58.35	50.54	13.08	-31.0	-34.7	12.0	4.48e-04	0	44	0	209715200	22	5501
2026-01-19 22:23:59.35	50.71	13.13	-30.9	-34.4	12.1	3.34e-04	0	44	0	211812352	22	5403
2026-01-19 22:24:00.36	50.88	13.18	-31.0	-34.6	12.0	2.99e-04	0	44	0	213909504	22	5453
2026-01-19 22:24:01.37	51.06	13.23	-31.0	-34.6	12.0	2.64e-04	0	44	0	216006656	22	5474
2026-01-19 22:24:02.37	51.23	13.28	-30.9	-34.5	12.1	2.83e-04	0	44	0	218103808	22	5441
2026-01-19 22:24:03.36	51.40	13.33	-31.1	-34.9	11.8	3.39e-04	0	44	0	219152384	22	5601
2026-01-19 22:24:04.37	51.58	13.38	-31.0	-34.8	11.9	4.61e-04	0	44	0	221249536	22	5532
2026-01-19 22:24:05.37	51.75	13.43	-30.9	-34.2	12.3	2.87e-04	0	44	0	223346688	22	5321
2026-01-19 22:24:06.37	51.93	13.48	-30.8	-34.2	12.3	1.48e-04	0	44	0	225443840	22	5306
2026-01-19 22:24:07.37	52.10	13.53	-30.9	-34.4	12.3	2.08e-04	0	44	0	226492416	22	5365
2026-01-19 22:24:08.38	52.28	13.58	-30.9	-34.5	12.1	2.29e-04	0	44	0	228589568	22	5426
2026-01-19 22:24:09.38	52.45	13.63	-30.9	-34.5	12.1	2.72e-04	0	44	0	230686720	22	5434
2026-01-19 22:24:10.37	52.63	13.67	-31.1	-34.9	11.8	2.94e-04	0	44	0	232783872	22	5597
2026-01-19 22:24:11.38	52.81	13.72	-31.1	-35.0	11.8	4.72e-04	0	44	0	234881024	22	5629
2026-01-19 22:24:12.38	52.99	13.77	-31.1	-35.1	11.7	4.48e-04	0	44	0	235929600	22	5660
2026-01-19 22:24:13.39	53.17	13.82	-31.2	-35.3	11.6	6.93e-04	0	44	0	238026752	22	5749
2026-01-19 22:24:14.39	53.35	13.87	-31.2	-35.3	11.6	7.20e-04	0	44	0	240123904	22	5780
2026-01-19 22:24:15.39	53.53	13.91	-31.3	-35.6	11.4	9.09e-04	0	44	0	242221056	22	5903
2026-01-19 22:24:16.40	53.71	13.96	-31.3	-35.7	11.4	1.06e-03	0	44	0	244318208	22	5936
2026-01-19 22:24:17.40	53.89	14.01	-31.4	-35.8	11.3	1.23e-03	0	44	0	245366784	22	5985
2026-01-19 22:24:18.40	54.07	14.06	-31.3	-35.5	11.5	9.69e-04	0	44	0	247463936	22	5864
2026-01-19 22:24:19.40	54.25	14.11	-31.3	-35.6	11.4	7.80e-04	0	44	0	249561088	22	5901
2026-01-19 22:24:20.41	54.44	14.15	-31.4	-35.9	11.3	1.10e-03	0	44	0	251658240	22	6042
2026-01-19 22:24:21.41	54.62	14.20	-31.4	-35.5	11.1	1.72e-03	0	44	0	253755392	23	5724
2026-01-19 22:24:22.41	54.80	14.25	-31.3	-35.1	11.4	1.24e-03	0	44	0	254803968	23	5580
2026-01-19 22:24:23.42	54.99	14.29	-31.4	-35.8	11.3	1.11e-03	0	44	0	256901120	22	5974
2026-01-19 22:24:24.42	55.18	14.34	-31.4	-35.8	11.3	1.32e-03	0	44	0	258998272	22	6001
2026-01-19 22:24:25.42	55.36	14.39	-31.4	-35.7	11.3	1.20e-03	0	44	0	261095424	22	5944
2026-01-19 22:24:26.42	55.55	14.43	-31.4	-35.8	11.3	1.06e-03	0	44	0	263192576	22	5985
2026-01-19 22:24:27.42	55.73	14.48	-31.4	-36.0	11.2	1.31e-03	0	44	0	264241152	22	6054
2026-01-19 22:24:28.43	55.92	14.52	-31.5	-35.7	11.0	1.59e-03	0	44	0	266338304	23	5847
2026-01-19 22:24:29.44	56.11	14.57	-31.5	-35.8	10.9	2.06e-03	0	44	0	268435456	23	5869
2026-01-19 22:24:30.44	56.30	14.61	-31.6	-35.9	10.8	2.41e-03	0	44	0	270532608	23	5927
2026-01-19 22:24:31.44	56.49	14.66	-31.6	-35.9	10.8	2.23e-03	0	44	0	272629760	23	5911
2026-01-19 22:24:32.45	56.68	14.70	-31.7	-36.4	10.5	2.95e-03	0	44	0	273678336	23	6178
2026-01-19 22:24:33.45	56.87	14.75	-31.8	-36.7	10.3	6.13e-03	0	44	0	275775488	23	6297
2026-01-19 22:24:34.45	57.06	14.79	-31.7	-36.4	10.6	3.67e-03	0	44	0	277872640	23	6146
2026-01-19 22:24:35.45	57.25	14.84	-31.9	-36.9	10.1	4.51e-03	0	44	0	279969792	23	6446
2026-01-19 22:24:36.45	57.44	14.88	-32.0	-36.7	9.9	8.68e-03	0	44	0	281018368	24	6213
2026-01-19 22:24:37.45	57.64	14.92	-31.8	-36.5	10.4	6.17e-03	0	44	0	283115520	23	6229
2026-01-19 22:24:38.45	57.83	14.97	-31.8	-36.5	10.5	3.96e-03	0	44	0	285212672	23	6193
2026-01-19 22:24:39.45	58.02	15.01	-31.9	-37.0	10.1	5.30e-03	0	44	0	287309824	23	6483
2026-01-19 22:24:40.45	58.22	15.05	-31.9	-37.1	10.1	7.78e-03	0	44	0	289406976	23	6506
2026-01-19 22:24:41.46	58.41	15.10	-31.9	-37.0	10.0	7.20e-03	0	44	0	290455552	23	6480
2026-01-19 22:24:42.47	58.61	15.14	-31.9	-37.0	10.0	8.85e-03	0	44	0	292552704	23	6490
2026-01-19 22:24:43.47	58.80	15.18	-31.9	-37.1	10.0	8.13e-03	0	44	0	294649856	23	6506
2026-01-19 22:24:44.48	59.00	15.22	-31.9	-37.0	10.1	6.92e-03	0	44	0	296747008	23	6462
2026-01-19 22:24:45.49	59.20	15.27	-31.9	-37.1	10.1	6.25e-03	0	44	0	298844160	23	6515
2026-01-19 22:24:46.49	59.40	15.31	-31.8	-36.8	10.2	7.92e-03	0	44	0	299892736	23	6360
2026-01-19 22:24:47.49	59.59	15.35	-31.6	-36.0	10.9	3.30e-03	0	44	0	301989888	23	5943
2026-01-19 22:24:48.50	59.79	15.39	-31.4	-35.9	11.4	1.74e-03	0	44	0	304087040	22	6000
2026-01-19 22:24:49.50	59.99	15.43	-31.3	-35.6	11.5	7.95e-04	0	44	0	306184192	22	5877
2026-01-19 22:24:50.50	60.19	15.47	-31.3	-35.5	11.6	8.66e-04	0	44	0	308281344	22	5831
2026-01-19 22:24:51.51	60.39	15.51	-31.2	-35.1	11.8	5.00e-04	0	44	0	309329920	22	5667
2026-01-19 22:24:52.50	60.59	15.55	-31.2	-35.0	11.9	4.18e-04	0	44	0	311427072	22	5607
2026-01-19 22:24:53.50	60.79	15.59	-31.2	-35.2	11.9	4.39e-04	0	44	0	313524224	22	5676
2026-01-19 22:24:54.51	61.00	15.63	-31.3	-35.4	11.7	5.52e-04	0	44	0	315621376	22	5762
2026-01-19 22:24:55.50	61.20	15.67	-31.3	-35.3	11.8	7.43e-04	0	44	0	317718528	22	5741
2026-01-19 22:24:56.50	61.40	15.71	-31.1	-34.9	12.0	4.26e-04	0	44	0	318767104	22	5554
2026-01-19 22:24:57.51	61.60	15.75	-31.1	-34.7	12.1	5.19e-04	0	44	0	320864256	22	5485
2026-01-19 22:24:58.51	61.81	15.79	-30.9	-34.8	12.4	7.33e-04	0	44	0	322961408	21	5649
2026-01-19 22:24:59.52	62.01	15.83	-30.9	-34.7	12.4	1.64e-04	0	44	0	325058560	21	5579
2026-01-19 22:25:00.51	62.22	15.86	-30.8	-34.4	12.6	1.01e-03	0	44	0	327155712	21	5482
2026-01-19 22:25:01.52	62.42	15.90	-30.6	-34.0	13.0	5.90e-04	0	44	0	328204288	21	5306
2026-01-19 22:25:02.53	62.63	15.94	-30.6	-33.8	13.0	4.27e-05	0	44	0	330301440	21	5242
2026-01-19 22:25:03.53	62.84	15.98	-30.6	-34.0	13.0	5.45e-04	0	44	0	332398592	21	5293
2026-01-19 22:25:04.53	63.04	16.01	-30.6	-33.8	13.1	5.50e-04	0	44	0	334495744	21	5222
2026-01-19 22:25:05.54	63.25	16.05	-30.4	-33.4	13.4	2.13e-05	0	44	0	335544320	21	5055
2026-01-19 22:25:06.54	63.46	16.09	-30.3	-33.6	13.5	4.18e-04	0	44	0	337641472	20	5262
2026-01-19 22:25:07.54	63.67	16.12	-30.4	-33.7	13.5	4.49e-04	0	44	0	339738624	20	5301
2026-01-19 22:25:08.55	63.88	16.16	-30.3	-33.7	13.5	1.06e-05	0	44	0	341835776	20	5284
2026-01-19 22:25:09.55	64.09	16.19	-30.3	-33.5	13.7	3.08e-04	0	44	0	343932928	20	5225
2026-01-19 22:25:10.55	64.30	16.23	-30.3	-33.7	13.6	2.56e-04	0	44	0	344981504	20	5284
2026-01-19 22:25:11.55	64.50	16.26	-30.3	-33.6	13.5	2.05e-05	0	44	0	347078656	20	5265
2026-01-19 22:25:12.55	64.72	16.30	-30.3	-33.7	13.5	1.68e-04	0	44	0	349175808	20	5285
2026-01-19 22:25:13.56	64.93	16.33	-30.4	-33.7	13.5	8.62e-05	0	44	0	351272960	20	5307
2026-01-19 22:25:14.56	65.14	16.36	-30.5	-33.5	13.3	2.13e-05	0	44	0	353370112	21	5111
2026-01-19 22:25:15.57	65.35	16.40	-30.6	-33.7	13.2	1.08e-04	0	44	0	354418688	21	5199
2026-01-19 22:25:16.57	65.57	16.43	-30.6	-33.9	13.1	1.91e-04	0	44	0	356515840	21	5241
2026-01-19 22:25:17.57	65.78	16.46	-30.6	-34.0	13.0	4.04e-05	0	44	0	358612992	21	5289
2026-01-19 22:25:18.57	65.99	16.50	-30.7	-34.2	12.9	1.12e-04	0	44	0	360710144	21	5374
2026-01-19 22:25:19.58	66.21	16.53	-30.8	-34.4	12.8	1.21e-04	0	44	0	362807296	21	5439
2026-01-19 22:25:20.58	66.42	16.56	-30.8	-34.5	12.7	8.23e-05	0	44	0	363855872	21	5504
2026-01-19 22:25:21.58	66.64	16.59	-30.9	-34.6	12.6	1.98e-04	0	44	0	365953024	21	5571
2026-01-19 22:25:22.58	66.85	16.62	-30.8	-34.6	12.6	1.59e-04	0	44	0	368050176	21	5533
2026-01-19 22:25:23.58	67.07	16.65	-30.9	-34.9	12.4	9.15e-05	0	44	0	370147328	21	5692
2026-01-19 22:25:24.59	67.28	16.68	-30.8	-34.6	12.6	1.10e-04	0	44	0	372244480	21	5542
2026-01-19 22:25:25.58	67.50	16.71	-30.7	-34.3	12.7	1.56e-04	0	44	0	373293056	21	5437
2026-01-19 22:25:26.58	67.71	16.74	-30.7	-34.3	12.8	7.40e-05	0	44	0	375390208	21	5422
2026-01-19 22:25:27.58	67.93	16.77	-30.8	-34.6	12.6	9.61e-05	0	44	0	377487360	21	5540
2026-01-19 22:25:28.58	68.15	16.80	-30.9	-34.7	12.4	9.46e-05	0	44	0	379584512	21	5596
2026-01-19 22:25:29.58	68.37	16.83	-30.9	-34.2	12.5	1.82e-04	0	44	0	380633088	22	5280
2026-01-19 22:25:30.59	68.59	16.86	-30.9	-34.1	12.6	2.12e-04	0	44	0	382730240	22	5237
2026-01-19 22:25:31.60	68.81	16.88	-30.9	-34.1	12.6	8.31e-05	0	44	0	384827392	22	5222
2026-01-19 22:25:32.60	69.03	16.91	-30.9	-34.3	12.6	1.27e-04	0	44	0	386924544	22	5296
2026-01-19 22:25:33.60	69.25	16.94	-30.9	-34.2	12.6	3.11e-04	0	44	0	389021696	22	5257
2026-01-19 22:25:34.60	69.47	16.97	-30.9	-34.6	12.6	7.93e-05	0	44	0	390070272	21	5555
2026-01-19 22:25:35.60	69.69	16.99	-30.9	-34.8	12.5	1.22e-04	0	44	0	392167424	21	5615
2026-01-19 22:25:36.60	69.91	17.02	-30.8	-34.6	12.6	5.18e-04	0	44	0	394264576	21	5550
2026-01-19 22:25:37.61	70.13	17.04	-30.9	-34.7	12.6	5.19e-04	0	44	0	396361728	21	5597
2026-01-19 22:25:38.62	70.35	17.07	-30.9	-34.8	12.5	1.19e-04	0	44	0	398458880	21	5612
2026-01-19 22:25:39.63	70.58	17.09	-30.9	-34.7	12.6	1.09e-04	0	44	0	399507456	21	5579
2026-01-19 22:25:40.62	70.80	17.12	-30.9	-34.7	12.6	3.90e-04	0	44	0	401604608	21	5588
2026-01-19 22:25:41.63	71.02	17.14	-31.0	-34.9	12.4	1.20e-04	0	44	0	403701760	21	5674
2026-01-19 22:25:42.63	71.24	17.17	-30.9	-34.7	12.5	1.31e-04	0	44	0	405798912	21	5584
2026-01-19 22:25:43.63	71.47	17.19	-30.8	-34.5	12.7	1.22e-04	0	44	0	407896064	21	5490
2026-01-19 22:25:44.63	71.69	17.21	-30.8	-34.6	12.6	1.03e-04	0	44	0	408944640	21	5524
2026-01-19 22:25:45.63	71.91	17.23	-31.0	-34.4	12.4	1.59e-04	0	44	0	411041792	22	5335
2026-01-19 22:25:46.63	72.14	17.26	-30.8	-33.9	12.8	8.23e-05	0	44	0	413138944	22	5158
2026-01-19 22:25:47.63	72.36	17.28	-30.8	-33.9	12.8	5.34e-05	0	44	0	415236096	22	5135
2026-01-19 22:25:48.63	72.59	17.30	-30.8	-34.0	12.7	4.80e-05	0	44	0	417333248	22	5178
2026-01-19 22:25:49.63	72.81	17.32	-30.9	-34.1	12.5	6.63e-05	0	44	0	418381824	22	5248
2026-01-19 22:25:50.63	73.04	17.34	-31.0	-34.5	12.4	1.09e-04	0	44	0	420478976	22	5379
2026-01-19 22:25:51.63	73.26	17.36	-30.9	-34.1	12.6	1.07e-04	0	44	0	422576128	22	5248
2026-01-19 22:25:52.64	73.49	17.38	-30.9	-34.1	12.6	9.99e-05	0	44	0	424673280	22	5229
2026-01-19 22:25:53.64	73.72	17.40	-30.9	-34.1	12.6	6.86e-05	0	44	0	425721856	22	5244
2026-01-19 22:25:54.64	73.94	17.42	-30.9	-34.3	12.5	1.07e-04	0	44	0	427819008	22	5322
2026-01-19 22:25:55.64	74.17	17.44	-30.9	-34.2	12.6	1.51e-04	0	44	0	429916160	22	5260
2026-01-19 22:25:56.65	74.40	17.46	-30.9	-34.1	12.6	6.56e-05	0	44	0	432013312	22	5219
2026-01-19 22:25:57.65	74.63	17.47	-31.0	-34.5	12.3	1.20e-04	0	44	0	434110464	22	5405
2026-01-19 22:25:58.65	74.85	17.49	-31.0	-34.6	12.3	1.91e-04	0	44	0	435159040	22	5418
2026-01-19 22:25:59.65	75.08	17.51	-30.9	-34.1	12.7	1.29e-04	0	44	0	437256192	22	5206
2026-01-19 22:26:00.65	75.31	17.52	-30.8	-33.9	12.8	6.40e-05	0	44	0	439353344	22	5153
2026-01-19 22:26:01.66	75.54	17.54	-30.9	-34.3	12.5	7.09e-05	0	44	0	441450496	22	5290
2026-01-19 22:26:02.66	75.77	17.55	-31.0	-34.4	12.5	1.14e-04	0	44	0	443547648	22	5355
2026-01-19 22:26:03.67	76.00	17.57	-31.2	-35.0	12.1	2.03e-04	0	44	0	444596224	22	5593
2026-01-19 22:26:04.67	76.23	17.58	-31.2	-35.0	12.0	3.78e-04	0	44	0	446693376	22	5616
2026-01-19 22:26:05.67	76.46	17.60	-31.3	-35.4	11.7	4.32e-04	0	44	0	448790528	22	5792
2026-01-19 22:26:06.68	76.69	17.61	-31.3	-35.4	11.8	5.90e-04	0	44	0	450887680	22	5760
2026-01-19 22:26:07.68	76.92	17.62	-31.1	-34.9	12.1	3.53e-04	0	44	0	452984832	22	5530
2026-01-19 22:26:08.68	77.15	17.64	-31.0	-34.4	12.4	1.54e-04	0	44	0	454033408	22	5358
2026-01-19 22:26:09.68	77.38	17.65	-30.9	-34.1	12.6	1.27e-04	0	44	0	456130560	22	5213
2026-01-19 22:26:10.69	77.61	17.66	-30.8	-34.5	12.7	8.62e-05	0	44	0	458227712	21	5502
2026-01-19 22:26:11.69	77.84	17.67	-30.7	-34.3	12.9	6.02e-05	0	44	0	460324864	21	5401
2026-01-19 22:26:12.69	78.07	17.68	-30.6	-34.3	12.7	5.64e-05	0	44	0	462422016	21	5489
2026-01-19 22:26:13.69	78.30	17.70	-30.7	-34.2	12.9	6.10e-05	0	44	0	463470592	21	5364
2026-01-19 22:26:14.69	78.54	17.71	-30.7	-34.1	12.9	3.66e-05	0	44	0	465567744	21	5334
2026-01-19 22:26:15.68	78.76	17.71	-30.7	-34.2	12.9	4.57e-05	0	44	0	467664896	21	5387
2026-01-19 22:26:16.68	79.00	17.72	-30.8	-34.4	12.7	7.09e-05	0	44	0	469762048	21	5469
2026-01-19 22:26:17.69	79.23	17.73	-30.9	-34.6	12.6	7.32e-05	0	44	0	470810624	21	5532
2026-01-19 22:26:18.69	79.46	17.74	-30.9	-34.6	12.6	1.59e-04	0	44	0	472907776	21	5546
2026-01-19 22:26:19.69	79.69	17.75	-31.0	-34.9	12.4	1.08e-04	0	44	0	475004928	21	5677
2026-01-19 22:26:20.70	79.93	17.76	-31.0	-34.6	12.3	1.49e-04	0	44	0	477102080	22	5432
2026-01-19 22:26:21.71	80.16	17.76	-30.9	-34.1	12.6	1.17e-04	0	44	0	479199232	22	5232
2026-01-19 22:26:22.71	80.39	17.77	-30.9	-34.2	12.6	9.61e-05	0	44	0	481296384	22	5269
2026-01-19 22:26:23.71	80.62	17.78	-30.9	-34.1	12.7	9.91e-05	0	44	0	482344960	22	5222
2026-01-19 22:26:24.71	80.86	17.78	-30.8	-33.9	12.8	7.40e-05	0	44	0	484442112	22	5160
2026-01-19 22:26:25.72	81.09	17.79	-30.8	-33.9	12.8	4.80e-05	0	44	0	486539264	22	5168
2026-01-19 22:26:26.72	81.32	17.79	-30.9	-34.3	12.5	8.85e-05	0	44	0	488636416	22	5323
2026-01-19 22:26:27.73	81.56	17.80	-31.0	-34.4	12.5	1.54e-04	0	44	0	489684992	22	5337
2026-01-19 22:26:28.73	81.79	17.80	-30.8	-34.0	12.7	7.93e-05	0	44	0	491782144	22	5208
2026-01-19 22:26:29.73	82.02	17.80	-30.8	-33.9	12.8	7.47e-05	0	44	0	493879296	22	5156
2026-01-19 22:26:30.73	82.25	17.81	-30.8	-33.9	12.8	6.63e-05	0	44	0	495976448	22	5135
2026-01-19 22:26:31.74	82.49	17.81	-30.9	-34.1	12.6	7.01e-05	0	44	0	498073600	22	5233
2026-01-19 22:26:32.74	82.72	17.81	-30.9	-34.2	12.6	1.30e-04	0	44	0	499122176	22	5284
2026-01-19 22:26:33.74	82.96	17.81	-31.0	-34.4	12.4	9.61e-05	0	44	0	501219328	22	5352
2026-01-19 22:26:34.74	83.19	17.81	-31.0	-34.4	12.5	1.44e-04	0	44	0	503316480	22	5344
2026-01-19 22:26:35.74	83.42	17.81	-30.9	-34.3	12.6	1.08e-04	0	44	0	505413632	22	5322
2026-01-19 22:26:36.74	83.65	17.82	-30.8	-34.0	12.7	9.00e-05	0	44	0	507510784	22	5206
2026-01-19 22:26:37.74	83.89	17.81	-30.9	-34.2	12.6	7.85e-05	0	44	0	508559360	22	5275
2026-01-19 22:26:38.74	84.12	17.81	-31.0	-34.4	12.5	9.99e-05	0	44	0	510656512	22	5335
2026-01-19 22:26:39.75	84.35	17.81	-30.8	-33.9	12.7	8.46e-05	0	44	0	512753664	22	5167
2026-01-19 22:26:40.75	84.59	17.81	-30.8	-33.8	12.8	5.56e-05	0	44	0	514850816	22	5099
2026-01-19 22:26:41.74	84.82	17.81	-30.8	-34.0	12.7	6.02e-05	0	44	0	515899392	22	5174
2026-01-19 22:26:42.74	85.05	17.81	-30.8	-33.9	12.8	7.55e-05	0	44	0	517996544	22	5168
2026-01-19 22:26:43.74	85.28	17.80	-30.9	-34.1	12.7	6.71e-05	0	44	0	520093696	22	5221
2026-01-19 22:26:44.74	85.51	17.80	-30.9	-34.2	12.6	6.71e-05	0	44	0	522190848	22	5285
2026-01-19 22:26:45.74	85.75	17.80	-30.9	-34.2	12.6	1.12e-04	0	44	0	524288000	22	5249
2026-01-19 22:26:46.75	85.98	17.79	-30.8	-34.1	12.7	8.85e-05	0	44	0	525336576	22	5217
2026-01-19 22:26:47.75	86.21	17.79	-30.9	-34.1	12.7	6.86e-05	0	44	0	527433728	22	5209
2026-01-19 22:26:48.74	86.44	17.78	-30.9	-34.3	12.5	7.78e-05	0	44	0	529530880	22	5304
2026-01-19 22:26:49.75	86.68	17.78	-31.0	-34.6	12.3	1.68e-04	0	44	0	531628032	22	5416
2026-01-19 22:26:50.75	86.91	17.77	-31.1	-34.7	12.2	1.89e-04	0	44	0	533725184	22	5484
2026-01-19 22:26:51.74	87.14	17.76	-31.1	-34.9	12.1	2.55e-04	0	44	0	534773760	22	5555
2026-01-19 22:26:52.74	87.37	17.76	-31.2	-35.0	12.0	3.34e-04	0	44	0	536870912	22	5592
2026-01-19 22:26:53.75	87.61	17.75	-31.2	-35.0	11.9	3.55e-04	0	44	0	538968064	22	5604
2026-01-19 22:26:54.74	87.84	17.74	-31.2	-35.2	11.9	3.71e-04	0	44	0	541065216	22	5668
2026-01-19 22:26:55.75	88.07	17.73	-31.1	-34.8	12.1	4.10e-04	0	44	0	543162368	22	5531
2026-01-19 22:26:56.75	88.30	17.72	-31.0	-34.6	12.3	1.69e-04	0	44	0	544210944	22	5426
2026-01-19 22:26:57.75	88.53	17.71	-31.1	-34.7	12.1	2.33e-04	0	44	0	546308096	22	5483
2026-01-19 22:26:58.76	88.77	17.70	-31.0	-34.4	12.4	2.04e-04	0	44	0	548405248	22	5369
2026-01-19 22:26:59.77	89.00	17.69	-30.8	-33.9	12.8	6.48e-05	0	44	0	550502400	22	5141
2026-01-19 22:27:00.77	89.23	17.68	-30.7	-33.8	12.8	4.95e-05	0	44	0	552599552	22	5095
2026-01-19 22:27:01.77	89.46	17.67	-30.6	-33.5	12.9	3.28e-05	0	44	0	553648128	22	4997
2026-01-19 22:27:02.77	89.69	17.66	-30.7	-33.5	12.9	2.89e-05	0	44	0	555745280	22	5017
2026-01-19 22:27:03.77	89.92	17.65	-30.7	-33.7	12.9	4.65e-05	0	44	0	557842432	22	5062
2026-01-19 22:27:04.77	90.15	17.64	-30.6	-33.5	13.0	5.18e-05	0	44	0	559939584	22	5006
2026-01-19 22:27:05.77	90.38	17.62	-30.7	-33.6	13.0	4.27e-05	0	44	0	562036736	22	5028
2026-01-19 22:27:06.78	90.62	17.61	-30.7	-33.6	13.0	4.57e-05	0	44	0	563085312	22	5017
2026-01-19 22:27:07.78	90.85	17.60	-30.7	-33.7	12.9	4.88e-05	0	44	0	565182464	22	5079
2026-01-19 22:27:08.78	91.07	17.58	-30.6	-33.5	13.0	5.34e-05	0	44	0	567279616	22	4988
2026-01-19 22:27:09.79	91.31	17.57	-30.6	-33.3	13.1	2.74e-05	0	44	0	569376768	22	4919
2026-01-19 22:27:10.79	91.54	17.55	-30.6	-33.3	13.2	3.20e-05	0	44	0	570425344	22	4940
2026-01-19 22:27:11.79	91.76	17.54	-30.6	-33.3	13.2	3.05e-05	0	44	0	572522496	22	4925
2026-01-19 22:27:12.80	92.00	17.52	-30.6	-33.3	13.1	3.43e-05	0	44	0	574619648	22	4940
2026-01-19 22:27:13.80	92.22	17.51	-30.4	-33.0	13.3	2.67e-05	0	44	0	576716800	22	4806
2026-01-19 22:27:14.80	92.45	17.49	-30.3	-32.7	13.6	1.37e-05	0	44	0	578813952	22	4697
2026-01-19 22:27:15.80	92.68	17.47	-30.4	-32.8	13.5	8.30e-06	0	44	0	579862528	22	4734
2026-01-19 22:27:16.81	92.91	17.45	-30.3	-33.0	13.7	1.06e-05	0	44	0	581959680	21	4925
2026-01-19 22:27:17.81	93.14	17.44	-30.2	-32.9	13.7	6.80e-06	0	44	0	584056832	21	4882
2026-01-19 22:27:18.82	93.37	17.42	-30.3	-33.0	13.6	5.30e-06	0	44	0	586153984	21	4910
2026-01-19 22:27:19.82	93.59	17.40	-30.4	-33.4	13.4	6.10e-06	0	44	0	588251136	21	5069
2026-01-19 22:27:20.83	93.82	17.38	-30.3	-33.1	13.6	1.60e-05	0	44	0	589299712	21	4953
2026-01-19 22:27:21.84	94.05	17.36	-30.2	-32.9	13.7	1.44e-05	0	44	0	591396864	21	4886
2026-01-19 22:27:22.83	94.27	17.34	-30.2	-32.9	13.7	5.30e-06	0	44	0	593494016	21	4893
2026-01-19 22:27:23.84	94.50	17.32	-30.2	-32.7	13.8	6.10e-06	0	44	0	595591168	21	4834
2026-01-19 22:27:24.84	94.73	17.30	-30.3	-33.1	13.7	1.05e-04	0	44	0	597688320	21	4954
2026-01-19 22:27:25.84	94.95	17.28	-30.3	-33.0	13.6	9.10e-06	0	44	0	598736896	21	4916
2026-01-19 22:27:26.85	95.18	17.25	-30.3	-33.7	13.5	2.64e-04	0	44	0	600834048	20	5297
2026-01-19 22:27:27.85	95.40	17.23	-30.3	-33.6	13.5	1.44e-05	0	44	0	602931200	20	5259
2026-01-19 22:27:28.86	95.63	17.21	-30.3	-33.6	13.5	1.29e-05	0	44	0	605028352	20	5272
2026-01-19 22:27:29.86	95.86	17.19	-30.3	-33.6	13.5	7.60e-06	0	44	0	607125504	20	5275
2026-01-19 22:27:30.86	96.08	17.16	-30.4	-33.7	13.5	1.14e-05	0	44	0	608174080	20	5311
2026-01-19 22:27:31.86	96.30	17.14	-30.4	-33.8	13.4	9.10e-06	0	44	0	610271232	20	5333
2026-01-19 22:27:32.87	96.53	17.11	-30.3	-33.5	13.6	9.90e-06	0	44	0	612368384	20	5223
2026-01-19 22:27:33.87	96.75	17.09	-30.1	-32.9	13.9	4.50e-06	0	44	0	614465536	20	5017
2026-01-19 22:27:34.88	96.97	17.06	-30.1	-33.0	14.0	3.80e-06	0	44	0	616562688	20	5017
2026-01-19 22:27:35.88	97.20	17.04	-30.0	-32.7	14.1	2.20e-06	0	44	0	617611264	20	4924
2026-01-19 22:27:36.88	97.42	17.01	-29.9	-32.5	14.2	0.00e+00	0	44	0	619708416	20	4861
2026-01-19 22:27:37.88	97.64	16.99	-30.0	-32.7	14.1	1.50e-06	0	44	0	621805568	20	4929
2026-01-19 22:27:38.89	97.86	16.96	-29.9	-32.6	14.1	3.00e-06	0	44	0	623902720	20	4897
2026-01-19 22:27:39.89	98.08	16.93	-30.2	-33.2	13.8	2.20e-06	0	44	0	624951296	20	5103
2026-01-19 22:27:40.89	98.30	16.91	-29.9	-32.6	14.1	3.00e-06	0	44	0	627048448	20	4907
2026-01-19 22:27:41.89	98.52	16.88	-29.8	-32.2	14.4	0.00e+00	0	44	0	629145600	20	4760
2026-01-19 22:27:42.89	98.74	16.85	-29.7	-31.9	14.6	0.00e+00	0	44	0	631242752	20	4668
2026-01-19 22:27:43.90	98.96	16.82	-29.7	-31.9	14.6	0.00e+00	0	44	0	633339904	20	4656
2026-01-19 22:27:44.90	99.18	16.79	-29.8	-32.2	14.4	0.00e+00	0	44	0	634388480	20	4753
2026-01-19 22:27:45.90	99.40	16.77	-29.9	-32.6	14.1	7.00e-07	0	44	0	636485632	20	4896
2026-01-19 22:27:46.90	99.62	16.74	-30.0	-32.7	14.0	3.00e-06	0	44	0	638582784	20	4936
2026-01-19 22:27:47.91	99.83	16.71	-29.9	-32.6	14.1	1.50e-06	0	44	0	640679936	20	4891
2026-01-19 22:27:48.91	100.05	16.68	-30.0	-32.8	14.0	2.20e-06	0	44	0	642777088	20	4984
2026-01-19 22:27:49.91	100.27	16.65	-29.9	-32.5	14.2	3.00e-06	0	44	0	643825664	20	4871
2026-01-19 22:27:50.92	100.49	16.61	-29.8	-32.3	14.3	1.50e-06	0	44	0	645922816	20	4792
2026-01-19 22:27:51.92	100.70	16.58	-29.8	-32.2	14.3	1.50e-06	0	44	0	648019968	20	4768
2026-01-19 22:27:52.92	100.92	16.55	-29.8	-32.3	14.3	7.00e-07	0	44	0	650117120	20	4799
2026-01-19 22:27:53.92	101.13	16.52	-29.6	-31.6	14.8	0.00e+00	0	44	0	652214272	20	4566
2026-01-19 22:27:54.92	101.34	16.49	-29.6	-31.7	14.7	0.00e+00	0	44	0	653262848	20	4583
2026-01-19 22:27:55.93	101.56	16.45	-29.8	-32.2	14.4	7.00e-07	0	44	0	655360000	20	4766
2026-01-19 22:27:56.93	101.77	16.42	-29.7	-31.9	14.6	0.00e+00	0	44	0	657457152	20	4659
2026-01-19 22:27:57.93	101.99	16.39	-29.7	-32.1	14.4	0.00e+00	0	44	0	659554304	20	4742
2026-01-19 22:27:58.93	102.20	16.36	-30.1	-33.0	13.9	2.20e-06	0	44	0	661651456	20	5045
2026-01-19 22:27:59.93	102.41	16.32	-30.1	-33.0	13.8	3.80e-06	0	44	0	662700032	20	5044
2026-01-19 22:28:00.93	102.62	16.29	-30.2	-33.5	13.5	4.50e-06	0	44	0	664797184	20	5231
2026-01-19 22:28:01.94	102.84	16.25	-30.3	-33.5	13.5	9.10e-06	0	44	0	666894336	20	5241
2026-01-19 22:28:02.94	103.05	16.22	-30.4	-33.9	13.3	1.44e-05	0	44	0	668991488	20	5386
2026-01-19 22:28:03.94	103.26	16.18	-30.4	-33.8	13.3	1.22e-05	0	44	0	670040064	20	5369
2026-01-19 22:28:04.95	103.47	16.15	-30.3	-33.6	13.4	1.44e-05	0	44	0	672137216	20	5291
2026-01-19 22:28:05.95	103.68	16.11	-30.5	-33.7	13.1	2.44e-05	0	44	0	674234368	21	5203
2026-01-19 22:28:06.96	103.89	16.07	-30.3	-33.1	13.4	3.58e-05	0	44	0	676331520	21	4982
2026-01-19 22:28:07.96	104.09	16.04	-30.3	-33.1	13.4	1.22e-05	0	44	0	678428672	21	4962
2026-01-19 22:28:08.96	104.30	16.00	-30.1	-32.6	13.7	3.00e-06	0	44	0	679477248	21	4820
2026-01-19 22:28:09.96	104.51	15.96	-30.0	-32.3	13.9	5.30e-06	0	44	0	681574400	21	4708
2026-01-19 22:28:10.97	104.72	15.93	-30.0	-32.4	13.9	6.10e-06	0	44	0	683671552	21	4721
2026-01-19 22:28:11.96	104.92	15.89	-30.0	-32.4	14.0	7.00e-07	0	44	0	685768704	21	4718
2026-01-19 22:28:12.96	105.13	15.85	-29.9	-32.1	14.1	4.50e-06	0	44	0	687865856	21	4638
2026-01-19 22:28:13.96	105.33	15.81	-30.0	-32.3	13.9	3.80e-06	0	44	0	688914432	21	4693
2026-01-19 22:28:14.96	105.54	15.78	-30.0	-32.2	14.0	3.66e-05	0	44	0	691011584	21	4671
2026-01-19 22:28:15.97	105.74	15.74	-30.0	-32.3	13.9	7.00e-07	0	44	0	693108736	21	4683
2026-01-19 22:28:16.97	105.95	15.70	-30.1	-33.2	13.6	5.30e-06	0	44	0	695205888	20	5133
2026-01-19 22:28:17.98	106.15	15.66	-30.3	-33.6	13.4	7.01e-05	0	44	0	697303040	20	5267
2026-01-19 22:28:18.98	106.35	15.62	-30.5	-33.8	12.9	2.82e-05	0	44	0	698351616	21	5236
2026-01-19 22:28:19.98	106.56	15.58	-30.7	-34.4	12.5	8.62e-05	0	44	0	700448768	21	5492
2026-01-19 22:28:20.98	106.76	15.54	-30.8	-34.7	12.3	1.56e-04	0	44	0	702545920	21	5628
2026-01-19 22:28:21.99	106.96	15.50	-30.8	-34.5	12.5	1.46e-04	0	44	0	704643072	21	5525
2026-01-19 22:28:22.99	107.16	15.46	-30.8	-34.7	12.3	1.45e-04	0	44	0	706740224	21	5609
2026-01-19 22:28:24.00	107.36	15.42	-30.8	-34.6	12.4	1.70e-04	0	44	0	707788800	21	5555
2026-01-19 22:28:24.99	107.56	15.38	-30.8	-34.6	12.4	1.50e-04	0	44	0	709885952	21	5556
2026-01-19 22:28:26.00	107.76	15.33	-30.8	-34.7	12.3	1.62e-04	0	44	0	711983104	21	5606
2026-01-19 22:28:27.00	107.96	15.29	-30.8	-34.7	12.3	1.43e-04	0	44	0	714080256	21	5629
2026-01-19 22:28:27.99	108.16	15.25	-31.0	-35.1	12.1	1.87e-04	0	44	0	715128832	21	5800
2026-01-19 22:28:28.99	108.35	15.21	-30.9	-34.2	12.3	2.06e-04	0	44	0	717225984	22	5314
2026-01-19 22:28:29.99	108.55	15.17	-30.7	-33.9	12.6	1.40e-04	0	44	0	719323136	22	5162
2026-01-19 22:28:31.00	108.75	15.12	-30.6	-33.5	12.8	7.70e-05	0	44	0	721420288	22	5006
2026-01-19 22:28:32.00	108.94	15.08	-30.7	-33.6	12.8	1.40e-04	0	44	0	723517440	22	5069
2026-01-19 22:28:33.00	109.14	15.04	-30.5	-33.2	13.0	9.07e-05	0	44	0	724566016	22	4918
2026-01-19 22:28:34.00	109.33	14.99	-30.5	-33.1	13.0	2.59e-05	0	44	0	726663168	22	4888
2026-01-19 22:28:35.00	109.53	14.95	-30.6	-33.6	12.7	6.40e-05	0	44	0	728760320	22	5074
2026-01-19 22:28:36.00	109.72	14.91	-30.6	-33.6	12.7	1.07e-04	0	44	0	730857472	22	5072
2026-01-19 22:28:37.01	109.91	14.86	-30.7	-33.9	12.5	9.76e-05	0	44	0	732954624	22	5189
2026-01-19 22:28:38.01	110.11	14.82	-30.8	-34.1	12.4	1.50e-04	0	44	0	734003200	22	5247
2026-01-19 22:28:39.01	110.30	14.77	-30.9	-34.4	12.2	2.37e-04	0	44	0	736100352	22	5380
2026-01-19 22:28:40.02	110.49	14.73	-31.0	-34.6	12.0	2.54e-04	0	44	0	738197504	22	5463
2026-01-19 22:28:41.02	110.68	14.68	-30.9	-34.4	12.2	2.37e-04	0	45	0	740294656	22	5394
2026-01-19 22:28:42.03	110.87	14.64	-31.0	-34.7	12.0	3.75e-04	0	45	0	742391808	22	5492
2026-01-19 22:28:43.02	111.06	14.59	-30.9	-34.5	12.0	2.81e-04	0	44	0	743440384	22	5442
2026-01-19 22:28:44.02	111.25	14.55	-30.9	-34.5	12.1	3.90e-04	0	44	0	745537536	22	5452
2026-01-19 22:28:45.02	111.44	14.50	-31.1	-35.0	11.8	4.16e-04	0	44	0	747634688	22	5632
2026-01-19 22:28:46.02	111.63	14.46	-31.0	-34.8	11.8	4.50e-04	0	44	0	749731840	22	5567
2026-01-19 22:28:47.03	111.82	14.41	-31.1	-35.1	11.6	7.99e-04	0	44	0	751828992	22	5675
2026-01-19 22:28:48.03	112.00	14.36	-31.0	-34.8	11.8	5.28e-04	0	44	0	752877568	22	5549
2026-01-19 22:28:49.03	112.19	14.32	-31.0	-34.8	11.9	4.56e-04	0	44	0	754974720	22	5546
2026-01-19 22:28:50.03	112.37	14.27	-31.0	-34.8	11.8	6.33e-04	0	44	0	757071872	22	5574
2026-01-19 22:28:51.04	112.56	14.22	-30.9	-34.9	12.1	5.77e-04	0	44	0	759169024	21	5733
2026-01-19 22:28:52.04	112.75	14.18	-31.0	-34.9	11.7	4.43e-04	0	44	0	760217600	22	5599
2026-01-19 22:28:53.05	112.93	14.13	-31.0	-34.8	11.8	5.82e-04	0	44	0	762314752	22	5576
2026-01-19 22:28:54.05	113.11	14.08	-31.2	-35.3	11.5	6.91e-04	0	44	0	764411904	22	5773
2026-01-19 22:28:55.06	113.30	14.03	-31.0	-34.7	11.9	6.86e-04	0	44	0	766509056	22	5522
2026-01-19 22:28:56.07	113.48	13.98	-31.0	-34.6	12.0	3.65e-04	0	44	0	768606208	22	5466
2026-01-19 22:28:57.07	113.66	13.94	-31.0	-34.7	11.8	4.21e-04	0	44	0	770703360	22	5532
2026-01-19 22:28:58.07	113.85	13.89	-31.0	-34.8	11.7	5.00e-04	0	44	0	771751936	22	5579
2026-01-19 22:28:59.08	114.03	13.84	-30.9	-34.4	12.1	3.58e-04	0	44	0	773849088	22	5385
2026-01-19 22:29:00.08	114.21	13.79	-30.8	-34.0	12.4	2.39e-04	0	44	0	775946240	22	5241
2026-01-19 22:29:01.09	114.39	13.74	-30.7	-33.9	12.4	1.52e-04	0	44	0	778043392	22	5195
2026-01-19 22:29:02.09	114.57	13.69	-30.8	-34.1	12.2	1.90e-04	0	44	0	779091968	22	5277
2026-01-19 22:29:03.09	114.75	13.65	-30.7	-34.0	12.4	2.09e-04	0	44	0	781189120	22	5219
2026-01-19 22:29:04.09	114.92	13.60	-30.8	-34.2	12.2	1.75e-04	0	44	0	783286272	22	5316
2026-01-19 22:29:05.09	115.10	13.55	-31.0	-34.7	11.8	4.81e-04	0	44	0	785383424	22	5508
2026-01-19 22:29:06.09	115.28	13.50	-30.8	-34.3	12.1	3.28e-04	0	44	0	787480576	22	5347
2026-01-19 22:29:07.10	115.45	13.45	-30.7	-34.0	12.3	2.41e-04	0	44	0	788529152	22	5254
2026-01-19 22:29:08.09	115.63	13.40	-30.6	-34.2	12.5	5.34e-04	0	44	0	790626304	21	5422
2026-01-19 22:29:09.09	115.80	13.35	-30.8	-34.9	12.0	2.71e-04	0	44	0	792723456	21	5723
2026-01-19 22:29:10.10	115.98	13.30	-30.8	-34.9	12.0	3.41e-04	0	44	0	794820608	21	5734
2026-01-19 22:29:11.10	116.15	13.25	-31.1	-35.1	11.5	7.12e-04	0	44	0	796917760	22	5711
2026-01-19 22:29:12.11	116.33	13.20	-31.1	-35.3	11.4	9.35e-04	0	44	0	797966336	22	5808
2026-01-19 22:29:13.11	116.50	13.15	-31.3	-35.8	11.0	1.31e-03	0	44	0	800063488	22	6045
2026-01-19 22:29:14.12	116.67	13.10	-31.3	-35.7	11.0	1.90e-03	0	44	0	802160640	22	6004
2026-01-19 22:29:15.12	116.84	13.05	-31.3	-35.8	11.0	1.85e-03	0	44	0	804257792	22	6051
2026-01-19 22:29:16.12	117.02	12.99	-31.3	-35.6	11.1	1.83e-03	0	44	0	806354944	22	5955
2026-01-19 22:29:17.12	117.19	12.94	-31.1	-35.1	11.5	1.11e-03	0	44	0	807403520	22	5711
2026-01-19 22:29:18.13	117.36	12.89	-31.0	-34.7	11.8	6.33e-04	0	44	0	809500672	22	5527
2026-01-19 22:29:19.12	117.52	12.84	-30.9	-34.4	12.0	3.00e-04	0	44	0	811597824	22	5404
2026-01-19 22:29:20.12	117.69	12.79	-30.8	-34.3	12.0	3.49e-04	0	44	0	813694976	22	5370
2026-01-19 22:29:21.12	117.86	12.74	-30.7	-34.0	12.3	2.03e-04	0	44	0	815792128	22	5236
2026-01-19 22:29:22.12	118.03	12.69	-30.8	-34.3	12.0	2.20e-04	0	44	0	816840704	22	5366
2026-01-19 22:29:23.12	118.19	12.64	-30.7	-33.8	12.4	1.49e-04	0	44	0	818937856	22	5174
2026-01-19 22:29:24.12	118.36	12.58	-30.5	-33.3	12.7	1.08e-04	0	44	0	821035008	22	4975
2026-01-19 22:29:25.13	118.53	12.53	-30.6	-33.7	12.4	7.70e-05	0	44	0	823132160	22	5125
2026-01-19 22:29:26.13	118.69	12.48	-30.7	-34.0	12.2	1.88e-04	0	44	0	824180736	22	5244
2026-01-19 22:29:27.14	118.86	12.43	-30.7	-33.9	12.3	1.71e-04	0	44	0	826277888	22	5214
2026-01-19 22:29:28.14	119.02	12.38	-30.5	-33.4	12.6	1.17e-04	0	44	0	828375040	22	5034
2026-01-19 22:29:29.15	119.19	12.32	-30.5	-33.2	12.8	1.52e-04	0	44	0	830472192	22	4950
2026-01-19 22:29:30.15	119.35	12.27	-30.4	-33.1	12.8	5.79e-05	0	44	0	832569344	22	4917
2026-01-19 22:29:31.15	119.51	12.22	-30.5	-33.3	12.7	6.79e-05	0	44	0	833617920	22	5001
2026-01-19 22:29:32.15	119.68	12.17	-30.5	-33.8	12.6	2.05e-04	0	44	0	835715072	21	5295
2026-01-19 22:29:33.15	119.84	12.11	-30.5	-33.8	12.6	1.07e-04	0	44	0	837812224	21	5305
2026-01-19 22:29:34.15	120.00	12.06	-30.6	-34.4	12.2	1.27e-04	0	44	0	839909376	21	5526
2026-01-19 22:29:35.16	120.16	12.01	-30.6	-34.2	12.3	1.62e-04	0	44	0	842006528	21	5464
2026-01-19 22:29:36.16	120.32	11.95	-30.7	-34.4	12.2	2.62e-04	0	44	0	843055104	21	5541
2026-01-19 22:29:37.16	120.48	11.90	-30.7	-34.6	12.0	3.18e-04	0	44	0	845152256	21	5629
2026-01-19 22:29:38.16	120.64	11.85	-30.6	-34.4	12.3	1.93e-04	0	44	0	847249408	21	5520
2026-01-19 22:29:39.16	120.79	11.80	-30.7	-34.5	12.1	1.52e-04	0	44	0	849346560	21	5590
2026-01-19 22:29:40.15	120.95	11.74	-30.7	-34.4	12.2	2.49e-04	0	44	0	851443712	21	5543
2026-01-19 22:29:41.16	121.11	11.69	-30.4	-33.7	12.7	1.01e-04	0	44	0	852492288	21	5233
2026-01-19 22:29:42.16	121.26	11.64	-30.6	-34.0	12.4	9.61e-05	0	44	0	854589440	21	5380
2026-01-19 22:29:43.16	121.42	11.58	-30.3	-33.4	12.8	8.31e-05	0	44	0	856686592	21	5145
2026-01-19 22:29:44.16	121.57	11.53	-30.2	-33.2	13.0	4.95e-05	0	44	0	858783744	21	5038
2026-01-19 22:29:45.17	121.73	11.48	-30.4	-33.6	12.7	4.80e-05	0	44	0	860880896	21	5214
2026-01-19 22:29:46.17	121.88	11.42	-30.5	-33.9	12.5	6.17e-05	0	44	0	861929472	21	5338
2026-01-19 22:29:47.17	122.04	11.37	-30.6	-34.3	12.3	1.58e-04	0	44	0	864026624	21	5471
2026-01-19 22:29:48.17	122.19	11.31	-30.8	-35.0	11.8	4.84e-04	0	44	0	866123776	21	5779
2026-01-19 22:29:49.17	122.34	11.26	-30.4	-33.7	12.6	2.94e-04	0	44	0	868220928	21	5251
2026-01-19 22:29:50.16	122.49	11.21	-30.5	-33.9	12.5	1.18e-04	0	44	0	869269504	21	5325
2026-01-19 22:29:51.17	122.65	11.15	-30.3	-33.4	12.8	7.78e-05	0	45	0	871366656	21	5132
2026-01-19 22:29:52.17	122.80	11.10	-30.4	-33.5	12.7	8.69e-05	0	44	0	873463808	21	5192
2026-01-19 22:29:53.17	122.95	11.05	-30.2	-33.2	13.0	5.79e-05	0	44	0	875560960	21	5065
2026-01-19 22:29:54.18	123.10	10.99	-30.2	-33.1	13.0	3.50e-05	0	44	0	877658112	21	5033
2026-01-19 22:29:55.18	123.25	10.94	-30.3	-33.4	12.8	4.04e-05	0	44	0	878706688	21	5123
2026-01-19 22:29:56.19	123.40	10.88	-30.3	-33.2	13.0	6.40e-05	0	44	0	880803840	21	5063
2026-01-19 22:29:57.19	123.55	10.83	-30.3	-33.3	12.9	4.88e-05	0	44	0	882900992	21	5111
2026-01-19 22:29:58.18	123.69	10.77	-30.5	-34.0	12.4	1.14e-04	0	44	0	884998144	21	5388
2026-01-19 22:29:59.18	123.84	10.72	-30.6	-34.2	12.3	2.04e-04	0	44	0	887095296	21	5455
2026-01-19 22:30:00.19	123.99	10.66	-30.8	-34.7	11.9	3.58e-04	0	44	0	888143872	21	5690
2026-01-19 22:30:01.19	124.13	10.61	-30.7	-34.5	12.0	2.91e-04	0	44	0	890241024	21	5599
2026-01-19 22:30:02.20	124.28	10.56	-30.7	-34.7	11.8	3.81e-04	0	44	0	892338176	21	5709
2026-01-19 22:30:03.20	124.42	10.50	-30.6	-34.4	12.1	3.87e-04	0	44	0	894435328	21	5561
2026-01-19 22:30:04.21	124.57	10.45	-30.7	-34.5	12.0	3.44e-04	0	44	0	896532480	21	5596
2026-01-19 22:30:05.21	124.71	10.39	-30.7	-34.6	11.9	3.74e-04	0	44	0	897581056	21	5634
2026-01-19 22:30:06.22	124.86	10.34	-30.5	-33.9	12.4	2.62e-04	0	44	0	899678208	21	5363
2026-01-19 22:30:07.22	125.00	10.28	-30.5	-34.1	12.3	1.99e-04	0	44	0	901775360	21	5433
2026-01-19 22:30:08.23	125.15	10.23	-30.6	-34.4	12.1	2.66e-04	0	45	0	903872512	21	5563
2026-01-19 22:30:09.22	125.29	10.17	-30.5	-34.0	12.3	1.89e-04	0	44	0	905969664	21	5399
2026-01-19 22:30:10.22	125.43	10.12	-30.6	-34.2	12.2	2.12e-04	0	44	0	907018240	21	5483
2026-01-19 22:30:11.23	125.57	10.06	-30.7	-34.8	11.8	4.28e-04	0	44	0	909115392	21	5717
2026-01-19 22:30:12.23	125.71	10.01	-30.7	-34.6	11.9	3.23e-04	0	44	0	911212544	21	5635
2026-01-19 22:30:13.23	125.85	9.95	-30.9	-35.1	11.5	5.14e-04	0	44	0	913309696	21	5874
2026-01-19 22:30:14.23	125.99	9.90	-30.7	-34.8	11.8	5.55e-04	0	44	0	914358272	21	5720
2026-01-19 22:30:15.24	126.13	9.84	-30.8	-34.9	11.7	5.21e-04	0	44	0	916455424	21	5793
2026-01-19 22:30:16.24	126.27	9.79	-30.8	-35.2	11.4	9.55e-04	0	44	0	918552576	21	5912
2026-01-19 22:30:17.25	126.41	9.73	-30.8	-35.0	11.5	6.42e-04	0	44	0	920649728	21	5839
2026-01-19 22:30:18.25	126.54	9.68	-30.7	-34.7	11.8	6.10e-04	0	44	0	922746880	21	5690
2026-01-19 22:30:19.26	126.68	9.62	-30.6	-34.6	11.8	3.90e-04	0	44	0	923795456	21	5658
2026-01-19 22:30:20.26	126.82	9.57	-30.6	-34.5	11.9	4.75e-04	0	44	0	925892608	21	5628
2026-01-19 22:30:21.26	126.95	9.51	-30.7	-34.9	11.6	5.22e-04	0	44	0	927989760	21	5816
2026-01-19 22:30:22.27	127.09	9.46	-30.7	-34.9	11.6	6.00e-04	0	44	0	930086912	21	5785
2026-01-19 22:30:23.27	127.22	9.40	-30.8	-35.1	11.5	8.15e-04	0	44	0	932184064	21	5891
2026-01-19 22:30:24.27	127.36	9.35	-30.9	-35.5	11.2	1.24e-03	0	44	0	933232640	21	6061
2026-01-19 22:30:25.27	127.49	9.29	-31.1	-35.6	10.8	2.09e-03	0	44	0	935329792	22	5997
2026-01-19 22:30:26.27	127.63	9.24	-31.2	-35.7	10.7	2.53e-03	0	44	0	937426944	22	6078
2026-01-19 22:30:27.27	127.76	9.18	-31.0	-35.3	10.9	1.90e-03	0	44	0	939524096	22	5895
2026-01-19 22:30:28.27	127.89	9.13	-31.1	-35.5	10.8	2.32e-03	0	44	0	941621248	22	5970
2026-01-19 22:30:29.27	128.02	9.07	-31.1	-35.5	10.8	2.68e-03	0	44	0	942669824	22	5955
2026-01-19 22:30:30.27	128.15	9.01	-31.1	-35.4	10.9	1.58e-03	0	44	0	944766976	22	5925
2026-01-19 22:30:31.28	128.29	8.96	-31.0	-35.3	10.9	2.30e-03	0	44	0	946864128	22	5860
2026-01-19 22:30:32.28	128.42	8.90	-31.0	-35.2	11.0	2.25e-03	0	45	0	948961280	22	5821
2026-01-19 22:30:33.28	128.55	8.85	-30.9	-34.9	11.2	1.15e-03	0	44	0	951058432	22	5707
2026-01-19 22:30:34.29	128.68	8.79	-30.9	-35.1	11.0	1.68e-03	0	44	0	952107008	22	5795
2026-01-19 22:30:35.28	128.81	8.74	-30.9	-35.1	11.0	1.93e-03	0	44	0	954204160	22	5791
2026-01-19 22:30:36.29	128.94	8.68	-31.0	-35.3	10.9	1.86e-03	0	44	0	956301312	22	5898
2026-01-19 22:30:37.29	129.06	8.63	-31.0	-35.5	10.7	2.36e-03	0	44	0	958398464	22	5999
2026-01-19 22:30:38.29	129.19	8.57	-31.1	-35.6	10.6	3.65e-03	0	45	0	959447040	22	6087
2026-01-19 22:30:39.30	129.32	8.52	-31.1	-35.7	10.5	4.19e-03	0	44	0	961544192	22	6120
2026-01-19 22:30:40.30	129.45	8.46	-30.9	-35.1	10.9	2.68e-03	0	44	0	963641344	22	5823
2026-01-19 22:30:41.30	129.57	8.41	-30.9	-35.3	10.8	3.22e-03	0	44	0	965738496	22	5922
2026-01-19 22:30:42.30	129.70	8.35	-31.1	-35.9	10.3	5.63e-03	0	44	0	967835648	22	6223
2026-01-19 22:30:43.30	129.82	8.30	-30.9	-35.2	10.8	3.80e-03	0	44	0	968884224	22	5891
2026-01-19 22:30:44.29	129.95	8.24	-30.9	-35.3	10.6	2.89e-03	0	44	0	970981376	22	5978
2026-01-19 22:30:45.30	130.07	8.19	-31.0	-35.6	10.4	2.70e-03	0	44	0	973078528	22	6099
2026-01-19 22:30:46.30	130.20	8.13	-31.2	-36.3	9.8	9.44e-03	0	44	0	975175680	22	6462
2026-01-19 22:30:47.30	130.32	8.08	-31.2	-36.3	9.9	8.22e-03	0	44	0	977272832	22	6485
2026-01-19 22:30:48.30	130.44	8.02	-31.3	-36.7	9.6	9.29e-03	0	44	0	978321408	22	6688
2026-01-19 22:30:49.30	130.57	7.97	-31.5	-37.3	9.1	1.79e-02	0	44	0	980418560	22	7015
2026-01-19 22:30:50.31	130.69	7.91	-31.4	-36.8	9.5	1.68e-02	0	44	0	982515712	22	6721
2026-01-19 22:30:51.30	130.81	7.86	-31.5	-36.7	9.1	1.64e-02	0	45	0	984612864	23	6594
2026-01-19 22:30:52.31	130.93	7.80	-31.5	-37.0	9.0	2.29e-02	0	44	0	986710016	23	6719
2026-01-19 22:30:53.32	131.05	7.74	-31.6	-37.2	8.7	5.07e-02	0	44	0	987758592	23	6889
2026-01-19 22:30:54.32	131.17	7.69	-31.6	-37.2	8.8	3.46e-02	0	44	0	989855744	23	6844
2026-01-19 22:30:55.33	131.30	7.63	-31.6	-37.2	8.8	3.13e-02	0	44	0	991952896	23	6893
2026-01-19 22:30:56.33	131.41	7.58	-31.7	-37.7	8.3	3.91e-02	0	44	0	994050048	23	7207
2026-01-19 22:30:57.33	131.53	7.52	-31.6	-37.7	8.3	5.90e-02	0	44	0	996147200	23	7220
2026-01-19 22:30:58.33	131.65	7.47	-31.5	-37.2	8.7	4.03e-02	0	45	0	997195776	23	6887
2026-01-19 22:30:59.33	131.77	7.41	-31.3	-36.4	9.3	2.19e-02	0	44	0	999292928	23	6448
2026-01-19 22:31:00.33	131.89	7.36	-31.1	-35.5	10.0	1.15e-02	0	44	0	1001390080	23	5976
2026-01-19 22:31:01.33	132.01	7.30	-31.1	-35.6	9.9	7.48e-03	0	44	0	1003487232	23	6028
2026-01-19 22:31:02.33	132.12	7.25	-31.1	-36.1	10.0	8.06e-03	0	44	0	1004535808	22	6364
2026-01-19 22:31:03.34	132.24	7.19	-31.1	-36.2	9.9	9.08e-03	0	44	0	1006632960	22	6416
2026-01-19 22:31:04.33	132.35	7.14	-31.3	-36.7	9.5	1.24e-02	0	45	0	1008730112	22	6714
2026-01-19 22:31:05.33	132.47	7.08	-32.5	-42.4	5.2	5.37e-02	0	44	0	1010827264	24	11262
2026-01-19 22:31:06.33	132.59	7.03	-33.4	-47.9	3.8	1.49e+00	0	45	104	1010827264	26	19129
2026-01-19 22:31:07.33	132.70	6.97	-33.7	-48.1	3.8	1.49e+00	0	44	104	1010827264	27	18830
2026-01-19 22:31:08.33	132.81	6.92	-34.0	-48.6	3.8	1.49e+00	0	45	104	1010827264	27	19388

#Closed at: 2026-01-19 22:31:08
#Recorded file [1010 MB]: D:/data/31010_260120_012205.dat