passes_logs/2026/01/19/R2M6_AANII_01/R2M6_AANII_01__20260119_041913_FENGYUN_3D_rec.log

#Pass ID: 20260119_041913_FENGYUN 3D
#Satellite: FENGYUN 3D
#Configuration: FENGYUN 3D
#almurnet v.1.7.20240730
#Start time: 2026-01-19 04:19:15

#Version: 2.2.20231116
#Station: R2M6_AANII_01
#Location: 30.233357 lon 59.946436 lat
#TLE: 1 43010U 17072A   26017.96359538  .00000271  00000+0  15011-3 0  9999
#TLE: 2 43010  98.9936 349.8252 0002386 103.8840 256.2601 14.19697057423673

#Time	Az	El	Level	Level2	SNR	BER	BlckErr	Temp	State	Recorded	gain1	gain2
2026-01-19 04:19:15.09	10.96	7.12	-30.9	-35.0	5.1	7.93e-01	0	42	0	0	21	5793
2026-01-19 04:19:16.09	10.87	7.18	-30.7	-34.4	5.2	7.87e-01	0	42	104	0	21	5530
2026-01-19 04:19:17.10	10.78	7.25	-30.6	-34.0	9.1	3.23e-02	0	42	0	0	21	5363
2026-01-19 04:19:18.10	10.69	7.31	-30.6	-34.2	9.0	3.26e-02	0	42	0	5242880	21	5448
2026-01-19 04:19:19.10	10.60	7.38	-30.7	-34.3	8.9	3.31e-02	0	42	0	11534336	21	5462
2026-01-19 04:19:20.10	10.51	7.44	-30.7	-34.3	9.0	3.39e-02	0	42	0	16777216	21	5467
2026-01-19 04:19:21.11	10.41	7.51	-31.0	-34.9	8.2	5.20e-02	0	42	0	22020096	22	5623
2026-01-19 04:19:22.11	10.32	7.57	-30.5	-33.9	9.2	2.89e-02	0	42	0	28311552	21	5293
2026-01-19 04:19:23.12	10.23	7.64	-30.1	-33.2	10.0	1.53e-02	0	42	0	33554432	20	5140
2026-01-19 04:19:24.12	10.14	7.70	-29.6	-32.4	11.0	5.47e-03	0	42	0	38797312	19	4938
2026-01-19 04:19:25.13	10.04	7.77	-29.2	-31.7	11.8	1.36e-03	0	42	0	45088768	18	4795
2026-01-19 04:19:26.13	9.95	7.84	-28.7	-30.9	12.6	3.08e-04	0	42	0	50331648	17	4673
2026-01-19 04:19:27.14	9.86	7.90	-28.5	-30.6	12.9	1.99e-03	0	42	0	55574528	17	4568
2026-01-19 04:19:28.14	9.76	7.97	-28.2	-29.8	13.3	3.26e-04	0	42	0	61865984	17	4325
2026-01-19 04:19:29.15	9.67	8.03	-28.0	-29.9	13.6	1.81e-03	0	42	0	67108864	16	4465
2026-01-19 04:19:30.16	9.57	8.10	-27.8	-29.9	13.7	1.67e-03	0	42	0	73400320	15	4579
2026-01-19 04:19:31.16	9.47	8.17	-27.7	-29.8	13.8	3.00e-04	0	42	0	78643200	15	4555
2026-01-19 04:19:32.17	9.38	8.23	-27.8	-29.9	13.7	1.73e-03	0	42	0	84934656	15	4579
2026-01-19 04:19:33.17	9.28	8.30	-27.8	-30.0	13.7	1.61e-03	0	42	0	90177536	15	4616
2026-01-19 04:19:34.17	9.18	8.37	-27.8	-29.9	13.7	2.56e-04	0	42	0	95420416	15	4587
2026-01-19 04:19:35.18	9.08	8.43	-27.9	-30.1	13.6	9.10e-06	0	42	0	101711872	15	4639
2026-01-19 04:19:36.18	8.99	8.50	-27.8	-29.8	13.8	1.82e-03	0	42	0	106954752	15	4564
2026-01-19 04:19:37.19	8.89	8.57	-27.9	-30.0	13.7	2.68e-04	0	42	0	112197632	15	4631
2026-01-19 04:19:38.20	8.79	8.64	-27.8	-30.0	13.7	1.85e-03	0	43	0	118489088	15	4602
2026-01-19 04:19:39.20	8.69	8.70	-27.9	-30.2	13.6	1.84e-03	0	42	0	123731968	15	4683
2026-01-19 04:19:40.20	8.59	8.77	-27.7	-29.8	13.9	1.02e-05	0	42	0	130023424	15	4544
2026-01-19 04:19:41.20	8.49	8.84	-27.7	-29.6	14.0	1.80e-03	0	43	0	135266304	15	4488
2026-01-19 04:19:42.20	8.39	8.90	-27.6	-29.5	14.0	2.20e-06	0	43	0	140509184	15	4458
2026-01-19 04:19:43.20	8.29	8.97	-27.7	-29.6	14.0	2.51e-04	0	43	0	146800640	15	4501
2026-01-19 04:19:44.21	8.18	9.04	-27.5	-29.2	14.2	4.50e-06	0	42	0	152043520	15	4375
2026-01-19 04:19:45.21	8.08	9.11	-27.5	-29.6	14.3	1.10e-06	0	43	0	158334976	14	4611
2026-01-19 04:19:46.22	7.98	9.17	-27.5	-29.2	14.2	2.77e-04	0	43	0	163577856	15	4388
2026-01-19 04:19:47.22	7.87	9.24	-27.5	-29.3	14.2	2.20e-06	0	43	0	168820736	15	4397
2026-01-19 04:19:48.22	7.77	9.31	-27.5	-29.1	14.3	1.70e-03	0	42	0	175112192	15	4348
2026-01-19 04:19:49.23	7.67	9.38	-27.4	-28.8	14.5	1.10e-06	0	43	0	180355072	15	4271
2026-01-19 04:19:50.23	7.56	9.45	-27.4	-29.5	14.4	1.61e-03	0	43	0	185597952	14	4571
2026-01-19 04:19:51.23	7.46	9.51	-27.3	-29.2	14.5	0.00e+00	0	43	0	191889408	14	4496
2026-01-19 04:19:52.24	7.35	9.58	-27.2	-29.1	14.6	0.00e+00	0	43	0	197132288	14	4459
2026-01-19 04:19:53.25	7.24	9.65	-27.3	-29.1	14.6	0.00e+00	0	43	0	203423744	14	4459
2026-01-19 04:19:54.25	7.13	9.72	-27.2	-29.1	14.7	0.00e+00	0	43	0	208666624	14	4456
2026-01-19 04:19:55.26	7.03	9.79	-27.2	-29.1	14.7	1.10e-06	0	43	0	213909504	14	4451
2026-01-19 04:19:56.26	6.92	9.86	-27.2	-29.0	14.7	0.00e+00	0	43	0	220200960	14	4419
2026-01-19 04:19:57.26	6.81	9.92	-27.2	-29.1	14.7	0.00e+00	0	43	0	225443840	14	4448
2026-01-19 04:19:58.26	6.70	9.99	-27.4	-29.4	14.4	0.00e+00	0	43	0	231735296	14	4548
2026-01-19 04:19:59.27	6.59	10.06	-27.3	-29.1	14.6	1.10e-06	0	43	0	236978176	14	4461
2026-01-19 04:20:00.28	6.48	10.13	-27.3	-29.3	14.5	0.00e+00	0	43	0	242221056	14	4514
2026-01-19 04:20:01.28	6.37	10.20	-27.3	-29.2	14.6	0.00e+00	0	43	0	248512512	14	4476
2026-01-19 04:20:02.29	6.26	10.27	-27.4	-29.4	14.5	1.10e-06	0	43	0	253755392	14	4550
2026-01-19 04:20:03.29	6.15	10.34	-27.5	-29.1	14.3	1.10e-06	0	43	0	258998272	15	4357
2026-01-19 04:20:04.29	6.03	10.41	-27.4	-28.9	14.5	2.20e-06	0	43	0	265289728	15	4290
2026-01-19 04:20:05.29	5.92	10.48	-27.3	-29.2	14.6	0.00e+00	0	43	0	270532608	14	4474
2026-01-19 04:20:06.29	5.81	10.55	-27.4	-29.4	14.5	2.20e-06	0	43	0	275775488	14	4539
2026-01-19 04:20:07.30	5.69	10.62	-27.4	-29.5	14.4	1.10e-06	0	43	0	282066944	14	4576
2026-01-19 04:20:08.30	5.58	10.69	-27.7	-29.7	14.0	1.10e-06	0	43	0	287309824	15	4516
2026-01-19 04:20:09.30	5.46	10.76	-27.8	-29.9	13.9	6.80e-06	0	43	0	293601280	15	4580
2026-01-19 04:20:10.31	5.35	10.83	-27.6	-29.3	14.3	4.50e-06	0	43	0	298844160	15	4401
2026-01-19 04:20:11.31	5.23	10.90	-27.3	-28.6	14.7	0.00e+00	0	43	0	305135616	15	4220
2026-01-19 04:20:12.31	5.12	10.97	-27.4	-29.4	14.5	1.10e-06	0	43	0	310378496	14	4526
2026-01-19 04:20:13.31	5.00	11.04	-27.4	-29.4	14.5	0.00e+00	0	43	0	315621376	14	4546
2026-01-19 04:20:14.31	4.88	11.11	-27.4	-29.4	14.5	1.10e-06	0	43	0	321912832	14	4555
2026-01-19 04:20:15.32	4.76	11.18	-27.5	-29.1	14.4	1.10e-06	0	43	0	327155712	15	4341
2026-01-19 04:20:16.32	4.64	11.25	-27.4	-28.9	14.5	0.00e+00	0	43	0	332398592	15	4288
2026-01-19 04:20:17.32	4.52	11.32	-27.4	-29.4	14.5	0.00e+00	0	43	0	338690048	14	4538
2026-01-19 04:20:18.32	4.40	11.39	-27.3	-29.3	14.6	0.00e+00	0	43	0	343932928	14	4497
2026-01-19 04:20:19.32	4.28	11.46	-27.3	-29.3	14.6	0.00e+00	0	43	0	349175808	14	4510
2026-01-19 04:20:20.33	4.16	11.53	-27.3	-29.1	14.7	1.10e-06	0	43	0	355467264	14	4460
2026-01-19 04:20:21.33	4.04	11.60	-27.2	-29.0	14.8	1.10e-06	0	43	0	360710144	14	4423
2026-01-19 04:20:22.33	3.91	11.67	-27.3	-29.2	14.6	0.00e+00	0	44	0	367001600	14	4495
2026-01-19 04:20:23.34	3.79	11.74	-27.0	-28.6	15.0	0.00e+00	0	43	0	372244480	14	4305
2026-01-19 04:20:24.35	3.67	11.81	-26.9	-28.3	15.2	0.00e+00	0	43	0	378535936	14	4226
2026-01-19 04:20:25.35	3.54	11.88	-26.9	-28.8	15.2	0.00e+00	0	43	0	383778816	13	4476
2026-01-19 04:20:26.35	3.42	11.95	-26.9	-28.8	15.2	0.00e+00	0	43	0	389021696	13	4482
2026-01-19 04:20:27.36	3.29	12.03	-26.9	-28.9	15.1	0.00e+00	0	43	0	395313152	13	4510
2026-01-19 04:20:28.36	3.16	12.10	-26.8	-28.6	15.3	0.00e+00	0	43	0	400556032	13	4423
2026-01-19 04:20:29.37	3.04	12.17	-26.7	-28.5	15.4	0.00e+00	0	43	0	405798912	13	4392
2026-01-19 04:20:30.38	2.91	12.24	-26.8	-28.6	15.3	0.00e+00	0	44	0	412090368	13	4436
2026-01-19 04:20:31.38	2.78	12.31	-26.9	-28.7	15.3	0.00e+00	0	43	0	417333248	13	4457
2026-01-19 04:20:32.38	2.65	12.38	-26.7	-28.3	15.5	0.00e+00	0	43	0	422576128	13	4349
2026-01-19 04:20:33.38	2.52	12.45	-26.7	-28.3	15.5	0.00e+00	0	43	0	428867584	13	4329
2026-01-19 04:20:34.39	2.39	12.53	-26.7	-28.2	15.5	0.00e+00	0	43	0	434110464	13	4317
2026-01-19 04:20:35.39	2.26	12.60	-26.7	-28.3	15.5	0.00e+00	0	43	0	440401920	13	4344
2026-01-19 04:20:36.39	2.13	12.67	-26.7	-28.5	15.1	0.00e+00	0	44	0	445644800	13	4382
2026-01-19 04:20:37.40	1.99	12.74	-26.7	-28.3	13.9	0.00e+00	0	44	0	451936256	13	4346
2026-01-19 04:20:38.41	1.86	12.81	-26.6	-28.2	15.5	0.00e+00	0	43	0	457179136	13	4312
2026-01-19 04:20:39.41	1.73	12.89	-26.7	-28.4	15.5	0.00e+00	0	44	0	462422016	13	4365
2026-01-19 04:20:40.42	1.59	12.96	-26.7	-28.3	15.5	1.50e-03	0	43	0	468713472	13	4343
2026-01-19 04:20:41.42	1.46	13.03	-26.6	-28.2	15.6	0.00e+00	0	44	0	473956352	13	4305
2026-01-19 04:20:42.42	1.32	13.10	-26.6	-28.1	15.6	0.00e+00	0	43	0	479199232	13	4287
2026-01-19 04:20:43.43	1.18	13.17	-26.5	-27.9	15.7	0.00e+00	0	44	0	485490688	13	4232
2026-01-19 04:20:44.43	1.05	13.25	-26.5	-27.9	15.7	0.00e+00	0	44	0	490733568	13	4239
2026-01-19 04:20:45.44	0.91	13.32	-26.6	-28.1	15.7	7.32e-05	0	44	0	495976448	13	4281
2026-01-19 04:20:46.44	0.77	13.39	-26.5	-27.9	15.8	0.00e+00	0	44	0	502267904	13	4241
2026-01-19 04:20:47.45	0.63	13.46	-26.5	-27.9	15.8	1.48e-03	0	43	0	507510784	13	4226
2026-01-19 04:20:48.45	0.49	13.54	-26.5	-27.9	15.8	0.00e+00	0	44	0	513802240	13	4238
2026-01-19 04:20:49.45	0.35	13.61	-26.5	-27.9	15.8	1.53e-03	0	44	0	519045120	13	4241
2026-01-19 04:20:50.45	0.21	13.68	-26.6	-28.0	15.8	0.00e+00	0	44	0	525336576	13	4260
2026-01-19 04:20:51.46	0.07	13.75	-26.6	-28.0	15.7	1.67e-04	0	44	0	530579456	13	4265
2026-01-19 04:20:52.46	359.92	13.83	-26.5	-27.8	15.8	1.49e-03	0	43	0	535822336	13	4201
2026-01-19 04:20:53.46	359.78	13.90	-26.4	-28.3	15.9	0.00e+00	0	44	0	542113792	12	4440
2026-01-19 04:20:54.47	359.64	13.97	-26.4	-28.1	16.0	1.73e-04	0	44	0	547356672	12	4388
2026-01-19 04:20:55.47	359.49	14.04	-26.3	-28.0	16.1	0.00e+00	0	44	0	552599552	12	4359
2026-01-19 04:20:56.47	359.35	14.12	-26.3	-28.0	16.1	1.55e-03	0	44	0	558891008	12	4366
2026-01-19 04:20:57.47	359.20	14.19	-26.2	-27.8	16.2	1.68e-04	0	44	0	564133888	12	4305
2026-01-19 04:20:58.47	359.05	14.26	-26.3	-27.9	16.1	1.48e-03	0	44	0	569376768	12	4337
2026-01-19 04:20:59.48	358.91	14.33	-26.3	-28.0	16.1	1.39e-03	0	44	0	575668224	12	4371
2026-01-19 04:21:00.48	358.76	14.41	-26.2	-27.8	16.2	0.00e+00	0	44	0	580911104	12	4314
2026-01-19 04:21:01.49	358.61	14.48	-26.3	-27.9	16.1	1.28e-03	0	44	0	587202560	12	4350
2026-01-19 04:21:02.50	358.46	14.55	-26.3	-27.8	16.2	9.33e-04	0	44	0	592445440	12	4320
2026-01-19 04:21:03.49	358.31	14.62	-26.2	-27.7	16.2	2.00e-04	0	44	0	598736896	12	4290
2026-01-19 04:21:04.49	358.16	14.70	-26.2	-27.8	16.2	1.21e-03	0	44	0	603979776	12	4316
2026-01-19 04:21:05.50	358.00	14.77	-26.2	-27.6	16.3	1.29e-03	0	44	0	609222656	12	4265
2026-01-19 04:21:06.50	357.85	14.84	-26.0	-27.4	16.4	2.25e-04	0	44	0	615514112	12	4200
2026-01-19 04:21:07.50	357.70	14.92	-26.1	-27.5	16.4	1.26e-03	0	44	0	620756992	12	4223
2026-01-19 04:21:08.50	357.54	14.99	-26.1	-27.4	16.4	1.29e-03	0	44	0	625999872	12	4207
2026-01-19 04:21:09.49	357.39	15.06	-26.0	-27.2	16.5	2.64e-04	0	44	0	632291328	12	4159
2026-01-19 04:21:10.50	357.23	15.13	-26.1	-27.4	16.4	1.22e-03	0	44	0	637534208	12	4206
2026-01-19 04:21:11.50	357.07	15.21	-26.1	-27.4	16.4	1.11e-03	0	44	0	642777088	12	4208
2026-01-19 04:21:12.50	356.92	15.28	-26.1	-27.6	16.4	2.55e-04	0	44	0	649068544	12	4243
2026-01-19 04:21:13.50	356.76	15.35	-26.1	-27.6	16.4	1.12e-03	0	44	0	654311424	12	4254
2026-01-19 04:21:14.51	356.60	15.42	-26.0	-27.4	16.5	0.00e+00	0	44	0	660602880	12	4191
2026-01-19 04:21:15.51	356.44	15.50	-26.0	-27.3	16.5	2.07e-04	0	44	0	665845760	12	4190
2026-01-19 04:21:16.52	356.28	15.57	-26.1	-27.4	16.5	0.00e+00	0	44	0	671088640	12	4208
2026-01-19 04:21:17.52	356.12	15.64	-26.0	-27.3	16.5	1.19e-03	0	44	0	677380096	12	4181
2026-01-19 04:21:18.53	355.95	15.72	-26.0	-27.3	16.5	1.64e-04	0	44	0	682622976	12	4188
2026-01-19 04:21:19.53	355.79	15.79	-26.0	-27.3	16.5	8.31e-04	0	44	0	687865856	12	4175
2026-01-19 04:21:20.53	355.63	15.86	-25.9	-27.1	16.6	1.03e-03	0	44	0	694157312	12	4118
2026-01-19 04:21:21.54	355.46	15.94	-26.0	-27.7	16.6	0.00e+00	0	44	0	699400192	11	4402
2026-01-19 04:21:22.54	355.29	16.01	-25.9	-27.0	16.7	8.38e-04	0	44	0	704643072	12	4108
2026-01-19 04:21:23.55	355.13	16.08	-25.9	-27.5	16.8	0.00e+00	0	44	0	710934528	11	4338
2026-01-19 04:21:24.55	354.96	16.15	-25.9	-27.5	16.7	1.70e-04	0	44	0	716177408	11	4349
2026-01-19 04:21:25.55	354.79	16.23	-25.9	-27.6	16.7	0.00e+00	0	44	0	722468864	11	4367
2026-01-19 04:21:26.56	354.62	16.30	-25.9	-27.6	16.7	0.00e+00	0	44	0	727711744	11	4369
2026-01-19 04:21:27.55	354.45	16.37	-25.9	-27.6	16.7	1.75e-04	0	44	0	734003200	11	4362
2026-01-19 04:21:28.56	354.28	16.44	-26.0	-27.2	16.6	0.00e+00	0	44	0	739246080	12	4153
2026-01-19 04:21:29.56	354.11	16.52	-26.2	-27.6	16.4	7.72e-04	0	44	0	744488960	12	4264
2026-01-19 04:21:30.57	353.94	16.59	-26.2	-27.6	16.4	0.00e+00	0	44	0	750780416	12	4255
2026-01-19 04:21:31.57	353.76	16.66	-26.1	-27.5	16.4	0.00e+00	0	44	0	756023296	12	4242
2026-01-19 04:21:32.58	353.59	16.73	-26.1	-27.5	16.4	0.00e+00	0	44	0	761266176	12	4233
2026-01-19 04:21:33.58	353.41	16.81	-26.0	-27.2	16.6	0.00e+00	0	44	0	767557632	12	4156
2026-01-19 04:21:34.59	353.24	16.88	-26.0	-27.7	16.7	8.62e-04	0	44	0	772800512	11	4381
2026-01-19 04:21:35.58	353.06	16.95	-25.9	-27.0	16.8	0.00e+00	0	44	0	778043392	12	4090
2026-01-19 04:21:36.58	352.89	17.02	-25.9	-27.6	16.7	1.52e-04	0	44	0	784334848	11	4359
2026-01-19 04:21:37.59	352.71	17.09	-25.9	-27.4	16.8	0.00e+00	0	44	0	789577728	11	4321
2026-01-19 04:21:38.58	352.53	17.16	-25.8	-27.3	16.9	0.00e+00	0	44	0	795869184	11	4296
2026-01-19 04:21:39.59	352.35	17.24	-25.7	-27.2	17.0	0.00e+00	0	44	0	801112064	11	4251
2026-01-19 04:21:40.59	352.17	17.31	-25.8	-27.2	16.9	0.00e+00	0	44	0	806354944	11	4266
2026-01-19 04:21:41.59	351.99	17.38	-25.8	-27.3	17.0	0.00e+00	0	44	0	812646400	11	4274
2026-01-19 04:21:42.60	351.80	17.45	-26.0	-27.7	16.7	0.00e+00	0	44	0	817889280	11	4391
2026-01-19 04:21:43.61	351.62	17.52	-25.8	-26.9	16.8	0.00e+00	0	44	0	824180736	12	4074
2026-01-19 04:21:44.61	351.43	17.60	-25.9	-27.4	16.9	0.00e+00	0	44	0	829423616	11	4319
2026-01-19 04:21:45.61	351.25	17.67	-25.9	-27.5	16.9	0.00e+00	0	44	0	834666496	11	4324
2026-01-19 04:21:46.61	351.06	17.74	-25.9	-27.5	16.8	0.00e+00	0	44	0	840957952	11	4336
2026-01-19 04:21:47.62	350.87	17.81	-25.8	-27.3	16.9	0.00e+00	0	44	0	846200832	11	4287
2026-01-19 04:21:48.62	350.69	17.88	-25.8	-27.4	16.9	0.00e+00	0	44	0	851443712	11	4309
2026-01-19 04:21:49.62	350.50	17.95	-25.8	-27.3	17.0	0.00e+00	0	44	0	857735168	11	4277
2026-01-19 04:21:50.63	350.31	18.02	-25.8	-27.3	17.0	0.00e+00	0	44	0	862978048	11	4276
2026-01-19 04:21:51.64	350.11	18.09	-25.7	-27.1	17.1	0.00e+00	0	44	0	869269504	11	4235
2026-01-19 04:21:52.64	349.92	18.16	-25.6	-26.9	17.2	0.00e+00	0	44	0	874512384	11	4171
2026-01-19 04:21:53.64	349.73	18.23	-25.4	-26.5	17.4	0.00e+00	0	44	0	879755264	11	4082
2026-01-19 04:21:54.65	349.53	18.30	-25.5	-26.6	17.3	0.00e+00	0	44	0	886046720	11	4108
2026-01-19 04:21:55.64	349.34	18.37	-25.5	-26.6	17.3	0.00e+00	0	44	0	891289600	11	4104
2026-01-19 04:21:56.64	349.15	18.44	-25.4	-26.4	17.5	0.00e+00	0	44	0	897581056	11	4040
2026-01-19 04:21:57.65	348.95	18.51	-25.4	-26.5	17.4	0.00e+00	0	44	0	902823936	11	4081
2026-01-19 04:21:58.65	348.75	18.58	-25.4	-26.4	17.4	0.00e+00	0	44	0	908066816	11	4063
2026-01-19 04:21:59.65	348.56	18.65	-25.3	-26.7	17.6	0.00e+00	0	44	0	914358272	10	4231
2026-01-19 04:22:00.65	348.36	18.72	-25.3	-26.7	17.5	0.00e+00	0	44	0	919601152	10	4251
2026-01-19 04:22:01.66	348.16	18.79	-25.2	-26.6	17.6	0.00e+00	0	44	0	924844032	10	4211
2026-01-19 04:22:02.66	347.96	18.86	-25.3	-26.8	17.5	0.00e+00	0	44	0	931135488	10	4260
2026-01-19 04:22:03.67	347.75	18.93	-25.3	-26.6	17.6	0.00e+00	0	44	0	936378368	10	4226
2026-01-19 04:22:04.67	347.55	19.00	-25.1	-26.3	17.8	0.00e+00	0	44	0	942669824	10	4125
2026-01-19 04:22:05.68	347.34	19.06	-25.1	-26.3	17.8	0.00e+00	0	44	0	947912704	10	4131
2026-01-19 04:22:06.68	347.14	19.13	-25.0	-26.2	17.9	0.00e+00	0	44	0	953155584	10	4102
2026-01-19 04:22:07.68	346.94	19.20	-24.9	-25.9	18.0	0.00e+00	0	44	0	959447040	10	4040
2026-01-19 04:22:08.68	346.73	19.27	-24.9	-25.8	18.0	0.00e+00	0	44	0	964689920	10	4015
2026-01-19 04:22:09.68	346.52	19.34	-24.9	-25.8	18.0	0.00e+00	0	44	0	969932800	10	4014
2026-01-19 04:22:10.68	346.32	19.40	-24.8	-25.7	18.1	0.00e+00	0	44	0	976224256	10	3975
2026-01-19 04:22:11.68	346.11	19.47	-24.8	-26.2	18.0	0.00e+00	0	44	0	981467136	9	4230
2026-01-19 04:22:12.68	345.90	19.54	-24.8	-26.2	18.1	0.00e+00	0	44	0	987758592	9	4229
2026-01-19 04:22:13.67	345.69	19.60	-24.9	-26.4	18.0	0.00e+00	0	44	0	993001472	9	4274
2026-01-19 04:22:14.68	345.47	19.67	-25.0	-26.0	18.0	0.00e+00	0	44	0	998244352	10	4060
2026-01-19 04:22:15.68	345.26	19.73	-25.0	-26.2	17.8	0.00e+00	0	44	0	1004535808	10	4117
2026-01-19 04:22:16.68	345.05	19.80	-25.0	-26.2	17.8	0.00e+00	0	44	0	1009778688	10	4109
2026-01-19 04:22:17.68	344.83	19.87	-25.0	-26.1	17.9	0.00e+00	0	44	0	1015021568	10	4098
2026-01-19 04:22:18.69	344.62	19.93	-25.1	-26.3	17.7	0.00e+00	0	44	0	1021313024	10	4142
2026-01-19 04:22:19.69	344.40	20.00	-25.0	-26.2	17.8	0.00e+00	0	44	0	1026555904	10	4106
2026-01-19 04:22:20.70	344.18	20.06	-24.9	-26.0	18.0	0.00e+00	0	44	0	1032847360	10	4056
2026-01-19 04:22:21.70	343.96	20.13	-25.0	-26.2	17.9	0.00e+00	0	44	0	1038090240	10	4105
2026-01-19 04:22:22.70	343.74	20.19	-25.0	-26.1	17.9	0.00e+00	0	44	0	1043333120	10	4086
2026-01-19 04:22:23.70	343.52	20.26	-25.0	-26.2	17.9	0.00e+00	0	44	0	1049624576	10	4105
2026-01-19 04:22:24.70	343.30	20.32	-25.0	-26.1	17.9	0.00e+00	0	44	0	1054867456	10	4096
2026-01-19 04:22:25.71	343.08	20.38	-25.0	-26.1	17.9	0.00e+00	0	44	0	1061158912	10	4100
2026-01-19 04:22:26.71	342.86	20.45	-24.9	-26.0	18.0	0.00e+00	0	44	0	1066401792	10	4056
2026-01-19 04:22:27.72	342.63	20.51	-24.9	-25.9	18.0	0.00e+00	0	44	0	1071644672	10	4053
2026-01-19 04:22:28.72	342.41	20.57	-24.9	-25.9	18.0	0.00e+00	0	44	0	1077936128	10	4036
2026-01-19 04:22:29.72	342.18	20.63	-24.8	-25.7	18.1	0.00e+00	0	44	0	1083179008	10	3985
2026-01-19 04:22:30.72	341.96	20.70	-24.7	-25.5	18.2	0.00e+00	0	44	0	1088421888	10	3938
2026-01-19 04:22:31.71	341.73	20.76	-24.6	-25.8	18.3	0.00e+00	0	44	0	1094713344	9	4113
2026-01-19 04:22:32.71	341.50	20.82	-24.5	-25.6	18.4	0.00e+00	0	44	0	1099956224	9	4070
2026-01-19 04:22:33.71	341.27	20.88	-23.9	-24.9	13.7	0.00e+00	0	44	0	1105199104	9	4035
2026-01-19 04:22:34.71	341.04	20.94	-24.5	-25.5	13.0	0.00e+00	0	44	0	1111490560	9	4054
2026-01-19 04:22:35.71	340.81	21.00	-24.6	-25.8	18.3	0.00e+00	0	44	0	1116733440	9	4112
2026-01-19 04:22:36.71	340.58	21.06	-24.7	-26.0	17.8	0.00e+00	0	44	0	1123024896	9	4185
2026-01-19 04:22:37.71	340.35	21.12	-24.7	-26.1	18.2	0.00e+00	0	44	0	1128267776	9	4187
2026-01-19 04:22:38.72	340.11	21.18	-24.8	-26.1	18.2	0.00e+00	0	44	0	1133510656	9	4206
2026-01-19 04:22:39.72	339.88	21.24	-24.8	-26.1	18.2	0.00e+00	0	44	0	1139802112	9	4189
2026-01-19 04:22:40.73	339.64	21.30	-24.8	-26.1	18.1	1.68e-03	0	44	0	1145044992	9	4208
2026-01-19 04:22:41.72	339.40	21.35	-24.7	-25.9	18.3	0.00e+00	0	44	0	1150287872	9	4158
2026-01-19 04:22:42.72	339.17	21.41	-24.6	-25.8	18.3	0.00e+00	0	44	0	1156579328	9	4129
2026-01-19 04:22:43.71	338.93	21.47	-24.7	-26.0	18.2	0.00e+00	0	44	0	1161822208	9	4180
2026-01-19 04:22:44.70	338.69	21.52	-24.6	-25.7	18.3	0.00e+00	0	44	0	1167065088	9	4099
2026-01-19 04:22:45.70	338.45	21.58	-24.5	-25.5	18.5	2.05e-05	0	44	0	1173356544	9	4043
2026-01-19 04:22:46.70	338.21	21.64	-24.5	-25.6	18.4	0.00e+00	0	44	0	1178599424	9	4073
2026-01-19 04:22:47.71	337.97	21.69	-24.5	-25.6	18.5	0.00e+00	0	44	0	1184890880	9	4064
2026-01-19 04:22:48.71	337.73	21.75	-24.5	-25.5	18.5	0.00e+00	0	44	0	1190133760	9	4038
2026-01-19 04:22:49.71	337.48	21.80	-24.4	-25.4	18.5	0.00e+00	0	44	0	1195376640	9	4026
2026-01-19 04:22:50.71	337.24	21.86	-24.5	-25.5	18.5	0.00e+00	0	44	0	1201668096	9	4059
2026-01-19 04:22:51.71	336.99	21.91	-24.5	-25.6	18.5	0.00e+00	0	44	0	1206910976	9	4063
2026-01-19 04:22:52.72	336.74	21.96	-24.5	-25.6	18.4	1.75e-03	0	44	0	1212153856	9	4063
2026-01-19 04:22:53.73	336.49	22.02	-24.5	-25.5	18.5	0.00e+00	0	44	0	1218445312	9	4053
2026-01-19 04:22:54.72	336.25	22.07	-24.5	-25.6	18.4	1.67e-03	0	44	0	1223688192	9	4073
2026-01-19 04:22:55.73	336.00	22.12	-24.6	-25.8	18.4	0.00e+00	0	44	0	1228931072	9	4129
2026-01-19 04:22:56.73	335.75	22.17	-24.5	-25.6	18.4	0.00e+00	0	44	0	1235222528	9	4077
2026-01-19 04:22:57.74	335.50	22.22	-24.5	-25.5	18.5	1.38e-03	0	44	0	1240465408	9	4044
2026-01-19 04:22:58.74	335.24	22.28	-24.5	-25.5	18.5	0.00e+00	0	44	0	1246756864	9	4042
2026-01-19 04:22:59.74	334.99	22.33	-24.4	-25.3	18.6	0.00e+00	0	44	0	1251999744	9	3999
2026-01-19 04:23:00.74	334.74	22.37	-24.4	-25.3	18.6	0.00e+00	0	44	0	1258291200	9	4006
2026-01-19 04:23:01.74	334.49	22.42	-24.4	-25.3	18.6	1.57e-03	0	44	0	1263534080	9	3999
2026-01-19 04:23:02.74	334.23	22.47	-24.4	-25.4	18.6	0.00e+00	0	44	0	1268776960	9	4017
2026-01-19 04:23:03.74	333.98	22.52	-24.4	-25.4	18.6	1.56e-03	0	44	0	1275068416	9	4020
2026-01-19 04:23:04.74	333.72	22.57	-24.4	-25.2	18.6	1.44e-03	0	44	0	1280311296	9	3985
2026-01-19 04:23:05.75	333.46	22.61	-24.4	-25.4	18.6	0.00e+00	0	44	0	1285554176	9	4022
2026-01-19 04:23:06.76	333.20	22.66	-24.3	-25.2	18.7	1.26e-03	0	44	0	1291845632	9	3972
2026-01-19 04:23:07.76	332.94	22.71	-24.3	-25.5	18.7	0.00e+00	0	44	0	1297088512	8	4161
2026-01-19 04:23:08.76	332.68	22.75	-24.2	-25.4	18.8	0.00e+00	0	44	0	1302331392	8	4124
2026-01-19 04:23:09.77	332.42	22.80	-24.3	-25.5	18.8	1.28e-03	0	44	0	1308622848	8	4154
2026-01-19 04:23:10.77	332.16	22.84	-24.1	-25.2	18.9	1.40e-03	0	44	0	1313865728	8	4090
2026-01-19 04:23:11.77	331.90	22.89	-24.1	-25.1	18.9	0.00e+00	0	44	0	1320157184	8	4063
2026-01-19 04:23:12.77	331.64	22.93	-24.2	-25.3	18.9	1.53e-03	0	44	0	1325400064	8	4119
2026-01-19 04:23:13.78	331.37	22.97	-24.2	-25.3	18.8	1.52e-03	0	44	0	1330642944	8	4119
2026-01-19 04:23:14.78	331.11	23.01	-24.1	-25.2	18.9	0.00e+00	0	44	0	1336934400	8	4083
2026-01-19 04:23:15.79	330.84	23.06	-24.1	-25.2	18.9	1.25e-03	0	44	0	1342177280	8	4089
2026-01-19 04:23:16.80	330.57	23.10	-24.3	-25.5	18.8	0.00e+00	0	44	0	1348468736	8	4159
2026-01-19 04:23:17.81	330.30	23.14	-24.2	-25.3	18.9	5.26e-05	0	44	0	1353711616	8	4111
2026-01-19 04:23:18.80	330.04	23.18	-24.0	-25.1	19.0	1.02e-03	0	44	0	1358954496	8	4047
2026-01-19 04:23:19.80	329.77	23.21	-24.1	-25.2	18.9	1.17e-03	0	44	0	1365245952	8	4068
2026-01-19 04:23:20.81	329.50	23.25	-24.1	-25.1	19.0	9.26e-05	0	44	0	1370488832	8	4066
2026-01-19 04:23:21.81	329.23	23.29	-24.0	-25.1	19.0	0.00e+00	0	44	0	1375731712	8	4051
2026-01-19 04:23:22.81	328.96	23.33	-24.0	-24.9	19.1	1.33e-03	0	44	0	1382023168	8	4004
2026-01-19 04:23:23.82	328.69	23.36	-24.0	-24.9	19.1	0.00e+00	0	44	0	1387266048	8	4001
2026-01-19 04:23:24.82	328.42	23.40	-24.1	-25.2	18.9	1.23e-03	0	44	0	1393557504	8	4092
2026-01-19 04:23:25.82	328.15	23.44	-24.0	-25.1	19.0	1.03e-03	0	44	0	1398800384	8	4055
2026-01-19 04:23:26.83	327.87	23.47	-24.0	-24.9	19.1	0.00e+00	0	44	0	1404043264	8	4004
2026-01-19 04:23:27.84	327.60	23.50	-24.0	-25.0	19.0	6.96e-04	0	44	0	1410334720	8	4043
2026-01-19 04:23:28.84	327.33	23.54	-24.1	-25.2	18.9	0.00e+00	0	44	0	1415577600	8	4078
2026-01-19 04:23:29.84	327.05	23.57	-24.2	-25.3	18.9	2.75e-04	0	44	0	1420820480	8	4119
2026-01-19 04:23:30.84	326.78	23.60	-24.2	-25.5	18.8	0.00e+00	0	44	0	1427111936	8	4158
2026-01-19 04:23:31.85	326.50	23.63	-24.2	-25.5	18.8	1.12e-03	0	44	0	1432354816	8	4152
2026-01-19 04:23:32.85	326.23	23.66	-24.2	-25.4	18.9	0.00e+00	0	44	0	1438646272	8	4120
2026-01-19 04:23:33.85	325.95	23.69	-24.2	-25.4	18.8	0.00e+00	0	44	0	1443889152	8	4140
2026-01-19 04:23:34.85	325.67	23.72	-24.4	-25.8	18.6	0.00e+00	0	44	0	1449132032	8	4231
2026-01-19 04:23:35.86	325.40	23.75	-24.4	-25.8	18.6	0.00e+00	0	44	0	1455423488	8	4242
2026-01-19 04:23:36.86	325.12	23.78	-24.3	-25.7	18.7	7.52e-04	0	44	0	1460666368	8	4206
2026-01-19 04:23:37.86	324.84	23.81	-24.5	-25.9	18.6	0.00e+00	0	44	0	1466957824	8	4261
2026-01-19 04:23:38.87	324.56	23.83	-24.3	-25.6	18.7	0.00e+00	0	44	0	1472200704	8	4172
2026-01-19 04:23:39.87	324.28	23.86	-24.2	-25.5	18.8	0.00e+00	0	44	0	1477443584	8	4154
2026-01-19 04:23:40.87	324.00	23.88	-24.3	-25.7	18.7	0.00e+00	0	44	0	1483735040	8	4205
2026-01-19 04:23:41.87	323.72	23.91	-24.2	-25.5	18.8	0.00e+00	0	44	0	1488977920	8	4153
2026-01-19 04:23:42.88	323.44	23.93	-24.4	-25.8	18.6	0.00e+00	0	44	0	1494220800	8	4246
2026-01-19 04:23:43.88	323.16	23.95	-24.2	-25.4	18.8	2.59e-04	0	44	0	1500512256	8	4124
2026-01-19 04:23:44.88	322.88	23.98	-24.0	-24.9	19.1	0.00e+00	0	44	0	1505755136	8	4008
2026-01-19 04:23:45.89	322.59	24.00	-23.8	-24.5	19.3	0.00e+00	0	44	0	1510998016	8	3918
2026-01-19 04:23:46.90	322.31	24.02	-23.7	-24.3	19.4	0.00e+00	0	44	0	1517289472	8	3865
2026-01-19 04:23:47.90	322.03	24.04	-23.7	-24.8	19.4	0.00e+00	0	44	0	1522532352	7	4087
2026-01-19 04:23:48.90	321.74	24.06	-23.5	-24.5	19.5	0.00e+00	0	44	0	1528823808	7	4026
2026-01-19 04:23:49.90	321.46	24.07	-23.5	-24.5	19.5	0.00e+00	0	44	0	1534066688	7	4016
2026-01-19 04:23:50.91	321.18	24.09	-23.7	-24.9	19.3	0.00e+00	0	44	0	1540358144	7	4118
2026-01-19 04:23:51.91	320.89	24.11	-23.8	-25.0	19.2	0.00e+00	0	44	0	1545601024	7	4145
2026-01-19 04:23:52.91	320.61	24.13	-23.9	-25.2	19.1	0.00e+00	0	44	0	1550843904	7	4201
2026-01-19 04:23:53.91	320.32	24.14	-23.8	-25.1	19.2	0.00e+00	0	44	0	1557135360	7	4168
2026-01-19 04:23:54.91	320.04	24.16	-23.9	-25.3	19.1	0.00e+00	0	44	0	1562378240	7	4224
2026-01-19 04:23:55.92	319.75	24.17	-23.9	-25.3	19.1	0.00e+00	0	44	0	1567621120	7	4233
2026-01-19 04:23:56.92	319.47	24.18	-23.9	-25.3	19.1	0.00e+00	0	44	0	1573912576	7	4220
2026-01-19 04:23:57.92	319.18	24.19	-24.0	-25.5	19.0	0.00e+00	0	44	0	1579155456	7	4264
2026-01-19 04:23:58.92	318.90	24.21	-23.9	-24.7	19.2	0.00e+00	0	44	0	1584398336	8	3954
2026-01-19 04:23:59.93	318.61	24.22	-23.8	-25.1	19.2	0.00e+00	0	44	0	1590689792	7	4176
2026-01-19 04:24:00.93	318.32	24.23	-23.8	-25.0	19.3	0.00e+00	0	44	0	1595932672	7	4142
2026-01-19 04:24:01.94	318.03	24.24	-23.9	-25.2	19.2	0.00e+00	0	44	0	1602224128	7	4194
2026-01-19 04:24:02.94	317.75	24.24	-23.7	-24.9	19.3	0.00e+00	0	44	0	1607467008	7	4121
2026-01-19 04:24:03.95	317.46	24.25	-23.8	-25.0	19.2	0.00e+00	0	44	0	1613758464	7	4155
2026-01-19 04:24:04.95	317.17	24.26	-23.7	-24.8	19.3	0.00e+00	0	44	0	1619001344	7	4101
2026-01-19 04:24:05.95	316.89	24.26	-23.7	-24.9	19.3	0.00e+00	0	44	0	1624244224	7	4114
2026-01-19 04:24:06.94	316.60	24.27	-23.8	-25.0	19.2	0.00e+00	0	44	0	1630535680	7	4158
2026-01-19 04:24:07.94	316.32	24.27	-23.6	-24.7	19.4	0.00e+00	0	44	0	1635778560	7	4066
2026-01-19 04:24:08.94	316.03	24.28	-23.5	-24.5	19.5	0.00e+00	0	44	0	1641021440	7	4014
2026-01-19 04:24:09.94	315.74	24.28	-23.7	-24.8	19.4	0.00e+00	0	44	0	1646264320	7	4084
2026-01-19 04:24:10.94	315.46	24.28	-23.7	-24.9	19.3	0.00e+00	0	44	0	1652555776	7	4122
2026-01-19 04:24:11.93	315.17	24.28	-23.9	-25.2	19.1	0.00e+00	0	44	0	1657798656	7	4204
2026-01-19 04:24:12.94	314.88	24.29	-23.7	-24.9	19.3	0.00e+00	0	44	0	1664090112	7	4119
2026-01-19 04:24:13.93	314.60	24.29	-23.6	-24.6	19.4	0.00e+00	0	44	0	1669332992	7	4047
2026-01-19 04:24:14.94	314.31	24.28	-23.7	-24.7	19.4	0.00e+00	0	44	0	1674575872	7	4080
2026-01-19 04:24:15.94	314.02	24.28	-23.6	-24.7	19.4	0.00e+00	0	44	0	1680867328	7	4077
2026-01-19 04:24:16.94	313.74	24.28	-23.7	-24.8	19.4	0.00e+00	0	44	0	1686110208	7	4093
2026-01-19 04:24:17.95	313.45	24.28	-23.7	-24.8	19.3	0.00e+00	0	44	0	1692401664	7	4101
2026-01-19 04:24:18.95	313.16	24.27	-23.8	-25.1	19.2	0.00e+00	0	44	0	1697644544	7	4183
2026-01-19 04:24:19.95	312.87	24.27	-23.6	-24.6	19.4	0.00e+00	0	44	0	1702887424	7	4060
2026-01-19 04:24:20.95	312.59	24.26	-23.6	-24.5	19.5	0.00e+00	0	44	0	1709178880	7	4032
2026-01-19 04:24:21.96	312.30	24.26	-23.6	-24.7	19.4	0.00e+00	0	44	0	1714421760	7	4075
2026-01-19 04:24:22.96	312.01	24.25	-23.5	-24.5	19.5	0.00e+00	0	44	0	1720713216	7	4026
2026-01-19 04:24:23.96	311.72	24.24	-23.6	-24.7	19.4	0.00e+00	0	44	0	1725956096	7	4084
2026-01-19 04:24:24.96	311.44	24.23	-23.5	-24.4	19.6	0.00e+00	0	44	0	1731198976	7	3990
2026-01-19 04:24:25.97	311.15	24.22	-23.5	-24.3	19.6	0.00e+00	0	44	0	1737490432	7	3983
2026-01-19 04:24:26.97	310.86	24.21	-23.5	-24.5	19.5	0.00e+00	0	44	0	1742733312	7	4023
2026-01-19 04:24:27.97	310.58	24.20	-23.6	-24.5	19.5	0.00e+00	0	44	0	1747976192	7	4030
2026-01-19 04:24:28.98	310.29	24.19	-23.7	-24.8	19.3	0.00e+00	0	44	0	1754267648	7	4108
2026-01-19 04:24:29.98	310.00	24.18	-23.8	-25.0	19.2	0.00e+00	0	44	0	1759510528	7	4142
2026-01-19 04:24:30.98	309.72	24.16	-23.6	-24.7	19.4	0.00e+00	0	44	0	1764753408	7	4070
2026-01-19 04:24:31.99	309.43	24.15	-23.6	-24.6	19.4	0.00e+00	0	44	0	1771044864	7	4050
2026-01-19 04:24:32.99	309.15	24.13	-23.8	-25.0	19.2	0.00e+00	0	44	0	1776287744	7	4152
2026-01-19 04:24:33.99	308.86	24.12	-23.7	-24.8	19.3	7.89e-05	0	44	0	1782579200	7	4100
2026-01-19 04:24:34.99	308.58	24.10	-23.7	-24.8	19.3	0.00e+00	0	44	0	1787822080	7	4098
2026-01-19 04:24:36.00	308.29	24.09	-23.7	-24.9	19.3	0.00e+00	0	44	0	1794113536	7	4118
2026-01-19 04:24:37.00	308.01	24.07	-23.9	-25.2	19.1	0.00e+00	0	44	0	1799356416	7	4195
2026-01-19 04:24:38.01	307.72	24.05	-23.7	-24.9	19.3	0.00e+00	0	44	0	1804599296	7	4127
2026-01-19 04:24:39.01	307.44	24.03	-23.7	-24.8	19.3	0.00e+00	0	44	0	1810890752	7	4098
2026-01-19 04:24:40.02	307.16	24.01	-23.7	-24.8	19.3	0.00e+00	0	44	0	1816133632	7	4096
2026-01-19 04:24:41.02	306.88	23.99	-23.6	-24.6	19.5	6.45e-04	0	44	0	1821376512	7	4039
2026-01-19 04:24:42.03	306.59	23.97	-23.5	-24.4	19.5	0.00e+00	0	44	0	1827667968	7	4012
2026-01-19 04:24:43.04	306.31	23.94	-23.7	-24.8	19.3	0.00e+00	0	44	0	1832910848	7	4097
2026-01-19 04:24:44.04	306.03	23.92	-23.5	-24.5	19.5	0.00e+00	0	44	0	1838153728	7	4014
2026-01-19 04:24:45.04	305.75	23.90	-23.8	-25.1	19.2	0.00e+00	0	44	0	1844445184	7	4165
2026-01-19 04:24:46.04	305.47	23.87	-23.8	-25.1	19.2	1.27e-03	0	44	0	1849688064	7	4167
2026-01-19 04:24:47.04	305.19	23.85	-23.9	-25.3	19.1	0.00e+00	0	44	0	1855979520	7	4222
2026-01-19 04:24:48.05	304.91	23.82	-23.7	-24.8	19.3	1.52e-03	0	44	0	1861222400	7	4108
2026-01-19 04:24:49.06	304.62	23.79	-23.7	-24.8	19.3	0.00e+00	0	44	0	1867513856	7	4087
2026-01-19 04:24:50.06	304.35	23.77	-23.7	-24.9	19.3	7.19e-04	0	44	0	1872756736	7	4121
2026-01-19 04:24:51.05	304.07	23.74	-23.5	-24.5	19.4	0.00e+00	0	44	0	1877999616	7	4029
2026-01-19 04:24:52.06	303.79	23.71	-23.6	-24.5	19.4	1.65e-03	0	44	0	1884291072	7	4032
2026-01-19 04:24:53.07	303.51	23.68	-23.8	-25.0	19.2	6.34e-04	0	44	0	1889533952	7	4143
2026-01-19 04:24:54.07	303.24	23.65	-23.8	-25.0	19.2	0.00e+00	0	44	0	1894776832	7	4145
2026-01-19 04:24:55.08	302.96	23.62	-23.9	-25.2	19.1	1.84e-03	0	44	0	1901068288	7	4198
2026-01-19 04:24:56.09	302.68	23.59	-23.7	-24.9	19.2	0.00e+00	0	44	0	1906311168	7	4125
2026-01-19 04:24:57.09	302.41	23.56	-23.6	-24.7	19.3	1.91e-03	0	44	0	1911554048	7	4066
2026-01-19 04:24:58.09	302.13	23.52	-23.8	-25.0	19.2	2.04e-03	0	44	0	1917845504	7	4137
2026-01-19 04:24:59.09	301.86	23.49	-23.7	-24.9	19.2	4.06e-04	0	44	0	1923088384	7	4122
2026-01-19 04:25:00.09	301.59	23.45	-23.8	-25.0	19.2	1.91e-03	0	44	0	1929379840	7	4148
2026-01-19 04:25:01.09	301.32	23.42	-23.8	-25.1	19.1	0.00e+00	0	44	0	1934622720	7	4183
2026-01-19 04:25:02.10	301.04	23.38	-23.8	-25.1	19.2	2.33e-04	0	44	0	1940914176	7	4164
2026-01-19 04:25:03.10	300.77	23.35	-23.8	-25.1	19.1	1.11e-03	0	44	0	1946157056	7	4164
2026-01-19 04:25:04.10	300.50	23.31	-23.8	-25.0	19.2	1.75e-03	0	44	0	1951399936	7	4155
2026-01-19 04:25:05.10	300.23	23.27	-23.9	-25.2	19.1	2.20e-04	0	44	0	1957691392	7	4208
2026-01-19 04:25:06.10	299.96	23.24	-24.1	-25.1	18.9	1.75e-03	0	44	0	1962934272	8	4061
2026-01-19 04:25:07.11	299.69	23.20	-24.1	-25.3	18.8	1.87e-03	0	44	0	1968177152	8	4101
2026-01-19 04:25:08.10	299.43	23.16	-24.0	-25.0	18.9	1.10e-04	0	44	0	1974468608	8	4042
2026-01-19 04:25:09.11	299.16	23.12	-24.1	-25.1	18.9	1.75e-03	0	44	0	1979711488	8	4056
2026-01-19 04:25:10.11	298.89	23.08	-24.1	-25.3	18.8	0.00e+00	0	44	0	1984954368	8	4103
2026-01-19 04:25:11.11	298.63	23.04	-23.9	-24.8	19.1	0.00e+00	0	44	0	1991245824	8	3986
2026-01-19 04:25:12.12	298.36	22.99	-23.8	-24.6	19.1	1.52e-03	0	44	0	1996488704	8	3944
2026-01-19 04:25:13.12	298.10	22.95	-24.0	-24.9	19.0	1.35e-03	0	44	0	2002780160	8	4017
2026-01-19 04:25:14.12	297.83	22.91	-24.0	-25.0	19.0	0.00e+00	0	44	0	2008023040	8	4025
2026-01-19 04:25:15.12	297.57	22.87	-23.8	-24.6	19.1	0.00e+00	0	44	0	2013265920	8	3950
2026-01-19 04:25:16.12	297.31	22.82	-23.8	-24.6	19.2	1.34e-03	0	44	0	2019557376	8	3935
2026-01-19 04:25:17.12	297.05	22.78	-23.8	-24.7	19.1	0.00e+00	0	44	0	2024800256	8	3955
2026-01-19 04:25:18.13	296.78	22.73	-23.7	-24.9	19.2	1.43e-03	0	44	0	2030043136	7	4127
2026-01-19 04:25:19.13	296.52	22.69	-23.8	-25.0	19.2	1.33e-03	0	44	0	2036334592	7	4146
2026-01-19 04:25:20.13	296.27	22.64	-23.7	-24.9	19.2	0.00e+00	0	44	0	2041577472	7	4116
2026-01-19 04:25:21.14	296.00	22.59	-23.8	-25.0	19.2	1.25e-03	0	44	0	2046820352	7	4143
2026-01-19 04:25:22.13	295.75	22.55	-23.9	-25.2	19.1	0.00e+00	0	44	0	2053111808	7	4192
2026-01-19 04:25:23.13	295.49	22.50	-23.7	-25.0	19.2	0.00e+00	0	44	0	2058354688	7	4137
2026-01-19 04:25:24.14	295.24	22.45	-23.8	-25.0	19.1	0.00e+00	0	44	0	2064646144	7	4152
2026-01-19 04:25:25.15	294.98	22.40	-23.8	-25.0	19.1	2.25e-04	0	44	0	2069889024	7	4164
2026-01-19 04:25:26.15	294.72	22.35	-23.9	-25.2	19.0	0.00e+00	0	44	0	2076180480	7	4197
2026-01-19 04:25:27.16	294.47	22.30	-23.9	-25.3	19.0	0.00e+00	0	44	0	2081423360	7	4221
2026-01-19 04:25:28.16	294.22	22.25	-23.9	-25.3	19.0	2.85e-04	0	44	0	2086666240	7	4224
2026-01-19 04:25:29.16	293.96	22.20	-24.2	-25.3	18.8	0.00e+00	0	44	0	2092957696	8	4115
2026-01-19 04:25:30.16	293.71	22.15	-24.3	-25.7	18.5	5.49e-04	0	44	0	2098200576	8	4211
2026-01-19 04:25:31.16	293.46	22.10	-24.1	-25.3	18.8	0.00e+00	0	44	0	2103443456	8	4108
2026-01-19 04:25:32.16	293.22	22.04	-24.1	-25.1	18.8	0.00e+00	0	44	0	2109734912	8	4061
2026-01-19 04:25:33.16	292.97	21.99	-24.2	-25.3	18.7	0.00e+00	0	44	0	2114977792	8	4115
2026-01-19 04:25:34.15	292.72	21.94	-24.4	-25.7	18.5	0.00e+00	0	44	0	2120220672	8	4220
2026-01-19 04:25:35.15	292.48	21.89	-24.1	-25.3	18.8	0.00e+00	0	44	0	2126512128	8	4100
2026-01-19 04:25:36.15	292.23	21.83	-24.1	-25.1	18.8	0.00e+00	0	44	0	2131755008	8	4071
2026-01-19 04:25:37.16	291.98	21.78	-24.0	-25.1	18.8	1.74e-04	0	44	0	2138046464	8	4063
2026-01-19 04:25:38.16	291.74	21.72	-24.1	-25.2	18.8	0.00e+00	0	44	0	2143289344	8	4076
2026-01-19 04:25:39.16	291.50	21.67	-24.1	-25.3	18.8	0.00e+00	0	44	0	2148532224	8	4103
2026-01-19 04:25:40.17	291.25	21.61	-23.9	-24.8	19.0	0.00e+00	0	44	0	2154823680	8	3992
2026-01-19 04:25:41.18	291.01	21.55	-24.1	-25.2	18.8	0.00e+00	0	44	0	2160066560	8	4086
2026-01-19 04:25:42.18	290.77	21.50	-24.1	-25.1	18.8	0.00e+00	0	44	0	2165309440	8	4065
2026-01-19 04:25:43.18	290.53	21.44	-24.1	-25.2	18.8	0.00e+00	0	44	0	2171600896	8	4083
2026-01-19 04:25:44.18	290.29	21.38	-24.1	-25.2	18.8	0.00e+00	0	44	0	2176843776	8	4081
2026-01-19 04:25:45.18	290.05	21.32	-24.2	-25.3	18.7	0.00e+00	0	44	0	2182086656	8	4121
2026-01-19 04:25:46.18	289.81	21.27	-24.4	-25.8	18.5	0.00e+00	0	44	0	2188378112	8	4232
2026-01-19 04:25:47.18	289.58	21.21	-24.5	-25.6	18.3	0.00e+00	0	44	0	2193620992	9	4080
2026-01-19 04:25:48.19	289.34	21.15	-24.4	-25.3	18.4	0.00e+00	0	44	0	2199912448	9	4008
2026-01-19 04:25:49.19	289.11	21.09	-24.4	-25.3	18.5	0.00e+00	0	44	0	2205155328	9	4000
2026-01-19 04:25:50.19	288.87	21.03	-24.3	-25.1	18.5	0.00e+00	0	44	0	2210398208	9	3960
2026-01-19 04:25:51.19	288.64	20.97	-24.4	-25.3	18.5	0.00e+00	0	44	0	2216689664	9	3988
2026-01-19 04:25:52.20	288.41	20.91	-24.5	-25.5	18.3	0.00e+00	0	44	0	2221932544	9	4055
2026-01-19 04:25:53.20	288.18	20.85	-24.5	-25.6	18.3	0.00e+00	0	44	0	2228224000	9	4063
2026-01-19 04:25:54.20	287.95	20.78	-24.8	-26.3	17.9	0.00e+00	0	44	0	2233466880	9	4247
2026-01-19 04:25:55.20	287.72	20.72	-24.6	-25.7	18.2	0.00e+00	0	44	0	2238709760	9	4098
2026-01-19 04:25:56.20	287.49	20.66	-24.3	-25.2	18.5	0.00e+00	0	44	0	2245001216	9	3985
2026-01-19 04:25:57.21	287.26	20.60	-24.1	-24.7	18.8	0.00e+00	0	44	0	2250244096	9	3855
2026-01-19 04:25:58.22	287.03	20.54	-24.0	-25.1	18.8	0.00e+00	0	44	0	2255486976	8	4062
2026-01-19 04:25:59.22	286.81	20.47	-24.1	-25.3	18.7	0.00e+00	0	44	0	2261778432	8	4107
2026-01-19 04:26:00.22	286.59	20.41	-24.3	-25.6	18.5	0.00e+00	0	44	0	2267021312	8	4186
2026-01-19 04:26:01.23	286.36	20.35	-24.5	-25.6	18.3	0.00e+00	0	44	0	2273312768	9	4065
2026-01-19 04:26:02.23	286.14	20.28	-24.5	-25.6	18.3	0.00e+00	0	44	0	2278555648	9	4076
2026-01-19 04:26:03.24	285.91	20.22	-24.6	-25.7	18.2	0.00e+00	0	44	0	2283798528	9	4106
2026-01-19 04:26:04.24	285.69	20.15	-24.5	-25.6	18.3	0.00e+00	0	44	0	2290089984	9	4077
2026-01-19 04:26:05.24	285.48	20.09	-24.5	-25.6	18.3	0.00e+00	0	44	0	2295332864	9	4075
2026-01-19 04:26:06.24	285.26	20.02	-24.4	-25.4	18.4	0.00e+00	0	44	0	2301624320	9	4025
2026-01-19 04:26:07.25	285.04	19.96	-24.5	-25.5	18.3	0.00e+00	0	44	0	2306867200	9	4047
2026-01-19 04:26:08.25	284.82	19.89	-24.5	-25.5	18.3	0.00e+00	0	44	0	2312110080	9	4048
2026-01-19 04:26:09.26	284.60	19.83	-24.5	-25.6	18.3	0.00e+00	0	44	0	2318401536	9	4070
2026-01-19 04:26:10.26	284.39	19.76	-24.5	-25.6	18.3	0.00e+00	0	44	0	2323644416	9	4083
2026-01-19 04:26:11.27	284.17	19.69	-24.5	-25.6	18.3	0.00e+00	0	44	0	2328887296	9	4082
2026-01-19 04:26:12.27	283.96	19.63	-24.5	-25.5	18.3	0.00e+00	0	44	0	2335178752	9	4042
2026-01-19 04:26:13.28	283.75	19.56	-24.5	-25.6	18.2	0.00e+00	0	44	0	2340421632	9	4080
2026-01-19 04:26:14.28	283.53	19.49	-24.6	-25.8	18.2	0.00e+00	0	44	0	2346713088	9	4117
2026-01-19 04:26:15.28	283.32	19.43	-24.7	-25.9	18.1	0.00e+00	0	44	0	2351955968	9	4158
2026-01-19 04:26:16.29	283.11	19.36	-24.7	-26.1	18.0	0.00e+00	0	44	0	2357198848	9	4196
2026-01-19 04:26:17.30	282.90	19.29	-24.8	-26.2	18.0	0.00e+00	0	44	0	2363490304	9	4220
2026-01-19 04:26:18.30	282.70	19.22	-24.8	-26.3	17.9	0.00e+00	0	44	0	2368733184	9	4246
2026-01-19 04:26:19.30	282.49	19.15	-24.9	-26.5	17.8	0.00e+00	0	44	0	2375024640	9	4310
2026-01-19 04:26:20.30	282.28	19.09	-25.0	-26.6	17.8	0.00e+00	0	44	0	2380267520	9	4322
2026-01-19 04:26:21.31	282.08	19.02	-25.2	-26.6	17.5	0.00e+00	0	44	0	2385510400	10	4212
2026-01-19 04:26:22.31	281.87	18.95	-25.4	-26.9	17.3	0.00e+00	0	44	0	2391801856	10	4296
2026-01-19 04:26:23.31	281.67	18.88	-25.1	-26.4	17.6	0.00e+00	0	44	0	2397044736	10	4163
2026-01-19 04:26:24.31	281.47	18.81	-24.9	-25.9	17.8	0.00e+00	0	44	0	2402287616	10	4035
2026-01-19 04:26:25.31	281.27	18.74	-25.0	-26.1	17.7	0.00e+00	0	44	0	2408579072	10	4091
2026-01-19 04:26:26.31	281.07	18.67	-24.5	-25.7	16.4	0.00e+00	0	44	0	2413821952	10	4106
2026-01-19 04:26:27.30	280.87	18.60	-25.1	-26.3	14.2	0.00e+00	0	44	0	2420113408	10	4152
2026-01-19 04:26:28.31	280.67	18.53	-25.2	-26.5	17.5	0.00e+00	0	44	0	2425356288	10	4201
2026-01-19 04:26:29.30	280.48	18.46	-25.0	-26.1	17.4	0.00e+00	0	44	0	2430599168	10	4103
2026-01-19 04:26:30.31	280.28	18.39	-25.0	-26.1	17.7	0.00e+00	0	44	0	2436890624	10	4076
2026-01-19 04:26:31.31	280.08	18.32	-25.0	-26.1	17.7	0.00e+00	0	44	0	2442133504	10	4083
2026-01-19 04:26:32.31	279.89	18.25	-24.9	-26.0	17.8	0.00e+00	0	44	0	2447376384	10	4048
2026-01-19 04:26:33.32	279.69	18.18	-24.9	-25.9	17.8	0.00e+00	0	44	0	2453667840	10	4046
2026-01-19 04:26:34.33	279.50	18.11	-25.0	-26.2	17.7	0.00e+00	0	44	0	2458910720	10	4113
2026-01-19 04:26:35.33	279.31	18.04	-25.1	-26.3	17.6	0.00e+00	0	44	0	2464153600	10	4152
2026-01-19 04:26:36.33	279.12	17.97	-25.1	-26.3	17.6	0.00e+00	0	44	0	2470445056	10	4140
2026-01-19 04:26:37.34	278.93	17.90	-25.0	-26.2	17.7	0.00e+00	0	44	0	2475687936	10	4112
2026-01-19 04:26:38.34	278.74	17.83	-25.0	-26.2	17.6	0.00e+00	0	44	0	2481979392	10	4117
2026-01-19 04:26:39.34	278.55	17.76	-25.1	-26.3	17.6	4.18e-04	0	44	0	2487222272	10	4131
2026-01-19 04:26:40.35	278.36	17.69	-24.9	-25.9	17.8	0.00e+00	0	44	0	2493513728	10	4049
2026-01-19 04:26:41.35	278.17	17.61	-24.9	-25.9	17.8	1.24e-03	0	44	0	2498756608	10	4049
2026-01-19 04:26:42.35	277.99	17.54	-25.1	-26.3	17.6	0.00e+00	0	44	0	2503999488	10	4144
2026-01-19 04:26:43.35	277.80	17.47	-25.1	-26.4	17.5	3.11e-04	0	44	0	2510290944	10	4175
2026-01-19 04:26:44.36	277.62	17.40	-25.2	-26.5	17.5	0.00e+00	0	44	0	2515533824	10	4191
2026-01-19 04:26:45.36	277.44	17.33	-25.0	-26.2	17.6	1.74e-03	0	44	0	2520776704	10	4121
2026-01-19 04:26:46.36	277.25	17.26	-25.1	-26.3	17.5	4.08e-04	0	44	0	2527068160	10	4144
2026-01-19 04:26:47.37	277.07	17.18	-25.1	-26.3	17.5	0.00e+00	0	44	0	2532311040	10	4148
2026-01-19 04:26:48.37	276.89	17.11	-25.0	-26.2	17.6	1.82e-03	0	44	0	2537553920	10	4117
2026-01-19 04:26:49.38	276.71	17.04	-25.0	-26.1	17.6	0.00e+00	0	44	0	2543845376	10	4103
2026-01-19 04:26:50.39	276.53	16.97	-25.1	-26.3	17.5	1.70e-03	0	44	0	2549088256	10	4142
2026-01-19 04:26:51.39	276.35	16.89	-25.2	-26.6	17.4	1.74e-03	0	44	0	2555379712	10	4218
2026-01-19 04:26:52.39	276.18	16.82	-25.1	-26.3	17.5	3.35e-04	0	44	0	2560622592	10	4139
2026-01-19 04:26:53.39	276.00	16.75	-25.0	-26.1	17.6	1.46e-03	0	44	0	2565865472	10	4093
2026-01-19 04:26:54.39	275.83	16.68	-25.0	-26.1	17.6	0.00e+00	0	44	0	2572156928	10	4099
2026-01-19 04:26:55.39	275.65	16.61	-25.0	-26.1	17.7	2.32e-04	0	44	0	2577399808	10	4080
2026-01-19 04:26:56.39	275.48	16.53	-25.0	-26.2	17.6	1.14e-04	0	44	0	2583691264	10	4117
2026-01-19 04:26:57.40	275.30	16.46	-25.0	-26.2	17.6	1.46e-03	0	44	0	2588934144	10	4120
2026-01-19 04:26:58.40	275.13	16.39	-25.1	-26.3	17.5	1.02e-05	0	44	0	2594177024	10	4135
2026-01-19 04:26:59.40	274.96	16.31	-25.2	-26.5	17.4	1.07e-03	0	44	0	2600468480	10	4192
2026-01-19 04:27:00.40	274.79	16.24	-25.2	-26.6	17.4	6.63e-04	0	44	0	2605711360	10	4214
2026-01-19 04:27:01.40	274.62	16.17	-25.3	-26.7	17.3	0.00e+00	0	44	0	2610954240	10	4243
2026-01-19 04:27:02.39	274.46	16.10	-25.3	-26.8	17.2	6.35e-04	0	44	0	2617245696	10	4267
2026-01-19 04:27:03.40	274.29	16.02	-25.3	-26.8	17.2	0.00e+00	0	44	0	2622488576	10	4278
2026-01-19 04:27:04.40	274.12	15.95	-25.4	-27.1	17.1	0.00e+00	0	44	0	2628780032	10	4351
2026-01-19 04:27:05.41	273.95	15.88	-25.5	-26.7	17.0	6.10e-04	0	44	0	2634022912	11	4144
2026-01-19 04:27:06.41	273.79	15.80	-25.7	-27.1	16.8	7.78e-04	0	44	0	2639265792	11	4231
2026-01-19 04:27:07.42	273.62	15.73	-25.8	-27.4	16.6	2.36e-04	0	44	0	2645557248	11	4319
2026-01-19 04:27:08.41	273.46	15.66	-25.7	-27.0	16.8	0.00e+00	0	44	0	2650800128	11	4223
2026-01-19 04:27:09.42	273.30	15.59	-25.6	-26.9	16.9	1.24e-03	0	44	0	2656043008	11	4193
2026-01-19 04:27:10.42	273.13	15.51	-25.6	-27.0	16.9	0.00e+00	0	44	0	2662334464	11	4208
2026-01-19 04:27:11.43	272.97	15.44	-25.7	-27.1	16.8	1.53e-03	0	44	0	2667577344	11	4225
2026-01-19 04:27:12.43	272.81	15.37	-25.7	-27.0	16.8	1.65e-03	0	44	0	2672820224	11	4223
2026-01-19 04:27:13.43	272.65	15.29	-25.7	-27.1	16.8	4.95e-04	0	44	0	2679111680	11	4235
2026-01-19 04:27:14.43	272.49	15.22	-25.6	-27.0	16.8	1.71e-03	0	44	0	2684354560	11	4210
2026-01-19 04:27:15.43	272.34	15.15	-25.6	-27.0	16.9	0.00e+00	0	44	0	2690646016	11	4209
2026-01-19 04:27:16.43	272.18	15.07	-25.7	-27.2	16.7	2.95e-04	0	44	0	2695888896	11	4259
2026-01-19 04:27:17.43	272.02	15.00	-25.7	-27.2	16.7	0.00e+00	0	44	0	2701131776	11	4260
2026-01-19 04:27:18.44	271.87	14.93	-25.6	-26.9	16.9	1.56e-03	0	44	0	2707423232	11	4177
2026-01-19 04:27:19.44	271.71	14.85	-25.5	-26.7	17.0	0.00e+00	0	44	0	2712666112	11	4122
2026-01-19 04:27:20.44	271.56	14.78	-25.5	-26.7	17.0	0.00e+00	0	44	0	2717908992	11	4142
2026-01-19 04:27:21.44	271.40	14.71	-25.5	-26.7	17.0	1.77e-03	0	44	0	2724200448	11	4122
2026-01-19 04:27:22.46	271.25	14.63	-25.6	-26.9	16.9	0.00e+00	0	44	0	2729443328	11	4192
2026-01-19 04:27:23.46	271.10	14.56	-25.6	-26.9	16.8	1.92e-03	0	44	0	2735734784	11	4189
2026-01-19 04:27:24.47	270.95	14.49	-25.7	-27.1	16.8	0.00e+00	0	44	0	2740977664	11	4229
2026-01-19 04:27:25.47	270.80	14.42	-25.7	-27.1	16.8	0.00e+00	0	44	0	2746220544	11	4241
2026-01-19 04:27:26.46	270.65	14.34	-25.7	-27.2	16.7	0.00e+00	0	44	0	2752512000	11	4257
2026-01-19 04:27:27.47	270.50	14.27	-25.8	-27.3	16.6	0.00e+00	0	44	0	2757754880	11	4304
2026-01-19 04:27:28.46	270.35	14.20	-25.8	-27.4	16.6	0.00e+00	0	44	0	2764046336	11	4329
2026-01-19 04:27:29.46	270.20	14.13	-25.8	-27.4	16.6	0.00e+00	0	44	0	2769289216	11	4321
2026-01-19 04:27:30.46	270.06	14.05	-25.9	-27.7	16.4	2.77e-03	0	44	0	2774532096	11	4400
2026-01-19 04:27:31.47	269.91	13.98	-26.1	-27.5	16.2	0.00e+00	0	44	0	2780823552	12	4232
2026-01-19 04:27:32.48	269.76	13.91	-26.1	-27.5	16.1	0.00e+00	0	44	0	2786066432	12	4244
2026-01-19 04:27:33.47	269.62	13.83	-26.0	-27.2	16.3	0.00e+00	0	44	0	2791309312	12	4164
2026-01-19 04:27:34.47	269.48	13.76	-25.9	-27.2	16.3	0.00e+00	0	44	0	2797600768	12	4157
2026-01-19 04:27:35.48	269.33	13.69	-25.9	-27.6	16.4	0.00e+00	0	44	0	2802843648	11	4377
2026-01-19 04:27:36.48	269.19	13.62	-26.0	-27.7	16.3	0.00e+00	0	44	0	2809135104	11	4417
2026-01-19 04:27:37.49	269.05	13.54	-26.0	-27.2	16.3	0.00e+00	0	44	0	2814377984	12	4169
2026-01-19 04:27:38.49	268.91	13.47	-26.0	-27.3	16.2	0.00e+00	0	44	0	2819620864	12	4193
2026-01-19 04:27:39.50	268.77	13.40	-26.0	-27.4	16.1	0.00e+00	0	44	0	2825912320	12	4213
2026-01-19 04:27:40.51	268.63	13.32	-26.0	-27.4	16.2	0.00e+00	0	44	0	2831155200	12	4213
2026-01-19 04:27:41.51	268.49	13.25	-26.0	-27.2	16.3	0.00e+00	0	44	0	2837446656	12	4167
2026-01-19 04:27:42.52	268.35	13.18	-26.0	-27.3	16.2	0.00e+00	0	44	0	2842689536	12	4198
2026-01-19 04:27:43.53	268.21	13.11	-26.0	-27.4	16.2	0.00e+00	0	44	0	2847932416	12	4213
2026-01-19 04:27:44.53	268.07	13.03	-26.1	-27.5	16.1	0.00e+00	0	44	0	2854223872	12	4239
2026-01-19 04:27:45.53	267.94	12.96	-26.0	-27.3	16.2	0.00e+00	0	44	0	2859466752	12	4194
2026-01-19 04:27:46.53	267.80	12.89	-26.1	-27.5	16.1	0.00e+00	0	44	0	2864709632	12	4227
2026-01-19 04:27:47.53	267.67	12.82	-26.2	-27.6	16.0	0.00e+00	0	44	0	2871001088	12	4276
2026-01-19 04:27:48.54	267.53	12.75	-26.2	-27.7	16.0	0.00e+00	0	44	0	2876243968	12	4281
2026-01-19 04:27:49.54	267.40	12.67	-26.2	-27.8	15.9	0.00e+00	0	44	0	2882535424	12	4324
2026-01-19 04:27:50.55	267.26	12.60	-26.3	-28.1	15.8	0.00e+00	0	44	0	2887778304	12	4399
2026-01-19 04:27:51.54	267.13	12.53	-26.3	-28.0	15.8	0.00e+00	0	44	0	2894069760	12	4384
2026-01-19 04:27:52.55	267.00	12.46	-26.3	-28.1	15.8	0.00e+00	0	44	0	2899312640	12	4398
2026-01-19 04:27:53.56	266.87	12.39	-26.4	-28.3	15.6	1.10e-06	0	44	0	2904555520	12	4467
2026-01-19 04:27:54.57	266.74	12.31	-26.5	-27.9	15.6	0.00e+00	0	44	0	2910846976	13	4230
2026-01-19 04:27:55.58	266.61	12.24	-26.3	-27.4	15.8	0.00e+00	0	44	0	2916089856	13	4115
2026-01-19 04:27:56.58	266.48	12.17	-26.3	-27.9	15.8	3.40e-06	0	44	0	2921332736	12	4359
2026-01-19 04:27:57.58	266.35	12.10	-26.3	-27.9	15.8	0.00e+00	0	44	0	2927624192	12	4342
2026-01-19 04:27:58.59	266.22	12.03	-26.4	-28.2	15.6	0.00e+00	0	44	0	2932867072	12	4448
2026-01-19 04:27:59.59	266.10	11.96	-26.4	-27.8	15.6	3.40e-06	0	44	0	2938109952	13	4201
2026-01-19 04:28:00.59	265.97	11.88	-26.5	-28.3	15.6	0.00e+00	0	44	0	2944401408	12	4468
2026-01-19 04:28:01.59	265.84	11.81	-26.4	-28.3	15.5	0.00e+00	0	44	0	2949644288	12	4462
2026-01-19 04:28:02.59	265.72	11.74	-26.5	-27.9	15.5	3.40e-06	0	44	0	2955935744	13	4232
2026-01-19 04:28:03.58	265.60	11.67	-26.5	-27.9	15.5	0.00e+00	0	44	0	2961178624	13	4226
2026-01-19 04:28:04.58	265.47	11.60	-26.5	-27.9	15.5	0.00e+00	0	44	0	2966421504	13	4248
2026-01-19 04:28:05.58	265.35	11.53	-26.5	-28.0	15.5	2.20e-06	0	44	0	2972712960	13	4253
2026-01-19 04:28:06.58	265.23	11.46	-26.5	-27.9	15.5	0.00e+00	0	44	0	2977955840	13	4249
2026-01-19 04:28:07.58	265.11	11.39	-26.4	-27.8	15.5	0.00e+00	0	44	0	2983198720	13	4214
2026-01-19 04:28:08.59	264.98	11.32	-26.6	-28.2	15.3	1.10e-06	0	44	0	2989490176	13	4318
2026-01-19 04:28:09.59	264.86	11.25	-26.8	-28.5	15.1	0.00e+00	0	44	0	2994733056	13	4408
2026-01-19 04:28:10.59	264.74	11.18	-26.7	-28.5	15.1	0.00e+00	0	44	0	2999975936	13	4399
2026-01-19 04:28:11.59	264.62	11.11	-26.6	-28.3	15.3	3.40e-06	0	44	0	3006267392	13	4336
2026-01-19 04:28:12.59	264.50	11.04	-26.6	-28.2	15.3	0.00e+00	0	44	0	3011510272	13	4315
2026-01-19 04:28:13.60	264.38	10.97	-26.6	-28.2	15.3	0.00e+00	0	44	0	3017801728	13	4326
2026-01-19 04:28:14.60	264.27	10.90	-26.6	-28.2	15.2	0.00e+00	0	44	0	3023044608	13	4340
2026-01-19 04:28:15.60	264.15	10.83	-26.7	-28.4	15.2	0.00e+00	0	44	0	3029336064	13	4371
2026-01-19 04:28:16.60	264.03	10.76	-26.8	-28.6	14.5	0.00e+00	0	44	0	3034578944	13	4443
2026-01-19 04:28:17.61	263.92	10.69	-26.8	-28.6	14.4	0.00e+00	0	44	0	3039821824	13	4444
2026-01-19 04:28:18.61	263.80	10.62	-25.8	-27.5	15.1	0.00e+00	0	44	0	3046113280	13	4364
2026-01-19 04:28:19.61	263.69	10.55	-25.9	-27.3	11.9	0.00e+00	0	44	0	3051356160	13	4231
2026-01-19 04:28:20.62	263.57	10.48	-26.5	-28.2	11.3	1.07e-03	0	44	0	3056599040	13	4345
2026-01-19 04:28:21.62	263.46	10.41	-26.8	-28.7	13.9	0.00e+00	0	44	0	3062890496	13	4484
2026-01-19 04:28:22.61	263.34	10.34	-26.9	-28.8	12.9	1.10e-06	0	44	0	3068133376	13	4504
2026-01-19 04:28:23.62	263.23	10.27	-26.8	-28.7	14.4	0.00e+00	0	44	0	3073376256	13	4471
2026-01-19 04:28:24.62	263.12	10.20	-26.9	-28.9	14.8	0.00e+00	0	44	0	3079667712	13	4517
2026-01-19 04:28:25.63	263.01	10.13	-26.9	-28.9	14.8	1.60e-05	0	44	0	3084910592	13	4518
2026-01-19 04:28:26.63	262.89	10.06	-26.9	-28.9	14.8	0.00e+00	0	44	0	3091202048	13	4539
2026-01-19 04:28:27.63	262.78	9.99	-26.9	-28.9	14.8	7.92e-04	0	44	0	3096444928	13	4530
2026-01-19 04:28:28.64	262.67	9.92	-27.0	-28.7	14.7	1.10e-06	0	44	0	3101687808	14	4346
2026-01-19 04:28:29.63	262.56	9.85	-27.1	-28.9	14.5	0.00e+00	0	44	0	3107979264	14	4407
2026-01-19 04:28:30.64	262.45	9.78	-27.0	-28.7	14.7	0.00e+00	0	44	0	3113222144	14	4350
2026-01-19 04:28:31.64	262.35	9.72	-27.1	-28.8	14.6	0.00e+00	0	44	0	3118465024	14	4373
2026-01-19 04:28:32.64	262.24	9.65	-27.1	-28.8	14.6	2.01e-03	0	44	0	3124756480	14	4387
2026-01-19 04:28:33.64	262.13	9.58	-27.0	-28.7	14.6	1.10e-06	0	44	0	3129999360	14	4352
2026-01-19 04:28:34.64	262.02	9.51	-27.0	-28.7	14.6	2.69e-03	0	44	0	3135242240	14	4353
2026-01-19 04:28:35.64	261.92	9.44	-27.1	-28.8	14.6	1.10e-06	0	44	0	3141533696	14	4377
2026-01-19 04:28:36.64	261.81	9.37	-27.1	-28.7	14.6	0.00e+00	0	44	0	3146776576	14	4368
2026-01-19 04:28:37.64	261.71	9.31	-27.2	-29.1	14.4	5.37e-04	0	44	0	3153068032	14	4467
2026-01-19 04:28:38.64	261.60	9.24	-27.2	-29.0	14.4	2.20e-06	0	44	0	3158310912	14	4446
2026-01-19 04:28:39.64	261.50	9.17	-27.1	-28.7	14.6	1.03e-03	0	44	0	3163553792	14	4369
2026-01-19 04:28:40.64	261.39	9.10	-27.0	-28.7	14.6	0.00e+00	0	44	0	3169845248	14	4353
2026-01-19 04:28:41.65	261.29	9.03	-27.0	-29.1	14.6	2.83e-03	0	44	0	3175088128	13	4576
2026-01-19 04:28:42.65	261.19	8.97	-27.0	-28.7	14.6	0.00e+00	0	44	0	3181379584	14	4362
2026-01-19 04:28:43.65	261.08	8.90	-27.1	-28.9	14.5	2.12e-03	0	44	0	3186622464	14	4404
2026-01-19 04:28:44.66	260.98	8.83	-27.1	-28.9	14.5	2.28e-03	0	44	0	3191865344	14	4402
2026-01-19 04:28:45.67	260.88	8.76	-27.3	-29.2	14.3	9.44e-04	0	44	0	3198156800	14	4494
2026-01-19 04:28:46.67	260.78	8.70	-27.1	-29.0	14.4	2.91e-03	0	44	0	3203399680	14	4438
2026-01-19 04:28:47.67	260.68	8.63	-27.2	-29.0	14.4	2.20e-06	0	44	0	3208642560	14	4449
2026-01-19 04:28:48.68	260.58	8.56	-27.2	-29.1	14.3	1.46e-03	0	44	0	3214934016	14	4481
2026-01-19 04:28:49.67	260.48	8.49	-27.2	-29.1	14.3	3.69e-03	0	44	0	3220176896	14	4483
2026-01-19 04:28:50.68	260.38	8.43	-27.3	-29.4	14.1	4.31e-03	0	44	0	3226468352	14	4564
2026-01-19 04:28:51.68	260.28	8.36	-27.3	-29.4	14.1	1.74e-03	0	44	0	3231711232	14	4567
2026-01-19 04:28:52.68	260.18	8.29	-27.2	-29.2	14.2	5.20e-03	0	44	0	3236954112	14	4508
2026-01-19 04:28:53.68	260.08	8.23	-27.4	-29.5	14.0	5.32e-03	0	44	0	3243245568	14	4602
2026-01-19 04:28:54.69	259.98	8.16	-27.4	-29.5	14.0	1.21e-04	0	44	0	3248488448	14	4604
2026-01-19 04:28:55.69	259.89	8.09	-27.5	-29.7	13.9	5.72e-03	0	44	0	3253731328	14	4661
2026-01-19 04:28:56.69	259.79	8.03	-27.4	-29.6	13.9	5.09e-03	0	44	0	3260022784	14	4615
2026-01-19 04:28:57.69	259.70	7.96	-27.3	-29.4	14.0	1.80e-03	0	44	0	3265265664	14	4555
2026-01-19 04:28:58.70	259.60	7.89	-27.5	-29.8	13.8	4.67e-03	0	45	0	3271557120	14	4677
2026-01-19 04:28:59.70	259.50	7.83	-27.8	-30.1	13.3	5.08e-03	0	44	0	3276800000	15	4662
2026-01-19 04:29:00.70	259.41	7.76	-27.8	-29.9	13.4	1.23e-03	0	44	0	3282042880	15	4623
2026-01-19 04:29:01.71	259.32	7.70	-27.7	-29.8	13.5	2.63e-05	0	44	0	3288334336	15	4577
2026-01-19 04:29:02.71	259.22	7.63	-27.8	-29.9	13.4	4.67e-03	0	44	0	3293577216	15	4618
2026-01-19 04:29:03.72	259.13	7.56	-27.7	-29.8	13.5	1.71e-05	0	44	0	3299868672	15	4578
2026-01-19 04:29:04.72	259.03	7.50	-27.8	-30.0	13.4	3.68e-03	0	44	0	3305111552	15	4626
2026-01-19 04:29:05.73	258.94	7.43	-27.8	-30.0	13.3	3.22e-03	0	44	0	3310354432	15	4645
2026-01-19 04:29:06.74	258.85	7.37	-27.9	-30.1	13.2	4.11e-05	0	44	0	3316645888	15	4683
2026-01-19 04:29:07.74	258.76	7.30	-27.8	-30.1	13.2	3.03e-03	0	44	0	3321888768	15	4690
2026-01-19 04:29:08.75	258.67	7.24	-28.2	-30.5	12.9	5.83e-05	0	44	0	3328180224	16	4667
2026-01-19 04:29:09.75	258.57	7.17	-28.1	-30.2	13.1	4.50e-04	0	44	0	3333423104	16	4593
2026-01-19 04:29:10.76	258.48	7.11	-27.7	-29.7	13.5	1.94e-05	0	44	0	3338665984	15	4561
2026-01-19 04:29:11.76	258.39	7.04	-33.2	-44.1	3.8	3.95e-01	0	44	104	3342860288	26	12631
2026-01-19 04:29:12.76	258.30	6.98	-33.7	-44.8	3.8	8.46e-01	0	44	104	3342860288	27	13059

#Closed at: 2026-01-19 04:29:13
#Recorded file [3342 MB]: D:/data/31010_260119_071916.dat