passes_logs/2026/01/19/R2M6_AANII_01/R2M6_AANII_01__20260119_231135_NOAA_21_JPSS-2_rec.log

#Pass ID: 20260119_231135_NOAA 21 (JPSS-2)
#Satellite: NOAA 21 (JPSS-2)
#Configuration: NOAA 21
#almurnet v.1.7.20240730
#Start time: 2026-01-19 23:11:36

#Version: 2.2.20231116
#Station: R2M6_AANII_01
#Location: 30.233357 lon 59.946436 lat
#TLE: 1 54234U 22150A   26019.31231101  .00000073  00000+0  55355-4 0  9994
#TLE: 2 54234  98.7504 320.1599 0000604 258.3686 101.7423 14.19535697165426

#Time	Az	El	Level	Level2	SNR	BER	BlckErr	Temp	State	Recorded	gain1	gain2
2026-01-19 23:11:36.67	25.64	7.09	-30.8	-35.7	4.7	1.38e+00	0	42	0	0	21	6340
2026-01-19 23:11:37.67	25.70	7.16	-31.5	-37.0	4.5	1.42e+00	0	42	104	0	23	6748
2026-01-19 23:11:38.67	25.77	7.23	-31.5	-36.3	7.5	8.92e-02	0	42	0	0	23	6249
2026-01-19 23:11:39.68	25.84	7.30	-31.4	-35.9	7.7	1.02e-01	0	42	0	3145728	23	6046
2026-01-19 23:11:40.69	25.91	7.38	-31.2	-35.0	8.4	4.66e-02	0	42	0	6291456	23	5595
2026-01-19 23:11:41.69	25.98	7.45	-31.0	-34.9	8.9	2.84e-02	0	42	0	9437184	22	5650
2026-01-19 23:11:42.69	26.05	7.52	-30.6	-34.2	9.7	1.40e-02	0	42	0	12582912	21	5456
2026-01-19 23:11:43.69	26.12	7.59	-30.4	-33.5	10.3	5.73e-03	0	42	0	15728640	21	5149
2026-01-19 23:11:44.70	26.19	7.66	-29.9	-32.8	11.1	2.45e-03	0	42	0	18874368	20	5009
2026-01-19 23:11:45.70	26.26	7.73	-30.0	-32.9	11.0	1.64e-03	0	42	0	22020096	20	5030
2026-01-19 23:11:46.71	26.34	7.80	-30.0	-33.0	11.0	1.68e-03	0	42	0	24117248	20	5081
2026-01-19 23:11:47.71	26.41	7.87	-29.8	-32.4	11.3	1.36e-03	0	42	0	27262976	20	4870
2026-01-19 23:11:48.72	26.48	7.95	-29.7	-32.7	11.6	9.22e-04	0	42	0	30408704	19	5055
2026-01-19 23:11:49.72	26.55	8.02	-29.7	-32.6	11.7	4.87e-04	0	42	0	33554432	19	5030
2026-01-19 23:11:50.72	26.63	8.09	-29.9	-33.1	11.4	8.16e-04	0	42	0	36700160	19	5197
2026-01-19 23:11:51.72	26.70	8.16	-29.7	-32.2	11.6	7.26e-04	0	42	0	40894464	20	4783
2026-01-19 23:11:52.73	26.77	8.24	-29.5	-31.5	12.0	3.97e-04	0	42	0	44040192	20	4552
2026-01-19 23:11:53.72	26.85	8.31	-29.6	-32.4	11.9	4.83e-04	0	42	0	47185920	19	4929
2026-01-19 23:11:54.73	26.92	8.38	-29.5	-32.1	12.0	2.30e-04	0	42	0	49283072	19	4853
2026-01-19 23:11:55.73	26.99	8.45	-29.7	-32.5	11.8	3.56e-04	0	42	0	52428800	19	4998
2026-01-19 23:11:56.73	27.07	8.53	-29.6	-32.3	11.9	3.62e-04	0	42	0	55574528	19	4913
2026-01-19 23:11:57.74	27.14	8.60	-29.4	-31.9	12.3	1.80e-04	0	42	0	58720256	19	4758
2026-01-19 23:11:58.74	27.22	8.67	-29.5	-31.9	12.2	2.46e-04	0	42	0	61865984	19	4760
2026-01-19 23:11:59.75	27.30	8.75	-29.5	-32.0	12.2	2.02e-04	0	42	0	65011712	19	4786
2026-01-19 23:12:00.75	27.37	8.82	-29.6	-32.2	12.0	2.15e-04	0	42	0	68157440	19	4888
2026-01-19 23:12:01.75	27.45	8.90	-29.5	-32.0	12.2	3.23e-04	0	42	0	71303168	19	4803
2026-01-19 23:12:02.75	27.53	8.97	-29.5	-32.5	12.2	2.06e-04	0	43	0	74448896	18	5069
2026-01-19 23:12:03.75	27.60	9.04	-29.4	-31.7	12.4	1.75e-04	0	42	0	77594624	19	4694
2026-01-19 23:12:04.75	27.68	9.12	-29.1	-31.0	12.8	6.02e-05	0	43	0	80740352	19	4470
2026-01-19 23:12:05.75	27.76	9.19	-29.3	-31.9	12.6	5.41e-05	0	43	0	83886080	18	4856
2026-01-19 23:12:06.76	27.84	9.27	-29.2	-31.7	12.7	7.17e-05	0	43	0	87031808	18	4809
2026-01-19 23:12:07.76	27.92	9.34	-29.2	-31.6	12.8	5.87e-05	0	42	0	90177536	18	4774
2026-01-19 23:12:08.76	27.99	9.42	-29.2	-31.8	12.6	6.33e-05	0	43	0	93323264	18	4843
2026-01-19 23:12:09.77	28.07	9.50	-29.1	-31.5	12.9	5.41e-05	0	43	0	96468992	18	4730
2026-01-19 23:12:10.77	28.15	9.57	-29.0	-31.2	13.0	3.20e-05	0	43	0	99614720	18	4637
2026-01-19 23:12:11.77	28.23	9.65	-29.1	-31.4	12.9	5.79e-05	0	43	0	102760448	18	4701
2026-01-19 23:12:12.77	28.31	9.72	-29.0	-31.3	13.0	3.58e-05	0	43	0	105906176	18	4657
2026-01-19 23:12:13.78	28.40	9.80	-29.0	-31.3	13.0	3.89e-05	0	43	0	109051904	18	4665
2026-01-19 23:12:14.78	28.48	9.88	-29.2	-31.7	12.7	5.49e-05	0	43	0	112197632	18	4812
2026-01-19 23:12:15.78	28.56	9.95	-29.2	-31.6	12.9	5.11e-05	0	43	0	115343360	18	4781
2026-01-19 23:12:16.78	28.64	10.03	-29.0	-31.3	13.0	4.80e-05	0	43	0	118489088	18	4677
2026-01-19 23:12:17.78	28.72	10.11	-29.1	-31.5	12.9	4.34e-05	0	43	0	121634816	18	4735
2026-01-19 23:12:18.78	28.81	10.18	-28.9	-31.0	13.2	2.36e-05	0	43	0	124780544	18	4571
2026-01-19 23:12:19.77	28.89	10.26	-29.2	-31.6	12.9	5.56e-05	0	43	0	127926272	18	4766
2026-01-19 23:12:20.77	28.97	10.34	-29.0	-31.1	13.1	5.79e-05	0	43	0	131072000	18	4608
2026-01-19 23:12:21.77	29.06	10.41	-28.8	-31.2	13.4	1.44e-05	0	43	0	134217728	17	4746
2026-01-19 23:12:22.77	29.14	10.49	-28.9	-31.5	13.2	2.51e-05	0	43	0	137363456	17	4839
2026-01-19 23:12:23.77	29.23	10.57	-28.8	-31.3	13.3	1.90e-05	0	43	0	140509184	17	4772
2026-01-19 23:12:24.77	29.31	10.65	-28.7	-31.0	13.6	1.52e-05	0	43	0	143654912	17	4669
2026-01-19 23:12:25.77	29.40	10.73	-28.7	-30.9	13.6	8.30e-06	0	43	0	146800640	17	4649
2026-01-19 23:12:26.77	29.49	10.81	-28.8	-31.2	13.4	1.14e-05	0	43	0	149946368	17	4742
2026-01-19 23:12:27.77	29.57	10.88	-28.8	-31.1	13.5	3.00e-06	0	43	0	153092096	17	4697
2026-01-19 23:12:28.77	29.66	10.96	-28.9	-31.5	13.3	1.22e-05	0	43	0	156237824	17	4847
2026-01-19 23:12:29.77	29.75	11.04	-29.0	-31.3	13.2	2.67e-05	0	43	0	159383552	18	4659
2026-01-19 23:12:30.77	29.84	11.12	-29.1	-31.4	13.1	1.12e-04	0	43	0	162529280	18	4702
2026-01-19 23:12:31.77	29.92	11.20	-29.2	-31.6	12.9	4.65e-05	0	43	0	165675008	18	4763
2026-01-19 23:12:32.77	30.01	11.28	-29.1	-31.4	13.1	4.04e-05	0	43	0	168820736	18	4692
2026-01-19 23:12:33.77	30.10	11.36	-29.0	-31.1	13.3	2.74e-05	0	43	0	171966464	18	4602
2026-01-19 23:12:34.77	30.19	11.44	-27.5	-29.8	13.3	1.37e-05	0	43	0	175112192	17	4711
2026-01-19 23:12:35.77	30.28	11.52	-28.8	-31.2	13.0	9.00e-05	0	43	0	178257920	17	4751
2026-01-19 23:12:36.77	30.37	11.60	-28.7	-31.0	13.6	4.57e-05	0	43	0	181403648	17	4686
2026-01-19 23:12:37.78	30.47	11.68	-28.6	-30.7	13.8	8.70e-04	0	43	0	184549376	17	4596
2026-01-19 23:12:38.77	30.56	11.77	-28.6	-30.7	13.8	3.00e-06	0	43	0	187695104	17	4572
2026-01-19 23:12:39.78	30.65	11.85	-28.6	-30.8	13.8	1.22e-05	0	43	0	190840832	17	4614
2026-01-19 23:12:40.78	30.74	11.93	-28.8	-31.1	13.5	3.00e-06	0	43	0	193986560	17	4721
2026-01-19 23:12:41.78	30.84	12.01	-28.6	-30.8	13.8	1.83e-05	0	43	0	197132288	17	4596
2026-01-19 23:12:42.78	30.93	12.09	-28.6	-30.7	13.8	3.80e-06	0	43	0	200278016	17	4588
2026-01-19 23:12:43.78	31.03	12.17	-28.6	-30.8	13.8	5.68e-04	0	43	0	203423744	17	4599
2026-01-19 23:12:44.78	31.12	12.26	-28.8	-31.1	13.6	1.06e-05	0	43	0	206569472	17	4723
2026-01-19 23:12:45.78	31.22	12.34	-28.8	-31.1	13.6	3.80e-06	0	43	0	209715200	17	4700
2026-01-19 23:12:46.79	31.31	12.42	-28.6	-30.8	13.8	4.50e-06	0	43	0	212860928	17	4601
2026-01-19 23:12:47.80	31.41	12.51	-28.8	-31.1	13.6	5.58e-04	0	43	0	216006656	17	4690
2026-01-19 23:12:48.79	31.51	12.59	-28.7	-31.0	13.7	6.80e-06	0	43	0	219152384	17	4661
2026-01-19 23:12:49.80	31.60	12.67	-28.5	-30.4	14.0	7.60e-06	0	43	0	222298112	17	4500
2026-01-19 23:12:50.81	31.70	12.76	-28.5	-30.6	14.0	7.00e-07	0	43	0	225443840	17	4542
2026-01-19 23:12:51.81	31.80	12.84	-28.6	-30.6	13.9	6.10e-06	0	43	0	228589568	17	4555
2026-01-19 23:12:52.81	31.90	12.93	-28.6	-30.6	14.0	6.30e-04	0	43	0	230686720	17	4533
2026-01-19 23:12:53.81	32.00	13.01	-28.8	-31.1	13.6	6.23e-04	0	43	0	233832448	17	4719
2026-01-19 23:12:54.82	32.10	13.10	-28.6	-30.7	13.9	3.80e-06	0	43	0	236978176	17	4572
2026-01-19 23:12:55.82	32.20	13.18	-28.6	-30.6	14.0	0.00e+00	0	43	0	241172480	17	4547
2026-01-19 23:12:56.83	32.30	13.27	-28.4	-30.2	14.2	2.73e-04	0	44	0	244318208	17	4436
2026-01-19 23:12:57.82	32.41	13.35	-28.3	-30.0	14.3	1.11e-04	0	43	0	247463936	17	4361
2026-01-19 23:12:58.83	32.51	13.44	-28.4	-30.8	14.2	4.39e-04	0	43	0	250609664	16	4717
2026-01-19 23:12:59.83	32.61	13.52	-28.5	-30.5	14.1	4.38e-04	0	43	0	253755392	17	4506
2026-01-19 23:13:00.83	32.71	13.61	-28.4	-30.3	14.2	1.50e-06	0	43	0	255852544	17	4440
2026-01-19 23:13:01.84	32.82	13.69	-28.5	-30.4	14.1	4.13e-04	0	43	0	258998272	17	4483
2026-01-19 23:13:02.84	32.92	13.78	-28.4	-30.6	14.3	4.32e-04	0	43	0	262144000	16	4640
2026-01-19 23:13:03.85	33.03	13.87	-28.5	-30.4	14.1	4.04e-05	0	44	0	265289728	17	4474
2026-01-19 23:13:04.85	33.14	13.95	-28.7	-30.8	13.9	3.67e-04	0	43	0	268435456	17	4583
2026-01-19 23:13:05.84	33.24	14.04	-28.4	-30.1	14.3	3.13e-04	0	43	0	271581184	17	4381
2026-01-19 23:13:06.85	33.35	14.13	-28.3	-29.9	14.4	8.69e-05	0	44	0	274726912	17	4333
2026-01-19 23:13:07.85	33.46	14.22	-28.3	-29.9	14.4	2.23e-04	0	43	0	277872640	17	4333
2026-01-19 23:13:08.86	33.57	14.30	-28.3	-29.9	14.4	2.22e-04	0	43	0	281018368	17	4346
2026-01-19 23:13:09.85	33.67	14.39	-28.4	-30.6	14.3	0.00e+00	0	43	0	284164096	16	4651
2026-01-19 23:13:10.86	33.79	14.48	-28.4	-30.6	14.3	2.26e-04	0	44	0	287309824	16	4645
2026-01-19 23:13:11.86	33.90	14.57	-28.4	-30.8	14.2	3.80e-06	0	43	0	290455552	16	4712
2026-01-19 23:13:12.86	34.01	14.66	-28.5	-30.8	14.2	2.95e-04	0	44	0	293601280	16	4720
2026-01-19 23:13:13.87	34.12	14.75	-28.5	-30.3	14.2	2.88e-04	0	44	0	296747008	17	4451
2026-01-19 23:13:14.87	34.23	14.84	-28.5	-30.4	14.2	3.23e-04	0	44	0	299892736	17	4483
2026-01-19 23:13:15.87	34.34	14.92	-28.5	-30.3	14.3	0.00e+00	0	43	0	303038464	17	4452
2026-01-19 23:13:16.87	34.46	15.01	-28.6	-30.7	14.0	3.80e-06	0	43	0	306184192	17	4552
2026-01-19 23:13:17.87	34.57	15.10	-28.4	-30.7	14.3	7.00e-07	0	43	0	309329920	16	4676
2026-01-19 23:13:18.87	34.69	15.19	-28.6	-30.7	14.0	4.50e-06	0	44	0	312475648	17	4561
2026-01-19 23:13:19.88	34.80	15.28	-28.8	-31.2	13.7	3.33e-04	0	44	0	315621376	17	4724
2026-01-19 23:13:20.89	34.92	15.38	-28.8	-31.0	13.8	3.52e-04	0	43	0	318767104	17	4654
2026-01-19 23:13:21.89	35.04	15.47	-28.5	-30.5	14.1	3.00e-06	0	44	0	321912832	17	4507
2026-01-19 23:13:22.89	35.15	15.56	-28.4	-30.2	14.3	1.50e-06	0	43	0	325058560	17	4428
2026-01-19 23:13:23.89	35.27	15.65	-28.4	-30.2	14.3	2.54e-04	0	44	0	328204288	17	4429
2026-01-19 23:13:24.90	35.39	15.74	-28.5	-30.3	14.2	7.00e-07	0	44	0	331350016	17	4453
2026-01-19 23:13:25.90	35.51	15.83	-28.4	-30.2	14.3	1.97e-04	0	44	0	334495744	17	4417
2026-01-19 23:13:26.90	35.63	15.92	-28.5	-30.5	14.2	7.00e-07	0	44	0	337641472	17	4510
2026-01-19 23:13:27.90	35.75	16.02	-28.4	-30.1	14.4	7.00e-07	0	44	0	340787200	17	4401
2026-01-19 23:13:28.90	35.87	16.11	-28.4	-30.1	14.5	0.00e+00	0	44	0	343932928	17	4380
2026-01-19 23:13:29.90	35.99	16.20	-28.4	-30.0	14.5	1.50e-06	0	44	0	347078656	17	4369
2026-01-19 23:13:30.91	36.12	16.29	-28.2	-29.8	14.6	0.00e+00	0	44	0	350224384	17	4288
2026-01-19 23:13:31.91	36.24	16.39	-28.2	-29.7	14.6	0.00e+00	0	44	0	353370112	17	4282
2026-01-19 23:13:32.90	36.37	16.48	-28.5	-30.4	14.3	7.00e-07	0	44	0	356515840	17	4462
2026-01-19 23:13:33.91	36.49	16.57	-28.4	-30.1	14.5	1.50e-06	0	44	0	359661568	17	4371
2026-01-19 23:13:34.92	36.62	16.67	-28.3	-30.0	14.5	0.00e+00	0	44	0	362807296	17	4350
2026-01-19 23:13:35.93	36.75	16.76	-28.3	-29.9	14.5	0.00e+00	0	44	0	365953024	17	4335
2026-01-19 23:13:36.93	36.88	16.86	-28.4	-30.1	14.5	1.50e-06	0	44	0	369098752	17	4391
2026-01-19 23:13:37.92	37.00	16.95	-28.4	-30.2	14.5	7.00e-07	0	44	0	372244480	17	4406
2026-01-19 23:13:38.93	37.13	17.05	-28.3	-30.0	14.6	0.00e+00	0	44	0	375390208	17	4345
2026-01-19 23:13:39.93	37.26	17.14	-28.3	-29.9	14.6	7.00e-07	0	44	0	378535936	17	4333
2026-01-19 23:13:40.94	37.39	17.24	-28.5	-30.4	14.3	0.00e+00	0	44	0	381681664	17	4466
2026-01-19 23:13:41.94	37.53	17.33	-28.3	-30.0	14.5	0.00e+00	0	44	0	384827392	17	4341
2026-01-19 23:13:42.94	37.66	17.43	-28.2	-29.6	14.8	0.00e+00	0	44	0	387973120	17	4236
2026-01-19 23:13:43.95	37.79	17.52	-28.3	-29.8	14.7	0.00e+00	0	44	0	391118848	17	4291
2026-01-19 23:13:44.95	37.93	17.62	-28.3	-29.9	14.6	0.00e+00	0	44	0	394264576	17	4325
2026-01-19 23:13:45.95	38.06	17.72	-28.4	-30.0	14.5	0.00e+00	0	44	0	397410304	17	4360
2026-01-19 23:13:46.95	38.20	17.81	-28.3	-29.8	14.7	0.00e+00	0	44	0	400556032	17	4311
2026-01-19 23:13:47.95	38.33	17.91	-28.4	-30.1	14.5	0.00e+00	0	44	0	403701760	17	4377
2026-01-19 23:13:48.96	38.47	18.01	-28.3	-29.9	14.6	7.00e-07	0	44	0	406847488	17	4331
2026-01-19 23:13:49.96	38.61	18.10	-28.4	-30.1	14.5	7.00e-07	0	44	0	409993216	17	4383
2026-01-19 23:13:50.96	38.75	18.20	-28.3	-29.9	14.7	0.00e+00	0	44	0	413138944	17	4318
2026-01-19 23:13:51.96	38.89	18.30	-28.4	-30.1	14.6	0.00e+00	0	44	0	416284672	17	4377
2026-01-19 23:13:52.96	39.03	18.40	-28.2	-29.7	14.8	7.00e-07	0	44	0	419430400	17	4263
2026-01-19 23:13:53.97	39.17	18.49	-28.1	-29.5	14.9	0.00e+00	0	44	0	422576128	17	4201
2026-01-19 23:13:54.97	39.31	18.59	-28.2	-29.7	14.8	0.00e+00	0	44	0	425721856	17	4260
2026-01-19 23:13:55.97	39.46	18.69	-28.2	-29.7	14.8	0.00e+00	0	44	0	428867584	17	4256
2026-01-19 23:13:56.97	39.60	18.79	-28.3	-29.9	14.7	0.00e+00	0	44	0	432013312	17	4310
2026-01-19 23:13:57.97	39.75	18.89	-28.3	-29.9	14.7	0.00e+00	0	44	0	435159040	17	4322
2026-01-19 23:13:58.97	39.89	18.99	-28.3	-29.8	14.7	0.00e+00	0	44	0	438304768	17	4301
2026-01-19 23:13:59.98	40.04	19.09	-28.5	-30.3	14.4	0.00e+00	0	44	0	441450496	17	4445
2026-01-19 23:14:00.99	40.19	19.19	-28.4	-30.0	14.7	7.00e-07	0	44	0	444596224	17	4343
2026-01-19 23:14:01.99	40.34	19.29	-28.3	-29.8	14.8	1.50e-06	0	44	0	447741952	17	4299
2026-01-19 23:14:02.99	40.49	19.39	-28.4	-30.1	14.6	7.00e-07	0	44	0	450887680	17	4364
2026-01-19 23:14:03.99	40.64	19.49	-28.3	-29.7	14.8	0.00e+00	0	44	0	454033408	17	4268
2026-01-19 23:14:05.00	40.79	19.59	-28.2	-29.7	14.8	0.00e+00	0	44	0	457179136	17	4253
2026-01-19 23:14:05.99	40.94	19.69	-28.1	-29.3	15.1	0.00e+00	0	44	0	460324864	17	4140
2026-01-19 23:14:07.00	41.10	19.79	-27.9	-29.0	15.2	0.00e+00	0	44	0	463470592	17	4067
2026-01-19 23:14:08.00	41.25	19.89	-27.9	-28.9	15.2	0.00e+00	0	44	0	466616320	17	4051
2026-01-19 23:14:09.00	41.41	19.99	-27.9	-29.0	15.2	0.00e+00	0	44	0	469762048	17	4054
2026-01-19 23:14:10.00	41.57	20.10	-28.1	-29.4	15.0	0.00e+00	0	44	0	472907776	17	4184
2026-01-19 23:14:11.00	41.72	20.20	-28.0	-29.3	15.1	0.00e+00	0	44	0	476053504	17	4137
2026-01-19 23:14:12.01	41.88	20.30	-27.9	-29.0	15.2	0.00e+00	0	44	0	479199232	17	4069
2026-01-19 23:14:13.01	42.04	20.40	-28.0	-29.7	15.2	0.00e+00	0	44	0	482344960	16	4364
2026-01-19 23:14:14.01	42.21	20.50	-28.0	-29.7	15.1	0.00e+00	0	44	0	484442112	16	4377
2026-01-19 23:14:15.01	42.37	20.61	-28.0	-29.7	15.2	7.00e-07	0	44	0	487587840	16	4355
2026-01-19 23:14:16.01	42.53	20.71	-28.1	-29.9	15.1	0.00e+00	0	44	0	490733568	16	4410
2026-01-19 23:14:17.01	42.69	20.81	-27.9	-29.3	15.3	0.00e+00	0	44	0	493879296	16	4266
2026-01-19 23:14:18.01	42.86	20.92	-27.8	-29.1	15.5	0.00e+00	0	44	0	497025024	16	4191
2026-01-19 23:14:19.01	43.02	21.02	-27.7	-28.9	15.6	0.00e+00	0	44	0	500170752	16	4149
2026-01-19 23:14:20.01	43.19	21.12	-27.6	-28.9	15.4	0.00e+00	0	44	0	503316480	16	4182
2026-01-19 23:14:21.01	43.36	21.23	-27.7	-28.9	15.2	7.00e-07	0	44	0	506462208	16	4136
2026-01-19 23:14:22.01	43.53	21.33	-27.6	-28.8	15.7	0.00e+00	0	44	0	509607936	16	4111
2026-01-19 23:14:23.01	43.70	21.43	-27.7	-28.9	15.6	0.00e+00	0	44	0	512753664	16	4131
2026-01-19 23:14:24.01	43.87	21.54	-27.6	-28.8	15.7	0.00e+00	0	44	0	515899392	16	4109
2026-01-19 23:14:25.01	44.04	21.64	-27.6	-28.7	15.8	0.00e+00	0	44	0	519045120	16	4087
2026-01-19 23:14:26.02	44.22	21.75	-27.5	-28.5	15.8	0.00e+00	0	44	0	522190848	16	4034
2026-01-19 23:14:27.02	44.40	21.85	-27.6	-28.7	15.8	0.00e+00	0	44	0	525336576	16	4082
2026-01-19 23:14:28.03	44.57	21.96	-27.5	-28.4	15.9	0.00e+00	0	44	0	528482304	16	4005
2026-01-19 23:14:29.03	44.75	22.06	-27.2	-28.5	16.0	0.00e+00	0	44	0	531628032	15	4137
2026-01-19 23:14:30.04	44.93	22.17	-27.3	-28.5	16.0	2.82e-04	0	44	0	534773760	15	4137
2026-01-19 23:14:31.04	45.11	22.28	-27.3	-28.5	16.0	0.00e+00	0	44	0	537919488	15	4150
2026-01-19 23:14:32.04	45.29	22.38	-27.3	-28.5	16.0	0.00e+00	0	44	0	541065216	15	4147
2026-01-19 23:14:33.05	45.48	22.49	-27.3	-29.0	16.0	0.00e+00	0	44	0	544210944	14	4407
2026-01-19 23:14:34.06	45.66	22.59	-27.3	-29.0	16.0	0.00e+00	0	44	0	547356672	14	4390
2026-01-19 23:14:35.05	45.84	22.70	-27.2	-28.9	16.1	6.38e-04	0	44	0	550502400	14	4379
2026-01-19 23:14:36.05	46.03	22.81	-27.3	-29.1	15.9	7.17e-04	0	44	0	553648128	14	4424
2026-01-19 23:14:37.04	46.21	22.91	-27.2	-28.8	16.1	0.00e+00	0	44	0	556793856	14	4330
2026-01-19 23:14:38.04	46.40	23.02	-27.1	-28.7	16.2	0.00e+00	0	44	0	559939584	14	4305
2026-01-19 23:14:39.05	46.59	23.12	-27.4	-29.3	15.9	0.00e+00	0	44	0	563085312	14	4465
2026-01-19 23:14:40.05	46.78	23.23	-27.2	-28.8	16.1	0.00e+00	0	44	0	566231040	14	4342
2026-01-19 23:14:41.05	46.98	23.34	-27.2	-28.7	16.2	4.50e-06	0	44	0	569376768	14	4317
2026-01-19 23:14:42.05	47.17	23.44	-27.2	-28.9	16.1	1.50e-06	0	44	0	572522496	14	4356
2026-01-19 23:14:43.06	47.37	23.55	-27.1	-28.6	16.2	0.00e+00	0	44	0	575668224	14	4291
2026-01-19 23:14:44.06	47.56	23.66	-27.3	-29.0	16.1	0.00e+00	0	44	0	578813952	14	4376
2026-01-19 23:14:45.07	47.76	23.77	-27.1	-28.6	16.2	0.00e+00	0	44	0	581959680	14	4292
2026-01-19 23:14:46.08	47.96	23.88	-27.2	-28.8	16.1	0.00e+00	0	44	0	585105408	14	4343
2026-01-19 23:14:47.08	48.16	23.98	-27.2	-28.9	16.1	0.00e+00	0	44	0	588251136	14	4378
2026-01-19 23:14:48.08	48.36	24.09	-27.2	-28.9	16.1	0.00e+00	0	44	0	591396864	14	4356
2026-01-19 23:14:49.08	48.57	24.20	-27.2	-28.9	16.1	0.00e+00	0	44	0	594542592	14	4367
2026-01-19 23:14:50.09	48.77	24.31	-27.3	-29.0	16.1	7.78e-05	0	44	0	597688320	14	4382
2026-01-19 23:14:51.09	48.98	24.42	-27.4	-29.2	15.9	1.11e-04	0	44	0	600834048	14	4444
2026-01-19 23:14:52.08	49.18	24.52	-27.3	-29.0	16.0	0.00e+00	0	44	0	603979776	14	4397
2026-01-19 23:14:53.09	49.39	24.63	-27.3	-29.0	16.1	3.53e-04	0	44	0	607125504	14	4381
2026-01-19 23:14:54.09	49.60	24.74	-27.3	-29.1	16.0	0.00e+00	0	44	0	610271232	14	4407
2026-01-19 23:14:55.09	49.81	24.85	-27.2	-28.9	16.1	0.00e+00	0	44	0	613416960	14	4362
2026-01-19 23:14:56.08	50.02	24.95	-27.3	-28.9	16.1	1.22e-04	0	44	0	616562688	14	4373
2026-01-19 23:14:57.09	50.24	25.06	-27.5	-29.0	15.8	2.59e-05	0	44	0	619708416	15	4282
2026-01-19 23:14:58.08	50.45	25.17	-27.6	-29.3	15.6	0.00e+00	0	44	0	622854144	15	4362
2026-01-19 23:14:59.08	50.67	25.28	-27.9	-29.8	15.4	0.00e+00	0	44	0	625999872	15	4508
2026-01-19 23:15:00.09	50.89	25.39	-27.8	-29.7	15.4	3.28e-05	0	44	0	629145600	15	4473
2026-01-19 23:15:01.10	51.11	25.50	-28.2	-30.0	15.2	0.00e+00	0	44	0	632291328	16	4430
2026-01-19 23:15:02.10	51.33	25.61	-28.1	-29.8	15.3	4.50e-06	0	44	0	635437056	16	4375
2026-01-19 23:15:03.10	51.56	25.71	-28.1	-29.7	15.3	0.00e+00	0	44	0	638582784	16	4368
2026-01-19 23:15:04.10	51.78	25.82	-28.2	-30.0	15.2	0.00e+00	0	44	0	641728512	16	4451
2026-01-19 23:15:05.11	52.01	25.93	-28.0	-29.7	15.3	0.00e+00	0	44	0	644874240	16	4345
2026-01-19 23:15:06.11	52.23	26.04	-28.1	-29.8	15.3	3.35e-05	0	44	0	648019968	16	4376
2026-01-19 23:15:07.11	52.46	26.15	-28.1	-29.9	15.2	0.00e+00	0	44	0	651165696	16	4414
2026-01-19 23:15:08.10	52.69	26.25	-28.2	-30.1	15.1	4.57e-05	0	44	0	654311424	16	4470
2026-01-19 23:15:09.11	52.93	26.36	-28.0	-29.6	15.5	0.00e+00	0	44	0	657457152	16	4327
2026-01-19 23:15:10.11	53.16	26.47	-27.9	-29.3	15.6	0.00e+00	0	44	0	660602880	16	4249
2026-01-19 23:15:11.11	53.39	26.58	-27.9	-29.4	15.5	5.49e-05	0	44	0	663748608	16	4258
2026-01-19 23:15:12.12	53.63	26.69	-27.9	-29.3	15.6	0.00e+00	0	44	0	666894336	16	4240
2026-01-19 23:15:13.13	53.87	26.80	-28.0	-29.7	15.4	0.00e+00	0	44	0	670040064	16	4353
2026-01-19 23:15:14.13	54.11	26.90	-28.0	-29.5	15.5	0.00e+00	0	44	0	673185792	16	4300
2026-01-19 23:15:15.13	54.35	27.01	-28.0	-29.6	15.4	0.00e+00	0	44	0	676331520	16	4324
2026-01-19 23:15:16.14	54.60	27.12	-28.1	-29.8	15.3	0.00e+00	0	44	0	679477248	16	4384
2026-01-19 23:15:17.14	54.84	27.23	-28.1	-29.8	15.3	0.00e+00	0	44	0	682622976	16	4382
2026-01-19 23:15:18.14	55.09	27.33	-28.1	-29.9	15.2	0.00e+00	0	44	0	685768704	16	4411
2026-01-19 23:15:19.14	55.34	27.44	-28.1	-29.9	15.3	7.00e-07	0	44	0	688914432	16	4398
2026-01-19 23:15:20.14	55.59	27.55	-28.1	-29.8	15.3	0.00e+00	0	44	0	692060160	16	4374
2026-01-19 23:15:21.15	55.84	27.66	-28.2	-30.1	15.1	0.00e+00	0	44	0	695205888	16	4464
2026-01-19 23:15:22.15	56.09	27.76	-28.2	-30.1	15.2	0.00e+00	0	44	0	698351616	16	4455
2026-01-19 23:15:23.15	56.35	27.87	-28.3	-30.3	15.1	0.00e+00	0	44	0	701497344	16	4516
2026-01-19 23:15:24.15	56.60	27.98	-28.3	-30.2	15.1	0.00e+00	0	44	0	704643072	16	4482
2026-01-19 23:15:25.16	56.86	28.08	-28.3	-30.3	15.1	0.00e+00	0	44	0	707788800	16	4517
2026-01-19 23:15:26.16	57.12	28.19	-28.3	-30.3	15.1	0.00e+00	0	44	0	710934528	16	4521
2026-01-19 23:15:27.17	57.39	28.30	-28.4	-30.5	14.9	0.00e+00	0	44	0	713031680	16	4584
2026-01-19 23:15:28.16	57.65	28.40	-28.3	-30.1	15.1	0.00e+00	0	44	0	716177408	16	4477
2026-01-19 23:15:29.17	57.91	28.51	-28.1	-29.8	15.3	0.00e+00	0	44	0	719323136	16	4386
2026-01-19 23:15:30.16	58.18	28.61	-28.2	-30.0	15.3	0.00e+00	0	44	0	722468864	16	4421
2026-01-19 23:15:31.16	58.44	28.71	-28.3	-30.2	15.1	7.00e-07	0	44	0	725614592	16	4493
2026-01-19 23:15:32.16	58.71	28.82	-28.2	-30.1	15.2	0.00e+00	0	44	0	728760320	16	4449
2026-01-19 23:15:33.16	58.99	28.92	-28.2	-30.1	15.2	0.00e+00	0	44	0	731906048	16	4465
2026-01-19 23:15:34.16	59.26	29.03	-28.3	-30.2	15.1	7.00e-07	0	44	0	735051776	16	4480
2026-01-19 23:15:35.17	59.54	29.13	-28.3	-30.3	15.1	0.00e+00	0	44	0	738197504	16	4515
2026-01-19 23:15:36.17	59.81	29.23	-28.2	-30.1	15.2	0.00e+00	0	44	0	741343232	16	4462
2026-01-19 23:15:37.17	60.09	29.34	-28.2	-30.0	15.2	0.00e+00	0	44	0	744488960	16	4433
2026-01-19 23:15:38.17	60.37	29.44	-28.2	-30.1	15.2	0.00e+00	0	44	0	747634688	16	4469
2026-01-19 23:15:39.17	60.65	29.54	-28.1	-29.8	15.3	0.00e+00	0	44	0	750780416	16	4389
2026-01-19 23:15:40.18	60.94	29.64	-28.1	-29.8	15.4	0.00e+00	0	44	0	753926144	16	4363
2026-01-19 23:15:41.19	61.23	29.75	-28.2	-30.0	15.2	0.00e+00	0	44	0	757071872	16	4444
2026-01-19 23:15:42.19	61.51	29.85	-28.1	-29.8	15.3	0.00e+00	0	44	0	760217600	16	4382
2026-01-19 23:15:43.20	61.81	29.95	-28.1	-29.8	15.4	0.00e+00	0	44	0	763363328	16	4382
2026-01-19 23:15:44.20	62.10	30.05	-28.2	-29.9	15.3	0.00e+00	0	44	0	766509056	16	4416
2026-01-19 23:15:45.20	62.39	30.15	-28.2	-29.9	15.3	0.00e+00	0	44	0	769654784	16	4419
2026-01-19 23:15:46.20	62.68	30.25	-28.3	-30.3	15.1	0.00e+00	0	44	0	772800512	16	4522
2026-01-19 23:15:47.21	62.98	30.35	-28.2	-30.1	15.2	0.00e+00	0	44	0	775946240	16	4465
2026-01-19 23:15:48.21	63.28	30.45	-28.2	-30.0	15.3	0.00e+00	0	44	0	779091968	16	4450
2026-01-19 23:15:49.21	63.58	30.54	-28.2	-30.1	15.2	0.00e+00	0	44	0	782237696	16	4460
2026-01-19 23:15:50.22	63.89	30.64	-28.2	-30.1	15.3	0.00e+00	0	44	0	785383424	16	4458
2026-01-19 23:15:51.23	64.19	30.74	-28.0	-29.5	15.5	0.00e+00	0	44	0	788529152	16	4286
2026-01-19 23:15:52.23	64.50	30.84	-27.8	-29.2	15.7	1.50e-06	0	44	0	791674880	16	4213
2026-01-19 23:15:53.24	64.81	30.93	-27.9	-29.2	15.7	0.00e+00	0	44	0	794820608	16	4227
2026-01-19 23:15:54.24	65.12	31.03	-27.8	-29.1	15.8	0.00e+00	0	44	0	797966336	16	4179
2026-01-19 23:15:55.24	65.43	31.12	-27.9	-29.3	15.7	0.00e+00	0	44	0	801112064	16	4225
2026-01-19 23:15:56.24	65.74	31.22	-28.0	-29.4	15.6	0.00e+00	0	44	0	804257792	16	4277
2026-01-19 23:15:57.24	66.05	31.31	-28.0	-29.5	15.6	0.00e+00	0	44	0	807403520	16	4292
2026-01-19 23:15:58.25	66.37	31.40	-28.3	-30.2	15.2	0.00e+00	0	44	0	810549248	16	4483
2026-01-19 23:15:59.24	66.69	31.49	-28.1	-29.9	15.3	0.00e+00	0	44	0	813694976	16	4399
2026-01-19 23:16:00.25	67.01	31.58	-28.2	-30.0	15.3	0.00e+00	0	44	0	816840704	16	4445
2026-01-19 23:16:01.25	67.33	31.68	-28.3	-30.2	15.2	0.00e+00	0	44	0	819986432	16	4490
2026-01-19 23:16:02.26	67.66	31.77	-28.3	-30.3	15.2	0.00e+00	0	44	0	823132160	16	4508
2026-01-19 23:16:03.26	67.98	31.86	-28.1	-29.8	15.4	0.00e+00	0	44	0	826277888	16	4377
2026-01-19 23:16:04.26	68.31	31.94	-28.2	-30.0	15.4	0.00e+00	0	44	0	829423616	16	4419
2026-01-19 23:16:05.27	68.64	32.03	-28.2	-29.9	15.3	0.00e+00	0	44	0	832569344	16	4406
2026-01-19 23:16:06.27	68.97	32.12	-28.2	-29.9	15.4	0.00e+00	0	44	0	835715072	16	4410
2026-01-19 23:16:07.26	69.30	32.20	-28.4	-30.5	15.0	0.00e+00	0	44	0	838860800	16	4592
2026-01-19 23:16:08.27	69.63	32.29	-28.7	-30.6	14.7	7.00e-07	0	44	0	842006528	17	4493
2026-01-19 23:16:09.28	69.97	32.38	-28.7	-30.8	14.6	0.00e+00	0	44	0	845152256	17	4544
2026-01-19 23:16:10.28	70.31	32.46	-28.8	-31.0	14.5	0.00e+00	0	44	0	848297984	17	4604
2026-01-19 23:16:11.29	70.65	32.54	-28.8	-30.9	14.2	0.00e+00	0	44	0	851443712	17	4578
2026-01-19 23:16:12.29	70.99	32.62	-28.8	-30.9	14.5	7.00e-07	0	44	0	854589440	17	4572
2026-01-19 23:16:13.29	71.33	32.71	-28.7	-30.6	14.7	0.00e+00	0	44	0	857735168	17	4476
2026-01-19 23:16:14.29	71.68	32.79	-28.6	-30.5	14.7	2.13e-04	0	44	0	860880896	17	4470
2026-01-19 23:16:15.29	72.02	32.86	-28.8	-30.9	14.5	0.00e+00	0	44	0	864026624	17	4569
2026-01-19 23:16:16.29	72.37	32.94	-28.9	-31.0	14.4	0.00e+00	0	44	0	867172352	17	4622
2026-01-19 23:16:17.29	72.72	33.02	-28.9	-31.2	14.3	3.80e-06	0	44	0	870318080	17	4690
2026-01-19 23:16:18.30	73.07	33.10	-29.0	-31.3	14.3	1.50e-06	0	44	0	873463808	17	4720
2026-01-19 23:16:19.29	73.42	33.17	-29.1	-31.0	14.2	1.02e-04	0	44	0	876609536	18	4492
2026-01-19 23:16:20.29	73.77	33.25	-29.1	-31.1	14.2	7.00e-07	0	44	0	879755264	18	4525
2026-01-19 23:16:21.30	74.13	33.32	-29.2	-31.3	14.0	3.00e-06	0	44	0	882900992	18	4600
2026-01-19 23:16:22.30	74.49	33.39	-29.1	-31.0	14.1	7.00e-07	0	44	0	886046720	18	4504
2026-01-19 23:16:23.30	74.85	33.46	-29.2	-31.4	14.0	1.11e-04	0	44	0	889192448	18	4619
2026-01-19 23:16:24.31	75.21	33.54	-29.3	-31.5	13.9	1.50e-06	0	44	0	892338176	18	4653
2026-01-19 23:16:25.31	75.57	33.60	-29.3	-31.6	13.8	1.22e-05	0	44	0	895483904	18	4702
2026-01-19 23:16:26.31	75.94	33.67	-29.0	-30.9	14.2	2.20e-06	0	44	0	898629632	18	4479
2026-01-19 23:16:27.32	76.30	33.74	-28.8	-30.4	14.5	1.50e-06	0	44	0	901775360	18	4338
2026-01-19 23:16:28.32	76.67	33.81	-28.9	-30.7	14.4	9.90e-06	0	44	0	904921088	18	4406
2026-01-19 23:16:29.32	77.04	33.87	-28.9	-30.5	14.4	3.00e-06	0	44	0	908066816	18	4369
2026-01-19 23:16:30.33	77.41	33.93	-28.7	-30.3	14.6	0.00e+00	0	44	0	911212544	18	4294
2026-01-19 23:16:31.32	77.78	34.00	-28.7	-30.2	14.6	8.39e-05	0	44	0	914358272	18	4287
2026-01-19 23:16:32.33	78.15	34.06	-28.6	-30.0	14.7	7.00e-07	0	44	0	917504000	18	4229
2026-01-19 23:16:33.33	78.53	34.12	-28.7	-30.3	14.6	0.00e+00	0	44	0	920649728	18	4284
2026-01-19 23:16:34.33	78.90	34.18	-28.7	-30.6	14.7	5.86e-04	0	44	0	923795456	17	4499
2026-01-19 23:16:35.33	79.28	34.23	-28.7	-30.7	14.6	6.93e-04	0	44	0	926941184	17	4533
2026-01-19 23:16:36.33	79.65	34.29	-28.7	-30.7	14.6	1.50e-06	0	44	0	930086912	17	4539
2026-01-19 23:16:37.33	80.03	34.35	-28.7	-30.7	14.6	0.00e+00	0	44	0	933232640	17	4525
2026-01-19 23:16:38.33	80.41	34.40	-28.8	-30.9	14.6	7.22e-04	0	44	0	936378368	17	4571
2026-01-19 23:16:39.34	80.80	34.45	-28.8	-30.9	14.5	3.00e-06	0	44	0	939524096	17	4573
2026-01-19 23:16:40.35	81.18	34.50	-28.8	-30.9	14.5	1.05e-03	0	44	0	942669824	17	4588
2026-01-19 23:16:41.35	81.56	34.55	-29.0	-31.0	14.2	1.07e-03	0	44	0	945815552	18	4497
2026-01-19 23:16:42.35	81.95	34.60	-28.9	-30.7	14.3	3.80e-06	0	44	0	948961280	18	4421
2026-01-19 23:16:43.36	82.34	34.65	-28.9	-31.2	14.3	5.95e-04	0	44	0	952107008	17	4671
2026-01-19 23:16:44.36	82.72	34.69	-28.8	-31.0	14.5	4.29e-04	0	44	0	955252736	17	4616
2026-01-19 23:16:45.37	83.12	34.74	-28.9	-31.2	14.4	4.50e-06	0	44	0	958398464	17	4676
2026-01-19 23:16:46.37	83.50	34.78	-29.0	-30.8	14.3	3.29e-04	0	44	0	961544192	18	4436
2026-01-19 23:16:47.37	83.89	34.82	-28.9	-30.6	14.5	7.00e-07	0	44	0	964689920	18	4378
2026-01-19 23:16:48.37	84.29	34.86	-28.8	-30.5	14.5	1.50e-06	0	44	0	966787072	18	4348
2026-01-19 23:16:49.37	84.68	34.90	-28.9	-30.7	14.4	1.46e-04	0	44	0	969932800	18	4412
2026-01-19 23:16:50.38	85.07	34.94	-29.0	-31.0	14.3	1.93e-04	0	44	0	974127104	18	4487
2026-01-19 23:16:51.38	85.47	34.98	-29.2	-31.4	14.0	4.50e-06	0	44	0	977272832	18	4610
2026-01-19 23:16:52.38	85.86	35.01	-29.3	-31.5	13.9	2.20e-06	0	44	0	980418560	18	4662
2026-01-19 23:16:53.38	86.26	35.04	-29.4	-31.4	13.7	7.60e-06	0	44	0	983564288	19	4513
2026-01-19 23:16:54.38	86.65	35.08	-29.2	-30.9	14.0	3.80e-06	0	44	0	986710016	19	4354
2026-01-19 23:16:55.39	87.05	35.11	-29.1	-30.6	14.2	1.02e-04	0	44	0	989855744	19	4266
2026-01-19 23:16:56.39	87.45	35.13	-29.1	-30.6	14.2	4.27e-05	0	44	0	991952896	19	4268
2026-01-19 23:16:57.39	87.85	35.16	-29.1	-30.6	14.1	3.00e-06	0	44	0	995098624	19	4276
2026-01-19 23:16:58.40	88.25	35.19	-29.1	-30.6	14.1	1.50e-06	0	44	0	998244352	19	4274
2026-01-19 23:16:59.40	88.65	35.21	-29.1	-30.6	14.1	7.00e-07	0	44	0	1001390080	19	4272
2026-01-19 23:17:00.41	89.05	35.23	-29.1	-30.6	14.2	3.00e-06	0	44	0	1004535808	19	4277
2026-01-19 23:17:01.41	89.45	35.25	-28.9	-30.0	14.4	3.00e-06	0	44	0	1007681536	19	4120
2026-01-19 23:17:02.41	89.86	35.27	-28.7	-30.2	14.7	0.00e+00	0	44	0	1010827264	18	4250
2026-01-19 23:17:03.41	90.26	35.29	-28.6	-30.0	14.8	7.00e-07	0	44	0	1013972992	18	4199
2026-01-19 23:17:04.41	90.66	35.31	-28.8	-30.5	14.6	1.50e-06	0	44	0	1017118720	18	4343
2026-01-19 23:17:05.42	91.06	35.32	-29.0	-30.8	14.3	6.40e-05	0	44	0	1020264448	18	4425
2026-01-19 23:17:06.42	91.47	35.34	-29.0	-30.9	14.3	0.00e+00	0	44	0	1023410176	18	4469
2026-01-19 23:17:07.42	91.87	35.35	-29.0	-30.8	14.3	2.20e-06	0	44	0	1026555904	18	4449
2026-01-19 23:17:08.43	92.28	35.36	-29.1	-31.0	14.2	7.00e-07	0	44	0	1029701632	18	4481
2026-01-19 23:17:09.43	92.68	35.37	-29.2	-31.2	14.1	0.00e+00	0	44	0	1032847360	18	4563
2026-01-19 23:17:10.43	93.08	35.37	-29.2	-31.3	14.0	5.30e-06	0	44	0	1035993088	18	4590
2026-01-19 23:17:11.44	93.49	35.38	-29.3	-31.7	13.9	1.50e-06	0	44	0	1039138816	18	4701
2026-01-19 23:17:12.45	93.90	35.38	-29.3	-31.2	13.8	3.80e-06	0	44	0	1042284544	19	4441
2026-01-19 23:17:13.45	94.30	35.39	-29.0	-30.4	14.2	2.20e-06	0	44	0	1045430272	19	4232
2026-01-19 23:17:14.45	94.71	35.39	-28.9	-30.1	14.5	7.00e-07	0	44	0	1048576000	19	4124
2026-01-19 23:17:15.45	95.11	35.39	-28.8	-30.4	14.6	0.00e+00	0	44	0	1051721728	18	4330
2026-01-19 23:17:16.46	95.52	35.38	-28.8	-30.4	14.5	0.00e+00	0	44	0	1054867456	18	4325
2026-01-19 23:17:17.46	95.92	35.38	-28.7	-30.2	14.7	0.00e+00	0	44	0	1058013184	18	4268
2026-01-19 23:17:18.46	96.33	35.37	-28.7	-30.1	14.7	0.00e+00	0	44	0	1061158912	18	4232
2026-01-19 23:17:19.46	96.73	35.37	-28.7	-30.0	14.7	1.50e-06	0	44	0	1064304640	18	4218
2026-01-19 23:17:20.46	97.14	35.36	-28.7	-30.0	14.8	0.00e+00	0	44	0	1067450368	18	4217
2026-01-19 23:17:21.46	97.54	35.35	-28.7	-30.1	14.8	0.00e+00	0	44	0	1070596096	18	4232
2026-01-19 23:17:22.46	97.94	35.34	-28.7	-30.1	14.8	0.00e+00	0	44	0	1073741824	18	4231
2026-01-19 23:17:23.47	98.35	35.32	-28.8	-30.3	14.7	7.00e-07	0	44	0	1076887552	18	4304
2026-01-19 23:17:24.47	98.75	35.31	-28.7	-30.2	14.6	1.50e-06	0	44	0	1080033280	18	4279
2026-01-19 23:17:25.46	99.15	35.29	-28.9	-30.6	14.5	0.00e+00	0	44	0	1083179008	18	4371
2026-01-19 23:17:26.47	99.56	35.27	-28.6	-30.0	14.8	7.00e-07	0	44	0	1086324736	18	4196
2026-01-19 23:17:27.47	99.96	35.25	-28.7	-30.1	14.7	7.00e-07	0	44	0	1089470464	18	4236
2026-01-19 23:17:28.47	100.36	35.23	-28.8	-30.2	14.6	0.00e+00	0	44	0	1092616192	18	4275
2026-01-19 23:17:29.48	100.76	35.21	-28.7	-30.1	14.7	7.00e-07	0	44	0	1095761920	18	4225
2026-01-19 23:17:30.48	101.16	35.19	-29.0	-30.8	14.4	1.50e-06	0	44	0	1098907648	18	4432
2026-01-19 23:17:31.48	101.56	35.16	-29.1	-31.0	14.2	3.80e-06	0	44	0	1102053376	18	4507
2026-01-19 23:17:32.49	101.96	35.13	-29.0	-30.7	14.4	7.00e-07	0	44	0	1105199104	18	4415
2026-01-19 23:17:33.49	102.36	35.11	-29.0	-30.8	14.4	0.00e+00	0	44	0	1108344832	18	4422
2026-01-19 23:17:34.49	102.76	35.08	-29.1	-31.2	14.1	1.50e-06	0	44	0	1111490560	18	4553
2026-01-19 23:17:35.49	103.15	35.04	-29.2	-31.3	14.0	7.00e-07	0	44	0	1114636288	18	4604
2026-01-19 23:17:36.49	103.55	35.01	-29.2	-31.3	14.0	3.00e-06	0	44	0	1117782016	18	4598
2026-01-19 23:17:37.49	103.94	34.98	-29.1	-31.1	14.2	3.00e-06	0	44	0	1120927744	18	4518
2026-01-19 23:17:38.48	104.33	34.94	-29.1	-31.1	14.2	7.00e-07	0	44	0	1124073472	18	4540
2026-01-19 23:17:39.48	104.73	34.90	-29.0	-30.8	14.3	7.00e-07	0	44	0	1127219200	18	4437
2026-01-19 23:17:40.48	105.12	34.86	-28.8	-30.3	14.6	0.00e+00	0	44	0	1130364928	18	4293
2026-01-19 23:17:41.48	105.51	34.82	-28.8	-30.4	14.6	7.00e-07	0	44	0	1133510656	18	4329
2026-01-19 23:17:42.48	105.90	34.78	-28.9	-30.7	14.5	7.00e-07	0	44	0	1136656384	18	4402
2026-01-19 23:17:43.49	106.29	34.74	-28.9	-30.7	14.4	7.00e-07	0	44	0	1139802112	18	4417
2026-01-19 23:17:44.50	106.69	34.69	-28.8	-30.3	14.6	0.00e+00	0	44	0	1142947840	18	4298
2026-01-19 23:17:45.50	107.07	34.65	-28.8	-30.4	14.5	0.00e+00	0	44	0	1146093568	18	4335
2026-01-19 23:17:46.50	107.46	34.60	-28.9	-30.7	14.4	0.00e+00	0	44	0	1149239296	18	4400
2026-01-19 23:17:47.51	107.85	34.55	-29.0	-30.9	14.3	7.00e-07	0	44	0	1152385024	18	4457
2026-01-19 23:17:48.51	108.23	34.50	-29.1	-31.1	14.1	2.20e-06	0	44	0	1155530752	18	4523
2026-01-19 23:17:49.52	108.62	34.45	-29.2	-31.2	14.1	7.00e-07	0	44	0	1158676480	18	4571
2026-01-19 23:17:50.52	109.00	34.40	-29.1	-31.0	14.2	3.00e-06	0	44	0	1161822208	18	4506
2026-01-19 23:17:51.53	109.39	34.34	-28.9	-30.7	14.4	7.00e-07	0	44	0	1164967936	18	4412
2026-01-19 23:17:52.53	109.76	34.29	-29.1	-31.2	14.1	0.00e+00	0	44	0	1168113664	18	4543
2026-01-19 23:17:53.54	110.15	34.23	-29.4	-31.7	13.8	6.80e-06	0	44	0	1171259392	18	4704
2026-01-19 23:17:54.54	110.52	34.17	-29.3	-31.5	13.8	2.20e-06	0	44	0	1174405120	18	4663
2026-01-19 23:17:55.54	110.90	34.12	-29.2	-31.4	14.0	3.80e-06	0	44	0	1177550848	18	4627
2026-01-19 23:17:56.54	111.27	34.06	-29.4	-31.7	13.7	3.80e-06	0	44	0	1180696576	18	4719
2026-01-19 23:17:57.54	111.64	33.99	-29.4	-31.3	13.7	9.90e-06	0	44	0	1183842304	19	4470
2026-01-19 23:17:58.55	112.02	33.93	-29.4	-31.2	13.8	7.60e-06	0	44	0	1186988032	19	4458
2026-01-19 23:17:59.55	112.39	33.87	-29.4	-31.3	13.7	3.80e-06	0	44	0	1190133760	19	4469
2026-01-19 23:18:00.55	112.76	33.80	-29.4	-31.2	13.7	2.20e-06	0	44	0	1193279488	19	4464
2026-01-19 23:18:01.56	113.13	33.74	-29.3	-31.1	13.8	2.20e-06	0	44	0	1196425216	19	4414
2026-01-19 23:18:02.55	113.49	33.67	-29.3	-31.0	13.9	1.50e-06	0	44	0	1199570944	19	4383
2026-01-19 23:18:03.55	113.85	33.60	-29.5	-31.5	13.5	1.14e-05	0	44	0	1202716672	19	4529
2026-01-19 23:18:04.56	114.22	33.53	-29.3	-31.1	13.7	1.50e-06	0	44	0	1205862400	19	4436
2026-01-19 23:18:05.57	114.58	33.46	-29.6	-31.8	13.4	6.80e-06	0	44	0	1209008128	19	4641
2026-01-19 23:18:06.56	114.94	33.39	-29.5	-31.6	13.5	1.52e-05	0	44	0	1212153856	19	4583
2026-01-19 23:18:07.57	115.30	33.32	-29.1	-30.7	14.0	5.64e-05	0	44	0	1215299584	19	4311
2026-01-19 23:18:08.56	115.65	33.24	-28.9	-30.1	14.3	3.80e-06	0	44	0	1218445312	19	4152
2026-01-19 23:18:09.57	116.01	33.17	-28.9	-30.1	14.4	0.00e+00	0	44	0	1220542464	19	4149
2026-01-19 23:18:10.58	116.37	33.09	-28.9	-30.6	14.4	1.50e-06	0	44	0	1224736768	18	4374
2026-01-19 23:18:11.57	116.72	33.02	-28.7	-30.3	14.5	7.00e-07	0	44	0	1227882496	18	4293
2026-01-19 23:18:12.58	117.07	32.94	-28.7	-30.2	14.6	7.00e-07	0	44	0	1231028224	18	4265
2026-01-19 23:18:13.57	117.41	32.86	-28.7	-30.1	14.7	0.00e+00	0	44	0	1234173952	18	4238
2026-01-19 23:18:14.57	117.76	32.78	-28.7	-30.3	14.6	0.00e+00	0	44	0	1237319680	18	4301
2026-01-19 23:18:15.58	118.11	32.70	-28.7	-30.1	14.7	0.00e+00	0	44	0	1240465408	18	4239
2026-01-19 23:18:16.58	118.45	32.62	-28.5	-29.8	14.8	0.00e+00	0	44	0	1242562560	18	4171
2026-01-19 23:18:17.59	118.80	32.53	-28.5	-29.8	14.8	7.00e-07	0	44	0	1245708288	18	4162
2026-01-19 23:18:18.59	119.14	32.45	-28.4	-29.5	15.0	2.51e-05	0	44	0	1248854016	18	4079
2026-01-19 23:18:19.60	119.48	32.37	-28.2	-29.5	15.3	0.00e+00	0	44	0	1251999744	17	4194
2026-01-19 23:18:20.61	119.82	32.28	-28.1	-29.3	15.4	0.00e+00	0	44	0	1255145472	17	4139
2026-01-19 23:18:21.61	120.15	32.19	-28.2	-29.5	15.3	0.00e+00	0	44	0	1258291200	17	4193
2026-01-19 23:18:22.60	120.48	32.11	-28.3	-29.8	15.1	0.00e+00	0	44	0	1261436928	17	4271
2026-01-19 23:18:23.61	120.82	32.02	-28.3	-29.8	15.1	0.00e+00	0	44	0	1264582656	17	4280
2026-01-19 23:18:24.62	121.15	31.93	-28.3	-29.7	15.2	0.00e+00	0	44	0	1267728384	17	4235
2026-01-19 23:18:25.62	121.48	31.84	-28.5	-30.3	14.8	0.00e+00	0	44	0	1270874112	17	4418
2026-01-19 23:18:26.62	121.80	31.75	-28.5	-30.3	14.8	0.00e+00	0	44	0	1274019840	17	4401
2026-01-19 23:18:27.62	122.13	31.66	-28.3	-29.8	15.1	5.03e-05	0	44	0	1277165568	17	4284
2026-01-19 23:18:28.62	122.45	31.57	-28.1	-29.4	15.3	3.35e-05	0	44	0	1280311296	17	4160
2026-01-19 23:18:29.63	122.77	31.48	-28.1	-29.3	15.3	0.00e+00	0	44	0	1283457024	17	4131
2026-01-19 23:18:30.63	123.09	31.39	-27.9	-28.9	15.5	0.00e+00	0	44	0	1286602752	17	4038
2026-01-19 23:18:31.63	123.41	31.29	-27.9	-28.8	15.6	0.00e+00	0	44	0	1289748480	17	4008
2026-01-19 23:18:32.64	123.73	31.20	-27.9	-28.8	15.6	0.00e+00	0	44	0	1292894208	17	4009
2026-01-19 23:18:33.64	124.04	31.10	-27.9	-28.8	15.6	3.80e-06	0	44	0	1296039936	17	4013
2026-01-19 23:18:34.64	124.35	31.01	-28.0	-29.0	15.5	9.10e-06	0	44	0	1299185664	17	4069
2026-01-19 23:18:35.65	124.66	30.91	-28.0	-29.0	15.5	0.00e+00	0	44	0	1302331392	17	4062
2026-01-19 23:18:36.65	124.97	30.82	-28.0	-29.1	15.4	0.00e+00	0	44	0	1305477120	17	4075
2026-01-19 23:18:37.66	125.28	30.72	-28.0	-29.1	15.4	1.50e-06	0	44	0	1308622848	17	4087
2026-01-19 23:18:38.65	125.58	30.62	-27.9	-28.9	15.5	0.00e+00	0	44	0	1311768576	17	4037
2026-01-19 23:18:39.66	125.89	30.52	-27.9	-28.8	15.6	0.00e+00	0	44	0	1314914304	17	3999
2026-01-19 23:18:40.67	126.19	30.43	-28.0	-29.0	15.4	3.80e-06	0	44	0	1318060032	17	4065
2026-01-19 23:18:41.67	126.49	30.33	-28.0	-29.0	15.5	0.00e+00	0	44	0	1321205760	17	4058
2026-01-19 23:18:42.67	126.79	30.23	-28.0	-29.0	15.4	0.00e+00	0	44	0	1324351488	17	4070
2026-01-19 23:18:43.67	127.08	30.13	-28.0	-29.0	15.5	0.00e+00	0	44	0	1327497216	17	4056
2026-01-19 23:18:44.67	127.38	30.03	-28.1	-29.2	15.3	0.00e+00	0	44	0	1330642944	17	4121
2026-01-19 23:18:45.68	127.67	29.93	-28.1	-29.4	15.2	0.00e+00	0	44	0	1333788672	17	4172
2026-01-19 23:18:46.68	127.96	29.82	-28.2	-29.6	15.1	1.50e-06	0	44	0	1336934400	17	4230
2026-01-19 23:18:47.68	128.25	29.72	-28.1	-29.3	15.3	0.00e+00	0	44	0	1340080128	17	4141
2026-01-19 23:18:48.68	128.53	29.62	-27.9	-28.9	15.5	0.00e+00	0	44	0	1343225856	17	4023
2026-01-19 23:18:49.68	128.82	29.52	-27.9	-28.9	15.5	4.50e-06	0	44	0	1346371584	17	4020
2026-01-19 23:18:50.69	129.10	29.41	-27.7	-29.0	15.7	0.00e+00	0	44	0	1349517312	16	4158
2026-01-19 23:18:51.69	129.39	29.31	-27.7	-28.8	15.7	0.00e+00	0	44	0	1352663040	16	4121
2026-01-19 23:18:52.70	129.67	29.21	-27.8	-29.2	15.6	0.00e+00	0	44	0	1355808768	16	4209
2026-01-19 23:18:53.70	129.95	29.10	-27.7	-28.9	15.7	0.00e+00	0	44	0	1358954496	16	4131
2026-01-19 23:18:54.71	130.22	29.00	-27.5	-28.5	15.9	8.08e-05	0	44	0	1362100224	16	4040
2026-01-19 23:18:55.71	130.50	28.89	-27.5	-28.4	15.9	0.00e+00	0	44	0	1365245952	16	4017
2026-01-19 23:18:56.72	130.77	28.79	-27.5	-28.4	16.0	0.00e+00	0	44	0	1368391680	16	4000
2026-01-19 23:18:57.73	131.05	28.68	-27.4	-28.3	16.0	0.00e+00	0	44	0	1371537408	16	3973
2026-01-19 23:18:58.74	131.32	28.57	-27.2	-28.4	16.1	0.00e+00	0	44	0	1374683136	15	4124
2026-01-19 23:18:59.74	131.58	28.47	-27.3	-28.4	16.1	0.00e+00	0	44	0	1377828864	15	4127
2026-01-19 23:19:00.74	131.85	28.36	-27.4	-28.8	15.9	0.00e+00	0	44	0	1380974592	15	4214
2026-01-19 23:19:01.74	132.11	28.26	-27.5	-29.1	15.6	0.00e+00	0	44	0	1384120320	15	4315
2026-01-19 23:19:02.75	132.38	28.15	-27.6	-29.3	15.6	0.00e+00	0	44	0	1387266048	15	4368
2026-01-19 23:19:03.75	132.64	28.04	-27.7	-29.4	15.5	0.00e+00	0	44	0	1390411776	15	4385
2026-01-19 23:19:04.75	132.90	27.94	-27.6	-29.2	15.6	0.00e+00	0	44	0	1393557504	15	4337
2026-01-19 23:19:05.75	133.15	27.83	-27.5	-29.1	15.7	0.00e+00	0	44	0	1396703232	15	4311
2026-01-19 23:19:06.76	133.41	27.72	-27.7	-29.4	15.5	0.00e+00	0	44	0	1399848960	15	4395
2026-01-19 23:19:07.77	133.67	27.61	-27.5	-29.1	15.6	0.00e+00	0	44	0	1402994688	15	4318
2026-01-19 23:19:08.77	133.92	27.51	-27.4	-28.8	15.8	0.00e+00	0	44	0	1406140416	15	4233
2026-01-19 23:19:09.78	134.17	27.40	-27.3	-28.6	15.9	0.00e+00	0	44	0	1409286144	15	4182
2026-01-19 23:19:10.78	134.42	27.29	-27.3	-29.2	15.9	0.00e+00	0	44	0	1412431872	14	4467
2026-01-19 23:19:11.79	134.67	27.18	-27.3	-29.2	15.8	0.00e+00	0	44	0	1415577600	14	4480
2026-01-19 23:19:12.79	134.91	27.07	-27.2	-29.0	16.0	0.00e+00	0	44	0	1418723328	14	4414
2026-01-19 23:19:13.80	135.16	26.96	-27.2	-29.0	15.9	0.00e+00	0	44	0	1421869056	14	4399
2026-01-19 23:19:14.81	135.40	26.85	-27.2	-28.9	16.0	0.00e+00	0	44	0	1425014784	14	4380
2026-01-19 23:19:15.81	135.65	26.74	-27.3	-29.1	15.9	0.00e+00	0	44	0	1428160512	14	4420
2026-01-19 23:19:16.82	135.89	26.63	-27.3	-29.2	15.8	0.00e+00	0	44	0	1431306240	14	4449
2026-01-19 23:19:17.83	136.13	26.52	-27.4	-29.4	15.7	0.00e+00	0	44	0	1434451968	14	4500
2026-01-19 23:19:18.83	136.36	26.42	-27.4	-29.4	15.7	0.00e+00	0	44	0	1437597696	14	4506
2026-01-19 23:19:19.83	136.60	26.31	-27.3	-29.1	15.9	0.00e+00	0	44	0	1440743424	14	4416
2026-01-19 23:19:20.84	136.83	26.20	-27.3	-29.0	16.0	0.00e+00	0	44	0	1443889152	14	4395
2026-01-19 23:19:21.84	137.06	26.09	-27.4	-29.4	15.7	0.00e+00	0	44	0	1447034880	14	4518
2026-01-19 23:19:22.84	137.29	25.98	-27.5	-29.4	15.7	0.00e+00	0	44	0	1450180608	14	4529
2026-01-19 23:19:23.84	137.52	25.87	-27.6	-29.3	15.4	0.00e+00	0	44	0	1453326336	15	4393
2026-01-19 23:19:24.84	137.74	25.76	-27.7	-29.5	15.4	0.00e+00	0	44	0	1456472064	15	4433
2026-01-19 23:19:25.85	137.97	25.65	-27.6	-29.2	15.5	0.00e+00	0	44	0	1459617792	15	4356
2026-01-19 23:19:26.85	138.19	25.54	-27.5	-29.0	15.6	0.00e+00	0	44	0	1462763520	15	4297
2026-01-19 23:19:27.85	138.42	25.43	-27.5	-29.1	15.5	0.00e+00	0	44	0	1465909248	15	4325
2026-01-19 23:19:28.85	138.64	25.32	-27.4	-28.9	15.7	0.00e+00	0	44	0	1469054976	15	4273
2026-01-19 23:19:29.85	138.85	25.22	-27.3	-28.6	15.8	0.00e+00	0	44	0	1472200704	15	4188
2026-01-19 23:19:30.85	139.07	25.11	-27.3	-28.5	15.8	0.00e+00	0	44	0	1475346432	15	4175
2026-01-19 23:19:31.86	139.29	25.00	-27.5	-29.0	15.6	0.00e+00	0	44	0	1478492160	15	4300
2026-01-19 23:19:32.86	139.50	24.89	-27.3	-28.7	15.7	0.00e+00	0	44	0	1481637888	15	4206
2026-01-19 23:19:33.87	139.72	24.78	-27.5	-29.1	15.5	4.50e-06	0	44	0	1484783616	15	4316
2026-01-19 23:19:34.87	139.93	24.67	-27.4	-28.7	15.7	0.00e+00	0	44	0	1487929344	15	4220
2026-01-19 23:19:35.86	140.14	24.56	-27.3	-28.6	15.8	0.00e+00	0	44	0	1491075072	15	4168
2026-01-19 23:19:36.86	140.35	24.45	-27.3	-29.0	15.9	0.00e+00	0	44	0	1494220800	14	4411
2026-01-19 23:19:37.86	140.55	24.34	-27.3	-29.0	15.8	0.00e+00	0	44	0	1497366528	14	4413
2026-01-19 23:19:38.86	140.76	24.24	-27.5	-29.5	15.6	0.00e+00	0	44	0	1500512256	14	4533
2026-01-19 23:19:39.87	140.97	24.13	-27.4	-28.7	15.7	5.30e-06	0	44	0	1503657984	15	4219
2026-01-19 23:19:40.87	141.17	24.02	-27.2	-28.9	15.9	0.00e+00	0	44	0	1506803712	14	4374
2026-01-19 23:19:41.88	141.37	23.91	-27.2	-29.0	15.8	0.00e+00	0	44	0	1509949440	14	4397
2026-01-19 23:19:42.88	141.57	23.80	-27.2	-28.8	15.9	6.10e-06	0	44	0	1513095168	14	4342
2026-01-19 23:19:43.88	141.77	23.69	-27.1	-28.6	16.0	0.00e+00	0	44	0	1516240896	14	4299
2026-01-19 23:19:44.89	141.97	23.58	-27.2	-28.9	14.4	0.00e+00	0	44	0	1519386624	14	4381
2026-01-19 23:19:45.90	142.17	23.47	-27.1	-28.7	14.2	5.30e-06	0	44	0	1522532352	14	4329
2026-01-19 23:19:46.89	142.36	23.37	-27.1	-28.7	15.9	0.00e+00	0	44	0	1525678080	14	4329
2026-01-19 23:19:47.90	142.56	23.26	-27.1	-28.8	15.9	0.00e+00	0	44	0	1528823808	14	4340
2026-01-19 23:19:48.90	142.75	23.15	-27.3	-29.2	15.7	7.60e-06	0	44	0	1531969536	14	4450
2026-01-19 23:19:49.90	142.94	23.04	-27.2	-28.9	15.8	0.00e+00	0	44	0	1535115264	14	4384
2026-01-19 23:19:50.90	143.13	22.94	-27.2	-28.9	15.8	0.00e+00	0	44	0	1538260992	14	4376
2026-01-19 23:19:51.91	143.32	22.83	-27.3	-29.2	15.6	2.39e-03	0	44	0	1541406720	14	4464
2026-01-19 23:19:52.91	143.51	22.72	-27.4	-29.4	15.5	0.00e+00	0	44	0	1543503872	14	4538
2026-01-19 23:19:53.91	143.70	22.61	-27.5	-29.1	15.4	1.50e-06	0	44	0	1546649600	15	4340
2026-01-19 23:19:54.92	143.88	22.51	-27.7	-29.5	15.2	5.72e-05	0	44	0	1549795328	15	4462
2026-01-19 23:19:55.92	144.07	22.40	-27.6	-29.4	15.2	0.00e+00	0	44	0	1552941056	15	4414
2026-01-19 23:19:56.93	144.25	22.29	-27.7	-29.5	15.2	1.99e-03	0	44	0	1557135360	15	4454
2026-01-19 23:19:57.93	144.43	22.19	-27.6	-29.5	15.1	2.05e-03	0	44	0	1560281088	15	4440
2026-01-19 23:19:58.94	144.61	22.08	-27.8	-29.8	15.0	0.00e+00	0	44	0	1563426816	15	4544
2026-01-19 23:19:59.94	144.79	21.97	-27.7	-29.5	15.1	6.33e-05	0	44	0	1566572544	15	4457
2026-01-19 23:20:00.94	144.97	21.87	-27.5	-29.3	15.2	7.60e-06	0	44	0	1568669696	15	4380
2026-01-19 23:20:01.94	145.15	21.76	-27.6	-29.3	15.2	0.00e+00	0	44	0	1571815424	15	4391
2026-01-19 23:20:02.95	145.32	21.65	-27.6	-29.3	15.2	3.08e-03	0	44	0	1574961152	15	4396
2026-01-19 23:20:03.95	145.50	21.55	-27.6	-29.2	15.3	3.38e-03	0	44	0	1578106880	15	4362
2026-01-19 23:20:04.96	145.67	21.44	-27.7	-29.6	15.1	0.00e+00	0	44	0	1581252608	15	4459
2026-01-19 23:20:05.96	145.85	21.34	-27.6	-29.3	15.2	3.29e-03	0	44	0	1584398336	15	4378
2026-01-19 23:20:06.96	146.02	21.23	-27.7	-29.6	15.1	3.28e-03	0	44	0	1587544064	15	4462
2026-01-19 23:20:07.96	146.19	21.13	-27.7	-29.5	15.1	7.00e-07	0	44	0	1590689792	15	4432
2026-01-19 23:20:08.96	146.35	21.02	-27.7	-29.7	15.0	3.35e-03	0	44	0	1593835520	15	4496
2026-01-19 23:20:09.96	146.52	20.92	-27.8	-29.7	14.9	0.00e+00	0	44	0	1596981248	15	4515
2026-01-19 23:20:10.96	146.69	20.82	-27.8	-29.8	14.9	7.00e-07	0	44	0	1600126976	15	4532
2026-01-19 23:20:11.97	146.85	20.71	-27.8	-29.9	14.8	3.24e-03	0	45	0	1603272704	15	4576
2026-01-19 23:20:12.98	147.02	20.61	-27.9	-30.1	14.7	3.43e-03	0	44	0	1606418432	15	4621
2026-01-19 23:20:13.98	147.18	20.50	-27.8	-29.7	14.9	0.00e+00	0	44	0	1609564160	15	4513
2026-01-19 23:20:14.98	147.34	20.40	-27.7	-29.5	15.0	3.48e-03	0	44	0	1612709888	15	4440
2026-01-19 23:20:15.99	147.51	20.30	-27.7	-29.7	14.9	7.00e-07	0	44	0	1615855616	15	4494
2026-01-19 23:20:17.00	147.67	20.19	-27.7	-29.6	15.0	0.00e+00	0	44	0	1619001344	15	4474
2026-01-19 23:20:18.00	147.83	20.09	-27.8	-29.9	14.8	3.24e-03	0	44	0	1622147072	15	4562
2026-01-19 23:20:19.00	147.99	19.99	-27.8	-29.7	14.9	2.86e-03	0	44	0	1625292800	15	4520
2026-01-19 23:20:20.00	148.14	19.88	-27.9	-30.0	14.7	0.00e+00	0	44	0	1628438528	15	4592
2026-01-19 23:20:21.01	148.30	19.78	-27.8	-29.8	14.9	0.00e+00	0	44	0	1631584256	15	4532
2026-01-19 23:20:22.01	148.45	19.68	-27.7	-29.7	14.9	3.05e-03	0	44	0	1634729984	15	4502
2026-01-19 23:20:23.01	148.61	19.58	-27.6	-29.3	15.1	0.00e+00	0	44	0	1637875712	15	4384
2026-01-19 23:20:24.01	148.76	19.48	-27.7	-29.5	15.0	3.25e-03	0	44	0	1641021440	15	4464
2026-01-19 23:20:25.00	148.91	19.38	-27.5	-29.1	15.2	0.00e+00	0	44	0	1644167168	15	4344
2026-01-19 23:20:26.00	149.06	19.28	-27.6	-29.3	15.1	0.00e+00	0	44	0	1647312896	15	4404
2026-01-19 23:20:27.01	149.21	19.17	-27.4	-29.4	15.3	3.42e-03	0	44	0	1650458624	14	4547
2026-01-19 23:20:28.01	149.36	19.07	-27.6	-29.3	15.1	3.26e-03	0	44	0	1653604352	15	4403
2026-01-19 23:20:29.01	149.51	18.97	-27.8	-29.9	14.7	7.00e-07	0	44	0	1656750080	15	4588
2026-01-19 23:20:30.02	149.66	18.87	-27.6	-29.5	15.0	0.00e+00	0	44	0	1659895808	15	4446
2026-01-19 23:20:31.02	149.80	18.77	-27.4	-29.4	15.3	0.00e+00	0	44	0	1663041536	14	4541
2026-01-19 23:20:32.03	149.95	18.67	-27.6	-29.3	15.0	0.00e+00	0	44	0	1666187264	15	4406
2026-01-19 23:20:33.04	150.10	18.57	-27.5	-29.3	15.0	7.00e-07	0	44	0	1669332992	15	4385
2026-01-19 23:20:34.04	150.24	18.47	-27.5	-29.2	15.1	3.53e-03	0	44	0	1672478720	15	4376
2026-01-19 23:20:35.05	150.38	18.37	-27.6	-29.4	14.9	0.00e+00	0	44	0	1675624448	15	4445
2026-01-19 23:20:36.05	150.52	18.27	-27.6	-29.5	14.9	0.00e+00	0	44	0	1678770176	15	4459
2026-01-19 23:20:37.05	150.66	18.17	-27.7	-29.7	14.8	0.00e+00	0	44	0	1681915904	15	4507
2026-01-19 23:20:38.05	150.80	18.08	-27.9	-30.2	14.5	0.00e+00	0	44	0	1685061632	15	4667
2026-01-19 23:20:39.05	150.94	17.98	-27.8	-30.0	14.6	3.27e-03	0	44	0	1688207360	15	4602
2026-01-19 23:20:40.05	151.08	17.88	-27.8	-29.9	14.6	0.00e+00	0	44	0	1691353088	15	4582
2026-01-19 23:20:41.05	151.22	17.78	-28.0	-30.2	14.5	7.00e-07	0	44	0	1694498816	15	4673
2026-01-19 23:20:42.06	151.36	17.68	-27.9	-30.2	14.5	6.10e-06	0	44	0	1697644544	15	4662
2026-01-19 23:20:43.06	151.49	17.59	-28.2	-30.1	14.4	0.00e+00	0	44	0	1700790272	16	4523
2026-01-19 23:20:44.05	151.62	17.49	-28.1	-30.0	14.5	1.50e-06	0	44	0	1703936000	16	4492
2026-01-19 23:20:45.06	151.76	17.39	-28.4	-30.7	14.1	0.00e+00	0	44	0	1707081728	16	4698
2026-01-19 23:20:46.07	151.89	17.30	-28.2	-30.1	14.4	0.00e+00	0	44	0	1710227456	16	4525
2026-01-19 23:20:47.08	152.03	17.20	-28.0	-29.7	14.6	0.00e+00	0	44	0	1713373184	16	4403
2026-01-19 23:20:48.07	152.16	17.11	-27.8	-29.9	14.6	3.80e-06	0	44	0	1716518912	15	4583
2026-01-19 23:20:49.08	152.29	17.01	-27.9	-30.1	14.5	0.00e+00	0	44	0	1719664640	15	4638
2026-01-19 23:20:50.08	152.42	16.91	-27.8	-29.9	14.6	0.00e+00	0	44	0	1722810368	15	4571
2026-01-19 23:20:51.07	152.55	16.82	-27.8	-30.0	14.5	0.00e+00	0	44	0	1725956096	15	4624
2026-01-19 23:20:52.07	152.67	16.72	-27.8	-29.9	14.5	1.50e-06	0	44	0	1729101824	15	4600
2026-01-19 23:20:53.07	152.80	16.63	-27.9	-30.1	14.4	7.00e-07	0	44	0	1732247552	15	4663
2026-01-19 23:20:54.07	152.93	16.53	-27.9	-30.1	14.4	1.50e-06	0	44	0	1735393280	15	4658
2026-01-19 23:20:55.07	153.05	16.44	-28.2	-30.3	14.2	7.00e-07	0	44	0	1738539008	16	4585
2026-01-19 23:20:56.07	153.18	16.35	-28.1	-30.1	14.3	1.50e-06	0	44	0	1741684736	16	4521
2026-01-19 23:20:57.07	153.30	16.25	-28.1	-30.1	14.2	0.00e+00	0	44	0	1744830464	16	4554
2026-01-19 23:20:58.07	153.43	16.16	-28.1	-30.1	14.2	7.00e-07	0	44	0	1747976192	16	4551
2026-01-19 23:20:59.07	153.55	16.07	-28.2	-30.4	14.0	1.50e-06	0	44	0	1751121920	16	4654
2026-01-19 23:21:00.07	153.67	15.97	-28.3	-30.5	14.0	2.20e-06	0	44	0	1754267648	16	4678
2026-01-19 23:21:01.08	153.79	15.88	-28.2	-30.4	14.1	1.50e-06	0	44	0	1757413376	16	4641
2026-01-19 23:21:02.08	153.91	15.79	-28.1	-30.1	14.2	1.50e-06	0	44	0	1760559104	16	4573
2026-01-19 23:21:03.09	154.04	15.69	-27.9	-30.4	14.2	3.00e-06	0	44	0	1763704832	15	4766
2026-01-19 23:21:04.09	154.16	15.60	-28.0	-30.4	14.1	3.80e-06	0	44	0	1766850560	15	4773
2026-01-19 23:21:05.09	154.27	15.51	-28.2	-30.4	14.0	3.00e-06	0	44	0	1769996288	16	4653
2026-01-19 23:21:06.10	154.39	15.42	-28.2	-30.4	14.1	2.20e-06	0	44	0	1773142016	16	4628
2026-01-19 23:21:07.11	154.51	15.32	-28.4	-30.8	13.8	4.50e-06	0	44	0	1776287744	16	4752
2026-01-19 23:21:08.11	154.63	15.23	-28.3	-30.6	14.0	3.00e-06	0	44	0	1779433472	16	4673
2026-01-19 23:21:09.12	154.74	15.14	-28.4	-30.7	13.9	1.50e-06	0	44	0	1782579200	16	4714
2026-01-19 23:21:10.12	154.86	15.05	-28.4	-30.8	13.9	2.20e-06	0	44	0	1785724928	16	4733
2026-01-19 23:21:11.12	154.97	14.96	-28.5	-30.5	13.7	6.80e-06	0	44	0	1788870656	17	4541
2026-01-19 23:21:12.11	155.09	14.87	-28.4	-30.8	13.8	6.80e-06	0	44	0	1792016384	16	4742
2026-01-19 23:21:13.11	155.20	14.78	-28.4	-30.8	13.8	7.00e-07	0	44	0	1795162112	16	4749
2026-01-19 23:21:14.11	155.31	14.69	-28.4	-30.8	13.8	3.00e-06	0	44	0	1797259264	16	4743
2026-01-19 23:21:15.12	155.42	14.60	-28.5	-30.9	13.8	4.50e-06	0	44	0	1800404992	16	4766
2026-01-19 23:21:16.12	155.53	14.51	-28.5	-31.0	13.7	4.50e-06	0	44	0	1804599296	16	4801
2026-01-19 23:21:17.13	155.65	14.42	-28.6	-30.7	13.6	3.00e-06	0	44	0	1807745024	17	4598
2026-01-19 23:21:18.13	155.76	14.33	-28.7	-31.0	13.4	9.90e-06	0	44	0	1810890752	17	4691
2026-01-19 23:21:19.14	155.87	14.24	-28.5	-30.5	13.7	3.00e-06	0	44	0	1814036480	17	4531
2026-01-19 23:21:20.15	155.98	14.15	-28.4	-30.3	13.9	4.50e-06	0	44	0	1817182208	17	4467
2026-01-19 23:21:21.14	156.08	14.07	-28.4	-30.7	13.9	3.00e-06	0	44	0	1819279360	16	4714
2026-01-19 23:21:22.14	156.19	13.98	-28.4	-30.7	13.9	6.10e-06	0	44	0	1822425088	16	4723
2026-01-19 23:21:23.15	156.30	13.89	-28.3	-30.6	14.0	3.00e-06	0	44	0	1825570816	16	4675
2026-01-19 23:21:24.15	156.40	13.80	-28.4	-30.7	13.9	2.20e-06	0	44	0	1828716544	16	4698
2026-01-19 23:21:25.16	156.51	13.71	-28.3	-30.6	13.9	3.80e-06	0	44	0	1831862272	16	4682
2026-01-19 23:21:26.16	156.62	13.63	-28.3	-30.5	14.0	7.00e-07	0	44	0	1835008000	16	4663
2026-01-19 23:21:27.17	156.72	13.54	-28.2	-30.5	14.0	2.20e-06	0	44	0	1838153728	16	4652
2026-01-19 23:21:28.17	156.82	13.45	-28.3	-30.6	13.9	3.80e-06	0	44	0	1841299456	16	4699
2026-01-19 23:21:29.17	156.93	13.37	-28.3	-30.7	13.8	6.10e-06	0	44	0	1844445184	16	4736
2026-01-19 23:21:30.17	157.03	13.28	-28.4	-30.8	13.8	3.80e-06	0	44	0	1847590912	16	4754
2026-01-19 23:21:31.17	157.13	13.19	-28.4	-31.0	13.6	4.50e-06	0	44	0	1850736640	16	4814
2026-01-19 23:21:32.17	157.23	13.11	-28.5	-31.1	13.6	4.50e-06	0	44	0	1853882368	16	4870
2026-01-19 23:21:33.17	157.33	13.02	-28.5	-30.6	13.5	9.90e-06	0	44	0	1857028096	17	4605
2026-01-19 23:21:34.17	157.43	12.94	-28.5	-30.6	13.5	6.80e-06	0	44	0	1860173824	17	4578
2026-01-19 23:21:35.18	157.53	12.85	-28.5	-30.8	13.4	3.46e-03	0	44	0	1863319552	17	4638
2026-01-19 23:21:36.18	157.63	12.77	-28.6	-30.9	13.3	1.29e-05	0	44	0	1866465280	17	4696
2026-01-19 23:21:37.18	157.73	12.68	-28.6	-30.8	13.4	1.22e-05	0	44	0	1869611008	17	4643
2026-01-19 23:21:38.18	157.83	12.60	-28.5	-30.7	13.5	1.52e-05	0	44	0	1872756736	17	4604
2026-01-19 23:21:39.18	157.93	12.51	-28.6	-30.9	13.4	1.37e-05	0	44	0	1875902464	17	4671
2026-01-19 23:21:40.18	158.03	12.43	-28.6	-30.8	13.4	5.95e-05	0	44	0	1879048192	17	4643
2026-01-19 23:21:41.18	158.12	12.35	-28.7	-31.1	13.2	3.04e-03	0	44	0	1882193920	17	4733
2026-01-19 23:21:42.19	158.22	12.26	-28.6	-30.8	13.4	1.14e-05	0	44	0	1885339648	17	4642
2026-01-19 23:21:43.19	158.31	12.18	-28.6	-30.9	13.3	2.05e-05	0	44	0	1888485376	17	4672
2026-01-19 23:21:44.20	158.41	12.09	-28.6	-30.7	13.4	1.37e-05	0	44	0	1891631104	17	4613
2026-01-19 23:21:45.20	158.50	12.01	-28.5	-30.7	13.4	3.05e-03	0	45	0	1894776832	17	4604
2026-01-19 23:21:46.20	158.60	11.93	-28.7	-31.0	13.2	5.41e-05	0	44	0	1897922560	17	4707
2026-01-19 23:21:47.20	158.69	11.85	-28.6	-30.8	13.4	1.52e-05	0	44	0	1901068288	17	4642
2026-01-19 23:21:48.20	158.78	11.76	-28.5	-30.7	13.4	9.10e-06	0	44	0	1904214016	17	4608
2026-01-19 23:21:49.20	158.88	11.68	-28.6	-30.9	13.3	1.60e-05	0	44	0	1907359744	17	4684
2026-01-19 23:21:50.20	158.97	11.60	-28.6	-30.7	13.4	3.27e-03	0	44	0	1910505472	17	4613
2026-01-19 23:21:51.21	159.06	11.52	-28.6	-30.7	13.4	3.48e-03	0	44	0	1913651200	17	4624
2026-01-19 23:21:52.21	159.15	11.44	-28.7	-31.0	13.3	2.13e-05	0	44	0	1916796928	17	4693
2026-01-19 23:21:53.21	159.24	11.36	-28.8	-31.3	13.1	2.89e-05	0	44	0	1919942656	17	4795
2026-01-19 23:21:54.22	159.33	11.27	-28.6	-30.9	13.3	3.48e-03	0	44	0	1923088384	17	4668
2026-01-19 23:21:55.22	159.42	11.19	-28.5	-30.7	13.4	1.06e-05	0	44	0	1926234112	17	4615
2026-01-19 23:21:56.23	159.51	11.11	-28.5	-30.8	13.3	3.66e-03	0	44	0	1929379840	17	4649
2026-01-19 23:21:57.23	159.60	11.03	-28.6	-30.8	13.3	3.39e-03	0	44	0	1932525568	17	4672
2026-01-19 23:21:58.23	159.69	10.95	-28.4	-30.6	13.4	1.60e-05	0	44	0	1935671296	17	4594
2026-01-19 23:21:59.23	159.78	10.87	-28.5	-30.8	13.3	3.44e-03	0	44	0	1938817024	17	4668
2026-01-19 23:22:00.23	159.86	10.79	-28.6	-30.9	13.2	3.91e-03	0	44	0	1941962752	17	4696
2026-01-19 23:22:01.24	159.95	10.71	-28.7	-31.3	13.0	3.20e-05	0	44	0	1945108480	17	4820
2026-01-19 23:22:02.25	160.04	10.63	-28.7	-31.1	13.1	3.88e-03	0	44	0	1948254208	17	4783
2026-01-19 23:22:03.25	160.12	10.55	-28.8	-31.5	12.8	3.88e-03	0	44	0	1951399936	17	4900
2026-01-19 23:22:04.25	160.21	10.47	-28.9	-31.7	12.7	9.99e-05	0	44	0	1954545664	17	4979
2026-01-19 23:22:05.25	160.29	10.39	-29.0	-31.9	12.6	3.81e-03	0	44	0	1957691392	17	5035
2026-01-19 23:22:06.25	160.38	10.32	-29.1	-31.6	12.4	3.66e-03	0	44	0	1960837120	18	4832
2026-01-19 23:22:07.26	160.46	10.24	-29.2	-32.0	12.2	2.08e-04	0	44	0	1963982848	18	4948
2026-01-19 23:22:08.26	160.55	10.16	-29.2	-31.9	12.2	3.78e-03	0	44	0	1967128576	18	4939
2026-01-19 23:22:09.26	160.63	10.08	-29.3	-32.3	12.0	2.98e-04	0	45	0	1970274304	18	5082
2026-01-19 23:22:10.27	160.71	10.00	-29.3	-32.3	12.0	2.49e-04	0	44	0	1973420032	18	5068
2026-01-19 23:22:11.27	160.80	9.92	-29.4	-32.4	11.9	4.65e-03	0	44	0	1976565760	18	5122
2026-01-19 23:22:12.28	160.88	9.85	-29.3	-32.3	12.0	4.40e-03	0	44	0	1979711488	18	5083
2026-01-19 23:22:13.28	160.96	9.77	-29.4	-32.7	11.7	4.77e-04	0	44	0	1982857216	18	5243
2026-01-19 23:22:14.29	161.04	9.69	-29.5	-32.5	11.5	8.17e-04	0	44	0	1986002944	19	5039
2026-01-19 23:22:15.30	161.12	9.61	-29.6	-32.8	11.2	1.55e-03	0	44	0	1989148672	19	5182
2026-01-19 23:22:16.30	161.20	9.54	-29.5	-32.4	11.5	8.59e-04	0	44	0	1992294400	19	5044
2026-01-19 23:22:17.30	161.28	9.46	-29.6	-32.6	11.3	5.15e-03	0	44	0	1995440128	19	5106
2026-01-19 23:22:18.31	161.36	9.38	-29.4	-32.8	11.5	7.74e-04	0	44	0	1998585856	18	5307
2026-01-19 23:22:19.31	161.44	9.31	-29.4	-32.7	11.6	6.21e-04	0	44	0	2001731584	18	5261
2026-01-19 23:22:20.31	161.52	9.23	-29.5	-32.4	11.5	9.60e-04	0	44	0	2004877312	19	5032
2026-01-19 23:22:21.31	161.60	9.16	-29.4	-32.5	11.7	4.80e-03	0	44	0	2008023040	18	5182
2026-01-19 23:22:22.31	161.68	9.08	-29.5	-32.3	11.5	1.15e-03	0	44	0	2011168768	19	4992
2026-01-19 23:22:23.31	161.76	9.01	-29.4	-32.2	11.6	7.78e-04	0	44	0	2014314496	19	4939
2026-01-19 23:22:24.31	161.83	8.93	-29.3	-32.3	11.9	3.36e-04	0	44	0	2017460224	18	5080
2026-01-19 23:22:25.31	161.91	8.86	-29.5	-32.3	11.5	8.13e-04	0	44	0	2020605952	19	4984
2026-01-19 23:22:26.31	161.99	8.78	-29.3	-32.3	11.9	4.05e-04	0	44	0	2023751680	18	5061
2026-01-19 23:22:27.32	162.06	8.71	-29.2	-32.1	12.0	4.59e-03	0	44	0	2026897408	18	4990
2026-01-19 23:22:28.32	162.14	8.63	-29.2	-32.0	12.1	2.82e-04	0	44	0	2030043136	18	4969
2026-01-19 23:22:29.33	162.21	8.56	-29.3	-32.2	12.0	3.01e-04	0	44	0	2033188864	18	5015
2026-01-19 23:22:30.33	162.29	8.48	-29.2	-32.0	12.1	4.07e-04	0	44	0	2036334592	18	4958
2026-01-19 23:22:31.33	162.36	8.41	-29.3	-32.2	11.9	3.32e-04	0	44	0	2039480320	18	5032
2026-01-19 23:22:32.34	162.44	8.33	-29.2	-32.0	12.0	2.72e-04	0	44	0	2042626048	18	4975
2026-01-19 23:22:33.34	162.51	8.26	-29.2	-32.1	12.0	3.35e-04	0	44	0	2045771776	18	5006
2026-01-19 23:22:34.34	162.59	8.19	-29.2	-31.9	12.1	3.24e-04	0	44	0	2048917504	18	4942
2026-01-19 23:22:35.35	162.66	8.11	-29.1	-31.9	12.1	2.75e-04	0	44	0	2052063232	18	4937
2026-01-19 23:22:36.34	162.73	8.04	-29.2	-32.1	11.9	4.10e-04	0	44	0	2055208960	18	5021
2026-01-19 23:22:37.35	162.81	7.97	-29.2	-32.1	11.9	2.89e-04	0	44	0	2058354688	18	5024
2026-01-19 23:22:38.35	162.88	7.89	-29.2	-32.1	11.9	3.78e-04	0	44	0	2061500416	18	5019
2026-01-19 23:22:39.35	162.95	7.82	-29.2	-32.1	11.9	5.74e-04	0	44	0	2064646144	18	5026
2026-01-19 23:22:40.36	163.02	7.75	-29.2	-32.1	11.9	3.07e-04	0	44	0	2067791872	18	5037
2026-01-19 23:22:41.36	163.09	7.68	-29.2	-32.2	11.8	4.59e-04	0	44	0	2070937600	18	5064
2026-01-19 23:22:42.36	163.16	7.60	-29.2	-32.1	11.8	5.12e-04	0	44	0	2073034752	18	5054
2026-01-19 23:22:43.36	163.23	7.53	-29.1	-32.1	11.8	3.32e-04	0	44	0	2076180480	18	5038
2026-01-19 23:22:44.37	163.30	7.46	-29.1	-32.1	11.8	8.71e-04	0	44	0	2079326208	18	5043
2026-01-19 23:22:45.38	163.38	7.39	-29.2	-32.3	11.7	4.88e-04	0	44	0	2083520512	18	5134
2026-01-19 23:22:46.37	163.44	7.32	-29.3	-32.6	11.4	7.25e-04	0	44	0	2086666240	18	5262
2026-01-19 23:22:47.37	163.51	7.25	-29.3	-32.6	11.5	7.65e-04	0	44	0	2089811968	18	5237
2026-01-19 23:22:48.39	163.58	7.17	-29.3	-32.6	11.4	9.21e-04	0	44	0	2092957696	18	5249
2026-01-19 23:22:49.39	163.65	7.10	-32.2	-40.1	5.1	2.05e-02	0	44	0	2095054848	24	8975
2026-01-19 23:22:50.40	163.72	7.03	-32.3	-44.7	3.8	1.49e+00	0	44	104	2096103424	25	15093
2026-01-19 23:22:51.40	163.79	6.96	-33.4	-45.3	3.8	1.49e+00	0	45	104	2096103424	27	14247
2026-01-19 23:22:52.40	163.86	6.89	-33.9	-46.3	3.8	1.49e+00	0	44	104	2096103424	27	14944

#Closed at: 2026-01-19 23:22:53
#Recorded file [2096 MB]: D:/data/31010_260120_021138.dat