passes_logs/2026/01/18/PlanumMoscow/PlanumMoscow__20260118_180705_METOP-B_rec.log

#Pass ID: 20260118_180705_METOP-B
#Satellite: METOP-B
#Configuration: METOP-B
#Start time: 2026-01-18 18:07:10.973652

#LorettStation: 1.0.0 05.05.2024
#Station: PlanumMoscow
#Location: 37.6253844 lon 55.6713361 lat
#TLE: 1 38771U 12049A   25293.92766658  .00000266  00000+0  14193-3 0  9996
#TLE: 2 38771  98.6882 344.7603 0001609 341.5209  18.5909 14.21379342679275

#Time	Az	El	Level	SNR
2026-01-18 18:10:49.463244	196.0	27.6	-62.3	3.8
2026-01-18 18:10:50.582497	196.2	27.8	-62.3	4.7
2026-01-18 18:10:51.704767	196.4	28.0	-62.7	6.0
2026-01-18 18:10:52.822027	196.6	28.1	-62.7	6.2
2026-01-18 18:10:53.941822	196.7	28.3	-62.4	5.1
2026-01-18 18:10:55.060579	196.9	28.5	-62.2	3.3
2026-01-18 18:10:56.178344	197.1	28.7	-62.2	5.9
2026-01-18 18:10:57.299139	197.3	28.9	-62.4	5.5
2026-01-18 18:10:58.419392	197.5	29.0	-61.5	1.9
2026-01-18 18:10:59.539187	197.6	29.2	-62.4	5.5
2026-01-18 18:11:00.659945	197.8	29.4	-62.7	4.8
2026-01-18 18:11:01.780710	198.0	29.6	-62.3	5.4
2026-01-18 18:11:02.905506	198.2	29.8	-62.0	4.8
2026-01-18 18:11:04.025759	198.4	30.0	-61.8	4.8
2026-01-18 18:11:05.145012	198.6	30.1	-62.1	4.1
2026-01-18 18:11:06.265265	198.8	30.3	-61.6	3.9
2026-01-18 18:11:07.385518	199.0	30.5	-62.6	4.9
2026-01-18 18:11:08.505275	199.2	30.7	-62.6	3.3
2026-01-18 18:11:09.626033	199.4	30.9	-63.2	4.0
2026-01-18 18:11:10.745790	199.6	31.1	-62.7	3.8
2026-01-18 18:11:11.866548	199.8	31.3	-62.4	3.8
2026-01-18 18:11:12.984809	200.0	31.5	-63.1	3.2
2026-01-18 18:11:14.106073	200.2	31.7	-63.6	2.3
2026-01-18 18:11:15.227335	200.5	31.9	-62.9	2.3
2026-01-18 18:11:16.348588	200.7	32.1	-63.4	2.8
2026-01-18 18:11:17.469841	200.9	32.3	-62.7	3.2
2026-01-18 18:11:18.590599	201.1	32.5	-61.7	2.3
2026-01-18 18:11:19.708870	201.4	32.7	-62.2	3.7
2026-01-18 18:11:20.828141	201.6	32.9	-62.6	0.9
2026-01-18 18:11:21.948899	201.8	33.1	-62.5	3.5
2026-01-18 18:11:23.068656	202.1	33.3	-62.2	4.1
2026-01-18 18:11:24.189413	202.3	33.5	-62.0	3.8
2026-01-18 18:11:25.309676	202.5	33.7	-62.2	1.9
2026-01-18 18:11:26.428928	202.8	33.9	-60.9	1.8
2026-01-18 18:11:27.551191	203.0	34.1	-62.4	4.5
2026-01-18 18:11:28.672444	203.3	34.3	-61.4	0.0
2026-01-18 18:11:29.794697	203.5	34.5	-62.8	3.9
2026-01-18 18:11:30.914454	203.8	34.7	-62.9	2.7
2026-01-18 18:11:32.037212	204.1	34.9	-62.6	3.1
2026-01-18 18:11:33.158987	204.3	35.1	-62.4	4.0
2026-01-18 18:11:34.278247	204.6	35.3	-62.4	4.5
2026-01-18 18:11:35.399005	204.9	35.5	-62.5	4.5
2026-01-18 18:11:36.518771	205.1	35.7	-62.0	3.3
2026-01-18 18:11:37.640033	205.4	36.0	-62.7	3.9
2026-01-18 18:11:38.761286	205.7	36.2	-63.5	5.0
2026-01-18 18:11:39.882044	206.0	36.4	-63.1	2.2
2026-01-18 18:11:41.002305	206.3	36.6	-63.7	4.5
2026-01-18 18:11:42.122558	206.6	36.8	-63.0	4.4
2026-01-18 18:11:43.244812	206.9	37.0	-63.5	4.2
2026-01-18 18:11:44.366570	207.2	37.2	-63.1	2.3
2026-01-18 18:11:45.488328	207.5	37.4	-62.8	3.3
2026-01-18 18:11:46.610582	207.8	37.7	-62.6	3.3
2026-01-18 18:11:47.730851	208.1	37.9	-62.6	2.8
2026-01-18 18:11:48.851608	208.4	38.1	-62.7	3.9
2026-01-18 18:11:49.972878	208.7	38.3	-63.2	4.7
2026-01-18 18:11:51.093145	209.1	38.5	-63.1	3.2
2026-01-18 18:11:52.214903	209.4	38.7	-62.8	2.4
2026-01-18 18:11:53.335156	209.7	39.0	-62.7	4.0
2026-01-18 18:11:54.454913	210.1	39.2	-62.9	5.5
2026-01-18 18:11:55.576177	210.4	39.4	-62.6	4.0
2026-01-18 18:11:56.697440	210.7	39.6	-63.4	3.9
2026-01-18 18:11:57.819197	211.1	39.8	-63.1	4.9
2026-01-18 18:11:58.944460	211.5	40.1	-63.5	2.7
2026-01-18 18:12:00.067723	211.8	40.3	-62.4	1.3
2026-01-18 18:12:01.189977	212.2	40.5	-61.4	1.9
2026-01-18 18:12:02.313230	212.6	40.7	-62.2	2.4
2026-01-18 18:12:03.434989	212.9	40.9	-62.8	3.5
2026-01-18 18:12:04.556746	213.3	41.2	-62.9	1.4
2026-01-18 18:12:05.677504	213.7	41.4	-62.5	1.4
2026-01-18 18:12:06.797766	214.1	41.6	-62.8	2.0
2026-01-18 18:12:07.920029	214.5	41.8	-62.2	1.5
2026-01-18 18:12:09.043282	214.9	42.0	-61.7	0.0
2026-01-18 18:12:10.166040	215.3	42.3	-62.0	0.5
2026-01-18 18:12:11.288306	215.7	42.5	-61.7	0.0
2026-01-18 18:12:12.411064	216.1	42.7	-62.8	0.0
2026-01-18 18:12:13.532822	216.6	42.9	-62.6	0.0
2026-01-18 18:12:14.655581	217.0	43.1	-62.3	0.0
2026-01-18 18:12:15.777339	217.4	43.3	-61.6	0.0
2026-01-18 18:12:16.899592	217.9	43.6	-60.7	0.0
2026-01-18 18:12:18.020846	218.3	43.8	-62.0	0.0
2026-01-18 18:12:19.139603	218.8	44.0	-62.4	0.8
2026-01-18 18:12:20.261361	219.2	44.2	-62.1	0.0
2026-01-18 18:12:21.382623	219.7	44.4	-62.0	0.3
2026-01-18 18:12:22.503390	220.2	44.6	-61.8	0.0
2026-01-18 18:12:23.624156	220.6	44.8	-61.4	0.0
2026-01-18 18:12:24.745418	221.1	45.0	-62.5	0.0
2026-01-18 18:12:25.867176	221.6	45.3	-62.0	0.0
2026-01-18 18:12:26.988438	222.1	45.5	-62.3	0.0
2026-01-18 18:12:28.108196	222.6	45.7	-62.1	0.0
2026-01-18 18:12:29.229458	223.1	45.9	-62.1	0.0
2026-01-18 18:12:30.351216	223.6	46.1	-62.5	0.0
2026-01-18 18:12:31.473470	224.2	46.3	-61.7	0.0
2026-01-18 18:12:32.594732	224.7	46.5	-62.3	0.0
2026-01-18 18:12:33.716985	225.2	46.7	-62.0	0.0
2026-01-18 18:12:34.839743	225.8	46.9	-62.0	0.0
2026-01-18 18:12:35.961500	226.3	47.1	-62.7	0.0
2026-01-18 18:12:37.082258	226.9	47.3	-61.8	0.0
2026-01-18 18:12:38.203511	227.5	47.5	-62.0	0.0
2026-01-18 18:12:39.325269	228.0	47.6	-62.7	0.0
2026-01-18 18:12:40.451531	228.6	47.8	-62.6	0.0
2026-01-18 18:12:41.571802	229.2	48.0	-62.1	0.0
2026-01-18 18:12:42.692071	229.8	48.2	-62.4	0.0
2026-01-18 18:12:43.813333	230.4	48.4	-61.7	0.0
2026-01-18 18:12:44.935586	231.0	48.6	-62.7	0.0
2026-01-18 18:12:46.057839	231.6	48.7	-62.6	0.0
2026-01-18 18:12:47.178597	232.2	48.9	-62.3	0.0
2026-01-18 18:12:48.298867	232.8	49.1	-62.9	0.0
2026-01-18 18:12:49.420626	233.5	49.2	-62.8	0.0
2026-01-18 18:12:50.540888	234.1	49.4	-62.3	0.0
2026-01-18 18:12:51.661656	234.8	49.6	-63.3	0.0
2026-01-18 18:12:52.782421	235.4	49.7	-62.3	0.0
2026-01-18 18:12:53.904674	236.1	49.9	-63.7	0.0
2026-01-18 18:12:55.026432	236.7	50.0	-62.2	0.0
2026-01-18 18:12:56.145694	237.4	50.2	-62.6	0.0
2026-01-18 18:12:57.267452	238.1	50.3	-62.6	0.0
2026-01-18 18:12:58.389706	238.8	50.4	-62.6	0.0
2026-01-18 18:12:59.511463	239.5	50.6	-62.1	0.0
2026-01-18 18:13:00.633717	240.2	50.7	-63.3	0.2
2026-01-18 18:13:01.754978	240.9	50.8	-62.7	0.0
2026-01-18 18:13:02.876736	241.6	50.9	-63.4	0.0
2026-01-18 18:13:03.998989	242.3	51.1	-63.3	0.0
2026-01-18 18:13:05.120746	243.0	51.2	-62.8	0.0
2026-01-18 18:13:06.241009	243.7	51.3	-63.3	0.0
2026-01-18 18:13:07.363262	244.5	51.4	-62.6	0.0
2026-01-18 18:13:08.485020	245.2	51.5	-62.9	0.2
2026-01-18 18:13:09.606778	245.9	51.6	-61.9	0.0
2026-01-18 18:13:10.728039	246.7	51.7	-62.5	0.0
2026-01-18 18:13:11.849302	247.4	51.8	-63.9	0.4
2026-01-18 18:13:12.967555	248.2	51.8	-63.2	0.0
2026-01-18 18:13:14.087312	248.9	51.9	-62.7	0.0
2026-01-18 18:13:15.208070	249.7	52.0	-63.6	0.3
2026-01-18 18:13:16.326835	250.4	52.0	-63.7	0.0
2026-01-18 18:13:17.447593	251.2	52.1	-62.5	0.0
2026-01-18 18:13:18.566846	252.0	52.2	-62.7	0.0
2026-01-18 18:13:19.687603	252.8	52.2	-63.2	0.0
2026-01-18 18:13:20.809361	253.5	52.3	-64.0	0.0
2026-01-18 18:13:21.929614	254.3	52.3	-63.2	0.5
2026-01-18 18:13:23.051371	255.1	52.3	-63.3	1.3
2026-01-18 18:13:24.171624	255.9	52.4	-63.9	0.0
2026-01-18 18:13:25.292381	256.6	52.4	-63.7	0.0
2026-01-18 18:13:26.412634	257.4	52.4	-64.8	0.0
2026-01-18 18:13:27.533887	258.2	52.4	-63.8	1.1
2026-01-18 18:13:28.651644	259.0	52.4	-64.0	0.5
2026-01-18 18:13:29.773898	259.8	52.4	-64.3	1.5
2026-01-18 18:13:30.896160	260.6	52.4	-63.9	1.9
2026-01-18 18:13:32.015413	261.3	52.4	-64.0	1.3
2026-01-18 18:13:33.137171	262.1	52.4	-64.2	2.2
2026-01-18 18:13:34.260434	262.9	52.4	-63.6	2.5
2026-01-18 18:13:35.386688	263.7	52.3	-65.1	1.6
2026-01-18 18:13:36.508446	264.5	52.3	-65.2	3.1
2026-01-18 18:13:37.630204	265.2	52.3	-64.9	0.5
2026-01-18 18:13:38.751466	266.0	52.2	-65.6	3.3
2026-01-18 18:13:39.874224	266.8	52.2	-65.6	3.5
2026-01-18 18:13:40.995495	267.6	52.1	-65.7	2.0
2026-01-18 18:13:42.119253	268.3	52.1	-65.5	2.4
2026-01-18 18:13:43.241011	269.1	52.0	-64.3	1.5
2026-01-18 18:13:44.363274	269.9	52.0	-65.0	0.0
2026-01-18 18:13:45.485527	270.6	51.9	-66.1	2.0
2026-01-18 18:13:46.607285	271.4	51.8	-65.2	0.2
2026-01-18 18:13:47.728538	272.1	51.7	-66.1	2.1
2026-01-18 18:13:48.846798	272.9	51.6	-66.2	1.2
2026-01-18 18:13:49.965555	273.6	51.5	-66.0	2.3
2026-01-18 18:13:51.086313	274.3	51.4	-66.6	1.9
2026-01-18 18:13:52.204575	275.1	51.3	-65.7	3.3
2026-01-18 18:13:53.323828	275.8	51.2	-66.3	2.5
2026-01-18 18:13:54.443585	276.5	51.1	-66.3	1.9
2026-01-18 18:13:55.563855	277.2	51.0	-65.9	2.0
2026-01-18 18:13:56.686108	277.9	50.9	-66.5	2.5
2026-01-18 18:13:57.809362	278.7	50.8	-65.7	1.4
2026-01-18 18:13:58.931120	279.3	50.6	-65.7	1.4
2026-01-18 18:14:00.052878	280.0	50.5	-66.4	2.3
2026-01-18 18:14:01.174645	280.7	50.4	-66.6	2.5
2026-01-18 18:14:02.296898	281.4	50.2	-66.5	2.6
2026-01-18 18:14:03.419152	282.1	50.1	-66.5	2.2
2026-01-18 18:14:04.540910	282.8	50.0	-65.8	0.0
2026-01-18 18:14:05.662163	283.4	49.8	-65.6	0.8
2026-01-18 18:14:06.783920	284.1	49.7	-65.4	0.5
2026-01-18 18:14:07.905678	284.7	49.5	-66.3	1.5
2026-01-18 18:14:09.027436	285.4	49.3	-66.0	2.1
2026-01-18 18:14:10.147194	286.0	49.2	-65.4	0.5
2026-01-18 18:14:11.267952	286.6	49.0	-64.7	2.0
2026-01-18 18:14:12.388205	287.2	48.8	-65.9	2.0
2026-01-18 18:14:13.510458	287.9	48.7	-65.0	0.6
2026-01-18 18:14:14.631711	288.5	48.5	-65.5	0.4
2026-01-18 18:14:15.753470	289.1	48.3	-65.7	1.5
2026-01-18 18:14:16.873747	289.7	48.1	-65.8	1.8
2026-01-18 18:14:17.999008	290.3	48.0	-65.5	2.0
2026-01-18 18:14:19.120269	290.8	47.8	-65.7	1.5
2026-01-18 18:14:20.241035	291.4	47.6	-65.9	2.4
2026-01-18 18:14:21.363289	292.0	47.4	-65.6	2.2
2026-01-18 18:14:22.482046	292.5	47.2	-65.9	1.9
2026-01-18 18:14:23.603803	293.1	47.0	-66.2	2.1
2026-01-18 18:14:24.725065	293.6	46.8	-66.0	2.0
2026-01-18 18:14:25.846318	294.2	46.6	-65.6	2.2
2026-01-18 18:14:26.968581	294.7	46.4	-65.1	1.8
2026-01-18 18:14:28.089843	295.2	46.2	-65.6	2.3
2026-01-18 18:14:29.209096	295.8	46.0	-65.1	1.9
2026-01-18 18:14:30.329861	296.3	45.8	-65.4	1.9
2026-01-18 18:14:31.451618	296.8	45.6	-65.4	2.7
2026-01-18 18:14:32.571871	297.3	45.4	-65.5	2.4
2026-01-18 18:14:33.691628	297.8	45.2	-65.4	2.2
2026-01-18 18:14:34.812881	298.3	45.0	-64.7	2.2
2026-01-18 18:14:35.933134	298.7	44.8	-65.1	3.3
2026-01-18 18:14:37.050386	299.2	44.6	-65.8	3.1
2026-01-18 18:14:38.169144	299.7	44.4	-65.5	2.8
2026-01-18 18:14:39.289406	300.1	44.1	-65.6	1.9
2026-01-18 18:14:40.409163	300.6	43.9	-65.0	3.0
2026-01-18 18:14:41.529416	301.0	43.7	-65.6	3.2
2026-01-18 18:14:42.648677	301.5	43.5	-65.3	3.3
2026-01-18 18:14:43.766938	301.9	43.3	-65.4	2.4
2026-01-18 18:14:44.883695	302.4	43.1	-65.5	3.3
2026-01-18 18:14:46.005453	302.8	42.9	-65.7	3.6
2026-01-18 18:14:47.121714	303.2	42.6	-64.8	2.9
2026-01-18 18:14:48.240975	303.6	42.4	-64.8	3.7
2026-01-18 18:14:49.359740	304.0	42.2	-65.0	4.5
2026-01-18 18:14:50.479498	304.4	42.0	-64.8	4.7
2026-01-18 18:14:51.600759	304.8	41.8	-64.5	3.8
2026-01-18 18:14:52.718011	305.2	41.6	-64.4	4.0
2026-01-18 18:14:53.837273	305.6	41.3	-65.1	4.2
2026-01-18 18:14:54.954029	306.0	41.1	-64.9	4.2
2026-01-18 18:14:56.074282	306.4	40.9	-65.0	4.1
2026-01-18 18:14:57.191542	306.7	40.7	-65.0	4.0
2026-01-18 18:14:58.309300	307.1	40.5	-64.4	4.4
2026-01-18 18:14:59.428553	307.5	40.3	-64.8	4.1
2026-01-18 18:15:00.550815	307.8	40.0	-65.0	4.0
2026-01-18 18:15:01.666572	308.2	39.8	-65.2	4.5
2026-01-18 18:15:02.788825	308.5	39.6	-64.3	3.9
2026-01-18 18:15:03.911078	308.9	39.4	-65.2	4.7
2026-01-18 18:15:05.037333	309.2	39.2	-63.9	4.0
2026-01-18 18:15:06.159586	309.6	38.9	-64.6	5.2
2026-01-18 18:15:07.280849	309.9	38.7	-63.8	4.1
2026-01-18 18:15:08.402608	310.2	38.5	-65.2	5.0
2026-01-18 18:15:09.523870	310.5	38.3	-64.5	4.7
2026-01-18 18:15:10.645132	310.9	38.1	-64.7	5.4
2026-01-18 18:15:11.767890	311.2	37.9	-64.8	5.0
2026-01-18 18:15:12.890143	311.5	37.7	-64.9	5.2
2026-01-18 18:15:14.011408	311.8	37.4	-64.8	5.2
2026-01-18 18:15:15.133661	312.1	37.2	-64.3	5.0
2026-01-18 18:15:16.255915	312.4	37.0	-64.4	5.2
2026-01-18 18:15:17.378177	312.7	36.8	-64.1	4.6
2026-01-18 18:15:18.500430	313.0	36.6	-63.3	4.4
2026-01-18 18:15:19.622684	313.3	36.4	-63.5	4.3
2026-01-18 18:15:20.744937	313.6	36.2	-63.8	4.7
2026-01-18 18:15:21.868696	313.8	36.0	-63.7	5.1
2026-01-18 18:15:22.988966	314.1	35.7	-63.5	4.1
2026-01-18 18:15:24.111724	314.4	35.5	-63.9	4.8
2026-01-18 18:15:25.233482	314.7	35.3	-63.5	5.0
2026-01-18 18:15:26.362241	314.9	35.1	-63.6	4.8
2026-01-18 18:15:27.484009	315.2	34.9	-63.7	3.9
2026-01-18 18:15:28.605767	315.5	34.7	-63.7	4.5
2026-01-18 18:15:29.727029	315.7	34.5	-63.7	4.8
2026-01-18 18:15:30.848786	316.0	34.3	-63.4	4.1
2026-01-18 18:15:31.970049	316.2	34.1	-64.0	4.2
2026-01-18 18:15:33.091311	316.5	33.9	-64.7	4.7
2026-01-18 18:15:34.213580	316.7	33.7	-64.1	4.7
2026-01-18 18:15:35.334841	316.9	33.5	-64.4	4.3
2026-01-18 18:15:36.456102	317.2	33.3	-64.3	4.3
2026-01-18 18:15:37.577860	317.4	33.1	-63.8	5.4
2026-01-18 18:15:38.700113	317.7	32.9	-64.2	4.4
2026-01-18 18:15:39.821871	317.9	32.7	-64.4	4.4
2026-01-18 18:15:40.944125	318.1	32.5	-63.2	3.4
2026-01-18 18:15:42.066387	318.3	32.3	-64.1	4.7
2026-01-18 18:15:43.188641	318.6	32.1	-64.4	4.7
2026-01-18 18:15:44.309903	318.8	31.9	-64.3	4.7
2026-01-18 18:15:45.432157	319.0	31.7	-64.2	4.8
2026-01-18 18:15:46.554410	319.2	31.5	-64.2	3.9
2026-01-18 18:15:47.676168	319.4	31.3	-63.9	4.9
2026-01-18 18:15:48.797925	319.6	31.1	-63.9	4.5
2026-01-18 18:15:49.919683	319.8	30.9	-64.3	5.3
2026-01-18 18:15:51.041946	320.0	30.7	-63.9	4.0
2026-01-18 18:15:52.164199	320.2	30.6	-64.5	4.5
2026-01-18 18:15:53.284965	320.4	30.4	-64.0	5.0
2026-01-18 18:15:54.407219	320.6	30.2	-64.2	5.0
2026-01-18 18:15:55.528976	320.8	30.0	-63.9	4.7
2026-01-18 18:15:56.650734	321.0	29.8	-64.4	4.7
2026-01-18 18:15:57.772491	321.2	29.6	-63.9	4.4
2026-01-18 18:15:58.892762	321.4	29.4	-64.4	5.0
2026-01-18 18:16:00.015016	321.6	29.3	-64.5	5.0
2026-01-18 18:16:01.136278	321.8	29.1	-64.7	5.2
2026-01-18 18:16:02.256549	322.0	28.9	-64.4	5.5
2026-01-18 18:16:03.378306	322.1	28.7	-64.2	5.4
2026-01-18 18:16:04.500064	322.3	28.5	-64.4	5.3
2026-01-18 18:16:05.622822	322.5	28.4	-64.5	5.8
2026-01-18 18:16:06.744580	322.7	28.2	-64.0	4.8
2026-01-18 18:16:07.866338	322.9	28.0	-64.0	5.5
2026-01-18 18:16:08.988095	323.0	27.8	-64.2	5.5
2026-01-18 18:16:10.109853	323.2	27.7	-64.5	5.6
2026-01-18 18:16:11.232107	323.4	27.5	-64.3	5.0
2026-01-18 18:16:12.353865	323.5	27.3	-64.0	4.9
2026-01-18 18:16:13.475622	323.7	27.1	-64.4	6.0
2026-01-18 18:16:14.597380	323.9	27.0	-64.2	5.6
2026-01-18 18:16:15.721138	324.0	26.8	-64.5	6.0
2026-01-18 18:16:16.842400	324.2	26.6	-64.2	5.6
2026-01-18 18:16:17.946694	324.3	26.5	-64.0	5.7
2026-01-18 18:16:19.069452	324.5	26.3	-64.6	5.9
2026-01-18 18:16:20.190715	324.6	26.1	-65.1	7.4
2026-01-18 18:16:21.311481	324.8	26.0	-64.9	6.8
2026-01-18 18:16:22.432248	324.9	25.8	-64.8	6.9
2026-01-18 18:16:23.553519	325.1	25.6	-64.6	7.1
2026-01-18 18:16:24.675277	325.2	25.5	-64.5	6.2
2026-01-18 18:16:25.795547	325.4	25.3	-65.0	6.7
2026-01-18 18:16:26.916809	325.5	25.1	-64.4	6.6
2026-01-18 18:16:28.038071	325.7	25.0	-64.6	6.8
2026-01-18 18:16:29.159333	325.8	24.8	-64.4	5.5
2026-01-18 18:16:30.281587	326.0	24.7	-64.8	6.5
2026-01-18 18:16:31.402850	326.1	24.5	-64.5	6.1
2026-01-18 18:16:32.526111	326.2	24.3	-64.3	5.9
2026-01-18 18:16:33.646877	326.4	24.2	-64.7	6.8
2026-01-18 18:16:34.770131	326.5	24.0	-64.5	6.2
2026-01-18 18:16:35.891392	326.6	23.9	-64.9	6.8
2026-01-18 18:16:37.013150	326.8	23.7	-65.4	7.3
2026-01-18 18:16:38.137404	326.9	23.6	-65.3	6.7
2026-01-18 18:16:39.259657	327.0	23.4	-65.0	7.1
2026-01-18 18:16:40.386416	327.2	23.2	-64.5	6.8
2026-01-18 18:16:41.511679	327.3	23.1	-64.7	6.9
2026-01-18 18:16:42.633932	327.4	22.9	-64.6	7.1
2026-01-18 18:16:43.757194	327.6	22.8	-64.5	7.1
2026-01-18 18:16:44.879448	327.7	22.6	-64.4	7.2
2026-01-18 18:16:46.001205	327.8	22.5	-64.2	6.7
2026-01-18 18:16:47.123458	327.9	22.3	-63.6	6.7
2026-01-18 18:16:48.246720	328.0	22.2	-64.0	7.4
2026-01-18 18:16:49.368973	328.2	22.0	-64.3	6.2
2026-01-18 18:16:50.490731	328.3	21.9	-64.0	5.6
2026-01-18 18:16:51.612488	328.4	21.8	-64.8	6.9
2026-01-18 18:16:52.734246	328.5	21.6	-64.9	6.5
2026-01-18 18:16:53.856004	328.6	21.5	-64.8	6.8
2026-01-18 18:16:54.978258	328.7	21.3	-64.5	7.1
2026-01-18 18:16:56.099023	328.9	21.2	-64.8	6.7
2026-01-18 18:16:57.224286	329.0	21.0	-64.6	6.6
2026-01-18 18:16:58.346540	329.1	20.9	-64.4	7.2
2026-01-18 18:16:59.467801	329.2	20.8	-64.4	7.0
2026-01-18 18:17:00.590055	329.3	20.6	-64.7	7.7
2026-01-18 18:17:01.711812	329.4	20.5	-65.3	7.7
2026-01-18 18:17:02.833571	329.5	20.3	-65.2	7.2
2026-01-18 18:17:03.955824	329.6	20.2	-64.6	7.3
2026-01-18 18:17:05.081095	329.7	20.1	-65.2	7.8
2026-01-18 18:17:06.204349	329.8	19.9	-65.1	6.8
2026-01-18 18:17:07.326106	329.9	19.8	-65.0	6.6
2026-01-18 18:17:08.447864	330.0	19.7	-64.8	6.5
2026-01-18 18:17:09.570117	330.2	19.5	-64.8	6.0
2026-01-18 18:17:10.691380	330.3	19.4	-64.9	6.4
2026-01-18 18:17:11.812642	330.4	19.3	-65.1	6.5
2026-01-18 18:17:12.938418	330.5	19.1	-65.4	6.2
2026-01-18 18:17:14.059680	330.6	19.0	-64.8	6.4
2026-01-18 18:17:15.181934	330.7	18.9	-65.1	5.5
2026-01-18 18:17:16.303196	330.8	18.7	-65.1	5.1
2026-01-18 18:17:17.423963	330.8	18.6	-65.1	6.1
2026-01-18 18:17:18.544730	330.9	18.5	-65.4	6.3
2026-01-18 18:17:19.666984	331.0	18.3	-65.3	5.4
2026-01-18 18:17:20.788246	331.1	18.2	-65.3	6.3
2026-01-18 18:17:21.910004	331.2	18.1	-65.5	6.3
2026-01-18 18:17:23.032257	331.3	18.0	-65.1	5.9
2026-01-18 18:17:24.154511	331.4	17.8	-65.1	6.1
2026-01-18 18:17:25.277269	331.5	17.7	-64.4	5.7
2026-01-18 18:17:26.399026	331.6	17.6	-64.7	5.5
2026-01-18 18:17:27.520288	331.7	17.5	-65.6	5.9
2026-01-18 18:17:28.647543	331.8	17.3	-65.6	6.0
2026-01-18 18:17:29.768805	331.9	17.2	-65.9	6.6
2026-01-18 18:17:30.891058	332.0	17.1	-65.9	6.2
2026-01-18 18:17:32.013311	332.0	17.0	-65.9	6.0
2026-01-18 18:17:33.135069	332.1	16.8	-65.1	5.9
2026-01-18 18:17:34.257323	332.2	16.7	-65.8	5.5
2026-01-18 18:17:35.380080	332.3	16.6	-64.2	4.7
2026-01-18 18:17:36.504343	332.4	16.5	-65.3	5.8
2026-01-18 18:17:37.626596	332.5	16.4	-65.1	4.1
2026-01-18 18:17:38.748354	332.5	16.2	-65.3	3.9
2026-01-18 18:17:39.870607	332.6	16.1	-65.5	4.2
2026-01-18 18:17:40.992365	332.7	16.0	-65.9	4.2
2026-01-18 18:17:42.114618	332.8	15.9	-65.5	4.2
2026-01-18 18:17:43.236376	332.9	15.8	-65.6	5.1
2026-01-18 18:17:44.357141	333.0	15.7	-65.3	4.5
2026-01-18 18:17:45.479395	333.0	15.5	-65.7	4.7
2026-01-18 18:17:46.601152	333.1	15.4	-65.6	4.5
2026-01-18 18:17:47.723414	333.2	15.3	-65.1	3.0
2026-01-18 18:17:48.844180	333.3	15.2	-65.9	3.7
2026-01-18 18:17:49.965939	333.4	15.1	-65.5	4.0
2026-01-18 18:17:51.088192	333.4	15.0	-65.5	4.2
2026-01-18 18:17:52.209453	333.5	14.9	-65.8	4.8
2026-01-18 18:17:53.336708	333.6	14.7	-65.8	4.2
2026-01-18 18:17:54.458962	333.7	14.6	-65.8	3.2
2026-01-18 18:17:55.580720	333.7	14.5	-65.9	3.8
2026-01-18 18:17:56.702995	333.8	14.4	-65.7	4.3
2026-01-18 18:17:57.825258	333.9	14.3	-64.7	3.7
2026-01-18 18:17:58.947023	334.0	14.2	-65.6	2.4
2026-01-18 18:18:00.068286	334.0	14.1	-65.9	3.7
2026-01-18 18:18:01.195541	334.1	14.0	-65.4	3.7
2026-01-18 18:18:02.317299	334.2	13.9	-65.7	3.1
2026-01-18 18:18:03.439057	334.2	13.8	-65.4	2.2
2026-01-18 18:18:04.564311	334.3	13.6	-65.6	3.6
2026-01-18 18:18:05.685573	334.4	13.5	-64.9	3.4
2026-01-18 18:18:06.807331	334.5	13.4	-65.5	2.8
2026-01-18 18:18:07.928593	334.5	13.3	-64.7	1.6
2026-01-18 18:18:09.048368	334.6	13.2	-65.9	2.8
2026-01-18 18:18:10.170621	334.7	13.1	-65.8	2.9
2026-01-18 18:18:11.292874	334.7	13.0	-65.6	2.4
2026-01-18 18:18:12.415632	334.8	12.9	-65.3	2.5
2026-01-18 18:18:13.537885	334.9	12.8	-65.3	3.2
2026-01-18 18:18:14.661139	334.9	12.7	-64.9	3.1
2026-01-18 18:18:15.783392	335.0	12.6	-65.3	2.8
2026-01-18 18:18:16.907150	335.1	12.5	-65.8	2.9
2026-01-18 18:18:18.029404	335.1	12.4	-65.7	2.6
2026-01-18 18:18:19.151657	335.2	12.3	-65.1	2.5
2026-01-18 18:18:20.274911	335.3	12.2	-65.7	2.6
2026-01-18 18:18:21.397164	335.3	12.1	-65.6	2.5
2026-01-18 18:18:22.519418	335.4	12.0	-65.4	3.2
2026-01-18 18:18:23.641671	335.4	11.9	-65.6	1.5
2026-01-18 18:18:24.763924	335.5	11.8	-65.6	2.4
2026-01-18 18:18:25.886178	335.6	11.7	-65.5	2.2
2026-01-18 18:18:27.008431	335.6	11.6	-65.2	1.3
2026-01-18 18:18:28.130685	335.7	11.5	-65.3	2.1
2026-01-18 18:18:29.252938	335.8	11.4	-65.2	1.6
2026-01-18 18:18:30.375192	335.8	11.3	-65.2	2.5
2026-01-18 18:18:31.497445	335.9	11.2	-65.9	2.4
2026-01-18 18:18:32.619699	335.9	11.1	-65.4	2.5
2026-01-18 18:18:33.747458	336.0	11.0	-65.2	3.1
2026-01-18 18:18:34.869711	336.1	10.9	-65.5	3.0
2026-01-18 18:18:35.991965	336.1	10.8	-65.9	3.4
2026-01-18 18:18:37.113723	336.2	10.7	-65.7	2.6
2026-01-18 18:18:38.235976	336.2	10.6	-65.3	3.4
2026-01-18 18:18:39.358229	336.3	10.5	-65.8	3.0
2026-01-18 18:18:40.479987	336.4	10.4	-65.9	3.0
2026-01-18 18:18:41.603241	336.4	10.3	-64.7	1.9
2026-01-18 18:18:42.725494	336.5	10.2	-65.1	2.7
2026-01-18 18:18:43.847748	336.5	10.1	-64.8	1.7
2026-01-18 18:18:44.970002	336.6	10.0	-65.2	3.2
2026-01-18 18:18:46.091759	336.6	9.9	-64.5	3.0
2026-01-18 18:18:47.214013	336.7	9.8	-64.7	3.6
2026-01-18 18:18:48.336266	336.7	9.8	-65.3	3.8
2026-01-18 18:18:49.458023	336.8	9.7	-65.1	3.3
2026-01-18 18:18:50.579285	336.9	9.6	-65.2	4.1
2026-01-18 18:18:51.702043	336.9	9.5	-64.9	3.6
2026-01-18 18:18:52.824296	337.0	9.4	-64.8	3.8
2026-01-18 18:18:53.946550	337.0	9.3	-64.7	4.0
2026-01-18 18:18:55.068803	337.1	9.2	-64.9	4.2
2026-01-18 18:18:56.191056	337.1	9.1	-64.9	3.2
2026-01-18 18:18:57.313310	337.2	9.0	-64.8	3.6
2026-01-18 18:18:58.438068	337.2	8.9	-63.3	3.1
2026-01-18 18:18:59.560322	337.3	8.8	-64.4	4.9
2026-01-18 18:19:00.682079	337.3	8.8	-64.7	4.6
2026-01-18 18:19:01.805333	337.4	8.7	-65.1	5.2
2026-01-18 18:19:02.927586	337.4	8.6	-64.7	5.2
2026-01-18 18:19:04.049840	337.5	8.5	-64.6	5.5
2026-01-18 18:19:05.171597	337.5	8.4	-63.9	4.9
2026-01-18 18:19:06.292860	337.6	8.3	-64.8	6.1
2026-01-18 18:19:07.414617	337.6	8.2	-64.8	6.3
2026-01-18 18:19:08.536871	337.7	8.1	-63.5	4.9
2026-01-18 18:19:09.659124	337.7	8.0	-64.4	5.4
2026-01-18 18:19:10.781378	337.8	8.0	-64.7	5.9
2026-01-18 18:19:11.903631	337.8	7.9	-64.5	5.9
2026-01-18 18:19:13.025884	337.9	7.8	-64.3	5.9
2026-01-18 18:19:14.148138	337.9	7.7	-64.0	5.0
2026-01-18 18:19:15.269896	338.0	7.6	-63.6	5.5
2026-01-18 18:19:16.392149	338.0	7.5	-62.9	3.6
2026-01-18 18:19:17.514403	338.1	7.4	-64.2	7.0
2026-01-18 18:19:18.636656	338.1	7.4	-63.7	6.4
2026-01-18 18:19:19.758909	338.2	7.3	-63.2	6.0
2026-01-18 18:19:20.881163	338.2	7.2	-63.7	6.0
2026-01-18 18:19:22.003416	338.3	7.1	-63.6	5.8
2026-01-18 18:19:23.125173	338.3	7.0	-64.0	6.7
2026-01-18 18:19:24.248427	338.4	6.9	-63.3	5.8
2026-01-18 18:19:25.370680	338.4	6.9	-62.4	6.2
2026-01-18 18:19:26.492934	338.5	6.8	-62.1	4.5
2026-01-18 18:19:27.615187	338.5	6.7	-62.2	5.1
2026-01-18 18:19:28.737441	338.6	6.6	-63.3	5.8
2026-01-18 18:19:29.859694	338.6	6.5	-63.9	6.3
2026-01-18 18:19:30.980956	338.6	6.4	-64.3	8.0
2026-01-18 18:19:32.103714	338.7	6.4	-63.7	6.4
2026-01-18 18:19:33.225967	338.7	6.3	-63.8	7.2
2026-01-18 18:19:34.354222	338.8	6.2	-62.9	6.1
2026-01-18 18:19:35.476476	338.8	6.1	-63.3	6.2
2026-01-18 18:19:36.598729	338.9	6.0	-64.6	5.4
2026-01-18 18:19:37.720983	338.9	6.0	-65.7	0.6
2026-01-18 18:19:38.842740	339.0	5.9	-67.5	8.9
2026-01-18 18:19:39.964994	339.0	5.8	-68.3	13.5
2026-01-18 18:19:41.087247	339.0	5.7	-67.5	11.4
2026-01-18 18:19:42.209501	339.1	5.6	-67.2	9.6
2026-01-18 18:19:43.331762	339.1	5.6	-68.6	6.3
2026-01-18 18:19:44.454016	339.2	5.5	-68.7	2.9
2026-01-18 18:19:45.575772	339.2	5.4	-68.0	0.0
2026-01-18 18:19:46.698026	339.3	5.3	-67.9	0.0
2026-01-18 18:19:47.823289	339.3	5.2	-68.0	0.0
2026-01-18 18:19:48.948543	339.3	5.2	-67.5	0.0
2026-01-18 18:19:50.070797	339.4	5.1	-69.1	0.0
2026-01-18 18:19:51.192554	339.4	5.0	-68.7	0.0
#Closed at: 2026-01-18 18:07:05.975957