passes_logs/2026/01/18/PlanumMoscow/PlanumMoscow__20260118_071425_METOP-C_rec.log

#Pass ID: 20260118_071425_METOP-C
#Satellite: METOP-C
#Configuration: METOP-C
#Start time: 2026-01-18 07:14:30.663315

#LorettStation: 1.0.0 05.05.2024
#Station: PlanumMoscow
#Location: 37.6253844 lon 55.6713361 lat
#TLE: 1 43689U 18087A   25293.88981035  .00000265  00000+0  14109-3 0  9997
#TLE: 2 43689  98.7006 352.4487 0002041 122.1097 238.0279 14.21482740360838

#Time	Az	El	Level	SNR
2026-01-18 07:18:09.056969	34.2	27.6	-67.0	0.0
2026-01-18 07:18:10.180230	34.4	27.8	-67.7	0.0
2026-01-18 07:18:11.300996	34.6	28.0	-67.9	0.0
2026-01-18 07:18:12.421266	34.7	28.1	-67.2	0.0
2026-01-18 07:18:13.543061	34.9	28.3	-67.3	0.0
2026-01-18 07:18:14.663825	35.0	28.5	-67.5	0.0
2026-01-18 07:18:15.786592	35.2	28.7	-67.8	0.0
2026-01-18 07:18:16.908845	35.3	28.9	-68.0	0.0
2026-01-18 07:18:18.029655	35.5	29.1	-68.2	0.0
2026-01-18 07:18:19.151909	35.7	29.3	-67.9	0.0
2026-01-18 07:18:20.272676	35.8	29.4	-67.2	0.0
2026-01-18 07:18:21.394929	36.0	29.6	-67.9	0.0
2026-01-18 07:18:22.517687	36.2	29.8	-67.6	0.0
2026-01-18 07:18:23.638995	36.3	30.0	-67.0	0.0
2026-01-18 07:18:24.761753	36.5	30.2	-67.1	0.0
2026-01-18 07:18:25.884015	36.7	30.4	-67.2	0.0
2026-01-18 07:18:27.005772	36.9	30.6	-66.4	0.0
2026-01-18 07:18:28.127588	37.0	30.8	-67.2	0.0
2026-01-18 07:18:29.249347	37.2	31.0	-67.1	0.0
2026-01-18 07:18:30.371117	37.4	31.2	-67.1	0.0
2026-01-18 07:18:31.494874	37.6	31.4	-66.9	0.0
2026-01-18 07:18:32.617631	37.8	31.6	-66.5	0.0
2026-01-18 07:18:33.738425	38.0	31.8	-67.4	0.0
2026-01-18 07:18:34.861203	38.2	32.0	-66.9	0.0
2026-01-18 07:18:35.982961	38.4	32.2	-66.7	0.0
2026-01-18 07:18:37.105223	38.6	32.4	-66.6	0.0
2026-01-18 07:18:38.226981	38.8	32.6	-67.0	0.0
2026-01-18 07:18:39.348284	39.0	32.8	-66.1	0.0
2026-01-18 07:18:40.469548	39.2	33.0	-66.8	0.0
2026-01-18 07:18:41.591313	39.4	33.2	-64.4	0.0
2026-01-18 07:18:42.713100	39.6	33.4	-65.5	0.0
2026-01-18 07:18:43.834371	39.8	33.6	-67.2	0.0
2026-01-18 07:18:44.956625	40.0	33.9	-66.9	0.0
2026-01-18 07:18:46.077892	40.2	34.1	-66.2	0.0
2026-01-18 07:18:47.199657	40.5	34.3	-65.6	0.0
2026-01-18 07:18:48.320919	40.7	34.5	-65.1	0.0
2026-01-18 07:18:49.441717	40.9	34.7	-65.8	0.0
2026-01-18 07:18:50.562483	41.1	34.9	-65.9	0.0
2026-01-18 07:18:51.684753	41.4	35.2	-65.0	0.0
2026-01-18 07:18:52.807024	41.6	35.4	-65.1	0.0
2026-01-18 07:18:53.928285	41.8	35.6	-64.0	0.0
2026-01-18 07:18:55.050080	42.1	35.8	-65.6	0.0
2026-01-18 07:18:56.172333	42.3	36.0	-65.6	0.0
2026-01-18 07:18:57.294595	42.6	36.3	-64.5	0.0
2026-01-18 07:18:58.416353	42.8	36.5	-64.7	0.0
2026-01-18 07:18:59.538110	43.1	36.7	-63.9	0.0
2026-01-18 07:19:00.659913	43.4	36.9	-64.9	0.0
2026-01-18 07:19:01.781176	43.6	37.2	-65.1	0.0
2026-01-18 07:19:02.903437	43.9	37.4	-65.3	0.0
2026-01-18 07:19:04.025722	44.2	37.6	-63.3	0.0
2026-01-18 07:19:05.147479	44.4	37.8	-63.7	0.0
2026-01-18 07:19:06.269733	44.7	38.1	-64.5	0.0
2026-01-18 07:19:07.392514	45.0	38.3	-61.8	0.0
2026-01-18 07:19:08.514281	45.3	38.5	-65.5	0.0
2026-01-18 07:19:09.641039	45.6	38.8	-65.8	0.0
2026-01-18 07:19:10.761855	45.9	39.0	-64.2	0.0
2026-01-18 07:19:11.883612	46.2	39.2	-65.5	0.0
2026-01-18 07:19:13.005378	46.5	39.5	-64.3	0.0
2026-01-18 07:19:14.127631	46.8	39.7	-63.3	0.0
2026-01-18 07:19:15.248922	47.1	39.9	-64.3	0.0
2026-01-18 07:19:16.370184	47.4	40.2	-61.7	0.0
2026-01-18 07:19:17.491454	47.7	40.4	-65.3	0.0
2026-01-18 07:19:18.612724	48.0	40.7	-64.0	0.0
2026-01-18 07:19:19.734977	48.4	40.9	-63.2	0.0
2026-01-18 07:19:20.856774	48.7	41.1	-63.2	0.0
2026-01-18 07:19:21.978037	49.1	41.4	-62.9	0.0
2026-01-18 07:19:23.100298	49.4	41.6	-62.1	0.0
2026-01-18 07:19:24.223560	49.7	41.8	-62.2	0.0
2026-01-18 07:19:25.345318	50.1	42.1	-63.0	0.0
2026-01-18 07:19:26.468098	50.5	42.3	-61.8	0.0
2026-01-18 07:19:27.589856	50.8	42.6	-63.0	0.0
2026-01-18 07:19:28.711622	51.2	42.8	-63.1	0.0
2026-01-18 07:19:29.834393	51.6	43.1	-63.5	0.0
2026-01-18 07:19:30.959712	52.0	43.3	-63.9	0.0
2026-01-18 07:19:32.081965	52.4	43.5	-62.8	0.0
2026-01-18 07:19:33.203746	52.7	43.8	-62.3	0.0
2026-01-18 07:19:34.324513	53.1	44.0	-61.8	0.0
2026-01-18 07:19:35.446270	53.6	44.3	-63.6	0.0
2026-01-18 07:19:36.568075	54.0	44.5	-61.6	0.0
2026-01-18 07:19:37.690328	54.4	44.8	-62.8	0.0
2026-01-18 07:19:38.811102	54.8	45.0	-63.9	0.0
2026-01-18 07:19:39.931867	55.2	45.2	-63.6	0.0
2026-01-18 07:19:41.053653	55.7	45.5	-64.2	0.0
2026-01-18 07:19:42.175906	56.1	45.7	-63.2	0.0
2026-01-18 07:19:43.298168	56.6	46.0	-62.7	0.0
2026-01-18 07:19:44.419430	57.0	46.2	-62.3	0.0
2026-01-18 07:19:45.541683	57.5	46.4	-64.0	0.0
2026-01-18 07:19:46.662981	58.0	46.7	-63.3	0.0
2026-01-18 07:19:47.785235	58.5	46.9	-62.9	0.0
2026-01-18 07:19:48.907488	58.9	47.2	-63.9	0.0
2026-01-18 07:19:50.029254	59.4	47.4	-64.6	0.0
2026-01-18 07:19:51.150049	59.9	47.6	-61.8	0.0
2026-01-18 07:19:52.271312	60.5	47.9	-63.1	0.0
2026-01-18 07:19:53.393070	61.0	48.1	-62.2	0.0
2026-01-18 07:19:54.519836	61.5	48.3	-62.4	0.0
2026-01-18 07:19:55.641594	62.0	48.6	-61.8	0.0
2026-01-18 07:19:56.763392	62.6	48.8	-63.2	0.0
2026-01-18 07:19:57.884653	63.1	49.0	-63.7	0.0
2026-01-18 07:19:59.006418	63.7	49.3	-63.2	0.0
2026-01-18 07:20:00.128175	64.2	49.5	-65.5	0.0
2026-01-18 07:20:01.249436	64.8	49.7	-63.4	0.0
2026-01-18 07:20:02.372232	65.4	49.9	-64.3	0.0
2026-01-18 07:20:03.494486	66.0	50.1	-63.5	0.0
2026-01-18 07:20:04.616250	66.6	50.4	-65.1	0.0
2026-01-18 07:20:05.737512	67.2	50.6	-66.3	0.0
2026-01-18 07:20:06.859270	67.8	50.8	-64.0	0.0
2026-01-18 07:20:07.981561	68.4	51.0	-65.9	0.0
2026-01-18 07:20:09.103814	69.1	51.2	-62.5	0.0
2026-01-18 07:20:10.225086	69.7	51.4	-64.4	0.0
2026-01-18 07:20:11.347356	70.4	51.6	-67.0	0.0
2026-01-18 07:20:12.468667	71.0	51.8	-63.3	0.0
2026-01-18 07:20:13.590920	71.7	52.0	-64.5	0.0
2026-01-18 07:20:14.712684	72.4	52.2	-66.3	0.0
2026-01-18 07:20:15.834442	73.1	52.4	-65.3	0.0
2026-01-18 07:20:16.955704	73.8	52.6	-66.8	0.0
2026-01-18 07:20:18.077017	74.5	52.8	-66.6	0.0
2026-01-18 07:20:19.198279	75.2	52.9	-62.1	0.0
2026-01-18 07:20:20.319068	75.9	53.1	-64.0	0.0
2026-01-18 07:20:21.440330	76.6	53.3	-65.4	0.0
2026-01-18 07:20:22.561628	77.4	53.4	-65.1	0.0
2026-01-18 07:20:23.682888	78.1	53.6	-65.1	0.0
2026-01-18 07:20:24.803661	78.9	53.8	-64.7	0.0
2026-01-18 07:20:25.930419	79.6	53.9	-66.0	0.0
2026-01-18 07:20:27.052177	80.4	54.1	-65.3	0.0
2026-01-18 07:20:28.172974	81.2	54.2	-65.4	0.0
2026-01-18 07:20:29.294731	82.0	54.3	-64.5	0.0
2026-01-18 07:20:30.416496	82.8	54.5	-66.6	0.0
2026-01-18 07:20:31.537309	83.6	54.6	-66.2	0.0
2026-01-18 07:20:32.659068	84.4	54.7	-65.7	0.0
2026-01-18 07:20:33.780329	85.2	54.8	-64.3	0.0
2026-01-18 07:20:34.902590	86.0	55.0	-63.7	0.0
2026-01-18 07:20:36.023853	86.8	55.1	-67.4	0.0
2026-01-18 07:20:37.146107	87.7	55.2	-65.0	0.0
2026-01-18 07:20:38.267397	88.5	55.3	-63.6	0.0
2026-01-18 07:20:39.388658	89.4	55.4	-66.3	0.0
2026-01-18 07:20:40.509462	90.2	55.4	-66.3	0.0
2026-01-18 07:20:41.630723	91.1	55.5	-67.5	0.0
2026-01-18 07:20:42.751490	91.9	55.6	-67.6	0.0
2026-01-18 07:20:43.872752	92.8	55.6	-66.3	0.0
2026-01-18 07:20:44.994516	93.7	55.7	-67.9	0.0
2026-01-18 07:20:46.116770	94.5	55.8	-67.8	0.0
2026-01-18 07:20:47.239023	95.4	55.8	-66.8	0.0
2026-01-18 07:20:48.360323	96.3	55.8	-66.0	0.0
2026-01-18 07:20:49.482576	97.2	55.9	-66.3	0.0
2026-01-18 07:20:50.603853	98.1	55.9	-65.9	0.0
2026-01-18 07:20:51.726106	98.9	55.9	-66.7	0.0
2026-01-18 07:20:52.846904	99.8	55.9	-66.3	0.0
2026-01-18 07:20:53.968661	100.7	55.9	-67.6	0.0
2026-01-18 07:20:55.090426	101.6	55.9	-66.4	0.0
2026-01-18 07:20:56.210697	102.5	55.9	-66.6	0.0
2026-01-18 07:20:57.332950	103.4	55.9	-66.4	0.0
2026-01-18 07:20:58.453754	104.2	55.9	-68.2	0.0
2026-01-18 07:20:59.575016	105.1	55.9	-67.3	0.0
2026-01-18 07:21:00.696287	106.0	55.9	-68.0	0.0
2026-01-18 07:21:01.817550	106.9	55.8	-66.8	0.0
2026-01-18 07:21:02.938821	107.8	55.8	-67.1	0.0
2026-01-18 07:21:04.059129	108.6	55.7	-67.2	0.0
2026-01-18 07:21:05.181392	109.5	55.7	-66.9	0.0
2026-01-18 07:21:06.303150	110.4	55.6	-66.5	0.0
2026-01-18 07:21:07.424420	111.2	55.5	-66.8	0.0
2026-01-18 07:21:08.545227	112.1	55.4	-66.9	0.0
2026-01-18 07:21:09.666985	112.9	55.4	-66.2	0.0
2026-01-18 07:21:10.789246	113.8	55.3	-67.8	0.0
2026-01-18 07:21:11.910507	114.6	55.2	-67.1	0.0
2026-01-18 07:21:13.031776	115.5	55.1	-67.0	0.0
2026-01-18 07:21:14.153563	116.3	55.0	-67.6	0.0
2026-01-18 07:21:15.275320	117.1	54.9	-68.1	0.0
2026-01-18 07:21:16.396581	117.9	54.7	-68.0	0.0
2026-01-18 07:21:17.516860	118.7	54.6	-68.1	0.0
2026-01-18 07:21:18.638159	119.5	54.5	-67.8	0.0
2026-01-18 07:21:19.759919	120.3	54.4	-66.6	0.0
2026-01-18 07:21:20.881683	121.1	54.2	-67.0	0.0
2026-01-18 07:21:22.003937	121.9	54.1	-67.3	0.0
2026-01-18 07:21:23.125695	122.7	53.9	-66.0	0.0
2026-01-18 07:21:24.246997	123.5	53.8	-67.9	0.0
2026-01-18 07:21:25.369251	124.2	53.6	-68.4	0.0
2026-01-18 07:21:26.490024	125.0	53.5	-68.9	0.0
2026-01-18 07:21:27.611782	125.7	53.3	-68.2	0.0
2026-01-18 07:21:28.733563	126.4	53.1	-69.0	0.0
2026-01-18 07:21:29.855834	127.2	53.0	-68.5	0.0
2026-01-18 07:21:30.978087	127.9	52.8	-67.5	0.0
2026-01-18 07:21:32.099358	128.6	52.6	-67.7	0.0
2026-01-18 07:21:33.221611	129.3	52.4	-68.9	0.0
2026-01-18 07:21:34.343406	130.0	52.2	-68.6	0.0
2026-01-18 07:21:35.465668	130.7	52.0	-67.3	0.0
2026-01-18 07:21:36.587466	131.3	51.8	-68.5	0.0
2026-01-18 07:21:37.709719	132.0	51.6	-68.8	0.0
2026-01-18 07:21:38.831484	132.6	51.4	-69.0	0.0
2026-01-18 07:21:39.953776	133.3	51.2	-68.7	0.0
2026-01-18 07:21:41.075535	133.9	51.0	-68.8	0.0
2026-01-18 07:21:42.196311	134.6	50.8	-68.4	0.0
2026-01-18 07:21:43.317574	135.2	50.6	-69.0	0.0
2026-01-18 07:21:44.438377	135.8	50.4	-69.0	0.0
2026-01-18 07:21:45.560631	136.4	50.2	-69.3	0.0
2026-01-18 07:21:46.682892	137.0	49.9	-69.9	0.0
2026-01-18 07:21:47.805146	137.6	49.7	-68.7	0.0
2026-01-18 07:21:48.927410	138.1	49.5	-69.0	0.0
2026-01-18 07:21:50.049745	138.7	49.3	-68.7	0.0
2026-01-18 07:21:51.172502	139.3	49.0	-69.1	0.0
2026-01-18 07:21:52.294266	139.8	48.8	-69.4	0.0
2026-01-18 07:21:53.416519	140.4	48.6	-69.8	0.0
2026-01-18 07:21:54.537333	140.9	48.3	-69.4	0.0
2026-01-18 07:21:55.659587	141.4	48.1	-69.5	0.0
2026-01-18 07:21:56.780857	142.0	47.9	-69.3	0.0
2026-01-18 07:21:57.902615	142.5	47.6	-69.5	0.0
2026-01-18 07:21:59.024396	143.0	47.4	-69.7	0.0
2026-01-18 07:22:00.146154	143.5	47.2	-70.0	0.0
2026-01-18 07:22:01.268407	144.0	46.9	-69.8	0.0
2026-01-18 07:22:02.390165	144.4	46.7	-69.6	0.0
2026-01-18 07:22:03.511434	144.9	46.5	-70.0	0.0
2026-01-18 07:22:04.633222	145.4	46.2	-69.9	0.0
2026-01-18 07:22:05.755476	145.8	46.0	-69.1	0.0
2026-01-18 07:22:06.877745	146.3	45.7	-69.5	0.0
2026-01-18 07:22:08.000008	146.7	45.5	-69.6	0.0
2026-01-18 07:22:09.122261	147.2	45.2	-69.6	0.0
2026-01-18 07:22:10.244551	147.6	45.0	-69.4	0.0
2026-01-18 07:22:11.365318	148.0	44.8	-69.7	0.1
2026-01-18 07:22:12.487082	148.5	44.5	-69.4	0.0
2026-01-18 07:22:13.609336	148.9	44.3	-69.5	0.0
2026-01-18 07:22:14.731131	149.3	44.0	-69.9	0.0
2026-01-18 07:22:15.853385	149.7	43.8	-70.4	0.0
2026-01-18 07:22:16.975150	150.1	43.5	-70.2	0.0
2026-01-18 07:22:18.097404	150.5	43.3	-70.1	0.0
2026-01-18 07:22:19.219161	150.9	43.0	-70.3	0.0
2026-01-18 07:22:20.340445	151.2	42.8	-70.2	0.0
2026-01-18 07:22:21.461706	151.6	42.6	-69.9	0.0
2026-01-18 07:22:22.582984	152.0	42.3	-70.2	0.0
2026-01-18 07:22:23.708238	152.3	42.1	-69.9	0.0
2026-01-18 07:22:24.830491	152.7	41.8	-69.8	0.2
2026-01-18 07:22:25.952287	153.1	41.6	-69.9	2.0
2026-01-18 07:22:27.074045	153.4	41.3	-69.5	0.8
2026-01-18 07:22:28.194818	153.7	41.1	-69.6	2.9
2026-01-18 07:22:29.317072	154.1	40.9	-69.3	1.8
2026-01-18 07:22:30.438334	154.4	40.6	-69.4	2.3
2026-01-18 07:22:31.560626	154.7	40.4	-69.6	1.0
2026-01-18 07:22:32.682879	155.1	40.1	-69.6	1.7
2026-01-18 07:22:33.804646	155.4	39.9	-69.8	0.2
2026-01-18 07:22:34.925938	155.7	39.7	-69.8	0.0
2026-01-18 07:22:36.047695	156.0	39.4	-69.7	0.5
2026-01-18 07:22:37.169452	156.3	39.2	-69.6	0.1
2026-01-18 07:22:38.291217	156.6	39.0	-69.1	0.0
2026-01-18 07:22:39.412976	156.9	38.7	-69.2	0.6
2026-01-18 07:22:40.535229	157.2	38.5	-69.1	0.0
2026-01-18 07:22:41.656550	157.5	38.3	-69.1	0.0
2026-01-18 07:22:42.778308	157.8	38.0	-69.6	0.6
2026-01-18 07:22:43.900569	158.0	37.8	-69.7	2.1
2026-01-18 07:22:45.021831	158.3	37.6	-69.4	1.3
2026-01-18 07:22:46.147620	158.6	37.3	-69.8	0.5
2026-01-18 07:22:47.269874	158.9	37.1	-69.6	0.0
2026-01-18 07:22:48.391640	159.1	36.9	-69.4	0.0
2026-01-18 07:22:49.513408	159.4	36.6	-68.8	0.0
2026-01-18 07:22:50.635166	159.6	36.4	-68.8	0.1
2026-01-18 07:22:51.756953	159.9	36.2	-68.9	1.3
2026-01-18 07:22:52.878710	160.1	36.0	-69.2	3.4
2026-01-18 07:22:53.999485	160.4	35.7	-69.3	3.7
2026-01-18 07:22:55.121738	160.6	35.5	-69.4	2.0
2026-01-18 07:22:56.243527	160.9	35.3	-69.2	1.2
2026-01-18 07:22:57.364293	161.1	35.1	-69.1	0.0
2026-01-18 07:22:58.486555	161.3	34.9	-68.7	0.0
2026-01-18 07:22:59.608808	161.6	34.6	-69.3	1.9
2026-01-18 07:23:00.730077	161.8	34.4	-69.0	2.8
2026-01-18 07:23:01.855369	162.0	34.2	-68.7	2.2
2026-01-18 07:23:02.977623	162.3	34.0	-68.6	2.8
2026-01-18 07:23:04.098420	162.5	33.8	-68.4	2.0
2026-01-18 07:23:05.220673	162.7	33.6	-68.8	1.6
2026-01-18 07:23:06.341439	162.9	33.4	-69.0	2.8
2026-01-18 07:23:07.463693	163.1	33.1	-68.9	1.7
2026-01-18 07:23:08.585458	163.3	32.9	-69.0	3.1
2026-01-18 07:23:09.707712	163.5	32.7	-68.5	2.0
2026-01-18 07:23:10.828983	163.7	32.5	-68.1	0.8
2026-01-18 07:23:11.951276	163.9	32.3	-68.5	2.1
2026-01-18 07:23:13.072043	164.1	32.1	-68.8	2.6
2026-01-18 07:23:14.193343	164.3	31.9	-68.7	2.8
2026-01-18 07:23:15.315596	164.5	31.7	-68.8	1.6
2026-01-18 07:23:16.437850	164.7	31.5	-68.8	1.7
2026-01-18 07:23:17.558616	164.9	31.3	-69.1	2.1
2026-01-18 07:23:18.680388	165.1	31.1	-68.3	0.0
2026-01-18 07:23:19.802641	165.3	30.9	-68.9	0.0
2026-01-18 07:23:20.924399	165.5	30.7	-68.9	0.0
2026-01-18 07:23:22.046691	165.6	30.5	-69.0	0.0
2026-01-18 07:23:23.168945	165.8	30.3	-69.1	0.0
2026-01-18 07:23:24.290214	166.0	30.1	-69.3	0.1
2026-01-18 07:23:25.410002	166.2	29.9	-69.0	0.0
2026-01-18 07:23:26.531767	166.3	29.7	-69.0	0.9
2026-01-18 07:23:27.653028	166.5	29.5	-69.0	0.0
2026-01-18 07:23:28.775795	166.7	29.3	-69.1	1.1
2026-01-18 07:23:29.897552	166.8	29.1	-69.2	0.0
2026-01-18 07:23:31.019813	167.0	29.0	-69.4	0.0
2026-01-18 07:23:32.140608	167.2	28.8	-69.4	0.0
2026-01-18 07:23:33.262365	167.3	28.6	-69.1	0.0
2026-01-18 07:23:34.384627	167.5	28.4	-69.2	0.0
2026-01-18 07:23:35.505393	167.6	28.2	-69.8	0.0
2026-01-18 07:23:36.627194	167.8	28.0	-68.9	0.0
2026-01-18 07:23:37.748951	167.9	27.8	-69.7	0.0
2026-01-18 07:23:38.870718	168.1	27.7	-69.1	0.0
2026-01-18 07:23:39.992980	168.2	27.5	-70.0	0.0
2026-01-18 07:23:41.114243	168.4	27.3	-69.4	0.0
2026-01-18 07:23:42.235035	168.5	27.1	-69.1	0.0
2026-01-18 07:23:43.356297	168.7	26.9	-68.8	0.0
2026-01-18 07:23:44.476573	168.8	26.8	-68.9	0.0
2026-01-18 07:23:45.598827	169.0	26.6	-68.4	0.0
2026-01-18 07:23:46.720117	169.1	26.4	-68.5	0.0
2026-01-18 07:23:47.841876	169.2	26.2	-68.2	0.0
2026-01-18 07:23:48.963634	169.4	26.1	-68.4	0.0
2026-01-18 07:23:50.085400	169.5	25.9	-68.5	0.0
2026-01-18 07:23:51.207654	169.7	25.7	-68.7	0.0
2026-01-18 07:23:52.328945	169.8	25.6	-69.2	0.0
2026-01-18 07:23:53.450702	169.9	25.4	-69.4	0.0
2026-01-18 07:23:54.572964	170.1	25.2	-69.7	0.0
2026-01-18 07:23:55.695217	170.2	25.1	-69.4	0.0
2026-01-18 07:23:56.816516	170.3	24.9	-69.3	0.0
2026-01-18 07:23:57.939274	170.4	24.7	-68.8	0.0
2026-01-18 07:23:59.061040	170.6	24.6	-69.5	0.0
2026-01-18 07:24:00.183294	170.7	24.4	-69.7	0.0
2026-01-18 07:24:01.307548	170.8	24.2	-69.1	0.0
2026-01-18 07:24:02.429334	170.9	24.1	-69.8	0.0
2026-01-18 07:24:03.550100	171.0	23.9	-69.8	0.0
2026-01-18 07:24:04.671864	171.2	23.7	-69.8	0.0
2026-01-18 07:24:05.794118	171.3	23.6	-70.0	0.0
2026-01-18 07:24:06.915884	171.4	23.4	-69.7	0.0
2026-01-18 07:24:08.037681	171.5	23.3	-69.5	0.0
2026-01-18 07:24:09.159935	171.6	23.1	-69.4	0.0
2026-01-18 07:24:10.281691	171.7	23.0	-69.3	0.0
2026-01-18 07:24:11.403450	171.9	22.8	-69.6	0.0
2026-01-18 07:24:12.525209	172.0	22.6	-69.1	0.0
2026-01-18 07:24:13.653464	172.1	22.5	-69.3	0.0
2026-01-18 07:24:14.775725	172.2	22.3	-69.3	0.0
2026-01-18 07:24:15.896987	172.3	22.2	-69.5	0.0
2026-01-18 07:24:17.019241	172.4	22.0	-69.2	0.0
2026-01-18 07:24:18.140502	172.5	21.9	-68.9	0.0
2026-01-18 07:24:19.263260	172.6	21.7	-69.6	0.0
2026-01-18 07:24:20.384522	172.7	21.6	-68.6	0.0
2026-01-18 07:24:21.507279	172.8	21.4	-69.6	0.0
2026-01-18 07:24:22.629036	172.9	21.3	-68.8	0.0
2026-01-18 07:24:23.750794	173.0	21.1	-69.0	0.0
2026-01-18 07:24:24.873047	173.1	21.0	-68.7	0.0
2026-01-18 07:24:25.994805	173.2	20.9	-69.0	0.0
2026-01-18 07:24:27.117058	173.3	20.7	-68.7	0.0
2026-01-18 07:24:28.238817	173.4	20.6	-69.1	0.0
2026-01-18 07:24:29.360575	173.5	20.4	-68.8	0.0
2026-01-18 07:24:30.481837	173.6	20.3	-68.9	0.0
2026-01-18 07:24:31.602603	173.7	20.1	-68.9	0.0
2026-01-18 07:24:32.724856	173.8	20.0	-68.5	0.0
2026-01-18 07:24:33.846614	173.9	19.9	-68.6	0.0
2026-01-18 07:24:34.968868	174.0	19.7	-68.0	0.0
2026-01-18 07:24:36.090129	174.1	19.6	-67.6	0.0
2026-01-18 07:24:37.212382	174.2	19.4	-68.5	1.2
2026-01-18 07:24:38.334635	174.3	19.3	-68.5	0.4
2026-01-18 07:24:39.456897	174.4	19.2	-67.8	0.0
2026-01-18 07:24:40.578655	174.4	19.0	-67.6	0.0
2026-01-18 07:24:41.700908	174.5	18.9	-67.8	0.0
2026-01-18 07:24:42.822666	174.6	18.8	-68.0	0.1
2026-01-18 07:24:43.948928	174.7	18.6	-67.4	0.3
2026-01-18 07:24:45.071182	174.8	18.5	-67.2	0.0
2026-01-18 07:24:46.193435	174.9	18.4	-67.2	0.0
2026-01-18 07:24:47.314201	175.0	18.2	-67.1	0.5
2026-01-18 07:24:48.436454	175.0	18.1	-67.1	0.0
2026-01-18 07:24:49.558212	175.1	18.0	-67.8	0.0
2026-01-18 07:24:50.680465	175.2	17.8	-67.3	0.0
2026-01-18 07:24:51.801231	175.3	17.7	-67.2	0.0
2026-01-18 07:24:52.922989	175.4	17.6	-67.6	0.0
2026-01-18 07:24:54.045243	175.5	17.5	-67.4	0.0
2026-01-18 07:24:55.167000	175.5	17.3	-67.0	0.0
2026-01-18 07:24:56.288758	175.6	17.2	-67.1	0.0
2026-01-18 07:24:57.411020	175.7	17.1	-67.0	1.1
2026-01-18 07:24:58.533778	175.8	17.0	-67.3	0.0
2026-01-18 07:24:59.660041	175.8	16.8	-67.0	2.6
2026-01-18 07:25:00.781302	175.9	16.7	-66.8	0.0
2026-01-18 07:25:01.902563	176.0	16.6	-67.4	1.4
2026-01-18 07:25:03.019816	176.1	16.5	-67.4	2.9
2026-01-18 07:25:04.138077	176.2	16.3	-67.2	3.5
2026-01-18 07:25:05.257835	176.2	16.2	-66.8	2.6
2026-01-18 07:25:06.376095	176.3	16.1	-66.7	0.3
2026-01-18 07:25:07.494356	176.4	16.0	-66.4	2.3
2026-01-18 07:25:08.613113	176.4	15.9	-67.0	3.4
2026-01-18 07:25:09.733870	176.5	15.7	-67.2	2.4
2026-01-18 07:25:10.854131	176.6	15.6	-67.0	3.6
2026-01-18 07:25:11.973384	176.7	15.5	-67.4	3.6
2026-01-18 07:25:13.088636	176.7	15.4	-66.4	2.2
2026-01-18 07:25:14.204896	176.8	15.3	-65.3	0.0
2026-01-18 07:25:15.321147	176.9	15.2	-66.8	2.8
2026-01-18 07:25:16.441906	176.9	15.0	-66.6	2.8
2026-01-18 07:25:17.559166	177.0	14.9	-66.6	3.4
2026-01-18 07:25:18.674931	177.1	14.8	-67.1	1.6
2026-01-18 07:25:19.793183	177.1	14.7	-66.2	0.5
2026-01-18 07:25:20.911436	177.2	14.6	-66.5	1.9
2026-01-18 07:25:22.028697	177.3	14.5	-66.9	2.4
2026-01-18 07:25:23.147949	177.3	14.3	-67.0	2.6
2026-01-18 07:25:24.266209	177.4	14.2	-66.1	0.0
2026-01-18 07:25:25.384462	177.5	14.1	-65.2	0.6
2026-01-18 07:25:26.505226	177.5	14.0	-66.6	2.6
2026-01-18 07:25:27.623983	177.6	13.9	-66.2	0.0
2026-01-18 07:25:28.744236	177.7	13.8	-65.9	2.1
2026-01-18 07:25:29.864994	177.7	13.7	-66.3	3.5
2026-01-18 07:25:30.985247	177.8	13.6	-66.2	2.1
2026-01-18 07:25:32.105500	177.8	13.5	-65.3	0.0
2026-01-18 07:25:33.224752	177.9	13.4	-65.7	2.6
2026-01-18 07:25:34.341013	178.0	13.2	-66.2	4.5
2026-01-18 07:25:35.460266	178.0	13.1	-66.0	1.1
2026-01-18 07:25:36.580023	178.1	13.0	-65.0	0.0
2026-01-18 07:25:37.698275	178.2	12.9	-66.3	0.0
2026-01-18 07:25:38.819528	178.2	12.8	-64.0	0.0
2026-01-18 07:25:39.938789	178.3	12.7	-65.8	3.2
2026-01-18 07:25:41.057554	178.3	12.6	-65.5	2.5
2026-01-18 07:25:42.178312	178.4	12.5	-65.7	3.7
2026-01-18 07:25:43.298564	178.4	12.4	-66.0	3.3
2026-01-18 07:25:44.417321	178.5	12.3	-66.2	3.4
2026-01-18 07:25:45.537079	178.6	12.2	-65.7	0.8
2026-01-18 07:25:46.657836	178.6	12.1	-66.0	3.4
2026-01-18 07:25:47.775096	178.7	12.0	-64.7	2.9
2026-01-18 07:25:48.896854	178.7	11.9	-65.0	3.7
2026-01-18 07:25:50.016116	178.8	11.8	-65.5	3.6
2026-01-18 07:25:51.138369	178.8	11.7	-65.7	3.4
2026-01-18 07:25:52.259622	178.9	11.6	-66.0	3.1
2026-01-18 07:25:53.377884	179.0	11.5	-65.2	1.9
2026-01-18 07:25:54.497152	179.0	11.4	-65.8	2.3
2026-01-18 07:25:55.616405	179.1	11.3	-65.7	3.1
2026-01-18 07:25:56.735658	179.1	11.2	-66.0	4.2
2026-01-18 07:25:57.856911	179.2	11.1	-65.6	4.2
2026-01-18 07:25:58.976668	179.2	11.0	-65.4	3.8
2026-01-18 07:26:00.094928	179.3	10.9	-65.3	3.4
2026-01-18 07:26:01.212189	179.3	10.8	-65.4	4.1
2026-01-18 07:26:02.333451	179.4	10.7	-65.3	3.4
2026-01-18 07:26:03.453703	179.4	10.6	-66.0	3.6
2026-01-18 07:26:04.573956	179.5	10.5	-66.1	2.7
2026-01-18 07:26:05.694209	179.5	10.4	-66.0	2.0
2026-01-18 07:26:06.814471	179.6	10.3	-65.6	2.9
2026-01-18 07:26:07.934235	179.6	10.2	-65.7	4.2
2026-01-18 07:26:09.056993	179.7	10.1	-65.0	1.7
2026-01-18 07:26:10.176246	179.7	10.0	-65.6	3.5
2026-01-18 07:26:11.297517	179.8	9.9	-65.8	2.1
2026-01-18 07:26:12.419770	179.8	9.8	-65.4	2.9
2026-01-18 07:26:13.541032	179.9	9.7	-65.5	3.1
2026-01-18 07:26:14.663285	179.9	9.6	-65.8	3.7
2026-01-18 07:26:15.784051	180.0	9.5	-64.6	2.2
2026-01-18 07:26:16.906304	180.0	9.4	-65.5	1.3
2026-01-18 07:26:18.028558	180.1	9.3	-65.1	2.7
2026-01-18 07:26:19.150316	180.1	9.2	-64.2	2.4
2026-01-18 07:26:20.272570	180.2	9.2	-64.6	1.1
2026-01-18 07:26:21.394327	180.2	9.1	-63.5	0.0
2026-01-18 07:26:22.518085	180.3	9.0	-65.3	2.9
2026-01-18 07:26:23.639347	180.3	8.9	-64.9	3.4
2026-01-18 07:26:24.758104	180.4	8.8	-64.8	1.7
2026-01-18 07:26:25.879357	180.4	8.7	-64.8	0.2
2026-01-18 07:26:26.998113	180.4	8.6	-63.7	0.0
2026-01-18 07:26:28.116366	180.5	8.5	-64.1	2.7
2026-01-18 07:26:29.236619	180.5	8.4	-64.4	1.1
2026-01-18 07:26:30.355375	180.6	8.3	-65.2	2.8
2026-01-18 07:26:31.475649	180.6	8.2	-65.1	3.4
2026-01-18 07:26:32.595902	180.7	8.2	-65.1	1.0
2026-01-18 07:26:33.716164	180.7	8.1	-64.8	3.0
2026-01-18 07:26:34.836417	180.8	8.0	-65.1	3.1
2026-01-18 07:26:35.958670	180.8	7.9	-65.1	2.9
2026-01-18 07:26:37.079427	180.8	7.8	-63.8	2.2
2026-01-18 07:26:38.199697	180.9	7.7	-64.3	0.0
2026-01-18 07:26:39.319967	180.9	7.6	-65.1	1.0
2026-01-18 07:26:40.441228	181.0	7.5	-64.8	1.3
2026-01-18 07:26:41.562481	181.0	7.5	-64.8	0.0
2026-01-18 07:26:42.682734	181.1	7.4	-64.9	1.5
2026-01-18 07:26:43.800987	181.1	7.3	-64.5	1.5
2026-01-18 07:26:44.921248	181.1	7.2	-65.7	0.0
2026-01-18 07:26:46.042006	181.2	7.1	-64.8	3.5
2026-01-18 07:26:47.159762	181.2	7.0	-64.6	0.0
2026-01-18 07:26:48.279015	181.3	6.9	-64.9	1.2
2026-01-18 07:26:49.399268	181.3	6.9	-64.5	3.4
2026-01-18 07:26:50.516520	181.3	6.8	-65.1	0.0
2026-01-18 07:26:51.635277	181.4	6.7	-63.6	0.0
2026-01-18 07:26:52.754530	181.4	6.6	-64.2	0.0
2026-01-18 07:26:53.872286	181.5	6.5	-64.1	0.0
2026-01-18 07:26:54.991044	181.5	6.4	-64.8	0.2
2026-01-18 07:26:56.113801	181.5	6.4	-65.2	0.0
2026-01-18 07:26:57.233054	181.6	6.3	-64.6	0.0
2026-01-18 07:26:58.351307	181.6	6.2	-64.6	0.0
2026-01-18 07:26:59.468559	181.7	6.1	-64.3	2.7
2026-01-18 07:27:00.590813	181.7	6.0	-63.8	3.1
2026-01-18 07:27:01.715571	181.7	5.9	-64.7	5.1
2026-01-18 07:27:02.837834	181.8	5.9	-67.0	4.0
2026-01-18 07:27:03.959592	181.8	5.8	-69.9	0.0
2026-01-18 07:27:05.080349	181.9	5.7	-70.6	0.0
2026-01-18 07:27:06.202107	181.9	5.6	-70.8	0.0
2026-01-18 07:27:07.323866	181.9	5.5	-71.4	0.0
2026-01-18 07:27:08.444632	182.0	5.5	-70.6	0.0
2026-01-18 07:27:09.566886	182.0	5.4	-70.8	0.0
2026-01-18 07:27:10.688643	182.0	5.3	-70.6	0.0
2026-01-18 07:27:11.809408	182.1	5.2	-70.9	0.0
2026-01-18 07:27:12.927164	182.1	5.1	-71.4	0.0
2026-01-18 07:27:14.049417	182.2	5.1	-71.2	0.0
2026-01-18 07:27:15.171679	182.2	5.0	-71.4	0.0
#Closed at: 2026-01-18 07:14:25.665281