passes_logs/2025/01/10/LEX_Murmansk/LEX_Murmansk__20250110_185002_NOAA_18_rec.log

#Pass ID: 20250110_185002_NOAA 18
#Satellite: NOAA 18
#Configuration: NOAA 18
#Start time: 2025-01-10 18:49:57.632211

#LorettStation: 1.0.0 05.05.2024
#Station: LEX_Murmansk
#Location: 33.156738 lon 68.926811 lat
#TLE: 1 28654U 05018A   25009.85378120  .00000357  00000+0  21312-3 0  9995
#TLE: 2 28654  98.8576  90.9590 0014108 193.6372 166.4421 14.13482291 12379

#Time	Az	El	Level	SNR
2025-01-10 18:50:09.800243	150.8	16.3	-92.2	8.1
2025-01-10 18:50:10.952939	150.8	16.4	-92.2	7.7
2025-01-10 18:50:12.107898	150.8	16.6	-92.0	8.7
2025-01-10 18:50:13.269877	150.8	16.7	-91.8	5.4
2025-01-10 18:50:14.423801	150.8	16.8	-92.5	6.4
2025-01-10 18:50:15.580531	150.8	17.0	-92.1	3.3
2025-01-10 18:50:16.733128	150.8	17.1	-89.6	5.7
2025-01-10 18:50:17.888599	150.8	17.2	-91.0	3.7
2025-01-10 18:50:19.044051	150.8	17.4	-90.7	5.9
2025-01-10 18:50:20.200226	150.8	17.5	-92.0	5.9
2025-01-10 18:50:21.360580	150.8	17.6	-92.2	5.5
2025-01-10 18:50:22.512590	150.8	17.8	-92.7	5.3
2025-01-10 18:50:23.667989	150.8	17.9	-92.6	5.1
2025-01-10 18:50:24.822779	150.8	18.0	-92.8	5.7
2025-01-10 18:50:25.977804	150.8	18.2	-92.7	3.8
2025-01-10 18:50:27.132691	150.8	18.3	-92.5	6.9
2025-01-10 18:50:28.281200	150.8	18.4	-92.0	6.9
2025-01-10 18:50:29.440076	150.8	18.6	-92.8	5.1
2025-01-10 18:50:30.594477	150.8	18.7	-92.7	3.5
2025-01-10 18:50:31.746494	150.8	18.9	-92.9	7.2
2025-01-10 18:50:32.897986	150.8	19.0	-92.9	6.7
2025-01-10 18:50:34.058547	150.8	19.2	-92.6	5.0
2025-01-10 18:50:35.213362	150.8	19.3	-92.6	7.5
2025-01-10 18:50:36.359317	150.8	19.4	-92.1	7.5
2025-01-10 18:50:37.511429	150.8	19.6	-92.1	9.5
2025-01-10 18:50:38.663853	150.8	19.7	-92.7	8.6
2025-01-10 18:50:39.816313	150.8	19.9	-92.7	11.6
2025-01-10 18:50:40.974391	150.8	20.0	-92.8	10.6
2025-01-10 18:50:42.128905	150.8	20.2	-92.6	10.4
2025-01-10 18:50:43.290793	150.8	20.3	-92.5	10.3
2025-01-10 18:50:44.442788	150.8	20.5	-92.6	9.3
2025-01-10 18:50:45.598446	150.8	20.6	-92.9	5.4
2025-01-10 18:50:46.753373	150.8	20.8	-93.2	9.3
2025-01-10 18:50:47.908974	150.8	20.9	-92.6	6.3
2025-01-10 18:50:49.068815	150.8	21.1	-92.3	5.0
2025-01-10 18:50:50.222224	150.8	21.2	-92.5	10.1
2025-01-10 18:50:51.380790	150.8	21.4	-92.6	8.9
2025-01-10 18:50:52.533460	150.8	21.6	-92.7	9.5
2025-01-10 18:50:53.687764	150.8	21.7	-93.0	10.0
2025-01-10 18:50:54.841930	150.8	21.9	-93.1	12.3
2025-01-10 18:50:56.004869	150.8	22.0	-92.9	7.9
2025-01-10 18:50:57.164168	150.8	22.2	-92.3	10.4
2025-01-10 18:50:58.328934	150.8	22.4	-92.1	12.2
2025-01-10 18:50:59.481677	150.8	22.5	-92.7	10.7
2025-01-10 18:51:00.632420	150.8	22.7	-92.9	10.3
2025-01-10 18:51:01.784211	150.8	22.8	-92.6	10.9
2025-01-10 18:51:02.938718	150.8	23.0	-92.8	6.3
2025-01-10 18:51:04.088533	150.8	23.2	-92.5	4.6
2025-01-10 18:51:05.248911	150.8	23.3	-92.6	10.8
2025-01-10 18:51:06.398392	150.8	23.5	-92.8	10.6
2025-01-10 18:51:07.555868	150.8	23.7	-93.0	13.8
2025-01-10 18:51:08.705462	150.8	23.9	-93.0	14.3
2025-01-10 18:51:09.859126	150.8	24.0	-92.5	13.6
2025-01-10 18:51:11.005803	150.7	24.2	-92.7	11.5
2025-01-10 18:51:12.157783	150.7	24.4	-92.4	11.0
2025-01-10 18:51:13.317032	150.7	24.6	-92.4	12.9
2025-01-10 18:51:14.463306	150.7	24.7	-92.6	13.3
2025-01-10 18:51:15.617393	150.7	24.9	-92.6	13.9
2025-01-10 18:51:16.766812	150.7	25.1	-92.4	11.3
2025-01-10 18:51:17.917242	150.7	25.3	-92.8	6.5
2025-01-10 18:51:19.074109	150.7	25.4	-92.8	5.6
2025-01-10 18:51:20.228000	150.7	25.6	-92.3	10.8
2025-01-10 18:51:21.385337	150.7	25.8	-92.2	9.9
2025-01-10 18:51:22.543010	150.7	26.0	-92.9	8.9
2025-01-10 18:51:23.708024	150.7	26.2	-92.9	13.1
2025-01-10 18:51:24.863640	150.7	26.4	-93.0	12.5
2025-01-10 18:51:26.016402	150.7	26.6	-92.8	11.0
2025-01-10 18:51:27.176732	150.7	26.8	-92.7	10.5
2025-01-10 18:51:28.331851	150.7	27.0	-92.0	11.7
2025-01-10 18:51:29.486909	150.7	27.1	-92.6	9.0
2025-01-10 18:51:30.639125	150.7	27.3	-92.9	10.5
2025-01-10 18:51:31.789120	150.7	27.5	-92.5	9.0
2025-01-10 18:51:32.939750	150.7	27.7	-90.2	9.1
2025-01-10 18:51:34.087944	150.7	27.9	-91.9	6.2
2025-01-10 18:51:35.222507	150.7	28.1	-92.4	9.1
2025-01-10 18:51:36.375464	150.7	28.3	-91.9	7.7
2025-01-10 18:51:37.538476	150.7	28.5	-93.0	3.3
2025-01-10 18:51:38.696390	150.7	28.7	-93.1	7.3
2025-01-10 18:51:39.854534	150.7	28.9	-92.8	6.9
2025-01-10 18:51:41.015892	150.7	29.2	-93.0	9.0
2025-01-10 18:51:42.165352	150.7	29.4	-92.7	4.8
2025-01-10 18:51:43.322450	150.6	29.6	-91.9	5.3
2025-01-10 18:51:44.479691	150.6	29.8	-92.6	7.5
2025-01-10 18:51:45.627496	150.6	30.0	-93.2	9.0
2025-01-10 18:51:46.774993	150.6	30.2	-93.0	8.1
2025-01-10 18:51:47.928995	150.6	30.4	-91.7	7.5
2025-01-10 18:51:49.082186	150.6	30.7	-92.1	7.0
2025-01-10 18:51:50.235687	150.6	30.9	-91.9	8.4
2025-01-10 18:51:51.385008	150.6	31.1	-92.5	3.4
2025-01-10 18:51:52.542923	150.6	31.3	-92.3	3.6
2025-01-10 18:51:53.690518	150.6	31.5	-92.8	5.1
2025-01-10 18:51:54.850236	150.6	31.8	-93.0	4.1
2025-01-10 18:51:56.003830	150.6	32.0	-92.8	4.3
2025-01-10 18:51:57.159669	150.6	32.2	-92.0	6.4
2025-01-10 18:51:58.313682	150.6	32.5	-92.4	9.0
2025-01-10 18:51:59.467969	150.6	32.7	-92.7	9.4
2025-01-10 18:52:00.609517	150.6	32.9	-92.9	10.4
2025-01-10 18:52:01.764292	150.5	33.2	-93.3	8.6
2025-01-10 18:52:02.919760	150.5	33.4	-93.2	6.1
2025-01-10 18:52:04.080747	150.5	33.7	-92.5	4.7
2025-01-10 18:52:05.233118	150.5	33.9	-92.7	10.3
2025-01-10 18:52:06.382240	150.5	34.1	-92.3	12.2
2025-01-10 18:52:07.540497	150.5	34.4	-91.8	11.7
2025-01-10 18:52:08.691183	150.5	34.6	-92.4	13.2
2025-01-10 18:52:09.844346	150.5	34.9	-92.6	13.9
2025-01-10 18:52:10.999682	150.5	35.1	-92.6	7.5
2025-01-10 18:52:12.157320	150.5	35.4	-92.2	10.6
2025-01-10 18:52:13.311181	150.5	35.7	-92.4	11.7
2025-01-10 18:52:14.472506	150.5	35.9	-92.6	10.2
2025-01-10 18:52:15.626700	150.4	36.2	-92.6	13.4
2025-01-10 18:52:16.782863	150.4	36.4	-92.8	15.6
2025-01-10 18:52:17.938017	150.4	36.7	-93.0	15.6
2025-01-10 18:52:19.100721	150.4	37.0	-92.4	11.4
2025-01-10 18:52:20.249638	150.4	37.3	-93.0	16.6
2025-01-10 18:52:21.402792	150.4	37.5	-93.0	12.6
2025-01-10 18:52:22.556543	150.4	37.8	-93.2	14.5
2025-01-10 18:52:23.705923	150.4	38.1	-92.8	14.1
2025-01-10 18:52:24.860467	150.4	38.4	-93.0	12.1
2025-01-10 18:52:26.019600	150.3	38.6	-92.8	9.1
2025-01-10 18:52:27.181126	150.3	38.9	-92.5	11.3
2025-01-10 18:52:28.335976	150.3	39.2	-92.7	11.1
2025-01-10 18:52:29.493794	150.3	39.5	-92.7	6.7
2025-01-10 18:52:30.653142	150.3	39.8	-93.3	11.4
2025-01-10 18:52:31.813568	150.3	40.1	-92.7	15.4
2025-01-10 18:52:32.964298	150.3	40.4	-93.3	15.1
2025-01-10 18:52:34.121348	150.3	40.7	-92.5	15.8
2025-01-10 18:52:35.273739	150.2	41.0	-92.6	16.2
2025-01-10 18:52:36.433498	150.2	41.3	-93.1	16.9
2025-01-10 18:52:37.588153	150.2	41.6	-92.9	13.4
2025-01-10 18:52:38.752134	150.2	41.9	-92.9	17.7
2025-01-10 18:52:39.907024	150.2	42.2	-93.1	14.4
2025-01-10 18:52:41.064776	150.2	42.5	-92.6	14.9
2025-01-10 18:52:42.219102	150.1	42.8	-92.2	17.8
2025-01-10 18:52:43.364937	150.1	43.2	-92.5	17.0
2025-01-10 18:52:44.519966	150.1	43.5	-92.9	11.9
2025-01-10 18:52:45.671864	150.1	43.8	-93.1	13.1
2025-01-10 18:52:46.818382	150.1	44.1	-93.5	16.4
2025-01-10 18:52:47.979167	150.1	44.5	-93.1	7.9
2025-01-10 18:52:49.131163	150.0	44.8	-92.1	9.9
2025-01-10 18:52:50.284969	150.0	45.1	-92.5	17.8
2025-01-10 18:52:51.443394	150.0	45.5	-92.8	17.0
2025-01-10 18:52:52.599024	150.0	45.8	-92.8	19.0
2025-01-10 18:52:53.747866	150.0	46.2	-93.2	17.3
2025-01-10 18:52:54.899196	149.9	46.5	-93.0	13.2
2025-01-10 18:52:56.055968	149.9	46.9	-93.0	9.8
2025-01-10 18:52:57.204385	149.9	47.2	-92.6	10.4
2025-01-10 18:52:58.361452	149.9	47.6	-92.4	12.6
2025-01-10 18:52:59.503896	149.8	47.9	-93.3	8.4
2025-01-10 18:53:00.647424	149.8	48.3	-92.9	1.8
2025-01-10 18:53:01.798581	149.8	48.6	-92.7	8.1
2025-01-10 18:53:02.948766	149.8	49.0	-92.8	11.2
2025-01-10 18:53:04.103090	149.7	49.4	-92.6	8.7
2025-01-10 18:53:05.253959	149.7	49.7	-92.4	10.4
2025-01-10 18:53:06.408600	149.7	50.1	-92.7	6.7
2025-01-10 18:53:07.561092	149.6	50.5	-92.5	5.0
2025-01-10 18:53:08.714475	149.6	50.9	-92.7	8.5
2025-01-10 18:53:09.868044	149.6	51.3	-92.7	11.2
2025-01-10 18:53:11.023934	149.6	51.7	-92.9	10.3
2025-01-10 18:53:12.173998	149.5	52.1	-92.4	14.6
2025-01-10 18:53:13.320441	149.5	52.4	-92.4	14.6
2025-01-10 18:53:14.473396	149.4	52.8	-92.7	15.8
2025-01-10 18:53:15.621414	149.4	53.2	-93.0	18.6
2025-01-10 18:53:16.775430	149.4	53.6	-92.8	15.3
2025-01-10 18:53:17.922054	149.3	54.1	-91.9	9.1
2025-01-10 18:53:19.074800	149.3	54.5	-92.0	8.1
2025-01-10 18:53:20.229892	149.3	54.9	-92.2	11.1
2025-01-10 18:53:21.391690	149.2	55.3	-92.1	9.1
2025-01-10 18:53:22.539189	149.2	55.7	-93.0	16.0
2025-01-10 18:53:23.691771	149.1	56.1	-93.2	19.0
2025-01-10 18:53:24.845992	149.1	56.6	-93.1	18.2
2025-01-10 18:53:26.001473	149.0	57.0	-92.6	16.2
2025-01-10 18:53:27.156614	149.0	57.4	-92.2	14.2
2025-01-10 18:53:28.311238	148.9	57.9	-92.1	16.2
2025-01-10 18:53:29.469552	148.9	58.3	-92.3	10.7
2025-01-10 18:53:30.625588	148.8	58.8	-92.8	8.3
2025-01-10 18:53:31.773850	148.8	59.2	-92.5	17.9
2025-01-10 18:53:32.925568	148.7	59.7	-92.8	9.6
2025-01-10 18:53:34.080602	148.6	60.1	-91.3	10.8
2025-01-10 18:53:35.232027	148.6	60.6	-92.4	18.5
2025-01-10 18:53:36.390282	148.5	61.0	-91.6	15.1
2025-01-10 18:53:37.548279	148.4	61.5	-92.4	20.8
2025-01-10 18:53:38.699848	148.4	62.0	-92.7	19.9
2025-01-10 18:53:39.853084	148.3	62.4	-92.2	19.0
2025-01-10 18:53:41.013855	148.2	62.9	-92.3	16.6
2025-01-10 18:53:42.165754	148.1	63.4	-92.3	16.6
2025-01-10 18:53:43.312078	148.0	63.8	-92.4	19.8
2025-01-10 18:53:44.467181	147.9	64.3	-92.0	12.6
2025-01-10 18:53:45.622525	147.8	64.8	-92.3	12.8
2025-01-10 18:53:46.769966	147.7	65.3	-92.5	16.8
2025-01-10 18:53:47.930696	147.6	65.8	-92.4	16.7
2025-01-10 18:53:49.083254	147.5	66.3	-92.2	19.6
2025-01-10 18:53:50.230974	147.4	66.8	-92.1	18.3
2025-01-10 18:53:51.385896	147.3	67.3	-92.6	19.2
2025-01-10 18:53:52.539905	147.2	67.8	-92.4	17.6
2025-01-10 18:53:53.692940	147.0	68.3	-92.5	15.4
2025-01-10 18:53:54.842195	146.9	68.8	-92.6	16.8
2025-01-10 18:53:56.000886	146.8	69.3	-92.7	12.6
2025-01-10 18:53:57.154638	146.6	69.8	-92.1	14.4
2025-01-10 18:53:58.313073	146.4	70.3	-92.3	14.8
2025-01-10 18:53:59.474088	146.3	70.9	-92.4	10.4
2025-01-10 18:54:00.623142	146.1	71.4	-92.3	12.6
2025-01-10 18:54:01.777330	145.9	71.9	-92.2	19.9
2025-01-10 18:54:02.925237	145.7	72.4	-92.8	13.7
2025-01-10 18:54:04.088990	145.5	73.0	-92.3	17.8
2025-01-10 18:54:05.239355	145.2	73.5	-92.3	22.7
2025-01-10 18:54:06.396208	145.0	74.0	-92.4	18.5
2025-01-10 18:54:07.549314	144.7	74.6	-93.0	15.8
2025-01-10 18:54:08.709244	144.4	75.1	-92.0	20.2
2025-01-10 18:54:09.865341	144.1	75.6	-91.8	21.1
2025-01-10 18:54:11.015368	143.7	76.2	-93.1	21.9
2025-01-10 18:54:12.164137	143.4	76.7	-92.1	21.1
2025-01-10 18:54:13.313420	143.0	77.3	-92.6	18.5
2025-01-10 18:54:14.468669	142.5	77.8	-93.0	15.9
2025-01-10 18:54:15.614296	142.0	78.3	-92.5	14.8
2025-01-10 18:54:16.772013	141.5	78.9	-92.3	23.4
2025-01-10 18:54:17.922360	140.9	79.4	-92.7	16.6
2025-01-10 18:54:19.091913	140.2	80.0	-92.9	13.8
2025-01-10 18:54:20.250074	139.5	80.5	-92.0	22.8
2025-01-10 18:54:21.408741	138.7	81.1	-92.3	18.7
2025-01-10 18:54:22.563041	137.7	81.6	-92.1	18.0
2025-01-10 18:54:23.719381	136.6	82.2	-92.4	23.3
2025-01-10 18:54:24.872612	135.4	82.7	-91.9	20.2
2025-01-10 18:54:26.027574	134.0	83.3	-92.3	22.1
2025-01-10 18:54:27.179183	132.3	83.8	-92.2	23.1
2025-01-10 18:54:28.335810	130.3	84.3	-92.3	25.6
2025-01-10 18:54:29.494883	127.8	84.9	-92.8	23.9
2025-01-10 18:54:30.645785	124.8	85.4	-92.7	22.5
2025-01-10 18:54:31.805368	121.1	85.9	-93.0	24.6
2025-01-10 18:54:32.965172	116.4	86.3	-92.9	22.9
2025-01-10 18:54:34.119369	110.3	86.8	-92.0	19.9
2025-01-10 18:54:35.274840	102.4	87.2	-92.0	22.1
2025-01-10 18:54:36.432187	92.2	87.5	-93.0	18.9
2025-01-10 18:54:37.593978	79.3	87.7	-92.7	19.1
2025-01-10 18:54:38.745862	64.7	87.8	-92.6	25.3
2025-01-10 18:54:39.896914	49.8	87.8	-92.8	17.4
2025-01-10 18:54:41.047585	36.4	87.6	-92.7	16.1
2025-01-10 18:54:42.202865	25.5	87.3	-91.8	23.6
2025-01-10 18:54:43.354657	17.1	86.9	-91.8	23.2
2025-01-10 18:54:44.507311	10.6	86.5	-92.5	14.8
2025-01-10 18:54:45.659391	5.5	86.0	-92.7	21.3
2025-01-10 18:54:46.813270	1.6	85.5	-91.5	22.3
2025-01-10 18:54:47.976526	358.4	85.0	-92.3	13.4
2025-01-10 18:54:49.131992	355.8	84.5	-92.2	15.0
2025-01-10 18:54:50.286754	353.7	83.9	-92.5	24.4
2025-01-10 18:54:51.447467	351.9	83.4	-92.8	15.0
2025-01-10 18:54:52.604470	350.4	82.9	-92.9	12.9
2025-01-10 18:54:53.757697	349.1	82.3	-92.7	25.3
2025-01-10 18:54:54.913166	348.0	81.8	-91.8	16.9
2025-01-10 18:54:56.069781	347.0	81.2	-91.7	14.7
2025-01-10 18:54:57.219527	346.2	80.7	-91.6	24.4
2025-01-10 18:54:58.369994	345.4	80.1	-92.2	20.5
2025-01-10 18:54:59.531107	344.7	79.6	-93.0	13.4
2025-01-10 18:55:00.674043	344.1	79.1	-91.8	21.1
2025-01-10 18:55:01.831357	343.6	78.5	-91.9	20.6
2025-01-10 18:55:02.984407	343.1	78.0	-91.5	14.5
2025-01-10 18:55:04.139657	342.6	77.4	-91.8	16.2
2025-01-10 18:55:05.287367	342.2	76.9	-91.9	22.9
2025-01-10 18:55:06.442804	341.8	76.3	-91.7	15.3
2025-01-10 18:55:07.589448	341.5	75.8	-92.1	15.2
2025-01-10 18:55:08.745806	341.1	75.3	-91.6	21.4
2025-01-10 18:55:09.904215	340.8	74.7	-92.2	15.4
2025-01-10 18:55:11.061946	340.6	74.2	-89.4	9.5
2025-01-10 18:55:12.220672	340.3	73.6	-91.5	14.2
2025-01-10 18:55:13.377779	340.1	73.1	-92.1	14.0
2025-01-10 18:55:14.533344	339.8	72.6	-93.0	9.6
2025-01-10 18:55:15.683958	339.6	72.1	-92.2	16.5
2025-01-10 18:55:16.846431	339.4	71.5	-92.8	16.6
2025-01-10 18:55:18.000541	339.2	71.0	-93.4	11.3
2025-01-10 18:55:19.152337	339.1	70.5	-91.8	13.8
2025-01-10 18:55:20.303408	338.9	70.0	-92.7	17.6
2025-01-10 18:55:21.458579	338.7	69.5	-91.8	11.1
2025-01-10 18:55:22.609931	338.6	68.9	-92.3	11.1
2025-01-10 18:55:23.764909	338.4	68.4	-91.5	14.8
2025-01-10 18:55:24.921077	338.3	67.9	-91.9	11.0
2025-01-10 18:55:26.079048	338.2	67.4	-90.8	11.4
2025-01-10 18:55:27.239638	338.1	66.9	-91.4	20.7
2025-01-10 18:55:28.394228	337.9	66.4	-91.5	13.2
2025-01-10 18:55:29.550791	337.8	65.9	-91.8	9.5
2025-01-10 18:55:30.703265	337.7	65.4	-91.8	22.2
2025-01-10 18:55:31.857443	337.6	64.9	-92.0	21.2
2025-01-10 18:55:33.012614	337.5	64.5	-92.2	13.9
2025-01-10 18:55:34.163093	337.4	64.0	-91.5	21.9
2025-01-10 18:55:35.317599	337.4	63.5	-91.8	20.8
2025-01-10 18:55:36.465758	337.3	63.0	-92.3	14.6
2025-01-10 18:55:37.623334	337.2	62.6	-92.8	16.6
2025-01-10 18:55:38.783240	337.1	62.1	-92.8	22.7
2025-01-10 18:55:39.933024	337.0	61.6	-93.3	15.2
2025-01-10 18:55:41.084405	337.0	61.2	-92.3	17.9
2025-01-10 18:55:42.237381	336.9	60.7	-92.5	24.1
2025-01-10 18:55:43.390722	336.8	60.2	-92.4	20.5
2025-01-10 18:55:44.545454	336.8	59.8	-92.7	20.1
2025-01-10 18:55:45.704791	336.7	59.3	-92.4	23.7
2025-01-10 18:55:46.857411	336.7	58.9	-93.0	24.5
2025-01-10 18:55:48.009370	336.6	58.4	-92.9	23.0
2025-01-10 18:55:49.161602	336.5	58.0	-91.9	22.5
2025-01-10 18:55:50.321393	336.5	57.6	-91.7	19.3
2025-01-10 18:55:51.474165	336.4	57.1	-92.8	20.7
2025-01-10 18:55:52.628617	336.4	56.7	-92.7	22.6
2025-01-10 18:55:53.791707	336.3	56.3	-92.5	20.0
2025-01-10 18:55:54.947238	336.3	55.8	-93.1	19.8
2025-01-10 18:55:56.100391	336.2	55.4	-92.4	15.7
2025-01-10 18:55:57.259541	336.2	55.0	-92.6	17.8
2025-01-10 18:55:58.416333	336.2	54.6	-92.6	15.2
2025-01-10 18:55:59.572714	336.1	54.2	-92.5	11.7
2025-01-10 18:56:00.716000	336.1	53.8	-92.6	16.2
2025-01-10 18:56:01.867554	336.0	53.3	-92.5	12.8
2025-01-10 18:56:03.015678	336.0	52.9	-93.2	6.3
2025-01-10 18:56:04.171211	336.0	52.5	-92.8	11.9
2025-01-10 18:56:05.325848	335.9	52.2	-92.5	12.7
2025-01-10 18:56:06.486482	335.9	51.8	-92.8	6.8
2025-01-10 18:56:07.646029	335.9	51.4	-91.3	6.2
2025-01-10 18:56:08.800499	335.8	51.0	-92.5	12.0
2025-01-10 18:56:09.953700	335.8	50.6	-92.8	5.2
2025-01-10 18:56:11.106343	335.8	50.2	-92.6	5.3
2025-01-10 18:56:12.261674	335.8	49.8	-92.2	7.9
2025-01-10 18:56:13.418884	335.7	49.5	-92.6	11.1
2025-01-10 18:56:14.581885	335.7	49.1	-92.7	10.9
2025-01-10 18:56:15.744720	335.7	48.7	-93.2	6.3
2025-01-10 18:56:16.896473	335.6	48.4	-93.0	12.5
2025-01-10 18:56:18.055903	335.6	48.0	-92.5	15.7
2025-01-10 18:56:19.207185	335.6	47.6	-92.7	17.5
2025-01-10 18:56:20.354396	335.6	47.3	-93.0	16.2
2025-01-10 18:56:21.508334	335.5	46.9	-93.2	18.7
2025-01-10 18:56:22.657124	335.5	46.6	-92.7	19.1
2025-01-10 18:56:23.798688	335.5	46.2	-93.2	18.6
2025-01-10 18:56:24.953676	335.5	45.9	-93.1	15.2
2025-01-10 18:56:26.110782	335.5	45.5	-92.5	9.2
2025-01-10 18:56:27.259720	335.4	45.2	-92.3	15.3
2025-01-10 18:56:28.411826	335.4	44.9	-92.3	6.6
2025-01-10 18:56:29.563046	335.4	44.5	-92.8	15.4
2025-01-10 18:56:30.716612	335.4	44.2	-93.2	23.4
2025-01-10 18:56:31.858323	335.4	43.9	-92.6	21.3
2025-01-10 18:56:33.020326	335.3	43.6	-92.6	15.3
2025-01-10 18:56:34.174357	335.3	43.2	-92.5	20.9
2025-01-10 18:56:35.335396	335.3	42.9	-92.4	22.6
2025-01-10 18:56:36.482918	335.3	42.6	-93.1	22.6
2025-01-10 18:56:37.639537	335.3	42.3	-93.1	20.6
2025-01-10 18:56:38.792048	335.3	42.0	-92.5	18.8
2025-01-10 18:56:39.946856	335.3	41.7	-92.7	20.4
2025-01-10 18:56:41.100387	335.2	41.4	-91.7	17.6
2025-01-10 18:56:42.250098	335.2	41.1	-92.2	16.2
2025-01-10 18:56:43.395454	335.2	40.8	-92.3	15.1
2025-01-10 18:56:44.546847	335.2	40.5	-92.9	10.5
2025-01-10 18:56:45.700015	335.2	40.2	-92.8	19.3
2025-01-10 18:56:46.855812	335.2	39.9	-92.5	19.0
2025-01-10 18:56:48.003194	335.2	39.6	-92.0	7.6
2025-01-10 18:56:49.157361	335.1	39.3	-91.1	9.0
2025-01-10 18:56:50.316062	335.1	39.0	-92.0	13.2
2025-01-10 18:56:51.464321	335.1	38.7	-92.8	12.4
2025-01-10 18:56:52.614120	335.1	38.4	-92.5	12.8
2025-01-10 18:56:53.765704	335.1	38.2	-92.3	17.3
2025-01-10 18:56:54.917096	335.1	37.9	-93.1	15.7
2025-01-10 18:56:56.078368	335.1	37.6	-92.6	15.7
2025-01-10 18:56:57.229645	335.1	37.3	-92.6	6.2
2025-01-10 18:56:58.380915	335.1	37.1	-92.7	15.6
2025-01-10 18:56:59.531446	335.0	36.8	-92.4	15.5
2025-01-10 18:57:00.671106	335.0	36.5	-93.0	11.4
2025-01-10 18:57:01.826299	335.0	36.3	-92.9	15.0
2025-01-10 18:57:02.974928	335.0	36.0	-92.7	8.3
2025-01-10 18:57:04.133792	335.0	35.7	-92.4	13.2
2025-01-10 18:57:05.289548	335.0	35.5	-92.0	14.4
2025-01-10 18:57:06.447805	335.0	35.2	-92.5	12.9
2025-01-10 18:57:07.600380	335.0	35.0	-92.3	11.7
2025-01-10 18:57:08.759574	335.0	34.7	-92.3	17.3
2025-01-10 18:57:09.908116	335.0	34.5	-92.9	17.0
2025-01-10 18:57:11.057545	335.0	34.2	-91.9	14.1
2025-01-10 18:57:12.206667	334.9	34.0	-92.0	12.7
2025-01-10 18:57:13.364649	334.9	33.7	-92.3	12.5
2025-01-10 18:57:14.515434	334.9	33.5	-92.7	13.3
2025-01-10 18:57:15.671665	334.9	33.2	-92.4	14.5
2025-01-10 18:57:16.825262	334.9	33.0	-92.8	14.8
2025-01-10 18:57:17.982871	334.9	32.8	-93.1	7.6
2025-01-10 18:57:19.139052	334.9	32.5	-92.7	10.0
2025-01-10 18:57:20.298896	334.9	32.3	-92.7	13.2
2025-01-10 18:57:21.449123	334.9	32.1	-93.2	7.4
2025-01-10 18:57:22.606596	334.9	31.8	-92.6	6.1
2025-01-10 18:57:23.763910	334.9	31.6	-92.9	12.5
2025-01-10 18:57:24.920490	334.9	31.4	-93.2	10.0
2025-01-10 18:57:26.080657	334.9	31.2	-92.5	9.3
2025-01-10 18:57:27.242094	334.9	30.9	-92.0	14.8
2025-01-10 18:57:28.393720	334.9	30.7	-92.2	15.4
2025-01-10 18:57:29.544887	334.8	30.5	-93.0	15.4
2025-01-10 18:57:30.695001	334.8	30.3	-93.0	13.2
2025-01-10 18:57:31.853299	334.8	30.1	-93.1	14.6
2025-01-10 18:57:33.003524	334.8	29.8	-92.6	11.9
2025-01-10 18:57:34.151241	334.8	29.6	-91.9	9.4
2025-01-10 18:57:35.302948	334.8	29.4	-92.0	13.2
2025-01-10 18:57:36.456316	334.8	29.2	-92.7	8.4
2025-01-10 18:57:37.615310	334.8	29.0	-92.9	8.8
2025-01-10 18:57:38.761982	334.8	28.8	-92.9	11.8
2025-01-10 18:57:39.915225	334.8	28.6	-92.8	10.3
2025-01-10 18:57:41.071748	334.8	28.4	-91.9	8.3
2025-01-10 18:57:42.227622	334.8	28.2	-92.2	10.5
2025-01-10 18:57:43.375997	334.8	28.0	-92.2	8.3
2025-01-10 18:57:44.527322	334.8	27.8	-92.6	9.0
2025-01-10 18:57:45.680683	334.8	27.6	-91.3	8.8
2025-01-10 18:57:46.841085	334.8	27.4	-92.6	8.5
2025-01-10 18:57:47.990435	334.8	27.2	-92.9	5.7
2025-01-10 18:57:49.142315	334.8	27.0	-92.4	6.4
2025-01-10 18:57:50.295877	334.8	26.8	-92.3	6.8
2025-01-10 18:57:51.449741	334.8	26.6	-92.9	6.3
2025-01-10 18:57:52.609196	334.8	26.4	-93.0	5.6
2025-01-10 18:57:53.763348	334.8	26.2	-93.3	9.9
2025-01-10 18:57:54.915152	334.8	26.1	-92.4	8.1
2025-01-10 18:57:56.078363	334.8	25.9	-92.6	8.1
2025-01-10 18:57:57.238486	334.8	25.7	-92.8	12.0
2025-01-10 18:57:58.393230	334.7	25.5	-92.3	9.4
2025-01-10 18:57:59.546938	334.7	25.3	-92.7	15.4
2025-01-10 18:58:00.696169	334.7	25.1	-93.0	13.2
2025-01-10 18:58:01.851050	334.7	25.0	-92.9	11.0
2025-01-10 18:58:03.016424	334.7	24.8	-92.8	9.7
2025-01-10 18:58:04.163428	334.7	24.6	-92.5	13.3
2025-01-10 18:58:05.318309	334.7	24.4	-93.1	14.5
2025-01-10 18:58:06.466913	334.7	24.3	-92.8	6.1
2025-01-10 18:58:07.622465	334.7	24.1	-93.1	5.5
2025-01-10 18:58:08.776206	334.7	23.9	-92.6	8.8
2025-01-10 18:58:09.936721	334.7	23.7	-92.9	6.8
2025-01-10 18:58:11.089825	334.7	23.6	-92.3	5.9
2025-01-10 18:58:12.240442	334.7	23.4	-92.4	9.5
2025-01-10 18:58:13.388914	334.7	23.2	-92.5	8.7
2025-01-10 18:58:14.535954	334.7	23.1	-92.8	10.3
2025-01-10 18:58:15.688372	334.7	22.9	-92.8	13.3
2025-01-10 18:58:16.847943	334.7	22.7	-92.9	12.5
2025-01-10 18:58:18.014289	334.7	22.6	-92.8	6.8
2025-01-10 18:58:19.166906	334.7	22.4	-92.3	10.6
2025-01-10 18:58:20.326986	334.7	22.2	-92.1	11.2
2025-01-10 18:58:21.482037	334.7	22.1	-92.5	4.9
2025-01-10 18:58:22.628702	334.7	21.9	-93.0	6.6
2025-01-10 18:58:23.779345	334.7	21.8	-93.1	9.7
2025-01-10 18:58:24.931588	334.7	21.6	-92.7	7.3
2025-01-10 18:58:26.090423	334.7	21.4	-92.0	9.5
2025-01-10 18:58:27.253207	334.7	21.3	-92.4	9.9
2025-01-10 18:58:28.408358	334.7	21.1	-92.8	10.6
2025-01-10 18:58:29.568809	334.7	21.0	-92.6	9.5
2025-01-10 18:58:30.721549	334.7	20.8	-93.0	8.9
2025-01-10 18:58:31.873158	334.7	20.7	-93.2	4.7
2025-01-10 18:58:33.029194	334.7	20.5	-92.7	7.3
2025-01-10 18:58:34.177773	334.7	20.4	-92.8	9.8
2025-01-10 18:58:35.327797	334.7	20.2	-92.6	7.3
2025-01-10 18:58:36.484142	334.7	20.1	-92.9	5.9
2025-01-10 18:58:37.622380	334.7	19.9	-93.1	7.9
2025-01-10 18:58:38.742791	334.7	19.8	-92.0	7.2
2025-01-10 18:58:39.862613	334.7	19.6	-92.4	4.4
2025-01-10 18:58:40.983814	334.7	19.5	-93.0	4.0
2025-01-10 18:58:42.105824	334.7	19.4	-92.5	4.4
2025-01-10 18:58:43.228144	334.7	19.2	-92.2	2.6
2025-01-10 18:58:44.348723	334.7	19.1	-92.4	2.6
2025-01-10 18:58:45.476106	334.7	18.9	-92.0	5.0
2025-01-10 18:58:46.628902	334.7	18.8	-91.8	5.3
2025-01-10 18:58:47.775887	334.7	18.7	-91.9	4.6
2025-01-10 18:58:48.937438	334.7	18.5	-91.5	4.6
2025-01-10 18:58:50.090986	334.7	18.4	-92.3	5.5
2025-01-10 18:58:51.238446	334.7	18.2	-92.2	5.6
2025-01-10 18:58:52.387295	334.7	18.1	-92.5	4.5
2025-01-10 18:58:53.541788	334.7	18.0	-92.8	7.1
2025-01-10 18:58:54.694892	334.7	17.8	-93.1	4.6
2025-01-10 18:58:55.845456	334.7	17.7	-92.7	8.2
2025-01-10 18:58:57.008258	334.7	17.6	-92.9	3.4
2025-01-10 18:58:58.166091	334.7	17.4	-92.4	4.2
2025-01-10 18:58:59.319926	334.7	17.3	-92.7	6.2
2025-01-10 18:59:00.462843	334.7	17.2	-93.0	5.3
2025-01-10 18:59:01.617307	334.7	17.0	-93.0	6.6
2025-01-10 18:59:02.773403	334.7	16.9	-93.4	6.3
2025-01-10 18:59:03.935366	334.7	16.8	-93.1	5.0
2025-01-10 18:59:05.086136	334.7	16.6	-92.7	4.9
2025-01-10 18:59:06.242811	334.7	16.5	-92.8	6.4
2025-01-10 18:59:07.409291	334.7	16.4	-93.1	5.8
2025-01-10 18:59:08.571066	334.7	16.2	-93.0	5.4
2025-01-10 18:59:09.722273	334.7	16.1	-93.1	4.3
2025-01-10 18:59:10.877286	334.7	16.0	-93.3	2.9
2025-01-10 18:59:12.027695	334.7	15.9	-92.7	4.8
2025-01-10 18:59:13.180731	334.7	15.7	-92.7	6.5
2025-01-10 18:59:14.329488	334.7	15.6	-92.9	5.0
2025-01-10 18:59:15.488752	334.7	15.5	-93.2	3.1
2025-01-10 18:59:16.641892	334.7	15.4	-93.1	5.4
2025-01-10 18:59:17.795192	334.7	15.3	-93.1	4.5
2025-01-10 18:59:18.949098	334.7	15.1	-92.7	4.3
2025-01-10 18:59:20.102806	334.7	15.0	-92.1	5.2
2025-01-10 18:59:21.256565	334.7	14.9	-92.2	5.4
2025-01-10 18:59:22.418034	334.7	14.8	-92.7	4.8
2025-01-10 18:59:23.566624	334.7	14.6	-91.7	4.6
2025-01-10 18:59:24.721080	334.7	14.5	-92.8	8.3
#Closed at: 2025-01-10 18:50:02.632120