passes_logs/2025/01/10/LEX_Murmansk/LEX_Murmansk__20250110_082356_NOAA_19_rec.log

#Pass ID: 20250110_082356_NOAA 19
#Satellite: NOAA 19
#Configuration: NOAA 19
#Start time: 2025-01-10 08:23:51.385834

#LorettStation: 1.0.0 05.05.2024
#Station: LEX_Murmansk
#Location: 33.156738 lon 68.926811 lat
#TLE: 1 33591U 09005A   25009.90667525  .00000313  00000+0  19132-3 0  9996
#TLE: 2 33591  99.0207  73.6295 0014600  71.1816 289.0938 14.13255869820561

#Time	Az	El	Level	SNR
2025-01-10 08:24:03.578300	28.0	16.3	-90.5	6.0
2025-01-10 08:24:04.725077	28.1	16.4	-90.8	3.2
2025-01-10 08:24:05.886860	28.1	16.6	-90.6	2.9
2025-01-10 08:24:07.039034	28.2	16.7	-90.2	5.6
2025-01-10 08:24:08.187690	28.2	16.8	-90.1	2.3
2025-01-10 08:24:09.339468	28.3	16.9	-90.6	3.6
2025-01-10 08:24:10.488318	28.3	17.1	-90.1	3.6
2025-01-10 08:24:11.633198	28.4	17.2	-90.9	2.1
2025-01-10 08:24:12.778738	28.4	17.3	-91.2	2.9
2025-01-10 08:24:13.925348	28.5	17.5	-91.1	4.9
2025-01-10 08:24:15.069117	28.5	17.6	-90.7	6.5
2025-01-10 08:24:16.218241	28.6	17.7	-90.8	10.4
2025-01-10 08:24:17.363008	28.6	17.9	-90.8	5.5
2025-01-10 08:24:18.510176	28.7	18.0	-90.8	2.3
2025-01-10 08:24:19.661641	28.7	18.1	-91.0	6.2
2025-01-10 08:24:20.808984	28.8	18.3	-90.9	5.8
2025-01-10 08:24:21.953853	28.8	18.4	-90.3	6.7
2025-01-10 08:24:23.105626	28.9	18.5	-90.4	10.6
2025-01-10 08:24:24.255449	28.9	18.7	-90.7	2.4
2025-01-10 08:24:25.403558	29.0	18.8	-91.3	1.8
2025-01-10 08:24:26.546194	29.0	18.9	-90.9	2.5
2025-01-10 08:24:27.691066	29.1	19.1	-91.2	4.1
2025-01-10 08:24:28.841111	29.2	19.2	-90.9	2.8
2025-01-10 08:24:29.986974	29.2	19.4	-91.0	3.8
2025-01-10 08:24:31.132487	29.3	19.5	-90.9	8.6
2025-01-10 08:24:32.282304	29.3	19.7	-90.7	8.8
2025-01-10 08:24:33.431792	29.4	19.8	-91.1	7.8
2025-01-10 08:24:34.576087	29.4	19.9	-90.7	6.4
2025-01-10 08:24:35.722283	29.5	20.1	-91.2	5.5
2025-01-10 08:24:36.867164	29.6	20.2	-91.0	6.2
2025-01-10 08:24:38.014136	29.6	20.4	-90.7	13.5
2025-01-10 08:24:39.161486	29.7	20.5	-90.8	9.8
2025-01-10 08:24:40.312258	29.7	20.7	-90.9	4.9
2025-01-10 08:24:41.458982	29.8	20.8	-90.8	4.7
2025-01-10 08:24:42.605277	29.9	21.0	-90.8	2.2
2025-01-10 08:24:43.747800	29.9	21.1	-90.8	2.6
2025-01-10 08:24:44.895153	30.0	21.3	-91.0	3.5
2025-01-10 08:24:46.047123	30.0	21.4	-90.8	3.9
2025-01-10 08:24:47.197553	30.1	21.6	-90.7	9.2
2025-01-10 08:24:48.339067	30.2	21.7	-90.5	9.2
2025-01-10 08:24:49.484210	30.2	21.9	-90.9	8.8
2025-01-10 08:24:50.640176	30.3	22.1	-90.9	5.8
2025-01-10 08:24:51.798015	30.4	22.2	-91.2	2.2
2025-01-10 08:24:52.943706	30.4	22.4	-91.1	4.8
2025-01-10 08:24:54.084738	30.5	22.5	-90.9	7.9
2025-01-10 08:24:55.234642	30.6	22.7	-90.6	8.3
2025-01-10 08:24:56.390834	30.6	22.9	-91.3	5.9
2025-01-10 08:24:57.541936	30.7	23.0	-90.9	6.8
2025-01-10 08:24:58.686651	30.8	23.2	-91.0	2.8
2025-01-10 08:24:59.833691	30.9	23.3	-91.4	3.2
2025-01-10 08:25:00.978922	30.9	23.5	-91.2	5.0
2025-01-10 08:25:02.127729	31.0	23.7	-91.0	6.2
2025-01-10 08:25:03.279126	31.1	23.8	-91.0	8.0
2025-01-10 08:25:04.424440	31.1	24.0	-91.0	5.9
2025-01-10 08:25:05.572088	31.2	24.2	-91.2	8.0
2025-01-10 08:25:06.719450	31.3	24.3	-91.0	7.8
2025-01-10 08:25:07.864553	31.4	24.5	-91.0	5.3
2025-01-10 08:25:09.017369	31.4	24.7	-91.1	6.2
2025-01-10 08:25:10.162525	31.5	24.9	-90.8	9.3
2025-01-10 08:25:11.309558	31.6	25.0	-91.0	7.4
2025-01-10 08:25:12.456131	31.7	25.2	-91.2	5.1
2025-01-10 08:25:13.596145	31.8	25.4	-91.4	5.5
2025-01-10 08:25:14.746895	31.8	25.6	-91.3	2.9
2025-01-10 08:25:15.897378	31.9	25.8	-91.3	2.8
2025-01-10 08:25:17.046256	32.0	25.9	-91.0	1.8
2025-01-10 08:25:18.198809	32.1	26.1	-91.3	2.6
2025-01-10 08:25:19.345640	32.2	26.3	-91.4	5.9
2025-01-10 08:25:20.496780	32.3	26.5	-91.0	4.6
2025-01-10 08:25:21.644516	32.3	26.7	-91.3	8.2
2025-01-10 08:25:22.792399	32.4	26.9	-91.4	5.9
2025-01-10 08:25:23.943103	32.5	27.0	-91.6	4.7
2025-01-10 08:25:25.093848	32.6	27.2	-90.8	2.0
2025-01-10 08:25:26.246828	32.7	27.4	-90.7	6.0
2025-01-10 08:25:27.390588	32.8	27.6	-91.2	4.3
2025-01-10 08:25:28.541500	32.9	27.8	-90.6	4.6
2025-01-10 08:25:29.690758	33.0	28.0	-91.0	4.1
2025-01-10 08:25:30.843034	33.1	28.2	-91.0	3.2
2025-01-10 08:25:31.992965	33.2	28.4	-91.4	3.9
2025-01-10 08:25:33.139586	33.2	28.6	-90.9	4.0
2025-01-10 08:25:34.285404	33.3	28.8	-90.8	1.8
2025-01-10 08:25:35.430437	33.4	29.0	-90.9	5.4
2025-01-10 08:25:36.584941	33.5	29.2	-91.1	7.7
2025-01-10 08:25:37.731369	33.6	29.4	-91.2	6.5
2025-01-10 08:25:38.887407	33.7	29.6	-91.0	8.7
2025-01-10 08:25:40.031615	33.8	29.8	-91.1	7.1
2025-01-10 08:25:41.177942	34.0	30.0	-90.9	3.8
2025-01-10 08:25:42.335828	34.1	30.2	-90.9	5.8
2025-01-10 08:25:43.483115	34.2	30.4	-90.9	8.6
2025-01-10 08:25:44.634073	34.3	30.6	-91.0	12.5
2025-01-10 08:25:45.776379	34.4	30.9	-90.7	10.9
2025-01-10 08:25:46.933816	34.5	31.1	-91.1	6.0
2025-01-10 08:25:48.081056	34.6	31.3	-90.9	2.5
2025-01-10 08:25:49.225049	34.7	31.5	-91.0	2.3
2025-01-10 08:25:50.372596	34.8	31.7	-91.2	3.5
2025-01-10 08:25:51.516293	35.0	31.9	-90.6	5.5
2025-01-10 08:25:52.670701	35.1	32.2	-90.5	4.8
2025-01-10 08:25:53.812089	35.2	32.4	-91.7	6.1
2025-01-10 08:25:54.955971	35.3	32.6	-91.1	9.9
2025-01-10 08:25:56.110133	35.4	32.8	-91.1	13.8
2025-01-10 08:25:57.255895	35.6	33.1	-91.0	8.5
2025-01-10 08:25:58.406195	35.7	33.3	-90.8	8.4
2025-01-10 08:25:59.554880	35.8	33.5	-91.0	7.9
2025-01-10 08:26:00.694718	35.9	33.8	-91.1	8.6
2025-01-10 08:26:01.851837	36.1	34.0	-91.1	13.0
2025-01-10 08:26:02.996281	36.2	34.2	-89.9	11.2
2025-01-10 08:26:04.146882	36.3	34.5	-90.5	12.6
2025-01-10 08:26:05.294307	36.5	34.7	-90.6	8.6
2025-01-10 08:26:06.447118	36.6	35.0	-91.3	6.5
2025-01-10 08:26:07.594370	36.8	35.2	-90.9	3.4
2025-01-10 08:26:08.738763	36.9	35.4	-91.3	2.6
2025-01-10 08:26:09.891465	37.1	35.7	-91.1	7.7
2025-01-10 08:26:11.038509	37.2	35.9	-90.3	8.5
2025-01-10 08:26:12.197451	37.4	36.2	-90.5	13.8
2025-01-10 08:26:13.347714	37.5	36.4	-90.5	16.5
2025-01-10 08:26:14.495382	37.7	36.7	-91.0	13.8
2025-01-10 08:26:15.644236	37.8	37.0	-90.8	9.8
2025-01-10 08:26:16.787714	38.0	37.2	-90.9	7.8
2025-01-10 08:26:17.937247	38.1	37.5	-90.9	7.3
2025-01-10 08:26:19.079597	38.3	37.7	-90.9	9.0
2025-01-10 08:26:20.229034	38.5	38.0	-90.8	13.7
2025-01-10 08:26:21.382637	38.6	38.3	-90.9	14.0
2025-01-10 08:26:22.527538	38.8	38.5	-91.3	13.2
2025-01-10 08:26:23.678981	39.0	38.8	-90.8	11.6
2025-01-10 08:26:24.826573	39.2	39.1	-90.8	4.6
2025-01-10 08:26:25.975921	39.3	39.3	-90.8	3.9
2025-01-10 08:26:27.121703	39.5	39.6	-91.0	5.0
2025-01-10 08:26:28.267970	39.7	39.9	-90.4	2.8
2025-01-10 08:26:29.411276	39.9	40.1	-91.1	6.8
2025-01-10 08:26:30.560946	40.1	40.4	-91.5	13.1
2025-01-10 08:26:31.708990	40.3	40.7	-91.0	14.8
2025-01-10 08:26:32.866737	40.5	41.0	-91.3	12.5
2025-01-10 08:26:34.017154	40.7	41.3	-91.1	13.9
2025-01-10 08:26:35.163904	40.9	41.6	-90.9	8.6
2025-01-10 08:26:36.310056	41.1	41.9	-91.0	7.2
2025-01-10 08:26:37.463502	41.3	42.1	-91.0	9.0
2025-01-10 08:26:38.613897	41.5	42.4	-91.1	12.4
2025-01-10 08:26:39.766633	41.8	42.7	-91.2	14.0
2025-01-10 08:26:40.912862	42.0	43.0	-91.3	15.0
2025-01-10 08:26:42.059745	42.2	43.3	-90.5	13.1
2025-01-10 08:26:43.206133	42.4	43.6	-90.8	13.3
2025-01-10 08:26:44.350920	42.7	43.9	-90.7	7.1
2025-01-10 08:26:45.499733	42.9	44.2	-91.3	7.2
2025-01-10 08:26:46.655629	43.2	44.5	-91.1	2.4
2025-01-10 08:26:47.808679	43.4	44.8	-91.4	2.9
2025-01-10 08:26:48.962205	43.7	45.1	-91.5	6.5
2025-01-10 08:26:50.103971	43.9	45.4	-91.1	7.1
2025-01-10 08:26:51.255484	44.2	45.8	-90.9	9.6
2025-01-10 08:26:52.401119	44.5	46.1	-90.9	14.0
2025-01-10 08:26:53.550787	44.8	46.4	-91.1	16.3
2025-01-10 08:26:54.702140	45.0	46.7	-91.0	12.1
2025-01-10 08:26:55.850799	45.3	47.0	-91.4	5.4
2025-01-10 08:26:56.998525	45.6	47.3	-91.5	6.4
2025-01-10 08:26:58.148193	45.9	47.7	-91.1	5.9
2025-01-10 08:26:59.294840	46.2	48.0	-91.1	3.6
2025-01-10 08:27:00.434023	46.5	48.3	-91.4	5.4
2025-01-10 08:27:01.575572	46.9	48.6	-91.2	3.1
2025-01-10 08:27:02.722621	47.2	49.0	-91.3	4.9
2025-01-10 08:27:03.871229	47.5	49.3	-91.5	7.4
2025-01-10 08:27:05.020151	47.8	49.6	-90.9	6.6
2025-01-10 08:27:06.171824	48.2	50.0	-91.1	5.4
2025-01-10 08:27:07.316000	48.6	50.3	-91.3	4.4
2025-01-10 08:27:08.464134	48.9	50.6	-91.1	4.0
2025-01-10 08:27:09.611464	49.3	51.0	-91.0	3.1
2025-01-10 08:27:10.755206	49.7	51.3	-90.8	2.4
2025-01-10 08:27:11.902726	50.0	51.6	-90.8	3.7
2025-01-10 08:27:13.053167	50.4	52.0	-90.7	4.7
2025-01-10 08:27:14.199189	50.8	52.3	-90.6	8.8
2025-01-10 08:27:15.346285	51.3	52.6	-90.5	5.4
2025-01-10 08:27:16.495588	51.7	53.0	-90.7	5.5
2025-01-10 08:27:17.648133	52.1	53.3	-90.6	7.2
2025-01-10 08:27:18.801348	52.6	53.7	-91.0	12.4
2025-01-10 08:27:19.952219	53.0	54.0	-91.4	11.1
2025-01-10 08:27:21.100168	53.5	54.4	-91.0	7.0
2025-01-10 08:27:22.246239	54.0	54.7	-91.2	5.7
2025-01-10 08:27:23.390303	54.4	55.1	-91.2	3.8
2025-01-10 08:27:24.538253	54.9	55.4	-91.0	4.9
2025-01-10 08:27:25.683411	55.5	55.7	-91.3	11.1
2025-01-10 08:27:26.830617	56.0	56.1	-91.5	11.3
2025-01-10 08:27:27.985404	56.5	56.4	-90.8	7.3
2025-01-10 08:27:29.133362	57.1	56.8	-90.9	15.7
2025-01-10 08:27:30.280062	57.6	57.1	-90.7	8.4
2025-01-10 08:27:31.432740	58.2	57.5	-90.9	4.5
2025-01-10 08:27:32.581956	58.8	57.8	-91.1	7.2
2025-01-10 08:27:33.729333	59.4	58.1	-90.9	7.7
2025-01-10 08:27:34.879530	60.0	58.5	-91.2	6.7
2025-01-10 08:27:36.043363	60.7	58.8	-91.2	5.7
2025-01-10 08:27:37.201016	61.3	59.2	-91.0	4.0
2025-01-10 08:27:38.349106	62.0	59.5	-91.4	2.6
2025-01-10 08:27:39.495017	62.7	59.8	-91.2	11.6
2025-01-10 08:27:40.641910	63.4	60.2	-91.0	8.8
2025-01-10 08:27:41.792600	64.1	60.5	-91.0	13.9
2025-01-10 08:27:42.946049	64.9	60.8	-91.2	12.1
2025-01-10 08:27:44.095435	65.7	61.2	-90.9	16.4
2025-01-10 08:27:45.245080	66.4	61.5	-90.6	14.6
2025-01-10 08:27:46.388786	67.3	61.8	-90.8	11.2
2025-01-10 08:27:47.534089	68.1	62.1	-90.8	11.0
2025-01-10 08:27:48.679221	68.9	62.4	-90.4	10.9
2025-01-10 08:27:49.822993	69.8	62.7	-90.9	10.1
2025-01-10 08:27:50.989550	70.7	63.0	-91.2	8.8
2025-01-10 08:27:52.135066	71.6	63.3	-91.2	4.1
2025-01-10 08:27:53.281700	72.5	63.6	-90.7	6.8
2025-01-10 08:27:54.430232	73.5	63.9	-91.0	7.8
2025-01-10 08:27:55.578729	74.5	64.2	-91.2	7.4
2025-01-10 08:27:56.723811	75.5	64.5	-91.2	3.5
2025-01-10 08:27:57.869872	76.5	64.8	-90.8	12.7
2025-01-10 08:27:59.018232	77.6	65.0	-91.3	14.9
2025-01-10 08:28:00.163251	78.7	65.3	-91.2	9.9
2025-01-10 08:28:01.307296	79.8	65.5	-91.1	12.4
2025-01-10 08:28:02.456961	80.9	65.8	-91.1	16.6
2025-01-10 08:28:03.602351	82.1	66.0	-91.1	14.1
2025-01-10 08:28:04.749603	83.3	66.2	-91.3	15.2
2025-01-10 08:28:05.898525	84.5	66.5	-91.1	12.5
2025-01-10 08:28:07.048105	85.7	66.7	-91.1	5.5
2025-01-10 08:28:08.194640	87.0	66.9	-90.6	7.2
2025-01-10 08:28:09.342033	88.2	67.1	-90.6	6.5
2025-01-10 08:28:10.484021	89.5	67.2	-91.0	8.7
2025-01-10 08:28:11.631374	90.9	67.4	-91.1	4.9
2025-01-10 08:28:12.785360	92.2	67.6	-91.4	2.2
2025-01-10 08:28:13.931635	93.6	67.7	-91.3	5.9
2025-01-10 08:28:15.079419	95.0	67.8	-90.6	7.5
2025-01-10 08:28:16.230208	96.4	68.0	-90.7	1.6
2025-01-10 08:28:17.377773	97.8	68.1	-91.2	5.0
2025-01-10 08:28:18.526777	99.2	68.2	-91.2	4.9
2025-01-10 08:28:19.673315	100.7	68.3	-91.1	7.4
2025-01-10 08:28:20.818059	102.1	68.3	-91.4	4.6
2025-01-10 08:28:21.963808	103.6	68.4	-91.1	8.1
2025-01-10 08:28:23.120225	105.1	68.4	-91.2	7.8
2025-01-10 08:28:24.269338	106.5	68.5	-90.4	11.7
2025-01-10 08:28:25.416411	108.0	68.5	-90.9	6.8
2025-01-10 08:28:26.565010	109.5	68.5	-91.3	10.6
2025-01-10 08:28:27.710782	111.0	68.5	-91.2	7.9
2025-01-10 08:28:28.857094	112.5	68.5	-91.2	8.3
2025-01-10 08:28:30.003899	114.0	68.5	-91.3	11.7
2025-01-10 08:28:31.148480	115.4	68.4	-89.9	15.4
2025-01-10 08:28:32.300571	116.9	68.4	-90.7	12.2
2025-01-10 08:28:33.461103	118.4	68.3	-90.9	19.5
2025-01-10 08:28:34.612799	119.8	68.2	-91.0	11.2
2025-01-10 08:28:35.755081	121.3	68.1	-90.7	15.5
2025-01-10 08:28:36.903585	122.7	68.0	-90.8	20.7
2025-01-10 08:28:38.053025	124.1	67.9	-90.8	20.3
2025-01-10 08:28:39.200308	125.5	67.8	-90.7	15.4
2025-01-10 08:28:40.350853	126.9	67.6	-90.8	21.0
2025-01-10 08:28:41.498214	128.2	67.5	-91.0	12.0
2025-01-10 08:28:42.649977	129.6	67.3	-91.0	12.5
2025-01-10 08:28:43.796649	130.9	67.1	-91.2	20.2
2025-01-10 08:28:44.949526	132.2	66.9	-90.6	8.4
2025-01-10 08:28:46.103314	133.4	66.7	-90.7	10.8
2025-01-10 08:28:47.251945	134.7	66.5	-90.7	8.4
2025-01-10 08:28:48.400935	135.9	66.3	-90.8	7.5
2025-01-10 08:28:49.546431	137.1	66.1	-91.3	13.8
2025-01-10 08:28:50.689814	138.2	65.8	-91.0	16.9
2025-01-10 08:28:51.836920	139.4	65.6	-90.8	13.6
2025-01-10 08:28:52.990328	140.5	65.4	-90.8	12.8
2025-01-10 08:28:54.137992	141.6	65.1	-90.6	11.1
2025-01-10 08:28:55.291421	142.7	64.8	-90.9	11.1
2025-01-10 08:28:56.441011	143.7	64.6	-91.0	7.4
2025-01-10 08:28:57.587586	144.7	64.3	-90.8	14.3
2025-01-10 08:28:58.735510	145.7	64.0	-91.2	16.2
2025-01-10 08:28:59.885689	146.7	63.7	-91.1	12.9
2025-01-10 08:29:01.023264	147.6	63.4	-90.7	14.3
2025-01-10 08:29:02.173459	148.6	63.1	-90.6	17.2
2025-01-10 08:29:03.320525	149.5	62.8	-90.9	10.3
2025-01-10 08:29:04.468087	150.3	62.5	-90.7	7.2
2025-01-10 08:29:05.623569	151.2	62.2	-91.0	20.8
2025-01-10 08:29:06.772620	152.0	61.9	-91.0	10.3
2025-01-10 08:29:07.921248	152.8	61.6	-91.3	10.0
2025-01-10 08:29:09.069133	153.6	61.3	-91.0	13.8
2025-01-10 08:29:10.220731	154.4	60.9	-90.7	13.1
2025-01-10 08:29:11.368165	155.2	60.6	-90.8	13.1
2025-01-10 08:29:12.516186	155.9	60.3	-91.1	12.4
2025-01-10 08:29:13.666589	156.6	59.9	-91.3	19.4
2025-01-10 08:29:14.825168	157.3	59.6	-91.3	12.2
2025-01-10 08:29:15.969482	158.0	59.3	-90.6	4.6
2025-01-10 08:29:17.119693	158.6	58.9	-90.8	11.7
2025-01-10 08:29:18.272944	159.3	58.6	-90.9	16.5
2025-01-10 08:29:19.419411	159.9	58.3	-90.9	14.0
2025-01-10 08:29:20.565020	160.5	57.9	-91.0	14.2
2025-01-10 08:29:21.715884	161.1	57.6	-91.3	9.7
2025-01-10 08:29:22.866298	161.7	57.2	-91.0	4.4
2025-01-10 08:29:24.013385	162.3	56.9	-90.8	11.2
2025-01-10 08:29:25.162883	162.8	56.5	-91.1	13.3
2025-01-10 08:29:26.310007	163.4	56.2	-91.0	13.1
2025-01-10 08:29:27.458947	163.9	55.8	-91.6	8.8
2025-01-10 08:29:28.605689	164.4	55.5	-90.6	13.4
2025-01-10 08:29:29.761477	164.9	55.2	-91.3	7.9
2025-01-10 08:29:30.916091	165.4	54.8	-91.1	7.5
2025-01-10 08:29:32.064750	165.9	54.5	-90.9	10.4
2025-01-10 08:29:33.209350	166.4	54.1	-90.8	11.8
2025-01-10 08:29:34.365973	166.8	53.8	-90.5	12.7
2025-01-10 08:29:35.510664	167.3	53.4	-90.7	7.3
2025-01-10 08:29:36.654397	167.7	53.1	-90.8	13.3
2025-01-10 08:29:37.805183	168.1	52.7	-91.0	3.9
2025-01-10 08:29:38.952325	168.6	52.4	-91.2	5.4
2025-01-10 08:29:40.099688	169.0	52.1	-90.6	5.3
2025-01-10 08:29:41.246540	169.4	51.7	-91.2	8.9
2025-01-10 08:29:42.394156	169.8	51.4	-91.3	7.4
2025-01-10 08:29:43.538991	170.1	51.0	-91.3	2.4
2025-01-10 08:29:44.681812	170.5	50.7	-91.1	2.7
2025-01-10 08:29:45.829355	170.9	50.4	-90.9	4.8
2025-01-10 08:29:46.971562	171.2	50.0	-91.4	6.1
2025-01-10 08:29:48.116883	171.6	49.7	-91.0	6.1
2025-01-10 08:29:49.269118	171.9	49.4	-90.9	10.2
2025-01-10 08:29:50.422506	172.2	49.1	-90.9	7.7
2025-01-10 08:29:51.578680	172.6	48.7	-91.4	3.1
2025-01-10 08:29:52.725955	172.9	48.4	-91.0	10.1
2025-01-10 08:29:53.875080	173.2	48.1	-90.6	8.6
2025-01-10 08:29:55.023684	173.5	47.7	-91.1	7.5
2025-01-10 08:29:56.167105	173.8	47.4	-90.8	4.6
2025-01-10 08:29:57.332060	174.1	47.1	-90.7	15.6
2025-01-10 08:29:58.482203	174.4	46.8	-90.9	11.2
2025-01-10 08:29:59.629580	174.7	46.5	-91.0	12.3
2025-01-10 08:30:00.779754	175.0	46.1	-91.1	11.6
2025-01-10 08:30:01.933305	175.2	45.8	-91.0	13.0
2025-01-10 08:30:03.079355	175.5	45.5	-90.7	10.0
2025-01-10 08:30:04.246544	175.8	45.2	-90.9	14.5
2025-01-10 08:30:05.390399	176.0	44.9	-90.8	10.1
2025-01-10 08:30:06.543698	176.3	44.6	-91.0	4.1
2025-01-10 08:30:07.691806	176.5	44.3	-91.0	10.2
2025-01-10 08:30:08.841681	176.8	44.0	-90.9	9.3
2025-01-10 08:30:09.988422	177.0	43.7	-89.9	7.0
2025-01-10 08:30:11.136567	177.3	43.4	-90.6	5.9
2025-01-10 08:30:12.281221	177.5	43.1	-90.3	11.5
2025-01-10 08:30:13.430761	177.7	42.8	-90.4	8.0
2025-01-10 08:30:14.581455	177.9	42.5	-89.9	6.0
2025-01-10 08:30:15.735510	178.1	42.2	-90.3	12.9
2025-01-10 08:30:16.881403	178.4	41.9	-89.9	13.7
2025-01-10 08:30:18.031375	178.6	41.6	-90.8	13.1
2025-01-10 08:30:19.185863	178.8	41.3	-90.2	13.6
2025-01-10 08:30:20.328659	179.0	41.1	-90.1	8.7
2025-01-10 08:30:21.478912	179.2	40.8	-91.1	10.5
2025-01-10 08:30:22.633820	179.4	40.5	-90.9	9.4
2025-01-10 08:30:23.784873	179.6	40.2	-91.2	9.3
2025-01-10 08:30:24.930561	179.8	39.9	-91.2	5.0
2025-01-10 08:30:26.074696	179.9	39.7	-91.0	3.9
2025-01-10 08:30:27.219754	180.1	39.4	-90.8	11.4
2025-01-10 08:30:28.362439	180.3	39.1	-91.0	12.5
2025-01-10 08:30:29.514738	180.5	38.8	-90.9	5.0
2025-01-10 08:30:30.661141	180.7	38.6	-91.2	10.4
2025-01-10 08:30:31.810639	180.8	38.3	-91.5	11.3
2025-01-10 08:30:32.961443	181.0	38.0	-91.4	7.2
2025-01-10 08:30:34.102343	181.2	37.8	-90.9	8.4
2025-01-10 08:30:35.246477	181.3	37.5	-91.0	12.5
2025-01-10 08:30:36.386415	181.5	37.3	-90.7	9.6
2025-01-10 08:30:37.545490	181.7	37.0	-91.1	9.3
2025-01-10 08:30:38.694558	181.8	36.7	-91.3	11.9
2025-01-10 08:30:39.836768	182.0	36.5	-90.4	9.9
2025-01-10 08:30:40.992545	182.1	36.2	-90.6	9.8
2025-01-10 08:30:42.136652	182.3	36.0	-90.7	8.8
2025-01-10 08:30:43.285886	182.4	35.7	-90.3	9.8
2025-01-10 08:30:44.436971	182.6	35.5	-91.2	5.5
2025-01-10 08:30:45.590396	182.7	35.2	-90.9	6.2
2025-01-10 08:30:46.736410	182.9	35.0	-90.8	9.7
2025-01-10 08:30:47.881486	183.0	34.8	-91.4	7.9
2025-01-10 08:30:49.032864	183.1	34.5	-91.0	4.6
2025-01-10 08:30:50.179878	183.3	34.3	-90.9	10.1
2025-01-10 08:30:51.324070	183.4	34.0	-90.8	10.4
2025-01-10 08:30:52.478459	183.5	33.8	-91.1	8.1
2025-01-10 08:30:53.623245	183.7	33.6	-90.8	7.9
2025-01-10 08:30:54.782669	183.8	33.3	-91.4	10.3
2025-01-10 08:30:55.933544	183.9	33.1	-91.0	7.3
2025-01-10 08:30:57.082101	184.0	32.9	-90.9	10.1
2025-01-10 08:30:58.229814	184.2	32.7	-91.2	9.9
2025-01-10 08:30:59.381707	184.3	32.4	-90.9	9.8
2025-01-10 08:31:00.523462	184.4	32.2	-91.3	6.9
2025-01-10 08:31:01.675350	184.5	32.0	-90.5	5.6
2025-01-10 08:31:02.823748	184.6	31.8	-90.4	7.3
2025-01-10 08:31:03.974126	184.8	31.5	-90.4	3.7
2025-01-10 08:31:05.123927	184.9	31.3	-90.4	6.5
2025-01-10 08:31:06.265775	185.0	31.1	-90.4	7.4
2025-01-10 08:31:07.418774	185.1	30.9	-90.8	5.2
2025-01-10 08:31:08.560027	185.2	30.7	-90.7	5.7
2025-01-10 08:31:09.709809	185.3	30.5	-89.8	6.3
2025-01-10 08:31:10.869922	185.4	30.2	-91.1	3.6
2025-01-10 08:31:12.030565	185.5	30.0	-91.0	3.3
2025-01-10 08:31:13.178538	185.6	29.8	-90.6	3.8
2025-01-10 08:31:14.332032	185.7	29.6	-90.5	2.7
2025-01-10 08:31:15.481954	185.8	29.4	-90.4	4.6
2025-01-10 08:31:16.626209	185.9	29.2	-90.2	3.4
2025-01-10 08:31:17.780105	186.0	29.0	-90.1	5.1
2025-01-10 08:31:18.935430	186.1	28.8	-90.5	2.4
2025-01-10 08:31:20.087761	186.2	28.6	-89.9	2.8
2025-01-10 08:31:21.239901	186.3	28.4	-88.9	6.6
2025-01-10 08:31:22.390874	186.4	28.2	-90.6	5.1
2025-01-10 08:31:23.545255	186.5	28.0	-90.4	2.4
2025-01-10 08:31:24.689295	186.6	27.8	-90.5	8.5
2025-01-10 08:31:25.839453	186.7	27.6	-90.2	5.6
2025-01-10 08:31:26.988073	186.8	27.4	-91.0	6.5
2025-01-10 08:31:28.137663	186.9	27.2	-90.3	7.9
2025-01-10 08:31:29.288733	187.0	27.1	-90.7	8.1
2025-01-10 08:31:30.434890	187.1	26.9	-90.6	8.2
2025-01-10 08:31:31.582544	187.1	26.7	-90.2	5.4
2025-01-10 08:31:32.728946	187.2	26.5	-90.4	7.5
2025-01-10 08:31:33.875366	187.3	26.3	-90.3	4.8
2025-01-10 08:31:35.023946	187.4	26.1	-90.3	2.3
2025-01-10 08:31:36.177163	187.5	25.9	-90.4	5.8
2025-01-10 08:31:37.324755	187.6	25.8	-90.9	8.1
2025-01-10 08:31:38.475417	187.6	25.6	-91.1	4.7
2025-01-10 08:31:39.628830	187.7	25.4	-90.9	6.0
2025-01-10 08:31:40.776240	187.8	25.2	-91.0	7.0
2025-01-10 08:31:41.926578	187.9	25.0	-90.3	5.1
2025-01-10 08:31:43.074497	188.0	24.9	-89.7	2.9
2025-01-10 08:31:44.223772	188.0	24.7	-90.0	4.7
2025-01-10 08:31:45.382762	188.1	24.5	-90.5	6.0
2025-01-10 08:31:46.525961	188.2	24.4	-90.6	4.8
2025-01-10 08:31:47.676303	188.3	24.2	-90.2	4.0
2025-01-10 08:31:48.824317	188.3	24.0	-90.6	4.5
2025-01-10 08:31:49.974356	188.4	23.8	-90.5	2.7
2025-01-10 08:31:51.124428	188.5	23.7	-90.1	2.3
2025-01-10 08:31:52.275945	188.6	23.5	-90.3	7.5
2025-01-10 08:31:53.428094	188.6	23.3	-90.0	4.5
2025-01-10 08:31:54.581255	188.7	23.2	-90.4	5.7
2025-01-10 08:31:55.733061	188.8	23.0	-90.3	7.5
2025-01-10 08:31:56.880415	188.8	22.8	-90.3	9.6
2025-01-10 08:31:58.038352	188.9	22.7	-90.6	8.5
2025-01-10 08:31:59.188245	189.0	22.5	-90.9	11.2
2025-01-10 08:32:00.331736	189.0	22.4	-90.9	9.9
2025-01-10 08:32:01.482249	189.1	22.2	-90.7	8.4
2025-01-10 08:32:02.632343	189.2	22.0	-90.9	7.9
2025-01-10 08:32:03.778705	189.2	21.9	-91.3	5.0
2025-01-10 08:32:04.927263	189.3	21.7	-91.4	5.2
2025-01-10 08:32:06.084956	189.4	21.6	-90.8	2.9
2025-01-10 08:32:07.230549	189.4	21.4	-91.1	3.4
2025-01-10 08:32:08.381265	189.5	21.3	-91.2	4.1
2025-01-10 08:32:09.530425	189.6	21.1	-91.3	3.3
2025-01-10 08:32:10.676870	189.6	21.0	-91.3	5.8
2025-01-10 08:32:11.824575	189.7	20.8	-91.0	8.7
2025-01-10 08:32:12.982681	189.7	20.7	-91.2	8.6
2025-01-10 08:32:14.134795	189.8	20.5	-91.0	9.3
2025-01-10 08:32:15.283134	189.9	20.4	-91.1	8.6
2025-01-10 08:32:16.429365	189.9	20.2	-90.5	5.4
2025-01-10 08:32:17.576966	190.0	20.1	-91.2	3.7
2025-01-10 08:32:18.730886	190.0	19.9	-91.2	10.4
2025-01-10 08:32:19.885932	190.1	19.8	-91.1	5.3
2025-01-10 08:32:21.033588	190.1	19.6	-91.1	6.5
2025-01-10 08:32:22.183434	190.2	19.5	-90.6	8.5
2025-01-10 08:32:23.330947	190.3	19.4	-90.9	8.8
2025-01-10 08:32:24.480413	190.3	19.2	-90.9	7.1
2025-01-10 08:32:25.629168	190.4	19.1	-91.0	6.3
2025-01-10 08:32:26.773714	190.4	18.9	-91.4	6.6
2025-01-10 08:32:27.929545	190.5	18.8	-90.9	7.2
2025-01-10 08:32:29.069504	190.5	18.7	-90.6	6.1
2025-01-10 08:32:30.228263	190.6	18.5	-90.3	4.7
2025-01-10 08:32:31.377112	190.6	18.4	-90.3	2.6
2025-01-10 08:32:32.532429	190.7	18.2	-90.7	1.1
2025-01-10 08:32:33.684834	190.7	18.1	-90.5	4.7
2025-01-10 08:32:34.830055	190.8	18.0	-90.9	2.2
2025-01-10 08:32:35.981268	190.8	17.8	-90.9	1.7
2025-01-10 08:32:37.123728	190.9	17.7	-90.6	3.7
2025-01-10 08:32:38.271378	190.9	17.6	-90.8	7.2
2025-01-10 08:32:39.420042	191.0	17.4	-90.8	6.3
2025-01-10 08:32:40.578967	191.0	17.3	-90.9	6.4
2025-01-10 08:32:41.721918	191.1	17.2	-91.2	7.4
2025-01-10 08:32:42.866344	191.1	17.0	-91.1	6.7
2025-01-10 08:32:44.013713	191.2	16.9	-91.3	5.1
2025-01-10 08:32:45.160360	191.2	16.8	-91.2	5.9
2025-01-10 08:32:46.309669	191.3	16.7	-90.8	4.3
2025-01-10 08:32:47.458031	191.3	16.5	-91.2	3.8
2025-01-10 08:32:48.602956	191.4	16.4	-91.3	4.5
2025-01-10 08:32:49.751574	191.4	16.3	-91.1	4.7
2025-01-10 08:32:50.903189	191.5	16.1	-91.5	4.7
2025-01-10 08:32:52.062694	191.5	16.0	-91.4	4.7
2025-01-10 08:32:53.206218	191.6	15.9	-91.1	4.9
2025-01-10 08:32:54.352842	191.6	15.8	-91.3	5.0
2025-01-10 08:32:55.501042	191.7	15.7	-91.1	4.3
2025-01-10 08:32:56.646970	191.7	15.5	-91.3	3.3
2025-01-10 08:32:57.803298	191.7	15.4	-91.3	3.6
2025-01-10 08:32:58.947367	191.8	15.3	-91.6	2.9
2025-01-10 08:33:00.104874	191.8	15.2	-89.9	3.6
2025-01-10 08:33:01.238357	191.9	15.0	-90.9	2.9
2025-01-10 08:33:02.390713	191.9	14.9	-91.4	2.7
2025-01-10 08:33:03.650068	192.0	14.8	-90.7	2.4
2025-01-10 08:33:04.802247	192.0	14.7	-91.0	3.0
2025-01-10 08:33:05.958358	192.0	14.6	-91.3	1.9
2025-01-10 08:33:07.103940	192.1	14.4	-91.2	3.1
#Closed at: 2025-01-10 08:23:56.385378