passes_logs/2025/01/10/LEX_Murmansk/LEX_Murmansk__20250110_103058_NOAA_18_rec.log

#Pass ID: 20250110_103058_NOAA 18
#Satellite: NOAA 18
#Configuration: NOAA 18
#Start time: 2025-01-10 10:30:53.410231

#LorettStation: 1.0.0 05.05.2024
#Station: LEX_Murmansk
#Location: 33.156738 lon 68.926811 lat
#TLE: 1 28654U 05018A   25009.85378120  .00000357  00000+0  21312-3 0  9995
#TLE: 2 28654  98.8576  90.9590 0014108 193.6372 166.4421 14.13482291 12379

#Time	Az	El	Level	SNR
2025-01-10 10:31:05.692058	24.2	16.3	-90.4	4.8
2025-01-10 10:31:06.850746	24.1	16.4	-90.8	6.4
2025-01-10 10:31:08.002962	24.1	16.6	-90.7	5.0
2025-01-10 10:31:09.166634	24.1	16.7	-90.6	7.6
2025-01-10 10:31:10.322114	24.1	16.8	-90.6	3.3
2025-01-10 10:31:11.481724	24.0	17.0	-90.5	9.1
2025-01-10 10:31:12.639913	24.0	17.1	-90.6	5.0
2025-01-10 10:31:13.793990	24.0	17.2	-90.7	7.3
2025-01-10 10:31:14.952436	23.9	17.3	-90.8	10.6
2025-01-10 10:31:16.113612	23.9	17.5	-90.9	10.3
2025-01-10 10:31:17.273617	23.9	17.6	-90.9	10.6
2025-01-10 10:31:18.436865	23.8	17.7	-90.6	12.9
2025-01-10 10:31:19.594157	23.8	17.9	-90.6	11.2
2025-01-10 10:31:20.756418	23.8	18.0	-91.0	10.3
2025-01-10 10:31:21.919023	23.7	18.2	-90.7	14.8
2025-01-10 10:31:23.075296	23.7	18.3	-90.5	12.9
2025-01-10 10:31:24.241985	23.7	18.4	-90.6	10.1
2025-01-10 10:31:25.404567	23.6	18.6	-90.5	10.2
2025-01-10 10:31:26.565443	23.6	18.7	-90.8	12.6
2025-01-10 10:31:27.726889	23.5	18.8	-91.3	6.1
2025-01-10 10:31:28.886070	23.5	19.0	-90.7	6.1
2025-01-10 10:31:30.046902	23.5	19.1	-90.9	14.9
2025-01-10 10:31:31.203591	23.4	19.3	-91.1	15.0
2025-01-10 10:31:32.365125	23.4	19.4	-90.9	13.4
2025-01-10 10:31:33.535177	23.4	19.6	-90.8	10.8
2025-01-10 10:31:34.691674	23.3	19.7	-90.9	8.7
2025-01-10 10:31:35.857043	23.3	19.8	-90.9	12.6
2025-01-10 10:31:37.013472	23.2	20.0	-91.2	14.6
2025-01-10 10:31:38.167569	23.2	20.1	-90.6	13.3
2025-01-10 10:31:39.324571	23.2	20.3	-90.3	13.8
2025-01-10 10:31:40.483044	23.1	20.4	-90.6	13.9
2025-01-10 10:31:41.643893	23.1	20.6	-90.8	9.3
2025-01-10 10:31:42.798738	23.0	20.7	-90.6	6.1
2025-01-10 10:31:43.955930	23.0	20.9	-91.0	10.7
2025-01-10 10:31:45.117648	22.9	21.0	-91.2	11.6
2025-01-10 10:31:46.281347	22.9	21.2	-91.3	10.6
2025-01-10 10:31:47.442133	22.9	21.3	-90.6	15.0
2025-01-10 10:31:48.600909	22.8	21.5	-91.0	10.5
2025-01-10 10:31:49.768761	22.8	21.7	-90.8	10.8
2025-01-10 10:31:50.931511	22.7	21.8	-90.5	10.7
2025-01-10 10:31:52.091382	22.7	22.0	-90.7	13.8
2025-01-10 10:31:53.253346	22.6	22.1	-90.8	10.9
2025-01-10 10:31:54.415371	22.6	22.3	-90.6	13.5
2025-01-10 10:31:55.577322	22.5	22.5	-90.7	12.4
2025-01-10 10:31:56.732859	22.5	22.6	-90.8	10.6
2025-01-10 10:31:57.890201	22.4	22.8	-90.8	8.2
2025-01-10 10:31:59.046042	22.4	22.9	-91.0	13.6
2025-01-10 10:32:00.207512	22.3	23.1	-91.1	6.3
2025-01-10 10:32:01.350971	22.3	23.3	-90.9	7.8
2025-01-10 10:32:02.510514	22.2	23.4	-90.8	14.8
2025-01-10 10:32:03.670613	22.2	23.6	-90.6	16.0
2025-01-10 10:32:04.837933	22.1	23.8	-90.9	13.9
2025-01-10 10:32:05.995647	22.1	23.9	-90.3	14.6
2025-01-10 10:32:07.150561	22.0	24.1	-90.2	11.7
2025-01-10 10:32:08.304861	22.0	24.3	-90.9	11.2
2025-01-10 10:32:09.466134	21.9	24.5	-89.7	12.6
2025-01-10 10:32:10.625981	21.9	24.6	-90.3	14.5
2025-01-10 10:32:11.785103	21.8	24.8	-90.0	14.7
2025-01-10 10:32:12.940359	21.8	25.0	-90.2	13.4
2025-01-10 10:32:14.096637	21.7	25.2	-90.5	13.7
2025-01-10 10:32:15.266074	21.6	25.3	-90.1	6.7
2025-01-10 10:32:16.426125	21.6	25.5	-90.0	10.2
2025-01-10 10:32:17.580094	21.5	25.7	-90.2	11.2
2025-01-10 10:32:18.746059	21.5	25.9	-90.3	8.2
2025-01-10 10:32:19.905851	21.4	26.1	-91.1	12.3
2025-01-10 10:32:21.069912	21.3	26.3	-91.2	10.5
2025-01-10 10:32:22.234252	21.3	26.4	-91.0	10.9
2025-01-10 10:32:23.391698	21.2	26.6	-90.7	8.0
2025-01-10 10:32:24.549830	21.2	26.8	-90.8	11.7
2025-01-10 10:32:25.711634	21.1	27.0	-90.9	9.7
2025-01-10 10:32:26.869938	21.0	27.2	-91.1	10.2
2025-01-10 10:32:28.024742	21.0	27.4	-91.0	10.1
2025-01-10 10:32:29.182795	20.9	27.6	-91.1	9.0
2025-01-10 10:32:30.343957	20.8	27.8	-91.1	5.3
2025-01-10 10:32:31.505163	20.8	28.0	-90.8	8.0
2025-01-10 10:32:32.662741	20.7	28.2	-91.1	4.6
2025-01-10 10:32:33.821367	20.6	28.4	-91.1	2.8
2025-01-10 10:32:34.976865	20.5	28.6	-91.1	8.3
2025-01-10 10:32:36.135998	20.5	28.8	-91.1	8.4
2025-01-10 10:32:37.293029	20.4	29.0	-91.3	9.2
2025-01-10 10:32:38.456598	20.3	29.2	-91.1	10.0
2025-01-10 10:32:39.612468	20.3	29.4	-91.0	10.7
2025-01-10 10:32:40.777471	20.2	29.6	-91.6	8.7
2025-01-10 10:32:41.936425	20.1	29.8	-91.4	9.3
2025-01-10 10:32:43.095618	20.0	30.0	-91.5	10.7
2025-01-10 10:32:44.252494	19.9	30.2	-91.4	13.3
2025-01-10 10:32:45.412710	19.9	30.4	-91.1	11.7
2025-01-10 10:32:46.574594	19.8	30.7	-90.9	11.5
2025-01-10 10:32:47.728128	19.7	30.9	-91.7	7.5
2025-01-10 10:32:48.890734	19.6	31.1	-91.6	5.7
2025-01-10 10:32:50.050208	19.5	31.3	-91.4	11.5
2025-01-10 10:32:51.218292	19.4	31.5	-91.4	4.6
2025-01-10 10:32:52.374984	19.3	31.8	-91.3	7.3
2025-01-10 10:32:53.536465	19.3	32.0	-90.9	10.7
2025-01-10 10:32:54.690887	19.2	32.2	-91.3	11.8
2025-01-10 10:32:55.850458	19.1	32.4	-91.4	11.7
2025-01-10 10:32:57.007968	19.0	32.7	-91.4	8.9
2025-01-10 10:32:58.168620	18.9	32.9	-91.3	8.8
2025-01-10 10:32:59.327202	18.8	33.1	-91.3	9.1
2025-01-10 10:33:00.476222	18.7	33.4	-91.2	14.6
2025-01-10 10:33:01.631157	18.6	33.6	-91.1	12.8
2025-01-10 10:33:02.791955	18.5	33.8	-91.5	15.1
2025-01-10 10:33:03.946292	18.4	34.1	-91.4	14.8
2025-01-10 10:33:05.106759	18.3	34.3	-91.6	13.5
2025-01-10 10:33:06.265317	18.2	34.6	-91.6	5.8
2025-01-10 10:33:07.427827	18.1	34.8	-91.4	11.3
2025-01-10 10:33:08.583590	18.0	35.1	-91.1	13.1
2025-01-10 10:33:09.753511	17.9	35.3	-91.6	8.7
2025-01-10 10:33:10.914019	17.7	35.6	-91.6	13.4
2025-01-10 10:33:12.080199	17.6	35.8	-91.3	13.9
2025-01-10 10:33:13.244042	17.5	36.1	-91.2	16.0
2025-01-10 10:33:14.405534	17.4	36.3	-91.0	13.9
2025-01-10 10:33:15.567255	17.3	36.6	-91.4	15.9
2025-01-10 10:33:16.724838	17.2	36.8	-91.3	11.0
2025-01-10 10:33:17.889873	17.0	37.1	-91.0	12.6
2025-01-10 10:33:19.046547	16.9	37.4	-91.1	17.8
2025-01-10 10:33:20.206755	16.8	37.6	-91.2	17.0
2025-01-10 10:33:21.364573	16.6	37.9	-91.1	15.7
2025-01-10 10:33:22.525367	16.5	38.2	-90.9	15.1
2025-01-10 10:33:23.684018	16.4	38.4	-91.1	9.3
2025-01-10 10:33:24.848052	16.2	38.7	-91.5	8.3
2025-01-10 10:33:26.005353	16.1	39.0	-91.5	12.5
2025-01-10 10:33:27.162316	16.0	39.3	-91.2	10.0
2025-01-10 10:33:28.319431	15.8	39.5	-90.9	11.2
2025-01-10 10:33:29.482311	15.7	39.8	-91.0	17.0
2025-01-10 10:33:30.641815	15.5	40.1	-91.0	18.9
2025-01-10 10:33:31.805495	15.4	40.4	-91.0	19.0
2025-01-10 10:33:32.963134	15.2	40.7	-91.2	19.1
2025-01-10 10:33:34.127209	15.1	41.0	-91.2	18.5
2025-01-10 10:33:35.288301	14.9	41.3	-91.4	15.3
2025-01-10 10:33:36.448995	14.7	41.6	-91.0	17.6
2025-01-10 10:33:37.605058	14.6	41.8	-91.0	18.8
2025-01-10 10:33:38.759871	14.4	42.1	-91.0	18.3
2025-01-10 10:33:39.915548	14.2	42.4	-91.5	18.1
2025-01-10 10:33:41.076900	14.0	42.7	-91.2	17.6
2025-01-10 10:33:42.236977	13.9	43.0	-90.9	9.7
2025-01-10 10:33:43.409130	13.7	43.4	-90.8	11.9
2025-01-10 10:33:44.568685	13.5	43.7	-91.2	16.6
2025-01-10 10:33:45.726033	13.3	44.0	-91.2	6.7
2025-01-10 10:33:46.887802	13.1	44.3	-91.5	11.6
2025-01-10 10:33:48.042840	12.9	44.6	-91.5	20.5
2025-01-10 10:33:49.205915	12.7	44.9	-91.5	17.5
2025-01-10 10:33:50.364180	12.5	45.2	-91.1	18.4
2025-01-10 10:33:51.523966	12.3	45.6	-91.1	19.7
2025-01-10 10:33:52.686571	12.1	45.9	-91.2	18.0
2025-01-10 10:33:53.845827	11.9	46.2	-91.5	15.8
2025-01-10 10:33:54.998713	11.6	46.5	-91.6	19.1
2025-01-10 10:33:56.146633	11.4	46.9	-91.3	16.6
2025-01-10 10:33:57.301484	11.2	47.2	-91.1	12.0
2025-01-10 10:33:58.461533	10.9	47.5	-89.9	14.7
2025-01-10 10:33:59.613425	10.7	47.9	-90.1	16.5
2025-01-10 10:34:00.760717	10.4	48.2	-90.0	18.0
2025-01-10 10:34:01.920038	10.2	48.5	-90.0	14.8
2025-01-10 10:34:03.088304	9.9	48.9	-89.9	16.7
2025-01-10 10:34:04.250286	9.6	49.2	-90.2	9.8
2025-01-10 10:34:05.414925	9.4	49.6	-90.9	12.3
2025-01-10 10:34:06.575519	9.1	49.9	-89.5	13.9
2025-01-10 10:34:07.733660	8.8	50.3	-90.3	7.3
2025-01-10 10:34:08.891857	8.5	50.6	-90.0	7.6
2025-01-10 10:34:10.056116	8.2	51.0	-89.8	6.4
2025-01-10 10:34:11.214958	7.9	51.3	-90.2	7.6
2025-01-10 10:34:12.376901	7.6	51.7	-90.0	12.2
2025-01-10 10:34:13.536362	7.3	52.0	-90.0	14.7
2025-01-10 10:34:14.699112	6.9	52.4	-90.6	16.1
2025-01-10 10:34:15.855451	6.6	52.8	-89.7	11.7
2025-01-10 10:34:17.012163	6.2	53.1	-90.5	15.9
2025-01-10 10:34:18.167390	5.9	53.5	-90.1	11.5
2025-01-10 10:34:19.327965	5.5	53.9	-89.7	10.3
2025-01-10 10:34:20.493181	5.1	54.2	-89.9	9.1
2025-01-10 10:34:21.657004	4.7	54.6	-90.2	6.1
2025-01-10 10:34:22.818428	4.3	55.0	-90.5	8.1
2025-01-10 10:34:23.982749	3.9	55.3	-90.2	6.8
2025-01-10 10:34:25.145616	3.5	55.7	-90.7	13.9
2025-01-10 10:34:26.303617	3.1	56.1	-90.3	13.3
2025-01-10 10:34:27.465549	2.6	56.5	-89.8	11.7
2025-01-10 10:34:28.625423	2.2	56.8	-89.8	14.1
2025-01-10 10:34:29.790909	1.7	57.2	-90.1	8.7
2025-01-10 10:34:30.951417	1.2	57.6	-90.3	12.0
2025-01-10 10:34:32.109022	0.7	58.0	-90.3	10.9
2025-01-10 10:34:33.274819	0.2	58.4	-91.6	5.7
2025-01-10 10:34:34.435091	359.7	58.7	-91.2	5.7
2025-01-10 10:34:35.592142	359.2	59.1	-90.9	16.1
2025-01-10 10:34:36.755100	358.6	59.5	-91.2	18.1
2025-01-10 10:34:37.912817	358.0	59.9	-91.1	20.7
2025-01-10 10:34:39.070658	357.5	60.2	-91.1	21.8
2025-01-10 10:34:40.235866	356.8	60.6	-91.0	18.8
2025-01-10 10:34:41.394597	356.2	61.0	-91.0	18.7
2025-01-10 10:34:42.555136	355.6	61.4	-91.0	19.3
2025-01-10 10:34:43.709735	354.9	61.7	-91.2	10.4
2025-01-10 10:34:44.874894	354.2	62.1	-91.3	8.0
2025-01-10 10:34:46.037630	353.5	62.5	-91.2	11.4
2025-01-10 10:34:47.202321	352.8	62.9	-91.4	11.3
2025-01-10 10:34:48.355784	352.1	63.2	-91.2	14.1
2025-01-10 10:34:49.517879	351.3	63.6	-91.3	20.7
2025-01-10 10:34:50.673104	350.5	64.0	-90.7	20.6
2025-01-10 10:34:51.837244	349.7	64.3	-91.1	22.3
2025-01-10 10:34:52.992987	348.8	64.7	-91.5	20.7
2025-01-10 10:34:54.154294	347.9	65.0	-91.4	17.9
2025-01-10 10:34:55.312567	347.0	65.4	-91.1	15.0
2025-01-10 10:34:56.473557	346.1	65.7	-90.8	13.8
2025-01-10 10:34:57.632851	345.1	66.1	-91.0	16.2
2025-01-10 10:34:58.786514	344.1	66.4	-89.9	8.8
2025-01-10 10:34:59.944750	343.1	66.7	-91.1	13.5
2025-01-10 10:35:01.085762	342.1	67.0	-91.3	18.7
2025-01-10 10:35:02.242682	341.0	67.4	-91.3	8.3
2025-01-10 10:35:03.400986	339.9	67.7	-91.1	12.0
2025-01-10 10:35:04.564222	338.7	68.0	-91.1	16.9
2025-01-10 10:35:05.723254	337.5	68.3	-91.5	8.7
2025-01-10 10:35:06.883297	336.3	68.6	-91.2	7.9
2025-01-10 10:35:08.041144	335.0	68.8	-90.7	12.6
2025-01-10 10:35:09.202318	333.7	69.1	-90.3	11.2
2025-01-10 10:35:10.356620	332.4	69.4	-90.5	8.5
2025-01-10 10:35:11.512210	331.0	69.6	-90.1	12.7
2025-01-10 10:35:12.672238	329.6	69.9	-90.5	10.6
2025-01-10 10:35:13.830559	328.2	70.1	-90.3	8.2
2025-01-10 10:35:14.991009	326.7	70.3	-90.6	10.6
2025-01-10 10:35:16.152084	325.2	70.5	-91.6	13.7
2025-01-10 10:35:17.307445	323.6	70.7	-91.3	11.8
2025-01-10 10:35:18.468653	322.1	70.9	-91.2	13.7
2025-01-10 10:35:19.626948	320.4	71.1	-91.1	14.0
2025-01-10 10:35:20.788233	318.8	71.2	-91.2	8.9
2025-01-10 10:35:21.954744	317.1	71.3	-91.5	12.1
2025-01-10 10:35:23.116899	315.4	71.5	-91.1	11.3
2025-01-10 10:35:24.273946	313.7	71.6	-91.6	6.8
2025-01-10 10:35:25.433308	312.0	71.7	-90.4	13.0
2025-01-10 10:35:26.592026	310.2	71.7	-89.7	13.1
2025-01-10 10:35:27.759220	308.4	71.8	-90.0	9.0
2025-01-10 10:35:28.915338	306.7	71.8	-90.2	16.7
2025-01-10 10:35:30.075281	304.9	71.9	-90.1	19.3
2025-01-10 10:35:31.232741	303.1	71.9	-90.2	14.0
2025-01-10 10:35:32.388326	301.3	71.9	-90.1	14.4
2025-01-10 10:35:33.548787	299.5	71.8	-90.1	17.9
2025-01-10 10:35:34.721765	297.7	71.8	-90.0	17.6
2025-01-10 10:35:35.879996	296.0	71.7	-89.9	18.4
2025-01-10 10:35:37.046107	294.2	71.7	-90.3	22.7
2025-01-10 10:35:38.202740	292.5	71.6	-90.0	21.3
2025-01-10 10:35:39.361098	290.8	71.5	-89.9	20.9
2025-01-10 10:35:40.517145	289.1	71.4	-89.7	24.0
2025-01-10 10:35:41.675180	287.4	71.2	-89.9	20.3
2025-01-10 10:35:42.827167	285.8	71.1	-91.0	22.9
2025-01-10 10:35:43.986718	284.2	70.9	-91.1	15.2
2025-01-10 10:35:45.144401	282.6	70.7	-91.1	19.9
2025-01-10 10:35:46.303579	281.0	70.5	-90.8	20.6
2025-01-10 10:35:47.460439	279.5	70.3	-90.7	21.5
2025-01-10 10:35:48.626731	278.0	70.1	-91.0	22.2
2025-01-10 10:35:49.790520	276.6	69.9	-91.2	21.1
2025-01-10 10:35:50.951387	275.1	69.6	-91.1	24.2
2025-01-10 10:35:52.113110	273.8	69.4	-91.0	23.0
2025-01-10 10:35:53.276869	272.4	69.1	-91.5	24.2
2025-01-10 10:35:54.436762	271.1	68.9	-91.3	22.1
2025-01-10 10:35:55.596768	269.8	68.6	-90.5	18.0
2025-01-10 10:35:56.770673	268.6	68.3	-90.2	22.7
2025-01-10 10:35:57.927663	267.4	68.0	-90.7	24.7
2025-01-10 10:35:59.089682	266.2	67.7	-90.4	24.1
2025-01-10 10:36:00.245957	265.1	67.4	-89.7	23.2
2025-01-10 10:36:01.397190	264.0	67.0	-90.1	23.4
2025-01-10 10:36:02.552077	263.0	66.7	-89.8	25.7
2025-01-10 10:36:03.704123	262.0	66.4	-90.1	25.4
2025-01-10 10:36:04.868403	261.0	66.1	-90.4	20.4
2025-01-10 10:36:06.041013	260.0	65.7	-90.1	25.0
2025-01-10 10:36:07.207302	259.0	65.4	-90.4	21.0
2025-01-10 10:36:08.362864	258.1	65.0	-90.2	21.2
2025-01-10 10:36:09.524226	257.2	64.7	-90.2	19.4
2025-01-10 10:36:10.679021	256.4	64.3	-90.0	20.4
2025-01-10 10:36:11.840818	255.6	63.9	-89.5	21.8
2025-01-10 10:36:12.996744	254.8	63.6	-90.1	17.8
2025-01-10 10:36:14.157569	254.0	63.2	-89.9	17.2
2025-01-10 10:36:15.319420	253.2	62.8	-90.3	17.5
2025-01-10 10:36:16.479760	252.5	62.5	-90.0	19.1
2025-01-10 10:36:17.634100	251.8	62.1	-90.1	15.9
2025-01-10 10:36:18.788258	251.1	61.7	-90.3	17.4
2025-01-10 10:36:19.951008	250.5	61.4	-90.4	20.3
2025-01-10 10:36:21.088769	249.8	61.0	-90.1	20.2
2025-01-10 10:36:22.250117	249.2	60.6	-89.8	19.0
2025-01-10 10:36:23.409045	248.6	60.2	-90.0	18.0
2025-01-10 10:36:24.576429	248.0	59.9	-89.8	17.6
2025-01-10 10:36:25.740925	247.4	59.5	-90.4	15.0
2025-01-10 10:36:26.894164	246.9	59.1	-90.6	14.2
2025-01-10 10:36:28.054254	246.3	58.7	-90.7	19.0
2025-01-10 10:36:29.210613	245.8	58.3	-90.6	11.9
2025-01-10 10:36:30.371058	245.3	58.0	-90.0	11.7
2025-01-10 10:36:31.528814	244.8	57.6	-90.1	13.3
2025-01-10 10:36:32.687856	244.3	57.2	-91.5	10.5
2025-01-10 10:36:33.834242	243.9	56.8	-91.2	9.1
2025-01-10 10:36:35.001115	243.4	56.4	-91.0	12.5
2025-01-10 10:36:36.155181	243.0	56.1	-91.2	14.0
2025-01-10 10:36:37.315761	242.5	55.7	-91.3	10.5
2025-01-10 10:36:38.473229	242.1	55.3	-90.9	14.4
2025-01-10 10:36:39.632291	241.7	54.9	-91.0	18.5
2025-01-10 10:36:40.792701	241.3	54.6	-91.6	9.1
2025-01-10 10:36:41.953795	240.9	54.2	-91.5	14.6
2025-01-10 10:36:43.109709	240.5	53.8	-91.3	14.9
2025-01-10 10:36:44.269560	240.2	53.5	-91.4	6.1
2025-01-10 10:36:45.427986	239.8	53.1	-91.0	12.2
2025-01-10 10:36:46.587089	239.5	52.7	-90.9	14.2
2025-01-10 10:36:47.752282	239.1	52.4	-91.1	11.3
2025-01-10 10:36:48.910369	238.8	52.0	-91.3	10.5
2025-01-10 10:36:50.063797	238.4	51.6	-91.4	9.0
2025-01-10 10:36:51.220958	238.1	51.3	-91.5	9.2
2025-01-10 10:36:52.375395	237.8	50.9	-91.3	10.0
2025-01-10 10:36:53.536117	237.5	50.6	-91.4	7.3
2025-01-10 10:36:54.691321	237.2	50.2	-91.4	10.0
2025-01-10 10:36:55.844657	236.9	49.9	-91.6	11.9
2025-01-10 10:36:57.005440	236.7	49.5	-91.6	12.5
2025-01-10 10:36:58.169688	236.4	49.2	-91.5	13.1
2025-01-10 10:36:59.324560	236.1	48.8	-90.3	11.9
2025-01-10 10:37:00.473166	235.9	48.5	-89.7	7.2
2025-01-10 10:37:01.623492	235.6	48.1	-89.9	9.0
2025-01-10 10:37:02.786399	235.3	47.8	-90.2	6.3
2025-01-10 10:37:03.947217	235.1	47.5	-90.4	3.7
2025-01-10 10:37:05.102073	234.9	47.1	-90.4	4.8
2025-01-10 10:37:06.003560	234.7	46.9	-91.7	5.4
2025-01-10 10:37:07.167171	234.4	46.5	-91.3	6.6
2025-01-10 10:37:08.323170	234.2	46.2	-91.1	1.8
2025-01-10 10:37:09.478285	234.0	45.9	-91.8	4.7
2025-01-10 10:37:10.640143	233.8	45.6	-91.5	6.6
2025-01-10 10:37:11.808004	233.6	45.2	-91.6	11.8
2025-01-10 10:37:12.966690	233.3	44.9	-91.6	6.5
2025-01-10 10:37:14.123070	233.1	44.6	-91.1	4.4
2025-01-10 10:37:15.286439	232.9	44.3	-91.1	5.0
2025-01-10 10:37:16.450702	232.7	44.0	-91.5	6.6
2025-01-10 10:37:17.611864	232.6	43.6	-91.6	5.3
2025-01-10 10:37:18.772574	232.4	43.3	-91.7	7.7
2025-01-10 10:37:19.932675	232.2	43.0	-91.5	9.7
2025-01-10 10:37:21.092651	232.0	42.7	-90.9	9.1
2025-01-10 10:37:22.257812	231.8	42.4	-90.6	7.1
2025-01-10 10:37:23.419152	231.6	42.1	-90.5	7.1
2025-01-10 10:37:24.578968	231.5	41.8	-90.5	4.8
2025-01-10 10:37:25.740996	231.3	41.5	-90.8	7.0
2025-01-10 10:37:26.899520	231.1	41.2	-90.3	7.4
2025-01-10 10:37:28.063091	231.0	40.9	-90.5	5.4
2025-01-10 10:37:29.217145	230.8	40.6	-90.5	7.3
2025-01-10 10:37:30.374949	230.7	40.3	-90.9	10.8
2025-01-10 10:37:31.536451	230.5	40.0	-90.9	8.6
2025-01-10 10:37:32.695506	230.4	39.8	-90.8	12.3
2025-01-10 10:37:33.853568	230.2	39.5	-91.6	16.5
2025-01-10 10:37:35.016580	230.1	39.2	-91.6	14.1
2025-01-10 10:37:36.178830	229.9	38.9	-91.1	8.9
2025-01-10 10:37:37.345423	229.8	38.6	-91.2	12.6
2025-01-10 10:37:38.509288	229.6	38.4	-91.4	15.4
2025-01-10 10:37:39.670253	229.5	38.1	-91.1	17.2
2025-01-10 10:37:40.827291	229.4	37.8	-91.2	19.5
2025-01-10 10:37:41.990490	229.2	37.5	-91.4	19.0
2025-01-10 10:37:43.150612	229.1	37.3	-91.4	18.6
2025-01-10 10:37:44.302000	229.0	37.0	-90.8	17.8
2025-01-10 10:37:45.462264	228.9	36.8	-91.3	13.5
2025-01-10 10:37:46.624784	228.7	36.5	-91.4	10.2
2025-01-10 10:37:47.782962	228.6	36.2	-91.5	10.4
2025-01-10 10:37:48.943092	228.5	36.0	-90.8	11.0
2025-01-10 10:37:50.107509	228.4	35.7	-90.9	9.8
2025-01-10 10:37:51.268103	228.3	35.5	-91.1	13.9
2025-01-10 10:37:52.428405	228.2	35.2	-91.8	14.9
2025-01-10 10:37:53.583495	228.0	35.0	-91.3	15.4
2025-01-10 10:37:54.748925	227.9	34.7	-91.2	15.3
2025-01-10 10:37:55.914950	227.8	34.5	-91.3	16.5
2025-01-10 10:37:57.080871	227.7	34.2	-91.1	15.9
2025-01-10 10:37:58.251575	227.6	34.0	-89.9	17.1
2025-01-10 10:37:59.416021	227.5	33.7	-89.9	14.5
2025-01-10 10:38:00.565357	227.4	33.5	-90.2	14.3
2025-01-10 10:38:01.733416	227.3	33.3	-89.9	15.4
2025-01-10 10:38:02.897069	227.2	33.0	-90.2	12.6
2025-01-10 10:38:04.059457	227.1	32.8	-90.2	8.4
2025-01-10 10:38:05.223692	227.0	32.5	-90.4	13.8
2025-01-10 10:38:06.380718	226.9	32.3	-89.9	13.0
2025-01-10 10:38:07.543320	226.8	32.1	-90.5	8.8
2025-01-10 10:38:08.698404	226.7	31.9	-90.3	15.6
2025-01-10 10:38:09.860572	226.6	31.6	-91.3	14.1
2025-01-10 10:38:11.018717	226.6	31.4	-91.2	11.3
2025-01-10 10:38:12.185253	226.5	31.2	-91.2	15.3
2025-01-10 10:38:13.339362	226.4	31.0	-91.2	15.3
2025-01-10 10:38:14.499519	226.3	30.7	-91.7	15.9
2025-01-10 10:38:15.660016	226.2	30.5	-91.6	16.2
2025-01-10 10:38:16.821277	226.1	30.3	-91.6	15.7
2025-01-10 10:38:17.976131	226.0	30.1	-91.7	12.0
2025-01-10 10:38:19.135463	226.0	29.9	-91.2	8.1
2025-01-10 10:38:20.294174	225.9	29.7	-91.4	6.9
2025-01-10 10:38:21.450656	225.8	29.5	-91.8	7.3
2025-01-10 10:38:22.616354	225.7	29.2	-91.9	5.8
2025-01-10 10:38:23.776930	225.7	29.0	-91.8	9.2
2025-01-10 10:38:24.936335	225.6	28.8	-91.6	7.9
2025-01-10 10:38:26.093845	225.5	28.6	-91.4	7.0
2025-01-10 10:38:27.254486	225.4	28.4	-91.5	8.2
2025-01-10 10:38:28.418498	225.4	28.2	-91.3	4.1
2025-01-10 10:38:29.578342	225.3	28.0	-91.9	2.8
2025-01-10 10:38:30.743646	225.2	27.8	-91.8	5.0
2025-01-10 10:38:31.906948	225.1	27.6	-91.6	3.8
2025-01-10 10:38:33.065893	225.1	27.4	-91.5	4.7
2025-01-10 10:38:34.221048	225.0	27.2	-91.2	6.6
2025-01-10 10:38:35.384819	224.9	27.0	-91.2	5.2
2025-01-10 10:38:36.542743	224.9	26.8	-91.7	3.8
2025-01-10 10:38:37.701187	224.8	26.7	-91.3	4.3
2025-01-10 10:38:38.868701	224.8	26.5	-91.4	6.3
2025-01-10 10:38:40.032057	224.7	26.3	-91.5	9.0
2025-01-10 10:38:41.194029	224.6	26.1	-91.4	6.1
2025-01-10 10:38:42.358526	224.6	25.9	-91.5	7.9
2025-01-10 10:38:43.518884	224.5	25.7	-91.7	8.5
2025-01-10 10:38:44.682564	224.4	25.5	-91.5	9.9
2025-01-10 10:38:45.837402	224.4	25.3	-91.7	6.5
2025-01-10 10:38:47.004841	224.3	25.2	-91.5	7.1
2025-01-10 10:38:48.160922	224.3	25.0	-91.4	4.4
2025-01-10 10:38:49.326438	224.2	24.8	-91.2	4.2
2025-01-10 10:38:50.489254	224.1	24.6	-91.2	6.9
2025-01-10 10:38:51.647181	224.1	24.5	-91.5	6.9
2025-01-10 10:38:52.812058	224.0	24.3	-91.4	12.0
2025-01-10 10:38:53.972856	224.0	24.1	-91.5	10.1
2025-01-10 10:38:55.135268	223.9	23.9	-90.9	10.9
2025-01-10 10:38:56.309177	223.9	23.8	-91.2	13.4
2025-01-10 10:38:57.470136	223.8	23.6	-91.7	12.1
2025-01-10 10:38:58.632197	223.8	23.4	-91.5	13.3
2025-01-10 10:38:59.788942	223.7	23.2	-91.7	13.9
2025-01-10 10:39:00.926894	223.7	23.1	-90.9	11.7
2025-01-10 10:39:02.083498	223.6	22.9	-91.3	9.0
2025-01-10 10:39:03.237471	223.6	22.7	-91.1	11.3
2025-01-10 10:39:04.397105	223.5	22.6	-91.4	9.6
2025-01-10 10:39:05.558071	223.5	22.4	-91.5	6.3
2025-01-10 10:39:06.720274	223.4	22.3	-91.2	9.9
2025-01-10 10:39:07.870806	223.4	22.1	-91.7	7.4
2025-01-10 10:39:09.025682	223.3	21.9	-91.5	9.8
2025-01-10 10:39:10.184860	223.3	21.8	-91.2	12.7
2025-01-10 10:39:11.342218	223.2	21.6	-91.2	12.2
2025-01-10 10:39:12.504246	223.2	21.5	-91.5	13.4
2025-01-10 10:39:13.684537	223.1	21.3	-91.4	13.7
2025-01-10 10:39:14.836746	223.1	21.1	-91.1	13.0
2025-01-10 10:39:16.012249	223.0	21.0	-91.4	14.4
2025-01-10 10:39:17.175932	223.0	20.8	-91.4	15.1
2025-01-10 10:39:18.337106	223.0	20.7	-91.1	14.8
2025-01-10 10:39:19.499151	222.9	20.5	-91.6	10.0
2025-01-10 10:39:20.672016	222.9	20.4	-91.6	12.1
2025-01-10 10:39:21.829266	222.8	20.2	-91.6	13.4
2025-01-10 10:39:22.987047	222.8	20.1	-91.5	11.3
2025-01-10 10:39:24.152556	222.8	19.9	-91.0	12.3
2025-01-10 10:39:25.314757	222.7	19.8	-91.1	13.1
2025-01-10 10:39:26.480034	222.7	19.6	-91.5	14.8
2025-01-10 10:39:27.643680	222.6	19.5	-91.3	10.4
2025-01-10 10:39:28.807605	222.6	19.3	-91.8	13.0
2025-01-10 10:39:29.971116	222.6	19.2	-91.9	10.2
2025-01-10 10:39:31.127630	222.5	19.0	-91.4	6.9
2025-01-10 10:39:32.288790	222.5	18.9	-91.2	11.3
2025-01-10 10:39:33.450424	222.4	18.8	-91.3	6.6
2025-01-10 10:39:34.614066	222.4	18.6	-91.4	5.4
2025-01-10 10:39:35.772509	222.4	18.5	-91.7	12.3
2025-01-10 10:39:36.933206	222.3	18.3	-91.4	8.9
2025-01-10 10:39:38.098409	222.3	18.2	-91.3	9.3
2025-01-10 10:39:39.255097	222.3	18.1	-91.2	11.2
2025-01-10 10:39:40.417820	222.2	17.9	-91.3	11.2
2025-01-10 10:39:41.579462	222.2	17.8	-91.5	10.2
2025-01-10 10:39:42.740116	222.1	17.6	-91.5	9.1
2025-01-10 10:39:43.903571	222.1	17.5	-91.5	6.8
2025-01-10 10:39:45.062622	222.1	17.4	-91.3	7.2
2025-01-10 10:39:46.223749	222.0	17.2	-91.3	9.1
2025-01-10 10:39:47.393299	222.0	17.1	-91.8	10.0
2025-01-10 10:39:48.546048	222.0	17.0	-91.7	6.4
2025-01-10 10:39:49.703258	221.9	16.8	-91.6	10.7
2025-01-10 10:39:50.866280	221.9	16.7	-91.2	9.9
2025-01-10 10:39:52.023282	221.9	16.6	-91.3	7.8
2025-01-10 10:39:53.182007	221.8	16.5	-90.9	6.3
2025-01-10 10:39:54.343897	221.8	16.3	-91.3	8.6
2025-01-10 10:39:55.505913	221.8	16.2	-91.8	10.3
2025-01-10 10:39:56.670657	221.8	16.1	-91.7	9.4
2025-01-10 10:39:57.830384	221.7	15.9	-91.7	9.7
2025-01-10 10:39:58.996566	221.7	15.8	-91.6	5.9
2025-01-10 10:40:00.152701	221.7	15.7	-91.2	5.8
2025-01-10 10:40:01.300309	221.6	15.6	-89.8	7.3
2025-01-10 10:40:02.458149	221.6	15.4	-90.3	6.1
2025-01-10 10:40:03.626766	221.6	15.3	-90.6	4.6
2025-01-10 10:40:04.785857	221.5	15.2	-90.5	8.6
2025-01-10 10:40:05.946962	221.5	15.1	-91.1	6.6
2025-01-10 10:40:07.111594	221.5	14.9	-90.1	5.9
2025-01-10 10:40:08.270836	221.5	14.8	-90.4	5.3
2025-01-10 10:40:09.432976	221.4	14.7	-90.3	3.5
2025-01-10 10:40:10.593248	221.4	14.6	-90.5	6.3
2025-01-10 10:40:11.755288	221.4	14.5	-90.5	6.2
#Closed at: 2025-01-10 10:30:58.479979