passes_logs/2025/01/10/LEX_Murmansk/LEX_Murmansk__20250110_182407_NOAA_19_rec.log

#Pass ID: 20250110_182407_NOAA 19
#Satellite: NOAA 19
#Configuration: NOAA 19
#Start time: 2025-01-10 18:24:02.480137

#LorettStation: 1.0.0 05.05.2024
#Station: LEX_Murmansk
#Location: 33.156738 lon 68.926811 lat
#TLE: 1 33591U 09005A   25009.90667525  .00000313  00000+0  19132-3 0  9996
#TLE: 2 33591  99.0207  73.6295 0014600  71.1816 289.0938 14.13255869820561

#Time	Az	El	Level	SNR
2025-01-10 18:24:14.598417	174.3	16.3	-91.1	1.6
2025-01-10 18:24:15.756317	174.4	16.4	-91.9	3.2
2025-01-10 18:24:16.914720	174.5	16.5	-91.7	2.6
2025-01-10 18:24:18.070018	174.5	16.7	-91.4	2.7
2025-01-10 18:24:19.218294	174.6	16.8	-91.5	3.2
2025-01-10 18:24:20.369878	174.6	16.9	-91.9	2.6
2025-01-10 18:24:21.530313	174.7	17.0	-92.1	5.4
2025-01-10 18:24:22.686534	174.8	17.2	-91.6	3.6
2025-01-10 18:24:23.839505	174.8	17.3	-91.6	4.7
2025-01-10 18:24:24.995746	174.9	17.4	-91.1	5.1
2025-01-10 18:24:26.146002	175.0	17.6	-91.7	5.1
2025-01-10 18:24:27.296361	175.0	17.7	-91.6	0.6
2025-01-10 18:24:28.445732	175.1	17.8	-91.9	1.7
2025-01-10 18:24:29.599454	175.2	18.0	-91.6	2.9
2025-01-10 18:24:30.758835	175.2	18.1	-92.0	2.5
2025-01-10 18:24:31.918025	175.3	18.2	-92.2	4.3
2025-01-10 18:24:33.072949	175.4	18.4	-91.6	4.4
2025-01-10 18:24:34.233710	175.4	18.5	-91.0	5.3
2025-01-10 18:24:35.397171	175.5	18.7	-91.6	5.6
2025-01-10 18:24:36.552408	175.6	18.8	-91.7	7.7
2025-01-10 18:24:37.707824	175.7	18.9	-90.4	1.1
2025-01-10 18:24:38.858080	175.7	19.1	-91.1	4.7
2025-01-10 18:24:40.010303	175.8	19.2	-90.9	4.7
2025-01-10 18:24:41.161882	175.9	19.3	-91.1	6.5
2025-01-10 18:24:42.316076	176.0	19.5	-91.6	4.6
2025-01-10 18:24:43.469572	176.0	19.6	-91.0	2.9
2025-01-10 18:24:44.630700	176.1	19.8	-92.3	1.8
2025-01-10 18:24:45.788257	176.2	19.9	-91.8	2.0
2025-01-10 18:24:46.952769	176.3	20.1	-91.9	1.1
2025-01-10 18:24:48.108741	176.3	20.2	-91.8	4.3
2025-01-10 18:24:49.259333	176.4	20.4	-90.9	4.4
2025-01-10 18:24:50.408748	176.5	20.5	-91.7	4.4
2025-01-10 18:24:51.563248	176.6	20.6	-91.9	5.8
2025-01-10 18:24:52.719246	176.7	20.8	-92.0	4.9
2025-01-10 18:24:53.880187	176.7	20.9	-91.9	2.4
2025-01-10 18:24:55.038674	176.8	21.1	-92.1	5.3
2025-01-10 18:24:56.192778	176.9	21.3	-91.8	6.7
2025-01-10 18:24:57.341884	177.0	21.4	-92.2	9.7
2025-01-10 18:24:58.504140	177.1	21.6	-91.1	6.6
2025-01-10 18:24:59.654469	177.2	21.7	-91.5	4.6
2025-01-10 18:25:00.796972	177.2	21.9	-90.5	2.3
2025-01-10 18:25:01.955860	177.3	22.0	-91.9	3.4
2025-01-10 18:25:03.113155	177.4	22.2	-91.8	4.2
2025-01-10 18:25:04.265729	177.5	22.3	-91.1	4.5
2025-01-10 18:25:05.424395	177.6	22.5	-92.0	9.2
2025-01-10 18:25:06.585073	177.7	22.7	-92.1	12.3
2025-01-10 18:25:07.742860	177.8	22.8	-91.1	9.0
2025-01-10 18:25:08.899498	177.9	23.0	-92.1	8.7
2025-01-10 18:25:10.052114	178.0	23.1	-90.1	6.7
2025-01-10 18:25:11.202413	178.1	23.3	-91.6	5.8
2025-01-10 18:25:12.357029	178.2	23.5	-90.7	8.1
2025-01-10 18:25:13.513696	178.2	23.6	-91.8	10.1
2025-01-10 18:25:14.668333	178.3	23.8	-92.2	9.3
2025-01-10 18:25:15.811751	178.4	24.0	-92.0	5.5
2025-01-10 18:25:16.966153	178.5	24.1	-91.4	2.5
2025-01-10 18:25:18.120331	178.6	24.3	-91.7	4.8
2025-01-10 18:25:19.271419	178.7	24.5	-91.6	2.2
2025-01-10 18:25:20.425515	178.8	24.6	-91.4	3.5
2025-01-10 18:25:21.585160	178.9	24.8	-92.1	8.2
2025-01-10 18:25:22.746246	179.0	25.0	-91.8	9.9
2025-01-10 18:25:23.905454	179.2	25.2	-91.2	10.5
2025-01-10 18:25:25.061529	179.3	25.3	-92.3	9.9
2025-01-10 18:25:26.216661	179.4	25.5	-92.1	5.9
2025-01-10 18:25:27.369153	179.5	25.7	-91.7	6.6
2025-01-10 18:25:28.528222	179.6	25.9	-91.7	8.1
2025-01-10 18:25:29.678852	179.7	26.0	-91.1	7.0
2025-01-10 18:25:30.841120	179.8	26.2	-91.5	10.4
2025-01-10 18:25:31.999582	179.9	26.4	-91.6	8.0
2025-01-10 18:25:33.161747	180.0	26.6	-92.0	3.6
2025-01-10 18:25:34.309111	180.2	26.8	-91.6	0.4
2025-01-10 18:25:35.460038	180.3	27.0	-92.0	3.1
2025-01-10 18:25:36.616539	180.4	27.1	-91.6	5.4
2025-01-10 18:25:37.776291	180.5	27.3	-89.7	4.5
2025-01-10 18:25:38.929001	180.6	27.5	-92.2	8.8
2025-01-10 18:25:40.093438	180.7	27.7	-91.8	12.4
2025-01-10 18:25:41.245514	180.9	27.9	-91.0	9.2
2025-01-10 18:25:42.411901	181.0	28.1	-91.7	7.8
2025-01-10 18:25:43.555763	181.1	28.3	-91.7	5.2
2025-01-10 18:25:44.708200	181.3	28.5	-91.8	4.8
2025-01-10 18:25:45.852381	181.4	28.7	-92.2	5.8
2025-01-10 18:25:47.006946	181.5	28.9	-91.7	7.2
2025-01-10 18:25:48.169533	181.6	29.1	-91.9	8.0
2025-01-10 18:25:49.324034	181.8	29.3	-90.9	3.1
2025-01-10 18:25:50.472741	181.9	29.5	-91.9	5.0
2025-01-10 18:25:51.631659	182.1	29.7	-91.3	3.4
2025-01-10 18:25:52.786190	182.2	29.9	-92.0	1.4
2025-01-10 18:25:53.940590	182.3	30.1	-91.6	1.5
2025-01-10 18:25:55.093563	182.5	30.3	-91.8	4.7
2025-01-10 18:25:56.243834	182.6	30.5	-91.8	6.0
2025-01-10 18:25:57.396161	182.8	30.7	-92.0	9.0
2025-01-10 18:25:58.545649	182.9	30.9	-91.8	11.0
2025-01-10 18:25:59.703863	183.1	31.1	-91.8	7.7
2025-01-10 18:26:00.846587	183.2	31.3	-91.8	5.7
2025-01-10 18:26:02.001457	183.4	31.5	-92.2	7.4
2025-01-10 18:26:03.157148	183.5	31.7	-91.8	5.8
2025-01-10 18:26:04.315048	183.7	32.0	-91.4	6.5
2025-01-10 18:26:05.477055	183.8	32.2	-91.6	9.9
2025-01-10 18:26:06.626334	184.0	32.4	-91.3	8.3
2025-01-10 18:26:07.781675	184.2	32.6	-91.8	7.3
2025-01-10 18:26:08.939985	184.3	32.8	-92.0	5.5
2025-01-10 18:26:10.098496	184.5	33.1	-91.9	2.9
2025-01-10 18:26:11.254054	184.7	33.3	-91.7	1.1
2025-01-10 18:26:12.406720	184.8	33.5	-91.7	4.6
2025-01-10 18:26:13.560750	185.0	33.7	-91.9	4.8
2025-01-10 18:26:14.707691	185.2	34.0	-92.1	8.6
2025-01-10 18:26:15.866380	185.4	34.2	-91.9	12.9
2025-01-10 18:26:17.027129	185.6	34.4	-91.8	12.5
2025-01-10 18:26:18.189930	185.7	34.7	-91.8	8.9
2025-01-10 18:26:19.350163	185.9	34.9	-92.0	5.8
2025-01-10 18:26:20.507437	186.1	35.1	-92.0	7.1
2025-01-10 18:26:21.665147	186.3	35.4	-92.2	6.1
2025-01-10 18:26:22.821963	186.5	35.6	-92.3	6.2
2025-01-10 18:26:23.978754	186.7	35.8	-91.4	8.2
2025-01-10 18:26:25.134876	186.9	36.1	-91.0	6.0
2025-01-10 18:26:26.299556	187.1	36.3	-92.1	5.4
2025-01-10 18:26:27.452307	187.3	36.6	-91.6	4.8
2025-01-10 18:26:28.609833	187.5	36.8	-92.1	3.4
2025-01-10 18:26:29.764744	187.7	37.1	-92.2	2.8
2025-01-10 18:26:30.920532	188.0	37.3	-92.4	3.2
2025-01-10 18:26:32.077715	188.2	37.6	-92.1	3.6
2025-01-10 18:26:33.240116	188.4	37.8	-91.9	3.6
2025-01-10 18:26:34.392833	188.6	38.1	-92.0	7.5
2025-01-10 18:26:35.549958	188.9	38.3	-92.0	7.6
2025-01-10 18:26:36.699912	189.1	38.6	-92.4	9.6
2025-01-10 18:26:37.856982	189.3	38.8	-92.4	6.8
2025-01-10 18:26:39.008559	189.6	39.1	-92.3	7.1
2025-01-10 18:26:40.164551	189.8	39.3	-92.1	6.6
2025-01-10 18:26:41.321849	190.1	39.6	-90.6	5.3
2025-01-10 18:26:42.476287	190.3	39.9	-92.3	11.3
2025-01-10 18:26:43.633280	190.6	40.1	-92.1	13.8
2025-01-10 18:26:44.791741	190.8	40.4	-91.3	14.7
2025-01-10 18:26:45.938462	191.1	40.7	-92.0	12.2
2025-01-10 18:26:47.096567	191.4	40.9	-91.8	7.4
2025-01-10 18:26:48.244690	191.6	41.2	-91.9	4.9
2025-01-10 18:26:49.406338	191.9	41.5	-91.6	5.1
2025-01-10 18:26:50.558226	192.2	41.7	-92.2	3.5
2025-01-10 18:26:51.716670	192.5	42.0	-92.1	3.6
2025-01-10 18:26:52.871019	192.8	42.3	-91.7	6.5
2025-01-10 18:26:54.024886	193.1	42.5	-92.3	12.7
2025-01-10 18:26:55.183988	193.4	42.8	-92.3	16.6
2025-01-10 18:26:56.335040	193.7	43.1	-91.8	18.0
2025-01-10 18:26:57.489584	194.0	43.4	-92.3	17.8
2025-01-10 18:26:58.646266	194.3	43.7	-92.4	14.7
2025-01-10 18:26:59.809850	194.6	43.9	-92.5	9.5
2025-01-10 18:27:00.952782	195.0	44.2	-91.5	11.4
2025-01-10 18:27:02.107325	195.3	44.5	-92.0	11.4
2025-01-10 18:27:03.268430	195.6	44.8	-90.7	9.0
2025-01-10 18:27:04.426190	196.0	45.1	-92.2	14.1
2025-01-10 18:27:05.575261	196.3	45.3	-92.2	16.1
2025-01-10 18:27:06.738052	196.7	45.6	-92.3	15.6
2025-01-10 18:27:07.891334	197.0	45.9	-91.7	13.8
2025-01-10 18:27:09.044671	197.4	46.2	-92.2	12.2
2025-01-10 18:27:10.204524	197.8	46.5	-91.6	5.1
2025-01-10 18:27:11.365493	198.2	46.8	-90.0	3.7
2025-01-10 18:27:12.515553	198.6	47.1	-92.1	6.1
2025-01-10 18:27:13.675518	199.0	47.4	-92.3	4.6
2025-01-10 18:27:14.831765	199.4	47.7	-91.9	5.7
2025-01-10 18:27:15.991923	199.8	47.9	-92.4	7.9
2025-01-10 18:27:17.137847	200.2	48.2	-91.9	10.0
2025-01-10 18:27:18.301761	200.6	48.5	-92.0	12.0
2025-01-10 18:27:19.454654	201.1	48.8	-92.3	8.6
2025-01-10 18:27:20.617487	201.5	49.1	-91.7	8.8
2025-01-10 18:27:21.774218	202.0	49.4	-90.3	5.9
2025-01-10 18:27:22.930992	202.5	49.7	-91.9	7.4
2025-01-10 18:27:24.086482	202.9	50.0	-92.2	9.2
2025-01-10 18:27:25.237905	203.4	50.3	-92.1	5.3
2025-01-10 18:27:26.392901	203.9	50.6	-90.4	6.9
2025-01-10 18:27:27.549616	204.4	50.9	-92.3	13.7
2025-01-10 18:27:28.700566	204.9	51.1	-91.1	10.9
2025-01-10 18:27:29.856580	205.4	51.4	-91.4	14.4
2025-01-10 18:27:31.010222	205.9	51.7	-91.7	15.9
2025-01-10 18:27:32.166420	206.5	52.0	-92.2	12.5
2025-01-10 18:27:33.321236	207.0	52.3	-92.1	9.8
2025-01-10 18:27:34.473195	207.6	52.6	-92.2	9.2
2025-01-10 18:27:35.631758	208.2	52.9	-91.1	5.8
2025-01-10 18:27:36.788131	208.7	53.2	-92.2	4.0
2025-01-10 18:27:37.948294	209.3	53.4	-92.1	5.6
2025-01-10 18:27:39.113636	210.0	53.7	-91.7	5.7
2025-01-10 18:27:40.263253	210.6	54.0	-91.7	3.8
2025-01-10 18:27:41.412567	211.2	54.3	-92.2	7.7
2025-01-10 18:27:42.565725	211.8	54.5	-92.0	11.1
2025-01-10 18:27:43.721864	212.5	54.8	-92.5	14.6
2025-01-10 18:27:44.881218	213.2	55.1	-92.1	17.4
2025-01-10 18:27:46.034441	213.8	55.4	-92.4	16.7
2025-01-10 18:27:47.191071	214.5	55.6	-91.9	18.2
2025-01-10 18:27:48.347323	215.2	55.9	-92.1	17.7
2025-01-10 18:27:49.512535	215.9	56.1	-92.2	18.6
2025-01-10 18:27:50.665898	216.7	56.4	-91.7	14.6
2025-01-10 18:27:51.825092	217.4	56.7	-92.1	12.1
2025-01-10 18:27:52.982711	218.2	56.9	-91.9	14.8
2025-01-10 18:27:54.140981	219.0	57.2	-92.1	17.1
2025-01-10 18:27:55.291180	219.7	57.4	-92.0	9.7
2025-01-10 18:27:56.447489	220.5	57.6	-91.7	12.9
2025-01-10 18:27:57.607853	221.4	57.9	-92.3	18.3
2025-01-10 18:27:58.765603	222.2	58.1	-91.5	15.8
2025-01-10 18:27:59.915599	223.0	58.3	-92.0	19.0
2025-01-10 18:28:01.060452	223.9	58.5	-91.6	19.3
2025-01-10 18:28:02.223436	224.7	58.8	-91.7	19.7
2025-01-10 18:28:03.378503	225.6	59.0	-91.9	20.7
2025-01-10 18:28:04.529091	226.5	59.2	-91.1	18.4
2025-01-10 18:28:05.687607	227.4	59.4	-92.3	16.5
2025-01-10 18:28:06.841709	228.3	59.6	-92.4	13.6
2025-01-10 18:28:07.991869	229.3	59.7	-92.2	15.2
2025-01-10 18:28:09.154817	230.2	59.9	-91.8	11.2
2025-01-10 18:28:10.310347	231.2	60.1	-90.2	5.2
2025-01-10 18:28:11.469258	232.2	60.3	-92.3	9.6
2025-01-10 18:28:12.631452	233.2	60.4	-92.0	11.0
2025-01-10 18:28:13.780724	234.2	60.6	-92.2	5.3
2025-01-10 18:28:14.936438	235.2	60.7	-92.1	9.3
2025-01-10 18:28:16.101457	236.2	60.8	-92.0	8.9
2025-01-10 18:28:17.251403	237.2	61.0	-92.3	5.6
2025-01-10 18:28:18.413140	238.3	61.1	-92.4	9.0
2025-01-10 18:28:19.566417	239.3	61.2	-92.0	10.4
2025-01-10 18:28:20.716944	240.4	61.3	-91.9	10.0
2025-01-10 18:28:21.875702	241.5	61.4	-91.9	11.8
2025-01-10 18:28:23.031237	242.5	61.5	-92.2	16.0
2025-01-10 18:28:24.187537	243.6	61.6	-91.6	16.7
2025-01-10 18:28:25.344583	244.7	61.6	-91.6	15.7
2025-01-10 18:28:26.497765	245.8	61.7	-91.7	18.0
2025-01-10 18:28:27.660778	246.9	61.8	-91.3	18.4
2025-01-10 18:28:28.814890	248.0	61.8	-91.1	17.3
2025-01-10 18:28:29.978306	249.1	61.8	-91.3	18.6
2025-01-10 18:28:31.136968	250.3	61.9	-92.0	18.6
2025-01-10 18:28:32.297751	251.4	61.9	-92.1	16.6
2025-01-10 18:28:33.449182	252.5	61.9	-92.2	16.5
2025-01-10 18:28:34.604153	253.6	61.9	-91.9	17.5
2025-01-10 18:28:35.759742	254.7	61.9	-92.5	13.0
2025-01-10 18:28:36.913630	255.8	61.8	-91.9	15.1
2025-01-10 18:28:38.064348	256.9	61.8	-91.2	13.7
2025-01-10 18:28:39.229041	258.1	61.8	-91.3	11.0
2025-01-10 18:28:40.384798	259.2	61.7	-91.5	11.3
2025-01-10 18:28:41.540328	260.3	61.7	-92.1	13.0
2025-01-10 18:28:42.695992	261.4	61.6	-92.1	9.7
2025-01-10 18:28:43.858737	262.5	61.5	-91.7	7.5
2025-01-10 18:28:45.012300	263.5	61.4	-92.1	11.8
2025-01-10 18:28:46.166656	264.6	61.3	-92.1	8.5
2025-01-10 18:28:47.307749	265.7	61.2	-91.0	5.6
2025-01-10 18:28:48.463205	266.7	61.1	-92.4	9.1
2025-01-10 18:28:49.626417	267.8	61.0	-91.8	9.2
2025-01-10 18:28:50.781163	268.8	60.9	-91.6	5.3
2025-01-10 18:28:51.931802	269.8	60.8	-91.6	7.9
2025-01-10 18:28:53.090961	270.8	60.6	-92.0	9.4
2025-01-10 18:28:54.244518	271.8	60.5	-92.1	7.0
2025-01-10 18:28:55.403963	272.8	60.3	-92.0	5.5
2025-01-10 18:28:56.556902	273.8	60.2	-92.1	8.9
2025-01-10 18:28:57.717268	274.8	60.0	-91.3	4.6
2025-01-10 18:28:58.872899	275.7	59.8	-92.3	5.8
2025-01-10 18:29:00.024334	276.7	59.6	-92.1	4.8
2025-01-10 18:29:01.170003	277.6	59.4	-91.4	4.9
2025-01-10 18:29:02.325531	278.5	59.2	-90.8	5.6
2025-01-10 18:29:03.477116	279.4	59.0	-92.0	8.8
2025-01-10 18:29:04.626443	280.3	58.8	-91.7	8.3
2025-01-10 18:29:05.778508	281.2	58.6	-92.3	5.3
2025-01-10 18:29:06.931282	282.0	58.4	-92.3	5.6
2025-01-10 18:29:08.081097	282.9	58.2	-92.2	5.2
2025-01-10 18:29:09.243185	283.7	58.0	-91.6	2.3
2025-01-10 18:29:10.398175	284.5	57.7	-91.2	4.3
2025-01-10 18:29:11.559151	285.3	57.5	-92.1	8.3
2025-01-10 18:29:12.711472	286.1	57.3	-90.6	5.2
2025-01-10 18:29:13.861083	286.9	57.0	-92.3	5.5
2025-01-10 18:29:15.016274	287.6	56.8	-92.4	6.4
2025-01-10 18:29:16.173203	288.4	56.5	-90.5	4.8
2025-01-10 18:29:17.321414	289.1	56.3	-92.1	5.5
2025-01-10 18:29:18.478220	289.8	56.0	-91.7	8.3
2025-01-10 18:29:19.634688	290.5	55.7	-91.6	8.9
2025-01-10 18:29:20.792598	291.2	55.5	-92.0	4.2
2025-01-10 18:29:21.940779	291.9	55.2	-91.9	6.7
2025-01-10 18:29:23.102821	292.6	54.9	-91.9	8.6
2025-01-10 18:29:24.255397	293.2	54.7	-92.0	1.8
2025-01-10 18:29:25.411833	293.9	54.4	-92.0	5.5
2025-01-10 18:29:26.571366	294.5	54.1	-92.1	8.1
2025-01-10 18:29:27.727727	295.1	53.8	-92.2	6.0
2025-01-10 18:29:28.888406	295.8	53.6	-92.6	7.3
2025-01-10 18:29:30.042889	296.4	53.3	-91.9	6.4
2025-01-10 18:29:31.197150	296.9	53.0	-91.1	5.2
2025-01-10 18:29:32.348946	297.5	52.7	-91.9	7.3
2025-01-10 18:29:33.510622	298.1	52.4	-91.9	8.4
2025-01-10 18:29:34.669349	298.6	52.2	-91.2	7.8
2025-01-10 18:29:35.829153	299.2	51.9	-91.3	4.8
2025-01-10 18:29:36.979469	299.7	51.6	-91.4	6.8
2025-01-10 18:29:38.135593	300.2	51.3	-92.2	9.3
2025-01-10 18:29:39.294007	300.7	51.0	-92.1	10.5
2025-01-10 18:29:40.450839	301.2	50.7	-92.3	10.5
2025-01-10 18:29:41.599621	301.7	50.4	-92.5	10.4
2025-01-10 18:29:42.756925	302.2	50.1	-91.8	8.6
2025-01-10 18:29:43.914568	302.7	49.8	-92.3	8.2
2025-01-10 18:29:45.069617	303.2	49.5	-92.3	10.1
2025-01-10 18:29:46.225835	303.6	49.3	-92.1	13.0
2025-01-10 18:29:47.395402	304.1	49.0	-92.4	14.3
2025-01-10 18:29:48.553420	304.5	48.7	-91.8	13.6
2025-01-10 18:29:49.707849	304.9	48.4	-92.3	9.1
2025-01-10 18:29:50.863285	305.4	48.1	-92.1	10.0
2025-01-10 18:29:52.018509	305.8	47.8	-92.4	8.9
2025-01-10 18:29:53.174236	306.2	47.5	-91.8	7.5
2025-01-10 18:29:54.335986	306.6	47.2	-92.1	8.6
2025-01-10 18:29:55.490459	307.0	46.9	-91.9	9.4
2025-01-10 18:29:56.649869	307.4	46.6	-92.2	8.5
2025-01-10 18:29:57.805302	307.8	46.4	-92.6	6.4
2025-01-10 18:29:58.966701	308.1	46.1	-92.1	7.9
2025-01-10 18:30:00.120270	308.5	45.8	-92.3	10.4
2025-01-10 18:30:01.277886	308.9	45.5	-92.2	5.6
2025-01-10 18:30:02.426279	309.2	45.2	-92.2	7.9
2025-01-10 18:30:03.581578	309.6	44.9	-91.7	7.3
2025-01-10 18:30:04.735039	309.9	44.7	-92.1	5.8
2025-01-10 18:30:05.897464	310.2	44.4	-92.4	7.0
2025-01-10 18:30:07.046231	310.6	44.1	-91.9	9.4
2025-01-10 18:30:08.200008	310.9	43.8	-92.0	6.6
2025-01-10 18:30:09.357669	311.2	43.5	-91.8	9.6
2025-01-10 18:30:10.515724	311.5	43.3	-92.4	13.2
2025-01-10 18:30:11.663025	311.8	43.0	-91.3	12.4
2025-01-10 18:30:12.816580	312.1	42.7	-92.2	13.2
2025-01-10 18:30:13.980290	312.4	42.4	-91.6	13.8
2025-01-10 18:30:15.142324	312.7	42.2	-92.2	16.8
2025-01-10 18:30:16.299064	313.0	41.9	-92.2	16.0
2025-01-10 18:30:17.458834	313.3	41.6	-91.1	16.0
2025-01-10 18:30:18.605332	313.6	41.4	-92.2	16.0
2025-01-10 18:30:19.759146	313.9	41.1	-92.2	13.1
2025-01-10 18:30:20.915849	314.1	40.8	-92.3	12.2
2025-01-10 18:30:22.081000	314.4	40.5	-91.8	12.5
2025-01-10 18:30:23.225105	314.7	40.3	-92.2	8.8
2025-01-10 18:30:24.375333	314.9	40.0	-91.6	5.4
2025-01-10 18:30:25.528235	315.2	39.8	-92.0	5.4
2025-01-10 18:30:26.681366	315.4	39.5	-92.0	4.5
2025-01-10 18:30:27.829605	315.7	39.2	-92.3	2.1
2025-01-10 18:30:28.979048	315.9	39.0	-92.5	5.5
2025-01-10 18:30:30.139896	316.1	38.7	-92.2	6.6
2025-01-10 18:30:31.298222	316.4	38.5	-92.3	5.0
2025-01-10 18:30:32.451987	316.6	38.2	-92.4	9.1
2025-01-10 18:30:33.606905	316.8	38.0	-92.2	9.4
2025-01-10 18:30:34.765104	317.1	37.7	-91.4	8.1
2025-01-10 18:30:35.922724	317.3	37.5	-92.5	9.9
2025-01-10 18:30:37.077390	317.5	37.2	-91.8	11.6
2025-01-10 18:30:38.232992	317.7	37.0	-91.9	12.3
2025-01-10 18:30:39.393257	317.9	36.7	-91.7	7.5
2025-01-10 18:30:40.551464	318.1	36.5	-92.5	8.4
2025-01-10 18:30:41.708932	318.3	36.3	-92.3	7.7
2025-01-10 18:30:42.865418	318.5	36.0	-92.5	6.5
2025-01-10 18:30:44.022371	318.7	35.8	-92.6	8.1
2025-01-10 18:30:45.183542	318.9	35.5	-92.2	7.1
2025-01-10 18:30:46.342537	319.1	35.3	-91.8	6.0
2025-01-10 18:30:47.493830	319.3	35.1	-92.2	6.3
2025-01-10 18:30:48.649611	319.5	34.8	-92.4	8.7
2025-01-10 18:30:49.800155	319.7	34.6	-92.1	5.9
2025-01-10 18:30:50.955820	319.9	34.4	-91.7	3.3
2025-01-10 18:30:52.110792	320.1	34.1	-92.0	9.5
2025-01-10 18:30:53.278664	320.2	33.9	-92.4	10.9
2025-01-10 18:30:54.436932	320.4	33.7	-92.4	10.6
2025-01-10 18:30:55.592780	320.6	33.5	-91.9	14.3
2025-01-10 18:30:56.752957	320.8	33.2	-92.3	13.7
2025-01-10 18:30:57.912619	320.9	33.0	-92.4	10.4
2025-01-10 18:30:59.062431	321.1	32.8	-91.3	11.0
2025-01-10 18:31:00.219855	321.3	32.6	-90.7	8.3
2025-01-10 18:31:01.375018	321.4	32.4	-91.7	7.1
2025-01-10 18:31:02.533519	321.6	32.1	-91.7	5.8
2025-01-10 18:31:03.681224	321.7	31.9	-91.9	6.5
2025-01-10 18:31:04.834099	321.9	31.7	-92.2	6.7
2025-01-10 18:31:05.990716	322.1	31.5	-91.9	6.8
2025-01-10 18:31:07.144731	322.2	31.3	-91.7	8.2
2025-01-10 18:31:08.301524	322.4	31.1	-91.6	3.5
2025-01-10 18:31:09.452326	322.5	30.9	-91.2	10.6
2025-01-10 18:31:10.612404	322.7	30.7	-91.8	8.8
2025-01-10 18:31:11.774769	322.8	30.4	-92.1	4.6
2025-01-10 18:31:12.943622	322.9	30.2	-92.5	11.7
2025-01-10 18:31:14.105549	323.1	30.0	-92.4	10.0
2025-01-10 18:31:15.256249	323.2	29.8	-91.9	5.7
2025-01-10 18:31:16.409628	323.4	29.6	-91.9	4.6
2025-01-10 18:31:17.563341	323.5	29.4	-92.3	7.8
2025-01-10 18:31:18.710020	323.6	29.2	-92.6	7.5
2025-01-10 18:31:19.863897	323.8	29.0	-92.5	2.7
2025-01-10 18:31:21.019004	323.9	28.8	-92.5	4.8
2025-01-10 18:31:22.182012	324.0	28.6	-92.2	7.5
2025-01-10 18:31:23.332326	324.2	28.5	-92.1	4.8
2025-01-10 18:31:24.484146	324.3	28.3	-92.0	5.5
2025-01-10 18:31:25.635487	324.4	28.1	-92.1	6.4
2025-01-10 18:31:26.796732	324.5	27.9	-92.5	8.2
2025-01-10 18:31:27.944635	324.7	27.7	-92.4	14.2
2025-01-10 18:31:29.096810	324.8	27.5	-91.9	13.0
2025-01-10 18:31:30.255742	324.9	27.3	-92.2	12.9
2025-01-10 18:31:31.413353	325.0	27.1	-92.2	4.5
2025-01-10 18:31:32.571542	325.1	26.9	-92.0	11.8
2025-01-10 18:31:33.724159	325.3	26.8	-91.9	2.9
2025-01-10 18:31:34.882324	325.4	26.6	-92.1	4.3
2025-01-10 18:31:36.031841	325.5	26.4	-92.2	2.3
2025-01-10 18:31:37.186225	325.6	26.2	-91.9	2.8
2025-01-10 18:31:38.336713	325.7	26.0	-91.8	0.6
2025-01-10 18:31:39.490216	325.8	25.9	-91.8	3.3
2025-01-10 18:31:40.638005	325.9	25.7	-91.8	4.3
2025-01-10 18:31:41.795375	326.0	25.5	-92.2	2.0
2025-01-10 18:31:42.944820	326.1	25.3	-92.5	3.8
2025-01-10 18:31:44.096656	326.2	25.2	-91.9	11.1
2025-01-10 18:31:45.246681	326.4	25.0	-92.1	8.1
2025-01-10 18:31:46.398798	326.5	24.8	-91.5	3.5
2025-01-10 18:31:47.551387	326.6	24.6	-92.1	8.5
2025-01-10 18:31:48.704783	326.7	24.5	-92.2	2.9
2025-01-10 18:31:49.858924	326.8	24.3	-92.4	4.5
2025-01-10 18:31:51.013636	326.9	24.1	-92.5	5.2
2025-01-10 18:31:52.172751	327.0	24.0	-92.2	3.7
2025-01-10 18:31:53.324201	327.1	23.8	-92.4	5.0
2025-01-10 18:31:54.479231	327.2	23.6	-92.1	2.5
2025-01-10 18:31:55.635511	327.2	23.5	-92.0	5.1
2025-01-10 18:31:56.792866	327.3	23.3	-90.9	4.9
2025-01-10 18:31:57.940735	327.4	23.2	-92.3	5.9
2025-01-10 18:31:59.090843	327.5	23.0	-91.9	4.4
2025-01-10 18:32:00.241361	327.6	22.8	-91.9	5.3
2025-01-10 18:32:01.387977	327.7	22.7	-91.9	4.4
2025-01-10 18:32:02.549291	327.8	22.5	-92.2	4.6
2025-01-10 18:32:03.704636	327.9	22.4	-92.3	5.4
2025-01-10 18:32:04.857102	328.0	22.2	-92.5	4.0
2025-01-10 18:32:06.002864	328.1	22.1	-92.5	3.5
2025-01-10 18:32:07.160909	328.2	21.9	-92.0	4.6
2025-01-10 18:32:08.316279	328.2	21.7	-92.0	3.1
2025-01-10 18:32:09.473441	328.3	21.6	-92.3	1.7
2025-01-10 18:32:10.623176	328.4	21.4	-91.9	6.5
2025-01-10 18:32:11.774373	328.5	21.3	-92.2	4.8
2025-01-10 18:32:12.935046	328.6	21.1	-92.1	4.7
2025-01-10 18:32:14.090213	328.7	21.0	-92.0	7.6
2025-01-10 18:32:15.239721	328.7	20.8	-91.8	9.0
2025-01-10 18:32:16.394526	328.8	20.7	-92.0	8.1
2025-01-10 18:32:17.552915	328.9	20.5	-92.4	7.2
2025-01-10 18:32:18.700153	329.0	20.4	-92.1	5.0
2025-01-10 18:32:19.858507	329.1	20.3	-92.4	3.6
2025-01-10 18:32:21.009895	329.1	20.1	-92.0	3.3
2025-01-10 18:32:22.167559	329.2	20.0	-91.8	2.4
2025-01-10 18:32:23.321211	329.3	19.8	-92.1	2.5
2025-01-10 18:32:24.478882	329.4	19.7	-92.4	0.1
2025-01-10 18:32:25.636299	329.4	19.5	-92.6	2.6
2025-01-10 18:32:26.797571	329.5	19.4	-92.5	4.1
2025-01-10 18:32:27.958161	329.6	19.3	-92.3	3.0
2025-01-10 18:32:29.116751	329.7	19.1	-92.2	8.9
2025-01-10 18:32:30.271838	329.7	19.0	-92.2	3.3
2025-01-10 18:32:31.427230	329.8	18.8	-92.0	6.5
2025-01-10 18:32:32.587074	329.9	18.7	-92.1	6.3
2025-01-10 18:32:33.749836	330.0	18.6	-92.5	1.5
2025-01-10 18:32:34.905404	330.0	18.4	-92.4	2.1
2025-01-10 18:32:36.062745	330.1	18.3	-91.9	0.2
2025-01-10 18:32:37.216699	330.2	18.2	-91.8	3.4
2025-01-10 18:32:38.364346	330.2	18.0	-91.8	1.7
2025-01-10 18:32:39.521075	330.3	17.9	-92.2	4.6
2025-01-10 18:32:40.679045	330.4	17.8	-92.1	2.6
2025-01-10 18:32:41.832495	330.4	17.6	-92.3	3.6
2025-01-10 18:32:42.986958	330.5	17.5	-92.4	1.9
2025-01-10 18:32:44.158662	330.6	17.4	-91.5	3.2
2025-01-10 18:32:45.317752	330.6	17.2	-91.8	3.2
2025-01-10 18:32:46.473285	330.7	17.1	-91.2	1.6
2025-01-10 18:32:47.637526	330.8	17.0	-92.0	2.8
2025-01-10 18:32:48.792775	330.8	16.9	-92.3	1.6
2025-01-10 18:32:49.946405	330.9	16.7	-92.1	3.1
2025-01-10 18:32:51.106376	331.0	16.6	-91.9	1.9
2025-01-10 18:32:52.257353	331.0	16.5	-92.1	3.2
2025-01-10 18:32:53.420959	331.1	16.3	-92.3	1.4
2025-01-10 18:32:54.579001	331.1	16.2	-92.4	2.8
2025-01-10 18:32:55.733497	331.2	16.1	-92.4	2.8
2025-01-10 18:32:56.888819	331.3	16.0	-92.3	3.3
2025-01-10 18:32:58.043091	331.3	15.9	-92.1	3.8
2025-01-10 18:32:59.193526	331.4	15.7	-92.1	0.8
2025-01-10 18:33:00.336185	331.4	15.6	-92.4	2.9
2025-01-10 18:33:01.486006	331.5	15.5	-92.1	1.3
2025-01-10 18:33:02.637942	331.6	15.4	-92.5	1.8
2025-01-10 18:33:03.797889	331.6	15.3	-92.4	0.2
2025-01-10 18:33:04.955744	331.7	15.1	-92.2	1.5
2025-01-10 18:33:06.110653	331.7	15.0	-92.3	2.2
2025-01-10 18:33:07.271914	331.8	14.9	-92.3	1.5
2025-01-10 18:33:08.416447	331.8	14.8	-92.4	2.2
2025-01-10 18:33:09.569386	331.9	14.7	-92.2	2.0
2025-01-10 18:33:10.724590	332.0	14.5	-92.4	3.8
#Closed at: 2025-01-10 18:24:07.410091