passes_logs/2026/01/10/R3.2S_Murmansk/R3.2S_Murmansk__20260110_071325_NOAA_21_JPSS-2_rec.log

#Pass ID: 20260110_071325_NOAA 21 (JPSS-2)
#Satellite: NOAA 21 (JPSS-2)
#Configuration: NOAA-21
#almurnet v.1.7.20251203
#Start time: 2026-01-10 07:13:27

#Version: 2.2.20231116
#Station: R3.2S_Murmansk
#Location: 33.079688 lon 68.888172 lat
#TLE: 1 54234U 22150A   26009.79679979  .00000100  00000+0  68070-4 0  9993
#TLE: 2 54234  98.7494 310.7596 0000833 322.2782  37.8335 14.19533646164071

#Time	Az	El	Level	Level2	SNR	BER	BlckErr	Temp	State	Recorded	gain1	gain2
2026-01-10 07:13:27.17	99.52	2.13	-57.1	-70.8	3.8	1.49e+00	0	21	0	0	80	17469
2026-01-10 07:13:28.18	99.47	2.19	-57.0	-70.8	3.8	1.49e+00	0	21	104	0	79	18422
2026-01-10 07:13:29.19	99.42	2.25	-57.1	-70.8	3.8	1.49e+00	0	21	104	0	79	18487
2026-01-10 07:13:30.19	99.38	2.31	-57.1	-70.8	3.8	1.49e+00	0	21	104	0	79	18465
2026-01-10 07:13:31.20	99.33	2.37	-57.1	-70.9	3.8	1.49e+00	0	21	104	0	79	18549
2026-01-10 07:13:32.21	99.28	2.43	-57.1	-70.9	3.8	1.49e+00	0	21	104	0	79	18539
2026-01-10 07:13:33.22	99.23	2.49	-57.1	-70.9	3.8	1.49e+00	0	21	104	0	79	18550
2026-01-10 07:13:34.23	99.18	2.56	-57.0	-70.9	3.8	1.49e+00	0	21	104	0	79	18643
2026-01-10 07:13:35.24	99.13	2.62	-56.9	-70.9	3.8	1.49e+00	0	21	104	0	79	18535
2026-01-10 07:13:36.25	99.08	2.68	-57.0	-70.8	3.8	1.49e+00	0	21	104	0	79	18415
2026-01-10 07:13:37.26	99.03	2.74	-56.9	-70.7	3.8	1.49e+00	0	21	104	0	79	18120
2026-01-10 07:13:38.27	98.98	2.80	-56.3	-70.4	3.8	1.49e+00	0	21	104	0	78	18693
2026-01-10 07:13:39.28	98.93	2.87	-56.4	-70.9	3.8	1.49e+00	0	21	104	0	78	19737
2026-01-10 07:13:40.28	98.88	2.93	-56.9	-70.8	3.8	1.49e+00	0	21	104	0	79	18346
2026-01-10 07:13:41.29	98.83	2.99	-55.5	-70.9	3.8	1.49e+00	0	21	104	0	77	20837
2026-01-10 07:13:42.30	98.78	3.05	-56.0	-70.5	3.8	1.49e+00	0	21	104	0	78	18887
2026-01-10 07:13:43.30	98.72	3.11	-56.7	-70.8	3.8	1.49e+00	0	21	104	0	79	18309
2026-01-10 07:13:44.31	98.67	3.18	-57.0	-70.9	3.8	1.47e+00	0	22	104	0	79	18537
2026-01-10 07:13:45.32	98.62	3.24	-55.5	-68.1	3.9	1.49e+00	0	22	104	0	76	16035
2026-01-10 07:13:46.33	98.57	3.30	-56.2	-68.0	4.1	1.49e+00	0	21	104	0	77	14904
2026-01-10 07:13:47.34	98.52	3.37	-57.0	-70.9	3.8	1.49e+00	0	21	104	0	79	18609
2026-01-10 07:13:48.35	98.46	3.43	-57.0	-70.8	3.8	1.49e+00	0	22	104	0	79	18498
2026-01-10 07:13:49.36	98.41	3.49	-56.8	-68.8	3.8	1.49e+00	0	22	104	0	79	14546
2026-01-10 07:13:50.37	98.36	3.56	-57.0	-70.7	3.8	1.48e+00	0	22	104	0	79	18254
2026-01-10 07:13:51.38	98.30	3.62	-56.8	-70.6	3.8	1.49e+00	0	22	104	0	79	17940
2026-01-10 07:13:52.39	98.25	3.68	-56.9	-70.3	3.8	1.49e+00	0	22	104	0	79	17303
2026-01-10 07:13:53.40	98.19	3.75	-56.7	-70.3	3.8	1.49e+00	0	22	104	0	79	17360
2026-01-10 07:13:54.41	98.14	3.81	-56.9	-69.8	3.8	1.49e+00	0	22	104	0	79	16403
2026-01-10 07:13:55.41	98.09	3.88	-55.9	-70.9	3.8	1.49e+00	0	22	104	0	78	19631
2026-01-10 07:13:56.42	98.03	3.94	-57.0	-70.9	3.8	1.49e+00	0	22	104	0	79	18695
2026-01-10 07:13:57.43	97.98	4.01	-56.4	-70.3	3.8	1.49e+00	0	22	104	0	79	17339
2026-01-10 07:13:58.44	97.92	4.07	-56.8	-70.7	3.8	1.49e+00	0	22	104	0	79	18107
2026-01-10 07:13:59.45	97.87	4.13	-56.6	-70.2	3.8	1.49e+00	0	22	104	0	79	17158
2026-01-10 07:14:00.46	97.81	4.20	-56.6	-69.6	3.8	1.49e+00	0	22	104	0	79	15996
2026-01-10 07:14:01.47	97.75	4.26	-56.6	-68.5	3.9	1.48e+00	0	22	104	0	78	14929
2026-01-10 07:14:02.47	97.70	4.33	-56.7	-67.7	3.9	1.46e+00	0	22	104	0	78	13627
2026-01-10 07:14:03.48	97.64	4.39	-56.7	-66.4	4.5	1.37e+00	11	22	104	0	78	11715
2026-01-10 07:14:04.49	97.58	4.46	-56.6	-66.2	4.1	1.45e+00	0	22	104	0	78	11493
2026-01-10 07:14:05.50	97.53	4.53	-56.5	-64.5	5.4	5.56e-01	0	22	0	2097152	78	9469
2026-01-10 07:14:06.51	97.47	4.59	-56.2	-63.8	5.8	4.08e-01	0	22	0	5242880	78	8755
2026-01-10 07:14:07.51	97.41	4.66	-56.0	-63.1	6.3	2.56e-01	0	22	0	8388608	77	8465
2026-01-10 07:14:08.52	97.35	4.72	-55.5	-62.7	6.6	1.80e-01	0	22	0	11534336	77	8095
2026-01-10 07:14:09.53	97.30	4.79	-55.8	-61.9	7.3	9.80e-02	0	22	0	14680064	77	7455
2026-01-10 07:14:10.54	97.24	4.85	-55.6	-61.6	7.5	7.31e-02	0	22	0	17825792	76	7619
2026-01-10 07:14:11.55	97.18	4.92	-55.3	-61.5	7.7	6.05e-02	0	22	0	20971520	76	7475
2026-01-10 07:14:12.55	97.12	4.99	-55.4	-61.3	7.8	5.50e-02	0	22	0	24117248	76	7294
2026-01-10 07:14:13.56	97.06	5.05	-55.0	-59.7	9.4	3.97e-02	0	22	0	27262976	76	6079
2026-01-10 07:14:14.57	97.00	5.12	-53.8	-57.2	11.5	7.61e-04	0	22	0	30408704	74	5106
2026-01-10 07:14:15.58	96.94	5.19	-56.0	-62.7	7.0	1.73e-03	0	22	0	33554432	77	8110
2026-01-10 07:14:16.59	96.88	5.25	-55.9	-61.7	7.8	3.50e-01	0	22	0	33554432	78	6853
2026-01-10 07:14:17.59	96.82	5.32	-52.6	-55.2	12.8	1.49e-03	0	22	0	36700160	71	4867
2026-01-10 07:14:18.60	96.76	5.39	-52.8	-55.3	12.8	8.30e-06	0	22	0	39845888	72	4613
2026-01-10 07:14:19.61	96.70	5.45	-52.4	-54.8	13.0	0.00e+00	0	22	0	42991616	71	4599
2026-01-10 07:14:20.62	96.64	5.52	-52.4	-54.7	13.1	0.00e+00	0	22	0	46137344	71	4566
2026-01-10 07:14:21.63	96.58	5.59	-52.0	-54.1	13.4	0.00e+00	0	22	0	49283072	70	4543
2026-01-10 07:14:22.63	96.51	5.66	-51.3	-53.3	13.9	0.00e+00	0	22	0	52428800	69	4356
2026-01-10 07:14:23.64	96.45	5.72	-51.1	-53.0	13.9	0.00e+00	0	22	0	55574528	68	4476
2026-01-10 07:14:24.64	96.39	5.79	-51.0	-52.9	14.0	0.00e+00	0	22	0	58720256	68	4433
2026-01-10 07:14:25.65	96.33	5.86	-51.0	-52.8	14.1	0.00e+00	0	22	0	61865984	68	4380
2026-01-10 07:14:26.65	96.26	5.93	-50.6	-52.4	14.2	0.00e+00	0	22	0	65011712	67	4429
2026-01-10 07:14:27.66	96.20	6.00	-50.6	-52.4	14.1	0.00e+00	0	22	0	68157440	67	4434
2026-01-10 07:14:28.68	96.14	6.07	-50.6	-52.5	14.1	0.00e+00	0	22	0	71303168	67	4469
2026-01-10 07:14:29.68	96.07	6.13	-50.6	-52.4	14.1	0.00e+00	0	22	0	74448896	67	4437
2026-01-10 07:14:30.69	96.01	6.20	-50.5	-52.3	14.2	0.00e+00	0	22	0	77594624	67	4371
2026-01-10 07:14:31.70	95.94	6.27	-50.7	-52.4	14.1	0.00e+00	0	22	0	80740352	67	4428
2026-01-10 07:14:32.71	95.88	6.34	-50.6	-52.5	14.1	0.00e+00	0	22	0	83886080	67	4443
2026-01-10 07:14:33.72	95.81	6.41	-50.6	-52.4	14.1	0.00e+00	0	22	0	87031808	67	4441
2026-01-10 07:14:34.73	95.75	6.48	-50.6	-52.4	14.1	0.00e+00	0	22	0	90177536	67	4397
2026-01-10 07:14:35.73	95.68	6.55	-50.6	-52.3	14.2	0.00e+00	0	22	0	93323264	67	4377
2026-01-10 07:14:36.74	95.62	6.62	-50.4	-52.1	14.3	0.00e+00	0	22	0	96468992	67	4268
2026-01-10 07:14:37.75	95.55	6.69	-50.4	-52.1	14.3	0.00e+00	0	22	0	99614720	67	4249
2026-01-10 07:14:38.76	95.48	6.76	-50.4	-52.1	14.3	0.00e+00	0	22	0	102760448	67	4280
2026-01-10 07:14:39.77	95.41	6.83	-50.4	-52.1	14.3	0.00e+00	0	22	0	105906176	67	4273
2026-01-10 07:14:40.77	95.35	6.90	-50.3	-51.9	14.5	0.00e+00	0	22	0	109051904	67	4188
2026-01-10 07:14:41.78	95.28	6.97	-50.3	-52.0	14.4	0.00e+00	0	22	0	112197632	67	4201
2026-01-10 07:14:42.79	95.21	7.04	-50.2	-51.9	14.4	0.00e+00	0	22	0	115343360	66	4394
2026-01-10 07:14:43.80	95.14	7.11	-50.2	-51.8	14.3	0.00e+00	0	22	0	118489088	66	4385
2026-01-10 07:14:44.81	95.07	7.18	-50.2	-51.8	14.4	0.00e+00	0	22	0	121634816	66	4389
2026-01-10 07:14:45.82	95.00	7.25	-50.1	-51.8	14.4	0.00e+00	0	22	0	124780544	66	4342
2026-01-10 07:14:46.83	94.93	7.33	-50.1	-51.8	14.4	0.00e+00	0	22	0	127926272	66	4345
2026-01-10 07:14:47.84	94.86	7.40	-50.1	-51.8	14.4	0.00e+00	0	22	0	131072000	66	4357
2026-01-10 07:14:48.85	94.79	7.47	-50.0	-51.6	14.5	0.00e+00	0	22	0	134217728	66	4279
2026-01-10 07:14:49.86	94.72	7.54	-50.0	-51.6	14.5	0.00e+00	0	23	0	137363456	66	4257
2026-01-10 07:14:50.86	94.65	7.61	-50.0	-51.6	14.5	0.00e+00	0	22	0	140509184	66	4260
2026-01-10 07:14:51.87	94.58	7.68	-49.9	-51.5	14.6	0.00e+00	0	23	0	143654912	66	4230
2026-01-10 07:14:52.88	94.51	7.76	-49.9	-51.4	14.6	0.00e+00	0	23	0	146800640	66	4189
2026-01-10 07:14:53.89	94.43	7.83	-49.8	-51.4	14.7	0.00e+00	0	22	0	149946368	66	4159
2026-01-10 07:14:54.90	94.36	7.90	-49.7	-51.3	14.7	0.00e+00	0	22	0	153092096	66	4109
2026-01-10 07:14:55.90	94.29	7.97	-49.5	-51.1	14.7	0.00e+00	0	22	0	156237824	65	4245
2026-01-10 07:14:56.91	94.22	8.05	-49.7	-51.2	14.6	0.00e+00	0	22	0	159383552	65	4330
2026-01-10 07:14:57.92	94.14	8.12	-49.7	-51.2	14.6	0.00e+00	0	22	0	162529280	65	4315
2026-01-10 07:14:58.93	94.07	8.19	-49.6	-51.1	14.7	0.00e+00	0	22	0	165675008	65	4260
2026-01-10 07:14:59.94	93.99	8.27	-49.4	-50.9	14.8	0.00e+00	0	22	0	168820736	65	4162
2026-01-10 07:15:00.95	93.92	8.34	-49.4	-50.9	14.8	0.00e+00	0	23	0	171966464	65	4185
2026-01-10 07:15:01.96	93.84	8.42	-49.4	-50.9	14.8	0.00e+00	0	23	0	175112192	65	4169
2026-01-10 07:15:02.97	93.77	8.49	-49.5	-51.0	14.7	0.00e+00	0	23	0	178257920	65	4228
2026-01-10 07:15:03.98	93.69	8.56	-49.4	-50.9	14.8	0.00e+00	0	22	0	181403648	65	4157
2026-01-10 07:15:04.99	93.61	8.64	-49.4	-50.9	14.8	0.00e+00	0	23	0	184549376	65	4172
2026-01-10 07:15:06.00	93.53	8.71	-49.4	-50.9	14.8	0.00e+00	0	22	0	187695104	65	4154
2026-01-10 07:15:07.00	93.46	8.79	-49.3	-50.8	14.8	0.00e+00	0	22	0	190840832	65	4112
2026-01-10 07:15:08.01	93.38	8.86	-49.4	-50.9	14.8	0.00e+00	0	22	0	193986560	65	4154
2026-01-10 07:15:09.02	93.30	8.94	-49.3	-50.8	14.8	0.00e+00	0	22	0	197132288	65	4135
2026-01-10 07:15:10.03	93.22	9.01	-49.3	-50.8	14.9	0.00e+00	0	23	0	200278016	65	4116
2026-01-10 07:15:11.04	93.14	9.09	-49.3	-50.8	14.9	0.00e+00	0	22	0	203423744	65	4126
2026-01-10 07:15:12.05	93.06	9.16	-49.3	-50.8	14.9	0.00e+00	0	23	0	206569472	65	4110
2026-01-10 07:15:13.05	92.98	9.24	-49.4	-50.8	14.9	0.00e+00	0	22	0	209715200	65	4125
2026-01-10 07:15:14.06	92.90	9.31	-49.2	-50.7	14.9	0.00e+00	0	23	0	212860928	65	4071
2026-01-10 07:15:15.07	92.82	9.39	-49.3	-50.7	14.9	0.00e+00	0	23	0	216006656	65	4086
2026-01-10 07:15:16.08	92.74	9.47	-49.3	-50.7	14.9	0.00e+00	0	23	0	219152384	65	4079
2026-01-10 07:15:17.10	92.66	9.54	-49.1	-50.6	14.8	0.00e+00	0	22	0	222298112	64	4248
2026-01-10 07:15:18.10	92.58	9.62	-49.2	-50.7	14.8	0.00e+00	0	23	0	225443840	64	4315
2026-01-10 07:15:19.11	92.49	9.70	-49.1	-50.6	14.8	0.00e+00	0	23	0	228589568	64	4249
2026-01-10 07:15:20.12	92.41	9.77	-49.1	-50.5	14.9	0.00e+00	0	23	0	231735296	64	4230
2026-01-10 07:15:21.13	92.33	9.85	-49.1	-50.5	14.8	0.00e+00	0	23	0	234881024	64	4229
2026-01-10 07:15:22.14	92.24	9.93	-49.1	-50.5	14.9	0.00e+00	0	23	0	238026752	64	4210
2026-01-10 07:15:23.15	92.16	10.00	-49.1	-50.6	14.8	0.00e+00	0	23	0	241172480	64	4252
2026-01-10 07:15:24.16	92.07	10.08	-49.0	-50.4	14.9	0.00e+00	0	23	0	244318208	64	4166
2026-01-10 07:15:25.17	91.99	10.16	-49.0	-50.4	14.9	0.00e+00	0	23	0	247463936	64	4175
2026-01-10 07:15:26.17	91.90	10.24	-49.1	-50.5	14.9	0.00e+00	0	22	0	250609664	64	4207
2026-01-10 07:15:27.18	91.82	10.32	-48.9	-50.3	15.0	0.00e+00	0	23	0	253755392	64	4129
2026-01-10 07:15:28.19	91.73	10.39	-49.0	-50.4	14.9	0.00e+00	0	23	0	256901120	64	4163
2026-01-10 07:15:29.20	91.64	10.47	-48.9	-50.3	15.0	0.00e+00	0	23	0	260046848	64	4118
2026-01-10 07:15:30.21	91.55	10.55	-49.0	-50.4	15.0	0.00e+00	0	23	0	263192576	64	4148
2026-01-10 07:15:31.22	91.47	10.63	-48.9	-50.3	15.0	0.00e+00	0	22	0	266338304	64	4128
2026-01-10 07:15:32.23	91.38	10.71	-48.9	-50.3	15.0	0.00e+00	0	22	0	269484032	64	4108
2026-01-10 07:15:33.24	91.29	10.79	-49.0	-50.3	14.9	0.00e+00	0	22	0	272629760	64	4145
2026-01-10 07:15:34.25	91.20	10.87	-48.8	-50.2	15.0	0.00e+00	0	22	0	275775488	64	4070
2026-01-10 07:15:35.26	91.11	10.95	-48.8	-50.2	15.0	0.00e+00	0	23	0	278921216	64	4061
2026-01-10 07:15:36.27	91.02	11.03	-48.8	-50.2	15.0	0.00e+00	0	22	0	282066944	64	4083
2026-01-10 07:15:37.27	90.93	11.11	-48.8	-50.1	15.1	0.00e+00	0	23	0	285212672	64	4031
2026-01-10 07:15:38.28	90.83	11.19	-48.8	-50.2	15.0	0.00e+00	0	23	0	288358400	64	4069
2026-01-10 07:15:39.29	90.74	11.27	-48.7	-50.1	15.1	0.00e+00	0	23	0	291504128	64	4012
2026-01-10 07:15:40.30	90.65	11.35	-48.8	-50.1	15.1	0.00e+00	0	22	0	294649856	64	4034
2026-01-10 07:15:41.31	90.55	11.43	-48.8	-50.2	15.1	0.00e+00	0	23	0	298844160	64	4067
2026-01-10 07:15:42.32	90.46	11.51	-48.6	-50.0	15.0	0.00e+00	0	23	0	300941312	63	4206
2026-01-10 07:15:43.33	90.37	11.59	-48.7	-50.1	15.0	0.00e+00	0	22	0	304087040	63	4255
2026-01-10 07:15:44.34	90.27	11.67	-48.7	-50.1	15.0	0.00e+00	0	23	0	307232768	63	4265
2026-01-10 07:15:45.35	90.18	11.75	-48.7	-50.1	14.9	0.00e+00	0	23	0	310378496	63	4247
2026-01-10 07:15:46.36	90.08	11.84	-48.8	-50.1	14.9	0.00e+00	0	23	0	313524224	63	4271
2026-01-10 07:15:47.37	89.98	11.92	-48.7	-50.0	15.0	0.00e+00	0	22	0	317718528	63	4233
2026-01-10 07:15:48.38	89.89	12.00	-48.7	-50.1	14.9	0.00e+00	0	23	0	320864256	63	4254
2026-01-10 07:15:49.39	89.79	12.08	-48.7	-50.1	15.0	0.00e+00	0	23	0	322961408	63	4266
2026-01-10 07:15:50.40	89.69	12.16	-48.7	-50.0	15.0	0.00e+00	0	23	0	326107136	63	4242
2026-01-10 07:15:51.40	89.59	12.25	-48.6	-50.0	15.0	0.00e+00	0	23	0	329252864	63	4216
2026-01-10 07:15:52.41	89.49	12.33	-48.8	-50.2	14.9	0.00e+00	0	23	0	333447168	63	4314
2026-01-10 07:15:53.41	89.39	12.41	-48.6	-49.9	15.0	0.00e+00	0	23	0	336592896	63	4193
2026-01-10 07:15:54.42	89.29	12.50	-48.6	-49.9	15.1	0.00e+00	0	23	0	339738624	63	4167
2026-01-10 07:15:55.43	89.19	12.58	-48.6	-49.9	15.0	0.00e+00	0	23	0	342884352	63	4190
2026-01-10 07:15:56.44	89.09	12.66	-48.6	-49.9	15.0	0.00e+00	0	23	0	346030080	63	4164
2026-01-10 07:15:57.44	88.99	12.75	-48.6	-50.0	15.0	0.00e+00	0	23	0	348127232	63	4203
2026-01-10 07:15:58.45	88.88	12.83	-48.7	-50.1	15.0	0.00e+00	0	23	0	351272960	63	4250
2026-01-10 07:15:59.46	88.78	12.91	-48.5	-49.8	15.1	0.00e+00	0	23	0	355467264	63	4131
2026-01-10 07:16:00.47	88.68	13.00	-48.5	-49.8	15.1	0.00e+00	0	23	0	358612992	63	4135
2026-01-10 07:16:01.48	88.57	13.08	-48.5	-49.9	15.1	0.00e+00	0	23	0	361758720	63	4154
2026-01-10 07:16:02.49	88.46	13.17	-48.6	-50.0	15.0	0.00e+00	0	23	0	364904448	63	4194
2026-01-10 07:16:03.49	88.36	13.25	-48.6	-50.0	15.0	0.00e+00	0	23	0	368050176	63	4205
2026-01-10 07:16:04.50	88.25	13.34	-48.6	-49.9	15.0	0.00e+00	0	23	0	370147328	63	4181
2026-01-10 07:16:05.51	88.14	13.42	-48.6	-50.0	15.0	0.00e+00	0	23	0	374341632	63	4198
2026-01-10 07:16:06.52	88.04	13.51	-48.7	-50.1	14.9	0.00e+00	0	23	0	377487360	63	4260
2026-01-10 07:16:07.53	87.93	13.59	-48.6	-49.9	15.0	0.00e+00	0	23	0	380633088	63	4192
2026-01-10 07:16:08.54	87.82	13.68	-48.4	-49.7	15.2	0.00e+00	0	23	0	383778816	63	4070
2026-01-10 07:16:09.55	87.71	13.77	-48.4	-49.7	15.2	0.00e+00	0	23	0	386924544	63	4096
2026-01-10 07:16:10.56	87.60	13.85	-48.5	-49.8	15.1	0.00e+00	0	23	0	390070272	63	4103
2026-01-10 07:16:11.56	87.49	13.94	-48.4	-49.7	15.1	0.00e+00	0	23	0	393216000	63	4077
2026-01-10 07:16:12.57	87.38	14.03	-48.5	-49.8	15.1	0.00e+00	0	23	0	396361728	63	4117
2026-01-10 07:16:13.58	87.26	14.11	-48.4	-49.7	15.2	0.00e+00	0	22	0	399507456	63	4059
2026-01-10 07:16:14.59	87.15	14.20	-48.3	-49.6	15.2	0.00e+00	0	23	0	402653184	63	4026
2026-01-10 07:16:15.60	87.04	14.29	-48.3	-49.6	15.2	0.00e+00	0	23	0	405798912	63	4022
2026-01-10 07:16:16.61	86.92	14.37	-48.3	-49.6	15.2	0.00e+00	0	23	0	408944640	63	4036
2026-01-10 07:16:17.62	86.81	14.46	-48.4	-49.7	15.2	0.00e+00	0	23	0	412090368	63	4066
2026-01-10 07:16:18.63	86.69	14.55	-48.5	-49.8	15.1	0.00e+00	0	23	0	415236096	63	4112
2026-01-10 07:16:19.64	86.57	14.64	-48.5	-49.8	15.1	0.00e+00	0	23	0	418381824	63	4122
2026-01-10 07:16:20.65	86.45	14.73	-48.5	-49.8	15.1	0.00e+00	0	23	0	421527552	63	4107
2026-01-10 07:16:21.65	86.34	14.81	-48.6	-49.9	15.1	0.00e+00	0	23	0	424673280	63	4162
2026-01-10 07:16:22.65	86.22	14.90	-48.6	-49.9	15.0	0.00e+00	0	23	0	427819008	63	4188
2026-01-10 07:16:23.67	86.10	14.99	-48.6	-49.9	15.1	0.00e+00	0	23	0	430964736	63	4159
2026-01-10 07:16:24.68	85.98	15.08	-48.6	-49.9	15.1	0.00e+00	0	23	0	434110464	63	4188
2026-01-10 07:16:25.68	85.86	15.17	-48.6	-50.0	15.0	0.00e+00	0	23	0	437256192	63	4198
2026-01-10 07:16:26.69	85.74	15.26	-48.7	-50.0	15.0	0.00e+00	0	23	0	440401920	63	4213
2026-01-10 07:16:27.70	85.61	15.35	-48.7	-50.0	15.0	0.00e+00	0	23	0	443547648	63	4218
2026-01-10 07:16:28.70	85.49	15.44	-48.7	-50.1	15.0	0.00e+00	0	23	0	446693376	63	4261
2026-01-10 07:16:29.71	85.37	15.53	-48.8	-50.1	15.0	0.00e+00	0	23	0	449839104	63	4274
2026-01-10 07:16:30.72	85.24	15.62	-48.8	-50.1	15.0	0.00e+00	0	23	0	452984832	63	4271
2026-01-10 07:16:31.73	85.12	15.71	-48.7	-50.1	15.0	0.00e+00	0	23	0	456130560	63	4243
2026-01-10 07:16:32.73	84.99	15.80	-48.8	-50.2	14.9	0.00e+00	0	23	0	459276288	63	4292
2026-01-10 07:16:33.74	84.86	15.89	-48.7	-50.0	15.0	0.00e+00	0	23	0	462422016	63	4220
2026-01-10 07:16:34.75	84.74	15.98	-48.6	-49.9	15.1	0.00e+00	0	23	0	465567744	63	4153
2026-01-10 07:16:35.76	84.61	16.07	-48.6	-49.9	15.1	0.00e+00	0	23	0	468713472	63	4170
2026-01-10 07:16:36.77	84.48	16.16	-48.6	-49.9	15.1	0.00e+00	0	23	0	471859200	63	4180
2026-01-10 07:16:37.78	84.35	16.26	-48.7	-50.0	15.0	0.00e+00	0	23	0	475004928	63	4220
2026-01-10 07:16:38.79	84.21	16.35	-48.6	-50.0	15.0	0.00e+00	0	23	0	478150656	63	4196
2026-01-10 07:16:39.79	84.08	16.44	-48.7	-50.1	15.0	0.00e+00	0	23	0	481296384	63	4246
2026-01-10 07:16:40.80	83.95	16.53	-48.7	-50.0	15.0	0.00e+00	0	23	0	484442112	63	4230
2026-01-10 07:16:41.80	83.82	16.62	-48.7	-50.0	15.0	0.00e+00	0	23	0	487587840	63	4228
2026-01-10 07:16:42.81	83.68	16.72	-48.7	-50.1	15.0	0.00e+00	0	23	0	490733568	63	4264
2026-01-10 07:16:43.82	83.55	16.81	-48.7	-50.1	15.0	0.00e+00	0	23	0	493879296	63	4251
2026-01-10 07:16:44.83	83.41	16.90	-48.7	-50.1	15.0	0.00e+00	0	23	0	497025024	63	4251
2026-01-10 07:16:45.84	83.27	17.00	-48.7	-50.0	15.0	0.00e+00	0	23	0	500170752	63	4237
2026-01-10 07:16:46.84	83.14	17.09	-48.7	-50.1	15.0	0.00e+00	0	23	0	503316480	63	4245
2026-01-10 07:16:47.85	83.00	17.18	-48.7	-50.0	15.0	0.00e+00	0	23	0	506462208	63	4205
2026-01-10 07:16:48.86	82.86	17.27	-48.6	-49.9	15.1	0.00e+00	0	23	0	509607936	63	4189
2026-01-10 07:16:49.87	82.72	17.37	-48.6	-49.9	15.1	0.00e+00	0	23	0	512753664	63	4159
2026-01-10 07:16:50.88	82.58	17.46	-48.8	-50.1	15.0	0.00e+00	0	23	0	515899392	63	4267
2026-01-10 07:16:51.89	82.43	17.56	-48.6	-49.9	15.1	0.00e+00	0	23	0	519045120	63	4176
2026-01-10 07:16:52.90	82.29	17.65	-48.7	-50.0	15.0	0.00e+00	0	23	0	522190848	63	4200
2026-01-10 07:16:53.91	82.15	17.75	-48.6	-50.0	15.1	0.00e+00	0	23	0	525336576	63	4194
2026-01-10 07:16:54.92	82.00	17.84	-48.6	-50.0	15.1	0.00e+00	0	23	0	528482304	63	4194
2026-01-10 07:16:55.92	81.86	17.93	-48.6	-49.9	15.1	0.00e+00	0	23	0	531628032	63	4176
2026-01-10 07:16:56.93	81.71	18.03	-48.7	-50.0	15.0	0.00e+00	0	23	0	534773760	63	4229
2026-01-10 07:16:57.94	81.56	18.13	-48.6	-49.9	15.1	0.00e+00	0	23	0	537919488	63	4158
2026-01-10 07:16:58.94	81.41	18.22	-48.7	-50.0	15.0	0.00e+00	0	23	0	541065216	63	4230
2026-01-10 07:16:59.95	81.26	18.32	-48.6	-49.9	15.1	0.00e+00	0	23	0	544210944	63	4185
2026-01-10 07:17:00.97	81.11	18.41	-48.5	-49.8	15.2	0.00e+00	0	23	0	547356672	63	4115
2026-01-10 07:17:01.97	80.96	18.51	-48.5	-49.8	15.1	0.00e+00	0	23	0	550502400	63	4124
2026-01-10 07:17:02.98	80.81	18.60	-48.5	-49.8	15.2	0.00e+00	0	23	0	553648128	63	4127
2026-01-10 07:17:03.99	80.65	18.70	-48.3	-49.5	15.3	0.00e+00	0	23	0	556793856	63	3982
2026-01-10 07:17:05.00	80.50	18.80	-48.3	-49.5	15.3	0.00e+00	0	23	0	559939584	63	3983
2026-01-10 07:17:06.01	80.34	18.89	-48.2	-49.4	15.4	0.00e+00	0	23	0	563085312	63	3948
2026-01-10 07:17:07.02	80.19	18.99	-48.0	-49.3	15.2	0.00e+00	0	23	0	566231040	62	4114
2026-01-10 07:17:08.02	80.03	19.09	-48.0	-49.2	15.3	0.00e+00	0	23	0	569376768	62	4098
2026-01-10 07:17:09.03	79.87	19.18	-47.9	-49.1	15.3	0.00e+00	0	23	0	572522496	62	4025
2026-01-10 07:17:10.04	79.71	19.28	-48.0	-49.2	15.3	0.00e+00	0	23	0	575668224	62	4084
2026-01-10 07:17:11.05	79.55	19.38	-47.9	-49.2	15.3	0.00e+00	0	23	0	578813952	62	4056
2026-01-10 07:17:12.05	79.39	19.47	-47.9	-49.1	15.3	0.00e+00	0	23	0	581959680	62	4032
2026-01-10 07:17:13.06	79.23	19.57	-47.9	-49.1	15.3	0.00e+00	0	23	0	585105408	62	4043
2026-01-10 07:17:14.07	79.06	19.67	-47.8	-49.1	15.4	0.00e+00	0	23	0	588251136	62	4005
2026-01-10 07:17:15.08	78.90	19.77	-47.9	-49.1	15.3	0.00e+00	0	23	0	591396864	62	4019
2026-01-10 07:17:16.09	78.73	19.86	-47.9	-49.1	15.3	0.00e+00	0	23	0	594542592	62	4030
2026-01-10 07:17:17.10	78.56	19.96	-47.6	-48.8	15.3	0.00e+00	0	23	0	597688320	61	4129
2026-01-10 07:17:18.11	78.39	20.06	-47.6	-48.8	15.3	0.00e+00	0	23	0	600834048	61	4137
2026-01-10 07:17:19.12	78.23	20.16	-47.6	-48.8	15.3	0.00e+00	0	23	0	603979776	61	4142
2026-01-10 07:17:20.14	78.05	20.26	-47.7	-48.9	15.3	0.00e+00	0	23	0	607125504	61	4152
2026-01-10 07:17:21.15	77.88	20.36	-47.6	-48.8	15.3	0.00e+00	0	23	0	610271232	61	4113
2026-01-10 07:17:22.15	77.71	20.46	-47.7	-48.9	15.3	0.00e+00	0	23	0	613416960	61	4187
2026-01-10 07:17:23.16	77.54	20.55	-47.6	-48.8	15.3	0.00e+00	0	23	0	616562688	61	4144
2026-01-10 07:17:24.17	77.36	20.65	-47.6	-48.8	15.3	0.00e+00	0	23	0	619708416	61	4129
2026-01-10 07:17:25.18	77.18	20.75	-47.7	-48.9	15.3	0.00e+00	0	23	0	622854144	61	4154
2026-01-10 07:17:26.19	77.01	20.85	-47.7	-48.9	15.3	0.00e+00	0	23	0	625999872	61	4183
2026-01-10 07:17:27.20	76.83	20.95	-47.5	-48.7	15.4	0.00e+00	0	23	0	629145600	61	4082
2026-01-10 07:17:28.21	76.65	21.05	-47.6	-48.8	15.3	0.00e+00	0	23	0	632291328	61	4111
2026-01-10 07:17:29.21	76.47	21.15	-47.5	-48.7	15.4	0.00e+00	0	23	0	635437056	61	4090
2026-01-10 07:17:30.22	76.29	21.25	-47.5	-48.7	15.4	0.00e+00	0	23	0	638582784	61	4076
2026-01-10 07:17:31.23	76.10	21.35	-47.5	-48.7	15.4	0.00e+00	0	23	0	641728512	61	4080
2026-01-10 07:17:32.24	75.92	21.45	-47.5	-48.7	15.4	0.00e+00	0	23	0	644874240	61	4073
2026-01-10 07:17:33.25	75.73	21.55	-47.6	-48.8	15.3	0.00e+00	0	23	0	648019968	61	4100
2026-01-10 07:17:34.26	75.55	21.65	-47.4	-48.6	15.4	0.00e+00	0	23	0	651165696	61	4031
2026-01-10 07:17:35.26	75.36	21.74	-47.5	-48.6	15.4	0.00e+00	0	23	0	654311424	61	4049
2026-01-10 07:17:36.27	75.17	21.84	-47.5	-48.7	15.4	0.00e+00	0	23	0	657457152	61	4061
2026-01-10 07:17:37.28	74.98	21.94	-47.5	-48.7	15.4	0.00e+00	0	23	0	660602880	61	4077
2026-01-10 07:17:38.28	74.79	22.04	-47.5	-48.7	15.3	0.00e+00	0	23	0	663748608	61	4089
2026-01-10 07:17:39.29	74.60	22.14	-47.5	-48.7	15.4	0.00e+00	0	23	0	666894336	61	4052
2026-01-10 07:17:40.30	74.40	22.24	-47.5	-48.7	15.3	0.00e+00	0	23	0	670040064	61	4088
2026-01-10 07:17:41.31	74.21	22.34	-47.6	-48.8	15.3	0.00e+00	0	23	0	673185792	61	4121
2026-01-10 07:17:42.32	74.01	22.44	-47.5	-48.7	15.4	0.00e+00	0	23	0	676331520	61	4065
2026-01-10 07:17:43.33	73.81	22.54	-47.5	-48.7	15.4	0.00e+00	0	23	0	679477248	61	4060
2026-01-10 07:17:44.34	73.61	22.64	-47.6	-48.7	15.3	0.00e+00	0	23	0	682622976	61	4093
2026-01-10 07:17:45.34	73.41	22.74	-47.5	-48.7	15.4	0.00e+00	0	23	0	685768704	61	4057
2026-01-10 07:17:46.35	73.21	22.84	-47.5	-48.7	15.3	0.00e+00	0	23	0	688914432	61	4068
2026-01-10 07:17:47.36	73.01	22.94	-47.7	-48.9	15.3	0.00e+00	0	23	0	692060160	61	4154
2026-01-10 07:17:48.37	72.80	23.04	-47.8	-49.0	15.2	0.00e+00	0	23	0	695205888	61	4219
2026-01-10 07:17:49.38	72.60	23.14	-47.9	-49.1	15.2	0.00e+00	0	23	0	698351616	61	4260
2026-01-10 07:17:50.39	72.39	23.24	-47.9	-49.1	15.2	0.00e+00	0	23	0	701497344	61	4265
2026-01-10 07:17:51.39	72.18	23.34	-47.7	-48.9	15.3	0.00e+00	0	23	0	704643072	61	4170
2026-01-10 07:17:52.40	71.97	23.44	-47.8	-49.0	15.3	0.00e+00	0	23	0	707788800	61	4213
2026-01-10 07:17:53.41	71.76	23.54	-47.5	-48.7	15.4	0.00e+00	0	23	0	710934528	61	4068
2026-01-10 07:17:54.41	71.55	23.64	-47.3	-48.4	15.5	0.00e+00	0	23	0	714080256	61	3938
2026-01-10 07:17:55.42	71.34	23.74	-47.3	-48.4	15.5	0.00e+00	0	23	0	717225984	61	3952
2026-01-10 07:17:56.44	71.12	23.84	-47.3	-48.5	15.5	0.00e+00	0	23	0	720371712	61	3959
2026-01-10 07:17:57.44	70.90	23.94	-47.4	-48.5	15.4	0.00e+00	0	23	0	723517440	61	3996
2026-01-10 07:17:58.45	70.69	24.04	-47.6	-48.8	15.3	0.00e+00	0	23	0	726663168	61	4104
2026-01-10 07:17:59.46	70.47	24.14	-47.6	-48.8	15.3	0.00e+00	0	23	0	729808896	61	4115
2026-01-10 07:18:00.47	70.25	24.24	-47.8	-49.0	15.3	0.00e+00	0	23	0	732954624	61	4197
2026-01-10 07:18:01.48	70.02	24.34	-47.8	-49.0	15.2	0.00e+00	0	23	0	736100352	61	4213
2026-01-10 07:18:02.49	69.80	24.44	-47.8	-49.0	15.2	0.00e+00	0	23	0	739246080	61	4230
2026-01-10 07:18:03.50	69.57	24.54	-47.6	-48.8	15.3	0.00e+00	0	23	0	742391808	61	4103
2026-01-10 07:18:04.51	69.35	24.64	-47.6	-48.7	15.3	0.00e+00	0	23	0	745537536	61	4090
2026-01-10 07:18:05.52	69.12	24.74	-47.5	-48.7	15.4	0.00e+00	0	23	0	748683264	61	4053
2026-01-10 07:18:06.53	68.89	24.84	-47.5	-48.7	15.4	0.00e+00	0	23	0	751828992	61	4061
2026-01-10 07:18:07.54	68.66	24.94	-47.5	-48.7	15.4	0.00e+00	0	23	0	754974720	61	4076
2026-01-10 07:18:08.55	68.42	25.03	-47.6	-48.8	15.3	0.00e+00	0	23	0	758120448	61	4110
2026-01-10 07:18:09.56	68.19	25.13	-47.7	-48.9	15.3	0.00e+00	0	23	0	761266176	61	4183
2026-01-10 07:18:10.57	67.95	25.23	-47.8	-49.0	15.3	0.00e+00	0	23	0	764411904	61	4203
2026-01-10 07:18:11.57	67.72	25.33	-47.8	-49.0	15.3	0.00e+00	0	23	0	767557632	61	4203
2026-01-10 07:18:12.58	67.48	25.43	-47.9	-49.1	15.2	0.00e+00	0	23	0	770703360	61	4265
2026-01-10 07:18:13.59	67.24	25.52	-47.9	-49.1	15.2	0.00e+00	0	23	0	773849088	61	4256
2026-01-10 07:18:14.60	67.00	25.62	-47.9	-49.2	15.2	0.00e+00	0	23	0	776994816	61	4298
2026-01-10 07:18:15.61	66.76	25.72	-48.1	-49.3	15.1	0.00e+00	0	23	0	780140544	61	4372
2026-01-10 07:18:16.61	66.51	25.81	-48.2	-49.5	15.0	0.00e+00	0	23	0	783286272	61	4465
2026-01-10 07:18:17.61	66.27	25.91	-48.2	-49.5	15.1	0.00e+00	0	23	0	786432000	61	4465
2026-01-10 07:18:18.62	66.02	26.01	-48.3	-49.6	15.0	0.00e+00	0	23	0	789577728	61	4518
2026-01-10 07:18:19.63	65.77	26.10	-48.5	-49.8	15.1	0.00e+00	0	23	0	792723456	62	4349
2026-01-10 07:18:20.64	65.52	26.20	-48.4	-49.7	15.1	0.00e+00	0	23	0	795869184	62	4322
2026-01-10 07:18:21.65	65.27	26.30	-48.5	-49.7	15.1	0.00e+00	0	23	0	799014912	62	4330
2026-01-10 07:18:22.66	65.02	26.39	-48.4	-49.7	15.1	0.00e+00	0	23	0	802160640	62	4311
2026-01-10 07:18:23.66	64.76	26.49	-48.3	-49.6	15.1	0.00e+00	0	23	0	805306368	62	4260
2026-01-10 07:18:24.67	64.51	26.58	-48.3	-49.6	15.1	0.00e+00	0	23	0	808452096	62	4243
2026-01-10 07:18:25.68	64.25	26.68	-48.2	-49.4	15.2	0.00e+00	0	23	0	811597824	62	4184
2026-01-10 07:18:26.70	63.99	26.77	-48.2	-49.4	15.2	0.00e+00	0	23	0	814743552	62	4164
2026-01-10 07:18:27.70	63.73	26.86	-48.2	-49.4	15.2	0.00e+00	0	23	0	817889280	62	4192
2026-01-10 07:18:28.71	63.46	26.96	-48.2	-49.4	15.2	0.00e+00	0	23	0	821035008	62	4175
2026-01-10 07:18:29.72	63.20	27.05	-48.1	-49.3	15.3	0.00e+00	0	23	0	824180736	62	4134
2026-01-10 07:18:30.72	62.94	27.14	-48.1	-49.3	15.2	0.00e+00	0	23	0	827326464	62	4143
2026-01-10 07:18:31.73	62.67	27.24	-48.1	-49.3	15.2	0.00e+00	0	23	0	830472192	62	4125
2026-01-10 07:18:32.74	62.40	27.33	-48.1	-49.4	15.2	0.00e+00	0	23	0	833617920	62	4154
2026-01-10 07:18:33.75	62.13	27.42	-48.3	-49.5	15.2	0.00e+00	0	23	0	836763648	62	4213
2026-01-10 07:18:34.76	61.86	27.51	-48.4	-49.7	15.1	0.00e+00	0	23	0	839909376	62	4304
2026-01-10 07:18:35.77	61.58	27.60	-48.4	-49.6	15.1	0.00e+00	0	23	0	843055104	62	4288
2026-01-10 07:18:36.78	61.31	27.69	-48.2	-49.4	15.2	0.00e+00	0	23	0	846200832	62	4183
2026-01-10 07:18:37.78	61.03	27.78	-48.2	-49.4	15.2	0.00e+00	0	23	0	849346560	62	4179
2026-01-10 07:18:38.80	60.75	27.87	-48.3	-49.5	15.2	0.00e+00	0	23	0	852492288	62	4219
2026-01-10 07:18:39.81	60.47	27.96	-48.3	-49.6	15.1	0.00e+00	0	23	0	855638016	62	4262
2026-01-10 07:18:40.81	60.19	28.05	-48.4	-49.6	15.1	0.00e+00	0	23	0	858783744	62	4282
2026-01-10 07:18:41.82	59.91	28.14	-48.3	-49.5	15.1	0.00e+00	0	23	0	861929472	62	4241
2026-01-10 07:18:42.83	59.62	28.23	-48.3	-49.5	15.2	0.00e+00	0	23	0	865075200	62	4224
2026-01-10 07:18:43.84	59.34	28.31	-48.3	-49.6	15.2	0.00e+00	0	23	0	868220928	62	4258
2026-01-10 07:18:44.84	59.05	28.40	-48.3	-49.5	15.2	0.00e+00	0	23	0	871366656	62	4240
2026-01-10 07:18:45.85	58.76	28.49	-48.0	-49.2	15.3	0.00e+00	0	23	0	874512384	62	4076
2026-01-10 07:18:46.86	58.47	28.57	-48.0	-49.2	15.3	0.00e+00	0	23	0	877658112	62	4084
2026-01-10 07:18:47.87	58.18	28.66	-48.2	-49.5	15.2	0.00e+00	0	23	0	880803840	62	4198
2026-01-10 07:18:48.88	57.88	28.74	-48.4	-49.7	15.1	0.00e+00	0	23	0	883949568	62	4296
2026-01-10 07:18:49.89	57.59	28.82	-48.6	-49.9	15.0	0.00e+00	0	23	0	887095296	62	4421
2026-01-10 07:18:50.90	57.29	28.91	-48.6	-49.9	15.0	0.00e+00	0	23	0	890241024	62	4406
2026-01-10 07:18:51.91	56.99	28.99	-48.6	-49.8	15.1	0.00e+00	0	23	0	894435328	62	4391
2026-01-10 07:18:52.92	56.69	29.07	-48.5	-49.7	15.1	0.00e+00	0	23	0	897581056	62	4339
2026-01-10 07:18:53.93	56.39	29.15	-48.4	-49.7	15.1	0.00e+00	0	23	0	899678208	62	4317
2026-01-10 07:18:54.93	56.09	29.23	-48.6	-49.8	15.0	0.00e+00	0	23	0	902823936	62	4376
2026-01-10 07:18:55.94	55.78	29.31	-48.5	-49.8	15.0	0.00e+00	0	23	0	905969664	62	4375
2026-01-10 07:18:56.95	55.48	29.39	-48.5	-49.8	15.1	0.00e+00	0	23	0	909115392	62	4351
2026-01-10 07:18:57.95	55.17	29.47	-48.5	-49.7	15.1	0.00e+00	0	23	0	912261120	62	4338
2026-01-10 07:18:58.95	54.87	29.55	-48.4	-49.6	15.1	0.00e+00	0	23	0	915406848	62	4278
2026-01-10 07:18:59.96	54.55	29.62	-48.3	-49.5	15.2	0.00e+00	0	23	0	919601152	62	4235
2026-01-10 07:19:00.97	54.24	29.70	-48.3	-49.5	15.2	0.00e+00	0	23	0	922746880	62	4219
2026-01-10 07:19:01.98	53.93	29.78	-48.0	-49.2	15.3	0.00e+00	0	23	0	924844032	62	4086
2026-01-10 07:19:02.99	53.61	29.85	-48.0	-49.2	15.3	0.00e+00	0	23	0	927989760	62	4053
2026-01-10 07:19:04.00	53.29	29.93	-48.2	-49.4	15.2	0.00e+00	0	23	0	931135488	62	4169
2026-01-10 07:19:05.01	52.98	30.00	-48.2	-49.5	15.2	0.00e+00	0	23	0	934281216	62	4209
2026-01-10 07:19:06.02	52.66	30.07	-48.4	-49.7	15.1	0.00e+00	0	23	0	938475520	62	4311
2026-01-10 07:19:07.02	52.34	30.14	-48.4	-49.7	15.1	0.00e+00	0	23	0	941621248	62	4312
2026-01-10 07:19:08.03	52.02	30.21	-48.5	-49.8	15.1	0.00e+00	0	23	0	944766976	62	4359
2026-01-10 07:19:09.04	51.69	30.28	-48.4	-49.7	15.1	0.00e+00	0	23	0	947912704	62	4300
2026-01-10 07:19:10.05	51.37	30.35	-48.6	-49.8	15.0	0.00e+00	0	23	0	950009856	62	4381
2026-01-10 07:19:11.05	51.04	30.42	-48.6	-49.8	15.0	0.00e+00	0	23	0	953155584	62	4375
2026-01-10 07:19:12.06	50.71	30.49	-48.8	-50.1	15.0	0.00e+00	0	23	0	957349888	62	4508
2026-01-10 07:19:13.06	50.39	30.55	-48.8	-50.1	14.9	0.00e+00	0	23	0	959447040	62	4501
2026-01-10 07:19:14.07	50.06	30.62	-49.0	-50.3	15.0	0.00e+00	0	23	0	963641344	63	4373
2026-01-10 07:19:15.07	49.73	30.68	-48.9	-50.2	15.0	0.00e+00	0	23	0	966787072	63	4322
2026-01-10 07:19:16.08	49.39	30.74	-48.9	-50.2	15.0	0.00e+00	0	23	0	969932800	63	4305
2026-01-10 07:19:17.09	49.06	30.81	-48.9	-50.2	15.0	0.00e+00	0	23	0	972029952	63	4331
2026-01-10 07:19:18.09	48.73	30.87	-48.9	-50.2	15.0	0.00e+00	0	23	0	975175680	63	4309
2026-01-10 07:19:19.10	48.39	30.93	-48.9	-50.2	15.0	0.00e+00	0	23	0	978321408	63	4333
2026-01-10 07:19:20.11	48.05	30.99	-48.8	-50.1	15.0	0.00e+00	0	23	0	982515712	63	4270
2026-01-10 07:19:21.12	47.71	31.05	-48.7	-50.0	15.1	0.00e+00	0	23	0	985661440	63	4207
2026-01-10 07:19:22.13	47.37	31.10	-48.7	-50.0	15.1	0.00e+00	0	23	0	988807168	63	4226
2026-01-10 07:19:23.14	47.03	31.16	-48.7	-50.0	15.1	0.00e+00	0	23	0	991952896	63	4197
2026-01-10 07:19:24.14	46.69	31.22	-48.7	-49.9	15.1	0.00e+00	0	23	0	995098624	63	4192
2026-01-10 07:19:25.16	46.34	31.27	-48.8	-50.1	15.1	0.00e+00	0	23	0	997195776	63	4246
2026-01-10 07:19:26.17	45.99	31.32	-48.8	-50.1	15.1	0.00e+00	0	23	0	1001390080	63	4265
2026-01-10 07:19:27.17	45.65	31.38	-49.0	-50.3	15.0	0.00e+00	0	23	0	1004535808	63	4355
2026-01-10 07:19:28.18	45.30	31.43	-48.9	-50.2	15.0	0.00e+00	0	23	0	1007681536	63	4324
2026-01-10 07:19:29.19	44.95	31.48	-49.1	-50.4	14.9	0.00e+00	0	23	0	1010827264	63	4420
2026-01-10 07:19:30.20	44.60	31.53	-49.2	-50.5	14.9	0.00e+00	0	23	0	1013972992	63	4493
2026-01-10 07:19:31.21	44.25	31.57	-49.3	-50.6	14.8	0.00e+00	0	23	0	1017118720	63	4541
2026-01-10 07:19:32.22	43.90	31.62	-49.2	-50.6	14.8	0.00e+00	0	23	0	1020264448	63	4504
2026-01-10 07:19:33.23	43.54	31.67	-49.3	-50.7	14.8	0.00e+00	0	23	0	1023410176	63	4552
2026-01-10 07:19:34.24	43.19	31.71	-49.0	-50.3	15.0	0.00e+00	0	23	0	1026555904	63	4379
2026-01-10 07:19:35.25	42.83	31.75	-49.0	-50.3	15.0	0.00e+00	0	23	0	1029701632	63	4351
2026-01-10 07:19:36.25	42.48	31.79	-49.0	-50.3	14.9	0.00e+00	0	23	0	1032847360	63	4387
2026-01-10 07:19:37.26	42.12	31.84	-48.8	-50.1	15.0	0.00e+00	0	23	0	1035993088	63	4284
2026-01-10 07:19:38.27	41.76	31.88	-48.7	-50.0	15.1	0.00e+00	0	23	0	1039138816	63	4223
2026-01-10 07:19:39.28	41.40	31.91	-48.7	-50.0	15.1	0.00e+00	0	23	0	1042284544	63	4209
2026-01-10 07:19:40.29	41.04	31.95	-48.7	-49.9	15.1	0.00e+00	0	23	0	1045430272	63	4188
2026-01-10 07:19:41.30	40.68	31.99	-48.7	-50.0	15.1	0.00e+00	0	23	0	1048576000	63	4221
2026-01-10 07:19:42.30	40.33	32.02	-48.8	-50.0	15.1	0.00e+00	0	23	0	1051721728	63	4235
2026-01-10 07:19:43.31	39.96	32.05	-48.9	-50.2	15.0	0.00e+00	0	23	0	1054867456	63	4313
2026-01-10 07:19:44.32	39.60	32.09	-48.9	-50.2	15.0	0.00e+00	0	23	0	1058013184	63	4319
2026-01-10 07:19:45.33	39.24	32.12	-49.0	-50.3	15.0	0.00e+00	0	23	0	1061158912	63	4360
2026-01-10 07:19:46.34	38.87	32.15	-48.9	-50.2	15.0	0.00e+00	0	23	0	1064304640	63	4315
2026-01-10 07:19:47.35	38.51	32.17	-48.9	-50.2	15.0	0.00e+00	0	23	0	1067450368	63	4337
2026-01-10 07:19:48.35	38.15	32.20	-48.8	-50.1	15.1	0.00e+00	0	23	0	1070596096	63	4253
2026-01-10 07:19:49.36	37.78	32.23	-48.9	-50.2	15.0	0.00e+00	0	23	0	1073741824	63	4310
2026-01-10 07:19:50.37	37.41	32.25	-49.1	-50.4	14.9	0.00e+00	0	23	0	1076887552	63	4431
2026-01-10 07:19:51.38	37.05	32.27	-49.3	-50.6	14.8	0.00e+00	0	23	0	1080033280	63	4537
2026-01-10 07:19:52.39	36.68	32.30	-49.3	-50.7	14.8	0.00e+00	0	23	0	1083179008	63	4548
2026-01-10 07:19:53.39	36.31	32.32	-49.2	-50.6	14.9	0.00e+00	0	23	0	1086324736	63	4498
2026-01-10 07:19:54.40	35.95	32.33	-49.2	-50.6	14.9	0.00e+00	0	23	0	1089470464	63	4499
2026-01-10 07:19:55.41	35.58	32.35	-49.1	-50.5	14.9	0.00e+00	0	23	0	1092616192	63	4463
2026-01-10 07:19:56.42	35.21	32.37	-49.1	-50.5	14.9	0.00e+00	0	23	0	1095761920	63	4455
2026-01-10 07:19:57.43	34.84	32.38	-49.1	-50.5	14.9	0.00e+00	0	23	0	1098907648	63	4459
2026-01-10 07:19:58.44	34.47	32.40	-49.0	-50.3	15.0	0.00e+00	0	23	0	1102053376	63	4381
2026-01-10 07:19:59.44	34.10	32.41	-48.9	-50.3	15.0	0.00e+00	0	23	0	1105199104	63	4341
2026-01-10 07:20:00.45	33.73	32.42	-48.8	-50.1	15.0	0.00e+00	0	23	0	1108344832	63	4284
2026-01-10 07:20:01.47	33.35	32.43	-49.1	-50.4	14.9	0.00e+00	0	23	0	1111490560	63	4418
2026-01-10 07:20:02.48	32.98	32.44	-49.1	-50.4	14.9	0.00e+00	0	23	0	1114636288	63	4435
2026-01-10 07:20:03.48	32.62	32.45	-49.4	-50.7	14.9	0.00e+00	0	23	0	1117782016	64	4336
2026-01-10 07:20:04.49	32.24	32.45	-49.4	-50.8	14.9	0.00e+00	0	23	0	1120927744	64	4359
2026-01-10 07:20:05.50	31.87	32.46	-49.4	-50.8	14.9	0.00e+00	0	23	0	1124073472	64	4354
2026-01-10 07:20:06.51	31.50	32.46	-49.4	-50.8	14.9	0.00e+00	0	23	0	1127219200	64	4357
2026-01-10 07:20:07.52	31.13	32.46	-49.3	-50.6	14.9	0.00e+00	0	23	0	1130364928	64	4273
2026-01-10 07:20:08.52	30.76	32.46	-49.2	-50.5	15.0	0.00e+00	0	23	0	1133510656	64	4220
2026-01-10 07:20:09.53	30.39	32.46	-49.1	-50.4	15.1	0.00e+00	0	23	0	1136656384	64	4150
2026-01-10 07:20:10.54	30.02	32.46	-49.0	-50.3	15.1	0.00e+00	0	23	0	1139802112	64	4135
2026-01-10 07:20:11.55	29.65	32.45	-48.9	-50.2	15.1	0.00e+00	0	23	0	1142947840	64	4084
2026-01-10 07:20:12.56	29.28	32.45	-48.9	-50.2	15.2	0.00e+00	0	23	0	1146093568	64	4069
2026-01-10 07:20:13.57	28.90	32.44	-48.9	-50.2	15.1	0.00e+00	0	23	0	1149239296	64	4078
2026-01-10 07:20:14.58	28.53	32.43	-49.0	-50.3	15.1	0.00e+00	0	23	0	1152385024	64	4136
2026-01-10 07:20:15.59	28.16	32.42	-48.9	-50.2	15.2	0.00e+00	0	23	0	1155530752	64	4081
2026-01-10 07:20:16.60	27.79	32.41	-48.8	-50.0	15.2	0.00e+00	0	23	0	1158676480	64	4002
2026-01-10 07:20:17.61	27.42	32.40	-48.9	-50.2	15.1	0.00e+00	0	23	0	1161822208	64	4092
2026-01-10 07:20:18.62	27.05	32.39	-49.1	-50.5	15.0	0.00e+00	0	23	0	1164967936	64	4205
2026-01-10 07:20:19.62	26.69	32.37	-49.2	-50.5	15.0	0.00e+00	0	23	0	1168113664	64	4225
2026-01-10 07:20:20.63	26.32	32.35	-49.1	-50.4	15.0	0.00e+00	0	23	0	1171259392	64	4172
2026-01-10 07:20:21.64	25.95	32.34	-49.1	-50.4	15.0	0.00e+00	0	23	0	1174405120	64	4193
2026-01-10 07:20:22.65	25.58	32.32	-49.0	-50.3	15.1	0.00e+00	0	23	0	1177550848	64	4108
2026-01-10 07:20:23.66	25.21	32.30	-48.9	-50.2	15.2	0.00e+00	0	23	0	1180696576	64	4058
2026-01-10 07:20:24.66	24.85	32.28	-49.0	-50.3	15.1	0.00e+00	0	23	0	1183842304	64	4118
2026-01-10 07:20:25.68	24.48	32.25	-48.8	-50.1	15.2	0.00e+00	0	23	0	1186988032	64	4008
2026-01-10 07:20:26.68	24.11	32.23	-48.8	-50.1	15.2	0.00e+00	0	23	0	1190133760	64	4025
2026-01-10 07:20:27.68	23.75	32.20	-48.7	-49.9	15.1	0.00e+00	0	23	0	1193279488	63	4178
2026-01-10 07:20:28.69	23.38	32.18	-48.7	-49.9	15.2	0.00e+00	0	23	0	1196425216	63	4174
2026-01-10 07:20:29.70	23.02	32.15	-48.7	-49.9	15.2	0.00e+00	0	23	0	1199570944	63	4177
2026-01-10 07:20:30.70	22.66	32.12	-48.7	-49.9	15.1	0.00e+00	0	23	0	1202716672	63	4176
2026-01-10 07:20:31.72	22.29	32.09	-48.8	-50.0	15.1	0.00e+00	0	23	0	1205862400	63	4233
2026-01-10 07:20:32.73	21.93	32.06	-48.8	-50.1	15.1	0.00e+00	0	23	0	1209008128	63	4245
2026-01-10 07:20:33.74	21.57	32.02	-48.9	-50.2	15.0	0.00e+00	0	23	0	1212153856	63	4333
2026-01-10 07:20:34.75	21.21	31.99	-48.8	-50.1	15.0	0.00e+00	0	23	0	1215299584	63	4282
2026-01-10 07:20:35.76	20.85	31.95	-48.8	-50.1	15.0	0.00e+00	0	23	0	1218445312	63	4275
2026-01-10 07:20:36.77	20.49	31.92	-48.9	-50.2	15.0	0.00e+00	0	23	0	1221591040	63	4292
2026-01-10 07:20:37.77	20.13	31.88	-48.8	-50.1	15.1	0.00e+00	0	23	0	1224736768	63	4270
2026-01-10 07:20:38.78	19.77	31.84	-48.9	-50.2	15.0	0.00e+00	0	23	0	1227882496	63	4300
2026-01-10 07:20:39.79	19.42	31.80	-48.8	-50.1	15.1	0.00e+00	0	23	0	1231028224	63	4265
2026-01-10 07:20:40.79	19.06	31.76	-48.8	-50.1	15.1	0.00e+00	0	23	0	1234173952	63	4245
2026-01-10 07:20:41.80	18.71	31.72	-48.8	-50.1	15.1	0.00e+00	0	23	0	1237319680	63	4260
2026-01-10 07:20:42.81	18.35	31.67	-48.9	-50.2	15.0	0.00e+00	0	23	0	1240465408	63	4299
2026-01-10 07:20:43.82	18.00	31.63	-49.0	-50.3	15.0	0.00e+00	0	23	0	1243611136	63	4358
2026-01-10 07:20:44.82	17.65	31.58	-49.1	-50.5	14.9	0.00e+00	0	23	0	1246756864	63	4449
2026-01-10 07:20:45.83	17.30	31.53	-49.2	-50.6	14.9	0.00e+00	0	23	0	1249902592	63	4510
2026-01-10 07:20:46.84	16.95	31.48	-49.2	-50.5	14.9	0.00e+00	0	23	0	1253048320	63	4482
2026-01-10 07:20:47.85	16.60	31.43	-49.1	-50.4	15.0	0.00e+00	0	23	0	1256194048	63	4407
2026-01-10 07:20:48.86	16.25	31.38	-48.9	-50.2	15.0	0.00e+00	0	23	0	1259339776	63	4318
2026-01-10 07:20:49.87	15.91	31.33	-48.7	-49.9	15.1	0.00e+00	0	23	0	1262485504	63	4188
2026-01-10 07:20:50.88	15.56	31.28	-48.7	-49.9	15.2	0.00e+00	0	23	0	1265631232	63	4173
2026-01-10 07:20:51.89	15.22	31.22	-48.7	-50.0	15.1	0.00e+00	0	23	0	1268776960	63	4205
2026-01-10 07:20:52.90	14.87	31.17	-48.9	-50.2	15.0	0.00e+00	0	23	0	1271922688	63	4339
2026-01-10 07:20:53.91	14.53	31.11	-49.3	-50.6	14.9	0.00e+00	0	23	0	1275068416	63	4520
2026-01-10 07:20:54.92	14.19	31.06	-49.2	-50.5	14.9	0.00e+00	0	23	0	1278214144	63	4480
2026-01-10 07:20:55.93	13.85	31.00	-49.1	-50.4	14.9	0.00e+00	0	23	0	1281359872	63	4415
2026-01-10 07:20:56.94	13.51	30.94	-48.9	-50.2	15.0	0.00e+00	0	23	0	1284505600	63	4305
2026-01-10 07:20:57.94	13.18	30.88	-49.0	-50.3	15.0	0.00e+00	0	23	0	1287651328	63	4348
2026-01-10 07:20:58.95	12.84	30.82	-48.5	-49.7	15.2	0.00e+00	0	23	0	1290797056	63	4089
2026-01-10 07:20:59.95	12.51	30.75	-48.2	-49.4	15.4	0.00e+00	0	23	0	1293942784	63	3952
2026-01-10 07:21:00.96	12.18	30.69	-48.3	-49.6	15.2	0.00e+00	0	23	0	1297088512	62	4262
2026-01-10 07:21:01.97	11.84	30.63	-48.7	-50.0	15.0	0.00e+00	0	23	0	1300234240	62	4458
2026-01-10 07:21:02.98	11.51	30.56	-48.9	-50.2	14.9	0.00e+00	0	23	0	1303379968	62	4593
2026-01-10 07:21:03.99	11.18	30.50	-49.0	-50.4	15.0	0.00e+00	0	23	0	1306525696	63	4392
2026-01-10 07:21:05.00	10.86	30.43	-48.9	-50.2	15.0	0.00e+00	0	23	0	1309671424	63	4298
2026-01-10 07:21:06.01	10.53	30.36	-48.5	-49.7	15.2	0.00e+00	0	23	0	1312817152	63	4077
2026-01-10 07:21:07.01	10.21	30.29	-48.2	-49.5	15.4	0.00e+00	0	23	0	1315962880	63	3960
2026-01-10 07:21:08.02	9.88	30.22	-48.2	-49.4	15.4	0.00e+00	0	23	0	1319108608	63	3946
2026-01-10 07:21:09.04	9.56	30.15	-48.2	-49.5	15.4	0.00e+00	0	23	0	1322254336	63	3964
2026-01-10 07:21:10.04	9.24	30.08	-48.2	-49.4	15.2	0.00e+00	0	23	0	1325400064	62	4186
2026-01-10 07:21:11.05	8.92	30.01	-48.4	-49.6	15.2	0.00e+00	0	23	0	1328545792	62	4281
2026-01-10 07:21:12.06	8.60	29.94	-48.5	-49.8	15.1	0.00e+00	0	23	0	1331691520	62	4362
2026-01-10 07:21:13.07	8.28	29.86	-48.5	-49.8	15.1	0.00e+00	0	23	0	1334837248	62	4348
2026-01-10 07:21:14.08	7.97	29.79	-48.4	-49.6	15.1	0.00e+00	0	23	0	1337982976	62	4290
2026-01-10 07:21:15.09	7.66	29.71	-48.1	-49.3	15.3	0.00e+00	0	23	0	1341128704	62	4116
2026-01-10 07:21:16.10	7.34	29.64	-48.0	-49.2	15.3	0.00e+00	0	23	0	1344274432	62	4094
2026-01-10 07:21:17.11	7.03	29.56	-48.2	-49.4	15.2	0.00e+00	0	23	0	1347420160	62	4166
2026-01-10 07:21:18.11	6.73	29.48	-48.2	-49.4	15.3	0.00e+00	0	23	0	1350565888	62	4166
2026-01-10 07:21:19.12	6.42	29.40	-48.5	-49.7	15.1	0.00e+00	0	23	0	1353711616	62	4338
2026-01-10 07:21:20.13	6.11	29.32	-48.7	-50.0	15.0	0.00e+00	0	23	0	1356857344	62	4482
2026-01-10 07:21:21.14	5.81	29.24	-48.6	-49.9	15.1	0.00e+00	0	23	0	1360003072	62	4407
2026-01-10 07:21:22.14	5.51	29.17	-48.5	-49.8	15.1	0.00e+00	0	23	0	1363148800	62	4352
2026-01-10 07:21:23.15	5.21	29.08	-48.1	-49.3	15.3	0.00e+00	0	23	0	1366294528	62	4118
2026-01-10 07:21:24.16	4.91	29.00	-47.9	-49.0	15.4	0.00e+00	0	23	0	1369440256	62	4000
2026-01-10 07:21:25.17	4.61	28.92	-47.8	-49.0	15.4	0.00e+00	0	23	0	1372585984	62	3969
2026-01-10 07:21:26.18	4.31	28.84	-47.6	-48.8	15.4	0.00e+00	0	23	0	1375731712	61	4113
2026-01-10 07:21:27.19	4.01	28.75	-47.8	-49.0	15.3	0.00e+00	0	23	0	1378877440	61	4229
2026-01-10 07:21:28.19	3.72	28.67	-48.2	-49.4	15.1	0.00e+00	0	23	0	1382023168	61	4433
2026-01-10 07:21:29.20	3.43	28.59	-48.6	-49.8	15.1	0.00e+00	0	23	0	1385168896	62	4390
2026-01-10 07:21:30.20	3.14	28.50	-48.7	-50.0	15.0	0.00e+00	0	23	0	1388314624	62	4448
2026-01-10 07:21:31.21	2.85	28.41	-48.6	-49.9	15.0	0.00e+00	0	23	0	1391460352	62	4428
2026-01-10 07:21:32.22	2.57	28.33	-48.4	-49.7	15.1	0.00e+00	0	23	0	1394606080	62	4305
2026-01-10 07:21:33.23	2.28	28.24	-48.3	-49.5	15.2	0.00e+00	0	23	0	1397751808	62	4240
2026-01-10 07:21:34.24	1.99	28.15	-48.1	-49.3	15.3	0.00e+00	0	23	0	1400897536	62	4137
2026-01-10 07:21:35.25	1.71	28.07	-48.0	-49.3	15.3	0.00e+00	0	23	0	1404043264	62	4105
2026-01-10 07:21:36.26	1.43	27.98	-48.3	-49.5	15.2	0.00e+00	0	23	0	1407188992	62	4220
2026-01-10 07:21:37.27	1.15	27.89	-48.3	-49.6	15.2	0.00e+00	0	23	0	1410334720	62	4251
2026-01-10 07:21:38.27	0.88	27.80	-48.5	-49.8	15.1	0.00e+00	0	23	0	1413480448	62	4357
2026-01-10 07:21:39.28	0.60	27.71	-48.6	-49.9	15.1	0.00e+00	0	23	0	1416626176	62	4397
2026-01-10 07:21:40.29	0.32	27.62	-48.2	-49.4	15.2	0.00e+00	0	23	0	1419771904	62	4167
2026-01-10 07:21:41.30	0.05	27.53	-47.9	-49.1	15.4	0.00e+00	0	23	0	1422917632	62	4032
2026-01-10 07:21:42.31	359.78	27.44	-47.6	-48.8	15.4	0.00e+00	0	23	0	1426063360	61	4123
2026-01-10 07:21:43.32	359.51	27.35	-47.4	-48.5	15.5	0.00e+00	0	23	0	1429209088	61	3994
2026-01-10 07:21:44.32	359.24	27.25	-47.3	-48.5	15.5	0.00e+00	0	23	0	1432354816	61	3970
2026-01-10 07:21:45.33	358.97	27.16	-47.4	-48.5	15.5	0.00e+00	0	23	0	1435500544	61	3991
2026-01-10 07:21:46.33	358.71	27.07	-47.7	-48.8	15.3	0.00e+00	0	23	0	1438646272	61	4143
2026-01-10 07:21:47.34	358.45	26.98	-47.8	-49.0	15.3	0.00e+00	0	23	0	1441792000	61	4239
2026-01-10 07:21:48.35	358.18	26.88	-48.1	-49.3	15.2	0.00e+00	0	23	0	1444937728	61	4387
2026-01-10 07:21:49.36	357.92	26.79	-48.3	-49.5	15.1	0.00e+00	0	23	0	1448083456	61	4464
2026-01-10 07:21:50.37	357.66	26.70	-48.2	-49.5	15.1	0.00e+00	0	23	0	1451229184	61	4457
2026-01-10 07:21:51.38	357.40	26.60	-48.2	-49.4	15.1	0.00e+00	0	23	0	1454374912	61	4434
2026-01-10 07:21:52.39	357.15	26.51	-48.0	-49.2	15.2	0.00e+00	0	23	0	1457520640	61	4325
2026-01-10 07:21:53.40	356.89	26.41	-48.0	-49.2	15.2	0.00e+00	0	23	0	1460666368	61	4294
2026-01-10 07:21:54.40	356.64	26.32	-47.7	-48.9	15.3	0.00e+00	0	23	0	1463812096	61	4184
2026-01-10 07:21:55.41	356.39	26.22	-47.8	-49.0	15.3	0.00e+00	0	23	0	1466957824	61	4203
2026-01-10 07:21:56.42	356.14	26.13	-47.8	-49.0	15.3	0.00e+00	0	23	0	1470103552	61	4233
2026-01-10 07:21:57.43	355.89	26.03	-47.8	-49.0	15.3	0.00e+00	0	23	0	1473249280	61	4212
2026-01-10 07:21:58.44	355.64	25.93	-47.9	-49.1	15.2	0.00e+00	0	23	0	1476395008	61	4269
2026-01-10 07:21:59.45	355.40	25.84	-47.9	-49.1	15.2	0.00e+00	0	23	0	1479540736	61	4282
2026-01-10 07:22:00.46	355.15	25.74	-47.9	-49.1	15.2	0.00e+00	0	23	0	1482686464	61	4271
2026-01-10 07:22:01.47	354.91	25.64	-47.9	-49.1	15.2	0.00e+00	0	23	0	1485832192	61	4248
2026-01-10 07:22:02.48	354.67	25.54	-48.0	-49.2	15.2	0.00e+00	0	23	0	1488977920	61	4306
2026-01-10 07:22:03.49	354.43	25.45	-48.1	-49.3	15.2	0.00e+00	0	23	0	1492123648	61	4353
2026-01-10 07:22:04.50	354.19	25.35	-48.1	-49.3	15.1	0.00e+00	0	23	0	1495269376	61	4358
2026-01-10 07:22:05.51	353.96	25.25	-48.2	-49.5	15.1	0.00e+00	0	23	0	1498415104	61	4442
2026-01-10 07:22:06.51	353.72	25.15	-48.2	-49.5	15.1	0.00e+00	0	23	0	1501560832	61	4444
2026-01-10 07:22:07.52	353.49	25.06	-48.2	-49.4	15.1	0.00e+00	0	23	0	1504706560	61	4419
2026-01-10 07:22:08.53	353.26	24.96	-48.0	-49.2	15.2	0.00e+00	0	23	0	1507852288	61	4325
2026-01-10 07:22:09.54	353.03	24.86	-48.0	-49.3	15.2	0.00e+00	0	23	0	1510998016	61	4352
2026-01-10 07:22:10.54	352.80	24.76	-47.9	-49.1	15.2	0.00e+00	0	23	0	1514143744	61	4286
2026-01-10 07:22:11.55	352.57	24.66	-48.0	-49.2	15.2	0.00e+00	0	23	0	1517289472	61	4300
2026-01-10 07:22:12.56	352.34	24.56	-48.1	-49.3	15.1	0.00e+00	0	23	0	1520435200	61	4357
2026-01-10 07:22:13.57	352.12	24.46	-48.1	-49.4	15.1	0.00e+00	0	23	0	1523580928	61	4394
2026-01-10 07:22:14.58	351.90	24.37	-48.1	-49.3	15.1	0.00e+00	0	23	0	1526726656	61	4387
2026-01-10 07:22:15.58	351.68	24.27	-48.1	-49.3	15.2	0.00e+00	0	23	0	1529872384	61	4366
2026-01-10 07:22:16.59	351.45	24.17	-48.0	-49.2	15.2	0.00e+00	0	23	0	1533018112	61	4319
2026-01-10 07:22:17.60	351.24	24.07	-48.0	-49.3	15.2	0.00e+00	0	23	0	1536163840	61	4342
2026-01-10 07:22:18.61	351.02	23.97	-48.1	-49.3	15.2	0.00e+00	0	23	0	1540358144	61	4384
2026-01-10 07:22:19.62	350.80	23.87	-48.1	-49.3	15.2	0.00e+00	0	23	0	1543503872	61	4371
2026-01-10 07:22:20.63	350.59	23.77	-48.0	-49.2	15.2	0.00e+00	0	23	0	1546649600	61	4335
2026-01-10 07:22:21.64	350.37	23.67	-47.9	-49.1	15.2	0.00e+00	0	23	0	1548746752	61	4281
2026-01-10 07:22:22.65	350.16	23.57	-48.0	-49.3	15.2	0.00e+00	0	23	0	1551892480	61	4349
2026-01-10 07:22:23.66	349.95	23.47	-47.9	-49.1	15.2	0.00e+00	0	23	0	1555038208	61	4258
2026-01-10 07:22:24.67	349.74	23.37	-48.0	-49.2	15.2	0.00e+00	0	23	0	1559232512	61	4305
2026-01-10 07:22:25.68	349.53	23.27	-48.1	-49.3	15.1	0.00e+00	0	23	0	1562378240	61	4360
2026-01-10 07:22:26.69	349.32	23.17	-48.1	-49.4	15.1	0.00e+00	0	23	0	1565523968	61	4402
2026-01-10 07:22:27.69	349.12	23.07	-48.2	-49.4	15.1	0.00e+00	0	23	0	1568669696	61	4436
2026-01-10 07:22:28.70	348.92	22.97	-48.3	-49.6	15.1	0.00e+00	0	23	0	1570766848	61	4501
2026-01-10 07:22:29.71	348.71	22.87	-48.2	-49.5	15.1	0.00e+00	0	23	0	1574961152	61	4475
2026-01-10 07:22:30.72	348.51	22.77	-48.2	-49.5	15.1	0.00e+00	0	23	0	1578106880	61	4465
2026-01-10 07:22:31.73	348.31	22.67	-48.3	-49.6	15.0	0.00e+00	0	23	0	1581252608	61	4527
2026-01-10 07:22:32.73	348.11	22.57	-48.3	-49.6	15.0	0.00e+00	0	23	0	1584398336	61	4526
2026-01-10 07:22:33.74	347.92	22.47	-48.4	-49.7	15.1	0.00e+00	0	23	0	1587544064	62	4314
2026-01-10 07:22:34.75	347.72	22.37	-48.4	-49.7	15.1	0.00e+00	0	23	0	1590689792	62	4317
2026-01-10 07:22:35.76	347.52	22.27	-48.4	-49.7	15.1	0.00e+00	0	23	0	1593835520	62	4303
2026-01-10 07:22:36.77	347.33	22.17	-48.3	-49.6	15.2	0.00e+00	0	23	0	1596981248	62	4262
2026-01-10 07:22:37.78	347.14	22.07	-48.1	-49.4	15.2	0.00e+00	0	23	0	1600126976	62	4147
2026-01-10 07:22:38.78	346.95	21.98	-48.0	-49.2	15.3	0.00e+00	0	23	0	1603272704	62	4075
2026-01-10 07:22:39.79	346.76	21.88	-47.8	-49.0	15.4	0.00e+00	0	23	0	1606418432	62	3993
2026-01-10 07:22:40.80	346.57	21.78	-47.8	-49.0	15.4	0.00e+00	0	23	0	1609564160	62	3962
2026-01-10 07:22:41.81	346.38	21.68	-47.6	-48.8	15.3	0.00e+00	0	23	0	1612709888	61	4120
2026-01-10 07:22:42.82	346.19	21.58	-47.8	-49.0	15.3	0.00e+00	0	23	0	1615855616	61	4205
2026-01-10 07:22:43.83	346.01	21.48	-47.8	-49.0	15.3	0.00e+00	0	23	0	1619001344	61	4240
2026-01-10 07:22:44.84	345.82	21.38	-48.0	-49.2	15.2	0.00e+00	0	23	0	1622147072	61	4309
2026-01-10 07:22:45.85	345.64	21.28	-48.1	-49.4	15.1	0.00e+00	0	23	0	1625292800	61	4407
2026-01-10 07:22:46.85	345.46	21.18	-48.1	-49.4	15.1	0.00e+00	0	23	0	1628438528	61	4407
2026-01-10 07:22:47.87	345.28	21.08	-48.1	-49.4	15.1	0.00e+00	0	23	0	1631584256	61	4418
2026-01-10 07:22:48.87	345.10	20.98	-48.1	-49.4	15.1	0.00e+00	0	23	0	1634729984	61	4399
2026-01-10 07:22:49.88	344.92	20.88	-48.1	-49.3	15.2	0.00e+00	0	23	0	1637875712	61	4369
2026-01-10 07:22:50.89	344.75	20.78	-48.1	-49.3	15.1	0.00e+00	0	23	0	1641021440	61	4369
2026-01-10 07:22:51.90	344.57	20.69	-48.0	-49.2	15.2	0.00e+00	0	23	0	1644167168	61	4330
2026-01-10 07:22:52.91	344.40	20.59	-47.8	-49.0	15.3	0.00e+00	0	23	0	1647312896	61	4223
2026-01-10 07:22:53.92	344.22	20.49	-47.7	-48.9	15.3	0.00e+00	0	23	0	1650458624	61	4185
2026-01-10 07:22:54.93	344.05	20.39	-47.8	-49.1	15.2	0.00e+00	0	23	0	1653604352	61	4248
2026-01-10 07:22:55.94	343.88	20.29	-47.7	-49.0	15.3	0.00e+00	0	23	0	1656750080	61	4195
2026-01-10 07:22:56.95	343.71	20.19	-47.6	-48.8	15.3	0.00e+00	0	23	0	1659895808	61	4144
2026-01-10 07:22:57.96	343.54	20.10	-47.6	-48.8	15.3	0.00e+00	0	23	0	1663041536	61	4145
2026-01-10 07:22:58.97	343.37	20.00	-47.7	-48.9	15.3	0.00e+00	0	23	0	1666187264	61	4146
2026-01-10 07:22:59.98	343.20	19.90	-47.7	-48.9	15.3	0.00e+00	0	23	0	1669332992	61	4156
2026-01-10 07:23:00.98	343.04	19.80	-47.8	-49.0	15.3	0.00e+00	0	23	0	1672478720	61	4202
2026-01-10 07:23:01.98	342.88	19.71	-47.9	-49.1	15.2	0.00e+00	0	23	0	1675624448	61	4255
2026-01-10 07:23:03.00	342.71	19.61	-47.9	-49.1	15.2	0.00e+00	0	23	0	1678770176	61	4281
2026-01-10 07:23:04.00	342.55	19.51	-47.9	-49.1	15.2	0.00e+00	0	23	0	1681915904	61	4270
2026-01-10 07:23:05.02	342.39	19.41	-47.8	-49.0	15.2	0.00e+00	0	23	0	1685061632	61	4198
2026-01-10 07:23:06.02	342.23	19.32	-47.7	-49.0	15.2	0.00e+00	0	23	0	1688207360	61	4199
2026-01-10 07:23:07.03	342.07	19.22	-47.7	-48.9	15.3	0.00e+00	0	23	0	1691353088	61	4163
2026-01-10 07:23:08.04	341.91	19.12	-47.7	-48.9	15.3	0.00e+00	0	23	0	1694498816	61	4189
2026-01-10 07:23:09.05	341.75	19.03	-47.7	-48.9	15.3	0.00e+00	0	23	0	1697644544	61	4191
2026-01-10 07:23:10.06	341.59	18.93	-47.8	-49.0	15.2	0.00e+00	0	23	0	1700790272	61	4232
2026-01-10 07:23:11.07	341.44	18.83	-47.9	-49.1	15.2	0.00e+00	0	23	0	1703936000	61	4282
2026-01-10 07:23:12.07	341.29	18.74	-48.0	-49.3	15.1	0.00e+00	0	23	0	1707081728	61	4346
2026-01-10 07:23:13.09	341.13	18.64	-48.2	-49.4	15.1	0.00e+00	0	23	0	1710227456	61	4424
2026-01-10 07:23:14.10	340.98	18.55	-48.2	-49.5	15.0	0.00e+00	0	23	0	1713373184	61	4454
2026-01-10 07:23:15.10	340.83	18.45	-48.2	-49.4	15.1	0.00e+00	0	23	0	1716518912	61	4433
2026-01-10 07:23:16.11	340.68	18.35	-48.2	-49.5	15.1	0.00e+00	0	23	0	1719664640	61	4452
2026-01-10 07:23:17.12	340.53	18.26	-48.3	-49.5	15.0	0.00e+00	0	23	0	1722810368	61	4482
2026-01-10 07:23:18.13	340.38	18.16	-48.2	-49.5	15.0	0.00e+00	0	23	0	1725956096	61	4460
2026-01-10 07:23:19.14	340.23	18.07	-48.1	-49.4	15.1	0.00e+00	0	23	0	1729101824	61	4417
2026-01-10 07:23:20.15	340.09	17.97	-48.2	-49.4	15.1	0.00e+00	0	23	0	1732247552	61	4426
2026-01-10 07:23:21.16	339.94	17.88	-48.1	-49.4	15.1	0.00e+00	0	23	0	1735393280	61	4400
2026-01-10 07:23:22.18	339.79	17.78	-48.0	-49.3	15.1	0.00e+00	0	23	0	1738539008	61	4355
2026-01-10 07:23:23.18	339.65	17.69	-48.2	-49.4	15.1	0.00e+00	0	23	0	1741684736	61	4422
2026-01-10 07:23:24.19	339.51	17.60	-48.1	-49.4	15.1	0.00e+00	0	23	0	1744830464	61	4397
2026-01-10 07:23:25.21	339.36	17.50	-48.1	-49.3	15.1	0.00e+00	0	23	0	1747976192	61	4379
2026-01-10 07:23:26.21	339.22	17.41	-48.1	-49.3	15.1	0.00e+00	0	23	0	1751121920	61	4386
2026-01-10 07:23:27.22	339.08	17.31	-48.1	-49.3	15.1	0.00e+00	0	23	0	1754267648	61	4375
2026-01-10 07:23:28.23	338.94	17.22	-48.1	-49.3	15.1	0.00e+00	0	23	0	1757413376	61	4391
2026-01-10 07:23:29.24	338.81	17.13	-48.2	-49.4	15.1	0.00e+00	0	23	0	1760559104	61	4429
2026-01-10 07:23:30.25	338.67	17.03	-48.2	-49.5	15.0	0.00e+00	0	23	0	1763704832	61	4456
2026-01-10 07:23:31.25	338.53	16.94	-48.3	-49.6	15.0	0.00e+00	0	23	0	1766850560	61	4528
2026-01-10 07:23:32.27	338.40	16.85	-48.3	-49.6	15.0	0.00e+00	0	23	0	1769996288	61	4508
2026-01-10 07:23:33.28	338.26	16.76	-48.4	-49.6	15.0	0.00e+00	0	23	0	1773142016	61	4540
2026-01-10 07:23:34.29	338.13	16.66	-48.4	-49.6	15.0	0.00e+00	0	23	0	1776287744	61	4542
2026-01-10 07:23:35.29	337.99	16.57	-48.3	-49.6	15.0	0.00e+00	0	23	0	1779433472	61	4521
2026-01-10 07:23:36.30	337.86	16.48	-48.3	-49.6	15.0	0.00e+00	0	23	0	1782579200	61	4534
2026-01-10 07:23:37.31	337.73	16.39	-48.2	-49.5	15.0	0.00e+00	0	23	0	1785724928	61	4475
2026-01-10 07:23:38.32	337.60	16.30	-48.3	-49.5	15.0	0.00e+00	0	23	0	1788870656	61	4480
2026-01-10 07:23:39.33	337.47	16.21	-48.1	-49.4	15.1	0.00e+00	0	23	0	1792016384	61	4398
2026-01-10 07:23:40.34	337.34	16.11	-48.1	-49.3	15.1	0.00e+00	0	23	0	1795162112	61	4384
2026-01-10 07:23:41.34	337.21	16.02	-48.1	-49.3	15.1	0.00e+00	0	23	0	1798307840	61	4364
2026-01-10 07:23:42.35	337.08	15.93	-48.1	-49.3	15.1	0.00e+00	0	23	0	1801453568	61	4381
2026-01-10 07:23:43.36	336.96	15.84	-48.1	-49.4	15.1	0.00e+00	0	23	0	1804599296	61	4413
2026-01-10 07:23:44.37	336.83	15.75	-48.2	-49.5	15.0	0.00e+00	0	23	0	1807745024	61	4456
2026-01-10 07:23:45.38	336.71	15.66	-48.3	-49.6	15.0	0.00e+00	0	23	0	1810890752	61	4516
2026-01-10 07:23:46.38	336.58	15.57	-48.4	-49.7	14.9	0.00e+00	0	23	0	1814036480	61	4560
2026-01-10 07:23:47.38	336.46	15.48	-48.5	-49.8	15.0	0.00e+00	0	23	0	1817182208	62	4372
2026-01-10 07:23:48.39	336.34	15.39	-48.6	-49.9	14.9	0.00e+00	0	23	0	1820327936	62	4437
2026-01-10 07:23:49.40	336.21	15.30	-48.7	-50.0	14.9	0.00e+00	0	23	0	1823473664	62	4479
2026-01-10 07:23:50.41	336.09	15.21	-48.8	-50.1	14.9	0.00e+00	0	23	0	1826619392	62	4519
2026-01-10 07:23:51.42	335.97	15.12	-48.8	-50.1	14.9	0.00e+00	0	23	0	1829765120	62	4540
2026-01-10 07:23:52.42	335.85	15.04	-48.7	-50.0	14.9	0.00e+00	0	23	0	1832910848	62	4482
2026-01-10 07:23:53.44	335.73	14.95	-48.8	-50.1	14.9	0.00e+00	0	23	0	1836056576	62	4527
2026-01-10 07:23:54.44	335.61	14.86	-48.7	-50.1	14.9	2.20e-06	0	23	0	1839202304	62	4500
2026-01-10 07:23:55.45	335.50	14.77	-48.6	-49.9	15.0	0.00e+00	0	23	0	1842348032	62	4408
2026-01-10 07:23:56.46	335.38	14.68	-48.7	-50.0	14.9	0.00e+00	0	23	0	1845493760	62	4484
2026-01-10 07:23:57.47	335.26	14.59	-48.6	-49.9	14.9	0.00e+00	0	23	0	1848639488	62	4405
2026-01-10 07:23:58.48	335.15	14.51	-48.5	-49.8	15.0	0.00e+00	0	23	0	1851785216	62	4379
2026-01-10 07:23:59.49	335.03	14.42	-48.7	-50.0	15.0	0.00e+00	0	23	0	1854930944	62	4458
2026-01-10 07:24:00.50	334.92	14.33	-48.6	-49.9	14.9	0.00e+00	0	23	0	1858076672	62	4441
2026-01-10 07:24:01.51	334.80	14.24	-48.7	-50.1	14.9	0.00e+00	0	23	0	1861222400	62	4497
2026-01-10 07:24:02.52	334.69	14.16	-48.7	-50.0	14.9	0.00e+00	0	23	0	1864368128	62	4492
2026-01-10 07:24:03.53	334.58	14.07	-48.7	-50.1	14.9	0.00e+00	0	23	0	1867513856	62	4511
2026-01-10 07:24:04.53	334.47	13.98	-48.8	-50.2	14.8	0.00e+00	0	23	0	1870659584	62	4546
2026-01-10 07:24:05.54	334.36	13.90	-48.9	-50.3	14.8	0.00e+00	0	23	0	1873805312	62	4599
2026-01-10 07:24:06.55	334.25	13.81	-49.1	-50.5	14.8	0.00e+00	0	23	0	1876951040	63	4444
2026-01-10 07:24:07.55	334.14	13.73	-49.1	-50.4	14.8	0.00e+00	0	23	0	1880096768	63	4439
2026-01-10 07:24:08.56	334.03	13.64	-49.2	-50.6	14.7	0.00e+00	0	23	0	1883242496	63	4545
2026-01-10 07:24:09.57	333.92	13.56	-49.3	-50.7	14.7	0.00e+00	0	23	0	1886388224	63	4564
2026-01-10 07:24:10.58	333.81	13.47	-49.2	-50.6	14.7	0.00e+00	0	23	0	1889533952	63	4524
2026-01-10 07:24:11.59	333.71	13.38	-49.3	-50.8	14.7	0.00e+00	0	23	0	1892679680	63	4603
2026-01-10 07:24:12.60	333.60	13.30	-49.4	-50.8	14.6	0.00e+00	0	23	0	1895825408	63	4624
2026-01-10 07:24:13.61	333.49	13.21	-49.4	-50.9	14.7	0.00e+00	0	23	0	1898971136	64	4404
2026-01-10 07:24:14.62	333.39	13.13	-49.4	-50.8	14.7	0.00e+00	0	23	0	1902116864	64	4383
2026-01-10 07:24:15.63	333.28	13.05	-49.4	-50.9	14.7	0.00e+00	0	23	0	1905262592	64	4409
2026-01-10 07:24:16.64	333.18	12.96	-49.5	-50.9	14.7	0.00e+00	0	23	0	1908408320	64	4433
2026-01-10 07:24:17.64	333.08	12.88	-49.5	-50.9	14.7	0.00e+00	0	23	0	1911554048	64	4438
2026-01-10 07:24:18.65	332.97	12.79	-49.4	-50.8	14.7	0.00e+00	0	23	0	1914699776	64	4381
2026-01-10 07:24:19.66	332.87	12.71	-49.4	-50.8	14.7	0.00e+00	0	23	0	1917845504	64	4376
2026-01-10 07:24:20.67	332.77	12.63	-49.3	-50.7	14.8	0.00e+00	0	23	0	1920991232	64	4301
2026-01-10 07:24:21.68	332.67	12.54	-49.2	-50.6	14.8	0.00e+00	0	23	0	1924136960	64	4273
2026-01-10 07:24:22.69	332.57	12.46	-49.2	-50.6	14.8	0.00e+00	0	23	0	1927282688	64	4278
2026-01-10 07:24:23.70	332.47	12.38	-49.2	-50.6	14.8	0.00e+00	0	23	0	1930428416	64	4283
2026-01-10 07:24:24.70	332.37	12.30	-49.1	-50.5	14.9	0.00e+00	0	23	0	1933574144	64	4218
2026-01-10 07:24:25.71	332.27	12.21	-49.1	-50.5	14.9	0.00e+00	0	23	0	1936719872	64	4226
2026-01-10 07:24:26.72	332.17	12.13	-49.1	-50.5	14.9	0.00e+00	0	23	0	1939865600	64	4213
2026-01-10 07:24:27.72	332.08	12.05	-49.1	-50.5	14.9	0.00e+00	0	23	0	1943011328	64	4236
2026-01-10 07:24:28.73	331.98	11.97	-49.3	-50.7	14.8	0.00e+00	0	23	0	1946157056	64	4296
2026-01-10 07:24:29.74	331.89	11.89	-49.2	-50.6	14.9	0.00e+00	0	23	0	1949302784	64	4262
2026-01-10 07:24:30.75	331.79	11.80	-49.2	-50.7	14.8	0.00e+00	0	23	0	1952448512	64	4292
2026-01-10 07:24:31.76	331.69	11.72	-49.3	-50.7	14.8	0.00e+00	0	23	0	1955594240	64	4315
2026-01-10 07:24:32.77	331.60	11.64	-49.4	-50.9	14.7	0.00e+00	0	23	0	1958739968	64	4403
2026-01-10 07:24:33.78	331.51	11.56	-49.5	-51.0	14.7	0.00e+00	0	23	0	1961885696	64	4451
2026-01-10 07:24:34.79	331.41	11.48	-49.7	-51.1	14.6	0.00e+00	0	23	0	1965031424	64	4540
2026-01-10 07:24:35.80	331.32	11.40	-49.6	-51.1	14.6	0.00e+00	0	23	0	1968177152	64	4524
2026-01-10 07:24:36.80	331.23	11.32	-49.8	-51.3	14.5	0.00e+00	0	23	0	1971322880	64	4639
2026-01-10 07:24:37.81	331.13	11.24	-49.8	-51.3	14.5	0.00e+00	0	23	0	1974468608	64	4632
2026-01-10 07:24:38.82	331.04	11.16	-49.9	-51.4	14.4	0.00e+00	0	24	0	1977614336	64	4689
2026-01-10 07:24:39.83	330.95	11.08	-50.0	-51.6	14.5	0.00e+00	0	23	0	1980760064	65	4496
2026-01-10 07:24:40.84	330.86	11.00	-49.9	-51.5	14.5	0.00e+00	0	23	0	1983905792	65	4451
2026-01-10 07:24:41.85	330.77	10.92	-49.9	-51.4	14.5	0.00e+00	0	23	0	1987051520	65	4421
2026-01-10 07:24:42.86	330.68	10.84	-49.9	-51.5	14.5	0.00e+00	0	23	0	1990197248	65	4468
2026-01-10 07:24:43.86	330.59	10.76	-50.0	-51.5	14.5	0.00e+00	0	23	0	1993342976	65	4472
2026-01-10 07:24:44.87	330.51	10.68	-49.9	-51.5	14.5	0.00e+00	0	23	0	1996488704	65	4450
2026-01-10 07:24:45.88	330.42	10.60	-49.7	-51.2	14.6	0.00e+00	0	23	0	1999634432	65	4331
2026-01-10 07:24:46.89	330.33	10.52	-49.7	-51.2	14.7	0.00e+00	0	23	0	2002780160	65	4293
2026-01-10 07:24:47.90	330.24	10.45	-49.7	-51.2	14.6	0.00e+00	0	23	0	2005925888	65	4311
2026-01-10 07:24:48.90	330.16	10.37	-49.7	-51.2	14.7	0.00e+00	0	23	0	2009071616	65	4296
2026-01-10 07:24:49.91	330.07	10.29	-49.5	-51.0	14.8	0.00e+00	0	23	0	2012217344	65	4195
2026-01-10 07:24:50.92	329.99	10.21	-49.5	-51.0	14.7	0.00e+00	0	23	0	2015363072	65	4206
2026-01-10 07:24:51.93	329.90	10.14	-49.4	-50.8	14.9	0.00e+00	0	23	0	2018508800	65	4136
2026-01-10 07:24:52.94	329.82	10.06	-49.4	-50.8	14.9	0.00e+00	0	23	0	2021654528	65	4127
2026-01-10 07:24:53.95	329.73	9.98	-49.5	-50.9	14.8	0.00e+00	0	23	0	2024800256	65	4171
2026-01-10 07:24:54.96	329.65	9.90	-49.4	-50.8	14.8	0.00e+00	0	23	0	2027945984	65	4137
2026-01-10 07:24:55.97	329.56	9.83	-49.5	-50.9	14.8	0.00e+00	0	23	0	2031091712	65	4171
2026-01-10 07:24:56.98	329.48	9.75	-49.5	-50.9	14.8	0.00e+00	0	23	0	2034237440	65	4187
2026-01-10 07:24:57.99	329.40	9.67	-49.5	-50.9	14.8	0.00e+00	0	23	0	2037383168	65	4182
2026-01-10 07:24:59.00	329.32	9.60	-49.5	-51.0	14.8	0.00e+00	0	23	0	2040528896	65	4210
2026-01-10 07:25:00.01	329.24	9.52	-49.6	-51.0	14.7	0.00e+00	0	23	0	2043674624	65	4241
2026-01-10 07:25:01.02	329.15	9.44	-49.7	-51.2	14.6	0.00e+00	0	23	0	2047868928	65	4331
2026-01-10 07:25:02.02	329.08	9.37	-49.8	-51.4	14.5	0.00e+00	0	23	0	2051014656	65	4392
2026-01-10 07:25:03.03	328.99	9.29	-49.8	-51.3	14.6	0.00e+00	0	23	0	2053111808	65	4369
