passes_logs/2026/01/10/R3.2S_Murmansk/R3.2S_Murmansk__20260110_152810_FENGYUN_3D_rec.log

#Pass ID: 20260110_152810_FENGYUN 3D
#Satellite: FENGYUN 3D
#Configuration: FENGYUN 3D
#almurnet v.1.7.20251203
#Start time: 2026-01-10 15:28:10

#Version: 2.2.20231116
#Station: R3.2S_Murmansk
#Location: 33.079688 lon 68.888172 lat
#TLE: 1 43010U 17072A   26009.92921666 -.00000228  00000+0 -86059-4 0  9998
#TLE: 2 43010  98.9936 341.6668 0002176 116.7510 243.3888 14.19693142422537

#Time	Az	El	Level	Level2	SNR	BER	BlckErr	Temp	State	Recorded	gain1	gain2
2026-01-10 15:28:10.45	256.10	2.02	-57.5	-70.5	3.8	8.45e-01	0	21	0	0	81	15795
2026-01-10 15:28:11.46	256.21	2.06	-57.4	-70.4	3.8	8.46e-01	0	21	104	0	79	17543
2026-01-10 15:28:12.46	256.32	2.09	-57.4	-70.4	3.8	8.44e-01	0	21	104	0	79	17625
2026-01-10 15:28:13.45	256.43	2.13	-57.4	-70.4	3.8	8.45e-01	0	21	104	0	79	17607
2026-01-10 15:28:14.45	256.54	2.17	-57.4	-70.4	3.8	8.46e-01	0	21	104	0	79	17510
2026-01-10 15:28:15.44	256.65	2.21	-57.4	-70.4	3.8	8.45e-01	0	21	104	0	79	17494
2026-01-10 15:28:16.43	256.76	2.25	-57.4	-70.4	3.8	8.46e-01	0	21	104	0	79	17574
2026-01-10 15:28:17.44	256.87	2.29	-57.4	-70.4	3.8	8.45e-01	0	21	104	0	79	17577
2026-01-10 15:28:18.44	256.99	2.32	-57.4	-70.4	3.8	8.46e-01	0	21	104	0	79	17611
2026-01-10 15:28:19.44	257.10	2.36	-57.4	-70.4	3.8	8.45e-01	0	21	104	0	79	17560
2026-01-10 15:28:20.42	257.21	2.40	-57.4	-70.4	3.8	8.46e-01	0	21	104	0	79	17628
2026-01-10 15:28:21.42	257.32	2.44	-57.4	-70.4	3.8	8.45e-01	0	21	104	0	79	17600
2026-01-10 15:28:22.42	257.43	2.48	-57.4	-70.4	3.8	8.48e-01	0	22	104	0	79	17624
2026-01-10 15:28:23.42	257.55	2.51	-57.5	-70.4	3.8	8.46e-01	0	21	104	0	80	16693
2026-01-10 15:28:24.42	257.66	2.55	-57.5	-70.5	3.8	8.46e-01	0	22	104	0	80	16703
2026-01-10 15:28:25.42	257.77	2.59	-57.5	-70.4	3.8	8.45e-01	0	22	104	0	80	16661
2026-01-10 15:28:26.41	257.89	2.63	-57.4	-70.4	3.8	8.45e-01	0	22	104	0	80	16639
2026-01-10 15:28:27.42	258.00	2.67	-57.4	-70.4	3.8	8.47e-01	0	22	104	0	80	16668
2026-01-10 15:28:28.42	258.12	2.70	-57.5	-70.4	3.8	8.46e-01	0	22	104	0	80	16642
2026-01-10 15:28:29.42	258.23	2.74	-57.5	-70.4	3.8	8.45e-01	0	22	104	0	80	16651
2026-01-10 15:28:30.42	258.35	2.78	-57.5	-70.4	3.8	8.45e-01	0	22	104	0	80	16694
2026-01-10 15:28:31.42	258.46	2.82	-57.5	-70.4	3.8	8.46e-01	0	22	104	0	80	16685
2026-01-10 15:28:32.42	258.58	2.86	-57.5	-70.4	3.8	8.46e-01	0	22	104	0	80	16681
2026-01-10 15:28:33.41	258.69	2.89	-57.5	-70.4	3.8	8.46e-01	0	22	104	0	80	16656
2026-01-10 15:28:34.41	258.81	2.93	-57.5	-70.4	3.8	8.45e-01	0	22	104	0	80	16674
2026-01-10 15:28:35.41	258.92	2.97	-57.5	-70.4	3.8	8.46e-01	0	22	104	0	80	16675
2026-01-10 15:28:36.40	259.04	3.00	-57.5	-70.4	3.8	8.46e-01	0	22	104	0	80	16663
2026-01-10 15:28:37.40	259.16	3.04	-57.5	-70.5	3.8	8.47e-01	0	22	104	0	80	16718
2026-01-10 15:28:38.40	259.27	3.08	-57.5	-70.5	3.8	8.46e-01	0	22	104	0	80	16696
2026-01-10 15:28:39.40	259.39	3.12	-57.5	-70.5	3.8	8.46e-01	0	22	104	0	80	16716
2026-01-10 15:28:40.39	259.51	3.15	-57.5	-70.4	3.8	8.46e-01	0	22	104	0	80	16577
2026-01-10 15:28:41.39	259.63	3.19	-57.4	-70.4	3.8	8.45e-01	0	22	104	0	80	16605
2026-01-10 15:28:42.38	259.74	3.23	-57.5	-70.4	3.8	8.46e-01	0	22	104	0	80	16591
2026-01-10 15:28:43.38	259.86	3.27	-57.5	-70.4	3.8	8.46e-01	0	22	104	0	80	16583
2026-01-10 15:28:44.38	259.98	3.30	-57.5	-70.4	3.8	8.46e-01	0	22	104	0	80	16589
2026-01-10 15:28:45.38	260.10	3.34	-57.5	-70.5	3.8	8.46e-01	0	22	104	0	80	16723
2026-01-10 15:28:46.38	260.22	3.38	-57.5	-70.5	3.8	8.46e-01	0	22	104	0	80	16747
2026-01-10 15:28:47.37	260.34	3.41	-57.5	-70.5	3.8	8.45e-01	0	22	104	0	80	16723
2026-01-10 15:28:48.38	260.46	3.45	-57.5	-70.4	3.8	8.47e-01	0	22	104	0	80	16679
2026-01-10 15:28:49.38	260.58	3.49	-57.5	-70.4	3.8	8.46e-01	0	22	104	0	80	16679
2026-01-10 15:28:50.38	260.70	3.52	-57.5	-70.4	3.8	8.45e-01	0	22	104	0	80	16642
2026-01-10 15:28:51.38	260.82	3.56	-57.5	-70.5	3.8	8.46e-01	0	22	104	0	80	16716
2026-01-10 15:28:52.38	260.94	3.60	-57.4	-70.4	3.8	8.45e-01	0	22	104	0	80	16683
2026-01-10 15:28:53.39	261.07	3.64	-57.5	-70.4	3.8	8.45e-01	0	22	104	0	80	16538
2026-01-10 15:28:54.38	261.19	3.67	-57.5	-70.4	3.8	8.46e-01	0	22	104	0	80	16546
2026-01-10 15:28:55.38	261.31	3.71	-57.4	-70.3	3.8	8.46e-01	0	22	104	0	80	16354
2026-01-10 15:28:56.38	261.43	3.75	-57.5	-70.3	3.8	8.44e-01	0	22	104	0	80	16335
2026-01-10 15:28:57.38	261.56	3.78	-57.5	-70.3	3.8	8.45e-01	0	22	104	0	80	16416
2026-01-10 15:28:58.38	261.68	3.82	-57.5	-70.3	3.8	8.46e-01	0	22	104	0	80	16415
2026-01-10 15:28:59.37	261.80	3.85	-57.5	-70.3	3.8	8.46e-01	0	22	104	0	80	16434
2026-01-10 15:29:00.37	261.93	3.89	-57.5	-70.3	3.8	8.45e-01	0	22	104	0	80	16389
2026-01-10 15:29:01.36	262.05	3.93	-57.5	-70.4	3.8	8.47e-01	0	22	104	0	80	16636
2026-01-10 15:29:02.36	262.17	3.96	-57.5	-70.4	3.8	8.47e-01	0	22	104	0	80	16690
2026-01-10 15:29:03.36	262.30	4.00	-57.5	-70.5	3.8	8.45e-01	0	22	104	0	80	16750
2026-01-10 15:29:04.36	262.42	4.03	-57.5	-70.4	3.8	8.45e-01	0	22	104	0	80	16505
2026-01-10 15:29:05.36	262.55	4.07	-57.5	-70.2	3.8	8.46e-01	0	22	104	0	80	16162
2026-01-10 15:29:06.34	262.67	4.11	-57.4	-70.1	3.8	8.46e-01	0	22	104	0	80	16113
2026-01-10 15:29:07.33	262.79	4.14	-57.4	-70.1	3.8	8.45e-01	0	22	104	0	80	16087
2026-01-10 15:29:08.33	262.92	4.18	-57.4	-70.0	3.8	8.46e-01	0	22	104	0	80	15913
2026-01-10 15:29:09.33	263.05	4.21	-57.5	-70.3	3.8	8.46e-01	0	22	104	0	80	16467
2026-01-10 15:29:10.33	263.17	4.25	-57.5	-70.4	3.8	8.45e-01	0	22	104	0	80	16596
2026-01-10 15:29:11.33	263.30	4.28	-57.5	-70.4	3.8	8.45e-01	0	22	104	0	80	16686
2026-01-10 15:29:12.32	263.43	4.32	-57.5	-70.4	3.8	8.44e-01	0	22	104	0	80	16633
2026-01-10 15:29:13.32	263.55	4.36	-57.4	-70.2	3.8	8.46e-01	0	22	104	0	80	16188
2026-01-10 15:29:14.33	263.68	4.39	-57.5	-70.4	3.8	8.46e-01	0	22	104	0	80	16540
2026-01-10 15:29:15.32	263.81	4.43	-57.4	-69.8	3.8	8.46e-01	0	23	104	0	80	15531
2026-01-10 15:29:16.32	263.94	4.46	-57.4	-69.7	3.8	8.45e-01	0	23	104	0	80	15361
2026-01-10 15:29:17.32	264.07	4.50	-57.4	-69.9	3.8	8.46e-01	0	22	104	0	80	15720
2026-01-10 15:29:18.32	264.20	4.53	-57.4	-69.5	3.8	8.46e-01	0	22	104	0	80	14977
2026-01-10 15:29:19.32	264.32	4.57	-57.4	-69.5	3.8	8.45e-01	0	22	104	0	80	14996
2026-01-10 15:29:20.32	264.45	4.60	-57.4	-69.7	3.8	8.45e-01	0	22	104	0	80	15305
2026-01-10 15:29:21.32	264.58	4.64	-57.4	-68.9	3.8	8.45e-01	0	23	104	0	80	13992
2026-01-10 15:29:22.31	264.71	4.67	-57.4	-69.5	3.8	8.46e-01	0	23	104	0	80	15016
2026-01-10 15:29:23.31	264.84	4.71	-57.5	-70.4	3.8	8.46e-01	0	23	104	0	80	16556
2026-01-10 15:29:24.32	264.98	4.74	-57.5	-70.1	3.8	8.46e-01	0	23	104	0	80	16059
2026-01-10 15:29:25.32	265.11	4.78	-57.4	-69.0	3.8	8.46e-01	0	23	104	0	80	14052
2026-01-10 15:29:26.31	265.24	4.81	-57.1	-66.2	4.4	8.36e-01	0	23	0	0	80	10247
2026-01-10 15:29:27.32	265.37	4.84	-56.8	-64.7	5.1	7.75e-01	0	23	0	0	80	8564
2026-01-10 15:29:28.32	265.50	4.88	-56.7	-63.8	5.6	6.07e-01	0	22	0	0	80	7777
2026-01-10 15:29:29.32	265.63	4.91	-56.3	-62.2	6.8	2.56e-01	0	23	0	6291456	79	6828
2026-01-10 15:29:30.32	265.77	4.95	-55.6	-60.2	8.4	4.96e-02	0	23	0	11534336	77	6124
2026-01-10 15:29:31.32	265.90	4.98	-54.5	-58.1	10.2	7.08e-03	0	23	0	16777216	75	5357
2026-01-10 15:29:32.33	266.03	5.02	-53.3	-55.9	12.0	2.07e-04	0	23	0	23068672	73	4687
2026-01-10 15:29:33.33	266.17	5.05	-53.6	-56.5	11.4	1.02e-05	0	22	0	28311552	72	5311
2026-01-10 15:29:34.33	266.30	5.08	-55.3	-59.5	8.9	8.23e-01	0	23	0	31457280	77	5620
2026-01-10 15:29:35.33	266.44	5.12	-54.1	-57.2	10.9	1.40e-04	0	23	0	37748736	73	5452
2026-01-10 15:29:36.32	266.57	5.15	-54.5	-58.0	10.3	1.69e-02	0	23	0	42991616	75	5316
2026-01-10 15:29:37.32	266.70	5.18	-49.0	-50.4	14.7	0.00e+00	0	23	0	48234496	64	4187
2026-01-10 15:29:38.32	266.84	5.22	-49.0	-50.5	14.6	0.00e+00	0	23	0	54525952	64	4231
2026-01-10 15:29:39.32	266.97	5.25	-48.6	-50.0	14.8	0.00e+00	0	23	0	59768832	63	4241
2026-01-10 15:29:40.32	267.11	5.28	-48.5	-49.9	14.9	0.00e+00	0	23	0	65011712	63	4159
2026-01-10 15:29:41.31	267.24	5.32	-48.3	-49.7	15.0	0.00e+00	0	23	0	71303168	63	4058
2026-01-10 15:29:42.31	267.38	5.35	-48.3	-49.7	15.0	0.00e+00	0	23	0	76546048	63	4073
2026-01-10 15:29:43.31	267.52	5.38	-48.5	-50.0	14.8	0.00e+00	0	23	0	81788928	63	4198
2026-01-10 15:29:44.31	267.65	5.42	-48.8	-50.3	14.6	0.00e+00	0	23	0	88080384	63	4381
2026-01-10 15:29:45.31	267.79	5.45	-49.4	-50.9	14.2	0.00e+00	0	23	0	93323264	63	4697
2026-01-10 15:29:46.31	267.93	5.48	-49.7	-51.4	14.0	0.00e+00	0	23	0	99614720	64	4669
2026-01-10 15:29:47.31	268.06	5.52	-50.2	-52.0	13.8	0.00e+00	0	23	0	104857600	65	4724
2026-01-10 15:29:48.32	268.20	5.55	-50.5	-52.4	13.6	0.00e+00	0	23	0	110100480	66	4681
2026-01-10 15:29:49.32	268.34	5.58	-50.7	-52.6	13.5	0.00e+00	0	23	0	116391936	66	4788
2026-01-10 15:29:50.31	268.48	5.61	-51.0	-53.0	13.3	0.00e+00	0	23	0	121634816	67	4706
2026-01-10 15:29:51.31	268.62	5.65	-51.2	-53.2	13.1	0.00e+00	0	23	0	126877696	67	4857
2026-01-10 15:29:52.31	268.76	5.68	-51.1	-53.2	13.2	0.00e+00	0	23	0	133169152	67	4823
2026-01-10 15:29:53.31	268.90	5.71	-51.2	-53.3	13.1	0.00e+00	0	23	0	138412032	67	4880
2026-01-10 15:29:54.30	269.03	5.74	-51.2	-53.3	13.0	0.00e+00	0	23	0	143654912	67	4912
2026-01-10 15:29:55.31	269.18	5.77	-51.2	-53.2	13.1	0.00e+00	0	22	0	149946368	67	4865
2026-01-10 15:29:56.31	269.32	5.81	-51.1	-53.2	13.2	0.00e+00	0	23	0	155189248	67	4827
2026-01-10 15:29:57.30	269.45	5.84	-51.4	-53.6	12.9	0.00e+00	0	23	0	161480704	67	5052
2026-01-10 15:29:58.30	269.60	5.87	-51.4	-53.4	13.2	0.00e+00	0	23	0	166723584	68	4676
2026-01-10 15:29:59.30	269.74	5.90	-51.0	-53.0	13.6	0.00e+00	0	23	0	171966464	68	4445
2026-01-10 15:30:00.30	269.88	5.93	-51.0	-52.9	13.7	0.00e+00	0	23	0	177209344	68	4420
2026-01-10 15:30:01.30	270.02	5.96	-50.7	-52.5	14.0	0.00e+00	0	23	0	183500800	68	4206
2026-01-10 15:30:02.30	270.16	5.99	-50.4	-52.2	14.0	0.00e+00	0	23	0	188743680	67	4312
2026-01-10 15:30:03.29	270.30	6.02	-50.0	-51.6	14.2	0.00e+00	0	23	0	195035136	66	4278
2026-01-10 15:30:04.29	270.45	6.06	-49.2	-50.8	14.6	0.00e+00	0	23	0	200278016	65	4111
2026-01-10 15:30:05.29	270.59	6.09	-49.0	-50.5	14.6	0.00e+00	0	23	0	205520896	64	4220
2026-01-10 15:30:06.29	270.73	6.12	-48.9	-50.4	14.7	0.00e+00	0	23	0	211812352	64	4159
2026-01-10 15:30:07.29	270.87	6.15	-49.2	-50.8	14.5	0.00e+00	0	23	0	217055232	64	4341
2026-01-10 15:30:08.28	271.02	6.18	-49.1	-50.7	14.5	0.00e+00	0	23	0	222298112	64	4310
2026-01-10 15:30:09.27	271.16	6.21	-49.2	-50.8	14.5	0.00e+00	0	23	0	228589568	64	4356
2026-01-10 15:30:10.27	271.30	6.24	-49.2	-50.8	14.5	0.00e+00	0	23	0	233832448	64	4357
2026-01-10 15:30:11.27	271.45	6.27	-49.1	-50.6	14.6	0.00e+00	0	23	0	239075328	64	4274
2026-01-10 15:30:12.26	271.59	6.30	-49.1	-50.6	14.6	0.00e+00	0	23	0	245366784	64	4280
2026-01-10 15:30:13.25	271.74	6.33	-48.8	-50.2	14.9	0.00e+00	0	23	0	250609664	64	4098
2026-01-10 15:30:14.25	271.88	6.36	-48.9	-50.4	14.8	0.00e+00	0	23	0	255852544	64	4157
2026-01-10 15:30:15.25	272.03	6.39	-48.8	-50.2	14.9	0.00e+00	0	23	0	262144000	64	4079
2026-01-10 15:30:16.24	272.17	6.42	-48.7	-50.1	15.0	0.00e+00	0	23	0	267386880	64	4042
2026-01-10 15:30:17.24	272.32	6.45	-48.7	-50.1	14.8	0.00e+00	0	23	0	272629760	63	4267
2026-01-10 15:30:18.24	272.46	6.48	-48.7	-50.1	14.8	0.00e+00	0	23	0	278921216	63	4282
2026-01-10 15:30:19.24	272.61	6.51	-48.6	-50.0	14.9	0.00e+00	0	23	0	284164096	63	4234
2026-01-10 15:30:20.24	272.76	6.53	-48.7	-50.1	14.8	0.00e+00	0	23	0	289406976	63	4263
2026-01-10 15:30:21.25	272.91	6.56	-48.7	-50.1	14.8	0.00e+00	0	23	0	295698432	63	4254
2026-01-10 15:30:22.24	273.05	6.59	-48.6	-50.0	14.9	0.00e+00	0	23	0	300941312	63	4207
2026-01-10 15:30:23.25	273.20	6.62	-48.6	-50.0	14.9	0.00e+00	0	23	0	307232768	63	4211
2026-01-10 15:30:24.25	273.35	6.65	-48.4	-49.8	15.0	0.00e+00	0	23	0	312475648	63	4124
2026-01-10 15:30:25.25	273.50	6.68	-48.4	-49.8	15.0	0.00e+00	0	23	0	317718528	63	4135
2026-01-10 15:30:26.25	273.65	6.71	-48.4	-49.7	15.0	0.00e+00	0	23	0	324009984	63	4089
2026-01-10 15:30:27.25	273.80	6.73	-48.3	-49.6	15.1	0.00e+00	0	23	0	329252864	63	4046
2026-01-10 15:30:28.26	273.95	6.76	-48.2	-49.5	15.1	0.00e+00	0	23	0	335544320	63	4002
2026-01-10 15:30:29.25	274.10	6.79	-48.1	-49.5	15.0	0.00e+00	0	23	0	340787200	62	4201
2026-01-10 15:30:30.25	274.25	6.82	-48.1	-49.4	15.0	0.00e+00	0	23	0	346030080	62	4185
2026-01-10 15:30:31.25	274.40	6.85	-47.9	-49.2	15.1	0.00e+00	0	23	0	351272960	62	4098
2026-01-10 15:30:32.26	274.55	6.87	-47.9	-49.2	15.2	0.00e+00	0	23	0	357564416	62	4063
2026-01-10 15:30:33.25	274.70	6.90	-48.0	-49.3	15.1	0.00e+00	0	23	0	362807296	62	4112
2026-01-10 15:30:34.25	274.85	6.93	-47.9	-49.2	15.1	0.00e+00	0	23	0	369098752	62	4083
2026-01-10 15:30:35.25	275.00	6.96	-48.0	-49.3	15.1	0.00e+00	0	23	0	374341632	62	4121
2026-01-10 15:30:36.26	275.15	6.98	-48.0	-49.3	15.1	0.00e+00	0	23	0	380633088	62	4135
2026-01-10 15:30:37.26	275.31	7.01	-48.2	-49.5	15.0	0.00e+00	0	23	0	385875968	62	4223
2026-01-10 15:30:38.25	275.46	7.04	-48.2	-49.5	15.0	0.00e+00	0	23	0	391118848	62	4220
2026-01-10 15:30:39.26	275.61	7.06	-48.2	-49.5	15.0	0.00e+00	0	23	0	397410304	62	4230
2026-01-10 15:30:40.25	275.76	7.09	-48.0	-49.3	15.1	0.00e+00	0	23	0	402653184	62	4136
2026-01-10 15:30:41.25	275.91	7.12	-48.1	-49.5	15.0	0.00e+00	0	23	0	407896064	62	4211
2026-01-10 15:30:42.24	276.07	7.14	-48.1	-49.4	15.0	0.00e+00	0	23	0	413138944	62	4178
2026-01-10 15:30:43.24	276.22	7.17	-48.1	-49.4	15.0	0.00e+00	0	23	0	419430400	62	4189
2026-01-10 15:30:44.24	276.37	7.19	-48.1	-49.5	15.0	0.00e+00	0	23	0	424673280	62	4195
2026-01-10 15:30:45.24	276.53	7.22	-48.1	-49.4	15.0	0.00e+00	0	23	0	430964736	62	4182
2026-01-10 15:30:46.24	276.68	7.24	-48.1	-49.5	15.0	0.00e+00	0	23	0	436207616	62	4205
2026-01-10 15:30:47.24	276.84	7.27	-48.2	-49.6	15.0	0.00e+00	0	23	0	441450496	62	4252
2026-01-10 15:30:48.24	276.99	7.29	-48.1	-49.4	15.0	0.00e+00	0	23	0	447741952	62	4181
2026-01-10 15:30:49.24	277.15	7.32	-48.1	-49.4	15.0	0.00e+00	0	23	0	452984832	62	4172
2026-01-10 15:30:50.24	277.30	7.34	-48.1	-49.5	15.0	0.00e+00	0	23	0	458227712	62	4200
2026-01-10 15:30:51.24	277.46	7.37	-48.0	-49.4	15.1	0.00e+00	0	23	0	464519168	62	4154
2026-01-10 15:30:52.24	277.61	7.39	-48.0	-49.4	15.1	0.00e+00	0	23	0	469762048	62	4155
2026-01-10 15:30:53.24	277.77	7.42	-48.1	-49.5	15.0	0.00e+00	0	23	0	475004928	62	4200
2026-01-10 15:30:54.24	277.92	7.44	-48.2	-49.5	15.0	0.00e+00	0	23	0	481296384	62	4232
2026-01-10 15:30:55.24	278.08	7.47	-48.2	-49.5	15.0	0.00e+00	0	23	0	486539264	62	4240
2026-01-10 15:30:56.25	278.24	7.49	-48.0	-49.3	15.1	0.00e+00	0	23	0	492830720	62	4144
2026-01-10 15:30:57.24	278.39	7.51	-48.1	-49.4	15.0	0.00e+00	0	23	0	498073600	62	4163
2026-01-10 15:30:58.25	278.55	7.54	-48.2	-49.5	15.0	0.00e+00	0	23	0	503316480	62	4218
2026-01-10 15:30:59.25	278.71	7.56	-48.1	-49.5	15.0	0.00e+00	0	23	0	509607936	62	4199
2026-01-10 15:31:00.24	278.87	7.59	-48.1	-49.5	15.0	0.00e+00	0	23	0	514850816	62	4197
2026-01-10 15:31:01.24	279.02	7.61	-48.0	-49.3	15.1	0.00e+00	0	23	0	520093696	62	4130
2026-01-10 15:31:02.25	279.18	7.63	-48.1	-49.4	15.0	0.00e+00	0	23	0	526385152	62	4185
2026-01-10 15:31:03.25	279.34	7.65	-48.2	-49.6	15.0	0.00e+00	0	23	0	531628032	62	4262
2026-01-10 15:31:04.24	279.50	7.68	-48.2	-49.6	14.9	0.00e+00	0	23	0	536870912	62	4258
2026-01-10 15:31:05.24	279.66	7.70	-48.3	-49.7	14.9	0.00e+00	0	23	0	543162368	62	4319
2026-01-10 15:31:06.22	279.81	7.72	-48.3	-49.7	14.9	0.00e+00	0	23	0	548405248	62	4321
2026-01-10 15:31:07.21	279.97	7.74	-48.5	-49.9	14.8	0.00e+00	0	23	0	554696704	62	4406
2026-01-10 15:31:08.21	280.13	7.77	-48.3	-49.7	14.9	0.00e+00	0	23	0	559939584	62	4321
2026-01-10 15:31:09.20	280.29	7.79	-48.3	-49.7	14.9	0.00e+00	0	23	0	565182464	62	4308
2026-01-10 15:31:10.19	280.45	7.81	-48.3	-49.7	14.9	0.00e+00	0	23	0	570425344	62	4313
2026-01-10 15:31:11.19	280.61	7.83	-48.2	-49.5	15.0	0.00e+00	0	23	0	576716800	62	4239
2026-01-10 15:31:12.20	280.77	7.85	-48.2	-49.5	15.0	0.00e+00	0	23	0	581959680	62	4231
2026-01-10 15:31:13.19	280.93	7.87	-48.1	-49.5	15.0	0.00e+00	0	23	0	587202560	62	4202
2026-01-10 15:31:14.19	281.09	7.89	-48.2	-49.5	15.0	0.00e+00	0	23	0	593494016	62	4228
2026-01-10 15:31:15.20	281.25	7.91	-48.2	-49.6	15.0	0.00e+00	0	23	0	598736896	62	4252
2026-01-10 15:31:16.20	281.42	7.94	-48.3	-49.6	14.9	0.00e+00	0	23	0	605028352	62	4280
2026-01-10 15:31:17.20	281.58	7.96	-48.3	-49.6	15.0	0.00e+00	0	23	0	610271232	62	4267
2026-01-10 15:31:18.20	281.74	7.98	-48.3	-49.6	15.0	0.00e+00	0	23	0	615514112	62	4280
2026-01-10 15:31:19.20	281.90	8.00	-48.2	-49.6	15.0	0.00e+00	0	23	0	621805568	62	4245
2026-01-10 15:31:20.19	282.06	8.02	-48.3	-49.6	15.0	0.00e+00	0	23	0	627048448	62	4285
2026-01-10 15:31:21.19	282.22	8.04	-48.3	-49.6	15.0	0.00e+00	0	23	0	632291328	62	4289
2026-01-10 15:31:22.19	282.39	8.05	-48.3	-49.7	14.9	0.00e+00	0	23	0	638582784	62	4295
2026-01-10 15:31:23.19	282.55	8.07	-48.2	-49.6	15.0	0.00e+00	0	23	0	643825664	62	4258
2026-01-10 15:31:24.18	282.71	8.09	-48.3	-49.6	15.0	0.00e+00	0	23	0	649068544	62	4288
2026-01-10 15:31:25.18	282.87	8.11	-48.2	-49.5	15.0	0.00e+00	0	23	0	655360000	62	4224
2026-01-10 15:31:26.17	283.04	8.13	-48.2	-49.6	15.0	0.00e+00	0	23	0	660602880	62	4245
2026-01-10 15:31:27.16	283.20	8.15	-48.2	-49.5	15.0	0.00e+00	0	23	0	666894336	62	4219
2026-01-10 15:31:28.16	283.36	8.17	-48.1	-49.4	15.1	0.00e+00	0	23	0	672137216	62	4187
2026-01-10 15:31:29.15	283.52	8.19	-48.0	-49.4	15.1	0.00e+00	0	23	0	677380096	62	4146
2026-01-10 15:31:30.15	283.69	8.20	-47.9	-49.2	15.2	0.00e+00	0	23	0	682622976	62	4082
2026-01-10 15:31:31.15	283.85	8.22	-48.0	-49.3	15.1	0.00e+00	0	23	0	688914432	62	4137
2026-01-10 15:31:32.15	284.02	8.24	-48.0	-49.3	15.1	0.00e+00	0	23	0	694157312	62	4134
2026-01-10 15:31:33.13	284.18	8.26	-48.0	-49.3	15.1	0.00e+00	0	23	0	699400192	62	4139
2026-01-10 15:31:34.12	284.34	8.27	-48.0	-49.3	15.1	0.00e+00	0	23	0	705691648	62	4109
2026-01-10 15:31:35.12	284.51	8.29	-48.0	-49.3	15.2	0.00e+00	0	23	0	710934528	62	4117
2026-01-10 15:31:36.12	284.67	8.31	-48.0	-49.3	15.1	0.00e+00	0	23	0	717225984	62	4126
2026-01-10 15:31:37.12	284.84	8.32	-48.2	-49.5	15.1	0.00e+00	0	23	0	722468864	62	4206
2026-01-10 15:31:38.12	285.01	8.34	-48.2	-49.6	15.0	0.00e+00	0	23	0	727711744	62	4251
2026-01-10 15:31:39.12	285.17	8.36	-48.2	-49.5	15.0	0.00e+00	0	23	0	734003200	62	4215
2026-01-10 15:31:40.12	285.34	8.37	-48.3	-49.6	15.0	0.00e+00	0	23	0	739246080	62	4280
2026-01-10 15:31:41.11	285.50	8.39	-48.3	-49.6	15.0	0.00e+00	0	23	0	744488960	62	4281
2026-01-10 15:31:42.11	285.67	8.41	-48.3	-49.6	15.0	0.00e+00	0	23	0	750780416	62	4270
2026-01-10 15:31:43.11	285.84	8.42	-48.0	-49.3	15.1	0.00e+00	0	23	0	756023296	62	4111
2026-01-10 15:31:44.11	286.00	8.44	-48.0	-49.2	15.2	0.00e+00	0	23	0	762314752	62	4098
2026-01-10 15:31:45.10	286.17	8.45	-47.9	-49.2	15.2	0.00e+00	0	23	0	767557632	62	4080
2026-01-10 15:31:46.10	286.33	8.47	-47.9	-49.2	15.2	0.00e+00	0	23	0	772800512	62	4075
2026-01-10 15:31:47.11	286.50	8.48	-48.0	-49.2	15.2	0.00e+00	0	23	0	779091968	62	4091
2026-01-10 15:31:48.11	286.67	8.50	-48.0	-49.3	15.1	0.00e+00	0	23	0	784334848	62	4132
2026-01-10 15:31:49.10	286.84	8.51	-48.1	-49.4	15.1	0.00e+00	0	23	0	789577728	62	4148
2026-01-10 15:31:50.10	287.01	8.52	-48.1	-49.4	15.1	0.00e+00	0	23	0	795869184	62	4187
2026-01-10 15:31:51.09	287.17	8.54	-48.2	-49.5	15.1	0.00e+00	0	23	0	801112064	62	4208
2026-01-10 15:31:52.10	287.34	8.55	-48.2	-49.5	15.0	0.00e+00	0	23	0	806354944	62	4229
2026-01-10 15:31:53.09	287.51	8.57	-48.4	-49.7	15.0	0.00e+00	0	23	0	812646400	62	4318
2026-01-10 15:31:54.09	287.68	8.58	-48.4	-49.8	14.9	0.00e+00	0	23	0	817889280	62	4343
2026-01-10 15:31:55.09	287.84	8.59	-48.3	-49.7	15.0	0.00e+00	0	23	0	823132160	62	4312
2026-01-10 15:31:56.09	288.01	8.61	-48.3	-49.6	15.0	0.00e+00	0	23	0	829423616	62	4285
2026-01-10 15:31:57.09	288.18	8.62	-48.3	-49.6	15.0	0.00e+00	0	23	0	834666496	62	4275
2026-01-10 15:31:58.08	288.35	8.63	-48.2	-49.5	15.1	0.00e+00	0	23	0	839909376	62	4207
2026-01-10 15:31:59.08	288.52	8.64	-48.2	-49.5	15.1	0.00e+00	0	23	0	846200832	62	4232
2026-01-10 15:32:00.08	288.69	8.66	-48.0	-49.2	15.2	0.00e+00	0	23	0	851443712	62	4097
2026-01-10 15:32:01.08	288.86	8.67	-48.0	-49.3	15.2	0.00e+00	0	23	0	856686592	62	4118
2026-01-10 15:32:02.08	289.03	8.68	-48.0	-49.3	15.2	0.00e+00	0	23	0	862978048	62	4130
2026-01-10 15:32:03.07	289.19	8.69	-48.1	-49.4	15.1	0.00e+00	0	23	0	868220928	62	4174
2026-01-10 15:32:04.07	289.36	8.70	-48.1	-49.4	15.1	0.00e+00	0	23	0	874512384	62	4181
2026-01-10 15:32:05.07	289.53	8.71	-48.1	-49.4	15.1	0.00e+00	0	23	0	879755264	62	4190
2026-01-10 15:32:06.06	289.70	8.72	-48.2	-49.5	15.1	0.00e+00	0	23	0	884998144	62	4211
2026-01-10 15:32:07.06	289.87	8.73	-48.2	-49.6	15.0	0.00e+00	0	23	0	891289600	62	4244
2026-01-10 15:32:08.06	290.04	8.74	-48.2	-49.5	15.1	0.00e+00	0	23	0	896532480	62	4205
2026-01-10 15:32:09.04	290.21	8.75	-48.3	-49.6	15.0	0.00e+00	0	23	0	901775360	62	4261
2026-01-10 15:32:10.04	290.38	8.76	-48.3	-49.7	15.0	0.00e+00	0	23	0	907018240	62	4312
2026-01-10 15:32:11.04	290.55	8.77	-48.4	-49.7	15.0	0.00e+00	0	23	0	913309696	62	4326
2026-01-10 15:32:12.04	290.72	8.78	-48.3	-49.7	15.0	0.00e+00	0	23	0	918552576	62	4309
2026-01-10 15:32:13.04	290.89	8.79	-48.2	-49.5	15.1	0.00e+00	0	23	0	924844032	62	4211
2026-01-10 15:32:14.05	291.07	8.80	-48.1	-49.4	15.1	0.00e+00	0	23	0	930086912	62	4187
2026-01-10 15:32:15.05	291.24	8.81	-48.3	-49.6	15.0	0.00e+00	0	23	0	935329792	62	4281
2026-01-10 15:32:16.04	291.41	8.82	-48.2	-49.6	15.0	0.00e+00	0	23	0	941621248	62	4247
2026-01-10 15:32:17.04	291.58	8.83	-48.2	-49.5	15.1	0.00e+00	0	23	0	946864128	62	4220
2026-01-10 15:32:18.04	291.75	8.84	-48.2	-49.5	15.1	0.00e+00	0	23	0	952107008	62	4212
2026-01-10 15:32:19.03	291.92	8.84	-48.2	-49.5	15.1	0.00e+00	0	23	0	958398464	62	4196
2026-01-10 15:32:20.03	292.09	8.85	-48.2	-49.5	15.1	0.00e+00	0	23	0	963641344	62	4238
2026-01-10 15:32:21.03	292.26	8.86	-48.3	-49.6	15.0	0.00e+00	0	23	0	968884224	62	4260
2026-01-10 15:32:22.02	292.43	8.87	-48.2	-49.5	15.1	0.00e+00	0	23	0	975175680	62	4242
2026-01-10 15:32:23.02	292.60	8.87	-48.2	-49.5	15.1	0.00e+00	0	23	0	980418560	62	4228
2026-01-10 15:32:24.02	292.77	8.88	-48.2	-49.5	15.0	0.00e+00	0	23	0	986710016	62	4229
2026-01-10 15:32:25.02	292.95	8.89	-48.1	-49.4	15.2	0.00e+00	0	23	0	991952896	62	4154
2026-01-10 15:32:26.02	293.12	8.90	-48.1	-49.4	15.1	0.00e+00	0	23	0	997195776	62	4185
2026-01-10 15:32:27.02	293.29	8.90	-48.0	-49.3	15.2	0.00e+00	0	23	0	1003487232	62	4128
2026-01-10 15:32:28.02	293.46	8.91	-48.1	-49.4	15.1	0.00e+00	0	23	0	1008730112	62	4161
2026-01-10 15:32:29.01	293.63	8.91	-48.0	-49.3	15.2	0.00e+00	0	23	0	1013972992	62	4103
2026-01-10 15:32:30.02	293.81	8.92	-47.9	-49.2	15.2	0.00e+00	0	23	0	1020264448	62	4091
2026-01-10 15:32:31.02	293.98	8.92	-48.0	-49.3	15.2	0.00e+00	0	23	0	1025507328	62	4109
2026-01-10 15:32:32.02	294.15	8.93	-48.1	-49.4	15.1	0.00e+00	0	23	0	1030750208	62	4150
2026-01-10 15:32:33.03	294.33	8.93	-48.2	-49.5	15.1	0.00e+00	0	23	0	1037041664	62	4203
2026-01-10 15:32:34.03	294.50	8.94	-48.1	-49.4	15.1	0.00e+00	0	23	0	1042284544	62	4187
2026-01-10 15:32:35.03	294.67	8.94	-48.2	-49.6	15.0	0.00e+00	0	23	0	1048576000	62	4244
2026-01-10 15:32:36.02	294.84	8.95	-48.3	-49.6	15.0	0.00e+00	0	23	0	1053818880	62	4277
2026-01-10 15:32:37.02	295.01	8.95	-48.3	-49.7	15.0	0.00e+00	0	23	0	1059061760	62	4311
2026-01-10 15:32:38.02	295.19	8.96	-48.4	-49.8	14.9	0.00e+00	0	23	0	1065353216	62	4362
2026-01-10 15:32:39.01	295.36	8.96	-48.4	-49.8	14.9	0.00e+00	0	23	0	1070596096	62	4369
2026-01-10 15:32:40.02	295.53	8.96	-48.4	-49.8	14.9	0.00e+00	0	23	0	1075838976	62	4349
2026-01-10 15:32:41.02	295.70	8.97	-48.4	-49.8	14.9	0.00e+00	0	23	0	1082130432	62	4344
2026-01-10 15:32:42.01	295.88	8.97	-48.4	-49.7	14.9	0.00e+00	0	23	0	1087373312	62	4332
2026-01-10 15:32:43.01	296.05	8.97	-48.5	-49.8	14.9	0.00e+00	0	23	0	1092616192	62	4376
2026-01-10 15:32:44.01	296.22	8.98	-48.2	-49.5	15.0	0.00e+00	0	23	0	1098907648	62	4210
2026-01-10 15:32:45.01	296.39	8.98	-48.1	-49.4	15.1	0.00e+00	0	23	0	1104150528	62	4176
2026-01-10 15:32:45.99	296.56	8.98	-47.9	-49.2	15.2	0.00e+00	0	23	0	1109393408	62	4083
2026-01-10 15:32:46.99	296.74	8.98	-47.8	-49.1	15.3	0.00e+00	0	23	0	1115684864	62	4016
2026-01-10 15:32:47.98	296.91	8.98	-47.9	-49.2	15.2	0.00e+00	0	23	0	1120927744	62	4080
2026-01-10 15:32:48.98	297.08	8.98	-48.0	-49.2	15.2	0.00e+00	0	23	0	1126170624	62	4090
2026-01-10 15:32:49.98	297.25	8.99	-47.9	-49.2	15.2	0.00e+00	0	23	0	1132462080	62	4075
2026-01-10 15:32:50.98	297.43	8.99	-48.0	-49.3	15.1	0.00e+00	0	23	0	1137704960	62	4106
2026-01-10 15:32:51.99	297.60	8.99	-48.1	-49.4	15.1	0.00e+00	0	23	0	1142947840	62	4173
2026-01-10 15:32:52.98	297.77	8.99	-47.9	-49.2	15.2	0.00e+00	0	23	0	1149239296	62	4077
2026-01-10 15:32:53.97	297.94	8.99	-47.9	-49.2	15.2	0.00e+00	0	23	0	1154482176	62	4093
2026-01-10 15:32:54.98	298.12	8.99	-48.0	-49.3	15.2	0.00e+00	0	23	0	1160773632	62	4106
2026-01-10 15:32:55.98	298.29	8.99	-47.9	-49.2	15.2	0.00e+00	0	23	0	1166016512	62	4084
2026-01-10 15:32:56.98	298.46	8.99	-47.9	-49.3	15.2	0.00e+00	0	23	0	1171259392	62	4105
2026-01-10 15:32:57.97	298.64	8.99	-47.9	-49.2	15.2	0.00e+00	0	23	0	1177550848	62	4053
2026-01-10 15:32:58.97	298.81	8.99	-47.8	-49.1	15.3	0.00e+00	0	23	0	1182793728	62	4038
2026-01-10 15:32:59.97	298.98	8.99	-47.9	-49.2	15.2	0.00e+00	0	23	0	1188036608	62	4057
2026-01-10 15:33:00.97	299.15	8.98	-47.8	-49.1	15.3	0.00e+00	0	23	0	1194328064	62	4007
2026-01-10 15:33:01.98	299.33	8.98	-47.8	-49.1	15.3	0.00e+00	0	23	0	1199570944	62	4009
2026-01-10 15:33:02.97	299.50	8.98	-47.8	-49.1	15.3	0.00e+00	0	23	0	1204813824	62	4028
2026-01-10 15:33:03.97	299.67	8.98	-47.9	-49.1	15.2	0.00e+00	0	23	0	1211105280	62	4051
2026-01-10 15:33:04.97	299.85	8.98	-48.0	-49.3	15.2	0.00e+00	0	23	0	1216348160	62	4112
2026-01-10 15:33:05.97	300.02	8.97	-48.0	-49.3	15.1	0.00e+00	0	23	0	1222639616	62	4142
2026-01-10 15:33:06.97	300.19	8.97	-48.1	-49.4	15.1	0.00e+00	0	23	0	1227882496	62	4175
2026-01-10 15:33:07.97	300.36	8.97	-48.1	-49.4	15.1	0.00e+00	0	23	0	1233125376	62	4178
2026-01-10 15:33:08.96	300.54	8.97	-48.1	-49.4	15.1	0.00e+00	0	23	0	1239416832	62	4165
2026-01-10 15:33:09.96	300.71	8.96	-48.1	-49.5	15.1	0.00e+00	0	23	0	1244659712	62	4203
2026-01-10 15:33:10.96	300.88	8.96	-48.1	-49.4	15.1	0.00e+00	0	23	0	1249902592	62	4168
2026-01-10 15:33:11.96	301.05	8.96	-48.1	-49.4	15.1	0.00e+00	0	23	0	1256194048	62	4181
2026-01-10 15:33:12.97	301.23	8.95	-48.0	-49.3	15.2	0.00e+00	0	23	0	1261436928	62	4115
2026-01-10 15:33:13.96	301.40	8.95	-48.0	-49.3	15.2	0.00e+00	0	23	0	1266679808	62	4117
2026-01-10 15:33:14.95	301.57	8.94	-47.9	-49.2	15.2	0.00e+00	0	23	0	1272971264	62	4060
2026-01-10 15:33:15.96	301.74	8.94	-47.8	-49.1	15.3	0.00e+00	0	23	0	1278214144	62	4014
2026-01-10 15:33:16.96	301.92	8.93	-47.8	-49.1	15.3	0.00e+00	0	23	0	1284505600	62	4012
2026-01-10 15:33:17.95	302.09	8.93	-47.8	-49.1	15.2	0.00e+00	0	23	0	1289748480	62	4034
2026-01-10 15:33:18.94	302.26	8.92	-47.8	-49.1	15.2	0.00e+00	0	23	0	1294991360	62	4045
2026-01-10 15:33:19.94	302.43	8.92	-47.9	-49.1	15.2	0.00e+00	0	23	0	1300234240	62	4045
2026-01-10 15:33:20.84	302.58	8.91	-47.9	-49.2	15.2	0.00e+00	0	23	0	1306525696	62	4069
2026-01-10 15:33:21.89	302.76	8.91	-48.0	-49.3	15.1	0.00e+00	0	23	0	1311768576	62	4117
2026-01-10 15:33:22.79	302.92	8.90	-48.0	-49.3	15.1	0.00e+00	0	23	0	1317011456	62	4128
2026-01-10 15:33:23.82	303.10	8.89	-48.0	-49.3	15.1	0.00e+00	0	23	0	1323302912	62	4116
2026-01-10 15:33:24.82	303.27	8.89	-47.9	-49.2	15.2	0.00e+00	0	23	0	1328545792	62	4082
2026-01-10 15:33:25.81	303.44	8.88	-47.9	-49.2	15.2	0.00e+00	0	23	0	1334837248	62	4081
2026-01-10 15:33:26.82	303.61	8.87	-48.0	-49.3	15.1	0.00e+00	0	23	0	1340080128	62	4105
2026-01-10 15:33:27.81	303.78	8.87	-48.1	-49.4	15.0	0.00e+00	0	23	0	1345323008	62	4192
2026-01-10 15:33:28.80	303.95	8.86	-48.1	-49.4	15.1	0.00e+00	0	23	0	1350565888	62	4152
2026-01-10 15:33:29.81	304.12	8.85	-48.1	-49.5	15.0	0.00e+00	0	23	0	1356857344	62	4202
2026-01-10 15:33:30.81	304.30	8.84	-48.0	-49.4	15.1	0.00e+00	0	23	0	1362100224	62	4157
2026-01-10 15:33:31.80	304.47	8.84	-48.1	-49.5	15.1	0.00e+00	0	23	0	1368391680	62	4196
2026-01-10 15:33:32.80	304.64	8.83	-48.2	-49.5	15.0	0.00e+00	0	23	0	1373634560	62	4227
2026-01-10 15:33:33.80	304.81	8.82	-48.1	-49.5	15.0	0.00e+00	0	23	0	1378877440	62	4205
2026-01-10 15:33:34.80	304.98	8.81	-48.1	-49.4	15.1	0.00e+00	0	23	0	1385168896	62	4182
2026-01-10 15:33:35.79	305.15	8.80	-48.1	-49.5	15.1	0.00e+00	0	23	0	1390411776	62	4196
2026-01-10 15:33:36.80	305.32	8.79	-48.1	-49.4	15.1	0.00e+00	0	23	0	1395654656	62	4177
2026-01-10 15:33:37.79	305.49	8.78	-48.1	-49.4	15.1	0.00e+00	0	23	0	1401946112	62	4164
2026-01-10 15:33:38.79	305.66	8.77	-48.1	-49.4	15.1	0.00e+00	0	23	0	1407188992	62	4159
2026-01-10 15:33:39.79	305.83	8.76	-48.0	-49.3	15.1	0.00e+00	0	23	0	1412431872	62	4138
2026-01-10 15:33:40.79	306.00	8.75	-48.0	-49.3	15.1	0.00e+00	0	23	0	1418723328	62	4116
2026-01-10 15:33:41.79	306.17	8.74	-48.1	-49.4	15.1	0.00e+00	0	23	0	1423966208	62	4158
2026-01-10 15:33:42.79	306.34	8.73	-48.1	-49.4	15.1	0.00e+00	0	23	0	1430257664	62	4191
2026-01-10 15:33:43.79	306.51	8.72	-48.2	-49.5	15.0	0.00e+00	0	23	0	1435500544	62	4224
2026-01-10 15:33:44.79	306.68	8.71	-48.1	-49.4	15.1	0.00e+00	0	23	0	1440743424	62	4166
2026-01-10 15:33:45.79	306.85	8.70	-48.1	-49.4	15.1	0.00e+00	0	23	0	1447034880	62	4156
2026-01-10 15:33:46.78	307.02	8.69	-48.0	-49.3	15.1	0.00e+00	0	23	0	1452277760	62	4103
2026-01-10 15:33:47.78	307.19	8.68	-47.9	-49.2	15.2	0.00e+00	0	23	0	1457520640	62	4074
2026-01-10 15:33:48.79	307.36	8.66	-47.8	-49.1	15.2	0.00e+00	0	23	0	1463812096	62	4031
2026-01-10 15:33:49.78	307.52	8.65	-47.8	-49.1	15.2	0.00e+00	0	23	0	1469054976	62	4024
2026-01-10 15:33:50.78	307.69	8.64	-47.8	-49.1	15.2	0.00e+00	0	23	0	1474297856	62	4046
2026-01-10 15:33:51.78	307.86	8.63	-47.7	-49.0	15.3	0.00e+00	0	23	0	1480589312	62	3967
2026-01-10 15:33:52.78	308.03	8.62	-47.9	-49.2	15.2	0.00e+00	0	23	0	1485832192	62	4065
2026-01-10 15:33:53.78	308.20	8.60	-47.9	-49.2	15.2	0.00e+00	0	23	0	1492123648	62	4074
2026-01-10 15:33:54.77	308.37	8.59	-47.9	-49.1	15.2	0.00e+00	0	23	0	1497366528	62	4047
2026-01-10 15:33:55.77	308.54	8.58	-48.1	-49.4	15.1	0.00e+00	0	23	0	1502609408	62	4175
2026-01-10 15:33:56.77	308.70	8.56	-48.0	-49.4	15.1	0.00e+00	0	23	0	1508900864	62	4153
2026-01-10 15:33:57.77	308.87	8.55	-48.1	-49.5	15.0	0.00e+00	0	23	0	1514143744	62	4206
2026-01-10 15:33:58.77	309.04	8.54	-48.2	-49.5	15.0	0.00e+00	0	23	0	1519386624	62	4239
2026-01-10 15:33:59.77	309.21	8.52	-48.1	-49.5	15.0	0.00e+00	0	23	0	1525678080	62	4217
2026-01-10 15:34:00.77	309.37	8.51	-48.1	-49.4	15.1	0.00e+00	0	23	0	1530920960	62	4175
2026-01-10 15:34:01.77	309.54	8.49	-48.0	-49.3	15.1	0.00e+00	0	23	0	1536163840	62	4122
2026-01-10 15:34:02.77	309.71	8.48	-47.9	-49.2	15.2	0.00e+00	0	23	0	1542455296	62	4085
2026-01-10 15:34:03.77	309.88	8.46	-48.0	-49.3	15.1	0.00e+00	0	23	0	1547698176	62	4144
2026-01-10 15:34:04.77	310.04	8.45	-48.1	-49.5	15.0	0.00e+00	0	23	0	1553989632	62	4201
2026-01-10 15:34:05.76	310.21	8.43	-48.2	-49.5	15.0	0.00e+00	0	23	0	1559232512	62	4217
2026-01-10 15:34:06.76	310.37	8.42	-48.0	-49.3	15.1	0.00e+00	0	23	0	1564475392	62	4133
2026-01-10 15:34:07.76	310.54	8.40	-48.0	-49.3	15.1	0.00e+00	0	23	0	1570766848	62	4111
2026-01-10 15:34:08.75	310.71	8.39	-48.0	-49.3	15.1	0.00e+00	0	23	0	1576009728	62	4123
2026-01-10 15:34:09.75	310.87	8.37	-48.0	-49.3	15.1	0.00e+00	0	23	0	1581252608	62	4127
2026-01-10 15:34:10.74	311.04	8.36	-48.0	-49.3	15.1	0.00e+00	0	23	0	1586495488	62	4119
2026-01-10 15:34:11.74	311.20	8.34	-48.1	-49.4	15.0	0.00e+00	0	23	0	1592786944	62	4176
2026-01-10 15:34:12.74	311.37	8.32	-48.0	-49.4	15.1	0.00e+00	0	23	0	1598029824	62	4155
2026-01-10 15:34:13.74	311.53	8.31	-48.0	-49.3	15.1	0.00e+00	0	23	0	1604321280	62	4108
2026-01-10 15:34:14.73	311.70	8.29	-48.0	-49.4	15.1	0.00e+00	0	23	0	1609564160	62	4147
2026-01-10 15:34:15.73	311.86	8.27	-48.1	-49.4	15.1	0.00e+00	0	23	0	1614807040	62	4162
2026-01-10 15:34:16.73	312.02	8.26	-47.9	-49.2	15.1	0.00e+00	0	23	0	1621098496	62	4086
2026-01-10 15:34:17.73	312.19	8.24	-48.0	-49.3	15.1	0.00e+00	0	23	0	1626341376	62	4124
2026-01-10 15:34:18.72	312.35	8.22	-47.9	-49.2	15.1	0.00e+00	0	23	0	1631584256	62	4084
2026-01-10 15:34:19.72	312.52	8.20	-48.0	-49.4	15.1	0.00e+00	0	23	0	1637875712	62	4146
2026-01-10 15:34:20.71	312.68	8.18	-48.0	-49.3	15.1	0.00e+00	0	23	0	1643118592	62	4121
2026-01-10 15:34:21.72	312.84	8.17	-48.0	-49.3	15.1	0.00e+00	0	23	0	1648361472	62	4115
2026-01-10 15:34:22.71	313.01	8.15	-48.1	-49.4	15.0	0.00e+00	0	23	0	1654652928	62	4189
2026-01-10 15:34:23.71	313.17	8.13	-48.1	-49.5	15.0	0.00e+00	0	23	0	1659895808	62	4206
2026-01-10 15:34:24.71	313.33	8.11	-48.2	-49.5	15.0	0.00e+00	0	23	0	1666187264	62	4213
2026-01-10 15:34:25.71	313.49	8.09	-48.0	-49.3	15.1	0.00e+00	0	23	0	1671430144	62	4128
2026-01-10 15:34:26.71	313.66	8.07	-48.1	-49.4	15.0	0.00e+00	0	23	0	1676673024	62	4167
2026-01-10 15:34:27.70	313.82	8.05	-48.1	-49.4	15.0	0.00e+00	0	23	0	1681915904	62	4185
2026-01-10 15:34:28.69	313.98	8.03	-48.1	-49.4	15.0	0.00e+00	0	23	0	1688207360	62	4184
2026-01-10 15:34:29.69	314.14	8.01	-48.1	-49.4	15.0	0.00e+00	0	23	0	1693450240	62	4165
2026-01-10 15:34:30.69	314.30	7.99	-48.1	-49.4	15.0	0.00e+00	0	23	0	1698693120	62	4165
2026-01-10 15:34:31.69	314.46	7.97	-48.1	-49.4	15.0	0.00e+00	0	23	0	1704984576	62	4160
2026-01-10 15:34:32.69	314.63	7.95	-47.9	-49.2	15.1	0.00e+00	0	23	0	1710227456	62	4097
2026-01-10 15:34:33.69	314.79	7.93	-48.0	-49.3	15.1	0.00e+00	0	23	0	1716518912	62	4134
2026-01-10 15:34:34.69	314.95	7.91	-48.1	-49.4	15.0	0.00e+00	0	23	0	1721761792	62	4180
2026-01-10 15:34:35.68	315.11	7.89	-48.0	-49.3	15.1	0.00e+00	0	23	0	1727004672	62	4127
2026-01-10 15:34:36.68	315.27	7.87	-48.1	-49.4	15.0	0.00e+00	0	23	0	1733296128	62	4166
2026-01-10 15:34:37.69	315.43	7.85	-48.1	-49.4	15.0	0.00e+00	0	23	0	1738539008	62	4162
2026-01-10 15:34:38.68	315.59	7.83	-48.0	-49.4	15.1	0.00e+00	0	23	0	1743781888	62	4146
2026-01-10 15:34:39.69	315.75	7.81	-48.0	-49.3	15.1	0.00e+00	0	23	0	1750073344	62	4118
2026-01-10 15:34:40.69	315.91	7.79	-48.1	-49.5	15.0	0.00e+00	0	23	0	1755316224	62	4200
2026-01-10 15:34:41.69	316.07	7.76	-48.0	-49.4	15.0	0.00e+00	0	23	0	1760559104	62	4160
2026-01-10 15:34:42.69	316.23	7.74	-48.1	-49.5	15.0	0.00e+00	0	23	0	1766850560	62	4226
2026-01-10 15:34:43.70	316.39	7.72	-48.1	-49.5	15.0	0.00e+00	0	23	0	1772093440	62	4214
2026-01-10 15:34:44.71	316.55	7.70	-48.2	-49.6	14.9	0.00e+00	0	23	0	1778384896	62	4262
2026-01-10 15:34:45.70	316.71	7.67	-48.3	-49.7	14.9	0.00e+00	0	23	0	1783627776	62	4320
2026-01-10 15:34:46.70	316.86	7.65	-48.3	-49.7	14.9	0.00e+00	0	23	0	1788870656	62	4324
2026-01-10 15:34:47.70	317.02	7.63	-48.4	-49.8	14.8	0.00e+00	0	23	0	1795162112	62	4349
2026-01-10 15:34:48.71	317.18	7.61	-48.4	-49.8	14.8	0.00e+00	0	23	0	1800404992	62	4350
2026-01-10 15:34:49.71	317.34	7.58	-48.4	-49.8	14.8	0.00e+00	0	23	0	1805647872	62	4359
2026-01-10 15:34:50.70	317.49	7.56	-48.3	-49.7	14.8	0.00e+00	0	23	0	1811939328	62	4323
2026-01-10 15:34:51.71	317.65	7.54	-48.4	-49.8	14.8	0.00e+00	0	23	0	1817182208	62	4361
2026-01-10 15:34:52.71	317.81	7.51	-48.5	-49.9	14.7	0.00e+00	0	23	0	1823473664	62	4415
2026-01-10 15:34:53.72	317.97	7.49	-48.5	-49.9	14.7	0.00e+00	0	23	0	1828716544	62	4402
2026-01-10 15:34:54.72	318.12	7.46	-48.6	-50.0	14.7	0.00e+00	0	23	0	1833959424	62	4463
2026-01-10 15:34:55.73	318.28	7.44	-48.4	-49.8	14.8	0.00e+00	0	23	0	1840250880	62	4371
2026-01-10 15:34:56.73	318.44	7.42	-48.5	-49.9	14.7	0.00e+00	0	23	0	1845493760	62	4404
2026-01-10 15:34:57.74	318.60	7.39	-48.5	-49.9	14.7	0.00e+00	0	23	0	1851785216	62	4415
2026-01-10 15:34:58.73	318.75	7.37	-48.2	-49.6	14.9	0.00e+00	0	23	0	1857028096	62	4268
2026-01-10 15:34:59.74	318.91	7.34	-48.3	-49.7	14.8	0.00e+00	0	23	0	1862270976	62	4304
2026-01-10 15:35:00.74	319.06	7.32	-48.5	-49.9	14.7	0.00e+00	0	23	0	1868562432	62	4398
2026-01-10 15:35:01.74	319.21	7.29	-48.5	-49.9	14.8	0.00e+00	0	23	0	1873805312	62	4403
2026-01-10 15:35:02.74	319.37	7.27	-48.4	-49.8	14.8	0.00e+00	0	23	0	1879048192	62	4349
2026-01-10 15:35:03.73	319.52	7.24	-48.3	-49.7	14.8	0.00e+00	0	23	0	1885339648	62	4317
2026-01-10 15:35:04.73	319.68	7.22	-48.3	-49.7	14.9	0.00e+00	0	23	0	1890582528	62	4300
2026-01-10 15:35:05.74	319.83	7.19	-48.4	-49.8	14.8	0.00e+00	0	23	0	1895825408	62	4383
2026-01-10 15:35:06.75	319.98	7.17	-48.2	-49.6	14.9	0.00e+00	0	23	0	1902116864	62	4279
2026-01-10 15:35:07.74	320.14	7.14	-48.4	-49.8	14.7	0.00e+00	0	23	0	1907359744	62	4391
2026-01-10 15:35:08.74	320.29	7.11	-48.3	-49.7	14.8	0.00e+00	0	23	0	1913651200	62	4293
2026-01-10 15:35:09.74	320.44	7.09	-48.2	-49.6	14.9	0.00e+00	0	23	0	1918894080	62	4243
2026-01-10 15:35:10.74	320.59	7.06	-48.2	-49.6	14.9	0.00e+00	0	23	0	1924136960	62	4257
2026-01-10 15:35:11.74	320.75	7.03	-48.1	-49.5	14.9	0.00e+00	0	23	0	1930428416	62	4218
2026-01-10 15:35:12.74	320.90	7.01	-48.3	-49.7	14.8	0.00e+00	0	23	0	1935671296	62	4318
2026-01-10 15:35:13.74	321.05	6.98	-48.6	-50.0	14.7	0.00e+00	0	23	0	1940914176	62	4453
2026-01-10 15:35:14.75	321.20	6.95	-48.6	-50.0	14.7	0.00e+00	0	23	0	1947205632	62	4465
2026-01-10 15:35:15.75	321.35	6.93	-48.5	-50.0	14.7	0.00e+00	0	23	0	1952448512	62	4447
2026-01-10 15:35:16.75	321.50	6.90	-48.7	-50.1	14.6	0.00e+00	0	23	0	1958739968	62	4541
2026-01-10 15:35:17.75	321.65	6.87	-48.5	-49.9	14.7	0.00e+00	0	23	0	1963982848	62	4421
2026-01-10 15:35:18.74	321.80	6.85	-48.2	-49.5	14.9	0.00e+00	0	23	0	1969225728	62	4229
2026-01-10 15:35:19.74	321.95	6.82	-48.2	-49.5	14.9	0.00e+00	0	23	0	1975517184	62	4237
2026-01-10 15:35:20.73	322.10	6.79	-48.3	-49.7	14.8	0.00e+00	0	23	0	1980760064	62	4318
2026-01-10 15:35:21.73	322.25	6.76	-48.5	-49.9	14.7	0.00e+00	0	23	0	1986002944	62	4409
2026-01-10 15:35:22.74	322.40	6.73	-48.6	-50.0	14.6	0.00e+00	0	23	0	1992294400	62	4481
2026-01-10 15:35:23.74	322.55	6.71	-48.5	-49.9	14.7	0.00e+00	0	23	0	1997537280	62	4416
2026-01-10 15:35:24.74	322.70	6.68	-48.6	-50.0	14.6	0.00e+00	0	23	0	2002780160	62	4461
2026-01-10 15:35:25.74	322.84	6.65	-48.6	-50.0	14.6	0.00e+00	0	23	0	2009071616	62	4473
2026-01-10 15:35:26.73	322.99	6.62	-48.6	-50.0	14.6	0.00e+00	0	23	0	2014314496	62	4476
2026-01-10 15:35:27.73	323.14	6.59	-48.6	-50.1	14.6	0.00e+00	0	23	0	2020605952	62	4516
2026-01-10 15:35:28.73	323.28	6.56	-48.7	-50.2	14.5	0.00e+00	0	23	0	2025848832	62	4573
2026-01-10 15:35:29.72	323.43	6.54	-48.6	-50.0	14.6	0.00e+00	0	23	0	2031091712	62	4473
2026-01-10 15:35:30.71	323.57	6.51	-48.4	-49.9	14.7	0.00e+00	0	23	0	2037383168	62	4393
2026-01-10 15:35:31.71	323.72	6.48	-48.8	-50.3	14.5	0.00e+00	0	23	0	2042626048	62	4629
2026-01-10 15:35:32.71	323.87	6.45	-48.7	-50.1	14.6	0.00e+00	0	23	0	2047868928	62	4536
2026-01-10 15:35:33.71	324.01	6.42	-48.5	-50.0	14.7	0.00e+00	0	23	0	2054160384	62	4458
2026-01-10 15:35:34.71	324.16	6.39	-48.4	-49.9	14.7	0.00e+00	0	23	0	2059403264	62	4395
2026-01-10 15:35:35.71	324.30	6.36	-48.5	-49.9	14.7	0.00e+00	0	23	0	2064646144	62	4417
2026-01-10 15:35:36.71	324.45	6.33	-48.7	-50.1	14.5	0.00e+00	0	23	0	2070937600	62	4545
2026-01-10 15:35:37.71	324.59	6.30	-48.3	-49.7	14.8	0.00e+00	0	23	0	2076180480	62	4293
2026-01-10 15:35:38.72	324.74	6.27	-48.2	-49.6	14.9	0.00e+00	0	23	0	2082471936	62	4245
2026-01-10 15:35:39.73	324.89	6.24	-48.2	-49.6	14.9	0.00e+00	0	23	0	2087714816	62	4245
2026-01-10 15:35:40.73	325.03	6.21	-48.7	-50.1	14.6	0.00e+00	0	23	0	2092957696	62	4513
2026-01-10 15:35:41.73	325.17	6.18	-48.5	-49.9	14.7	0.00e+00	0	23	0	2099249152	62	4409
2026-01-10 15:35:42.73	325.32	6.15	-48.3	-49.7	14.8	0.00e+00	0	23	0	2104492032	62	4295
2026-01-10 15:35:43.74	325.46	6.12	-48.2	-49.6	14.8	0.00e+00	0	23	0	2109734912	62	4263
2026-01-10 15:35:44.73	325.60	6.09	-48.8	-50.3	14.5	0.00e+00	0	23	0	2116026368	62	4606
2026-01-10 15:35:45.73	325.74	6.06	-48.7	-50.1	14.5	0.00e+00	0	23	0	2121269248	62	4543
2026-01-10 15:35:46.73	325.89	6.03	-48.9	-50.3	14.4	0.00e+00	0	23	0	2126512128	62	4647
2026-01-10 15:35:47.74	326.03	6.00	-48.8	-50.3	14.5	0.00e+00	0	23	0	2132803584	62	4620
2026-01-10 15:35:48.74	326.17	5.97	-48.8	-50.2	14.5	0.00e+00	0	23	0	2138046464	62	4597
2026-01-10 15:35:49.75	326.31	5.93	-48.9	-50.4	14.5	0.00e+00	0	23	0	2144337920	63	4407
2026-01-10 15:35:50.74	326.45	5.90	-48.9	-50.4	14.5	0.00e+00	0	23	0	2149580800	63	4424
2026-01-10 15:35:51.74	326.59	5.87	-48.9	-50.4	14.5	0.00e+00	0	23	0	2154823680	63	4419
2026-01-10 15:35:52.74	326.73	5.84	-49.2	-50.7	14.4	0.00e+00	0	23	0	2161115136	63	4559
2026-01-10 15:35:53.74	326.87	5.81	-48.8	-50.3	14.6	0.00e+00	0	23	0	2166358016	63	4369
2026-01-10 15:35:54.74	327.01	5.78	-49.0	-50.5	14.5	0.00e+00	0	23	0	2171600896	63	4447
2026-01-10 15:35:55.74	327.15	5.74	-48.9	-50.4	14.5	0.00e+00	0	23	0	2177892352	63	4416
2026-01-10 15:35:56.74	327.29	5.71	-48.9	-50.3	14.5	0.00e+00	0	23	0	2183135232	63	4391
2026-01-10 15:35:57.74	327.43	5.68	-48.4	-49.8	14.9	0.00e+00	0	23	0	2188378112	63	4129
2026-01-10 15:35:58.73	327.57	5.65	-48.6	-50.1	14.7	0.00e+00	0	23	0	2194669568	63	4254
2026-01-10 15:35:59.74	327.71	5.62	-49.2	-50.7	14.3	0.00e+00	0	23	0	2199912448	63	4580
2026-01-10 15:36:00.74	327.85	5.58	-49.0	-50.5	14.5	0.00e+00	0	23	0	2206203904	63	4464
2026-01-10 15:36:01.75	327.98	5.55	-48.9	-50.4	14.5	0.00e+00	0	23	0	2211446784	63	4405
2026-01-10 15:36:02.74	328.12	5.52	-48.9	-50.4	14.5	0.00e+00	0	23	0	2216689664	63	4436
2026-01-10 15:36:03.74	328.26	5.49	-48.7	-50.1	14.7	0.00e+00	0	23	0	2222981120	63	4276
2026-01-10 15:36:04.75	328.40	5.45	-49.0	-50.5	14.4	0.00e+00	0	23	0	2228224000	63	4454
2026-01-10 15:36:05.74	328.53	5.42	-48.7	-50.2	14.6	0.00e+00	0	23	0	2233466880	63	4314
2026-01-10 15:36:06.74	328.67	5.39	-48.8	-50.3	14.5	0.00e+00	0	23	0	2239758336	63	4371
2026-01-10 15:36:07.74	328.80	5.36	-48.9	-50.4	14.5	0.00e+00	0	23	0	2245001216	63	4423
2026-01-10 15:36:08.74	328.94	5.32	-48.9	-50.4	14.5	0.00e+00	0	23	0	2250244096	63	4394
2026-01-10 15:36:09.74	329.07	5.29	-48.8	-50.2	14.6	0.00e+00	0	23	0	2256535552	63	4325
2026-01-10 15:36:10.74	329.21	5.26	-48.9	-50.3	14.5	0.00e+00	0	23	0	2261778432	63	4391
2026-01-10 15:36:11.73	329.34	5.22	-49.1	-50.6	14.4	0.00e+00	0	23	0	2268069888	63	4533
2026-01-10 15:36:12.74	329.48	5.19	-48.6	-50.0	14.7	0.00e+00	0	23	0	2273312768	63	4230
2026-01-10 15:36:13.74	329.61	5.16	-48.7	-50.2	14.6	0.00e+00	0	23	0	2278555648	63	4310
2026-01-10 15:36:14.74	329.75	5.12	-48.8	-50.3	14.6	0.00e+00	0	23	0	2284847104	63	4342
2026-01-10 15:36:15.74	329.88	5.09	-48.5	-50.0	14.7	0.00e+00	0	23	0	2290089984	63	4195
2026-01-10 15:36:16.73	330.01	5.06	-49.0	-50.5	14.4	0.00e+00	0	23	0	2295332864	63	4492
2026-01-10 15:36:17.73	330.15	5.02	-48.9	-50.4	14.5	0.00e+00	0	23	0	2301624320	63	4430
2026-01-10 15:36:18.74	330.28	4.99	-55.6	-60.4	8.3	0.00e+00	0	23	0	2306867200	76	6614
2026-01-10 15:36:19.73	330.41	4.96	-52.2	-70.5	3.8	8.44e-01	0	23	104	2307915776	71	28224
2026-01-10 15:36:20.72	330.54	4.92	-58.3	-71.4	3.8	8.45e-01	0	23	104	2307915776	81	17490
2026-01-10 15:36:21.72	330.67	4.89	-58.6	-71.6	3.8	8.46e-01	0	23	104	2307915776	82	17076
2026-01-10 15:36:22.72	330.80	4.85	-58.8	-71.9	3.8	8.45e-01	0	23	104	2307915776	82	17487
2026-01-10 15:36:23.72	330.94	4.82	-59.0	-72.1	3.8	8.45e-01	0	23	104	2307915776	83	16935
2026-01-10 15:36:24.71	331.07	4.78	-59.1	-72.2	3.8	8.46e-01	0	23	104	2307915776	83	17154
2026-01-10 15:36:25.69	331.19	4.75	-59.2	-72.3	3.8	8.47e-01	0	23	104	2307915776	83	17313
2026-01-10 15:36:26.69	331.32	4.72	-59.3	-72.4	3.8	8.46e-01	0	23	104	2307915776	83	17513
2026-01-10 15:36:27.68	331.45	4.68	-59.4	-72.4	3.8	8.46e-01	0	23	104	2307915776	83	17621
2026-01-10 15:36:28.68	331.58	4.65	-59.4	-72.5	3.8	8.45e-01	0	24	104	2307915776	83	17728
2026-01-10 15:36:29.68	331.71	4.61	-59.7	-72.7	3.8	8.46e-01	0	23	104	2307915776	84	17198
2026-01-10 15:36:30.69	331.84	4.58	-59.7	-72.8	3.8	8.46e-01	0	23	104	2307915776	84	17298
2026-01-10 15:36:31.69	331.97	4.54	-59.7	-72.7	3.8	8.47e-01	0	24	104	2307915776	84	17247
2026-01-10 15:36:32.68	332.10	4.51	-59.8	-72.8	3.8	8.46e-01	0	23	104	2307915776	84	17378
2026-01-10 15:36:33.68	332.23	4.47	-59.8	-72.8	3.8	8.46e-01	0	23	104	2307915776	84	17433
2026-01-10 15:36:34.69	332.36	4.44	-59.8	-72.9	3.8	8.47e-01	0	23	104	2307915776	84	17498
2026-01-10 15:36:35.68	332.48	4.40	-59.8	-72.8	3.8	8.45e-01	0	23	104	2307915776	84	17470
2026-01-10 15:36:36.68	332.61	4.37	-59.8	-72.8	3.8	8.46e-01	0	23	104	2307915776	84	17471
2026-01-10 15:36:37.68	332.74	4.33	-59.8	-72.8	3.8	8.46e-01	0	23	104	2307915776	84	17409
2026-01-10 15:36:38.69	332.86	4.30	-59.8	-72.8	3.8	8.46e-01	0	23	104	2307915776	84	17420
2026-01-10 15:36:39.68	332.99	4.26	-59.8	-72.9	3.8	8.46e-01	0	23	104	2307915776	84	17516
2026-01-10 15:36:40.68	333.12	4.23	-59.7	-72.8	3.8	8.46e-01	0	23	104	2307915776	84	17401
2026-01-10 15:36:41.69	333.24	4.19	-59.7	-72.8	3.8	8.47e-01	0	23	104	2307915776	84	17319
2026-01-10 15:36:42.69	333.37	4.16	-59.7	-72.8	3.8	8.45e-01	0	23	104	2307915776	84	17301
2026-01-10 15:36:43.69	333.49	4.12	-59.7	-72.8	3.8	8.45e-01	0	23	104	2307915776	84	17319
2026-01-10 15:36:44.69	333.62	4.08	-59.7	-72.8	3.8	8.46e-01	0	23	104	2307915776	84	17311
2026-01-10 15:36:45.69	333.74	4.05	-59.7	-72.7	3.8	8.45e-01	0	24	104	2307915776	84	17209
2026-01-10 15:36:46.69	333.87	4.01	-59.7	-72.7	3.8	8.46e-01	0	24	104	2307915776	84	17239
2026-01-10 15:36:47.68	333.99	3.98	-59.6	-72.7	3.8	8.46e-01	0	23	104	2307915776	84	17224
2026-01-10 15:36:48.68	334.12	3.94	-59.6	-72.7	3.8	8.44e-01	0	23	104	2307915776	84	17151
2026-01-10 15:36:49.69	334.24	3.90	-59.6	-72.7	3.8	8.47e-01	0	23	104	2307915776	84	17093
2026-01-10 15:36:50.69	334.36	3.87	-59.6	-72.7	3.8	8.46e-01	0	23	104	2307915776	84	17088
2026-01-10 15:36:51.69	334.49	3.83	-59.6	-72.7	3.8	8.47e-01	0	24	104	2307915776	84	17138
2026-01-10 15:36:52.69	334.61	3.80	-59.6	-72.6	3.8	8.46e-01	0	23	104	2307915776	84	17082
2026-01-10 15:36:53.70	334.73	3.76	-59.6	-72.6	3.8	8.45e-01	0	24	104	2307915776	84	17039
2026-01-10 15:36:54.70	334.86	3.72	-59.6	-72.6	3.8	8.46e-01	0	24	104	2307915776	84	17046
2026-01-10 15:36:55.69	334.98	3.69	-59.6	-72.6	3.8	8.45e-01	0	23	104	2307915776	84	17019
2026-01-10 15:36:56.69	335.10	3.65	-59.6	-72.6	3.8	8.46e-01	0	23	104	2307915776	84	17025
2026-01-10 15:36:57.70	335.22	3.61	-59.6	-72.6	3.8	8.46e-01	0	23	104	2307915776	84	17038
2026-01-10 15:36:58.69	335.34	3.58	-59.6	-72.6	3.8	8.45e-01	0	24	104	2307915776	84	17032
2026-01-10 15:36:59.69	335.46	3.54	-59.5	-72.6	3.8	8.45e-01	0	24	104	2307915776	84	16978
2026-01-10 15:37:00.69	335.58	3.51	-59.5	-72.6	3.8	8.46e-01	0	23	104	2307915776	84	16974
2026-01-10 15:37:01.69	335.70	3.47	-59.5	-72.6	3.8	8.46e-01	0	23	104	2307915776	84	16977
2026-01-10 15:37:02.69	335.82	3.43	-59.5	-72.6	3.8	8.46e-01	0	23	104	2307915776	84	16981
2026-01-10 15:37:03.69	335.94	3.40	-59.5	-72.6	3.8	8.45e-01	0	23	104	2307915776	84	16943
2026-01-10 15:37:04.69	336.06	3.36	-59.5	-72.6	3.8	8.46e-01	0	24	104	2307915776	84	16922
2026-01-10 15:37:05.69	336.18	3.32	-59.5	-72.6	3.8	8.46e-01	0	23	104	2307915776	84	16896
2026-01-10 15:37:06.69	336.30	3.28	-59.5	-72.6	3.8	8.45e-01	0	23	104	2307915776	84	16894
2026-01-10 15:37:07.69	336.42	3.25	-59.5	-72.6	3.8	8.45e-01	0	23	104	2307915776	84	16985
2026-01-10 15:37:08.69	336.53	3.21	-59.5	-72.6	3.8	8.46e-01	0	23	104	2307915776	84	16911
2026-01-10 15:37:09.70	336.65	3.17	-59.5	-72.6	3.8	8.45e-01	0	23	104	2307915776	84	16946
2026-01-10 15:37:10.70	336.77	3.14	-59.5	-72.6	3.8	8.45e-01	0	23	104	2307915776	84	16899
2026-01-10 15:37:11.69	336.89	3.10	-59.5	-72.5	3.8	8.45e-01	0	23	104	2307915776	84	16861
2026-01-10 15:37:12.69	337.00	3.06	-59.5	-72.5	3.8	8.45e-01	0	23	104	2307915776	84	16853
2026-01-10 15:37:13.69	337.12	3.02	-59.5	-72.5	3.8	8.44e-01	0	23	104	2307915776	84	16839
2026-01-10 15:37:14.69	337.24	2.99	-59.5	-72.5	3.8	8.45e-01	0	23	104	2307915776	84	16831
2026-01-10 15:37:15.68	337.35	2.95	-59.5	-72.5	3.8	8.46e-01	0	23	104	2307915776	84	16857
2026-01-10 15:37:16.68	337.47	2.91	-59.5	-72.5	3.8	8.44e-01	0	23	104	2307915776	84	16812
2026-01-10 15:37:17.67	337.58	2.88	-59.5	-72.5	3.8	8.45e-01	0	23	104	2307915776	84	16844
2026-01-10 15:37:18.67	337.70	2.84	-59.5	-72.5	3.8	8.44e-01	0	23	104	2307915776	84	16771
2026-01-10 15:37:19.66	337.81	2.80	-59.5	-72.5	3.8	8.46e-01	0	23	104	2307915776	84	16823
2026-01-10 15:37:20.67	337.93	2.76	-59.5	-72.5	3.8	8.46e-01	0	23	104	2307915776	84	16885
2026-01-10 15:37:21.66	338.04	2.73	-59.5	-72.5	3.8	8.45e-01	0	23	104	2307915776	84	16822
2026-01-10 15:37:22.66	338.15	2.69	-59.5	-72.5	3.8	8.45e-01	0	23	104	2307915776	84	16827
2026-01-10 15:37:23.67	338.27	2.65	-59.5	-72.5	3.8	8.47e-01	0	23	104	2307915776	84	16776
2026-01-10 15:37:24.66	338.38	2.61	-59.4	-72.5	3.8	8.46e-01	0	23	104	2307915776	84	16804
2026-01-10 15:37:25.66	338.50	2.58	-59.5	-72.5	3.8	8.45e-01	0	23	104	2307915776	84	16777
2026-01-10 15:37:26.66	338.61	2.54	-59.4	-72.5	3.8	8.46e-01	0	23	104	2307915776	84	16817
2026-01-10 15:37:27.66	338.72	2.50	-59.4	-72.5	3.8	8.47e-01	0	23	104	2307915776	84	16719
2026-01-10 15:37:28.66	338.83	2.46	-59.4	-72.5	3.8	8.46e-01	0	24	104	2307915776	84	16780
2026-01-10 15:37:29.66	338.95	2.42	-59.5	-72.5	3.8	8.46e-01	0	24	104	2307915776	84	16781
2026-01-10 15:37:30.66	339.06	2.39	-59.4	-72.5	3.8	8.46e-01	0	23	104	2307915776	84	16798
2026-01-10 15:37:31.66	339.17	2.35	-59.4	-72.5	3.8	8.45e-01	0	23	104	2307915776	84	16792
2026-01-10 15:37:32.66	339.28	2.31	-59.4	-72.5	3.8	8.45e-01	0	24	104	2307915776	84	16803
2026-01-10 15:37:33.67	339.39	2.27	-59.4	-72.5	3.8	8.47e-01	0	23	104	2307915776	84	16751
2026-01-10 15:37:34.67	339.50	2.23	-59.4	-72.5	3.8	8.45e-01	0	23	104	2307915776	84	16757
2026-01-10 15:37:35.68	339.62	2.20	-59.4	-72.5	3.8	8.47e-01	0	23	104	2307915776	84	16702
2026-01-10 15:37:36.68	339.73	2.16	-59.4	-72.5	3.8	8.45e-01	0	23	104	2307915776	84	16733
2026-01-10 15:37:37.68	339.84	2.12	-59.4	-72.5	3.8	8.45e-01	0	23	104	2307915776	84	16740
2026-01-10 15:37:38.68	339.95	2.08	-59.4	-72.5	3.8	8.46e-01	0	23	104	2307915776	84	16732
2026-01-10 15:37:39.68	340.06	2.04	-59.4	-72.5	3.8	8.46e-01	0	23	104	2307915776	84	16709
2026-01-10 15:37:40.68	340.17	2.01	-59.4	-72.5	3.8	8.46e-01	0	23	104	2307915776	84	16704
2026-01-10 15:37:41.68	340.27	1.97	-59.4	-72.5	3.8	8.46e-01	0	23	104	2307915776	84	16709

#Closed at: 2026-01-10 15:37:42
#Recorded file [2307 MB]: D:/lorett/data/31004_260110_182810.dat