passes_logs/2026/01/10/R3.2S_Murmansk/R3.2S_Murmansk__20260110_121532_NOAA_21_JPSS-2_rec.log

#Pass ID: 20260110_121532_NOAA 21 (JPSS-2)
#Satellite: NOAA 21 (JPSS-2)
#Configuration: NOAA-21
#almurnet v.1.7.20251203
#Start time: 2026-01-10 12:16:57

#Version: 2.2.20231116
#Station: R3.2S_Murmansk
#Location: 33.079688 lon 68.888172 lat
#TLE: 1 54234U 22150A   26009.79679979  .00000100  00000+0  68070-4 0  9993
#TLE: 2 54234  98.7494 310.7596 0000833 322.2782  37.8335 14.19533646164071

#Time	Az	El	Level	Level2	SNR	BER	BlckErr	Temp	State	Recorded	gain1	gain2
2026-01-10 12:16:57.36	229.45	6.63	-59.6	-72.6	3.8	8.45e-01	0	23	0	0	84	17025
2026-01-10 12:16:58.37	229.56	6.69	-59.8	-73.6	3.8	1.49e+00	0	24	104	0	84	19122
2026-01-10 12:16:59.37	229.67	6.75	-59.8	-73.6	3.8	1.49e+00	0	23	104	0	84	19024
2026-01-10 12:17:00.38	229.78	6.80	-59.7	-73.5	3.8	1.49e+00	0	24	104	0	84	18946
2026-01-10 12:17:01.39	229.89	6.86	-59.7	-73.5	3.8	1.49e+00	0	24	104	0	84	18814
2026-01-10 12:17:02.39	230.00	6.92	-59.6	-73.5	3.8	1.49e+00	0	23	104	0	84	18778
2026-01-10 12:17:03.39	230.11	6.98	-59.6	-73.4	3.8	1.49e+00	0	23	104	0	84	18714
2026-01-10 12:17:04.40	230.22	7.03	-59.6	-73.4	3.8	1.49e+00	0	23	104	0	84	18560
2026-01-10 12:17:05.40	230.33	7.09	-59.5	-73.3	3.8	1.49e+00	0	24	104	0	84	18413
2026-01-10 12:17:06.41	230.44	7.15	-59.4	-73.2	3.8	1.49e+00	0	24	104	0	84	18260
2026-01-10 12:17:07.41	230.55	7.20	-59.4	-73.1	3.8	1.49e+00	0	23	104	0	84	18071
2026-01-10 12:17:08.41	230.67	7.26	-59.4	-73.2	3.8	1.49e+00	0	23	104	0	84	18133
2026-01-10 12:17:09.41	230.78	7.32	-59.3	-73.1	3.8	1.49e+00	0	24	104	0	84	17944
2026-01-10 12:17:10.41	230.89	7.37	-59.2	-73.0	3.8	1.49e+00	0	24	104	0	84	17776
2026-01-10 12:17:11.42	231.01	7.43	-59.1	-72.9	3.8	1.49e+00	0	24	104	0	84	17599
2026-01-10 12:17:12.41	231.12	7.49	-59.0	-72.8	3.8	1.49e+00	0	24	104	0	84	17404
2026-01-10 12:17:13.42	231.23	7.55	-58.9	-72.6	3.8	1.49e+00	0	24	104	0	84	17063
2026-01-10 12:17:14.41	231.35	7.60	-58.7	-72.4	3.8	1.49e+00	0	24	104	0	84	16543
2026-01-10 12:17:15.41	231.46	7.66	-58.7	-72.4	3.8	1.49e+00	0	24	104	0	84	16511
2026-01-10 12:17:16.42	231.58	7.72	-58.5	-72.2	3.8	1.49e+00	0	24	104	0	83	17094
2026-01-10 12:17:17.42	231.69	7.78	-58.5	-72.1	3.8	1.49e+00	0	23	104	0	83	16943
2026-01-10 12:17:18.42	231.81	7.83	-58.4	-72.1	3.8	1.49e+00	0	24	104	0	83	16903
2026-01-10 12:17:19.42	231.93	7.89	-58.4	-72.1	3.8	1.49e+00	0	24	104	0	83	17012
2026-01-10 12:17:20.42	232.04	7.95	-58.4	-72.2	3.8	1.49e+00	0	24	104	0	83	17127
2026-01-10 12:17:21.43	232.16	8.00	-58.4	-72.2	3.8	1.49e+00	0	23	104	0	83	17184
2026-01-10 12:17:22.44	232.28	8.06	-58.4	-72.1	3.8	1.49e+00	0	23	104	0	83	17037
2026-01-10 12:17:23.44	232.40	8.12	-58.4	-72.0	3.8	1.49e+00	0	23	104	0	83	16864
2026-01-10 12:17:24.45	232.52	8.18	-58.4	-72.0	3.8	1.49e+00	0	24	104	0	83	16745
2026-01-10 12:17:25.45	232.64	8.24	-58.4	-71.9	3.8	1.49e+00	0	24	104	0	83	16598
2026-01-10 12:17:26.46	232.76	8.29	-58.4	-72.0	3.8	1.49e+00	0	23	104	0	83	16770
2026-01-10 12:17:27.46	232.88	8.35	-58.4	-72.1	3.8	1.49e+00	0	24	104	0	83	16897
2026-01-10 12:17:28.47	233.00	8.41	-58.4	-72.1	3.8	1.49e+00	0	23	104	0	83	16937
2026-01-10 12:17:29.48	233.12	8.47	-58.4	-72.1	3.8	1.49e+00	0	24	104	0	83	17056
2026-01-10 12:17:30.48	233.25	8.52	-58.4	-72.1	3.8	1.49e+00	0	24	104	0	83	17079
2026-01-10 12:17:31.49	233.37	8.58	-58.4	-72.1	3.8	1.49e+00	0	24	104	0	83	17037
2026-01-10 12:17:32.49	233.49	8.64	-58.4	-72.0	3.8	1.49e+00	0	24	104	0	83	16745
2026-01-10 12:17:33.50	233.62	8.70	-58.4	-71.8	3.8	1.49e+00	0	24	104	0	83	16418
2026-01-10 12:17:34.49	233.74	8.76	-58.3	-71.6	3.8	1.49e+00	0	24	104	0	83	16056
2026-01-10 12:17:35.50	233.86	8.81	-58.3	-71.6	3.8	1.49e+00	0	24	104	0	83	16046
2026-01-10 12:17:36.51	233.99	8.87	-58.3	-71.5	3.8	1.49e+00	0	24	104	0	83	15933
2026-01-10 12:17:37.51	234.11	8.93	-58.3	-71.5	3.8	1.49e+00	0	23	104	0	83	15774
2026-01-10 12:17:38.51	234.24	8.99	-58.3	-71.0	3.8	1.49e+00	0	23	104	0	83	14965
2026-01-10 12:17:39.51	234.37	9.05	-58.3	-70.8	3.8	1.49e+00	0	24	104	0	83	14634
2026-01-10 12:17:40.51	234.49	9.10	-58.3	-71.1	3.8	1.49e+00	0	23	104	0	83	15088
2026-01-10 12:17:41.52	234.62	9.16	-58.3	-71.7	3.8	1.49e+00	0	24	104	0	83	16203
2026-01-10 12:17:42.53	234.75	9.22	-58.3	-72.0	3.8	1.49e+00	0	24	104	0	83	16751
2026-01-10 12:17:43.54	234.88	9.28	-58.2	-70.6	3.8	1.49e+00	0	24	104	0	83	14347
2026-01-10 12:17:44.54	235.01	9.34	-58.0	-68.5	3.9	1.46e+00	0	24	104	0	82	11931
2026-01-10 12:17:45.55	235.14	9.39	-57.8	-66.3	5.1	7.43e-01	0	24	0	0	82	9229
2026-01-10 12:17:46.55	235.27	9.45	-57.5	-65.1	5.7	3.87e-01	0	24	0	3145728	81	8491
2026-01-10 12:17:47.56	235.40	9.51	-57.4	-64.6	6.1	2.89e-01	0	24	0	6291456	81	8011
2026-01-10 12:17:48.56	235.53	9.57	-57.2	-63.5	6.9	1.98e-01	0	24	0	9437184	81	7083
2026-01-10 12:17:49.56	235.66	9.63	-56.4	-61.2	8.9	3.70e-02	0	24	0	12582912	79	6101
2026-01-10 12:17:50.56	235.79	9.68	-55.2	-58.6	11.1	7.90e-04	0	24	0	15728640	77	5079
2026-01-10 12:17:51.56	235.92	9.74	-54.2	-56.9	12.3	3.80e-06	0	24	0	18874368	74	4966
2026-01-10 12:17:52.55	236.05	9.80	-56.7	-62.0	8.4	1.26e-03	0	24	0	22020096	78	7090
2026-01-10 12:17:53.55	236.18	9.86	-54.2	-56.9	12.0	1.49e+00	0	24	104	23068672	75	4690
2026-01-10 12:17:54.55	236.32	9.91	-55.1	-58.5	11.1	0.00e+00	0	23	0	25165824	75	5644
2026-01-10 12:17:55.55	236.45	9.97	-52.6	-54.7	13.5	3.17e-03	0	24	0	28311552	72	4295
2026-01-10 12:17:56.55	236.58	10.03	-49.7	-51.2	14.9	0.00e+00	0	24	0	31457280	66	4063
2026-01-10 12:17:57.55	236.72	10.09	-49.6	-51.0	14.8	0.00e+00	0	24	0	34603008	65	4220
2026-01-10 12:17:58.55	236.85	10.15	-49.6	-51.0	14.8	0.00e+00	0	24	0	37748736	65	4242
2026-01-10 12:17:59.55	236.99	10.20	-49.8	-51.2	14.7	0.00e+00	0	24	0	40894464	65	4332
2026-01-10 12:18:00.56	237.13	10.26	-49.8	-51.3	14.6	0.00e+00	0	23	0	44040192	65	4342
2026-01-10 12:18:01.56	237.27	10.32	-49.9	-51.4	14.6	0.00e+00	0	24	0	47185920	65	4418
2026-01-10 12:18:02.56	237.40	10.38	-49.8	-51.3	14.7	0.00e+00	0	24	0	50331648	65	4344
2026-01-10 12:18:03.56	237.54	10.44	-49.7	-51.1	14.7	0.00e+00	0	23	0	53477376	65	4291
2026-01-10 12:18:04.57	237.68	10.49	-49.8	-51.2	14.7	0.00e+00	0	24	0	56623104	65	4337
2026-01-10 12:18:05.57	237.82	10.55	-49.7	-51.1	14.7	0.00e+00	0	24	0	59768832	65	4289
2026-01-10 12:18:06.57	237.96	10.61	-49.7	-51.1	14.7	0.00e+00	0	24	0	62914560	65	4287
2026-01-10 12:18:07.57	238.10	10.67	-49.9	-51.3	14.6	0.00e+00	0	24	0	66060288	65	4388
2026-01-10 12:18:08.57	238.24	10.72	-49.8	-51.3	14.6	0.00e+00	0	24	0	69206016	65	4379
2026-01-10 12:18:09.57	238.38	10.78	-49.8	-51.3	14.7	0.00e+00	0	23	0	72351744	65	4353
2026-01-10 12:18:10.56	238.52	10.84	-49.8	-51.3	14.6	0.00e+00	0	23	0	75497472	65	4368
2026-01-10 12:18:11.56	238.66	10.90	-49.7	-51.1	14.8	0.00e+00	0	24	0	78643200	65	4274
2026-01-10 12:18:12.55	238.80	10.95	-49.8	-51.2	14.7	0.00e+00	0	23	0	81788928	65	4324
2026-01-10 12:18:13.56	238.95	11.01	-49.7	-51.1	14.8	0.00e+00	0	24	0	84934656	65	4286
2026-01-10 12:18:14.57	239.09	11.07	-49.7	-51.1	14.7	0.00e+00	0	24	0	88080384	65	4285
2026-01-10 12:18:15.57	239.24	11.13	-49.7	-51.2	14.7	0.00e+00	0	24	0	91226112	65	4304
2026-01-10 12:18:16.57	239.38	11.19	-49.7	-51.2	14.7	0.00e+00	0	24	0	94371840	65	4298
2026-01-10 12:18:17.57	239.53	11.24	-49.7	-51.2	14.7	0.00e+00	0	23	0	97517568	65	4294
2026-01-10 12:18:18.57	239.67	11.30	-49.7	-51.1	14.8	0.00e+00	0	24	0	100663296	65	4277
2026-01-10 12:18:19.57	239.82	11.36	-49.6	-51.0	14.8	0.00e+00	0	23	0	103809024	65	4236
2026-01-10 12:18:20.57	239.97	11.42	-49.6	-51.0	14.8	0.00e+00	0	23	0	106954752	65	4221
2026-01-10 12:18:21.57	240.12	11.47	-49.6	-51.0	14.8	0.00e+00	0	24	0	110100480	65	4202
2026-01-10 12:18:22.57	240.26	11.53	-49.4	-50.8	14.9	0.00e+00	0	23	0	113246208	65	4140
2026-01-10 12:18:23.57	240.41	11.59	-49.4	-50.8	14.9	0.00e+00	0	24	0	116391936	65	4121
2026-01-10 12:18:24.57	240.56	11.65	-49.5	-50.9	14.9	0.00e+00	0	24	0	119537664	65	4170
2026-01-10 12:18:25.58	240.71	11.70	-49.5	-51.0	14.8	0.00e+00	0	23	0	122683392	65	4202
2026-01-10 12:18:26.58	240.86	11.76	-49.5	-50.9	14.9	0.00e+00	0	24	0	125829120	65	4171
2026-01-10 12:18:27.59	241.02	11.82	-49.6	-51.0	14.8	0.00e+00	0	23	0	128974848	65	4199
2026-01-10 12:18:28.58	241.17	11.87	-49.5	-50.9	14.9	0.00e+00	0	23	0	131072000	65	4146
2026-01-10 12:18:29.58	241.32	11.93	-49.6	-51.0	14.8	0.00e+00	0	24	0	134217728	65	4214
2026-01-10 12:18:30.58	241.47	11.99	-49.6	-51.0	14.8	0.00e+00	0	24	0	137363456	65	4240
2026-01-10 12:18:31.58	241.62	12.05	-49.6	-51.0	14.8	0.00e+00	0	24	0	140509184	65	4223
2026-01-10 12:18:32.59	241.78	12.10	-49.5	-50.9	14.9	0.00e+00	0	24	0	143654912	65	4166
2026-01-10 12:18:33.59	241.93	12.16	-49.4	-50.8	14.9	0.00e+00	0	23	0	146800640	65	4112
2026-01-10 12:18:34.59	242.09	12.22	-49.5	-50.8	14.9	0.00e+00	0	24	0	149946368	65	4142
2026-01-10 12:18:35.59	242.24	12.27	-49.5	-50.9	14.9	0.00e+00	0	24	0	153092096	65	4147
2026-01-10 12:18:36.60	242.40	12.33	-49.6	-51.0	14.8	0.00e+00	0	24	0	156237824	65	4199
2026-01-10 12:18:37.59	242.56	12.39	-49.5	-51.0	14.9	0.00e+00	0	23	0	159383552	65	4194
2026-01-10 12:18:38.59	242.71	12.44	-49.4	-50.8	14.9	0.00e+00	0	23	0	162529280	65	4120
2026-01-10 12:18:39.58	242.87	12.50	-49.4	-50.8	15.0	0.00e+00	0	24	0	165675008	65	4108
2026-01-10 12:18:40.59	243.03	12.56	-49.3	-50.7	15.0	0.00e+00	0	24	0	168820736	65	4072
2026-01-10 12:18:41.59	243.19	12.61	-49.3	-50.6	15.0	0.00e+00	0	24	0	171966464	65	4049
2026-01-10 12:18:42.60	243.35	12.67	-49.3	-50.7	15.0	0.00e+00	0	23	0	175112192	65	4072
2026-01-10 12:18:43.61	243.51	12.73	-49.3	-50.7	15.0	0.00e+00	0	24	0	178257920	65	4056
2026-01-10 12:18:44.61	243.67	12.78	-49.3	-50.6	15.0	0.00e+00	0	23	0	181403648	65	4044
2026-01-10 12:18:45.61	243.83	12.84	-49.1	-50.4	15.0	0.00e+00	0	24	0	184549376	64	4161
2026-01-10 12:18:46.61	244.00	12.90	-49.2	-50.5	14.9	0.00e+00	0	24	0	187695104	64	4217
2026-01-10 12:18:47.62	244.16	12.95	-49.4	-50.7	14.8	0.00e+00	0	23	0	190840832	64	4333
2026-01-10 12:18:48.62	244.32	13.01	-49.3	-50.6	14.9	0.00e+00	0	23	0	193986560	64	4275
2026-01-10 12:18:49.61	244.49	13.06	-49.4	-50.8	14.8	0.00e+00	0	24	0	197132288	64	4342
2026-01-10 12:18:50.61	244.65	13.12	-49.4	-50.8	14.8	0.00e+00	0	24	0	200278016	64	4352
2026-01-10 12:18:51.61	244.82	13.17	-49.4	-50.8	14.8	0.00e+00	0	23	0	203423744	64	4347
2026-01-10 12:18:52.61	244.98	13.23	-49.4	-50.8	14.8	0.00e+00	0	24	0	206569472	64	4384
2026-01-10 12:18:53.62	245.15	13.29	-49.5	-50.9	14.7	0.00e+00	0	24	0	209715200	64	4399
2026-01-10 12:18:54.62	245.32	13.34	-49.3	-50.7	14.9	0.00e+00	0	24	0	212860928	64	4308
2026-01-10 12:18:55.62	245.48	13.40	-49.3	-50.7	14.8	0.00e+00	0	23	0	216006656	64	4310
2026-01-10 12:18:56.62	245.65	13.45	-49.3	-50.7	14.8	0.00e+00	0	24	0	219152384	64	4315
2026-01-10 12:18:57.62	245.82	13.51	-49.2	-50.6	14.9	0.00e+00	0	23	0	222298112	64	4274
2026-01-10 12:18:58.62	245.99	13.56	-49.2	-50.6	14.9	0.00e+00	0	24	0	225443840	64	4274
2026-01-10 12:18:59.61	246.16	13.62	-49.3	-50.6	14.9	0.00e+00	0	23	0	228589568	64	4285
2026-01-10 12:19:00.61	246.33	13.67	-49.3	-50.6	14.9	0.00e+00	0	24	0	231735296	64	4289
2026-01-10 12:19:01.62	246.50	13.73	-49.2	-50.5	14.9	0.00e+00	0	24	0	234881024	64	4229
2026-01-10 12:19:02.62	246.67	13.78	-49.2	-50.5	14.9	0.00e+00	0	24	0	238026752	64	4228
2026-01-10 12:19:03.62	246.84	13.84	-49.1	-50.5	15.0	0.00e+00	0	24	0	241172480	64	4209
2026-01-10 12:19:04.62	247.02	13.89	-49.1	-50.4	15.0	0.00e+00	0	24	0	244318208	64	4190
2026-01-10 12:19:05.62	247.19	13.94	-49.1	-50.4	15.0	0.00e+00	0	24	0	247463936	64	4163
2026-01-10 12:19:06.62	247.37	14.00	-49.1	-50.4	15.0	0.00e+00	0	24	0	250609664	64	4180
2026-01-10 12:19:07.62	247.54	14.05	-49.1	-50.4	15.0	0.00e+00	0	23	0	253755392	64	4179
2026-01-10 12:19:08.63	247.72	14.11	-49.0	-50.3	15.0	0.00e+00	0	24	0	256901120	64	4120
2026-01-10 12:19:09.62	247.89	14.16	-49.0	-50.3	15.1	0.00e+00	0	24	0	260046848	64	4112
2026-01-10 12:19:10.61	248.07	14.21	-49.1	-50.5	15.0	0.00e+00	0	24	0	263192576	64	4213
2026-01-10 12:19:11.61	248.24	14.27	-49.1	-50.5	15.0	0.00e+00	0	23	0	266338304	64	4216
2026-01-10 12:19:12.60	248.42	14.32	-49.2	-50.5	14.9	0.00e+00	0	24	0	269484032	64	4233
2026-01-10 12:19:13.60	248.60	14.37	-49.2	-50.5	14.9	0.00e+00	0	24	0	272629760	64	4232
2026-01-10 12:19:14.60	248.78	14.42	-49.2	-50.6	14.9	0.00e+00	0	24	0	275775488	64	4275
2026-01-10 12:19:15.60	248.96	14.48	-49.2	-50.6	14.9	0.00e+00	0	24	0	278921216	64	4249
2026-01-10 12:19:16.59	249.13	14.53	-49.2	-50.6	14.9	0.00e+00	0	23	0	282066944	64	4259
2026-01-10 12:19:17.58	249.31	14.58	-49.2	-50.6	14.9	0.00e+00	0	24	0	285212672	64	4269
2026-01-10 12:19:18.58	249.50	14.63	-49.3	-50.7	14.8	0.00e+00	0	24	0	287309824	64	4326
2026-01-10 12:19:19.58	249.68	14.69	-49.3	-50.7	14.9	0.00e+00	0	23	0	290455552	64	4292
2026-01-10 12:19:20.57	249.86	14.74	-49.3	-50.7	14.9	0.00e+00	0	24	0	293601280	64	4311
2026-01-10 12:19:21.57	250.04	14.79	-49.2	-50.6	14.9	0.00e+00	0	24	0	296747008	64	4245
2026-01-10 12:19:22.55	250.22	14.84	-49.2	-50.5	15.0	0.00e+00	0	24	0	299892736	64	4242
2026-01-10 12:19:23.55	250.41	14.89	-49.2	-50.6	14.9	0.00e+00	0	24	0	303038464	64	4244
2026-01-10 12:19:24.54	250.59	14.94	-49.1	-50.4	15.0	0.00e+00	0	23	0	306184192	64	4182
2026-01-10 12:19:25.54	250.78	15.00	-49.1	-50.4	15.0	0.00e+00	0	24	0	309329920	64	4188
2026-01-10 12:19:26.53	250.96	15.05	-49.1	-50.4	15.0	0.00e+00	0	23	0	312475648	64	4185
2026-01-10 12:19:27.53	251.15	15.10	-49.1	-50.4	15.0	0.00e+00	0	23	0	315621376	64	4185
2026-01-10 12:19:28.52	251.33	15.15	-48.9	-50.3	15.0	0.00e+00	0	23	0	318767104	64	4099
2026-01-10 12:19:29.51	251.52	15.20	-49.0	-50.4	15.0	0.00e+00	0	24	0	321912832	64	4150
2026-01-10 12:19:30.51	251.71	15.25	-49.1	-50.5	15.0	0.00e+00	0	23	0	325058560	64	4201
2026-01-10 12:19:31.50	251.90	15.30	-49.1	-50.4	15.0	0.00e+00	0	24	0	328204288	64	4185
2026-01-10 12:19:32.49	252.08	15.35	-49.2	-50.6	14.9	0.00e+00	0	23	0	331350016	64	4265
2026-01-10 12:19:33.48	252.27	15.40	-49.3	-50.6	14.9	0.00e+00	0	23	0	334495744	64	4283
2026-01-10 12:19:34.47	252.46	15.45	-49.3	-50.7	14.9	0.00e+00	0	23	0	337641472	64	4337
2026-01-10 12:19:35.46	252.65	15.49	-49.5	-50.9	14.8	0.00e+00	0	24	0	340787200	64	4422
2026-01-10 12:19:36.45	252.84	15.54	-49.3	-50.7	14.9	0.00e+00	0	23	0	343932928	64	4317
2026-01-10 12:19:37.45	253.04	15.59	-49.2	-50.6	14.9	0.00e+00	0	23	0	347078656	64	4276
2026-01-10 12:19:38.45	253.23	15.64	-49.1	-50.4	15.0	0.00e+00	0	24	0	350224384	64	4185
2026-01-10 12:19:39.43	253.42	15.69	-49.0	-50.3	15.0	0.00e+00	0	23	0	353370112	64	4136
2026-01-10 12:19:40.43	253.61	15.74	-49.0	-50.3	15.0	0.00e+00	0	23	0	356515840	64	4128
2026-01-10 12:19:41.42	253.81	15.78	-48.9	-50.2	15.1	0.00e+00	0	23	0	359661568	64	4079
2026-01-10 12:19:42.41	254.00	15.83	-48.9	-50.2	15.2	0.00e+00	0	23	0	361758720	64	4053
2026-01-10 12:19:43.41	254.20	15.88	-49.0	-50.3	15.1	0.00e+00	0	23	0	364904448	64	4105
2026-01-10 12:19:44.40	254.39	15.93	-48.9	-50.2	15.1	0.00e+00	0	24	0	368050176	64	4052
2026-01-10 12:19:45.40	254.59	15.97	-48.9	-50.2	15.1	0.00e+00	0	23	0	371195904	64	4081
2026-01-10 12:19:46.39	254.79	16.02	-49.0	-50.4	15.0	0.00e+00	0	24	0	374341632	64	4149
2026-01-10 12:19:47.38	254.99	16.07	-48.9	-50.3	15.1	0.00e+00	0	24	0	377487360	64	4108
2026-01-10 12:19:48.39	255.19	16.11	-49.0	-50.3	15.0	0.00e+00	0	24	0	380633088	64	4144
2026-01-10 12:19:49.38	255.39	16.16	-49.1	-50.4	15.0	0.00e+00	0	24	0	383778816	64	4172
2026-01-10 12:19:50.38	255.59	16.21	-49.1	-50.5	15.0	0.00e+00	0	24	0	386924544	64	4200
2026-01-10 12:19:51.37	255.79	16.25	-49.0	-50.3	15.1	0.00e+00	0	23	0	390070272	64	4134
2026-01-10 12:19:52.36	255.99	16.30	-48.9	-50.3	15.1	0.00e+00	0	23	0	393216000	64	4105
2026-01-10 12:19:53.36	256.19	16.34	-48.9	-50.2	15.1	0.00e+00	0	23	0	396361728	64	4062
2026-01-10 12:19:54.35	256.39	16.39	-48.8	-50.0	15.2	0.00e+00	0	24	0	399507456	64	4000
2026-01-10 12:19:55.35	256.59	16.43	-48.8	-50.0	15.2	0.00e+00	0	23	0	402653184	64	4001
2026-01-10 12:19:56.36	256.80	16.48	-48.7	-50.0	15.1	0.00e+00	0	23	0	405798912	63	4210
2026-01-10 12:19:57.35	257.00	16.52	-48.6	-49.9	15.1	0.00e+00	0	23	0	408944640	63	4181
2026-01-10 12:19:58.35	257.21	16.57	-48.6	-49.9	15.1	0.00e+00	0	23	0	412090368	63	4165
2026-01-10 12:19:59.34	257.41	16.61	-48.7	-50.0	15.1	0.00e+00	0	23	0	415236096	63	4196
2026-01-10 12:20:00.34	257.62	16.65	-48.8	-50.0	15.1	0.00e+00	0	23	0	418381824	63	4240
2026-01-10 12:20:01.34	257.83	16.70	-48.8	-50.1	15.0	0.00e+00	0	23	0	421527552	63	4276
2026-01-10 12:20:02.33	258.03	16.74	-48.9	-50.2	15.0	0.00e+00	0	23	0	424673280	63	4338
2026-01-10 12:20:03.34	258.25	16.78	-48.8	-50.2	15.0	0.00e+00	0	23	0	427819008	63	4293
2026-01-10 12:20:04.34	258.45	16.82	-48.9	-50.2	15.0	0.00e+00	0	23	0	430964736	63	4328
2026-01-10 12:20:05.33	258.66	16.87	-48.9	-50.2	15.0	0.00e+00	0	23	0	434110464	63	4328
2026-01-10 12:20:06.34	258.87	16.91	-48.8	-50.1	15.0	0.00e+00	0	23	0	437256192	63	4283
2026-01-10 12:20:07.34	259.09	16.95	-48.7	-50.0	15.0	0.00e+00	0	23	0	440401920	63	4239
2026-01-10 12:20:08.32	259.29	16.99	-48.6	-49.9	15.1	0.00e+00	0	24	0	443547648	63	4170
2026-01-10 12:20:09.32	259.50	17.03	-48.7	-49.9	15.1	0.00e+00	0	23	0	446693376	63	4190
2026-01-10 12:20:10.31	259.71	17.07	-48.6	-49.9	15.1	0.00e+00	0	23	0	449839104	63	4174
2026-01-10 12:20:11.31	259.93	17.11	-48.7	-50.0	15.1	0.00e+00	0	23	0	452984832	63	4211
2026-01-10 12:20:12.30	260.14	17.15	-48.7	-49.9	15.1	0.00e+00	0	24	0	456130560	63	4190
2026-01-10 12:20:13.30	260.35	17.19	-48.7	-50.0	15.1	0.00e+00	0	23	0	459276288	63	4206
2026-01-10 12:20:14.29	260.57	17.23	-48.7	-49.9	15.1	0.00e+00	0	23	0	461373440	63	4190
2026-01-10 12:20:15.30	260.78	17.27	-48.6	-49.9	15.1	0.00e+00	0	24	0	464519168	63	4155
2026-01-10 12:20:16.28	260.99	17.31	-48.7	-49.9	15.1	0.00e+00	0	23	0	467664896	63	4188
2026-01-10 12:20:17.27	261.21	17.35	-48.6	-49.9	15.1	0.00e+00	0	23	0	470810624	63	4169
2026-01-10 12:20:18.26	261.42	17.38	-48.6	-49.9	15.1	0.00e+00	0	23	0	473956352	63	4163
2026-01-10 12:20:19.26	261.64	17.42	-48.6	-49.8	15.1	0.00e+00	0	23	0	477102080	63	4136
2026-01-10 12:20:20.26	261.86	17.46	-48.6	-49.8	15.1	0.00e+00	0	24	0	480247808	63	4142
2026-01-10 12:20:21.26	262.08	17.50	-48.5	-49.8	15.2	0.00e+00	0	23	0	483393536	63	4109
2026-01-10 12:20:22.26	262.30	17.53	-48.5	-49.8	15.2	0.00e+00	0	23	0	486539264	63	4114
2026-01-10 12:20:23.27	262.52	17.57	-48.5	-49.7	15.2	0.00e+00	0	24	0	489684992	63	4089
2026-01-10 12:20:24.26	262.73	17.60	-48.4	-49.7	15.2	0.00e+00	0	24	0	492830720	63	4061
2026-01-10 12:20:25.26	262.96	17.64	-48.4	-49.7	15.2	0.00e+00	0	23	0	495976448	63	4067
2026-01-10 12:20:26.26	263.18	17.68	-48.5	-49.7	15.2	0.00e+00	0	24	0	499122176	63	4095
2026-01-10 12:20:27.25	263.40	17.71	-48.4	-49.6	15.2	0.00e+00	0	23	0	502267904	63	4038
2026-01-10 12:20:28.24	263.62	17.74	-48.4	-49.7	15.2	0.00e+00	0	24	0	505413632	63	4061
2026-01-10 12:20:29.24	263.84	17.78	-48.5	-49.8	15.2	0.00e+00	0	23	0	508559360	63	4116
2026-01-10 12:20:30.23	264.06	17.81	-48.3	-49.6	15.3	0.00e+00	0	24	0	511705088	63	4016
2026-01-10 12:20:31.23	264.28	17.85	-48.4	-49.7	15.2	0.00e+00	0	24	0	514850816	63	4069
2026-01-10 12:20:32.22	264.50	17.88	-48.3	-49.6	15.3	0.00e+00	0	24	0	517996544	63	4020
2026-01-10 12:20:33.20	264.72	17.91	-48.4	-49.6	15.3	0.00e+00	0	24	0	521142272	63	4030
2026-01-10 12:20:34.20	264.95	17.94	-48.4	-49.6	15.3	0.00e+00	0	24	0	524288000	63	4028
2026-01-10 12:20:35.19	265.17	17.97	-48.3	-49.6	15.2	0.00e+00	0	24	0	527433728	63	4016
2026-01-10 12:20:36.18	265.39	18.01	-48.4	-49.6	15.2	0.00e+00	0	24	0	530579456	63	4051
2026-01-10 12:20:37.17	265.62	18.04	-48.5	-49.7	15.2	0.00e+00	0	24	0	533725184	63	4084
2026-01-10 12:20:38.16	265.84	18.07	-48.4	-49.6	15.3	0.00e+00	0	24	0	536870912	63	4027
2026-01-10 12:20:39.16	266.07	18.10	-48.2	-49.4	15.2	0.00e+00	0	24	0	540016640	62	4165
2026-01-10 12:20:40.15	266.29	18.13	-48.2	-49.4	15.2	0.00e+00	0	23	0	543162368	62	4170
2026-01-10 12:20:41.15	266.52	18.16	-48.3	-49.5	15.2	0.00e+00	0	23	0	546308096	62	4210
2026-01-10 12:20:42.14	266.75	18.19	-48.2	-49.5	15.2	0.00e+00	0	23	0	548405248	62	4196
2026-01-10 12:20:43.14	266.98	18.22	-48.2	-49.5	15.2	0.00e+00	0	24	0	551550976	62	4195
2026-01-10 12:20:44.15	267.21	18.24	-48.2	-49.4	15.2	0.00e+00	0	23	0	554696704	62	4187
2026-01-10 12:20:45.15	267.44	18.27	-48.2	-49.4	15.2	0.00e+00	0	24	0	557842432	62	4163
2026-01-10 12:20:46.15	267.67	18.30	-48.2	-49.4	15.2	0.00e+00	0	23	0	560988160	62	4158
2026-01-10 12:20:47.16	267.90	18.33	-48.1	-49.4	15.2	0.00e+00	0	23	0	564133888	62	4146
2026-01-10 12:20:48.16	268.13	18.35	-48.0	-49.3	15.3	0.00e+00	0	23	0	567279616	62	4099
2026-01-10 12:20:49.16	268.36	18.38	-48.0	-49.1	15.3	0.00e+00	0	24	0	570425344	62	4048
2026-01-10 12:20:50.17	268.60	18.41	-48.1	-49.3	15.3	0.00e+00	0	24	0	573571072	62	4099
2026-01-10 12:20:51.17	268.83	18.43	-48.2	-49.4	15.2	0.00e+00	0	23	0	576716800	62	4170
2026-01-10 12:20:52.17	269.06	18.46	-48.3	-49.5	15.2	0.00e+00	0	23	0	579862528	62	4220
2026-01-10 12:20:53.18	269.29	18.48	-48.3	-49.5	15.2	0.00e+00	0	24	0	583008256	62	4225
2026-01-10 12:20:54.18	269.53	18.51	-48.3	-49.5	15.1	0.00e+00	0	24	0	586153984	62	4230
2026-01-10 12:20:55.18	269.76	18.53	-48.2	-49.4	15.2	0.00e+00	0	23	0	589299712	62	4164
2026-01-10 12:20:56.18	269.99	18.55	-48.1	-49.3	15.2	0.00e+00	0	24	0	592445440	62	4140
2026-01-10 12:20:57.18	270.23	18.58	-48.1	-49.3	15.3	0.00e+00	0	24	0	595591168	62	4110
2026-01-10 12:20:58.18	270.46	18.60	-48.0	-49.2	15.3	0.00e+00	0	24	0	598736896	62	4088
2026-01-10 12:20:59.19	270.70	18.62	-48.1	-49.4	15.2	0.00e+00	0	23	0	601882624	62	4151
2026-01-10 12:21:00.19	270.94	18.64	-48.2	-49.5	15.2	0.00e+00	0	24	0	605028352	62	4200
2026-01-10 12:21:01.20	271.17	18.66	-48.3	-49.5	15.2	0.00e+00	0	23	0	608174080	62	4224
2026-01-10 12:21:02.20	271.41	18.68	-48.3	-49.6	15.1	0.00e+00	0	24	0	611319808	62	4247
2026-01-10 12:21:03.20	271.64	18.70	-48.2	-49.5	15.2	0.00e+00	0	23	0	614465536	62	4205
2026-01-10 12:21:04.21	271.88	18.72	-48.2	-49.4	15.2	0.00e+00	0	24	0	617611264	62	4188
2026-01-10 12:21:05.20	272.12	18.74	-48.2	-49.5	15.2	0.00e+00	0	24	0	620756992	62	4204
2026-01-10 12:21:06.20	272.35	18.76	-48.3	-49.5	15.1	0.00e+00	0	24	0	623902720	62	4235
2026-01-10 12:21:07.21	272.59	18.78	-48.2	-49.4	15.2	0.00e+00	0	24	0	627048448	62	4159
2026-01-10 12:21:08.21	272.83	18.80	-48.2	-49.5	15.2	0.00e+00	0	24	0	630194176	62	4205
2026-01-10 12:21:09.22	273.07	18.82	-48.3	-49.5	15.1	0.00e+00	0	23	0	633339904	62	4203
2026-01-10 12:21:10.22	273.31	18.83	-48.3	-49.5	15.1	0.00e+00	0	24	0	636485632	62	4238
2026-01-10 12:21:11.22	273.55	18.85	-48.5	-49.7	15.1	0.00e+00	0	23	0	639631360	62	4337
2026-01-10 12:21:12.23	273.79	18.87	-48.4	-49.7	15.1	0.00e+00	0	23	0	642777088	62	4303
2026-01-10 12:21:13.23	274.03	18.88	-48.4	-49.7	15.1	0.00e+00	0	24	0	645922816	62	4306
2026-01-10 12:21:14.23	274.27	18.90	-48.5	-49.7	15.1	0.00e+00	0	24	0	649068544	62	4330
2026-01-10 12:21:15.23	274.50	18.91	-48.4	-49.7	15.1	0.00e+00	0	24	0	652214272	62	4299
2026-01-10 12:21:16.23	274.74	18.93	-48.4	-49.6	15.1	0.00e+00	0	24	0	655360000	62	4284
2026-01-10 12:21:17.24	274.99	18.94	-48.5	-49.7	15.0	0.00e+00	0	24	0	658505728	62	4325
2026-01-10 12:21:18.24	275.23	18.95	-48.6	-49.8	15.0	0.00e+00	0	24	0	661651456	62	4372
2026-01-10 12:21:19.24	275.47	18.96	-48.6	-49.8	15.0	0.00e+00	0	24	0	664797184	62	4391
2026-01-10 12:21:20.25	275.71	18.98	-48.7	-50.0	15.0	0.00e+00	0	24	0	667942912	62	4447
2026-01-10 12:21:21.25	275.95	18.99	-48.6	-49.9	15.0	0.00e+00	0	24	0	671088640	62	4399
2026-01-10 12:21:22.25	276.19	19.00	-48.6	-49.9	15.0	0.00e+00	0	24	0	674234368	62	4411
2026-01-10 12:21:23.26	276.43	19.01	-48.7	-49.9	15.0	0.00e+00	0	24	0	677380096	62	4428
2026-01-10 12:21:24.25	276.67	19.02	-48.5	-49.8	15.0	0.00e+00	0	23	0	680525824	62	4370
2026-01-10 12:21:25.25	276.91	19.03	-48.5	-49.8	15.0	0.00e+00	0	24	0	683671552	62	4362
2026-01-10 12:21:26.26	277.15	19.04	-48.5	-49.8	15.0	0.00e+00	0	24	0	686817280	62	4364
2026-01-10 12:21:27.27	277.40	19.05	-48.5	-49.8	15.0	0.00e+00	0	24	0	689963008	62	4375
2026-01-10 12:21:28.26	277.64	19.06	-48.5	-49.8	15.1	0.00e+00	0	23	0	693108736	62	4350
2026-01-10 12:21:29.27	277.88	19.06	-48.6	-49.8	15.0	0.00e+00	0	23	0	696254464	62	4390
2026-01-10 12:21:30.28	278.12	19.07	-48.6	-49.8	15.0	0.00e+00	0	23	0	699400192	62	4374
2026-01-10 12:21:31.29	278.37	19.08	-48.7	-49.9	15.0	0.00e+00	0	24	0	702545920	62	4437
2026-01-10 12:21:32.29	278.61	19.09	-48.7	-50.0	15.0	0.00e+00	0	23	0	705691648	62	4446
2026-01-10 12:21:33.29	278.85	19.09	-48.5	-49.8	15.1	0.00e+00	0	24	0	708837376	62	4368
2026-01-10 12:21:34.30	279.10	19.10	-48.6	-49.9	15.0	0.00e+00	0	23	0	711983104	62	4406
2026-01-10 12:21:35.30	279.34	19.10	-48.7	-50.0	15.0	0.00e+00	0	24	0	715128832	62	4465
2026-01-10 12:21:36.30	279.58	19.11	-48.7	-50.0	15.0	0.00e+00	0	24	0	718274560	62	4471
2026-01-10 12:21:37.31	279.83	19.11	-48.6	-49.9	15.0	0.00e+00	0	24	0	721420288	62	4419
2026-01-10 12:21:38.30	280.06	19.11	-48.6	-49.8	15.0	0.00e+00	0	23	0	724566016	62	4383
2026-01-10 12:21:39.30	280.31	19.12	-48.5	-49.8	15.1	0.00e+00	0	23	0	727711744	62	4355
2026-01-10 12:21:40.31	280.55	19.12	-48.5	-49.7	15.1	0.00e+00	0	24	0	730857472	62	4336
2026-01-10 12:21:41.30	280.79	19.12	-48.6	-49.8	15.0	0.00e+00	0	24	0	734003200	62	4384
2026-01-10 12:21:42.30	281.03	19.12	-48.5	-49.8	15.0	0.00e+00	0	24	0	737148928	62	4371
2026-01-10 12:21:43.30	281.28	19.12	-48.7	-49.9	15.0	0.00e+00	0	24	0	740294656	62	4434
2026-01-10 12:21:44.30	281.52	19.12	-48.7	-49.9	15.0	0.00e+00	0	23	0	743440384	62	4439
2026-01-10 12:21:45.31	281.76	19.12	-48.5	-49.7	15.1	0.00e+00	0	23	0	746586112	62	4320
2026-01-10 12:21:46.30	282.00	19.12	-48.5	-49.7	15.1	0.00e+00	0	23	0	749731840	62	4313
2026-01-10 12:21:47.30	282.25	19.12	-48.4	-49.6	15.1	0.00e+00	0	23	0	752877568	62	4291
2026-01-10 12:21:48.31	282.49	19.12	-48.4	-49.6	15.1	0.00e+00	0	23	0	756023296	62	4277
2026-01-10 12:21:49.31	282.73	19.12	-48.4	-49.7	15.1	0.00e+00	0	23	0	759169024	62	4311
2026-01-10 12:21:50.31	282.97	19.11	-48.5	-49.8	15.0	0.00e+00	0	23	0	762314752	62	4345
2026-01-10 12:21:51.31	283.22	19.11	-48.4	-49.6	15.1	0.00e+00	0	23	0	765460480	62	4277
2026-01-10 12:21:52.31	283.46	19.11	-48.5	-49.7	15.1	0.00e+00	0	24	0	768606208	62	4331
2026-01-10 12:21:53.30	283.70	19.10	-48.5	-49.7	15.1	0.00e+00	0	24	0	771751936	62	4337
2026-01-10 12:21:54.31	283.94	19.10	-48.5	-49.7	15.1	0.00e+00	0	23	0	774897664	62	4317
2026-01-10 12:21:55.32	284.19	19.09	-48.6	-49.9	15.0	0.00e+00	0	23	0	778043392	62	4401
2026-01-10 12:21:56.31	284.43	19.09	-48.5	-49.8	15.0	0.00e+00	0	24	0	780140544	62	4359
2026-01-10 12:21:57.31	284.67	19.08	-48.6	-49.9	15.0	0.00e+00	0	24	0	783286272	62	4435
2026-01-10 12:21:58.32	284.91	19.07	-48.6	-49.9	15.0	0.00e+00	0	24	0	787480576	62	4435
2026-01-10 12:21:59.31	285.15	19.07	-48.6	-49.9	15.0	0.00e+00	0	24	0	790626304	62	4407
2026-01-10 12:22:00.32	285.39	19.06	-48.6	-49.8	15.0	0.00e+00	0	24	0	793772032	62	4386
2026-01-10 12:22:01.32	285.64	19.05	-48.6	-49.8	15.0	0.00e+00	0	24	0	796917760	62	4379
2026-01-10 12:22:02.32	285.88	19.04	-48.5	-49.7	15.1	0.00e+00	0	24	0	800063488	62	4320
2026-01-10 12:22:03.32	286.12	19.03	-48.6	-49.8	15.0	0.00e+00	0	24	0	802160640	62	4376
2026-01-10 12:22:04.33	286.36	19.02	-48.6	-49.9	15.0	0.00e+00	0	24	0	805306368	62	4413
2026-01-10 12:22:05.33	286.60	19.01	-48.6	-49.9	15.0	0.00e+00	0	24	0	808452096	62	4408
2026-01-10 12:22:06.33	286.84	19.00	-48.7	-50.0	15.0	0.00e+00	0	24	0	811597824	62	4463
2026-01-10 12:22:07.33	287.08	18.99	-48.7	-50.0	15.0	0.00e+00	0	23	0	814743552	62	4478
2026-01-10 12:22:08.32	287.32	18.98	-48.6	-49.9	15.0	0.00e+00	0	24	0	817889280	62	4402
2026-01-10 12:22:09.32	287.56	18.97	-48.5	-49.8	15.1	0.00e+00	0	24	0	821035008	62	4354
2026-01-10 12:22:10.32	287.80	18.95	-48.4	-49.6	15.1	0.00e+00	0	23	0	824180736	62	4275
2026-01-10 12:22:11.31	288.04	18.94	-48.5	-49.7	15.1	0.00e+00	0	24	0	827326464	62	4320
2026-01-10 12:22:12.31	288.28	18.93	-48.5	-49.8	15.1	0.00e+00	0	23	0	830472192	62	4355
2026-01-10 12:22:13.31	288.51	18.91	-48.5	-49.7	15.1	0.00e+00	0	23	0	833617920	62	4331
2026-01-10 12:22:14.31	288.75	18.90	-48.6	-49.9	15.0	0.00e+00	0	24	0	836763648	62	4406
2026-01-10 12:22:15.30	288.99	18.88	-48.5	-49.8	15.1	0.00e+00	0	23	0	839909376	62	4349
2026-01-10 12:22:16.30	289.23	18.87	-48.5	-49.8	15.1	0.00e+00	0	24	0	843055104	62	4353
2026-01-10 12:22:17.31	289.47	18.85	-48.6	-49.8	15.0	0.00e+00	0	24	0	846200832	62	4374
2026-01-10 12:22:18.30	289.70	18.84	-48.6	-49.8	15.0	0.00e+00	0	24	0	849346560	62	4388
2026-01-10 12:22:19.30	289.94	18.82	-48.5	-49.8	15.1	0.00e+00	0	23	0	852492288	62	4348
2026-01-10 12:22:20.30	290.18	18.80	-48.7	-50.0	15.0	0.00e+00	0	23	0	855638016	62	4456
2026-01-10 12:22:21.31	290.42	18.78	-48.7	-50.0	15.0	0.00e+00	0	24	0	858783744	62	4484
2026-01-10 12:22:22.31	290.66	18.77	-48.9	-50.2	14.9	0.00e+00	0	23	0	861929472	62	4548
2026-01-10 12:22:23.31	290.89	18.75	-48.6	-49.9	15.0	0.00e+00	0	24	0	865075200	62	4430
2026-01-10 12:22:24.31	291.13	18.73	-48.6	-49.8	15.0	0.00e+00	0	24	0	868220928	62	4384
2026-01-10 12:22:25.31	291.36	18.71	-48.4	-49.7	15.1	0.00e+00	0	24	0	871366656	62	4300
2026-01-10 12:22:26.30	291.60	18.69	-48.4	-49.6	15.1	0.00e+00	0	24	0	874512384	62	4278
2026-01-10 12:22:27.30	291.83	18.67	-48.4	-49.7	15.1	0.00e+00	0	23	0	877658112	62	4297
2026-01-10 12:22:28.31	292.07	18.65	-48.3	-49.5	15.1	0.00e+00	0	23	0	880803840	62	4239
2026-01-10 12:22:29.31	292.30	18.63	-48.2	-49.4	15.2	0.00e+00	0	23	0	883949568	62	4166
2026-01-10 12:22:30.31	292.54	18.60	-48.2	-49.4	15.2	0.00e+00	0	24	0	887095296	62	4154
2026-01-10 12:22:31.31	292.77	18.58	-48.1	-49.3	15.3	0.00e+00	0	24	0	890241024	62	4129
2026-01-10 12:22:32.32	293.01	18.56	-48.1	-49.3	15.3	0.00e+00	0	24	0	893386752	62	4104
2026-01-10 12:22:33.32	293.24	18.54	-48.0	-49.2	15.3	0.00e+00	0	24	0	896532480	62	4094
2026-01-10 12:22:34.32	293.48	18.51	-48.1	-49.3	15.2	0.00e+00	0	23	0	899678208	62	4140
2026-01-10 12:22:35.32	293.71	18.49	-48.1	-49.3	15.2	0.00e+00	0	24	0	902823936	62	4131
2026-01-10 12:22:36.32	293.94	18.46	-48.2	-49.4	15.2	0.00e+00	0	24	0	905969664	62	4168
2026-01-10 12:22:37.32	294.17	18.44	-48.2	-49.4	15.2	0.00e+00	0	24	0	909115392	62	4183
2026-01-10 12:22:38.31	294.40	18.41	-48.2	-49.4	15.2	0.00e+00	0	24	0	912261120	62	4177
2026-01-10 12:22:39.30	294.63	18.39	-48.2	-49.4	15.2	0.00e+00	0	24	0	915406848	62	4171
2026-01-10 12:22:40.31	294.86	18.36	-48.1	-49.3	15.3	0.00e+00	0	24	0	918552576	62	4110
2026-01-10 12:22:41.30	295.09	18.34	-48.2	-49.4	15.2	0.00e+00	0	23	0	921698304	62	4159
2026-01-10 12:22:42.29	295.32	18.31	-48.3	-49.5	15.2	0.00e+00	0	23	0	924844032	62	4223
2026-01-10 12:22:43.29	295.55	18.28	-48.1	-49.4	15.2	0.00e+00	0	23	0	927989760	62	4146
2026-01-10 12:22:44.30	295.78	18.25	-48.1	-49.3	15.2	0.00e+00	0	23	0	931135488	62	4118
2026-01-10 12:22:45.29	296.01	18.23	-48.2	-49.4	15.2	0.00e+00	0	24	0	934281216	62	4169
2026-01-10 12:22:46.30	296.24	18.20	-48.2	-49.4	15.2	0.00e+00	0	24	0	936378368	62	4180
2026-01-10 12:22:47.30	296.46	18.17	-48.2	-49.4	15.2	0.00e+00	0	23	0	939524096	62	4181
2026-01-10 12:22:48.30	296.69	18.14	-48.2	-49.4	15.2	0.00e+00	0	24	0	942669824	62	4162
2026-01-10 12:22:49.31	296.92	18.11	-48.3	-49.5	15.2	0.00e+00	0	24	0	945815552	62	4203
2026-01-10 12:22:50.30	297.15	18.08	-48.3	-49.6	15.1	0.00e+00	0	24	0	948961280	62	4252
2026-01-10 12:22:51.30	297.37	18.05	-48.3	-49.6	15.1	0.00e+00	0	24	0	952107008	62	4252
2026-01-10 12:22:52.30	297.60	18.02	-48.4	-49.6	15.1	0.00e+00	0	23	0	955252736	62	4276
2026-01-10 12:22:53.30	297.82	17.98	-48.4	-49.6	15.1	0.00e+00	0	24	0	958398464	62	4272
2026-01-10 12:22:54.30	298.05	17.95	-48.5	-49.7	15.1	0.00e+00	0	23	0	961544192	62	4312
2026-01-10 12:22:55.30	298.27	17.92	-48.4	-49.6	15.1	0.00e+00	0	24	0	964689920	62	4263
2026-01-10 12:22:56.31	298.50	17.89	-48.3	-49.5	15.2	0.00e+00	0	23	0	967835648	62	4225
2026-01-10 12:22:57.30	298.72	17.86	-48.2	-49.4	15.2	0.00e+00	0	24	0	970981376	62	4184
2026-01-10 12:22:58.29	298.94	17.82	-48.2	-49.4	15.2	0.00e+00	0	24	0	974127104	62	4174
2026-01-10 12:22:59.29	299.16	17.79	-48.2	-49.4	15.2	0.00e+00	0	23	0	977272832	62	4164
2026-01-10 12:23:00.28	299.38	17.75	-48.2	-49.4	15.2	0.00e+00	0	23	0	980418560	62	4180
2026-01-10 12:23:01.28	299.60	17.72	-48.1	-49.3	15.2	0.00e+00	0	24	0	983564288	62	4143
2026-01-10 12:23:02.28	299.82	17.69	-48.1	-49.4	15.2	0.00e+00	0	24	0	986710016	62	4146
2026-01-10 12:23:03.28	300.04	17.65	-48.1	-49.3	15.3	0.00e+00	0	23	0	989855744	62	4113
2026-01-10 12:23:04.28	300.26	17.62	-48.1	-49.3	15.2	0.00e+00	0	24	0	993001472	62	4124
2026-01-10 12:23:05.27	300.48	17.58	-48.1	-49.3	15.3	0.00e+00	0	24	0	996147200	62	4124
2026-01-10 12:23:06.26	300.70	17.54	-48.2	-49.4	15.2	0.00e+00	0	23	0	999292928	62	4157
2026-01-10 12:23:07.26	300.92	17.51	-48.2	-49.4	15.2	0.00e+00	0	24	0	1002438656	62	4190
2026-01-10 12:23:08.25	301.13	17.47	-48.2	-49.4	15.2	0.00e+00	0	24	0	1005584384	62	4169
2026-01-10 12:23:09.25	301.35	17.43	-48.2	-49.4	15.2	0.00e+00	0	24	0	1008730112	62	4161
2026-01-10 12:23:10.25	301.57	17.40	-48.3	-49.5	15.2	0.00e+00	0	24	0	1011875840	62	4209
2026-01-10 12:23:11.25	301.78	17.36	-48.2	-49.4	15.2	0.00e+00	0	24	0	1015021568	62	4169
2026-01-10 12:23:12.25	302.00	17.32	-48.3	-49.5	15.2	0.00e+00	0	24	0	1018167296	62	4219
2026-01-10 12:23:13.25	302.21	17.28	-48.3	-49.5	15.2	0.00e+00	0	24	0	1021313024	62	4238
2026-01-10 12:23:14.24	302.43	17.24	-48.3	-49.5	15.1	0.00e+00	0	24	0	1024458752	62	4237
2026-01-10 12:23:15.24	302.64	17.20	-48.2	-49.4	15.2	0.00e+00	0	24	0	1027604480	62	4171
2026-01-10 12:23:16.23	302.85	17.17	-48.2	-49.5	15.2	0.00e+00	0	24	0	1030750208	62	4196
2026-01-10 12:23:17.23	303.06	17.13	-48.3	-49.5	15.2	0.00e+00	0	24	0	1033895936	62	4222
2026-01-10 12:23:18.22	303.27	17.09	-48.2	-49.4	15.2	0.00e+00	0	23	0	1037041664	62	4169
2026-01-10 12:23:19.22	303.49	17.05	-48.2	-49.4	15.2	0.00e+00	0	24	0	1040187392	62	4180
2026-01-10 12:23:20.22	303.70	17.00	-48.3	-49.5	15.2	0.00e+00	0	24	0	1043333120	62	4210
2026-01-10 12:23:21.22	303.91	16.96	-48.3	-49.6	15.1	0.00e+00	0	24	0	1046478848	62	4244
2026-01-10 12:23:22.21	304.12	16.92	-48.4	-49.6	15.1	0.00e+00	0	23	0	1048576000	62	4281
2026-01-10 12:23:23.21	304.33	16.88	-48.4	-49.6	15.1	0.00e+00	0	24	0	1051721728	62	4274
2026-01-10 12:23:24.20	304.53	16.84	-48.4	-49.7	15.1	0.00e+00	0	24	0	1054867456	62	4296
2026-01-10 12:23:25.20	304.74	16.80	-48.4	-49.6	15.1	0.00e+00	0	24	0	1058013184	62	4283
2026-01-10 12:23:26.19	304.95	16.76	-48.3	-49.6	15.1	0.00e+00	0	24	0	1061158912	62	4257
2026-01-10 12:23:27.18	305.15	16.71	-48.4	-49.6	15.1	0.00e+00	0	23	0	1064304640	62	4277
2026-01-10 12:23:28.17	305.36	16.67	-48.3	-49.6	15.1	0.00e+00	0	24	0	1067450368	62	4270
2026-01-10 12:23:29.18	305.57	16.63	-48.4	-49.6	15.1	0.00e+00	0	24	0	1070596096	62	4286
2026-01-10 12:23:30.17	305.77	16.58	-48.3	-49.6	15.1	0.00e+00	0	24	0	1073741824	62	4255
2026-01-10 12:23:31.16	305.97	16.54	-48.4	-49.6	15.1	0.00e+00	0	24	0	1076887552	62	4284
2026-01-10 12:23:32.16	306.18	16.50	-48.4	-49.7	15.1	0.00e+00	0	23	0	1080033280	62	4294
2026-01-10 12:23:33.15	306.38	16.45	-48.5	-49.7	15.1	0.00e+00	0	24	0	1083179008	62	4332
2026-01-10 12:23:34.15	306.58	16.41	-48.5	-49.8	15.0	0.00e+00	0	24	0	1086324736	62	4361
2026-01-10 12:23:35.15	306.78	16.36	-48.7	-50.0	15.0	0.00e+00	0	24	0	1089470464	62	4442
2026-01-10 12:23:36.14	306.99	16.32	-48.6	-49.9	15.0	0.00e+00	0	24	0	1092616192	62	4411
2026-01-10 12:23:37.13	307.18	16.27	-48.7	-50.0	15.0	0.00e+00	0	24	0	1095761920	62	4450
2026-01-10 12:23:38.12	307.38	16.23	-48.6	-49.9	15.0	0.00e+00	0	23	0	1098907648	62	4408
2026-01-10 12:23:39.12	307.58	16.18	-48.7	-50.0	15.0	0.00e+00	0	24	0	1102053376	62	4454
2026-01-10 12:23:40.12	307.78	16.14	-48.6	-49.9	15.0	0.00e+00	0	23	0	1105199104	62	4424
2026-01-10 12:23:41.11	307.98	16.09	-48.7	-50.0	15.0	0.00e+00	0	24	0	1108344832	62	4445
2026-01-10 12:23:42.11	308.18	16.04	-48.7	-50.0	15.0	0.00e+00	0	24	0	1111490560	62	4468
2026-01-10 12:23:43.10	308.38	16.00	-48.6	-49.8	15.0	0.00e+00	0	23	0	1114636288	62	4387
2026-01-10 12:23:44.09	308.57	15.95	-48.7	-49.9	15.0	0.00e+00	0	23	0	1117782016	62	4435
2026-01-10 12:23:45.08	308.77	15.91	-48.6	-49.9	15.0	0.00e+00	0	24	0	1120927744	62	4398
2026-01-10 12:23:46.08	308.96	15.86	-48.7	-49.9	15.0	0.00e+00	0	24	0	1124073472	62	4440
2026-01-10 12:23:47.08	309.16	15.81	-48.7	-50.0	15.0	0.00e+00	0	24	0	1127219200	62	4463
2026-01-10 12:23:48.08	309.35	15.76	-48.8	-50.1	14.9	0.00e+00	0	24	0	1130364928	62	4538
2026-01-10 12:23:49.08	309.55	15.71	-48.9	-50.3	15.0	0.00e+00	0	23	0	1133510656	63	4347
2026-01-10 12:23:50.07	309.74	15.67	-49.1	-50.5	14.8	0.00e+00	0	24	0	1136656384	63	4443
2026-01-10 12:23:51.07	309.93	15.62	-49.2	-50.5	14.8	0.00e+00	0	24	0	1139802112	63	4481
2026-01-10 12:23:52.06	310.12	15.57	-49.1	-50.5	14.8	0.00e+00	0	23	0	1141899264	63	4476
2026-01-10 12:23:53.07	310.32	15.52	-49.0	-50.4	14.9	0.00e+00	0	24	0	1146093568	63	4395
2026-01-10 12:23:54.06	310.51	15.47	-49.1	-50.5	14.9	0.00e+00	0	23	0	1148190720	63	4444
2026-01-10 12:23:55.06	310.70	15.42	-48.8	-50.1	15.0	0.00e+00	0	24	0	1151336448	63	4283
2026-01-10 12:23:56.05	310.89	15.37	-48.9	-50.2	15.0	0.00e+00	0	23	0	1154482176	63	4311
2026-01-10 12:23:57.05	311.07	15.32	-48.9	-50.3	14.9	0.00e+00	0	24	0	1157627904	63	4350
2026-01-10 12:23:58.04	311.26	15.27	-48.8	-50.2	15.0	0.00e+00	0	24	0	1160773632	63	4293
2026-01-10 12:23:59.03	311.45	15.22	-48.8	-50.1	15.0	0.00e+00	0	24	0	1163919360	63	4248
2026-01-10 12:24:00.03	311.64	15.17	-48.8	-50.1	15.0	0.00e+00	0	24	0	1167065088	63	4244
2026-01-10 12:24:01.03	311.82	15.12	-48.7	-50.0	15.1	0.00e+00	0	24	0	1170210816	63	4211
2026-01-10 12:24:02.02	312.01	15.07	-48.7	-50.0	15.0	0.00e+00	0	23	0	1173356544	63	4221
2026-01-10 12:24:03.02	312.19	15.02	-48.7	-50.0	15.0	0.00e+00	0	23	0	1176502272	63	4233
2026-01-10 12:24:04.02	312.38	14.97	-48.8	-50.1	15.0	0.00e+00	0	23	0	1179648000	63	4279
2026-01-10 12:24:05.01	312.56	14.92	-48.9	-50.2	15.0	0.00e+00	0	23	0	1182793728	63	4308
2026-01-10 12:24:06.01	312.74	14.87	-48.9	-50.2	14.9	0.00e+00	0	24	0	1185939456	63	4337
2026-01-10 12:24:06.99	312.92	14.82	-49.0	-50.3	14.9	0.00e+00	0	23	0	1189085184	63	4373
2026-01-10 12:24:07.98	313.11	14.77	-49.0	-50.3	14.9	0.00e+00	0	23	0	1192230912	63	4381
2026-01-10 12:24:08.99	313.29	14.72	-49.0	-50.3	14.9	0.00e+00	0	23	0	1195376640	63	4366
2026-01-10 12:24:09.98	313.47	14.67	-49.0	-50.3	14.9	0.00e+00	0	24	0	1198522368	63	4374
2026-01-10 12:24:10.97	313.65	14.61	-49.1	-50.5	14.8	0.00e+00	0	24	0	1201668096	63	4444
2026-01-10 12:24:11.97	313.83	14.56	-49.0	-50.3	14.9	0.00e+00	0	24	0	1204813824	63	4360
2026-01-10 12:24:12.96	314.01	14.51	-48.9	-50.2	14.9	0.00e+00	0	24	0	1207959552	63	4340
2026-01-10 12:24:13.96	314.19	14.46	-48.9	-50.2	14.9	0.00e+00	0	23	0	1211105280	63	4311
2026-01-10 12:24:14.96	314.36	14.41	-48.9	-50.3	14.9	0.00e+00	0	23	0	1214251008	63	4349
2026-01-10 12:24:15.95	314.54	14.35	-48.9	-50.3	14.9	0.00e+00	0	23	0	1217396736	63	4359
2026-01-10 12:24:16.95	314.72	14.30	-49.0	-50.3	14.9	0.00e+00	0	23	0	1220542464	63	4386
2026-01-10 12:24:17.95	314.89	14.25	-49.0	-50.3	14.9	0.00e+00	0	24	0	1223688192	63	4380
2026-01-10 12:24:18.94	315.07	14.19	-48.9	-50.3	14.9	0.00e+00	0	24	0	1226833920	63	4344
2026-01-10 12:24:19.94	315.24	14.14	-48.9	-50.3	14.9	0.00e+00	0	23	0	1229979648	63	4351
2026-01-10 12:24:20.94	315.42	14.09	-49.0	-50.4	14.9	0.00e+00	0	23	0	1233125376	63	4399
2026-01-10 12:24:21.93	315.59	14.03	-49.0	-50.3	14.9	0.00e+00	0	23	0	1236271104	63	4367
2026-01-10 12:24:22.92	315.76	13.98	-49.0	-50.3	14.9	0.00e+00	0	23	0	1239416832	63	4385
2026-01-10 12:24:23.92	315.94	13.93	-49.1	-50.4	14.8	0.00e+00	0	24	0	1242562560	63	4434
2026-01-10 12:24:24.92	316.11	13.87	-49.2	-50.5	14.8	0.00e+00	0	23	0	1244659712	63	4484
2026-01-10 12:24:25.91	316.28	13.82	-49.0	-50.3	14.9	0.00e+00	0	23	0	1247805440	63	4387
2026-01-10 12:24:26.90	316.45	13.77	-48.9	-50.2	14.9	0.00e+00	0	23	0	1250951168	63	4315
2026-01-10 12:24:27.90	316.62	13.71	-48.8	-50.1	15.0	0.00e+00	0	24	0	1254096896	63	4287
2026-01-10 12:24:28.90	316.79	13.66	-48.8	-50.1	15.0	0.00e+00	0	23	0	1257242624	63	4258
2026-01-10 12:24:29.90	316.96	13.60	-48.9	-50.2	14.9	0.00e+00	0	23	0	1260388352	63	4324
2026-01-10 12:24:30.88	317.12	13.55	-48.8	-50.2	14.9	0.00e+00	0	24	0	1263534080	63	4297
2026-01-10 12:24:31.88	317.29	13.50	-48.9	-50.2	14.9	0.00e+00	0	24	0	1266679808	63	4311
2026-01-10 12:24:32.87	317.46	13.44	-48.9	-50.3	14.9	0.00e+00	0	24	0	1269825536	63	4350
2026-01-10 12:24:33.87	317.62	13.39	-48.9	-50.2	14.9	0.00e+00	0	23	0	1272971264	63	4326
2026-01-10 12:24:34.86	317.79	13.33	-49.0	-50.3	14.9	0.00e+00	0	24	0	1276116992	63	4377
2026-01-10 12:24:35.86	317.95	13.28	-48.9	-50.3	14.9	0.00e+00	0	24	0	1279262720	63	4358
2026-01-10 12:24:36.85	318.12	13.22	-48.9	-50.3	14.9	0.00e+00	0	24	0	1282408448	63	4354
2026-01-10 12:24:37.84	318.28	13.17	-49.0	-50.3	14.9	0.00e+00	0	23	0	1285554176	63	4383
2026-01-10 12:24:38.84	318.45	13.11	-49.1	-50.4	14.8	0.00e+00	0	23	0	1288699904	63	4423
2026-01-10 12:24:39.83	318.61	13.06	-49.1	-50.4	14.8	0.00e+00	0	23	0	1291845632	63	4436
2026-01-10 12:24:40.83	318.77	13.00	-49.1	-50.4	14.8	0.00e+00	0	23	0	1294991360	63	4438
2026-01-10 12:24:41.83	318.93	12.95	-49.1	-50.4	14.8	0.00e+00	0	23	0	1298137088	63	4439
2026-01-10 12:24:42.83	319.09	12.89	-49.1	-50.5	14.8	0.00e+00	0	24	0	1301282816	63	4442
2026-01-10 12:24:43.82	319.25	12.84	-49.0	-50.4	14.9	0.00e+00	0	24	0	1304428544	63	4396
2026-01-10 12:24:44.82	319.41	12.78	-48.8	-50.1	15.0	0.00e+00	0	24	0	1307574272	63	4285
2026-01-10 12:24:45.83	319.58	12.72	-48.9	-50.2	14.9	0.00e+00	0	23	0	1310720000	63	4305
2026-01-10 12:24:46.82	319.73	12.67	-48.8	-50.1	15.0	0.00e+00	0	23	0	1313865728	63	4265
2026-01-10 12:24:47.82	319.89	12.61	-48.8	-50.1	15.0	0.00e+00	0	23	0	1317011456	63	4267
2026-01-10 12:24:48.82	320.05	12.56	-48.8	-50.1	15.0	0.00e+00	0	23	0	1320157184	63	4256
2026-01-10 12:24:49.82	320.21	12.50	-48.7	-50.0	15.0	0.00e+00	0	23	0	1323302912	63	4228
2026-01-10 12:24:50.81	320.36	12.45	-48.8	-50.1	14.9	0.00e+00	0	23	0	1326448640	63	4260
2026-01-10 12:24:51.81	320.52	12.39	-48.7	-50.1	15.0	0.00e+00	0	23	0	1329594368	63	4247
2026-01-10 12:24:52.79	320.67	12.33	-48.9	-50.2	14.9	0.00e+00	0	23	0	1331691520	63	4329
2026-01-10 12:24:53.79	320.83	12.28	-48.9	-50.3	14.9	0.00e+00	0	23	0	1334837248	63	4346
2026-01-10 12:24:54.78	320.98	12.22	-49.0	-50.3	14.9	0.00e+00	0	23	0	1337982976	63	4376
2026-01-10 12:24:55.78	321.13	12.17	-49.0	-50.3	14.9	0.00e+00	0	23	0	1341128704	63	4372
2026-01-10 12:24:56.77	321.29	12.11	-49.0	-50.3	14.9	0.00e+00	0	23	0	1344274432	63	4373
2026-01-10 12:24:57.77	321.44	12.05	-49.0	-50.4	14.8	0.00e+00	0	24	0	1347420160	63	4415
2026-01-10 12:24:58.76	321.59	12.00	-49.1	-50.4	14.8	0.00e+00	0	23	0	1350565888	63	4434
2026-01-10 12:24:59.77	321.74	11.94	-49.0	-50.4	14.8	0.00e+00	0	23	0	1353711616	63	4429
2026-01-10 12:25:00.76	321.89	11.88	-49.1	-50.5	14.8	0.00e+00	0	23	0	1356857344	63	4447
2026-01-10 12:25:01.75	322.04	11.83	-49.1	-50.5	14.7	0.00e+00	0	24	0	1360003072	63	4477
2026-01-10 12:25:02.75	322.19	11.77	-49.0	-50.3	14.8	0.00e+00	0	24	0	1363148800	63	4389
2026-01-10 12:25:03.75	322.34	11.71	-49.0	-50.3	14.9	0.00e+00	0	23	0	1366294528	63	4380
2026-01-10 12:25:04.75	322.49	11.66	-49.0	-50.3	14.8	0.00e+00	0	23	0	1369440256	63	4387
2026-01-10 12:25:05.73	322.64	11.60	-48.8	-50.2	14.9	0.00e+00	0	23	0	1372585984	63	4292
2026-01-10 12:25:06.74	322.79	11.54	-48.9	-50.2	14.9	0.00e+00	0	24	0	1375731712	63	4316
2026-01-10 12:25:07.74	322.93	11.49	-48.7	-50.0	15.0	0.00e+00	0	24	0	1378877440	63	4227
2026-01-10 12:25:08.74	323.08	11.43	-48.9	-50.2	14.9	0.00e+00	0	23	0	1382023168	63	4328
2026-01-10 12:25:09.73	323.23	11.37	-48.8	-50.2	14.9	0.00e+00	0	23	0	1385168896	63	4292
2026-01-10 12:25:10.73	323.37	11.32	-48.8	-50.2	14.9	0.00e+00	0	23	0	1388314624	63	4298
2026-01-10 12:25:11.72	323.51	11.26	-48.8	-50.2	14.9	0.00e+00	0	23	0	1391460352	63	4296
2026-01-10 12:25:12.72	323.66	11.20	-48.7	-50.1	15.0	0.00e+00	0	23	0	1394606080	63	4251
2026-01-10 12:25:13.71	323.80	11.15	-48.7	-50.0	15.0	0.00e+00	0	23	0	1397751808	63	4217
2026-01-10 12:25:14.71	323.95	11.09	-48.7	-50.0	15.0	0.00e+00	0	23	0	1400897536	63	4233
2026-01-10 12:25:15.71	324.09	11.03	-48.8	-50.2	14.9	0.00e+00	0	23	0	1404043264	63	4304
2026-01-10 12:25:16.71	324.23	10.97	-48.9	-50.3	14.9	0.00e+00	0	23	0	1407188992	63	4347
2026-01-10 12:25:17.71	324.37	10.92	-49.0	-50.4	14.8	0.00e+00	0	23	0	1410334720	63	4421
2026-01-10 12:25:18.72	324.52	10.86	-49.0	-50.4	14.8	0.00e+00	0	23	0	1413480448	63	4424
2026-01-10 12:25:19.73	324.66	10.80	-48.9	-50.3	14.8	0.00e+00	0	23	0	1416626176	63	4361
2026-01-10 12:25:20.73	324.80	10.74	-48.9	-50.2	14.9	0.00e+00	0	23	0	1419771904	63	4334
2026-01-10 12:25:21.73	324.94	10.69	-49.0	-50.3	14.8	0.00e+00	0	23	0	1422917632	63	4386
2026-01-10 12:25:22.73	325.08	10.63	-49.0	-50.4	14.8	0.00e+00	0	23	0	1426063360	63	4399
2026-01-10 12:25:23.73	325.22	10.57	-49.1	-50.5	14.7	0.00e+00	0	23	0	1429209088	63	4443
2026-01-10 12:25:24.73	325.35	10.52	-49.1	-50.5	14.7	0.00e+00	0	24	0	1432354816	63	4481
2026-01-10 12:25:25.73	325.49	10.46	-49.3	-50.7	14.7	0.00e+00	0	23	0	1435500544	63	4557
2026-01-10 12:25:26.74	325.63	10.40	-49.3	-50.7	14.6	0.00e+00	0	23	0	1438646272	63	4574
2026-01-10 12:25:27.74	325.77	10.34	-49.2	-50.7	14.7	0.00e+00	0	23	0	1441792000	63	4551
2026-01-10 12:25:28.73	325.90	10.29	-49.2	-50.6	14.7	0.00e+00	0	23	0	1444937728	63	4506
2026-01-10 12:25:29.73	326.04	10.23	-49.1	-50.5	14.7	0.00e+00	0	23	0	1448083456	63	4469
2026-01-10 12:25:30.73	326.17	10.17	-49.4	-50.9	14.6	0.00e+00	0	23	0	1451229184	63	4657
2026-01-10 12:25:31.73	326.31	10.11	-49.3	-50.7	14.7	0.00e+00	0	23	0	1454374912	64	4329
2026-01-10 12:25:32.72	326.44	10.06	-49.4	-50.9	14.7	0.00e+00	0	23	0	1457520640	64	4401
2026-01-10 12:25:33.73	326.58	10.00	-49.5	-50.9	14.7	0.00e+00	0	23	0	1460666368	64	4422
2026-01-10 12:25:34.73	326.71	9.94	-49.4	-50.9	14.7	0.00e+00	0	23	0	1463812096	64	4397
2026-01-10 12:25:35.73	326.84	9.88	-49.5	-50.9	14.6	0.00e+00	0	23	0	1465909248	64	4435
2026-01-10 12:25:36.74	326.98	9.83	-49.4	-50.9	14.7	0.00e+00	0	23	0	1469054976	64	4421
2026-01-10 12:25:37.74	327.11	9.77	-49.6	-51.1	14.6	0.00e+00	0	23	0	1472200704	64	4496
2026-01-10 12:25:38.74	327.24	9.71	-49.6	-51.1	14.5	0.00e+00	0	23	0	1475346432	64	4539
2026-01-10 12:25:39.74	327.37	9.65	-49.6	-51.1	14.5	0.00e+00	0	23	0	1478492160	64	4527
2026-01-10 12:25:40.75	327.50	9.60	-49.6	-51.1	14.5	0.00e+00	0	23	0	1481637888	64	4536
2026-01-10 12:25:41.75	327.63	9.54	-49.7	-51.3	14.4	0.00e+00	0	23	0	1484783616	64	4607
2026-01-10 12:25:42.75	327.76	9.48	-49.8	-51.3	14.4	0.00e+00	0	23	0	1487929344	64	4636
2026-01-10 12:25:43.75	327.89	9.42	-49.7	-51.2	14.6	0.00e+00	0	23	0	1491075072	65	4331
2026-01-10 12:25:44.76	328.02	9.37	-50.0	-51.6	14.4	0.00e+00	0	24	0	1494220800	65	4505
2026-01-10 12:25:45.76	328.14	9.31	-49.8	-51.3	14.5	0.00e+00	0	23	0	1497366528	65	4385
2026-01-10 12:25:46.76	328.27	9.25	-50.0	-51.6	14.4	0.00e+00	0	23	0	1500512256	65	4498
2026-01-10 12:25:47.77	328.40	9.19	-49.8	-51.3	14.5	0.00e+00	0	23	0	1503657984	65	4361
2026-01-10 12:25:48.76	328.53	9.14	-49.8	-51.3	14.5	0.00e+00	0	23	0	1506803712	65	4382
2026-01-10 12:25:49.76	328.65	9.08	-49.8	-51.3	14.6	0.00e+00	0	23	0	1509949440	65	4372
2026-01-10 12:25:50.76	328.78	9.02	-49.8	-51.3	14.6	0.00e+00	0	24	0	1513095168	65	4358
2026-01-10 12:25:51.76	328.90	8.97	-49.8	-51.3	14.6	0.00e+00	0	23	0	1516240896	65	4354
2026-01-10 12:25:52.76	329.03	8.91	-49.8	-51.3	14.5	0.00e+00	0	23	0	1519386624	65	4351
2026-01-10 12:25:53.76	329.15	8.85	-49.8	-51.3	14.5	0.00e+00	0	23	0	1522532352	65	4376
2026-01-10 12:25:54.76	329.27	8.79	-49.7	-51.2	14.5	0.00e+00	0	23	0	1525678080	65	4328
2026-01-10 12:25:55.77	329.40	8.74	-49.9	-51.4	14.5	0.00e+00	0	23	0	1528823808	65	4422
2026-01-10 12:25:56.76	329.52	8.68	-49.8	-51.3	14.5	0.00e+00	0	23	0	1531969536	65	4370
2026-01-10 12:25:57.77	329.64	8.62	-49.8	-51.4	14.5	0.00e+00	0	23	0	1535115264	65	4405
2026-01-10 12:25:58.77	329.76	8.57	-49.9	-51.4	14.5	0.00e+00	0	23	0	1538260992	65	4418
2026-01-10 12:25:59.76	329.88	8.51	-49.8	-51.3	14.5	0.00e+00	0	23	0	1541406720	65	4380
2026-01-10 12:26:00.76	330.00	8.45	-49.9	-51.4	14.5	0.00e+00	0	23	0	1544552448	65	4420
2026-01-10 12:26:01.77	330.13	8.39	-49.9	-51.5	14.4	0.00e+00	0	23	0	1547698176	65	4449
2026-01-10 12:26:02.77	330.25	8.34	-49.9	-51.4	14.4	0.00e+00	0	23	0	1550843904	65	4429
2026-01-10 12:26:03.77	330.36	8.28	-50.0	-51.6	14.3	0.00e+00	0	23	0	1553989632	65	4540
2026-01-10 12:26:04.77	330.48	8.22	-49.9	-51.5	14.4	0.00e+00	0	24	0	1557135360	65	4470
2026-01-10 12:26:05.77	330.60	8.17	-50.0	-51.7	14.4	0.00e+00	0	23	0	1560281088	65	4546
2026-01-10 12:26:06.78	330.72	8.11	-50.1	-51.8	14.2	0.00e+00	0	23	0	1563426816	65	4607
2026-01-10 12:26:07.78	330.84	8.05	-50.1	-51.7	14.3	0.00e+00	0	23	0	1566572544	65	4564
2026-01-10 12:26:08.77	330.95	8.00	-50.1	-51.7	14.3	0.00e+00	0	23	0	1569718272	65	4550
2026-01-10 12:26:09.77	331.07	7.94	-50.1	-51.7	14.3	0.00e+00	0	23	0	1572864000	65	4557
2026-01-10 12:26:10.77	331.19	7.88	-50.1	-51.7	14.3	0.00e+00	0	24	0	1576009728	65	4563
2026-01-10 12:26:11.77	331.30	7.83	-50.1	-51.8	14.3	0.00e+00	0	24	0	1579155456	65	4606
2026-01-10 12:26:12.77	331.42	7.77	-50.0	-51.6	14.4	0.00e+00	0	24	0	1582301184	65	4544
2026-01-10 12:26:13.76	331.53	7.71	-50.3	-51.9	14.2	0.00e+00	0	23	0	1585446912	65	4701
2026-01-10 12:26:14.76	331.65	7.66	-50.1	-51.8	14.2	0.00e+00	0	23	0	1588592640	65	4611
2026-01-10 12:26:15.76	331.76	7.60	-50.1	-51.7	14.3	0.00e+00	0	24	0	1591738368	65	4557
2026-01-10 12:26:16.76	331.88	7.54	-50.1	-51.8	14.2	0.00e+00	0	24	0	1594884096	65	4602
2026-01-10 12:26:17.76	331.99	7.49	-50.2	-51.8	14.2	0.00e+00	0	23	0	1598029824	65	4627
2026-01-10 12:26:18.75	332.10	7.43	-50.0	-51.6	14.4	0.00e+00	0	23	0	1601175552	65	4497
2026-01-10 12:26:19.75	332.21	7.37	-50.1	-51.7	14.3	0.00e+00	0	24	0	1604321280	65	4578
2026-01-10 12:26:20.75	332.33	7.32	-50.1	-51.7	14.2	0.00e+00	0	23	0	1607467008	65	4591
2026-01-10 12:26:21.75	332.44	7.26	-50.2	-51.8	14.2	0.00e+00	0	23	0	1610612736	65	4628
2026-01-10 12:26:22.74	332.55	7.21	-50.2	-51.9	14.2	0.00e+00	0	23	0	1613758464	65	4673
2026-01-10 12:26:23.74	332.66	7.15	-50.1	-51.7	14.3	0.00e+00	0	23	0	1616904192	65	4558
2026-01-10 12:26:24.73	332.77	7.09	-50.1	-51.8	14.2	0.00e+00	0	23	0	1620049920	65	4603
2026-01-10 12:26:25.72	332.88	7.04	-50.3	-52.0	14.1	0.00e+00	0	24	0	1622147072	65	4720
2026-01-10 12:26:26.72	332.99	6.98	-50.2	-51.9	14.1	0.00e+00	0	23	0	1625292800	65	4666
2026-01-10 12:26:27.71	333.09	6.93	-50.3	-52.0	14.1	0.00e+00	0	23	0	1628438528	65	4706
2026-01-10 12:26:28.71	333.20	6.87	-50.3	-51.9	14.1	0.00e+00	0	24	0	1631584256	65	4690
2026-01-10 12:26:29.70	333.31	6.81	-50.2	-51.9	14.1	0.00e+00	0	23	0	1634729984	65	4677
2026-01-10 12:26:30.70	333.42	6.76	-50.0	-51.6	14.3	0.00e+00	0	24	0	1637875712	65	4521
2026-01-10 12:26:31.70	333.53	6.70	-50.3	-51.9	14.1	0.00e+00	0	23	0	1641021440	65	4688
2026-01-10 12:26:32.70	333.63	6.65	-50.2	-51.9	14.1	0.00e+00	0	24	0	1644167168	65	4672
2026-01-10 12:26:33.68	333.74	6.59	-50.1	-51.7	14.3	0.00e+00	0	23	0	1647312896	65	4565
2026-01-10 12:26:34.68	333.84	6.54	-50.3	-51.9	14.1	0.00e+00	0	23	0	1650458624	65	4703
2026-01-10 12:26:35.68	333.95	6.48	-50.4	-52.0	14.2	0.00e+00	0	23	0	1653604352	66	4487
2026-01-10 12:26:36.66	334.05	6.42	-50.2	-51.9	14.3	0.00e+00	0	23	0	1656750080	66	4397
2026-01-10 12:26:37.66	334.16	6.37	-50.4	-52.1	14.1	0.00e+00	0	24	0	1659895808	66	4536
2026-01-10 12:26:38.65	334.26	6.31	-50.6	-52.3	14.0	0.00e+00	0	23	0	1663041536	66	4631
2026-01-10 12:26:39.64	334.37	6.26	-50.3	-52.0	14.2	0.00e+00	0	24	0	1666187264	66	4459
2026-01-10 12:26:40.63	334.47	6.20	-50.6	-52.4	14.0	0.00e+00	0	23	0	1669332992	66	4652
2026-01-10 12:26:41.63	334.57	6.15	-50.6	-52.4	14.0	0.00e+00	0	23	0	1672478720	66	4666
2026-01-10 12:26:42.62	334.68	6.09	-50.6	-52.3	14.0	0.00e+00	0	23	0	1675624448	66	4644
2026-01-10 12:26:43.61	334.78	6.04	-50.6	-52.4	13.9	0.00e+00	0	24	0	1678770176	66	4668
2026-01-10 12:26:44.61	334.88	5.98	-50.5	-52.2	14.0	0.00e+00	0	23	0	1681915904	66	4596
2026-01-10 12:26:45.60	334.98	5.93	-50.6	-52.3	13.9	0.00e+00	0	23	0	1685061632	66	4643
2026-01-10 12:26:46.59	335.08	5.87	-50.5	-52.3	14.0	0.00e+00	0	24	0	1688207360	66	4638
2026-01-10 12:26:47.58	335.18	5.82	-50.6	-52.4	13.9	0.00e+00	0	24	0	1691353088	66	4670
2026-01-10 12:26:48.57	335.28	5.76	-50.5	-52.3	14.0	0.00e+00	0	24	0	1694498816	66	4635
2026-01-10 12:26:49.57	335.38	5.71	-50.7	-52.5	13.9	0.00e+00	0	24	0	1697644544	66	4721
2026-01-10 12:26:50.56	335.48	5.65	-50.7	-52.6	13.8	0.00e+00	0	23	0	1699741696	66	4764
2026-01-10 12:26:51.56	335.58	5.60	-50.8	-52.6	13.8	0.00e+00	0	23	0	1702887424	66	4789
2026-01-10 12:26:52.55	335.68	5.54	-50.6	-52.4	13.9	0.00e+00	0	24	0	1706033152	66	4686
2026-01-10 12:26:53.55	335.78	5.49	-50.5	-52.3	13.9	0.00e+00	0	24	0	1709178880	66	4626
2026-01-10 12:26:54.54	335.88	5.43	-50.4	-52.1	14.1	0.00e+00	0	23	0	1712324608	66	4537
2026-01-10 12:26:55.54	335.98	5.38	-50.5	-52.3	14.0	0.00e+00	0	23	0	1715470336	66	4616
2026-01-10 12:26:56.53	336.08	5.32	-50.5	-52.2	14.0	0.00e+00	0	23	0	1718616064	66	4580
2026-01-10 12:26:57.53	336.17	5.27	-50.4	-52.1	14.1	0.00e+00	0	24	0	1721761792	66	4521
2026-01-10 12:26:58.53	336.27	5.21	-50.6	-52.4	13.9	0.00e+00	0	24	0	1724907520	66	4673
2026-01-10 12:26:59.52	336.37	5.16	-50.4	-52.1	14.1	0.00e+00	0	24	0	1728053248	66	4522
2026-01-10 12:27:00.52	336.47	5.11	-50.8	-52.7	13.7	0.00e+00	0	24	0	1731198976	66	4815
2026-01-10 12:27:01.52	336.56	5.05	-50.4	-52.2	14.0	0.00e+00	0	24	0	1734344704	66	4555
2026-01-10 12:27:02.51	336.66	5.00	-51.8	-53.8	13.3	0.00e+00	0	24	0	1737490432	68	4918
2026-01-10 12:27:03.51	336.75	4.94	-57.9	-71.6	3.8	1.49e+00	0	24	104	1739587584	80	19146
2026-01-10 12:27:04.51	336.85	4.89	-58.3	-72.1	3.8	1.49e+00	0	23	104	1739587584	81	19033
2026-01-10 12:27:05.51	336.94	4.83	-58.6	-72.4	3.8	1.49e+00	0	24	104	1739587584	82	18641
2026-01-10 12:27:06.51	337.04	4.78	-58.8	-72.6	3.8	1.49e+00	0	24	104	1739587584	82	19066
2026-01-10 12:27:07.51	337.13	4.72	-59.0	-72.8	3.8	1.49e+00	0	24	104	1739587584	83	18387
2026-01-10 12:27:08.50	337.23	4.67	-59.1	-72.9	3.8	1.49e+00	0	24	104	1739587584	83	18677
2026-01-10 12:27:09.49	337.32	4.62	-59.2	-73.0	3.8	1.49e+00	0	24	104	1739587584	83	18933
2026-01-10 12:27:10.49	337.41	4.56	-59.3	-73.2	3.8	1.49e+00	0	24	104	1739587584	83	19185
2026-01-10 12:27:11.49	337.51	4.51	-59.4	-73.2	3.8	1.49e+00	0	24	104	1739587584	83	19307
2026-01-10 12:27:12.49	337.60	4.45	-59.6	-73.4	3.8	1.49e+00	0	24	104	1739587584	84	18727
2026-01-10 12:27:13.48	337.69	4.40	-59.7	-73.5	3.8	1.49e+00	0	24	104	1739587584	84	18745
2026-01-10 12:27:14.48	337.78	4.35	-59.7	-73.5	3.8	1.49e+00	0	24	104	1739587584	84	18873
2026-01-10 12:27:15.49	337.88	4.29	-59.7	-73.5	3.8	1.49e+00	0	24	104	1739587584	84	18926
2026-01-10 12:27:16.49	337.97	4.24	-59.7	-73.6	3.8	1.49e+00	0	24	104	1739587584	84	18978
2026-01-10 12:27:17.49	338.06	4.18	-59.8	-73.6	3.8	1.49e+00	0	24	104	1739587584	84	18984
2026-01-10 12:27:18.48	338.15	4.13	-59.8	-73.6	3.8	1.49e+00	0	24	104	1739587584	84	19058
2026-01-10 12:27:19.48	338.24	4.08	-59.8	-73.6	3.9	1.49e+00	0	24	104	1739587584	84	19085
2026-01-10 12:27:20.49	338.33	4.02	-59.8	-73.7	3.8	1.49e+00	0	24	104	1739587584	84	19193
2026-01-10 12:27:21.50	338.42	3.97	-59.8	-73.7	3.8	1.49e+00	0	24	104	1739587584	84	19185
2026-01-10 12:27:22.49	338.51	3.91	-59.8	-73.7	3.8	1.49e+00	0	24	104	1739587584	84	19253
2026-01-10 12:27:23.49	338.60	3.86	-59.8	-73.7	3.8	1.49e+00	0	24	104	1739587584	84	19183
2026-01-10 12:27:24.49	338.69	3.81	-59.8	-73.7	3.8	1.49e+00	0	24	104	1739587584	84	19212
2026-01-10 12:27:25.49	338.78	3.75	-59.8	-73.6	3.8	1.49e+00	0	24	104	1739587584	84	19068
2026-01-10 12:27:26.49	338.87	3.70	-59.8	-73.6	3.8	1.49e+00	0	24	104	1739587584	84	19046
2026-01-10 12:27:27.49	338.96	3.65	-59.8	-73.6	3.8	1.49e+00	0	24	104	1739587584	84	19020
2026-01-10 12:27:28.48	339.04	3.59	-59.7	-73.6	3.8	1.49e+00	0	24	104	1739587584	84	19025
2026-01-10 12:27:29.48	339.13	3.54	-59.7	-73.6	3.8	1.49e+00	0	24	104	1739587584	84	18954
2026-01-10 12:27:30.47	339.22	3.49	-59.7	-73.5	3.8	1.49e+00	0	24	104	1739587584	84	18864
2026-01-10 12:27:31.47	339.31	3.44	-59.7	-73.5	3.8	1.49e+00	0	24	104	1739587584	84	18899
2026-01-10 12:27:32.46	339.39	3.38	-59.7	-73.5	3.8	1.49e+00	0	24	104	1739587584	84	18868
2026-01-10 12:27:33.46	339.48	3.33	-59.7	-73.5	3.8	1.49e+00	0	24	104	1739587584	84	18856
2026-01-10 12:27:34.46	339.56	3.28	-59.7	-73.5	3.8	1.49e+00	0	24	104	1739587584	84	18896
2026-01-10 12:27:35.47	339.65	3.22	-59.7	-73.5	3.8	1.49e+00	0	24	104	1739587584	84	18897
2026-01-10 12:27:36.46	339.74	3.17	-59.7	-73.5	3.8	1.49e+00	0	24	104	1739587584	84	18883
2026-01-10 12:27:37.46	339.82	3.12	-59.7	-73.5	3.8	1.49e+00	0	24	104	1739587584	84	18811
2026-01-10 12:27:38.45	339.91	3.07	-59.6	-73.4	3.8	1.49e+00	0	24	104	1739587584	84	18715
2026-01-10 12:27:39.44	339.99	3.01	-59.7	-73.5	3.8	1.49e+00	0	24	104	1739587584	84	18766
2026-01-10 12:27:40.44	340.07	2.96	-59.7	-73.5	3.8	1.49e+00	0	24	104	1739587584	84	18806
2026-01-10 12:27:41.43	340.16	2.91	-59.7	-73.5	3.8	1.49e+00	0	24	104	1739587584	84	18787
2026-01-10 12:27:42.44	340.24	2.86	-59.6	-73.5	3.8	1.49e+00	0	24	104	1739587584	84	18737
2026-01-10 12:27:43.44	340.33	2.80	-59.6	-73.5	3.8	1.49e+00	0	24	104	1739587584	84	18765
2026-01-10 12:27:44.43	340.41	2.75	-59.6	-73.4	3.8	1.49e+00	0	24	104	1739587584	84	18724
2026-01-10 12:27:45.42	340.49	2.70	-59.6	-73.4	3.8	1.49e+00	0	24	104	1739587584	84	18709
2026-01-10 12:27:46.42	340.57	2.65	-59.6	-73.4	3.8	1.49e+00	0	24	104	1739587584	84	18668
2026-01-10 12:27:47.41	340.66	2.59	-59.6	-73.4	3.8	1.49e+00	0	24	104	1739587584	84	18693
2026-01-10 12:27:48.41	340.74	2.54	-59.6	-73.4	3.8	1.49e+00	0	24	104	1739587584	84	18677
2026-01-10 12:27:49.40	340.82	2.49	-59.6	-73.4	3.8	1.49e+00	0	24	104	1739587584	84	18696
2026-01-10 12:27:50.40	340.90	2.44	-59.6	-73.4	3.8	1.49e+00	0	24	104	1739587584	84	18620
2026-01-10 12:27:51.40	340.98	2.39	-59.6	-73.4	3.8	1.49e+00	0	24	104	1739587584	84	18606
2026-01-10 12:27:52.40	341.06	2.33	-59.6	-73.4	3.8	1.49e+00	0	24	104	1739587584	84	18625
2026-01-10 12:27:53.39	341.14	2.28	-59.6	-73.4	3.8	1.49e+00	0	24	104	1739587584	84	18602
2026-01-10 12:27:54.38	341.22	2.23	-59.6	-73.4	3.8	1.49e+00	0	24	104	1739587584	84	18670
2026-01-10 12:27:55.37	341.30	2.18	-59.6	-73.4	3.8	1.49e+00	0	24	104	1739587584	84	18547
2026-01-10 12:27:56.37	341.38	2.13	-59.5	-73.4	3.8	1.49e+00	0	24	104	1739587584	84	18562
2026-01-10 12:27:57.37	341.46	2.08	-59.5	-73.4	3.8	1.49e+00	0	24	104	1739587584	84	18573
2026-01-10 12:27:58.37	341.54	2.02	-59.5	-73.4	3.8	1.49e+00	0	24	104	1739587584	84	18568
2026-01-10 12:27:59.37	341.62	1.97	-59.5	-73.3	3.8	1.49e+00	0	24	104	1739587584	84	18465

#Closed at: 2026-01-10 12:28:00
#Recorded file [1739 MB]: D:/lorett/data/31004_260110_151657.dat