passes_logs/2026/01/10/R3.2S_Murmansk/R3.2S_Murmansk__20260110_020458_FENGYUN_3D_rec.log

#Pass ID: 20260110_020458_FENGYUN 3D
#Satellite: FENGYUN 3D
#Configuration: FENGYUN 3D
#almurnet v.1.7.20251203
#Start time: 2026-01-10 02:05:01

#Version: 2.2.20231116
#Station: R3.2S_Murmansk
#Location: 33.079688 lon 68.888172 lat
#TLE: 1 43010U 17072A   26009.29492227  .00000158  00000+0  96483-4 0  9996
#TLE: 2 43010  98.9936 341.0229 0002153 117.3665 242.7729 14.19694440422446

#Time	Az	El	Level	Level2	SNR	BER	BlckErr	Temp	State	Recorded	gain1	gain2
2026-01-10 02:05:01.10	22.89	2.15	-57.1	-69.9	3.8	8.44e-01	0	21	0	0	80	15619
2026-01-10 02:05:02.09	22.91	2.21	-57.1	-69.9	3.8	8.46e-01	0	21	104	0	79	16534
2026-01-10 02:05:03.09	22.94	2.27	-57.1	-69.8	3.8	8.45e-01	0	21	104	0	79	16352
2026-01-10 02:05:04.08	22.96	2.34	-57.1	-69.7	3.8	8.47e-01	0	21	104	0	79	16198
2026-01-10 02:05:05.08	22.98	2.40	-57.1	-69.5	3.8	8.46e-01	0	21	104	0	79	15791
2026-01-10 02:05:06.08	23.00	2.46	-57.1	-69.2	3.8	8.45e-01	0	21	104	0	79	15322
2026-01-10 02:05:07.08	23.03	2.53	-57.0	-68.9	3.8	8.45e-01	0	21	104	0	79	14876
2026-01-10 02:05:08.08	23.05	2.59	-57.0	-68.3	3.8	8.45e-01	0	21	104	0	79	13784
2026-01-10 02:05:09.07	23.08	2.66	-57.0	-68.0	3.8	8.44e-01	0	22	104	0	79	13315
2026-01-10 02:05:10.08	23.10	2.72	-56.9	-67.7	4.0	8.41e-01	0	21	104	0	79	12836
2026-01-10 02:05:11.08	23.12	2.79	-56.9	-67.2	3.9	8.44e-01	0	22	104	0	79	12202
2026-01-10 02:05:12.07	23.15	2.85	-56.8	-66.6	4.2	8.40e-01	0	22	104	0	79	11385
2026-01-10 02:05:13.07	23.17	2.91	-56.8	-65.9	4.4	8.33e-01	0	22	0	0	79	10429
2026-01-10 02:05:14.06	23.19	2.98	-56.7	-65.7	4.5	8.22e-01	0	22	0	0	79	10200
2026-01-10 02:05:15.06	23.22	3.04	-56.6	-64.6	4.9	7.79e-01	0	22	0	0	79	9014
2026-01-10 02:05:16.06	23.24	3.11	-56.4	-63.5	5.6	6.66e-01	0	22	0	0	79	7965
2026-01-10 02:05:17.06	23.27	3.17	-56.3	-62.9	6.0	3.93e-01	0	22	0	5242880	79	7422
2026-01-10 02:05:18.06	23.29	3.24	-56.0	-62.1	6.6	2.33e-01	0	22	0	10485760	78	7139
2026-01-10 02:05:19.06	23.32	3.31	-55.9	-61.6	7.0	1.96e-01	0	22	0	16777216	78	6766
2026-01-10 02:05:20.05	23.34	3.37	-55.7	-61.0	7.6	1.13e-01	0	22	0	22020096	78	6284
2026-01-10 02:05:21.06	23.36	3.44	-55.3	-59.9	8.5	4.01e-02	0	22	0	27262976	77	5897
2026-01-10 02:05:22.06	23.39	3.50	-54.7	-58.6	9.7	1.70e-02	0	22	0	33554432	76	5375
2026-01-10 02:05:23.06	23.41	3.57	-54.3	-58.0	10.1	4.23e-03	0	22	0	38797312	75	5304
2026-01-10 02:05:24.06	23.44	3.64	-53.8	-57.1	10.9	1.39e-03	0	22	0	45088768	74	5065
2026-01-10 02:05:25.06	23.46	3.70	-53.1	-55.8	11.8	1.35e-04	0	22	0	50331648	72	4880
2026-01-10 02:05:26.06	23.49	3.77	-52.4	-54.7	12.5	1.48e-05	0	22	0	55574528	71	4597
2026-01-10 02:05:27.06	23.51	3.84	-52.1	-54.4	12.8	1.10e-06	0	22	0	61865984	70	4660
2026-01-10 02:05:28.06	23.54	3.90	-51.2	-53.2	13.5	0.00e+00	0	22	0	67108864	69	4324
2026-01-10 02:05:29.06	23.56	3.97	-50.3	-52.1	13.9	0.00e+00	0	22	0	72351744	67	4280
2026-01-10 02:05:30.05	23.59	4.04	-50.2	-52.0	14.1	0.00e+00	0	22	0	78643200	67	4230
2026-01-10 02:05:31.05	23.61	4.11	-49.9	-51.7	14.1	0.00e+00	0	22	0	83886080	66	4293
2026-01-10 02:05:32.05	23.64	4.17	-49.5	-51.1	14.3	0.00e+00	0	22	0	89128960	65	4286
2026-01-10 02:05:33.05	23.67	4.24	-49.7	-51.4	14.1	0.00e+00	0	22	0	95420416	65	4414
2026-01-10 02:05:34.05	23.69	4.31	-49.6	-51.2	14.3	0.00e+00	0	22	0	100663296	65	4319
2026-01-10 02:05:35.04	23.72	4.38	-49.8	-51.5	14.1	0.00e+00	0	22	0	105906176	65	4493
2026-01-10 02:05:36.04	23.74	4.45	-49.9	-51.7	14.0	0.00e+00	0	22	0	112197632	65	4554
2026-01-10 02:05:37.03	23.77	4.52	-50.4	-52.2	13.6	0.00e+00	0	22	0	117440512	65	4839
2026-01-10 02:05:38.04	23.80	4.58	-50.6	-52.5	13.5	0.00e+00	0	22	0	122683392	66	4733
2026-01-10 02:05:39.03	23.82	4.65	-51.1	-53.1	13.3	0.00e+00	0	22	0	128974848	67	4779
2026-01-10 02:05:40.04	23.85	4.72	-51.8	-54.0	12.8	0.00e+00	0	22	0	134217728	68	5009
2026-01-10 02:05:41.04	23.88	4.79	-52.5	-55.0	12.2	3.40e-06	0	22	0	139460608	70	5006
2026-01-10 02:05:42.04	23.90	4.86	-53.0	-55.8	11.7	3.20e-05	0	22	0	145752064	71	5172
2026-01-10 02:05:43.04	23.93	4.93	-53.4	-56.4	11.2	1.01e-04	0	22	0	150994944	71	5551
2026-01-10 02:05:44.04	23.96	5.00	-53.9	-57.3	10.5	9.21e-04	0	22	0	157286400	72	5830
2026-01-10 02:05:45.05	23.98	5.07	-54.3	-58.1	9.8	2.40e-03	0	22	0	162529280	73	6045
2026-01-10 02:05:46.05	24.01	5.14	-50.2	-51.9	14.1	0.00e+00	0	22	0	168820736	66	4400
2026-01-10 02:05:47.05	24.04	5.21	-55.6	-61.0	7.3	1.74e-02	0	22	0	174063616	76	7113
2026-01-10 02:05:48.05	24.06	5.28	-55.4	-60.2	8.2	2.95e-02	0	22	0	179306496	75	6840
2026-01-10 02:05:49.05	24.09	5.35	-51.1	-53.0	13.7	0.00e+00	0	22	0	185597952	68	4459
2026-01-10 02:05:50.05	24.12	5.43	-56.7	-65.6	4.5	8.55e-02	0	22	0	189792256	78	10747
2026-01-10 02:05:51.05	24.15	5.50	-51.1	-52.9	13.7	3.40e-06	0	22	0	195035136	68	4430
2026-01-10 02:05:52.04	24.17	5.57	-50.4	-52.2	14.1	0.00e+00	0	22	0	200278016	67	4300
2026-01-10 02:05:53.04	24.20	5.64	-49.8	-51.4	14.4	0.00e+00	0	22	0	205520896	66	4190
2026-01-10 02:05:54.03	24.23	5.71	-49.6	-51.2	14.4	0.00e+00	0	22	0	210763776	65	4311
2026-01-10 02:05:55.04	24.26	5.78	-49.5	-51.1	14.5	0.00e+00	0	22	0	217055232	65	4246
2026-01-10 02:05:56.04	24.29	5.86	-49.2	-50.7	14.7	0.00e+00	0	22	0	222298112	65	4079
2026-01-10 02:05:57.04	24.31	5.93	-49.4	-50.9	14.6	0.00e+00	0	22	0	227540992	65	4172
2026-01-10 02:05:58.05	24.34	6.00	-48.9	-50.3	14.8	0.00e+00	0	23	0	233832448	64	4134
2026-01-10 02:05:59.04	24.37	6.07	-49.0	-50.5	14.7	0.00e+00	0	22	0	239075328	64	4223
2026-01-10 02:06:00.05	24.40	6.15	-49.2	-50.7	14.5	0.00e+00	0	22	0	245366784	64	4339
2026-01-10 02:06:01.04	24.43	6.22	-49.3	-50.8	14.5	0.00e+00	0	22	0	250609664	64	4391
2026-01-10 02:06:02.04	24.46	6.29	-49.0	-50.5	14.7	0.00e+00	0	22	0	255852544	64	4212
2026-01-10 02:06:03.04	24.49	6.37	-48.8	-50.3	14.8	0.00e+00	0	23	0	262144000	64	4105
2026-01-10 02:06:04.04	24.52	6.44	-48.8	-50.3	14.8	0.00e+00	0	22	0	267386880	64	4107
2026-01-10 02:06:05.04	24.54	6.51	-48.9	-50.3	14.8	0.00e+00	0	23	0	272629760	64	4137
2026-01-10 02:06:06.04	24.57	6.59	-48.6	-50.0	14.8	0.00e+00	0	23	0	278921216	63	4238
2026-01-10 02:06:07.04	24.60	6.66	-48.7	-50.1	14.8	0.00e+00	0	23	0	284164096	63	4262
2026-01-10 02:06:08.04	24.63	6.74	-48.7	-50.2	14.7	0.00e+00	0	23	0	290455552	63	4307
2026-01-10 02:06:09.04	24.66	6.81	-48.8	-50.3	14.7	0.00e+00	0	22	0	295698432	63	4341
2026-01-10 02:06:10.04	24.69	6.89	-48.7	-50.1	14.8	0.00e+00	0	23	0	300941312	63	4275
2026-01-10 02:06:11.03	24.72	6.96	-48.8	-50.2	14.7	0.00e+00	0	23	0	307232768	63	4323
2026-01-10 02:06:12.03	24.75	7.04	-48.5	-50.0	14.9	0.00e+00	0	23	0	312475648	63	4199
2026-01-10 02:06:13.03	24.78	7.11	-48.4	-49.7	15.0	0.00e+00	0	23	0	317718528	63	4091
2026-01-10 02:06:14.04	24.81	7.19	-48.3	-49.6	15.1	0.00e+00	0	23	0	324009984	63	4046
2026-01-10 02:06:15.04	24.84	7.27	-48.4	-49.8	15.0	0.00e+00	0	23	0	329252864	63	4101
2026-01-10 02:06:16.04	24.88	7.34	-48.3	-49.7	15.1	0.00e+00	0	23	0	334495744	63	4071
2026-01-10 02:06:17.03	24.91	7.42	-48.1	-49.5	15.0	0.00e+00	0	23	0	340787200	62	4222
2026-01-10 02:06:18.03	24.94	7.49	-48.2	-49.6	14.9	0.00e+00	0	23	0	346030080	62	4256
2026-01-10 02:06:19.02	24.97	7.57	-48.1	-49.5	15.0	0.00e+00	0	23	0	352321536	62	4208
2026-01-10 02:06:20.02	25.00	7.65	-48.1	-49.5	15.0	0.00e+00	0	23	0	357564416	62	4207
2026-01-10 02:06:21.01	25.03	7.72	-48.1	-49.4	15.0	0.00e+00	0	23	0	362807296	62	4187
2026-01-10 02:06:22.00	25.06	7.80	-48.1	-49.4	15.1	0.00e+00	0	23	0	369098752	62	4171
2026-01-10 02:06:22.99	25.09	7.88	-48.0	-49.3	15.1	0.00e+00	0	23	0	374341632	62	4140
2026-01-10 02:06:24.00	25.12	7.96	-48.1	-49.4	15.1	0.00e+00	0	23	0	379584512	62	4180
2026-01-10 02:06:25.00	25.16	8.04	-48.0	-49.3	15.1	0.00e+00	0	23	0	385875968	62	4145
2026-01-10 02:06:26.00	25.19	8.12	-47.9	-49.2	15.2	0.00e+00	0	23	0	391118848	62	4070
2026-01-10 02:06:27.00	25.22	8.19	-48.0	-49.3	15.1	0.00e+00	0	23	0	396361728	62	4123
2026-01-10 02:06:28.00	25.25	8.27	-47.9	-49.3	15.2	0.00e+00	0	23	0	402653184	62	4099
2026-01-10 02:06:28.99	25.29	8.35	-47.8	-49.1	15.3	0.00e+00	0	23	0	407896064	62	4016
2026-01-10 02:06:29.98	25.32	8.43	-47.8	-49.1	15.2	0.00e+00	0	23	0	413138944	62	4029
2026-01-10 02:06:30.98	25.35	8.51	-47.8	-49.1	15.2	0.00e+00	0	23	0	419430400	62	4042
2026-01-10 02:06:31.97	25.38	8.59	-47.8	-49.0	15.3	0.00e+00	0	23	0	424673280	62	4002
2026-01-10 02:06:32.97	25.42	8.67	-47.6	-48.9	15.2	0.00e+00	0	23	0	429916160	61	4147
2026-01-10 02:06:33.97	25.45	8.75	-47.7	-49.0	15.1	0.00e+00	0	23	0	436207616	61	4217
2026-01-10 02:06:34.97	25.48	8.83	-47.6	-48.8	15.2	0.00e+00	0	23	0	441450496	61	4134
2026-01-10 02:06:35.98	25.52	8.91	-47.6	-48.8	15.2	0.00e+00	0	23	0	446693376	61	4140
2026-01-10 02:06:36.97	25.55	8.99	-47.5	-48.8	15.3	0.00e+00	0	23	0	452984832	61	4101
2026-01-10 02:06:37.97	25.58	9.08	-47.5	-48.8	15.2	0.00e+00	0	23	0	458227712	61	4114
2026-01-10 02:06:38.97	25.62	9.16	-47.6	-48.8	15.2	0.00e+00	0	23	0	464519168	61	4129
2026-01-10 02:06:39.96	25.65	9.24	-47.4	-48.7	15.3	0.00e+00	0	23	0	469762048	61	4063
2026-01-10 02:06:40.96	25.69	9.32	-47.4	-48.7	15.3	0.00e+00	0	23	0	475004928	61	4053
2026-01-10 02:06:41.96	25.72	9.40	-47.4	-48.7	15.3	0.00e+00	0	23	0	481296384	61	4064
2026-01-10 02:06:42.96	25.76	9.49	-47.3	-48.6	15.4	0.00e+00	0	23	0	486539264	61	4015
2026-01-10 02:06:43.96	25.79	9.57	-47.4	-48.7	15.3	0.00e+00	0	23	0	491782144	61	4057
2026-01-10 02:06:44.96	25.83	9.65	-47.3	-48.6	15.3	0.00e+00	0	23	0	498073600	61	4022
2026-01-10 02:06:45.95	25.86	9.74	-47.3	-48.5	15.4	0.00e+00	0	23	0	503316480	61	4004
2026-01-10 02:06:46.95	25.90	9.82	-47.3	-48.6	15.4	0.00e+00	0	23	0	508559360	61	4009
2026-01-10 02:06:47.95	25.93	9.91	-47.2	-48.5	15.4	0.00e+00	0	23	0	514850816	61	3966
2026-01-10 02:06:48.94	25.97	9.99	-47.3	-48.6	15.4	0.00e+00	0	23	0	520093696	61	4007
2026-01-10 02:06:49.94	26.00	10.07	-47.3	-48.5	15.4	0.00e+00	0	23	0	525336576	61	3989
2026-01-10 02:06:50.95	26.04	10.16	-47.3	-48.5	15.4	0.00e+00	0	23	0	531628032	61	3977
2026-01-10 02:06:51.95	26.08	10.25	-47.3	-48.6	15.4	0.00e+00	0	23	0	536870912	61	4005
2026-01-10 02:06:52.95	26.11	10.33	-47.2	-48.4	15.4	0.00e+00	0	23	0	543162368	61	3957
2026-01-10 02:06:53.94	26.15	10.42	-47.3	-48.6	15.4	0.00e+00	0	23	0	548405248	61	4005
2026-01-10 02:06:54.95	26.19	10.50	-47.3	-48.5	15.4	0.00e+00	0	23	0	553648128	61	3981
2026-01-10 02:06:55.94	26.23	10.59	-47.3	-48.6	15.4	0.00e+00	0	23	0	558891008	61	4008
2026-01-10 02:06:56.93	26.26	10.68	-47.3	-48.6	15.4	0.00e+00	0	23	0	565182464	61	4008
2026-01-10 02:06:57.93	26.30	10.76	-47.3	-48.6	15.4	0.00e+00	0	23	0	570425344	61	4019
2026-01-10 02:06:58.93	26.34	10.85	-47.3	-48.5	15.4	0.00e+00	0	23	0	576716800	61	3983
2026-01-10 02:06:59.93	26.38	10.94	-47.2	-48.4	15.4	0.00e+00	0	23	0	581959680	61	3952
2026-01-10 02:07:00.94	26.41	11.03	-47.3	-48.5	15.4	0.00e+00	0	23	0	587202560	61	3991
2026-01-10 02:07:01.94	26.45	11.12	-47.3	-48.5	15.4	0.00e+00	0	23	0	593494016	61	4003
2026-01-10 02:07:02.93	26.49	11.20	-47.4	-48.6	15.4	0.00e+00	0	23	0	598736896	61	4035
2026-01-10 02:07:03.94	26.53	11.29	-47.3	-48.5	15.4	0.00e+00	0	23	0	603979776	61	3999
2026-01-10 02:07:04.94	26.57	11.38	-47.2	-48.4	15.5	0.00e+00	0	23	0	610271232	61	3953
2026-01-10 02:07:05.95	26.61	11.47	-47.2	-48.4	15.5	0.00e+00	0	23	0	615514112	61	3939
2026-01-10 02:07:06.95	26.65	11.56	-47.2	-48.4	15.3	0.00e+00	0	23	0	621805568	60	4155
2026-01-10 02:07:07.95	26.69	11.65	-47.2	-48.5	15.3	0.00e+00	0	23	0	627048448	60	4203
2026-01-10 02:07:08.95	26.73	11.75	-47.2	-48.4	15.3	0.00e+00	0	23	0	632291328	60	4190
2026-01-10 02:07:09.95	26.77	11.84	-47.2	-48.4	15.3	0.00e+00	0	23	0	638582784	60	4170
2026-01-10 02:07:10.96	26.81	11.93	-47.2	-48.4	15.3	0.00e+00	0	23	0	643825664	60	4175
2026-01-10 02:07:11.96	26.85	12.02	-47.1	-48.3	15.3	0.00e+00	0	23	0	650117120	60	4104
2026-01-10 02:07:12.95	26.89	12.11	-47.1	-48.3	15.3	0.00e+00	0	23	0	655360000	60	4105
2026-01-10 02:07:13.95	26.93	12.20	-47.0	-48.2	15.4	0.00e+00	0	23	0	660602880	60	4096
2026-01-10 02:07:14.95	26.97	12.30	-47.1	-48.3	15.4	0.00e+00	0	23	0	666894336	60	4103
2026-01-10 02:07:15.95	27.01	12.39	-47.0	-48.2	15.4	0.00e+00	0	23	0	672137216	60	4081
2026-01-10 02:07:16.94	27.05	12.48	-47.0	-48.2	15.4	0.00e+00	0	23	0	677380096	60	4070
2026-01-10 02:07:17.94	27.10	12.58	-46.9	-48.1	15.5	0.00e+00	0	23	0	682622976	60	4017
2026-01-10 02:07:18.94	27.14	12.67	-46.9	-48.1	15.5	0.00e+00	0	23	0	688914432	60	4005
2026-01-10 02:07:19.93	27.18	12.76	-46.8	-48.0	15.5	0.00e+00	0	23	0	694157312	60	3973
2026-01-10 02:07:20.94	27.22	12.86	-46.9	-48.0	15.5	0.00e+00	0	23	0	700448768	60	4003
2026-01-10 02:07:21.94	27.27	12.95	-46.8	-48.0	15.5	0.00e+00	0	23	0	705691648	60	3964
2026-01-10 02:07:22.95	27.31	13.05	-46.8	-48.0	15.5	0.00e+00	0	23	0	711983104	60	3988
2026-01-10 02:07:23.94	27.35	13.15	-46.7	-47.9	15.5	0.00e+00	0	23	0	717225984	60	3941
2026-01-10 02:07:24.94	27.40	13.24	-46.8	-48.0	15.5	0.00e+00	0	23	0	722468864	60	3975
2026-01-10 02:07:25.93	27.44	13.34	-47.0	-48.2	15.3	0.00e+00	0	23	0	727711744	59	4305
2026-01-10 02:07:26.93	27.48	13.44	-46.9	-48.1	15.3	0.00e+00	0	23	0	734003200	59	4279
2026-01-10 02:07:27.93	27.53	13.53	-46.9	-48.1	15.3	0.00e+00	0	23	0	739246080	59	4289
2026-01-10 02:07:28.93	27.57	13.63	-46.9	-48.1	15.3	0.00e+00	0	23	0	744488960	59	4281
2026-01-10 02:07:29.93	27.62	13.73	-46.9	-48.1	15.4	0.00e+00	0	23	0	750780416	59	4262
2026-01-10 02:07:30.93	27.66	13.83	-46.9	-48.1	15.4	0.00e+00	0	23	0	756023296	59	4279
2026-01-10 02:07:31.93	27.71	13.93	-47.0	-48.2	15.3	0.00e+00	0	23	0	762314752	59	4337
2026-01-10 02:07:32.93	27.75	14.03	-46.8	-48.0	15.4	0.00e+00	0	23	0	767557632	59	4229
2026-01-10 02:07:33.93	27.80	14.13	-46.8	-48.0	15.4	0.00e+00	0	23	0	772800512	59	4201
2026-01-10 02:07:34.92	27.85	14.22	-46.8	-48.0	15.5	0.00e+00	0	23	0	779091968	59	4202
2026-01-10 02:07:35.93	27.89	14.33	-46.9	-48.1	15.4	0.00e+00	0	23	0	784334848	59	4266
2026-01-10 02:07:36.93	27.94	14.43	-46.8	-48.0	15.4	0.00e+00	0	23	0	789577728	59	4203
2026-01-10 02:07:37.93	27.99	14.53	-46.8	-47.9	15.4	0.00e+00	0	23	0	795869184	59	4193
2026-01-10 02:07:38.93	28.03	14.63	-46.8	-48.0	15.4	0.00e+00	0	23	0	801112064	59	4203
2026-01-10 02:07:39.93	28.08	14.73	-46.8	-48.0	15.4	0.00e+00	0	23	0	807403520	59	4212
2026-01-10 02:07:40.92	28.13	14.83	-46.9	-48.1	15.3	0.00e+00	0	23	0	812646400	59	4271
2026-01-10 02:07:41.92	28.18	14.94	-46.8	-48.0	15.4	0.00e+00	0	23	0	817889280	59	4209
2026-01-10 02:07:42.93	28.23	15.04	-46.7	-47.9	15.4	0.00e+00	0	23	0	824180736	59	4160
2026-01-10 02:07:43.93	28.28	15.14	-46.7	-47.9	15.4	0.00e+00	0	23	0	829423616	59	4187
2026-01-10 02:07:44.92	28.33	15.25	-46.8	-48.0	15.4	0.00e+00	0	23	0	834666496	59	4202
2026-01-10 02:07:45.92	28.37	15.35	-46.6	-47.8	15.5	0.00e+00	0	23	0	840957952	59	4126
2026-01-10 02:07:46.92	28.42	15.46	-46.6	-47.8	15.5	0.00e+00	0	23	0	846200832	59	4120
2026-01-10 02:07:47.92	28.47	15.56	-46.6	-47.8	15.5	0.00e+00	0	23	0	851443712	59	4109
2026-01-10 02:07:48.91	28.52	15.67	-46.5	-47.7	15.5	0.00e+00	0	23	0	857735168	59	4057
2026-01-10 02:07:49.91	28.58	15.77	-46.6	-47.7	15.5	0.00e+00	0	23	0	862978048	59	4091
2026-01-10 02:07:50.91	28.63	15.88	-46.5	-47.6	15.6	0.00e+00	0	23	0	869269504	59	4044
2026-01-10 02:07:51.91	28.68	15.99	-46.4	-47.5	15.6	0.00e+00	0	23	0	874512384	59	3995
2026-01-10 02:07:52.91	28.73	16.10	-46.4	-47.6	15.6	0.00e+00	0	23	0	879755264	59	4011
2026-01-10 02:07:53.91	28.78	16.21	-46.3	-47.5	15.7	0.00e+00	0	23	0	886046720	59	3959
2026-01-10 02:07:54.91	28.84	16.31	-46.3	-47.4	15.7	0.00e+00	0	23	0	891289600	59	3954
2026-01-10 02:07:55.91	28.89	16.42	-46.2	-47.3	15.7	0.00e+00	0	23	0	896532480	59	3897
2026-01-10 02:07:56.91	28.94	16.53	-46.1	-47.2	15.6	0.00e+00	0	23	0	902823936	58	4082
2026-01-10 02:07:57.91	28.99	16.64	-46.1	-47.2	15.6	0.00e+00	0	23	0	908066816	58	4079
2026-01-10 02:07:58.91	29.05	16.75	-46.2	-47.3	15.5	0.00e+00	0	23	0	913309696	58	4124
2026-01-10 02:07:59.90	29.10	16.86	-46.2	-47.3	15.5	0.00e+00	0	23	0	919601152	58	4127
2026-01-10 02:08:00.90	29.16	16.98	-45.9	-47.1	15.6	0.00e+00	0	23	0	924844032	58	4012
2026-01-10 02:08:01.90	29.21	17.09	-45.9	-47.1	15.6	0.00e+00	0	23	0	931135488	58	4006
2026-01-10 02:08:02.90	29.27	17.20	-45.9	-47.1	15.6	0.00e+00	0	23	0	936378368	58	4011
2026-01-10 02:08:03.90	29.32	17.31	-46.0	-47.1	15.6	0.00e+00	0	23	0	941621248	58	4033
2026-01-10 02:08:04.90	29.38	17.43	-46.0	-47.1	15.6	0.00e+00	0	23	0	947912704	58	4045
2026-01-10 02:08:05.91	29.44	17.54	-46.0	-47.1	15.6	0.00e+00	0	23	0	953155584	58	4051
2026-01-10 02:08:06.91	29.49	17.66	-46.0	-47.2	15.6	0.00e+00	0	23	0	958398464	58	4065
2026-01-10 02:08:07.91	29.55	17.77	-46.0	-47.1	15.6	0.00e+00	0	23	0	964689920	58	4035
2026-01-10 02:08:08.92	29.61	17.89	-46.0	-47.1	15.6	0.00e+00	0	23	0	969932800	58	4039
2026-01-10 02:08:09.92	29.67	18.00	-46.0	-47.1	15.6	0.00e+00	0	23	0	975175680	58	4023
2026-01-10 02:08:10.91	29.73	18.12	-45.9	-47.0	15.7	0.00e+00	0	23	0	981467136	58	3976
2026-01-10 02:08:11.91	29.79	18.24	-45.9	-47.1	15.6	0.00e+00	0	23	0	986710016	58	4013
2026-01-10 02:08:12.92	29.85	18.36	-45.8	-46.9	15.7	0.00e+00	0	23	0	993001472	58	3938
2026-01-10 02:08:13.92	29.91	18.47	-45.7	-46.8	15.7	0.00e+00	0	23	0	998244352	58	3895
2026-01-10 02:08:14.92	29.97	18.59	-45.8	-46.9	15.7	0.00e+00	0	23	0	1003487232	58	3921
2026-01-10 02:08:15.93	30.03	18.71	-45.6	-46.7	15.6	0.00e+00	0	23	0	1009778688	57	4062
2026-01-10 02:08:16.92	30.09	18.83	-45.5	-46.6	15.6	0.00e+00	0	23	0	1015021568	57	4023
2026-01-10 02:08:17.92	30.15	18.95	-45.6	-46.7	15.6	0.00e+00	0	23	0	1020264448	57	4064
2026-01-10 02:08:18.91	30.21	19.07	-45.5	-46.6	15.6	0.00e+00	0	23	0	1026555904	57	4041
2026-01-10 02:08:19.92	30.27	19.20	-45.5	-46.6	15.7	0.00e+00	0	23	0	1031798784	57	4032
2026-01-10 02:08:20.91	30.34	19.32	-45.6	-46.7	15.6	0.00e+00	0	23	0	1037041664	57	4060
2026-01-10 02:08:21.92	30.40	19.44	-45.5	-46.6	15.7	0.00e+00	0	23	0	1043333120	57	4013
2026-01-10 02:08:22.93	30.47	19.57	-45.5	-46.6	15.6	0.00e+00	0	23	0	1048576000	57	4050
2026-01-10 02:08:23.92	30.53	19.69	-45.5	-46.6	15.6	0.00e+00	0	23	0	1054867456	57	4050
2026-01-10 02:08:24.93	30.60	19.81	-45.6	-46.7	15.6	0.00e+00	0	23	0	1060110336	57	4060
2026-01-10 02:08:25.93	30.66	19.94	-45.6	-46.7	15.6	0.00e+00	0	23	0	1065353216	57	4084
2026-01-10 02:08:26.92	30.73	20.06	-45.7	-46.8	15.6	0.00e+00	0	23	0	1071644672	57	4134
2026-01-10 02:08:27.93	30.79	20.19	-45.6	-46.7	15.6	0.00e+00	0	23	0	1076887552	57	4065
2026-01-10 02:08:28.92	30.86	20.32	-45.5	-46.6	15.6	0.00e+00	0	23	0	1082130432	57	4050
2026-01-10 02:08:29.92	30.93	20.44	-45.5	-46.6	15.6	0.00e+00	0	23	0	1088421888	57	4049
2026-01-10 02:08:30.91	31.00	20.57	-45.6	-46.7	15.6	0.00e+00	0	23	0	1093664768	57	4091
2026-01-10 02:08:31.92	31.06	20.70	-45.5	-46.6	15.6	0.00e+00	0	23	0	1098907648	57	4048
2026-01-10 02:08:32.92	31.13	20.83	-45.6	-46.7	15.6	0.00e+00	0	23	0	1105199104	57	4057
2026-01-10 02:08:33.92	31.20	20.96	-45.5	-46.6	15.7	0.00e+00	0	23	0	1110441984	57	4028
2026-01-10 02:08:34.92	31.27	21.09	-45.4	-46.5	15.7	0.00e+00	0	23	0	1116733440	57	4003
2026-01-10 02:08:35.93	31.34	21.22	-45.5	-46.6	15.7	0.00e+00	0	23	0	1121976320	57	4013
2026-01-10 02:08:36.92	31.42	21.36	-45.6	-46.7	15.6	0.00e+00	0	23	0	1127219200	57	4085
2026-01-10 02:08:37.92	31.49	21.49	-45.6	-46.7	15.6	0.00e+00	0	23	0	1133510656	57	4072
2026-01-10 02:08:38.91	31.56	21.62	-45.5	-46.6	15.7	0.00e+00	0	23	0	1138753536	57	4033
2026-01-10 02:08:39.91	31.63	21.75	-45.6	-46.7	15.6	0.00e+00	0	23	0	1143996416	57	4073
2026-01-10 02:08:40.91	31.71	21.89	-45.6	-46.7	15.6	0.00e+00	0	23	0	1150287872	57	4096
2026-01-10 02:08:41.91	31.78	22.02	-45.5	-46.6	15.7	0.00e+00	0	23	0	1155530752	57	4032
2026-01-10 02:08:42.91	31.86	22.16	-45.5	-46.6	15.7	0.00e+00	0	23	0	1160773632	57	4050
2026-01-10 02:08:43.91	31.93	22.30	-45.5	-46.6	15.7	0.00e+00	0	23	0	1167065088	57	4027
2026-01-10 02:08:44.91	32.01	22.43	-45.4	-46.5	15.7	0.00e+00	0	23	0	1172307968	57	3967
2026-01-10 02:08:45.91	32.08	22.57	-45.1	-46.1	15.7	0.00e+00	0	23	0	1178599424	56	4041
2026-01-10 02:08:46.91	32.16	22.71	-44.9	-46.0	15.7	0.00e+00	0	23	0	1183842304	56	3992
2026-01-10 02:08:47.91	32.24	22.85	-44.9	-46.0	15.7	0.00e+00	0	23	0	1189085184	56	3983
2026-01-10 02:08:48.91	32.32	22.99	-44.9	-46.0	15.7	0.00e+00	0	23	0	1195376640	56	3980
2026-01-10 02:08:49.92	32.40	23.13	-45.0	-46.0	15.7	0.00e+00	0	23	0	1200619520	56	3995
2026-01-10 02:08:50.92	32.48	23.27	-44.9	-46.0	15.7	0.00e+00	0	23	0	1205862400	56	3972
2026-01-10 02:08:51.92	32.56	23.42	-45.0	-46.1	15.7	0.00e+00	0	23	0	1212153856	56	4007
2026-01-10 02:08:52.92	32.64	23.56	-44.8	-45.8	15.8	0.00e+00	0	23	0	1217396736	56	3912
2026-01-10 02:08:53.92	32.72	23.70	-44.9	-46.0	15.7	0.00e+00	0	23	0	1222639616	56	3965
2026-01-10 02:08:54.93	32.81	23.85	-44.7	-45.8	15.8	0.00e+00	0	23	0	1228931072	56	3881
2026-01-10 02:08:55.93	32.89	24.00	-44.6	-45.6	15.7	0.00e+00	0	23	0	1234173952	55	4050
2026-01-10 02:08:56.93	32.98	24.14	-44.6	-45.7	15.7	0.00e+00	0	23	0	1240465408	55	4089
2026-01-10 02:08:57.93	33.06	24.29	-44.7	-45.7	15.7	0.00e+00	0	23	0	1245708288	55	4097
2026-01-10 02:08:58.92	33.15	24.43	-44.7	-45.8	15.7	0.00e+00	0	23	0	1250951168	55	4112
2026-01-10 02:08:59.92	33.23	24.58	-44.7	-45.8	15.7	0.00e+00	0	23	0	1257242624	55	4121
2026-01-10 02:09:00.92	33.32	24.73	-44.6	-45.7	15.7	0.00e+00	0	23	0	1262485504	55	4066
2026-01-10 02:09:01.93	33.41	24.88	-44.6	-45.7	15.7	0.00e+00	0	23	0	1267728384	55	4075
2026-01-10 02:09:02.93	33.50	25.04	-44.6	-45.7	15.7	0.00e+00	0	23	0	1274019840	55	4066
2026-01-10 02:09:03.93	33.59	25.19	-44.6	-45.7	15.7	0.00e+00	0	23	0	1279262720	55	4081
2026-01-10 02:09:04.93	33.68	25.34	-44.5	-45.6	15.7	0.00e+00	0	23	0	1284505600	55	4030
2026-01-10 02:09:05.93	33.77	25.49	-44.5	-45.6	15.8	0.00e+00	0	23	0	1290797056	55	4005
2026-01-10 02:09:06.93	33.86	25.65	-44.3	-45.3	15.8	0.00e+00	0	23	0	1296039936	55	3909
2026-01-10 02:09:07.93	33.96	25.80	-44.3	-45.3	15.9	0.00e+00	0	23	0	1302331392	55	3903
2026-01-10 02:09:08.93	34.05	25.96	-44.3	-45.4	15.8	0.00e+00	0	23	0	1307574272	55	3934
2026-01-10 02:09:09.93	34.15	26.11	-44.5	-45.5	15.7	0.00e+00	0	23	0	1312817152	55	3990
2026-01-10 02:09:10.94	34.24	26.27	-44.5	-45.6	15.7	0.00e+00	0	23	0	1319108608	55	4020
2026-01-10 02:09:11.94	34.34	26.43	-44.7	-45.7	15.7	0.00e+00	0	23	0	1324351488	55	4096
2026-01-10 02:09:12.93	34.44	26.59	-44.8	-45.8	15.7	0.00e+00	0	23	0	1329594368	55	4139
2026-01-10 02:09:13.93	34.53	26.75	-44.6	-45.7	15.7	0.00e+00	0	23	0	1335885824	55	4064
2026-01-10 02:09:14.93	34.63	26.91	-44.6	-45.7	15.7	0.00e+00	0	23	0	1341128704	55	4063
2026-01-10 02:09:15.92	34.73	27.07	-44.6	-45.7	15.7	0.00e+00	0	23	0	1346371584	55	4076
2026-01-10 02:09:16.92	34.84	27.23	-44.5	-45.6	15.7	0.00e+00	0	23	0	1352663040	55	4031
2026-01-10 02:09:17.92	34.94	27.40	-44.4	-45.5	15.8	0.00e+00	0	23	0	1357905920	55	3972
2026-01-10 02:09:18.93	35.04	27.56	-44.3	-45.4	15.8	0.00e+00	0	23	0	1364197376	55	3934
2026-01-10 02:09:19.93	35.15	27.73	-44.4	-45.5	15.8	0.00e+00	0	23	0	1369440256	55	3978
2026-01-10 02:09:20.92	35.25	27.89	-44.4	-45.4	15.8	0.00e+00	0	23	0	1374683136	55	3956
2026-01-10 02:09:21.92	35.36	28.06	-44.3	-45.4	15.8	0.00e+00	0	23	0	1380974592	55	3941
2026-01-10 02:09:22.91	35.47	28.22	-44.4	-45.4	15.8	0.00e+00	0	23	0	1386217472	55	3948
2026-01-10 02:09:23.92	35.58	28.40	-44.3	-45.4	15.8	0.00e+00	0	23	0	1391460352	55	3931
2026-01-10 02:09:24.91	35.68	28.56	-44.4	-45.4	15.8	0.00e+00	0	23	0	1397751808	55	3946
2026-01-10 02:09:25.91	35.80	28.73	-44.4	-45.4	15.8	0.00e+00	0	23	0	1402994688	55	3951
2026-01-10 02:09:26.91	35.91	28.91	-44.2	-45.2	15.9	0.00e+00	0	23	0	1409286144	55	3858
2026-01-10 02:09:27.90	36.02	29.08	-44.2	-45.2	15.7	0.00e+00	0	23	0	1414529024	54	4093
2026-01-10 02:09:28.90	36.14	29.25	-44.1	-45.2	15.7	0.00e+00	0	23	0	1419771904	54	4078
2026-01-10 02:09:29.90	36.25	29.43	-44.1	-45.2	15.7	0.00e+00	0	23	0	1426063360	54	4052
2026-01-10 02:09:30.90	36.37	29.60	-44.1	-45.2	15.7	0.00e+00	0	23	0	1431306240	54	4054
2026-01-10 02:09:31.89	36.49	29.78	-44.2	-45.3	15.7	0.00e+00	0	23	0	1436549120	54	4107
2026-01-10 02:09:32.89	36.60	29.95	-44.1	-45.1	15.8	0.00e+00	0	23	0	1441792000	54	4030
2026-01-10 02:09:33.88	36.72	30.13	-44.2	-45.3	15.7	0.00e+00	0	23	0	1448083456	54	4109
2026-01-10 02:09:34.88	36.85	30.31	-44.3	-45.4	15.7	0.00e+00	0	23	0	1453326336	54	4148
2026-01-10 02:09:35.88	36.97	30.49	-44.2	-45.3	15.7	0.00e+00	0	23	0	1459617792	54	4108
2026-01-10 02:09:36.88	37.09	30.67	-44.2	-45.2	15.7	0.00e+00	0	23	0	1464860672	54	4093
2026-01-10 02:09:37.88	37.22	30.85	-44.2	-45.2	15.8	0.00e+00	0	23	0	1470103552	54	4090
2026-01-10 02:09:38.89	37.35	31.04	-44.2	-45.3	15.7	0.00e+00	0	23	0	1476395008	54	4099
2026-01-10 02:09:39.89	37.48	31.22	-44.2	-45.3	15.7	0.00e+00	0	23	0	1481637888	54	4107
2026-01-10 02:09:40.89	37.61	31.41	-44.2	-45.3	15.7	0.00e+00	0	23	0	1486880768	54	4116
2026-01-10 02:09:41.89	37.74	31.60	-44.4	-45.5	15.7	0.00e+00	0	23	0	1493172224	54	4217
2026-01-10 02:09:42.88	37.87	31.78	-44.4	-45.5	15.7	0.00e+00	0	23	0	1498415104	54	4219
2026-01-10 02:09:43.88	38.01	31.97	-44.4	-45.5	15.7	0.00e+00	0	23	0	1503657984	54	4207
2026-01-10 02:09:44.88	38.14	32.16	-44.3	-45.4	15.7	0.00e+00	0	23	0	1509949440	54	4178
2026-01-10 02:09:45.87	38.28	32.35	-44.4	-45.4	15.7	0.00e+00	0	23	0	1515192320	54	4187
2026-01-10 02:09:46.88	38.42	32.54	-44.2	-45.2	15.8	0.00e+00	0	23	0	1521483776	54	4083
2026-01-10 02:09:47.87	38.56	32.73	-44.2	-45.3	15.7	0.00e+00	0	23	0	1526726656	54	4114
2026-01-10 02:09:48.87	38.70	32.93	-44.3	-45.4	15.7	0.00e+00	0	23	0	1531969536	54	4160
2026-01-10 02:09:49.87	38.85	33.12	-44.3	-45.4	15.7	0.00e+00	0	23	0	1538260992	54	4153
2026-01-10 02:09:50.87	38.99	33.32	-44.4	-45.5	15.7	0.00e+00	0	23	0	1543503872	54	4216
2026-01-10 02:09:51.86	39.14	33.51	-44.4	-45.5	15.7	0.00e+00	0	23	0	1548746752	54	4201
2026-01-10 02:09:52.86	39.29	33.71	-44.4	-45.5	15.7	0.00e+00	0	23	0	1555038208	54	4204
2026-01-10 02:09:53.86	39.44	33.91	-44.1	-45.1	15.8	0.00e+00	0	23	0	1560281088	54	4030
2026-01-10 02:09:54.85	39.59	34.11	-44.0	-45.0	15.8	0.00e+00	0	23	0	1565523968	54	3991
2026-01-10 02:09:55.85	39.75	34.31	-44.0	-45.0	15.8	0.00e+00	0	23	0	1571815424	54	3995
2026-01-10 02:09:56.85	39.90	34.51	-44.0	-45.0	15.8	0.00e+00	0	23	0	1577058304	54	3997
2026-01-10 02:09:57.85	40.06	34.72	-44.1	-45.1	15.8	0.00e+00	0	23	0	1583349760	54	4039
2026-01-10 02:09:58.85	40.22	34.92	-44.1	-45.1	15.8	0.00e+00	0	23	0	1588592640	54	4046
2026-01-10 02:09:59.84	40.38	35.13	-44.0	-45.1	15.8	0.00e+00	0	23	0	1593835520	54	4019
2026-01-10 02:10:00.85	40.55	35.33	-44.1	-45.2	15.8	0.00e+00	0	23	0	1599078400	54	4062
2026-01-10 02:10:01.85	40.72	35.54	-44.0	-45.0	15.8	0.00e+00	0	23	0	1605369856	54	4004
2026-01-10 02:10:02.84	40.88	35.75	-43.9	-44.9	15.8	0.00e+00	0	23	0	1610612736	54	3949
2026-01-10 02:10:03.84	41.05	35.96	-43.8	-44.9	15.9	0.00e+00	0	23	0	1615855616	54	3926
2026-01-10 02:10:04.84	41.23	36.17	-43.9	-44.9	15.8	0.00e+00	0	23	0	1622147072	54	3931
2026-01-10 02:10:05.84	41.40	36.38	-43.8	-44.8	15.9	0.00e+00	0	23	0	1627389952	54	3890
2026-01-10 02:10:06.84	41.58	36.60	-43.7	-44.7	15.9	0.00e+00	0	23	0	1633681408	54	3852
2026-01-10 02:10:07.83	41.76	36.81	-43.7	-44.7	15.8	0.00e+00	0	23	0	1638924288	53	4067
2026-01-10 02:10:08.84	41.94	37.03	-43.7	-44.7	15.8	0.00e+00	0	23	0	1644167168	53	4093
2026-01-10 02:10:09.84	42.13	37.24	-43.7	-44.8	15.8	0.00e+00	0	23	0	1650458624	53	4102
2026-01-10 02:10:10.83	42.31	37.46	-43.6	-44.6	15.8	0.00e+00	0	23	0	1655701504	53	4028
2026-01-10 02:10:11.83	42.50	37.68	-43.7	-44.7	15.8	0.00e+00	0	23	0	1660944384	53	4070
2026-01-10 02:10:12.83	42.69	37.90	-43.7	-44.8	15.8	0.00e+00	0	24	0	1667235840	53	4101
2026-01-10 02:10:13.82	42.88	38.12	-43.9	-45.0	15.7	0.00e+00	0	23	0	1672478720	53	4202
2026-01-10 02:10:14.82	43.08	38.34	-44.0	-45.0	15.7	0.00e+00	0	23	0	1677721600	53	4236
2026-01-10 02:10:15.82	43.28	38.56	-44.1	-45.1	15.7	0.00e+00	0	23	0	1684013056	53	4269
2026-01-10 02:10:16.82	43.48	38.79	-44.2	-45.2	15.7	0.00e+00	0	23	0	1689255936	53	4329
2026-01-10 02:10:17.83	43.69	39.02	-44.2	-45.2	15.7	0.00e+00	0	23	0	1695547392	53	4336
2026-01-10 02:10:18.82	43.90	39.24	-44.3	-45.4	15.7	0.00e+00	0	24	0	1700790272	53	4397
2026-01-10 02:10:19.81	44.11	39.47	-44.3	-45.4	15.7	0.00e+00	0	23	0	1706033152	53	4394
2026-01-10 02:10:20.81	44.32	39.70	-44.0	-45.1	15.7	0.00e+00	0	23	0	1712324608	53	4251
2026-01-10 02:10:21.79	44.53	39.92	-44.0	-45.0	15.7	0.00e+00	0	23	0	1717567488	53	4222
2026-01-10 02:10:22.79	44.75	40.15	-44.0	-45.0	15.7	0.00e+00	0	23	0	1722810368	53	4233
2026-01-10 02:10:23.79	44.97	40.39	-43.9	-45.0	15.7	0.00e+00	0	24	0	1728053248	53	4208
2026-01-10 02:10:24.79	45.20	40.62	-44.0	-45.0	15.7	0.00e+00	0	23	0	1734344704	53	4225
2026-01-10 02:10:25.79	45.43	40.85	-44.1	-45.2	15.7	0.00e+00	0	23	0	1739587584	53	4294
2026-01-10 02:10:26.79	45.66	41.09	-44.2	-45.2	15.7	0.00e+00	0	23	0	1745879040	53	4327
2026-01-10 02:10:27.78	45.89	41.32	-44.1	-45.2	15.7	0.00e+00	0	23	0	1751121920	53	4310
2026-01-10 02:10:28.77	46.13	41.56	-44.1	-45.1	15.7	0.00e+00	0	23	0	1756364800	53	4280
2026-01-10 02:10:29.76	46.37	41.79	-44.2	-45.2	15.7	0.00e+00	0	23	0	1762656256	53	4327
2026-01-10 02:10:30.75	46.61	42.03	-44.3	-45.3	15.7	0.00e+00	0	24	0	1767899136	53	4384
2026-01-10 02:10:31.75	46.86	42.27	-44.3	-45.3	15.7	0.00e+00	0	23	0	1773142016	53	4371
2026-01-10 02:10:32.74	47.11	42.51	-44.3	-45.3	15.7	0.00e+00	0	23	0	1778384896	53	4374
2026-01-10 02:10:33.74	47.37	42.75	-44.2	-45.3	15.7	0.00e+00	0	23	0	1784676352	53	4356
2026-01-10 02:10:34.74	47.63	43.00	-44.2	-45.3	15.7	0.00e+00	0	24	0	1789919232	53	4353
2026-01-10 02:10:35.73	47.89	43.24	-44.2	-45.3	15.7	0.00e+00	0	23	0	1796210688	53	4342
2026-01-10 02:10:36.73	48.16	43.48	-44.2	-45.2	15.7	0.00e+00	0	23	0	1801453568	53	4334
2026-01-10 02:10:37.74	48.44	43.73	-44.2	-45.3	15.7	0.00e+00	0	23	0	1806696448	53	4369
2026-01-10 02:10:38.73	48.71	43.98	-44.5	-45.6	15.7	0.00e+00	0	23	0	1812987904	54	4254
2026-01-10 02:10:39.73	48.99	44.22	-44.7	-45.7	15.7	0.00e+00	0	23	0	1818230784	54	4340
2026-01-10 02:10:40.73	49.28	44.47	-44.7	-45.7	15.7	0.00e+00	0	23	0	1823473664	54	4325
2026-01-10 02:10:41.73	49.57	44.72	-44.5	-45.5	15.7	0.00e+00	0	23	0	1829765120	54	4240
2026-01-10 02:10:42.72	49.86	44.97	-44.6	-45.7	15.7	0.00e+00	0	23	0	1835008000	54	4306
2026-01-10 02:10:43.73	50.16	45.22	-44.6	-45.7	15.7	0.00e+00	0	23	0	1840250880	54	4302
2026-01-10 02:10:44.73	50.47	45.47	-44.5	-45.6	15.7	0.00e+00	0	23	0	1846542336	54	4270
2026-01-10 02:10:45.72	50.77	45.72	-44.4	-45.5	15.7	0.00e+00	0	23	0	1851785216	54	4213
2026-01-10 02:10:46.72	51.09	45.98	-44.5	-45.6	15.7	0.00e+00	0	23	0	1858076672	54	4259
2026-01-10 02:10:47.72	51.41	46.23	-44.4	-45.5	15.7	0.00e+00	0	23	0	1863319552	54	4195
2026-01-10 02:10:48.71	51.73	46.48	-44.4	-45.4	15.7	0.00e+00	0	23	0	1868562432	54	4175
2026-01-10 02:10:49.71	52.06	46.74	-44.4	-45.4	15.7	0.00e+00	0	23	0	1874853888	54	4183
2026-01-10 02:10:50.71	52.39	46.99	-44.4	-45.5	15.7	0.00e+00	0	23	0	1880096768	54	4198
2026-01-10 02:10:51.72	52.73	47.25	-44.2	-45.2	15.8	0.00e+00	0	23	0	1885339648	54	4090
2026-01-10 02:10:52.72	53.08	47.51	-44.3	-45.3	15.7	0.00e+00	0	23	0	1891631104	54	4130
2026-01-10 02:10:53.72	53.43	47.76	-44.3	-45.4	15.7	0.00e+00	0	23	0	1896873984	54	4164
2026-01-10 02:10:54.72	53.79	48.02	-44.4	-45.5	15.7	0.00e+00	0	23	0	1903165440	54	4206
2026-01-10 02:10:55.73	54.15	48.28	-44.4	-45.4	15.7	0.00e+00	0	23	0	1908408320	54	4181
2026-01-10 02:10:56.73	54.52	48.54	-44.4	-45.4	15.7	0.00e+00	0	23	0	1913651200	54	4178
2026-01-10 02:10:57.72	54.89	48.80	-44.6	-45.7	15.7	0.00e+00	0	23	0	1919942656	54	4294
2026-01-10 02:10:58.72	55.27	49.05	-44.7	-45.8	15.6	0.00e+00	0	23	0	1925185536	54	4363
2026-01-10 02:10:59.72	55.66	49.31	-44.8	-45.8	15.6	0.00e+00	0	23	0	1930428416	54	4384
2026-01-10 02:11:00.71	56.05	49.57	-44.8	-45.9	15.6	0.00e+00	0	24	0	1936719872	54	4393
2026-01-10 02:11:01.71	56.45	49.83	-44.8	-45.9	15.6	0.00e+00	0	23	0	1941962752	54	4419
2026-01-10 02:11:02.71	56.86	50.09	-45.0	-46.0	15.6	0.00e+00	0	23	0	1947205632	55	4242
2026-01-10 02:11:03.71	57.27	50.35	-44.8	-45.9	15.7	0.00e+00	0	23	0	1953497088	55	4165
2026-01-10 02:11:04.71	57.69	50.60	-44.6	-45.7	15.7	0.00e+00	0	23	0	1958739968	55	4061
2026-01-10 02:11:05.70	58.12	50.86	-44.7	-45.8	15.7	0.00e+00	0	23	0	1965031424	55	4112
2026-01-10 02:11:06.70	58.55	51.12	-44.9	-46.0	15.6	0.00e+00	0	23	0	1970274304	55	4222
2026-01-10 02:11:07.70	59.00	51.38	-45.3	-46.4	15.6	0.00e+00	0	23	0	1975517184	55	4401
2026-01-10 02:11:08.71	59.45	51.64	-45.1	-46.2	15.6	0.00e+00	0	23	0	1981808640	55	4310
2026-01-10 02:11:09.70	59.91	51.89	-44.8	-45.9	15.7	0.00e+00	0	23	0	1987051520	55	4160
2026-01-10 02:11:10.70	60.37	52.15	-44.9	-46.0	15.7	0.00e+00	0	24	0	1992294400	55	4200
2026-01-10 02:11:11.70	60.85	52.40	-45.0	-46.1	15.6	0.00e+00	0	23	0	1998585856	55	4287
2026-01-10 02:11:12.70	61.33	52.66	-45.2	-46.3	15.6	0.00e+00	0	23	0	2003828736	55	4344
2026-01-10 02:11:13.70	61.82	52.91	-45.0	-46.0	15.6	0.00e+00	0	23	0	2009071616	55	4239
2026-01-10 02:11:14.69	62.32	53.17	-44.9	-46.0	15.6	0.00e+00	0	23	0	2015363072	55	4215
2026-01-10 02:11:15.69	62.83	53.42	-44.9	-46.0	15.6	0.00e+00	0	23	0	2020605952	55	4219
2026-01-10 02:11:16.69	63.35	53.67	-45.1	-46.2	15.6	0.00e+00	0	23	0	2025848832	55	4325
2026-01-10 02:11:17.69	63.87	53.92	-45.3	-46.4	15.6	0.00e+00	0	23	0	2032140288	55	4438
2026-01-10 02:11:18.68	64.40	54.17	-45.2	-46.3	15.6	0.00e+00	0	23	0	2037383168	55	4356
2026-01-10 02:11:19.68	64.95	54.42	-45.2	-46.3	15.6	0.00e+00	0	23	0	2042626048	55	4345
2026-01-10 02:11:20.68	65.50	54.66	-45.1	-46.2	15.6	0.00e+00	0	23	0	2048917504	55	4294
2026-01-10 02:11:21.68	66.06	54.91	-45.3	-46.4	15.5	0.00e+00	0	23	0	2054160384	55	4431
2026-01-10 02:11:22.68	66.64	55.15	-45.7	-46.8	15.5	0.00e+00	0	23	0	2059403264	56	4384
2026-01-10 02:11:23.68	67.22	55.40	-45.8	-47.0	15.5	0.00e+00	0	23	0	2065694720	56	4452
2026-01-10 02:11:24.68	67.82	55.64	-45.6	-46.8	15.6	0.00e+00	0	23	0	2070937600	56	4341
2026-01-10 02:11:25.68	68.42	55.87	-45.5	-46.6	15.6	0.00e+00	0	23	0	2077229056	56	4250
2026-01-10 02:11:26.68	69.03	56.11	-45.2	-46.3	15.7	0.00e+00	0	23	0	2082471936	56	4115
2026-01-10 02:11:27.68	69.66	56.34	-45.5	-46.6	15.6	0.00e+00	0	24	0	2087714816	56	4244
2026-01-10 02:11:28.67	70.29	56.57	-45.4	-46.5	15.6	0.00e+00	0	23	0	2094006272	56	4213
2026-01-10 02:11:29.67	70.93	56.80	-45.5	-46.6	15.6	0.00e+00	0	24	0	2099249152	56	4259
2026-01-10 02:11:30.67	71.59	57.03	-45.6	-46.7	15.6	0.00e+00	0	23	0	2104492032	56	4325
2026-01-10 02:11:31.67	72.25	57.25	-45.5	-46.6	15.6	0.00e+00	0	23	0	2110783488	56	4250
2026-01-10 02:11:32.67	72.93	57.48	-45.2	-46.2	15.7	0.00e+00	0	23	0	2116026368	56	4084
2026-01-10 02:11:33.67	73.62	57.69	-45.1	-46.2	15.7	0.00e+00	0	23	0	2121269248	56	4067
2026-01-10 02:11:34.66	74.31	57.91	-45.4	-46.5	15.6	0.00e+00	0	23	0	2127560704	56	4218
2026-01-10 02:11:35.66	75.02	58.12	-45.4	-46.5	15.6	0.00e+00	0	24	0	2132803584	56	4218
2026-01-10 02:11:36.66	75.74	58.33	-45.3	-46.4	15.7	0.00e+00	0	23	0	2139095040	56	4180
2026-01-10 02:11:37.65	76.47	58.53	-45.2	-46.2	15.7	0.00e+00	0	23	0	2144337920	56	4082
2026-01-10 02:11:38.65	77.22	58.73	-45.0	-46.1	15.8	0.00e+00	0	23	0	2149580800	56	4005
2026-01-10 02:11:39.65	77.97	58.93	-45.1	-46.2	15.7	0.00e+00	0	23	0	2155872256	56	4087
2026-01-10 02:11:40.64	78.73	59.12	-45.2	-46.3	15.7	0.00e+00	0	23	0	2161115136	56	4108
2026-01-10 02:11:41.64	79.51	59.31	-45.2	-46.3	15.7	0.00e+00	0	23	0	2166358016	56	4141
2026-01-10 02:11:42.63	80.29	59.50	-44.9	-46.0	15.8	0.00e+00	0	24	0	2171600896	56	3997
2026-01-10 02:11:43.63	81.09	59.68	-44.8	-45.9	15.8	0.00e+00	0	23	0	2177892352	56	3946
2026-01-10 02:11:44.62	81.89	59.85	-44.7	-45.7	15.9	0.00e+00	0	23	0	2183135232	56	3867
2026-01-10 02:11:45.62	82.71	60.02	-44.5	-45.5	15.8	0.00e+00	0	23	0	2189426688	55	4001
2026-01-10 02:11:46.62	83.55	60.19	-44.5	-45.5	15.8	0.00e+00	0	23	0	2194669568	55	4002
2026-01-10 02:11:47.61	84.38	60.35	-44.4	-45.5	15.8	0.00e+00	0	23	0	2199912448	55	3986
2026-01-10 02:11:48.62	85.25	60.51	-44.2	-45.2	15.7	0.00e+00	0	23	0	2206203904	54	4067
2026-01-10 02:11:49.62	86.11	60.66	-44.2	-45.3	15.7	0.00e+00	0	23	0	2211446784	54	4106
2026-01-10 02:11:50.62	86.99	60.81	-44.5	-45.6	15.7	0.00e+00	0	24	0	2216689664	54	4267
2026-01-10 02:11:51.62	87.87	60.95	-44.4	-45.5	15.7	0.00e+00	0	23	0	2222981120	54	4221
2026-01-10 02:11:52.62	88.77	61.08	-44.3	-45.4	15.7	0.00e+00	0	23	0	2228224000	54	4152
2026-01-10 02:11:53.62	89.67	61.21	-44.4	-45.4	15.7	0.00e+00	0	23	0	2233466880	54	4162
2026-01-10 02:11:54.62	90.58	61.34	-44.2	-45.2	15.8	0.00e+00	0	23	0	2239758336	54	4092
2026-01-10 02:11:55.62	91.51	61.45	-44.4	-45.4	15.7	0.00e+00	0	23	0	2245001216	54	4189
2026-01-10 02:11:56.62	92.44	61.56	-44.3	-45.4	15.7	0.00e+00	0	23	0	2251292672	54	4174
2026-01-10 02:11:57.63	93.38	61.67	-44.2	-45.3	15.7	0.00e+00	0	23	0	2256535552	54	4112
2026-01-10 02:11:58.64	94.34	61.77	-44.1	-45.1	15.8	0.00e+00	0	24	0	2261778432	54	4050
2026-01-10 02:11:59.64	95.29	61.86	-43.8	-44.8	15.9	0.00e+00	0	24	0	2268069888	54	3905
2026-01-10 02:12:00.64	96.25	61.94	-43.8	-44.8	15.9	0.00e+00	0	23	0	2273312768	54	3876
2026-01-10 02:12:01.64	97.22	62.02	-44.0	-45.1	15.8	0.00e+00	0	23	0	2278555648	54	4006
2026-01-10 02:12:02.64	98.20	62.09	-44.1	-45.2	15.8	0.00e+00	0	23	0	2284847104	54	4066
2026-01-10 02:12:03.64	99.17	62.16	-44.0	-45.1	15.8	0.00e+00	0	23	0	2290089984	54	4014
2026-01-10 02:12:04.64	100.16	62.22	-44.1	-45.1	15.8	0.00e+00	0	24	0	2295332864	54	4022
2026-01-10 02:12:05.63	101.13	62.27	-44.1	-45.2	15.8	0.00e+00	0	23	0	2301624320	54	4064
2026-01-10 02:12:06.63	102.13	62.31	-44.0	-45.0	15.8	0.00e+00	0	23	0	2306867200	54	3982
2026-01-10 02:12:07.63	103.12	62.34	-44.0	-45.1	15.8	0.00e+00	0	24	0	2313158656	54	4006
2026-01-10 02:12:08.63	104.12	62.37	-44.0	-45.0	15.8	0.00e+00	0	23	0	2318401536	54	4004
2026-01-10 02:12:09.63	105.12	62.39	-43.8	-44.9	15.8	0.00e+00	0	24	0	2323644416	54	3920
2026-01-10 02:12:10.63	106.12	62.41	-43.9	-44.9	15.8	0.00e+00	0	23	0	2329935872	54	3957
2026-01-10 02:12:11.63	107.12	62.41	-44.0	-45.0	15.8	0.00e+00	0	23	0	2335178752	54	3992
2026-01-10 02:12:12.63	108.12	62.41	-43.9	-45.0	15.8	0.00e+00	0	23	0	2340421632	54	3968
2026-01-10 02:12:13.64	109.13	62.41	-44.1	-45.1	15.8	0.00e+00	0	24	0	2346713088	54	4023
2026-01-10 02:12:14.64	110.13	62.39	-44.1	-45.1	15.8	0.00e+00	0	23	0	2351955968	54	4051
2026-01-10 02:12:15.64	111.13	62.37	-44.0	-45.1	15.8	0.00e+00	0	23	0	2357198848	54	4021
2026-01-10 02:12:16.63	112.12	62.34	-43.9	-44.9	15.8	0.00e+00	0	23	0	2363490304	54	3943
2026-01-10 02:12:17.63	113.12	62.30	-44.0	-45.0	15.8	0.00e+00	0	23	0	2368733184	54	3990
2026-01-10 02:12:18.64	114.12	62.26	-44.1	-45.2	15.8	0.00e+00	0	23	0	2375024640	54	4061
2026-01-10 02:12:19.64	115.10	62.20	-44.0	-45.1	15.8	0.00e+00	0	23	0	2380267520	54	4022
2026-01-10 02:12:20.64	116.09	62.15	-44.2	-45.3	15.8	0.00e+00	0	23	0	2385510400	54	4111
2026-01-10 02:12:21.63	117.05	62.08	-44.3	-45.4	15.7	0.00e+00	0	23	0	2391801856	54	4180
2026-01-10 02:12:22.63	118.03	62.01	-44.3	-45.3	15.7	0.00e+00	0	23	0	2397044736	54	4137
2026-01-10 02:12:23.63	118.99	61.93	-44.1	-45.2	15.8	0.00e+00	0	23	0	2402287616	54	4060
2026-01-10 02:12:24.63	119.95	61.84	-44.0	-45.0	15.8	0.00e+00	0	23	0	2408579072	54	3985
2026-01-10 02:12:25.63	120.91	61.75	-44.2	-45.3	15.7	0.00e+00	0	23	0	2413821952	54	4109
2026-01-10 02:12:26.63	121.85	61.65	-44.6	-45.7	15.7	0.00e+00	0	23	0	2419064832	54	4292
2026-01-10 02:12:27.63	122.79	61.54	-44.6	-45.6	15.7	0.00e+00	0	23	0	2425356288	54	4290
2026-01-10 02:12:28.63	123.72	61.43	-44.3	-45.3	15.7	0.00e+00	0	23	0	2430599168	54	4144
2026-01-10 02:12:29.62	124.63	61.32	-44.7	-45.8	15.6	0.00e+00	0	23	0	2436890624	54	4365
2026-01-10 02:12:30.63	125.55	61.19	-45.0	-46.1	15.6	0.00e+00	0	24	0	2442133504	55	4254
2026-01-10 02:12:31.63	126.46	61.06	-44.6	-45.6	15.8	0.00e+00	0	23	0	2447376384	55	4037
2026-01-10 02:12:32.64	127.36	60.92	-44.5	-45.5	15.8	0.00e+00	0	23	0	2453667840	55	4001
2026-01-10 02:12:33.63	128.23	60.78	-44.5	-45.5	15.8	0.00e+00	0	23	0	2458910720	55	4001
2026-01-10 02:12:34.62	129.10	60.64	-44.6	-45.7	15.7	0.00e+00	0	23	0	2464153600	55	4075
2026-01-10 02:12:35.62	129.96	60.48	-44.8	-45.9	15.7	0.00e+00	0	23	0	2470445056	55	4159
2026-01-10 02:12:36.62	130.82	60.32	-44.8	-45.9	15.7	0.00e+00	0	23	0	2475687936	55	4148
2026-01-10 02:12:37.62	131.66	60.16	-44.7	-45.8	15.7	0.00e+00	0	23	0	2481979392	55	4127
2026-01-10 02:12:38.61	132.48	59.99	-44.8	-45.9	15.7	0.00e+00	0	23	0	2487222272	55	4169
2026-01-10 02:12:39.61	133.31	59.82	-44.9	-45.9	15.7	0.00e+00	0	23	0	2492465152	55	4188
2026-01-10 02:12:40.62	134.12	59.64	-44.8	-45.9	15.7	0.00e+00	0	23	0	2498756608	55	4172
2026-01-10 02:12:41.61	134.92	59.46	-44.9	-46.0	15.7	0.00e+00	0	23	0	2503999488	55	4216
2026-01-10 02:12:42.62	135.71	59.27	-44.9	-45.9	15.7	0.00e+00	0	23	0	2509242368	55	4186
2026-01-10 02:12:43.62	136.49	59.08	-44.9	-46.0	15.7	0.00e+00	0	23	0	2515533824	55	4206
2026-01-10 02:12:44.62	137.25	58.89	-44.9	-46.0	15.7	0.00e+00	0	23	0	2520776704	55	4196
2026-01-10 02:12:45.62	138.01	58.69	-44.9	-46.0	15.7	0.00e+00	0	23	0	2526019584	55	4202
2026-01-10 02:12:46.62	138.75	58.49	-45.1	-46.2	15.6	0.00e+00	0	23	0	2532311040	55	4311
2026-01-10 02:12:47.62	139.48	58.28	-45.1	-46.3	15.6	0.00e+00	0	23	0	2537553920	55	4341
2026-01-10 02:12:48.62	140.20	58.07	-45.2	-46.3	15.6	0.00e+00	0	23	0	2543845376	55	4352
2026-01-10 02:12:49.62	140.91	57.86	-45.2	-46.2	15.6	0.00e+00	0	23	0	2549088256	55	4333
2026-01-10 02:12:50.62	141.61	57.64	-45.0	-46.1	15.6	0.00e+00	0	23	0	2554331136	55	4279
2026-01-10 02:12:51.62	142.30	57.42	-44.9	-46.0	15.7	0.00e+00	0	24	0	2560622592	55	4212
2026-01-10 02:12:52.62	142.97	57.20	-44.9	-45.9	15.7	0.00e+00	0	23	0	2565865472	55	4181
2026-01-10 02:12:53.62	143.64	56.97	-44.9	-45.9	15.7	0.00e+00	0	23	0	2571108352	55	4180
2026-01-10 02:12:54.62	144.29	56.74	-45.1	-46.2	15.6	0.00e+00	0	23	0	2577399808	55	4334
2026-01-10 02:12:55.63	144.94	56.51	-45.3	-46.4	15.6	0.00e+00	0	23	0	2582642688	55	4424
2026-01-10 02:12:56.62	145.57	56.28	-45.4	-46.5	15.6	0.00e+00	0	23	0	2587885568	55	4449
2026-01-10 02:12:57.62	146.19	56.05	-45.6	-46.7	15.6	0.00e+00	0	23	0	2594177024	56	4317
2026-01-10 02:12:58.62	146.81	55.81	-45.7	-46.8	15.6	0.00e+00	0	23	0	2599419904	56	4378
2026-01-10 02:12:59.62	147.41	55.57	-45.9	-47.0	15.5	0.00e+00	0	23	0	2605711360	56	4466
2026-01-10 02:13:00.61	147.99	55.33	-45.7	-46.9	15.5	0.00e+00	0	23	0	2610954240	56	4393
2026-01-10 02:13:01.60	148.57	55.09	-45.8	-46.9	15.5	0.00e+00	0	23	0	2616197120	56	4396
2026-01-10 02:13:02.61	149.15	54.84	-45.8	-46.9	15.5	0.00e+00	0	24	0	2622488576	56	4413
2026-01-10 02:13:03.61	149.71	54.60	-45.9	-47.1	15.5	0.00e+00	0	23	0	2627731456	57	4253
2026-01-10 02:13:04.61	150.26	54.35	-45.9	-47.1	15.5	0.00e+00	0	23	0	2632974336	57	4252
2026-01-10 02:13:05.60	150.80	54.10	-45.9	-47.1	15.5	0.00e+00	0	23	0	2639265792	57	4255
2026-01-10 02:13:06.60	151.34	53.85	-45.8	-46.9	15.6	0.00e+00	0	23	0	2644508672	57	4186
2026-01-10 02:13:07.60	151.86	53.60	-45.8	-46.9	15.6	0.00e+00	0	23	0	2649751552	57	4173
2026-01-10 02:13:08.60	152.38	53.35	-45.7	-46.9	15.6	0.00e+00	0	24	0	2656043008	57	4152
2026-01-10 02:13:09.60	152.89	53.09	-45.5	-46.6	15.7	0.00e+00	0	23	0	2661285888	57	4041
2026-01-10 02:13:10.59	153.38	52.84	-45.3	-46.4	15.8	0.00e+00	0	23	0	2666528768	57	3941
2026-01-10 02:13:11.60	153.87	52.58	-45.3	-46.3	15.8	0.00e+00	0	23	0	2672820224	57	3905
2026-01-10 02:13:12.60	154.36	52.33	-45.5	-46.6	15.7	0.00e+00	0	23	0	2678063104	57	4010
2026-01-10 02:13:13.61	154.83	52.07	-45.5	-46.6	15.7	0.00e+00	0	23	0	2684354560	57	4036
2026-01-10 02:13:14.60	155.30	51.81	-45.4	-46.5	15.8	0.00e+00	0	23	0	2689597440	57	3964
2026-01-10 02:13:15.60	155.75	51.55	-45.1	-46.2	15.7	0.00e+00	0	23	0	2694840320	56	4054
2026-01-10 02:13:16.59	156.20	51.30	-45.2	-46.2	15.7	0.00e+00	0	23	0	2700083200	56	4091
2026-01-10 02:13:17.59	156.64	51.04	-44.9	-46.0	15.8	0.00e+00	0	23	0	2706374656	56	3975
2026-01-10 02:13:18.58	157.07	50.78	-44.9	-45.9	15.8	0.00e+00	0	23	0	2711617536	56	3958
2026-01-10 02:13:19.59	157.50	50.52	-45.1	-46.2	15.8	0.00e+00	0	23	0	2717908992	56	4078
2026-01-10 02:13:20.58	157.92	50.26	-45.3	-46.4	15.7	0.00e+00	0	23	0	2723151872	56	4165
2026-01-10 02:13:21.58	158.33	50.00	-45.2	-46.3	15.7	0.00e+00	0	23	0	2728394752	56	4130
2026-01-10 02:13:22.58	158.74	49.74	-45.2	-46.2	15.7	0.00e+00	0	23	0	2734686208	56	4093
2026-01-10 02:13:23.58	159.14	49.48	-45.1	-46.2	15.7	0.00e+00	0	23	0	2739929088	56	4052
2026-01-10 02:13:24.58	159.53	49.22	-44.9	-45.9	15.8	0.00e+00	0	23	0	2745171968	56	3949
2026-01-10 02:13:25.57	159.91	48.97	-44.9	-46.0	15.8	0.00e+00	0	23	0	2751463424	56	3974
2026-01-10 02:13:26.57	160.29	48.71	-44.7	-45.8	15.9	0.00e+00	0	23	0	2756706304	56	3878
2026-01-10 02:13:27.57	160.67	48.45	-44.6	-45.6	15.8	0.00e+00	0	23	0	2761949184	55	4050
2026-01-10 02:13:28.57	161.04	48.19	-44.5	-45.6	15.8	0.00e+00	0	23	0	2768240640	55	4016
2026-01-10 02:13:29.56	161.39	47.93	-44.5	-45.6	15.8	0.00e+00	0	23	0	2773483520	55	4022
2026-01-10 02:13:30.56	161.75	47.68	-44.4	-45.5	15.8	0.00e+00	0	23	0	2779774976	55	3963
2026-01-10 02:13:31.56	162.10	47.42	-44.5	-45.6	15.8	0.00e+00	0	23	0	2785017856	55	4006
2026-01-10 02:13:32.55	162.44	47.16	-44.6	-45.7	15.7	0.00e+00	0	23	0	2790260736	55	4075
2026-01-10 02:13:33.55	162.78	46.91	-44.6	-45.7	15.8	0.00e+00	0	23	0	2796552192	55	4060
2026-01-10 02:13:34.54	163.11	46.65	-44.6	-45.7	15.8	0.00e+00	0	23	0	2801795072	55	4053
2026-01-10 02:13:35.54	163.44	46.40	-44.6	-45.7	15.7	0.00e+00	0	23	0	2807037952	55	4059
2026-01-10 02:13:36.54	163.76	46.14	-44.7	-45.7	15.7	0.00e+00	0	23	0	2812280832	55	4097
2026-01-10 02:13:37.53	164.08	45.89	-44.6	-45.7	15.7	0.00e+00	0	23	0	2818572288	55	4055
2026-01-10 02:13:38.52	164.39	45.64	-44.4	-45.4	15.8	0.00e+00	0	23	0	2823815168	55	3940
2026-01-10 02:13:39.53	164.70	45.38	-44.3	-45.3	15.9	0.00e+00	0	23	0	2830106624	55	3904
2026-01-10 02:13:40.53	165.00	45.13	-44.3	-45.3	15.9	0.00e+00	0	23	0	2835349504	55	3906
2026-01-10 02:13:41.53	165.30	44.88	-44.2	-45.3	15.9	0.00e+00	0	23	0	2840592384	55	3871
2026-01-10 02:13:42.52	165.59	44.63	-44.2	-45.3	15.9	0.00e+00	0	23	0	2846883840	55	3879
2026-01-10 02:13:43.52	165.88	44.38	-44.3	-45.4	15.9	0.00e+00	0	23	0	2852126720	55	3916
2026-01-10 02:13:44.52	166.17	44.13	-44.3	-45.3	15.9	0.00e+00	0	23	0	2857369600	55	3887
2026-01-10 02:13:45.51	166.44	43.89	-44.1	-45.2	15.8	0.00e+00	0	23	0	2863661056	54	4067
2026-01-10 02:13:46.51	166.72	43.64	-44.2	-45.3	15.7	0.00e+00	0	23	0	2868903936	54	4118
2026-01-10 02:13:47.51	166.99	43.39	-44.5	-45.6	15.7	0.00e+00	0	23	0	2874146816	54	4258
2026-01-10 02:13:48.52	167.26	43.14	-44.7	-45.8	15.7	0.00e+00	0	23	0	2880438272	54	4355
2026-01-10 02:13:49.52	167.53	42.90	-44.7	-45.8	15.6	0.00e+00	0	23	0	2885681152	54	4389
2026-01-10 02:13:50.52	167.79	42.65	-44.7	-45.8	15.6	0.00e+00	0	23	0	2891972608	54	4351
2026-01-10 02:13:51.52	168.04	42.41	-44.8	-45.9	15.6	0.00e+00	0	23	0	2897215488	54	4394
2026-01-10 02:13:52.52	168.30	42.17	-44.5	-45.6	15.7	0.00e+00	0	23	0	2902458368	54	4272
2026-01-10 02:13:53.52	168.55	41.93	-44.5	-45.6	15.7	0.00e+00	0	23	0	2908749824	54	4268
2026-01-10 02:13:54.51	168.79	41.69	-44.3	-45.3	15.7	0.00e+00	0	23	0	2913992704	54	4143
2026-01-10 02:13:55.51	169.03	41.45	-44.2	-45.3	15.8	0.00e+00	0	23	0	2919235584	54	4115
2026-01-10 02:13:56.51	169.27	41.21	-44.4	-45.5	15.7	0.00e+00	0	23	0	2925527040	54	4196
2026-01-10 02:13:57.51	169.50	40.98	-44.3	-45.4	15.7	0.00e+00	0	23	0	2930769920	54	4178
2026-01-10 02:13:58.51	169.74	40.74	-44.3	-45.3	15.8	0.00e+00	0	23	0	2936012800	54	4140
2026-01-10 02:13:59.51	169.96	40.50	-44.2	-45.3	15.8	0.00e+00	0	23	0	2942304256	54	4127
2026-01-10 02:14:00.51	170.19	40.27	-44.1	-45.2	15.8	0.00e+00	0	23	0	2947547136	54	4075
2026-01-10 02:14:01.51	170.41	40.04	-43.9	-45.0	15.8	0.00e+00	0	24	0	2953838592	54	3971
2026-01-10 02:14:02.50	170.63	39.81	-43.8	-44.8	15.9	0.00e+00	0	24	0	2959081472	54	3903
2026-01-10 02:14:03.50	170.84	39.58	-43.8	-44.9	15.8	0.00e+00	0	23	0	2964324352	54	3915
2026-01-10 02:14:04.50	171.06	39.35	-44.0	-45.0	15.8	0.00e+00	0	23	0	2970615808	54	4003
2026-01-10 02:14:05.50	171.27	39.12	-44.0	-45.1	15.8	0.00e+00	0	23	0	2975858688	54	4006
2026-01-10 02:14:06.51	171.48	38.89	-44.1	-45.2	15.8	0.00e+00	0	23	0	2981101568	54	4076
2026-01-10 02:14:07.51	171.68	38.66	-44.1	-45.2	15.8	0.00e+00	0	24	0	2987393024	54	4084
2026-01-10 02:14:08.51	171.88	38.44	-44.2	-45.2	15.8	0.00e+00	0	23	0	2992635904	54	4090
2026-01-10 02:14:09.52	172.08	38.21	-44.1	-45.2	15.8	0.00e+00	0	23	0	2997878784	54	4057
2026-01-10 02:14:10.52	172.28	37.99	-44.0	-45.1	15.8	0.00e+00	0	23	0	3004170240	54	4026
2026-01-10 02:14:11.52	172.47	37.77	-44.1	-45.1	15.8	0.00e+00	0	23	0	3009413120	54	4048
2026-01-10 02:14:12.52	172.66	37.55	-43.8	-44.9	15.9	0.00e+00	0	23	0	3015704576	54	3920
2026-01-10 02:14:13.52	172.85	37.33	-43.8	-44.8	15.9	0.00e+00	0	23	0	3020947456	54	3887
2026-01-10 02:14:14.51	173.04	37.11	-43.8	-44.8	15.9	0.00e+00	0	23	0	3026190336	54	3892
2026-01-10 02:14:15.51	173.22	36.89	-43.7	-44.7	15.9	0.00e+00	0	24	0	3032481792	54	3860
2026-01-10 02:14:16.51	173.40	36.68	-43.8	-44.8	15.9	0.00e+00	0	23	0	3037724672	54	3899
2026-01-10 02:14:17.51	173.58	36.46	-43.8	-44.9	15.9	0.00e+00	0	23	0	3042967552	54	3917
2026-01-10 02:14:18.51	173.76	36.25	-43.8	-44.9	15.9	0.00e+00	0	23	0	3049259008	54	3922
2026-01-10 02:14:19.50	173.93	36.04	-43.9	-44.9	15.9	0.00e+00	0	24	0	3054501888	54	3948
2026-01-10 02:14:20.49	174.10	35.83	-44.0	-45.1	15.8	0.00e+00	0	23	0	3059744768	54	4026
2026-01-10 02:14:21.50	174.27	35.61	-44.0	-45.0	15.8	0.00e+00	0	23	0	3066036224	54	3990
2026-01-10 02:14:22.50	174.44	35.40	-43.9	-44.9	15.9	0.00e+00	0	23	0	3071279104	54	3953
2026-01-10 02:14:23.50	174.61	35.20	-43.9	-45.0	15.8	0.00e+00	0	23	0	3077570560	54	3975
2026-01-10 02:14:24.49	174.77	34.99	-43.9	-45.0	15.8	0.00e+00	0	23	0	3082813440	54	3959
2026-01-10 02:14:25.49	174.93	34.78	-43.9	-45.0	15.8	0.00e+00	0	23	0	3088056320	54	3972
2026-01-10 02:14:26.50	175.09	34.58	-44.0	-45.0	15.8	0.00e+00	0	23	0	3094347776	54	4001
2026-01-10 02:14:27.49	175.25	34.38	-43.9	-45.0	15.8	0.00e+00	0	23	0	3099590656	54	3962
2026-01-10 02:14:28.49	175.41	34.17	-44.0	-45.1	15.8	0.00e+00	0	23	0	3104833536	54	4019
2026-01-10 02:14:29.49	175.56	33.97	-44.1	-45.1	15.8	0.00e+00	0	23	0	3111124992	54	4042
2026-01-10 02:14:30.49	175.71	33.77	-44.1	-45.1	15.8	0.00e+00	0	24	0	3116367872	54	4042
2026-01-10 02:14:31.49	175.86	33.57	-44.0	-45.1	15.8	0.00e+00	0	23	0	3121610752	54	4012
2026-01-10 02:14:32.49	176.01	33.37	-44.1	-45.1	15.8	0.00e+00	0	23	0	3127902208	54	4047
2026-01-10 02:14:33.49	176.16	33.17	-44.1	-45.1	15.8	0.00e+00	0	23	0	3133145088	54	4037
2026-01-10 02:14:34.49	176.30	32.98	-44.1	-45.2	15.8	0.00e+00	0	23	0	3138387968	54	4059
2026-01-10 02:14:35.49	176.45	32.78	-44.2	-45.2	15.8	0.00e+00	0	23	0	3144679424	54	4080
2026-01-10 02:14:36.47	176.59	32.59	-44.1	-45.3	15.7	0.00e+00	0	23	0	3149922304	54	4135
2026-01-10 02:14:37.47	176.73	32.40	-44.1	-45.3	15.7	0.00e+00	0	23	0	3155165184	54	4131
2026-01-10 02:14:38.46	176.87	32.21	-44.1	-45.4	15.7	0.00e+00	0	23	0	3161456640	54	4163
2026-01-10 02:14:39.46	177.00	32.02	-44.1	-45.4	15.7	0.00e+00	0	23	0	3166699520	54	4165
2026-01-10 02:14:40.46	177.14	31.83	-44.1	-45.4	15.7	0.00e+00	0	23	0	3172990976	54	4174
2026-01-10 02:14:41.46	177.27	31.64	-44.1	-45.3	15.7	0.00e+00	0	23	0	3178233856	54	4130
2026-01-10 02:14:42.45	177.40	31.45	-44.1	-45.3	15.7	0.00e+00	0	23	0	3183476736	54	4125
2026-01-10 02:14:43.45	177.53	31.27	-44.0	-45.2	15.8	0.00e+00	0	23	0	3189768192	54	4093
2026-01-10 02:14:44.46	177.67	31.08	-44.0	-45.2	15.8	0.00e+00	0	23	0	3195011072	54	4078
2026-01-10 02:14:45.45	177.79	30.89	-44.0	-45.2	15.8	0.00e+00	0	23	0	3200253952	54	4065
2026-01-10 02:14:46.45	177.92	30.71	-44.0	-45.2	15.8	0.00e+00	0	23	0	3205496832	54	4081
2026-01-10 02:14:47.44	178.04	30.53	-44.0	-45.3	15.8	0.00e+00	0	23	0	3211788288	54	4099
2026-01-10 02:14:48.44	178.17	30.35	-44.1	-45.4	15.7	0.00e+00	0	23	0	3217031168	54	4150
2026-01-10 02:14:49.44	178.29	30.17	-44.2	-45.4	15.7	0.00e+00	0	23	0	3223322624	54	4183
2026-01-10 02:14:50.43	178.41	29.99	-44.2	-45.5	15.7	0.00e+00	0	23	0	3228565504	54	4208
2026-01-10 02:14:51.43	178.53	29.81	-44.3	-45.5	15.6	0.00e+00	0	23	0	3233808384	54	4238
2026-01-10 02:14:52.43	178.65	29.63	-44.2	-45.4	15.7	0.00e+00	0	23	0	3240099840	54	4174
2026-01-10 02:14:53.43	178.77	29.46	-44.2	-45.5	15.7	0.00e+00	0	23	0	3245342720	54	4195
2026-01-10 02:14:54.43	178.89	29.28	-44.2	-45.5	15.7	0.00e+00	0	23	0	3250585600	54	4197
2026-01-10 02:14:55.43	179.00	29.10	-44.1	-45.3	15.7	0.00e+00	0	23	0	3256877056	54	4101
2026-01-10 02:14:56.42	179.11	28.93	-44.0	-45.2	15.8	0.00e+00	0	23	0	3262119936	54	4090
2026-01-10 02:14:57.42	179.23	28.76	-44.2	-45.4	15.7	0.00e+00	0	23	0	3267362816	54	4156
2026-01-10 02:14:58.42	179.34	28.59	-44.1	-45.3	15.7	0.00e+00	0	23	0	3273654272	54	4119
2026-01-10 02:14:59.42	179.45	28.42	-44.1	-45.3	15.7	0.00e+00	0	23	0	3278897152	54	4118
2026-01-10 02:15:00.42	179.56	28.25	-44.1	-45.3	15.7	0.00e+00	0	23	0	3285188608	54	4102
2026-01-10 02:15:01.42	179.67	28.08	-44.1	-45.4	15.7	0.00e+00	0	23	0	3290431488	54	4150
2026-01-10 02:15:02.42	179.77	27.91	-44.2	-45.4	15.7	0.00e+00	0	23	0	3295674368	54	4179
2026-01-10 02:15:03.42	179.88	27.74	-44.2	-45.4	15.7	0.00e+00	0	23	0	3301965824	54	4186
2026-01-10 02:15:04.41	179.98	27.58	-44.2	-45.4	15.7	0.00e+00	0	23	0	3307208704	54	4191
2026-01-10 02:15:05.42	180.09	27.41	-44.2	-45.5	15.7	0.00e+00	0	23	0	3312451584	54	4201
2026-01-10 02:15:06.42	180.19	27.24	-44.3	-45.5	15.6	0.00e+00	0	23	0	3318743040	54	4226
2026-01-10 02:15:07.42	180.29	27.08	-44.3	-45.5	15.6	0.00e+00	0	23	0	3323985920	54	4238
2026-01-10 02:15:08.42	180.40	26.92	-44.2	-45.4	15.7	0.00e+00	0	23	0	3329228800	54	4182
2026-01-10 02:15:09.42	180.50	26.76	-44.2	-45.4	15.7	0.00e+00	0	23	0	3335520256	54	4186
2026-01-10 02:15:10.42	180.60	26.59	-44.1	-45.3	15.7	0.00e+00	0	23	0	3340763136	54	4112
2026-01-10 02:15:11.42	180.69	26.43	-44.0	-45.2	15.8	0.00e+00	0	23	0	3347054592	54	4055
2026-01-10 02:15:12.42	180.79	26.27	-43.9	-45.1	15.8	0.00e+00	0	23	0	3352297472	54	4027
2026-01-10 02:15:13.42	180.89	26.12	-44.0	-45.2	15.8	0.00e+00	0	23	0	3357540352	54	4054
2026-01-10 02:15:14.42	180.98	25.96	-43.8	-45.0	15.8	0.00e+00	0	23	0	3363831808	54	3988
2026-01-10 02:15:15.42	181.08	25.80	-43.9	-45.1	15.8	0.00e+00	0	23	0	3369074688	54	4005
2026-01-10 02:15:16.41	181.17	25.65	-43.9	-45.1	15.8	0.00e+00	0	23	0	3374317568	54	4014
2026-01-10 02:15:17.41	181.26	25.49	-44.0	-45.1	15.8	0.00e+00	0	24	0	3380609024	54	4043
2026-01-10 02:15:18.41	181.35	25.34	-44.0	-45.1	15.8	0.00e+00	0	23	0	3385851904	54	4048
2026-01-10 02:15:19.41	181.45	25.18	-44.0	-45.2	15.7	0.00e+00	0	23	0	3391094784	54	4085
2026-01-10 02:15:20.40	181.53	25.03	-44.1	-45.3	15.7	0.00e+00	0	23	0	3397386240	54	4106
2026-01-10 02:15:21.40	181.62	24.88	-44.1	-45.3	15.7	0.00e+00	0	23	0	3402629120	54	4138
2026-01-10 02:15:22.40	181.71	24.73	-44.2	-45.4	15.7	0.00e+00	0	23	0	3408920576	54	4162
2026-01-10 02:15:23.40	181.80	24.58	-44.3	-45.5	15.6	0.00e+00	0	23	0	3414163456	54	4217
2026-01-10 02:15:24.41	181.89	24.43	-44.3	-45.5	15.6	0.00e+00	0	23	0	3419406336	54	4227
2026-01-10 02:15:25.41	181.97	24.28	-44.3	-45.5	15.6	0.00e+00	0	23	0	3425697792	54	4227
2026-01-10 02:15:26.41	182.06	24.13	-44.3	-45.5	15.6	0.00e+00	0	23	0	3430940672	54	4240
2026-01-10 02:15:27.41	182.14	23.98	-44.4	-45.6	15.6	0.00e+00	0	23	0	3436183552	54	4267
2026-01-10 02:15:28.41	182.23	23.84	-44.4	-45.6	15.6	0.00e+00	0	23	0	3442475008	54	4271
2026-01-10 02:15:29.41	182.31	23.69	-44.5	-45.7	15.5	0.00e+00	0	23	0	3447717888	54	4339
2026-01-10 02:15:30.40	182.39	23.55	-44.5	-45.7	15.6	0.00e+00	0	23	0	3452960768	54	4337
2026-01-10 02:15:31.40	182.48	23.40	-44.6	-45.9	15.5	0.00e+00	0	23	0	3459252224	54	4401
2026-01-10 02:15:32.40	182.56	23.26	-44.7	-46.0	15.5	0.00e+00	0	23	0	3464495104	54	4445
2026-01-10 02:15:33.39	182.64	23.12	-44.7	-45.9	15.5	0.00e+00	0	23	0	3469737984	54	4434
2026-01-10 02:15:34.38	182.71	22.98	-44.7	-46.0	15.5	0.00e+00	0	23	0	3476029440	54	4444
2026-01-10 02:15:35.38	182.79	22.84	-44.8	-46.1	15.4	0.00e+00	0	23	0	3481272320	54	4517
2026-01-10 02:15:36.37	182.87	22.70	-44.9	-46.1	15.4	0.00e+00	0	23	0	3486515200	54	4540
2026-01-10 02:15:37.35	182.95	22.56	-44.9	-46.2	15.4	0.00e+00	0	23	0	3492806656	54	4562
2026-01-10 02:15:38.34	183.02	22.42	-45.0	-46.3	15.4	0.00e+00	0	23	0	3498049536	55	4380
2026-01-10 02:15:39.34	183.10	22.29	-45.0	-46.3	15.5	0.00e+00	0	23	0	3503292416	55	4373
2026-01-10 02:15:40.33	183.17	22.15	-45.0	-46.3	15.5	0.00e+00	0	23	0	3509583872	55	4368
2026-01-10 02:15:41.33	183.25	22.01	-45.0	-46.3	15.5	0.00e+00	0	23	0	3514826752	55	4367
2026-01-10 02:15:42.33	183.32	21.88	-45.1	-46.3	15.5	0.00e+00	0	23	0	3520069632	55	4386
2026-01-10 02:15:43.32	183.40	21.74	-45.1	-46.4	15.4	0.00e+00	0	23	0	3526361088	55	4428
2026-01-10 02:15:44.32	183.47	21.61	-45.1	-46.4	15.4	0.00e+00	0	23	0	3531603968	55	4393
2026-01-10 02:15:45.31	183.54	21.47	-45.2	-46.5	15.4	0.00e+00	0	23	0	3536846848	55	4450
2026-01-10 02:15:46.30	183.61	21.34	-45.0	-46.3	15.5	0.00e+00	0	23	0	3543138304	55	4386
2026-01-10 02:15:47.31	183.69	21.21	-45.1	-46.4	15.4	0.00e+00	0	23	0	3548381184	55	4399
2026-01-10 02:15:48.31	183.76	21.08	-45.0	-46.3	15.5	0.00e+00	0	23	0	3553624064	55	4356
2026-01-10 02:15:49.30	183.83	20.95	-45.1	-46.3	15.5	0.00e+00	0	23	0	3559915520	55	4381
2026-01-10 02:15:50.30	183.90	20.81	-45.0	-46.3	15.5	0.00e+00	0	23	0	3565158400	55	4353
2026-01-10 02:15:51.30	183.97	20.68	-45.1	-46.3	15.5	0.00e+00	0	23	0	3571449856	55	4386
2026-01-10 02:15:52.30	184.03	20.55	-45.1	-46.4	15.5	0.00e+00	0	23	0	3576692736	55	4399
2026-01-10 02:15:53.30	184.10	20.42	-45.0	-46.3	15.5	0.00e+00	0	23	0	3581935616	55	4363
2026-01-10 02:15:54.29	184.17	20.30	-45.1	-46.3	15.5	0.00e+00	0	23	0	3587178496	55	4378
2026-01-10 02:15:55.29	184.24	20.17	-45.1	-46.4	15.4	0.00e+00	0	23	0	3593469952	55	4398
2026-01-10 02:15:56.29	184.30	20.04	-45.1	-46.4	15.4	0.00e+00	0	23	0	3598712832	55	4400
2026-01-10 02:15:57.30	184.37	19.91	-45.2	-46.4	15.4	0.00e+00	0	23	0	3605004288	55	4427
2026-01-10 02:15:58.30	184.44	19.79	-45.1	-46.4	15.4	0.00e+00	0	23	0	3610247168	55	4410
2026-01-10 02:15:59.30	184.50	19.66	-45.2	-46.5	15.4	0.00e+00	0	23	0	3615490048	55	4466
2026-01-10 02:16:00.30	184.56	19.54	-45.3	-46.6	15.4	0.00e+00	0	23	0	3621781504	55	4499
2026-01-10 02:16:01.29	184.63	19.42	-45.4	-46.7	15.3	0.00e+00	0	23	0	3627024384	55	4555
2026-01-10 02:16:02.29	184.69	19.29	-45.6	-46.9	15.4	0.00e+00	0	23	0	3632267264	56	4422
2026-01-10 02:16:03.28	184.75	19.17	-45.7	-47.0	15.4	0.00e+00	0	23	0	3638558720	56	4453
2026-01-10 02:16:04.28	184.82	19.05	-45.7	-47.0	15.4	0.00e+00	0	23	0	3643801600	56	4456
2026-01-10 02:16:05.28	184.88	18.93	-45.8	-47.1	15.3	0.00e+00	0	23	0	3649044480	56	4538
2026-01-10 02:16:06.28	184.94	18.80	-45.8	-47.1	15.3	0.00e+00	0	23	0	3655335936	56	4501
2026-01-10 02:16:07.28	185.00	18.68	-45.9	-47.2	15.3	0.00e+00	0	23	0	3660578816	56	4594
2026-01-10 02:16:08.28	185.06	18.56	-45.9	-47.3	15.4	0.00e+00	0	23	0	3665821696	57	4343
2026-01-10 02:16:09.28	185.12	18.44	-46.0	-47.3	15.3	0.00e+00	0	23	0	3672113152	57	4376
2026-01-10 02:16:10.28	185.18	18.32	-46.0	-47.3	15.3	0.00e+00	0	23	0	3677356032	57	4379
2026-01-10 02:16:11.27	185.24	18.21	-46.0	-47.4	15.3	0.00e+00	0	23	0	3683647488	57	4395
2026-01-10 02:16:12.27	185.30	18.09	-46.1	-47.4	15.3	0.00e+00	0	23	0	3688890368	57	4435
2026-01-10 02:16:13.28	185.36	17.97	-46.1	-47.4	15.3	0.00e+00	0	23	0	3694133248	57	4421
2026-01-10 02:16:14.28	185.42	17.85	-46.0	-47.4	15.3	0.00e+00	0	24	0	3700424704	57	4395
2026-01-10 02:16:15.27	185.48	17.74	-46.1	-47.4	15.3	0.00e+00	0	23	0	3705667584	57	4438
2026-01-10 02:16:16.27	185.53	17.62	-46.2	-47.5	15.3	0.00e+00	0	23	0	3710910464	57	4454
2026-01-10 02:16:17.27	185.59	17.51	-46.1	-47.4	15.3	0.00e+00	0	23	0	3717201920	57	4426
2026-01-10 02:16:18.27	185.65	17.39	-46.1	-47.4	15.3	0.00e+00	0	23	0	3722444800	57	4406
2026-01-10 02:16:19.26	185.70	17.28	-46.1	-47.5	15.3	0.00e+00	0	23	0	3728736256	57	4444
2026-01-10 02:16:20.26	185.76	17.16	-46.1	-47.4	15.3	0.00e+00	0	23	0	3733979136	57	4407
2026-01-10 02:16:21.27	185.81	17.05	-46.1	-47.4	15.3	0.00e+00	0	23	0	3739222016	57	4425
2026-01-10 02:16:22.26	185.87	16.94	-46.1	-47.4	15.3	0.00e+00	0	23	0	3745513472	57	4414
2026-01-10 02:16:23.26	185.92	16.83	-46.1	-47.4	15.3	0.00e+00	0	23	0	3750756352	57	4428
2026-01-10 02:16:24.26	185.98	16.71	-46.1	-47.4	15.3	0.00e+00	0	23	0	3755999232	57	4419
2026-01-10 02:16:25.26	186.03	16.60	-46.1	-47.5	15.3	0.00e+00	0	23	0	3762290688	57	4443
