passes_logs/2026/01/10/R3.2S_Murmansk/R3.2S_Murmansk__20260110_053917_AQUA_rec.log

#Pass ID: 20260110_053917_AQUA
#Satellite: AQUA
#Configuration: AQUA
#almurnet v.1.7.20251203
#Start time: 2026-01-10 05:39:18

#Version: 2.2.20231116
#Station: R3.2S_Murmansk
#Location: 33.079688 lon 68.888172 lat
#TLE: 1 27424U 02022A   26009.00333547  .00001046  00000+0  21942-3 0  9998
#TLE: 2 27424  98.4075 335.3304 0002025  85.7625 349.1392 14.61808998260011

#Time	Az	El	Level	Level2	SNR	BER	BlckErr	Temp	State	Recorded	gain1	gain2
2026-01-10 05:39:18.46	42.90	2.06	-56.8	-76.1	3.8	7.46e-01	0	23	0	0	82	33117
2026-01-10 05:39:19.46	42.82	2.11	-56.7	-76.0	3.8	7.45e-01	0	23	104	0	81	34800
2026-01-10 05:39:20.46	42.75	2.17	-56.7	-76.0	3.8	7.45e-01	0	23	104	0	81	34732
2026-01-10 05:39:21.46	42.67	2.23	-56.7	-76.0	3.8	7.46e-01	0	23	104	0	81	34814
2026-01-10 05:39:22.46	42.60	2.29	-56.7	-76.0	3.8	7.48e-01	0	23	104	0	81	34804
2026-01-10 05:39:23.46	42.52	2.35	-56.7	-76.0	3.8	7.45e-01	0	23	104	0	81	34692
2026-01-10 05:39:24.46	42.44	2.40	-56.7	-76.0	3.8	7.48e-01	0	23	104	0	81	34619
2026-01-10 05:39:25.46	42.37	2.46	-56.7	-76.0	3.8	7.44e-01	0	23	104	0	81	34722
2026-01-10 05:39:26.45	42.29	2.52	-56.7	-76.0	3.8	7.42e-01	0	23	104	0	81	34692
2026-01-10 05:39:27.45	42.21	2.58	-56.7	-76.0	3.8	7.50e-01	0	23	104	0	81	34577
2026-01-10 05:39:28.45	42.14	2.64	-56.7	-75.9	3.8	7.46e-01	0	23	104	0	81	34471
2026-01-10 05:39:29.44	42.06	2.70	-56.7	-75.9	3.8	7.47e-01	0	23	104	0	81	34233
2026-01-10 05:39:30.44	41.98	2.76	-56.7	-75.8	3.8	7.48e-01	0	23	104	0	81	33738
2026-01-10 05:39:31.45	41.90	2.82	-56.6	-75.8	3.8	7.45e-01	0	23	104	0	81	33763
2026-01-10 05:39:32.45	41.82	2.87	-56.7	-75.7	3.8	7.45e-01	0	23	104	0	81	33473
2026-01-10 05:39:33.44	41.74	2.93	-56.7	-75.6	3.8	7.47e-01	0	23	104	0	81	33251
2026-01-10 05:39:34.45	41.66	2.99	-56.7	-75.7	3.8	7.48e-01	0	23	104	0	81	33372
2026-01-10 05:39:35.44	41.58	3.05	-56.7	-75.7	3.8	7.45e-01	0	23	104	0	81	33473
2026-01-10 05:39:36.43	41.50	3.11	-56.7	-75.7	3.8	7.49e-01	0	23	104	0	81	33669
2026-01-10 05:39:37.43	41.42	3.17	-56.7	-75.7	3.8	7.46e-01	0	23	104	0	81	33615
2026-01-10 05:39:38.43	41.34	3.23	-56.7	-75.8	3.8	7.45e-01	0	23	104	0	81	33943
2026-01-10 05:39:39.43	41.26	3.29	-56.6	-76.0	3.8	7.49e-01	0	23	104	0	81	34657
2026-01-10 05:39:40.43	41.18	3.35	-56.6	-76.0	3.8	7.45e-01	0	23	104	0	81	34567
2026-01-10 05:39:41.43	41.09	3.41	-56.6	-76.0	3.8	7.47e-01	0	23	104	0	81	34517
2026-01-10 05:39:42.43	41.01	3.47	-56.7	-76.0	3.8	7.45e-01	0	23	104	0	81	34613
2026-01-10 05:39:43.43	40.93	3.53	-56.6	-75.9	3.8	7.46e-01	0	23	104	0	81	34440
2026-01-10 05:39:44.42	40.84	3.59	-56.7	-75.9	3.8	7.51e-01	0	23	104	0	81	34433
2026-01-10 05:39:45.42	40.76	3.65	-56.6	-75.9	3.8	7.45e-01	0	23	104	0	81	34397
2026-01-10 05:39:46.42	40.68	3.71	-56.6	-75.9	3.8	7.46e-01	0	23	104	0	81	34456
2026-01-10 05:39:47.41	40.59	3.77	-56.7	-76.0	3.8	7.49e-01	0	23	104	0	81	34508
2026-01-10 05:39:48.41	40.51	3.83	-56.7	-76.0	3.8	7.47e-01	0	23	104	0	81	34515
2026-01-10 05:39:49.41	40.42	3.89	-56.6	-75.9	3.8	7.46e-01	0	23	104	0	81	34441
2026-01-10 05:39:50.41	40.33	3.95	-56.6	-75.9	3.8	7.43e-01	0	23	104	0	81	34206
2026-01-10 05:39:51.41	40.25	4.01	-56.7	-75.8	3.8	7.44e-01	0	23	104	0	81	33994
2026-01-10 05:39:52.41	40.16	4.07	-56.6	-75.8	3.8	7.43e-01	0	23	104	0	81	33979
2026-01-10 05:39:53.42	40.07	4.14	-56.6	-75.8	3.8	7.45e-01	0	23	104	0	81	33975
2026-01-10 05:39:54.42	39.98	4.20	-56.6	-75.9	3.8	7.49e-01	0	23	104	0	81	34295
2026-01-10 05:39:55.42	39.90	4.26	-56.6	-76.0	3.8	7.47e-01	0	23	104	0	81	34525
2026-01-10 05:39:56.43	39.81	4.32	-56.6	-75.9	3.8	7.45e-01	0	23	104	0	81	34349
2026-01-10 05:39:57.43	39.72	4.38	-56.6	-75.7	3.8	7.46e-01	0	23	104	0	81	33444
2026-01-10 05:39:58.43	39.63	4.44	-56.5	-75.2	3.8	7.46e-01	0	23	104	0	81	31709
2026-01-10 05:39:59.43	39.54	4.50	-56.4	-74.5	3.8	7.46e-01	0	23	104	0	81	29342
2026-01-10 05:40:00.44	39.45	4.57	-56.3	-73.8	3.8	7.44e-01	0	23	104	0	81	26993
2026-01-10 05:40:01.44	39.36	4.63	-56.2	-73.1	3.8	7.46e-01	0	23	104	0	81	24757
2026-01-10 05:40:02.44	39.27	4.69	-56.0	-72.2	3.8	7.48e-01	0	23	104	0	81	22423
2026-01-10 05:40:03.45	39.17	4.75	-55.7	-71.2	3.8	7.44e-01	0	23	104	0	80	21228
2026-01-10 05:40:04.44	39.08	4.81	-55.5	-70.6	3.8	7.43e-01	0	23	104	0	80	19767
2026-01-10 05:40:05.45	38.99	4.88	-55.2	-70.0	3.8	7.47e-01	0	23	104	0	79	19424
2026-01-10 05:40:06.45	38.90	4.94	-55.1	-69.7	3.8	7.45e-01	0	23	104	0	79	18762
2026-01-10 05:40:07.45	38.80	5.00	-55.1	-69.6	3.8	7.46e-01	0	23	104	0	79	18541
2026-01-10 05:40:08.46	38.71	5.06	-54.4	-68.1	3.9	7.41e-01	0	23	104	0	78	16628
2026-01-10 05:40:09.47	38.61	5.13	-55.1	-69.4	3.8	7.48e-01	0	23	104	0	77	20405
2026-01-10 05:40:10.46	38.52	5.19	-55.1	-69.5	3.9	7.43e-01	0	23	104	0	78	19504
2026-01-10 05:40:11.45	38.42	5.25	-54.7	-68.6	3.9	7.43e-01	0	23	104	0	78	17658
2026-01-10 05:40:12.46	38.33	5.32	-54.5	-68.1	3.8	7.46e-01	0	23	104	0	76	18626
2026-01-10 05:40:13.46	38.23	5.38	-55.6	-71.1	3.9	7.44e-01	0	23	104	0	80	20976
2026-01-10 05:40:14.45	38.13	5.44	-52.1	-64.3	3.8	7.49e-01	0	23	104	0	73	14360
2026-01-10 05:40:15.44	38.04	5.50	-51.5	-63.5	3.8	7.45e-01	0	23	104	0	72	13773
2026-01-10 05:40:16.45	37.94	5.57	-51.5	-63.5	3.8	7.50e-01	0	23	104	0	71	14685
2026-01-10 05:40:17.45	37.84	5.63	-52.8	-65.4	3.9	7.47e-01	0	23	104	0	75	14504
2026-01-10 05:40:18.44	37.74	5.69	-54.4	-67.9	3.8	7.46e-01	0	23	104	0	76	18273
2026-01-10 05:40:19.44	37.64	5.76	-55.6	-70.9	3.9	7.42e-01	0	23	104	0	80	20529
2026-01-10 05:40:20.44	37.55	5.82	-52.8	-65.1	3.9	7.46e-01	0	23	104	0	74	14750
2026-01-10 05:40:21.44	37.45	5.88	-52.5	-65.0	3.8	7.47e-01	0	23	104	0	73	15416
2026-01-10 05:40:22.44	37.34	5.95	-51.8	-63.7	3.8	7.46e-01	0	23	104	0	72	14107
2026-01-10 05:40:23.44	37.24	6.01	-51.4	-63.3	3.8	7.47e-01	0	23	104	0	72	13475
2026-01-10 05:40:24.44	37.14	6.08	-51.1	-63.0	3.8	7.46e-01	0	23	104	0	71	13769
2026-01-10 05:40:25.44	37.04	6.14	-51.8	-63.9	3.8	7.48e-01	0	23	104	0	71	15232
2026-01-10 05:40:26.44	36.94	6.20	-54.1	-67.4	3.8	7.42e-01	0	23	104	0	75	18134
2026-01-10 05:40:27.44	36.83	6.27	-55.5	-70.3	3.9	7.38e-01	0	23	104	0	80	19079
2026-01-10 05:40:28.44	36.73	6.33	-52.4	-64.7	3.9	7.46e-01	0	23	104	0	74	14062
2026-01-10 05:40:29.45	36.63	6.40	-52.2	-64.4	3.8	7.46e-01	0	23	104	0	73	14385
2026-01-10 05:40:30.44	36.52	6.46	-51.6	-63.6	3.8	7.45e-01	0	23	104	0	72	14011
2026-01-10 05:40:31.44	36.42	6.53	-51.5	-63.5	3.8	7.44e-01	0	23	104	0	72	13782
2026-01-10 05:40:32.43	36.31	6.59	-51.6	-63.5	3.8	7.46e-01	0	23	104	0	71	14674
2026-01-10 05:40:33.43	36.21	6.66	-52.4	-64.8	3.8	7.47e-01	0	23	104	0	73	15084
2026-01-10 05:40:34.42	36.10	6.72	-54.0	-67.1	3.8	7.45e-01	0	23	104	0	75	17496
2026-01-10 05:40:35.41	35.99	6.78	-55.5	-70.2	3.9	7.45e-01	0	23	104	0	80	18947
2026-01-10 05:40:36.41	35.89	6.85	-52.7	-65.0	3.8	7.45e-01	0	23	104	0	74	14553
2026-01-10 05:40:37.40	35.78	6.91	-52.4	-64.7	3.8	7.48e-01	0	23	104	0	73	15020
2026-01-10 05:40:38.40	35.67	6.98	-51.7	-63.6	3.8	7.47e-01	0	23	104	0	72	14033
2026-01-10 05:40:39.40	35.56	7.04	-51.0	-62.8	3.8	7.47e-01	0	23	104	0	71	13469
2026-01-10 05:40:40.40	35.45	7.11	-50.6	-62.2	3.8	7.43e-01	0	23	104	0	70	13404
2026-01-10 05:40:41.39	35.34	7.17	-50.8	-62.5	3.8	7.45e-01	0	23	104	0	70	13820
2026-01-10 05:40:42.39	35.23	7.24	-53.4	-66.1	3.8	7.45e-01	0	23	104	0	74	16678
2026-01-10 05:40:43.39	35.12	7.31	-55.7	-70.7	3.9	7.51e-01	0	23	104	0	80	20066
2026-01-10 05:40:44.38	35.01	7.37	-52.6	-64.9	3.9	7.46e-01	0	23	104	0	74	14528
2026-01-10 05:40:45.38	34.89	7.44	-52.0	-64.1	3.8	7.43e-01	0	23	104	0	72	14713
2026-01-10 05:40:46.38	34.78	7.50	-51.3	-63.2	3.8	7.45e-01	0	23	104	0	71	14124
2026-01-10 05:40:47.38	34.67	7.57	-51.0	-62.9	3.8	7.46e-01	0	23	104	0	71	13576
2026-01-10 05:40:48.38	34.55	7.64	-51.1	-62.9	3.8	7.45e-01	0	23	104	0	70	14508
2026-01-10 05:40:49.38	34.44	7.70	-52.3	-64.5	3.8	7.43e-01	0	23	104	0	73	14625
2026-01-10 05:40:50.37	34.32	7.77	-53.5	-66.1	3.8	7.47e-01	0	23	104	0	74	16641
2026-01-10 05:40:51.36	34.21	7.83	-56.1	-71.9	3.9	7.41e-01	0	23	104	0	81	21697
2026-01-10 05:40:52.36	34.09	7.90	-52.7	-64.9	3.8	7.47e-01	0	23	104	0	74	14515
2026-01-10 05:40:53.36	33.97	7.97	-52.1	-64.3	3.8	7.42e-01	0	23	104	0	72	15113
2026-01-10 05:40:54.37	33.85	8.03	-51.4	-63.2	3.8	7.47e-01	0	23	104	0	71	14204
2026-01-10 05:40:55.37	33.74	8.10	-50.8	-62.5	3.8	7.44e-01	0	23	104	0	70	13848
2026-01-10 05:40:56.37	33.62	8.17	-49.9	-61.5	3.8	7.47e-01	0	23	104	0	69	13068
2026-01-10 05:40:57.37	33.50	8.23	-50.7	-62.4	3.9	7.47e-01	0	23	104	0	69	14499
2026-01-10 05:40:58.38	33.37	8.30	-53.3	-66.0	3.8	7.46e-01	0	23	104	0	74	16349
2026-01-10 05:40:59.38	33.25	8.37	-55.7	-70.6	3.9	7.47e-01	0	23	104	0	80	19776
2026-01-10 05:41:00.38	33.13	8.44	-52.7	-64.9	3.8	7.45e-01	0	23	104	0	74	14432
2026-01-10 05:41:01.38	33.01	8.50	-51.7	-63.7	3.8	7.45e-01	0	23	104	0	72	14125
2026-01-10 05:41:02.38	32.89	8.57	-51.0	-62.8	3.8	7.49e-01	0	23	104	0	71	13458
2026-01-10 05:41:03.37	32.76	8.64	-50.6	-62.3	3.8	7.47e-01	0	23	104	0	70	13432
2026-01-10 05:41:04.37	32.64	8.71	-50.6	-62.3	3.8	7.46e-01	0	23	104	0	69	14291
2026-01-10 05:41:05.36	32.52	8.77	-52.0	-64.1	3.8	7.44e-01	0	23	104	0	73	13904
2026-01-10 05:41:06.36	32.39	8.84	-52.7	-64.9	3.8	7.44e-01	0	23	104	0	72	16178
2026-01-10 05:41:07.36	32.26	8.91	-56.1	-71.7	3.9	7.43e-01	0	23	104	0	81	21175
2026-01-10 05:41:08.36	32.14	8.98	-53.3	-65.9	3.9	7.46e-01	0	23	104	0	76	14401
2026-01-10 05:41:09.36	32.01	9.04	-51.8	-63.8	3.8	7.46e-01	0	23	104	0	71	15222
2026-01-10 05:41:10.36	31.88	9.11	-51.1	-62.8	3.8	7.45e-01	0	23	104	0	71	13448
2026-01-10 05:41:11.36	31.75	9.18	-50.7	-62.4	3.8	7.42e-01	0	23	104	0	70	13659
2026-01-10 05:41:12.36	31.62	9.25	-50.1	-61.7	3.9	7.47e-01	0	23	104	0	69	13336
2026-01-10 05:41:13.35	31.49	9.31	-50.4	-62.0	3.8	7.43e-01	0	23	104	0	69	13873
2026-01-10 05:41:14.36	31.36	9.38	-52.5	-64.5	3.9	7.40e-01	0	23	104	0	72	15522
2026-01-10 05:41:15.36	31.23	9.45	-56.0	-71.4	3.9	7.39e-01	0	23	104	0	81	20330
2026-01-10 05:41:16.36	31.10	9.52	-53.3	-65.9	3.9	7.46e-01	0	23	104	0	76	14406
2026-01-10 05:41:17.36	30.97	9.59	-51.5	-63.4	3.8	7.43e-01	0	23	104	0	71	14479
2026-01-10 05:41:18.36	30.83	9.66	-50.7	-62.3	3.9	7.44e-01	0	23	104	0	70	13461
2026-01-10 05:41:19.35	30.70	9.73	-50.4	-62.0	3.8	7.42e-01	0	23	104	0	70	12976
2026-01-10 05:41:20.35	30.56	9.79	-50.0	-61.5	3.9	7.46e-01	0	23	104	0	69	13059
2026-01-10 05:41:21.34	30.43	9.86	-50.5	-62.2	3.8	7.44e-01	0	23	104	0	69	14059
2026-01-10 05:41:22.33	30.29	9.93	-52.3	-64.6	3.9	7.45e-01	0	23	104	0	72	15635
2026-01-10 05:41:23.34	30.16	10.00	-56.0	-71.0	3.9	7.43e-01	0	23	104	0	81	19588
2026-01-10 05:41:24.34	30.02	10.07	-53.0	-65.3	3.9	7.43e-01	0	23	104	0	75	14343
2026-01-10 05:41:25.34	29.88	10.14	-51.4	-63.3	3.8	7.47e-01	0	23	104	0	71	14307
2026-01-10 05:41:26.33	29.74	10.21	-51.0	-62.6	3.8	7.48e-01	0	23	104	0	70	14009
2026-01-10 05:41:27.33	29.60	10.28	-50.2	-61.8	3.8	7.50e-01	0	23	104	0	69	13540
2026-01-10 05:41:28.33	29.46	10.34	-49.8	-61.0	3.8	7.43e-01	0	23	104	0	68	13099
2026-01-10 05:41:29.32	29.32	10.41	-49.8	-61.2	3.8	7.45e-01	0	23	104	0	68	13325
2026-01-10 05:41:30.32	29.18	10.48	-52.3	-64.5	3.9	7.43e-01	0	23	104	0	72	15533
2026-01-10 05:41:31.32	29.03	10.55	-55.9	-71.0	3.9	7.43e-01	0	23	104	0	81	19470
2026-01-10 05:41:32.33	28.89	10.62	-53.0	-65.4	3.9	7.45e-01	0	23	104	0	75	14452
2026-01-10 05:41:33.32	28.75	10.69	-51.1	-62.9	3.8	7.45e-01	0	23	104	0	70	14484
2026-01-10 05:41:34.32	28.60	10.76	-50.4	-61.9	3.8	7.46e-01	0	23	104	0	70	12934
2026-01-10 05:41:35.31	28.46	10.83	-49.8	-61.3	3.8	7.44e-01	0	23	104	0	68	13489
2026-01-10 05:41:36.30	28.31	10.90	-49.8	-61.2	3.9	7.46e-01	0	23	104	0	68	13359
2026-01-10 05:41:37.30	28.16	10.97	-51.0	-62.7	3.8	7.44e-01	0	23	104	0	70	14052
2026-01-10 05:41:38.30	28.02	11.04	-51.5	-63.3	3.8	7.44e-01	0	23	104	0	70	15134
2026-01-10 05:41:39.30	27.87	11.11	-56.3	-71.9	3.9	7.43e-01	0	23	104	0	81	21680
2026-01-10 05:41:40.30	27.72	11.18	-53.3	-66.1	3.9	7.46e-01	0	23	104	0	76	14746
2026-01-10 05:41:41.29	27.57	11.25	-51.6	-63.4	3.8	7.44e-01	0	23	104	0	71	14483
2026-01-10 05:41:42.29	27.42	11.32	-50.7	-62.2	3.9	7.45e-01	0	23	104	0	70	13338
2026-01-10 05:41:43.28	27.27	11.38	-50.2	-61.6	3.9	7.46e-01	0	23	104	0	69	13204
2026-01-10 05:41:44.27	27.11	11.45	-50.2	-61.7	3.8	7.47e-01	0	23	104	0	69	13278
2026-01-10 05:41:45.27	26.96	11.52	-50.2	-61.7	3.8	7.50e-01	0	23	104	0	69	13313
2026-01-10 05:41:46.27	26.81	11.59	-51.4	-63.2	3.8	7.44e-01	0	23	104	0	70	14909
2026-01-10 05:41:47.27	26.65	11.66	-56.2	-71.5	3.9	7.43e-01	0	23	104	0	81	20752
2026-01-10 05:41:48.27	26.49	11.73	-53.6	-66.2	3.9	7.46e-01	0	23	104	0	76	14885
2026-01-10 05:41:49.27	26.34	11.80	-50.9	-62.6	3.9	7.48e-01	0	23	104	0	69	14874
2026-01-10 05:41:50.27	26.18	11.87	-50.4	-61.9	3.9	7.43e-01	0	23	104	0	69	13676
2026-01-10 05:41:51.27	26.02	11.94	-49.8	-61.3	3.9	7.44e-01	0	23	104	0	68	13426
2026-01-10 05:41:52.26	25.86	12.01	-49.5	-60.8	3.9	7.43e-01	0	23	104	0	68	12798
2026-01-10 05:41:53.25	25.70	12.08	-49.4	-60.8	3.9	7.45e-01	0	23	104	0	67	13536
2026-01-10 05:41:54.25	25.54	12.15	-51.1	-62.8	3.9	7.44e-01	0	23	104	0	69	15059
2026-01-10 05:41:55.25	25.38	12.22	-56.4	-72.2	3.9	7.42e-01	0	23	104	0	81	22435
2026-01-10 05:41:56.25	25.22	12.29	-54.1	-66.9	3.9	7.45e-01	0	23	104	0	77	15310
2026-01-10 05:41:57.25	25.05	12.36	-50.7	-62.3	3.9	7.46e-01	0	23	104	0	69	14362
2026-01-10 05:41:58.24	24.89	12.43	-50.1	-61.6	3.9	7.45e-01	0	23	104	0	69	13167
2026-01-10 05:41:59.24	24.72	12.50	-49.8	-61.3	3.9	7.45e-01	0	23	104	0	68	13429
2026-01-10 05:42:00.24	24.56	12.57	-49.6	-61.1	3.8	7.46e-01	0	23	104	0	68	13134
2026-01-10 05:42:01.23	24.39	12.64	-49.9	-61.4	3.8	7.47e-01	0	23	104	0	68	13607
2026-01-10 05:42:02.23	24.22	12.71	-50.9	-62.5	3.8	7.42e-01	0	23	104	0	69	14649
2026-01-10 05:42:03.23	24.06	12.78	-56.4	-72.0	3.9	7.42e-01	0	23	104	0	81	21855
2026-01-10 05:42:04.22	23.89	12.85	-54.3	-67.3	3.9	7.43e-01	0	23	104	0	78	15137
2026-01-10 05:42:05.22	23.72	12.92	-50.8	-62.4	3.9	7.44e-01	0	23	104	0	69	14456
2026-01-10 05:42:06.22	23.55	12.99	-50.3	-61.8	3.9	7.44e-01	0	23	104	0	69	13497
2026-01-10 05:42:07.21	23.37	13.06	-49.9	-61.3	3.9	7.44e-01	0	23	104	0	69	12791
2026-01-10 05:42:08.21	23.20	13.13	-49.8	-61.2	3.9	7.46e-01	0	23	104	0	68	13408
2026-01-10 05:42:09.21	23.03	13.20	-50.6	-62.2	3.9	7.45e-01	0	23	104	0	69	14120
2026-01-10 05:42:10.21	22.85	13.27	-51.1	-62.7	3.8	7.44e-01	0	23	104	0	69	14972
2026-01-10 05:42:11.22	22.67	13.34	-56.4	-72.1	3.9	7.45e-01	0	23	104	0	81	22177
2026-01-10 05:42:12.22	22.50	13.41	-54.3	-67.3	3.9	7.44e-01	0	23	104	0	78	15156
2026-01-10 05:42:13.23	22.32	13.48	-50.5	-62.1	3.9	7.43e-01	0	23	104	0	68	14786
2026-01-10 05:42:14.22	22.14	13.55	-49.9	-61.2	3.8	7.46e-01	0	23	104	0	68	13376
2026-01-10 05:42:15.21	21.96	13.62	-49.5	-60.8	3.9	7.45e-01	0	23	104	0	68	12757
2026-01-10 05:42:16.21	21.78	13.69	-49.4	-60.8	3.9	7.45e-01	0	23	104	0	67	13419
2026-01-10 05:42:17.21	21.60	13.76	-50.3	-61.8	3.9	7.43e-01	0	23	104	0	68	14275
2026-01-10 05:42:18.20	21.42	13.83	-50.5	-62.0	3.8	7.47e-01	0	23	104	0	68	14694
2026-01-10 05:42:19.21	21.23	13.90	-56.5	-72.5	3.9	7.40e-01	0	23	104	0	81	23090
2026-01-10 05:42:20.21	21.05	13.97	-54.7	-67.8	3.9	7.42e-01	0	23	104	0	78	16007
2026-01-10 05:42:21.21	20.86	14.04	-50.4	-62.0	3.8	7.45e-01	0	23	104	0	68	14585
2026-01-10 05:42:22.20	20.68	14.11	-49.7	-61.1	3.9	7.44e-01	0	23	104	0	68	13206
2026-01-10 05:42:23.20	20.49	14.18	-49.2	-60.6	3.8	7.47e-01	0	23	104	0	67	13112
2026-01-10 05:42:24.20	20.31	14.25	-49.2	-60.5	3.9	7.44e-01	0	23	104	0	67	13106
2026-01-10 05:42:25.20	20.12	14.31	-49.1	-60.4	3.9	7.48e-01	0	23	104	0	67	12868
2026-01-10 05:42:26.20	19.93	14.38	-50.5	-62.0	3.8	7.44e-01	0	23	104	0	68	14705
2026-01-10 05:42:27.20	19.73	14.45	-56.5	-72.2	3.9	7.43e-01	0	23	104	0	81	22368
2026-01-10 05:42:28.21	19.54	14.52	-54.9	-68.2	3.9	7.44e-01	0	23	104	0	79	15918
2026-01-10 05:42:29.21	19.35	14.59	-50.3	-61.9	3.9	7.42e-01	0	23	104	0	68	14400
2026-01-10 05:42:30.21	19.15	14.66	-49.8	-61.2	3.8	7.43e-01	0	23	104	0	68	13318
2026-01-10 05:42:31.21	18.96	14.73	-49.6	-61.0	3.9	7.43e-01	0	23	104	0	68	12963
2026-01-10 05:42:32.21	18.76	14.80	-49.3	-60.7	3.9	7.48e-01	0	23	104	0	67	13294
2026-01-10 05:42:33.21	18.57	14.87	-49.4	-60.8	3.9	7.45e-01	0	23	104	0	67	13484
2026-01-10 05:42:34.21	18.37	14.93	-50.6	-62.2	3.8	7.45e-01	0	23	104	0	68	14886
2026-01-10 05:42:35.21	18.17	15.00	-56.5	-72.3	3.9	7.44e-01	0	23	104	0	81	22692
2026-01-10 05:42:36.20	17.97	15.07	-54.7	-67.7	3.9	7.46e-01	0	23	104	0	78	15851
2026-01-10 05:42:37.20	17.77	15.14	-50.2	-61.7	3.9	7.46e-01	0	23	104	0	68	14062
2026-01-10 05:42:38.19	17.57	15.20	-49.6	-60.9	3.8	7.44e-01	0	23	104	0	68	12897
2026-01-10 05:42:39.19	17.37	15.27	-49.2	-60.5	3.8	7.47e-01	0	23	104	0	67	13068
2026-01-10 05:42:40.19	17.16	15.34	-49.0	-60.3	3.8	7.45e-01	0	23	104	0	67	12723
2026-01-10 05:42:41.19	16.96	15.41	-49.5	-60.9	3.8	7.44e-01	0	23	104	0	67	13598
2026-01-10 05:42:42.19	16.75	15.47	-50.4	-61.9	3.8	7.43e-01	0	23	104	0	68	14462
2026-01-10 05:42:43.19	16.55	15.54	-56.5	-72.1	3.9	7.43e-01	0	23	104	0	81	22173
2026-01-10 05:42:44.19	16.34	15.61	-54.9	-68.2	3.9	7.47e-01	0	23	104	0	79	15865
2026-01-10 05:42:45.19	16.13	15.67	-50.2	-61.7	3.9	7.45e-01	0	23	104	0	68	14072
2026-01-10 05:42:46.18	15.92	15.74	-49.7	-61.1	3.8	7.42e-01	0	23	104	0	68	13178
2026-01-10 05:42:47.18	15.71	15.81	-49.3	-60.6	3.9	7.41e-01	0	23	104	0	67	13189
2026-01-10 05:42:48.18	15.50	15.87	-49.0	-60.3	3.9	7.44e-01	0	23	104	0	67	12741
2026-01-10 05:42:49.18	15.29	15.94	-49.5	-60.9	3.9	7.43e-01	0	23	104	0	67	13574
2026-01-10 05:42:50.18	15.07	16.00	-50.5	-62.0	3.9	7.48e-01	0	23	104	0	68	14647
2026-01-10 05:42:51.18	14.86	16.07	-56.5	-72.1	3.9	7.41e-01	0	23	104	0	81	22212
2026-01-10 05:42:52.19	14.64	16.14	-54.9	-68.4	3.9	7.42e-01	0	23	104	0	79	16231
2026-01-10 05:42:53.19	14.42	16.20	-50.1	-61.6	3.9	7.42e-01	0	23	104	0	68	13971
2026-01-10 05:42:54.19	14.21	16.27	-49.5	-60.9	3.8	7.43e-01	0	23	104	0	68	12959
2026-01-10 05:42:55.18	13.99	16.33	-49.4	-60.8	3.8	7.47e-01	0	23	104	0	68	12685
2026-01-10 05:42:56.18	13.77	16.40	-49.3	-60.6	3.9	7.46e-01	0	23	104	0	67	13134
2026-01-10 05:42:57.17	13.55	16.46	-50.2	-61.6	3.9	7.47e-01	0	23	104	0	68	14027
2026-01-10 05:42:58.18	13.33	16.52	-50.5	-62.0	3.9	7.44e-01	0	23	104	0	68	14644
2026-01-10 05:42:59.18	13.10	16.59	-56.4	-71.7	3.9	7.45e-01	0	23	104	0	81	21136
2026-01-10 05:43:00.18	12.88	16.65	-55.1	-68.5	3.9	7.44e-01	0	23	104	0	79	16357
2026-01-10 05:43:01.18	12.65	16.72	-50.1	-61.6	3.9	7.45e-01	0	23	104	0	68	13963
2026-01-10 05:43:02.18	12.43	16.78	-49.6	-61.0	3.9	7.46e-01	0	23	104	0	68	12963
2026-01-10 05:43:03.18	12.20	16.84	-49.2	-60.6	3.9	7.46e-01	0	23	104	0	67	13114
2026-01-10 05:43:04.18	11.97	16.90	-49.1	-60.4	3.8	7.44e-01	0	23	104	0	67	12908
2026-01-10 05:43:05.18	11.74	16.97	-49.8	-61.3	3.9	7.47e-01	0	23	104	0	67	14327
2026-01-10 05:43:06.18	11.51	17.03	-50.5	-62.1	3.8	7.46e-01	0	23	104	0	69	13888
2026-01-10 05:43:07.18	11.28	17.09	-56.4	-71.7	3.9	7.46e-01	0	23	104	0	81	21027
2026-01-10 05:43:08.18	11.05	17.15	-55.0	-68.4	3.9	7.43e-01	0	23	104	0	79	16264
2026-01-10 05:43:09.18	10.82	17.21	-50.3	-61.8	3.9	7.45e-01	0	23	104	0	68	14326
2026-01-10 05:43:10.18	10.58	17.27	-49.9	-61.3	3.8	7.44e-01	0	23	104	0	68	13448
2026-01-10 05:43:11.18	10.35	17.33	-49.6	-61.0	3.8	7.48e-01	0	23	104	0	68	13097
2026-01-10 05:43:12.18	10.11	17.40	-49.3	-60.7	3.8	7.47e-01	0	23	104	0	67	13352
2026-01-10 05:43:13.18	9.88	17.46	-49.7	-61.2	3.8	7.47e-01	0	23	104	0	67	14080
2026-01-10 05:43:14.18	9.64	17.51	-50.6	-62.1	3.8	7.47e-01	0	23	104	0	69	14045
2026-01-10 05:43:15.18	9.40	17.57	-56.4	-71.6	3.9	7.43e-01	0	23	104	0	81	20879
2026-01-10 05:43:16.18	9.16	17.63	-55.0	-68.4	3.9	7.46e-01	0	23	104	0	79	16174
2026-01-10 05:43:17.18	8.92	17.69	-50.4	-61.9	3.8	7.46e-01	0	23	104	0	68	14504
2026-01-10 05:43:18.18	8.67	17.75	-49.8	-61.3	3.8	7.48e-01	0	23	104	0	68	13476
2026-01-10 05:43:19.18	8.43	17.81	-49.6	-60.9	3.9	7.44e-01	0	23	104	0	68	12941
2026-01-10 05:43:20.18	8.19	17.87	-49.4	-60.7	3.9	7.46e-01	0	23	104	0	68	12641
2026-01-10 05:43:21.18	7.94	17.92	-49.6	-61.0	3.8	7.46e-01	0	23	104	0	67	13835
2026-01-10 05:43:22.17	7.70	17.98	-50.6	-62.2	3.8	7.47e-01	0	23	104	0	69	14095
2026-01-10 05:43:23.17	7.45	18.04	-56.5	-71.7	3.9	7.44e-01	0	23	104	0	81	21056
2026-01-10 05:43:24.18	7.20	18.09	-55.1	-68.5	3.9	7.40e-01	0	24	104	0	79	16385
2026-01-10 05:43:25.18	6.95	18.15	-50.3	-61.8	3.8	7.45e-01	0	23	104	0	68	14351
2026-01-10 05:43:26.18	6.70	18.20	-49.8	-61.3	3.8	7.44e-01	0	23	104	0	68	13471
2026-01-10 05:43:27.18	6.45	18.26	-49.8	-61.2	3.8	7.48e-01	0	23	104	0	68	13320
2026-01-10 05:43:28.18	6.20	18.31	-49.8	-61.3	3.8	7.47e-01	0	23	104	0	68	13440
2026-01-10 05:43:29.18	5.94	18.37	-51.4	-63.1	3.8	7.45e-01	0	23	104	0	71	14045
2026-01-10 05:43:30.19	5.69	18.42	-50.6	-62.2	3.8	7.44e-01	0	23	104	0	70	13294
2026-01-10 05:43:31.19	5.43	18.47	-56.4	-71.6	3.9	7.43e-01	0	23	104	0	81	20898
2026-01-10 05:43:32.18	5.18	18.53	-55.2	-68.5	3.9	7.44e-01	0	23	104	0	79	16468
2026-01-10 05:43:33.18	4.92	18.58	-50.4	-61.9	3.8	7.47e-01	0	23	104	0	68	14532
2026-01-10 05:43:34.17	4.67	18.63	-49.9	-61.2	3.8	7.43e-01	0	23	104	0	68	13393
2026-01-10 05:43:35.17	4.41	18.68	-49.5	-60.8	3.8	7.43e-01	0	23	104	0	68	12748
2026-01-10 05:43:36.17	4.15	18.73	-49.4	-60.8	3.9	7.48e-01	0	23	104	0	67	13416
2026-01-10 05:43:37.17	3.89	18.78	-50.1	-61.6	3.9	7.48e-01	0	23	104	0	68	13976
2026-01-10 05:43:38.17	3.63	18.83	-50.6	-62.2	3.8	7.43e-01	0	23	104	0	69	14047
2026-01-10 05:43:39.17	3.36	18.88	-56.5	-71.7	3.9	7.43e-01	0	23	104	0	81	21043
2026-01-10 05:43:40.17	3.10	18.93	-55.2	-68.5	3.9	7.46e-01	0	24	104	0	79	16349
2026-01-10 05:43:41.17	2.84	18.98	-50.3	-61.9	3.9	7.44e-01	0	23	104	0	68	14386
2026-01-10 05:43:42.17	2.57	19.03	-49.7	-61.1	3.9	7.48e-01	0	23	104	0	68	13201
2026-01-10 05:43:43.16	2.31	19.08	-49.6	-61.0	3.9	7.45e-01	0	23	104	0	68	13024
2026-01-10 05:43:44.16	2.04	19.12	-49.5	-60.8	3.8	7.40e-01	0	24	104	0	68	12755
2026-01-10 05:43:45.16	1.77	19.17	-51.6	-63.5	3.9	7.43e-01	0	23	104	0	71	14580
2026-01-10 05:43:46.15	1.51	19.21	-50.7	-62.3	3.8	7.44e-01	0	24	104	0	70	13519
2026-01-10 05:43:47.15	1.24	19.26	-56.6	-72.1	3.9	7.47e-01	0	23	104	0	81	22092
2026-01-10 05:43:48.16	0.96	19.31	-55.7	-69.6	3.9	7.39e-01	0	23	104	0	80	17501
2026-01-10 05:43:49.17	0.69	19.35	-50.3	-61.9	3.8	7.47e-01	0	23	104	0	68	14377
2026-01-10 05:43:50.17	0.42	19.39	-49.9	-61.4	3.9	7.46e-01	0	23	104	0	68	13581
2026-01-10 05:43:51.16	0.15	19.44	-49.9	-61.3	3.8	7.45e-01	0	23	104	0	68	13424
2026-01-10 05:43:52.16	359.87	19.48	-49.6	-60.9	3.9	7.46e-01	0	23	104	0	68	12920
2026-01-10 05:43:53.16	359.60	19.52	-49.9	-61.3	3.9	7.47e-01	0	24	104	0	68	13536
2026-01-10 05:43:54.16	359.32	19.56	-50.7	-62.2	3.9	7.44e-01	0	23	104	0	69	14156
2026-01-10 05:43:55.16	359.05	19.60	-56.6	-72.0	3.9	7.46e-01	0	24	104	0	81	21815
2026-01-10 05:43:56.17	358.77	19.64	-55.4	-69.0	3.9	7.46e-01	0	24	104	0	80	16374
2026-01-10 05:43:57.17	358.49	19.68	-50.2	-61.7	3.9	7.49e-01	0	23	104	0	68	14147
2026-01-10 05:43:58.18	358.21	19.72	-49.8	-61.1	3.9	7.48e-01	0	23	104	0	68	13236
2026-01-10 05:43:59.18	357.93	19.76	-49.5	-60.8	3.8	7.46e-01	0	24	104	0	68	12757
2026-01-10 05:44:00.19	357.65	19.80	-49.5	-60.9	3.9	7.45e-01	0	23	104	0	68	12861
2026-01-10 05:44:01.17	357.37	19.84	-50.2	-61.8	3.9	7.45e-01	0	24	104	0	68	14213
2026-01-10 05:44:02.17	357.09	19.87	-50.9	-62.5	3.9	7.46e-01	0	23	104	0	69	14573
2026-01-10 05:44:03.17	356.81	19.91	-56.4	-71.4	3.9	7.47e-01	0	23	104	0	81	20492
2026-01-10 05:44:04.17	356.52	19.94	-55.5	-69.1	3.9	7.44e-01	0	23	104	0	80	16692
2026-01-10 05:44:05.16	356.24	19.98	-50.3	-61.8	3.9	7.45e-01	0	23	104	0	68	14257
2026-01-10 05:44:06.17	355.96	20.01	-49.8	-61.2	3.9	7.45e-01	0	23	104	0	68	13344
2026-01-10 05:44:07.17	355.67	20.05	-49.7	-61.1	3.9	7.45e-01	0	23	104	0	68	13160
2026-01-10 05:44:08.17	355.39	20.08	-49.6	-61.0	3.8	7.46e-01	0	23	104	0	68	13052
2026-01-10 05:44:09.18	355.10	20.11	-51.0	-62.6	3.9	7.43e-01	0	23	104	0	70	14025
2026-01-10 05:44:10.18	354.81	20.14	-50.9	-62.5	3.9	7.44e-01	0	23	104	0	70	13846
2026-01-10 05:44:11.18	354.52	20.17	-56.5	-71.5	3.9	7.46e-01	0	23	104	0	81	20699
2026-01-10 05:44:12.17	354.24	20.20	-55.6	-69.3	3.9	7.44e-01	0	23	104	0	80	17078
2026-01-10 05:44:13.17	353.95	20.23	-50.2	-61.7	3.8	7.43e-01	0	23	104	0	68	14188
2026-01-10 05:44:14.17	353.66	20.26	-49.7	-61.1	3.8	7.46e-01	0	23	104	0	68	13170
2026-01-10 05:44:15.17	353.37	20.29	-49.7	-61.1	3.8	7.44e-01	0	23	104	0	68	13178
2026-01-10 05:44:16.17	353.08	20.31	-49.9	-61.3	3.8	7.47e-01	0	23	104	0	68	13496
2026-01-10 05:44:17.17	352.79	20.34	-51.3	-63.0	3.9	7.45e-01	0	24	104	0	70	14623
2026-01-10 05:44:18.16	352.50	20.37	-51.0	-62.5	3.8	7.42e-01	0	23	104	0	70	13853
2026-01-10 05:44:19.17	352.21	20.39	-56.4	-71.4	3.9	7.44e-01	0	23	104	0	81	20363
2026-01-10 05:44:20.17	351.91	20.42	-55.6	-69.3	3.9	7.49e-01	0	23	104	0	80	16894
2026-01-10 05:44:21.16	351.62	20.44	-50.2	-61.7	3.8	7.45e-01	0	23	104	0	68	14139
2026-01-10 05:44:22.17	351.33	20.46	-49.8	-61.2	3.8	7.42e-01	0	23	104	0	68	13318
2026-01-10 05:44:23.16	351.04	20.48	-49.8	-61.2	3.8	7.46e-01	0	23	104	0	68	13368
2026-01-10 05:44:24.17	350.74	20.51	-49.6	-61.0	3.9	7.47e-01	0	24	104	0	68	12971
2026-01-10 05:44:25.16	350.45	20.53	-50.7	-62.2	3.9	7.46e-01	0	23	104	0	69	14128
2026-01-10 05:44:26.16	350.15	20.55	-51.1	-62.6	3.9	7.45e-01	0	23	104	0	70	14007
2026-01-10 05:44:27.17	349.86	20.56	-56.4	-71.3	3.9	7.42e-01	0	23	104	0	81	20300
2026-01-10 05:44:28.16	349.56	20.58	-56.2	-70.6	3.9	7.42e-01	0	23	104	0	81	18680
2026-01-10 05:44:29.17	349.26	20.60	-50.3	-61.7	3.8	7.44e-01	0	23	104	0	68	14116
2026-01-10 05:44:30.17	348.97	20.62	-50.1	-61.6	3.8	7.48e-01	0	23	104	0	68	13951
2026-01-10 05:44:31.17	348.67	20.63	-49.9	-61.2	3.8	7.47e-01	0	23	104	0	68	13381
2026-01-10 05:44:32.18	348.37	20.65	-49.7	-61.0	3.8	7.44e-01	0	23	104	0	68	13099
2026-01-10 05:44:33.18	348.07	20.66	-50.1	-61.5	3.9	7.47e-01	0	23	104	0	68	13812
2026-01-10 05:44:34.17	347.78	20.68	-51.1	-62.7	3.9	7.45e-01	0	24	104	0	70	14107
2026-01-10 05:44:35.17	347.48	20.69	-56.4	-71.2	3.9	7.43e-01	0	23	104	0	81	20031
2026-01-10 05:44:36.17	347.18	20.70	-55.8	-69.4	3.9	7.45e-01	0	23	104	0	80	17175
2026-01-10 05:44:37.17	346.88	20.71	-50.3	-61.7	3.8	7.46e-01	0	23	104	0	69	13372
2026-01-10 05:44:38.17	346.58	20.72	-49.8	-61.2	3.9	7.45e-01	0	23	104	0	68	13298
2026-01-10 05:44:39.17	346.29	20.73	-49.8	-61.1	3.9	7.46e-01	0	24	104	0	68	13200
2026-01-10 05:44:40.16	345.99	20.74	-49.8	-61.2	3.9	7.42e-01	0	24	104	0	68	13344
2026-01-10 05:44:41.16	345.69	20.75	-50.3	-61.8	3.9	7.48e-01	0	23	104	0	68	14221
2026-01-10 05:44:42.16	345.39	20.76	-51.1	-62.6	3.9	7.43e-01	0	23	104	0	70	13998
2026-01-10 05:44:43.16	345.09	20.76	-56.6	-71.6	3.9	7.44e-01	0	23	104	0	81	20995
2026-01-10 05:44:44.16	344.79	20.77	-56.2	-70.7	3.9	7.43e-01	0	23	104	0	81	18901
2026-01-10 05:44:45.16	344.49	20.78	-50.3	-61.9	3.8	7.43e-01	0	23	104	0	69	13581
2026-01-10 05:44:46.15	344.19	20.78	-49.9	-61.3	3.8	7.45e-01	0	23	104	0	69	12798
2026-01-10 05:44:47.15	343.89	20.78	-49.8	-61.3	3.8	7.45e-01	0	23	104	0	68	13416
2026-01-10 05:44:48.15	343.59	20.79	-49.9	-61.2	3.8	7.47e-01	0	23	104	0	68	13388
2026-01-10 05:44:49.14	343.30	20.79	-51.4	-63.0	3.8	7.44e-01	0	23	104	0	71	13868
2026-01-10 05:44:50.14	343.00	20.79	-51.1	-62.8	3.9	7.45e-01	0	23	104	0	71	13420
2026-01-10 05:44:51.13	342.70	20.79	-56.5	-71.5	3.9	7.42e-01	0	23	104	0	81	20628
2026-01-10 05:44:52.13	342.40	20.79	-56.2	-70.8	3.9	7.44e-01	0	23	104	0	81	19045
2026-01-10 05:44:53.13	342.10	20.79	-50.3	-61.7	3.9	7.43e-01	0	23	104	0	68	14172
2026-01-10 05:44:54.13	341.80	20.78	-49.8	-61.2	3.8	7.45e-01	0	23	104	0	68	13355
2026-01-10 05:44:55.13	341.50	20.78	-49.8	-61.2	3.8	7.46e-01	0	23	104	0	68	13324
2026-01-10 05:44:56.13	341.20	20.78	-49.7	-61.1	3.9	7.49e-01	0	23	104	0	68	13221
2026-01-10 05:44:57.13	340.90	20.77	-51.1	-62.6	3.9	7.44e-01	0	24	104	0	70	14043
2026-01-10 05:44:58.13	340.60	20.77	-51.1	-62.8	3.8	7.45e-01	0	23	104	0	70	14215
2026-01-10 05:44:59.13	340.30	20.76	-56.5	-71.4	3.9	7.47e-01	0	23	104	0	81	20525
2026-01-10 05:45:00.13	340.00	20.76	-56.3	-70.9	3.9	7.43e-01	0	23	104	0	81	19351
2026-01-10 05:45:01.13	339.70	20.75	-50.3	-61.7	3.8	7.42e-01	0	23	104	0	69	13318
2026-01-10 05:45:02.14	339.40	20.74	-49.9	-61.3	3.8	7.43e-01	0	23	104	0	68	13436
2026-01-10 05:45:03.13	339.10	20.73	-49.9	-61.3	3.8	7.46e-01	0	23	104	0	68	13453
2026-01-10 05:45:04.14	338.80	20.72	-49.9	-61.4	3.8	7.47e-01	0	23	104	0	68	13630
2026-01-10 05:45:05.13	338.50	20.71	-49.8	-61.1	3.8	7.45e-01	0	23	104	0	68	13166
2026-01-10 05:45:06.13	338.20	20.70	-51.2	-62.9	3.9	7.43e-01	0	23	104	0	70	14380
2026-01-10 05:45:07.13	337.91	20.68	-56.5	-71.4	3.9	7.44e-01	0	23	104	0	81	20474
2026-01-10 05:45:08.13	337.61	20.67	-56.4	-71.0	3.9	7.46e-01	0	23	104	0	81	19560
2026-01-10 05:45:09.12	337.31	20.66	-50.2	-61.6	3.9	7.46e-01	0	23	104	0	68	13936
2026-01-10 05:45:10.12	337.02	20.64	-49.8	-61.1	3.8	7.46e-01	0	23	104	0	68	13215
2026-01-10 05:45:11.11	336.72	20.63	-49.8	-61.1	3.9	7.45e-01	0	24	104	0	68	13215
2026-01-10 05:45:12.11	336.42	20.61	-49.9	-61.4	3.8	7.44e-01	0	23	104	0	68	13717
2026-01-10 05:45:13.12	336.13	20.59	-50.8	-62.5	3.9	7.45e-01	0	23	104	0	69	14549
2026-01-10 05:45:14.12	335.83	20.58	-51.3	-62.8	3.8	7.48e-01	0	23	104	0	71	13479
2026-01-10 05:45:15.12	335.53	20.56	-56.5	-71.2	3.9	7.47e-01	0	24	104	0	81	20066
2026-01-10 05:45:16.12	335.24	20.54	-56.3	-70.7	3.9	7.43e-01	0	23	104	0	81	18781
2026-01-10 05:45:17.13	334.94	20.52	-50.7	-62.2	3.9	7.47e-01	0	23	104	0	69	14198
2026-01-10 05:45:18.12	334.65	20.50	-50.2	-61.8	3.8	7.45e-01	0	23	104	0	69	13470
2026-01-10 05:45:19.13	334.35	20.48	-50.2	-61.5	3.8	7.46e-01	0	23	104	0	69	13102
2026-01-10 05:45:20.13	334.06	20.45	-49.9	-61.1	3.8	7.44e-01	0	23	104	0	69	12509
2026-01-10 05:45:21.12	333.77	20.43	-51.1	-62.8	3.9	7.43e-01	0	23	104	0	70	14336
2026-01-10 05:45:22.12	333.47	20.41	-51.2	-62.9	3.8	7.48e-01	0	24	104	0	71	13606
2026-01-10 05:45:23.11	333.19	20.38	-56.7	-71.8	3.8	7.43e-01	0	23	104	0	81	21486
2026-01-10 05:45:24.11	332.89	20.36	-56.8	-72.0	3.9	7.42e-01	0	23	104	0	82	20706
2026-01-10 05:45:25.11	332.60	20.33	-50.2	-61.7	3.8	7.43e-01	0	23	104	0	68	14108
2026-01-10 05:45:26.11	332.31	20.31	-49.9	-61.3	3.8	7.45e-01	0	23	104	0	68	13439
2026-01-10 05:45:27.11	332.02	20.28	-50.1	-61.6	3.8	7.46e-01	0	23	104	0	68	13949
2026-01-10 05:45:28.11	331.73	20.25	-50.1	-61.7	3.8	7.47e-01	0	23	104	0	68	14055
2026-01-10 05:45:29.11	331.44	20.22	-49.7	-61.0	3.8	7.45e-01	0	23	104	0	68	13014
2026-01-10 05:45:30.11	331.15	20.19	-53.1	-65.1	3.8	7.44e-01	0	23	104	0	74	14830
2026-01-10 05:45:31.10	330.87	20.16	-56.4	-71.2	3.8	7.45e-01	0	23	104	0	81	19900
2026-01-10 05:45:32.10	330.58	20.13	-49.8	-61.4	3.8	7.48e-01	0	23	104	0	68	13622
2026-01-10 05:45:33.11	330.29	20.10	-56.5	-71.2	3.8	7.43e-01	0	23	104	0	81	20052
2026-01-10 05:45:34.11	330.01	20.07	-49.7	-61.1	3.8	7.45e-01	0	23	104	0	68	13121
2026-01-10 05:45:35.11	329.72	20.03	-50.0	-61.6	3.8	7.49e-01	0	23	104	0	68	14041
2026-01-10 05:45:36.10	329.44	20.00	-49.8	-61.0	3.8	7.44e-01	0	23	104	0	68	12986
2026-01-10 05:45:37.10	329.15	19.97	-55.2	-68.4	3.8	7.47e-01	0	23	104	0	78	17167
2026-01-10 05:45:38.10	328.87	19.93	-51.3	-63.2	3.8	7.45e-01	0	23	104	0	71	14075
2026-01-10 05:45:39.11	328.59	19.90	-56.6	-71.7	3.8	7.41e-01	0	23	104	0	81	21058
2026-01-10 05:45:40.11	328.30	19.86	-56.8	-72.0	3.8	7.42e-01	0	23	104	0	82	20673
2026-01-10 05:45:41.11	328.02	19.82	-50.1	-61.7	3.8	7.46e-01	0	23	104	0	68	14082
2026-01-10 05:45:42.09	327.75	19.79	-49.7	-60.9	3.8	7.44e-01	0	23	104	0	68	12858
2026-01-10 05:45:43.09	327.47	19.75	-49.7	-61.0	3.8	7.49e-01	0	23	104	0	68	13081
2026-01-10 05:45:44.09	327.19	19.71	-49.7	-61.5	3.8	7.43e-01	0	23	104	0	68	13750
2026-01-10 05:45:45.08	326.91	19.67	-51.6	-62.9	3.8	7.43e-01	0	23	104	0	71	13649
2026-01-10 05:45:46.07	326.64	19.63	-51.2	-62.8	3.8	7.45e-01	0	23	104	0	71	13528
2026-01-10 05:45:47.07	326.36	19.59	-56.6	-72.2	3.9	7.42e-01	0	23	104	0	81	22469
2026-01-10 05:45:48.06	326.09	19.55	-56.9	-72.1	3.8	7.46e-01	0	23	104	0	81	22024
2026-01-10 05:45:49.06	325.81	19.51	-50.3	-62.0	3.8	7.49e-01	0	23	104	0	69	13762
2026-01-10 05:45:50.06	325.54	19.47	-50.3	-61.9	3.8	7.48e-01	0	23	104	0	69	13576
2026-01-10 05:45:51.05	325.27	19.42	-50.3	-61.1	3.8	7.48e-01	0	23	104	0	69	12499
2026-01-10 05:45:52.05	324.99	19.38	-50.5	-63.0	3.8	7.47e-01	0	23	104	0	69	15560
2026-01-10 05:45:53.05	324.72	19.34	-51.5	-63.0	3.8	7.51e-01	0	23	104	0	70	14641
2026-01-10 05:45:54.06	324.45	19.29	-52.7	-64.0	3.8	7.45e-01	0	23	104	0	73	13755
2026-01-10 05:45:55.06	324.18	19.25	-56.6	-72.1	3.8	7.44e-01	0	23	104	0	81	22218
2026-01-10 05:45:56.06	323.91	19.20	-49.7	-61.2	3.8	7.46e-01	0	23	104	0	68	13358
2026-01-10 05:45:57.06	323.64	19.16	-56.4	-71.3	3.9	7.47e-01	0	23	104	0	81	20237
2026-01-10 05:45:58.07	323.37	19.11	-49.7	-60.8	3.8	7.47e-01	0	23	104	0	68	12741
2026-01-10 05:45:59.07	323.10	19.06	-49.6	-60.4	3.9	7.41e-01	0	23	104	0	68	12101
2026-01-10 05:46:00.07	322.84	19.01	-49.7	-61.8	3.9	7.46e-01	0	23	104	0	68	14363
2026-01-10 05:46:01.07	322.57	18.97	-56.5	-71.3	3.8	7.47e-01	0	23	104	0	81	20175
2026-01-10 05:46:02.08	322.30	18.92	-51.2	-62.2	3.8	7.48e-01	0	23	104	0	71	12608
2026-01-10 05:46:03.08	322.04	18.87	-56.6	-71.6	3.8	7.43e-01	0	23	104	0	81	20882
2026-01-10 05:46:04.08	321.78	18.82	-56.8	-71.9	3.9	7.42e-01	0	23	104	0	82	20412
2026-01-10 05:46:05.09	321.51	18.77	-50.1	-62.1	3.8	7.48e-01	0	23	104	0	68	14759
2026-01-10 05:46:06.09	321.25	18.72	-49.6	-60.9	3.8	7.47e-01	0	23	104	0	68	12932
2026-01-10 05:46:07.10	320.99	18.66	-49.6	-60.4	3.9	7.42e-01	0	23	104	0	68	12212
2026-01-10 05:46:08.10	320.73	18.61	-49.5	-52.1	5.0	7.06e-01	0	23	104	0	68	4653
2026-01-10 05:46:09.09	320.48	18.56	-49.6	-51.4	15.7	6.04e-01	0	23	0	524288	67	4573
2026-01-10 05:46:10.09	320.22	18.51	-50.8	-52.7	15.6	6.02e-01	0	23	0	2621440	69	4748
2026-01-10 05:46:11.10	319.96	18.45	-56.3	-62.0	12.1	6.05e-01	0	23	0	4194304	80	7307
2026-01-10 05:46:12.09	319.71	18.40	-56.8	-63.4	11.0	6.11e-01	0	23	0	6291456	82	7664
2026-01-10 05:46:13.09	319.45	18.35	-49.3	-51.0	16.0	6.05e-01	0	23	0	8388608	67	4369
2026-01-10 05:46:14.09	319.20	18.29	-49.6	-51.4	15.8	6.04e-01	0	23	0	9961472	67	4550
2026-01-10 05:46:15.09	318.95	18.24	-49.6	-51.3	15.9	6.05e-01	0	23	0	12058624	67	4514
2026-01-10 05:46:16.09	318.70	18.18	-49.5	-51.3	15.8	6.03e-01	0	24	0	13631488	67	4505
2026-01-10 05:46:17.09	318.45	18.13	-49.5	-51.2	15.9	6.03e-01	0	23	0	15728640	67	4481
2026-01-10 05:46:18.09	318.20	18.07	-49.3	-51.0	15.9	6.02e-01	0	23	0	17301504	67	4387
2026-01-10 05:46:19.09	317.95	18.02	-49.4	-51.2	15.9	6.04e-01	0	23	0	19398656	67	4446
2026-01-10 05:46:20.09	317.70	17.96	-49.1	-50.7	16.0	6.03e-01	0	23	0	21495808	67	4224
2026-01-10 05:46:21.09	317.46	17.90	-49.3	-51.1	15.9	6.02e-01	0	23	0	23068672	67	4393
2026-01-10 05:46:22.09	317.21	17.84	-49.2	-50.9	16.0	6.06e-01	0	23	0	25165824	67	4325
2026-01-10 05:46:23.10	316.97	17.79	-49.4	-51.2	15.9	6.02e-01	0	23	0	26738688	67	4453
2026-01-10 05:46:24.10	316.72	17.73	-49.1	-50.7	16.1	6.05e-01	0	23	0	28835840	67	4224
2026-01-10 05:46:25.10	316.48	17.67	-49.6	-51.4	15.8	6.03e-01	0	23	0	30408704	67	4572
2026-01-10 05:46:26.10	316.24	17.61	-49.4	-51.1	15.9	6.05e-01	0	23	0	32505856	67	4418
2026-01-10 05:46:27.09	316.00	17.55	-49.8	-51.7	15.7	6.05e-01	0	23	0	34603008	67	4714
2026-01-10 05:46:28.09	315.76	17.49	-49.9	-51.7	15.7	6.01e-01	0	23	0	36175872	67	4723
2026-01-10 05:46:29.09	315.52	17.43	-49.5	-51.2	16.1	6.04e-01	0	23	0	38273024	68	4201
2026-01-10 05:46:30.09	315.29	17.37	-49.6	-51.4	15.8	6.01e-01	0	23	0	39845888	67	4551
2026-01-10 05:46:31.09	315.05	17.31	-49.1	-50.7	16.1	6.05e-01	0	23	0	41943040	67	4235
2026-01-10 05:46:32.09	314.82	17.25	-49.4	-51.2	15.9	6.03e-01	0	23	0	44040192	67	4457
2026-01-10 05:46:33.10	314.58	17.19	-49.4	-51.2	15.9	6.03e-01	0	23	0	45613056	67	4449
2026-01-10 05:46:34.10	314.35	17.13	-49.3	-51.0	15.9	6.03e-01	0	23	0	47710208	67	4377
2026-01-10 05:46:35.10	314.11	17.07	-49.5	-51.3	15.7	6.03e-01	0	23	0	49283072	66	4799
2026-01-10 05:46:36.09	313.89	17.01	-49.0	-50.6	16.0	6.04e-01	0	23	0	51380224	67	4190
2026-01-10 05:46:37.10	313.65	16.94	-49.9	-51.7	15.7	6.04e-01	0	23	0	52953088	67	4734
2026-01-10 05:46:38.08	313.43	16.88	-49.0	-50.6	16.1	6.03e-01	0	23	0	55050240	67	4191
2026-01-10 05:46:39.08	313.20	16.82	-50.1	-52.0	15.6	6.04e-01	0	23	0	57147392	67	4889
2026-01-10 05:46:40.07	312.98	16.76	-49.5	-51.2	16.0	6.02e-01	0	23	0	58720256	68	4232
2026-01-10 05:46:41.07	312.75	16.69	-50.4	-52.4	15.6	6.03e-01	0	23	0	60817408	68	4828
2026-01-10 05:46:42.07	312.52	16.63	-50.1	-51.9	15.8	6.02e-01	0	24	0	62390272	68	4580
2026-01-10 05:46:43.06	312.30	16.57	-50.6	-52.6	15.7	6.04e-01	0	23	0	64487424	69	4666
2026-01-10 05:46:44.06	312.08	16.50	-49.5	-51.2	16.1	6.02e-01	0	23	0	66060288	68	4224
2026-01-10 05:46:45.06	311.86	16.44	-50.0	-51.9	15.8	6.03e-01	0	23	0	68157440	68	4583
2026-01-10 05:46:46.05	311.64	16.37	-50.0	-51.8	15.8	6.06e-01	0	23	0	69730304	68	4497
2026-01-10 05:46:47.05	311.42	16.31	-50.4	-52.3	15.6	6.03e-01	0	23	0	71827456	68	4812
2026-01-10 05:46:48.05	311.20	16.24	-50.1	-51.9	15.8	6.03e-01	0	23	0	73924608	68	4598
2026-01-10 05:46:49.04	310.99	16.18	-50.5	-52.4	15.7	6.04e-01	0	23	0	75497472	69	4596
2026-01-10 05:46:50.04	310.77	16.11	-49.7	-51.4	16.0	6.04e-01	0	23	0	77594624	68	4307
2026-01-10 05:46:51.03	310.55	16.05	-50.2	-52.1	15.7	6.04e-01	0	23	0	79167488	68	4703
2026-01-10 05:46:52.03	310.34	15.98	-50.0	-51.8	15.8	6.03e-01	0	23	0	81264640	68	4502
2026-01-10 05:46:53.03	310.13	15.92	-50.7	-52.7	15.6	6.03e-01	0	23	0	82837504	69	4734
2026-01-10 05:46:54.02	309.92	15.85	-49.6	-51.3	16.0	6.04e-01	0	23	0	84934656	68	4268
2026-01-10 05:46:55.02	309.70	15.78	-49.8	-51.6	15.9	6.06e-01	0	23	0	87031808	68	4408
2026-01-10 05:46:56.02	309.49	15.72	-49.5	-51.2	16.1	6.02e-01	0	23	0	88604672	68	4204
2026-01-10 05:46:57.03	309.28	15.65	-49.4	-51.1	15.9	6.03e-01	0	23	0	90701824	67	4411
2026-01-10 05:46:58.02	309.07	15.58	-49.4	-51.1	15.9	6.03e-01	0	23	0	92274688	67	4422
2026-01-10 05:46:59.03	308.86	15.52	-49.2	-50.8	16.0	6.02e-01	0	23	0	94371840	67	4290
2026-01-10 05:47:00.04	308.66	15.45	-49.0	-50.7	16.1	6.04e-01	0	23	0	95944704	67	4207
2026-01-10 05:47:01.03	308.45	15.38	-49.3	-51.0	16.0	6.04e-01	0	23	0	98041856	67	4373
2026-01-10 05:47:02.03	308.25	15.32	-49.1	-50.8	16.0	6.04e-01	0	23	0	100139008	67	4256
2026-01-10 05:47:03.03	308.04	15.25	-49.2	-50.9	16.0	6.04e-01	0	23	0	101711872	67	4311
2026-01-10 05:47:04.03	307.84	15.18	-49.1	-50.8	16.1	6.05e-01	0	23	0	103809024	67	4245
2026-01-10 05:47:05.03	307.64	15.11	-49.0	-50.7	16.1	6.02e-01	0	23	0	105381888	67	4199
2026-01-10 05:47:06.03	307.44	15.04	-49.4	-51.1	15.9	6.04e-01	0	23	0	107479040	67	4421
2026-01-10 05:47:07.03	307.24	14.98	-48.8	-50.4	16.0	6.04e-01	0	23	0	109051904	66	4328
2026-01-10 05:47:08.03	307.04	14.91	-49.3	-51.0	15.8	6.02e-01	0	23	0	111149056	66	4637
2026-01-10 05:47:09.03	306.84	14.84	-49.3	-51.0	15.7	6.03e-01	0	23	0	113246208	66	4631
2026-01-10 05:47:10.03	306.64	14.77	-48.8	-50.4	16.0	6.02e-01	0	23	0	114819072	66	4302
2026-01-10 05:47:11.03	306.45	14.70	-49.3	-51.1	15.7	6.03e-01	0	23	0	116916224	66	4659
2026-01-10 05:47:12.03	306.25	14.63	-49.0	-50.7	15.9	6.04e-01	0	23	0	118489088	66	4471
2026-01-10 05:47:13.03	306.06	14.56	-48.9	-50.5	15.9	6.02e-01	0	23	0	120586240	66	4387
2026-01-10 05:47:14.03	305.87	14.50	-49.3	-51.0	15.8	6.04e-01	0	23	0	122683392	66	4643
2026-01-10 05:47:15.03	305.67	14.43	-49.4	-51.1	15.7	6.02e-01	0	23	0	124256256	66	4685
2026-01-10 05:47:16.02	305.49	14.36	-49.3	-51.0	15.8	6.01e-01	0	23	0	126353408	66	4613
2026-01-10 05:47:17.03	305.29	14.29	-49.2	-51.0	15.8	6.03e-01	0	23	0	127926272	66	4602
2026-01-10 05:47:18.02	305.11	14.22	-49.3	-51.1	15.8	6.04e-01	0	23	0	130023424	66	4658
2026-01-10 05:47:19.02	304.92	14.15	-49.1	-50.8	15.9	6.03e-01	0	23	0	131596288	66	4515
2026-01-10 05:47:20.02	304.73	14.08	-49.2	-50.9	15.8	6.03e-01	0	23	0	133693440	66	4560
2026-01-10 05:47:21.01	304.55	14.01	-49.0	-50.7	15.9	6.03e-01	0	23	0	135266304	66	4481
2026-01-10 05:47:22.01	304.36	13.94	-49.1	-50.8	15.9	6.02e-01	0	23	0	137363456	66	4518
2026-01-10 05:47:23.01	304.18	13.87	-49.4	-51.1	15.8	6.02e-01	0	23	0	139460608	66	4689
2026-01-10 05:47:24.02	303.99	13.80	-49.3	-51.1	15.7	6.03e-01	0	23	0	141033472	66	4665
2026-01-10 05:47:25.02	303.81	13.73	-49.1	-50.7	15.9	6.04e-01	0	23	0	143130624	66	4493
2026-01-10 05:47:26.01	303.63	13.66	-49.4	-51.2	15.7	6.06e-01	0	23	0	144703488	66	4742
2026-01-10 05:47:27.02	303.45	13.59	-49.5	-51.3	15.7	6.03e-01	0	23	0	146800640	66	4784
2026-01-10 05:47:28.02	303.27	13.52	-49.1	-50.8	15.8	6.03e-01	0	23	0	148897792	66	4513
2026-01-10 05:47:29.02	303.09	13.45	-49.3	-51.1	15.7	6.04e-01	0	23	0	150470656	66	4665
2026-01-10 05:47:30.02	302.91	13.38	-49.9	-51.8	15.6	6.05e-01	0	23	0	152567808	67	4768
2026-01-10 05:47:31.02	302.73	13.31	-49.3	-51.0	15.9	6.03e-01	0	23	0	154140672	67	4375
2026-01-10 05:47:32.02	302.56	13.24	-49.2	-50.8	16.0	6.04e-01	0	23	0	156237824	67	4281
2026-01-10 05:47:33.02	302.38	13.17	-49.4	-51.2	15.9	6.04e-01	0	23	0	157810688	67	4467
2026-01-10 05:47:34.01	302.21	13.10	-49.3	-51.0	15.9	6.02e-01	0	23	0	159907840	67	4371
2026-01-10 05:47:35.01	302.04	13.03	-49.1	-50.8	16.0	6.02e-01	0	23	0	162004992	67	4266
2026-01-10 05:47:36.01	301.86	12.96	-49.5	-51.3	15.9	6.04e-01	0	23	0	163577856	67	4501
2026-01-10 05:47:37.01	301.69	12.89	-49.6	-51.4	15.8	6.04e-01	0	23	0	165675008	67	4572
2026-01-10 05:47:38.01	301.52	12.82	-49.5	-51.2	15.8	6.04e-01	0	23	0	167247872	67	4493
2026-01-10 05:47:39.01	301.35	12.75	-49.2	-51.0	15.9	6.02e-01	0	23	0	169345024	67	4346
2026-01-10 05:47:40.01	301.18	12.68	-49.2	-50.9	16.0	6.02e-01	0	23	0	170917888	67	4318
2026-01-10 05:47:41.01	301.01	12.61	-49.5	-51.3	15.8	6.03e-01	0	23	0	173015040	67	4539
2026-01-10 05:47:42.01	300.85	12.54	-49.3	-51.0	15.9	6.05e-01	0	23	0	174587904	67	4389
2026-01-10 05:47:43.01	300.68	12.47	-49.3	-51.0	15.9	6.05e-01	0	23	0	176685056	67	4363
2026-01-10 05:47:44.01	300.52	12.40	-49.4	-51.2	15.9	6.04e-01	0	23	0	178782208	67	4471
2026-01-10 05:47:45.01	300.35	12.33	-49.7	-51.5	15.8	6.03e-01	0	23	0	180355072	67	4627
2026-01-10 05:47:46.00	300.19	12.26	-49.6	-51.4	15.8	6.04e-01	0	23	0	182452224	67	4563
2026-01-10 05:47:47.00	300.03	12.19	-49.5	-51.3	15.9	6.02e-01	0	23	0	184025088	67	4512
2026-01-10 05:47:47.99	299.87	12.12	-49.5	-51.3	15.9	6.03e-01	0	23	0	186122240	67	4518
2026-01-10 05:47:48.99	299.70	12.05	-49.7	-51.6	15.7	6.02e-01	0	23	0	188219392	67	4659
2026-01-10 05:47:50.00	299.54	11.98	-49.5	-51.3	15.8	6.05e-01	0	23	0	189792256	67	4496
2026-01-10 05:47:50.99	299.38	11.91	-49.2	-50.9	16.0	6.02e-01	0	23	0	191889408	67	4325
2026-01-10 05:47:51.99	299.23	11.84	-49.3	-51.0	16.0	6.04e-01	0	23	0	193462272	67	4359
2026-01-10 05:47:52.99	299.07	11.77	-49.7	-51.5	15.8	6.01e-01	0	23	0	195559424	67	4610
2026-01-10 05:47:53.98	298.91	11.70	-49.8	-51.7	15.7	6.03e-01	0	23	0	197132288	67	4721
2026-01-10 05:47:54.97	298.76	11.63	-49.7	-51.5	15.7	6.03e-01	0	23	0	199229440	67	4638
2026-01-10 05:47:55.96	298.60	11.56	-49.5	-51.2	15.8	6.03e-01	0	23	0	200802304	67	4482
2026-01-10 05:47:56.96	298.45	11.49	-49.4	-51.2	15.8	6.02e-01	0	23	0	202899456	67	4464
2026-01-10 05:47:57.96	298.29	11.42	-49.8	-51.6	15.7	6.04e-01	0	23	0	204996608	67	4688
2026-01-10 05:47:58.95	298.14	11.35	-49.8	-51.7	15.7	6.02e-01	0	23	0	206569472	67	4715
2026-01-10 05:47:59.95	297.99	11.28	-49.6	-51.4	15.8	6.03e-01	0	23	0	208666624	67	4577
2026-01-10 05:48:00.94	297.84	11.22	-49.6	-51.3	15.8	6.01e-01	0	23	0	210239488	67	4529
2026-01-10 05:48:01.94	297.69	11.15	-49.8	-51.7	15.7	6.03e-01	0	23	0	212336640	67	4719
2026-01-10 05:48:02.94	297.54	11.08	-50.1	-52.0	15.6	6.04e-01	0	23	0	213909504	67	4917
2026-01-10 05:48:03.93	297.39	11.01	-50.0	-51.9	15.8	5.99e-01	0	23	0	216006656	68	4590
2026-01-10 05:48:04.93	297.24	10.94	-49.6	-51.4	16.0	6.03e-01	0	23	0	218103808	68	4323
2026-01-10 05:48:05.93	297.10	10.87	-49.6	-51.3	16.0	6.02e-01	0	23	0	219676672	68	4263
2026-01-10 05:48:06.93	296.95	10.80	-49.5	-51.3	16.0	6.04e-01	0	23	0	221773824	68	4259
2026-01-10 05:48:07.93	296.80	10.73	-49.9	-51.7	15.8	6.05e-01	0	23	0	223346688	68	4483
2026-01-10 05:48:08.93	296.66	10.66	-50.2	-52.1	15.7	6.03e-01	0	23	0	225443840	68	4698
2026-01-10 05:48:09.93	296.51	10.59	-50.2	-52.2	15.6	6.02e-01	0	23	0	227016704	68	4711
2026-01-10 05:48:10.93	296.37	10.52	-50.1	-52.0	15.7	6.05e-01	0	23	0	229113856	68	4649
2026-01-10 05:48:11.92	296.23	10.45	-49.8	-51.7	15.9	6.05e-01	0	23	0	231211008	68	4451
2026-01-10 05:48:12.92	296.09	10.38	-49.6	-51.3	16.0	6.04e-01	0	23	0	232783872	68	4289
2026-01-10 05:48:13.92	295.94	10.31	-49.8	-51.6	15.9	6.03e-01	0	23	0	234881024	68	4438
2026-01-10 05:48:14.91	295.81	10.24	-50.0	-51.9	15.8	6.01e-01	0	23	0	236453888	68	4588
2026-01-10 05:48:15.91	295.67	10.17	-50.2	-52.1	15.7	6.04e-01	0	23	0	238551040	68	4697
2026-01-10 05:48:16.91	295.53	10.11	-50.2	-52.1	15.7	6.01e-01	0	23	0	240123904	68	4685
2026-01-10 05:48:17.91	295.39	10.04	-50.2	-52.2	15.7	6.03e-01	0	23	0	242221056	68	4727
2026-01-10 05:48:18.90	295.25	9.97	-50.1	-52.0	15.7	6.04e-01	0	23	0	243793920	68	4628
2026-01-10 05:48:19.89	295.11	9.90	-49.8	-51.7	15.9	6.04e-01	0	23	0	245891072	68	4455
2026-01-10 05:48:20.89	294.98	9.83	-49.9	-51.8	15.8	6.03e-01	0	23	0	247988224	68	4508
2026-01-10 05:48:21.90	294.84	9.76	-50.1	-52.0	15.7	6.03e-01	0	23	0	249561088	68	4642
2026-01-10 05:48:22.89	294.71	9.69	-50.0	-52.0	15.7	6.01e-01	0	23	0	251658240	68	4608
2026-01-10 05:48:23.89	294.57	9.62	-50.1	-52.0	15.7	6.03e-01	0	23	0	253231104	68	4621
2026-01-10 05:48:24.88	294.44	9.56	-50.1	-52.0	15.7	6.03e-01	0	23	0	255328256	68	4632
2026-01-10 05:48:25.87	294.31	9.49	-49.8	-51.6	15.9	6.03e-01	0	23	0	256901120	68	4418
2026-01-10 05:48:26.88	294.18	9.42	-49.7	-51.6	16.0	6.01e-01	0	23	0	258998272	68	4434
2026-01-10 05:48:27.88	294.04	9.35	-49.8	-51.8	15.9	6.02e-01	0	23	0	261095424	68	4494
2026-01-10 05:48:28.88	293.91	9.28	-50.1	-52.1	15.8	6.04e-01	0	23	0	262668288	68	4657
2026-01-10 05:48:29.87	293.78	9.22	-50.1	-52.2	15.8	6.03e-01	0	23	0	264765440	68	4711
2026-01-10 05:48:30.86	293.66	9.15	-50.2	-52.2	15.7	6.04e-01	0	23	0	266338304	68	4738
2026-01-10 05:48:31.87	293.53	9.08	-50.1	-52.2	15.8	6.02e-01	0	23	0	268435456	68	4706
2026-01-10 05:48:32.86	293.40	9.01	-50.1	-52.1	15.7	6.03e-01	0	23	0	270008320	68	4683
2026-01-10 05:48:33.86	293.27	8.94	-50.1	-52.0	15.8	6.02e-01	0	23	0	272105472	68	4617
2026-01-10 05:48:34.85	293.14	8.88	-49.8	-51.7	15.9	6.02e-01	0	23	0	273678336	68	4443
2026-01-10 05:48:35.85	293.02	8.81	-49.9	-51.7	15.9	6.01e-01	0	23	0	275775488	68	4468
2026-01-10 05:48:36.85	292.89	8.74	-49.9	-51.8	15.8	6.04e-01	0	23	0	277872640	68	4529
2026-01-10 05:48:37.85	292.77	8.67	-50.1	-52.0	15.7	6.01e-01	0	23	0	279445504	68	4642
2026-01-10 05:48:38.85	292.64	8.61	-50.2	-52.2	15.7	6.03e-01	0	23	0	281542656	68	4712
2026-01-10 05:48:39.85	292.52	8.54	-50.3	-52.3	15.6	6.05e-01	0	23	0	283115520	68	4813
2026-01-10 05:48:40.85	292.40	8.47	-50.4	-52.5	15.6	6.03e-01	0	23	0	285212672	68	4886
2026-01-10 05:48:41.85	292.27	8.40	-50.4	-52.5	15.5	6.05e-01	0	23	0	287309824	68	4894
2026-01-10 05:48:42.85	292.15	8.34	-50.4	-52.4	15.6	6.01e-01	0	23	0	288882688	68	4842
2026-01-10 05:48:43.84	292.03	8.27	-50.2	-52.1	15.7	6.01e-01	0	23	0	290979840	68	4695
2026-01-10 05:48:44.84	291.91	8.20	-50.2	-52.2	15.7	6.03e-01	0	23	0	292552704	68	4719
2026-01-10 05:48:45.83	291.79	8.14	-50.1	-52.0	15.7	6.05e-01	0	23	0	294649856	68	4647
2026-01-10 05:48:46.83	291.67	8.07	-50.1	-52.1	15.7	6.04e-01	0	23	0	296222720	68	4666
2026-01-10 05:48:47.82	291.56	8.00	-50.1	-52.1	15.7	6.02e-01	0	23	0	298319872	68	4653
2026-01-10 05:48:48.82	291.44	7.94	-50.2	-52.2	15.7	6.03e-01	0	23	0	300417024	68	4733
2026-01-10 05:48:49.82	291.32	7.87	-50.2	-52.2	15.7	6.03e-01	0	23	0	301989888	68	4736
2026-01-10 05:48:50.82	291.20	7.80	-50.3	-52.4	15.6	6.02e-01	0	23	0	304087040	68	4818
2026-01-10 05:48:51.82	291.09	7.74	-50.5	-52.6	15.5	6.03e-01	0	23	0	305659904	68	4943
2026-01-10 05:48:52.81	290.97	7.67	-50.5	-52.6	15.5	6.06e-01	0	23	0	307757056	68	4963
2026-01-10 05:48:53.82	290.86	7.60	-50.6	-52.7	15.5	6.04e-01	0	23	0	309329920	68	5006
2026-01-10 05:48:54.82	290.74	7.54	-50.7	-52.8	15.6	6.04e-01	0	23	0	311427072	69	4814
2026-01-10 05:48:55.82	290.63	7.47	-50.6	-52.7	15.7	6.04e-01	0	23	0	313524224	69	4714
2026-01-10 05:48:56.82	290.51	7.41	-50.6	-52.7	15.7	6.05e-01	0	23	0	315097088	69	4712
2026-01-10 05:48:57.82	290.40	7.34	-50.5	-52.5	15.7	6.02e-01	0	23	0	317194240	69	4639
2026-01-10 05:48:58.82	290.29	7.27	-50.4	-52.4	15.8	6.04e-01	0	23	0	318767104	69	4563
2026-01-10 05:48:59.81	290.18	7.21	-50.5	-52.6	15.7	6.03e-01	0	23	0	320864256	69	4675
2026-01-10 05:49:00.81	290.07	7.14	-50.5	-52.6	15.7	6.05e-01	0	23	0	322437120	69	4658
2026-01-10 05:49:01.81	289.96	7.08	-50.5	-52.6	15.7	6.02e-01	0	23	0	324534272	69	4669
2026-01-10 05:49:02.81	289.84	7.01	-50.6	-52.7	15.6	6.04e-01	0	23	0	326107136	69	4744
2026-01-10 05:49:03.80	289.74	6.95	-50.5	-52.6	15.7	6.01e-01	0	23	0	328204288	69	4664
2026-01-10 05:49:04.80	289.63	6.88	-50.6	-52.7	15.7	6.04e-01	0	23	0	330301440	69	4742
2026-01-10 05:49:05.80	289.52	6.82	-50.7	-52.8	15.6	6.04e-01	0	23	0	331874304	69	4807
2026-01-10 05:49:06.80	289.41	6.75	-50.6	-52.7	15.6	6.03e-01	0	23	0	333971456	69	4755
2026-01-10 05:49:07.80	289.30	6.69	-50.7	-52.8	15.6	6.03e-01	0	23	0	335544320	69	4777
2026-01-10 05:49:08.80	289.20	6.62	-50.7	-52.8	15.6	6.04e-01	0	23	0	337641472	69	4810
2026-01-10 05:49:09.79	289.09	6.56	-50.8	-52.9	15.5	6.04e-01	0	23	0	339214336	69	4848
2026-01-10 05:49:10.79	288.99	6.49	-50.8	-53.0	15.5	6.02e-01	0	23	0	341311488	69	4878
2026-01-10 05:49:11.79	288.88	6.43	-50.8	-53.0	15.5	6.03e-01	0	23	0	343408640	69	4917
2026-01-10 05:49:12.78	288.78	6.36	-50.8	-52.9	15.5	6.03e-01	0	23	0	344981504	69	4855
2026-01-10 05:49:13.78	288.67	6.30	-50.8	-52.9	15.5	6.05e-01	0	23	0	347078656	69	4868
2026-01-10 05:49:14.78	288.57	6.24	-50.9	-53.1	15.5	6.05e-01	0	23	0	348651520	69	4944
2026-01-10 05:49:15.78	288.47	6.17	-50.9	-53.1	15.4	6.04e-01	0	23	0	350748672	69	4941
2026-01-10 05:49:16.78	288.36	6.11	-50.7	-52.9	15.5	6.04e-01	0	23	0	352845824	69	4848
2026-01-10 05:49:17.79	288.26	6.04	-50.7	-52.9	15.5	6.03e-01	0	23	0	354418688	69	4847
2026-01-10 05:49:18.79	288.16	5.98	-50.7	-52.9	15.5	6.05e-01	0	23	0	356515840	69	4844
2026-01-10 05:49:19.80	288.06	5.91	-50.9	-53.1	15.5	6.01e-01	0	23	0	358088704	69	4938
2026-01-10 05:49:20.79	287.96	5.85	-50.9	-53.2	15.4	6.02e-01	0	23	0	360185856	69	4992
2026-01-10 05:49:21.79	287.86	5.79	-51.1	-53.4	15.3	6.04e-01	0	23	0	361758720	69	5134
2026-01-10 05:49:22.79	287.76	5.72	-51.1	-53.4	15.3	6.04e-01	0	23	0	363855872	69	5152
2026-01-10 05:49:23.79	287.66	5.66	-51.0	-53.3	15.5	6.04e-01	0	23	0	365953024	70	4803
2026-01-10 05:49:24.79	287.56	5.60	-51.2	-53.5	15.5	6.04e-01	0	23	0	367525888	70	4885
2026-01-10 05:49:25.79	287.46	5.53	-51.1	-53.4	15.4	6.04e-01	0	23	0	369623040	70	4859
2026-01-10 05:49:26.79	287.36	5.47	-51.2	-53.6	15.4	6.05e-01	0	23	0	371195904	70	4941
2026-01-10 05:49:27.79	287.26	5.41	-51.1	-53.5	15.5	6.03e-01	0	23	0	373293056	70	4871
2026-01-10 05:49:28.79	287.17	5.34	-51.0	-53.3	15.5	6.03e-01	0	23	0	374865920	70	4809
2026-01-10 05:49:29.79	287.07	5.28	-51.1	-53.4	15.5	6.06e-01	0	23	0	376963072	70	4815
2026-01-10 05:49:30.78	286.98	5.22	-50.9	-53.1	15.6	6.03e-01	0	23	0	379060224	70	4695
2026-01-10 05:49:31.78	286.88	5.15	-51.1	-53.4	15.5	6.04e-01	0	23	0	380633088	70	4840
2026-01-10 05:49:32.79	286.79	5.09	-51.1	-53.4	15.5	6.02e-01	0	23	0	382730240	70	4848
2026-01-10 05:49:33.78	286.69	5.03	-51.1	-53.4	15.5	6.03e-01	0	23	0	384303104	70	4870
2026-01-10 05:49:34.78	286.60	4.97	-56.0	-62.8	12.7	6.09e-01	0	23	0	386400256	79	8538
2026-01-10 05:49:35.79	286.50	4.90	-57.6	-76.7	3.8	7.45e-01	0	23	104	386400256	82	35681
2026-01-10 05:49:36.79	286.41	4.84	-57.8	-77.0	3.8	7.47e-01	0	23	104	386400256	83	34874
2026-01-10 05:49:37.79	286.32	4.78	-58.0	-77.3	3.8	7.47e-01	0	23	104	386400256	83	36084
2026-01-10 05:49:38.79	286.23	4.72	-58.1	-77.4	3.8	7.48e-01	0	23	104	386400256	83	36247
2026-01-10 05:49:39.79	286.13	4.66	-58.4	-77.8	3.8	7.47e-01	0	23	104	386400256	84	35726
2026-01-10 05:49:40.78	286.04	4.59	-58.5	-77.8	3.8	7.50e-01	0	23	104	386400256	84	35968
2026-01-10 05:49:41.78	285.95	4.53	-58.6	-77.9	3.8	7.45e-01	0	23	104	386400256	84	36389
2026-01-10 05:49:42.78	285.86	4.47	-58.7	-78.0	3.8	7.47e-01	0	23	104	386400256	85	34871
2026-01-10 05:49:43.78	285.77	4.41	-58.8	-78.1	3.8	7.49e-01	0	23	104	386400256	85	35242
2026-01-10 05:49:44.78	285.68	4.35	-58.9	-78.2	3.8	7.46e-01	0	23	104	386400256	85	35370
2026-01-10 05:49:45.78	285.59	4.29	-58.9	-78.2	3.8	7.45e-01	0	23	104	386400256	85	35502
2026-01-10 05:49:46.78	285.50	4.22	-58.9	-78.2	3.8	7.45e-01	0	23	104	386400256	85	35653
2026-01-10 05:49:47.77	285.42	4.16	-58.9	-78.3	3.8	7.47e-01	0	23	104	386400256	85	35763
2026-01-10 05:49:48.76	285.33	4.10	-59.0	-78.3	3.8	7.46e-01	0	23	104	386400256	85	35750
2026-01-10 05:49:49.76	285.24	4.04	-59.0	-78.3	3.8	7.49e-01	0	23	104	386400256	85	35885
2026-01-10 05:49:50.76	285.15	3.98	-59.0	-78.3	3.8	7.48e-01	0	23	104	386400256	85	35943
2026-01-10 05:49:51.76	285.07	3.92	-59.0	-78.3	3.8	7.48e-01	0	23	104	386400256	85	35965
2026-01-10 05:49:52.75	284.98	3.86	-59.0	-78.4	3.8	7.50e-01	0	23	104	386400256	85	36116
2026-01-10 05:49:53.75	284.90	3.80	-59.0	-78.4	3.8	7.42e-01	0	23	104	386400256	85	36288
2026-01-10 05:49:54.75	284.81	3.74	-59.0	-78.4	3.8	7.47e-01	0	23	104	386400256	85	36295
2026-01-10 05:49:55.75	284.73	3.68	-59.0	-78.4	3.8	7.46e-01	0	23	104	386400256	85	36223
2026-01-10 05:49:56.75	284.64	3.62	-59.0	-78.4	3.8	7.44e-01	0	23	104	386400256	85	36345
2026-01-10 05:49:57.75	284.56	3.56	-59.1	-78.4	3.8	7.47e-01	0	23	104	386400256	85	36268
2026-01-10 05:49:58.74	284.47	3.50	-59.0	-78.4	3.8	7.46e-01	0	23	104	386400256	85	36175
2026-01-10 05:49:59.74	284.39	3.44	-59.0	-78.4	3.8	7.42e-01	0	23	104	386400256	85	36257
2026-01-10 05:50:00.74	284.31	3.38	-59.0	-78.4	3.8	7.46e-01	0	24	104	386400256	85	36243
2026-01-10 05:50:01.74	284.22	3.32	-59.0	-78.4	3.8	7.48e-01	0	23	104	386400256	85	36124
2026-01-10 05:50:02.74	284.14	3.26	-59.0	-78.4	3.8	7.49e-01	0	23	104	386400256	85	36112
2026-01-10 05:50:03.74	284.06	3.20	-59.0	-78.3	3.8	7.43e-01	0	23	104	386400256	85	35946
2026-01-10 05:50:04.75	283.98	3.14	-58.9	-78.3	3.8	7.46e-01	0	23	104	386400256	85	35912
2026-01-10 05:50:05.75	283.90	3.08	-58.9	-78.2	3.8	7.46e-01	0	23	104	386400256	85	35689
2026-01-10 05:50:06.75	283.81	3.02	-58.9	-78.2	3.8	7.45e-01	0	23	104	386400256	85	35688
2026-01-10 05:50:07.75	283.73	2.96	-58.9	-78.2	3.8	7.50e-01	0	23	104	386400256	85	35572
2026-01-10 05:50:08.75	283.65	2.90	-58.9	-78.2	3.8	7.43e-01	0	23	104	386400256	85	35534
2026-01-10 05:50:09.75	283.57	2.84	-58.9	-78.2	3.8	7.45e-01	0	23	104	386400256	85	35472
2026-01-10 05:50:10.75	283.50	2.78	-58.8	-78.2	3.8	7.47e-01	0	23	104	386400256	85	35469
2026-01-10 05:50:11.76	283.42	2.72	-58.8	-78.2	3.8	7.46e-01	0	23	104	386400256	85	35431
2026-01-10 05:50:12.76	283.34	2.66	-58.8	-78.2	3.8	7.46e-01	0	23	104	386400256	85	35344
2026-01-10 05:50:13.76	283.26	2.60	-58.8	-78.2	3.8	7.47e-01	0	23	104	386400256	85	35336
2026-01-10 05:50:14.77	283.18	2.54	-58.8	-78.2	3.8	7.44e-01	0	24	104	386400256	85	35309
2026-01-10 05:50:15.76	283.10	2.49	-58.8	-78.2	3.8	7.45e-01	0	24	104	386400256	85	35286
2026-01-10 05:50:16.76	283.03	2.43	-58.8	-78.1	3.8	7.48e-01	0	24	104	386400256	85	35268
2026-01-10 05:50:17.76	282.95	2.37	-58.8	-78.1	3.8	7.45e-01	0	23	104	386400256	85	35233
2026-01-10 05:50:18.76	282.87	2.31	-58.8	-78.1	3.8	7.45e-01	0	23	104	386400256	85	35266
2026-01-10 05:50:19.77	282.80	2.25	-58.8	-78.1	3.8	7.46e-01	0	23	104	386400256	85	35231
2026-01-10 05:50:20.77	282.72	2.19	-58.8	-78.1	3.8	7.46e-01	0	23	104	386400256	85	35195
2026-01-10 05:50:21.78	282.64	2.13	-58.8	-78.1	3.8	7.46e-01	0	24	104	386400256	85	35260
2026-01-10 05:50:22.79	282.57	2.08	-58.8	-78.1	3.8	7.49e-01	0	23	104	386400256	85	35238
2026-01-10 05:50:23.78	282.49	2.02	-58.8	-78.1	3.8	7.45e-01	0	23	104	386400256	85	35170
2026-01-10 05:50:24.78	282.42	1.96	-58.8	-78.1	3.8	7.46e-01	0	23	104	386400256	85	35181
2026-01-10 05:50:25.78	282.34	1.90	-58.8	-78.1	3.8	7.45e-01	0	24	104	386400256	85	35146

#Closed at: 2026-01-10 05:50:26
#Recorded file [386 MB]: D:/lorett/data/31004_260110_083918.dat