passes_logs/2026/01/10/R3.2S_Murmansk/R3.2S_Murmansk__20260110_194955_TY-42_rec.log

#Pass ID: 20260110_194955_TY-42
#Satellite: TY-42
#Configuration: TY-42_900M
#almurnet v.1.7.20251203
#Start time: 2026-01-10 19:49:56

#Version: 2.2.20231116
#Station: R3.2S_Murmansk
#Location: 33.079688 lon 68.888172 lat
#TLE: 1 64048U 25103A   26010.69280093  .00008009  00000-0  38191-3 0 09991
#TLE: 2 64048 097.4118 086.1910 0001767 092.5284 306.6825 15.19162806 36165

#Time	Az	El	Level	Level2	SNR	BER	BlckErr	Temp	State	Recorded	gain1	gain2
2026-01-10 19:49:56.41	185.81	2.09	-56.9	-60.1	6.2	0.00e+00	0	28	0	0	80	20952
2026-01-10 19:49:57.40	185.86	2.15	-56.9	-60.1	6.2	0.00e+00	0	28	104	0	81	19933
2026-01-10 19:49:58.40	185.91	2.22	-56.9	-60.2	6.2	0.00e+00	0	28	104	0	81	19937
2026-01-10 19:49:59.39	185.97	2.29	-56.9	-60.1	6.2	0.00e+00	0	28	104	0	81	19892
2026-01-10 19:50:00.39	186.02	2.36	-56.9	-60.1	6.2	0.00e+00	0	28	104	0	81	19885
2026-01-10 19:50:01.39	186.08	2.42	-56.9	-60.1	6.2	0.00e+00	0	28	104	0	81	19913
2026-01-10 19:50:02.39	186.13	2.49	-56.9	-60.1	6.2	0.00e+00	0	28	104	0	81	19900
2026-01-10 19:50:03.39	186.19	2.56	-56.9	-60.1	6.2	0.00e+00	0	28	104	0	81	19849
2026-01-10 19:50:04.39	186.24	2.63	-57.0	-60.1	6.2	0.00e+00	0	28	104	0	81	19923
2026-01-10 19:50:05.39	186.30	2.70	-56.9	-60.2	6.2	0.00e+00	0	28	104	0	81	19986
2026-01-10 19:50:06.39	186.35	2.77	-57.0	-60.1	6.2	0.00e+00	0	28	104	0	81	19911
2026-01-10 19:50:07.39	186.41	2.84	-57.0	-60.2	6.2	0.00e+00	0	28	104	0	81	19941
2026-01-10 19:50:08.39	186.47	2.91	-57.0	-60.2	6.2	0.00e+00	0	29	104	0	81	19971
2026-01-10 19:50:09.38	186.52	2.98	-57.0	-60.2	6.2	0.00e+00	0	29	104	0	81	20005
2026-01-10 19:50:10.37	186.58	3.05	-57.0	-60.2	6.2	0.00e+00	0	29	104	0	81	20003
2026-01-10 19:50:11.37	186.64	3.12	-57.0	-60.2	6.2	0.00e+00	0	29	104	0	81	20001
2026-01-10 19:50:12.37	186.70	3.19	-57.0	-60.2	6.2	0.00e+00	0	29	104	0	81	19959
2026-01-10 19:50:13.38	186.75	3.26	-57.0	-60.2	6.2	0.00e+00	0	29	104	0	81	19990
2026-01-10 19:50:14.37	186.81	3.33	-57.0	-60.2	6.2	0.00e+00	0	29	104	0	81	19976
2026-01-10 19:50:15.38	186.87	3.40	-57.0	-60.2	6.2	0.00e+00	0	29	104	0	81	19979
2026-01-10 19:50:16.38	186.93	3.47	-57.0	-60.2	6.2	0.00e+00	0	29	104	0	81	20056
2026-01-10 19:50:17.38	186.99	3.54	-57.0	-60.2	6.2	0.00e+00	0	29	104	0	81	20046
2026-01-10 19:50:18.38	187.05	3.62	-57.0	-60.2	6.2	0.00e+00	0	29	104	0	81	20028
2026-01-10 19:50:19.39	187.11	3.69	-57.0	-60.2	6.2	0.00e+00	0	29	104	0	81	19988
2026-01-10 19:50:20.38	187.17	3.76	-57.0	-60.2	6.2	0.00e+00	0	29	104	0	81	20066
2026-01-10 19:50:21.38	187.23	3.83	-57.0	-60.2	6.2	0.00e+00	0	29	104	0	81	20089
2026-01-10 19:50:22.38	187.29	3.90	-57.0	-60.2	6.2	0.00e+00	0	29	104	0	81	20057
2026-01-10 19:50:23.38	187.36	3.98	-57.0	-60.2	6.2	0.00e+00	0	29	104	0	81	20069
2026-01-10 19:50:24.38	187.42	4.05	-57.0	-60.2	6.2	0.00e+00	0	29	104	0	81	20059
2026-01-10 19:50:25.38	187.48	4.12	-57.0	-60.2	6.2	0.00e+00	0	29	104	0	81	20031
2026-01-10 19:50:26.37	187.54	4.20	-57.0	-60.2	6.2	0.00e+00	0	29	104	0	81	20056
2026-01-10 19:50:27.36	187.61	4.27	-57.0	-60.2	6.2	0.00e+00	0	29	104	0	81	20075
2026-01-10 19:50:28.36	187.67	4.35	-57.0	-60.2	6.2	0.00e+00	0	29	104	0	81	20066
2026-01-10 19:50:29.36	187.73	4.42	-57.0	-60.2	6.2	0.00e+00	0	29	104	0	81	20113
2026-01-10 19:50:30.37	187.80	4.49	-57.0	-60.2	6.2	0.00e+00	0	29	104	0	81	20082
2026-01-10 19:50:31.36	187.86	4.57	-57.0	-60.2	6.2	0.00e+00	0	30	104	0	81	20070
2026-01-10 19:50:32.35	187.93	4.64	-57.0	-60.2	6.2	0.00e+00	0	30	104	0	81	20017
2026-01-10 19:50:33.35	187.99	4.72	-57.0	-60.2	6.2	0.00e+00	0	29	104	0	81	20001
2026-01-10 19:50:34.34	188.06	4.79	-57.0	-60.2	6.2	0.00e+00	0	30	104	0	81	20024
2026-01-10 19:50:35.34	188.13	4.87	-57.0	-60.2	6.2	0.00e+00	0	30	104	0	81	20086
2026-01-10 19:50:36.34	188.19	4.95	-57.0	-60.2	6.2	0.00e+00	0	30	104	0	81	20155
2026-01-10 19:50:37.34	188.26	5.02	-57.0	-60.2	6.2	0.00e+00	0	30	104	0	81	20105
2026-01-10 19:50:38.33	188.33	5.10	-57.0	-60.2	6.2	0.00e+00	0	30	104	0	81	20130
2026-01-10 19:50:39.32	188.39	5.17	-57.1	-60.3	6.2	0.00e+00	0	30	104	0	81	20227
2026-01-10 19:50:40.31	188.46	5.25	-57.1	-60.3	6.2	0.00e+00	0	30	104	0	81	20274
2026-01-10 19:50:41.32	188.53	5.33	-57.0	-60.2	6.2	0.00e+00	0	30	104	0	81	20021
2026-01-10 19:50:42.32	188.60	5.41	-57.0	-60.2	6.2	0.00e+00	0	30	104	0	81	20096
2026-01-10 19:50:43.31	188.67	5.49	-44.1	-44.4	11.6	0.00e+00	0	31	0	33554432	55	14504
2026-01-10 19:50:44.30	188.74	5.56	-44.3	-44.6	11.5	0.00e+00	0	31	0	142606336	55	14868
2026-01-10 19:50:45.30	188.81	5.64	-44.2	-44.5	11.5	6.37e-02	0	31	0	260046848	55	14718
2026-01-10 19:50:46.29	188.88	5.72	-43.3	-43.6	11.7	6.37e-02	0	31	0	369098752	53	14872
2026-01-10 19:50:47.29	188.95	5.80	-42.5	-42.9	12.0	6.37e-02	0	31	0	486539264	52	14467
2026-01-10 19:50:48.28	189.02	5.88	-42.6	-42.9	12.0	4.08e-02	0	31	0	595591168	52	14557
2026-01-10 19:50:49.28	189.10	5.96	-42.5	-42.9	12.0	4.08e-02	0	31	0	713031680	51	15313
2026-01-10 19:50:50.28	189.17	6.04	-42.4	-42.7	12.0	4.08e-02	0	31	0	822083584	51	15109
2026-01-10 19:50:51.27	189.24	6.12	-42.6	-42.9	12.0	2.67e-02	0	31	0	931135488	51	15319
2026-01-10 19:50:52.27	189.32	6.20	-42.6	-42.9	12.0	2.67e-02	0	31	0	1048576000	51	15419
2026-01-10 19:50:53.27	189.39	6.28	-42.2	-42.6	12.1	2.67e-02	0	31	0	1157627904	51	14789
2026-01-10 19:50:54.26	189.47	6.36	-42.2	-42.5	12.1	2.67e-02	0	31	0	1266679808	51	14692
2026-01-10 19:50:55.26	189.54	6.44	-42.1	-42.4	12.2	2.25e-02	0	31	0	1375731712	51	14483
2026-01-10 19:50:56.26	189.62	6.52	-41.7	-42.0	12.3	2.25e-02	0	32	0	1493172224	50	14672
2026-01-10 19:50:57.26	189.69	6.61	-41.9	-42.2	12.2	1.76e-02	0	32	0	1602224128	50	15028
2026-01-10 19:50:58.25	189.77	6.69	-41.7	-42.0	12.2	1.76e-02	0	32	0	1719664640	50	14665
2026-01-10 19:50:59.25	189.85	6.77	-42.1	-42.4	12.1	1.76e-02	0	32	0	1828716544	50	15307
2026-01-10 19:51:00.25	189.93	6.85	-41.9	-42.2	12.1	1.94e-02	0	32	0	1937768448	50	15049
2026-01-10 19:51:01.24	190.00	6.94	-41.9	-42.3	12.1	1.94e-02	0	32	0	2055208960	50	15123
2026-01-10 19:51:02.24	190.08	7.02	-41.6	-41.9	12.3	1.94e-02	0	32	0	2164260864	50	14550
2026-01-10 19:51:03.24	190.16	7.10	-41.5	-41.8	12.3	2.17e-02	0	32	0	2281701376	50	14309
2026-01-10 19:51:04.23	190.24	7.19	-41.6	-42.0	12.2	2.17e-02	0	32	0	2390753280	49	15475
2026-01-10 19:51:05.23	190.32	7.27	-41.8	-42.1	12.1	2.17e-02	0	32	0	2499805184	49	15802
2026-01-10 19:51:06.22	190.40	7.36	-40.9	-41.2	12.5	1.76e-02	0	32	0	2617245696	49	14196
2026-01-10 19:51:07.22	190.49	7.44	-41.4	-41.7	12.3	1.76e-02	0	32	0	2726297600	49	15015
2026-01-10 19:51:08.21	190.57	7.53	-41.8	-42.2	12.1	1.65e-02	0	32	0	2843738112	49	15843
2026-01-10 19:51:09.21	190.65	7.61	-41.7	-42.0	12.2	1.65e-02	0	32	0	2944401408	49	15485
2026-01-10 19:51:10.20	190.73	7.70	-41.6	-41.9	12.2	1.65e-02	0	32	0	3061841920	49	15322
2026-01-10 19:51:11.20	190.82	7.79	-41.5	-41.8	12.2	1.95e-02	0	32	0	3170893824	49	15272
2026-01-10 19:51:12.20	190.90	7.87	-41.5	-41.9	12.2	1.95e-02	0	32	0	3288334336	49	15307
2026-01-10 19:51:13.20	190.99	7.96	-41.6	-41.9	12.2	1.95e-02	0	32	0	3397386240	49	15446
2026-01-10 19:51:14.19	191.07	8.05	-41.4	-41.7	12.3	1.95e-02	0	32	0	3506438144	49	14976
2026-01-10 19:51:15.18	191.16	8.14	-42.5	-42.8	12.0	1.63e-02	0	32	0	3623878656	50	16198
2026-01-10 19:51:16.18	191.24	8.22	-41.7	-42.0	12.3	1.63e-02	0	32	0	3732930560	50	14694
2026-01-10 19:51:17.18	191.33	8.31	-41.7	-42.0	12.3	1.98e-02	0	32	0	3850371072	50	14710
2026-01-10 19:51:18.18	191.42	8.40	-41.7	-42.0	12.3	1.98e-02	0	33	0	3959422976	50	14714
2026-01-10 19:51:19.18	191.51	8.49	-41.2	-41.5	12.4	1.98e-02	0	32	0	4076863488	49	14626
2026-01-10 19:51:20.17	191.60	8.58	-41.0	-41.3	12.5	1.37e-02	0	32	0	4185915392	49	14360
2026-01-10 19:51:21.17	191.69	8.67	-40.9	-41.2	12.5	1.37e-02	0	33	0	4294967296	49	14117
2026-01-10 19:51:22.17	191.78	8.76	-41.0	-41.3	12.4	1.37e-02	0	32	0	4412407808	48	15284
2026-01-10 19:51:23.16	191.87	8.85	-40.7	-41.0	12.5	1.02e-02	0	33	0	4521459712	48	14669
2026-01-10 19:51:24.15	191.96	8.94	-40.7	-40.9	12.5	1.02e-02	0	33	0	4630511616	48	14607
2026-01-10 19:51:25.15	192.06	9.04	-40.7	-40.9	12.5	1.02e-02	0	33	0	4739563520	48	14580
2026-01-10 19:51:26.15	192.15	9.13	-41.0	-41.3	12.4	8.54e-03	0	33	0	4857004032	48	15152
2026-01-10 19:51:27.14	192.24	9.22	-40.8	-41.0	12.5	8.54e-03	0	33	0	4966055936	48	14764
2026-01-10 19:51:28.14	192.34	9.31	-39.6	-39.9	12.5	9.06e-03	0	33	0	5083496448	46	14562
2026-01-10 19:51:29.14	192.43	9.41	-39.7	-40.0	12.4	9.06e-03	0	33	0	5192548352	46	14693
2026-01-10 19:51:30.14	192.53	9.50	-39.5	-39.8	12.5	9.83e-03	0	33	0	5301600256	46	14344
2026-01-10 19:51:31.13	192.63	9.59	-39.6	-39.9	12.5	9.83e-03	0	33	0	5419040768	46	14489
2026-01-10 19:51:32.12	192.72	9.69	-39.6	-39.9	12.5	9.83e-03	0	33	0	5528092672	46	14459
2026-01-10 19:51:33.12	192.82	9.78	-39.7	-40.0	12.4	9.32e-03	0	33	0	5645533184	46	14629
2026-01-10 19:51:34.11	192.92	9.88	-39.4	-39.7	12.5	9.32e-03	0	33	0	5754585088	46	14215
2026-01-10 19:51:35.10	193.02	9.97	-39.4	-39.7	12.6	9.32e-03	0	33	0	5863636992	46	14137
2026-01-10 19:51:36.10	193.12	10.07	-39.3	-39.6	12.5	8.91e-03	0	33	0	5972688896	45	14883
2026-01-10 19:51:37.09	193.22	10.17	-39.2	-39.5	12.5	8.91e-03	0	33	0	6090129408	45	14735
2026-01-10 19:51:38.08	193.33	10.26	-39.3	-39.6	12.5	7.59e-03	0	33	0	6199181312	45	14932
2026-01-10 19:51:39.08	193.43	10.36	-39.2	-39.5	12.5	7.59e-03	0	33	0	6308233216	45	14727
2026-01-10 19:51:40.08	193.53	10.46	-39.3	-39.6	12.5	7.59e-03	0	33	0	6425673728	45	14837
2026-01-10 19:51:41.08	193.64	10.56	-39.1	-39.4	12.6	7.29e-03	0	33	0	6534725632	45	14479
2026-01-10 19:51:42.07	193.74	10.66	-39.0	-39.3	12.6	7.29e-03	0	33	0	6652166144	45	14359
2026-01-10 19:51:43.06	193.85	10.76	-39.1	-39.4	12.6	7.29e-03	0	33	0	6761218048	45	14470
2026-01-10 19:51:44.07	193.96	10.86	-39.2	-39.5	12.6	6.27e-03	0	33	0	6870269952	45	14666
2026-01-10 19:51:45.06	194.07	10.96	-39.1	-39.4	12.6	6.27e-03	0	33	0	6987710464	45	14537
2026-01-10 19:51:46.06	194.17	11.06	-39.3	-39.6	12.6	5.44e-03	0	34	0	7096762368	45	14880
2026-01-10 19:51:47.05	194.28	11.16	-39.2	-39.5	12.6	5.44e-03	0	34	0	7205814272	45	14672
2026-01-10 19:51:48.05	194.40	11.26	-39.2	-39.5	12.6	5.44e-03	0	33	0	7314866176	45	14768
2026-01-10 19:51:49.04	194.51	11.36	-39.2	-39.4	12.6	5.95e-03	0	34	0	7432306688	45	14597
2026-01-10 19:51:50.04	194.62	11.46	-39.2	-39.5	12.6	5.95e-03	0	34	0	7541358592	45	14689
2026-01-10 19:51:51.03	194.73	11.57	-38.9	-39.2	12.7	5.95e-03	0	33	0	7658799104	45	14149
2026-01-10 19:51:52.03	194.85	11.67	-38.9	-39.2	12.6	5.37e-03	0	34	0	7767851008	44	15030
2026-01-10 19:51:53.03	194.96	11.78	-38.7	-39.0	12.7	5.37e-03	0	34	0	7876902912	44	14694
2026-01-10 19:51:54.02	195.08	11.88	-38.6	-38.9	12.7	4.61e-03	0	33	0	7994343424	44	14558
2026-01-10 19:51:55.02	195.20	11.98	-38.7	-39.0	12.7	4.61e-03	0	34	0	8103395328	44	14687
2026-01-10 19:51:56.02	195.31	12.09	-38.7	-39.0	12.7	4.61e-03	0	34	0	8220835840	44	14681
2026-01-10 19:51:57.01	195.43	12.20	-38.7	-39.0	12.7	4.27e-03	0	34	0	8321499136	44	14609
2026-01-10 19:51:58.00	195.55	12.30	-38.6	-38.9	12.7	4.27e-03	0	34	0	8438939648	44	14528
2026-01-10 19:51:59.00	195.67	12.41	-38.4	-38.7	12.8	4.27e-03	0	34	0	8547991552	44	14127
2026-01-10 19:51:59.99	195.80	12.52	-38.4	-38.6	12.7	3.47e-03	0	34	0	8665432064	43	14920
2026-01-10 19:52:00.99	195.92	12.63	-38.3	-38.6	12.8	3.47e-03	0	34	0	8774483968	43	14792
2026-01-10 19:52:01.99	196.04	12.73	-38.3	-38.6	12.8	3.47e-03	0	34	0	8891924480	43	14790
2026-01-10 19:52:02.98	196.17	12.84	-38.4	-38.7	12.7	2.92e-03	0	34	0	9000976384	43	15100
2026-01-10 19:52:03.97	196.30	12.95	-38.3	-38.6	12.7	2.92e-03	0	34	0	9110028288	43	14795
2026-01-10 19:52:04.96	196.42	13.06	-38.0	-38.3	12.8	2.92e-03	0	34	0	9227468800	43	14392
2026-01-10 19:52:05.96	196.55	13.17	-37.9	-38.2	12.9	2.82e-03	0	34	0	9336520704	43	14199
2026-01-10 19:52:06.96	196.68	13.28	-38.1	-38.4	12.8	2.82e-03	0	34	0	9445572608	43	14459
2026-01-10 19:52:07.95	196.81	13.40	-37.9	-38.2	12.8	2.06e-03	0	34	0	9554624512	43	14235
2026-01-10 19:52:08.95	196.94	13.51	-37.9	-38.2	12.9	2.06e-03	0	34	0	9672065024	43	14128
2026-01-10 19:52:09.94	197.08	13.62	-38.0	-38.3	12.8	2.12e-03	0	34	0	9781116928	43	14322
2026-01-10 19:52:10.94	197.21	13.73	-37.8	-38.1	12.8	2.12e-03	0	34	0	9898557440	42	14863
2026-01-10 19:52:11.94	197.35	13.85	-37.8	-38.0	12.8	2.12e-03	0	34	0	10007609344	42	14772
2026-01-10 19:52:12.93	197.48	13.96	-37.7	-38.0	12.8	2.00e-03	0	34	0	10116661248	42	14684
2026-01-10 19:52:13.93	197.62	14.08	-37.9	-38.2	12.8	2.00e-03	0	34	0	10234101760	42	14950
2026-01-10 19:52:14.92	197.76	14.19	-37.6	-37.9	12.8	2.00e-03	0	34	0	10343153664	42	14566
2026-01-10 19:52:15.92	197.90	14.31	-37.7	-38.0	12.8	1.53e-03	0	34	0	10460594176	42	14610
2026-01-10 19:52:16.91	198.04	14.43	-37.7	-38.0	12.9	1.53e-03	0	34	0	10569646080	42	14655
2026-01-10 19:52:17.91	198.19	14.55	-37.8	-38.1	12.8	1.65e-03	0	34	0	10678697984	42	14821
2026-01-10 19:52:18.91	198.33	14.66	-37.8	-38.0	12.8	1.65e-03	0	34	0	10787749888	42	14744
2026-01-10 19:52:19.91	198.48	14.78	-37.6	-37.9	12.9	1.56e-03	0	34	0	10905190400	42	14573
2026-01-10 19:52:20.91	198.63	14.90	-37.7	-37.9	12.9	1.56e-03	0	34	0	11014242304	42	14596
2026-01-10 19:52:21.89	198.77	15.02	-37.6	-37.9	12.9	1.56e-03	0	34	0	11123294208	42	14492
2026-01-10 19:52:22.89	198.92	15.14	-37.6	-37.9	12.9	1.61e-03	0	34	0	11240734720	42	14530
2026-01-10 19:52:23.88	199.07	15.26	-37.6	-37.8	12.9	1.61e-03	0	34	0	11349786624	42	14436
2026-01-10 19:52:24.88	199.23	15.39	-37.5	-37.8	13.0	1.61e-03	0	34	0	11467227136	42	14287
2026-01-10 19:52:25.87	199.38	15.51	-37.5	-37.8	12.9	1.40e-03	0	34	0	11576279040	42	14297
2026-01-10 19:52:26.86	199.53	15.63	-37.4	-37.6	13.0	1.40e-03	0	35	0	11685330944	42	14111
2026-01-10 19:52:27.85	199.69	15.75	-37.2	-37.5	12.9	1.07e-03	0	34	0	11794382848	41	14719
2026-01-10 19:52:28.84	199.85	15.88	-37.2	-37.5	12.9	1.07e-03	0	34	0	11911823360	41	14672
2026-01-10 19:52:29.84	200.01	16.00	-37.1	-37.4	12.9	1.07e-03	0	34	0	12020875264	41	14569
2026-01-10 19:52:30.83	200.17	16.13	-37.1	-37.4	12.9	1.02e-03	0	34	0	12129927168	41	14517
2026-01-10 19:52:31.83	200.33	16.25	-37.1	-37.4	13.0	1.02e-03	0	34	0	12247367680	41	14474
2026-01-10 19:52:32.82	200.50	16.38	-36.9	-37.2	13.0	1.02e-03	0	34	0	12356419584	41	14260
2026-01-10 19:52:33.82	200.66	16.51	-37.1	-37.3	12.9	9.63e-04	0	34	0	12473860096	40	15248
2026-01-10 19:52:34.82	200.83	16.64	-36.9	-37.2	12.9	9.63e-04	0	34	0	12582912000	40	15009
2026-01-10 19:52:35.82	201.00	16.77	-36.8	-37.0	13.0	9.77e-04	0	35	0	12691963904	40	14750
2026-01-10 19:52:36.81	201.17	16.89	-36.8	-37.1	13.0	9.77e-04	0	34	0	12801015808	40	14904
2026-01-10 19:52:37.81	201.34	17.03	-36.9	-37.2	12.9	9.77e-04	0	34	0	12918456320	40	14975
2026-01-10 19:52:38.80	201.52	17.16	-36.5	-36.8	13.0	8.11e-04	0	34	0	13027508224	40	14346
2026-01-10 19:52:39.79	201.69	17.29	-36.6	-36.8	13.0	8.11e-04	0	35	0	13136560128	40	14437
2026-01-10 19:52:40.79	201.87	17.42	-36.5	-36.8	13.0	8.11e-04	0	35	0	13254000640	40	14285
2026-01-10 19:52:41.79	202.05	17.55	-36.5	-36.8	13.0	4.72e-04	0	35	0	13363052544	40	14331
2026-01-10 19:52:42.78	202.23	17.69	-36.5	-36.8	13.0	4.72e-04	0	34	0	13480493056	40	14342
2026-01-10 19:52:43.78	202.42	17.82	-36.4	-36.7	13.1	4.72e-04	0	35	0	13589544960	40	14164
2026-01-10 19:52:44.77	202.60	17.95	-36.4	-36.7	13.0	4.72e-04	0	35	0	13706985472	39	15025
2026-01-10 19:52:45.76	202.79	18.09	-36.4	-36.7	13.0	4.00e-04	0	35	0	13816037376	39	15036
2026-01-10 19:52:46.76	202.98	18.23	-36.3	-36.6	13.0	4.00e-04	0	34	0	13925089280	39	14920
2026-01-10 19:52:47.75	203.17	18.36	-36.4	-36.6	13.0	3.91e-04	0	35	0	14034141184	39	14928
2026-01-10 19:52:48.75	203.36	18.50	-36.2	-36.5	13.0	3.91e-04	0	35	0	14151581696	39	14708
2026-01-10 19:52:49.74	203.55	18.64	-36.3	-36.5	13.0	3.91e-04	0	35	0	14260633600	39	14774
2026-01-10 19:52:50.73	203.75	18.78	-36.1	-36.4	13.0	3.15e-04	0	35	0	14369685504	39	14545
2026-01-10 19:52:51.73	203.95	18.92	-36.1	-36.4	13.0	3.15e-04	0	35	0	14487126016	39	14512
2026-01-10 19:52:52.72	204.15	19.06	-36.1	-36.4	13.1	3.15e-04	0	35	0	14596177920	39	14477
2026-01-10 19:52:53.72	204.35	19.20	-36.1	-36.4	13.1	3.15e-04	0	35	0	14713618432	39	14450
2026-01-10 19:52:54.71	204.55	19.34	-36.0	-36.3	13.1	3.67e-04	0	34	0	14814281728	39	14323
2026-01-10 19:52:55.71	204.76	19.48	-36.0	-36.2	13.1	3.67e-04	0	35	0	14931722240	39	14229
2026-01-10 19:52:56.70	204.97	19.62	-35.9	-36.2	13.1	2.91e-04	0	35	0	15040774144	39	14130
2026-01-10 19:52:57.71	205.18	19.77	-35.9	-36.2	13.1	2.91e-04	0	35	0	15158214656	38	14999
2026-01-10 19:52:58.70	205.40	19.91	-36.0	-36.2	13.0	2.38e-04	0	35	0	15267266560	38	15117
2026-01-10 19:52:59.70	205.61	20.06	-35.8	-36.1	13.1	2.38e-04	0	35	0	15376318464	38	14844
2026-01-10 19:53:00.69	205.83	20.20	-35.7	-36.0	13.1	2.38e-04	0	35	0	15493758976	38	14642
2026-01-10 19:53:01.69	206.05	20.35	-35.6	-35.8	13.1	2.38e-04	0	35	0	15602810880	38	14432
2026-01-10 19:53:02.68	206.27	20.50	-35.7	-35.9	13.1	1.86e-04	0	35	0	15720251392	38	14577
2026-01-10 19:53:03.68	206.50	20.65	-35.5	-35.8	13.1	1.86e-04	0	35	0	15829303296	38	14289
2026-01-10 19:53:04.67	206.73	20.80	-35.2	-35.5	13.1	1.81e-04	0	35	0	15938355200	37	14674
2026-01-10 19:53:05.68	206.96	20.95	-35.2	-35.5	13.1	1.81e-04	0	35	0	16055795712	37	14671
2026-01-10 19:53:06.68	207.19	21.10	-35.2	-35.5	13.1	1.81e-04	0	35	0	16164847616	37	14636
2026-01-10 19:53:07.68	207.43	21.25	-35.2	-35.4	13.1	1.62e-04	0	35	0	16282288128	37	14593
2026-01-10 19:53:08.67	207.67	21.40	-35.1	-35.4	13.2	1.62e-04	0	35	0	16391340032	37	14512
2026-01-10 19:53:09.66	207.90	21.55	-35.2	-35.5	13.1	1.62e-04	0	35	0	16500391936	37	14608
2026-01-10 19:53:10.66	208.15	21.70	-35.2	-35.4	13.1	9.53e-05	0	35	0	16609443840	37	14569
2026-01-10 19:53:11.66	208.40	21.86	-35.1	-35.4	13.2	9.53e-05	0	35	0	16726884352	37	14489
2026-01-10 19:53:12.65	208.64	22.01	-35.2	-35.4	13.1	9.53e-05	0	35	0	16835936256	37	14581
2026-01-10 19:53:13.65	208.89	22.17	-34.9	-35.2	13.2	1.05e-04	0	35	0	16944988160	37	14169
2026-01-10 19:53:14.65	209.15	22.32	-34.8	-35.1	13.2	1.05e-04	0	35	0	17062428672	36	14779
2026-01-10 19:53:15.64	209.40	22.48	-34.8	-35.1	13.1	5.72e-05	0	35	0	17171480576	36	14853
2026-01-10 19:53:16.64	209.66	22.64	-34.8	-35.1	13.1	5.72e-05	0	35	0	17288921088	36	14856
2026-01-10 19:53:17.63	209.93	22.79	-34.6	-34.8	13.2	4.76e-05	0	35	0	17397972992	36	14412
2026-01-10 19:53:18.62	210.19	22.95	-34.7	-35.0	13.2	4.76e-05	0	35	0	17507024896	36	14645
2026-01-10 19:53:19.62	210.46	23.11	-34.6	-34.9	13.2	4.76e-05	0	35	0	17624465408	36	14495
2026-01-10 19:53:20.62	210.73	23.27	-34.5	-34.8	13.2	5.24e-05	0	35	0	17733517312	36	14293
2026-01-10 19:53:21.61	211.00	23.43	-31.8	-32.1	13.1	5.24e-05	0	35	0	17850957824	30	14832
2026-01-10 19:53:22.60	211.28	23.59	-31.7	-32.0	13.1	5.24e-05	0	35	0	17951621120	30	14669
2026-01-10 19:53:23.59	211.56	23.75	-31.7	-32.0	13.1	2.38e-05	0	35	0	18069061632	30	14609
2026-01-10 19:53:24.59	211.84	23.91	-31.7	-32.0	13.1	2.38e-05	0	35	0	18178113536	30	14612
2026-01-10 19:53:25.58	212.13	24.07	-31.5	-31.8	13.2	1.00e-04	0	35	0	18295554048	30	14347
2026-01-10 19:53:26.58	212.42	24.24	-31.6	-31.9	13.1	1.00e-04	0	35	0	18404605952	30	14459
2026-01-10 19:53:27.58	212.72	24.40	-31.5	-31.8	13.2	1.00e-04	0	35	0	18522046464	30	14279
2026-01-10 19:53:28.58	213.01	24.56	-31.5	-31.8	13.2	1.19e-04	0	35	0	18631098368	30	14388
2026-01-10 19:53:29.57	213.31	24.73	-31.4	-31.7	13.2	1.19e-04	0	35	0	18740150272	30	14241
2026-01-10 19:53:30.58	213.62	24.89	-31.3	-31.5	13.2	1.19e-04	0	35	0	18857590784	29	14761
2026-01-10 19:53:31.57	213.93	25.06	-31.2	-31.4	13.2	5.24e-05	0	35	0	18966642688	29	14579
2026-01-10 19:53:32.57	214.24	25.23	-31.1	-31.4	13.2	5.24e-05	0	35	0	19084083200	29	14572
2026-01-10 19:53:33.56	214.55	25.39	-31.1	-31.4	13.2	5.24e-05	0	35	0	19193135104	29	14483
2026-01-10 19:53:34.56	214.87	25.56	-31.1	-31.4	13.2	3.81e-05	0	35	0	19302187008	29	14537
2026-01-10 19:53:35.56	215.19	25.73	-31.1	-31.4	13.2	3.81e-05	0	35	0	19419627520	29	14502
2026-01-10 19:53:36.55	215.52	25.89	-30.8	-31.1	13.2	3.81e-05	0	35	0	19528679424	28	14864
2026-01-10 19:53:37.55	215.85	26.06	-30.8	-31.1	13.2	3.81e-05	0	35	0	19637731328	28	14781
2026-01-10 19:53:38.54	216.18	26.23	-30.9	-31.2	13.2	3.81e-05	0	35	0	19746783232	28	14994
2026-01-10 19:53:39.53	216.51	26.39	-30.7	-31.0	13.2	2.86e-05	0	35	0	19864223744	28	14741
2026-01-10 19:53:40.53	216.85	26.56	-30.7	-31.0	13.2	2.86e-05	0	35	0	19973275648	28	14696
2026-01-10 19:53:41.53	217.20	26.73	-30.5	-30.8	13.3	2.86e-05	0	35	0	20090716160	28	14390
2026-01-10 19:53:42.51	217.54	26.90	-30.5	-30.7	13.3	2.86e-05	0	35	0	20199768064	28	14257
2026-01-10 19:53:43.50	217.89	27.07	-30.5	-30.8	13.2	2.86e-05	0	35	0	20308819968	28	14409
2026-01-10 19:53:44.49	218.25	27.24	-30.5	-30.8	13.2	2.86e-05	0	35	0	20417871872	28	14353
2026-01-10 19:53:45.48	218.60	27.41	-30.4	-30.7	13.2	2.86e-05	0	35	0	20535312384	28	14178
2026-01-10 19:53:46.47	218.97	27.58	-30.4	-30.7	13.2	9.50e-06	0	35	0	20644364288	27	15045
2026-01-10 19:53:47.47	219.34	27.75	-30.4	-30.7	13.2	9.50e-06	0	35	0	20753416192	27	15029
2026-01-10 19:53:48.46	219.71	27.92	-30.2	-30.5	13.2	9.50e-06	0	35	0	20870856704	27	14701
2026-01-10 19:53:49.47	220.09	28.09	-30.2	-30.5	13.2	3.33e-05	0	35	0	20979908608	27	14694
2026-01-10 19:53:50.45	220.47	28.26	-30.2	-30.5	13.2	3.33e-05	0	35	0	21088960512	27	14756
2026-01-10 19:53:51.45	220.85	28.43	-30.2	-30.5	13.2	3.33e-05	0	35	0	21198012416	27	14669
2026-01-10 19:53:52.44	221.24	28.60	-30.0	-30.3	13.3	2.38e-05	0	35	0	21315452928	27	14315
2026-01-10 19:53:53.44	221.64	28.77	-30.1	-30.3	13.2	2.38e-05	0	35	0	21424504832	27	14408
2026-01-10 19:53:54.44	222.04	28.94	-30.1	-30.4	13.2	2.38e-05	0	35	0	21541945344	27	14522
2026-01-10 19:53:55.44	222.45	29.11	-30.1	-30.3	13.2	1.43e-05	0	35	0	21650997248	27	14431
2026-01-10 19:53:56.43	222.85	29.27	-29.9	-30.1	13.3	1.43e-05	0	35	0	21760049152	27	14109
2026-01-10 19:53:57.43	223.27	29.44	-29.7	-30.0	13.2	1.43e-05	0	35	0	21877489664	26	14680
2026-01-10 19:53:58.42	223.68	29.61	-29.8	-30.0	13.2	1.90e-05	0	35	0	21986541568	26	14729
2026-01-10 19:53:59.43	224.11	29.78	-29.7	-30.0	13.3	1.90e-05	0	35	0	22103982080	26	14706
2026-01-10 19:54:00.42	224.53	29.95	-29.8	-30.1	13.2	2.38e-05	0	35	0	22213033984	26	14833
2026-01-10 19:54:01.41	224.96	30.12	-29.7	-30.0	13.3	2.38e-05	0	35	0	22322085888	26	14676
2026-01-10 19:54:02.41	225.40	30.28	-29.7	-29.9	13.3	2.38e-05	0	35	0	22431137792	26	14603
2026-01-10 19:54:03.41	225.85	30.45	-29.7	-30.0	13.3	2.38e-05	0	35	0	22548578304	26	14642
2026-01-10 19:54:04.41	226.29	30.62	-29.5	-29.7	13.3	9.50e-06	0	35	0	22657630208	26	14272
2026-01-10 19:54:05.41	226.75	30.78	-29.4	-29.7	13.3	9.50e-06	0	35	0	22766682112	26	14204
2026-01-10 19:54:06.40	227.20	30.95	-29.4	-29.6	13.3	9.50e-06	0	35	0	22884122624	25	14941
2026-01-10 19:54:07.40	227.66	31.11	-29.3	-29.6	13.3	9.50e-06	0	35	0	22993174528	25	14819
2026-01-10 19:54:08.40	228.13	31.27	-29.2	-29.5	13.3	9.50e-06	0	35	0	23110615040	25	14711
2026-01-10 19:54:09.39	228.60	31.43	-29.3	-29.5	13.3	9.50e-06	0	35	0	23219666944	25	14763
2026-01-10 19:54:10.38	229.07	31.59	-29.1	-29.4	13.3	9.50e-06	0	35	0	23337107456	25	14571
2026-01-10 19:54:11.37	229.55	31.75	-29.1	-29.4	13.3	9.50e-06	0	35	0	23446159360	25	14554
2026-01-10 19:54:12.37	230.04	31.91	-29.1	-29.4	13.3	0.00e+00	0	35	0	23555211264	25	14451
2026-01-10 19:54:13.37	230.53	32.07	-29.1	-29.4	13.3	0.00e+00	0	35	0	23672651776	25	14551
2026-01-10 19:54:14.36	231.03	32.23	-29.2	-29.5	13.3	0.00e+00	0	35	0	23773315072	25	14612
2026-01-10 19:54:15.36	231.53	32.38	-29.1	-29.4	13.3	0.00e+00	0	35	0	23890755584	25	14487
2026-01-10 19:54:16.36	232.04	32.54	-29.2	-29.4	13.3	0.00e+00	0	35	0	23999807488	25	14575
2026-01-10 19:54:17.36	232.55	32.69	-29.1	-29.4	13.3	0.00e+00	0	35	0	24117248000	25	14486
2026-01-10 19:54:18.36	233.07	32.84	-28.9	-29.2	13.4	0.00e+00	0	35	0	24226299904	25	14128
2026-01-10 19:54:19.35	233.59	32.99	-29.0	-29.2	13.3	0.00e+00	0	35	0	24343740416	25	14253
2026-01-10 19:54:20.35	234.12	33.14	-28.8	-29.1	13.3	0.00e+00	0	35	0	24452792320	24	14824
2026-01-10 19:54:21.34	234.65	33.28	-29.0	-29.3	13.3	4.70e-06	0	35	0	24561844224	24	15151
2026-01-10 19:54:22.33	235.18	33.42	-28.8	-29.1	13.3	4.70e-06	0	35	0	24679284736	24	14895
2026-01-10 19:54:23.33	235.72	33.57	-28.7	-29.0	13.3	9.50e-06	0	35	0	24788336640	24	14691
2026-01-10 19:54:24.33	236.27	33.71	-28.9	-29.2	13.3	9.50e-06	0	35	0	24905777152	24	14995
2026-01-10 19:54:25.33	236.83	33.85	-28.7	-29.0	13.3	9.50e-06	0	35	0	25014829056	24	14739
2026-01-10 19:54:26.32	237.38	33.98	-28.8	-29.1	13.3	4.70e-06	0	35	0	25123880960	24	14786
2026-01-10 19:54:27.31	237.94	34.12	-28.7	-28.9	13.3	4.70e-06	0	35	0	25241321472	24	14564
2026-01-10 19:54:28.31	238.51	34.25	-28.6	-28.9	13.3	4.70e-06	0	35	0	25350373376	24	14533
2026-01-10 19:54:29.31	239.08	34.38	-28.7	-28.9	13.3	4.70e-06	0	35	0	25459425280	24	14580
2026-01-10 19:54:30.30	239.65	34.50	-28.6	-28.8	13.3	4.70e-06	0	35	0	25568477184	24	14398
2026-01-10 19:54:31.30	240.23	34.63	-28.6	-28.9	13.3	4.70e-06	0	35	0	25685917696	24	14466
2026-01-10 19:54:32.29	240.82	34.75	-28.6	-28.8	13.4	0.00e+00	0	35	0	25794969600	24	14419
2026-01-10 19:54:33.28	241.40	34.87	-28.5	-28.8	13.3	0.00e+00	0	35	0	25912410112	24	14312
2026-01-10 19:54:34.28	242.00	34.99	-28.5	-28.8	13.3	4.70e-06	0	35	0	26021462016	24	14306
2026-01-10 19:54:35.27	242.59	35.10	-28.2	-28.5	13.3	4.70e-06	0	35	0	26130513920	23	14658
2026-01-10 19:54:36.27	243.20	35.21	-28.3	-28.5	13.3	4.70e-06	0	35	0	26247954432	23	14768
2026-01-10 19:54:37.26	243.80	35.32	-28.2	-28.4	13.3	9.50e-06	0	35	0	26357006336	23	14552
2026-01-10 19:54:38.25	244.41	35.42	-28.1	-28.4	13.3	9.50e-06	0	35	0	26466058240	23	14485
2026-01-10 19:54:39.25	245.03	35.52	-28.1	-28.4	13.3	9.50e-06	0	35	0	26575110144	23	14442
2026-01-10 19:54:40.25	245.65	35.62	-28.1	-28.3	13.3	4.70e-06	0	35	0	26692550656	23	14431
2026-01-10 19:54:41.25	246.27	35.72	-28.1	-28.4	13.3	4.70e-06	0	35	0	26801602560	23	14503
2026-01-10 19:54:42.24	246.90	35.81	-28.0	-28.3	13.3	4.70e-06	0	35	0	26919043072	23	14401
2026-01-10 19:54:43.23	247.52	35.90	-28.1	-28.3	13.3	0.00e+00	0	35	0	27028094976	23	14408
2026-01-10 19:54:44.23	248.16	35.99	-27.9	-28.2	13.4	0.00e+00	0	35	0	27137146880	23	14195
2026-01-10 19:54:45.22	248.79	36.07	-28.0	-28.2	13.3	0.00e+00	0	35	0	27254587392	23	14230
2026-01-10 19:54:46.21	249.43	36.15	-28.0	-28.2	13.4	0.00e+00	0	35	0	27363639296	23	14270
2026-01-10 19:54:47.20	250.07	36.22	-28.0	-28.2	13.3	0.00e+00	0	35	0	27472691200	23	14244
2026-01-10 19:54:48.19	250.71	36.29	-27.8	-28.1	13.3	0.00e+00	0	35	0	27581743104	22	14819
2026-01-10 19:54:49.18	251.36	36.36	-27.9	-28.1	13.3	0.00e+00	0	35	0	27699183616	22	14924
2026-01-10 19:54:50.17	252.01	36.42	-27.9	-28.1	13.3	0.00e+00	0	35	0	27808235520	22	14926
2026-01-10 19:54:51.16	252.66	36.48	-27.9	-28.2	13.3	0.00e+00	0	35	0	27917287424	22	15056
2026-01-10 19:54:52.16	253.32	36.54	-27.8	-28.1	13.3	0.00e+00	0	35	0	28034727936	22	14894
2026-01-10 19:54:53.16	253.98	36.59	-27.9	-28.1	13.3	4.70e-06	0	35	0	28143779840	22	14941
2026-01-10 19:54:54.16	254.64	36.64	-27.9	-28.2	13.2	4.70e-06	0	35	0	28252831744	22	14960
2026-01-10 19:54:55.15	255.30	36.69	-27.8	-28.1	13.2	0.00e+00	0	35	0	28370272256	22	14906
2026-01-10 19:54:56.14	255.96	36.73	-27.8	-28.1	13.2	0.00e+00	0	35	0	28479324160	22	14887
2026-01-10 19:54:57.13	256.63	36.76	-27.9	-28.1	13.2	0.00e+00	0	35	0	28588376064	22	14925
2026-01-10 19:54:58.13	257.30	36.79	-27.8	-28.1	13.2	2.86e-05	0	35	0	28705816576	22	14876
2026-01-10 19:54:59.13	257.97	36.82	-27.9	-28.2	13.2	2.86e-05	0	35	0	28814868480	22	14961
2026-01-10 19:55:00.13	258.65	36.85	-27.9	-28.1	13.2	2.86e-05	0	35	0	28932308992	22	14932
2026-01-10 19:55:01.12	259.31	36.87	-27.8	-28.1	13.2	1.90e-05	0	35	0	29041360896	22	14867
2026-01-10 19:55:02.13	259.99	36.88	-27.9	-28.2	13.2	1.90e-05	0	35	0	29158801408	22	15021
2026-01-10 19:55:03.12	260.66	36.90	-28.0	-28.2	13.2	1.90e-05	0	35	0	29267853312	22	15083
2026-01-10 19:55:04.11	261.33	36.90	-27.9	-28.2	13.2	1.90e-05	0	35	0	29376905216	22	15072
2026-01-10 19:55:05.11	262.01	36.91	-27.9	-28.2	13.2	1.90e-05	0	35	0	29485957120	22	15030
2026-01-10 19:55:06.11	262.69	36.91	-27.9	-28.2	13.2	9.50e-06	0	35	0	29603397632	22	14968
2026-01-10 19:55:07.11	263.36	36.90	-27.9	-28.2	13.2	9.50e-06	0	35	0	29712449536	22	15042
2026-01-10 19:55:08.10	264.03	36.89	-28.0	-28.2	13.2	9.50e-06	0	35	0	29821501440	22	15074
2026-01-10 19:55:09.10	264.71	36.88	-28.0	-28.2	13.2	4.70e-06	0	35	0	29938941952	22	15110
2026-01-10 19:55:10.10	265.38	36.86	-27.9	-28.2	13.2	4.70e-06	0	35	0	30047993856	22	15002
2026-01-10 19:55:11.10	266.06	36.84	-28.0	-28.3	13.2	4.70e-06	0	35	0	30165434368	22	15183
2026-01-10 19:55:12.10	266.73	36.81	-28.0	-28.3	13.2	0.00e+00	0	35	0	30274486272	22	15197
2026-01-10 19:55:13.10	267.40	36.78	-28.1	-28.4	13.2	0.00e+00	0	35	0	30383538176	22	15381
2026-01-10 19:55:14.09	268.06	36.75	-28.1	-28.3	13.2	0.00e+00	0	35	0	30500978688	22	15294
2026-01-10 19:55:15.09	268.73	36.71	-28.1	-28.4	13.2	9.50e-06	0	35	0	30610030592	22	15350
2026-01-10 19:55:16.08	269.39	36.67	-28.1	-28.3	13.2	9.50e-06	0	35	0	30727471104	22	15288
2026-01-10 19:55:17.08	270.06	36.62	-28.1	-28.4	13.2	9.50e-06	0	35	0	30836523008	22	15320
2026-01-10 19:55:18.08	270.72	36.57	-28.2	-28.5	13.2	2.86e-05	0	35	0	30945574912	22	15500
2026-01-10 19:55:19.08	271.38	36.52	-28.3	-28.5	13.2	2.86e-05	0	35	0	31063015424	22	15625
2026-01-10 19:55:20.08	272.04	36.46	-28.2	-28.5	13.2	4.29e-05	0	35	0	31172067328	22	15598
2026-01-10 19:55:21.07	272.69	36.40	-28.1	-28.4	13.2	4.29e-05	0	35	0	31289507840	22	15336
2026-01-10 19:55:22.06	273.34	36.33	-28.2	-28.5	13.2	1.90e-05	0	35	0	31398559744	22	15504
2026-01-10 19:55:23.06	273.99	36.26	-28.1	-28.4	13.2	1.90e-05	0	35	0	31507611648	22	15404
2026-01-10 19:55:24.05	274.63	36.19	-28.2	-28.5	13.2	1.90e-05	0	35	0	31616663552	22	15546
2026-01-10 19:55:25.05	275.27	36.11	-28.3	-28.6	13.2	1.43e-05	0	35	0	31734104064	22	15698
2026-01-10 19:55:26.05	275.91	36.03	-28.3	-28.5	13.2	1.43e-05	0	35	0	31843155968	22	15628
2026-01-10 19:55:27.04	276.54	35.95	-28.3	-28.6	13.2	1.43e-05	0	35	0	31952207872	22	15687
2026-01-10 19:55:28.03	277.17	35.86	-28.4	-28.7	13.2	1.90e-05	0	35	0	32069648384	22	15855
2026-01-10 19:55:29.03	277.80	35.77	-28.5	-28.8	13.2	1.90e-05	0	35	0	32178700288	22	16035
2026-01-10 19:55:30.02	278.42	35.68	-28.3	-28.6	13.2	1.90e-05	0	35	0	32296140800	22	15818
2026-01-10 19:55:31.03	279.05	35.58	-28.5	-28.8	13.2	1.43e-05	0	35	0	32405192704	22	16036
2026-01-10 19:55:32.02	279.66	35.48	-28.5	-28.8	13.2	1.43e-05	0	35	0	32522633216	22	16115
2026-01-10 19:55:33.01	280.27	35.38	-28.5	-28.8	13.2	1.43e-05	0	35	0	32623296512	22	16038
2026-01-10 19:55:34.00	280.87	35.27	-28.7	-29.0	13.2	1.43e-05	0	35	0	32740737024	23	15490
2026-01-10 19:55:35.00	281.48	35.16	-28.6	-28.9	13.2	9.50e-06	0	35	0	32849788928	23	15411
2026-01-10 19:55:35.99	282.08	35.05	-28.7	-29.0	13.2	9.50e-06	0	35	0	32958840832	23	15515
2026-01-10 19:55:36.99	282.67	34.94	-28.7	-28.9	13.2	1.90e-05	0	35	0	33076281344	23	15466
2026-01-10 19:55:37.98	283.26	34.82	-28.6	-28.9	13.2	1.90e-05	0	35	0	33185333248	23	15424
2026-01-10 19:55:38.98	283.85	34.70	-28.8	-29.1	13.2	1.90e-05	0	35	0	33302773760	23	15721
2026-01-10 19:55:39.97	284.43	34.58	-28.9	-29.1	13.2	1.90e-05	0	35	0	33411825664	23	15815
2026-01-10 19:55:40.96	285.00	34.45	-28.8	-29.1	13.2	1.90e-05	0	35	0	33529266176	23	15706
2026-01-10 19:55:41.96	285.58	34.32	-28.7	-29.0	13.2	1.90e-05	0	35	0	33629929472	23	15576
2026-01-10 19:55:42.94	286.13	34.20	-28.8	-29.1	13.2	1.90e-05	0	35	0	33747369984	23	15735
2026-01-10 19:55:43.93	286.69	34.06	-28.9	-29.2	13.2	9.50e-06	0	35	0	33856421888	23	15881
2026-01-10 19:55:44.93	287.25	33.93	-28.9	-29.2	13.3	9.50e-06	0	35	0	33973862400	23	15907
2026-01-10 19:55:45.93	287.81	33.79	-29.0	-29.3	13.2	9.50e-06	0	35	0	34082914304	23	16037
2026-01-10 19:55:46.92	288.35	33.65	-29.0	-29.2	13.2	2.38e-05	0	35	0	34191966208	23	16012
2026-01-10 19:55:47.91	288.89	33.51	-29.0	-29.3	13.2	2.38e-05	0	35	0	34309406720	23	16061
2026-01-10 19:55:48.91	289.43	33.37	-29.0	-29.3	13.3	2.38e-05	0	35	0	34410070016	23	16021
2026-01-10 19:55:49.90	289.96	33.23	-29.0	-29.2	13.3	4.70e-06	0	35	0	34527510528	23	16014
2026-01-10 19:55:50.90	290.49	33.08	-29.0	-29.3	13.3	4.70e-06	0	35	0	34636562432	23	16098
2026-01-10 19:55:51.89	291.01	32.93	-29.0	-29.3	13.3	9.50e-06	0	35	0	34754002944	23	16061
2026-01-10 19:55:52.89	291.53	32.79	-29.1	-29.3	13.3	9.50e-06	0	35	0	34863054848	23	16200
2026-01-10 19:55:53.89	292.05	32.63	-29.1	-29.4	13.3	9.50e-06	0	35	0	34972106752	24	15387
2026-01-10 19:55:54.88	292.55	32.48	-29.1	-29.4	13.3	1.90e-05	0	35	0	35089547264	24	15357
2026-01-10 19:55:55.87	293.05	32.33	-29.1	-29.4	13.3	1.90e-05	0	35	0	35198599168	24	15412
2026-01-10 19:55:56.86	293.55	32.18	-29.3	-29.6	13.3	1.90e-05	0	35	0	35307651072	24	15693
2026-01-10 19:55:57.85	294.04	32.02	-29.3	-29.5	13.3	1.43e-05	0	35	0	35425091584	24	15629
2026-01-10 19:55:58.85	294.53	31.86	-29.2	-29.5	13.3	1.43e-05	0	35	0	35534143488	24	15622
2026-01-10 19:55:59.86	295.02	31.70	-29.4	-29.6	13.4	1.43e-05	0	35	0	35651584000	24	15814
2026-01-10 19:56:00.86	295.50	31.54	-29.4	-29.6	13.3	1.90e-05	0	35	0	35760635904	24	15830
2026-01-10 19:56:01.86	295.97	31.38	-29.3	-29.6	13.3	1.90e-05	0	35	0	35869687808	24	15805
2026-01-10 19:56:02.86	296.44	31.22	-29.4	-29.7	13.3	1.43e-05	0	35	0	35987128320	24	15999
2026-01-10 19:56:03.85	296.90	31.06	-29.6	-29.9	13.3	1.43e-05	0	35	0	36096180224	24	16228
2026-01-10 19:56:04.85	297.36	30.89	-29.7	-30.0	13.3	1.43e-05	0	35	0	36205232128	25	15525
2026-01-10 19:56:05.84	297.81	30.73	-29.5	-29.8	13.4	1.43e-05	0	35	0	36322672640	25	15193
2026-01-10 19:56:06.83	298.26	30.57	-29.6	-29.9	13.3	9.50e-06	0	35	0	36431724544	25	15421
2026-01-10 19:56:07.83	298.70	30.40	-29.7	-30.0	13.3	9.50e-06	0	35	0	36549165056	25	15633
2026-01-10 19:56:08.81	299.13	30.24	-29.7	-30.0	13.3	9.50e-06	0	35	0	36658216960	25	15628
2026-01-10 19:56:09.80	299.56	30.07	-29.8	-30.1	13.3	9.50e-06	0	35	0	36767268864	25	15673
2026-01-10 19:56:10.79	299.99	29.91	-29.8	-30.1	13.3	9.50e-06	0	35	0	36876320768	25	15741
2026-01-10 19:56:11.78	300.41	29.74	-29.9	-30.2	13.3	2.38e-05	0	35	0	36993761280	25	15859
2026-01-10 19:56:12.78	300.83	29.57	-29.9	-30.2	13.3	2.38e-05	0	35	0	37102813184	25	15980
2026-01-10 19:56:13.77	301.24	29.41	-29.9	-30.2	13.3	2.38e-05	0	35	0	37211865088	25	16004
2026-01-10 19:56:14.78	301.66	29.23	-29.9	-30.3	13.3	9.50e-06	0	35	0	37329305600	25	16035
2026-01-10 19:56:15.78	302.07	29.07	-30.0	-30.3	13.3	9.50e-06	0	35	0	37438357504	25	16066
2026-01-10 19:56:16.77	302.47	28.90	-30.0	-30.3	13.3	2.38e-05	0	35	0	37555798016	25	16087
2026-01-10 19:56:17.78	302.87	28.73	-30.2	-30.4	13.3	2.38e-05	0	35	0	37664849920	26	15473
2026-01-10 19:56:18.77	303.26	28.56	-30.0	-30.3	13.3	2.38e-05	0	35	0	37773901824	26	15282
2026-01-10 19:56:19.76	303.64	28.39	-30.2	-30.5	13.3	9.50e-06	0	35	0	37882953728	26	15544
2026-01-10 19:56:20.76	304.03	28.22	-30.1	-30.4	13.3	9.50e-06	0	35	0	38000394240	26	15437
2026-01-10 19:56:21.75	304.40	28.05	-30.2	-30.5	13.3	4.70e-06	0	35	0	38109446144	26	15529
2026-01-10 19:56:22.75	304.78	27.88	-30.2	-30.5	13.3	4.70e-06	0	35	0	38218498048	26	15513
2026-01-10 19:56:23.75	305.15	27.71	-30.3	-30.6	13.2	4.70e-06	0	35	0	38335938560	26	15775
2026-01-10 19:56:24.74	305.52	27.54	-30.5	-30.8	13.2	4.70e-06	0	35	0	38444990464	26	16041
2026-01-10 19:56:25.73	305.88	27.38	-30.5	-30.8	13.2	4.70e-06	0	35	0	38562430976	26	16083
2026-01-10 19:56:26.73	306.23	27.21	-30.6	-30.8	13.2	2.38e-05	0	35	0	38671482880	27	15255
2026-01-10 19:56:27.72	306.59	27.04	-30.7	-31.0	13.2	2.38e-05	0	35	0	38780534784	27	15576
2026-01-10 19:56:28.72	306.94	26.87	-30.7	-30.9	13.2	2.86e-05	0	35	0	38897975296	27	15470
2026-01-10 19:56:29.72	307.28	26.70	-30.6	-30.9	13.2	2.86e-05	0	35	0	39007027200	27	15427
2026-01-10 19:56:30.72	307.63	26.53	-30.7	-31.0	13.2	2.86e-05	0	35	0	39124467712	27	15604
2026-01-10 19:56:31.71	307.96	26.37	-30.8	-31.1	13.2	3.33e-05	0	35	0	39233519616	27	15683
2026-01-10 19:56:32.72	308.30	26.20	-30.9	-31.2	13.2	3.33e-05	0	35	0	39350960128	27	15894
2026-01-10 19:56:33.70	308.63	26.03	-31.0	-31.3	13.2	3.33e-05	0	35	0	39451623424	27	16137
2026-01-10 19:56:34.70	308.96	25.86	-31.0	-31.3	13.2	2.38e-05	0	35	0	39569063936	27	16080
2026-01-10 19:56:35.69	309.28	25.70	-31.0	-31.3	13.1	2.38e-05	0	35	0	39678115840	27	16105
2026-01-10 19:56:36.68	309.59	25.53	-31.0	-31.3	13.1	5.72e-05	0	35	0	39795556352	28	15196
2026-01-10 19:56:37.68	309.91	25.37	-31.0	-31.3	13.1	5.72e-05	0	35	0	39904608256	28	15204
2026-01-10 19:56:38.67	310.22	25.20	-31.2	-31.4	13.1	5.72e-05	0	35	0	40013660160	28	15433
2026-01-10 19:56:39.67	310.53	25.04	-31.2	-31.5	13.1	5.72e-05	0	35	0	40131100672	28	15584
2026-01-10 19:56:40.67	310.84	24.87	-31.3	-31.6	13.1	1.43e-05	0	35	0	40240152576	28	15680
2026-01-10 19:56:41.67	311.14	24.71	-31.3	-31.6	13.1	1.43e-05	0	35	0	40357593088	28	15664
2026-01-10 19:56:42.66	311.44	24.55	-31.4	-31.7	13.1	1.43e-05	0	35	0	40466644992	28	15864
2026-01-10 19:56:43.66	311.73	24.38	-31.4	-31.7	13.1	7.15e-05	0	35	0	40575696896	28	15893
2026-01-10 19:56:44.64	312.02	24.22	-31.4	-31.8	13.1	7.15e-05	0	35	0	40684748800	28	16023
2026-01-10 19:56:45.63	312.30	24.06	-31.4	-31.7	13.1	6.19e-05	0	35	0	40802189312	28	15867
2026-01-10 19:56:46.63	312.59	23.90	-31.5	-31.8	13.1	6.19e-05	0	35	0	40911241216	28	16127
2026-01-10 19:56:47.63	312.87	23.74	-31.5	-31.8	13.1	3.81e-05	0	35	0	41020293120	28	16086
2026-01-10 19:56:48.62	313.15	23.58	-31.7	-32.0	13.1	3.81e-05	0	35	0	41137733632	29	15533
2026-01-10 19:56:49.62	313.43	23.42	-31.7	-32.0	13.1	3.81e-05	0	35	0	41246785536	29	15526
2026-01-10 19:56:50.61	313.70	23.26	-31.8	-32.1	13.1	6.67e-05	0	35	0	41364226048	29	15733
2026-01-10 19:56:51.61	313.97	23.10	-32.0	-32.3	13.0	6.67e-05	0	35	0	41464889344	29	16076
2026-01-10 19:56:52.61	314.24	22.94	-32.1	-32.3	13.0	6.67e-05	0	35	0	41582329856	29	16186
2026-01-10 19:56:53.60	314.50	22.79	-32.1	-32.4	13.0	1.19e-04	0	35	0	41691381760	29	16214
2026-01-10 19:56:54.59	314.76	22.63	-32.2	-32.4	13.0	1.19e-04	0	35	0	41808822272	30	15435
2026-01-10 19:56:55.58	315.01	22.48	-32.1	-32.4	13.0	1.19e-04	0	35	0	41917874176	30	15445
2026-01-10 19:56:56.58	315.27	22.32	-32.1	-32.4	13.0	7.62e-05	0	35	0	42026926080	30	15378
2026-01-10 19:56:57.58	315.52	22.17	-32.2	-32.4	13.0	7.62e-05	0	36	0	42144366592	30	15444
2026-01-10 19:56:58.57	315.77	22.01	-32.2	-32.5	13.0	7.62e-05	0	35	0	42253418496	30	15508
2026-01-10 19:56:59.57	316.02	21.86	-32.1	-32.4	13.0	7.62e-05	0	35	0	42370859008	30	15380
2026-01-10 19:57:00.57	316.26	21.71	-32.3	-32.5	13.0	7.62e-05	0	35	0	42479910912	30	15626
2026-01-10 19:57:01.57	316.51	21.56	-32.3	-32.6	13.0	1.62e-04	0	36	0	42588962816	30	15765
2026-01-10 19:57:02.57	316.75	21.40	-32.4	-32.7	13.0	1.62e-04	0	35	0	42706403328	30	15921
2026-01-10 19:57:03.56	316.98	21.25	-32.4	-32.6	13.0	1.62e-04	0	35	0	42815455232	30	15814
2026-01-10 19:57:04.55	317.21	21.11	-32.4	-32.7	13.0	2.05e-04	0	36	0	42924507136	30	15969
2026-01-10 19:57:05.55	317.44	20.96	-32.6	-32.9	13.0	2.05e-04	0	36	0	43033559040	30	16203
2026-01-10 19:57:06.55	317.67	20.81	-32.5	-32.8	13.0	2.05e-04	0	36	0	43150999552	31	15142
2026-01-10 19:57:07.56	317.90	20.66	-32.4	-32.7	13.1	1.10e-04	0	35	0	43260051456	31	15063
2026-01-10 19:57:08.56	318.13	20.51	-32.5	-32.8	13.0	1.10e-04	0	36	0	43377491968	31	15210
2026-01-10 19:57:09.55	318.35	20.36	-32.5	-32.8	13.0	1.10e-04	0	35	0	43486543872	31	15141
2026-01-10 19:57:10.54	318.57	20.22	-32.5	-32.8	13.0	1.33e-04	0	36	0	43595595776	31	15257
2026-01-10 19:57:11.53	318.78	20.07	-32.5	-32.8	13.0	1.33e-04	0	36	0	43713036288	31	15219
2026-01-10 19:57:12.53	319.00	19.93	-32.6	-32.9	13.0	1.33e-04	0	35	0	43822088192	31	15416
2026-01-10 19:57:13.52	319.21	19.79	-32.7	-33.0	13.0	1.43e-04	0	36	0	43939528704	31	15502
2026-01-10 19:57:14.51	319.42	19.64	-32.7	-33.0	13.0	1.43e-04	0	35	0	44048580608	31	15641
2026-01-10 19:57:15.51	319.63	19.50	-32.8	-33.1	13.0	1.43e-04	0	36	0	44166021120	31	15684
2026-01-10 19:57:16.51	319.83	19.36	-32.9	-33.2	13.0	1.86e-04	0	36	0	44266684416	31	15896
2026-01-10 19:57:17.51	320.04	19.22	-32.9	-33.2	13.0	1.86e-04	0	35	0	44384124928	31	15955
2026-01-10 19:57:18.51	320.24	19.08	-33.0	-33.3	12.9	1.86e-04	0	36	0	44493176832	31	16089
2026-01-10 19:57:19.50	320.44	18.94	-33.1	-33.4	13.0	2.24e-04	0	36	0	44602228736	32	15409
2026-01-10 19:57:20.50	320.64	18.80	-33.2	-33.5	12.9	2.24e-04	0	36	0	44719669248	32	15532
2026-01-10 19:57:21.49	320.83	18.66	-33.2	-33.5	12.9	2.48e-04	0	36	0	44828721152	32	15583
2026-01-10 19:57:22.49	321.03	18.52	-33.4	-33.7	12.9	2.48e-04	0	36	0	44946161664	32	15934
2026-01-10 19:57:23.49	321.22	18.39	-33.3	-33.5	12.9	3.34e-04	0	36	0	45055213568	32	15632
2026-01-10 19:57:24.49	321.41	18.25	-33.3	-33.6	12.9	3.34e-04	0	36	0	45172654080	32	15755
2026-01-10 19:57:25.49	321.60	18.12	-33.3	-33.6	12.9	3.34e-04	0	36	0	45281705984	32	15737
2026-01-10 19:57:26.48	321.78	17.98	-33.3	-33.7	12.9	3.29e-04	0	36	0	45390757888	32	15848
2026-01-10 19:57:27.47	321.96	17.85	-33.4	-33.7	12.9	3.29e-04	0	36	0	45508198400	32	15921
2026-01-10 19:57:28.47	322.15	17.71	-33.4	-33.7	12.9	3.29e-04	0	36	0	45617250304	32	15936
2026-01-10 19:57:29.46	322.33	17.58	-33.5	-33.8	12.9	3.81e-04	0	36	0	45726302208	32	16096
2026-01-10 19:57:30.46	322.51	17.45	-33.6	-33.9	12.9	3.81e-04	0	36	0	45835354112	33	15426
2026-01-10 19:57:31.45	322.68	17.32	-33.7	-34.0	12.9	4.15e-04	0	36	0	45952794624	33	15580
2026-01-10 19:57:32.45	322.86	17.19	-33.7	-34.0	12.9	4.15e-04	0	36	0	46061846528	33	15478
2026-01-10 19:57:33.45	323.03	17.06	-33.7	-34.0	12.9	4.15e-04	0	36	0	46179287040	33	15491
2026-01-10 19:57:34.46	323.21	16.93	-33.8	-34.1	12.8	5.77e-04	0	36	0	46288338944	33	15705
2026-01-10 19:57:35.46	323.38	16.80	-33.8	-34.1	12.8	5.77e-04	0	36	0	46397390848	33	15820
2026-01-10 19:57:36.45	323.54	16.67	-33.9	-34.2	12.8	5.77e-04	0	36	0	46514831360	33	15852
2026-01-10 19:57:37.45	323.71	16.54	-33.9	-34.2	12.8	5.53e-04	0	36	0	46623883264	33	15946
2026-01-10 19:57:38.45	323.88	16.42	-34.1	-34.3	12.8	5.53e-04	0	36	0	46741323776	33	16186
2026-01-10 19:57:39.44	324.04	16.29	-34.0	-34.3	12.8	5.53e-04	0	36	0	46850375680	33	16157
2026-01-10 19:57:40.44	324.20	16.16	-34.1	-34.4	12.8	6.82e-04	0	36	0	46959427584	33	16307
2026-01-10 19:57:41.43	324.36	16.04	-34.2	-34.5	12.8	6.82e-04	0	36	0	47076868096	34	15512
2026-01-10 19:57:42.42	324.52	15.92	-34.2	-34.5	12.8	6.82e-04	0	36	0	47185920000	34	15617
2026-01-10 19:57:43.42	324.68	15.79	-34.4	-34.7	12.8	7.58e-04	0	36	0	47303360512	34	15851
2026-01-10 19:57:44.42	324.84	15.67	-34.5	-34.8	12.8	7.58e-04	0	36	0	47412412416	34	16060
2026-01-10 19:57:45.41	324.99	15.55	-34.3	-34.6	12.8	7.58e-04	0	36	0	47521464320	34	15770
2026-01-10 19:57:46.40	325.14	15.43	-34.2	-34.5	12.8	9.06e-04	0	36	0	47630516224	34	15587
2026-01-10 19:57:47.40	325.30	15.31	-34.2	-34.5	12.8	9.06e-04	0	36	0	47747956736	34	15625
2026-01-10 19:57:48.39	325.44	15.19	-34.3	-34.6	12.8	9.06e-04	0	36	0	47857008640	34	15693
2026-01-10 19:57:49.39	325.59	15.07	-34.2	-34.5	12.8	9.06e-04	0	36	0	47966060544	34	15527
2026-01-10 19:57:50.39	325.74	14.95	-34.2	-34.5	12.8	8.20e-04	0	36	0	48083501056	34	15526
2026-01-10 19:57:51.39	325.89	14.83	-34.2	-34.5	12.8	8.20e-04	0	36	0	48192552960	34	15633
2026-01-10 19:57:52.39	326.04	14.71	-34.2	-34.5	12.8	8.77e-04	0	36	0	48309993472	34	15624
2026-01-10 19:57:53.39	326.18	14.59	-34.2	-34.5	12.8	8.77e-04	0	36	0	48419045376	34	15598
2026-01-10 19:57:54.39	326.32	14.47	-34.3	-34.6	12.8	8.77e-04	0	36	0	48536485888	34	15749
2026-01-10 19:57:55.39	326.46	14.36	-34.3	-34.6	12.7	8.82e-04	0	36	0	48645537792	34	15776
2026-01-10 19:57:56.39	326.61	14.24	-34.3	-34.6	12.8	8.82e-04	0	36	0	48754589696	34	15718
2026-01-10 19:57:57.39	326.74	14.13	-34.5	-34.8	12.7	8.11e-04	0	36	0	48872030208	34	16109
2026-01-10 19:57:58.39	326.88	14.01	-34.4	-34.7	12.7	8.11e-04	0	36	0	48981082112	34	15897
2026-01-10 19:57:59.39	327.02	13.90	-34.6	-34.9	12.7	8.11e-04	0	36	0	49098522624	35	15460
2026-01-10 19:58:00.38	327.15	13.78	-34.7	-35.0	12.7	1.15e-03	0	36	0	49207574528	35	15504
2026-01-10 19:58:01.39	327.29	13.67	-34.7	-35.0	12.7	1.15e-03	0	36	0	49316626432	35	15498
2026-01-10 19:58:02.39	327.42	13.56	-34.7	-35.0	12.7	1.15e-03	0	36	0	49434066944	35	15501
2026-01-10 19:58:03.38	327.55	13.45	-34.8	-35.1	12.6	1.31e-03	0	36	0	49543118848	35	15820
2026-01-10 19:58:04.38	327.68	13.33	-34.9	-35.2	12.6	1.31e-03	0	36	0	49660559360	35	15854
2026-01-10 19:58:05.38	327.81	13.22	-34.8	-35.1	12.6	1.31e-03	0	36	0	49769611264	35	15826
2026-01-10 19:58:06.38	327.94	13.11	-35.0	-35.3	12.6	1.75e-03	0	36	0	49878663168	35	16084
2026-01-10 19:58:07.38	328.07	13.00	-35.1	-35.4	12.6	1.75e-03	0	36	0	49996103680	35	16270
2026-01-10 19:58:08.38	328.20	12.89	-37.6	-37.9	12.8	1.75e-03	0	36	0	50105155584	41	15368
2026-01-10 19:58:09.37	328.32	12.79	-37.6	-38.0	12.8	1.64e-03	0	36	0	50222596096	41	15484
2026-01-10 19:58:10.36	328.44	12.68	-37.7	-38.0	12.8	1.64e-03	0	36	0	50323259392	41	15530
2026-01-10 19:58:11.35	328.57	12.57	-37.8	-38.1	12.8	1.64e-03	0	36	0	50440699904	41	15655
2026-01-10 19:58:12.35	328.69	12.46	-37.8	-38.1	12.8	9.44e-04	0	36	0	50549751808	41	15716
2026-01-10 19:58:13.34	328.81	12.36	-37.7	-38.1	12.7	9.44e-04	0	36	0	50667192320	41	15658
2026-01-10 19:58:14.34	328.93	12.25	-37.7	-38.0	12.7	1.05e-03	0	36	0	50776244224	41	15636
2026-01-10 19:58:15.34	329.05	12.15	-37.7	-38.0	12.7	1.05e-03	0	36	0	50885296128	41	15600
2026-01-10 19:58:16.34	329.17	12.04	-37.8	-38.1	12.7	1.05e-03	0	36	0	51002736640	41	15727
2026-01-10 19:58:17.35	329.28	11.94	-37.9	-38.2	12.7	1.09e-03	0	36	0	51111788544	41	15870
2026-01-10 19:58:18.34	329.40	11.83	-37.8	-38.1	12.7	1.09e-03	0	36	0	51229229056	41	15777
2026-01-10 19:58:19.34	329.52	11.73	-37.9	-38.2	12.7	1.09e-03	0	36	0	51338280960	41	15951
2026-01-10 19:58:20.34	329.63	11.63	-37.9	-38.2	12.7	1.28e-03	0	36	0	51455721472	41	15946
2026-01-10 19:58:21.33	329.74	11.52	-38.0	-38.3	12.7	1.28e-03	0	36	0	51564773376	41	16143
2026-01-10 19:58:22.33	329.86	11.42	-38.1	-38.4	12.7	1.28e-03	0	36	0	51673825280	42	15369
2026-01-10 19:58:23.32	329.97	11.32	-38.2	-38.5	12.7	1.34e-03	0	36	0	51791265792	42	15490
2026-01-10 19:58:24.32	330.08	11.22	-38.0	-38.3	12.7	1.34e-03	0	36	0	51900317696	42	15230
2026-01-10 19:58:25.32	330.19	11.12	-38.3	-38.6	12.6	1.34e-03	0	36	0	52017758208	42	15800
2026-01-10 19:58:26.31	330.29	11.02	-38.3	-38.6	12.6	1.83e-03	0	36	0	52118421504	42	15755
2026-01-10 19:58:27.31	330.40	10.92	-38.5	-38.8	12.6	1.83e-03	0	36	0	52235862016	42	16141
2026-01-10 19:58:28.31	330.51	10.82	-38.5	-38.8	12.6	1.83e-03	0	36	0	52344913920	43	15222
2026-01-10 19:58:29.31	330.62	10.72	-38.4	-38.7	12.7	2.23e-03	0	36	0	52462354432	43	15100
2026-01-10 19:58:30.31	330.72	10.62	-38.7	-39.0	12.6	2.23e-03	0	36	0	52571406336	43	15549
2026-01-10 19:58:31.30	330.83	10.52	-38.7	-39.0	12.6	2.23e-03	0	36	0	52680458240	43	15651
2026-01-10 19:58:32.30	330.93	10.43	-38.9	-39.2	12.6	2.22e-03	0	36	0	52797898752	43	15933
2026-01-10 19:58:33.30	331.03	10.33	-38.9	-39.3	12.5	2.22e-03	0	36	0	52906950656	43	16063
2026-01-10 19:58:34.29	331.14	10.23	-39.0	-39.3	12.5	2.22e-03	0	36	0	53024391168	43	16075
2026-01-10 19:58:35.29	331.24	10.14	-38.8	-39.1	12.6	3.05e-03	0	36	0	53133443072	43	15804
2026-01-10 19:58:36.28	331.34	10.04	-39.0	-39.3	12.5	3.05e-03	0	36	0	53242494976	43	16109
2026-01-10 19:58:37.28	331.44	9.95	-38.9	-39.2	12.5	3.17e-03	0	36	0	53359935488	43	15951
2026-01-10 19:58:38.29	331.54	9.85	-39.0	-39.3	12.6	3.17e-03	0	36	0	53468987392	44	15227
2026-01-10 19:58:39.27	331.63	9.76	-39.2	-39.5	12.5	3.17e-03	0	36	0	53586427904	44	15562
2026-01-10 19:58:40.27	331.73	9.66	-39.0	-39.3	12.5	3.17e-03	0	36	0	53695479808	44	15203
2026-01-10 19:58:41.26	331.83	9.57	-38.8	-39.1	12.6	3.37e-03	0	36	0	53804531712	44	14842
2026-01-10 19:58:42.25	331.92	9.48	-39.0	-39.4	12.5	3.37e-03	0	36	0	53913583616	44	15307
2026-01-10 19:58:43.25	332.02	9.38	-39.2	-39.5	12.5	3.29e-03	0	36	0	54031024128	44	15539
2026-01-10 19:58:44.25	332.12	9.29	-39.1	-39.4	12.5	3.29e-03	0	36	0	54140076032	44	15349
2026-01-10 19:58:45.25	332.21	9.20	-39.2	-39.5	12.5	3.29e-03	0	36	0	54249127936	44	15589
2026-01-10 19:58:46.25	332.30	9.11	-39.2	-39.5	12.5	3.71e-03	0	36	0	54366568448	44	15563
2026-01-10 19:58:47.25	332.40	9.02	-39.2	-39.5	12.5	3.71e-03	0	36	0	54475620352	44	15583
2026-01-10 19:58:48.25	332.49	8.93	-39.3	-39.6	12.4	3.71e-03	0	36	0	54593060864	44	15724
2026-01-10 19:58:49.24	332.58	8.84	-39.3	-39.6	12.4	4.38e-03	0	36	0	54702112768	44	15762
2026-01-10 19:58:50.23	332.67	8.75	-39.4	-39.7	12.4	4.38e-03	0	36	0	54819553280	44	15980
2026-01-10 19:58:51.23	332.76	8.66	-39.3	-39.7	12.4	4.38e-03	0	36	0	54928605184	44	15868
2026-01-10 19:58:52.22	332.85	8.57	-39.5	-39.8	12.4	4.38e-03	0	36	0	55037657088	45	15174
2026-01-10 19:58:53.22	332.94	8.48	-39.3	-39.6	12.5	5.09e-03	0	36	0	55155097600	45	14939
2026-01-10 19:58:54.21	333.03	8.39	-39.4	-39.7	12.4	5.09e-03	0	36	0	55264149504	45	15118
2026-01-10 19:58:55.22	333.11	8.30	-39.4	-39.8	12.4	5.46e-03	0	36	0	55381590016	45	15121
2026-01-10 19:58:56.21	333.20	8.21	-39.6	-39.9	12.4	5.46e-03	0	36	0	55482253312	45	15412
2026-01-10 19:58:57.20	333.29	8.13	-39.5	-39.8	12.4	6.10e-03	0	36	0	55599693824	45	15231
2026-01-10 19:58:58.20	333.37	8.04	-39.6	-40.0	12.3	6.10e-03	0	36	0	55708745728	45	15499
2026-01-10 19:58:59.20	333.46	7.95	-39.6	-40.0	12.3	6.10e-03	0	36	0	55817797632	45	15518
2026-01-10 19:59:00.19	333.54	7.87	-39.7	-40.0	12.3	6.10e-03	0	36	0	55935238144	45	15586
2026-01-10 19:59:01.18	333.62	7.78	-39.8	-40.2	12.3	6.72e-03	0	36	0	56044290048	45	15856
2026-01-10 19:59:02.18	333.71	7.69	-39.7	-40.0	12.3	6.72e-03	0	36	0	56161730560	45	15594
2026-01-10 19:59:03.18	333.79	7.61	-39.8	-40.2	12.3	6.72e-03	0	36	0	56270782464	45	15870
2026-01-10 19:59:04.18	333.87	7.52	-39.8	-40.2	12.3	8.45e-03	0	36	0	56388222976	45	15867
2026-01-10 19:59:05.18	333.96	7.44	-39.9	-40.2	12.2	8.45e-03	0	36	0	56497274880	45	16005
2026-01-10 19:59:06.18	334.04	7.35	-39.9	-40.2	12.3	9.05e-03	0	36	0	56606326784	45	16016
2026-01-10 19:59:07.18	334.12	7.27	-40.1	-40.4	12.2	9.05e-03	0	36	0	56723767296	45	16317
2026-01-10 19:59:08.18	334.20	7.19	-40.1	-40.4	12.2	9.05e-03	0	36	0	56832819200	45	16338
2026-01-10 19:59:09.18	334.28	7.10	-40.0	-40.4	12.2	8.99e-03	0	36	0	56950259712	45	16221
2026-01-10 19:59:10.18	334.36	7.02	-40.2	-40.5	12.2	8.99e-03	0	36	0	57059311616	46	15639
2026-01-10 19:59:11.17	334.43	6.94	-40.3	-40.6	12.1	8.99e-03	0	36	0	57168363520	46	15780
2026-01-10 19:59:12.16	334.51	6.85	-40.4	-40.7	12.1	1.13e-02	0	36	0	57285804032	46	15963
2026-01-10 19:59:13.16	334.59	6.77	-40.4	-40.7	12.1	1.13e-02	0	36	0	57394855936	46	15958
2026-01-10 19:59:14.16	334.67	6.69	-40.3	-40.6	12.1	1.26e-02	0	36	0	57503907840	46	15826
2026-01-10 19:59:15.16	334.74	6.61	-40.5	-40.9	12.1	1.26e-02	0	36	0	57612959744	46	16263
2026-01-10 19:59:16.16	334.82	6.53	-40.4	-40.7	12.1	1.26e-02	0	36	0	57730400256	46	15959
2026-01-10 19:59:17.16	334.90	6.45	-40.5	-40.9	12.0	1.36e-02	0	36	0	57839452160	46	16247
2026-01-10 19:59:18.15	334.97	6.37	-40.5	-40.8	12.1	1.36e-02	0	36	0	57956892672	47	15276
2026-01-10 19:59:19.15	335.04	6.29	-40.5	-40.9	12.1	1.47e-02	0	36	0	58065944576	47	15376
2026-01-10 19:59:20.15	335.12	6.20	-40.4	-40.7	12.2	1.47e-02	0	36	0	58174996480	47	15060
2026-01-10 19:59:21.14	335.19	6.13	-40.6	-40.9	12.1	1.47e-02	0	36	0	58292436992	47	15388
2026-01-10 19:59:22.14	335.26	6.05	-40.5	-40.9	12.1	1.45e-02	0	36	0	58401488896	47	15351
2026-01-10 19:59:23.14	335.34	5.97	-40.4	-40.8	12.1	1.45e-02	0	36	0	58518929408	47	15224
2026-01-10 19:59:24.14	335.41	5.89	-41.0	-41.3	11.9	1.45e-02	0	36	0	58627981312	47	16145
2026-01-10 19:59:25.13	335.48	5.81	-40.6	-41.0	12.0	1.67e-02	0	36	0	58745421824	47	15487
2026-01-10 19:59:26.13	335.55	5.73	-40.9	-41.2	11.9	1.67e-02	0	36	0	58854473728	47	16009
2026-01-10 19:59:27.12	335.62	5.65	-40.8	-41.2	11.9	1.77e-02	0	36	0	58963525632	47	15854
2026-01-10 19:59:28.12	335.69	5.58	-40.6	-41.0	12.0	1.77e-02	0	36	0	59080966144	47	15537
2026-01-10 19:59:29.11	335.76	5.50	-40.8	-41.2	11.9	1.77e-02	0	36	0	59190018048	47	15871
2026-01-10 19:59:30.12	335.83	5.42	-40.8	-41.2	11.9	1.90e-02	0	36	0	59307458560	47	15885
2026-01-10 19:59:31.11	335.90	5.34	-40.7	-41.1	12.0	1.90e-02	0	36	0	59416510464	47	15662
2026-01-10 19:59:32.11	335.97	5.27	-41.0	-41.4	11.9	2.05e-02	0	36	0	59525562368	47	16214
2026-01-10 19:59:33.11	336.04	5.19	-40.9	-41.3	11.9	2.05e-02	0	36	0	59634614272	47	16025
2026-01-10 19:59:34.10	336.11	5.12	-41.9	-42.2	12.0	2.05e-02	0	36	0	59752054784	49	15973
2026-01-10 19:59:35.10	336.17	5.04	-41.7	-42.0	12.0	1.95e-02	0	36	0	59861106688	49	15641
2026-01-10 19:59:36.09	336.24	4.96	-55.8	-57.7	6.5	1.95e-02	0	36	104	59953381376	77	19004
2026-01-10 19:59:37.09	336.31	4.89	-58.1	-61.3	6.2	1.95e-02	0	36	104	59953381376	81	22704
2026-01-10 19:59:38.08	336.37	4.81	-58.5	-61.8	6.2	1.95e-02	0	35	104	59953381376	82	22747
2026-01-10 19:59:39.09	336.44	4.74	-58.8	-62.1	6.2	1.95e-02	0	35	104	59953381376	83	22118
2026-01-10 19:59:40.08	336.50	4.66	-59.0	-62.2	6.1	1.95e-02	0	35	104	59953381376	83	22514
2026-01-10 19:59:41.08	336.57	4.59	-59.1	-62.3	6.2	1.95e-02	0	35	104	59953381376	83	22864
2026-01-10 19:59:42.08	336.63	4.52	-59.4	-62.6	6.1	1.95e-02	0	35	104	59953381376	84	22292
2026-01-10 19:59:43.07	336.70	4.44	-59.5	-62.7	6.1	1.95e-02	0	35	104	59953381376	84	22435
2026-01-10 19:59:44.07	336.76	4.37	-59.6	-62.8	6.2	3.40e-02	0	35	104	59953381376	84	22674
2026-01-10 19:59:45.08	336.82	4.29	-59.6	-62.8	6.2	3.40e-02	0	35	104	59953381376	84	22845
2026-01-10 19:59:46.07	336.89	4.22	-59.7	-62.9	6.1	3.40e-02	0	35	104	59953381376	85	21774
2026-01-10 19:59:47.07	336.95	4.15	-59.7	-62.9	6.2	3.40e-02	0	35	104	59953381376	85	21760
2026-01-10 19:59:48.06	337.01	4.08	-59.7	-63.0	6.2	3.40e-02	0	35	104	59953381376	85	21858
2026-01-10 19:59:49.06	337.07	4.00	-59.7	-63.0	6.2	3.40e-02	0	35	104	59953381376	85	21969
2026-01-10 19:59:50.05	337.14	3.93	-59.8	-63.0	6.1	3.40e-02	0	35	104	59953381376	85	22013
2026-01-10 19:59:51.04	337.20	3.86	-59.8	-63.0	6.2	3.40e-02	0	35	104	59953381376	85	21971
2026-01-10 19:59:52.05	337.26	3.79	-59.8	-63.0	6.1	3.40e-02	0	35	104	59953381376	85	22054
2026-01-10 19:59:53.05	337.32	3.72	-59.8	-63.1	6.1	3.40e-02	0	35	104	59953381376	85	22157
2026-01-10 19:59:54.04	337.38	3.65	-59.8	-63.0	6.1	3.40e-02	0	35	104	59953381376	85	22091
2026-01-10 19:59:55.04	337.44	3.57	-59.8	-63.1	6.1	3.40e-02	0	35	104	59953381376	85	22167
2026-01-10 19:59:56.04	337.50	3.50	-59.8	-63.0	6.1	3.40e-02	0	35	104	59953381376	85	22071
2026-01-10 19:59:57.03	337.56	3.43	-59.8	-63.1	6.2	0.00e+00	0	35	104	59953381376	85	22133
2026-01-10 19:59:58.02	337.62	3.36	-59.8	-63.0	6.2	0.00e+00	0	35	104	59953381376	85	22005
2026-01-10 19:59:59.02	337.67	3.29	-59.7	-63.0	6.1	0.00e+00	0	35	104	59953381376	85	21871
2026-01-10 20:00:00.02	337.73	3.22	-59.7	-63.0	6.2	0.00e+00	0	35	104	59953381376	85	21861
2026-01-10 20:00:01.02	337.79	3.15	-59.7	-62.9	6.2	0.00e+00	0	35	104	59953381376	85	21776
2026-01-10 20:00:02.01	337.85	3.08	-59.7	-62.9	6.1	0.00e+00	0	35	104	59953381376	85	21804
2026-01-10 20:00:03.00	337.90	3.02	-59.7	-62.9	6.2	0.00e+00	0	35	104	59953381376	85	21761
2026-01-10 20:00:03.99	337.96	2.95	-59.7	-62.9	6.2	0.00e+00	0	35	104	59953381376	85	21714
2026-01-10 20:00:04.99	338.02	2.88	-59.7	-62.9	6.2	0.00e+00	0	35	104	59953381376	85	21713
2026-01-10 20:00:06.00	338.07	2.81	-59.7	-62.9	6.2	0.00e+00	0	35	104	59953381376	85	21690
2026-01-10 20:00:07.00	338.13	2.74	-59.6	-62.9	6.2	0.00e+00	0	35	104	59953381376	85	21651
2026-01-10 20:00:08.00	338.19	2.67	-59.6	-62.9	6.1	0.00e+00	0	35	104	59953381376	85	21745
2026-01-10 20:00:09.00	338.24	2.60	-59.6	-62.9	6.2	0.00e+00	0	35	104	59953381376	85	21717
2026-01-10 20:00:10.00	338.30	2.53	-59.6	-62.9	6.1	0.00e+00	0	35	104	59953381376	85	21663
2026-01-10 20:00:11.00	338.35	2.47	-59.6	-62.8	6.2	0.00e+00	0	35	104	59953381376	85	21554
2026-01-10 20:00:12.00	338.41	2.40	-59.6	-62.8	6.2	0.00e+00	0	34	104	59953381376	85	21487
2026-01-10 20:00:12.99	338.46	2.33	-59.6	-62.8	6.2	0.00e+00	0	34	104	59953381376	85	21548
2026-01-10 20:00:13.99	338.52	2.26	-59.6	-62.8	6.2	0.00e+00	0	35	104	59953381376	85	21484
2026-01-10 20:00:14.99	338.57	2.20	-59.6	-62.8	6.2	0.00e+00	0	34	104	59953381376	85	21482
2026-01-10 20:00:15.99	338.62	2.13	-59.6	-62.8	6.2	0.00e+00	0	34	104	59953381376	85	21538
2026-01-10 20:00:16.98	338.68	2.06	-59.5	-62.8	6.2	0.00e+00	0	34	104	59953381376	85	21419
2026-01-10 20:00:17.98	338.73	2.00	-59.5	-62.8	6.1	0.00e+00	0	34	104	59953381376	85	21430
2026-01-10 20:00:18.99	338.78	1.93	-59.5	-62.8	6.2	0.00e+00	0	34	104	59953381376	85	21425

#Closed at: 2026-01-10 20:00:19
#Recorded file [59953 MB]: D:/lorett/data/31004_260110_224956.dat