passes_logs/2026/01/10/R3.2S_Murmansk/R3.2S_Murmansk__20260110_130750_NOAA_20_JPSS-1_rec.log

#Pass ID: 20260110_130750_NOAA 20 (JPSS-1)
#Satellite: NOAA 20 (JPSS-1)
#Configuration: NOAA 20
#almurnet v.1.7.20251203
#Start time: 2026-01-10 13:07:50

#Version: 2.2.20231116
#Station: R3.2S_Murmansk
#Location: 33.079688 lon 68.888172 lat
#TLE: 1 43013U 17073A   26009.69119415  .00000109  00000+0  72598-4 0  9996
#TLE: 2 43013  98.7631 310.6868 0001678  46.7442 313.3874 14.19534878421981

#Time	Az	El	Level	Level2	SNR	BER	BlckErr	Temp	State	Recorded	gain1	gain2
2026-01-10 13:07:50.95	246.62	2.01	-57.5	-73.5	3.8	1.49e+00	0	21	0	0	81	22392
2026-01-10 13:07:51.95	246.72	2.05	-57.5	-73.4	3.8	1.49e+00	0	21	104	0	80	23559
2026-01-10 13:07:52.96	246.83	2.09	-57.5	-73.5	3.8	1.49e+00	0	21	104	0	80	23675
2026-01-10 13:07:53.96	246.93	2.14	-57.5	-73.5	3.8	1.49e+00	0	21	104	0	80	23640
2026-01-10 13:07:54.96	247.03	2.18	-57.5	-73.5	3.8	1.49e+00	0	21	104	0	80	23599
2026-01-10 13:07:55.96	247.13	2.22	-57.5	-73.5	3.8	1.49e+00	0	21	104	0	80	23596
2026-01-10 13:07:56.96	247.24	2.27	-57.5	-73.5	3.8	1.49e+00	0	21	104	0	80	23629
2026-01-10 13:07:57.96	247.34	2.31	-57.5	-73.5	3.8	1.49e+00	0	21	104	0	80	23599
2026-01-10 13:07:58.96	247.45	2.35	-57.5	-73.5	3.8	1.49e+00	0	21	104	0	80	23613
2026-01-10 13:07:59.97	247.55	2.40	-57.5	-73.5	3.8	1.49e+00	0	21	104	0	80	23637
2026-01-10 13:08:00.96	247.65	2.44	-57.5	-73.5	3.8	1.49e+00	0	21	104	0	80	23649
2026-01-10 13:08:01.96	247.76	2.48	-57.5	-73.5	3.8	1.49e+00	0	21	104	0	80	23583
2026-01-10 13:08:02.96	247.86	2.52	-57.5	-73.5	3.8	1.49e+00	0	21	104	0	80	23611
2026-01-10 13:08:03.96	247.97	2.57	-57.5	-73.5	3.8	1.49e+00	0	22	104	0	80	23688
2026-01-10 13:08:04.96	248.08	2.61	-57.5	-73.5	3.8	1.49e+00	0	21	104	0	80	23607
2026-01-10 13:08:05.97	248.18	2.65	-57.5	-73.5	3.8	1.49e+00	0	22	104	0	80	23615
2026-01-10 13:08:06.97	248.29	2.70	-57.5	-73.4	3.8	1.49e+00	0	21	104	0	80	23547
2026-01-10 13:08:07.97	248.40	2.74	-57.5	-73.4	3.8	1.49e+00	0	21	104	0	80	23473
2026-01-10 13:08:08.97	248.50	2.78	-57.5	-73.4	3.8	1.49e+00	0	21	104	0	80	23521
2026-01-10 13:08:09.98	248.61	2.82	-57.5	-73.5	3.8	1.49e+00	0	21	104	0	80	23607
2026-01-10 13:08:10.97	248.72	2.87	-57.5	-73.5	3.8	1.49e+00	0	22	104	0	80	23626
2026-01-10 13:08:11.97	248.83	2.91	-57.5	-73.5	3.8	1.49e+00	0	22	104	0	80	23644
2026-01-10 13:08:12.97	248.93	2.95	-57.5	-73.5	3.8	1.49e+00	0	22	104	0	80	23590
2026-01-10 13:08:13.97	249.04	2.99	-57.5	-73.5	3.8	1.49e+00	0	22	104	0	80	23583
2026-01-10 13:08:14.98	249.15	3.04	-57.5	-73.5	3.8	1.49e+00	0	22	104	0	80	23640
2026-01-10 13:08:15.98	249.26	3.08	-57.5	-73.5	3.8	1.49e+00	0	22	104	0	80	23659
2026-01-10 13:08:16.98	249.37	3.12	-57.5	-73.5	3.8	1.49e+00	0	22	104	0	80	23713
2026-01-10 13:08:17.97	249.48	3.17	-57.5	-73.5	3.8	1.49e+00	0	22	104	0	80	23712
2026-01-10 13:08:18.97	249.59	3.21	-57.5	-73.5	3.8	1.49e+00	0	22	104	0	80	23586
2026-01-10 13:08:19.97	249.70	3.25	-57.5	-73.4	3.8	1.49e+00	0	22	104	0	80	23564
2026-01-10 13:08:20.97	249.81	3.29	-57.5	-73.4	3.8	1.49e+00	0	22	104	0	80	23421
2026-01-10 13:08:21.97	249.92	3.34	-57.5	-73.3	3.8	1.49e+00	0	22	104	0	80	23296
2026-01-10 13:08:22.96	250.03	3.38	-57.5	-73.4	3.8	1.49e+00	0	22	104	0	80	23405
2026-01-10 13:08:23.97	250.14	3.42	-57.5	-73.4	3.8	1.49e+00	0	22	104	0	80	23473
2026-01-10 13:08:24.97	250.26	3.46	-57.5	-73.4	3.8	1.49e+00	0	22	104	0	80	23366
2026-01-10 13:08:25.97	250.37	3.51	-57.5	-73.4	3.8	1.49e+00	0	22	104	0	80	23375
2026-01-10 13:08:26.97	250.48	3.55	-57.5	-73.4	3.8	1.49e+00	0	22	104	0	80	23550
2026-01-10 13:08:27.97	250.59	3.59	-57.5	-73.4	3.8	1.49e+00	0	22	104	0	80	23523
2026-01-10 13:08:28.96	250.70	3.63	-57.5	-73.5	3.8	1.49e+00	0	22	104	0	80	23627
2026-01-10 13:08:29.96	250.82	3.68	-57.5	-73.5	3.8	1.49e+00	0	22	104	0	80	23638
2026-01-10 13:08:30.96	250.93	3.72	-57.5	-73.5	3.8	1.49e+00	0	22	104	0	80	23606
2026-01-10 13:08:31.97	251.05	3.76	-57.5	-73.4	3.8	1.49e+00	0	22	104	0	80	23497
2026-01-10 13:08:32.97	251.16	3.80	-57.5	-73.3	3.8	1.49e+00	0	22	104	0	80	23304
2026-01-10 13:08:33.97	251.28	3.84	-57.5	-73.3	3.8	1.49e+00	0	22	104	0	80	23265
2026-01-10 13:08:34.97	251.39	3.89	-57.5	-73.3	3.8	1.49e+00	0	22	104	0	80	23095
2026-01-10 13:08:35.98	251.51	3.93	-57.5	-73.3	3.8	1.49e+00	0	22	104	0	80	23224
2026-01-10 13:08:36.98	251.62	3.97	-57.5	-73.4	3.8	1.49e+00	0	22	104	0	80	23465
2026-01-10 13:08:37.98	251.74	4.01	-57.5	-73.4	3.8	1.49e+00	0	22	104	0	80	23433
2026-01-10 13:08:38.98	251.85	4.06	-57.5	-73.5	3.8	1.49e+00	0	22	104	0	80	23594
2026-01-10 13:08:39.97	251.97	4.10	-57.5	-73.4	3.8	1.49e+00	0	22	104	0	80	23573
2026-01-10 13:08:40.97	252.09	4.14	-57.5	-73.4	3.8	1.49e+00	0	22	104	0	80	23528
2026-01-10 13:08:41.96	252.20	4.18	-57.5	-73.4	3.8	1.49e+00	0	22	104	0	80	23363
2026-01-10 13:08:42.96	252.32	4.22	-57.5	-73.3	3.8	1.49e+00	0	22	104	0	80	23102
2026-01-10 13:08:43.96	252.44	4.27	-57.5	-73.2	3.8	1.49e+00	0	22	104	0	80	22953
2026-01-10 13:08:44.96	252.56	4.31	-57.5	-73.2	3.8	1.49e+00	0	22	104	0	80	22889
2026-01-10 13:08:45.95	252.67	4.35	-57.5	-73.1	3.8	1.49e+00	0	22	104	0	80	22562
2026-01-10 13:08:46.95	252.79	4.39	-57.5	-72.8	3.8	1.49e+00	0	22	104	0	80	21919
2026-01-10 13:08:47.94	252.91	4.43	-57.5	-72.9	3.8	1.49e+00	0	22	104	0	80	22092
2026-01-10 13:08:48.95	253.03	4.47	-57.5	-72.8	3.8	1.49e+00	0	22	104	0	80	21855
2026-01-10 13:08:49.96	253.15	4.52	-57.5	-72.6	3.8	1.49e+00	0	22	104	0	80	21435
2026-01-10 13:08:50.96	253.27	4.56	-57.5	-73.0	3.8	1.49e+00	0	22	104	0	80	22409
2026-01-10 13:08:51.96	253.39	4.60	-57.5	-73.3	3.8	1.49e+00	0	22	104	0	80	23121
2026-01-10 13:08:52.97	253.51	4.64	-57.5	-73.5	3.8	1.49e+00	0	22	104	0	80	23589
2026-01-10 13:08:53.97	253.64	4.68	-57.5	-72.9	3.8	1.49e+00	0	22	104	0	80	22261
2026-01-10 13:08:54.96	253.76	4.73	-57.4	-71.3	3.8	1.49e+00	0	22	104	0	80	18392
2026-01-10 13:08:55.97	253.88	4.77	-57.4	-70.2	4.1	1.46e+00	0	22	0	0	80	16171
2026-01-10 13:08:56.97	254.00	4.81	-57.3	-69.3	4.4	1.35e+00	86	22	0	0	80	14556
2026-01-10 13:08:57.97	254.12	4.85	-57.3	-68.6	4.6	9.50e-01	0	22	0	2097152	80	13488
2026-01-10 13:08:58.97	254.25	4.89	-57.2	-67.9	5.0	7.78e-01	0	22	0	4194304	80	12432
2026-01-10 13:08:59.98	254.37	4.93	-57.0	-66.3	5.8	5.95e-01	0	22	0	5242880	80	10398
2026-01-10 13:09:00.97	254.49	4.97	-56.6	-63.7	8.0	1.60e-01	0	22	0	7340032	79	8098
2026-01-10 13:09:01.98	254.62	5.02	-56.1	-62.0	9.6	8.82e-03	0	22	0	9437184	78	7044
2026-01-10 13:09:02.98	254.74	5.06	-56.2	-62.2	9.3	1.10e-02	0	22	0	11534336	78	7272
2026-01-10 13:09:03.97	254.86	5.10	-57.2	-68.2	4.9	9.08e-02	0	22	0	13631488	79	13605
2026-01-10 13:09:04.95	254.99	5.14	-54.4	-58.0	12.6	8.02e-04	0	22	0	14680064	75	5299
2026-01-10 13:09:05.95	255.11	5.18	-57.1	-68.2	4.8	9.64e-02	0	23	0	16777216	79	13596
2026-01-10 13:09:06.95	255.24	5.22	-53.7	-56.6	13.4	6.11e-03	0	23	0	18874368	72	5393
2026-01-10 13:09:07.93	255.36	5.26	-53.0	-55.6	14.0	0.00e+00	0	23	0	20971520	72	4792
2026-01-10 13:09:08.93	255.49	5.30	-53.6	-56.6	13.3	0.00e+00	0	23	0	22020096	72	5372
2026-01-10 13:09:09.94	255.61	5.34	-53.3	-56.1	13.7	0.00e+00	0	23	0	24117248	72	5054
2026-01-10 13:09:10.93	255.74	5.38	-53.2	-56.0	13.8	0.00e+00	0	22	0	26214400	72	4991
2026-01-10 13:09:11.93	255.87	5.42	-53.3	-56.0	13.7	0.00e+00	0	23	0	28311552	72	5030
2026-01-10 13:09:12.93	255.99	5.46	-52.8	-55.4	14.2	0.00e+00	0	23	0	30408704	72	4658
2026-01-10 13:09:13.93	256.12	5.51	-53.1	-55.7	13.9	0.00e+00	0	23	0	31457280	72	4856
2026-01-10 13:09:14.92	256.25	5.55	-53.4	-56.2	13.6	0.00e+00	0	23	0	33554432	72	5143
2026-01-10 13:09:15.92	256.38	5.59	-53.2	-55.9	13.8	0.00e+00	0	23	0	35651584	72	4964
2026-01-10 13:09:16.91	256.50	5.63	-52.9	-55.4	14.2	0.00e+00	0	23	0	37748736	72	4668
2026-01-10 13:09:17.91	256.63	5.67	-53.0	-55.6	14.1	0.00e+00	0	23	0	39845888	72	4770
2026-01-10 13:09:18.91	256.76	5.71	-53.1	-55.8	13.9	0.00e+00	0	23	0	40894464	72	4871
2026-01-10 13:09:19.92	256.89	5.75	-53.2	-55.9	13.8	0.00e+00	0	23	0	42991616	72	4969
2026-01-10 13:09:20.91	257.02	5.79	-53.2	-55.8	13.8	0.00e+00	0	23	0	45088768	72	4923
2026-01-10 13:09:21.91	257.15	5.83	-53.1	-55.7	14.0	0.00e+00	0	23	0	47185920	72	4818
2026-01-10 13:09:22.90	257.28	5.87	-53.2	-55.9	13.8	0.00e+00	0	23	0	48234496	72	4960
2026-01-10 13:09:23.90	257.41	5.91	-53.1	-55.7	14.0	0.00e+00	0	23	0	50331648	72	4829
2026-01-10 13:09:24.90	257.55	5.95	-53.0	-55.6	14.0	0.00e+00	0	23	0	52428800	72	4804
2026-01-10 13:09:25.89	257.68	5.99	-52.9	-55.4	14.1	0.00e+00	0	23	0	54525952	72	4688
2026-01-10 13:09:26.89	257.81	6.03	-52.8	-55.3	14.2	0.00e+00	0	23	0	56623104	72	4627
2026-01-10 13:09:27.89	257.94	6.07	-53.1	-55.7	13.9	0.00e+00	0	23	0	57671680	72	4856
2026-01-10 13:09:28.88	258.07	6.11	-53.2	-55.8	13.9	0.00e+00	0	23	0	59768832	72	4913
2026-01-10 13:09:29.87	258.20	6.15	-52.9	-55.4	14.1	0.00e+00	0	23	0	61865984	72	4696
2026-01-10 13:09:30.87	258.34	6.19	-52.9	-55.4	14.2	0.00e+00	0	23	0	63963136	72	4689
2026-01-10 13:09:31.86	258.47	6.23	-53.1	-55.6	14.0	0.00e+00	0	23	0	65011712	72	4807
2026-01-10 13:09:32.85	258.60	6.26	-52.9	-55.4	14.2	0.00e+00	0	23	0	67108864	72	4670
2026-01-10 13:09:33.84	258.74	6.30	-52.9	-55.3	14.2	0.00e+00	0	23	0	69206016	72	4628
2026-01-10 13:09:34.84	258.87	6.34	-52.8	-55.3	14.2	0.00e+00	0	23	0	71303168	72	4608
2026-01-10 13:09:35.83	259.01	6.38	-52.8	-55.3	14.3	0.00e+00	0	23	0	73400320	72	4627
2026-01-10 13:09:36.82	259.14	6.42	-52.9	-55.3	14.2	0.00e+00	0	23	0	74448896	72	4639
2026-01-10 13:09:37.81	259.28	6.46	-52.9	-55.3	14.2	0.00e+00	0	23	0	76546048	72	4650
2026-01-10 13:09:38.81	259.41	6.50	-52.8	-55.3	14.2	0.00e+00	0	23	0	78643200	72	4620
2026-01-10 13:09:39.80	259.55	6.54	-53.0	-55.5	14.1	0.00e+00	0	23	0	80740352	72	4732
2026-01-10 13:09:40.79	259.68	6.58	-53.1	-55.7	14.0	0.00e+00	0	23	0	81788928	72	4826
2026-01-10 13:09:41.79	259.82	6.61	-53.1	-55.7	14.0	0.00e+00	0	23	0	83886080	72	4823
2026-01-10 13:09:42.78	259.96	6.65	-53.0	-55.6	14.1	0.00e+00	0	23	0	85983232	72	4770
2026-01-10 13:09:43.77	260.09	6.69	-52.9	-55.4	14.2	0.00e+00	0	23	0	88080384	72	4686
2026-01-10 13:09:44.77	260.23	6.73	-53.0	-55.4	14.2	0.00e+00	0	23	0	90177536	72	4694
2026-01-10 13:09:45.76	260.37	6.77	-53.0	-55.4	14.2	0.00e+00	0	23	0	91226112	72	4694
2026-01-10 13:09:46.75	260.51	6.81	-53.0	-55.5	14.2	0.00e+00	0	23	0	93323264	72	4706
2026-01-10 13:09:47.75	260.65	6.84	-52.8	-55.2	14.4	0.00e+00	0	23	0	95420416	72	4555
2026-01-10 13:09:48.74	260.79	6.88	-52.9	-55.4	14.2	0.00e+00	0	23	0	97517568	72	4667
2026-01-10 13:09:49.74	260.93	6.92	-52.9	-55.4	14.2	0.00e+00	0	23	0	98566144	72	4677
2026-01-10 13:09:50.74	261.07	6.96	-52.9	-55.4	14.2	0.00e+00	0	23	0	100663296	72	4671
2026-01-10 13:09:51.74	261.21	7.00	-53.0	-55.5	14.1	0.00e+00	0	23	0	102760448	72	4713
2026-01-10 13:09:52.74	261.35	7.03	-53.0	-55.5	14.1	0.00e+00	0	23	0	104857600	72	4758
2026-01-10 13:09:53.74	261.49	7.07	-53.0	-55.5	14.1	0.00e+00	0	23	0	106954752	72	4747
2026-01-10 13:09:54.74	261.63	7.11	-53.0	-55.6	14.1	0.00e+00	0	23	0	108003328	72	4767
2026-01-10 13:09:55.73	261.77	7.15	-53.0	-55.5	14.2	0.00e+00	0	23	0	110100480	72	4713
2026-01-10 13:09:56.73	261.92	7.18	-53.0	-55.6	14.1	0.00e+00	0	23	0	112197632	72	4766
2026-01-10 13:09:57.72	262.06	7.22	-53.0	-55.4	14.1	0.00e+00	0	23	0	114294784	72	4703
2026-01-10 13:09:58.72	262.20	7.26	-53.0	-55.6	14.1	0.00e+00	0	23	0	115343360	72	4765
2026-01-10 13:09:59.71	262.34	7.30	-53.2	-55.7	13.9	0.00e+00	0	23	0	117440512	72	4867
2026-01-10 13:10:00.71	262.49	7.33	-53.2	-55.9	13.9	0.00e+00	0	23	0	119537664	72	4949
2026-01-10 13:10:01.71	262.63	7.37	-53.1	-55.7	14.0	0.00e+00	0	23	0	121634816	72	4837
2026-01-10 13:10:02.71	262.78	7.41	-53.1	-55.6	14.1	0.00e+00	0	23	0	123731968	72	4811
2026-01-10 13:10:03.71	262.92	7.44	-53.1	-55.6	14.1	0.00e+00	0	23	0	124780544	72	4798
2026-01-10 13:10:04.71	263.07	7.48	-53.1	-55.7	14.0	0.00e+00	0	23	0	126877696	72	4845
2026-01-10 13:10:05.71	263.21	7.52	-53.2	-55.9	13.9	0.00e+00	0	23	0	128974848	72	4934
2026-01-10 13:10:06.70	263.36	7.55	-53.1	-55.7	14.0	0.00e+00	0	23	0	131072000	72	4825
2026-01-10 13:10:07.69	263.50	7.59	-53.1	-55.6	14.1	0.00e+00	0	23	0	132120576	72	4779
2026-01-10 13:10:08.69	263.65	7.63	-53.1	-55.7	14.0	0.00e+00	0	23	0	134217728	72	4825
2026-01-10 13:10:09.69	263.80	7.66	-53.1	-55.7	14.0	0.00e+00	0	23	0	136314880	72	4853
2026-01-10 13:10:10.69	263.94	7.70	-53.1	-55.7	14.0	0.00e+00	0	23	0	138412032	72	4822
2026-01-10 13:10:11.69	264.09	7.73	-53.1	-55.6	14.1	0.00e+00	0	23	0	140509184	72	4800
2026-01-10 13:10:12.69	264.24	7.77	-53.0	-55.5	14.1	0.00e+00	0	23	0	142606336	72	4751
2026-01-10 13:10:13.69	264.39	7.81	-53.2	-55.7	14.0	0.00e+00	0	23	0	143654912	72	4865
2026-01-10 13:10:14.69	264.54	7.84	-53.1	-55.6	14.0	0.00e+00	0	23	0	145752064	72	4808
2026-01-10 13:10:15.69	264.69	7.88	-53.1	-55.6	14.1	0.00e+00	0	23	0	147849216	72	4770
2026-01-10 13:10:16.69	264.84	7.91	-53.1	-55.6	14.0	0.00e+00	0	23	0	149946368	72	4814
2026-01-10 13:10:17.68	264.99	7.95	-53.1	-55.7	14.0	0.00e+00	0	23	0	150994944	72	4816
2026-01-10 13:10:18.68	265.14	7.98	-53.0	-55.5	14.2	0.00e+00	0	23	0	153092096	72	4728
2026-01-10 13:10:19.68	265.29	8.02	-53.0	-55.5	14.1	0.00e+00	0	23	0	155189248	72	4759
2026-01-10 13:10:20.67	265.44	8.05	-53.0	-55.5	14.1	0.00e+00	0	23	0	157286400	72	4749
2026-01-10 13:10:21.67	265.59	8.09	-53.0	-55.6	14.1	0.00e+00	0	23	0	159383552	72	4763
2026-01-10 13:10:22.67	265.74	8.12	-53.1	-55.6	14.1	0.00e+00	0	23	0	160432128	72	4780
2026-01-10 13:10:23.66	265.89	8.16	-53.1	-55.6	14.1	0.00e+00	0	23	0	162529280	72	4786
2026-01-10 13:10:24.66	266.04	8.19	-53.0	-55.5	14.1	0.00e+00	0	23	0	164626432	72	4754
2026-01-10 13:10:25.65	266.19	8.23	-53.0	-55.5	14.2	0.00e+00	0	23	0	166723584	72	4712
2026-01-10 13:10:26.64	266.35	8.26	-53.0	-55.6	14.1	0.00e+00	0	23	0	167772160	72	4785
2026-01-10 13:10:27.64	266.50	8.29	-53.1	-55.8	13.9	0.00e+00	0	23	0	169869312	72	4886
2026-01-10 13:10:28.64	266.65	8.33	-53.1	-55.8	13.8	0.00e+00	0	23	0	171966464	72	4912
2026-01-10 13:10:29.64	266.81	8.36	-53.1	-55.8	13.8	0.00e+00	0	23	0	174063616	72	4887
2026-01-10 13:10:30.64	266.96	8.39	-53.3	-56.2	13.5	0.00e+00	0	23	0	176160768	72	5118
2026-01-10 13:10:31.64	267.12	8.43	-53.6	-56.9	13.0	0.00e+00	0	23	0	177209344	72	5537
2026-01-10 13:10:32.64	267.27	8.46	-54.1	-57.8	12.4	0.00e+00	0	23	0	179306496	73	5789
2026-01-10 13:10:33.63	267.43	8.49	-54.4	-58.5	11.7	3.00e-06	0	23	0	181403648	73	6330
2026-01-10 13:10:34.64	267.58	8.53	-54.7	-59.3	11.1	9.53e-05	0	23	0	183500800	74	6530
2026-01-10 13:10:35.64	267.74	8.56	-54.7	-59.7	10.6	3.72e-04	0	23	0	184549376	74	6815
2026-01-10 13:10:36.64	267.90	8.59	-54.8	-59.8	10.5	5.45e-04	0	23	0	186646528	74	6954
2026-01-10 13:10:37.63	268.05	8.63	-54.8	-60.0	10.2	1.22e-03	0	23	0	188743680	74	7097
2026-01-10 13:10:38.63	268.21	8.66	-55.0	-60.9	9.5	3.30e-03	0	23	0	190840832	75	7403
2026-01-10 13:10:39.62	268.37	8.69	-55.2	-62.0	8.4	1.21e-02	0	23	0	192937984	75	8446
2026-01-10 13:10:40.62	268.52	8.72	-55.6	-63.6	7.0	9.57e-02	0	23	0	193986560	76	9599
2026-01-10 13:10:41.62	268.68	8.76	-55.7	-64.7	6.2	1.90e-01	0	23	0	196083712	76	10781
2026-01-10 13:10:42.63	268.84	8.79	-55.8	-65.5	5.6	3.61e-01	0	23	0	198180864	76	11878
2026-01-10 13:10:43.63	269.00	8.82	-55.8	-64.6	6.2	3.57e-01	0	23	0	200278016	76	10677
2026-01-10 13:10:44.62	269.16	8.85	-55.8	-64.0	6.7	1.70e-01	0	23	0	202375168	76	10050
2026-01-10 13:10:45.62	269.32	8.88	-55.7	-63.6	7.2	8.10e-02	0	23	0	203423744	76	9583
2026-01-10 13:10:46.62	269.48	8.91	-56.9	-70.3	4.0	2.25e-01	0	23	0	205520896	78	18392
2026-01-10 13:10:47.61	269.64	8.95	-56.9	-71.2	3.8	1.49e+00	0	23	104	205520896	79	19240
2026-01-10 13:10:48.60	269.80	8.98	-54.9	-59.7	10.9	7.98e-01	0	23	0	205520896	76	6089
2026-01-10 13:10:49.60	269.96	9.01	-55.0	-59.4	11.3	2.05e-03	0	23	0	207618048	76	5918
2026-01-10 13:10:50.59	270.12	9.04	-54.5	-58.6	11.9	2.97e-05	0	23	0	208666624	75	5701
2026-01-10 13:10:51.59	270.28	9.07	-54.4	-58.3	12.3	4.50e-06	0	23	0	210763776	75	5467
2026-01-10 13:10:52.60	270.44	9.10	-54.3	-57.9	12.7	2.20e-06	0	23	0	212860928	75	5237
2026-01-10 13:10:53.60	270.60	9.13	-54.3	-57.7	12.8	7.00e-07	0	23	0	214958080	75	5146
2026-01-10 13:10:54.60	270.77	9.16	-53.9	-57.0	13.3	0.00e+00	0	23	0	217055232	74	5038
2026-01-10 13:10:55.60	270.93	9.19	-53.5	-56.4	13.6	0.00e+00	0	23	0	218103808	73	4934
2026-01-10 13:10:56.60	271.09	9.22	-53.1	-55.6	14.0	0.00e+00	0	23	0	220200960	72	4813
2026-01-10 13:10:57.60	271.26	9.25	-52.9	-55.3	14.2	0.00e+00	0	23	0	222298112	72	4647
2026-01-10 13:10:58.59	271.42	9.28	-53.0	-55.5	14.2	0.00e+00	0	23	0	224395264	72	4736
2026-01-10 13:10:59.59	271.58	9.31	-53.1	-55.6	14.1	0.00e+00	0	23	0	226492416	72	4800
2026-01-10 13:11:00.58	271.75	9.34	-53.3	-55.9	13.9	0.00e+00	0	23	0	227540992	72	4940
2026-01-10 13:11:01.58	271.91	9.37	-53.3	-55.9	13.9	0.00e+00	0	23	0	229638144	72	4965
2026-01-10 13:11:02.58	272.08	9.39	-53.4	-56.0	13.9	0.00e+00	0	23	0	231735296	72	4999
2026-01-10 13:11:03.57	272.24	9.42	-53.3	-55.8	14.0	0.00e+00	0	23	0	233832448	72	4912
2026-01-10 13:11:04.56	272.40	9.45	-53.2	-55.7	14.1	0.00e+00	0	23	0	234881024	72	4868
2026-01-10 13:11:05.56	272.57	9.48	-53.1	-55.6	14.1	0.00e+00	0	23	0	236978176	72	4788
2026-01-10 13:11:06.55	272.73	9.51	-53.0	-55.5	14.2	0.00e+00	0	23	0	239075328	72	4724
2026-01-10 13:11:07.55	272.90	9.54	-53.1	-55.5	14.2	0.00e+00	0	23	0	241172480	72	4758
2026-01-10 13:11:08.54	273.07	9.56	-53.1	-55.5	14.2	0.00e+00	0	23	0	243269632	72	4755
2026-01-10 13:11:09.55	273.24	9.59	-53.1	-55.6	14.1	0.00e+00	0	23	0	244318208	72	4788
2026-01-10 13:11:10.54	273.40	9.62	-53.1	-55.6	14.1	0.00e+00	0	23	0	246415360	72	4807
2026-01-10 13:11:11.54	273.57	9.64	-53.1	-55.6	14.1	0.00e+00	0	23	0	248512512	72	4784
2026-01-10 13:11:12.54	273.74	9.67	-53.1	-55.6	14.1	0.00e+00	0	23	0	250609664	72	4778
2026-01-10 13:11:13.53	273.90	9.70	-53.1	-55.6	14.1	0.00e+00	0	23	0	251658240	72	4769
2026-01-10 13:11:14.53	274.07	9.73	-53.2	-55.7	14.0	0.00e+00	0	23	0	253755392	72	4850
2026-01-10 13:11:15.53	274.24	9.75	-53.2	-55.7	14.0	0.00e+00	0	23	0	255852544	72	4831
2026-01-10 13:11:16.53	274.41	9.78	-53.1	-55.6	14.1	0.00e+00	0	23	0	257949696	72	4777
2026-01-10 13:11:17.53	274.58	9.80	-53.2	-55.8	14.0	0.00e+00	0	23	0	260046848	72	4882
2026-01-10 13:11:18.52	274.75	9.83	-53.1	-55.6	14.1	0.00e+00	0	23	0	261095424	72	4793
2026-01-10 13:11:19.52	274.92	9.86	-53.2	-55.7	14.1	0.00e+00	0	23	0	263192576	72	4847
2026-01-10 13:11:20.52	275.09	9.88	-53.3	-55.8	14.0	0.00e+00	0	23	0	265289728	72	4895
2026-01-10 13:11:21.52	275.26	9.91	-53.3	-55.9	13.9	0.00e+00	0	23	0	267386880	72	4945
2026-01-10 13:11:22.52	275.43	9.93	-53.3	-55.9	13.9	0.00e+00	0	23	0	268435456	72	4961
2026-01-10 13:11:23.52	275.60	9.96	-53.3	-55.9	13.9	0.00e+00	0	23	0	270532608	72	4941
2026-01-10 13:11:24.52	275.77	9.98	-53.4	-56.0	13.9	0.00e+00	0	23	0	272629760	72	4998
2026-01-10 13:11:25.52	275.95	10.01	-53.3	-55.8	14.0	0.00e+00	0	23	0	274726912	72	4917
2026-01-10 13:11:26.51	276.12	10.03	-53.3	-55.8	14.0	0.00e+00	0	23	0	276824064	72	4894
2026-01-10 13:11:27.50	276.29	10.05	-53.3	-55.9	14.0	0.00e+00	0	23	0	277872640	72	4937
2026-01-10 13:11:28.51	276.46	10.08	-53.2	-55.7	14.1	0.00e+00	0	23	0	279969792	72	4862
2026-01-10 13:11:29.51	276.64	10.10	-53.2	-55.6	14.1	0.00e+00	0	23	0	282066944	72	4812
2026-01-10 13:11:30.52	276.81	10.13	-53.2	-55.6	14.2	0.00e+00	0	23	0	284164096	72	4804
2026-01-10 13:11:31.52	276.98	10.15	-53.0	-55.4	14.3	0.00e+00	0	23	0	286261248	72	4686
2026-01-10 13:11:32.52	277.16	10.17	-53.1	-55.5	14.2	0.00e+00	0	23	0	287309824	72	4724
2026-01-10 13:11:33.52	277.33	10.19	-53.0	-55.4	14.3	0.00e+00	0	23	0	289406976	72	4687
2026-01-10 13:11:34.52	277.51	10.22	-53.0	-55.4	14.3	0.00e+00	0	23	0	291504128	72	4663
2026-01-10 13:11:35.51	277.68	10.24	-53.1	-55.4	14.3	0.00e+00	0	23	0	293601280	72	4705
2026-01-10 13:11:36.51	277.85	10.26	-53.1	-55.4	14.3	0.00e+00	0	23	0	294649856	72	4699
2026-01-10 13:11:37.52	278.03	10.28	-53.1	-55.5	14.2	0.00e+00	0	23	0	296747008	72	4709
2026-01-10 13:11:38.51	278.20	10.31	-53.1	-55.5	14.2	0.00e+00	0	23	0	298844160	72	4715
2026-01-10 13:11:39.51	278.38	10.33	-53.1	-55.6	14.2	0.00e+00	0	23	0	300941312	72	4769
2026-01-10 13:11:40.51	278.56	10.35	-53.1	-55.5	14.2	0.00e+00	0	23	0	303038464	72	4716
2026-01-10 13:11:41.51	278.73	10.37	-53.1	-55.5	14.2	0.00e+00	0	23	0	304087040	72	4722
2026-01-10 13:11:42.50	278.91	10.39	-53.1	-55.5	14.3	0.00e+00	0	23	0	306184192	72	4724
2026-01-10 13:11:43.50	279.08	10.41	-53.0	-55.4	14.3	0.00e+00	0	23	0	308281344	72	4679
2026-01-10 13:11:44.50	279.26	10.43	-53.2	-55.6	14.2	0.00e+00	0	23	0	310378496	72	4783
2026-01-10 13:11:45.49	279.43	10.45	-53.1	-55.6	14.2	0.00e+00	0	23	0	312475648	72	4765
2026-01-10 13:11:46.49	279.61	10.47	-53.1	-55.5	14.2	0.00e+00	0	23	0	313524224	72	4737
2026-01-10 13:11:47.49	279.79	10.49	-53.0	-55.4	14.3	0.00e+00	0	23	0	315621376	72	4665
2026-01-10 13:11:48.49	279.97	10.51	-53.0	-55.3	14.4	0.00e+00	0	23	0	317718528	72	4624
2026-01-10 13:11:49.49	280.14	10.53	-53.0	-55.4	14.3	0.00e+00	0	23	0	319815680	72	4662
2026-01-10 13:11:50.49	280.32	10.55	-52.9	-55.2	14.4	0.00e+00	0	23	0	321912832	72	4564
2026-01-10 13:11:51.49	280.50	10.57	-52.8	-55.0	14.6	0.00e+00	0	23	0	322961408	72	4478
2026-01-10 13:11:52.48	280.68	10.59	-52.7	-54.9	14.7	0.00e+00	0	23	0	325058560	72	4440
2026-01-10 13:11:53.47	280.86	10.61	-52.7	-55.0	14.6	0.00e+00	0	23	0	327155712	72	4448
2026-01-10 13:11:54.47	281.03	10.62	-52.8	-55.0	14.6	0.00e+00	0	23	0	329252864	72	4481
2026-01-10 13:11:55.47	281.21	10.64	-52.8	-55.0	14.6	0.00e+00	0	23	0	330301440	72	4461
2026-01-10 13:11:56.46	281.39	10.66	-52.9	-55.1	14.5	0.00e+00	0	23	0	332398592	72	4528
2026-01-10 13:11:57.47	281.57	10.68	-52.8	-55.1	14.5	0.00e+00	0	23	0	334495744	72	4523
2026-01-10 13:11:58.47	281.75	10.69	-53.0	-55.3	14.4	0.00e+00	0	23	0	336592896	72	4626
2026-01-10 13:11:59.46	281.93	10.71	-53.1	-55.5	14.3	0.00e+00	0	23	0	338690048	72	4710
2026-01-10 13:12:00.47	282.11	10.73	-53.1	-55.5	14.3	0.00e+00	0	23	0	339738624	72	4707
2026-01-10 13:12:01.47	282.29	10.75	-53.2	-55.6	14.2	0.00e+00	0	23	0	341835776	72	4796
2026-01-10 13:12:02.45	282.47	10.76	-53.2	-55.6	14.1	0.00e+00	0	23	0	343932928	72	4814
2026-01-10 13:12:03.45	282.65	10.78	-53.3	-55.7	14.1	0.00e+00	0	23	0	346030080	72	4854
2026-01-10 13:12:04.44	282.83	10.79	-53.3	-55.8	14.1	0.00e+00	0	23	0	347078656	72	4896
2026-01-10 13:12:05.44	283.01	10.81	-53.3	-55.8	14.1	0.00e+00	0	23	0	349175808	72	4914
2026-01-10 13:12:06.44	283.19	10.82	-53.2	-55.6	14.2	0.00e+00	0	23	0	351272960	72	4811
2026-01-10 13:12:07.43	283.37	10.84	-53.3	-55.8	14.1	0.00e+00	0	23	0	353370112	72	4877
2026-01-10 13:12:08.43	283.55	10.85	-53.3	-55.7	14.2	0.00e+00	0	23	0	355467264	72	4846
2026-01-10 13:12:09.43	283.74	10.87	-53.2	-55.6	14.2	0.00e+00	0	23	0	356515840	72	4801
2026-01-10 13:12:10.43	283.92	10.88	-53.2	-55.7	14.2	0.00e+00	0	23	0	358612992	72	4825
2026-01-10 13:12:11.42	284.10	10.90	-53.4	-55.8	14.1	0.00e+00	0	23	0	360710144	72	4919
2026-01-10 13:12:12.42	284.28	10.91	-53.4	-56.0	14.0	0.00e+00	0	23	0	362807296	72	4986
2026-01-10 13:12:13.42	284.46	10.92	-53.4	-56.0	14.0	0.00e+00	0	23	0	363855872	72	4995
2026-01-10 13:12:14.43	284.65	10.94	-53.5	-56.0	13.9	0.00e+00	0	23	0	365953024	72	5034
2026-01-10 13:12:15.42	284.83	10.95	-53.6	-56.2	13.8	0.00e+00	0	23	0	368050176	72	5158
2026-01-10 13:12:16.42	285.01	10.96	-53.6	-56.2	13.8	0.00e+00	0	23	0	370147328	72	5122
2026-01-10 13:12:17.41	285.19	10.98	-53.6	-56.2	13.8	0.00e+00	0	23	0	372244480	72	5119
2026-01-10 13:12:18.41	285.38	10.99	-53.6	-56.3	13.8	0.00e+00	0	23	0	373293056	72	5162
2026-01-10 13:12:19.40	285.56	11.00	-53.6	-56.2	13.8	0.00e+00	0	23	0	375390208	72	5111
2026-01-10 13:12:20.40	285.74	11.01	-53.7	-56.4	13.7	0.00e+00	0	23	0	377487360	72	5222
2026-01-10 13:12:21.40	285.93	11.03	-53.8	-56.6	13.6	0.00e+00	0	23	0	379584512	72	5348
2026-01-10 13:12:22.40	286.11	11.04	-53.8	-56.5	13.6	0.00e+00	0	23	0	381681664	72	5331
2026-01-10 13:12:23.39	286.29	11.05	-53.9	-56.7	13.5	0.00e+00	0	23	0	382730240	72	5415
2026-01-10 13:12:24.38	286.48	11.06	-53.8	-56.5	13.6	0.00e+00	0	23	0	384827392	72	5310
2026-01-10 13:12:25.38	286.66	11.07	-53.9	-56.7	13.6	0.00e+00	0	23	0	386924544	73	5127
2026-01-10 13:12:26.38	286.84	11.08	-54.0	-56.7	13.6	0.00e+00	0	23	0	389021696	73	5158
2026-01-10 13:12:27.38	287.03	11.09	-54.0	-56.8	13.6	0.00e+00	0	23	0	390070272	73	5187
2026-01-10 13:12:28.38	287.21	11.10	-54.0	-56.8	13.6	0.00e+00	0	23	0	392167424	73	5209
2026-01-10 13:12:29.38	287.40	11.11	-54.0	-56.8	13.6	0.00e+00	0	23	0	394264576	73	5201
2026-01-10 13:12:30.38	287.58	11.12	-53.9	-56.7	13.7	0.00e+00	0	23	0	396361728	73	5114
2026-01-10 13:12:31.38	287.77	11.13	-54.0	-56.8	13.6	0.00e+00	0	23	0	398458880	73	5172
2026-01-10 13:12:32.37	287.95	11.14	-54.1	-56.9	13.5	0.00e+00	0	23	0	399507456	73	5253
2026-01-10 13:12:33.37	288.14	11.14	-53.9	-56.6	13.7	0.00e+00	0	23	0	401604608	73	5066
2026-01-10 13:12:34.37	288.32	11.15	-53.9	-56.7	13.7	0.00e+00	0	23	0	403701760	73	5104
2026-01-10 13:12:35.37	288.51	11.16	-53.9	-56.6	13.7	0.00e+00	0	23	0	405798912	73	5073
2026-01-10 13:12:36.37	288.69	11.17	-53.9	-56.7	13.7	0.00e+00	0	23	0	407896064	73	5101
2026-01-10 13:12:37.36	288.88	11.18	-53.8	-56.4	13.9	0.00e+00	0	23	0	408944640	73	4978
2026-01-10 13:12:38.36	289.06	11.18	-53.7	-56.3	13.9	0.00e+00	0	23	0	411041792	73	4879
2026-01-10 13:12:39.36	289.25	11.19	-53.6	-56.1	14.0	0.00e+00	0	23	0	413138944	73	4802
2026-01-10 13:12:40.36	289.43	11.20	-53.6	-56.2	14.0	0.00e+00	0	23	0	415236096	73	4824
2026-01-10 13:12:41.36	289.62	11.20	-53.7	-56.3	14.0	0.00e+00	0	23	0	416284672	73	4876
2026-01-10 13:12:42.36	289.81	11.21	-53.7	-56.3	13.9	0.00e+00	0	23	0	418381824	73	4894
2026-01-10 13:12:43.35	289.99	11.22	-53.8	-56.5	13.8	0.00e+00	0	23	0	420478976	73	5000
2026-01-10 13:12:44.35	290.18	11.22	-53.8	-56.4	13.8	0.00e+00	0	23	0	422576128	73	4967
2026-01-10 13:12:45.35	290.36	11.23	-53.7	-56.3	13.9	0.00e+00	0	23	0	424673280	73	4921
2026-01-10 13:12:46.35	290.55	11.23	-53.7	-56.4	13.9	0.00e+00	0	23	0	425721856	73	4934
2026-01-10 13:12:47.34	290.73	11.24	-53.8	-56.4	13.9	0.00e+00	0	23	0	427819008	73	4952
2026-01-10 13:12:48.35	290.92	11.24	-53.7	-56.4	13.9	0.00e+00	0	23	0	429916160	73	4940
2026-01-10 13:12:49.35	291.11	11.25	-53.5	-56.1	14.1	0.00e+00	0	23	0	432013312	73	4763
2026-01-10 13:12:50.35	291.30	11.25	-53.5	-55.9	14.2	0.00e+00	0	23	0	434110464	73	4688
2026-01-10 13:12:51.33	291.48	11.25	-53.6	-56.1	14.1	0.00e+00	0	23	0	435159040	73	4775
2026-01-10 13:12:52.33	291.67	11.26	-53.5	-56.1	14.1	0.00e+00	0	23	0	437256192	73	4775
2026-01-10 13:12:53.33	291.85	11.26	-53.5	-55.9	14.2	0.00e+00	0	23	0	439353344	73	4699
2026-01-10 13:12:54.33	292.04	11.26	-53.5	-56.0	14.1	0.00e+00	0	23	0	441450496	73	4716
2026-01-10 13:12:55.33	292.23	11.27	-53.6	-56.1	14.1	0.00e+00	0	23	0	442499072	73	4798
2026-01-10 13:12:56.33	292.41	11.27	-53.6	-56.2	14.0	0.00e+00	0	23	0	444596224	73	4823
2026-01-10 13:12:57.33	292.60	11.27	-53.6	-56.1	14.1	0.00e+00	0	23	0	446693376	73	4781
2026-01-10 13:12:58.33	292.79	11.27	-53.5	-56.0	14.2	0.00e+00	0	23	0	448790528	73	4739
2026-01-10 13:12:59.34	292.97	11.27	-53.4	-55.9	14.2	0.00e+00	0	23	0	450887680	73	4670
2026-01-10 13:13:00.32	293.16	11.28	-53.4	-55.8	14.3	0.00e+00	0	23	0	451936256	73	4634
2026-01-10 13:13:01.32	293.34	11.28	-53.3	-55.8	14.3	0.00e+00	0	23	0	454033408	73	4617
2026-01-10 13:13:02.32	293.53	11.28	-53.5	-56.0	14.2	0.00e+00	0	23	0	456130560	73	4719
2026-01-10 13:13:03.32	293.72	11.28	-53.4	-55.9	14.2	0.00e+00	0	23	0	458227712	73	4658
2026-01-10 13:13:04.32	293.90	11.28	-53.4	-55.8	14.2	0.00e+00	0	23	0	459276288	73	4646
2026-01-10 13:13:05.31	294.09	11.28	-53.3	-55.7	14.4	0.00e+00	0	23	0	461373440	73	4590
2026-01-10 13:13:06.32	294.28	11.28	-53.3	-55.7	14.3	0.00e+00	0	23	0	463470592	73	4571
2026-01-10 13:13:07.31	294.46	11.28	-53.3	-55.7	14.4	0.00e+00	0	23	0	465567744	73	4568
2026-01-10 13:13:08.31	294.65	11.28	-53.2	-55.5	14.5	0.00e+00	0	23	0	467664896	73	4476
2026-01-10 13:13:09.31	294.84	11.28	-52.9	-55.2	14.5	0.00e+00	0	23	0	468713472	72	4553
2026-01-10 13:13:10.31	295.02	11.27	-52.9	-55.2	14.5	0.00e+00	0	23	0	470810624	72	4559
2026-01-10 13:13:11.31	295.21	11.27	-52.8	-55.0	14.6	0.00e+00	0	23	0	472907776	72	4484
2026-01-10 13:13:12.31	295.40	11.27	-52.7	-54.9	14.7	0.00e+00	0	23	0	475004928	72	4414
2026-01-10 13:13:13.31	295.58	11.27	-52.7	-54.9	14.7	0.00e+00	0	23	0	477102080	72	4401
2026-01-10 13:13:14.31	295.77	11.27	-52.5	-54.6	14.7	0.00e+00	0	23	0	478150656	71	4514
2026-01-10 13:13:15.30	295.96	11.26	-52.4	-54.5	14.7	0.00e+00	0	23	0	480247808	71	4481
2026-01-10 13:13:16.29	296.14	11.26	-52.5	-54.6	14.7	0.00e+00	0	23	0	482344960	71	4495
2026-01-10 13:13:17.29	296.33	11.26	-52.5	-54.7	14.6	0.00e+00	0	23	0	484442112	71	4552
2026-01-10 13:13:18.29	296.51	11.25	-52.5	-54.7	14.6	0.00e+00	0	23	0	485490688	71	4548
2026-01-10 13:13:19.28	296.70	11.25	-52.6	-54.7	14.5	0.00e+00	0	23	0	487587840	71	4591
2026-01-10 13:13:20.28	296.88	11.25	-52.5	-54.7	14.7	0.00e+00	0	23	0	489684992	71	4565
2026-01-10 13:13:21.28	297.07	11.24	-52.6	-54.8	14.7	0.00e+00	0	23	0	491782144	71	4615
2026-01-10 13:13:22.28	297.26	11.24	-52.5	-54.6	14.6	0.00e+00	0	23	0	493879296	71	4533
2026-01-10 13:13:23.28	297.44	11.23	-52.4	-54.4	14.7	0.00e+00	0	23	0	494927872	71	4437
2026-01-10 13:13:24.28	297.63	11.23	-52.3	-54.4	14.8	0.00e+00	0	23	0	497025024	71	4400
2026-01-10 13:13:25.27	297.81	11.22	-52.3	-54.3	14.8	0.00e+00	0	23	0	499122176	71	4378
2026-01-10 13:13:26.28	298.00	11.22	-52.3	-54.3	14.8	0.00e+00	0	23	0	501219328	71	4389
2026-01-10 13:13:27.28	298.19	11.21	-52.2	-54.2	14.7	0.00e+00	0	23	0	503316480	70	4596
2026-01-10 13:13:28.27	298.37	11.20	-52.2	-54.3	14.7	0.00e+00	0	23	0	504365056	70	4607
2026-01-10 13:13:29.28	298.56	11.20	-52.2	-54.3	14.7	0.00e+00	0	23	0	506462208	70	4613
2026-01-10 13:13:30.27	298.74	11.19	-52.3	-54.4	14.6	0.00e+00	0	23	0	508559360	70	4664
2026-01-10 13:13:31.27	298.93	11.18	-52.3	-54.3	14.6	0.00e+00	0	23	0	510656512	70	4648
2026-01-10 13:13:32.27	299.11	11.18	-52.3	-54.5	14.5	0.00e+00	0	23	0	511705088	70	4707
2026-01-10 13:13:33.27	299.30	11.17	-52.3	-54.4	14.6	0.00e+00	0	23	0	513802240	70	4680
2026-01-10 13:13:34.27	299.49	11.16	-52.3	-54.4	14.6	0.00e+00	0	23	0	515899392	70	4682
2026-01-10 13:13:35.26	299.67	11.15	-52.2	-54.3	14.7	0.00e+00	0	23	0	517996544	70	4604
2026-01-10 13:13:36.26	299.85	11.15	-52.2	-54.3	14.6	0.00e+00	0	23	0	520093696	70	4648
2026-01-10 13:13:37.26	300.04	11.14	-52.3	-54.4	14.7	0.00e+00	0	23	0	521142272	70	4677
2026-01-10 13:13:38.26	300.22	11.13	-52.2	-54.3	14.7	0.00e+00	0	23	0	523239424	70	4599
2026-01-10 13:13:39.26	300.41	11.12	-52.1	-54.2	14.7	0.00e+00	0	23	0	525336576	70	4598
2026-01-10 13:13:40.25	300.59	11.11	-52.1	-54.2	14.8	0.00e+00	0	23	0	527433728	70	4586
2026-01-10 13:13:41.25	300.78	11.10	-52.2	-54.4	14.6	0.00e+00	0	23	0	529530880	70	4652
2026-01-10 13:13:42.25	300.96	11.09	-52.1	-54.3	14.7	0.00e+00	0	23	0	530579456	70	4603
2026-01-10 13:13:43.25	301.15	11.08	-52.1	-54.2	14.8	0.00e+00	0	23	0	532676608	70	4556
2026-01-10 13:13:44.24	301.33	11.07	-52.2	-54.3	14.7	0.00e+00	0	23	0	534773760	70	4599
2026-01-10 13:13:45.24	301.51	11.06	-52.2	-54.2	14.7	0.00e+00	0	23	0	536870912	70	4590
2026-01-10 13:13:46.24	301.70	11.05	-52.2	-54.2	14.7	0.00e+00	0	23	0	537919488	70	4568
2026-01-10 13:13:47.22	301.88	11.04	-52.2	-54.2	14.7	0.00e+00	0	23	0	540016640	70	4584
2026-01-10 13:13:48.22	302.06	11.03	-52.3	-54.4	14.6	0.00e+00	0	23	0	542113792	70	4652
2026-01-10 13:13:49.22	302.24	11.01	-52.3	-54.5	14.6	0.00e+00	0	23	0	544210944	70	4708
2026-01-10 13:13:50.21	302.42	11.00	-52.3	-54.4	14.5	0.00e+00	0	23	0	546308096	70	4682
2026-01-10 13:13:51.21	302.61	10.99	-52.3	-54.4	14.6	0.00e+00	0	23	0	547356672	70	4672
2026-01-10 13:13:52.20	302.79	10.98	-52.4	-54.5	14.6	0.00e+00	0	23	0	549453824	70	4727
2026-01-10 13:13:53.19	302.97	10.97	-52.2	-54.3	14.7	0.00e+00	0	23	0	551550976	70	4633
2026-01-10 13:13:54.19	303.15	10.95	-52.3	-54.4	14.6	0.00e+00	0	23	0	553648128	70	4682
2026-01-10 13:13:55.19	303.34	10.94	-52.4	-54.6	14.6	0.00e+00	0	23	0	554696704	70	4765
2026-01-10 13:13:56.19	303.52	10.93	-52.5	-54.6	14.6	0.00e+00	0	23	0	556793856	70	4801
2026-01-10 13:13:57.19	303.70	10.91	-52.4	-54.5	14.5	0.00e+00	0	23	0	558891008	70	4716
2026-01-10 13:13:58.19	303.88	10.90	-52.2	-54.3	14.7	0.00e+00	0	23	0	560988160	70	4614
2026-01-10 13:13:59.19	304.06	10.88	-52.2	-54.3	14.6	0.00e+00	0	23	0	563085312	70	4640
2026-01-10 13:14:00.18	304.24	10.87	-52.2	-54.3	14.7	0.00e+00	0	23	0	564133888	70	4631
2026-01-10 13:14:01.18	304.43	10.86	-52.3	-54.4	14.6	0.00e+00	0	23	0	566231040	70	4687
2026-01-10 13:14:02.17	304.61	10.84	-52.2	-54.3	14.7	0.00e+00	0	23	0	568328192	70	4637
2026-01-10 13:14:03.17	304.79	10.83	-52.3	-54.5	14.6	0.00e+00	0	23	0	570425344	70	4718
2026-01-10 13:14:04.16	304.97	10.81	-52.3	-54.4	14.6	0.00e+00	0	23	0	572522496	70	4694
2026-01-10 13:14:05.16	305.15	10.80	-52.5	-54.6	14.5	0.00e+00	0	23	0	573571072	70	4802
2026-01-10 13:14:06.16	305.33	10.78	-52.5	-54.7	14.4	0.00e+00	0	23	0	575668224	70	4833
2026-01-10 13:14:07.16	305.51	10.76	-52.5	-54.7	14.5	0.00e+00	0	23	0	577765376	70	4863
2026-01-10 13:14:08.15	305.69	10.75	-52.5	-54.7	14.4	0.00e+00	0	23	0	579862528	70	4829
2026-01-10 13:14:09.16	305.87	10.73	-52.5	-54.7	14.4	0.00e+00	0	23	0	580911104	70	4819
2026-01-10 13:14:10.16	306.05	10.71	-52.5	-54.7	14.4	0.00e+00	0	23	0	583008256	70	4856
2026-01-10 13:14:11.15	306.23	10.70	-52.6	-54.8	14.3	0.00e+00	0	23	0	585105408	70	4915
2026-01-10 13:14:12.15	306.41	10.68	-52.5	-54.6	14.4	0.00e+00	0	23	0	587202560	70	4814
2026-01-10 13:14:13.15	306.59	10.66	-52.4	-54.5	14.5	0.00e+00	0	23	0	589299712	70	4752
2026-01-10 13:14:14.14	306.76	10.65	-52.4	-54.5	14.5	0.00e+00	0	23	0	590348288	70	4749
2026-01-10 13:14:15.14	306.94	10.63	-52.4	-54.6	14.6	0.00e+00	0	23	0	592445440	70	4761
2026-01-10 13:14:16.14	307.12	10.61	-52.4	-54.5	14.5	0.00e+00	0	23	0	594542592	70	4740
2026-01-10 13:14:17.14	307.30	10.59	-52.3	-54.4	14.6	0.00e+00	0	23	0	596639744	70	4659
2026-01-10 13:14:18.14	307.48	10.57	-52.1	-54.2	14.7	0.00e+00	0	23	0	598736896	70	4566
2026-01-10 13:14:19.14	307.66	10.55	-52.3	-54.4	14.6	0.00e+00	0	23	0	599785472	70	4674
2026-01-10 13:14:20.13	307.83	10.53	-52.2	-54.2	14.7	0.00e+00	0	23	0	601882624	70	4583
2026-01-10 13:14:21.13	308.01	10.51	-52.2	-54.2	14.7	0.00e+00	0	23	0	603979776	70	4589
2026-01-10 13:14:22.13	308.19	10.50	-52.1	-54.2	14.7	0.00e+00	0	23	0	606076928	70	4556
2026-01-10 13:14:23.13	308.36	10.48	-52.2	-54.3	14.6	0.00e+00	0	23	0	607125504	70	4635
2026-01-10 13:14:24.12	308.54	10.46	-52.1	-54.2	14.7	0.00e+00	0	23	0	609222656	70	4583
2026-01-10 13:14:25.12	308.72	10.44	-52.2	-54.3	14.7	0.00e+00	0	23	0	611319808	70	4602
2026-01-10 13:14:26.12	308.89	10.42	-52.2	-54.2	14.6	0.00e+00	0	23	0	613416960	70	4588
2026-01-10 13:14:27.12	309.07	10.39	-52.1	-54.2	14.7	0.00e+00	0	23	0	615514112	70	4550
2026-01-10 13:14:28.12	309.24	10.37	-52.1	-54.2	14.7	0.00e+00	0	23	0	616562688	70	4573
2026-01-10 13:14:29.11	309.42	10.35	-52.0	-54.1	14.7	0.00e+00	0	23	0	618659840	70	4510
2026-01-10 13:14:30.11	309.59	10.33	-52.1	-54.1	14.7	0.00e+00	0	23	0	620756992	70	4534
2026-01-10 13:14:31.10	309.77	10.31	-52.1	-54.2	14.7	0.00e+00	0	23	0	622854144	70	4554
2026-01-10 13:14:32.11	309.94	10.29	-52.0	-54.0	14.8	0.00e+00	0	23	0	623902720	70	4487
2026-01-10 13:14:33.10	310.12	10.27	-52.0	-54.0	14.9	0.00e+00	0	23	0	625999872	70	4450
2026-01-10 13:14:34.10	310.29	10.24	-51.9	-53.9	14.9	0.00e+00	0	23	0	628097024	70	4424
2026-01-10 13:14:35.10	310.46	10.22	-51.9	-53.9	14.9	0.00e+00	0	23	0	630194176	70	4424
2026-01-10 13:14:36.09	310.64	10.20	-51.9	-53.8	14.9	0.00e+00	0	23	0	632291328	70	4391
2026-01-10 13:14:37.08	310.81	10.18	-51.9	-53.8	14.9	0.00e+00	0	23	0	633339904	70	4377
2026-01-10 13:14:38.07	310.98	10.15	-51.7	-53.7	15.0	0.00e+00	0	23	0	635437056	70	4292
2026-01-10 13:14:39.06	311.15	10.13	-51.8	-53.8	14.9	0.00e+00	0	23	0	637534208	70	4356
2026-01-10 13:14:40.06	311.32	10.11	-51.9	-53.8	14.9	0.00e+00	0	23	0	639631360	70	4387
2026-01-10 13:14:41.06	311.50	10.08	-51.8	-53.8	15.0	0.00e+00	0	23	0	640679936	70	4346
2026-01-10 13:14:42.06	311.67	10.06	-51.8	-53.8	15.0	0.00e+00	0	23	0	642777088	70	4351
2026-01-10 13:14:43.06	311.84	10.04	-51.9	-53.9	14.9	0.00e+00	0	23	0	644874240	70	4399
2026-01-10 13:14:44.05	312.01	10.01	-52.0	-54.0	14.8	0.00e+00	0	23	0	646971392	70	4480
2026-01-10 13:14:45.05	312.18	9.99	-52.0	-54.0	14.8	0.00e+00	0	23	0	649068544	70	4460
2026-01-10 13:14:46.04	312.35	9.96	-52.0	-54.0	14.8	0.00e+00	0	23	0	650117120	70	4485
2026-01-10 13:14:47.03	312.52	9.94	-52.0	-54.0	14.8	0.00e+00	0	23	0	652214272	70	4478
2026-01-10 13:14:48.03	312.69	9.91	-52.0	-54.0	14.8	0.00e+00	0	23	0	654311424	70	4470
2026-01-10 13:14:49.04	312.86	9.89	-52.0	-54.1	14.7	0.00e+00	0	23	0	656408576	70	4524
2026-01-10 13:14:50.03	313.03	9.86	-52.0	-54.1	14.8	0.00e+00	0	23	0	657457152	70	4495
2026-01-10 13:14:51.02	313.20	9.84	-52.0	-54.1	14.8	0.00e+00	0	23	0	659554304	70	4505
2026-01-10 13:14:52.02	313.37	9.81	-51.9	-54.0	14.8	0.00e+00	0	23	0	661651456	70	4469
2026-01-10 13:14:53.01	313.54	9.79	-51.6	-54.1	14.7	0.00e+00	0	23	0	663748608	69	4782
2026-01-10 13:14:54.01	313.71	9.76	-51.4	-54.3	14.7	0.00e+00	0	23	0	665845760	69	4885
2026-01-10 13:14:55.01	313.87	9.73	-51.8	-54.2	14.6	0.00e+00	0	23	0	666894336	69	4837
2026-01-10 13:14:56.01	314.04	9.71	-52.1	-54.2	14.5	0.00e+00	0	23	0	668991488	69	4859
2026-01-10 13:14:57.01	314.21	9.68	-52.1	-54.2	14.5	0.00e+00	0	23	0	671088640	69	4823
2026-01-10 13:14:58.01	314.38	9.65	-52.0	-54.1	14.6	0.00e+00	0	23	0	673185792	69	4767
2026-01-10 13:14:59.01	314.55	9.63	-52.0	-54.0	14.6	0.00e+00	0	23	0	675282944	69	4731
2026-01-10 13:15:00.00	314.71	9.60	-51.8	-53.8	14.7	0.00e+00	0	23	0	676331520	69	4608
2026-01-10 13:15:01.00	314.88	9.57	-51.6	-53.6	14.9	0.00e+00	0	23	0	678428672	69	4513
2026-01-10 13:15:02.00	315.04	9.55	-51.7	-53.7	14.8	0.00e+00	0	23	0	680525824	69	4546
2026-01-10 13:15:03.00	315.21	9.52	-51.8	-53.8	14.7	0.00e+00	0	23	0	682622976	69	4626
2026-01-10 13:15:04.00	315.38	9.49	-51.9	-53.9	14.7	0.00e+00	0	23	0	684720128	69	4700
2026-01-10 13:15:04.99	315.54	9.46	-52.0	-54.1	14.5	0.00e+00	0	23	0	685768704	69	4779
2026-01-10 13:15:05.99	315.71	9.43	-52.1	-54.2	14.5	0.00e+00	0	23	0	687865856	69	4832
2026-01-10 13:15:06.99	315.87	9.41	-52.3	-54.5	14.3	0.00e+00	0	23	0	689963008	69	4995
2026-01-10 13:15:07.98	316.03	9.38	-52.3	-54.5	14.3	0.00e+00	0	23	0	692060160	69	4995
2026-01-10 13:15:08.97	316.20	9.35	-52.4	-54.6	14.3	0.00e+00	0	23	0	693108736	69	5060
2026-01-10 13:15:09.98	316.36	9.32	-52.4	-54.6	14.3	0.00e+00	0	23	0	695205888	69	5063
2026-01-10 13:15:10.97	316.52	9.29	-52.3	-54.5	14.3	0.00e+00	0	23	0	697303040	69	5004
2026-01-10 13:15:11.97	316.69	9.26	-52.3	-54.5	14.3	0.00e+00	0	23	0	699400192	69	4994
2026-01-10 13:15:12.97	316.85	9.23	-52.3	-54.5	14.2	0.00e+00	0	23	0	701497344	69	5034
2026-01-10 13:15:13.97	317.01	9.20	-52.4	-54.6	14.3	0.00e+00	0	23	0	702545920	69	5066
2026-01-10 13:15:14.97	317.18	9.17	-52.3	-54.6	14.3	0.00e+00	0	23	0	704643072	69	5043
2026-01-10 13:15:15.97	317.34	9.14	-52.4	-54.6	14.4	0.00e+00	0	23	0	706740224	70	4780
2026-01-10 13:15:16.97	317.50	9.11	-52.4	-54.6	14.4	0.00e+00	0	23	0	708837376	70	4792
2026-01-10 13:15:17.97	317.66	9.08	-52.5	-54.7	14.3	0.00e+00	0	23	0	709885952	70	4856
2026-01-10 13:15:18.97	317.82	9.05	-52.4	-54.7	14.4	0.00e+00	0	23	0	711983104	70	4819
2026-01-10 13:15:19.96	317.98	9.02	-52.5	-54.8	14.3	0.00e+00	0	23	0	714080256	70	4903
2026-01-10 13:15:20.97	318.14	8.99	-52.6	-54.9	14.2	0.00e+00	0	23	0	716177408	70	4930
2026-01-10 13:15:21.96	318.30	8.96	-52.7	-55.1	14.1	0.00e+00	0	23	0	718274560	70	5050
2026-01-10 13:15:22.96	318.46	8.93	-52.8	-55.2	14.0	0.00e+00	0	23	0	719323136	70	5144
2026-01-10 13:15:23.97	318.62	8.90	-52.8	-55.3	14.0	0.00e+00	0	23	0	721420288	70	5172
2026-01-10 13:15:24.96	318.78	8.87	-52.9	-55.4	14.0	0.00e+00	0	23	0	723517440	71	4947
2026-01-10 13:15:25.96	318.94	8.83	-53.0	-55.5	14.0	0.00e+00	0	23	0	725614592	71	4996
2026-01-10 13:15:26.96	319.10	8.80	-53.1	-55.6	13.9	0.00e+00	0	23	0	727711744	71	5089
2026-01-10 13:15:27.96	319.25	8.77	-53.3	-55.9	13.7	0.00e+00	0	23	0	728760320	71	5256
2026-01-10 13:15:28.96	319.41	8.74	-53.4	-56.1	13.6	0.00e+00	0	23	0	730857472	71	5379
2026-01-10 13:15:29.96	319.57	8.71	-53.5	-56.3	13.6	0.00e+00	0	23	0	732954624	72	5174
2026-01-10 13:15:30.97	319.73	8.67	-53.7	-56.5	13.5	0.00e+00	0	23	0	735051776	72	5316
2026-01-10 13:15:31.96	319.88	8.64	-53.8	-56.7	13.3	0.00e+00	0	23	0	737148928	72	5440
2026-01-10 13:15:32.97	320.04	8.61	-53.8	-56.8	13.2	0.00e+00	0	23	0	738197504	72	5503
2026-01-10 13:15:33.97	320.20	8.58	-53.8	-56.8	13.2	0.00e+00	0	23	0	740294656	72	5471
2026-01-10 13:15:34.97	320.35	8.54	-53.8	-56.7	13.3	0.00e+00	0	23	0	742391808	72	5450
2026-01-10 13:15:35.97	320.51	8.51	-53.8	-56.7	13.4	0.00e+00	0	23	0	744488960	72	5426
2026-01-10 13:15:36.98	320.67	8.48	-53.6	-56.4	13.5	0.00e+00	0	23	0	745537536	72	5253
2026-01-10 13:15:37.97	320.82	8.44	-53.5	-56.3	13.6	0.00e+00	0	23	0	747634688	72	5186
2026-01-10 13:15:38.97	320.97	8.41	-53.5	-56.2	13.6	0.00e+00	0	23	0	749731840	72	5130
2026-01-10 13:15:39.97	321.13	8.38	-53.5	-56.2	13.6	0.00e+00	0	23	0	751828992	72	5145
2026-01-10 13:15:40.97	321.28	8.34	-53.5	-56.4	13.5	0.00e+00	0	23	0	753926144	72	5222
2026-01-10 13:15:41.96	321.43	8.31	-53.6	-56.4	13.5	0.00e+00	0	23	0	754974720	72	5278
2026-01-10 13:15:42.96	321.59	8.28	-53.5	-56.3	13.6	0.00e+00	0	23	0	757071872	72	5175
2026-01-10 13:15:43.97	321.74	8.24	-53.5	-56.4	13.5	0.00e+00	0	23	0	759169024	72	5225
2026-01-10 13:15:44.95	321.89	8.21	-53.6	-56.4	13.5	0.00e+00	0	23	0	761266176	72	5276
2026-01-10 13:15:45.95	322.04	8.18	-53.7	-56.6	13.4	0.00e+00	0	23	0	763363328	72	5348
2026-01-10 13:15:46.94	322.19	8.14	-53.6	-56.5	13.4	0.00e+00	0	23	0	764411904	72	5323
2026-01-10 13:15:47.94	322.34	8.11	-53.7	-56.6	13.4	0.00e+00	0	23	0	766509056	72	5354
2026-01-10 13:15:48.93	322.49	8.07	-53.8	-56.7	13.2	0.00e+00	0	23	0	768606208	72	5456
2026-01-10 13:15:49.93	322.64	8.04	-53.8	-56.8	13.2	0.00e+00	0	23	0	770703360	72	5477
2026-01-10 13:15:50.93	322.79	8.00	-53.9	-56.9	13.1	0.00e+00	0	23	0	771751936	72	5562
2026-01-10 13:15:51.92	322.94	7.97	-54.1	-57.3	13.0	0.00e+00	0	23	0	773849088	73	5491
2026-01-10 13:15:52.91	323.09	7.93	-54.2	-57.5	12.8	0.00e+00	0	23	0	775946240	73	5646
2026-01-10 13:15:53.92	323.24	7.90	-54.3	-57.7	12.7	0.00e+00	0	23	0	778043392	73	5747
2026-01-10 13:15:54.92	323.39	7.86	-54.6	-58.2	12.4	0.00e+00	0	23	0	780140544	74	5749
2026-01-10 13:15:55.91	323.54	7.83	-54.6	-58.3	12.4	3.00e-06	0	23	0	781189120	74	5815
2026-01-10 13:15:56.90	323.68	7.79	-54.6	-58.2	12.5	7.00e-07	0	23	0	783286272	74	5732
2026-01-10 13:15:57.90	323.83	7.76	-54.7	-58.3	12.3	1.50e-06	0	23	0	785383424	74	5849
2026-01-10 13:15:58.91	323.98	7.72	-54.7	-58.5	12.2	1.50e-06	0	23	0	787480576	74	5947
2026-01-10 13:15:59.91	324.13	7.68	-54.6	-58.3	12.3	0.00e+00	0	23	0	788529152	74	5823
2026-01-10 13:16:00.91	324.27	7.65	-54.6	-58.1	12.5	0.00e+00	0	23	0	790626304	74	5712
2026-01-10 13:16:01.91	324.42	7.61	-54.5	-58.1	12.5	0.00e+00	0	23	0	792723456	74	5657
2026-01-10 13:16:02.90	324.56	7.58	-54.5	-58.1	12.5	7.00e-07	0	23	0	794820608	74	5696
2026-01-10 13:16:03.89	324.71	7.54	-54.5	-58.0	12.6	7.00e-07	0	23	0	796917760	74	5627
2026-01-10 13:16:04.89	324.85	7.50	-54.4	-57.8	12.7	0.00e+00	0	24	0	797966336	74	5502
2026-01-10 13:16:05.88	325.00	7.47	-54.4	-57.8	12.8	7.00e-07	0	23	0	800063488	74	5485
2026-01-10 13:16:06.88	325.14	7.43	-54.4	-57.7	12.8	0.00e+00	0	23	0	802160640	74	5463
2026-01-10 13:16:07.88	325.29	7.40	-54.3	-57.7	12.8	0.00e+00	0	23	0	804257792	74	5455
2026-01-10 13:16:08.88	325.43	7.36	-54.3	-57.6	12.9	0.00e+00	0	23	0	805306368	74	5378
2026-01-10 13:16:09.88	325.57	7.32	-54.2	-57.5	12.9	7.00e-07	0	23	0	807403520	74	5326
2026-01-10 13:16:10.88	325.72	7.28	-54.2	-57.5	12.9	0.00e+00	0	23	0	809500672	74	5324
2026-01-10 13:16:11.87	325.86	7.25	-54.3	-57.7	12.8	0.00e+00	0	23	0	811597824	74	5446
2026-01-10 13:16:12.87	326.00	7.21	-54.3	-57.8	12.7	1.50e-06	0	23	0	813694976	74	5470
2026-01-10 13:16:13.86	326.14	7.17	-54.5	-58.0	12.6	1.50e-06	0	23	0	814743552	74	5616
2026-01-10 13:16:14.86	326.28	7.14	-54.5	-58.1	12.5	1.50e-06	0	23	0	816840704	74	5699
2026-01-10 13:16:15.86	326.43	7.10	-54.5	-58.2	12.4	0.00e+00	0	23	0	818937856	74	5744
2026-01-10 13:16:16.86	326.57	7.06	-54.5	-58.2	12.4	1.50e-06	0	23	0	821035008	74	5742
2026-01-10 13:16:17.86	326.71	7.02	-54.4	-57.9	12.6	7.00e-07	0	23	0	823132160	74	5575
2026-01-10 13:16:18.86	326.85	6.99	-54.3	-57.8	12.7	0.00e+00	0	23	0	824180736	74	5479
2026-01-10 13:16:19.86	326.99	6.95	-54.2	-57.5	12.9	0.00e+00	0	23	0	826277888	74	5319
2026-01-10 13:16:20.86	327.13	6.91	-54.2	-57.5	12.9	0.00e+00	0	23	0	828375040	74	5303
2026-01-10 13:16:21.86	327.27	6.87	-54.0	-57.1	13.2	0.00e+00	0	23	0	830472192	74	5097
2026-01-10 13:16:22.87	327.41	6.83	-54.0	-57.1	13.2	0.00e+00	0	23	0	832569344	74	5092
2026-01-10 13:16:23.87	327.55	6.80	-53.9	-57.0	13.2	0.00e+00	0	23	0	833617920	74	5038
2026-01-10 13:16:24.87	327.69	6.76	-54.0	-57.1	13.2	0.00e+00	0	23	0	835715072	74	5089
2026-01-10 13:16:25.87	327.82	6.72	-54.1	-57.3	13.1	0.00e+00	0	23	0	837812224	74	5201
2026-01-10 13:16:26.88	327.96	6.68	-54.1	-57.4	12.9	0.00e+00	0	23	0	839909376	74	5251
2026-01-10 13:16:27.87	328.10	6.64	-54.4	-57.9	12.6	1.50e-06	0	23	0	840957952	74	5553
2026-01-10 13:16:28.87	328.24	6.60	-54.4	-57.9	12.5	0.00e+00	0	23	0	843055104	74	5592
2026-01-10 13:16:29.88	328.37	6.57	-54.5	-58.2	12.4	7.00e-07	0	23	0	845152256	74	5745
2026-01-10 13:16:30.87	328.51	6.53	-54.5	-58.1	12.4	1.50e-06	0	23	0	847249408	74	5699
2026-01-10 13:16:31.88	328.65	6.49	-54.4	-57.9	12.5	2.20e-06	0	23	0	849346560	74	5570
2026-01-10 13:16:32.87	328.78	6.45	-54.3	-57.8	12.6	7.00e-07	0	23	0	850395136	74	5496
2026-01-10 13:16:33.86	328.91	6.41	-54.3	-57.7	12.7	0.00e+00	0	23	0	852492288	74	5445
2026-01-10 13:16:34.87	329.05	6.37	-54.0	-57.1	13.1	0.00e+00	0	23	0	854589440	74	5086
2026-01-10 13:16:35.87	329.19	6.33	-53.9	-57.0	13.2	0.00e+00	0	23	0	856686592	74	5030
2026-01-10 13:16:36.87	329.32	6.29	-53.8	-56.8	13.4	0.00e+00	0	23	0	858783744	74	4874
2026-01-10 13:16:37.87	329.45	6.25	-53.6	-56.6	13.4	0.00e+00	0	23	0	859832320	73	5064
2026-01-10 13:16:38.87	329.59	6.22	-53.6	-56.5	13.4	0.00e+00	0	23	0	861929472	73	5033
2026-01-10 13:16:39.87	329.72	6.18	-53.5	-56.5	13.5	0.00e+00	0	24	0	864026624	73	4994
2026-01-10 13:16:40.87	329.85	6.14	-53.6	-56.5	13.4	0.00e+00	0	23	0	866123776	73	5029
2026-01-10 13:16:41.87	329.99	6.10	-53.6	-56.5	13.4	0.00e+00	0	23	0	868220928	73	5028
2026-01-10 13:16:42.86	330.12	6.06	-53.6	-56.7	13.4	7.00e-07	0	23	0	869269504	73	5103
2026-01-10 13:16:43.84	330.25	6.02	-53.6	-56.6	13.3	0.00e+00	0	23	0	871366656	73	5093
2026-01-10 13:16:44.84	330.38	5.98	-53.6	-56.6	13.5	0.00e+00	0	23	0	873463808	73	5058
2026-01-10 13:16:45.83	330.51	5.94	-53.7	-56.8	13.2	0.00e+00	0	23	0	875560960	73	5180
2026-01-10 13:16:46.84	330.64	5.90	-53.7	-56.8	13.3	0.00e+00	0	23	0	876609536	73	5192
2026-01-10 13:16:47.83	330.77	5.86	-53.8	-56.8	13.2	0.00e+00	0	23	0	878706688	73	5218
2026-01-10 13:16:48.83	330.90	5.82	-53.5	-56.5	13.4	0.00e+00	0	23	0	880803840	73	4988
2026-01-10 13:16:49.83	331.03	5.78	-53.5	-56.4	13.5	0.00e+00	0	23	0	882900992	73	4927
2026-01-10 13:16:50.83	331.16	5.74	-53.5	-56.4	13.5	0.00e+00	0	24	0	884998144	73	4928
2026-01-10 13:16:51.83	331.29	5.70	-53.7	-56.7	13.3	0.00e+00	0	23	0	886046720	73	5123
2026-01-10 13:16:52.82	331.41	5.66	-53.6	-56.6	13.4	0.00e+00	0	23	0	888143872	73	5091
2026-01-10 13:16:53.82	331.54	5.62	-53.6	-56.5	13.4	0.00e+00	0	23	0	890241024	73	5036
2026-01-10 13:16:54.80	331.67	5.58	-53.8	-56.9	13.1	7.00e-07	0	23	0	892338176	73	5271
2026-01-10 13:16:55.80	331.79	5.54	-53.8	-57.0	13.1	0.00e+00	0	24	0	893386752	73	5333
2026-01-10 13:16:56.80	331.92	5.50	-53.9	-57.1	13.0	0.00e+00	0	23	0	895483904	73	5352
2026-01-10 13:16:57.80	332.05	5.46	-54.1	-57.5	12.6	0.00e+00	0	23	0	897581056	73	5648
2026-01-10 13:16:58.79	332.17	5.42	-54.1	-57.5	12.7	0.00e+00	0	23	0	899678208	73	5604
2026-01-10 13:16:59.78	332.30	5.38	-53.9	-57.1	12.9	0.00e+00	0	23	0	901775360	73	5386
2026-01-10 13:17:00.78	332.43	5.34	-54.0	-57.3	12.8	0.00e+00	0	23	0	902823936	73	5520
2026-01-10 13:17:01.78	332.55	5.30	-53.5	-56.5	13.4	0.00e+00	0	23	0	904921088	73	5014
2026-01-10 13:17:02.78	332.68	5.26	-53.3	-56.1	13.7	0.00e+00	0	24	0	907018240	73	4783
2026-01-10 13:17:03.77	332.80	5.22	-53.3	-56.2	13.6	0.00e+00	0	23	0	909115392	73	4820
2026-01-10 13:17:04.78	332.93	5.18	-53.0	-55.7	13.8	0.00e+00	0	24	0	910163968	72	4846
2026-01-10 13:17:05.78	333.05	5.14	-53.1	-55.8	13.7	0.00e+00	0	23	0	912261120	72	4926
2026-01-10 13:17:06.77	333.17	5.10	-53.1	-55.8	13.7	0.00e+00	0	23	0	914358272	72	4916
2026-01-10 13:17:07.77	333.30	5.05	-52.9	-55.6	13.9	0.00e+00	0	23	0	916455424	72	4794
2026-01-10 13:17:08.76	333.42	5.01	-53.1	-55.8	13.7	0.00e+00	0	23	0	918552576	72	4908
2026-01-10 13:17:09.76	333.54	4.97	-56.7	-64.5	7.7	0.00e+00	0	23	0	919601152	78	9407
2026-01-10 13:17:10.77	333.67	4.93	-58.0	-74.0	3.8	1.23e+00	0	24	104	920649728	81	23761
2026-01-10 13:17:11.77	333.79	4.89	-58.4	-74.4	3.8	1.49e+00	0	23	104	920649728	81	24924
2026-01-10 13:17:12.77	333.91	4.85	-58.7	-74.7	3.8	1.49e+00	0	23	104	920649728	82	24328
2026-01-10 13:17:13.77	334.03	4.81	-58.9	-74.9	3.8	1.49e+00	0	23	104	920649728	82	24828
2026-01-10 13:17:14.77	334.15	4.77	-59.0	-75.1	3.8	1.49e+00	0	23	104	920649728	83	23882
2026-01-10 13:17:15.78	334.28	4.73	-59.1	-75.2	3.8	1.49e+00	0	24	104	920649728	83	24239
2026-01-10 13:17:16.78	334.40	4.68	-59.2	-75.3	3.8	1.49e+00	0	24	104	920649728	83	24499
2026-01-10 13:17:17.78	334.52	4.64	-59.3	-75.4	3.8	1.49e+00	0	23	104	920649728	83	24802
2026-01-10 13:17:18.78	334.64	4.60	-59.4	-75.4	3.8	1.49e+00	0	24	104	920649728	83	24850
2026-01-10 13:17:19.78	334.76	4.56	-59.4	-75.5	3.8	1.49e+00	0	23	104	920649728	83	25000
2026-01-10 13:17:20.79	334.88	4.52	-59.7	-75.7	3.8	1.49e+00	0	23	104	920649728	84	24265
2026-01-10 13:17:21.79	335.00	4.48	-59.7	-75.7	3.8	1.49e+00	0	24	104	920649728	84	24344
2026-01-10 13:17:22.79	335.12	4.44	-59.7	-75.8	3.8	1.49e+00	0	23	104	920649728	84	24441
2026-01-10 13:17:23.78	335.23	4.39	-59.7	-75.8	3.8	1.49e+00	0	23	104	920649728	84	24478
2026-01-10 13:17:24.78	335.35	4.35	-59.8	-75.8	3.8	1.49e+00	0	24	104	920649728	84	24585
2026-01-10 13:17:25.79	335.47	4.31	-59.8	-75.8	3.8	1.49e+00	0	24	104	920649728	84	24626
2026-01-10 13:17:26.78	335.59	4.27	-59.8	-75.8	3.8	1.49e+00	0	23	104	920649728	84	24574
2026-01-10 13:17:27.78	335.70	4.23	-59.8	-75.8	3.8	1.49e+00	0	24	104	920649728	84	24580
2026-01-10 13:17:28.78	335.82	4.19	-59.8	-75.8	3.8	1.49e+00	0	24	104	920649728	84	24572
2026-01-10 13:17:29.78	335.94	4.14	-59.8	-75.8	3.8	1.49e+00	0	23	104	920649728	84	24654
2026-01-10 13:17:30.78	336.05	4.10	-59.8	-75.9	3.8	1.49e+00	0	24	104	920649728	84	24700
2026-01-10 13:17:31.78	336.17	4.06	-59.8	-75.8	3.8	1.49e+00	0	24	104	920649728	84	24593
2026-01-10 13:17:32.79	336.29	4.02	-59.7	-75.8	3.8	1.49e+00	0	24	104	920649728	84	24462
2026-01-10 13:17:33.79	336.40	3.98	-59.7	-75.8	3.8	1.49e+00	0	23	104	920649728	84	24447
2026-01-10 13:17:34.79	336.52	3.94	-59.7	-75.8	3.8	1.49e+00	0	24	104	920649728	84	24418
2026-01-10 13:17:35.80	336.63	3.89	-59.7	-75.7	3.8	1.49e+00	0	24	104	920649728	84	24346
2026-01-10 13:17:36.80	336.75	3.85	-59.7	-75.7	3.8	1.49e+00	0	24	104	920649728	84	24322
2026-01-10 13:17:37.80	336.86	3.81	-59.7	-75.7	3.8	1.49e+00	0	23	104	920649728	84	24297
2026-01-10 13:17:38.79	336.97	3.77	-59.7	-75.7	3.8	1.49e+00	0	24	104	920649728	84	24240
2026-01-10 13:17:39.79	337.09	3.73	-59.7	-75.7	3.8	1.49e+00	0	24	104	920649728	84	24242
2026-01-10 13:17:40.80	337.20	3.68	-59.6	-75.7	3.8	1.49e+00	0	24	104	920649728	84	24203
2026-01-10 13:17:41.80	337.31	3.64	-59.6	-75.7	3.8	1.49e+00	0	24	104	920649728	84	24189
2026-01-10 13:17:42.81	337.43	3.60	-59.6	-75.7	3.8	1.49e+00	0	24	104	920649728	84	24209
2026-01-10 13:17:43.81	337.54	3.56	-59.6	-75.7	3.8	1.49e+00	0	24	104	920649728	84	24207
2026-01-10 13:17:44.81	337.65	3.51	-59.6	-75.6	3.8	1.49e+00	0	23	104	920649728	84	24098
2026-01-10 13:17:45.82	337.76	3.47	-59.6	-75.6	3.8	1.49e+00	0	23	104	920649728	84	24048
2026-01-10 13:17:46.81	337.87	3.43	-59.6	-75.6	3.8	1.49e+00	0	24	104	920649728	84	24072
2026-01-10 13:17:47.81	337.98	3.39	-59.6	-75.6	3.8	1.49e+00	0	24	104	920649728	84	24039
2026-01-10 13:17:48.80	338.09	3.35	-59.6	-75.6	3.8	1.49e+00	0	23	104	920649728	84	24040
2026-01-10 13:17:49.80	338.20	3.30	-59.6	-75.6	3.8	1.49e+00	0	24	104	920649728	84	24023
2026-01-10 13:17:50.80	338.31	3.26	-59.6	-75.6	3.8	1.49e+00	0	24	104	920649728	84	23967
2026-01-10 13:17:51.80	338.42	3.22	-59.6	-75.6	3.8	1.49e+00	0	24	104	920649728	84	24061
2026-01-10 13:17:52.80	338.53	3.18	-59.5	-75.6	3.8	1.49e+00	0	24	104	920649728	84	23979
2026-01-10 13:17:53.80	338.64	3.14	-59.5	-75.6	3.8	1.49e+00	0	24	104	920649728	84	23983
2026-01-10 13:17:54.79	338.75	3.09	-59.5	-75.6	3.8	1.49e+00	0	24	104	920649728	84	23921
2026-01-10 13:17:55.79	338.86	3.05	-59.5	-75.6	3.8	1.49e+00	0	24	104	920649728	84	23907
2026-01-10 13:17:56.80	338.97	3.01	-59.5	-75.6	3.8	1.49e+00	0	24	104	920649728	84	23946
2026-01-10 13:17:57.79	339.08	2.97	-59.5	-75.6	3.8	1.49e+00	0	24	104	920649728	84	23874
2026-01-10 13:17:58.80	339.18	2.92	-59.5	-75.6	3.8	1.49e+00	0	24	104	920649728	84	23949
2026-01-10 13:17:59.80	339.29	2.88	-59.5	-75.6	3.8	1.49e+00	0	24	104	920649728	84	23856
2026-01-10 13:18:00.80	339.40	2.84	-59.5	-75.6	3.8	1.49e+00	0	24	104	920649728	84	23869
2026-01-10 13:18:01.79	339.50	2.80	-59.5	-75.6	3.8	1.49e+00	0	23	104	920649728	84	23893
2026-01-10 13:18:02.79	339.61	2.76	-59.5	-75.5	3.8	1.49e+00	0	24	104	920649728	84	23809
2026-01-10 13:18:03.79	339.72	2.71	-59.5	-75.6	3.8	1.49e+00	0	23	104	920649728	84	23857
2026-01-10 13:18:04.79	339.82	2.67	-59.5	-75.5	3.8	1.49e+00	0	24	104	920649728	84	23834
2026-01-10 13:18:05.80	339.93	2.63	-59.5	-75.5	3.8	1.49e+00	0	24	104	920649728	84	23820
2026-01-10 13:18:06.79	340.03	2.59	-59.5	-75.5	3.8	1.49e+00	0	24	104	920649728	84	23819
2026-01-10 13:18:07.80	340.14	2.54	-59.5	-75.5	3.8	1.49e+00	0	24	104	920649728	84	23850
2026-01-10 13:18:08.79	340.24	2.50	-59.5	-75.5	3.8	1.49e+00	0	23	104	920649728	84	23836
2026-01-10 13:18:09.79	340.35	2.46	-59.5	-75.5	3.8	1.49e+00	0	24	104	920649728	84	23759
2026-01-10 13:18:10.80	340.45	2.42	-59.5	-75.5	3.8	1.49e+00	0	23	104	920649728	84	23703
2026-01-10 13:18:11.80	340.56	2.37	-59.5	-75.5	3.8	1.49e+00	0	24	104	920649728	84	23665
2026-01-10 13:18:12.80	340.66	2.33	-59.5	-75.5	3.8	1.49e+00	0	24	104	920649728	84	23694
2026-01-10 13:18:13.81	340.77	2.29	-59.5	-75.5	3.8	1.49e+00	0	24	104	920649728	84	23730
2026-01-10 13:18:14.81	340.87	2.24	-59.5	-75.5	3.8	1.49e+00	0	23	104	920649728	84	23725
2026-01-10 13:18:15.81	340.97	2.20	-59.5	-75.5	3.8	1.49e+00	0	24	104	920649728	84	23743
2026-01-10 13:18:16.81	341.07	2.16	-59.5	-75.5	3.8	1.49e+00	0	24	104	920649728	84	23712
2026-01-10 13:18:17.81	341.18	2.12	-59.5	-75.5	3.8	1.49e+00	0	24	104	920649728	84	23734
2026-01-10 13:18:18.82	341.28	2.07	-59.5	-75.5	3.8	1.49e+00	0	24	104	920649728	84	23731
2026-01-10 13:18:19.82	341.38	2.03	-59.5	-75.5	3.8	1.49e+00	0	24	104	920649728	84	23725
2026-01-10 13:18:20.82	341.48	1.99	-59.5	-75.5	3.8	1.49e+00	0	24	104	920649728	84	23758
2026-01-10 13:18:21.83	341.58	1.95	-59.5	-75.5	3.8	1.49e+00	0	24	104	920649728	84	23741

#Closed at: 2026-01-10 13:18:22
#Recorded file [920 MB]: D:/lorett/data/31004_260110_160750.dat