passes_logs/2026/01/10/R3.2S_Murmansk/R3.2S_Murmansk__20260110_024518_SUOMI_NPP_rec.log

#Pass ID: 20260110_024518_SUOMI NPP
#Satellite: SUOMI NPP
#Configuration: NPP
#almurnet v.1.7.20251203
#Start time: 2026-01-10 02:45:17

#Version: 2.2.20231116
#Station: R3.2S_Murmansk
#Location: 33.079688 lon 68.888172 lat
#TLE: 1 37849U 11061A   26008.83076692  .00000095  00000+0  66074-4 0  9997
#TLE: 2 37849  98.7806 310.9327 0002533  74.3004 285.8451 14.19523607735834

#Time	Az	El	Level	Level2	SNR	BER	BlckErr	Temp	State	Recorded	gain1	gain2
2026-01-10 02:45:17.53	35.26	1.97	-57.1	-73.0	3.8	1.49e+00	0	21	0	0	80	22437
2026-01-10 02:45:18.54	35.22	2.03	-57.0	-73.0	3.8	1.49e+00	0	22	104	0	79	23720
2026-01-10 02:45:19.53	35.18	2.09	-57.0	-73.0	3.8	1.49e+00	0	21	104	0	79	23701
2026-01-10 02:45:20.53	35.14	2.16	-57.0	-73.0	3.8	1.49e+00	0	21	104	0	79	23754
2026-01-10 02:45:21.54	35.09	2.22	-57.0	-73.0	3.8	1.49e+00	0	22	104	0	79	23741
2026-01-10 02:45:22.55	35.05	2.28	-57.0	-73.0	3.8	1.49e+00	0	21	104	0	79	23737
2026-01-10 02:45:23.55	35.01	2.34	-57.0	-73.0	3.8	1.49e+00	0	22	104	0	79	23716
2026-01-10 02:45:24.54	34.97	2.40	-57.0	-73.0	3.8	1.49e+00	0	22	104	0	79	23729
2026-01-10 02:45:25.54	34.92	2.46	-57.0	-73.0	3.8	1.49e+00	0	22	104	0	79	23664
2026-01-10 02:45:26.54	34.88	2.52	-57.0	-73.0	3.8	1.49e+00	0	22	104	0	79	23713
2026-01-10 02:45:27.54	34.84	2.59	-57.0	-73.0	3.8	1.49e+00	0	22	104	0	79	23668
2026-01-10 02:45:28.54	34.79	2.65	-57.0	-72.9	3.8	1.49e+00	0	22	104	0	79	23571
2026-01-10 02:45:29.55	34.75	2.71	-57.0	-72.9	3.8	1.49e+00	0	22	104	0	79	23557
2026-01-10 02:45:30.54	34.71	2.77	-57.0	-73.0	3.8	1.49e+00	0	22	104	0	79	23606
2026-01-10 02:45:31.55	34.66	2.84	-57.0	-73.0	3.8	1.49e+00	0	22	104	0	79	23624
2026-01-10 02:45:32.55	34.62	2.90	-57.0	-72.9	3.8	1.49e+00	0	22	104	0	79	23546
2026-01-10 02:45:33.55	34.58	2.96	-57.0	-73.0	3.8	1.49e+00	0	22	104	0	79	23602
2026-01-10 02:45:34.55	34.53	3.02	-57.0	-73.0	3.8	1.49e+00	0	22	104	0	79	23736
2026-01-10 02:45:35.54	34.49	3.09	-57.0	-73.0	3.8	1.49e+00	0	22	104	0	79	23678
2026-01-10 02:45:36.54	34.44	3.15	-57.0	-73.0	3.8	1.49e+00	0	22	104	0	79	23705
2026-01-10 02:45:37.54	34.40	3.21	-57.0	-73.0	3.8	1.49e+00	0	22	104	0	79	23682
2026-01-10 02:45:38.54	34.35	3.28	-57.0	-73.0	3.8	1.49e+00	0	22	104	0	79	23685
2026-01-10 02:45:39.54	34.31	3.34	-57.0	-73.0	3.8	1.49e+00	0	22	104	0	79	23663
2026-01-10 02:45:40.55	34.26	3.40	-57.0	-73.0	3.8	1.49e+00	0	22	104	0	79	23693
2026-01-10 02:45:41.55	34.21	3.47	-57.0	-73.0	3.8	1.49e+00	0	22	104	0	79	23585
2026-01-10 02:45:42.56	34.17	3.53	-57.0	-73.0	3.8	1.49e+00	0	22	104	0	79	23608
2026-01-10 02:45:43.56	34.12	3.60	-57.0	-72.9	3.8	1.49e+00	0	22	104	0	79	23539
2026-01-10 02:45:44.56	34.07	3.66	-57.0	-72.9	3.8	1.49e+00	0	22	104	0	79	23359
2026-01-10 02:45:45.56	34.03	3.72	-57.0	-72.7	3.8	1.49e+00	0	22	104	0	79	22879
2026-01-10 02:45:46.56	33.98	3.79	-57.0	-72.5	3.8	1.49e+00	0	22	104	0	79	22318
2026-01-10 02:45:47.56	33.93	3.85	-57.0	-72.3	3.8	1.49e+00	0	22	104	0	79	21796
2026-01-10 02:45:48.56	33.89	3.92	-57.0	-72.1	3.8	1.49e+00	0	22	104	0	79	21327
2026-01-10 02:45:49.56	33.84	3.98	-57.0	-71.9	3.8	1.49e+00	0	22	104	0	79	20862
2026-01-10 02:45:50.57	33.79	4.05	-57.0	-71.4	3.8	1.49e+00	0	22	104	0	79	19838
2026-01-10 02:45:51.57	33.74	4.11	-57.0	-71.3	3.8	1.49e+00	0	22	104	0	79	19520
2026-01-10 02:45:52.57	33.69	4.18	-57.0	-71.0	3.8	1.49e+00	0	22	104	0	79	18776
2026-01-10 02:45:53.57	33.65	4.24	-56.9	-70.7	3.8	1.48e+00	0	23	104	0	79	18163
2026-01-10 02:45:54.57	33.60	4.31	-56.9	-70.1	3.9	1.47e+00	0	22	104	0	79	17064
2026-01-10 02:45:55.56	33.55	4.37	-56.9	-69.3	4.2	1.41e+00	0	22	0	0	79	15571
2026-01-10 02:45:56.57	33.50	4.44	-56.8	-68.7	4.4	1.32e+00	74	22	0	1048576	79	14525
2026-01-10 02:45:57.57	33.45	4.51	-56.7	-67.8	4.7	8.63e-01	0	22	0	3145728	79	13047
2026-01-10 02:45:58.58	33.40	4.57	-56.6	-66.6	5.4	5.75e-01	0	22	0	4194304	79	11368
2026-01-10 02:45:59.58	33.35	4.64	-56.6	-66.1	5.7	4.39e-01	0	23	0	6291456	79	10763
2026-01-10 02:46:00.58	33.30	4.70	-56.5	-65.4	6.2	2.82e-01	0	22	0	8388608	79	9921
2026-01-10 02:46:01.58	33.25	4.77	-56.4	-65.0	6.5	1.92e-01	0	22	0	10485760	79	9398
2026-01-10 02:46:02.59	33.20	4.84	-56.3	-64.7	6.8	1.63e-01	0	22	0	12582912	79	9094
2026-01-10 02:46:03.58	33.15	4.90	-56.3	-64.6	6.9	1.45e-01	0	23	0	13631488	79	8967
2026-01-10 02:46:04.58	33.09	4.97	-56.3	-64.4	7.0	1.28e-01	0	23	0	15728640	79	8830
2026-01-10 02:46:05.58	33.04	5.04	-56.3	-64.6	6.9	1.39e-01	0	22	0	17825792	79	9015
2026-01-10 02:46:06.58	32.99	5.10	-55.8	-61.8	9.5	1.53e-01	0	22	0	19922944	78	6886
2026-01-10 02:46:07.58	32.94	5.17	-54.9	-59.4	11.3	4.48e-02	0	23	0	20971520	76	5905
2026-01-10 02:46:08.59	32.89	5.24	-56.6	-66.3	5.7	5.54e-04	0	23	0	23068672	78	11558
2026-01-10 02:46:09.58	32.83	5.31	-56.3	-64.0	7.2	1.45e+00	0	23	104	24117248	78	8906
2026-01-10 02:46:10.57	32.78	5.37	-54.8	-59.3	11.6	1.07e-03	0	23	0	25165824	76	5818
2026-01-10 02:46:11.57	32.73	5.44	-55.1	-59.9	10.9	5.59e-02	0	23	0	27262976	76	6246
2026-01-10 02:46:12.57	32.67	5.51	-54.5	-58.7	11.9	1.90e-05	0	23	0	29360128	75	5747
2026-01-10 02:46:13.56	32.62	5.58	-54.6	-59.0	11.7	2.21e-05	0	23	0	31457280	75	5933
2026-01-10 02:46:14.57	32.57	5.65	-54.5	-58.7	11.9	1.29e-05	0	23	0	32505856	75	5759
2026-01-10 02:46:15.56	32.51	5.71	-54.5	-58.7	11.9	2.05e-05	0	23	0	34603008	75	5766
2026-01-10 02:46:16.56	32.46	5.78	-54.2	-58.1	12.4	2.21e-05	0	23	0	36700160	75	5382
2026-01-10 02:46:17.56	32.40	5.85	-54.1	-57.9	12.4	1.50e-06	0	23	0	38797312	74	5591
2026-01-10 02:46:18.56	32.35	5.92	-54.0	-57.8	12.6	1.50e-06	0	23	0	39845888	74	5497
2026-01-10 02:46:19.57	32.29	5.99	-53.9	-57.6	12.7	0.00e+00	0	23	0	41943040	74	5368
2026-01-10 02:46:20.56	32.24	6.06	-53.8	-57.4	12.9	0.00e+00	0	23	0	44040192	74	5228
2026-01-10 02:46:21.55	32.18	6.13	-53.9	-57.5	12.8	0.00e+00	0	23	0	46137344	74	5313
2026-01-10 02:46:22.55	32.13	6.20	-53.8	-57.4	12.9	0.00e+00	0	23	0	48234496	74	5248
2026-01-10 02:46:23.55	32.07	6.27	-53.8	-57.4	12.9	7.00e-07	0	23	0	49283072	74	5259
2026-01-10 02:46:24.54	32.01	6.34	-53.9	-57.4	12.9	7.00e-07	0	23	0	51380224	74	5270
2026-01-10 02:46:25.54	31.96	6.41	-53.7	-57.2	13.1	0.00e+00	0	23	0	53477376	74	5117
2026-01-10 02:46:26.55	31.90	6.48	-53.6	-57.0	13.1	0.00e+00	0	23	0	55574528	73	5308
2026-01-10 02:46:27.55	31.84	6.55	-53.5	-56.8	13.3	0.00e+00	0	23	0	57671680	73	5179
2026-01-10 02:46:28.55	31.78	6.62	-53.4	-56.7	13.3	0.00e+00	0	23	0	58720256	73	5142
2026-01-10 02:46:29.55	31.73	6.69	-53.4	-56.7	13.3	0.00e+00	0	23	0	60817408	73	5121
2026-01-10 02:46:30.54	31.67	6.76	-53.5	-56.8	13.2	0.00e+00	0	23	0	62914560	73	5218
2026-01-10 02:46:31.54	31.61	6.83	-53.4	-56.6	13.4	7.00e-07	0	23	0	65011712	73	5066
2026-01-10 02:46:32.54	31.55	6.90	-53.5	-56.8	13.3	0.00e+00	0	23	0	67108864	73	5164
2026-01-10 02:46:33.53	31.49	6.97	-53.5	-56.9	13.2	0.00e+00	0	23	0	68157440	73	5247
2026-01-10 02:46:34.53	31.43	7.04	-53.5	-56.9	13.2	0.00e+00	0	23	0	70254592	73	5260
2026-01-10 02:46:35.52	31.37	7.11	-53.3	-56.5	13.5	0.00e+00	0	23	0	72351744	73	5014
2026-01-10 02:46:36.52	31.31	7.18	-53.2	-56.3	13.5	0.00e+00	0	23	0	74448896	72	5205
2026-01-10 02:46:37.52	31.25	7.26	-53.3	-56.5	13.3	0.00e+00	0	23	0	75497472	72	5312
2026-01-10 02:46:38.51	31.19	7.33	-53.2	-56.4	13.4	0.00e+00	0	23	0	77594624	72	5258
2026-01-10 02:46:39.51	31.13	7.40	-53.2	-56.3	13.5	0.00e+00	0	23	0	79691776	72	5203
2026-01-10 02:46:40.51	31.07	7.47	-53.4	-56.6	13.3	0.00e+00	0	23	0	81788928	72	5390
2026-01-10 02:46:41.50	31.01	7.55	-53.3	-56.5	13.4	0.00e+00	0	23	0	83886080	72	5303
2026-01-10 02:46:42.50	30.94	7.62	-53.2	-56.3	13.5	0.00e+00	0	23	0	84934656	72	5189
2026-01-10 02:46:43.50	30.88	7.69	-53.1	-56.1	13.7	0.00e+00	0	23	0	87031808	72	5083
2026-01-10 02:46:44.51	30.82	7.76	-53.2	-56.3	13.5	0.00e+00	0	23	0	89128960	72	5160
2026-01-10 02:46:45.50	30.76	7.84	-53.0	-55.9	13.8	0.00e+00	0	23	0	91226112	72	4957
2026-01-10 02:46:46.51	30.69	7.91	-53.0	-56.0	13.7	0.00e+00	0	23	0	92274688	72	5004
2026-01-10 02:46:47.51	30.63	7.99	-53.0	-55.9	13.8	0.00e+00	0	23	0	94371840	72	4943
2026-01-10 02:46:48.50	30.56	8.06	-52.9	-55.7	13.9	0.00e+00	0	23	0	96468992	72	4850
2026-01-10 02:46:49.51	30.50	8.13	-52.8	-55.7	14.0	0.00e+00	0	23	0	98566144	72	4826
2026-01-10 02:46:50.50	30.43	8.21	-52.8	-55.6	14.0	0.00e+00	0	23	0	100663296	72	4811
2026-01-10 02:46:51.50	30.37	8.28	-52.9	-55.8	13.8	0.00e+00	0	23	0	101711872	72	4925
2026-01-10 02:46:52.51	30.30	8.36	-52.8	-55.6	14.0	0.00e+00	0	23	0	103809024	72	4775
2026-01-10 02:46:53.51	30.24	8.43	-52.9	-55.8	13.9	0.00e+00	0	23	0	105906176	72	4901
2026-01-10 02:46:54.50	30.17	8.51	-52.8	-55.6	14.0	0.00e+00	0	23	0	108003328	72	4789
2026-01-10 02:46:55.50	30.10	8.58	-52.8	-55.5	14.1	0.00e+00	0	23	0	110100480	72	4734
2026-01-10 02:46:56.50	30.04	8.66	-52.8	-55.6	14.0	0.00e+00	0	23	0	111149056	72	4809
2026-01-10 02:46:57.50	29.97	8.73	-52.9	-55.7	14.0	0.00e+00	0	23	0	113246208	72	4826
2026-01-10 02:46:58.50	29.90	8.81	-52.8	-55.5	14.1	0.00e+00	0	23	0	115343360	72	4736
2026-01-10 02:46:59.50	29.83	8.88	-52.7	-55.5	14.1	0.00e+00	0	23	0	117440512	72	4712
2026-01-10 02:47:00.49	29.77	8.96	-52.7	-55.4	14.0	0.00e+00	0	23	0	119537664	71	4963
2026-01-10 02:47:01.49	29.70	9.04	-52.6	-55.3	14.1	0.00e+00	0	23	0	120586240	71	4876
2026-01-10 02:47:02.50	29.63	9.11	-52.5	-55.1	14.2	0.00e+00	0	23	0	122683392	71	4779
2026-01-10 02:47:03.50	29.56	9.19	-52.5	-55.1	14.2	0.00e+00	0	23	0	124780544	71	4774
2026-01-10 02:47:04.51	29.49	9.27	-52.5	-55.2	14.2	0.00e+00	0	23	0	126877696	71	4821
2026-01-10 02:47:05.51	29.42	9.34	-52.5	-55.1	14.2	0.00e+00	0	23	0	127926272	71	4781
2026-01-10 02:47:06.51	29.34	9.42	-52.5	-55.0	14.3	0.00e+00	0	23	0	130023424	71	4745
2026-01-10 02:47:07.51	29.27	9.50	-52.4	-55.0	14.3	0.00e+00	0	23	0	132120576	71	4738
2026-01-10 02:47:08.50	29.20	9.58	-52.5	-55.1	14.2	0.00e+00	0	23	0	134217728	71	4795
2026-01-10 02:47:09.50	29.13	9.65	-52.6	-55.2	14.2	0.00e+00	0	23	0	136314880	71	4829
2026-01-10 02:47:10.50	29.06	9.73	-52.5	-55.1	14.2	0.00e+00	0	23	0	137363456	71	4781
2026-01-10 02:47:11.50	28.98	9.81	-52.4	-55.0	14.3	0.00e+00	0	23	0	139460608	71	4720
2026-01-10 02:47:12.51	28.91	9.89	-52.6	-55.2	14.1	0.00e+00	0	23	0	141557760	71	4839
2026-01-10 02:47:13.50	28.84	9.97	-52.5	-55.1	14.2	0.00e+00	0	23	0	143654912	71	4800
2026-01-10 02:47:14.50	28.76	10.05	-52.5	-55.1	14.2	0.00e+00	0	23	0	145752064	71	4800
2026-01-10 02:47:15.50	28.69	10.12	-52.8	-55.4	14.0	0.00e+00	0	23	0	146800640	71	4969
2026-01-10 02:47:16.50	28.61	10.20	-52.7	-55.3	14.1	0.00e+00	0	23	0	148897792	71	4887
2026-01-10 02:47:17.50	28.54	10.28	-52.5	-55.1	14.2	0.00e+00	0	23	0	150994944	71	4811
2026-01-10 02:47:18.49	28.46	10.36	-52.6	-55.2	14.1	0.00e+00	0	23	0	153092096	71	4849
2026-01-10 02:47:19.49	28.39	10.44	-52.5	-55.1	14.2	0.00e+00	0	23	0	154140672	71	4793
2026-01-10 02:47:20.49	28.31	10.52	-52.6	-55.3	14.1	0.00e+00	0	23	0	156237824	71	4879
2026-01-10 02:47:21.50	28.23	10.60	-52.7	-55.3	14.0	0.00e+00	0	23	0	158334976	71	4925
2026-01-10 02:47:22.50	28.15	10.68	-52.6	-55.2	14.1	0.00e+00	0	23	0	160432128	71	4859
2026-01-10 02:47:23.49	28.08	10.76	-52.7	-55.4	14.0	0.00e+00	0	23	0	162529280	71	4979
2026-01-10 02:47:24.49	28.00	10.84	-52.7	-55.4	14.0	0.00e+00	0	23	0	163577856	71	4927
2026-01-10 02:47:25.48	27.92	10.93	-52.9	-55.7	13.8	0.00e+00	0	23	0	165675008	71	5128
2026-01-10 02:47:26.48	27.84	11.01	-52.6	-55.3	14.1	0.00e+00	0	23	0	167772160	71	4871
2026-01-10 02:47:27.47	27.76	11.09	-52.6	-55.3	14.1	0.00e+00	0	23	0	169869312	71	4884
2026-01-10 02:47:28.47	27.68	11.17	-52.7	-55.4	14.0	0.00e+00	0	23	0	170917888	71	4952
2026-01-10 02:47:29.47	27.60	11.25	-52.7	-55.4	14.0	0.00e+00	0	23	0	173015040	71	4938
2026-01-10 02:47:30.46	27.52	11.33	-52.2	-54.7	14.5	0.00e+00	0	23	0	175112192	71	4564
2026-01-10 02:47:31.46	27.44	11.41	-52.4	-55.0	14.3	0.00e+00	0	23	0	177209344	71	4737
2026-01-10 02:47:32.46	27.35	11.50	-52.3	-54.7	14.4	0.00e+00	0	23	0	179306496	71	4597
2026-01-10 02:47:33.47	27.27	11.58	-52.1	-54.5	14.4	0.00e+00	0	23	0	180355072	70	4726
2026-01-10 02:47:34.47	27.19	11.66	-52.1	-54.5	14.4	0.00e+00	0	23	0	182452224	70	4739
2026-01-10 02:47:35.46	27.10	11.75	-52.1	-54.6	14.3	0.00e+00	0	23	0	184549376	70	4775
2026-01-10 02:47:36.46	27.02	11.83	-52.0	-54.4	14.5	0.00e+00	0	23	0	186646528	70	4663
2026-01-10 02:47:37.45	26.94	11.91	-52.0	-54.3	14.5	0.00e+00	0	23	0	188743680	70	4646
2026-01-10 02:47:38.45	26.85	12.00	-51.7	-54.0	14.8	0.00e+00	0	23	0	189792256	70	4454
2026-01-10 02:47:39.46	26.76	12.08	-52.1	-54.4	14.4	0.00e+00	0	23	0	191889408	70	4699
2026-01-10 02:47:40.47	26.68	12.17	-52.0	-54.3	14.5	0.00e+00	0	23	0	193986560	70	4627
2026-01-10 02:47:41.47	26.59	12.25	-52.1	-54.5	14.4	0.00e+00	0	23	0	196083712	70	4723
2026-01-10 02:47:42.47	26.50	12.34	-52.1	-54.5	14.4	0.00e+00	0	23	0	198180864	70	4747
2026-01-10 02:47:43.47	26.42	12.42	-52.0	-54.3	14.5	0.00e+00	0	23	0	199229440	70	4639
2026-01-10 02:47:44.47	26.33	12.51	-52.0	-54.4	14.5	0.00e+00	0	23	0	201326592	70	4680
2026-01-10 02:47:45.47	26.24	12.59	-52.0	-54.3	14.5	0.00e+00	0	23	0	203423744	70	4641
2026-01-10 02:47:46.47	26.15	12.68	-51.9	-54.1	14.6	0.00e+00	0	23	0	205520896	70	4539
2026-01-10 02:47:47.47	26.06	12.76	-52.0	-54.4	14.5	0.00e+00	0	23	0	206569472	70	4671
2026-01-10 02:47:48.47	25.97	12.85	-51.9	-54.2	14.6	0.00e+00	0	23	0	208666624	70	4551
2026-01-10 02:47:49.47	25.88	12.94	-51.8	-54.1	14.5	0.00e+00	0	23	0	210763776	69	4780
2026-01-10 02:47:50.47	25.78	13.02	-51.8	-54.1	14.5	0.00e+00	0	23	0	212860928	69	4774
2026-01-10 02:47:51.47	25.69	13.11	-51.8	-54.0	14.6	0.00e+00	0	23	0	214958080	69	4743
2026-01-10 02:47:52.48	25.60	13.20	-51.8	-54.1	14.5	0.00e+00	0	23	0	216006656	69	4770
2026-01-10 02:47:53.47	25.51	13.29	-51.7	-53.9	14.6	0.00e+00	0	23	0	218103808	69	4691
2026-01-10 02:47:54.48	25.41	13.37	-51.7	-53.8	14.7	0.00e+00	0	23	0	220200960	69	4635
2026-01-10 02:47:55.47	25.32	13.46	-51.8	-54.1	14.5	0.00e+00	0	23	0	222298112	69	4761
2026-01-10 02:47:56.46	25.22	13.55	-51.8	-54.0	14.6	0.00e+00	0	23	0	224395264	69	4736
2026-01-10 02:47:57.47	25.13	13.64	-51.9	-54.1	14.5	0.00e+00	0	23	0	225443840	69	4805
2026-01-10 02:47:58.47	25.03	13.73	-51.7	-53.9	14.6	0.00e+00	0	23	0	227540992	69	4665
2026-01-10 02:47:59.47	24.93	13.81	-51.8	-53.9	14.6	0.00e+00	0	23	0	229638144	69	4680
2026-01-10 02:48:00.47	24.84	13.90	-51.8	-53.9	14.6	0.00e+00	0	23	0	231735296	69	4695
2026-01-10 02:48:01.47	24.74	13.99	-51.8	-53.9	14.6	0.00e+00	0	23	0	232783872	69	4685
2026-01-10 02:48:02.47	24.64	14.08	-51.7	-53.8	14.7	0.00e+00	0	23	0	234881024	69	4610
2026-01-10 02:48:03.46	24.54	14.17	-52.0	-54.2	14.5	0.00e+00	0	23	0	236978176	69	4858
2026-01-10 02:48:04.47	24.44	14.26	-51.9	-54.1	14.5	0.00e+00	0	23	0	239075328	69	4764
2026-01-10 02:48:05.46	24.34	14.35	-51.9	-54.1	14.5	0.00e+00	0	23	0	241172480	69	4771
2026-01-10 02:48:06.46	24.24	14.44	-52.1	-54.4	14.4	0.00e+00	0	23	0	242221056	69	4957
2026-01-10 02:48:07.46	24.14	14.53	-52.0	-54.2	14.4	0.00e+00	0	23	0	244318208	69	4848
2026-01-10 02:48:08.46	24.03	14.62	-52.1	-54.3	14.4	0.00e+00	0	23	0	246415360	69	4908
2026-01-10 02:48:09.46	23.93	14.72	-52.2	-54.6	14.3	0.00e+00	0	23	0	248512512	69	5049
2026-01-10 02:48:10.46	23.83	14.81	-52.2	-54.5	14.3	0.00e+00	0	23	0	250609664	69	5023
2026-01-10 02:48:11.47	23.72	14.90	-52.4	-54.8	14.1	0.00e+00	0	23	0	251658240	69	5210
2026-01-10 02:48:12.47	23.62	14.99	-52.5	-54.9	14.2	0.00e+00	0	23	0	253755392	70	4952
2026-01-10 02:48:13.47	23.51	15.08	-52.3	-54.8	14.3	0.00e+00	0	23	0	255852544	70	4880
2026-01-10 02:48:14.46	23.41	15.18	-52.4	-54.8	14.3	0.00e+00	0	23	0	257949696	70	4875
2026-01-10 02:48:15.46	23.30	15.27	-52.3	-54.7	14.3	0.00e+00	0	23	0	260046848	70	4838
2026-01-10 02:48:16.46	23.19	15.36	-52.4	-54.8	14.3	0.00e+00	0	23	0	261095424	70	4871
2026-01-10 02:48:17.46	23.08	15.45	-52.2	-54.5	14.5	0.00e+00	0	23	0	263192576	70	4729
2026-01-10 02:48:18.46	22.97	15.55	-52.2	-54.5	14.5	0.00e+00	0	23	0	265289728	70	4715
2026-01-10 02:48:19.46	22.86	15.64	-52.1	-54.4	14.5	0.00e+00	0	23	0	267386880	70	4657
2026-01-10 02:48:20.46	22.75	15.74	-52.3	-54.6	14.4	0.00e+00	0	23	0	268435456	70	4779
2026-01-10 02:48:21.46	22.64	15.83	-52.1	-54.3	14.5	0.00e+00	0	23	0	270532608	70	4630
2026-01-10 02:48:22.46	22.53	15.92	-52.0	-54.1	14.6	0.00e+00	0	23	0	272629760	70	4540
2026-01-10 02:48:23.45	22.42	16.02	-51.9	-54.1	14.7	0.00e+00	0	23	0	274726912	70	4494
2026-01-10 02:48:24.45	22.30	16.11	-52.0	-54.1	14.7	0.00e+00	0	23	0	276824064	70	4533
2026-01-10 02:48:25.45	22.19	16.21	-51.7	-53.8	14.9	0.00e+00	0	23	0	277872640	70	4351
2026-01-10 02:48:26.44	22.07	16.30	-51.7	-53.7	14.8	0.00e+00	0	23	0	279969792	69	4572
2026-01-10 02:48:27.45	21.96	16.40	-51.7	-53.7	14.8	0.00e+00	0	23	0	282066944	69	4597
2026-01-10 02:48:28.44	21.84	16.50	-51.6	-53.6	14.8	0.00e+00	0	23	0	284164096	69	4540
2026-01-10 02:48:29.44	21.72	16.59	-51.4	-53.3	15.0	0.00e+00	0	23	0	286261248	69	4357
2026-01-10 02:48:30.44	21.61	16.69	-51.3	-53.1	15.1	0.00e+00	0	23	0	287309824	69	4274
2026-01-10 02:48:31.44	21.49	16.78	-51.3	-53.1	15.1	0.00e+00	0	23	0	289406976	69	4286
2026-01-10 02:48:32.43	21.37	16.88	-51.2	-53.0	15.0	0.00e+00	0	23	0	291504128	68	4470
2026-01-10 02:48:33.42	21.25	16.98	-51.2	-53.1	14.9	0.00e+00	0	23	0	293601280	68	4514
2026-01-10 02:48:34.42	21.13	17.07	-51.3	-53.2	14.9	0.00e+00	0	23	0	294649856	68	4592
2026-01-10 02:48:35.42	21.00	17.17	-51.4	-53.3	14.8	0.00e+00	0	23	0	296747008	68	4628
2026-01-10 02:48:36.41	20.88	17.27	-51.4	-53.3	14.8	0.00e+00	0	23	0	298844160	68	4629
2026-01-10 02:48:37.40	20.76	17.37	-51.5	-53.4	14.8	0.00e+00	0	23	0	300941312	68	4673
2026-01-10 02:48:38.40	20.64	17.47	-51.6	-53.6	14.7	0.00e+00	0	23	0	303038464	68	4793
2026-01-10 02:48:39.40	20.51	17.56	-51.6	-53.6	14.7	0.00e+00	0	23	0	304087040	68	4793
2026-01-10 02:48:40.40	20.38	17.66	-51.8	-53.9	14.7	0.00e+00	0	23	0	306184192	69	4673
2026-01-10 02:48:41.39	20.26	17.76	-51.9	-53.9	14.7	0.00e+00	0	23	0	308281344	69	4685
2026-01-10 02:48:42.40	20.13	17.86	-52.0	-54.1	14.5	0.00e+00	0	23	0	310378496	69	4808
2026-01-10 02:48:43.39	20.00	17.96	-52.0	-54.1	14.6	0.00e+00	0	23	0	312475648	69	4762
2026-01-10 02:48:44.38	19.87	18.06	-51.7	-53.7	14.7	0.00e+00	0	23	0	313524224	69	4594
2026-01-10 02:48:45.38	19.74	18.16	-51.7	-53.7	14.8	0.00e+00	0	23	0	315621376	69	4581
2026-01-10 02:48:46.38	19.61	18.26	-51.6	-53.7	14.8	0.00e+00	0	23	0	317718528	69	4565
2026-01-10 02:48:47.38	19.48	18.36	-51.5	-53.5	14.9	0.00e+00	0	23	0	319815680	69	4463
2026-01-10 02:48:48.38	19.34	18.46	-51.5	-53.5	14.9	0.00e+00	0	23	0	320864256	69	4462
2026-01-10 02:48:49.38	19.21	18.56	-51.5	-53.5	14.9	0.00e+00	0	23	0	322961408	69	4486
2026-01-10 02:48:50.38	19.08	18.67	-52.0	-54.2	14.5	0.00e+00	0	23	0	325058560	69	4819
2026-01-10 02:48:51.37	18.94	18.77	-51.6	-53.6	14.8	0.00e+00	0	23	0	327155712	69	4541
2026-01-10 02:48:52.37	18.80	18.87	-51.6	-53.6	14.8	0.00e+00	0	23	0	329252864	69	4531
2026-01-10 02:48:53.37	18.67	18.97	-51.7	-53.7	14.8	0.00e+00	0	23	0	330301440	69	4582
2026-01-10 02:48:54.38	18.52	19.07	-51.6	-53.7	14.8	0.00e+00	0	23	0	332398592	69	4552
2026-01-10 02:48:55.37	18.39	19.18	-51.7	-53.8	14.8	0.00e+00	0	23	0	334495744	69	4603
2026-01-10 02:48:56.38	18.24	19.28	-51.9	-54.1	14.6	0.00e+00	0	23	0	336592896	69	4761
2026-01-10 02:48:57.38	18.10	19.38	-52.0	-54.1	14.6	0.00e+00	0	23	0	337641472	69	4802
2026-01-10 02:48:58.38	17.96	19.49	-52.5	-54.9	14.2	0.00e+00	0	23	0	339738624	70	4945
2026-01-10 02:48:59.38	17.82	19.59	-52.3	-54.5	14.5	0.00e+00	0	23	0	341835776	70	4756
2026-01-10 02:49:00.38	17.67	19.69	-52.2	-54.5	14.5	0.00e+00	0	23	0	343932928	70	4718
2026-01-10 02:49:01.38	17.52	19.80	-52.2	-54.4	14.6	0.00e+00	0	23	0	346030080	70	4687
2026-01-10 02:49:02.39	17.38	19.90	-52.2	-54.4	14.6	0.00e+00	0	23	0	347078656	70	4673
2026-01-10 02:49:03.39	17.23	20.01	-52.4	-54.7	14.5	0.00e+00	0	23	0	349175808	70	4834
2026-01-10 02:49:04.39	17.08	20.11	-52.5	-54.8	14.4	0.00e+00	0	23	0	351272960	70	4908
2026-01-10 02:49:05.39	16.93	20.22	-52.3	-54.5	14.5	0.00e+00	0	23	0	353370112	70	4707
2026-01-10 02:49:06.38	16.78	20.32	-52.7	-55.1	14.2	0.00e+00	0	23	0	355467264	70	5081
2026-01-10 02:49:07.37	16.63	20.43	-52.3	-54.6	14.5	0.00e+00	0	23	0	356515840	70	4765
2026-01-10 02:49:08.37	16.48	20.53	-52.3	-54.5	14.5	0.00e+00	0	23	0	358612992	70	4714
2026-01-10 02:49:09.37	16.32	20.64	-52.4	-54.6	14.5	0.00e+00	0	23	0	360710144	70	4780
2026-01-10 02:49:10.37	16.17	20.75	-52.3	-54.4	14.5	0.00e+00	0	23	0	362807296	70	4698
2026-01-10 02:49:11.37	16.01	20.85	-52.4	-54.6	14.4	0.00e+00	0	23	0	363855872	70	4793
2026-01-10 02:49:12.37	15.85	20.96	-52.4	-54.6	14.4	0.00e+00	0	23	0	365953024	70	4813
2026-01-10 02:49:13.37	15.69	21.07	-52.5	-54.8	14.3	0.00e+00	0	23	0	368050176	70	4895
2026-01-10 02:49:14.37	15.53	21.17	-52.8	-55.3	14.1	0.00e+00	0	23	0	370147328	70	5189
2026-01-10 02:49:15.37	15.37	21.28	-52.4	-54.7	14.4	0.00e+00	0	23	0	372244480	70	4823
2026-01-10 02:49:16.37	15.21	21.39	-52.2	-54.5	14.5	0.00e+00	0	23	0	373293056	70	4711
2026-01-10 02:49:17.37	15.05	21.50	-52.2	-54.4	14.5	0.00e+00	0	23	0	375390208	70	4691
2026-01-10 02:49:18.37	14.88	21.60	-52.1	-54.2	14.7	0.00e+00	0	23	0	377487360	70	4581
2026-01-10 02:49:19.37	14.72	21.71	-52.1	-54.2	14.7	0.00e+00	0	23	0	379584512	70	4569
2026-01-10 02:49:20.37	14.55	21.82	-52.1	-54.3	14.6	0.00e+00	0	23	0	381681664	70	4601
2026-01-10 02:49:21.36	14.38	21.93	-51.8	-53.8	14.9	0.00e+00	0	23	0	382730240	70	4370
2026-01-10 02:49:22.36	14.22	22.04	-52.0	-54.3	14.7	0.00e+00	0	23	0	384827392	70	4599
2026-01-10 02:49:23.36	14.05	22.15	-51.9	-54.1	14.8	0.00e+00	0	23	0	386924544	70	4520
2026-01-10 02:49:24.36	13.87	22.26	-51.9	-54.0	14.8	0.00e+00	0	23	0	389021696	70	4462
2026-01-10 02:49:25.35	13.70	22.36	-51.9	-54.1	14.7	0.00e+00	0	23	0	391118848	70	4522
2026-01-10 02:49:26.35	13.53	22.47	-52.0	-54.1	14.8	0.00e+00	0	23	0	392167424	70	4542
2026-01-10 02:49:27.35	13.35	22.58	-51.7	-53.8	14.9	0.00e+00	0	23	0	394264576	70	4366
2026-01-10 02:49:28.34	13.18	22.69	-51.6	-53.7	14.8	0.00e+00	0	23	0	396361728	69	4589
2026-01-10 02:49:29.34	13.00	22.80	-51.5	-53.6	14.9	0.00e+00	0	23	0	398458880	69	4505
2026-01-10 02:49:30.34	12.82	22.91	-51.7	-53.8	14.8	0.00e+00	0	23	0	399507456	69	4624
2026-01-10 02:49:31.34	12.64	23.02	-51.5	-53.5	15.0	0.00e+00	0	23	0	401604608	69	4461
2026-01-10 02:49:32.34	12.46	23.13	-51.5	-53.4	15.0	0.00e+00	0	23	0	403701760	69	4402
2026-01-10 02:49:33.34	12.28	23.24	-51.6	-53.6	14.9	0.00e+00	0	23	0	405798912	69	4509
2026-01-10 02:49:34.33	12.09	23.35	-51.8	-53.8	14.8	0.00e+00	0	23	0	407896064	69	4630
2026-01-10 02:49:35.33	11.91	23.47	-51.8	-53.9	14.7	0.00e+00	0	23	0	408944640	69	4666
2026-01-10 02:49:36.32	11.72	23.58	-51.9	-54.0	14.7	0.00e+00	0	23	0	411041792	69	4716
2026-01-10 02:49:37.31	11.54	23.69	-52.0	-54.1	14.6	0.00e+00	0	23	0	413138944	69	4776
2026-01-10 02:49:38.30	11.35	23.80	-52.0	-54.0	14.7	0.00e+00	0	23	0	415236096	69	4758
2026-01-10 02:49:39.31	11.16	23.91	-52.2	-54.3	14.5	0.00e+00	0	23	0	416284672	69	4900
2026-01-10 02:49:40.30	10.97	24.02	-52.2	-54.4	14.5	0.00e+00	0	23	0	418381824	69	4955
2026-01-10 02:49:41.30	10.77	24.13	-52.5	-54.7	14.4	0.00e+00	0	23	0	420478976	70	4851
2026-01-10 02:49:42.30	10.58	24.24	-52.6	-54.9	14.3	0.00e+00	0	23	0	422576128	70	4982
2026-01-10 02:49:43.31	10.38	24.36	-52.8	-55.3	14.1	0.00e+00	0	23	0	424673280	70	5197
2026-01-10 02:49:44.31	10.18	24.47	-53.1	-55.7	14.0	0.00e+00	0	23	0	425721856	71	5122
2026-01-10 02:49:45.31	9.98	24.58	-53.0	-55.6	14.0	0.00e+00	0	23	0	427819008	71	5089
2026-01-10 02:49:46.31	9.78	24.69	-53.2	-55.9	13.8	0.00e+00	0	23	0	429916160	71	5279
2026-01-10 02:49:47.30	9.58	24.81	-53.1	-55.7	14.0	0.00e+00	0	23	0	432013312	71	5133
2026-01-10 02:49:48.31	9.37	24.92	-53.0	-55.6	14.1	0.00e+00	0	23	0	434110464	71	5070
2026-01-10 02:49:49.31	9.17	25.03	-52.9	-55.6	14.0	0.00e+00	0	23	0	435159040	71	5047
2026-01-10 02:49:50.31	8.96	25.14	-52.9	-55.4	14.2	0.00e+00	0	23	0	437256192	71	4976
2026-01-10 02:49:51.31	8.75	25.26	-53.1	-55.8	14.0	0.00e+00	0	23	0	439353344	71	5183
2026-01-10 02:49:52.31	8.54	25.37	-53.0	-55.8	13.9	0.00e+00	0	23	0	441450496	71	5191
2026-01-10 02:49:53.31	8.33	25.48	-53.0	-55.7	14.0	0.00e+00	0	23	0	442499072	71	5156
2026-01-10 02:49:54.30	8.12	25.59	-53.1	-55.9	13.9	0.00e+00	0	23	0	444596224	71	5239
2026-01-10 02:49:55.29	7.91	25.71	-52.9	-55.6	14.1	0.00e+00	0	23	0	446693376	71	5067
2026-01-10 02:49:56.30	7.69	25.82	-52.9	-55.5	14.1	0.00e+00	0	23	0	448790528	71	5022
2026-01-10 02:49:57.30	7.47	25.93	-52.8	-55.5	14.1	0.00e+00	0	23	0	450887680	71	4995
2026-01-10 02:49:58.30	7.25	26.05	-52.8	-55.3	14.2	0.00e+00	0	23	0	451936256	71	4923
2026-01-10 02:49:59.29	7.03	26.16	-52.7	-55.3	14.2	0.00e+00	0	23	0	454033408	71	4871
2026-01-10 02:50:00.30	6.81	26.27	-52.6	-55.0	14.4	0.00e+00	0	23	0	456130560	71	4749
2026-01-10 02:50:01.30	6.58	26.39	-52.7	-55.2	14.3	0.00e+00	0	23	0	458227712	71	4846
2026-01-10 02:50:02.30	6.36	26.50	-52.5	-54.8	14.5	0.00e+00	0	23	0	460324864	71	4616
2026-01-10 02:50:03.30	6.13	26.61	-52.5	-54.9	14.5	0.00e+00	0	23	0	461373440	71	4702
2026-01-10 02:50:04.29	5.90	26.72	-52.7	-55.2	14.4	0.00e+00	0	23	0	463470592	71	4821
2026-01-10 02:50:05.29	5.67	26.84	-52.7	-55.1	14.4	0.00e+00	0	23	0	465567744	71	4762
2026-01-10 02:50:06.28	5.44	26.95	-52.5	-54.8	14.5	0.00e+00	0	23	0	467664896	71	4649
2026-01-10 02:50:07.29	5.21	27.06	-52.7	-55.0	14.4	0.00e+00	0	23	0	469762048	71	4744
2026-01-10 02:50:08.29	4.97	27.18	-52.8	-55.2	14.3	0.00e+00	0	23	0	470810624	71	4840
2026-01-10 02:50:09.29	4.73	27.29	-52.9	-55.4	14.2	0.00e+00	0	23	0	472907776	71	4966
2026-01-10 02:50:10.29	4.50	27.40	-52.8	-55.3	14.3	0.00e+00	0	23	0	475004928	71	4888
2026-01-10 02:50:11.29	4.25	27.51	-53.0	-55.5	14.2	0.00e+00	0	23	0	477102080	71	5007
2026-01-10 02:50:12.29	4.01	27.63	-52.8	-55.2	14.3	0.00e+00	0	23	0	478150656	71	4853
2026-01-10 02:50:13.29	3.77	27.74	-52.7	-55.0	14.4	0.00e+00	0	23	0	480247808	71	4756
2026-01-10 02:50:14.30	3.52	27.85	-52.5	-54.8	14.5	0.00e+00	0	23	0	482344960	71	4641
2026-01-10 02:50:15.29	3.27	27.96	-52.5	-54.9	14.5	0.00e+00	0	23	0	484442112	71	4662
2026-01-10 02:50:16.29	3.02	28.07	-52.7	-55.2	14.4	0.00e+00	0	23	0	486539264	71	4820
2026-01-10 02:50:17.29	2.77	28.19	-52.8	-55.2	14.3	0.00e+00	0	23	0	487587840	71	4862
2026-01-10 02:50:18.29	2.52	28.30	-52.8	-55.2	14.4	0.00e+00	0	23	0	489684992	71	4816
2026-01-10 02:50:19.29	2.27	28.41	-52.9	-55.3	14.2	0.00e+00	0	23	0	491782144	71	4926
2026-01-10 02:50:20.29	2.01	28.52	-53.1	-55.6	14.1	0.00e+00	0	23	0	493879296	71	5086
2026-01-10 02:50:21.29	1.75	28.63	-53.2	-55.8	14.0	0.00e+00	0	23	0	495976448	71	5178
2026-01-10 02:50:22.29	1.49	28.74	-53.0	-55.5	14.1	0.00e+00	0	23	0	497025024	71	5020
2026-01-10 02:50:23.28	1.23	28.85	-53.1	-55.5	14.2	0.00e+00	0	23	0	499122176	71	5026
2026-01-10 02:50:24.28	0.97	28.96	-53.0	-55.4	14.2	0.00e+00	0	23	0	501219328	71	4955
2026-01-10 02:50:25.28	0.70	29.07	-53.1	-55.6	14.1	0.00e+00	0	23	0	503316480	71	5044
2026-01-10 02:50:26.28	0.43	29.18	-53.1	-55.6	14.1	0.00e+00	0	23	0	504365056	71	5084
2026-01-10 02:50:27.28	0.16	29.29	-52.9	-55.3	14.2	0.00e+00	0	23	0	506462208	71	4913
2026-01-10 02:50:28.28	359.89	29.40	-52.5	-54.8	14.5	0.00e+00	0	23	0	508559360	71	4629
2026-01-10 02:50:29.28	359.62	29.51	-52.3	-54.4	14.8	0.00e+00	0	23	0	510656512	71	4421
2026-01-10 02:50:30.28	359.35	29.62	-52.3	-54.6	14.5	0.00e+00	0	23	0	512753664	70	4764
2026-01-10 02:50:31.27	359.07	29.72	-52.6	-55.1	14.2	0.00e+00	0	23	0	513802240	70	5065
2026-01-10 02:50:32.27	358.79	29.83	-52.7	-55.2	14.2	0.00e+00	0	23	0	515899392	70	5137
2026-01-10 02:50:33.27	358.51	29.94	-53.0	-55.6	14.1	0.00e+00	0	23	0	517996544	71	5098
2026-01-10 02:50:34.28	358.23	30.05	-53.0	-55.6	14.1	0.00e+00	0	23	0	520093696	71	5078
2026-01-10 02:50:35.28	357.94	30.15	-53.0	-55.8	13.9	0.00e+00	0	23	0	522190848	71	5179
2026-01-10 02:50:36.28	357.66	30.26	-52.9	-55.7	14.1	0.00e+00	0	23	0	523239424	71	5113
2026-01-10 02:50:37.28	357.37	30.37	-53.1	-56.0	13.8	0.00e+00	0	23	0	525336576	71	5318
2026-01-10 02:50:38.28	357.08	30.47	-53.4	-56.4	13.6	0.00e+00	0	23	0	527433728	71	5572
2026-01-10 02:50:39.29	356.78	30.58	-54.1	-57.7	13.1	0.00e+00	0	23	0	529530880	73	5750
2026-01-10 02:50:40.29	356.49	30.68	-54.5	-58.7	12.5	7.00e-07	0	23	0	531628032	74	6067
2026-01-10 02:50:41.28	356.20	30.79	-54.6	-58.6	12.5	7.00e-07	0	23	0	532676608	74	6047
2026-01-10 02:50:42.29	355.90	30.89	-54.6	-58.8	12.4	7.00e-07	0	23	0	534773760	74	6162
2026-01-10 02:50:43.29	355.60	30.99	-54.2	-57.8	13.0	7.00e-07	0	23	0	536870912	74	5526
2026-01-10 02:50:44.30	355.29	31.10	-54.1	-57.5	13.3	0.00e+00	0	23	0	538968064	74	5313
2026-01-10 02:50:45.29	354.99	31.20	-53.3	-56.1	14.1	0.00e+00	0	23	0	540016640	73	4799
2026-01-10 02:50:46.30	354.68	31.30	-53.1	-55.7	14.2	0.00e+00	0	23	0	542113792	72	4866
2026-01-10 02:50:47.29	354.38	31.40	-53.3	-56.2	13.9	0.00e+00	0	23	0	544210944	72	5116
2026-01-10 02:50:48.30	354.06	31.50	-53.8	-57.0	13.4	0.00e+00	0	23	0	546308096	72	5624
2026-01-10 02:50:49.30	353.75	31.60	-54.3	-58.0	12.9	0.00e+00	0	23	0	548405248	73	5927
2026-01-10 02:50:50.30	353.44	31.70	-54.5	-58.3	12.6	7.00e-07	0	23	0	549453824	74	5839
2026-01-10 02:50:51.30	353.12	31.80	-54.4	-58.3	12.6	0.00e+00	0	23	0	551550976	74	5836
2026-01-10 02:50:52.30	352.81	31.90	-54.2	-57.9	12.9	0.00e+00	0	23	0	553648128	74	5583
2026-01-10 02:50:53.30	352.49	31.99	-54.3	-58.1	12.8	0.00e+00	0	23	0	555745280	74	5662
2026-01-10 02:50:54.30	352.17	32.09	-54.3	-58.1	12.8	0.00e+00	0	24	0	557842432	74	5686
2026-01-10 02:50:55.30	351.84	32.18	-54.5	-58.5	12.5	7.00e-07	0	23	0	558891008	74	5977
2026-01-10 02:50:56.29	351.52	32.28	-54.9	-59.3	12.0	9.90e-06	0	23	0	560988160	75	6154
2026-01-10 02:50:57.28	351.20	32.37	-55.0	-59.8	11.6	9.90e-06	0	23	0	563085312	75	6532
2026-01-10 02:50:58.28	350.87	32.46	-55.0	-59.9	11.6	7.60e-06	0	24	0	565182464	75	6631
2026-01-10 02:50:59.29	350.54	32.56	-54.9	-59.6	11.8	1.52e-05	0	24	0	567279616	75	6405
2026-01-10 02:51:00.28	350.21	32.65	-54.8	-59.4	11.9	1.06e-05	0	23	0	568328192	75	6260
2026-01-10 02:51:01.28	349.87	32.74	-54.8	-59.3	12.0	3.80e-06	0	23	0	570425344	75	6201
2026-01-10 02:51:02.29	349.53	32.83	-55.3	-60.6	11.0	3.05e-05	0	23	0	572522496	75	7173
2026-01-10 02:51:03.29	349.20	32.92	-55.1	-60.2	11.4	3.43e-05	0	23	0	574619648	75	6825
2026-01-10 02:51:04.28	348.86	33.01	-54.7	-59.0	12.3	0.00e+00	0	23	0	575668224	75	5983
2026-01-10 02:51:05.28	348.52	33.09	-53.8	-57.2	13.5	0.00e+00	0	23	0	577765376	74	5109
2026-01-10 02:51:06.28	348.17	33.18	-53.5	-56.5	13.8	0.00e+00	0	24	0	579862528	73	5022
2026-01-10 02:51:07.28	347.83	33.27	-53.4	-56.4	13.9	0.00e+00	0	23	0	581959680	73	4955
2026-01-10 02:51:08.27	347.48	33.35	-53.7	-56.9	13.6	0.00e+00	0	23	0	584056832	73	5258
2026-01-10 02:51:09.27	347.14	33.43	-54.1	-57.8	13.0	0.00e+00	0	23	0	585105408	73	5824
2026-01-10 02:51:10.27	346.78	33.52	-54.3	-58.1	12.7	7.00e-07	0	23	0	587202560	73	6025
2026-01-10 02:51:11.26	346.44	33.60	-54.3	-58.1	12.9	0.00e+00	0	23	0	589299712	74	5665
2026-01-10 02:51:12.26	346.08	33.68	-53.9	-57.2	13.5	0.00e+00	0	23	0	591396864	74	5113
2026-01-10 02:51:13.26	345.72	33.76	-53.5	-56.5	13.8	0.00e+00	0	23	0	592445440	73	5031
2026-01-10 02:51:14.26	345.37	33.84	-53.1	-56.0	13.9	0.00e+00	0	23	0	594542592	72	5041
2026-01-10 02:51:15.26	345.01	33.91	-53.3	-56.4	13.7	0.00e+00	0	23	0	596639744	72	5276
2026-01-10 02:51:16.26	344.65	33.99	-53.6	-57.3	13.0	0.00e+00	0	24	0	598736896	72	5802
2026-01-10 02:51:17.26	344.28	34.07	-54.0	-58.2	12.6	0.00e+00	0	23	0	600834048	73	6084
2026-01-10 02:51:18.26	343.92	34.14	-54.3	-58.8	12.3	3.80e-06	0	23	0	601882624	74	6148
2026-01-10 02:51:19.26	343.55	34.21	-53.7	-57.5	13.2	0.00e+00	0	24	0	603979776	74	5340
2026-01-10 02:51:20.25	343.19	34.28	-53.4	-56.7	13.7	0.00e+00	0	24	0	606076928	73	5126
2026-01-10 02:51:21.26	342.81	34.35	-53.3	-56.4	13.9	0.00e+00	0	23	0	608174080	73	4976
2026-01-10 02:51:22.26	342.44	34.42	-53.3	-56.5	13.6	0.00e+00	0	24	0	610271232	72	5338
2026-01-10 02:51:23.26	342.07	34.49	-53.6	-57.1	13.2	0.00e+00	0	24	0	611319808	72	5697
2026-01-10 02:51:24.26	341.69	34.56	-53.8	-57.5	13.0	0.00e+00	0	24	0	613416960	72	5925
2026-01-10 02:51:25.26	341.32	34.62	-53.5	-56.9	13.4	0.00e+00	0	23	0	615514112	72	5565
2026-01-10 02:51:26.25	340.95	34.69	-52.9	-55.7	14.1	0.00e+00	0	23	0	617611264	72	4861
2026-01-10 02:51:27.25	340.57	34.75	-52.3	-54.7	14.7	0.00e+00	0	24	0	618659840	71	4580
2026-01-10 02:51:28.24	340.19	34.81	-51.9	-54.1	14.8	0.00e+00	0	23	0	620756992	70	4515
2026-01-10 02:51:29.23	339.81	34.87	-51.1	-53.0	15.0	0.00e+00	0	23	0	622854144	68	4493
2026-01-10 02:51:30.22	339.43	34.93	-51.2	-53.3	14.9	0.00e+00	0	23	0	624951296	68	4611
2026-01-10 02:51:31.21	339.05	34.99	-51.6	-53.8	14.7	0.00e+00	0	24	0	627048448	68	4881
2026-01-10 02:51:32.22	338.66	35.04	-51.5	-53.8	14.7	0.00e+00	0	24	0	628097024	68	4875
2026-01-10 02:51:33.21	338.28	35.10	-51.5	-53.7	14.7	0.00e+00	0	23	0	630194176	68	4853
2026-01-10 02:51:34.21	337.89	35.15	-51.1	-53.2	14.9	0.00e+00	0	24	0	632291328	68	4558
2026-01-10 02:51:35.21	337.50	35.20	-50.9	-52.9	15.1	0.00e+00	0	23	0	634388480	68	4408
2026-01-10 02:51:36.21	337.11	35.26	-51.3	-53.5	14.8	0.00e+00	0	23	0	635437056	68	4707
2026-01-10 02:51:37.20	336.72	35.30	-51.9	-54.3	14.4	0.00e+00	0	23	0	637534208	68	5163
2026-01-10 02:51:38.20	336.33	35.35	-52.0	-54.4	14.3	0.00e+00	0	24	0	639631360	69	4976
2026-01-10 02:51:39.19	335.93	35.40	-52.0	-54.4	14.5	0.00e+00	0	24	0	641728512	69	4929
2026-01-10 02:51:40.19	335.54	35.44	-51.7	-53.8	14.8	0.00e+00	0	24	0	643825664	69	4648
2026-01-10 02:51:41.19	335.14	35.49	-51.4	-53.4	15.0	0.00e+00	0	23	0	644874240	69	4431
2026-01-10 02:51:42.19	334.74	35.53	-50.9	-52.8	15.1	0.00e+00	0	23	0	646971392	68	4391
2026-01-10 02:51:43.19	334.34	35.57	-50.9	-52.9	15.2	0.00e+00	0	24	0	649068544	68	4392
2026-01-10 02:51:44.19	333.95	35.61	-51.3	-53.4	14.9	0.00e+00	0	24	0	651165696	68	4668
2026-01-10 02:51:45.19	333.54	35.64	-51.5	-53.6	14.8	0.00e+00	0	24	0	653262848	68	4770
2026-01-10 02:51:46.18	333.15	35.68	-51.4	-53.5	14.7	0.00e+00	0	23	0	654311424	68	4722
2026-01-10 02:51:47.18	332.74	35.71	-51.3	-53.3	14.9	0.00e+00	0	24	0	656408576	68	4631
2026-01-10 02:51:48.18	332.34	35.75	-51.3	-53.3	14.9	0.00e+00	0	24	0	658505728	68	4628
2026-01-10 02:51:49.19	331.93	35.78	-51.3	-53.3	14.9	0.00e+00	0	24	0	660602880	68	4608
2026-01-10 02:51:50.19	331.53	35.81	-51.3	-53.4	14.8	0.00e+00	0	23	0	662700032	68	4675
2026-01-10 02:51:51.18	331.12	35.83	-51.4	-53.5	14.8	0.00e+00	0	24	0	663748608	68	4730
2026-01-10 02:51:52.19	330.71	35.86	-51.1	-53.0	15.1	0.00e+00	0	24	0	665845760	68	4444
2026-01-10 02:51:53.19	330.31	35.89	-50.5	-52.2	15.2	0.00e+00	0	23	0	667942912	67	4329
2026-01-10 02:51:54.19	329.90	35.91	-50.3	-52.0	15.2	0.00e+00	0	24	0	670040064	66	4482
2026-01-10 02:51:55.18	329.50	35.93	-50.6	-52.4	15.0	0.00e+00	0	24	0	671088640	66	4671
2026-01-10 02:51:56.18	329.09	35.95	-50.8	-52.7	14.9	0.00e+00	0	24	0	673185792	66	4856
2026-01-10 02:51:57.18	328.68	35.97	-51.7	-53.8	14.7	0.00e+00	0	24	0	675282944	68	4906
2026-01-10 02:51:58.18	328.27	35.98	-52.3	-54.5	14.5	0.00e+00	0	24	0	677380096	69	5013
2026-01-10 02:51:59.18	327.86	36.00	-52.6	-54.9	14.4	0.00e+00	0	23	0	679477248	70	4968
2026-01-10 02:52:00.18	327.45	36.01	-52.7	-55.1	14.2	0.00e+00	0	24	0	680525824	70	5089
2026-01-10 02:52:01.18	327.04	36.02	-52.8	-55.2	14.3	0.00e+00	0	24	0	682622976	71	4860
2026-01-10 02:52:02.18	326.63	36.03	-52.4	-54.5	14.7	0.00e+00	0	23	0	684720128	71	4481
2026-01-10 02:52:03.17	326.22	36.04	-51.9	-53.9	15.0	0.00e+00	0	23	0	686817280	70	4408
2026-01-10 02:52:04.18	325.80	36.05	-52.0	-54.1	14.8	0.00e+00	0	24	0	687865856	70	4505
2026-01-10 02:52:05.18	325.39	36.05	-52.3	-54.5	14.6	0.00e+00	0	23	0	689963008	70	4719
2026-01-10 02:52:06.18	324.98	36.05	-52.5	-54.9	14.4	0.00e+00	0	24	0	692060160	70	4939
2026-01-10 02:52:07.18	324.57	36.05	-52.7	-55.1	14.3	0.00e+00	0	23	0	694157312	70	5063
2026-01-10 02:52:08.18	324.16	36.05	-52.6	-54.9	14.5	0.00e+00	0	24	0	696254464	71	4680
2026-01-10 02:52:09.19	323.74	36.05	-52.3	-54.5	14.7	0.00e+00	0	24	0	697303040	71	4491
2026-01-10 02:52:10.19	323.33	36.05	-51.7	-53.6	15.1	0.00e+00	0	24	0	699400192	70	4271
2026-01-10 02:52:11.19	322.92	36.04	-51.5	-53.4	15.0	0.00e+00	0	24	0	701497344	69	4419
2026-01-10 02:52:12.18	322.51	36.03	-51.5	-53.4	15.0	0.00e+00	0	24	0	703594496	69	4436
2026-01-10 02:52:13.18	322.10	36.02	-52.1	-54.3	14.5	0.00e+00	0	24	0	705691648	69	4918
2026-01-10 02:52:14.18	321.69	36.01	-52.7	-55.1	14.3	0.00e+00	0	23	0	706740224	70	5043
2026-01-10 02:52:15.18	321.28	36.00	-52.7	-55.1	14.3	0.00e+00	0	24	0	708837376	70	5058
2026-01-10 02:52:16.17	320.87	35.99	-52.8	-55.3	14.3	0.00e+00	0	23	0	710934528	71	4891
2026-01-10 02:52:17.18	320.46	35.97	-53.4	-56.2	13.8	0.00e+00	0	23	0	713031680	71	5461
2026-01-10 02:52:18.18	320.05	35.95	-53.2	-56.1	13.9	0.00e+00	0	23	0	715128832	71	5388
2026-01-10 02:52:19.18	319.64	35.94	-52.7	-55.4	14.2	0.00e+00	0	23	0	716177408	71	4938
2026-01-10 02:52:20.18	319.23	35.92	-52.7	-55.2	14.3	0.00e+00	0	23	0	718274560	71	4858
2026-01-10 02:52:21.19	318.82	35.89	-52.6	-55.1	14.4	0.00e+00	0	23	0	720371712	71	4805
2026-01-10 02:52:22.19	318.41	35.87	-52.7	-55.2	14.4	0.00e+00	0	24	0	722468864	71	4853
2026-01-10 02:52:23.19	318.00	35.84	-53.0	-55.8	14.0	0.00e+00	0	23	0	724566016	71	5192
2026-01-10 02:52:24.18	317.60	35.82	-53.8	-57.1	13.4	0.00e+00	0	24	0	725614592	72	5708
2026-01-10 02:52:25.18	317.20	35.79	-54.2	-58.0	12.9	0.00e+00	0	23	0	727711744	73	5931
2026-01-10 02:52:26.18	316.79	35.76	-53.9	-57.6	13.2	0.00e+00	0	23	0	729808896	73	5676
2026-01-10 02:52:27.18	316.39	35.72	-53.7	-57.0	13.4	0.00e+00	0	24	0	731906048	73	5332
2026-01-10 02:52:28.17	315.99	35.69	-53.3	-56.3	14.0	0.00e+00	0	23	0	732954624	73	4902
2026-01-10 02:52:29.17	315.59	35.66	-52.7	-55.4	14.4	0.00e+00	0	23	0	735051776	72	4693
2026-01-10 02:52:30.17	315.18	35.62	-52.3	-54.7	14.7	0.00e+00	0	23	0	737148928	71	4566
2026-01-10 02:52:31.17	314.78	35.58	-52.4	-54.9	14.5	0.00e+00	0	24	0	739246080	71	4689
2026-01-10 02:52:32.17	314.38	35.54	-52.7	-55.5	14.2	0.00e+00	0	24	0	741343232	71	4990
2026-01-10 02:52:33.16	313.99	35.50	-53.1	-56.1	13.8	0.00e+00	0	24	0	742391808	71	5378
2026-01-10 02:52:34.16	313.59	35.46	-53.3	-56.3	13.8	0.00e+00	0	23	0	744488960	72	5180
2026-01-10 02:52:35.16	313.20	35.41	-53.5	-56.7	13.6	0.00e+00	0	24	0	746586112	72	5458
2026-01-10 02:52:36.15	312.80	35.37	-53.5	-56.6	13.7	0.00e+00	0	24	0	748683264	72	5359
2026-01-10 02:52:37.16	312.41	35.32	-53.8	-57.1	13.3	0.00e+00	0	23	0	749731840	72	5672
2026-01-10 02:52:38.16	312.01	35.27	-52.7	-55.4	14.3	0.00e+00	0	23	0	751828992	72	4656
2026-01-10 02:52:39.15	311.63	35.22	-52.6	-55.3	14.2	0.00e+00	0	24	0	753926144	71	4900
2026-01-10 02:52:40.15	311.24	35.17	-52.4	-55.1	14.4	0.00e+00	0	24	0	756023296	71	4779
2026-01-10 02:52:41.15	310.85	35.12	-52.4	-55.1	14.4	0.00e+00	0	24	0	758120448	71	4765
2026-01-10 02:52:42.15	310.46	35.06	-52.3	-54.8	14.5	0.00e+00	0	23	0	759169024	71	4638
2026-01-10 02:52:43.14	310.07	35.01	-52.3	-54.8	14.5	0.00e+00	0	24	0	761266176	70	4876
2026-01-10 02:52:44.15	309.69	34.95	-52.5	-55.2	14.2	0.00e+00	0	24	0	763363328	70	5124
2026-01-10 02:52:45.16	309.30	34.89	-53.0	-56.1	13.7	0.00e+00	0	23	0	765460480	71	5367
2026-01-10 02:52:46.16	308.91	34.83	-52.9	-55.8	13.9	0.00e+00	0	23	0	767557632	71	5185
2026-01-10 02:52:47.16	308.53	34.77	-52.8	-55.6	14.1	0.00e+00	0	24	0	768606208	71	5044
2026-01-10 02:52:48.17	308.15	34.70	-52.6	-55.2	14.3	0.00e+00	0	24	0	770703360	71	4858
2026-01-10 02:52:49.17	307.77	34.64	-52.6	-55.2	14.4	0.00e+00	0	24	0	772800512	71	4820
2026-01-10 02:52:50.17	307.40	34.57	-52.2	-54.6	14.6	0.00e+00	0	23	0	774897664	71	4540
2026-01-10 02:52:51.17	307.02	34.51	-51.8	-54.0	14.9	0.00e+00	0	23	0	776994816	70	4474
2026-01-10 02:52:52.17	306.65	34.44	-51.9	-54.2	14.7	0.00e+00	0	23	0	778043392	70	4574
2026-01-10 02:52:53.17	306.27	34.37	-52.6	-55.4	14.0	0.00e+00	0	24	0	780140544	70	5238
2026-01-10 02:52:54.17	305.90	34.30	-52.9	-55.8	14.0	0.00e+00	0	24	0	782237696	71	5205
2026-01-10 02:52:55.17	305.53	34.23	-53.5	-56.8	13.4	0.00e+00	0	23	0	784334848	72	5492
2026-01-10 02:52:56.18	305.16	34.16	-53.6	-57.0	13.4	0.00e+00	0	24	0	785383424	72	5649
2026-01-10 02:52:57.18	304.80	34.08	-53.4	-56.5	13.7	0.00e+00	0	23	0	787480576	72	5315
2026-01-10 02:52:58.18	304.43	34.01	-52.7	-55.3	14.3	0.00e+00	0	23	0	789577728	72	4643
2026-01-10 02:52:59.18	304.07	33.93	-52.2	-54.4	14.8	0.00e+00	0	24	0	791674880	71	4409
2026-01-10 02:53:00.19	303.71	33.85	-52.2	-54.3	14.7	0.00e+00	0	23	0	793772032	70	4649
2026-01-10 02:53:01.19	303.35	33.77	-52.0	-54.2	14.8	0.00e+00	0	24	0	794820608	70	4550
2026-01-10 02:53:02.19	302.99	33.69	-52.3	-54.7	14.5	0.00e+00	0	23	0	796917760	70	4823
2026-01-10 02:53:03.18	302.64	33.62	-52.6	-55.1	14.2	0.00e+00	0	24	0	799014912	70	5075
2026-01-10 02:53:04.19	302.28	33.53	-53.3	-56.2	13.8	0.00e+00	0	23	0	801112064	71	5416
2026-01-10 02:53:05.19	301.93	33.45	-53.8	-57.1	13.3	0.00e+00	0	24	0	803209216	72	5698
2026-01-10 02:53:06.20	301.58	33.37	-54.1	-57.8	12.9	0.00e+00	0	23	0	804257792	73	5794
2026-01-10 02:53:07.19	301.23	33.28	-54.6	-58.7	12.5	0.00e+00	0	24	0	806354944	74	6121
2026-01-10 02:53:08.18	300.89	33.20	-54.2	-57.8	13.1	1.50e-06	0	23	0	808452096	74	5506
2026-01-10 02:53:09.18	300.55	33.11	-53.7	-56.9	13.8	0.00e+00	0	24	0	810549248	74	4962
2026-01-10 02:53:10.18	300.20	33.02	-53.9	-57.2	13.5	0.00e+00	0	24	0	811597824	74	5157
2026-01-10 02:53:11.19	299.86	32.93	-53.6	-56.7	13.8	0.00e+00	0	24	0	813694976	73	5133
2026-01-10 02:53:12.19	299.52	32.85	-53.5	-56.5	13.8	0.00e+00	0	24	0	815792128	73	5014
2026-01-10 02:53:13.19	299.18	32.76	-53.4	-56.4	13.9	0.00e+00	0	24	0	817889280	73	4982
2026-01-10 02:53:14.19	298.85	32.66	-53.7	-57.0	13.6	0.00e+00	0	24	0	819986432	73	5291
2026-01-10 02:53:15.20	298.51	32.57	-54.0	-57.6	13.0	7.00e-07	0	24	0	822083584	73	5703
2026-01-10 02:53:16.21	298.18	32.48	-54.1	-57.7	12.9	0.00e+00	0	24	0	823132160	73	5771
2026-01-10 02:53:17.21	297.85	32.39	-53.4	-56.4	13.8	0.00e+00	0	23	0	825229312	73	4983
2026-01-10 02:53:18.21	297.52	32.29	-53.3	-56.3	14.0	0.00e+00	0	23	0	827326464	73	4901
2026-01-10 02:53:19.21	297.19	32.20	-53.3	-56.1	14.1	0.00e+00	0	24	0	829423616	73	4794
2026-01-10 02:53:20.22	296.87	32.10	-53.3	-56.2	13.9	0.00e+00	0	24	0	830472192	72	5122
2026-01-10 02:53:21.22	296.55	32.00	-53.1	-55.7	14.1	0.00e+00	0	24	0	832569344	72	4863
2026-01-10 02:53:22.21	296.23	31.91	-52.7	-55.2	14.4	0.00e+00	0	24	0	834666496	71	4852
2026-01-10 02:53:23.22	295.91	31.81	-52.0	-54.3	14.7	0.00e+00	0	24	0	836763648	70	4623
2026-01-10 02:53:24.22	295.59	31.71	-52.4	-54.8	14.5	0.00e+00	0	24	0	838860800	70	4890
2026-01-10 02:53:25.22	295.28	31.61	-52.8	-55.5	14.1	0.00e+00	0	24	0	839909376	70	5285
2026-01-10 02:53:26.21	294.97	31.51	-53.3	-56.3	13.7	0.00e+00	0	23	0	842006528	71	5514
2026-01-10 02:53:27.21	294.66	31.41	-53.5	-56.6	13.6	0.00e+00	0	24	0	844103680	72	5380
2026-01-10 02:53:28.21	294.35	31.31	-53.4	-56.4	13.7	0.00e+00	0	24	0	846200832	72	5252
2026-01-10 02:53:29.21	294.04	31.21	-53.0	-55.8	14.1	0.00e+00	0	24	0	848297984	72	4880
2026-01-10 02:53:30.21	293.74	31.11	-52.7	-55.2	14.4	0.00e+00	0	24	0	849346560	71	4850
2026-01-10 02:53:31.21	293.44	31.01	-52.1	-54.3	14.7	0.00e+00	0	24	0	851443712	70	4623
2026-01-10 02:53:32.22	293.13	30.90	-51.8	-53.9	14.9	0.00e+00	0	24	0	853540864	70	4412
2026-01-10 02:53:33.21	292.84	30.80	-52.2	-54.5	14.6	0.00e+00	0	24	0	855638016	70	4737
2026-01-10 02:53:34.22	292.54	30.69	-53.1	-55.8	14.0	0.00e+00	0	24	0	856686592	71	5177
2026-01-10 02:53:35.22	292.24	30.59	-54.0	-57.4	13.2	0.00e+00	0	24	0	858783744	73	5582
2026-01-10 02:53:36.22	291.95	30.48	-54.2	-57.7	13.1	0.00e+00	0	24	0	860880896	73	5747
2026-01-10 02:53:37.22	291.66	30.38	-54.2	-57.7	13.1	0.00e+00	0	24	0	862978048	73	5750
2026-01-10 02:53:38.22	291.37	30.27	-54.2	-57.6	13.3	0.00e+00	0	24	0	865075200	73	5704
2026-01-10 02:53:39.21	291.09	30.17	-53.7	-56.8	13.7	0.00e+00	0	23	0	866123776	73	5175
2026-01-10 02:53:40.21	290.80	30.06	-53.1	-55.8	14.2	0.00e+00	0	24	0	868220928	72	4898
2026-01-10 02:53:41.21	290.52	29.95	-53.3	-56.2	14.0	0.00e+00	0	24	0	870318080	72	5112
2026-01-10 02:53:42.20	290.24	29.85	-53.3	-56.0	14.0	0.00e+00	0	24	0	872415232	72	5027
2026-01-10 02:53:43.21	289.96	29.74	-53.1	-55.8	14.1	0.00e+00	0	24	0	874512384	72	4914
2026-01-10 02:53:44.21	289.68	29.63	-53.0	-55.7	14.2	0.00e+00	0	23	0	875560960	72	4815
2026-01-10 02:53:45.21	289.40	29.52	-53.4	-56.3	13.9	0.00e+00	0	24	0	877658112	72	5161
2026-01-10 02:53:46.20	289.13	29.41	-53.7	-56.8	13.7	0.00e+00	0	24	0	879755264	72	5488
2026-01-10 02:53:47.20	288.86	29.30	-53.7	-56.7	13.6	0.00e+00	0	24	0	881852416	72	5464
2026-01-10 02:53:48.19	288.59	29.19	-53.3	-56.0	14.0	0.00e+00	0	23	0	883949568	72	5031
2026-01-10 02:53:49.20	288.32	29.08	-53.0	-55.5	14.3	0.00e+00	0	24	0	884998144	72	4749
2026-01-10 02:53:50.20	288.06	28.97	-52.9	-55.4	14.4	0.00e+00	0	23	0	887095296	72	4658
2026-01-10 02:53:51.21	287.79	28.86	-53.0	-55.4	14.4	0.00e+00	0	23	0	889192448	72	4678
2026-01-10 02:53:52.21	287.53	28.75	-53.1	-55.6	14.3	0.00e+00	0	24	0	891289600	72	4783
2026-01-10 02:53:53.22	287.26	28.64	-52.9	-55.3	14.5	0.00e+00	0	23	0	892338176	72	4616
2026-01-10 02:53:54.22	287.00	28.53	-53.0	-55.5	14.3	0.00e+00	0	24	0	894435328	72	4755
2026-01-10 02:53:55.23	286.74	28.42	-52.9	-55.4	14.2	0.00e+00	0	23	0	896532480	71	4952
2026-01-10 02:53:56.23	286.49	28.30	-53.1	-55.7	14.0	0.00e+00	0	24	0	898629632	71	5131
2026-01-10 02:53:57.23	286.23	28.19	-53.2	-55.9	14.0	0.00e+00	0	23	0	900726784	71	5231
2026-01-10 02:53:58.23	285.98	28.08	-52.9	-55.3	14.2	0.00e+00	0	24	0	901775360	71	4920
2026-01-10 02:53:59.24	285.73	27.97	-52.6	-54.9	14.5	0.00e+00	0	23	0	903872512	71	4693
2026-01-10 02:54:00.23	285.48	27.86	-52.2	-54.4	14.8	0.00e+00	0	23	0	905969664	71	4409
2026-01-10 02:54:01.23	285.24	27.74	-51.9	-53.9	14.9	0.00e+00	0	23	0	908066816	70	4398
2026-01-10 02:54:02.24	284.99	27.63	-51.8	-53.7	14.8	0.00e+00	0	23	0	910163968	69	4591
2026-01-10 02:54:03.24	284.75	27.52	-51.7	-53.7	14.8	0.00e+00	0	24	0	911212544	69	4569
2026-01-10 02:54:04.25	284.50	27.40	-52.0	-54.0	14.7	0.00e+00	0	24	0	913309696	69	4730
2026-01-10 02:54:05.25	284.26	27.29	-52.2	-54.3	14.5	0.00e+00	0	23	0	915406848	69	4902
2026-01-10 02:54:06.24	284.03	27.18	-52.2	-54.3	14.5	0.00e+00	0	23	0	917504000	69	4873
2026-01-10 02:54:07.24	283.79	27.07	-52.1	-54.1	14.6	0.00e+00	0	23	0	919601152	69	4794
2026-01-10 02:54:08.25	283.55	26.95	-51.7	-53.6	14.9	0.00e+00	0	24	0	920649728	69	4522
2026-01-10 02:54:09.26	283.32	26.84	-51.4	-53.3	15.1	0.00e+00	0	23	0	922746880	69	4345
2026-01-10 02:54:10.26	283.09	26.72	-51.0	-52.7	15.1	0.00e+00	0	23	0	924844032	68	4340
2026-01-10 02:54:11.26	282.86	26.61	-50.7	-52.3	15.4	0.00e+00	0	24	0	926941184	68	4137
2026-01-10 02:54:12.25	282.63	26.50	-50.6	-52.3	15.2	0.00e+00	0	24	0	929038336	67	4352
2026-01-10 02:54:13.25	282.40	26.39	-50.7	-52.5	15.1	0.00e+00	0	24	0	930086912	67	4443
2026-01-10 02:54:14.26	282.18	26.27	-50.8	-52.6	15.0	0.00e+00	0	23	0	932184064	67	4531
2026-01-10 02:54:15.26	281.95	26.16	-51.2	-53.1	14.8	0.00e+00	0	24	0	934281216	67	4788
2026-01-10 02:54:16.26	281.73	26.05	-51.4	-53.4	14.7	0.00e+00	0	24	0	936378368	67	4954
2026-01-10 02:54:17.27	281.51	25.93	-51.7	-53.8	14.7	0.00e+00	0	23	0	937426944	68	4877
2026-01-10 02:54:18.27	281.29	25.82	-51.5	-53.5	14.8	0.00e+00	0	23	0	939524096	68	4749
2026-01-10 02:54:19.28	281.07	25.70	-51.5	-53.4	14.8	0.00e+00	0	23	0	941621248	68	4691
2026-01-10 02:54:20.28	280.86	25.59	-51.0	-52.8	15.2	0.00e+00	0	23	0	943718400	68	4355
2026-01-10 02:54:21.28	280.65	25.48	-50.9	-52.7	15.2	0.00e+00	0	23	0	945815552	68	4324
2026-01-10 02:54:22.27	280.44	25.36	-50.7	-52.4	15.4	0.00e+00	0	23	0	946864128	68	4186
2026-01-10 02:54:23.27	280.22	25.25	-50.9	-52.7	15.2	0.00e+00	0	23	0	948961280	68	4303
2026-01-10 02:54:24.27	280.02	25.14	-51.1	-52.9	15.1	0.00e+00	0	24	0	951058432	68	4435
2026-01-10 02:54:25.26	279.81	25.03	-51.2	-53.0	15.0	0.00e+00	0	23	0	953155584	68	4474
2026-01-10 02:54:26.27	279.60	24.91	-51.0	-52.8	15.2	0.00e+00	0	23	0	955252736	68	4345
2026-01-10 02:54:27.26	279.40	24.80	-51.1	-52.9	15.1	0.00e+00	0	23	0	956301312	68	4404
2026-01-10 02:54:28.27	279.19	24.69	-51.1	-52.9	15.1	0.00e+00	0	24	0	958398464	68	4409
2026-01-10 02:54:29.28	278.99	24.57	-50.8	-52.6	15.2	0.00e+00	0	23	0	960495616	68	4244
2026-01-10 02:54:30.28	278.79	24.46	-51.0	-52.8	15.1	0.00e+00	0	24	0	962592768	68	4348
2026-01-10 02:54:31.27	278.59	24.35	-50.9	-52.6	15.2	0.00e+00	0	23	0	963641344	68	4265
2026-01-10 02:54:32.27	278.40	24.24	-50.8	-52.6	15.2	0.00e+00	0	24	0	965738496	68	4250
2026-01-10 02:54:33.27	278.20	24.12	-50.4	-52.1	15.3	0.00e+00	0	23	0	967835648	67	4270
2026-01-10 02:54:34.27	278.01	24.01	-50.6	-52.3	15.1	0.00e+00	0	24	0	969932800	67	4369
2026-01-10 02:54:35.26	277.81	23.90	-50.5	-52.2	15.2	0.00e+00	0	23	0	972029952	67	4314
2026-01-10 02:54:36.26	277.62	23.79	-50.7	-52.4	15.1	0.00e+00	0	23	0	973078528	67	4407
2026-01-10 02:54:37.26	277.43	23.68	-50.9	-52.7	14.9	0.00e+00	0	24	0	975175680	67	4589
2026-01-10 02:54:38.26	277.24	23.57	-51.1	-53.0	14.8	0.00e+00	0	23	0	977272832	67	4714
2026-01-10 02:54:39.26	277.06	23.46	-51.2	-53.1	14.8	0.00e+00	0	24	0	979369984	67	4801
2026-01-10 02:54:40.25	276.87	23.34	-51.2	-53.1	14.8	0.00e+00	0	24	0	981467136	67	4763
2026-01-10 02:54:41.24	276.69	23.23	-51.3	-53.2	14.7	0.00e+00	0	24	0	982515712	67	4858
2026-01-10 02:54:42.23	276.51	23.12	-51.1	-53.0	14.8	0.00e+00	0	23	0	984612864	67	4741
2026-01-10 02:54:43.23	276.32	23.01	-51.3	-53.2	14.7	0.00e+00	0	24	0	986710016	67	4863
2026-01-10 02:54:44.24	276.14	22.90	-51.8	-53.9	14.6	0.00e+00	0	24	0	988807168	68	4937
2026-01-10 02:54:45.23	275.96	22.79	-52.0	-54.1	14.7	0.00e+00	0	23	0	990904320	69	4791
2026-01-10 02:54:46.24	275.78	22.68	-52.1	-54.3	14.6	0.00e+00	0	23	0	991952896	69	4891
2026-01-10 02:54:47.24	275.61	22.57	-52.3	-54.5	14.4	0.00e+00	0	23	0	994050048	69	5041
2026-01-10 02:54:48.24	275.43	22.46	-52.7	-55.1	14.2	0.00e+00	0	24	0	996147200	70	5077
2026-01-10 02:54:49.24	275.26	22.35	-52.6	-55.0	14.3	0.00e+00	0	24	0	998244352	70	4991
2026-01-10 02:54:50.25	275.08	22.24	-52.5	-54.7	14.5	0.00e+00	0	24	0	999292928	70	4842
2026-01-10 02:54:51.25	274.91	22.13	-52.4	-54.6	14.5	0.00e+00	0	24	0	1001390080	70	4794
2026-01-10 02:54:52.24	274.74	22.02	-52.5	-54.8	14.4	0.00e+00	0	23	0	1003487232	70	4881
2026-01-10 02:54:53.25	274.57	21.91	-52.5	-54.7	14.5	0.00e+00	0	24	0	1005584384	70	4820
2026-01-10 02:54:54.26	274.40	21.80	-52.5	-54.7	14.5	0.00e+00	0	23	0	1007681536	70	4831
2026-01-10 02:54:55.26	274.23	21.69	-52.7	-55.1	14.3	0.00e+00	0	23	0	1008730112	70	5045
2026-01-10 02:54:56.27	274.06	21.58	-52.7	-55.0	14.3	0.00e+00	0	23	0	1010827264	70	5030
2026-01-10 02:54:57.27	273.90	21.48	-52.7	-55.1	14.2	0.00e+00	0	23	0	1012924416	70	5084
2026-01-10 02:54:58.27	273.73	21.37	-52.9	-55.4	14.2	0.00e+00	0	23	0	1015021568	71	4937
2026-01-10 02:54:59.28	273.57	21.26	-52.8	-55.2	14.3	0.00e+00	0	23	0	1017118720	71	4832
2026-01-10 02:55:00.28	273.41	21.15	-52.6	-54.9	14.5	0.00e+00	0	23	0	1018167296	71	4696
2026-01-10 02:55:01.28	273.25	21.04	-52.8	-55.2	14.3	0.00e+00	0	24	0	1020264448	71	4830
2026-01-10 02:55:02.28	273.09	20.94	-52.6	-54.9	14.5	0.00e+00	0	24	0	1022361600	71	4688
2026-01-10 02:55:03.29	272.93	20.83	-52.7	-55.1	14.4	0.00e+00	0	23	0	1024458752	71	4794
2026-01-10 02:55:04.29	272.77	20.72	-52.8	-55.3	14.2	0.00e+00	0	23	0	1026555904	71	4881
2026-01-10 02:55:05.29	272.62	20.62	-52.9	-55.5	14.1	0.00e+00	0	23	0	1027604480	71	4984
2026-01-10 02:55:06.28	272.46	20.51	-52.5	-54.8	14.5	0.00e+00	0	23	0	1029701632	71	4651
2026-01-10 02:55:07.28	272.31	20.40	-52.6	-55.0	14.4	0.00e+00	0	23	0	1031798784	71	4738
2026-01-10 02:55:08.28	272.16	20.30	-52.5	-54.8	14.5	0.00e+00	0	23	0	1033895936	71	4613
2026-01-10 02:55:09.28	272.01	20.19	-52.0	-54.1	14.7	0.00e+00	0	23	0	1034944512	70	4522
2026-01-10 02:55:10.28	271.86	20.09	-51.8	-53.9	14.8	0.00e+00	0	23	0	1037041664	70	4424
2026-01-10 02:55:11.28	271.71	19.98	-51.6	-53.6	14.9	0.00e+00	0	24	0	1039138816	69	4496
2026-01-10 02:55:12.28	271.56	19.88	-51.6	-53.6	14.9	0.00e+00	0	23	0	1041235968	69	4523
2026-01-10 02:55:13.28	271.41	19.77	-51.5	-53.5	14.9	0.00e+00	0	23	0	1043333120	69	4463
2026-01-10 02:55:14.28	271.27	19.67	-51.6	-53.6	14.8	0.00e+00	0	23	0	1044381696	69	4539
2026-01-10 02:55:15.29	271.12	19.56	-51.7	-53.7	14.8	0.00e+00	0	23	0	1046478848	69	4565
2026-01-10 02:55:16.29	270.97	19.46	-51.9	-53.9	14.7	0.00e+00	0	23	0	1048576000	69	4687
2026-01-10 02:55:17.29	270.83	19.36	-51.8	-53.8	14.8	0.00e+00	0	23	0	1050673152	69	4613
2026-01-10 02:55:18.29	270.69	19.25	-51.8	-53.8	14.7	0.00e+00	0	23	0	1052770304	69	4637
2026-01-10 02:55:19.29	270.55	19.15	-51.6	-53.6	14.9	0.00e+00	0	23	0	1053818880	69	4499
2026-01-10 02:55:20.30	270.41	19.04	-51.4	-53.3	15.0	0.00e+00	0	24	0	1055916032	69	4344
2026-01-10 02:55:21.30	270.27	18.94	-51.4	-53.3	15.0	0.00e+00	0	23	0	1058013184	69	4363
2026-01-10 02:55:22.30	270.13	18.84	-51.1	-52.9	15.0	0.00e+00	0	23	0	1060110336	68	4436
2026-01-10 02:55:23.30	269.99	18.74	-51.0	-52.8	15.1	0.00e+00	0	23	0	1062207488	68	4380
2026-01-10 02:55:24.31	269.85	18.63	-51.0	-52.8	15.1	0.00e+00	0	23	0	1063256064	68	4368
2026-01-10 02:55:25.30	269.72	18.53	-51.0	-52.8	15.1	0.00e+00	0	23	0	1065353216	68	4379
2026-01-10 02:55:26.30	269.58	18.43	-51.0	-52.8	15.1	0.00e+00	0	23	0	1067450368	68	4384
2026-01-10 02:55:27.29	269.45	18.33	-51.1	-53.0	15.0	0.00e+00	0	23	0	1069547520	68	4451
2026-01-10 02:55:28.30	269.32	18.23	-51.5	-53.4	14.8	0.00e+00	0	23	0	1071644672	68	4686
2026-01-10 02:55:29.30	269.18	18.13	-51.5	-53.4	14.8	0.00e+00	0	23	0	1072693248	68	4704
2026-01-10 02:55:30.30	269.05	18.03	-51.9	-54.0	14.6	0.00e+00	0	24	0	1074790400	69	4746
2026-01-10 02:55:31.29	268.92	17.93	-52.2	-54.4	14.5	0.00e+00	0	23	0	1076887552	69	4927
2026-01-10 02:55:32.29	268.80	17.83	-52.7	-55.0	14.2	0.00e+00	0	23	0	1078984704	70	5025
2026-01-10 02:55:33.29	268.67	17.73	-53.1	-55.6	14.0	0.00e+00	0	23	0	1080033280	71	5084
2026-01-10 02:55:34.29	268.54	17.63	-53.5	-56.3	13.7	0.00e+00	0	24	0	1082130432	72	5166
2026-01-10 02:55:35.29	268.41	17.53	-53.8	-56.7	13.5	0.00e+00	0	23	0	1084227584	72	5450
2026-01-10 02:55:36.29	268.29	17.43	-53.8	-56.9	13.4	0.00e+00	0	23	0	1086324736	72	5545
2026-01-10 02:55:37.28	268.16	17.33	-54.1	-57.4	13.2	0.00e+00	0	23	0	1088421888	73	5540
2026-01-10 02:55:38.28	268.04	17.24	-53.7	-56.6	13.7	0.00e+00	0	23	0	1089470464	73	5100
2026-01-10 02:55:39.27	267.92	17.14	-53.4	-56.2	14.0	0.00e+00	0	23	0	1091567616	73	4821
2026-01-10 02:55:40.28	267.79	17.04	-52.9	-55.4	14.3	0.00e+00	0	23	0	1093664768	72	4700
2026-01-10 02:55:41.28	267.67	16.94	-52.4	-54.7	14.6	0.00e+00	0	24	0	1095761920	71	4555
2026-01-10 02:55:42.29	267.55	16.84	-52.0	-54.1	14.7	0.00e+00	0	23	0	1097859072	70	4535
2026-01-10 02:55:43.29	267.43	16.75	-51.9	-53.9	14.8	0.00e+00	0	23	0	1098907648	70	4431
2026-01-10 02:55:44.29	267.31	16.65	-51.9	-53.9	14.9	0.00e+00	0	23	0	1101004800	70	4411
2026-01-10 02:55:45.28	267.19	16.55	-51.7	-53.7	15.0	0.00e+00	0	23	0	1103101952	70	4315
2026-01-10 02:55:46.28	267.07	16.46	-51.9	-54.0	14.8	0.00e+00	0	23	0	1105199104	70	4474
2026-01-10 02:55:47.28	266.96	16.36	-52.1	-54.3	14.6	0.00e+00	0	23	0	1106247680	70	4613
2026-01-10 02:55:48.28	266.84	16.27	-52.3	-54.6	14.5	0.00e+00	0	23	0	1108344832	70	4782
2026-01-10 02:55:49.28	266.72	16.17	-52.7	-55.3	14.1	0.00e+00	0	23	0	1110441984	70	5162
2026-01-10 02:55:50.28	266.61	16.07	-52.8	-55.4	14.0	0.00e+00	0	23	0	1112539136	70	5241
2026-01-10 02:55:51.28	266.50	15.98	-53.1	-55.7	13.9	0.00e+00	0	23	0	1114636288	71	5154
2026-01-10 02:55:52.29	266.38	15.88	-53.1	-55.7	14.0	0.00e+00	0	23	0	1115684864	71	5147
2026-01-10 02:55:53.29	266.27	15.79	-53.2	-55.9	13.8	0.00e+00	0	23	0	1117782016	71	5238
2026-01-10 02:55:54.29	266.16	15.69	-53.0	-55.7	14.0	0.00e+00	0	23	0	1119879168	71	5102
2026-01-10 02:55:55.29	266.05	15.60	-52.8	-55.3	14.2	0.00e+00	0	24	0	1121976320	71	4906
2026-01-10 02:55:56.29	265.94	15.51	-52.6	-54.9	14.4	0.00e+00	0	23	0	1124073472	71	4692
2026-01-10 02:55:57.28	265.83	15.41	-52.3	-54.6	14.6	0.00e+00	0	23	0	1125122048	71	4511
2026-01-10 02:55:58.28	265.72	15.32	-52.5	-54.8	14.5	0.00e+00	0	24	0	1127219200	71	4627
2026-01-10 02:55:59.29	265.61	15.23	-52.3	-54.6	14.6	0.00e+00	0	23	0	1129316352	71	4520
2026-01-10 02:56:00.29	265.50	15.13	-52.4	-54.8	14.5	0.00e+00	0	23	0	1131413504	71	4620
2026-01-10 02:56:01.28	265.40	15.04	-52.4	-54.7	14.5	0.00e+00	0	23	0	1133510656	71	4565
2026-01-10 02:56:02.29	265.29	14.95	-52.5	-54.9	14.4	0.00e+00	0	23	0	1134559232	71	4672
2026-01-10 02:56:03.28	265.18	14.86	-52.6	-55.0	14.4	0.00e+00	0	23	0	1136656384	71	4714
2026-01-10 02:56:04.29	265.08	14.76	-52.7	-55.2	14.3	0.00e+00	0	23	0	1138753536	71	4827
2026-01-10 02:56:05.30	264.97	14.67	-52.8	-55.3	14.2	0.00e+00	0	23	0	1140850688	71	4900
2026-01-10 02:56:06.30	264.87	14.58	-52.8	-55.3	14.2	0.00e+00	0	23	0	1141899264	71	4904
2026-01-10 02:56:07.30	264.77	14.49	-52.9	-55.4	14.1	0.00e+00	0	23	0	1143996416	71	4970
2026-01-10 02:56:08.31	264.66	14.40	-52.7	-55.2	14.2	0.00e+00	0	24	0	1146093568	71	4854
2026-01-10 02:56:09.30	264.56	14.31	-52.9	-55.5	14.1	0.00e+00	0	23	0	1148190720	71	4999
2026-01-10 02:56:10.31	264.46	14.22	-52.9	-55.4	14.1	0.00e+00	0	23	0	1150287872	71	4964
2026-01-10 02:56:11.30	264.36	14.13	-53.0	-55.5	14.0	0.00e+00	0	23	0	1151336448	71	5034
2026-01-10 02:56:12.30	264.26	14.04	-53.0	-55.6	14.0	0.00e+00	0	23	0	1153433600	71	5067
2026-01-10 02:56:13.30	264.16	13.95	-53.0	-55.6	14.0	0.00e+00	0	23	0	1155530752	71	5073
2026-01-10 02:56:14.30	264.06	13.86	-53.1	-55.7	14.0	0.00e+00	0	23	0	1157627904	71	5118
2026-01-10 02:56:15.30	263.97	13.77	-52.9	-55.5	14.1	0.00e+00	0	23	0	1159725056	71	4989
2026-01-10 02:56:16.30	263.87	13.68	-53.1	-55.8	13.8	0.00e+00	0	24	0	1160773632	71	5178
2026-01-10 02:56:17.31	263.77	13.59	-52.9	-55.4	14.1	0.00e+00	0	24	0	1162870784	71	4946
2026-01-10 02:56:18.31	263.67	13.50	-52.8	-55.2	14.2	0.00e+00	0	23	0	1164967936	71	4840
2026-01-10 02:56:19.31	263.58	13.41	-52.6	-54.9	14.4	0.00e+00	0	23	0	1167065088	71	4666
2026-01-10 02:56:20.30	263.48	13.33	-52.5	-54.8	14.5	0.00e+00	0	24	0	1168113664	71	4619
2026-01-10 02:56:21.30	263.39	13.24	-52.3	-54.5	14.6	0.00e+00	0	23	0	1170210816	71	4488
2026-01-10 02:56:22.31	263.30	13.15	-52.3	-54.5	14.7	0.00e+00	0	24	0	1172307968	71	4459
2026-01-10 02:56:23.30	263.20	13.06	-52.0	-54.1	14.7	0.00e+00	0	23	0	1174405120	70	4529
2026-01-10 02:56:24.31	263.11	12.98	-51.9	-54.0	14.8	0.00e+00	0	23	0	1176502272	70	4468
2026-01-10 02:56:25.31	263.02	12.89	-52.1	-54.3	14.6	0.00e+00	0	23	0	1177550848	70	4606
2026-01-10 02:56:26.31	262.93	12.80	-52.1	-54.3	14.6	0.00e+00	0	23	0	1179648000	70	4622
2026-01-10 02:56:27.31	262.84	12.72	-52.3	-54.5	14.5	0.00e+00	0	23	0	1181745152	70	4738
2026-01-10 02:56:28.31	262.74	12.63	-52.5	-54.8	14.3	0.00e+00	0	24	0	1183842304	70	4892
2026-01-10 02:56:29.32	262.65	12.54	-52.7	-55.1	14.1	0.00e+00	0	23	0	1185939456	70	5066
2026-01-10 02:56:30.32	262.56	12.46	-52.9	-55.5	13.9	0.00e+00	0	23	0	1186988032	70	5294
2026-01-10 02:56:31.31	262.48	12.37	-53.2	-55.9	13.7	0.00e+00	0	23	0	1189085184	71	5266
2026-01-10 02:56:32.31	262.39	12.29	-53.5	-56.4	13.6	0.00e+00	0	23	0	1191182336	72	5256
2026-01-10 02:56:33.30	262.30	12.20	-53.9	-57.0	13.2	0.00e+00	0	23	0	1193279488	72	5651
2026-01-10 02:56:34.29	262.22	12.12	-53.9	-57.1	13.3	0.00e+00	0	23	0	1195376640	73	5366
2026-01-10 02:56:35.29	262.13	12.03	-54.1	-57.4	13.0	0.00e+00	0	23	0	1196425216	73	5592
2026-01-10 02:56:36.28	262.04	11.95	-54.1	-57.4	13.1	0.00e+00	0	23	0	1198522368	73	5551
2026-01-10 02:56:37.28	261.96	11.87	-54.1	-57.4	13.0	0.00e+00	0	23	0	1200619520	73	5591
2026-01-10 02:56:38.28	261.87	11.78	-54.0	-57.3	13.0	0.00e+00	0	23	0	1202716672	73	5488
2026-01-10 02:56:39.28	261.79	11.70	-53.9	-57.1	13.1	0.00e+00	0	23	0	1203765248	73	5398
2026-01-10 02:56:40.28	261.70	11.62	-53.8	-57.0	13.3	0.00e+00	0	23	0	1205862400	73	5297
2026-01-10 02:56:41.27	261.62	11.53	-53.7	-56.7	13.6	0.00e+00	0	23	0	1207959552	73	5101
2026-01-10 02:56:42.27	261.54	11.45	-53.4	-56.2	13.8	0.00e+00	0	24	0	1210056704	73	4839
2026-01-10 02:56:43.27	261.45	11.37	-53.4	-56.3	13.9	0.00e+00	0	24	0	1212153856	73	4871
2026-01-10 02:56:44.27	261.37	11.29	-53.3	-56.1	13.9	0.00e+00	0	23	0	1213202432	73	4774
2026-01-10 02:56:45.26	261.29	11.20	-53.3	-55.9	14.1	0.00e+00	0	23	0	1215299584	73	4703
2026-01-10 02:56:46.25	261.21	11.12	-53.2	-55.9	14.0	0.00e+00	0	23	0	1217396736	73	4687
2026-01-10 02:56:47.26	261.13	11.04	-53.2	-56.0	13.8	0.00e+00	0	23	0	1219493888	72	5001
2026-01-10 02:56:48.26	261.05	10.96	-52.9	-55.6	14.1	0.00e+00	0	23	0	1220542464	72	4760
