passes_logs/2026/01/10/R3.2S_Murmansk/R3.2S_Murmansk__20260110_105339_2024-110A_rec.log

#Pass ID: 20260110_105339_2024-110A
#Satellite: 2024-110A
#Configuration: 01B_900M
#almurnet v.1.7.20251203
#Start time: 2026-01-10 10:53:40

#Version: 2.2.20231116
#Station: R3.2S_Murmansk
#Location: 33.079688 lon 68.888172 lat
#TLE: 1 60012U 24110A   26009.97406806  .00007383  00000+0  44769-3 0  9997
#TLE: 2 60012  97.5748 103.0306 0010623  82.4617 277.7819 15.10797853 88007

#Time	Az	El	Level	Level2	SNR	BER	BlckErr	Temp	State	Recorded	gain1	gain2
2026-01-10 10:53:40.75	21.53	2.06	-56.8	-60.0	6.1	0.00e+00	0	24	0	0	80	20717
2026-01-10 10:53:41.74	21.52	2.13	-56.8	-60.0	6.2	0.00e+00	0	24	104	0	80	20706
2026-01-10 10:53:42.73	21.51	2.20	-56.8	-59.9	6.2	0.00e+00	0	24	104	0	80	20625
2026-01-10 10:53:43.72	21.50	2.27	-56.8	-60.0	6.2	0.00e+00	0	24	104	0	80	20691
2026-01-10 10:53:44.70	21.49	2.33	-56.8	-60.0	6.2	0.00e+00	0	24	104	0	80	20739
2026-01-10 10:53:45.69	21.48	2.40	-56.8	-60.0	6.2	0.00e+00	0	24	104	0	80	20756
2026-01-10 10:53:46.68	21.48	2.47	-56.8	-60.0	6.2	0.00e+00	0	24	104	0	80	20726
2026-01-10 10:53:47.68	21.47	2.54	-56.8	-60.0	6.2	0.00e+00	0	24	104	0	80	20740
2026-01-10 10:53:48.66	21.46	2.61	-56.8	-60.0	6.2	0.00e+00	0	24	104	0	80	20718
2026-01-10 10:53:49.65	21.45	2.68	-56.8	-60.0	6.2	0.00e+00	0	24	104	0	80	20770
2026-01-10 10:53:50.64	21.44	2.75	-56.8	-60.0	6.2	0.00e+00	0	24	104	0	80	20738
2026-01-10 10:53:51.64	21.43	2.83	-56.8	-60.0	6.2	0.00e+00	0	24	104	0	80	20765
2026-01-10 10:53:52.63	21.42	2.90	-56.8	-60.0	6.2	0.00e+00	0	24	104	0	80	20760
2026-01-10 10:53:53.62	21.41	2.97	-56.8	-60.0	6.2	0.00e+00	0	24	104	0	80	20696
2026-01-10 10:53:54.62	21.40	3.04	-56.8	-60.0	6.2	0.00e+00	0	24	104	0	80	20752
2026-01-10 10:53:55.61	21.39	3.11	-56.8	-60.0	6.2	0.00e+00	0	24	104	0	80	20733
2026-01-10 10:53:56.61	21.38	3.19	-56.8	-60.0	6.2	0.00e+00	0	24	104	0	80	20708
2026-01-10 10:53:57.61	21.38	3.26	-56.8	-60.0	6.2	0.00e+00	0	24	104	0	80	20757
2026-01-10 10:53:58.60	21.37	3.33	-56.8	-60.0	6.2	0.00e+00	0	24	104	0	80	20733
2026-01-10 10:53:59.59	21.36	3.40	-56.8	-60.0	6.2	0.00e+00	0	24	104	0	80	20818
2026-01-10 10:54:00.59	21.35	3.48	-56.8	-60.0	6.2	0.00e+00	0	24	104	0	80	20724
2026-01-10 10:54:01.58	21.34	3.55	-56.8	-60.0	6.2	0.00e+00	0	24	104	0	80	20728
2026-01-10 10:54:02.58	21.33	3.62	-56.8	-60.0	6.2	0.00e+00	0	24	104	0	80	20727
2026-01-10 10:54:03.57	21.32	3.70	-56.8	-60.0	6.2	0.00e+00	0	24	104	0	80	20809
2026-01-10 10:54:04.56	21.31	3.77	-56.8	-60.0	6.2	0.00e+00	0	24	104	0	80	20660
2026-01-10 10:54:05.55	21.30	3.85	-56.8	-60.0	6.2	0.00e+00	0	24	104	0	80	20700
2026-01-10 10:54:06.54	21.29	3.92	-56.8	-60.0	6.2	0.00e+00	0	25	104	0	80	20758
2026-01-10 10:54:07.54	21.28	4.00	-56.8	-60.0	6.2	0.00e+00	0	24	104	0	80	20712
2026-01-10 10:54:08.53	21.26	4.07	-56.8	-60.0	6.2	0.00e+00	0	25	104	0	80	20715
2026-01-10 10:54:09.52	21.25	4.15	-56.8	-60.0	6.2	0.00e+00	0	25	104	0	80	20707
2026-01-10 10:54:10.51	21.24	4.22	-56.8	-60.0	6.2	0.00e+00	0	24	104	0	80	20779
2026-01-10 10:54:11.50	21.23	4.30	-56.8	-60.0	6.2	0.00e+00	0	25	104	0	80	20764
2026-01-10 10:54:12.49	21.22	4.37	-56.8	-60.0	6.2	0.00e+00	0	25	104	0	80	20729
2026-01-10 10:54:13.48	21.21	4.45	-56.8	-60.0	6.2	0.00e+00	0	24	104	0	80	20767
2026-01-10 10:54:14.48	21.20	4.53	-56.8	-60.0	6.2	0.00e+00	0	25	104	0	80	20703
2026-01-10 10:54:15.48	21.19	4.61	-56.8	-60.0	6.2	0.00e+00	0	25	104	0	80	20810
2026-01-10 10:54:16.47	21.18	4.68	-56.8	-60.0	6.2	0.00e+00	0	25	104	0	80	20772
2026-01-10 10:54:17.45	21.17	4.76	-56.8	-60.0	6.1	0.00e+00	0	25	104	0	80	20735
2026-01-10 10:54:18.44	21.15	4.84	-56.8	-60.0	6.2	0.00e+00	0	25	104	0	80	20705
2026-01-10 10:54:19.43	21.14	4.92	-56.8	-60.0	6.2	0.00e+00	0	25	104	0	80	20786
2026-01-10 10:54:20.43	21.13	5.00	-56.8	-60.0	6.2	0.00e+00	0	25	104	0	80	20758
2026-01-10 10:54:21.42	21.12	5.07	-56.8	-60.0	6.2	0.00e+00	0	25	104	0	80	20679
2026-01-10 10:54:22.41	21.11	5.15	-56.8	-60.1	6.2	0.00e+00	0	25	104	0	80	20878
2026-01-10 10:54:23.40	21.10	5.23	-56.8	-60.1	6.2	0.00e+00	0	25	104	0	80	20882
2026-01-10 10:54:24.39	21.08	5.31	-56.9	-60.1	6.2	0.00e+00	0	25	104	0	80	20977
2026-01-10 10:54:25.39	21.07	5.39	-56.9	-60.1	6.2	0.00e+00	0	25	104	0	80	21086
2026-01-10 10:54:26.37	21.06	5.47	-56.8	-60.0	6.2	0.00e+00	0	25	104	0	80	20863
2026-01-10 10:54:27.37	21.05	5.55	-56.9	-60.1	6.2	0.00e+00	0	25	104	0	80	21010
2026-01-10 10:54:28.37	21.03	5.64	-56.9	-60.1	6.2	0.00e+00	0	25	104	0	80	21017
2026-01-10 10:54:29.36	21.02	5.72	-56.9	-60.2	6.2	0.00e+00	0	25	104	0	80	21139
2026-01-10 10:54:30.35	21.01	5.80	-56.8	-60.0	6.2	0.00e+00	0	25	104	0	80	20799
2026-01-10 10:54:31.35	21.00	5.88	-56.9	-60.1	6.2	0.00e+00	0	25	104	0	80	21052
2026-01-10 10:54:32.35	20.98	5.96	-56.9	-60.1	6.2	0.00e+00	0	25	104	0	80	21093
2026-01-10 10:54:33.34	20.97	6.05	-57.0	-60.2	6.2	0.00e+00	0	25	104	0	80	21224
2026-01-10 10:54:34.34	20.96	6.13	-56.8	-60.0	6.2	0.00e+00	0	25	104	0	80	20832
2026-01-10 10:54:35.32	20.94	6.21	-56.9	-60.2	6.2	0.00e+00	0	25	104	0	80	21147
2026-01-10 10:54:36.31	20.93	6.30	-56.9	-60.1	6.2	0.00e+00	0	25	104	0	80	21063
2026-01-10 10:54:37.30	20.92	6.38	-57.0	-60.2	6.2	0.00e+00	0	25	104	0	80	21277
2026-01-10 10:54:38.29	20.90	6.47	-56.9	-60.1	6.2	0.00e+00	0	25	104	0	80	20959
2026-01-10 10:54:39.29	20.89	6.55	-57.0	-60.2	6.2	0.00e+00	0	25	104	0	80	21223
2026-01-10 10:54:40.28	20.87	6.64	-57.0	-60.2	6.2	0.00e+00	0	25	104	0	80	21153
2026-01-10 10:54:41.28	20.86	6.72	-57.1	-60.3	6.2	0.00e+00	0	25	104	0	80	21461
2026-01-10 10:54:42.28	20.85	6.81	-56.9	-60.2	6.2	0.00e+00	0	25	104	0	80	21167
2026-01-10 10:54:43.28	20.83	6.90	-57.0	-60.2	6.2	0.00e+00	0	25	104	0	80	21348
2026-01-10 10:54:44.27	20.82	6.98	-57.0	-60.2	6.2	0.00e+00	0	25	104	0	80	21309
2026-01-10 10:54:45.26	20.80	7.07	-57.1	-60.3	6.2	0.00e+00	0	25	104	0	80	21570
2026-01-10 10:54:46.25	20.79	7.16	-57.0	-60.2	6.2	0.00e+00	0	25	104	0	80	21199
2026-01-10 10:54:47.24	20.77	7.24	-57.1	-60.3	6.2	0.00e+00	0	25	104	0	80	21441
2026-01-10 10:54:48.24	20.76	7.33	-57.0	-60.2	6.2	0.00e+00	0	25	104	0	80	21353
2026-01-10 10:54:49.22	20.74	7.42	-57.1	-60.3	6.2	0.00e+00	0	25	104	0	80	21537
2026-01-10 10:54:50.21	20.73	7.51	-57.0	-60.2	6.2	0.00e+00	0	25	104	0	80	21325
2026-01-10 10:54:51.21	20.71	7.60	-57.1	-60.3	6.2	0.00e+00	0	25	104	0	80	21545
2026-01-10 10:54:52.21	20.69	7.69	-57.1	-60.3	6.2	0.00e+00	0	25	104	0	80	21437
2026-01-10 10:54:53.21	20.68	7.78	-57.2	-60.4	6.2	0.00e+00	0	25	104	0	80	21775
2026-01-10 10:54:54.20	20.66	7.87	-57.1	-60.3	6.2	0.00e+00	0	25	104	0	80	21398
2026-01-10 10:54:55.19	20.65	7.96	-57.1	-60.3	6.2	0.00e+00	0	25	104	0	80	21576
2026-01-10 10:54:56.19	20.63	8.06	-57.1	-60.4	6.2	0.00e+00	0	25	104	0	80	21646
2026-01-10 10:54:57.19	20.61	8.15	-57.2	-60.4	6.2	0.00e+00	0	25	104	0	80	21856
2026-01-10 10:54:58.18	20.60	8.24	-57.1	-60.3	6.2	0.00e+00	0	25	104	0	80	21525
2026-01-10 10:54:59.17	20.58	8.33	-57.2	-60.4	6.2	0.00e+00	0	25	104	0	80	21630
2026-01-10 10:55:00.16	20.56	8.43	-57.1	-60.4	6.2	0.00e+00	0	25	104	0	80	21650
2026-01-10 10:55:01.14	20.55	8.52	-57.3	-60.5	6.2	0.00e+00	0	25	104	0	80	21888
2026-01-10 10:55:02.14	20.53	8.61	-57.1	-60.4	6.2	0.00e+00	0	25	104	0	80	21629
2026-01-10 10:55:03.13	20.51	8.71	-57.2	-60.4	6.2	0.00e+00	0	26	104	0	80	21828
2026-01-10 10:55:04.12	20.49	8.80	-57.2	-60.4	6.2	0.00e+00	0	25	104	0	80	21658
2026-01-10 10:55:05.10	20.48	8.90	-57.3	-60.5	6.2	0.00e+00	0	25	104	0	80	21960
2026-01-10 10:55:06.09	20.46	8.99	-57.2	-60.4	6.2	0.00e+00	0	25	104	0	80	21664
2026-01-10 10:55:07.09	20.44	9.09	-57.2	-60.4	6.2	0.00e+00	0	26	104	0	80	21798
2026-01-10 10:55:08.08	20.42	9.19	-57.2	-60.4	6.2	0.00e+00	0	25	104	0	80	21817
2026-01-10 10:55:09.08	20.40	9.29	-57.3	-60.6	6.2	0.00e+00	0	26	104	0	80	22158
2026-01-10 10:55:10.08	20.38	9.38	-57.2	-60.5	6.2	0.00e+00	0	25	104	0	80	21871
2026-01-10 10:55:11.06	20.36	9.48	-57.2	-60.5	6.2	0.00e+00	0	25	104	0	80	21949
2026-01-10 10:55:12.06	20.35	9.58	-57.2	-60.5	6.2	0.00e+00	0	26	104	0	80	21927
2026-01-10 10:55:13.05	20.33	9.68	-57.4	-60.6	6.2	0.00e+00	0	26	104	0	80	22194
2026-01-10 10:55:14.04	20.31	9.78	-57.2	-60.4	6.2	0.00e+00	0	26	104	0	80	21856
2026-01-10 10:55:15.02	20.29	9.88	-57.3	-60.5	6.2	0.00e+00	0	26	104	0	80	22065
2026-01-10 10:55:16.01	20.27	9.98	-57.3	-60.5	6.2	0.00e+00	0	26	104	0	80	21996
2026-01-10 10:55:17.00	20.25	10.08	-57.4	-60.6	6.2	0.00e+00	0	26	104	0	80	22226
2026-01-10 10:55:18.00	20.23	10.18	-57.3	-60.5	6.2	0.00e+00	0	26	104	0	80	21997
2026-01-10 10:55:18.99	20.21	10.29	-57.3	-60.5	6.2	0.00e+00	0	26	104	0	80	21997
2026-01-10 10:55:19.98	20.19	10.39	-57.3	-60.5	6.2	0.00e+00	0	26	104	0	80	22029
2026-01-10 10:55:20.97	20.17	10.49	-57.4	-60.6	6.2	0.00e+00	0	26	104	0	80	22332
2026-01-10 10:55:21.95	20.14	10.60	-57.3	-60.5	6.2	0.00e+00	0	26	104	0	80	22065
2026-01-10 10:55:22.94	20.12	10.70	-57.3	-60.6	6.2	0.00e+00	0	26	104	0	80	22191
2026-01-10 10:55:23.93	20.10	10.81	-57.3	-60.5	6.2	0.00e+00	0	26	104	0	80	22089
2026-01-10 10:55:24.92	20.08	10.91	-57.4	-60.7	6.2	0.00e+00	0	26	104	0	80	22366
2026-01-10 10:55:25.91	20.06	11.02	-57.3	-60.5	6.2	0.00e+00	0	26	104	0	80	22102
2026-01-10 10:55:26.91	20.04	11.13	-57.4	-60.6	6.2	0.00e+00	0	26	104	0	80	22241
2026-01-10 10:55:27.90	20.01	11.23	-57.4	-60.6	6.2	0.00e+00	0	26	104	0	80	22313
2026-01-10 10:55:28.90	19.99	11.34	-57.5	-60.6	6.2	0.00e+00	0	26	104	0	80	22364
2026-01-10 10:55:29.90	19.97	11.45	-57.4	-60.6	6.2	0.00e+00	0	26	104	0	80	22298
2026-01-10 10:55:30.89	19.94	11.56	-57.4	-60.6	6.2	0.00e+00	0	26	104	0	80	22329
2026-01-10 10:55:31.88	19.92	11.67	-57.4	-60.6	6.2	0.00e+00	0	26	104	0	80	22297
2026-01-10 10:55:32.87	19.90	11.78	-57.5	-60.7	6.2	0.00e+00	0	26	104	0	80	22430
2026-01-10 10:55:33.87	19.87	11.90	-57.4	-60.6	6.2	0.00e+00	0	26	104	0	80	22286
2026-01-10 10:55:34.86	19.85	12.01	-57.4	-60.6	6.2	0.00e+00	0	26	104	0	80	22361
2026-01-10 10:55:35.85	19.82	12.12	-57.4	-60.6	6.2	0.00e+00	0	26	104	0	80	22228
2026-01-10 10:55:36.84	19.80	12.24	-57.5	-60.7	6.2	0.00e+00	0	26	104	0	80	22561
2026-01-10 10:55:37.83	19.77	12.35	-57.4	-60.7	6.2	0.00e+00	0	26	104	0	80	22430
2026-01-10 10:55:38.82	19.75	12.46	-57.5	-60.7	6.2	0.00e+00	0	26	104	0	80	22412
2026-01-10 10:55:39.81	19.72	12.58	-57.4	-60.6	6.2	0.00e+00	0	26	104	0	80	22365
2026-01-10 10:55:40.82	19.70	12.70	-57.5	-60.7	6.2	0.00e+00	0	26	104	0	80	22603
2026-01-10 10:55:41.81	19.67	12.81	-57.5	-60.7	6.2	0.00e+00	0	26	104	0	80	22430
2026-01-10 10:55:42.80	19.65	12.93	-57.5	-60.7	6.2	0.00e+00	0	26	104	0	80	22421
2026-01-10 10:55:43.79	19.62	13.05	-57.5	-60.7	6.2	0.00e+00	0	26	104	0	80	22438
2026-01-10 10:55:44.78	19.59	13.17	-57.6	-60.8	6.2	0.00e+00	0	26	104	0	80	22645
2026-01-10 10:55:45.78	19.56	13.29	-57.5	-60.7	6.2	0.00e+00	0	26	104	0	80	22549
2026-01-10 10:55:46.77	19.54	13.41	-57.5	-60.7	6.2	0.00e+00	0	26	104	0	80	22526
2026-01-10 10:55:47.76	19.51	13.53	-57.0	-60.0	6.2	0.00e+00	0	26	104	0	79	21888
2026-01-10 10:55:48.75	19.48	13.65	-56.2	-58.3	6.4	0.00e+00	0	26	104	0	79	18131
2026-01-10 10:55:49.75	19.45	13.78	-56.1	-58.3	6.3	0.00e+00	0	26	104	0	77	20357
2026-01-10 10:55:50.74	19.42	13.90	-54.4	-55.8	7.0	0.00e+00	0	26	104	0	76	16156
2026-01-10 10:55:51.73	19.40	14.03	-54.0	-55.4	7.1	0.00e+00	0	26	104	0	75	16259
2026-01-10 10:55:52.72	19.37	14.15	-54.0	-55.3	7.2	0.00e+00	0	26	104	0	75	16183
2026-01-10 10:55:53.71	19.34	14.28	-53.4	-54.6	7.5	0.00e+00	0	26	104	0	74	15712
2026-01-10 10:55:54.70	19.31	14.40	-53.8	-55.0	7.3	0.00e+00	0	26	104	0	74	16525
2026-01-10 10:55:55.69	19.28	14.53	-57.0	-59.8	6.2	0.00e+00	0	26	104	0	79	21371
2026-01-10 10:55:56.69	19.24	14.66	-56.3	-58.5	6.4	0.00e+00	0	26	104	0	79	18470
2026-01-10 10:55:57.68	19.21	14.79	-45.0	-45.7	10.4	1.13e-03	0	26	104	0	62	11295
2026-01-10 10:55:58.67	19.18	14.92	-46.3	-46.7	11.2	2.46e-03	0	26	0	58720256	59	15066
2026-01-10 10:55:59.66	19.15	15.05	-44.7	-45.0	12.0	7.82e-04	0	26	0	167772160	56	14738
2026-01-10 10:56:00.64	19.12	15.18	-43.5	-43.7	12.6	2.61e-04	0	26	0	285212672	54	14251
2026-01-10 10:56:01.63	19.09	15.32	-42.6	-42.8	12.8	1.37e-04	0	26	0	385875968	52	14416
2026-01-10 10:56:02.63	19.05	15.45	-42.1	-42.4	13.0	9.15e-05	0	26	0	503316480	51	14454
2026-01-10 10:56:03.62	19.02	15.59	-41.7	-42.0	13.1	5.91e-05	0	26	0	612368384	50	14619
2026-01-10 10:56:04.61	18.99	15.72	-41.1	-41.4	13.2	3.81e-05	0	26	0	729808896	49	14508
2026-01-10 10:56:05.61	18.95	15.86	-40.6	-40.9	13.4	9.50e-06	0	27	0	838860800	48	14447
2026-01-10 10:56:06.60	18.92	16.00	-39.5	-39.8	13.3	2.47e-05	0	26	0	947912704	46	14365
2026-01-10 10:56:07.59	18.88	16.14	-39.3	-39.5	13.3	1.52e-05	0	26	0	1056964608	45	14705
2026-01-10 10:56:08.58	18.85	16.28	-39.3	-39.5	13.3	9.50e-06	0	26	0	1174405120	45	14740
2026-01-10 10:56:09.58	18.81	16.42	-39.3	-39.6	13.3	2.28e-05	0	26	0	1283457024	45	14825
2026-01-10 10:56:10.57	18.77	16.56	-39.2	-39.4	13.4	1.71e-05	0	26	0	1392508928	45	14547
2026-01-10 10:56:11.57	18.74	16.71	-39.1	-39.3	13.5	2.28e-05	0	26	0	1509949440	45	14376
2026-01-10 10:56:12.57	18.70	16.85	-39.0	-39.3	13.5	1.71e-05	0	26	0	1619001344	45	14322
2026-01-10 10:56:13.56	18.66	17.00	-38.9	-39.1	13.5	1.90e-05	0	26	0	1736441856	45	14102
2026-01-10 10:56:14.55	18.62	17.14	-38.9	-39.2	13.5	3.80e-06	0	26	0	1845493760	45	14167
2026-01-10 10:56:15.54	18.59	17.29	-38.8	-39.0	13.5	9.50e-06	0	26	0	1954545664	44	14742
2026-01-10 10:56:16.55	18.55	17.44	-38.8	-39.0	13.5	1.14e-05	0	26	0	2071986176	44	14680
2026-01-10 10:56:17.55	18.51	17.59	-38.7	-39.0	13.5	9.50e-06	0	26	0	2181038080	44	14620
2026-01-10 10:56:18.54	18.47	17.74	-38.7	-38.9	13.5	5.70e-06	0	26	0	2290089984	44	14556
2026-01-10 10:56:19.53	18.43	17.89	-38.7	-38.9	13.5	9.50e-06	0	27	0	2399141888	44	14546
2026-01-10 10:56:20.53	18.38	18.05	-38.6	-38.9	13.6	1.33e-05	0	26	0	2516582400	44	14467
2026-01-10 10:56:21.51	18.34	18.20	-38.5	-38.8	13.6	1.90e-06	0	27	0	2625634304	44	14290
2026-01-10 10:56:22.51	18.30	18.36	-38.5	-38.7	13.6	3.80e-06	0	26	0	2743074816	44	14230
2026-01-10 10:56:23.50	18.26	18.51	-38.5	-38.7	13.6	3.80e-06	0	27	0	2852126720	44	14257
2026-01-10 10:56:24.49	18.21	18.67	-38.5	-38.7	13.6	1.14e-05	0	27	0	2961178624	44	14154
2026-01-10 10:56:25.47	18.17	18.83	-38.4	-38.7	13.7	5.70e-06	0	27	0	3070230528	44	14115
2026-01-10 10:56:26.46	18.13	18.99	-38.3	-38.5	13.6	9.50e-06	0	27	0	3187671040	43	14753
2026-01-10 10:56:27.46	18.08	19.15	-38.2	-38.4	13.6	9.50e-06	0	27	0	3296722944	43	14519
2026-01-10 10:56:28.45	18.04	19.31	-38.1	-38.3	13.7	0.00e+00	0	26	0	3405774848	43	14377
2026-01-10 10:56:29.44	17.99	19.48	-38.2	-38.4	13.6	9.50e-06	0	27	0	3523215360	43	14502
2026-01-10 10:56:30.44	17.94	19.64	-38.2	-38.4	13.6	1.90e-06	0	27	0	3632267264	43	14511
2026-01-10 10:56:31.43	17.90	19.81	-38.1	-38.4	13.6	3.80e-06	0	27	0	3741319168	43	14473
2026-01-10 10:56:32.43	17.85	19.98	-37.8	-38.0	13.7	0.00e+00	0	27	0	3850371072	42	14749
2026-01-10 10:56:33.42	17.80	20.15	-37.8	-38.0	13.7	3.80e-06	0	27	0	3967811584	42	14716
2026-01-10 10:56:34.41	17.75	20.32	-37.8	-38.0	13.7	1.90e-06	0	27	0	4076863488	42	14674
2026-01-10 10:56:35.40	17.70	20.49	-37.7	-37.9	13.7	5.70e-06	0	27	0	4194304000	42	14594
2026-01-10 10:56:36.39	17.65	20.66	-37.7	-37.9	13.7	0.00e+00	0	27	0	4294967296	42	14480
2026-01-10 10:56:37.38	17.60	20.84	-37.6	-37.8	13.8	0.00e+00	0	27	0	4412407808	42	14359
2026-01-10 10:56:38.37	17.55	21.02	-37.6	-37.8	13.8	5.70e-06	0	27	0	4521459712	42	14358
2026-01-10 10:56:39.37	17.49	21.20	-37.6	-37.8	13.7	1.90e-06	0	27	0	4638900224	42	14402
2026-01-10 10:56:40.36	17.44	21.38	-37.5	-37.7	13.8	3.80e-06	0	27	0	4747952128	42	14198
2026-01-10 10:56:41.36	17.38	21.56	-37.5	-37.7	13.8	3.80e-06	0	27	0	4857004032	42	14245
2026-01-10 10:56:42.35	17.33	21.74	-37.3	-37.5	13.8	0.00e+00	0	27	0	4974444544	41	14696
2026-01-10 10:56:43.34	17.27	21.93	-37.3	-37.5	13.8	0.00e+00	0	27	0	5083496448	41	14756
2026-01-10 10:56:44.34	17.22	22.11	-37.2	-37.4	13.8	1.90e-06	0	27	0	5200936960	41	14569
2026-01-10 10:56:45.34	17.16	22.30	-37.1	-37.3	13.8	1.90e-06	0	27	0	5301600256	41	14384
2026-01-10 10:56:46.32	17.10	22.49	-37.0	-37.2	13.9	0.00e+00	0	27	0	5419040768	41	14197
2026-01-10 10:56:47.32	17.04	22.68	-37.0	-37.2	13.9	0.00e+00	0	27	0	5528092672	41	14171
2026-01-10 10:56:48.31	16.98	22.88	-36.9	-37.1	13.9	0.00e+00	0	27	0	5645533184	41	14050
2026-01-10 10:56:49.31	16.92	23.07	-36.8	-37.0	13.8	0.00e+00	0	27	0	5754585088	40	14722
2026-01-10 10:56:50.30	16.86	23.27	-36.7	-36.9	13.9	0.00e+00	0	27	0	5863636992	40	14460
2026-01-10 10:56:51.28	16.80	23.46	-36.7	-36.9	13.9	3.80e-06	0	27	0	5972688896	40	14580
2026-01-10 10:56:52.27	16.73	23.66	-36.5	-36.8	14.0	1.90e-06	0	27	0	6090129408	40	14286
2026-01-10 10:56:53.26	16.67	23.87	-36.5	-36.7	14.0	0.00e+00	0	27	0	6199181312	40	14264
2026-01-10 10:56:54.25	16.60	24.07	-36.4	-36.6	14.0	0.00e+00	0	27	0	6308233216	40	14032
2026-01-10 10:56:55.24	16.54	24.27	-36.4	-36.6	13.9	1.90e-06	0	27	0	6417285120	39	14864
2026-01-10 10:56:56.24	16.47	24.48	-36.4	-36.6	13.9	1.90e-06	0	27	0	6534725632	39	14874
2026-01-10 10:56:57.23	16.40	24.69	-36.2	-36.5	14.0	1.90e-06	0	27	0	6643777536	39	14610
2026-01-10 10:56:58.23	16.33	24.91	-36.2	-36.5	14.0	0.00e+00	0	27	0	6752829440	39	14636
2026-01-10 10:56:59.22	16.26	25.12	-36.2	-36.4	14.0	0.00e+00	0	27	0	6870269952	39	14529
2026-01-10 10:57:00.22	16.18	25.34	-36.1	-36.3	14.0	1.90e-06	0	27	0	6979321856	39	14370
2026-01-10 10:57:01.21	16.11	25.55	-36.1	-36.3	14.0	0.00e+00	0	27	0	7096762368	39	14323
2026-01-10 10:57:02.20	16.04	25.77	-36.1	-36.3	14.0	0.00e+00	0	27	0	7205814272	39	14335
2026-01-10 10:57:03.19	15.96	26.00	-35.9	-36.1	14.1	0.00e+00	0	27	0	7314866176	39	14019
2026-01-10 10:57:04.18	15.88	26.22	-35.7	-35.9	14.0	0.00e+00	0	27	0	7423918080	38	14583
2026-01-10 10:57:05.17	15.81	26.45	-35.7	-35.9	14.0	0.00e+00	0	27	0	7541358592	38	14588
2026-01-10 10:57:06.16	15.73	26.67	-35.7	-35.9	14.1	0.00e+00	0	27	0	7650410496	38	14519
2026-01-10 10:57:07.16	15.65	26.91	-35.7	-35.9	14.0	0.00e+00	0	27	0	7759462400	38	14565
2026-01-10 10:57:08.16	15.56	27.14	-35.6	-35.8	14.1	0.00e+00	0	27	0	7876902912	38	14332
2026-01-10 10:57:09.14	15.48	27.37	-35.5	-35.7	14.1	0.00e+00	0	27	0	7985954816	38	14239
2026-01-10 10:57:10.13	15.40	27.61	-35.3	-35.5	14.2	0.00e+00	0	27	0	8095006720	37	14717
2026-01-10 10:57:11.12	15.31	27.85	-35.3	-35.5	14.1	0.00e+00	0	27	0	8204058624	37	14672
2026-01-10 10:57:12.12	15.22	28.10	-35.3	-35.5	14.1	0.00e+00	0	27	0	8321499136	37	14665
2026-01-10 10:57:13.11	15.13	28.34	-35.3	-35.5	14.1	0.00e+00	0	27	0	8430551040	37	14731
2026-01-10 10:57:14.11	15.04	28.59	-35.1	-35.3	14.2	0.00e+00	0	27	0	8547991552	37	14376
2026-01-10 10:57:15.10	14.95	28.84	-35.0	-35.2	14.2	0.00e+00	0	27	0	8657043456	37	14181
2026-01-10 10:57:16.09	14.85	29.09	-34.9	-35.1	14.2	0.00e+00	0	27	0	8766095360	37	14091
2026-01-10 10:57:17.09	14.76	29.35	-34.9	-35.1	14.2	0.00e+00	0	27	0	8883535872	37	14046
2026-01-10 10:57:18.09	14.66	29.61	-34.8	-35.0	14.1	0.00e+00	0	27	0	8992587776	36	14700
2026-01-10 10:57:19.07	14.56	29.87	-34.7	-34.9	14.2	0.00e+00	0	27	0	9101639680	36	14567
2026-01-10 10:57:20.06	14.46	30.13	-34.6	-34.8	14.2	0.00e+00	0	27	0	9210691584	36	14388
2026-01-10 10:57:21.04	14.36	30.39	-34.6	-34.8	14.2	1.90e-06	0	27	0	9319743488	36	14334
2026-01-10 10:57:22.03	14.25	30.66	-34.6	-34.8	14.2	0.00e+00	0	27	0	9437184000	36	14295
2026-01-10 10:57:23.02	14.15	30.93	-34.5	-34.7	14.3	0.00e+00	0	27	0	9546235904	36	14126
2026-01-10 10:57:24.01	14.04	31.21	-31.7	-31.9	14.1	1.90e-06	0	27	0	9655287808	30	14519
2026-01-10 10:57:25.00	13.93	31.48	-31.7	-31.9	14.1	0.00e+00	0	27	0	9772728320	30	14605
2026-01-10 10:57:25.99	13.81	31.76	-31.6	-31.8	14.2	0.00e+00	0	27	0	9881780224	30	14370
2026-01-10 10:57:26.99	13.70	32.05	-31.6	-31.8	14.2	0.00e+00	0	27	0	9990832128	30	14421
2026-01-10 10:57:27.98	13.58	32.33	-31.5	-31.7	14.2	0.00e+00	0	27	0	10099884032	30	14204
2026-01-10 10:57:28.98	13.46	32.63	-31.5	-31.7	14.2	0.00e+00	0	27	0	10217324544	30	14255
2026-01-10 10:57:29.98	13.33	32.92	-31.2	-31.5	14.2	0.00e+00	0	27	0	10326376448	29	14633
2026-01-10 10:57:30.98	13.21	33.22	-31.1	-31.4	14.2	0.00e+00	0	27	0	10443816960	29	14451
2026-01-10 10:57:31.97	13.08	33.52	-30.9	-31.2	14.3	0.00e+00	0	27	0	10552868864	29	14149
2026-01-10 10:57:32.97	12.95	33.82	-30.9	-31.1	14.3	0.00e+00	0	27	0	10661920768	29	14002
2026-01-10 10:57:33.95	12.82	34.12	-30.8	-31.0	14.2	0.00e+00	0	27	0	10779361280	28	14668
2026-01-10 10:57:34.95	12.68	34.44	-30.7	-31.0	14.2	0.00e+00	0	27	0	10888413184	28	14630
2026-01-10 10:57:35.95	12.54	34.75	-30.6	-30.8	14.3	0.00e+00	0	27	0	11005853696	28	14324
2026-01-10 10:57:36.93	12.40	35.06	-30.5	-30.7	14.3	0.00e+00	0	27	0	11106516992	28	14222
2026-01-10 10:57:37.93	12.26	35.39	-30.5	-30.7	14.3	0.00e+00	0	27	0	11223957504	28	14222
2026-01-10 10:57:38.92	12.11	35.71	-30.4	-30.6	14.2	0.00e+00	0	27	0	11333009408	27	14830
2026-01-10 10:57:39.91	11.96	36.03	-30.4	-30.7	14.2	0.00e+00	0	27	0	11450449920	27	14953
2026-01-10 10:57:40.91	11.81	36.37	-30.3	-30.5	14.2	0.00e+00	0	27	0	11559501824	27	14775
2026-01-10 10:57:41.90	11.65	36.70	-30.2	-30.4	14.3	0.00e+00	0	27	0	11668553728	27	14523
2026-01-10 10:57:42.90	11.49	37.04	-30.1	-30.3	14.3	0.00e+00	0	27	0	11785994240	27	14431
2026-01-10 10:57:43.90	11.32	37.38	-30.1	-30.3	14.4	0.00e+00	0	27	0	11895046144	27	14306
2026-01-10 10:57:44.88	11.16	37.72	-29.9	-30.1	14.4	0.00e+00	0	27	0	12004098048	27	14065
2026-01-10 10:57:45.88	10.98	38.07	-29.8	-30.0	14.3	0.00e+00	0	27	0	12113149952	26	14694
2026-01-10 10:57:46.87	10.81	38.43	-29.8	-30.0	14.3	0.00e+00	0	27	0	12230590464	26	14654
2026-01-10 10:57:47.86	10.63	38.78	-29.6	-29.8	14.4	0.00e+00	0	27	0	12339642368	26	14322
2026-01-10 10:57:48.85	10.44	39.14	-29.5	-29.7	14.4	0.00e+00	0	27	0	12457082880	26	14175
2026-01-10 10:57:49.84	10.25	39.50	-29.5	-29.7	14.4	0.00e+00	0	27	0	12566134784	26	14216
2026-01-10 10:57:50.84	10.06	39.88	-29.4	-29.6	14.4	0.00e+00	0	27	0	12675186688	26	14036
2026-01-10 10:57:51.84	9.86	40.25	-29.5	-29.7	14.4	0.00e+00	0	27	0	12784238592	26	14149
2026-01-10 10:57:52.84	9.65	40.63	-29.4	-29.6	14.4	0.00e+00	0	27	0	12901679104	26	14048
2026-01-10 10:57:53.83	9.45	41.01	-29.2	-29.4	14.4	0.00e+00	0	27	0	13010731008	25	14473
2026-01-10 10:57:54.81	9.23	41.39	-29.1	-29.3	14.4	0.00e+00	0	27	0	13119782912	25	14310
2026-01-10 10:57:55.80	9.02	41.78	-29.0	-29.2	14.4	0.00e+00	0	27	0	13237223424	25	14166
2026-01-10 10:57:56.78	8.79	42.17	-28.9	-29.1	14.4	0.00e+00	0	27	0	13346275328	25	14098
2026-01-10 10:57:57.77	8.56	42.56	-28.7	-28.9	14.4	0.00e+00	0	27	0	13455327232	24	14534
2026-01-10 10:57:58.76	8.33	42.96	-28.6	-28.8	14.4	0.00e+00	0	27	0	13564379136	24	14351
2026-01-10 10:57:59.76	8.08	43.37	-28.6	-28.8	14.4	0.00e+00	0	27	0	13681819648	24	14428
2026-01-10 10:58:00.76	7.83	43.78	-28.5	-28.7	14.4	0.00e+00	0	27	0	13790871552	24	14243
2026-01-10 10:58:01.75	7.57	44.20	-28.3	-28.5	14.4	0.00e+00	0	27	0	13908312064	23	14746
2026-01-10 10:58:02.74	7.31	44.61	-28.3	-28.5	14.4	0.00e+00	0	27	0	14008975360	23	14712
2026-01-10 10:58:03.73	7.04	45.04	-28.4	-28.6	14.3	0.00e+00	0	27	0	14126415872	23	14807
2026-01-10 10:58:04.72	6.76	45.46	-28.1	-28.4	14.4	0.00e+00	0	27	0	14235467776	23	14465
2026-01-10 10:58:05.71	6.48	45.89	-28.0	-28.2	14.5	0.00e+00	0	27	0	14352908288	23	14208
2026-01-10 10:58:06.71	6.18	46.33	-28.0	-28.2	14.5	0.00e+00	0	27	0	14461960192	23	14208
2026-01-10 10:58:07.70	5.88	46.77	-28.0	-28.3	14.4	0.00e+00	0	27	0	14571012096	23	14302
2026-01-10 10:58:08.70	5.56	47.22	-27.9	-28.2	14.5	0.00e+00	0	27	0	14688452608	23	14121
2026-01-10 10:58:09.68	5.24	47.66	-27.9	-28.1	14.5	0.00e+00	0	27	0	14797504512	23	13980
2026-01-10 10:58:10.68	4.91	48.12	-27.8	-28.0	14.4	0.00e+00	0	27	0	14906556416	22	14742
2026-01-10 10:58:11.66	4.57	48.57	-27.7	-27.9	14.4	0.00e+00	0	27	0	15015608320	22	14556
2026-01-10 10:58:12.65	4.22	49.03	-27.6	-27.8	14.5	0.00e+00	0	27	0	15133048832	22	14375
2026-01-10 10:58:13.63	3.86	49.49	-27.6	-27.8	14.5	0.00e+00	0	27	0	15242100736	22	14412
2026-01-10 10:58:14.63	3.48	49.96	-27.5	-27.7	14.5	0.00e+00	0	27	0	15351152640	22	14201
2026-01-10 10:58:15.61	3.10	50.43	-27.5	-27.7	14.5	0.00e+00	0	27	0	15460204544	22	14177
2026-01-10 10:58:16.61	2.69	50.91	-27.5	-27.7	14.5	0.00e+00	0	27	0	15577645056	22	14231
2026-01-10 10:58:17.61	2.27	51.40	-27.4	-27.6	14.6	0.00e+00	0	27	0	15686696960	22	14022
2026-01-10 10:58:18.60	1.85	51.88	-27.3	-27.5	14.5	0.00e+00	0	27	0	15804137472	21	14663
2026-01-10 10:58:19.59	1.40	52.37	-27.3	-27.5	14.5	0.00e+00	0	27	0	15904800768	21	14678
2026-01-10 10:58:20.59	0.94	52.86	-27.3	-27.5	14.4	0.00e+00	0	27	0	16022241280	21	14737
2026-01-10 10:58:21.57	0.47	53.35	-27.2	-27.4	14.5	0.00e+00	0	27	0	16131293184	21	14519
2026-01-10 10:58:22.56	359.98	53.85	-27.0	-27.2	14.5	0.00e+00	0	27	0	16248733696	21	14244
2026-01-10 10:58:23.54	359.48	54.35	-27.1	-27.2	14.5	0.00e+00	0	27	0	16357785600	21	14274
2026-01-10 10:58:24.53	358.95	54.85	-27.1	-27.3	14.5	0.00e+00	0	27	0	16466837504	21	14425
2026-01-10 10:58:25.52	358.41	55.36	-27.1	-27.3	14.5	0.00e+00	0	27	0	16575889408	21	14279
2026-01-10 10:58:26.51	357.84	55.87	-27.0	-27.2	14.6	0.00e+00	0	27	0	16693329920	21	14170
2026-01-10 10:58:27.50	357.25	56.38	-27.0	-27.2	14.5	0.00e+00	0	27	0	16802381824	21	14265
2026-01-10 10:58:28.49	356.64	56.89	-26.9	-27.1	14.6	0.00e+00	0	27	0	16911433728	21	14065
2026-01-10 10:58:29.48	356.01	57.41	-26.8	-27.1	14.5	0.00e+00	0	27	0	17020485632	20	14812
2026-01-10 10:58:30.48	355.34	57.93	-26.8	-27.1	14.4	0.00e+00	0	27	0	17137926144	20	14793
2026-01-10 10:58:31.47	354.65	58.45	-26.7	-26.9	14.5	0.00e+00	0	27	0	17246978048	20	14470
2026-01-10 10:58:32.46	353.94	58.97	-26.7	-26.9	14.5	0.00e+00	0	27	0	17356029952	20	14477
2026-01-10 10:58:33.45	353.19	59.49	-26.6	-26.8	14.5	0.00e+00	0	27	0	17473470464	20	14327
2026-01-10 10:58:34.45	352.41	60.02	-26.6	-26.8	14.5	0.00e+00	0	27	0	17582522368	20	14413
2026-01-10 10:58:35.45	351.60	60.54	-26.5	-26.7	14.6	0.00e+00	0	27	0	17699962880	20	14220
2026-01-10 10:58:36.44	350.75	61.06	-26.6	-26.8	14.5	0.00e+00	0	27	0	17800626176	20	14320
2026-01-10 10:58:37.43	349.88	61.58	-26.5	-26.7	14.5	0.00e+00	0	27	0	17918066688	20	14255
2026-01-10 10:58:38.43	348.95	62.10	-26.5	-26.6	14.6	0.00e+00	0	27	0	18027118592	20	14111
2026-01-10 10:58:39.42	347.99	62.62	-26.4	-26.6	14.4	0.00e+00	0	27	0	18144559104	19	14896
2026-01-10 10:58:40.42	346.98	63.14	-26.5	-26.7	14.4	0.00e+00	0	27	0	18253611008	19	15032
2026-01-10 10:58:41.41	345.94	63.64	-26.4	-26.6	14.4	0.00e+00	0	27	0	18362662912	19	14876
2026-01-10 10:58:42.41	344.84	64.15	-26.3	-26.5	14.5	0.00e+00	0	27	0	18480103424	19	14772
2026-01-10 10:58:43.40	343.70	64.65	-26.3	-26.5	14.5	0.00e+00	0	27	0	18589155328	19	14737
2026-01-10 10:58:44.39	342.51	65.14	-26.3	-26.5	14.5	0.00e+00	0	27	0	18706595840	19	14691
2026-01-10 10:58:45.38	341.26	65.63	-26.3	-26.6	14.4	0.00e+00	0	27	0	18807259136	19	14807
2026-01-10 10:58:46.37	339.96	66.11	-26.2	-26.4	14.5	0.00e+00	0	27	0	18924699648	19	14584
2026-01-10 10:58:47.37	338.58	66.58	-26.3	-26.6	14.4	0.00e+00	0	27	0	19033751552	19	14797
2026-01-10 10:58:48.36	337.16	67.04	-26.2	-26.4	14.5	0.00e+00	0	27	0	19151192064	19	14523
2026-01-10 10:58:49.36	335.66	67.50	-26.2	-26.5	14.5	0.00e+00	0	27	0	19260243968	19	14627
2026-01-10 10:58:50.35	334.11	67.93	-26.2	-26.4	14.5	0.00e+00	0	27	0	19369295872	19	14602
2026-01-10 10:58:51.34	332.49	68.36	-26.2	-26.4	14.5	0.00e+00	0	27	0	19486736384	19	14584
2026-01-10 10:58:52.33	330.80	68.77	-26.2	-26.4	14.5	0.00e+00	0	27	0	19595788288	19	14498
2026-01-10 10:58:53.32	329.04	69.16	-26.1	-26.3	14.5	0.00e+00	0	27	0	19704840192	19	14398
2026-01-10 10:58:54.32	327.18	69.54	-26.1	-26.3	14.5	0.00e+00	0	27	0	19813892096	19	14384
2026-01-10 10:58:55.31	325.28	69.90	-26.1	-26.3	14.5	0.00e+00	0	27	0	19931332608	19	14403
2026-01-10 10:58:56.31	323.28	70.24	-26.2	-26.4	14.5	0.00e+00	0	27	0	20040384512	19	14501
2026-01-10 10:58:57.30	321.23	70.55	-26.1	-26.3	14.5	0.00e+00	0	27	0	20157825024	19	14343
2026-01-10 10:58:58.29	319.11	70.84	-26.1	-26.3	14.5	0.00e+00	0	27	0	20266876928	19	14431
2026-01-10 10:58:59.28	316.92	71.11	-26.1	-26.3	14.5	0.00e+00	0	27	0	20375928832	19	14361
2026-01-10 10:59:00.27	314.67	71.35	-26.1	-26.3	14.5	0.00e+00	0	27	0	20484980736	19	14390
2026-01-10 10:59:01.26	312.36	71.57	-26.0	-26.3	14.6	0.00e+00	0	27	0	20602421248	19	14285
2026-01-10 10:59:02.25	309.99	71.75	-26.2	-26.4	14.5	0.00e+00	0	27	0	20711473152	19	14512
2026-01-10 10:59:03.25	307.56	71.91	-26.2	-26.4	14.5	0.00e+00	0	27	0	20820525056	19	14470
2026-01-10 10:59:04.24	305.10	72.03	-26.0	-26.2	14.6	0.00e+00	0	27	0	20929576960	19	14251
2026-01-10 10:59:05.23	302.62	72.13	-26.1	-26.3	14.6	0.00e+00	0	27	0	21047017472	19	14346
2026-01-10 10:59:06.22	300.11	72.19	-26.0	-26.2	14.6	0.00e+00	0	27	0	21156069376	19	14231
2026-01-10 10:59:07.21	297.59	72.22	-26.1	-26.3	14.6	0.00e+00	0	27	0	21265121280	19	14295
2026-01-10 10:59:08.21	295.04	72.21	-26.0	-26.2	14.6	0.00e+00	0	27	0	21382561792	19	14255
2026-01-10 10:59:09.20	292.52	72.18	-26.0	-26.2	14.6	0.00e+00	0	27	0	21491613696	19	14194
2026-01-10 10:59:10.20	289.99	72.11	-26.0	-26.3	14.6	0.00e+00	0	27	0	21609054208	19	14279
2026-01-10 10:59:11.19	287.51	72.01	-26.2	-26.4	14.5	0.00e+00	0	27	0	21709717504	19	14524
2026-01-10 10:59:12.18	285.07	71.87	-26.0	-26.3	14.6	0.00e+00	0	27	0	21827158016	19	14289
2026-01-10 10:59:13.17	282.66	71.71	-26.1	-26.3	14.6	0.00e+00	0	27	0	21936209920	19	14329
2026-01-10 10:59:14.16	280.31	71.52	-26.1	-26.3	14.5	0.00e+00	0	27	0	22053650432	19	14361
2026-01-10 10:59:15.16	277.99	71.29	-26.1	-26.3	14.6	0.00e+00	0	27	0	22162702336	19	14380
2026-01-10 10:59:16.15	275.75	71.05	-26.2	-26.4	14.5	0.00e+00	0	27	0	22271754240	19	14514
2026-01-10 10:59:17.13	273.60	70.77	-26.2	-26.4	14.5	0.00e+00	0	27	0	22380806144	19	14520
2026-01-10 10:59:18.12	271.50	70.48	-26.1	-26.3	14.6	0.00e+00	0	27	0	22498246656	19	14394
2026-01-10 10:59:19.11	269.47	70.16	-26.2	-26.4	14.5	0.00e+00	0	27	0	22607298560	19	14561
2026-01-10 10:59:20.11	267.48	69.81	-26.2	-26.4	14.5	0.00e+00	0	27	0	22716350464	19	14535
2026-01-10 10:59:21.10	265.60	69.45	-26.3	-26.5	14.5	0.00e+00	0	27	0	22833790976	19	14655
2026-01-10 10:59:22.09	263.78	69.07	-26.2	-26.4	14.5	0.00e+00	0	27	0	22942842880	19	14606
2026-01-10 10:59:23.08	262.03	68.67	-26.3	-26.5	14.5	0.00e+00	0	27	0	23051894784	19	14660
2026-01-10 10:59:24.08	260.34	68.25	-26.2	-26.4	14.5	0.00e+00	0	27	0	23160946688	19	14603
2026-01-10 10:59:25.07	258.74	67.83	-26.3	-26.5	14.5	0.00e+00	0	27	0	23278387200	19	14681
2026-01-10 10:59:26.06	257.20	67.38	-26.4	-26.6	14.5	0.00e+00	0	27	0	23387439104	19	14838
2026-01-10 10:59:27.05	255.73	66.93	-26.3	-26.5	14.5	0.00e+00	0	27	0	23504879616	19	14748
2026-01-10 10:59:28.05	254.31	66.46	-26.4	-26.6	14.5	0.00e+00	0	27	0	23613931520	19	14872
2026-01-10 10:59:29.05	252.95	65.99	-27.7	-38.2	6.2	6.45e-04	0	27	0	23722983424	19	56697
2026-01-10 10:59:30.05	251.65	65.50	-57.9	-61.7	6.2	0.00e+00	0	27	104	23722983424	81	23892
2026-01-10 10:59:31.04	250.41	65.01	-58.0	-61.7	6.2	0.00e+00	0	27	104	23722983424	81	23913
2026-01-10 10:59:32.03	249.23	64.52	-58.3	-61.8	6.2	0.00e+00	0	27	104	23722983424	82	22713
2026-01-10 10:59:33.02	248.11	64.02	-58.0	-61.7	6.2	0.00e+00	0	27	104	23722983424	82	22504
2026-01-10 10:59:34.01	247.03	63.51	-58.8	-62.0	6.2	0.00e+00	0	27	104	23722983424	83	21972
2026-01-10 10:59:35.00	245.99	63.00	-58.8	-62.0	6.2	0.00e+00	0	27	104	23722983424	83	22027
2026-01-10 10:59:35.98	245.01	62.49	-58.6	-61.9	6.2	0.00e+00	0	27	104	23722983424	83	21736
2026-01-10 10:59:36.98	244.06	61.97	-58.1	-61.8	6.2	0.00e+00	0	27	104	23722983424	83	21453
2026-01-10 10:59:37.97	243.15	61.46	-58.8	-62.0	6.2	0.00e+00	0	27	104	23722983424	83	22040
2026-01-10 10:59:38.96	242.28	60.94	-58.8	-62.0	6.2	0.00e+00	0	27	104	23722983424	83	22046
2026-01-10 10:59:39.96	241.43	60.41	-58.6	-61.9	6.2	0.00e+00	0	27	104	23722983424	83	21693
2026-01-10 10:59:40.96	240.63	59.88	-58.1	-61.7	6.2	0.00e+00	0	27	104	23722983424	83	21357
2026-01-10 10:59:41.94	239.87	59.37	-58.8	-62.0	6.2	0.00e+00	0	27	104	23722983424	83	21871
2026-01-10 10:59:42.94	239.12	58.84	-58.7	-62.0	6.2	0.00e+00	0	27	104	23722983424	83	21948
2026-01-10 10:59:43.93	238.41	58.32	-58.6	-61.9	6.2	0.00e+00	0	27	104	23722983424	83	21837
2026-01-10 10:59:44.94	237.72	57.79	-58.3	-61.8	6.2	0.00e+00	0	27	104	23722983424	83	21529
2026-01-10 10:59:45.93	237.06	57.27	-58.7	-61.9	6.2	0.00e+00	0	27	104	23722983424	83	21843
2026-01-10 10:59:46.93	236.43	56.75	-58.7	-61.9	6.2	0.00e+00	0	27	104	23722983424	83	21788
2026-01-10 10:59:47.93	235.82	56.23	-58.6	-61.9	6.2	0.00e+00	0	27	104	23722983424	83	21685
2026-01-10 10:59:48.92	235.23	55.72	-58.2	-61.8	6.2	0.00e+00	0	27	104	23722983424	83	21386
2026-01-10 10:59:49.91	234.67	55.21	-58.7	-62.0	6.2	0.00e+00	0	27	104	23722983424	83	21887
2026-01-10 10:59:50.91	234.13	54.70	-58.7	-62.0	6.2	0.00e+00	0	27	104	23722983424	83	21870
2026-01-10 10:59:51.91	233.60	54.19	-58.6	-61.9	6.2	0.00e+00	0	27	104	23722983424	83	21660
2026-01-10 10:59:52.90	233.10	53.69	-58.2	-61.7	6.2	0.00e+00	0	27	104	23722983424	83	21336
2026-01-10 10:59:53.88	232.61	53.20	-58.7	-61.9	6.2	0.00e+00	0	27	104	23722983424	83	21780
2026-01-10 10:59:54.87	232.14	52.70	-58.7	-61.9	6.1	0.00e+00	0	27	104	23722983424	83	21742
2026-01-10 10:59:55.86	231.69	52.21	-58.6	-61.9	6.2	0.00e+00	0	27	104	23722983424	83	21611
2026-01-10 10:59:56.86	231.25	51.72	-58.3	-61.7	6.2	0.00e+00	0	27	104	23722983424	83	21299
2026-01-10 10:59:57.86	230.82	51.23	-58.7	-61.9	6.2	0.00e+00	0	27	104	23722983424	83	21707
2026-01-10 10:59:58.86	230.41	50.74	-58.7	-61.9	6.2	0.00e+00	0	27	104	23722983424	83	21658
2026-01-10 10:59:59.85	230.01	50.27	-58.5	-61.8	6.2	0.00e+00	0	27	104	23722983424	83	21458
2026-01-10 11:00:00.84	229.63	49.80	-58.3	-61.7	6.2	0.00e+00	0	27	104	23722983424	83	21271
2026-01-10 11:00:01.84	229.25	49.32	-58.6	-61.9	6.2	0.00e+00	0	27	104	23722983424	83	21628
2026-01-10 11:00:02.84	228.89	48.86	-58.6	-61.9	6.2	0.00e+00	0	27	104	23722983424	83	21637
2026-01-10 11:00:03.82	228.54	48.40	-58.5	-61.8	6.2	0.00e+00	0	27	104	23722983424	83	21510
2026-01-10 11:00:04.82	228.20	47.94	-58.3	-61.7	6.2	0.00e+00	0	27	104	23722983424	83	21269
2026-01-10 11:00:05.82	227.87	47.49	-58.6	-61.8	6.2	0.00e+00	0	27	104	23722983424	83	21538
2026-01-10 11:00:06.81	227.55	47.04	-58.6	-61.9	6.2	0.00e+00	0	27	104	23722983424	83	21656
2026-01-10 11:00:07.81	227.24	46.59	-58.5	-61.8	6.2	0.00e+00	0	27	104	23722983424	83	21493
2026-01-10 11:00:08.81	226.93	46.15	-58.3	-61.7	6.2	0.00e+00	0	27	104	23722983424	83	21341
2026-01-10 11:00:09.80	226.64	45.71	-58.6	-61.8	6.2	0.00e+00	0	26	104	23722983424	83	21590
2026-01-10 11:00:10.79	226.36	45.28	-58.6	-61.8	6.2	0.00e+00	0	27	104	23722983424	83	21498
2026-01-10 11:00:11.78	226.08	44.86	-58.5	-61.8	6.2	0.00e+00	0	27	104	23722983424	83	21390
2026-01-10 11:00:12.77	225.81	44.44	-58.3	-61.7	6.2	0.00e+00	0	27	104	23722983424	83	21247
2026-01-10 11:00:13.77	225.55	44.02	-58.6	-61.8	6.2	0.00e+00	0	27	104	23722983424	83	21410
2026-01-10 11:00:14.76	225.30	43.60	-58.6	-61.8	6.2	0.00e+00	0	27	104	23722983424	83	21471
2026-01-10 11:00:15.75	225.05	43.20	-58.5	-61.7	6.2	0.00e+00	0	26	104	23722983424	83	21327
2026-01-10 11:00:16.75	224.81	42.79	-58.3	-61.7	6.2	0.00e+00	0	26	104	23722983424	83	21183
2026-01-10 11:00:17.75	224.57	42.39	-58.6	-61.8	6.2	0.00e+00	0	27	104	23722983424	83	21371
2026-01-10 11:00:18.73	224.34	41.99	-58.5	-61.7	6.2	0.00e+00	0	27	104	23722983424	83	21318
2026-01-10 11:00:19.73	224.12	41.60	-58.5	-61.7	6.2	0.00e+00	0	27	104	23722983424	83	21312
2026-01-10 11:00:20.72	223.90	41.21	-58.3	-61.7	6.2	0.00e+00	0	27	104	23722983424	83	21158
2026-01-10 11:00:21.70	223.69	40.83	-58.5	-61.7	6.2	0.00e+00	0	27	104	23722983424	83	21289
2026-01-10 11:00:22.70	223.48	40.45	-58.5	-61.7	6.2	0.00e+00	0	26	104	23722983424	83	21342
2026-01-10 11:00:23.69	223.28	40.08	-58.4	-61.7	6.2	0.00e+00	0	26	104	23722983424	83	21221
2026-01-10 11:00:24.67	223.09	39.71	-58.3	-61.6	6.2	0.00e+00	0	26	104	23722983424	83	21076
2026-01-10 11:00:25.66	222.90	39.34	-58.5	-61.7	6.2	0.00e+00	0	27	104	23722983424	83	21255
2026-01-10 11:00:26.65	222.71	38.98	-58.5	-61.7	6.2	0.00e+00	0	27	104	23722983424	83	21293
2026-01-10 11:00:27.64	222.53	38.62	-58.4	-61.7	6.2	0.00e+00	0	26	104	23722983424	83	21157
2026-01-10 11:00:28.63	222.35	38.27	-58.3	-61.6	6.2	0.00e+00	0	27	104	23722983424	83	20997
2026-01-10 11:00:29.62	222.17	37.91	-58.5	-61.7	6.2	0.00e+00	0	27	104	23722983424	83	21254
2026-01-10 11:00:30.61	222.00	37.57	-58.5	-61.7	6.2	0.00e+00	0	26	104	23722983424	83	21202
2026-01-10 11:00:31.61	221.83	37.22	-58.4	-61.6	6.2	0.00e+00	0	27	104	23722983424	83	21098
2026-01-10 11:00:32.60	221.67	36.88	-58.3	-61.6	6.2	0.00e+00	0	26	104	23722983424	83	20896
2026-01-10 11:00:33.60	221.51	36.54	-58.4	-61.6	6.2	0.00e+00	0	27	104	23722983424	83	21062
2026-01-10 11:00:34.58	221.36	36.21	-58.4	-61.7	6.2	0.00e+00	0	27	104	23722983424	83	21194
2026-01-10 11:00:35.58	221.20	35.88	-58.4	-61.6	6.2	0.00e+00	0	27	104	23722983424	83	21077
2026-01-10 11:00:36.58	221.05	35.55	-58.3	-61.6	6.2	0.00e+00	0	27	104	23722983424	83	20929
2026-01-10 11:00:37.56	220.91	35.23	-58.4	-61.6	6.2	0.00e+00	0	26	104	23722983424	83	21058
2026-01-10 11:00:38.55	220.76	34.92	-58.4	-61.6	6.2	0.00e+00	0	26	104	23722983424	83	21046
2026-01-10 11:00:39.55	220.62	34.60	-58.4	-61.6	6.2	0.00e+00	0	27	104	23722983424	83	21004
2026-01-10 11:00:40.54	220.48	34.29	-58.3	-61.6	6.2	0.00e+00	0	27	104	23722983424	83	20931
2026-01-10 11:00:41.52	220.35	33.98	-58.4	-61.6	6.2	0.00e+00	0	27	104	23722983424	83	21013
2026-01-10 11:00:42.52	220.22	33.67	-58.4	-61.6	6.2	0.00e+00	0	27	104	23722983424	83	20970
2026-01-10 11:00:43.51	220.09	33.37	-58.3	-61.6	6.2	0.00e+00	0	26	104	23722983424	83	20907
2026-01-10 11:00:44.51	219.96	33.07	-58.3	-61.5	6.2	0.00e+00	0	26	104	23722983424	83	20743
2026-01-10 11:00:45.50	219.84	32.78	-58.3	-61.6	6.2	0.00e+00	0	26	104	23722983424	83	20879
2026-01-10 11:00:46.49	219.71	32.49	-58.4	-61.6	6.2	0.00e+00	0	26	104	23722983424	83	21008
2026-01-10 11:00:47.49	219.59	32.19	-58.3	-61.5	6.2	0.00e+00	0	27	104	23722983424	83	20836
2026-01-10 11:00:48.48	219.48	31.91	-58.2	-61.5	6.2	0.00e+00	0	27	104	23722983424	83	20832
2026-01-10 11:00:49.47	219.36	31.63	-58.3	-61.6	6.2	0.00e+00	0	27	104	23722983424	83	20901
2026-01-10 11:00:50.46	219.25	31.35	-58.3	-61.5	6.2	0.00e+00	0	27	104	23722983424	83	20854
2026-01-10 11:00:51.46	219.14	31.07	-58.3	-61.5	6.2	0.00e+00	0	27	104	23722983424	83	20812
2026-01-10 11:00:52.45	219.03	30.79	-58.2	-61.5	6.2	0.00e+00	0	27	104	23722983424	83	20678
2026-01-10 11:00:53.44	218.92	30.52	-58.3	-61.5	6.2	0.00e+00	0	26	104	23722983424	83	20705
2026-01-10 11:00:54.44	218.82	30.25	-58.3	-61.5	6.2	0.00e+00	0	27	104	23722983424	83	20768
2026-01-10 11:00:55.43	218.71	29.99	-58.3	-61.5	6.2	0.00e+00	0	27	104	23722983424	83	20727
2026-01-10 11:00:56.42	218.61	29.72	-58.2	-61.4	6.2	0.00e+00	0	27	104	23722983424	83	20621
2026-01-10 11:00:57.41	218.52	29.46	-58.2	-61.5	6.2	0.00e+00	0	27	104	23722983424	83	20806
2026-01-10 11:00:58.41	218.42	29.21	-58.3	-61.5	6.2	0.00e+00	0	26	104	23722983424	83	20719
2026-01-10 11:00:59.40	218.32	28.95	-58.2	-61.4	6.2	0.00e+00	0	27	104	23722983424	83	20596
2026-01-10 11:01:00.39	218.23	28.70	-58.2	-61.5	6.2	0.00e+00	0	26	104	23722983424	83	20638
2026-01-10 11:01:01.39	218.13	28.45	-58.2	-61.4	6.2	0.00e+00	0	26	104	23722983424	83	20570
2026-01-10 11:01:02.38	218.04	28.20	-58.3	-61.5	6.2	0.00e+00	0	26	104	23722983424	83	20695
2026-01-10 11:01:03.38	217.95	27.95	-58.2	-61.5	6.2	0.00e+00	0	26	104	23722983424	83	20669
2026-01-10 11:01:04.37	217.87	27.71	-58.2	-61.4	6.2	0.00e+00	0	27	104	23722983424	83	20591
2026-01-10 11:01:05.36	217.78	27.47	-58.2	-61.5	6.2	0.00e+00	0	27	104	23722983424	83	20657
2026-01-10 11:01:06.35	217.70	27.24	-58.2	-61.4	6.2	0.00e+00	0	26	104	23722983424	83	20536
2026-01-10 11:01:07.33	217.61	27.00	-58.2	-61.4	6.2	0.00e+00	0	27	104	23722983424	83	20575
2026-01-10 11:01:08.33	217.53	26.77	-58.2	-61.4	6.2	0.00e+00	0	27	104	23722983424	83	20489
2026-01-10 11:01:09.32	217.45	26.54	-58.1	-61.4	6.2	0.00e+00	0	27	104	23722983424	83	20503
2026-01-10 11:01:10.32	217.37	26.31	-58.2	-61.4	6.2	0.00e+00	0	27	104	23722983424	83	20541
2026-01-10 11:01:11.32	217.29	26.08	-58.2	-61.4	6.2	0.00e+00	0	26	104	23722983424	83	20461
2026-01-10 11:01:12.31	217.22	25.86	-58.1	-61.4	6.2	0.00e+00	0	27	104	23722983424	83	20466
2026-01-10 11:01:13.30	217.14	25.64	-58.1	-61.4	6.2	0.00e+00	0	27	104	23722983424	83	20455
2026-01-10 11:01:14.29	217.07	25.42	-58.2	-61.3	6.2	0.00e+00	0	27	104	23722983424	83	20388
2026-01-10 11:01:15.29	216.99	25.20	-58.2	-61.4	6.2	0.00e+00	0	27	104	23722983424	83	20446
2026-01-10 11:01:16.28	216.92	24.98	-58.1	-61.3	6.2	0.00e+00	0	27	104	23722983424	83	20393
2026-01-10 11:01:17.28	216.85	24.77	-58.1	-61.3	6.2	0.00e+00	0	27	104	23722983424	83	20367
2026-01-10 11:01:18.26	216.78	24.56	-58.1	-61.4	6.2	0.00e+00	0	27	104	23722983424	83	20410
2026-01-10 11:01:19.25	216.71	24.35	-58.1	-61.3	6.2	0.00e+00	0	26	104	23722983424	83	20377
2026-01-10 11:01:20.24	216.64	24.14	-58.1	-61.3	6.2	0.00e+00	0	27	104	23722983424	83	20307
2026-01-10 11:01:21.24	216.58	23.94	-58.1	-61.3	6.2	0.00e+00	0	27	104	23722983424	83	20232
2026-01-10 11:01:22.23	216.51	23.73	-58.1	-61.3	6.2	0.00e+00	0	27	104	23722983424	83	20367
2026-01-10 11:01:23.23	216.45	23.53	-58.1	-61.3	6.2	0.00e+00	0	27	104	23722983424	83	20317
2026-01-10 11:01:24.21	216.38	23.33	-58.1	-61.3	6.2	0.00e+00	0	27	104	23722983424	83	20314
2026-01-10 11:01:25.21	216.32	23.13	-58.0	-61.2	6.2	0.00e+00	0	27	104	23722983424	83	20146
2026-01-10 11:01:26.20	216.26	22.94	-58.1	-61.3	6.2	0.00e+00	0	26	104	23722983424	83	20222
2026-01-10 11:01:27.20	216.20	22.74	-58.1	-61.3	6.2	0.00e+00	0	27	104	23722983424	83	20274
2026-01-10 11:01:28.18	216.14	22.55	-58.0	-61.3	6.2	0.00e+00	0	26	104	23722983424	83	20254
2026-01-10 11:01:29.17	216.08	22.36	-58.0	-61.3	6.2	0.00e+00	0	26	104	23722983424	83	20197
2026-01-10 11:01:30.16	216.02	22.17	-58.1	-61.3	6.2	0.00e+00	0	26	104	23722983424	83	20181
2026-01-10 11:01:31.16	215.96	21.98	-58.1	-61.3	6.2	0.00e+00	0	27	104	23722983424	83	20215
2026-01-10 11:01:32.16	215.90	21.79	-58.0	-61.2	6.2	0.00e+00	0	27	104	23722983424	83	20157
2026-01-10 11:01:33.16	215.85	21.61	-58.0	-61.2	6.2	0.00e+00	0	27	104	23722983424	83	20084
2026-01-10 11:01:34.15	215.79	21.43	-58.0	-61.3	6.2	0.00e+00	0	27	104	23722983424	83	20188
2026-01-10 11:01:35.14	215.74	21.25	-58.0	-61.3	6.2	0.00e+00	0	27	104	23722983424	83	20196
2026-01-10 11:01:36.13	215.68	21.07	-58.0	-61.2	6.2	0.00e+00	0	26	104	23722983424	83	20064
2026-01-10 11:01:37.12	215.63	20.89	-58.0	-61.2	6.2	0.00e+00	0	27	104	23722983424	83	20057
2026-01-10 11:01:38.11	215.58	20.71	-58.0	-61.2	6.2	0.00e+00	0	26	104	23722983424	83	20055
2026-01-10 11:01:39.10	215.53	20.54	-58.0	-61.2	6.2	0.00e+00	0	27	104	23722983424	83	20030
2026-01-10 11:01:40.09	215.48	20.36	-58.0	-61.2	6.2	0.00e+00	0	27	104	23722983424	83	20075
2026-01-10 11:01:41.08	215.43	20.19	-57.9	-61.2	6.2	0.00e+00	0	26	104	23722983424	83	20034
2026-01-10 11:01:42.07	215.38	20.02	-58.0	-61.2	6.2	0.00e+00	0	26	104	23722983424	83	20005
2026-01-10 11:01:43.06	215.33	19.85	-58.0	-61.2	6.2	0.00e+00	0	26	104	23722983424	83	20055
2026-01-10 11:01:44.05	215.28	19.68	-58.0	-61.2	6.2	0.00e+00	0	27	104	23722983424	83	19982
2026-01-10 11:01:45.05	215.23	19.52	-57.9	-61.1	6.2	0.00e+00	0	27	104	23722983424	83	19912
2026-01-10 11:01:46.04	215.19	19.35	-58.0	-61.2	6.2	0.00e+00	0	27	104	23722983424	83	19982
2026-01-10 11:01:47.03	215.14	19.19	-57.9	-61.1	6.2	0.00e+00	0	27	104	23722983424	83	19881
2026-01-10 11:01:48.02	215.10	19.03	-57.9	-61.2	6.2	0.00e+00	0	27	104	23722983424	83	19953
2026-01-10 11:01:49.00	215.05	18.87	-57.9	-61.1	6.2	0.00e+00	0	27	104	23722983424	83	19897
2026-01-10 11:01:50.00	215.01	18.71	-57.9	-61.1	6.2	0.00e+00	0	27	104	23722983424	83	19930
2026-01-10 11:01:51.00	214.96	18.54	-57.9	-61.1	6.2	0.00e+00	0	27	104	23722983424	83	19908
2026-01-10 11:01:51.99	214.92	18.39	-57.9	-61.1	6.2	0.00e+00	0	27	104	23722983424	83	19892
2026-01-10 11:01:52.99	214.88	18.23	-57.9	-61.1	6.2	0.00e+00	0	27	104	23722983424	83	19845
2026-01-10 11:01:53.98	214.83	18.08	-57.9	-61.1	6.2	0.00e+00	0	27	104	23722983424	83	19849
2026-01-10 11:01:54.96	214.79	17.92	-57.9	-61.1	6.2	0.00e+00	0	27	104	23722983424	83	19909
2026-01-10 11:01:55.95	214.75	17.77	-57.9	-61.1	6.2	0.00e+00	0	27	104	23722983424	83	19758
2026-01-10 11:01:56.94	214.71	17.62	-57.8	-61.0	6.2	0.00e+00	0	27	104	23722983424	82	20787
2026-01-10 11:01:57.93	214.67	17.47	-57.8	-61.1	6.2	0.00e+00	0	27	104	23722983424	82	20883
2026-01-10 11:01:58.93	214.63	17.32	-57.8	-61.0	6.2	0.00e+00	0	27	104	23722983424	82	20847
2026-01-10 11:01:59.92	214.59	17.17	-57.8	-61.0	6.2	0.00e+00	0	27	104	23722983424	82	20834
2026-01-10 11:02:00.91	214.55	17.02	-57.8	-61.0	6.2	0.00e+00	0	27	104	23722983424	82	20736
2026-01-10 11:02:01.91	214.51	16.88	-57.8	-61.0	6.2	0.00e+00	0	26	104	23722983424	82	20848
2026-01-10 11:02:02.91	214.47	16.73	-57.8	-61.0	6.2	0.00e+00	0	27	104	23722983424	82	20748
2026-01-10 11:02:03.90	214.44	16.59	-57.8	-61.0	6.2	0.00e+00	0	27	104	23722983424	82	20783
2026-01-10 11:02:04.89	214.40	16.44	-57.8	-61.0	6.2	0.00e+00	0	27	104	23722983424	82	20710
2026-01-10 11:02:05.88	214.36	16.30	-57.8	-61.0	6.2	0.00e+00	0	26	104	23722983424	82	20793
2026-01-10 11:02:06.87	214.33	16.16	-57.8	-61.0	6.2	0.00e+00	0	27	104	23722983424	82	20762
2026-01-10 11:02:07.87	214.29	16.02	-57.8	-61.0	6.2	0.00e+00	0	27	104	23722983424	82	20824
2026-01-10 11:02:08.86	214.26	15.88	-57.8	-61.0	6.2	0.00e+00	0	27	104	23722983424	82	20721
2026-01-10 11:02:09.82	214.22	15.75	-57.8	-61.0	6.2	0.00e+00	0	27	104	23722983424	82	20715
2026-01-10 11:02:10.81	214.19	15.61	-57.8	-61.0	6.2	0.00e+00	0	27	104	23722983424	82	20779
2026-01-10 11:02:11.79	214.16	15.48	-57.8	-61.0	6.2	0.00e+00	0	26	104	23722983424	82	20713
2026-01-10 11:02:12.78	214.12	15.34	-57.7	-61.0	6.2	0.00e+00	0	27	104	23722983424	82	20654
2026-01-10 11:02:13.78	214.09	15.21	-57.8	-61.0	6.2	0.00e+00	0	27	104	23722983424	82	20660
2026-01-10 11:02:14.77	214.06	15.07	-57.7	-60.9	6.2	0.00e+00	0	27	104	23722983424	82	20591
2026-01-10 11:02:15.77	214.02	14.94	-57.7	-61.0	6.2	0.00e+00	0	26	104	23722983424	82	20704
2026-01-10 11:02:16.75	213.99	14.81	-57.7	-60.9	6.2	0.00e+00	0	27	104	23722983424	82	20630
2026-01-10 11:02:17.75	213.96	14.68	-57.7	-60.9	6.2	0.00e+00	0	27	104	23722983424	82	20632
2026-01-10 11:02:18.73	213.93	14.55	-57.7	-60.9	6.2	0.00e+00	0	27	104	23722983424	82	20545
2026-01-10 11:02:19.72	213.90	14.42	-57.7	-60.9	6.2	0.00e+00	0	27	104	23722983424	82	20600
2026-01-10 11:02:20.72	213.87	14.29	-57.7	-60.9	6.2	0.00e+00	0	27	104	23722983424	82	20473
2026-01-10 11:02:21.71	213.84	14.17	-57.7	-60.9	6.2	0.00e+00	0	27	104	23722983424	82	20464
2026-01-10 11:02:22.71	213.81	14.04	-57.7	-60.9	6.2	0.00e+00	0	27	104	23722983424	82	20508
2026-01-10 11:02:23.70	213.78	13.92	-57.7	-60.9	6.2	0.00e+00	0	27	104	23722983424	82	20520
2026-01-10 11:02:24.69	213.75	13.79	-57.7	-60.9	6.2	0.00e+00	0	27	104	23722983424	82	20515
2026-01-10 11:02:25.68	213.72	13.67	-57.7	-60.9	6.2	0.00e+00	0	27	104	23722983424	82	20429
2026-01-10 11:02:26.67	213.69	13.54	-57.7	-60.9	6.2	0.00e+00	0	26	104	23722983424	82	20401
2026-01-10 11:02:27.66	213.66	13.42	-57.7	-60.9	6.2	0.00e+00	0	27	104	23722983424	82	20507
2026-01-10 11:02:28.65	213.63	13.30	-57.6	-60.8	6.2	0.00e+00	0	27	104	23722983424	82	20395
2026-01-10 11:02:29.64	213.60	13.18	-57.6	-60.8	6.2	0.00e+00	0	27	104	23722983424	82	20337
2026-01-10 11:02:30.63	213.58	13.06	-57.6	-60.8	6.2	0.00e+00	0	27	104	23722983424	82	20382
2026-01-10 11:02:31.62	213.55	12.94	-57.6	-60.9	6.2	0.00e+00	0	27	104	23722983424	82	20428
2026-01-10 11:02:32.63	213.52	12.82	-57.6	-60.8	6.2	0.00e+00	0	27	104	23722983424	82	20274
2026-01-10 11:02:33.62	213.50	12.70	-57.6	-60.8	6.2	0.00e+00	0	27	104	23722983424	82	20353
2026-01-10 11:02:34.60	213.47	12.59	-57.6	-60.8	6.2	0.00e+00	0	27	104	23722983424	82	20347
2026-01-10 11:02:35.60	213.44	12.47	-57.6	-60.8	6.2	0.00e+00	0	27	104	23722983424	82	20368
2026-01-10 11:02:36.59	213.42	12.36	-57.6	-60.8	6.2	0.00e+00	0	27	104	23722983424	82	20348
2026-01-10 11:02:37.58	213.39	12.24	-57.6	-60.8	6.2	0.00e+00	0	26	104	23722983424	82	20230
2026-01-10 11:02:38.58	213.37	12.13	-57.6	-60.8	6.2	0.00e+00	0	27	104	23722983424	82	20230
2026-01-10 11:02:39.57	213.34	12.01	-57.6	-60.8	6.2	0.00e+00	0	27	104	23722983424	82	20271
2026-01-10 11:02:40.56	213.32	11.90	-57.5	-60.8	6.2	0.00e+00	0	26	104	23722983424	82	20255
2026-01-10 11:02:41.55	213.29	11.79	-57.5	-60.8	6.2	0.00e+00	0	26	104	23722983424	82	20225
2026-01-10 11:02:42.54	213.27	11.68	-57.5	-60.7	6.2	0.00e+00	0	27	104	23722983424	82	20049
2026-01-10 11:02:43.53	213.24	11.57	-57.5	-60.8	6.2	0.00e+00	0	27	104	23722983424	82	20185
2026-01-10 11:02:44.53	213.22	11.46	-57.5	-60.7	6.2	0.00e+00	0	27	104	23722983424	82	20136
2026-01-10 11:02:45.51	213.20	11.35	-57.5	-60.7	6.2	0.00e+00	0	26	104	23722983424	82	20046
2026-01-10 11:02:46.50	213.17	11.24	-57.5	-60.7	6.2	0.00e+00	0	27	104	23722983424	82	20081
2026-01-10 11:02:47.50	213.15	11.13	-57.5	-60.7	6.2	0.00e+00	0	27	104	23722983424	82	20132
2026-01-10 11:02:48.49	213.13	11.02	-57.5	-60.7	6.2	0.00e+00	0	26	104	23722983424	82	20074
2026-01-10 11:02:49.47	213.10	10.92	-57.5	-60.7	6.2	0.00e+00	0	26	104	23722983424	82	20008
2026-01-10 11:02:50.46	213.08	10.81	-57.5	-60.7	6.2	0.00e+00	0	26	104	23722983424	82	19951
2026-01-10 11:02:51.45	213.06	10.70	-57.5	-60.7	6.2	0.00e+00	0	27	104	23722983424	82	20035
2026-01-10 11:02:52.45	213.04	10.60	-57.5	-60.7	6.2	0.00e+00	0	27	104	23722983424	82	19986
2026-01-10 11:02:53.43	213.02	10.49	-57.4	-60.6	6.2	0.00e+00	0	27	104	23722983424	82	19917
2026-01-10 11:02:54.42	213.00	10.39	-57.4	-60.6	6.2	0.00e+00	0	26	104	23722983424	82	19854
2026-01-10 11:02:55.42	212.97	10.28	-57.5	-60.6	6.2	0.00e+00	0	27	104	23722983424	82	19914
2026-01-10 11:02:56.41	212.95	10.18	-57.5	-60.7	6.2	0.00e+00	0	27	104	23722983424	82	19945
2026-01-10 11:02:57.39	212.93	10.08	-57.4	-60.6	6.2	0.00e+00	0	26	104	23722983424	82	19916
2026-01-10 11:02:58.38	212.91	9.98	-57.4	-60.6	6.2	0.00e+00	0	27	104	23722983424	82	19866
2026-01-10 11:02:59.38	212.89	9.88	-57.4	-60.6	6.2	0.00e+00	0	26	104	23722983424	82	19841
2026-01-10 11:03:00.38	212.87	9.77	-57.4	-60.7	6.2	0.00e+00	0	26	104	23722983424	82	19946
2026-01-10 11:03:01.36	212.85	9.67	-57.4	-60.6	6.2	0.00e+00	0	27	104	23722983424	82	19791
2026-01-10 11:03:02.36	212.83	9.57	-57.4	-60.6	6.2	0.00e+00	0	27	104	23722983424	82	19729
2026-01-10 11:03:03.34	212.81	9.48	-57.3	-60.5	6.2	0.00e+00	0	27	104	23722983424	81	20836
2026-01-10 11:03:04.34	212.79	9.38	-57.4	-60.6	6.2	0.00e+00	0	26	104	23722983424	81	20902
2026-01-10 11:03:05.33	212.77	9.28	-57.3	-60.5	6.2	0.00e+00	0	26	104	23722983424	81	20786
2026-01-10 11:03:06.31	212.75	9.18	-57.3	-60.5	6.2	0.00e+00	0	26	104	23722983424	81	20774
2026-01-10 11:03:07.30	212.73	9.08	-57.3	-60.5	6.2	0.00e+00	0	26	104	23722983424	81	20810
2026-01-10 11:03:08.29	212.72	8.99	-57.3	-60.5	6.2	0.00e+00	0	27	104	23722983424	81	20796
2026-01-10 11:03:09.28	212.70	8.89	-57.3	-60.5	6.2	0.00e+00	0	27	104	23722983424	81	20743
2026-01-10 11:03:10.28	212.68	8.79	-57.3	-60.5	6.2	0.00e+00	0	27	104	23722983424	81	20732
2026-01-10 11:03:11.27	212.66	8.70	-57.2	-60.5	6.2	0.00e+00	0	26	104	23722983424	81	20634
2026-01-10 11:03:12.27	212.64	8.60	-57.3	-60.5	6.2	0.00e+00	0	27	104	23722983424	81	20783
2026-01-10 11:03:13.26	212.62	8.51	-57.2	-60.5	6.2	0.00e+00	0	26	104	23722983424	81	20671
2026-01-10 11:03:14.25	212.61	8.41	-57.2	-60.5	6.2	0.00e+00	0	26	104	23722983424	81	20661
2026-01-10 11:03:15.24	212.59	8.32	-57.2	-60.5	6.2	0.00e+00	0	26	104	23722983424	81	20639
2026-01-10 11:03:16.23	212.57	8.23	-57.3	-60.5	6.2	0.00e+00	0	26	104	23722983424	81	20733
2026-01-10 11:03:17.22	212.55	8.13	-57.2	-60.4	6.2	0.00e+00	0	26	104	23722983424	81	20564
2026-01-10 11:03:18.21	212.54	8.04	-57.2	-60.4	6.2	0.00e+00	0	26	104	23722983424	81	20552
2026-01-10 11:03:19.19	212.52	7.95	-57.2	-60.4	6.2	0.00e+00	0	26	104	23722983424	81	20545
2026-01-10 11:03:20.19	212.50	7.86	-57.3	-60.5	6.2	0.00e+00	0	26	104	23722983424	81	20661
2026-01-10 11:03:21.17	212.49	7.77	-57.2	-60.4	6.2	0.00e+00	0	27	104	23722983424	81	20486
2026-01-10 11:03:22.16	212.47	7.68	-57.1	-60.3	6.2	0.00e+00	0	26	104	23722983424	81	20361
2026-01-10 11:03:23.15	212.45	7.59	-57.1	-60.3	6.2	0.00e+00	0	26	104	23722983424	81	20230
2026-01-10 11:03:24.15	212.44	7.50	-57.2	-60.4	6.2	0.00e+00	0	27	104	23722983424	81	20512
2026-01-10 11:03:25.14	212.42	7.41	-57.1	-60.3	6.2	0.00e+00	0	27	104	23722983424	81	20325
2026-01-10 11:03:26.13	212.41	7.32	-57.1	-60.3	6.2	0.00e+00	0	27	104	23722983424	81	20286
2026-01-10 11:03:27.13	212.39	7.23	-57.1	-60.3	6.2	0.00e+00	0	26	104	23722983424	81	20301
2026-01-10 11:03:28.12	212.37	7.14	-57.2	-60.4	6.2	0.00e+00	0	27	104	23722983424	81	20430
2026-01-10 11:03:29.11	212.36	7.05	-57.1	-60.3	6.2	0.00e+00	0	27	104	23722983424	81	20348
2026-01-10 11:03:30.10	212.34	6.97	-57.1	-60.3	6.2	0.00e+00	0	26	104	23722983424	81	20205
2026-01-10 11:03:31.10	212.33	6.88	-57.0	-60.2	6.2	0.00e+00	0	27	104	23722983424	81	20077
2026-01-10 11:03:32.09	212.31	6.79	-57.1	-60.3	6.2	0.00e+00	0	27	104	23722983424	81	20311
2026-01-10 11:03:33.09	212.30	6.71	-57.0	-60.3	6.2	0.00e+00	0	26	104	23722983424	81	20172
2026-01-10 11:03:34.08	212.28	6.62	-57.0	-60.2	6.2	0.00e+00	0	26	104	23722983424	81	20077
2026-01-10 11:03:35.07	212.27	6.54	-57.0	-60.2	6.2	0.00e+00	0	27	104	23722983424	81	19934
2026-01-10 11:03:36.06	212.25	6.45	-57.1	-60.3	6.2	0.00e+00	0	26	104	23722983424	81	20224
2026-01-10 11:03:37.05	212.24	6.37	-57.0	-60.2	6.2	0.00e+00	0	27	104	23722983424	81	20112
2026-01-10 11:03:38.04	212.23	6.28	-57.0	-60.2	6.2	0.00e+00	0	27	104	23722983424	81	20027
2026-01-10 11:03:39.03	212.21	6.20	-56.9	-60.1	6.2	0.00e+00	0	26	104	23722983424	81	19919
2026-01-10 11:03:40.02	212.20	6.11	-57.0	-60.2	6.2	0.00e+00	0	26	104	23722983424	81	20142
2026-01-10 11:03:41.01	212.18	6.03	-57.0	-60.2	6.2	0.00e+00	0	27	104	23722983424	81	20055
2026-01-10 11:03:42.01	212.17	5.95	-56.9	-60.1	6.2	0.00e+00	0	27	104	23722983424	81	19885
2026-01-10 11:03:43.01	212.16	5.86	-56.8	-60.0	6.2	0.00e+00	0	27	104	23722983424	80	20745
2026-01-10 11:03:44.00	212.14	5.78	-57.0	-60.1	6.2	0.00e+00	0	26	104	23722983424	80	21105
2026-01-10 11:03:44.99	212.13	5.70	-56.9	-60.1	6.2	0.00e+00	0	27	104	23722983424	80	20928
2026-01-10 11:03:45.98	212.12	5.62	-56.8	-60.0	6.2	0.00e+00	0	27	104	23722983424	80	20849
2026-01-10 11:03:46.98	212.10	5.54	-56.7	-60.0	6.2	0.00e+00	0	26	104	23722983424	80	20641
2026-01-10 11:03:47.97	212.09	5.45	-56.9	-60.1	6.2	0.00e+00	0	27	104	23722983424	80	20988
2026-01-10 11:03:48.96	212.08	5.37	-56.8	-60.0	6.2	0.00e+00	0	27	104	23722983424	80	20779
2026-01-10 11:03:49.96	212.06	5.29	-56.8	-60.0	6.2	0.00e+00	0	27	104	23722983424	80	20721
2026-01-10 11:03:50.96	212.05	5.21	-56.7	-59.9	6.2	0.00e+00	0	26	104	23722983424	80	20547
2026-01-10 11:03:51.95	212.04	5.13	-56.9	-60.1	6.2	0.00e+00	0	26	104	23722983424	80	20901
2026-01-10 11:03:52.94	212.03	5.05	-56.8	-60.0	6.2	0.00e+00	0	26	104	23722983424	80	20697
2026-01-10 11:03:53.94	212.01	4.97	-57.0	-60.2	6.2	0.00e+00	0	26	104	23722983424	80	21274
2026-01-10 11:03:54.94	212.00	4.89	-57.5	-60.7	6.2	0.00e+00	0	27	104	23722983424	80	22537
2026-01-10 11:03:55.95	211.99	4.81	-57.8	-61.0	6.2	0.00e+00	0	27	104	23722983424	81	22030
2026-01-10 11:03:56.96	211.98	4.73	-58.0	-61.2	6.1	0.00e+00	0	26	104	23722983424	81	22487
2026-01-10 11:03:57.96	211.96	4.65	-58.1	-61.3	6.2	0.00e+00	0	27	104	23722983424	81	22801
2026-01-10 11:03:58.95	211.95	4.58	-58.3	-61.5	6.2	0.00e+00	0	27	104	23722983424	82	21973
2026-01-10 11:03:59.95	211.94	4.50	-58.4	-61.6	6.2	0.00e+00	0	26	104	23722983424	82	22247
2026-01-10 11:04:00.95	211.93	4.42	-58.5	-61.7	6.2	0.00e+00	0	27	104	23722983424	82	22500
2026-01-10 11:04:01.95	211.92	4.34	-58.6	-61.8	6.2	0.00e+00	0	27	104	23722983424	82	22697
2026-01-10 11:04:02.94	211.90	4.27	-58.6	-61.8	6.2	0.00e+00	0	27	104	23722983424	82	22804
2026-01-10 11:04:03.94	211.89	4.19	-58.7	-61.9	6.2	0.00e+00	0	27	104	23722983424	83	21830
2026-01-10 11:04:04.94	211.88	4.11	-58.7	-62.0	6.2	0.00e+00	0	26	104	23722983424	83	21911
2026-01-10 11:04:05.93	211.87	4.04	-58.8	-62.0	6.2	0.00e+00	0	26	104	23722983424	83	21956
2026-01-10 11:04:06.94	211.86	3.96	-58.8	-62.0	6.2	0.00e+00	0	26	104	23722983424	83	22095
2026-01-10 11:04:07.93	211.85	3.89	-58.8	-62.0	6.2	0.00e+00	0	26	104	23722983424	83	22099
2026-01-10 11:04:08.93	211.84	3.81	-58.9	-62.1	6.2	0.00e+00	0	26	104	23722983424	83	22174
2026-01-10 11:04:09.93	211.83	3.74	-58.9	-62.1	6.2	0.00e+00	0	27	104	23722983424	83	22257
2026-01-10 11:04:10.93	211.81	3.66	-58.9	-62.1	6.2	0.00e+00	0	26	104	23722983424	83	22232
2026-01-10 11:04:11.93	211.80	3.59	-58.9	-62.2	6.2	0.00e+00	0	26	104	23722983424	83	22416
2026-01-10 11:04:12.93	211.79	3.51	-59.0	-62.2	6.2	0.00e+00	0	27	104	23722983424	83	22512
2026-01-10 11:04:13.92	211.78	3.44	-59.0	-62.2	6.2	0.00e+00	0	27	104	23722983424	83	22584
2026-01-10 11:04:14.92	211.77	3.36	-59.0	-62.2	6.2	0.00e+00	0	26	104	23722983424	83	22569
2026-01-10 11:04:15.92	211.76	3.29	-59.1	-62.3	6.2	0.00e+00	0	26	104	23722983424	83	22802
2026-01-10 11:04:16.91	211.75	3.22	-59.0	-62.2	6.1	0.00e+00	0	26	104	23722983424	83	22624
2026-01-10 11:04:17.89	211.74	3.15	-59.0	-62.2	6.2	0.00e+00	0	27	104	23722983424	83	22550
2026-01-10 11:04:18.88	211.73	3.07	-59.0	-62.2	6.2	0.00e+00	0	26	104	23722983424	83	22529
2026-01-10 11:04:19.86	211.72	3.00	-59.0	-62.2	6.2	0.00e+00	0	27	104	23722983424	83	22468
2026-01-10 11:04:20.84	211.71	2.93	-59.0	-62.2	6.2	0.00e+00	0	27	104	23722983424	83	22367
2026-01-10 11:04:21.83	211.70	2.86	-58.9	-62.2	6.2	0.00e+00	0	27	104	23722983424	83	22425
2026-01-10 11:04:22.83	211.69	2.79	-58.9	-62.2	6.2	0.00e+00	0	26	104	23722983424	83	22386
2026-01-10 11:04:23.82	211.68	2.72	-58.9	-62.1	6.2	0.00e+00	0	26	104	23722983424	83	22312
2026-01-10 11:04:24.82	211.67	2.65	-58.9	-62.2	6.2	0.00e+00	0	27	104	23722983424	83	22373
2026-01-10 11:04:25.81	211.66	2.57	-58.9	-62.1	6.2	0.00e+00	0	26	104	23722983424	83	22302
2026-01-10 11:04:26.80	211.65	2.50	-58.9	-62.1	6.2	0.00e+00	0	27	104	23722983424	83	22195
2026-01-10 11:04:27.79	211.64	2.43	-58.9	-62.1	6.2	0.00e+00	0	26	104	23722983424	83	22315
2026-01-10 11:04:28.79	211.64	2.36	-58.9	-62.1	6.2	0.00e+00	0	26	104	23722983424	83	22181
2026-01-10 11:04:29.78	211.63	2.29	-58.8	-62.1	6.1	0.00e+00	0	27	104	23722983424	83	22182
2026-01-10 11:04:30.77	211.62	2.22	-58.8	-62.1	6.2	0.00e+00	0	27	104	23722983424	83	22221
2026-01-10 11:04:31.76	211.61	2.15	-58.8	-62.1	6.2	0.00e+00	0	27	104	23722983424	83	22137
2026-01-10 11:04:32.76	211.60	2.09	-58.8	-62.0	6.2	0.00e+00	0	27	104	23722983424	83	22071
2026-01-10 11:04:33.75	211.59	2.02	-58.8	-62.0	6.2	0.00e+00	0	27	104	23722983424	83	22021
2026-01-10 11:04:34.74	211.58	1.95	-58.8	-62.0	6.2	0.00e+00	0	27	104	23722983424	83	22024
2026-01-10 11:04:35.73	211.57	1.88	-58.8	-62.0	6.2	0.00e+00	0	27	104	23722983424	83	22047
2026-01-10 11:04:36.72	211.56	1.81	-58.8	-62.0	6.2	0.00e+00	0	26	104	23722983424	83	21992

#Closed at: 2026-01-10 11:04:36
#Recorded file [23722 MB]: D:/lorett/data/31004_260110_135340.dat