passes_logs/2026/01/10/R3.2S_Murmansk/R3.2S_Murmansk__20260110_234743_AQUA_rec.log

#Pass ID: 20260110_234743_AQUA
#Satellite: AQUA
#Configuration: AQUA
#almurnet v.1.7.20251203
#Start time: 2026-01-10 23:47:44

#Version: 2.2.20231116
#Station: R3.2S_Murmansk
#Location: 33.079688 lon 68.888172 lat
#TLE: 1 27424U 02022A   26009.89520876  .00001045  00000+0  21914-3 0  9996
#TLE: 2 27424  98.4076 336.2372 0002032  84.5955   1.0356 14.61811442260144

#Time	Az	El	Level	Level2	SNR	BER	BlckErr	Temp	State	Recorded	gain1	gain2
2026-01-10 23:47:44.32	21.38	2.07	-56.4	-75.5	3.8	7.48e-01	0	21	0	0	82	30798
2026-01-10 23:47:45.33	21.48	2.12	-56.3	-74.9	3.8	7.48e-01	0	21	104	0	80	32230
2026-01-10 23:47:46.33	21.57	2.18	-56.3	-74.9	3.8	7.46e-01	0	21	104	0	80	32449
2026-01-10 23:47:47.32	21.66	2.23	-56.3	-75.0	3.8	7.46e-01	0	21	104	0	80	32780
2026-01-10 23:47:48.33	21.75	2.28	-56.3	-75.1	3.8	7.47e-01	0	21	104	0	80	32939
2026-01-10 23:47:49.33	21.84	2.34	-56.3	-75.1	3.8	7.45e-01	0	21	104	0	80	33221
2026-01-10 23:47:50.33	21.94	2.39	-56.3	-75.0	3.8	7.48e-01	0	21	104	0	80	32797
2026-01-10 23:47:51.32	22.03	2.44	-56.3	-75.2	3.8	7.44e-01	0	21	104	0	80	33665
2026-01-10 23:47:52.32	22.12	2.50	-56.3	-75.4	3.8	7.50e-01	0	21	104	0	80	34368
2026-01-10 23:47:53.32	22.21	2.55	-56.3	-75.4	3.8	7.47e-01	0	21	104	0	80	34330
2026-01-10 23:47:54.33	22.31	2.61	-56.3	-75.5	3.8	7.46e-01	0	21	104	0	80	34577
2026-01-10 23:47:55.33	22.40	2.66	-56.3	-75.5	3.8	7.45e-01	0	22	104	0	80	34584
2026-01-10 23:47:56.32	22.50	2.71	-56.3	-75.3	3.8	7.46e-01	0	21	104	0	80	33741
2026-01-10 23:47:57.32	22.59	2.77	-56.3	-75.2	3.8	7.47e-01	0	21	104	0	80	33653
2026-01-10 23:47:58.33	22.69	2.82	-56.3	-74.9	3.8	7.44e-01	0	21	104	0	80	32386
2026-01-10 23:47:59.33	22.79	2.88	-56.3	-74.9	3.8	7.48e-01	0	21	104	0	80	32254
2026-01-10 23:48:00.33	22.88	2.93	-56.3	-75.2	3.8	7.50e-01	0	21	104	0	80	33403
2026-01-10 23:48:01.33	22.98	2.98	-56.3	-75.1	3.8	7.48e-01	0	22	104	0	80	33024
2026-01-10 23:48:02.34	23.08	3.04	-56.3	-75.4	3.8	7.45e-01	0	22	104	0	80	34232
2026-01-10 23:48:03.34	23.17	3.09	-56.3	-75.3	3.8	7.42e-01	0	22	104	0	80	33972
2026-01-10 23:48:04.34	23.27	3.15	-56.3	-75.6	3.8	7.46e-01	0	22	104	0	80	34996
2026-01-10 23:48:05.34	23.37	3.20	-56.3	-75.5	3.8	7.44e-01	0	22	104	0	80	34605
2026-01-10 23:48:06.34	23.47	3.26	-56.3	-75.7	3.8	7.44e-01	0	22	104	0	80	35383
2026-01-10 23:48:07.35	23.57	3.31	-56.3	-75.3	3.8	7.48e-01	0	22	104	0	80	34012
2026-01-10 23:48:08.34	23.67	3.37	-56.3	-75.6	3.8	7.44e-01	0	22	104	0	80	35050
2026-01-10 23:48:09.35	23.77	3.42	-56.3	-75.1	3.8	7.45e-01	0	22	104	0	80	32949
2026-01-10 23:48:10.34	23.86	3.48	-56.3	-74.0	3.8	7.47e-01	0	22	104	0	80	29252
2026-01-10 23:48:11.35	23.97	3.53	-56.3	-73.4	3.9	7.41e-01	0	22	104	0	80	27359
2026-01-10 23:48:12.35	24.07	3.59	-56.3	-72.9	3.9	7.43e-01	0	22	104	0	80	25642
2026-01-10 23:48:13.34	24.17	3.64	-56.2	-71.7	4.3	7.30e-01	0	22	104	0	80	22309
2026-01-10 23:48:14.35	24.27	3.70	-56.2	-72.5	3.9	7.46e-01	0	22	104	0	80	24600
2026-01-10 23:48:15.34	24.37	3.75	-56.3	-72.3	4.2	7.35e-01	0	22	104	0	80	24018
2026-01-10 23:48:16.34	24.47	3.81	-56.3	-73.5	3.8	7.42e-01	0	22	104	0	80	27702
2026-01-10 23:48:17.35	24.58	3.86	-56.2	-72.0	4.2	7.36e-01	0	22	104	0	80	23300
2026-01-10 23:48:18.34	24.68	3.92	-56.2	-70.1	4.9	7.08e-01	0	22	0	0	80	18594
2026-01-10 23:48:19.34	24.78	3.97	-56.1	-68.3	6.0	6.81e-01	75	22	0	0	80	15171
2026-01-10 23:48:20.34	24.89	4.03	-55.9	-66.6	7.4	6.51e-01	92	22	0	2097152	80	12384
2026-01-10 23:48:21.34	24.99	4.08	-55.9	-65.7	8.2	6.36e-01	7	22	0	3670016	80	11262
2026-01-10 23:48:22.34	25.10	4.14	-55.9	-65.7	8.1	6.36e-01	5	22	0	5767168	80	11242
2026-01-10 23:48:23.34	25.20	4.19	-55.9	-65.7	8.2	6.39e-01	3	22	0	7864320	80	11208
2026-01-10 23:48:24.34	25.31	4.25	-55.7	-64.6	9.2	6.25e-01	0	22	0	9437184	80	9888
2026-01-10 23:48:25.35	25.41	4.31	-55.4	-62.8	10.8	6.08e-01	0	22	0	11534336	80	8027
2026-01-10 23:48:26.34	25.52	4.36	-54.9	-60.9	12.3	6.04e-01	0	22	0	13107200	79	6837
2026-01-10 23:48:27.34	25.63	4.42	-54.0	-58.5	13.8	6.04e-01	0	22	0	15204352	77	5838
2026-01-10 23:48:28.34	25.73	4.47	-52.8	-56.3	14.8	6.01e-01	0	22	0	16777216	74	5345
2026-01-10 23:48:29.33	25.84	4.53	-51.8	-54.6	15.3	6.02e-01	0	22	0	18874368	72	4972
2026-01-10 23:48:30.33	25.95	4.58	-51.2	-53.7	15.5	6.02e-01	0	22	0	20971520	71	4745
2026-01-10 23:48:31.33	26.06	4.64	-50.9	-53.4	15.6	6.01e-01	0	22	0	22544384	70	4830
2026-01-10 23:48:32.33	26.17	4.69	-50.8	-53.2	15.6	6.02e-01	0	22	0	24641536	70	4743
2026-01-10 23:48:33.32	26.27	4.75	-51.5	-54.2	15.2	6.00e-01	0	22	0	26214400	70	5323
2026-01-10 23:48:34.32	26.38	4.81	-52.3	-55.6	14.8	5.99e-01	0	22	0	28311552	72	5529
2026-01-10 23:48:35.32	26.49	4.86	-52.8	-56.5	14.5	6.03e-01	0	22	0	30408704	73	5807
2026-01-10 23:48:36.32	26.60	4.92	-53.7	-58.1	13.8	6.02e-01	0	22	0	31981568	75	6245
2026-01-10 23:48:37.33	26.72	4.98	-54.4	-59.6	13.0	6.04e-01	0	22	0	34078720	76	6992
2026-01-10 23:48:38.33	26.83	5.03	-54.7	-60.4	12.3	6.04e-01	0	22	0	35651584	77	7212
2026-01-10 23:48:39.32	26.94	5.09	-52.0	-54.9	15.4	5.99e-01	0	22	0	37748736	73	4830
2026-01-10 23:48:40.32	27.05	5.14	-53.7	-58.1	14.0	6.01e-01	0	22	0	39321600	75	6216
2026-01-10 23:48:41.32	27.16	5.20	-55.5	-63.7	9.6	6.15e-01	0	22	0	41418752	79	9396
2026-01-10 23:48:42.32	27.28	5.26	-54.6	-59.9	12.5	6.05e-01	0	22	0	42991616	78	6485
2026-01-10 23:48:43.32	27.39	5.31	-54.0	-58.3	13.7	6.02e-01	0	22	0	45088768	75	6366
2026-01-10 23:48:44.32	27.51	5.37	-52.6	-55.7	15.2	6.02e-01	0	22	0	47185920	74	4990
2026-01-10 23:48:45.31	27.62	5.43	-52.3	-55.3	15.2	6.01e-01	0	22	0	48758784	73	5098
2026-01-10 23:48:46.31	27.74	5.48	-52.2	-55.1	15.3	6.00e-01	0	22	0	50855936	73	4966
2026-01-10 23:48:47.31	27.85	5.54	-51.9	-54.7	15.5	6.00e-01	0	22	0	52428800	73	4706
2026-01-10 23:48:48.32	27.97	5.60	-51.2	-53.7	15.7	6.00e-01	0	22	0	54525952	71	4727
2026-01-10 23:48:49.31	28.08	5.65	-51.0	-53.4	15.8	6.00e-01	0	22	0	56098816	71	4576
2026-01-10 23:48:50.31	28.20	5.71	-51.1	-53.4	15.8	6.01e-01	0	22	0	58195968	71	4594
2026-01-10 23:48:51.32	28.32	5.77	-51.0	-53.3	15.8	6.01e-01	0	22	0	60293120	71	4525
2026-01-10 23:48:52.31	28.44	5.82	-50.8	-53.1	15.7	6.02e-01	0	22	0	61865984	70	4681
2026-01-10 23:48:53.31	28.56	5.88	-50.6	-52.8	15.9	6.03e-01	0	22	0	63963136	70	4544
2026-01-10 23:48:54.32	28.68	5.94	-50.7	-53.0	15.8	6.01e-01	0	22	0	65536000	70	4612
2026-01-10 23:48:55.32	28.80	6.00	-50.7	-53.0	15.8	6.02e-01	0	22	0	67633152	70	4618
2026-01-10 23:48:56.32	28.92	6.05	-50.6	-52.8	15.9	6.02e-01	0	22	0	69730304	70	4528
2026-01-10 23:48:57.32	29.04	6.11	-50.6	-52.8	15.9	6.01e-01	0	22	0	71303168	70	4499
2026-01-10 23:48:58.33	29.16	6.17	-50.5	-52.6	16.0	6.02e-01	0	22	0	73400320	70	4423
2026-01-10 23:48:59.33	29.28	6.22	-50.2	-52.3	15.9	6.02e-01	0	22	0	74973184	69	4520
2026-01-10 23:49:00.33	29.40	6.28	-50.5	-52.8	15.7	6.00e-01	0	22	0	77070336	69	4762
2026-01-10 23:49:01.33	29.53	6.34	-50.5	-52.7	15.7	6.02e-01	0	22	0	78643200	69	4723
2026-01-10 23:49:02.32	29.65	6.40	-50.4	-52.6	15.8	5.98e-01	0	22	0	80740352	69	4681
2026-01-10 23:49:03.32	29.77	6.45	-50.4	-52.6	15.8	6.02e-01	0	22	0	82837504	69	4667
2026-01-10 23:49:04.33	29.90	6.51	-50.4	-52.5	15.8	6.04e-01	0	22	0	84410368	69	4631
2026-01-10 23:49:05.32	30.02	6.57	-50.3	-52.4	15.9	5.99e-01	0	22	0	86507520	69	4574
2026-01-10 23:49:06.33	30.15	6.63	-50.4	-52.5	15.8	6.03e-01	0	22	0	88080384	69	4642
2026-01-10 23:49:07.33	30.27	6.68	-50.6	-52.7	15.7	6.01e-01	0	22	0	90177536	69	4746
2026-01-10 23:49:08.33	30.40	6.74	-50.5	-52.6	15.8	5.99e-01	0	22	0	92274688	69	4694
2026-01-10 23:49:09.33	30.52	6.80	-50.6	-52.7	15.7	6.02e-01	0	22	0	93847552	69	4759
2026-01-10 23:49:10.33	30.65	6.86	-50.3	-52.4	15.9	6.01e-01	0	22	0	95944704	69	4595
2026-01-10 23:49:11.33	30.78	6.91	-50.3	-52.4	15.9	6.01e-01	0	22	0	97517568	69	4596
2026-01-10 23:49:12.33	30.91	6.97	-50.2	-52.3	15.9	6.01e-01	0	22	0	99614720	69	4523
2026-01-10 23:49:13.32	31.04	7.03	-50.3	-52.4	15.9	6.01e-01	0	22	0	101187584	69	4576
2026-01-10 23:49:14.31	31.16	7.09	-50.2	-52.3	15.9	6.02e-01	0	23	0	103284736	69	4516
2026-01-10 23:49:15.32	31.30	7.15	-50.3	-52.4	15.9	6.02e-01	0	22	0	104857600	69	4585
2026-01-10 23:49:16.32	31.43	7.20	-50.2	-52.3	15.9	6.00e-01	0	22	0	106954752	69	4507
2026-01-10 23:49:17.32	31.56	7.26	-50.2	-52.2	15.9	6.03e-01	0	22	0	109051904	69	4493
2026-01-10 23:49:18.32	31.69	7.32	-50.3	-52.3	15.9	5.98e-01	0	22	0	110624768	69	4540
2026-01-10 23:49:19.32	31.82	7.38	-50.3	-52.4	15.9	6.02e-01	0	22	0	112721920	69	4562
2026-01-10 23:49:20.32	31.95	7.44	-50.2	-52.3	15.9	6.01e-01	0	22	0	114294784	69	4522
2026-01-10 23:49:21.32	32.09	7.49	-50.0	-52.0	16.0	5.99e-01	0	22	0	116391936	69	4363
2026-01-10 23:49:22.31	32.22	7.55	-50.3	-52.4	15.9	6.00e-01	0	22	0	117964800	69	4564
2026-01-10 23:49:23.31	32.35	7.61	-50.2	-52.2	15.9	6.01e-01	0	22	0	120061952	69	4459
2026-01-10 23:49:24.31	32.49	7.67	-50.1	-52.1	16.0	6.01e-01	0	22	0	122159104	69	4441
2026-01-10 23:49:25.31	32.62	7.72	-50.0	-51.9	16.1	5.99e-01	0	23	0	123731968	69	4333
2026-01-10 23:49:26.31	32.76	7.78	-50.0	-52.1	16.0	6.02e-01	0	22	0	125829120	69	4394
2026-01-10 23:49:27.29	32.89	7.84	-50.1	-52.1	16.0	5.99e-01	0	22	0	127401984	69	4416
2026-01-10 23:49:28.29	33.03	7.90	-50.0	-52.0	16.0	6.02e-01	0	22	0	129499136	69	4370
2026-01-10 23:49:29.29	33.17	7.96	-50.0	-52.0	16.0	5.99e-01	0	22	0	131072000	69	4389
2026-01-10 23:49:30.29	33.31	8.01	-49.9	-51.8	16.1	6.02e-01	0	22	0	133169152	69	4272
2026-01-10 23:49:31.29	33.44	8.07	-49.9	-51.8	15.9	6.03e-01	0	23	0	135266304	68	4536
2026-01-10 23:49:32.28	33.58	8.13	-49.7	-51.7	16.0	6.02e-01	0	22	0	136839168	68	4459
2026-01-10 23:49:33.28	33.72	8.19	-49.8	-51.8	16.0	5.98e-01	0	22	0	138936320	68	4507
2026-01-10 23:49:34.28	33.86	8.25	-49.9	-51.8	15.9	6.01e-01	0	23	0	140509184	68	4535
2026-01-10 23:49:35.28	34.00	8.31	-49.9	-51.9	15.9	6.01e-01	0	22	0	142606336	68	4588
2026-01-10 23:49:36.29	34.15	8.36	-49.9	-51.9	15.9	6.00e-01	0	23	0	144179200	68	4550
2026-01-10 23:49:37.29	34.29	8.42	-49.9	-51.9	15.9	6.01e-01	0	22	0	146276352	68	4554
2026-01-10 23:49:38.28	34.43	8.48	-49.9	-51.9	15.9	5.99e-01	0	23	0	148373504	68	4578
2026-01-10 23:49:39.28	34.58	8.54	-50.0	-51.9	15.9	6.00e-01	0	23	0	149946368	68	4589
2026-01-10 23:49:40.28	34.72	8.60	-49.9	-51.8	15.9	6.01e-01	0	23	0	152043520	68	4531
2026-01-10 23:49:41.27	34.86	8.65	-49.9	-51.8	15.9	6.01e-01	0	23	0	153616384	68	4524
2026-01-10 23:49:42.27	35.01	8.71	-50.0	-52.0	15.8	6.03e-01	0	23	0	155713536	68	4636
2026-01-10 23:49:43.27	35.15	8.77	-49.9	-51.9	15.9	6.03e-01	0	22	0	157810688	68	4588
2026-01-10 23:49:44.27	35.30	8.83	-49.8	-51.7	16.0	6.01e-01	0	23	0	159383552	68	4451
2026-01-10 23:49:45.27	35.45	8.89	-49.7	-51.6	16.0	5.99e-01	0	22	0	160956416	68	4403
2026-01-10 23:49:46.27	35.60	8.95	-49.8	-51.8	16.0	6.02e-01	0	22	0	163053568	68	4510
2026-01-10 23:49:47.27	35.74	9.00	-49.7	-51.7	16.0	5.99e-01	0	23	0	165150720	68	4445
2026-01-10 23:49:48.27	35.89	9.06	-49.6	-51.4	16.1	6.00e-01	0	23	0	166723584	68	4332
2026-01-10 23:49:49.27	36.04	9.12	-49.6	-51.5	16.1	5.99e-01	0	23	0	168820736	68	4382
2026-01-10 23:49:50.27	36.19	9.18	-49.7	-51.6	16.0	6.01e-01	0	23	0	170917888	68	4422
2026-01-10 23:49:51.27	36.34	9.24	-49.6	-51.5	16.1	6.01e-01	0	23	0	172490752	68	4365
2026-01-10 23:49:52.27	36.50	9.30	-49.6	-51.4	16.1	6.02e-01	0	23	0	174587904	68	4340
2026-01-10 23:49:53.26	36.65	9.35	-49.6	-51.5	16.0	5.98e-01	0	22	0	176160768	68	4384
2026-01-10 23:49:54.26	36.80	9.41	-49.6	-51.5	16.1	6.01e-01	0	23	0	178257920	68	4352
2026-01-10 23:49:55.26	36.95	9.47	-49.6	-51.5	16.1	6.02e-01	0	23	0	179830784	68	4358
2026-01-10 23:49:56.25	37.11	9.53	-49.6	-51.4	16.1	6.00e-01	0	23	0	181927936	68	4330
2026-01-10 23:49:57.25	37.26	9.59	-49.6	-51.5	16.1	6.00e-01	0	22	0	183500800	68	4352
2026-01-10 23:49:58.26	37.42	9.64	-49.6	-51.5	16.1	6.01e-01	0	22	0	185597952	68	4353
2026-01-10 23:49:59.25	37.57	9.70	-49.5	-51.4	16.1	5.99e-01	0	23	0	187695104	68	4301
2026-01-10 23:50:00.24	37.73	9.76	-49.6	-51.5	16.1	6.00e-01	0	23	0	189267968	68	4345
2026-01-10 23:50:01.25	37.89	9.82	-49.5	-51.3	16.1	5.99e-01	0	22	0	191365120	68	4287
2026-01-10 23:50:02.24	38.04	9.88	-49.5	-51.4	16.1	6.01e-01	0	22	0	192937984	68	4300
2026-01-10 23:50:03.24	38.20	9.93	-49.6	-51.5	16.1	6.04e-01	0	23	0	195035136	68	4366
2026-01-10 23:50:04.24	38.36	9.99	-49.6	-51.4	16.1	6.01e-01	0	23	0	196608000	68	4332
2026-01-10 23:50:05.23	38.52	10.05	-49.5	-51.4	16.1	6.00e-01	0	23	0	198705152	68	4296
2026-01-10 23:50:06.24	38.68	10.11	-49.5	-51.3	16.2	6.02e-01	0	23	0	200802304	68	4286
2026-01-10 23:50:07.24	38.84	10.17	-49.5	-51.4	16.1	5.99e-01	0	23	0	202375168	68	4316
2026-01-10 23:50:08.24	39.01	10.22	-49.4	-51.3	16.2	6.00e-01	0	23	0	204472320	68	4243
2026-01-10 23:50:09.24	39.17	10.28	-49.4	-51.2	16.2	6.02e-01	0	23	0	206045184	68	4226
2026-01-10 23:50:10.23	39.33	10.34	-49.2	-51.0	16.1	6.02e-01	0	23	0	208142336	67	4384
2026-01-10 23:50:11.22	39.49	10.40	-49.3	-51.1	16.1	6.00e-01	0	23	0	209715200	67	4417
2026-01-10 23:50:12.23	39.66	10.45	-49.3	-51.2	16.0	6.03e-01	0	23	0	211812352	67	4445
2026-01-10 23:50:13.23	39.82	10.51	-49.3	-51.1	16.0	6.00e-01	0	23	0	213909504	67	4438
2026-01-10 23:50:14.23	39.99	10.57	-49.2	-51.0	16.0	5.99e-01	0	23	0	215482368	67	4385
2026-01-10 23:50:15.23	40.16	10.63	-49.2	-51.1	16.1	6.00e-01	0	23	0	217579520	67	4395
2026-01-10 23:50:16.23	40.32	10.69	-49.3	-51.1	16.0	6.02e-01	0	23	0	219152384	67	4402
2026-01-10 23:50:17.23	40.49	10.74	-49.2	-51.0	16.0	5.99e-01	0	23	0	221249536	67	4387
2026-01-10 23:50:18.22	40.66	10.80	-49.2	-51.0	16.1	6.01e-01	0	23	0	223346688	67	4341
2026-01-10 23:50:19.22	40.83	10.86	-49.2	-51.0	16.1	6.02e-01	0	23	0	224919552	67	4354
2026-01-10 23:50:20.21	41.00	10.91	-49.2	-51.0	16.1	6.00e-01	0	23	0	226492416	67	4376
2026-01-10 23:50:21.21	41.17	10.97	-49.2	-51.0	16.1	6.00e-01	0	23	0	228589568	67	4374
2026-01-10 23:50:22.21	41.34	11.03	-49.2	-51.0	16.1	5.98e-01	0	23	0	230686720	67	4350
2026-01-10 23:50:23.20	41.51	11.09	-49.2	-51.0	16.0	6.01e-01	0	23	0	232259584	67	4361
2026-01-10 23:50:24.20	41.68	11.14	-49.1	-50.8	16.2	6.01e-01	0	23	0	234356736	67	4286
2026-01-10 23:50:25.19	41.86	11.20	-49.1	-50.9	16.1	5.99e-01	0	23	0	235929600	67	4321
2026-01-10 23:50:26.19	42.03	11.26	-49.1	-50.9	16.1	6.01e-01	0	23	0	238026752	67	4322
2026-01-10 23:50:27.19	42.21	11.31	-49.3	-51.0	16.0	5.99e-01	0	22	0	240123904	67	4391
2026-01-10 23:50:28.18	42.38	11.37	-49.2	-51.1	16.0	6.04e-01	0	23	0	241696768	67	4395
2026-01-10 23:50:29.18	42.56	11.43	-49.1	-50.9	16.1	5.98e-01	0	23	0	243793920	67	4333
2026-01-10 23:50:30.18	42.73	11.48	-49.0	-50.8	16.2	6.02e-01	0	22	0	245366784	67	4263
2026-01-10 23:50:31.17	42.91	11.54	-49.0	-50.7	16.2	6.03e-01	0	23	0	247463936	67	4229
2026-01-10 23:50:32.15	43.09	11.59	-49.0	-50.7	16.2	6.01e-01	0	23	0	249036800	67	4218
2026-01-10 23:50:33.14	43.26	11.65	-48.9	-50.7	16.2	6.02e-01	0	23	0	251133952	67	4214
2026-01-10 23:50:34.14	43.44	11.71	-48.9	-50.7	16.2	5.99e-01	0	23	0	252706816	67	4212
2026-01-10 23:50:35.14	43.62	11.76	-49.0	-50.8	16.2	6.01e-01	0	23	0	254803968	67	4262
2026-01-10 23:50:36.14	43.81	11.82	-49.1	-50.8	16.1	5.99e-01	0	23	0	256901120	67	4285
2026-01-10 23:50:37.13	43.99	11.87	-49.0	-50.8	16.2	6.02e-01	0	23	0	258473984	67	4249
2026-01-10 23:50:38.13	44.17	11.93	-49.0	-50.8	16.2	6.03e-01	0	22	0	260571136	67	4248
2026-01-10 23:50:39.12	44.35	11.98	-49.0	-50.7	16.2	6.03e-01	0	23	0	262144000	67	4220
2026-01-10 23:50:40.11	44.53	12.04	-48.9	-50.6	16.2	6.01e-01	0	23	0	264241152	67	4190
2026-01-10 23:50:41.10	44.72	12.09	-48.9	-50.7	16.2	6.01e-01	0	23	0	265814016	67	4195
2026-01-10 23:50:42.10	44.90	12.15	-49.0	-50.7	16.2	6.04e-01	0	23	0	267911168	67	4217
2026-01-10 23:50:43.09	45.09	12.20	-49.0	-50.7	16.2	5.99e-01	0	23	0	269484032	67	4216
2026-01-10 23:50:44.09	45.28	12.26	-49.0	-50.8	16.2	6.00e-01	0	23	0	271581184	67	4248
2026-01-10 23:50:45.09	45.46	12.31	-48.9	-50.6	16.2	5.98e-01	0	23	0	273678336	67	4192
2026-01-10 23:50:46.09	45.65	12.37	-48.8	-50.5	16.1	5.98e-01	0	23	0	275251200	66	4385
2026-01-10 23:50:47.09	45.84	12.42	-48.8	-50.5	16.0	6.02e-01	0	23	0	277348352	66	4384
2026-01-10 23:50:48.08	46.03	12.48	-48.8	-50.6	16.0	6.01e-01	0	23	0	278921216	66	4412
2026-01-10 23:50:49.08	46.22	12.53	-49.0	-50.7	16.0	5.99e-01	0	23	0	281018368	66	4467
2026-01-10 23:50:50.08	46.41	12.59	-48.9	-50.7	16.0	6.00e-01	0	23	0	282591232	66	4461
2026-01-10 23:50:51.08	46.61	12.64	-48.9	-50.6	16.0	6.01e-01	0	23	0	284688384	66	4416
2026-01-10 23:50:52.08	46.80	12.70	-48.9	-50.6	16.0	5.99e-01	0	23	0	286785536	66	4412
2026-01-10 23:50:53.08	46.99	12.75	-48.7	-50.5	16.1	5.99e-01	0	23	0	288358400	66	4346
2026-01-10 23:50:54.08	47.19	12.80	-48.8	-50.5	16.0	6.01e-01	0	23	0	290455552	66	4388
2026-01-10 23:50:55.08	47.38	12.86	-48.8	-50.6	16.0	6.02e-01	0	23	0	292028416	66	4406
2026-01-10 23:50:56.08	47.58	12.91	-48.9	-50.6	16.0	6.01e-01	0	23	0	294125568	66	4441
2026-01-10 23:50:57.08	47.78	12.96	-48.8	-50.5	16.1	6.02e-01	0	23	0	295698432	66	4351
2026-01-10 23:50:58.08	47.98	13.02	-48.7	-50.4	16.1	6.02e-01	0	23	0	297795584	66	4337
2026-01-10 23:50:59.08	48.17	13.07	-48.8	-50.6	16.1	5.95e-01	0	23	0	299892736	66	4399
2026-01-10 23:51:00.08	48.37	13.12	-48.7	-50.4	16.1	6.00e-01	0	23	0	301465600	66	4330
2026-01-10 23:51:01.08	48.57	13.18	-48.7	-50.4	16.1	6.01e-01	0	23	0	303562752	66	4325
2026-01-10 23:51:02.09	48.78	13.23	-48.7	-50.4	16.0	5.99e-01	0	23	0	305135616	66	4325
2026-01-10 23:51:03.08	48.98	13.28	-48.7	-50.4	16.1	6.00e-01	0	23	0	307232768	66	4305
2026-01-10 23:51:04.08	49.18	13.33	-48.8	-50.5	16.0	5.99e-01	0	23	0	308805632	66	4377
2026-01-10 23:51:05.08	49.38	13.38	-48.8	-50.5	16.1	5.99e-01	0	23	0	310902784	66	4366
2026-01-10 23:51:06.08	49.58	13.44	-48.7	-50.4	16.1	6.01e-01	0	23	0	312999936	66	4323
2026-01-10 23:51:07.07	49.79	13.49	-48.7	-50.4	16.1	6.02e-01	0	23	0	314572800	66	4340
2026-01-10 23:51:08.08	49.99	13.54	-48.7	-50.3	16.1	6.00e-01	0	23	0	316669952	66	4289
2026-01-10 23:51:09.08	50.20	13.59	-48.7	-50.4	16.1	6.02e-01	0	23	0	318242816	66	4313
2026-01-10 23:51:10.08	50.41	13.64	-48.7	-50.4	16.1	6.00e-01	0	23	0	320339968	66	4312
2026-01-10 23:51:11.08	50.62	13.69	-48.7	-50.3	16.1	5.99e-01	0	23	0	322437120	66	4286
2026-01-10 23:51:12.09	50.83	13.74	-48.7	-50.4	16.1	6.01e-01	0	23	0	324009984	66	4337
2026-01-10 23:51:13.08	51.03	13.79	-48.7	-50.4	16.1	6.01e-01	0	23	0	326107136	66	4317
2026-01-10 23:51:14.08	51.24	13.84	-48.6	-50.3	16.2	6.00e-01	0	23	0	327680000	66	4250
2026-01-10 23:51:15.08	51.45	13.89	-48.6	-50.3	16.1	5.98e-01	0	23	0	329777152	66	4266
2026-01-10 23:51:16.08	51.66	13.94	-48.7	-50.4	16.1	5.99e-01	0	23	0	331350016	66	4292
2026-01-10 23:51:17.08	51.88	13.99	-48.7	-50.4	16.1	6.03e-01	0	23	0	333447168	66	4308
2026-01-10 23:51:18.08	52.09	14.04	-48.6	-50.3	16.1	5.99e-01	0	23	0	335544320	66	4273
2026-01-10 23:51:19.07	52.30	14.09	-48.7	-50.3	16.1	6.00e-01	0	23	0	337117184	66	4290
2026-01-10 23:51:20.07	52.51	14.14	-48.5	-50.1	16.2	6.00e-01	0	23	0	339214336	66	4190
2026-01-10 23:51:21.07	52.73	14.19	-48.7	-50.4	16.1	6.01e-01	0	23	0	340787200	66	4295
2026-01-10 23:51:22.06	52.94	14.24	-48.6	-50.3	16.1	6.00e-01	0	23	0	342884352	66	4266
2026-01-10 23:51:23.06	53.16	14.28	-48.6	-50.3	16.1	6.01e-01	0	23	0	344457216	66	4280
2026-01-10 23:51:24.06	53.38	14.33	-48.6	-50.3	16.2	6.00e-01	0	23	0	346554368	66	4248
2026-01-10 23:51:25.07	53.60	14.38	-48.6	-50.2	16.2	5.99e-01	0	23	0	348127232	66	4231
2026-01-10 23:51:26.06	53.81	14.43	-48.6	-50.3	16.1	6.01e-01	0	23	0	350224384	66	4273
2026-01-10 23:51:27.06	54.03	14.47	-48.6	-50.3	16.1	6.02e-01	0	23	0	352321536	66	4274
2026-01-10 23:51:28.06	54.25	14.52	-48.6	-50.3	16.2	6.04e-01	0	23	0	353894400	66	4246
2026-01-10 23:51:29.05	54.47	14.57	-48.6	-50.2	16.2	6.01e-01	0	23	0	355991552	66	4228
2026-01-10 23:51:30.05	54.69	14.61	-48.5	-50.2	16.2	6.01e-01	0	23	0	357564416	66	4214
2026-01-10 23:51:31.05	54.91	14.66	-48.5	-50.2	16.2	6.04e-01	0	23	0	359661568	66	4220
2026-01-10 23:51:32.05	55.14	14.70	-48.5	-50.2	16.2	6.01e-01	0	23	0	361234432	66	4209
2026-01-10 23:51:33.05	55.36	14.75	-48.5	-50.1	16.2	6.00e-01	0	23	0	363331584	66	4178
2026-01-10 23:51:34.04	55.58	14.79	-48.5	-50.2	16.2	6.04e-01	0	23	0	365428736	66	4219
2026-01-10 23:51:35.05	55.81	14.84	-48.5	-50.2	16.2	6.02e-01	0	23	0	367001600	66	4203
2026-01-10 23:51:36.04	56.03	14.88	-48.6	-50.2	16.2	6.01e-01	0	23	0	369098752	66	4241
2026-01-10 23:51:37.04	56.26	14.93	-48.6	-50.2	16.2	6.02e-01	0	23	0	370671616	66	4242
2026-01-10 23:51:38.02	56.48	14.97	-48.6	-50.3	16.2	6.03e-01	0	23	0	372768768	66	4245
2026-01-10 23:51:39.03	56.71	15.01	-48.5	-50.1	16.3	6.02e-01	0	23	0	374341632	66	4173
2026-01-10 23:51:40.03	56.94	15.06	-48.3	-50.0	16.1	5.98e-01	0	23	0	376438784	65	4354
2026-01-10 23:51:41.02	57.17	15.10	-48.4	-50.0	16.1	6.00e-01	0	23	0	378535936	65	4369
2026-01-10 23:51:42.01	57.40	15.14	-48.4	-50.1	16.0	6.04e-01	0	23	0	380108800	65	4397
2026-01-10 23:51:43.01	57.63	15.18	-48.6	-50.3	16.0	6.02e-01	0	23	0	382205952	65	4524
2026-01-10 23:51:44.00	57.85	15.22	-48.6	-50.3	16.0	6.03e-01	0	23	0	383778816	65	4505
2026-01-10 23:51:45.01	58.09	15.27	-48.3	-50.0	16.0	6.01e-01	0	23	0	385875968	65	4362
2026-01-10 23:51:46.00	58.32	15.31	-48.3	-50.0	16.1	6.03e-01	0	23	0	387448832	65	4353
2026-01-10 23:51:47.00	58.55	15.35	-48.4	-50.1	16.0	6.02e-01	0	23	0	389545984	65	4425
2026-01-10 23:51:48.00	58.79	15.39	-48.5	-50.2	16.1	6.00e-01	0	23	0	391118848	65	4445
2026-01-10 23:51:48.99	59.02	15.43	-48.4	-50.1	16.0	6.01e-01	0	23	0	393216000	65	4403
2026-01-10 23:51:49.99	59.25	15.47	-48.4	-50.1	16.0	6.01e-01	0	23	0	395313152	65	4414
2026-01-10 23:51:51.00	59.49	15.51	-48.3	-50.0	16.1	6.01e-01	0	23	0	396886016	65	4353
2026-01-10 23:51:51.99	59.73	15.55	-48.5	-50.1	16.0	6.00e-01	0	23	0	398983168	65	4438
2026-01-10 23:51:52.99	59.96	15.58	-48.6	-50.3	15.9	6.02e-01	0	23	0	400556032	65	4497
2026-01-10 23:51:53.99	60.20	15.62	-48.4	-50.0	16.1	6.03e-01	0	23	0	402653184	65	4388
2026-01-10 23:51:54.98	60.44	15.66	-48.3	-50.0	16.1	6.00e-01	0	23	0	404750336	65	4345
2026-01-10 23:51:55.97	60.67	15.70	-48.5	-50.1	16.0	6.03e-01	0	23	0	406323200	65	4435
2026-01-10 23:51:56.97	60.91	15.73	-48.4	-50.0	16.1	6.02e-01	0	23	0	408420352	65	4388
2026-01-10 23:51:57.98	61.16	15.77	-48.4	-50.0	16.1	6.02e-01	0	23	0	409993216	65	4390
2026-01-10 23:51:58.97	61.40	15.81	-48.6	-50.3	16.1	5.99e-01	0	23	0	412090368	65	4509
2026-01-10 23:51:59.98	61.64	15.84	-48.3	-49.9	16.1	6.00e-01	0	23	0	413663232	65	4329
2026-01-10 23:52:00.98	61.88	15.88	-48.5	-50.1	16.1	6.02e-01	0	23	0	415760384	65	4429
2026-01-10 23:52:01.98	62.12	15.91	-48.3	-50.0	16.0	5.98e-01	0	23	0	417857536	65	4362
2026-01-10 23:52:02.99	62.37	15.95	-48.4	-50.0	16.0	6.02e-01	0	23	0	419430400	65	4383
2026-01-10 23:52:03.99	62.61	15.98	-48.3	-50.0	16.0	6.00e-01	0	23	0	421527552	65	4369
2026-01-10 23:52:04.98	62.86	16.02	-48.4	-50.1	16.0	6.00e-01	0	23	0	423100416	65	4409
2026-01-10 23:52:05.98	63.10	16.05	-48.5	-50.2	16.0	6.00e-01	0	23	0	425197568	65	4466
2026-01-10 23:52:06.99	63.35	16.08	-48.6	-50.2	16.0	6.01e-01	0	23	0	426770432	65	4493
2026-01-10 23:52:07.99	63.60	16.12	-48.4	-50.0	16.0	6.02e-01	0	23	0	428867584	65	4373
2026-01-10 23:52:08.99	63.84	16.15	-48.5	-50.1	16.1	6.01e-01	0	23	0	430964736	65	4418
2026-01-10 23:52:09.99	64.09	16.18	-48.5	-50.2	16.1	6.00e-01	0	23	0	432537600	65	4458
2026-01-10 23:52:10.98	64.33	16.21	-48.4	-50.0	16.1	6.02e-01	0	23	0	434634752	65	4375
2026-01-10 23:52:11.98	64.58	16.24	-48.2	-49.8	16.0	5.99e-01	0	23	0	436207616	65	4271
2026-01-10 23:52:12.98	64.83	16.27	-48.5	-50.1	16.0	6.01e-01	0	23	0	438304768	65	4436
2026-01-10 23:52:13.98	65.08	16.30	-48.5	-50.1	15.9	5.98e-01	0	23	0	439877632	65	4431
2026-01-10 23:52:14.99	65.33	16.33	-48.5	-50.1	15.9	5.98e-01	0	23	0	441974784	64	4687
2026-01-10 23:52:15.98	65.58	16.36	-48.3	-49.9	15.9	6.02e-01	0	23	0	444071936	64	4575
2026-01-10 23:52:16.98	65.83	16.39	-48.2	-49.9	15.9	6.02e-01	0	23	0	445644800	64	4559
2026-01-10 23:52:17.97	66.08	16.42	-48.3	-50.0	15.9	6.04e-01	0	23	0	447741952	64	4615
2026-01-10 23:52:18.97	66.33	16.45	-48.4	-50.0	16.0	6.01e-01	0	23	0	449314816	64	4631
2026-01-10 23:52:19.97	66.59	16.47	-48.4	-50.0	15.9	6.02e-01	0	23	0	451411968	64	4636
2026-01-10 23:52:20.96	66.84	16.50	-48.4	-50.1	15.9	6.03e-01	0	23	0	452984832	64	4667
2026-01-10 23:52:21.96	67.09	16.53	-48.4	-50.1	15.9	5.98e-01	0	23	0	455081984	64	4656
2026-01-10 23:52:22.96	67.35	16.55	-48.4	-50.0	15.9	6.04e-01	0	23	0	456654848	64	4641
2026-01-10 23:52:23.97	67.60	16.58	-48.3	-49.9	15.9	6.01e-01	0	23	0	458752000	64	4593
2026-01-10 23:52:24.97	67.86	16.60	-48.4	-50.1	15.9	6.00e-01	0	23	0	460849152	64	4676
2026-01-10 23:52:25.97	68.11	16.63	-48.3	-49.9	15.9	6.02e-01	0	23	0	462422016	64	4592
2026-01-10 23:52:26.96	68.37	16.65	-48.4	-50.0	15.9	5.99e-01	0	23	0	464519168	64	4632
2026-01-10 23:52:27.96	68.62	16.67	-48.4	-50.0	15.9	6.01e-01	0	23	0	466092032	64	4650
2026-01-10 23:52:28.95	68.88	16.70	-48.4	-50.0	15.9	6.01e-01	0	23	0	468189184	64	4635
2026-01-10 23:52:29.95	69.13	16.72	-48.4	-50.1	15.9	6.02e-01	0	23	0	470286336	64	4684
2026-01-10 23:52:30.94	69.39	16.74	-48.4	-50.0	15.9	6.01e-01	0	23	0	471859200	64	4646
2026-01-10 23:52:31.93	69.64	16.76	-48.3	-49.9	15.9	6.05e-01	0	23	0	473956352	64	4585
2026-01-10 23:52:32.92	69.90	16.78	-48.3	-49.9	15.9	5.99e-01	0	23	0	475529216	64	4592
2026-01-10 23:52:33.92	70.16	16.80	-48.3	-50.0	16.0	6.04e-01	0	23	0	477626368	65	4346
2026-01-10 23:52:34.92	70.42	16.82	-48.3	-49.9	16.0	6.04e-01	0	23	0	479199232	65	4333
2026-01-10 23:52:35.92	70.67	16.84	-48.5	-50.2	16.1	5.99e-01	0	23	0	481296384	65	4457
2026-01-10 23:52:36.91	70.93	16.86	-48.5	-50.2	16.0	5.98e-01	0	23	0	482869248	65	4450
2026-01-10 23:52:37.91	71.19	16.88	-48.4	-50.1	16.1	6.01e-01	0	23	0	484966400	65	4399
2026-01-10 23:52:38.90	71.45	16.90	-48.3	-50.0	16.1	6.00e-01	0	23	0	487063552	65	4353
2026-01-10 23:52:39.90	71.71	16.92	-48.4	-50.0	16.1	6.00e-01	0	23	0	488636416	65	4371
2026-01-10 23:52:40.91	71.97	16.93	-48.4	-50.0	16.1	6.01e-01	0	23	0	490733568	65	4363
2026-01-10 23:52:41.90	72.23	16.95	-48.2	-49.9	16.1	6.02e-01	0	23	0	492306432	65	4310
2026-01-10 23:52:42.90	72.49	16.96	-48.4	-50.1	16.0	6.00e-01	0	23	0	494403584	65	4403
2026-01-10 23:52:43.89	72.75	16.98	-48.4	-50.1	16.0	6.01e-01	0	23	0	495976448	65	4414
2026-01-10 23:52:44.89	73.01	16.99	-48.4	-50.0	16.0	6.01e-01	0	23	0	498073600	65	4385
2026-01-10 23:52:45.89	73.28	17.01	-48.3	-49.9	16.0	6.00e-01	0	23	0	500170752	65	4336
2026-01-10 23:52:46.89	73.54	17.02	-48.4	-50.1	16.0	6.01e-01	0	23	0	501743616	65	4397
2026-01-10 23:52:47.89	73.80	17.03	-48.4	-50.0	16.0	6.02e-01	0	23	0	503840768	65	4376
2026-01-10 23:52:48.89	74.06	17.05	-48.5	-50.2	16.0	6.00e-01	0	23	0	505413632	65	4457
2026-01-10 23:52:49.88	74.32	17.06	-48.4	-50.1	16.0	6.02e-01	0	23	0	507510784	65	4397
2026-01-10 23:52:50.88	74.59	17.07	-48.4	-50.1	16.0	6.03e-01	0	23	0	509083648	65	4409
2026-01-10 23:52:51.88	74.85	17.08	-48.4	-50.1	16.0	6.00e-01	0	23	0	511180800	65	4403
2026-01-10 23:52:52.89	75.12	17.09	-48.4	-50.1	16.0	5.96e-01	0	23	0	513277952	65	4397
2026-01-10 23:52:53.88	75.38	17.10	-48.4	-50.0	16.0	6.01e-01	0	23	0	514850816	65	4384
2026-01-10 23:52:54.89	75.65	17.11	-48.3	-49.9	16.1	6.02e-01	0	23	0	516947968	65	4307
2026-01-10 23:52:55.88	75.91	17.12	-48.4	-50.0	16.0	6.01e-01	0	23	0	518520832	65	4383
2026-01-10 23:52:56.88	76.17	17.13	-48.5	-50.2	15.9	6.00e-01	0	23	0	520617984	65	4466
2026-01-10 23:52:57.88	76.44	17.13	-48.5	-50.1	16.0	6.03e-01	0	23	0	522190848	65	4433
2026-01-10 23:52:58.87	76.70	17.14	-48.4	-50.0	16.0	6.04e-01	0	23	0	524288000	65	4371
2026-01-10 23:52:59.87	76.96	17.15	-48.3	-49.9	16.1	6.00e-01	0	23	0	526385152	65	4340
2026-01-10 23:53:00.87	77.23	17.15	-48.3	-50.0	16.1	6.01e-01	0	23	0	527958016	65	4341
2026-01-10 23:53:01.87	77.50	17.16	-48.4	-50.0	16.0	6.02e-01	0	23	0	530055168	65	4389
2026-01-10 23:53:02.87	77.76	17.16	-48.4	-50.1	16.0	6.01e-01	0	23	0	531628032	65	4418
2026-01-10 23:53:03.88	78.03	17.17	-48.5	-50.1	16.0	6.03e-01	0	23	0	533725184	65	4423
2026-01-10 23:53:04.89	78.30	17.17	-48.5	-50.1	16.0	6.00e-01	0	23	0	535298048	65	4435
2026-01-10 23:53:05.89	78.56	17.17	-48.5	-50.2	16.0	6.00e-01	0	23	0	537395200	65	4444
2026-01-10 23:53:06.89	78.83	17.18	-48.4	-50.0	16.0	6.04e-01	0	23	0	539492352	65	4370
2026-01-10 23:53:07.88	79.09	17.18	-48.3	-50.0	16.1	6.00e-01	0	23	0	541065216	65	4358
2026-01-10 23:53:08.88	79.36	17.18	-48.4	-50.1	16.0	6.01e-01	0	23	0	543162368	65	4413
2026-01-10 23:53:09.88	79.62	17.18	-48.4	-50.1	16.0	6.04e-01	0	23	0	544735232	65	4401
2026-01-10 23:53:10.87	79.88	17.18	-48.4	-50.0	16.0	6.02e-01	0	23	0	546832384	65	4383
2026-01-10 23:53:11.88	80.15	17.18	-48.4	-50.1	16.0	6.00e-01	0	23	0	548929536	65	4419
2026-01-10 23:53:12.88	80.42	17.18	-48.4	-50.1	16.0	6.01e-01	0	23	0	550502400	65	4414
2026-01-10 23:53:13.87	80.68	17.18	-48.4	-50.0	16.0	6.01e-01	0	23	0	552599552	65	4367
2026-01-10 23:53:14.87	80.95	17.18	-48.3	-50.0	16.0	6.02e-01	0	23	0	554172416	65	4355
2026-01-10 23:53:15.87	81.21	17.17	-48.3	-49.9	16.0	5.99e-01	0	23	0	556269568	65	4316
2026-01-10 23:53:16.88	81.48	17.17	-48.4	-50.1	16.0	6.00e-01	0	23	0	557842432	65	4405
2026-01-10 23:53:17.88	81.75	17.17	-48.5	-50.2	16.0	6.01e-01	0	23	0	559939584	65	4466
2026-01-10 23:53:18.87	82.01	17.16	-48.4	-50.0	16.0	6.01e-01	0	23	0	562036736	65	4375
2026-01-10 23:53:19.86	82.27	17.16	-48.4	-50.0	16.0	6.03e-01	0	23	0	563609600	65	4388
2026-01-10 23:53:20.86	82.54	17.15	-48.4	-50.0	16.0	6.01e-01	0	23	0	565706752	65	4374
2026-01-10 23:53:21.87	82.81	17.14	-48.5	-50.2	16.0	6.00e-01	0	23	0	567279616	65	4444
2026-01-10 23:53:22.86	83.07	17.14	-48.3	-50.0	16.0	6.00e-01	0	23	0	569376768	65	4352
2026-01-10 23:53:23.87	83.34	17.13	-48.3	-50.0	16.0	6.00e-01	0	23	0	570949632	65	4355
2026-01-10 23:53:24.87	83.60	17.12	-48.3	-49.9	16.1	5.98e-01	0	23	0	573046784	65	4319
2026-01-10 23:53:25.87	83.86	17.12	-48.4	-50.0	16.0	5.97e-01	0	23	0	575143936	65	4391
2026-01-10 23:53:26.87	84.13	17.11	-48.4	-50.1	16.0	6.04e-01	0	23	0	576716800	65	4397
2026-01-10 23:53:27.86	84.39	17.10	-48.3	-49.9	16.0	6.01e-01	0	23	0	578813952	65	4331
2026-01-10 23:53:28.86	84.65	17.09	-48.3	-49.9	16.1	6.00e-01	0	23	0	580386816	65	4319
2026-01-10 23:53:29.86	84.92	17.08	-48.3	-50.0	16.0	6.02e-01	0	23	0	582483968	65	4346
2026-01-10 23:53:30.85	85.18	17.07	-48.3	-49.9	16.1	6.00e-01	0	23	0	584056832	65	4340
2026-01-10 23:53:31.86	85.45	17.05	-48.3	-49.9	16.0	5.98e-01	0	23	0	586153984	65	4333
2026-01-10 23:53:32.85	85.71	17.04	-48.4	-50.0	16.0	6.00e-01	0	23	0	587726848	65	4364
2026-01-10 23:53:33.85	85.97	17.03	-48.4	-50.1	16.0	6.01e-01	0	23	0	589824000	65	4394
2026-01-10 23:53:34.84	86.23	17.02	-48.3	-49.9	16.0	6.01e-01	0	23	0	591921152	65	4329
2026-01-10 23:53:35.84	86.49	17.00	-48.4	-50.1	16.0	6.04e-01	0	23	0	593494016	65	4399
2026-01-10 23:53:36.83	86.75	16.99	-48.4	-50.1	16.0	6.01e-01	0	23	0	595591168	65	4419
2026-01-10 23:53:37.82	87.01	16.97	-48.4	-50.1	16.0	5.99e-01	0	23	0	597164032	65	4392
2026-01-10 23:53:38.81	87.27	16.96	-48.2	-49.8	16.1	5.99e-01	0	23	0	599261184	65	4291
2026-01-10 23:53:39.80	87.53	16.94	-48.2	-49.8	16.1	6.01e-01	0	23	0	600834048	65	4273
2026-01-10 23:53:40.80	87.79	16.93	-48.3	-49.9	16.1	6.02e-01	0	23	0	602931200	65	4331
2026-01-10 23:53:41.80	88.05	16.91	-48.4	-50.1	16.0	5.99e-01	0	23	0	604504064	65	4400
2026-01-10 23:53:42.80	88.31	16.89	-48.4	-50.1	16.0	6.00e-01	0	23	0	606601216	65	4408
2026-01-10 23:53:43.80	88.57	16.87	-48.3	-50.0	16.0	6.02e-01	0	23	0	608698368	65	4347
2026-01-10 23:53:44.78	88.83	16.86	-48.3	-50.0	16.0	6.02e-01	0	23	0	610271232	65	4350
2026-01-10 23:53:45.78	89.09	16.84	-48.3	-49.9	16.1	6.00e-01	0	23	0	612368384	65	4304
2026-01-10 23:53:46.78	89.35	16.82	-48.3	-50.0	16.1	6.00e-01	0	23	0	613941248	65	4353
2026-01-10 23:53:47.78	89.61	16.80	-48.3	-49.9	16.1	6.04e-01	0	23	0	616038400	65	4312
2026-01-10 23:53:48.78	89.87	16.78	-48.2	-49.9	16.1	6.03e-01	0	23	0	617611264	65	4301
2026-01-10 23:53:49.77	90.12	16.76	-48.2	-49.9	16.1	6.05e-01	0	23	0	619708416	65	4294
2026-01-10 23:53:50.78	90.38	16.73	-48.4	-50.0	16.0	5.99e-01	0	23	0	621805568	65	4363
2026-01-10 23:53:51.78	90.64	16.71	-48.4	-50.0	16.0	5.99e-01	0	23	0	623378432	65	4363
2026-01-10 23:53:52.78	90.90	16.69	-48.3	-49.9	16.0	6.01e-01	0	23	0	625475584	65	4326
2026-01-10 23:53:53.78	91.16	16.67	-48.3	-49.9	16.0	6.01e-01	0	23	0	627048448	65	4320
2026-01-10 23:53:54.77	91.41	16.64	-48.3	-49.9	16.1	6.03e-01	0	23	0	629145600	65	4322
2026-01-10 23:53:55.77	91.67	16.62	-48.2	-49.8	16.1	6.01e-01	0	23	0	631242752	65	4272
2026-01-10 23:53:56.77	91.92	16.59	-48.3	-49.9	16.1	6.02e-01	0	23	0	632815616	65	4338
2026-01-10 23:53:57.76	92.17	16.57	-48.4	-50.0	16.0	6.02e-01	0	23	0	634912768	65	4369
2026-01-10 23:53:58.76	92.43	16.54	-48.4	-50.0	16.0	6.02e-01	0	23	0	636485632	65	4369
2026-01-10 23:53:59.77	92.68	16.52	-48.3	-50.0	16.1	6.01e-01	0	23	0	638582784	65	4344
2026-01-10 23:54:00.76	92.94	16.49	-48.3	-49.9	16.1	6.01e-01	0	23	0	640155648	65	4313
2026-01-10 23:54:01.77	93.19	16.46	-48.2	-49.8	16.1	5.99e-01	0	23	0	642252800	65	4283
2026-01-10 23:54:02.77	93.45	16.44	-48.3	-49.9	16.0	6.01e-01	0	23	0	643825664	65	4337
2026-01-10 23:54:03.77	93.70	16.41	-48.4	-50.1	16.0	5.98e-01	0	23	0	645922816	65	4418
2026-01-10 23:54:04.77	93.95	16.38	-48.4	-50.1	16.0	6.00e-01	0	23	0	648019968	65	4411
2026-01-10 23:54:05.77	94.20	16.35	-48.4	-50.1	16.0	6.00e-01	0	23	0	649592832	65	4408
2026-01-10 23:54:06.76	94.45	16.32	-48.5	-50.2	16.0	5.99e-01	0	23	0	651689984	65	4449
2026-01-10 23:54:07.76	94.70	16.29	-48.3	-49.9	16.1	6.02e-01	0	23	0	653262848	65	4318
2026-01-10 23:54:08.76	94.95	16.26	-48.3	-49.9	16.1	5.99e-01	0	23	0	655360000	65	4319
2026-01-10 23:54:09.75	95.20	16.23	-48.3	-49.9	16.1	6.01e-01	0	23	0	656932864	65	4331
2026-01-10 23:54:10.75	95.45	16.20	-48.3	-49.9	16.1	6.02e-01	0	23	0	659030016	65	4337
2026-01-10 23:54:11.74	95.69	16.17	-48.4	-50.0	16.0	6.01e-01	0	23	0	661127168	65	4377
2026-01-10 23:54:12.75	95.94	16.14	-48.3	-49.9	16.0	6.04e-01	0	23	0	662700032	65	4313
2026-01-10 23:54:13.75	96.19	16.10	-48.3	-49.9	16.0	6.01e-01	0	23	0	664797184	65	4299
2026-01-10 23:54:14.74	96.43	16.07	-48.3	-49.9	16.0	5.99e-01	0	23	0	666370048	65	4322
2026-01-10 23:54:15.74	96.68	16.04	-48.3	-49.9	16.0	6.01e-01	0	23	0	668467200	65	4314
2026-01-10 23:54:16.74	96.92	16.00	-48.2	-49.8	16.1	6.03e-01	0	23	0	670040064	65	4278
2026-01-10 23:54:17.74	97.17	15.97	-48.2	-49.8	16.0	6.04e-01	0	23	0	672137216	65	4286
2026-01-10 23:54:18.75	97.42	15.93	-48.2	-49.9	16.1	5.99e-01	0	23	0	674234368	65	4299
2026-01-10 23:54:19.74	97.66	15.90	-48.3	-50.0	16.0	6.01e-01	0	23	0	675807232	65	4359
2026-01-10 23:54:20.74	97.90	15.86	-48.4	-50.0	16.0	6.04e-01	0	23	0	677904384	65	4368
2026-01-10 23:54:21.73	98.14	15.83	-48.3	-50.0	16.1	5.99e-01	0	23	0	679477248	65	4351
2026-01-10 23:54:22.73	98.38	15.79	-48.2	-49.8	16.1	6.01e-01	0	23	0	681574400	65	4287
2026-01-10 23:54:23.73	98.62	15.76	-48.4	-50.0	16.0	6.02e-01	0	23	0	683147264	65	4364
2026-01-10 23:54:24.72	98.86	15.72	-48.2	-49.8	16.1	5.99e-01	0	23	0	685244416	65	4270
2026-01-10 23:54:25.72	99.10	15.68	-48.2	-49.8	16.1	6.00e-01	0	23	0	687341568	65	4260
2026-01-10 23:54:26.72	99.34	15.64	-48.3	-49.9	16.1	6.00e-01	0	23	0	688914432	65	4327
2026-01-10 23:54:27.72	99.58	15.61	-48.4	-50.1	16.0	5.98e-01	0	23	0	691011584	65	4395
2026-01-10 23:54:28.72	99.82	15.57	-48.3	-50.0	16.0	6.02e-01	0	23	0	692584448	65	4361
2026-01-10 23:54:29.72	100.06	15.53	-48.4	-50.0	16.0	5.99e-01	0	23	0	694681600	65	4375
2026-01-10 23:54:30.72	100.29	15.49	-48.4	-50.0	16.0	5.99e-01	0	23	0	696778752	65	4386
2026-01-10 23:54:31.73	100.53	15.45	-48.3	-50.0	16.0	5.98e-01	0	23	0	698351616	65	4360
2026-01-10 23:54:32.73	100.77	15.41	-48.3	-49.9	16.1	6.03e-01	0	23	0	700448768	65	4338
2026-01-10 23:54:33.72	101.00	15.37	-48.3	-49.9	16.1	6.00e-01	0	23	0	702021632	65	4325
2026-01-10 23:54:34.72	101.24	15.33	-48.3	-50.0	16.0	6.02e-01	0	23	0	704118784	65	4358
2026-01-10 23:54:35.71	101.47	15.29	-48.3	-49.9	16.0	6.01e-01	0	23	0	705691648	65	4305
2026-01-10 23:54:36.71	101.70	15.25	-48.4	-50.0	16.0	6.01e-01	0	23	0	707788800	65	4380
2026-01-10 23:54:37.71	101.93	15.20	-48.4	-50.0	16.0	6.00e-01	0	23	0	709361664	65	4384
2026-01-10 23:54:38.71	102.16	15.16	-48.4	-50.1	16.0	6.01e-01	0	23	0	711458816	65	4411
2026-01-10 23:54:39.70	102.39	15.12	-48.4	-50.0	16.0	6.00e-01	0	23	0	713555968	65	4390
2026-01-10 23:54:40.69	102.62	15.08	-48.4	-50.1	16.0	6.00e-01	0	23	0	715128832	65	4414
2026-01-10 23:54:41.69	102.85	15.03	-48.3	-49.9	16.0	6.05e-01	0	23	0	717225984	65	4333
2026-01-10 23:54:42.69	103.08	14.99	-48.3	-49.9	16.1	6.02e-01	0	23	0	718798848	65	4304
2026-01-10 23:54:43.68	103.31	14.95	-48.3	-50.0	16.0	6.00e-01	0	23	0	720896000	65	4354
2026-01-10 23:54:44.68	103.53	14.90	-48.4	-50.1	16.0	6.02e-01	0	23	0	722468864	65	4409
2026-01-10 23:54:45.69	103.76	14.86	-48.3	-50.0	16.1	6.01e-01	0	23	0	724566016	65	4353
2026-01-10 23:54:46.68	103.99	14.81	-48.3	-49.9	16.0	5.97e-01	0	23	0	726663168	65	4311
2026-01-10 23:54:47.68	104.21	14.77	-48.3	-49.9	16.0	6.02e-01	0	23	0	728236032	65	4315
2026-01-10 23:54:48.69	104.44	14.72	-48.4	-50.0	16.0	6.00e-01	0	23	0	730333184	65	4386
2026-01-10 23:54:49.68	104.66	14.68	-48.4	-50.1	16.0	6.01e-01	0	23	0	731906048	65	4409
2026-01-10 23:54:50.68	104.89	14.63	-48.5	-50.2	16.0	6.00e-01	0	23	0	734003200	65	4457
2026-01-10 23:54:51.68	105.11	14.59	-48.5	-50.2	16.0	6.02e-01	0	23	0	735576064	65	4466
2026-01-10 23:54:52.69	105.33	14.54	-48.3	-50.0	16.0	6.00e-01	0	23	0	737673216	65	4363
2026-01-10 23:54:53.69	105.55	14.49	-48.3	-49.9	16.1	6.00e-01	0	23	0	739770368	65	4317
2026-01-10 23:54:54.69	105.77	14.45	-48.2	-49.8	16.1	6.01e-01	0	23	0	741343232	65	4278
2026-01-10 23:54:55.69	105.99	14.40	-48.3	-49.9	16.1	6.01e-01	0	23	0	743440384	65	4327
2026-01-10 23:54:56.70	106.21	14.35	-48.4	-50.0	16.0	6.05e-01	0	23	0	745013248	65	4378
2026-01-10 23:54:57.70	106.43	14.30	-48.5	-50.1	16.0	6.01e-01	0	23	0	747110400	65	4429
2026-01-10 23:54:58.70	106.65	14.25	-48.4	-50.1	16.0	6.01e-01	0	23	0	748683264	65	4412
2026-01-10 23:54:59.69	106.87	14.21	-48.4	-50.0	16.0	6.00e-01	0	23	0	750780416	65	4382
2026-01-10 23:55:00.69	107.08	14.16	-48.5	-50.2	16.0	6.01e-01	0	23	0	752877568	65	4456
2026-01-10 23:55:01.69	107.30	14.11	-48.4	-50.1	16.0	6.05e-01	0	23	0	754450432	65	4411
2026-01-10 23:55:02.70	107.51	14.06	-48.5	-50.2	16.0	6.00e-01	0	23	0	756547584	65	4445
2026-01-10 23:55:03.71	107.73	14.01	-48.4	-50.1	16.0	5.99e-01	0	23	0	758120448	65	4421
2026-01-10 23:55:04.71	107.94	13.96	-48.3	-49.9	16.1	6.02e-01	0	23	0	760217600	65	4326
2026-01-10 23:55:05.70	108.15	13.91	-48.4	-50.1	16.0	6.01e-01	0	23	0	762314752	65	4400
2026-01-10 23:55:06.69	108.36	13.86	-48.4	-50.1	16.0	6.01e-01	0	23	0	763887616	65	4400
2026-01-10 23:55:07.69	108.57	13.81	-48.5	-50.1	16.0	6.00e-01	0	23	0	765984768	65	4425
2026-01-10 23:55:08.69	108.78	13.76	-48.5	-50.1	16.0	5.98e-01	0	23	0	767557632	65	4427
2026-01-10 23:55:09.68	108.99	13.71	-48.5	-50.2	16.0	5.99e-01	0	23	0	769654784	65	4469
2026-01-10 23:55:10.69	109.20	13.66	-48.6	-50.3	15.9	5.98e-01	0	23	0	771227648	65	4514
2026-01-10 23:55:11.69	109.41	13.61	-48.5	-50.2	16.0	6.01e-01	0	23	0	773324800	65	4452
2026-01-10 23:55:12.69	109.62	13.56	-48.5	-50.2	16.0	6.01e-01	0	23	0	775421952	65	4448
2026-01-10 23:55:13.70	109.83	13.50	-48.5	-50.2	16.0	5.99e-01	0	23	0	776994816	65	4452
2026-01-10 23:55:14.69	110.03	13.45	-48.7	-50.4	15.9	5.99e-01	0	23	0	779091968	65	4552
2026-01-10 23:55:15.70	110.24	13.40	-48.5	-50.2	16.0	6.01e-01	0	23	0	780664832	65	4478
2026-01-10 23:55:16.70	110.44	13.35	-48.5	-50.1	16.0	6.00e-01	0	23	0	782761984	65	4419
2026-01-10 23:55:17.70	110.64	13.29	-48.5	-50.2	16.0	6.04e-01	0	23	0	784334848	65	4450
2026-01-10 23:55:18.70	110.85	13.24	-48.5	-50.1	16.0	5.99e-01	0	23	0	786432000	65	4433
2026-01-10 23:55:19.69	111.05	13.19	-48.6	-50.3	15.9	6.01e-01	0	23	0	788529152	65	4502
2026-01-10 23:55:20.68	111.25	13.14	-48.5	-50.2	16.0	6.00e-01	0	23	0	790102016	65	4465
2026-01-10 23:55:21.68	111.45	13.08	-48.6	-50.3	15.9	5.99e-01	0	23	0	792199168	65	4530
2026-01-10 23:55:22.68	111.65	13.03	-48.6	-50.3	15.9	6.03e-01	0	23	0	793772032	65	4497
2026-01-10 23:55:23.68	111.85	12.98	-48.7	-50.4	15.9	6.02e-01	0	23	0	795869184	65	4548
2026-01-10 23:55:24.68	112.04	12.92	-48.8	-50.5	15.9	6.01e-01	0	23	0	797442048	65	4609
2026-01-10 23:55:25.69	112.24	12.87	-48.6	-50.3	16.0	6.02e-01	0	23	0	799539200	65	4498
2026-01-10 23:55:26.69	112.44	12.82	-48.6	-50.3	15.9	6.00e-01	0	23	0	801636352	65	4506
2026-01-10 23:55:27.69	112.64	12.76	-48.6	-50.3	15.9	6.00e-01	0	23	0	803209216	65	4499
2026-01-10 23:55:28.69	112.83	12.71	-48.6	-50.3	15.9	5.99e-01	0	23	0	805306368	65	4533
2026-01-10 23:55:29.69	113.03	12.65	-48.6	-50.3	16.0	6.01e-01	0	23	0	806879232	65	4501
2026-01-10 23:55:30.69	113.22	12.60	-48.5	-50.2	16.0	6.03e-01	0	23	0	808976384	65	4474
2026-01-10 23:55:31.69	113.41	12.54	-48.5	-50.2	16.0	6.01e-01	0	23	0	810549248	65	4479
2026-01-10 23:55:32.69	113.60	12.49	-48.6	-50.3	15.9	6.02e-01	0	23	0	812646400	65	4517
2026-01-10 23:55:33.68	113.79	12.43	-48.6	-50.3	15.9	6.01e-01	0	23	0	814743552	65	4526
2026-01-10 23:55:34.68	113.99	12.38	-48.6	-50.3	15.9	5.99e-01	0	23	0	816316416	65	4525
2026-01-10 23:55:35.67	114.17	12.33	-48.7	-50.4	15.9	6.02e-01	0	23	0	818413568	65	4557
2026-01-10 23:55:36.67	114.36	12.27	-48.6	-50.3	15.9	6.01e-01	0	23	0	819986432	65	4529
2026-01-10 23:55:37.67	114.55	12.21	-48.7	-50.4	15.9	6.02e-01	0	23	0	822083584	65	4558
2026-01-10 23:55:38.67	114.74	12.16	-48.8	-50.5	15.8	6.00e-01	0	23	0	823656448	65	4651
2026-01-10 23:55:39.65	114.92	12.10	-48.8	-50.5	15.8	6.00e-01	0	23	0	825753600	65	4641
2026-01-10 23:55:40.66	115.11	12.05	-48.8	-50.5	15.8	6.02e-01	0	23	0	827326464	65	4646
2026-01-10 23:55:41.66	115.30	11.99	-48.8	-50.6	15.8	6.01e-01	0	23	0	829423616	65	4652
2026-01-10 23:55:42.65	115.48	11.94	-48.7	-50.5	15.9	5.98e-01	0	23	0	831520768	65	4607
2026-01-10 23:55:43.64	115.66	11.88	-48.8	-50.5	15.9	6.02e-01	0	23	0	833093632	65	4630
2026-01-10 23:55:44.64	115.84	11.82	-48.7	-50.5	15.9	6.00e-01	0	23	0	835190784	65	4624
2026-01-10 23:55:45.64	116.03	11.77	-48.8	-50.5	15.8	6.02e-01	0	23	0	836763648	65	4626
2026-01-10 23:55:46.64	116.21	11.71	-48.9	-50.7	15.8	6.04e-01	0	23	0	838860800	65	4739
2026-01-10 23:55:47.64	116.39	11.65	-48.9	-50.7	15.8	6.01e-01	0	23	0	840957952	65	4707
2026-01-10 23:55:48.64	116.57	11.60	-48.8	-50.6	15.8	6.00e-01	0	23	0	842530816	65	4660
2026-01-10 23:55:49.64	116.75	11.54	-48.8	-50.5	15.8	6.02e-01	0	23	0	844627968	65	4650
2026-01-10 23:55:50.65	116.93	11.48	-48.8	-50.6	15.8	6.00e-01	0	23	0	846200832	65	4652
2026-01-10 23:55:51.65	117.11	11.43	-48.8	-50.5	15.8	6.02e-01	0	23	0	848297984	65	4631
2026-01-10 23:55:52.64	117.29	11.37	-48.7	-50.5	15.9	6.02e-01	0	23	0	849870848	65	4621
2026-01-10 23:55:53.65	117.46	11.31	-48.9	-50.7	15.8	6.00e-01	0	23	0	851968000	65	4713
2026-01-10 23:55:54.65	117.64	11.26	-48.8	-50.5	15.8	5.99e-01	0	23	0	854065152	65	4651
2026-01-10 23:55:55.65	117.82	11.20	-48.9	-50.6	15.8	6.01e-01	0	23	0	855638016	65	4695
2026-01-10 23:55:56.64	117.99	11.14	-48.9	-50.7	15.8	6.03e-01	0	23	0	857735168	65	4730
2026-01-10 23:55:57.64	118.16	11.08	-49.0	-50.8	15.7	6.02e-01	0	23	0	859308032	65	4776
2026-01-10 23:55:58.64	118.34	11.03	-49.0	-50.8	15.7	5.98e-01	0	23	0	861405184	65	4802
2026-01-10 23:55:59.64	118.51	10.97	-48.9	-50.7	15.8	5.99e-01	0	23	0	862978048	65	4716
2026-01-10 23:56:00.64	118.68	10.91	-48.9	-50.7	15.8	6.03e-01	0	23	0	865075200	65	4741
2026-01-10 23:56:01.64	118.85	10.85	-48.9	-50.7	15.8	6.02e-01	0	23	0	867172352	65	4750
2026-01-10 23:56:02.64	119.02	10.80	-49.0	-50.8	15.7	6.00e-01	0	23	0	868745216	65	4775
2026-01-10 23:56:03.64	119.19	10.74	-48.9	-50.7	15.8	6.02e-01	0	23	0	870842368	65	4725
2026-01-10 23:56:04.65	119.36	10.68	-48.8	-50.6	15.8	6.00e-01	0	23	0	872415232	65	4695
2026-01-10 23:56:05.65	119.53	10.62	-48.9	-50.7	15.8	6.00e-01	0	23	0	874512384	65	4721
2026-01-10 23:56:06.65	119.70	10.56	-48.9	-50.7	15.8	6.01e-01	0	23	0	876085248	65	4715
2026-01-10 23:56:07.65	119.87	10.51	-48.8	-50.6	15.8	6.02e-01	0	23	0	878182400	65	4652
2026-01-10 23:56:08.65	120.03	10.45	-48.9	-50.7	15.8	6.01e-01	0	23	0	880279552	65	4707
2026-01-10 23:56:09.64	120.20	10.39	-48.9	-50.7	15.8	6.00e-01	0	23	0	881852416	65	4753
2026-01-10 23:56:10.64	120.36	10.33	-49.0	-50.8	15.7	6.01e-01	0	23	0	883949568	65	4778
2026-01-10 23:56:11.64	120.53	10.27	-49.1	-50.9	15.7	6.02e-01	0	23	0	885522432	65	4856
2026-01-10 23:56:12.64	120.69	10.21	-49.0	-50.8	15.7	6.00e-01	0	23	0	887619584	65	4788
2026-01-10 23:56:13.65	120.85	10.16	-49.0	-50.8	15.7	6.00e-01	0	23	0	889716736	65	4782
2026-01-10 23:56:14.65	121.02	10.10	-49.0	-50.8	15.7	6.03e-01	0	23	0	891289600	65	4802
2026-01-10 23:56:15.65	121.18	10.04	-49.0	-50.8	15.7	6.01e-01	0	23	0	893386752	65	4801
2026-01-10 23:56:16.64	121.34	9.98	-48.9	-50.7	15.8	6.01e-01	0	23	0	894959616	65	4741
2026-01-10 23:56:17.65	121.50	9.92	-49.0	-50.8	15.7	6.02e-01	0	23	0	897056768	65	4773
2026-01-10 23:56:18.65	121.66	9.86	-49.0	-50.8	15.8	6.03e-01	0	23	0	898629632	65	4776
2026-01-10 23:56:19.66	121.82	9.80	-48.9	-50.8	15.7	6.01e-01	0	23	0	900726784	65	4762
2026-01-10 23:56:20.65	121.98	9.75	-48.9	-50.7	15.8	6.01e-01	0	23	0	902823936	65	4739
2026-01-10 23:56:21.66	122.14	9.69	-49.0	-50.8	15.7	5.99e-01	0	23	0	904396800	65	4793
2026-01-10 23:56:22.66	122.29	9.63	-49.0	-50.8	15.7	6.01e-01	0	23	0	906493952	65	4809
2026-01-10 23:56:23.67	122.45	9.57	-49.1	-50.9	15.7	6.03e-01	0	23	0	908066816	65	4868
2026-01-10 23:56:24.67	122.61	9.51	-49.2	-51.0	15.8	6.00e-01	0	23	0	910163968	66	4634
2026-01-10 23:56:25.67	122.76	9.45	-49.2	-51.1	15.8	6.01e-01	0	23	0	911736832	66	4660
2026-01-10 23:56:26.66	122.91	9.39	-49.3	-51.1	15.8	6.02e-01	0	23	0	913833984	66	4698
2026-01-10 23:56:27.66	123.07	9.34	-49.2	-51.1	15.8	6.00e-01	0	23	0	915931136	66	4697
2026-01-10 23:56:28.66	123.22	9.28	-49.3	-51.2	15.7	6.02e-01	0	23	0	917504000	66	4740
2026-01-10 23:56:29.66	123.37	9.22	-49.2	-51.1	15.8	6.02e-01	0	23	0	919601152	66	4670
2026-01-10 23:56:30.65	123.52	9.16	-49.2	-51.1	15.7	6.00e-01	0	23	0	921174016	66	4691
2026-01-10 23:56:31.65	123.67	9.10	-49.3	-51.2	15.7	6.03e-01	0	23	0	923271168	66	4741
2026-01-10 23:56:32.65	123.82	9.04	-49.1	-51.0	15.8	6.01e-01	0	23	0	924844032	66	4627
2026-01-10 23:56:33.65	123.97	8.98	-49.2	-51.0	15.8	6.01e-01	0	23	0	926941184	66	4651
2026-01-10 23:56:34.65	124.12	8.92	-49.2	-51.1	15.7	5.98e-01	0	23	0	929038336	66	4684
2026-01-10 23:56:35.64	124.27	8.87	-49.3	-51.3	15.7	6.02e-01	0	23	0	930611200	66	4765
2026-01-10 23:56:36.64	124.42	8.81	-49.1	-50.9	15.8	6.03e-01	0	23	0	932708352	66	4589
2026-01-10 23:56:37.64	124.56	8.75	-49.2	-51.1	15.8	6.00e-01	0	23	0	934281216	66	4702
2026-01-10 23:56:38.64	124.71	8.69	-49.2	-51.1	15.8	6.01e-01	0	23	0	936378368	66	4662
2026-01-10 23:56:39.64	124.86	8.63	-49.1	-51.0	15.8	6.00e-01	0	23	0	937951232	66	4613
2026-01-10 23:56:40.62	125.00	8.57	-49.3	-51.2	15.8	6.00e-01	0	23	0	940048384	66	4720
2026-01-10 23:56:41.62	125.14	8.52	-49.3	-51.2	15.7	6.04e-01	0	23	0	942145536	66	4727
2026-01-10 23:56:42.62	125.29	8.46	-49.3	-51.2	15.7	6.01e-01	0	23	0	943718400	66	4737
2026-01-10 23:56:43.62	125.43	8.40	-49.4	-51.3	15.7	6.02e-01	0	23	0	945815552	66	4797
2026-01-10 23:56:44.62	125.58	8.34	-49.5	-51.4	15.6	6.00e-01	0	23	0	947388416	66	4846
2026-01-10 23:56:45.63	125.72	8.28	-49.4	-51.3	15.7	6.05e-01	0	23	0	949485568	66	4787
2026-01-10 23:56:46.63	125.86	8.22	-49.4	-51.4	15.7	6.00e-01	0	23	0	951582720	66	4834
2026-01-10 23:56:47.63	126.00	8.16	-49.4	-51.3	15.7	6.01e-01	0	23	0	953155584	66	4788
2026-01-10 23:56:48.63	126.14	8.10	-49.3	-51.3	15.7	6.03e-01	0	23	0	955252736	66	4769
2026-01-10 23:56:49.63	126.28	8.04	-49.4	-51.3	15.7	5.99e-01	0	23	0	956825600	66	4782
2026-01-10 23:56:50.63	126.42	7.99	-49.4	-51.3	15.7	6.00e-01	0	23	0	958922752	66	4780
2026-01-10 23:56:51.63	126.56	7.93	-49.4	-51.3	15.7	5.99e-01	0	23	0	960495616	66	4797
2026-01-10 23:56:52.62	126.70	7.87	-49.5	-51.4	15.6	6.04e-01	0	23	0	962592768	66	4868
2026-01-10 23:56:53.62	126.84	7.81	-49.5	-51.4	15.6	6.02e-01	0	23	0	964689920	66	4852
2026-01-10 23:56:54.62	126.97	7.75	-49.4	-51.4	15.7	6.02e-01	0	23	0	966262784	66	4829
2026-01-10 23:56:55.63	127.11	7.69	-49.5	-51.4	15.6	6.03e-01	0	23	0	968359936	66	4869
2026-01-10 23:56:56.63	127.25	7.63	-49.2	-51.2	15.7	6.00e-01	0	23	0	969932800	66	4713
2026-01-10 23:56:57.62	127.38	7.58	-49.6	-51.5	15.6	6.01e-01	0	23	0	972029952	66	4924
2026-01-10 23:56:58.62	127.52	7.52	-49.4	-51.4	15.6	5.99e-01	0	23	0	973602816	66	4843
2026-01-10 23:56:59.62	127.65	7.46	-49.5	-51.4	15.6	6.01e-01	0	23	0	975699968	66	4865
2026-01-10 23:57:00.62	127.78	7.40	-49.3	-51.3	15.7	6.01e-01	0	23	0	977797120	66	4780
2026-01-10 23:57:01.62	127.92	7.34	-49.4	-51.4	15.7	6.03e-01	0	23	0	979369984	66	4843
2026-01-10 23:57:02.62	128.05	7.28	-49.5	-51.5	15.6	6.01e-01	0	23	0	981467136	66	4883
2026-01-10 23:57:03.63	128.18	7.23	-49.7	-51.7	15.7	6.00e-01	0	23	0	983040000	67	4709
2026-01-10 23:57:04.63	128.31	7.17	-49.7	-51.7	15.7	6.01e-01	0	23	0	985137152	67	4731
2026-01-10 23:57:05.64	128.45	7.11	-49.6	-51.6	15.7	6.00e-01	0	23	0	986710016	67	4699
2026-01-10 23:57:06.63	128.58	7.05	-49.6	-51.6	15.7	6.01e-01	0	23	0	988807168	67	4687
2026-01-10 23:57:07.64	128.71	6.99	-49.8	-51.8	15.6	6.00e-01	0	23	0	990904320	67	4794
2026-01-10 23:57:08.64	128.84	6.93	-49.7	-51.7	15.7	6.02e-01	0	23	0	992477184	67	4747
2026-01-10 23:57:09.63	128.96	6.88	-49.8	-51.8	15.6	6.03e-01	0	23	0	994574336	67	4797
2026-01-10 23:57:10.63	129.09	6.82	-49.9	-52.0	15.6	5.98e-01	0	23	0	996147200	67	4914
2026-01-10 23:57:11.63	129.22	6.76	-49.8	-51.9	15.6	6.02e-01	0	23	0	998244352	67	4848
2026-01-10 23:57:12.63	129.35	6.70	-49.7	-51.8	15.7	6.00e-01	0	23	0	1000341504	67	4784
2026-01-10 23:57:13.63	129.47	6.64	-49.8	-51.8	15.6	6.01e-01	0	23	0	1001914368	67	4810
2026-01-10 23:57:14.63	129.60	6.59	-49.8	-51.9	15.6	6.02e-01	0	23	0	1004011520	67	4853
2026-01-10 23:57:15.63	129.73	6.53	-49.8	-51.9	15.6	5.99e-01	0	23	0	1005584384	67	4834
2026-01-10 23:57:16.63	129.85	6.47	-49.8	-51.9	15.6	6.01e-01	0	23	0	1007681536	67	4824
2026-01-10 23:57:17.62	129.97	6.41	-49.8	-51.9	15.6	6.00e-01	0	23	0	1009254400	67	4845
2026-01-10 23:57:18.62	130.10	6.35	-49.9	-52.0	15.6	6.01e-01	0	23	0	1011351552	67	4895
2026-01-10 23:57:19.62	130.22	6.30	-49.9	-52.0	15.5	6.01e-01	0	23	0	1013448704	67	4914
2026-01-10 23:57:20.63	130.35	6.24	-49.8	-51.9	15.6	6.01e-01	0	23	0	1015021568	67	4817
2026-01-10 23:57:21.62	130.47	6.18	-49.9	-52.0	15.6	6.00e-01	0	23	0	1017118720	67	4883
2026-01-10 23:57:22.62	130.59	6.12	-49.8	-52.0	15.6	6.00e-01	0	23	0	1018691584	67	4874
2026-01-10 23:57:23.62	130.71	6.07	-49.9	-52.1	15.5	6.01e-01	0	23	0	1020788736	67	4944
2026-01-10 23:57:24.62	130.83	6.01	-49.9	-52.0	15.6	6.00e-01	0	23	0	1022361600	67	4891
2026-01-10 23:57:25.63	130.95	5.95	-49.8	-51.9	15.6	6.00e-01	0	23	0	1024458752	67	4865
2026-01-10 23:57:26.63	131.07	5.89	-49.9	-52.1	15.5	5.98e-01	0	23	0	1026555904	67	4934
2026-01-10 23:57:27.63	131.19	5.83	-49.9	-52.1	15.5	6.02e-01	0	23	0	1028128768	67	4949
2026-01-10 23:57:28.62	131.31	5.78	-49.9	-52.1	15.5	6.02e-01	0	23	0	1030225920	67	4939
2026-01-10 23:57:29.62	131.43	5.72	-50.1	-52.3	15.5	6.00e-01	0	23	0	1031798784	67	5045
2026-01-10 23:57:30.62	131.55	5.66	-50.2	-52.4	15.6	6.00e-01	0	23	0	1033895936	68	4817
2026-01-10 23:57:31.62	131.66	5.61	-50.1	-52.3	15.6	6.03e-01	0	23	0	1035468800	68	4792
2026-01-10 23:57:32.62	131.78	5.55	-50.0	-52.1	15.7	6.03e-01	0	23	0	1037565952	68	4685
2026-01-10 23:57:33.62	131.90	5.49	-49.9	-52.0	15.7	6.03e-01	0	23	0	1039663104	68	4642
2026-01-10 23:57:34.63	132.01	5.43	-50.1	-52.3	15.6	6.00e-01	0	23	0	1041235968	68	4775
2026-01-10 23:57:35.63	132.13	5.38	-50.1	-52.3	15.6	6.01e-01	0	23	0	1043333120	68	4785
2026-01-10 23:57:36.63	132.25	5.32	-50.0	-52.2	15.6	6.01e-01	0	23	0	1044905984	68	4757
2026-01-10 23:57:37.63	132.36	5.26	-50.1	-52.3	15.6	5.99e-01	0	23	0	1047003136	68	4812
2026-01-10 23:57:38.63	132.47	5.21	-50.1	-52.3	15.6	6.01e-01	0	23	0	1048576000	68	4801
2026-01-10 23:57:39.63	132.59	5.15	-50.1	-52.4	15.6	6.00e-01	0	23	0	1050673152	68	4824
2026-01-10 23:57:40.63	132.70	5.09	-50.2	-52.4	15.5	6.00e-01	0	23	0	1052770304	68	4848
2026-01-10 23:57:41.63	132.81	5.03	-50.2	-52.4	15.5	6.03e-01	0	23	0	1054343168	68	4862
2026-01-10 23:57:42.63	132.93	4.98	-52.6	-55.9	14.8	5.98e-01	0	23	0	1056440320	72	5757
2026-01-10 23:57:43.63	133.04	4.92	-56.8	-75.9	3.8	7.44e-01	0	23	104	1056964608	81	34334
2026-01-10 23:57:44.63	133.15	4.86	-57.2	-76.5	3.9	7.45e-01	0	23	104	1056964608	82	34834
2026-01-10 23:57:45.63	133.26	4.81	-57.4	-76.7	3.8	7.47e-01	0	23	104	1056964608	82	35648
2026-01-10 23:57:46.63	133.37	4.75	-57.7	-77.0	3.9	7.47e-01	0	23	104	1056964608	83	34690
2026-01-10 23:57:47.62	133.48	4.70	-57.9	-77.2	3.8	7.47e-01	0	23	104	1056964608	83	35428
2026-01-10 23:57:48.62	133.59	4.64	-58.0	-77.3	3.8	7.44e-01	0	23	104	1056964608	83	35947
2026-01-10 23:57:49.61	133.70	4.58	-58.1	-77.4	3.8	7.47e-01	0	23	104	1056964608	83	36333
2026-01-10 23:57:50.60	133.81	4.53	-58.4	-77.7	3.8	7.43e-01	0	23	104	1056964608	84	35449
2026-01-10 23:57:51.60	133.91	4.47	-58.4	-77.8	3.8	7.46e-01	0	23	104	1056964608	84	35746
2026-01-10 23:57:52.61	134.02	4.41	-58.5	-77.8	3.8	7.48e-01	0	23	104	1056964608	84	35798
2026-01-10 23:57:53.61	134.13	4.36	-58.5	-77.9	3.8	7.50e-01	0	23	104	1056964608	84	36189
2026-01-10 23:57:54.61	134.24	4.30	-58.6	-77.9	3.8	7.45e-01	0	23	104	1056964608	84	36281
2026-01-10 23:57:55.61	134.34	4.25	-58.5	-77.7	3.8	7.44e-01	0	23	104	1056964608	85	33658
2026-01-10 23:57:56.62	134.45	4.19	-58.7	-78.0	3.8	7.47e-01	0	23	104	1056964608	85	34815
2026-01-10 23:57:57.62	134.56	4.13	-58.8	-78.1	3.8	7.48e-01	0	23	104	1056964608	85	35234
2026-01-10 23:57:58.62	134.66	4.08	-58.9	-78.2	3.8	7.45e-01	0	23	104	1056964608	85	35424
2026-01-10 23:57:59.63	134.77	4.02	-58.9	-78.2	3.8	7.47e-01	0	23	104	1056964608	85	35626
2026-01-10 23:58:00.62	134.87	3.97	-59.0	-78.3	3.8	7.45e-01	0	23	104	1056964608	85	35842
2026-01-10 23:58:01.62	134.98	3.91	-59.0	-78.3	3.8	7.44e-01	0	23	104	1056964608	85	36035
2026-01-10 23:58:02.62	135.08	3.85	-59.0	-78.4	3.8	7.46e-01	0	23	104	1056964608	85	36266
2026-01-10 23:58:03.62	135.18	3.80	-59.1	-78.4	3.8	7.44e-01	0	23	104	1056964608	85	36361
2026-01-10 23:58:04.62	135.28	3.74	-59.1	-78.5	3.8	7.49e-01	0	23	104	1056964608	85	36560
2026-01-10 23:58:05.63	135.39	3.69	-59.1	-78.5	3.8	7.51e-01	0	23	104	1056964608	85	36584
2026-01-10 23:58:06.62	135.49	3.63	-59.1	-78.5	3.8	7.45e-01	0	23	104	1056964608	85	36547
2026-01-10 23:58:07.62	135.59	3.58	-59.1	-78.4	3.8	7.50e-01	0	23	104	1056964608	85	36357
2026-01-10 23:58:08.62	135.69	3.52	-59.0	-78.4	3.8	7.45e-01	0	23	104	1056964608	85	36301
2026-01-10 23:58:09.62	135.79	3.47	-59.0	-78.4	3.8	7.46e-01	0	23	104	1056964608	85	36304
2026-01-10 23:58:10.62	135.89	3.41	-59.0	-78.4	3.8	7.45e-01	0	23	104	1056964608	85	36132
2026-01-10 23:58:11.62	135.99	3.35	-59.0	-78.4	3.8	7.44e-01	0	23	104	1056964608	85	36171
2026-01-10 23:58:12.63	136.09	3.30	-59.0	-78.3	3.8	7.45e-01	0	23	104	1056964608	85	36104
2026-01-10 23:58:13.63	136.19	3.24	-59.0	-78.3	3.8	7.47e-01	0	23	104	1056964608	85	36036
2026-01-10 23:58:14.64	136.29	3.19	-59.0	-78.3	3.8	7.50e-01	0	23	104	1056964608	85	36078
2026-01-10 23:58:15.64	136.39	3.13	-59.0	-78.3	3.8	7.48e-01	0	23	104	1056964608	85	35928
2026-01-10 23:58:16.64	136.49	3.08	-59.0	-78.3	3.8	7.46e-01	0	23	104	1056964608	85	36019
2026-01-10 23:58:17.65	136.59	3.02	-59.0	-78.3	3.8	7.47e-01	0	23	104	1056964608	85	35888
2026-01-10 23:58:18.65	136.69	2.97	-59.0	-78.3	3.8	7.46e-01	0	23	104	1056964608	85	35911
2026-01-10 23:58:19.66	136.78	2.91	-59.0	-78.3	3.8	7.47e-01	0	23	104	1056964608	85	35949
2026-01-10 23:58:20.66	136.88	2.86	-59.0	-78.3	3.8	7.47e-01	0	23	104	1056964608	85	35953
2026-01-10 23:58:21.66	136.98	2.80	-58.9	-78.3	3.8	7.49e-01	0	23	104	1056964608	85	35897
2026-01-10 23:58:22.65	137.07	2.75	-58.9	-78.3	3.8	7.46e-01	0	23	104	1056964608	85	35798
2026-01-10 23:58:23.65	137.17	2.70	-58.9	-78.3	3.8	7.44e-01	0	23	104	1056964608	85	35910
2026-01-10 23:58:24.65	137.26	2.64	-58.9	-78.3	3.8	7.46e-01	0	23	104	1056964608	85	35847
2026-01-10 23:58:25.66	137.36	2.59	-58.9	-78.3	3.8	7.45e-01	0	23	104	1056964608	85	35787
2026-01-10 23:58:26.66	137.45	2.53	-58.9	-78.3	3.8	7.47e-01	0	23	104	1056964608	85	35812
2026-01-10 23:58:27.67	137.55	2.48	-58.9	-78.3	3.8	7.48e-01	0	23	104	1056964608	85	35795
2026-01-10 23:58:28.66	137.64	2.42	-58.9	-78.3	3.8	7.46e-01	0	23	104	1056964608	85	35705
2026-01-10 23:58:29.67	137.73	2.37	-58.9	-78.3	3.8	7.45e-01	0	23	104	1056964608	85	35802
2026-01-10 23:58:30.67	137.83	2.31	-58.9	-78.2	3.8	7.49e-01	0	23	104	1056964608	85	35614
2026-01-10 23:58:31.68	137.92	2.26	-58.9	-78.3	3.8	7.45e-01	0	23	104	1056964608	85	35729
2026-01-10 23:58:32.69	138.01	2.21	-58.9	-78.2	3.8	7.45e-01	0	23	104	1056964608	85	35679
2026-01-10 23:58:33.69	138.10	2.15	-58.9	-78.2	3.8	7.44e-01	0	23	104	1056964608	85	35662
2026-01-10 23:58:34.69	138.20	2.10	-58.9	-78.3	3.8	7.44e-01	0	23	104	1056964608	85	35700
2026-01-10 23:58:35.69	138.29	2.04	-58.9	-78.3	3.8	7.45e-01	0	23	104	1056964608	85	35706
2026-01-10 23:58:36.69	138.38	1.99	-58.9	-78.2	3.8	7.41e-01	0	23	104	1056964608	85	35615

#Closed at: 2026-01-10 23:58:37
#Recorded file [1056 MB]: D:/lorett/data/31004_260111_024744.dat