passes_logs/2026/01/10/R3.2S_Murmansk/R3.2S_Murmansk__20260110_214600_NOAA_20_JPSS-1_rec.log

#Pass ID: 20260110_214600_NOAA 20 (JPSS-1)
#Satellite: NOAA 20 (JPSS-1)
#Configuration: NOAA 20
#almurnet v.1.7.20251203
#Start time: 2026-01-10 21:46:00

#Version: 2.2.20231116
#Station: R3.2S_Murmansk
#Location: 33.079688 lon 68.888172 lat
#TLE: 1 43013U 17073A   26009.69119415  .00000109  00000+0  72598-4 0  9996
#TLE: 2 43013  98.7631 310.6868 0001678  46.7442 313.3874 14.19534878421981

#Time	Az	El	Level	Level2	SNR	BER	BlckErr	Temp	State	Recorded	gain1	gain2
2026-01-10 21:46:00.81	18.39	2.00	-57.1	-73.0	3.8	1.49e+00	0	21	0	0	80	22352
2026-01-10 21:46:01.80	18.47	2.05	-57.1	-72.9	3.8	1.49e+00	0	21	104	0	79	23432
2026-01-10 21:46:02.80	18.56	2.10	-57.1	-72.9	3.8	1.49e+00	0	21	104	0	79	23386
2026-01-10 21:46:03.80	18.64	2.15	-57.1	-72.9	3.8	1.49e+00	0	21	104	0	79	23392
2026-01-10 21:46:04.81	18.73	2.20	-57.1	-73.0	3.8	1.49e+00	0	21	104	0	79	23600
2026-01-10 21:46:05.81	18.82	2.25	-57.1	-72.9	3.8	1.49e+00	0	21	104	0	79	23545
2026-01-10 21:46:06.82	18.91	2.30	-57.1	-73.0	3.8	1.49e+00	0	21	104	0	79	23656
2026-01-10 21:46:07.82	18.99	2.35	-57.1	-73.0	3.8	1.49e+00	0	21	104	0	79	23691
2026-01-10 21:46:08.82	19.08	2.40	-57.1	-73.0	3.8	1.49e+00	0	21	104	0	79	23698
2026-01-10 21:46:09.83	19.17	2.45	-57.1	-73.0	3.8	1.49e+00	0	21	104	0	79	23729
2026-01-10 21:46:10.83	19.26	2.50	-57.1	-73.0	3.8	1.49e+00	0	21	104	0	79	23724
2026-01-10 21:46:11.84	19.35	2.55	-57.1	-73.0	3.8	1.49e+00	0	21	104	0	79	23642
2026-01-10 21:46:12.84	19.43	2.60	-57.1	-73.0	3.8	1.49e+00	0	21	104	0	79	23739
2026-01-10 21:46:13.83	19.52	2.65	-57.1	-73.0	3.8	1.49e+00	0	21	104	0	79	23643
2026-01-10 21:46:14.84	19.61	2.70	-57.1	-72.9	3.8	1.49e+00	0	21	104	0	79	23537
2026-01-10 21:46:15.84	19.70	2.75	-57.1	-72.9	3.8	1.49e+00	0	21	104	0	79	23559
2026-01-10 21:46:16.84	19.79	2.80	-57.1	-72.9	3.8	1.49e+00	0	22	104	0	79	23516
2026-01-10 21:46:17.84	19.88	2.85	-57.1	-72.9	3.8	1.49e+00	0	21	104	0	79	23550
2026-01-10 21:46:18.85	19.97	2.90	-57.1	-73.0	3.8	1.49e+00	0	21	104	0	79	23703
2026-01-10 21:46:19.84	20.06	2.95	-57.1	-73.0	3.8	1.49e+00	0	21	104	0	79	23823
2026-01-10 21:46:20.85	20.15	3.00	-57.1	-73.0	3.8	1.49e+00	0	22	104	0	79	23851
2026-01-10 21:46:21.85	20.25	3.06	-57.1	-73.1	3.8	1.49e+00	0	22	104	0	79	23893
2026-01-10 21:46:22.85	20.34	3.11	-57.1	-73.0	3.8	1.49e+00	0	22	104	0	79	23811
2026-01-10 21:46:23.85	20.43	3.16	-57.1	-73.0	3.8	1.49e+00	0	22	104	0	79	23715
2026-01-10 21:46:24.85	20.52	3.21	-57.1	-73.0	3.8	1.49e+00	0	22	104	0	79	23777
2026-01-10 21:46:25.84	20.61	3.26	-57.1	-73.0	3.8	1.49e+00	0	22	104	0	79	23833
2026-01-10 21:46:26.84	20.70	3.31	-57.1	-73.1	3.8	1.49e+00	0	22	104	0	79	23977
2026-01-10 21:46:27.84	20.80	3.36	-57.1	-73.1	3.8	1.49e+00	0	22	104	0	79	23954
2026-01-10 21:46:28.85	20.89	3.41	-57.1	-73.0	3.8	1.49e+00	0	22	104	0	79	23766
2026-01-10 21:46:29.85	20.99	3.46	-57.1	-72.9	3.8	1.49e+00	0	22	104	0	79	23312
2026-01-10 21:46:30.84	21.08	3.51	-57.1	-72.6	3.8	1.49e+00	0	22	104	0	79	22689
2026-01-10 21:46:31.84	21.17	3.56	-57.1	-72.3	3.8	1.49e+00	0	22	104	0	79	21966
2026-01-10 21:46:32.85	21.27	3.61	-57.0	-72.1	3.8	1.49e+00	0	22	104	0	79	21352
2026-01-10 21:46:33.85	21.36	3.66	-57.1	-72.2	3.8	1.49e+00	0	22	104	0	79	21695
2026-01-10 21:46:34.84	21.46	3.71	-57.1	-72.3	3.8	1.49e+00	0	22	104	0	79	22003
2026-01-10 21:46:35.85	21.55	3.76	-57.1	-72.4	3.8	1.49e+00	0	22	104	0	79	22018
2026-01-10 21:46:36.85	21.65	3.82	-57.0	-72.3	3.8	1.49e+00	0	22	104	0	79	21864
2026-01-10 21:46:37.86	21.75	3.87	-57.0	-72.0	3.8	1.49e+00	0	22	104	0	79	21078
2026-01-10 21:46:38.85	21.84	3.92	-57.0	-71.6	3.8	1.49e+00	0	22	104	0	79	20218
2026-01-10 21:46:39.85	21.94	3.97	-57.0	-70.8	3.8	1.49e+00	0	22	104	0	79	18320
2026-01-10 21:46:40.85	22.04	4.02	-57.0	-69.8	4.1	1.45e+00	0	22	0	0	79	16358
2026-01-10 21:46:41.86	22.13	4.07	-57.0	-69.7	4.1	1.41e+00	0	22	0	0	79	16257
2026-01-10 21:46:42.86	22.23	4.12	-57.0	-69.8	4.1	1.42e+00	0	22	0	0	79	16397
2026-01-10 21:46:43.86	22.33	4.17	-56.9	-69.1	4.3	1.37e+00	49	22	0	0	79	15063
2026-01-10 21:46:44.86	22.43	4.22	-56.8	-68.1	4.7	1.01e+00	0	22	0	1048576	79	13543
2026-01-10 21:46:45.86	22.53	4.28	-56.7	-66.5	5.5	7.28e-01	0	22	0	3145728	79	11248
2026-01-10 21:46:46.86	22.62	4.33	-56.3	-64.1	7.3	1.73e-01	0	22	0	5242880	79	8558
2026-01-10 21:46:47.86	22.72	4.38	-56.0	-62.7	8.5	4.07e-02	0	22	0	7340032	78	7672
2026-01-10 21:46:48.87	22.82	4.43	-55.4	-60.6	10.4	6.52e-03	0	22	0	8388608	77	6374
2026-01-10 21:46:49.87	22.92	4.48	-54.9	-59.3	11.4	2.56e-04	0	22	0	10485760	76	5839
2026-01-10 21:46:50.87	23.02	4.53	-54.3	-58.2	12.2	2.13e-05	0	22	0	12582912	75	5421
2026-01-10 21:46:51.87	23.13	4.58	-53.8	-57.2	12.9	0.00e+00	0	22	0	14680064	74	5109
2026-01-10 21:46:52.88	23.23	4.64	-53.6	-56.8	13.1	7.00e-07	0	22	0	16777216	73	5197
2026-01-10 21:46:53.88	23.33	4.69	-53.6	-56.9	13.1	0.00e+00	0	22	0	17825792	73	5226
2026-01-10 21:46:54.87	23.43	4.74	-53.9	-57.5	12.5	7.00e-07	0	22	0	19922944	73	5630
2026-01-10 21:46:55.87	23.53	4.79	-54.3	-58.3	11.9	2.20e-06	0	22	0	22020096	73	6146
2026-01-10 21:46:56.87	23.63	4.84	-54.9	-59.7	10.9	1.19e-04	0	22	0	24117248	74	6807
2026-01-10 21:46:57.87	23.74	4.89	-55.4	-61.0	9.9	1.35e-03	0	22	0	25165824	75	7502
2026-01-10 21:46:58.87	23.84	4.95	-55.9	-62.3	8.9	5.73e-03	0	22	0	27262976	76	8208
2026-01-10 21:46:59.87	23.94	5.00	-56.2	-63.7	7.5	2.95e-02	0	22	0	29360128	77	9123
2026-01-10 21:47:00.87	24.05	5.05	-56.1	-62.8	8.4	5.53e-02	0	22	0	31457280	77	8247
2026-01-10 21:47:01.87	24.15	5.10	-54.7	-58.8	11.9	4.83e-03	0	22	0	33554432	76	5485
2026-01-10 21:47:02.88	24.26	5.15	-56.7	-67.4	5.1	8.41e-03	0	22	0	34603008	78	13172
2026-01-10 21:47:03.88	24.36	5.20	-56.4	-64.9	6.6	1.56e-01	0	22	0	36700160	78	9833
2026-01-10 21:47:04.88	24.47	5.26	-54.9	-59.3	11.5	4.95e-03	0	22	0	38797312	75	6148
2026-01-10 21:47:05.88	24.57	5.31	-54.2	-57.8	12.6	1.31e-04	0	22	0	40894464	75	5192
2026-01-10 21:47:06.87	24.68	5.36	-54.4	-58.3	12.2	1.50e-06	0	22	0	42991616	74	5794
2026-01-10 21:47:07.87	24.78	5.41	-53.9	-57.2	13.0	1.50e-06	0	22	0	44040192	74	5131
2026-01-10 21:47:08.87	24.89	5.46	-53.5	-56.5	13.4	7.00e-07	0	22	0	46137344	73	5005
2026-01-10 21:47:09.87	25.00	5.51	-53.3	-56.1	13.7	0.00e+00	0	22	0	48234496	73	4783
2026-01-10 21:47:10.87	25.10	5.57	-53.1	-55.8	13.8	0.00e+00	0	22	0	50331648	72	4916
2026-01-10 21:47:11.87	25.21	5.62	-53.1	-55.9	13.7	0.00e+00	0	22	0	51380224	72	4942
2026-01-10 21:47:12.87	25.32	5.67	-53.1	-55.8	13.7	0.00e+00	0	22	0	53477376	72	4912
2026-01-10 21:47:13.86	25.43	5.72	-53.2	-56.0	13.6	0.00e+00	0	22	0	55574528	72	5040
2026-01-10 21:47:14.87	25.54	5.77	-53.1	-55.9	13.7	0.00e+00	0	22	0	57671680	72	4938
2026-01-10 21:47:15.87	25.64	5.83	-52.9	-55.6	13.9	0.00e+00	0	22	0	59768832	72	4787
2026-01-10 21:47:16.87	25.75	5.88	-52.9	-55.6	14.0	0.00e+00	0	22	0	60817408	72	4783
2026-01-10 21:47:17.87	25.86	5.93	-52.9	-55.6	13.9	0.00e+00	0	22	0	62914560	72	4784
2026-01-10 21:47:18.87	25.97	5.98	-53.1	-55.9	13.8	0.00e+00	0	22	0	65011712	72	4932
2026-01-10 21:47:19.87	26.08	6.03	-52.9	-55.5	14.0	0.00e+00	0	22	0	67108864	72	4723
2026-01-10 21:47:20.87	26.20	6.09	-52.7	-55.2	14.0	0.00e+00	0	22	0	69206016	71	4866
2026-01-10 21:47:21.87	26.31	6.14	-52.9	-55.5	13.8	0.00e+00	0	22	0	70254592	71	5030
2026-01-10 21:47:22.87	26.42	6.19	-53.0	-55.7	13.7	0.00e+00	0	22	0	72351744	71	5156
2026-01-10 21:47:23.86	26.53	6.24	-52.8	-55.4	13.9	0.00e+00	0	23	0	74448896	71	4950
2026-01-10 21:47:24.86	26.64	6.29	-53.0	-55.6	13.8	0.00e+00	0	22	0	76546048	71	5078
2026-01-10 21:47:25.86	26.75	6.35	-53.0	-55.6	13.8	0.00e+00	0	22	0	78643200	71	5092
2026-01-10 21:47:26.86	26.87	6.40	-52.8	-55.3	14.0	0.00e+00	0	23	0	79691776	71	4914
2026-01-10 21:47:27.86	26.98	6.45	-52.9	-55.5	13.9	0.00e+00	0	22	0	81788928	71	4988
2026-01-10 21:47:28.86	27.10	6.50	-52.9	-55.5	13.9	0.00e+00	0	22	0	83886080	71	5040
2026-01-10 21:47:29.86	27.21	6.56	-52.9	-55.5	13.9	0.00e+00	0	22	0	85983232	71	5018
2026-01-10 21:47:30.85	27.32	6.61	-52.9	-55.5	13.9	0.00e+00	0	23	0	87031808	71	5006
2026-01-10 21:47:31.85	27.44	6.66	-52.8	-55.4	14.0	0.00e+00	0	23	0	89128960	71	4939
2026-01-10 21:47:32.85	27.55	6.71	-52.7	-55.2	14.1	0.00e+00	0	23	0	91226112	71	4821
2026-01-10 21:47:33.84	27.67	6.76	-52.7	-55.2	14.1	0.00e+00	0	22	0	93323264	71	4835
2026-01-10 21:47:34.85	27.79	6.82	-52.8	-55.3	14.1	0.00e+00	0	23	0	95420416	71	4886
2026-01-10 21:47:35.85	27.90	6.87	-52.8	-55.3	14.0	0.00e+00	0	23	0	96468992	71	4899
2026-01-10 21:47:36.85	28.02	6.92	-52.7	-55.1	14.2	0.00e+00	0	23	0	98566144	71	4791
2026-01-10 21:47:37.85	28.14	6.97	-52.4	-54.8	14.4	0.00e+00	0	23	0	100663296	71	4613
2026-01-10 21:47:38.85	28.26	7.03	-52.4	-54.7	14.4	0.00e+00	0	22	0	102760448	71	4592
2026-01-10 21:47:39.85	28.37	7.08	-52.5	-54.8	14.4	0.00e+00	0	22	0	103809024	71	4645
2026-01-10 21:47:40.85	28.49	7.13	-52.6	-55.0	14.2	0.00e+00	0	22	0	105906176	71	4734
2026-01-10 21:47:41.86	28.61	7.18	-52.4	-54.8	14.4	0.00e+00	0	23	0	108003328	71	4615
2026-01-10 21:47:42.87	28.73	7.24	-52.4	-54.7	14.4	0.00e+00	0	23	0	110100480	71	4577
2026-01-10 21:47:43.87	28.85	7.29	-52.4	-54.7	14.5	0.00e+00	0	23	0	112197632	71	4587
2026-01-10 21:47:44.87	28.97	7.34	-52.5	-54.8	14.4	0.00e+00	0	23	0	114294784	71	4638
2026-01-10 21:47:45.87	29.10	7.39	-52.5	-54.9	14.3	0.00e+00	0	22	0	115343360	71	4653
2026-01-10 21:47:46.87	29.22	7.45	-52.5	-54.9	14.3	0.00e+00	0	23	0	117440512	71	4666
2026-01-10 21:47:47.86	29.34	7.50	-52.5	-54.9	14.3	0.00e+00	0	23	0	119537664	71	4696
2026-01-10 21:47:48.86	29.46	7.55	-52.5	-54.9	14.4	0.00e+00	0	23	0	121634816	71	4663
2026-01-10 21:47:49.86	29.58	7.60	-52.6	-55.0	14.3	0.00e+00	0	22	0	122683392	71	4734
2026-01-10 21:47:50.86	29.71	7.65	-52.7	-55.1	14.2	0.00e+00	0	23	0	124780544	71	4804
2026-01-10 21:47:51.86	29.83	7.71	-52.7	-55.1	14.2	0.00e+00	0	23	0	126877696	71	4797
2026-01-10 21:47:52.86	29.95	7.76	-52.6	-55.0	14.2	0.00e+00	0	23	0	128974848	71	4744
2026-01-10 21:47:53.86	30.08	7.81	-52.5	-54.9	14.4	0.00e+00	0	23	0	131072000	71	4661
2026-01-10 21:47:54.86	30.20	7.86	-52.4	-54.7	14.5	0.00e+00	0	22	0	132120576	71	4576
2026-01-10 21:47:55.86	30.33	7.92	-52.3	-54.6	14.5	0.00e+00	0	23	0	134217728	71	4517
2026-01-10 21:47:56.85	30.45	7.97	-52.3	-54.5	14.6	0.00e+00	0	23	0	136314880	71	4492
2026-01-10 21:47:57.86	30.58	8.02	-52.4	-54.7	14.5	0.00e+00	0	23	0	138412032	71	4555
2026-01-10 21:47:58.87	30.71	8.07	-52.6	-54.9	14.4	0.00e+00	0	23	0	140509184	71	4693
2026-01-10 21:47:59.86	30.83	8.13	-52.5	-54.8	14.4	0.00e+00	0	23	0	141557760	71	4636
2026-01-10 21:48:00.86	30.96	8.18	-52.5	-54.8	14.4	0.00e+00	0	23	0	143654912	71	4622
2026-01-10 21:48:01.86	31.09	8.23	-52.9	-55.4	14.0	0.00e+00	0	23	0	145752064	71	4965
2026-01-10 21:48:02.86	31.21	8.28	-52.6	-55.0	14.3	0.00e+00	0	23	0	147849216	71	4715
2026-01-10 21:48:03.86	31.34	8.33	-52.6	-55.0	14.3	0.00e+00	0	23	0	148897792	71	4730
2026-01-10 21:48:04.85	31.47	8.39	-52.6	-55.0	14.3	0.00e+00	0	23	0	150994944	71	4718
2026-01-10 21:48:05.86	31.60	8.44	-52.6	-54.9	14.3	0.00e+00	0	23	0	153092096	71	4705
2026-01-10 21:48:06.86	31.73	8.49	-52.7	-55.0	14.3	0.00e+00	0	23	0	155189248	71	4758
2026-01-10 21:48:07.86	31.86	8.54	-52.6	-55.0	14.3	0.00e+00	0	23	0	157286400	71	4710
2026-01-10 21:48:08.86	31.99	8.60	-52.5	-54.8	14.4	0.00e+00	0	23	0	158334976	71	4637
2026-01-10 21:48:09.86	32.12	8.65	-52.5	-54.8	14.4	0.00e+00	0	23	0	160432128	71	4647
2026-01-10 21:48:10.87	32.26	8.70	-52.5	-54.8	14.4	0.00e+00	0	23	0	162529280	71	4607
2026-01-10 21:48:11.87	32.39	8.75	-52.4	-54.6	14.6	0.00e+00	0	23	0	164626432	71	4527
2026-01-10 21:48:12.88	32.52	8.81	-52.4	-54.7	14.5	0.00e+00	0	23	0	166723584	71	4564
2026-01-10 21:48:13.87	32.65	8.86	-52.3	-54.5	14.6	0.00e+00	0	23	0	167772160	71	4485
2026-01-10 21:48:14.88	32.79	8.91	-52.3	-54.6	14.6	0.00e+00	0	23	0	169869312	71	4503
2026-01-10 21:48:15.87	32.92	8.96	-52.3	-54.5	14.6	0.00e+00	0	23	0	171966464	71	4486
2026-01-10 21:48:16.88	33.06	9.01	-52.3	-54.5	14.6	0.00e+00	0	23	0	174063616	71	4481
2026-01-10 21:48:17.89	33.19	9.07	-52.2	-54.4	14.7	0.00e+00	0	23	0	176160768	71	4405
2026-01-10 21:48:18.88	33.33	9.12	-52.3	-54.5	14.7	0.00e+00	0	23	0	177209344	71	4443
2026-01-10 21:48:19.89	33.47	9.17	-52.2	-54.3	14.5	0.00e+00	0	23	0	179306496	70	4637
2026-01-10 21:48:20.89	33.60	9.22	-52.1	-54.2	14.6	0.00e+00	0	23	0	181403648	70	4589
2026-01-10 21:48:21.89	33.74	9.27	-52.1	-54.2	14.6	0.00e+00	0	23	0	183500800	70	4591
2026-01-10 21:48:22.89	33.88	9.33	-52.0	-54.1	14.7	0.00e+00	0	23	0	184549376	70	4530
2026-01-10 21:48:23.89	34.01	9.38	-52.0	-54.0	14.8	0.00e+00	0	23	0	186646528	70	4486
2026-01-10 21:48:24.89	34.15	9.43	-51.9	-54.0	14.8	0.00e+00	0	23	0	188743680	70	4476
2026-01-10 21:48:25.88	34.29	9.48	-51.9	-53.9	14.8	0.00e+00	0	23	0	190840832	70	4429
2026-01-10 21:48:26.87	34.43	9.53	-51.9	-54.0	14.8	0.00e+00	0	23	0	192937984	70	4442
2026-01-10 21:48:27.87	34.57	9.58	-51.9	-53.9	14.8	0.00e+00	0	23	0	193986560	70	4436
2026-01-10 21:48:28.88	34.71	9.64	-51.7	-53.7	14.9	0.00e+00	0	23	0	196083712	70	4330
2026-01-10 21:48:29.88	34.85	9.69	-51.7	-53.7	14.8	0.00e+00	0	22	0	198180864	69	4586
2026-01-10 21:48:30.88	34.99	9.74	-51.7	-53.7	14.8	0.00e+00	0	23	0	200278016	69	4552
2026-01-10 21:48:31.87	35.13	9.79	-51.6	-53.6	14.9	0.00e+00	0	23	0	202375168	69	4500
2026-01-10 21:48:32.87	35.27	9.84	-51.6	-53.6	14.9	0.00e+00	0	23	0	203423744	69	4512
2026-01-10 21:48:33.86	35.41	9.89	-51.5	-53.4	14.9	0.00e+00	0	23	0	205520896	69	4435
2026-01-10 21:48:34.86	35.56	9.94	-51.5	-53.4	14.9	0.00e+00	0	23	0	207618048	69	4429
2026-01-10 21:48:35.85	35.70	9.99	-51.5	-53.5	14.9	0.00e+00	0	23	0	209715200	69	4444
2026-01-10 21:48:36.86	35.84	10.05	-51.5	-53.5	14.9	0.00e+00	0	23	0	210763776	69	4471
2026-01-10 21:48:37.85	35.99	10.10	-51.6	-53.6	14.8	0.00e+00	0	23	0	212860928	69	4505
2026-01-10 21:48:38.85	36.13	10.15	-51.5	-53.4	14.9	0.00e+00	0	23	0	214958080	69	4416
2026-01-10 21:48:39.85	36.28	10.20	-51.5	-53.4	14.9	0.00e+00	0	23	0	217055232	69	4419
2026-01-10 21:48:40.85	36.42	10.25	-51.4	-53.3	15.0	0.00e+00	0	23	0	219152384	69	4372
2026-01-10 21:48:41.85	36.57	10.30	-51.4	-53.3	15.0	0.00e+00	0	23	0	220200960	69	4342
2026-01-10 21:48:42.85	36.72	10.35	-51.4	-53.3	15.0	0.00e+00	0	23	0	222298112	69	4342
2026-01-10 21:48:43.85	36.86	10.40	-51.4	-53.3	15.0	0.00e+00	0	23	0	224395264	69	4359
2026-01-10 21:48:44.84	37.01	10.45	-51.4	-53.3	15.0	0.00e+00	0	23	0	226492416	69	4346
2026-01-10 21:48:45.84	37.16	10.50	-51.4	-53.4	15.0	0.00e+00	0	23	0	227540992	69	4396
2026-01-10 21:48:46.85	37.31	10.56	-51.5	-53.4	14.9	0.00e+00	0	23	0	229638144	69	4428
2026-01-10 21:48:47.86	37.46	10.61	-51.4	-53.3	15.0	0.00e+00	0	23	0	231735296	69	4384
2026-01-10 21:48:48.86	37.61	10.66	-51.5	-53.4	14.9	0.00e+00	0	23	0	233832448	69	4437
2026-01-10 21:48:49.86	37.76	10.71	-51.6	-53.5	14.9	0.00e+00	0	23	0	235929600	69	4467
2026-01-10 21:48:50.86	37.91	10.76	-51.5	-53.5	14.9	0.00e+00	0	23	0	238026752	69	4450
2026-01-10 21:48:51.86	38.06	10.81	-51.4	-53.2	15.0	0.00e+00	0	23	0	239075328	69	4336
2026-01-10 21:48:52.85	38.21	10.86	-51.3	-53.2	15.1	0.00e+00	0	23	0	241172480	69	4322
2026-01-10 21:48:53.85	38.36	10.91	-51.3	-53.2	15.1	0.00e+00	0	23	0	243269632	69	4309
2026-01-10 21:48:54.86	38.52	10.96	-51.3	-53.1	15.1	0.00e+00	0	23	0	245366784	69	4282
2026-01-10 21:48:55.87	38.67	11.01	-51.3	-53.2	15.1	0.00e+00	0	23	0	246415360	69	4303
2026-01-10 21:48:56.87	38.83	11.06	-51.3	-53.2	15.1	0.00e+00	0	23	0	248512512	69	4301
2026-01-10 21:48:57.86	38.98	11.11	-51.4	-53.2	15.1	0.00e+00	0	23	0	250609664	69	4332
2026-01-10 21:48:58.86	39.14	11.16	-51.4	-53.3	15.0	0.00e+00	0	23	0	252706816	69	4379
2026-01-10 21:48:59.86	39.29	11.21	-51.5	-53.4	15.0	0.00e+00	0	23	0	254803968	69	4413
2026-01-10 21:49:00.86	39.45	11.26	-51.4	-53.3	15.0	0.00e+00	0	23	0	255852544	69	4359
2026-01-10 21:49:01.87	39.60	11.31	-51.4	-53.3	15.0	0.00e+00	0	23	0	257949696	69	4359
2026-01-10 21:49:02.87	39.76	11.36	-51.5	-53.4	15.0	0.00e+00	0	23	0	260046848	69	4394
2026-01-10 21:49:03.87	39.92	11.41	-51.4	-53.2	15.0	0.00e+00	0	23	0	262144000	69	4340
2026-01-10 21:49:04.88	40.08	11.46	-51.3	-53.2	15.0	0.00e+00	0	23	0	264241152	69	4305
2026-01-10 21:49:05.88	40.24	11.51	-51.3	-53.1	15.1	0.00e+00	0	23	0	265289728	69	4291
2026-01-10 21:49:06.88	40.40	11.56	-51.4	-53.2	15.1	0.00e+00	0	23	0	267386880	69	4325
2026-01-10 21:49:07.88	40.56	11.61	-51.3	-53.1	15.1	0.00e+00	0	23	0	269484032	69	4291
2026-01-10 21:49:08.87	40.71	11.65	-51.4	-53.3	15.0	0.00e+00	0	23	0	271581184	69	4378
2026-01-10 21:49:09.87	40.88	11.70	-51.4	-53.3	15.0	0.00e+00	0	23	0	272629760	69	4384
2026-01-10 21:49:10.87	41.04	11.75	-51.5	-53.4	15.0	0.00e+00	0	23	0	274726912	69	4411
2026-01-10 21:49:11.88	41.20	11.80	-51.6	-53.5	14.9	0.00e+00	0	23	0	276824064	69	4465
2026-01-10 21:49:12.88	41.36	11.85	-51.4	-53.3	15.0	0.00e+00	0	23	0	278921216	69	4388
2026-01-10 21:49:13.88	41.52	11.90	-51.6	-53.6	14.9	0.00e+00	0	23	0	281018368	69	4503
2026-01-10 21:49:14.88	41.69	11.95	-51.6	-53.5	14.9	0.00e+00	0	23	0	282066944	69	4479
2026-01-10 21:49:15.88	41.85	11.99	-51.5	-53.4	15.0	0.00e+00	0	23	0	284164096	69	4409
2026-01-10 21:49:16.88	42.02	12.04	-51.5	-53.4	15.0	0.00e+00	0	23	0	286261248	69	4393
2026-01-10 21:49:17.89	42.18	12.09	-51.5	-53.4	14.9	0.00e+00	0	23	0	288358400	69	4413
2026-01-10 21:49:18.88	42.35	12.14	-51.5	-53.4	15.0	0.00e+00	0	23	0	290455552	69	4417
2026-01-10 21:49:19.88	42.51	12.19	-51.5	-53.3	15.0	0.00e+00	0	23	0	291504128	69	4381
2026-01-10 21:49:20.87	42.68	12.23	-51.6	-53.5	14.9	0.00e+00	0	23	0	293601280	69	4484
2026-01-10 21:49:21.87	42.84	12.28	-51.7	-53.7	14.9	0.00e+00	0	23	0	295698432	69	4561
2026-01-10 21:49:22.88	43.01	12.33	-51.7	-53.6	14.9	0.00e+00	0	23	0	297795584	69	4538
2026-01-10 21:49:23.87	43.18	12.38	-51.7	-53.7	14.8	0.00e+00	0	23	0	299892736	69	4587
2026-01-10 21:49:24.86	43.34	12.42	-51.8	-53.9	14.7	0.00e+00	0	23	0	300941312	69	4672
2026-01-10 21:49:25.86	43.51	12.47	-51.9	-53.9	14.6	0.00e+00	0	23	0	303038464	69	4696
2026-01-10 21:49:26.86	43.68	12.52	-51.9	-54.0	14.6	0.00e+00	0	23	0	305135616	69	4708
2026-01-10 21:49:27.86	43.85	12.56	-51.8	-53.9	14.7	0.00e+00	0	23	0	307232768	69	4655
2026-01-10 21:49:28.86	44.02	12.61	-51.8	-53.9	14.7	0.00e+00	0	23	0	308281344	69	4661
2026-01-10 21:49:29.86	44.19	12.66	-51.9	-54.0	14.7	0.00e+00	0	23	0	310378496	69	4716
2026-01-10 21:49:30.85	44.36	12.70	-52.0	-54.1	14.6	0.00e+00	0	23	0	312475648	69	4771
2026-01-10 21:49:31.85	44.54	12.75	-52.0	-54.0	14.6	0.00e+00	0	23	0	314572800	69	4753
2026-01-10 21:49:32.85	44.71	12.79	-52.0	-54.1	14.5	0.00e+00	0	23	0	316669952	69	4783
2026-01-10 21:49:33.85	44.88	12.84	-52.1	-54.2	14.5	0.00e+00	0	23	0	317718528	69	4839
2026-01-10 21:49:34.86	45.06	12.89	-52.2	-54.3	14.4	0.00e+00	0	23	0	319815680	69	4923
2026-01-10 21:49:35.84	45.23	12.93	-52.3	-54.5	14.3	0.00e+00	0	23	0	321912832	69	5036
2026-01-10 21:49:36.85	45.40	12.98	-52.5	-54.7	14.4	0.00e+00	0	23	0	324009984	70	4848
2026-01-10 21:49:37.85	45.58	13.02	-52.5	-54.8	14.4	0.00e+00	0	23	0	325058560	70	4881
2026-01-10 21:49:38.84	45.75	13.07	-52.6	-54.9	14.2	0.00e+00	0	23	0	327155712	70	4968
2026-01-10 21:49:39.84	45.93	13.11	-52.7	-55.0	14.2	0.00e+00	0	23	0	329252864	70	5005
2026-01-10 21:49:40.84	46.11	13.16	-52.7	-55.0	14.1	0.00e+00	0	23	0	331350016	70	5009
2026-01-10 21:49:41.84	46.28	13.20	-52.7	-55.0	14.2	0.00e+00	0	23	0	333447168	70	5009
2026-01-10 21:49:42.82	46.46	13.24	-52.7	-55.0	14.2	0.00e+00	0	23	0	334495744	70	5028
2026-01-10 21:49:43.83	46.64	13.29	-52.6	-54.9	14.2	0.00e+00	0	23	0	336592896	70	4950
2026-01-10 21:49:44.82	46.82	13.33	-52.6	-54.8	14.3	0.00e+00	0	23	0	338690048	70	4909
2026-01-10 21:49:45.82	46.99	13.38	-52.5	-54.8	14.3	0.00e+00	0	23	0	340787200	70	4890
2026-01-10 21:49:46.82	47.17	13.42	-52.6	-54.9	14.3	0.00e+00	0	23	0	342884352	70	4934
2026-01-10 21:49:47.82	47.35	13.46	-52.7	-55.0	14.2	0.00e+00	0	23	0	343932928	70	5004
2026-01-10 21:49:48.82	47.54	13.51	-52.6	-54.9	14.2	0.00e+00	0	23	0	346030080	70	4961
2026-01-10 21:49:49.82	47.72	13.55	-52.8	-55.2	14.1	0.00e+00	0	23	0	348127232	70	5113
2026-01-10 21:49:50.82	47.90	13.59	-52.9	-55.3	14.0	0.00e+00	0	23	0	350224384	70	5185
2026-01-10 21:49:51.82	48.08	13.64	-53.1	-55.5	14.0	0.00e+00	0	23	0	352321536	71	5035
2026-01-10 21:49:52.82	48.26	13.68	-53.1	-55.7	14.0	0.00e+00	0	23	0	353370112	71	5106
2026-01-10 21:49:53.82	48.45	13.72	-53.1	-55.7	13.9	0.00e+00	0	23	0	355467264	71	5119
2026-01-10 21:49:54.82	48.63	13.76	-53.1	-55.7	13.9	0.00e+00	0	23	0	357564416	71	5108
2026-01-10 21:49:55.81	48.81	13.81	-53.0	-55.5	14.0	0.00e+00	0	23	0	359661568	71	5011
2026-01-10 21:49:56.82	49.00	13.85	-52.9	-55.3	14.1	0.00e+00	0	23	0	360710144	71	4906
2026-01-10 21:49:57.82	49.19	13.89	-52.9	-55.3	14.2	0.00e+00	0	23	0	362807296	71	4903
2026-01-10 21:49:58.82	49.37	13.93	-52.9	-55.3	14.2	0.00e+00	0	23	0	364904448	71	4893
2026-01-10 21:49:59.82	49.56	13.97	-52.9	-55.3	14.2	0.00e+00	0	23	0	367001600	71	4908
2026-01-10 21:50:00.81	49.74	14.01	-52.9	-55.3	14.2	0.00e+00	0	23	0	369098752	71	4913
2026-01-10 21:50:01.81	49.93	14.05	-53.0	-55.4	14.1	0.00e+00	0	23	0	370147328	71	4948
2026-01-10 21:50:02.81	50.12	14.10	-53.1	-55.6	14.0	0.00e+00	0	23	0	372244480	71	5092
2026-01-10 21:50:03.82	50.31	14.14	-53.3	-55.9	13.8	0.00e+00	0	23	0	374341632	71	5277
2026-01-10 21:50:04.82	50.50	14.18	-53.3	-55.9	13.7	0.00e+00	0	23	0	376438784	71	5273
2026-01-10 21:50:05.82	50.69	14.22	-53.5	-56.1	13.8	0.00e+00	0	23	0	378535936	72	5073
2026-01-10 21:50:06.82	50.88	14.26	-53.4	-56.0	13.9	0.00e+00	0	23	0	379584512	72	5027
2026-01-10 21:50:07.82	51.07	14.30	-53.4	-56.0	13.8	0.00e+00	0	23	0	381681664	72	5017
2026-01-10 21:50:08.82	51.26	14.34	-53.4	-56.0	13.8	0.00e+00	0	23	0	383778816	72	5025
2026-01-10 21:50:09.82	51.45	14.37	-53.4	-55.9	13.9	0.00e+00	0	23	0	385875968	72	4968
2026-01-10 21:50:10.82	51.64	14.41	-53.3	-55.9	13.9	0.00e+00	0	23	0	386924544	72	4928
2026-01-10 21:50:11.82	51.84	14.45	-53.1	-55.6	14.1	0.00e+00	0	23	0	389021696	72	4787
2026-01-10 21:50:12.82	52.03	14.49	-52.9	-55.2	14.4	0.00e+00	0	23	0	391118848	72	4569
2026-01-10 21:50:13.82	52.22	14.53	-52.8	-55.0	14.5	0.00e+00	0	23	0	393216000	72	4480
2026-01-10 21:50:14.82	52.42	14.57	-52.7	-55.0	14.6	0.00e+00	0	23	0	395313152	72	4448
2026-01-10 21:50:15.81	52.61	14.60	-52.7	-54.9	14.6	0.00e+00	0	23	0	396361728	72	4428
2026-01-10 21:50:16.81	52.80	14.64	-52.7	-55.0	14.4	0.00e+00	0	23	0	398458880	71	4740
2026-01-10 21:50:17.81	53.00	14.68	-52.7	-54.9	14.4	0.00e+00	0	23	0	400556032	71	4699
2026-01-10 21:50:18.81	53.20	14.72	-52.7	-55.0	14.4	0.00e+00	0	23	0	402653184	71	4751
2026-01-10 21:50:19.81	53.39	14.75	-52.6	-54.9	14.5	0.00e+00	0	23	0	404750336	71	4666
2026-01-10 21:50:20.81	53.59	14.79	-52.7	-54.9	14.5	0.00e+00	0	23	0	405798912	71	4702
2026-01-10 21:50:21.82	53.79	14.83	-52.7	-54.9	14.4	0.00e+00	0	23	0	407896064	71	4681
2026-01-10 21:50:22.82	53.99	14.86	-52.6	-54.9	14.5	0.00e+00	0	23	0	409993216	71	4655
2026-01-10 21:50:23.82	54.18	14.90	-52.6	-54.9	14.5	0.00e+00	0	23	0	412090368	71	4656
2026-01-10 21:50:24.83	54.38	14.93	-52.4	-54.5	14.7	0.00e+00	0	23	0	414187520	71	4480
2026-01-10 21:50:25.82	54.58	14.97	-52.2	-54.3	14.8	0.00e+00	0	23	0	415236096	71	4367
2026-01-10 21:50:26.82	54.78	15.00	-52.2	-54.3	14.8	0.00e+00	0	23	0	417333248	71	4365
2026-01-10 21:50:27.82	54.98	15.04	-52.1	-54.1	14.7	0.00e+00	0	23	0	419430400	70	4519
2026-01-10 21:50:28.82	55.18	15.07	-51.9	-53.9	14.9	0.00e+00	0	23	0	421527552	70	4420
2026-01-10 21:50:29.82	55.38	15.11	-51.9	-53.8	14.9	0.00e+00	0	23	0	422576128	70	4374
2026-01-10 21:50:30.82	55.58	15.14	-51.9	-53.8	14.9	0.00e+00	0	23	0	424673280	70	4380
2026-01-10 21:50:31.81	55.78	15.17	-51.5	-53.4	15.0	0.00e+00	0	23	0	426770432	69	4400
2026-01-10 21:50:32.81	55.99	15.21	-51.5	-53.4	15.0	0.00e+00	0	23	0	428867584	69	4403
2026-01-10 21:50:33.80	56.19	15.24	-51.5	-53.4	15.0	0.00e+00	0	23	0	430964736	69	4392
2026-01-10 21:50:34.80	56.39	15.27	-51.5	-53.3	15.0	0.00e+00	0	23	0	432013312	69	4390
2026-01-10 21:50:35.80	56.59	15.30	-51.5	-53.3	15.0	0.00e+00	0	23	0	434110464	69	4383
2026-01-10 21:50:36.80	56.80	15.33	-51.5	-53.4	15.0	0.00e+00	0	23	0	436207616	69	4414
2026-01-10 21:50:37.80	57.00	15.37	-51.5	-53.3	15.0	0.00e+00	0	23	0	438304768	69	4386
2026-01-10 21:50:38.80	57.21	15.40	-51.5	-53.3	15.0	0.00e+00	0	23	0	439353344	69	4364
2026-01-10 21:50:39.79	57.41	15.43	-51.5	-53.3	15.0	0.00e+00	0	23	0	441450496	69	4381
2026-01-10 21:50:40.79	57.62	15.46	-51.5	-53.4	15.0	0.00e+00	0	23	0	443547648	69	4394
2026-01-10 21:50:41.80	57.82	15.49	-51.6	-53.5	14.9	0.00e+00	0	23	0	445644800	69	4489
2026-01-10 21:50:42.79	58.03	15.52	-51.7	-53.6	14.9	0.00e+00	0	23	0	447741952	69	4527
2026-01-10 21:50:43.78	58.23	15.55	-51.8	-53.7	14.8	0.00e+00	0	23	0	448790528	69	4580
2026-01-10 21:50:44.79	58.44	15.58	-51.8	-53.7	14.8	0.00e+00	0	23	0	450887680	69	4591
2026-01-10 21:50:45.79	58.65	15.61	-51.8	-53.8	14.7	0.00e+00	0	23	0	452984832	69	4644
2026-01-10 21:50:46.79	58.86	15.64	-51.8	-53.8	14.7	0.00e+00	0	23	0	455081984	69	4637
2026-01-10 21:50:47.79	59.07	15.67	-51.7	-53.7	14.8	0.00e+00	0	23	0	457179136	69	4551
2026-01-10 21:50:48.79	59.28	15.69	-51.8	-53.7	14.8	0.00e+00	0	23	0	458227712	69	4594
2026-01-10 21:50:49.79	59.49	15.72	-51.7	-53.6	14.8	0.00e+00	0	23	0	460324864	69	4521
2026-01-10 21:50:50.79	59.70	15.75	-51.6	-53.5	14.9	0.00e+00	0	23	0	462422016	69	4493
2026-01-10 21:50:51.79	59.91	15.78	-51.8	-53.7	14.8	0.00e+00	0	23	0	464519168	69	4571
2026-01-10 21:50:52.80	60.12	15.81	-51.8	-53.8	14.8	0.00e+00	0	23	0	465567744	69	4626
2026-01-10 21:50:53.79	60.33	15.83	-52.0	-54.0	14.7	0.00e+00	0	23	0	467664896	69	4715
2026-01-10 21:50:54.80	60.54	15.86	-52.0	-54.0	14.6	0.00e+00	0	23	0	469762048	69	4747
2026-01-10 21:50:55.80	60.75	15.88	-52.0	-54.1	14.6	0.00e+00	0	23	0	471859200	69	4776
2026-01-10 21:50:56.80	60.96	15.91	-52.1	-54.2	14.5	0.00e+00	0	23	0	473956352	69	4857
2026-01-10 21:50:57.80	61.18	15.94	-52.2	-54.3	14.5	0.00e+00	0	23	0	475004928	69	4904
2026-01-10 21:50:58.80	61.39	15.96	-52.3	-54.4	14.5	0.00e+00	0	23	0	477102080	69	4946
2026-01-10 21:50:59.80	61.60	15.98	-52.3	-54.4	14.4	0.00e+00	0	23	0	479199232	69	4947
2026-01-10 21:51:00.80	61.81	16.01	-52.2	-54.4	14.4	0.00e+00	0	23	0	481296384	69	4932
2026-01-10 21:51:01.80	62.03	16.03	-52.1	-54.2	14.5	0.00e+00	0	23	0	483393536	69	4846
2026-01-10 21:51:02.81	62.24	16.06	-52.2	-54.3	14.5	0.00e+00	0	23	0	484442112	69	4874
2026-01-10 21:51:03.80	62.46	16.08	-52.0	-54.0	14.6	0.00e+00	0	23	0	486539264	69	4749
2026-01-10 21:51:04.80	62.67	16.10	-52.0	-54.1	14.6	0.00e+00	0	23	0	488636416	69	4776
2026-01-10 21:51:05.79	62.88	16.12	-52.2	-54.3	14.5	0.00e+00	0	23	0	490733568	69	4873
2026-01-10 21:51:06.80	63.10	16.15	-52.1	-54.2	14.5	0.00e+00	0	23	0	492830720	69	4865
2026-01-10 21:51:07.80	63.32	16.17	-52.1	-54.2	14.5	0.00e+00	0	23	0	493879296	69	4856
2026-01-10 21:51:08.79	63.53	16.19	-52.1	-54.2	14.5	0.00e+00	0	23	0	495976448	69	4842
2026-01-10 21:51:09.79	63.75	16.21	-52.2	-54.3	14.5	0.00e+00	0	23	0	498073600	69	4878
2026-01-10 21:51:10.79	63.96	16.23	-52.1	-54.2	14.5	0.00e+00	0	23	0	500170752	69	4829
2026-01-10 21:51:11.79	64.18	16.25	-52.1	-54.2	14.6	0.00e+00	0	23	0	501219328	69	4820
2026-01-10 21:51:12.79	64.40	16.27	-52.1	-54.1	14.6	0.00e+00	0	23	0	503316480	69	4797
2026-01-10 21:51:13.80	64.62	16.29	-52.1	-54.1	14.5	0.00e+00	0	23	0	505413632	69	4814
2026-01-10 21:51:14.80	64.83	16.31	-52.1	-54.2	14.5	0.00e+00	0	23	0	507510784	69	4851
2026-01-10 21:51:15.80	65.05	16.33	-52.1	-54.2	14.5	0.00e+00	0	23	0	509607936	69	4832
2026-01-10 21:51:16.81	65.27	16.35	-52.2	-54.2	14.5	0.00e+00	0	23	0	511705088	69	4858
2026-01-10 21:51:17.81	65.49	16.37	-52.1	-54.1	14.6	0.00e+00	0	23	0	512753664	69	4786
2026-01-10 21:51:18.81	65.71	16.38	-52.0	-54.0	14.7	0.00e+00	0	23	0	514850816	69	4720
2026-01-10 21:51:19.81	65.93	16.40	-52.0	-54.0	14.7	0.00e+00	0	23	0	516947968	69	4721
2026-01-10 21:51:20.81	66.15	16.42	-51.9	-53.9	14.7	0.00e+00	0	23	0	519045120	69	4683
2026-01-10 21:51:21.80	66.36	16.44	-51.8	-53.8	14.8	0.00e+00	0	23	0	520093696	69	4609
2026-01-10 21:51:22.80	66.58	16.45	-51.8	-53.8	14.8	0.00e+00	0	23	0	522190848	69	4633
2026-01-10 21:51:23.80	66.80	16.47	-51.9	-53.9	14.7	0.00e+00	0	23	0	524288000	69	4698
2026-01-10 21:51:24.81	67.03	16.48	-51.9	-53.9	14.7	0.00e+00	0	23	0	526385152	69	4679
2026-01-10 21:51:25.80	67.24	16.50	-51.9	-53.9	14.7	0.00e+00	0	23	0	528482304	69	4692
2026-01-10 21:51:26.80	67.46	16.51	-51.9	-53.9	14.7	0.00e+00	0	23	0	529530880	69	4703
2026-01-10 21:51:27.80	67.69	16.53	-51.9	-53.9	14.7	0.00e+00	0	23	0	531628032	69	4676
2026-01-10 21:51:28.79	67.90	16.54	-51.8	-53.8	14.8	0.00e+00	0	23	0	533725184	69	4624
2026-01-10 21:51:29.79	68.13	16.55	-51.9	-53.9	14.7	0.00e+00	0	23	0	535822336	69	4669
2026-01-10 21:51:30.79	68.35	16.57	-52.0	-54.0	14.7	0.00e+00	0	23	0	536870912	69	4720
2026-01-10 21:51:31.79	68.57	16.58	-52.1	-54.1	14.6	0.00e+00	0	23	0	538968064	69	4789
2026-01-10 21:51:32.79	68.79	16.59	-52.2	-54.3	14.5	0.00e+00	0	23	0	541065216	69	4885
2026-01-10 21:51:33.79	69.01	16.60	-52.2	-54.4	14.5	0.00e+00	0	23	0	543162368	69	4934
2026-01-10 21:51:34.79	69.23	16.61	-52.3	-54.5	14.4	0.00e+00	0	23	0	545259520	69	5003
2026-01-10 21:51:35.77	69.45	16.63	-52.2	-54.3	14.5	0.00e+00	0	23	0	546308096	69	4908
2026-01-10 21:51:36.77	69.67	16.64	-52.2	-54.3	14.5	0.00e+00	0	23	0	548405248	69	4918
2026-01-10 21:51:37.77	69.90	16.65	-52.1	-54.2	14.5	0.00e+00	0	23	0	550502400	69	4837
2026-01-10 21:51:38.77	70.12	16.66	-52.1	-54.2	14.5	0.00e+00	0	23	0	552599552	69	4850
2026-01-10 21:51:39.75	70.34	16.67	-52.1	-54.2	14.6	0.00e+00	0	23	0	554696704	69	4815
2026-01-10 21:51:40.75	70.56	16.67	-52.0	-54.0	14.7	0.00e+00	0	23	0	555745280	69	4735
2026-01-10 21:51:41.75	70.78	16.68	-51.9	-53.9	14.7	0.00e+00	0	23	0	557842432	69	4673
2026-01-10 21:51:42.75	71.01	16.69	-51.8	-53.8	14.8	0.00e+00	0	23	0	559939584	69	4603
2026-01-10 21:51:43.75	71.23	16.70	-51.8	-53.8	14.8	0.00e+00	0	23	0	562036736	69	4600
2026-01-10 21:51:44.76	71.46	16.71	-51.7	-53.6	14.9	0.00e+00	0	23	0	563085312	69	4515
2026-01-10 21:51:45.76	71.68	16.71	-51.7	-53.6	14.8	0.00e+00	0	23	0	565182464	69	4524
2026-01-10 21:51:46.75	71.90	16.72	-51.8	-53.7	14.8	0.00e+00	0	23	0	567279616	69	4584
2026-01-10 21:51:47.75	72.12	16.73	-51.9	-53.9	14.7	0.00e+00	0	23	0	569376768	69	4660
2026-01-10 21:51:48.74	72.35	16.73	-52.0	-54.0	14.6	0.00e+00	0	23	0	571473920	69	4736
2026-01-10 21:51:49.73	72.57	16.74	-52.0	-54.1	14.6	0.00e+00	0	23	0	572522496	69	4765
2026-01-10 21:51:50.73	72.79	16.74	-52.0	-54.1	14.6	0.00e+00	0	23	0	574619648	69	4781
2026-01-10 21:51:51.73	73.02	16.75	-52.1	-54.2	14.6	0.00e+00	0	23	0	576716800	69	4819
2026-01-10 21:51:52.73	73.24	16.75	-52.2	-54.2	14.5	0.00e+00	0	23	0	578813952	69	4864
2026-01-10 21:51:53.73	73.46	16.75	-52.2	-54.3	14.5	0.00e+00	0	23	0	579862528	69	4904
2026-01-10 21:51:54.73	73.69	16.76	-52.2	-54.3	14.5	0.00e+00	0	23	0	581959680	69	4890
2026-01-10 21:51:55.73	73.91	16.76	-52.0	-54.0	14.7	0.00e+00	0	23	0	584056832	69	4747
2026-01-10 21:51:56.74	74.14	16.76	-51.9	-53.8	14.8	0.00e+00	0	23	0	586153984	69	4639
2026-01-10 21:51:57.74	74.36	16.77	-51.8	-53.7	14.8	0.00e+00	0	23	0	588251136	69	4564
2026-01-10 21:51:58.73	74.59	16.77	-51.7	-53.7	14.9	0.00e+00	0	23	0	589299712	69	4546
2026-01-10 21:51:59.73	74.81	16.77	-51.6	-53.4	14.9	0.00e+00	0	23	0	591396864	69	4428
2026-01-10 21:52:00.73	75.03	16.77	-51.6	-53.5	14.9	0.00e+00	0	23	0	593494016	69	4481
2026-01-10 21:52:01.73	75.26	16.77	-51.6	-53.5	14.9	0.00e+00	0	23	0	595591168	69	4462
2026-01-10 21:52:02.74	75.49	16.77	-51.7	-53.6	14.9	0.00e+00	0	23	0	597688320	69	4517
2026-01-10 21:52:03.74	75.71	16.77	-51.7	-53.6	14.9	0.00e+00	0	23	0	598736896	69	4537
2026-01-10 21:52:04.73	75.93	16.77	-51.7	-53.7	14.8	0.00e+00	0	23	0	600834048	69	4548
2026-01-10 21:52:05.73	76.16	16.77	-51.7	-53.7	14.8	0.00e+00	0	23	0	602931200	69	4558
2026-01-10 21:52:06.73	76.38	16.76	-51.8	-53.7	14.8	0.00e+00	0	23	0	605028352	69	4581
2026-01-10 21:52:07.74	76.61	16.76	-51.9	-53.8	14.7	0.00e+00	0	23	0	607125504	69	4642
2026-01-10 21:52:08.73	76.83	16.76	-51.9	-53.9	14.7	0.00e+00	0	23	0	608174080	69	4679
2026-01-10 21:52:09.73	77.05	16.76	-51.9	-54.0	14.7	0.00e+00	0	23	0	610271232	69	4712
2026-01-10 21:52:10.73	77.28	16.75	-52.0	-54.0	14.7	0.00e+00	0	23	0	612368384	69	4712
2026-01-10 21:52:11.73	77.50	16.75	-51.9	-53.9	14.7	0.00e+00	0	23	0	614465536	69	4705
2026-01-10 21:52:12.73	77.73	16.75	-51.8	-53.8	14.7	0.00e+00	0	23	0	615514112	69	4628
2026-01-10 21:52:13.73	77.95	16.74	-51.9	-53.8	14.7	0.00e+00	0	23	0	617611264	69	4650
2026-01-10 21:52:14.73	78.18	16.74	-51.7	-53.7	14.9	0.00e+00	0	23	0	619708416	69	4569
2026-01-10 21:52:15.74	78.40	16.73	-51.7	-53.6	14.9	0.00e+00	0	23	0	621805568	69	4528
2026-01-10 21:52:16.74	78.63	16.72	-51.8	-53.7	14.8	0.00e+00	0	23	0	623902720	69	4572
2026-01-10 21:52:17.74	78.85	16.72	-51.8	-53.7	14.8	0.00e+00	0	23	0	624951296	69	4591
2026-01-10 21:52:18.74	79.07	16.71	-51.8	-53.8	14.8	0.00e+00	0	23	0	627048448	69	4615
2026-01-10 21:52:19.74	79.30	16.70	-51.8	-53.7	14.8	0.00e+00	0	23	0	629145600	69	4581
2026-01-10 21:52:20.74	79.52	16.70	-51.7	-53.7	14.8	0.00e+00	0	23	0	631242752	69	4553
2026-01-10 21:52:21.75	79.75	16.69	-51.8	-53.8	14.8	0.00e+00	0	23	0	633339904	69	4625
2026-01-10 21:52:22.75	79.97	16.68	-51.8	-53.8	14.8	0.00e+00	0	23	0	634388480	69	4603
2026-01-10 21:52:23.75	80.19	16.67	-51.8	-53.7	14.8	0.00e+00	0	23	0	636485632	69	4566
2026-01-10 21:52:24.75	80.42	16.66	-51.7	-53.6	14.8	0.00e+00	0	23	0	638582784	69	4539
2026-01-10 21:52:25.75	80.64	16.65	-51.5	-53.4	15.0	0.00e+00	0	23	0	640679936	69	4436
2026-01-10 21:52:26.76	80.86	16.64	-51.5	-53.3	15.0	0.00e+00	0	23	0	642777088	69	4375
2026-01-10 21:52:27.74	81.08	16.63	-51.4	-53.3	15.1	0.00e+00	0	23	0	643825664	69	4351
2026-01-10 21:52:28.74	81.30	16.62	-51.6	-53.4	15.0	0.00e+00	0	23	0	645922816	69	4434
2026-01-10 21:52:29.74	81.53	16.61	-51.5	-53.4	15.0	0.00e+00	0	23	0	648019968	69	4413
2026-01-10 21:52:30.73	81.75	16.60	-51.6	-53.6	14.9	0.00e+00	0	23	0	650117120	69	4499
2026-01-10 21:52:31.73	81.97	16.59	-51.7	-53.6	14.9	0.00e+00	0	23	0	651165696	69	4540
2026-01-10 21:52:32.73	82.19	16.57	-51.8	-53.7	14.8	0.00e+00	0	23	0	653262848	69	4570
2026-01-10 21:52:33.73	82.41	16.56	-51.7	-53.6	14.8	0.00e+00	0	23	0	655360000	69	4522
2026-01-10 21:52:34.73	82.63	16.55	-51.7	-53.6	14.9	0.00e+00	0	23	0	657457152	69	4515
2026-01-10 21:52:35.73	82.85	16.53	-51.6	-53.4	14.9	0.00e+00	0	23	0	659554304	69	4440
2026-01-10 21:52:36.73	83.08	16.52	-51.5	-53.3	15.1	0.00e+00	0	23	0	660602880	69	4366
2026-01-10 21:52:37.73	83.30	16.51	-51.4	-53.3	15.1	0.00e+00	0	23	0	662700032	69	4341
2026-01-10 21:52:38.73	83.52	16.49	-51.3	-53.1	15.1	0.00e+00	0	23	0	664797184	69	4288
2026-01-10 21:52:39.72	83.74	16.48	-51.2	-53.0	15.2	0.00e+00	0	23	0	666894336	69	4222
2026-01-10 21:52:40.72	83.96	16.46	-51.3	-53.1	15.2	0.00e+00	0	23	0	668991488	69	4247
2026-01-10 21:52:41.71	84.17	16.44	-51.2	-52.9	15.3	0.00e+00	0	23	0	670040064	69	4186
2026-01-10 21:52:42.70	84.39	16.43	-51.2	-53.0	15.2	0.00e+00	0	23	0	672137216	69	4229
2026-01-10 21:52:43.70	84.61	16.41	-51.3	-53.1	15.2	0.00e+00	0	23	0	674234368	69	4243
2026-01-10 21:52:44.70	84.83	16.39	-51.2	-53.0	15.2	0.00e+00	0	23	0	676331520	69	4234
2026-01-10 21:52:45.70	85.05	16.38	-51.2	-53.0	15.0	0.00e+00	0	23	0	677380096	68	4444
2026-01-10 21:52:46.70	85.27	16.36	-51.1	-52.8	15.1	0.00e+00	0	23	0	679477248	68	4389
2026-01-10 21:52:47.70	85.49	16.34	-51.2	-52.9	15.1	0.00e+00	0	23	0	681574400	68	4440
2026-01-10 21:52:48.70	85.70	16.32	-51.2	-52.9	15.1	0.00e+00	0	23	0	683671552	68	4439
2026-01-10 21:52:49.71	85.93	16.30	-51.3	-53.1	15.0	0.00e+00	0	23	0	685768704	68	4528
2026-01-10 21:52:50.70	86.14	16.28	-51.3	-53.1	14.9	0.00e+00	0	23	0	686817280	68	4540
2026-01-10 21:52:51.71	86.36	16.26	-51.2	-53.0	15.0	0.00e+00	0	23	0	688914432	68	4486
2026-01-10 21:52:52.71	86.58	16.24	-51.2	-53.0	15.1	0.00e+00	0	23	0	691011584	68	4448
2026-01-10 21:52:53.70	86.79	16.22	-51.2	-53.0	15.0	0.00e+00	0	23	0	693108736	68	4458
2026-01-10 21:52:54.70	87.01	16.20	-51.1	-52.9	15.1	0.00e+00	0	23	0	694157312	68	4413
2026-01-10 21:52:55.69	87.22	16.18	-51.2	-53.0	15.1	0.00e+00	0	23	0	696254464	68	4448
2026-01-10 21:52:56.68	87.44	16.16	-51.3	-53.2	14.9	0.00e+00	0	23	0	698351616	68	4560
2026-01-10 21:52:57.68	87.65	16.14	-51.4	-53.2	14.9	0.00e+00	0	23	0	700448768	68	4591
2026-01-10 21:52:58.68	87.87	16.12	-51.4	-53.3	14.9	0.00e+00	0	23	0	702545920	68	4610
2026-01-10 21:52:59.68	88.08	16.09	-51.5	-53.4	14.8	0.00e+00	0	23	0	703594496	68	4654
2026-01-10 21:53:00.68	88.30	16.07	-51.3	-53.2	14.9	0.00e+00	0	23	0	705691648	68	4572
2026-01-10 21:53:01.68	88.51	16.05	-51.3	-53.1	15.0	0.00e+00	0	23	0	707788800	68	4513
2026-01-10 21:53:02.68	88.73	16.02	-51.3	-53.1	15.0	0.00e+00	0	23	0	709885952	68	4518
2026-01-10 21:53:03.68	88.94	16.00	-51.0	-52.7	15.2	0.00e+00	0	23	0	711983104	68	4329
2026-01-10 21:53:04.68	89.15	15.97	-50.8	-52.5	15.3	0.00e+00	0	23	0	713031680	68	4214
2026-01-10 21:53:05.68	89.37	15.95	-50.8	-52.5	15.3	0.00e+00	0	23	0	715128832	68	4205
2026-01-10 21:53:06.68	89.58	15.92	-50.7	-52.4	15.4	0.00e+00	0	23	0	717225984	68	4176
2026-01-10 21:53:07.68	89.79	15.90	-50.5	-52.2	15.3	0.00e+00	0	23	0	719323136	67	4298
2026-01-10 21:53:08.68	90.01	15.87	-50.3	-52.0	15.4	0.00e+00	0	23	0	721420288	67	4205
2026-01-10 21:53:09.68	90.22	15.85	-50.2	-51.8	15.5	0.00e+00	0	23	0	722468864	67	4143
2026-01-10 21:53:10.68	90.43	15.82	-50.2	-51.8	15.4	0.00e+00	0	23	0	724566016	67	4144
2026-01-10 21:53:11.69	90.64	15.79	-50.2	-51.8	15.5	0.00e+00	0	23	0	726663168	67	4134
2026-01-10 21:53:12.69	90.85	15.76	-50.3	-52.0	15.4	0.00e+00	0	23	0	728760320	67	4210
2026-01-10 21:53:13.68	91.06	15.74	-50.3	-51.9	15.4	0.00e+00	0	23	0	729808896	67	4162
2026-01-10 21:53:14.69	91.27	15.71	-50.4	-52.1	15.3	0.00e+00	0	23	0	731906048	67	4251
2026-01-10 21:53:15.68	91.48	15.68	-50.5	-52.2	15.3	0.00e+00	0	23	0	734003200	67	4298
2026-01-10 21:53:16.68	91.69	15.65	-50.5	-52.2	15.2	0.00e+00	0	23	0	736100352	67	4329
2026-01-10 21:53:17.67	91.90	15.62	-50.6	-52.3	15.2	0.00e+00	0	23	0	738197504	67	4361
2026-01-10 21:53:18.67	92.11	15.60	-50.6	-52.3	15.2	0.00e+00	0	23	0	739246080	67	4353
2026-01-10 21:53:19.68	92.32	15.57	-50.7	-52.5	15.2	0.00e+00	0	23	0	741343232	67	4443
2026-01-10 21:53:20.68	92.52	15.54	-50.6	-52.3	15.2	0.00e+00	0	23	0	743440384	67	4381
2026-01-10 21:53:21.69	92.73	15.51	-50.6	-52.4	15.2	0.00e+00	0	23	0	745537536	67	4396
2026-01-10 21:53:22.69	92.94	15.47	-50.6	-52.4	15.2	0.00e+00	0	23	0	747634688	67	4402
2026-01-10 21:53:23.69	93.15	15.44	-50.5	-52.1	15.3	0.00e+00	0	23	0	748683264	67	4281
2026-01-10 21:53:24.68	93.35	15.41	-50.3	-51.9	15.4	0.00e+00	0	23	0	750780416	67	4181
2026-01-10 21:53:25.68	93.56	15.38	-50.3	-52.0	15.4	0.00e+00	0	23	0	752877568	67	4204
2026-01-10 21:53:26.68	93.76	15.35	-50.3	-51.9	15.4	0.00e+00	0	23	0	754974720	67	4168
2026-01-10 21:53:27.68	93.97	15.32	-50.1	-51.7	15.3	0.00e+00	0	23	0	756023296	66	4337
2026-01-10 21:53:28.69	94.17	15.29	-50.2	-51.8	15.3	0.00e+00	0	23	0	758120448	66	4384
2026-01-10 21:53:29.69	94.38	15.25	-50.3	-52.0	15.2	0.00e+00	0	23	0	760217600	66	4467
2026-01-10 21:53:30.68	94.58	15.22	-50.4	-52.0	15.2	0.00e+00	0	23	0	762314752	66	4489
2026-01-10 21:53:31.68	94.78	15.19	-50.5	-52.2	15.1	0.00e+00	0	23	0	764411904	66	4586
2026-01-10 21:53:32.68	94.98	15.15	-50.7	-52.5	14.9	0.00e+00	0	23	0	765460480	66	4721
2026-01-10 21:53:33.69	95.19	15.12	-50.9	-52.7	14.8	0.00e+00	0	23	0	767557632	66	4817
2026-01-10 21:53:34.68	95.39	15.09	-51.0	-52.8	14.9	0.00e+00	0	23	0	769654784	67	4626
2026-01-10 21:53:35.67	95.59	15.05	-51.0	-52.8	14.9	0.00e+00	0	23	0	771751936	67	4611
2026-01-10 21:53:36.67	95.79	15.02	-50.9	-52.7	15.0	0.00e+00	0	23	0	773849088	67	4561
2026-01-10 21:53:37.67	95.99	14.98	-50.9	-52.7	14.9	0.00e+00	0	23	0	774897664	67	4576
2026-01-10 21:53:38.67	96.19	14.95	-50.8	-52.6	15.0	0.00e+00	0	23	0	776994816	67	4516
2026-01-10 21:53:39.67	96.39	14.91	-50.8	-52.5	15.1	0.00e+00	0	23	0	779091968	67	4487
2026-01-10 21:53:40.67	96.59	14.88	-50.9	-52.7	15.0	0.00e+00	0	23	0	781189120	67	4548
2026-01-10 21:53:41.66	96.78	14.84	-50.8	-52.6	15.0	0.00e+00	0	23	0	783286272	67	4531
2026-01-10 21:53:42.65	96.98	14.81	-50.9	-52.6	15.0	0.00e+00	0	23	0	784334848	67	4529
2026-01-10 21:53:43.65	97.18	14.77	-50.9	-52.6	15.0	0.00e+00	0	23	0	786432000	67	4542
2026-01-10 21:53:44.65	97.37	14.73	-50.8	-52.6	15.0	0.00e+00	0	23	0	788529152	67	4498
2026-01-10 21:53:45.65	97.57	14.70	-50.7	-52.5	15.1	0.00e+00	0	23	0	790626304	67	4444
2026-01-10 21:53:46.65	97.77	14.66	-50.7	-52.5	15.1	0.00e+00	0	23	0	791674880	67	4456
2026-01-10 21:53:47.64	97.96	14.62	-50.7	-52.5	15.1	0.00e+00	0	23	0	793772032	67	4442
2026-01-10 21:53:48.64	98.15	14.58	-50.8	-52.6	15.1	0.00e+00	0	23	0	795869184	67	4505
2026-01-10 21:53:49.64	98.35	14.54	-51.0	-52.8	15.0	0.00e+00	0	23	0	797966336	67	4599
2026-01-10 21:53:50.64	98.54	14.51	-51.2	-53.0	14.8	0.00e+00	0	23	0	800063488	67	4744
2026-01-10 21:53:51.63	98.74	14.47	-51.3	-53.3	14.7	0.00e+00	0	23	0	801112064	67	4875
2026-01-10 21:53:52.63	98.93	14.43	-51.8	-53.8	14.5	0.00e+00	0	23	0	803209216	68	4925
2026-01-10 21:53:53.63	99.12	14.39	-52.1	-54.1	14.5	0.00e+00	0	23	0	805306368	69	4813
2026-01-10 21:53:54.63	99.31	14.35	-52.3	-54.4	14.4	0.00e+00	0	23	0	807403520	69	4962
2026-01-10 21:53:55.63	99.51	14.31	-52.5	-54.7	14.4	0.00e+00	0	23	0	808452096	70	4837
2026-01-10 21:53:56.64	99.70	14.27	-52.5	-54.8	14.3	0.00e+00	0	23	0	810549248	70	4881
2026-01-10 21:53:57.64	99.89	14.23	-52.6	-54.9	14.2	0.00e+00	0	23	0	812646400	70	4957
2026-01-10 21:53:58.64	100.08	14.19	-52.7	-55.0	14.2	0.00e+00	0	23	0	814743552	70	5037
2026-01-10 21:53:59.64	100.27	14.15	-52.7	-55.0	14.2	0.00e+00	0	23	0	816840704	70	5035
2026-01-10 21:54:00.63	100.46	14.11	-52.8	-55.1	14.1	0.00e+00	0	23	0	817889280	70	5062
2026-01-10 21:54:01.64	100.65	14.07	-52.8	-55.1	14.1	0.00e+00	0	23	0	819986432	70	5096
2026-01-10 21:54:02.64	100.84	14.03	-52.8	-55.1	14.1	0.00e+00	0	23	0	822083584	70	5085
2026-01-10 21:54:03.64	101.02	13.99	-52.8	-55.2	14.1	0.00e+00	0	23	0	824180736	70	5128
2026-01-10 21:54:04.64	101.21	13.95	-52.8	-55.1	14.1	0.00e+00	0	23	0	826277888	70	5094
2026-01-10 21:54:05.64	101.40	13.91	-52.5	-54.8	14.3	0.00e+00	0	23	0	827326464	70	4898
2026-01-10 21:54:06.64	101.59	13.86	-52.4	-54.6	14.4	0.00e+00	0	23	0	829423616	70	4809
2026-01-10 21:54:07.63	101.77	13.82	-52.5	-54.7	14.4	0.00e+00	0	23	0	831520768	70	4836
2026-01-10 21:54:08.63	101.95	13.78	-52.3	-54.5	14.4	0.00e+00	0	23	0	833617920	70	4737
2026-01-10 21:54:09.63	102.14	13.74	-52.4	-54.5	14.4	0.00e+00	0	23	0	834666496	70	4754
2026-01-10 21:54:10.63	102.32	13.69	-52.3	-54.5	14.5	0.00e+00	0	23	0	836763648	70	4722
2026-01-10 21:54:11.63	102.51	13.65	-52.4	-54.6	14.4	0.00e+00	0	23	0	838860800	70	4784
2026-01-10 21:54:12.63	102.69	13.61	-52.5	-54.7	14.4	0.00e+00	0	23	0	840957952	70	4849
2026-01-10 21:54:13.63	102.87	13.57	-52.5	-54.7	14.3	0.00e+00	0	23	0	843055104	70	4850
2026-01-10 21:54:14.63	103.06	13.52	-52.6	-54.9	14.3	0.00e+00	0	23	0	844103680	70	4940
2026-01-10 21:54:15.63	103.24	13.48	-52.7	-55.0	14.2	0.00e+00	0	23	0	846200832	70	5028
2026-01-10 21:54:16.63	103.42	13.44	-52.8	-55.1	14.1	0.00e+00	0	23	0	848297984	70	5080
2026-01-10 21:54:17.63	103.60	13.39	-53.0	-55.4	14.1	0.00e+00	0	23	0	850395136	71	4946
2026-01-10 21:54:18.63	103.78	13.35	-53.1	-55.5	14.0	0.00e+00	0	23	0	852492288	71	5011
2026-01-10 21:54:19.64	103.96	13.30	-53.1	-55.6	13.9	0.00e+00	0	23	0	853540864	71	5098
2026-01-10 21:54:20.64	104.14	13.26	-53.2	-55.6	13.9	0.00e+00	0	23	0	855638016	71	5096
2026-01-10 21:54:21.64	104.32	13.21	-53.2	-55.7	14.0	0.00e+00	0	23	0	857735168	71	5104
2026-01-10 21:54:22.64	104.50	13.17	-53.2	-55.7	14.0	0.00e+00	0	23	0	859832320	71	5120
2026-01-10 21:54:23.65	104.68	13.12	-52.9	-55.3	14.2	0.00e+00	0	23	0	861929472	71	4908
2026-01-10 21:54:24.65	104.85	13.08	-52.8	-55.2	14.2	0.00e+00	0	23	0	862978048	71	4825
2026-01-10 21:54:25.65	105.03	13.03	-52.7	-54.9	14.4	0.00e+00	0	23	0	865075200	71	4684
2026-01-10 21:54:26.65	105.21	12.99	-52.6	-54.8	14.5	0.00e+00	0	23	0	867172352	71	4639
2026-01-10 21:54:27.66	105.38	12.94	-52.6	-54.8	14.5	0.00e+00	0	23	0	869269504	71	4603
2026-01-10 21:54:28.65	105.56	12.90	-52.6	-54.9	14.4	0.00e+00	0	23	0	870318080	71	4657
2026-01-10 21:54:29.65	105.73	12.85	-52.7	-55.0	14.4	0.00e+00	0	23	0	872415232	71	4717
2026-01-10 21:54:30.64	105.90	12.80	-52.7	-55.0	14.4	0.00e+00	0	23	0	874512384	71	4742
2026-01-10 21:54:31.65	106.08	12.76	-52.7	-54.9	14.4	0.00e+00	0	23	0	876609536	71	4692
2026-01-10 21:54:32.64	106.25	12.71	-52.5	-54.7	14.5	0.00e+00	0	23	0	878706688	71	4576
2026-01-10 21:54:33.64	106.42	12.66	-52.5	-54.7	14.6	0.00e+00	0	23	0	879755264	71	4554
2026-01-10 21:54:34.64	106.59	12.62	-52.2	-54.3	14.8	0.00e+00	0	23	0	881852416	71	4366
2026-01-10 21:54:35.64	106.77	12.57	-52.0	-54.0	14.8	0.00e+00	0	23	0	883949568	70	4475
2026-01-10 21:54:36.65	106.94	12.52	-52.0	-54.0	14.8	0.00e+00	0	23	0	886046720	70	4442
2026-01-10 21:54:37.64	107.11	12.48	-51.9	-53.8	14.9	0.00e+00	0	23	0	888143872	70	4375
2026-01-10 21:54:38.64	107.28	12.43	-51.9	-53.8	14.9	0.00e+00	0	23	0	889192448	70	4381
2026-01-10 21:54:39.63	107.44	12.38	-51.9	-54.0	14.8	0.00e+00	0	23	0	891289600	70	4443
2026-01-10 21:54:40.62	107.61	12.34	-52.0	-54.1	14.7	0.00e+00	0	23	0	893386752	70	4511
2026-01-10 21:54:41.62	107.78	12.29	-52.1	-54.2	14.7	0.00e+00	0	23	0	895483904	70	4572
2026-01-10 21:54:42.62	107.95	12.24	-52.3	-54.5	14.6	0.00e+00	0	23	0	896532480	70	4719
2026-01-10 21:54:43.62	108.11	12.19	-52.3	-54.5	14.5	0.00e+00	0	23	0	898629632	70	4711
2026-01-10 21:54:44.62	108.28	12.14	-52.3	-54.5	14.5	0.00e+00	0	23	0	900726784	70	4723
2026-01-10 21:54:45.62	108.45	12.10	-52.4	-54.5	14.5	0.00e+00	0	23	0	902823936	70	4751
2026-01-10 21:54:46.63	108.61	12.05	-52.4	-54.6	14.4	0.00e+00	0	23	0	904921088	70	4789
2026-01-10 21:54:47.63	108.78	12.00	-52.5	-54.8	14.3	0.00e+00	0	23	0	905969664	70	4882
2026-01-10 21:54:48.62	108.94	11.95	-52.6	-54.8	14.3	0.00e+00	0	23	0	908066816	70	4909
2026-01-10 21:54:49.62	109.11	11.90	-52.6	-54.9	14.3	0.00e+00	0	23	0	910163968	70	4935
2026-01-10 21:54:50.63	109.27	11.85	-52.6	-54.9	14.2	0.00e+00	0	23	0	912261120	70	4967
2026-01-10 21:54:51.62	109.43	11.81	-52.5	-54.7	14.4	0.00e+00	0	23	0	914358272	70	4830
2026-01-10 21:54:52.62	109.59	11.76	-52.3	-54.5	14.5	0.00e+00	0	23	0	915406848	70	4733
2026-01-10 21:54:53.62	109.76	11.71	-52.1	-54.2	14.6	0.00e+00	0	23	0	917504000	70	4591
2026-01-10 21:54:54.62	109.92	11.66	-51.8	-53.8	14.9	0.00e+00	0	23	0	919601152	70	4376
2026-01-10 21:54:55.62	110.08	11.61	-51.6	-53.5	14.9	0.00e+00	0	23	0	921698304	69	4473
2026-01-10 21:54:56.61	110.24	11.56	-51.6	-53.5	14.9	0.00e+00	0	23	0	923795456	69	4461
2026-01-10 21:54:57.61	110.40	11.51	-51.6	-53.5	14.9	0.00e+00	0	23	0	924844032	69	4444
2026-01-10 21:54:58.61	110.56	11.46	-51.7	-53.7	14.8	0.00e+00	0	23	0	926941184	69	4576
2026-01-10 21:54:59.61	110.71	11.41	-51.6	-53.5	14.9	0.00e+00	0	23	0	929038336	69	4474
2026-01-10 21:55:00.61	110.87	11.36	-51.6	-53.6	14.8	0.00e+00	0	23	0	931135488	69	4518
2026-01-10 21:55:01.61	111.03	11.31	-51.7	-53.7	14.8	0.00e+00	0	23	0	932184064	69	4581
2026-01-10 21:55:02.61	111.19	11.26	-51.9	-54.0	14.7	0.00e+00	0	23	0	934281216	69	4718
2026-01-10 21:55:03.62	111.35	11.21	-51.8	-53.9	14.7	0.00e+00	0	23	0	936378368	69	4659
2026-01-10 21:55:04.62	111.50	11.16	-51.9	-54.0	14.6	0.00e+00	0	23	0	938475520	69	4732
2026-01-10 21:55:05.63	111.66	11.11	-51.9	-54.0	14.6	0.00e+00	0	23	0	940572672	69	4709
2026-01-10 21:55:06.63	111.81	11.06	-51.8	-53.9	14.7	0.00e+00	0	23	0	941621248	69	4655
2026-01-10 21:55:07.62	111.97	11.01	-51.9	-53.9	14.7	0.00e+00	0	23	0	943718400	69	4681
2026-01-10 21:55:08.62	112.12	10.96	-51.8	-53.8	14.7	0.00e+00	0	23	0	945815552	69	4607
2026-01-10 21:55:09.62	112.28	10.91	-51.8	-53.8	14.7	0.00e+00	0	23	0	947912704	69	4610
2026-01-10 21:55:10.62	112.43	10.86	-51.8	-53.8	14.7	0.00e+00	0	23	0	950009856	69	4634
2026-01-10 21:55:11.62	112.58	10.81	-51.8	-53.8	14.7	0.00e+00	0	23	0	951058432	69	4644
2026-01-10 21:55:12.62	112.73	10.76	-52.0	-54.0	14.6	0.00e+00	0	23	0	953155584	69	4754
2026-01-10 21:55:13.62	112.88	10.71	-52.0	-54.1	14.5	0.00e+00	0	23	0	955252736	69	4762
2026-01-10 21:55:14.63	113.04	10.66	-51.9	-53.9	14.6	0.00e+00	0	23	0	957349888	69	4699
2026-01-10 21:55:15.62	113.19	10.61	-52.0	-54.0	14.6	0.00e+00	0	23	0	959447040	69	4752
2026-01-10 21:55:16.62	113.34	10.55	-51.8	-53.8	14.7	0.00e+00	0	23	0	960495616	69	4617
2026-01-10 21:55:17.62	113.49	10.50	-51.8	-53.8	14.7	0.00e+00	0	23	0	962592768	69	4605
2026-01-10 21:55:18.62	113.63	10.45	-51.6	-53.5	14.8	0.00e+00	0	23	0	964689920	69	4474
2026-01-10 21:55:19.62	113.78	10.40	-51.5	-53.4	14.9	0.00e+00	0	23	0	966787072	69	4406
2026-01-10 21:55:20.62	113.93	10.35	-51.6	-53.5	14.9	0.00e+00	0	23	0	967835648	69	4466
2026-01-10 21:55:21.62	114.08	10.30	-51.6	-53.6	14.8	0.00e+00	0	23	0	969932800	69	4531
2026-01-10 21:55:22.62	114.23	10.25	-51.7	-53.7	14.7	0.00e+00	0	23	0	972029952	69	4592
2026-01-10 21:55:23.62	114.37	10.20	-51.8	-53.9	14.6	0.00e+00	0	23	0	974127104	69	4679
2026-01-10 21:55:24.62	114.52	10.14	-52.0	-54.1	14.5	0.00e+00	0	23	0	976224256	69	4767
2026-01-10 21:55:25.62	114.66	10.09	-52.0	-54.2	14.5	0.00e+00	0	23	0	977272832	69	4825
2026-01-10 21:55:26.61	114.81	10.04	-52.1	-54.3	14.4	0.00e+00	0	23	0	979369984	69	4898
2026-01-10 21:55:27.62	114.95	9.99	-52.1	-54.2	14.4	0.00e+00	0	23	0	981467136	69	4869
2026-01-10 21:55:28.62	115.10	9.94	-52.0	-54.2	14.5	0.00e+00	0	23	0	983564288	69	4817
2026-01-10 21:55:29.61	115.24	9.89	-51.9	-54.0	14.6	0.00e+00	0	23	0	985661440	69	4724
2026-01-10 21:55:30.59	115.38	9.84	-51.9	-54.0	14.6	0.00e+00	0	23	0	986710016	69	4731
2026-01-10 21:55:31.60	115.52	9.78	-51.9	-53.9	14.6	0.00e+00	0	23	0	988807168	69	4699
2026-01-10 21:55:32.60	115.67	9.73	-51.7	-53.8	14.7	0.00e+00	0	23	0	990904320	69	4607
2026-01-10 21:55:33.59	115.81	9.68	-51.8	-53.9	14.6	0.00e+00	0	23	0	993001472	69	4652
2026-01-10 21:55:34.59	115.95	9.63	-51.9	-53.9	14.6	0.00e+00	0	23	0	994050048	69	4690
2026-01-10 21:55:35.58	116.09	9.58	-51.9	-53.9	14.6	0.00e+00	0	23	0	996147200	69	4700
2026-01-10 21:55:36.59	116.23	9.52	-52.0	-54.1	14.4	0.00e+00	0	23	0	998244352	69	4809
2026-01-10 21:55:37.59	116.37	9.47	-52.1	-54.3	14.4	0.00e+00	0	23	0	1000341504	69	4872
2026-01-10 21:55:38.58	116.51	9.42	-52.2	-54.4	14.3	0.00e+00	0	23	0	1002438656	69	4971
2026-01-10 21:55:39.57	116.64	9.37	-52.2	-54.4	14.3	0.00e+00	0	23	0	1003487232	69	4948
2026-01-10 21:55:40.57	116.78	9.32	-52.2	-54.4	14.3	0.00e+00	0	23	0	1005584384	69	4952
2026-01-10 21:55:41.56	116.92	9.26	-52.2	-54.4	14.3	0.00e+00	0	23	0	1007681536	69	4975
2026-01-10 21:55:42.56	117.06	9.21	-52.2	-54.4	14.3	0.00e+00	0	23	0	1009778688	69	4954
2026-01-10 21:55:43.56	117.19	9.16	-52.1	-54.4	14.3	0.00e+00	0	23	0	1010827264	69	4935
2026-01-10 21:55:44.56	117.33	9.11	-52.0	-54.1	14.4	0.00e+00	0	23	0	1012924416	69	4794
2026-01-10 21:55:45.56	117.47	9.06	-51.9	-54.0	14.5	0.00e+00	0	23	0	1015021568	69	4741
2026-01-10 21:55:46.56	117.60	9.00	-51.9	-54.1	14.5	0.00e+00	0	23	0	1017118720	69	4768
2026-01-10 21:55:47.56	117.74	8.95	-51.7	-53.8	14.6	0.00e+00	0	23	0	1019215872	69	4622
2026-01-10 21:55:48.55	117.87	8.90	-51.8	-53.9	14.6	0.00e+00	0	23	0	1020264448	69	4678
2026-01-10 21:55:49.55	118.00	8.85	-51.9	-54.1	14.4	0.00e+00	0	23	0	1022361600	69	4785
2026-01-10 21:55:50.55	118.14	8.79	-52.0	-54.2	14.4	0.00e+00	0	23	0	1024458752	69	4834
2026-01-10 21:55:51.55	118.27	8.74	-52.2	-54.5	14.2	0.00e+00	0	23	0	1026555904	69	4998
2026-01-10 21:55:52.55	118.40	8.69	-52.2	-54.5	14.2	0.00e+00	0	23	0	1027604480	69	5016
2026-01-10 21:55:53.55	118.54	8.64	-52.3	-54.6	14.1	0.00e+00	0	23	0	1029701632	69	5076
2026-01-10 21:55:54.55	118.67	8.58	-52.3	-54.7	14.1	0.00e+00	0	23	0	1031798784	69	5127
2026-01-10 21:55:55.55	118.80	8.53	-52.3	-54.7	14.1	0.00e+00	0	23	0	1033895936	69	5108
2026-01-10 21:55:56.55	118.93	8.48	-52.3	-54.6	14.1	0.00e+00	0	23	0	1035993088	69	5089
2026-01-10 21:55:57.54	119.06	8.43	-52.3	-54.6	14.1	0.00e+00	0	23	0	1037041664	69	5096
2026-01-10 21:55:58.55	119.19	8.37	-52.2	-54.5	14.2	0.00e+00	0	23	0	1039138816	69	5003
2026-01-10 21:55:59.55	119.32	8.32	-52.2	-54.6	14.2	0.00e+00	0	23	0	1041235968	69	5046
2026-01-10 21:56:00.55	119.45	8.27	-52.3	-54.6	14.1	0.00e+00	0	23	0	1043333120	69	5098
2026-01-10 21:56:01.54	119.58	8.22	-52.4	-54.8	14.0	0.00e+00	0	23	0	1045430272	69	5160
2026-01-10 21:56:02.54	119.70	8.16	-52.5	-54.9	14.1	0.00e+00	0	23	0	1046478848	70	4974
2026-01-10 21:56:03.54	119.83	8.11	-52.5	-55.0	14.0	0.00e+00	0	23	0	1048576000	70	4988
2026-01-10 21:56:04.54	119.96	8.06	-52.7	-55.2	13.9	0.00e+00	0	23	0	1050673152	70	5128
2026-01-10 21:56:05.53	120.08	8.01	-52.7	-55.2	13.9	0.00e+00	0	23	0	1052770304	70	5117
2026-01-10 21:56:06.53	120.21	7.95	-52.8	-55.3	13.8	0.00e+00	0	23	0	1054867456	70	5212
2026-01-10 21:56:07.54	120.34	7.90	-52.7	-55.3	13.9	0.00e+00	0	23	0	1055916032	70	5180
2026-01-10 21:56:08.53	120.46	7.85	-52.6	-55.1	13.9	0.00e+00	0	23	0	1058013184	70	5094
2026-01-10 21:56:09.53	120.59	7.79	-52.7	-55.2	13.9	0.00e+00	0	23	0	1060110336	70	5132
2026-01-10 21:56:10.53	120.71	7.74	-52.5	-55.0	14.0	0.00e+00	0	23	0	1062207488	70	5005
2026-01-10 21:56:11.54	120.84	7.69	-52.6	-55.1	14.0	0.00e+00	0	23	0	1063256064	70	5047
2026-01-10 21:56:12.53	120.96	7.64	-52.5	-55.0	14.0	0.00e+00	0	23	0	1065353216	70	5017
2026-01-10 21:56:13.53	121.08	7.58	-52.4	-54.9	14.1	0.00e+00	0	23	0	1067450368	70	4951
2026-01-10 21:56:14.54	121.21	7.53	-52.5	-55.0	14.0	0.00e+00	0	23	0	1069547520	70	5036
2026-01-10 21:56:15.53	121.33	7.48	-52.6	-55.1	13.9	0.00e+00	0	23	0	1071644672	70	5060
2026-01-10 21:56:16.53	121.45	7.43	-52.6	-55.2	13.8	0.00e+00	0	23	0	1072693248	70	5135
2026-01-10 21:56:17.53	121.57	7.37	-52.8	-55.4	13.7	0.00e+00	0	23	0	1074790400	70	5275
2026-01-10 21:56:18.53	121.69	7.32	-53.0	-55.7	13.6	0.00e+00	0	23	0	1076887552	71	5157
2026-01-10 21:56:19.53	121.82	7.27	-53.1	-56.0	13.5	0.00e+00	0	23	0	1078984704	71	5289
2026-01-10 21:56:20.53	121.94	7.21	-53.0	-55.9	13.5	0.00e+00	0	23	0	1081081856	71	5222
2026-01-10 21:56:21.53	122.06	7.16	-53.0	-55.8	13.5	0.00e+00	0	23	0	1082130432	71	5172
2026-01-10 21:56:22.53	122.18	7.11	-53.1	-55.9	13.5	0.00e+00	0	23	0	1084227584	71	5243
2026-01-10 21:56:23.53	122.29	7.06	-53.0	-55.8	13.6	0.00e+00	0	23	0	1086324736	71	5191
2026-01-10 21:56:24.53	122.41	7.00	-52.9	-55.7	13.6	0.00e+00	0	23	0	1088421888	71	5142
2026-01-10 21:56:25.53	122.53	6.95	-52.8	-55.5	13.8	0.00e+00	0	23	0	1089470464	71	4992
2026-01-10 21:56:26.54	122.65	6.90	-52.6	-55.2	14.0	0.00e+00	0	23	0	1091567616	71	4832
2026-01-10 21:56:27.54	122.77	6.84	-52.6	-55.2	14.0	0.00e+00	0	23	0	1093664768	71	4841
2026-01-10 21:56:28.54	122.89	6.79	-52.7	-55.3	13.9	0.00e+00	0	23	0	1095761920	71	4886
2026-01-10 21:56:29.54	123.00	6.74	-52.6	-55.2	14.0	0.00e+00	0	23	0	1097859072	71	4824
2026-01-10 21:56:30.54	123.12	6.69	-52.7	-55.3	13.8	0.00e+00	0	23	0	1098907648	71	4922
2026-01-10 21:56:31.53	123.23	6.63	-52.7	-55.3	13.9	0.00e+00	0	23	0	1101004800	71	4887
2026-01-10 21:56:32.53	123.35	6.58	-52.8	-55.5	13.7	0.00e+00	0	23	0	1103101952	71	5037
2026-01-10 21:56:33.53	123.46	6.53	-52.9	-55.7	13.6	0.00e+00	0	23	0	1105199104	71	5111
2026-01-10 21:56:34.53	123.58	6.48	-52.9	-55.7	13.6	0.00e+00	0	23	0	1107296256	71	5129
2026-01-10 21:56:35.53	123.69	6.42	-53.1	-55.9	13.4	0.00e+00	0	23	0	1108344832	71	5269
2026-01-10 21:56:36.53	123.81	6.37	-53.2	-56.1	13.3	0.00e+00	0	23	0	1110441984	71	5386
2026-01-10 21:56:37.53	123.92	6.32	-53.1	-56.1	13.3	0.00e+00	0	23	0	1112539136	71	5370
2026-01-10 21:56:38.53	124.03	6.27	-53.1	-56.1	13.3	0.00e+00	0	23	0	1114636288	71	5382
2026-01-10 21:56:39.52	124.15	6.21	-53.2	-56.2	13.2	0.00e+00	0	23	0	1116733440	71	5411
2026-01-10 21:56:40.52	124.26	6.16	-53.2	-56.1	13.3	0.00e+00	0	23	0	1117782016	71	5400
2026-01-10 21:56:41.52	124.37	6.11	-53.1	-56.1	13.3	0.00e+00	0	23	0	1119879168	71	5372
2026-01-10 21:56:42.52	124.48	6.06	-53.0	-55.8	13.5	0.00e+00	0	23	0	1121976320	71	5215
2026-01-10 21:56:43.51	124.59	6.00	-53.0	-55.9	13.4	0.00e+00	0	23	0	1124073472	71	5262
2026-01-10 21:56:44.51	124.70	5.95	-53.0	-55.9	13.4	0.00e+00	0	23	0	1125122048	71	5232
2026-01-10 21:56:45.50	124.81	5.90	-52.9	-55.7	13.5	0.00e+00	0	23	0	1127219200	71	5147
2026-01-10 21:56:46.50	124.92	5.85	-53.1	-56.0	13.3	0.00e+00	0	23	0	1129316352	71	5317
2026-01-10 21:56:47.50	125.03	5.80	-53.2	-56.3	13.1	0.00e+00	0	23	0	1131413504	71	5476
2026-01-10 21:56:48.50	125.14	5.74	-53.2	-56.3	13.1	0.00e+00	0	23	0	1133510656	71	5521
2026-01-10 21:56:49.50	125.25	5.69	-53.3	-56.4	13.0	0.00e+00	0	23	0	1134559232	71	5567
2026-01-10 21:56:50.50	125.36	5.64	-53.2	-56.2	13.1	0.00e+00	0	23	0	1136656384	71	5437
2026-01-10 21:56:51.50	125.47	5.59	-53.1	-56.1	13.2	0.00e+00	0	23	0	1138753536	71	5386
2026-01-10 21:56:52.50	125.57	5.53	-53.3	-56.4	13.0	0.00e+00	0	23	0	1140850688	71	5581
2026-01-10 21:56:53.50	125.68	5.48	-53.3	-56.5	13.0	0.00e+00	0	23	0	1141899264	71	5618
2026-01-10 21:56:54.50	125.79	5.43	-53.3	-56.4	13.0	0.00e+00	0	23	0	1143996416	71	5575
2026-01-10 21:56:55.49	125.89	5.38	-53.4	-56.7	12.8	0.00e+00	0	23	0	1146093568	71	5733
2026-01-10 21:56:56.49	126.00	5.32	-53.3	-56.4	13.0	0.00e+00	0	23	0	1148190720	71	5572
2026-01-10 21:56:57.49	126.11	5.27	-53.1	-56.1	13.2	0.00e+00	0	23	0	1150287872	71	5354
2026-01-10 21:56:58.49	126.21	5.22	-53.2	-56.4	13.0	0.00e+00	0	23	0	1151336448	71	5532
2026-01-10 21:56:59.50	126.32	5.17	-53.2	-56.4	12.9	0.00e+00	0	23	0	1153433600	71	5587
2026-01-10 21:57:00.50	126.42	5.12	-53.5	-56.8	12.8	0.00e+00	0	23	0	1155530752	72	5493
2026-01-10 21:57:01.50	126.53	5.06	-53.4	-56.6	12.9	0.00e+00	0	23	0	1157627904	72	5390
2026-01-10 21:57:02.50	126.63	5.01	-54.1	-57.9	12.1	0.00e+00	0	23	0	1159725056	73	5892
2026-01-10 21:57:03.51	126.74	4.96	-57.3	-73.2	3.8	1.21e+00	0	23	104	1160773632	79	24314
2026-01-10 21:57:04.51	126.84	4.91	-57.7	-73.7	3.8	1.49e+00	0	23	104	1160773632	80	24194
2026-01-10 21:57:05.51	126.94	4.85	-57.9	-73.9	3.8	1.49e+00	0	23	104	1160773632	80	24859
2026-01-10 21:57:06.52	127.05	4.80	-58.2	-74.2	3.8	1.49e+00	0	23	104	1160773632	81	24166
2026-01-10 21:57:07.51	127.15	4.75	-58.3	-74.4	3.8	1.49e+00	0	23	104	1160773632	81	24726
2026-01-10 21:57:08.51	127.25	4.70	-58.5	-74.6	3.8	1.49e+00	0	23	104	1160773632	82	23901
2026-01-10 21:57:09.51	127.35	4.65	-58.6	-74.7	3.8	1.49e+00	0	23	104	1160773632	82	24184
2026-01-10 21:57:10.51	127.45	4.59	-58.7	-74.8	3.8	1.49e+00	0	23	104	1160773632	82	24434
2026-01-10 21:57:11.50	127.55	4.54	-58.8	-74.8	3.8	1.49e+00	0	23	104	1160773632	82	24657
2026-01-10 21:57:12.50	127.66	4.49	-58.9	-74.9	3.8	1.49e+00	0	23	104	1160773632	82	24943
2026-01-10 21:57:13.50	127.76	4.44	-59.0	-75.0	3.8	1.49e+00	0	23	104	1160773632	83	23780
2026-01-10 21:57:14.50	127.86	4.39	-59.0	-75.1	3.8	1.49e+00	0	23	104	1160773632	83	24008
2026-01-10 21:57:15.51	127.96	4.34	-59.1	-75.2	3.8	1.49e+00	0	23	104	1160773632	83	24159
2026-01-10 21:57:16.52	128.06	4.28	-59.1	-75.2	3.8	1.49e+00	0	23	104	1160773632	83	24177
2026-01-10 21:57:17.52	128.16	4.23	-59.2	-75.2	3.8	1.49e+00	0	23	104	1160773632	83	24292
2026-01-10 21:57:18.52	128.26	4.18	-59.2	-75.3	3.8	1.49e+00	0	23	104	1160773632	83	24499
2026-01-10 21:57:19.52	128.35	4.13	-59.3	-75.4	3.8	1.49e+00	0	23	104	1160773632	83	24699
2026-01-10 21:57:20.52	128.45	4.08	-59.3	-75.4	3.8	1.49e+00	0	23	104	1160773632	83	24812
2026-01-10 21:57:21.52	128.55	4.03	-59.4	-75.5	3.8	1.49e+00	0	23	104	1160773632	83	25010
2026-01-10 21:57:22.52	128.65	3.97	-59.6	-75.7	3.8	1.49e+00	0	23	104	1160773632	84	24169
2026-01-10 21:57:23.53	128.74	3.92	-59.6	-75.7	3.8	1.49e+00	0	23	104	1160773632	84	24276
2026-01-10 21:57:24.52	128.84	3.87	-59.7	-75.7	3.8	1.49e+00	0	23	104	1160773632	84	24284
2026-01-10 21:57:25.53	128.94	3.82	-59.7	-75.7	3.8	1.49e+00	0	23	104	1160773632	84	24403
2026-01-10 21:57:26.53	129.03	3.77	-59.7	-75.7	3.8	1.49e+00	0	23	104	1160773632	84	24402
2026-01-10 21:57:27.53	129.13	3.72	-59.7	-75.7	3.8	1.49e+00	0	23	104	1160773632	84	24382
2026-01-10 21:57:28.52	129.22	3.67	-59.7	-75.8	3.8	1.49e+00	0	23	104	1160773632	84	24438
2026-01-10 21:57:29.53	129.32	3.61	-59.7	-75.7	3.8	1.49e+00	0	23	104	1160773632	84	24351
2026-01-10 21:57:30.53	129.42	3.56	-59.6	-75.7	3.8	1.49e+00	0	23	104	1160773632	84	24218
2026-01-10 21:57:31.52	129.51	3.51	-59.6	-75.7	3.8	1.49e+00	0	23	104	1160773632	84	24277
2026-01-10 21:57:32.52	129.60	3.46	-59.6	-75.7	3.8	1.49e+00	0	23	104	1160773632	84	24217
2026-01-10 21:57:33.52	129.70	3.41	-59.6	-75.7	3.8	1.49e+00	0	23	104	1160773632	84	24134
