passes_logs/2026/01/10/R3.2S_Murmansk/R3.2S_Murmansk__20260110_044522_NOAA_20_JPSS-1_rec.log

#Pass ID: 20260110_044522_NOAA 20 (JPSS-1)
#Satellite: NOAA 20 (JPSS-1)
#Configuration: NOAA 20
#almurnet v.1.7.20251203
#Start time: 2026-01-10 04:45:23

#Version: 2.2.20231116
#Station: R3.2S_Murmansk
#Location: 33.079688 lon 68.888172 lat
#TLE: 1 43013U 17073A   26009.26828276  .00000112  00000+0  74203-4 0  9990
#TLE: 2 43013  98.7631 310.2683 0001700  47.4387 312.6933 14.19534764421920

#Time	Az	El	Level	Level2	SNR	BER	BlckErr	Temp	State	Recorded	gain1	gain2
2026-01-10 04:45:23.52	56.26	2.09	-57.1	-73.0	3.8	1.49e+00	0	21	0	0	80	22460
2026-01-10 04:45:24.52	56.20	2.14	-57.1	-73.1	3.8	1.49e+00	0	21	104	0	79	23893
2026-01-10 04:45:25.52	56.14	2.20	-57.1	-73.1	3.8	1.49e+00	0	21	104	0	79	23891
2026-01-10 04:45:26.52	56.07	2.26	-57.1	-73.0	3.8	1.49e+00	0	21	104	0	79	23844
2026-01-10 04:45:27.52	56.01	2.31	-57.1	-73.0	3.8	1.49e+00	0	21	104	0	79	23808
2026-01-10 04:45:28.51	55.94	2.37	-57.1	-73.0	3.8	1.49e+00	0	21	104	0	79	23771
2026-01-10 04:45:29.52	55.88	2.43	-57.1	-73.0	3.8	1.49e+00	0	21	104	0	79	23787
2026-01-10 04:45:30.52	55.81	2.49	-57.0	-73.0	3.8	1.49e+00	0	21	104	0	79	23722
2026-01-10 04:45:31.52	55.75	2.54	-57.1	-73.0	3.8	1.49e+00	0	21	104	0	79	23731
2026-01-10 04:45:32.52	55.68	2.60	-57.0	-73.0	3.8	1.49e+00	0	22	104	0	79	23736
2026-01-10 04:45:33.51	55.62	2.66	-57.1	-73.0	3.8	1.49e+00	0	21	104	0	79	23816
2026-01-10 04:45:34.52	55.55	2.72	-57.1	-73.0	3.8	1.49e+00	0	22	104	0	79	23785
2026-01-10 04:45:35.52	55.48	2.77	-57.1	-73.0	3.8	1.49e+00	0	22	104	0	79	23851
2026-01-10 04:45:36.51	55.42	2.83	-57.1	-73.0	3.8	1.49e+00	0	21	104	0	79	23795
2026-01-10 04:45:37.52	55.35	2.89	-57.1	-73.0	3.8	1.49e+00	0	22	104	0	79	23823
2026-01-10 04:45:38.52	55.28	2.95	-57.1	-73.0	3.8	1.49e+00	0	22	104	0	79	23849
2026-01-10 04:45:39.52	55.21	3.01	-57.1	-73.0	3.8	1.49e+00	0	22	104	0	79	23847
2026-01-10 04:45:40.53	55.14	3.06	-57.1	-73.1	3.8	1.49e+00	0	22	104	0	79	23915
2026-01-10 04:45:41.53	55.08	3.12	-57.1	-73.1	3.8	1.49e+00	0	22	104	0	79	23873
2026-01-10 04:45:42.53	55.01	3.18	-57.0	-73.1	3.8	1.49e+00	0	22	104	0	79	23865
2026-01-10 04:45:43.53	54.94	3.24	-57.1	-73.1	3.8	1.49e+00	0	22	104	0	79	23895
2026-01-10 04:45:44.54	54.87	3.30	-57.1	-73.1	3.8	1.49e+00	0	22	104	0	79	23866
2026-01-10 04:45:45.54	54.80	3.36	-57.1	-73.0	3.8	1.49e+00	0	22	104	0	79	23790
2026-01-10 04:45:46.53	54.73	3.41	-57.1	-73.0	3.8	1.49e+00	0	22	104	0	79	23751
2026-01-10 04:45:47.53	54.66	3.47	-57.1	-73.0	3.8	1.49e+00	0	22	104	0	79	23703
2026-01-10 04:45:48.53	54.59	3.53	-57.1	-73.0	3.8	1.49e+00	0	22	104	0	79	23730
2026-01-10 04:45:49.53	54.52	3.59	-57.0	-73.0	3.8	1.49e+00	0	22	104	0	79	23814
2026-01-10 04:45:50.54	54.45	3.65	-57.1	-73.0	3.8	1.49e+00	0	22	104	0	79	23841
2026-01-10 04:45:51.54	54.38	3.71	-57.1	-73.0	3.8	1.49e+00	0	22	104	0	79	23834
2026-01-10 04:45:52.54	54.30	3.77	-57.1	-73.0	3.8	1.49e+00	0	22	104	0	79	23797
2026-01-10 04:45:53.54	54.23	3.83	-57.1	-73.0	3.8	1.49e+00	0	22	104	0	79	23760
2026-01-10 04:45:54.54	54.16	3.89	-57.1	-73.0	3.8	1.49e+00	0	22	104	0	79	23747
2026-01-10 04:45:55.55	54.09	3.95	-57.1	-73.0	3.8	1.49e+00	0	22	104	0	79	23718
2026-01-10 04:45:56.55	54.01	4.01	-57.1	-73.0	3.8	1.49e+00	0	22	104	0	79	23732
2026-01-10 04:45:57.55	53.94	4.07	-57.1	-73.1	3.8	1.49e+00	0	22	104	0	79	23892
2026-01-10 04:45:58.55	53.87	4.13	-57.1	-73.1	3.8	1.49e+00	0	22	104	0	79	23875
2026-01-10 04:45:59.56	53.79	4.19	-57.1	-73.0	3.8	1.49e+00	0	22	104	0	79	23700
2026-01-10 04:46:00.56	53.72	4.25	-57.1	-72.7	3.8	1.49e+00	0	22	104	0	79	22872
2026-01-10 04:46:01.56	53.64	4.31	-57.0	-72.2	3.8	1.49e+00	0	22	104	0	79	21722
2026-01-10 04:46:02.56	53.57	4.37	-57.0	-71.7	3.8	1.49e+00	0	22	104	0	79	20419
2026-01-10 04:46:03.56	53.49	4.43	-57.0	-71.0	3.8	1.49e+00	0	22	104	0	79	18872
2026-01-10 04:46:04.56	53.42	4.49	-56.9	-70.3	3.9	1.47e+00	0	22	104	0	79	17440
2026-01-10 04:46:05.55	53.34	4.55	-56.9	-69.5	4.2	1.43e+00	0	22	0	0	79	15901
2026-01-10 04:46:06.55	53.27	4.61	-56.9	-68.8	4.4	1.29e+00	76	22	0	0	79	14620
2026-01-10 04:46:07.56	53.19	4.67	-56.8	-68.0	4.7	9.13e-01	0	22	0	2097152	79	13377
2026-01-10 04:46:08.56	53.11	4.73	-56.7	-67.1	5.1	7.64e-01	0	22	0	4194304	79	12053
2026-01-10 04:46:09.56	53.04	4.79	-56.7	-66.4	5.5	4.86e-01	0	22	0	6291456	79	11101
2026-01-10 04:46:10.56	52.96	4.85	-56.6	-65.6	6.1	3.26e-01	0	22	0	7340032	79	10161
2026-01-10 04:46:11.56	52.88	4.91	-56.5	-65.4	6.2	2.51e-01	0	22	0	9437184	79	9936
2026-01-10 04:46:12.56	52.80	4.97	-56.5	-65.2	6.4	2.32e-01	0	22	0	11534336	79	9650
2026-01-10 04:46:13.56	52.73	5.03	-56.5	-65.0	6.6	1.78e-01	0	22	0	13631488	79	9439
2026-01-10 04:46:14.55	52.65	5.09	-56.1	-62.6	8.6	1.81e-01	0	22	0	15728640	78	7619
2026-01-10 04:46:15.55	52.57	5.15	-55.3	-60.1	10.9	9.35e-03	0	22	0	16777216	77	6021
2026-01-10 04:46:16.55	52.49	5.21	-56.6	-65.6	6.4	2.70e-02	0	22	0	18874368	78	10715
2026-01-10 04:46:17.54	52.41	5.28	-56.5	-64.8	6.6	1.29e+00	0	22	0	19922944	79	9193
2026-01-10 04:46:18.54	52.33	5.34	-55.0	-59.2	11.6	6.14e-02	0	22	0	20971520	76	5779
2026-01-10 04:46:19.54	52.25	5.40	-55.2	-59.8	11.1	1.73e-03	0	23	0	23068672	76	6182
2026-01-10 04:46:20.54	52.17	5.46	-54.9	-59.1	11.7	6.71e-05	0	22	0	25165824	76	5693
2026-01-10 04:46:21.54	52.09	5.52	-54.4	-58.3	12.3	1.75e-05	0	22	0	27262976	75	5478
2026-01-10 04:46:22.53	52.01	5.58	-54.2	-57.7	12.8	0.00e+00	0	22	0	29360128	75	5124
2026-01-10 04:46:23.54	51.93	5.64	-54.0	-57.3	13.0	0.00e+00	0	22	0	30408704	74	5161
2026-01-10 04:46:24.54	51.84	5.71	-54.0	-57.3	13.0	0.00e+00	0	22	0	32505856	74	5184
2026-01-10 04:46:25.54	51.76	5.77	-53.9	-57.2	13.0	7.00e-07	0	23	0	34603008	74	5151
2026-01-10 04:46:26.53	51.68	5.83	-53.9	-57.1	13.1	0.00e+00	0	22	0	36700160	74	5095
2026-01-10 04:46:27.54	51.59	5.89	-54.0	-57.3	13.0	7.00e-07	0	22	0	37748736	74	5192
2026-01-10 04:46:28.54	51.51	5.96	-53.8	-57.0	13.3	0.00e+00	0	23	0	39845888	74	4993
2026-01-10 04:46:29.54	51.43	6.02	-53.8	-57.0	13.2	0.00e+00	0	22	0	41943040	74	5010
2026-01-10 04:46:30.55	51.34	6.08	-53.8	-56.9	13.3	0.00e+00	0	22	0	44040192	74	4947
2026-01-10 04:46:31.54	51.26	6.14	-53.8	-56.9	13.3	0.00e+00	0	22	0	46137344	74	4980
2026-01-10 04:46:32.54	51.17	6.21	-53.7	-56.8	13.4	0.00e+00	0	23	0	47185920	74	4917
2026-01-10 04:46:33.53	51.09	6.27	-53.8	-56.9	13.3	0.00e+00	0	22	0	49283072	74	4950
2026-01-10 04:46:34.52	51.00	6.33	-53.8	-56.9	13.3	0.00e+00	0	23	0	51380224	74	4939
2026-01-10 04:46:35.53	50.92	6.39	-53.7	-56.8	13.4	0.00e+00	0	23	0	53477376	74	4906
2026-01-10 04:46:36.53	50.83	6.46	-53.8	-56.8	13.4	0.00e+00	0	22	0	55574528	74	4902
2026-01-10 04:46:37.53	50.74	6.52	-53.6	-56.6	13.4	0.00e+00	0	23	0	56623104	73	5067
2026-01-10 04:46:38.53	50.65	6.58	-53.7	-56.7	13.3	0.00e+00	0	22	0	58720256	73	5127
2026-01-10 04:46:39.53	50.57	6.65	-53.7	-56.7	13.4	0.00e+00	0	23	0	60817408	73	5118
2026-01-10 04:46:40.53	50.48	6.71	-53.8	-56.9	13.2	0.00e+00	0	22	0	62914560	73	5229
2026-01-10 04:46:41.54	50.39	6.77	-53.7	-56.8	13.3	0.00e+00	0	23	0	63963136	73	5171
2026-01-10 04:46:42.55	50.30	6.84	-53.7	-56.8	13.3	0.00e+00	0	23	0	66060288	73	5179
2026-01-10 04:46:43.54	50.21	6.90	-53.8	-56.9	13.2	0.00e+00	0	23	0	68157440	73	5257
2026-01-10 04:46:44.55	50.12	6.96	-53.6	-56.6	13.4	0.00e+00	0	22	0	70254592	73	5082
2026-01-10 04:46:45.55	50.03	7.03	-53.7	-56.7	13.3	0.00e+00	0	23	0	72351744	73	5138
2026-01-10 04:46:46.55	49.94	7.09	-53.8	-56.9	13.3	0.00e+00	0	23	0	73400320	73	5227
2026-01-10 04:46:47.55	49.85	7.16	-53.7	-56.8	13.3	7.00e-07	0	23	0	75497472	73	5166
2026-01-10 04:46:48.55	49.75	7.22	-53.7	-56.8	13.3	0.00e+00	0	23	0	77594624	73	5167
2026-01-10 04:46:49.55	49.66	7.28	-53.7	-56.7	13.4	0.00e+00	0	23	0	79691776	73	5140
2026-01-10 04:46:50.55	49.57	7.35	-53.8	-56.9	13.2	0.00e+00	0	23	0	81788928	73	5254
2026-01-10 04:46:51.55	49.48	7.41	-53.7	-56.7	13.4	0.00e+00	0	23	0	82837504	73	5132
2026-01-10 04:46:52.55	49.38	7.48	-53.7	-56.8	13.4	0.00e+00	0	23	0	84934656	73	5160
2026-01-10 04:46:53.55	49.29	7.54	-53.7	-56.7	13.4	0.00e+00	0	23	0	87031808	73	5122
2026-01-10 04:46:54.55	49.20	7.61	-53.7	-56.7	13.4	0.00e+00	0	22	0	89128960	73	5135
2026-01-10 04:46:55.54	49.10	7.67	-53.7	-56.7	13.4	0.00e+00	0	23	0	91226112	73	5115
2026-01-10 04:46:56.55	49.01	7.74	-53.8	-56.8	13.3	0.00e+00	0	23	0	92274688	73	5180
2026-01-10 04:46:57.55	48.91	7.80	-53.8	-56.8	13.3	0.00e+00	0	23	0	94371840	73	5193
2026-01-10 04:46:58.55	48.82	7.87	-53.6	-56.6	13.5	0.00e+00	0	23	0	96468992	73	5047
2026-01-10 04:46:59.55	48.72	7.93	-53.7	-56.6	13.4	0.00e+00	0	23	0	98566144	73	5096
2026-01-10 04:47:00.56	48.62	8.00	-53.5	-56.3	13.7	0.00e+00	0	23	0	99614720	73	4922
2026-01-10 04:47:01.56	48.52	8.06	-53.5	-56.4	13.6	0.00e+00	0	23	0	101711872	73	4957
2026-01-10 04:47:02.56	48.43	8.13	-53.6	-56.5	13.5	0.00e+00	0	22	0	103809024	73	5031
2026-01-10 04:47:03.57	48.33	8.19	-53.6	-56.5	13.5	0.00e+00	0	23	0	105906176	73	5024
2026-01-10 04:47:04.56	48.23	8.26	-53.6	-56.4	13.6	0.00e+00	0	23	0	108003328	73	4951
2026-01-10 04:47:05.57	48.13	8.33	-53.4	-56.2	13.8	0.00e+00	0	23	0	109051904	73	4820
2026-01-10 04:47:06.57	48.03	8.39	-53.4	-56.1	13.9	0.00e+00	0	23	0	111149056	73	4762
2026-01-10 04:47:07.57	47.93	8.46	-53.5	-56.2	13.8	0.00e+00	0	23	0	113246208	73	4849
2026-01-10 04:47:08.56	47.83	8.52	-53.4	-56.2	13.8	0.00e+00	0	23	0	115343360	73	4818
2026-01-10 04:47:09.56	47.73	8.59	-53.4	-56.1	13.9	0.00e+00	0	23	0	117440512	73	4795
2026-01-10 04:47:10.56	47.63	8.65	-53.3	-55.9	14.0	0.00e+00	0	23	0	118489088	73	4694
2026-01-10 04:47:11.56	47.53	8.72	-53.3	-56.0	14.0	0.00e+00	0	23	0	120586240	73	4727
2026-01-10 04:47:12.56	47.42	8.79	-53.3	-55.9	14.0	0.00e+00	0	23	0	122683392	73	4674
2026-01-10 04:47:13.55	47.32	8.85	-53.3	-55.9	14.0	0.00e+00	0	23	0	124780544	73	4703
2026-01-10 04:47:14.55	47.22	8.92	-53.3	-56.0	14.0	0.00e+00	0	23	0	126877696	73	4715
2026-01-10 04:47:15.55	47.12	8.98	-53.2	-55.8	14.1	0.00e+00	0	23	0	127926272	73	4643
2026-01-10 04:47:16.55	47.01	9.05	-53.3	-55.9	14.0	0.00e+00	0	23	0	130023424	73	4700
2026-01-10 04:47:17.55	46.91	9.12	-53.3	-56.0	14.0	0.00e+00	0	23	0	132120576	73	4710
2026-01-10 04:47:18.54	46.80	9.18	-53.2	-55.8	14.1	0.00e+00	0	23	0	134217728	73	4645
2026-01-10 04:47:19.54	46.70	9.25	-53.3	-55.9	14.0	0.00e+00	0	23	0	135266304	73	4661
2026-01-10 04:47:20.54	46.59	9.32	-53.3	-55.8	14.1	0.00e+00	0	23	0	137363456	73	4647
2026-01-10 04:47:21.53	46.48	9.38	-53.3	-55.9	14.0	0.00e+00	0	23	0	139460608	73	4667
2026-01-10 04:47:22.53	46.38	9.45	-53.3	-56.0	13.9	0.00e+00	0	23	0	141557760	73	4726
2026-01-10 04:47:23.52	46.27	9.52	-53.3	-56.0	14.0	0.00e+00	0	23	0	143654912	73	4723
2026-01-10 04:47:24.53	46.16	9.58	-53.3	-56.0	14.0	0.00e+00	0	23	0	144703488	73	4717
2026-01-10 04:47:25.52	46.05	9.65	-53.3	-56.0	14.0	0.00e+00	0	23	0	146800640	73	4732
2026-01-10 04:47:26.51	45.95	9.72	-53.4	-56.1	13.9	0.00e+00	0	23	0	148897792	73	4761
2026-01-10 04:47:27.52	45.83	9.79	-53.4	-56.1	13.9	0.00e+00	0	23	0	150994944	73	4790
2026-01-10 04:47:28.51	45.73	9.85	-53.5	-56.2	13.9	0.00e+00	0	23	0	152043520	73	4817
2026-01-10 04:47:29.50	45.62	9.92	-53.5	-56.2	13.8	0.00e+00	0	23	0	154140672	73	4835
2026-01-10 04:47:30.49	45.51	9.99	-53.5	-56.1	13.9	0.00e+00	0	23	0	156237824	73	4814
2026-01-10 04:47:31.49	45.39	10.05	-53.4	-56.1	13.9	0.00e+00	0	23	0	158334976	73	4801
2026-01-10 04:47:32.49	45.28	10.12	-53.4	-56.1	13.9	0.00e+00	0	23	0	160432128	73	4801
2026-01-10 04:47:33.49	45.17	10.19	-53.5	-56.2	13.9	0.00e+00	0	23	0	161480704	73	4823
2026-01-10 04:47:34.48	45.06	10.26	-53.5	-56.3	13.8	0.00e+00	0	23	0	163577856	73	4891
2026-01-10 04:47:35.48	44.94	10.33	-53.6	-56.4	13.7	0.00e+00	0	23	0	165675008	73	4942
2026-01-10 04:47:36.49	44.83	10.39	-53.6	-56.4	13.7	0.00e+00	0	23	0	167772160	73	4944
2026-01-10 04:47:37.49	44.71	10.46	-53.5	-56.1	13.9	0.00e+00	0	23	0	169869312	73	4809
2026-01-10 04:47:38.49	44.60	10.53	-53.4	-56.0	14.0	0.00e+00	0	23	0	170917888	73	4731
2026-01-10 04:47:39.50	44.48	10.60	-53.3	-55.9	14.1	0.00e+00	0	23	0	173015040	73	4688
2026-01-10 04:47:40.49	44.36	10.67	-53.3	-55.9	14.1	0.00e+00	0	23	0	175112192	73	4685
2026-01-10 04:47:41.50	44.24	10.74	-53.4	-56.0	14.0	0.00e+00	0	23	0	177209344	73	4711
2026-01-10 04:47:42.49	44.13	10.80	-53.3	-55.8	14.1	0.00e+00	0	23	0	178257920	73	4644
2026-01-10 04:47:43.50	44.01	10.87	-53.3	-55.9	14.1	0.00e+00	0	23	0	180355072	73	4697
2026-01-10 04:47:44.49	43.89	10.94	-53.3	-55.9	14.1	0.00e+00	0	23	0	182452224	73	4690
2026-01-10 04:47:45.50	43.77	11.01	-53.3	-55.9	14.1	0.00e+00	0	23	0	184549376	73	4669
2026-01-10 04:47:46.50	43.65	11.08	-53.3	-55.9	14.1	0.00e+00	0	23	0	186646528	73	4688
2026-01-10 04:47:47.50	43.53	11.15	-53.2	-55.7	14.2	0.00e+00	0	23	0	187695104	73	4562
2026-01-10 04:47:48.50	43.41	11.22	-53.2	-55.7	14.1	0.00e+00	0	23	0	189792256	72	4837
2026-01-10 04:47:49.49	43.28	11.29	-53.2	-55.7	14.0	0.00e+00	0	23	0	191889408	72	4851
2026-01-10 04:47:50.49	43.16	11.36	-53.2	-55.7	14.0	0.00e+00	0	23	0	193986560	72	4839
2026-01-10 04:47:51.48	43.04	11.42	-53.3	-55.8	14.0	0.00e+00	0	23	0	196083712	72	4905
2026-01-10 04:47:52.49	42.92	11.49	-53.2	-55.7	14.1	0.00e+00	0	23	0	197132288	72	4822
2026-01-10 04:47:53.49	42.79	11.56	-52.9	-55.3	14.3	0.00e+00	0	23	0	199229440	72	4641
2026-01-10 04:47:54.49	42.67	11.63	-52.9	-55.3	14.3	0.00e+00	0	23	0	201326592	72	4637
2026-01-10 04:47:55.49	42.54	11.70	-52.9	-55.2	14.4	0.00e+00	0	23	0	203423744	72	4588
2026-01-10 04:47:56.49	42.41	11.77	-52.8	-55.1	14.4	0.00e+00	0	23	0	205520896	72	4544
2026-01-10 04:47:57.48	42.29	11.84	-52.8	-55.1	14.5	0.00e+00	0	23	0	206569472	72	4497
2026-01-10 04:47:58.49	42.16	11.91	-52.8	-55.1	14.5	0.00e+00	0	23	0	208666624	72	4511
2026-01-10 04:47:59.49	42.03	11.98	-52.9	-55.2	14.4	0.00e+00	0	23	0	210763776	72	4562
2026-01-10 04:48:00.49	41.90	12.05	-52.8	-55.2	14.4	0.00e+00	0	23	0	212860928	72	4550
2026-01-10 04:48:01.49	41.77	12.12	-52.9	-55.2	14.4	0.00e+00	0	23	0	213909504	72	4593
2026-01-10 04:48:02.50	41.64	12.19	-52.9	-55.2	14.4	0.00e+00	0	23	0	216006656	72	4593
2026-01-10 04:48:03.50	41.51	12.26	-52.9	-55.2	14.4	0.00e+00	0	23	0	218103808	72	4582
2026-01-10 04:48:04.51	41.38	12.33	-52.9	-55.2	14.4	0.00e+00	0	23	0	220200960	72	4585
2026-01-10 04:48:05.51	41.25	12.40	-52.8	-55.1	14.5	0.00e+00	0	23	0	222298112	72	4534
2026-01-10 04:48:06.51	41.12	12.47	-52.8	-55.1	14.5	0.00e+00	0	23	0	223346688	72	4513
2026-01-10 04:48:07.51	40.98	12.54	-52.8	-55.1	14.4	0.00e+00	0	23	0	225443840	72	4541
2026-01-10 04:48:08.52	40.85	12.61	-52.8	-55.1	14.5	0.00e+00	0	23	0	227540992	72	4537
2026-01-10 04:48:09.52	40.71	12.68	-52.8	-55.2	14.4	0.00e+00	0	23	0	229638144	72	4546
2026-01-10 04:48:10.51	40.58	12.75	-52.9	-55.2	14.4	0.00e+00	0	23	0	231735296	72	4553
2026-01-10 04:48:11.52	40.44	12.82	-52.6	-54.8	14.5	0.00e+00	0	23	0	232783872	71	4633
2026-01-10 04:48:12.51	40.31	12.89	-52.5	-54.8	14.5	0.00e+00	0	23	0	234881024	71	4599
2026-01-10 04:48:13.51	40.17	12.96	-52.6	-54.8	14.5	0.00e+00	0	23	0	236978176	71	4614
2026-01-10 04:48:14.51	40.03	13.03	-52.6	-54.8	14.5	0.00e+00	0	23	0	239075328	71	4639
2026-01-10 04:48:15.51	39.89	13.10	-52.6	-54.8	14.5	0.00e+00	0	23	0	240123904	71	4629
2026-01-10 04:48:16.51	39.75	13.17	-52.4	-54.6	14.6	0.00e+00	0	23	0	242221056	71	4500
2026-01-10 04:48:17.50	39.62	13.24	-52.4	-54.5	14.7	0.00e+00	0	23	0	244318208	71	4479
2026-01-10 04:48:18.50	39.48	13.31	-52.3	-54.4	14.7	0.00e+00	0	23	0	246415360	71	4438
2026-01-10 04:48:19.49	39.34	13.38	-52.4	-54.5	14.7	0.00e+00	0	23	0	248512512	71	4450
2026-01-10 04:48:20.49	39.19	13.45	-52.4	-54.6	14.7	0.00e+00	0	23	0	249561088	71	4499
2026-01-10 04:48:21.48	39.05	13.52	-52.4	-54.5	14.7	0.00e+00	0	23	0	251658240	71	4478
2026-01-10 04:48:22.49	38.91	13.60	-52.2	-54.3	14.8	0.00e+00	0	23	0	253755392	71	4380
2026-01-10 04:48:23.48	38.77	13.67	-52.3	-54.4	14.8	0.00e+00	0	23	0	255852544	71	4414
2026-01-10 04:48:24.48	38.62	13.74	-52.4	-54.5	14.7	0.00e+00	0	23	0	257949696	71	4456
2026-01-10 04:48:25.48	38.48	13.81	-52.2	-54.3	14.8	0.00e+00	0	23	0	258998272	71	4376
2026-01-10 04:48:26.47	38.33	13.88	-52.3	-54.4	14.8	0.00e+00	0	23	0	261095424	71	4423
2026-01-10 04:48:27.46	38.19	13.95	-52.4	-54.5	14.7	0.00e+00	0	23	0	263192576	71	4459
2026-01-10 04:48:28.47	38.04	14.02	-52.4	-54.5	14.7	0.00e+00	0	23	0	265289728	71	4483
2026-01-10 04:48:29.46	37.89	14.09	-52.4	-54.6	14.7	0.00e+00	0	23	0	266338304	71	4496
2026-01-10 04:48:30.46	37.74	14.16	-52.4	-54.5	14.7	0.00e+00	0	23	0	268435456	71	4460
2026-01-10 04:48:31.45	37.59	14.23	-52.5	-54.7	14.6	0.00e+00	0	23	0	270532608	71	4576
2026-01-10 04:48:32.46	37.44	14.30	-52.5	-54.7	14.6	0.00e+00	0	23	0	272629760	71	4574
2026-01-10 04:48:33.45	37.29	14.37	-52.4	-54.6	14.7	0.00e+00	0	23	0	274726912	71	4514
2026-01-10 04:48:34.45	37.14	14.44	-52.5	-54.7	14.6	0.00e+00	0	23	0	275775488	71	4578
2026-01-10 04:48:35.46	36.99	14.51	-52.6	-54.8	14.5	0.00e+00	0	23	0	277872640	71	4610
2026-01-10 04:48:36.45	36.83	14.58	-52.7	-54.9	14.5	0.00e+00	0	23	0	279969792	71	4672
2026-01-10 04:48:37.45	36.68	14.65	-52.6	-54.8	14.5	0.00e+00	0	23	0	282066944	71	4635
2026-01-10 04:48:38.46	36.52	14.72	-52.6	-54.8	14.5	0.00e+00	0	23	0	284164096	71	4616
2026-01-10 04:48:39.46	36.37	14.80	-52.6	-54.9	14.5	0.00e+00	0	23	0	285212672	71	4652
2026-01-10 04:48:40.47	36.21	14.87	-52.7	-54.9	14.4	0.00e+00	0	23	0	287309824	71	4689
2026-01-10 04:48:41.47	36.05	14.94	-52.7	-55.0	14.4	0.00e+00	0	23	0	289406976	71	4724
2026-01-10 04:48:42.47	35.90	15.01	-52.7	-55.0	14.4	0.00e+00	0	23	0	291504128	71	4723
2026-01-10 04:48:43.47	35.74	15.08	-52.8	-55.1	14.3	0.00e+00	0	23	0	292552704	71	4789
2026-01-10 04:48:44.47	35.58	15.15	-52.8	-55.1	14.3	0.00e+00	0	23	0	294649856	71	4800
2026-01-10 04:48:45.47	35.42	15.22	-52.8	-55.1	14.3	0.00e+00	0	23	0	296747008	71	4814
2026-01-10 04:48:46.47	35.26	15.29	-52.9	-55.2	14.3	0.00e+00	0	23	0	298844160	71	4849
2026-01-10 04:48:47.47	35.10	15.36	-52.9	-55.3	14.2	0.00e+00	0	23	0	300941312	71	4893
2026-01-10 04:48:48.46	34.94	15.43	-53.0	-55.3	14.2	0.00e+00	0	23	0	301989888	71	4921
2026-01-10 04:48:49.46	34.77	15.50	-53.0	-55.3	14.2	0.00e+00	0	23	0	304087040	71	4923
2026-01-10 04:48:50.46	34.61	15.57	-52.9	-55.3	14.2	0.00e+00	0	23	0	306184192	71	4886
2026-01-10 04:48:51.46	34.44	15.64	-52.9	-55.2	14.3	0.00e+00	0	23	0	308281344	71	4850
2026-01-10 04:48:52.46	34.28	15.71	-52.8	-55.1	14.3	0.00e+00	0	23	0	310378496	71	4793
2026-01-10 04:48:53.46	34.11	15.78	-52.9	-55.2	14.3	0.00e+00	0	23	0	311427072	71	4862
2026-01-10 04:48:54.47	33.94	15.85	-52.9	-55.2	14.3	0.00e+00	0	23	0	313524224	71	4827
2026-01-10 04:48:55.46	33.78	15.92	-52.9	-55.2	14.3	0.00e+00	0	23	0	315621376	71	4836
2026-01-10 04:48:56.46	33.61	15.99	-53.0	-55.3	14.2	0.00e+00	0	23	0	317718528	71	4902
2026-01-10 04:48:57.47	33.44	16.07	-53.0	-55.3	14.2	0.00e+00	0	23	0	319815680	71	4883
2026-01-10 04:48:58.46	33.27	16.13	-52.9	-55.3	14.2	0.00e+00	0	23	0	320864256	71	4882
2026-01-10 04:48:59.46	33.10	16.20	-53.0	-55.3	14.2	0.00e+00	0	23	0	322961408	71	4900
2026-01-10 04:49:00.46	32.92	16.27	-53.0	-55.4	14.2	0.00e+00	0	23	0	325058560	71	4955
2026-01-10 04:49:01.45	32.75	16.34	-53.0	-55.4	14.2	0.00e+00	0	23	0	327155712	71	4941
2026-01-10 04:49:02.46	32.58	16.41	-53.0	-55.4	14.2	0.00e+00	0	23	0	328204288	71	4929
2026-01-10 04:49:03.46	32.40	16.48	-53.0	-55.3	14.2	0.00e+00	0	23	0	330301440	71	4902
2026-01-10 04:49:04.46	32.23	16.55	-53.0	-55.3	14.3	0.00e+00	0	23	0	332398592	71	4881
2026-01-10 04:49:05.47	32.05	16.62	-53.0	-55.4	14.2	0.00e+00	0	23	0	334495744	71	4947
2026-01-10 04:49:06.47	31.87	16.69	-53.1	-55.4	14.2	0.00e+00	0	23	0	336592896	71	4976
2026-01-10 04:49:07.47	31.70	16.76	-53.0	-55.3	14.2	0.00e+00	0	23	0	337641472	71	4913
2026-01-10 04:49:08.47	31.52	16.83	-53.1	-55.4	14.1	0.00e+00	0	23	0	339738624	71	4981
2026-01-10 04:49:09.47	31.34	16.90	-53.0	-55.3	14.2	0.00e+00	0	23	0	341835776	71	4899
2026-01-10 04:49:10.47	31.16	16.97	-53.0	-55.3	14.2	0.00e+00	0	23	0	343932928	71	4880
2026-01-10 04:49:11.47	30.98	17.04	-53.0	-55.3	14.2	0.00e+00	0	23	0	346030080	71	4920
2026-01-10 04:49:12.47	30.79	17.11	-53.0	-55.3	14.3	0.00e+00	0	23	0	347078656	71	4887
2026-01-10 04:49:13.48	30.61	17.18	-53.0	-55.4	14.2	0.00e+00	0	23	0	349175808	71	4932
2026-01-10 04:49:14.48	30.43	17.25	-53.0	-55.3	14.3	0.00e+00	0	23	0	351272960	71	4883
2026-01-10 04:49:15.48	30.24	17.32	-52.9	-55.2	14.3	0.00e+00	0	23	0	353370112	71	4868
2026-01-10 04:49:16.48	30.06	17.39	-52.8	-55.0	14.4	0.00e+00	0	23	0	355467264	71	4748
2026-01-10 04:49:17.48	29.87	17.45	-52.8	-55.0	14.4	0.00e+00	0	23	0	356515840	71	4737
2026-01-10 04:49:18.47	29.68	17.52	-52.9	-55.1	14.4	0.00e+00	0	23	0	358612992	71	4796
2026-01-10 04:49:19.47	29.50	17.59	-52.8	-55.1	14.4	0.00e+00	0	23	0	360710144	71	4763
2026-01-10 04:49:20.47	29.31	17.66	-52.7	-54.9	14.5	0.00e+00	0	23	0	362807296	71	4694
2026-01-10 04:49:21.47	29.12	17.73	-52.7	-54.9	14.5	0.00e+00	0	23	0	363855872	71	4675
2026-01-10 04:49:22.47	28.93	17.79	-52.7	-55.0	14.5	0.00e+00	0	23	0	365953024	71	4707
2026-01-10 04:49:23.46	28.74	17.86	-52.6	-54.8	14.6	0.00e+00	0	23	0	368050176	71	4612
2026-01-10 04:49:24.46	28.55	17.93	-52.5	-54.6	14.6	0.00e+00	0	23	0	370147328	71	4538
2026-01-10 04:49:25.46	28.35	18.00	-52.3	-54.4	14.8	0.00e+00	0	23	0	372244480	71	4408
2026-01-10 04:49:26.46	28.16	18.06	-52.3	-54.3	14.9	0.00e+00	0	23	0	373293056	71	4372
2026-01-10 04:49:27.47	27.96	18.13	-52.3	-54.3	14.8	0.00e+00	0	23	0	375390208	71	4379
2026-01-10 04:49:28.46	27.77	18.20	-52.3	-54.3	14.9	0.00e+00	0	23	0	377487360	71	4348
2026-01-10 04:49:29.46	27.57	18.26	-52.1	-54.0	14.8	0.00e+00	0	23	0	379584512	70	4481
2026-01-10 04:49:30.46	27.37	18.33	-51.8	-53.7	15.0	0.00e+00	0	23	0	381681664	70	4314
2026-01-10 04:49:31.45	27.18	18.39	-51.6	-53.4	15.1	0.00e+00	0	23	0	382730240	69	4407
2026-01-10 04:49:32.46	26.98	18.46	-51.5	-53.3	15.1	0.00e+00	0	23	0	384827392	69	4384
2026-01-10 04:49:33.46	26.78	18.53	-51.6	-53.4	15.1	0.00e+00	0	23	0	386924544	69	4411
2026-01-10 04:49:34.45	26.58	18.59	-51.4	-53.1	15.2	0.00e+00	0	23	0	389021696	69	4284
2026-01-10 04:49:35.45	26.38	18.66	-51.4	-53.2	15.2	0.00e+00	0	23	0	390070272	69	4294
2026-01-10 04:49:36.45	26.17	18.72	-51.3	-53.1	15.2	0.00e+00	0	23	0	392167424	69	4261
2026-01-10 04:49:37.45	25.97	18.79	-51.3	-53.0	15.3	0.00e+00	0	23	0	394264576	69	4214
2026-01-10 04:49:38.45	25.77	18.85	-51.2	-53.0	15.3	0.00e+00	0	23	0	396361728	69	4213
2026-01-10 04:49:39.45	25.56	18.92	-51.1	-52.9	15.1	0.00e+00	0	23	0	398458880	68	4406
2026-01-10 04:49:40.45	25.35	18.98	-51.1	-52.8	15.2	0.00e+00	0	23	0	399507456	68	4380
2026-01-10 04:49:41.44	25.15	19.05	-51.0	-52.8	15.2	0.00e+00	0	23	0	401604608	68	4346
2026-01-10 04:49:42.44	24.94	19.11	-51.1	-52.8	15.2	0.00e+00	0	23	0	403701760	68	4386
2026-01-10 04:49:43.44	24.73	19.17	-51.1	-52.8	15.2	0.00e+00	0	23	0	405798912	68	4382
2026-01-10 04:49:44.44	24.52	19.24	-50.9	-52.6	15.3	0.00e+00	0	23	0	407896064	68	4261
2026-01-10 04:49:45.45	24.31	19.30	-50.9	-52.5	15.3	0.00e+00	0	23	0	408944640	68	4229
2026-01-10 04:49:46.45	24.10	19.37	-50.9	-52.5	15.4	0.00e+00	0	23	0	411041792	68	4241
2026-01-10 04:49:47.45	23.88	19.43	-50.9	-52.5	15.4	0.00e+00	0	23	0	413138944	68	4226
2026-01-10 04:49:48.46	23.67	19.49	-50.9	-52.6	15.3	0.00e+00	0	23	0	415236096	68	4278
2026-01-10 04:49:49.46	23.45	19.55	-50.9	-52.6	15.3	0.00e+00	0	23	0	416284672	68	4271
2026-01-10 04:49:50.47	23.24	19.62	-50.8	-52.5	15.4	0.00e+00	0	23	0	418381824	68	4218
2026-01-10 04:49:51.47	23.02	19.68	-50.8	-52.5	15.4	0.00e+00	0	23	0	420478976	68	4213
2026-01-10 04:49:52.47	22.80	19.74	-50.8	-52.5	15.4	0.00e+00	0	23	0	422576128	68	4212
2026-01-10 04:49:53.47	22.59	19.80	-50.8	-52.4	15.4	0.00e+00	0	23	0	424673280	68	4175
2026-01-10 04:49:54.47	22.37	19.86	-50.7	-52.3	15.5	0.00e+00	0	23	0	426770432	68	4140
2026-01-10 04:49:55.47	22.15	19.92	-50.5	-52.1	15.4	0.00e+00	0	23	0	427819008	67	4275
2026-01-10 04:49:56.47	21.93	19.98	-50.5	-52.1	15.3	0.00e+00	0	23	0	429916160	67	4289
2026-01-10 04:49:57.48	21.70	20.04	-50.5	-52.1	15.4	0.00e+00	0	23	0	432013312	67	4250
2026-01-10 04:49:58.47	21.48	20.10	-50.5	-52.1	15.4	0.00e+00	0	23	0	434110464	67	4250
2026-01-10 04:49:59.47	21.26	20.16	-50.6	-52.2	15.3	0.00e+00	0	23	0	435159040	67	4305
2026-01-10 04:50:00.47	21.04	20.22	-50.6	-52.2	15.3	0.00e+00	0	23	0	437256192	67	4326
2026-01-10 04:50:01.48	20.81	20.28	-50.5	-52.2	15.3	0.00e+00	0	23	0	439353344	67	4298
2026-01-10 04:50:02.48	20.59	20.34	-50.6	-52.3	15.3	0.00e+00	0	23	0	441450496	67	4356
2026-01-10 04:50:03.49	20.36	20.40	-50.7	-52.4	15.2	0.00e+00	0	23	0	443547648	67	4411
2026-01-10 04:50:04.48	20.13	20.46	-50.6	-52.3	15.3	0.00e+00	0	23	0	444596224	67	4360
2026-01-10 04:50:05.48	19.90	20.51	-50.7	-52.3	15.3	0.00e+00	0	23	0	446693376	67	4364
2026-01-10 04:50:06.48	19.67	20.57	-50.8	-52.5	15.1	0.00e+00	0	23	0	448790528	67	4486
2026-01-10 04:50:07.47	19.45	20.63	-50.9	-52.6	15.1	0.00e+00	0	23	0	450887680	67	4506
2026-01-10 04:50:08.47	19.22	20.68	-50.7	-52.4	15.2	0.00e+00	0	23	0	452984832	67	4401
2026-01-10 04:50:09.48	18.98	20.74	-50.6	-52.3	15.3	0.00e+00	0	23	0	454033408	67	4354
2026-01-10 04:50:10.48	18.75	20.79	-50.7	-52.3	15.3	0.00e+00	0	23	0	456130560	67	4376
2026-01-10 04:50:11.47	18.52	20.85	-50.6	-52.3	15.3	0.00e+00	0	23	0	458227712	67	4354
2026-01-10 04:50:12.47	18.28	20.90	-50.7	-52.4	15.2	0.00e+00	0	23	0	460324864	67	4417
2026-01-10 04:50:13.48	18.05	20.96	-50.8	-52.5	15.2	0.00e+00	0	23	0	461373440	67	4473
2026-01-10 04:50:14.47	17.81	21.01	-50.7	-52.4	15.2	0.00e+00	0	23	0	463470592	67	4395
2026-01-10 04:50:15.47	17.58	21.07	-50.6	-52.2	15.3	0.00e+00	0	23	0	465567744	67	4337
2026-01-10 04:50:16.47	17.34	21.12	-50.6	-52.3	15.3	0.00e+00	0	23	0	467664896	67	4355
2026-01-10 04:50:17.46	17.10	21.17	-50.6	-52.2	15.3	0.00e+00	0	23	0	469762048	67	4323
2026-01-10 04:50:18.46	16.86	21.22	-50.7	-52.3	15.2	0.00e+00	0	23	0	470810624	67	4365
2026-01-10 04:50:19.46	16.62	21.28	-50.6	-52.2	15.3	0.00e+00	0	23	0	472907776	67	4321
2026-01-10 04:50:20.45	16.38	21.33	-50.4	-52.0	15.4	0.00e+00	0	23	0	475004928	67	4205
2026-01-10 04:50:21.45	16.14	21.38	-50.3	-51.9	15.5	0.00e+00	0	23	0	477102080	67	4156
2026-01-10 04:50:22.45	15.90	21.43	-50.2	-51.8	15.6	0.00e+00	0	23	0	478150656	67	4100
2026-01-10 04:50:23.44	15.66	21.48	-50.0	-51.5	15.5	0.00e+00	0	23	0	480247808	66	4239
2026-01-10 04:50:24.44	15.42	21.53	-50.0	-51.5	15.5	0.00e+00	0	23	0	482344960	66	4240
2026-01-10 04:50:25.43	15.17	21.58	-50.2	-51.7	15.4	0.00e+00	0	23	0	484442112	66	4315
2026-01-10 04:50:26.43	14.93	21.63	-50.2	-51.7	15.4	0.00e+00	0	23	0	486539264	66	4327
2026-01-10 04:50:27.42	14.68	21.67	-50.2	-51.7	15.4	0.00e+00	0	23	0	487587840	66	4335
2026-01-10 04:50:28.43	14.43	21.72	-50.2	-51.7	15.4	0.00e+00	0	23	0	489684992	66	4334
2026-01-10 04:50:29.42	14.19	21.77	-50.2	-51.7	15.4	0.00e+00	0	23	0	491782144	66	4337
2026-01-10 04:50:30.43	13.94	21.82	-50.2	-51.8	15.4	0.00e+00	0	23	0	493879296	66	4343
2026-01-10 04:50:31.42	13.69	21.86	-50.1	-51.6	15.4	0.00e+00	0	23	0	495976448	66	4277
2026-01-10 04:50:32.43	13.44	21.91	-50.1	-51.6	15.4	0.00e+00	0	23	0	497025024	66	4286
2026-01-10 04:50:33.43	13.19	21.95	-50.0	-51.5	15.5	0.00e+00	0	23	0	499122176	66	4203
2026-01-10 04:50:34.42	12.94	22.00	-50.0	-51.5	15.5	0.00e+00	0	23	0	501219328	66	4226
2026-01-10 04:50:35.41	12.69	22.04	-49.9	-51.4	15.6	0.00e+00	0	23	0	503316480	66	4168
2026-01-10 04:50:36.41	12.44	22.09	-50.0	-51.5	15.5	0.00e+00	0	23	0	504365056	66	4236
2026-01-10 04:50:37.42	12.18	22.13	-50.1	-51.7	15.4	0.00e+00	0	23	0	506462208	66	4306
2026-01-10 04:50:38.42	11.92	22.17	-50.0	-51.5	15.5	0.00e+00	0	23	0	508559360	66	4236
2026-01-10 04:50:39.42	11.67	22.22	-50.0	-51.5	15.5	0.00e+00	0	23	0	510656512	66	4210
2026-01-10 04:50:40.43	11.41	22.26	-50.0	-51.5	15.5	0.00e+00	0	23	0	512753664	66	4214
2026-01-10 04:50:41.43	11.15	22.30	-50.0	-51.6	15.5	0.00e+00	0	23	0	513802240	66	4244
2026-01-10 04:50:42.44	10.89	22.34	-50.2	-51.7	15.4	0.00e+00	0	23	0	515899392	66	4312
2026-01-10 04:50:43.44	10.64	22.38	-50.3	-51.9	15.3	0.00e+00	0	23	0	517996544	66	4426
2026-01-10 04:50:44.44	10.38	22.42	-50.4	-52.0	15.3	0.00e+00	0	23	0	520093696	66	4489
2026-01-10 04:50:45.44	10.12	22.46	-50.4	-52.0	15.3	0.00e+00	0	23	0	522190848	66	4466
2026-01-10 04:50:46.44	9.86	22.50	-50.3	-51.9	15.3	0.00e+00	0	23	0	523239424	66	4435
2026-01-10 04:50:47.43	9.60	22.53	-50.3	-51.9	15.3	0.00e+00	0	23	0	525336576	66	4421
2026-01-10 04:50:48.43	9.34	22.57	-50.3	-51.9	15.3	0.00e+00	0	23	0	527433728	66	4399
2026-01-10 04:50:49.44	9.07	22.61	-50.3	-51.9	15.3	0.00e+00	0	23	0	529530880	66	4407
2026-01-10 04:50:50.44	8.81	22.65	-50.3	-51.9	15.3	0.00e+00	0	23	0	531628032	66	4408
2026-01-10 04:50:51.44	8.55	22.68	-50.5	-52.1	15.2	0.00e+00	0	23	0	532676608	66	4507
2026-01-10 04:50:52.43	8.29	22.72	-50.6	-52.2	15.1	0.00e+00	0	23	0	534773760	66	4558
2026-01-10 04:50:53.43	8.02	22.75	-50.6	-52.2	15.1	0.00e+00	0	23	0	536870912	66	4588
2026-01-10 04:50:54.43	7.76	22.78	-50.6	-52.3	15.1	0.00e+00	0	23	0	538968064	66	4614
2026-01-10 04:50:55.43	7.49	22.82	-50.8	-52.5	15.1	0.00e+00	0	23	0	541065216	66	4709
2026-01-10 04:50:56.43	7.23	22.85	-51.0	-52.8	15.1	0.00e+00	0	23	0	542113792	67	4604
2026-01-10 04:50:57.43	6.96	22.88	-51.2	-53.0	14.9	0.00e+00	0	23	0	544210944	67	4735
2026-01-10 04:50:58.43	6.69	22.91	-51.4	-53.2	14.8	0.00e+00	0	23	0	546308096	67	4858
2026-01-10 04:50:59.43	6.43	22.94	-51.5	-53.3	14.9	0.00e+00	0	23	0	548405248	68	4622
2026-01-10 04:51:00.43	6.16	22.97	-51.5	-53.2	15.0	0.00e+00	0	23	0	549453824	68	4595
2026-01-10 04:51:01.43	5.89	23.00	-51.3	-53.1	15.1	0.00e+00	0	23	0	551550976	68	4509
2026-01-10 04:51:02.44	5.62	23.03	-51.4	-53.2	15.0	0.00e+00	0	23	0	553648128	68	4548
2026-01-10 04:51:03.45	5.34	23.06	-51.5	-53.3	15.0	0.00e+00	0	23	0	555745280	68	4640
2026-01-10 04:51:04.45	5.07	23.09	-51.7	-53.5	14.9	0.00e+00	0	23	0	557842432	68	4747
2026-01-10 04:51:05.45	4.80	23.11	-51.8	-53.7	14.8	0.00e+00	0	23	0	558891008	68	4827
2026-01-10 04:51:06.45	4.53	23.14	-51.7	-53.6	14.8	0.00e+00	0	23	0	560988160	68	4783
2026-01-10 04:51:07.45	4.26	23.16	-51.7	-53.5	14.9	0.00e+00	0	23	0	563085312	68	4741
2026-01-10 04:51:08.46	3.99	23.19	-51.7	-53.5	14.9	0.00e+00	0	23	0	565182464	68	4726
2026-01-10 04:51:09.45	3.72	23.21	-51.7	-53.6	14.8	0.00e+00	0	23	0	567279616	68	4783
2026-01-10 04:51:10.45	3.44	23.23	-51.9	-53.9	14.9	0.00e+00	0	23	0	568328192	69	4654
2026-01-10 04:51:11.46	3.17	23.26	-52.1	-54.1	14.7	0.00e+00	0	23	0	570425344	69	4783
2026-01-10 04:51:12.46	2.89	23.28	-52.2	-54.2	14.7	0.00e+00	0	23	0	572522496	69	4828
2026-01-10 04:51:13.46	2.62	23.30	-52.2	-54.2	14.7	0.00e+00	0	23	0	574619648	69	4835
2026-01-10 04:51:14.45	2.35	23.32	-52.2	-54.2	14.6	0.00e+00	0	23	0	575668224	69	4858
2026-01-10 04:51:15.45	2.07	23.34	-52.2	-54.2	14.7	0.00e+00	0	23	0	577765376	69	4845
2026-01-10 04:51:16.45	1.80	23.36	-52.2	-54.2	14.7	0.00e+00	0	23	0	579862528	69	4838
2026-01-10 04:51:17.45	1.52	23.38	-52.3	-54.3	14.6	0.00e+00	0	23	0	581959680	69	4919
2026-01-10 04:51:18.45	1.25	23.40	-52.4	-54.5	14.5	0.00e+00	0	23	0	584056832	69	4987
2026-01-10 04:51:19.45	0.97	23.41	-52.4	-54.4	14.5	0.00e+00	0	23	0	585105408	69	4966
2026-01-10 04:51:20.44	0.70	23.43	-52.3	-54.4	14.5	0.00e+00	0	23	0	587202560	69	4944
2026-01-10 04:51:21.44	0.42	23.44	-52.2	-54.2	14.6	0.00e+00	0	23	0	589299712	69	4852
2026-01-10 04:51:22.44	0.14	23.46	-52.2	-54.2	14.7	0.00e+00	0	23	0	591396864	69	4836
2026-01-10 04:51:23.44	359.87	23.47	-52.2	-54.2	14.6	0.00e+00	0	23	0	593494016	69	4854
2026-01-10 04:51:24.45	359.59	23.49	-52.1	-54.0	14.8	0.00e+00	0	23	0	594542592	69	4734
2026-01-10 04:51:25.44	359.31	23.50	-52.1	-54.1	14.7	0.00e+00	0	23	0	596639744	69	4789
2026-01-10 04:51:26.44	359.03	23.51	-52.1	-54.0	14.7	0.00e+00	0	23	0	598736896	69	4754
2026-01-10 04:51:27.44	358.76	23.52	-52.1	-54.0	14.8	0.00e+00	0	23	0	600834048	69	4719
2026-01-10 04:51:28.43	358.48	23.53	-52.1	-54.0	14.7	0.00e+00	0	23	0	602931200	69	4749
2026-01-10 04:51:29.42	358.21	23.54	-52.0	-54.0	14.8	0.00e+00	0	23	0	603979776	69	4722
2026-01-10 04:51:30.42	357.93	23.55	-52.1	-54.1	14.7	0.00e+00	0	23	0	606076928	69	4768
2026-01-10 04:51:31.42	357.65	23.56	-52.1	-54.0	14.7	0.00e+00	0	23	0	608174080	69	4735
2026-01-10 04:51:32.42	357.37	23.57	-52.1	-54.0	14.8	0.00e+00	0	23	0	610271232	69	4732
2026-01-10 04:51:33.41	357.09	23.57	-52.1	-54.1	14.7	0.00e+00	0	23	0	611319808	69	4784
2026-01-10 04:51:34.41	356.81	23.58	-52.1	-54.1	14.7	0.00e+00	0	23	0	613416960	69	4789
2026-01-10 04:51:35.40	356.54	23.59	-52.0	-53.9	14.8	0.00e+00	0	23	0	615514112	69	4679
2026-01-10 04:51:36.40	356.26	23.59	-51.9	-53.8	14.9	0.00e+00	0	23	0	617611264	69	4620
2026-01-10 04:51:37.40	355.98	23.59	-51.8	-53.7	14.9	0.00e+00	0	23	0	619708416	69	4575
2026-01-10 04:51:38.41	355.70	23.60	-51.9	-53.8	14.9	0.00e+00	0	23	0	620756992	69	4606
2026-01-10 04:51:39.40	355.42	23.60	-51.8	-53.7	15.0	0.00e+00	0	23	0	622854144	69	4547
2026-01-10 04:51:40.41	355.14	23.60	-51.9	-53.9	14.8	0.00e+00	0	23	0	624951296	69	4659
2026-01-10 04:51:41.41	354.86	23.60	-52.0	-54.0	14.7	0.00e+00	0	23	0	627048448	69	4751
2026-01-10 04:51:42.41	354.58	23.60	-51.9	-54.1	14.8	0.00e+00	0	23	0	628097024	69	4797
2026-01-10 04:51:43.41	354.30	23.60	-51.6	-53.9	15.1	0.00e+00	0	23	0	630194176	69	4661
2026-01-10 04:51:44.41	354.02	23.60	-51.3	-53.7	15.2	0.00e+00	0	23	0	632291328	69	4583
2026-01-10 04:51:45.41	353.74	23.60	-51.2	-53.5	15.3	0.00e+00	0	23	0	634388480	69	4448
2026-01-10 04:51:46.41	353.46	23.60	-51.3	-53.3	15.3	0.00e+00	0	23	0	636485632	69	4370
2026-01-10 04:51:47.41	353.18	23.59	-51.3	-53.0	15.3	0.00e+00	0	23	0	637534208	69	4239
2026-01-10 04:51:48.41	352.90	23.59	-51.3	-53.0	15.3	0.00e+00	0	23	0	639631360	69	4228
2026-01-10 04:51:49.41	352.62	23.58	-51.3	-53.0	15.3	0.00e+00	0	23	0	641728512	69	4242
2026-01-10 04:51:50.41	352.34	23.58	-51.3	-53.0	15.3	0.00e+00	0	23	0	643825664	69	4242
2026-01-10 04:51:51.41	352.06	23.57	-51.3	-53.1	15.3	0.00e+00	0	23	0	645922816	69	4253
2026-01-10 04:51:52.41	351.78	23.57	-51.3	-53.0	15.3	0.00e+00	0	23	0	646971392	69	4224
2026-01-10 04:51:53.41	351.51	23.56	-51.1	-52.8	15.2	0.00e+00	0	23	0	649068544	68	4357
2026-01-10 04:51:54.41	351.23	23.55	-51.1	-52.8	15.2	0.00e+00	0	23	0	651165696	68	4384
2026-01-10 04:51:55.41	350.95	23.54	-51.0	-52.7	15.3	0.00e+00	0	23	0	653262848	68	4335
2026-01-10 04:51:56.41	350.67	23.53	-50.9	-52.6	15.4	0.00e+00	0	23	0	654311424	68	4255
2026-01-10 04:51:57.41	350.39	23.52	-50.9	-52.6	15.4	0.00e+00	0	23	0	656408576	68	4251
2026-01-10 04:51:58.41	350.11	23.51	-50.9	-52.5	15.4	0.00e+00	0	23	0	658505728	68	4238
2026-01-10 04:51:59.41	349.84	23.49	-50.9	-52.5	15.4	0.00e+00	0	23	0	660602880	68	4234
2026-01-10 04:52:00.41	349.56	23.48	-50.7	-52.3	15.5	0.00e+00	0	23	0	662700032	68	4125
2026-01-10 04:52:01.42	349.28	23.47	-50.3	-51.9	15.5	0.00e+00	0	23	0	663748608	67	4180
2026-01-10 04:52:02.42	349.00	23.45	-50.2	-51.7	15.6	0.00e+00	0	23	0	665845760	67	4087
2026-01-10 04:52:03.42	348.72	23.44	-50.0	-51.5	15.5	0.00e+00	0	23	0	667942912	66	4240
2026-01-10 04:52:04.42	348.45	23.42	-50.1	-51.6	15.5	0.00e+00	0	23	0	670040064	66	4255
2026-01-10 04:52:05.42	348.17	23.41	-50.1	-51.6	15.5	0.00e+00	0	23	0	672137216	66	4274
2026-01-10 04:52:06.42	347.90	23.39	-49.9	-51.4	15.4	0.00e+00	0	23	0	673185792	66	4171
2026-01-10 04:52:07.42	347.62	23.37	-49.9	-51.3	15.6	0.00e+00	0	23	0	675282944	66	4143
2026-01-10 04:52:08.43	347.34	23.35	-50.0	-51.4	15.5	0.00e+00	0	23	0	677380096	66	4191
2026-01-10 04:52:09.43	347.07	23.33	-49.8	-51.3	15.6	0.00e+00	0	23	0	679477248	66	4125
2026-01-10 04:52:10.43	346.79	23.31	-49.8	-51.3	15.6	0.00e+00	0	23	0	681574400	66	4137
2026-01-10 04:52:11.43	346.52	23.29	-49.9	-51.4	15.6	0.00e+00	0	23	0	682622976	66	4152
2026-01-10 04:52:12.42	346.25	23.27	-49.8	-51.3	15.6	0.00e+00	0	23	0	684720128	66	4111
2026-01-10 04:52:13.43	345.97	23.25	-49.8	-51.2	15.6	0.00e+00	0	23	0	686817280	66	4094
2026-01-10 04:52:14.43	345.70	23.23	-49.7	-51.2	15.7	0.00e+00	0	23	0	688914432	66	4057
2026-01-10 04:52:15.43	345.43	23.20	-49.8	-51.2	15.6	0.00e+00	0	23	0	691011584	66	4086
2026-01-10 04:52:16.43	345.15	23.18	-49.7	-51.2	15.6	0.00e+00	0	23	0	692060160	66	4069
2026-01-10 04:52:17.43	344.88	23.15	-49.5	-51.0	15.6	0.00e+00	0	23	0	694157312	65	4195
2026-01-10 04:52:18.43	344.61	23.13	-49.6	-51.1	15.5	0.00e+00	0	23	0	696254464	65	4262
2026-01-10 04:52:19.42	344.34	23.10	-49.7	-51.2	15.5	0.00e+00	0	23	0	698351616	65	4316
2026-01-10 04:52:20.43	344.07	23.07	-49.7	-51.2	15.5	0.00e+00	0	23	0	699400192	65	4309
2026-01-10 04:52:21.42	343.80	23.05	-49.8	-51.3	15.4	0.00e+00	0	23	0	701497344	65	4357
2026-01-10 04:52:22.42	343.53	23.02	-49.9	-51.4	15.4	0.00e+00	0	23	0	703594496	65	4418
2026-01-10 04:52:23.42	343.26	22.99	-49.9	-51.4	15.4	0.00e+00	0	23	0	705691648	65	4404
2026-01-10 04:52:24.42	342.99	22.96	-49.9	-51.4	15.4	0.00e+00	0	23	0	707788800	65	4431
2026-01-10 04:52:25.41	342.73	22.93	-49.8	-51.3	15.5	0.00e+00	0	23	0	708837376	65	4351
2026-01-10 04:52:26.40	342.46	22.90	-49.8	-51.3	15.4	0.00e+00	0	23	0	710934528	65	4386
2026-01-10 04:52:27.41	342.19	22.87	-49.9	-51.4	15.4	0.00e+00	0	23	0	713031680	65	4421
2026-01-10 04:52:28.41	341.93	22.84	-50.0	-51.5	15.3	0.00e+00	0	23	0	715128832	65	4485
2026-01-10 04:52:29.40	341.67	22.81	-50.1	-51.7	15.3	0.00e+00	0	23	0	717225984	65	4567
2026-01-10 04:52:30.40	341.40	22.77	-50.3	-51.9	15.2	0.00e+00	0	23	0	718274560	65	4666
2026-01-10 04:52:31.40	341.14	22.74	-50.4	-52.0	15.1	0.00e+00	0	23	0	720371712	65	4713
2026-01-10 04:52:32.40	340.87	22.70	-50.4	-52.0	15.1	0.00e+00	0	23	0	722468864	65	4732
2026-01-10 04:52:33.40	340.61	22.67	-50.5	-52.1	15.2	0.00e+00	0	23	0	724566016	66	4514
2026-01-10 04:52:34.41	340.34	22.63	-50.6	-52.2	15.2	0.00e+00	0	23	0	725614592	66	4573
2026-01-10 04:52:35.40	340.08	22.60	-50.6	-52.3	15.1	0.00e+00	0	23	0	727711744	66	4613
2026-01-10 04:52:36.39	339.82	22.56	-50.8	-52.5	15.0	0.00e+00	0	23	0	729808896	66	4716
2026-01-10 04:52:37.40	339.56	22.52	-50.8	-52.5	15.0	0.00e+00	0	23	0	731906048	66	4714
2026-01-10 04:52:38.39	339.30	22.48	-50.9	-52.6	15.0	0.00e+00	0	23	0	734003200	66	4761
2026-01-10 04:52:39.39	339.04	22.45	-50.9	-52.7	15.1	0.00e+00	0	23	0	735051776	67	4546
2026-01-10 04:52:40.39	338.78	22.41	-50.9	-52.6	15.1	0.00e+00	0	23	0	737148928	67	4500
2026-01-10 04:52:41.39	338.52	22.37	-50.8	-52.4	15.2	0.00e+00	0	23	0	739246080	67	4436
2026-01-10 04:52:42.40	338.26	22.33	-50.8	-52.5	15.2	0.00e+00	0	23	0	741343232	67	4451
2026-01-10 04:52:43.39	338.01	22.29	-50.9	-52.5	15.2	0.00e+00	0	23	0	743440384	67	4474
2026-01-10 04:52:44.39	337.75	22.25	-50.9	-52.6	15.1	0.00e+00	0	23	0	744488960	67	4532
2026-01-10 04:52:45.39	337.50	22.20	-51.1	-52.9	15.0	0.00e+00	0	23	0	746586112	67	4654
2026-01-10 04:52:46.39	337.24	22.16	-51.2	-53.0	14.9	0.00e+00	0	23	0	748683264	67	4717
2026-01-10 04:52:47.39	336.99	22.12	-51.3	-53.1	14.9	0.00e+00	0	23	0	750780416	67	4787
2026-01-10 04:52:48.39	336.73	22.07	-51.4	-53.2	14.8	0.00e+00	0	23	0	751828992	67	4858
2026-01-10 04:52:49.39	336.48	22.03	-51.6	-53.4	14.9	0.00e+00	0	23	0	753926144	68	4675
2026-01-10 04:52:50.40	336.23	21.98	-51.6	-53.4	14.9	0.00e+00	0	23	0	756023296	68	4690
2026-01-10 04:52:51.40	335.98	21.94	-51.6	-53.4	14.9	0.00e+00	0	23	0	758120448	68	4685
2026-01-10 04:52:52.40	335.72	21.89	-51.6	-53.4	14.9	0.00e+00	0	23	0	760217600	68	4662
2026-01-10 04:52:53.39	335.48	21.85	-51.6	-53.4	14.9	0.00e+00	0	23	0	761266176	68	4691
2026-01-10 04:52:54.39	335.23	21.80	-51.6	-53.4	14.9	0.00e+00	0	23	0	763363328	68	4683
2026-01-10 04:52:55.39	334.98	21.75	-51.5	-53.3	14.9	0.00e+00	0	23	0	765460480	68	4643
2026-01-10 04:52:56.39	334.73	21.71	-51.6	-53.5	14.9	0.00e+00	0	23	0	767557632	68	4707
2026-01-10 04:52:57.39	334.49	21.66	-51.7	-53.5	14.8	0.00e+00	0	23	0	769654784	68	4741
2026-01-10 04:52:58.39	334.24	21.61	-51.7	-53.6	14.8	0.00e+00	0	23	0	770703360	68	4788
2026-01-10 04:52:59.39	333.99	21.56	-51.8	-53.7	14.7	0.00e+00	0	23	0	772800512	68	4836
2026-01-10 04:53:00.39	333.75	21.51	-51.8	-53.7	14.8	0.00e+00	0	23	0	774897664	68	4830
2026-01-10 04:53:01.38	333.51	21.46	-51.9	-53.8	14.7	0.00e+00	0	23	0	776994816	68	4902
2026-01-10 04:53:02.39	333.26	21.41	-52.0	-53.9	14.8	0.00e+00	0	23	0	779091968	69	4692
2026-01-10 04:53:03.39	333.02	21.36	-52.2	-54.2	14.6	0.00e+00	0	23	0	780140544	69	4839
2026-01-10 04:53:04.39	332.78	21.31	-52.1	-54.0	14.7	0.00e+00	0	23	0	782237696	69	4737
2026-01-10 04:53:05.40	332.54	21.26	-51.9	-53.8	14.9	0.00e+00	0	23	0	784334848	69	4625
2026-01-10 04:53:06.40	332.30	21.21	-51.9	-53.7	14.9	0.00e+00	0	23	0	786432000	69	4588
2026-01-10 04:53:07.41	332.05	21.15	-51.8	-53.6	14.9	0.00e+00	0	23	0	787480576	69	4525
2026-01-10 04:53:08.41	331.82	21.10	-51.8	-53.6	15.0	0.00e+00	0	23	0	789577728	69	4512
2026-01-10 04:53:09.41	331.58	21.05	-51.9	-53.8	14.9	0.00e+00	0	23	0	791674880	69	4619
2026-01-10 04:53:10.42	331.34	20.99	-52.1	-54.1	14.7	0.00e+00	0	23	0	793772032	69	4761
2026-01-10 04:53:11.42	331.11	20.94	-52.2	-54.2	14.6	0.00e+00	0	23	0	795869184	69	4850
2026-01-10 04:53:12.42	330.87	20.88	-52.2	-54.1	14.7	0.00e+00	0	23	0	796917760	69	4806
2026-01-10 04:53:13.42	330.64	20.83	-52.1	-54.0	14.8	0.00e+00	0	23	0	799014912	69	4722
2026-01-10 04:53:14.42	330.40	20.77	-51.9	-53.8	14.9	0.00e+00	0	23	0	801112064	69	4625
2026-01-10 04:53:15.42	330.17	20.72	-51.8	-53.7	15.0	0.00e+00	0	23	0	803209216	69	4547
2026-01-10 04:53:16.42	329.94	20.66	-51.7	-53.6	15.0	0.00e+00	0	23	0	805306368	69	4512
2026-01-10 04:53:17.41	329.71	20.60	-51.8	-53.6	15.0	0.00e+00	0	23	0	806354944	69	4519
2026-01-10 04:53:18.41	329.48	20.55	-51.8	-53.6	14.9	0.00e+00	0	23	0	808452096	69	4534
2026-01-10 04:53:19.41	329.25	20.49	-51.7	-53.5	15.0	0.00e+00	0	23	0	810549248	69	4481
2026-01-10 04:53:20.41	329.03	20.43	-51.7	-53.5	15.0	0.00e+00	0	23	0	812646400	69	4469
2026-01-10 04:53:21.40	328.80	20.38	-51.7	-53.6	15.0	0.00e+00	0	23	0	813694976	69	4494
2026-01-10 04:53:22.41	328.57	20.32	-51.8	-53.7	14.9	0.00e+00	0	23	0	815792128	69	4579
2026-01-10 04:53:23.41	328.35	20.26	-51.7	-53.6	15.0	0.00e+00	0	23	0	817889280	69	4494
2026-01-10 04:53:24.40	328.12	20.20	-51.8	-53.6	14.9	0.00e+00	0	23	0	819986432	69	4525
2026-01-10 04:53:25.41	327.90	20.14	-51.8	-53.7	14.9	0.00e+00	0	23	0	822083584	69	4558
2026-01-10 04:53:26.40	327.68	20.08	-51.7	-53.5	15.0	0.00e+00	0	23	0	823132160	69	4492
2026-01-10 04:53:27.41	327.45	20.02	-51.7	-53.6	15.0	0.00e+00	0	23	0	825229312	69	4509
2026-01-10 04:53:28.40	327.24	19.96	-51.7	-53.5	15.0	0.00e+00	0	23	0	827326464	69	4467
2026-01-10 04:53:29.41	327.01	19.90	-51.6	-53.4	15.1	0.00e+00	0	23	0	829423616	69	4409
2026-01-10 04:53:30.40	326.80	19.84	-51.7	-53.5	15.0	0.00e+00	0	23	0	831520768	69	4461
2026-01-10 04:53:31.40	326.58	19.78	-51.6	-53.5	15.0	0.00e+00	0	23	0	832569344	69	4456
2026-01-10 04:53:32.39	326.36	19.72	-51.7	-53.5	15.0	0.00e+00	0	23	0	834666496	69	4483
2026-01-10 04:53:33.38	326.15	19.66	-51.6	-53.4	15.0	0.00e+00	0	23	0	836763648	69	4428
2026-01-10 04:53:34.38	325.93	19.60	-51.6	-53.4	15.1	0.00e+00	0	23	0	838860800	69	4393
2026-01-10 04:53:35.38	325.72	19.53	-51.5	-53.3	15.1	0.00e+00	0	23	0	840957952	69	4376
2026-01-10 04:53:36.38	325.50	19.47	-51.6	-53.4	15.1	0.00e+00	0	23	0	842006528	69	4412
2026-01-10 04:53:37.38	325.29	19.41	-51.6	-53.4	15.1	0.00e+00	0	23	0	844103680	69	4397
2026-01-10 04:53:38.38	325.08	19.35	-51.6	-53.5	15.0	0.00e+00	0	23	0	846200832	69	4453
2026-01-10 04:53:39.38	324.87	19.28	-51.7	-53.5	15.0	0.00e+00	0	23	0	848297984	69	4469
2026-01-10 04:53:40.38	324.66	19.22	-51.6	-53.5	15.0	0.00e+00	0	23	0	849346560	69	4444
2026-01-10 04:53:41.38	324.45	19.15	-51.7	-53.6	15.0	0.00e+00	0	23	0	851443712	69	4505
2026-01-10 04:53:42.38	324.24	19.09	-51.6	-53.4	15.1	0.00e+00	0	23	0	853540864	69	4405
2026-01-10 04:53:43.38	324.03	19.03	-51.6	-53.4	15.1	0.00e+00	0	23	0	855638016	69	4427
2026-01-10 04:53:44.38	323.82	18.96	-51.6	-53.5	15.0	0.00e+00	0	23	0	857735168	69	4444
2026-01-10 04:53:45.38	323.62	18.90	-51.5	-53.3	15.1	0.00e+00	0	23	0	858783744	69	4390
2026-01-10 04:53:46.38	323.41	18.83	-51.5	-53.2	15.2	0.00e+00	0	23	0	860880896	69	4336
2026-01-10 04:53:47.38	323.21	18.77	-51.5	-53.3	15.1	0.00e+00	0	23	0	862978048	69	4360
2026-01-10 04:53:48.37	323.01	18.70	-51.6	-53.4	15.1	0.00e+00	0	23	0	865075200	69	4418
2026-01-10 04:53:49.38	322.80	18.64	-51.7	-53.5	15.0	0.00e+00	0	23	0	867172352	69	4460
2026-01-10 04:53:50.38	322.60	18.57	-51.6	-53.5	15.0	0.00e+00	0	23	0	868220928	69	4454
2026-01-10 04:53:51.39	322.40	18.51	-51.7	-53.6	15.0	0.00e+00	0	23	0	870318080	69	4498
2026-01-10 04:53:52.38	322.20	18.44	-51.7	-53.5	15.0	0.00e+00	0	23	0	872415232	69	4493
2026-01-10 04:53:53.38	322.00	18.37	-51.7	-53.6	15.0	0.00e+00	0	23	0	874512384	69	4503
2026-01-10 04:53:54.38	321.80	18.31	-51.8	-53.6	14.9	0.00e+00	0	23	0	875560960	69	4538
2026-01-10 04:53:55.38	321.61	18.24	-51.7	-53.6	14.9	0.00e+00	0	23	0	877658112	69	4521
2026-01-10 04:53:56.39	321.41	18.17	-51.7	-53.6	14.9	0.00e+00	0	23	0	879755264	69	4524
2026-01-10 04:53:57.39	321.21	18.11	-51.8	-53.7	14.9	0.00e+00	0	23	0	881852416	69	4553
2026-01-10 04:53:58.39	321.02	18.04	-51.7	-53.6	15.0	0.00e+00	0	23	0	883949568	69	4519
2026-01-10 04:53:59.39	320.82	17.97	-51.8	-53.6	14.9	0.00e+00	0	23	0	884998144	69	4534
2026-01-10 04:54:00.40	320.63	17.90	-51.8	-53.7	14.9	0.00e+00	0	23	0	887095296	69	4557
2026-01-10 04:54:01.41	320.44	17.84	-51.8	-53.6	14.9	0.00e+00	0	23	0	889192448	69	4529
2026-01-10 04:54:02.41	320.24	17.77	-51.8	-53.6	14.9	0.00e+00	0	23	0	891289600	69	4539
2026-01-10 04:54:03.41	320.05	17.70	-51.7	-53.6	14.9	0.00e+00	0	23	0	893386752	69	4522
2026-01-10 04:54:04.40	319.87	17.63	-51.8	-53.7	14.9	0.00e+00	0	23	0	894435328	69	4550
2026-01-10 04:54:05.40	319.68	17.56	-51.8	-53.7	14.9	0.00e+00	0	23	0	896532480	69	4578
2026-01-10 04:54:06.39	319.49	17.50	-51.8	-53.7	14.9	0.00e+00	0	23	0	898629632	69	4555
2026-01-10 04:54:07.40	319.30	17.43	-51.8	-53.7	14.8	0.00e+00	0	23	0	900726784	69	4589
2026-01-10 04:54:08.39	319.12	17.36	-51.8	-53.7	14.9	0.00e+00	0	23	0	902823936	69	4567
2026-01-10 04:54:09.39	318.93	17.29	-51.6	-53.5	15.0	0.00e+00	0	23	0	903872512	69	4448
2026-01-10 04:54:10.39	318.75	17.22	-51.6	-53.4	15.0	0.00e+00	0	23	0	905969664	69	4434
2026-01-10 04:54:11.39	318.57	17.15	-51.6	-53.4	15.0	0.00e+00	0	23	0	908066816	69	4438
2026-01-10 04:54:12.40	318.38	17.08	-51.6	-53.4	15.0	0.00e+00	0	23	0	910163968	69	4427
2026-01-10 04:54:13.40	318.20	17.02	-51.7	-53.5	15.0	0.00e+00	0	23	0	911212544	69	4485
2026-01-10 04:54:14.40	318.02	16.95	-51.6	-53.5	15.0	0.00e+00	0	23	0	913309696	69	4460
2026-01-10 04:54:15.40	317.84	16.88	-51.7	-53.5	14.9	0.00e+00	0	23	0	915406848	69	4489
2026-01-10 04:54:16.41	317.66	16.81	-51.5	-53.3	15.1	0.00e+00	0	23	0	917504000	69	4347
2026-01-10 04:54:17.41	317.48	16.74	-51.5	-53.3	15.1	0.00e+00	0	23	0	919601152	69	4386
2026-01-10 04:54:18.40	317.31	16.67	-51.5	-53.3	15.1	0.00e+00	0	23	0	920649728	69	4359
2026-01-10 04:54:19.39	317.13	16.60	-51.6	-53.4	15.0	0.00e+00	0	23	0	922746880	69	4433
2026-01-10 04:54:20.39	316.95	16.53	-51.3	-53.1	15.2	0.00e+00	0	23	0	924844032	69	4250
2026-01-10 04:54:21.39	316.78	16.46	-51.3	-53.0	15.3	0.00e+00	0	23	0	926941184	69	4215
2026-01-10 04:54:22.39	316.61	16.39	-51.2	-53.0	15.3	0.00e+00	0	24	0	929038336	69	4212
2026-01-10 04:54:23.39	316.43	16.32	-51.3	-53.0	15.2	0.00e+00	0	23	0	930086912	69	4227
2026-01-10 04:54:24.39	316.26	16.25	-51.2	-53.0	15.3	0.00e+00	0	23	0	932184064	69	4204
2026-01-10 04:54:25.39	316.09	16.18	-51.4	-53.2	15.2	0.00e+00	0	23	0	934281216	69	4303
2026-01-10 04:54:26.38	315.92	16.11	-51.4	-53.1	15.2	0.00e+00	0	23	0	936378368	69	4280
2026-01-10 04:54:27.38	315.75	16.04	-51.3	-53.0	15.2	0.00e+00	0	23	0	938475520	69	4232
2026-01-10 04:54:28.38	315.58	15.97	-51.4	-53.2	15.1	0.00e+00	0	23	0	939524096	69	4297
2026-01-10 04:54:29.37	315.41	15.90	-51.3	-53.1	15.2	0.00e+00	0	23	0	941621248	69	4248
2026-01-10 04:54:30.37	315.24	15.83	-51.2	-52.9	15.1	0.00e+00	0	23	0	943718400	68	4425
2026-01-10 04:54:31.36	315.08	15.76	-51.2	-53.0	15.1	0.00e+00	0	23	0	945815552	68	4442
2026-01-10 04:54:32.36	314.91	15.69	-51.0	-52.7	15.2	0.00e+00	0	23	0	946864128	68	4339
2026-01-10 04:54:33.35	314.75	15.62	-50.9	-52.6	15.3	0.00e+00	0	23	0	948961280	68	4257
2026-01-10 04:54:34.36	314.58	15.55	-50.8	-52.5	15.3	0.00e+00	0	23	0	951058432	68	4201
2026-01-10 04:54:35.35	314.42	15.48	-50.9	-52.6	15.3	0.00e+00	0	23	0	953155584	68	4255
2026-01-10 04:54:36.35	314.26	15.41	-50.8	-52.5	15.4	0.00e+00	0	23	0	955252736	68	4197
2026-01-10 04:54:37.34	314.10	15.34	-50.8	-52.4	15.4	0.00e+00	0	23	0	956301312	68	4171
2026-01-10 04:54:38.34	313.94	15.27	-50.8	-52.5	15.4	0.00e+00	0	23	0	958398464	68	4206
2026-01-10 04:54:39.34	313.78	15.20	-50.9	-52.6	15.3	0.00e+00	0	23	0	960495616	68	4252
2026-01-10 04:54:40.34	313.62	15.13	-50.9	-52.6	15.2	0.00e+00	0	23	0	962592768	68	4287
2026-01-10 04:54:41.35	313.46	15.06	-50.9	-52.6	15.3	0.00e+00	0	23	0	963641344	68	4243
2026-01-10 04:54:42.35	313.30	14.99	-51.0	-52.7	15.2	0.00e+00	0	23	0	965738496	68	4307
2026-01-10 04:54:43.35	313.14	14.92	-51.0	-52.7	15.2	0.00e+00	0	23	0	967835648	68	4308
2026-01-10 04:54:44.35	312.98	14.85	-50.9	-52.6	15.3	0.00e+00	0	23	0	969932800	68	4246
2026-01-10 04:54:45.35	312.83	14.77	-50.9	-52.5	15.3	0.00e+00	0	23	0	972029952	68	4235
2026-01-10 04:54:46.35	312.67	14.70	-50.8	-52.4	15.3	0.00e+00	0	23	0	973078528	68	4193
2026-01-10 04:54:47.36	312.51	14.63	-50.9	-52.6	15.3	0.00e+00	0	23	0	975175680	68	4250
2026-01-10 04:54:48.36	312.36	14.56	-51.0	-52.7	15.2	0.00e+00	0	23	0	977272832	68	4293
2026-01-10 04:54:49.35	312.21	14.49	-50.8	-52.5	15.3	0.00e+00	0	23	0	979369984	68	4201
2026-01-10 04:54:50.35	312.06	14.42	-50.8	-52.5	15.3	0.00e+00	0	23	0	981467136	68	4215
2026-01-10 04:54:51.35	311.91	14.35	-51.0	-52.7	15.2	0.00e+00	0	24	0	982515712	68	4297
2026-01-10 04:54:52.35	311.75	14.28	-50.9	-52.6	15.3	0.00e+00	0	23	0	984612864	68	4258
2026-01-10 04:54:53.34	311.61	14.21	-51.0	-52.6	15.3	0.00e+00	0	23	0	986710016	68	4285
2026-01-10 04:54:54.34	311.46	14.14	-50.9	-52.6	15.2	0.00e+00	0	23	0	988807168	68	4273
2026-01-10 04:54:55.34	311.31	14.07	-51.0	-52.7	15.2	0.00e+00	0	23	0	989855744	68	4311
2026-01-10 04:54:56.34	311.16	14.00	-51.0	-52.7	15.2	0.00e+00	0	23	0	991952896	68	4325
2026-01-10 04:54:57.33	311.01	13.93	-51.1	-52.8	15.2	0.00e+00	0	23	0	994050048	68	4381
2026-01-10 04:54:58.33	310.87	13.86	-51.2	-52.9	15.1	0.00e+00	0	23	0	996147200	68	4426
2026-01-10 04:54:59.33	310.72	13.79	-51.2	-52.9	15.1	0.00e+00	0	23	0	998244352	68	4427
2026-01-10 04:55:00.34	310.58	13.71	-51.2	-53.0	15.0	0.00e+00	0	23	0	999292928	68	4466
2026-01-10 04:55:01.33	310.43	13.64	-51.3	-53.1	15.0	0.00e+00	0	23	0	1001390080	68	4502
2026-01-10 04:55:02.33	310.29	13.57	-51.2	-53.0	15.1	0.00e+00	0	23	0	1003487232	68	4476
2026-01-10 04:55:03.33	310.15	13.50	-51.4	-53.2	15.0	0.00e+00	0	23	0	1005584384	68	4567
2026-01-10 04:55:04.33	310.00	13.43	-51.4	-53.3	14.9	0.00e+00	0	23	0	1007681536	68	4605
2026-01-10 04:55:05.34	309.86	13.36	-51.4	-53.3	14.9	0.00e+00	0	23	0	1008730112	68	4612
2026-01-10 04:55:06.33	309.72	13.29	-51.5	-53.4	14.8	0.00e+00	0	23	0	1010827264	68	4674
2026-01-10 04:55:07.33	309.58	13.22	-51.6	-53.5	14.8	0.00e+00	0	23	0	1012924416	68	4719
2026-01-10 04:55:08.33	309.44	13.15	-51.6	-53.5	14.8	0.00e+00	0	23	0	1015021568	68	4706
2026-01-10 04:55:09.33	309.30	13.08	-51.6	-53.5	14.8	0.00e+00	0	23	0	1017118720	68	4723
2026-01-10 04:55:10.33	309.16	13.01	-51.6	-53.4	14.8	0.00e+00	0	23	0	1018167296	68	4691
2026-01-10 04:55:11.33	309.03	12.94	-51.5	-53.4	14.8	0.00e+00	0	23	0	1020264448	68	4699
2026-01-10 04:55:12.34	308.89	12.87	-51.4	-53.3	14.9	0.00e+00	0	23	0	1022361600	68	4620
2026-01-10 04:55:13.34	308.75	12.80	-51.5	-53.4	14.8	0.00e+00	0	23	0	1024458752	68	4677
2026-01-10 04:55:14.33	308.62	12.73	-51.5	-53.3	14.8	0.00e+00	0	23	0	1025507328	68	4648
2026-01-10 04:55:15.34	308.48	12.66	-51.4	-53.2	14.9	0.00e+00	0	23	0	1027604480	68	4563
2026-01-10 04:55:16.33	308.35	12.59	-51.4	-53.2	14.9	0.00e+00	0	23	0	1029701632	68	4578
2026-01-10 04:55:17.33	308.22	12.52	-51.5	-53.4	14.8	0.00e+00	0	23	0	1031798784	68	4654
2026-01-10 04:55:18.33	308.08	12.45	-51.5	-53.4	14.8	0.00e+00	0	23	0	1033895936	68	4666
2026-01-10 04:55:19.32	307.95	12.38	-51.5	-53.4	14.8	0.00e+00	0	23	0	1034944512	68	4679
2026-01-10 04:55:20.33	307.82	12.31	-51.6	-53.5	14.7	0.00e+00	0	23	0	1037041664	68	4756
2026-01-10 04:55:21.33	307.69	12.24	-51.7	-53.6	14.7	0.00e+00	0	23	0	1039138816	68	4799
2026-01-10 04:55:22.33	307.56	12.17	-51.8	-53.7	14.6	0.00e+00	0	23	0	1041235968	68	4862
2026-01-10 04:55:23.32	307.43	12.10	-51.8	-53.8	14.6	0.00e+00	0	23	0	1043333120	68	4884
2026-01-10 04:55:24.32	307.30	12.03	-51.8	-53.8	14.6	0.00e+00	0	23	0	1044381696	68	4887
2026-01-10 04:55:25.32	307.17	11.96	-51.9	-53.9	14.5	0.00e+00	0	23	0	1046478848	68	4943
2026-01-10 04:55:26.32	307.04	11.89	-51.9	-53.9	14.6	0.00e+00	0	23	0	1048576000	68	4936
2026-01-10 04:55:27.32	306.92	11.82	-51.8	-53.8	14.6	0.00e+00	0	23	0	1050673152	68	4908
2026-01-10 04:55:28.31	306.79	11.75	-51.8	-53.8	14.6	0.00e+00	0	23	0	1051721728	68	4911
2026-01-10 04:55:29.31	306.66	11.68	-51.8	-53.8	14.6	0.00e+00	0	23	0	1053818880	68	4894
2026-01-10 04:55:30.30	306.54	11.61	-51.8	-53.8	14.6	0.00e+00	0	23	0	1055916032	68	4921
2026-01-10 04:55:31.30	306.41	11.54	-51.8	-53.8	14.6	0.00e+00	0	23	0	1058013184	68	4908
2026-01-10 04:55:32.31	306.29	11.47	-51.9	-53.9	14.6	0.00e+00	0	23	0	1060110336	69	4701
2026-01-10 04:55:33.30	306.17	11.41	-52.0	-54.0	14.6	0.00e+00	0	23	0	1061158912	69	4743
2026-01-10 04:55:34.30	306.04	11.34	-52.0	-54.0	14.6	0.00e+00	0	23	0	1063256064	69	4729
2026-01-10 04:55:35.29	305.92	11.27	-52.0	-54.0	14.6	0.00e+00	0	23	0	1065353216	69	4751
2026-01-10 04:55:36.29	305.80	11.20	-52.0	-54.0	14.6	0.00e+00	0	23	0	1067450368	69	4727
2026-01-10 04:55:37.30	305.68	11.13	-52.0	-54.1	14.6	0.00e+00	0	23	0	1068498944	69	4773
2026-01-10 04:55:38.29	305.56	11.06	-52.0	-54.0	14.6	0.00e+00	0	23	0	1070596096	69	4723
2026-01-10 04:55:39.28	305.44	10.99	-52.0	-54.1	14.6	0.00e+00	0	23	0	1072693248	69	4762
2026-01-10 04:55:40.28	305.32	10.92	-52.0	-54.1	14.6	0.00e+00	0	24	0	1074790400	69	4776
2026-01-10 04:55:41.27	305.20	10.86	-52.1	-54.2	14.5	0.00e+00	0	23	0	1076887552	69	4838
2026-01-10 04:55:42.27	305.08	10.79	-52.2	-54.3	14.4	0.00e+00	0	23	0	1077936128	69	4887
2026-01-10 04:55:43.27	304.97	10.72	-52.2	-54.3	14.4	0.00e+00	0	23	0	1080033280	69	4903
2026-01-10 04:55:44.27	304.85	10.65	-52.2	-54.4	14.4	0.00e+00	0	23	0	1082130432	69	4949
2026-01-10 04:55:45.27	304.73	10.58	-52.3	-54.5	14.3	0.00e+00	0	23	0	1084227584	69	5007
2026-01-10 04:55:46.27	304.62	10.51	-52.3	-54.5	14.3	0.00e+00	0	23	0	1086324736	69	5019
2026-01-10 04:55:47.27	304.50	10.45	-52.5	-54.7	14.3	0.00e+00	0	23	0	1087373312	70	4855
2026-01-10 04:55:48.27	304.39	10.38	-52.4	-54.6	14.4	0.00e+00	0	23	0	1089470464	70	4782
2026-01-10 04:55:49.27	304.27	10.31	-52.5	-54.7	14.3	0.00e+00	0	23	0	1091567616	70	4840
2026-01-10 04:55:50.27	304.16	10.24	-52.5	-54.8	14.3	0.00e+00	0	23	0	1093664768	70	4878
2026-01-10 04:55:51.27	304.04	10.17	-52.5	-54.7	14.4	0.00e+00	0	23	0	1095761920	70	4833
2026-01-10 04:55:52.26	303.93	10.11	-52.5	-54.7	14.3	0.00e+00	0	23	0	1096810496	70	4842
2026-01-10 04:55:53.26	303.82	10.04	-52.4	-54.6	14.4	0.00e+00	0	23	0	1098907648	70	4800
2026-01-10 04:55:54.25	303.71	9.97	-52.5	-54.7	14.3	0.00e+00	0	23	0	1101004800	70	4869
2026-01-10 04:55:55.25	303.60	9.90	-52.5	-54.7	14.3	0.00e+00	0	23	0	1103101952	70	4852
2026-01-10 04:55:56.25	303.49	9.84	-52.5	-54.7	14.3	0.00e+00	0	23	0	1104150528	70	4864
2026-01-10 04:55:57.25	303.38	9.77	-52.6	-54.8	14.3	0.00e+00	0	23	0	1106247680	70	4910
2026-01-10 04:55:58.24	303.27	9.70	-52.5	-54.7	14.3	0.00e+00	0	23	0	1108344832	70	4839
2026-01-10 04:55:59.24	303.16	9.64	-52.5	-54.7	14.3	0.00e+00	0	24	0	1110441984	70	4851
2026-01-10 04:56:00.24	303.05	9.57	-52.6	-54.8	14.3	0.00e+00	0	24	0	1112539136	70	4908
2026-01-10 04:56:01.24	302.94	9.50	-52.6	-54.9	14.2	0.00e+00	0	23	0	1113587712	70	4981
2026-01-10 04:56:02.23	302.84	9.43	-52.6	-54.9	14.2	0.00e+00	0	23	0	1115684864	70	4928
2026-01-10 04:56:03.23	302.73	9.37	-52.5	-54.8	14.3	0.00e+00	0	23	0	1117782016	70	4890
2026-01-10 04:56:04.23	302.62	9.30	-52.6	-54.9	14.2	0.00e+00	0	23	0	1119879168	70	4967
2026-01-10 04:56:05.23	302.52	9.23	-52.7	-55.0	14.1	0.00e+00	0	23	0	1120927744	70	5018
2026-01-10 04:56:06.22	302.41	9.17	-52.6	-54.9	14.2	0.00e+00	0	24	0	1123024896	70	4977
2026-01-10 04:56:07.22	302.31	9.10	-52.8	-55.3	14.0	0.00e+00	0	23	0	1125122048	70	5177
2026-01-10 04:56:08.21	302.20	9.04	-52.8	-55.2	14.0	0.00e+00	0	23	0	1127219200	70	5107
2026-01-10 04:56:09.22	302.10	8.97	-52.8	-55.2	14.0	0.00e+00	0	23	0	1129316352	70	5110
2026-01-10 04:56:10.22	301.99	8.90	-52.9	-55.4	13.9	0.00e+00	0	23	0	1130364928	70	5220
2026-01-10 04:56:11.22	301.89	8.84	-52.9	-55.3	13.9	0.00e+00	0	23	0	1132462080	70	5187
2026-01-10 04:56:12.22	301.79	8.77	-53.0	-55.5	14.0	0.00e+00	0	23	0	1134559232	71	4985
2026-01-10 04:56:13.22	301.68	8.70	-52.9	-55.3	14.1	0.00e+00	0	23	0	1136656384	71	4891
2026-01-10 04:56:14.21	301.58	8.64	-53.0	-55.5	13.9	0.00e+00	0	23	0	1137704960	71	5022
2026-01-10 04:56:15.22	301.48	8.57	-53.0	-55.5	13.9	0.00e+00	0	23	0	1139802112	71	5026
2026-01-10 04:56:16.21	301.38	8.51	-53.1	-55.6	13.9	0.00e+00	0	23	0	1141899264	71	5060
2026-01-10 04:56:17.21	301.28	8.44	-53.1	-55.7	13.8	0.00e+00	0	23	0	1143996416	71	5112
2026-01-10 04:56:18.21	301.18	8.37	-53.1	-55.7	13.8	0.00e+00	0	23	0	1146093568	71	5132
2026-01-10 04:56:19.21	301.08	8.31	-53.2	-55.8	13.8	0.00e+00	0	23	0	1147142144	71	5160
2026-01-10 04:56:20.21	300.98	8.24	-53.3	-55.9	13.7	0.00e+00	0	23	0	1149239296	71	5264
2026-01-10 04:56:21.21	300.88	8.18	-53.2	-55.9	13.7	0.00e+00	0	23	0	1151336448	71	5234
2026-01-10 04:56:22.21	300.79	8.11	-53.2	-55.8	13.8	0.00e+00	0	23	0	1153433600	71	5182
2026-01-10 04:56:23.21	300.69	8.05	-53.3	-56.0	13.7	0.00e+00	0	23	0	1155530752	71	5288
2026-01-10 04:56:24.21	300.59	7.98	-53.2	-55.9	13.6	0.00e+00	0	23	0	1156579328	71	5256
2026-01-10 04:56:25.20	300.50	7.92	-53.3	-56.0	13.6	0.00e+00	0	23	0	1158676480	71	5307
2026-01-10 04:56:26.21	300.40	7.85	-53.3	-55.9	13.6	0.00e+00	0	23	0	1160773632	71	5261
2026-01-10 04:56:27.21	300.30	7.79	-53.3	-56.0	13.6	0.00e+00	0	23	0	1162870784	71	5332
2026-01-10 04:56:28.21	300.21	7.72	-53.3	-56.1	13.5	0.00e+00	0	23	0	1164967936	71	5365
2026-01-10 04:56:29.21	300.11	7.66	-53.4	-56.2	13.6	0.00e+00	0	23	0	1166016512	72	5130
2026-01-10 04:56:30.20	300.02	7.59	-53.5	-56.3	13.5	0.00e+00	0	23	0	1168113664	72	5205
2026-01-10 04:56:31.20	299.93	7.53	-53.3	-56.0	13.7	0.00e+00	0	23	0	1170210816	72	5039
2026-01-10 04:56:32.20	299.83	7.46	-53.4	-56.1	13.7	0.00e+00	0	23	0	1172307968	72	5062
2026-01-10 04:56:33.20	299.74	7.40	-53.3	-56.1	13.7	0.00e+00	0	23	0	1173356544	72	5043
2026-01-10 04:56:34.19	299.65	7.34	-53.3	-56.0	13.7	0.00e+00	0	23	0	1175453696	72	5039
2026-01-10 04:56:35.19	299.55	7.27	-53.3	-56.1	13.6	0.00e+00	0	23	0	1177550848	72	5053
2026-01-10 04:56:36.20	299.46	7.21	-53.3	-56.1	13.6	0.00e+00	0	23	0	1179648000	72	5054
2026-01-10 04:56:37.21	299.37	7.14	-53.3	-56.0	13.7	0.00e+00	0	23	0	1181745152	72	5039
2026-01-10 04:56:38.21	299.28	7.08	-53.4	-56.1	13.6	0.00e+00	0	23	0	1182793728	72	5066
2026-01-10 04:56:39.21	299.19	7.01	-53.3	-55.9	13.8	0.00e+00	0	23	0	1184890880	72	4970
2026-01-10 04:56:40.21	299.10	6.95	-53.5	-56.3	13.4	0.00e+00	0	23	0	1186988032	72	5218
2026-01-10 04:56:41.20	299.01	6.89	-53.4	-56.1	13.6	0.00e+00	0	23	0	1189085184	72	5072
2026-01-10 04:56:42.20	298.92	6.82	-53.5	-56.3	13.5	0.00e+00	0	23	0	1191182336	72	5165
2026-01-10 04:56:43.19	298.83	6.76	-53.5	-56.3	13.4	0.00e+00	0	23	0	1192230912	72	5211
2026-01-10 04:56:44.19	298.74	6.70	-53.4	-56.1	13.6	0.00e+00	0	24	0	1194328064	72	5086
2026-01-10 04:56:45.18	298.65	6.63	-53.6	-56.4	13.4	0.00e+00	0	24	0	1196425216	72	5273
2026-01-10 04:56:46.19	298.57	6.57	-53.4	-56.2	13.5	0.00e+00	0	23	0	1198522368	72	5156
2026-01-10 04:56:47.18	298.48	6.51	-53.6	-56.5	13.3	0.00e+00	0	23	0	1199570944	72	5299
2026-01-10 04:56:48.18	298.39	6.44	-53.7	-56.7	13.2	0.00e+00	0	23	0	1201668096	72	5441
2026-01-10 04:56:49.18	298.30	6.38	-53.7	-56.7	13.2	0.00e+00	0	23	0	1203765248	72	5438
2026-01-10 04:56:50.17	298.22	6.32	-53.7	-56.8	13.1	0.00e+00	0	23	0	1205862400	72	5468
2026-01-10 04:56:51.17	298.13	6.26	-53.8	-56.9	13.0	0.00e+00	0	23	0	1207959552	72	5552
2026-01-10 04:56:52.17	298.05	6.19	-53.6	-56.7	13.2	0.00e+00	0	23	0	1209008128	72	5404
2026-01-10 04:56:53.16	297.96	6.13	-53.8	-56.8	13.1	0.00e+00	0	23	0	1211105280	72	5527
2026-01-10 04:56:54.16	297.88	6.07	-53.7	-56.7	13.1	0.00e+00	0	23	0	1213202432	72	5449
2026-01-10 04:56:55.14	297.80	6.01	-53.8	-56.9	13.0	0.00e+00	0	23	0	1215299584	72	5556
