passes_logs/2026/01/10/R3.2S_Murmansk/R3.2S_Murmansk__20260110_223605_NOAA_21_JPSS-2_rec.log

#Pass ID: 20260110_223605_NOAA 21 (JPSS-2)
#Satellite: NOAA 21 (JPSS-2)
#Configuration: NOAA-21
#almurnet v.1.7.20251203
#Start time: 2026-01-10 22:36:05

#Version: 2.2.20231116
#Station: R3.2S_Murmansk
#Location: 33.079688 lon 68.888172 lat
#TLE: 1 54234U 22150A   26009.79679979  .00000100  00000+0  68070-4 0  9993
#TLE: 2 54234  98.7494 310.7596 0000833 322.2782  37.8335 14.19533646164071

#Time	Az	El	Level	Level2	SNR	BER	BlckErr	Temp	State	Recorded	gain1	gain2
2026-01-10 22:36:05.36	19.05	1.97	-57.2	-70.8	3.8	1.49e+00	0	21	0	0	80	17447
2026-01-10 22:36:06.37	19.11	2.03	-57.2	-70.9	3.8	1.49e+00	0	21	104	0	79	18584
2026-01-10 22:36:07.37	19.18	2.08	-57.2	-70.9	3.8	1.49e+00	0	21	104	0	79	18614
2026-01-10 22:36:08.37	19.24	2.14	-57.2	-70.9	3.8	1.49e+00	0	21	104	0	79	18688
2026-01-10 22:36:09.37	19.30	2.20	-57.2	-70.9	3.8	1.49e+00	0	21	104	0	79	18697
2026-01-10 22:36:10.37	19.37	2.25	-57.2	-70.9	3.8	1.49e+00	0	22	104	0	79	18648
2026-01-10 22:36:11.36	19.43	2.31	-57.2	-70.9	3.8	1.49e+00	0	21	104	0	79	18543
2026-01-10 22:36:12.36	19.49	2.37	-57.2	-70.8	3.8	1.49e+00	0	21	104	0	79	18475
2026-01-10 22:36:13.36	19.55	2.43	-57.2	-70.8	3.8	1.49e+00	0	21	104	0	79	18405
2026-01-10 22:36:14.36	19.62	2.48	-57.2	-70.8	3.8	1.49e+00	0	21	104	0	79	18446
2026-01-10 22:36:15.36	19.68	2.54	-57.2	-70.7	3.8	1.49e+00	0	21	104	0	79	18290
2026-01-10 22:36:16.36	19.75	2.60	-57.2	-70.7	3.8	1.49e+00	0	21	104	0	79	18295
2026-01-10 22:36:17.36	19.81	2.66	-57.1	-70.6	3.8	1.49e+00	0	21	104	0	79	17892
2026-01-10 22:36:18.36	19.88	2.71	-57.1	-70.3	3.8	1.49e+00	0	22	104	0	79	17400
2026-01-10 22:36:19.36	19.94	2.77	-57.1	-70.2	3.8	1.49e+00	0	21	104	0	79	17156
2026-01-10 22:36:20.36	20.01	2.83	-57.1	-69.9	3.8	1.49e+00	0	22	104	0	79	16674
2026-01-10 22:36:21.37	20.07	2.89	-57.1	-69.4	3.8	1.49e+00	0	22	104	0	79	15661
2026-01-10 22:36:22.37	20.14	2.95	-57.1	-69.4	3.8	1.49e+00	0	22	104	0	79	15744
2026-01-10 22:36:23.38	20.21	3.00	-57.0	-69.1	3.8	1.49e+00	0	22	104	0	79	15201
2026-01-10 22:36:24.38	20.27	3.06	-57.0	-69.2	3.8	1.49e+00	0	22	104	0	79	15363
2026-01-10 22:36:25.37	20.34	3.12	-57.0	-69.1	3.8	1.49e+00	0	22	104	0	79	15094
2026-01-10 22:36:26.38	20.41	3.18	-57.0	-69.0	3.9	1.49e+00	0	22	104	0	79	14943
2026-01-10 22:36:27.38	20.47	3.24	-57.0	-68.6	3.9	1.48e+00	0	22	104	0	79	14252
2026-01-10 22:36:28.37	20.54	3.30	-57.0	-68.8	3.8	1.49e+00	0	22	104	0	79	14553
2026-01-10 22:36:29.37	20.61	3.36	-57.0	-68.0	4.1	1.48e+00	0	22	104	0	79	13290
2026-01-10 22:36:30.37	20.67	3.41	-56.9	-67.4	3.9	1.45e+00	0	22	104	0	79	12498
2026-01-10 22:36:31.37	20.74	3.47	-56.8	-66.4	4.5	1.29e+00	8	22	104	0	79	11068
2026-01-10 22:36:32.37	20.81	3.53	-56.6	-65.1	5.1	6.82e-01	0	22	0	1048576	79	9514
2026-01-10 22:36:33.37	20.88	3.59	-56.5	-64.2	5.6	4.42e-01	0	22	0	4194304	79	8582
2026-01-10 22:36:34.37	20.95	3.65	-56.5	-64.0	5.8	3.55e-01	0	22	0	7340032	79	8371
2026-01-10 22:36:35.37	21.02	3.71	-56.4	-63.6	6.0	3.04e-01	0	22	0	10485760	79	8034
2026-01-10 22:36:36.37	21.09	3.77	-56.4	-63.5	6.1	3.02e-01	0	22	0	13631488	79	7981
2026-01-10 22:36:37.37	21.16	3.83	-56.2	-62.6	6.9	2.01e-01	0	22	0	16777216	79	7142
2026-01-10 22:36:38.37	21.23	3.89	-56.1	-62.5	6.8	1.60e-01	0	22	0	19922944	78	7526
2026-01-10 22:36:39.37	21.30	3.95	-55.7	-61.0	8.2	4.99e-02	0	22	0	23068672	78	6287
2026-01-10 22:36:40.37	21.37	4.01	-55.3	-60.0	9.1	1.34e-02	0	22	0	26214400	77	5932
2026-01-10 22:36:41.37	21.44	4.07	-54.5	-58.3	10.4	1.58e-03	0	22	0	29360128	75	5503
2026-01-10 22:36:42.37	21.51	4.13	-53.7	-56.8	11.7	7.17e-05	0	22	0	32505856	74	4886
2026-01-10 22:36:43.36	21.58	4.19	-53.0	-55.6	12.4	2.67e-05	0	22	0	35651584	72	4798
2026-01-10 22:36:44.36	21.65	4.25	-52.3	-54.6	13.1	0.00e+00	0	22	0	38797312	71	4519
2026-01-10 22:36:45.36	21.72	4.31	-51.9	-54.0	13.4	0.00e+00	0	22	0	41943040	70	4468
2026-01-10 22:36:46.35	21.79	4.37	-51.4	-53.4	13.7	0.00e+00	0	22	0	45088768	69	4430
2026-01-10 22:36:47.35	21.86	4.43	-51.2	-53.2	13.9	0.00e+00	0	22	0	48234496	69	4311
2026-01-10 22:36:48.35	21.94	4.49	-51.0	-52.9	14.0	0.00e+00	0	22	0	50331648	68	4397
2026-01-10 22:36:49.35	22.01	4.55	-51.5	-53.5	13.5	0.00e+00	0	22	0	53477376	68	4755
2026-01-10 22:36:50.35	22.08	4.61	-51.5	-53.5	13.5	0.00e+00	0	22	0	56623104	68	4749
2026-01-10 22:36:51.35	22.16	4.67	-52.1	-54.4	13.0	0.00e+00	0	22	0	59768832	69	4937
2026-01-10 22:36:52.34	22.23	4.73	-52.6	-55.2	12.5	0.00e+00	0	22	0	62914560	70	5117
2026-01-10 22:36:53.34	22.30	4.79	-52.9	-55.6	12.2	0.00e+00	0	22	0	66060288	70	5361
2026-01-10 22:36:54.35	22.38	4.86	-54.0	-57.5	11.0	1.11e-04	0	22	0	69206016	73	5606
2026-01-10 22:36:55.35	22.45	4.92	-54.4	-58.3	10.3	6.62e-04	0	22	0	72351744	73	6148
2026-01-10 22:36:56.35	22.53	4.98	-55.1	-59.6	9.2	9.29e-03	0	22	0	75497472	75	6412
2026-01-10 22:36:57.35	22.60	5.04	-55.3	-60.3	8.6	2.18e-02	0	22	0	78643200	75	6934
2026-01-10 22:36:58.36	22.68	5.10	-54.3	-57.9	10.7	2.80e-03	0	22	0	81788928	75	5263
2026-01-10 22:36:59.36	22.75	5.17	-54.4	-58.1	10.6	0.00e+00	0	22	0	84934656	73	6011
2026-01-10 22:37:00.36	22.83	5.23	-56.2	-62.7	6.6	6.32e-01	0	22	0	88080384	78	7678
2026-01-10 22:37:01.36	22.91	5.29	-53.5	-56.4	11.9	1.78e-02	0	22	0	91226112	73	4937
2026-01-10 22:37:02.37	22.98	5.35	-54.3	-57.6	11.1	1.89e-03	0	22	0	94371840	75	5093
2026-01-10 22:37:03.36	23.06	5.41	-52.9	-55.4	12.7	7.00e-07	0	22	0	97517568	72	4656
2026-01-10 22:37:04.35	23.14	5.48	-52.5	-54.8	13.0	0.00e+00	0	22	0	100663296	71	4642
2026-01-10 22:37:05.35	23.21	5.54	-52.2	-54.4	13.3	0.00e+00	0	22	0	103809024	71	4437
2026-01-10 22:37:06.35	23.29	5.60	-52.2	-54.4	13.4	0.00e+00	0	22	0	106954752	71	4429
2026-01-10 22:37:07.35	23.37	5.66	-51.8	-53.9	13.6	0.00e+00	0	22	0	110100480	70	4428
2026-01-10 22:37:08.36	23.45	5.73	-51.6	-53.6	13.7	0.00e+00	0	23	0	113246208	69	4510
2026-01-10 22:37:09.36	23.53	5.79	-51.7	-53.8	13.5	0.00e+00	0	22	0	116391936	69	4607
2026-01-10 22:37:10.36	23.61	5.85	-51.8	-53.9	13.5	0.00e+00	0	22	0	119537664	69	4664
2026-01-10 22:37:11.36	23.69	5.92	-51.7	-53.7	13.6	0.00e+00	0	22	0	122683392	69	4584
2026-01-10 22:37:12.35	23.77	5.98	-51.3	-53.2	14.0	0.00e+00	0	22	0	125829120	69	4307
2026-01-10 22:37:13.36	23.85	6.04	-51.4	-53.3	13.9	0.00e+00	0	22	0	128974848	69	4362
2026-01-10 22:37:14.36	23.93	6.11	-51.3	-53.2	13.9	0.00e+00	0	23	0	132120576	69	4339
2026-01-10 22:37:15.35	24.01	6.17	-51.1	-52.9	14.0	0.00e+00	0	22	0	135266304	68	4416
2026-01-10 22:37:16.35	24.09	6.23	-51.0	-52.8	14.1	0.00e+00	0	22	0	138412032	68	4389
2026-01-10 22:37:17.35	24.17	6.30	-50.9	-52.6	14.2	0.00e+00	0	22	0	141557760	68	4288
2026-01-10 22:37:18.35	24.25	6.36	-50.9	-52.7	14.1	0.00e+00	0	22	0	144703488	68	4324
2026-01-10 22:37:19.36	24.33	6.42	-50.7	-52.5	14.3	0.00e+00	0	22	0	147849216	68	4197
2026-01-10 22:37:20.36	24.42	6.49	-50.6	-52.3	14.2	0.00e+00	0	22	0	150994944	67	4383
2026-01-10 22:37:21.36	24.50	6.55	-50.4	-52.1	14.3	0.00e+00	0	23	0	154140672	67	4290
2026-01-10 22:37:22.36	24.58	6.62	-50.5	-52.2	14.2	0.00e+00	0	23	0	157286400	67	4335
2026-01-10 22:37:23.36	24.67	6.68	-50.5	-52.2	14.3	0.00e+00	0	22	0	160432128	67	4303
2026-01-10 22:37:24.36	24.75	6.75	-50.3	-52.0	14.4	0.00e+00	0	23	0	163577856	67	4215
2026-01-10 22:37:25.36	24.83	6.81	-50.4	-52.1	14.3	0.00e+00	0	23	0	166723584	67	4282
2026-01-10 22:37:26.36	24.92	6.88	-50.4	-52.1	14.4	0.00e+00	0	23	0	169869312	67	4257
2026-01-10 22:37:27.35	25.00	6.94	-50.4	-52.1	14.4	0.00e+00	0	23	0	173015040	67	4276
2026-01-10 22:37:28.36	25.09	7.01	-50.3	-52.0	14.4	0.00e+00	0	23	0	176160768	67	4208
2026-01-10 22:37:29.36	25.17	7.07	-50.1	-51.7	14.5	0.00e+00	0	23	0	179306496	66	4312
2026-01-10 22:37:30.35	25.26	7.14	-50.2	-51.8	14.4	0.00e+00	0	23	0	182452224	66	4391
2026-01-10 22:37:31.35	25.34	7.20	-50.1	-51.7	14.5	0.00e+00	0	23	0	185597952	66	4323
2026-01-10 22:37:32.34	25.43	7.27	-50.0	-51.6	14.5	0.00e+00	0	23	0	188743680	66	4254
2026-01-10 22:37:33.35	25.52	7.33	-50.0	-51.6	14.5	0.00e+00	0	23	0	191889408	66	4280
2026-01-10 22:37:34.35	25.61	7.40	-50.0	-51.6	14.5	0.00e+00	0	23	0	195035136	66	4274
2026-01-10 22:37:35.34	25.69	7.46	-49.9	-51.5	14.6	0.00e+00	0	23	0	198180864	66	4223
2026-01-10 22:37:36.34	25.78	7.53	-49.9	-51.5	14.6	0.00e+00	0	23	0	201326592	66	4221
2026-01-10 22:37:37.35	25.87	7.60	-49.8	-51.4	14.7	0.00e+00	0	23	0	204472320	66	4152
2026-01-10 22:37:38.34	25.96	7.66	-49.9	-51.4	14.7	0.00e+00	0	23	0	207618048	66	4177
2026-01-10 22:37:39.33	26.05	7.73	-49.8	-51.4	14.7	0.00e+00	0	23	0	209715200	66	4152
2026-01-10 22:37:40.32	26.14	7.79	-49.8	-51.3	14.7	0.00e+00	0	23	0	212860928	66	4133
2026-01-10 22:37:41.33	26.23	7.86	-49.8	-51.3	14.8	0.00e+00	0	23	0	216006656	66	4114
2026-01-10 22:37:42.32	26.32	7.93	-49.8	-51.3	14.7	0.00e+00	0	23	0	219152384	66	4128
2026-01-10 22:37:43.32	26.41	7.99	-49.8	-51.3	14.7	0.00e+00	0	23	0	222298112	66	4134
2026-01-10 22:37:44.31	26.50	8.06	-49.6	-51.1	14.7	0.00e+00	0	23	0	225443840	65	4253
2026-01-10 22:37:45.31	26.59	8.13	-49.6	-51.1	14.7	0.00e+00	0	23	0	228589568	65	4253
2026-01-10 22:37:46.31	26.68	8.19	-49.6	-51.1	14.7	0.00e+00	0	23	0	231735296	65	4274
2026-01-10 22:37:47.32	26.77	8.26	-49.7	-51.2	14.6	0.00e+00	0	23	0	234881024	65	4319
2026-01-10 22:37:48.31	26.87	8.33	-49.5	-51.0	14.7	0.00e+00	0	23	0	238026752	65	4224
2026-01-10 22:37:49.31	26.96	8.39	-49.4	-50.9	14.8	0.00e+00	0	23	0	241172480	65	4167
2026-01-10 22:37:50.31	27.05	8.46	-49.5	-50.9	14.8	0.00e+00	0	23	0	244318208	65	4181
2026-01-10 22:37:51.32	27.15	8.53	-49.4	-50.9	14.8	0.00e+00	0	23	0	247463936	65	4159
2026-01-10 22:37:52.32	27.24	8.60	-49.4	-50.9	14.8	0.00e+00	0	23	0	250609664	65	4167
2026-01-10 22:37:53.32	27.34	8.67	-49.5	-51.0	14.8	0.00e+00	0	23	0	253755392	65	4205
2026-01-10 22:37:54.32	27.43	8.73	-49.4	-50.8	14.9	0.00e+00	0	23	0	256901120	65	4134
2026-01-10 22:37:55.32	27.53	8.80	-49.3	-50.8	14.9	0.00e+00	0	23	0	260046848	65	4108
2026-01-10 22:37:56.32	27.62	8.87	-49.3	-50.8	14.9	0.00e+00	0	23	0	263192576	65	4118
2026-01-10 22:37:57.32	27.72	8.94	-49.3	-50.7	14.9	0.00e+00	0	23	0	266338304	65	4070
2026-01-10 22:37:58.32	27.82	9.01	-49.4	-50.8	14.9	0.00e+00	0	23	0	269484032	65	4122
2026-01-10 22:37:59.33	27.92	9.08	-49.3	-50.8	14.9	0.00e+00	0	23	0	272629760	65	4105
2026-01-10 22:38:00.33	28.01	9.15	-49.2	-50.6	15.0	0.00e+00	0	23	0	275775488	65	4034
2026-01-10 22:38:01.33	28.11	9.22	-49.2	-50.6	15.0	0.00e+00	0	23	0	278921216	65	4041
2026-01-10 22:38:02.33	28.21	9.28	-49.3	-50.7	14.9	0.00e+00	0	23	0	282066944	65	4098
2026-01-10 22:38:03.33	28.31	9.35	-49.3	-50.7	14.9	0.00e+00	0	23	0	285212672	65	4075
2026-01-10 22:38:04.33	28.41	9.42	-49.4	-50.8	14.8	0.00e+00	0	23	0	288358400	65	4140
2026-01-10 22:38:05.33	28.51	9.49	-49.3	-50.7	15.0	0.00e+00	0	23	0	291504128	65	4060
2026-01-10 22:38:06.33	28.61	9.56	-49.1	-50.5	14.9	0.00e+00	0	23	0	294649856	64	4209
2026-01-10 22:38:07.32	28.71	9.63	-49.2	-50.6	14.8	0.00e+00	0	23	0	297795584	64	4281
2026-01-10 22:38:08.32	28.81	9.70	-49.1	-50.5	14.9	0.00e+00	0	23	0	300941312	64	4225
2026-01-10 22:38:09.32	28.91	9.77	-49.0	-50.4	15.0	0.00e+00	0	23	0	304087040	64	4154
2026-01-10 22:38:10.31	29.01	9.84	-49.1	-50.5	14.9	0.00e+00	0	23	0	307232768	64	4215
2026-01-10 22:38:11.30	29.12	9.91	-49.1	-50.5	14.9	0.00e+00	0	23	0	310378496	64	4204
2026-01-10 22:38:12.31	29.22	9.98	-49.0	-50.4	14.9	0.00e+00	0	23	0	313524224	64	4193
2026-01-10 22:38:13.30	29.32	10.05	-49.0	-50.4	14.9	0.00e+00	0	23	0	316669952	64	4168
2026-01-10 22:38:14.31	29.43	10.12	-49.0	-50.4	14.9	0.00e+00	0	23	0	319815680	64	4176
2026-01-10 22:38:15.31	29.53	10.19	-49.0	-50.4	15.0	0.00e+00	0	23	0	322961408	64	4148
2026-01-10 22:38:16.30	29.64	10.26	-49.1	-50.4	14.9	0.00e+00	0	23	0	326107136	64	4192
2026-01-10 22:38:17.30	29.74	10.33	-48.9	-50.3	15.0	0.00e+00	0	23	0	329252864	64	4116
2026-01-10 22:38:18.29	29.85	10.40	-49.0	-50.4	15.0	0.00e+00	0	23	0	332398592	64	4157
2026-01-10 22:38:19.29	29.96	10.47	-48.8	-50.2	15.1	0.00e+00	0	23	0	335544320	64	4061
2026-01-10 22:38:20.30	30.06	10.55	-48.8	-50.1	15.1	0.00e+00	0	23	0	338690048	64	4032
2026-01-10 22:38:21.30	30.17	10.62	-48.9	-50.3	15.0	0.00e+00	0	23	0	341835776	64	4127
2026-01-10 22:38:22.30	30.28	10.69	-48.8	-50.1	15.1	0.00e+00	0	23	0	343932928	64	4040
2026-01-10 22:38:23.30	30.39	10.76	-48.8	-50.2	15.1	0.00e+00	0	23	0	347078656	64	4065
2026-01-10 22:38:24.31	30.50	10.83	-48.7	-50.1	15.2	0.00e+00	0	23	0	351272960	64	4011
2026-01-10 22:38:25.30	30.61	10.90	-48.7	-50.0	15.0	0.00e+00	0	23	0	353370112	63	4240
2026-01-10 22:38:26.30	30.72	10.98	-48.8	-50.1	15.0	0.00e+00	0	23	0	356515840	63	4283
2026-01-10 22:38:27.30	30.83	11.05	-48.6	-49.9	15.1	0.00e+00	0	23	0	359661568	63	4173
2026-01-10 22:38:28.31	30.94	11.12	-48.6	-49.9	15.0	0.00e+00	0	23	0	362807296	63	4190
2026-01-10 22:38:29.30	31.05	11.19	-48.7	-50.1	15.0	0.00e+00	0	23	0	365953024	63	4268
2026-01-10 22:38:30.30	31.16	11.26	-48.6	-49.9	15.1	0.00e+00	0	23	0	369098752	63	4180
2026-01-10 22:38:31.30	31.28	11.34	-48.6	-49.9	15.1	0.00e+00	0	23	0	372244480	63	4193
2026-01-10 22:38:32.31	31.39	11.41	-48.6	-49.9	15.1	0.00e+00	0	23	0	375390208	63	4163
2026-01-10 22:38:33.30	31.50	11.48	-48.6	-49.9	15.1	0.00e+00	0	23	0	378535936	63	4170
2026-01-10 22:38:34.31	31.62	11.56	-48.6	-49.9	15.1	0.00e+00	0	23	0	381681664	63	4162
2026-01-10 22:38:35.31	31.73	11.63	-48.5	-49.8	15.1	0.00e+00	0	23	0	384827392	63	4136
2026-01-10 22:38:36.31	31.85	11.70	-48.5	-49.9	15.1	0.00e+00	0	23	0	387973120	63	4151
2026-01-10 22:38:37.30	31.96	11.77	-48.6	-49.9	15.0	0.00e+00	0	23	0	391118848	63	4181
2026-01-10 22:38:38.30	32.08	11.85	-48.5	-49.8	15.1	0.00e+00	0	23	0	394264576	63	4128
2026-01-10 22:38:39.29	32.20	11.92	-48.5	-49.8	15.1	0.00e+00	0	23	0	397410304	63	4127
2026-01-10 22:38:40.29	32.31	11.99	-48.5	-49.8	15.1	0.00e+00	0	23	0	400556032	63	4119
2026-01-10 22:38:41.29	32.43	12.07	-48.4	-49.7	15.2	0.00e+00	0	23	0	403701760	63	4065
2026-01-10 22:38:42.28	32.55	12.14	-48.5	-49.8	15.1	0.00e+00	0	23	0	406847488	63	4127
2026-01-10 22:38:43.28	32.67	12.21	-48.5	-49.8	15.1	0.00e+00	0	23	0	409993216	63	4125
2026-01-10 22:38:44.28	32.79	12.29	-48.4	-49.7	15.2	0.00e+00	0	23	0	413138944	63	4067
2026-01-10 22:38:45.28	32.91	12.36	-48.5	-49.7	15.2	0.00e+00	0	23	0	416284672	63	4098
2026-01-10 22:38:46.27	33.03	12.44	-48.5	-49.8	15.2	0.00e+00	0	23	0	419430400	63	4111
2026-01-10 22:38:47.27	33.15	12.51	-48.5	-49.8	15.1	0.00e+00	0	23	0	422576128	63	4131
2026-01-10 22:38:48.27	33.28	12.59	-48.6	-49.9	15.1	0.00e+00	0	23	0	425721856	63	4180
2026-01-10 22:38:49.26	33.40	12.66	-48.7	-50.0	15.0	0.00e+00	0	23	0	428867584	63	4240
2026-01-10 22:38:50.25	33.52	12.73	-48.5	-49.9	15.1	0.00e+00	0	23	0	432013312	63	4146
2026-01-10 22:38:51.25	33.64	12.81	-48.5	-49.9	15.1	0.00e+00	0	23	0	435159040	63	4151
2026-01-10 22:38:52.25	33.77	12.88	-48.5	-49.8	15.1	0.00e+00	0	23	0	438304768	63	4136
2026-01-10 22:38:53.26	33.89	12.96	-48.5	-49.8	15.1	0.00e+00	0	23	0	441450496	63	4136
2026-01-10 22:38:54.27	34.02	13.04	-48.5	-49.9	15.1	0.00e+00	0	23	0	444596224	63	4149
2026-01-10 22:38:55.27	34.15	13.11	-48.4	-49.7	15.2	0.00e+00	0	23	0	447741952	63	4094
2026-01-10 22:38:56.26	34.27	13.19	-48.4	-49.8	15.2	0.00e+00	0	23	0	450887680	63	4100
2026-01-10 22:38:57.26	34.40	13.26	-48.4	-49.7	15.2	0.00e+00	0	23	0	454033408	63	4092
2026-01-10 22:38:58.26	34.53	13.34	-48.4	-49.7	15.2	0.00e+00	0	23	0	457179136	63	4074
2026-01-10 22:38:59.26	34.66	13.41	-48.4	-49.6	15.2	0.00e+00	0	23	0	460324864	63	4051
2026-01-10 22:39:00.26	34.79	13.49	-48.3	-49.6	15.3	0.00e+00	0	23	0	463470592	63	4041
2026-01-10 22:39:01.26	34.92	13.56	-48.3	-49.5	15.3	0.00e+00	0	23	0	466616320	63	3994
2026-01-10 22:39:02.26	35.05	13.64	-48.3	-49.6	15.3	0.00e+00	0	23	0	469762048	63	4016
2026-01-10 22:39:03.26	35.18	13.72	-48.3	-49.6	15.3	0.00e+00	0	23	0	472907776	63	4016
2026-01-10 22:39:04.25	35.31	13.79	-48.3	-49.6	15.3	0.00e+00	0	23	0	476053504	63	4036
2026-01-10 22:39:05.25	35.45	13.87	-48.3	-49.6	15.3	0.00e+00	0	23	0	478150656	63	4049
2026-01-10 22:39:06.26	35.58	13.95	-48.4	-49.8	15.2	0.00e+00	0	23	0	481296384	63	4101
2026-01-10 22:39:07.25	35.72	14.02	-48.4	-49.7	15.2	0.00e+00	0	23	0	484442112	63	4094
2026-01-10 22:39:08.26	35.85	14.10	-48.6	-49.9	15.1	0.00e+00	0	23	0	487587840	63	4179
2026-01-10 22:39:09.25	35.99	14.17	-48.7	-50.0	15.1	0.00e+00	0	23	0	490733568	63	4207
2026-01-10 22:39:10.26	36.12	14.25	-48.6	-50.0	15.1	0.00e+00	0	23	0	493879296	63	4203
2026-01-10 22:39:11.25	36.26	14.33	-48.6	-50.0	15.1	0.00e+00	0	23	0	497025024	63	4224
2026-01-10 22:39:12.25	36.40	14.41	-48.6	-49.9	15.1	0.00e+00	0	23	0	500170752	63	4183
2026-01-10 22:39:13.26	36.54	14.48	-48.3	-49.9	15.3	0.00e+00	0	23	0	503316480	63	4149
2026-01-10 22:39:14.26	36.68	14.56	-48.2	-49.8	15.2	0.00e+00	0	23	0	506462208	62	4377
2026-01-10 22:39:15.25	36.81	14.64	-48.3	-49.9	15.1	0.00e+00	0	23	0	509607936	62	4408
2026-01-10 22:39:16.25	36.95	14.71	-48.3	-49.8	15.1	0.00e+00	0	23	0	512753664	62	4362
2026-01-10 22:39:17.26	37.10	14.79	-48.4	-49.8	15.1	0.00e+00	0	23	0	515899392	62	4345
2026-01-10 22:39:18.26	37.24	14.87	-48.5	-49.8	15.0	0.00e+00	0	23	0	519045120	62	4354
2026-01-10 22:39:19.26	37.38	14.95	-48.5	-49.8	15.0	0.00e+00	0	23	0	522190848	62	4352
2026-01-10 22:39:20.26	37.53	15.03	-48.5	-49.8	15.0	0.00e+00	0	23	0	525336576	62	4390
2026-01-10 22:39:21.26	37.67	15.10	-48.7	-50.0	14.9	0.00e+00	0	23	0	528482304	62	4461
2026-01-10 22:39:22.25	37.81	15.18	-48.7	-50.0	14.9	0.00e+00	0	23	0	531628032	62	4490
2026-01-10 22:39:23.26	37.96	15.26	-48.9	-50.3	14.8	0.00e+00	0	23	0	534773760	62	4617
2026-01-10 22:39:24.26	38.11	15.34	-48.9	-50.3	14.9	0.00e+00	0	23	0	537919488	63	4365
2026-01-10 22:39:25.27	38.25	15.42	-48.9	-50.3	14.9	0.00e+00	0	23	0	541065216	63	4352
2026-01-10 22:39:26.27	38.40	15.50	-49.0	-50.3	14.9	0.00e+00	0	23	0	544210944	63	4380
2026-01-10 22:39:27.26	38.55	15.57	-49.0	-50.3	14.9	0.00e+00	0	23	0	547356672	63	4389
2026-01-10 22:39:28.26	38.70	15.65	-49.0	-50.3	14.9	0.00e+00	0	23	0	550502400	63	4375
2026-01-10 22:39:29.25	38.85	15.73	-48.9	-50.2	14.9	0.00e+00	0	23	0	553648128	63	4329
2026-01-10 22:39:30.25	39.00	15.81	-48.8	-50.2	15.0	0.00e+00	0	23	0	556793856	63	4292
2026-01-10 22:39:31.25	39.15	15.89	-48.8	-50.1	15.0	0.00e+00	0	23	0	559939584	63	4285
2026-01-10 22:39:32.25	39.30	15.96	-48.7	-50.0	15.0	0.00e+00	0	23	0	563085312	63	4228
2026-01-10 22:39:33.25	39.46	16.04	-48.7	-50.0	15.1	0.00e+00	0	23	0	566231040	63	4222
2026-01-10 22:39:34.25	39.61	16.12	-48.8	-50.2	15.0	0.00e+00	0	23	0	569376768	63	4299
2026-01-10 22:39:35.25	39.76	16.20	-48.7	-50.1	15.0	0.00e+00	0	23	0	572522496	63	4245
2026-01-10 22:39:36.25	39.92	16.28	-48.8	-50.1	15.0	0.00e+00	0	23	0	575668224	63	4281
2026-01-10 22:39:37.25	40.08	16.36	-48.9	-50.3	14.9	0.00e+00	0	23	0	578813952	63	4341
2026-01-10 22:39:38.26	40.23	16.44	-48.9	-50.3	14.9	0.00e+00	0	23	0	581959680	63	4361
2026-01-10 22:39:39.26	40.39	16.52	-48.9	-50.3	14.9	0.00e+00	0	23	0	585105408	63	4350
2026-01-10 22:39:40.25	40.55	16.60	-49.0	-50.3	14.9	0.00e+00	0	23	0	588251136	63	4389
2026-01-10 22:39:41.25	40.71	16.68	-48.9	-50.2	15.0	0.00e+00	0	23	0	591396864	63	4326
2026-01-10 22:39:42.24	40.87	16.75	-48.9	-50.2	14.9	0.00e+00	0	23	0	594542592	63	4340
2026-01-10 22:39:43.24	41.03	16.83	-48.8	-50.2	15.0	0.00e+00	0	23	0	597688320	63	4303
2026-01-10 22:39:44.24	41.19	16.91	-48.7	-50.1	15.0	0.00e+00	0	23	0	600834048	63	4248
2026-01-10 22:39:45.23	41.35	16.99	-48.7	-50.0	15.0	0.00e+00	0	23	0	603979776	63	4241
2026-01-10 22:39:46.23	41.51	17.07	-48.7	-50.0	15.1	0.00e+00	0	23	0	607125504	63	4217
2026-01-10 22:39:47.24	41.68	17.15	-48.7	-50.0	15.0	0.00e+00	0	23	0	610271232	63	4238
2026-01-10 22:39:48.23	41.84	17.23	-48.8	-50.2	15.0	0.00e+00	0	23	0	613416960	63	4292
2026-01-10 22:39:49.23	42.01	17.31	-49.1	-50.4	14.9	0.00e+00	0	23	0	616562688	63	4418
2026-01-10 22:39:50.23	42.18	17.39	-49.1	-50.5	14.9	0.00e+00	0	23	0	619708416	63	4465
2026-01-10 22:39:51.24	42.35	17.47	-49.2	-50.6	14.8	0.00e+00	0	23	0	622854144	63	4496
2026-01-10 22:39:52.23	42.51	17.55	-49.3	-50.7	14.7	0.00e+00	0	23	0	625999872	63	4582
2026-01-10 22:39:53.23	42.68	17.63	-49.2	-50.6	14.8	0.00e+00	0	23	0	629145600	63	4529
2026-01-10 22:39:54.23	42.85	17.71	-49.2	-50.6	14.8	0.00e+00	0	23	0	632291328	63	4517
2026-01-10 22:39:55.21	43.02	17.79	-49.1	-50.4	14.9	0.00e+00	0	23	0	635437056	63	4435
2026-01-10 22:39:56.21	43.19	17.87	-49.0	-50.4	14.9	0.00e+00	0	23	0	637534208	63	4396
2026-01-10 22:39:57.20	43.37	17.95	-49.1	-50.4	14.8	0.00e+00	0	23	0	640679936	63	4433
2026-01-10 22:39:58.21	43.54	18.03	-48.8	-50.2	15.0	0.00e+00	0	23	0	643825664	63	4300
2026-01-10 22:39:59.21	43.72	18.11	-48.8	-50.1	15.0	0.00e+00	0	23	0	646971392	63	4257
2026-01-10 22:40:00.21	43.89	18.19	-48.9	-50.2	15.0	0.00e+00	0	23	0	650117120	63	4333
2026-01-10 22:40:01.21	44.07	18.27	-48.8	-50.1	15.0	0.00e+00	0	23	0	653262848	63	4290
2026-01-10 22:40:02.22	44.25	18.35	-49.0	-50.3	14.9	0.00e+00	0	23	0	656408576	63	4383
2026-01-10 22:40:03.22	44.43	18.43	-48.9	-50.3	15.0	0.00e+00	0	23	0	659554304	63	4343
2026-01-10 22:40:04.22	44.61	18.51	-48.9	-50.3	14.9	0.00e+00	0	23	0	662700032	63	4369
2026-01-10 22:40:05.22	44.79	18.59	-48.9	-50.2	15.0	0.00e+00	0	23	0	665845760	63	4321
2026-01-10 22:40:06.22	44.97	18.66	-49.0	-50.3	14.9	0.00e+00	0	23	0	668991488	63	4382
2026-01-10 22:40:07.21	45.15	18.74	-48.8	-50.1	15.0	0.00e+00	0	23	0	672137216	63	4290
2026-01-10 22:40:08.21	45.33	18.82	-48.6	-49.9	15.1	0.00e+00	0	23	0	675282944	63	4147
2026-01-10 22:40:09.22	45.52	18.90	-48.6	-49.9	15.1	0.00e+00	0	23	0	678428672	63	4170
2026-01-10 22:40:10.21	45.70	18.98	-48.7	-50.0	15.1	0.00e+00	0	23	0	681574400	63	4230
2026-01-10 22:40:11.21	45.88	19.06	-48.7	-50.0	15.1	0.00e+00	0	23	0	684720128	63	4221
2026-01-10 22:40:12.21	46.07	19.14	-48.7	-50.0	15.1	0.00e+00	0	23	0	687865856	63	4227
2026-01-10 22:40:13.21	46.26	19.22	-48.7	-50.0	15.1	0.00e+00	0	23	0	691011584	63	4206
2026-01-10 22:40:14.21	46.45	19.30	-48.7	-50.0	15.1	0.00e+00	0	23	0	694157312	63	4242
2026-01-10 22:40:15.21	46.64	19.38	-48.7	-50.0	15.1	0.00e+00	0	23	0	697303040	63	4222
2026-01-10 22:40:16.21	46.83	19.46	-48.7	-50.0	15.0	0.00e+00	0	23	0	700448768	63	4242
2026-01-10 22:40:17.22	47.02	19.54	-48.6	-49.9	15.1	0.00e+00	0	23	0	703594496	63	4159
2026-01-10 22:40:18.22	47.21	19.62	-48.5	-49.8	15.2	0.00e+00	0	23	0	706740224	63	4135
2026-01-10 22:40:19.22	47.41	19.70	-48.5	-49.8	15.2	0.00e+00	0	23	0	709885952	63	4099
2026-01-10 22:40:20.22	47.60	19.78	-48.3	-49.5	15.3	0.00e+00	0	23	0	713031680	63	4003
2026-01-10 22:40:21.22	47.80	19.86	-48.3	-49.6	15.3	0.00e+00	0	23	0	716177408	63	4012
2026-01-10 22:40:22.23	48.00	19.94	-48.3	-49.5	15.3	0.00e+00	0	23	0	719323136	63	3986
2026-01-10 22:40:23.22	48.19	20.02	-48.1	-49.4	15.2	0.00e+00	0	23	0	722468864	62	4155
2026-01-10 22:40:24.22	48.39	20.09	-48.1	-49.3	15.2	0.00e+00	0	23	0	725614592	62	4126
2026-01-10 22:40:25.22	48.59	20.17	-48.0	-49.2	15.3	0.00e+00	0	23	0	728760320	62	4060
2026-01-10 22:40:26.22	48.79	20.25	-48.1	-49.3	15.2	0.00e+00	0	23	0	731906048	62	4138
2026-01-10 22:40:27.22	48.99	20.33	-48.0	-49.2	15.3	0.00e+00	0	23	0	735051776	62	4080
2026-01-10 22:40:28.23	49.20	20.41	-47.9	-49.1	15.3	0.00e+00	0	23	0	738197504	62	4023
2026-01-10 22:40:29.23	49.40	20.49	-47.8	-49.0	15.4	0.00e+00	0	23	0	741343232	62	3999
2026-01-10 22:40:30.24	49.61	20.57	-47.8	-49.0	15.4	0.00e+00	0	23	0	744488960	62	3991
2026-01-10 22:40:31.24	49.81	20.65	-47.9	-49.1	15.4	0.00e+00	0	23	0	747634688	62	4017
2026-01-10 22:40:32.24	50.02	20.72	-47.8	-49.0	15.4	0.00e+00	0	23	0	750780416	62	3980
2026-01-10 22:40:33.24	50.23	20.80	-47.6	-48.8	15.3	0.00e+00	0	23	0	753926144	61	4120
2026-01-10 22:40:34.24	50.43	20.88	-47.6	-48.8	15.3	0.00e+00	0	23	0	757071872	61	4121
2026-01-10 22:40:35.24	50.64	20.96	-47.6	-48.8	15.4	0.00e+00	0	23	0	760217600	61	4111
2026-01-10 22:40:36.24	50.85	21.03	-47.6	-48.8	15.3	0.00e+00	0	23	0	763363328	61	4118
2026-01-10 22:40:37.23	51.06	21.11	-47.5	-48.7	15.4	0.00e+00	0	23	0	766509056	61	4089
2026-01-10 22:40:38.23	51.28	21.19	-47.6	-48.8	15.3	0.00e+00	0	23	0	769654784	61	4141
2026-01-10 22:40:39.23	51.49	21.26	-47.7	-48.9	15.3	0.00e+00	0	23	0	772800512	61	4150
2026-01-10 22:40:40.23	51.71	21.34	-47.7	-48.9	15.3	0.00e+00	0	23	0	775946240	61	4168
2026-01-10 22:40:41.24	51.92	21.42	-47.7	-48.9	15.3	0.00e+00	0	23	0	779091968	61	4165
2026-01-10 22:40:42.24	52.14	21.50	-47.7	-48.9	15.3	0.00e+00	0	23	0	782237696	61	4186
2026-01-10 22:40:43.24	52.36	21.57	-47.7	-48.9	15.3	0.00e+00	0	23	0	785383424	61	4178
2026-01-10 22:40:44.24	52.58	21.65	-47.7	-48.9	15.3	0.00e+00	0	23	0	788529152	61	4176
2026-01-10 22:40:45.23	52.80	21.72	-47.7	-48.9	15.3	0.00e+00	0	23	0	791674880	61	4174
2026-01-10 22:40:46.23	53.02	21.80	-47.7	-48.9	15.3	0.00e+00	0	23	0	794820608	61	4165
2026-01-10 22:40:47.22	53.24	21.87	-47.6	-48.8	15.3	0.00e+00	0	23	0	796917760	61	4145
2026-01-10 22:40:48.22	53.46	21.95	-47.6	-48.8	15.3	0.00e+00	0	23	0	800063488	61	4122
2026-01-10 22:40:49.22	53.68	22.02	-47.5	-48.7	15.4	0.00e+00	0	23	0	803209216	61	4091
2026-01-10 22:40:50.21	53.91	22.10	-47.5	-48.7	15.4	0.00e+00	0	23	0	806354944	61	4073
2026-01-10 22:40:51.21	54.13	22.17	-47.5	-48.7	15.4	0.00e+00	0	23	0	809500672	61	4082
2026-01-10 22:40:52.21	54.36	22.25	-47.4	-48.6	15.5	0.00e+00	0	23	0	812646400	61	4025
2026-01-10 22:40:53.21	54.59	22.32	-47.4	-48.6	15.4	0.00e+00	0	23	0	815792128	61	4025
2026-01-10 22:40:54.21	54.82	22.40	-47.5	-48.7	15.4	0.00e+00	0	23	0	818937856	61	4056
2026-01-10 22:40:55.21	55.05	22.47	-47.5	-48.6	15.4	0.00e+00	0	23	0	822083584	61	4049
2026-01-10 22:40:56.21	55.28	22.54	-47.5	-48.7	15.4	0.00e+00	0	23	0	825229312	61	4069
2026-01-10 22:40:57.20	55.51	22.62	-47.5	-48.7	15.4	0.00e+00	0	23	0	828375040	61	4081
2026-01-10 22:40:58.20	55.75	22.69	-47.6	-48.7	15.3	0.00e+00	0	23	0	831520768	61	4097
2026-01-10 22:40:59.20	55.98	22.76	-47.6	-48.8	15.3	0.00e+00	0	23	0	834666496	61	4132
2026-01-10 22:41:00.20	56.22	22.83	-47.6	-48.8	15.3	0.00e+00	0	23	0	837812224	61	4116
2026-01-10 22:41:01.20	56.45	22.91	-47.5	-48.7	15.4	0.00e+00	0	23	0	840957952	61	4065
2026-01-10 22:41:02.21	56.69	22.98	-47.4	-48.6	15.4	0.00e+00	0	23	0	844103680	61	4016
2026-01-10 22:41:03.21	56.93	23.05	-47.5	-48.6	15.4	0.00e+00	0	23	0	847249408	61	4045
2026-01-10 22:41:04.22	57.18	23.12	-47.4	-48.6	15.5	0.00e+00	0	23	0	850395136	61	4019
2026-01-10 22:41:05.23	57.42	23.19	-47.5	-48.7	15.4	0.00e+00	0	23	0	853540864	61	4065
2026-01-10 22:41:06.23	57.66	23.27	-47.4	-48.6	15.4	0.00e+00	0	23	0	856686592	61	4029
2026-01-10 22:41:07.23	57.91	23.34	-47.5	-48.7	15.4	0.00e+00	0	23	0	859832320	61	4089
2026-01-10 22:41:08.22	58.15	23.41	-47.6	-48.8	15.3	0.00e+00	0	23	0	862978048	61	4120
2026-01-10 22:41:09.23	58.40	23.48	-47.7	-48.9	15.3	0.00e+00	0	23	0	866123776	61	4157
2026-01-10 22:41:10.23	58.64	23.54	-47.7	-48.9	15.3	0.00e+00	0	23	0	869269504	61	4162
2026-01-10 22:41:11.23	58.89	23.61	-47.7	-48.8	15.3	0.00e+00	0	23	0	872415232	61	4139
2026-01-10 22:41:12.24	59.14	23.68	-47.6	-48.8	15.3	0.00e+00	0	23	0	875560960	61	4130
2026-01-10 22:41:13.24	59.39	23.75	-47.5	-48.7	15.4	0.00e+00	0	23	0	878706688	61	4078
2026-01-10 22:41:14.24	59.64	23.82	-47.5	-48.7	15.4	0.00e+00	0	23	0	881852416	61	4081
2026-01-10 22:41:15.24	59.90	23.89	-47.5	-48.7	15.4	0.00e+00	0	23	0	884998144	61	4054
2026-01-10 22:41:16.24	60.15	23.95	-47.5	-48.7	15.4	0.00e+00	0	23	0	888143872	61	4083
2026-01-10 22:41:17.23	60.40	24.02	-47.6	-48.8	15.3	0.00e+00	0	23	0	891289600	61	4127
2026-01-10 22:41:18.23	60.66	24.09	-47.7	-48.9	15.3	0.00e+00	0	23	0	894435328	61	4182
2026-01-10 22:41:19.22	60.91	24.15	-47.8	-49.0	15.2	0.00e+00	0	23	0	897581056	61	4230
2026-01-10 22:41:20.23	61.17	24.22	-48.0	-49.2	15.2	0.00e+00	0	23	0	900726784	61	4314
2026-01-10 22:41:21.23	61.43	24.28	-48.0	-49.2	15.1	0.00e+00	0	23	0	903872512	61	4337
2026-01-10 22:41:22.22	61.69	24.35	-48.0	-49.3	15.1	0.00e+00	0	23	0	907018240	61	4365
2026-01-10 22:41:23.22	61.95	24.41	-48.0	-49.2	15.2	0.00e+00	0	23	0	910163968	61	4321
2026-01-10 22:41:24.23	62.21	24.47	-48.0	-49.2	15.2	0.00e+00	0	23	0	913309696	61	4315
2026-01-10 22:41:25.22	62.47	24.54	-47.9	-49.1	15.2	0.00e+00	0	23	0	916455424	61	4255
2026-01-10 22:41:26.22	62.73	24.60	-47.8	-49.0	15.2	0.00e+00	0	23	0	919601152	61	4226
2026-01-10 22:41:27.22	63.00	24.66	-47.9	-49.1	15.2	0.00e+00	0	23	0	922746880	61	4256
2026-01-10 22:41:28.23	63.27	24.72	-48.0	-49.2	15.2	0.00e+00	0	23	0	925892608	61	4306
2026-01-10 22:41:29.23	63.53	24.78	-48.1	-49.4	15.1	0.00e+00	0	23	0	929038336	61	4409
2026-01-10 22:41:30.24	63.81	24.85	-48.3	-49.5	15.0	0.00e+00	0	23	0	932184064	61	4484
2026-01-10 22:41:31.24	64.07	24.91	-48.2	-49.5	15.1	0.00e+00	0	23	0	935329792	61	4457
2026-01-10 22:41:32.25	64.35	24.97	-48.2	-49.5	15.1	0.00e+00	0	23	0	938475520	61	4457
2026-01-10 22:41:33.25	64.62	25.03	-48.1	-49.3	15.1	0.00e+00	0	23	0	941621248	61	4390
2026-01-10 22:41:34.25	64.89	25.08	-48.0	-49.2	15.2	0.00e+00	0	23	0	944766976	61	4337
2026-01-10 22:41:35.26	65.16	25.14	-48.0	-49.2	15.1	0.00e+00	0	23	0	947912704	61	4330
2026-01-10 22:41:36.26	65.44	25.20	-47.9	-49.2	15.2	0.00e+00	0	23	0	951058432	61	4296
2026-01-10 22:41:37.26	65.71	25.26	-48.0	-49.2	15.2	0.00e+00	0	23	0	953155584	61	4330
2026-01-10 22:41:38.26	65.99	25.31	-48.0	-49.3	15.1	0.00e+00	0	23	0	957349888	61	4358
2026-01-10 22:41:39.27	66.27	25.37	-48.0	-49.2	15.2	0.00e+00	0	23	0	960495616	61	4313
2026-01-10 22:41:40.27	66.55	25.43	-47.9	-49.1	15.2	0.00e+00	0	23	0	963641344	61	4278
2026-01-10 22:41:41.27	66.82	25.48	-48.0	-49.2	15.2	0.00e+00	0	23	0	966787072	61	4310
2026-01-10 22:41:42.28	67.11	25.53	-48.0	-49.2	15.2	0.00e+00	0	23	0	969932800	61	4309
2026-01-10 22:41:43.27	67.38	25.59	-48.0	-49.2	15.2	0.00e+00	0	23	0	973078528	61	4339
2026-01-10 22:41:44.27	67.67	25.64	-48.1	-49.4	15.1	0.00e+00	0	23	0	976224256	61	4393
2026-01-10 22:41:45.26	67.95	25.69	-48.0	-49.3	15.2	0.00e+00	0	23	0	978321408	61	4343
2026-01-10 22:41:46.26	68.23	25.74	-48.0	-49.2	15.2	0.00e+00	0	23	0	981467136	61	4305
2026-01-10 22:41:47.27	68.52	25.80	-48.1	-49.3	15.1	0.00e+00	0	23	0	984612864	61	4386
2026-01-10 22:41:48.26	68.80	25.85	-48.1	-49.3	15.1	0.00e+00	0	23	0	987758592	61	4380
2026-01-10 22:41:49.27	69.09	25.90	-47.9	-49.2	15.2	0.00e+00	0	23	0	990904320	61	4300
2026-01-10 22:41:50.27	69.37	25.94	-47.9	-49.2	15.2	0.00e+00	0	23	0	994050048	61	4292
2026-01-10 22:41:51.27	69.66	25.99	-47.8	-49.0	15.2	0.00e+00	0	23	0	997195776	61	4219
2026-01-10 22:41:52.26	69.95	26.04	-47.8	-49.0	15.2	0.00e+00	0	23	0	1000341504	61	4233
2026-01-10 22:41:53.26	70.24	26.09	-47.8	-49.0	15.2	0.00e+00	0	23	0	1003487232	61	4230
2026-01-10 22:41:54.25	70.52	26.13	-47.8	-49.0	15.2	0.00e+00	0	23	0	1006632960	61	4229
2026-01-10 22:41:55.25	70.82	26.18	-47.9	-49.1	15.2	0.00e+00	0	23	0	1009778688	61	4251
2026-01-10 22:41:56.25	71.11	26.22	-47.8	-49.0	15.2	0.00e+00	0	23	0	1012924416	61	4236
2026-01-10 22:41:57.25	71.40	26.27	-47.9	-49.1	15.2	0.00e+00	0	23	0	1016070144	61	4271
2026-01-10 22:41:58.25	71.69	26.31	-47.8	-49.0	15.2	0.00e+00	0	23	0	1019215872	61	4222
2026-01-10 22:41:59.25	71.99	26.36	-47.8	-49.0	15.2	0.00e+00	0	23	0	1022361600	61	4208
2026-01-10 22:42:00.25	72.28	26.40	-47.8	-49.0	15.3	0.00e+00	0	23	0	1025507328	61	4202
2026-01-10 22:42:01.26	72.58	26.44	-47.8	-49.0	15.2	0.00e+00	0	23	0	1028653056	61	4239
2026-01-10 22:42:02.26	72.88	26.48	-47.8	-49.0	15.2	0.00e+00	0	23	0	1031798784	61	4232
2026-01-10 22:42:03.25	73.17	26.52	-47.7	-48.9	15.3	0.00e+00	0	23	0	1034944512	61	4191
2026-01-10 22:42:04.25	73.47	26.56	-47.8	-49.0	15.3	0.00e+00	0	23	0	1038090240	61	4199
2026-01-10 22:42:05.24	73.77	26.60	-47.7	-48.9	15.3	0.00e+00	0	23	0	1041235968	61	4167
2026-01-10 22:42:06.24	74.07	26.63	-47.7	-48.9	15.3	0.00e+00	0	23	0	1044381696	61	4154
2026-01-10 22:42:07.24	74.37	26.67	-47.6	-48.8	15.3	0.00e+00	0	23	0	1047527424	61	4121
2026-01-10 22:42:08.24	74.67	26.71	-47.6	-48.8	15.3	0.00e+00	0	23	0	1050673152	61	4145
2026-01-10 22:42:09.24	74.97	26.74	-47.7	-48.9	15.3	0.00e+00	0	23	0	1053818880	61	4182
2026-01-10 22:42:10.24	75.27	26.78	-47.8	-49.0	15.3	0.00e+00	0	23	0	1056964608	61	4210
2026-01-10 22:42:11.25	75.58	26.81	-47.8	-49.0	15.3	0.00e+00	0	23	0	1060110336	61	4207
2026-01-10 22:42:12.25	75.88	26.84	-47.7	-48.9	15.3	0.00e+00	0	23	0	1063256064	61	4150
2026-01-10 22:42:13.26	76.19	26.88	-47.6	-48.8	15.3	0.00e+00	0	23	0	1066401792	61	4116
2026-01-10 22:42:14.26	76.49	26.91	-47.6	-48.8	15.3	0.00e+00	0	23	0	1069547520	61	4137
2026-01-10 22:42:15.27	76.80	26.94	-47.6	-48.7	15.4	0.00e+00	0	23	0	1072693248	61	4096
2026-01-10 22:42:16.27	77.11	26.97	-47.6	-48.8	15.3	0.00e+00	0	23	0	1075838976	61	4133
2026-01-10 22:42:17.27	77.41	27.00	-47.7	-48.9	15.3	0.00e+00	0	23	0	1078984704	61	4158
2026-01-10 22:42:18.27	77.72	27.03	-47.7	-48.9	15.3	0.00e+00	0	23	0	1082130432	61	4152
2026-01-10 22:42:19.27	78.03	27.05	-47.6	-48.8	15.3	0.00e+00	0	23	0	1085276160	61	4111
2026-01-10 22:42:20.27	78.34	27.08	-47.6	-48.8	15.3	0.00e+00	0	23	0	1088421888	61	4115
2026-01-10 22:42:21.28	78.65	27.11	-47.6	-48.8	15.3	0.00e+00	0	23	0	1091567616	61	4138
2026-01-10 22:42:22.27	78.95	27.13	-47.7	-48.8	15.3	0.00e+00	0	23	0	1094713344	61	4145
2026-01-10 22:42:23.27	79.26	27.15	-47.7	-49.0	15.3	0.00e+00	0	23	0	1097859072	61	4196
2026-01-10 22:42:24.27	79.57	27.18	-47.8	-49.0	15.3	0.00e+00	0	23	0	1101004800	61	4227
2026-01-10 22:42:25.27	79.88	27.20	-47.8	-49.0	15.2	0.00e+00	0	23	0	1104150528	61	4241
2026-01-10 22:42:26.27	80.20	27.22	-47.7	-48.9	15.3	0.00e+00	0	23	0	1107296256	61	4148
2026-01-10 22:42:27.27	80.51	27.24	-47.8	-49.0	15.3	0.00e+00	0	23	0	1110441984	61	4200
2026-01-10 22:42:28.27	80.82	27.26	-47.8	-49.0	15.3	0.00e+00	0	23	0	1113587712	61	4198
2026-01-10 22:42:29.27	81.13	27.28	-47.8	-49.1	15.2	0.00e+00	0	23	0	1116733440	61	4245
2026-01-10 22:42:30.26	81.44	27.30	-47.9	-49.1	15.2	0.00e+00	0	23	0	1119879168	61	4284
2026-01-10 22:42:31.26	81.75	27.31	-47.9	-49.1	15.2	0.00e+00	0	23	0	1123024896	61	4271
2026-01-10 22:42:32.26	82.06	27.33	-47.7	-49.0	15.3	0.00e+00	0	23	0	1126170624	61	4197
2026-01-10 22:42:33.27	82.38	27.34	-47.7	-48.9	15.3	0.00e+00	0	23	0	1129316352	61	4175
2026-01-10 22:42:34.27	82.69	27.36	-47.6	-48.8	15.3	0.00e+00	0	23	0	1132462080	61	4128
2026-01-10 22:42:35.26	83.01	27.37	-47.7	-48.9	15.3	0.00e+00	0	23	0	1134559232	61	4146
2026-01-10 22:42:36.27	83.32	27.38	-47.7	-48.9	15.3	0.00e+00	0	23	0	1137704960	61	4193
2026-01-10 22:42:37.27	83.64	27.39	-47.8	-49.0	15.3	0.00e+00	0	23	0	1140850688	61	4218
2026-01-10 22:42:38.28	83.95	27.41	-47.7	-48.9	15.3	0.00e+00	0	23	0	1143996416	61	4154
2026-01-10 22:42:39.28	84.27	27.41	-47.6	-48.8	15.3	0.00e+00	0	23	0	1147142144	61	4131
2026-01-10 22:42:40.28	84.58	27.42	-47.5	-48.7	15.4	0.00e+00	0	23	0	1150287872	61	4067
2026-01-10 22:42:41.28	84.90	27.43	-47.7	-48.9	15.3	0.00e+00	0	23	0	1153433600	61	4150
2026-01-10 22:42:42.28	85.22	27.44	-47.8	-49.0	15.3	0.00e+00	0	23	0	1156579328	61	4223
2026-01-10 22:42:43.28	85.53	27.44	-47.9	-49.1	15.2	0.00e+00	0	23	0	1159725056	61	4277
2026-01-10 22:42:44.28	85.85	27.45	-47.9	-49.1	15.2	0.00e+00	0	23	0	1162870784	61	4291
2026-01-10 22:42:45.27	86.16	27.45	-47.9	-49.2	15.2	0.00e+00	0	23	0	1166016512	61	4296
2026-01-10 22:42:46.28	86.48	27.46	-48.0	-49.2	15.2	0.00e+00	0	23	0	1169162240	61	4333
2026-01-10 22:42:47.28	86.79	27.46	-47.9	-49.2	15.2	0.00e+00	0	23	0	1172307968	61	4302
2026-01-10 22:42:48.27	87.11	27.46	-48.0	-49.2	15.2	0.00e+00	0	23	0	1175453696	61	4320
2026-01-10 22:42:49.27	87.42	27.46	-47.9	-49.1	15.2	0.00e+00	0	23	0	1178599424	61	4264
2026-01-10 22:42:50.27	87.74	27.46	-47.8	-49.0	15.3	0.00e+00	0	23	0	1181745152	61	4215
2026-01-10 22:42:51.27	88.05	27.46	-47.7	-48.9	15.3	0.00e+00	0	23	0	1184890880	61	4161
2026-01-10 22:42:52.27	88.37	27.46	-47.7	-48.9	15.3	0.00e+00	0	23	0	1188036608	61	4164
2026-01-10 22:42:53.27	88.68	27.45	-47.6	-48.7	15.3	0.00e+00	0	23	0	1191182336	61	4098
2026-01-10 22:42:54.26	89.00	27.45	-47.7	-48.9	15.3	0.00e+00	0	23	0	1194328064	61	4165
2026-01-10 22:42:55.26	89.31	27.44	-47.6	-48.8	15.3	0.00e+00	0	23	0	1197473792	61	4137
2026-01-10 22:42:56.26	89.63	27.44	-47.7	-48.9	15.3	0.00e+00	0	23	0	1200619520	61	4175
2026-01-10 22:42:57.26	89.94	27.43	-47.6	-48.8	15.3	0.00e+00	0	23	0	1203765248	61	4123
2026-01-10 22:42:58.27	90.26	27.42	-47.5	-48.7	15.4	0.00e+00	0	23	0	1206910976	61	4063
2026-01-10 22:42:59.26	90.57	27.42	-47.5	-48.7	15.4	0.00e+00	0	23	0	1210056704	61	4068
2026-01-10 22:43:00.26	90.89	27.41	-47.5	-48.6	15.4	0.00e+00	0	23	0	1213202432	61	4035
2026-01-10 22:43:01.26	91.20	27.39	-47.5	-48.7	15.4	0.00e+00	0	23	0	1216348160	61	4053
2026-01-10 22:43:02.26	91.52	27.38	-47.5	-48.7	15.4	0.00e+00	0	23	0	1219493888	61	4052
2026-01-10 22:43:03.25	91.83	27.37	-47.6	-48.8	15.3	0.00e+00	0	23	0	1222639616	61	4130
2026-01-10 22:43:04.24	92.14	27.36	-47.8	-49.0	15.3	0.00e+00	0	23	0	1225785344	61	4226
2026-01-10 22:43:05.25	92.46	27.34	-47.8	-49.0	15.2	0.00e+00	0	23	0	1228931072	61	4241
2026-01-10 22:43:06.25	92.77	27.33	-47.8	-49.0	15.3	0.00e+00	0	23	0	1232076800	61	4206
2026-01-10 22:43:07.25	93.08	27.31	-47.6	-48.8	15.3	0.00e+00	0	23	0	1235222528	61	4110
2026-01-10 22:43:08.26	93.40	27.30	-47.6	-48.8	15.3	0.00e+00	0	23	0	1238368256	61	4139
2026-01-10 22:43:09.26	93.71	27.28	-47.5	-48.7	15.4	0.00e+00	0	23	0	1241513984	61	4085
2026-01-10 22:43:10.26	94.02	27.26	-47.5	-48.7	15.4	0.00e+00	0	23	0	1244659712	61	4073
2026-01-10 22:43:11.26	94.34	27.24	-47.6	-48.7	15.4	0.00e+00	0	23	0	1247805440	61	4092
2026-01-10 22:43:12.26	94.65	27.22	-47.6	-48.8	15.3	0.00e+00	0	23	0	1250951168	61	4131
2026-01-10 22:43:13.26	94.96	27.20	-47.5	-48.7	15.4	0.00e+00	0	23	0	1254096896	61	4081
2026-01-10 22:43:14.26	95.27	27.18	-47.6	-48.8	15.4	0.00e+00	0	23	0	1257242624	61	4106
2026-01-10 22:43:15.27	95.58	27.15	-47.7	-48.9	15.3	0.00e+00	0	23	0	1260388352	61	4162
2026-01-10 22:43:16.28	95.90	27.13	-47.7	-48.9	15.3	0.00e+00	0	23	0	1263534080	61	4166
2026-01-10 22:43:17.28	96.21	27.10	-47.8	-49.0	15.2	0.00e+00	0	23	0	1266679808	61	4233
2026-01-10 22:43:18.28	96.51	27.08	-47.8	-49.0	15.3	0.00e+00	0	23	0	1269825536	61	4202
2026-01-10 22:43:19.28	96.82	27.05	-47.6	-48.8	15.4	0.00e+00	0	23	0	1272971264	61	4114
2026-01-10 22:43:20.28	97.13	27.03	-47.6	-48.8	15.3	0.00e+00	0	23	0	1276116992	61	4110
2026-01-10 22:43:21.29	97.44	27.00	-47.5	-48.7	15.4	0.00e+00	0	23	0	1279262720	61	4081
2026-01-10 22:43:22.29	97.75	26.97	-47.5	-48.7	15.4	0.00e+00	0	23	0	1282408448	61	4082
2026-01-10 22:43:23.29	98.06	26.94	-47.6	-48.7	15.4	0.00e+00	0	23	0	1285554176	61	4092
2026-01-10 22:43:24.29	98.36	26.91	-47.7	-48.9	15.3	0.00e+00	0	23	0	1288699904	61	4173
2026-01-10 22:43:25.29	98.67	26.88	-47.7	-48.9	15.3	0.00e+00	0	23	0	1291845632	61	4152
2026-01-10 22:43:26.29	98.97	26.84	-47.7	-48.9	15.3	0.00e+00	0	23	0	1293942784	61	4182
2026-01-10 22:43:27.28	99.27	26.81	-47.9	-49.1	15.2	0.00e+00	0	23	0	1297088512	61	4282
2026-01-10 22:43:28.28	99.57	26.78	-47.7	-48.9	15.3	0.00e+00	0	23	0	1300234240	61	4179
2026-01-10 22:43:29.28	99.88	26.74	-47.9	-49.1	15.3	0.00e+00	0	23	0	1303379968	61	4257
2026-01-10 22:43:30.28	100.18	26.71	-47.9	-49.2	15.2	0.00e+00	0	23	0	1306525696	61	4305
2026-01-10 22:43:31.28	100.48	26.67	-47.9	-49.2	15.2	0.00e+00	0	23	0	1309671424	61	4309
2026-01-10 22:43:32.28	100.78	26.63	-47.8	-49.0	15.2	0.00e+00	0	23	0	1312817152	61	4242
2026-01-10 22:43:33.28	101.08	26.60	-47.8	-49.0	15.2	0.00e+00	0	23	0	1315962880	61	4230
2026-01-10 22:43:34.28	101.38	26.56	-47.8	-49.0	15.2	0.00e+00	0	23	0	1319108608	61	4229
2026-01-10 22:43:35.28	101.68	26.52	-48.0	-49.2	15.2	0.00e+00	0	23	0	1322254336	61	4333
2026-01-10 22:43:36.27	101.98	26.48	-48.1	-49.3	15.1	0.00e+00	0	23	0	1325400064	61	4385
2026-01-10 22:43:37.27	102.27	26.44	-48.2	-49.4	15.1	0.00e+00	0	23	0	1328545792	61	4433
2026-01-10 22:43:38.27	102.57	26.40	-48.2	-49.4	15.1	0.00e+00	0	23	0	1331691520	61	4437
2026-01-10 22:43:39.27	102.86	26.35	-48.1	-49.3	15.1	0.00e+00	0	23	0	1334837248	61	4378
2026-01-10 22:43:40.26	103.16	26.31	-48.1	-49.3	15.1	0.00e+00	0	23	0	1337982976	61	4382
2026-01-10 22:43:41.27	103.45	26.27	-48.0	-49.3	15.2	0.00e+00	0	23	0	1341128704	61	4351
2026-01-10 22:43:42.27	103.75	26.22	-48.1	-49.4	15.1	0.00e+00	0	23	0	1344274432	61	4401
2026-01-10 22:43:43.27	104.04	26.18	-48.1	-49.3	15.1	0.00e+00	0	23	0	1347420160	61	4381
2026-01-10 22:43:44.27	104.33	26.13	-48.2	-49.5	15.1	0.00e+00	0	23	0	1350565888	61	4466
2026-01-10 22:43:45.27	104.62	26.09	-48.2	-49.5	15.1	0.00e+00	0	23	0	1353711616	61	4459
2026-01-10 22:43:46.27	104.91	26.04	-48.1	-49.3	15.2	0.00e+00	0	23	0	1356857344	61	4386
2026-01-10 22:43:47.26	105.20	25.99	-48.0	-49.3	15.2	0.00e+00	0	23	0	1360003072	61	4361
2026-01-10 22:43:48.26	105.49	25.94	-48.0	-49.2	15.2	0.00e+00	0	23	0	1363148800	61	4333
2026-01-10 22:43:49.26	105.77	25.89	-48.0	-49.3	15.2	0.00e+00	0	23	0	1366294528	61	4356
2026-01-10 22:43:50.26	106.06	25.84	-47.9	-49.1	15.2	0.00e+00	0	23	0	1369440256	61	4279
2026-01-10 22:43:51.26	106.35	25.79	-47.6	-48.8	15.3	0.00e+00	0	23	0	1372585984	61	4139
2026-01-10 22:43:52.26	106.63	25.74	-47.6	-48.8	15.4	0.00e+00	0	23	0	1375731712	61	4100
2026-01-10 22:43:53.26	106.92	25.69	-47.6	-48.7	15.4	0.00e+00	0	23	0	1378877440	61	4088
2026-01-10 22:43:54.26	107.20	25.64	-47.6	-48.8	15.4	0.00e+00	0	23	0	1382023168	61	4112
2026-01-10 22:43:55.26	107.48	25.58	-47.7	-48.9	15.3	0.00e+00	0	23	0	1385168896	61	4156
2026-01-10 22:43:56.25	107.76	25.53	-47.7	-48.8	15.3	0.00e+00	0	23	0	1388314624	61	4140
2026-01-10 22:43:57.25	108.04	25.48	-47.7	-48.9	15.3	0.00e+00	0	23	0	1391460352	61	4179
2026-01-10 22:43:58.25	108.32	25.42	-47.7	-48.9	15.3	0.00e+00	0	23	0	1394606080	61	4167
2026-01-10 22:43:59.25	108.60	25.37	-47.8	-49.0	15.3	0.00e+00	0	23	0	1397751808	61	4201
2026-01-10 22:44:00.25	108.88	25.31	-47.7	-48.9	15.3	0.00e+00	0	23	0	1400897536	61	4180
2026-01-10 22:44:01.26	109.15	25.25	-47.7	-48.9	15.3	0.00e+00	0	23	0	1404043264	61	4186
2026-01-10 22:44:02.25	109.43	25.20	-47.8	-49.0	15.3	0.00e+00	0	23	0	1407188992	61	4201
2026-01-10 22:44:03.25	109.70	25.14	-47.7	-48.9	15.3	0.00e+00	0	23	0	1410334720	61	4163
2026-01-10 22:44:04.25	109.98	25.08	-47.7	-48.9	15.3	0.00e+00	0	23	0	1413480448	61	4160
2026-01-10 22:44:05.25	110.25	25.02	-47.6	-48.8	15.3	0.00e+00	0	23	0	1416626176	61	4107
2026-01-10 22:44:06.25	110.52	24.96	-47.6	-48.8	15.3	0.00e+00	0	23	0	1419771904	61	4100
2026-01-10 22:44:07.25	110.79	24.90	-47.5	-48.7	15.3	0.00e+00	0	23	0	1422917632	61	4084
2026-01-10 22:44:08.25	111.06	24.84	-47.5	-48.6	15.4	0.00e+00	0	23	0	1426063360	61	4049
2026-01-10 22:44:09.24	111.33	24.78	-47.4	-48.5	15.4	0.00e+00	0	23	0	1428160512	61	3982
2026-01-10 22:44:10.24	111.59	24.72	-47.3	-48.4	15.5	0.00e+00	0	23	0	1431306240	61	3939
2026-01-10 22:44:11.24	111.86	24.66	-47.3	-48.4	15.5	0.00e+00	0	23	0	1434451968	61	3958
2026-01-10 22:44:12.25	112.13	24.60	-47.4	-48.6	15.4	0.00e+00	0	23	0	1437597696	61	4029
2026-01-10 22:44:13.25	112.39	24.53	-47.6	-48.7	15.4	0.00e+00	0	23	0	1440743424	61	4084
2026-01-10 22:44:14.25	112.66	24.47	-47.7	-48.9	15.3	0.00e+00	0	23	0	1443889152	61	4176
2026-01-10 22:44:15.25	112.92	24.41	-47.8	-49.0	15.2	0.00e+00	0	23	0	1447034880	61	4225
2026-01-10 22:44:16.25	113.18	24.34	-48.1	-49.3	15.1	0.00e+00	0	23	0	1450180608	61	4364
2026-01-10 22:44:17.26	113.44	24.28	-48.2	-49.4	15.1	0.00e+00	0	23	0	1453326336	61	4422
2026-01-10 22:44:18.26	113.70	24.21	-48.1	-49.4	15.1	0.00e+00	0	23	0	1456472064	61	4398
2026-01-10 22:44:19.25	113.96	24.15	-48.0	-49.3	15.2	0.00e+00	0	23	0	1459617792	61	4353
2026-01-10 22:44:20.25	114.21	24.08	-47.9	-49.1	15.2	0.00e+00	0	23	0	1462763520	61	4284
2026-01-10 22:44:21.25	114.47	24.01	-47.8	-49.0	15.2	0.00e+00	0	23	0	1465909248	61	4230
2026-01-10 22:44:22.24	114.72	23.95	-47.9	-49.1	15.2	0.00e+00	0	23	0	1469054976	61	4247
2026-01-10 22:44:23.24	114.98	23.88	-47.7	-48.9	15.3	0.00e+00	0	23	0	1472200704	61	4178
2026-01-10 22:44:24.23	115.23	23.81	-47.8	-49.0	15.2	0.00e+00	0	23	0	1475346432	61	4235
2026-01-10 22:44:25.22	115.48	23.74	-48.0	-49.3	15.1	0.00e+00	0	23	0	1478492160	61	4348
2026-01-10 22:44:26.23	115.73	23.68	-48.1	-49.4	15.1	0.00e+00	0	23	0	1481637888	61	4396
2026-01-10 22:44:27.23	115.98	23.61	-48.2	-49.5	15.1	0.00e+00	0	23	0	1484783616	61	4456
2026-01-10 22:44:28.22	116.23	23.54	-48.3	-49.6	15.0	0.00e+00	0	23	0	1487929344	61	4508
2026-01-10 22:44:29.22	116.47	23.47	-48.2	-49.5	15.0	0.00e+00	0	23	0	1491075072	61	4479
2026-01-10 22:44:30.23	116.72	23.40	-48.3	-49.5	15.1	0.00e+00	0	23	0	1494220800	61	4493
2026-01-10 22:44:31.24	116.97	23.33	-48.2	-49.4	15.1	0.00e+00	0	23	0	1497366528	61	4432
2026-01-10 22:44:32.24	117.22	23.26	-48.0	-49.2	15.2	0.00e+00	0	23	0	1500512256	61	4337
2026-01-10 22:44:33.23	117.46	23.19	-48.0	-49.3	15.2	0.00e+00	0	23	0	1503657984	61	4342
2026-01-10 22:44:34.23	117.70	23.11	-47.7	-48.9	15.3	0.00e+00	0	23	0	1506803712	61	4172
2026-01-10 22:44:35.23	117.94	23.04	-47.7	-48.9	15.3	0.00e+00	0	23	0	1509949440	61	4174
2026-01-10 22:44:36.23	118.18	22.97	-47.8	-49.0	15.2	0.00e+00	0	23	0	1513095168	61	4232
2026-01-10 22:44:37.23	118.42	22.90	-47.8	-49.0	15.2	0.00e+00	0	23	0	1516240896	61	4236
2026-01-10 22:44:38.22	118.65	22.83	-47.9	-49.1	15.2	0.00e+00	0	23	0	1519386624	61	4258
2026-01-10 22:44:39.23	118.89	22.75	-47.8	-49.0	15.2	0.00e+00	0	23	0	1522532352	61	4219
2026-01-10 22:44:40.23	119.13	22.68	-47.9	-49.1	15.2	0.00e+00	0	23	0	1525678080	61	4253
2026-01-10 22:44:41.24	119.37	22.61	-47.8	-49.0	15.2	0.00e+00	0	23	0	1528823808	61	4219
2026-01-10 22:44:42.24	119.60	22.53	-47.8	-49.0	15.2	0.00e+00	0	23	0	1531969536	61	4220
2026-01-10 22:44:43.23	119.83	22.46	-47.8	-49.1	15.2	0.00e+00	0	23	0	1535115264	61	4245
2026-01-10 22:44:44.23	120.06	22.39	-47.7	-48.9	15.3	0.00e+00	0	23	0	1538260992	61	4177
2026-01-10 22:44:45.24	120.30	22.31	-47.7	-49.0	15.3	0.00e+00	0	23	0	1541406720	61	4196
2026-01-10 22:44:46.24	120.52	22.24	-47.7	-49.0	15.2	0.00e+00	0	23	0	1544552448	61	4199
2026-01-10 22:44:47.24	120.75	22.16	-47.7	-48.9	15.3	0.00e+00	0	23	0	1547698176	61	4166
2026-01-10 22:44:48.23	120.98	22.09	-47.8	-49.0	15.2	0.00e+00	0	23	0	1550843904	61	4219
2026-01-10 22:44:49.22	121.20	22.01	-47.8	-49.0	15.2	0.00e+00	0	23	0	1553989632	61	4220
2026-01-10 22:44:50.22	121.43	21.94	-47.8	-49.1	15.2	0.00e+00	0	23	0	1557135360	61	4248
2026-01-10 22:44:51.22	121.65	21.86	-47.9	-49.1	15.2	0.00e+00	0	23	0	1560281088	61	4286
2026-01-10 22:44:52.22	121.87	21.78	-47.9	-49.2	15.2	0.00e+00	0	23	0	1563426816	61	4292
2026-01-10 22:44:53.22	122.10	21.71	-47.9	-49.1	15.2	0.00e+00	0	23	0	1566572544	61	4268
2026-01-10 22:44:54.22	122.32	21.63	-48.0	-49.3	15.1	0.00e+00	0	23	0	1569718272	61	4356
2026-01-10 22:44:55.20	122.53	21.56	-47.9	-49.2	15.2	0.00e+00	0	23	0	1571815424	61	4312
2026-01-10 22:44:56.21	122.75	21.48	-47.9	-49.1	15.2	0.00e+00	0	23	0	1574961152	61	4270
2026-01-10 22:44:57.21	122.97	21.40	-47.8	-49.0	15.2	0.00e+00	0	23	0	1579155456	61	4242
2026-01-10 22:44:58.21	123.19	21.32	-47.7	-48.9	15.3	0.00e+00	0	23	0	1582301184	61	4186
2026-01-10 22:44:59.20	123.40	21.25	-47.6	-48.9	15.3	0.00e+00	0	23	0	1584398336	61	4146
2026-01-10 22:45:00.19	123.61	21.17	-47.6	-48.8	15.3	0.00e+00	0	23	0	1587544064	61	4128
2026-01-10 22:45:01.20	123.83	21.09	-47.5	-48.7	15.4	0.00e+00	0	23	0	1590689792	61	4071
2026-01-10 22:45:02.19	124.04	21.02	-47.6	-48.7	15.3	0.00e+00	0	23	0	1593835520	61	4095
2026-01-10 22:45:03.19	124.25	20.94	-47.5	-48.7	15.3	0.00e+00	0	23	0	1596981248	61	4087
2026-01-10 22:45:04.18	124.46	20.86	-47.7	-48.9	15.3	0.00e+00	0	23	0	1600126976	61	4151
2026-01-10 22:45:05.18	124.67	20.78	-47.8	-49.0	15.3	0.00e+00	0	23	0	1603272704	61	4207
2026-01-10 22:45:06.18	124.88	20.70	-47.6	-48.8	15.3	0.00e+00	0	23	0	1606418432	61	4144
2026-01-10 22:45:07.18	125.08	20.62	-47.8	-49.0	15.2	0.00e+00	0	23	0	1609564160	61	4213
2026-01-10 22:45:08.18	125.29	20.55	-47.7	-48.9	15.3	0.00e+00	0	23	0	1612709888	61	4161
2026-01-10 22:45:09.18	125.49	20.47	-47.6	-48.8	15.3	0.00e+00	0	23	0	1615855616	61	4112
2026-01-10 22:45:10.17	125.70	20.39	-47.6	-48.8	15.3	0.00e+00	0	23	0	1619001344	61	4121
2026-01-10 22:45:11.17	125.90	20.31	-47.7	-48.9	15.2	0.00e+00	0	23	0	1622147072	61	4159
2026-01-10 22:45:12.17	126.10	20.23	-47.8	-49.0	15.2	0.00e+00	0	23	0	1625292800	61	4203
2026-01-10 22:45:13.17	126.30	20.15	-47.7	-48.9	15.2	0.00e+00	0	23	0	1628438528	61	4191
2026-01-10 22:45:14.15	126.50	20.07	-47.8	-49.0	15.2	0.00e+00	0	23	0	1631584256	61	4217
2026-01-10 22:45:15.14	126.70	20.00	-47.8	-49.0	15.2	0.00e+00	0	23	0	1634729984	61	4227
2026-01-10 22:45:16.14	126.90	19.92	-47.8	-49.1	15.2	0.00e+00	0	23	0	1637875712	61	4244
2026-01-10 22:45:17.14	127.09	19.84	-47.9	-49.1	15.2	0.00e+00	0	23	0	1641021440	61	4279
2026-01-10 22:45:18.14	127.29	19.76	-47.9	-49.1	15.2	0.00e+00	0	23	0	1644167168	61	4262
2026-01-10 22:45:19.14	127.48	19.68	-48.0	-49.2	15.1	0.00e+00	0	23	0	1647312896	61	4326
2026-01-10 22:45:20.13	127.68	19.60	-47.9	-49.1	15.2	0.00e+00	0	23	0	1650458624	61	4280
2026-01-10 22:45:21.12	127.87	19.52	-47.8	-49.1	15.2	0.00e+00	0	23	0	1653604352	61	4257
2026-01-10 22:45:22.13	128.06	19.44	-47.9	-49.2	15.2	0.00e+00	0	23	0	1656750080	61	4292
2026-01-10 22:45:23.13	128.25	19.36	-47.9	-49.1	15.1	0.00e+00	0	23	0	1659895808	61	4290
2026-01-10 22:45:24.14	128.45	19.28	-48.0	-49.2	15.1	0.00e+00	0	23	0	1663041536	61	4326
2026-01-10 22:45:25.14	128.63	19.20	-48.0	-49.2	15.1	0.00e+00	0	23	0	1666187264	61	4336
2026-01-10 22:45:26.15	128.83	19.12	-48.0	-49.3	15.1	0.00e+00	0	23	0	1669332992	61	4362
2026-01-10 22:45:27.15	129.01	19.04	-48.1	-49.4	15.0	0.00e+00	0	23	0	1672478720	61	4404
2026-01-10 22:45:28.15	129.20	18.96	-48.2	-49.5	15.0	0.00e+00	0	23	0	1675624448	61	4451
2026-01-10 22:45:29.15	129.38	18.88	-48.2	-49.5	15.0	0.00e+00	0	23	0	1678770176	61	4448
2026-01-10 22:45:30.14	129.57	18.80	-48.3	-49.5	15.0	0.00e+00	0	23	0	1681915904	61	4488
2026-01-10 22:45:31.14	129.75	18.72	-48.3	-49.5	15.0	0.00e+00	0	23	0	1685061632	61	4487
2026-01-10 22:45:32.14	129.93	18.64	-48.2	-49.5	15.0	0.00e+00	0	23	0	1688207360	61	4452
2026-01-10 22:45:33.13	130.11	18.56	-48.1	-49.4	15.0	0.00e+00	0	23	0	1691353088	61	4402
2026-01-10 22:45:34.13	130.30	18.48	-48.3	-49.5	15.0	0.00e+00	0	23	0	1694498816	61	4485
2026-01-10 22:45:35.12	130.47	18.40	-48.3	-49.5	15.0	0.00e+00	0	23	0	1696595968	61	4493
2026-01-10 22:45:36.12	130.65	18.32	-48.2	-49.5	15.0	0.00e+00	0	23	0	1699741696	61	4461
2026-01-10 22:45:37.11	130.83	18.24	-48.3	-49.5	15.0	0.00e+00	0	23	0	1702887424	61	4489
2026-01-10 22:45:38.12	131.01	18.16	-48.3	-49.7	14.9	0.00e+00	0	23	0	1706033152	61	4550
2026-01-10 22:45:39.11	131.18	18.08	-48.3	-49.6	14.9	0.00e+00	0	23	0	1709178880	61	4532
2026-01-10 22:45:40.12	131.36	18.00	-48.2	-49.4	15.0	0.00e+00	0	23	0	1712324608	61	4439
2026-01-10 22:45:41.12	131.53	17.92	-48.2	-49.5	15.0	0.00e+00	0	23	0	1715470336	61	4468
2026-01-10 22:45:42.12	131.71	17.84	-48.3	-49.6	15.0	0.00e+00	0	23	0	1718616064	61	4508
2026-01-10 22:45:43.13	131.88	17.75	-48.5	-49.8	15.0	0.00e+00	0	23	0	1721761792	62	4347
2026-01-10 22:45:44.13	132.05	17.67	-48.5	-49.8	15.0	0.00e+00	0	23	0	1724907520	62	4346
2026-01-10 22:45:45.13	132.22	17.59	-48.5	-49.8	15.0	0.00e+00	0	23	0	1728053248	62	4382
2026-01-10 22:45:46.12	132.39	17.51	-48.5	-49.8	15.0	0.00e+00	0	23	0	1731198976	62	4362
2026-01-10 22:45:47.12	132.56	17.43	-48.5	-49.8	15.0	0.00e+00	0	23	0	1734344704	62	4367
2026-01-10 22:45:48.12	132.73	17.35	-48.5	-49.8	14.9	0.00e+00	0	23	0	1737490432	62	4379
2026-01-10 22:45:49.13	132.90	17.27	-48.6	-49.9	14.9	0.00e+00	0	23	0	1740636160	62	4405
2026-01-10 22:45:50.12	133.07	17.19	-48.5	-49.8	15.0	0.00e+00	0	23	0	1743781888	62	4370
2026-01-10 22:45:51.12	133.23	17.11	-48.6	-49.9	14.9	0.00e+00	0	23	0	1746927616	62	4416
2026-01-10 22:45:52.12	133.40	17.03	-48.6	-49.9	14.9	0.00e+00	0	23	0	1750073344	62	4438
2026-01-10 22:45:53.12	133.56	16.95	-48.7	-50.0	14.9	0.00e+00	0	23	0	1753219072	62	4484
2026-01-10 22:45:54.11	133.72	16.87	-48.6	-49.9	14.9	0.00e+00	0	23	0	1756364800	62	4439
2026-01-10 22:45:55.11	133.88	16.79	-48.6	-50.0	14.9	0.00e+00	0	23	0	1759510528	62	4467
2026-01-10 22:45:56.11	134.05	16.71	-48.7	-50.0	14.9	0.00e+00	0	23	0	1762656256	62	4479
2026-01-10 22:45:57.11	134.21	16.64	-48.6	-49.9	14.9	0.00e+00	0	23	0	1765801984	62	4425
2026-01-10 22:45:58.11	134.37	16.56	-48.5	-49.9	14.9	0.00e+00	0	23	0	1768947712	62	4402
2026-01-10 22:45:59.11	134.53	16.48	-48.5	-49.8	15.0	0.00e+00	0	23	0	1772093440	62	4380
2026-01-10 22:46:00.10	134.68	16.40	-48.5	-49.8	15.0	0.00e+00	0	23	0	1775239168	62	4369
2026-01-10 22:46:01.09	134.84	16.32	-48.4	-49.7	15.0	0.00e+00	0	23	0	1778384896	62	4309
2026-01-10 22:46:02.09	134.99	16.24	-48.3	-49.5	15.1	0.00e+00	0	23	0	1781530624	62	4241
2026-01-10 22:46:03.09	135.15	16.16	-48.2	-49.5	15.1	0.00e+00	0	23	0	1784676352	62	4223
2026-01-10 22:46:04.10	135.31	16.08	-48.2	-49.5	15.1	0.00e+00	0	23	0	1787822080	62	4224
2026-01-10 22:46:05.10	135.46	16.00	-48.3	-49.6	15.1	0.00e+00	0	23	0	1790967808	62	4263
2026-01-10 22:46:06.11	135.62	15.92	-48.3	-49.5	15.1	0.00e+00	0	23	0	1794113536	62	4239
2026-01-10 22:46:07.10	135.77	15.84	-48.4	-49.7	15.0	0.00e+00	0	23	0	1797259264	62	4314
2026-01-10 22:46:08.11	135.92	15.76	-48.2	-49.5	15.1	0.00e+00	0	23	0	1800404992	62	4218
2026-01-10 22:46:09.11	136.07	15.68	-48.3	-49.6	15.0	0.00e+00	0	23	0	1803550720	62	4260
2026-01-10 22:46:10.11	136.22	15.60	-48.4	-49.7	15.0	0.00e+00	0	23	0	1806696448	62	4314
2026-01-10 22:46:11.11	136.37	15.52	-48.4	-49.7	15.0	0.00e+00	0	23	0	1809842176	62	4336
2026-01-10 22:46:12.09	136.52	15.45	-48.4	-49.7	15.0	0.00e+00	0	23	0	1812987904	62	4325
2026-01-10 22:46:13.09	136.67	15.37	-48.6	-49.9	14.9	0.00e+00	0	23	0	1816133632	62	4440
2026-01-10 22:46:14.10	136.82	15.29	-48.7	-50.0	14.9	0.00e+00	0	23	0	1819279360	62	4487
2026-01-10 22:46:15.10	136.96	15.21	-48.8	-50.2	14.8	0.00e+00	0	23	0	1822425088	62	4556
2026-01-10 22:46:16.10	137.11	15.13	-48.7	-50.0	14.9	0.00e+00	0	23	0	1825570816	62	4490
2026-01-10 22:46:17.10	137.25	15.05	-48.8	-50.1	14.8	0.00e+00	0	23	0	1828716544	62	4534
2026-01-10 22:46:18.10	137.40	14.97	-48.8	-50.1	14.8	0.00e+00	0	23	0	1830813696	62	4544
2026-01-10 22:46:19.10	137.54	14.90	-48.7	-50.1	14.9	0.00e+00	0	23	0	1833959424	62	4502
2026-01-10 22:46:20.10	137.68	14.82	-48.7	-50.0	14.8	0.00e+00	0	23	0	1837105152	62	4485
2026-01-10 22:46:21.10	137.83	14.74	-48.7	-50.0	14.8	0.00e+00	0	23	0	1840250880	62	4485
2026-01-10 22:46:22.10	137.97	14.66	-48.7	-50.1	14.8	0.00e+00	0	23	0	1843396608	62	4501
2026-01-10 22:46:23.10	138.11	14.58	-48.7	-50.1	14.8	0.00e+00	0	23	0	1846542336	62	4520
2026-01-10 22:46:24.10	138.25	14.50	-48.8	-50.1	14.8	0.00e+00	0	23	0	1849688064	62	4542
2026-01-10 22:46:25.10	138.39	14.43	-48.7	-50.1	14.8	0.00e+00	0	23	0	1852833792	62	4498
2026-01-10 22:46:26.09	138.53	14.35	-48.7	-50.0	14.8	0.00e+00	0	23	0	1855979520	62	4482
2026-01-10 22:46:27.09	138.66	14.27	-48.6	-50.0	14.8	0.00e+00	0	23	0	1859125248	62	4459
2026-01-10 22:46:28.09	138.80	14.20	-48.8	-50.1	14.8	0.00e+00	0	23	0	1862270976	62	4528
2026-01-10 22:46:29.09	138.94	14.12	-48.8	-50.2	14.7	0.00e+00	0	23	0	1865416704	62	4556
2026-01-10 22:46:30.08	139.07	14.04	-48.9	-50.3	14.7	0.00e+00	0	23	0	1868562432	62	4607
2026-01-10 22:46:31.08	139.21	13.96	-48.9	-50.3	14.7	0.00e+00	0	23	0	1871708160	62	4603
2026-01-10 22:46:32.07	139.34	13.89	-48.9	-50.3	14.7	0.00e+00	0	23	0	1874853888	62	4629
2026-01-10 22:46:33.08	139.48	13.81	-49.0	-50.4	14.8	0.00e+00	0	23	0	1877999616	63	4430
2026-01-10 22:46:34.07	139.61	13.73	-49.0	-50.4	14.8	0.00e+00	0	23	0	1881145344	63	4403
2026-01-10 22:46:35.07	139.74	13.66	-49.0	-50.4	14.8	0.00e+00	0	23	0	1884291072	63	4440
2026-01-10 22:46:36.07	139.87	13.58	-49.0	-50.4	14.8	0.00e+00	0	23	0	1887436800	63	4411
2026-01-10 22:46:37.06	140.00	13.50	-49.0	-50.4	14.8	0.00e+00	0	23	0	1890582528	63	4398
2026-01-10 22:46:38.05	140.13	13.43	-49.1	-50.5	14.7	0.00e+00	0	23	0	1893728256	63	4442
2026-01-10 22:46:39.04	140.26	13.35	-49.2	-50.6	14.7	0.00e+00	0	24	0	1896873984	63	4532
2026-01-10 22:46:40.04	140.39	13.28	-49.2	-50.6	14.7	0.00e+00	0	23	0	1900019712	63	4524
2026-01-10 22:46:41.04	140.52	13.20	-49.2	-50.6	14.7	0.00e+00	0	23	0	1903165440	63	4511
2026-01-10 22:46:42.04	140.65	13.12	-49.2	-50.6	14.6	0.00e+00	0	23	0	1906311168	63	4537
2026-01-10 22:46:43.04	140.77	13.05	-49.1	-50.6	14.7	0.00e+00	0	23	0	1909456896	63	4500
2026-01-10 22:46:44.03	140.90	12.97	-49.3	-50.7	14.6	0.00e+00	0	23	0	1912602624	63	4591
2026-01-10 22:46:45.03	141.03	12.90	-49.2	-50.6	14.7	0.00e+00	0	23	0	1915748352	63	4532
2026-01-10 22:46:46.03	141.15	12.82	-49.1	-50.5	14.7	0.00e+00	0	23	0	1918894080	63	4490
2026-01-10 22:46:47.02	141.28	12.75	-49.1	-50.5	14.7	0.00e+00	0	23	0	1922039808	63	4488
2026-01-10 22:46:48.02	141.40	12.67	-49.0	-50.4	14.7	0.00e+00	0	23	0	1925185536	63	4429
2026-01-10 22:46:49.02	141.52	12.60	-49.0	-50.4	14.8	0.00e+00	0	23	0	1928331264	63	4419
2026-01-10 22:46:50.02	141.65	12.52	-49.0	-50.4	14.8	0.00e+00	0	23	0	1931476992	63	4419
2026-01-10 22:46:51.03	141.77	12.45	-49.1	-50.5	14.7	0.00e+00	0	23	0	1934622720	63	4447
2026-01-10 22:46:52.02	141.89	12.37	-49.1	-50.6	14.7	0.00e+00	0	23	0	1937768448	63	4505
2026-01-10 22:46:53.02	142.01	12.30	-49.2	-50.7	14.7	0.00e+00	0	23	0	1940914176	63	4549
2026-01-10 22:46:54.03	142.13	12.22	-49.3	-50.8	14.6	0.00e+00	0	23	0	1944059904	63	4608
2026-01-10 22:46:55.02	142.25	12.15	-49.3	-50.8	14.7	0.00e+00	0	23	0	1947205632	64	4357
2026-01-10 22:46:56.02	142.37	12.07	-49.3	-50.7	14.7	0.00e+00	0	23	0	1950351360	64	4332
2026-01-10 22:46:57.01	142.49	12.00	-49.2	-50.7	14.7	0.00e+00	0	23	0	1953497088	64	4308
2026-01-10 22:46:58.01	142.61	11.93	-49.3	-50.8	14.7	0.00e+00	0	23	0	1956642816	64	4358
2026-01-10 22:46:59.00	142.73	11.85	-49.3	-50.7	14.7	0.00e+00	0	23	0	1958739968	64	4337
2026-01-10 22:47:00.00	142.84	11.78	-49.3	-50.8	14.7	0.00e+00	0	23	0	1961885696	64	4348
2026-01-10 22:47:00.99	142.96	11.70	-49.2	-50.7	14.7	0.00e+00	0	23	0	1965031424	64	4301
2026-01-10 22:47:01.98	143.07	11.63	-49.3	-50.8	14.7	0.00e+00	0	23	0	1968177152	64	4344
2026-01-10 22:47:02.99	143.19	11.56	-49.2	-50.6	14.8	0.00e+00	0	23	0	1971322880	64	4270
2026-01-10 22:47:03.98	143.31	11.48	-49.3	-50.7	14.7	0.00e+00	0	23	0	1974468608	64	4319
2026-01-10 22:47:04.98	143.42	11.41	-49.2	-50.7	14.7	0.00e+00	0	23	0	1977614336	64	4307
2026-01-10 22:47:05.98	143.53	11.34	-49.1	-50.5	14.8	0.00e+00	0	23	0	1980760064	64	4239
2026-01-10 22:47:06.97	143.65	11.27	-49.1	-50.5	14.8	0.00e+00	0	23	0	1983905792	64	4232
2026-01-10 22:47:07.97	143.76	11.19	-49.2	-50.7	14.7	0.00e+00	0	23	0	1987051520	64	4312
2026-01-10 22:47:08.97	143.87	11.12	-49.1	-50.5	14.9	0.00e+00	0	23	0	1990197248	64	4213
2026-01-10 22:47:09.97	143.98	11.05	-49.1	-50.5	14.8	0.00e+00	0	23	0	1993342976	64	4240
2026-01-10 22:47:10.98	144.10	10.97	-49.2	-50.6	14.8	0.00e+00	0	23	0	1996488704	64	4270
2026-01-10 22:47:11.98	144.21	10.90	-49.2	-50.6	14.7	0.00e+00	0	23	0	1999634432	64	4290
2026-01-10 22:47:12.99	144.32	10.83	-49.2	-50.6	14.7	0.00e+00	0	23	0	2002780160	64	4286
2026-01-10 22:47:13.98	144.43	10.76	-49.2	-50.6	14.7	0.00e+00	0	23	0	2005925888	64	4279
2026-01-10 22:47:14.98	144.54	10.68	-49.3	-50.7	14.7	0.00e+00	0	23	0	2009071616	64	4320
2026-01-10 22:47:15.98	144.64	10.61	-49.3	-50.8	14.7	0.00e+00	0	23	0	2012217344	64	4345
2026-01-10 22:47:16.98	144.75	10.54	-49.3	-50.8	14.7	0.00e+00	0	23	0	2015363072	64	4364
2026-01-10 22:47:17.99	144.86	10.47	-49.5	-50.9	14.6	0.00e+00	0	23	0	2018508800	64	4441
2026-01-10 22:47:18.99	144.97	10.40	-49.5	-50.9	14.6	0.00e+00	0	23	0	2021654528	64	4441
2026-01-10 22:47:20.00	145.08	10.32	-49.6	-51.1	14.5	0.00e+00	0	23	0	2024800256	64	4540
2026-01-10 22:47:21.00	145.18	10.25	-49.6	-51.1	14.5	0.00e+00	0	23	0	2027945984	64	4513
2026-01-10 22:47:22.00	145.29	10.18	-49.4	-50.9	14.6	0.00e+00	0	23	0	2031091712	64	4421
2026-01-10 22:47:23.00	145.39	10.11	-49.4	-50.9	14.6	0.00e+00	0	23	0	2034237440	64	4397
2026-01-10 22:47:24.00	145.50	10.04	-49.5	-51.0	14.5	0.00e+00	0	23	0	2037383168	64	4460
2026-01-10 22:47:25.00	145.60	9.97	-49.3	-50.8	14.6	0.00e+00	0	23	0	2040528896	64	4368
2026-01-10 22:47:25.99	145.70	9.90	-49.5	-51.0	14.5	0.00e+00	0	23	0	2043674624	64	4457
2026-01-10 22:47:26.99	145.81	9.83	-49.4	-50.9	14.6	0.00e+00	0	23	0	2046820352	64	4406
2026-01-10 22:47:27.99	145.91	9.76	-49.5	-51.0	14.5	0.00e+00	0	23	0	2049966080	64	4445
2026-01-10 22:47:28.98	146.01	9.69	-49.5	-51.0	14.5	0.00e+00	0	23	0	2053111808	64	4461
2026-01-10 22:47:29.98	146.11	9.62	-49.5	-51.0	14.5	0.00e+00	0	23	0	2056257536	64	4449
2026-01-10 22:47:30.98	146.22	9.55	-49.5	-51.0	14.5	0.00e+00	0	23	0	2059403264	64	4454
2026-01-10 22:47:31.98	146.32	9.48	-49.4	-50.9	14.5	0.00e+00	0	23	0	2062548992	64	4438
2026-01-10 22:47:32.98	146.42	9.41	-49.5	-51.0	14.5	0.00e+00	0	23	0	2065694720	64	4457
