passes_logs/2026/01/10/R3.2S_Murmansk/R3.2S_Murmansk__20260110_112414_NOAA_20_JPSS-1_rec.log

#Pass ID: 20260110_112414_NOAA 20 (JPSS-1)
#Satellite: NOAA 20 (JPSS-1)
#Configuration: NOAA 20
#almurnet v.1.7.20251203
#Start time: 2026-01-10 11:24:15

#Version: 2.2.20231116
#Station: R3.2S_Murmansk
#Location: 33.079688 lon 68.888172 lat
#TLE: 1 43013U 17073A   26009.69119415  .00000109  00000+0  72598-4 0  9996
#TLE: 2 43013  98.7631 310.6868 0001678  46.7442 313.3874 14.19534878421981

#Time	Az	El	Level	Level2	SNR	BER	BlckErr	Temp	State	Recorded	gain1	gain2
2026-01-10 11:24:15.86	198.72	2.10	-58.9	-74.9	3.8	1.49e+00	0	21	0	0	82	24862
2026-01-10 11:24:16.84	198.77	2.16	-58.9	-74.9	3.8	1.49e+00	0	22	104	0	82	24880
2026-01-10 11:24:17.81	198.83	2.21	-58.9	-74.9	3.8	1.49e+00	0	22	104	0	82	24895
2026-01-10 11:24:18.77	198.88	2.27	-58.9	-74.9	3.8	1.49e+00	0	22	104	0	82	24944
2026-01-10 11:24:19.74	198.94	2.33	-58.9	-74.9	3.8	1.49e+00	0	22	104	0	82	24941
2026-01-10 11:24:20.71	198.99	2.39	-58.9	-74.9	3.8	1.49e+00	0	22	104	0	82	24893
2026-01-10 11:24:21.67	199.05	2.44	-58.9	-74.9	3.8	1.49e+00	0	22	104	0	82	24889
2026-01-10 11:24:22.64	199.10	2.50	-58.9	-74.9	3.8	1.49e+00	0	22	104	0	82	24909
2026-01-10 11:24:23.61	199.16	2.56	-58.9	-74.9	3.8	1.49e+00	0	22	104	0	82	24918
2026-01-10 11:24:24.57	199.22	2.62	-58.9	-75.0	3.8	1.49e+00	0	22	104	0	82	24986
2026-01-10 11:24:25.54	199.27	2.67	-58.9	-75.0	3.8	1.49e+00	0	22	104	0	82	24992
2026-01-10 11:24:26.51	199.33	2.73	-58.9	-74.9	3.8	1.49e+00	0	22	104	0	82	24962
2026-01-10 11:24:27.47	199.39	2.79	-58.9	-74.9	3.8	1.49e+00	0	22	104	0	82	24957
2026-01-10 11:24:28.44	199.44	2.85	-58.9	-74.9	3.8	1.49e+00	0	22	104	0	82	24941
2026-01-10 11:24:29.41	199.50	2.91	-58.9	-74.9	3.8	1.49e+00	0	22	104	0	82	24938
2026-01-10 11:24:30.37	199.56	2.96	-58.9	-74.9	3.8	1.49e+00	0	22	104	0	82	24950
2026-01-10 11:24:31.34	199.62	3.02	-58.9	-74.9	3.8	1.49e+00	0	22	104	0	82	24898
2026-01-10 11:24:32.31	199.67	3.08	-58.9	-74.9	3.8	1.49e+00	0	22	104	0	82	24921
2026-01-10 11:24:33.28	199.73	3.14	-58.9	-75.0	3.8	1.49e+00	0	22	104	0	82	25000
2026-01-10 11:24:34.24	199.79	3.20	-58.9	-74.9	3.8	1.49e+00	0	22	104	0	82	24929
2026-01-10 11:24:35.21	199.85	3.26	-58.9	-74.9	3.8	1.49e+00	0	22	104	0	82	24892
2026-01-10 11:24:36.18	199.91	3.32	-58.9	-74.9	3.8	1.49e+00	0	22	104	0	82	24901
2026-01-10 11:24:37.15	199.97	3.38	-58.9	-74.9	3.8	1.49e+00	0	22	104	0	82	24888
2026-01-10 11:24:38.12	200.03	3.43	-58.9	-74.9	3.8	1.49e+00	0	22	104	0	82	24925
2026-01-10 11:24:39.08	200.08	3.49	-58.9	-74.9	3.8	1.49e+00	0	22	104	0	82	24909
2026-01-10 11:24:40.05	200.14	3.55	-58.9	-75.0	3.8	1.49e+00	0	22	104	0	82	24997
2026-01-10 11:24:41.02	200.20	3.61	-58.9	-74.9	3.8	1.49e+00	0	22	104	0	82	24880
2026-01-10 11:24:41.98	200.26	3.67	-58.9	-74.9	3.8	1.49e+00	0	22	104	0	82	24914
2026-01-10 11:24:42.95	200.32	3.73	-58.9	-74.9	3.8	1.49e+00	0	22	104	0	82	24932
2026-01-10 11:24:43.91	200.39	3.79	-58.9	-74.9	3.8	1.49e+00	0	22	104	0	82	24880
2026-01-10 11:24:44.88	200.45	3.85	-58.9	-74.9	3.8	1.49e+00	0	22	104	0	82	24890
2026-01-10 11:24:45.85	200.51	3.91	-58.9	-74.9	3.8	1.49e+00	0	22	104	0	82	24910
2026-01-10 11:24:46.81	200.57	3.97	-58.9	-74.9	3.8	1.49e+00	0	22	104	0	82	24911
2026-01-10 11:24:47.78	200.63	4.03	-58.9	-74.9	3.8	1.49e+00	0	23	104	0	82	24922
2026-01-10 11:24:48.75	200.69	4.09	-58.9	-74.9	3.8	1.49e+00	0	22	104	0	82	24926
2026-01-10 11:24:49.72	200.75	4.15	-58.9	-74.9	3.8	1.49e+00	0	22	104	0	82	24908
2026-01-10 11:24:50.69	200.82	4.21	-58.9	-74.9	3.8	1.49e+00	0	23	104	0	82	24848
2026-01-10 11:24:51.66	200.88	4.27	-58.9	-75.0	3.8	1.49e+00	0	22	104	0	82	24993
2026-01-10 11:24:52.62	200.94	4.33	-58.9	-74.9	3.8	1.49e+00	0	22	104	0	82	24959
2026-01-10 11:24:53.59	201.00	4.40	-58.9	-74.9	3.8	1.49e+00	0	22	104	0	82	24951
2026-01-10 11:24:54.55	201.07	4.46	-58.9	-74.9	3.8	1.49e+00	0	22	104	0	82	24940
2026-01-10 11:24:55.52	201.13	4.52	-58.9	-75.0	3.8	1.49e+00	0	22	104	0	82	24991
2026-01-10 11:24:56.49	201.19	4.58	-58.9	-75.0	3.8	1.49e+00	0	22	104	0	82	25006
2026-01-10 11:24:57.46	201.26	4.64	-58.9	-74.9	3.8	1.49e+00	0	22	104	0	82	24974
2026-01-10 11:24:58.42	201.32	4.70	-58.9	-74.9	3.8	1.49e+00	0	22	104	0	82	24936
2026-01-10 11:24:59.39	201.39	4.76	-58.9	-74.9	3.8	1.49e+00	0	22	104	0	82	24957
2026-01-10 11:25:00.35	201.45	4.82	-58.9	-74.9	3.8	1.49e+00	0	22	104	0	82	24910
2026-01-10 11:25:01.32	201.52	4.89	-58.9	-74.9	3.8	1.49e+00	0	22	104	0	82	24920
2026-01-10 11:25:02.29	201.58	4.95	-58.9	-74.9	3.8	1.49e+00	0	22	104	0	82	24869
2026-01-10 11:25:03.25	201.65	5.01	-58.9	-74.9	3.8	1.49e+00	0	23	104	0	82	24966
2026-01-10 11:25:04.22	201.71	5.07	-58.9	-74.9	3.8	1.49e+00	0	23	104	0	82	24895
2026-01-10 11:25:05.19	201.78	5.13	-58.9	-74.9	3.8	1.49e+00	0	23	104	0	82	24954
2026-01-10 11:25:06.16	201.85	5.20	-58.9	-74.9	3.8	1.49e+00	0	23	104	0	82	24912
2026-01-10 11:25:07.13	201.91	5.26	-58.9	-74.9	3.8	1.49e+00	0	23	104	0	82	24931
2026-01-10 11:25:08.09	201.98	5.32	-58.9	-74.9	3.8	1.49e+00	0	23	104	0	82	24882
2026-01-10 11:25:09.06	202.05	5.38	-58.9	-74.9	3.8	1.49e+00	0	22	104	0	82	24895
2026-01-10 11:25:10.02	202.11	5.45	-58.9	-74.9	3.8	1.49e+00	0	23	104	0	82	24952
2026-01-10 11:25:10.99	202.18	5.51	-58.9	-74.9	3.8	1.49e+00	0	23	104	0	82	24968
2026-01-10 11:25:11.96	202.25	5.57	-58.9	-74.9	3.8	1.49e+00	0	23	104	0	82	24913
2026-01-10 11:25:12.93	202.32	5.64	-58.9	-74.9	3.8	1.49e+00	0	23	104	0	82	24944
2026-01-10 11:25:13.90	202.39	5.70	-58.9	-74.9	3.8	1.49e+00	0	23	104	0	82	24927
2026-01-10 11:25:14.86	202.46	5.76	-58.9	-74.9	3.8	1.49e+00	0	23	104	0	82	24918
2026-01-10 11:25:15.83	202.52	5.83	-58.9	-74.9	3.8	1.49e+00	0	23	104	0	82	24911
2026-01-10 11:25:16.80	202.59	5.89	-58.9	-74.9	3.8	1.49e+00	0	23	104	0	82	24949
2026-01-10 11:25:17.77	202.66	5.95	-58.9	-74.9	3.8	1.49e+00	0	23	104	0	82	24955
2026-01-10 11:25:18.74	202.73	6.02	-58.9	-75.0	3.8	1.49e+00	0	23	104	0	82	25006
2026-01-10 11:25:19.71	202.80	6.08	-58.9	-74.9	3.8	1.49e+00	0	23	104	0	82	24974
2026-01-10 11:25:20.67	202.87	6.15	-58.9	-75.0	3.8	1.49e+00	0	23	104	0	82	24981
2026-01-10 11:25:21.64	202.95	6.21	-58.9	-75.0	3.8	1.49e+00	0	23	104	0	82	24986
2026-01-10 11:25:22.60	203.02	6.28	-58.9	-74.9	3.8	1.49e+00	0	23	104	0	82	24928
2026-01-10 11:25:23.57	203.09	6.34	-58.9	-74.9	3.9	1.49e+00	0	23	104	0	82	24885
2026-01-10 11:25:24.54	203.16	6.40	-58.9	-74.9	3.8	1.49e+00	0	23	104	0	82	24945
2026-01-10 11:25:25.51	203.23	6.47	-58.9	-74.9	3.8	1.49e+00	0	23	104	0	82	24881
2026-01-10 11:25:26.48	203.30	6.53	-58.9	-74.9	3.8	1.49e+00	0	23	104	0	82	24869
2026-01-10 11:25:27.44	203.38	6.60	-58.9	-74.9	3.8	1.49e+00	0	23	104	0	82	24864
2026-01-10 11:25:28.41	203.45	6.66	-58.9	-74.9	3.8	1.49e+00	0	23	104	0	82	24887
2026-01-10 11:25:29.38	203.52	6.73	-58.9	-74.9	3.8	1.49e+00	0	23	104	0	82	24917
2026-01-10 11:25:30.35	203.60	6.80	-58.9	-74.9	3.8	1.49e+00	0	23	104	0	82	24918
2026-01-10 11:25:31.31	203.67	6.86	-58.9	-74.9	3.8	1.49e+00	0	23	104	0	82	24966
2026-01-10 11:25:32.28	203.74	6.93	-58.9	-74.9	3.8	1.49e+00	0	23	104	0	82	24890
2026-01-10 11:25:33.25	203.82	6.99	-58.9	-74.9	3.8	1.49e+00	0	23	104	0	82	24899
2026-01-10 11:25:34.22	203.89	7.06	-58.9	-74.9	3.8	1.49e+00	0	23	104	0	82	24925
2026-01-10 11:25:35.18	203.97	7.12	-58.9	-74.9	3.8	1.49e+00	0	23	104	0	82	24952
2026-01-10 11:25:36.15	204.04	7.19	-58.9	-74.9	3.8	1.49e+00	0	23	104	0	82	24924
2026-01-10 11:25:37.12	204.12	7.26	-58.9	-74.9	3.8	1.49e+00	0	23	104	0	82	24917
2026-01-10 11:25:38.09	204.20	7.32	-58.9	-74.9	3.8	1.49e+00	0	23	104	0	82	24832
2026-01-10 11:25:39.05	204.27	7.39	-58.9	-74.9	3.8	1.49e+00	0	23	104	0	82	24960
2026-01-10 11:25:40.02	204.35	7.46	-58.9	-74.9	3.8	1.49e+00	0	23	104	0	82	24918
2026-01-10 11:25:40.99	204.43	7.52	-58.9	-74.9	3.8	1.49e+00	0	23	104	0	82	24875
2026-01-10 11:25:41.95	204.50	7.59	-58.9	-74.9	3.8	1.49e+00	0	23	104	0	82	24896
2026-01-10 11:25:42.92	204.58	7.66	-58.9	-74.9	3.8	1.49e+00	0	23	104	0	82	24876
2026-01-10 11:25:43.89	204.66	7.73	-58.9	-74.9	3.8	1.49e+00	0	23	104	0	82	24947
2026-01-10 11:25:44.86	204.74	7.79	-58.9	-74.9	3.8	1.49e+00	0	23	104	0	82	24956
2026-01-10 11:25:45.83	204.82	7.86	-58.9	-74.9	3.8	1.49e+00	0	23	104	0	82	24941
2026-01-10 11:25:46.80	204.90	7.93	-58.9	-74.9	3.8	1.49e+00	0	23	104	0	82	24936
2026-01-10 11:25:47.76	204.98	8.00	-58.9	-74.9	3.8	1.49e+00	0	23	104	0	82	24876
2026-01-10 11:25:48.73	205.06	8.06	-58.8	-74.9	3.8	1.49e+00	0	23	104	0	82	24851
2026-01-10 11:25:49.70	205.14	8.13	-58.9	-74.9	3.8	1.49e+00	0	23	104	0	82	24858
2026-01-10 11:25:50.66	205.22	8.20	-58.9	-74.9	3.8	1.49e+00	0	23	104	0	82	24857
2026-01-10 11:25:51.63	205.30	8.27	-58.9	-74.9	3.8	1.49e+00	0	23	104	0	82	24875
2026-01-10 11:25:52.61	205.38	8.34	-58.9	-74.9	3.8	1.49e+00	0	23	104	0	82	24903
2026-01-10 11:25:53.57	205.46	8.41	-58.9	-74.9	3.8	1.49e+00	0	23	104	0	82	24884
2026-01-10 11:25:54.55	205.55	8.48	-58.9	-74.9	3.8	1.49e+00	0	23	104	0	82	24905
2026-01-10 11:25:55.51	205.63	8.54	-58.9	-74.9	3.8	1.49e+00	0	23	104	0	82	24849
2026-01-10 11:25:56.48	205.71	8.61	-58.9	-74.9	3.8	1.49e+00	0	23	104	0	82	24941
2026-01-10 11:25:57.44	205.79	8.68	-58.9	-74.9	3.8	1.49e+00	0	23	104	0	82	24894
2026-01-10 11:25:58.41	205.88	8.75	-58.9	-74.9	3.8	1.49e+00	0	23	104	0	82	24946
2026-01-10 11:25:59.38	205.96	8.82	-58.9	-74.9	3.8	1.49e+00	0	23	104	0	82	24920
2026-01-10 11:26:00.35	206.05	8.89	-58.9	-74.9	3.8	1.49e+00	0	23	104	0	82	24972
2026-01-10 11:26:01.32	206.13	8.96	-58.9	-74.9	3.8	1.49e+00	0	23	104	0	82	24942
2026-01-10 11:26:02.28	206.21	9.03	-58.9	-74.9	3.8	1.49e+00	0	23	104	0	82	24892
2026-01-10 11:26:03.25	206.30	9.10	-58.9	-74.9	3.8	1.49e+00	0	23	104	0	82	24885
2026-01-10 11:26:04.22	206.39	9.17	-58.9	-74.9	3.8	1.49e+00	0	23	104	0	82	24879
2026-01-10 11:26:05.18	206.47	9.24	-58.9	-74.9	3.8	1.49e+00	0	23	104	0	82	24872
2026-01-10 11:26:06.15	206.56	9.31	-58.9	-74.9	3.8	1.49e+00	0	23	104	0	82	24866
2026-01-10 11:26:07.12	206.65	9.38	-58.9	-74.9	3.8	1.49e+00	0	23	104	0	82	24872
2026-01-10 11:26:08.08	206.73	9.45	-58.9	-74.9	3.8	1.49e+00	0	23	104	0	82	24900
2026-01-10 11:26:09.06	206.82	9.52	-58.9	-74.9	3.8	1.49e+00	0	23	104	0	82	24895
2026-01-10 11:26:10.03	206.91	9.60	-58.9	-74.9	3.8	1.49e+00	0	23	104	0	82	24961
2026-01-10 11:26:11.00	207.00	9.67	-58.9	-74.9	3.8	1.49e+00	0	23	104	0	82	24865
2026-01-10 11:26:11.97	207.09	9.74	-58.9	-74.9	3.8	1.49e+00	0	23	104	0	82	24919
2026-01-10 11:26:12.95	207.18	9.81	-58.9	-74.9	3.8	1.49e+00	0	23	104	0	82	24889
2026-01-10 11:26:13.93	207.27	9.88	-58.9	-74.9	3.8	1.49e+00	0	23	104	0	82	24877
2026-01-10 11:26:14.91	207.36	9.96	-58.9	-74.9	3.8	1.49e+00	0	23	104	0	82	24874
2026-01-10 11:26:15.89	207.45	10.03	-58.9	-74.9	3.8	1.49e+00	0	23	104	0	82	24902
2026-01-10 11:26:16.87	207.55	10.10	-58.9	-74.9	3.8	1.49e+00	0	23	104	0	82	24869
2026-01-10 11:26:17.85	207.64	10.18	-58.9	-74.9	3.8	1.49e+00	0	23	104	0	82	24864
2026-01-10 11:26:18.83	207.73	10.25	-58.9	-74.9	3.8	1.49e+00	0	23	104	0	82	24878
2026-01-10 11:26:19.81	207.83	10.32	-58.9	-74.9	3.8	1.49e+00	0	23	104	0	82	24789
2026-01-10 11:26:20.79	207.92	10.40	-58.8	-74.9	3.8	1.49e+00	0	23	104	0	82	24827
2026-01-10 11:26:21.77	208.02	10.47	-58.8	-74.9	3.8	1.49e+00	0	23	104	0	82	24737
2026-01-10 11:26:22.75	208.11	10.54	-58.8	-74.9	3.8	1.49e+00	0	23	104	0	82	24815
2026-01-10 11:26:23.73	208.21	10.62	-58.9	-74.9	3.8	1.49e+00	0	23	104	0	82	24798
2026-01-10 11:26:24.72	208.30	10.69	-58.9	-74.9	3.8	1.49e+00	0	23	104	0	82	24811
2026-01-10 11:26:25.69	208.40	10.77	-58.8	-74.9	3.8	1.49e+00	0	23	104	0	82	24821
2026-01-10 11:26:26.67	208.50	10.84	-58.8	-74.8	3.8	1.49e+00	0	23	104	0	82	24693
2026-01-10 11:26:27.66	208.59	10.92	-58.8	-74.9	3.8	1.49e+00	0	23	104	0	82	24856
2026-01-10 11:26:28.66	208.69	10.99	-58.9	-74.9	3.8	1.49e+00	0	23	104	0	82	24887
2026-01-10 11:26:29.65	208.79	11.07	-58.9	-74.9	3.8	1.49e+00	0	23	104	0	82	24880
2026-01-10 11:26:30.64	208.89	11.15	-58.9	-74.9	3.8	1.49e+00	0	23	104	0	82	24860
2026-01-10 11:26:31.63	208.99	11.22	-58.8	-74.9	3.8	1.49e+00	0	23	104	0	82	24830
2026-01-10 11:26:32.62	209.09	11.30	-58.9	-74.9	3.8	1.49e+00	0	23	104	0	82	24854
2026-01-10 11:26:33.60	209.20	11.37	-58.9	-74.9	3.8	1.49e+00	0	23	104	0	82	24885
2026-01-10 11:26:34.59	209.30	11.45	-58.8	-74.9	3.8	1.49e+00	0	23	104	0	82	24811
2026-01-10 11:26:35.57	209.40	11.53	-58.8	-74.9	3.8	1.49e+00	0	23	104	0	82	24890
2026-01-10 11:26:36.56	209.50	11.60	-58.8	-74.9	3.8	1.49e+00	0	23	104	0	82	24872
2026-01-10 11:26:37.55	209.61	11.68	-58.8	-74.9	3.8	1.49e+00	0	23	104	0	82	24778
2026-01-10 11:26:38.54	209.71	11.76	-58.9	-74.9	3.8	1.49e+00	0	23	104	0	82	24821
2026-01-10 11:26:39.53	209.81	11.84	-58.9	-74.9	3.8	1.49e+00	0	23	104	0	82	24819
2026-01-10 11:26:40.51	209.92	11.91	-58.8	-74.9	3.8	1.49e+00	0	23	104	0	82	24869
2026-01-10 11:26:41.49	210.02	11.99	-58.9	-74.9	3.8	1.49e+00	0	23	104	0	82	24857
2026-01-10 11:26:42.47	210.13	12.07	-58.8	-74.9	3.8	1.49e+00	0	23	104	0	82	24805
2026-01-10 11:26:43.46	210.23	12.14	-58.8	-74.9	3.8	1.49e+00	0	23	104	0	82	24847
2026-01-10 11:26:44.45	210.34	12.22	-58.8	-74.9	3.8	1.49e+00	0	23	104	0	82	24788
2026-01-10 11:26:45.43	210.45	12.30	-58.8	-74.9	3.8	1.49e+00	0	23	104	0	82	24881
2026-01-10 11:26:46.43	210.56	12.38	-58.8	-74.9	3.8	1.49e+00	0	23	104	0	82	24850
2026-01-10 11:26:47.42	210.67	12.46	-58.9	-74.9	3.8	1.49e+00	0	23	104	0	82	24856
2026-01-10 11:26:48.42	210.78	12.54	-58.9	-74.9	3.8	1.49e+00	0	23	104	0	82	24954
2026-01-10 11:26:49.41	210.89	12.62	-58.8	-74.9	3.8	1.49e+00	0	23	104	0	82	24799
2026-01-10 11:26:50.41	211.00	12.70	-58.9	-74.9	3.8	1.49e+00	0	23	104	0	82	24907
2026-01-10 11:26:51.41	211.11	12.78	-58.9	-74.9	3.8	1.49e+00	0	23	104	0	82	24853
2026-01-10 11:26:52.40	211.22	12.86	-58.9	-74.9	3.8	1.49e+00	0	23	104	0	82	24890
2026-01-10 11:26:53.39	211.33	12.94	-58.9	-74.9	3.8	1.49e+00	0	23	104	0	82	24876
2026-01-10 11:26:54.38	211.45	13.02	-58.9	-74.9	3.8	1.49e+00	0	23	104	0	82	24897
2026-01-10 11:26:55.38	211.56	13.10	-58.8	-74.9	3.8	1.49e+00	0	23	104	0	82	24900
2026-01-10 11:26:56.37	211.68	13.18	-58.9	-74.9	3.8	1.49e+00	0	23	104	0	82	24819
2026-01-10 11:26:57.38	211.79	13.26	-58.9	-74.9	3.8	1.49e+00	0	23	104	0	82	24862
2026-01-10 11:26:58.38	211.91	13.34	-58.8	-74.9	3.8	1.49e+00	0	23	104	0	82	24868
2026-01-10 11:26:59.38	212.03	13.42	-58.9	-74.9	3.8	1.49e+00	0	23	104	0	82	24836
2026-01-10 11:27:00.37	212.14	13.50	-58.9	-74.9	3.8	1.49e+00	0	23	104	0	82	24833
2026-01-10 11:27:01.38	212.26	13.59	-58.9	-74.9	3.8	1.49e+00	0	23	104	0	82	24817
2026-01-10 11:27:02.37	212.38	13.67	-58.9	-74.9	3.8	1.49e+00	0	24	104	0	82	24913
2026-01-10 11:27:03.36	212.50	13.75	-58.8	-74.9	3.8	1.49e+00	0	23	104	0	82	24809
2026-01-10 11:27:04.35	212.62	13.83	-58.9	-74.9	3.8	1.49e+00	0	23	104	0	82	24887
2026-01-10 11:27:05.34	212.74	13.91	-58.9	-74.9	3.8	1.49e+00	0	23	104	0	82	24870
2026-01-10 11:27:06.34	212.86	13.99	-58.9	-74.9	3.8	1.49e+00	0	23	104	0	82	24809
2026-01-10 11:27:07.34	212.98	14.08	-58.8	-74.9	3.8	1.49e+00	0	23	104	0	82	24861
2026-01-10 11:27:08.32	213.10	14.16	-58.9	-74.9	3.8	1.49e+00	0	24	104	0	82	24830
2026-01-10 11:27:09.32	213.22	14.24	-58.8	-74.9	3.8	1.49e+00	0	23	104	0	82	24816
2026-01-10 11:27:10.31	213.35	14.32	-58.8	-74.9	3.8	1.49e+00	0	23	104	0	82	24820
2026-01-10 11:27:11.31	213.47	14.41	-58.8	-74.9	3.8	1.49e+00	0	23	104	0	82	24879
2026-01-10 11:27:12.30	213.60	14.49	-58.8	-74.9	3.8	1.49e+00	0	23	104	0	82	24802
2026-01-10 11:27:13.29	213.72	14.57	-58.8	-74.9	3.8	1.49e+00	0	23	104	0	82	24797
2026-01-10 11:27:14.29	213.85	14.66	-58.8	-74.9	3.8	1.49e+00	0	23	104	0	82	24804
2026-01-10 11:27:15.29	213.98	14.74	-58.8	-74.9	3.8	1.49e+00	0	23	104	0	82	24847
2026-01-10 11:27:16.29	214.10	14.83	-58.8	-74.9	3.8	1.49e+00	0	23	104	0	82	24798
2026-01-10 11:27:17.29	214.23	14.91	-58.8	-74.9	3.8	1.49e+00	0	23	104	0	82	24726
2026-01-10 11:27:18.29	214.36	15.00	-58.8	-74.9	3.8	1.49e+00	0	23	104	0	82	24772
2026-01-10 11:27:19.29	214.49	15.08	-58.8	-74.9	3.8	1.49e+00	0	24	104	0	82	24786
2026-01-10 11:27:20.29	214.62	15.17	-58.8	-74.9	3.8	1.49e+00	0	23	104	0	82	24817
2026-01-10 11:27:21.30	214.76	15.25	-58.8	-74.9	3.8	1.49e+00	0	23	104	0	82	24807
2026-01-10 11:27:22.29	214.89	15.34	-58.8	-74.9	3.8	1.49e+00	0	23	104	0	82	24855
2026-01-10 11:27:23.28	215.02	15.42	-58.9	-74.9	3.8	1.49e+00	0	23	104	0	82	24912
2026-01-10 11:27:24.28	215.15	15.51	-58.8	-74.9	3.8	1.49e+00	0	24	104	0	82	24882
2026-01-10 11:27:25.28	215.29	15.59	-58.8	-74.9	3.8	1.49e+00	0	23	104	0	82	24855
2026-01-10 11:27:26.29	215.43	15.68	-58.9	-74.9	3.8	1.49e+00	0	23	104	0	82	24873
2026-01-10 11:27:27.29	215.56	15.76	-58.8	-74.9	3.8	1.49e+00	0	23	104	0	82	24842
2026-01-10 11:27:28.28	215.70	15.85	-58.8	-74.9	3.8	1.49e+00	0	23	104	0	82	24844
2026-01-10 11:27:29.28	215.84	15.94	-58.8	-74.9	3.8	1.49e+00	0	23	104	0	82	24850
2026-01-10 11:27:30.27	215.97	16.02	-58.8	-74.9	3.8	1.49e+00	0	23	104	0	82	24769
2026-01-10 11:27:31.27	216.11	16.11	-58.8	-74.9	3.8	1.49e+00	0	23	104	0	82	24749
2026-01-10 11:27:32.26	216.25	16.19	-58.8	-74.9	3.8	1.49e+00	0	23	104	0	82	24825
2026-01-10 11:27:33.25	216.39	16.28	-58.8	-74.9	3.8	1.49e+00	0	23	104	0	82	24759
2026-01-10 11:27:34.25	216.53	16.37	-58.8	-74.9	3.8	1.49e+00	0	23	104	0	82	24794
2026-01-10 11:27:35.25	216.67	16.46	-58.8	-74.9	3.8	1.49e+00	0	23	104	0	82	24822
2026-01-10 11:27:36.24	216.82	16.54	-58.8	-74.9	3.8	1.49e+00	0	23	104	0	82	24831
2026-01-10 11:27:37.22	216.96	16.63	-58.8	-74.9	3.8	1.49e+00	0	23	104	0	82	24777
2026-01-10 11:27:38.22	217.10	16.72	-58.8	-74.9	3.8	1.49e+00	0	23	104	0	82	24783
2026-01-10 11:27:39.22	217.25	16.80	-58.8	-74.9	3.8	1.49e+00	0	23	104	0	82	24776
2026-01-10 11:27:40.21	217.39	16.89	-58.8	-74.9	3.8	1.49e+00	0	23	104	0	82	24815
2026-01-10 11:27:41.20	217.54	16.98	-58.8	-74.9	3.8	1.49e+00	0	24	104	0	82	24771
2026-01-10 11:27:42.19	217.68	17.07	-58.8	-74.9	3.8	1.49e+00	0	23	104	0	82	24830
2026-01-10 11:27:43.18	217.83	17.15	-58.8	-74.9	3.8	1.49e+00	0	23	104	0	82	24842
2026-01-10 11:27:44.18	217.98	17.24	-58.8	-74.9	3.8	1.49e+00	0	23	104	0	82	24794
2026-01-10 11:27:45.17	218.13	17.33	-58.8	-74.9	3.8	1.49e+00	0	23	104	0	82	24811
2026-01-10 11:27:46.17	218.28	17.42	-58.8	-74.9	3.8	1.49e+00	0	23	104	0	82	24842
2026-01-10 11:27:47.17	218.43	17.51	-58.8	-74.9	3.8	1.49e+00	0	23	104	0	82	24789
2026-01-10 11:27:48.16	218.59	17.59	-58.8	-74.9	3.8	1.49e+00	0	23	104	0	82	24748
2026-01-10 11:27:49.17	218.74	17.69	-58.8	-74.9	3.8	1.49e+00	0	23	104	0	82	24832
2026-01-10 11:27:50.16	218.89	17.77	-58.8	-74.9	3.8	1.49e+00	0	23	104	0	82	24775
2026-01-10 11:27:51.17	219.05	17.86	-58.8	-74.9	3.8	1.49e+00	0	24	104	0	82	24840
2026-01-10 11:27:52.16	219.21	17.95	-58.8	-74.9	3.8	1.49e+00	0	23	104	0	82	24796
2026-01-10 11:27:53.16	219.36	18.04	-58.8	-74.9	3.8	1.49e+00	0	23	104	0	82	24760
2026-01-10 11:27:54.16	219.52	18.13	-58.8	-74.9	3.8	1.49e+00	0	23	104	0	82	24825
2026-01-10 11:27:55.16	219.68	18.22	-58.8	-74.9	3.8	1.49e+00	0	23	104	0	82	24764
2026-01-10 11:27:56.16	219.84	18.31	-58.8	-74.9	3.8	1.49e+00	0	23	104	0	82	24778
2026-01-10 11:27:57.15	220.00	18.40	-58.8	-74.9	3.8	1.49e+00	0	24	104	0	82	24825
2026-01-10 11:27:58.15	220.16	18.49	-58.8	-74.9	3.8	1.49e+00	0	23	104	0	82	24762
2026-01-10 11:27:59.15	220.33	18.58	-58.8	-74.9	3.8	1.49e+00	0	23	104	0	82	24733
2026-01-10 11:28:00.15	220.49	18.67	-58.8	-74.9	3.8	1.49e+00	0	23	104	0	82	24765
2026-01-10 11:28:01.15	220.66	18.76	-58.8	-74.9	3.8	1.49e+00	0	23	104	0	82	24733
2026-01-10 11:28:02.16	220.82	18.85	-58.8	-74.9	3.8	1.49e+00	0	23	104	0	82	24774
2026-01-10 11:28:03.16	220.99	18.95	-58.8	-74.9	3.8	1.49e+00	0	23	104	0	82	24803
2026-01-10 11:28:04.16	221.16	19.04	-58.8	-74.9	3.8	1.49e+00	0	23	104	0	82	24775
2026-01-10 11:28:05.16	221.33	19.13	-58.8	-74.9	3.8	1.49e+00	0	23	104	0	82	24796
2026-01-10 11:28:06.16	221.50	19.22	-58.8	-74.9	3.8	1.49e+00	0	23	104	0	82	24749
2026-01-10 11:28:07.15	221.67	19.31	-58.8	-74.9	3.8	1.49e+00	0	23	104	0	82	24794
2026-01-10 11:28:08.14	221.84	19.40	-58.8	-74.9	3.8	1.49e+00	0	23	104	0	82	24815
2026-01-10 11:28:09.14	222.01	19.49	-58.8	-74.9	3.8	1.49e+00	0	23	104	0	82	24805
2026-01-10 11:28:10.13	222.18	19.58	-58.8	-74.9	3.8	1.49e+00	0	23	104	0	82	24736
2026-01-10 11:28:11.13	222.36	19.67	-58.8	-74.9	3.8	1.49e+00	0	23	104	0	82	24755
2026-01-10 11:28:12.12	222.53	19.76	-58.8	-74.8	3.8	1.49e+00	0	24	104	0	82	24676
2026-01-10 11:28:13.11	222.71	19.85	-58.8	-74.9	3.8	1.49e+00	0	23	104	0	82	24794
2026-01-10 11:28:14.10	222.88	19.94	-58.8	-74.9	3.8	1.49e+00	0	24	104	0	82	24718
2026-01-10 11:28:15.09	223.06	20.04	-58.8	-74.9	3.8	1.49e+00	0	23	104	0	82	24771
2026-01-10 11:28:16.09	223.24	20.13	-58.8	-74.9	3.8	1.49e+00	0	23	104	0	82	24787
2026-01-10 11:28:17.09	223.42	20.22	-58.8	-74.9	3.8	1.49e+00	0	24	104	0	82	24761
2026-01-10 11:28:18.09	223.60	20.31	-58.8	-74.9	3.8	1.49e+00	0	23	104	0	82	24740
2026-01-10 11:28:19.08	223.78	20.40	-58.8	-74.9	3.8	1.49e+00	0	24	104	0	82	24697
2026-01-10 11:28:20.09	223.97	20.50	-58.8	-74.9	3.8	1.49e+00	0	23	104	0	82	24774
2026-01-10 11:28:21.09	224.15	20.59	-58.8	-74.9	3.8	1.49e+00	0	23	104	0	82	24803
2026-01-10 11:28:22.08	224.34	20.68	-58.8	-74.9	3.8	1.49e+00	0	24	104	0	82	24801
2026-01-10 11:28:23.07	224.52	20.77	-58.8	-74.9	3.8	1.49e+00	0	23	104	0	82	24792
2026-01-10 11:28:24.08	224.72	20.86	-58.8	-74.9	3.8	1.49e+00	0	24	104	0	82	24766
2026-01-10 11:28:25.08	224.90	20.96	-58.8	-74.9	3.8	1.49e+00	0	24	104	0	82	24782
2026-01-10 11:28:26.08	225.10	21.05	-58.8	-74.8	3.8	1.49e+00	0	23	104	0	82	24660
2026-01-10 11:28:27.07	225.29	21.14	-58.8	-74.9	3.8	1.49e+00	0	23	104	0	82	24752
2026-01-10 11:28:28.06	225.48	21.23	-58.8	-74.9	3.8	1.49e+00	0	23	104	0	82	24757
2026-01-10 11:28:29.06	225.67	21.32	-58.8	-74.9	3.8	1.49e+00	0	23	104	0	82	24743
2026-01-10 11:28:30.05	225.86	21.41	-58.8	-74.9	3.8	1.49e+00	0	23	104	0	82	24732
2026-01-10 11:28:31.05	226.06	21.51	-58.8	-74.9	3.8	1.49e+00	0	23	104	0	82	24709
2026-01-10 11:28:32.04	226.26	21.60	-58.8	-74.9	3.8	1.49e+00	0	24	104	0	82	24748
2026-01-10 11:28:33.04	226.45	21.69	-58.8	-74.9	3.8	1.49e+00	0	23	104	0	82	24754
2026-01-10 11:28:34.03	226.65	21.78	-58.8	-74.9	3.8	1.49e+00	0	23	104	0	82	24718
2026-01-10 11:28:35.01	226.85	21.87	-58.8	-74.9	3.8	1.49e+00	0	23	104	0	82	24740
2026-01-10 11:28:36.01	227.05	21.96	-58.8	-74.9	3.8	1.49e+00	0	24	104	0	82	24754
2026-01-10 11:28:37.00	227.25	22.06	-58.8	-74.9	3.8	1.49e+00	0	23	104	0	82	24789
2026-01-10 11:28:37.99	227.45	22.15	-58.8	-74.9	3.8	1.49e+00	0	23	104	0	82	24740
2026-01-10 11:28:38.97	227.65	22.24	-58.8	-74.9	3.8	1.49e+00	0	23	104	0	82	24826
2026-01-10 11:28:39.97	227.86	22.33	-58.8	-74.9	3.8	1.49e+00	0	23	104	0	82	24771
2026-01-10 11:28:40.96	228.07	22.42	-58.8	-74.9	3.8	1.49e+00	0	24	104	0	82	24708
2026-01-10 11:28:41.96	228.28	22.51	-58.8	-74.9	3.8	1.49e+00	0	23	104	0	82	24714
2026-01-10 11:28:42.95	228.48	22.60	-58.8	-74.9	3.8	1.49e+00	0	24	104	0	82	24748
2026-01-10 11:28:43.95	228.70	22.70	-58.8	-74.9	3.8	1.49e+00	0	23	104	0	82	24708
2026-01-10 11:28:44.94	228.91	22.79	-58.8	-74.8	3.8	1.49e+00	0	24	104	0	82	24668
2026-01-10 11:28:45.95	229.12	22.88	-59.0	-75.1	3.8	1.49e+00	0	23	104	0	83	23881
2026-01-10 11:28:46.95	229.34	22.97	-59.1	-75.1	3.8	1.49e+00	0	24	104	0	83	24081
2026-01-10 11:28:47.95	229.55	23.06	-59.1	-75.2	3.8	1.49e+00	0	24	104	0	83	24194
2026-01-10 11:28:48.95	229.77	23.16	-59.2	-75.2	3.8	1.49e+00	0	23	104	0	83	24357
2026-01-10 11:28:49.95	229.99	23.25	-59.2	-75.3	3.8	1.49e+00	0	24	104	0	83	24493
2026-01-10 11:28:50.96	230.21	23.34	-59.3	-75.3	3.8	1.49e+00	0	23	104	0	83	24642
2026-01-10 11:28:51.96	230.43	23.43	-59.3	-75.3	3.8	1.49e+00	0	23	104	0	83	24585
2026-01-10 11:28:52.96	230.66	23.52	-59.2	-75.3	3.8	1.49e+00	0	23	104	0	83	24540
2026-01-10 11:28:53.95	230.88	23.61	-59.2	-75.3	3.8	1.49e+00	0	24	104	0	83	24545
2026-01-10 11:28:54.95	231.10	23.70	-59.2	-75.3	3.8	1.49e+00	0	24	104	0	83	24463
2026-01-10 11:28:55.95	231.33	23.79	-59.2	-75.3	3.8	1.49e+00	0	24	104	0	83	24467
2026-01-10 11:28:56.94	231.56	23.88	-59.2	-75.3	3.8	1.49e+00	0	24	104	0	83	24458
2026-01-10 11:28:57.93	231.78	23.97	-59.2	-75.3	3.8	1.49e+00	0	24	104	0	83	24504
2026-01-10 11:28:58.92	232.01	24.06	-59.2	-75.3	3.8	1.49e+00	0	23	104	0	83	24454
2026-01-10 11:28:59.92	232.24	24.15	-59.2	-75.3	3.8	1.49e+00	0	24	104	0	83	24412
2026-01-10 11:29:00.92	232.47	24.24	-59.2	-75.3	3.8	1.49e+00	0	23	104	0	83	24430
2026-01-10 11:29:01.93	232.71	24.33	-59.2	-75.2	3.8	1.49e+00	0	24	104	0	83	24400
2026-01-10 11:29:02.92	232.94	24.42	-59.2	-75.2	3.8	1.49e+00	0	23	104	0	83	24367
2026-01-10 11:29:03.93	233.18	24.51	-59.2	-75.2	3.8	1.49e+00	0	24	104	0	83	24377
2026-01-10 11:29:04.93	233.42	24.60	-59.2	-75.3	3.8	1.49e+00	0	23	104	0	83	24422
2026-01-10 11:29:05.93	233.66	24.69	-59.2	-75.2	3.8	1.49e+00	0	24	104	0	83	24396
2026-01-10 11:29:06.93	233.90	24.78	-59.2	-75.2	3.8	1.49e+00	0	23	104	0	83	24395
2026-01-10 11:29:07.93	234.14	24.87	-59.2	-75.2	3.8	1.49e+00	0	23	104	0	83	24410
2026-01-10 11:29:08.94	234.39	24.96	-59.2	-75.2	3.8	1.49e+00	0	24	104	0	83	24369
2026-01-10 11:29:09.94	234.63	25.05	-59.2	-75.2	3.8	1.49e+00	0	23	104	0	83	24377
2026-01-10 11:29:10.94	234.88	25.13	-59.2	-75.3	3.8	1.49e+00	0	24	104	0	83	24412
2026-01-10 11:29:11.94	235.13	25.22	-59.2	-75.2	3.8	1.49e+00	0	23	104	0	83	24343
2026-01-10 11:29:12.93	235.37	25.31	-59.2	-75.2	3.8	1.49e+00	0	23	104	0	83	24289
2026-01-10 11:29:13.94	235.63	25.40	-59.1	-75.2	3.8	1.49e+00	0	23	104	0	83	24309
2026-01-10 11:29:14.95	235.88	25.48	-59.1	-75.2	3.8	1.49e+00	0	23	104	0	83	24277
2026-01-10 11:29:15.95	236.13	25.57	-59.1	-75.2	3.8	1.49e+00	0	24	104	0	83	24282
2026-01-10 11:29:16.95	236.39	25.66	-59.2	-75.2	3.8	1.49e+00	0	24	104	0	83	24258
2026-01-10 11:29:17.95	236.64	25.74	-59.2	-75.2	3.8	1.49e+00	0	23	104	0	83	24324
2026-01-10 11:29:18.96	236.90	25.83	-59.1	-75.2	3.8	1.49e+00	0	23	104	0	83	24262
2026-01-10 11:29:19.96	237.16	25.91	-59.1	-75.2	3.8	1.49e+00	0	24	104	0	83	24240
2026-01-10 11:29:20.96	237.42	26.00	-59.1	-75.2	3.8	1.49e+00	0	24	104	0	83	24273
2026-01-10 11:29:21.96	237.68	26.08	-59.1	-75.2	3.8	1.49e+00	0	24	104	0	83	24289
2026-01-10 11:29:22.96	237.94	26.17	-59.1	-75.2	3.8	1.49e+00	0	23	104	0	83	24237
2026-01-10 11:29:23.97	238.21	26.25	-59.1	-75.2	3.8	1.49e+00	0	23	104	0	83	24317
2026-01-10 11:29:24.97	238.47	26.34	-59.1	-75.2	3.8	1.49e+00	0	23	104	0	83	24270
2026-01-10 11:29:25.97	238.74	26.42	-59.1	-75.2	3.8	1.49e+00	0	24	104	0	83	24245
2026-01-10 11:29:26.98	239.01	26.50	-59.1	-75.2	3.8	1.49e+00	0	24	104	0	83	24265
2026-01-10 11:29:27.97	239.28	26.58	-59.1	-75.2	3.8	1.49e+00	0	23	104	0	83	24260
2026-01-10 11:29:28.97	239.55	26.67	-59.1	-75.2	3.8	1.49e+00	0	23	104	0	83	24232
2026-01-10 11:29:29.98	239.82	26.75	-59.1	-75.2	3.8	1.49e+00	0	24	104	0	83	24176
2026-01-10 11:29:30.98	240.10	26.83	-59.1	-75.2	3.8	1.49e+00	0	23	104	0	83	24267
2026-01-10 11:29:31.98	240.37	26.91	-59.1	-75.2	3.8	1.49e+00	0	23	104	0	83	24186
2026-01-10 11:29:32.99	240.65	26.99	-59.1	-75.2	3.8	1.49e+00	0	23	104	0	83	24204
2026-01-10 11:29:33.99	240.93	27.07	-59.1	-75.2	3.8	1.49e+00	0	24	104	0	83	24263
2026-01-10 11:29:35.00	241.21	27.15	-59.1	-75.2	3.8	1.49e+00	0	23	104	0	83	24218
2026-01-10 11:29:36.00	241.49	27.23	-59.1	-75.2	3.8	1.49e+00	0	24	104	0	83	24167
2026-01-10 11:29:37.00	241.77	27.31	-59.1	-75.2	3.8	1.49e+00	0	23	104	0	83	24171
2026-01-10 11:29:38.00	242.05	27.38	-59.1	-75.2	3.8	1.49e+00	0	24	104	0	83	24242
2026-01-10 11:29:39.01	242.34	27.46	-59.1	-75.2	3.8	1.49e+00	0	24	104	0	83	24222
2026-01-10 11:29:40.01	242.62	27.54	-59.1	-75.2	3.8	1.49e+00	0	24	104	0	83	24158
2026-01-10 11:29:41.02	242.91	27.62	-59.1	-75.2	3.8	1.49e+00	0	24	104	0	83	24143
2026-01-10 11:29:42.02	243.20	27.69	-59.1	-75.1	3.8	1.49e+00	0	24	104	0	83	24126
2026-01-10 11:29:43.03	243.49	27.77	-59.1	-75.1	3.8	1.49e+00	0	24	104	0	83	24119
2026-01-10 11:29:44.04	243.79	27.84	-59.1	-75.1	3.8	1.49e+00	0	23	104	0	83	24094
2026-01-10 11:29:45.04	244.08	27.92	-59.1	-75.2	3.8	1.49e+00	0	24	104	0	83	24147
2026-01-10 11:29:46.05	244.38	27.99	-59.1	-75.1	3.8	1.49e+00	0	24	104	0	83	24114
2026-01-10 11:29:47.05	244.67	28.06	-59.1	-75.2	3.8	1.49e+00	0	23	104	0	83	24187
2026-01-10 11:29:48.05	244.97	28.13	-59.1	-75.1	3.8	1.49e+00	0	23	104	0	83	24060
2026-01-10 11:29:49.06	245.27	28.21	-59.1	-75.1	3.8	1.49e+00	0	24	104	0	83	24101
2026-01-10 11:29:50.06	245.56	28.28	-59.1	-75.1	3.8	1.49e+00	0	24	104	0	83	24117
2026-01-10 11:29:51.07	245.87	28.35	-59.1	-75.2	3.8	1.49e+00	0	24	104	0	83	24183
2026-01-10 11:29:52.07	246.17	28.42	-59.1	-75.1	3.8	1.49e+00	0	24	104	0	83	24122
2026-01-10 11:29:53.07	246.47	28.49	-59.1	-75.1	3.8	1.49e+00	0	24	104	0	83	24080
2026-01-10 11:29:54.07	246.77	28.55	-59.1	-75.2	3.8	1.49e+00	0	24	104	0	83	24143
2026-01-10 11:29:55.08	247.08	28.62	-59.1	-75.1	3.8	1.49e+00	0	24	104	0	83	24109
2026-01-10 11:29:56.08	247.39	28.69	-59.1	-75.1	3.8	1.49e+00	0	24	104	0	83	24081
2026-01-10 11:29:57.08	247.70	28.75	-59.1	-75.1	3.8	1.49e+00	0	24	104	0	83	24012
2026-01-10 11:29:58.08	248.01	28.82	-59.1	-75.1	3.8	1.49e+00	0	24	104	0	83	24058
2026-01-10 11:29:59.08	248.31	28.88	-59.1	-75.1	3.8	1.49e+00	0	24	104	0	83	24027
2026-01-10 11:30:00.08	248.63	28.95	-59.1	-75.1	3.8	1.49e+00	0	24	104	0	83	24029
2026-01-10 11:30:01.09	248.94	29.01	-59.1	-75.1	3.8	1.49e+00	0	24	104	0	83	24077
2026-01-10 11:30:02.10	249.26	29.07	-59.1	-75.1	3.8	1.49e+00	0	24	104	0	83	24086
2026-01-10 11:30:03.11	249.58	29.14	-59.1	-75.1	3.8	1.49e+00	0	24	104	0	83	24081
2026-01-10 11:30:04.11	249.89	29.20	-59.1	-75.1	3.8	1.49e+00	0	24	104	0	83	24052
2026-01-10 11:30:05.12	250.21	29.26	-59.1	-75.1	3.8	1.49e+00	0	24	104	0	83	24055
2026-01-10 11:30:06.12	250.53	29.32	-59.1	-75.1	3.8	1.49e+00	0	24	104	0	83	24103
2026-01-10 11:30:07.13	250.85	29.37	-59.1	-75.1	3.8	1.49e+00	0	24	104	0	83	24088
2026-01-10 11:30:08.13	251.17	29.43	-59.1	-75.1	3.8	1.49e+00	0	24	104	0	83	24119
2026-01-10 11:30:09.14	251.50	29.49	-59.1	-75.1	3.8	1.49e+00	0	24	104	0	83	24060
2026-01-10 11:30:10.14	251.82	29.54	-59.1	-75.1	3.8	1.49e+00	0	23	104	0	83	24098
2026-01-10 11:30:11.14	252.14	29.60	-59.1	-75.1	3.8	1.49e+00	0	24	104	0	83	24046
2026-01-10 11:30:12.15	252.47	29.65	-59.1	-75.1	3.8	1.49e+00	0	24	104	0	83	24021
2026-01-10 11:30:13.15	252.80	29.71	-59.1	-75.1	3.8	1.49e+00	0	24	104	0	83	24043
2026-01-10 11:30:14.14	253.12	29.76	-59.1	-75.1	3.8	1.49e+00	0	23	104	0	83	24035
2026-01-10 11:30:15.14	253.45	29.81	-59.1	-75.1	3.8	1.49e+00	0	23	104	0	83	24095
2026-01-10 11:30:16.15	253.78	29.86	-59.1	-75.2	3.8	1.49e+00	0	23	104	0	83	24155
2026-01-10 11:30:17.16	254.11	29.91	-59.1	-75.1	3.8	1.49e+00	0	24	104	0	83	24085
2026-01-10 11:30:18.15	254.44	29.96	-59.1	-75.1	3.8	1.49e+00	0	24	104	0	83	24073
2026-01-10 11:30:19.16	254.78	30.00	-59.1	-75.1	3.8	1.49e+00	0	24	104	0	83	24107
2026-01-10 11:30:20.17	255.11	30.05	-59.1	-75.1	3.8	1.49e+00	0	24	104	0	83	24074
2026-01-10 11:30:21.17	255.45	30.10	-59.0	-75.1	3.8	1.49e+00	0	24	104	0	83	24025
2026-01-10 11:30:22.18	255.78	30.14	-59.1	-75.1	3.8	1.49e+00	0	23	104	0	83	24010
2026-01-10 11:30:23.18	256.12	30.19	-59.1	-75.1	3.8	1.49e+00	0	24	104	0	83	24123
2026-01-10 11:30:24.19	256.46	30.23	-59.1	-75.1	3.8	1.49e+00	0	24	104	0	83	24081
2026-01-10 11:30:25.19	256.80	30.27	-59.1	-75.1	3.8	1.49e+00	0	24	104	0	83	24077
2026-01-10 11:30:26.19	257.14	30.31	-59.1	-75.1	3.8	1.49e+00	0	23	104	0	83	24006
2026-01-10 11:30:27.20	257.48	30.35	-59.1	-75.1	3.8	1.49e+00	0	24	104	0	83	24073
2026-01-10 11:30:28.19	257.81	30.39	-59.0	-75.1	3.8	1.49e+00	0	24	104	0	83	24016
2026-01-10 11:30:29.20	258.16	30.43	-59.0	-75.1	3.8	1.49e+00	0	24	104	0	83	24001
2026-01-10 11:30:30.21	258.50	30.46	-59.1	-75.1	3.8	1.49e+00	0	23	104	0	83	24012
2026-01-10 11:30:31.21	258.84	30.50	-59.1	-75.1	3.8	1.49e+00	0	23	104	0	83	24046
2026-01-10 11:30:32.21	259.19	30.53	-59.1	-75.1	3.8	1.49e+00	0	23	104	0	83	24096
2026-01-10 11:30:33.21	259.53	30.56	-59.1	-75.1	3.8	1.49e+00	0	24	104	0	83	24091
2026-01-10 11:30:34.21	259.87	30.60	-59.1	-75.1	3.8	1.49e+00	0	24	104	0	83	24075
2026-01-10 11:30:35.21	260.22	30.63	-59.1	-75.1	3.8	1.49e+00	0	24	104	0	83	24111
2026-01-10 11:30:36.22	260.57	30.66	-59.1	-75.1	3.8	1.49e+00	0	23	104	0	83	24075
2026-01-10 11:30:37.22	260.91	30.69	-59.1	-75.1	3.8	1.49e+00	0	24	104	0	83	24079
2026-01-10 11:30:38.22	261.26	30.71	-59.1	-75.1	3.8	1.49e+00	0	24	104	0	83	24046
2026-01-10 11:30:39.23	261.61	30.74	-59.1	-75.1	3.8	1.49e+00	0	24	104	0	83	24021
2026-01-10 11:30:40.24	261.96	30.77	-59.0	-75.1	3.8	1.49e+00	0	24	104	0	83	23938
2026-01-10 11:30:41.25	262.31	30.79	-59.0	-75.1	3.8	1.49e+00	0	24	104	0	83	23997
2026-01-10 11:30:42.25	262.66	30.81	-59.0	-75.1	3.8	1.49e+00	0	24	104	0	83	23987
2026-01-10 11:30:43.26	263.01	30.84	-59.0	-75.1	3.8	1.49e+00	0	24	104	0	83	24026
2026-01-10 11:30:44.26	263.36	30.86	-59.1	-75.1	3.8	1.49e+00	0	24	104	0	83	24050
2026-01-10 11:30:45.27	263.72	30.88	-59.1	-75.1	3.8	1.49e+00	0	24	104	0	83	24034
2026-01-10 11:30:46.27	264.07	30.90	-59.0	-75.1	3.8	1.49e+00	0	23	104	0	83	23967
2026-01-10 11:30:47.28	264.42	30.91	-59.0	-75.1	3.8	1.49e+00	0	24	104	0	83	23955
2026-01-10 11:30:48.28	264.77	30.93	-59.0	-75.1	3.8	1.49e+00	0	24	104	0	83	23987
2026-01-10 11:30:49.29	265.13	30.94	-59.0	-75.1	3.8	1.49e+00	0	24	104	0	83	24003
2026-01-10 11:30:50.29	265.48	30.96	-59.0	-75.1	3.8	1.49e+00	0	24	104	0	83	23995
2026-01-10 11:30:51.29	265.83	30.97	-59.0	-75.1	3.8	1.49e+00	0	24	104	0	83	24035
2026-01-10 11:30:52.29	266.18	30.98	-59.0	-75.1	3.8	1.49e+00	0	24	104	0	83	23965
2026-01-10 11:30:53.30	266.54	30.99	-59.0	-75.1	3.8	1.49e+00	0	24	104	0	83	23995
2026-01-10 11:30:54.30	266.89	31.00	-59.0	-75.1	3.8	1.49e+00	0	24	104	0	83	23952
2026-01-10 11:30:55.30	267.25	31.01	-59.0	-75.1	3.8	1.49e+00	0	24	104	0	83	23953
2026-01-10 11:30:56.30	267.60	31.02	-59.0	-75.1	3.8	1.49e+00	0	24	104	0	83	23928
2026-01-10 11:30:57.30	267.95	31.02	-59.0	-75.1	3.8	1.49e+00	0	24	104	0	83	24026
2026-01-10 11:30:58.31	268.31	31.03	-59.0	-75.1	3.8	1.49e+00	0	24	104	0	83	23923
2026-01-10 11:30:59.31	268.66	31.03	-59.0	-75.1	3.8	1.49e+00	0	24	104	0	83	23985
2026-01-10 11:31:00.31	269.02	31.03	-59.0	-75.1	3.8	1.49e+00	0	24	104	0	83	23944
2026-01-10 11:31:01.32	269.37	31.03	-59.1	-75.1	3.8	1.49e+00	0	24	104	0	83	24013
2026-01-10 11:31:02.32	269.73	31.03	-59.1	-75.1	3.8	1.49e+00	0	24	104	0	83	24030
2026-01-10 11:31:03.33	270.08	31.03	-59.1	-75.1	3.8	1.49e+00	0	24	104	0	83	24014
2026-01-10 11:31:04.34	270.44	31.03	-59.1	-75.1	3.8	1.49e+00	0	24	104	0	83	24046
2026-01-10 11:31:05.34	270.79	31.03	-59.0	-75.1	3.8	1.49e+00	0	23	104	0	83	23984
2026-01-10 11:31:06.34	271.15	31.02	-59.0	-75.1	3.8	1.49e+00	0	23	104	0	83	24009
2026-01-10 11:31:07.35	271.50	31.02	-59.0	-75.1	3.8	1.49e+00	0	23	104	0	83	24004
2026-01-10 11:31:08.36	271.86	31.01	-59.0	-75.1	3.8	1.49e+00	0	24	104	0	83	24001
2026-01-10 11:31:09.37	272.22	31.00	-59.0	-75.1	3.8	1.49e+00	0	24	104	0	83	23968
2026-01-10 11:31:10.36	272.57	30.99	-59.0	-75.1	3.8	1.49e+00	0	24	104	0	83	24001
2026-01-10 11:31:11.36	272.92	30.98	-59.0	-75.1	3.8	1.49e+00	0	24	104	0	83	23965
2026-01-10 11:31:12.37	273.27	30.97	-59.0	-75.1	3.8	1.49e+00	0	24	104	0	83	24006
2026-01-10 11:31:13.37	273.63	30.96	-59.0	-75.1	3.8	1.49e+00	0	23	104	0	83	23952
2026-01-10 11:31:14.37	273.98	30.94	-59.0	-75.1	3.8	1.49e+00	0	24	104	0	83	24030
2026-01-10 11:31:15.37	274.33	30.93	-59.0	-75.1	3.8	1.49e+00	0	23	104	0	83	24016
2026-01-10 11:31:16.36	274.68	30.91	-59.0	-75.1	3.8	1.49e+00	0	24	104	0	83	24002
2026-01-10 11:31:17.35	275.02	30.89	-59.0	-75.1	3.8	1.49e+00	0	23	104	0	83	23984
2026-01-10 11:31:18.35	275.37	30.87	-59.0	-75.1	3.8	1.49e+00	0	24	104	0	83	23945
2026-01-10 11:31:19.34	275.72	30.85	-59.0	-75.1	3.8	1.49e+00	0	24	104	0	83	23910
2026-01-10 11:31:20.34	276.07	30.83	-59.0	-75.1	3.8	1.49e+00	0	24	104	0	83	23940
2026-01-10 11:31:21.32	276.41	30.81	-59.0	-75.1	3.8	1.49e+00	0	24	104	0	83	23927
2026-01-10 11:31:22.32	276.76	30.79	-59.0	-75.1	3.8	1.49e+00	0	24	104	0	83	24009
2026-01-10 11:31:23.31	277.10	30.76	-59.0	-75.1	3.8	1.49e+00	0	24	104	0	83	23899
2026-01-10 11:31:24.31	277.45	30.74	-59.0	-75.1	3.8	1.49e+00	0	24	104	0	83	23980
2026-01-10 11:31:25.31	277.80	30.71	-59.0	-75.1	3.8	1.49e+00	0	24	104	0	83	24005
2026-01-10 11:31:26.30	278.14	30.68	-59.0	-75.1	3.8	1.49e+00	0	24	104	0	83	24021
2026-01-10 11:31:27.29	278.48	30.66	-59.0	-75.1	3.8	1.49e+00	0	24	104	0	83	23931
2026-01-10 11:31:28.29	278.83	30.63	-59.0	-75.1	3.8	1.49e+00	0	24	104	0	83	23903
2026-01-10 11:31:29.28	279.17	30.59	-59.0	-75.1	3.8	1.49e+00	0	23	104	0	83	23937
2026-01-10 11:31:30.27	279.51	30.56	-59.0	-75.1	3.8	1.49e+00	0	24	104	0	83	23925
2026-01-10 11:31:31.26	279.85	30.53	-59.0	-75.1	3.8	1.49e+00	0	24	104	0	83	23894
2026-01-10 11:31:32.25	280.18	30.50	-59.0	-75.1	3.8	1.49e+00	0	24	104	0	83	23967
2026-01-10 11:31:33.24	280.52	30.46	-59.0	-75.1	3.8	1.49e+00	0	24	104	0	83	23921
2026-01-10 11:31:34.24	280.86	30.43	-59.0	-75.1	3.8	1.49e+00	0	24	104	0	83	23944
2026-01-10 11:31:35.24	281.20	30.39	-59.0	-75.1	3.8	1.49e+00	0	24	104	0	83	23891
2026-01-10 11:31:36.24	281.54	30.35	-59.0	-75.1	3.8	1.49e+00	0	24	104	0	83	23911
2026-01-10 11:31:37.23	281.88	30.31	-59.0	-75.1	3.8	1.49e+00	0	24	104	0	83	23960
2026-01-10 11:31:38.23	282.22	30.27	-59.0	-75.1	3.8	1.49e+00	0	24	104	0	83	23900
2026-01-10 11:31:39.22	282.55	30.23	-59.0	-75.0	3.8	1.49e+00	0	24	104	0	83	23853
2026-01-10 11:31:40.21	282.88	30.19	-59.0	-75.1	3.8	1.49e+00	0	24	104	0	83	23924
2026-01-10 11:31:41.20	283.21	30.15	-59.0	-75.1	3.8	1.49e+00	0	24	104	0	83	23883
2026-01-10 11:31:42.19	283.54	30.10	-59.0	-75.1	3.8	1.49e+00	0	24	104	0	83	23922
2026-01-10 11:31:43.19	283.88	30.06	-59.0	-75.1	3.8	1.49e+00	0	24	104	0	83	23890
2026-01-10 11:31:44.18	284.21	30.01	-59.0	-75.1	3.8	1.49e+00	0	24	104	0	83	23928
2026-01-10 11:31:45.18	284.54	29.96	-59.0	-75.1	3.8	1.49e+00	0	24	104	0	83	23925
2026-01-10 11:31:46.18	284.87	29.92	-59.0	-75.1	3.8	1.49e+00	0	24	104	0	83	23963
2026-01-10 11:31:47.18	285.20	29.87	-59.0	-75.1	3.8	1.49e+00	0	24	104	0	83	23905
2026-01-10 11:31:48.17	285.52	29.82	-59.0	-75.1	3.8	1.49e+00	0	24	104	0	83	23961
2026-01-10 11:31:49.16	285.85	29.77	-59.0	-75.1	3.8	1.49e+00	0	24	104	0	83	23975
2026-01-10 11:31:50.15	286.17	29.72	-59.0	-75.1	3.8	1.49e+00	0	24	104	0	83	23940
2026-01-10 11:31:51.13	286.49	29.66	-59.0	-75.1	3.8	1.49e+00	0	24	104	0	83	23947
2026-01-10 11:31:52.12	286.81	29.61	-59.0	-75.1	3.8	1.49e+00	0	24	104	0	83	23916
2026-01-10 11:31:53.11	287.13	29.56	-59.0	-75.1	3.8	1.49e+00	0	24	104	0	83	23992
2026-01-10 11:31:54.11	287.45	29.50	-59.0	-75.1	3.8	1.49e+00	0	24	104	0	83	23960
2026-01-10 11:31:55.10	287.77	29.45	-59.0	-75.1	3.8	1.49e+00	0	23	104	0	83	23914
2026-01-10 11:31:56.10	288.09	29.39	-59.0	-75.1	3.8	1.49e+00	0	24	104	0	83	23950
2026-01-10 11:31:57.09	288.40	29.33	-59.0	-75.1	3.8	1.49e+00	0	24	104	0	83	23905
2026-01-10 11:31:58.09	288.72	29.27	-59.0	-75.0	3.8	1.49e+00	0	24	104	0	83	23854
2026-01-10 11:31:59.08	289.03	29.22	-59.0	-75.1	3.8	1.49e+00	0	24	104	0	83	23943
2026-01-10 11:32:00.07	289.35	29.16	-59.0	-75.1	3.8	1.49e+00	0	24	104	0	83	23883
2026-01-10 11:32:01.07	289.66	29.09	-59.0	-75.1	3.8	1.49e+00	0	24	104	0	83	23928
2026-01-10 11:32:02.06	289.97	29.03	-59.0	-75.1	3.8	1.49e+00	0	24	104	0	83	23882
2026-01-10 11:32:03.05	290.28	28.97	-59.0	-75.1	3.8	1.49e+00	0	24	104	0	83	23930
2026-01-10 11:32:04.06	290.59	28.91	-59.0	-75.1	3.8	1.49e+00	0	24	104	0	83	23878
2026-01-10 11:32:05.05	290.90	28.85	-59.0	-75.1	3.8	1.49e+00	0	24	104	0	83	23903
2026-01-10 11:32:06.05	291.21	28.78	-59.0	-75.1	3.8	1.49e+00	0	24	104	0	83	23908
2026-01-10 11:32:07.04	291.51	28.72	-59.0	-75.1	3.8	1.49e+00	0	24	104	0	83	23872
2026-01-10 11:32:08.04	291.82	28.65	-59.0	-75.0	3.8	1.49e+00	0	23	104	0	83	23839
2026-01-10 11:32:09.03	292.12	28.58	-59.0	-75.1	3.8	1.49e+00	0	24	104	0	83	23868
2026-01-10 11:32:09.96	292.40	28.52	-59.0	-75.0	3.8	1.49e+00	0	24	104	0	83	23830
2026-01-10 11:32:10.95	292.70	28.45	-59.0	-75.0	3.8	1.49e+00	0	24	104	0	83	23838
2026-01-10 11:32:11.94	293.00	28.39	-59.0	-75.0	3.8	1.49e+00	0	24	104	0	83	23853
2026-01-10 11:32:12.93	293.30	28.32	-59.0	-75.0	3.8	1.49e+00	0	24	104	0	83	23809
2026-01-10 11:32:13.93	293.59	28.25	-59.0	-75.0	3.8	1.49e+00	0	24	104	0	83	23828
2026-01-10 11:32:14.92	293.89	28.18	-59.0	-75.1	3.8	1.49e+00	0	24	104	0	83	23922
2026-01-10 11:32:15.91	294.18	28.11	-59.0	-75.1	3.8	1.49e+00	0	24	104	0	83	23883
2026-01-10 11:32:16.91	294.47	28.03	-59.0	-75.0	3.8	1.49e+00	0	23	104	0	83	23824
2026-01-10 11:32:17.90	294.77	27.96	-59.0	-75.1	3.8	1.49e+00	0	24	104	0	83	23904
2026-01-10 11:32:18.90	295.06	27.89	-59.0	-75.0	3.8	1.49e+00	0	24	104	0	83	23835
2026-01-10 11:32:19.89	295.34	27.82	-59.0	-75.0	3.8	1.49e+00	0	24	104	0	83	23841
2026-01-10 11:32:20.88	295.63	27.74	-59.0	-75.1	3.8	1.49e+00	0	23	104	0	83	23882
2026-01-10 11:32:21.88	295.92	27.67	-59.0	-75.1	3.8	1.49e+00	0	23	104	0	83	23873
2026-01-10 11:32:22.87	296.20	27.59	-59.0	-75.1	3.8	1.49e+00	0	24	104	0	83	23868
2026-01-10 11:32:23.86	296.49	27.52	-59.0	-75.1	3.8	1.49e+00	0	24	104	0	83	23960
2026-01-10 11:32:24.86	296.77	27.44	-59.0	-75.0	3.8	1.49e+00	0	24	104	0	83	23797
2026-01-10 11:32:25.85	297.05	27.36	-59.0	-75.1	3.8	1.49e+00	0	24	104	0	83	23864
2026-01-10 11:32:26.84	297.33	27.29	-59.0	-75.1	3.8	1.49e+00	0	24	104	0	83	23883
2026-01-10 11:32:27.84	297.61	27.21	-59.0	-75.1	3.8	1.49e+00	0	23	104	0	83	23909
2026-01-10 11:32:28.83	297.88	27.13	-59.0	-75.0	3.8	1.49e+00	0	23	104	0	83	23853
2026-01-10 11:32:29.83	298.16	27.05	-59.0	-75.1	3.8	1.49e+00	0	24	104	0	83	23900
2026-01-10 11:32:30.83	298.44	26.97	-59.0	-75.1	3.8	1.49e+00	0	24	104	0	83	23857
2026-01-10 11:32:31.82	298.71	26.90	-59.0	-75.1	3.8	1.49e+00	0	24	104	0	83	23866
2026-01-10 11:32:32.81	298.98	26.82	-59.0	-75.1	3.8	1.49e+00	0	23	104	0	83	23913
2026-01-10 11:32:33.80	299.25	26.74	-59.0	-75.1	3.8	1.49e+00	0	24	104	0	83	23938
2026-01-10 11:32:34.81	299.52	26.65	-59.0	-75.1	3.8	1.49e+00	0	23	104	0	83	23904
2026-01-10 11:32:35.81	299.79	26.57	-59.0	-75.1	3.8	1.49e+00	0	24	104	0	83	23871
2026-01-10 11:32:36.80	300.06	26.49	-59.0	-75.1	3.8	1.49e+00	0	24	104	0	83	23941
2026-01-10 11:32:37.80	300.32	26.41	-59.0	-75.1	3.8	1.49e+00	0	24	104	0	83	23917
2026-01-10 11:32:38.79	300.58	26.33	-59.0	-75.1	3.8	1.49e+00	0	24	104	0	83	23875
2026-01-10 11:32:39.78	300.85	26.24	-59.0	-75.1	3.8	1.49e+00	0	23	104	0	83	23869
2026-01-10 11:32:40.78	301.11	26.16	-59.0	-75.1	3.8	1.49e+00	0	24	104	0	83	23879
2026-01-10 11:32:41.77	301.37	26.08	-59.0	-75.1	3.8	1.49e+00	0	24	104	0	83	23880
2026-01-10 11:32:42.77	301.63	25.99	-59.0	-75.1	3.8	1.49e+00	0	24	104	0	83	23912
2026-01-10 11:32:43.77	301.88	25.91	-59.0	-75.1	3.8	1.49e+00	0	24	104	0	83	23906
2026-01-10 11:32:44.76	302.14	25.83	-59.0	-75.0	3.8	1.49e+00	0	23	104	0	83	23834
2026-01-10 11:32:45.76	302.39	25.74	-59.0	-75.0	3.8	1.49e+00	0	24	104	0	83	23851
2026-01-10 11:32:46.76	302.65	25.65	-59.0	-75.1	3.8	1.49e+00	0	24	104	0	83	23884
2026-01-10 11:32:47.76	302.90	25.57	-59.0	-75.1	3.8	1.49e+00	0	24	104	0	83	23910
2026-01-10 11:32:48.76	303.15	25.48	-59.0	-75.1	3.8	1.49e+00	0	24	104	0	83	23879
2026-01-10 11:32:49.76	303.40	25.40	-59.0	-75.1	3.8	1.49e+00	0	24	104	0	83	23934
2026-01-10 11:32:50.75	303.65	25.31	-59.0	-75.1	3.8	1.49e+00	0	24	104	0	83	23892
2026-01-10 11:32:51.75	303.90	25.22	-59.0	-75.0	3.8	1.49e+00	0	24	104	0	83	23850
2026-01-10 11:32:52.75	304.14	25.14	-59.0	-75.1	3.8	1.49e+00	0	24	104	0	83	23903
2026-01-10 11:32:53.75	304.39	25.05	-59.0	-75.1	3.8	1.49e+00	0	24	104	0	83	23906
2026-01-10 11:32:54.74	304.63	24.96	-59.0	-75.1	3.8	1.49e+00	0	24	104	0	83	23872
2026-01-10 11:32:55.74	304.87	24.87	-59.0	-75.1	3.8	1.49e+00	0	24	104	0	83	23918
2026-01-10 11:32:56.73	305.11	24.79	-59.0	-75.1	3.8	1.49e+00	0	24	104	0	83	23873
2026-01-10 11:32:57.72	305.35	24.70	-59.0	-75.1	3.8	1.49e+00	0	24	104	0	83	23862
2026-01-10 11:32:58.72	305.59	24.61	-59.0	-75.0	3.8	1.49e+00	0	24	104	0	83	23815
2026-01-10 11:32:59.72	305.82	24.52	-59.0	-75.1	3.8	1.49e+00	0	24	104	0	83	23877
2026-01-10 11:33:00.72	306.06	24.43	-59.0	-75.0	3.8	1.49e+00	0	24	104	0	83	23837
2026-01-10 11:33:01.72	306.29	24.34	-59.0	-75.0	3.8	1.49e+00	0	24	104	0	83	23795
2026-01-10 11:33:02.71	306.52	24.26	-59.0	-75.0	3.8	1.49e+00	0	24	104	0	83	23773
2026-01-10 11:33:03.70	306.75	24.17	-59.0	-75.0	3.8	1.49e+00	0	24	104	0	83	23800
2026-01-10 11:33:04.70	306.99	24.08	-59.0	-75.0	3.8	1.49e+00	0	24	104	0	83	23810
2026-01-10 11:33:05.70	307.21	23.99	-59.0	-75.0	3.8	1.49e+00	0	24	104	0	83	23831
2026-01-10 11:33:06.69	307.44	23.90	-59.0	-75.0	3.8	1.49e+00	0	24	104	0	83	23817
2026-01-10 11:33:07.69	307.67	23.81	-59.0	-75.0	3.8	1.49e+00	0	24	104	0	83	23773
2026-01-10 11:33:08.69	307.89	23.72	-59.0	-75.0	3.8	1.49e+00	0	24	104	0	83	23796
2026-01-10 11:33:09.68	308.11	23.63	-59.0	-75.0	3.8	1.49e+00	0	24	104	0	83	23802
2026-01-10 11:33:10.68	308.34	23.54	-59.0	-75.0	3.8	1.49e+00	0	24	104	0	83	23851
2026-01-10 11:33:11.67	308.56	23.45	-59.0	-75.0	3.8	1.49e+00	0	24	104	0	83	23787
2026-01-10 11:33:12.66	308.78	23.36	-59.0	-75.0	3.8	1.49e+00	0	24	104	0	83	23757
2026-01-10 11:33:13.65	308.99	23.27	-59.0	-75.0	3.8	1.49e+00	0	24	104	0	83	23843
2026-01-10 11:33:14.65	309.21	23.18	-59.0	-75.1	3.8	1.49e+00	0	24	104	0	83	23890
2026-01-10 11:33:15.64	309.42	23.09	-59.0	-75.0	3.8	1.49e+00	0	24	104	0	83	23837
2026-01-10 11:33:16.64	309.64	23.00	-59.0	-75.1	3.8	1.49e+00	0	24	104	0	83	23865
2026-01-10 11:33:17.63	309.85	22.91	-59.0	-75.1	3.8	1.49e+00	0	24	104	0	83	23914
2026-01-10 11:33:18.62	310.06	22.81	-59.0	-75.1	3.8	1.49e+00	0	24	104	0	83	23886
2026-01-10 11:33:19.61	310.27	22.72	-59.0	-75.0	3.8	1.49e+00	0	24	104	0	83	23825
2026-01-10 11:33:20.61	310.48	22.63	-59.0	-75.1	3.8	1.49e+00	0	24	104	0	83	23873
2026-01-10 11:33:21.61	310.69	22.54	-59.0	-75.0	3.8	1.49e+00	0	24	104	0	83	23853
2026-01-10 11:33:22.61	310.90	22.45	-59.0	-75.0	3.8	1.49e+00	0	24	104	0	83	23812
2026-01-10 11:33:23.60	311.11	22.36	-59.0	-75.0	3.8	1.49e+00	0	24	104	0	83	23848
2026-01-10 11:33:24.59	311.31	22.27	-59.0	-75.0	3.8	1.49e+00	0	24	104	0	83	23803
2026-01-10 11:33:25.59	311.52	22.18	-59.0	-75.0	3.8	1.49e+00	0	24	104	0	83	23825
2026-01-10 11:33:26.59	311.72	22.09	-59.0	-75.0	3.8	1.49e+00	0	24	104	0	83	23841
2026-01-10 11:33:27.58	311.92	21.99	-59.0	-75.0	3.8	1.49e+00	0	23	104	0	83	23799
2026-01-10 11:33:28.58	312.12	21.90	-59.0	-75.0	3.8	1.49e+00	0	24	104	0	83	23803
2026-01-10 11:33:29.57	312.32	21.81	-59.0	-75.1	3.8	1.49e+00	0	24	104	0	83	23872
2026-01-10 11:33:30.57	312.52	21.72	-59.0	-75.0	3.8	1.49e+00	0	24	104	0	83	23848
2026-01-10 11:33:31.56	312.71	21.63	-59.0	-75.0	3.8	1.49e+00	0	24	104	0	83	23793
2026-01-10 11:33:32.55	312.91	21.54	-59.0	-75.0	3.8	1.49e+00	0	24	104	0	83	23842
2026-01-10 11:33:33.54	313.10	21.45	-59.0	-75.0	3.8	1.49e+00	0	24	104	0	83	23829
2026-01-10 11:33:34.54	313.30	21.36	-59.0	-75.0	3.8	1.49e+00	0	24	104	0	83	23836
2026-01-10 11:33:35.53	313.49	21.27	-59.0	-75.1	3.8	1.49e+00	0	24	104	0	83	23871
2026-01-10 11:33:36.53	313.68	21.17	-59.0	-75.0	3.8	1.49e+00	0	23	104	0	83	23784
2026-01-10 11:33:37.53	313.87	21.08	-59.0	-75.0	3.8	1.49e+00	0	23	104	0	83	23838
2026-01-10 11:33:38.52	314.06	20.99	-59.0	-75.0	3.8	1.49e+00	0	24	104	0	83	23846
2026-01-10 11:33:39.52	314.25	20.90	-59.0	-75.0	3.8	1.49e+00	0	24	104	0	83	23841
2026-01-10 11:33:40.51	314.43	20.81	-59.0	-75.1	3.8	1.49e+00	0	24	104	0	83	23877
2026-01-10 11:33:41.51	314.62	20.72	-59.0	-75.1	3.8	1.49e+00	0	24	104	0	83	23896
2026-01-10 11:33:42.51	314.81	20.63	-59.0	-75.0	3.8	1.49e+00	0	24	104	0	83	23833
2026-01-10 11:33:43.50	314.99	20.53	-59.0	-75.0	3.8	1.49e+00	0	24	104	0	83	23838
2026-01-10 11:33:44.50	315.17	20.44	-59.0	-75.0	3.8	1.49e+00	0	24	104	0	83	23831
2026-01-10 11:33:45.50	315.36	20.35	-59.0	-75.0	3.8	1.49e+00	0	24	104	0	83	23806
2026-01-10 11:33:46.49	315.53	20.26	-59.0	-75.0	3.8	1.49e+00	0	24	104	0	83	23842
2026-01-10 11:33:47.48	315.71	20.17	-59.0	-75.1	3.8	1.49e+00	0	24	104	0	83	23878
2026-01-10 11:33:48.48	315.89	20.08	-59.0	-75.1	3.8	1.49e+00	0	24	104	0	83	23855
2026-01-10 11:33:49.47	316.07	19.99	-59.0	-75.0	3.8	1.49e+00	0	24	104	0	83	23798
2026-01-10 11:33:50.47	316.25	19.90	-59.0	-75.0	3.8	1.49e+00	0	24	104	0	83	23768
2026-01-10 11:33:51.47	316.42	19.81	-59.0	-75.0	3.8	1.49e+00	0	24	104	0	83	23817
2026-01-10 11:33:52.46	316.60	19.72	-59.0	-75.0	3.8	1.49e+00	0	24	104	0	83	23781
2026-01-10 11:33:53.46	316.77	19.63	-59.0	-75.1	3.8	1.49e+00	0	24	104	0	83	23856
2026-01-10 11:33:54.45	316.94	19.54	-59.0	-75.0	3.8	1.49e+00	0	24	104	0	83	23784
2026-01-10 11:33:55.44	317.11	19.45	-59.0	-75.0	3.8	1.49e+00	0	24	104	0	83	23831
2026-01-10 11:33:56.44	317.28	19.36	-59.0	-75.1	3.8	1.49e+00	0	24	104	0	83	23857
2026-01-10 11:33:57.43	317.45	19.27	-59.0	-75.0	3.8	1.49e+00	0	24	104	0	83	23820
2026-01-10 11:33:58.42	317.62	19.18	-59.0	-75.0	3.8	1.49e+00	0	24	104	0	83	23773
2026-01-10 11:33:59.42	317.79	19.09	-59.0	-75.0	3.8	1.49e+00	0	24	104	0	83	23835
2026-01-10 11:34:00.41	317.95	19.00	-59.0	-75.1	3.8	1.49e+00	0	24	104	0	83	23872
2026-01-10 11:34:01.41	318.12	18.91	-59.0	-75.1	3.8	1.49e+00	0	24	104	0	83	23875
2026-01-10 11:34:02.40	318.28	18.82	-59.0	-75.0	3.8	1.49e+00	0	24	104	0	83	23836
2026-01-10 11:34:03.39	318.45	18.73	-59.0	-75.1	3.8	1.49e+00	0	24	104	0	83	23858
2026-01-10 11:34:04.39	318.61	18.64	-59.0	-75.1	3.8	1.49e+00	0	24	104	0	83	23900
2026-01-10 11:34:05.38	318.77	18.55	-59.0	-75.0	3.8	1.49e+00	0	24	104	0	83	23846
2026-01-10 11:34:06.38	318.93	18.46	-59.0	-75.1	3.8	1.49e+00	0	24	104	0	83	23876
2026-01-10 11:34:07.37	319.09	18.37	-59.0	-75.0	3.8	1.49e+00	0	24	104	0	83	23849
2026-01-10 11:34:08.36	319.25	18.28	-59.0	-75.1	3.8	1.49e+00	0	24	104	0	83	23886
2026-01-10 11:34:09.35	319.41	18.19	-59.0	-75.1	3.8	1.49e+00	0	24	104	0	83	23856
2026-01-10 11:34:10.35	319.57	18.11	-59.0	-75.1	3.8	1.49e+00	0	24	104	0	83	23857
2026-01-10 11:34:11.34	319.72	18.02	-59.0	-75.0	3.8	1.49e+00	0	24	104	0	83	23817
2026-01-10 11:34:12.33	319.88	17.93	-59.0	-75.0	3.8	1.49e+00	0	24	104	0	83	23774
2026-01-10 11:34:13.33	320.03	17.84	-59.0	-75.0	3.8	1.49e+00	0	24	104	0	83	23795
2026-01-10 11:34:14.31	320.19	17.75	-59.0	-75.0	3.8	1.49e+00	0	24	104	0	83	23828
2026-01-10 11:34:15.31	320.34	17.66	-59.0	-75.0	3.8	1.49e+00	0	24	104	0	83	23823
2026-01-10 11:34:16.30	320.49	17.58	-59.0	-75.0	3.8	1.49e+00	0	24	104	0	83	23803
2026-01-10 11:34:17.29	320.64	17.49	-59.0	-75.1	3.8	1.49e+00	0	24	104	0	83	23916
2026-01-10 11:34:18.28	320.79	17.40	-59.0	-75.1	3.8	1.49e+00	0	24	104	0	83	23872
2026-01-10 11:34:19.27	320.94	17.31	-59.0	-75.0	3.8	1.49e+00	0	24	104	0	83	23799
2026-01-10 11:34:20.27	321.09	17.23	-59.0	-75.1	3.8	1.49e+00	0	24	104	0	83	23894
2026-01-10 11:34:21.26	321.24	17.14	-59.0	-75.0	3.8	1.49e+00	0	24	104	0	83	23793
2026-01-10 11:34:22.25	321.38	17.05	-59.0	-75.0	3.8	1.49e+00	0	24	104	0	83	23818
2026-01-10 11:34:23.25	321.53	16.97	-59.0	-75.0	3.8	1.49e+00	0	24	104	0	83	23801
2026-01-10 11:34:24.25	321.68	16.88	-59.0	-75.0	3.8	1.49e+00	0	24	104	0	83	23799
2026-01-10 11:34:25.25	321.82	16.79	-59.0	-75.0	3.8	1.49e+00	0	24	104	0	83	23823
2026-01-10 11:34:26.24	321.96	16.70	-59.0	-75.0	3.8	1.49e+00	0	24	104	0	83	23792
2026-01-10 11:34:27.24	322.11	16.62	-59.0	-75.0	3.8	1.49e+00	0	24	104	0	83	23804
2026-01-10 11:34:28.23	322.25	16.53	-59.0	-75.0	3.8	1.49e+00	0	23	104	0	83	23839
2026-01-10 11:34:29.23	322.39	16.44	-59.0	-75.1	3.8	1.49e+00	0	24	104	0	83	23856
2026-01-10 11:34:30.22	322.53	16.36	-59.0	-75.0	3.8	1.49e+00	0	24	104	0	83	23847
2026-01-10 11:34:31.21	322.67	16.27	-59.0	-75.0	3.8	1.49e+00	0	24	104	0	83	23844
2026-01-10 11:34:32.21	322.81	16.19	-59.0	-75.0	3.8	1.49e+00	0	23	104	0	83	23836
2026-01-10 11:34:33.20	322.95	16.10	-59.0	-75.0	3.8	1.49e+00	0	24	104	0	83	23818
2026-01-10 11:34:34.20	323.09	16.02	-59.0	-75.1	3.8	1.49e+00	0	24	104	0	83	23889
2026-01-10 11:34:35.19	323.22	15.93	-59.0	-75.0	3.8	1.49e+00	0	24	104	0	83	23837
2026-01-10 11:34:36.18	323.36	15.85	-59.0	-75.0	3.8	1.49e+00	0	24	104	0	83	23817
2026-01-10 11:34:37.18	323.49	15.76	-59.0	-75.0	3.8	1.49e+00	0	24	104	0	83	23818
2026-01-10 11:34:38.17	323.63	15.68	-59.0	-75.0	3.8	1.49e+00	0	24	104	0	83	23852
2026-01-10 11:34:39.17	323.76	15.59	-59.0	-75.0	3.8	1.49e+00	0	24	104	0	83	23837
2026-01-10 11:34:40.16	323.90	15.51	-59.0	-75.0	3.8	1.49e+00	0	24	104	0	83	23841
2026-01-10 11:34:41.15	324.03	15.42	-59.0	-75.1	3.8	1.49e+00	0	24	104	0	83	23873
2026-01-10 11:34:42.14	324.16	15.34	-59.0	-75.0	3.8	1.49e+00	0	24	104	0	83	23833
2026-01-10 11:34:43.13	324.29	15.26	-59.0	-75.0	3.8	1.49e+00	0	24	104	0	83	23811
2026-01-10 11:34:44.12	324.42	15.17	-59.0	-75.0	3.8	1.49e+00	0	24	104	0	83	23788
2026-01-10 11:34:45.11	324.55	15.09	-59.0	-75.0	3.8	1.49e+00	0	24	104	0	83	23815
2026-01-10 11:34:46.10	324.68	15.00	-59.0	-75.1	3.8	1.49e+00	0	24	104	0	83	23881
2026-01-10 11:34:47.10	324.80	14.92	-59.0	-75.1	3.8	1.49e+00	0	24	104	0	83	23868
2026-01-10 11:34:48.09	324.93	14.84	-59.0	-75.0	3.8	1.49e+00	0	24	104	0	83	23854
2026-01-10 11:34:49.09	325.06	14.75	-59.0	-75.0	3.8	1.49e+00	0	24	104	0	83	23842
2026-01-10 11:34:50.08	325.18	14.67	-59.0	-75.0	3.8	1.49e+00	0	24	104	0	83	23783
2026-01-10 11:34:51.08	325.31	14.59	-59.0	-75.0	3.8	1.49e+00	0	24	104	0	83	23787
2026-01-10 11:34:52.07	325.44	14.51	-59.0	-75.0	3.8	1.49e+00	0	24	104	0	83	23843
2026-01-10 11:34:53.06	325.56	14.42	-59.0	-75.0	3.8	1.49e+00	0	24	104	0	83	23770
2026-01-10 11:34:54.07	325.68	14.34	-59.0	-75.0	3.8	1.49e+00	0	24	104	0	83	23829
2026-01-10 11:34:55.06	325.81	14.26	-59.0	-75.0	3.8	1.49e+00	0	24	104	0	83	23718
2026-01-10 11:34:56.06	325.93	14.18	-59.0	-75.0	3.8	1.49e+00	0	24	104	0	83	23822
2026-01-10 11:34:57.07	326.05	14.09	-59.0	-75.0	3.8	1.49e+00	0	24	104	0	83	23793
2026-01-10 11:34:58.06	326.17	14.01	-59.0	-75.0	3.8	1.49e+00	0	24	104	0	83	23797
2026-01-10 11:34:59.05	326.29	13.93	-59.0	-75.0	3.8	1.49e+00	0	24	104	0	83	23850
2026-01-10 11:35:00.04	326.41	13.85	-59.0	-75.0	3.8	1.49e+00	0	24	104	0	83	23785
2026-01-10 11:35:01.03	326.53	13.77	-59.0	-75.0	3.8	1.49e+00	0	24	104	0	83	23838
2026-01-10 11:35:02.02	326.65	13.69	-59.0	-75.0	3.8	1.49e+00	0	24	104	0	83	23848
2026-01-10 11:35:03.02	326.77	13.61	-59.0	-75.0	3.8	1.49e+00	0	24	104	0	83	23811
2026-01-10 11:35:04.01	326.88	13.53	-59.0	-75.1	3.8	1.49e+00	0	24	104	0	83	23873
2026-01-10 11:35:05.01	327.00	13.44	-59.0	-75.0	3.8	1.49e+00	0	23	104	0	83	23818
2026-01-10 11:35:06.02	327.12	13.36	-59.0	-75.0	3.8	1.49e+00	0	24	104	0	83	23834
2026-01-10 11:35:07.01	327.23	13.28	-59.0	-75.1	3.8	1.49e+00	0	24	104	0	83	23856
2026-01-10 11:35:08.01	327.35	13.20	-59.0	-75.0	3.8	1.49e+00	0	24	104	0	83	23785
2026-01-10 11:35:09.00	327.46	13.12	-59.0	-75.0	3.8	1.49e+00	0	24	104	0	83	23848
2026-01-10 11:35:10.00	327.58	13.04	-59.0	-75.0	3.8	1.49e+00	0	24	104	0	83	23840
2026-01-10 11:35:10.98	327.69	12.96	-59.0	-75.0	3.8	1.49e+00	0	24	104	0	83	23821
2026-01-10 11:35:11.97	327.80	12.89	-59.0	-75.0	3.8	1.49e+00	0	24	104	0	83	23768
2026-01-10 11:35:12.97	327.91	12.81	-59.0	-75.0	3.8	1.49e+00	0	24	104	0	83	23806
2026-01-10 11:35:13.97	328.02	12.73	-59.0	-75.0	3.8	1.49e+00	0	24	104	0	83	23832
2026-01-10 11:35:14.96	328.13	12.65	-59.0	-75.0	3.8	1.49e+00	0	24	104	0	83	23827
2026-01-10 11:35:15.95	328.24	12.57	-59.0	-75.0	3.8	1.49e+00	0	24	104	0	83	23783
2026-01-10 11:35:16.95	328.35	12.49	-59.0	-75.0	3.8	1.49e+00	0	24	104	0	83	23786
2026-01-10 11:35:17.94	328.46	12.41	-59.0	-75.0	3.8	1.49e+00	0	24	104	0	83	23813
2026-01-10 11:35:18.93	328.57	12.33	-59.0	-75.0	3.8	1.49e+00	0	24	104	0	83	23772
2026-01-10 11:35:19.93	328.68	12.26	-59.0	-75.0	3.8	1.49e+00	0	24	104	0	83	23762
2026-01-10 11:35:20.93	328.79	12.18	-59.0	-75.0	3.8	1.49e+00	0	24	104	0	83	23801
2026-01-10 11:35:21.92	328.89	12.10	-59.0	-75.0	3.8	1.49e+00	0	24	104	0	83	23838
2026-01-10 11:35:22.92	329.00	12.02	-59.0	-75.1	3.8	1.49e+00	0	23	104	0	83	23858
2026-01-10 11:35:23.91	329.10	11.94	-59.0	-75.1	3.8	1.49e+00	0	24	104	0	83	23890
2026-01-10 11:35:24.90	329.21	11.87	-59.0	-75.1	3.8	1.49e+00	0	24	104	0	83	23866
2026-01-10 11:35:25.91	329.31	11.79	-59.0	-75.0	3.8	1.49e+00	0	24	104	0	83	23755
2026-01-10 11:35:26.90	329.42	11.71	-59.0	-75.0	3.8	1.49e+00	0	24	104	0	83	23779
2026-01-10 11:35:27.89	329.52	11.64	-59.0	-75.0	3.8	1.49e+00	0	24	104	0	83	23799
2026-01-10 11:35:28.89	329.62	11.56	-59.0	-75.0	3.8	1.49e+00	0	24	104	0	83	23787
2026-01-10 11:35:29.89	329.73	11.48	-59.0	-75.0	3.8	1.49e+00	0	24	104	0	83	23805
2026-01-10 11:35:30.89	329.83	11.41	-59.0	-75.1	3.8	1.49e+00	0	24	104	0	83	23912
2026-01-10 11:35:31.87	329.93	11.33	-59.0	-75.0	3.8	1.49e+00	0	24	104	0	83	23791
2026-01-10 11:35:32.87	330.03	11.25	-59.0	-75.1	3.8	1.49e+00	0	24	104	0	83	23887
2026-01-10 11:35:33.87	330.13	11.18	-59.0	-75.0	3.8	1.49e+00	0	24	104	0	83	23840
2026-01-10 11:35:34.86	330.23	11.10	-59.0	-75.0	3.8	1.49e+00	0	24	104	0	83	23768
2026-01-10 11:35:35.85	330.33	11.03	-59.0	-75.0	3.8	1.49e+00	0	24	104	0	83	23850
2026-01-10 11:35:36.85	330.43	10.95	-59.0	-75.1	3.8	1.49e+00	0	24	104	0	83	23871
2026-01-10 11:35:37.85	330.53	10.88	-59.0	-75.0	3.8	1.49e+00	0	24	104	0	83	23815
2026-01-10 11:35:38.84	330.63	10.80	-59.0	-75.0	3.8	1.49e+00	0	24	104	0	83	23836
2026-01-10 11:35:39.83	330.73	10.73	-59.0	-75.0	3.8	1.49e+00	0	24	104	0	83	23789
2026-01-10 11:35:40.83	330.82	10.65	-59.0	-75.0	3.8	1.49e+00	0	24	104	0	83	23803
2026-01-10 11:35:41.83	330.92	10.58	-59.0	-75.0	3.8	1.49e+00	0	24	104	0	83	23823
2026-01-10 11:35:42.83	331.02	10.50	-59.0	-75.0	3.8	1.49e+00	0	24	104	0	83	23785
2026-01-10 11:35:43.82	331.11	10.43	-59.0	-75.0	3.8	1.49e+00	0	24	104	0	83	23823
2026-01-10 11:35:44.82	331.21	10.35	-59.0	-75.0	3.8	1.49e+00	0	24	104	0	83	23797
2026-01-10 11:35:45.82	331.30	10.28	-59.0	-75.0	3.8	1.49e+00	0	24	104	0	83	23795
2026-01-10 11:35:46.81	331.40	10.20	-59.0	-75.0	3.8	1.49e+00	0	24	104	0	83	23738
2026-01-10 11:35:47.81	331.49	10.13	-59.0	-75.0	3.8	1.49e+00	0	24	104	0	83	23809
2026-01-10 11:35:48.81	331.59	10.06	-59.0	-75.0	3.8	1.49e+00	0	24	104	0	83	23814
2026-01-10 11:35:49.81	331.68	9.98	-59.0	-75.0	3.8	1.49e+00	0	24	104	0	83	23823
2026-01-10 11:35:50.81	331.77	9.91	-59.0	-75.0	3.8	1.49e+00	0	24	104	0	83	23755
2026-01-10 11:35:51.80	331.87	9.84	-59.0	-75.0	3.8	1.49e+00	0	24	104	0	83	23781
2026-01-10 11:35:52.79	331.96	9.76	-59.0	-75.0	3.8	1.49e+00	0	24	104	0	83	23791
2026-01-10 11:35:53.79	332.05	9.69	-59.0	-75.0	3.8	1.49e+00	0	24	104	0	83	23804
2026-01-10 11:35:54.78	332.14	9.62	-59.0	-75.0	3.8	1.49e+00	0	24	104	0	83	23739
2026-01-10 11:35:55.76	332.23	9.55	-59.0	-75.0	3.8	1.49e+00	0	24	104	0	83	23780
2026-01-10 11:35:56.76	332.32	9.47	-59.0	-75.0	3.8	1.49e+00	0	24	104	0	83	23750
2026-01-10 11:35:57.75	332.41	9.40	-59.0	-75.0	3.8	1.49e+00	0	24	104	0	83	23778
2026-01-10 11:35:58.74	332.50	9.33	-59.0	-75.0	3.8	1.49e+00	0	24	104	0	83	23812
2026-01-10 11:35:59.74	332.59	9.26	-59.0	-75.0	3.8	1.49e+00	0	24	104	0	83	23779
2026-01-10 11:36:00.72	332.67	9.19	-59.0	-75.0	3.8	1.49e+00	0	24	104	0	83	23772
2026-01-10 11:36:01.71	332.76	9.12	-59.0	-75.0	3.8	1.49e+00	0	23	104	0	83	23755
2026-01-10 11:36:02.70	332.85	9.05	-59.0	-75.0	3.8	1.49e+00	0	24	104	0	83	23752
2026-01-10 11:36:03.70	332.94	8.97	-59.0	-75.0	3.8	1.49e+00	0	24	104	0	83	23736
2026-01-10 11:36:04.69	333.02	8.90	-59.0	-75.0	3.8	1.49e+00	0	24	104	0	83	23746
2026-01-10 11:36:05.69	333.11	8.83	-59.0	-75.0	3.8	1.49e+00	0	24	104	0	83	23751
2026-01-10 11:36:06.69	333.19	8.76	-59.0	-75.0	3.8	1.49e+00	0	24	104	0	83	23848
2026-01-10 11:36:07.68	333.28	8.69	-59.0	-75.0	3.8	1.49e+00	0	23	104	0	83	23798
2026-01-10 11:36:08.68	333.37	8.62	-59.0	-75.0	3.8	1.49e+00	0	24	104	0	83	23796
2026-01-10 11:36:09.68	333.45	8.55	-59.0	-75.0	3.8	1.49e+00	0	24	104	0	83	23772
2026-01-10 11:36:10.68	333.54	8.48	-59.0	-75.0	3.8	1.49e+00	0	24	104	0	83	23811
2026-01-10 11:36:11.67	333.62	8.41	-59.0	-75.0	3.8	1.49e+00	0	24	104	0	83	23802
2026-01-10 11:36:12.67	333.70	8.34	-59.0	-75.0	3.8	1.49e+00	0	24	104	0	83	23804
2026-01-10 11:36:13.66	333.79	8.27	-59.0	-75.0	3.8	1.49e+00	0	24	104	0	83	23780
2026-01-10 11:36:14.65	333.87	8.20	-59.0	-75.0	3.8	1.49e+00	0	24	104	0	83	23796
2026-01-10 11:36:15.64	333.95	8.13	-59.0	-75.0	3.8	1.49e+00	0	24	104	0	83	23762
2026-01-10 11:36:16.63	334.03	8.06	-59.0	-75.0	3.8	1.49e+00	0	24	104	0	83	23811
2026-01-10 11:36:17.63	334.12	7.99	-58.9	-75.0	3.8	1.49e+00	0	24	104	0	83	23776
2026-01-10 11:36:18.62	334.20	7.92	-59.0	-75.0	3.8	1.49e+00	0	24	104	0	83	23710
2026-01-10 11:36:19.61	334.28	7.86	-59.0	-75.0	3.8	1.49e+00	0	24	104	0	83	23795
2026-01-10 11:36:20.61	334.36	7.79	-59.0	-75.0	3.8	1.49e+00	0	24	104	0	83	23750
2026-01-10 11:36:21.61	334.44	7.72	-59.0	-75.0	3.8	1.49e+00	0	24	104	0	83	23795
2026-01-10 11:36:22.59	334.52	7.65	-59.0	-75.0	3.8	1.49e+00	0	24	104	0	83	23745
2026-01-10 11:36:23.59	334.60	7.58	-59.0	-75.0	3.8	1.49e+00	0	24	104	0	83	23775
2026-01-10 11:36:24.58	334.68	7.51	-59.0	-75.0	3.8	1.49e+00	0	24	104	0	83	23728
