passes_logs/2026/01/10/R3.2S_Murmansk/R3.2S_Murmansk__20260110_120222_FENGYUN_3D_rec.log

#Pass ID: 20260110_120222_FENGYUN 3D
#Satellite: FENGYUN 3D
#Configuration: FENGYUN 3D
#almurnet v.1.7.20251203
#Start time: 2026-01-10 12:02:23

#Version: 2.2.20231116
#Station: R3.2S_Murmansk
#Location: 33.079688 lon 68.888172 lat
#TLE: 1 43010U 17072A   26009.92921666 -.00000228  00000+0 -86059-4 0  9998
#TLE: 2 43010  98.9936 341.6668 0002176 116.7510 243.3888 14.19693142422537

#Time	Az	El	Level	Level2	SNR	BER	BlckErr	Temp	State	Recorded	gain1	gain2
2026-01-10 12:02:23.77	163.33	2.08	-57.2	-70.2	3.8	8.44e-01	0	21	0	0	79	17195
2026-01-10 12:02:24.76	163.34	2.15	-57.2	-70.0	3.8	8.45e-01	0	21	104	0	79	16712
2026-01-10 12:02:25.75	163.36	2.21	-57.2	-69.8	3.8	8.46e-01	0	21	104	0	79	16369
2026-01-10 12:02:26.74	163.38	2.27	-57.2	-69.9	3.8	8.46e-01	0	21	104	0	79	16568
2026-01-10 12:02:27.73	163.40	2.34	-57.2	-69.9	3.8	8.46e-01	0	21	104	0	79	16583
2026-01-10 12:02:28.73	163.41	2.40	-57.2	-69.9	3.8	8.45e-01	0	21	104	0	79	16514
2026-01-10 12:02:29.72	163.43	2.47	-57.2	-69.7	3.8	8.45e-01	0	22	104	0	79	16290
2026-01-10 12:02:30.70	163.45	2.53	-57.2	-70.0	3.8	8.45e-01	0	21	104	0	79	16743
2026-01-10 12:02:31.69	163.46	2.59	-57.2	-69.9	3.8	8.45e-01	0	21	104	0	79	16599
2026-01-10 12:02:32.69	163.48	2.66	-57.2	-69.8	3.8	8.45e-01	0	22	104	0	79	16390
2026-01-10 12:02:33.68	163.50	2.72	-57.2	-69.7	3.8	8.45e-01	0	22	104	0	79	16274
2026-01-10 12:02:34.67	163.52	2.79	-57.2	-69.6	3.8	8.45e-01	0	22	104	0	79	16067
2026-01-10 12:02:35.66	163.53	2.85	-57.2	-69.5	3.8	8.46e-01	0	22	104	0	79	15880
2026-01-10 12:02:36.66	163.55	2.92	-57.2	-69.5	3.8	8.46e-01	0	21	104	0	79	15899
2026-01-10 12:02:37.65	163.57	2.98	-57.2	-69.4	3.8	8.45e-01	0	22	104	0	79	15740
2026-01-10 12:02:38.64	163.59	3.05	-57.2	-69.6	3.8	8.46e-01	0	22	104	0	79	16006
2026-01-10 12:02:39.64	163.60	3.12	-57.2	-69.9	3.8	8.45e-01	0	22	104	0	79	16583
2026-01-10 12:02:40.64	163.62	3.18	-57.3	-70.2	3.8	8.45e-01	0	22	104	0	79	17087
2026-01-10 12:02:41.63	163.64	3.25	-57.3	-70.2	3.8	8.46e-01	0	22	104	0	79	17277
2026-01-10 12:02:42.63	163.66	3.32	-57.2	-70.1	3.8	8.47e-01	0	22	104	0	79	16950
2026-01-10 12:02:43.62	163.68	3.38	-57.2	-69.3	3.8	8.44e-01	0	22	104	0	79	15518
2026-01-10 12:02:44.62	163.69	3.45	-57.1	-68.4	3.8	8.45e-01	0	22	104	0	79	14007
2026-01-10 12:02:45.61	163.71	3.52	-57.0	-67.2	4.1	8.43e-01	0	22	0	0	79	12198
2026-01-10 12:02:46.61	163.73	3.58	-56.9	-66.1	4.4	8.34e-01	0	22	0	0	79	10679
2026-01-10 12:02:47.60	163.75	3.65	-56.8	-65.3	4.6	8.13e-01	0	22	0	0	79	9761
2026-01-10 12:02:48.60	163.77	3.72	-56.5	-63.5	5.6	6.41e-01	0	22	0	0	79	7962
2026-01-10 12:02:49.59	163.78	3.78	-56.1	-62.3	6.5	2.12e-01	0	22	0	6291456	78	7336
2026-01-10 12:02:50.59	163.80	3.85	-56.0	-62.0	6.7	2.07e-01	0	22	0	11534336	78	7109
2026-01-10 12:02:51.58	163.82	3.92	-55.7	-60.9	7.7	1.02e-01	0	22	0	16777216	78	6249
2026-01-10 12:02:52.57	163.84	3.99	-55.5	-60.5	8.0	6.34e-02	0	22	0	23068672	77	6316
2026-01-10 12:02:53.57	163.86	4.06	-55.4	-60.3	8.2	5.23e-02	0	22	0	28311552	77	6136
2026-01-10 12:02:54.57	163.88	4.12	-55.2	-59.7	8.8	2.63e-02	0	22	0	33554432	77	5732
2026-01-10 12:02:55.56	163.90	4.19	-54.9	-59.1	9.2	1.54e-02	0	22	0	38797312	76	5713
2026-01-10 12:02:56.55	163.92	4.26	-54.3	-57.8	10.3	3.94e-03	0	22	0	45088768	75	5217
2026-01-10 12:02:57.54	163.93	4.33	-53.9	-57.2	10.8	1.01e-03	0	22	0	50331648	74	5115
2026-01-10 12:02:58.54	163.95	4.40	-53.8	-57.0	11.0	5.95e-04	0	22	0	56623104	74	5021
2026-01-10 12:02:59.53	163.97	4.47	-53.4	-56.4	11.4	3.47e-04	0	22	0	61865984	73	4971
2026-01-10 12:03:00.53	163.99	4.54	-53.2	-56.0	11.8	7.55e-05	0	22	0	67108864	73	4749
2026-01-10 12:03:01.52	164.01	4.61	-53.2	-56.1	11.6	8.01e-05	0	22	0	73400320	72	5066
2026-01-10 12:03:02.51	164.03	4.68	-52.8	-55.4	12.2	4.00e-05	0	22	0	78643200	72	4677
2026-01-10 12:03:03.51	164.05	4.75	-52.2	-54.6	12.7	2.20e-06	0	22	0	83886080	71	4540
2026-01-10 12:03:04.50	164.07	4.82	-52.3	-54.7	12.6	2.20e-06	0	22	0	89128960	71	4588
2026-01-10 12:03:05.49	164.09	4.89	-52.6	-55.2	12.3	3.40e-06	0	22	0	95420416	71	4834
2026-01-10 12:03:06.49	164.11	4.96	-52.5	-55.1	12.3	1.25e-05	0	22	0	100663296	71	4778
2026-01-10 12:03:07.48	164.13	5.03	-52.4	-54.9	12.4	2.20e-06	0	22	0	106954752	70	4930
2026-01-10 12:03:08.46	164.15	5.10	-53.1	-55.9	11.6	4.23e-05	0	22	0	112197632	71	5264
2026-01-10 12:03:09.45	164.17	5.17	-55.4	-60.4	8.0	1.96e-02	0	22	0	117440512	75	7019
2026-01-10 12:03:10.43	164.19	5.24	-57.1	-68.5	3.8	8.45e-01	0	22	104	119537664	79	14117
2026-01-10 12:03:11.42	164.21	5.31	-48.9	-50.5	14.6	0.00e+00	0	22	0	121634816	64	4213
2026-01-10 12:03:12.41	164.23	5.38	-50.4	-52.3	13.7	0.00e+00	0	22	0	126877696	66	4602
2026-01-10 12:03:13.40	164.25	5.45	-53.3	-56.4	11.3	3.43e-05	0	22	0	133169152	72	5221
2026-01-10 12:03:14.39	164.27	5.52	-49.0	-50.7	14.5	0.00e+00	0	22	0	138412032	64	4294
2026-01-10 12:03:15.37	164.29	5.60	-48.8	-50.4	14.7	0.00e+00	0	22	0	143654912	64	4166
2026-01-10 12:03:16.36	164.31	5.67	-48.8	-50.4	14.5	0.00e+00	0	22	0	148897792	63	4440
2026-01-10 12:03:17.35	164.33	5.74	-48.6	-50.2	14.7	0.00e+00	0	22	0	155189248	63	4300
2026-01-10 12:03:18.34	164.35	5.81	-48.7	-50.2	14.7	0.00e+00	0	22	0	160432128	63	4325
2026-01-10 12:03:19.33	164.37	5.88	-48.8	-50.4	14.5	0.00e+00	0	22	0	166723584	63	4416
2026-01-10 12:03:20.32	164.39	5.96	-48.5	-50.1	14.7	0.00e+00	0	22	0	171966464	63	4257
2026-01-10 12:03:21.31	164.41	6.03	-48.4	-49.9	14.9	0.00e+00	0	23	0	177209344	63	4182
2026-01-10 12:03:22.30	164.43	6.10	-48.9	-50.5	14.5	0.00e+00	0	22	0	182452224	63	4443
2026-01-10 12:03:23.30	164.45	6.18	-48.8	-50.3	14.6	0.00e+00	0	22	0	188743680	63	4375
2026-01-10 12:03:24.29	164.47	6.25	-49.2	-50.9	14.3	0.00e+00	0	23	0	193986560	63	4660
2026-01-10 12:03:25.28	164.50	6.33	-48.8	-50.4	14.6	0.00e+00	0	22	0	199229440	63	4405
2026-01-10 12:03:26.28	164.52	6.40	-48.7	-50.3	14.6	0.00e+00	0	23	0	205520896	63	4374
2026-01-10 12:03:27.27	164.54	6.47	-48.2	-49.7	15.0	0.00e+00	0	22	0	210763776	63	4065
2026-01-10 12:03:28.27	164.56	6.55	-48.4	-49.9	14.7	0.00e+00	0	23	0	217055232	62	4411
2026-01-10 12:03:29.26	164.58	6.62	-48.2	-49.8	14.8	0.00e+00	0	23	0	222298112	62	4341
2026-01-10 12:03:30.25	164.60	6.70	-48.0	-49.4	15.0	0.00e+00	0	22	0	227540992	62	4192
2026-01-10 12:03:31.24	164.62	6.77	-48.1	-49.6	14.9	0.00e+00	0	22	0	232783872	62	4244
2026-01-10 12:03:32.23	164.65	6.85	-48.0	-49.5	15.0	0.00e+00	0	23	0	239075328	62	4221
2026-01-10 12:03:33.22	164.67	6.93	-48.2	-49.7	14.8	0.00e+00	0	22	0	244318208	62	4317
2026-01-10 12:03:34.21	164.69	7.00	-48.9	-50.5	14.4	0.00e+00	0	23	0	249561088	62	4734
2026-01-10 12:03:35.21	164.71	7.08	-48.8	-50.4	14.4	0.00e+00	0	23	0	255852544	62	4692
2026-01-10 12:03:36.19	164.73	7.15	-49.3	-50.9	14.3	0.00e+00	0	23	0	261095424	63	4687
2026-01-10 12:03:37.18	164.76	7.23	-48.8	-50.4	14.6	0.00e+00	0	22	0	266338304	63	4409
2026-01-10 12:03:38.16	164.78	7.31	-49.1	-50.7	14.4	0.00e+00	0	23	0	271581184	63	4573
2026-01-10 12:03:39.16	164.80	7.38	-48.3	-49.8	15.0	0.00e+00	0	22	0	277872640	63	4121
2026-01-10 12:03:40.16	164.82	7.46	-47.9	-49.3	15.1	0.00e+00	0	23	0	283115520	62	4143
2026-01-10 12:03:41.15	164.85	7.54	-47.8	-49.2	15.2	0.00e+00	0	23	0	288358400	62	4073
2026-01-10 12:03:42.15	164.87	7.62	-47.8	-49.3	15.1	0.00e+00	0	22	0	294649856	62	4101
2026-01-10 12:03:43.14	164.89	7.70	-47.9	-49.3	15.1	0.00e+00	0	23	0	299892736	62	4120
2026-01-10 12:03:44.14	164.92	7.77	-48.0	-49.5	15.0	0.00e+00	0	23	0	306184192	62	4206
2026-01-10 12:03:45.12	164.94	7.85	-48.0	-49.4	15.0	0.00e+00	0	23	0	311427072	62	4189
2026-01-10 12:03:46.11	164.96	7.93	-48.0	-49.5	15.0	0.00e+00	0	23	0	316669952	62	4198
2026-01-10 12:03:47.10	164.99	8.01	-48.1	-49.5	15.0	0.00e+00	0	23	0	321912832	62	4225
2026-01-10 12:03:48.09	165.01	8.09	-47.4	-48.8	15.2	0.00e+00	0	23	0	328204288	61	4112
2026-01-10 12:03:49.07	165.03	8.17	-47.6	-49.0	15.1	0.00e+00	0	23	0	333447168	61	4210
2026-01-10 12:03:50.07	165.06	8.25	-47.4	-48.8	15.2	0.00e+00	0	23	0	338690048	61	4111
2026-01-10 12:03:51.06	165.08	8.33	-47.9	-49.3	14.9	0.00e+00	0	23	0	344981504	61	4373
2026-01-10 12:03:52.06	165.10	8.41	-48.0	-49.4	14.9	0.00e+00	0	23	0	350224384	61	4432
2026-01-10 12:03:53.06	165.13	8.49	-48.0	-49.5	14.8	0.00e+00	0	23	0	355467264	61	4460
2026-01-10 12:03:54.06	165.15	8.57	-47.8	-49.3	15.0	0.00e+00	0	23	0	361758720	61	4355
2026-01-10 12:03:55.05	165.18	8.65	-47.9	-49.3	14.9	0.00e+00	0	23	0	367001600	61	4375
2026-01-10 12:03:56.05	165.20	8.73	-47.6	-49.0	15.1	0.00e+00	0	23	0	372244480	61	4208
2026-01-10 12:03:57.04	165.23	8.81	-47.6	-49.0	15.1	0.00e+00	0	23	0	378535936	61	4236
2026-01-10 12:03:58.02	165.25	8.89	-47.6	-49.0	15.1	0.00e+00	0	22	0	383778816	61	4204
2026-01-10 12:03:59.02	165.28	8.98	-47.5	-48.9	15.2	0.00e+00	0	23	0	389021696	61	4187
2026-01-10 12:04:00.01	165.30	9.06	-47.5	-48.9	15.2	0.00e+00	0	23	0	395313152	61	4169
2026-01-10 12:04:01.00	165.33	9.14	-47.6	-49.0	15.1	0.00e+00	0	23	0	400556032	61	4221
2026-01-10 12:04:01.99	165.35	9.22	-47.8	-49.2	15.0	0.00e+00	0	23	0	405798912	61	4315
2026-01-10 12:04:02.99	165.38	9.31	-47.5	-48.9	15.2	0.00e+00	0	23	0	412090368	61	4162
2026-01-10 12:04:03.99	165.40	9.39	-47.5	-48.9	15.2	0.00e+00	0	23	0	417333248	61	4159
2026-01-10 12:04:04.96	165.43	9.47	-47.5	-48.9	15.2	0.00e+00	0	23	0	422576128	61	4148
2026-01-10 12:04:05.96	165.45	9.56	-47.6	-49.0	15.1	0.00e+00	0	22	0	427819008	61	4214
2026-01-10 12:04:06.96	165.48	9.64	-47.5	-48.9	15.1	0.00e+00	0	23	0	434110464	61	4184
2026-01-10 12:04:07.95	165.50	9.73	-47.4	-48.8	15.3	0.00e+00	0	23	0	439353344	61	4104
2026-01-10 12:04:08.94	165.53	9.81	-47.5	-48.9	15.2	0.00e+00	0	23	0	445644800	61	4181
2026-01-10 12:04:09.94	165.56	9.90	-47.4	-48.8	15.2	0.00e+00	0	23	0	450887680	61	4131
2026-01-10 12:04:10.94	165.58	9.98	-47.5	-48.9	15.2	0.00e+00	0	23	0	456130560	61	4174
2026-01-10 12:04:11.93	165.61	10.07	-47.5	-48.8	15.2	0.00e+00	0	23	0	462422016	61	4139
2026-01-10 12:04:12.92	165.63	10.16	-47.4	-48.7	15.3	0.00e+00	0	23	0	467664896	61	4089
2026-01-10 12:04:13.91	165.66	10.24	-47.3	-48.7	15.3	0.00e+00	0	23	0	472907776	61	4077
2026-01-10 12:04:14.90	165.69	10.33	-47.1	-48.4	15.3	0.00e+00	0	23	0	479199232	60	4193
2026-01-10 12:04:15.89	165.72	10.42	-47.2	-48.6	15.2	0.00e+00	0	23	0	484442112	60	4273
2026-01-10 12:04:16.88	165.74	10.50	-47.3	-48.6	15.2	0.00e+00	0	23	0	489684992	60	4284
2026-01-10 12:04:17.87	165.77	10.59	-47.2	-48.6	15.2	0.00e+00	0	23	0	495976448	60	4247
2026-01-10 12:04:18.86	165.80	10.68	-47.3	-48.6	15.2	0.00e+00	0	23	0	501219328	60	4289
2026-01-10 12:04:19.86	165.82	10.77	-47.2	-48.6	15.2	0.00e+00	0	23	0	506462208	60	4248
2026-01-10 12:04:20.85	165.85	10.85	-47.2	-48.5	15.2	0.00e+00	0	23	0	511705088	60	4225
2026-01-10 12:04:21.84	165.88	10.94	-47.2	-48.6	15.2	0.00e+00	0	23	0	517996544	60	4252
2026-01-10 12:04:22.83	165.91	11.03	-47.2	-48.5	15.2	0.00e+00	0	23	0	523239424	60	4238
2026-01-10 12:04:23.83	165.94	11.12	-47.2	-48.5	15.2	0.00e+00	0	23	0	529530880	60	4238
2026-01-10 12:04:24.83	165.96	11.21	-47.2	-48.6	15.2	0.00e+00	0	23	0	534773760	60	4270
2026-01-10 12:04:25.82	165.99	11.30	-47.2	-48.6	15.2	0.00e+00	0	23	0	540016640	60	4263
2026-01-10 12:04:26.82	166.02	11.39	-47.1	-48.5	15.2	0.00e+00	0	23	0	546308096	60	4232
2026-01-10 12:04:27.81	166.05	11.48	-47.1	-48.5	15.2	0.00e+00	0	23	0	551550976	60	4216
2026-01-10 12:04:28.80	166.08	11.57	-47.2	-48.6	15.2	0.00e+00	0	23	0	556793856	60	4266
2026-01-10 12:04:29.79	166.11	11.67	-47.2	-48.6	15.2	0.00e+00	0	23	0	562036736	60	4269
2026-01-10 12:04:30.79	166.14	11.76	-47.2	-48.6	15.2	0.00e+00	0	23	0	568328192	60	4270
2026-01-10 12:04:31.78	166.17	11.85	-47.3	-48.7	15.1	0.00e+00	0	23	0	573571072	60	4330
2026-01-10 12:04:32.78	166.20	11.94	-47.4	-48.8	15.1	0.00e+00	0	23	0	579862528	60	4364
2026-01-10 12:04:33.77	166.23	12.04	-47.2	-48.6	15.2	0.00e+00	0	23	0	585105408	60	4243
2026-01-10 12:04:34.76	166.26	12.13	-47.2	-48.6	15.2	0.00e+00	0	23	0	590348288	60	4272
2026-01-10 12:04:35.75	166.29	12.22	-47.2	-48.6	15.2	0.00e+00	0	23	0	595591168	60	4266
2026-01-10 12:04:36.74	166.32	12.31	-47.3	-48.7	15.2	0.00e+00	0	23	0	601882624	60	4292
2026-01-10 12:04:37.73	166.35	12.41	-47.3	-48.7	15.2	0.00e+00	0	23	0	607125504	60	4300
2026-01-10 12:04:38.74	166.38	12.51	-47.1	-48.4	15.3	0.00e+00	0	23	0	612368384	60	4187
2026-01-10 12:04:39.75	166.41	12.60	-47.3	-48.6	15.2	0.00e+00	0	23	0	618659840	60	4291
2026-01-10 12:04:40.75	166.44	12.70	-47.1	-48.5	15.2	0.00e+00	0	23	0	623902720	60	4228
2026-01-10 12:04:41.75	166.47	12.79	-47.1	-48.5	15.3	0.00e+00	0	23	0	630194176	60	4206
2026-01-10 12:04:42.73	166.50	12.89	-47.1	-48.4	15.3	0.00e+00	0	23	0	635437056	60	4189
2026-01-10 12:04:43.73	166.53	12.99	-47.0	-48.4	15.3	0.00e+00	0	23	0	640679936	60	4164
2026-01-10 12:04:44.72	166.56	13.08	-47.1	-48.4	15.3	0.00e+00	0	23	0	646971392	60	4186
2026-01-10 12:04:45.72	166.60	13.18	-47.1	-48.5	15.3	0.00e+00	0	23	0	652214272	60	4199
2026-01-10 12:04:46.71	166.63	13.28	-46.9	-48.3	15.4	0.00e+00	0	23	0	657457152	60	4112
2026-01-10 12:04:47.70	166.66	13.38	-46.9	-48.3	15.4	0.00e+00	0	23	0	662700032	60	4114
2026-01-10 12:04:48.70	166.69	13.47	-46.9	-48.3	15.4	0.00e+00	0	23	0	668991488	60	4119
2026-01-10 12:04:49.69	166.72	13.57	-47.0	-48.3	15.3	0.00e+00	0	23	0	674234368	60	4136
2026-01-10 12:04:50.69	166.76	13.67	-46.8	-48.1	15.5	0.00e+00	0	23	0	680525824	60	4025
2026-01-10 12:04:51.69	166.79	13.77	-46.8	-48.1	15.5	0.00e+00	0	23	0	685768704	60	4042
2026-01-10 12:04:52.68	166.82	13.87	-46.8	-48.2	15.4	0.00e+00	0	23	0	691011584	60	4071
2026-01-10 12:04:53.67	166.86	13.97	-47.0	-48.3	15.4	0.00e+00	0	23	0	697303040	60	4142
2026-01-10 12:04:54.66	166.89	14.07	-47.0	-48.3	15.2	0.00e+00	0	23	0	702545920	59	4380
2026-01-10 12:04:55.65	166.92	14.17	-46.9	-48.3	15.3	0.00e+00	0	23	0	707788800	59	4370
2026-01-10 12:04:56.64	166.96	14.27	-46.9	-48.3	15.3	0.00e+00	0	23	0	713031680	59	4353
2026-01-10 12:04:57.64	166.99	14.38	-46.8	-48.2	15.3	0.00e+00	0	23	0	719323136	59	4306
2026-01-10 12:04:58.64	167.03	14.48	-46.8	-48.2	15.3	0.00e+00	0	23	0	724566016	59	4323
2026-01-10 12:04:59.63	167.06	14.58	-46.8	-48.2	15.3	0.00e+00	0	23	0	730857472	59	4310
2026-01-10 12:05:00.62	167.10	14.69	-46.7	-48.1	15.4	0.00e+00	0	23	0	736100352	59	4257
2026-01-10 12:05:01.61	167.13	14.79	-46.5	-47.8	15.5	0.00e+00	0	23	0	741343232	59	4118
2026-01-10 12:05:02.60	167.17	14.89	-46.5	-47.8	15.5	0.00e+00	0	23	0	746586112	59	4142
2026-01-10 12:05:03.60	167.20	15.00	-46.6	-47.9	15.5	0.00e+00	0	23	0	752877568	59	4188
2026-01-10 12:05:04.59	167.24	15.10	-46.5	-47.9	15.5	0.00e+00	0	23	0	758120448	59	4156
2026-01-10 12:05:05.59	167.27	15.21	-46.4	-47.7	15.6	0.00e+00	0	23	0	763363328	59	4067
2026-01-10 12:05:06.59	167.31	15.32	-46.4	-47.7	15.5	0.00e+00	0	23	0	769654784	59	4087
2026-01-10 12:05:07.57	167.35	15.42	-46.2	-47.5	15.7	0.00e+00	0	23	0	774897664	59	3989
2026-01-10 12:05:08.56	167.38	15.53	-46.3	-47.6	15.6	0.00e+00	0	23	0	780140544	59	4005
2026-01-10 12:05:09.56	167.42	15.64	-46.2	-47.5	15.7	0.00e+00	0	23	0	786432000	59	3979
2026-01-10 12:05:10.55	167.46	15.74	-46.3	-47.6	15.6	0.00e+00	0	23	0	791674880	59	4035
2026-01-10 12:05:11.53	167.49	15.85	-46.2	-47.5	15.7	0.00e+00	0	23	0	796917760	59	3991
2026-01-10 12:05:12.52	167.53	15.96	-46.2	-47.5	15.7	0.00e+00	0	23	0	803209216	59	3969
2026-01-10 12:05:13.53	167.57	16.07	-46.2	-47.4	15.7	0.00e+00	0	23	0	808452096	59	3955
2026-01-10 12:05:14.52	167.61	16.18	-46.1	-47.4	15.6	0.00e+00	0	23	0	814743552	58	4150
2026-01-10 12:05:15.50	167.64	16.29	-46.0	-47.3	15.6	0.00e+00	0	23	0	819986432	58	4124
2026-01-10 12:05:16.50	167.68	16.40	-46.1	-47.3	15.6	0.00e+00	0	23	0	825229312	58	4145
2026-01-10 12:05:17.49	167.72	16.51	-46.0	-47.3	15.6	0.00e+00	0	23	0	830472192	58	4107
2026-01-10 12:05:18.49	167.76	16.62	-46.0	-47.3	15.6	0.00e+00	0	23	0	836763648	58	4103
2026-01-10 12:05:19.49	167.80	16.73	-45.9	-47.2	15.6	0.00e+00	0	23	0	842006528	58	4074
2026-01-10 12:05:20.50	167.84	16.85	-46.0	-47.2	15.6	0.00e+00	0	23	0	847249408	58	4095
2026-01-10 12:05:21.51	167.88	16.96	-45.9	-47.2	15.6	0.00e+00	0	23	0	853540864	58	4074
2026-01-10 12:05:22.51	167.92	17.08	-45.9	-47.2	15.6	0.00e+00	0	23	0	858783744	58	4079
2026-01-10 12:05:23.51	167.96	17.19	-46.0	-47.2	15.6	0.00e+00	0	23	0	865075200	58	4090
2026-01-10 12:05:24.51	168.00	17.31	-46.0	-47.2	15.6	0.00e+00	0	23	0	870318080	58	4096
2026-01-10 12:05:25.50	168.04	17.42	-45.9	-47.1	15.7	0.00e+00	0	23	0	875560960	58	4051
2026-01-10 12:05:26.50	168.09	17.54	-46.0	-47.3	15.6	0.00e+00	0	23	0	881852416	58	4108
2026-01-10 12:05:27.49	168.13	17.66	-45.9	-47.1	15.7	0.00e+00	0	23	0	887095296	58	4041
2026-01-10 12:05:28.48	168.17	17.77	-45.8	-47.1	15.7	0.00e+00	0	23	0	892338176	58	4037
2026-01-10 12:05:29.47	168.21	17.89	-45.8	-47.0	15.7	0.00e+00	0	23	0	898629632	58	4001
2026-01-10 12:05:30.47	168.25	18.01	-45.8	-47.1	15.7	0.00e+00	0	23	0	903872512	58	4035
2026-01-10 12:05:31.46	168.30	18.13	-45.9	-47.1	15.7	0.00e+00	0	23	0	909115392	58	4040
2026-01-10 12:05:32.46	168.34	18.25	-45.6	-46.9	15.6	0.00e+00	0	23	0	915406848	57	4159
2026-01-10 12:05:33.46	168.38	18.37	-45.7	-46.9	15.6	0.00e+00	0	23	0	920649728	57	4187
2026-01-10 12:05:34.45	168.43	18.49	-45.5	-46.8	15.7	0.00e+00	0	23	0	925892608	57	4113
2026-01-10 12:05:35.44	168.47	18.61	-45.6	-46.9	15.6	0.00e+00	0	23	0	932184064	57	4157
2026-01-10 12:05:36.43	168.51	18.73	-45.7	-46.9	15.6	0.00e+00	0	23	0	937426944	57	4186
2026-01-10 12:05:37.43	168.56	18.85	-45.6	-46.9	15.6	0.00e+00	0	23	0	942669824	57	4160
2026-01-10 12:05:38.43	168.60	18.98	-45.6	-46.9	15.6	0.00e+00	0	23	0	948961280	57	4168
2026-01-10 12:05:39.43	168.65	19.10	-45.6	-46.9	15.6	0.00e+00	0	23	0	954204160	57	4164
2026-01-10 12:05:40.42	168.70	19.22	-45.6	-46.8	15.6	0.00e+00	0	23	0	959447040	57	4135
2026-01-10 12:05:41.42	168.74	19.35	-45.5	-46.8	15.7	0.00e+00	0	23	0	965738496	57	4102
2026-01-10 12:05:42.41	168.79	19.47	-45.4	-46.7	15.7	0.00e+00	0	23	0	970981376	57	4076
2026-01-10 12:05:43.40	168.84	19.60	-45.6	-46.8	15.6	0.00e+00	0	23	0	976224256	57	4137
2026-01-10 12:05:44.40	168.88	19.73	-45.4	-46.6	15.7	0.00e+00	0	23	0	982515712	57	4036
2026-01-10 12:05:45.39	168.93	19.85	-45.4	-46.6	15.7	0.00e+00	0	23	0	987758592	57	4034
2026-01-10 12:05:46.39	168.98	19.98	-45.3	-46.6	15.7	0.00e+00	0	23	0	993001472	57	4017
2026-01-10 12:05:47.38	169.03	20.11	-45.4	-46.7	15.7	0.00e+00	0	23	0	999292928	57	4056
2026-01-10 12:05:48.38	169.07	20.24	-45.1	-46.3	15.7	0.00e+00	0	23	0	1004535808	56	4117
2026-01-10 12:05:49.37	169.12	20.37	-45.0	-46.2	15.7	0.00e+00	0	23	0	1009778688	56	4083
2026-01-10 12:05:50.37	169.17	20.50	-45.0	-46.2	15.7	0.00e+00	0	23	0	1016070144	56	4064
2026-01-10 12:05:51.36	169.22	20.63	-45.1	-46.3	15.7	0.00e+00	0	23	0	1021313024	56	4104
2026-01-10 12:05:52.35	169.27	20.76	-44.9	-46.1	15.8	0.00e+00	0	23	0	1026555904	56	4014
2026-01-10 12:05:53.35	169.32	20.89	-45.0	-46.1	15.7	0.00e+00	0	23	0	1032847360	56	4049
2026-01-10 12:05:54.34	169.37	21.02	-44.9	-46.1	15.8	0.00e+00	0	23	0	1038090240	56	4035
2026-01-10 12:05:55.34	169.43	21.16	-44.8	-46.0	15.8	0.00e+00	0	23	0	1043333120	56	4000
2026-01-10 12:05:56.34	169.48	21.29	-44.8	-46.0	15.8	0.00e+00	0	23	0	1049624576	56	3969
2026-01-10 12:05:57.32	169.53	21.43	-44.9	-46.1	15.8	0.00e+00	0	23	0	1054867456	56	4012
2026-01-10 12:05:58.32	169.58	21.56	-44.9	-46.0	15.8	0.00e+00	0	23	0	1060110336	56	4000
2026-01-10 12:05:59.32	169.63	21.70	-44.8	-46.0	15.8	0.00e+00	0	23	0	1066401792	56	4000
2026-01-10 12:06:00.33	169.69	21.84	-44.9	-46.1	15.8	0.00e+00	0	23	0	1071644672	56	4037
2026-01-10 12:06:01.32	169.74	21.98	-45.0	-46.2	15.7	0.00e+00	0	23	0	1077936128	56	4098
2026-01-10 12:06:02.31	169.80	22.12	-45.0	-46.2	15.7	0.00e+00	0	23	0	1083179008	56	4086
2026-01-10 12:06:03.30	169.85	22.25	-45.0	-46.2	15.7	0.00e+00	0	23	0	1088421888	56	4084
2026-01-10 12:06:04.30	169.91	22.39	-45.1	-46.3	15.7	0.00e+00	0	23	0	1093664768	56	4121
2026-01-10 12:06:05.29	169.96	22.54	-45.1	-46.3	15.7	0.00e+00	0	23	0	1099956224	56	4127
2026-01-10 12:06:06.28	170.02	22.68	-45.1	-46.3	15.7	0.00e+00	0	23	0	1105199104	56	4116
2026-01-10 12:06:07.27	170.07	22.82	-45.1	-46.3	15.7	0.00e+00	0	23	0	1110441984	56	4145
2026-01-10 12:06:08.27	170.13	22.96	-45.0	-46.2	15.7	0.00e+00	0	23	0	1116733440	56	4064
2026-01-10 12:06:09.26	170.19	23.10	-45.0	-46.2	15.7	0.00e+00	0	23	0	1121976320	56	4086
2026-01-10 12:06:10.27	170.25	23.25	-44.9	-46.1	15.8	0.00e+00	0	23	0	1128267776	56	4041
2026-01-10 12:06:11.26	170.31	23.40	-44.8	-46.0	15.8	0.00e+00	0	23	0	1133510656	56	3976
2026-01-10 12:06:12.25	170.37	23.54	-44.5	-45.7	15.8	0.00e+00	0	23	0	1138753536	55	4076
2026-01-10 12:06:13.25	170.43	23.69	-44.5	-45.7	15.7	0.00e+00	0	23	0	1143996416	55	4082
2026-01-10 12:06:14.24	170.49	23.84	-44.5	-45.7	15.7	0.00e+00	0	23	0	1150287872	55	4085
2026-01-10 12:06:15.24	170.55	23.99	-44.4	-45.6	15.8	0.00e+00	0	23	0	1155530752	55	4037
2026-01-10 12:06:16.23	170.61	24.14	-44.4	-45.6	15.8	0.00e+00	0	23	0	1160773632	55	4049
2026-01-10 12:06:17.22	170.67	24.29	-44.4	-45.6	15.8	0.00e+00	0	23	0	1167065088	55	4018
2026-01-10 12:06:18.21	170.73	24.44	-44.5	-45.7	15.8	0.00e+00	0	23	0	1172307968	55	4057
2026-01-10 12:06:19.21	170.79	24.59	-44.4	-45.6	15.8	0.00e+00	0	23	0	1177550848	55	4042
2026-01-10 12:06:20.20	170.86	24.74	-44.3	-45.5	15.8	0.00e+00	0	23	0	1183842304	55	3993
2026-01-10 12:06:21.20	170.92	24.90	-44.3	-45.5	15.8	0.00e+00	0	23	0	1189085184	55	3998
2026-01-10 12:06:22.20	170.99	25.05	-44.3	-45.5	15.9	0.00e+00	0	23	0	1194328064	55	3981
2026-01-10 12:06:23.20	171.05	25.21	-44.3	-45.4	15.9	0.00e+00	0	23	0	1200619520	55	3956
2026-01-10 12:06:24.19	171.12	25.36	-44.3	-45.5	15.9	0.00e+00	0	23	0	1205862400	55	3972
2026-01-10 12:06:25.18	171.18	25.52	-44.3	-45.5	15.8	0.00e+00	0	23	0	1212153856	55	3981
2026-01-10 12:06:26.17	171.25	25.68	-44.3	-45.5	15.9	0.00e+00	0	23	0	1217396736	55	3976
2026-01-10 12:06:27.16	171.32	25.84	-44.3	-45.4	15.9	0.00e+00	0	23	0	1222639616	55	3953
2026-01-10 12:06:28.15	171.39	25.99	-44.2	-45.4	15.9	0.00e+00	0	23	0	1227882496	55	3938
2026-01-10 12:06:29.14	171.46	26.16	-44.3	-45.4	15.9	0.00e+00	0	23	0	1234173952	55	3954
2026-01-10 12:06:30.14	171.53	26.32	-44.3	-45.5	15.9	0.00e+00	0	23	0	1239416832	55	3973
2026-01-10 12:06:31.13	171.60	26.48	-44.3	-45.5	15.9	0.00e+00	0	23	0	1244659712	55	3974
2026-01-10 12:06:32.13	171.67	26.64	-44.3	-45.5	15.8	0.00e+00	0	23	0	1250951168	55	3998
2026-01-10 12:06:33.12	171.74	26.81	-44.3	-45.5	15.9	0.00e+00	0	23	0	1256194048	55	3986
2026-01-10 12:06:34.12	171.81	26.97	-44.4	-45.6	15.8	0.00e+00	0	23	0	1262485504	55	4032
2026-01-10 12:06:35.12	171.89	27.14	-44.4	-45.6	15.8	0.00e+00	0	23	0	1267728384	55	4040
2026-01-10 12:06:36.11	171.96	27.31	-44.4	-45.6	15.8	0.00e+00	0	23	0	1272971264	55	4036
2026-01-10 12:06:37.11	172.03	27.48	-44.4	-45.6	15.8	0.00e+00	0	23	0	1278214144	55	4028
2026-01-10 12:06:38.10	172.11	27.65	-44.4	-45.6	15.8	0.00e+00	0	23	0	1284505600	55	4038
2026-01-10 12:06:39.09	172.18	27.82	-44.3	-45.5	15.8	0.00e+00	0	23	0	1289748480	55	4002
2026-01-10 12:06:40.09	172.26	27.99	-44.3	-45.5	15.9	0.00e+00	0	23	0	1294991360	55	3967
2026-01-10 12:06:41.09	172.34	28.16	-44.3	-45.5	15.9	0.00e+00	0	23	0	1301282816	55	3976
2026-01-10 12:06:42.08	172.42	28.34	-44.2	-45.4	15.9	0.00e+00	0	23	0	1306525696	55	3946
2026-01-10 12:06:43.07	172.50	28.51	-44.1	-45.3	15.8	0.00e+00	0	23	0	1312817152	54	4104
2026-01-10 12:06:44.07	172.58	28.69	-44.0	-45.1	15.8	0.00e+00	0	23	0	1318060032	54	4036
2026-01-10 12:06:45.07	172.66	28.86	-43.9	-45.1	15.8	0.00e+00	0	23	0	1323302912	54	4018
2026-01-10 12:06:46.06	172.74	29.04	-44.0	-45.1	15.8	0.00e+00	0	23	0	1328545792	54	4046
2026-01-10 12:06:47.06	172.82	29.22	-44.1	-45.2	15.8	0.00e+00	0	23	0	1334837248	54	4096
2026-01-10 12:06:48.05	172.91	29.40	-44.2	-45.4	15.7	0.00e+00	0	23	0	1340080128	54	4149
2026-01-10 12:06:49.05	172.99	29.58	-44.2	-45.4	15.7	0.00e+00	0	23	0	1345323008	54	4169
2026-01-10 12:06:50.06	173.08	29.77	-44.2	-45.4	15.7	0.00e+00	0	23	0	1351614464	54	4162
2026-01-10 12:06:51.05	173.17	29.95	-44.1	-45.3	15.8	0.00e+00	0	23	0	1356857344	54	4119
2026-01-10 12:06:52.05	173.25	30.14	-44.1	-45.3	15.7	0.00e+00	0	23	0	1363148800	54	4138
2026-01-10 12:06:53.05	173.34	30.32	-44.2	-45.3	15.7	0.00e+00	0	23	0	1368391680	54	4137
2026-01-10 12:06:54.04	173.43	30.51	-44.0	-45.2	15.8	0.00e+00	0	23	0	1373634560	54	4064
2026-01-10 12:06:55.05	173.52	30.70	-44.1	-45.3	15.8	0.00e+00	0	23	0	1379926016	54	4101
2026-01-10 12:06:56.04	173.61	30.89	-44.0	-45.2	15.8	0.00e+00	0	23	0	1385168896	54	4089
2026-01-10 12:06:57.05	173.71	31.08	-44.1	-45.3	15.8	0.00e+00	0	23	0	1390411776	54	4108
2026-01-10 12:06:58.05	173.80	31.27	-44.1	-45.3	15.7	0.00e+00	0	23	0	1396703232	54	4145
2026-01-10 12:06:59.05	173.90	31.47	-44.1	-45.3	15.7	0.00e+00	0	23	0	1401946112	54	4145
2026-01-10 12:07:00.05	173.99	31.66	-44.2	-45.4	15.7	0.00e+00	0	23	0	1407188992	54	4176
2026-01-10 12:07:01.04	174.09	31.86	-44.1	-45.3	15.7	0.00e+00	0	23	0	1413480448	54	4137
2026-01-10 12:07:02.04	174.19	32.05	-44.1	-45.3	15.7	0.00e+00	0	23	0	1418723328	54	4136
2026-01-10 12:07:03.03	174.28	32.25	-44.0	-45.1	15.8	0.00e+00	0	23	0	1425014784	54	4047
2026-01-10 12:07:04.03	174.39	32.45	-44.0	-45.2	15.8	0.00e+00	0	23	0	1430257664	54	4075
2026-01-10 12:07:05.03	174.49	32.65	-44.0	-45.2	15.8	0.00e+00	0	23	0	1435500544	54	4080
2026-01-10 12:07:06.03	174.59	32.85	-44.0	-45.2	15.8	0.00e+00	0	23	0	1441792000	54	4083
2026-01-10 12:07:07.03	174.69	33.05	-44.0	-45.2	15.8	0.00e+00	0	23	0	1447034880	54	4078
2026-01-10 12:07:08.03	174.80	33.26	-44.0	-45.2	15.8	0.00e+00	0	23	0	1452277760	54	4073
2026-01-10 12:07:09.03	174.91	33.47	-44.1	-45.3	15.8	0.00e+00	0	23	0	1458569216	54	4106
2026-01-10 12:07:10.04	175.02	33.68	-43.8	-44.9	15.9	0.00e+00	0	23	0	1463812096	54	3956
2026-01-10 12:07:11.04	175.13	33.88	-43.6	-44.8	15.8	0.00e+00	0	23	0	1469054976	53	4116
2026-01-10 12:07:12.04	175.24	34.09	-43.6	-44.8	15.8	0.00e+00	0	23	0	1475346432	53	4123
2026-01-10 12:07:13.03	175.35	34.30	-43.7	-44.9	15.8	0.00e+00	0	23	0	1480589312	53	4153
2026-01-10 12:07:14.04	175.46	34.52	-43.8	-44.9	15.8	0.00e+00	0	23	0	1486880768	53	4150
2026-01-10 12:07:15.05	175.58	34.73	-44.0	-45.0	15.8	0.00e+00	0	23	0	1492123648	53	4238
2026-01-10 12:07:16.04	175.69	34.95	-44.0	-45.0	15.8	0.00e+00	0	23	0	1497366528	53	4228
2026-01-10 12:07:17.04	175.81	35.16	-44.0	-45.0	15.8	0.00e+00	0	23	0	1503657984	53	4235
2026-01-10 12:07:18.03	175.93	35.38	-43.9	-45.0	15.8	0.00e+00	0	23	0	1508900864	53	4197
2026-01-10 12:07:19.03	176.05	35.60	-43.8	-44.8	15.8	0.00e+00	0	23	0	1514143744	53	4118
2026-01-10 12:07:20.03	176.17	35.82	-43.7	-44.7	15.8	0.00e+00	0	23	0	1520435200	53	4083
2026-01-10 12:07:21.03	176.30	36.04	-43.7	-44.7	15.8	0.00e+00	0	23	0	1525678080	53	4095
2026-01-10 12:07:22.04	176.43	36.27	-44.0	-45.0	15.8	0.00e+00	0	23	0	1530920960	53	4218
2026-01-10 12:07:23.04	176.55	36.49	-44.0	-45.1	15.7	0.00e+00	0	23	0	1537212416	53	4269
2026-01-10 12:07:24.05	176.68	36.72	-44.0	-45.1	15.7	0.00e+00	0	23	0	1542455296	53	4258
2026-01-10 12:07:25.06	176.82	36.95	-44.0	-45.1	15.7	0.00e+00	0	23	0	1548746752	53	4263
2026-01-10 12:07:26.05	176.95	37.18	-43.8	-44.9	15.8	0.00e+00	0	23	0	1553989632	53	4161
2026-01-10 12:07:27.06	177.08	37.41	-43.7	-44.7	15.8	0.00e+00	0	23	0	1559232512	53	4088
2026-01-10 12:07:28.06	177.22	37.64	-43.7	-44.8	15.8	0.00e+00	0	23	0	1565523968	53	4113
2026-01-10 12:07:29.06	177.36	37.88	-43.8	-44.8	15.8	0.00e+00	0	23	0	1570766848	53	4130
2026-01-10 12:07:30.06	177.50	38.11	-43.7	-44.7	15.8	0.00e+00	0	23	0	1576009728	53	4087
2026-01-10 12:07:31.06	177.64	38.35	-43.6	-44.7	15.8	0.00e+00	0	23	0	1582301184	53	4052
2026-01-10 12:07:32.06	177.79	38.59	-43.5	-44.5	15.9	0.00e+00	0	23	0	1587544064	53	4004
2026-01-10 12:07:33.06	177.93	38.82	-43.5	-44.6	15.9	0.00e+00	0	23	0	1592786944	53	4010
2026-01-10 12:07:34.05	178.08	39.06	-43.6	-44.6	15.9	0.00e+00	0	23	0	1599078400	53	4045
2026-01-10 12:07:35.06	178.23	39.31	-43.7	-44.8	15.8	0.00e+00	0	23	0	1604321280	53	4103
2026-01-10 12:07:36.06	178.39	39.55	-43.8	-44.8	15.8	0.00e+00	0	23	0	1610612736	53	4120
2026-01-10 12:07:37.07	178.54	39.80	-43.8	-44.9	15.8	0.00e+00	0	23	0	1615855616	53	4156
2026-01-10 12:07:38.07	178.70	40.05	-44.0	-45.1	15.8	0.00e+00	0	23	0	1622147072	53	4258
2026-01-10 12:07:39.06	178.86	40.29	-44.1	-45.1	15.8	0.00e+00	0	23	0	1627389952	53	4274
2026-01-10 12:07:40.06	179.02	40.54	-43.9	-45.0	15.8	0.00e+00	0	23	0	1632632832	53	4203
2026-01-10 12:07:41.06	179.19	40.79	-43.9	-44.9	15.8	0.00e+00	0	23	0	1637875712	53	4168
2026-01-10 12:07:42.06	179.35	41.05	-43.9	-44.9	15.8	0.00e+00	0	23	0	1644167168	53	4184
2026-01-10 12:07:43.07	179.52	41.30	-44.0	-45.0	15.8	0.00e+00	0	23	0	1649410048	53	4239
2026-01-10 12:07:44.07	179.70	41.56	-44.2	-45.2	15.7	0.00e+00	0	23	0	1655701504	53	4340
2026-01-10 12:07:45.07	179.87	41.82	-44.2	-45.3	15.7	0.00e+00	0	23	0	1660944384	53	4358
2026-01-10 12:07:46.07	180.05	42.08	-44.3	-45.3	15.7	0.00e+00	0	23	0	1666187264	53	4377
2026-01-10 12:07:47.07	180.23	42.34	-44.3	-45.4	15.7	0.00e+00	0	23	0	1672478720	53	4411
2026-01-10 12:07:48.07	180.42	42.60	-44.0	-45.1	15.8	0.00e+00	0	23	0	1677721600	53	4257
2026-01-10 12:07:49.06	180.60	42.86	-44.2	-45.3	15.7	0.00e+00	0	23	0	1682964480	53	4354
2026-01-10 12:07:50.06	180.79	43.12	-44.4	-45.5	15.7	0.00e+00	0	23	0	1689255936	54	4211
2026-01-10 12:07:51.06	180.98	43.39	-44.4	-45.4	15.7	0.00e+00	0	23	0	1694498816	54	4187
2026-01-10 12:07:52.07	181.18	43.66	-44.2	-45.3	15.8	0.00e+00	0	23	0	1700790272	54	4103
2026-01-10 12:07:53.07	181.38	43.93	-44.1	-45.2	15.8	0.00e+00	0	23	0	1706033152	54	4068
2026-01-10 12:07:54.07	181.58	44.20	-44.2	-45.3	15.8	0.00e+00	0	23	0	1711276032	54	4104
2026-01-10 12:07:55.08	181.79	44.48	-44.5	-45.5	15.7	0.00e+00	0	23	0	1717567488	54	4232
2026-01-10 12:07:56.09	182.00	44.76	-44.7	-45.8	15.7	0.00e+00	0	23	0	1722810368	54	4367
2026-01-10 12:07:57.08	182.21	45.03	-44.5	-45.6	15.7	0.00e+00	0	23	0	1728053248	54	4262
2026-01-10 12:07:58.09	182.43	45.31	-44.5	-45.6	15.7	0.00e+00	0	23	0	1734344704	54	4258
2026-01-10 12:07:59.09	182.65	45.59	-44.5	-45.6	15.7	0.00e+00	0	23	0	1739587584	54	4251
2026-01-10 12:08:00.09	182.88	45.87	-44.2	-45.3	15.8	0.00e+00	0	23	0	1745879040	54	4101
2026-01-10 12:08:01.09	183.11	46.15	-44.0	-45.1	15.8	0.00e+00	0	23	0	1751121920	54	4016
2026-01-10 12:08:02.09	183.34	46.43	-44.0	-45.0	15.9	0.00e+00	0	23	0	1756364800	54	3976
2026-01-10 12:08:03.09	183.57	46.72	-44.1	-45.1	15.8	0.00e+00	0	23	0	1762656256	54	4048
2026-01-10 12:08:04.09	183.82	47.00	-44.2	-45.3	15.8	0.00e+00	0	23	0	1767899136	54	4110
2026-01-10 12:08:05.09	184.06	47.29	-44.3	-45.3	15.8	0.00e+00	0	23	0	1773142016	54	4139
2026-01-10 12:08:06.10	184.31	47.58	-44.4	-45.4	15.7	0.00e+00	0	23	0	1779433472	54	4190
2026-01-10 12:08:07.10	184.57	47.87	-44.4	-45.4	15.7	0.00e+00	0	23	0	1784676352	54	4191
2026-01-10 12:08:08.11	184.83	48.17	-44.2	-45.3	15.8	0.00e+00	0	23	0	1790967808	54	4122
2026-01-10 12:08:09.11	185.09	48.46	-44.0	-45.1	15.8	0.00e+00	0	23	0	1796210688	54	4012
2026-01-10 12:08:10.11	185.36	48.75	-44.1	-45.1	15.8	0.00e+00	0	23	0	1801453568	54	4038
2026-01-10 12:08:11.11	185.64	49.05	-44.5	-45.6	15.7	0.00e+00	0	23	0	1807745024	54	4262
2026-01-10 12:08:12.11	185.91	49.35	-44.8	-45.9	15.6	0.00e+00	0	23	0	1812987904	54	4428
2026-01-10 12:08:13.12	186.20	49.65	-44.9	-46.0	15.6	0.00e+00	0	23	0	1819279360	54	4474
2026-01-10 12:08:14.13	186.50	49.95	-44.8	-45.9	15.7	0.00e+00	0	23	0	1824522240	55	4156
2026-01-10 12:08:15.13	186.79	50.25	-44.5	-45.6	15.8	0.00e+00	0	23	0	1829765120	55	4010
2026-01-10 12:08:16.13	187.09	50.55	-44.5	-45.6	15.8	0.00e+00	0	23	0	1836056576	55	4008
2026-01-10 12:08:17.13	187.40	50.85	-44.6	-45.6	15.8	0.00e+00	0	23	0	1841299456	55	4024
2026-01-10 12:08:18.13	187.72	51.16	-44.6	-45.6	15.8	0.00e+00	0	23	0	1846542336	55	4049
2026-01-10 12:08:19.13	188.04	51.46	-44.7	-45.7	15.8	0.00e+00	0	23	0	1852833792	55	4082
2026-01-10 12:08:20.12	188.36	51.77	-44.8	-45.9	15.7	0.00e+00	0	23	0	1858076672	55	4171
2026-01-10 12:08:21.12	188.69	52.07	-45.3	-46.4	15.6	0.00e+00	0	23	0	1864368128	55	4439
2026-01-10 12:08:22.11	189.03	52.38	-45.4	-46.5	15.6	0.00e+00	0	23	0	1869611008	55	4467
2026-01-10 12:08:23.11	189.38	52.69	-45.3	-46.4	15.6	0.00e+00	0	23	0	1874853888	55	4420
2026-01-10 12:08:24.10	189.73	52.99	-45.6	-46.8	15.6	0.00e+00	0	23	0	1880096768	56	4342
2026-01-10 12:08:25.10	190.09	53.30	-45.6	-46.7	15.6	0.00e+00	0	23	0	1886388224	56	4304
2026-01-10 12:08:26.11	190.47	53.62	-45.2	-46.3	15.7	0.00e+00	0	23	0	1891631104	56	4113
2026-01-10 12:08:27.12	190.85	53.93	-45.2	-46.2	15.7	0.00e+00	0	23	0	1897922560	56	4091
2026-01-10 12:08:28.12	191.23	54.25	-45.4	-46.5	15.7	0.00e+00	0	23	0	1903165440	56	4207
2026-01-10 12:08:29.12	191.63	54.56	-45.7	-46.8	15.6	0.00e+00	0	23	0	1908408320	56	4363
2026-01-10 12:08:30.12	192.03	54.87	-45.9	-47.0	15.5	0.00e+00	0	23	0	1914699776	56	4484
2026-01-10 12:08:31.12	192.44	55.19	-45.8	-46.9	15.6	0.00e+00	0	23	0	1919942656	56	4400
2026-01-10 12:08:32.12	192.86	55.50	-45.3	-46.3	15.7	0.00e+00	0	23	0	1926234112	56	4139
2026-01-10 12:08:33.12	193.30	55.82	-45.3	-46.4	15.7	0.00e+00	0	23	0	1931476992	56	4160
2026-01-10 12:08:34.12	193.74	56.13	-45.2	-46.3	15.7	0.00e+00	0	23	0	1936719872	56	4110
2026-01-10 12:08:35.12	194.19	56.45	-45.1	-46.2	15.7	0.00e+00	0	23	0	1943011328	56	4061
2026-01-10 12:08:36.12	194.65	56.76	-45.2	-46.3	15.7	0.00e+00	0	23	0	1948254208	56	4110
2026-01-10 12:08:37.12	195.12	57.08	-45.0	-46.1	15.8	0.00e+00	0	23	0	1953497088	56	4032
2026-01-10 12:08:38.12	195.60	57.39	-45.0	-46.1	15.8	0.00e+00	0	23	0	1959788544	56	4019
2026-01-10 12:08:39.13	196.10	57.71	-45.3	-46.4	15.7	0.00e+00	0	23	0	1965031424	56	4171
2026-01-10 12:08:40.12	196.60	58.02	-45.1	-46.2	15.7	0.00e+00	0	23	0	1970274304	56	4084
2026-01-10 12:08:41.13	197.12	58.34	-45.1	-46.1	15.8	0.00e+00	0	23	0	1976565760	56	4050
2026-01-10 12:08:42.14	197.66	58.66	-45.0	-46.1	15.8	0.00e+00	0	23	0	1981808640	56	4035
2026-01-10 12:08:43.15	198.20	58.97	-44.9	-45.9	15.8	0.00e+00	0	23	0	1988100096	56	3954
2026-01-10 12:08:44.14	198.75	59.28	-44.8	-45.9	15.9	0.00e+00	0	23	0	1993342976	56	3920
2026-01-10 12:08:45.14	199.32	59.60	-44.7	-45.8	15.9	0.00e+00	0	23	0	1998585856	56	3869
2026-01-10 12:08:46.14	199.90	59.91	-44.5	-45.5	15.8	0.00e+00	0	23	0	2004877312	55	3996
2026-01-10 12:08:47.13	200.49	60.21	-44.4	-45.4	15.9	0.00e+00	0	23	0	2010120192	55	3939
2026-01-10 12:08:48.14	201.11	60.52	-44.2	-45.2	15.8	0.00e+00	0	23	0	2015363072	54	4077
2026-01-10 12:08:49.14	201.73	60.83	-44.2	-45.2	15.8	0.00e+00	0	23	0	2021654528	54	4072
2026-01-10 12:08:50.14	202.37	61.13	-44.3	-45.3	15.8	0.00e+00	0	23	0	2026897408	54	4134
2026-01-10 12:08:51.14	203.03	61.44	-44.1	-45.1	15.8	0.00e+00	0	23	0	2032140288	54	4041
2026-01-10 12:08:52.14	203.70	61.74	-43.7	-44.7	16.0	0.00e+00	0	23	0	2038431744	54	3843
2026-01-10 12:08:53.15	204.40	62.04	-43.7	-44.7	15.8	0.00e+00	0	23	0	2043674624	53	4082
2026-01-10 12:08:54.15	205.10	62.34	-44.0	-45.0	15.8	0.00e+00	0	23	0	2049966080	53	4224
2026-01-10 12:08:55.14	205.82	62.63	-43.9	-45.0	15.8	0.00e+00	0	23	0	2055208960	53	4194
2026-01-10 12:08:56.14	206.56	62.92	-43.7	-44.8	15.8	0.00e+00	0	23	0	2060451840	53	4102
2026-01-10 12:08:57.14	207.31	63.21	-43.8	-44.8	15.8	0.00e+00	0	23	0	2066743296	53	4139
2026-01-10 12:08:58.14	208.09	63.50	-43.9	-44.9	15.8	0.00e+00	0	23	0	2071986176	53	4191
2026-01-10 12:08:59.15	208.90	63.78	-43.9	-45.0	15.8	0.00e+00	0	23	0	2077229056	53	4198
2026-01-10 12:09:00.15	209.71	64.06	-43.8	-44.9	15.8	0.00e+00	0	23	0	2083520512	53	4154
2026-01-10 12:09:01.16	210.55	64.34	-43.7	-44.8	15.8	0.00e+00	0	23	0	2088763392	53	4107
2026-01-10 12:09:02.16	211.41	64.61	-43.9	-44.9	15.8	0.00e+00	0	23	0	2094006272	53	4173
2026-01-10 12:09:03.17	212.29	64.88	-44.0	-45.1	15.8	0.00e+00	0	23	0	2100297728	53	4252
2026-01-10 12:09:04.17	213.19	65.15	-43.9	-45.0	15.8	0.00e+00	0	23	0	2105540608	53	4205
2026-01-10 12:09:05.17	214.11	65.41	-43.8	-44.9	15.8	0.00e+00	0	23	0	2111832064	53	4154
2026-01-10 12:09:06.17	215.05	65.66	-43.7	-44.7	15.8	0.00e+00	0	23	0	2117074944	53	4077
2026-01-10 12:09:07.17	216.01	65.91	-43.7	-44.7	15.8	0.00e+00	0	23	0	2123366400	53	4077
2026-01-10 12:09:08.18	217.00	66.15	-43.6	-44.6	15.9	0.00e+00	0	23	0	2128609280	53	4050
2026-01-10 12:09:09.18	218.00	66.39	-43.7	-44.7	15.8	0.00e+00	0	23	0	2133852160	53	4071
2026-01-10 12:09:10.18	219.03	66.62	-43.9	-44.9	15.8	0.00e+00	0	23	0	2140143616	53	4192
2026-01-10 12:09:11.18	220.08	66.85	-43.9	-45.0	15.8	0.00e+00	0	23	0	2145386496	53	4216
2026-01-10 12:09:12.18	221.15	67.06	-43.8	-44.9	15.8	0.00e+00	0	23	0	2150629376	53	4169
2026-01-10 12:09:13.18	222.24	67.28	-43.7	-44.7	15.8	0.00e+00	0	23	0	2156920832	53	4065
2026-01-10 12:09:14.18	223.35	67.48	-43.5	-44.5	15.9	0.00e+00	0	23	0	2162163712	53	3966
2026-01-10 12:09:15.18	224.49	67.68	-43.8	-44.8	15.9	0.00e+00	0	23	0	2167406592	53	4136
2026-01-10 12:09:16.18	225.65	67.87	-43.8	-44.9	15.8	0.00e+00	0	23	0	2173698048	53	4162
2026-01-10 12:09:17.18	226.82	68.05	-43.6	-44.6	15.8	0.00e+00	0	23	0	2178940928	53	4051
2026-01-10 12:09:18.19	228.03	68.22	-43.7	-44.7	15.9	0.00e+00	0	23	0	2185232384	53	4072
2026-01-10 12:09:19.19	229.25	68.39	-44.1	-45.1	15.8	0.00e+00	0	23	0	2190475264	53	4287
2026-01-10 12:09:20.19	230.49	68.54	-43.6	-44.7	15.9	0.00e+00	0	23	0	2195718144	53	4062
2026-01-10 12:09:21.19	231.75	68.69	-43.4	-44.5	15.9	0.00e+00	0	23	0	2202009600	53	3959
2026-01-10 12:09:22.19	233.03	68.82	-43.6	-44.7	15.9	0.00e+00	0	23	0	2207252480	53	4057
2026-01-10 12:09:23.19	234.32	68.95	-43.8	-44.8	15.8	0.00e+00	0	23	0	2212495360	53	4123
2026-01-10 12:09:24.19	235.63	69.07	-43.5	-44.6	15.9	0.00e+00	0	23	0	2218786816	53	4012
2026-01-10 12:09:25.20	236.97	69.18	-43.3	-44.3	16.0	0.00e+00	0	23	0	2224029696	53	3897
2026-01-10 12:09:26.19	238.29	69.27	-43.3	-44.3	16.0	0.00e+00	0	23	0	2229272576	53	3906
2026-01-10 12:09:27.20	239.66	69.36	-43.1	-44.1	15.9	0.00e+00	0	23	0	2235564032	52	4024
2026-01-10 12:09:28.20	241.02	69.44	-43.1	-44.1	15.9	0.00e+00	0	23	0	2240806912	52	4011
2026-01-10 12:09:29.20	242.39	69.50	-43.0	-44.1	15.9	0.00e+00	0	23	0	2247098368	52	4006
2026-01-10 12:09:30.20	243.78	69.56	-43.2	-44.2	15.9	0.00e+00	0	23	0	2252341248	52	4095
2026-01-10 12:09:31.20	245.16	69.60	-43.6	-44.6	15.8	0.00e+00	0	23	0	2257584128	52	4285
2026-01-10 12:09:32.21	246.57	69.63	-43.4	-44.5	15.8	0.00e+00	0	23	0	2263875584	52	4199
2026-01-10 12:09:33.21	247.97	69.65	-43.1	-44.1	15.9	0.00e+00	0	23	0	2269118464	52	4012
2026-01-10 12:09:34.21	249.37	69.66	-43.2	-44.2	15.9	0.00e+00	0	23	0	2274361344	52	4083
2026-01-10 12:09:35.22	250.79	69.66	-43.3	-44.3	15.9	0.00e+00	0	23	0	2280652800	52	4123
2026-01-10 12:09:36.22	252.18	69.65	-43.3	-44.3	15.9	0.00e+00	0	23	0	2285895680	52	4126
2026-01-10 12:09:37.23	253.60	69.62	-43.3	-44.4	15.9	0.00e+00	0	23	0	2292187136	52	4148
2026-01-10 12:09:38.22	254.97	69.59	-43.5	-44.5	15.8	0.00e+00	0	23	0	2297430016	52	4220
2026-01-10 12:09:39.22	256.36	69.54	-43.4	-44.5	15.8	0.00e+00	0	24	0	2302672896	52	4203
2026-01-10 12:09:40.22	257.74	69.48	-43.6	-44.6	15.8	0.00e+00	0	23	0	2308964352	52	4287
2026-01-10 12:09:41.22	259.11	69.41	-43.5	-44.5	15.8	0.00e+00	0	23	0	2314207232	52	4216
2026-01-10 12:09:42.22	260.47	69.33	-43.3	-44.3	15.9	0.00e+00	0	23	0	2320498688	52	4115
2026-01-10 12:09:43.22	261.82	69.25	-43.5	-44.6	15.8	0.00e+00	0	23	0	2325741568	52	4259
2026-01-10 12:09:44.22	263.15	69.14	-43.6	-44.6	15.8	0.00e+00	0	23	0	2330984448	52	4276
2026-01-10 12:09:45.21	264.46	69.04	-43.5	-44.5	15.9	0.00e+00	0	23	0	2336227328	52	4210
2026-01-10 12:09:46.21	265.76	68.92	-43.5	-44.5	15.8	0.00e+00	0	23	0	2342518784	52	4216
2026-01-10 12:09:47.21	267.05	68.79	-43.3	-44.3	15.9	0.00e+00	0	23	0	2347761664	52	4123
2026-01-10 12:09:48.22	268.33	68.64	-43.3	-44.3	15.9	0.00e+00	0	23	0	2354053120	52	4118
2026-01-10 12:09:49.22	269.58	68.50	-43.6	-44.6	15.8	0.00e+00	0	23	0	2359296000	52	4276
2026-01-10 12:09:50.23	270.83	68.34	-43.8	-44.9	15.8	0.00e+00	0	23	0	2364538880	52	4411
2026-01-10 12:09:51.23	272.04	68.17	-43.7	-44.8	15.8	0.00e+00	0	23	0	2370830336	52	4341
2026-01-10 12:09:52.22	273.22	68.00	-43.5	-44.6	15.8	0.00e+00	0	23	0	2376073216	52	4252
2026-01-10 12:09:53.23	274.40	67.81	-43.5	-44.6	15.8	0.00e+00	0	23	0	2382364672	52	4248
2026-01-10 12:09:54.23	275.55	67.62	-43.6	-44.6	15.8	0.00e+00	0	23	0	2387607552	52	4266
2026-01-10 12:09:55.23	276.68	67.42	-43.5	-44.5	15.8	0.00e+00	0	23	0	2392850432	52	4228
2026-01-10 12:09:56.23	277.79	67.22	-43.6	-44.6	15.8	0.00e+00	0	23	0	2399141888	52	4288
2026-01-10 12:09:57.23	278.88	67.00	-43.6	-44.7	15.8	0.00e+00	0	23	0	2404384768	52	4301
2026-01-10 12:09:58.23	279.94	66.78	-43.6	-44.6	15.8	0.00e+00	0	23	0	2409627648	52	4260
2026-01-10 12:09:59.23	280.98	66.56	-43.6	-44.7	15.8	0.00e+00	0	23	0	2415919104	52	4293
2026-01-10 12:10:00.24	282.01	66.32	-43.7	-44.8	15.8	0.00e+00	0	23	0	2421161984	52	4343
2026-01-10 12:10:01.23	282.99	66.08	-43.7	-44.8	15.8	0.00e+00	0	23	0	2426404864	52	4355
2026-01-10 12:10:02.23	283.97	65.84	-43.9	-45.0	15.8	0.00e+00	0	23	0	2432696320	53	4202
2026-01-10 12:10:03.24	284.93	65.59	-44.0	-45.0	15.8	0.00e+00	0	23	0	2437939200	53	4239
2026-01-10 12:10:04.23	285.85	65.34	-44.0	-45.0	15.8	0.00e+00	0	23	0	2444230656	53	4238
2026-01-10 12:10:05.23	286.77	65.08	-43.9	-44.9	15.8	0.00e+00	0	23	0	2449473536	53	4168
2026-01-10 12:10:06.23	287.65	64.81	-43.9	-45.0	15.8	0.00e+00	0	23	0	2454716416	53	4208
2026-01-10 12:10:07.24	288.53	64.54	-44.1	-45.1	15.8	0.00e+00	0	23	0	2461007872	53	4278
2026-01-10 12:10:08.23	289.37	64.27	-43.9	-45.0	15.8	0.00e+00	0	23	0	2466250752	53	4208
2026-01-10 12:10:09.23	290.20	64.00	-43.8	-44.9	15.8	0.00e+00	0	23	0	2471493632	53	4149
2026-01-10 12:10:10.24	291.02	63.71	-44.0	-45.1	15.8	0.00e+00	0	23	0	2477785088	53	4246
2026-01-10 12:10:11.23	291.80	63.43	-43.9	-45.0	15.8	0.00e+00	0	23	0	2483027968	53	4196
2026-01-10 12:10:12.23	292.57	63.15	-43.8	-44.9	15.8	0.00e+00	0	23	0	2489319424	53	4155
2026-01-10 12:10:13.23	293.33	62.86	-44.0	-45.0	15.8	0.00e+00	0	23	0	2494562304	53	4229
2026-01-10 12:10:14.23	294.06	62.56	-44.1	-45.1	15.8	0.00e+00	0	23	0	2499805184	53	4278
2026-01-10 12:10:15.23	294.78	62.27	-44.2	-45.2	15.8	0.00e+00	0	23	0	2506096640	53	4322
2026-01-10 12:10:16.23	295.48	61.97	-44.2	-45.2	15.8	0.00e+00	0	23	0	2511339520	53	4336
2026-01-10 12:10:17.24	296.17	61.67	-44.3	-45.4	15.7	0.00e+00	0	23	0	2516582400	53	4418
2026-01-10 12:10:18.23	296.83	61.37	-44.3	-45.4	15.7	0.00e+00	0	23	0	2522873856	53	4393
2026-01-10 12:10:19.23	297.48	61.07	-44.1	-45.1	15.8	0.00e+00	0	23	0	2528116736	53	4267
2026-01-10 12:10:20.24	298.12	60.76	-44.1	-45.2	15.8	0.00e+00	0	23	0	2533359616	53	4304
2026-01-10 12:10:21.24	298.74	60.45	-44.4	-45.4	15.7	0.00e+00	0	23	0	2539651072	53	4438
2026-01-10 12:10:22.24	299.35	60.15	-44.5	-45.6	15.7	0.00e+00	0	23	0	2544893952	54	4244
2026-01-10 12:10:23.25	299.95	59.83	-44.3	-45.4	15.8	0.00e+00	0	23	0	2551185408	54	4175
2026-01-10 12:10:24.24	300.52	59.53	-44.5	-45.6	15.7	0.00e+00	0	23	0	2556428288	54	4248
2026-01-10 12:10:25.25	301.09	59.21	-44.8	-45.8	15.7	0.00e+00	0	23	0	2561671168	54	4390
2026-01-10 12:10:26.26	301.64	58.90	-44.8	-45.9	15.7	0.00e+00	0	23	0	2567962624	54	4395
2026-01-10 12:10:27.26	302.18	58.59	-44.8	-45.9	15.7	0.00e+00	0	23	0	2573205504	54	4414
2026-01-10 12:10:28.27	302.71	58.27	-44.9	-46.0	15.7	0.00e+00	0	23	0	2579496960	54	4447
2026-01-10 12:10:29.27	303.23	57.96	-45.1	-46.1	15.7	0.00e+00	0	23	0	2584739840	55	4291
2026-01-10 12:10:30.27	303.73	57.64	-45.3	-46.4	15.6	0.00e+00	0	23	0	2589982720	55	4419
2026-01-10 12:10:31.27	304.22	57.33	-45.6	-46.7	15.6	0.00e+00	0	23	0	2596274176	56	4329
2026-01-10 12:10:32.27	304.70	57.01	-45.5	-46.6	15.6	0.00e+00	0	23	0	2601517056	56	4271
2026-01-10 12:10:33.26	305.16	56.70	-45.6	-46.7	15.6	0.00e+00	0	23	0	2606759936	56	4319
2026-01-10 12:10:34.27	305.62	56.38	-45.6	-46.6	15.6	0.00e+00	0	23	0	2613051392	56	4288
2026-01-10 12:10:35.27	306.07	56.07	-45.4	-46.5	15.7	0.00e+00	0	23	0	2618294272	56	4211
2026-01-10 12:10:36.27	306.51	55.75	-45.5	-46.5	15.7	0.00e+00	0	23	0	2624585728	56	4241
2026-01-10 12:10:37.28	306.94	55.44	-45.4	-46.5	15.7	0.00e+00	0	23	0	2629828608	56	4222
2026-01-10 12:10:38.29	307.36	55.12	-45.5	-46.5	15.7	0.00e+00	0	23	0	2635071488	56	4237
2026-01-10 12:10:39.30	307.77	54.80	-45.6	-46.7	15.6	0.00e+00	0	23	0	2641362944	56	4296
2026-01-10 12:10:40.30	308.17	54.49	-45.5	-46.6	15.7	0.00e+00	0	23	0	2646605824	56	4257
2026-01-10 12:10:41.30	308.57	54.18	-45.6	-46.7	15.6	0.00e+00	0	23	0	2651848704	56	4301
2026-01-10 12:10:42.30	308.95	53.87	-45.5	-46.6	15.7	0.00e+00	0	23	0	2658140160	56	4282
2026-01-10 12:10:43.30	309.33	53.56	-45.5	-46.6	15.7	0.00e+00	0	23	0	2663383040	56	4262
2026-01-10 12:10:44.30	309.69	53.25	-45.5	-46.6	15.6	0.00e+00	0	23	0	2668625920	56	4275
2026-01-10 12:10:45.31	310.06	52.93	-45.5	-46.6	15.7	0.00e+00	0	23	0	2674917376	56	4280
2026-01-10 12:10:46.31	310.41	52.62	-45.6	-46.6	15.7	0.00e+00	0	23	0	2680160256	56	4285
2026-01-10 12:10:47.31	310.75	52.32	-45.5	-46.6	15.7	0.00e+00	0	23	0	2686451712	56	4261
2026-01-10 12:10:48.31	311.09	52.01	-45.6	-46.7	15.7	0.00e+00	0	23	0	2691694592	56	4308
2026-01-10 12:10:49.31	311.42	51.70	-45.4	-46.4	15.7	0.00e+00	0	23	0	2696937472	56	4184
2026-01-10 12:10:50.31	311.75	51.40	-45.2	-46.3	15.8	0.00e+00	0	23	0	2703228928	56	4118
2026-01-10 12:10:51.31	312.07	51.09	-45.0	-46.1	15.8	0.00e+00	0	23	0	2708471808	56	4028
2026-01-10 12:10:52.32	312.38	50.79	-45.0	-46.0	15.8	0.00e+00	0	23	0	2714763264	56	3984
2026-01-10 12:10:53.32	312.69	50.49	-45.0	-46.0	15.8	0.00e+00	0	23	0	2720006144	56	3995
2026-01-10 12:10:54.33	312.99	50.18	-44.8	-45.9	15.9	0.00e+00	0	23	0	2725249024	56	3928
2026-01-10 12:10:55.32	313.28	49.89	-44.8	-45.9	15.9	0.00e+00	0	23	0	2731540480	56	3921
2026-01-10 12:10:56.33	313.57	49.59	-44.9	-45.9	15.9	0.00e+00	0	23	0	2736783360	56	3942
2026-01-10 12:10:57.33	313.86	49.29	-44.4	-45.5	15.8	0.00e+00	0	23	0	2742026240	55	3969
2026-01-10 12:10:58.34	314.14	48.99	-44.2	-45.3	15.9	0.00e+00	0	23	0	2748317696	55	3875
2026-01-10 12:10:59.34	314.41	48.70	-44.2	-45.3	15.9	0.00e+00	0	23	0	2753560576	55	3883
2026-01-10 12:11:00.34	314.68	48.40	-44.4	-45.4	15.9	0.00e+00	0	23	0	2759852032	55	3930
2026-01-10 12:11:01.34	314.94	48.11	-44.5	-45.5	15.9	0.00e+00	0	23	0	2765094912	55	3986
2026-01-10 12:11:02.34	315.20	47.82	-44.5	-45.5	15.9	0.00e+00	0	23	0	2770337792	55	4002
2026-01-10 12:11:03.34	315.45	47.53	-44.7	-45.8	15.8	0.00e+00	0	23	0	2776629248	55	4107
2026-01-10 12:11:04.34	315.70	47.25	-44.8	-45.9	15.8	0.00e+00	0	23	0	2781872128	55	4177
2026-01-10 12:11:05.34	315.94	46.96	-44.9	-46.0	15.8	0.00e+00	0	23	0	2787115008	55	4194
2026-01-10 12:11:06.33	316.18	46.68	-44.7	-45.8	15.8	0.00e+00	0	23	0	2793406464	55	4122
2026-01-10 12:11:07.35	316.42	46.39	-44.6	-45.6	15.8	0.00e+00	0	23	0	2798649344	55	4046
2026-01-10 12:11:08.34	316.65	46.11	-44.5	-45.5	15.9	0.00e+00	0	23	0	2803892224	55	3997
2026-01-10 12:11:09.34	316.87	45.83	-44.3	-45.4	15.9	0.00e+00	0	23	0	2810183680	55	3931
2026-01-10 12:11:10.34	317.10	45.55	-44.3	-45.3	15.9	0.00e+00	0	23	0	2815426560	55	3912
2026-01-10 12:11:11.34	317.32	45.27	-44.2	-45.3	15.9	0.00e+00	0	23	0	2821718016	55	3881
2026-01-10 12:11:12.35	317.53	44.99	-44.3	-45.4	15.9	0.00e+00	0	23	0	2826960896	55	3919
2026-01-10 12:11:13.35	317.75	44.72	-44.4	-45.4	15.9	0.00e+00	0	23	0	2832203776	55	3942
2026-01-10 12:11:14.35	317.95	44.45	-44.3	-45.3	15.9	0.00e+00	0	23	0	2838495232	55	3894
2026-01-10 12:11:15.36	318.16	44.17	-44.2	-45.3	15.9	0.00e+00	0	23	0	2843738112	55	3882
2026-01-10 12:11:16.36	318.36	43.90	-44.3	-45.3	15.9	0.00e+00	0	23	0	2848980992	55	3891
2026-01-10 12:11:17.36	318.56	43.63	-44.3	-45.3	15.9	0.00e+00	0	23	0	2855272448	55	3896
2026-01-10 12:11:18.36	318.76	43.37	-44.2	-45.2	15.9	0.00e+00	0	23	0	2860515328	55	3852
2026-01-10 12:11:19.36	318.95	43.10	-44.2	-45.3	15.9	0.00e+00	0	23	0	2865758208	55	3885
2026-01-10 12:11:20.36	319.14	42.84	-44.3	-45.4	15.9	0.00e+00	0	23	0	2872049664	55	3933
2026-01-10 12:11:21.36	319.32	42.58	-44.4	-45.5	15.9	0.00e+00	0	23	0	2877292544	55	3974
2026-01-10 12:11:22.37	319.51	42.31	-44.4	-45.5	15.9	0.00e+00	0	23	0	2883584000	55	3979
2026-01-10 12:11:23.37	319.69	42.05	-44.3	-45.4	15.9	0.00e+00	0	23	0	2888826880	55	3934
2026-01-10 12:11:24.37	319.87	41.79	-44.2	-45.2	16.0	0.00e+00	0	23	0	2895118336	55	3859
2026-01-10 12:11:25.37	320.04	41.54	-44.1	-45.1	15.9	0.00e+00	0	23	0	2900361216	54	4032
2026-01-10 12:11:26.37	320.21	41.28	-44.0	-45.0	15.9	0.00e+00	0	23	0	2905604096	54	3997
2026-01-10 12:11:27.37	320.38	41.03	-44.1	-45.2	15.8	0.00e+00	0	23	0	2911895552	54	4066
2026-01-10 12:11:28.37	320.55	40.78	-44.1	-45.2	15.8	0.00e+00	0	24	0	2917138432	54	4058
2026-01-10 12:11:29.37	320.71	40.53	-44.2	-45.2	15.8	0.00e+00	0	23	0	2922381312	54	4083
2026-01-10 12:11:30.36	320.87	40.28	-44.1	-45.1	15.8	0.00e+00	0	23	0	2927624192	54	4024
2026-01-10 12:11:31.35	321.03	40.04	-44.1	-45.1	15.8	0.00e+00	0	24	0	2933915648	54	4037
2026-01-10 12:11:32.35	321.19	39.79	-44.0	-45.1	15.9	0.00e+00	0	23	0	2939158528	54	4020
2026-01-10 12:11:33.35	321.34	39.55	-44.0	-45.1	15.9	0.00e+00	0	23	0	2945449984	54	4018
2026-01-10 12:11:34.35	321.49	39.30	-44.0	-45.0	15.9	0.00e+00	0	23	0	2950692864	54	3987
2026-01-10 12:11:35.36	321.65	39.06	-43.9	-44.9	15.9	0.00e+00	0	23	0	2955935744	54	3955
2026-01-10 12:11:36.35	321.79	38.82	-43.9	-44.9	15.9	0.00e+00	0	23	0	2962227200	54	3937
2026-01-10 12:11:37.35	321.94	38.59	-43.8	-44.8	15.9	0.00e+00	0	23	0	2967470080	54	3907
2026-01-10 12:11:38.35	322.08	38.35	-43.8	-44.8	15.9	0.00e+00	0	23	0	2972712960	54	3896
2026-01-10 12:11:39.36	322.23	38.11	-43.7	-44.8	15.9	0.00e+00	0	23	0	2979004416	54	3880
2026-01-10 12:11:40.35	322.37	37.88	-43.8	-44.9	15.9	0.00e+00	0	23	0	2984247296	54	3919
2026-01-10 12:11:41.36	322.50	37.64	-43.7	-44.7	16.0	0.00e+00	0	23	0	2989490176	54	3860
2026-01-10 12:11:42.36	322.64	37.41	-43.6	-44.6	15.8	0.00e+00	0	23	0	2995781632	53	4031
2026-01-10 12:11:43.36	322.78	37.18	-43.7	-44.7	15.8	0.00e+00	0	23	0	3001024512	53	4062
2026-01-10 12:11:44.35	322.91	36.96	-43.7	-44.7	15.8	0.00e+00	0	23	0	3007315968	53	4062
2026-01-10 12:11:45.35	323.04	36.73	-43.5	-44.5	15.9	0.00e+00	0	23	0	3012558848	53	3980
2026-01-10 12:11:46.35	323.17	36.51	-43.5	-44.5	15.9	0.00e+00	0	23	0	3017801728	53	3986
2026-01-10 12:11:47.35	323.29	36.28	-43.5	-44.5	15.9	0.00e+00	0	23	0	3024093184	53	4004
2026-01-10 12:11:48.35	323.42	36.06	-43.5	-44.6	15.9	0.00e+00	0	23	0	3029336064	53	4012
2026-01-10 12:11:49.35	323.54	35.84	-43.5	-44.6	15.9	0.00e+00	0	23	0	3034578944	53	4022
2026-01-10 12:11:50.35	323.67	35.62	-43.7	-44.7	15.8	0.00e+00	0	23	0	3040870400	53	4087
2026-01-10 12:11:51.34	323.79	35.40	-43.7	-44.7	15.8	0.00e+00	0	23	0	3046113280	53	4085
2026-01-10 12:11:52.34	323.91	35.19	-43.8	-44.8	15.8	0.00e+00	0	23	0	3051356160	53	4132
2026-01-10 12:11:53.35	324.02	34.97	-43.8	-44.8	15.8	0.00e+00	0	23	0	3057647616	53	4131
2026-01-10 12:11:54.35	324.14	34.75	-43.7	-44.7	15.8	0.00e+00	0	23	0	3062890496	53	4067
2026-01-10 12:11:55.35	324.26	34.54	-43.7	-44.7	15.8	0.00e+00	0	23	0	3069181952	53	4074
2026-01-10 12:11:56.35	324.37	34.33	-43.7	-44.7	15.8	0.00e+00	0	24	0	3074424832	53	4073
2026-01-10 12:11:57.35	324.48	34.12	-43.8	-44.8	15.8	0.00e+00	0	23	0	3079667712	53	4108
2026-01-10 12:11:58.36	324.59	33.91	-43.8	-44.9	15.8	0.00e+00	0	24	0	3085959168	53	4151
2026-01-10 12:11:59.35	324.70	33.70	-43.9	-44.9	15.8	0.00e+00	0	23	0	3091202048	53	4161
2026-01-10 12:12:00.36	324.81	33.49	-44.0	-45.1	15.7	0.00e+00	0	23	0	3096444928	53	4243
2026-01-10 12:12:01.36	324.92	33.29	-44.1	-45.2	15.7	0.00e+00	0	23	0	3102736384	53	4318
2026-01-10 12:12:02.36	325.02	33.08	-44.2	-45.3	15.7	0.00e+00	0	23	0	3107979264	53	4349
2026-01-10 12:12:03.36	325.13	32.88	-44.3	-45.4	15.7	0.00e+00	0	23	0	3113222144	53	4403
2026-01-10 12:12:04.36	325.23	32.68	-44.4	-45.5	15.8	0.00e+00	0	23	0	3119513600	54	4204
2026-01-10 12:12:05.36	325.33	32.48	-44.4	-45.5	15.7	0.00e+00	0	23	0	3124756480	54	4222
2026-01-10 12:12:06.35	325.43	32.28	-44.3	-45.4	15.8	0.00e+00	0	24	0	3131047936	54	4165
2026-01-10 12:12:07.35	325.53	32.09	-44.3	-45.4	15.8	0.00e+00	0	23	0	3136290816	54	4180
2026-01-10 12:12:08.35	325.63	31.89	-44.3	-45.4	15.7	0.00e+00	0	23	0	3141533696	54	4152
2026-01-10 12:12:09.36	325.73	31.69	-44.1	-45.2	15.8	0.00e+00	0	24	0	3147825152	54	4058
2026-01-10 12:12:10.36	325.82	31.50	-44.0	-45.0	15.8	0.00e+00	0	23	0	3153068032	54	4004
2026-01-10 12:12:11.36	325.92	31.31	-43.9	-45.0	15.9	0.00e+00	0	23	0	3158310912	54	3962
2026-01-10 12:12:12.35	326.01	31.12	-43.8	-44.8	15.9	0.00e+00	0	23	0	3164602368	54	3913
2026-01-10 12:12:13.35	326.10	30.93	-43.8	-44.9	15.8	0.00e+00	0	23	0	3169845248	54	3914
2026-01-10 12:12:14.35	326.19	30.74	-43.9	-44.9	15.9	0.00e+00	0	23	0	3175088128	54	3946
2026-01-10 12:12:15.36	326.29	30.55	-43.9	-44.9	15.9	0.00e+00	0	23	0	3181379584	54	3937
2026-01-10 12:12:16.35	326.38	30.36	-43.8	-44.8	15.9	0.00e+00	0	24	0	3186622464	54	3910
2026-01-10 12:12:17.36	326.46	30.17	-43.9	-44.9	15.8	0.00e+00	0	24	0	3192913920	54	3946
2026-01-10 12:12:18.36	326.55	29.99	-44.0	-45.1	15.8	0.00e+00	0	24	0	3198156800	54	4013
2026-01-10 12:12:19.36	326.64	29.81	-44.0	-45.1	15.8	0.00e+00	0	23	0	3203399680	54	4008
2026-01-10 12:12:20.37	326.73	29.62	-44.2	-45.2	15.8	0.00e+00	0	23	0	3209691136	54	4092
2026-01-10 12:12:21.36	326.81	29.44	-44.1	-45.2	15.8	0.00e+00	0	23	0	3214934016	54	4058
2026-01-10 12:12:22.37	326.90	29.26	-44.2	-45.3	15.8	0.00e+00	0	23	0	3221225472	54	4119
2026-01-10 12:12:23.37	326.98	29.08	-44.2	-45.3	15.8	0.00e+00	0	23	0	3226468352	54	4104
2026-01-10 12:12:24.37	327.06	28.90	-44.1	-45.2	15.8	0.00e+00	0	23	0	3231711232	54	4059
2026-01-10 12:12:25.38	327.14	28.72	-44.2	-45.3	15.8	0.00e+00	0	23	0	3238002688	54	4115
2026-01-10 12:12:26.38	327.22	28.55	-44.1	-45.2	15.8	0.00e+00	0	23	0	3243245568	54	4056
2026-01-10 12:12:27.38	327.30	28.37	-44.0	-45.0	15.8	0.00e+00	0	23	0	3248488448	54	3997
2026-01-10 12:12:28.37	327.38	28.20	-44.1	-45.1	15.8	0.00e+00	0	23	0	3254779904	54	4028
2026-01-10 12:12:29.37	327.46	28.03	-44.1	-45.1	15.8	0.00e+00	0	23	0	3260022784	54	4050
2026-01-10 12:12:30.38	327.54	27.86	-44.1	-45.1	15.8	0.00e+00	0	23	0	3266314240	54	4027
2026-01-10 12:12:31.38	327.61	27.68	-44.1	-45.2	15.8	0.00e+00	0	23	0	3271557120	54	4053
2026-01-10 12:12:32.38	327.69	27.51	-44.1	-45.1	15.8	0.00e+00	0	23	0	3276800000	54	4048
2026-01-10 12:12:33.38	327.77	27.35	-44.2	-45.3	15.8	0.00e+00	0	24	0	3283091456	54	4099
2026-01-10 12:12:34.39	327.84	27.18	-44.3	-45.4	15.7	0.00e+00	0	23	0	3288334336	54	4148
2026-01-10 12:12:35.38	327.91	27.01	-44.3	-45.4	15.7	0.00e+00	0	24	0	3293577216	54	4153
2026-01-10 12:12:36.38	327.99	26.85	-44.4	-45.5	15.7	0.00e+00	0	23	0	3299868672	54	4228
2026-01-10 12:12:37.38	328.06	26.68	-44.4	-45.5	15.7	0.00e+00	0	23	0	3305111552	54	4229
2026-01-10 12:12:38.39	328.13	26.52	-44.4	-45.5	15.7	0.00e+00	0	23	0	3310354432	54	4208
2026-01-10 12:12:39.38	328.20	26.35	-44.4	-45.5	15.7	0.00e+00	0	23	0	3316645888	54	4212
2026-01-10 12:12:40.39	328.27	26.19	-44.5	-45.6	15.7	0.00e+00	0	23	0	3321888768	54	4251
2026-01-10 12:12:41.40	328.34	26.03	-44.5	-45.6	15.7	0.00e+00	0	23	0	3328180224	54	4265
2026-01-10 12:12:42.40	328.41	25.87	-44.5	-45.5	15.7	0.00e+00	0	23	0	3333423104	54	4232
2026-01-10 12:12:43.40	328.48	25.71	-44.3	-45.4	15.7	0.00e+00	0	23	0	3338665984	54	4171
2026-01-10 12:12:44.40	328.55	25.55	-44.4	-45.4	15.7	0.00e+00	0	23	0	3344957440	54	4185
2026-01-10 12:12:45.40	328.61	25.39	-44.3	-45.4	15.7	0.00e+00	0	23	0	3350200320	54	4148
2026-01-10 12:12:46.39	328.68	25.24	-44.3	-45.3	15.7	0.00e+00	0	23	0	3355443200	54	4123
2026-01-10 12:12:47.40	328.75	25.08	-44.3	-45.3	15.7	0.00e+00	0	24	0	3361734656	54	4142
2026-01-10 12:12:48.40	328.81	24.93	-44.2	-45.3	15.7	0.00e+00	0	23	0	3366977536	54	4100
2026-01-10 12:12:49.40	328.88	24.77	-44.4	-45.4	15.7	0.00e+00	0	24	0	3373268992	54	4164
2026-01-10 12:12:50.40	328.94	24.62	-44.4	-45.4	15.7	0.00e+00	0	24	0	3378511872	54	4186
2026-01-10 12:12:51.41	329.00	24.47	-44.3	-45.4	15.7	0.00e+00	0	24	0	3383754752	54	4162
2026-01-10 12:12:52.41	329.07	24.32	-44.4	-45.4	15.7	0.00e+00	0	23	0	3390046208	54	4180
2026-01-10 12:12:53.42	329.13	24.16	-44.4	-45.4	15.7	0.00e+00	0	23	0	3395289088	54	4189
2026-01-10 12:12:54.42	329.19	24.01	-44.5	-45.5	15.7	0.00e+00	0	23	0	3401580544	54	4227
2026-01-10 12:12:55.42	329.25	23.87	-44.6	-45.6	15.7	0.00e+00	0	24	0	3406823424	54	4281
2026-01-10 12:12:56.43	329.31	23.72	-44.6	-45.7	15.7	0.00e+00	0	24	0	3412066304	54	4294
2026-01-10 12:12:57.43	329.37	23.57	-44.7	-45.8	15.6	0.00e+00	0	24	0	3418357760	54	4363
2026-01-10 12:12:58.44	329.43	23.42	-44.8	-45.9	15.6	0.00e+00	0	24	0	3423600640	54	4398
2026-01-10 12:12:59.44	329.49	23.28	-44.9	-46.0	15.6	0.00e+00	0	24	0	3428843520	54	4447
2026-01-10 12:13:00.44	329.55	23.13	-44.9	-46.0	15.7	0.00e+00	0	24	0	3435134976	55	4222
2026-01-10 12:13:01.43	329.61	22.99	-44.9	-46.0	15.7	0.00e+00	0	24	0	3440377856	55	4233
2026-01-10 12:13:02.43	329.67	22.85	-44.9	-46.0	15.7	0.00e+00	0	23	0	3446669312	55	4207
2026-01-10 12:13:03.43	329.72	22.70	-44.9	-46.0	15.6	0.00e+00	0	23	0	3451912192	55	4237
2026-01-10 12:13:04.43	329.78	22.56	-45.0	-46.1	15.6	0.00e+00	0	23	0	3457155072	55	4266
2026-01-10 12:13:05.43	329.84	22.42	-45.1	-46.2	15.6	0.00e+00	0	24	0	3463446528	55	4319
2026-01-10 12:13:06.42	329.89	22.28	-45.0	-46.2	15.6	0.00e+00	0	23	0	3468689408	55	4292
2026-01-10 12:13:07.42	329.95	22.14	-45.1	-46.2	15.6	0.00e+00	0	24	0	3473932288	55	4317
2026-01-10 12:13:08.43	330.00	22.00	-45.2	-46.4	15.6	0.00e+00	0	24	0	3480223744	55	4398
2026-01-10 12:13:09.43	330.06	21.86	-45.1	-46.2	15.6	0.00e+00	0	24	0	3485466624	55	4336
2026-01-10 12:13:10.44	330.11	21.73	-45.1	-46.2	15.6	0.00e+00	0	24	0	3490709504	55	4329
2026-01-10 12:13:11.44	330.16	21.59	-45.3	-46.4	15.5	0.00e+00	0	24	0	3497000960	55	4405
2026-01-10 12:13:12.44	330.22	21.45	-45.2	-46.3	15.6	0.00e+00	0	23	0	3502243840	55	4363
2026-01-10 12:13:13.45	330.27	21.32	-45.3	-46.3	15.5	0.00e+00	0	23	0	3508535296	55	4390
2026-01-10 12:13:14.44	330.32	21.18	-45.2	-46.3	15.6	0.00e+00	0	24	0	3513778176	55	4374
2026-01-10 12:13:15.44	330.37	21.05	-45.3	-46.5	15.5	0.00e+00	0	23	0	3519021056	55	4443
2026-01-10 12:13:16.44	330.42	20.92	-45.3	-46.4	15.5	0.00e+00	0	24	0	3525312512	55	4400
2026-01-10 12:13:17.44	330.47	20.79	-45.3	-46.4	15.5	0.00e+00	0	23	0	3530555392	55	4412
2026-01-10 12:13:18.44	330.53	20.65	-45.6	-46.7	15.5	0.00e+00	0	24	0	3535798272	56	4322
2026-01-10 12:13:19.43	330.58	20.52	-45.6	-46.7	15.5	0.00e+00	0	23	0	3542089728	56	4330
2026-01-10 12:13:20.43	330.62	20.39	-45.7	-46.8	15.5	0.00e+00	0	23	0	3547332608	56	4390
2026-01-10 12:13:21.43	330.67	20.26	-45.7	-46.8	15.5	0.00e+00	0	23	0	3552575488	56	4357
2026-01-10 12:13:22.43	330.72	20.14	-45.6	-46.7	15.5	0.00e+00	0	23	0	3558866944	56	4330
2026-01-10 12:13:23.44	330.77	20.01	-45.7	-46.8	15.5	0.00e+00	0	23	0	3564109824	56	4349
2026-01-10 12:13:24.44	330.82	19.88	-45.6	-46.7	15.5	0.00e+00	0	23	0	3570401280	56	4334
2026-01-10 12:13:25.44	330.87	19.75	-45.7	-46.8	15.5	0.00e+00	0	24	0	3575644160	56	4356
2026-01-10 12:13:26.45	330.92	19.62	-45.7	-46.8	15.5	0.00e+00	0	23	0	3580887040	56	4372
2026-01-10 12:13:27.45	330.96	19.50	-45.8	-46.9	15.5	0.00e+00	0	23	0	3587178496	56	4406
2026-01-10 12:13:28.45	331.01	19.37	-45.8	-46.9	15.5	0.00e+00	0	23	0	3592421376	56	4411
2026-01-10 12:13:29.46	331.06	19.25	-45.8	-47.0	15.5	0.00e+00	0	23	0	3597664256	56	4448
2026-01-10 12:13:30.46	331.10	19.12	-45.8	-46.9	15.5	0.00e+00	0	23	0	3603955712	56	4412
2026-01-10 12:13:31.47	331.15	19.00	-45.8	-46.9	15.5	0.00e+00	0	23	0	3609198592	56	4398
2026-01-10 12:13:32.47	331.20	18.88	-45.8	-46.9	15.5	0.00e+00	0	24	0	3615490048	56	4429
2026-01-10 12:13:33.47	331.24	18.75	-45.8	-46.9	15.5	0.00e+00	0	23	0	3620732928	56	4413
2026-01-10 12:13:34.47	331.29	18.63	-45.8	-46.9	15.5	0.00e+00	0	24	0	3625975808	56	4428
2026-01-10 12:13:35.47	331.33	18.51	-45.9	-47.0	15.4	0.00e+00	0	23	0	3632267264	56	4485
2026-01-10 12:13:36.46	331.37	18.39	-45.9	-47.0	15.5	0.00e+00	0	23	0	3637510144	57	4235
2026-01-10 12:13:37.46	331.42	18.27	-45.9	-47.0	15.5	0.00e+00	0	23	0	3642753024	57	4221
2026-01-10 12:13:38.47	331.46	18.15	-45.9	-47.0	15.5	0.00e+00	0	23	0	3649044480	57	4211
2026-01-10 12:13:39.46	331.50	18.03	-45.9	-47.1	15.5	0.00e+00	0	23	0	3654287360	57	4246
2026-01-10 12:13:40.47	331.55	17.92	-46.0	-47.1	15.5	0.00e+00	0	23	0	3660578816	57	4264
2026-01-10 12:13:41.48	331.59	17.80	-45.9	-47.1	15.5	0.00e+00	0	24	0	3665821696	57	4249
2026-01-10 12:13:42.48	331.63	17.68	-46.0	-47.1	15.5	0.00e+00	0	24	0	3671064576	57	4261
2026-01-10 12:13:43.48	331.67	17.56	-46.0	-47.1	15.5	0.00e+00	0	24	0	3677356032	57	4287
