passes_logs/2026/01/10/R3.2S_Murmansk/R3.2S_Murmansk__20260110_062413_NOAA_20_JPSS-1_rec.log

#Pass ID: 20260110_062413_NOAA 20 (JPSS-1)
#Satellite: NOAA 20 (JPSS-1)
#Configuration: NOAA 20
#almurnet v.1.7.20251203
#Start time: 2026-01-10 06:24:12

#Version: 2.2.20231116
#Station: R3.2S_Murmansk
#Location: 33.079688 lon 68.888172 lat
#TLE: 1 43013U 17073A   26009.26828276  .00000112  00000+0  74203-4 0  9990
#TLE: 2 43013  98.7631 310.2683 0001700  47.4387 312.6933 14.19534764421920

#Time	Az	El	Level	Level2	SNR	BER	BlckErr	Temp	State	Recorded	gain1	gain2
2026-01-10 06:24:12.71	83.25	1.98	-57.1	-73.0	3.8	1.49e+00	0	21	0	0	80	22441
2026-01-10 06:24:13.70	83.20	2.04	-57.0	-73.0	3.8	1.49e+00	0	21	104	0	79	23732
2026-01-10 06:24:14.70	83.14	2.09	-57.0	-73.0	3.8	1.49e+00	0	21	104	0	79	23645
2026-01-10 06:24:15.70	83.08	2.15	-57.0	-73.0	3.8	1.49e+00	0	21	104	0	79	23646
2026-01-10 06:24:16.70	83.02	2.21	-57.0	-73.0	3.8	1.49e+00	0	22	104	0	79	23625
2026-01-10 06:24:17.70	82.96	2.27	-57.0	-73.0	3.8	1.49e+00	0	21	104	0	79	23626
2026-01-10 06:24:18.70	82.91	2.33	-57.0	-73.0	3.8	1.49e+00	0	22	104	0	79	23667
2026-01-10 06:24:19.71	82.85	2.39	-57.0	-73.0	3.8	1.49e+00	0	22	104	0	79	23644
2026-01-10 06:24:20.71	82.79	2.45	-57.0	-73.0	3.8	1.49e+00	0	22	104	0	79	23644
2026-01-10 06:24:21.72	82.73	2.51	-57.0	-73.0	3.8	1.49e+00	0	22	104	0	79	23676
2026-01-10 06:24:22.71	82.67	2.56	-57.0	-73.0	3.8	1.49e+00	0	22	104	0	79	23720
2026-01-10 06:24:23.72	82.61	2.62	-57.0	-73.0	3.8	1.49e+00	0	22	104	0	79	23776
2026-01-10 06:24:24.71	82.55	2.68	-57.0	-73.0	3.8	1.49e+00	0	22	104	0	79	23754
2026-01-10 06:24:25.71	82.49	2.74	-57.0	-73.0	3.8	1.49e+00	0	22	104	0	79	23748
2026-01-10 06:24:26.71	82.42	2.80	-57.0	-73.0	3.8	1.49e+00	0	22	104	0	79	23792
2026-01-10 06:24:27.72	82.36	2.86	-57.0	-73.0	3.8	1.49e+00	0	22	104	0	79	23798
2026-01-10 06:24:28.71	82.30	2.92	-57.0	-73.0	3.8	1.49e+00	0	22	104	0	79	23763
2026-01-10 06:24:29.71	82.24	2.98	-57.0	-73.0	3.8	1.49e+00	0	22	104	0	79	23739
2026-01-10 06:24:30.70	82.18	3.04	-57.0	-73.0	3.8	1.49e+00	0	22	104	0	79	23677
2026-01-10 06:24:31.71	82.12	3.10	-57.0	-73.0	3.8	1.49e+00	0	22	104	0	79	23665
2026-01-10 06:24:32.70	82.05	3.16	-57.0	-73.0	3.8	1.49e+00	0	22	104	0	79	23606
2026-01-10 06:24:33.70	81.99	3.22	-57.0	-73.0	3.8	1.49e+00	0	22	104	0	79	23643
2026-01-10 06:24:34.70	81.93	3.28	-57.0	-73.0	3.8	1.49e+00	0	22	104	0	79	23705
2026-01-10 06:24:35.69	81.87	3.34	-57.0	-73.0	3.8	1.49e+00	0	22	104	0	79	23721
2026-01-10 06:24:36.69	81.80	3.40	-57.0	-73.0	3.9	1.49e+00	0	22	104	0	79	23729
2026-01-10 06:24:37.70	81.74	3.46	-57.0	-73.0	3.8	1.49e+00	0	22	104	0	79	23832
2026-01-10 06:24:38.70	81.67	3.52	-57.0	-73.0	3.8	1.49e+00	0	22	104	0	79	23751
2026-01-10 06:24:39.69	81.61	3.58	-57.0	-73.0	3.8	1.49e+00	0	22	104	0	79	23667
2026-01-10 06:24:40.69	81.54	3.64	-57.0	-73.0	3.8	1.49e+00	0	22	104	0	79	23599
2026-01-10 06:24:41.68	81.48	3.70	-57.0	-72.9	3.8	1.49e+00	0	22	104	0	79	23548
2026-01-10 06:24:42.68	81.42	3.76	-57.0	-72.9	3.8	1.49e+00	0	22	104	0	79	23524
2026-01-10 06:24:43.68	81.35	3.82	-57.0	-73.0	3.8	1.49e+00	0	22	104	0	79	23636
2026-01-10 06:24:44.67	81.28	3.88	-57.0	-73.0	3.8	1.49e+00	0	22	104	0	79	23725
2026-01-10 06:24:45.67	81.22	3.94	-57.0	-73.0	3.8	1.49e+00	0	22	104	0	79	23814
2026-01-10 06:24:46.67	81.15	4.00	-57.0	-73.0	3.8	1.49e+00	0	22	104	0	79	23648
2026-01-10 06:24:47.67	81.09	4.07	-57.0	-72.8	3.8	1.49e+00	0	22	104	0	79	23172
2026-01-10 06:24:48.68	81.02	4.13	-57.0	-72.4	3.8	1.49e+00	0	22	104	0	79	22055
2026-01-10 06:24:49.67	80.95	4.19	-57.0	-71.9	3.8	1.49e+00	0	22	104	0	79	20868
2026-01-10 06:24:50.67	80.88	4.25	-57.0	-71.3	3.8	1.49e+00	0	22	104	0	79	19544
2026-01-10 06:24:51.67	80.82	4.31	-56.9	-70.7	3.9	1.49e+00	0	22	104	0	79	18167
2026-01-10 06:24:52.67	80.75	4.37	-56.9	-70.2	3.9	1.47e+00	0	22	104	0	79	17121
2026-01-10 06:24:53.66	80.68	4.44	-56.9	-69.2	4.3	1.40e+00	0	22	0	0	79	15355
2026-01-10 06:24:54.66	80.61	4.50	-56.8	-68.5	4.5	1.19e+00	0	22	0	1048576	79	14148
2026-01-10 06:24:55.66	80.54	4.56	-56.8	-67.8	4.8	9.34e-01	0	22	0	3145728	79	12987
2026-01-10 06:24:56.66	80.47	4.62	-56.7	-66.9	5.2	6.30e-01	0	22	0	4194304	79	11750
2026-01-10 06:24:57.67	80.40	4.68	-56.6	-66.1	5.7	4.47e-01	0	22	0	6291456	79	10777
2026-01-10 06:24:58.66	80.33	4.75	-56.5	-65.2	6.3	3.05e-01	0	23	0	8388608	79	9696
2026-01-10 06:24:59.66	80.26	4.81	-56.4	-64.9	6.5	2.02e-01	0	22	0	10485760	79	9362
2026-01-10 06:25:00.65	80.19	4.87	-56.4	-64.5	6.9	1.53e-01	0	22	0	12582912	79	8931
2026-01-10 06:25:01.65	80.12	4.93	-56.4	-64.6	6.8	1.21e-01	0	22	0	13631488	79	9040
2026-01-10 06:25:02.65	80.05	5.00	-56.4	-64.6	6.9	1.45e-01	0	23	0	15728640	79	8975
2026-01-10 06:25:03.66	79.98	5.06	-56.5	-64.8	6.7	1.63e-01	0	22	0	17825792	79	9225
2026-01-10 06:25:04.66	79.91	5.12	-56.6	-65.3	6.3	1.55e-01	0	23	0	19922944	79	9772
2026-01-10 06:25:05.66	79.83	5.19	-56.6	-66.1	5.9	2.09e-01	0	23	0	22020096	79	10695
2026-01-10 06:25:06.66	79.76	5.25	-55.2	-59.8	11.1	2.54e-01	0	23	0	23068672	77	5804
2026-01-10 06:25:07.66	79.69	5.31	-56.8	-67.6	5.0	9.47e-03	0	23	0	25165824	78	13455
2026-01-10 06:25:08.66	79.61	5.38	-55.7	-61.1	9.8	1.35e+00	0	23	0	25165824	78	6400
2026-01-10 06:25:09.67	79.54	5.44	-54.6	-58.6	12.0	2.44e-05	0	23	0	27262976	75	5719
2026-01-10 06:25:10.66	79.47	5.50	-54.4	-58.1	12.5	3.00e-06	0	23	0	28311552	75	5346
2026-01-10 06:25:11.66	79.39	5.57	-54.2	-57.7	12.7	3.00e-06	0	23	0	30408704	75	5156
2026-01-10 06:25:12.66	79.32	5.63	-54.2	-57.7	12.7	0.00e+00	0	22	0	32505856	74	5422
2026-01-10 06:25:13.67	79.24	5.70	-54.1	-57.6	12.8	7.00e-07	0	23	0	34603008	74	5355
2026-01-10 06:25:14.67	79.17	5.76	-54.0	-57.3	13.0	0.00e+00	0	23	0	36700160	74	5165
2026-01-10 06:25:15.67	79.09	5.83	-53.7	-56.8	13.3	0.00e+00	0	23	0	37748736	74	4917
2026-01-10 06:25:16.66	79.02	5.89	-53.8	-56.9	13.3	0.00e+00	0	23	0	39845888	74	4950
2026-01-10 06:25:17.65	78.94	5.95	-53.7	-56.8	13.3	0.00e+00	0	23	0	41943040	74	4926
2026-01-10 06:25:18.65	78.86	6.02	-53.5	-56.5	13.4	0.00e+00	0	23	0	44040192	73	5029
2026-01-10 06:25:19.63	78.79	6.08	-53.5	-56.5	13.4	0.00e+00	0	23	0	45088768	73	5017
2026-01-10 06:25:20.64	78.71	6.15	-53.6	-56.6	13.4	0.00e+00	0	23	0	47185920	73	5053
2026-01-10 06:25:21.64	78.63	6.21	-53.4	-56.4	13.6	0.00e+00	0	23	0	49283072	73	4935
2026-01-10 06:25:22.64	78.55	6.28	-53.5	-56.5	13.4	0.00e+00	0	23	0	51380224	73	5016
2026-01-10 06:25:23.64	78.48	6.34	-53.6	-56.6	13.4	0.00e+00	0	23	0	53477376	73	5077
2026-01-10 06:25:24.63	78.40	6.41	-53.4	-56.3	13.6	0.00e+00	0	23	0	54525952	73	4903
2026-01-10 06:25:25.63	78.32	6.47	-53.4	-56.4	13.6	0.00e+00	0	23	0	56623104	73	4931
2026-01-10 06:25:26.63	78.24	6.54	-53.5	-56.4	13.5	0.00e+00	0	23	0	58720256	73	4962
2026-01-10 06:25:27.63	78.16	6.60	-53.5	-56.4	13.5	0.00e+00	0	23	0	60817408	73	4978
2026-01-10 06:25:28.64	78.08	6.67	-53.5	-56.5	13.5	0.00e+00	0	23	0	62914560	73	5004
2026-01-10 06:25:29.64	78.00	6.74	-53.5	-56.4	13.5	0.00e+00	0	23	0	63963136	73	4974
2026-01-10 06:25:30.64	77.92	6.80	-53.4	-56.3	13.6	0.00e+00	0	23	0	66060288	73	4916
2026-01-10 06:25:31.63	77.84	6.87	-53.5	-56.4	13.6	0.00e+00	0	23	0	68157440	73	4962
2026-01-10 06:25:32.63	77.75	6.93	-53.5	-56.4	13.5	0.00e+00	0	23	0	70254592	73	4964
2026-01-10 06:25:33.64	77.67	7.00	-53.6	-56.6	13.4	0.00e+00	0	23	0	71303168	73	5044
2026-01-10 06:25:34.64	77.59	7.07	-53.6	-56.5	13.5	0.00e+00	0	23	0	73400320	73	5015
2026-01-10 06:25:35.64	77.51	7.13	-53.5	-56.4	13.6	0.00e+00	0	23	0	75497472	73	4978
2026-01-10 06:25:36.64	77.42	7.20	-53.4	-56.3	13.7	0.00e+00	0	23	0	77594624	73	4898
2026-01-10 06:25:37.64	77.34	7.27	-53.4	-56.2	13.8	0.00e+00	0	23	0	79691776	73	4815
2026-01-10 06:25:38.64	77.25	7.33	-53.5	-56.3	13.6	0.00e+00	0	23	0	80740352	73	4925
2026-01-10 06:25:39.63	77.17	7.40	-53.6	-56.4	13.5	0.00e+00	0	23	0	82837504	73	4982
2026-01-10 06:25:40.63	77.08	7.47	-53.5	-56.4	13.6	0.00e+00	0	23	0	84934656	73	4939
2026-01-10 06:25:41.63	77.00	7.53	-53.5	-56.3	13.6	0.00e+00	0	23	0	87031808	73	4920
2026-01-10 06:25:42.62	76.91	7.60	-53.5	-56.3	13.7	0.00e+00	0	23	0	89128960	73	4889
2026-01-10 06:25:43.60	76.83	7.67	-53.5	-56.4	13.6	0.00e+00	0	23	0	90177536	73	4956
2026-01-10 06:25:44.60	76.74	7.74	-53.5	-56.4	13.6	0.00e+00	0	23	0	92274688	73	4938
2026-01-10 06:25:45.59	76.66	7.80	-53.4	-56.2	13.7	0.00e+00	0	23	0	94371840	73	4869
2026-01-10 06:25:46.58	76.57	7.87	-53.5	-56.3	13.7	0.00e+00	0	23	0	96468992	73	4897
2026-01-10 06:25:47.57	76.48	7.94	-53.4	-56.2	13.7	0.00e+00	0	23	0	97517568	73	4853
2026-01-10 06:25:48.57	76.40	8.00	-53.4	-56.3	13.7	0.00e+00	0	23	0	99614720	73	4874
2026-01-10 06:25:49.56	76.31	8.07	-53.5	-56.3	13.7	0.00e+00	0	23	0	101711872	73	4891
2026-01-10 06:25:50.56	76.22	8.14	-53.4	-56.2	13.8	0.00e+00	0	23	0	103809024	73	4850
2026-01-10 06:25:51.56	76.13	8.21	-53.4	-56.2	13.7	0.00e+00	0	23	0	105906176	73	4852
2026-01-10 06:25:52.56	76.04	8.28	-53.4	-56.2	13.8	0.00e+00	0	23	0	106954752	73	4831
2026-01-10 06:25:53.56	75.95	8.35	-53.4	-56.2	13.8	0.00e+00	0	23	0	109051904	73	4821
2026-01-10 06:25:54.56	75.86	8.41	-53.4	-56.1	13.8	0.00e+00	0	23	0	111149056	73	4788
2026-01-10 06:25:55.56	75.77	8.48	-53.4	-56.1	13.8	0.00e+00	0	23	0	113246208	73	4813
2026-01-10 06:25:56.56	75.67	8.55	-53.3	-56.0	13.9	0.00e+00	0	23	0	114294784	73	4728
2026-01-10 06:25:57.56	75.58	8.62	-53.3	-56.0	13.9	0.00e+00	0	23	0	116391936	73	4740
2026-01-10 06:25:58.56	75.49	8.69	-53.4	-56.1	13.9	0.00e+00	0	23	0	118489088	73	4766
2026-01-10 06:25:59.56	75.40	8.76	-53.4	-56.1	13.9	0.00e+00	0	23	0	120586240	73	4792
2026-01-10 06:26:00.56	75.30	8.83	-53.4	-56.1	13.9	0.00e+00	0	23	0	122683392	73	4785
2026-01-10 06:26:01.57	75.21	8.90	-53.4	-56.1	13.9	0.00e+00	0	23	0	123731968	73	4798
2026-01-10 06:26:02.56	75.11	8.97	-53.4	-56.2	13.8	0.00e+00	0	23	0	125829120	73	4832
2026-01-10 06:26:03.57	75.02	9.04	-53.4	-56.1	13.9	0.00e+00	0	23	0	127926272	73	4779
2026-01-10 06:26:04.57	74.92	9.11	-53.3	-56.0	13.9	0.00e+00	0	23	0	130023424	73	4718
2026-01-10 06:26:05.57	74.83	9.18	-53.4	-56.1	13.9	0.00e+00	0	23	0	132120576	73	4768
2026-01-10 06:26:06.57	74.73	9.25	-53.4	-56.2	13.8	0.00e+00	0	23	0	133169152	73	4823
2026-01-10 06:26:07.57	74.63	9.32	-53.4	-56.1	13.9	0.00e+00	0	23	0	135266304	73	4772
2026-01-10 06:26:08.57	74.53	9.39	-53.3	-56.0	14.0	0.00e+00	0	23	0	137363456	73	4707
2026-01-10 06:26:09.56	74.44	9.46	-53.4	-56.2	13.8	0.00e+00	0	23	0	139460608	73	4830
2026-01-10 06:26:10.57	74.34	9.53	-53.3	-56.0	13.9	0.00e+00	0	23	0	141557760	73	4747
2026-01-10 06:26:11.56	74.24	9.60	-53.4	-56.1	13.9	0.00e+00	0	23	0	142606336	73	4788
2026-01-10 06:26:12.56	74.14	9.67	-53.3	-55.9	14.0	0.00e+00	0	23	0	144703488	73	4703
2026-01-10 06:26:13.55	74.04	9.74	-53.3	-56.0	14.0	0.00e+00	0	23	0	146800640	73	4739
2026-01-10 06:26:14.55	73.94	9.81	-53.4	-56.1	13.9	0.00e+00	0	23	0	148897792	73	4767
2026-01-10 06:26:15.55	73.84	9.88	-53.4	-56.1	13.9	0.00e+00	0	23	0	149946368	73	4776
2026-01-10 06:26:16.55	73.74	9.96	-53.4	-56.0	13.9	0.00e+00	0	23	0	152043520	73	4750
2026-01-10 06:26:17.55	73.64	10.03	-53.4	-56.0	13.9	0.00e+00	0	23	0	154140672	73	4744
2026-01-10 06:26:18.55	73.54	10.10	-53.3	-55.9	14.0	0.00e+00	0	23	0	156237824	73	4685
2026-01-10 06:26:19.55	73.43	10.17	-53.4	-56.0	13.9	0.00e+00	0	23	0	158334976	73	4750
2026-01-10 06:26:20.55	73.33	10.24	-53.3	-56.0	14.0	0.00e+00	0	23	0	159383552	73	4708
2026-01-10 06:26:21.54	73.23	10.31	-53.3	-56.0	14.0	0.00e+00	0	23	0	161480704	73	4711
2026-01-10 06:26:22.54	73.12	10.39	-53.3	-55.9	14.0	0.00e+00	0	23	0	163577856	73	4656
2026-01-10 06:26:23.55	73.02	10.46	-53.1	-55.6	14.0	0.00e+00	0	23	0	165675008	72	4808
2026-01-10 06:26:24.55	72.91	10.53	-53.0	-55.5	14.1	0.00e+00	0	23	0	166723584	72	4729
2026-01-10 06:26:25.55	72.80	10.60	-53.0	-55.5	14.1	0.00e+00	0	23	0	168820736	72	4722
2026-01-10 06:26:26.55	72.70	10.68	-53.1	-55.6	14.1	0.00e+00	0	23	0	170917888	72	4775
2026-01-10 06:26:27.55	72.59	10.75	-53.1	-55.6	14.1	0.00e+00	0	23	0	173015040	72	4767
2026-01-10 06:26:28.55	72.48	10.82	-53.0	-55.4	14.2	0.00e+00	0	23	0	175112192	72	4681
2026-01-10 06:26:29.56	72.37	10.89	-53.0	-55.4	14.2	0.00e+00	0	23	0	177209344	72	4681
2026-01-10 06:26:30.56	72.26	10.97	-52.9	-55.4	14.2	0.00e+00	0	23	0	178257920	72	4652
2026-01-10 06:26:31.56	72.15	11.04	-52.9	-55.3	14.2	0.00e+00	0	23	0	180355072	72	4651
2026-01-10 06:26:32.56	72.04	11.11	-52.9	-55.4	14.3	0.00e+00	0	23	0	182452224	72	4659
2026-01-10 06:26:33.56	71.93	11.19	-52.9	-55.3	14.3	0.00e+00	0	23	0	184549376	72	4646
2026-01-10 06:26:34.55	71.82	11.26	-52.9	-55.4	14.2	0.00e+00	0	23	0	185597952	72	4661
2026-01-10 06:26:35.55	71.71	11.33	-52.9	-55.3	14.3	0.00e+00	0	23	0	187695104	72	4641
2026-01-10 06:26:36.55	71.60	11.41	-52.9	-55.3	14.3	0.00e+00	0	23	0	189792256	72	4624
2026-01-10 06:26:37.55	71.49	11.48	-52.9	-55.2	14.3	0.00e+00	0	23	0	191889408	72	4597
2026-01-10 06:26:38.54	71.37	11.55	-52.9	-55.3	14.3	0.00e+00	0	23	0	193986560	72	4628
2026-01-10 06:26:39.54	71.26	11.63	-52.9	-55.3	14.3	0.00e+00	0	23	0	195035136	72	4651
2026-01-10 06:26:40.54	71.15	11.70	-53.0	-55.5	14.2	0.00e+00	0	23	0	197132288	72	4712
2026-01-10 06:26:41.53	71.03	11.77	-53.0	-55.4	14.2	0.00e+00	0	23	0	199229440	72	4677
2026-01-10 06:26:42.53	70.92	11.85	-53.1	-55.5	14.1	0.00e+00	0	23	0	201326592	72	4749
2026-01-10 06:26:43.52	70.80	11.92	-53.0	-55.4	14.2	0.00e+00	0	23	0	202375168	72	4687
2026-01-10 06:26:44.51	70.69	12.00	-53.0	-55.4	14.2	0.00e+00	0	23	0	204472320	72	4679
2026-01-10 06:26:45.51	70.57	12.07	-53.0	-55.4	14.2	0.00e+00	0	23	0	206569472	72	4695
2026-01-10 06:26:46.51	70.45	12.15	-53.0	-55.4	14.3	0.00e+00	0	23	0	208666624	72	4653
2026-01-10 06:26:47.50	70.33	12.22	-53.0	-55.4	14.2	0.00e+00	0	23	0	210763776	72	4697
2026-01-10 06:26:48.51	70.21	12.30	-53.0	-55.4	14.3	0.00e+00	0	23	0	211812352	72	4653
2026-01-10 06:26:49.50	70.09	12.37	-52.9	-55.3	14.3	0.00e+00	0	23	0	213909504	72	4620
2026-01-10 06:26:50.50	69.97	12.44	-53.0	-55.4	14.3	0.00e+00	0	23	0	216006656	72	4659
2026-01-10 06:26:51.50	69.85	12.52	-52.9	-55.3	14.3	0.00e+00	0	23	0	218103808	72	4600
2026-01-10 06:26:52.50	69.73	12.60	-52.8	-55.1	14.4	0.00e+00	0	23	0	219152384	72	4522
2026-01-10 06:26:53.50	69.61	12.67	-52.7	-55.0	14.5	0.00e+00	0	23	0	221249536	72	4486
2026-01-10 06:26:54.50	69.48	12.75	-52.8	-55.0	14.5	0.00e+00	0	23	0	223346688	72	4487
2026-01-10 06:26:55.50	69.36	12.82	-52.7	-55.0	14.5	0.00e+00	0	23	0	225443840	72	4448
2026-01-10 06:26:56.50	69.23	12.90	-52.7	-55.0	14.5	0.00e+00	0	23	0	227540992	72	4460
2026-01-10 06:26:57.50	69.11	12.97	-52.7	-54.9	14.5	0.00e+00	0	23	0	228589568	72	4441
2026-01-10 06:26:58.49	68.98	13.05	-52.7	-55.0	14.6	0.00e+00	0	23	0	230686720	72	4443
2026-01-10 06:26:59.49	68.86	13.12	-52.6	-54.9	14.4	0.00e+00	0	23	0	232783872	71	4660
2026-01-10 06:27:00.49	68.73	13.20	-52.7	-55.0	14.4	0.00e+00	0	23	0	234881024	71	4711
2026-01-10 06:27:01.49	68.60	13.28	-52.6	-54.9	14.4	0.00e+00	0	23	0	236978176	71	4662
2026-01-10 06:27:02.48	68.48	13.35	-52.7	-55.0	14.4	0.00e+00	0	23	0	238026752	71	4707
2026-01-10 06:27:03.48	68.35	13.43	-52.6	-54.9	14.4	0.00e+00	0	23	0	240123904	71	4659
2026-01-10 06:27:04.47	68.22	13.50	-52.6	-54.8	14.4	0.00e+00	0	23	0	242221056	71	4645
2026-01-10 06:27:05.47	68.09	13.58	-52.7	-54.9	14.4	0.00e+00	0	23	0	244318208	71	4702
2026-01-10 06:27:06.46	67.96	13.66	-52.6	-54.9	14.4	0.00e+00	0	23	0	245366784	71	4661
2026-01-10 06:27:07.45	67.83	13.73	-52.6	-54.8	14.5	0.00e+00	0	23	0	247463936	71	4626
2026-01-10 06:27:08.45	67.69	13.81	-52.6	-54.8	14.5	0.00e+00	0	23	0	249561088	71	4638
2026-01-10 06:27:09.45	67.56	13.89	-52.4	-54.6	14.6	0.00e+00	0	23	0	251658240	71	4535
2026-01-10 06:27:10.45	67.43	13.96	-52.4	-54.6	14.6	0.00e+00	0	23	0	253755392	71	4512
2026-01-10 06:27:11.46	67.29	14.04	-52.5	-54.6	14.6	0.00e+00	0	23	0	254803968	71	4539
2026-01-10 06:27:12.46	67.16	14.12	-52.5	-54.6	14.6	0.00e+00	0	23	0	256901120	71	4532
2026-01-10 06:27:13.47	67.02	14.20	-52.5	-54.6	14.6	0.00e+00	0	23	0	258998272	71	4545
2026-01-10 06:27:14.46	66.88	14.27	-52.5	-54.6	14.6	0.00e+00	0	23	0	261095424	71	4538
2026-01-10 06:27:15.46	66.74	14.35	-52.4	-54.5	14.7	0.00e+00	0	23	0	263192576	71	4468
2026-01-10 06:27:16.45	66.61	14.43	-52.4	-54.6	14.6	0.00e+00	0	23	0	264241152	71	4529
2026-01-10 06:27:17.45	66.47	14.51	-52.4	-54.5	14.7	0.00e+00	0	23	0	266338304	71	4483
2026-01-10 06:27:18.44	66.33	14.58	-52.5	-54.6	14.6	0.00e+00	0	23	0	268435456	71	4531
2026-01-10 06:27:19.44	66.19	14.66	-52.4	-54.5	14.7	0.00e+00	0	23	0	270532608	71	4488
2026-01-10 06:27:20.43	66.05	14.74	-52.4	-54.6	14.6	0.00e+00	0	23	0	271581184	71	4507
2026-01-10 06:27:21.42	65.91	14.81	-52.4	-54.6	14.6	0.00e+00	0	23	0	273678336	71	4503
2026-01-10 06:27:22.42	65.77	14.89	-52.4	-54.5	14.7	0.00e+00	0	23	0	275775488	71	4486
2026-01-10 06:27:23.42	65.62	14.97	-52.3	-54.4	14.7	0.00e+00	0	23	0	277872640	71	4435
2026-01-10 06:27:24.42	65.48	15.05	-52.3	-54.4	14.7	0.00e+00	0	23	0	279969792	71	4437
2026-01-10 06:27:25.42	65.33	15.13	-52.3	-54.4	14.7	0.00e+00	0	23	0	281018368	71	4438
2026-01-10 06:27:26.41	65.19	15.20	-52.3	-54.4	14.7	0.00e+00	0	23	0	283115520	71	4441
2026-01-10 06:27:27.41	65.04	15.28	-52.3	-54.4	14.7	0.00e+00	0	23	0	285212672	71	4437
2026-01-10 06:27:28.41	64.89	15.36	-52.4	-54.5	14.7	0.00e+00	0	23	0	287309824	71	4467
2026-01-10 06:27:29.41	64.75	15.44	-52.3	-54.4	14.7	0.00e+00	0	23	0	289406976	71	4421
2026-01-10 06:27:30.41	64.60	15.52	-52.3	-54.4	14.7	0.00e+00	0	23	0	290455552	71	4434
2026-01-10 06:27:31.41	64.45	15.60	-52.3	-54.4	14.8	0.00e+00	0	23	0	292552704	71	4397
2026-01-10 06:27:32.41	64.30	15.67	-52.1	-54.1	14.8	0.00e+00	0	23	0	294649856	70	4524
2026-01-10 06:27:33.41	64.15	15.75	-52.1	-54.2	14.7	0.00e+00	0	23	0	296747008	70	4566
2026-01-10 06:27:34.41	63.99	15.83	-52.2	-54.2	14.7	0.00e+00	0	23	0	297795584	70	4583
2026-01-10 06:27:35.40	63.84	15.91	-52.2	-54.2	14.7	0.00e+00	0	23	0	299892736	70	4584
2026-01-10 06:27:36.40	63.69	15.99	-52.2	-54.3	14.7	0.00e+00	0	23	0	301989888	70	4607
2026-01-10 06:27:37.40	63.53	16.07	-52.3	-54.3	14.6	0.00e+00	0	23	0	304087040	70	4642
2026-01-10 06:27:38.40	63.38	16.15	-52.1	-54.2	14.7	0.00e+00	0	23	0	306184192	70	4553
2026-01-10 06:27:39.40	63.22	16.22	-52.3	-54.4	14.6	0.00e+00	0	23	0	307232768	70	4688
2026-01-10 06:27:40.40	63.06	16.30	-52.3	-54.4	14.6	0.00e+00	0	23	0	309329920	70	4662
2026-01-10 06:27:41.39	62.91	16.38	-52.3	-54.4	14.6	0.00e+00	0	23	0	311427072	70	4693
2026-01-10 06:27:42.38	62.75	16.46	-52.3	-54.4	14.5	0.00e+00	0	23	0	313524224	70	4701
2026-01-10 06:27:43.38	62.59	16.54	-52.4	-54.5	14.5	0.00e+00	0	24	0	314572800	70	4740
2026-01-10 06:27:44.38	62.43	16.62	-52.4	-54.5	14.5	0.00e+00	0	23	0	316669952	70	4734
2026-01-10 06:27:45.38	62.27	16.70	-52.4	-54.5	14.5	0.00e+00	0	23	0	318767104	70	4723
2026-01-10 06:27:46.38	62.11	16.78	-52.4	-54.6	14.5	0.00e+00	0	23	0	320864256	70	4766
2026-01-10 06:27:47.38	61.94	16.85	-52.4	-54.6	14.5	0.00e+00	0	23	0	322961408	70	4766
2026-01-10 06:27:48.38	61.78	16.93	-52.4	-54.5	14.5	0.00e+00	0	23	0	324009984	70	4754
2026-01-10 06:27:49.37	61.61	17.01	-52.3	-54.4	14.6	0.00e+00	0	23	0	326107136	70	4680
2026-01-10 06:27:50.36	61.45	17.09	-52.3	-54.4	14.6	0.00e+00	0	23	0	328204288	70	4685
2026-01-10 06:27:51.35	61.29	17.17	-52.3	-54.4	14.6	0.00e+00	0	23	0	330301440	70	4686
2026-01-10 06:27:52.35	61.12	17.25	-52.4	-54.5	14.5	0.00e+00	0	23	0	331350016	70	4723
2026-01-10 06:27:53.35	60.95	17.33	-52.4	-54.5	14.5	0.00e+00	0	23	0	333447168	70	4740
2026-01-10 06:27:54.36	60.78	17.41	-52.5	-54.6	14.5	0.00e+00	0	23	0	335544320	70	4798
2026-01-10 06:27:55.35	60.61	17.48	-52.4	-54.5	14.5	0.00e+00	0	23	0	337641472	70	4744
2026-01-10 06:27:56.36	60.44	17.56	-52.4	-54.5	14.5	0.00e+00	0	23	0	339738624	70	4749
2026-01-10 06:27:57.36	60.27	17.64	-52.4	-54.5	14.6	0.00e+00	0	23	0	341835776	70	4743
2026-01-10 06:27:58.36	60.09	17.72	-52.4	-54.6	14.5	0.00e+00	0	24	0	342884352	70	4762
2026-01-10 06:27:59.36	59.92	17.80	-52.4	-54.5	14.5	0.00e+00	0	23	0	344981504	70	4737
2026-01-10 06:28:00.35	59.75	17.88	-52.4	-54.5	14.5	0.00e+00	0	23	0	347078656	70	4727
2026-01-10 06:28:01.36	59.57	17.96	-52.3	-54.4	14.6	0.00e+00	0	23	0	349175808	70	4686
2026-01-10 06:28:02.36	59.39	18.04	-52.4	-54.5	14.6	0.00e+00	0	23	0	350224384	70	4720
2026-01-10 06:28:03.36	59.21	18.12	-52.5	-54.6	14.4	0.00e+00	0	23	0	352321536	70	4813
2026-01-10 06:28:04.35	59.04	18.20	-52.4	-54.6	14.5	0.00e+00	0	23	0	354418688	70	4771
2026-01-10 06:28:05.35	58.86	18.27	-52.5	-54.7	14.4	0.00e+00	0	23	0	356515840	70	4832
2026-01-10 06:28:06.35	58.68	18.35	-52.6	-54.8	14.4	0.00e+00	0	23	0	358612992	70	4881
2026-01-10 06:28:07.35	58.49	18.43	-52.7	-54.9	14.3	0.00e+00	0	24	0	359661568	70	4982
2026-01-10 06:28:08.35	58.31	18.51	-52.7	-54.9	14.3	0.00e+00	0	23	0	361758720	70	4941
2026-01-10 06:28:09.35	58.13	18.59	-52.6	-54.8	14.4	0.00e+00	0	24	0	363855872	70	4905
2026-01-10 06:28:10.35	57.94	18.67	-52.6	-54.9	14.3	0.00e+00	0	23	0	365953024	70	4940
2026-01-10 06:28:11.35	57.76	18.75	-52.6	-54.8	14.4	0.00e+00	0	23	0	368050176	70	4910
2026-01-10 06:28:12.36	57.57	18.83	-52.5	-54.6	14.5	0.00e+00	0	23	0	369098752	70	4813
2026-01-10 06:28:13.36	57.38	18.90	-52.5	-54.6	14.5	0.00e+00	0	23	0	371195904	70	4779
2026-01-10 06:28:14.36	57.20	18.98	-52.3	-54.4	14.6	0.00e+00	0	23	0	373293056	70	4672
2026-01-10 06:28:15.36	57.01	19.06	-52.3	-54.4	14.6	0.00e+00	0	23	0	375390208	70	4673
2026-01-10 06:28:16.36	56.82	19.14	-52.3	-54.3	14.6	0.00e+00	0	23	0	376438784	70	4649
2026-01-10 06:28:17.36	56.63	19.22	-52.1	-54.2	14.8	0.00e+00	0	23	0	378535936	70	4556
2026-01-10 06:28:18.36	56.43	19.29	-52.1	-54.1	14.8	0.00e+00	0	23	0	380633088	70	4524
2026-01-10 06:28:19.35	56.24	19.37	-52.2	-54.2	14.7	0.00e+00	0	23	0	382730240	70	4556
2026-01-10 06:28:20.35	56.05	19.45	-52.1	-54.1	14.8	0.00e+00	0	23	0	384827392	70	4528
2026-01-10 06:28:21.35	55.85	19.53	-52.2	-54.2	14.7	0.00e+00	0	23	0	385875968	70	4581
2026-01-10 06:28:22.35	55.66	19.60	-52.2	-54.2	14.7	0.00e+00	0	23	0	387973120	70	4589
2026-01-10 06:28:23.34	55.46	19.68	-52.1	-54.0	14.8	0.00e+00	0	23	0	390070272	70	4487
2026-01-10 06:28:24.34	55.26	19.76	-52.0	-54.0	14.8	0.00e+00	0	24	0	392167424	70	4479
2026-01-10 06:28:25.35	55.06	19.84	-52.1	-54.1	14.8	0.00e+00	0	23	0	393216000	70	4494
2026-01-10 06:28:26.35	54.86	19.91	-52.0	-53.9	14.9	0.00e+00	0	23	0	395313152	70	4413
2026-01-10 06:28:27.35	54.66	19.99	-51.9	-53.8	15.0	0.00e+00	0	23	0	397410304	70	4389
2026-01-10 06:28:28.35	54.46	20.07	-51.8	-53.7	15.0	0.00e+00	0	23	0	399507456	70	4337
2026-01-10 06:28:29.35	54.26	20.14	-51.8	-53.7	15.0	0.00e+00	0	23	0	401604608	70	4306
2026-01-10 06:28:30.35	54.05	20.22	-51.8	-53.7	15.0	0.00e+00	0	24	0	402653184	70	4295
2026-01-10 06:28:31.34	53.85	20.30	-51.8	-53.6	15.1	0.00e+00	0	24	0	404750336	70	4283
2026-01-10 06:28:32.34	53.64	20.37	-51.6	-53.5	15.0	0.00e+00	0	23	0	406847488	69	4446
2026-01-10 06:28:33.34	53.43	20.45	-51.6	-53.5	15.0	0.00e+00	0	23	0	408944640	69	4454
2026-01-10 06:28:34.34	53.23	20.52	-51.5	-53.4	15.0	0.00e+00	0	23	0	411041792	69	4409
2026-01-10 06:28:35.34	53.02	20.60	-51.5	-53.3	15.1	0.00e+00	0	23	0	412090368	69	4350
2026-01-10 06:28:36.34	52.81	20.67	-51.3	-53.1	15.2	0.00e+00	0	23	0	414187520	69	4257
2026-01-10 06:28:37.34	52.60	20.75	-51.2	-52.9	15.3	0.00e+00	0	23	0	416284672	69	4176
2026-01-10 06:28:38.34	52.38	20.82	-51.0	-52.7	15.2	0.00e+00	0	23	0	418381824	68	4304
2026-01-10 06:28:39.34	52.17	20.90	-50.9	-52.5	15.3	0.00e+00	0	23	0	420478976	68	4235
2026-01-10 06:28:40.33	51.96	20.97	-50.8	-52.5	15.4	0.00e+00	0	23	0	421527552	68	4215
2026-01-10 06:28:41.33	51.74	21.05	-50.8	-52.5	15.4	0.00e+00	0	23	0	423624704	68	4206
2026-01-10 06:28:42.33	51.52	21.12	-50.7	-52.3	15.4	0.00e+00	0	23	0	425721856	68	4141
2026-01-10 06:28:43.33	51.31	21.20	-50.4	-52.0	15.4	0.00e+00	0	23	0	427819008	67	4223
2026-01-10 06:28:44.32	51.09	21.27	-50.5	-52.1	15.3	0.00e+00	0	23	0	428867584	67	4253
2026-01-10 06:28:45.31	50.87	21.34	-50.5	-52.2	15.3	0.00e+00	0	23	0	430964736	67	4292
2026-01-10 06:28:46.30	50.65	21.42	-50.6	-52.3	15.2	0.00e+00	0	23	0	433061888	67	4348
2026-01-10 06:28:47.30	50.43	21.49	-50.6	-52.2	15.3	0.00e+00	0	24	0	435159040	67	4334
2026-01-10 06:28:48.30	50.21	21.56	-50.5	-52.1	15.3	0.00e+00	0	23	0	437256192	67	4281
2026-01-10 06:28:49.30	49.98	21.63	-50.4	-52.0	15.4	0.00e+00	0	23	0	438304768	67	4239
2026-01-10 06:28:50.30	49.76	21.71	-50.5	-52.1	15.3	0.00e+00	0	23	0	440401920	67	4285
2026-01-10 06:28:51.30	49.53	21.78	-50.5	-52.1	15.3	0.00e+00	0	23	0	442499072	67	4277
2026-01-10 06:28:52.31	49.30	21.85	-50.5	-52.2	15.3	0.00e+00	0	23	0	444596224	67	4303
2026-01-10 06:28:53.30	49.08	21.92	-50.5	-52.2	15.3	0.00e+00	0	23	0	446693376	67	4308
2026-01-10 06:28:54.30	48.85	21.99	-50.5	-52.1	15.4	0.00e+00	0	23	0	447741952	67	4255
2026-01-10 06:28:55.29	48.62	22.06	-50.6	-52.2	15.3	0.00e+00	0	23	0	449839104	67	4305
2026-01-10 06:28:56.29	48.39	22.13	-50.4	-52.0	15.4	0.00e+00	0	23	0	451936256	67	4205
2026-01-10 06:28:57.29	48.16	22.20	-50.3	-51.9	15.4	0.00e+00	0	23	0	454033408	67	4185
2026-01-10 06:28:58.28	47.92	22.27	-50.3	-51.9	15.4	0.00e+00	0	23	0	455081984	67	4181
2026-01-10 06:28:59.29	47.69	22.34	-50.3	-52.0	15.4	0.00e+00	0	24	0	457179136	67	4195
2026-01-10 06:29:00.29	47.45	22.41	-50.3	-51.9	15.4	0.00e+00	0	23	0	459276288	67	4163
2026-01-10 06:29:01.30	47.21	22.48	-50.3	-51.9	15.4	0.00e+00	0	23	0	461373440	67	4154
2026-01-10 06:29:02.29	46.98	22.55	-50.4	-51.9	15.4	0.00e+00	0	23	0	463470592	67	4191
2026-01-10 06:29:03.29	46.74	22.62	-50.2	-51.8	15.5	0.00e+00	0	24	0	464519168	67	4111
2026-01-10 06:29:04.29	46.50	22.69	-50.3	-51.9	15.4	0.00e+00	0	23	0	466616320	67	4171
2026-01-10 06:29:05.29	46.26	22.75	-50.2	-51.8	15.5	0.00e+00	0	23	0	468713472	67	4112
2026-01-10 06:29:06.29	46.01	22.82	-50.3	-51.9	15.5	0.00e+00	0	23	0	470810624	67	4157
2026-01-10 06:29:07.30	45.77	22.89	-50.4	-52.0	15.4	0.00e+00	0	23	0	472907776	67	4198
2026-01-10 06:29:08.30	45.52	22.96	-50.5	-52.2	15.3	0.00e+00	0	23	0	473956352	67	4297
2026-01-10 06:29:09.29	45.28	23.02	-50.6	-52.2	15.3	0.00e+00	0	23	0	476053504	67	4329
2026-01-10 06:29:10.29	45.04	23.09	-50.6	-52.2	15.3	0.00e+00	0	23	0	478150656	67	4327
2026-01-10 06:29:11.29	44.79	23.15	-50.7	-52.4	15.2	0.00e+00	0	24	0	480247808	67	4400
2026-01-10 06:29:12.28	44.54	23.22	-50.6	-52.3	15.2	0.00e+00	0	23	0	481296384	67	4341
2026-01-10 06:29:13.28	44.29	23.28	-50.5	-52.1	15.3	0.00e+00	0	23	0	483393536	67	4284
2026-01-10 06:29:14.28	44.04	23.34	-50.6	-52.2	15.3	0.00e+00	0	23	0	485490688	67	4317
2026-01-10 06:29:15.28	43.79	23.41	-50.6	-52.2	15.3	0.00e+00	0	23	0	487587840	67	4338
2026-01-10 06:29:16.28	43.54	23.47	-50.7	-52.3	15.2	0.00e+00	0	23	0	489684992	67	4371
2026-01-10 06:29:17.27	43.29	23.53	-50.6	-52.3	15.3	0.00e+00	0	23	0	490733568	67	4356
2026-01-10 06:29:18.27	43.03	23.59	-50.6	-52.3	15.3	0.00e+00	0	23	0	492830720	67	4343
2026-01-10 06:29:19.27	42.78	23.66	-50.6	-52.3	15.3	0.00e+00	0	23	0	494927872	67	4349
2026-01-10 06:29:20.27	42.52	23.72	-50.5	-52.2	15.3	0.00e+00	0	23	0	497025024	67	4304
2026-01-10 06:29:21.27	42.26	23.78	-50.4	-52.0	15.4	0.00e+00	0	23	0	499122176	67	4220
2026-01-10 06:29:22.27	42.00	23.84	-50.4	-52.0	15.4	0.00e+00	0	24	0	500170752	67	4222
2026-01-10 06:29:23.27	41.75	23.90	-50.4	-52.0	15.4	0.00e+00	0	23	0	502267904	67	4216
2026-01-10 06:29:24.27	41.48	23.96	-50.4	-52.0	15.4	0.00e+00	0	23	0	504365056	67	4221
2026-01-10 06:29:25.27	41.22	24.02	-50.5	-52.1	15.4	0.00e+00	0	23	0	506462208	67	4261
2026-01-10 06:29:26.27	40.96	24.07	-50.4	-52.0	15.4	0.00e+00	0	23	0	507510784	67	4198
2026-01-10 06:29:27.27	40.70	24.13	-50.4	-52.0	15.4	0.00e+00	0	23	0	509607936	67	4219
2026-01-10 06:29:28.27	40.43	24.19	-50.3	-51.8	15.5	0.00e+00	0	24	0	511705088	67	4128
2026-01-10 06:29:29.27	40.17	24.25	-50.3	-51.9	15.5	0.00e+00	0	23	0	513802240	67	4152
2026-01-10 06:29:30.27	39.90	24.30	-50.4	-52.0	15.4	0.00e+00	0	23	0	515899392	67	4216
2026-01-10 06:29:31.27	39.63	24.36	-50.3	-51.9	15.4	0.00e+00	0	23	0	516947968	67	4182
2026-01-10 06:29:32.27	39.37	24.41	-50.2	-51.7	15.6	0.00e+00	0	23	0	519045120	67	4089
2026-01-10 06:29:33.27	39.10	24.47	-50.1	-51.6	15.4	0.00e+00	0	23	0	521142272	66	4276
2026-01-10 06:29:34.27	38.83	24.52	-50.1	-51.6	15.4	0.00e+00	0	23	0	523239424	66	4269
2026-01-10 06:29:35.27	38.55	24.57	-50.0	-51.5	15.5	0.00e+00	0	23	0	525336576	66	4237
2026-01-10 06:29:36.27	38.28	24.63	-49.9	-51.4	15.5	0.00e+00	0	23	0	526385152	66	4193
2026-01-10 06:29:37.26	38.01	24.68	-50.0	-51.5	15.5	0.00e+00	0	23	0	528482304	66	4200
2026-01-10 06:29:38.25	37.74	24.73	-49.9	-51.4	15.5	0.00e+00	0	23	0	530579456	66	4164
2026-01-10 06:29:39.24	37.47	24.78	-49.9	-51.4	15.5	0.00e+00	0	24	0	532676608	66	4184
2026-01-10 06:29:40.24	37.19	24.83	-50.0	-51.6	15.5	0.00e+00	0	23	0	533725184	66	4252
2026-01-10 06:29:41.25	36.91	24.88	-50.2	-51.7	15.4	0.00e+00	0	23	0	535822336	66	4332
2026-01-10 06:29:42.25	36.64	24.93	-50.3	-51.9	15.3	0.00e+00	0	23	0	537919488	66	4413
2026-01-10 06:29:43.24	36.36	24.98	-50.4	-52.0	15.2	0.00e+00	0	23	0	540016640	66	4483
2026-01-10 06:29:44.24	36.08	25.02	-50.5	-52.1	15.2	0.00e+00	0	23	0	542113792	66	4523
2026-01-10 06:29:45.24	35.80	25.07	-50.4	-52.0	15.2	0.00e+00	0	23	0	543162368	66	4486
2026-01-10 06:29:46.25	35.52	25.12	-50.5	-52.2	15.2	0.00e+00	0	23	0	545259520	66	4556
2026-01-10 06:29:47.25	35.24	25.16	-50.6	-52.2	15.1	0.00e+00	0	23	0	547356672	66	4589
2026-01-10 06:29:48.24	34.96	25.21	-50.7	-52.4	15.1	0.00e+00	0	23	0	549453824	66	4667
2026-01-10 06:29:49.24	34.68	25.25	-50.7	-52.4	15.0	0.00e+00	0	23	0	551550976	66	4664
2026-01-10 06:29:50.24	34.39	25.29	-50.6	-52.3	15.1	0.00e+00	0	23	0	552599552	66	4619
2026-01-10 06:29:51.23	34.11	25.34	-50.8	-52.4	15.0	0.00e+00	0	23	0	554696704	66	4705
2026-01-10 06:29:52.23	33.82	25.38	-50.9	-52.6	15.0	0.00e+00	0	23	0	556793856	66	4782
2026-01-10 06:29:53.23	33.54	25.42	-51.0	-52.7	15.0	0.00e+00	0	23	0	558891008	67	4590
2026-01-10 06:29:54.22	33.25	25.46	-51.1	-52.9	15.0	0.00e+00	0	23	0	559939584	67	4663
2026-01-10 06:29:55.22	32.97	25.50	-51.3	-53.1	14.8	0.00e+00	0	23	0	562036736	67	4811
2026-01-10 06:29:56.21	32.68	25.54	-51.2	-53.0	14.9	0.00e+00	0	23	0	564133888	67	4750
2026-01-10 06:29:57.21	32.39	25.58	-51.3	-53.1	14.8	0.00e+00	0	23	0	566231040	67	4808
2026-01-10 06:29:58.21	32.10	25.62	-51.6	-53.4	14.9	0.00e+00	0	23	0	568328192	68	4676
2026-01-10 06:29:59.20	31.81	25.65	-51.6	-53.5	14.9	0.00e+00	0	23	0	569376768	68	4723
2026-01-10 06:30:00.20	31.52	25.69	-51.6	-53.4	14.9	0.00e+00	0	23	0	571473920	68	4698
2026-01-10 06:30:01.20	31.23	25.72	-51.6	-53.5	14.9	0.00e+00	0	23	0	573571072	68	4713
2026-01-10 06:30:02.21	30.94	25.76	-51.7	-53.6	14.8	0.00e+00	0	23	0	575668224	68	4767
2026-01-10 06:30:03.19	30.65	25.79	-51.8	-53.7	14.7	0.00e+00	0	23	0	576716800	68	4830
2026-01-10 06:30:04.19	30.35	25.82	-51.9	-53.8	14.7	0.00e+00	0	23	0	578813952	68	4922
2026-01-10 06:30:05.19	30.06	25.86	-52.0	-53.9	14.8	0.00e+00	0	23	0	580911104	69	4686
2026-01-10 06:30:06.19	29.76	25.89	-51.9	-53.8	14.8	0.00e+00	0	23	0	583008256	69	4628
2026-01-10 06:30:07.19	29.47	25.92	-51.9	-53.8	14.9	0.00e+00	0	23	0	585105408	69	4620
2026-01-10 06:30:08.19	29.17	25.95	-51.9	-53.8	14.8	0.00e+00	0	23	0	586153984	69	4648
2026-01-10 06:30:09.19	28.88	25.98	-52.0	-53.9	14.8	0.00e+00	0	23	0	588251136	69	4693
2026-01-10 06:30:10.19	28.58	26.01	-52.1	-54.0	14.7	0.00e+00	0	23	0	590348288	69	4731
2026-01-10 06:30:11.20	28.28	26.03	-52.0	-53.9	14.8	0.00e+00	0	23	0	592445440	69	4696
2026-01-10 06:30:12.20	27.98	26.06	-52.0	-54.0	14.8	0.00e+00	0	23	0	594542592	69	4709
2026-01-10 06:30:13.19	27.68	26.09	-51.9	-53.8	14.9	0.00e+00	0	23	0	595591168	69	4619
2026-01-10 06:30:14.20	27.38	26.11	-52.0	-53.9	14.8	0.00e+00	0	23	0	597688320	69	4667
2026-01-10 06:30:15.20	27.08	26.14	-52.1	-54.1	14.7	0.00e+00	0	23	0	599785472	69	4766
2026-01-10 06:30:16.20	26.78	26.16	-52.2	-54.2	14.6	0.00e+00	0	23	0	601882624	69	4828
2026-01-10 06:30:17.20	26.48	26.18	-52.2	-54.2	14.6	0.00e+00	0	23	0	602931200	69	4860
2026-01-10 06:30:18.20	26.18	26.20	-52.1	-54.1	14.7	0.00e+00	0	23	0	605028352	69	4786
2026-01-10 06:30:19.20	25.88	26.22	-52.1	-54.0	14.7	0.00e+00	0	23	0	607125504	69	4755
2026-01-10 06:30:20.19	25.58	26.24	-52.3	-54.3	14.6	0.00e+00	0	23	0	609222656	69	4902
2026-01-10 06:30:21.20	25.28	26.26	-52.3	-54.3	14.6	0.00e+00	0	23	0	611319808	69	4904
2026-01-10 06:30:22.20	24.97	26.28	-52.5	-54.5	14.5	0.00e+00	0	23	0	612368384	70	4736
2026-01-10 06:30:23.19	24.67	26.30	-52.3	-54.4	14.7	0.00e+00	0	23	0	614465536	70	4652
2026-01-10 06:30:24.20	24.37	26.31	-52.3	-54.3	14.8	0.00e+00	0	23	0	616562688	70	4603
2026-01-10 06:30:25.20	24.06	26.33	-52.2	-54.2	14.8	0.00e+00	0	23	0	618659840	70	4571
2026-01-10 06:30:26.20	23.76	26.34	-52.3	-54.3	14.8	0.00e+00	0	23	0	620756992	70	4605
2026-01-10 06:30:27.20	23.46	26.36	-52.4	-54.5	14.7	0.00e+00	0	23	0	621805568	70	4716
2026-01-10 06:30:28.20	23.15	26.37	-52.6	-54.7	14.5	0.00e+00	0	23	0	623902720	70	4829
2026-01-10 06:30:29.21	22.84	26.38	-52.6	-54.7	14.5	0.00e+00	0	23	0	625999872	70	4821
2026-01-10 06:30:30.21	22.54	26.39	-52.6	-54.7	14.5	0.00e+00	0	23	0	628097024	70	4834
2026-01-10 06:30:31.21	22.24	26.40	-52.4	-54.4	14.6	0.00e+00	0	23	0	630194176	70	4695
2026-01-10 06:30:32.21	21.93	26.41	-52.4	-54.4	14.7	0.00e+00	0	23	0	631242752	70	4662
2026-01-10 06:30:33.21	21.62	26.42	-52.4	-54.4	14.7	0.00e+00	0	23	0	633339904	70	4653
2026-01-10 06:30:34.21	21.32	26.43	-52.3	-54.2	14.8	0.00e+00	0	23	0	635437056	70	4594
2026-01-10 06:30:35.21	21.01	26.44	-52.2	-54.2	14.8	0.00e+00	0	23	0	637534208	70	4563
2026-01-10 06:30:36.20	20.71	26.44	-52.0	-53.9	14.9	0.00e+00	0	23	0	639631360	70	4440
2026-01-10 06:30:37.20	20.41	26.45	-51.9	-53.7	15.1	0.00e+00	0	24	0	640679936	70	4323
2026-01-10 06:30:38.20	20.10	26.45	-51.8	-53.7	15.1	0.00e+00	0	23	0	642777088	70	4312
2026-01-10 06:30:39.20	19.79	26.45	-51.9	-53.8	15.1	0.00e+00	0	23	0	644874240	70	4346
2026-01-10 06:30:40.19	19.49	26.46	-51.9	-53.8	15.0	0.00e+00	0	23	0	646971392	70	4367
2026-01-10 06:30:41.19	19.18	26.46	-51.9	-53.8	15.0	0.00e+00	0	23	0	648019968	70	4375
2026-01-10 06:30:42.19	18.88	26.46	-51.9	-53.7	15.1	0.00e+00	0	23	0	650117120	70	4332
2026-01-10 06:30:43.19	18.57	26.46	-51.7	-53.6	15.2	0.00e+00	0	23	0	652214272	70	4245
2026-01-10 06:30:44.18	18.27	26.46	-51.5	-53.2	15.2	0.00e+00	0	23	0	654311424	69	4317
2026-01-10 06:30:45.17	17.97	26.45	-51.3	-53.0	15.3	0.00e+00	0	23	0	656408576	69	4224
2026-01-10 06:30:46.17	17.66	26.45	-51.4	-53.1	15.2	0.00e+00	0	23	0	657457152	69	4253
2026-01-10 06:30:47.18	17.35	26.45	-51.3	-53.0	15.3	0.00e+00	0	23	0	659554304	69	4230
2026-01-10 06:30:48.17	17.05	26.44	-51.3	-53.0	15.3	0.00e+00	0	24	0	661651456	69	4196
2026-01-10 06:30:49.17	16.74	26.44	-51.2	-52.9	15.4	0.00e+00	0	23	0	663748608	69	4160
2026-01-10 06:30:50.17	16.44	26.43	-51.1	-52.8	15.2	0.00e+00	0	23	0	665845760	68	4379
2026-01-10 06:30:51.16	16.14	26.42	-51.1	-52.8	15.2	0.00e+00	0	23	0	666894336	68	4370
2026-01-10 06:30:52.16	15.83	26.41	-51.0	-52.6	15.3	0.00e+00	0	23	0	668991488	68	4278
2026-01-10 06:30:53.15	15.53	26.40	-51.0	-52.6	15.3	0.00e+00	0	23	0	671088640	68	4280
2026-01-10 06:30:54.14	15.23	26.39	-51.0	-52.6	15.3	0.00e+00	0	23	0	673185792	68	4285
2026-01-10 06:30:55.14	14.92	26.38	-51.1	-52.8	15.2	0.00e+00	0	23	0	674234368	68	4366
2026-01-10 06:30:56.13	14.62	26.37	-51.0	-52.6	15.3	0.00e+00	0	23	0	676331520	68	4274
2026-01-10 06:30:57.12	14.32	26.36	-50.8	-52.4	15.4	0.00e+00	0	23	0	678428672	68	4180
2026-01-10 06:30:58.11	14.02	26.34	-50.7	-52.2	15.5	0.00e+00	0	23	0	680525824	68	4094
2026-01-10 06:30:59.10	13.72	26.33	-50.4	-51.9	15.4	0.00e+00	0	23	0	682622976	67	4185
2026-01-10 06:31:00.10	13.42	26.31	-50.2	-51.7	15.6	0.00e+00	0	23	0	683671552	67	4082
2026-01-10 06:31:01.10	13.11	26.30	-50.2	-51.7	15.6	0.00e+00	0	23	0	685768704	67	4096
2026-01-10 06:31:02.09	12.81	26.28	-50.2	-51.8	15.6	0.00e+00	0	23	0	687865856	67	4101
2026-01-10 06:31:03.09	12.51	26.26	-50.3	-51.9	15.5	0.00e+00	0	23	0	689963008	67	4152
2026-01-10 06:31:04.10	12.21	26.24	-50.4	-51.9	15.4	0.00e+00	0	23	0	691011584	67	4183
2026-01-10 06:31:05.10	11.90	26.22	-50.3	-51.9	15.5	0.00e+00	0	23	0	693108736	67	4160
2026-01-10 06:31:06.10	11.60	26.20	-50.3	-51.9	15.5	0.00e+00	0	23	0	695205888	67	4163
2026-01-10 06:31:07.10	11.30	26.18	-50.2	-51.7	15.5	0.00e+00	0	23	0	697303040	67	4091
2026-01-10 06:31:08.09	11.00	26.16	-50.1	-51.6	15.4	0.00e+00	0	23	0	699400192	66	4281
2026-01-10 06:31:09.09	10.70	26.13	-50.2	-51.7	15.4	0.00e+00	0	23	0	700448768	66	4325
2026-01-10 06:31:10.09	10.41	26.11	-50.2	-51.7	15.4	0.00e+00	0	23	0	702545920	66	4316
2026-01-10 06:31:11.05	10.12	26.08	-50.2	-51.8	15.3	0.00e+00	0	23	0	704643072	66	4367
2026-01-10 06:31:12.06	9.82	26.06	-50.3	-51.9	15.3	0.00e+00	0	23	0	706740224	66	4436
2026-01-10 06:31:13.06	9.52	26.03	-50.4	-52.0	15.3	0.00e+00	0	23	0	707788800	66	4450
2026-01-10 06:31:14.05	9.22	26.00	-50.4	-52.0	15.3	0.00e+00	0	23	0	709885952	66	4443
2026-01-10 06:31:15.05	8.93	25.98	-50.3	-51.9	15.3	0.00e+00	0	24	0	711983104	66	4412
2026-01-10 06:31:16.04	8.63	25.95	-50.5	-52.1	15.2	0.00e+00	0	23	0	714080256	66	4500
2026-01-10 06:31:17.05	8.34	25.92	-50.5	-52.1	15.2	0.00e+00	0	23	0	716177408	66	4510
2026-01-10 06:31:18.05	8.04	25.89	-50.5	-52.1	15.2	0.00e+00	0	23	0	717225984	66	4537
2026-01-10 06:31:19.05	7.75	25.85	-50.5	-52.1	15.2	0.00e+00	0	23	0	719323136	66	4513
2026-01-10 06:31:20.04	7.45	25.82	-50.4	-52.0	15.2	0.00e+00	0	23	0	721420288	66	4474
2026-01-10 06:31:21.04	7.16	25.79	-50.5	-52.1	15.2	0.00e+00	0	24	0	723517440	66	4541
2026-01-10 06:31:22.04	6.87	25.75	-50.5	-52.1	15.2	0.00e+00	0	23	0	725614592	66	4537
2026-01-10 06:31:23.04	6.58	25.72	-50.6	-52.2	15.1	0.00e+00	0	23	0	726663168	66	4583
2026-01-10 06:31:24.03	6.29	25.68	-50.6	-52.3	15.1	0.00e+00	0	23	0	728760320	66	4612
2026-01-10 06:31:25.04	5.99	25.65	-50.6	-52.3	15.1	0.00e+00	0	23	0	730857472	66	4614
2026-01-10 06:31:26.04	5.70	25.61	-50.6	-52.3	15.1	0.00e+00	0	23	0	732954624	66	4606
2026-01-10 06:31:27.04	5.41	25.57	-50.7	-52.4	15.1	0.00e+00	0	23	0	734003200	66	4666
2026-01-10 06:31:28.04	5.12	25.53	-50.8	-52.5	15.0	0.00e+00	0	23	0	736100352	66	4714
2026-01-10 06:31:29.04	4.84	25.50	-50.9	-52.6	15.1	0.00e+00	0	23	0	738197504	67	4524
2026-01-10 06:31:30.04	4.55	25.46	-51.1	-52.8	15.0	0.00e+00	0	23	0	740294656	67	4624
2026-01-10 06:31:31.04	4.26	25.41	-51.1	-52.8	15.0	0.00e+00	0	23	0	742391808	67	4632
2026-01-10 06:31:32.04	3.98	25.37	-51.1	-52.8	15.0	0.00e+00	0	23	0	743440384	67	4620
2026-01-10 06:31:33.03	3.69	25.33	-51.1	-52.9	15.0	0.00e+00	0	23	0	745537536	67	4661
2026-01-10 06:31:34.03	3.41	25.29	-51.1	-52.8	15.0	0.00e+00	0	23	0	747634688	67	4639
2026-01-10 06:31:35.03	3.13	25.25	-51.1	-52.9	15.0	0.00e+00	0	23	0	749731840	67	4665
2026-01-10 06:31:36.04	2.84	25.20	-51.3	-53.1	14.9	0.00e+00	0	23	0	751828992	67	4774
2026-01-10 06:31:37.04	2.56	25.16	-51.4	-53.2	14.8	0.00e+00	0	23	0	752877568	67	4816
2026-01-10 06:31:38.03	2.28	25.11	-51.8	-53.6	14.8	0.00e+00	0	23	0	754974720	68	4798
2026-01-10 06:31:39.02	2.00	25.06	-51.8	-53.7	14.7	0.00e+00	0	23	0	757071872	68	4851
2026-01-10 06:31:40.02	1.72	25.02	-52.0	-53.9	14.8	0.00e+00	0	23	0	759169024	69	4671
2026-01-10 06:31:41.02	1.44	24.97	-52.0	-53.9	14.8	0.00e+00	0	23	0	761266176	69	4679
2026-01-10 06:31:42.02	1.17	24.92	-52.1	-54.0	14.7	0.00e+00	0	23	0	762314752	69	4730
2026-01-10 06:31:43.01	0.89	24.87	-52.0	-54.0	14.8	0.00e+00	0	23	0	764411904	69	4708
2026-01-10 06:31:44.01	0.62	24.82	-52.0	-53.9	14.8	0.00e+00	0	23	0	766509056	69	4656
2026-01-10 06:31:45.01	0.34	24.77	-52.1	-54.0	14.7	0.00e+00	0	23	0	768606208	69	4719
2026-01-10 06:31:46.00	0.07	24.72	-52.0	-53.9	14.8	0.00e+00	0	23	0	769654784	69	4702
2026-01-10 06:31:46.99	359.80	24.67	-52.1	-54.0	14.7	0.00e+00	0	23	0	771751936	69	4725
2026-01-10 06:31:47.98	359.53	24.62	-52.0	-53.9	14.8	0.00e+00	0	23	0	773849088	69	4694
2026-01-10 06:31:48.98	359.26	24.57	-52.1	-54.0	14.7	0.00e+00	0	23	0	775946240	69	4754
2026-01-10 06:31:49.97	358.99	24.52	-52.2	-54.2	14.7	0.00e+00	0	24	0	778043392	69	4819
2026-01-10 06:31:50.97	358.72	24.46	-52.3	-54.3	14.6	0.00e+00	0	23	0	779091968	69	4876
2026-01-10 06:31:51.96	358.45	24.41	-52.4	-54.4	14.5	0.00e+00	0	24	0	781189120	69	4941
2026-01-10 06:31:52.96	358.19	24.35	-52.2	-54.2	14.6	0.00e+00	0	24	0	783286272	69	4849
2026-01-10 06:31:53.96	357.92	24.30	-52.1	-54.1	14.7	0.00e+00	0	23	0	785383424	69	4777
2026-01-10 06:31:54.95	357.66	24.24	-52.2	-54.1	14.7	0.00e+00	0	23	0	786432000	69	4792
2026-01-10 06:31:55.95	357.39	24.19	-52.0	-53.9	14.8	0.00e+00	0	24	0	788529152	69	4659
2026-01-10 06:31:56.95	357.13	24.13	-52.1	-54.0	14.7	0.00e+00	0	23	0	790626304	69	4726
2026-01-10 06:31:57.95	356.86	24.07	-52.0	-53.9	14.8	0.00e+00	0	23	0	792723456	69	4695
2026-01-10 06:31:58.94	356.60	24.01	-52.0	-53.9	14.8	0.00e+00	0	23	0	794820608	69	4673
2026-01-10 06:31:59.93	356.35	23.95	-52.1	-54.0	14.7	0.00e+00	0	23	0	795869184	69	4720
2026-01-10 06:32:00.93	356.09	23.90	-52.1	-54.0	14.7	0.00e+00	0	23	0	797966336	69	4744
2026-01-10 06:32:01.93	355.83	23.84	-52.2	-54.2	14.6	0.00e+00	0	23	0	800063488	69	4821
2026-01-10 06:32:02.93	355.57	23.78	-52.2	-54.2	14.6	0.00e+00	0	23	0	802160640	69	4861
2026-01-10 06:32:03.93	355.31	23.72	-52.3	-54.3	14.6	0.00e+00	0	23	0	803209216	69	4887
2026-01-10 06:32:04.93	355.05	23.65	-52.3	-54.3	14.5	0.00e+00	0	23	0	805306368	69	4912
2026-01-10 06:32:05.93	354.80	23.59	-52.2	-54.2	14.6	0.00e+00	0	23	0	807403520	69	4820
2026-01-10 06:32:06.93	354.55	23.53	-52.2	-54.1	14.7	0.00e+00	0	24	0	809500672	69	4792
2026-01-10 06:32:07.93	354.29	23.47	-52.2	-54.2	14.6	0.00e+00	0	24	0	811597824	69	4866
2026-01-10 06:32:08.93	354.04	23.40	-52.2	-54.2	14.6	0.00e+00	0	23	0	812646400	69	4836
2026-01-10 06:32:09.94	353.79	23.34	-52.3	-54.3	14.6	0.00e+00	0	23	0	814743552	69	4889
2026-01-10 06:32:10.94	353.54	23.28	-52.2	-54.1	14.6	0.00e+00	0	23	0	816840704	69	4809
2026-01-10 06:32:11.94	353.29	23.21	-52.1	-54.1	14.7	0.00e+00	0	23	0	818937856	69	4764
2026-01-10 06:32:12.94	353.04	23.15	-52.2	-54.2	14.6	0.00e+00	0	24	0	821035008	69	4818
2026-01-10 06:32:13.94	352.79	23.08	-52.2	-54.2	14.6	0.00e+00	0	23	0	822083584	69	4833
2026-01-10 06:32:14.93	352.55	23.02	-52.1	-54.1	14.7	0.00e+00	0	23	0	824180736	69	4797
2026-01-10 06:32:15.93	352.30	22.95	-51.9	-53.8	14.8	0.00e+00	0	23	0	826277888	69	4648
2026-01-10 06:32:16.93	352.06	22.89	-51.7	-53.5	15.0	0.00e+00	0	23	0	828375040	69	4480
2026-01-10 06:32:17.93	351.82	22.82	-51.7	-53.5	15.0	0.00e+00	0	23	0	829423616	69	4449
2026-01-10 06:32:18.93	351.58	22.75	-51.6	-53.4	15.0	0.00e+00	0	23	0	831520768	69	4425
2026-01-10 06:32:19.93	351.34	22.68	-51.7	-53.5	15.0	0.00e+00	0	23	0	833617920	69	4464
2026-01-10 06:32:20.92	351.10	22.62	-51.7	-53.6	14.9	0.00e+00	0	23	0	835715072	69	4497
2026-01-10 06:32:21.93	350.86	22.55	-51.5	-53.3	15.1	0.00e+00	0	24	0	837812224	69	4377
2026-01-10 06:32:22.93	350.62	22.48	-51.5	-53.2	15.1	0.00e+00	0	24	0	838860800	69	4339
2026-01-10 06:32:23.92	350.39	22.41	-51.4	-53.1	15.2	0.00e+00	0	23	0	840957952	69	4260
2026-01-10 06:32:24.92	350.15	22.34	-51.2	-52.9	15.3	0.00e+00	0	24	0	843055104	69	4165
2026-01-10 06:32:25.92	349.92	22.27	-51.1	-52.8	15.2	0.00e+00	0	23	0	845152256	68	4369
2026-01-10 06:32:26.92	349.68	22.20	-51.1	-52.8	15.1	0.00e+00	0	23	0	847249408	68	4341
2026-01-10 06:32:27.92	349.45	22.13	-51.0	-52.7	15.3	0.00e+00	0	23	0	848297984	68	4309
2026-01-10 06:32:28.92	349.22	22.06	-51.0	-52.7	15.2	0.00e+00	0	24	0	850395136	68	4318
2026-01-10 06:32:29.92	348.99	21.99	-51.1	-52.7	15.2	0.00e+00	0	24	0	852492288	68	4337
2026-01-10 06:32:30.93	348.76	21.92	-51.1	-52.7	15.2	0.00e+00	0	24	0	854589440	68	4334
2026-01-10 06:32:31.92	348.53	21.85	-51.0	-52.7	15.3	0.00e+00	0	23	0	856686592	68	4310
2026-01-10 06:32:32.92	348.31	21.78	-51.0	-52.7	15.3	0.00e+00	0	23	0	857735168	68	4310
2026-01-10 06:32:33.93	348.08	21.70	-51.0	-52.7	15.2	0.00e+00	0	24	0	859832320	68	4325
2026-01-10 06:32:34.93	347.85	21.63	-51.1	-52.7	15.2	0.00e+00	0	24	0	861929472	68	4332
2026-01-10 06:32:35.93	347.63	21.56	-50.9	-52.6	15.3	0.00e+00	0	24	0	864026624	68	4250
2026-01-10 06:32:36.92	347.41	21.49	-51.0	-52.6	15.3	0.00e+00	0	23	0	865075200	68	4285
2026-01-10 06:32:37.92	347.19	21.41	-51.0	-52.7	15.3	0.00e+00	0	23	0	867172352	68	4312
2026-01-10 06:32:38.91	346.97	21.34	-51.0	-52.6	15.3	0.00e+00	0	23	0	869269504	68	4282
2026-01-10 06:32:39.90	346.75	21.27	-51.1	-52.8	15.2	0.00e+00	0	23	0	871366656	68	4359
2026-01-10 06:32:40.91	346.53	21.19	-51.1	-52.8	15.2	0.00e+00	0	24	0	873463808	68	4358
2026-01-10 06:32:41.91	346.32	21.12	-51.1	-52.8	15.2	0.00e+00	0	24	0	874512384	68	4380
2026-01-10 06:32:42.91	346.10	21.05	-51.1	-52.8	15.2	0.00e+00	0	24	0	876609536	68	4348
2026-01-10 06:32:43.91	345.88	20.97	-51.1	-52.8	15.2	0.00e+00	0	23	0	878706688	68	4364
2026-01-10 06:32:44.91	345.67	20.90	-51.1	-52.8	15.2	0.00e+00	0	23	0	880803840	68	4363
2026-01-10 06:32:45.91	345.46	20.82	-51.1	-52.8	15.2	0.00e+00	0	23	0	881852416	68	4367
2026-01-10 06:32:46.91	345.24	20.75	-50.9	-52.6	15.3	0.00e+00	0	23	0	883949568	68	4266
2026-01-10 06:32:47.91	345.03	20.67	-50.8	-52.5	15.3	0.00e+00	0	23	0	886046720	68	4206
2026-01-10 06:32:48.91	344.82	20.60	-50.9	-52.5	15.3	0.00e+00	0	23	0	888143872	68	4231
2026-01-10 06:32:49.90	344.62	20.52	-50.9	-52.5	15.3	0.00e+00	0	23	0	890241024	68	4240
2026-01-10 06:32:50.90	344.41	20.45	-50.7	-52.3	15.4	0.00e+00	0	24	0	891289600	68	4139
2026-01-10 06:32:51.89	344.20	20.37	-50.5	-52.1	15.3	0.00e+00	0	24	0	893386752	67	4279
2026-01-10 06:32:52.89	344.00	20.29	-50.4	-52.0	15.4	0.00e+00	0	24	0	895483904	67	4227
2026-01-10 06:32:53.89	343.79	20.22	-50.3	-51.9	15.4	0.00e+00	0	23	0	897581056	67	4179
2026-01-10 06:32:54.88	343.59	20.14	-50.4	-52.0	15.4	0.00e+00	0	23	0	899678208	67	4199
2026-01-10 06:32:55.87	343.39	20.07	-50.4	-52.0	15.4	0.00e+00	0	23	0	900726784	67	4201
2026-01-10 06:32:56.86	343.19	19.99	-50.3	-51.8	15.5	0.00e+00	0	23	0	902823936	67	4134
2026-01-10 06:32:57.86	342.99	19.91	-50.3	-51.8	15.5	0.00e+00	0	24	0	904921088	67	4136
2026-01-10 06:32:58.86	342.79	19.84	-50.3	-51.8	15.5	0.00e+00	0	24	0	907018240	67	4124
2026-01-10 06:32:59.86	342.59	19.76	-50.1	-51.7	15.3	0.00e+00	0	23	0	908066816	66	4302
2026-01-10 06:33:00.86	342.39	19.68	-50.2	-51.8	15.3	0.00e+00	0	23	0	910163968	66	4344
2026-01-10 06:33:01.85	342.20	19.61	-50.1	-51.6	15.4	0.00e+00	0	23	0	912261120	66	4281
2026-01-10 06:33:02.84	342.01	19.53	-50.1	-51.7	15.4	0.00e+00	0	24	0	914358272	66	4311
2026-01-10 06:33:03.85	341.81	19.45	-50.0	-51.6	15.4	0.00e+00	0	24	0	916455424	66	4251
2026-01-10 06:33:04.84	341.62	19.38	-50.1	-51.6	15.4	0.00e+00	0	23	0	917504000	66	4267
2026-01-10 06:33:05.85	341.42	19.30	-49.9	-51.4	15.5	0.00e+00	0	23	0	919601152	66	4167
2026-01-10 06:33:06.85	341.23	19.22	-50.0	-51.5	15.5	0.00e+00	0	24	0	921698304	66	4203
2026-01-10 06:33:07.85	341.04	19.14	-49.9	-51.4	15.5	0.00e+00	0	23	0	923795456	66	4167
2026-01-10 06:33:08.85	340.85	19.06	-49.9	-51.4	15.5	0.00e+00	0	24	0	925892608	66	4177
2026-01-10 06:33:09.85	340.66	18.98	-49.8	-51.3	15.6	0.00e+00	0	24	0	926941184	66	4137
2026-01-10 06:33:10.85	340.47	18.91	-50.0	-51.5	15.5	0.00e+00	0	23	0	929038336	66	4198
2026-01-10 06:33:11.85	340.29	18.83	-50.0	-51.5	15.5	0.00e+00	0	23	0	931135488	66	4219
2026-01-10 06:33:12.86	340.10	18.75	-50.0	-51.6	15.4	0.00e+00	0	23	0	933232640	66	4257
2026-01-10 06:33:13.85	339.92	18.67	-49.9	-51.4	15.5	0.00e+00	0	23	0	934281216	66	4159
2026-01-10 06:33:14.84	339.74	18.59	-49.9	-51.4	15.6	0.00e+00	0	24	0	936378368	66	4153
2026-01-10 06:33:15.84	339.55	18.52	-49.8	-51.3	15.6	0.00e+00	0	23	0	938475520	66	4109
2026-01-10 06:33:16.84	339.37	18.44	-49.8	-51.2	15.6	0.00e+00	0	23	0	940572672	66	4093
2026-01-10 06:33:17.83	339.19	18.36	-49.7	-51.2	15.6	0.00e+00	0	23	0	942669824	66	4068
2026-01-10 06:33:18.83	339.01	18.28	-49.7	-51.2	15.6	0.00e+00	0	23	0	943718400	66	4074
2026-01-10 06:33:19.83	338.83	18.20	-49.7	-51.2	15.6	0.00e+00	0	23	0	945815552	66	4075
2026-01-10 06:33:20.83	338.65	18.12	-49.8	-51.3	15.6	0.00e+00	0	23	0	947912704	66	4103
2026-01-10 06:33:21.83	338.48	18.04	-49.8	-51.3	15.6	0.00e+00	0	23	0	950009856	66	4103
2026-01-10 06:33:22.83	338.30	17.97	-49.8	-51.3	15.5	0.00e+00	0	23	0	952107008	66	4119
2026-01-10 06:33:23.82	338.13	17.89	-49.9	-51.4	15.5	0.00e+00	0	23	0	953155584	66	4167
2026-01-10 06:33:24.82	337.95	17.81	-50.0	-51.5	15.4	0.00e+00	0	23	0	955252736	66	4232
2026-01-10 06:33:25.82	337.78	17.73	-50.0	-51.5	15.5	0.00e+00	0	23	0	957349888	66	4210
2026-01-10 06:33:26.81	337.61	17.65	-50.0	-51.5	15.4	0.00e+00	0	23	0	959447040	66	4220
2026-01-10 06:33:27.81	337.44	17.57	-50.1	-51.6	15.4	0.00e+00	0	24	0	960495616	66	4254
2026-01-10 06:33:28.81	337.27	17.49	-50.0	-51.5	15.4	0.00e+00	0	23	0	962592768	66	4238
2026-01-10 06:33:29.81	337.10	17.42	-50.0	-51.6	15.4	0.00e+00	0	24	0	964689920	66	4244
2026-01-10 06:33:30.81	336.93	17.34	-50.1	-51.6	15.4	0.00e+00	0	23	0	966787072	66	4283
2026-01-10 06:33:31.82	336.76	17.26	-50.1	-51.6	15.4	0.00e+00	0	23	0	968884224	66	4275
2026-01-10 06:33:32.82	336.59	17.18	-50.1	-51.6	15.4	0.00e+00	0	23	0	969932800	66	4290
2026-01-10 06:33:33.81	336.43	17.10	-50.2	-51.7	15.3	0.00e+00	0	23	0	972029952	66	4331
2026-01-10 06:33:34.81	336.26	17.02	-50.2	-51.7	15.3	0.00e+00	0	23	0	974127104	66	4335
2026-01-10 06:33:35.81	336.10	16.94	-50.2	-51.7	15.3	0.00e+00	0	24	0	976224256	66	4339
2026-01-10 06:33:36.80	335.93	16.86	-50.1	-51.7	15.3	0.00e+00	0	23	0	977272832	66	4307
2026-01-10 06:33:37.80	335.77	16.78	-50.2	-51.8	15.3	0.00e+00	0	24	0	979369984	66	4357
2026-01-10 06:33:38.80	335.61	16.71	-50.3	-51.9	15.2	0.00e+00	0	24	0	981467136	66	4398
2026-01-10 06:33:39.81	335.45	16.63	-50.4	-52.0	15.2	0.00e+00	0	24	0	983564288	66	4493
2026-01-10 06:33:40.81	335.29	16.55	-50.5	-52.1	15.1	0.00e+00	0	24	0	985661440	66	4528
2026-01-10 06:33:41.81	335.13	16.47	-50.6	-52.3	15.1	0.00e+00	0	23	0	986710016	66	4612
2026-01-10 06:33:42.81	334.97	16.39	-50.7	-52.3	15.0	0.00e+00	0	23	0	988807168	66	4648
2026-01-10 06:33:43.81	334.81	16.31	-50.7	-52.4	15.0	0.00e+00	0	23	0	990904320	66	4695
2026-01-10 06:33:44.81	334.65	16.23	-50.9	-52.6	14.9	0.00e+00	0	24	0	993001472	66	4777
2026-01-10 06:33:45.82	334.50	16.15	-50.9	-52.7	15.0	0.00e+00	0	24	0	995098624	67	4547
2026-01-10 06:33:46.83	334.34	16.07	-51.0	-52.8	15.0	0.00e+00	0	24	0	996147200	67	4603
2026-01-10 06:33:47.83	334.18	15.99	-50.9	-52.7	15.0	0.00e+00	0	23	0	998244352	67	4561
2026-01-10 06:33:48.83	334.03	15.92	-51.0	-52.7	15.0	0.00e+00	0	24	0	1000341504	67	4589
2026-01-10 06:33:49.83	333.88	15.84	-51.0	-52.7	15.0	0.00e+00	0	24	0	1002438656	67	4568
2026-01-10 06:33:50.82	333.73	15.76	-51.0	-52.8	14.9	0.00e+00	0	24	0	1004535808	67	4612
2026-01-10 06:33:51.82	333.58	15.68	-51.1	-52.9	14.9	0.00e+00	0	23	0	1005584384	67	4677
2026-01-10 06:33:52.82	333.43	15.60	-51.0	-52.8	15.0	0.00e+00	0	23	0	1007681536	67	4615
2026-01-10 06:33:53.82	333.28	15.52	-51.1	-52.9	14.9	0.00e+00	0	24	0	1009778688	67	4672
2026-01-10 06:33:54.82	333.13	15.45	-51.2	-53.0	14.9	0.00e+00	0	24	0	1011875840	67	4722
2026-01-10 06:33:55.82	332.98	15.37	-51.1	-52.9	14.9	0.00e+00	0	23	0	1013972992	67	4676
2026-01-10 06:33:56.82	332.83	15.29	-51.2	-53.0	14.8	0.00e+00	0	24	0	1015021568	67	4737
2026-01-10 06:33:57.82	332.69	15.21	-51.2	-53.0	14.8	0.00e+00	0	23	0	1017118720	67	4750
2026-01-10 06:33:58.82	332.54	15.13	-51.3	-53.2	14.8	0.00e+00	0	23	0	1019215872	67	4838
2026-01-10 06:33:59.82	332.40	15.06	-51.3	-53.2	14.7	0.00e+00	0	24	0	1021313024	67	4833
2026-01-10 06:34:00.82	332.25	14.98	-51.3	-53.2	14.7	0.00e+00	0	23	0	1022361600	67	4827
2026-01-10 06:34:01.81	332.11	14.90	-51.3	-53.2	14.7	0.00e+00	0	24	0	1024458752	67	4818
2026-01-10 06:34:02.82	331.97	14.82	-51.1	-52.9	14.9	0.00e+00	0	24	0	1026555904	67	4687
2026-01-10 06:34:03.81	331.83	14.75	-51.2	-53.0	14.8	0.00e+00	0	24	0	1028653056	67	4745
2026-01-10 06:34:04.81	331.69	14.67	-51.3	-53.1	14.8	0.00e+00	0	23	0	1030750208	67	4778
2026-01-10 06:34:05.82	331.55	14.59	-51.2	-53.1	14.8	0.00e+00	0	24	0	1031798784	67	4774
2026-01-10 06:34:06.81	331.41	14.51	-51.3	-53.1	14.8	0.00e+00	0	24	0	1033895936	67	4800
2026-01-10 06:34:07.82	331.27	14.43	-51.6	-53.5	14.8	0.00e+00	0	23	0	1035993088	68	4713
2026-01-10 06:34:08.81	331.13	14.36	-51.5	-53.3	14.9	0.00e+00	0	24	0	1038090240	68	4642
2026-01-10 06:34:09.81	330.99	14.28	-51.6	-53.5	14.8	0.00e+00	0	23	0	1040187392	68	4719
2026-01-10 06:34:10.81	330.86	14.20	-51.7	-53.6	14.7	0.00e+00	0	23	0	1041235968	68	4785
2026-01-10 06:34:11.81	330.72	14.13	-51.7	-53.7	14.7	0.00e+00	0	23	0	1043333120	68	4820
2026-01-10 06:34:12.81	330.59	14.05	-51.7	-53.6	14.7	0.00e+00	0	23	0	1045430272	68	4781
2026-01-10 06:34:13.81	330.45	13.97	-51.7	-53.6	14.7	0.00e+00	0	23	0	1047527424	68	4808
2026-01-10 06:34:14.81	330.32	13.90	-51.8	-53.8	14.6	0.00e+00	0	23	0	1049624576	68	4886
2026-01-10 06:34:15.82	330.18	13.82	-51.8	-53.8	14.6	0.00e+00	0	23	0	1050673152	68	4875
2026-01-10 06:34:16.83	330.05	13.74	-51.9	-53.9	14.7	0.00e+00	0	23	0	1052770304	69	4663
2026-01-10 06:34:17.83	329.92	13.66	-51.8	-53.8	14.8	1.50e-06	0	24	0	1054867456	69	4599
2026-01-10 06:34:18.83	329.79	13.59	-51.7	-53.7	14.8	0.00e+00	0	24	0	1056964608	69	4546
2026-01-10 06:34:19.84	329.66	13.51	-51.8	-53.8	14.8	0.00e+00	0	23	0	1058013184	69	4604
2026-01-10 06:34:20.83	329.53	13.43	-51.9	-53.9	14.7	0.00e+00	0	23	0	1060110336	69	4676
2026-01-10 06:34:21.84	329.40	13.36	-51.9	-53.8	14.7	0.00e+00	0	24	0	1062207488	69	4642
2026-01-10 06:34:22.83	329.27	13.28	-51.9	-53.9	14.7	0.00e+00	0	23	0	1064304640	69	4661
2026-01-10 06:34:23.83	329.15	13.21	-52.0	-53.9	14.7	0.00e+00	0	23	0	1066401792	69	4705
2026-01-10 06:34:24.83	329.02	13.13	-52.0	-54.1	14.6	0.00e+00	0	24	0	1067450368	69	4765
2026-01-10 06:34:25.83	328.89	13.05	-52.0	-54.0	14.6	0.00e+00	0	23	0	1069547520	69	4741
2026-01-10 06:34:26.82	328.77	12.98	-52.0	-54.0	14.7	0.00e+00	0	23	0	1071644672	69	4715
2026-01-10 06:34:27.82	328.64	12.90	-51.9	-53.8	14.7	0.00e+00	0	24	0	1073741824	69	4638
2026-01-10 06:34:28.83	328.52	12.83	-51.9	-53.9	14.7	0.00e+00	0	23	0	1075838976	69	4666
2026-01-10 06:34:29.83	328.39	12.75	-52.0	-54.0	14.6	0.00e+00	0	23	0	1076887552	69	4732
2026-01-10 06:34:30.83	328.27	12.68	-52.0	-54.1	14.6	0.00e+00	0	23	0	1078984704	69	4761
2026-01-10 06:34:31.84	328.15	12.60	-52.0	-54.0	14.6	0.00e+00	0	23	0	1081081856	69	4729
2026-01-10 06:34:32.85	328.03	12.52	-52.1	-54.1	14.5	0.00e+00	0	23	0	1083179008	69	4795
2026-01-10 06:34:33.85	327.91	12.45	-52.1	-54.2	14.5	0.00e+00	0	23	0	1085276160	69	4830
2026-01-10 06:34:34.85	327.78	12.37	-52.1	-54.2	14.5	0.00e+00	0	24	0	1086324736	69	4854
2026-01-10 06:34:35.84	327.67	12.30	-52.1	-54.2	14.5	0.00e+00	0	23	0	1088421888	69	4850
2026-01-10 06:34:36.84	327.55	12.23	-52.2	-54.4	14.4	0.00e+00	0	23	0	1090519040	69	4931
2026-01-10 06:34:37.85	327.43	12.15	-52.3	-54.5	14.4	0.00e+00	0	24	0	1092616192	69	4988
2026-01-10 06:34:38.85	327.31	12.08	-52.3	-54.4	14.4	0.00e+00	0	23	0	1093664768	69	4954
2026-01-10 06:34:39.85	327.19	12.00	-52.3	-54.5	14.4	0.00e+00	0	23	0	1095761920	69	5000
2026-01-10 06:34:40.85	327.08	11.93	-52.4	-54.5	14.3	0.00e+00	0	23	0	1097859072	69	5027
2026-01-10 06:34:41.85	326.96	11.85	-52.5	-54.7	14.4	0.00e+00	0	23	0	1099956224	70	4845
2026-01-10 06:34:42.85	326.85	11.78	-52.6	-54.8	14.3	0.00e+00	0	23	0	1102053376	70	4913
2026-01-10 06:34:43.85	326.73	11.70	-52.6	-54.8	14.3	0.00e+00	0	24	0	1103101952	70	4888
2026-01-10 06:34:44.86	326.62	11.63	-52.6	-54.9	14.3	0.00e+00	0	24	0	1105199104	70	4935
2026-01-10 06:34:45.86	326.50	11.56	-52.6	-54.9	14.2	0.00e+00	0	23	0	1107296256	70	4969
2026-01-10 06:34:46.86	326.39	11.48	-52.7	-54.9	14.2	0.00e+00	0	23	0	1109393408	70	4975
2026-01-10 06:34:47.86	326.28	11.41	-52.7	-55.0	14.2	0.00e+00	0	23	0	1111490560	70	5029
2026-01-10 06:34:48.86	326.17	11.34	-52.7	-55.1	14.1	0.00e+00	0	24	0	1112539136	70	5048
2026-01-10 06:34:49.86	326.05	11.26	-52.8	-55.2	14.1	0.00e+00	0	24	0	1114636288	70	5113
2026-01-10 06:34:50.86	325.94	11.19	-52.7	-55.0	14.2	0.00e+00	0	23	0	1116733440	70	4988
2026-01-10 06:34:51.86	325.83	11.12	-52.8	-55.1	14.1	0.00e+00	0	23	0	1118830592	70	5059
2026-01-10 06:34:52.86	325.72	11.04	-52.9	-55.2	14.0	0.00e+00	0	23	0	1119879168	70	5152
2026-01-10 06:34:53.86	325.61	10.97	-52.8	-55.1	14.1	0.00e+00	0	24	0	1121976320	70	5096
2026-01-10 06:34:54.86	325.51	10.90	-52.9	-55.2	14.0	0.00e+00	0	24	0	1124073472	70	5149
2026-01-10 06:34:55.87	325.40	10.82	-52.9	-55.2	14.0	0.00e+00	0	23	0	1126170624	70	5151
2026-01-10 06:34:56.87	325.29	10.75	-52.8	-55.2	14.1	0.00e+00	0	23	0	1128267776	70	5113
2026-01-10 06:34:57.87	325.18	10.68	-52.9	-55.3	14.1	0.00e+00	0	24	0	1130364928	71	4890
2026-01-10 06:34:58.86	325.08	10.61	-52.8	-55.2	14.2	0.00e+00	0	23	0	1131413504	71	4832
2026-01-10 06:34:59.86	324.97	10.53	-52.9	-55.2	14.2	0.00e+00	0	23	0	1133510656	71	4848
2026-01-10 06:35:00.87	324.87	10.46	-52.9	-55.2	14.2	0.00e+00	0	23	0	1135607808	71	4861
2026-01-10 06:35:01.86	324.76	10.39	-52.8	-55.1	14.2	0.00e+00	0	24	0	1137704960	71	4812
2026-01-10 06:35:02.87	324.66	10.32	-52.9	-55.2	14.2	0.00e+00	0	24	0	1138753536	71	4861
2026-01-10 06:35:03.87	324.55	10.25	-52.9	-55.3	14.1	0.00e+00	0	23	0	1140850688	71	4893
2026-01-10 06:35:04.88	324.45	10.17	-53.0	-55.4	14.1	0.00e+00	0	23	0	1142947840	71	4951
2026-01-10 06:35:05.87	324.35	10.10	-52.8	-55.2	14.2	0.00e+00	0	24	0	1145044992	71	4817
2026-01-10 06:35:06.87	324.25	10.03	-52.8	-55.2	14.2	0.00e+00	0	24	0	1147142144	71	4834
2026-01-10 06:35:07.87	324.15	9.96	-52.8	-55.2	14.2	0.00e+00	0	23	0	1148190720	71	4841
2026-01-10 06:35:08.87	324.04	9.89	-52.9	-55.2	14.1	0.00e+00	0	23	0	1150287872	71	4868
2026-01-10 06:35:09.87	323.94	9.82	-52.8	-55.2	14.2	0.00e+00	0	23	0	1152385024	71	4825
2026-01-10 06:35:10.87	323.84	9.75	-52.8	-55.2	14.2	0.00e+00	0	24	0	1154482176	71	4824
2026-01-10 06:35:11.86	323.75	9.68	-52.9	-55.3	14.1	0.00e+00	0	23	0	1156579328	71	4901
2026-01-10 06:35:12.85	323.65	9.61	-53.0	-55.4	14.0	0.00e+00	0	24	0	1157627904	71	4962
2026-01-10 06:35:13.86	323.55	9.54	-53.0	-55.4	14.1	0.00e+00	0	24	0	1159725056	71	4960
2026-01-10 06:35:14.86	323.45	9.47	-52.9	-55.3	14.1	0.00e+00	0	23	0	1161822208	71	4871
2026-01-10 06:35:15.86	323.35	9.39	-52.9	-55.4	14.0	0.00e+00	0	23	0	1163919360	71	4939
2026-01-10 06:35:16.85	323.26	9.33	-53.0	-55.5	14.0	0.00e+00	0	23	0	1164967936	71	5029
2026-01-10 06:35:17.85	323.16	9.26	-53.0	-55.4	14.1	0.00e+00	0	23	0	1167065088	71	4955
2026-01-10 06:35:18.85	323.06	9.19	-53.0	-55.5	14.0	0.00e+00	0	23	0	1169162240	71	5027
2026-01-10 06:35:19.85	322.97	9.12	-53.2	-55.7	13.9	0.00e+00	0	24	0	1171259392	71	5128
2026-01-10 06:35:20.84	322.88	9.05	-53.1	-55.7	13.9	0.00e+00	0	23	0	1173356544	71	5132
2026-01-10 06:35:21.85	322.78	8.98	-53.1	-55.7	13.8	0.00e+00	0	23	0	1174405120	71	5123
2026-01-10 06:35:22.85	322.69	8.91	-53.3	-55.9	13.7	0.00e+00	0	23	0	1176502272	71	5247
2026-01-10 06:35:23.85	322.59	8.84	-53.2	-55.7	13.8	0.00e+00	0	23	0	1178599424	71	5157
2026-01-10 06:35:24.85	322.50	8.77	-53.2	-55.8	13.8	0.00e+00	0	23	0	1180696576	71	5174
2026-01-10 06:35:25.85	322.41	8.70	-53.2	-55.9	13.7	0.00e+00	0	24	0	1181745152	71	5231
2026-01-10 06:35:26.85	322.31	8.63	-53.3	-56.0	13.7	0.00e+00	0	23	0	1183842304	71	5289
2026-01-10 06:35:27.85	322.22	8.56	-53.3	-55.9	13.7	0.00e+00	0	23	0	1185939456	71	5260
2026-01-10 06:35:28.86	322.13	8.49	-53.4	-56.1	13.6	0.00e+00	0	23	0	1188036608	71	5357
2026-01-10 06:35:29.86	322.04	8.42	-53.4	-56.1	13.6	0.00e+00	0	23	0	1190133760	71	5365
2026-01-10 06:35:30.86	321.95	8.35	-53.4	-56.1	13.5	0.00e+00	0	23	0	1192230912	71	5394
2026-01-10 06:35:31.86	321.86	8.28	-53.5	-56.2	13.6	0.00e+00	0	23	0	1193279488	72	5146
2026-01-10 06:35:32.86	321.77	8.22	-53.5	-56.3	13.5	0.00e+00	0	23	0	1195376640	72	5217
2026-01-10 06:35:33.86	321.68	8.15	-53.5	-56.3	13.5	0.00e+00	0	24	0	1197473792	72	5210
2026-01-10 06:35:34.86	321.59	8.08	-53.6	-56.5	13.4	0.00e+00	0	24	0	1199570944	72	5317
2026-01-10 06:35:35.86	321.50	8.01	-53.7	-56.6	13.4	0.00e+00	0	23	0	1200619520	72	5344
2026-01-10 06:35:36.86	321.41	7.94	-53.7	-56.6	13.4	0.00e+00	0	23	0	1202716672	72	5342
2026-01-10 06:35:37.85	321.33	7.88	-53.7	-56.7	13.3	0.00e+00	0	23	0	1204813824	72	5424
2026-01-10 06:35:38.85	321.24	7.81	-53.7	-56.6	13.3	0.00e+00	0	23	0	1206910976	72	5389
2026-01-10 06:35:39.85	321.15	7.74	-53.7	-56.7	13.3	0.00e+00	0	23	0	1209008128	72	5412
2026-01-10 06:35:40.85	321.07	7.67	-53.8	-56.7	13.3	0.00e+00	0	23	0	1210056704	72	5460
2026-01-10 06:35:41.85	320.98	7.61	-53.6	-56.6	13.3	0.00e+00	0	23	0	1212153856	72	5348
2026-01-10 06:35:42.84	320.90	7.54	-53.7	-56.7	13.3	0.00e+00	0	23	0	1214251008	72	5406
2026-01-10 06:35:43.84	320.81	7.47	-53.6	-56.5	13.4	0.00e+00	0	23	0	1216348160	72	5295
2026-01-10 06:35:44.85	320.73	7.41	-53.7	-56.7	13.2	0.00e+00	0	23	0	1217396736	72	5429
