passes_logs/2026/01/10/R3.2S_Murmansk/R3.2S_Murmansk__20260110_022449_AQUA_rec.log

#Pass ID: 20260110_022449_AQUA
#Satellite: AQUA
#Configuration: AQUA
#almurnet v.1.7.20251203
#Start time: 2026-01-10 02:24:51

#Version: 2.2.20231116
#Station: R3.2S_Murmansk
#Location: 33.079688 lon 68.888172 lat
#TLE: 1 27424U 02022A   26009.00333547  .00001046  00000+0  21942-3 0  9998
#TLE: 2 27424  98.4075 335.3304 0002025  85.7625 349.1392 14.61808998260011

#Time	Az	El	Level	Level2	SNR	BER	BlckErr	Temp	State	Recorded	gain1	gain2
2026-01-10 02:24:51.26	23.84	2.14	-56.7	-76.0	3.8	7.45e-01	0	21	0	0	82	32903
2026-01-10 02:24:52.25	23.84	2.20	-56.6	-75.9	3.8	7.43e-01	0	21	104	0	81	34409
2026-01-10 02:24:53.23	23.84	2.27	-56.6	-75.9	3.8	7.46e-01	0	21	104	0	81	34368
2026-01-10 02:24:54.23	23.84	2.33	-56.6	-75.9	3.8	7.47e-01	0	21	104	0	81	34321
2026-01-10 02:24:55.23	23.84	2.40	-56.6	-75.9	3.8	7.46e-01	0	22	104	0	81	34309
2026-01-10 02:24:56.24	23.84	2.47	-56.6	-75.9	3.8	7.45e-01	0	22	104	0	81	34175
2026-01-10 02:24:57.23	23.84	2.54	-56.6	-75.9	3.8	7.45e-01	0	22	104	0	81	34311
2026-01-10 02:24:58.24	23.84	2.60	-56.6	-75.8	3.8	7.45e-01	0	22	104	0	81	34006
2026-01-10 02:24:59.23	23.84	2.67	-56.6	-75.8	3.8	7.46e-01	0	22	104	0	81	33954
2026-01-10 02:25:00.23	23.84	2.74	-56.6	-75.7	3.8	7.50e-01	0	22	104	0	81	33564
2026-01-10 02:25:01.23	23.84	2.81	-56.6	-75.6	3.8	7.45e-01	0	22	104	0	81	33234
2026-01-10 02:25:02.23	23.85	2.88	-56.6	-75.4	3.8	7.49e-01	0	22	104	0	81	32545
2026-01-10 02:25:03.23	23.85	2.94	-56.6	-75.3	3.8	7.47e-01	0	22	104	0	81	32057
2026-01-10 02:25:04.23	23.85	3.01	-56.6	-75.2	3.8	7.45e-01	0	22	104	0	81	31771
2026-01-10 02:25:05.23	23.85	3.08	-56.5	-75.1	3.8	7.40e-01	0	22	104	0	81	31195
2026-01-10 02:25:06.23	23.85	3.15	-56.5	-75.1	3.8	7.47e-01	0	22	104	0	81	31184
2026-01-10 02:25:07.24	23.85	3.22	-56.6	-75.3	3.8	7.46e-01	0	22	104	0	81	31854
2026-01-10 02:25:08.25	23.85	3.29	-56.6	-75.4	3.8	7.45e-01	0	22	104	0	81	32324
2026-01-10 02:25:09.25	23.85	3.36	-56.6	-75.5	3.8	7.47e-01	0	22	104	0	81	32725
2026-01-10 02:25:10.25	23.85	3.43	-56.6	-75.4	3.8	7.47e-01	0	22	104	0	81	32421
2026-01-10 02:25:11.26	23.85	3.50	-56.5	-75.0	3.8	7.45e-01	0	22	104	0	81	31036
2026-01-10 02:25:12.26	23.85	3.57	-56.4	-74.6	3.8	7.45e-01	0	22	104	0	81	29349
2026-01-10 02:25:13.26	23.85	3.64	-56.3	-73.8	3.8	7.49e-01	0	22	104	0	81	26936
2026-01-10 02:25:14.26	23.85	3.71	-56.1	-73.0	3.8	7.43e-01	0	22	104	0	81	24486
2026-01-10 02:25:15.26	23.85	3.78	-55.8	-71.7	3.8	7.48e-01	0	22	104	0	80	22463
2026-01-10 02:25:16.26	23.85	3.85	-55.6	-71.2	3.8	7.42e-01	0	22	104	0	80	21039
2026-01-10 02:25:17.26	23.85	3.93	-55.2	-69.9	3.8	7.46e-01	0	22	104	0	79	19235
2026-01-10 02:25:18.27	23.85	4.00	-54.9	-69.2	3.8	7.45e-01	0	22	104	0	79	17725
2026-01-10 02:25:19.27	23.85	4.07	-54.6	-68.6	3.8	7.44e-01	0	22	104	0	78	17532
2026-01-10 02:25:20.27	23.85	4.14	-54.4	-68.1	3.8	7.43e-01	0	22	104	0	78	16558
2026-01-10 02:25:21.26	23.85	4.21	-54.2	-67.7	3.9	7.45e-01	0	22	104	0	77	16742
2026-01-10 02:25:22.26	23.85	4.29	-54.0	-67.4	3.8	7.45e-01	0	22	104	0	77	16199
2026-01-10 02:25:23.26	23.85	4.36	-54.0	-67.4	3.8	7.43e-01	0	22	104	0	77	16175
2026-01-10 02:25:24.25	23.85	4.43	-54.0	-67.4	3.8	7.45e-01	0	22	104	0	77	16196
2026-01-10 02:25:25.25	23.85	4.50	-54.1	-67.5	3.8	7.45e-01	0	22	104	0	77	16422
2026-01-10 02:25:26.26	23.85	4.58	-54.1	-67.6	3.8	7.46e-01	0	22	104	0	77	16586
2026-01-10 02:25:27.26	23.85	4.65	-54.4	-68.1	3.8	7.46e-01	0	22	104	0	77	17525
2026-01-10 02:25:28.27	23.85	4.72	-54.5	-68.3	3.8	7.45e-01	0	22	104	0	77	18065
2026-01-10 02:25:29.27	23.85	4.80	-54.6	-68.6	3.8	7.46e-01	0	22	104	0	77	18633
2026-01-10 02:25:30.27	23.85	4.87	-54.9	-69.1	3.8	7.42e-01	0	22	104	0	77	19753
2026-01-10 02:25:31.27	23.85	4.95	-55.0	-69.5	3.8	7.45e-01	0	22	104	0	77	20637
2026-01-10 02:25:32.27	23.84	5.02	-55.0	-69.4	3.8	7.39e-01	0	22	104	0	77	20520
2026-01-10 02:25:33.27	23.84	5.10	-55.3	-69.9	3.9	7.45e-01	0	22	104	0	79	19208
2026-01-10 02:25:34.27	23.84	5.17	-55.1	-69.6	3.8	7.42e-01	0	22	104	0	78	19650
2026-01-10 02:25:35.27	23.84	5.25	-55.8	-71.4	3.8	7.46e-01	0	23	104	0	79	22828
2026-01-10 02:25:36.27	23.84	5.32	-53.0	-65.5	3.8	7.46e-01	0	22	104	0	74	15537
2026-01-10 02:25:37.27	23.84	5.40	-56.2	-73.5	3.9	7.47e-01	0	22	104	0	80	27577
2026-01-10 02:25:38.27	23.84	5.47	-52.4	-64.8	3.8	7.45e-01	0	22	104	0	74	14233
2026-01-10 02:25:39.27	23.84	5.55	-52.3	-64.7	3.9	7.44e-01	0	22	104	0	73	14891
2026-01-10 02:25:40.27	23.84	5.63	-51.7	-63.7	3.8	7.46e-01	0	22	104	0	72	14154
2026-01-10 02:25:41.27	23.84	5.70	-55.5	-70.2	3.9	7.46e-01	0	22	104	0	80	18870
2026-01-10 02:25:42.27	23.84	5.78	-54.0	-67.2	3.8	7.46e-01	0	23	104	0	76	16697
2026-01-10 02:25:43.26	23.84	5.86	-56.4	-73.8	3.9	7.43e-01	0	22	104	0	81	26917
2026-01-10 02:25:44.26	23.84	5.93	-51.6	-63.6	3.8	7.47e-01	0	22	104	0	71	14759
2026-01-10 02:25:45.25	23.84	6.01	-55.7	-70.8	3.8	7.44e-01	0	23	104	0	79	21434
2026-01-10 02:25:46.24	23.84	6.09	-51.0	-62.8	3.8	7.46e-01	0	22	104	0	71	13528
2026-01-10 02:25:47.24	23.84	6.17	-51.0	-62.8	3.8	7.46e-01	0	22	104	0	71	13471
2026-01-10 02:25:48.23	23.84	6.24	-50.7	-62.4	3.8	7.47e-01	0	22	104	0	70	13616
2026-01-10 02:25:49.24	23.83	6.32	-53.4	-66.3	3.8	7.44e-01	0	23	104	0	75	15966
2026-01-10 02:25:50.23	23.83	6.40	-54.8	-68.8	3.8	7.46e-01	0	23	104	0	77	19006
2026-01-10 02:25:51.22	23.83	6.48	-55.8	-71.2	3.9	7.45e-01	0	23	104	0	79	22365
2026-01-10 02:25:52.21	23.83	6.56	-51.6	-63.7	3.8	7.45e-01	0	23	104	0	71	14943
2026-01-10 02:25:53.20	23.83	6.64	-56.4	-73.4	3.9	7.43e-01	0	23	104	0	80	27289
2026-01-10 02:25:54.19	23.83	6.72	-51.0	-62.8	3.8	7.47e-01	0	23	104	0	71	13431
2026-01-10 02:25:55.19	23.83	6.80	-51.1	-63.0	3.8	7.43e-01	0	23	104	0	71	13746
2026-01-10 02:25:56.19	23.83	6.88	-51.3	-63.1	3.8	7.43e-01	0	23	104	0	71	14002
2026-01-10 02:25:57.18	23.83	6.96	-56.1	-72.2	3.8	7.46e-01	0	23	104	0	80	23597
2026-01-10 02:25:58.18	23.83	7.04	-53.6	-66.4	3.8	7.45e-01	0	23	104	0	76	15230
2026-01-10 02:25:59.18	23.82	7.12	-56.7	-74.6	3.9	7.45e-01	0	23	104	0	81	29517
2026-01-10 02:26:00.18	23.82	7.20	-50.9	-62.6	3.8	7.44e-01	0	23	104	0	70	13921
2026-01-10 02:26:01.18	23.82	7.29	-55.9	-71.1	3.8	7.42e-01	0	23	104	0	79	22068
2026-01-10 02:26:02.18	23.82	7.37	-50.8	-62.5	3.8	7.45e-01	0	23	104	0	70	13745
2026-01-10 02:26:03.17	23.82	7.45	-50.6	-62.2	3.8	7.47e-01	0	23	104	0	70	13366
2026-01-10 02:26:04.17	23.82	7.53	-50.6	-62.2	3.8	7.45e-01	0	23	104	0	70	13321
2026-01-10 02:26:05.17	23.82	7.62	-52.6	-65.0	3.9	7.45e-01	0	23	104	0	74	14609
2026-01-10 02:26:06.17	23.82	7.70	-53.5	-66.1	3.8	7.46e-01	0	23	104	0	74	16592
2026-01-10 02:26:07.17	23.81	7.78	-56.7	-74.6	3.9	7.44e-01	0	23	104	0	81	29418
2026-01-10 02:26:08.17	23.81	7.87	-51.2	-62.9	3.9	7.45e-01	0	23	104	0	71	13685
2026-01-10 02:26:09.16	23.81	7.95	-55.8	-70.7	3.8	7.44e-01	0	23	104	0	79	21155
2026-01-10 02:26:10.16	23.81	8.04	-51.0	-62.7	3.8	7.44e-01	0	23	104	0	71	13269
2026-01-10 02:26:11.15	23.81	8.12	-50.8	-62.5	3.8	7.47e-01	0	23	104	0	70	13863
2026-01-10 02:26:12.15	23.81	8.21	-50.8	-62.5	3.9	7.44e-01	0	23	104	0	70	13786
2026-01-10 02:26:13.16	23.80	8.29	-54.1	-67.2	3.8	7.47e-01	0	23	104	0	76	16741
2026-01-10 02:26:14.15	23.80	8.38	-54.8	-68.3	3.9	7.48e-01	0	23	104	0	77	18085
2026-01-10 02:26:15.15	23.80	8.47	-56.0	-71.3	3.9	7.46e-01	0	23	104	0	80	21287
2026-01-10 02:26:16.14	23.80	8.55	-51.2	-63.0	3.8	7.44e-01	0	23	104	0	71	13772
2026-01-10 02:26:17.14	23.80	8.64	-56.8	-74.2	3.8	7.45e-01	0	23	104	0	81	28161
2026-01-10 02:26:18.14	23.80	8.73	-51.1	-62.8	3.9	7.43e-01	0	23	104	0	71	13487
2026-01-10 02:26:19.14	23.79	8.81	-51.2	-62.9	3.8	7.46e-01	0	23	104	0	71	13710
2026-01-10 02:26:20.14	23.79	8.90	-51.0	-62.8	3.9	7.45e-01	0	23	104	0	71	13422
2026-01-10 02:26:21.14	23.79	8.99	-57.0	-74.7	3.8	7.47e-01	0	23	104	0	81	29694
2026-01-10 02:26:22.15	23.79	9.08	-53.6	-66.2	3.8	7.45e-01	0	23	104	0	76	14963
2026-01-10 02:26:23.15	23.79	9.17	-56.8	-74.5	3.9	7.44e-01	0	23	104	0	81	29111
2026-01-10 02:26:24.15	23.78	9.26	-50.5	-62.1	3.9	7.49e-01	0	23	104	0	70	13219
2026-01-10 02:26:25.15	23.78	9.35	-56.0	-70.9	3.9	7.45e-01	0	23	104	0	80	20419
2026-01-10 02:26:26.15	23.78	9.44	-50.3	-61.7	3.9	7.45e-01	0	23	104	0	69	13360
2026-01-10 02:26:27.16	23.78	9.53	-50.3	-61.9	3.9	7.45e-01	0	23	104	0	69	13620
2026-01-10 02:26:28.15	23.77	9.62	-50.1	-61.7	3.9	7.47e-01	0	23	104	0	69	13372
2026-01-10 02:26:29.15	23.77	9.71	-53.2	-65.8	3.9	7.46e-01	0	23	104	0	74	16003
2026-01-10 02:26:30.14	23.77	9.80	-54.4	-67.6	3.9	7.43e-01	0	23	104	0	76	17666
2026-01-10 02:26:31.13	23.77	9.90	-56.2	-71.5	3.8	7.43e-01	0	23	104	0	80	21937
2026-01-10 02:26:32.14	23.77	9.99	-51.0	-62.7	3.8	7.44e-01	0	23	104	0	70	14101
2026-01-10 02:26:33.14	23.76	10.08	-56.7	-73.7	3.8	7.44e-01	0	23	104	0	81	26562
2026-01-10 02:26:34.15	23.76	10.18	-50.8	-62.5	3.8	7.46e-01	0	23	104	0	70	13765
2026-01-10 02:26:35.15	23.76	10.27	-50.6	-62.3	3.8	7.47e-01	0	23	104	0	70	13466
2026-01-10 02:26:36.15	23.75	10.36	-50.6	-62.3	3.9	7.47e-01	0	23	104	0	70	13421
2026-01-10 02:26:37.15	23.75	10.46	-57.1	-74.6	3.8	7.47e-01	0	23	104	0	82	27830
2026-01-10 02:26:38.14	23.75	10.55	-53.1	-65.4	3.8	7.44e-01	0	23	104	0	75	14517
2026-01-10 02:26:39.13	23.75	10.65	-57.0	-74.6	3.8	7.46e-01	0	23	104	0	81	29642
2026-01-10 02:26:40.14	23.74	10.74	-50.0	-61.5	3.8	7.48e-01	0	23	104	0	69	13021
2026-01-10 02:26:41.14	23.74	10.84	-56.1	-71.0	3.8	7.41e-01	0	23	104	0	80	20622
2026-01-10 02:26:42.14	23.74	10.94	-49.8	-61.3	3.8	7.45e-01	0	23	104	0	68	13545
2026-01-10 02:26:43.14	23.73	11.03	-49.7	-61.2	3.8	7.45e-01	0	23	104	0	68	13346
2026-01-10 02:26:44.14	23.73	11.13	-49.5	-60.9	3.8	7.45e-01	0	23	104	0	68	12946
2026-01-10 02:26:45.14	23.73	11.23	-54.6	-67.9	3.9	7.47e-01	0	23	104	0	77	17095
2026-01-10 02:26:46.14	23.73	11.33	-52.9	-65.2	3.8	7.43e-01	0	23	104	0	75	14170
2026-01-10 02:26:47.15	23.72	11.43	-56.9	-74.4	3.8	7.43e-01	0	23	104	0	81	28791
2026-01-10 02:26:48.14	23.72	11.53	-49.7	-61.1	3.9	7.46e-01	0	23	104	0	68	13139
2026-01-10 02:26:49.14	23.72	11.63	-56.1	-70.9	3.8	7.43e-01	0	23	104	0	80	20420
2026-01-10 02:26:50.15	23.71	11.73	-49.7	-61.1	3.8	7.48e-01	0	23	104	0	68	13217
2026-01-10 02:26:51.15	23.71	11.83	-49.6	-61.0	3.9	7.43e-01	0	23	104	0	68	13075
2026-01-10 02:26:52.14	23.71	11.93	-49.4	-60.9	3.8	7.45e-01	0	23	104	0	68	12825
2026-01-10 02:26:53.14	23.70	12.03	-53.4	-66.0	3.8	7.46e-01	0	23	104	0	75	15406
2026-01-10 02:26:54.14	23.70	12.13	-53.8	-66.6	3.8	7.46e-01	0	23	104	0	75	16648
2026-01-10 02:26:55.14	23.69	12.23	-56.1	-71.0	3.8	7.43e-01	0	23	104	0	80	20632
2026-01-10 02:26:56.13	23.69	12.34	-49.9	-61.4	3.8	7.48e-01	0	23	104	0	68	13602
2026-01-10 02:26:57.14	23.69	12.44	-56.7	-73.1	3.8	7.45e-01	0	23	104	0	81	24803
2026-01-10 02:26:58.13	23.68	12.54	-49.8	-61.2	3.9	7.44e-01	0	23	104	0	68	13298
2026-01-10 02:26:59.13	23.68	12.65	-49.5	-60.9	3.8	7.49e-01	0	23	104	0	68	12904
2026-01-10 02:27:00.13	23.68	12.75	-49.3	-60.7	3.8	7.43e-01	0	23	104	0	67	13285
2026-01-10 02:27:01.12	23.67	12.86	-55.9	-70.5	3.8	7.43e-01	0	23	104	0	80	19456
2026-01-10 02:27:02.12	23.67	12.96	-52.7	-64.8	3.9	7.45e-01	0	23	104	0	73	15076
2026-01-10 02:27:03.12	23.66	13.07	-57.0	-74.1	3.8	7.44e-01	0	23	104	0	81	27733
2026-01-10 02:27:04.12	23.66	13.18	-49.5	-60.9	3.8	7.44e-01	0	23	104	0	68	12888
2026-01-10 02:27:05.12	23.65	13.28	-56.1	-70.9	3.8	7.44e-01	0	23	104	0	80	20456
2026-01-10 02:27:06.12	23.65	13.39	-49.5	-60.9	3.9	7.46e-01	0	23	104	0	68	12840
2026-01-10 02:27:07.12	23.65	13.50	-49.2	-60.6	3.9	7.47e-01	0	23	104	0	67	13229
2026-01-10 02:27:08.12	23.64	13.61	-49.2	-60.6	3.8	7.43e-01	0	23	104	0	67	13189
2026-01-10 02:27:09.12	23.64	13.72	-55.0	-68.4	3.8	7.44e-01	0	23	104	0	78	17233
2026-01-10 02:27:10.12	23.63	13.83	-53.7	-66.4	3.8	7.43e-01	0	23	104	0	75	16203
2026-01-10 02:27:11.11	23.63	13.94	-56.0	-70.7	3.8	7.41e-01	0	23	104	0	79	21260
2026-01-10 02:27:12.12	23.62	14.05	-50.1	-61.6	3.9	7.44e-01	0	23	104	0	69	13124
2026-01-10 02:27:13.12	23.62	14.16	-56.7	-72.8	3.8	7.44e-01	0	23	104	0	81	24118
2026-01-10 02:27:14.13	23.61	14.28	-49.9	-61.4	3.8	7.47e-01	0	23	104	0	69	12828
2026-01-10 02:27:15.12	23.61	14.39	-49.8	-61.2	3.8	7.49e-01	0	23	104	0	68	13352
2026-01-10 02:27:16.12	23.60	14.50	-49.4	-60.7	3.8	7.43e-01	0	23	104	0	68	12659
2026-01-10 02:27:17.12	23.60	14.62	-55.4	-69.3	3.9	7.46e-01	0	23	104	0	79	17940
2026-01-10 02:27:18.11	23.59	14.73	-52.4	-64.5	3.8	7.46e-01	0	23	104	0	72	15491
2026-01-10 02:27:19.11	23.59	14.85	-57.0	-74.0	3.8	7.45e-01	0	23	104	0	82	25876
2026-01-10 02:27:20.11	23.58	14.96	-49.4	-60.7	3.8	7.45e-01	0	23	104	0	67	13383
2026-01-10 02:27:21.11	23.58	15.08	-55.9	-70.3	3.8	7.45e-01	0	23	104	0	79	20092
2026-01-10 02:27:22.11	23.57	15.20	-49.2	-60.6	3.8	7.45e-01	0	23	104	0	67	13214
2026-01-10 02:27:23.11	23.57	15.31	-49.1	-60.4	3.9	7.46e-01	0	23	104	0	67	12930
2026-01-10 02:27:24.11	23.56	15.43	-48.9	-60.2	3.8	7.46e-01	0	23	104	0	67	12626
2026-01-10 02:27:25.10	23.55	15.55	-54.0	-66.7	3.9	7.45e-01	0	23	104	0	76	15912
2026-01-10 02:27:26.10	23.55	15.67	-53.3	-65.7	3.8	7.46e-01	0	23	104	0	74	15807
2026-01-10 02:27:27.10	23.54	15.79	-56.1	-70.9	3.8	7.47e-01	0	23	104	0	80	20346
2026-01-10 02:27:28.10	23.54	15.91	-49.1	-60.5	3.9	7.45e-01	0	23	104	0	67	12990
2026-01-10 02:27:29.09	23.53	16.03	-56.8	-72.8	3.8	7.46e-01	0	23	104	0	81	23983
2026-01-10 02:27:30.09	23.52	16.15	-49.1	-60.5	3.8	7.44e-01	0	23	104	0	67	12960
2026-01-10 02:27:31.10	23.52	16.28	-49.0	-60.3	3.8	7.44e-01	0	23	104	0	67	12677
2026-01-10 02:27:32.10	23.51	16.40	-49.0	-60.2	3.8	7.43e-01	0	23	104	0	67	12650
2026-01-10 02:27:33.09	23.50	16.53	-55.3	-69.1	3.9	7.42e-01	0	23	104	0	78	18523
2026-01-10 02:27:34.10	23.50	16.65	-53.2	-65.6	3.8	7.46e-01	0	23	104	0	74	15671
2026-01-10 02:27:35.09	23.49	16.78	-56.2	-70.8	3.8	7.49e-01	0	23	104	0	80	20260
2026-01-10 02:27:36.08	23.48	16.90	-49.3	-60.6	3.8	7.47e-01	0	23	104	0	67	13189
2026-01-10 02:27:37.09	23.48	17.03	-56.8	-72.8	3.8	7.47e-01	0	23	104	0	81	24036
2026-01-10 02:27:38.09	23.47	17.16	-49.3	-60.6	3.8	7.46e-01	0	23	104	0	67	13140
2026-01-10 02:27:39.09	23.46	17.29	-49.3	-60.6	3.8	7.45e-01	0	23	104	0	67	13243
2026-01-10 02:27:40.09	23.46	17.42	-49.4	-60.8	3.8	7.45e-01	0	23	104	0	67	13547
2026-01-10 02:27:41.08	23.45	17.55	-55.2	-68.8	3.9	7.47e-01	0	23	104	0	78	18064
2026-01-10 02:27:42.07	23.44	17.68	-52.5	-64.5	3.8	7.44e-01	0	23	104	0	73	14705
2026-01-10 02:27:43.07	23.43	17.81	-57.2	-74.2	3.9	7.45e-01	0	23	104	0	82	26570
2026-01-10 02:27:44.06	23.43	17.94	-49.4	-60.8	3.8	7.46e-01	0	23	104	0	68	12747
2026-01-10 02:27:45.06	23.42	18.07	-56.2	-70.8	3.8	7.47e-01	0	23	104	0	80	20163
2026-01-10 02:27:46.06	23.41	18.21	-49.3	-60.6	3.8	7.44e-01	0	23	104	0	67	13232
2026-01-10 02:27:47.06	23.40	18.34	-49.0	-60.4	3.8	7.45e-01	0	23	104	0	67	12855
2026-01-10 02:27:48.06	23.40	18.48	-49.0	-60.3	3.9	7.43e-01	0	23	104	0	67	12709
2026-01-10 02:27:49.06	23.39	18.62	-55.5	-69.4	3.9	7.47e-01	0	23	104	0	78	19187
2026-01-10 02:27:50.06	23.38	18.75	-52.6	-64.6	3.9	7.43e-01	0	23	104	0	74	13924
2026-01-10 02:27:51.05	23.37	18.89	-57.2	-73.9	3.8	7.46e-01	0	23	104	0	82	25640
2026-01-10 02:27:52.05	23.36	19.03	-49.7	-61.1	3.8	7.46e-01	0	23	104	0	68	13148
2026-01-10 02:27:53.05	23.35	19.17	-55.9	-70.1	3.8	7.49e-01	0	23	104	0	79	19778
2026-01-10 02:27:54.05	23.34	19.31	-49.7	-61.1	3.8	7.43e-01	0	23	104	0	68	13251
2026-01-10 02:27:55.05	23.34	19.45	-49.6	-61.0	3.9	7.45e-01	0	23	104	0	68	13027
2026-01-10 02:27:56.05	23.33	19.59	-49.6	-61.0	3.8	7.46e-01	0	23	104	0	68	13049
2026-01-10 02:27:57.05	23.32	19.74	-55.3	-68.9	3.8	7.45e-01	0	23	104	0	78	18206
2026-01-10 02:27:58.04	23.31	19.88	-53.4	-65.9	3.8	7.46e-01	0	23	104	0	74	16134
2026-01-10 02:27:59.04	23.30	20.03	-56.4	-71.1	3.8	7.45e-01	0	23	104	0	80	20802
2026-01-10 02:28:00.04	23.29	20.17	-49.5	-60.8	3.8	7.49e-01	0	23	104	0	68	12768
2026-01-10 02:28:01.03	23.28	20.32	-56.9	-72.9	3.8	7.44e-01	0	23	104	0	81	24397
2026-01-10 02:28:02.03	23.27	20.47	-49.4	-60.8	3.8	7.47e-01	0	23	104	0	68	12665
2026-01-10 02:28:03.03	23.26	20.62	-49.4	-60.8	3.9	7.44e-01	0	23	104	0	68	12683
2026-01-10 02:28:04.03	23.25	20.77	-49.5	-60.9	3.9	7.49e-01	0	23	104	0	68	12841
2026-01-10 02:28:05.03	23.24	20.92	-57.3	-74.0	3.8	7.46e-01	0	23	104	0	82	26142
2026-01-10 02:28:06.03	23.23	21.07	-52.9	-64.9	3.8	7.45e-01	0	23	104	0	74	14529
2026-01-10 02:28:07.03	23.22	21.22	-57.4	-74.3	3.8	7.46e-01	0	23	104	0	82	26827
2026-01-10 02:28:08.03	23.21	21.38	-49.6	-60.9	3.8	7.46e-01	0	23	104	0	68	12889
2026-01-10 02:28:09.03	23.20	21.53	-56.4	-71.0	3.8	7.48e-01	0	23	104	0	80	20760
2026-01-10 02:28:10.03	23.19	21.69	-49.6	-61.0	3.8	7.45e-01	0	23	104	0	68	13053
2026-01-10 02:28:11.03	23.17	21.85	-49.7	-61.1	3.8	7.47e-01	0	23	104	0	68	13232
2026-01-10 02:28:12.04	23.16	22.01	-49.6	-61.0	3.8	7.45e-01	0	23	104	0	68	13047
2026-01-10 02:28:13.04	23.15	22.17	-55.2	-68.6	3.8	7.43e-01	0	23	104	0	78	17550
2026-01-10 02:28:14.04	23.14	22.33	-53.6	-66.1	3.8	7.45e-01	0	23	104	0	74	16518
2026-01-10 02:28:15.03	23.13	22.49	-56.5	-71.4	3.8	7.46e-01	0	23	104	0	80	21586
2026-01-10 02:28:16.03	23.12	22.65	-49.8	-61.2	3.8	7.47e-01	0	23	104	0	68	13356
2026-01-10 02:28:17.03	23.10	22.82	-57.1	-73.2	3.8	7.44e-01	0	23	104	0	81	25206
2026-01-10 02:28:18.04	23.09	22.98	-49.9	-61.3	3.8	7.43e-01	0	23	104	0	69	12744
2026-01-10 02:28:19.04	23.08	23.15	-49.7	-61.1	3.8	7.48e-01	0	23	104	0	68	13231
2026-01-10 02:28:20.04	23.07	23.32	-49.7	-61.2	3.8	7.42e-01	0	23	104	0	68	13276
2026-01-10 02:28:21.03	23.05	23.48	-56.1	-70.5	3.9	7.45e-01	0	23	104	0	80	19403
2026-01-10 02:28:22.03	23.04	23.65	-53.8	-66.3	3.8	7.43e-01	0	23	104	0	75	16036
2026-01-10 02:28:23.03	23.03	23.82	-56.6	-71.5	3.8	7.48e-01	0	23	104	0	80	21830
2026-01-10 02:28:24.03	23.01	24.00	-49.7	-61.1	3.8	7.46e-01	0	23	104	0	68	13141
2026-01-10 02:28:25.03	23.00	24.17	-57.1	-73.1	3.8	7.46e-01	0	23	104	0	81	24843
2026-01-10 02:28:26.02	22.98	24.34	-49.6	-61.0	3.8	7.48e-01	0	23	104	0	68	13071
2026-01-10 02:28:27.02	22.97	24.52	-49.5	-60.9	3.9	7.42e-01	0	23	104	0	68	12923
2026-01-10 02:28:28.02	22.96	24.70	-49.5	-60.9	3.8	7.48e-01	0	23	104	0	68	12945
2026-01-10 02:28:29.02	22.94	24.88	-56.3	-70.7	3.8	7.48e-01	0	23	104	0	80	20015
2026-01-10 02:28:30.02	22.93	25.06	-53.6	-66.0	3.9	7.48e-01	0	23	104	0	74	16415
2026-01-10 02:28:31.02	22.91	25.24	-56.6	-71.4	3.8	7.45e-01	0	23	104	0	80	21555
2026-01-10 02:28:32.02	22.90	25.42	-49.6	-60.9	3.8	7.49e-01	0	23	104	0	68	12932
2026-01-10 02:28:33.02	22.88	25.60	-57.0	-72.9	3.8	7.52e-01	0	23	104	0	81	24180
2026-01-10 02:28:34.03	22.86	25.79	-49.5	-60.9	3.8	7.45e-01	0	23	104	0	68	12838
2026-01-10 02:28:35.02	22.85	25.98	-49.6	-61.0	3.9	7.45e-01	0	23	104	0	68	12991
2026-01-10 02:28:36.02	22.83	26.17	-49.6	-61.0	3.8	7.43e-01	0	23	104	0	68	12974
2026-01-10 02:28:37.02	22.82	26.35	-56.7	-71.9	3.9	7.44e-01	0	23	104	0	81	21566
2026-01-10 02:28:38.02	22.80	26.55	-52.8	-64.8	3.9	7.45e-01	0	23	104	0	73	15193
2026-01-10 02:28:39.03	22.78	26.74	-57.4	-74.2	3.8	7.47e-01	0	23	104	0	82	26591
2026-01-10 02:28:40.03	22.76	26.94	-49.9	-61.3	3.9	7.43e-01	0	23	104	0	69	12772
2026-01-10 02:28:41.02	22.75	27.13	-56.3	-70.5	3.8	7.46e-01	0	23	104	0	80	19519
2026-01-10 02:28:42.02	22.73	27.33	-49.8	-61.2	3.8	7.44e-01	0	23	104	0	68	13287
2026-01-10 02:28:43.01	22.71	27.52	-49.9	-61.4	3.8	7.52e-01	0	23	104	0	68	13579
2026-01-10 02:28:44.01	22.69	27.72	-49.3	-60.6	3.8	7.44e-01	0	23	104	0	67	13256
2026-01-10 02:28:45.00	22.67	27.92	-54.4	-67.2	3.8	7.50e-01	0	23	104	0	76	16867
2026-01-10 02:28:46.00	22.65	28.13	-52.9	-65.0	3.8	7.44e-01	0	23	104	0	73	15488
2026-01-10 02:28:47.00	22.64	28.33	-56.4	-71.0	3.8	7.47e-01	0	23	104	0	80	20616
2026-01-10 02:28:48.00	22.62	28.54	-48.8	-60.1	3.8	7.45e-01	0	23	104	0	66	13121
2026-01-10 02:28:49.00	22.60	28.75	-57.0	-72.5	3.8	7.50e-01	0	23	104	0	81	23093
2026-01-10 02:28:50.01	22.58	28.96	-49.0	-60.3	3.9	7.48e-01	0	23	104	0	67	12688
2026-01-10 02:28:51.00	22.55	29.17	-49.1	-60.4	3.8	7.48e-01	0	23	104	0	67	12933
2026-01-10 02:28:52.00	22.53	29.38	-49.2	-60.5	3.9	7.44e-01	0	23	104	0	67	13097
2026-01-10 02:28:52.99	22.51	29.60	-56.6	-71.4	3.8	7.47e-01	0	23	104	0	80	21549
2026-01-10 02:28:54.00	22.49	29.81	-53.0	-65.1	3.8	7.42e-01	0	23	104	0	73	15695
2026-01-10 02:28:55.00	22.47	30.03	-56.5	-71.0	3.8	7.48e-01	0	23	104	0	80	20591
2026-01-10 02:28:56.00	22.45	30.25	-49.1	-60.4	3.8	7.43e-01	0	23	104	0	67	12908
2026-01-10 02:28:56.99	22.42	30.47	-56.9	-72.2	3.8	7.48e-01	0	23	104	0	81	22496
2026-01-10 02:28:57.99	22.40	30.70	-49.0	-60.2	3.8	7.45e-01	0	23	104	0	67	12646
2026-01-10 02:28:58.99	22.38	30.92	-49.0	-60.2	3.8	7.45e-01	0	23	104	0	67	12654
2026-01-10 02:28:59.99	22.35	31.15	-49.1	-60.4	3.8	7.44e-01	0	23	104	0	67	12885
2026-01-10 02:29:00.99	22.33	31.38	-56.8	-71.9	3.8	7.45e-01	0	23	104	0	81	21694
2026-01-10 02:29:01.99	22.30	31.61	-52.8	-64.9	3.8	7.44e-01	0	23	104	0	73	15301
2026-01-10 02:29:02.99	22.28	31.85	-56.4	-70.7	3.8	7.47e-01	0	23	104	0	80	19864
2026-01-10 02:29:03.99	22.25	32.08	-49.1	-60.4	3.9	7.45e-01	0	23	104	0	67	12834
2026-01-10 02:29:04.99	22.23	32.32	-56.9	-72.2	3.8	7.47e-01	0	23	104	0	81	22419
2026-01-10 02:29:06.00	22.20	32.56	-49.1	-60.3	3.8	7.48e-01	0	23	104	0	67	12740
2026-01-10 02:29:06.99	22.17	32.80	-49.2	-60.4	3.8	7.49e-01	0	23	104	0	67	12918
2026-01-10 02:29:08.00	22.15	33.05	-49.2	-60.5	3.8	7.45e-01	0	23	104	0	67	12970
2026-01-10 02:29:09.00	22.12	33.30	-56.0	-70.1	3.9	7.45e-01	0	23	104	0	80	18525
2026-01-10 02:29:10.01	22.09	33.55	-52.8	-64.9	3.8	7.46e-01	0	23	104	0	74	14468
2026-01-10 02:29:11.00	22.06	33.80	-57.5	-73.9	3.8	7.47e-01	0	23	104	0	82	25787
2026-01-10 02:29:12.01	22.03	34.05	-50.0	-61.3	3.9	7.44e-01	0	23	104	0	69	12810
2026-01-10 02:29:13.01	22.00	34.31	-56.6	-71.1	3.8	7.47e-01	0	23	104	0	80	20929
2026-01-10 02:29:14.02	21.97	34.57	-50.0	-61.4	3.8	7.44e-01	0	23	104	0	69	12907
2026-01-10 02:29:15.02	21.94	34.82	-50.2	-61.6	3.9	7.47e-01	0	23	104	0	69	13240
2026-01-10 02:29:16.01	21.91	35.08	-50.0	-61.3	3.9	7.46e-01	0	23	104	0	69	12773
2026-01-10 02:29:17.02	21.87	35.35	-55.8	-69.6	3.8	7.45e-01	0	23	104	0	79	18687
2026-01-10 02:29:18.02	21.84	35.62	-53.8	-66.1	3.8	7.43e-01	0	23	104	0	75	15713
2026-01-10 02:29:19.02	21.81	35.89	-57.0	-72.3	3.8	7.48e-01	0	23	104	0	81	22662
2026-01-10 02:29:20.03	21.77	36.16	-50.5	-61.9	3.8	7.43e-01	0	23	104	0	70	12929
2026-01-10 02:29:21.02	21.74	36.43	-57.5	-73.9	3.8	7.49e-01	0	23	104	0	82	25636
2026-01-10 02:29:22.03	21.70	36.71	-50.8	-62.3	3.8	7.47e-01	0	23	104	0	70	13450
2026-01-10 02:29:23.04	21.66	36.99	-50.8	-62.2	3.8	7.44e-01	0	23	104	0	70	13375
2026-01-10 02:29:24.04	21.63	37.27	-50.9	-62.4	3.9	7.43e-01	0	23	104	0	70	13598
2026-01-10 02:29:25.03	21.59	37.55	-56.6	-71.4	3.8	7.45e-01	0	23	104	0	81	20362
2026-01-10 02:29:26.03	21.55	37.84	-54.8	-67.6	3.8	7.46e-01	0	23	104	0	77	16638
2026-01-10 02:29:27.03	21.51	38.13	-57.3	-72.9	3.9	7.46e-01	0	23	104	0	82	22965
2026-01-10 02:29:28.04	21.47	38.42	-51.1	-62.6	3.8	7.46e-01	0	23	104	0	71	13226
2026-01-10 02:29:29.03	21.43	38.71	-57.5	-73.9	3.8	7.44e-01	0	23	104	0	82	25768
2026-01-10 02:29:30.03	21.39	39.01	-51.0	-62.5	3.8	7.46e-01	0	23	104	0	71	13007
2026-01-10 02:29:31.03	21.35	39.31	-51.0	-62.6	3.8	7.45e-01	0	23	104	0	71	13167
2026-01-10 02:29:32.04	21.30	39.61	-51.0	-62.5	3.8	7.42e-01	0	23	104	0	71	13077
2026-01-10 02:29:33.04	21.26	39.92	-57.1	-72.5	3.8	7.42e-01	0	23	104	0	82	21890
2026-01-10 02:29:34.05	21.21	40.23	-54.5	-67.2	3.8	7.48e-01	0	23	104	0	76	16720
2026-01-10 02:29:35.05	21.16	40.54	-57.1	-72.5	3.8	7.48e-01	0	23	104	0	81	23094
2026-01-10 02:29:36.04	21.12	40.85	-51.7	-63.4	3.9	7.44e-01	0	23	104	0	72	13682
2026-01-10 02:29:37.05	21.07	41.17	-57.4	-73.4	3.8	7.45e-01	0	23	104	0	82	24184
2026-01-10 02:29:38.06	21.02	41.49	-51.8	-63.6	3.8	7.44e-01	0	23	104	0	72	14042
2026-01-10 02:29:39.05	20.97	41.81	-51.7	-63.4	3.8	7.47e-01	0	23	104	0	72	13683
2026-01-10 02:29:40.05	20.92	42.14	-51.3	-62.9	3.8	7.46e-01	0	23	104	0	71	13611
2026-01-10 02:29:41.05	20.86	42.47	-58.1	-76.3	3.8	7.44e-01	0	23	104	0	83	31822
2026-01-10 02:29:42.05	20.81	42.80	-53.1	-65.1	3.8	7.39e-01	0	23	104	0	75	13997
2026-01-10 02:29:43.05	20.76	43.13	-57.4	-73.4	3.8	7.42e-01	0	23	104	0	82	24162
2026-01-10 02:29:44.06	20.70	43.47	-50.3	-61.7	3.8	7.49e-01	0	23	104	0	69	13378
2026-01-10 02:29:45.06	20.64	43.81	-56.8	-71.5	3.8	7.43e-01	0	23	104	0	81	20743
2026-01-10 02:29:46.06	20.58	44.16	-50.0	-61.5	3.8	7.45e-01	0	23	104	0	69	12965
2026-01-10 02:29:47.07	20.52	44.51	-49.8	-61.1	3.8	7.46e-01	0	23	104	0	68	13210
2026-01-10 02:29:48.07	20.46	44.86	-49.7	-60.9	3.9	7.45e-01	0	23	104	0	68	12899
2026-01-10 02:29:49.07	20.39	45.21	-57.1	-72.5	3.8	7.46e-01	0	23	104	0	82	21919
2026-01-10 02:29:50.07	20.33	45.57	-53.2	-65.4	3.8	7.49e-01	0	23	104	0	74	15272
2026-01-10 02:29:51.07	20.26	45.93	-56.5	-70.8	3.9	7.42e-01	0	23	104	0	81	19140
2026-01-10 02:29:52.07	20.19	46.29	-49.5	-60.8	3.8	7.44e-01	0	23	104	0	68	12673
2026-01-10 02:29:53.06	20.12	46.66	-57.3	-72.9	3.8	7.42e-01	0	23	104	0	82	22847
2026-01-10 02:29:54.06	20.05	47.03	-49.5	-60.8	3.8	7.44e-01	0	23	104	0	68	12789
2026-01-10 02:29:55.05	19.98	47.39	-49.4	-60.6	3.8	7.45e-01	0	23	104	0	68	12505
2026-01-10 02:29:56.05	19.90	47.77	-49.6	-61.0	3.9	7.44e-01	0	23	104	0	68	13085
2026-01-10 02:29:57.05	19.83	48.15	-57.5	-73.8	3.8	7.48e-01	0	23	104	0	83	23939
2026-01-10 02:29:58.05	19.75	48.54	-53.4	-65.6	3.8	7.44e-01	0	23	104	0	74	15620
2026-01-10 02:29:59.05	19.66	48.92	-56.7	-71.2	3.8	7.47e-01	0	23	104	0	81	20069
2026-01-10 02:30:00.05	19.58	49.31	-50.7	-62.1	3.8	7.43e-01	0	23	104	0	70	13169
2026-01-10 02:30:01.04	19.49	49.70	-57.1	-72.4	3.8	7.45e-01	0	23	104	0	81	23009
2026-01-10 02:30:02.04	19.41	50.10	-50.1	-61.5	3.8	7.45e-01	0	23	104	0	69	13002
2026-01-10 02:30:03.04	19.31	50.50	-50.0	-61.3	3.8	7.44e-01	0	23	104	0	69	12711
2026-01-10 02:30:04.04	19.22	50.91	-50.1	-61.6	3.8	7.46e-01	0	23	104	0	69	13178
2026-01-10 02:30:05.05	19.12	51.32	-58.4	-76.8	3.8	7.46e-01	0	23	104	0	84	32000
2026-01-10 02:30:06.04	19.02	51.73	-52.2	-63.9	3.8	7.46e-01	0	23	104	0	73	13591
2026-01-10 02:30:07.04	18.92	52.15	-57.1	-72.2	3.8	7.47e-01	0	23	104	0	81	22352
2026-01-10 02:30:08.04	18.82	52.57	-49.2	-60.4	3.8	7.45e-01	0	23	104	0	67	12874
2026-01-10 02:30:09.04	18.71	52.99	-56.5	-70.4	3.8	7.44e-01	0	23	104	0	80	19279
2026-01-10 02:30:10.04	18.60	53.42	-49.2	-60.5	3.8	7.45e-01	0	23	104	0	67	13030
2026-01-10 02:30:11.04	18.48	53.85	-49.4	-60.7	3.8	7.45e-01	0	23	104	0	67	13404
2026-01-10 02:30:12.04	18.36	54.28	-49.1	-60.4	3.8	7.44e-01	0	23	104	0	67	12834
2026-01-10 02:30:13.05	18.24	54.72	-56.9	-71.7	3.8	7.43e-01	0	23	104	0	82	19994
2026-01-10 02:30:14.05	18.11	55.16	-52.0	-63.8	3.8	7.46e-01	0	23	104	0	73	13465
2026-01-10 02:30:15.06	17.98	55.61	-57.0	-71.8	3.8	7.43e-01	0	23	104	0	81	21497
2026-01-10 02:30:16.05	17.84	56.06	-49.7	-61.0	3.8	7.44e-01	0	23	104	0	68	13060
2026-01-10 02:30:17.06	17.70	56.52	-56.6	-70.9	3.8	7.48e-01	0	23	104	0	81	19198
2026-01-10 02:30:18.06	17.56	56.97	-49.7	-60.9	3.8	7.44e-01	0	23	104	0	68	12881
2026-01-10 02:30:19.06	17.41	57.43	-49.9	-61.3	3.8	7.43e-01	0	23	104	0	68	13487
2026-01-10 02:30:20.07	17.25	57.90	-50.0	-61.4	3.8	7.46e-01	0	23	104	0	68	13651
2026-01-10 02:30:21.06	17.09	58.36	-54.6	-67.3	3.8	7.46e-01	0	23	104	0	77	15962
2026-01-10 02:30:22.06	16.92	58.84	-52.9	-64.9	3.8	7.47e-01	0	23	104	0	73	15271
2026-01-10 02:30:23.06	16.75	59.31	-57.4	-72.8	3.8	7.44e-01	0	23	104	0	82	22745
2026-01-10 02:30:24.06	16.57	59.79	-50.9	-62.4	3.8	7.47e-01	0	23	104	0	70	13681
2026-01-10 02:30:25.07	16.38	60.28	-57.2	-71.9	3.8	7.46e-01	0	23	104	0	82	20500
2026-01-10 02:30:26.07	16.18	60.76	-50.9	-62.3	3.8	7.44e-01	0	23	104	0	71	12746
2026-01-10 02:30:27.07	15.98	61.25	-50.9	-62.4	3.8	7.44e-01	0	23	104	0	70	13677
2026-01-10 02:30:28.12	15.76	61.77	-51.2	-62.8	3.8	7.46e-01	0	23	104	0	70	14254
2026-01-10 02:30:29.01	15.56	62.21	-57.8	-74.1	3.8	7.46e-01	0	23	104	0	83	24938
2026-01-10 02:30:30.12	15.31	62.76	-54.5	-67.2	3.8	7.46e-01	0	23	104	0	76	16858
2026-01-10 02:30:30.97	15.11	63.19	-57.3	-72.3	3.8	7.44e-01	0	23	104	0	82	21456
2026-01-10 02:30:32.12	14.82	63.77	-52.2	-54.4	15.7	6.03e-01	0	23	0	524288	73	4572
2026-01-10 02:30:32.97	14.60	64.21	-57.5	-65.0	10.9	6.11e-01	0	23	0	2097152	82	9205
2026-01-10 02:30:34.12	14.28	64.80	-52.3	-54.5	15.7	6.02e-01	0	23	0	4718592	73	4623
2026-01-10 02:30:34.98	14.04	65.24	-52.8	-55.2	15.4	6.01e-01	0	23	0	6291456	73	4986
2026-01-10 02:30:36.13	13.69	65.83	-52.5	-54.8	15.5	6.04e-01	0	23	0	8388608	73	4791
2026-01-10 02:30:36.98	13.43	66.28	-52.4	-54.7	15.6	6.04e-01	0	23	0	9961472	73	4714
2026-01-10 02:30:38.12	13.05	66.87	-53.2	-55.8	15.3	6.05e-01	0	23	0	12058624	74	5072
2026-01-10 02:30:38.99	12.75	67.33	-52.9	-55.3	15.5	6.04e-01	0	23	0	13631488	74	4779
2026-01-10 02:30:40.12	12.33	67.93	-53.4	-56.0	15.2	6.04e-01	0	23	0	15728640	74	5201
2026-01-10 02:30:40.98	12.00	68.39	-53.3	-55.8	15.3	6.03e-01	0	23	0	17301504	74	5082
2026-01-10 02:30:42.12	11.54	69.00	-53.2	-55.7	15.3	6.03e-01	0	23	0	19398656	74	5019
2026-01-10 02:30:42.97	11.17	69.45	-53.4	-56.1	15.1	6.02e-01	0	23	0	20971520	74	5264
2026-01-10 02:30:44.12	10.65	70.07	-53.1	-55.5	15.4	6.03e-01	0	23	0	23068672	74	4923
2026-01-10 02:30:44.97	10.24	70.53	-53.2	-55.8	15.3	6.05e-01	0	23	0	24641536	74	5055
2026-01-10 02:30:46.11	9.66	71.15	-52.9	-55.3	15.5	6.04e-01	0	23	0	26738688	74	4766
2026-01-10 02:30:46.96	9.19	71.61	-52.7	-55.0	15.6	6.04e-01	0	23	0	28311552	74	4649
2026-01-10 02:30:48.10	8.53	72.23	-52.7	-55.0	15.7	6.04e-01	0	23	0	30408704	74	4602
2026-01-10 02:30:48.96	8.00	72.70	-52.5	-54.8	15.8	6.03e-01	0	23	0	32505856	74	4508
2026-01-10 02:30:50.11	7.24	73.33	-52.2	-54.3	15.8	6.04e-01	0	23	0	34603008	73	4533
2026-01-10 02:30:50.97	6.62	73.80	-52.2	-54.3	15.8	6.04e-01	0	23	0	36175872	73	4540
2026-01-10 02:30:52.12	5.75	74.43	-52.4	-54.6	15.6	6.02e-01	0	23	0	38273024	73	4676
2026-01-10 02:30:52.97	5.05	74.89	-51.9	-54.0	15.9	6.04e-01	0	23	0	39845888	73	4353
2026-01-10 02:30:54.11	4.04	75.51	-52.2	-54.3	15.6	6.02e-01	0	23	0	41943040	72	4811
2026-01-10 02:30:54.97	3.22	75.98	-52.3	-54.5	15.5	6.04e-01	0	23	0	43515904	72	4907
2026-01-10 02:30:56.10	2.04	76.59	-52.1	-54.3	15.5	6.02e-01	0	23	0	45613056	72	4796
2026-01-10 02:30:56.95	1.09	77.05	-52.0	-54.2	15.7	6.02e-01	0	23	0	47185920	72	4710
2026-01-10 02:30:58.09	359.69	77.66	-52.5	-54.8	15.4	6.02e-01	0	23	0	49283072	72	5065
2026-01-10 02:30:58.95	358.53	78.12	-51.9	-54.0	15.7	6.03e-01	0	23	0	50855936	72	4638
2026-01-10 02:31:00.08	356.87	78.72	-51.9	-54.1	15.7	6.02e-01	0	23	0	52953088	72	4653
2026-01-10 02:31:00.94	355.48	79.16	-51.9	-54.0	15.7	6.05e-01	0	23	0	54525952	72	4651
2026-01-10 02:31:02.09	353.43	79.75	-50.2	-52.0	16.1	6.02e-01	0	23	0	57147392	69	4358
2026-01-10 02:31:02.95	351.74	80.19	-50.2	-52.0	16.0	6.03e-01	0	23	0	58720256	69	4343
2026-01-10 02:31:04.09	349.24	80.75	-50.6	-52.4	15.8	6.05e-01	0	23	0	60817408	69	4565
2026-01-10 02:31:04.94	347.17	81.15	-49.7	-51.3	16.1	6.05e-01	0	23	0	62390272	68	4270
2026-01-10 02:31:06.08	344.08	81.68	-50.0	-51.7	15.9	6.02e-01	0	23	0	64487424	68	4474
2026-01-10 02:31:06.93	341.51	82.05	-50.1	-51.8	15.9	6.04e-01	0	23	0	66060288	68	4534
2026-01-10 02:31:08.07	337.67	82.53	-50.1	-51.9	15.8	6.05e-01	0	23	0	68157440	68	4564
2026-01-10 02:31:08.93	334.44	82.87	-50.0	-51.7	15.9	6.04e-01	0	23	0	69730304	68	4472
2026-01-10 02:31:10.07	329.67	83.27	-50.6	-52.4	15.6	6.02e-01	0	23	0	71827456	68	4856
2026-01-10 02:31:10.93	325.69	83.55	-50.0	-51.8	15.9	6.04e-01	0	23	0	73400320	68	4499
2026-01-10 02:31:12.07	319.91	83.86	-50.5	-52.3	15.7	6.04e-01	0	23	0	75497472	68	4766
2026-01-10 02:31:12.92	315.23	84.04	-50.4	-52.2	15.7	6.04e-01	0	23	0	77070336	68	4745
2026-01-10 02:31:14.07	308.49	84.23	-49.7	-51.4	16.0	6.03e-01	0	23	0	79167488	68	4302
2026-01-10 02:31:14.93	303.21	84.32	-49.8	-51.5	16.0	6.03e-01	0	23	0	81264640	68	4363
2026-01-10 02:31:16.08	295.99	84.35	-49.9	-51.6	16.0	6.03e-01	0	23	0	83361792	68	4408
2026-01-10 02:31:16.94	290.59	84.32	-49.9	-51.6	16.0	6.02e-01	0	23	0	84934656	68	4406
2026-01-10 02:31:18.08	283.61	84.20	-49.7	-51.4	16.0	6.03e-01	0	23	0	87031808	68	4322
2026-01-10 02:31:18.94	278.59	84.06	-50.2	-51.9	15.8	6.02e-01	0	23	0	88604672	68	4586
2026-01-10 02:31:20.08	272.35	83.80	-50.1	-51.9	15.9	6.03e-01	0	23	0	90701824	68	4546
2026-01-10 02:31:20.94	268.02	83.57	-50.3	-52.1	15.8	6.07e-01	0	23	0	92274688	68	4688
2026-01-10 02:31:22.09	262.74	83.20	-50.3	-52.1	15.8	6.02e-01	0	23	0	94371840	68	4676
2026-01-10 02:31:22.95	259.17	82.89	-50.4	-52.2	15.8	6.05e-01	0	23	0	95944704	68	4722
2026-01-10 02:31:24.09	254.92	82.44	-50.0	-51.7	15.9	6.04e-01	0	23	0	98041856	68	4493
2026-01-10 02:31:24.95	252.05	82.08	-49.9	-51.6	15.9	6.02e-01	0	23	0	99614720	68	4437
2026-01-10 02:31:26.08	248.66	81.58	-50.1	-51.8	15.9	6.02e-01	0	23	0	101711872	68	4514
2026-01-10 02:31:26.93	246.38	81.18	-50.2	-52.0	15.8	6.03e-01	0	23	0	103284736	68	4609
2026-01-10 02:31:28.07	243.63	80.64	-50.0	-51.7	15.9	6.03e-01	0	23	0	105906176	68	4480
2026-01-10 02:31:28.93	241.76	80.21	-49.9	-51.6	16.0	6.03e-01	0	23	0	107479040	68	4408
2026-01-10 02:31:30.07	239.53	79.64	-50.6	-52.5	15.8	6.04e-01	0	23	0	109576192	69	4603
2026-01-10 02:31:30.92	238.02	79.20	-50.4	-52.2	15.9	6.03e-01	0	23	0	111149056	69	4450
2026-01-10 02:31:32.06	236.19	78.61	-51.3	-53.3	15.7	6.03e-01	0	23	0	113246208	70	4790
2026-01-10 02:31:32.91	234.95	78.16	-51.9	-54.0	15.5	6.04e-01	0	23	0	114819072	71	4880
2026-01-10 02:31:34.06	233.42	77.55	-51.6	-53.6	15.7	6.05e-01	0	23	0	116916224	71	4687
2026-01-10 02:31:34.91	232.38	77.09	-52.5	-54.8	15.4	6.05e-01	0	23	0	118489088	72	5077
2026-01-10 02:31:36.05	231.10	76.47	-52.9	-55.4	15.3	6.02e-01	0	23	0	120586240	73	5131
2026-01-10 02:31:36.91	230.21	76.01	-52.9	-55.3	15.3	6.02e-01	0	23	0	122159104	73	5081
2026-01-10 02:31:38.05	229.13	75.39	-52.4	-54.6	15.6	6.05e-01	0	23	0	124256256	73	4656
2026-01-10 02:31:38.90	228.38	74.92	-52.8	-55.1	15.4	6.04e-01	0	23	0	125829120	73	4964
2026-01-10 02:31:40.04	227.45	74.30	-53.1	-55.6	15.4	6.02e-01	0	23	0	127926272	74	4971
2026-01-10 02:31:40.90	226.80	73.83	-52.2	-54.4	15.7	6.03e-01	0	23	0	129499136	73	4549
2026-01-10 02:31:42.04	225.99	73.20	-52.3	-54.5	15.5	6.03e-01	0	23	0	131596288	72	4889
2026-01-10 02:31:42.90	225.42	72.73	-52.6	-54.9	15.5	6.03e-01	0	23	0	133169152	73	4855
2026-01-10 02:31:44.04	224.72	72.11	-52.5	-54.8	15.6	6.02e-01	0	23	0	135790592	73	4764
2026-01-10 02:31:44.89	224.23	71.65	-52.6	-54.8	15.6	6.04e-01	0	23	0	137363456	73	4807
2026-01-10 02:31:46.02	223.62	71.03	-53.1	-55.6	15.2	6.03e-01	0	23	0	139460608	73	5219
2026-01-10 02:31:46.88	223.18	70.57	-54.1	-57.1	14.9	6.04e-01	0	23	0	141033472	75	5552
2026-01-10 02:31:48.03	222.62	69.94	-53.2	-55.6	15.5	6.01e-01	0	23	0	143130624	75	4686
2026-01-10 02:31:48.88	222.24	69.49	-53.5	-56.1	15.3	6.03e-01	0	23	0	144703488	75	4948
2026-01-10 02:31:50.01	221.75	68.88	-54.7	-58.1	14.8	6.05e-01	0	23	0	146800640	77	5529
2026-01-10 02:31:50.86	221.41	68.42	-54.2	-57.1	15.1	6.02e-01	0	23	0	148373504	77	4946
2026-01-10 02:31:51.99	220.97	67.82	-54.1	-57.0	15.0	6.04e-01	0	23	0	150470656	76	5213
2026-01-10 02:31:52.85	220.66	67.37	-54.0	-56.8	15.2	6.06e-01	0	23	0	152043520	76	5062
2026-01-10 02:31:53.99	220.26	66.77	-53.9	-56.6	15.2	6.06e-01	0	23	0	154140672	76	4971
2026-01-10 02:31:54.84	219.98	66.32	-53.5	-56.1	15.5	6.03e-01	0	23	0	155713536	76	4668
2026-01-10 02:31:55.98	219.62	65.72	-52.6	-54.8	15.7	6.03e-01	0	23	0	157810688	74	4511
2026-01-10 02:31:56.84	219.37	65.28	-52.8	-55.1	15.6	6.03e-01	0	23	0	159383552	74	4674
2026-01-10 02:31:57.97	219.04	64.69	-52.8	-55.2	15.5	6.04e-01	0	23	0	161480704	74	4747
2026-01-10 02:31:58.83	218.81	64.25	-51.9	-54.0	15.9	6.03e-01	0	23	0	163053568	73	4352
2026-01-10 02:31:59.97	218.51	63.67	-50.9	-52.7	16.1	6.03e-01	0	23	0	165675008	71	4236
2026-01-10 02:32:00.83	218.30	63.24	-51.1	-53.0	15.8	6.02e-01	0	23	0	167247872	70	4626
2026-01-10 02:32:01.97	218.03	62.66	-51.6	-53.7	15.5	6.02e-01	0	23	0	169345024	70	5013
2026-01-10 02:32:02.82	217.83	62.24	-51.6	-53.7	15.7	6.04e-01	0	23	0	170917888	71	4706
2026-01-10 02:32:03.97	217.58	61.67	-51.1	-52.9	16.0	6.04e-01	0	23	0	173015040	71	4340
2026-01-10 02:32:04.82	217.40	61.25	-51.2	-53.1	15.9	6.06e-01	0	23	0	174587904	71	4423
2026-01-10 02:32:05.97	217.17	60.68	-51.3	-53.2	15.9	6.04e-01	0	23	0	176685056	71	4475
2026-01-10 02:32:06.82	217.00	60.27	-51.4	-53.4	15.8	6.05e-01	0	23	0	178257920	71	4578
2026-01-10 02:32:07.97	216.79	59.71	-50.6	-52.5	16.0	6.03e-01	0	23	0	180355072	70	4356
2026-01-10 02:32:08.82	216.63	59.31	-50.8	-52.6	15.9	6.04e-01	0	23	0	181927936	70	4437
2026-01-10 02:32:09.97	216.43	58.76	-50.1	-51.8	16.1	6.01e-01	0	23	0	184025088	69	4269
2026-01-10 02:32:10.83	216.29	58.35	-49.8	-51.5	16.2	6.04e-01	0	23	0	185597952	68	4373
2026-01-10 02:32:11.97	216.11	57.82	-49.8	-51.4	16.0	6.04e-01	0	23	0	188219392	68	4334
2026-01-10 02:32:12.83	215.97	57.42	-49.8	-51.5	16.0	6.02e-01	0	23	0	189792256	68	4374
2026-01-10 02:32:13.96	215.80	56.90	-49.4	-51.0	16.2	6.05e-01	0	23	0	191889408	68	4111
2026-01-10 02:32:14.82	215.68	56.50	-48.8	-50.4	16.0	6.01e-01	0	23	0	193462272	66	4293
2026-01-10 02:32:15.97	215.51	55.98	-48.7	-50.2	16.1	6.04e-01	0	23	0	195559424	66	4227
2026-01-10 02:32:16.83	215.40	55.60	-48.6	-50.2	16.1	6.02e-01	0	23	0	197132288	66	4209
2026-01-10 02:32:17.97	215.25	55.09	-48.2	-49.7	16.1	6.04e-01	0	23	0	199229440	65	4196
2026-01-10 02:32:18.83	215.14	54.71	-48.2	-49.7	16.1	6.03e-01	0	23	0	200802304	65	4240
2026-01-10 02:32:19.97	215.00	54.21	-48.3	-49.8	16.1	6.05e-01	0	23	0	202899456	65	4273
2026-01-10 02:32:20.83	214.90	53.83	-48.3	-49.8	16.1	6.02e-01	0	23	0	204472320	65	4280
2026-01-10 02:32:21.98	214.76	53.34	-48.4	-49.9	16.0	6.02e-01	0	23	0	206569472	65	4315
2026-01-10 02:32:22.83	214.67	52.97	-48.3	-49.8	16.0	6.03e-01	0	23	0	208142336	65	4283
2026-01-10 02:32:23.98	214.54	52.48	-48.4	-49.9	16.0	6.04e-01	0	23	0	210239488	65	4337
2026-01-10 02:32:24.84	214.45	52.12	-48.4	-50.0	16.0	6.04e-01	0	23	0	211812352	65	4354
2026-01-10 02:32:25.98	214.34	51.65	-48.8	-50.4	15.9	6.04e-01	0	23	0	214433792	65	4568
2026-01-10 02:32:26.84	214.25	51.29	-48.8	-50.5	15.9	6.03e-01	0	23	0	216006656	65	4606
2026-01-10 02:32:27.99	214.14	50.82	-49.0	-50.6	15.8	6.03e-01	0	23	0	218103808	65	4700
2026-01-10 02:32:28.85	214.06	50.47	-49.0	-50.6	15.8	6.03e-01	0	23	0	219676672	65	4678
2026-01-10 02:32:29.99	213.95	50.01	-49.2	-50.8	15.8	6.03e-01	0	23	0	221773824	66	4542
2026-01-10 02:32:30.85	213.88	49.67	-49.3	-50.9	15.8	6.06e-01	0	23	0	223346688	66	4598
2026-01-10 02:32:31.99	213.78	49.22	-49.4	-51.0	15.8	6.05e-01	0	23	0	225443840	66	4647
2026-01-10 02:32:32.85	213.71	48.88	-49.4	-51.1	15.8	6.03e-01	0	23	0	227016704	66	4682
2026-01-10 02:32:33.99	213.61	48.44	-49.4	-51.1	15.8	6.05e-01	0	23	0	229113856	66	4652
2026-01-10 02:32:34.85	213.54	48.11	-49.2	-50.9	15.9	6.04e-01	0	23	0	230686720	66	4546
2026-01-10 02:32:35.99	213.46	47.68	-49.2	-50.8	15.9	6.02e-01	0	23	0	232783872	66	4528
2026-01-10 02:32:36.84	213.39	47.35	-49.2	-50.9	15.9	6.03e-01	0	23	0	234356736	66	4552
2026-01-10 02:32:37.99	213.31	46.92	-49.1	-50.8	15.9	6.03e-01	0	23	0	236978176	66	4513
2026-01-10 02:32:38.84	213.24	46.61	-49.2	-50.8	15.9	6.01e-01	0	23	0	238551040	66	4544
2026-01-10 02:32:39.98	213.16	46.19	-49.2	-50.8	15.9	6.02e-01	0	23	0	240648192	66	4538
2026-01-10 02:32:40.84	213.11	45.88	-49.1	-50.8	15.9	5.99e-01	0	23	0	242221056	66	4497
2026-01-10 02:32:41.98	213.03	45.47	-49.2	-50.8	15.9	6.03e-01	0	23	0	244318208	66	4532
2026-01-10 02:32:42.83	212.97	45.16	-49.2	-50.9	15.9	6.04e-01	0	23	0	245891072	66	4552
2026-01-10 02:32:43.98	212.90	44.75	-48.9	-50.5	16.0	6.02e-01	0	23	0	247988224	66	4378
2026-01-10 02:32:44.84	212.85	44.45	-48.9	-50.5	16.0	6.05e-01	0	23	0	249561088	66	4376
2026-01-10 02:32:45.99	212.78	44.05	-48.9	-50.5	16.0	6.04e-01	0	23	0	251658240	66	4370
2026-01-10 02:32:46.85	212.73	43.76	-49.0	-50.6	15.9	6.02e-01	0	23	0	253231104	66	4431
2026-01-10 02:32:47.99	212.66	43.37	-49.4	-51.1	15.8	6.05e-01	0	23	0	255328256	66	4658
2026-01-10 02:32:48.85	212.61	43.08	-49.7	-51.5	15.8	6.02e-01	0	23	0	256901120	67	4607
2026-01-10 02:32:49.99	212.55	42.69	-49.8	-51.5	15.8	6.05e-01	0	23	0	258998272	67	4633
2026-01-10 02:32:50.84	212.50	42.41	-49.8	-51.5	15.8	6.04e-01	0	23	0	260571136	67	4630
2026-01-10 02:32:51.99	212.44	42.03	-49.7	-51.4	15.9	6.03e-01	0	23	0	263192576	67	4576
2026-01-10 02:32:52.84	212.40	41.76	-49.7	-51.5	15.9	6.02e-01	0	23	0	264765440	67	4607
2026-01-10 02:32:53.98	212.34	41.39	-49.7	-51.4	15.8	6.04e-01	0	23	0	266862592	67	4564
2026-01-10 02:32:54.84	212.30	41.11	-49.9	-51.7	15.8	6.02e-01	0	23	0	268435456	67	4718
2026-01-10 02:32:55.99	212.24	40.75	-50.3	-52.1	15.8	6.05e-01	0	23	0	270532608	68	4693
2026-01-10 02:32:56.84	212.20	40.48	-50.5	-52.4	15.7	6.04e-01	0	23	0	272105472	68	4845
2026-01-10 02:32:57.98	212.15	40.13	-50.6	-52.5	15.6	6.04e-01	0	23	0	274202624	68	4909
2026-01-10 02:32:58.83	212.11	39.86	-50.7	-52.6	15.7	6.03e-01	0	23	0	275775488	69	4669
2026-01-10 02:32:59.97	212.06	39.52	-50.4	-52.2	15.9	6.05e-01	0	23	0	277872640	69	4492
2026-01-10 02:33:00.82	212.02	39.26	-50.4	-52.2	15.9	6.06e-01	0	23	0	279445504	69	4448
2026-01-10 02:33:01.96	211.97	38.92	-50.3	-52.1	15.9	6.03e-01	0	23	0	281542656	69	4424
2026-01-10 02:33:02.81	211.94	38.66	-50.2	-52.0	16.0	6.02e-01	0	23	0	283115520	69	4346
2026-01-10 02:33:03.95	211.89	38.33	-50.5	-52.3	15.8	6.03e-01	0	23	0	285212672	69	4543
2026-01-10 02:33:04.80	211.85	38.08	-50.8	-52.7	15.7	6.03e-01	0	23	0	286785536	69	4744
2026-01-10 02:33:05.95	211.81	37.75	-50.9	-52.9	15.6	6.03e-01	0	23	0	288882688	69	4843
2026-01-10 02:33:06.81	211.77	37.50	-50.9	-52.9	15.6	6.04e-01	0	23	0	290979840	69	4864
2026-01-10 02:33:07.95	211.73	37.17	-50.7	-52.7	15.7	6.03e-01	0	23	0	293076992	69	4713
2026-01-10 02:33:08.81	211.70	36.93	-50.7	-52.6	15.7	6.03e-01	0	23	0	294649856	69	4654
2026-01-10 02:33:09.94	211.66	36.62	-50.3	-52.1	15.7	6.02e-01	0	23	0	296747008	69	4440
2026-01-10 02:33:10.80	211.63	36.38	-50.2	-52.1	15.9	6.03e-01	0	23	0	298319872	69	4394
2026-01-10 02:33:11.94	211.59	36.07	-49.9	-51.7	16.1	6.04e-01	0	23	0	300417024	69	4214
2026-01-10 02:33:12.79	211.56	35.83	-49.9	-51.6	16.1	6.06e-01	0	23	0	301989888	69	4177
2026-01-10 02:33:13.93	211.52	35.53	-49.6	-51.3	16.1	6.04e-01	0	23	0	304087040	68	4279
2026-01-10 02:33:14.78	211.49	35.30	-49.5	-51.2	16.1	6.04e-01	0	23	0	305659904	68	4219
2026-01-10 02:33:15.92	211.45	35.00	-49.4	-51.0	16.2	6.03e-01	0	23	0	307757056	68	4144
2026-01-10 02:33:16.77	211.43	34.78	-49.3	-50.9	16.0	6.04e-01	0	23	0	309329920	67	4332
2026-01-10 02:33:17.92	211.39	34.48	-49.2	-50.8	16.0	6.05e-01	0	23	0	311427072	67	4288
2026-01-10 02:33:18.77	211.36	34.26	-49.2	-50.8	16.1	6.02e-01	0	23	0	312999936	67	4283
2026-01-10 02:33:19.92	211.33	33.96	-49.1	-50.7	16.1	6.03e-01	0	23	0	315621376	67	4235
2026-01-10 02:33:20.77	211.30	33.75	-49.0	-50.6	16.2	6.03e-01	0	23	0	317194240	67	4165
2026-01-10 02:33:21.91	211.27	33.46	-49.1	-50.7	16.1	6.04e-01	0	23	0	319291392	67	4208
2026-01-10 02:33:22.77	211.24	33.25	-48.8	-50.4	16.0	6.01e-01	0	23	0	320864256	66	4331
2026-01-10 02:33:23.91	211.21	32.97	-48.6	-50.2	16.1	6.04e-01	0	23	0	322961408	66	4197
2026-01-10 02:33:24.77	211.19	32.76	-48.7	-50.2	16.1	6.03e-01	0	23	0	324534272	66	4240
2026-01-10 02:33:25.90	211.16	32.48	-48.5	-50.1	16.1	6.04e-01	0	23	0	326631424	66	4165
2026-01-10 02:33:26.77	211.13	32.27	-48.5	-50.1	16.1	6.03e-01	0	23	0	328204288	66	4165
2026-01-10 02:33:27.91	211.10	32.00	-48.5	-50.1	16.1	6.03e-01	0	23	0	330301440	66	4176
2026-01-10 02:33:28.76	211.08	31.80	-48.6	-50.1	16.1	6.03e-01	0	23	0	331874304	66	4192
2026-01-10 02:33:29.90	211.05	31.53	-48.4	-50.0	16.2	6.06e-01	0	23	0	333971456	66	4117
2026-01-10 02:33:30.76	211.03	31.33	-48.3	-49.9	16.0	6.05e-01	0	23	0	335544320	65	4309
2026-01-10 02:33:31.91	211.00	31.07	-48.3	-49.8	16.1	6.03e-01	0	23	0	337641472	65	4275
2026-01-10 02:33:32.77	210.98	30.87	-48.3	-49.8	16.1	6.03e-01	0	23	0	339214336	65	4290
2026-01-10 02:33:33.91	210.95	30.61	-48.2	-49.8	16.1	6.05e-01	0	23	0	341835776	65	4256
2026-01-10 02:33:34.77	210.93	30.42	-48.3	-49.8	16.1	6.02e-01	0	23	0	343408640	65	4289
2026-01-10 02:33:35.91	210.91	30.16	-48.3	-49.8	16.1	6.03e-01	0	23	0	345505792	65	4282
2026-01-10 02:33:36.77	210.89	29.97	-48.2	-49.7	16.1	6.01e-01	0	23	0	347078656	65	4222
2026-01-10 02:33:37.91	210.86	29.72	-48.3	-49.8	16.1	6.05e-01	0	23	0	349175808	65	4262
2026-01-10 02:33:38.76	210.84	29.54	-48.1	-49.7	16.1	6.03e-01	0	23	0	350748672	65	4204
2026-01-10 02:33:39.91	210.82	29.29	-48.3	-49.9	16.0	6.03e-01	0	23	0	352845824	65	4301
2026-01-10 02:33:40.77	210.80	29.10	-48.3	-49.9	16.0	6.01e-01	0	23	0	354418688	65	4323
2026-01-10 02:33:41.91	210.78	28.86	-48.4	-49.9	16.0	6.03e-01	0	23	0	356515840	65	4336
2026-01-10 02:33:42.76	210.76	28.68	-48.5	-50.1	16.0	6.03e-01	0	23	0	358088704	65	4406
2026-01-10 02:33:43.91	210.74	28.44	-48.5	-50.1	16.0	6.04e-01	0	23	0	360185856	65	4438
2026-01-10 02:33:44.77	210.72	28.26	-48.7	-50.3	15.9	6.02e-01	0	23	0	361758720	65	4524
2026-01-10 02:33:45.90	210.70	28.03	-48.8	-50.4	15.9	6.03e-01	0	23	0	363855872	65	4580
2026-01-10 02:33:46.76	210.68	27.86	-48.8	-50.5	15.8	6.03e-01	0	23	0	365428736	65	4616
2026-01-10 02:33:47.90	210.66	27.63	-48.8	-50.5	15.8	6.03e-01	0	23	0	367525888	65	4616
2026-01-10 02:33:48.75	210.64	27.46	-48.9	-50.6	15.8	6.06e-01	0	23	0	369623040	65	4679
2026-01-10 02:33:49.90	210.62	27.23	-49.0	-50.7	15.8	6.04e-01	0	23	0	371720192	65	4726
2026-01-10 02:33:50.76	210.61	27.06	-49.2	-50.9	15.7	6.02e-01	0	23	0	373293056	66	4569
2026-01-10 02:33:51.91	210.58	26.83	-49.1	-50.8	15.9	6.04e-01	0	23	0	375390208	66	4505
2026-01-10 02:33:52.77	210.57	26.66	-49.1	-50.8	15.9	6.02e-01	0	23	0	376963072	66	4529
2026-01-10 02:33:53.91	210.55	26.44	-49.0	-50.7	15.9	6.04e-01	0	23	0	379060224	66	4456
2026-01-10 02:33:54.76	210.54	26.28	-49.0	-50.6	16.0	6.05e-01	0	23	0	380633088	66	4428
2026-01-10 02:33:55.90	210.52	26.06	-48.9	-50.5	16.0	6.00e-01	0	23	0	382730240	66	4379
2026-01-10 02:33:56.76	210.50	25.90	-48.9	-50.5	16.0	6.03e-01	0	23	0	384303104	66	4356
2026-01-10 02:33:57.89	210.48	25.69	-48.9	-50.5	16.0	6.05e-01	0	23	0	386400256	66	4386
2026-01-10 02:33:58.74	210.47	25.53	-48.9	-50.6	16.0	6.05e-01	0	23	0	387973120	66	4398
2026-01-10 02:33:59.88	210.45	25.32	-48.9	-50.6	15.9	6.02e-01	0	23	0	390070272	66	4404
2026-01-10 02:34:00.74	210.44	25.16	-49.0	-50.7	15.9	6.02e-01	0	23	0	391643136	66	4449
2026-01-10 02:34:01.87	210.42	24.96	-49.1	-50.8	15.9	6.03e-01	0	23	0	394264576	66	4513
2026-01-10 02:34:02.73	210.41	24.80	-49.1	-50.8	15.9	6.03e-01	0	23	0	395837440	66	4522
2026-01-10 02:34:03.87	210.39	24.60	-49.1	-50.8	15.9	6.02e-01	0	23	0	397934592	66	4497
2026-01-10 02:34:04.72	210.38	24.45	-49.1	-50.8	15.9	6.05e-01	0	23	0	399507456	66	4509
2026-01-10 02:34:05.87	210.36	24.24	-49.1	-50.8	15.9	6.03e-01	0	23	0	401604608	66	4511
2026-01-10 02:34:06.72	210.35	24.09	-49.2	-50.9	15.9	6.03e-01	0	23	0	403177472	66	4556
2026-01-10 02:34:07.86	210.33	23.89	-49.3	-51.0	15.8	6.03e-01	0	23	0	405274624	66	4625
2026-01-10 02:34:08.72	210.32	23.75	-49.2	-50.9	15.9	6.03e-01	0	23	0	406847488	66	4578
2026-01-10 02:34:09.86	210.30	23.55	-49.2	-50.9	15.9	6.04e-01	0	23	0	408944640	66	4565
2026-01-10 02:34:10.71	210.29	23.41	-49.3	-51.0	15.8	6.02e-01	0	23	0	410517504	66	4624
2026-01-10 02:34:11.85	210.28	23.21	-49.3	-51.0	15.8	6.03e-01	0	23	0	412614656	66	4631
2026-01-10 02:34:12.70	210.27	23.07	-49.4	-51.1	15.8	6.02e-01	0	23	0	414187520	66	4702
2026-01-10 02:34:13.84	210.25	22.88	-49.4	-51.1	15.8	6.06e-01	0	23	0	416284672	66	4703
2026-01-10 02:34:14.69	210.24	22.74	-49.5	-51.2	15.7	6.03e-01	0	23	0	417857536	66	4756
2026-01-10 02:34:15.83	210.23	22.55	-49.4	-51.2	15.7	6.04e-01	0	23	0	419954688	66	4719
2026-01-10 02:34:16.69	210.22	22.41	-49.4	-51.2	15.7	6.04e-01	0	23	0	421527552	66	4735
2026-01-10 02:34:17.83	210.20	22.23	-49.4	-51.2	15.7	6.03e-01	0	23	0	424148992	66	4713
2026-01-10 02:34:18.69	210.19	22.09	-49.4	-51.2	15.7	6.02e-01	0	23	0	425721856	66	4726
2026-01-10 02:34:19.83	210.18	21.90	-49.4	-51.2	15.7	6.05e-01	0	23	0	427819008	66	4707
2026-01-10 02:34:20.69	210.17	21.77	-49.4	-51.1	15.7	6.04e-01	0	23	0	429391872	66	4696
2026-01-10 02:34:21.84	210.15	21.59	-49.3	-51.0	15.8	6.03e-01	0	23	0	431489024	66	4649
2026-01-10 02:34:22.69	210.14	21.45	-49.3	-51.0	15.8	6.01e-01	0	23	0	433061888	66	4626
2026-01-10 02:34:23.83	210.13	21.28	-49.2	-51.0	15.8	6.04e-01	0	23	0	435159040	66	4605
2026-01-10 02:34:24.69	210.12	21.14	-49.2	-50.9	15.8	6.03e-01	0	23	0	436731904	66	4575
2026-01-10 02:34:25.83	210.11	20.97	-49.1	-50.8	15.9	6.03e-01	0	23	0	438829056	66	4538
2026-01-10 02:34:26.69	210.10	20.84	-49.1	-50.8	15.9	6.02e-01	0	23	0	440401920	66	4520
2026-01-10 02:34:27.83	210.09	20.66	-49.1	-50.7	15.9	6.04e-01	0	23	0	442499072	66	4488
2026-01-10 02:34:28.68	210.08	20.53	-49.0	-50.7	15.9	6.03e-01	0	23	0	444071936	66	4465
2026-01-10 02:34:29.83	210.07	20.36	-49.1	-50.7	15.9	6.02e-01	0	23	0	446693376	66	4478
2026-01-10 02:34:30.69	210.06	20.23	-48.9	-50.5	16.0	6.03e-01	0	23	0	448266240	66	4386
2026-01-10 02:34:31.83	210.05	20.07	-49.0	-50.6	15.9	6.03e-01	0	23	0	450363392	66	4428
2026-01-10 02:34:32.68	210.04	19.94	-48.9	-50.5	16.0	6.04e-01	0	23	0	451936256	66	4388
2026-01-10 02:34:33.83	210.03	19.77	-48.8	-50.5	16.0	6.03e-01	0	23	0	454033408	66	4346
2026-01-10 02:34:34.68	210.02	19.65	-48.9	-50.5	16.0	6.04e-01	0	23	0	455606272	66	4364
2026-01-10 02:34:35.82	210.01	19.49	-49.0	-50.7	15.9	6.04e-01	0	23	0	457703424	66	4462
2026-01-10 02:34:36.68	210.00	19.36	-48.8	-50.5	16.0	6.04e-01	0	23	0	459276288	66	4348
2026-01-10 02:34:37.82	209.99	19.20	-48.9	-50.6	16.0	6.04e-01	0	23	0	461373440	66	4411
2026-01-10 02:34:38.68	209.98	19.08	-49.0	-50.7	15.9	6.02e-01	0	23	0	462946304	66	4467
2026-01-10 02:34:39.82	209.97	18.92	-49.0	-50.7	15.9	6.03e-01	0	23	0	465043456	66	4473
2026-01-10 02:34:40.68	209.96	18.80	-49.0	-50.7	15.9	6.04e-01	0	23	0	466616320	66	4466
2026-01-10 02:34:41.82	209.95	18.64	-49.0	-50.7	15.9	6.02e-01	0	23	0	468713472	66	4464
2026-01-10 02:34:42.67	209.95	18.52	-49.0	-50.7	15.9	6.03e-01	0	23	0	470286336	66	4464
2026-01-10 02:34:43.81	209.94	18.37	-48.9	-50.6	16.0	6.03e-01	0	23	0	472907776	66	4429
2026-01-10 02:34:44.67	209.93	18.25	-49.0	-50.7	15.9	6.02e-01	0	23	0	474480640	66	4468
2026-01-10 02:34:45.80	209.92	18.10	-49.1	-50.8	15.8	6.04e-01	0	23	0	476577792	66	4533
2026-01-10 02:34:46.67	209.91	17.98	-49.2	-50.9	15.8	6.04e-01	0	23	0	478150656	66	4593
2026-01-10 02:34:47.81	209.90	17.83	-49.2	-51.0	15.8	6.04e-01	0	23	0	480247808	66	4601
2026-01-10 02:34:48.67	209.90	17.71	-49.3	-51.0	15.8	6.03e-01	0	23	0	481820672	66	4633
2026-01-10 02:34:49.82	209.89	17.56	-49.3	-51.1	15.8	6.05e-01	0	23	0	483917824	66	4663
2026-01-10 02:34:50.68	209.88	17.45	-49.3	-51.1	15.8	6.06e-01	0	23	0	485490688	66	4654
2026-01-10 02:34:51.81	209.87	17.30	-49.3	-51.1	15.8	6.06e-01	0	23	0	487587840	66	4664
2026-01-10 02:34:52.68	209.86	17.19	-49.3	-51.1	15.8	6.02e-01	0	23	0	489160704	66	4693
2026-01-10 02:34:53.81	209.86	17.04	-49.4	-51.2	15.8	6.04e-01	0	23	0	491257856	66	4708
2026-01-10 02:34:54.66	209.85	16.93	-49.3	-51.1	15.8	6.03e-01	0	23	0	492830720	66	4663
2026-01-10 02:34:55.80	209.84	16.79	-49.3	-51.1	15.8	6.02e-01	0	23	0	494927872	66	4662
2026-01-10 02:34:56.66	209.84	16.68	-49.3	-51.1	15.8	6.04e-01	0	23	0	496500736	66	4673
2026-01-10 02:34:57.80	209.83	16.53	-49.4	-51.1	15.7	6.03e-01	0	23	0	498597888	66	4700
2026-01-10 02:34:58.66	209.82	16.43	-49.3	-51.0	15.8	6.01e-01	0	23	0	500695040	66	4634
2026-01-10 02:34:59.80	209.81	16.28	-49.2	-51.0	15.8	6.05e-01	0	23	0	502792192	66	4625
2026-01-10 02:35:00.65	209.81	16.18	-49.2	-51.0	15.8	6.02e-01	0	23	0	504365056	66	4634
2026-01-10 02:35:01.79	209.80	16.04	-49.4	-51.1	15.7	6.04e-01	0	23	0	506462208	66	4702
2026-01-10 02:35:02.64	209.79	15.93	-49.2	-51.0	15.8	6.03e-01	0	23	0	508035072	66	4614
2026-01-10 02:35:03.77	209.79	15.80	-49.2	-51.0	15.8	6.03e-01	0	23	0	510132224	66	4631
2026-01-10 02:35:04.63	209.78	15.69	-49.3	-51.0	15.8	6.04e-01	0	23	0	511705088	66	4647
2026-01-10 02:35:05.77	209.77	15.55	-49.2	-51.0	15.8	6.03e-01	0	23	0	513802240	66	4610
2026-01-10 02:35:06.62	209.77	15.45	-49.3	-51.1	15.8	6.05e-01	0	23	0	515375104	66	4652
2026-01-10 02:35:07.76	209.76	15.31	-49.3	-51.0	15.7	6.03e-01	0	23	0	517472256	66	4647
2026-01-10 02:35:08.61	209.76	15.21	-49.2	-51.0	15.8	6.04e-01	0	23	0	519045120	66	4618
2026-01-10 02:35:09.75	209.75	15.08	-49.3	-51.0	15.8	6.05e-01	0	23	0	521142272	66	4638
2026-01-10 02:35:10.60	209.74	14.98	-49.2	-51.0	15.8	6.02e-01	0	23	0	522715136	66	4627
2026-01-10 02:35:11.73	209.74	14.85	-49.3	-51.0	15.7	6.03e-01	0	23	0	524812288	66	4638
2026-01-10 02:35:12.59	209.73	14.75	-49.3	-51.0	15.8	6.04e-01	0	23	0	526385152	66	4635
2026-01-10 02:35:13.73	209.73	14.62	-49.2	-50.9	15.8	6.02e-01	0	23	0	528482304	66	4577
2026-01-10 02:35:14.58	209.72	14.52	-49.2	-51.0	15.8	6.04e-01	0	23	0	530579456	66	4600
2026-01-10 02:35:15.72	209.71	14.39	-49.1	-50.8	15.8	6.02e-01	0	23	0	532676608	66	4522
2026-01-10 02:35:16.57	209.71	14.29	-49.1	-50.8	15.9	6.02e-01	0	23	0	534249472	66	4511
2026-01-10 02:35:17.72	209.70	14.16	-49.1	-50.8	15.9	6.03e-01	0	23	0	536346624	66	4506
2026-01-10 02:35:18.58	209.70	14.06	-49.1	-50.8	15.8	6.02e-01	0	23	0	537919488	66	4507
2026-01-10 02:35:19.72	209.69	13.94	-49.1	-50.8	15.8	6.03e-01	0	23	0	540016640	66	4521
2026-01-10 02:35:20.57	209.69	13.84	-49.1	-50.8	15.8	6.04e-01	0	23	0	541589504	66	4521
2026-01-10 02:35:21.71	209.68	13.71	-49.0	-50.7	15.9	6.03e-01	0	23	0	543686656	66	4446
2026-01-10 02:35:22.57	209.68	13.62	-48.9	-50.6	15.9	6.04e-01	0	23	0	545259520	66	4428
2026-01-10 02:35:23.71	209.67	13.49	-49.1	-50.8	15.8	6.03e-01	0	23	0	547356672	66	4538
2026-01-10 02:35:24.57	209.67	13.40	-49.1	-50.8	15.8	6.02e-01	0	23	0	548929536	66	4509
2026-01-10 02:35:25.71	209.66	13.28	-48.9	-50.6	15.9	6.03e-01	0	23	0	551026688	66	4398
2026-01-10 02:35:26.57	209.66	13.18	-48.8	-50.5	15.9	6.04e-01	0	23	0	552599552	66	4354
2026-01-10 02:35:27.72	209.65	13.06	-48.9	-50.6	15.9	6.02e-01	0	23	0	555220992	66	4421
2026-01-10 02:35:28.57	209.65	12.97	-48.9	-50.6	15.9	6.02e-01	0	23	0	556793856	66	4426
2026-01-10 02:35:29.71	209.64	12.85	-48.8	-50.5	16.0	6.03e-01	0	23	0	558891008	66	4353
2026-01-10 02:35:30.57	209.64	12.75	-48.8	-50.5	16.0	6.00e-01	0	23	0	560463872	66	4354
2026-01-10 02:35:31.71	209.63	12.63	-48.8	-50.5	15.9	6.03e-01	0	23	0	562561024	66	4373
2026-01-10 02:35:32.57	209.63	12.54	-48.9	-50.6	15.9	6.04e-01	0	23	0	564133888	66	4399
2026-01-10 02:35:33.71	209.63	12.42	-48.9	-50.6	15.9	6.04e-01	0	23	0	566231040	66	4417
2026-01-10 02:35:34.57	209.62	12.33	-48.9	-50.6	15.9	6.04e-01	0	23	0	567803904	66	4435
2026-01-10 02:35:35.71	209.62	12.22	-48.8	-50.5	16.0	6.02e-01	0	23	0	569901056	66	4367
2026-01-10 02:35:36.56	209.61	12.13	-48.9	-50.6	15.9	6.04e-01	0	23	0	571473920	66	4421
2026-01-10 02:35:37.71	209.61	12.01	-49.0	-50.8	15.8	6.04e-01	0	23	0	573571072	66	4495
2026-01-10 02:35:38.57	209.60	11.92	-49.0	-50.7	15.9	6.04e-01	0	23	0	575143936	66	4481
2026-01-10 02:35:39.71	209.60	11.81	-49.0	-50.8	15.8	6.04e-01	0	23	0	577241088	66	4504
2026-01-10 02:35:40.56	209.60	11.72	-49.1	-50.9	15.8	6.03e-01	0	23	0	578813952	66	4560
2026-01-10 02:35:41.70	209.59	11.61	-49.0	-50.7	15.9	6.03e-01	0	23	0	580911104	66	4480
2026-01-10 02:35:42.56	209.59	11.52	-49.1	-50.9	15.8	6.05e-01	0	23	0	582483968	66	4551
2026-01-10 02:35:43.71	209.58	11.40	-49.1	-50.8	15.8	6.03e-01	0	23	0	585105408	66	4544
2026-01-10 02:35:44.57	209.58	11.32	-49.1	-50.8	15.8	6.02e-01	0	23	0	586678272	66	4521
2026-01-10 02:35:45.71	209.58	11.21	-49.2	-50.9	15.8	6.02e-01	0	23	0	588775424	66	4593
2026-01-10 02:35:46.57	209.57	11.12	-49.1	-50.8	15.8	6.02e-01	0	23	0	590348288	66	4532
2026-01-10 02:35:47.71	209.57	11.01	-49.1	-50.8	15.8	6.04e-01	0	23	0	592445440	66	4537
2026-01-10 02:35:48.56	209.57	10.93	-49.1	-50.9	15.8	6.03e-01	0	23	0	594018304	66	4554
2026-01-10 02:35:49.70	209.56	10.82	-49.1	-50.9	15.8	6.02e-01	0	23	0	596115456	66	4564
2026-01-10 02:35:50.56	209.56	10.73	-49.2	-51.0	15.8	6.02e-01	0	23	0	597688320	66	4622
2026-01-10 02:35:51.70	209.56	10.62	-49.2	-51.0	15.8	6.06e-01	0	23	0	599785472	66	4632
2026-01-10 02:35:52.56	209.55	10.54	-49.1	-50.8	15.8	6.02e-01	0	23	0	601358336	66	4527
2026-01-10 02:35:53.71	209.55	10.43	-49.3	-51.1	15.7	6.02e-01	0	23	0	603455488	66	4661
2026-01-10 02:35:54.57	209.55	10.35	-49.3	-51.1	15.8	6.04e-01	0	23	0	605552640	66	4655
2026-01-10 02:35:55.72	209.54	10.24	-49.3	-51.1	15.7	6.03e-01	0	23	0	607649792	66	4653
2026-01-10 02:35:56.58	209.54	10.16	-49.3	-51.0	15.7	6.06e-01	0	23	0	609222656	66	4651
2026-01-10 02:35:57.71	209.54	10.05	-49.3	-51.1	15.7	6.04e-01	0	23	0	611319808	66	4699
2026-01-10 02:35:58.57	209.53	9.97	-49.3	-51.1	15.7	6.04e-01	0	23	0	612892672	66	4671
2026-01-10 02:35:59.70	209.53	9.87	-49.4	-51.2	15.7	6.03e-01	0	23	0	614989824	66	4712
2026-01-10 02:36:00.56	209.53	9.79	-49.3	-51.1	15.7	6.04e-01	0	23	0	616562688	66	4696
2026-01-10 02:36:01.69	209.52	9.68	-49.3	-51.1	15.7	6.05e-01	0	23	0	618659840	66	4666
2026-01-10 02:36:02.55	209.52	9.60	-49.4	-51.2	15.7	6.04e-01	0	23	0	620232704	66	4745
2026-01-10 02:36:03.69	209.52	9.50	-49.3	-51.1	15.7	6.04e-01	0	23	0	622329856	66	4704
2026-01-10 02:36:04.54	209.52	9.42	-49.4	-51.2	15.7	6.04e-01	0	23	0	623902720	66	4732
2026-01-10 02:36:05.68	209.51	9.32	-49.3	-51.1	15.7	6.03e-01	0	23	0	625999872	66	4696
2026-01-10 02:36:06.53	209.51	9.24	-49.3	-51.1	15.7	6.05e-01	0	23	0	627572736	66	4674
2026-01-10 02:36:07.67	209.51	9.14	-49.4	-51.3	15.7	6.04e-01	0	23	0	629669888	66	4771
2026-01-10 02:36:08.52	209.50	9.06	-49.5	-51.4	15.6	6.05e-01	0	23	0	631242752	66	4819
2026-01-10 02:36:09.65	209.50	8.96	-49.4	-51.3	15.7	6.03e-01	0	23	0	633339904	66	4776
2026-01-10 02:36:10.51	209.50	8.88	-49.4	-51.2	15.7	6.02e-01	0	23	0	634912768	66	4716
2026-01-10 02:36:11.64	209.50	8.78	-49.5	-51.3	15.7	6.05e-01	0	23	0	637534208	66	4810
2026-01-10 02:36:12.50	209.49	8.71	-49.5	-51.4	15.6	6.03e-01	0	23	0	639107072	66	4838
2026-01-10 02:36:13.64	209.49	8.61	-49.6	-51.5	15.6	6.03e-01	0	23	0	641204224	66	4890
2026-01-10 02:36:14.49	209.49	8.53	-49.6	-51.4	15.6	6.01e-01	0	23	0	642777088	66	4858
2026-01-10 02:36:15.63	209.49	8.43	-49.6	-51.5	15.7	6.06e-01	0	23	0	644874240	67	4602
2026-01-10 02:36:16.49	209.48	8.36	-49.6	-51.4	15.7	6.03e-01	0	23	0	646447104	67	4591
2026-01-10 02:36:17.64	209.48	8.26	-49.6	-51.5	15.7	6.04e-01	0	23	0	648544256	67	4625
2026-01-10 02:36:18.49	209.48	8.18	-49.6	-51.5	15.7	6.02e-01	0	23	0	650117120	67	4628
2026-01-10 02:36:19.62	209.48	8.09	-49.7	-51.6	15.7	6.02e-01	0	23	0	652214272	67	4692
2026-01-10 02:36:20.48	209.48	8.01	-49.8	-51.7	15.7	6.05e-01	0	23	0	653787136	67	4710
2026-01-10 02:36:21.62	209.47	7.92	-49.6	-51.5	15.7	6.02e-01	0	23	0	655884288	67	4616
2026-01-10 02:36:22.48	209.47	7.84	-49.7	-51.6	15.7	6.04e-01	0	23	0	657457152	67	4675
2026-01-10 02:36:23.62	209.47	7.75	-49.8	-51.7	15.7	6.01e-01	0	23	0	659554304	67	4728
2026-01-10 02:36:24.48	209.47	7.67	-49.6	-51.5	15.8	6.03e-01	0	23	0	661651456	67	4600
2026-01-10 02:36:25.62	209.46	7.58	-49.5	-51.4	15.8	6.04e-01	0	23	0	663748608	67	4574
2026-01-10 02:36:26.47	209.46	7.51	-49.7	-51.5	15.7	6.04e-01	0	23	0	665321472	67	4645
2026-01-10 02:36:27.61	209.46	7.41	-49.6	-51.5	15.7	6.01e-01	0	23	0	667418624	67	4623
2026-01-10 02:36:28.46	209.46	7.34	-49.8	-51.7	15.6	6.04e-01	0	23	0	668991488	67	4752
2026-01-10 02:36:29.61	209.46	7.24	-49.8	-51.8	15.6	6.01e-01	0	23	0	671088640	67	4767
2026-01-10 02:36:30.47	209.46	7.17	-49.8	-51.7	15.7	6.03e-01	0	23	0	672661504	67	4722
2026-01-10 02:36:31.62	209.45	7.08	-49.9	-51.9	15.6	6.03e-01	0	23	0	674758656	67	4824
2026-01-10 02:36:32.48	209.45	7.01	-49.8	-51.8	15.6	6.04e-01	0	23	0	676331520	67	4772
2026-01-10 02:36:33.61	209.45	6.92	-49.8	-51.8	15.6	6.03e-01	0	23	0	678428672	67	4778
2026-01-10 02:36:34.46	209.45	6.85	-49.9	-51.9	15.6	6.03e-01	0	23	0	680001536	67	4817
2026-01-10 02:36:35.60	209.45	6.75	-50.0	-51.9	15.6	6.00e-01	0	23	0	682098688	67	4854
2026-01-10 02:36:36.46	209.44	6.68	-49.9	-51.9	15.6	6.03e-01	0	23	0	683671552	67	4837
2026-01-10 02:36:37.59	209.44	6.59	-49.9	-51.8	15.6	6.03e-01	0	23	0	685768704	67	4795
2026-01-10 02:36:38.45	209.44	6.52	-49.8	-51.8	15.6	6.03e-01	0	23	0	687341568	67	4772
2026-01-10 02:36:39.59	209.44	6.43	-50.0	-52.0	15.6	6.02e-01	0	23	0	689963008	67	4886
2026-01-10 02:36:40.45	209.44	6.36	-50.0	-52.0	15.6	6.04e-01	0	23	0	691535872	67	4888
2026-01-10 02:36:41.59	209.44	6.27	-50.0	-52.0	15.7	6.04e-01	0	23	0	693633024	68	4637
2026-01-10 02:36:42.44	209.44	6.21	-50.1	-52.1	15.6	6.03e-01	0	23	0	695205888	68	4694
2026-01-10 02:36:43.58	209.43	6.12	-50.3	-52.3	15.6	6.02e-01	0	23	0	697303040	68	4799
