passes_logs/2026/01/10/R3.2S_Murmansk/R3.2S_Murmansk__20260110_080305_NOAA_20_JPSS-1_rec.log

#Pass ID: 20260110_080305_NOAA 20 (JPSS-1)
#Satellite: NOAA 20 (JPSS-1)
#Configuration: NOAA 20
#almurnet v.1.7.20251203
#Start time: 2026-01-10 08:03:05

#Version: 2.2.20231116
#Station: R3.2S_Murmansk
#Location: 33.079688 lon 68.888172 lat
#TLE: 1 43013U 17073A   26009.69119415  .00000109  00000+0  72598-4 0  9996
#TLE: 2 43013  98.7631 310.6868 0001678  46.7442 313.3874 14.19534878421981

#Time	Az	El	Level	Level2	SNR	BER	BlckErr	Temp	State	Recorded	gain1	gain2
2026-01-10 08:03:05.71	117.48	2.04	-57.2	-73.1	3.8	1.49e+00	0	21	0	0	80	22720
2026-01-10 08:03:06.71	117.45	2.10	-57.1	-73.1	3.8	1.49e+00	0	21	104	0	79	24083
2026-01-10 08:03:07.72	117.42	2.17	-57.1	-73.1	3.8	1.49e+00	0	21	104	0	79	24085
2026-01-10 08:03:08.72	117.38	2.23	-57.1	-73.1	3.8	1.49e+00	0	21	104	0	79	24021
2026-01-10 08:03:09.73	117.35	2.29	-57.1	-73.1	3.8	1.49e+00	0	21	104	0	79	24095
2026-01-10 08:03:10.74	117.32	2.36	-57.1	-73.1	3.8	1.49e+00	0	21	104	0	79	24028
2026-01-10 08:03:11.75	117.28	2.42	-57.1	-73.1	3.8	1.49e+00	0	21	104	0	79	24091
2026-01-10 08:03:12.76	117.25	2.48	-57.1	-73.1	3.8	1.49e+00	0	21	104	0	79	24076
2026-01-10 08:03:13.77	117.22	2.55	-57.1	-73.1	3.8	1.49e+00	0	21	104	0	79	24124
2026-01-10 08:03:14.78	117.18	2.61	-57.1	-73.1	3.8	1.49e+00	0	21	104	0	79	24046
2026-01-10 08:03:15.79	117.15	2.68	-57.1	-73.1	3.8	1.49e+00	0	21	104	0	79	24046
2026-01-10 08:03:16.79	117.11	2.74	-57.1	-73.1	3.8	1.49e+00	0	22	104	0	79	24059
2026-01-10 08:03:17.80	117.08	2.80	-57.1	-73.1	3.8	1.49e+00	0	21	104	0	79	24065
2026-01-10 08:03:18.80	117.04	2.87	-57.1	-73.1	3.8	1.49e+00	0	21	104	0	79	23980
2026-01-10 08:03:19.81	117.01	2.93	-57.1	-73.1	3.8	1.49e+00	0	22	104	0	79	24005
2026-01-10 08:03:20.82	116.97	3.00	-57.1	-73.1	3.8	1.49e+00	0	21	104	0	79	23913
2026-01-10 08:03:21.83	116.94	3.06	-57.1	-73.1	3.8	1.49e+00	0	21	104	0	79	23939
2026-01-10 08:03:22.83	116.90	3.13	-57.1	-73.0	3.8	1.49e+00	0	22	104	0	79	23812
2026-01-10 08:03:23.84	116.87	3.19	-57.1	-73.0	3.8	1.49e+00	0	22	104	0	79	23748
2026-01-10 08:03:24.85	116.83	3.26	-57.1	-73.0	3.8	1.49e+00	0	22	104	0	79	23664
2026-01-10 08:03:25.85	116.80	3.32	-57.1	-73.0	3.8	1.49e+00	0	22	104	0	79	23731
2026-01-10 08:03:26.86	116.76	3.39	-57.1	-73.0	3.8	1.49e+00	0	22	104	0	79	23696
2026-01-10 08:03:27.87	116.72	3.46	-57.1	-73.0	3.8	1.49e+00	0	22	104	0	79	23730
2026-01-10 08:03:28.88	116.69	3.52	-57.1	-73.0	3.8	1.49e+00	0	22	104	0	79	23756
2026-01-10 08:03:29.88	116.65	3.59	-57.1	-73.0	3.8	1.49e+00	0	22	104	0	79	23775
2026-01-10 08:03:30.89	116.61	3.66	-57.1	-73.0	3.8	1.49e+00	0	22	104	0	79	23616
2026-01-10 08:03:31.90	116.58	3.72	-57.1	-72.8	3.8	1.49e+00	0	22	104	0	79	23213
2026-01-10 08:03:32.91	116.54	3.79	-57.1	-72.5	3.8	1.49e+00	0	22	104	0	79	22506
2026-01-10 08:03:33.92	116.50	3.86	-57.1	-72.0	3.8	1.49e+00	0	22	104	0	79	21187
2026-01-10 08:03:34.93	116.46	3.92	-57.1	-71.1	3.8	1.49e+00	0	22	104	0	79	19166
2026-01-10 08:03:35.94	116.43	3.99	-57.0	-69.9	4.1	1.48e+00	0	22	0	0	79	16645
2026-01-10 08:03:36.94	116.39	4.06	-56.9	-68.8	4.4	1.29e+00	58	22	0	0	79	14644
2026-01-10 08:03:37.95	116.35	4.12	-56.9	-68.1	4.7	9.37e-01	0	22	0	2097152	79	13426
2026-01-10 08:03:38.95	116.31	4.19	-56.8	-67.1	5.2	7.24e-01	0	22	0	4194304	79	12001
2026-01-10 08:03:39.96	116.27	4.26	-56.7	-66.1	5.8	3.92e-01	0	22	0	5242880	79	10733
2026-01-10 08:03:40.97	116.24	4.33	-56.6	-65.2	6.5	2.47e-01	0	22	0	7340032	79	9657
2026-01-10 08:03:41.98	116.20	4.40	-56.4	-64.1	7.4	1.44e-01	0	22	0	9437184	79	8500
2026-01-10 08:03:42.99	116.16	4.46	-56.2	-63.3	8.1	6.63e-02	0	22	0	11534336	79	7774
2026-01-10 08:03:44.00	116.12	4.53	-56.0	-62.2	9.1	1.78e-02	0	22	0	13631488	78	7272
2026-01-10 08:03:45.00	116.08	4.60	-55.6	-61.0	10.1	5.99e-03	0	22	0	14680064	77	6721
2026-01-10 08:03:46.01	116.04	4.67	-55.2	-60.1	11.0	1.40e-03	0	22	0	16777216	77	6011
2026-01-10 08:03:47.02	116.00	4.74	-54.7	-58.8	12.0	6.56e-05	0	22	0	18874368	76	5467
2026-01-10 08:03:48.03	115.96	4.81	-54.1	-57.8	12.5	6.80e-06	0	22	0	20971520	74	5473
2026-01-10 08:03:49.04	115.92	4.88	-53.9	-57.3	12.9	0.00e+00	0	22	0	23068672	74	5207
2026-01-10 08:03:50.05	115.88	4.95	-53.7	-57.0	13.1	0.00e+00	0	22	0	24117248	74	5008
2026-01-10 08:03:51.06	115.84	5.02	-53.4	-56.5	13.4	0.00e+00	0	22	0	26214400	73	5017
2026-01-10 08:03:52.06	115.80	5.08	-53.5	-56.6	13.3	0.00e+00	0	22	0	28311552	73	5079
2026-01-10 08:03:53.07	115.76	5.15	-56.0	-61.9	9.5	2.44e-03	0	22	0	30408704	77	7418
2026-01-10 08:03:54.08	115.71	5.22	-54.7	-59.1	11.5	7.00e-07	0	22	0	32505856	74	6354
2026-01-10 08:03:55.08	115.67	5.29	-55.9	-61.6	9.6	1.25e-04	0	22	0	33554432	77	7183
2026-01-10 08:03:56.09	115.63	5.36	-54.8	-59.2	11.3	2.13e-05	0	22	0	35651584	74	6467
2026-01-10 08:03:57.10	115.59	5.44	-53.5	-56.5	13.4	0.00e+00	0	22	0	37748736	73	5033
2026-01-10 08:03:58.11	115.55	5.51	-53.4	-56.4	13.6	0.00e+00	0	22	0	39845888	73	4927
2026-01-10 08:03:59.12	115.50	5.58	-53.4	-56.4	13.5	0.00e+00	0	22	0	41943040	73	4944
2026-01-10 08:04:00.12	115.46	5.65	-53.4	-56.4	13.6	0.00e+00	0	22	0	42991616	73	4946
2026-01-10 08:04:01.11	115.42	5.72	-53.3	-56.2	13.7	0.00e+00	0	22	0	45088768	73	4829
2026-01-10 08:04:02.12	115.38	5.79	-53.5	-56.4	13.6	0.00e+00	0	22	0	47185920	73	4950
2026-01-10 08:04:03.13	115.33	5.86	-53.4	-56.2	13.7	0.00e+00	0	22	0	49283072	73	4861
2026-01-10 08:04:04.13	115.29	5.93	-53.4	-56.3	13.6	0.00e+00	0	22	0	51380224	73	4897
2026-01-10 08:04:05.14	115.25	6.00	-53.4	-56.3	13.6	0.00e+00	0	22	0	52428800	73	4901
2026-01-10 08:04:06.15	115.20	6.08	-53.4	-56.2	13.7	0.00e+00	0	22	0	54525952	73	4845
2026-01-10 08:04:07.16	115.16	6.15	-53.6	-56.5	13.5	0.00e+00	0	22	0	56623104	73	5023
2026-01-10 08:04:08.17	115.11	6.22	-53.4	-56.3	13.7	0.00e+00	0	22	0	58720256	73	4885
2026-01-10 08:04:09.17	115.07	6.29	-53.4	-56.2	13.8	0.00e+00	0	22	0	60817408	73	4816
2026-01-10 08:04:10.18	115.02	6.37	-53.4	-56.2	13.7	0.00e+00	0	22	0	61865984	73	4823
2026-01-10 08:04:11.19	114.98	6.44	-53.4	-56.2	13.7	0.00e+00	0	22	0	63963136	73	4869
2026-01-10 08:04:12.19	114.93	6.51	-53.4	-56.3	13.7	0.00e+00	0	22	0	66060288	73	4872
2026-01-10 08:04:13.20	114.89	6.59	-53.4	-56.2	13.8	0.00e+00	0	22	0	68157440	73	4842
2026-01-10 08:04:14.21	114.84	6.66	-53.5	-56.4	13.6	0.00e+00	0	22	0	70254592	73	4958
2026-01-10 08:04:15.22	114.79	6.73	-53.3	-56.1	13.9	0.00e+00	0	22	0	71303168	73	4770
2026-01-10 08:04:16.23	114.75	6.81	-53.2	-55.9	14.0	0.00e+00	0	22	0	73400320	73	4678
2026-01-10 08:04:17.24	114.70	6.88	-53.3	-56.0	13.9	0.00e+00	0	22	0	75497472	73	4736
2026-01-10 08:04:18.25	114.65	6.96	-53.2	-55.9	14.0	0.00e+00	0	22	0	77594624	73	4680
2026-01-10 08:04:19.26	114.61	7.03	-53.2	-55.9	14.0	0.00e+00	0	23	0	79691776	73	4690
2026-01-10 08:04:20.27	114.56	7.11	-53.3	-56.1	13.9	0.00e+00	0	22	0	80740352	73	4760
2026-01-10 08:04:21.28	114.51	7.18	-53.4	-56.1	13.9	0.00e+00	0	22	0	82837504	73	4793
2026-01-10 08:04:22.28	114.46	7.26	-53.3	-56.0	14.0	0.00e+00	0	23	0	84934656	73	4729
2026-01-10 08:04:23.29	114.42	7.33	-53.3	-55.9	14.0	0.00e+00	0	23	0	87031808	73	4678
2026-01-10 08:04:24.30	114.37	7.41	-53.1	-55.7	14.0	0.00e+00	0	22	0	89128960	72	4831
2026-01-10 08:04:25.30	114.32	7.48	-53.1	-55.6	14.0	0.00e+00	0	23	0	91226112	72	4812
2026-01-10 08:04:26.31	114.27	7.56	-53.1	-55.7	14.1	0.00e+00	0	23	0	92274688	72	4819
2026-01-10 08:04:27.32	114.22	7.63	-53.2	-55.8	14.0	0.00e+00	0	23	0	94371840	72	4908
2026-01-10 08:04:28.33	114.17	7.71	-53.0	-55.6	14.1	0.00e+00	0	23	0	96468992	72	4763
2026-01-10 08:04:29.33	114.12	7.79	-53.0	-55.5	14.2	0.00e+00	0	23	0	98566144	72	4724
2026-01-10 08:04:30.34	114.07	7.86	-53.0	-55.5	14.1	0.00e+00	0	23	0	99614720	72	4749
2026-01-10 08:04:31.35	114.02	7.94	-52.9	-55.4	14.3	0.00e+00	0	22	0	101711872	72	4653
2026-01-10 08:04:32.36	113.97	8.02	-52.9	-55.3	14.3	0.00e+00	0	23	0	103809024	72	4610
2026-01-10 08:04:33.37	113.92	8.10	-52.9	-55.4	14.3	0.00e+00	0	23	0	105906176	72	4653
2026-01-10 08:04:34.38	113.87	8.17	-52.8	-55.2	14.4	0.00e+00	0	23	0	108003328	72	4590
2026-01-10 08:04:35.39	113.82	8.25	-52.7	-55.0	14.5	0.00e+00	0	23	0	109051904	72	4475
2026-01-10 08:04:36.39	113.76	8.33	-52.8	-55.2	14.4	0.00e+00	0	23	0	111149056	72	4547
2026-01-10 08:04:37.40	113.71	8.41	-52.7	-55.1	14.5	0.00e+00	0	23	0	113246208	72	4494
2026-01-10 08:04:38.41	113.66	8.49	-52.6	-54.9	14.4	0.00e+00	0	23	0	115343360	71	4696
2026-01-10 08:04:39.42	113.61	8.57	-52.6	-54.9	14.4	0.00e+00	0	23	0	117440512	71	4672
2026-01-10 08:04:40.43	113.55	8.64	-52.6	-54.9	14.4	0.00e+00	0	23	0	119537664	71	4696
2026-01-10 08:04:41.43	113.50	8.72	-52.6	-54.8	14.5	0.00e+00	0	23	0	120586240	71	4650
2026-01-10 08:04:42.44	113.45	8.80	-52.5	-54.8	14.5	0.00e+00	0	23	0	122683392	71	4619
2026-01-10 08:04:43.45	113.39	8.88	-52.6	-54.9	14.4	0.00e+00	0	23	0	124780544	71	4686
2026-01-10 08:04:44.46	113.34	8.96	-52.6	-54.8	14.5	0.00e+00	0	23	0	126877696	71	4646
2026-01-10 08:04:45.47	113.28	9.04	-52.6	-54.8	14.5	0.00e+00	0	23	0	128974848	71	4636
2026-01-10 08:04:46.48	113.23	9.12	-52.6	-54.9	14.5	0.00e+00	0	23	0	130023424	71	4659
2026-01-10 08:04:47.49	113.17	9.20	-52.5	-54.7	14.6	0.00e+00	0	23	0	132120576	71	4572
2026-01-10 08:04:48.50	113.12	9.29	-52.6	-54.9	14.5	0.00e+00	0	23	0	134217728	71	4661
2026-01-10 08:04:49.51	113.06	9.37	-52.4	-54.7	14.6	0.00e+00	0	23	0	136314880	71	4548
2026-01-10 08:04:50.51	113.00	9.45	-52.4	-54.5	14.7	0.00e+00	0	23	0	138412032	71	4485
2026-01-10 08:04:51.52	112.95	9.53	-52.4	-54.5	14.7	0.00e+00	0	23	0	139460608	71	4488
2026-01-10 08:04:52.53	112.89	9.61	-52.4	-54.6	14.7	0.00e+00	0	23	0	141557760	71	4495
2026-01-10 08:04:53.54	112.83	9.69	-52.4	-54.5	14.7	0.00e+00	0	23	0	143654912	71	4470
2026-01-10 08:04:54.55	112.78	9.78	-52.4	-54.6	14.7	0.00e+00	0	23	0	145752064	71	4529
2026-01-10 08:04:55.56	112.72	9.86	-52.4	-54.6	14.7	0.00e+00	0	23	0	147849216	71	4507
2026-01-10 08:04:56.56	112.66	9.94	-52.3	-54.5	14.8	0.00e+00	0	23	0	148897792	71	4465
2026-01-10 08:04:57.57	112.60	10.02	-52.3	-54.4	14.8	0.00e+00	0	23	0	150994944	71	4395
2026-01-10 08:04:58.57	112.54	10.11	-52.3	-54.4	14.8	0.00e+00	0	23	0	153092096	71	4436
2026-01-10 08:04:59.58	112.48	10.19	-52.2	-54.3	14.9	0.00e+00	0	23	0	155189248	71	4379
2026-01-10 08:05:00.59	112.42	10.27	-52.2	-54.3	14.8	0.00e+00	0	23	0	157286400	71	4380
2026-01-10 08:05:01.60	112.36	10.36	-52.3	-54.5	14.7	0.00e+00	0	23	0	158334976	71	4460
2026-01-10 08:05:02.61	112.30	10.44	-52.3	-54.5	14.8	0.00e+00	0	23	0	160432128	71	4444
2026-01-10 08:05:03.61	112.24	10.53	-52.3	-54.4	14.8	0.00e+00	0	23	0	162529280	71	4430
2026-01-10 08:05:04.62	112.18	10.61	-52.4	-54.6	14.7	0.00e+00	0	23	0	164626432	71	4498
2026-01-10 08:05:05.63	112.12	10.70	-52.3	-54.5	14.8	0.00e+00	0	23	0	166723584	71	4442
2026-01-10 08:05:06.64	112.06	10.78	-52.3	-54.4	14.8	0.00e+00	0	23	0	167772160	71	4422
2026-01-10 08:05:07.65	111.99	10.87	-52.3	-54.4	14.8	0.00e+00	0	23	0	169869312	71	4393
2026-01-10 08:05:08.66	111.93	10.95	-52.3	-54.4	14.8	0.00e+00	0	23	0	171966464	71	4434
2026-01-10 08:05:09.66	111.87	11.04	-52.4	-54.5	14.8	0.00e+00	0	23	0	174063616	71	4452
2026-01-10 08:05:10.67	111.81	11.12	-52.4	-54.5	14.8	0.00e+00	0	23	0	176160768	71	4453
2026-01-10 08:05:11.68	111.74	11.21	-52.2	-54.2	14.9	0.00e+00	0	23	0	177209344	71	4339
2026-01-10 08:05:12.69	111.68	11.30	-52.2	-54.3	14.7	0.00e+00	0	23	0	179306496	70	4603
2026-01-10 08:05:13.70	111.61	11.39	-52.2	-54.3	14.7	0.00e+00	0	23	0	181403648	70	4611
2026-01-10 08:05:14.71	111.55	11.47	-52.0	-54.1	14.8	0.00e+00	0	23	0	183500800	70	4508
2026-01-10 08:05:15.71	111.48	11.56	-52.1	-54.2	14.8	0.00e+00	0	23	0	185597952	70	4548
2026-01-10 08:05:16.72	111.42	11.65	-52.1	-54.2	14.7	0.00e+00	0	23	0	186646528	70	4550
2026-01-10 08:05:17.73	111.35	11.74	-52.1	-54.2	14.7	0.00e+00	0	23	0	188743680	70	4568
2026-01-10 08:05:18.73	111.28	11.82	-52.1	-54.1	14.8	0.00e+00	0	23	0	190840832	70	4523
2026-01-10 08:05:19.73	111.22	11.91	-52.1	-54.1	14.8	0.00e+00	0	23	0	192937984	70	4534
2026-01-10 08:05:20.74	111.15	12.00	-52.0	-54.0	14.8	0.00e+00	0	23	0	195035136	70	4490
2026-01-10 08:05:21.74	111.08	12.09	-52.0	-54.0	14.8	0.00e+00	0	23	0	196083712	70	4489
2026-01-10 08:05:22.75	111.01	12.18	-52.0	-54.1	14.8	0.00e+00	0	23	0	198180864	70	4496
2026-01-10 08:05:23.76	110.94	12.27	-52.0	-54.0	14.9	0.00e+00	0	23	0	200278016	70	4478
2026-01-10 08:05:24.77	110.87	12.36	-52.1	-54.1	14.8	0.00e+00	0	23	0	202375168	70	4511
2026-01-10 08:05:25.78	110.80	12.45	-52.0	-54.0	14.9	0.00e+00	0	23	0	204472320	70	4474
2026-01-10 08:05:26.78	110.73	12.54	-51.9	-53.9	15.0	0.00e+00	0	23	0	205520896	70	4399
2026-01-10 08:05:27.79	110.66	12.63	-52.0	-54.0	14.9	0.00e+00	0	23	0	207618048	70	4480
2026-01-10 08:05:28.79	110.59	12.72	-52.0	-53.9	14.9	0.00e+00	0	23	0	209715200	70	4430
2026-01-10 08:05:29.80	110.52	12.82	-52.0	-53.9	14.9	0.00e+00	0	23	0	211812352	70	4434
2026-01-10 08:05:30.81	110.45	12.91	-51.9	-53.8	15.0	0.00e+00	0	23	0	213909504	70	4382
2026-01-10 08:05:31.82	110.38	13.00	-51.9	-53.9	14.9	0.00e+00	0	23	0	214958080	70	4414
2026-01-10 08:05:32.83	110.30	13.09	-51.9	-53.9	15.0	0.00e+00	0	23	0	217055232	70	4411
2026-01-10 08:05:33.83	110.23	13.19	-51.9	-53.9	14.9	0.00e+00	0	23	0	219152384	70	4398
2026-01-10 08:05:34.84	110.16	13.28	-51.9	-53.8	15.0	0.00e+00	0	23	0	221249536	70	4363
2026-01-10 08:05:35.85	110.08	13.37	-51.9	-53.8	15.0	0.00e+00	0	23	0	223346688	70	4378
2026-01-10 08:05:36.86	110.01	13.47	-51.8	-53.7	15.0	0.00e+00	0	23	0	224395264	70	4336
2026-01-10 08:05:37.87	109.93	13.56	-51.8	-53.8	15.0	0.00e+00	0	23	0	226492416	70	4341
2026-01-10 08:05:38.88	109.86	13.66	-51.8	-53.7	15.0	0.00e+00	0	23	0	228589568	70	4338
2026-01-10 08:05:39.88	109.78	13.75	-51.8	-53.8	15.0	0.00e+00	0	23	0	230686720	70	4347
2026-01-10 08:05:40.89	109.70	13.84	-52.0	-53.9	14.9	0.00e+00	0	23	0	232783872	70	4417
2026-01-10 08:05:41.90	109.62	13.94	-52.0	-53.9	14.9	0.00e+00	0	23	0	233832448	70	4423
2026-01-10 08:05:42.91	109.55	14.04	-51.9	-53.9	14.9	0.00e+00	0	23	0	235929600	70	4422
2026-01-10 08:05:43.91	109.47	14.13	-51.9	-53.8	15.0	0.00e+00	0	23	0	238026752	70	4374
2026-01-10 08:05:44.93	109.39	14.23	-51.8	-53.8	15.0	0.00e+00	0	23	0	240123904	70	4346
2026-01-10 08:05:45.94	109.31	14.33	-51.9	-53.8	15.0	0.00e+00	0	23	0	242221056	70	4375
2026-01-10 08:05:46.94	109.23	14.42	-51.9	-53.8	15.0	0.00e+00	0	23	0	243269632	70	4353
2026-01-10 08:05:47.96	109.15	14.52	-51.9	-53.8	15.0	0.00e+00	0	23	0	245366784	70	4364
2026-01-10 08:05:48.96	109.07	14.62	-51.9	-53.8	15.0	0.00e+00	0	23	0	247463936	70	4358
2026-01-10 08:05:49.97	108.99	14.72	-51.9	-53.9	15.0	0.00e+00	0	23	0	249561088	70	4395
2026-01-10 08:05:50.98	108.90	14.81	-51.8	-53.7	15.0	0.00e+00	0	23	0	251658240	70	4335
2026-01-10 08:05:51.99	108.82	14.91	-51.9	-53.8	15.0	0.00e+00	0	23	0	252706816	70	4350
2026-01-10 08:05:53.00	108.74	15.01	-52.0	-53.9	14.9	0.00e+00	0	23	0	254803968	70	4407
2026-01-10 08:05:54.01	108.65	15.11	-51.9	-53.8	15.0	0.00e+00	0	23	0	256901120	70	4384
2026-01-10 08:05:55.01	108.57	15.21	-52.0	-54.0	14.9	0.00e+00	0	23	0	258998272	70	4457
2026-01-10 08:05:56.02	108.48	15.31	-51.9	-53.8	15.0	0.00e+00	0	23	0	261095424	70	4359
2026-01-10 08:05:57.03	108.40	15.41	-51.9	-53.8	15.0	0.00e+00	0	23	0	262144000	70	4374
2026-01-10 08:05:58.03	108.31	15.51	-51.9	-53.8	15.0	0.00e+00	0	23	0	264241152	70	4369
2026-01-10 08:05:59.04	108.22	15.61	-51.9	-53.8	15.0	0.00e+00	0	23	0	266338304	70	4382
2026-01-10 08:06:00.05	108.14	15.71	-51.9	-53.8	15.0	0.00e+00	0	23	0	268435456	70	4351
2026-01-10 08:06:01.04	108.05	15.81	-51.9	-53.8	15.0	0.00e+00	0	23	0	270532608	70	4363
2026-01-10 08:06:02.05	107.96	15.92	-52.0	-53.9	14.9	0.00e+00	0	23	0	271581184	70	4435
2026-01-10 08:06:03.06	107.87	16.02	-51.9	-53.9	15.0	0.00e+00	0	23	0	273678336	70	4393
2026-01-10 08:06:04.06	107.78	16.12	-51.9	-53.8	15.0	0.00e+00	0	23	0	275775488	70	4376
2026-01-10 08:06:05.07	107.69	16.23	-51.9	-53.8	15.0	0.00e+00	0	23	0	277872640	70	4372
2026-01-10 08:06:06.08	107.60	16.33	-51.9	-53.9	15.0	0.00e+00	0	23	0	279969792	70	4396
2026-01-10 08:06:07.08	107.51	16.43	-52.0	-54.0	14.9	0.00e+00	0	23	0	281018368	70	4453
2026-01-10 08:06:08.09	107.41	16.54	-52.0	-53.9	14.9	0.00e+00	0	23	0	283115520	70	4433
2026-01-10 08:06:09.10	107.32	16.64	-52.0	-53.9	14.9	0.00e+00	0	23	0	285212672	70	4433
2026-01-10 08:06:10.10	107.23	16.75	-52.0	-54.0	14.9	0.00e+00	0	23	0	287309824	70	4448
2026-01-10 08:06:11.10	107.13	16.85	-52.1	-54.1	14.8	0.00e+00	0	23	0	289406976	70	4517
2026-01-10 08:06:12.11	107.04	16.96	-52.1	-54.1	14.9	0.00e+00	0	23	0	290455552	70	4505
2026-01-10 08:06:13.12	106.94	17.06	-52.2	-54.2	14.8	0.00e+00	0	23	0	292552704	70	4576
2026-01-10 08:06:14.13	106.84	17.17	-52.1	-54.1	14.8	0.00e+00	0	23	0	294649856	70	4512
2026-01-10 08:06:15.14	106.75	17.28	-52.2	-54.2	14.8	0.00e+00	0	23	0	296747008	70	4546
2026-01-10 08:06:16.15	106.65	17.38	-52.1	-54.1	14.8	0.00e+00	0	23	0	298844160	70	4508
2026-01-10 08:06:17.15	106.55	17.49	-52.1	-54.1	14.8	0.00e+00	0	23	0	300941312	70	4522
2026-01-10 08:06:18.16	106.45	17.60	-52.1	-54.1	14.8	0.00e+00	0	23	0	301989888	70	4515
2026-01-10 08:06:19.17	106.35	17.71	-52.1	-54.0	14.9	0.00e+00	0	23	0	304087040	70	4479
2026-01-10 08:06:20.17	106.25	17.82	-52.1	-54.0	14.9	0.00e+00	0	23	0	306184192	70	4489
2026-01-10 08:06:21.18	106.15	17.92	-52.1	-54.1	14.8	0.00e+00	0	23	0	308281344	70	4516
2026-01-10 08:06:22.19	106.04	18.03	-52.1	-54.0	14.9	0.00e+00	0	23	0	309329920	70	4486
2026-01-10 08:06:23.20	105.94	18.14	-52.0	-54.0	14.9	0.00e+00	0	23	0	311427072	70	4443
2026-01-10 08:06:24.21	105.84	18.26	-52.0	-53.9	15.0	0.00e+00	0	23	0	313524224	70	4425
2026-01-10 08:06:25.21	105.73	18.37	-52.0	-53.9	14.9	0.00e+00	0	23	0	315621376	70	4438
2026-01-10 08:06:26.22	105.63	18.48	-52.1	-54.0	14.9	0.00e+00	0	23	0	317718528	70	4488
2026-01-10 08:06:27.23	105.52	18.59	-52.0	-54.0	14.9	0.00e+00	0	23	0	318767104	70	4455
2026-01-10 08:06:28.24	105.41	18.70	-52.1	-54.0	14.9	0.00e+00	0	23	0	320864256	70	4472
2026-01-10 08:06:29.24	105.30	18.81	-52.1	-54.1	14.9	0.00e+00	0	23	0	322961408	70	4514
2026-01-10 08:06:30.25	105.20	18.93	-52.1	-54.1	14.8	0.00e+00	0	23	0	325058560	70	4532
2026-01-10 08:06:31.26	105.09	19.04	-52.2	-54.2	14.8	0.00e+00	0	23	0	327155712	70	4556
2026-01-10 08:06:32.27	104.97	19.15	-52.1	-54.1	14.9	0.00e+00	0	23	0	329252864	70	4502
2026-01-10 08:06:33.28	104.86	19.27	-52.2	-54.2	14.8	0.00e+00	0	23	0	330301440	70	4562
2026-01-10 08:06:34.28	104.75	19.38	-52.3	-54.3	14.8	0.00e+00	0	23	0	332398592	70	4617
2026-01-10 08:06:35.29	104.64	19.50	-52.2	-54.3	14.8	0.00e+00	0	23	0	334495744	70	4607
2026-01-10 08:06:36.30	104.52	19.61	-52.3	-54.3	14.7	0.00e+00	0	23	0	336592896	70	4624
2026-01-10 08:06:37.31	104.41	19.73	-52.3	-54.3	14.8	0.00e+00	0	23	0	338690048	70	4610
2026-01-10 08:06:38.32	104.29	19.84	-52.1	-54.1	14.8	0.00e+00	0	23	0	339738624	70	4527
2026-01-10 08:06:39.32	104.18	19.96	-52.2	-54.1	14.8	0.00e+00	0	23	0	341835776	70	4538
2026-01-10 08:06:40.33	104.06	20.08	-52.1	-54.1	14.8	0.00e+00	0	23	0	343932928	70	4512
2026-01-10 08:06:41.34	103.94	20.19	-52.2	-54.2	14.8	0.00e+00	0	23	0	346030080	70	4549
2026-01-10 08:06:42.35	103.82	20.31	-52.2	-54.2	14.8	0.00e+00	0	23	0	347078656	70	4557
2026-01-10 08:06:43.36	103.70	20.43	-52.2	-54.2	14.8	0.00e+00	0	23	0	349175808	70	4597
2026-01-10 08:06:44.37	103.58	20.55	-52.1	-54.0	14.9	0.00e+00	0	23	0	351272960	70	4491
2026-01-10 08:06:45.38	103.45	20.67	-52.0	-54.0	14.9	0.00e+00	0	23	0	353370112	70	4458
2026-01-10 08:06:46.38	103.33	20.79	-52.1	-54.1	14.9	0.00e+00	0	23	0	355467264	70	4506
2026-01-10 08:06:47.39	103.21	20.91	-52.0	-54.0	15.0	0.00e+00	0	23	0	357564416	70	4450
2026-01-10 08:06:48.40	103.08	21.03	-52.0	-54.0	15.0	0.00e+00	0	23	0	358612992	70	4445
2026-01-10 08:06:49.41	102.95	21.15	-52.1	-54.1	14.9	0.00e+00	0	23	0	360710144	70	4514
2026-01-10 08:06:50.41	102.83	21.27	-52.2	-54.2	14.8	0.00e+00	0	23	0	362807296	70	4550
2026-01-10 08:06:51.42	102.70	21.39	-52.2	-54.1	14.8	0.00e+00	0	23	0	364904448	70	4539
2026-01-10 08:06:52.42	102.57	21.51	-52.1	-54.1	14.9	0.00e+00	0	23	0	367001600	70	4501
2026-01-10 08:06:53.43	102.44	21.63	-52.1	-54.1	14.9	0.00e+00	0	23	0	368050176	70	4516
2026-01-10 08:06:54.44	102.31	21.76	-52.1	-54.1	14.9	0.00e+00	0	23	0	370147328	70	4497
2026-01-10 08:06:55.45	102.17	21.88	-52.0	-54.0	14.9	0.00e+00	0	23	0	372244480	70	4456
2026-01-10 08:06:56.45	102.04	22.00	-52.1	-54.0	14.9	0.00e+00	0	23	0	374341632	70	4476
2026-01-10 08:06:57.46	101.91	22.13	-52.1	-54.1	14.9	0.00e+00	0	23	0	376438784	70	4508
2026-01-10 08:06:58.46	101.77	22.25	-52.3	-54.3	14.8	0.00e+00	0	23	0	377487360	70	4615
2026-01-10 08:06:59.47	101.63	22.37	-52.3	-54.3	14.8	0.00e+00	0	23	0	379584512	70	4610
2026-01-10 08:07:00.48	101.50	22.50	-52.2	-54.1	14.8	0.00e+00	0	23	0	381681664	70	4534
2026-01-10 08:07:01.49	101.36	22.63	-52.3	-54.3	14.8	0.00e+00	0	23	0	383778816	70	4603
2026-01-10 08:07:02.50	101.22	22.75	-52.2	-54.2	14.8	0.00e+00	0	23	0	385875968	70	4581
2026-01-10 08:07:03.51	101.07	22.88	-52.2	-54.2	14.8	0.00e+00	0	23	0	386924544	70	4563
2026-01-10 08:07:04.52	100.93	23.01	-52.2	-54.2	14.8	0.00e+00	0	23	0	389021696	70	4589
2026-01-10 08:07:05.52	100.79	23.13	-52.2	-54.1	14.8	0.00e+00	0	23	0	391118848	70	4545
2026-01-10 08:07:06.53	100.64	23.26	-52.2	-54.2	14.8	0.00e+00	0	23	0	393216000	70	4553
2026-01-10 08:07:07.54	100.50	23.39	-52.2	-54.2	14.8	0.00e+00	0	23	0	395313152	70	4579
2026-01-10 08:07:08.55	100.35	23.52	-52.3	-54.4	14.7	0.00e+00	0	23	0	396361728	70	4657
2026-01-10 08:07:09.55	100.20	23.65	-52.3	-54.2	14.7	0.00e+00	0	23	0	398458880	70	4589
2026-01-10 08:07:10.56	100.05	23.78	-52.2	-54.2	14.8	0.00e+00	0	23	0	400556032	70	4564
2026-01-10 08:07:11.56	99.90	23.91	-52.3	-54.2	14.8	0.00e+00	0	23	0	402653184	70	4591
2026-01-10 08:07:12.57	99.75	24.04	-52.2	-54.2	14.8	0.00e+00	0	23	0	404750336	70	4565
2026-01-10 08:07:13.58	99.59	24.17	-52.3	-54.3	14.8	0.00e+00	0	23	0	405798912	70	4611
2026-01-10 08:07:14.58	99.44	24.30	-52.2	-54.2	14.8	0.00e+00	0	23	0	407896064	70	4571
2026-01-10 08:07:15.59	99.28	24.43	-52.2	-54.1	14.9	0.00e+00	0	23	0	409993216	70	4543
2026-01-10 08:07:16.60	99.12	24.56	-52.2	-54.2	14.8	0.00e+00	0	23	0	412090368	70	4587
2026-01-10 08:07:17.61	98.96	24.70	-52.2	-54.2	14.8	0.00e+00	0	23	0	414187520	70	4581
2026-01-10 08:07:18.62	98.80	24.83	-52.3	-54.3	14.8	0.00e+00	0	23	0	415236096	70	4620
2026-01-10 08:07:19.63	98.64	24.96	-52.2	-54.2	14.8	0.00e+00	0	23	0	417333248	70	4570
2026-01-10 08:07:20.63	98.48	25.10	-52.3	-54.3	14.7	0.00e+00	0	23	0	419430400	70	4648
2026-01-10 08:07:21.63	98.31	25.23	-52.4	-54.4	14.7	0.00e+00	0	23	0	421527552	70	4660
2026-01-10 08:07:22.64	98.15	25.36	-52.4	-54.5	14.7	0.00e+00	0	23	0	423624704	70	4712
2026-01-10 08:07:23.65	97.98	25.50	-52.3	-54.3	14.7	0.00e+00	0	23	0	424673280	70	4649
2026-01-10 08:07:24.66	97.81	25.64	-52.4	-54.4	14.7	0.00e+00	0	23	0	426770432	70	4668
2026-01-10 08:07:25.66	97.64	25.77	-52.3	-54.3	14.7	0.00e+00	0	23	0	428867584	70	4651
2026-01-10 08:07:26.65	97.47	25.90	-52.4	-54.4	14.7	0.00e+00	0	23	0	430964736	70	4687
2026-01-10 08:07:27.65	97.30	26.04	-52.4	-54.4	14.7	0.00e+00	0	23	0	433061888	70	4684
2026-01-10 08:07:28.66	97.12	26.18	-52.4	-54.5	14.7	0.00e+00	0	23	0	434110464	70	4715
2026-01-10 08:07:29.66	96.95	26.31	-52.4	-54.4	14.7	0.00e+00	0	23	0	436207616	70	4674
2026-01-10 08:07:30.66	96.77	26.45	-52.4	-54.5	14.7	0.00e+00	0	23	0	438304768	70	4718
2026-01-10 08:07:31.65	96.59	26.59	-52.3	-54.2	14.8	0.00e+00	0	23	0	440401920	70	4581
2026-01-10 08:07:32.65	96.41	26.73	-52.2	-54.2	14.8	0.00e+00	0	23	0	441450496	70	4565
2026-01-10 08:07:33.65	96.23	26.86	-52.3	-54.2	14.8	0.00e+00	0	23	0	443547648	70	4579
2026-01-10 08:07:34.65	96.05	27.00	-52.2	-54.2	14.8	0.00e+00	0	23	0	445644800	70	4552
2026-01-10 08:07:35.65	95.86	27.14	-52.4	-54.3	14.7	0.00e+00	0	23	0	447741952	70	4651
2026-01-10 08:07:36.66	95.67	27.28	-52.4	-54.5	14.7	0.00e+00	0	23	0	449839104	70	4709
2026-01-10 08:07:37.66	95.49	27.42	-52.6	-54.6	14.6	0.00e+00	0	23	0	450887680	70	4814
2026-01-10 08:07:38.66	95.30	27.56	-52.6	-54.7	14.5	0.00e+00	0	23	0	452984832	70	4831
2026-01-10 08:07:39.66	95.11	27.70	-52.6	-54.8	14.5	0.00e+00	0	23	0	455081984	70	4873
2026-01-10 08:07:40.66	94.91	27.84	-52.8	-55.0	14.4	0.00e+00	0	23	0	457179136	70	4987
2026-01-10 08:07:41.67	94.72	27.98	-52.8	-54.9	14.4	0.00e+00	0	23	0	459276288	70	4975
2026-01-10 08:07:42.67	94.52	28.12	-52.8	-55.0	14.3	0.00e+00	0	23	0	460324864	70	5033
2026-01-10 08:07:43.68	94.32	28.27	-53.0	-55.3	14.4	0.00e+00	0	23	0	462422016	71	4875
2026-01-10 08:07:44.68	94.12	28.41	-53.1	-55.5	14.3	0.00e+00	0	23	0	464519168	71	4984
2026-01-10 08:07:45.68	93.92	28.55	-53.1	-55.4	14.3	0.00e+00	0	23	0	466616320	71	4968
2026-01-10 08:07:46.68	93.71	28.69	-53.3	-55.6	14.2	0.00e+00	0	23	0	468713472	71	5071
2026-01-10 08:07:47.68	93.51	28.84	-53.4	-55.7	14.1	0.00e+00	0	23	0	469762048	71	5153
2026-01-10 08:07:48.68	93.30	28.98	-53.4	-55.8	14.0	0.00e+00	0	23	0	471859200	71	5201
2026-01-10 08:07:49.69	93.09	29.13	-53.7	-56.2	13.9	0.00e+00	0	23	0	473956352	72	5148
2026-01-10 08:07:50.69	92.87	29.27	-53.8	-56.4	13.8	0.00e+00	0	23	0	476053504	72	5232
2026-01-10 08:07:51.69	92.66	29.41	-54.0	-56.7	13.7	0.00e+00	0	23	0	477102080	73	5150
2026-01-10 08:07:52.70	92.44	29.56	-54.2	-57.0	13.6	0.00e+00	0	23	0	479199232	73	5298
2026-01-10 08:07:53.70	92.23	29.70	-54.4	-57.3	13.4	0.00e+00	0	23	0	481296384	73	5504
2026-01-10 08:07:54.70	92.01	29.85	-54.5	-57.5	13.3	0.00e+00	0	23	0	483393536	74	5337
2026-01-10 08:07:55.70	91.79	29.99	-54.7	-57.7	13.2	0.00e+00	0	23	0	485490688	74	5462
2026-01-10 08:07:56.70	91.56	30.14	-54.7	-57.8	13.2	0.00e+00	0	23	0	487587840	74	5498
2026-01-10 08:07:57.70	91.34	30.29	-54.7	-57.7	13.2	0.00e+00	0	23	0	488636416	74	5450
2026-01-10 08:07:58.70	91.11	30.43	-54.6	-57.6	13.3	0.00e+00	0	23	0	490733568	74	5353
2026-01-10 08:07:59.71	90.88	30.58	-54.6	-57.6	13.3	0.00e+00	0	23	0	492830720	74	5356
2026-01-10 08:08:00.72	90.64	30.73	-54.6	-57.5	13.3	0.00e+00	0	23	0	494927872	74	5332
2026-01-10 08:08:01.72	90.41	30.87	-54.6	-57.5	13.3	0.00e+00	0	24	0	495976448	74	5330
2026-01-10 08:08:02.73	90.17	31.02	-54.5	-57.4	13.4	0.00e+00	0	23	0	498073600	74	5257
2026-01-10 08:08:03.74	89.93	31.17	-54.4	-57.3	13.5	0.00e+00	0	23	0	500170752	74	5174
2026-01-10 08:08:04.74	89.69	31.32	-54.4	-57.2	13.5	0.00e+00	0	23	0	502267904	74	5149
2026-01-10 08:08:05.74	89.45	31.46	-54.4	-57.3	13.5	0.00e+00	0	23	0	504365056	74	5202
2026-01-10 08:08:06.75	89.20	31.61	-54.4	-57.3	13.5	0.00e+00	0	23	0	505413632	74	5162
2026-01-10 08:08:07.75	88.95	31.76	-54.4	-57.2	13.6	0.00e+00	0	23	0	507510784	74	5103
2026-01-10 08:08:08.76	88.70	31.91	-54.3	-57.1	13.7	0.00e+00	0	23	0	509607936	74	5047
2026-01-10 08:08:09.76	88.45	32.06	-54.4	-57.3	13.5	0.00e+00	0	23	0	511705088	74	5177
2026-01-10 08:08:10.76	88.20	32.21	-54.5	-57.4	13.5	0.00e+00	0	23	0	513802240	74	5221
2026-01-10 08:08:11.77	87.94	32.35	-54.7	-57.7	13.2	0.00e+00	0	23	0	514850816	74	5428
2026-01-10 08:08:12.78	87.68	32.50	-54.7	-57.8	13.2	0.00e+00	0	23	0	516947968	74	5471
2026-01-10 08:08:13.79	87.41	32.65	-54.7	-57.7	13.2	0.00e+00	0	23	0	519045120	74	5442
2026-01-10 08:08:14.79	87.15	32.80	-54.5	-57.3	13.5	0.00e+00	0	23	0	521142272	74	5214
2026-01-10 08:08:15.80	86.88	32.95	-54.4	-57.2	13.6	0.00e+00	0	23	0	523239424	74	5148
2026-01-10 08:08:16.81	86.61	33.10	-54.3	-57.0	13.7	0.00e+00	0	23	0	524288000	74	5007
2026-01-10 08:08:17.81	86.34	33.25	-54.3	-57.1	13.7	0.00e+00	0	23	0	526385152	74	5042
2026-01-10 08:08:18.82	86.06	33.40	-54.3	-57.1	13.7	0.00e+00	0	23	0	528482304	74	5060
2026-01-10 08:08:19.83	85.78	33.55	-54.0	-56.5	14.0	0.00e+00	0	23	0	530579456	74	4758
2026-01-10 08:08:20.83	85.51	33.70	-53.9	-56.4	14.1	0.00e+00	0	23	0	532676608	74	4677
2026-01-10 08:08:21.84	85.22	33.85	-53.8	-56.2	14.3	0.00e+00	0	23	0	533725184	74	4575
2026-01-10 08:08:22.85	84.93	34.00	-53.7	-56.1	14.3	0.00e+00	0	23	0	535822336	74	4525
2026-01-10 08:08:23.86	84.65	34.14	-53.6	-56.0	14.2	0.00e+00	0	23	0	537919488	73	4745
2026-01-10 08:08:24.86	84.36	34.29	-53.5	-55.9	14.3	0.00e+00	0	23	0	540016640	73	4654
2026-01-10 08:08:25.87	84.06	34.44	-53.5	-55.8	14.3	0.00e+00	0	23	0	542113792	73	4637
2026-01-10 08:08:26.87	83.77	34.59	-53.3	-55.6	14.5	0.00e+00	0	23	0	543162368	73	4494
2026-01-10 08:08:27.88	83.47	34.74	-53.2	-55.4	14.6	0.00e+00	0	23	0	545259520	73	4416
2026-01-10 08:08:28.89	83.16	34.89	-53.1	-55.2	14.5	0.00e+00	0	23	0	547356672	72	4593
2026-01-10 08:08:29.89	82.86	35.03	-52.9	-55.0	14.7	0.00e+00	0	23	0	549453824	72	4489
2026-01-10 08:08:30.90	82.55	35.18	-52.8	-54.9	14.7	0.00e+00	0	23	0	551550976	72	4408
2026-01-10 08:08:31.91	82.24	35.33	-52.7	-54.8	14.8	0.00e+00	0	23	0	552599552	72	4359
2026-01-10 08:08:32.92	81.93	35.48	-52.8	-54.9	14.8	0.00e+00	0	23	0	554696704	72	4414
2026-01-10 08:08:33.93	81.61	35.62	-53.0	-55.1	14.6	0.00e+00	0	23	0	556793856	72	4535
2026-01-10 08:08:34.94	81.29	35.77	-53.1	-55.3	14.6	0.00e+00	0	23	0	558891008	72	4619
2026-01-10 08:08:35.93	80.97	35.91	-53.1	-55.3	14.5	0.00e+00	0	23	0	560988160	72	4614
2026-01-10 08:08:36.94	80.65	36.06	-53.2	-55.5	14.4	0.00e+00	0	23	0	562036736	72	4706
2026-01-10 08:08:37.94	80.32	36.20	-53.2	-55.4	14.5	0.00e+00	0	23	0	564133888	72	4705
2026-01-10 08:08:38.94	80.00	36.35	-53.2	-55.4	14.5	0.00e+00	0	24	0	566231040	72	4674
2026-01-10 08:08:39.95	79.66	36.49	-53.2	-55.5	14.4	0.00e+00	0	23	0	568328192	72	4715
2026-01-10 08:08:40.96	79.32	36.64	-53.4	-55.8	14.3	0.00e+00	0	23	0	570425344	72	4875
2026-01-10 08:08:41.96	78.99	36.78	-53.6	-56.0	14.1	0.00e+00	0	23	0	571473920	72	5002
2026-01-10 08:08:42.96	78.65	36.92	-53.6	-56.0	14.1	0.00e+00	0	23	0	573571072	72	5023
2026-01-10 08:08:43.96	78.30	37.06	-53.7	-56.1	14.0	0.00e+00	0	23	0	575668224	72	5081
2026-01-10 08:08:44.96	77.96	37.20	-53.6	-56.0	14.1	0.00e+00	0	23	0	577765376	72	5030
2026-01-10 08:08:45.96	77.61	37.34	-53.5	-55.8	14.2	0.00e+00	0	23	0	579862528	72	4888
2026-01-10 08:08:46.96	77.26	37.48	-53.5	-55.9	14.2	0.00e+00	0	23	0	580911104	72	4962
2026-01-10 08:08:47.97	76.90	37.62	-53.6	-56.0	14.1	0.00e+00	0	23	0	583008256	72	5002
2026-01-10 08:08:48.98	76.54	37.76	-53.6	-56.0	14.1	0.00e+00	0	23	0	585105408	72	5013
2026-01-10 08:08:49.98	76.18	37.90	-53.7	-56.2	14.0	0.00e+00	0	23	0	587202560	72	5128
2026-01-10 08:08:50.98	75.81	38.03	-54.0	-56.6	13.9	0.00e+00	0	23	0	589299712	73	5076
2026-01-10 08:08:51.99	75.44	38.17	-54.0	-56.6	13.9	0.00e+00	0	23	0	590348288	73	5080
2026-01-10 08:08:52.99	75.07	38.31	-54.2	-56.9	13.7	0.00e+00	0	23	0	592445440	73	5229
2026-01-10 08:08:54.00	74.69	38.44	-54.0	-56.5	13.9	0.00e+00	0	23	0	594542592	73	5037
2026-01-10 08:08:55.01	74.31	38.58	-53.7	-56.2	14.2	0.00e+00	0	23	0	596639744	73	4829
2026-01-10 08:08:56.01	73.93	38.71	-53.7	-56.1	14.2	0.00e+00	0	23	0	598736896	73	4772
2026-01-10 08:08:57.02	73.55	38.84	-53.5	-55.8	14.4	0.00e+00	0	23	0	599785472	73	4625
2026-01-10 08:08:58.02	73.16	38.97	-53.5	-55.8	14.4	0.00e+00	0	23	0	601882624	73	4644
2026-01-10 08:08:59.03	72.77	39.10	-53.4	-55.6	14.5	0.00e+00	0	23	0	603979776	73	4529
2026-01-10 08:09:00.04	72.37	39.23	-53.3	-55.5	14.5	0.00e+00	0	23	0	606076928	73	4482
2026-01-10 08:09:01.05	71.97	39.36	-53.1	-55.3	14.6	0.00e+00	0	23	0	608174080	72	4606
2026-01-10 08:09:02.05	71.57	39.48	-53.0	-55.1	14.7	0.00e+00	0	23	0	609222656	72	4539
2026-01-10 08:09:03.06	71.17	39.61	-52.9	-55.0	14.8	0.00e+00	0	23	0	611319808	72	4455
2026-01-10 08:09:04.07	70.76	39.74	-52.7	-54.8	14.9	0.00e+00	0	23	0	613416960	72	4348
2026-01-10 08:09:05.08	70.35	39.86	-52.6	-54.7	14.8	0.00e+00	0	23	0	615514112	71	4558
2026-01-10 08:09:06.08	69.94	39.98	-52.6	-54.6	14.8	0.00e+00	0	23	0	617611264	71	4512
2026-01-10 08:09:07.09	69.52	40.10	-52.5	-54.4	14.9	0.00e+00	0	23	0	618659840	71	4439
2026-01-10 08:09:08.09	69.10	40.22	-52.1	-53.9	15.0	0.00e+00	0	23	0	620756992	70	4440
2026-01-10 08:09:09.09	68.68	40.34	-52.2	-54.1	14.9	0.00e+00	0	23	0	622854144	70	4539
2026-01-10 08:09:10.10	68.25	40.45	-52.3	-54.2	14.9	0.00e+00	0	23	0	624951296	70	4564
2026-01-10 08:09:11.10	67.83	40.57	-52.1	-53.9	15.0	0.00e+00	0	23	0	627048448	70	4425
2026-01-10 08:09:12.11	67.39	40.68	-52.1	-53.9	15.0	0.00e+00	0	23	0	628097024	70	4404
2026-01-10 08:09:13.11	66.96	40.79	-52.0	-53.8	15.1	0.00e+00	0	23	0	630194176	70	4356
2026-01-10 08:09:14.12	66.52	40.91	-52.1	-53.9	15.0	0.00e+00	0	23	0	632291328	70	4418
2026-01-10 08:09:15.13	66.08	41.02	-52.2	-54.1	14.9	0.00e+00	0	23	0	634388480	70	4514
2026-01-10 08:09:16.13	65.64	41.12	-52.3	-54.3	14.8	0.00e+00	0	23	0	636485632	70	4618
2026-01-10 08:09:17.14	65.19	41.23	-52.6	-54.6	14.7	0.00e+00	0	23	0	637534208	70	4789
2026-01-10 08:09:18.15	64.74	41.33	-52.8	-54.9	14.5	0.00e+00	0	23	0	639631360	70	4961
2026-01-10 08:09:19.15	64.29	41.43	-53.1	-55.3	14.4	0.00e+00	0	23	0	641728512	71	4893
2026-01-10 08:09:20.16	63.83	41.53	-52.9	-55.0	14.6	0.00e+00	0	23	0	643825664	71	4711
2026-01-10 08:09:21.16	63.37	41.63	-52.6	-54.6	14.8	0.00e+00	0	23	0	645922816	71	4536
2026-01-10 08:09:22.17	62.91	41.73	-52.4	-54.4	14.9	0.00e+00	0	23	0	646971392	71	4396
2026-01-10 08:09:23.18	62.44	41.83	-52.0	-53.8	15.1	0.00e+00	0	23	0	649068544	70	4387
2026-01-10 08:09:24.18	61.98	41.92	-51.8	-53.6	15.2	0.00e+00	0	23	0	651165696	70	4246
2026-01-10 08:09:25.19	61.51	42.01	-51.7	-53.5	15.2	0.00e+00	0	23	0	653262848	70	4215
2026-01-10 08:09:26.19	61.04	42.10	-51.8	-53.6	15.2	0.00e+00	0	23	0	654311424	70	4258
2026-01-10 08:09:27.20	60.56	42.19	-51.9	-53.7	15.2	0.00e+00	0	23	0	656408576	70	4303
2026-01-10 08:09:28.21	60.09	42.27	-51.9	-53.7	15.1	0.00e+00	0	23	0	658505728	70	4307
2026-01-10 08:09:29.21	59.61	42.35	-51.8	-53.6	15.2	0.00e+00	0	23	0	660602880	70	4251
2026-01-10 08:09:30.22	59.12	42.44	-51.6	-53.4	15.1	0.00e+00	0	23	0	662700032	69	4404
2026-01-10 08:09:31.23	58.64	42.52	-51.6	-53.3	15.2	0.00e+00	0	23	0	664797184	69	4360
2026-01-10 08:09:32.23	58.15	42.59	-51.5	-53.2	15.2	0.00e+00	0	23	0	665845760	69	4314
2026-01-10 08:09:33.23	57.67	42.67	-51.5	-53.2	15.3	0.00e+00	0	23	0	667942912	69	4303
2026-01-10 08:09:34.24	57.17	42.74	-51.3	-53.0	15.4	0.00e+00	0	23	0	670040064	69	4216
2026-01-10 08:09:35.25	56.68	42.81	-51.3	-53.0	15.3	0.00e+00	0	23	0	672137216	69	4215
2026-01-10 08:09:36.26	56.18	42.88	-51.4	-53.0	15.3	0.00e+00	0	23	0	674234368	69	4228
2026-01-10 08:09:37.26	55.69	42.94	-51.2	-52.8	15.3	0.00e+00	0	23	0	675282944	68	4361
2026-01-10 08:09:38.27	55.19	43.01	-51.2	-52.9	15.2	0.00e+00	0	23	0	677380096	68	4403
2026-01-10 08:09:39.28	54.68	43.07	-51.5	-53.2	15.1	0.00e+00	0	23	0	679477248	68	4593
2026-01-10 08:09:40.29	54.18	43.12	-51.8	-53.6	14.8	0.00e+00	0	23	0	681574400	68	4804
2026-01-10 08:09:41.29	53.67	43.18	-51.8	-53.6	14.8	0.00e+00	0	23	0	682622976	68	4793
2026-01-10 08:09:42.30	53.16	43.23	-51.9	-53.7	14.8	0.00e+00	0	23	0	684720128	68	4828
2026-01-10 08:09:43.31	52.65	43.29	-51.9	-53.7	15.0	0.00e+00	0	23	0	686817280	69	4567
2026-01-10 08:09:44.31	52.15	43.33	-51.8	-53.6	15.0	0.00e+00	0	23	0	688914432	69	4536
2026-01-10 08:09:45.32	51.63	43.38	-51.8	-53.6	15.0	0.00e+00	0	23	0	691011584	69	4536
2026-01-10 08:09:46.32	51.12	43.42	-51.6	-53.4	15.1	0.00e+00	0	23	0	693108736	69	4408
2026-01-10 08:09:47.32	50.61	43.46	-51.8	-53.6	15.0	0.00e+00	0	23	0	694157312	69	4520
2026-01-10 08:09:48.33	50.09	43.50	-52.0	-53.9	14.9	0.00e+00	0	23	0	696254464	69	4683
2026-01-10 08:09:49.35	49.57	43.54	-52.3	-54.3	14.7	0.00e+00	0	23	0	698351616	69	4877
2026-01-10 08:09:50.35	49.05	43.57	-52.3	-54.3	14.7	0.00e+00	0	23	0	700448768	69	4882
2026-01-10 08:09:51.36	48.53	43.60	-52.3	-54.3	14.7	0.00e+00	0	23	0	702545920	69	4894
2026-01-10 08:09:52.36	48.02	43.63	-52.4	-54.3	14.6	0.00e+00	0	23	0	703594496	69	4918
2026-01-10 08:09:53.37	47.49	43.66	-52.4	-54.4	14.6	0.00e+00	0	23	0	705691648	69	4928
2026-01-10 08:09:54.38	46.97	43.68	-52.2	-54.1	14.8	0.00e+00	0	23	0	707788800	69	4782
2026-01-10 08:09:55.39	46.44	43.70	-52.3	-54.3	14.7	0.00e+00	0	23	0	709885952	69	4896
2026-01-10 08:09:56.39	45.92	43.72	-52.6	-54.6	14.6	0.00e+00	0	23	0	710934528	70	4804
2026-01-10 08:09:57.40	45.40	43.73	-52.8	-54.8	14.5	0.00e+00	0	23	0	713031680	70	4919
2026-01-10 08:09:58.41	44.87	43.74	-52.6	-54.6	14.7	0.00e+00	0	23	0	715128832	70	4765
2026-01-10 08:09:59.42	44.35	43.75	-52.5	-54.4	14.7	0.00e+00	0	23	0	717225984	70	4690
2026-01-10 08:10:00.42	43.82	43.76	-52.7	-54.7	14.6	0.00e+00	0	23	0	719323136	70	4828
2026-01-10 08:10:01.43	43.30	43.76	-53.0	-55.2	14.5	0.00e+00	0	23	0	721420288	71	4840
2026-01-10 08:10:02.43	42.78	43.76	-53.2	-55.4	14.4	0.00e+00	0	23	0	722468864	71	4943
2026-01-10 08:10:03.44	42.25	43.76	-53.3	-55.5	14.3	0.00e+00	0	23	0	724566016	71	5027
2026-01-10 08:10:04.44	41.73	43.76	-53.4	-55.7	14.2	0.00e+00	0	23	0	726663168	71	5127
2026-01-10 08:10:05.45	41.20	43.75	-53.4	-55.7	14.3	0.00e+00	0	23	0	728760320	72	4836
2026-01-10 08:10:06.46	40.67	43.74	-53.4	-55.6	14.3	0.00e+00	0	23	0	730857472	72	4805
2026-01-10 08:10:07.47	40.15	43.73	-53.6	-56.0	14.1	0.00e+00	0	23	0	731906048	72	4999
2026-01-10 08:10:08.47	39.63	43.72	-54.0	-56.5	14.0	0.00e+00	0	23	0	734003200	73	5001
2026-01-10 08:10:09.48	39.10	43.70	-54.1	-56.8	13.8	0.00e+00	0	23	0	736100352	73	5166
2026-01-10 08:10:10.49	38.58	43.68	-54.0	-56.5	13.9	0.00e+00	0	23	0	738197504	73	5028
2026-01-10 08:10:11.49	38.06	43.66	-53.8	-56.3	14.1	0.00e+00	0	23	0	739246080	73	4898
2026-01-10 08:10:12.49	37.54	43.63	-54.0	-56.5	14.0	0.00e+00	0	23	0	741343232	73	5009
2026-01-10 08:10:13.50	37.02	43.60	-54.0	-56.5	14.0	0.00e+00	0	23	0	743440384	73	5005
2026-01-10 08:10:14.50	36.50	43.57	-54.1	-56.7	13.8	0.00e+00	0	23	0	745537536	73	5159
2026-01-10 08:10:15.51	35.98	43.54	-54.4	-57.1	13.6	0.00e+00	0	23	0	747634688	73	5394
2026-01-10 08:10:16.51	35.47	43.50	-54.5	-57.2	13.6	0.00e+00	0	23	0	749731840	74	5158
2026-01-10 08:10:17.52	34.95	43.46	-54.4	-57.1	13.7	0.00e+00	0	23	0	750780416	74	5094
2026-01-10 08:10:18.52	34.44	43.42	-54.5	-57.2	13.6	0.00e+00	0	23	0	752877568	74	5138
2026-01-10 08:10:19.53	33.93	43.38	-54.6	-57.4	13.5	0.00e+00	0	23	0	754974720	74	5249
2026-01-10 08:10:20.54	33.41	43.33	-54.4	-57.1	13.7	0.00e+00	0	23	0	757071872	74	5090
2026-01-10 08:10:21.54	32.91	43.28	-54.4	-57.1	13.8	0.00e+00	0	23	0	758120448	74	5086
2026-01-10 08:10:22.54	32.40	43.23	-54.6	-57.5	13.4	0.00e+00	0	23	0	760217600	74	5331
2026-01-10 08:10:23.55	31.89	43.18	-55.1	-58.4	13.0	0.00e+00	0	23	0	762314752	75	5545
2026-01-10 08:10:24.56	31.39	43.12	-55.2	-58.4	13.0	0.00e+00	0	23	0	764411904	75	5554
2026-01-10 08:10:25.56	30.89	43.06	-54.8	-57.8	13.4	0.00e+00	0	23	0	766509056	75	5173
2026-01-10 08:10:26.56	30.39	43.00	-54.7	-57.6	13.5	0.00e+00	0	23	0	767557632	75	5051
2026-01-10 08:10:27.57	29.89	42.94	-54.3	-57.0	14.0	0.00e+00	0	23	0	769654784	75	4713
2026-01-10 08:10:28.57	29.39	42.88	-54.2	-56.7	14.0	0.00e+00	0	23	0	771751936	74	4858
2026-01-10 08:10:29.58	28.89	42.81	-53.9	-56.3	14.2	0.00e+00	0	23	0	773849088	74	4651
2026-01-10 08:10:30.59	28.40	42.74	-53.4	-55.6	14.5	0.00e+00	0	23	0	775946240	73	4510
2026-01-10 08:10:31.59	27.91	42.67	-53.3	-55.5	14.6	0.00e+00	0	23	0	776994816	73	4475
2026-01-10 08:10:32.60	27.42	42.59	-53.5	-55.7	14.5	0.00e+00	0	23	0	779091968	73	4593
2026-01-10 08:10:33.60	26.94	42.51	-53.5	-55.7	14.4	0.00e+00	0	23	0	781189120	73	4590
2026-01-10 08:10:34.61	26.45	42.44	-53.1	-55.3	14.7	0.00e+00	0	23	0	783286272	72	4631
2026-01-10 08:10:35.61	25.97	42.35	-52.6	-54.6	14.8	0.00e+00	0	23	0	785383424	71	4495
2026-01-10 08:10:36.62	25.49	42.27	-52.0	-53.8	15.1	0.00e+00	0	23	0	786432000	70	4383
2026-01-10 08:10:37.63	25.01	42.19	-51.9	-53.6	15.2	0.00e+00	0	24	0	788529152	70	4278
2026-01-10 08:10:38.62	24.55	42.10	-52.1	-53.9	15.0	0.00e+00	0	23	0	790626304	70	4409
2026-01-10 08:10:39.62	24.08	42.01	-52.3	-54.2	14.9	0.00e+00	0	23	0	792723456	70	4589
2026-01-10 08:10:40.63	23.61	41.92	-52.3	-54.2	14.8	0.00e+00	0	23	0	794820608	70	4584
2026-01-10 08:10:41.64	23.14	41.83	-52.1	-54.0	15.0	0.00e+00	0	23	0	795869184	70	4468
2026-01-10 08:10:42.65	22.68	41.73	-51.9	-53.6	15.2	0.00e+00	0	23	0	797966336	70	4288
2026-01-10 08:10:43.65	22.22	41.64	-51.4	-53.1	15.3	0.00e+00	0	23	0	800063488	69	4276
2026-01-10 08:10:44.66	21.76	41.54	-51.0	-52.7	15.3	0.00e+00	0	23	0	802160640	68	4296
2026-01-10 08:10:45.66	21.31	41.44	-51.0	-52.6	15.4	0.00e+00	0	23	0	804257792	68	4275
2026-01-10 08:10:46.66	20.86	41.34	-51.0	-52.6	15.4	0.00e+00	0	23	0	805306368	68	4249
2026-01-10 08:10:47.67	20.41	41.23	-50.9	-52.5	15.4	0.00e+00	0	23	0	807403520	68	4229
2026-01-10 08:10:48.68	19.96	41.12	-50.7	-52.3	15.5	0.00e+00	0	23	0	809500672	68	4110
2026-01-10 08:10:49.69	19.51	41.02	-50.5	-52.0	15.4	0.00e+00	0	23	0	811597824	67	4236
2026-01-10 08:10:50.70	19.07	40.91	-50.6	-52.1	15.4	0.00e+00	0	23	0	813694976	67	4284
2026-01-10 08:10:51.70	18.64	40.80	-50.5	-52.0	15.4	0.00e+00	0	23	0	814743552	67	4230
2026-01-10 08:10:52.70	18.20	40.69	-50.2	-51.7	15.6	0.00e+00	0	23	0	816840704	67	4079
2026-01-10 08:10:53.71	17.77	40.57	-50.1	-51.6	15.5	0.00e+00	0	23	0	818937856	66	4252
2026-01-10 08:10:54.71	17.35	40.46	-50.1	-51.6	15.4	0.00e+00	0	23	0	821035008	66	4271
2026-01-10 08:10:55.72	16.92	40.34	-50.1	-51.6	15.5	0.00e+00	0	23	0	823132160	66	4275
2026-01-10 08:10:56.72	16.50	40.23	-50.2	-51.7	15.5	0.00e+00	0	23	0	824180736	66	4306
2026-01-10 08:10:57.72	16.08	40.11	-50.3	-51.8	15.4	0.00e+00	0	23	0	826277888	66	4362
2026-01-10 08:10:58.73	15.67	39.99	-50.2	-51.7	15.4	0.00e+00	0	23	0	828375040	66	4310
2026-01-10 08:10:59.74	15.25	39.86	-50.1	-51.5	15.5	0.00e+00	0	23	0	830472192	66	4228
2026-01-10 08:11:00.75	14.84	39.74	-49.9	-51.3	15.6	0.00e+00	0	23	0	832569344	66	4138
2026-01-10 08:11:01.75	14.44	39.62	-49.9	-51.3	15.6	0.00e+00	0	23	0	833617920	66	4132
2026-01-10 08:11:02.76	14.03	39.49	-49.9	-51.4	15.6	0.00e+00	0	23	0	835715072	66	4151
2026-01-10 08:11:03.76	13.63	39.37	-49.9	-51.4	15.6	0.00e+00	0	23	0	837812224	66	4157
2026-01-10 08:11:04.77	13.23	39.24	-50.0	-51.5	15.6	0.00e+00	0	23	0	839909376	66	4210
2026-01-10 08:11:05.77	12.84	39.11	-50.1	-51.5	15.5	0.00e+00	0	23	0	842006528	66	4237
2026-01-10 08:11:06.78	12.45	38.98	-50.1	-51.6	15.5	0.00e+00	0	23	0	843055104	66	4270
2026-01-10 08:11:07.79	12.06	38.85	-50.1	-51.6	15.5	0.00e+00	0	23	0	845152256	66	4276
2026-01-10 08:11:08.79	11.68	38.72	-50.3	-51.8	15.4	0.00e+00	0	23	0	847249408	66	4379
2026-01-10 08:11:09.79	11.30	38.59	-50.5	-52.1	15.2	0.00e+00	0	23	0	849346560	66	4519
2026-01-10 08:11:10.80	10.92	38.45	-50.5	-52.1	15.3	0.00e+00	0	23	0	851443712	66	4511
2026-01-10 08:11:11.80	10.55	38.32	-50.5	-52.0	15.3	0.00e+00	0	23	0	852492288	66	4489
2026-01-10 08:11:12.80	10.18	38.18	-50.4	-52.0	15.3	0.00e+00	0	23	0	854589440	66	4451
2026-01-10 08:11:13.81	9.81	38.05	-50.4	-52.0	15.3	0.00e+00	0	23	0	856686592	66	4446
2026-01-10 08:11:14.82	9.44	37.91	-50.5	-52.0	15.3	0.00e+00	0	23	0	858783744	66	4476
2026-01-10 08:11:15.83	9.08	37.77	-50.7	-52.2	15.2	0.00e+00	0	23	0	860880896	66	4590
2026-01-10 08:11:16.83	8.72	37.63	-51.0	-52.6	15.2	0.00e+00	0	23	0	861929472	67	4528
2026-01-10 08:11:17.83	8.36	37.49	-51.1	-52.8	15.1	0.00e+00	0	23	0	864026624	67	4613
2026-01-10 08:11:18.84	8.01	37.35	-51.1	-52.7	15.1	0.00e+00	0	23	0	866123776	67	4588
2026-01-10 08:11:19.84	7.66	37.22	-51.1	-52.8	15.1	0.00e+00	0	23	0	868220928	67	4630
2026-01-10 08:11:20.85	7.31	37.07	-51.2	-53.0	15.0	0.00e+00	0	23	0	870318080	67	4710
2026-01-10 08:11:21.86	6.97	36.93	-51.6	-53.4	15.0	0.00e+00	0	23	0	871366656	68	4690
2026-01-10 08:11:22.86	6.63	36.79	-51.7	-53.5	14.9	0.00e+00	0	23	0	873463808	68	4751
2026-01-10 08:11:23.87	6.29	36.65	-51.9	-53.7	14.8	0.00e+00	0	23	0	875560960	68	4841
2026-01-10 08:11:24.87	5.95	36.50	-51.9	-53.7	14.9	0.00e+00	0	23	0	877658112	69	4587
2026-01-10 08:11:25.88	5.62	36.36	-51.9	-53.7	15.0	0.00e+00	0	23	0	879755264	69	4551
2026-01-10 08:11:26.88	5.29	36.22	-51.8	-53.6	15.0	0.00e+00	0	23	0	880803840	69	4509
2026-01-10 08:11:27.87	4.97	36.07	-51.8	-53.6	15.1	0.00e+00	0	23	0	882900992	69	4496
2026-01-10 08:11:28.88	4.65	35.93	-51.9	-53.7	15.0	0.00e+00	0	23	0	884998144	69	4572
2026-01-10 08:11:29.89	4.33	35.78	-52.1	-53.9	14.8	0.00e+00	0	23	0	887095296	69	4695
2026-01-10 08:11:30.90	4.01	35.64	-52.2	-54.0	14.8	0.00e+00	0	23	0	888143872	69	4756
2026-01-10 08:11:31.90	3.69	35.49	-52.3	-54.2	14.7	0.00e+00	0	23	0	890241024	69	4865
2026-01-10 08:11:32.90	3.38	35.35	-52.4	-54.3	14.6	0.00e+00	0	23	0	892338176	69	4911
2026-01-10 08:11:33.91	3.07	35.20	-52.7	-54.7	14.6	0.00e+00	0	23	0	894435328	70	4843
2026-01-10 08:11:34.91	2.77	35.05	-52.8	-54.9	14.5	0.00e+00	0	23	0	896532480	70	4934
2026-01-10 08:11:35.91	2.47	34.91	-53.0	-55.2	14.4	0.00e+00	0	23	0	897581056	71	4835
2026-01-10 08:11:36.92	2.16	34.76	-53.2	-55.4	14.4	0.00e+00	0	23	0	899678208	71	4938
2026-01-10 08:11:37.92	1.87	34.61	-53.1	-55.3	14.4	0.00e+00	0	23	0	901775360	71	4921
2026-01-10 08:11:38.93	1.57	34.46	-52.9	-55.0	14.6	0.00e+00	0	23	0	903872512	71	4747
2026-01-10 08:11:39.94	1.28	34.31	-53.0	-55.1	14.5	0.00e+00	0	23	0	905969664	71	4785
2026-01-10 08:11:40.95	0.98	34.17	-53.1	-55.3	14.4	0.00e+00	0	23	0	907018240	71	4910
2026-01-10 08:11:41.95	0.70	34.02	-53.5	-55.9	14.2	0.00e+00	0	23	0	909115392	72	4945
2026-01-10 08:11:42.95	0.42	33.87	-53.7	-56.1	14.0	0.00e+00	0	23	0	911212544	72	5090
2026-01-10 08:11:43.96	0.13	33.72	-54.0	-56.5	14.0	0.00e+00	0	23	0	913309696	73	5024
2026-01-10 08:11:44.95	359.86	33.58	-54.0	-56.5	14.0	0.00e+00	0	23	0	915406848	73	4996
2026-01-10 08:11:45.96	359.58	33.43	-54.0	-56.5	13.9	0.00e+00	0	23	0	916455424	73	5004
2026-01-10 08:11:46.96	359.31	33.28	-53.9	-56.3	14.1	0.00e+00	0	23	0	918552576	73	4919
2026-01-10 08:11:47.97	359.03	33.13	-53.8	-56.2	14.1	0.00e+00	0	23	0	920649728	73	4861
2026-01-10 08:11:48.97	358.76	32.98	-53.8	-56.2	14.1	0.00e+00	0	23	0	922746880	73	4837
2026-01-10 08:11:49.98	358.50	32.83	-54.0	-56.5	13.9	0.00e+00	0	23	0	924844032	73	5021
2026-01-10 08:11:50.99	358.23	32.68	-54.3	-57.0	13.6	0.00e+00	0	23	0	925892608	73	5323
2026-01-10 08:11:51.99	357.97	32.54	-54.6	-57.4	13.5	0.00e+00	0	23	0	927989760	74	5264
2026-01-10 08:11:53.00	357.71	32.39	-54.5	-57.3	13.6	0.00e+00	0	23	0	930086912	74	5203
2026-01-10 08:11:54.00	357.45	32.24	-54.6	-57.4	13.5	0.00e+00	0	23	0	932184064	74	5258
2026-01-10 08:11:55.01	357.20	32.09	-54.5	-57.4	13.5	0.00e+00	0	23	0	934281216	74	5232
2026-01-10 08:11:56.02	356.94	31.94	-54.6	-57.4	13.5	0.00e+00	0	23	0	935329792	74	5268
2026-01-10 08:11:57.03	356.69	31.79	-54.6	-57.4	13.5	0.00e+00	0	23	0	937426944	74	5247
2026-01-10 08:11:58.03	356.45	31.65	-54.5	-57.2	13.6	0.00e+00	0	23	0	939524096	74	5142
2026-01-10 08:11:59.03	356.20	31.50	-54.3	-57.0	13.7	0.00e+00	0	23	0	941621248	74	5039
2026-01-10 08:12:00.04	355.96	31.35	-54.2	-56.8	13.9	0.00e+00	0	23	0	943718400	74	4897
2026-01-10 08:12:01.04	355.72	31.20	-54.0	-56.5	14.1	0.00e+00	0	23	0	944766976	74	4706
2026-01-10 08:12:02.05	355.48	31.06	-54.0	-56.5	14.1	0.00e+00	0	23	0	946864128	74	4738
2026-01-10 08:12:03.05	355.24	30.91	-54.0	-56.5	14.1	0.00e+00	0	23	0	948961280	74	4714
2026-01-10 08:12:04.06	355.01	30.76	-54.1	-56.7	14.0	0.00e+00	0	23	0	951058432	74	4818
2026-01-10 08:12:05.06	354.78	30.62	-54.2	-56.9	13.9	0.00e+00	0	23	0	953155584	74	4952
2026-01-10 08:12:06.07	354.54	30.47	-54.2	-56.8	13.9	0.00e+00	0	23	0	954204160	74	4922
2026-01-10 08:12:07.08	354.32	30.32	-54.1	-56.6	14.0	0.00e+00	0	23	0	956301312	74	4808
2026-01-10 08:12:08.08	354.09	30.18	-54.0	-56.6	14.1	0.00e+00	0	23	0	958398464	74	4806
2026-01-10 08:12:09.09	353.87	30.03	-53.9	-56.3	14.2	0.00e+00	0	23	0	960495616	74	4647
2026-01-10 08:12:10.10	353.64	29.88	-53.9	-56.5	14.1	0.00e+00	0	23	0	962592768	74	4717
2026-01-10 08:12:11.11	353.42	29.74	-53.8	-56.2	14.3	0.00e+00	0	23	0	963641344	74	4583
2026-01-10 08:12:12.12	353.20	29.59	-53.6	-56.0	14.3	0.00e+00	0	23	0	965738496	73	4709
2026-01-10 08:12:13.12	352.99	29.45	-53.5	-55.9	14.3	0.00e+00	0	23	0	967835648	73	4662
2026-01-10 08:12:14.12	352.78	29.30	-53.4	-55.7	14.4	0.00e+00	0	23	0	969932800	73	4587
2026-01-10 08:12:15.13	352.56	29.16	-53.3	-55.6	14.5	0.00e+00	0	23	0	972029952	73	4497
2026-01-10 08:12:16.14	352.35	29.02	-53.4	-55.6	14.5	0.00e+00	0	23	0	973078528	73	4542
2026-01-10 08:12:17.15	352.14	28.87	-53.3	-55.5	14.6	0.00e+00	0	23	0	975175680	73	4453
2026-01-10 08:12:18.15	351.94	28.73	-53.3	-55.5	14.6	0.00e+00	0	23	0	977272832	73	4453
2026-01-10 08:12:19.17	351.73	28.58	-53.3	-55.5	14.5	0.00e+00	0	23	0	979369984	73	4476
2026-01-10 08:12:20.17	351.53	28.44	-53.1	-55.3	14.5	0.00e+00	0	23	0	981467136	72	4629
2026-01-10 08:12:21.18	351.33	28.30	-53.2	-55.5	14.4	0.00e+00	0	23	0	982515712	72	4706
2026-01-10 08:12:22.19	351.13	28.16	-53.1	-55.3	14.5	0.00e+00	0	23	0	984612864	72	4629
2026-01-10 08:12:23.19	350.93	28.02	-53.1	-55.2	14.5	0.00e+00	0	23	0	986710016	72	4597
2026-01-10 08:12:24.20	350.73	27.87	-53.0	-55.2	14.6	0.00e+00	0	23	0	988807168	72	4559
2026-01-10 08:12:25.21	350.54	27.73	-52.9	-55.0	14.7	0.00e+00	0	23	0	990904320	72	4461
2026-01-10 08:12:26.21	350.35	27.59	-52.8	-54.9	14.7	0.00e+00	0	23	0	991952896	72	4432
2026-01-10 08:12:27.22	350.16	27.45	-53.0	-55.1	14.6	0.00e+00	0	23	0	994050048	72	4509
2026-01-10 08:12:28.22	349.97	27.31	-53.0	-55.1	14.7	0.00e+00	0	23	0	996147200	72	4508
2026-01-10 08:12:29.23	349.78	27.17	-52.9	-54.9	14.7	0.00e+00	0	23	0	998244352	72	4441
2026-01-10 08:12:30.24	349.60	27.03	-52.9	-55.0	14.7	0.00e+00	0	23	0	1000341504	72	4455
2026-01-10 08:12:31.24	349.41	26.89	-52.9	-55.0	14.7	0.00e+00	0	23	0	1001390080	72	4467
2026-01-10 08:12:32.25	349.23	26.76	-52.7	-54.8	14.8	0.00e+00	0	23	0	1003487232	72	4348
2026-01-10 08:12:33.25	349.05	26.62	-52.7	-54.8	14.7	0.00e+00	0	23	0	1005584384	71	4611
2026-01-10 08:12:34.27	348.87	26.48	-52.7	-54.8	14.6	0.00e+00	0	23	0	1007681536	71	4626
2026-01-10 08:12:35.27	348.69	26.34	-52.5	-54.6	14.8	0.00e+00	0	23	0	1009778688	71	4494
2026-01-10 08:12:36.28	348.52	26.20	-52.4	-54.4	14.9	0.00e+00	0	23	0	1010827264	71	4402
2026-01-10 08:12:37.28	348.34	26.07	-52.4	-54.4	14.9	0.00e+00	0	23	0	1012924416	71	4426
2026-01-10 08:12:38.28	348.17	25.93	-52.6	-54.6	14.8	0.00e+00	0	23	0	1015021568	71	4509
2026-01-10 08:12:39.29	348.00	25.80	-52.8	-54.8	14.6	0.00e+00	0	23	0	1017118720	71	4650
2026-01-10 08:12:40.30	347.83	25.66	-52.9	-55.0	14.5	0.00e+00	0	23	0	1019215872	71	4723
2026-01-10 08:12:41.30	347.66	25.53	-52.8	-54.9	14.5	0.00e+00	0	24	0	1020264448	71	4699
2026-01-10 08:12:42.31	347.50	25.39	-52.9	-55.1	14.5	0.00e+00	0	23	0	1022361600	71	4763
2026-01-10 08:12:43.31	347.33	25.26	-52.8	-54.9	14.5	0.00e+00	0	23	0	1024458752	71	4700
2026-01-10 08:12:44.32	347.17	25.13	-52.8	-54.9	14.6	0.00e+00	0	24	0	1026555904	71	4680
2026-01-10 08:12:45.32	347.00	24.99	-52.6	-54.6	14.8	0.00e+00	0	23	0	1028653056	71	4509
2026-01-10 08:12:46.33	346.84	24.86	-52.4	-54.4	14.9	0.00e+00	0	23	0	1029701632	71	4394
2026-01-10 08:12:47.34	346.68	24.73	-52.2	-54.1	15.0	0.00e+00	0	23	0	1031798784	71	4260
2026-01-10 08:12:48.34	346.53	24.60	-52.3	-54.3	14.9	0.00e+00	0	23	0	1033895936	71	4357
2026-01-10 08:12:49.35	346.37	24.46	-52.3	-54.2	15.0	0.00e+00	0	23	0	1035993088	71	4327
2026-01-10 08:12:50.35	346.21	24.33	-52.2	-54.1	15.1	0.00e+00	0	23	0	1038090240	71	4253
2026-01-10 08:12:51.36	346.06	24.20	-52.3	-54.2	15.0	0.00e+00	0	23	0	1039138816	71	4324
2026-01-10 08:12:52.37	345.90	24.07	-52.3	-54.2	15.0	0.00e+00	0	23	0	1041235968	71	4295
2026-01-10 08:12:53.37	345.75	23.94	-52.4	-54.3	14.9	0.00e+00	0	23	0	1043333120	71	4370
2026-01-10 08:12:54.38	345.60	23.81	-52.3	-54.3	15.0	0.00e+00	0	23	0	1045430272	71	4347
2026-01-10 08:12:55.39	345.45	23.68	-52.4	-54.4	14.9	0.00e+00	0	23	0	1047527424	71	4425
2026-01-10 08:12:56.39	345.31	23.56	-52.6	-54.6	14.7	0.00e+00	0	23	0	1048576000	71	4534
2026-01-10 08:12:57.39	345.16	23.43	-52.5	-54.6	14.8	0.00e+00	0	23	0	1050673152	71	4506
2026-01-10 08:12:58.40	345.01	23.30	-52.6	-54.6	14.7	0.00e+00	0	23	0	1052770304	71	4518
2026-01-10 08:12:59.40	344.87	23.17	-52.6	-54.7	14.7	0.00e+00	0	23	0	1054867456	71	4565
2026-01-10 08:13:00.41	344.73	23.05	-52.5	-54.5	14.8	0.00e+00	0	24	0	1056964608	71	4464
2026-01-10 08:13:01.42	344.58	22.92	-52.6	-54.7	14.7	0.00e+00	0	23	0	1058013184	71	4579
2026-01-10 08:13:02.42	344.44	22.79	-52.5	-54.6	14.8	0.00e+00	0	23	0	1060110336	71	4504
2026-01-10 08:13:03.43	344.30	22.67	-52.6	-54.7	14.7	0.00e+00	0	23	0	1062207488	71	4554
2026-01-10 08:13:04.43	344.17	22.54	-52.7	-54.8	14.6	0.00e+00	0	23	0	1064304640	71	4605
2026-01-10 08:13:05.43	344.03	22.42	-52.6	-54.7	14.7	0.00e+00	0	23	0	1066401792	71	4550
2026-01-10 08:13:06.44	343.89	22.29	-52.6	-54.7	14.7	0.00e+00	0	23	0	1067450368	71	4546
2026-01-10 08:13:07.45	343.76	22.17	-52.5	-54.6	14.8	0.00e+00	0	23	0	1069547520	71	4501
2026-01-10 08:13:08.45	343.62	22.05	-52.4	-54.3	14.9	0.00e+00	0	24	0	1071644672	71	4377
2026-01-10 08:13:09.46	343.49	21.92	-52.3	-54.3	14.9	0.00e+00	0	23	0	1073741824	71	4341
2026-01-10 08:13:10.46	343.36	21.80	-52.3	-54.3	14.9	0.00e+00	0	23	0	1075838976	71	4352
2026-01-10 08:13:11.46	343.23	21.68	-52.2	-54.1	15.0	0.00e+00	0	23	0	1076887552	71	4257
2026-01-10 08:13:12.46	343.10	21.56	-52.2	-54.1	14.9	0.00e+00	0	23	0	1078984704	70	4511
2026-01-10 08:13:13.47	342.97	21.44	-52.2	-54.1	14.8	0.00e+00	0	24	0	1081081856	70	4515
2026-01-10 08:13:14.47	342.84	21.32	-52.2	-54.2	14.8	0.00e+00	0	23	0	1083179008	70	4564
2026-01-10 08:13:15.48	342.72	21.20	-52.2	-54.2	14.8	0.00e+00	0	23	0	1084227584	70	4546
2026-01-10 08:13:16.49	342.59	21.08	-52.2	-54.2	14.8	0.00e+00	0	24	0	1086324736	70	4554
2026-01-10 08:13:17.50	342.47	20.96	-52.2	-54.2	14.8	0.00e+00	0	23	0	1088421888	70	4566
2026-01-10 08:13:18.51	342.34	20.84	-52.2	-54.2	14.8	0.00e+00	0	23	0	1090519040	70	4558
2026-01-10 08:13:19.52	342.22	20.72	-52.2	-54.2	14.8	0.00e+00	0	23	0	1092616192	70	4565
2026-01-10 08:13:20.53	342.10	20.60	-52.3	-54.2	14.8	0.00e+00	0	23	0	1094713344	70	4579
2026-01-10 08:13:21.53	341.98	20.48	-52.3	-54.3	14.7	0.00e+00	0	23	0	1095761920	70	4629
2026-01-10 08:13:22.54	341.86	20.36	-52.3	-54.2	14.7	0.00e+00	0	24	0	1097859072	70	4596
2026-01-10 08:13:23.54	341.74	20.25	-52.3	-54.2	14.7	0.00e+00	0	23	0	1099956224	70	4592
2026-01-10 08:13:24.54	341.62	20.13	-52.3	-54.3	14.7	0.00e+00	0	23	0	1102053376	70	4607
2026-01-10 08:13:25.55	341.50	20.01	-52.3	-54.3	14.7	0.00e+00	0	24	0	1104150528	70	4622
2026-01-10 08:13:26.56	341.39	19.90	-52.3	-54.4	14.7	0.00e+00	0	23	0	1105199104	70	4652
2026-01-10 08:13:27.57	341.27	19.78	-52.2	-54.2	14.8	0.00e+00	0	23	0	1107296256	70	4577
2026-01-10 08:13:28.58	341.16	19.67	-52.3	-54.2	14.7	0.00e+00	0	23	0	1109393408	70	4594
2026-01-10 08:13:29.59	341.04	19.55	-52.2	-54.2	14.7	0.00e+00	0	23	0	1111490560	70	4571
2026-01-10 08:13:30.60	340.93	19.44	-52.3	-54.3	14.7	0.00e+00	0	24	0	1112539136	70	4599
2026-01-10 08:13:31.61	340.82	19.32	-52.3	-54.3	14.7	0.00e+00	0	24	0	1114636288	70	4645
2026-01-10 08:13:32.61	340.71	19.21	-52.3	-54.3	14.7	0.00e+00	0	23	0	1116733440	70	4632
2026-01-10 08:13:33.62	340.60	19.10	-52.3	-54.3	14.6	0.00e+00	0	23	0	1118830592	70	4647
2026-01-10 08:13:34.63	340.49	18.98	-52.4	-54.5	14.6	0.00e+00	0	24	0	1120927744	70	4722
2026-01-10 08:13:35.64	340.38	18.87	-52.5	-54.6	14.5	0.00e+00	0	23	0	1123024896	70	4784
2026-01-10 08:13:36.65	340.27	18.76	-52.5	-54.5	14.6	0.00e+00	0	23	0	1124073472	70	4738
2026-01-10 08:13:37.65	340.16	18.65	-52.6	-54.7	14.5	0.00e+00	0	24	0	1126170624	70	4836
2026-01-10 08:13:38.65	340.06	18.54	-52.6	-54.7	14.5	0.00e+00	0	23	0	1128267776	70	4824
2026-01-10 08:13:39.66	339.95	18.43	-52.7	-54.8	14.4	0.00e+00	0	23	0	1130364928	70	4896
2026-01-10 08:13:40.67	339.85	18.31	-52.6	-54.8	14.4	0.00e+00	0	23	0	1132462080	70	4885
2026-01-10 08:13:41.67	339.75	18.21	-52.5	-54.6	14.5	0.00e+00	0	24	0	1133510656	70	4811
2026-01-10 08:13:42.68	339.64	18.10	-52.5	-54.6	14.5	0.00e+00	0	23	0	1135607808	70	4773
2026-01-10 08:13:43.69	339.54	17.99	-52.5	-54.6	14.5	0.00e+00	0	24	0	1137704960	70	4767
2026-01-10 08:13:44.69	339.44	17.88	-52.4	-54.5	14.6	0.00e+00	0	24	0	1139802112	70	4719
2026-01-10 08:13:45.70	339.34	17.77	-52.3	-54.3	14.7	0.00e+00	0	24	0	1140850688	70	4644
2026-01-10 08:13:46.71	339.24	17.66	-52.4	-54.5	14.6	0.00e+00	0	24	0	1142947840	70	4720
2026-01-10 08:13:47.71	339.14	17.55	-52.4	-54.5	14.6	0.00e+00	0	23	0	1145044992	70	4721
2026-01-10 08:13:48.71	339.04	17.45	-52.4	-54.5	14.6	0.00e+00	0	23	0	1147142144	70	4714
2026-01-10 08:13:49.72	338.94	17.34	-52.5	-54.5	14.6	0.00e+00	0	24	0	1149239296	70	4755
2026-01-10 08:13:50.73	338.85	17.23	-52.6	-54.7	14.5	0.00e+00	0	24	0	1151336448	70	4838
2026-01-10 08:13:51.74	338.75	17.13	-52.6	-54.7	14.5	0.00e+00	0	24	0	1152385024	70	4833
2026-01-10 08:13:52.75	338.66	17.02	-52.6	-54.8	14.4	0.00e+00	0	24	0	1154482176	70	4876
2026-01-10 08:13:53.75	338.56	16.92	-52.7	-54.9	14.3	0.00e+00	0	23	0	1156579328	70	4945
2026-01-10 08:13:54.75	338.47	16.81	-52.7	-54.8	14.4	0.00e+00	0	23	0	1158676480	70	4904
2026-01-10 08:13:55.76	338.37	16.71	-52.7	-54.8	14.4	0.00e+00	0	23	0	1160773632	70	4921
2026-01-10 08:13:56.77	338.28	16.60	-52.8	-55.0	14.3	0.00e+00	0	23	0	1161822208	70	4998
2026-01-10 08:13:57.78	338.19	16.50	-52.7	-54.8	14.4	0.00e+00	0	24	0	1163919360	70	4920
2026-01-10 08:13:58.78	338.10	16.40	-52.8	-55.0	14.3	0.00e+00	0	24	0	1166016512	70	4996
2026-01-10 08:13:59.77	338.01	16.29	-52.8	-55.0	14.2	0.00e+00	0	23	0	1168113664	70	5021
2026-01-10 08:14:00.78	337.92	16.19	-52.8	-55.1	14.2	0.00e+00	0	23	0	1169162240	70	5071
2026-01-10 08:14:01.79	337.83	16.09	-52.9	-55.2	14.2	0.00e+00	0	23	0	1171259392	70	5114
2026-01-10 08:14:02.79	337.74	15.99	-52.9	-55.1	14.2	0.00e+00	0	23	0	1173356544	70	5075
2026-01-10 08:14:03.79	337.65	15.89	-52.9	-55.1	14.2	0.00e+00	0	23	0	1175453696	70	5079
2026-01-10 08:14:04.80	337.56	15.78	-52.8	-55.1	14.2	0.00e+00	0	23	0	1177550848	70	5070
2026-01-10 08:14:05.81	337.48	15.68	-52.8	-55.1	14.2	0.00e+00	0	23	0	1179648000	70	5078
2026-01-10 08:14:06.82	337.39	15.58	-52.8	-55.0	14.2	0.00e+00	0	23	0	1180696576	70	5029
2026-01-10 08:14:07.82	337.30	15.48	-52.8	-55.0	14.3	0.00e+00	0	23	0	1182793728	70	5016
2026-01-10 08:14:08.83	337.22	15.38	-52.8	-55.1	14.2	0.00e+00	0	23	0	1184890880	70	5045
2026-01-10 08:14:09.83	337.14	15.28	-52.8	-55.0	14.3	0.00e+00	0	24	0	1186988032	70	5008
2026-01-10 08:14:10.84	337.05	15.18	-52.8	-55.1	14.2	0.00e+00	0	24	0	1188036608	70	5044
2026-01-10 08:14:11.85	336.97	15.08	-52.8	-55.1	14.2	0.00e+00	0	23	0	1190133760	70	5047
2026-01-10 08:14:12.86	336.88	14.98	-52.9	-55.1	14.2	0.00e+00	0	23	0	1192230912	70	5076
2026-01-10 08:14:13.86	336.80	14.89	-52.8	-55.1	14.2	0.00e+00	0	23	0	1194328064	70	5059
2026-01-10 08:14:14.87	336.72	14.79	-52.9	-55.2	14.2	0.00e+00	0	23	0	1196425216	70	5118
2026-01-10 08:14:15.88	336.64	14.69	-52.9	-55.2	14.3	0.00e+00	0	23	0	1197473792	71	4848
2026-01-10 08:14:16.88	336.56	14.59	-52.9	-55.2	14.2	0.00e+00	0	23	0	1199570944	71	4858
2026-01-10 08:14:17.89	336.48	14.50	-53.1	-55.4	14.2	0.00e+00	0	23	0	1201668096	71	4950
2026-01-10 08:14:18.89	336.40	14.40	-52.9	-55.2	14.3	0.00e+00	0	23	0	1203765248	71	4851
2026-01-10 08:14:19.90	336.32	14.30	-52.9	-55.2	14.3	0.00e+00	0	23	0	1205862400	71	4826
2026-01-10 08:14:20.91	336.24	14.21	-52.9	-55.2	14.3	0.00e+00	0	23	0	1207959552	71	4835
2026-01-10 08:14:21.91	336.16	14.11	-52.9	-55.2	14.2	0.00e+00	0	23	0	1209008128	71	4865
2026-01-10 08:14:22.91	336.09	14.02	-52.9	-55.1	14.3	6.80e-06	0	23	0	1211105280	71	4804
2026-01-10 08:14:23.92	336.01	13.92	-52.9	-55.2	14.3	0.00e+00	0	23	0	1213202432	71	4823
2026-01-10 08:14:24.93	335.93	13.83	-52.9	-55.2	14.3	0.00e+00	0	23	0	1215299584	71	4821
2026-01-10 08:14:25.93	335.86	13.73	-52.8	-55.0	14.4	0.00e+00	0	23	0	1216348160	71	4728
2026-01-10 08:14:26.94	335.78	13.64	-52.9	-55.1	14.3	0.00e+00	0	24	0	1218445312	71	4809
2026-01-10 08:14:27.95	335.71	13.54	-52.9	-55.1	14.3	0.00e+00	0	23	0	1220542464	71	4813
2026-01-10 08:14:28.95	335.63	13.45	-52.7	-55.0	14.4	0.00e+00	0	23	0	1222639616	71	4710
2026-01-10 08:14:29.95	335.56	13.36	-52.8	-55.1	14.3	0.00e+00	0	23	0	1224736768	71	4784
2026-01-10 08:14:30.96	335.49	13.27	-52.9	-55.1	14.3	0.00e+00	0	23	0	1225785344	71	4813
2026-01-10 08:14:31.97	335.41	13.17	-53.0	-55.3	14.2	0.00e+00	0	23	0	1227882496	71	4893
2026-01-10 08:14:32.97	335.34	13.08	-53.0	-55.3	14.2	5.30e-06	0	24	0	1229979648	71	4913
2026-01-10 08:14:33.97	335.27	12.99	-53.0	-55.4	14.1	0.00e+00	0	23	0	1232076800	71	4949
2026-01-10 08:14:34.98	335.20	12.90	-53.1	-55.6	14.1	0.00e+00	0	24	0	1234173952	71	5043
2026-01-10 08:14:35.99	335.13	12.81	-53.1	-55.6	14.0	0.00e+00	0	24	0	1235222528	71	5066
2026-01-10 08:14:36.99	335.06	12.72	-53.2	-55.7	13.9	0.00e+00	0	24	0	1237319680	71	5156
2026-01-10 08:14:38.00	334.99	12.62	-53.3	-55.7	13.9	0.00e+00	0	23	0	1239416832	71	5152
2026-01-10 08:14:39.00	334.92	12.53	-53.4	-55.9	13.8	0.00e+00	0	23	0	1241513984	71	5255
