passes_logs/2026/01/10/R3.2S_Murmansk/R3.2S_Murmansk__20260110_060353_SUOMI_NPP_rec.log

#Pass ID: 20260110_060353_SUOMI NPP
#Satellite: SUOMI NPP
#Configuration: NPP
#almurnet v.1.7.20251203
#Start time: 2026-01-10 06:03:55

#Version: 2.2.20231116
#Station: R3.2S_Murmansk
#Location: 33.079688 lon 68.888172 lat
#TLE: 1 37849U 11061A   26008.83076692  .00000095  00000+0  66074-4 0  9997
#TLE: 2 37849  98.7806 310.9327 0002533  74.3004 285.8451 14.19523607735834

#Time	Az	El	Level	Level2	SNR	BER	BlckErr	Temp	State	Recorded	gain1	gain2
2026-01-10 06:03:55.77	75.60	2.11	-57.0	-73.0	3.8	1.49e+00	0	21	0	0	80	22381
2026-01-10 06:03:56.77	75.54	2.17	-57.0	-73.0	3.8	1.49e+00	0	21	104	0	79	23680
2026-01-10 06:03:57.77	75.48	2.22	-57.0	-72.9	3.8	1.49e+00	0	21	104	0	79	23571
2026-01-10 06:03:58.77	75.42	2.28	-57.0	-72.9	3.8	1.49e+00	0	21	104	0	79	23551
2026-01-10 06:03:59.77	75.36	2.34	-57.0	-73.0	3.8	1.49e+00	0	21	104	0	79	23583
2026-01-10 06:04:00.74	75.30	2.39	-57.0	-72.9	3.8	1.49e+00	0	21	104	0	79	23575
2026-01-10 06:04:01.75	75.23	2.45	-57.0	-73.0	3.8	1.49e+00	0	21	104	0	79	23612
2026-01-10 06:04:02.76	75.17	2.51	-57.0	-72.9	3.8	1.49e+00	0	21	104	0	79	23540
2026-01-10 06:04:03.76	75.11	2.57	-57.0	-72.9	3.8	1.49e+00	0	21	104	0	79	23494
2026-01-10 06:04:04.77	75.04	2.63	-57.0	-72.9	3.8	1.49e+00	0	21	104	0	79	23565
2026-01-10 06:04:05.77	74.98	2.69	-57.0	-73.0	3.8	1.49e+00	0	21	104	0	79	23604
2026-01-10 06:04:06.77	74.91	2.75	-57.0	-73.0	3.8	1.49e+00	0	22	104	0	79	23672
2026-01-10 06:04:07.78	74.85	2.80	-57.0	-73.0	3.8	1.49e+00	0	21	104	0	79	23659
2026-01-10 06:04:08.78	74.78	2.86	-57.0	-73.0	3.8	1.49e+00	0	22	104	0	79	23619
2026-01-10 06:04:09.77	74.72	2.92	-57.0	-73.0	3.8	1.49e+00	0	22	104	0	79	23639
2026-01-10 06:04:10.77	74.65	2.98	-57.0	-73.0	3.8	1.49e+00	0	22	104	0	79	23717
2026-01-10 06:04:11.77	74.59	3.04	-57.0	-73.0	3.8	1.49e+00	0	22	104	0	79	23741
2026-01-10 06:04:12.77	74.52	3.10	-57.0	-73.0	3.8	1.49e+00	0	22	104	0	79	23674
2026-01-10 06:04:13.78	74.46	3.16	-57.0	-73.0	3.8	1.49e+00	0	22	104	0	79	23639
2026-01-10 06:04:14.78	74.39	3.22	-57.0	-73.0	3.8	1.49e+00	0	22	104	0	79	23632
2026-01-10 06:04:15.78	74.32	3.28	-57.0	-73.0	3.8	1.49e+00	0	22	104	0	79	23611
2026-01-10 06:04:16.78	74.26	3.33	-57.0	-73.0	3.8	1.49e+00	0	22	104	0	79	23704
2026-01-10 06:04:17.78	74.19	3.39	-57.0	-73.0	3.8	1.49e+00	0	22	104	0	79	23667
2026-01-10 06:04:18.77	74.12	3.45	-57.0	-73.0	3.8	1.49e+00	0	22	104	0	79	23736
2026-01-10 06:04:19.78	74.05	3.51	-57.0	-73.0	3.8	1.49e+00	0	22	104	0	79	23772
2026-01-10 06:04:20.78	73.99	3.57	-57.0	-73.0	3.8	1.49e+00	0	22	104	0	79	23778
2026-01-10 06:04:21.79	73.92	3.63	-57.0	-73.0	3.8	1.49e+00	0	22	104	0	79	23758
2026-01-10 06:04:22.79	73.85	3.69	-57.0	-73.0	3.8	1.49e+00	0	22	104	0	79	23654
2026-01-10 06:04:23.79	73.78	3.75	-57.0	-72.9	3.8	1.49e+00	0	22	104	0	79	23503
2026-01-10 06:04:24.80	73.71	3.81	-57.0	-72.9	3.8	1.49e+00	0	22	104	0	79	23554
2026-01-10 06:04:25.81	73.64	3.87	-57.0	-72.9	3.8	1.49e+00	0	22	104	0	79	23574
2026-01-10 06:04:26.81	73.57	3.93	-57.0	-73.0	3.8	1.49e+00	0	22	104	0	79	23693
2026-01-10 06:04:27.81	73.50	3.99	-57.0	-73.0	3.8	1.49e+00	0	22	104	0	79	23726
2026-01-10 06:04:28.82	73.43	4.06	-57.0	-73.0	3.8	1.49e+00	0	22	104	0	79	23673
2026-01-10 06:04:29.82	73.36	4.12	-57.0	-72.9	3.8	1.49e+00	0	22	104	0	79	23380
2026-01-10 06:04:30.82	73.29	4.18	-57.0	-72.6	3.8	1.49e+00	0	22	104	0	79	22651
2026-01-10 06:04:31.83	73.21	4.24	-57.0	-72.2	3.8	1.49e+00	0	22	104	0	79	21727
2026-01-10 06:04:32.83	73.14	4.30	-57.0	-71.6	3.8	1.49e+00	0	22	104	0	79	20289
2026-01-10 06:04:33.83	73.07	4.36	-56.9	-71.0	3.8	1.49e+00	0	22	104	0	79	18764
2026-01-10 06:04:34.83	73.00	4.42	-56.9	-70.2	4.0	1.48e+00	0	22	104	0	79	17247
2026-01-10 06:04:35.84	72.92	4.48	-56.9	-69.3	4.2	1.41e+00	0	22	0	0	79	15426
2026-01-10 06:04:36.85	72.85	4.54	-56.8	-68.8	4.4	1.33e+00	69	22	0	0	79	14573
2026-01-10 06:04:37.85	72.78	4.60	-56.7	-68.0	4.7	9.56e-01	0	22	0	2097152	79	13306
2026-01-10 06:04:38.85	72.70	4.67	-56.6	-66.8	5.3	6.22e-01	0	22	0	4194304	79	11636
2026-01-10 06:04:39.85	72.63	4.73	-56.5	-66.3	5.6	4.47e-01	0	22	0	6291456	79	10912
2026-01-10 06:04:40.86	72.55	4.79	-56.4	-65.4	6.2	3.50e-01	0	22	0	7340032	79	9882
2026-01-10 06:04:41.86	72.48	4.85	-56.3	-64.8	6.6	1.90e-01	0	22	0	9437184	79	9216
2026-01-10 06:04:42.87	72.40	4.91	-56.3	-64.6	6.8	1.27e-01	0	22	0	11534336	79	8983
2026-01-10 06:04:43.87	72.33	4.98	-56.2	-64.3	7.1	1.31e-01	0	22	0	13631488	79	8662
2026-01-10 06:04:44.88	72.25	5.04	-56.3	-64.8	6.6	1.52e-01	0	22	0	15728640	79	9256
2026-01-10 06:04:45.88	72.18	5.10	-56.4	-65.2	6.4	1.87e-01	0	22	0	16777216	79	9611
2026-01-10 06:04:46.88	72.10	5.16	-54.5	-58.9	11.6	5.97e-02	0	22	0	18874368	75	5918
2026-01-10 06:04:47.88	72.02	5.22	-56.9	-70.4	4.0	5.75e-03	0	22	0	20971520	78	18693
2026-01-10 06:04:48.88	71.95	5.29	-56.3	-63.8	7.7	1.99e-01	0	22	0	20971520	78	8670
2026-01-10 06:04:49.88	71.87	5.35	-55.0	-60.2	10.6	1.11e-03	0	22	0	23068672	75	6827
2026-01-10 06:04:50.88	71.79	5.41	-54.3	-58.5	12.0	9.91e-04	0	22	0	25165824	75	5634
2026-01-10 06:04:51.89	71.71	5.47	-54.1	-58.1	12.2	1.06e-05	0	22	0	27262976	74	5669
2026-01-10 06:04:52.90	71.63	5.54	-53.8	-57.5	12.7	2.20e-06	0	22	0	28311552	74	5310
2026-01-10 06:04:53.90	71.56	5.60	-53.4	-56.9	13.0	7.00e-07	0	22	0	30408704	73	5259
2026-01-10 06:04:54.90	71.48	5.66	-53.3	-56.7	13.2	0.00e+00	0	22	0	32505856	73	5108
2026-01-10 06:04:55.90	71.40	5.73	-53.3	-56.7	13.3	0.00e+00	0	22	0	34603008	73	5119
2026-01-10 06:04:56.90	71.32	5.79	-53.3	-56.7	13.2	0.00e+00	0	23	0	36700160	73	5118
2026-01-10 06:04:57.91	71.24	5.85	-53.5	-56.9	13.1	0.00e+00	0	22	0	37748736	73	5268
2026-01-10 06:04:58.91	71.16	5.92	-53.5	-57.0	13.0	0.00e+00	0	22	0	39845888	73	5315
2026-01-10 06:04:59.92	71.07	5.98	-53.4	-56.8	13.1	7.00e-07	0	23	0	41943040	73	5212
2026-01-10 06:05:00.92	70.99	6.04	-53.2	-56.5	13.4	0.00e+00	0	23	0	44040192	73	4995
2026-01-10 06:05:01.92	70.91	6.11	-53.3	-56.6	13.2	0.00e+00	0	22	0	46137344	72	5362
2026-01-10 06:05:02.93	70.83	6.17	-53.1	-56.2	13.4	0.00e+00	0	22	0	47185920	72	5150
2026-01-10 06:05:03.93	70.75	6.24	-53.0	-56.1	13.5	0.00e+00	0	22	0	49283072	72	5083
2026-01-10 06:05:04.92	70.67	6.30	-53.1	-56.2	13.5	0.00e+00	0	22	0	51380224	72	5130
2026-01-10 06:05:05.92	70.58	6.36	-53.0	-56.1	13.5	0.00e+00	0	22	0	53477376	72	5097
2026-01-10 06:05:06.91	70.50	6.43	-53.1	-56.3	13.4	0.00e+00	0	22	0	54525952	72	5170
2026-01-10 06:05:07.91	70.42	6.49	-53.0	-56.1	13.5	0.00e+00	0	23	0	56623104	72	5081
2026-01-10 06:05:08.91	70.33	6.55	-53.1	-56.3	13.4	0.00e+00	0	23	0	58720256	72	5180
2026-01-10 06:05:09.91	70.25	6.62	-53.1	-56.2	13.5	0.00e+00	0	23	0	60817408	72	5109
2026-01-10 06:05:10.91	70.16	6.68	-53.0	-56.1	13.6	0.00e+00	0	23	0	62914560	72	5072
2026-01-10 06:05:11.92	70.08	6.75	-53.2	-56.4	13.4	0.00e+00	0	23	0	63963136	72	5228
2026-01-10 06:05:12.92	69.99	6.81	-52.9	-55.9	13.7	0.00e+00	0	23	0	66060288	72	4961
2026-01-10 06:05:13.92	69.90	6.88	-53.0	-56.0	13.7	0.00e+00	0	22	0	68157440	72	5026
2026-01-10 06:05:14.91	69.82	6.94	-53.1	-56.3	13.5	0.00e+00	0	23	0	70254592	72	5167
2026-01-10 06:05:15.91	69.73	7.01	-53.1	-56.2	13.5	0.00e+00	0	22	0	72351744	72	5157
2026-01-10 06:05:16.92	69.64	7.07	-53.1	-56.2	13.5	0.00e+00	0	23	0	73400320	72	5107
2026-01-10 06:05:17.92	69.55	7.14	-53.0	-56.0	13.7	0.00e+00	0	23	0	75497472	72	5029
2026-01-10 06:05:18.92	69.47	7.20	-53.1	-56.2	13.5	0.00e+00	0	23	0	77594624	72	5122
2026-01-10 06:05:19.91	69.38	7.27	-53.2	-56.4	13.3	0.00e+00	0	23	0	79691776	72	5270
2026-01-10 06:05:20.91	69.29	7.33	-53.3	-56.6	13.3	0.00e+00	0	23	0	81788928	72	5344
2026-01-10 06:05:21.91	69.20	7.40	-53.4	-56.8	13.1	0.00e+00	0	23	0	82837504	72	5503
2026-01-10 06:05:22.91	69.11	7.46	-53.5	-56.9	13.0	7.00e-07	0	23	0	84934656	72	5586
2026-01-10 06:05:23.91	69.02	7.53	-53.4	-56.8	13.1	0.00e+00	0	23	0	87031808	72	5475
2026-01-10 06:05:24.92	68.93	7.60	-53.4	-56.8	13.1	0.00e+00	0	23	0	89128960	72	5471
2026-01-10 06:05:25.92	68.84	7.66	-53.5	-57.0	13.0	0.00e+00	0	23	0	90177536	72	5603
2026-01-10 06:05:26.92	68.75	7.73	-53.3	-56.7	13.1	0.00e+00	0	23	0	92274688	72	5461
2026-01-10 06:05:27.92	68.65	7.79	-53.4	-56.7	13.2	0.00e+00	0	23	0	94371840	72	5457
2026-01-10 06:05:28.93	68.56	7.86	-53.2	-56.5	13.3	0.00e+00	0	23	0	96468992	72	5291
2026-01-10 06:05:29.92	68.47	7.93	-53.2	-56.4	13.4	0.00e+00	0	23	0	98566144	72	5250
2026-01-10 06:05:30.91	68.38	7.99	-53.1	-56.2	13.5	0.00e+00	0	23	0	99614720	72	5136
2026-01-10 06:05:31.91	68.28	8.06	-53.0	-56.1	13.6	0.00e+00	0	23	0	101711872	72	5075
2026-01-10 06:05:32.91	68.19	8.13	-53.1	-56.4	13.4	0.00e+00	0	23	0	103809024	72	5234
2026-01-10 06:05:33.92	68.09	8.19	-53.2	-56.5	13.4	0.00e+00	0	23	0	105906176	72	5291
2026-01-10 06:05:34.92	68.00	8.26	-53.1	-56.4	13.4	0.00e+00	0	23	0	108003328	72	5251
2026-01-10 06:05:35.91	67.90	8.33	-53.1	-56.4	13.5	0.00e+00	0	23	0	109051904	72	5243
2026-01-10 06:05:36.91	67.81	8.39	-53.1	-56.3	13.6	0.00e+00	0	23	0	111149056	72	5162
2026-01-10 06:05:37.91	67.71	8.46	-53.1	-56.3	13.5	0.00e+00	0	23	0	113246208	72	5192
2026-01-10 06:05:38.91	67.61	8.53	-52.9	-56.0	13.7	0.00e+00	0	23	0	115343360	72	5028
2026-01-10 06:05:39.92	67.52	8.60	-52.8	-55.9	13.8	0.00e+00	0	23	0	116391936	72	4947
2026-01-10 06:05:40.92	67.42	8.66	-52.9	-55.9	13.8	0.00e+00	0	23	0	118489088	72	4960
2026-01-10 06:05:41.92	67.32	8.73	-52.6	-55.5	13.9	0.00e+00	0	23	0	120586240	71	5003
2026-01-10 06:05:42.93	67.22	8.80	-52.7	-55.7	13.8	0.00e+00	0	23	0	122683392	71	5111
2026-01-10 06:05:43.92	67.12	8.87	-52.8	-55.8	13.8	0.00e+00	0	23	0	124780544	71	5160
2026-01-10 06:05:44.93	67.02	8.94	-52.7	-55.7	13.8	0.00e+00	0	23	0	125829120	71	5119
2026-01-10 06:05:45.93	66.92	9.00	-52.9	-55.9	13.6	0.00e+00	0	23	0	127926272	71	5269
2026-01-10 06:05:46.92	66.82	9.07	-52.6	-55.5	13.9	0.00e+00	0	23	0	130023424	71	5004
2026-01-10 06:05:47.93	66.72	9.14	-52.5	-55.3	14.1	0.00e+00	0	23	0	132120576	71	4905
2026-01-10 06:05:48.93	66.62	9.21	-52.6	-55.5	13.9	0.00e+00	0	23	0	134217728	71	5038
2026-01-10 06:05:49.93	66.52	9.28	-52.6	-55.4	14.0	0.00e+00	0	23	0	135266304	71	4958
2026-01-10 06:05:50.92	66.41	9.34	-52.6	-55.5	14.0	0.00e+00	0	23	0	137363456	71	5014
2026-01-10 06:05:51.92	66.31	9.41	-52.6	-55.5	14.0	0.00e+00	0	23	0	139460608	71	5021
2026-01-10 06:05:52.92	66.21	9.48	-52.6	-55.4	14.0	0.00e+00	0	23	0	141557760	71	4931
2026-01-10 06:05:53.92	66.10	9.55	-52.6	-55.4	14.0	0.00e+00	0	23	0	143654912	71	4949
2026-01-10 06:05:54.93	66.00	9.62	-52.6	-55.4	14.0	0.00e+00	0	23	0	144703488	71	4945
2026-01-10 06:05:55.92	65.89	9.69	-52.6	-55.3	14.1	0.00e+00	0	23	0	146800640	71	4902
2026-01-10 06:05:56.92	65.79	9.76	-52.6	-55.3	14.1	0.00e+00	0	23	0	148897792	71	4919
2026-01-10 06:05:57.92	65.68	9.83	-52.6	-55.4	14.0	0.00e+00	0	23	0	150994944	71	4969
2026-01-10 06:05:58.92	65.57	9.89	-52.6	-55.3	14.1	0.00e+00	0	23	0	152043520	71	4905
2026-01-10 06:05:59.93	65.47	9.96	-52.7	-55.5	14.0	0.00e+00	0	23	0	154140672	71	4996
2026-01-10 06:06:00.92	65.36	10.03	-52.6	-55.4	14.0	0.00e+00	0	23	0	156237824	71	4980
2026-01-10 06:06:01.92	65.25	10.10	-52.7	-55.5	13.9	0.00e+00	0	23	0	158334976	71	5033
2026-01-10 06:06:02.92	65.14	10.17	-52.7	-55.5	13.9	0.00e+00	0	23	0	160432128	71	5015
2026-01-10 06:06:03.92	65.03	10.24	-52.7	-55.5	14.0	0.00e+00	0	23	0	161480704	71	5024
2026-01-10 06:06:04.92	64.92	10.31	-52.8	-55.7	13.8	0.00e+00	0	23	0	163577856	71	5142
2026-01-10 06:06:05.91	64.81	10.38	-52.7	-55.5	14.0	0.00e+00	0	23	0	165675008	71	5019
2026-01-10 06:06:06.91	64.70	10.45	-52.7	-55.5	14.0	0.00e+00	0	23	0	167772160	71	5014
2026-01-10 06:06:07.91	64.59	10.52	-52.8	-55.7	13.9	0.00e+00	0	23	0	169869312	71	5129
2026-01-10 06:06:08.91	64.48	10.59	-52.8	-55.6	13.9	0.00e+00	0	23	0	170917888	71	5061
2026-01-10 06:06:09.92	64.37	10.66	-52.8	-55.6	13.9	0.00e+00	0	23	0	173015040	71	5095
2026-01-10 06:06:10.91	64.25	10.73	-52.8	-55.7	13.9	0.00e+00	0	23	0	175112192	71	5101
2026-01-10 06:06:11.92	64.14	10.80	-52.8	-55.7	13.9	0.00e+00	0	23	0	177209344	71	5102
2026-01-10 06:06:12.91	64.03	10.87	-52.9	-55.9	13.7	0.00e+00	0	23	0	178257920	71	5234
2026-01-10 06:06:13.91	63.91	10.94	-52.9	-55.7	13.8	0.00e+00	0	23	0	180355072	71	5157
2026-01-10 06:06:14.91	63.80	11.01	-52.9	-55.7	13.8	0.00e+00	0	23	0	182452224	71	5152
2026-01-10 06:06:15.91	63.68	11.09	-52.8	-55.6	13.9	0.00e+00	0	23	0	184549376	71	5071
2026-01-10 06:06:16.90	63.56	11.16	-52.8	-55.6	13.9	0.00e+00	0	23	0	186646528	71	5065
2026-01-10 06:06:17.91	63.45	11.23	-52.7	-55.5	14.0	0.00e+00	0	23	0	187695104	71	5017
2026-01-10 06:06:18.90	63.33	11.30	-52.7	-55.5	14.0	0.00e+00	0	23	0	189792256	71	5028
2026-01-10 06:06:19.90	63.21	11.37	-52.8	-55.7	13.8	0.00e+00	0	23	0	191889408	71	5116
2026-01-10 06:06:20.89	63.09	11.44	-52.8	-55.6	13.9	0.00e+00	0	23	0	193986560	71	5091
2026-01-10 06:06:21.89	62.97	11.51	-52.7	-55.5	14.0	0.00e+00	0	23	0	195035136	71	5027
2026-01-10 06:06:22.89	62.85	11.58	-52.7	-55.5	14.0	0.00e+00	0	23	0	197132288	71	5001
2026-01-10 06:06:23.90	62.73	11.65	-52.7	-55.5	14.0	0.00e+00	0	23	0	199229440	71	4995
2026-01-10 06:06:24.90	62.61	11.73	-52.6	-55.4	14.1	0.00e+00	0	23	0	201326592	71	4945
2026-01-10 06:06:25.90	62.49	11.80	-52.6	-55.3	14.1	0.00e+00	0	23	0	203423744	71	4887
2026-01-10 06:06:26.90	62.37	11.87	-52.5	-55.2	14.2	0.00e+00	0	23	0	204472320	71	4841
2026-01-10 06:06:27.90	62.24	11.94	-52.5	-55.1	14.3	0.00e+00	0	23	0	206569472	71	4778
2026-01-10 06:06:28.91	62.12	12.01	-52.4	-55.0	14.3	0.00e+00	0	23	0	208666624	71	4726
2026-01-10 06:06:29.91	61.99	12.09	-52.4	-55.0	14.3	0.00e+00	0	23	0	210763776	71	4739
2026-01-10 06:06:30.91	61.87	12.16	-52.3	-54.9	14.4	0.00e+00	0	23	0	212860928	71	4652
2026-01-10 06:06:31.92	61.74	12.23	-52.2	-54.7	14.4	0.00e+00	0	23	0	213909504	70	4831
2026-01-10 06:06:32.92	61.62	12.30	-52.2	-54.7	14.3	0.00e+00	0	23	0	216006656	70	4842
2026-01-10 06:06:33.92	61.49	12.37	-52.1	-54.5	14.5	0.00e+00	0	23	0	218103808	70	4752
2026-01-10 06:06:34.92	61.36	12.45	-52.0	-54.4	14.5	0.00e+00	0	23	0	220200960	70	4687
2026-01-10 06:06:35.91	61.23	12.52	-52.0	-54.4	14.5	0.00e+00	0	23	0	222298112	70	4699
2026-01-10 06:06:36.92	61.10	12.59	-52.0	-54.4	14.6	0.00e+00	0	23	0	223346688	70	4685
2026-01-10 06:06:37.91	60.98	12.66	-52.0	-54.4	14.6	0.00e+00	0	23	0	225443840	70	4658
2026-01-10 06:06:38.91	60.85	12.74	-52.1	-54.6	14.4	0.00e+00	0	23	0	227540992	70	4777
2026-01-10 06:06:39.92	60.71	12.81	-51.9	-54.3	14.6	0.00e+00	0	23	0	229638144	70	4640
2026-01-10 06:06:40.91	60.58	12.88	-52.1	-54.5	14.5	0.00e+00	0	23	0	231735296	70	4748
2026-01-10 06:06:41.92	60.45	12.95	-52.2	-54.7	14.4	0.00e+00	0	23	0	232783872	70	4818
2026-01-10 06:06:42.93	60.32	13.03	-52.1	-54.5	14.5	0.00e+00	0	23	0	234881024	70	4736
2026-01-10 06:06:43.92	60.18	13.10	-52.0	-54.4	14.6	0.00e+00	0	23	0	236978176	70	4665
2026-01-10 06:06:44.92	60.05	13.17	-51.9	-54.2	14.7	0.00e+00	0	23	0	239075328	70	4575
2026-01-10 06:06:45.91	59.92	13.25	-51.8	-54.1	14.8	0.00e+00	0	23	0	241172480	70	4502
2026-01-10 06:06:46.92	59.78	13.32	-51.9	-54.3	14.7	0.00e+00	0	23	0	242221056	70	4602
2026-01-10 06:06:47.91	59.65	13.39	-51.8	-54.2	14.7	0.00e+00	0	23	0	244318208	70	4571
2026-01-10 06:06:48.91	59.51	13.47	-51.8	-54.2	14.7	0.00e+00	0	23	0	246415360	70	4558
2026-01-10 06:06:49.91	59.37	13.54	-51.8	-54.1	14.7	0.00e+00	0	23	0	248512512	70	4539
2026-01-10 06:06:50.91	59.23	13.61	-51.8	-54.1	14.8	0.00e+00	0	23	0	249561088	70	4504
2026-01-10 06:06:51.91	59.09	13.69	-51.8	-54.1	14.8	0.00e+00	0	23	0	251658240	70	4503
2026-01-10 06:06:52.91	58.95	13.76	-51.7	-54.0	14.7	0.00e+00	0	23	0	253755392	69	4745
2026-01-10 06:06:53.91	58.81	13.83	-51.7	-54.1	14.6	0.00e+00	0	23	0	255852544	69	4764
2026-01-10 06:06:54.91	58.67	13.91	-51.8	-54.2	14.5	0.00e+00	0	23	0	257949696	69	4815
2026-01-10 06:06:55.91	58.53	13.98	-51.7	-54.0	14.6	0.00e+00	0	23	0	258998272	69	4741
2026-01-10 06:06:56.92	58.39	14.05	-51.7	-54.1	14.6	0.00e+00	0	23	0	261095424	69	4764
2026-01-10 06:06:57.91	58.25	14.13	-51.7	-54.1	14.5	0.00e+00	0	23	0	263192576	69	4796
2026-01-10 06:06:58.91	58.10	14.20	-51.6	-54.0	14.6	0.00e+00	0	23	0	265289728	69	4748
2026-01-10 06:06:59.90	57.96	14.27	-51.7	-54.1	14.6	0.00e+00	0	23	0	266338304	69	4777
2026-01-10 06:07:00.90	57.81	14.35	-51.5	-53.8	14.8	0.00e+00	0	23	0	268435456	69	4635
2026-01-10 06:07:01.90	57.67	14.42	-51.6	-54.0	14.7	0.00e+00	0	23	0	270532608	69	4707
2026-01-10 06:07:02.90	57.52	14.49	-51.6	-54.0	14.6	0.00e+00	0	23	0	272629760	69	4755
2026-01-10 06:07:03.90	57.37	14.57	-51.6	-54.0	14.6	0.00e+00	0	23	0	274726912	69	4757
2026-01-10 06:07:04.90	57.22	14.64	-51.8	-54.3	14.5	0.00e+00	0	23	0	275775488	69	4890
2026-01-10 06:07:05.90	57.07	14.72	-51.9	-54.6	14.3	0.00e+00	0	23	0	277872640	69	5046
2026-01-10 06:07:06.89	56.93	14.79	-51.8	-54.4	14.4	0.00e+00	0	23	0	279969792	69	4955
2026-01-10 06:07:07.89	56.78	14.86	-51.9	-54.6	14.3	0.00e+00	0	23	0	282066944	69	5043
2026-01-10 06:07:08.89	56.62	14.94	-52.0	-54.7	14.3	0.00e+00	0	23	0	284164096	69	5142
2026-01-10 06:07:09.88	56.47	15.01	-52.2	-54.9	14.1	0.00e+00	0	23	0	285212672	69	5265
2026-01-10 06:07:10.88	56.32	15.09	-52.2	-55.0	14.0	0.00e+00	0	23	0	287309824	69	5335
2026-01-10 06:07:11.88	56.17	15.16	-52.4	-55.3	14.0	0.00e+00	0	23	0	289406976	70	5192
2026-01-10 06:07:12.88	56.01	15.23	-52.4	-55.2	14.1	0.00e+00	0	23	0	291504128	70	5117
2026-01-10 06:07:13.88	55.86	15.31	-52.3	-55.0	14.2	0.00e+00	0	23	0	292552704	70	5018
2026-01-10 06:07:14.88	55.70	15.38	-52.2	-54.9	14.3	0.00e+00	0	23	0	294649856	70	4966
2026-01-10 06:07:15.87	55.55	15.46	-52.1	-54.7	14.4	0.00e+00	0	23	0	296747008	70	4823
2026-01-10 06:07:16.87	55.39	15.53	-52.1	-54.7	14.4	0.00e+00	0	23	0	298844160	70	4868
2026-01-10 06:07:17.87	55.23	15.60	-52.1	-54.7	14.4	0.00e+00	0	23	0	300941312	70	4867
2026-01-10 06:07:18.87	55.07	15.68	-52.1	-54.6	14.4	0.00e+00	0	23	0	301989888	70	4812
2026-01-10 06:07:19.87	54.91	15.75	-52.1	-54.8	14.3	0.00e+00	0	23	0	304087040	70	4901
2026-01-10 06:07:20.87	54.75	15.83	-52.2	-54.9	14.3	0.00e+00	0	23	0	306184192	70	4965
2026-01-10 06:07:21.87	54.59	15.90	-52.2	-54.8	14.3	0.00e+00	0	23	0	308281344	70	4886
2026-01-10 06:07:22.86	54.43	15.97	-52.3	-55.0	14.2	0.00e+00	0	23	0	310378496	70	5010
2026-01-10 06:07:23.86	54.26	16.05	-52.3	-55.0	14.2	0.00e+00	0	23	0	311427072	70	5009
2026-01-10 06:07:24.86	54.10	16.12	-52.5	-55.4	14.0	0.00e+00	0	23	0	313524224	70	5250
2026-01-10 06:07:25.86	53.94	16.20	-52.4	-55.3	14.1	0.00e+00	0	23	0	315621376	70	5164
2026-01-10 06:07:26.85	53.77	16.27	-52.5	-55.3	14.1	0.00e+00	0	23	0	317718528	70	5199
2026-01-10 06:07:27.84	53.61	16.34	-52.4	-55.3	14.1	0.00e+00	0	23	0	318767104	70	5162
2026-01-10 06:07:28.84	53.44	16.42	-52.3	-55.0	14.2	0.00e+00	0	23	0	320864256	70	5031
2026-01-10 06:07:29.84	53.27	16.49	-52.1	-54.8	14.4	0.00e+00	0	23	0	322961408	70	4879
2026-01-10 06:07:30.84	53.10	16.56	-52.2	-54.8	14.4	0.00e+00	0	23	0	325058560	70	4902
2026-01-10 06:07:31.83	52.93	16.64	-52.2	-54.8	14.3	0.00e+00	0	23	0	327155712	70	4902
2026-01-10 06:07:32.83	52.76	16.71	-52.3	-55.0	14.3	0.00e+00	0	23	0	328204288	70	5001
2026-01-10 06:07:33.83	52.59	16.78	-52.0	-54.5	14.5	0.00e+00	0	23	0	330301440	70	4714
2026-01-10 06:07:34.83	52.42	16.86	-52.1	-54.6	14.5	0.00e+00	0	23	0	332398592	70	4801
2026-01-10 06:07:35.82	52.25	16.93	-52.0	-54.6	14.5	0.00e+00	0	23	0	334495744	70	4775
2026-01-10 06:07:36.82	52.07	17.01	-52.1	-54.7	14.4	0.00e+00	0	23	0	336592896	70	4849
2026-01-10 06:07:37.83	51.90	17.08	-52.1	-54.7	14.4	0.00e+00	0	23	0	337641472	70	4847
2026-01-10 06:07:38.82	51.72	17.15	-52.1	-54.7	14.4	0.00e+00	0	23	0	339738624	70	4857
2026-01-10 06:07:39.82	51.54	17.23	-52.2	-54.9	14.3	0.00e+00	0	23	0	341835776	70	4929
2026-01-10 06:07:40.83	51.37	17.30	-52.1	-54.7	14.5	0.00e+00	0	23	0	343932928	70	4838
2026-01-10 06:07:41.83	51.19	17.37	-52.1	-54.7	14.4	0.00e+00	0	23	0	344981504	70	4854
2026-01-10 06:07:42.83	51.01	17.45	-52.2	-54.8	14.3	0.00e+00	0	23	0	347078656	70	4904
2026-01-10 06:07:43.84	50.83	17.52	-52.0	-54.6	14.5	0.00e+00	0	23	0	349175808	70	4761
2026-01-10 06:07:44.85	50.64	17.59	-52.0	-54.6	14.5	0.00e+00	0	23	0	351272960	70	4762
2026-01-10 06:07:45.84	50.46	17.67	-52.1	-54.7	14.5	0.00e+00	0	23	0	353370112	70	4818
2026-01-10 06:07:46.85	50.28	17.74	-52.1	-54.6	14.4	0.00e+00	0	23	0	354418688	70	4812
2026-01-10 06:07:47.85	50.09	17.81	-52.1	-54.7	14.4	0.00e+00	0	23	0	356515840	70	4842
2026-01-10 06:07:48.85	49.91	17.89	-52.0	-54.5	14.5	0.00e+00	0	23	0	358612992	70	4735
2026-01-10 06:07:49.84	49.72	17.96	-52.1	-54.7	14.5	0.00e+00	0	23	0	360710144	70	4830
2026-01-10 06:07:50.84	49.54	18.03	-52.1	-54.8	14.4	0.00e+00	0	23	0	362807296	70	4888
2026-01-10 06:07:51.84	49.35	18.10	-52.3	-55.0	14.2	0.00e+00	0	23	0	363855872	70	5026
2026-01-10 06:07:52.84	49.16	18.18	-52.2	-54.8	14.3	0.00e+00	0	23	0	365953024	70	4926
2026-01-10 06:07:53.84	48.97	18.25	-52.2	-54.9	14.3	0.00e+00	0	23	0	368050176	70	4951
2026-01-10 06:07:54.84	48.78	18.32	-52.1	-54.7	14.4	0.00e+00	0	23	0	370147328	70	4822
2026-01-10 06:07:55.84	48.59	18.39	-52.0	-54.4	14.5	0.00e+00	0	23	0	371195904	70	4657
2026-01-10 06:07:56.85	48.40	18.47	-51.8	-54.1	14.7	0.00e+00	0	23	0	373293056	70	4531
2026-01-10 06:07:57.86	48.20	18.54	-51.9	-54.3	14.7	0.00e+00	0	23	0	375390208	70	4599
2026-01-10 06:07:58.86	48.01	18.61	-51.7	-53.9	14.7	0.00e+00	0	23	0	377487360	69	4702
2026-01-10 06:07:59.86	47.81	18.68	-51.8	-54.1	14.5	0.00e+00	0	23	0	379584512	69	4797
2026-01-10 06:08:00.85	47.62	18.75	-51.6	-53.8	14.7	0.00e+00	0	23	0	380633088	69	4640
2026-01-10 06:08:01.85	47.42	18.82	-51.6	-53.9	14.7	0.00e+00	0	23	0	382730240	69	4655
2026-01-10 06:08:02.86	47.22	18.89	-51.5	-53.8	14.7	0.00e+00	0	23	0	384827392	69	4633
2026-01-10 06:08:03.85	47.03	18.97	-51.7	-54.0	14.6	0.00e+00	0	23	0	386924544	69	4753
2026-01-10 06:08:04.86	46.82	19.04	-51.7	-54.1	14.6	0.00e+00	0	23	0	389021696	69	4778
2026-01-10 06:08:05.85	46.63	19.11	-51.7	-54.2	14.5	0.00e+00	0	23	0	390070272	69	4832
2026-01-10 06:08:06.85	46.43	19.18	-51.7	-54.1	14.6	0.00e+00	0	23	0	392167424	69	4792
2026-01-10 06:08:07.85	46.22	19.25	-51.3	-53.7	14.8	0.00e+00	0	23	0	394264576	69	4553
2026-01-10 06:08:08.85	46.02	19.32	-51.2	-53.5	14.9	0.00e+00	0	23	0	396361728	69	4476
2026-01-10 06:08:09.85	45.82	19.39	-51.1	-53.4	14.8	0.00e+00	0	23	0	398458880	68	4673
2026-01-10 06:08:10.85	45.61	19.46	-51.0	-53.2	14.9	0.00e+00	0	23	0	399507456	68	4578
2026-01-10 06:08:11.85	45.40	19.53	-51.0	-53.2	14.9	0.00e+00	0	23	0	401604608	68	4554
2026-01-10 06:08:12.85	45.20	19.60	-50.7	-52.8	15.1	0.00e+00	0	23	0	403701760	68	4360
2026-01-10 06:08:13.86	44.99	19.67	-50.5	-52.6	15.0	0.00e+00	0	23	0	405798912	67	4520
2026-01-10 06:08:14.86	44.78	19.73	-50.4	-52.4	15.1	0.00e+00	0	23	0	407896064	67	4427
2026-01-10 06:08:15.86	44.57	19.80	-50.3	-52.3	15.2	0.00e+00	0	23	0	408944640	67	4363
2026-01-10 06:08:16.87	44.35	19.87	-50.4	-52.3	15.2	0.00e+00	0	23	0	411041792	67	4390
2026-01-10 06:08:17.86	44.14	19.94	-50.5	-52.5	15.1	0.00e+00	0	23	0	413138944	67	4480
2026-01-10 06:08:18.87	43.93	20.01	-50.7	-52.8	14.9	0.00e+00	0	23	0	415236096	67	4628
2026-01-10 06:08:19.87	43.72	20.08	-50.5	-52.5	15.0	0.00e+00	0	23	0	416284672	67	4492
2026-01-10 06:08:20.87	43.50	20.14	-50.7	-52.9	14.9	0.00e+00	0	23	0	418381824	67	4658
2026-01-10 06:08:21.87	43.29	20.21	-50.5	-52.6	15.0	0.00e+00	0	23	0	420478976	67	4497
2026-01-10 06:08:22.87	43.07	20.28	-50.5	-52.5	15.1	0.00e+00	0	23	0	422576128	67	4449
2026-01-10 06:08:23.86	42.85	20.34	-50.4	-52.4	15.1	0.00e+00	0	23	0	424673280	67	4441
2026-01-10 06:08:24.87	42.63	20.41	-50.5	-52.5	15.1	0.00e+00	0	23	0	425721856	67	4445
2026-01-10 06:08:25.87	42.41	20.48	-50.5	-52.5	15.1	0.00e+00	0	23	0	427819008	67	4467
2026-01-10 06:08:26.87	42.19	20.54	-50.4	-52.4	15.1	0.00e+00	0	23	0	429916160	67	4402
2026-01-10 06:08:27.87	41.97	20.61	-50.5	-52.5	15.1	0.00e+00	0	23	0	432013312	67	4469
2026-01-10 06:08:28.87	41.75	20.68	-50.6	-52.6	15.0	0.00e+00	0	23	0	434110464	67	4536
2026-01-10 06:08:29.88	41.52	20.74	-50.6	-52.7	15.0	0.00e+00	0	23	0	435159040	67	4551
2026-01-10 06:08:30.88	41.30	20.81	-50.6	-52.7	15.0	0.00e+00	0	23	0	437256192	67	4554
2026-01-10 06:08:31.88	41.07	20.87	-50.5	-52.5	15.1	0.00e+00	0	23	0	439353344	67	4465
2026-01-10 06:08:32.88	40.85	20.93	-50.4	-52.4	15.1	0.00e+00	0	23	0	441450496	67	4411
2026-01-10 06:08:33.88	40.62	21.00	-50.1	-52.0	15.1	0.00e+00	0	23	0	443547648	66	4462
2026-01-10 06:08:34.89	40.39	21.06	-50.0	-51.9	15.2	0.00e+00	0	23	0	444596224	66	4405
2026-01-10 06:08:35.89	40.16	21.13	-50.2	-52.1	15.1	0.00e+00	0	23	0	446693376	66	4525
2026-01-10 06:08:36.89	39.93	21.19	-50.1	-52.0	15.1	0.00e+00	0	23	0	448790528	66	4461
2026-01-10 06:08:37.90	39.70	21.25	-49.9	-51.7	15.3	0.00e+00	0	23	0	450887680	66	4324
2026-01-10 06:08:38.90	39.47	21.31	-49.9	-51.7	15.3	0.00e+00	0	23	0	451936256	66	4319
2026-01-10 06:08:39.91	39.23	21.38	-50.0	-51.8	15.3	0.00e+00	0	23	0	454033408	66	4351
2026-01-10 06:08:40.92	38.99	21.44	-49.8	-51.6	15.4	0.00e+00	0	23	0	456130560	66	4247
2026-01-10 06:08:41.92	38.76	21.50	-49.8	-51.5	15.4	0.00e+00	0	23	0	458227712	66	4227
2026-01-10 06:08:42.92	38.52	21.56	-49.9	-51.7	15.3	0.00e+00	0	23	0	460324864	66	4320
2026-01-10 06:08:43.92	38.29	21.62	-50.0	-51.8	15.3	0.00e+00	0	23	0	462422016	66	4367
2026-01-10 06:08:44.93	38.05	21.68	-50.0	-51.8	15.3	0.00e+00	0	23	0	463470592	66	4378
2026-01-10 06:08:45.93	37.81	21.74	-50.1	-51.9	15.2	0.00e+00	0	23	0	465567744	66	4396
2026-01-10 06:08:46.93	37.57	21.80	-50.0	-51.8	15.3	0.00e+00	0	23	0	467664896	66	4377
2026-01-10 06:08:47.93	37.33	21.86	-50.1	-51.9	15.2	0.00e+00	0	23	0	469762048	66	4421
2026-01-10 06:08:48.94	37.09	21.92	-50.1	-51.9	15.2	0.00e+00	0	23	0	470810624	66	4423
2026-01-10 06:08:49.94	36.84	21.98	-50.2	-52.0	15.2	0.00e+00	0	23	0	472907776	66	4485
2026-01-10 06:08:50.95	36.60	22.04	-50.1	-51.9	15.2	0.00e+00	0	23	0	475004928	66	4424
2026-01-10 06:08:51.95	36.35	22.09	-49.9	-51.7	15.3	0.00e+00	0	23	0	477102080	66	4324
2026-01-10 06:08:52.95	36.11	22.15	-50.0	-51.8	15.3	0.00e+00	0	23	0	479199232	66	4344
2026-01-10 06:08:53.96	35.86	22.21	-50.0	-51.8	15.3	0.00e+00	0	23	0	480247808	66	4355
2026-01-10 06:08:54.96	35.61	22.26	-50.1	-51.9	15.2	0.00e+00	0	23	0	482344960	66	4416
2026-01-10 06:08:55.96	35.37	22.32	-50.2	-52.0	15.1	0.00e+00	0	23	0	484442112	66	4476
2026-01-10 06:08:56.95	35.12	22.37	-49.9	-51.7	15.3	0.00e+00	0	23	0	486539264	66	4312
2026-01-10 06:08:57.96	34.87	22.43	-49.7	-51.5	15.5	0.00e+00	0	23	0	488636416	66	4194
2026-01-10 06:08:58.96	34.62	22.48	-49.8	-51.5	15.3	0.00e+00	0	23	0	489684992	65	4453
2026-01-10 06:08:59.97	34.36	22.54	-50.0	-51.8	15.1	0.00e+00	0	23	0	491782144	65	4606
2026-01-10 06:09:00.98	34.11	22.59	-50.1	-52.0	15.0	0.00e+00	0	23	0	493879296	65	4708
2026-01-10 06:09:01.98	33.86	22.64	-50.3	-52.1	14.9	0.00e+00	0	23	0	495976448	65	4804
2026-01-10 06:09:02.99	33.60	22.69	-50.0	-51.7	15.1	0.00e+00	0	23	0	498073600	65	4576
2026-01-10 06:09:03.99	33.35	22.75	-49.8	-51.5	15.2	0.00e+00	0	23	0	499122176	65	4479
2026-01-10 06:09:04.99	33.09	22.80	-49.9	-51.6	15.2	0.00e+00	0	23	0	501219328	65	4526
2026-01-10 06:09:06.00	32.83	22.85	-50.0	-51.7	15.1	0.00e+00	0	23	0	503316480	65	4571
2026-01-10 06:09:07.00	32.58	22.90	-50.0	-51.8	15.1	0.00e+00	0	23	0	505413632	65	4607
2026-01-10 06:09:08.01	32.31	22.95	-49.9	-51.6	15.2	0.00e+00	0	23	0	507510784	65	4542
2026-01-10 06:09:09.01	32.06	23.00	-50.1	-51.9	15.0	0.00e+00	0	23	0	508559360	65	4680
2026-01-10 06:09:10.01	31.80	23.05	-50.0	-51.8	15.1	0.00e+00	0	23	0	510656512	65	4618
2026-01-10 06:09:11.02	31.53	23.09	-50.0	-51.8	15.1	0.00e+00	0	23	0	512753664	65	4626
2026-01-10 06:09:12.02	31.27	23.14	-50.1	-51.9	15.0	0.00e+00	0	23	0	514850816	65	4681
2026-01-10 06:09:13.02	31.01	23.19	-50.1	-51.9	15.0	0.00e+00	0	23	0	516947968	65	4674
2026-01-10 06:09:14.02	30.75	23.23	-49.9	-51.6	15.2	0.00e+00	0	23	0	517996544	65	4534
2026-01-10 06:09:15.02	30.48	23.28	-49.9	-51.6	15.2	0.00e+00	0	23	0	520093696	65	4522
2026-01-10 06:09:16.02	30.22	23.32	-49.9	-51.6	15.2	0.00e+00	0	23	0	522190848	65	4536
2026-01-10 06:09:17.02	29.95	23.37	-49.7	-51.4	15.3	0.00e+00	0	23	0	524288000	65	4421
2026-01-10 06:09:18.02	29.69	23.41	-49.8	-51.4	15.3	0.00e+00	0	23	0	525336576	65	4429
2026-01-10 06:09:19.01	29.42	23.46	-49.6	-51.3	15.3	0.00e+00	0	23	0	527433728	65	4360
2026-01-10 06:09:20.01	29.16	23.50	-49.6	-51.2	15.4	0.00e+00	0	23	0	529530880	65	4335
2026-01-10 06:09:21.00	28.89	23.54	-49.4	-51.0	15.4	0.00e+00	0	23	0	531628032	65	4235
2026-01-10 06:09:22.00	28.62	23.58	-49.4	-51.0	15.5	0.00e+00	0	23	0	533725184	65	4205
2026-01-10 06:09:23.00	28.35	23.62	-49.5	-51.1	15.4	0.00e+00	0	23	0	534773760	65	4267
2026-01-10 06:09:24.01	28.08	23.66	-49.8	-51.5	15.2	0.00e+00	0	23	0	536870912	65	4478
2026-01-10 06:09:25.01	27.81	23.70	-50.2	-52.0	15.0	0.00e+00	0	23	0	538968064	65	4734
2026-01-10 06:09:26.01	27.54	23.74	-50.3	-52.0	15.0	0.00e+00	0	23	0	541065216	65	4741
2026-01-10 06:09:27.02	27.26	23.78	-50.2	-52.0	15.0	0.00e+00	0	23	0	543162368	65	4718
2026-01-10 06:09:28.02	26.99	23.82	-50.3	-52.1	15.0	0.00e+00	0	23	0	544210944	65	4766
2026-01-10 06:09:29.02	26.72	23.85	-50.9	-52.9	14.8	0.00e+00	0	23	0	546308096	66	4935
2026-01-10 06:09:30.02	26.44	23.89	-51.6	-53.8	14.5	0.00e+00	0	23	0	548405248	68	4925
2026-01-10 06:09:31.02	26.17	23.93	-52.3	-54.7	14.3	0.00e+00	0	23	0	550502400	69	5136
2026-01-10 06:09:32.02	25.89	23.96	-52.2	-54.5	14.4	0.00e+00	0	23	0	552599552	69	5035
2026-01-10 06:09:33.03	25.61	24.00	-51.9	-54.1	14.6	0.00e+00	0	23	0	553648128	69	4805
2026-01-10 06:09:34.03	25.34	24.03	-51.7	-53.9	14.7	0.00e+00	0	23	0	555745280	69	4660
2026-01-10 06:09:35.03	25.06	24.06	-51.5	-53.6	14.9	0.00e+00	0	23	0	557842432	69	4510
2026-01-10 06:09:36.04	24.78	24.10	-51.5	-53.6	14.9	0.00e+00	0	23	0	559939584	69	4507
2026-01-10 06:09:37.04	24.50	24.13	-51.5	-53.7	14.8	0.00e+00	0	23	0	560988160	69	4575
2026-01-10 06:09:38.03	24.22	24.16	-51.4	-53.6	14.8	0.00e+00	0	23	0	563085312	69	4501
2026-01-10 06:09:39.04	23.94	24.19	-51.3	-53.3	15.0	0.00e+00	0	23	0	565182464	69	4390
2026-01-10 06:09:40.05	23.66	24.22	-51.2	-53.2	15.1	0.00e+00	0	23	0	567279616	69	4330
2026-01-10 06:09:41.05	23.38	24.25	-51.2	-53.3	14.9	0.00e+00	0	23	0	569376768	68	4600
2026-01-10 06:09:42.06	23.09	24.27	-51.3	-53.4	14.9	0.00e+00	0	23	0	570425344	68	4675
2026-01-10 06:09:43.06	22.81	24.30	-51.3	-53.4	14.8	0.00e+00	0	23	0	572522496	68	4690
2026-01-10 06:09:44.06	22.53	24.33	-51.4	-53.5	14.7	0.00e+00	0	23	0	574619648	68	4723
2026-01-10 06:09:45.06	22.25	24.35	-51.2	-53.2	14.8	0.00e+00	0	23	0	576716800	68	4579
2026-01-10 06:09:46.05	21.97	24.38	-51.1	-53.2	14.9	0.00e+00	0	23	0	578813952	68	4578
2026-01-10 06:09:47.05	21.68	24.40	-51.3	-53.5	14.7	0.00e+00	0	23	0	579862528	68	4709
2026-01-10 06:09:48.05	21.40	24.43	-51.6	-53.9	14.5	0.00e+00	0	23	0	581959680	68	4954
2026-01-10 06:09:49.05	21.12	24.45	-51.7	-54.1	14.4	0.00e+00	0	23	0	584056832	68	5060
2026-01-10 06:09:50.06	20.83	24.47	-52.0	-54.5	14.4	0.00e+00	0	23	0	586153984	69	4999
2026-01-10 06:09:51.06	20.54	24.49	-51.9	-54.2	14.5	0.00e+00	0	23	0	588251136	69	4858
2026-01-10 06:09:52.06	20.26	24.51	-51.8	-54.1	14.6	0.00e+00	0	23	0	589299712	69	4799
2026-01-10 06:09:53.06	19.97	24.53	-51.9	-54.2	14.5	0.00e+00	0	23	0	591396864	69	4821
2026-01-10 06:09:54.07	19.68	24.55	-51.8	-54.2	14.5	0.00e+00	0	23	0	593494016	69	4835
2026-01-10 06:09:55.08	19.39	24.57	-52.0	-54.5	14.4	0.00e+00	0	23	0	595591168	69	5004
2026-01-10 06:09:56.08	19.11	24.59	-52.1	-54.6	14.3	0.00e+00	0	23	0	597688320	69	5096
2026-01-10 06:09:57.08	18.82	24.61	-52.2	-54.8	14.2	0.00e+00	0	23	0	598736896	69	5165
2026-01-10 06:09:58.09	18.53	24.62	-51.9	-54.2	14.6	0.00e+00	0	23	0	600834048	69	4851
2026-01-10 06:09:59.09	18.24	24.64	-51.6	-53.8	14.8	0.00e+00	0	23	0	602931200	69	4631
2026-01-10 06:10:00.09	17.95	24.65	-51.6	-53.8	14.8	0.00e+00	0	23	0	605028352	69	4601
2026-01-10 06:10:01.10	17.66	24.67	-51.7	-53.9	14.7	0.00e+00	0	23	0	606076928	69	4699
2026-01-10 06:10:02.10	17.37	24.68	-51.9	-54.3	14.5	0.00e+00	0	23	0	608174080	69	4902
2026-01-10 06:10:03.11	17.08	24.69	-52.3	-54.9	14.1	0.00e+00	0	23	0	610271232	69	5248
2026-01-10 06:10:04.11	16.79	24.70	-52.3	-54.9	14.1	0.00e+00	0	23	0	612368384	69	5222
2026-01-10 06:10:05.11	16.50	24.71	-52.0	-54.4	14.4	0.00e+00	0	23	0	614465536	69	4938
2026-01-10 06:10:06.12	16.21	24.72	-52.0	-54.5	14.4	0.00e+00	0	23	0	615514112	69	5016
2026-01-10 06:10:07.13	15.92	24.73	-52.1	-54.5	14.4	0.00e+00	0	23	0	617611264	69	5009
2026-01-10 06:10:08.13	15.63	24.74	-52.0	-54.4	14.4	0.00e+00	0	23	0	619708416	69	4933
2026-01-10 06:10:09.14	15.34	24.75	-51.8	-54.2	14.5	0.00e+00	0	23	0	621805568	69	4830
2026-01-10 06:10:10.15	15.04	24.75	-51.6	-53.9	14.6	0.00e+00	0	23	0	623902720	69	4678
2026-01-10 06:10:11.15	14.75	24.76	-51.4	-53.5	14.9	0.00e+00	0	23	0	624951296	69	4485
2026-01-10 06:10:12.15	14.46	24.76	-51.0	-53.1	15.0	0.00e+00	0	23	0	627048448	68	4501
2026-01-10 06:10:13.15	14.17	24.77	-50.8	-52.9	15.1	0.00e+00	0	23	0	629145600	68	4404
2026-01-10 06:10:14.15	13.88	24.77	-50.8	-52.9	15.1	0.00e+00	0	23	0	631242752	68	4400
2026-01-10 06:10:15.15	13.59	24.77	-51.1	-53.2	14.8	0.00e+00	0	23	0	633339904	68	4598
2026-01-10 06:10:16.15	13.30	24.77	-51.5	-53.8	14.6	0.00e+00	0	23	0	634388480	68	4903
2026-01-10 06:10:17.15	13.01	24.78	-51.9	-54.4	14.2	0.00e+00	0	23	0	636485632	68	5265
2026-01-10 06:10:18.15	12.72	24.78	-51.9	-54.4	14.3	0.00e+00	0	23	0	638582784	69	4954
2026-01-10 06:10:19.15	12.43	24.77	-51.8	-54.3	14.4	0.00e+00	0	23	0	640679936	69	4917
2026-01-10 06:10:20.16	12.14	24.77	-51.7	-54.1	14.5	0.00e+00	0	23	0	642777088	69	4805
2026-01-10 06:10:21.16	11.85	24.77	-51.6	-53.9	14.7	0.00e+00	0	23	0	643825664	69	4678
2026-01-10 06:10:22.16	11.55	24.77	-51.5	-53.8	14.8	0.00e+00	0	23	0	645922816	69	4605
2026-01-10 06:10:23.16	11.26	24.76	-51.5	-53.8	14.8	0.00e+00	0	23	0	648019968	69	4613
2026-01-10 06:10:24.16	10.97	24.76	-51.5	-53.7	14.8	0.00e+00	0	23	0	650117120	69	4586
2026-01-10 06:10:25.17	10.68	24.75	-51.3	-53.5	14.9	0.00e+00	0	23	0	652214272	69	4457
2026-01-10 06:10:26.18	10.39	24.75	-51.0	-53.1	14.9	0.00e+00	0	23	0	653262848	68	4544
2026-01-10 06:10:27.18	10.10	24.74	-50.4	-52.3	15.2	0.00e+00	0	23	0	655360000	67	4383
2026-01-10 06:10:28.18	9.81	24.73	-50.4	-52.3	15.2	0.00e+00	0	23	0	657457152	67	4356
2026-01-10 06:10:29.17	9.52	24.72	-50.3	-52.2	15.2	0.00e+00	0	23	0	659554304	67	4329
2026-01-10 06:10:30.17	9.23	24.71	-50.4	-52.4	15.2	0.00e+00	0	23	0	660602880	67	4404
2026-01-10 06:10:31.17	8.94	24.70	-50.5	-52.4	15.1	0.00e+00	0	23	0	662700032	67	4437
2026-01-10 06:10:32.18	8.65	24.69	-50.5	-52.4	15.1	0.00e+00	0	23	0	664797184	67	4413
2026-01-10 06:10:33.19	8.36	24.68	-50.6	-52.5	15.1	0.00e+00	0	23	0	666894336	67	4470
2026-01-10 06:10:34.19	8.07	24.67	-50.8	-52.8	14.9	0.00e+00	0	23	0	668991488	67	4628
2026-01-10 06:10:35.19	7.78	24.65	-51.0	-53.0	14.8	0.00e+00	0	23	0	670040064	67	4752
2026-01-10 06:10:36.20	7.49	24.64	-50.7	-52.7	15.0	0.00e+00	0	23	0	672137216	67	4570
2026-01-10 06:10:37.20	7.20	24.62	-50.7	-52.7	15.0	0.00e+00	0	23	0	674234368	67	4562
2026-01-10 06:10:38.20	6.92	24.61	-50.1	-51.9	15.3	0.00e+00	0	23	0	676331520	66	4392
2026-01-10 06:10:39.21	6.63	24.59	-50.2	-51.9	15.2	0.00e+00	0	23	0	678428672	66	4393
2026-01-10 06:10:40.21	6.34	24.57	-50.5	-52.2	15.1	0.00e+00	0	23	0	679477248	66	4585
2026-01-10 06:10:41.22	6.05	24.55	-50.6	-52.4	14.9	0.00e+00	0	23	0	681574400	66	4704
2026-01-10 06:10:42.22	5.76	24.54	-50.6	-52.4	15.0	0.00e+00	0	23	0	683671552	66	4688
2026-01-10 06:10:43.21	5.48	24.52	-50.7	-52.5	14.9	0.00e+00	0	23	0	685768704	66	4724
2026-01-10 06:10:44.21	5.20	24.50	-50.1	-51.7	15.3	0.00e+00	0	23	0	687865856	66	4333
2026-01-10 06:10:45.21	4.91	24.47	-49.7	-51.3	15.3	0.00e+00	0	23	0	688914432	65	4378
2026-01-10 06:10:46.22	4.62	24.45	-49.7	-51.3	15.3	0.00e+00	0	23	0	691011584	65	4348
2026-01-10 06:10:47.22	4.34	24.43	-49.7	-51.3	15.3	0.00e+00	0	23	0	693108736	65	4386
2026-01-10 06:10:48.22	4.06	24.41	-50.0	-51.7	15.1	0.00e+00	0	23	0	695205888	65	4581
2026-01-10 06:10:49.22	3.77	24.38	-49.8	-51.4	15.3	0.00e+00	0	23	0	697303040	65	4402
2026-01-10 06:10:50.23	3.49	24.36	-50.1	-51.7	15.1	0.00e+00	0	23	0	698351616	65	4594
2026-01-10 06:10:51.24	3.20	24.33	-50.1	-51.7	15.1	0.00e+00	0	23	0	700448768	65	4594
2026-01-10 06:10:52.23	2.92	24.30	-50.0	-51.7	15.1	0.00e+00	0	23	0	702545920	65	4562
2026-01-10 06:10:53.24	2.64	24.28	-50.1	-51.8	15.1	0.00e+00	0	23	0	704643072	65	4601
2026-01-10 06:10:54.24	2.36	24.25	-50.2	-51.9	15.0	0.00e+00	0	23	0	705691648	65	4691
2026-01-10 06:10:55.24	2.08	24.22	-50.1	-51.7	15.1	0.00e+00	0	23	0	707788800	65	4589
2026-01-10 06:10:56.25	1.79	24.19	-50.0	-51.7	15.1	0.00e+00	0	23	0	709885952	65	4571
2026-01-10 06:10:57.25	1.51	24.16	-50.1	-51.8	15.1	0.00e+00	0	23	0	711983104	65	4604
2026-01-10 06:10:58.25	1.23	24.13	-50.2	-52.0	15.1	0.00e+00	0	23	0	714080256	65	4712
2026-01-10 06:10:59.25	0.96	24.10	-50.1	-51.8	15.1	0.00e+00	0	23	0	715128832	65	4601
2026-01-10 06:11:00.26	0.68	24.06	-50.2	-51.8	15.1	0.00e+00	0	23	0	717225984	65	4644
2026-01-10 06:11:01.26	0.40	24.03	-50.2	-51.9	15.1	0.00e+00	0	23	0	719323136	65	4658
2026-01-10 06:11:02.26	0.12	24.00	-50.5	-52.3	15.0	0.00e+00	0	23	0	721420288	66	4605
2026-01-10 06:11:03.26	359.85	23.96	-50.7	-52.5	14.9	0.00e+00	0	23	0	723517440	66	4759
2026-01-10 06:11:04.26	359.57	23.93	-50.9	-52.7	15.0	0.00e+00	0	23	0	724566016	67	4573
2026-01-10 06:11:05.26	359.30	23.89	-50.7	-52.5	15.1	0.00e+00	0	23	0	726663168	67	4448
2026-01-10 06:11:06.27	359.02	23.86	-50.4	-52.1	15.3	0.00e+00	0	23	0	728760320	67	4244
2026-01-10 06:11:07.26	358.75	23.82	-50.3	-52.0	15.2	0.00e+00	0	23	0	730857472	66	4444
2026-01-10 06:11:08.26	358.48	23.78	-50.2	-51.9	15.2	0.00e+00	0	23	0	732954624	66	4403
2026-01-10 06:11:09.26	358.20	23.74	-50.2	-51.9	15.2	0.00e+00	0	23	0	734003200	66	4433
2026-01-10 06:11:10.26	357.93	23.71	-50.5	-52.3	15.0	0.00e+00	0	23	0	736100352	66	4604
2026-01-10 06:11:11.27	357.66	23.67	-50.7	-52.5	14.9	0.00e+00	0	23	0	738197504	66	4732
2026-01-10 06:11:12.27	357.39	23.63	-51.0	-53.0	14.8	0.00e+00	0	23	0	740294656	67	4721
2026-01-10 06:11:13.28	357.12	23.58	-51.1	-53.1	14.8	0.00e+00	0	23	0	742391808	67	4766
2026-01-10 06:11:14.29	356.84	23.54	-51.2	-53.3	14.7	0.00e+00	0	23	0	743440384	67	4875
2026-01-10 06:11:15.29	356.58	23.50	-51.2	-53.2	14.7	0.00e+00	0	23	0	745537536	67	4859
2026-01-10 06:11:16.29	356.31	23.46	-51.1	-53.1	14.8	0.00e+00	0	23	0	747634688	67	4760
2026-01-10 06:11:17.28	356.05	23.42	-51.1	-53.2	14.8	0.00e+00	0	23	0	749731840	67	4817
2026-01-10 06:11:18.28	355.78	23.37	-51.1	-53.1	14.8	0.00e+00	0	23	0	750780416	67	4781
2026-01-10 06:11:19.27	355.52	23.33	-51.3	-53.4	14.6	0.00e+00	0	23	0	752877568	67	4957
2026-01-10 06:11:20.28	355.25	23.28	-51.6	-53.8	14.6	0.00e+00	0	23	0	754974720	68	4915
2026-01-10 06:11:21.28	354.99	23.24	-51.8	-54.1	14.4	0.00e+00	0	23	0	757071872	68	5056
2026-01-10 06:11:22.28	354.72	23.19	-51.8	-54.1	14.4	0.00e+00	0	23	0	759169024	68	5061
2026-01-10 06:11:23.28	354.46	23.14	-51.5	-53.7	14.7	0.00e+00	0	23	0	760217600	68	4818
2026-01-10 06:11:24.28	354.20	23.10	-51.5	-53.7	14.7	0.00e+00	0	23	0	762314752	68	4818
2026-01-10 06:11:25.28	353.94	23.05	-51.5	-53.7	14.7	0.00e+00	0	23	0	764411904	68	4815
2026-01-10 06:11:26.28	353.68	23.00	-51.3	-53.4	14.8	0.00e+00	0	23	0	766509056	68	4703
2026-01-10 06:11:27.28	353.42	22.95	-51.6	-53.8	14.6	0.00e+00	0	23	0	768606208	68	4882
2026-01-10 06:11:28.28	353.17	22.90	-51.6	-53.9	14.6	0.00e+00	0	23	0	769654784	68	4932
2026-01-10 06:11:29.29	352.91	22.85	-51.7	-54.0	14.5	0.00e+00	0	23	0	771751936	68	5018
2026-01-10 06:11:30.29	352.65	22.80	-51.9	-54.3	14.4	0.00e+00	0	23	0	773849088	69	4911
2026-01-10 06:11:31.28	352.40	22.75	-51.9	-54.3	14.5	0.00e+00	0	23	0	775946240	69	4903
2026-01-10 06:11:32.28	352.14	22.70	-51.8	-54.1	14.6	0.00e+00	0	23	0	778043392	69	4777
2026-01-10 06:11:33.28	351.89	22.65	-51.7	-54.0	14.6	0.00e+00	0	23	0	779091968	69	4724
2026-01-10 06:11:34.28	351.64	22.59	-51.4	-53.6	14.9	0.00e+00	0	23	0	781189120	69	4500
2026-01-10 06:11:35.28	351.38	22.54	-51.3	-53.5	15.0	0.00e+00	0	23	0	783286272	69	4451
2026-01-10 06:11:36.28	351.13	22.49	-51.5	-53.7	14.8	0.00e+00	0	23	0	785383424	69	4546
2026-01-10 06:11:37.28	350.88	22.43	-51.4	-53.5	14.9	0.00e+00	0	23	0	786432000	69	4472
2026-01-10 06:11:38.28	350.63	22.38	-51.5	-53.7	14.8	0.00e+00	0	23	0	788529152	69	4589
2026-01-10 06:11:39.28	350.39	22.32	-51.5	-53.7	14.8	0.00e+00	0	23	0	790626304	69	4555
2026-01-10 06:11:40.28	350.14	22.27	-51.8	-54.1	14.6	0.00e+00	0	23	0	792723456	69	4780
2026-01-10 06:11:41.29	349.89	22.21	-51.9	-54.3	14.4	0.00e+00	0	23	0	794820608	69	4909
2026-01-10 06:11:42.29	349.64	22.16	-52.3	-54.8	14.1	0.00e+00	0	23	0	795869184	69	5215
2026-01-10 06:11:43.30	349.40	22.10	-52.4	-55.0	14.0	0.00e+00	0	23	0	797966336	69	5335
2026-01-10 06:11:44.30	349.15	22.04	-52.3	-55.0	14.2	0.00e+00	0	23	0	800063488	70	4991
2026-01-10 06:11:45.30	348.91	21.98	-52.1	-54.6	14.5	0.00e+00	0	23	0	802160640	70	4781
2026-01-10 06:11:46.31	348.66	21.93	-51.8	-54.2	14.7	0.00e+00	0	23	0	804257792	70	4575
2026-01-10 06:11:47.31	348.42	21.87	-51.6	-53.9	14.7	0.00e+00	0	23	0	805306368	69	4686
2026-01-10 06:11:48.31	348.18	21.81	-51.4	-53.6	14.9	0.00e+00	0	23	0	807403520	69	4506
2026-01-10 06:11:49.32	347.94	21.75	-51.6	-53.9	14.7	0.00e+00	0	23	0	809500672	69	4691
2026-01-10 06:11:50.32	347.70	21.69	-51.9	-54.4	14.4	0.00e+00	0	23	0	811597824	69	4932
2026-01-10 06:11:51.32	347.47	21.63	-52.2	-54.7	14.2	0.00e+00	0	23	0	813694976	69	5154
2026-01-10 06:11:52.31	347.23	21.57	-52.5	-55.3	14.0	0.00e+00	0	23	0	814743552	70	5192
2026-01-10 06:11:53.32	346.99	21.51	-52.9	-56.0	13.7	0.00e+00	0	23	0	816840704	70	5622
2026-01-10 06:11:54.32	346.76	21.45	-52.5	-55.3	14.2	0.00e+00	0	23	0	818937856	71	4896
2026-01-10 06:11:55.32	346.53	21.39	-52.5	-55.3	14.2	0.00e+00	0	23	0	821035008	71	4922
2026-01-10 06:11:56.32	346.29	21.32	-52.2	-54.8	14.5	0.00e+00	0	23	0	823132160	71	4628
2026-01-10 06:11:57.32	346.06	21.26	-52.0	-54.5	14.5	0.00e+00	0	23	0	824180736	70	4755
2026-01-10 06:11:58.32	345.83	21.20	-51.9	-54.3	14.7	0.00e+00	0	23	0	826277888	70	4599
2026-01-10 06:11:59.32	345.60	21.14	-51.8	-54.0	14.8	0.00e+00	0	23	0	828375040	70	4481
2026-01-10 06:12:00.32	345.37	21.07	-51.5	-53.8	14.8	0.00e+00	0	23	0	830472192	69	4601
2026-01-10 06:12:01.32	345.14	21.01	-51.5	-53.7	14.8	0.00e+00	0	23	0	831520768	69	4573
2026-01-10 06:12:02.32	344.92	20.95	-51.3	-53.5	14.9	0.00e+00	0	23	0	833617920	69	4455
2026-01-10 06:12:03.32	344.69	20.88	-51.5	-53.8	14.7	0.00e+00	0	23	0	835715072	69	4643
2026-01-10 06:12:04.33	344.46	20.82	-51.5	-53.8	14.8	0.00e+00	0	23	0	837812224	69	4602
2026-01-10 06:12:05.33	344.24	20.75	-51.2	-53.4	15.0	0.00e+00	0	23	0	839909376	69	4430
2026-01-10 06:12:06.34	344.01	20.69	-51.1	-53.2	14.9	0.00e+00	0	23	0	840957952	68	4585
2026-01-10 06:12:07.34	343.79	20.62	-51.1	-53.1	14.9	0.00e+00	0	23	0	843055104	68	4542
2026-01-10 06:12:08.34	343.57	20.56	-50.8	-52.8	15.1	0.00e+00	0	23	0	845152256	68	4363
2026-01-10 06:12:09.35	343.35	20.49	-50.2	-52.1	15.3	0.00e+00	0	23	0	847249408	67	4272
2026-01-10 06:12:10.34	343.13	20.42	-49.9	-51.7	15.3	0.00e+00	0	23	0	849346560	66	4335
2026-01-10 06:12:11.35	342.91	20.36	-49.6	-51.3	15.3	0.00e+00	0	23	0	850395136	65	4383
2026-01-10 06:12:12.35	342.69	20.29	-49.7	-51.4	15.2	0.00e+00	0	23	0	852492288	65	4425
2026-01-10 06:12:13.35	342.48	20.22	-49.7	-51.4	15.2	0.00e+00	0	23	0	854589440	65	4437
2026-01-10 06:12:14.35	342.26	20.16	-49.9	-51.7	15.1	0.00e+00	0	23	0	856686592	65	4588
2026-01-10 06:12:15.35	342.05	20.09	-50.0	-51.9	15.1	0.00e+00	0	23	0	858783744	65	4659
2026-01-10 06:12:16.35	341.83	20.02	-50.4	-52.4	14.8	0.00e+00	0	23	0	859832320	65	4941
2026-01-10 06:12:17.35	341.62	19.95	-50.7	-52.8	14.7	0.00e+00	0	23	0	861929472	66	4900
2026-01-10 06:12:18.35	341.41	19.88	-51.1	-53.3	14.6	0.00e+00	0	23	0	864026624	67	4876
2026-01-10 06:12:19.35	341.20	19.82	-51.2	-53.4	14.5	0.00e+00	0	23	0	866123776	67	4967
2026-01-10 06:12:20.35	340.99	19.75	-51.3	-53.6	14.4	0.00e+00	0	23	0	867172352	67	5097
2026-01-10 06:12:21.35	340.78	19.68	-51.6	-54.0	14.4	0.00e+00	0	23	0	869269504	68	5023
2026-01-10 06:12:22.35	340.57	19.61	-51.6	-54.0	14.4	0.00e+00	0	23	0	871366656	68	5038
2026-01-10 06:12:23.35	340.36	19.54	-51.6	-54.0	14.4	0.00e+00	0	23	0	873463808	68	5041
2026-01-10 06:12:24.34	340.16	19.47	-51.4	-53.7	14.6	0.00e+00	0	23	0	875560960	68	4846
2026-01-10 06:12:25.34	339.95	19.40	-51.4	-53.7	14.6	0.00e+00	0	23	0	876609536	68	4821
2026-01-10 06:12:26.33	339.75	19.33	-51.3	-53.5	14.7	0.00e+00	0	23	0	878706688	68	4744
2026-01-10 06:12:27.33	339.55	19.26	-51.0	-53.2	14.9	0.00e+00	0	23	0	880803840	68	4558
2026-01-10 06:12:28.34	339.34	19.19	-51.0	-53.2	14.9	0.00e+00	0	23	0	882900992	68	4558
2026-01-10 06:12:29.35	339.14	19.12	-51.0	-53.1	14.9	0.00e+00	0	23	0	884998144	68	4526
2026-01-10 06:12:30.34	338.94	19.05	-50.4	-52.5	15.0	0.00e+00	0	23	0	886046720	67	4446
2026-01-10 06:12:31.35	338.74	18.98	-50.4	-52.3	15.1	0.00e+00	0	23	0	888143872	67	4385
2026-01-10 06:12:32.36	338.54	18.91	-50.1	-51.9	15.2	0.00e+00	0	23	0	890241024	66	4438
2026-01-10 06:12:33.36	338.34	18.84	-50.0	-51.9	15.2	0.00e+00	0	23	0	892338176	66	4400
2026-01-10 06:12:34.35	338.15	18.77	-50.1	-52.0	15.2	0.00e+00	0	23	0	893386752	66	4477
2026-01-10 06:12:35.33	337.96	18.70	-50.3	-52.3	15.0	0.00e+00	0	23	0	895483904	66	4616
2026-01-10 06:12:36.34	337.76	18.63	-50.5	-52.6	14.9	0.00e+00	0	23	0	897581056	66	4775
2026-01-10 06:12:37.33	337.57	18.55	-50.7	-52.8	14.8	0.00e+00	0	23	0	899678208	66	4899
2026-01-10 06:12:38.33	337.37	18.48	-50.8	-53.0	14.7	0.00e+00	0	23	0	901775360	66	5014
2026-01-10 06:12:39.34	337.18	18.41	-50.5	-52.6	14.8	0.00e+00	0	23	0	902823936	66	4778
2026-01-10 06:12:40.34	336.99	18.34	-50.4	-52.4	14.9	0.00e+00	0	23	0	904921088	66	4668
2026-01-10 06:12:41.33	336.80	18.27	-50.4	-52.4	14.9	0.00e+00	0	23	0	907018240	66	4673
2026-01-10 06:12:42.33	336.61	18.19	-50.4	-52.3	15.0	0.00e+00	0	23	0	909115392	66	4633
2026-01-10 06:12:43.34	336.42	18.12	-50.7	-52.7	14.8	2.20e-06	0	23	0	911212544	66	4851
2026-01-10 06:12:44.34	336.23	18.05	-50.9	-53.1	14.6	0.00e+00	0	23	0	912261120	67	4782
2026-01-10 06:12:45.35	336.05	17.98	-51.1	-53.3	14.6	0.00e+00	0	23	0	914358272	67	4903
2026-01-10 06:12:46.36	335.86	17.90	-51.1	-53.3	14.7	0.00e+00	0	23	0	916455424	67	4877
2026-01-10 06:12:47.35	335.68	17.83	-51.1	-53.2	14.7	0.00e+00	0	23	0	918552576	67	4860
2026-01-10 06:12:48.36	335.49	17.76	-50.9	-53.0	14.8	0.00e+00	0	23	0	920649728	67	4709
2026-01-10 06:12:49.36	335.31	17.68	-50.7	-52.7	15.0	0.00e+00	0	23	0	921698304	67	4563
2026-01-10 06:12:50.37	335.12	17.61	-50.6	-52.6	15.0	0.00e+00	0	23	0	923795456	67	4527
2026-01-10 06:12:51.36	334.94	17.54	-50.5	-52.5	15.1	1.50e-06	0	23	0	925892608	67	4459
2026-01-10 06:12:52.36	334.76	17.46	-50.6	-52.5	15.0	0.00e+00	0	23	0	927989760	67	4483
2026-01-10 06:12:53.37	334.58	17.39	-50.4	-52.3	15.2	0.00e+00	0	23	0	930086912	67	4366
2026-01-10 06:12:54.37	334.40	17.32	-50.5	-52.4	15.1	0.00e+00	0	23	0	931135488	67	4410
2026-01-10 06:12:55.37	334.23	17.24	-50.3	-52.2	15.2	0.00e+00	0	23	0	933232640	67	4304
2026-01-10 06:12:56.37	334.05	17.17	-50.3	-52.1	15.2	0.00e+00	0	23	0	935329792	67	4275
2026-01-10 06:12:57.37	333.87	17.10	-50.5	-52.4	15.1	0.00e+00	0	23	0	937426944	67	4432
2026-01-10 06:12:58.38	333.70	17.02	-50.6	-52.5	15.1	0.00e+00	0	23	0	938475520	67	4443
2026-01-10 06:12:59.39	333.52	16.95	-50.7	-52.6	15.0	0.00e+00	0	23	0	940572672	67	4542
2026-01-10 06:13:00.39	333.35	16.88	-50.8	-52.7	14.9	0.00e+00	0	23	0	942669824	67	4587
2026-01-10 06:13:01.39	333.18	16.80	-50.8	-52.8	14.9	0.00e+00	0	23	0	944766976	67	4646
2026-01-10 06:13:02.40	333.00	16.73	-50.6	-52.5	15.1	0.00e+00	0	23	0	946864128	67	4458
2026-01-10 06:13:03.40	332.83	16.65	-50.4	-52.3	15.2	0.00e+00	0	23	0	947912704	67	4347
2026-01-10 06:13:04.41	332.66	16.58	-50.3	-52.0	15.3	0.00e+00	0	23	0	950009856	67	4238
2026-01-10 06:13:05.41	332.49	16.50	-50.0	-51.7	15.3	0.00e+00	0	23	0	952107008	66	4324
2026-01-10 06:13:06.42	332.32	16.43	-50.0	-51.7	15.3	0.00e+00	0	23	0	954204160	66	4305
2026-01-10 06:13:07.42	332.16	16.36	-50.0	-51.8	15.3	0.00e+00	0	23	0	956301312	66	4341
2026-01-10 06:13:08.42	331.99	16.28	-50.1	-51.9	15.2	0.00e+00	0	23	0	957349888	66	4411
2026-01-10 06:13:09.42	331.82	16.21	-50.2	-51.9	15.2	0.00e+00	0	23	0	959447040	66	4433
2026-01-10 06:13:10.42	331.66	16.13	-50.3	-52.1	15.1	0.00e+00	0	23	0	961544192	66	4502
2026-01-10 06:13:11.43	331.49	16.06	-50.3	-52.1	15.1	0.00e+00	0	23	0	963641344	66	4526
2026-01-10 06:13:12.43	331.33	15.99	-50.4	-52.2	15.0	0.00e+00	0	23	0	965738496	66	4580
2026-01-10 06:13:13.43	331.17	15.91	-50.5	-52.3	15.0	0.00e+00	0	23	0	966787072	66	4640
2026-01-10 06:13:14.43	331.01	15.84	-50.5	-52.4	14.9	0.00e+00	0	23	0	968884224	66	4661
2026-01-10 06:13:15.43	330.85	15.76	-50.6	-52.4	14.9	0.00e+00	0	23	0	970981376	66	4686
2026-01-10 06:13:16.43	330.69	15.69	-50.6	-52.4	14.9	0.00e+00	0	23	0	973078528	66	4694
2026-01-10 06:13:17.43	330.53	15.62	-50.5	-52.3	15.0	0.00e+00	0	23	0	975175680	66	4625
2026-01-10 06:13:18.44	330.37	15.54	-50.2	-51.9	15.2	7.00e-07	0	23	0	976224256	66	4441
2026-01-10 06:13:19.44	330.21	15.47	-50.1	-51.8	15.2	0.00e+00	0	23	0	978321408	66	4376
2026-01-10 06:13:20.43	330.05	15.39	-49.8	-51.5	15.4	0.00e+00	0	23	0	980418560	66	4197
2026-01-10 06:13:21.43	329.90	15.32	-49.8	-51.4	15.5	0.00e+00	0	23	0	982515712	66	4173
2026-01-10 06:13:22.43	329.74	15.25	-49.8	-51.5	15.4	0.00e+00	0	23	0	983564288	66	4200
2026-01-10 06:13:23.42	329.59	15.17	-50.0	-51.8	15.3	0.00e+00	0	23	0	985661440	66	4347
2026-01-10 06:13:24.42	329.44	15.10	-50.3	-52.1	15.1	0.00e+00	0	23	0	987758592	66	4504
2026-01-10 06:13:25.42	329.28	15.02	-50.4	-52.2	15.0	0.00e+00	0	23	0	989855744	66	4576
2026-01-10 06:13:26.42	329.13	14.95	-50.8	-52.8	14.7	0.00e+00	0	23	0	991952896	66	4900
2026-01-10 06:13:27.42	328.98	14.88	-51.1	-53.1	14.7	0.00e+00	0	23	0	993001472	67	4772
2026-01-10 06:13:28.42	328.83	14.80	-51.2	-53.2	14.6	0.00e+00	0	23	0	995098624	67	4857
2026-01-10 06:13:29.42	328.68	14.73	-51.2	-53.3	14.6	0.00e+00	0	23	0	997195776	67	4904
2026-01-10 06:13:30.42	328.53	14.65	-51.0	-53.0	14.8	0.00e+00	0	23	0	999292928	67	4722
2026-01-10 06:13:31.42	328.38	14.58	-50.9	-52.8	14.8	0.00e+00	0	23	0	1001390080	67	4648
2026-01-10 06:13:32.42	328.24	14.51	-51.0	-52.9	14.8	0.00e+00	0	23	0	1002438656	67	4701
2026-01-10 06:13:33.42	328.09	14.43	-51.0	-53.0	14.8	0.00e+00	0	23	0	1004535808	67	4708
2026-01-10 06:13:34.42	327.94	14.36	-50.6	-52.5	15.1	0.00e+00	0	23	0	1006632960	67	4470
2026-01-10 06:13:35.41	327.80	14.29	-50.5	-52.3	15.1	0.00e+00	0	23	0	1008730112	67	4349
2026-01-10 06:13:36.41	327.66	14.21	-50.3	-52.1	15.2	0.00e+00	0	23	0	1010827264	67	4266
2026-01-10 06:13:37.41	327.51	14.14	-50.3	-52.0	15.3	0.00e+00	0	23	0	1011875840	67	4236
2026-01-10 06:13:38.42	327.37	14.06	-50.2	-52.0	15.1	0.00e+00	0	23	0	1013972992	66	4466
2026-01-10 06:13:39.42	327.23	13.99	-50.3	-52.1	15.1	0.00e+00	0	23	0	1016070144	66	4514
2026-01-10 06:13:40.42	327.08	13.92	-50.2	-52.0	15.2	0.00e+00	0	23	0	1018167296	66	4444
2026-01-10 06:13:41.41	326.95	13.85	-50.3	-52.1	15.1	0.00e+00	0	23	0	1019215872	66	4501
2026-01-10 06:13:42.40	326.81	13.77	-50.5	-52.4	14.9	0.00e+00	0	23	0	1021313024	66	4679
2026-01-10 06:13:43.40	326.67	13.70	-50.7	-52.6	14.8	0.00e+00	0	23	0	1023410176	66	4800
2026-01-10 06:13:44.39	326.53	13.63	-51.1	-53.1	14.7	0.00e+00	0	23	0	1025507328	67	4772
2026-01-10 06:13:45.40	326.39	13.55	-51.3	-53.5	14.5	0.00e+00	0	23	0	1027604480	67	4990
2026-01-10 06:13:46.40	326.25	13.48	-51.7	-53.9	14.5	0.00e+00	0	23	0	1028653056	68	4928
2026-01-10 06:13:47.39	326.12	13.41	-51.8	-54.1	14.6	0.00e+00	0	23	0	1030750208	69	4767
2026-01-10 06:13:48.39	325.98	13.33	-51.8	-54.0	14.6	0.00e+00	0	23	0	1032847360	69	4758
2026-01-10 06:13:49.39	325.85	13.26	-51.9	-54.1	14.5	0.00e+00	0	23	0	1034944512	69	4801
2026-01-10 06:13:50.39	325.71	13.19	-51.7	-53.8	14.7	0.00e+00	0	23	0	1035993088	69	4624
2026-01-10 06:13:51.39	325.58	13.11	-51.3	-53.3	15.0	0.00e+00	0	23	0	1038090240	69	4374
2026-01-10 06:13:52.39	325.44	13.04	-51.0	-53.0	15.0	0.00e+00	0	23	0	1040187392	68	4444
2026-01-10 06:13:53.39	325.31	12.97	-51.0	-52.9	15.0	0.00e+00	0	23	0	1042284544	68	4437
2026-01-10 06:13:54.39	325.18	12.90	-51.0	-52.8	15.1	0.00e+00	0	23	0	1044381696	68	4389
2026-01-10 06:13:55.39	325.05	12.82	-50.8	-52.7	15.1	0.00e+00	0	23	0	1045430272	68	4319
2026-01-10 06:13:56.39	324.92	12.75	-51.0	-53.0	15.0	0.00e+00	0	23	0	1047527424	68	4447
2026-01-10 06:13:57.39	324.79	12.68	-50.7	-52.5	15.2	0.00e+00	0	23	0	1049624576	68	4218
2026-01-10 06:13:58.39	324.66	12.61	-50.9	-52.8	15.1	0.00e+00	0	23	0	1051721728	68	4347
2026-01-10 06:13:59.39	324.53	12.53	-51.0	-52.9	15.0	0.00e+00	0	23	0	1053818880	68	4393
2026-01-10 06:14:00.39	324.40	12.46	-50.9	-52.8	15.1	0.00e+00	0	23	0	1054867456	68	4380
2026-01-10 06:14:01.39	324.28	12.39	-51.0	-52.8	15.0	0.00e+00	0	23	0	1056964608	68	4391
2026-01-10 06:14:02.38	324.15	12.32	-51.0	-52.8	15.0	0.00e+00	0	23	0	1059061760	68	4387
2026-01-10 06:14:03.38	324.02	12.25	-51.0	-52.8	15.1	0.00e+00	0	23	0	1061158912	68	4387
2026-01-10 06:14:04.38	323.90	12.17	-51.0	-52.9	15.0	0.00e+00	0	23	0	1063256064	68	4410
2026-01-10 06:14:05.38	323.77	12.10	-51.2	-53.2	14.9	0.00e+00	0	23	0	1064304640	68	4556
2026-01-10 06:14:06.37	323.65	12.03	-51.0	-53.0	15.0	0.00e+00	0	23	0	1066401792	68	4442
2026-01-10 06:14:07.38	323.53	11.96	-51.1	-53.1	14.9	0.00e+00	0	23	0	1068498944	68	4536
2026-01-10 06:14:08.38	323.40	11.89	-51.3	-53.3	14.8	0.00e+00	0	23	0	1070596096	68	4628
2026-01-10 06:14:09.38	323.28	11.81	-51.3	-53.4	14.7	0.00e+00	0	23	0	1071644672	68	4687
2026-01-10 06:14:10.38	323.16	11.74	-51.4	-53.5	14.6	0.00e+00	0	23	0	1073741824	68	4748
2026-01-10 06:14:11.38	323.04	11.67	-51.6	-53.8	14.6	0.00e+00	0	23	0	1075838976	68	4878
2026-01-10 06:14:12.38	322.92	11.60	-51.7	-53.9	14.4	0.00e+00	0	23	0	1077936128	68	4978
2026-01-10 06:14:13.38	322.80	11.53	-51.4	-53.5	14.7	0.00e+00	0	23	0	1080033280	68	4720
2026-01-10 06:14:14.38	322.68	11.46	-51.7	-53.9	14.4	0.00e+00	0	23	0	1081081856	68	4964
2026-01-10 06:14:15.38	322.56	11.39	-51.6	-53.9	14.5	0.00e+00	0	23	0	1083179008	68	4944
2026-01-10 06:14:16.38	322.44	11.32	-51.7	-53.9	14.5	0.00e+00	0	23	0	1085276160	68	4942
2026-01-10 06:14:17.38	322.32	11.24	-51.8	-54.0	14.4	0.00e+00	0	23	0	1087373312	68	5022
2026-01-10 06:14:18.39	322.21	11.17	-51.9	-54.2	14.4	0.00e+00	0	23	0	1089470464	69	4868
2026-01-10 06:14:19.39	322.09	11.10	-52.1	-54.5	14.3	0.00e+00	0	23	0	1090519040	69	5010
2026-01-10 06:14:20.39	321.97	11.03	-52.2	-54.6	14.2	0.00e+00	0	23	0	1092616192	69	5089
2026-01-10 06:14:21.38	321.86	10.96	-52.6	-55.2	14.0	0.00e+00	0	23	0	1094713344	70	5124
2026-01-10 06:14:22.38	321.75	10.89	-52.4	-54.9	14.2	0.00e+00	0	23	0	1096810496	70	4936
2026-01-10 06:14:23.37	321.63	10.82	-52.4	-54.9	14.1	0.00e+00	0	23	0	1097859072	70	4974
2026-01-10 06:14:24.36	321.52	10.75	-52.3	-54.8	14.2	0.00e+00	0	23	0	1099956224	70	4897
2026-01-10 06:14:25.36	321.41	10.68	-52.3	-54.7	14.3	0.00e+00	0	23	0	1102053376	70	4842
2026-01-10 06:14:26.35	321.30	10.61	-52.3	-54.7	14.3	0.00e+00	0	23	0	1104150528	70	4860
2026-01-10 06:14:27.35	321.18	10.54	-52.0	-54.3	14.5	0.00e+00	0	23	0	1106247680	70	4611
2026-01-10 06:14:28.35	321.07	10.47	-51.8	-54.0	14.7	0.00e+00	0	23	0	1107296256	70	4485
2026-01-10 06:14:29.34	320.96	10.40	-51.7	-53.9	14.8	0.00e+00	0	23	0	1109393408	70	4410
2026-01-10 06:14:30.34	320.85	10.33	-51.6	-53.8	14.7	0.00e+00	0	23	0	1111490560	69	4620
2026-01-10 06:14:31.34	320.74	10.26	-51.5	-53.6	14.8	0.00e+00	0	23	0	1113587712	69	4507
2026-01-10 06:14:32.34	320.63	10.19	-51.3	-53.4	14.9	0.00e+00	0	23	0	1114636288	69	4394
2026-01-10 06:14:33.34	320.53	10.12	-51.6	-53.7	14.7	0.00e+00	0	23	0	1116733440	69	4566
2026-01-10 06:14:34.32	320.42	10.06	-51.5	-53.6	14.8	0.00e+00	0	23	0	1118830592	69	4500
2026-01-10 06:14:35.32	320.31	9.99	-51.6	-53.8	14.7	0.00e+00	0	23	0	1120927744	69	4608
2026-01-10 06:14:36.31	320.21	9.92	-51.7	-53.9	14.6	0.00e+00	0	23	0	1123024896	69	4687
2026-01-10 06:14:37.31	320.10	9.85	-51.9	-54.1	14.5	0.00e+00	0	23	0	1124073472	69	4771
2026-01-10 06:14:38.31	319.99	9.78	-52.1	-54.4	14.2	0.00e+00	0	23	0	1126170624	69	4975
2026-01-10 06:14:39.31	319.89	9.71	-52.2	-54.6	14.2	0.00e+00	0	23	0	1128267776	69	5043
2026-01-10 06:14:40.31	319.78	9.64	-52.5	-55.0	14.1	0.00e+00	0	23	0	1130364928	70	5003
2026-01-10 06:14:41.30	319.68	9.57	-52.2	-54.6	14.3	0.00e+00	0	23	0	1131413504	70	4787
2026-01-10 06:14:42.30	319.58	9.51	-52.4	-54.9	14.2	0.00e+00	0	23	0	1133510656	70	4947
2026-01-10 06:14:43.30	319.47	9.44	-52.4	-54.8	14.2	0.00e+00	0	23	0	1135607808	70	4906
2026-01-10 06:14:44.31	319.37	9.37	-52.3	-54.8	14.2	0.00e+00	0	23	0	1137704960	70	4873
2026-01-10 06:14:45.31	319.27	9.30	-52.4	-54.8	14.2	0.00e+00	0	23	0	1139802112	70	4918
2026-01-10 06:14:46.31	319.16	9.23	-52.2	-54.6	14.4	0.00e+00	0	23	0	1140850688	70	4791
2026-01-10 06:14:47.30	319.06	9.16	-52.1	-54.4	14.5	0.00e+00	0	23	0	1142947840	70	4659
2026-01-10 06:14:48.30	318.96	9.10	-52.0	-54.2	14.6	0.00e+00	0	23	0	1145044992	70	4586
2026-01-10 06:14:49.30	318.86	9.03	-52.0	-54.3	14.5	0.00e+00	0	23	0	1147142144	70	4628
2026-01-10 06:14:50.30	318.76	8.96	-52.0	-54.2	14.6	0.00e+00	0	23	0	1149239296	70	4586
2026-01-10 06:14:51.29	318.66	8.89	-52.0	-54.3	14.5	0.00e+00	0	23	0	1150287872	70	4633
2026-01-10 06:14:52.29	318.56	8.82	-52.0	-54.3	14.5	0.00e+00	0	23	0	1152385024	70	4649
2026-01-10 06:14:53.29	318.47	8.76	-52.2	-54.5	14.3	0.00e+00	0	23	0	1154482176	70	4751
2026-01-10 06:14:54.29	318.37	8.69	-52.3	-54.7	14.2	0.00e+00	0	23	0	1156579328	70	4868
2026-01-10 06:14:55.28	318.27	8.62	-52.4	-54.8	14.2	0.00e+00	0	23	0	1158676480	70	4920
2026-01-10 06:14:56.28	318.17	8.56	-52.4	-54.9	14.1	0.00e+00	0	23	0	1159725056	70	4979
2026-01-10 06:14:57.27	318.08	8.49	-52.5	-55.0	14.0	0.00e+00	0	23	0	1161822208	70	5036
2026-01-10 06:14:58.27	317.98	8.42	-52.5	-55.1	14.0	0.00e+00	0	23	0	1163919360	70	5043
2026-01-10 06:14:59.27	317.89	8.35	-52.7	-55.3	13.8	0.00e+00	0	23	0	1166016512	70	5208
2026-01-10 06:15:00.27	317.79	8.29	-52.8	-55.5	13.7	0.00e+00	0	23	0	1167065088	70	5330
2026-01-10 06:15:01.26	317.70	8.22	-52.9	-55.7	13.6	0.00e+00	0	23	0	1169162240	70	5449
2026-01-10 06:15:02.26	317.60	8.16	-52.9	-55.7	13.7	0.00e+00	0	23	0	1171259392	71	5139
2026-01-10 06:15:03.26	317.51	8.09	-53.1	-55.9	13.6	0.00e+00	0	23	0	1173356544	71	5275
2026-01-10 06:15:04.25	317.41	8.02	-53.2	-56.2	13.4	0.00e+00	0	23	0	1175453696	71	5424
2026-01-10 06:15:05.25	317.32	7.96	-53.2	-56.1	13.4	0.00e+00	0	23	0	1176502272	71	5386
2026-01-10 06:15:06.25	317.23	7.89	-53.3	-56.4	13.3	0.00e+00	0	23	0	1178599424	71	5531
2026-01-10 06:15:07.26	317.14	7.82	-53.5	-56.7	13.2	0.00e+00	0	23	0	1180696576	72	5406
2026-01-10 06:15:08.27	317.04	7.76	-53.5	-56.6	13.2	0.00e+00	0	23	0	1182793728	72	5383
2026-01-10 06:15:09.26	316.95	7.69	-53.4	-56.5	13.3	0.00e+00	0	23	0	1184890880	72	5323
2026-01-10 06:15:10.26	316.86	7.63	-53.5	-56.7	13.2	0.00e+00	0	23	0	1185939456	72	5454
2026-01-10 06:15:11.25	316.77	7.56	-53.5	-56.7	13.2	0.00e+00	0	23	0	1188036608	72	5417
2026-01-10 06:15:12.25	316.68	7.49	-53.4	-56.5	13.3	0.00e+00	0	23	0	1190133760	72	5285
2026-01-10 06:15:13.24	316.59	7.43	-53.3	-56.4	13.4	0.00e+00	0	23	0	1192230912	72	5238
2026-01-10 06:15:14.24	316.50	7.36	-53.4	-56.5	13.3	0.00e+00	0	23	0	1193279488	72	5317
2026-01-10 06:15:15.24	316.42	7.30	-53.3	-56.3	13.5	0.00e+00	0	23	0	1195376640	72	5160
2026-01-10 06:15:16.24	316.33	7.23	-53.2	-56.2	13.5	0.00e+00	0	23	0	1197473792	72	5147
2026-01-10 06:15:17.24	316.24	7.17	-53.3	-56.3	13.4	0.00e+00	0	23	0	1199570944	72	5164
2026-01-10 06:15:18.24	316.15	7.10	-53.3	-56.3	13.4	0.00e+00	0	23	0	1201668096	72	5194
2026-01-10 06:15:19.22	316.07	7.04	-53.3	-56.3	13.4	0.00e+00	0	23	0	1202716672	72	5191
2026-01-10 06:15:20.22	315.98	6.97	-53.3	-56.4	13.4	0.00e+00	0	23	0	1204813824	72	5263
2026-01-10 06:15:21.22	315.89	6.91	-53.3	-56.3	13.4	0.00e+00	0	23	0	1206910976	72	5181
2026-01-10 06:15:22.21	315.81	6.85	-53.4	-56.4	13.3	0.00e+00	0	23	0	1209008128	72	5261
2026-01-10 06:15:23.21	315.72	6.78	-53.5	-56.7	13.1	0.00e+00	0	23	0	1210056704	72	5451
2026-01-10 06:15:24.21	315.64	6.72	-53.5	-56.6	13.2	0.00e+00	0	23	0	1212153856	72	5380
2026-01-10 06:15:25.21	315.55	6.65	-53.6	-56.8	13.1	0.00e+00	0	23	0	1214251008	72	5499
2026-01-10 06:15:26.20	315.47	6.59	-53.7	-57.1	12.8	0.00e+00	0	23	0	1216348160	72	5711
2026-01-10 06:15:27.19	315.38	6.52	-53.9	-57.4	12.6	0.00e+00	0	23	0	1218445312	72	5923
2026-01-10 06:15:28.20	315.30	6.46	-53.8	-57.3	12.8	0.00e+00	0	23	0	1219493888	73	5468
2026-01-10 06:15:29.20	315.22	6.40	-53.9	-57.5	12.7	0.00e+00	0	23	0	1221591040	73	5623
