passes_logs/2026/01/10/R3.2S_Murmansk/R3.2S_Murmansk__20260110_124603_SUOMI_NPP_rec.log

#Pass ID: 20260110_124603_SUOMI NPP
#Satellite: SUOMI NPP
#Configuration: NPP
#almurnet v.1.7.20251203
#Start time: 2026-01-10 12:46:03

#Version: 2.2.20231116
#Station: R3.2S_Murmansk
#Location: 33.079688 lon 68.888172 lat
#TLE: 1 37849U 11061A   26009.81756760  .00000113  00000+0  74747-4 0  9994
#TLE: 2 37849  98.7806 311.9110 0002525  72.5604 287.5848 14.19524046735974

#Time	Az	El	Level	Level2	SNR	BER	BlckErr	Temp	State	Recorded	gain1	gain2
2026-01-10 12:46:03.26	233.83	1.98	-57.0	-73.5	3.8	1.49e+00	0	21	0	0	80	23756
2026-01-10 12:46:04.25	233.92	2.03	-56.8	-73.4	3.8	1.49e+00	0	21	104	0	78	26386
2026-01-10 12:46:05.25	234.01	2.08	-56.9	-73.4	3.8	1.49e+00	0	21	104	0	78	26385
2026-01-10 12:46:06.24	234.10	2.12	-57.1	-73.4	3.8	1.49e+00	0	21	104	0	79	24953
2026-01-10 12:46:07.24	234.19	2.17	-57.2	-73.5	3.8	1.49e+00	0	21	104	0	79	24991
2026-01-10 12:46:08.25	234.29	2.22	-57.3	-73.5	3.8	1.49e+00	0	21	104	0	79	25011
2026-01-10 12:46:09.24	234.38	2.27	-57.3	-73.4	3.8	1.49e+00	0	21	104	0	79	24976
2026-01-10 12:46:10.24	234.47	2.32	-57.3	-73.5	3.8	1.49e+00	0	21	104	0	79	25041
2026-01-10 12:46:11.23	234.56	2.36	-57.3	-73.5	3.8	1.49e+00	0	21	104	0	79	25001
2026-01-10 12:46:12.23	234.66	2.41	-57.3	-73.5	3.8	1.49e+00	0	21	104	0	79	25037
2026-01-10 12:46:13.22	234.75	2.46	-57.3	-73.5	3.8	1.49e+00	0	21	104	0	79	25046
2026-01-10 12:46:14.22	234.84	2.51	-57.4	-73.5	3.8	1.49e+00	0	21	104	0	79	25008
2026-01-10 12:46:15.22	234.94	2.56	-57.4	-73.5	3.8	1.49e+00	0	21	104	0	79	25037
2026-01-10 12:46:16.22	235.03	2.60	-57.4	-73.5	3.8	1.49e+00	0	22	104	0	79	24984
2026-01-10 12:46:17.21	235.13	2.65	-57.5	-73.5	3.8	1.49e+00	0	21	104	0	80	23650
2026-01-10 12:46:18.21	235.22	2.70	-57.5	-73.5	3.8	1.49e+00	0	21	104	0	80	23646
2026-01-10 12:46:19.22	235.32	2.75	-57.5	-73.4	3.8	1.49e+00	0	22	104	0	80	23538
2026-01-10 12:46:20.22	235.41	2.80	-57.5	-73.4	3.8	1.49e+00	0	22	104	0	80	23491
2026-01-10 12:46:21.22	235.51	2.85	-57.5	-73.4	3.8	1.49e+00	0	22	104	0	80	23469
2026-01-10 12:46:22.22	235.61	2.89	-57.5	-73.4	3.8	1.49e+00	0	22	104	0	80	23543
2026-01-10 12:46:23.22	235.70	2.94	-57.5	-73.4	3.8	1.49e+00	0	22	104	0	80	23453
2026-01-10 12:46:24.22	235.80	2.99	-57.5	-73.4	3.8	1.49e+00	0	22	104	0	80	23404
2026-01-10 12:46:25.22	235.90	3.04	-57.5	-73.4	3.8	1.49e+00	0	22	104	0	80	23511
2026-01-10 12:46:26.22	236.00	3.09	-57.5	-73.4	3.8	1.49e+00	0	22	104	0	80	23558
2026-01-10 12:46:27.22	236.09	3.14	-57.5	-73.4	3.8	1.49e+00	0	22	104	0	80	23580
2026-01-10 12:46:28.22	236.19	3.18	-57.5	-73.4	3.8	1.49e+00	0	22	104	0	80	23571
2026-01-10 12:46:29.21	236.29	3.23	-57.5	-73.5	3.8	1.49e+00	0	22	104	0	80	23640
2026-01-10 12:46:30.21	236.39	3.28	-57.5	-73.5	3.8	1.49e+00	0	22	104	0	80	23641
2026-01-10 12:46:31.22	236.49	3.33	-57.5	-73.4	3.8	1.49e+00	0	22	104	0	80	23578
2026-01-10 12:46:32.22	236.59	3.38	-57.5	-73.4	3.8	1.49e+00	0	22	104	0	80	23462
2026-01-10 12:46:33.22	236.69	3.43	-57.5	-73.4	3.8	1.49e+00	0	22	104	0	80	23452
2026-01-10 12:46:34.22	236.79	3.48	-57.5	-73.4	3.8	1.49e+00	0	22	104	0	80	23338
2026-01-10 12:46:35.21	236.89	3.52	-57.5	-73.3	3.8	1.49e+00	0	22	104	0	80	23203
2026-01-10 12:46:36.21	236.99	3.57	-57.5	-73.3	3.8	1.49e+00	0	22	104	0	80	23148
2026-01-10 12:46:37.22	237.09	3.62	-57.5	-73.3	3.8	1.49e+00	0	22	104	0	80	23293
2026-01-10 12:46:38.22	237.19	3.67	-57.5	-73.4	3.8	1.49e+00	0	22	104	0	80	23504
2026-01-10 12:46:39.22	237.30	3.72	-57.5	-73.5	3.8	1.49e+00	0	22	104	0	80	23694
2026-01-10 12:46:40.22	237.40	3.77	-57.5	-73.5	3.8	1.49e+00	0	22	104	0	80	23682
2026-01-10 12:46:41.22	237.50	3.82	-57.5	-73.5	3.8	1.49e+00	0	22	104	0	80	23612
2026-01-10 12:46:42.22	237.60	3.86	-57.5	-73.5	3.8	1.49e+00	0	22	104	0	80	23677
2026-01-10 12:46:43.22	237.71	3.91	-57.5	-73.4	3.8	1.49e+00	0	22	104	0	80	23477
2026-01-10 12:46:44.22	237.81	3.96	-57.5	-73.4	3.8	1.49e+00	0	22	104	0	80	23325
2026-01-10 12:46:45.21	237.91	4.01	-57.5	-73.2	3.8	1.49e+00	0	22	104	0	80	22990
2026-01-10 12:46:46.21	238.02	4.06	-57.5	-73.1	3.8	1.49e+00	0	22	104	0	80	22689
2026-01-10 12:46:47.22	238.12	4.11	-57.5	-73.0	3.8	1.49e+00	0	22	104	0	80	22496
2026-01-10 12:46:48.21	238.23	4.16	-57.5	-73.0	3.8	1.49e+00	0	22	104	0	80	22389
2026-01-10 12:46:49.21	238.33	4.21	-57.5	-72.9	3.8	1.49e+00	0	22	104	0	80	22144
2026-01-10 12:46:50.21	238.44	4.25	-57.5	-72.9	3.8	1.49e+00	0	22	104	0	80	22113
2026-01-10 12:46:51.20	238.54	4.30	-57.5	-72.8	3.8	1.49e+00	0	22	104	0	80	21870
2026-01-10 12:46:52.19	238.65	4.35	-57.5	-72.8	3.8	1.49e+00	0	22	104	0	80	21945
2026-01-10 12:46:53.19	238.75	4.40	-57.5	-73.0	3.8	1.49e+00	0	22	104	0	80	22267
2026-01-10 12:46:54.19	238.86	4.45	-57.5	-73.1	3.8	1.49e+00	0	22	104	0	80	22731
2026-01-10 12:46:55.18	238.97	4.50	-57.5	-73.4	3.8	1.49e+00	0	22	104	0	80	23551
2026-01-10 12:46:56.19	239.07	4.55	-57.5	-73.4	3.8	1.49e+00	0	22	104	0	80	23313
2026-01-10 12:46:57.19	239.18	4.59	-57.5	-72.7	3.8	1.49e+00	0	22	104	0	80	21549
2026-01-10 12:46:58.19	239.29	4.64	-57.4	-71.6	3.8	1.49e+00	0	22	104	0	80	19029
2026-01-10 12:46:59.19	239.40	4.69	-57.3	-70.0	4.2	1.45e+00	0	22	0	0	80	15771
2026-01-10 12:47:00.18	239.51	4.74	-57.3	-69.6	4.3	1.33e+00	51	22	0	0	80	15075
2026-01-10 12:47:01.18	239.62	4.79	-57.3	-69.6	4.3	1.38e+00	0	22	0	0	80	15174
2026-01-10 12:47:02.17	239.72	4.84	-57.3	-69.4	4.3	1.11e+00	74	23	0	2097152	80	14730
2026-01-10 12:47:03.18	239.83	4.89	-57.1	-67.0	5.4	9.18e-01	0	22	0	4194304	80	11161
2026-01-10 12:47:04.17	239.94	4.94	-56.8	-64.5	7.3	1.54e-01	0	22	0	5242880	80	8458
2026-01-10 12:47:05.17	240.05	4.98	-56.6	-63.7	8.0	8.72e-02	0	23	0	7340032	79	8145
2026-01-10 12:47:06.17	240.17	5.03	-55.6	-60.5	10.8	7.07e-03	0	23	0	9437184	77	6295
2026-01-10 12:47:07.17	240.28	5.08	-56.0	-61.7	9.8	1.17e-03	0	22	0	11534336	77	7270
2026-01-10 12:47:08.17	240.39	5.13	-57.4	-72.5	3.8	1.49e+00	0	23	104	11534336	79	22355
2026-01-10 12:47:09.17	240.50	5.18	-55.5	-60.1	11.3	5.74e-04	0	23	0	11534336	77	6015
2026-01-10 12:47:10.16	240.61	5.23	-56.6	-63.5	8.1	1.79e-02	0	22	0	13631488	78	8457
2026-01-10 12:47:11.15	240.72	5.28	-53.7	-56.6	13.4	0.00e+00	0	22	0	15728640	73	5073
2026-01-10 12:47:12.15	240.84	5.33	-53.5	-56.4	13.6	0.00e+00	0	22	0	17825792	73	4949
2026-01-10 12:47:13.14	240.95	5.37	-53.2	-55.9	13.9	0.00e+00	0	23	0	18874368	73	4704
2026-01-10 12:47:14.14	241.06	5.42	-53.2	-55.9	13.8	0.00e+00	0	22	0	20971520	72	4952
2026-01-10 12:47:15.14	241.18	5.47	-53.3	-56.1	13.6	0.00e+00	0	22	0	23068672	72	5083
2026-01-10 12:47:16.14	241.29	5.52	-53.3	-56.0	13.7	0.00e+00	0	23	0	25165824	72	5035
2026-01-10 12:47:17.14	241.41	5.57	-53.3	-56.1	13.6	0.00e+00	0	23	0	27262976	72	5076
2026-01-10 12:47:18.13	241.52	5.62	-53.7	-56.6	13.2	0.00e+00	0	23	0	28311552	72	5402
2026-01-10 12:47:19.13	241.64	5.67	-53.4	-56.2	13.5	0.00e+00	0	22	0	30408704	72	5155
2026-01-10 12:47:20.13	241.75	5.72	-53.1	-55.7	13.9	0.00e+00	0	23	0	32505856	72	4858
2026-01-10 12:47:21.12	241.87	5.76	-53.3	-56.1	13.7	0.00e+00	0	23	0	34603008	72	5058
2026-01-10 12:47:22.11	241.98	5.81	-53.4	-56.2	13.5	0.00e+00	0	22	0	36700160	72	5116
2026-01-10 12:47:23.11	242.10	5.86	-52.8	-55.3	14.1	0.00e+00	0	23	0	37748736	72	4641
2026-01-10 12:47:24.11	242.22	5.91	-52.8	-55.2	14.2	0.00e+00	0	23	0	39845888	72	4574
2026-01-10 12:47:25.10	242.33	5.96	-53.0	-55.6	14.0	0.00e+00	0	23	0	41943040	72	4766
2026-01-10 12:47:26.10	242.45	6.01	-52.8	-55.3	14.2	0.00e+00	0	23	0	44040192	72	4638
2026-01-10 12:47:27.10	242.57	6.06	-53.0	-55.5	14.1	0.00e+00	0	23	0	45088768	72	4734
2026-01-10 12:47:28.10	242.69	6.11	-52.8	-55.3	14.2	0.00e+00	0	23	0	47185920	72	4624
2026-01-10 12:47:29.11	242.81	6.15	-52.6	-55.0	14.2	0.00e+00	0	23	0	49283072	71	4731
2026-01-10 12:47:30.11	242.93	6.20	-53.0	-55.6	13.8	0.00e+00	0	23	0	51380224	71	5074
2026-01-10 12:47:31.11	243.05	6.25	-53.0	-55.6	13.9	0.00e+00	0	23	0	53477376	71	5060
2026-01-10 12:47:32.10	243.17	6.30	-53.1	-55.7	13.8	0.00e+00	0	23	0	54525952	71	5138
2026-01-10 12:47:33.10	243.29	6.35	-52.6	-55.0	14.2	0.00e+00	0	23	0	56623104	71	4722
2026-01-10 12:47:34.10	243.41	6.40	-52.5	-54.8	14.3	0.00e+00	0	23	0	58720256	71	4622
2026-01-10 12:47:35.10	243.53	6.45	-52.5	-54.8	14.4	0.00e+00	0	23	0	60817408	71	4633
2026-01-10 12:47:36.09	243.66	6.49	-52.4	-54.7	14.4	0.00e+00	0	23	0	61865984	71	4590
2026-01-10 12:47:37.09	243.78	6.54	-52.3	-54.6	14.5	0.00e+00	0	23	0	63963136	71	4510
2026-01-10 12:47:38.09	243.90	6.59	-52.2	-54.5	14.6	0.00e+00	0	23	0	66060288	71	4443
2026-01-10 12:47:39.08	244.02	6.64	-52.4	-54.7	14.3	0.00e+00	0	23	0	68157440	70	4816
2026-01-10 12:47:40.08	244.15	6.69	-52.3	-54.5	14.3	0.00e+00	0	23	0	70254592	70	4756
2026-01-10 12:47:41.07	244.27	6.74	-52.3	-54.5	14.4	0.00e+00	0	23	0	71303168	70	4728
2026-01-10 12:47:42.06	244.39	6.78	-52.6	-54.9	14.1	0.00e+00	0	23	0	73400320	70	4972
2026-01-10 12:47:43.06	244.52	6.83	-52.4	-54.7	14.3	0.00e+00	0	23	0	75497472	70	4824
2026-01-10 12:47:44.06	244.64	6.88	-52.6	-55.0	14.1	0.00e+00	0	23	0	77594624	70	5036
2026-01-10 12:47:45.05	244.77	6.93	-53.0	-55.6	13.9	0.00e+00	0	23	0	78643200	71	5042
2026-01-10 12:47:46.04	244.89	6.98	-52.7	-55.1	14.2	0.00e+00	0	23	0	80740352	71	4793
2026-01-10 12:47:47.04	245.02	7.03	-52.4	-54.7	14.5	0.00e+00	0	23	0	82837504	71	4551
2026-01-10 12:47:48.04	245.15	7.07	-52.6	-55.0	14.3	0.00e+00	0	23	0	84934656	71	4712
2026-01-10 12:47:49.04	245.27	7.12	-53.1	-55.6	13.8	0.00e+00	0	23	0	87031808	71	5095
2026-01-10 12:47:50.02	245.40	7.17	-52.8	-55.3	14.0	0.00e+00	0	23	0	88080384	71	4890
2026-01-10 12:47:51.01	245.53	7.22	-52.9	-55.4	14.0	0.00e+00	0	23	0	90177536	71	4956
2026-01-10 12:47:52.00	245.65	7.27	-52.7	-55.1	14.2	0.00e+00	0	23	0	92274688	71	4776
2026-01-10 12:47:53.00	245.78	7.31	-52.6	-54.9	14.3	0.00e+00	0	23	0	94371840	71	4687
2026-01-10 12:47:54.01	245.91	7.36	-52.7	-55.1	14.2	0.00e+00	0	23	0	96468992	71	4796
2026-01-10 12:47:55.00	246.04	7.41	-52.7	-55.1	14.2	0.00e+00	0	23	0	97517568	71	4790
2026-01-10 12:47:56.00	246.17	7.46	-52.7	-55.1	14.2	0.00e+00	0	23	0	99614720	71	4766
2026-01-10 12:47:56.99	246.30	7.51	-52.7	-55.1	14.2	0.00e+00	0	23	0	101711872	71	4797
2026-01-10 12:47:57.99	246.43	7.56	-52.9	-55.4	14.0	0.00e+00	0	23	0	103809024	71	4977
2026-01-10 12:47:58.98	246.56	7.60	-52.8	-55.2	14.1	0.00e+00	0	23	0	104857600	71	4868
2026-01-10 12:47:59.98	246.69	7.65	-52.7	-55.1	14.2	0.00e+00	0	23	0	106954752	71	4779
2026-01-10 12:48:00.98	246.83	7.70	-52.7	-55.1	14.2	0.00e+00	0	23	0	109051904	71	4783
2026-01-10 12:48:01.97	246.96	7.75	-53.0	-55.5	14.0	0.00e+00	0	23	0	111149056	71	4988
2026-01-10 12:48:02.97	247.09	7.79	-53.1	-55.6	13.9	0.00e+00	0	23	0	113246208	71	5082
2026-01-10 12:48:03.98	247.22	7.84	-52.9	-55.3	14.1	0.00e+00	0	23	0	114294784	71	4909
2026-01-10 12:48:04.97	247.36	7.89	-52.7	-55.0	14.3	0.00e+00	0	23	0	116391936	71	4732
2026-01-10 12:48:05.97	247.49	7.94	-52.7	-55.0	14.3	0.00e+00	0	23	0	118489088	71	4728
2026-01-10 12:48:06.97	247.63	7.99	-52.6	-54.8	14.4	0.00e+00	0	23	0	120586240	71	4647
2026-01-10 12:48:07.97	247.76	8.03	-52.6	-54.9	14.3	0.00e+00	0	23	0	122683392	71	4700
2026-01-10 12:48:08.96	247.90	8.08	-52.6	-54.9	14.4	0.00e+00	0	23	0	123731968	71	4658
2026-01-10 12:48:09.94	248.03	8.13	-52.5	-54.8	14.4	0.00e+00	0	23	0	125829120	71	4608
2026-01-10 12:48:10.95	248.17	8.18	-52.3	-54.5	14.6	0.00e+00	0	23	0	127926272	71	4448
2026-01-10 12:48:11.94	248.30	8.22	-52.1	-54.2	14.6	0.00e+00	0	23	0	130023424	70	4578
2026-01-10 12:48:12.93	248.44	8.27	-52.2	-54.4	14.5	0.00e+00	0	23	0	131072000	70	4684
2026-01-10 12:48:13.93	248.58	8.32	-52.2	-54.3	14.6	0.00e+00	0	23	0	133169152	70	4620
2026-01-10 12:48:14.92	248.71	8.36	-52.0	-54.1	14.7	0.00e+00	0	23	0	135266304	70	4501
2026-01-10 12:48:15.91	248.85	8.41	-51.9	-54.0	14.7	0.00e+00	0	23	0	137363456	70	4464
2026-01-10 12:48:16.89	248.99	8.46	-52.1	-54.2	14.6	0.00e+00	0	23	0	138412032	70	4591
2026-01-10 12:48:17.89	249.13	8.50	-52.0	-54.1	14.7	0.00e+00	0	23	0	140509184	70	4525
2026-01-10 12:48:18.88	249.26	8.55	-52.2	-54.4	14.5	0.00e+00	0	23	0	142606336	70	4655
2026-01-10 12:48:19.88	249.40	8.60	-52.0	-54.1	14.7	0.00e+00	0	23	0	144703488	70	4508
2026-01-10 12:48:20.88	249.55	8.65	-52.1	-54.2	14.7	0.00e+00	0	23	0	146800640	70	4551
2026-01-10 12:48:21.87	249.68	8.69	-51.7	-53.6	15.0	0.00e+00	0	23	0	147849216	70	4285
2026-01-10 12:48:22.87	249.83	8.74	-51.7	-53.6	14.8	0.00e+00	0	23	0	149946368	69	4540
2026-01-10 12:48:23.88	249.97	8.79	-51.6	-53.6	14.8	0.00e+00	0	23	0	152043520	69	4518
2026-01-10 12:48:24.87	250.11	8.83	-51.5	-53.4	14.9	0.00e+00	0	23	0	154140672	69	4401
2026-01-10 12:48:25.87	250.25	8.88	-51.4	-53.3	15.0	0.00e+00	0	23	0	156237824	69	4372
2026-01-10 12:48:26.86	250.40	8.93	-51.4	-53.3	15.0	0.00e+00	0	23	0	157286400	69	4362
2026-01-10 12:48:27.87	250.54	8.97	-51.4	-53.3	15.0	0.00e+00	0	23	0	159383552	69	4385
2026-01-10 12:48:28.86	250.68	9.02	-51.4	-53.3	15.0	0.00e+00	0	23	0	161480704	69	4366
2026-01-10 12:48:29.86	250.83	9.07	-51.6	-53.5	14.9	0.00e+00	0	23	0	163577856	69	4484
2026-01-10 12:48:30.86	250.97	9.11	-51.6	-53.6	14.8	0.00e+00	0	23	0	164626432	69	4509
2026-01-10 12:48:31.86	251.12	9.16	-51.9	-53.9	14.6	0.00e+00	0	23	0	166723584	69	4674
2026-01-10 12:48:32.86	251.27	9.20	-51.8	-53.8	14.7	0.00e+00	0	23	0	168820736	69	4650
2026-01-10 12:48:33.86	251.41	9.25	-51.8	-53.8	14.7	0.00e+00	0	23	0	170917888	69	4636
2026-01-10 12:48:34.86	251.56	9.30	-51.8	-53.8	14.7	0.00e+00	0	23	0	173015040	69	4648
2026-01-10 12:48:35.85	251.71	9.34	-51.9	-53.9	14.6	0.00e+00	0	23	0	174063616	69	4692
2026-01-10 12:48:36.85	251.85	9.39	-51.8	-53.8	14.7	0.00e+00	0	23	0	176160768	69	4627
2026-01-10 12:48:37.85	252.00	9.43	-51.8	-53.7	14.7	0.00e+00	0	23	0	178257920	69	4596
2026-01-10 12:48:38.84	252.15	9.48	-51.6	-53.6	14.8	0.00e+00	0	23	0	180355072	69	4509
2026-01-10 12:48:39.84	252.30	9.53	-51.7	-53.6	14.8	0.00e+00	0	23	0	181403648	69	4535
2026-01-10 12:48:40.83	252.45	9.57	-51.7	-53.7	14.8	0.00e+00	0	23	0	183500800	69	4558
2026-01-10 12:48:41.83	252.60	9.62	-51.6	-53.6	14.8	0.00e+00	0	23	0	185597952	69	4515
2026-01-10 12:48:42.84	252.75	9.66	-51.8	-53.8	14.7	0.00e+00	0	23	0	187695104	69	4603
2026-01-10 12:48:43.83	252.90	9.71	-51.8	-53.9	14.7	0.00e+00	0	23	0	189792256	69	4658
2026-01-10 12:48:44.83	253.05	9.75	-51.8	-53.8	14.7	0.00e+00	0	23	0	190840832	69	4648
2026-01-10 12:48:45.83	253.20	9.80	-51.9	-53.9	14.7	0.00e+00	0	23	0	192937984	69	4667
2026-01-10 12:48:46.82	253.35	9.84	-51.9	-54.0	14.6	0.00e+00	0	23	0	195035136	69	4731
2026-01-10 12:48:47.82	253.50	9.89	-52.0	-54.0	14.6	0.00e+00	0	23	0	197132288	69	4737
2026-01-10 12:48:48.82	253.66	9.93	-52.0	-54.0	14.6	0.00e+00	0	23	0	199229440	69	4755
2026-01-10 12:48:49.82	253.81	9.98	-51.9	-53.9	14.6	0.00e+00	0	23	0	200278016	69	4677
2026-01-10 12:48:50.82	253.97	10.02	-51.9	-53.9	14.6	0.00e+00	0	23	0	202375168	69	4693
2026-01-10 12:48:51.81	254.12	10.07	-51.9	-54.0	14.6	0.00e+00	0	23	0	204472320	69	4722
2026-01-10 12:48:52.81	254.27	10.11	-51.8	-53.9	14.7	0.00e+00	0	23	0	206569472	69	4652
2026-01-10 12:48:53.82	254.43	10.16	-51.8	-53.8	14.7	0.00e+00	0	23	0	208666624	69	4650
2026-01-10 12:48:54.81	254.58	10.20	-51.7	-53.7	14.8	0.00e+00	0	23	0	209715200	69	4568
2026-01-10 12:48:55.80	254.74	10.24	-51.7	-53.7	14.7	0.00e+00	0	23	0	211812352	69	4579
2026-01-10 12:48:56.80	254.90	10.29	-51.9	-53.9	14.7	0.00e+00	0	23	0	213909504	69	4684
2026-01-10 12:48:57.80	255.05	10.33	-52.0	-54.0	14.5	0.00e+00	0	23	0	216006656	69	4744
2026-01-10 12:48:58.80	255.21	10.37	-52.0	-54.1	14.5	0.00e+00	0	23	0	217055232	69	4806
2026-01-10 12:48:59.80	255.37	10.42	-51.9	-53.9	14.7	0.00e+00	0	23	0	219152384	69	4677
2026-01-10 12:49:00.79	255.53	10.46	-51.8	-53.8	14.7	0.00e+00	0	23	0	221249536	69	4616
2026-01-10 12:49:01.79	255.69	10.51	-51.7	-53.7	14.8	0.00e+00	0	23	0	223346688	69	4568
2026-01-10 12:49:02.79	255.85	10.55	-51.8	-53.8	14.7	0.00e+00	0	23	0	225443840	69	4635
2026-01-10 12:49:03.78	256.00	10.59	-51.6	-53.6	14.8	0.00e+00	0	23	0	226492416	69	4514
2026-01-10 12:49:04.77	256.16	10.63	-51.8	-53.8	14.7	0.00e+00	0	23	0	228589568	69	4635
2026-01-10 12:49:05.76	256.32	10.68	-51.9	-53.9	14.6	0.00e+00	0	23	0	230686720	69	4693
2026-01-10 12:49:06.76	256.48	10.72	-51.9	-53.9	14.6	0.00e+00	0	23	0	232783872	69	4699
2026-01-10 12:49:07.76	256.65	10.76	-51.9	-54.0	14.6	0.00e+00	0	23	0	233832448	69	4707
2026-01-10 12:49:08.75	256.81	10.80	-52.1	-54.2	14.5	0.00e+00	0	23	0	235929600	69	4848
2026-01-10 12:49:09.74	256.97	10.85	-52.1	-54.3	14.4	0.00e+00	0	23	0	238026752	69	4884
2026-01-10 12:49:10.74	257.13	10.89	-52.1	-54.3	14.4	0.00e+00	0	23	0	240123904	69	4876
2026-01-10 12:49:11.74	257.29	10.93	-51.9	-54.0	14.6	0.00e+00	0	23	0	242221056	69	4717
2026-01-10 12:49:12.73	257.46	10.97	-52.0	-54.0	14.6	0.00e+00	0	23	0	243269632	69	4746
2026-01-10 12:49:13.72	257.62	11.02	-51.9	-53.9	14.7	0.00e+00	0	23	0	245366784	69	4680
2026-01-10 12:49:14.72	257.78	11.06	-51.9	-53.9	14.7	0.00e+00	0	23	0	247463936	69	4685
2026-01-10 12:49:15.72	257.95	11.10	-51.9	-53.9	14.7	0.00e+00	0	23	0	249561088	69	4667
2026-01-10 12:49:16.71	258.11	11.14	-52.0	-54.0	14.6	0.00e+00	0	23	0	250609664	69	4726
2026-01-10 12:49:17.70	258.28	11.18	-51.8	-53.8	14.7	0.00e+00	0	23	0	252706816	69	4648
2026-01-10 12:49:18.69	258.44	11.22	-52.0	-54.0	14.6	0.00e+00	0	23	0	254803968	69	4731
2026-01-10 12:49:19.69	258.61	11.26	-52.2	-54.3	14.4	0.00e+00	0	23	0	256901120	69	4913
2026-01-10 12:49:20.69	258.78	11.30	-52.2	-54.4	14.4	0.00e+00	0	23	0	258998272	69	4939
2026-01-10 12:49:21.69	258.95	11.34	-52.3	-54.5	14.3	0.00e+00	0	23	0	260046848	69	5017
2026-01-10 12:49:22.68	259.11	11.39	-52.2	-54.4	14.4	0.00e+00	0	23	0	262144000	69	4950
2026-01-10 12:49:23.67	259.28	11.43	-52.2	-54.3	14.4	0.00e+00	0	23	0	264241152	69	4908
2026-01-10 12:49:24.67	259.45	11.47	-52.3	-54.4	14.4	0.00e+00	0	23	0	266338304	69	4957
2026-01-10 12:49:25.67	259.62	11.51	-52.2	-54.3	14.5	0.00e+00	0	23	0	267386880	69	4889
2026-01-10 12:49:26.67	259.79	11.55	-52.1	-54.2	14.6	0.00e+00	0	23	0	269484032	69	4825
2026-01-10 12:49:27.66	259.96	11.59	-52.1	-54.2	14.5	0.00e+00	0	23	0	271581184	69	4848
2026-01-10 12:49:28.66	260.13	11.63	-52.1	-54.1	14.6	0.00e+00	0	23	0	273678336	69	4789
2026-01-10 12:49:29.65	260.30	11.66	-52.1	-54.2	14.5	0.00e+00	0	23	0	275775488	69	4836
2026-01-10 12:49:30.65	260.47	11.70	-52.2	-54.3	14.5	0.00e+00	0	23	0	276824064	69	4882
2026-01-10 12:49:31.65	260.65	11.74	-52.2	-54.3	14.4	0.00e+00	0	23	0	278921216	69	4906
2026-01-10 12:49:32.64	260.82	11.78	-52.4	-54.6	14.3	0.00e+00	0	23	0	281018368	69	5044
2026-01-10 12:49:33.64	260.99	11.82	-52.5	-54.7	14.4	0.00e+00	0	23	0	283115520	70	4823
2026-01-10 12:49:34.65	261.17	11.86	-52.5	-54.7	14.4	0.00e+00	0	23	0	285212672	70	4852
2026-01-10 12:49:35.65	261.34	11.90	-52.5	-54.7	14.3	0.00e+00	0	23	0	286261248	70	4815
2026-01-10 12:49:36.65	261.52	11.94	-52.7	-54.9	14.2	0.00e+00	0	23	0	288358400	70	4981
2026-01-10 12:49:37.65	261.69	11.98	-52.5	-54.7	14.4	0.00e+00	0	23	0	290455552	70	4857
2026-01-10 12:49:38.65	261.87	12.01	-52.7	-55.0	14.2	0.00e+00	0	23	0	292552704	70	5001
2026-01-10 12:49:39.64	262.04	12.05	-52.7	-55.0	14.2	0.00e+00	0	23	0	293601280	70	5010
2026-01-10 12:49:40.64	262.22	12.09	-52.8	-55.1	14.2	0.00e+00	0	23	0	295698432	70	5062
2026-01-10 12:49:41.64	262.40	12.13	-52.7	-55.0	14.2	0.00e+00	0	23	0	297795584	70	5018
2026-01-10 12:49:42.64	262.57	12.16	-52.7	-55.0	14.2	0.00e+00	0	23	0	299892736	70	5001
2026-01-10 12:49:43.64	262.75	12.20	-52.8	-55.1	14.2	0.00e+00	0	23	0	301989888	70	5070
2026-01-10 12:49:44.63	262.93	12.24	-52.8	-55.2	14.1	0.00e+00	0	23	0	303038464	70	5111
2026-01-10 12:49:45.63	263.11	12.27	-53.0	-55.4	14.1	0.00e+00	0	23	0	305135616	71	4968
2026-01-10 12:49:46.63	263.29	12.31	-53.1	-55.6	14.0	0.00e+00	0	23	0	307232768	71	5052
2026-01-10 12:49:47.64	263.47	12.35	-53.2	-55.7	13.9	0.00e+00	0	23	0	309329920	71	5123
2026-01-10 12:49:48.63	263.65	12.38	-53.3	-55.8	13.9	0.00e+00	0	23	0	310378496	71	5192
2026-01-10 12:49:49.62	263.83	12.42	-53.3	-55.8	13.9	0.00e+00	0	23	0	312475648	71	5169
2026-01-10 12:49:50.62	264.01	12.45	-53.3	-55.9	13.8	0.00e+00	0	23	0	314572800	71	5258
2026-01-10 12:49:51.61	264.19	12.49	-53.3	-55.8	13.9	0.00e+00	0	23	0	316669952	71	5198
2026-01-10 12:49:52.61	264.37	12.52	-53.2	-55.7	13.9	0.00e+00	0	23	0	318767104	71	5136
2026-01-10 12:49:53.60	264.55	12.56	-53.2	-55.7	13.9	0.00e+00	0	23	0	319815680	71	5111
2026-01-10 12:49:54.60	264.73	12.59	-53.1	-55.5	14.0	0.00e+00	0	23	0	321912832	71	5004
2026-01-10 12:49:55.61	264.92	12.63	-53.1	-55.5	14.1	0.00e+00	0	23	0	324009984	71	4990
2026-01-10 12:49:56.60	265.10	12.66	-53.3	-55.8	13.9	0.00e+00	0	23	0	326107136	71	5177
2026-01-10 12:49:57.60	265.28	12.70	-53.2	-55.6	14.0	0.00e+00	0	23	0	328204288	71	5089
2026-01-10 12:49:58.59	265.46	12.73	-53.3	-55.8	13.9	0.00e+00	0	23	0	329252864	71	5164
2026-01-10 12:49:59.59	265.65	12.77	-53.3	-55.8	13.8	0.00e+00	0	23	0	331350016	71	5206
2026-01-10 12:50:00.59	265.83	12.80	-53.2	-55.7	14.0	0.00e+00	0	23	0	333447168	71	5104
2026-01-10 12:50:01.59	266.02	12.83	-53.2	-55.6	14.0	0.00e+00	0	23	0	335544320	71	5076
2026-01-10 12:50:02.59	266.20	12.87	-53.1	-55.5	14.1	0.00e+00	0	23	0	336592896	71	4987
2026-01-10 12:50:03.59	266.39	12.90	-53.0	-55.4	14.1	0.00e+00	0	23	0	338690048	71	4956
2026-01-10 12:50:04.59	266.58	12.93	-53.1	-55.5	14.0	0.00e+00	0	23	0	340787200	71	5033
2026-01-10 12:50:05.59	266.76	12.96	-53.1	-55.4	14.1	0.00e+00	0	23	0	342884352	71	4983
2026-01-10 12:50:06.58	266.95	13.00	-53.1	-55.5	14.0	0.00e+00	0	23	0	344981504	71	5023
2026-01-10 12:50:07.57	267.14	13.03	-53.2	-55.7	13.9	0.00e+00	0	23	0	346030080	71	5115
2026-01-10 12:50:08.57	267.32	13.06	-53.3	-55.7	13.9	0.00e+00	0	23	0	348127232	71	5153
2026-01-10 12:50:09.56	267.51	13.09	-53.2	-55.7	13.9	0.00e+00	0	23	0	350224384	71	5126
2026-01-10 12:50:10.56	267.70	13.12	-53.3	-55.8	13.9	0.00e+00	0	23	0	352321536	71	5165
2026-01-10 12:50:11.55	267.89	13.15	-53.2	-55.7	13.9	0.00e+00	0	23	0	354418688	71	5151
2026-01-10 12:50:12.55	268.08	13.18	-53.2	-55.6	14.0	0.00e+00	0	23	0	355467264	71	5080
2026-01-10 12:50:13.54	268.27	13.21	-53.1	-55.5	14.1	0.00e+00	0	23	0	357564416	71	4989
2026-01-10 12:50:14.53	268.45	13.24	-53.0	-55.4	14.2	0.00e+00	0	23	0	359661568	71	4950
2026-01-10 12:50:15.53	268.64	13.27	-53.1	-55.5	14.1	0.00e+00	0	23	0	361758720	71	4994
2026-01-10 12:50:16.53	268.84	13.30	-53.1	-55.6	14.1	0.00e+00	0	23	0	362807296	71	5051
2026-01-10 12:50:17.52	269.03	13.33	-53.0	-55.4	14.2	0.00e+00	0	23	0	364904448	71	4945
2026-01-10 12:50:18.51	269.22	13.36	-52.9	-55.2	14.2	0.00e+00	0	23	0	367001600	71	4848
2026-01-10 12:50:19.51	269.41	13.39	-52.8	-55.0	14.4	0.00e+00	0	23	0	369098752	71	4721
2026-01-10 12:50:20.51	269.60	13.42	-52.6	-54.8	14.5	0.00e+00	0	23	0	371195904	71	4607
2026-01-10 12:50:21.51	269.79	13.45	-52.5	-54.6	14.6	0.00e+00	0	23	0	372244480	71	4530
2026-01-10 12:50:22.51	269.99	13.48	-52.4	-54.5	14.6	0.00e+00	0	23	0	374341632	71	4470
2026-01-10 12:50:23.50	270.18	13.50	-52.1	-54.1	14.6	0.00e+00	0	23	0	376438784	70	4544
2026-01-10 12:50:24.50	270.37	13.53	-52.0	-54.0	14.8	0.00e+00	0	23	0	378535936	70	4466
2026-01-10 12:50:25.50	270.57	13.56	-51.8	-53.7	14.9	0.00e+00	0	23	0	379584512	70	4332
2026-01-10 12:50:26.51	270.77	13.59	-51.8	-53.8	14.9	0.00e+00	0	23	0	381681664	70	4342
2026-01-10 12:50:27.51	270.96	13.61	-51.9	-53.9	14.8	0.00e+00	0	23	0	383778816	70	4402
2026-01-10 12:50:28.51	271.16	13.64	-52.0	-53.9	14.8	0.00e+00	0	23	0	385875968	70	4437
2026-01-10 12:50:29.51	271.35	13.67	-51.9	-53.8	14.9	0.00e+00	0	23	0	387973120	70	4363
2026-01-10 12:50:30.51	271.55	13.69	-52.0	-54.0	14.8	0.00e+00	0	23	0	389021696	70	4459
2026-01-10 12:50:31.51	271.74	13.72	-52.0	-54.0	14.8	0.00e+00	0	23	0	391118848	70	4469
2026-01-10 12:50:32.50	271.94	13.74	-52.2	-54.3	14.6	0.00e+00	0	23	0	393216000	70	4609
2026-01-10 12:50:33.51	272.14	13.77	-52.3	-54.4	14.6	0.00e+00	0	23	0	395313152	70	4675
2026-01-10 12:50:34.51	272.34	13.79	-52.2	-54.2	14.7	0.00e+00	0	23	0	397410304	70	4573
2026-01-10 12:50:35.51	272.53	13.82	-52.3	-54.3	14.6	0.00e+00	0	23	0	398458880	70	4651
2026-01-10 12:50:36.50	272.73	13.84	-52.0	-54.0	14.8	0.00e+00	0	23	0	400556032	70	4454
2026-01-10 12:50:37.50	272.93	13.87	-51.7	-53.6	15.0	0.00e+00	0	23	0	402653184	70	4281
2026-01-10 12:50:38.50	273.13	13.89	-51.5	-53.3	15.0	0.00e+00	0	23	0	404750336	69	4371
2026-01-10 12:50:39.50	273.33	13.91	-51.6	-53.5	15.0	0.00e+00	0	23	0	405798912	69	4447
2026-01-10 12:50:40.50	273.53	13.94	-51.5	-53.3	15.0	0.00e+00	0	23	0	407896064	69	4357
2026-01-10 12:50:41.50	273.73	13.96	-51.8	-53.7	14.9	0.00e+00	0	23	0	409993216	69	4558
2026-01-10 12:50:42.50	273.93	13.98	-52.0	-54.0	14.6	0.00e+00	0	23	0	412090368	69	4729
2026-01-10 12:50:43.50	274.13	14.00	-52.1	-54.1	14.6	0.00e+00	0	23	0	414187520	69	4768
2026-01-10 12:50:44.50	274.33	14.03	-52.3	-54.3	14.5	0.00e+00	0	23	0	415236096	69	4914
2026-01-10 12:50:45.49	274.52	14.05	-52.1	-54.1	14.6	0.00e+00	0	23	0	417333248	69	4782
2026-01-10 12:50:46.49	274.73	14.07	-52.2	-54.2	14.5	0.00e+00	0	23	0	419430400	69	4859
2026-01-10 12:50:47.49	274.93	14.09	-51.8	-53.7	14.8	0.00e+00	0	23	0	421527552	69	4593
2026-01-10 12:50:48.49	275.13	14.11	-51.8	-53.7	14.8	0.00e+00	0	23	0	423624704	69	4589
2026-01-10 12:50:49.50	275.33	14.13	-51.9	-53.8	14.8	0.00e+00	0	23	0	424673280	69	4635
2026-01-10 12:50:50.50	275.54	14.15	-52.1	-54.1	14.6	0.00e+00	0	23	0	426770432	69	4780
2026-01-10 12:50:51.49	275.74	14.17	-52.4	-54.5	14.4	0.00e+00	0	23	0	428867584	69	4994
2026-01-10 12:50:52.49	275.94	14.19	-52.6	-54.7	14.3	0.00e+00	0	23	0	430964736	70	4843
2026-01-10 12:50:53.49	276.14	14.21	-52.7	-54.9	14.2	0.00e+00	0	23	0	432013312	70	4973
2026-01-10 12:50:54.49	276.34	14.23	-52.5	-54.6	14.5	0.00e+00	0	23	0	434110464	70	4793
2026-01-10 12:50:55.49	276.55	14.25	-52.4	-54.4	14.6	0.00e+00	0	23	0	436207616	70	4696
2026-01-10 12:50:56.50	276.75	14.27	-52.3	-54.3	14.6	0.00e+00	0	23	0	438304768	70	4613
2026-01-10 12:50:57.50	276.96	14.28	-52.4	-54.4	14.6	0.00e+00	0	23	0	440401920	70	4690
2026-01-10 12:50:58.50	277.16	14.30	-52.5	-54.7	14.4	0.00e+00	0	23	0	441450496	70	4819
2026-01-10 12:50:59.49	277.36	14.32	-53.0	-55.3	14.2	0.00e+00	0	23	0	443547648	71	4925
2026-01-10 12:51:00.48	277.57	14.34	-53.5	-56.0	14.0	0.00e+00	0	23	0	445644800	72	5028
2026-01-10 12:51:01.48	277.77	14.35	-53.8	-56.5	13.6	0.00e+00	0	23	0	447741952	72	5320
2026-01-10 12:51:02.48	277.98	14.37	-53.9	-56.6	13.7	0.00e+00	0	23	0	449839104	73	5062
2026-01-10 12:51:03.48	278.18	14.39	-53.8	-56.5	13.7	0.00e+00	0	23	0	450887680	73	5012
2026-01-10 12:51:04.47	278.39	14.40	-53.4	-55.8	14.2	0.00e+00	0	23	0	452984832	73	4633
2026-01-10 12:51:05.46	278.59	14.42	-53.1	-55.4	14.4	0.00e+00	0	23	0	455081984	72	4652
2026-01-10 12:51:06.45	278.79	14.43	-52.6	-54.6	14.6	0.00e+00	0	23	0	457179136	71	4544
2026-01-10 12:51:07.46	279.00	14.45	-52.4	-54.4	14.8	0.00e+00	0	23	0	458227712	71	4414
2026-01-10 12:51:08.45	279.21	14.46	-52.5	-54.6	14.7	0.00e+00	0	23	0	460324864	71	4531
2026-01-10 12:51:09.44	279.41	14.47	-52.7	-54.8	14.5	0.00e+00	0	23	0	462422016	71	4643
2026-01-10 12:51:10.44	279.62	14.49	-52.8	-55.0	14.4	0.00e+00	0	23	0	464519168	71	4723
2026-01-10 12:51:11.43	279.82	14.50	-53.0	-55.2	14.3	0.00e+00	0	23	0	466616320	71	4855
2026-01-10 12:51:12.43	280.03	14.51	-52.9	-55.1	14.3	0.00e+00	0	23	0	467664896	71	4791
2026-01-10 12:51:13.42	280.23	14.53	-52.7	-54.8	14.5	0.00e+00	0	23	0	469762048	71	4647
2026-01-10 12:51:14.42	280.44	14.54	-52.4	-54.4	14.8	0.00e+00	0	23	0	471859200	71	4416
2026-01-10 12:51:15.43	280.65	14.55	-52.3	-54.3	14.9	0.00e+00	0	23	0	473956352	71	4342
2026-01-10 12:51:16.42	280.86	14.56	-52.1	-54.1	14.8	0.00e+00	0	23	0	475004928	70	4498
2026-01-10 12:51:17.43	281.07	14.57	-52.2	-54.1	14.8	0.00e+00	0	23	0	477102080	70	4543
2026-01-10 12:51:18.42	281.27	14.58	-52.1	-54.1	14.8	0.00e+00	0	23	0	479199232	70	4512
2026-01-10 12:51:19.41	281.48	14.60	-52.2	-54.2	14.7	0.00e+00	0	23	0	481296384	70	4548
2026-01-10 12:51:20.41	281.69	14.61	-52.1	-54.1	14.8	0.00e+00	0	23	0	483393536	70	4512
2026-01-10 12:51:21.40	281.89	14.62	-52.2	-54.2	14.7	0.00e+00	0	23	0	484442112	70	4553
2026-01-10 12:51:22.39	282.10	14.62	-51.9	-53.8	15.0	0.00e+00	0	23	0	486539264	70	4358
2026-01-10 12:51:23.39	282.31	14.63	-51.9	-53.8	15.0	0.00e+00	0	23	0	488636416	70	4358
2026-01-10 12:51:24.38	282.51	14.64	-51.6	-53.4	15.0	0.00e+00	0	23	0	490733568	69	4418
2026-01-10 12:51:25.38	282.72	14.65	-51.7	-53.6	14.9	0.00e+00	0	23	0	491782144	69	4529
2026-01-10 12:51:26.37	282.93	14.66	-51.9	-53.8	14.7	0.00e+00	0	23	0	493879296	69	4643
2026-01-10 12:51:27.36	283.14	14.67	-52.2	-54.2	14.6	0.00e+00	0	23	0	495976448	69	4835
2026-01-10 12:51:28.35	283.34	14.67	-52.4	-54.5	14.4	0.00e+00	0	23	0	498073600	69	5037
2026-01-10 12:51:29.35	283.55	14.68	-52.5	-54.6	14.5	0.00e+00	0	23	0	500170752	70	4791
2026-01-10 12:51:30.35	283.76	14.69	-52.4	-54.5	14.5	0.00e+00	0	23	0	501219328	70	4731
2026-01-10 12:51:31.34	283.97	14.69	-52.1	-54.1	14.7	0.00e+00	0	23	0	503316480	70	4532
2026-01-10 12:51:32.34	284.18	14.70	-52.0	-53.9	14.8	0.00e+00	0	23	0	505413632	70	4435
2026-01-10 12:51:33.33	284.39	14.71	-51.8	-53.7	15.0	0.00e+00	0	23	0	507510784	70	4310
2026-01-10 12:51:34.33	284.60	14.71	-51.9	-53.8	14.9	0.00e+00	0	23	0	509607936	70	4355
2026-01-10 12:51:35.33	284.81	14.72	-52.1	-54.0	14.8	0.00e+00	0	23	0	510656512	70	4477
2026-01-10 12:51:36.33	285.02	14.72	-52.3	-54.4	14.6	0.00e+00	0	23	0	512753664	70	4663
2026-01-10 12:51:37.33	285.23	14.73	-52.4	-54.4	14.6	0.00e+00	0	23	0	514850816	70	4695
2026-01-10 12:51:38.33	285.44	14.73	-52.6	-54.7	14.5	0.00e+00	0	23	0	516947968	70	4841
2026-01-10 12:51:39.33	285.65	14.73	-52.7	-54.8	14.4	0.00e+00	0	23	0	517996544	70	4911
2026-01-10 12:51:40.31	285.85	14.74	-52.7	-54.9	14.3	0.00e+00	0	23	0	520093696	70	4961
2026-01-10 12:51:41.32	286.06	14.74	-52.8	-55.0	14.3	0.00e+00	0	23	0	522190848	70	5005
2026-01-10 12:51:42.31	286.27	14.74	-52.6	-54.7	14.5	0.00e+00	0	23	0	524288000	70	4834
2026-01-10 12:51:43.29	286.48	14.74	-52.7	-54.9	14.3	0.00e+00	0	23	0	526385152	70	4958
2026-01-10 12:51:44.29	286.69	14.75	-52.7	-54.9	14.3	0.00e+00	0	23	0	527433728	70	4971
2026-01-10 12:51:45.28	286.90	14.75	-52.6	-54.8	14.4	0.00e+00	0	23	0	529530880	70	4890
2026-01-10 12:51:46.27	287.10	14.75	-52.5	-54.5	14.6	0.00e+00	0	23	0	531628032	70	4749
2026-01-10 12:51:47.27	287.31	14.75	-52.4	-54.4	14.6	0.00e+00	0	23	0	533725184	70	4677
2026-01-10 12:51:48.26	287.52	14.75	-52.2	-54.2	14.7	0.00e+00	0	23	0	534773760	70	4578
2026-01-10 12:51:49.26	287.73	14.75	-52.2	-54.2	14.7	0.00e+00	0	23	0	536870912	70	4573
2026-01-10 12:51:50.25	287.94	14.75	-52.4	-54.4	14.6	0.00e+00	0	23	0	538968064	70	4679
2026-01-10 12:51:51.24	288.15	14.75	-52.5	-54.5	14.5	0.00e+00	0	23	0	541065216	70	4750
2026-01-10 12:51:52.24	288.36	14.75	-52.7	-54.9	14.4	0.00e+00	0	23	0	543162368	70	4933
2026-01-10 12:51:53.25	288.57	14.75	-52.7	-54.9	14.3	0.00e+00	0	23	0	544210944	70	4967
2026-01-10 12:51:54.23	288.78	14.75	-52.7	-54.8	14.4	0.00e+00	0	23	0	546308096	70	4895
2026-01-10 12:51:55.23	288.99	14.74	-52.6	-54.8	14.4	0.00e+00	0	23	0	548405248	70	4874
2026-01-10 12:51:56.23	289.20	14.74	-52.4	-54.4	14.6	0.00e+00	0	23	0	550502400	70	4663
2026-01-10 12:51:57.22	289.41	14.74	-52.1	-54.0	14.9	0.00e+00	0	23	0	551550976	70	4458
2026-01-10 12:51:58.21	289.61	14.74	-52.0	-53.9	14.9	0.00e+00	0	23	0	553648128	70	4407
2026-01-10 12:51:59.22	289.83	14.73	-52.0	-53.9	14.9	0.00e+00	0	23	0	555745280	70	4431
2026-01-10 12:52:00.21	290.03	14.73	-52.2	-54.1	14.8	0.00e+00	0	23	0	557842432	70	4535
2026-01-10 12:52:01.21	290.24	14.72	-52.3	-54.4	14.6	0.00e+00	0	23	0	559939584	70	4661
2026-01-10 12:52:02.19	290.45	14.72	-52.3	-54.3	14.7	0.00e+00	0	23	0	560988160	70	4602
2026-01-10 12:52:03.20	290.66	14.71	-52.2	-54.2	14.7	0.00e+00	0	23	0	563085312	70	4573
2026-01-10 12:52:04.19	290.87	14.71	-52.1	-54.1	14.8	0.00e+00	0	23	0	565182464	70	4520
2026-01-10 12:52:05.19	291.08	14.70	-52.0	-54.0	14.9	0.00e+00	0	23	0	567279616	70	4444
2026-01-10 12:52:06.19	291.29	14.70	-51.8	-53.6	15.1	0.00e+00	0	23	0	568328192	70	4266
2026-01-10 12:52:07.19	291.50	14.69	-51.7	-53.6	15.1	0.00e+00	0	23	0	570425344	70	4248
2026-01-10 12:52:08.19	291.71	14.69	-51.7	-53.5	15.0	0.00e+00	0	23	0	572522496	69	4471
2026-01-10 12:52:09.18	291.91	14.68	-51.8	-53.6	14.9	0.00e+00	0	23	0	574619648	69	4538
2026-01-10 12:52:10.19	292.12	14.67	-51.9	-53.8	14.8	0.00e+00	0	23	0	576716800	69	4620
2026-01-10 12:52:11.19	292.33	14.66	-51.9	-53.8	14.8	0.00e+00	0	23	0	577765376	69	4644
2026-01-10 12:52:12.19	292.54	14.65	-51.8	-53.8	14.8	0.00e+00	0	23	0	579862528	69	4628
2026-01-10 12:52:13.19	292.75	14.65	-51.6	-53.5	15.0	0.00e+00	0	23	0	581959680	69	4486
2026-01-10 12:52:14.18	292.96	14.64	-51.3	-53.3	15.2	0.00e+00	0	23	0	584056832	69	4361
2026-01-10 12:52:15.18	293.16	14.63	-50.4	-53.1	15.3	0.00e+00	0	23	0	586153984	67	4763
2026-01-10 12:52:16.17	293.37	14.62	-50.2	-52.9	15.4	0.00e+00	0	23	0	587202560	67	4659
2026-01-10 12:52:17.17	293.58	14.61	-50.4	-52.7	15.3	0.00e+00	0	23	0	589299712	67	4573
2026-01-10 12:52:18.16	293.79	14.60	-50.7	-52.6	15.1	0.00e+00	0	23	0	591396864	67	4544
2026-01-10 12:52:19.15	293.99	14.59	-51.1	-52.8	14.9	0.00e+00	0	23	0	593494016	67	4622
2026-01-10 12:52:20.15	294.20	14.58	-51.3	-53.1	14.8	0.00e+00	0	23	0	594542592	67	4769
2026-01-10 12:52:21.16	294.41	14.57	-51.3	-53.1	14.8	0.00e+00	0	23	0	596639744	67	4814
2026-01-10 12:52:22.15	294.61	14.56	-51.6	-53.4	14.8	0.00e+00	0	23	0	598736896	68	4676
2026-01-10 12:52:23.13	294.82	14.54	-51.6	-53.5	14.8	0.00e+00	0	23	0	600834048	68	4718
2026-01-10 12:52:24.12	295.02	14.53	-51.7	-53.6	14.8	0.00e+00	0	23	0	602931200	68	4770
2026-01-10 12:52:25.12	295.23	14.52	-51.8	-53.7	14.7	0.00e+00	0	23	0	603979776	68	4869
2026-01-10 12:52:26.13	295.44	14.51	-51.8	-53.7	14.7	0.00e+00	0	23	0	606076928	68	4841
2026-01-10 12:52:27.12	295.64	14.49	-51.7	-53.6	14.8	0.00e+00	0	23	0	608174080	68	4762
2026-01-10 12:52:28.12	295.85	14.48	-51.6	-53.4	14.8	0.00e+00	0	23	0	610271232	68	4697
2026-01-10 12:52:29.12	296.06	14.47	-51.8	-53.7	14.7	0.00e+00	0	23	0	611319808	68	4818
2026-01-10 12:52:30.12	296.26	14.45	-51.6	-53.4	14.8	0.00e+00	0	23	0	613416960	68	4702
2026-01-10 12:52:31.12	296.47	14.44	-51.7	-53.5	14.8	0.00e+00	0	23	0	615514112	68	4758
2026-01-10 12:52:32.11	296.67	14.42	-51.7	-53.6	14.7	0.00e+00	0	23	0	617611264	68	4777
2026-01-10 12:52:33.11	296.88	14.41	-51.6	-53.5	14.7	0.00e+00	0	23	0	619708416	68	4735
2026-01-10 12:52:34.11	297.08	14.39	-51.7	-53.6	14.7	0.00e+00	0	23	0	620756992	68	4792
2026-01-10 12:52:35.10	297.29	14.38	-51.8	-53.7	14.7	0.00e+00	0	23	0	622854144	68	4843
2026-01-10 12:52:36.09	297.49	14.36	-51.8	-53.7	14.7	0.00e+00	0	23	0	624951296	68	4827
2026-01-10 12:52:37.09	297.69	14.34	-51.8	-53.8	14.7	0.00e+00	0	23	0	627048448	69	4606
2026-01-10 12:52:38.09	297.90	14.33	-52.0	-54.0	14.7	0.00e+00	0	23	0	628097024	69	4726
2026-01-10 12:52:39.08	298.10	14.31	-52.0	-54.0	14.7	0.00e+00	0	23	0	630194176	69	4740
2026-01-10 12:52:40.08	298.30	14.29	-51.9	-53.9	14.7	0.00e+00	0	23	0	632291328	69	4679
2026-01-10 12:52:41.08	298.51	14.28	-51.8	-53.7	14.8	0.00e+00	0	23	0	634388480	69	4589
2026-01-10 12:52:42.08	298.71	14.26	-51.6	-53.5	14.9	0.00e+00	0	23	0	636485632	69	4467
2026-01-10 12:52:43.07	298.91	14.24	-51.6	-53.5	15.0	0.00e+00	0	23	0	637534208	69	4449
2026-01-10 12:52:44.07	299.11	14.22	-51.5	-53.3	15.0	0.00e+00	0	23	0	639631360	69	4375
2026-01-10 12:52:45.07	299.32	14.20	-51.5	-53.3	15.0	0.00e+00	0	23	0	641728512	69	4348
2026-01-10 12:52:46.05	299.52	14.18	-51.4	-53.2	15.1	0.00e+00	0	23	0	643825664	69	4314
2026-01-10 12:52:47.05	299.72	14.16	-51.4	-53.1	15.1	0.00e+00	0	23	0	644874240	69	4279
2026-01-10 12:52:48.04	299.92	14.14	-51.2	-53.0	15.2	0.00e+00	0	23	0	646971392	69	4202
2026-01-10 12:52:49.04	300.12	14.12	-51.0	-52.6	15.2	0.00e+00	0	23	0	649068544	68	4288
2026-01-10 12:52:50.04	300.32	14.10	-50.8	-52.4	15.3	0.00e+00	0	23	0	651165696	68	4184
2026-01-10 12:52:51.03	300.52	14.08	-50.7	-52.3	15.4	0.00e+00	0	23	0	653262848	68	4142
2026-01-10 12:52:52.03	300.72	14.06	-50.7	-52.4	15.4	0.00e+00	0	23	0	654311424	68	4148
2026-01-10 12:52:53.02	300.92	14.04	-50.6	-52.2	15.2	0.00e+00	0	23	0	656408576	67	4308
2026-01-10 12:52:54.02	301.12	14.02	-50.6	-52.2	15.2	0.00e+00	0	23	0	658505728	67	4310
2026-01-10 12:52:55.02	301.32	14.00	-50.6	-52.3	15.2	0.00e+00	0	23	0	660602880	67	4342
2026-01-10 12:52:56.02	301.52	13.97	-50.5	-52.1	15.3	0.00e+00	0	23	0	662700032	67	4270
2026-01-10 12:52:57.03	301.72	13.95	-50.3	-51.9	15.4	0.00e+00	0	23	0	663748608	67	4172
2026-01-10 12:52:58.03	301.92	13.93	-50.4	-52.0	15.3	0.00e+00	0	23	0	665845760	67	4229
2026-01-10 12:52:59.03	302.12	13.90	-50.3	-51.9	15.4	0.00e+00	0	23	0	667942912	67	4158
2026-01-10 12:53:00.02	302.31	13.88	-50.4	-52.0	15.3	0.00e+00	0	23	0	670040064	67	4241
2026-01-10 12:53:01.02	302.51	13.86	-50.6	-52.3	15.1	0.00e+00	0	23	0	672137216	67	4375
2026-01-10 12:53:02.01	302.71	13.83	-50.7	-52.4	15.1	0.00e+00	0	23	0	673185792	67	4393
2026-01-10 12:53:03.01	302.91	13.81	-50.8	-52.6	15.0	0.00e+00	0	23	0	675282944	67	4496
2026-01-10 12:53:04.00	303.10	13.78	-50.8	-52.6	15.0	0.00e+00	0	23	0	677380096	67	4499
2026-01-10 12:53:05.00	303.30	13.76	-51.1	-52.8	14.9	0.00e+00	0	23	0	679477248	67	4628
2026-01-10 12:53:06.00	303.50	13.73	-51.1	-52.9	14.9	0.00e+00	0	23	0	680525824	67	4652
2026-01-10 12:53:06.99	303.69	13.71	-51.2	-53.0	14.8	0.00e+00	0	23	0	682622976	67	4739
2026-01-10 12:53:07.99	303.89	13.68	-51.6	-53.4	14.8	0.00e+00	0	23	0	684720128	68	4682
2026-01-10 12:53:08.99	304.08	13.66	-51.5	-53.3	14.9	0.00e+00	0	23	0	686817280	68	4629
2026-01-10 12:53:09.98	304.27	13.63	-51.5	-53.3	14.8	0.00e+00	0	23	0	688914432	68	4649
2026-01-10 12:53:10.98	304.47	13.60	-51.5	-53.4	14.9	0.00e+00	0	23	0	689963008	68	4667
2026-01-10 12:53:11.97	304.66	13.58	-51.4	-53.1	15.0	0.00e+00	0	23	0	692060160	68	4545
2026-01-10 12:53:12.97	304.86	13.55	-51.3	-53.0	15.0	0.00e+00	0	23	0	694157312	68	4492
2026-01-10 12:53:13.96	305.05	13.52	-51.1	-52.8	15.1	0.00e+00	0	23	0	696254464	68	4383
2026-01-10 12:53:14.97	305.24	13.49	-50.9	-52.6	15.2	0.00e+00	0	23	0	697303040	68	4274
2026-01-10 12:53:15.96	305.43	13.47	-50.9	-52.6	15.2	0.00e+00	0	23	0	699400192	68	4281
2026-01-10 12:53:16.94	305.62	13.44	-50.9	-52.5	15.2	0.00e+00	0	23	0	701497344	68	4230
2026-01-10 12:53:17.94	305.82	13.41	-50.8	-52.4	15.3	0.00e+00	0	23	0	703594496	68	4169
2026-01-10 12:53:18.94	306.01	13.38	-50.5	-52.1	15.2	0.00e+00	0	23	0	705691648	67	4278
2026-01-10 12:53:19.93	306.20	13.35	-50.4	-52.0	15.3	0.00e+00	0	23	0	706740224	67	4197
2026-01-10 12:53:20.93	306.39	13.32	-50.4	-52.0	15.3	0.00e+00	0	23	0	708837376	67	4234
2026-01-10 12:53:21.93	306.58	13.29	-50.3	-51.8	15.2	0.00e+00	0	23	0	710934528	66	4387
2026-01-10 12:53:22.93	306.77	13.27	-50.2	-51.8	15.2	0.00e+00	0	23	0	713031680	66	4359
2026-01-10 12:53:23.92	306.96	13.24	-50.3	-51.9	15.2	0.00e+00	0	23	0	714080256	66	4413
2026-01-10 12:53:24.93	307.15	13.20	-50.3	-51.9	15.1	0.00e+00	0	23	0	716177408	66	4403
2026-01-10 12:53:25.92	307.34	13.17	-50.3	-51.9	15.2	0.00e+00	0	23	0	718274560	66	4424
2026-01-10 12:53:26.92	307.53	13.14	-50.4	-52.0	15.1	0.00e+00	0	23	0	720371712	66	4457
2026-01-10 12:53:27.91	307.71	13.11	-50.4	-52.0	15.1	0.00e+00	0	23	0	722468864	66	4474
2026-01-10 12:53:28.91	307.90	13.08	-50.4	-52.1	15.1	0.00e+00	0	23	0	723517440	66	4498
2026-01-10 12:53:29.91	308.09	13.05	-50.4	-52.1	15.1	0.00e+00	0	23	0	725614592	66	4514
2026-01-10 12:53:30.91	308.28	13.02	-50.5	-52.2	15.1	0.00e+00	0	23	0	727711744	66	4573
2026-01-10 12:53:31.91	308.46	12.99	-50.7	-52.4	15.0	0.00e+00	0	23	0	729808896	66	4656
2026-01-10 12:53:32.91	308.65	12.95	-50.7	-52.4	14.9	0.00e+00	0	23	0	731906048	66	4683
2026-01-10 12:53:33.91	308.84	12.92	-50.9	-52.6	15.0	0.00e+00	0	23	0	732954624	67	4521
2026-01-10 12:53:34.90	309.02	12.89	-51.1	-53.0	14.8	0.00e+00	0	23	0	735051776	67	4707
2026-01-10 12:53:35.91	309.21	12.86	-51.1	-52.9	14.9	0.00e+00	0	23	0	737148928	67	4686
2026-01-10 12:53:36.90	309.39	12.82	-51.1	-52.8	14.9	0.00e+00	0	23	0	739246080	67	4648
2026-01-10 12:53:37.90	309.58	12.79	-51.0	-52.8	14.9	0.00e+00	0	23	0	740294656	67	4599
2026-01-10 12:53:38.89	309.76	12.76	-50.8	-52.5	15.1	0.00e+00	0	23	0	742391808	67	4472
2026-01-10 12:53:39.89	309.94	12.72	-50.8	-52.5	15.0	0.00e+00	0	23	0	744488960	67	4461
2026-01-10 12:53:40.89	310.13	12.69	-50.6	-52.3	15.2	0.00e+00	0	23	0	746586112	67	4372
2026-01-10 12:53:41.89	310.31	12.66	-50.6	-52.3	15.1	0.00e+00	0	23	0	748683264	67	4380
2026-01-10 12:53:42.89	310.49	12.62	-50.8	-52.5	15.0	0.00e+00	0	23	0	749731840	67	4488
2026-01-10 12:53:43.89	310.68	12.59	-50.9	-52.6	14.9	0.00e+00	0	23	0	751828992	67	4530
2026-01-10 12:53:44.88	310.86	12.55	-50.9	-52.6	15.0	0.00e+00	0	23	0	753926144	67	4524
2026-01-10 12:53:45.87	311.03	12.52	-51.0	-52.7	15.0	0.00e+00	0	23	0	756023296	67	4585
2026-01-10 12:53:46.87	311.22	12.48	-50.9	-52.7	14.9	0.00e+00	0	23	0	758120448	67	4553
2026-01-10 12:53:47.87	311.40	12.45	-50.8	-52.5	15.0	0.00e+00	0	23	0	759169024	67	4464
2026-01-10 12:53:48.87	311.58	12.41	-50.7	-52.4	15.1	0.00e+00	0	23	0	761266176	67	4422
2026-01-10 12:53:49.86	311.75	12.38	-50.9	-52.6	14.9	0.00e+00	0	23	0	763363328	67	4545
2026-01-10 12:53:50.87	311.94	12.34	-50.9	-52.7	14.9	0.00e+00	0	23	0	765460480	67	4559
2026-01-10 12:53:51.86	312.11	12.30	-51.1	-53.0	14.8	0.00e+00	0	23	0	766509056	67	4710
2026-01-10 12:53:52.86	312.29	12.27	-51.2	-53.1	14.7	0.00e+00	0	23	0	768606208	67	4760
2026-01-10 12:53:53.86	312.47	12.23	-51.6	-53.5	14.8	0.00e+00	0	23	0	770703360	68	4711
2026-01-10 12:53:54.85	312.64	12.19	-51.7	-53.6	14.6	0.00e+00	0	23	0	772800512	68	4811
2026-01-10 12:53:55.85	312.82	12.16	-51.8	-53.8	14.6	0.00e+00	0	23	0	774897664	68	4883
2026-01-10 12:53:56.85	313.00	12.12	-51.6	-53.6	14.6	0.00e+00	0	23	0	775946240	68	4777
2026-01-10 12:53:57.85	313.17	12.08	-51.8	-53.7	14.6	0.00e+00	0	23	0	778043392	68	4858
2026-01-10 12:53:58.84	313.35	12.05	-51.8	-53.7	14.6	0.00e+00	0	23	0	780140544	68	4870
2026-01-10 12:53:59.84	313.52	12.01	-51.6	-53.6	14.7	0.00e+00	0	23	0	782237696	68	4767
2026-01-10 12:54:00.85	313.70	11.97	-51.7	-53.7	14.6	0.00e+00	0	23	0	783286272	68	4819
2026-01-10 12:54:01.85	313.88	11.93	-51.6	-53.6	14.7	0.00e+00	0	23	0	785383424	68	4767
2026-01-10 12:54:02.85	314.05	11.89	-51.6	-53.5	14.7	0.00e+00	0	23	0	787480576	68	4745
2026-01-10 12:54:03.85	314.22	11.85	-51.8	-53.7	14.7	0.00e+00	0	23	0	789577728	68	4859
2026-01-10 12:54:04.85	314.40	11.82	-52.1	-54.1	14.5	0.00e+00	0	23	0	791674880	69	4800
2026-01-10 12:54:05.84	314.57	11.78	-52.2	-54.2	14.5	0.00e+00	0	23	0	792723456	69	4861
2026-01-10 12:54:06.84	314.74	11.74	-52.5	-54.7	14.3	0.00e+00	0	23	0	794820608	70	4822
2026-01-10 12:54:07.84	314.91	11.70	-52.6	-54.8	14.3	0.00e+00	0	23	0	796917760	70	4912
2026-01-10 12:54:08.83	315.08	11.66	-52.7	-55.0	14.2	0.00e+00	0	23	0	799014912	70	4991
2026-01-10 12:54:09.83	315.25	11.62	-52.8	-55.1	14.1	0.00e+00	0	23	0	801112064	70	5098
2026-01-10 12:54:10.82	315.42	11.58	-52.8	-55.1	14.3	0.00e+00	0	23	0	802160640	71	4762
2026-01-10 12:54:11.82	315.59	11.54	-52.7	-54.9	14.4	0.00e+00	0	23	0	804257792	71	4691
2026-01-10 12:54:12.81	315.76	11.50	-52.6	-54.8	14.5	0.00e+00	0	23	0	806354944	71	4625
2026-01-10 12:54:13.81	315.93	11.46	-52.7	-55.0	14.3	0.00e+00	0	23	0	808452096	71	4727
2026-01-10 12:54:14.81	316.10	11.42	-52.8	-55.1	14.3	0.00e+00	0	23	0	809500672	71	4760
2026-01-10 12:54:15.80	316.26	11.38	-52.8	-55.2	14.2	0.00e+00	0	23	0	811597824	71	4827
2026-01-10 12:54:16.78	316.43	11.34	-52.9	-55.2	14.2	0.00e+00	0	23	0	813694976	71	4869
2026-01-10 12:54:17.78	316.60	11.30	-52.9	-55.3	14.1	0.00e+00	0	23	0	815792128	71	4897
2026-01-10 12:54:18.77	316.76	11.26	-52.8	-55.2	14.2	0.00e+00	0	23	0	817889280	71	4818
2026-01-10 12:54:19.77	316.93	11.22	-52.8	-55.1	14.2	0.00e+00	0	23	0	818937856	71	4787
2026-01-10 12:54:20.76	317.09	11.18	-52.7	-54.9	14.4	0.00e+00	0	23	0	821035008	71	4695
2026-01-10 12:54:21.76	317.26	11.14	-52.5	-54.7	14.5	0.00e+00	0	23	0	823132160	71	4572
2026-01-10 12:54:22.75	317.42	11.10	-52.3	-54.3	14.8	0.00e+00	0	23	0	825229312	71	4390
2026-01-10 12:54:23.75	317.59	11.06	-52.1	-54.2	14.6	0.00e+00	0	23	0	826277888	70	4572
2026-01-10 12:54:24.74	317.75	11.02	-52.1	-54.2	14.7	0.00e+00	0	23	0	828375040	70	4560
2026-01-10 12:54:25.73	317.91	10.97	-52.3	-54.3	14.5	0.00e+00	0	23	0	830472192	70	4647
2026-01-10 12:54:26.73	318.07	10.93	-52.5	-54.7	14.3	0.00e+00	0	23	0	832569344	70	4858
2026-01-10 12:54:27.73	318.24	10.89	-52.8	-55.1	14.1	0.00e+00	0	23	0	834666496	70	5069
2026-01-10 12:54:28.71	318.40	10.85	-52.9	-55.3	14.1	0.00e+00	0	23	0	835715072	71	4879
2026-01-10 12:54:29.71	318.56	10.81	-53.1	-55.6	13.9	0.00e+00	0	23	0	837812224	71	5065
2026-01-10 12:54:30.71	318.72	10.76	-53.2	-55.8	13.9	0.00e+00	0	23	0	839909376	71	5162
2026-01-10 12:54:31.70	318.88	10.72	-53.2	-55.7	13.9	0.00e+00	0	23	0	842006528	71	5140
2026-01-10 12:54:32.69	319.04	10.68	-53.2	-55.8	13.9	0.00e+00	0	23	0	843055104	71	5170
2026-01-10 12:54:33.69	319.20	10.64	-53.1	-55.6	13.9	0.00e+00	0	23	0	845152256	71	5095
2026-01-10 12:54:34.70	319.36	10.59	-53.3	-55.8	13.8	0.00e+00	0	23	0	847249408	71	5208
2026-01-10 12:54:35.69	319.52	10.55	-53.2	-55.7	13.9	0.00e+00	0	23	0	849346560	71	5127
2026-01-10 12:54:36.69	319.68	10.51	-53.3	-55.9	13.8	0.00e+00	0	23	0	851443712	71	5230
2026-01-10 12:54:37.69	319.83	10.46	-53.2	-55.8	13.8	0.00e+00	0	23	0	852492288	71	5177
2026-01-10 12:54:38.68	319.99	10.42	-53.2	-55.7	13.9	0.00e+00	0	23	0	854589440	71	5159
2026-01-10 12:54:39.68	320.15	10.38	-53.1	-55.6	13.9	0.00e+00	0	23	0	856686592	71	5087
2026-01-10 12:54:40.68	320.31	10.33	-52.9	-55.3	14.1	0.00e+00	0	23	0	858783744	71	4898
2026-01-10 12:54:41.69	320.46	10.29	-52.8	-55.1	14.2	0.00e+00	0	23	0	860880896	71	4767
2026-01-10 12:54:42.68	320.62	10.25	-52.9	-55.3	14.0	0.00e+00	0	23	0	861929472	71	4878
2026-01-10 12:54:43.68	320.77	10.20	-52.8	-55.1	14.3	0.00e+00	0	23	0	864026624	71	4782
2026-01-10 12:54:44.67	320.93	10.16	-52.9	-55.3	14.1	0.00e+00	0	23	0	866123776	71	4924
2026-01-10 12:54:45.66	321.08	10.12	-52.9	-55.3	14.1	0.00e+00	0	23	0	868220928	71	4891
2026-01-10 12:54:46.66	321.24	10.07	-53.0	-55.5	14.0	0.00e+00	0	23	0	869269504	71	5022
2026-01-10 12:54:47.66	321.39	10.03	-53.0	-55.5	14.0	0.00e+00	0	23	0	871366656	71	5005
2026-01-10 12:54:48.65	321.54	9.98	-53.1	-55.5	13.9	0.00e+00	0	23	0	873463808	71	5040
2026-01-10 12:54:49.65	321.69	9.94	-52.9	-55.3	14.1	0.00e+00	0	23	0	875560960	71	4897
2026-01-10 12:54:50.65	321.85	9.89	-52.9	-55.2	14.1	0.00e+00	0	23	0	877658112	71	4862
2026-01-10 12:54:51.64	322.00	9.85	-52.6	-54.8	14.4	0.00e+00	0	23	0	878706688	71	4624
2026-01-10 12:54:52.65	322.15	9.80	-52.4	-54.6	14.5	0.00e+00	0	23	0	880803840	71	4535
2026-01-10 12:54:53.64	322.30	9.76	-52.3	-54.5	14.6	0.00e+00	0	23	0	882900992	71	4469
2026-01-10 12:54:54.64	322.45	9.71	-52.0	-54.0	14.7	0.00e+00	0	23	0	884998144	70	4464
2026-01-10 12:54:55.63	322.60	9.67	-52.0	-54.1	14.7	0.00e+00	0	23	0	886046720	70	4520
2026-01-10 12:54:56.63	322.75	9.63	-52.1	-54.2	14.6	0.00e+00	0	23	0	888143872	70	4557
2026-01-10 12:54:57.63	322.90	9.58	-52.3	-54.4	14.5	0.00e+00	0	23	0	890241024	70	4683
2026-01-10 12:54:58.63	323.05	9.53	-52.4	-54.7	14.3	0.00e+00	0	23	0	892338176	70	4822
2026-01-10 12:54:59.63	323.20	9.49	-52.7	-55.1	14.1	0.00e+00	0	23	0	894435328	70	5082
2026-01-10 12:55:00.62	323.34	9.44	-52.9	-55.4	13.9	0.00e+00	0	23	0	895483904	70	5238
2026-01-10 12:55:01.62	323.49	9.40	-53.1	-55.7	13.8	0.00e+00	0	23	0	897581056	71	5120
2026-01-10 12:55:02.61	323.64	9.35	-53.0	-55.5	14.0	0.00e+00	0	23	0	899678208	71	4985
2026-01-10 12:55:03.62	323.78	9.31	-53.1	-55.6	13.9	0.00e+00	0	23	0	901775360	71	5053
2026-01-10 12:55:04.62	323.93	9.26	-53.2	-55.8	13.7	0.00e+00	0	23	0	903872512	71	5197
2026-01-10 12:55:05.61	324.07	9.22	-53.0	-55.6	13.9	0.00e+00	0	23	0	904921088	71	5050
2026-01-10 12:55:06.61	324.22	9.17	-53.0	-55.6	13.9	0.00e+00	0	23	0	907018240	71	5055
2026-01-10 12:55:07.60	324.36	9.12	-52.8	-55.3	14.1	0.00e+00	0	23	0	909115392	71	4885
2026-01-10 12:55:08.61	324.51	9.08	-52.7	-55.0	14.2	0.00e+00	0	23	0	911212544	71	4738
2026-01-10 12:55:09.60	324.65	9.03	-52.7	-55.1	14.1	0.00e+00	0	23	0	912261120	71	4799
2026-01-10 12:55:10.60	324.80	8.99	-52.5	-54.8	14.4	0.00e+00	0	23	0	914358272	71	4625
2026-01-10 12:55:11.60	324.94	8.94	-52.5	-54.7	14.4	0.00e+00	0	23	0	916455424	71	4588
2026-01-10 12:55:12.60	325.08	8.89	-52.6	-54.9	14.3	0.00e+00	0	23	0	918552576	71	4669
2026-01-10 12:55:13.59	325.22	8.85	-52.5	-54.7	14.4	0.00e+00	0	23	0	920649728	71	4573
2026-01-10 12:55:14.58	325.36	8.80	-52.5	-54.7	14.4	0.00e+00	0	23	0	921698304	71	4569
2026-01-10 12:55:15.58	325.50	8.75	-52.3	-54.5	14.5	0.00e+00	0	23	0	923795456	71	4493
2026-01-10 12:55:16.57	325.64	8.71	-52.3	-54.5	14.5	0.00e+00	0	23	0	925892608	71	4478
2026-01-10 12:55:17.57	325.79	8.66	-52.3	-54.5	14.5	0.00e+00	0	23	0	927989760	71	4460
2026-01-10 12:55:18.57	325.93	8.62	-52.3	-54.5	14.6	0.00e+00	0	23	0	929038336	71	4443
2026-01-10 12:55:19.56	326.06	8.57	-52.2	-54.3	14.7	0.00e+00	0	23	0	931135488	71	4388
2026-01-10 12:55:20.55	326.20	8.52	-52.2	-54.4	14.6	0.00e+00	0	23	0	933232640	71	4426
2026-01-10 12:55:21.54	326.34	8.48	-52.4	-54.6	14.5	0.00e+00	0	23	0	935329792	71	4526
2026-01-10 12:55:22.54	326.48	8.43	-52.2	-54.4	14.6	0.00e+00	0	23	0	937426944	71	4394
2026-01-10 12:55:23.53	326.61	8.38	-52.1	-54.3	14.5	0.00e+00	0	23	0	938475520	70	4610
2026-01-10 12:55:24.52	326.75	8.34	-52.3	-54.6	14.3	0.00e+00	0	23	0	940572672	70	4773
2026-01-10 12:55:25.51	326.89	8.29	-52.2	-54.4	14.4	0.00e+00	0	23	0	942669824	70	4665
2026-01-10 12:55:26.50	327.02	8.24	-52.2	-54.5	14.4	0.00e+00	0	23	0	944766976	70	4713
2026-01-10 12:55:27.50	327.16	8.20	-52.2	-54.4	14.4	0.00e+00	0	23	0	945815552	70	4694
2026-01-10 12:55:28.49	327.29	8.15	-52.1	-54.3	14.5	0.00e+00	0	23	0	947912704	70	4636
2026-01-10 12:55:29.48	327.43	8.10	-52.3	-54.6	14.3	0.00e+00	0	23	0	950009856	70	4782
2026-01-10 12:55:30.48	327.56	8.05	-52.2	-54.4	14.4	0.00e+00	0	23	0	952107008	70	4689
2026-01-10 12:55:31.48	327.70	8.01	-52.1	-54.2	14.6	0.00e+00	0	23	0	954204160	70	4576
2026-01-10 12:55:32.48	327.83	7.96	-52.1	-54.3	14.5	0.00e+00	0	23	0	955252736	70	4626
2026-01-10 12:55:33.48	327.96	7.91	-52.0	-54.1	14.6	0.00e+00	0	23	0	957349888	70	4513
2026-01-10 12:55:34.48	328.10	7.86	-52.2	-54.4	14.4	0.00e+00	0	23	0	959447040	70	4667
2026-01-10 12:55:35.48	328.23	7.82	-52.2	-54.4	14.4	0.00e+00	0	23	0	961544192	70	4682
2026-01-10 12:55:36.48	328.36	7.77	-52.2	-54.4	14.4	0.00e+00	0	23	0	962592768	70	4702
2026-01-10 12:55:37.48	328.50	7.72	-52.2	-54.4	14.4	0.00e+00	0	23	0	964689920	70	4687
2026-01-10 12:55:38.47	328.63	7.68	-52.4	-54.6	14.3	0.00e+00	0	23	0	966787072	70	4807
2026-01-10 12:55:39.47	328.76	7.63	-52.2	-54.5	14.4	0.00e+00	0	23	0	968884224	70	4714
2026-01-10 12:55:40.47	328.89	7.58	-52.3	-54.5	14.3	0.00e+00	0	23	0	970981376	70	4740
2026-01-10 12:55:41.47	329.02	7.53	-52.2	-54.4	14.4	0.00e+00	0	23	0	972029952	70	4694
2026-01-10 12:55:42.47	329.15	7.48	-52.3	-54.6	14.2	0.00e+00	0	23	0	974127104	70	4772
2026-01-10 12:55:43.47	329.28	7.44	-52.2	-54.5	14.4	0.00e+00	0	23	0	976224256	70	4712
2026-01-10 12:55:44.47	329.41	7.39	-52.1	-54.3	14.4	0.00e+00	0	23	0	978321408	70	4629
2026-01-10 12:55:45.47	329.54	7.34	-52.2	-54.4	14.4	0.00e+00	0	23	0	980418560	70	4683
2026-01-10 12:55:46.47	329.66	7.29	-52.4	-54.7	14.3	0.00e+00	0	23	0	981467136	70	4819
2026-01-10 12:55:47.47	329.79	7.24	-52.6	-55.0	14.0	0.00e+00	0	23	0	983564288	70	4984
2026-01-10 12:55:48.47	329.92	7.20	-52.5	-54.9	14.1	0.00e+00	0	23	0	985661440	70	4941
2026-01-10 12:55:49.47	330.05	7.15	-52.6	-55.0	14.1	0.00e+00	0	23	0	987758592	70	5008
2026-01-10 12:55:50.47	330.17	7.10	-52.5	-54.8	14.1	0.00e+00	0	23	0	989855744	70	4907
2026-01-10 12:55:51.46	330.30	7.05	-52.6	-55.0	14.1	0.00e+00	0	23	0	990904320	70	5010
2026-01-10 12:55:52.46	330.43	7.01	-52.6	-55.1	13.9	0.00e+00	0	23	0	993001472	70	5061
2026-01-10 12:55:53.46	330.55	6.96	-52.6	-55.0	14.0	0.00e+00	0	23	0	995098624	70	4996
2026-01-10 12:55:54.45	330.67	6.91	-52.7	-55.2	13.9	0.00e+00	0	23	0	997195776	70	5148
2026-01-10 12:55:55.44	330.80	6.86	-52.7	-55.2	13.9	0.00e+00	0	23	0	998244352	70	5140
2026-01-10 12:55:56.44	330.92	6.81	-52.5	-54.9	14.0	0.00e+00	0	23	0	1000341504	70	4980
2026-01-10 12:55:57.43	331.05	6.77	-52.6	-55.0	14.0	0.00e+00	0	23	0	1002438656	70	5002
2026-01-10 12:55:58.41	331.17	6.72	-52.4	-54.7	14.2	0.00e+00	0	23	0	1004535808	70	4840
2026-01-10 12:55:59.40	331.29	6.67	-52.5	-54.9	14.0	0.00e+00	0	23	0	1005584384	70	4980
2026-01-10 12:56:00.40	331.41	6.62	-52.5	-54.9	14.0	0.00e+00	0	23	0	1007681536	70	4953
2026-01-10 12:56:01.40	331.53	6.57	-52.4	-54.7	14.2	0.00e+00	0	23	0	1009778688	70	4861
2026-01-10 12:56:02.39	331.66	6.53	-52.3	-54.6	14.2	0.00e+00	0	23	0	1011875840	70	4774
2026-01-10 12:56:03.39	331.78	6.48	-52.4	-54.7	14.2	0.00e+00	0	23	0	1013972992	70	4840
2026-01-10 12:56:04.39	331.90	6.43	-52.4	-54.7	14.2	0.00e+00	0	23	0	1015021568	70	4868
2026-01-10 12:56:05.39	332.02	6.38	-52.5	-54.9	14.0	0.00e+00	0	23	0	1017118720	70	4937
2026-01-10 12:56:06.39	332.14	6.33	-52.6	-55.1	14.0	0.00e+00	0	23	0	1019215872	70	5045
2026-01-10 12:56:07.39	332.26	6.28	-52.6	-55.1	13.9	0.00e+00	0	23	0	1021313024	70	5054
2026-01-10 12:56:08.39	332.38	6.24	-52.7	-55.2	13.9	0.00e+00	0	23	0	1023410176	70	5129
2026-01-10 12:56:09.38	332.50	6.19	-52.7	-55.2	13.9	0.00e+00	0	23	0	1024458752	70	5118
2026-01-10 12:56:10.38	332.62	6.14	-52.8	-55.3	13.8	0.00e+00	0	23	0	1026555904	70	5214
2026-01-10 12:56:11.38	332.74	6.09	-52.9	-55.5	13.7	0.00e+00	0	23	0	1028653056	70	5314
2026-01-10 12:56:12.38	332.85	6.04	-52.8	-55.4	13.7	0.00e+00	0	23	0	1030750208	70	5263
2026-01-10 12:56:13.37	332.97	6.00	-52.7	-55.4	13.8	0.00e+00	0	23	0	1031798784	70	5223
2026-01-10 12:56:14.36	333.09	5.95	-52.6	-55.1	13.9	0.00e+00	0	23	0	1033895936	70	5065
2026-01-10 12:56:15.35	333.20	5.90	-52.5	-55.0	14.0	0.00e+00	0	23	0	1035993088	70	5003
2026-01-10 12:56:16.35	333.32	5.85	-52.6	-55.1	13.9	0.00e+00	0	23	0	1038090240	70	5095
2026-01-10 12:56:17.33	333.43	5.80	-52.4	-55.2	13.9	0.00e+00	0	23	0	1040187392	70	5131
2026-01-10 12:56:18.32	333.55	5.76	-52.2	-55.2	14.0	0.00e+00	0	23	0	1041235968	70	5103
2026-01-10 12:56:19.32	333.66	5.71	-51.9	-55.4	14.0	0.00e+00	0	23	0	1043333120	70	5241
2026-01-10 12:56:20.31	333.78	5.66	-51.1	-55.3	14.1	0.00e+00	0	23	0	1045430272	68	5799
2026-01-10 12:56:21.30	333.89	5.61	-50.7	-55.5	14.0	0.00e+00	0	23	0	1047527424	68	5985
2026-01-10 12:56:22.30	334.01	5.56	-50.1	-55.1	13.9	0.00e+00	0	23	0	1048576000	66	6389
2026-01-10 12:56:23.28	334.12	5.52	-50.0	-55.2	13.9	0.00e+00	0	23	0	1050673152	66	6432
2026-01-10 12:56:24.28	334.23	5.47	-50.1	-54.7	14.0	0.00e+00	0	23	0	1052770304	66	6072
2026-01-10 12:56:25.27	334.35	5.42	-50.5	-55.0	13.7	0.00e+00	0	23	0	1054867456	66	6281
2026-01-10 12:56:26.27	334.46	5.37	-52.0	-56.5	13.0	0.00e+00	0	23	0	1056964608	69	6296
2026-01-10 12:56:27.27	334.57	5.32	-52.4	-55.8	13.1	0.00e+00	0	23	0	1058013184	69	5843
2026-01-10 12:56:28.27	334.68	5.27	-52.6	-55.5	13.4	0.00e+00	0	23	0	1060110336	70	5337
2026-01-10 12:56:29.25	334.79	5.23	-52.7	-55.7	13.3	0.00e+00	0	23	0	1062207488	70	5404
2026-01-10 12:56:30.24	334.91	5.18	-52.7	-55.6	13.4	0.00e+00	0	23	0	1064304640	70	5401
2026-01-10 12:56:31.23	335.02	5.13	-52.5	-55.2	13.6	0.00e+00	0	23	0	1065353216	70	5156
2026-01-10 12:56:32.23	335.13	5.08	-52.7	-55.5	13.5	0.00e+00	0	23	0	1067450368	70	5310
2026-01-10 12:56:33.23	335.24	5.03	-52.6	-55.4	13.6	0.00e+00	0	23	0	1069547520	70	5223
2026-01-10 12:56:34.22	335.35	4.99	-57.7	-72.2	3.8	7.68e-02	0	23	104	1070596096	80	20529
2026-01-10 12:56:35.23	335.46	4.94	-58.2	-74.2	3.8	1.49e+00	0	23	104	1070596096	81	24251
2026-01-10 12:56:36.23	335.57	4.89	-58.6	-74.6	3.8	1.49e+00	0	23	104	1070596096	82	23910
2026-01-10 12:56:37.23	335.68	4.84	-58.8	-74.8	3.8	1.49e+00	0	23	104	1070596096	82	24502
2026-01-10 12:56:38.23	335.79	4.79	-59.0	-75.0	3.9	1.49e+00	0	23	104	1070596096	83	23681
2026-01-10 12:56:39.24	335.90	4.74	-59.1	-75.1	3.8	1.49e+00	0	23	104	1070596096	83	24012
2026-01-10 12:56:40.24	336.00	4.69	-59.2	-75.2	3.8	1.49e+00	0	23	104	1070596096	83	24345
2026-01-10 12:56:41.24	336.11	4.65	-59.3	-75.3	3.8	1.49e+00	0	23	104	1070596096	83	24660
2026-01-10 12:56:42.24	336.22	4.60	-59.4	-75.4	3.8	1.49e+00	0	23	104	1070596096	83	24848
2026-01-10 12:56:43.24	336.33	4.55	-59.4	-75.5	3.8	1.49e+00	0	23	104	1070596096	83	25004
2026-01-10 12:56:44.24	336.43	4.50	-59.7	-75.7	3.8	1.49e+00	0	23	104	1070596096	84	24201
2026-01-10 12:56:45.24	336.54	4.45	-59.7	-75.7	3.8	1.49e+00	0	23	104	1070596096	84	24309
2026-01-10 12:56:46.23	336.65	4.40	-59.7	-75.8	3.8	1.49e+00	0	23	104	1070596096	84	24485
2026-01-10 12:56:47.23	336.75	4.36	-59.7	-75.8	3.8	1.49e+00	0	23	104	1070596096	84	24543
2026-01-10 12:56:48.22	336.86	4.31	-59.8	-75.8	3.8	1.49e+00	0	23	104	1070596096	84	24582
2026-01-10 12:56:49.23	336.96	4.26	-59.8	-75.8	3.8	1.49e+00	0	23	104	1070596096	84	24606
2026-01-10 12:56:50.23	337.07	4.21	-59.8	-75.8	3.8	1.49e+00	0	23	104	1070596096	84	24634
2026-01-10 12:56:51.24	337.17	4.16	-59.8	-75.8	3.8	1.49e+00	0	23	104	1070596096	84	24638
2026-01-10 12:56:52.24	337.28	4.11	-59.8	-75.9	3.8	1.49e+00	0	23	104	1070596096	84	24708
2026-01-10 12:56:53.23	337.38	4.07	-59.8	-75.8	3.8	1.49e+00	0	23	104	1070596096	84	24650
2026-01-10 12:56:54.23	337.48	4.02	-59.8	-75.8	3.8	1.49e+00	0	23	104	1070596096	84	24687
2026-01-10 12:56:55.23	337.59	3.97	-59.8	-75.9	3.8	1.49e+00	0	23	104	1070596096	84	24742
2026-01-10 12:56:56.23	337.69	3.92	-59.8	-75.8	3.8	1.49e+00	0	24	104	1070596096	84	24578
2026-01-10 12:56:57.23	337.79	3.87	-59.7	-75.8	3.8	1.49e+00	0	23	104	1070596096	84	24418
2026-01-10 12:56:58.23	337.89	3.82	-59.7	-75.8	3.8	1.49e+00	0	24	104	1070596096	84	24478
2026-01-10 12:56:59.23	338.00	3.78	-59.7	-75.7	3.8	1.49e+00	0	23	104	1070596096	84	24383
2026-01-10 12:57:00.22	338.10	3.73	-59.7	-75.8	3.8	1.49e+00	0	23	104	1070596096	84	24421
2026-01-10 12:57:01.22	338.20	3.68	-59.7	-75.8	3.8	1.49e+00	0	23	104	1070596096	84	24429
2026-01-10 12:57:02.22	338.30	3.63	-59.7	-75.7	3.8	1.49e+00	0	23	104	1070596096	84	24386
2026-01-10 12:57:03.22	338.40	3.58	-59.7	-75.7	3.8	1.49e+00	0	24	104	1070596096	84	24336
2026-01-10 12:57:04.22	338.50	3.54	-59.7	-75.7	3.8	1.49e+00	0	23	104	1070596096	84	24289
2026-01-10 12:57:05.22	338.60	3.49	-59.7	-75.7	3.8	1.49e+00	0	23	104	1070596096	84	24334
2026-01-10 12:57:06.21	338.70	3.44	-59.7	-75.7	3.8	1.49e+00	0	24	104	1070596096	84	24238
2026-01-10 12:57:07.22	338.80	3.39	-59.6	-75.7	3.8	1.49e+00	0	23	104	1070596096	84	24316
2026-01-10 12:57:08.22	338.90	3.34	-59.6	-75.7	3.8	1.49e+00	0	23	104	1070596096	84	24183
2026-01-10 12:57:09.22	339.00	3.29	-59.6	-75.7	3.8	1.49e+00	0	24	104	1070596096	84	24186
2026-01-10 12:57:10.21	339.10	3.25	-59.6	-75.7	3.8	1.49e+00	0	24	104	1070596096	84	24201
2026-01-10 12:57:11.21	339.19	3.20	-59.6	-75.7	3.8	1.49e+00	0	24	104	1070596096	84	24209
2026-01-10 12:57:12.22	339.29	3.15	-59.6	-75.7	3.8	1.49e+00	0	24	104	1070596096	84	24136
2026-01-10 12:57:13.21	339.39	3.10	-59.6	-75.6	3.8	1.49e+00	0	24	104	1070596096	84	24126
2026-01-10 12:57:14.21	339.49	3.06	-59.6	-75.6	3.8	1.49e+00	0	24	104	1070596096	84	24082
2026-01-10 12:57:15.21	339.59	3.01	-59.6	-75.6	3.8	1.49e+00	0	23	104	1070596096	84	24104
2026-01-10 12:57:16.20	339.68	2.96	-59.6	-75.6	3.8	1.49e+00	0	23	104	1070596096	84	24033
2026-01-10 12:57:17.20	339.78	2.91	-59.6	-75.6	3.8	1.49e+00	0	24	104	1070596096	84	24080
2026-01-10 12:57:18.21	339.87	2.86	-59.6	-75.6	3.8	1.49e+00	0	23	104	1070596096	84	24094
2026-01-10 12:57:19.20	339.97	2.82	-59.6	-75.6	3.8	1.49e+00	0	24	104	1070596096	84	24104
2026-01-10 12:57:20.21	340.07	2.77	-59.6	-75.6	3.8	1.49e+00	0	24	104	1070596096	84	24041
2026-01-10 12:57:21.20	340.16	2.72	-59.6	-75.6	3.8	1.49e+00	0	24	104	1070596096	84	23945
2026-01-10 12:57:22.20	340.26	2.67	-59.5	-75.6	3.8	1.49e+00	0	23	104	1070596096	84	23968
2026-01-10 12:57:23.20	340.35	2.62	-59.6	-75.6	3.8	1.49e+00	0	24	104	1070596096	84	24000
2026-01-10 12:57:24.20	340.44	2.58	-59.5	-75.6	3.8	1.49e+00	0	24	104	1070596096	84	23946
2026-01-10 12:57:25.19	340.54	2.53	-59.6	-75.6	3.8	1.49e+00	0	24	104	1070596096	84	23968
2026-01-10 12:57:26.20	340.63	2.48	-59.6	-75.6	3.8	1.49e+00	0	24	104	1070596096	84	23956
2026-01-10 12:57:27.19	340.73	2.43	-59.5	-75.6	3.8	1.49e+00	0	24	104	1070596096	84	23958
2026-01-10 12:57:28.20	340.82	2.39	-59.5	-75.6	3.8	1.49e+00	0	24	104	1070596096	84	23907
2026-01-10 12:57:29.19	340.91	2.34	-59.5	-75.6	3.8	1.49e+00	0	24	104	1070596096	84	23932
2026-01-10 12:57:30.19	341.00	2.29	-59.5	-75.6	3.8	1.49e+00	0	23	104	1070596096	84	23929
