passes_logs/2026/01/10/R3.2S_Murmansk/R3.2S_Murmansk__20260110_094251_NOAA_20_JPSS-1_rec.log

#Pass ID: 20260110_094251_NOAA 20 (JPSS-1)
#Satellite: NOAA 20 (JPSS-1)
#Configuration: NOAA 20
#almurnet v.1.7.20251203
#Start time: 2026-01-10 09:42:52

#Version: 2.2.20231116
#Station: R3.2S_Murmansk
#Location: 33.079688 lon 68.888172 lat
#TLE: 1 43013U 17073A   26009.69119415  .00000109  00000+0  72598-4 0  9996
#TLE: 2 43013  98.7631 310.6868 0001678  46.7442 313.3874 14.19534878421981

#Time	Az	El	Level	Level2	SNR	BER	BlckErr	Temp	State	Recorded	gain1	gain2
2026-01-10 09:42:52.61	156.27	2.09	-57.3	-73.2	3.8	1.49e+00	0	21	104	0	79	24374
2026-01-10 09:42:54.94	156.29	2.24	-57.3	-73.2	3.8	1.49e+00	0	21	104	0	79	24392
2026-01-10 09:42:55.37	156.30	2.27	-57.3	-73.2	3.8	1.49e+00	0	21	104	0	79	24343
2026-01-10 09:42:57.53	156.31	2.41	-57.2	-73.2	3.8	1.49e+00	0	21	104	0	79	24388
2026-01-10 09:42:57.97	156.32	2.44	-57.3	-73.2	3.8	1.49e+00	0	21	104	0	79	24303
2026-01-10 09:43:00.13	156.34	2.58	-57.3	-73.2	3.8	1.49e+00	0	22	104	0	79	24301
2026-01-10 09:43:00.55	156.34	2.61	-57.3	-73.2	3.8	1.49e+00	0	21	104	0	79	24338
2026-01-10 09:43:02.71	156.36	2.75	-57.3	-73.2	3.8	1.49e+00	0	22	104	0	79	24246
2026-01-10 09:43:03.15	156.36	2.78	-57.3	-73.2	3.8	1.49e+00	0	22	104	0	79	24329
2026-01-10 09:43:05.30	156.38	2.92	-57.2	-73.2	3.8	1.49e+00	0	22	104	0	79	24187
2026-01-10 09:43:05.75	156.38	2.95	-57.2	-73.2	3.8	1.49e+00	0	22	104	0	79	24184
2026-01-10 09:43:07.78	156.40	3.08	-57.2	-73.2	3.8	1.49e+00	0	22	104	0	79	24159
2026-01-10 09:43:08.36	156.40	3.12	-57.3	-73.2	3.8	1.49e+00	0	22	104	0	79	24265
2026-01-10 09:43:09.95	156.42	3.23	-57.3	-73.2	3.8	1.49e+00	0	22	104	0	79	24296
2026-01-10 09:43:10.53	156.42	3.27	-57.3	-73.2	3.8	1.49e+00	0	22	104	0	79	24168
2026-01-10 09:43:12.11	156.44	3.37	-57.3	-73.1	3.8	1.49e+00	0	22	104	0	79	23948
2026-01-10 09:43:12.69	156.44	3.41	-57.2	-73.0	3.8	1.49e+00	0	22	104	0	79	23780
2026-01-10 09:43:14.27	156.45	3.52	-57.2	-72.3	3.8	1.49e+00	0	22	104	0	79	21947
2026-01-10 09:43:14.85	156.46	3.56	-57.2	-72.0	3.8	1.49e+00	0	22	104	0	79	21071
2026-01-10 09:43:16.43	156.47	3.67	-57.2	-70.7	4.0	1.48e+00	0	22	104	0	79	18104
2026-01-10 09:43:17.01	156.48	3.71	-57.1	-70.0	4.1	1.47e+00	0	22	104	0	79	16849
2026-01-10 09:43:18.60	156.49	3.82	-57.0	-68.7	4.5	1.17e+00	1	22	0	1048576	79	14456
2026-01-10 09:43:19.17	156.50	3.85	-57.0	-68.3	4.6	1.00e+00	0	22	0	2097152	79	13854
2026-01-10 09:43:20.76	156.51	3.96	-56.9	-67.5	5.1	6.35e-01	0	22	0	4194304	79	12534
2026-01-10 09:43:21.34	156.52	4.00	-56.9	-66.9	5.3	5.79e-01	0	22	0	5242880	79	11817
2026-01-10 09:43:22.93	156.53	4.11	-56.8	-66.1	5.9	3.49e-01	0	22	0	8388608	79	10719
2026-01-10 09:43:23.52	156.53	4.15	-56.7	-65.5	6.2	2.98e-01	0	22	0	9437184	79	10032
2026-01-10 09:43:25.10	156.55	4.26	-56.5	-64.3	7.3	9.22e-02	0	22	0	12582912	79	8668
2026-01-10 09:43:25.68	156.55	4.30	-56.5	-64.2	7.4	9.19e-02	0	22	0	13631488	79	8638
2026-01-10 09:43:27.28	156.57	4.42	-56.3	-63.2	8.3	3.95e-02	0	22	0	16777216	79	7710
2026-01-10 09:43:27.86	156.57	4.46	-56.2	-62.8	8.7	2.80e-02	0	22	0	17825792	79	7303
2026-01-10 09:43:29.44	156.59	4.57	-56.0	-62.0	9.4	1.22e-02	0	22	0	20971520	78	7047
2026-01-10 09:43:30.02	156.59	4.61	-55.9	-61.8	9.6	6.47e-03	0	22	0	22020096	78	6880
2026-01-10 09:43:31.62	156.61	4.72	-55.8	-61.3	10.0	3.80e-03	0	23	0	25165824	78	6533
2026-01-10 09:43:32.20	156.61	4.76	-55.6	-60.9	10.2	2.07e-03	0	22	0	26214400	77	6638
2026-01-10 09:43:33.79	156.63	4.88	-55.6	-60.8	10.4	1.30e-03	0	22	0	29360128	77	6528
2026-01-10 09:43:34.36	156.63	4.92	-55.6	-60.8	10.3	1.50e-03	0	23	0	30408704	77	6569
2026-01-10 09:43:35.95	156.65	5.03	-55.6	-61.0	10.2	1.45e-03	0	22	0	33554432	77	6713
2026-01-10 09:43:36.54	156.65	5.07	-55.8	-61.4	9.8	2.48e-03	0	22	0	34603008	77	7016
2026-01-10 09:43:38.12	156.67	5.19	-57.2	-70.0	3.9	3.39e-01	0	22	104	36700160	79	16878
2026-01-10 09:43:38.70	156.67	5.23	-54.8	-58.7	11.9	6.11e-01	0	22	0	36700160	76	5436
2026-01-10 09:43:40.28	156.69	5.34	-55.3	-59.7	11.3	1.04e-03	0	22	0	38797312	77	5773
2026-01-10 09:43:40.87	156.69	5.39	-55.9	-61.9	9.4	2.74e-04	0	23	0	40894464	76	7854
2026-01-10 09:43:42.45	156.71	5.50	-54.2	-57.8	12.7	0.00e+00	0	22	0	42991616	75	5160
2026-01-10 09:43:43.04	156.71	5.54	-54.2	-57.6	12.8	7.00e-07	0	22	0	44040192	75	5098
2026-01-10 09:43:44.62	156.73	5.66	-54.2	-57.7	12.6	0.00e+00	0	22	0	47185920	74	5432
2026-01-10 09:43:45.20	156.73	5.70	-54.2	-57.6	12.7	0.00e+00	0	23	0	48234496	74	5381
2026-01-10 09:43:46.79	156.75	5.82	-54.1	-57.4	12.9	0.00e+00	0	23	0	51380224	74	5261
2026-01-10 09:43:47.38	156.75	5.86	-54.1	-57.4	12.9	0.00e+00	0	23	0	52428800	74	5277
2026-01-10 09:43:48.96	156.77	5.98	-54.0	-57.3	13.0	7.00e-07	0	23	0	55574528	74	5190
2026-01-10 09:43:49.58	156.77	6.03	-54.0	-57.3	13.0	0.00e+00	0	23	0	56623104	74	5197
2026-01-10 09:43:51.16	156.79	6.14	-54.0	-57.3	13.0	0.00e+00	0	22	0	59768832	74	5164
2026-01-10 09:43:51.76	156.79	6.19	-54.1	-57.4	12.9	0.00e+00	0	23	0	60817408	74	5240
2026-01-10 09:43:53.35	156.81	6.31	-54.0	-57.2	13.1	0.00e+00	0	22	0	63963136	74	5127
2026-01-10 09:43:53.93	156.82	6.35	-54.0	-57.2	13.1	0.00e+00	0	22	0	65011712	74	5145
2026-01-10 09:43:55.51	156.83	6.47	-54.1	-57.3	13.0	0.00e+00	0	23	0	68157440	74	5217
2026-01-10 09:43:56.10	156.84	6.51	-54.1	-57.3	13.1	0.00e+00	0	23	0	69206016	74	5170
2026-01-10 09:43:57.68	156.85	6.64	-54.0	-57.2	13.1	7.00e-07	0	23	0	72351744	74	5135
2026-01-10 09:43:58.26	156.86	6.68	-54.0	-57.1	13.2	0.00e+00	0	23	0	73400320	74	5075
2026-01-10 09:43:59.86	156.87	6.80	-54.0	-57.1	13.2	0.00e+00	0	23	0	75497472	74	5099
2026-01-10 09:44:00.45	156.88	6.85	-53.9	-57.1	13.3	0.00e+00	0	23	0	77594624	74	5045
2026-01-10 09:44:02.03	156.89	6.97	-53.9	-57.0	13.3	0.00e+00	0	23	0	79691776	74	5009
2026-01-10 09:44:02.64	156.90	7.02	-54.0	-57.1	13.2	0.00e+00	0	23	0	80740352	74	5083
2026-01-10 09:44:04.22	156.92	7.14	-53.9	-56.9	13.4	0.00e+00	0	23	0	83886080	74	4955
2026-01-10 09:44:04.80	156.92	7.18	-53.9	-57.0	13.4	0.00e+00	0	23	0	84934656	74	4987
2026-01-10 09:44:06.39	156.94	7.31	-53.9	-56.9	13.4	0.00e+00	0	23	0	88080384	74	4972
2026-01-10 09:44:06.98	156.94	7.35	-53.8	-56.8	13.5	0.00e+00	0	23	0	89128960	74	4896
2026-01-10 09:44:08.56	156.96	7.48	-53.9	-56.9	13.4	0.00e+00	0	23	0	92274688	74	4939
2026-01-10 09:44:09.14	156.97	7.52	-53.9	-56.9	13.4	0.00e+00	0	23	0	93323264	74	4942
2026-01-10 09:44:10.73	156.98	7.65	-53.9	-56.9	13.4	0.00e+00	0	23	0	96468992	74	4960
2026-01-10 09:44:11.33	156.99	7.70	-53.9	-56.9	13.4	0.00e+00	0	23	0	97517568	74	4975
2026-01-10 09:44:12.92	157.01	7.82	-53.7	-56.6	13.7	0.00e+00	0	23	0	100663296	74	4761
2026-01-10 09:44:13.50	157.01	7.87	-53.7	-56.6	13.7	0.00e+00	0	23	0	101711872	74	4784
2026-01-10 09:44:15.08	157.03	8.00	-53.7	-56.6	13.7	0.00e+00	0	23	0	104857600	74	4781
2026-01-10 09:44:15.67	157.03	8.04	-53.8	-56.6	13.6	0.00e+00	0	23	0	105906176	74	4812
2026-01-10 09:44:17.25	157.05	8.17	-53.7	-56.5	13.8	0.00e+00	0	23	0	109051904	74	4727
2026-01-10 09:44:17.82	157.06	8.22	-53.5	-56.3	13.7	0.00e+00	0	23	0	110100480	73	4911
2026-01-10 09:44:19.40	157.07	8.35	-53.6	-56.4	13.7	0.00e+00	0	23	0	112197632	73	4956
2026-01-10 09:44:19.98	157.08	8.39	-53.5	-56.3	13.8	0.00e+00	0	23	0	113246208	73	4878
2026-01-10 09:44:21.56	157.10	8.52	-53.5	-56.2	13.8	0.00e+00	0	23	0	116391936	73	4860
2026-01-10 09:44:22.14	157.10	8.57	-53.5	-56.3	13.8	0.00e+00	0	23	0	117440512	73	4875
2026-01-10 09:44:23.73	157.12	8.70	-53.5	-56.2	13.8	0.00e+00	0	23	0	120586240	73	4816
2026-01-10 09:44:24.33	157.13	8.75	-53.5	-56.2	13.8	0.00e+00	0	23	0	121634816	73	4849
2026-01-10 09:44:25.91	157.14	8.88	-53.4	-56.1	13.9	0.00e+00	0	23	0	124780544	73	4779
2026-01-10 09:44:26.51	157.15	8.93	-53.4	-56.1	13.9	0.00e+00	0	23	0	125829120	73	4780
2026-01-10 09:44:28.09	157.17	9.06	-53.4	-56.0	14.0	0.00e+00	0	23	0	128974848	73	4728
2026-01-10 09:44:28.68	157.17	9.11	-53.4	-56.0	14.0	0.00e+00	0	23	0	130023424	73	4754
2026-01-10 09:44:30.26	157.19	9.25	-53.4	-56.0	14.0	0.00e+00	0	23	0	133169152	73	4717
2026-01-10 09:44:30.86	157.20	9.30	-53.3	-55.9	14.1	0.00e+00	0	23	0	134217728	73	4681
2026-01-10 09:44:32.43	157.21	9.43	-53.3	-55.9	14.0	0.00e+00	0	23	0	137363456	73	4669
2026-01-10 09:44:33.02	157.22	9.48	-53.4	-55.9	14.0	0.00e+00	0	23	0	138412032	73	4699
2026-01-10 09:44:34.61	157.24	9.62	-53.3	-55.8	14.1	0.00e+00	0	23	0	141557760	73	4632
2026-01-10 09:44:35.18	157.25	9.66	-53.3	-55.9	14.1	0.00e+00	0	23	0	142606336	73	4661
2026-01-10 09:44:36.78	157.26	9.80	-53.2	-55.8	14.1	0.00e+00	0	23	0	144703488	73	4605
2026-01-10 09:44:37.36	157.27	9.85	-53.2	-55.7	14.2	0.00e+00	0	23	0	146800640	73	4595
2026-01-10 09:44:38.94	157.29	9.99	-53.3	-55.8	14.1	0.00e+00	0	23	0	148897792	73	4617
2026-01-10 09:44:39.53	157.30	10.04	-53.3	-55.8	14.1	0.00e+00	0	23	0	149946368	73	4628
2026-01-10 09:44:41.11	157.31	10.18	-53.1	-55.6	14.1	0.00e+00	0	23	0	153092096	72	4776
2026-01-10 09:44:41.70	157.32	10.23	-53.2	-55.6	14.1	0.00e+00	0	23	0	154140672	72	4796
2026-01-10 09:44:43.29	157.34	10.37	-53.1	-55.6	14.1	0.00e+00	0	23	0	157286400	72	4799
2026-01-10 09:44:43.87	157.35	10.42	-53.1	-55.6	14.1	0.00e+00	0	23	0	158334976	72	4776
2026-01-10 09:44:45.45	157.36	10.56	-53.1	-55.5	14.1	0.00e+00	0	23	0	161480704	72	4747
2026-01-10 09:44:46.03	157.37	10.61	-53.0	-55.4	14.2	0.00e+00	0	23	0	162529280	72	4705
2026-01-10 09:44:47.64	157.39	10.76	-53.0	-55.4	14.2	0.00e+00	0	23	0	165675008	72	4696
2026-01-10 09:44:48.21	157.40	10.81	-53.0	-55.5	14.2	0.00e+00	0	23	0	166723584	72	4719
2026-01-10 09:44:49.80	157.42	10.95	-53.0	-55.4	14.2	0.00e+00	0	23	0	169869312	72	4696
2026-01-10 09:44:50.39	157.42	11.01	-53.1	-55.5	14.2	0.00e+00	0	23	0	170917888	72	4727
2026-01-10 09:44:51.97	157.44	11.15	-52.9	-55.3	14.3	0.00e+00	0	23	0	174063616	72	4611
2026-01-10 09:44:52.58	157.45	11.21	-53.0	-55.3	14.3	0.00e+00	0	23	0	175112192	72	4644
2026-01-10 09:44:54.16	157.47	11.35	-52.9	-55.3	14.3	0.00e+00	0	23	0	178257920	72	4628
2026-01-10 09:44:54.75	157.48	11.41	-53.0	-55.4	14.3	0.00e+00	0	23	0	179306496	72	4665
2026-01-10 09:44:56.34	157.50	11.55	-52.9	-55.2	14.4	0.00e+00	0	23	0	181403648	72	4564
2026-01-10 09:44:56.93	157.50	11.61	-52.9	-55.2	14.4	0.00e+00	0	23	0	182452224	72	4581
2026-01-10 09:44:58.52	157.52	11.76	-52.9	-55.2	14.4	0.00e+00	0	23	0	185597952	72	4596
2026-01-10 09:44:59.11	157.53	11.81	-53.0	-55.3	14.3	0.00e+00	0	23	0	186646528	72	4639
2026-01-10 09:45:00.69	157.55	11.96	-52.9	-55.2	14.4	0.00e+00	0	23	0	189792256	72	4559
2026-01-10 09:45:01.28	157.56	12.01	-52.8	-55.1	14.5	0.00e+00	0	23	0	190840832	72	4542
2026-01-10 09:45:02.86	157.58	12.16	-52.9	-55.3	14.4	0.00e+00	0	23	0	193986560	72	4602
2026-01-10 09:45:03.45	157.58	12.22	-52.8	-55.1	14.5	0.00e+00	0	23	0	195035136	72	4511
2026-01-10 09:45:05.04	157.60	12.37	-52.7	-55.0	14.6	0.00e+00	0	23	0	198180864	72	4465
2026-01-10 09:45:05.63	157.61	12.43	-52.8	-55.1	14.5	0.00e+00	0	23	0	199229440	72	4494
2026-01-10 09:45:07.21	157.63	12.58	-52.6	-54.8	14.5	0.00e+00	0	23	0	202375168	71	4619
2026-01-10 09:45:07.79	157.64	12.64	-52.6	-54.9	14.5	0.00e+00	0	23	0	203423744	71	4667
2026-01-10 09:45:09.39	157.66	12.79	-52.6	-54.8	14.5	0.00e+00	0	23	0	206569472	71	4613
2026-01-10 09:45:09.98	157.67	12.85	-52.6	-54.8	14.5	0.00e+00	0	23	0	207618048	71	4613
2026-01-10 09:45:11.57	157.69	13.01	-52.5	-54.7	14.5	0.00e+00	0	23	0	210763776	71	4589
2026-01-10 09:45:12.19	157.70	13.07	-52.5	-54.7	14.6	0.00e+00	0	23	0	211812352	71	4569
2026-01-10 09:45:13.77	157.72	13.22	-52.5	-54.6	14.6	0.00e+00	0	23	0	214958080	71	4541
2026-01-10 09:45:14.35	157.73	13.28	-52.5	-54.6	14.6	0.00e+00	0	23	0	216006656	71	4523
2026-01-10 09:45:15.94	157.75	13.44	-52.4	-54.6	14.7	0.00e+00	0	23	0	218103808	71	4499
2026-01-10 09:45:16.53	157.76	13.50	-52.4	-54.5	14.7	0.00e+00	0	23	0	220200960	71	4488
2026-01-10 09:45:18.11	157.78	13.66	-52.3	-54.4	14.8	0.00e+00	0	23	0	222298112	71	4409
2026-01-10 09:45:18.70	157.79	13.72	-52.3	-54.4	14.7	0.00e+00	0	23	0	223346688	71	4438
2026-01-10 09:45:20.27	157.81	13.88	-52.4	-54.5	14.7	0.00e+00	0	23	0	226492416	71	4463
2026-01-10 09:45:20.87	157.82	13.94	-52.4	-54.5	14.7	0.00e+00	0	23	0	227540992	71	4480
2026-01-10 09:45:22.46	157.84	14.10	-52.2	-54.2	14.9	0.00e+00	0	23	0	230686720	71	4336
2026-01-10 09:45:23.07	157.85	14.17	-52.1	-54.2	14.8	0.00e+00	0	23	0	231735296	70	4558
2026-01-10 09:45:24.64	157.87	14.33	-52.2	-54.2	14.7	0.00e+00	0	23	0	234881024	70	4589
2026-01-10 09:45:25.22	157.88	14.39	-52.2	-54.3	14.7	0.00e+00	0	23	0	235929600	70	4603
2026-01-10 09:45:26.81	157.90	14.55	-52.1	-54.1	14.8	0.00e+00	0	23	0	239075328	70	4543
2026-01-10 09:45:27.42	157.91	14.62	-52.0	-54.0	14.8	0.00e+00	0	23	0	240123904	70	4488
2026-01-10 09:45:29.00	157.93	14.79	-52.1	-54.1	14.8	0.00e+00	0	23	0	243269632	70	4499
2026-01-10 09:45:29.58	157.94	14.85	-52.0	-53.9	14.9	0.00e+00	0	23	0	244318208	70	4432
2026-01-10 09:45:31.17	157.96	15.02	-52.0	-53.9	14.9	0.00e+00	0	23	0	247463936	70	4432
2026-01-10 09:45:31.77	157.97	15.08	-52.0	-53.9	14.9	0.00e+00	0	23	0	248512512	70	4436
2026-01-10 09:45:33.36	158.00	15.25	-52.0	-53.9	14.9	0.00e+00	0	23	0	251658240	70	4439
2026-01-10 09:45:33.94	158.00	15.31	-51.9	-53.8	14.9	0.00e+00	0	23	0	252706816	70	4379
2026-01-10 09:45:35.53	158.03	15.49	-51.9	-53.9	14.9	0.00e+00	0	23	0	255852544	70	4396
2026-01-10 09:45:36.11	158.04	15.55	-51.9	-53.8	15.0	0.00e+00	0	23	0	256901120	70	4367
2026-01-10 09:45:37.69	158.06	15.72	-51.8	-53.7	15.0	0.00e+00	0	23	0	258998272	70	4320
2026-01-10 09:45:38.27	158.07	15.79	-51.8	-53.7	15.0	0.00e+00	0	23	0	260046848	70	4329
2026-01-10 09:45:39.87	158.09	15.96	-51.8	-53.7	15.0	0.00e+00	0	23	0	263192576	70	4315
2026-01-10 09:45:40.44	158.10	16.03	-51.9	-53.8	15.0	0.00e+00	0	23	0	264241152	70	4361
2026-01-10 09:45:42.04	158.13	16.21	-51.8	-53.8	15.0	0.00e+00	0	23	0	267386880	70	4342
2026-01-10 09:45:42.61	158.14	16.27	-51.8	-53.7	15.0	0.00e+00	0	23	0	268435456	70	4325
2026-01-10 09:45:44.26	158.16	16.46	-51.8	-53.7	15.0	0.00e+00	0	23	0	271581184	70	4328
2026-01-10 09:45:44.84	158.17	16.52	-51.8	-53.7	15.0	0.00e+00	0	23	0	272629760	70	4326
2026-01-10 09:45:46.42	158.20	16.70	-51.7	-53.6	15.1	0.00e+00	0	23	0	275775488	70	4272
2026-01-10 09:45:47.01	158.21	16.77	-51.8	-53.7	15.1	0.00e+00	0	23	0	276824064	70	4294
2026-01-10 09:45:48.59	158.23	16.95	-51.8	-53.7	15.1	0.00e+00	0	23	0	279969792	70	4297
2026-01-10 09:45:49.16	158.24	17.02	-51.8	-53.6	15.1	0.00e+00	0	23	0	281018368	70	4282
2026-01-10 09:45:50.75	158.27	17.20	-51.8	-53.6	15.1	0.00e+00	0	23	0	284164096	70	4273
2026-01-10 09:45:51.32	158.28	17.27	-51.8	-53.7	15.1	0.00e+00	0	23	0	285212672	70	4300
2026-01-10 09:45:52.92	158.30	17.46	-51.7	-53.6	15.2	0.00e+00	0	23	0	288358400	70	4247
2026-01-10 09:45:53.49	158.31	17.53	-51.7	-53.5	15.2	0.00e+00	0	23	0	289406976	70	4232
2026-01-10 09:45:55.08	158.34	17.72	-51.5	-53.4	15.1	0.00e+00	0	23	0	291504128	69	4396
2026-01-10 09:45:55.66	158.35	17.78	-51.6	-53.4	15.0	0.00e+00	0	23	0	293601280	69	4406
2026-01-10 09:45:57.25	158.38	17.98	-51.6	-53.4	15.0	0.00e+00	0	23	0	295698432	69	4421
2026-01-10 09:45:57.83	158.39	18.05	-51.5	-53.3	15.1	0.00e+00	0	23	0	296747008	69	4375
2026-01-10 09:45:59.41	158.41	18.24	-51.6	-53.4	15.0	0.00e+00	0	23	0	299892736	69	4425
2026-01-10 09:46:00.02	158.42	18.31	-51.6	-53.4	15.0	0.00e+00	0	23	0	300941312	69	4422
2026-01-10 09:46:01.60	158.45	18.51	-51.5	-53.3	15.1	0.00e+00	0	23	0	304087040	69	4380
2026-01-10 09:46:02.19	158.46	18.58	-51.5	-53.3	15.1	0.00e+00	0	23	0	305135616	69	4380
2026-01-10 09:46:03.78	158.49	18.78	-51.5	-53.3	15.1	0.00e+00	0	23	0	308281344	69	4381
2026-01-10 09:46:04.38	158.50	18.85	-51.5	-53.3	15.1	0.00e+00	0	23	0	309329920	69	4391
2026-01-10 09:46:05.97	158.53	19.05	-51.5	-53.3	15.2	0.00e+00	0	23	0	312475648	69	4353
2026-01-10 09:46:06.55	158.54	19.12	-51.5	-53.3	15.1	0.00e+00	0	23	0	313524224	69	4382
2026-01-10 09:46:08.13	158.57	19.32	-51.5	-53.3	15.1	0.00e+00	0	23	0	316669952	69	4343
2026-01-10 09:46:08.70	158.58	19.40	-51.3	-53.1	15.3	0.00e+00	0	23	0	317718528	69	4257
2026-01-10 09:46:10.29	158.61	19.60	-51.4	-53.1	15.2	0.00e+00	0	23	0	320864256	69	4272
2026-01-10 09:46:10.88	158.62	19.68	-51.4	-53.1	15.2	0.00e+00	0	23	0	321912832	69	4285
2026-01-10 09:46:12.45	158.65	19.88	-51.4	-53.2	15.2	0.00e+00	0	23	0	325058560	69	4293
2026-01-10 09:46:13.03	158.66	19.96	-51.4	-53.2	15.2	0.00e+00	0	23	0	326107136	69	4299
2026-01-10 09:46:14.61	158.69	20.16	-51.3	-53.0	15.3	0.00e+00	0	23	0	328204288	69	4229
2026-01-10 09:46:15.20	158.70	20.24	-51.3	-53.1	15.3	0.00e+00	0	23	0	330301440	69	4260
2026-01-10 09:46:16.78	158.73	20.45	-51.3	-53.0	15.3	0.00e+00	0	23	0	332398592	69	4224
2026-01-10 09:46:17.37	158.74	20.53	-51.3	-53.0	15.3	0.00e+00	0	23	0	333447168	69	4236
2026-01-10 09:46:18.96	158.77	20.74	-51.4	-53.2	15.2	0.00e+00	0	23	0	336592896	69	4306
2026-01-10 09:46:19.56	158.79	20.82	-51.4	-53.1	15.2	0.00e+00	0	23	0	337641472	69	4277
2026-01-10 09:46:21.14	158.82	21.04	-51.4	-53.1	15.2	0.00e+00	0	23	0	340787200	69	4287
2026-01-10 09:46:21.71	158.83	21.12	-51.4	-53.2	15.2	0.00e+00	0	23	0	341835776	69	4313
2026-01-10 09:46:23.32	158.86	21.34	-51.4	-53.1	15.2	0.00e+00	0	23	0	344981504	69	4289
2026-01-10 09:46:23.89	158.87	21.42	-51.4	-53.2	15.2	0.00e+00	0	23	0	346030080	69	4307
2026-01-10 09:46:25.48	158.91	21.64	-51.4	-53.2	15.2	0.00e+00	0	23	0	349175808	69	4298
2026-01-10 09:46:26.05	158.92	21.72	-51.5	-53.3	15.1	0.00e+00	0	23	0	350224384	69	4353
2026-01-10 09:46:27.64	158.95	21.94	-51.6	-53.4	15.1	0.00e+00	0	23	0	353370112	69	4413
2026-01-10 09:46:28.22	158.96	22.02	-51.7	-53.5	15.0	0.00e+00	0	23	0	354418688	69	4463
2026-01-10 09:46:29.80	159.00	22.25	-51.6	-53.4	15.1	0.00e+00	0	23	0	357564416	69	4421
2026-01-10 09:46:30.39	159.01	22.33	-51.5	-53.3	15.1	0.00e+00	0	23	0	358612992	69	4361
2026-01-10 09:46:31.97	159.04	22.56	-51.5	-53.3	15.1	0.00e+00	0	23	0	360710144	69	4344
2026-01-10 09:46:32.58	159.06	22.65	-51.5	-53.3	15.1	0.00e+00	0	23	0	362807296	69	4355
2026-01-10 09:46:34.16	159.09	22.88	-51.5	-53.3	15.1	0.00e+00	0	23	0	364904448	69	4367
2026-01-10 09:46:34.77	159.11	22.97	-51.5	-53.3	15.1	0.00e+00	0	23	0	365953024	69	4379
2026-01-10 09:46:36.34	159.14	23.20	-51.6	-53.4	15.1	0.00e+00	0	23	0	369098752	69	4418
2026-01-10 09:46:36.95	159.15	23.29	-51.6	-53.4	15.1	0.00e+00	0	23	0	370147328	69	4396
2026-01-10 09:46:38.53	159.19	23.53	-51.6	-53.4	15.1	0.00e+00	0	23	0	373293056	69	4421
2026-01-10 09:46:39.13	159.20	23.62	-51.6	-53.4	15.1	0.00e+00	0	23	0	374341632	69	4437
2026-01-10 09:46:40.70	159.24	23.86	-51.6	-53.4	15.1	0.00e+00	0	23	0	377487360	69	4408
2026-01-10 09:46:41.35	159.26	23.96	-51.6	-53.4	15.1	0.00e+00	0	23	0	378535936	69	4438
2026-01-10 09:46:42.78	159.29	24.18	-51.6	-53.4	15.1	0.00e+00	0	23	0	381681664	69	4431
2026-01-10 09:46:43.49	159.31	24.28	-51.7	-53.5	15.0	0.00e+00	0	23	0	382730240	69	4448
2026-01-10 09:46:44.79	159.34	24.49	-51.7	-53.5	15.0	0.00e+00	0	23	0	384827392	69	4479
2026-01-10 09:46:45.50	159.35	24.60	-51.7	-53.5	15.0	0.00e+00	0	23	0	386924544	69	4469
2026-01-10 09:46:46.80	159.39	24.80	-51.8	-53.7	14.9	0.00e+00	0	23	0	389021696	69	4548
2026-01-10 09:46:47.52	159.40	24.92	-51.8	-53.6	15.0	0.00e+00	0	23	0	390070272	69	4521
2026-01-10 09:46:48.81	159.44	25.12	-51.8	-53.6	15.0	0.00e+00	0	23	0	393216000	69	4515
2026-01-10 09:46:49.53	159.45	25.24	-51.8	-53.7	14.9	0.00e+00	0	23	0	394264576	69	4564
2026-01-10 09:46:50.83	159.49	25.45	-51.8	-53.7	15.0	0.00e+00	0	23	0	396361728	69	4560
2026-01-10 09:46:51.55	159.51	25.56	-51.9	-53.7	14.9	0.00e+00	0	23	0	397410304	69	4571
2026-01-10 09:46:52.85	159.54	25.77	-52.1	-54.0	14.8	0.00e+00	0	23	0	400556032	69	4713
2026-01-10 09:46:53.57	159.56	25.89	-52.0	-53.9	14.8	0.00e+00	0	23	0	401604608	69	4680
2026-01-10 09:46:54.86	159.59	26.11	-52.1	-54.0	14.8	0.00e+00	0	23	0	403701760	69	4751
2026-01-10 09:46:55.59	159.61	26.23	-52.1	-54.0	14.8	0.00e+00	0	23	0	405798912	69	4751
2026-01-10 09:46:56.88	159.64	26.44	-52.2	-54.1	14.7	0.00e+00	0	23	0	407896064	69	4781
2026-01-10 09:46:57.60	159.66	26.56	-52.2	-54.2	14.7	0.00e+00	0	23	0	408944640	69	4847
2026-01-10 09:46:58.90	159.70	26.78	-52.3	-54.3	14.6	0.00e+00	0	23	0	412090368	69	4884
2026-01-10 09:46:59.62	159.72	26.91	-52.3	-54.3	14.6	0.00e+00	0	23	0	413138944	69	4905
2026-01-10 09:47:00.92	159.75	27.13	-52.5	-54.6	14.6	0.00e+00	0	23	0	415236096	70	4779
2026-01-10 09:47:01.65	159.78	27.25	-52.6	-54.6	14.6	0.00e+00	0	23	0	417333248	70	4790
2026-01-10 09:47:02.94	159.81	27.48	-52.7	-54.8	14.5	0.00e+00	0	23	0	419430400	70	4883
2026-01-10 09:47:03.66	159.83	27.60	-52.7	-54.8	14.5	0.00e+00	0	23	0	420478976	70	4925
2026-01-10 09:47:04.96	159.87	27.83	-52.8	-55.0	14.4	0.00e+00	0	23	0	422576128	70	5010
2026-01-10 09:47:05.67	159.89	27.96	-52.9	-55.1	14.5	0.00e+00	0	23	0	424673280	71	4802
2026-01-10 09:47:06.97	159.93	28.19	-53.1	-55.4	14.3	0.00e+00	0	23	0	426770432	71	4944
2026-01-10 09:47:07.69	159.95	28.32	-53.2	-55.5	14.3	0.00e+00	0	23	0	427819008	71	4991
2026-01-10 09:47:08.99	159.99	28.55	-53.3	-55.6	14.2	0.00e+00	0	23	0	430964736	71	5057
2026-01-10 09:47:09.71	160.01	28.68	-53.3	-55.7	14.1	0.00e+00	0	23	0	432013312	71	5131
2026-01-10 09:47:11.00	160.05	28.92	-53.4	-55.8	14.1	0.00e+00	0	23	0	434110464	71	5170
2026-01-10 09:47:11.73	160.07	29.05	-53.5	-55.8	14.2	0.00e+00	0	23	0	436207616	72	4919
2026-01-10 09:47:13.02	160.11	29.29	-53.5	-55.9	14.1	0.00e+00	0	23	0	438304768	72	4956
2026-01-10 09:47:13.74	160.13	29.43	-53.6	-56.0	14.1	0.00e+00	0	23	0	439353344	72	5006
2026-01-10 09:47:15.04	160.18	29.67	-53.8	-56.3	13.9	0.00e+00	0	23	0	441450496	72	5172
2026-01-10 09:47:15.76	160.20	29.81	-53.7	-56.2	13.9	0.00e+00	0	23	0	443547648	72	5149
2026-01-10 09:47:17.06	160.24	30.05	-53.9	-56.4	13.8	0.00e+00	0	23	0	445644800	72	5273
2026-01-10 09:47:17.78	160.26	30.19	-53.9	-56.5	13.9	0.00e+00	0	23	0	446693376	73	5034
2026-01-10 09:47:19.07	160.31	30.44	-53.9	-56.4	13.9	0.00e+00	0	23	0	449839104	73	4980
2026-01-10 09:47:19.79	160.33	30.58	-53.9	-56.4	14.0	0.00e+00	0	23	0	450887680	73	4952
2026-01-10 09:47:21.08	160.37	30.83	-53.9	-56.4	13.9	0.00e+00	0	23	0	452984832	73	4970
2026-01-10 09:47:21.80	160.40	30.97	-54.0	-56.5	13.9	0.00e+00	0	23	0	455081984	73	5019
2026-01-10 09:47:23.09	160.44	31.23	-53.9	-56.5	13.9	0.00e+00	0	23	0	457179136	73	4999
2026-01-10 09:47:23.82	160.47	31.37	-53.8	-56.3	14.0	0.00e+00	0	23	0	458227712	73	4918
2026-01-10 09:47:25.12	160.51	31.63	-53.9	-56.5	14.0	0.00e+00	0	23	0	461373440	73	5003
2026-01-10 09:47:25.83	160.54	31.78	-53.9	-56.4	14.0	0.00e+00	0	23	0	462422016	73	4952
2026-01-10 09:47:27.13	160.59	32.04	-53.9	-56.4	13.9	0.00e+00	0	23	0	464519168	73	4973
2026-01-10 09:47:27.85	160.61	32.19	-54.0	-56.5	13.9	0.00e+00	0	23	0	465567744	73	5030
2026-01-10 09:47:29.15	160.66	32.46	-54.0	-56.7	13.8	0.00e+00	0	23	0	468713472	73	5101
2026-01-10 09:47:29.87	160.69	32.61	-53.9	-56.5	13.9	0.00e+00	0	23	0	469762048	73	5001
2026-01-10 09:47:31.16	160.74	32.88	-53.8	-56.3	14.0	0.00e+00	0	23	0	471859200	73	4917
2026-01-10 09:47:31.88	160.76	33.03	-53.8	-56.3	14.1	0.00e+00	0	23	0	473956352	73	4909
2026-01-10 09:47:33.17	160.81	33.30	-53.7	-56.2	14.2	0.00e+00	0	23	0	476053504	73	4830
2026-01-10 09:47:33.89	160.84	33.46	-53.8	-56.2	14.1	0.00e+00	0	23	0	477102080	73	4848
2026-01-10 09:47:35.19	160.89	33.74	-53.6	-56.0	14.3	0.00e+00	0	23	0	479199232	73	4738
2026-01-10 09:47:35.90	160.92	33.89	-53.5	-55.8	14.4	0.00e+00	0	23	0	481296384	73	4646
2026-01-10 09:47:37.20	160.98	34.17	-53.4	-55.7	14.5	0.00e+00	0	23	0	483393536	73	4550
2026-01-10 09:47:37.92	161.00	34.33	-53.1	-55.2	14.6	0.00e+00	0	23	0	484442112	72	4577
2026-01-10 09:47:39.21	161.06	34.62	-52.8	-54.8	14.8	0.00e+00	0	23	0	487587840	72	4385
2026-01-10 09:47:39.92	161.09	34.77	-52.6	-54.6	14.8	0.00e+00	0	23	0	488636416	71	4527
2026-01-10 09:47:41.21	161.14	35.06	-52.3	-54.2	15.0	0.00e+00	0	23	0	490733568	71	4299
2026-01-10 09:47:41.93	161.17	35.23	-52.3	-54.3	14.9	0.00e+00	0	23	0	492830720	71	4345
2026-01-10 09:47:43.22	161.23	35.52	-52.1	-53.9	15.0	0.00e+00	0	23	0	494927872	70	4422
2026-01-10 09:47:43.93	161.26	35.68	-52.0	-53.8	15.1	0.00e+00	0	23	0	495976448	70	4368
2026-01-10 09:47:45.23	161.32	35.98	-51.9	-53.8	15.1	0.00e+00	0	23	0	498073600	70	4344
2026-01-10 09:47:45.94	161.35	36.15	-51.8	-53.6	15.2	0.00e+00	0	23	0	500170752	70	4273
2026-01-10 09:47:47.24	161.41	36.45	-51.7	-53.5	15.3	0.00e+00	0	23	0	502267904	70	4220
2026-01-10 09:47:47.95	161.45	36.62	-51.6	-53.3	15.2	0.00e+00	0	23	0	503316480	69	4380
2026-01-10 09:47:49.24	161.51	36.93	-51.5	-53.2	15.2	0.00e+00	0	23	0	506462208	69	4323
2026-01-10 09:47:49.96	161.54	37.10	-51.6	-53.3	15.2	0.00e+00	0	23	0	507510784	69	4370
2026-01-10 09:47:51.25	161.60	37.41	-51.4	-53.1	15.3	0.00e+00	0	23	0	509607936	69	4262
2026-01-10 09:47:51.97	161.64	37.58	-51.4	-53.1	15.3	0.00e+00	0	23	0	511705088	69	4254
2026-01-10 09:47:53.26	161.70	37.90	-51.2	-52.8	15.4	0.00e+00	0	23	0	513802240	69	4137
2026-01-10 09:47:53.97	161.74	38.07	-51.2	-52.8	15.4	0.00e+00	0	23	0	514850816	69	4142
2026-01-10 09:47:55.26	161.81	38.39	-51.3	-53.0	15.3	0.00e+00	0	23	0	516947968	69	4226
2026-01-10 09:47:55.98	161.84	38.57	-51.3	-52.9	15.4	0.00e+00	0	23	0	519045120	69	4191
2026-01-10 09:47:57.27	161.91	38.90	-51.3	-53.0	15.4	0.00e+00	0	23	0	521142272	69	4198
2026-01-10 09:47:57.99	161.95	39.08	-51.3	-52.9	15.4	0.00e+00	0	23	0	522190848	69	4173
2026-01-10 09:47:59.28	162.02	39.41	-51.1	-52.8	15.3	0.00e+00	0	23	0	525336576	68	4342
2026-01-10 09:47:59.99	162.06	39.59	-51.1	-52.7	15.4	0.00e+00	0	23	0	526385152	68	4318
2026-01-10 09:48:01.28	162.13	39.93	-50.9	-52.5	15.4	0.00e+00	0	23	0	528482304	68	4240
2026-01-10 09:48:02.00	162.17	40.11	-50.9	-52.5	15.4	0.00e+00	0	23	0	529530880	68	4233
2026-01-10 09:48:03.30	162.25	40.46	-50.9	-52.5	15.4	0.00e+00	0	23	0	532676608	68	4221
2026-01-10 09:48:04.01	162.29	40.64	-51.1	-52.7	15.3	0.00e+00	0	23	0	533725184	68	4336
2026-01-10 09:48:05.31	162.37	40.99	-51.3	-53.0	15.1	0.00e+00	0	23	0	535822336	68	4485
2026-01-10 09:48:06.03	162.41	41.19	-51.5	-53.2	15.1	0.00e+00	0	23	0	537919488	68	4564
2026-01-10 09:48:07.32	162.49	41.53	-51.8	-53.6	14.9	0.00e+00	0	23	0	540016640	68	4787
2026-01-10 09:48:08.04	162.53	41.73	-51.9	-53.7	14.8	0.00e+00	0	23	0	541065216	68	4844
2026-01-10 09:48:09.34	162.62	42.09	-51.9	-53.7	15.0	0.00e+00	0	23	0	544210944	69	4583
2026-01-10 09:48:10.05	162.66	42.28	-51.9	-53.7	14.9	0.00e+00	0	23	0	545259520	69	4583
2026-01-10 09:48:11.35	162.75	42.65	-51.8	-53.6	15.0	0.00e+00	0	23	0	547356672	69	4519
2026-01-10 09:48:12.08	162.80	42.85	-51.8	-53.6	15.0	0.00e+00	0	23	0	548405248	69	4508
2026-01-10 09:48:13.38	162.88	43.22	-51.6	-53.3	15.2	0.00e+00	0	23	0	551550976	69	4377
2026-01-10 09:48:14.09	162.93	43.42	-51.7	-53.4	15.1	0.00e+00	0	23	0	552599552	69	4428
2026-01-10 09:48:15.38	163.02	43.79	-51.8	-53.5	15.1	0.00e+00	0	23	0	554696704	69	4481
2026-01-10 09:48:16.10	163.08	44.00	-51.9	-53.8	15.0	0.00e+00	0	23	0	556793856	69	4601
2026-01-10 09:48:17.39	163.17	44.38	-52.1	-54.0	14.8	0.00e+00	0	23	0	558891008	69	4722
2026-01-10 09:48:18.11	163.22	44.59	-52.3	-54.2	14.7	0.00e+00	0	23	0	559939584	69	4867
2026-01-10 09:48:19.40	163.32	44.97	-52.5	-54.4	14.7	0.00e+00	0	23	0	563085312	70	4684
2026-01-10 09:48:20.11	163.37	45.18	-52.3	-54.3	14.8	0.00e+00	0	23	0	564133888	70	4601
2026-01-10 09:48:21.40	163.47	45.57	-52.5	-54.4	14.7	0.00e+00	0	23	0	566231040	70	4687
2026-01-10 09:48:22.11	163.53	45.79	-52.6	-54.5	14.7	0.00e+00	0	23	0	567279616	70	4746
2026-01-10 09:48:23.41	163.63	46.18	-53.0	-55.1	14.5	0.00e+00	0	23	0	570425344	71	4804
2026-01-10 09:48:24.13	163.69	46.40	-53.3	-55.5	14.4	0.00e+00	0	23	0	571473920	71	5027
2026-01-10 09:48:25.42	163.80	46.80	-53.8	-56.3	14.0	0.00e+00	0	23	0	573571072	72	5188
2026-01-10 09:48:26.14	163.86	47.03	-54.0	-56.6	14.0	0.00e+00	0	23	0	575668224	73	5063
2026-01-10 09:48:27.43	163.98	47.43	-53.9	-56.4	14.1	0.00e+00	0	23	0	577765376	73	4948
2026-01-10 09:48:28.16	164.04	47.66	-53.9	-56.4	14.1	0.00e+00	0	23	0	578813952	73	4937
2026-01-10 09:48:29.45	164.16	48.07	-54.1	-56.6	13.9	0.00e+00	0	23	0	581959680	73	5071
2026-01-10 09:48:30.17	164.22	48.30	-54.0	-56.5	13.9	0.00e+00	0	23	0	583008256	73	5027
2026-01-10 09:48:31.46	164.35	48.72	-53.9	-56.3	14.1	0.00e+00	0	23	0	585105408	73	4925
2026-01-10 09:48:32.18	164.41	48.95	-53.7	-56.1	14.2	0.00e+00	0	23	0	586153984	73	4789
2026-01-10 09:48:33.47	164.54	49.37	-53.7	-56.1	14.3	0.00e+00	0	23	0	589299712	73	4769
2026-01-10 09:48:34.19	164.61	49.61	-53.6	-55.9	14.4	0.00e+00	0	23	0	590348288	73	4677
2026-01-10 09:48:35.48	164.74	50.04	-53.3	-55.5	14.6	0.00e+00	0	23	0	592445440	73	4455
2026-01-10 09:48:36.20	164.82	50.28	-53.0	-55.0	14.8	0.00e+00	0	23	0	594542592	72	4493
2026-01-10 09:48:37.49	164.96	50.72	-52.6	-54.6	14.8	0.00e+00	0	23	0	596639744	71	4534
2026-01-10 09:48:38.21	165.04	50.96	-52.6	-54.6	14.9	0.00e+00	0	23	0	597688320	71	4494
2026-01-10 09:48:39.50	165.18	51.40	-51.9	-53.7	15.1	0.00e+00	0	23	0	600834048	70	4324
2026-01-10 09:48:40.21	165.26	51.65	-51.8	-53.5	15.3	0.00e+00	0	23	0	601882624	70	4205
2026-01-10 09:48:41.50	165.41	52.09	-51.7	-53.4	15.2	0.00e+00	0	23	0	603979776	69	4415
2026-01-10 09:48:42.23	165.50	52.35	-51.2	-52.9	15.4	0.00e+00	0	23	0	605028352	69	4148
2026-01-10 09:48:43.52	165.66	52.80	-51.2	-52.8	15.3	0.00e+00	0	23	0	608174080	68	4367
2026-01-10 09:48:44.24	165.75	53.05	-51.2	-52.8	15.3	0.00e+00	0	23	0	609222656	68	4363
2026-01-10 09:48:45.53	165.91	53.51	-50.8	-52.3	15.5	0.00e+00	0	23	0	611319808	68	4120
2026-01-10 09:48:46.25	166.01	53.77	-50.5	-52.0	15.6	0.00e+00	0	23	0	613416960	67	4213
2026-01-10 09:48:47.53	166.18	54.23	-49.9	-51.3	15.6	0.00e+00	0	23	0	615514112	66	4121
2026-01-10 09:48:48.25	166.28	54.49	-49.7	-51.2	15.7	0.00e+00	0	23	0	616562688	66	4059
2026-01-10 09:48:49.53	166.46	54.96	-49.6	-51.0	15.6	0.00e+00	0	23	0	618659840	65	4220
2026-01-10 09:48:50.25	166.56	55.23	-49.7	-51.2	15.5	0.00e+00	0	23	0	620756992	65	4301
2026-01-10 09:48:51.54	166.75	55.71	-50.0	-51.5	15.4	0.00e+00	0	23	0	622854144	65	4472
2026-01-10 09:48:52.26	166.86	55.97	-50.2	-51.7	15.3	0.00e+00	0	23	0	623902720	65	4589
2026-01-10 09:48:53.55	167.06	56.46	-50.6	-52.1	15.3	0.00e+00	0	23	0	627048448	66	4525
2026-01-10 09:48:54.27	167.18	56.73	-50.8	-52.4	15.2	0.00e+00	0	23	0	628097024	66	4664
2026-01-10 09:48:55.55	167.39	57.21	-51.3	-53.0	15.0	0.00e+00	0	23	0	630194176	67	4740
2026-01-10 09:48:56.29	167.51	57.50	-51.8	-53.6	14.9	0.00e+00	0	23	0	631242752	68	4773
2026-01-10 09:48:57.57	167.74	57.99	-51.9	-53.7	15.0	0.00e+00	0	23	0	634388480	69	4546
2026-01-10 09:48:58.29	167.87	58.27	-51.6	-53.4	15.2	0.00e+00	0	23	0	635437056	69	4392
2026-01-10 09:48:59.59	168.11	58.77	-51.3	-53.0	15.4	0.00e+00	0	23	0	637534208	69	4199
2026-01-10 09:49:00.31	168.24	59.06	-51.3	-52.9	15.4	0.00e+00	0	23	0	639631360	69	4165
2026-01-10 09:49:01.60	168.49	59.56	-50.9	-52.5	15.5	0.00e+00	0	23	0	641728512	68	4217
2026-01-10 09:49:02.31	168.64	59.84	-50.1	-51.5	15.7	0.00e+00	0	23	0	642777088	66	4234
2026-01-10 09:49:03.60	168.91	60.36	-49.5	-50.9	15.6	0.00e+00	0	23	0	645922816	65	4170
2026-01-10 09:49:04.31	169.06	60.64	-49.6	-51.0	15.6	0.00e+00	0	23	0	646971392	65	4227
2026-01-10 09:49:05.61	169.34	61.16	-49.6	-51.0	15.7	0.00e+00	0	23	0	649068544	65	4207
2026-01-10 09:49:06.33	169.51	61.46	-49.5	-50.9	15.7	0.00e+00	0	23	0	650117120	65	4190
2026-01-10 09:49:07.62	169.81	61.98	-49.4	-50.8	15.7	0.00e+00	0	23	0	653262848	65	4139
2026-01-10 09:49:08.34	169.99	62.27	-49.5	-50.9	15.7	0.00e+00	0	23	0	654311424	65	4152
2026-01-10 09:49:09.63	170.31	62.80	-49.4	-50.8	15.6	0.00e+00	0	23	0	656408576	65	4113
2026-01-10 09:49:10.35	170.50	63.10	-49.4	-50.8	15.7	0.00e+00	0	23	0	658505728	65	4106
2026-01-10 09:49:11.64	170.85	63.63	-50.0	-51.4	15.4	0.00e+00	0	23	0	660602880	65	4418
2026-01-10 09:49:12.35	171.04	63.93	-50.2	-51.7	15.3	0.00e+00	0	23	0	661651456	65	4552
2026-01-10 09:49:13.63	171.41	64.47	-51.0	-52.6	15.2	0.00e+00	0	23	0	664797184	67	4521
2026-01-10 09:49:14.35	171.63	64.77	-51.9	-53.7	14.9	0.00e+00	0	23	0	665845760	68	4844
2026-01-10 09:49:15.64	172.03	65.31	-52.6	-54.6	14.7	0.00e+00	0	23	0	667942912	70	4771
2026-01-10 09:49:16.36	172.26	65.62	-52.7	-54.7	14.7	0.00e+00	0	23	0	668991488	70	4820
2026-01-10 09:49:17.65	172.69	66.16	-52.7	-54.7	14.6	0.00e+00	0	23	0	672137216	70	4829
2026-01-10 09:49:18.37	172.94	66.47	-52.4	-54.4	14.8	0.00e+00	0	23	0	673185792	70	4655
2026-01-10 09:49:19.66	173.41	67.02	-52.4	-54.2	14.9	0.00e+00	0	23	0	675282944	70	4583
2026-01-10 09:49:20.38	173.68	67.33	-52.4	-54.3	14.8	0.00e+00	0	23	0	677380096	70	4627
2026-01-10 09:49:21.67	174.19	67.89	-52.4	-54.3	14.8	0.00e+00	0	23	0	679477248	70	4631
2026-01-10 09:49:22.39	174.49	68.20	-52.2	-54.1	15.0	0.00e+00	0	23	0	680525824	70	4506
2026-01-10 09:49:23.68	175.04	68.76	-51.5	-53.2	15.3	0.00e+00	0	23	0	682622976	69	4321
2026-01-10 09:49:24.39	175.36	69.06	-51.5	-53.1	15.3	0.00e+00	0	23	0	684720128	69	4271
2026-01-10 09:49:25.68	175.96	69.62	-51.5	-53.2	15.3	0.00e+00	0	23	0	686817280	69	4313
2026-01-10 09:49:26.40	176.31	69.94	-51.8	-53.5	15.1	0.00e+00	0	23	0	687865856	69	4472
2026-01-10 09:49:27.70	176.98	70.50	-51.7	-53.4	15.2	0.00e+00	0	23	0	691011584	69	4407
2026-01-10 09:49:28.41	177.36	70.81	-51.6	-53.3	15.2	0.00e+00	0	23	0	692060160	69	4355
2026-01-10 09:49:29.70	178.09	71.37	-51.4	-53.1	15.4	0.00e+00	0	23	0	694157312	69	4259
2026-01-10 09:49:30.42	178.51	71.69	-51.5	-53.2	15.3	0.00e+00	0	23	0	696254464	69	4311
2026-01-10 09:49:31.72	179.33	72.26	-51.8	-53.5	15.1	0.00e+00	0	23	0	698351616	69	4489
2026-01-10 09:49:32.43	179.79	72.56	-52.2	-54.0	14.9	0.00e+00	0	23	0	699400192	69	4719
2026-01-10 09:49:33.72	180.68	73.13	-53.1	-55.3	14.5	0.00e+00	0	23	0	701497344	71	4880
2026-01-10 09:49:34.43	181.20	73.43	-53.1	-55.2	14.5	0.00e+00	0	23	0	703594496	71	4825
2026-01-10 09:49:35.73	182.20	74.00	-52.8	-54.7	14.8	0.00e+00	0	23	0	705691648	71	4594
2026-01-10 09:49:36.44	182.78	74.30	-52.8	-54.8	14.8	0.00e+00	0	23	0	706740224	71	4625
2026-01-10 09:49:37.73	183.90	74.86	-53.2	-55.4	14.4	0.00e+00	0	23	0	709885952	71	4952
2026-01-10 09:49:38.45	184.56	75.17	-53.6	-55.9	14.3	0.00e+00	0	23	0	710934528	72	4963
2026-01-10 09:49:39.75	185.82	75.72	-53.6	-55.9	14.3	0.00e+00	0	23	0	713031680	72	4929
2026-01-10 09:49:40.47	186.57	76.02	-53.6	-55.9	14.2	0.00e+00	0	23	0	715128832	72	4939
2026-01-10 09:49:41.75	187.98	76.56	-53.8	-56.1	14.1	0.00e+00	0	23	0	717225984	72	5074
2026-01-10 09:49:42.47	188.82	76.86	-54.0	-56.4	14.1	0.00e+00	0	23	0	718274560	73	4940
2026-01-10 09:49:43.76	190.44	77.39	-55.2	-58.2	13.2	0.00e+00	0	23	0	720371712	75	5434
2026-01-10 09:49:44.49	191.41	77.69	-55.5	-58.8	12.9	0.00e+00	0	23	0	722468864	76	5493
2026-01-10 09:49:45.78	193.26	78.20	-55.0	-57.9	13.6	0.00e+00	0	23	0	724566016	76	4947
2026-01-10 09:49:46.51	194.38	78.49	-54.8	-57.6	13.8	0.00e+00	0	23	0	725614592	76	4772
2026-01-10 09:49:47.80	196.51	78.99	-53.8	-56.1	14.5	0.00e+00	0	23	0	728760320	74	4502
2026-01-10 09:49:48.52	197.78	79.26	-53.5	-55.6	14.6	0.00e+00	0	23	0	729808896	73	4528
2026-01-10 09:49:49.81	200.22	79.73	-53.7	-56.0	14.4	0.00e+00	0	23	0	731906048	73	4707
2026-01-10 09:49:50.52	201.67	79.98	-53.6	-55.8	14.5	0.00e+00	0	23	0	734003200	73	4615
2026-01-10 09:49:51.82	204.51	80.43	-52.7	-54.5	15.0	0.00e+00	0	23	0	736100352	72	4241
2026-01-10 09:49:52.54	206.20	80.66	-52.4	-54.3	15.1	0.00e+00	0	23	0	737148928	71	4344
2026-01-10 09:49:53.83	209.45	81.06	-52.6	-54.4	15.0	0.00e+00	0	23	0	739246080	71	4430
2026-01-10 09:49:54.56	211.42	81.28	-52.2	-53.9	15.2	0.00e+00	0	23	0	741343232	71	4170
2026-01-10 09:49:55.85	215.14	81.63	-51.8	-53.5	15.4	0.00e+00	0	23	0	743440384	70	4198
2026-01-10 09:49:56.57	217.35	81.81	-51.9	-53.6	15.2	0.00e+00	0	23	0	744488960	70	4289
2026-01-10 09:49:57.86	221.56	82.11	-52.0	-53.7	15.2	0.00e+00	0	23	0	747634688	70	4329
2026-01-10 09:49:58.57	224.01	82.25	-52.0	-53.7	15.2	0.00e+00	0	23	0	748683264	70	4313
2026-01-10 09:49:59.86	228.67	82.47	-52.1	-53.8	15.2	0.00e+00	0	23	0	750780416	70	4381
2026-01-10 09:50:00.58	231.38	82.57	-51.9	-53.6	15.2	0.00e+00	0	23	0	751828992	70	4283
2026-01-10 09:50:01.86	236.37	82.71	-51.9	-53.6	15.3	0.00e+00	0	23	0	754974720	70	4277
2026-01-10 09:50:02.58	239.25	82.76	-52.2	-54.1	15.0	0.00e+00	0	23	0	756023296	70	4497
2026-01-10 09:50:03.88	244.53	82.81	-52.2	-54.0	15.1	0.00e+00	0	23	0	758120448	70	4466
2026-01-10 09:50:04.59	247.43	82.81	-52.5	-54.4	14.9	0.00e+00	0	23	0	760217600	70	4685
2026-01-10 09:50:05.88	252.67	82.77	-53.4	-55.6	14.5	0.00e+00	0	23	0	762314752	72	4789
2026-01-10 09:50:06.60	255.55	82.72	-53.7	-56.0	14.2	0.00e+00	0	23	0	763363328	72	5008
2026-01-10 09:50:07.89	260.59	82.58	-54.3	-56.8	13.9	0.00e+00	0	23	0	766509056	73	5185
2026-01-10 09:50:08.61	263.31	82.48	-55.1	-58.1	13.4	0.00e+00	0	23	0	767557632	75	5364
2026-01-10 09:50:09.91	268.03	82.26	-55.5	-58.7	13.0	0.00e+00	0	23	0	769654784	76	5426
2026-01-10 09:50:10.63	270.51	82.12	-55.2	-58.1	13.5	0.00e+00	0	23	0	770703360	76	5058
2026-01-10 09:50:11.92	274.73	81.83	-54.8	-57.6	13.9	0.00e+00	0	23	0	773849088	76	4774
2026-01-10 09:50:12.64	276.95	81.65	-54.2	-56.6	14.3	0.00e+00	0	23	0	774897664	75	4530
2026-01-10 09:50:13.93	280.69	81.30	-53.3	-55.4	14.8	0.00e+00	0	23	0	776994816	73	4396
2026-01-10 09:50:14.65	282.64	81.08	-52.8	-54.7	15.0	0.00e+00	0	23	0	779091968	72	4321
2026-01-10 09:50:15.94	285.90	80.68	-51.8	-53.4	15.4	0.00e+00	0	23	0	781189120	70	4184
2026-01-10 09:50:16.66	287.60	80.45	-51.5	-53.2	15.3	0.00e+00	0	23	0	782237696	69	4302
2026-01-10 09:50:17.96	290.45	80.01	-50.8	-52.3	15.6	0.00e+00	0	23	0	785383424	68	4110
2026-01-10 09:50:18.67	291.90	79.75	-49.9	-51.3	15.7	0.00e+00	0	23	0	786432000	66	4133
2026-01-10 09:50:19.96	294.36	79.28	-50.5	-52.0	15.3	0.00e+00	0	23	0	788529152	66	4450
2026-01-10 09:50:20.68	295.64	79.01	-51.2	-52.8	15.1	0.00e+00	0	23	0	789577728	67	4651
2026-01-10 09:50:21.97	297.77	78.52	-51.5	-53.2	15.1	0.00e+00	0	23	0	792723456	68	4558
2026-01-10 09:50:22.69	298.88	78.24	-51.3	-52.9	15.3	0.00e+00	0	23	0	793772032	68	4437
2026-01-10 09:50:23.99	300.75	77.72	-51.8	-53.5	15.0	0.00e+00	0	23	0	795869184	68	4715
2026-01-10 09:50:24.70	301.70	77.43	-52.6	-54.5	14.8	0.00e+00	0	23	0	797966336	70	4742
2026-01-10 09:50:25.99	303.33	76.90	-53.9	-56.2	14.1	0.00e+00	0	23	0	800063488	72	5134
2026-01-10 09:50:26.71	304.18	76.60	-53.5	-55.7	14.6	0.00e+00	0	23	0	801112064	73	4551
2026-01-10 09:50:28.00	305.61	76.06	-53.6	-55.8	14.5	0.00e+00	0	23	0	804257792	73	4632
2026-01-10 09:50:28.71	306.34	75.76	-54.2	-56.6	14.0	0.00e+00	0	23	0	805306368	73	5083
2026-01-10 09:50:30.00	307.61	75.22	-54.2	-56.6	14.2	0.00e+00	0	23	0	807403520	74	4776
2026-01-10 09:50:30.72	308.27	74.91	-53.8	-56.0	14.6	0.00e+00	0	23	0	808452096	74	4451
2026-01-10 09:50:32.01	309.39	74.35	-54.3	-56.8	14.0	0.00e+00	0	23	0	811597824	74	4894
2026-01-10 09:50:32.74	309.99	74.04	-54.8	-57.5	13.6	0.00e+00	0	23	0	812646400	74	5289
2026-01-10 09:50:34.03	310.99	73.48	-55.1	-58.2	13.3	0.00e+00	0	23	0	814743552	75	5403
2026-01-10 09:50:34.74	311.51	73.17	-55.2	-58.3	13.2	0.00e+00	0	23	0	816840704	75	5519
2026-01-10 09:50:36.03	312.40	72.61	-54.2	-56.6	14.3	0.00e+00	0	23	0	818937856	75	4530
2026-01-10 09:50:36.74	312.87	72.30	-53.5	-55.7	14.6	0.00e+00	0	23	0	819986432	73	4565
2026-01-10 09:50:38.04	313.69	71.74	-53.6	-55.9	14.5	0.00e+00	0	23	0	822083584	73	4655
2026-01-10 09:50:38.75	314.11	71.43	-54.0	-56.4	14.2	0.00e+00	0	23	0	824180736	73	4966
2026-01-10 09:50:40.05	314.84	70.86	-53.0	-55.1	14.8	0.00e+00	0	23	0	826277888	72	4494
2026-01-10 09:50:40.77	315.23	70.55	-52.8	-54.7	15.0	0.00e+00	0	23	0	827326464	72	4333
2026-01-10 09:50:42.06	315.90	69.99	-53.2	-55.3	14.5	0.00e+00	0	23	0	830472192	71	4924
2026-01-10 09:50:42.77	316.25	69.68	-53.4	-55.6	14.4	0.00e+00	0	23	0	831520768	72	4794
2026-01-10 09:50:44.07	316.86	69.12	-54.6	-57.3	13.8	0.00e+00	0	23	0	833617920	74	5192
2026-01-10 09:50:44.78	317.17	68.81	-54.6	-57.2	13.7	0.00e+00	0	23	0	835715072	74	5149
2026-01-10 09:50:46.07	317.73	68.25	-53.1	-55.1	14.9	0.00e+00	0	23	0	837812224	72	4510
2026-01-10 09:50:46.79	318.03	67.94	-52.8	-54.7	15.0	0.00e+00	0	23	0	838860800	72	4334
2026-01-10 09:50:48.08	318.53	67.39	-54.2	-56.7	14.0	0.00e+00	0	23	0	840957952	73	5116
2026-01-10 09:50:48.80	318.81	67.08	-54.6	-57.3	13.7	0.00e+00	0	23	0	843055104	74	5171
2026-01-10 09:50:50.08	319.27	66.53	-53.6	-55.7	14.5	0.00e+00	0	23	0	845152256	73	4577
2026-01-10 09:50:50.80	319.52	66.23	-52.9	-54.8	14.9	0.00e+00	0	23	0	846200832	72	4368
2026-01-10 09:50:52.09	319.96	65.68	-52.4	-54.1	15.2	0.00e+00	0	23	0	849346560	71	4291
2026-01-10 09:50:52.80	320.19	65.38	-52.0	-53.8	15.2	0.00e+00	0	23	0	850395136	70	4352
2026-01-10 09:50:54.10	320.59	64.83	-52.9	-54.9	14.6	0.00e+00	0	23	0	852492288	70	4940
2026-01-10 09:50:54.82	320.81	64.53	-53.6	-55.9	14.3	0.00e+00	0	23	0	853540864	72	4950
2026-01-10 09:50:56.12	321.19	63.99	-52.1	-53.9	15.1	0.00e+00	0	23	0	856686592	70	4396
2026-01-10 09:50:56.84	321.39	63.69	-50.9	-52.3	15.5	0.00e+00	0	23	0	857735168	68	4145
2026-01-10 09:50:58.12	321.73	63.16	-50.1	-51.5	15.6	0.00e+00	0	23	0	859832320	66	4205
2026-01-10 09:50:58.84	321.92	62.86	-50.4	-51.9	15.4	0.00e+00	0	23	0	861929472	66	4404
2026-01-10 09:51:00.13	322.25	62.33	-50.8	-52.3	15.2	0.00e+00	0	23	0	864026624	66	4631
2026-01-10 09:51:00.85	322.42	62.04	-50.6	-52.2	15.2	0.00e+00	0	23	0	865075200	66	4548
2026-01-10 09:51:02.14	322.73	61.52	-50.6	-52.2	15.2	0.00e+00	0	23	0	868220928	66	4561
2026-01-10 09:51:02.86	322.89	61.23	-50.8	-52.3	15.2	0.00e+00	0	23	0	869269504	66	4633
2026-01-10 09:51:04.15	323.18	60.71	-51.0	-52.6	15.2	0.00e+00	0	23	0	871366656	67	4540
2026-01-10 09:51:04.86	323.33	60.43	-51.4	-53.1	15.0	0.00e+00	0	23	0	872415232	67	4782
2026-01-10 09:51:06.15	323.60	59.91	-53.0	-55.1	14.6	0.00e+00	0	23	0	875560960	71	4798
2026-01-10 09:51:06.87	323.74	59.63	-53.7	-56.1	14.3	0.00e+00	0	23	0	876609536	72	5045
2026-01-10 09:51:08.15	323.99	59.13	-53.0	-55.0	14.8	0.00e+00	0	23	0	878706688	72	4488
2026-01-10 09:51:08.87	324.13	58.85	-52.8	-54.7	15.0	0.00e+00	0	23	0	880803840	72	4327
2026-01-10 09:51:10.16	324.37	58.34	-52.8	-54.7	15.0	0.00e+00	0	23	0	882900992	72	4309
2026-01-10 09:51:10.88	324.50	58.07	-53.1	-55.2	14.7	0.00e+00	0	23	0	883949568	72	4552
2026-01-10 09:51:12.17	324.72	57.57	-52.8	-54.7	15.0	0.00e+00	0	23	0	887095296	72	4311
2026-01-10 09:51:12.90	324.85	57.29	-52.6	-54.5	14.9	0.00e+00	0	23	0	888143872	71	4479
2026-01-10 09:51:14.19	325.06	56.80	-52.6	-54.4	15.0	0.00e+00	0	23	0	890241024	71	4434
2026-01-10 09:51:14.90	325.18	56.54	-52.4	-54.2	15.1	0.00e+00	0	23	0	891289600	71	4334
2026-01-10 09:51:16.19	325.38	56.05	-51.7	-53.3	15.4	0.00e+00	0	23	0	894435328	70	4132
2026-01-10 09:51:16.90	325.49	55.79	-51.4	-53.0	15.4	0.00e+00	0	23	0	895483904	69	4231
2026-01-10 09:51:18.19	325.68	55.31	-51.2	-52.8	15.5	0.00e+00	0	23	0	897581056	69	4110
2026-01-10 09:51:18.91	325.78	55.05	-51.0	-52.6	15.4	0.00e+00	0	23	0	899678208	68	4277
2026-01-10 09:51:20.20	325.97	54.58	-50.8	-52.3	15.6	0.00e+00	0	23	0	901775360	68	4129
2026-01-10 09:51:20.92	326.06	54.32	-50.5	-52.0	15.5	0.00e+00	0	23	0	902823936	67	4223
2026-01-10 09:51:22.21	326.24	53.85	-50.4	-51.9	15.6	0.00e+00	0	23	0	904921088	67	4157
2026-01-10 09:51:22.93	326.33	53.60	-50.4	-51.9	15.6	0.00e+00	0	23	0	907018240	67	4154
2026-01-10 09:51:24.22	326.50	53.14	-50.9	-52.4	15.3	0.00e+00	0	23	0	909115392	67	4437
2026-01-10 09:51:24.93	326.59	52.89	-51.3	-53.0	15.0	0.00e+00	0	23	0	910163968	67	4711
2026-01-10 09:51:26.22	326.75	52.44	-51.8	-53.5	15.0	0.00e+00	0	23	0	913309696	68	4727
2026-01-10 09:51:26.94	326.83	52.18	-52.0	-53.7	15.0	0.00e+00	0	23	0	914358272	69	4588
2026-01-10 09:51:28.23	326.98	51.74	-52.3	-54.2	14.8	0.00e+00	0	23	0	916455424	69	4829
2026-01-10 09:51:28.94	327.06	51.49	-53.0	-55.0	14.6	0.00e+00	0	23	0	917504000	71	4752
2026-01-10 09:51:30.23	327.21	51.05	-54.6	-57.2	13.8	0.00e+00	0	23	0	920649728	74	5151
2026-01-10 09:51:30.94	327.29	50.81	-55.1	-58.0	13.4	0.00e+00	0	23	0	921698304	75	5337
2026-01-10 09:51:32.24	327.42	50.38	-55.5	-58.6	13.0	0.00e+00	0	23	0	923795456	76	5400
2026-01-10 09:51:32.95	327.50	50.14	-55.6	-58.9	12.9	0.00e+00	0	23	0	925892608	76	5535
2026-01-10 09:51:34.25	327.63	49.71	-55.3	-58.4	13.2	0.00e+00	0	23	0	927989760	76	5230
2026-01-10 09:51:34.96	327.70	49.48	-55.1	-57.9	13.6	0.00e+00	0	23	0	929038336	76	4970
2026-01-10 09:51:36.25	327.83	49.05	-54.6	-57.3	13.9	0.00e+00	0	23	0	932184064	75	4879
2026-01-10 09:51:36.97	327.90	48.82	-54.6	-57.3	13.9	0.00e+00	0	23	0	933232640	75	4877
2026-01-10 09:51:38.26	328.02	48.40	-55.0	-57.9	13.4	0.00e+00	0	23	0	935329792	75	5226
2026-01-10 09:51:38.98	328.09	48.17	-55.7	-59.2	12.6	0.00e+00	0	23	0	936378368	76	5737
2026-01-10 09:51:40.27	328.21	47.76	-56.7	-61.3	11.1	3.05e-05	0	23	0	939524096	78	6555
2026-01-10 09:51:40.98	328.27	47.54	-56.7	-61.3	11.2	1.88e-04	0	23	0	940572672	78	6515
2026-01-10 09:51:42.27	328.38	47.14	-55.0	-58.0	13.5	0.00e+00	0	23	0	942669824	76	5003
2026-01-10 09:51:42.98	328.44	46.92	-54.3	-56.8	14.2	0.00e+00	0	23	0	944766976	75	4616
2026-01-10 09:51:44.28	328.55	46.51	-53.6	-55.8	14.5	0.00e+00	0	23	0	946864128	73	4620
2026-01-10 09:51:44.99	328.61	46.30	-53.2	-55.3	14.8	0.00e+00	0	23	0	947912704	73	4376
2026-01-10 09:51:46.28	328.72	45.91	-52.7	-54.6	15.0	0.00e+00	0	23	0	950009856	72	4288
2026-01-10 09:51:47.00	328.77	45.69	-52.5	-54.4	15.0	0.00e+00	0	23	0	952107008	71	4426
2026-01-10 09:51:48.30	328.88	45.30	-52.7	-54.7	14.9	0.00e+00	0	23	0	954204160	71	4561
2026-01-10 09:51:49.01	328.93	45.09	-52.6	-54.5	14.9	0.00e+00	0	23	0	955252736	71	4452
2026-01-10 09:51:50.29	329.03	44.71	-53.3	-55.5	14.4	0.00e+00	0	23	0	958398464	71	5010
2026-01-10 09:51:51.01	329.08	44.50	-53.5	-55.8	14.3	0.00e+00	0	23	0	959447040	72	4876
2026-01-10 09:51:52.30	329.17	44.12	-53.5	-55.8	14.3	0.00e+00	0	23	0	961544192	72	4879
2026-01-10 09:51:53.03	329.23	43.91	-53.1	-55.2	14.7	0.00e+00	0	23	0	963641344	72	4565
2026-01-10 09:51:54.33	329.32	43.54	-52.2	-54.1	15.2	0.00e+00	0	23	0	965738496	71	4262
2026-01-10 09:51:55.04	329.37	43.34	-51.8	-53.5	15.3	0.00e+00	0	23	0	966787072	70	4214
2026-01-10 09:51:56.33	329.45	42.97	-51.2	-52.8	15.5	0.00e+00	0	23	0	968884224	69	4103
2026-01-10 09:51:57.05	329.50	42.77	-50.4	-51.8	15.6	0.00e+00	0	23	0	970981376	67	4145
2026-01-10 09:51:58.34	329.59	42.41	-50.1	-51.6	15.5	0.00e+00	0	23	0	973078528	66	4253
2026-01-10 09:51:59.05	329.63	42.21	-50.3	-51.8	15.5	0.00e+00	0	23	0	974127104	66	4345
2026-01-10 09:52:00.35	329.72	41.86	-51.4	-53.1	15.0	0.00e+00	0	23	0	977272832	67	4773
2026-01-10 09:52:01.07	329.76	41.66	-52.5	-54.5	14.8	0.00e+00	0	23	0	978321408	70	4715
2026-01-10 09:52:02.35	329.84	41.32	-53.3	-55.6	14.3	0.00e+00	0	23	0	980418560	71	5055
2026-01-10 09:52:03.07	329.88	41.12	-53.4	-55.6	14.4	0.00e+00	0	23	0	982515712	72	4809
2026-01-10 09:52:04.36	329.96	40.78	-53.2	-55.4	14.5	0.00e+00	0	23	0	984612864	72	4702
2026-01-10 09:52:05.08	330.00	40.59	-52.9	-54.9	14.9	0.00e+00	0	23	0	985661440	72	4433
2026-01-10 09:52:06.36	330.08	40.25	-52.3	-54.2	15.1	0.00e+00	0	23	0	987758592	71	4324
2026-01-10 09:52:07.09	330.12	40.06	-51.9	-53.7	15.2	0.00e+00	0	23	0	989855744	70	4326
2026-01-10 09:52:08.37	330.19	39.73	-51.2	-52.8	15.5	0.00e+00	0	23	0	991952896	69	4133
2026-01-10 09:52:09.09	330.23	39.55	-51.1	-52.6	15.4	0.00e+00	0	23	0	993001472	68	4274
2026-01-10 09:52:10.39	330.30	39.21	-51.4	-53.0	15.2	0.00e+00	0	23	0	996147200	68	4461
2026-01-10 09:52:11.10	330.34	39.03	-51.7	-53.4	15.0	0.00e+00	0	23	0	997195776	68	4666
2026-01-10 09:52:12.39	330.41	38.71	-52.3	-54.2	14.7	0.00e+00	0	23	0	999292928	69	4842
2026-01-10 09:52:13.10	330.45	38.53	-52.8	-54.9	14.5	0.00e+00	0	23	0	1000341504	70	4958
2026-01-10 09:52:14.39	330.52	38.21	-53.9	-56.3	14.0	0.00e+00	0	23	0	1003487232	72	5213
2026-01-10 09:52:15.11	330.55	38.04	-54.3	-57.0	13.7	0.00e+00	0	23	0	1004535808	73	5315
2026-01-10 09:52:16.40	330.62	37.72	-54.9	-57.9	13.2	0.00e+00	0	23	0	1006632960	74	5590
2026-01-10 09:52:17.12	330.65	37.55	-55.0	-58.2	13.2	0.00e+00	0	23	0	1008730112	75	5407
2026-01-10 09:52:18.41	330.72	37.24	-54.8	-57.8	13.4	0.00e+00	0	23	0	1010827264	75	5207
2026-01-10 09:52:19.12	330.75	37.07	-54.3	-57.0	14.0	0.00e+00	0	23	0	1011875840	75	4728
2026-01-10 09:52:20.41	330.81	36.76	-53.9	-56.3	14.3	0.00e+00	0	23	0	1015021568	74	4636
2026-01-10 09:52:21.12	330.85	36.59	-53.8	-56.1	14.4	0.00e+00	0	23	0	1016070144	74	4542
2026-01-10 09:52:22.41	330.90	36.29	-53.0	-55.1	14.7	0.00e+00	0	23	0	1018167296	72	4507
2026-01-10 09:52:23.13	330.94	36.13	-52.9	-55.0	14.8	0.00e+00	0	23	0	1019215872	72	4445
2026-01-10 09:52:24.42	331.00	35.83	-52.5	-54.4	14.9	0.00e+00	0	23	0	1022361600	71	4430
2026-01-10 09:52:25.13	331.03	35.67	-52.5	-54.3	15.0	0.00e+00	0	23	0	1023410176	71	4388
2026-01-10 09:52:26.42	331.08	35.37	-52.7	-54.6	14.8	0.00e+00	0	23	0	1025507328	71	4539
2026-01-10 09:52:27.14	331.12	35.21	-52.8	-54.9	14.7	0.00e+00	0	23	0	1027604480	71	4657
2026-01-10 09:52:28.43	331.17	34.92	-53.3	-55.5	14.3	0.00e+00	0	23	0	1029701632	71	5010
2026-01-10 09:52:29.15	331.20	34.76	-53.6	-55.9	14.2	0.00e+00	0	23	0	1030750208	72	4938
2026-01-10 09:52:30.44	331.26	34.48	-54.3	-56.9	13.8	0.00e+00	0	23	0	1032847360	73	5254
2026-01-10 09:52:31.16	331.29	34.32	-54.6	-57.5	13.5	0.00e+00	0	23	0	1034944512	74	5314
2026-01-10 09:52:32.45	331.34	34.04	-55.4	-58.8	12.7	0.00e+00	0	23	0	1037041664	75	5843
2026-01-10 09:52:33.17	331.37	33.88	-55.7	-59.4	12.4	7.00e-07	0	23	0	1038090240	76	5856
2026-01-10 09:52:34.46	331.42	33.60	-56.0	-60.0	12.1	3.00e-06	0	23	0	1041235968	77	5953
2026-01-10 09:52:35.17	331.45	33.45	-56.0	-60.0	12.1	3.80e-06	0	23	0	1042284544	77	5938
2026-01-10 09:52:36.46	331.50	33.18	-55.8	-59.4	12.5	2.20e-06	0	23	0	1044381696	77	5587
2026-01-10 09:52:37.18	331.53	33.03	-55.5	-59.0	12.8	1.50e-06	0	23	0	1045430272	77	5306
2026-01-10 09:52:38.46	331.57	32.76	-55.0	-58.0	13.3	0.00e+00	0	23	0	1048576000	76	5007
2026-01-10 09:52:39.18	331.60	32.61	-54.7	-57.5	13.8	0.00e+00	0	23	0	1049624576	76	4735
2026-01-10 09:52:40.47	331.65	32.35	-54.4	-57.0	13.9	0.00e+00	0	23	0	1051721728	75	4759
2026-01-10 09:52:41.19	331.68	32.20	-54.2	-56.8	14.1	0.00e+00	0	23	0	1053818880	75	4610
2026-01-10 09:52:42.48	331.72	31.94	-54.2	-56.8	13.9	0.00e+00	0	23	0	1055916032	74	4892
2026-01-10 09:52:43.20	331.75	31.79	-54.1	-56.6	14.1	0.00e+00	0	23	0	1056964608	74	4774
2026-01-10 09:52:44.48	331.80	31.53	-54.2	-56.7	14.0	0.00e+00	0	23	0	1060110336	74	4870
2026-01-10 09:52:45.20	331.82	31.39	-54.1	-56.7	14.0	0.00e+00	0	23	0	1061158912	74	4818
2026-01-10 09:52:46.49	331.87	31.14	-54.2	-56.7	13.9	0.00e+00	0	23	0	1063256064	74	4865
2026-01-10 09:52:47.21	331.89	31.00	-54.1	-56.6	14.1	0.00e+00	0	23	0	1064304640	74	4775
2026-01-10 09:52:48.50	331.93	30.74	-54.0	-56.5	14.1	0.00e+00	0	23	0	1067450368	74	4718
2026-01-10 09:52:49.21	331.96	30.61	-54.0	-56.5	14.2	0.00e+00	0	23	0	1068498944	74	4707
2026-01-10 09:52:50.51	332.00	30.36	-53.8	-56.2	14.3	0.00e+00	0	23	0	1070596096	74	4560
2026-01-10 09:52:51.22	332.03	30.22	-53.8	-56.2	14.3	0.00e+00	0	23	0	1072693248	74	4595
2026-01-10 09:52:52.51	332.07	29.97	-53.7	-56.0	14.4	0.00e+00	0	23	0	1074790400	74	4490
2026-01-10 09:52:53.23	332.09	29.84	-53.6	-55.9	14.4	0.00e+00	0	23	0	1075838976	73	4693
2026-01-10 09:52:54.52	332.13	29.60	-53.5	-55.8	14.4	0.00e+00	0	23	0	1078984704	73	4644
2026-01-10 09:52:55.23	332.16	29.46	-53.5	-55.8	14.4	0.00e+00	0	23	0	1080033280	73	4646
2026-01-10 09:52:56.53	332.20	29.22	-53.4	-55.6	14.5	0.00e+00	0	23	0	1082130432	73	4534
2026-01-10 09:52:57.24	332.22	29.09	-53.3	-55.6	14.6	0.00e+00	0	23	0	1083179008	73	4510
2026-01-10 09:52:58.53	332.26	28.86	-53.4	-55.7	14.5	0.00e+00	0	23	0	1086324736	73	4546
2026-01-10 09:52:59.24	332.28	28.73	-53.2	-55.4	14.7	0.00e+00	0	23	0	1087373312	73	4398
2026-01-10 09:53:00.54	332.32	28.49	-52.8	-54.8	14.9	0.00e+00	0	23	0	1089470464	72	4375
2026-01-10 09:53:01.25	332.34	28.37	-52.8	-54.8	14.9	0.00e+00	0	23	0	1091567616	72	4365
2026-01-10 09:53:02.54	332.38	28.14	-52.8	-54.8	14.8	0.00e+00	0	23	0	1093664768	72	4368
2026-01-10 09:53:03.26	332.40	28.01	-52.8	-54.8	14.8	0.00e+00	0	23	0	1094713344	72	4389
2026-01-10 09:53:04.55	332.44	27.78	-52.5	-54.4	14.9	0.00e+00	0	23	0	1096810496	71	4409
2026-01-10 09:53:05.26	332.46	27.66	-52.5	-54.5	14.9	0.00e+00	0	23	0	1098907648	71	4445
2026-01-10 09:53:06.55	332.50	27.44	-52.0	-53.8	15.1	0.00e+00	0	23	0	1101004800	70	4388
2026-01-10 09:53:07.26	332.52	27.31	-52.1	-53.9	15.0	0.00e+00	0	23	0	1102053376	70	4436
2026-01-10 09:53:08.55	332.55	27.09	-51.9	-53.7	15.1	0.00e+00	0	23	0	1105199104	70	4329
2026-01-10 09:53:09.27	332.57	26.97	-51.8	-53.6	15.2	0.00e+00	0	23	0	1106247680	70	4270
2026-01-10 09:53:10.57	332.61	26.75	-51.8	-53.6	15.2	0.00e+00	0	23	0	1108344832	70	4283
2026-01-10 09:53:11.28	332.63	26.63	-51.8	-53.6	15.2	0.00e+00	0	23	0	1109393408	70	4264
2026-01-10 09:53:12.57	332.66	26.42	-51.8	-53.6	15.2	0.00e+00	0	23	0	1112539136	70	4261
2026-01-10 09:53:13.29	332.68	26.30	-51.8	-53.6	15.2	0.00e+00	0	23	0	1113587712	70	4288
2026-01-10 09:53:14.59	332.72	26.08	-51.9	-53.8	15.1	0.00e+00	0	23	0	1115684864	70	4343
2026-01-10 09:53:15.30	332.73	25.97	-51.9	-53.8	15.1	0.00e+00	0	23	0	1117782016	70	4357
2026-01-10 09:53:16.59	332.77	25.75	-52.0	-53.9	15.1	0.00e+00	0	23	0	1119879168	70	4396
2026-01-10 09:53:17.31	332.79	25.64	-52.0	-53.9	15.0	0.00e+00	0	23	0	1120927744	70	4407
2026-01-10 09:53:18.60	332.82	25.43	-52.0	-53.9	15.0	0.00e+00	0	23	0	1124073472	70	4414
2026-01-10 09:53:19.31	332.84	25.32	-52.0	-53.9	15.0	0.00e+00	0	23	0	1125122048	70	4421
2026-01-10 09:53:20.61	332.87	25.11	-52.1	-54.0	15.0	0.00e+00	0	23	0	1127219200	70	4468
2026-01-10 09:53:21.33	332.89	25.00	-52.1	-54.0	15.0	0.00e+00	0	23	0	1128267776	70	4459
2026-01-10 09:53:22.62	332.92	24.79	-51.9	-53.8	15.1	0.00e+00	0	23	0	1131413504	70	4359
2026-01-10 09:53:23.34	332.94	24.68	-51.8	-53.7	15.2	0.00e+00	0	23	0	1132462080	70	4298
2026-01-10 09:53:24.62	332.97	24.48	-51.6	-53.4	15.1	0.00e+00	0	23	0	1134559232	69	4403
2026-01-10 09:53:25.34	332.99	24.37	-51.4	-53.1	15.3	0.00e+00	0	23	0	1136656384	69	4279
2026-01-10 09:53:26.63	333.02	24.17	-51.2	-52.9	15.4	0.00e+00	0	23	0	1138753536	69	4158
2026-01-10 09:53:27.35	333.04	24.06	-51.1	-52.8	15.3	0.00e+00	0	23	0	1139802112	68	4356
2026-01-10 09:53:28.64	333.07	23.87	-51.0	-52.7	15.3	0.00e+00	0	23	0	1141899264	68	4309
2026-01-10 09:53:29.36	333.08	23.76	-50.9	-52.5	15.4	0.00e+00	0	23	0	1143996416	68	4220
2026-01-10 09:53:30.65	333.11	23.56	-50.8	-52.3	15.5	0.00e+00	0	23	0	1146093568	68	4144
2026-01-10 09:53:31.36	333.13	23.46	-50.7	-52.3	15.5	0.00e+00	0	23	0	1147142144	68	4121
2026-01-10 09:53:32.65	333.16	23.27	-50.7	-52.3	15.5	0.00e+00	0	23	0	1150287872	68	4117
2026-01-10 09:53:33.37	333.18	23.16	-50.4	-52.0	15.5	0.00e+00	0	23	0	1151336448	67	4205
2026-01-10 09:53:34.65	333.20	22.97	-50.5	-52.1	15.4	0.00e+00	0	23	0	1153433600	67	4276
2026-01-10 09:53:35.37	333.22	22.87	-50.4	-51.9	15.5	0.00e+00	0	23	0	1155530752	67	4182
2026-01-10 09:53:36.66	333.25	22.68	-50.3	-51.9	15.5	0.00e+00	0	23	0	1157627904	67	4157
2026-01-10 09:53:37.37	333.26	22.58	-50.4	-51.9	15.5	0.00e+00	0	23	0	1158676480	67	4179
2026-01-10 09:53:38.66	333.29	22.40	-50.4	-51.9	15.4	0.00e+00	0	23	0	1160773632	67	4181
2026-01-10 09:53:39.37	333.31	22.29	-50.5	-52.0	15.4	0.00e+00	0	23	0	1162870784	67	4233
2026-01-10 09:53:40.67	333.34	22.11	-50.5	-52.1	15.4	0.00e+00	0	23	0	1164967936	67	4266
2026-01-10 09:53:41.39	333.35	22.01	-50.5	-52.0	15.4	0.00e+00	0	23	0	1166016512	67	4235
2026-01-10 09:53:42.68	333.38	21.83	-50.6	-52.2	15.3	0.00e+00	0	23	0	1169162240	67	4322
2026-01-10 09:53:43.40	333.39	21.73	-50.5	-52.1	15.4	0.00e+00	0	23	0	1170210816	67	4266
2026-01-10 09:53:44.68	333.42	21.55	-50.6	-52.3	15.3	0.00e+00	0	23	0	1172307968	67	4354
2026-01-10 09:53:45.41	333.44	21.45	-50.6	-52.2	15.3	0.00e+00	0	23	0	1174405120	67	4338
2026-01-10 09:53:46.70	333.46	21.27	-50.7	-52.3	15.3	0.00e+00	0	23	0	1176502272	67	4382
2026-01-10 09:53:47.42	333.48	21.17	-50.7	-52.4	15.3	0.00e+00	0	23	0	1177550848	67	4413
2026-01-10 09:53:48.71	333.50	21.00	-50.8	-52.4	15.2	0.00e+00	0	23	0	1179648000	67	4428
2026-01-10 09:53:49.43	333.52	20.90	-50.8	-52.4	15.2	0.00e+00	0	23	0	1181745152	67	4438
2026-01-10 09:53:50.71	333.54	20.73	-50.7	-52.4	15.2	0.00e+00	0	23	0	1183842304	67	4412
2026-01-10 09:53:51.42	333.56	20.64	-50.7	-52.4	15.2	0.00e+00	0	23	0	1184890880	67	4421
2026-01-10 09:53:52.72	333.58	20.46	-50.7	-52.4	15.3	0.00e+00	0	23	0	1188036608	67	4401
2026-01-10 09:53:53.43	333.60	20.37	-50.7	-52.3	15.3	0.00e+00	0	23	0	1189085184	67	4373
2026-01-10 09:53:54.72	333.62	20.20	-50.7	-52.4	15.2	0.00e+00	0	23	0	1191182336	67	4404
2026-01-10 09:53:55.44	333.64	20.11	-50.7	-52.3	15.3	0.00e+00	0	23	0	1192230912	67	4363
2026-01-10 09:53:56.74	333.66	19.94	-50.7	-52.4	15.2	0.00e+00	0	23	0	1195376640	67	4395
2026-01-10 09:53:57.46	333.68	19.84	-50.7	-52.4	15.2	0.00e+00	0	23	0	1196425216	67	4394
2026-01-10 09:53:58.75	333.70	19.68	-50.8	-52.5	15.2	0.00e+00	0	23	0	1198522368	67	4449
2026-01-10 09:53:59.46	333.72	19.59	-50.8	-52.4	15.2	0.00e+00	0	23	0	1200619520	67	4431
2026-01-10 09:54:00.76	333.74	19.42	-50.8	-52.5	15.2	0.00e+00	0	23	0	1202716672	67	4463
2026-01-10 09:54:01.48	333.75	19.33	-50.9	-52.6	15.2	0.00e+00	0	23	0	1203765248	67	4501
2026-01-10 09:54:02.78	333.78	19.17	-50.8	-52.5	15.2	0.00e+00	0	23	0	1206910976	67	4447
2026-01-10 09:54:03.50	333.79	19.08	-50.8	-52.5	15.1	0.00e+00	0	23	0	1207959552	67	4469
2026-01-10 09:54:04.79	333.81	18.92	-50.9	-52.6	15.1	0.00e+00	0	23	0	1210056704	67	4513
2026-01-10 09:54:05.51	333.83	18.83	-50.9	-52.6	15.1	0.00e+00	0	23	0	1211105280	67	4526
2026-01-10 09:54:06.80	333.85	18.67	-51.0	-52.7	15.1	0.00e+00	0	23	0	1214251008	67	4554
2026-01-10 09:54:07.51	333.86	18.58	-51.0	-52.8	15.0	0.00e+00	0	23	0	1215299584	67	4601
2026-01-10 09:54:08.81	333.89	18.42	-51.0	-52.8	15.0	0.00e+00	0	23	0	1217396736	67	4605
2026-01-10 09:54:09.53	333.90	18.33	-51.0	-52.7	15.0	0.00e+00	0	23	0	1219493888	67	4576
2026-01-10 09:54:10.82	333.92	18.18	-51.2	-52.9	14.9	0.00e+00	0	23	0	1221591040	67	4690
2026-01-10 09:54:11.54	333.93	18.09	-51.2	-53.0	14.9	0.00e+00	0	23	0	1222639616	67	4724
2026-01-10 09:54:12.84	333.96	17.93	-51.2	-53.0	14.9	0.00e+00	0	23	0	1225785344	67	4707
2026-01-10 09:54:13.56	333.97	17.85	-51.2	-53.0	14.9	0.00e+00	0	23	0	1226833920	67	4723
2026-01-10 09:54:14.86	333.99	17.69	-51.2	-53.0	14.9	0.00e+00	0	23	0	1228931072	67	4735
2026-01-10 09:54:15.58	334.00	17.61	-51.3	-53.1	14.8	0.00e+00	0	23	0	1229979648	67	4774
2026-01-10 09:54:16.87	334.03	17.46	-51.3	-53.1	14.8	0.00e+00	0	23	0	1233125376	67	4772
2026-01-10 09:54:17.59	334.04	17.37	-51.3	-53.0	14.8	0.00e+00	0	23	0	1234173952	67	4756
2026-01-10 09:54:18.88	334.06	17.22	-51.2	-53.0	14.8	0.00e+00	0	23	0	1236271104	67	4752
2026-01-10 09:54:19.60	334.07	17.14	-51.1	-52.9	14.9	0.00e+00	0	23	0	1238368256	67	4684
2026-01-10 09:54:20.90	334.09	16.99	-51.2	-53.0	14.8	0.00e+00	0	23	0	1240465408	67	4747
2026-01-10 09:54:21.61	334.11	16.91	-51.2	-53.0	14.9	0.00e+00	0	23	0	1241513984	67	4747
2026-01-10 09:54:22.91	334.13	16.76	-51.2	-53.0	14.9	0.00e+00	0	23	0	1244659712	67	4756
2026-01-10 09:54:23.63	334.14	16.68	-51.2	-53.0	14.9	0.00e+00	0	23	0	1245708288	67	4738
2026-01-10 09:54:24.91	334.16	16.53	-51.2	-52.9	14.9	0.00e+00	0	23	0	1247805440	67	4695
2026-01-10 09:54:25.63	334.17	16.45	-51.2	-52.9	14.9	0.00e+00	0	23	0	1248854016	67	4698
2026-01-10 09:54:26.92	334.19	16.31	-51.2	-53.0	14.9	0.00e+00	0	23	0	1251999744	67	4711
2026-01-10 09:54:27.64	334.20	16.23	-51.1	-52.9	14.9	0.00e+00	0	23	0	1253048320	67	4694
2026-01-10 09:54:28.93	334.22	16.08	-51.1	-52.9	14.9	0.00e+00	0	23	0	1255145472	67	4683
2026-01-10 09:54:29.65	334.24	16.00	-51.2	-53.0	14.9	0.00e+00	0	23	0	1257242624	67	4721
2026-01-10 09:54:30.94	334.26	15.86	-51.2	-53.0	14.9	0.00e+00	0	23	0	1259339776	67	4732
2026-01-10 09:54:31.65	334.27	15.78	-51.2	-53.0	14.8	0.00e+00	0	23	0	1260388352	67	4755
2026-01-10 09:54:32.94	334.29	15.64	-51.2	-53.0	14.9	0.00e+00	0	23	0	1262485504	67	4722
2026-01-10 09:54:33.65	334.30	15.57	-51.1	-52.9	14.9	0.00e+00	0	23	0	1264582656	67	4696
2026-01-10 09:54:34.94	334.32	15.43	-51.2	-53.0	14.9	0.00e+00	0	23	0	1266679808	67	4735
2026-01-10 09:54:35.65	334.33	15.35	-51.2	-53.1	14.8	0.00e+00	0	23	0	1267728384	67	4760
2026-01-10 09:54:36.95	334.35	15.21	-51.2	-53.0	14.8	0.00e+00	0	23	0	1270874112	67	4758
2026-01-10 09:54:37.66	334.36	15.14	-51.2	-53.0	14.8	0.00e+00	0	23	0	1271922688	67	4732
2026-01-10 09:54:38.96	334.38	15.00	-51.3	-53.2	14.8	0.00e+00	0	23	0	1274019840	67	4825
2026-01-10 09:54:39.67	334.39	14.92	-51.3	-53.1	14.8	0.00e+00	0	24	0	1276116992	67	4796
