passes_logs/2026/01/10/R3.2S_Murmansk/R3.2S_Murmansk__20260110_205539_NOAA_21_JPSS-2_rec.log

#Pass ID: 20260110_205539_NOAA 21 (JPSS-2)
#Satellite: NOAA 21 (JPSS-2)
#Configuration: NOAA-21
#almurnet v.1.7.20251203
#Start time: 2026-01-10 20:55:41

#Version: 2.2.20231116
#Station: R3.2S_Murmansk
#Location: 33.079688 lon 68.888172 lat
#TLE: 1 54234U 22150A   26009.79679979  .00000100  00000+0  68070-4 0  9993
#TLE: 2 54234  98.7494 310.7596 0000833 322.2782  37.8335 14.19533646164071

#Time	Az	El	Level	Level2	SNR	BER	BlckErr	Temp	State	Recorded	gain1	gain2
2026-01-10 20:55:41.75	18.92	2.08	-56.8	-70.5	3.8	1.49e+00	0	21	0	0	80	16832
2026-01-10 20:55:42.75	19.03	2.12	-56.7	-70.4	3.8	1.49e+00	0	21	104	0	78	18560
2026-01-10 20:55:43.74	19.14	2.16	-56.7	-70.3	3.8	1.49e+00	0	21	104	0	78	18493
2026-01-10 20:55:44.74	19.24	2.20	-56.7	-70.4	3.8	1.49e+00	0	21	104	0	78	18714
2026-01-10 20:55:45.74	19.35	2.24	-56.7	-70.3	3.8	1.49e+00	0	21	104	0	78	18468
2026-01-10 20:55:46.75	19.46	2.28	-56.8	-70.4	3.8	1.49e+00	0	21	104	0	78	18526
2026-01-10 20:55:47.74	19.57	2.32	-56.8	-70.4	3.8	1.49e+00	0	21	104	0	78	18531
2026-01-10 20:55:48.75	19.68	2.36	-56.7	-70.4	3.8	1.49e+00	0	21	104	0	78	18523
2026-01-10 20:55:49.75	19.79	2.40	-56.7	-70.3	3.8	1.49e+00	0	22	104	0	78	18500
2026-01-10 20:55:50.75	19.89	2.44	-56.7	-70.3	3.8	1.49e+00	0	21	104	0	78	18465
2026-01-10 20:55:51.75	20.00	2.48	-56.8	-70.4	3.8	1.49e+00	0	21	104	0	78	18627
2026-01-10 20:55:52.74	20.11	2.52	-56.8	-70.3	3.8	1.49e+00	0	22	104	0	78	18491
2026-01-10 20:55:53.75	20.22	2.56	-56.7	-70.4	3.8	1.49e+00	0	22	104	0	78	18546
2026-01-10 20:55:54.75	20.33	2.60	-56.7	-70.3	3.8	1.49e+00	0	22	104	0	78	18451
2026-01-10 20:55:55.76	20.45	2.64	-56.8	-70.3	3.8	1.49e+00	0	22	104	0	78	18484
2026-01-10 20:55:56.76	20.56	2.68	-56.7	-70.2	3.8	1.49e+00	0	22	104	0	78	18157
2026-01-10 20:55:57.76	20.67	2.71	-56.8	-70.3	3.8	1.49e+00	0	22	104	0	78	18482
2026-01-10 20:55:58.76	20.78	2.75	-56.8	-70.3	3.8	1.49e+00	0	22	104	0	78	18445
2026-01-10 20:55:59.76	20.89	2.79	-56.8	-70.2	3.8	1.49e+00	0	22	104	0	78	18277
2026-01-10 20:56:00.76	21.00	2.83	-56.7	-70.4	3.8	1.49e+00	0	22	104	0	78	18590
2026-01-10 20:56:01.76	21.12	2.87	-56.8	-70.4	3.8	1.49e+00	0	22	104	0	78	18626
2026-01-10 20:56:02.77	21.23	2.91	-56.8	-70.4	3.8	1.49e+00	0	22	104	0	78	18611
2026-01-10 20:56:03.77	21.34	2.95	-56.8	-70.4	3.8	1.49e+00	0	22	104	0	78	18731
2026-01-10 20:56:04.76	21.45	2.99	-56.8	-70.5	3.8	1.49e+00	0	22	104	0	78	18748
2026-01-10 20:56:05.76	21.57	3.03	-56.8	-70.5	3.8	1.49e+00	0	22	104	0	78	18857
2026-01-10 20:56:06.76	21.68	3.07	-56.8	-70.5	3.8	1.49e+00	0	22	104	0	78	18853
2026-01-10 20:56:07.76	21.79	3.11	-56.8	-70.4	3.8	1.49e+00	0	22	104	0	78	18667
2026-01-10 20:56:08.76	21.91	3.14	-56.8	-70.4	3.8	1.49e+00	0	22	104	0	78	18644
2026-01-10 20:56:09.76	22.02	3.18	-56.8	-70.5	3.8	1.49e+00	0	22	104	0	78	18740
2026-01-10 20:56:10.76	22.14	3.22	-56.8	-70.4	3.8	1.49e+00	0	22	104	0	78	18619
2026-01-10 20:56:11.76	22.25	3.26	-56.8	-70.4	3.8	1.49e+00	0	22	104	0	78	18627
2026-01-10 20:56:12.76	22.37	3.30	-56.8	-70.5	3.8	1.49e+00	0	22	104	0	78	18746
2026-01-10 20:56:13.76	22.48	3.34	-56.8	-70.4	3.8	1.49e+00	0	22	104	0	78	18681
2026-01-10 20:56:14.77	22.60	3.38	-56.8	-70.5	3.8	1.49e+00	0	22	104	0	78	18739
2026-01-10 20:56:15.76	22.72	3.42	-56.8	-70.4	3.8	1.49e+00	0	22	104	0	78	18727
2026-01-10 20:56:16.76	22.83	3.46	-56.8	-70.5	3.8	1.49e+00	0	22	104	0	78	18805
2026-01-10 20:56:17.75	22.95	3.49	-56.8	-70.5	3.8	1.49e+00	0	22	104	0	78	18882
2026-01-10 20:56:18.75	23.07	3.53	-56.8	-70.5	3.8	1.49e+00	0	22	104	0	78	18793
2026-01-10 20:56:19.75	23.18	3.57	-56.8	-70.4	3.8	1.49e+00	0	22	104	0	78	18634
2026-01-10 20:56:20.75	23.30	3.61	-56.8	-70.4	3.8	1.49e+00	0	22	104	0	78	18524
2026-01-10 20:56:21.75	23.42	3.65	-56.8	-70.3	3.8	1.49e+00	0	22	104	0	78	18310
2026-01-10 20:56:22.74	23.54	3.69	-56.8	-70.4	3.8	1.49e+00	0	22	104	0	78	18564
2026-01-10 20:56:23.75	23.66	3.72	-56.8	-70.4	3.8	1.49e+00	0	22	104	0	78	18589
2026-01-10 20:56:24.76	23.78	3.76	-56.8	-70.4	3.8	1.49e+00	0	22	104	0	78	18684
2026-01-10 20:56:25.76	23.90	3.80	-56.8	-70.5	3.8	1.49e+00	0	22	104	0	78	18867
2026-01-10 20:56:26.76	24.02	3.84	-56.8	-70.5	3.8	1.49e+00	0	22	104	0	78	18917
2026-01-10 20:56:27.75	24.13	3.88	-56.8	-70.5	3.8	1.49e+00	0	22	104	0	78	18798
2026-01-10 20:56:28.76	24.26	3.92	-56.8	-70.4	3.8	1.49e+00	0	22	104	0	78	18719
2026-01-10 20:56:29.76	24.38	3.95	-56.8	-70.5	3.8	1.49e+00	0	22	104	0	78	18865
2026-01-10 20:56:30.75	24.50	3.99	-56.8	-70.5	3.8	1.49e+00	0	22	104	0	78	18744
2026-01-10 20:56:31.75	24.62	4.03	-56.8	-70.5	3.8	1.49e+00	0	22	104	0	78	18807
2026-01-10 20:56:32.75	24.74	4.07	-56.8	-70.5	3.8	1.49e+00	0	23	104	0	78	18873
2026-01-10 20:56:33.76	24.86	4.11	-56.8	-70.5	3.8	1.49e+00	0	22	104	0	78	18914
2026-01-10 20:56:34.76	24.98	4.14	-56.8	-70.5	3.8	1.49e+00	0	22	104	0	78	18788
2026-01-10 20:56:35.76	25.11	4.18	-56.8	-70.5	3.8	1.49e+00	0	22	104	0	78	18882
2026-01-10 20:56:36.76	25.23	4.22	-56.8	-70.5	3.8	1.49e+00	0	22	104	0	78	18864
2026-01-10 20:56:37.76	25.35	4.26	-56.8	-70.5	3.8	1.49e+00	0	22	104	0	78	18906
2026-01-10 20:56:38.77	25.47	4.30	-56.8	-70.5	3.8	1.49e+00	0	23	104	0	78	18922
2026-01-10 20:56:39.78	25.60	4.33	-56.8	-70.4	3.8	1.49e+00	0	23	104	0	78	18725
2026-01-10 20:56:40.78	25.72	4.37	-56.8	-70.3	3.8	1.49e+00	0	22	104	0	78	18381
2026-01-10 20:56:41.77	25.85	4.41	-56.8	-70.0	3.8	1.49e+00	0	23	104	0	78	17875
2026-01-10 20:56:42.77	25.97	4.45	-56.8	-69.6	3.8	1.49e+00	0	23	104	0	78	16972
2026-01-10 20:56:43.77	26.10	4.48	-56.7	-69.3	3.8	1.49e+00	0	22	104	0	78	16454
2026-01-10 20:56:44.77	26.22	4.52	-56.7	-69.2	3.8	1.49e+00	0	23	104	0	78	16183
2026-01-10 20:56:45.77	26.35	4.56	-56.7	-68.6	3.8	1.49e+00	0	23	104	0	78	15193
2026-01-10 20:56:46.77	26.47	4.59	-56.5	-66.2	4.4	1.46e+00	0	23	104	0	78	11433
2026-01-10 20:56:47.78	26.60	4.63	-56.1	-63.6	5.8	4.66e-01	0	23	0	1048576	78	8517
2026-01-10 20:56:48.78	26.72	4.67	-55.8	-62.2	6.8	1.73e-01	0	22	0	4194304	78	7273
2026-01-10 20:56:49.79	26.85	4.71	-55.2	-60.4	8.4	3.78e-02	0	23	0	7340032	77	6217
2026-01-10 20:56:50.79	26.98	4.74	-54.8	-59.3	9.3	1.39e-02	0	23	0	10485760	76	5829
2026-01-10 20:56:51.80	27.11	4.78	-54.2	-58.0	10.4	2.40e-03	0	23	0	13631488	75	5296
2026-01-10 20:56:52.80	27.23	4.82	-54.1	-57.8	10.5	7.60e-04	0	22	0	16777216	74	5512
2026-01-10 20:56:53.79	27.36	4.85	-54.3	-58.3	10.1	1.71e-03	0	23	0	19922944	74	5797
2026-01-10 20:56:54.80	27.49	4.89	-54.6	-59.1	9.3	6.19e-03	0	23	0	23068672	74	6353
2026-01-10 20:56:55.80	27.62	4.93	-54.8	-59.5	8.9	1.24e-02	0	23	0	26214400	74	6719
2026-01-10 20:56:56.80	27.75	4.96	-55.2	-60.5	8.0	3.57e-02	0	23	0	29360128	75	7110
2026-01-10 20:56:57.80	27.88	5.00	-55.7	-62.1	6.7	1.20e-01	0	23	0	32505856	76	8066
2026-01-10 20:56:58.81	28.01	5.04	-55.7	-62.0	6.9	1.48e-01	0	23	0	35651584	76	7967
2026-01-10 20:56:59.81	28.14	5.07	-56.3	-67.6	3.9	8.20e-01	0	23	104	37748736	77	14237
2026-01-10 20:57:00.81	28.27	5.11	-55.6	-60.8	8.3	5.95e-02	0	23	0	37748736	77	6554
2026-01-10 20:57:01.82	28.40	5.15	-52.7	-55.2	12.7	3.20e-05	0	23	0	40894464	72	4574
2026-01-10 20:57:02.82	28.53	5.18	-56.5	-64.8	5.3	3.13e-02	0	23	0	44040192	78	9718
2026-01-10 20:57:03.83	28.66	5.22	-53.2	-55.8	12.3	1.12e-01	0	23	0	45088768	73	4643
2026-01-10 20:57:04.83	28.79	5.26	-52.7	-55.2	12.7	0.00e+00	0	23	0	48234496	71	4839
2026-01-10 20:57:05.83	28.92	5.29	-52.8	-55.3	12.6	2.20e-06	0	23	0	51380224	71	4904
2026-01-10 20:57:06.83	29.06	5.33	-52.8	-55.4	12.5	7.00e-07	0	23	0	54525952	71	4965
2026-01-10 20:57:07.83	29.19	5.36	-52.3	-54.6	13.2	0.00e+00	0	23	0	57671680	71	4516
2026-01-10 20:57:08.83	29.32	5.40	-52.3	-54.5	13.2	0.00e+00	0	23	0	60817408	71	4485
2026-01-10 20:57:09.82	29.45	5.43	-52.0	-54.2	13.3	0.00e+00	0	23	0	63963136	70	4579
2026-01-10 20:57:10.82	29.58	5.47	-51.9	-54.0	13.4	0.00e+00	0	23	0	67108864	70	4479
2026-01-10 20:57:11.82	29.72	5.50	-52.0	-54.1	13.4	0.00e+00	0	23	0	70254592	70	4510
2026-01-10 20:57:12.82	29.85	5.54	-51.4	-53.4	13.8	0.00e+00	0	23	0	73400320	69	4421
2026-01-10 20:57:13.82	29.99	5.58	-51.4	-53.3	13.8	0.00e+00	0	23	0	76546048	69	4361
2026-01-10 20:57:14.82	30.12	5.61	-51.1	-52.9	13.9	0.00e+00	0	23	0	79691776	68	4440
2026-01-10 20:57:15.82	30.25	5.65	-50.9	-52.7	14.1	0.00e+00	0	23	0	82837504	68	4335
2026-01-10 20:57:16.81	30.39	5.68	-50.9	-52.7	14.1	0.00e+00	0	23	0	85983232	68	4295
2026-01-10 20:57:17.81	30.52	5.72	-50.8	-52.6	14.2	0.00e+00	0	23	0	89128960	68	4267
2026-01-10 20:57:18.80	30.66	5.75	-51.0	-52.8	14.0	0.00e+00	0	22	0	92274688	68	4391
2026-01-10 20:57:19.80	30.79	5.78	-50.9	-52.6	14.1	0.00e+00	0	23	0	95420416	68	4289
2026-01-10 20:57:20.80	30.93	5.82	-50.8	-52.5	14.2	0.00e+00	0	23	0	98566144	68	4236
2026-01-10 20:57:21.80	31.07	5.85	-50.7	-52.4	14.3	0.00e+00	0	23	0	101711872	68	4183
2026-01-10 20:57:22.80	31.20	5.89	-50.3	-52.0	14.3	0.00e+00	0	23	0	104857600	67	4222
2026-01-10 20:57:23.80	31.34	5.92	-50.6	-52.4	14.1	0.00e+00	0	23	0	108003328	67	4410
2026-01-10 20:57:24.79	31.48	5.96	-50.5	-52.2	14.2	0.00e+00	0	23	0	111149056	67	4318
2026-01-10 20:57:25.79	31.61	5.99	-50.5	-52.2	14.2	0.00e+00	0	23	0	113246208	67	4314
2026-01-10 20:57:26.80	31.75	6.03	-50.6	-52.4	14.1	0.00e+00	0	23	0	116391936	67	4396
2026-01-10 20:57:27.80	31.89	6.06	-50.6	-52.4	14.1	0.00e+00	0	23	0	120586240	67	4397
2026-01-10 20:57:28.81	32.03	6.09	-50.6	-52.4	14.1	0.00e+00	0	23	0	123731968	67	4422
2026-01-10 20:57:29.80	32.17	6.13	-50.5	-52.3	14.2	0.00e+00	0	23	0	126877696	67	4349
2026-01-10 20:57:30.80	32.31	6.16	-50.5	-52.3	14.2	0.00e+00	0	23	0	130023424	67	4354
2026-01-10 20:57:31.81	32.45	6.20	-50.5	-52.2	14.2	0.00e+00	0	23	0	133169152	67	4310
2026-01-10 20:57:32.81	32.59	6.23	-50.3	-52.0	14.3	0.00e+00	0	23	0	135266304	67	4229
2026-01-10 20:57:33.81	32.73	6.26	-50.4	-52.1	14.3	0.00e+00	0	23	0	138412032	67	4276
2026-01-10 20:57:34.81	32.87	6.30	-50.5	-52.2	14.2	0.00e+00	0	23	0	141557760	67	4300
2026-01-10 20:57:35.81	33.01	6.33	-50.3	-52.0	14.4	0.00e+00	0	23	0	144703488	67	4227
2026-01-10 20:57:36.81	33.15	6.36	-50.3	-52.0	14.4	0.00e+00	0	23	0	147849216	67	4215
2026-01-10 20:57:37.81	33.29	6.40	-50.5	-52.2	14.2	0.00e+00	0	23	0	150994944	67	4326
2026-01-10 20:57:38.81	33.43	6.43	-50.4	-52.1	14.3	0.00e+00	0	23	0	154140672	67	4284
2026-01-10 20:57:39.82	33.58	6.46	-50.5	-52.2	14.2	0.00e+00	0	23	0	157286400	67	4303
2026-01-10 20:57:40.82	33.72	6.50	-50.4	-52.1	14.3	0.00e+00	0	23	0	160432128	67	4267
2026-01-10 20:57:41.81	33.86	6.53	-50.5	-52.2	14.3	0.00e+00	0	23	0	163577856	67	4301
2026-01-10 20:57:42.82	34.01	6.56	-50.6	-52.3	14.2	0.00e+00	0	23	0	166723584	67	4368
2026-01-10 20:57:43.82	34.15	6.59	-50.6	-52.3	14.2	0.00e+00	0	23	0	169869312	67	4365
2026-01-10 20:57:44.82	34.29	6.63	-50.5	-52.2	14.3	0.00e+00	0	23	0	173015040	67	4324
2026-01-10 20:57:45.82	34.44	6.66	-50.5	-52.2	14.3	0.00e+00	0	23	0	176160768	67	4326
2026-01-10 20:57:46.82	34.58	6.69	-50.4	-52.0	14.3	0.00e+00	0	23	0	179306496	67	4241
2026-01-10 20:57:47.83	34.73	6.72	-50.3	-51.9	14.4	0.00e+00	0	23	0	182452224	67	4190
2026-01-10 20:57:48.82	34.87	6.75	-50.4	-52.0	14.3	0.00e+00	0	23	0	185597952	67	4230
2026-01-10 20:57:49.83	35.02	6.79	-50.5	-52.2	14.3	0.00e+00	0	23	0	188743680	67	4302
2026-01-10 20:57:50.83	35.16	6.82	-50.3	-51.9	14.4	0.00e+00	0	23	0	191889408	67	4191
2026-01-10 20:57:51.82	35.31	6.85	-50.2	-51.8	14.3	0.00e+00	0	23	0	195035136	66	4371
2026-01-10 20:57:52.82	35.45	6.88	-50.1	-51.8	14.3	0.00e+00	0	23	0	198180864	66	4349
2026-01-10 20:57:53.81	35.60	6.91	-50.2	-51.8	14.4	0.00e+00	0	23	0	201326592	66	4365
2026-01-10 20:57:54.81	35.74	6.94	-50.3	-52.0	14.2	0.00e+00	0	23	0	204472320	66	4461
2026-01-10 20:57:55.82	35.89	6.97	-50.4	-52.2	14.1	0.00e+00	0	23	0	207618048	66	4553
2026-01-10 20:57:56.82	36.04	7.01	-50.5	-52.2	14.1	0.00e+00	0	23	0	210763776	66	4549
2026-01-10 20:57:57.81	36.19	7.04	-50.4	-52.1	14.2	0.00e+00	0	23	0	213909504	66	4499
2026-01-10 20:57:58.81	36.33	7.07	-50.3	-52.0	14.2	0.00e+00	0	23	0	217055232	66	4442
2026-01-10 20:57:59.81	36.48	7.10	-50.3	-51.9	14.3	0.00e+00	0	23	0	220200960	66	4424
2026-01-10 20:58:00.80	36.63	7.13	-50.3	-52.0	14.2	0.00e+00	0	23	0	223346688	66	4478
2026-01-10 20:58:01.80	36.78	7.16	-50.2	-51.9	14.3	0.00e+00	0	23	0	226492416	66	4408
2026-01-10 20:58:02.81	36.93	7.19	-50.3	-51.9	14.2	0.00e+00	0	23	0	229638144	66	4440
2026-01-10 20:58:03.81	37.08	7.22	-50.3	-52.0	14.2	0.00e+00	0	23	0	232783872	66	4452
2026-01-10 20:58:04.80	37.23	7.25	-50.2	-51.8	14.4	0.00e+00	0	23	0	235929600	66	4361
2026-01-10 20:58:05.80	37.38	7.28	-50.0	-51.6	14.4	0.00e+00	0	23	0	239075328	66	4277
2026-01-10 20:58:06.81	37.53	7.31	-50.1	-51.7	14.5	0.00e+00	0	23	0	242221056	66	4301
2026-01-10 20:58:07.81	37.68	7.34	-50.1	-51.7	14.4	0.00e+00	0	23	0	245366784	66	4331
2026-01-10 20:58:08.81	37.83	7.37	-50.1	-51.8	14.4	0.00e+00	0	23	0	248512512	66	4347
2026-01-10 20:58:09.82	37.98	7.40	-50.2	-51.9	14.3	0.00e+00	0	23	0	251658240	66	4404
2026-01-10 20:58:10.82	38.13	7.43	-50.2	-51.8	14.4	0.00e+00	0	23	0	254803968	66	4368
2026-01-10 20:58:11.83	38.29	7.46	-50.1	-51.8	14.4	0.00e+00	0	23	0	257949696	66	4347
2026-01-10 20:58:12.82	38.44	7.48	-50.2	-51.9	14.3	0.00e+00	0	23	0	261095424	66	4393
2026-01-10 20:58:13.82	38.59	7.51	-50.2	-51.8	14.3	0.00e+00	0	23	0	264241152	66	4390
2026-01-10 20:58:14.83	38.74	7.54	-50.2	-51.8	14.4	0.00e+00	0	23	0	267386880	66	4357
2026-01-10 20:58:15.82	38.89	7.57	-50.3	-51.9	14.3	0.00e+00	0	23	0	270532608	66	4429
2026-01-10 20:58:16.81	39.05	7.60	-50.3	-51.9	14.3	0.00e+00	0	23	0	273678336	66	4432
2026-01-10 20:58:17.80	39.20	7.63	-50.4	-52.0	14.2	0.00e+00	0	23	0	276824064	66	4483
2026-01-10 20:58:18.80	39.35	7.65	-50.2	-51.9	14.3	0.00e+00	0	23	0	278921216	66	4405
2026-01-10 20:58:19.80	39.51	7.68	-50.4	-52.1	14.2	0.00e+00	0	23	0	283115520	66	4521
2026-01-10 20:58:20.80	39.66	7.71	-50.4	-52.1	14.2	0.00e+00	0	23	0	286261248	66	4498
2026-01-10 20:58:21.80	39.81	7.74	-50.3	-51.9	14.3	0.00e+00	0	23	0	289406976	66	4419
2026-01-10 20:58:22.81	39.97	7.77	-50.1	-51.7	14.4	0.00e+00	0	23	0	292552704	66	4324
2026-01-10 20:58:23.81	40.13	7.79	-50.1	-51.7	14.4	0.00e+00	0	23	0	294649856	66	4293
2026-01-10 20:58:24.80	40.28	7.82	-50.0	-51.6	14.5	0.00e+00	0	23	0	297795584	66	4273
2026-01-10 20:58:25.80	40.44	7.85	-49.9	-51.4	14.6	0.00e+00	0	23	0	300941312	66	4191
2026-01-10 20:58:26.80	40.59	7.87	-50.0	-51.5	14.5	0.00e+00	0	23	0	304087040	66	4238
2026-01-10 20:58:27.80	40.75	7.90	-49.9	-51.4	14.6	0.00e+00	0	23	0	307232768	66	4191
2026-01-10 20:58:28.80	40.90	7.93	-49.8	-51.3	14.6	0.00e+00	0	23	0	310378496	66	4128
2026-01-10 20:58:29.80	41.06	7.95	-49.9	-51.5	14.6	0.00e+00	0	23	0	313524224	66	4221
2026-01-10 20:58:30.80	41.22	7.98	-49.9	-51.4	14.6	0.00e+00	0	23	0	316669952	66	4191
2026-01-10 20:58:31.80	41.38	8.01	-50.0	-51.5	14.5	0.00e+00	0	23	0	319815680	66	4233
2026-01-10 20:58:32.79	41.53	8.03	-50.1	-51.6	14.5	0.00e+00	0	23	0	322961408	66	4286
2026-01-10 20:58:33.80	41.69	8.06	-50.0	-51.6	14.5	0.00e+00	0	23	0	326107136	66	4256
2026-01-10 20:58:34.79	41.85	8.08	-50.1	-51.7	14.4	0.00e+00	0	23	0	329252864	66	4312
2026-01-10 20:58:35.80	42.01	8.11	-50.0	-51.6	14.5	0.00e+00	0	23	0	332398592	66	4268
2026-01-10 20:58:36.80	42.17	8.14	-50.1	-51.7	14.4	0.00e+00	0	23	0	335544320	66	4319
2026-01-10 20:58:37.81	42.33	8.16	-50.1	-51.7	14.4	0.00e+00	0	23	0	338690048	66	4325
2026-01-10 20:58:38.81	42.49	8.19	-50.1	-51.7	14.4	0.00e+00	0	23	0	341835776	66	4309
2026-01-10 20:58:39.81	42.65	8.21	-49.9	-51.5	14.6	0.00e+00	0	23	0	344981504	66	4228
2026-01-10 20:58:40.81	42.81	8.24	-49.9	-51.5	14.5	0.00e+00	0	23	0	348127232	66	4209
2026-01-10 20:58:41.81	42.97	8.26	-49.9	-51.5	14.6	0.00e+00	0	23	0	351272960	66	4211
2026-01-10 20:58:42.81	43.13	8.28	-50.0	-51.6	14.5	0.00e+00	0	23	0	354418688	66	4252
2026-01-10 20:58:43.81	43.29	8.31	-50.0	-51.5	14.5	0.00e+00	0	23	0	357564416	66	4242
2026-01-10 20:58:44.80	43.45	8.33	-49.9	-51.4	14.6	0.00e+00	0	23	0	360710144	66	4179
2026-01-10 20:58:45.81	43.61	8.36	-49.9	-51.5	14.6	0.00e+00	0	23	0	363855872	66	4200
2026-01-10 20:58:46.81	43.77	8.38	-49.9	-51.4	14.6	0.00e+00	0	23	0	367001600	66	4187
2026-01-10 20:58:47.81	43.93	8.40	-49.9	-51.5	14.6	0.00e+00	0	23	0	370147328	66	4204
2026-01-10 20:58:48.81	44.09	8.43	-50.0	-51.5	14.5	0.00e+00	0	23	0	373293056	66	4234
2026-01-10 20:58:49.81	44.26	8.45	-50.0	-51.6	14.5	0.00e+00	0	23	0	376438784	66	4274
2026-01-10 20:58:50.80	44.42	8.47	-49.9	-51.5	14.5	0.00e+00	0	23	0	379584512	66	4228
2026-01-10 20:58:51.80	44.58	8.50	-49.9	-51.5	14.6	0.00e+00	0	23	0	382730240	66	4196
2026-01-10 20:58:52.80	44.74	8.52	-50.0	-51.5	14.5	0.00e+00	0	23	0	385875968	66	4232
2026-01-10 20:58:53.80	44.91	8.54	-50.0	-51.5	14.5	0.00e+00	0	23	0	389021696	66	4226
2026-01-10 20:58:54.81	45.07	8.56	-50.0	-51.6	14.5	0.00e+00	0	23	0	392167424	66	4272
2026-01-10 20:58:55.80	45.23	8.59	-50.0	-51.6	14.5	0.00e+00	0	23	0	395313152	66	4259
2026-01-10 20:58:56.80	45.40	8.61	-50.1	-51.7	14.4	0.00e+00	0	23	0	398458880	66	4317
2026-01-10 20:58:57.79	45.56	8.63	-50.1	-51.7	14.5	0.00e+00	0	23	0	401604608	66	4309
2026-01-10 20:58:58.80	45.72	8.65	-50.1	-51.7	14.4	0.00e+00	0	23	0	404750336	66	4321
2026-01-10 20:58:59.80	45.89	8.67	-50.0	-51.6	14.5	0.00e+00	0	23	0	407896064	66	4275
2026-01-10 20:59:00.80	46.05	8.69	-50.1	-51.7	14.4	0.00e+00	0	23	0	411041792	66	4322
2026-01-10 20:59:01.80	46.22	8.72	-50.0	-51.6	14.5	0.00e+00	0	23	0	414187520	66	4287
2026-01-10 20:59:02.80	46.38	8.74	-49.9	-51.5	14.5	0.00e+00	0	23	0	417333248	66	4223
2026-01-10 20:59:03.80	46.55	8.76	-49.9	-51.4	14.6	0.00e+00	0	23	0	420478976	66	4175
2026-01-10 20:59:04.80	46.72	8.78	-49.9	-51.4	14.6	0.00e+00	0	23	0	423624704	66	4192
2026-01-10 20:59:05.79	46.88	8.80	-49.9	-51.4	14.6	0.00e+00	0	23	0	426770432	66	4193
2026-01-10 20:59:06.80	47.05	8.82	-49.8	-51.3	14.7	0.00e+00	0	23	0	428867584	66	4126
2026-01-10 20:59:07.80	47.21	8.84	-49.8	-51.3	14.7	0.00e+00	0	23	0	432013312	66	4111
2026-01-10 20:59:08.79	47.38	8.86	-49.9	-51.4	14.6	0.00e+00	0	23	0	435159040	66	4167
2026-01-10 20:59:09.78	47.54	8.88	-49.9	-51.5	14.6	0.00e+00	0	23	0	438304768	66	4196
2026-01-10 20:59:10.77	47.71	8.90	-50.0	-51.5	14.5	0.00e+00	0	23	0	441450496	66	4235
2026-01-10 20:59:11.77	47.88	8.91	-50.1	-51.7	14.5	0.00e+00	0	23	0	444596224	66	4299
2026-01-10 20:59:12.78	48.05	8.93	-50.0	-51.5	14.5	0.00e+00	0	23	0	447741952	66	4242
2026-01-10 20:59:13.78	48.21	8.95	-50.0	-51.6	14.5	0.00e+00	0	23	0	450887680	66	4260
2026-01-10 20:59:14.78	48.38	8.97	-50.0	-51.6	14.5	0.00e+00	0	23	0	454033408	66	4263
2026-01-10 20:59:15.77	48.55	8.99	-50.2	-51.8	14.4	0.00e+00	0	23	0	457179136	66	4354
2026-01-10 20:59:16.77	48.72	9.01	-50.0	-51.6	14.5	0.00e+00	0	23	0	460324864	66	4279
2026-01-10 20:59:17.77	48.89	9.03	-50.1	-51.7	14.5	0.00e+00	0	23	0	463470592	66	4295
2026-01-10 20:59:18.77	49.05	9.04	-50.0	-51.6	14.5	0.00e+00	0	23	0	466616320	66	4282
2026-01-10 20:59:19.77	49.22	9.06	-50.0	-51.6	14.5	0.00e+00	0	23	0	469762048	66	4276
2026-01-10 20:59:20.76	49.39	9.08	-49.9	-51.5	14.6	0.00e+00	0	23	0	472907776	66	4219
2026-01-10 20:59:21.76	49.56	9.10	-50.0	-51.6	14.5	0.00e+00	0	23	0	476053504	66	4248
2026-01-10 20:59:22.76	49.73	9.11	-49.9	-51.4	14.6	0.00e+00	0	23	0	479199232	66	4187
2026-01-10 20:59:23.76	49.90	9.13	-50.0	-51.6	14.5	0.00e+00	0	23	0	482344960	66	4243
2026-01-10 20:59:24.75	50.07	9.15	-49.9	-51.5	14.6	0.00e+00	0	23	0	485490688	66	4206
2026-01-10 20:59:25.75	50.24	9.16	-49.9	-51.4	14.6	0.00e+00	0	23	0	488636416	66	4183
2026-01-10 20:59:26.75	50.41	9.18	-49.9	-51.5	14.6	0.00e+00	0	23	0	491782144	66	4217
2026-01-10 20:59:27.75	50.58	9.19	-49.9	-51.5	14.6	0.00e+00	0	23	0	494927872	66	4223
2026-01-10 20:59:28.74	50.75	9.21	-49.9	-51.4	14.6	0.00e+00	0	23	0	498073600	66	4166
2026-01-10 20:59:29.75	50.92	9.23	-49.8	-51.4	14.6	0.00e+00	0	23	0	501219328	66	4160
2026-01-10 20:59:30.74	51.09	9.24	-49.9	-51.4	14.6	0.00e+00	0	23	0	504365056	66	4173
2026-01-10 20:59:31.74	51.26	9.26	-49.8	-51.3	14.7	0.00e+00	0	23	0	507510784	66	4140
2026-01-10 20:59:32.74	51.43	9.27	-49.7	-51.2	14.7	0.00e+00	0	23	0	510656512	66	4082
2026-01-10 20:59:33.74	51.60	9.28	-49.8	-51.3	14.7	0.00e+00	0	23	0	513802240	66	4118
2026-01-10 20:59:34.75	51.78	9.30	-49.8	-51.4	14.6	0.00e+00	0	23	0	516947968	66	4157
2026-01-10 20:59:35.75	51.95	9.31	-49.8	-51.4	14.7	0.00e+00	0	23	0	520093696	66	4152
2026-01-10 20:59:36.75	52.12	9.33	-49.9	-51.4	14.6	0.00e+00	0	23	0	523239424	66	4183
2026-01-10 20:59:37.75	52.29	9.34	-49.9	-51.5	14.6	0.00e+00	0	23	0	526385152	66	4222
2026-01-10 20:59:38.75	52.46	9.36	-49.9	-51.5	14.6	0.00e+00	0	23	0	529530880	66	4204
2026-01-10 20:59:39.75	52.64	9.37	-50.0	-51.5	14.6	0.00e+00	0	23	0	532676608	66	4232
2026-01-10 20:59:40.75	52.81	9.38	-49.9	-51.5	14.6	0.00e+00	0	23	0	535822336	66	4196
2026-01-10 20:59:41.75	52.98	9.39	-49.9	-51.4	14.6	0.00e+00	0	23	0	538968064	66	4169
2026-01-10 20:59:42.75	53.15	9.41	-49.9	-51.4	14.6	0.00e+00	0	23	0	542113792	66	4192
2026-01-10 20:59:43.75	53.33	9.42	-49.9	-51.4	14.6	0.00e+00	0	23	0	545259520	66	4171
2026-01-10 20:59:44.74	53.50	9.43	-49.8	-51.4	14.7	0.00e+00	0	23	0	548405248	66	4148
2026-01-10 20:59:45.74	53.67	9.44	-49.8	-51.4	14.7	0.00e+00	0	23	0	551550976	66	4154
2026-01-10 20:59:46.75	53.85	9.46	-49.8	-51.3	14.7	0.00e+00	0	23	0	554696704	66	4129
2026-01-10 20:59:47.74	54.02	9.47	-49.8	-51.3	14.7	0.00e+00	0	23	0	557842432	66	4136
2026-01-10 20:59:48.75	54.19	9.48	-49.8	-51.4	14.6	0.00e+00	0	23	0	560988160	66	4155
2026-01-10 20:59:49.75	54.37	9.49	-49.9	-51.4	14.6	0.00e+00	0	23	0	564133888	66	4184
2026-01-10 20:59:50.74	54.54	9.50	-50.0	-51.5	14.6	0.00e+00	0	23	0	566231040	66	4238
2026-01-10 20:59:51.74	54.72	9.51	-50.0	-51.6	14.5	0.00e+00	0	23	0	569376768	66	4258
2026-01-10 20:59:52.74	54.89	9.52	-49.9	-51.4	14.6	0.00e+00	0	23	0	572522496	66	4184
2026-01-10 20:59:53.75	55.07	9.53	-49.8	-51.3	14.7	0.00e+00	0	23	0	576716800	66	4137
2026-01-10 20:59:54.75	55.24	9.54	-49.7	-51.2	14.7	0.00e+00	0	23	0	579862528	66	4093
2026-01-10 20:59:55.75	55.41	9.55	-49.6	-51.1	14.7	0.00e+00	0	23	0	583008256	65	4243
2026-01-10 20:59:56.76	55.59	9.56	-49.7	-51.2	14.6	0.00e+00	0	23	0	586153984	65	4307
2026-01-10 20:59:57.76	55.77	9.57	-49.5	-51.0	14.7	0.00e+00	0	23	0	588251136	65	4205
2026-01-10 20:59:58.76	55.94	9.58	-49.6	-51.1	14.6	0.00e+00	0	23	0	591396864	65	4265
2026-01-10 20:59:59.77	56.12	9.59	-49.6	-51.1	14.6	0.00e+00	0	23	0	594542592	65	4270
2026-01-10 21:00:00.77	56.29	9.60	-49.6	-51.1	14.6	0.00e+00	0	23	0	597688320	65	4243
2026-01-10 21:00:01.77	56.47	9.61	-49.7	-51.2	14.6	0.00e+00	0	23	0	600834048	65	4302
2026-01-10 21:00:02.77	56.64	9.61	-49.6	-51.1	14.6	0.00e+00	0	23	0	603979776	65	4290
2026-01-10 21:00:03.77	56.82	9.62	-49.7	-51.2	14.6	0.00e+00	0	23	0	607125504	65	4314
2026-01-10 21:00:04.77	56.99	9.63	-49.8	-51.3	14.5	0.00e+00	0	23	0	610271232	65	4364
2026-01-10 21:00:05.77	57.17	9.64	-49.7	-51.2	14.6	0.00e+00	0	23	0	613416960	65	4339
2026-01-10 21:00:06.78	57.35	9.65	-49.6	-51.1	14.6	0.00e+00	0	23	0	616562688	65	4270
2026-01-10 21:00:07.78	57.52	9.65	-49.5	-51.0	14.7	0.00e+00	0	23	0	619708416	65	4222
2026-01-10 21:00:08.78	57.70	9.66	-49.6	-51.1	14.7	0.00e+00	0	23	0	622854144	65	4267
2026-01-10 21:00:09.78	57.88	9.67	-49.6	-51.1	14.7	0.00e+00	0	23	0	625999872	65	4251
2026-01-10 21:00:10.77	58.05	9.67	-49.6	-51.1	14.7	0.00e+00	0	23	0	629145600	65	4251
2026-01-10 21:00:11.77	58.23	9.68	-49.5	-51.0	14.7	0.00e+00	0	23	0	632291328	65	4205
2026-01-10 21:00:12.77	58.40	9.68	-49.5	-51.0	14.7	0.00e+00	0	23	0	635437056	65	4241
2026-01-10 21:00:13.78	58.58	9.69	-49.6	-51.1	14.7	0.00e+00	0	23	0	638582784	65	4246
2026-01-10 21:00:14.78	58.76	9.70	-49.5	-51.0	14.7	0.00e+00	0	23	0	641728512	65	4226
2026-01-10 21:00:15.79	58.94	9.70	-49.6	-51.1	14.7	0.00e+00	0	23	0	644874240	65	4258
2026-01-10 21:00:16.79	59.11	9.71	-49.7	-51.2	14.6	0.00e+00	0	23	0	648019968	65	4309
2026-01-10 21:00:17.79	59.29	9.71	-49.6	-51.1	14.6	0.00e+00	0	23	0	651165696	65	4270
2026-01-10 21:00:18.78	59.46	9.71	-49.5	-51.0	14.7	0.00e+00	0	23	0	654311424	65	4230
2026-01-10 21:00:19.78	59.64	9.72	-49.7	-51.2	14.6	0.00e+00	0	23	0	657457152	65	4314
2026-01-10 21:00:20.77	59.81	9.72	-49.6	-51.1	14.6	0.00e+00	0	23	0	660602880	65	4291
2026-01-10 21:00:21.77	59.99	9.73	-49.6	-51.1	14.6	0.00e+00	0	23	0	663748608	65	4247
2026-01-10 21:00:22.77	60.17	9.73	-49.6	-51.0	14.7	0.00e+00	0	23	0	666894336	65	4241
2026-01-10 21:00:23.76	60.34	9.73	-49.7	-51.2	14.6	0.00e+00	0	23	0	670040064	65	4299
2026-01-10 21:00:24.76	60.52	9.74	-49.7	-51.2	14.6	0.00e+00	0	23	0	673185792	65	4322
2026-01-10 21:00:25.76	60.70	9.74	-49.7	-51.2	14.5	0.00e+00	0	23	0	676331520	65	4333
2026-01-10 21:00:26.75	60.87	9.74	-49.7	-51.2	14.6	0.00e+00	0	23	0	679477248	65	4313
2026-01-10 21:00:27.76	61.05	9.74	-49.6	-51.2	14.6	0.00e+00	0	23	0	682622976	65	4298
2026-01-10 21:00:28.76	61.23	9.75	-49.6	-51.1	14.6	0.00e+00	0	23	0	685768704	65	4290
2026-01-10 21:00:29.76	61.40	9.75	-49.7	-51.2	14.6	0.00e+00	0	23	0	688914432	65	4317
2026-01-10 21:00:30.76	61.58	9.75	-49.8	-51.3	14.5	0.00e+00	0	23	0	692060160	65	4366
2026-01-10 21:00:31.77	61.76	9.75	-49.7	-51.2	14.6	0.00e+00	0	23	0	695205888	65	4317
2026-01-10 21:00:32.78	61.94	9.75	-49.6	-51.1	14.6	0.00e+00	0	23	0	698351616	65	4280
2026-01-10 21:00:33.78	62.12	9.75	-49.7	-51.2	14.6	0.00e+00	0	23	0	701497344	65	4306
2026-01-10 21:00:34.78	62.29	9.75	-49.7	-51.2	14.6	0.00e+00	0	23	0	704643072	65	4312
2026-01-10 21:00:35.77	62.47	9.75	-49.6	-51.1	14.6	0.00e+00	0	23	0	707788800	65	4244
2026-01-10 21:00:36.77	62.65	9.75	-49.6	-51.1	14.6	0.00e+00	0	23	0	710934528	65	4252
2026-01-10 21:00:37.77	62.82	9.75	-49.6	-51.0	14.7	0.00e+00	0	23	0	714080256	65	4241
2026-01-10 21:00:38.77	63.00	9.75	-49.5	-50.9	14.7	0.00e+00	0	23	0	717225984	65	4182
2026-01-10 21:00:39.78	63.18	9.75	-49.5	-50.9	14.7	0.00e+00	0	23	0	720371712	65	4186
2026-01-10 21:00:40.78	63.36	9.75	-49.4	-50.9	14.8	0.00e+00	0	23	0	723517440	65	4176
2026-01-10 21:00:41.78	63.53	9.75	-49.3	-50.7	14.9	0.00e+00	0	23	0	726663168	65	4097
2026-01-10 21:00:42.78	63.71	9.75	-49.4	-50.8	14.8	0.00e+00	0	23	0	729808896	65	4137
2026-01-10 21:00:43.78	63.89	9.75	-49.4	-50.8	14.8	0.00e+00	0	23	0	732954624	65	4132
2026-01-10 21:00:44.79	64.07	9.75	-49.4	-50.8	14.8	0.00e+00	0	23	0	736100352	65	4141
2026-01-10 21:00:45.79	64.24	9.75	-49.4	-50.8	14.8	0.00e+00	0	23	0	739246080	65	4140
2026-01-10 21:00:46.79	64.42	9.74	-49.3	-50.8	14.8	0.00e+00	0	23	0	742391808	65	4110
2026-01-10 21:00:47.79	64.60	9.74	-49.5	-50.9	14.7	0.00e+00	0	23	0	744488960	65	4191
2026-01-10 21:00:48.79	64.78	9.74	-49.4	-50.9	14.8	0.00e+00	0	23	0	747634688	65	4164
2026-01-10 21:00:49.79	64.95	9.74	-49.5	-51.0	14.7	0.00e+00	0	23	0	750780416	65	4205
2026-01-10 21:00:50.78	65.13	9.73	-49.5	-51.0	14.7	0.00e+00	0	23	0	753926144	65	4199
2026-01-10 21:00:51.78	65.30	9.73	-49.5	-50.9	14.7	0.00e+00	0	23	0	757071872	65	4186
2026-01-10 21:00:52.78	65.48	9.73	-49.6	-51.0	14.7	0.00e+00	0	23	0	760217600	65	4241
2026-01-10 21:00:53.79	65.66	9.72	-49.5	-51.0	14.7	0.00e+00	0	23	0	763363328	65	4220
2026-01-10 21:00:54.79	65.84	9.72	-49.6	-51.1	14.6	0.00e+00	0	23	0	766509056	65	4269
2026-01-10 21:00:55.79	66.01	9.71	-49.6	-51.2	14.6	0.00e+00	0	23	0	769654784	65	4293
2026-01-10 21:00:56.79	66.19	9.71	-49.6	-51.1	14.6	0.00e+00	0	23	0	772800512	65	4277
2026-01-10 21:00:57.79	66.37	9.70	-49.6	-51.1	14.6	0.00e+00	0	23	0	775946240	65	4250
2026-01-10 21:00:58.78	66.54	9.70	-49.4	-50.9	14.8	0.00e+00	0	23	0	779091968	65	4169
2026-01-10 21:00:59.79	66.72	9.69	-49.4	-50.9	14.7	0.00e+00	0	23	0	782237696	65	4170
2026-01-10 21:01:00.79	66.90	9.69	-49.6	-51.1	14.7	0.00e+00	0	23	0	785383424	65	4250
2026-01-10 21:01:01.79	67.07	9.68	-49.5	-50.9	14.7	0.00e+00	0	23	0	788529152	65	4179
2026-01-10 21:01:02.79	67.25	9.68	-49.5	-51.0	14.7	0.00e+00	0	23	0	791674880	65	4194
2026-01-10 21:01:03.79	67.42	9.67	-49.5	-51.0	14.7	0.00e+00	0	23	0	794820608	65	4202
2026-01-10 21:01:04.79	67.60	9.66	-49.5	-51.0	14.7	0.00e+00	0	23	0	797966336	65	4228
2026-01-10 21:01:05.79	67.78	9.66	-49.5	-51.0	14.7	0.00e+00	0	23	0	801112064	65	4222
2026-01-10 21:01:06.79	67.95	9.65	-49.6	-51.0	14.6	0.00e+00	0	23	0	804257792	65	4237
2026-01-10 21:01:07.79	68.13	9.64	-49.5	-50.9	14.7	0.00e+00	0	23	0	807403520	65	4192
2026-01-10 21:01:08.80	68.31	9.64	-49.4	-50.8	14.8	0.00e+00	0	23	0	810549248	65	4136
2026-01-10 21:01:09.79	68.48	9.63	-49.4	-50.8	14.8	0.00e+00	0	23	0	813694976	65	4139
2026-01-10 21:01:10.79	68.66	9.62	-49.5	-51.0	14.7	0.00e+00	0	23	0	816840704	65	4222
2026-01-10 21:01:11.79	68.83	9.61	-49.4	-50.9	14.8	0.00e+00	0	23	0	819986432	65	4155
2026-01-10 21:01:12.80	69.01	9.60	-49.5	-50.9	14.7	0.00e+00	0	23	0	823132160	65	4183
2026-01-10 21:01:13.80	69.18	9.59	-49.4	-50.9	14.7	0.00e+00	0	23	0	826277888	65	4171
2026-01-10 21:01:14.80	69.36	9.59	-49.5	-51.0	14.7	0.00e+00	0	23	0	829423616	65	4221
2026-01-10 21:01:15.80	69.54	9.58	-49.5	-51.0	14.6	0.00e+00	0	23	0	832569344	65	4225
2026-01-10 21:01:16.80	69.71	9.57	-49.5	-51.0	14.7	0.00e+00	0	23	0	835715072	65	4195
2026-01-10 21:01:17.81	69.89	9.56	-49.5	-51.0	14.7	0.00e+00	0	23	0	838860800	65	4216
2026-01-10 21:01:18.81	70.06	9.55	-49.6	-51.1	14.6	0.00e+00	0	23	0	842006528	65	4271
2026-01-10 21:01:19.80	70.24	9.54	-49.5	-51.0	14.7	0.00e+00	0	23	0	845152256	65	4215
2026-01-10 21:01:20.79	70.41	9.53	-49.5	-51.0	14.7	0.00e+00	0	23	0	848297984	65	4229
2026-01-10 21:01:21.79	70.58	9.52	-49.5	-51.0	14.7	0.00e+00	0	23	0	851443712	65	4232
2026-01-10 21:01:22.78	70.76	9.51	-49.6	-51.0	14.6	0.00e+00	0	23	0	854589440	65	4236
2026-01-10 21:01:23.79	70.93	9.50	-49.5	-51.0	14.7	0.00e+00	0	23	0	857735168	65	4232
2026-01-10 21:01:24.78	71.10	9.49	-49.7	-51.3	14.5	0.00e+00	0	23	0	860880896	65	4344
2026-01-10 21:01:25.77	71.28	9.47	-49.8	-51.4	14.5	0.00e+00	0	23	0	864026624	65	4413
2026-01-10 21:01:26.77	71.45	9.46	-49.9	-51.5	14.4	0.00e+00	0	23	0	867172352	65	4444
2026-01-10 21:01:27.78	71.63	9.45	-49.7	-51.3	14.5	0.00e+00	0	23	0	870318080	65	4353
2026-01-10 21:01:28.78	71.80	9.44	-49.6	-51.2	14.6	0.00e+00	0	23	0	873463808	65	4309
2026-01-10 21:01:29.78	71.97	9.43	-49.7	-51.3	14.5	0.00e+00	0	23	0	876609536	65	4342
2026-01-10 21:01:30.78	72.15	9.41	-49.6	-51.2	14.6	0.00e+00	0	23	0	879755264	65	4310
2026-01-10 21:01:31.77	72.32	9.40	-49.7	-51.2	14.5	0.00e+00	0	23	0	882900992	65	4338
2026-01-10 21:01:32.78	72.49	9.39	-49.8	-51.4	14.5	0.00e+00	0	23	0	886046720	65	4393
2026-01-10 21:01:33.78	72.67	9.38	-49.8	-51.4	14.4	0.00e+00	0	23	0	889192448	65	4423
2026-01-10 21:01:34.78	72.84	9.36	-49.8	-51.3	14.5	0.00e+00	0	23	0	892338176	65	4379
2026-01-10 21:01:35.78	73.01	9.35	-49.8	-51.4	14.5	0.00e+00	0	23	0	895483904	65	4396
2026-01-10 21:01:36.78	73.18	9.34	-49.9	-51.5	14.4	0.00e+00	0	23	0	898629632	65	4493
2026-01-10 21:01:37.78	73.36	9.32	-50.0	-51.6	14.3	0.00e+00	0	23	0	901775360	65	4509
2026-01-10 21:01:38.78	73.53	9.31	-49.9	-51.5	14.4	0.00e+00	0	23	0	903872512	65	4476
2026-01-10 21:01:39.79	73.70	9.29	-50.0	-51.6	14.4	0.00e+00	0	23	0	907018240	65	4510
2026-01-10 21:01:40.79	73.87	9.28	-49.9	-51.4	14.4	0.00e+00	0	23	0	910163968	65	4435
2026-01-10 21:01:41.79	74.05	9.26	-49.8	-51.4	14.4	0.00e+00	0	23	0	913309696	65	4407
2026-01-10 21:01:42.80	74.22	9.25	-49.7	-51.3	14.5	0.00e+00	0	23	0	917504000	65	4355
2026-01-10 21:01:43.80	74.39	9.23	-49.7	-51.2	14.5	0.00e+00	0	23	0	920649728	65	4326
2026-01-10 21:01:44.81	74.56	9.22	-49.9	-51.5	14.4	0.00e+00	0	23	0	923795456	65	4449
2026-01-10 21:01:45.79	74.73	9.20	-49.9	-51.5	14.4	0.00e+00	0	23	0	925892608	65	4446
2026-01-10 21:01:46.80	74.90	9.19	-50.0	-51.6	14.3	0.00e+00	0	23	0	929038336	65	4544
2026-01-10 21:01:47.79	75.07	9.17	-49.9	-51.5	14.4	0.00e+00	0	23	0	932184064	65	4454
2026-01-10 21:01:48.79	75.24	9.15	-49.6	-51.2	14.6	0.00e+00	0	23	0	935329792	65	4295
2026-01-10 21:01:49.80	75.41	9.14	-49.7	-51.2	14.5	0.00e+00	0	23	0	938475520	65	4336
2026-01-10 21:01:50.79	75.58	9.12	-49.8	-51.4	14.4	0.00e+00	0	23	0	941621248	65	4400
2026-01-10 21:01:51.80	75.76	9.10	-49.8	-51.4	14.4	0.00e+00	0	23	0	944766976	65	4419
2026-01-10 21:01:52.80	75.92	9.09	-49.7	-51.2	14.5	0.00e+00	0	23	0	947912704	65	4340
2026-01-10 21:01:53.81	76.10	9.07	-49.7	-51.3	14.5	0.00e+00	0	23	0	951058432	65	4361
2026-01-10 21:01:54.80	76.26	9.05	-49.8	-51.3	14.5	0.00e+00	0	23	0	954204160	65	4373
2026-01-10 21:01:55.81	76.43	9.03	-49.7	-51.3	14.5	0.00e+00	0	23	0	957349888	65	4347
2026-01-10 21:01:56.82	76.61	9.02	-49.7	-51.2	14.5	0.00e+00	0	23	0	960495616	65	4335
2026-01-10 21:01:57.82	76.77	9.00	-49.6	-51.2	14.6	0.00e+00	0	23	0	963641344	65	4302
2026-01-10 21:01:58.82	76.94	8.98	-49.8	-51.3	14.5	0.00e+00	0	23	0	966787072	65	4369
2026-01-10 21:01:59.82	77.11	8.96	-49.6	-51.2	14.5	0.00e+00	0	23	0	969932800	65	4298
2026-01-10 21:02:00.82	77.28	8.94	-49.7	-51.2	14.6	0.00e+00	0	23	0	973078528	65	4330
2026-01-10 21:02:01.83	77.45	8.92	-49.7	-51.2	14.5	0.00e+00	0	23	0	976224256	65	4332
2026-01-10 21:02:02.83	77.62	8.90	-49.6	-51.1	14.6	0.00e+00	0	23	0	979369984	65	4271
2026-01-10 21:02:03.84	77.79	8.89	-49.5	-51.0	14.6	0.00e+00	0	23	0	982515712	65	4236
2026-01-10 21:02:04.84	77.95	8.87	-49.6	-51.1	14.6	0.00e+00	0	23	0	985661440	65	4258
2026-01-10 21:02:05.83	78.12	8.85	-49.6	-51.2	14.5	0.00e+00	0	23	0	988807168	65	4293
2026-01-10 21:02:06.84	78.29	8.83	-49.6	-51.1	14.6	0.00e+00	0	23	0	991952896	65	4259
2026-01-10 21:02:07.84	78.45	8.81	-49.8	-51.4	14.5	0.00e+00	0	23	0	995098624	65	4402
2026-01-10 21:02:08.84	78.62	8.79	-49.6	-51.1	14.6	0.00e+00	0	23	0	998244352	65	4289
2026-01-10 21:02:09.84	78.79	8.77	-49.6	-51.2	14.5	0.00e+00	0	23	0	1001390080	65	4295
2026-01-10 21:02:10.84	78.95	8.74	-49.7	-51.2	14.5	0.00e+00	0	23	0	1004535808	65	4338
2026-01-10 21:02:11.84	79.12	8.72	-49.6	-51.1	14.6	0.00e+00	0	23	0	1007681536	65	4266
2026-01-10 21:02:12.84	79.28	8.70	-49.6	-51.2	14.5	0.00e+00	0	23	0	1010827264	65	4298
2026-01-10 21:02:13.84	79.45	8.68	-49.6	-51.1	14.6	0.00e+00	0	23	0	1013972992	65	4244
2026-01-10 21:02:14.84	79.61	8.66	-49.6	-51.1	14.6	0.00e+00	0	23	0	1017118720	65	4286
2026-01-10 21:02:15.84	79.78	8.64	-49.7	-51.2	14.5	0.00e+00	0	23	0	1020264448	65	4307
2026-01-10 21:02:16.84	79.94	8.62	-49.6	-51.1	14.6	0.00e+00	0	23	0	1023410176	65	4250
2026-01-10 21:02:17.84	80.11	8.59	-49.5	-51.0	14.6	0.00e+00	0	23	0	1026555904	65	4240
2026-01-10 21:02:18.84	80.27	8.57	-49.5	-51.0	14.7	0.00e+00	0	23	0	1029701632	65	4204
2026-01-10 21:02:19.83	80.43	8.55	-49.4	-50.9	14.7	0.00e+00	0	23	0	1032847360	65	4188
2026-01-10 21:02:20.83	80.60	8.53	-49.3	-50.8	14.8	0.00e+00	0	24	0	1035993088	65	4105
2026-01-10 21:02:21.83	80.76	8.51	-49.3	-50.8	14.8	0.00e+00	0	23	0	1039138816	65	4117
2026-01-10 21:02:22.83	80.92	8.48	-49.4	-50.9	14.7	0.00e+00	0	23	0	1042284544	65	4185
2026-01-10 21:02:23.83	81.09	8.46	-49.5	-51.0	14.6	0.00e+00	0	23	0	1045430272	65	4228
2026-01-10 21:02:24.83	81.25	8.44	-49.5	-51.0	14.7	0.00e+00	0	23	0	1048576000	65	4226
2026-01-10 21:02:25.83	81.41	8.41	-49.6	-51.1	14.6	0.00e+00	0	23	0	1051721728	65	4257
2026-01-10 21:02:26.82	81.57	8.39	-49.5	-51.0	14.6	0.00e+00	0	23	0	1054867456	65	4239
2026-01-10 21:02:27.82	81.74	8.37	-49.6	-51.2	14.6	0.00e+00	0	23	0	1058013184	65	4293
2026-01-10 21:02:28.82	81.90	8.34	-49.6	-51.2	14.6	0.00e+00	0	23	0	1061158912	65	4300
2026-01-10 21:02:29.82	82.06	8.32	-49.6	-51.1	14.6	0.00e+00	0	23	0	1064304640	65	4253
2026-01-10 21:02:30.82	82.22	8.29	-49.7	-51.2	14.5	0.00e+00	0	23	0	1067450368	65	4339
2026-01-10 21:02:31.83	82.38	8.27	-49.5	-51.1	14.6	0.00e+00	0	23	0	1070596096	65	4244
2026-01-10 21:02:32.83	82.54	8.24	-49.6	-51.2	14.5	0.00e+00	0	23	0	1073741824	65	4310
2026-01-10 21:02:33.82	82.70	8.22	-49.8	-51.3	14.4	0.00e+00	0	23	0	1076887552	65	4386
2026-01-10 21:02:34.83	82.86	8.19	-49.8	-51.3	14.4	0.00e+00	0	23	0	1080033280	65	4381
2026-01-10 21:02:35.83	83.02	8.17	-49.8	-51.4	14.4	0.00e+00	0	23	0	1083179008	65	4399
2026-01-10 21:02:36.83	83.18	8.14	-49.7	-51.3	14.5	0.00e+00	0	23	0	1085276160	65	4369
2026-01-10 21:02:37.83	83.34	8.12	-49.7	-51.3	14.5	0.00e+00	0	23	0	1088421888	65	4365
2026-01-10 21:02:38.82	83.50	8.09	-49.8	-51.4	14.4	0.00e+00	0	23	0	1091567616	65	4410
2026-01-10 21:02:39.81	83.66	8.07	-49.7	-51.2	14.5	0.00e+00	0	23	0	1094713344	65	4327
2026-01-10 21:02:40.82	83.82	8.04	-49.7	-51.2	14.5	0.00e+00	0	23	0	1097859072	65	4332
2026-01-10 21:02:41.82	83.98	8.02	-49.7	-51.3	14.5	0.00e+00	0	23	0	1101004800	65	4353
2026-01-10 21:02:42.82	84.13	7.99	-49.8	-51.4	14.4	0.00e+00	0	23	0	1104150528	65	4416
2026-01-10 21:02:43.82	84.29	7.96	-49.8	-51.4	14.4	0.00e+00	0	23	0	1107296256	65	4418
2026-01-10 21:02:44.82	84.45	7.94	-50.0	-51.6	14.3	0.00e+00	0	23	0	1110441984	65	4530
2026-01-10 21:02:45.82	84.61	7.91	-49.9	-51.4	14.3	0.00e+00	0	23	0	1113587712	65	4436
2026-01-10 21:02:46.83	84.76	7.88	-49.8	-51.3	14.4	0.00e+00	0	23	0	1116733440	65	4389
2026-01-10 21:02:47.84	84.92	7.85	-50.0	-51.6	14.3	0.00e+00	0	23	0	1119879168	65	4508
2026-01-10 21:02:48.83	85.08	7.83	-50.0	-51.6	14.3	0.00e+00	0	23	0	1123024896	65	4539
2026-01-10 21:02:49.83	85.23	7.80	-50.0	-51.7	14.2	0.00e+00	0	23	0	1126170624	65	4564
2026-01-10 21:02:50.84	85.39	7.77	-49.9	-51.5	14.3	0.00e+00	0	23	0	1129316352	65	4456
2026-01-10 21:02:51.84	85.55	7.75	-49.8	-51.4	14.4	0.00e+00	0	23	0	1132462080	65	4393
2026-01-10 21:02:52.84	85.70	7.72	-49.7	-51.3	14.5	0.00e+00	0	23	0	1135607808	65	4348
2026-01-10 21:02:53.84	85.86	7.69	-49.8	-51.4	14.4	0.00e+00	0	23	0	1138753536	65	4399
2026-01-10 21:02:54.84	86.01	7.66	-49.6	-51.2	14.5	0.00e+00	0	23	0	1141899264	65	4322
2026-01-10 21:02:55.85	86.17	7.63	-49.7	-51.2	14.5	0.00e+00	0	23	0	1145044992	65	4339
2026-01-10 21:02:56.85	86.32	7.60	-49.7	-51.3	14.5	0.00e+00	0	23	0	1148190720	65	4348
2026-01-10 21:02:57.86	86.48	7.58	-49.6	-51.1	14.6	0.00e+00	0	23	0	1151336448	65	4263
2026-01-10 21:02:58.86	86.63	7.55	-49.7	-51.2	14.5	0.00e+00	0	23	0	1154482176	65	4323
2026-01-10 21:02:59.86	86.78	7.52	-49.7	-51.2	14.5	0.00e+00	0	23	0	1157627904	65	4330
2026-01-10 21:03:00.85	86.93	7.49	-49.9	-51.5	14.3	0.00e+00	0	23	0	1160773632	65	4445
2026-01-10 21:03:01.85	87.09	7.46	-49.8	-51.4	14.4	0.00e+00	0	23	0	1163919360	65	4412
2026-01-10 21:03:02.85	87.24	7.43	-49.8	-51.5	14.4	0.00e+00	0	23	0	1167065088	65	4442
2026-01-10 21:03:03.85	87.39	7.40	-49.8	-51.4	14.4	0.00e+00	0	23	0	1170210816	65	4398
2026-01-10 21:03:04.85	87.54	7.37	-49.9	-51.5	14.3	0.00e+00	0	23	0	1173356544	65	4446
2026-01-10 21:03:05.84	87.69	7.34	-49.9	-51.6	14.3	0.00e+00	0	23	0	1176502272	65	4494
2026-01-10 21:03:06.84	87.84	7.31	-49.9	-51.5	14.3	0.00e+00	0	23	0	1179648000	65	4468
2026-01-10 21:03:07.84	88.00	7.28	-50.0	-51.7	14.2	0.00e+00	0	23	0	1182793728	65	4547
2026-01-10 21:03:08.84	88.15	7.25	-50.0	-51.7	14.2	0.00e+00	0	23	0	1185939456	65	4566
2026-01-10 21:03:09.84	88.30	7.22	-50.0	-51.7	14.2	0.00e+00	0	23	0	1189085184	65	4549
2026-01-10 21:03:10.85	88.45	7.19	-49.9	-51.5	14.3	0.00e+00	0	23	0	1192230912	65	4462
2026-01-10 21:03:11.85	88.60	7.16	-50.0	-51.7	14.2	0.00e+00	0	23	0	1195376640	65	4576
2026-01-10 21:03:12.85	88.75	7.13	-50.0	-51.6	14.2	0.00e+00	0	23	0	1198522368	65	4544
2026-01-10 21:03:13.85	88.90	7.10	-49.9	-51.5	14.3	0.00e+00	0	23	0	1201668096	65	4484
2026-01-10 21:03:14.86	89.05	7.07	-49.9	-51.5	14.3	0.00e+00	0	23	0	1204813824	65	4480
2026-01-10 21:03:15.86	89.19	7.04	-49.9	-51.6	14.2	0.00e+00	0	23	0	1207959552	65	4498
2026-01-10 21:03:16.86	89.34	7.01	-50.0	-51.6	14.3	0.00e+00	0	23	0	1211105280	65	4506
2026-01-10 21:03:17.86	89.49	6.98	-49.9	-51.5	14.3	0.00e+00	0	23	0	1214251008	65	4452
2026-01-10 21:03:18.86	89.64	6.95	-50.0	-51.6	14.2	0.00e+00	0	23	0	1217396736	65	4513
2026-01-10 21:03:19.85	89.78	6.91	-50.1	-51.8	14.1	0.00e+00	0	23	0	1220542464	65	4622
2026-01-10 21:03:20.84	89.93	6.88	-50.1	-51.7	14.2	0.00e+00	0	23	0	1223688192	65	4579
2026-01-10 21:03:21.84	90.08	6.85	-50.1	-51.7	14.2	0.00e+00	0	23	0	1226833920	65	4582
2026-01-10 21:03:22.84	90.22	6.82	-50.2	-51.9	14.1	0.00e+00	0	23	0	1229979648	65	4684
2026-01-10 21:03:23.84	90.37	6.79	-50.3	-52.0	14.0	0.00e+00	0	23	0	1233125376	65	4728
2026-01-10 21:03:24.84	90.51	6.76	-50.3	-52.0	14.0	0.00e+00	0	24	0	1236271104	65	4754
2026-01-10 21:03:25.85	90.66	6.72	-50.4	-52.1	14.1	0.00e+00	0	23	0	1239416832	66	4526
2026-01-10 21:03:26.85	90.81	6.69	-50.4	-52.1	14.1	0.00e+00	0	23	0	1242562560	66	4538
2026-01-10 21:03:27.84	90.95	6.66	-50.4	-52.1	14.1	0.00e+00	0	23	0	1244659712	66	4534
2026-01-10 21:03:28.84	91.09	6.63	-50.3	-52.1	14.1	0.00e+00	0	23	0	1247805440	66	4498
2026-01-10 21:03:29.84	91.24	6.59	-50.3	-52.0	14.1	0.00e+00	0	23	0	1250951168	66	4493
2026-01-10 21:03:30.84	91.38	6.56	-50.3	-52.0	14.1	0.00e+00	0	23	0	1254096896	66	4479
2026-01-10 21:03:31.84	91.53	6.53	-50.5	-52.2	14.0	0.00e+00	0	23	0	1257242624	66	4574
2026-01-10 21:03:32.85	91.67	6.50	-50.3	-52.1	14.1	0.00e+00	0	23	0	1260388352	66	4499
2026-01-10 21:03:33.85	91.81	6.46	-50.4	-52.1	14.1	0.00e+00	0	23	0	1264582656	66	4510
2026-01-10 21:03:34.85	91.96	6.43	-50.4	-52.2	14.0	0.00e+00	0	23	0	1266679808	66	4579
2026-01-10 21:03:35.86	92.10	6.40	-50.4	-52.2	14.0	0.00e+00	0	23	0	1269825536	66	4562
2026-01-10 21:03:36.86	92.24	6.36	-50.3	-52.0	14.1	0.00e+00	0	23	0	1272971264	66	4454
2026-01-10 21:03:37.86	92.38	6.33	-50.2	-52.0	14.1	0.00e+00	0	23	0	1276116992	66	4449
2026-01-10 21:03:38.87	92.53	6.30	-50.3	-52.0	14.1	0.00e+00	0	23	0	1279262720	66	4470
2026-01-10 21:03:39.87	92.67	6.26	-50.5	-52.3	14.0	0.00e+00	0	23	0	1282408448	66	4624
2026-01-10 21:03:40.87	92.81	6.23	-50.3	-52.1	14.1	0.00e+00	0	23	0	1285554176	66	4501
2026-01-10 21:03:41.87	92.95	6.19	-50.4	-52.2	14.0	0.00e+00	0	23	0	1288699904	66	4549
2026-01-10 21:03:42.87	93.09	6.16	-50.5	-52.3	13.9	0.00e+00	0	23	0	1291845632	66	4631
2026-01-10 21:03:43.88	93.23	6.13	-50.5	-52.3	14.0	0.00e+00	0	23	0	1294991360	66	4612
2026-01-10 21:03:44.89	93.37	6.09	-50.7	-52.5	13.8	0.00e+00	0	23	0	1298137088	66	4718
2026-01-10 21:03:45.88	93.51	6.06	-50.6	-52.4	13.8	0.00e+00	0	23	0	1301282816	66	4703
2026-01-10 21:03:46.88	93.65	6.02	-50.7	-52.5	13.8	0.00e+00	0	23	0	1304428544	66	4746
2026-01-10 21:03:47.88	93.79	5.99	-50.7	-52.6	13.7	0.00e+00	0	23	0	1307574272	66	4772
2026-01-10 21:03:48.89	93.93	5.95	-50.7	-52.5	13.8	0.00e+00	0	23	0	1310720000	66	4735
2026-01-10 21:03:49.88	94.06	5.92	-50.6	-52.4	13.8	0.00e+00	0	23	0	1313865728	66	4701
2026-01-10 21:03:50.88	94.20	5.88	-50.5	-52.2	14.0	0.00e+00	0	23	0	1317011456	66	4586
2026-01-10 21:03:51.89	94.34	5.85	-50.4	-52.2	14.0	0.00e+00	0	23	0	1320157184	66	4548
2026-01-10 21:03:52.89	94.48	5.81	-50.6	-52.4	13.9	0.00e+00	0	23	0	1323302912	66	4678
2026-01-10 21:03:53.89	94.61	5.78	-50.6	-52.4	13.8	0.00e+00	0	23	0	1326448640	66	4667
2026-01-10 21:03:54.89	94.75	5.74	-50.4	-52.2	14.0	0.00e+00	0	23	0	1329594368	66	4574
2026-01-10 21:03:55.90	94.89	5.71	-50.5	-52.3	13.9	0.00e+00	0	23	0	1332740096	66	4620
2026-01-10 21:03:56.90	95.02	5.67	-50.3	-52.1	14.0	0.00e+00	0	23	0	1335885824	66	4506
2026-01-10 21:03:57.91	95.16	5.64	-50.5	-52.3	13.9	0.00e+00	0	23	0	1339031552	66	4609
2026-01-10 21:03:58.89	95.29	5.60	-50.5	-52.2	13.9	0.00e+00	0	23	0	1342177280	66	4589
2026-01-10 21:03:59.90	95.43	5.57	-50.5	-52.2	13.9	0.00e+00	0	23	0	1345323008	66	4593
2026-01-10 21:04:00.90	95.56	5.53	-50.5	-52.3	13.9	0.00e+00	0	23	0	1348468736	66	4608
2026-01-10 21:04:01.91	95.70	5.50	-50.3	-52.0	14.0	0.00e+00	0	23	0	1351614464	66	4490
2026-01-10 21:04:02.91	95.83	5.46	-50.2	-52.0	14.1	0.00e+00	0	23	0	1354760192	66	4446
2026-01-10 21:04:03.91	95.96	5.43	-50.4	-52.2	13.9	0.00e+00	0	23	0	1357905920	66	4565
2026-01-10 21:04:04.91	96.10	5.39	-50.3	-52.1	14.0	0.00e+00	0	23	0	1361051648	66	4525
2026-01-10 21:04:05.92	96.23	5.35	-50.5	-52.3	13.9	0.00e+00	0	23	0	1364197376	66	4633
2026-01-10 21:04:06.91	96.36	5.32	-50.6	-52.4	13.8	0.00e+00	0	23	0	1367343104	66	4676
2026-01-10 21:04:07.90	96.49	5.28	-50.7	-52.6	13.7	0.00e+00	0	23	0	1370488832	66	4783
2026-01-10 21:04:08.91	96.63	5.24	-50.7	-52.6	13.7	0.00e+00	0	23	0	1373634560	66	4775
2026-01-10 21:04:09.91	96.76	5.21	-50.4	-52.2	13.9	0.00e+00	0	23	0	1376780288	66	4574
2026-01-10 21:04:10.91	96.89	5.17	-50.4	-52.2	13.9	0.00e+00	0	23	0	1379926016	66	4581
2026-01-10 21:04:11.91	97.02	5.14	-50.5	-52.4	13.8	0.00e+00	0	23	0	1383071744	66	4654
2026-01-10 21:04:12.91	97.15	5.10	-50.6	-52.4	13.8	0.00e+00	0	23	0	1386217472	66	4682
2026-01-10 21:04:13.88	97.28	5.06	-50.6	-52.5	13.7	0.00e+00	0	23	0	1389363200	66	4721
2026-01-10 21:04:14.89	97.41	5.03	-50.7	-52.6	13.7	0.00e+00	0	23	0	1392508928	66	4764
2026-01-10 21:04:15.89	97.54	4.99	-57.2	-69.6	3.8	6.24e-01	0	24	104	1395654656	79	15966
2026-01-10 21:04:16.89	97.67	4.95	-57.6	-71.3	3.8	1.49e+00	0	23	104	1395654656	80	18514
2026-01-10 21:04:17.89	97.80	4.92	-57.9	-71.7	3.8	1.49e+00	0	24	104	1395654656	80	19204
2026-01-10 21:04:18.89	97.93	4.88	-58.1	-71.9	3.8	1.49e+00	0	23	104	1395654656	81	18657
2026-01-10 21:04:19.89	98.06	4.84	-58.3	-72.1	3.8	1.49e+00	0	24	104	1395654656	81	18953
2026-01-10 21:04:20.89	98.18	4.81	-58.5	-72.3	3.8	1.49e+00	0	24	104	1395654656	82	18507
2026-01-10 21:04:21.89	98.31	4.77	-58.6	-72.4	3.8	1.49e+00	0	24	104	1395654656	82	18605
2026-01-10 21:04:22.89	98.44	4.73	-58.7	-72.5	3.8	1.49e+00	0	23	104	1395654656	82	18823
2026-01-10 21:04:23.89	98.57	4.69	-58.8	-72.6	3.8	1.49e+00	0	23	104	1395654656	82	19005
2026-01-10 21:04:24.88	98.69	4.66	-58.9	-72.7	3.8	1.49e+00	0	23	104	1395654656	82	19238
2026-01-10 21:04:25.88	98.82	4.62	-59.0	-72.8	3.8	1.49e+00	0	23	104	1395654656	83	18439
2026-01-10 21:04:26.88	98.95	4.58	-59.0	-72.8	3.8	1.49e+00	0	23	104	1395654656	83	18497
2026-01-10 21:04:27.89	99.07	4.54	-59.1	-72.9	3.8	1.49e+00	0	24	104	1395654656	83	18587
2026-01-10 21:04:28.88	99.20	4.51	-59.1	-72.9	3.8	1.49e+00	0	24	104	1395654656	83	18710
2026-01-10 21:04:29.88	99.32	4.47	-59.2	-73.0	3.8	1.49e+00	0	24	104	1395654656	83	18830
2026-01-10 21:04:30.88	99.45	4.43	-59.2	-73.0	3.8	1.49e+00	0	24	104	1395654656	83	18918
2026-01-10 21:04:31.87	99.57	4.40	-59.3	-73.1	3.8	1.49e+00	0	24	104	1395654656	83	18973
2026-01-10 21:04:32.87	99.70	4.36	-59.3	-73.1	3.8	1.49e+00	0	24	104	1395654656	83	19083
2026-01-10 21:04:33.87	99.82	4.32	-59.3	-73.2	3.8	1.49e+00	0	24	104	1395654656	83	19239
2026-01-10 21:04:34.87	99.94	4.28	-59.4	-73.2	3.8	1.49e+00	0	24	104	1395654656	83	19339
2026-01-10 21:04:35.86	100.07	4.24	-59.4	-73.2	3.8	1.49e+00	0	24	104	1395654656	83	19344
2026-01-10 21:04:36.86	100.19	4.21	-59.6	-73.4	3.8	1.49e+00	0	24	104	1395654656	84	18704
2026-01-10 21:04:37.86	100.31	4.17	-59.7	-73.5	3.8	1.49e+00	0	23	104	1395654656	84	18805
2026-01-10 21:04:38.87	100.44	4.13	-59.7	-73.5	3.8	1.49e+00	0	24	104	1395654656	84	18913
2026-01-10 21:04:39.87	100.56	4.09	-59.7	-73.5	3.8	1.49e+00	0	24	104	1395654656	84	18913
2026-01-10 21:04:40.86	100.68	4.05	-59.7	-73.6	3.8	1.49e+00	0	24	104	1395654656	84	18973
2026-01-10 21:04:41.86	100.80	4.02	-59.8	-73.6	3.8	1.49e+00	0	23	104	1395654656	84	19046
2026-01-10 21:04:42.86	100.92	3.98	-59.8	-73.6	3.8	1.49e+00	0	23	104	1395654656	84	19026
2026-01-10 21:04:43.87	101.05	3.94	-59.7	-73.6	3.8	1.49e+00	0	23	104	1395654656	84	18957
2026-01-10 21:04:44.87	101.17	3.90	-59.7	-73.5	3.8	1.49e+00	0	24	104	1395654656	84	18924
2026-01-10 21:04:45.87	101.29	3.86	-59.7	-73.5	3.8	1.49e+00	0	24	104	1395654656	84	18880
2026-01-10 21:04:46.88	101.41	3.82	-59.7	-73.5	3.8	1.49e+00	0	24	104	1395654656	84	18822
2026-01-10 21:04:47.87	101.53	3.78	-59.7	-73.5	3.8	1.49e+00	0	24	104	1395654656	84	18814
2026-01-10 21:04:48.88	101.65	3.75	-59.6	-73.5	3.8	1.49e+00	0	24	104	1395654656	84	18792
2026-01-10 21:04:49.88	101.77	3.71	-59.6	-73.5	3.8	1.49e+00	0	24	104	1395654656	84	18743
2026-01-10 21:04:50.88	101.89	3.67	-59.6	-73.5	3.8	1.49e+00	0	23	104	1395654656	84	18767
2026-01-10 21:04:51.88	102.01	3.63	-59.6	-73.4	3.8	1.49e+00	0	24	104	1395654656	84	18692
2026-01-10 21:04:52.88	102.12	3.59	-59.6	-73.4	3.8	1.49e+00	0	24	104	1395654656	84	18647
2026-01-10 21:04:53.88	102.24	3.55	-59.6	-73.4	3.8	1.49e+00	0	24	104	1395654656	84	18676
2026-01-10 21:04:54.88	102.36	3.51	-59.6	-73.4	3.8	1.49e+00	0	24	104	1395654656	84	18629
2026-01-10 21:04:55.88	102.48	3.47	-59.6	-73.4	3.8	1.49e+00	0	24	104	1395654656	84	18657
2026-01-10 21:04:56.88	102.60	3.44	-59.6	-73.4	3.8	1.49e+00	0	24	104	1395654656	84	18679
2026-01-10 21:04:57.88	102.71	3.40	-59.6	-73.4	3.8	1.49e+00	0	24	104	1395654656	84	18598
2026-01-10 21:04:58.88	102.83	3.36	-59.6	-73.4	3.8	1.49e+00	0	24	104	1395654656	84	18522
2026-01-10 21:04:59.88	102.95	3.32	-59.6	-73.4	3.8	1.49e+00	0	24	104	1395654656	84	18574
2026-01-10 21:05:00.89	103.06	3.28	-59.6	-73.4	3.8	1.49e+00	0	23	104	1395654656	84	18560
2026-01-10 21:05:01.89	103.18	3.24	-59.6	-73.4	3.8	1.49e+00	0	23	104	1395654656	84	18590
2026-01-10 21:05:02.90	103.30	3.20	-59.6	-73.4	3.8	1.49e+00	0	24	104	1395654656	84	18581
2026-01-10 21:05:03.91	103.41	3.16	-59.6	-73.4	3.8	1.49e+00	0	24	104	1395654656	84	18601
2026-01-10 21:05:04.90	103.53	3.12	-59.6	-73.4	3.8	1.49e+00	0	24	104	1395654656	84	18560
2026-01-10 21:05:05.90	103.64	3.08	-59.6	-73.4	3.8	1.49e+00	0	24	104	1395654656	84	18543
2026-01-10 21:05:06.90	103.75	3.04	-59.6	-73.4	3.8	1.49e+00	0	24	104	1395654656	84	18545
2026-01-10 21:05:07.90	103.87	3.00	-59.5	-73.4	3.8	1.49e+00	0	24	104	1395654656	84	18604
2026-01-10 21:05:08.91	103.98	2.96	-59.6	-73.4	3.8	1.49e+00	0	24	104	1395654656	84	18584
2026-01-10 21:05:09.91	104.10	2.92	-59.6	-73.4	3.8	1.49e+00	0	24	104	1395654656	84	18524
2026-01-10 21:05:10.92	104.21	2.88	-59.5	-73.4	3.8	1.49e+00	0	23	104	1395654656	84	18525
2026-01-10 21:05:11.92	104.32	2.84	-59.5	-73.3	3.8	1.49e+00	0	24	104	1395654656	84	18493
2026-01-10 21:05:12.92	104.44	2.81	-59.5	-73.3	3.8	1.49e+00	0	24	104	1395654656	84	18488
2026-01-10 21:05:13.92	104.55	2.77	-59.5	-73.3	3.8	1.49e+00	0	23	104	1395654656	84	18486
2026-01-10 21:05:14.93	104.66	2.73	-59.5	-73.3	3.8	1.49e+00	0	24	104	1395654656	84	18472
2026-01-10 21:05:15.92	104.77	2.69	-59.5	-73.3	3.8	1.49e+00	0	24	104	1395654656	84	18491
2026-01-10 21:05:16.93	104.89	2.65	-59.5	-73.3	3.8	1.49e+00	0	24	104	1395654656	84	18496
2026-01-10 21:05:17.92	105.00	2.61	-59.5	-73.3	3.8	1.49e+00	0	24	104	1395654656	84	18488
2026-01-10 21:05:18.93	105.11	2.57	-59.5	-73.3	3.8	1.49e+00	0	24	104	1395654656	84	18438
2026-01-10 21:05:19.92	105.22	2.53	-59.5	-73.3	3.8	1.49e+00	0	23	104	1395654656	84	18484
2026-01-10 21:05:20.91	105.33	2.49	-59.5	-73.3	3.8	1.49e+00	0	24	104	1395654656	84	18452
2026-01-10 21:05:21.92	105.44	2.45	-59.5	-73.3	3.8	1.49e+00	0	24	104	1395654656	84	18462
2026-01-10 21:05:22.92	105.55	2.41	-59.5	-73.3	3.8	1.49e+00	0	23	104	1395654656	84	18450
2026-01-10 21:05:23.92	105.66	2.37	-59.5	-73.3	3.8	1.49e+00	0	24	104	1395654656	84	18482
2026-01-10 21:05:24.93	105.77	2.33	-59.5	-73.3	3.8	1.49e+00	0	23	104	1395654656	84	18442
2026-01-10 21:05:25.93	105.88	2.29	-59.5	-73.3	3.8	1.49e+00	0	23	104	1395654656	84	18467
2026-01-10 21:05:26.94	105.99	2.25	-59.5	-73.3	3.8	1.49e+00	0	24	104	1395654656	84	18421
2026-01-10 21:05:27.93	106.09	2.21	-59.5	-73.3	3.8	1.49e+00	0	24	104	1395654656	84	18409
2026-01-10 21:05:28.93	106.20	2.17	-59.5	-73.3	3.8	1.49e+00	0	24	104	1395654656	84	18470
2026-01-10 21:05:29.92	106.31	2.13	-59.5	-73.3	3.8	1.49e+00	0	24	104	1395654656	84	18397
2026-01-10 21:05:30.92	106.42	2.09	-59.5	-73.3	3.8	1.49e+00	0	24	104	1395654656	84	18356
2026-01-10 21:05:31.92	106.52	2.05	-59.5	-73.3	3.8	1.49e+00	0	24	104	1395654656	84	18417
2026-01-10 21:05:32.91	106.63	2.01	-59.5	-73.3	3.8	1.49e+00	0	23	104	1395654656	84	18358
2026-01-10 21:05:33.92	106.74	1.97	-59.5	-73.3	3.8	1.49e+00	0	24	104	1395654656	84	18349

#Closed at: 2026-01-10 21:05:34
#Recorded file [1395 MB]: D:/lorett/data/31004_260110_235541.dat