passes_logs/2026/01/10/R3.2S_Murmansk/R3.2S_Murmansk__20260110_092208_SUOMI_NPP_rec.log

#Pass ID: 20260110_092208_SUOMI NPP
#Satellite: SUOMI NPP
#Configuration: NPP
#almurnet v.1.7.20251203
#Start time: 2026-01-10 09:22:10

#Version: 2.2.20231116
#Station: R3.2S_Murmansk
#Location: 33.079688 lon 68.888172 lat
#TLE: 1 37849U 11061A   26009.81756760  .00000113  00000+0  74747-4 0  9994
#TLE: 2 37849  98.7806 311.9110 0002525  72.5604 287.5848 14.19524046735974

#Time	Az	El	Level	Level2	SNR	BER	BlckErr	Temp	State	Recorded	gain1	gain2
2026-01-10 09:22:10.82	146.25	2.13	-57.1	-73.1	3.8	1.49e+00	0	22	0	0	80	22602
2026-01-10 09:22:11.80	146.25	2.19	-57.1	-73.0	3.8	1.49e+00	0	21	104	0	79	23821
2026-01-10 09:22:12.78	146.25	2.26	-57.1	-73.1	3.8	1.49e+00	0	22	104	0	79	23879
2026-01-10 09:22:13.76	146.25	2.32	-57.1	-73.1	3.8	1.49e+00	0	21	104	0	79	23874
2026-01-10 09:22:14.73	146.24	2.38	-57.1	-73.0	3.8	1.49e+00	0	22	104	0	79	23818
2026-01-10 09:22:15.71	146.24	2.45	-57.1	-73.0	3.8	1.49e+00	0	22	104	0	79	23854
2026-01-10 09:22:16.69	146.24	2.51	-57.1	-73.0	3.8	1.49e+00	0	22	104	0	79	23837
2026-01-10 09:22:17.67	146.23	2.58	-57.1	-73.0	3.8	1.49e+00	0	22	104	0	79	23805
2026-01-10 09:22:18.65	146.23	2.64	-57.1	-73.0	3.8	1.49e+00	0	22	104	0	79	23794
2026-01-10 09:22:19.63	146.23	2.71	-57.1	-73.0	3.8	1.49e+00	0	22	104	0	79	23752
2026-01-10 09:22:20.61	146.22	2.77	-57.1	-73.0	3.8	1.49e+00	0	22	104	0	79	23666
2026-01-10 09:22:21.58	146.22	2.83	-57.1	-73.0	3.8	1.49e+00	0	22	104	0	79	23714
2026-01-10 09:22:22.56	146.22	2.90	-57.1	-73.0	3.8	1.49e+00	0	22	104	0	79	23627
2026-01-10 09:22:23.54	146.21	2.96	-57.1	-73.0	3.8	1.49e+00	0	22	104	0	79	23601
2026-01-10 09:22:24.53	146.21	3.03	-57.1	-72.9	3.8	1.49e+00	0	22	104	0	79	23558
2026-01-10 09:22:25.51	146.21	3.10	-57.1	-72.9	3.8	1.49e+00	0	22	104	0	79	23528
2026-01-10 09:22:26.48	146.20	3.16	-57.1	-72.9	3.8	1.49e+00	0	22	104	0	79	23412
2026-01-10 09:22:27.46	146.20	3.23	-57.1	-72.9	3.8	1.49e+00	0	22	104	0	79	23418
2026-01-10 09:22:28.43	146.20	3.29	-57.1	-72.9	3.8	1.49e+00	0	22	104	0	79	23367
2026-01-10 09:22:29.41	146.19	3.36	-57.1	-72.9	3.8	1.49e+00	0	22	104	0	79	23333
2026-01-10 09:22:30.38	146.19	3.42	-57.1	-72.8	3.8	1.49e+00	0	22	104	0	79	23290
2026-01-10 09:22:31.35	146.18	3.49	-57.1	-72.8	3.8	1.49e+00	0	22	104	0	79	23204
2026-01-10 09:22:32.34	146.18	3.56	-57.1	-72.7	3.8	1.49e+00	0	22	104	0	79	22898
2026-01-10 09:22:33.32	146.18	3.62	-57.1	-72.5	3.8	1.49e+00	0	22	104	0	79	22343
2026-01-10 09:22:34.29	146.17	3.69	-57.1	-72.3	3.8	1.49e+00	0	22	104	0	79	21789
2026-01-10 09:22:35.28	146.17	3.76	-57.1	-71.9	3.8	1.49e+00	0	22	104	0	79	20863
2026-01-10 09:22:36.26	146.17	3.82	-57.0	-71.4	3.8	1.49e+00	0	22	104	0	79	19746
2026-01-10 09:22:37.24	146.16	3.89	-57.0	-70.6	3.9	1.49e+00	0	22	104	0	79	17981
2026-01-10 09:22:38.21	146.16	3.96	-57.0	-69.7	4.2	1.47e+00	0	22	0	0	79	16213
2026-01-10 09:22:39.19	146.15	4.02	-56.9	-68.8	4.4	1.35e+00	60	22	0	0	79	14636
2026-01-10 09:22:40.17	146.15	4.09	-56.8	-67.4	5.0	9.33e-01	0	22	0	2097152	79	12474
2026-01-10 09:22:41.15	146.15	4.16	-56.7	-66.2	5.7	4.13e-01	0	22	0	3145728	79	10886
2026-01-10 09:22:42.12	146.14	4.23	-56.5	-64.7	6.7	2.23e-01	0	22	0	5242880	79	9142
2026-01-10 09:22:43.10	146.14	4.30	-56.3	-63.7	7.7	9.08e-02	0	22	0	7340032	79	8123
2026-01-10 09:22:44.08	146.14	4.36	-56.1	-62.9	8.4	4.67e-02	0	22	0	9437184	78	7840
2026-01-10 09:22:45.06	146.13	4.43	-55.9	-62.2	9.0	2.26e-02	0	22	0	10485760	78	7225
2026-01-10 09:22:46.03	146.13	4.50	-55.7	-61.4	9.7	7.57e-03	0	22	0	12582912	78	6631
2026-01-10 09:22:47.02	146.12	4.57	-55.3	-60.4	10.5	1.82e-03	0	22	0	14680064	77	6226
2026-01-10 09:22:48.00	146.12	4.64	-55.1	-59.8	10.9	5.61e-04	0	22	0	16777216	76	6175
2026-01-10 09:22:48.98	146.11	4.71	-54.9	-59.4	11.3	2.80e-04	0	22	0	17825792	76	5905
2026-01-10 09:22:49.95	146.11	4.78	-54.8	-59.2	11.5	7.01e-05	0	22	0	19922944	76	5733
2026-01-10 09:22:50.93	146.11	4.85	-54.8	-59.1	11.6	6.02e-05	0	22	0	22020096	76	5702
2026-01-10 09:22:51.91	146.10	4.92	-55.0	-59.5	11.3	6.63e-05	0	23	0	24117248	76	5940
2026-01-10 09:22:52.88	146.10	4.99	-55.0	-59.6	11.2	1.48e-04	0	22	0	25165824	76	5998
2026-01-10 09:22:53.86	146.09	5.06	-55.0	-59.7	11.1	1.91e-04	0	22	0	27262976	76	6063
2026-01-10 09:22:54.84	146.09	5.13	-55.5	-60.7	10.4	3.89e-04	0	22	0	29360128	76	6822
2026-01-10 09:22:55.82	146.08	5.20	-55.8	-61.3	9.8	1.11e-03	0	22	0	31457280	76	7371
2026-01-10 09:22:56.79	146.08	5.27	-56.2	-64.6	7.0	1.63e-03	0	22	0	32505856	77	10161
2026-01-10 09:22:57.77	146.08	5.34	-56.8	-65.6	6.2	1.63e-01	0	23	0	34603008	78	10713
2026-01-10 09:22:58.75	146.07	5.41	-54.1	-57.5	12.7	3.40e-02	0	22	0	36700160	74	5318
2026-01-10 09:22:59.73	146.07	5.48	-54.0	-57.3	12.8	1.50e-06	0	22	0	38797312	74	5210
2026-01-10 09:23:00.70	146.06	5.55	-54.1	-57.5	12.7	7.00e-07	0	22	0	39845888	74	5302
2026-01-10 09:23:01.68	146.06	5.62	-54.0	-57.4	12.8	0.00e+00	0	22	0	41943040	74	5266
2026-01-10 09:23:02.65	146.05	5.70	-53.9	-57.2	12.9	0.00e+00	0	23	0	44040192	74	5135
2026-01-10 09:23:03.64	146.05	5.77	-54.0	-57.3	12.9	0.00e+00	0	22	0	46137344	74	5172
2026-01-10 09:23:04.61	146.04	5.84	-53.8	-57.0	13.2	7.00e-07	0	22	0	47185920	74	4988
2026-01-10 09:23:05.59	146.04	5.91	-53.9	-57.2	13.0	0.00e+00	0	23	0	49283072	74	5134
2026-01-10 09:23:06.57	146.03	5.99	-53.8	-56.9	13.2	0.00e+00	0	22	0	51380224	74	4944
2026-01-10 09:23:07.55	146.03	6.06	-53.8	-56.9	13.3	0.00e+00	0	22	0	53477376	74	4930
2026-01-10 09:23:08.53	146.02	6.13	-53.6	-56.7	13.2	0.00e+00	0	22	0	54525952	73	5133
2026-01-10 09:23:09.51	146.02	6.21	-53.6	-56.5	13.4	0.00e+00	0	22	0	56623104	73	5034
2026-01-10 09:23:10.48	146.01	6.28	-53.6	-56.6	13.3	0.00e+00	0	23	0	58720256	73	5089
2026-01-10 09:23:11.46	146.01	6.35	-53.6	-56.5	13.3	0.00e+00	0	23	0	60817408	73	5033
2026-01-10 09:23:12.44	146.00	6.43	-53.7	-56.7	13.3	0.00e+00	0	23	0	61865984	73	5125
2026-01-10 09:23:13.41	146.00	6.50	-53.7	-56.7	13.3	0.00e+00	0	23	0	63963136	73	5120
2026-01-10 09:23:14.39	145.99	6.57	-53.6	-56.6	13.3	0.00e+00	0	23	0	66060288	73	5070
2026-01-10 09:23:15.36	145.99	6.65	-53.5	-56.4	13.4	0.00e+00	0	23	0	68157440	73	4978
2026-01-10 09:23:16.33	145.98	6.72	-53.6	-56.6	13.3	0.00e+00	0	23	0	69206016	73	5074
2026-01-10 09:23:17.31	145.98	6.80	-53.6	-56.5	13.5	0.00e+00	0	23	0	71303168	73	5009
2026-01-10 09:23:18.29	145.97	6.87	-53.6	-56.5	13.4	0.00e+00	0	23	0	73400320	73	5033
2026-01-10 09:23:19.27	145.97	6.95	-53.6	-56.5	13.4	0.00e+00	0	23	0	75497472	73	5039
2026-01-10 09:23:20.24	145.96	7.02	-53.5	-56.5	13.5	0.00e+00	0	23	0	76546048	73	4984
2026-01-10 09:23:21.22	145.95	7.10	-53.6	-56.5	13.4	0.00e+00	0	23	0	78643200	73	5030
2026-01-10 09:23:22.20	145.95	7.17	-53.5	-56.4	13.5	0.00e+00	0	23	0	80740352	73	4965
2026-01-10 09:23:23.18	145.94	7.25	-53.5	-56.4	13.5	0.00e+00	0	23	0	82837504	73	4975
2026-01-10 09:23:24.16	145.94	7.33	-53.5	-56.4	13.5	7.00e-07	0	23	0	83886080	73	4960
2026-01-10 09:23:25.14	145.93	7.40	-53.4	-56.2	13.7	0.00e+00	0	23	0	85983232	73	4848
2026-01-10 09:23:26.11	145.93	7.48	-53.5	-56.3	13.6	0.00e+00	0	23	0	88080384	73	4908
2026-01-10 09:23:27.08	145.92	7.56	-53.5	-56.3	13.6	0.00e+00	0	23	0	90177536	73	4878
2026-01-10 09:23:28.05	145.91	7.63	-53.4	-56.1	13.7	0.00e+00	0	23	0	91226112	73	4814
2026-01-10 09:23:29.03	145.91	7.71	-53.3	-56.0	13.8	0.00e+00	0	23	0	93323264	73	4737
2026-01-10 09:23:30.01	145.90	7.79	-53.3	-56.0	13.8	0.00e+00	0	23	0	95420416	73	4729
2026-01-10 09:23:30.98	145.90	7.87	-53.3	-56.0	13.8	0.00e+00	0	23	0	97517568	73	4745
2026-01-10 09:23:31.96	145.89	7.95	-53.3	-56.0	13.8	0.00e+00	0	23	0	98566144	73	4741
2026-01-10 09:23:32.93	145.88	8.02	-53.4	-56.1	13.8	0.00e+00	0	23	0	100663296	73	4806
2026-01-10 09:23:33.91	145.88	8.10	-53.2	-55.8	14.0	0.00e+00	0	23	0	102760448	73	4641
2026-01-10 09:23:34.89	145.87	8.18	-53.3	-56.0	13.9	0.00e+00	0	23	0	103809024	73	4709
2026-01-10 09:23:35.85	145.87	8.26	-53.1	-55.7	13.9	0.00e+00	0	23	0	105906176	72	4833
2026-01-10 09:23:36.84	145.86	8.34	-53.2	-55.7	13.9	0.00e+00	0	23	0	108003328	72	4867
2026-01-10 09:23:37.82	145.85	8.42	-53.2	-55.7	13.9	0.00e+00	0	23	0	110100480	72	4867
2026-01-10 09:23:38.79	145.85	8.50	-53.0	-55.5	14.0	0.00e+00	0	23	0	111149056	72	4750
2026-01-10 09:23:39.77	145.84	8.58	-53.1	-55.7	13.9	0.00e+00	0	23	0	113246208	72	4818
2026-01-10 09:23:40.74	145.83	8.66	-53.1	-55.6	14.0	0.00e+00	0	23	0	115343360	72	4779
2026-01-10 09:23:41.72	145.83	8.74	-53.0	-55.5	14.0	0.00e+00	0	23	0	117440512	72	4728
2026-01-10 09:23:42.70	145.82	8.82	-53.1	-55.7	13.9	0.00e+00	0	23	0	118489088	72	4830
2026-01-10 09:23:43.67	145.81	8.90	-53.0	-55.4	14.1	0.00e+00	0	23	0	120586240	72	4704
2026-01-10 09:23:44.65	145.81	8.99	-53.1	-55.6	14.0	0.00e+00	0	23	0	122683392	72	4807
2026-01-10 09:23:45.62	145.80	9.07	-53.0	-55.5	14.1	0.00e+00	0	23	0	124780544	72	4706
2026-01-10 09:23:46.60	145.79	9.15	-52.8	-55.1	14.3	0.00e+00	0	23	0	125829120	72	4536
2026-01-10 09:23:47.57	145.79	9.23	-53.0	-55.4	14.1	0.00e+00	0	23	0	127926272	72	4674
2026-01-10 09:23:48.55	145.78	9.31	-52.9	-55.3	14.2	0.00e+00	0	23	0	130023424	72	4636
2026-01-10 09:23:49.53	145.77	9.40	-52.8	-55.2	14.3	0.00e+00	0	23	0	132120576	72	4574
2026-01-10 09:23:50.50	145.77	9.48	-52.9	-55.3	14.2	0.00e+00	0	23	0	133169152	72	4642
2026-01-10 09:23:51.48	145.76	9.56	-52.8	-55.2	14.3	0.00e+00	0	23	0	135266304	72	4546
2026-01-10 09:23:52.46	145.75	9.65	-52.9	-55.3	14.2	0.00e+00	0	23	0	137363456	72	4605
2026-01-10 09:23:53.44	145.74	9.73	-52.9	-55.4	14.1	0.00e+00	0	23	0	139460608	72	4670
2026-01-10 09:23:54.41	145.74	9.82	-52.8	-55.1	14.3	0.00e+00	0	23	0	140509184	72	4521
2026-01-10 09:23:55.39	145.73	9.90	-52.8	-55.2	14.3	0.00e+00	0	23	0	142606336	72	4581
2026-01-10 09:23:56.36	145.72	9.99	-52.8	-55.2	14.3	0.00e+00	0	23	0	144703488	72	4592
2026-01-10 09:23:57.34	145.71	10.07	-52.8	-55.1	14.4	0.00e+00	0	23	0	146800640	72	4511
2026-01-10 09:23:58.32	145.71	10.16	-52.9	-55.3	14.2	0.00e+00	0	23	0	147849216	72	4623
2026-01-10 09:23:59.30	145.70	10.24	-52.9	-55.2	14.3	0.00e+00	0	23	0	149946368	72	4591
2026-01-10 09:24:00.27	145.69	10.33	-52.9	-55.2	14.3	0.00e+00	0	23	0	152043520	72	4581
2026-01-10 09:24:01.24	145.68	10.41	-52.8	-55.1	14.4	0.00e+00	0	23	0	154140672	72	4510
2026-01-10 09:24:02.23	145.68	10.50	-52.8	-55.1	14.4	0.00e+00	0	23	0	155189248	72	4516
2026-01-10 09:24:03.20	145.67	10.59	-52.9	-55.3	14.2	0.00e+00	0	23	0	157286400	72	4615
2026-01-10 09:24:04.18	145.66	10.68	-52.9	-55.2	14.3	0.00e+00	0	23	0	159383552	72	4597
2026-01-10 09:24:05.16	145.65	10.76	-52.6	-54.9	14.3	0.00e+00	0	23	0	161480704	71	4659
2026-01-10 09:24:06.13	145.64	10.85	-52.7	-55.0	14.2	0.00e+00	0	23	0	162529280	71	4744
2026-01-10 09:24:07.11	145.64	10.94	-52.5	-54.8	14.4	0.00e+00	0	23	0	164626432	71	4602
2026-01-10 09:24:08.09	145.63	11.03	-52.5	-54.7	14.4	0.00e+00	0	23	0	166723584	71	4567
2026-01-10 09:24:09.07	145.62	11.12	-52.6	-54.8	14.4	0.00e+00	0	23	0	168820736	71	4629
2026-01-10 09:24:10.04	145.61	11.21	-52.5	-54.7	14.5	0.00e+00	0	23	0	169869312	71	4566
2026-01-10 09:24:11.02	145.60	11.30	-52.5	-54.8	14.4	0.00e+00	0	23	0	171966464	71	4606
2026-01-10 09:24:12.00	145.59	11.39	-52.5	-54.7	14.5	0.00e+00	0	23	0	174063616	71	4553
2026-01-10 09:24:12.97	145.59	11.48	-52.4	-54.5	14.6	0.00e+00	0	23	0	176160768	71	4472
2026-01-10 09:24:13.95	145.58	11.57	-52.5	-54.7	14.5	0.00e+00	0	23	0	177209344	71	4556
2026-01-10 09:24:14.92	145.57	11.66	-52.4	-54.6	14.5	0.00e+00	0	23	0	179306496	71	4501
2026-01-10 09:24:15.90	145.56	11.75	-52.3	-54.4	14.6	0.00e+00	0	23	0	181403648	71	4440
2026-01-10 09:24:16.88	145.55	11.84	-52.4	-54.6	14.5	0.00e+00	0	23	0	183500800	71	4511
2026-01-10 09:24:17.86	145.54	11.93	-52.3	-54.4	14.6	0.00e+00	0	23	0	184549376	71	4430
2026-01-10 09:24:18.84	145.53	12.02	-52.4	-54.5	14.6	0.00e+00	0	23	0	186646528	71	4487
2026-01-10 09:24:19.83	145.52	12.12	-52.5	-54.7	14.4	0.00e+00	0	23	0	188743680	71	4587
2026-01-10 09:24:20.81	145.51	12.21	-52.3	-54.4	14.6	0.00e+00	0	23	0	190840832	71	4434
2026-01-10 09:24:21.78	145.51	12.30	-52.2	-54.3	14.6	0.00e+00	0	23	0	191889408	70	4616
2026-01-10 09:24:22.76	145.50	12.40	-52.2	-54.3	14.6	0.00e+00	0	23	0	193986560	70	4623
2026-01-10 09:24:23.74	145.49	12.49	-52.1	-54.1	14.6	0.00e+00	0	23	0	196083712	70	4526
2026-01-10 09:24:24.71	145.48	12.59	-52.1	-54.2	14.6	0.00e+00	0	23	0	198180864	70	4570
2026-01-10 09:24:25.69	145.47	12.68	-52.1	-54.1	14.6	0.00e+00	0	23	0	199229440	70	4544
2026-01-10 09:24:26.66	145.46	12.78	-52.0	-54.0	14.7	0.00e+00	0	23	0	201326592	70	4465
2026-01-10 09:24:27.64	145.45	12.87	-52.1	-54.1	14.6	0.00e+00	0	23	0	203423744	70	4519
2026-01-10 09:24:28.62	145.44	12.97	-52.1	-54.2	14.6	0.00e+00	0	23	0	205520896	70	4571
2026-01-10 09:24:29.59	145.43	13.06	-52.1	-54.2	14.6	0.00e+00	0	23	0	206569472	70	4567
2026-01-10 09:24:30.57	145.42	13.16	-52.1	-54.2	14.6	0.00e+00	0	23	0	208666624	70	4580
2026-01-10 09:24:31.55	145.41	13.26	-52.1	-54.1	14.7	0.00e+00	0	23	0	210763776	70	4529
2026-01-10 09:24:32.53	145.40	13.36	-52.2	-54.2	14.6	0.00e+00	0	23	0	212860928	70	4596
2026-01-10 09:24:33.51	145.39	13.45	-52.3	-54.5	14.5	0.00e+00	0	23	0	213909504	70	4707
2026-01-10 09:24:34.48	145.38	13.55	-52.0	-54.1	14.7	0.00e+00	0	23	0	216006656	70	4522
2026-01-10 09:24:35.46	145.37	13.65	-52.2	-54.3	14.5	0.00e+00	0	23	0	218103808	70	4628
2026-01-10 09:24:36.44	145.36	13.75	-52.2	-54.3	14.6	0.00e+00	0	23	0	220200960	70	4610
2026-01-10 09:24:37.42	145.35	13.85	-52.2	-54.3	14.6	0.00e+00	0	23	0	221249536	70	4610
2026-01-10 09:24:38.40	145.33	13.95	-52.2	-54.3	14.5	0.00e+00	0	23	0	223346688	70	4644
2026-01-10 09:24:39.37	145.32	14.05	-52.1	-54.2	14.6	0.00e+00	0	23	0	225443840	70	4563
2026-01-10 09:24:40.35	145.31	14.15	-52.2	-54.3	14.5	0.00e+00	0	23	0	227540992	70	4639
2026-01-10 09:24:41.33	145.30	14.25	-52.1	-54.2	14.6	0.00e+00	0	23	0	228589568	70	4559
2026-01-10 09:24:42.31	145.29	14.35	-52.1	-54.2	14.6	0.00e+00	0	23	0	230686720	70	4573
2026-01-10 09:24:43.28	145.28	14.45	-52.1	-54.2	14.6	0.00e+00	0	23	0	232783872	70	4567
2026-01-10 09:24:44.26	145.27	14.56	-52.0	-54.0	14.8	0.00e+00	0	23	0	234881024	70	4462
2026-01-10 09:24:45.24	145.26	14.66	-51.9	-53.9	14.8	0.00e+00	0	23	0	235929600	70	4433
2026-01-10 09:24:46.22	145.25	14.76	-52.0	-54.0	14.7	0.00e+00	0	23	0	238026752	70	4475
2026-01-10 09:24:47.19	145.23	14.87	-51.9	-53.9	14.8	0.00e+00	0	23	0	240123904	70	4428
2026-01-10 09:24:48.17	145.22	14.97	-51.8	-53.8	14.9	0.00e+00	0	23	0	242221056	70	4348
2026-01-10 09:24:49.15	145.21	15.08	-51.9	-53.9	14.8	0.00e+00	0	23	0	243269632	70	4412
2026-01-10 09:24:50.14	145.20	15.18	-51.8	-53.7	14.9	0.00e+00	0	23	0	245366784	70	4328
2026-01-10 09:24:51.11	145.19	15.29	-51.4	-53.6	14.8	0.00e+00	0	23	0	247463936	69	4545
2026-01-10 09:24:52.09	145.17	15.39	-51.3	-53.6	14.9	0.00e+00	0	23	0	249561088	69	4514
2026-01-10 09:24:53.07	145.16	15.50	-51.3	-53.6	14.9	0.00e+00	0	23	0	250609664	69	4528
2026-01-10 09:24:54.04	145.15	15.61	-51.4	-53.7	14.9	0.00e+00	0	23	0	252706816	69	4547
2026-01-10 09:24:55.02	145.14	15.71	-51.2	-53.4	15.0	0.00e+00	0	23	0	254803968	69	4414
2026-01-10 09:24:56.00	145.12	15.82	-51.0	-53.2	14.9	0.00e+00	0	23	0	256901120	68	4589
2026-01-10 09:24:56.98	145.11	15.93	-51.1	-53.4	14.8	0.00e+00	0	23	0	257949696	68	4657
2026-01-10 09:24:57.96	145.10	16.04	-51.1	-53.3	14.9	0.00e+00	0	23	0	260046848	68	4637
2026-01-10 09:24:58.94	145.08	16.15	-51.2	-53.4	14.8	0.00e+00	0	23	0	262144000	68	4655
2026-01-10 09:24:59.91	145.07	16.26	-51.1	-53.3	14.9	0.00e+00	0	23	0	263192576	68	4615
2026-01-10 09:25:00.89	145.06	16.37	-51.0	-53.1	15.0	0.00e+00	0	23	0	265289728	68	4512
2026-01-10 09:25:01.87	145.05	16.48	-51.0	-53.1	15.0	0.00e+00	0	23	0	267386880	68	4518
2026-01-10 09:25:02.84	145.03	16.59	-51.1	-53.2	14.9	0.00e+00	0	23	0	269484032	68	4594
2026-01-10 09:25:03.82	145.02	16.70	-51.0	-53.1	15.0	0.00e+00	0	23	0	271581184	68	4523
2026-01-10 09:25:04.80	145.00	16.81	-51.0	-53.1	15.0	0.00e+00	0	23	0	272629760	68	4541
2026-01-10 09:25:05.78	144.99	16.93	-51.1	-53.2	14.9	0.00e+00	0	23	0	274726912	68	4569
2026-01-10 09:25:06.76	144.98	17.04	-50.9	-52.9	15.1	0.00e+00	0	23	0	276824064	68	4420
2026-01-10 09:25:07.74	144.96	17.15	-51.1	-53.2	15.0	0.00e+00	0	23	0	278921216	68	4560
2026-01-10 09:25:08.72	144.95	17.27	-50.9	-53.0	15.1	0.00e+00	0	23	0	279969792	68	4464
2026-01-10 09:25:09.69	144.93	17.38	-51.0	-53.1	15.0	0.00e+00	0	23	0	282066944	68	4506
2026-01-10 09:25:10.67	144.92	17.50	-51.0	-53.1	15.0	0.00e+00	0	23	0	284164096	68	4520
2026-01-10 09:25:11.65	144.90	17.61	-51.0	-53.1	15.0	0.00e+00	0	23	0	285212672	68	4521
2026-01-10 09:25:12.62	144.89	17.73	-51.0	-53.0	15.0	0.00e+00	0	23	0	287309824	68	4486
2026-01-10 09:25:13.60	144.88	17.85	-51.0	-53.1	15.0	0.00e+00	0	23	0	289406976	68	4502
2026-01-10 09:25:14.58	144.86	17.97	-50.9	-53.0	15.1	0.00e+00	0	23	0	291504128	68	4448
2026-01-10 09:25:15.56	144.84	18.08	-51.1	-53.2	14.9	0.00e+00	0	23	0	292552704	68	4563
2026-01-10 09:25:16.54	144.83	18.20	-51.1	-53.1	15.0	0.00e+00	0	23	0	294649856	68	4536
2026-01-10 09:25:17.51	144.81	18.32	-50.9	-53.0	15.1	0.00e+00	0	23	0	296747008	68	4463
2026-01-10 09:25:18.49	144.80	18.44	-51.0	-53.1	15.0	0.00e+00	0	23	0	298844160	68	4503
2026-01-10 09:25:19.48	144.78	18.56	-51.0	-53.1	15.0	0.00e+00	0	23	0	300941312	68	4506
2026-01-10 09:25:20.45	144.77	18.68	-51.0	-53.1	15.0	0.00e+00	0	23	0	301989888	68	4527
2026-01-10 09:25:21.43	144.75	18.81	-51.0	-53.0	15.0	0.00e+00	0	23	0	304087040	68	4470
2026-01-10 09:25:22.40	144.73	18.93	-50.9	-52.9	15.1	0.00e+00	0	23	0	306184192	68	4418
2026-01-10 09:25:23.38	144.72	19.05	-50.9	-52.9	15.1	0.00e+00	0	23	0	307232768	68	4413
2026-01-10 09:25:24.36	144.70	19.17	-50.8	-52.9	15.1	0.00e+00	0	23	0	309329920	68	4395
2026-01-10 09:25:25.34	144.68	19.30	-50.8	-52.7	15.2	0.00e+00	0	23	0	311427072	68	4334
2026-01-10 09:25:26.32	144.67	19.42	-50.9	-52.9	15.1	0.00e+00	0	23	0	313524224	68	4417
2026-01-10 09:25:27.29	144.65	19.55	-51.0	-53.0	15.0	0.00e+00	0	23	0	314572800	68	4474
2026-01-10 09:25:28.26	144.63	19.67	-51.0	-53.1	15.0	0.00e+00	0	23	0	316669952	68	4524
2026-01-10 09:25:29.24	144.62	19.80	-51.1	-53.2	14.9	0.00e+00	0	23	0	318767104	68	4559
2026-01-10 09:25:30.22	144.60	19.93	-51.0	-53.1	15.0	0.00e+00	0	23	0	320864256	68	4510
2026-01-10 09:25:31.20	144.58	20.06	-51.0	-53.0	15.1	0.00e+00	0	23	0	321912832	68	4490
2026-01-10 09:25:32.18	144.56	20.18	-51.1	-53.2	14.9	0.00e+00	0	23	0	324009984	68	4589
2026-01-10 09:25:33.16	144.54	20.31	-50.9	-53.0	15.1	0.00e+00	0	23	0	326107136	68	4484
2026-01-10 09:25:34.14	144.53	20.44	-51.1	-53.3	14.9	0.00e+00	0	23	0	328204288	68	4607
2026-01-10 09:25:35.11	144.51	20.57	-51.1	-53.3	15.0	0.00e+00	0	23	0	330301440	68	4603
2026-01-10 09:25:36.09	144.49	20.71	-51.0	-53.1	15.0	0.00e+00	0	23	0	331350016	68	4528
2026-01-10 09:25:37.06	144.47	20.84	-51.2	-53.4	14.9	0.00e+00	0	23	0	333447168	68	4682
2026-01-10 09:25:38.04	144.45	20.97	-51.0	-53.2	15.0	0.00e+00	0	23	0	335544320	68	4581
2026-01-10 09:25:39.01	144.43	21.10	-51.1	-53.2	15.0	0.00e+00	0	23	0	336592896	68	4586
2026-01-10 09:25:39.99	144.41	21.24	-51.1	-53.3	14.9	0.00e+00	0	23	0	338690048	68	4644
2026-01-10 09:25:40.97	144.39	21.37	-51.2	-53.4	14.9	0.00e+00	0	23	0	340787200	68	4691
2026-01-10 09:25:41.95	144.37	21.51	-51.0	-53.2	15.0	0.00e+00	0	23	0	342884352	68	4574
2026-01-10 09:25:42.93	144.35	21.64	-51.0	-53.2	15.0	0.00e+00	0	23	0	343932928	68	4550
2026-01-10 09:25:43.91	144.33	21.78	-51.0	-53.1	15.0	0.00e+00	0	23	0	346030080	68	4506
2026-01-10 09:25:44.88	144.31	21.92	-51.0	-53.1	15.0	0.00e+00	0	23	0	348127232	68	4543
2026-01-10 09:25:45.86	144.29	22.06	-50.9	-53.1	15.1	0.00e+00	0	23	0	350224384	68	4499
2026-01-10 09:25:46.84	144.27	22.20	-50.9	-53.0	15.1	0.00e+00	0	23	0	351272960	68	4488
2026-01-10 09:25:47.82	144.25	22.34	-51.0	-53.2	15.0	0.00e+00	0	23	0	353370112	68	4569
2026-01-10 09:25:48.79	144.23	22.48	-51.2	-53.3	14.9	0.00e+00	0	23	0	355467264	68	4645
2026-01-10 09:25:49.77	144.21	22.62	-50.9	-53.0	15.1	0.00e+00	0	23	0	357564416	68	4451
2026-01-10 09:25:50.74	144.18	22.76	-50.7	-52.7	15.2	0.00e+00	0	23	0	358612992	68	4333
2026-01-10 09:25:51.71	144.16	22.90	-50.7	-52.6	15.2	0.00e+00	0	23	0	360710144	68	4286
2026-01-10 09:25:52.69	144.14	23.04	-50.4	-52.3	15.2	0.00e+00	0	23	0	362807296	67	4377
2026-01-10 09:25:53.67	144.12	23.19	-50.4	-52.3	15.2	0.00e+00	0	23	0	364904448	67	4389
2026-01-10 09:25:54.65	144.10	23.34	-50.1	-51.9	15.3	0.00e+00	0	23	0	365953024	66	4411
2026-01-10 09:25:55.62	144.07	23.48	-50.1	-52.0	15.2	0.00e+00	0	23	0	368050176	66	4455
2026-01-10 09:25:56.60	144.05	23.63	-50.0	-51.9	15.3	0.00e+00	0	23	0	370147328	66	4409
2026-01-10 09:25:57.57	144.03	23.77	-50.0	-51.8	15.3	0.00e+00	0	23	0	372244480	66	4374
2026-01-10 09:25:58.55	144.00	23.92	-50.0	-51.8	15.3	0.00e+00	0	23	0	373293056	66	4358
2026-01-10 09:25:59.52	143.98	24.07	-50.1	-51.9	15.3	0.00e+00	0	23	0	375390208	66	4432
2026-01-10 09:26:00.49	143.95	24.22	-50.0	-51.8	15.3	0.00e+00	0	23	0	377487360	66	4353
2026-01-10 09:26:01.47	143.93	24.37	-50.0	-51.7	15.3	0.00e+00	0	23	0	379584512	66	4334
2026-01-10 09:26:02.44	143.90	24.52	-50.0	-51.8	15.3	0.00e+00	0	23	0	380633088	66	4346
2026-01-10 09:26:03.42	143.88	24.68	-50.2	-52.1	15.2	0.00e+00	0	23	0	382730240	66	4494
2026-01-10 09:26:04.40	143.85	24.83	-50.2	-52.1	15.2	0.00e+00	0	23	0	384827392	66	4509
2026-01-10 09:26:05.37	143.83	24.99	-50.1	-51.9	15.2	0.00e+00	0	23	0	386924544	66	4439
2026-01-10 09:26:06.35	143.80	25.14	-50.4	-52.3	15.1	0.00e+00	0	23	0	387973120	66	4609
2026-01-10 09:26:07.33	143.78	25.30	-50.4	-52.3	15.1	0.00e+00	0	23	0	390070272	66	4617
2026-01-10 09:26:08.30	143.75	25.45	-50.3	-52.1	15.2	0.00e+00	0	23	0	392167424	66	4525
2026-01-10 09:26:09.28	143.72	25.61	-50.2	-52.1	15.1	0.00e+00	0	23	0	394264576	66	4512
2026-01-10 09:26:10.25	143.70	25.77	-50.3	-52.1	15.1	0.00e+00	0	23	0	395313152	66	4539
2026-01-10 09:26:11.23	143.67	25.93	-50.1	-51.9	15.3	0.00e+00	0	23	0	397410304	66	4397
2026-01-10 09:26:12.20	143.64	26.09	-50.1	-51.9	15.2	0.00e+00	0	23	0	399507456	66	4437
2026-01-10 09:26:13.18	143.61	26.26	-50.1	-51.9	15.3	0.00e+00	0	23	0	401604608	66	4398
2026-01-10 09:26:14.16	143.59	26.42	-50.3	-52.1	15.1	0.00e+00	0	23	0	402653184	66	4545
2026-01-10 09:26:15.13	143.56	26.58	-50.4	-52.3	15.1	0.00e+00	0	23	0	404750336	66	4609
2026-01-10 09:26:16.11	143.53	26.75	-50.3	-52.0	15.2	0.00e+00	0	23	0	406847488	66	4488
2026-01-10 09:26:17.09	143.50	26.91	-50.6	-52.4	15.0	0.00e+00	0	23	0	408944640	66	4691
2026-01-10 09:26:18.06	143.47	27.08	-50.7	-52.5	14.9	0.00e+00	0	23	0	409993216	66	4746
2026-01-10 09:26:19.04	143.44	27.25	-50.9	-52.9	14.8	0.00e+00	0	23	0	412090368	66	4930
2026-01-10 09:26:20.02	143.41	27.42	-51.0	-53.0	14.9	0.00e+00	0	23	0	414187520	67	4722
2026-01-10 09:26:21.00	143.38	27.59	-51.1	-53.1	14.8	0.00e+00	0	23	0	415236096	67	4787
2026-01-10 09:26:21.98	143.35	27.76	-51.2	-53.1	14.8	0.00e+00	0	23	0	417333248	67	4800
2026-01-10 09:26:22.96	143.31	27.93	-51.3	-53.4	14.7	0.00e+00	0	23	0	419430400	67	4953
2026-01-10 09:26:23.93	143.28	28.11	-51.2	-53.2	14.7	0.00e+00	0	23	0	421527552	67	4865
2026-01-10 09:26:24.91	143.25	28.28	-51.2	-53.2	14.8	0.00e+00	0	23	0	423624704	67	4824
2026-01-10 09:26:25.88	143.22	28.46	-51.2	-53.2	14.8	0.00e+00	0	23	0	424673280	67	4837
2026-01-10 09:26:26.86	143.19	28.63	-51.1	-53.1	14.8	0.00e+00	0	23	0	426770432	67	4793
2026-01-10 09:26:27.84	143.15	28.81	-51.3	-53.4	14.7	0.00e+00	0	23	0	428867584	67	4937
2026-01-10 09:26:28.82	143.12	28.99	-51.4	-53.4	14.8	0.00e+00	0	23	0	430964736	68	4703
2026-01-10 09:26:29.79	143.08	29.17	-51.7	-53.8	14.7	0.00e+00	0	23	0	432013312	68	4902
2026-01-10 09:26:30.76	143.05	29.35	-51.9	-54.1	14.5	0.00e+00	0	23	0	434110464	68	5073
2026-01-10 09:26:31.73	143.01	29.53	-51.9	-54.1	14.7	0.00e+00	0	23	0	436207616	69	4771
2026-01-10 09:26:32.70	142.98	29.71	-52.2	-54.5	14.5	0.00e+00	0	23	0	437256192	69	4988
2026-01-10 09:26:33.68	142.94	29.90	-52.5	-54.9	14.4	0.00e+00	0	23	0	439353344	70	4942
2026-01-10 09:26:34.67	142.91	30.09	-52.9	-55.5	14.0	0.00e+00	0	23	0	441450496	70	5284
2026-01-10 09:26:35.65	142.87	30.27	-53.1	-55.7	14.1	0.00e+00	0	23	0	443547648	71	5150
2026-01-10 09:26:36.62	142.83	30.46	-52.9	-55.5	14.2	0.00e+00	0	23	0	444596224	71	5010
2026-01-10 09:26:37.60	142.79	30.65	-53.1	-55.7	14.0	0.00e+00	0	23	0	446693376	71	5157
2026-01-10 09:26:38.58	142.76	30.84	-52.8	-55.3	14.3	0.00e+00	0	23	0	448790528	71	4917
2026-01-10 09:26:39.56	142.72	31.04	-52.7	-55.1	14.3	0.00e+00	0	23	0	450887680	71	4798
2026-01-10 09:26:40.53	142.68	31.23	-52.9	-55.4	14.2	0.00e+00	0	23	0	451936256	71	4959
2026-01-10 09:26:41.51	142.64	31.42	-52.9	-55.4	14.2	0.00e+00	0	23	0	454033408	71	4949
2026-01-10 09:26:42.48	142.60	31.62	-53.2	-55.9	13.9	0.00e+00	0	23	0	456130560	71	5278
2026-01-10 09:26:43.46	142.56	31.81	-53.1	-55.9	13.9	0.00e+00	0	23	0	458227712	71	5222
2026-01-10 09:26:44.44	142.51	32.01	-53.6	-56.6	13.6	0.00e+00	0	23	0	459276288	72	5384
2026-01-10 09:26:45.42	142.47	32.21	-53.7	-56.8	13.6	0.00e+00	0	23	0	461373440	73	5184
2026-01-10 09:26:46.39	142.43	32.41	-53.7	-56.7	13.7	0.00e+00	0	23	0	463470592	73	5111
2026-01-10 09:26:47.37	142.39	32.62	-53.6	-56.6	13.8	0.00e+00	0	23	0	465567744	73	5053
2026-01-10 09:26:48.36	142.34	32.82	-53.5	-56.5	13.9	0.00e+00	0	23	0	466616320	73	4990
2026-01-10 09:26:49.33	142.30	33.03	-53.3	-56.0	14.2	0.00e+00	0	23	0	468713472	73	4741
2026-01-10 09:26:50.31	142.25	33.23	-53.2	-56.0	14.1	0.00e+00	0	23	0	470810624	72	4985
2026-01-10 09:26:51.29	142.21	33.44	-53.3	-56.0	14.0	0.00e+00	0	23	0	472907776	72	5016
2026-01-10 09:26:52.27	142.16	33.65	-53.4	-56.2	13.9	0.00e+00	0	23	0	473956352	72	5110
2026-01-10 09:26:53.25	142.11	33.86	-53.6	-56.5	13.7	0.00e+00	0	23	0	476053504	72	5327
2026-01-10 09:26:54.23	142.07	34.08	-53.4	-56.2	13.9	0.00e+00	0	23	0	478150656	72	5123
2026-01-10 09:26:55.21	142.02	34.29	-53.5	-56.4	13.8	0.00e+00	0	23	0	480247808	72	5267
2026-01-10 09:26:56.18	141.97	34.50	-53.5	-56.6	13.7	0.00e+00	0	23	0	481296384	72	5353
2026-01-10 09:26:57.16	141.92	34.72	-53.0	-55.8	14.1	0.00e+00	0	23	0	483393536	72	4905
2026-01-10 09:26:58.14	141.87	34.94	-53.0	-55.7	14.3	0.00e+00	0	23	0	485490688	72	4850
2026-01-10 09:26:59.11	141.82	35.16	-52.5	-54.9	14.6	0.00e+00	0	23	0	487587840	71	4686
2026-01-10 09:27:00.09	141.77	35.38	-52.2	-54.5	14.8	0.00e+00	0	23	0	488636416	71	4481
2026-01-10 09:27:01.06	141.71	35.60	-51.9	-54.1	14.9	0.00e+00	0	23	0	490733568	70	4494
2026-01-10 09:27:02.04	141.66	35.83	-51.3	-53.3	15.1	0.00e+00	0	23	0	492830720	69	4359
2026-01-10 09:27:03.01	141.61	36.05	-51.1	-53.0	15.1	0.00e+00	0	23	0	494927872	68	4490
2026-01-10 09:27:03.98	141.55	36.28	-51.3	-53.2	15.0	0.00e+00	0	23	0	495976448	68	4584
2026-01-10 09:27:04.96	141.50	36.50	-51.1	-53.0	15.0	0.00e+00	0	23	0	498073600	68	4478
2026-01-10 09:27:05.93	141.44	36.73	-51.3	-53.2	15.0	0.00e+00	0	23	0	500170752	68	4565
2026-01-10 09:27:06.92	141.38	36.97	-51.2	-53.1	15.0	0.00e+00	0	23	0	502267904	68	4519
2026-01-10 09:27:07.89	141.33	37.20	-51.0	-52.9	15.1	0.00e+00	0	23	0	503316480	68	4403
2026-01-10 09:27:08.87	141.27	37.44	-50.4	-52.2	15.3	0.00e+00	0	23	0	505413632	67	4315
2026-01-10 09:27:09.84	141.21	37.67	-50.2	-52.0	15.2	0.00e+00	0	23	0	507510784	66	4484
2026-01-10 09:27:10.82	141.15	37.91	-50.2	-52.0	15.3	0.00e+00	0	23	0	509607936	66	4470
2026-01-10 09:27:11.79	141.08	38.15	-50.5	-52.4	15.1	0.00e+00	0	23	0	510656512	66	4656
2026-01-10 09:27:12.77	141.02	38.39	-50.6	-52.6	14.9	0.00e+00	0	23	0	512753664	66	4793
2026-01-10 09:27:13.74	140.96	38.63	-50.7	-52.8	14.9	0.00e+00	0	23	0	514850816	66	4894
2026-01-10 09:27:14.71	140.89	38.88	-50.8	-52.9	15.0	0.00e+00	0	23	0	516947968	67	4700
2026-01-10 09:27:15.69	140.83	39.12	-51.2	-53.6	14.7	0.00e+00	0	23	0	517996544	67	5050
2026-01-10 09:27:16.66	140.76	39.37	-51.6	-54.0	14.6	0.00e+00	0	23	0	520093696	68	5039
2026-01-10 09:27:17.63	140.69	39.62	-51.8	-54.4	14.5	0.00e+00	0	23	0	522190848	68	5232
2026-01-10 09:27:18.61	140.62	39.87	-52.2	-55.2	14.2	0.00e+00	0	23	0	523239424	69	5403
2026-01-10 09:27:19.59	140.55	40.13	-52.3	-55.3	14.1	0.00e+00	0	23	0	525336576	69	5517
2026-01-10 09:27:20.56	140.48	40.38	-52.7	-55.8	13.9	0.00e+00	0	23	0	527433728	70	5523
2026-01-10 09:27:21.53	140.41	40.64	-52.6	-55.8	13.9	0.00e+00	0	23	0	529530880	70	5508
2026-01-10 09:27:22.51	140.34	40.90	-52.7	-55.8	14.0	0.00e+00	0	23	0	531628032	71	5215
2026-01-10 09:27:23.49	140.26	41.16	-52.8	-56.0	14.0	0.00e+00	0	23	0	532676608	71	5320
2026-01-10 09:27:24.47	140.18	41.42	-52.8	-56.0	13.9	0.00e+00	0	23	0	534773760	71	5323
2026-01-10 09:27:25.44	140.11	41.68	-52.8	-56.1	13.9	0.00e+00	0	23	0	536870912	71	5346
2026-01-10 09:27:26.43	140.03	41.95	-52.7	-55.9	14.0	0.00e+00	0	23	0	538968064	71	5237
2026-01-10 09:27:27.41	139.95	42.22	-52.7	-55.9	13.9	0.00e+00	0	23	0	540016640	71	5243
2026-01-10 09:27:28.38	139.86	42.49	-52.9	-56.3	13.8	0.00e+00	0	23	0	542113792	71	5476
2026-01-10 09:27:29.36	139.78	42.76	-53.0	-56.6	13.6	0.00e+00	0	23	0	544210944	71	5679
2026-01-10 09:27:30.34	139.70	43.04	-53.0	-56.6	13.5	0.00e+00	0	23	0	546308096	71	5703
2026-01-10 09:27:31.31	139.61	43.31	-53.4	-57.5	13.1	0.00e+00	0	23	0	547356672	72	5938
2026-01-10 09:27:32.29	139.52	43.59	-53.6	-57.8	12.9	0.00e+00	0	23	0	549453824	72	6201
2026-01-10 09:27:33.28	139.43	43.88	-53.8	-58.2	12.7	0.00e+00	0	23	0	551550976	72	6473
2026-01-10 09:27:34.26	139.34	44.16	-53.8	-58.0	12.8	0.00e+00	0	23	0	552599552	72	6317
2026-01-10 09:27:35.23	139.25	44.44	-53.7	-57.6	13.0	0.00e+00	0	23	0	554696704	72	6011
2026-01-10 09:27:36.21	139.15	44.73	-53.2	-56.7	13.6	0.00e+00	0	23	0	556793856	72	5419
2026-01-10 09:27:37.19	139.06	45.02	-53.3	-56.9	13.4	0.00e+00	0	23	0	558891008	72	5566
2026-01-10 09:27:38.16	138.96	45.30	-53.1	-56.6	13.7	0.00e+00	0	23	0	560988160	72	5344
2026-01-10 09:27:39.14	138.86	45.60	-52.4	-55.3	14.3	0.00e+00	0	23	0	562036736	71	4902
2026-01-10 09:27:40.12	138.76	45.89	-52.4	-55.3	14.3	0.00e+00	0	23	0	564133888	71	4899
2026-01-10 09:27:41.10	138.65	46.19	-52.6	-55.5	14.2	0.00e+00	0	23	0	566231040	71	5032
2026-01-10 09:27:42.08	138.55	46.49	-52.5	-55.4	14.3	0.00e+00	0	23	0	568328192	71	4959
2026-01-10 09:27:43.06	138.44	46.79	-52.6	-55.6	14.2	0.00e+00	0	23	0	569376768	71	5052
2026-01-10 09:27:44.04	138.33	47.09	-52.8	-55.6	14.2	0.00e+00	0	23	0	571473920	71	5090
2026-01-10 09:27:45.01	138.22	47.39	-52.8	-55.7	14.1	0.00e+00	0	23	0	573571072	71	5109
2026-01-10 09:27:45.99	138.10	47.70	-52.7	-55.5	14.3	0.00e+00	0	23	0	574619648	71	4992
2026-01-10 09:27:46.96	137.98	48.00	-52.2	-54.6	14.6	0.00e+00	0	23	0	576716800	70	4772
2026-01-10 09:27:47.94	137.86	48.32	-52.2	-54.5	14.6	0.00e+00	0	23	0	578813952	70	4754
2026-01-10 09:27:48.91	137.74	48.63	-52.0	-54.3	14.6	0.00e+00	0	23	0	580911104	70	4619
2026-01-10 09:27:49.89	137.62	48.94	-51.7	-54.0	14.7	0.00e+00	0	23	0	581959680	69	4708
2026-01-10 09:27:50.87	137.49	49.26	-51.4	-53.6	14.9	0.00e+00	0	23	0	584056832	69	4530
2026-01-10 09:27:51.84	137.36	49.57	-51.3	-53.6	14.9	0.00e+00	0	24	0	586153984	69	4496
2026-01-10 09:27:52.82	137.23	49.90	-51.3	-53.6	15.0	0.00e+00	0	23	0	588251136	69	4523
2026-01-10 09:27:53.79	137.09	50.22	-51.3	-53.8	14.9	0.00e+00	0	23	0	589299712	69	4615
2026-01-10 09:27:54.77	136.95	50.54	-51.6	-54.1	14.7	0.00e+00	0	23	0	591396864	69	4798
2026-01-10 09:27:55.75	136.81	50.87	-51.5	-53.8	14.7	0.00e+00	0	23	0	593494016	69	4651
2026-01-10 09:27:56.73	136.67	51.20	-51.3	-53.6	15.0	0.00e+00	0	23	0	595591168	69	4495
2026-01-10 09:27:57.71	136.52	51.53	-51.2	-53.5	14.9	0.00e+00	0	23	0	596639744	68	4710
2026-01-10 09:27:58.69	136.36	51.87	-50.9	-53.1	15.0	0.00e+00	0	23	0	598736896	68	4529
2026-01-10 09:27:59.67	136.21	52.20	-51.2	-53.5	14.9	0.00e+00	0	23	0	600834048	68	4726
2026-01-10 09:28:00.64	136.05	52.54	-51.2	-53.6	14.8	0.00e+00	0	23	0	602931200	68	4803
2026-01-10 09:28:01.62	135.89	52.88	-51.1	-53.6	14.8	0.00e+00	0	23	0	603979776	68	4794
2026-01-10 09:28:02.59	135.72	53.22	-50.8	-53.2	15.1	0.00e+00	0	23	0	606076928	68	4550
2026-01-10 09:28:03.58	135.55	53.57	-50.5	-52.9	15.0	0.00e+00	0	23	0	608174080	67	4656
2026-01-10 09:28:04.55	135.38	53.91	-50.5	-52.7	15.1	0.00e+00	0	23	0	610271232	67	4569
2026-01-10 09:28:05.54	135.19	54.26	-50.2	-52.3	15.3	0.00e+00	0	23	0	611319808	67	4375
2026-01-10 09:28:06.51	135.01	54.61	-50.0	-52.0	15.3	0.00e+00	0	23	0	613416960	66	4454
2026-01-10 09:28:07.49	134.82	54.96	-50.0	-52.0	15.3	0.00e+00	0	23	0	615514112	66	4462
2026-01-10 09:28:08.47	134.63	55.32	-50.4	-52.4	15.0	0.00e+00	0	23	0	617611264	66	4686
2026-01-10 09:28:09.45	134.43	55.68	-50.7	-52.8	14.8	0.00e+00	0	23	0	618659840	66	4873
2026-01-10 09:28:10.43	134.23	56.03	-50.7	-52.8	14.8	0.00e+00	0	23	0	620756992	66	4896
2026-01-10 09:28:11.41	134.02	56.40	-51.1	-53.3	14.6	0.00e+00	0	23	0	622854144	67	4907
2026-01-10 09:28:12.39	133.80	56.76	-51.1	-53.4	14.6	0.00e+00	0	24	0	624951296	67	4928
2026-01-10 09:28:13.37	133.58	57.12	-51.3	-53.5	14.6	0.00e+00	0	23	0	625999872	67	5030
2026-01-10 09:28:14.35	133.35	57.49	-51.8	-54.0	14.5	0.00e+00	0	24	0	628097024	68	5022
2026-01-10 09:28:15.33	133.12	57.86	-52.1	-54.4	14.4	0.00e+00	0	23	0	630194176	69	4974
2026-01-10 09:28:16.30	132.88	58.23	-52.2	-54.5	14.5	0.00e+00	0	23	0	632291328	70	4748
2026-01-10 09:28:17.28	132.63	58.60	-51.9	-54.1	14.8	0.00e+00	0	24	0	633339904	70	4519
2026-01-10 09:28:18.25	132.38	58.97	-52.1	-54.3	14.7	0.00e+00	0	23	0	635437056	70	4619
2026-01-10 09:28:19.22	132.12	59.34	-51.7	-53.7	14.8	0.00e+00	0	23	0	637534208	69	4569
2026-01-10 09:28:20.20	131.86	59.72	-51.2	-53.0	15.2	0.00e+00	0	24	0	639631360	69	4204
2026-01-10 09:28:21.18	131.58	60.10	-50.1	-51.7	15.3	0.00e+00	0	23	0	640679936	66	4297
2026-01-10 09:28:22.15	131.30	60.48	-50.0	-51.6	15.3	0.00e+00	0	23	0	642777088	66	4279
2026-01-10 09:28:23.13	131.00	60.86	-50.1	-51.8	15.2	0.00e+00	0	23	0	644874240	66	4384
2026-01-10 09:28:24.11	130.70	61.24	-50.5	-52.4	15.0	0.00e+00	0	23	0	646971392	66	4670
2026-01-10 09:28:25.08	130.39	61.62	-51.1	-53.1	14.8	0.00e+00	0	23	0	648019968	67	4793
2026-01-10 09:28:26.07	130.06	62.02	-50.7	-52.6	15.1	0.00e+00	0	23	0	650117120	67	4495
2026-01-10 09:28:27.04	129.73	62.40	-49.7	-51.3	15.5	0.00e+00	0	23	0	652214272	66	4143
2026-01-10 09:28:28.02	129.39	62.79	-49.5	-51.1	15.4	0.00e+00	0	23	0	654311424	65	4286
2026-01-10 09:28:28.99	129.03	63.18	-50.7	-52.6	14.8	0.00e+00	0	23	0	655360000	66	4789
2026-01-10 09:28:29.98	128.66	63.57	-51.1	-53.2	14.7	0.00e+00	0	23	0	657457152	67	4856
2026-01-10 09:28:30.95	128.29	63.96	-50.7	-52.7	14.9	0.00e+00	0	23	0	659554304	67	4597
2026-01-10 09:28:31.93	127.89	64.36	-50.2	-52.2	15.1	0.00e+00	0	23	0	661651456	66	4570
2026-01-10 09:28:32.91	127.48	64.75	-50.3	-52.2	15.1	0.00e+00	0	23	0	662700032	66	4586
2026-01-10 09:28:33.89	127.06	65.15	-50.6	-52.6	14.9	0.00e+00	0	23	0	664797184	66	4808
2026-01-10 09:28:34.87	126.62	65.55	-50.4	-52.3	15.1	0.00e+00	0	23	0	666894336	66	4648
2026-01-10 09:28:35.84	126.17	65.94	-50.5	-52.5	15.0	0.00e+00	0	23	0	668991488	66	4711
2026-01-10 09:28:36.83	125.70	66.34	-51.6	-53.7	14.7	0.00e+00	0	23	0	670040064	68	4862
2026-01-10 09:28:37.81	125.21	66.74	-51.9	-54.1	14.7	0.00e+00	0	23	0	672137216	69	4769
2026-01-10 09:28:38.78	124.71	67.14	-51.0	-52.8	15.1	0.00e+00	0	23	0	674234368	68	4376
2026-01-10 09:28:39.76	124.18	67.54	-50.4	-52.1	15.3	0.00e+00	0	23	0	676331520	67	4267
2026-01-10 09:28:40.74	123.63	67.94	-50.9	-52.8	14.9	0.00e+00	0	23	0	677380096	67	4639
2026-01-10 09:28:41.71	123.07	68.33	-51.2	-53.3	14.7	0.00e+00	0	23	0	679477248	67	4895
2026-01-10 09:28:42.69	122.47	68.73	-50.8	-52.7	15.0	0.00e+00	0	23	0	681574400	67	4560
2026-01-10 09:28:43.67	121.86	69.13	-50.4	-52.2	15.2	0.00e+00	0	23	0	683671552	67	4328
2026-01-10 09:28:44.64	121.22	69.52	-51.3	-53.4	14.7	0.00e+00	0	23	0	684720128	67	4936
2026-01-10 09:28:45.62	120.55	69.92	-52.5	-55.0	14.4	0.00e+00	0	23	0	686817280	70	4993
2026-01-10 09:28:46.61	119.84	70.32	-52.1	-54.3	14.7	0.00e+00	0	23	0	688914432	70	4631
2026-01-10 09:28:47.59	119.11	70.71	-51.6	-53.7	15.0	0.00e+00	0	23	0	691011584	69	4547
2026-01-10 09:28:48.57	118.34	71.11	-51.5	-53.5	14.9	0.00e+00	0	23	0	692060160	69	4474
2026-01-10 09:28:49.55	117.54	71.50	-51.6	-53.6	14.9	0.00e+00	0	23	0	694157312	69	4539
2026-01-10 09:28:50.52	116.72	71.88	-51.2	-53.1	15.2	0.00e+00	0	23	0	696254464	69	4287
2026-01-10 09:28:51.50	115.84	72.27	-51.2	-53.1	15.0	0.00e+00	0	23	0	698351616	68	4514
2026-01-10 09:28:52.48	114.93	72.65	-51.3	-53.3	14.9	0.00e+00	0	23	0	699400192	68	4624
2026-01-10 09:28:53.46	113.97	73.03	-51.4	-53.3	14.9	0.00e+00	0	24	0	701497344	68	4622
2026-01-10 09:28:54.43	112.97	73.41	-51.8	-53.8	14.8	0.00e+00	0	24	0	703594496	69	4643
2026-01-10 09:28:55.41	111.92	73.78	-52.9	-55.4	14.2	0.00e+00	0	24	0	705691648	71	4948
2026-01-10 09:28:56.39	110.81	74.15	-53.0	-55.4	14.3	0.00e+00	0	23	0	706740224	71	4979
2026-01-10 09:28:57.37	109.65	74.51	-52.6	-54.7	14.6	0.00e+00	0	23	0	708837376	71	4589
2026-01-10 09:28:58.34	108.45	74.87	-52.0	-53.9	14.9	0.00e+00	0	23	0	710934528	70	4436
2026-01-10 09:28:59.32	107.17	75.22	-52.4	-54.4	14.7	0.00e+00	0	23	0	713031680	70	4697
2026-01-10 09:29:00.29	105.84	75.56	-52.3	-54.4	14.6	0.00e+00	0	23	0	714080256	70	4692
2026-01-10 09:29:01.27	104.43	75.90	-52.7	-55.0	14.5	0.00e+00	0	23	0	716177408	71	4710
2026-01-10 09:29:02.25	102.95	76.23	-53.0	-55.3	14.3	0.00e+00	0	23	0	718274560	71	4916
2026-01-10 09:29:03.22	101.41	76.55	-52.8	-55.0	14.5	0.00e+00	0	23	0	720371712	71	4735
2026-01-10 09:29:04.20	99.78	76.86	-52.9	-55.1	14.5	0.00e+00	0	23	0	721420288	71	4789
2026-01-10 09:29:05.18	98.07	77.16	-52.5	-54.6	14.7	0.00e+00	0	24	0	723517440	71	4522
2026-01-10 09:29:06.15	96.29	77.45	-52.4	-54.5	14.9	0.00e+00	0	24	0	725614592	71	4449
2026-01-10 09:29:07.13	94.41	77.73	-53.1	-55.5	14.3	0.00e+00	0	23	0	727711744	71	5029
2026-01-10 09:29:08.11	92.44	78.00	-53.3	-55.7	14.1	0.00e+00	0	24	0	728760320	71	5121
2026-01-10 09:29:09.08	90.40	78.25	-53.5	-56.1	14.0	0.00e+00	0	24	0	730857472	72	5092
2026-01-10 09:29:10.06	88.25	78.49	-54.8	-58.3	12.9	0.00e+00	0	23	0	732954624	74	5823
2026-01-10 09:29:11.05	85.99	78.71	-55.3	-59.1	12.4	0.00e+00	0	23	0	735051776	75	6043
2026-01-10 09:29:12.03	83.67	78.91	-55.6	-59.5	12.2	0.00e+00	0	23	0	736100352	76	5987
2026-01-10 09:29:13.00	81.28	79.10	-55.7	-60.1	11.9	5.30e-06	0	23	0	738197504	76	6384
2026-01-10 09:29:13.98	78.79	79.26	-56.3	-61.3	11.0	1.07e-04	0	23	0	740294656	77	6931
2026-01-10 09:29:14.95	76.25	79.41	-55.7	-59.7	12.1	9.10e-06	0	23	0	742391808	77	5766
2026-01-10 09:29:15.92	73.65	79.53	-55.8	-59.9	12.2	4.50e-06	0	23	0	743440384	77	5878
2026-01-10 09:29:16.90	70.96	79.63	-56.3	-61.1	10.9	8.30e-06	0	23	0	745537536	78	6405
2026-01-10 09:29:17.88	68.22	79.71	-55.7	-59.6	12.5	3.66e-05	0	23	0	747634688	78	5345
2026-01-10 09:29:18.86	65.45	79.77	-55.1	-58.4	13.1	0.00e+00	0	23	0	749731840	76	5263
2026-01-10 09:29:19.83	62.68	79.80	-55.0	-58.2	13.1	0.00e+00	0	23	0	750780416	75	5460
2026-01-10 09:29:20.81	59.86	79.81	-55.9	-60.2	12.0	1.50e-06	0	23	0	752877568	77	6079
2026-01-10 09:29:21.79	57.06	79.79	-55.8	-59.8	12.2	8.30e-06	0	24	0	754974720	77	5832
2026-01-10 09:29:22.76	54.29	79.75	-53.9	-56.5	14.1	0.00e+00	0	24	0	757071872	74	4748
2026-01-10 09:29:23.74	51.53	79.69	-53.1	-55.4	14.5	0.00e+00	0	24	0	758120448	72	4686
2026-01-10 09:29:24.72	48.80	79.60	-53.2	-55.8	14.2	0.00e+00	0	23	0	760217600	72	4894
2026-01-10 09:29:25.70	46.13	79.49	-53.5	-56.2	13.9	0.00e+00	0	23	0	762314752	72	5149
2026-01-10 09:29:26.68	43.52	79.36	-52.9	-55.3	14.6	0.00e+00	0	23	0	764411904	72	4612
2026-01-10 09:29:27.67	40.96	79.21	-54.2	-57.4	13.4	0.00e+00	0	23	0	765460480	73	5546
2026-01-10 09:29:28.65	38.50	79.03	-54.0	-56.9	13.8	0.00e+00	0	24	0	767557632	74	4935
2026-01-10 09:29:29.62	36.14	78.84	-52.8	-55.1	14.6	0.00e+00	0	23	0	769654784	72	4503
2026-01-10 09:29:30.59	33.87	78.64	-53.6	-56.3	13.9	0.00e+00	0	24	0	771751936	72	5198
2026-01-10 09:29:31.57	31.66	78.41	-54.6	-57.9	13.2	0.00e+00	0	23	0	772800512	74	5574
2026-01-10 09:29:32.55	29.54	78.17	-53.9	-56.5	14.1	0.00e+00	0	23	0	774897664	74	4759
2026-01-10 09:29:33.52	27.54	77.91	-54.2	-57.1	13.5	0.00e+00	0	23	0	776994816	73	5344
2026-01-10 09:29:34.50	25.60	77.64	-55.1	-58.7	12.7	0.00e+00	0	23	0	778043392	75	5780
2026-01-10 09:29:35.47	23.76	77.36	-54.9	-58.6	12.7	0.00e+00	0	24	0	780140544	75	5684
2026-01-10 09:29:36.45	21.99	77.07	-55.5	-59.7	12.1	8.30e-06	0	23	0	782237696	76	6081
2026-01-10 09:29:37.43	20.31	76.76	-56.6	-62.8	9.7	1.20e-04	0	23	0	784334848	78	7725
2026-01-10 09:29:38.41	18.70	76.45	-56.7	-63.2	9.4	7.06e-03	0	24	0	786432000	78	8132
2026-01-10 09:29:39.40	17.16	76.12	-55.7	-59.7	12.4	2.65e-04	0	23	0	787480576	78	5451
2026-01-10 09:29:40.37	15.72	75.79	-53.9	-56.5	14.2	0.00e+00	0	23	0	789577728	74	4709
2026-01-10 09:29:41.35	14.33	75.45	-54.1	-56.7	13.7	0.00e+00	0	23	0	791674880	73	5143
2026-01-10 09:29:42.32	13.03	75.10	-53.1	-55.2	14.5	0.00e+00	0	23	0	793772032	72	4595
2026-01-10 09:29:43.30	11.77	74.75	-52.3	-54.2	14.9	0.00e+00	0	23	0	794820608	71	4330
2026-01-10 09:29:44.28	10.57	74.39	-51.7	-53.6	15.0	0.00e+00	0	23	0	796917760	69	4499
2026-01-10 09:29:45.25	9.45	74.03	-51.6	-53.4	15.1	0.00e+00	0	23	0	799014912	69	4410
2026-01-10 09:29:46.23	8.36	73.66	-51.0	-52.6	15.3	0.00e+00	0	23	0	801112064	68	4280
2026-01-10 09:29:47.21	7.32	73.28	-50.3	-51.7	15.5	0.00e+00	0	23	0	802160640	67	4097
2026-01-10 09:29:48.19	6.33	72.91	-49.7	-51.1	15.4	0.00e+00	0	23	0	804257792	65	4288
2026-01-10 09:29:49.16	5.40	72.53	-50.6	-52.2	15.2	0.00e+00	0	23	0	806354944	66	4555
2026-01-10 09:29:50.14	4.50	72.14	-51.3	-53.1	14.9	0.00e+00	0	23	0	807403520	67	4804
2026-01-10 09:29:51.12	3.64	71.76	-51.2	-52.9	15.1	0.00e+00	0	23	0	809500672	68	4410
2026-01-10 09:29:52.10	2.82	71.37	-50.5	-52.1	15.3	0.00e+00	0	23	0	811597824	67	4253
2026-01-10 09:29:53.07	2.04	70.98	-49.9	-51.4	15.4	0.00e+00	0	23	0	813694976	66	4184
2026-01-10 09:29:54.05	1.29	70.59	-50.7	-52.5	15.0	0.00e+00	0	24	0	814743552	66	4726
2026-01-10 09:29:55.02	0.57	70.20	-52.2	-54.4	14.5	0.00e+00	0	24	0	816840704	69	4961
2026-01-10 09:29:56.00	359.88	69.80	-51.4	-53.4	15.1	0.00e+00	0	23	0	818937856	69	4392
2026-01-10 09:29:56.98	359.22	69.41	-51.4	-53.3	15.1	0.00e+00	0	23	0	821035008	69	4348
2026-01-10 09:29:57.96	358.58	69.01	-52.3	-54.6	14.4	0.00e+00	0	23	0	823132160	69	5064
2026-01-10 09:29:58.94	357.97	68.61	-52.4	-54.9	14.4	0.00e+00	0	23	0	824180736	70	4938
2026-01-10 09:29:59.91	357.39	68.22	-52.8	-55.6	14.1	0.00e+00	0	23	0	826277888	70	5365
2026-01-10 09:30:00.88	356.84	67.82	-52.1	-54.4	14.7	0.00e+00	0	23	0	828375040	70	4684
2026-01-10 09:30:01.86	356.30	67.42	-51.4	-53.5	15.0	0.00e+00	0	23	0	829423616	69	4470
2026-01-10 09:30:02.84	355.78	67.03	-51.4	-53.5	14.8	0.00e+00	0	23	0	831520768	68	4756
2026-01-10 09:30:03.83	355.27	66.62	-51.8	-54.0	14.6	0.00e+00	0	23	0	833617920	68	5020
2026-01-10 09:30:04.81	354.79	66.23	-51.9	-54.1	14.7	0.00e+00	0	23	0	835715072	69	4784
2026-01-10 09:30:05.79	354.32	65.83	-52.5	-54.8	14.5	0.00e+00	0	23	0	836763648	70	4877
2026-01-10 09:30:06.76	353.88	65.43	-52.3	-54.4	14.7	0.00e+00	0	23	0	838860800	70	4701
2026-01-10 09:30:07.75	353.44	65.03	-51.4	-53.3	15.1	0.00e+00	0	23	0	840957952	69	4374
2026-01-10 09:30:08.72	353.03	64.64	-51.5	-53.5	15.0	0.00e+00	0	23	0	843055104	69	4466
2026-01-10 09:30:09.69	352.63	64.25	-51.7	-53.8	14.8	0.00e+00	0	23	0	844103680	69	4626
2026-01-10 09:30:10.67	352.24	63.86	-52.7	-55.3	14.3	0.00e+00	0	23	0	846200832	71	4923
2026-01-10 09:30:11.65	351.86	63.47	-52.5	-54.9	14.6	0.00e+00	0	23	0	848297984	71	4701
2026-01-10 09:30:12.62	351.50	63.08	-52.4	-54.8	14.7	0.00e+00	0	23	0	850395136	71	4605
2026-01-10 09:30:13.59	351.15	62.69	-53.1	-55.9	14.0	0.00e+00	0	23	0	851443712	71	5244
2026-01-10 09:30:14.55	350.82	62.31	-51.9	-54.1	14.8	0.00e+00	0	23	0	853540864	70	4530
2026-01-10 09:30:15.52	350.49	61.93	-50.9	-52.8	15.2	0.00e+00	0	23	0	855638016	68	4348
2026-01-10 09:30:16.49	350.18	61.55	-50.7	-52.5	15.4	0.00e+00	0	23	0	857735168	68	4208
2026-01-10 09:30:17.45	349.87	61.17	-50.4	-52.2	15.3	0.00e+00	0	23	0	858783744	67	4300
2026-01-10 09:30:18.42	349.58	60.79	-49.4	-51.0	15.5	0.00e+00	0	24	0	860880896	65	4194
2026-01-10 09:30:19.39	349.29	60.41	-50.2	-51.9	15.1	0.00e+00	0	23	0	862978048	65	4690
2026-01-10 09:30:20.35	349.01	60.04	-50.6	-52.3	15.1	0.00e+00	0	23	0	864026624	66	4644
2026-01-10 09:30:21.32	348.74	59.67	-50.4	-52.2	15.0	0.00e+00	0	23	0	866123776	66	4563
2026-01-10 09:30:22.29	348.47	59.29	-51.0	-52.8	14.9	0.00e+00	0	23	0	868220928	67	4642
2026-01-10 09:30:23.26	348.21	58.92	-52.8	-55.2	14.2	0.00e+00	0	23	0	870318080	70	5144
2026-01-10 09:30:24.23	347.97	58.55	-52.6	-54.9	14.4	0.00e+00	0	23	0	871366656	71	4675
2026-01-10 09:30:25.20	347.72	58.19	-51.4	-53.3	15.0	0.00e+00	0	23	0	873463808	69	4371
2026-01-10 09:30:26.16	347.49	57.82	-51.2	-53.0	15.1	0.00e+00	0	23	0	875560960	68	4447
2026-01-10 09:30:27.13	347.26	57.46	-51.9	-53.9	14.7	0.00e+00	0	23	0	877658112	69	4704
2026-01-10 09:30:28.09	347.04	57.10	-52.7	-55.1	14.4	0.00e+00	0	23	0	878706688	70	5049
2026-01-10 09:30:29.06	346.82	56.74	-52.9	-55.4	14.3	0.00e+00	0	24	0	880803840	71	4983
2026-01-10 09:30:30.03	346.61	56.38	-53.5	-56.4	13.8	0.00e+00	0	23	0	882900992	72	5239
2026-01-10 09:30:30.99	346.40	56.03	-53.7	-56.7	13.6	0.00e+00	0	23	0	884998144	72	5460
2026-01-10 09:30:31.96	346.20	55.68	-52.3	-54.8	14.6	0.00e+00	0	23	0	886046720	71	4616
2026-01-10 09:30:32.93	346.01	55.32	-51.0	-53.0	15.1	0.00e+00	0	24	0	888143872	68	4461
2026-01-10 09:30:33.89	345.82	54.98	-50.5	-52.5	15.2	0.00e+00	0	23	0	890241024	67	4450
2026-01-10 09:30:34.86	345.63	54.63	-51.2	-53.4	14.7	0.00e+00	0	23	0	892338176	67	4977
2026-01-10 09:30:35.83	345.45	54.28	-50.9	-53.0	14.9	0.00e+00	0	23	0	893386752	67	4717
2026-01-10 09:30:36.80	345.27	53.94	-49.3	-50.9	15.6	0.00e+00	0	23	0	895483904	65	4168
2026-01-10 09:30:37.77	345.10	53.59	-49.0	-50.5	15.6	0.00e+00	0	23	0	897581056	64	4224
2026-01-10 09:30:38.73	344.93	53.26	-49.7	-51.4	15.2	0.00e+00	0	23	0	898629632	64	4692
2026-01-10 09:30:39.70	344.76	52.92	-50.3	-52.1	15.0	0.00e+00	0	23	0	900726784	65	4814
2026-01-10 09:30:40.67	344.60	52.58	-50.1	-51.9	15.1	0.00e+00	0	23	0	902823936	65	4690
2026-01-10 09:30:41.64	344.45	52.25	-50.1	-51.8	15.1	0.00e+00	0	24	0	904921088	65	4634
2026-01-10 09:30:42.61	344.29	51.92	-51.3	-53.4	14.7	0.00e+00	0	23	0	905969664	67	4927
2026-01-10 09:30:43.57	344.14	51.59	-52.9	-55.8	13.9	0.00e+00	0	23	0	908066816	70	5488
2026-01-10 09:30:44.53	344.00	51.27	-53.0	-55.9	13.9	0.00e+00	0	23	0	910163968	71	5236
2026-01-10 09:30:45.50	343.85	50.94	-52.5	-55.1	14.4	0.00e+00	0	23	0	911212544	71	4766
2026-01-10 09:30:46.47	343.71	50.62	-52.3	-54.8	14.6	0.00e+00	0	23	0	913309696	71	4602
2026-01-10 09:30:47.44	343.57	50.29	-52.0	-54.3	14.7	0.00e+00	0	23	0	915406848	70	4614
2026-01-10 09:30:48.41	343.44	49.97	-52.2	-54.5	14.6	0.00e+00	0	23	0	917504000	70	4741
2026-01-10 09:30:49.37	343.31	49.66	-52.4	-54.8	14.4	0.00e+00	0	24	0	918552576	70	4922
2026-01-10 09:30:50.33	343.18	49.35	-52.9	-55.5	14.1	0.00e+00	0	23	0	920649728	71	5021
2026-01-10 09:30:51.30	343.05	49.03	-52.8	-55.3	14.3	0.00e+00	0	23	0	922746880	71	4916
2026-01-10 09:30:52.27	342.93	48.72	-53.4	-56.3	13.8	0.00e+00	0	23	0	924844032	72	5175
2026-01-10 09:30:53.24	342.81	48.41	-53.4	-56.3	13.8	0.00e+00	0	23	0	925892608	72	5210
2026-01-10 09:30:54.20	342.69	48.11	-53.6	-56.5	13.8	0.00e+00	0	23	0	927989760	72	5307
2026-01-10 09:30:55.17	342.57	47.80	-53.0	-55.4	14.4	0.00e+00	0	23	0	930086912	72	4702
2026-01-10 09:30:56.14	342.46	47.50	-52.7	-55.0	14.5	0.00e+00	0	23	0	931135488	71	4757
2026-01-10 09:30:57.10	342.35	47.20	-52.6	-55.0	14.5	0.00e+00	0	23	0	933232640	71	4706
2026-01-10 09:30:58.07	342.24	46.90	-52.7	-55.0	14.6	0.00e+00	0	23	0	935329792	71	4729
2026-01-10 09:30:59.03	342.13	46.61	-52.5	-54.8	14.6	0.00e+00	0	23	0	937426944	71	4616
2026-01-10 09:31:00.00	342.03	46.31	-52.6	-55.0	14.5	0.00e+00	0	23	0	938475520	71	4719
2026-01-10 09:31:00.97	341.92	46.02	-51.6	-53.6	15.0	0.00e+00	0	23	0	940572672	69	4508
2026-01-10 09:31:01.93	341.82	45.73	-51.2	-53.1	15.0	0.00e+00	0	23	0	942669824	68	4533
2026-01-10 09:31:02.90	341.72	45.44	-52.3	-54.5	14.5	0.00e+00	0	23	0	944766976	69	5025
2026-01-10 09:31:03.86	341.63	45.15	-52.9	-55.5	14.1	0.00e+00	0	23	0	945815552	70	5285
2026-01-10 09:31:04.83	341.53	44.87	-54.2	-57.7	13.1	0.00e+00	0	23	0	947912704	73	5758
2026-01-10 09:31:05.80	341.44	44.59	-54.6	-58.4	12.7	0.00e+00	0	23	0	950009856	74	5913
2026-01-10 09:31:06.77	341.34	44.30	-55.3	-60.3	11.4	1.22e-05	0	23	0	952107008	75	6950
2026-01-10 09:31:07.74	341.25	44.02	-55.2	-60.0	11.6	3.58e-05	0	23	0	953155584	75	6681
2026-01-10 09:31:08.71	341.16	43.75	-55.8	-61.2	10.9	1.75e-04	0	23	0	955252736	77	6873
2026-01-10 09:31:09.67	341.08	43.47	-56.3	-62.9	9.6	2.28e-03	0	24	0	957349888	77	8367
2026-01-10 09:31:10.64	340.99	43.20	-56.5	-63.5	9.0	2.06e-02	0	23	0	958398464	78	8428
2026-01-10 09:31:11.61	340.91	42.93	-54.8	-58.7	12.6	3.72e-04	0	23	0	960495616	76	5446
2026-01-10 09:31:12.58	340.82	42.66	-53.3	-56.0	14.1	0.00e+00	0	23	0	962592768	73	4744
2026-01-10 09:31:13.55	340.74	42.39	-52.7	-55.0	14.6	0.00e+00	0	24	0	964689920	72	4490
2026-01-10 09:31:14.51	340.66	42.13	-52.9	-55.4	14.3	0.00e+00	0	23	0	965738496	71	4946
2026-01-10 09:31:15.48	340.58	41.86	-52.5	-54.9	14.6	0.00e+00	0	24	0	967835648	71	4661
2026-01-10 09:31:16.45	340.51	41.60	-53.1	-55.7	14.1	0.00e+00	0	23	0	969932800	71	5158
2026-01-10 09:31:17.42	340.43	41.34	-53.2	-55.8	14.2	0.00e+00	0	23	0	972029952	72	4925
2026-01-10 09:31:18.38	340.36	41.08	-53.7	-56.7	13.6	0.00e+00	0	23	0	973078528	72	5439
2026-01-10 09:31:19.35	340.28	40.82	-54.1	-57.5	13.3	0.00e+00	0	24	0	975175680	73	5636
2026-01-10 09:31:20.31	340.21	40.57	-54.8	-59.0	12.3	0.00e+00	0	23	0	977272832	75	5931
2026-01-10 09:31:21.28	340.14	40.32	-55.3	-59.9	11.7	9.10e-06	0	23	0	978321408	75	6623
2026-01-10 09:31:22.25	340.07	40.06	-54.4	-57.9	13.2	2.97e-05	0	23	0	980418560	75	5247
2026-01-10 09:31:23.22	340.00	39.81	-53.5	-56.3	14.0	0.00e+00	0	23	0	982515712	73	4877
2026-01-10 09:31:24.18	339.93	39.57	-51.8	-53.9	14.9	0.00e+00	0	23	0	984612864	70	4427
2026-01-10 09:31:25.15	339.87	39.32	-50.9	-52.8	15.2	0.00e+00	0	23	0	985661440	68	4343
2026-01-10 09:31:26.08	339.80	39.08	-50.3	-52.0	15.4	0.00e+00	0	23	0	987758592	67	4227
2026-01-10 09:31:27.09	339.74	38.83	-50.5	-52.3	15.1	0.00e+00	0	24	0	989855744	66	4622
2026-01-10 09:31:28.06	339.67	38.59	-50.8	-52.7	15.0	0.00e+00	0	23	0	991952896	67	4581
2026-01-10 09:31:29.02	339.61	38.35	-51.8	-54.1	14.5	0.00e+00	0	23	0	993001472	68	5048
2026-01-10 09:31:29.99	339.55	38.11	-52.8	-55.5	14.0	0.00e+00	0	23	0	995098624	70	5306
2026-01-10 09:31:30.96	339.49	37.88	-53.4	-56.4	13.6	0.00e+00	0	23	0	997195776	71	5571
2026-01-10 09:31:31.93	339.43	37.64	-53.4	-56.5	13.6	0.00e+00	0	23	0	999292928	72	5322
2026-01-10 09:31:32.89	339.37	37.41	-53.3	-56.2	13.9	0.00e+00	0	24	0	1000341504	72	5131
2026-01-10 09:31:33.86	339.31	37.18	-52.8	-55.5	14.2	0.00e+00	0	23	0	1002438656	72	4751
2026-01-10 09:31:34.83	339.26	36.95	-53.0	-55.7	14.1	0.00e+00	0	23	0	1004535808	72	4838
2026-01-10 09:31:35.79	339.20	36.72	-52.8	-55.4	14.3	0.00e+00	0	23	0	1005584384	72	4702
2026-01-10 09:31:36.76	339.14	36.49	-53.0	-55.8	14.1	0.00e+00	0	23	0	1007681536	72	4894
2026-01-10 09:31:37.72	339.09	36.27	-53.2	-56.1	13.9	0.00e+00	0	23	0	1009778688	72	5078
2026-01-10 09:31:38.69	339.04	36.04	-53.2	-56.2	13.8	0.00e+00	0	23	0	1011875840	72	5151
2026-01-10 09:31:39.65	338.98	35.82	-53.1	-56.0	14.0	0.00e+00	0	23	0	1012924416	72	5032
2026-01-10 09:31:40.62	338.93	35.60	-52.8	-55.5	14.3	0.00e+00	0	23	0	1015021568	72	4743
2026-01-10 09:31:41.59	338.88	35.38	-52.8	-55.4	14.2	0.00e+00	0	24	0	1017118720	71	4976
2026-01-10 09:31:42.56	338.83	35.16	-52.4	-54.8	14.6	0.00e+00	0	23	0	1019215872	71	4621
2026-01-10 09:31:43.52	338.78	34.95	-52.0	-54.3	14.8	0.00e+00	0	23	0	1020264448	70	4644
2026-01-10 09:31:44.49	338.73	34.73	-51.9	-54.2	14.8	0.00e+00	0	23	0	1022361600	70	4549
2026-01-10 09:31:45.46	338.68	34.52	-51.9	-54.1	14.9	0.00e+00	0	23	0	1024458752	70	4529
2026-01-10 09:31:46.43	338.63	34.31	-51.4	-53.5	15.0	0.00e+00	0	23	0	1026555904	69	4471
2026-01-10 09:31:47.39	338.59	34.10	-51.8	-54.1	14.7	0.00e+00	0	23	0	1027604480	69	4785
2026-01-10 09:31:48.36	338.54	33.89	-52.4	-54.9	14.2	0.00e+00	0	23	0	1029701632	69	5237
2026-01-10 09:31:49.33	338.49	33.68	-52.8	-55.5	14.1	0.00e+00	0	23	0	1031798784	70	5322
2026-01-10 09:31:50.29	338.45	33.48	-53.6	-56.7	13.6	0.00e+00	0	23	0	1032847360	72	5456
2026-01-10 09:31:51.26	338.40	33.27	-54.2	-57.8	13.0	0.00e+00	0	23	0	1034944512	73	5811
2026-01-10 09:31:52.22	338.36	33.07	-54.5	-58.4	12.7	7.00e-07	0	23	0	1037041664	74	5914
2026-01-10 09:31:53.19	338.32	32.87	-54.7	-58.8	12.3	7.00e-07	0	23	0	1039138816	74	6188
2026-01-10 09:31:54.16	338.27	32.66	-54.6	-58.6	12.6	0.00e+00	0	23	0	1040187392	74	6022
2026-01-10 09:31:55.13	338.23	32.46	-54.2	-57.7	13.3	0.00e+00	0	23	0	1042284544	74	5407
2026-01-10 09:31:56.09	338.19	32.27	-53.9	-57.0	13.7	0.00e+00	0	23	0	1044381696	74	5016
2026-01-10 09:31:57.06	338.15	32.07	-53.5	-56.4	14.0	0.00e+00	0	23	0	1045430272	73	4934
2026-01-10 09:31:58.02	338.11	31.88	-53.0	-55.6	14.3	0.00e+00	0	23	0	1047527424	72	4772
2026-01-10 09:31:58.99	338.07	31.68	-52.9	-55.4	14.4	0.00e+00	0	23	0	1049624576	72	4692
2026-01-10 09:31:59.95	338.03	31.49	-52.5	-54.9	14.6	0.00e+00	0	23	0	1051721728	71	4683
2026-01-10 09:32:00.92	337.99	31.30	-52.7	-55.1	14.4	0.00e+00	0	23	0	1052770304	71	4810
2026-01-10 09:32:01.89	337.95	31.11	-52.5	-54.9	14.6	0.00e+00	0	23	0	1054867456	71	4662
2026-01-10 09:32:02.86	337.91	30.92	-52.3	-54.6	14.5	0.00e+00	0	23	0	1056964608	70	4801
2026-01-10 09:32:03.82	337.87	30.73	-52.2	-54.4	14.6	0.00e+00	0	24	0	1059061760	70	4697
2026-01-10 09:32:04.79	337.84	30.54	-52.1	-54.3	14.7	0.00e+00	0	23	0	1060110336	70	4641
2026-01-10 09:32:05.76	337.80	30.35	-52.1	-54.3	14.7	0.00e+00	0	23	0	1062207488	70	4643
2026-01-10 09:32:06.73	337.76	30.17	-52.1	-54.2	14.8	0.00e+00	0	24	0	1064304640	70	4592
2026-01-10 09:32:07.69	337.73	29.99	-51.8	-53.9	15.0	0.00e+00	0	23	0	1066401792	70	4402
2026-01-10 09:32:08.66	337.69	29.80	-51.9	-54.1	14.9	0.00e+00	0	23	0	1067450368	70	4504
2026-01-10 09:32:09.63	337.66	29.62	-52.0	-54.2	14.8	0.00e+00	0	23	0	1069547520	70	4570
2026-01-10 09:32:10.60	337.62	29.44	-52.1	-54.3	14.8	0.00e+00	0	23	0	1071644672	70	4601
2026-01-10 09:32:11.56	337.59	29.26	-52.0	-54.1	14.8	0.00e+00	0	23	0	1072693248	70	4542
2026-01-10 09:32:12.52	337.56	29.09	-52.3	-54.6	14.6	0.00e+00	0	23	0	1074790400	70	4788
2026-01-10 09:32:13.49	337.52	28.91	-52.5	-54.8	14.5	0.00e+00	0	23	0	1076887552	70	4906
2026-01-10 09:32:14.46	337.49	28.73	-52.8	-55.3	14.1	0.00e+00	0	23	0	1078984704	70	5204
2026-01-10 09:32:15.42	337.46	28.56	-53.1	-55.7	14.0	0.00e+00	0	23	0	1080033280	71	5125
2026-01-10 09:32:16.39	337.43	28.39	-53.3	-56.1	13.7	0.00e+00	0	23	0	1082130432	71	5356
2026-01-10 09:32:17.36	337.39	28.21	-53.5	-56.3	13.8	0.00e+00	0	23	0	1084227584	72	5193
2026-01-10 09:32:18.33	337.36	28.04	-53.5	-56.2	13.9	0.00e+00	0	23	0	1086324736	72	5133
2026-01-10 09:32:19.29	337.33	27.87	-53.4	-56.0	14.0	0.00e+00	0	23	0	1087373312	72	5024
2026-01-10 09:32:20.26	337.30	27.70	-53.2	-55.8	14.1	0.00e+00	0	23	0	1089470464	72	4899
2026-01-10 09:32:21.22	337.27	27.54	-52.6	-54.9	14.5	0.00e+00	0	23	0	1091567616	71	4677
2026-01-10 09:32:22.18	337.24	27.37	-52.2	-54.3	14.9	0.00e+00	0	23	0	1092616192	71	4379
2026-01-10 09:32:23.15	337.21	27.20	-51.8	-53.8	15.0	0.00e+00	0	23	0	1094713344	70	4362
2026-01-10 09:32:24.12	337.18	27.04	-51.6	-53.5	15.0	0.00e+00	0	23	0	1096810496	69	4489
2026-01-10 09:32:25.09	337.16	26.87	-51.1	-52.9	15.1	0.00e+00	0	23	0	1098907648	68	4425
2026-01-10 09:32:26.06	337.13	26.71	-50.9	-52.6	15.3	0.00e+00	0	23	0	1099956224	68	4278
2026-01-10 09:32:27.02	337.10	26.55	-50.5	-52.2	15.3	0.00e+00	0	23	0	1102053376	67	4300
2026-01-10 09:32:27.99	337.07	26.39	-50.2	-51.8	15.3	0.00e+00	0	23	0	1104150528	66	4384
2026-01-10 09:32:28.95	337.04	26.23	-50.1	-51.8	15.3	0.00e+00	0	23	0	1106247680	66	4343
2026-01-10 09:32:29.92	337.02	26.07	-50.2	-51.9	15.2	0.00e+00	0	23	0	1107296256	66	4433
2026-01-10 09:32:30.89	336.99	25.91	-50.6	-52.4	15.0	0.00e+00	0	23	0	1109393408	66	4675
2026-01-10 09:32:31.86	336.96	25.75	-50.8	-52.7	14.8	0.00e+00	0	23	0	1111490560	66	4846
2026-01-10 09:32:32.83	336.94	25.59	-51.7	-53.8	14.6	0.00e+00	0	23	0	1112539136	68	4889
2026-01-10 09:32:33.80	336.91	25.44	-52.1	-54.4	14.5	0.00e+00	0	23	0	1114636288	69	4943
2026-01-10 09:32:34.76	336.89	25.28	-52.4	-54.9	14.3	0.00e+00	0	23	0	1116733440	70	4938
2026-01-10 09:32:35.73	336.86	25.13	-53.1	-55.9	13.9	0.00e+00	0	23	0	1118830592	71	5232
2026-01-10 09:32:36.70	336.83	24.98	-53.3	-56.2	13.7	0.00e+00	0	23	0	1119879168	71	5434
2026-01-10 09:32:37.66	336.81	24.82	-53.2	-56.0	13.8	0.00e+00	0	23	0	1121976320	71	5333
2026-01-10 09:32:38.63	336.79	24.67	-53.1	-55.9	13.8	0.00e+00	0	23	0	1124073472	71	5271
2026-01-10 09:32:39.59	336.76	24.52	-53.0	-55.8	13.9	0.00e+00	0	23	0	1126170624	71	5191
2026-01-10 09:32:40.56	336.74	24.37	-52.2	-54.5	14.7	0.00e+00	0	23	0	1127219200	71	4488
2026-01-10 09:32:41.52	336.71	24.23	-51.9	-54.2	14.7	0.00e+00	0	23	0	1129316352	70	4561
2026-01-10 09:32:42.49	336.69	24.08	-51.7	-53.9	14.7	0.00e+00	0	23	0	1131413504	69	4688
2026-01-10 09:32:43.45	336.67	23.93	-51.3	-53.3	15.0	0.00e+00	0	23	0	1132462080	69	4390
2026-01-10 09:32:44.42	336.64	23.78	-50.9	-52.8	15.1	0.00e+00	0	23	0	1134559232	68	4381
2026-01-10 09:32:45.38	336.62	23.64	-50.8	-52.7	15.2	0.00e+00	0	23	0	1136656384	68	4309
2026-01-10 09:32:46.35	336.60	23.50	-50.6	-52.5	15.1	0.00e+00	0	23	0	1138753536	67	4472
2026-01-10 09:32:47.32	336.58	23.35	-50.5	-52.4	15.1	0.00e+00	0	23	0	1139802112	67	4429
2026-01-10 09:32:48.29	336.56	23.21	-50.5	-52.4	15.1	0.00e+00	0	23	0	1141899264	67	4412
2026-01-10 09:32:49.25	336.53	23.07	-50.6	-52.5	15.0	0.00e+00	0	23	0	1143996416	67	4480
2026-01-10 09:32:50.22	336.51	22.92	-50.8	-52.7	14.9	0.00e+00	0	23	0	1146093568	67	4566
2026-01-10 09:32:51.18	336.49	22.78	-50.8	-52.8	14.9	0.00e+00	0	23	0	1147142144	67	4631
2026-01-10 09:32:52.15	336.47	22.64	-50.9	-52.8	14.9	0.00e+00	0	23	0	1149239296	67	4636
2026-01-10 09:32:53.12	336.45	22.50	-50.8	-52.7	15.0	0.00e+00	0	23	0	1151336448	67	4580
2026-01-10 09:32:54.09	336.43	22.37	-50.8	-52.7	14.9	0.00e+00	0	23	0	1152385024	67	4578
2026-01-10 09:32:55.06	336.41	22.23	-50.7	-52.6	15.0	0.00e+00	0	23	0	1154482176	67	4527
2026-01-10 09:32:56.03	336.39	22.09	-50.8	-52.7	15.0	0.00e+00	0	23	0	1156579328	67	4570
2026-01-10 09:32:57.00	336.37	21.95	-50.7	-52.6	15.0	0.00e+00	0	23	0	1158676480	67	4525
2026-01-10 09:32:57.96	336.35	21.82	-50.7	-52.6	15.0	0.00e+00	0	23	0	1159725056	67	4517
2026-01-10 09:32:58.93	336.33	21.68	-50.9	-52.8	14.9	0.00e+00	0	23	0	1161822208	67	4631
2026-01-10 09:32:59.90	336.31	21.55	-50.9	-52.8	14.9	0.00e+00	0	23	0	1163919360	67	4632
2026-01-10 09:33:00.87	336.29	21.42	-50.6	-52.5	15.1	0.00e+00	0	23	0	1166016512	67	4477
2026-01-10 09:33:01.84	336.27	21.28	-50.6	-52.5	15.1	0.00e+00	0	23	0	1167065088	67	4479
2026-01-10 09:33:02.80	336.25	21.15	-50.8	-52.7	15.0	0.00e+00	0	23	0	1169162240	67	4571
2026-01-10 09:33:03.77	336.23	21.02	-50.9	-52.9	14.9	0.00e+00	0	23	0	1171259392	67	4668
2026-01-10 09:33:04.74	336.22	20.89	-50.9	-52.9	14.9	0.00e+00	0	23	0	1173356544	67	4695
2026-01-10 09:33:05.71	336.20	20.76	-51.1	-53.2	14.7	0.00e+00	0	23	0	1174405120	67	4863
2026-01-10 09:33:06.68	336.18	20.63	-51.0	-53.1	14.8	0.00e+00	0	23	0	1176502272	67	4802
2026-01-10 09:33:07.64	336.16	20.50	-51.2	-53.3	14.7	0.00e+00	0	23	0	1178599424	67	4895
2026-01-10 09:33:08.61	336.14	20.37	-51.2	-53.3	14.7	0.00e+00	0	23	0	1179648000	67	4892
2026-01-10 09:33:09.58	336.13	20.25	-51.0	-53.0	14.8	0.00e+00	0	23	0	1181745152	67	4754
2026-01-10 09:33:10.55	336.11	20.12	-51.4	-53.6	14.5	0.00e+00	0	23	0	1183842304	67	5054
2026-01-10 09:33:11.52	336.09	19.99	-51.2	-53.4	14.6	0.00e+00	0	23	0	1185939456	67	4967
2026-01-10 09:33:12.48	336.07	19.87	-51.4	-53.6	14.7	0.00e+00	0	23	0	1186988032	68	4762
2026-01-10 09:33:13.45	336.06	19.74	-51.6	-53.9	14.5	0.00e+00	0	23	0	1189085184	68	4958
2026-01-10 09:33:14.41	336.04	19.62	-51.7	-54.1	14.5	0.00e+00	0	23	0	1191182336	68	5050
2026-01-10 09:33:15.38	336.02	19.50	-51.5	-53.8	14.6	0.00e+00	0	23	0	1193279488	68	4877
2026-01-10 09:33:16.34	336.01	19.37	-51.6	-53.9	14.5	0.00e+00	0	23	0	1194328064	68	4967
2026-01-10 09:33:17.31	335.99	19.25	-51.8	-54.2	14.4	0.00e+00	0	23	0	1196425216	68	5128
2026-01-10 09:33:18.28	335.98	19.13	-52.0	-54.5	14.4	0.00e+00	0	23	0	1198522368	69	5003
2026-01-10 09:33:19.25	335.96	19.01	-52.0	-54.6	14.3	0.00e+00	0	23	0	1199570944	69	5045
2026-01-10 09:33:20.22	335.95	18.89	-52.2	-54.8	14.2	0.00e+00	0	23	0	1201668096	69	5173
