passes_logs/2026/01/10/R3.2S_Murmansk/R3.2S_Murmansk__20260110_230547_SUOMI_NPP_rec.log

#Pass ID: 20260110_230547_SUOMI NPP
#Satellite: SUOMI NPP
#Configuration: NPP
#almurnet v.1.7.20251203
#Start time: 2026-01-10 23:05:48

#Version: 2.2.20231116
#Station: R3.2S_Murmansk
#Location: 33.079688 lon 68.888172 lat
#TLE: 1 37849U 11061A   26009.81756760  .00000113  00000+0  74747-4 0  9994
#TLE: 2 37849  98.7806 311.9110 0002525  72.5604 287.5848 14.19524046735974

#Time	Az	El	Level	Level2	SNR	BER	BlckErr	Temp	State	Recorded	gain1	gain2
2026-01-10 23:05:48.28	19.96	2.07	-57.1	-73.0	3.8	1.49e+00	0	21	0	0	80	22460
2026-01-10 23:05:49.29	20.01	2.13	-57.1	-72.8	3.8	1.49e+00	0	21	104	0	79	23290
2026-01-10 23:05:50.29	20.06	2.19	-57.1	-72.8	3.8	1.49e+00	0	21	104	0	79	23117
2026-01-10 23:05:51.29	20.11	2.25	-57.1	-72.7	3.8	1.49e+00	0	21	104	0	79	22841
2026-01-10 23:05:52.29	20.16	2.31	-57.1	-72.6	3.8	1.49e+00	0	21	104	0	79	22633
2026-01-10 23:05:53.29	20.21	2.37	-57.1	-72.5	3.8	1.49e+00	0	21	104	0	79	22460
2026-01-10 23:05:54.29	20.26	2.43	-57.1	-72.4	3.8	1.49e+00	0	21	104	0	79	22219
2026-01-10 23:05:55.28	20.32	2.49	-57.1	-72.4	3.8	1.49e+00	0	21	104	0	79	22216
2026-01-10 23:05:56.29	20.37	2.55	-57.1	-72.1	3.8	1.49e+00	0	21	104	0	79	21314
2026-01-10 23:05:57.29	20.42	2.61	-57.1	-72.0	3.8	1.49e+00	0	21	104	0	79	21220
2026-01-10 23:05:58.29	20.47	2.67	-57.1	-72.1	3.8	1.49e+00	0	21	104	0	79	21325
2026-01-10 23:05:59.29	20.53	2.73	-57.1	-71.9	3.8	1.49e+00	0	21	104	0	79	20975
2026-01-10 23:06:00.29	20.58	2.80	-57.0	-71.9	3.8	1.49e+00	0	21	104	0	79	20980
2026-01-10 23:06:01.28	20.63	2.86	-57.1	-72.0	3.8	1.49e+00	0	21	104	0	79	21059
2026-01-10 23:06:02.29	20.69	2.92	-57.1	-72.1	3.8	1.49e+00	0	21	104	0	79	21431
2026-01-10 23:06:03.28	20.74	2.98	-57.1	-71.9	3.8	1.49e+00	0	21	104	0	79	20990
2026-01-10 23:06:04.28	20.79	3.04	-57.0	-71.7	3.8	1.49e+00	0	21	104	0	79	20322
2026-01-10 23:06:05.28	20.85	3.10	-57.0	-71.5	3.8	1.49e+00	0	21	104	0	79	19903
2026-01-10 23:06:06.28	20.90	3.16	-57.0	-70.7	3.8	1.49e+00	0	21	104	0	79	18096
2026-01-10 23:06:07.29	20.96	3.22	-57.0	-70.0	4.1	1.43e+00	0	21	0	0	79	16742
2026-01-10 23:06:08.29	21.01	3.29	-57.0	-69.6	4.2	1.42e+00	0	22	0	0	79	16082
2026-01-10 23:06:09.29	21.06	3.35	-56.9	-68.7	4.4	1.32e+00	25	22	0	0	79	14506
2026-01-10 23:06:10.30	21.12	3.41	-56.8	-68.0	4.7	9.44e-01	0	22	0	2097152	79	13343
2026-01-10 23:06:11.30	21.18	3.47	-56.9	-68.1	4.7	7.83e-01	0	22	0	4194304	79	13423
2026-01-10 23:06:12.31	21.23	3.53	-56.8	-67.8	4.9	8.99e-01	0	22	0	6291456	79	12962
2026-01-10 23:06:13.31	21.29	3.60	-56.8	-67.4	5.0	6.67e-01	0	21	0	7340032	79	12439
2026-01-10 23:06:14.30	21.34	3.66	-56.8	-67.0	5.2	5.33e-01	0	22	0	9437184	79	11928
2026-01-10 23:06:15.31	21.40	3.72	-56.7	-66.4	5.6	5.53e-01	0	22	0	11534336	79	11141
2026-01-10 23:06:16.31	21.46	3.78	-56.6	-65.6	6.1	3.09e-01	0	22	0	13631488	79	10100
2026-01-10 23:06:17.31	21.51	3.85	-56.4	-64.0	7.5	1.16e-01	0	22	0	15728640	79	8405
2026-01-10 23:06:18.30	21.57	3.91	-56.4	-64.2	7.2	8.48e-02	0	22	0	16777216	79	8649
2026-01-10 23:06:19.29	21.62	3.97	-55.9	-62.0	9.2	3.80e-02	0	22	0	18874368	78	7107
2026-01-10 23:06:20.29	21.68	4.03	-55.7	-61.5	9.6	3.80e-03	0	22	0	20971520	77	7065
2026-01-10 23:06:21.30	21.74	4.10	-55.2	-59.9	11.0	7.63e-04	0	22	0	23068672	77	5888
2026-01-10 23:06:22.30	21.80	4.16	-55.0	-59.4	11.4	7.78e-05	0	22	0	25165824	76	5883
2026-01-10 23:06:23.29	21.85	4.22	-54.4	-58.3	12.1	3.28e-05	0	22	0	26214400	75	5522
2026-01-10 23:06:24.28	21.91	4.29	-54.3	-58.0	12.4	6.10e-06	0	22	0	28311552	75	5309
2026-01-10 23:06:25.28	21.97	4.35	-54.0	-57.5	12.7	0.00e+00	0	22	0	30408704	74	5309
2026-01-10 23:06:26.28	22.03	4.41	-54.0	-57.5	12.7	1.50e-06	0	22	0	32505856	74	5318
2026-01-10 23:06:27.27	22.09	4.48	-54.1	-57.8	12.4	0.00e+00	0	22	0	33554432	74	5521
2026-01-10 23:06:28.27	22.15	4.54	-54.1	-57.7	12.5	0.00e+00	0	22	0	35651584	74	5452
2026-01-10 23:06:29.27	22.20	4.61	-54.3	-58.1	12.2	3.00e-06	0	22	0	37748736	74	5671
2026-01-10 23:06:30.27	22.26	4.67	-54.7	-59.0	11.4	1.14e-05	0	22	0	39845888	74	6317
2026-01-10 23:06:31.28	22.32	4.74	-54.9	-59.5	11.0	8.77e-05	0	22	0	41943040	74	6719
2026-01-10 23:06:32.28	22.38	4.80	-55.2	-60.4	10.4	3.37e-04	0	22	0	42991616	75	6999
2026-01-10 23:06:33.28	22.44	4.86	-55.8	-62.1	9.0	2.76e-03	0	22	0	45088768	76	7993
2026-01-10 23:06:34.28	22.51	4.93	-56.0	-62.6	8.5	1.73e-02	0	22	0	47185920	77	8076
2026-01-10 23:06:35.28	22.57	4.99	-56.2	-63.4	7.9	3.87e-02	0	22	0	49283072	77	8856
2026-01-10 23:06:36.27	22.63	5.06	-56.5	-64.8	6.7	1.14e-01	0	22	0	50331648	78	9774
2026-01-10 23:06:37.27	22.69	5.12	-56.1	-62.8	8.6	4.09e-02	0	22	0	52428800	78	7720
2026-01-10 23:06:38.28	22.75	5.19	-56.6	-65.9	5.8	4.74e-01	0	22	0	54525952	78	11128
2026-01-10 23:06:39.28	22.81	5.26	-56.9	-67.2	5.1	7.31e-01	0	22	0	56623104	79	12125
2026-01-10 23:06:40.28	22.87	5.32	-55.6	-61.1	10.1	3.81e-03	0	22	0	58720256	76	7160
2026-01-10 23:06:41.28	22.94	5.39	-56.8	-67.5	4.9	1.03e+00	0	22	0	59768832	78	13351
2026-01-10 23:06:42.27	23.00	5.45	-55.2	-59.7	11.3	9.35e-04	0	22	0	61865984	77	5765
2026-01-10 23:06:43.27	23.06	5.52	-54.2	-57.8	12.7	7.60e-06	0	22	0	63963136	75	5180
2026-01-10 23:06:44.26	23.12	5.58	-54.2	-57.7	12.6	7.00e-07	0	22	0	66060288	74	5451
2026-01-10 23:06:45.26	23.19	5.65	-54.2	-57.9	12.5	0.00e+00	0	22	0	68157440	74	5542
2026-01-10 23:06:46.26	23.25	5.72	-54.1	-57.6	12.7	0.00e+00	0	22	0	69206016	74	5402
2026-01-10 23:06:47.27	23.31	5.78	-53.9	-57.2	13.0	0.00e+00	0	22	0	71303168	74	5122
2026-01-10 23:06:48.26	23.38	5.85	-53.9	-57.1	13.1	7.00e-07	0	22	0	73400320	74	5080
2026-01-10 23:06:49.26	23.44	5.92	-53.9	-57.3	13.0	0.00e+00	0	22	0	75497472	74	5166
2026-01-10 23:06:50.28	23.51	5.99	-53.8	-57.0	13.2	0.00e+00	0	22	0	77594624	74	4986
2026-01-10 23:06:51.27	23.57	6.05	-53.6	-56.7	13.3	0.00e+00	0	22	0	78643200	73	5131
2026-01-10 23:06:52.27	23.64	6.12	-53.7	-56.9	13.1	0.00e+00	0	22	0	80740352	73	5259
2026-01-10 23:06:53.28	23.70	6.19	-53.6	-56.6	13.3	0.00e+00	0	22	0	82837504	73	5099
2026-01-10 23:06:54.28	23.77	6.26	-53.8	-57.0	13.0	0.00e+00	0	22	0	84934656	73	5307
2026-01-10 23:06:55.28	23.83	6.32	-53.6	-56.6	13.3	7.00e-07	0	22	0	87031808	73	5094
2026-01-10 23:06:56.28	23.90	6.39	-53.5	-56.5	13.4	0.00e+00	0	22	0	88080384	73	5015
2026-01-10 23:06:57.29	23.97	6.46	-53.6	-56.6	13.3	0.00e+00	0	22	0	90177536	73	5078
2026-01-10 23:06:58.29	24.03	6.53	-53.6	-56.6	13.4	0.00e+00	0	22	0	92274688	73	5065
2026-01-10 23:06:59.29	24.10	6.60	-53.4	-56.3	13.6	0.00e+00	0	22	0	94371840	73	4892
2026-01-10 23:07:00.29	24.17	6.67	-53.5	-56.5	13.5	0.00e+00	0	22	0	95420416	73	5025
2026-01-10 23:07:01.28	24.24	6.73	-53.4	-56.2	13.7	0.00e+00	0	22	0	97517568	73	4836
2026-01-10 23:07:02.28	24.30	6.80	-53.4	-56.3	13.6	0.00e+00	0	22	0	99614720	73	4925
2026-01-10 23:07:03.28	24.37	6.87	-53.3	-56.1	13.8	0.00e+00	0	22	0	101711872	73	4782
2026-01-10 23:07:04.28	24.44	6.94	-53.2	-55.9	13.7	0.00e+00	0	22	0	103809024	72	4945
2026-01-10 23:07:05.29	24.51	7.01	-53.2	-56.0	13.7	0.00e+00	0	22	0	104857600	72	5007
2026-01-10 23:07:06.28	24.58	7.08	-53.0	-55.6	13.9	0.00e+00	0	22	0	106954752	72	4813
2026-01-10 23:07:07.29	24.65	7.15	-53.1	-55.8	13.8	0.00e+00	0	22	0	109051904	72	4887
2026-01-10 23:07:08.29	24.72	7.22	-53.0	-55.7	13.9	0.00e+00	0	22	0	111149056	72	4818
2026-01-10 23:07:09.28	24.79	7.29	-52.9	-55.5	14.0	0.00e+00	0	22	0	113246208	72	4724
2026-01-10 23:07:10.28	24.86	7.36	-53.0	-55.6	14.0	0.00e+00	0	22	0	114294784	72	4788
2026-01-10 23:07:11.27	24.93	7.43	-53.0	-55.6	14.0	0.00e+00	0	22	0	116391936	72	4791
2026-01-10 23:07:12.27	25.00	7.50	-53.0	-55.6	14.0	0.00e+00	0	22	0	118489088	72	4767
2026-01-10 23:07:13.27	25.07	7.57	-52.9	-55.4	14.1	0.00e+00	0	22	0	120586240	72	4679
2026-01-10 23:07:14.28	25.14	7.64	-52.8	-55.2	14.2	0.00e+00	0	22	0	122683392	72	4592
2026-01-10 23:07:15.28	25.22	7.71	-52.8	-55.3	14.2	0.00e+00	0	22	0	123731968	72	4634
2026-01-10 23:07:16.28	25.29	7.78	-52.9	-55.4	14.1	0.00e+00	0	22	0	125829120	72	4675
2026-01-10 23:07:17.29	25.36	7.86	-52.8	-55.3	14.2	0.00e+00	0	23	0	127926272	72	4632
2026-01-10 23:07:18.29	25.44	7.93	-52.8	-55.2	14.2	0.00e+00	0	23	0	130023424	72	4584
2026-01-10 23:07:19.29	25.51	8.00	-52.8	-55.2	14.2	0.00e+00	0	23	0	131072000	72	4586
2026-01-10 23:07:20.29	25.58	8.07	-53.0	-55.6	14.0	0.00e+00	0	23	0	133169152	72	4788
2026-01-10 23:07:21.28	25.66	8.14	-52.9	-55.4	14.1	0.00e+00	0	23	0	135266304	72	4681
2026-01-10 23:07:22.28	25.73	8.22	-52.8	-55.3	14.2	0.00e+00	0	23	0	137363456	72	4641
2026-01-10 23:07:23.27	25.81	8.29	-52.8	-55.2	14.2	0.00e+00	0	22	0	139460608	72	4596
2026-01-10 23:07:24.27	25.88	8.36	-52.8	-55.3	14.2	0.00e+00	0	22	0	140509184	72	4620
2026-01-10 23:07:25.26	25.95	8.43	-52.9	-55.4	14.2	0.00e+00	0	22	0	142606336	72	4652
2026-01-10 23:07:26.26	26.03	8.50	-52.9	-55.3	14.2	0.00e+00	0	22	0	144703488	72	4647
2026-01-10 23:07:27.25	26.11	8.58	-52.8	-55.2	14.2	0.00e+00	0	22	0	146800640	72	4598
2026-01-10 23:07:28.26	26.18	8.65	-52.7	-55.1	14.4	0.00e+00	0	22	0	147849216	72	4502
2026-01-10 23:07:29.26	26.26	8.72	-52.8	-55.2	14.3	0.00e+00	0	23	0	149946368	72	4575
2026-01-10 23:07:30.26	26.34	8.80	-52.6	-54.9	14.4	0.00e+00	0	23	0	152043520	71	4704
2026-01-10 23:07:31.26	26.42	8.87	-52.6	-55.0	14.3	0.00e+00	0	23	0	154140672	71	4728
2026-01-10 23:07:32.25	26.49	8.94	-52.6	-55.0	14.2	0.00e+00	0	23	0	156237824	71	4736
2026-01-10 23:07:33.25	26.57	9.02	-52.6	-54.9	14.3	0.00e+00	0	23	0	157286400	71	4698
2026-01-10 23:07:34.24	26.65	9.09	-52.5	-54.9	14.3	0.00e+00	0	23	0	159383552	71	4670
2026-01-10 23:07:35.24	26.73	9.17	-52.6	-55.0	14.3	0.00e+00	0	23	0	161480704	71	4717
2026-01-10 23:07:36.24	26.81	9.24	-52.4	-54.6	14.5	0.00e+00	0	23	0	163577856	71	4541
2026-01-10 23:07:37.23	26.89	9.31	-52.4	-54.7	14.5	0.00e+00	0	23	0	165675008	71	4569
2026-01-10 23:07:38.23	26.97	9.39	-52.3	-54.4	14.6	0.00e+00	0	23	0	166723584	71	4440
2026-01-10 23:07:39.22	27.05	9.46	-52.1	-54.3	14.5	0.00e+00	0	23	0	168820736	70	4640
2026-01-10 23:07:40.21	27.13	9.54	-52.3	-54.6	14.3	0.00e+00	0	23	0	170917888	70	4792
2026-01-10 23:07:41.21	27.21	9.61	-52.1	-54.3	14.6	0.00e+00	0	23	0	173015040	70	4624
2026-01-10 23:07:42.21	27.29	9.69	-52.3	-54.5	14.4	0.00e+00	0	23	0	174063616	70	4753
2026-01-10 23:07:43.22	27.37	9.77	-52.3	-54.5	14.4	0.00e+00	0	23	0	176160768	70	4730
2026-01-10 23:07:44.21	27.46	9.84	-52.2	-54.4	14.5	0.00e+00	0	23	0	178257920	70	4653
2026-01-10 23:07:45.21	27.54	9.92	-52.2	-54.4	14.5	0.00e+00	0	23	0	180355072	70	4668
2026-01-10 23:07:46.21	27.62	9.99	-52.0	-54.1	14.7	0.00e+00	0	22	0	182452224	70	4528
2026-01-10 23:07:47.21	27.71	10.07	-52.0	-54.1	14.6	0.00e+00	0	23	0	183500800	70	4542
2026-01-10 23:07:48.20	27.79	10.15	-52.1	-54.2	14.6	0.00e+00	0	23	0	185597952	70	4568
2026-01-10 23:07:49.20	27.87	10.22	-52.0	-54.1	14.7	0.00e+00	0	23	0	187695104	70	4498
2026-01-10 23:07:50.20	27.96	10.30	-52.0	-54.1	14.7	0.00e+00	0	23	0	189792256	70	4545
2026-01-10 23:07:51.20	28.04	10.38	-52.0	-54.1	14.7	0.00e+00	0	23	0	190840832	70	4521
2026-01-10 23:07:52.20	28.13	10.45	-51.9	-54.0	14.8	0.00e+00	0	23	0	192937984	70	4476
2026-01-10 23:07:53.20	28.22	10.53	-51.9	-53.9	14.8	0.00e+00	0	23	0	195035136	70	4407
2026-01-10 23:07:54.20	28.30	10.61	-51.7	-53.6	14.9	0.00e+00	0	23	0	197132288	70	4288
2026-01-10 23:07:55.20	28.39	10.69	-51.7	-53.7	14.7	0.00e+00	0	23	0	199229440	69	4557
2026-01-10 23:07:56.20	28.48	10.77	-51.7	-53.7	14.8	0.00e+00	0	23	0	200278016	69	4568
2026-01-10 23:07:57.20	28.57	10.84	-51.7	-53.8	14.7	0.00e+00	0	23	0	202375168	69	4602
2026-01-10 23:07:58.19	28.65	10.92	-51.7	-53.7	14.8	0.00e+00	0	23	0	204472320	69	4571
2026-01-10 23:07:59.18	28.74	11.00	-51.5	-53.5	14.9	0.00e+00	0	23	0	206569472	69	4465
2026-01-10 23:08:00.18	28.83	11.08	-51.4	-53.3	15.0	0.00e+00	0	23	0	208666624	69	4371
2026-01-10 23:08:01.17	28.92	11.16	-51.5	-53.4	14.9	0.00e+00	0	23	0	209715200	69	4439
2026-01-10 23:08:02.17	29.01	11.24	-51.5	-53.4	14.9	0.00e+00	0	23	0	211812352	69	4415
2026-01-10 23:08:03.17	29.10	11.32	-51.2	-53.0	15.0	0.00e+00	0	23	0	213909504	68	4479
2026-01-10 23:08:04.17	29.19	11.40	-51.2	-53.1	14.9	0.00e+00	0	23	0	216006656	68	4515
2026-01-10 23:08:05.16	29.29	11.48	-51.3	-53.2	14.9	0.00e+00	0	23	0	217055232	68	4575
2026-01-10 23:08:06.16	29.38	11.56	-51.4	-53.3	14.8	0.00e+00	0	23	0	219152384	68	4604
2026-01-10 23:08:07.17	29.47	11.64	-51.3	-53.2	14.9	0.00e+00	0	23	0	221249536	68	4578
2026-01-10 23:08:08.16	29.56	11.72	-51.3	-53.2	14.9	0.00e+00	0	23	0	223346688	68	4596
2026-01-10 23:08:09.15	29.66	11.80	-51.5	-53.5	14.7	0.00e+00	0	23	0	225443840	68	4720
2026-01-10 23:08:10.16	29.75	11.88	-51.5	-53.4	14.8	0.00e+00	0	23	0	226492416	68	4673
2026-01-10 23:08:11.16	29.85	11.96	-51.5	-53.5	14.7	0.00e+00	0	23	0	228589568	68	4739
2026-01-10 23:08:12.16	29.94	12.04	-51.6	-53.6	14.7	0.00e+00	0	23	0	230686720	68	4763
2026-01-10 23:08:13.16	30.04	12.12	-51.5	-53.5	14.7	0.00e+00	0	23	0	232783872	68	4715
2026-01-10 23:08:14.16	30.13	12.21	-51.6	-53.7	14.6	0.00e+00	0	23	0	234881024	68	4823
2026-01-10 23:08:15.16	30.23	12.29	-51.6	-53.6	14.7	0.00e+00	0	23	0	235929600	68	4776
2026-01-10 23:08:16.16	30.33	12.37	-51.5	-53.5	14.7	0.00e+00	0	23	0	238026752	68	4718
2026-01-10 23:08:17.16	30.43	12.45	-51.5	-53.5	14.7	0.00e+00	0	23	0	240123904	68	4730
2026-01-10 23:08:18.17	30.52	12.54	-51.5	-53.5	14.7	0.00e+00	0	23	0	242221056	68	4717
2026-01-10 23:08:19.16	30.62	12.62	-51.6	-53.5	14.7	0.00e+00	0	23	0	243269632	68	4750
2026-01-10 23:08:20.16	30.72	12.70	-51.4	-53.4	14.8	0.00e+00	0	23	0	245366784	68	4656
2026-01-10 23:08:21.15	30.82	12.78	-51.4	-53.3	14.8	0.00e+00	0	23	0	247463936	68	4619
2026-01-10 23:08:22.15	30.92	12.87	-51.4	-53.2	14.9	0.00e+00	0	23	0	249561088	68	4591
2026-01-10 23:08:23.15	31.02	12.95	-51.2	-53.1	14.9	0.00e+00	0	23	0	251658240	68	4516
2026-01-10 23:08:24.14	31.12	13.03	-51.2	-53.0	15.0	0.00e+00	0	23	0	252706816	68	4465
2026-01-10 23:08:25.13	31.22	13.12	-51.1	-52.9	15.0	0.00e+00	0	23	0	254803968	68	4421
2026-01-10 23:08:26.13	31.33	13.20	-51.2	-53.0	15.0	0.00e+00	0	23	0	256901120	68	4460
2026-01-10 23:08:27.13	31.43	13.29	-51.2	-53.0	15.0	0.00e+00	0	23	0	258998272	68	4461
2026-01-10 23:08:28.12	31.53	13.37	-51.2	-53.0	15.0	0.00e+00	0	22	0	260046848	68	4478
2026-01-10 23:08:29.11	31.64	13.45	-51.1	-52.9	15.0	0.00e+00	0	23	0	262144000	68	4439
2026-01-10 23:08:30.10	31.74	13.54	-51.2	-53.0	15.0	0.00e+00	0	23	0	264241152	68	4474
2026-01-10 23:08:31.10	31.84	13.62	-51.1	-52.9	15.0	0.00e+00	0	23	0	266338304	68	4436
2026-01-10 23:08:32.10	31.95	13.71	-51.2	-53.0	14.9	0.00e+00	0	23	0	268435456	68	4485
2026-01-10 23:08:33.10	32.06	13.80	-51.3	-53.1	14.8	0.00e+00	0	23	0	269484032	68	4535
2026-01-10 23:08:34.10	32.16	13.88	-51.1	-52.9	15.0	0.00e+00	0	23	0	271581184	68	4419
2026-01-10 23:08:35.09	32.27	13.97	-51.0	-52.7	15.1	0.00e+00	0	23	0	273678336	68	4322
2026-01-10 23:08:36.09	32.38	14.05	-51.1	-52.9	15.0	0.00e+00	0	23	0	275775488	68	4405
2026-01-10 23:08:37.09	32.49	14.14	-51.2	-53.0	15.0	0.00e+00	0	23	0	277872640	68	4463
2026-01-10 23:08:38.09	32.60	14.23	-51.2	-53.0	15.0	0.00e+00	0	23	0	278921216	68	4470
2026-01-10 23:08:39.08	32.71	14.31	-51.2	-53.0	15.0	0.00e+00	0	23	0	281018368	68	4458
2026-01-10 23:08:40.07	32.82	14.40	-51.4	-53.3	14.9	0.00e+00	0	23	0	283115520	68	4601
2026-01-10 23:08:41.07	32.93	14.49	-51.4	-53.3	14.8	0.00e+00	0	23	0	285212672	68	4628
2026-01-10 23:08:42.07	33.04	14.58	-51.4	-53.3	14.8	0.00e+00	0	23	0	286261248	68	4651
2026-01-10 23:08:43.06	33.15	14.66	-51.8	-53.9	14.5	0.00e+00	0	23	0	288358400	68	4942
2026-01-10 23:08:44.06	33.27	14.75	-51.7	-53.8	14.6	0.00e+00	0	23	0	290455552	68	4879
2026-01-10 23:08:45.05	33.38	14.84	-51.7	-53.7	14.6	0.00e+00	0	23	0	292552704	68	4820
2026-01-10 23:08:46.04	33.49	14.93	-51.7	-53.7	14.6	0.00e+00	0	23	0	294649856	68	4846
2026-01-10 23:08:47.04	33.61	15.02	-51.7	-53.7	14.6	0.00e+00	0	23	0	295698432	68	4824
2026-01-10 23:08:48.05	33.73	15.11	-51.7	-53.7	14.6	0.00e+00	0	22	0	297795584	68	4849
2026-01-10 23:08:49.04	33.84	15.19	-51.7	-53.7	14.7	0.00e+00	0	23	0	299892736	68	4832
2026-01-10 23:08:50.04	33.96	15.28	-51.7	-53.7	14.6	0.00e+00	0	23	0	301989888	68	4838
2026-01-10 23:08:51.04	34.08	15.37	-51.5	-53.5	14.8	0.00e+00	0	23	0	304087040	68	4711
2026-01-10 23:08:52.04	34.19	15.46	-51.6	-53.6	14.7	0.00e+00	0	23	0	305135616	68	4779
2026-01-10 23:08:53.05	34.32	15.55	-51.8	-53.8	14.6	0.00e+00	0	23	0	307232768	68	4892
2026-01-10 23:08:54.04	34.43	15.64	-51.5	-53.4	14.8	0.00e+00	0	23	0	309329920	68	4703
2026-01-10 23:08:55.03	34.55	15.73	-51.6	-53.6	14.7	0.00e+00	0	23	0	311427072	68	4769
2026-01-10 23:08:56.04	34.68	15.83	-51.6	-53.5	14.7	0.00e+00	0	23	0	312475648	68	4724
2026-01-10 23:08:57.03	34.80	15.92	-51.5	-53.4	14.8	0.00e+00	0	23	0	314572800	68	4685
2026-01-10 23:08:58.03	34.92	16.01	-51.7	-53.7	14.6	0.00e+00	0	22	0	316669952	68	4850
2026-01-10 23:08:59.03	35.04	16.10	-51.9	-53.9	14.5	0.00e+00	0	23	0	318767104	68	4945
2026-01-10 23:09:00.03	35.17	16.19	-51.7	-53.7	14.6	0.00e+00	0	23	0	320864256	68	4851
2026-01-10 23:09:01.03	35.29	16.28	-51.9	-53.9	14.6	0.00e+00	0	23	0	321912832	68	4932
2026-01-10 23:09:02.03	35.42	16.38	-52.0	-54.0	14.6	0.00e+00	0	23	0	324009984	69	4756
2026-01-10 23:09:03.02	35.54	16.47	-51.9	-53.9	14.7	0.00e+00	0	23	0	326107136	69	4679
2026-01-10 23:09:04.03	35.67	16.56	-51.9	-53.9	14.7	0.00e+00	0	23	0	328204288	69	4678
2026-01-10 23:09:05.02	35.80	16.65	-51.9	-53.9	14.7	0.00e+00	0	23	0	329252864	69	4693
2026-01-10 23:09:06.01	35.93	16.75	-52.0	-54.0	14.6	0.00e+00	0	23	0	331350016	69	4746
2026-01-10 23:09:07.01	36.06	16.84	-52.1	-54.2	14.5	0.00e+00	0	23	0	333447168	69	4836
2026-01-10 23:09:08.00	36.19	16.93	-52.0	-54.1	14.6	0.00e+00	0	23	0	335544320	69	4781
2026-01-10 23:09:09.00	36.32	17.03	-52.0	-54.1	14.6	0.00e+00	0	23	0	337641472	69	4770
2026-01-10 23:09:09.99	36.45	17.12	-51.8	-53.8	14.8	0.00e+00	0	23	0	338690048	69	4619
2026-01-10 23:09:11.00	36.58	17.21	-51.9	-53.9	14.7	0.00e+00	0	23	0	340787200	69	4664
2026-01-10 23:09:12.00	36.72	17.31	-51.8	-53.8	14.7	0.00e+00	0	23	0	342884352	69	4633
2026-01-10 23:09:13.01	36.85	17.40	-51.9	-53.9	14.7	0.00e+00	0	23	0	344981504	69	4653
2026-01-10 23:09:14.01	36.99	17.50	-51.9	-53.9	14.7	0.00e+00	0	23	0	347078656	69	4655
2026-01-10 23:09:15.00	37.12	17.59	-51.6	-53.6	14.9	0.00e+00	0	23	0	348127232	69	4495
2026-01-10 23:09:16.01	37.26	17.69	-51.9	-53.9	14.7	0.00e+00	0	23	0	350224384	69	4679
2026-01-10 23:09:17.01	37.40	17.78	-52.0	-54.0	14.6	0.00e+00	0	23	0	352321536	69	4729
2026-01-10 23:09:18.01	37.54	17.88	-52.0	-54.0	14.6	0.00e+00	0	23	0	354418688	69	4745
2026-01-10 23:09:19.01	37.67	17.98	-52.0	-54.1	14.6	0.00e+00	0	23	0	355467264	69	4768
2026-01-10 23:09:20.01	37.81	18.07	-52.0	-54.1	14.6	0.00e+00	0	23	0	357564416	69	4776
2026-01-10 23:09:21.00	37.95	18.17	-52.2	-54.3	14.5	0.00e+00	0	23	0	359661568	69	4876
2026-01-10 23:09:22.01	38.10	18.27	-52.3	-54.4	14.4	0.00e+00	0	23	0	361758720	69	4963
2026-01-10 23:09:23.00	38.24	18.36	-52.5	-54.7	14.3	0.00e+00	0	23	0	363855872	70	4823
2026-01-10 23:09:24.00	38.38	18.46	-52.4	-54.5	14.5	0.00e+00	0	23	0	364904448	70	4724
2026-01-10 23:09:24.99	38.53	18.56	-52.3	-54.4	14.6	0.00e+00	0	23	0	367001600	70	4677
2026-01-10 23:09:25.99	38.67	18.65	-52.3	-54.4	14.6	0.00e+00	0	23	0	369098752	70	4700
2026-01-10 23:09:26.99	38.82	18.75	-52.4	-54.5	14.5	0.00e+00	0	23	0	371195904	70	4729
2026-01-10 23:09:28.00	38.97	18.85	-52.3	-54.4	14.6	0.00e+00	0	23	0	373293056	70	4704
2026-01-10 23:09:29.00	39.11	18.95	-52.4	-54.6	14.5	0.00e+00	0	23	0	374341632	70	4786
2026-01-10 23:09:29.99	39.26	19.05	-52.3	-54.4	14.6	0.00e+00	0	23	0	376438784	70	4679
2026-01-10 23:09:30.99	39.41	19.14	-52.4	-54.5	14.5	0.00e+00	0	23	0	378535936	70	4734
2026-01-10 23:09:31.98	39.56	19.24	-52.4	-54.6	14.5	0.00e+00	0	23	0	380633088	70	4765
2026-01-10 23:09:32.98	39.71	19.34	-52.3	-54.4	14.6	0.00e+00	0	23	0	382730240	70	4663
2026-01-10 23:09:33.97	39.87	19.44	-52.4	-54.6	14.5	0.00e+00	0	23	0	383778816	70	4771
2026-01-10 23:09:34.96	40.02	19.54	-52.4	-54.5	14.5	0.00e+00	0	23	0	385875968	70	4756
2026-01-10 23:09:35.95	40.17	19.64	-52.0	-54.0	14.8	0.00e+00	0	23	0	387973120	70	4463
2026-01-10 23:09:36.95	40.33	19.74	-51.8	-53.7	15.0	0.00e+00	0	23	0	390070272	70	4337
2026-01-10 23:09:37.95	40.48	19.84	-51.6	-53.4	14.9	0.00e+00	0	23	0	391118848	69	4427
2026-01-10 23:09:38.94	40.64	19.94	-51.4	-53.3	15.0	0.00e+00	0	23	0	393216000	69	4346
2026-01-10 23:09:39.92	40.80	20.03	-51.4	-53.2	15.1	0.00e+00	0	23	0	395313152	69	4329
2026-01-10 23:09:40.92	40.95	20.13	-51.1	-52.9	15.1	0.00e+00	0	23	0	397410304	68	4397
2026-01-10 23:09:41.93	41.12	20.24	-51.3	-53.1	15.0	0.00e+00	0	23	0	399507456	68	4497
2026-01-10 23:09:42.92	41.28	20.34	-51.1	-52.9	15.1	0.00e+00	0	23	0	400556032	68	4418
2026-01-10 23:09:43.92	41.44	20.44	-51.3	-53.1	15.0	0.00e+00	0	23	0	402653184	68	4516
2026-01-10 23:09:44.92	41.60	20.54	-51.4	-53.2	14.9	0.00e+00	0	23	0	404750336	68	4579
2026-01-10 23:09:45.91	41.77	20.64	-51.2	-53.0	15.0	0.00e+00	0	23	0	406847488	68	4486
2026-01-10 23:09:46.91	41.93	20.74	-51.3	-53.1	15.0	0.00e+00	0	23	0	407896064	68	4522
2026-01-10 23:09:47.92	42.10	20.84	-51.2	-52.9	15.1	0.00e+00	0	23	0	409993216	68	4439
2026-01-10 23:09:48.91	42.27	20.94	-51.1	-52.8	15.2	0.00e+00	0	23	0	412090368	68	4366
2026-01-10 23:09:49.91	42.44	21.05	-51.0	-52.7	15.2	0.00e+00	0	23	0	414187520	68	4328
2026-01-10 23:09:50.91	42.61	21.15	-50.8	-52.5	15.3	0.00e+00	0	23	0	416284672	68	4221
2026-01-10 23:09:51.91	42.78	21.25	-50.6	-52.2	15.2	0.00e+00	0	23	0	417333248	67	4336
2026-01-10 23:09:52.90	42.95	21.35	-50.6	-52.3	15.2	0.00e+00	0	23	0	419430400	67	4354
2026-01-10 23:09:53.90	43.12	21.46	-50.3	-52.0	15.4	0.00e+00	0	23	0	421527552	67	4198
2026-01-10 23:09:54.89	43.30	21.56	-50.3	-51.9	15.4	0.00e+00	0	23	0	423624704	67	4187
2026-01-10 23:09:55.89	43.47	21.66	-50.2	-51.8	15.5	0.00e+00	0	23	0	424673280	67	4116
2026-01-10 23:09:56.90	43.65	21.77	-50.2	-51.8	15.2	0.00e+00	0	23	0	426770432	66	4375
2026-01-10 23:09:57.90	43.83	21.87	-50.4	-52.0	15.2	0.00e+00	0	23	0	428867584	66	4478
2026-01-10 23:09:58.90	44.01	21.97	-50.3	-51.9	15.2	0.00e+00	0	23	0	430964736	66	4441
2026-01-10 23:09:59.90	44.19	22.08	-50.4	-52.0	15.2	0.00e+00	0	23	0	433061888	66	4479
2026-01-10 23:10:00.90	44.37	22.18	-50.3	-51.9	15.2	0.00e+00	0	23	0	434110464	66	4396
2026-01-10 23:10:01.90	44.55	22.29	-50.3	-51.9	15.2	0.00e+00	0	23	0	436207616	66	4400
2026-01-10 23:10:02.89	44.74	22.39	-50.3	-51.9	15.2	0.00e+00	0	23	0	438304768	66	4437
2026-01-10 23:10:03.89	44.92	22.49	-50.4	-52.0	15.1	0.00e+00	0	23	0	440401920	66	4491
2026-01-10 23:10:04.89	45.11	22.60	-50.5	-52.1	15.1	0.00e+00	0	23	0	442499072	66	4521
2026-01-10 23:10:05.89	45.30	22.70	-50.3	-51.9	15.2	0.00e+00	0	23	0	443547648	66	4403
2026-01-10 23:10:06.90	45.49	22.81	-50.1	-51.7	15.3	0.00e+00	0	23	0	445644800	66	4327
2026-01-10 23:10:07.89	45.68	22.91	-50.1	-51.7	15.3	0.00e+00	0	23	0	447741952	66	4297
2026-01-10 23:10:08.89	45.87	23.02	-50.2	-51.8	15.3	0.00e+00	0	23	0	449839104	66	4387
2026-01-10 23:10:09.89	46.06	23.12	-50.0	-51.5	15.4	0.00e+00	0	23	0	451936256	66	4238
2026-01-10 23:10:10.90	46.26	23.23	-50.1	-51.7	15.3	0.00e+00	0	23	0	452984832	66	4327
2026-01-10 23:10:11.90	46.45	23.33	-50.0	-51.6	15.4	0.00e+00	0	23	0	455081984	66	4271
2026-01-10 23:10:12.90	46.65	23.44	-49.9	-51.4	15.5	0.00e+00	0	23	0	457179136	66	4174
2026-01-10 23:10:13.89	46.84	23.54	-49.8	-51.3	15.5	0.00e+00	0	23	0	459276288	66	4111
2026-01-10 23:10:14.90	47.04	23.65	-49.8	-51.4	15.5	0.00e+00	0	23	0	460324864	66	4146
2026-01-10 23:10:15.90	47.24	23.75	-49.7	-51.2	15.6	0.00e+00	0	23	0	462422016	66	4091
2026-01-10 23:10:16.90	47.45	23.86	-49.6	-51.1	15.5	0.00e+00	0	23	0	464519168	65	4262
2026-01-10 23:10:17.90	47.65	23.97	-49.4	-50.9	15.5	0.00e+00	0	23	0	466616320	65	4177
2026-01-10 23:10:18.90	47.85	24.07	-49.5	-51.0	15.5	0.00e+00	0	23	0	468713472	65	4206
2026-01-10 23:10:19.90	48.06	24.18	-49.4	-50.9	15.5	0.00e+00	0	23	0	469762048	65	4150
2026-01-10 23:10:20.91	48.27	24.29	-49.4	-50.9	15.5	0.00e+00	0	23	0	471859200	65	4174
2026-01-10 23:10:21.91	48.48	24.39	-49.6	-51.0	15.5	0.00e+00	0	23	0	473956352	65	4225
2026-01-10 23:10:22.91	48.69	24.50	-49.5	-51.0	15.5	0.00e+00	0	23	0	476053504	65	4226
2026-01-10 23:10:23.90	48.90	24.60	-49.8	-51.3	15.4	0.00e+00	0	23	0	478150656	65	4348
2026-01-10 23:10:24.90	49.11	24.71	-49.7	-51.2	15.4	0.00e+00	0	23	0	479199232	65	4308
2026-01-10 23:10:25.90	49.32	24.81	-49.8	-51.4	15.3	0.00e+00	0	23	0	481296384	65	4401
2026-01-10 23:10:26.89	49.54	24.92	-50.0	-51.5	15.3	0.00e+00	0	23	0	483393536	65	4480
2026-01-10 23:10:27.89	49.75	25.03	-50.0	-51.6	15.2	0.00e+00	0	23	0	485490688	65	4497
2026-01-10 23:10:28.89	49.97	25.13	-49.9	-51.5	15.3	0.00e+00	0	23	0	486539264	65	4468
2026-01-10 23:10:29.88	50.19	25.24	-50.0	-51.6	15.2	0.00e+00	0	23	0	488636416	65	4501
2026-01-10 23:10:30.88	50.41	25.34	-50.0	-51.5	15.2	0.00e+00	0	23	0	490733568	65	4480
2026-01-10 23:10:31.88	50.63	25.45	-50.1	-51.6	15.2	0.00e+00	0	23	0	492830720	65	4529
2026-01-10 23:10:32.88	50.86	25.56	-50.0	-51.5	15.3	0.00e+00	0	23	0	494927872	65	4471
2026-01-10 23:10:33.88	51.08	25.66	-50.0	-51.6	15.2	0.00e+00	0	23	0	495976448	65	4517
2026-01-10 23:10:34.88	51.31	25.77	-50.0	-51.6	15.2	0.00e+00	0	23	0	498073600	65	4517
2026-01-10 23:10:35.88	51.54	25.87	-49.9	-51.5	15.3	0.00e+00	0	23	0	500170752	65	4456
2026-01-10 23:10:36.88	51.77	25.98	-50.1	-51.7	15.2	0.00e+00	0	23	0	502267904	65	4584
2026-01-10 23:10:37.87	52.00	26.08	-50.0	-51.6	15.2	0.00e+00	0	23	0	503316480	65	4530
2026-01-10 23:10:38.87	52.23	26.19	-50.1	-51.7	15.1	0.00e+00	0	23	0	505413632	65	4582
2026-01-10 23:10:39.86	52.46	26.30	-50.2	-51.8	15.1	0.00e+00	0	23	0	507510784	65	4648
2026-01-10 23:10:40.86	52.70	26.40	-50.2	-51.8	15.1	0.00e+00	0	23	0	509607936	65	4648
2026-01-10 23:10:41.86	52.94	26.51	-50.2	-51.8	15.1	0.00e+00	0	23	0	511705088	65	4645
2026-01-10 23:10:42.85	53.17	26.61	-50.4	-52.0	15.0	0.00e+00	0	23	0	512753664	65	4727
2026-01-10 23:10:43.85	53.42	26.72	-50.6	-52.2	15.1	0.00e+00	0	23	0	514850816	66	4590
2026-01-10 23:10:44.85	53.66	26.82	-50.8	-52.5	15.0	0.00e+00	0	23	0	516947968	66	4716
2026-01-10 23:10:45.85	53.90	26.93	-51.0	-52.8	15.0	0.00e+00	0	23	0	519045120	67	4615
2026-01-10 23:10:46.85	54.15	27.03	-51.1	-52.9	14.9	0.00e+00	0	23	0	521142272	67	4690
2026-01-10 23:10:47.85	54.39	27.14	-51.2	-53.0	14.8	0.00e+00	0	23	0	522190848	67	4728
2026-01-10 23:10:48.84	54.64	27.24	-51.2	-53.0	14.8	0.00e+00	0	23	0	524288000	67	4746
2026-01-10 23:10:49.84	54.89	27.34	-51.3	-53.1	14.8	0.00e+00	0	23	0	526385152	67	4764
2026-01-10 23:10:50.84	55.14	27.45	-51.7	-53.5	14.8	0.00e+00	0	23	0	528482304	68	4744
2026-01-10 23:10:51.85	55.40	27.55	-51.7	-53.6	14.8	0.00e+00	0	23	0	530579456	68	4797
2026-01-10 23:10:52.86	55.66	27.66	-51.9	-53.7	14.8	0.00e+00	0	23	0	531628032	69	4590
2026-01-10 23:10:53.86	55.91	27.76	-51.9	-53.8	14.8	0.00e+00	0	23	0	533725184	69	4600
2026-01-10 23:10:54.86	56.17	27.87	-52.0	-53.9	14.7	0.00e+00	0	23	0	535822336	69	4692
2026-01-10 23:10:55.86	56.43	27.97	-52.1	-54.1	14.6	0.00e+00	0	23	0	537919488	69	4786
2026-01-10 23:10:56.86	56.69	28.07	-52.0	-54.0	14.7	0.00e+00	0	23	0	538968064	69	4716
2026-01-10 23:10:57.86	56.96	28.18	-52.2	-54.2	14.6	0.00e+00	0	23	0	541065216	69	4823
2026-01-10 23:10:58.86	57.22	28.28	-52.3	-54.3	14.5	0.00e+00	0	23	0	543162368	69	4926
2026-01-10 23:10:59.87	57.49	28.38	-52.7	-54.9	14.4	0.00e+00	0	23	0	545259520	70	4935
2026-01-10 23:11:00.87	57.76	28.48	-52.7	-54.9	14.3	0.00e+00	0	23	0	547356672	70	4932
2026-01-10 23:11:01.87	58.03	28.59	-53.0	-55.2	14.3	0.00e+00	0	23	0	548405248	71	4846
2026-01-10 23:11:02.88	58.30	28.69	-53.4	-55.8	13.9	0.00e+00	0	23	0	550502400	71	5186
2026-01-10 23:11:03.89	58.58	28.79	-53.4	-55.9	14.1	0.00e+00	0	23	0	552599552	72	4942
2026-01-10 23:11:04.89	58.86	28.89	-53.4	-55.8	14.1	0.00e+00	0	23	0	554696704	72	4903
2026-01-10 23:11:05.89	59.13	28.99	-53.4	-55.7	14.2	0.00e+00	0	23	0	556793856	72	4865
2026-01-10 23:11:06.89	59.41	29.09	-53.3	-55.6	14.2	0.00e+00	0	23	0	557842432	72	4797
2026-01-10 23:11:07.89	59.69	29.19	-53.5	-56.0	14.0	0.00e+00	0	23	0	559939584	72	4988
2026-01-10 23:11:08.89	59.97	29.29	-53.4	-55.8	14.1	0.00e+00	0	23	0	562036736	72	4897
2026-01-10 23:11:09.89	60.26	29.39	-53.5	-56.0	14.0	0.00e+00	0	23	0	564133888	72	5002
2026-01-10 23:11:10.89	60.54	29.49	-53.6	-56.1	14.0	0.00e+00	0	23	0	566231040	72	5080
2026-01-10 23:11:11.89	60.83	29.59	-53.6	-56.2	13.9	0.00e+00	0	23	0	567279616	72	5103
2026-01-10 23:11:12.90	61.12	29.68	-53.9	-56.5	13.8	0.00e+00	0	23	0	569376768	73	4987
2026-01-10 23:11:13.91	61.42	29.78	-53.9	-56.6	13.8	0.00e+00	0	23	0	571473920	73	5044
2026-01-10 23:11:14.91	61.71	29.88	-54.1	-56.9	13.5	0.00e+00	0	23	0	573571072	73	5250
2026-01-10 23:11:15.91	62.00	29.98	-54.7	-57.9	13.0	0.00e+00	0	23	0	575668224	74	5541
2026-01-10 23:11:16.92	62.30	30.07	-54.9	-58.3	12.9	0.00e+00	0	23	0	576716800	75	5486
2026-01-10 23:11:17.92	62.60	30.17	-54.8	-58.0	13.1	0.00e+00	0	23	0	578813952	75	5338
2026-01-10 23:11:18.92	62.90	30.26	-54.6	-57.7	13.3	7.00e-07	0	23	0	580911104	75	5121
2026-01-10 23:11:19.92	63.20	30.36	-54.6	-57.6	13.4	0.00e+00	0	23	0	583008256	75	5055
2026-01-10 23:11:20.92	63.50	30.45	-54.7	-57.8	13.2	0.00e+00	0	23	0	584056832	75	5164
2026-01-10 23:11:21.92	63.81	30.54	-54.7	-57.8	13.2	0.00e+00	0	23	0	586153984	75	5190
2026-01-10 23:11:22.91	64.11	30.64	-54.9	-58.2	12.9	0.00e+00	0	23	0	588251136	75	5430
2026-01-10 23:11:23.91	64.42	30.73	-55.1	-58.6	12.6	0.00e+00	0	23	0	590348288	75	5676
2026-01-10 23:11:24.91	64.73	30.82	-55.1	-58.6	12.6	0.00e+00	0	23	0	592445440	75	5680
2026-01-10 23:11:25.90	65.04	30.91	-54.8	-58.0	13.1	7.00e-07	0	23	0	593494016	75	5282
2026-01-10 23:11:26.90	65.35	31.00	-54.9	-58.2	13.0	0.00e+00	0	23	0	595591168	75	5404
2026-01-10 23:11:27.91	65.67	31.09	-55.0	-58.5	12.7	0.00e+00	0	23	0	597688320	75	5601
2026-01-10 23:11:28.91	65.98	31.18	-54.8	-58.1	13.0	0.00e+00	0	23	0	599785472	75	5346
2026-01-10 23:11:29.91	66.30	31.27	-54.5	-57.4	13.5	0.00e+00	0	23	0	601882624	75	4956
2026-01-10 23:11:30.91	66.62	31.35	-54.1	-56.9	13.7	0.00e+00	0	23	0	602931200	74	4930
2026-01-10 23:11:31.91	66.94	31.44	-53.6	-56.1	14.1	0.00e+00	0	23	0	605028352	73	4810
2026-01-10 23:11:32.91	67.27	31.53	-53.4	-55.8	14.3	0.00e+00	0	23	0	607125504	73	4607
2026-01-10 23:11:33.91	67.59	31.61	-53.6	-56.0	14.2	0.00e+00	0	23	0	609222656	73	4751
2026-01-10 23:11:34.90	67.92	31.70	-53.9	-56.5	13.8	0.00e+00	0	23	0	610271232	73	5037
2026-01-10 23:11:35.90	68.24	31.78	-54.3	-57.1	13.4	0.00e+00	0	23	0	612368384	73	5384
2026-01-10 23:11:36.90	68.57	31.86	-54.4	-57.2	13.5	0.00e+00	0	23	0	614465536	74	5156
2026-01-10 23:11:37.90	68.91	31.95	-54.6	-57.6	13.2	0.00e+00	0	23	0	616562688	74	5353
2026-01-10 23:11:38.90	69.24	32.03	-54.1	-56.9	13.6	0.00e+00	0	23	0	618659840	74	4943
2026-01-10 23:11:39.90	69.57	32.11	-53.7	-56.2	14.2	0.00e+00	0	23	0	619708416	74	4550
2026-01-10 23:11:40.90	69.91	32.19	-52.9	-55.0	14.6	0.00e+00	0	23	0	621805568	72	4471
2026-01-10 23:11:41.89	70.25	32.27	-52.3	-54.3	14.9	0.00e+00	0	23	0	623902720	71	4375
2026-01-10 23:11:42.89	70.59	32.34	-52.4	-54.5	14.8	0.00e+00	0	23	0	625999872	71	4453
2026-01-10 23:11:43.89	70.93	32.42	-52.6	-54.7	14.7	0.00e+00	0	23	0	628097024	71	4576
2026-01-10 23:11:44.89	71.27	32.50	-53.3	-55.7	14.1	0.00e+00	0	23	0	629145600	71	5101
2026-01-10 23:11:45.89	71.62	32.57	-53.9	-56.6	13.7	0.00e+00	0	23	0	631242752	73	5066
2026-01-10 23:11:46.88	71.96	32.65	-54.1	-56.9	13.6	0.00e+00	0	23	0	633339904	73	5247
2026-01-10 23:11:47.88	72.31	32.72	-54.1	-56.8	13.7	0.00e+00	0	23	0	635437056	74	4913
2026-01-10 23:11:48.88	72.66	32.79	-53.9	-56.4	14.1	0.00e+00	0	23	0	637534208	74	4697
2026-01-10 23:11:49.88	73.01	32.86	-53.7	-56.1	14.2	0.00e+00	0	23	0	638582784	74	4541
2026-01-10 23:11:50.87	73.36	32.93	-53.6	-56.0	14.2	0.00e+00	0	23	0	640679936	73	4744
2026-01-10 23:11:51.87	73.71	33.00	-53.3	-55.7	14.2	0.00e+00	0	23	0	642777088	72	4831
2026-01-10 23:11:52.87	74.06	33.07	-53.2	-55.4	14.3	0.00e+00	0	23	0	644874240	72	4687
2026-01-10 23:11:53.87	74.42	33.14	-53.4	-55.8	14.2	0.00e+00	0	23	0	645922816	72	4875
2026-01-10 23:11:54.88	74.78	33.20	-53.7	-56.2	13.9	0.00e+00	0	23	0	648019968	72	5107
2026-01-10 23:11:55.88	75.14	33.27	-54.6	-57.6	13.2	0.00e+00	0	23	0	650117120	74	5382
2026-01-10 23:11:56.88	75.50	33.33	-55.6	-59.2	12.3	0.00e+00	0	23	0	652214272	76	5785
2026-01-10 23:11:57.88	75.87	33.40	-56.1	-60.4	11.6	1.29e-05	0	23	0	654311424	77	6266
2026-01-10 23:11:58.88	76.23	33.46	-55.8	-59.6	12.1	3.12e-05	0	23	0	655360000	77	5713
2026-01-10 23:11:59.88	76.60	33.52	-55.6	-59.3	12.4	3.80e-06	0	23	0	657457152	77	5477
2026-01-10 23:12:00.86	76.96	33.58	-55.9	-59.8	12.0	3.00e-06	0	23	0	659554304	77	5844
2026-01-10 23:12:01.86	77.32	33.64	-56.3	-60.9	11.2	1.83e-05	0	23	0	661651456	77	6588
2026-01-10 23:12:02.86	77.69	33.69	-56.4	-61.2	10.9	3.26e-04	0	23	0	662700032	78	6494
2026-01-10 23:12:03.87	78.07	33.75	-56.6	-61.7	10.5	8.40e-04	0	23	0	664797184	78	6813
2026-01-10 23:12:04.87	78.44	33.80	-56.4	-61.1	11.3	3.87e-04	0	23	0	666894336	78	6353
2026-01-10 23:12:05.86	78.81	33.86	-55.6	-59.3	12.5	1.67e-05	0	23	0	668991488	77	5470
2026-01-10 23:12:06.87	79.19	33.91	-54.8	-57.8	13.5	0.00e+00	0	23	0	671088640	76	4878
2026-01-10 23:12:07.87	79.56	33.96	-55.1	-58.2	13.1	0.00e+00	0	23	0	672137216	76	5155
2026-01-10 23:12:08.86	79.93	34.01	-55.5	-59.1	12.5	7.00e-07	0	23	0	674234368	76	5684
2026-01-10 23:12:09.86	80.31	34.06	-55.7	-59.5	12.1	4.50e-06	0	23	0	676331520	76	5964
2026-01-10 23:12:10.86	80.69	34.11	-55.6	-59.3	12.3	3.00e-06	0	23	0	678428672	76	5806
2026-01-10 23:12:11.86	81.07	34.15	-55.1	-58.4	13.0	0.00e+00	0	23	0	680525824	76	5243
2026-01-10 23:12:12.86	81.45	34.20	-54.7	-57.6	13.5	0.00e+00	0	23	0	681574400	76	4794
2026-01-10 23:12:13.86	81.83	34.24	-54.2	-56.9	13.8	0.00e+00	0	23	0	683671552	75	4669
2026-01-10 23:12:14.86	82.22	34.28	-54.2	-56.9	13.7	0.00e+00	0	23	0	685768704	74	4935
2026-01-10 23:12:15.85	82.60	34.32	-53.9	-56.5	14.0	0.00e+00	0	23	0	687865856	74	4732
2026-01-10 23:12:16.85	82.98	34.36	-53.9	-56.5	14.0	0.00e+00	0	23	0	689963008	74	4708
2026-01-10 23:12:17.86	83.37	34.40	-54.0	-56.6	13.9	0.00e+00	0	23	0	691011584	74	4774
2026-01-10 23:12:18.86	83.76	34.44	-54.6	-57.7	13.2	0.00e+00	0	23	0	693108736	74	5411
2026-01-10 23:12:19.86	84.15	34.47	-55.0	-58.3	12.8	0.00e+00	0	23	0	695205888	75	5528
2026-01-10 23:12:20.86	84.53	34.51	-55.6	-59.3	12.3	2.20e-06	0	23	0	697303040	76	5802
2026-01-10 23:12:21.86	84.92	34.54	-55.6	-59.4	12.2	5.30e-06	0	23	0	698351616	76	5899
2026-01-10 23:12:22.86	85.31	34.57	-55.8	-59.8	11.9	6.80e-06	0	23	0	700448768	76	6140
2026-01-10 23:12:23.86	85.70	34.60	-55.9	-59.8	11.9	1.29e-05	0	23	0	702545920	76	6182
2026-01-10 23:12:24.86	86.09	34.63	-56.3	-60.8	11.3	2.82e-05	0	23	0	704643072	77	6498
2026-01-10 23:12:25.85	86.48	34.65	-56.0	-60.2	11.8	5.03e-05	0	23	0	706740224	77	6066
2026-01-10 23:12:26.85	86.87	34.68	-55.5	-59.0	12.6	1.29e-05	0	23	0	707788800	77	5316
2026-01-10 23:12:27.85	87.27	34.70	-55.0	-58.1	13.1	0.00e+00	0	23	0	709885952	76	5087
2026-01-10 23:12:28.85	87.66	34.72	-54.5	-57.3	13.5	0.00e+00	0	23	0	711983104	75	4913
2026-01-10 23:12:29.85	88.06	34.75	-54.6	-57.5	13.4	0.00e+00	0	23	0	714080256	75	5036
2026-01-10 23:12:30.84	88.45	34.76	-54.9	-58.1	13.1	0.00e+00	0	23	0	716177408	75	5347
2026-01-10 23:12:31.83	88.84	34.78	-55.0	-58.3	12.9	0.00e+00	0	23	0	717225984	75	5484
2026-01-10 23:12:32.82	89.23	34.80	-55.4	-58.9	12.5	0.00e+00	0	23	0	719323136	75	5905
2026-01-10 23:12:33.83	89.63	34.81	-55.9	-59.8	12.1	7.00e-07	0	23	0	721420288	77	5792
2026-01-10 23:12:34.82	90.02	34.83	-56.3	-60.8	11.3	1.06e-04	0	23	0	723517440	78	6165
2026-01-10 23:12:35.82	90.42	34.84	-56.8	-62.1	10.2	6.87e-04	0	23	0	724566016	78	7157
2026-01-10 23:12:36.81	90.81	34.85	-56.9	-62.4	9.9	1.95e-03	0	23	0	726663168	79	6986
2026-01-10 23:12:37.81	91.21	34.86	-57.0	-62.6	9.9	3.67e-03	0	23	0	728760320	79	7126
2026-01-10 23:12:38.81	91.61	34.87	-57.2	-63.4	9.2	7.81e-03	0	23	0	730857472	79	7884
2026-01-10 23:12:39.81	92.00	34.87	-56.9	-62.3	10.1	4.63e-03	0	23	0	732954624	79	6900
2026-01-10 23:12:40.81	92.40	34.88	-56.3	-60.7	11.5	8.14e-04	0	23	0	734003200	79	5767
2026-01-10 23:12:41.80	92.79	34.88	-55.3	-58.7	12.9	3.00e-06	0	23	0	736100352	77	5108
2026-01-10 23:12:42.80	93.19	34.88	-54.8	-57.8	13.4	0.00e+00	0	23	0	738197504	76	4899
2026-01-10 23:12:43.80	93.59	34.88	-54.6	-57.5	13.5	0.00e+00	0	23	0	740294656	75	5011
2026-01-10 23:12:44.79	93.98	34.88	-54.5	-57.3	13.5	0.00e+00	0	23	0	741343232	75	4916
2026-01-10 23:12:45.79	94.38	34.88	-54.7	-57.7	13.3	0.00e+00	0	23	0	743440384	75	5109
2026-01-10 23:12:46.79	94.78	34.87	-54.8	-57.8	13.2	0.00e+00	0	23	0	745537536	75	5193
2026-01-10 23:12:47.79	95.18	34.87	-54.6	-57.6	13.4	0.00e+00	0	23	0	747634688	75	5081
2026-01-10 23:12:48.79	95.57	34.86	-55.0	-58.2	13.0	0.00e+00	0	23	0	749731840	75	5438
2026-01-10 23:12:49.79	95.97	34.85	-55.8	-59.7	11.9	7.00e-07	0	23	0	750780416	76	6097
2026-01-10 23:12:50.79	96.37	34.84	-56.3	-60.8	11.3	2.28e-05	0	23	0	752877568	77	6496
2026-01-10 23:12:51.78	96.76	34.83	-56.0	-60.1	11.7	4.11e-05	0	23	0	754974720	77	6043
2026-01-10 23:12:52.77	97.15	34.81	-55.3	-58.7	12.8	1.50e-06	0	23	0	757071872	77	5125
2026-01-10 23:12:53.77	97.55	34.80	-54.7	-57.6	13.5	0.00e+00	0	23	0	758120448	76	4788
2026-01-10 23:12:54.76	97.94	34.78	-54.4	-57.1	13.7	0.00e+00	0	23	0	760217600	75	4809
2026-01-10 23:12:55.77	98.34	34.76	-54.5	-57.4	13.5	0.00e+00	0	23	0	762314752	75	4956
2026-01-10 23:12:56.77	98.73	34.74	-54.5	-57.4	13.6	0.00e+00	0	23	0	764411904	75	4933
2026-01-10 23:12:57.77	99.13	34.72	-54.0	-56.6	13.9	0.00e+00	0	23	0	766509056	74	4786
2026-01-10 23:12:58.77	99.52	34.70	-53.8	-56.2	14.2	0.00e+00	0	23	0	767557632	74	4580
2026-01-10 23:12:59.77	99.92	34.68	-53.9	-56.4	13.9	0.00e+00	0	23	0	769654784	73	4965
2026-01-10 23:13:00.78	100.31	34.65	-54.9	-58.1	13.0	0.00e+00	0	23	0	771751936	74	5681
2026-01-10 23:13:01.78	100.70	34.62	-56.1	-60.3	11.7	7.00e-07	0	23	0	773849088	77	6155
2026-01-10 23:13:02.78	101.10	34.59	-56.8	-62.2	10.1	6.45e-04	0	23	0	775946240	78	7271
2026-01-10 23:13:03.78	101.49	34.57	-56.6	-61.5	10.8	5.68e-04	0	23	0	776994816	79	6341
2026-01-10 23:13:04.79	101.88	34.53	-55.9	-59.8	12.1	3.20e-05	0	23	0	779091968	78	5516
2026-01-10 23:13:05.79	102.27	34.50	-55.5	-59.0	12.6	1.50e-06	0	23	0	781189120	77	5332
2026-01-10 23:13:06.78	102.65	34.47	-55.7	-59.4	12.3	3.80e-06	0	23	0	783286272	77	5553
2026-01-10 23:13:07.77	103.04	34.43	-56.3	-60.7	11.4	4.57e-05	0	23	0	785383424	77	6480
2026-01-10 23:13:08.77	103.43	34.40	-56.7	-61.8	10.6	6.58e-04	0	23	0	786432000	78	6938
2026-01-10 23:13:09.77	103.81	34.36	-56.3	-60.7	11.4	2.43e-04	0	23	0	788529152	78	6062
2026-01-10 23:13:10.77	104.20	34.32	-55.9	-59.7	12.2	1.22e-05	0	23	0	790626304	78	5441
2026-01-10 23:13:11.76	104.58	34.28	-55.3	-58.7	12.9	7.00e-07	0	23	0	792723456	77	5113
2026-01-10 23:13:12.75	104.96	34.24	-55.7	-59.5	12.3	0.00e+00	0	23	0	793772032	77	5597
2026-01-10 23:13:13.75	105.34	34.19	-56.0	-60.1	11.7	2.36e-05	0	23	0	795869184	77	6047
2026-01-10 23:13:14.75	105.72	34.15	-55.6	-59.1	12.6	3.12e-05	0	23	0	797966336	77	5377
2026-01-10 23:13:15.75	106.10	34.10	-54.4	-57.2	13.7	0.00e+00	0	23	0	800063488	75	4831
2026-01-10 23:13:16.75	106.48	34.05	-53.7	-56.1	14.3	0.00e+00	0	23	0	802160640	74	4497
2026-01-10 23:13:17.76	106.86	34.00	-54.1	-56.8	13.6	0.00e+00	0	23	0	803209216	73	5161
2026-01-10 23:13:18.76	107.24	33.95	-54.8	-58.0	13.0	0.00e+00	0	23	0	805306368	74	5596
2026-01-10 23:13:19.76	107.61	33.90	-55.6	-59.3	12.2	0.00e+00	0	23	0	807403520	76	5843
2026-01-10 23:13:20.76	107.99	33.85	-55.4	-58.9	12.6	4.50e-06	0	23	0	809500672	76	5588
2026-01-10 23:13:21.75	108.36	33.80	-54.9	-57.9	13.3	0.00e+00	0	23	0	811597824	76	4964
2026-01-10 23:13:22.75	108.73	33.74	-54.4	-57.2	13.7	0.00e+00	0	23	0	812646400	75	4823
2026-01-10 23:13:23.75	109.10	33.69	-54.0	-56.6	14.0	0.00e+00	0	23	0	814743552	74	4766
2026-01-10 23:13:24.75	109.47	33.63	-54.2	-56.9	13.7	0.00e+00	0	23	0	816840704	74	4973
2026-01-10 23:13:25.75	109.84	33.57	-54.4	-57.3	13.5	0.00e+00	0	23	0	818937856	74	5202
2026-01-10 23:13:26.75	110.21	33.51	-54.5	-57.5	13.3	0.00e+00	0	23	0	819986432	74	5286
2026-01-10 23:13:27.74	110.57	33.45	-54.1	-56.8	13.8	0.00e+00	0	23	0	822083584	74	4909
2026-01-10 23:13:28.75	110.94	33.39	-53.4	-55.7	14.3	0.00e+00	0	23	0	824180736	73	4569
2026-01-10 23:13:29.74	111.30	33.32	-53.4	-55.8	14.3	0.00e+00	0	23	0	826277888	73	4615
2026-01-10 23:13:30.74	111.66	33.26	-53.3	-55.6	14.4	0.00e+00	0	23	0	828375040	73	4498
2026-01-10 23:13:31.74	112.02	33.19	-53.6	-56.0	14.1	0.00e+00	0	23	0	829423616	73	4708
2026-01-10 23:13:32.74	112.38	33.13	-53.4	-55.8	14.2	0.00e+00	0	23	0	831520768	72	4888
2026-01-10 23:13:33.74	112.73	33.06	-53.0	-55.2	14.5	0.00e+00	0	23	0	833617920	72	4564
2026-01-10 23:13:34.74	113.09	32.99	-52.9	-55.0	14.6	0.00e+00	0	23	0	835715072	72	4481
2026-01-10 23:13:35.73	113.44	32.92	-53.0	-55.2	14.3	0.00e+00	0	23	0	837812224	71	4832
2026-01-10 23:13:36.73	113.79	32.85	-53.3	-55.6	14.0	0.00e+00	0	23	0	838860800	71	5100
2026-01-10 23:13:37.73	114.14	32.78	-53.3	-55.7	14.2	0.00e+00	0	23	0	840957952	72	4847
2026-01-10 23:13:38.72	114.49	32.71	-53.1	-55.3	14.4	0.00e+00	0	23	0	843055104	72	4625
2026-01-10 23:13:39.71	114.84	32.63	-52.7	-54.8	14.6	0.00e+00	0	23	0	845152256	71	4619
2026-01-10 23:13:40.71	115.18	32.56	-52.5	-54.6	14.7	0.00e+00	0	23	0	846200832	71	4502
2026-01-10 23:13:41.71	115.53	32.48	-52.6	-54.7	14.7	0.00e+00	0	23	0	848297984	71	4560
2026-01-10 23:13:42.70	115.87	32.41	-52.7	-54.9	14.5	0.00e+00	0	23	0	850395136	71	4653
2026-01-10 23:13:43.70	116.21	32.33	-53.2	-55.5	14.2	0.00e+00	0	23	0	852492288	71	5011
2026-01-10 23:13:44.70	116.55	32.25	-53.0	-55.3	14.2	0.00e+00	0	23	0	854589440	71	4904
2026-01-10 23:13:45.70	116.89	32.17	-52.7	-54.8	14.5	0.00e+00	0	23	0	855638016	71	4649
2026-01-10 23:13:46.70	117.23	32.09	-52.0	-53.8	15.0	0.00e+00	0	23	0	857735168	70	4381
2026-01-10 23:13:47.69	117.56	32.01	-51.7	-53.5	15.0	0.00e+00	0	23	0	859832320	69	4466
2026-01-10 23:13:48.69	117.89	31.93	-51.6	-53.4	15.0	0.00e+00	0	23	0	861929472	69	4395
2026-01-10 23:13:49.68	118.22	31.85	-51.9	-53.8	14.8	0.00e+00	0	23	0	864026624	69	4615
2026-01-10 23:13:50.68	118.55	31.77	-52.4	-54.5	14.5	0.00e+00	0	23	0	865075200	69	4985
2026-01-10 23:13:51.68	118.88	31.68	-52.2	-54.1	14.6	0.00e+00	0	23	0	867172352	69	4795
2026-01-10 23:13:52.68	119.21	31.60	-51.9	-53.8	14.8	0.00e+00	0	23	0	869269504	69	4602
2026-01-10 23:13:53.68	119.53	31.51	-51.8	-53.6	14.9	0.00e+00	0	23	0	871366656	69	4541
2026-01-10 23:13:54.68	119.86	31.43	-51.7	-53.6	14.9	0.00e+00	0	23	0	872415232	69	4498
2026-01-10 23:13:55.68	120.18	31.34	-51.5	-53.3	15.1	0.00e+00	0	23	0	874512384	69	4351
2026-01-10 23:13:56.69	120.50	31.25	-51.7	-53.5	15.0	0.00e+00	0	23	0	876609536	69	4488
2026-01-10 23:13:57.69	120.82	31.16	-52.1	-54.0	14.7	0.00e+00	0	23	0	878706688	69	4747
2026-01-10 23:13:58.69	121.14	31.07	-51.8	-53.8	14.8	0.00e+00	0	23	0	880803840	69	4599
2026-01-10 23:13:59.69	121.46	30.98	-51.0	-52.7	15.2	0.00e+00	0	23	0	881852416	68	4306
2026-01-10 23:14:00.69	121.77	30.89	-50.4	-51.9	15.4	0.00e+00	0	23	0	883949568	67	4185
2026-01-10 23:14:01.69	122.08	30.80	-50.5	-52.1	15.3	0.00e+00	0	23	0	886046720	67	4257
2026-01-10 23:14:02.69	122.39	30.71	-50.7	-52.4	15.1	0.00e+00	0	23	0	888143872	67	4413
2026-01-10 23:14:03.69	122.70	30.62	-51.4	-53.2	14.7	0.00e+00	0	23	0	890241024	67	4851
2026-01-10 23:14:04.69	123.01	30.52	-52.2	-54.2	14.6	0.00e+00	0	23	0	891289600	69	4821
2026-01-10 23:14:05.69	123.31	30.43	-52.2	-54.2	14.5	0.00e+00	0	23	0	893386752	69	4865
2026-01-10 23:14:06.70	123.62	30.33	-52.0	-53.9	14.7	0.00e+00	0	23	0	895483904	69	4700
2026-01-10 23:14:07.69	123.92	30.24	-51.7	-53.5	14.9	0.00e+00	0	23	0	897581056	69	4477
2026-01-10 23:14:08.68	124.21	30.15	-51.7	-53.6	14.9	0.00e+00	0	23	0	899678208	69	4529
2026-01-10 23:14:09.68	124.51	30.05	-51.7	-53.6	14.9	0.00e+00	0	23	0	900726784	69	4531
2026-01-10 23:14:10.68	124.81	29.95	-52.1	-54.1	14.7	0.00e+00	0	23	0	902823936	69	4776
2026-01-10 23:14:11.69	125.11	29.86	-52.4	-54.5	14.5	0.00e+00	0	23	0	904921088	70	4740
2026-01-10 23:14:12.68	125.40	29.76	-51.9	-53.8	14.9	0.00e+00	0	23	0	907018240	70	4352
2026-01-10 23:14:13.67	125.68	29.66	-51.0	-52.7	15.2	0.00e+00	0	23	0	908066816	68	4299
2026-01-10 23:14:14.67	125.97	29.56	-50.1	-51.7	15.3	0.00e+00	0	23	0	910163968	66	4314
2026-01-10 23:14:15.68	126.26	29.46	-49.9	-51.4	15.5	0.00e+00	0	23	0	912261120	66	4146
2026-01-10 23:14:16.68	126.55	29.37	-50.3	-51.9	15.3	0.00e+00	0	23	0	914358272	66	4392
2026-01-10 23:14:17.68	126.83	29.27	-51.2	-53.0	14.9	0.00e+00	0	23	0	916455424	67	4715
2026-01-10 23:14:18.68	127.12	29.17	-52.2	-54.2	14.6	0.00e+00	0	23	0	917504000	69	4849
2026-01-10 23:14:19.68	127.40	29.07	-52.0	-53.9	14.7	0.00e+00	0	23	0	919601152	69	4693
2026-01-10 23:14:20.68	127.68	28.97	-51.3	-53.1	15.2	0.00e+00	0	23	0	921698304	69	4248
2026-01-10 23:14:21.68	127.95	28.86	-51.1	-52.7	15.2	0.00e+00	0	23	0	923795456	68	4338
2026-01-10 23:14:22.68	128.23	28.76	-51.2	-52.9	15.1	0.00e+00	0	23	0	924844032	68	4441
2026-01-10 23:14:23.67	128.50	28.66	-51.7	-53.6	14.7	0.00e+00	0	23	0	926941184	68	4768
2026-01-10 23:14:24.68	128.78	28.56	-52.2	-54.2	14.5	0.00e+00	0	23	0	929038336	69	4839
2026-01-10 23:14:25.67	129.04	28.46	-52.6	-54.7	14.4	0.00e+00	0	23	0	931135488	70	4849
2026-01-10 23:14:26.67	129.31	28.36	-51.8	-53.7	15.0	0.00e+00	0	23	0	933232640	70	4311
2026-01-10 23:14:27.67	129.58	28.25	-51.6	-53.4	15.0	0.00e+00	0	23	0	934281216	69	4416
2026-01-10 23:14:28.67	129.85	28.15	-51.1	-52.8	15.2	0.00e+00	0	23	0	936378368	68	4359
2026-01-10 23:14:29.67	130.11	28.05	-51.4	-53.2	14.9	0.00e+00	0	23	0	938475520	68	4583
2026-01-10 23:14:30.67	130.37	27.94	-52.0	-53.9	14.7	0.00e+00	0	23	0	940572672	69	4696
2026-01-10 23:14:31.66	130.63	27.84	-52.6	-54.8	14.4	0.00e+00	0	23	0	942669824	70	4894
2026-01-10 23:14:32.66	130.89	27.74	-52.4	-54.5	14.6	0.00e+00	0	23	0	943718400	70	4720
2026-01-10 23:14:33.65	131.15	27.63	-51.7	-53.6	15.1	0.00e+00	0	23	0	945815552	70	4245
2026-01-10 23:14:34.65	131.40	27.53	-50.9	-52.6	15.3	0.00e+00	0	23	0	947912704	68	4268
2026-01-10 23:14:35.66	131.66	27.42	-50.4	-52.0	15.4	0.00e+00	0	23	0	950009856	67	4197
2026-01-10 23:14:36.65	131.91	27.32	-50.1	-51.7	15.3	0.00e+00	0	23	0	951058432	66	4316
2026-01-10 23:14:37.65	132.16	27.21	-50.6	-52.2	15.1	0.00e+00	0	23	0	953155584	66	4571
2026-01-10 23:14:38.64	132.41	27.11	-51.8	-53.7	14.7	0.00e+00	0	23	0	955252736	68	4832
2026-01-10 23:14:39.63	132.65	27.01	-52.4	-54.5	14.6	0.00e+00	0	23	0	957349888	70	4722
2026-01-10 23:14:40.63	132.90	26.90	-52.5	-54.7	14.4	0.00e+00	0	23	0	959447040	70	4843
2026-01-10 23:14:41.62	133.14	26.80	-51.9	-53.8	14.9	0.00e+00	0	23	0	960495616	70	4367
2026-01-10 23:14:42.61	133.38	26.69	-51.4	-53.2	15.1	0.00e+00	0	23	0	962592768	69	4307
2026-01-10 23:14:43.60	133.62	26.59	-51.4	-53.2	15.1	0.00e+00	0	23	0	964689920	69	4309
2026-01-10 23:14:44.60	133.86	26.48	-52.0	-54.0	14.7	0.00e+00	0	23	0	966787072	69	4708
2026-01-10 23:14:45.59	134.09	26.37	-52.3	-54.4	14.4	0.00e+00	0	23	0	967835648	69	4962
2026-01-10 23:14:46.59	134.33	26.27	-52.8	-55.0	14.2	0.00e+00	0	23	0	969932800	70	5034
2026-01-10 23:14:47.59	134.57	26.16	-52.8	-55.1	14.3	0.00e+00	0	23	0	972029952	71	4788
2026-01-10 23:14:48.58	134.80	26.06	-52.1	-54.1	14.8	0.00e+00	0	23	0	974127104	70	4508
2026-01-10 23:14:49.58	135.03	25.95	-51.7	-53.6	15.0	0.00e+00	0	23	0	976224256	70	4261
2026-01-10 23:14:50.58	135.26	25.84	-51.4	-53.2	15.1	0.00e+00	0	23	0	977272832	69	4320
2026-01-10 23:14:51.58	135.49	25.74	-51.5	-53.3	15.1	0.00e+00	0	23	0	979369984	69	4357
2026-01-10 23:14:52.58	135.72	25.63	-52.2	-54.2	14.5	0.00e+00	0	23	0	981467136	69	4865
2026-01-10 23:14:53.57	135.94	25.53	-52.8	-55.0	14.2	0.00e+00	0	23	0	983564288	70	5031
2026-01-10 23:14:54.57	136.17	25.42	-53.1	-55.6	14.0	0.00e+00	0	23	0	984612864	71	5049
2026-01-10 23:14:55.57	136.39	25.31	-53.1	-55.5	14.1	0.00e+00	0	23	0	986710016	71	4990
2026-01-10 23:14:56.57	136.61	25.21	-52.6	-54.8	14.5	0.00e+00	0	23	0	988807168	71	4624
2026-01-10 23:14:57.57	136.83	25.10	-52.1	-54.0	14.8	0.00e+00	0	23	0	990904320	70	4493
2026-01-10 23:14:58.56	137.05	24.99	-51.5	-53.3	15.0	0.00e+00	0	23	0	993001472	69	4365
2026-01-10 23:14:59.56	137.26	24.89	-50.5	-52.1	15.4	0.00e+00	0	23	0	994050048	67	4262
2026-01-10 23:15:00.57	137.48	24.78	-50.0	-51.6	15.4	0.00e+00	0	23	0	996147200	66	4261
2026-01-10 23:15:01.57	137.70	24.67	-50.4	-52.0	15.1	0.00e+00	0	23	0	998244352	66	4473
2026-01-10 23:15:02.57	137.91	24.56	-51.4	-53.0	14.8	0.00e+00	0	23	0	1000341504	67	4711
2026-01-10 23:15:03.57	138.12	24.46	-51.3	-53.2	14.7	0.00e+00	0	23	0	1002438656	67	4823
2026-01-10 23:15:04.56	138.33	24.35	-51.9	-53.9	14.6	0.00e+00	0	23	0	1003487232	68	4941
2026-01-10 23:15:05.56	138.54	24.25	-51.9	-53.9	14.7	0.00e+00	0	23	0	1005584384	69	4689
2026-01-10 23:15:06.56	138.75	24.14	-51.6	-53.4	15.0	0.00e+00	0	23	0	1007681536	69	4412
2026-01-10 23:15:07.56	138.95	24.03	-51.3	-53.0	15.1	0.00e+00	0	23	0	1009778688	69	4241
2026-01-10 23:15:08.56	139.16	23.93	-50.9	-52.6	15.2	0.00e+00	0	23	0	1011875840	68	4258
2026-01-10 23:15:09.56	139.36	23.82	-50.9	-52.6	15.2	0.00e+00	0	23	0	1012924416	68	4265
2026-01-10 23:15:10.56	139.56	23.71	-51.0	-52.7	15.2	0.00e+00	0	23	0	1015021568	68	4340
2026-01-10 23:15:11.56	139.76	23.61	-51.2	-53.0	15.0	0.00e+00	0	23	0	1017118720	68	4475
2026-01-10 23:15:12.56	139.96	23.50	-51.4	-53.2	14.9	0.00e+00	0	23	0	1019215872	68	4564
2026-01-10 23:15:13.57	140.16	23.39	-51.2	-53.0	15.0	0.00e+00	0	23	0	1020264448	68	4450
2026-01-10 23:15:14.57	140.36	23.29	-50.8	-52.5	15.3	0.00e+00	0	23	0	1022361600	68	4201
2026-01-10 23:15:15.57	140.56	23.18	-50.3	-51.9	15.4	0.00e+00	0	23	0	1024458752	67	4155
2026-01-10 23:15:16.57	140.75	23.08	-50.1	-51.6	15.3	0.00e+00	0	23	0	1026555904	66	4272
2026-01-10 23:15:17.57	140.94	22.97	-49.7	-51.2	15.4	0.00e+00	0	23	0	1028653056	65	4296
2026-01-10 23:15:18.57	141.14	22.87	-49.4	-50.8	15.5	0.00e+00	0	23	0	1029701632	65	4135
2026-01-10 23:15:19.56	141.32	22.76	-49.6	-51.1	15.4	0.00e+00	0	23	0	1031798784	65	4265
2026-01-10 23:15:20.57	141.52	22.66	-49.9	-51.5	15.2	0.00e+00	0	23	0	1033895936	65	4450
2026-01-10 23:15:21.57	141.70	22.55	-50.2	-51.8	15.1	0.00e+00	0	23	0	1035993088	65	4623
2026-01-10 23:15:22.56	141.89	22.45	-50.4	-52.1	15.1	0.00e+00	0	23	0	1038090240	66	4519
2026-01-10 23:15:23.56	142.07	22.34	-50.5	-52.2	15.1	0.00e+00	0	23	0	1039138816	66	4561
2026-01-10 23:15:24.56	142.26	22.24	-50.6	-52.3	15.0	0.00e+00	0	23	0	1041235968	66	4640
2026-01-10 23:15:25.56	142.44	22.13	-50.4	-52.0	15.1	0.00e+00	0	23	0	1043333120	66	4493
2026-01-10 23:15:26.56	142.62	22.03	-50.3	-51.9	15.2	0.00e+00	0	23	0	1045430272	66	4414
2026-01-10 23:15:27.56	142.81	21.92	-50.1	-51.7	15.3	0.00e+00	0	23	0	1047527424	66	4313
2026-01-10 23:15:28.56	142.98	21.82	-49.9	-51.4	15.4	0.00e+00	0	23	0	1048576000	66	4191
2026-01-10 23:15:29.56	143.16	21.71	-49.6	-51.1	15.4	0.00e+00	0	23	0	1050673152	65	4276
2026-01-10 23:15:30.56	143.34	21.61	-49.8	-51.3	15.3	0.00e+00	0	23	0	1052770304	65	4390
2026-01-10 23:15:31.55	143.51	21.51	-49.9	-51.5	15.2	0.00e+00	0	23	0	1054867456	65	4442
2026-01-10 23:15:32.55	143.69	21.40	-50.0	-51.5	15.2	0.00e+00	0	23	0	1055916032	65	4493
2026-01-10 23:15:33.55	143.86	21.30	-50.2	-51.8	15.1	0.00e+00	0	23	0	1058013184	65	4634
2026-01-10 23:15:34.55	144.04	21.20	-50.5	-52.1	15.1	0.00e+00	0	23	0	1060110336	66	4535
2026-01-10 23:15:35.54	144.21	21.10	-50.4	-52.1	15.1	0.00e+00	0	23	0	1062207488	66	4503
2026-01-10 23:15:36.53	144.38	20.99	-50.7	-52.4	14.9	0.00e+00	0	23	0	1064304640	66	4672
2026-01-10 23:15:37.53	144.54	20.89	-50.6	-52.3	15.0	0.00e+00	0	23	0	1065353216	66	4608
2026-01-10 23:15:38.53	144.71	20.79	-50.4	-52.0	15.1	0.00e+00	0	23	0	1067450368	66	4491
2026-01-10 23:15:39.52	144.88	20.69	-50.4	-52.1	15.1	0.00e+00	0	23	0	1069547520	66	4538
2026-01-10 23:15:40.53	145.05	20.58	-50.0	-51.6	15.3	0.00e+00	0	23	0	1071644672	66	4282
2026-01-10 23:15:41.52	145.21	20.48	-50.1	-51.7	15.2	0.00e+00	0	23	0	1072693248	66	4326
2026-01-10 23:15:42.53	145.38	20.38	-50.0	-51.6	15.3	0.00e+00	0	23	0	1074790400	66	4278
2026-01-10 23:15:43.52	145.54	20.28	-50.1	-51.7	15.3	0.00e+00	0	23	0	1076887552	66	4293
2026-01-10 23:15:44.52	145.70	20.18	-50.5	-52.1	15.1	0.00e+00	0	23	0	1078984704	66	4543
2026-01-10 23:15:45.51	145.86	20.08	-50.5	-52.2	15.0	0.00e+00	0	23	0	1081081856	66	4565
2026-01-10 23:15:46.52	146.02	19.97	-50.5	-52.2	15.1	0.00e+00	0	23	0	1082130432	66	4585
2026-01-10 23:15:47.52	146.18	19.87	-50.5	-52.2	15.0	0.00e+00	0	23	0	1084227584	66	4570
2026-01-10 23:15:48.52	146.34	19.77	-50.4	-52.1	15.1	0.00e+00	0	23	0	1086324736	66	4506
2026-01-10 23:15:49.52	146.49	19.67	-50.2	-51.8	15.2	0.00e+00	0	23	0	1088421888	66	4386
2026-01-10 23:15:50.52	146.65	19.57	-50.1	-51.8	15.3	0.00e+00	0	23	0	1090519040	66	4344
2026-01-10 23:15:51.52	146.80	19.47	-50.0	-51.6	15.3	0.00e+00	0	23	0	1091567616	66	4278
2026-01-10 23:15:52.52	146.96	19.37	-50.1	-51.6	15.3	0.00e+00	0	23	0	1093664768	66	4285
2026-01-10 23:15:53.52	147.11	19.27	-50.0	-51.6	15.3	0.00e+00	0	23	0	1095761920	66	4267
2026-01-10 23:15:54.51	147.26	19.17	-49.9	-51.5	15.4	0.00e+00	0	23	0	1097859072	66	4202
2026-01-10 23:15:55.51	147.41	19.07	-50.1	-51.6	15.3	0.00e+00	0	23	0	1098907648	66	4287
2026-01-10 23:15:56.51	147.56	18.98	-50.2	-51.8	15.2	0.00e+00	0	23	0	1101004800	66	4351
2026-01-10 23:15:57.52	147.71	18.88	-50.3	-51.9	15.2	0.00e+00	0	23	0	1103101952	66	4415
2026-01-10 23:15:58.51	147.86	18.78	-50.5	-52.2	15.0	0.00e+00	0	23	0	1105199104	66	4574
2026-01-10 23:15:59.50	148.01	18.68	-50.7	-52.4	14.9	0.00e+00	0	23	0	1107296256	66	4694
2026-01-10 23:16:00.51	148.15	18.58	-51.0	-52.8	14.8	0.00e+00	0	23	0	1108344832	67	4645
2026-01-10 23:16:01.51	148.30	18.48	-51.6	-53.5	14.7	0.00e+00	0	23	0	1110441984	68	4725
2026-01-10 23:16:02.50	148.44	18.39	-51.8	-53.9	14.5	0.00e+00	0	23	0	1112539136	68	4932
2026-01-10 23:16:03.51	148.59	18.29	-52.0	-54.1	14.5	0.00e+00	0	23	0	1114636288	69	4777
2026-01-10 23:16:04.51	148.73	18.19	-52.3	-54.5	14.3	0.00e+00	0	23	0	1116733440	69	5037
2026-01-10 23:16:05.52	148.87	18.09	-52.4	-54.6	14.4	0.00e+00	0	23	0	1117782016	70	4781
2026-01-10 23:16:06.52	149.02	18.00	-52.5	-54.7	14.4	0.00e+00	0	23	0	1119879168	70	4822
2026-01-10 23:16:07.52	149.16	17.90	-52.3	-54.5	14.5	0.00e+00	0	23	0	1121976320	70	4732
2026-01-10 23:16:08.53	149.30	17.80	-52.1	-54.2	14.6	0.00e+00	0	23	0	1124073472	70	4570
2026-01-10 23:16:09.53	149.44	17.70	-52.0	-54.0	14.8	0.00e+00	0	23	0	1126170624	70	4466
2026-01-10 23:16:10.52	149.57	17.61	-51.8	-53.7	14.9	0.00e+00	0	23	0	1127219200	70	4321
2026-01-10 23:16:11.52	149.71	17.51	-51.6	-53.5	14.9	0.00e+00	0	23	0	1129316352	69	4458
2026-01-10 23:16:12.51	149.84	17.42	-51.6	-53.6	14.8	0.00e+00	0	23	0	1131413504	69	4505
2026-01-10 23:16:13.51	149.98	17.32	-51.4	-53.3	15.0	0.00e+00	0	23	0	1133510656	69	4342
2026-01-10 23:16:14.51	150.11	17.23	-51.6	-53.5	14.9	0.00e+00	0	23	0	1134559232	69	4481
2026-01-10 23:16:15.51	150.25	17.13	-51.9	-54.0	14.6	0.00e+00	0	23	0	1136656384	69	4707
2026-01-10 23:16:16.51	150.38	17.04	-51.7	-53.7	14.7	0.00e+00	0	23	0	1138753536	69	4570
2026-01-10 23:16:17.51	150.51	16.94	-52.2	-54.4	14.4	0.00e+00	0	23	0	1140850688	69	4928
2026-01-10 23:16:18.51	150.64	16.85	-52.2	-54.4	14.4	0.00e+00	0	23	0	1142947840	69	4936
2026-01-10 23:16:19.51	150.77	16.76	-52.2	-54.3	14.4	0.00e+00	0	23	0	1143996416	69	4894
2026-01-10 23:16:20.50	150.90	16.66	-52.2	-54.4	14.4	0.00e+00	0	23	0	1146093568	69	4965
2026-01-10 23:16:21.50	151.03	16.57	-51.9	-53.9	14.6	0.00e+00	0	23	0	1148190720	69	4704
2026-01-10 23:16:22.50	151.16	16.48	-51.9	-53.9	14.6	0.00e+00	0	23	0	1150287872	69	4705
2026-01-10 23:16:23.51	151.29	16.38	-51.8	-53.9	14.7	0.00e+00	0	23	0	1152385024	69	4653
2026-01-10 23:16:24.51	151.41	16.29	-51.4	-53.2	15.0	0.00e+00	0	23	0	1153433600	69	4324
2026-01-10 23:16:25.52	151.54	16.19	-51.3	-53.2	15.0	0.00e+00	0	23	0	1155530752	69	4293
2026-01-10 23:16:26.52	151.66	16.10	-51.0	-52.8	15.1	0.00e+00	0	23	0	1157627904	68	4361
2026-01-10 23:16:27.52	151.79	16.01	-51.1	-52.8	15.0	0.00e+00	0	23	0	1159725056	68	4379
2026-01-10 23:16:28.52	151.91	15.92	-51.2	-53.0	15.0	0.00e+00	0	23	0	1160773632	68	4449
2026-01-10 23:16:29.51	152.03	15.83	-50.9	-52.6	15.1	0.00e+00	0	23	0	1162870784	68	4284
2026-01-10 23:16:30.51	152.15	15.73	-51.2	-53.0	15.0	0.00e+00	0	23	0	1164967936	68	4464
2026-01-10 23:16:31.51	152.28	15.64	-51.4	-53.3	14.8	0.00e+00	0	23	0	1167065088	68	4620
2026-01-10 23:16:32.51	152.40	15.55	-51.3	-53.1	14.9	0.00e+00	0	23	0	1169162240	68	4520
2026-01-10 23:16:33.51	152.52	15.46	-51.6	-53.5	14.6	0.00e+00	0	23	0	1170210816	68	4759
2026-01-10 23:16:34.50	152.63	15.37	-51.4	-53.3	14.7	0.00e+00	0	23	0	1172307968	68	4639
2026-01-10 23:16:35.50	152.75	15.28	-51.3	-53.1	14.9	0.00e+00	0	23	0	1174405120	68	4534
2026-01-10 23:16:36.50	152.87	15.19	-51.5	-53.4	14.7	0.00e+00	0	23	0	1176502272	68	4701
2026-01-10 23:16:37.50	152.99	15.10	-51.3	-53.2	14.8	0.00e+00	0	23	0	1178599424	68	4573
2026-01-10 23:16:38.50	153.10	15.01	-51.3	-53.2	14.8	0.00e+00	0	23	0	1179648000	68	4563
2026-01-10 23:16:39.49	153.22	14.92	-51.3	-53.2	14.9	0.00e+00	0	23	0	1181745152	68	4572
2026-01-10 23:16:40.49	153.33	14.83	-51.0	-52.7	15.1	0.00e+00	0	23	0	1183842304	68	4333
2026-01-10 23:16:41.48	153.45	14.74	-51.0	-52.8	15.0	0.00e+00	0	23	0	1185939456	68	4386
2026-01-10 23:16:42.49	153.56	14.65	-50.9	-52.7	15.1	0.00e+00	0	23	0	1188036608	68	4321
2026-01-10 23:16:43.48	153.67	14.57	-50.9	-52.7	15.1	0.00e+00	0	23	0	1189085184	68	4311
2026-01-10 23:16:44.48	153.79	14.48	-51.1	-52.9	15.0	0.00e+00	0	23	0	1191182336	68	4427
2026-01-10 23:16:45.47	153.90	14.39	-51.0	-52.8	15.0	0.00e+00	0	23	0	1193279488	68	4380
2026-01-10 23:16:46.47	154.01	14.30	-51.3	-53.1	14.9	0.00e+00	0	23	0	1195376640	68	4523
2026-01-10 23:16:47.47	154.12	14.22	-51.4	-53.3	14.8	0.00e+00	0	23	0	1196425216	68	4616
2026-01-10 23:16:48.47	154.23	14.13	-51.1	-53.0	14.9	0.00e+00	0	23	0	1198522368	68	4446
2026-01-10 23:16:49.47	154.34	14.04	-51.5	-53.4	14.7	0.00e+00	0	23	0	1200619520	68	4692
2026-01-10 23:16:50.47	154.45	13.95	-51.4	-53.3	14.8	0.00e+00	0	23	0	1202716672	68	4605
2026-01-10 23:16:51.46	154.55	13.87	-51.4	-53.3	14.8	0.00e+00	0	23	0	1204813824	68	4624
2026-01-10 23:16:52.45	154.66	13.78	-51.6	-53.6	14.6	0.00e+00	0	23	0	1205862400	68	4799
2026-01-10 23:16:53.45	154.77	13.69	-51.4	-53.3	14.8	0.00e+00	0	23	0	1207959552	68	4640
2026-01-10 23:16:54.44	154.87	13.61	-51.5	-53.4	14.7	0.00e+00	0	23	0	1210056704	68	4693
2026-01-10 23:16:55.43	154.98	13.52	-51.4	-53.4	14.7	0.00e+00	0	23	0	1212153856	68	4653
2026-01-10 23:16:56.43	155.08	13.44	-51.3	-53.1	14.9	0.00e+00	0	23	0	1213202432	68	4541
2026-01-10 23:16:57.43	155.19	13.35	-51.5	-53.4	14.7	0.00e+00	0	23	0	1215299584	68	4686
2026-01-10 23:16:58.43	155.29	13.27	-51.2	-53.1	14.9	0.00e+00	0	23	0	1217396736	68	4511
2026-01-10 23:16:59.43	155.40	13.18	-51.2	-53.1	14.9	0.00e+00	0	23	0	1219493888	68	4516
2026-01-10 23:17:00.43	155.50	13.10	-51.4	-53.3	14.8	0.00e+00	0	23	0	1221591040	68	4617
2026-01-10 23:17:01.43	155.60	13.01	-51.3	-53.2	14.8	0.00e+00	0	23	0	1222639616	68	4561
2026-01-10 23:17:02.43	155.70	12.93	-51.7	-53.7	14.6	0.00e+00	0	23	0	1224736768	68	4821
2026-01-10 23:17:03.43	155.80	12.84	-51.8	-53.8	14.5	0.00e+00	0	23	0	1226833920	68	4906
2026-01-10 23:17:04.43	155.90	12.76	-51.7	-53.8	14.5	0.00e+00	0	23	0	1228931072	68	4885
2026-01-10 23:17:05.43	156.00	12.68	-52.0	-54.2	14.5	0.00e+00	0	23	0	1231028224	69	4829
2026-01-10 23:17:06.43	156.10	12.59	-52.2	-54.4	14.3	0.00e+00	0	23	0	1232076800	69	4959
2026-01-10 23:17:07.42	156.20	12.51	-52.3	-54.5	14.2	0.00e+00	0	23	0	1234173952	69	5017
2026-01-10 23:17:08.41	156.30	12.43	-52.7	-55.1	14.0	0.00e+00	0	23	0	1236271104	70	5081
2026-01-10 23:17:09.40	156.40	12.34	-52.6	-55.0	14.1	0.00e+00	0	23	0	1238368256	70	5027
2026-01-10 23:17:10.40	156.49	12.26	-53.0	-55.6	13.9	0.00e+00	0	23	0	1239416832	71	5042
2026-01-10 23:17:11.40	156.59	12.18	-53.0	-55.5	13.9	0.00e+00	0	23	0	1241513984	71	5019
2026-01-10 23:17:12.40	156.69	12.10	-53.0	-55.5	13.9	0.00e+00	0	23	0	1243611136	71	5040
2026-01-10 23:17:13.40	156.78	12.01	-53.1	-55.7	13.8	0.00e+00	0	23	0	1245708288	71	5127
2026-01-10 23:17:14.40	156.88	11.93	-53.0	-55.6	13.8	0.00e+00	0	23	0	1247805440	71	5077
2026-01-10 23:17:15.39	156.97	11.85	-53.0	-55.6	13.9	0.00e+00	0	23	0	1248854016	71	5099
2026-01-10 23:17:16.38	157.07	11.77	-52.9	-55.4	14.0	0.00e+00	0	23	0	1250951168	71	4974
2026-01-10 23:17:17.38	157.16	11.69	-52.6	-55.0	14.3	0.00e+00	0	23	0	1253048320	71	4720
