passes_logs/2026/01/10/R3.2S_Murmansk/R3.2S_Murmansk__20260110_012550_NOAA_20_JPSS-1_rec.log

#Pass ID: 20260110_012550_NOAA 20 (JPSS-1)
#Satellite: NOAA 20 (JPSS-1)
#Configuration: NOAA 20
#almurnet v.1.7.20251203
#Start time: 2026-01-10 01:25:49

#Version: 2.2.20231116
#Station: R3.2S_Murmansk
#Location: 33.079688 lon 68.888172 lat
#TLE: 1 43013U 17073A   26009.26828276  .00000112  00000+0  74203-4 0  9990
#TLE: 2 43013  98.7631 310.2683 0001700  47.4387 312.6933 14.19534764421920

#Time	Az	El	Level	Level2	SNR	BER	BlckErr	Temp	State	Recorded	gain1	gain2
2026-01-10 01:25:49.98	27.71	1.99	-56.7	-72.8	3.8	1.49e+00	0	21	0	0	80	21921
2026-01-10 01:25:50.98	27.70	2.06	-56.7	-72.7	3.8	1.49e+00	0	21	104	0	78	24316
2026-01-10 01:25:51.98	27.68	2.12	-56.8	-72.8	3.8	1.49e+00	0	21	104	0	78	24423
2026-01-10 01:25:52.97	27.67	2.18	-56.8	-72.8	3.8	1.49e+00	0	21	104	0	78	24423
2026-01-10 01:25:53.97	27.65	2.25	-56.8	-72.7	3.8	1.49e+00	0	21	104	0	78	24357
2026-01-10 01:25:54.97	27.63	2.31	-56.8	-72.7	3.8	1.49e+00	0	21	104	0	78	24328
2026-01-10 01:25:55.97	27.62	2.38	-56.8	-72.7	3.8	1.49e+00	0	21	104	0	78	24301
2026-01-10 01:25:56.97	27.60	2.44	-56.8	-72.7	3.8	1.49e+00	0	22	104	0	78	24328
2026-01-10 01:25:57.97	27.59	2.50	-56.8	-72.7	3.8	1.49e+00	0	22	104	0	78	24382
2026-01-10 01:25:58.97	27.57	2.57	-56.8	-72.8	3.8	1.49e+00	0	22	104	0	78	24423
2026-01-10 01:25:59.98	27.56	2.63	-56.8	-72.7	3.8	1.49e+00	0	21	104	0	78	24307
2026-01-10 01:26:00.98	27.54	2.70	-56.8	-72.7	3.8	1.49e+00	0	22	104	0	78	24311
2026-01-10 01:26:01.97	27.52	2.76	-56.8	-72.7	3.8	1.49e+00	0	22	104	0	78	24267
2026-01-10 01:26:02.97	27.51	2.83	-56.8	-72.7	3.8	1.49e+00	0	22	104	0	78	24155
2026-01-10 01:26:03.97	27.49	2.89	-56.8	-72.6	3.8	1.49e+00	0	22	104	0	78	23938
2026-01-10 01:26:04.97	27.48	2.96	-56.8	-72.5	3.8	1.49e+00	0	22	104	0	78	23649
2026-01-10 01:26:05.97	27.46	3.03	-56.8	-72.3	3.8	1.49e+00	0	22	104	0	78	23294
2026-01-10 01:26:06.97	27.44	3.09	-56.8	-72.1	3.8	1.49e+00	0	22	104	0	78	22546
2026-01-10 01:26:07.97	27.43	3.16	-56.7	-71.6	3.8	1.49e+00	0	22	104	0	78	21477
2026-01-10 01:26:08.98	27.41	3.22	-56.7	-71.3	3.8	1.49e+00	0	22	104	0	78	20554
2026-01-10 01:26:09.97	27.39	3.29	-56.7	-71.0	3.8	1.49e+00	0	22	104	0	78	20019
2026-01-10 01:26:10.97	27.37	3.36	-56.7	-71.4	3.8	1.49e+00	0	22	104	0	78	20822
2026-01-10 01:26:11.97	27.36	3.42	-56.8	-71.7	3.8	1.49e+00	0	22	104	0	78	21574
2026-01-10 01:26:12.97	27.34	3.49	-56.8	-72.0	3.8	1.49e+00	0	22	104	0	78	22423
2026-01-10 01:26:13.97	27.32	3.56	-56.8	-72.4	3.8	1.49e+00	0	22	104	0	78	23360
2026-01-10 01:26:14.97	27.31	3.62	-56.8	-72.6	3.8	1.49e+00	0	22	104	0	78	23962
2026-01-10 01:26:15.97	27.29	3.69	-56.8	-72.6	3.8	1.49e+00	0	22	104	0	78	23909
2026-01-10 01:26:16.97	27.27	3.76	-56.8	-72.3	3.8	1.49e+00	0	22	104	0	78	23165
2026-01-10 01:26:17.97	27.25	3.83	-56.7	-71.5	3.8	1.49e+00	0	22	104	0	78	21109
2026-01-10 01:26:18.98	27.24	3.89	-56.7	-70.5	3.8	1.49e+00	0	22	104	0	78	18905
2026-01-10 01:26:19.97	27.22	3.96	-56.6	-69.1	4.2	1.42e+00	0	22	0	0	78	15978
2026-01-10 01:26:20.97	27.20	4.03	-56.6	-67.8	4.6	1.22e+00	0	22	0	1048576	78	13878
2026-01-10 01:26:21.97	27.18	4.10	-56.4	-66.5	5.3	7.34e-01	0	22	0	3145728	78	11903
2026-01-10 01:26:22.97	27.16	4.17	-56.3	-65.6	5.9	3.98e-01	0	22	0	5242880	78	10753
2026-01-10 01:26:23.97	27.15	4.23	-56.2	-64.7	6.5	2.41e-01	0	22	0	6291456	78	9641
2026-01-10 01:26:24.96	27.13	4.30	-56.0	-63.7	7.4	1.31e-01	0	22	0	8388608	78	8581
2026-01-10 01:26:25.96	27.11	4.37	-55.9	-63.0	8.0	5.44e-02	0	22	0	10485760	78	7965
2026-01-10 01:26:26.96	27.09	4.44	-55.9	-63.1	7.9	4.86e-02	0	22	0	12582912	78	8057
2026-01-10 01:26:27.96	27.07	4.51	-55.8	-62.6	8.4	3.70e-02	0	22	0	13631488	78	7569
2026-01-10 01:26:28.96	27.05	4.58	-55.8	-62.6	8.4	2.68e-02	0	22	0	15728640	78	7556
2026-01-10 01:26:29.95	27.03	4.65	-55.8	-62.4	8.5	2.75e-02	0	22	0	17825792	78	7453
2026-01-10 01:26:30.96	27.01	4.72	-55.8	-62.6	8.4	3.03e-02	0	22	0	19922944	78	7602
2026-01-10 01:26:31.95	27.00	4.79	-55.8	-62.6	8.5	1.97e-02	0	22	0	22020096	78	7562
2026-01-10 01:26:32.95	26.98	4.86	-55.9	-62.9	8.2	3.10e-02	0	22	0	23068672	78	7820
2026-01-10 01:26:33.94	26.96	4.93	-56.0	-63.6	7.6	6.17e-02	0	22	0	25165824	78	8472
2026-01-10 01:26:34.94	26.94	5.00	-56.1	-64.0	7.2	8.13e-02	0	22	0	27262976	78	8869
2026-01-10 01:26:35.94	26.92	5.07	-55.9	-61.6	9.6	4.16e-02	0	22	0	29360128	77	7190
2026-01-10 01:26:36.94	26.90	5.14	-54.9	-59.4	11.3	1.44e-05	0	22	0	31457280	75	6219
2026-01-10 01:26:37.93	26.88	5.21	-56.6	-67.7	4.8	1.18e-01	0	22	0	32505856	78	13640
2026-01-10 01:26:38.93	26.86	5.28	-54.1	-57.4	12.8	1.77e-01	0	22	0	34603008	74	5253
2026-01-10 01:26:39.92	26.84	5.35	-56.6	-67.1	5.1	0.00e+00	0	22	0	36700160	78	12790
2026-01-10 01:26:40.92	26.82	5.42	-53.8	-56.9	13.2	1.72e-02	0	22	0	38797312	74	4972
2026-01-10 01:26:41.92	26.80	5.50	-53.8	-56.9	13.3	0.00e+00	0	22	0	39845888	74	4946
2026-01-10 01:26:42.92	26.78	5.57	-53.7	-56.9	13.3	0.00e+00	0	22	0	41943040	74	4932
2026-01-10 01:26:43.92	26.76	5.64	-53.5	-56.4	13.5	0.00e+00	0	22	0	44040192	73	4981
2026-01-10 01:26:44.93	26.74	5.71	-53.2	-55.9	13.9	0.00e+00	0	22	0	46137344	73	4671
2026-01-10 01:26:45.93	26.72	5.78	-53.0	-55.6	13.9	0.00e+00	0	22	0	48234496	72	4814
2026-01-10 01:26:46.93	26.70	5.86	-52.9	-55.5	14.1	0.00e+00	0	22	0	49283072	72	4714
2026-01-10 01:26:47.93	26.67	5.93	-52.8	-55.4	14.1	0.00e+00	0	22	0	51380224	72	4670
2026-01-10 01:26:48.93	26.65	6.00	-53.0	-55.6	13.9	0.00e+00	0	22	0	53477376	72	4814
2026-01-10 01:26:49.93	26.63	6.08	-52.8	-55.3	14.2	0.00e+00	0	22	0	55574528	72	4614
2026-01-10 01:26:50.92	26.61	6.15	-52.7	-55.2	14.3	0.00e+00	0	22	0	56623104	72	4577
2026-01-10 01:26:51.91	26.59	6.22	-52.8	-55.4	14.1	0.00e+00	0	23	0	58720256	72	4652
2026-01-10 01:26:52.91	26.57	6.30	-52.8	-55.3	14.2	0.00e+00	0	22	0	60817408	72	4646
2026-01-10 01:26:53.91	26.55	6.37	-52.9	-55.4	14.1	0.00e+00	0	22	0	62914560	72	4674
2026-01-10 01:26:54.91	26.52	6.45	-52.7	-55.1	14.3	0.00e+00	0	22	0	65011712	72	4523
2026-01-10 01:26:55.91	26.50	6.52	-52.8	-55.2	14.3	0.00e+00	0	23	0	66060288	72	4575
2026-01-10 01:26:56.91	26.48	6.59	-52.7	-55.2	14.3	0.00e+00	0	22	0	68157440	72	4549
2026-01-10 01:26:57.91	26.46	6.67	-52.6	-55.0	14.3	0.00e+00	0	23	0	70254592	71	4713
2026-01-10 01:26:58.91	26.44	6.75	-52.5	-54.8	14.4	0.00e+00	0	23	0	72351744	71	4633
2026-01-10 01:26:59.90	26.41	6.82	-52.6	-54.9	14.3	0.00e+00	0	23	0	74448896	71	4677
2026-01-10 01:27:00.90	26.39	6.90	-52.6	-54.9	14.3	0.00e+00	0	23	0	75497472	71	4695
2026-01-10 01:27:01.89	26.37	6.97	-52.5	-54.8	14.4	0.00e+00	0	23	0	77594624	71	4617
2026-01-10 01:27:02.90	26.34	7.05	-52.5	-54.9	14.3	0.00e+00	0	23	0	79691776	71	4672
2026-01-10 01:27:03.90	26.32	7.12	-52.4	-54.7	14.4	0.00e+00	0	23	0	81788928	71	4593
2026-01-10 01:27:04.90	26.30	7.20	-52.4	-54.7	14.5	0.00e+00	0	23	0	83886080	71	4552
2026-01-10 01:27:05.90	26.27	7.28	-52.4	-54.7	14.5	0.00e+00	0	23	0	84934656	71	4552
2026-01-10 01:27:06.91	26.25	7.35	-52.3	-54.6	14.5	0.00e+00	0	23	0	87031808	71	4512
2026-01-10 01:27:07.90	26.23	7.43	-52.3	-54.5	14.6	0.00e+00	0	23	0	89128960	71	4490
2026-01-10 01:27:08.90	26.20	7.51	-52.3	-54.5	14.6	0.00e+00	0	23	0	91226112	71	4489
2026-01-10 01:27:09.90	26.18	7.59	-52.3	-54.5	14.6	0.00e+00	0	23	0	92274688	71	4462
2026-01-10 01:27:10.91	26.15	7.66	-52.2	-54.4	14.7	0.00e+00	0	23	0	94371840	71	4425
2026-01-10 01:27:11.91	26.13	7.74	-52.2	-54.3	14.7	0.00e+00	0	23	0	96468992	71	4379
2026-01-10 01:27:12.90	26.11	7.82	-52.2	-54.4	14.5	0.00e+00	0	23	0	98566144	70	4685
2026-01-10 01:27:13.90	26.08	7.90	-52.3	-54.4	14.5	0.00e+00	0	23	0	100663296	70	4704
2026-01-10 01:27:14.90	26.06	7.98	-52.3	-54.5	14.4	0.00e+00	0	23	0	101711872	70	4718
2026-01-10 01:27:15.90	26.03	8.06	-52.2	-54.4	14.5	0.00e+00	0	23	0	103809024	70	4660
2026-01-10 01:27:16.90	26.01	8.14	-52.2	-54.4	14.5	0.00e+00	0	23	0	105906176	70	4654
2026-01-10 01:27:17.89	25.98	8.22	-52.2	-54.3	14.6	0.00e+00	0	23	0	108003328	70	4635
2026-01-10 01:27:18.89	25.96	8.30	-52.1	-54.3	14.6	0.00e+00	0	23	0	110100480	70	4604
2026-01-10 01:27:19.89	25.93	8.38	-52.0	-54.1	14.7	0.00e+00	0	23	0	111149056	70	4529
2026-01-10 01:27:20.89	25.90	8.46	-52.0	-54.1	14.7	0.00e+00	0	23	0	113246208	70	4524
2026-01-10 01:27:21.89	25.88	8.54	-52.0	-54.1	14.7	0.00e+00	0	23	0	115343360	70	4499
2026-01-10 01:27:22.90	25.85	8.62	-52.0	-54.0	14.8	0.00e+00	0	23	0	117440512	70	4484
2026-01-10 01:27:23.90	25.83	8.70	-52.0	-54.0	14.7	0.00e+00	0	23	0	119537664	70	4481
2026-01-10 01:27:24.89	25.80	8.78	-51.9	-54.0	14.8	0.00e+00	0	23	0	120586240	70	4463
2026-01-10 01:27:25.88	25.77	8.86	-51.9	-54.0	14.8	0.00e+00	0	23	0	122683392	70	4453
2026-01-10 01:27:26.88	25.75	8.94	-52.1	-54.1	14.7	0.00e+00	0	23	0	124780544	70	4536
2026-01-10 01:27:27.88	25.72	9.02	-52.1	-54.1	14.7	0.00e+00	0	23	0	126877696	70	4535
2026-01-10 01:27:28.87	25.69	9.11	-52.2	-54.3	14.6	0.00e+00	0	23	0	127926272	70	4647
2026-01-10 01:27:29.87	25.66	9.19	-52.0	-54.0	14.8	0.00e+00	0	23	0	130023424	70	4484
2026-01-10 01:27:30.87	25.64	9.27	-51.9	-53.9	14.9	0.00e+00	0	23	0	132120576	70	4411
2026-01-10 01:27:31.86	25.61	9.35	-51.8	-53.8	14.9	0.00e+00	0	23	0	134217728	70	4366
2026-01-10 01:27:32.86	25.58	9.44	-51.8	-53.8	14.9	0.00e+00	0	23	0	136314880	70	4381
2026-01-10 01:27:33.86	25.55	9.52	-52.0	-54.0	14.8	0.00e+00	0	23	0	137363456	70	4459
2026-01-10 01:27:34.86	25.53	9.60	-51.8	-53.8	14.9	0.00e+00	0	23	0	139460608	70	4343
2026-01-10 01:27:35.85	25.50	9.69	-51.8	-53.8	14.9	0.00e+00	0	23	0	141557760	70	4374
2026-01-10 01:27:36.85	25.47	9.77	-51.8	-53.8	14.9	0.00e+00	0	23	0	143654912	70	4359
2026-01-10 01:27:37.84	25.44	9.86	-51.7	-53.7	15.0	0.00e+00	0	23	0	144703488	70	4302
2026-01-10 01:27:38.85	25.41	9.94	-51.8	-53.8	15.0	0.00e+00	0	23	0	146800640	70	4350
2026-01-10 01:27:39.85	25.38	10.03	-51.7	-53.7	15.0	0.00e+00	0	23	0	148897792	70	4302
2026-01-10 01:27:40.85	25.35	10.11	-51.8	-53.8	14.9	0.00e+00	0	23	0	150994944	70	4350
2026-01-10 01:27:41.85	25.32	10.20	-51.7	-53.6	15.0	0.00e+00	0	23	0	153092096	70	4286
2026-01-10 01:27:42.85	25.29	10.29	-51.5	-53.4	15.0	0.00e+00	0	23	0	154140672	69	4405
2026-01-10 01:27:43.86	25.26	10.37	-51.5	-53.4	15.0	0.00e+00	0	23	0	156237824	69	4423
2026-01-10 01:27:44.85	25.23	10.46	-51.6	-53.5	14.9	0.00e+00	0	23	0	158334976	69	4476
2026-01-10 01:27:45.85	25.20	10.55	-51.6	-53.5	14.9	0.00e+00	0	23	0	160432128	69	4472
2026-01-10 01:27:46.86	25.17	10.63	-51.5	-53.4	15.0	0.00e+00	0	23	0	162529280	69	4402
2026-01-10 01:27:47.86	25.14	10.72	-51.4	-53.2	15.1	0.00e+00	0	23	0	163577856	69	4340
2026-01-10 01:27:48.86	25.11	10.81	-51.4	-53.2	15.1	0.00e+00	0	23	0	165675008	69	4315
2026-01-10 01:27:49.87	25.08	10.90	-51.4	-53.3	15.1	0.00e+00	0	23	0	167772160	69	4350
2026-01-10 01:27:50.87	25.05	10.99	-51.4	-53.2	15.1	0.00e+00	0	23	0	169869312	69	4324
2026-01-10 01:27:51.88	25.02	11.08	-51.4	-53.3	15.1	0.00e+00	0	23	0	170917888	69	4349
2026-01-10 01:27:52.87	24.98	11.17	-51.3	-53.1	15.1	0.00e+00	0	23	0	173015040	69	4285
2026-01-10 01:27:53.87	24.95	11.26	-51.4	-53.3	15.1	0.00e+00	0	23	0	175112192	69	4342
2026-01-10 01:27:54.86	24.92	11.34	-51.3	-53.1	15.2	0.00e+00	0	23	0	177209344	69	4247
2026-01-10 01:27:55.86	24.89	11.43	-51.2	-53.0	15.2	0.00e+00	0	23	0	179306496	69	4223
2026-01-10 01:27:56.86	24.85	11.53	-51.3	-53.1	15.2	0.00e+00	0	23	0	180355072	69	4261
2026-01-10 01:27:57.85	24.82	11.62	-51.3	-53.1	15.2	0.00e+00	0	23	0	182452224	69	4247
2026-01-10 01:27:58.85	24.79	11.71	-51.2	-53.0	15.2	0.00e+00	0	23	0	184549376	69	4222
2026-01-10 01:27:59.85	24.75	11.80	-51.2	-53.0	15.2	0.00e+00	0	23	0	186646528	69	4216
2026-01-10 01:28:00.85	24.72	11.89	-51.2	-53.0	15.2	0.00e+00	0	23	0	188743680	69	4233
2026-01-10 01:28:01.85	24.69	11.98	-51.2	-53.0	15.2	0.00e+00	0	23	0	189792256	69	4233
2026-01-10 01:28:02.85	24.65	12.07	-51.2	-53.0	15.3	0.00e+00	0	23	0	191889408	69	4199
2026-01-10 01:28:03.84	24.62	12.17	-51.0	-52.8	15.2	0.00e+00	0	23	0	193986560	68	4360
2026-01-10 01:28:04.84	24.58	12.26	-51.1	-52.9	15.1	0.00e+00	0	23	0	196083712	68	4393
2026-01-10 01:28:05.84	24.55	12.35	-51.0	-52.8	15.2	0.00e+00	0	23	0	198180864	68	4342
2026-01-10 01:28:06.85	24.51	12.45	-51.0	-52.8	15.2	0.00e+00	0	23	0	199229440	68	4357
2026-01-10 01:28:07.85	24.48	12.54	-51.1	-52.8	15.1	0.00e+00	0	23	0	201326592	68	4382
2026-01-10 01:28:08.85	24.44	12.64	-51.0	-52.8	15.2	0.00e+00	0	23	0	203423744	68	4348
2026-01-10 01:28:09.85	24.41	12.73	-51.1	-52.9	15.1	0.00e+00	0	23	0	205520896	68	4413
2026-01-10 01:28:10.85	24.37	12.83	-51.0	-52.8	15.2	0.00e+00	0	23	0	206569472	68	4356
2026-01-10 01:28:11.85	24.33	12.92	-51.0	-52.7	15.2	0.00e+00	0	23	0	208666624	68	4323
2026-01-10 01:28:12.85	24.30	13.02	-50.9	-52.7	15.2	0.00e+00	0	23	0	210763776	68	4295
2026-01-10 01:28:13.85	24.26	13.12	-50.9	-52.6	15.3	0.00e+00	0	23	0	212860928	68	4253
2026-01-10 01:28:14.85	24.22	13.21	-50.9	-52.6	15.3	0.00e+00	0	23	0	214958080	68	4263
2026-01-10 01:28:15.84	24.19	13.31	-50.9	-52.6	15.2	0.00e+00	0	23	0	216006656	68	4283
2026-01-10 01:28:16.84	24.15	13.41	-50.9	-52.5	15.3	0.00e+00	0	23	0	218103808	68	4240
2026-01-10 01:28:17.84	24.11	13.50	-50.9	-52.6	15.3	0.00e+00	0	23	0	220200960	68	4243
2026-01-10 01:28:18.84	24.07	13.60	-50.9	-52.5	15.3	0.00e+00	0	23	0	222298112	68	4233
2026-01-10 01:28:19.84	24.03	13.70	-50.9	-52.6	15.3	0.00e+00	0	23	0	224395264	68	4258
2026-01-10 01:28:20.83	24.00	13.80	-50.8	-52.5	15.3	0.00e+00	0	23	0	225443840	68	4234
2026-01-10 01:28:21.84	23.96	13.90	-50.8	-52.5	15.3	0.00e+00	0	23	0	227540992	68	4233
2026-01-10 01:28:22.83	23.92	14.00	-50.8	-52.5	15.3	0.00e+00	0	23	0	229638144	68	4231
2026-01-10 01:28:23.82	23.88	14.10	-50.8	-52.5	15.3	0.00e+00	0	23	0	231735296	68	4216
2026-01-10 01:28:24.82	23.84	14.20	-50.8	-52.5	15.3	0.00e+00	0	23	0	232783872	68	4223
2026-01-10 01:28:25.82	23.80	14.30	-50.8	-52.5	15.3	0.00e+00	0	23	0	234881024	68	4215
2026-01-10 01:28:26.82	23.76	14.40	-50.8	-52.5	15.3	0.00e+00	0	23	0	236978176	68	4231
2026-01-10 01:28:27.82	23.72	14.50	-51.0	-52.7	15.2	0.00e+00	0	23	0	239075328	68	4314
2026-01-10 01:28:28.81	23.67	14.60	-50.8	-52.5	15.3	0.00e+00	0	23	0	241172480	68	4231
2026-01-10 01:28:29.81	23.63	14.71	-50.8	-52.4	15.4	0.00e+00	0	23	0	242221056	68	4168
2026-01-10 01:28:30.81	23.59	14.81	-50.8	-52.4	15.4	0.00e+00	0	23	0	244318208	68	4192
2026-01-10 01:28:31.79	23.55	14.91	-50.8	-52.4	15.4	0.00e+00	0	23	0	246415360	68	4172
2026-01-10 01:28:32.78	23.51	15.01	-50.8	-52.5	15.4	0.00e+00	0	23	0	248512512	68	4201
2026-01-10 01:28:33.78	23.46	15.12	-50.9	-52.6	15.3	0.00e+00	0	23	0	249561088	68	4249
2026-01-10 01:28:34.77	23.42	15.22	-50.7	-52.4	15.4	0.00e+00	0	23	0	251658240	68	4161
2026-01-10 01:28:35.77	23.38	15.33	-50.8	-52.5	15.3	0.00e+00	0	23	0	253755392	68	4198
2026-01-10 01:28:36.77	23.33	15.43	-50.8	-52.4	15.3	0.00e+00	0	23	0	255852544	68	4185
2026-01-10 01:28:37.76	23.29	15.54	-50.7	-52.4	15.4	0.00e+00	0	23	0	257949696	68	4160
2026-01-10 01:28:38.76	23.25	15.64	-50.8	-52.5	15.3	0.00e+00	0	23	0	258998272	68	4209
2026-01-10 01:28:39.77	23.20	15.75	-50.9	-52.5	15.3	0.00e+00	0	23	0	261095424	68	4234
2026-01-10 01:28:40.78	23.15	15.86	-50.8	-52.5	15.3	0.00e+00	0	23	0	263192576	68	4225
2026-01-10 01:28:41.78	23.11	15.97	-50.7	-52.4	15.4	0.00e+00	0	23	0	265289728	68	4153
2026-01-10 01:28:42.77	23.06	16.08	-50.5	-52.1	15.4	0.00e+00	0	23	0	266338304	67	4281
2026-01-10 01:28:43.78	23.02	16.19	-50.5	-52.2	15.3	0.00e+00	0	23	0	268435456	67	4298
2026-01-10 01:28:44.77	22.97	16.29	-50.5	-52.1	15.3	0.00e+00	0	23	0	270532608	67	4287
2026-01-10 01:28:45.77	22.92	16.40	-50.6	-52.2	15.3	0.00e+00	0	23	0	272629760	67	4321
2026-01-10 01:28:46.78	22.88	16.51	-50.6	-52.2	15.3	0.00e+00	0	23	0	274726912	67	4313
2026-01-10 01:28:47.78	22.83	16.63	-50.5	-52.1	15.3	0.00e+00	0	23	0	275775488	67	4273
2026-01-10 01:28:48.78	22.78	16.74	-50.5	-52.2	15.3	0.00e+00	0	23	0	277872640	67	4306
2026-01-10 01:28:49.78	22.73	16.85	-50.5	-52.1	15.3	0.00e+00	0	23	0	279969792	67	4267
2026-01-10 01:28:50.77	22.68	16.96	-50.4	-52.0	15.4	0.00e+00	0	23	0	282066944	67	4225
2026-01-10 01:28:51.77	22.63	17.07	-50.5	-52.1	15.3	0.00e+00	0	23	0	284164096	67	4271
2026-01-10 01:28:52.76	22.58	17.18	-50.4	-52.0	15.4	0.00e+00	0	23	0	285212672	67	4224
2026-01-10 01:28:53.76	22.53	17.30	-50.3	-51.9	15.5	0.00e+00	0	23	0	287309824	67	4162
2026-01-10 01:28:54.76	22.48	17.41	-50.4	-51.9	15.4	0.00e+00	0	23	0	289406976	67	4190
2026-01-10 01:28:55.76	22.43	17.53	-50.4	-51.9	15.4	0.00e+00	0	23	0	291504128	67	4193
2026-01-10 01:28:56.75	22.38	17.64	-50.4	-52.0	15.4	0.00e+00	0	23	0	293601280	67	4224
2026-01-10 01:28:57.74	22.33	17.75	-50.4	-52.0	15.4	0.00e+00	0	23	0	294649856	67	4222
2026-01-10 01:28:58.74	22.28	17.87	-50.4	-52.0	15.4	0.00e+00	0	23	0	296747008	67	4224
2026-01-10 01:28:59.74	22.23	17.99	-50.4	-52.1	15.4	0.00e+00	0	23	0	298844160	67	4243
2026-01-10 01:29:00.74	22.17	18.10	-50.4	-52.0	15.4	0.00e+00	0	23	0	300941312	67	4195
2026-01-10 01:29:01.74	22.12	18.22	-50.4	-52.0	15.4	0.00e+00	0	23	0	301989888	67	4231
2026-01-10 01:29:02.73	22.07	18.34	-50.5	-52.1	15.3	0.00e+00	0	23	0	304087040	67	4285
2026-01-10 01:29:03.73	22.01	18.46	-50.6	-52.2	15.3	0.00e+00	0	23	0	306184192	67	4309
2026-01-10 01:29:04.73	21.96	18.58	-50.3	-51.9	15.4	0.00e+00	0	23	0	308281344	67	4177
2026-01-10 01:29:05.72	21.90	18.70	-50.4	-52.0	15.4	0.00e+00	0	23	0	310378496	67	4195
2026-01-10 01:29:06.72	21.85	18.82	-50.4	-52.0	15.4	0.00e+00	0	23	0	311427072	67	4220
2026-01-10 01:29:07.72	21.79	18.94	-50.5	-52.1	15.3	0.00e+00	0	23	0	313524224	67	4256
2026-01-10 01:29:08.73	21.73	19.06	-50.3	-51.9	15.4	0.00e+00	0	23	0	315621376	67	4183
2026-01-10 01:29:09.73	21.67	19.18	-50.4	-52.0	15.4	0.00e+00	0	23	0	317718528	67	4194
2026-01-10 01:29:10.73	21.62	19.31	-50.4	-52.0	15.4	0.00e+00	0	23	0	319815680	67	4197
2026-01-10 01:29:11.73	21.56	19.43	-50.4	-52.0	15.4	0.00e+00	0	23	0	320864256	67	4233
2026-01-10 01:29:12.72	21.50	19.55	-50.4	-52.0	15.4	0.00e+00	0	23	0	322961408	67	4225
2026-01-10 01:29:13.72	21.44	19.68	-50.4	-52.0	15.4	0.00e+00	0	23	0	325058560	67	4224
2026-01-10 01:29:14.73	21.38	19.80	-50.5	-52.1	15.3	0.00e+00	0	23	0	327155712	67	4261
2026-01-10 01:29:15.72	21.32	19.93	-50.5	-52.1	15.3	0.00e+00	0	23	0	328204288	67	4279
2026-01-10 01:29:16.72	21.26	20.05	-50.5	-52.1	15.3	0.00e+00	0	23	0	330301440	67	4274
2026-01-10 01:29:17.72	21.20	20.18	-50.4	-52.0	15.4	0.00e+00	0	23	0	332398592	67	4218
2026-01-10 01:29:18.72	21.14	20.31	-50.4	-52.0	15.4	0.00e+00	0	23	0	334495744	67	4236
2026-01-10 01:29:19.72	21.07	20.44	-50.5	-52.1	15.4	0.00e+00	0	23	0	336592896	67	4251
2026-01-10 01:29:20.72	21.01	20.56	-50.4	-52.0	15.4	0.00e+00	0	23	0	337641472	67	4197
2026-01-10 01:29:21.72	20.95	20.69	-50.3	-51.9	15.4	0.00e+00	0	23	0	339738624	67	4175
2026-01-10 01:29:22.72	20.88	20.82	-50.4	-51.9	15.4	0.00e+00	0	23	0	341835776	67	4181
2026-01-10 01:29:23.71	20.82	20.95	-50.4	-52.0	15.4	0.00e+00	0	23	0	343932928	67	4210
2026-01-10 01:29:24.71	20.75	21.08	-50.3	-51.9	15.4	0.00e+00	0	23	0	346030080	67	4164
2026-01-10 01:29:25.71	20.69	21.22	-50.2	-51.8	15.5	0.00e+00	0	23	0	347078656	67	4109
2026-01-10 01:29:26.70	20.62	21.35	-50.3	-51.9	15.5	0.00e+00	0	23	0	349175808	67	4166
2026-01-10 01:29:27.69	20.56	21.48	-50.4	-52.0	15.4	0.00e+00	0	23	0	351272960	67	4194
2026-01-10 01:29:28.68	20.49	21.61	-50.3	-51.8	15.5	0.00e+00	0	23	0	353370112	67	4132
2026-01-10 01:29:29.68	20.42	21.75	-50.2	-51.7	15.5	0.00e+00	0	23	0	354418688	67	4094
2026-01-10 01:29:30.68	20.35	21.88	-50.2	-51.7	15.5	0.00e+00	0	23	0	356515840	67	4095
2026-01-10 01:29:31.68	20.28	22.02	-50.2	-51.7	15.4	0.00e+00	0	23	0	358612992	66	4316
2026-01-10 01:29:32.68	20.21	22.15	-50.2	-51.7	15.4	0.00e+00	0	23	0	360710144	66	4310
2026-01-10 01:29:33.67	20.14	22.29	-50.1	-51.6	15.4	0.00e+00	0	23	0	362807296	66	4274
2026-01-10 01:29:34.67	20.07	22.43	-50.1	-51.7	15.4	0.00e+00	0	23	0	363855872	66	4305
2026-01-10 01:29:35.67	20.00	22.57	-50.2	-51.7	15.4	0.00e+00	0	23	0	365953024	66	4331
2026-01-10 01:29:36.66	19.92	22.70	-50.2	-51.7	15.4	0.00e+00	0	23	0	368050176	66	4328
2026-01-10 01:29:37.66	19.85	22.84	-50.2	-51.8	15.3	0.00e+00	0	23	0	370147328	66	4354
2026-01-10 01:29:38.65	19.78	22.98	-50.2	-51.8	15.3	0.00e+00	0	23	0	371195904	66	4344
2026-01-10 01:29:39.65	19.70	23.13	-50.4	-51.9	15.3	0.00e+00	0	23	0	373293056	66	4435
2026-01-10 01:29:40.65	19.63	23.27	-50.3	-51.9	15.3	0.00e+00	0	23	0	375390208	66	4392
2026-01-10 01:29:41.65	19.55	23.41	-50.3	-51.9	15.3	0.00e+00	0	23	0	377487360	66	4402
2026-01-10 01:29:42.65	19.47	23.55	-50.4	-52.0	15.2	0.00e+00	0	23	0	379584512	66	4455
2026-01-10 01:29:43.64	19.40	23.70	-50.5	-52.1	15.2	0.00e+00	0	23	0	380633088	66	4514
2026-01-10 01:29:44.64	19.32	23.84	-50.5	-52.1	15.2	0.00e+00	0	23	0	382730240	66	4512
2026-01-10 01:29:45.64	19.24	23.99	-50.6	-52.3	15.1	0.00e+00	0	23	0	384827392	66	4604
2026-01-10 01:29:46.64	19.16	24.13	-50.7	-52.3	15.1	0.00e+00	0	23	0	386924544	66	4643
2026-01-10 01:29:47.64	19.08	24.28	-50.8	-52.4	15.0	0.00e+00	0	23	0	389021696	66	4697
2026-01-10 01:29:48.63	19.00	24.43	-50.8	-52.4	15.0	0.00e+00	0	23	0	390070272	66	4701
2026-01-10 01:29:49.64	18.91	24.58	-50.9	-52.6	15.0	0.00e+00	0	23	0	392167424	66	4770
2026-01-10 01:29:50.64	18.83	24.73	-50.9	-52.6	15.0	0.00e+00	0	23	0	394264576	66	4775
2026-01-10 01:29:51.64	18.74	24.88	-51.0	-52.7	15.1	0.00e+00	0	23	0	396361728	67	4559
2026-01-10 01:29:52.63	18.66	25.03	-51.0	-52.7	15.0	0.00e+00	0	23	0	397410304	67	4589
2026-01-10 01:29:53.63	18.57	25.18	-51.1	-52.8	15.0	0.00e+00	0	23	0	399507456	67	4638
2026-01-10 01:29:54.64	18.49	25.34	-51.2	-52.9	14.9	0.00e+00	0	23	0	401604608	67	4687
2026-01-10 01:29:55.63	18.40	25.49	-51.2	-53.0	14.9	0.00e+00	0	23	0	403701760	67	4721
2026-01-10 01:29:56.63	18.31	25.64	-51.3	-53.1	14.9	0.00e+00	0	23	0	405798912	67	4766
2026-01-10 01:29:57.62	18.22	25.80	-51.3	-53.1	14.8	0.00e+00	0	23	0	406847488	67	4806
2026-01-10 01:29:58.62	18.13	25.95	-51.7	-53.5	14.9	0.00e+00	0	23	0	408944640	68	4721
2026-01-10 01:29:59.62	18.04	26.11	-51.8	-53.6	14.8	0.00e+00	0	23	0	411041792	68	4798
2026-01-10 01:30:00.62	17.95	26.27	-51.8	-53.6	14.8	0.00e+00	0	23	0	413138944	68	4789
2026-01-10 01:30:01.62	17.85	26.43	-51.9	-53.8	14.7	0.00e+00	0	23	0	414187520	68	4893
2026-01-10 01:30:02.62	17.76	26.59	-52.0	-53.9	14.8	0.00e+00	0	23	0	416284672	69	4680
2026-01-10 01:30:03.62	17.66	26.75	-52.2	-54.1	14.7	0.00e+00	0	23	0	418381824	69	4792
2026-01-10 01:30:04.61	17.57	26.91	-52.2	-54.2	14.7	0.00e+00	0	23	0	420478976	69	4825
2026-01-10 01:30:05.61	17.47	27.07	-52.3	-54.3	14.6	0.00e+00	0	23	0	422576128	69	4919
2026-01-10 01:30:06.60	17.37	27.23	-52.5	-54.5	14.6	0.00e+00	0	23	0	423624704	70	4754
2026-01-10 01:30:07.60	17.28	27.39	-52.7	-54.8	14.5	0.00e+00	0	23	0	425721856	70	4879
2026-01-10 01:30:08.60	17.17	27.56	-52.8	-55.0	14.4	0.00e+00	0	23	0	427819008	70	4997
2026-01-10 01:30:09.61	17.07	27.72	-53.0	-55.2	14.4	0.00e+00	0	23	0	429916160	71	4829
2026-01-10 01:30:10.61	16.97	27.89	-53.1	-55.3	14.4	0.00e+00	0	23	0	432013312	71	4921
2026-01-10 01:30:11.60	16.87	28.06	-53.2	-55.5	14.2	0.00e+00	0	23	0	433061888	71	5023
2026-01-10 01:30:12.60	16.76	28.23	-53.3	-55.6	14.2	0.00e+00	0	23	0	435159040	71	5047
2026-01-10 01:30:13.60	16.66	28.39	-53.4	-55.7	14.2	0.00e+00	0	23	0	437256192	71	5124
2026-01-10 01:30:14.60	16.55	28.56	-53.3	-55.5	14.2	0.00e+00	0	23	0	439353344	71	5031
2026-01-10 01:30:15.59	16.44	28.73	-53.3	-55.6	14.2	0.00e+00	0	23	0	441450496	71	5077
2026-01-10 01:30:16.60	16.33	28.91	-53.5	-55.9	14.2	0.00e+00	0	23	0	442499072	72	4940
2026-01-10 01:30:17.60	16.22	29.08	-53.6	-56.0	14.1	0.00e+00	0	23	0	444596224	72	4986
2026-01-10 01:30:18.60	16.11	29.25	-53.7	-56.2	14.0	0.00e+00	0	23	0	446693376	72	5112
2026-01-10 01:30:19.62	15.99	29.43	-53.7	-56.1	14.0	0.00e+00	0	23	0	448790528	72	5086
2026-01-10 01:30:20.62	15.88	29.61	-53.8	-56.3	13.9	0.00e+00	0	23	0	449839104	72	5166
2026-01-10 01:30:21.61	15.76	29.78	-54.0	-56.5	13.9	0.00e+00	0	23	0	451936256	73	5034
2026-01-10 01:30:22.61	15.65	29.96	-54.0	-56.6	13.9	0.00e+00	0	23	0	454033408	73	5057
2026-01-10 01:30:23.60	15.53	30.14	-53.9	-56.4	14.0	0.00e+00	0	23	0	456130560	73	4983
2026-01-10 01:30:24.60	15.41	30.32	-54.0	-56.5	13.9	0.00e+00	0	23	0	458227712	73	5037
2026-01-10 01:30:25.59	15.29	30.50	-53.9	-56.4	14.0	0.00e+00	0	23	0	459276288	73	4969
2026-01-10 01:30:26.59	15.17	30.68	-53.8	-56.3	14.1	0.00e+00	0	23	0	461373440	73	4871
2026-01-10 01:30:27.59	15.04	30.86	-53.9	-56.3	14.0	0.00e+00	0	23	0	463470592	73	4919
2026-01-10 01:30:28.58	14.92	31.04	-53.9	-56.3	14.0	0.00e+00	0	23	0	465567744	73	4918
2026-01-10 01:30:29.59	14.79	31.23	-53.8	-56.3	14.1	0.00e+00	0	23	0	466616320	73	4897
2026-01-10 01:30:30.59	14.66	31.42	-53.9	-56.5	14.0	0.00e+00	0	23	0	468713472	73	4992
2026-01-10 01:30:31.58	14.53	31.60	-54.0	-56.5	13.9	0.00e+00	0	23	0	470810624	73	5040
2026-01-10 01:30:32.58	14.40	31.79	-54.1	-56.7	13.8	0.00e+00	0	23	0	472907776	73	5138
2026-01-10 01:30:33.57	14.27	31.97	-54.1	-56.7	13.8	0.00e+00	0	23	0	475004928	73	5111
2026-01-10 01:30:34.57	14.13	32.16	-54.1	-56.8	13.8	0.00e+00	0	23	0	476053504	73	5165
2026-01-10 01:30:35.57	14.00	32.35	-54.1	-56.8	13.8	0.00e+00	0	23	0	478150656	73	5170
2026-01-10 01:30:36.57	13.86	32.55	-54.2	-56.9	13.7	0.00e+00	0	23	0	480247808	73	5253
2026-01-10 01:30:37.57	13.72	32.74	-54.1	-56.7	13.8	0.00e+00	0	23	0	482344960	73	5124
2026-01-10 01:30:38.57	13.58	32.93	-54.0	-56.6	13.9	0.00e+00	0	23	0	484442112	73	5051
2026-01-10 01:30:39.57	13.43	33.13	-54.1	-56.7	13.8	0.00e+00	0	23	0	485490688	73	5103
2026-01-10 01:30:40.57	13.29	33.32	-54.1	-56.6	13.8	0.00e+00	0	23	0	487587840	73	5098
2026-01-10 01:30:41.57	13.14	33.52	-54.0	-56.6	13.8	0.00e+00	0	23	0	489684992	73	5055
2026-01-10 01:30:42.56	13.00	33.72	-54.1	-56.7	13.8	0.00e+00	0	23	0	491782144	73	5145
2026-01-10 01:30:43.56	12.84	33.92	-54.0	-56.5	13.9	0.00e+00	0	23	0	492830720	73	5026
2026-01-10 01:30:44.56	12.69	34.12	-54.0	-56.5	13.9	0.00e+00	0	23	0	494927872	73	5033
2026-01-10 01:30:45.55	12.54	34.32	-54.1	-56.7	13.8	0.00e+00	0	23	0	497025024	73	5110
2026-01-10 01:30:46.56	12.38	34.52	-54.2	-56.8	13.8	0.00e+00	0	23	0	499122176	73	5201
2026-01-10 01:30:47.55	12.23	34.72	-54.2	-56.9	13.7	0.00e+00	0	23	0	501219328	73	5243
2026-01-10 01:30:48.56	12.06	34.93	-54.2	-56.9	13.7	0.00e+00	0	23	0	502267904	73	5233
2026-01-10 01:30:49.56	11.90	35.13	-54.5	-57.3	13.6	0.00e+00	0	23	0	504365056	74	5172
2026-01-10 01:30:50.56	11.74	35.34	-54.5	-57.3	13.6	0.00e+00	0	23	0	506462208	74	5164
2026-01-10 01:30:51.56	11.57	35.55	-54.5	-57.3	13.6	0.00e+00	0	23	0	508559360	74	5184
2026-01-10 01:30:52.56	11.40	35.76	-54.5	-57.2	13.6	0.00e+00	0	23	0	510656512	74	5159
2026-01-10 01:30:53.55	11.23	35.96	-54.4	-57.1	13.7	0.00e+00	0	23	0	511705088	74	5054
2026-01-10 01:30:54.56	11.06	36.18	-54.1	-56.7	14.0	0.00e+00	0	23	0	513802240	74	4833
2026-01-10 01:30:55.56	10.88	36.39	-54.1	-56.6	14.1	0.00e+00	0	23	0	515899392	74	4782
2026-01-10 01:30:56.55	10.70	36.60	-54.0	-56.5	14.1	0.00e+00	0	23	0	517996544	74	4752
2026-01-10 01:30:57.55	10.52	36.81	-53.9	-56.3	14.2	0.00e+00	0	23	0	519045120	74	4649
2026-01-10 01:30:58.54	10.34	37.03	-53.8	-56.2	14.3	0.00e+00	0	23	0	521142272	74	4552
2026-01-10 01:30:59.53	10.16	37.24	-53.5	-55.7	14.5	0.00e+00	0	23	0	523239424	73	4576
2026-01-10 01:31:00.53	9.97	37.46	-53.4	-55.6	14.5	0.00e+00	0	23	0	525336576	73	4506
2026-01-10 01:31:01.53	9.78	37.68	-53.5	-55.7	14.5	0.00e+00	0	23	0	527433728	73	4569
2026-01-10 01:31:02.52	9.59	37.89	-53.4	-55.6	14.6	0.00e+00	0	23	0	528482304	73	4522
2026-01-10 01:31:03.52	9.40	38.11	-53.5	-55.7	14.5	0.00e+00	0	23	0	530579456	73	4555
2026-01-10 01:31:04.52	9.20	38.34	-53.4	-55.6	14.5	0.00e+00	0	23	0	532676608	73	4513
2026-01-10 01:31:05.52	9.00	38.56	-53.5	-55.7	14.5	0.00e+00	0	23	0	534773760	73	4582
2026-01-10 01:31:06.52	8.79	38.78	-53.6	-55.8	14.4	0.00e+00	0	23	0	536870912	73	4651
2026-01-10 01:31:07.52	8.58	39.01	-53.5	-55.7	14.5	0.00e+00	0	23	0	537919488	73	4591
2026-01-10 01:31:08.51	8.38	39.23	-53.4	-55.6	14.6	0.00e+00	0	23	0	540016640	73	4511
2026-01-10 01:31:09.52	8.16	39.46	-53.3	-55.4	14.6	0.00e+00	0	23	0	542113792	73	4412
2026-01-10 01:31:10.52	7.95	39.69	-53.3	-55.5	14.6	0.00e+00	0	23	0	544210944	73	4454
2026-01-10 01:31:11.52	7.73	39.92	-53.4	-55.5	14.6	0.00e+00	0	23	0	545259520	73	4483
2026-01-10 01:31:12.52	7.51	40.14	-53.4	-55.6	14.6	0.00e+00	0	23	0	547356672	73	4494
2026-01-10 01:31:13.51	7.28	40.37	-53.4	-55.7	14.5	0.00e+00	0	23	0	549453824	73	4551
2026-01-10 01:31:14.52	7.05	40.61	-53.5	-55.7	14.5	0.00e+00	0	23	0	551550976	73	4578
2026-01-10 01:31:15.52	6.82	40.84	-53.5	-55.8	14.4	0.00e+00	0	23	0	553648128	73	4625
2026-01-10 01:31:16.52	6.58	41.07	-53.6	-55.9	14.4	0.00e+00	0	23	0	554696704	73	4662
2026-01-10 01:31:17.52	6.35	41.31	-53.7	-56.1	14.3	0.00e+00	0	23	0	556793856	73	4792
2026-01-10 01:31:18.51	6.11	41.54	-53.8	-56.2	14.2	0.00e+00	0	23	0	558891008	73	4838
2026-01-10 01:31:19.51	5.86	41.78	-53.8	-56.2	14.2	0.00e+00	0	23	0	560988160	73	4823
2026-01-10 01:31:20.51	5.61	42.02	-53.9	-56.3	14.2	0.00e+00	0	23	0	563085312	73	4880
2026-01-10 01:31:21.51	5.36	42.25	-53.7	-56.0	14.3	0.00e+00	0	23	0	564133888	73	4735
2026-01-10 01:31:22.51	5.10	42.49	-53.6	-56.0	14.4	0.00e+00	0	23	0	566231040	73	4710
2026-01-10 01:31:23.50	4.84	42.73	-53.6	-55.9	14.4	0.00e+00	0	23	0	568328192	73	4697
2026-01-10 01:31:24.50	4.58	42.97	-53.7	-56.1	14.3	0.00e+00	0	23	0	570425344	73	4782
2026-01-10 01:31:25.49	4.31	43.21	-53.7	-56.0	14.3	0.00e+00	0	23	0	571473920	73	4709
2026-01-10 01:31:26.50	4.03	43.46	-53.5	-55.8	14.5	0.00e+00	0	23	0	573571072	73	4611
2026-01-10 01:31:27.49	3.76	43.70	-53.3	-55.5	14.7	0.00e+00	0	23	0	575668224	73	4442
2026-01-10 01:31:28.48	3.48	43.94	-52.8	-54.8	14.9	0.00e+00	0	23	0	577765376	72	4372
2026-01-10 01:31:29.48	3.19	44.18	-52.9	-54.9	14.8	0.00e+00	0	23	0	579862528	72	4429
2026-01-10 01:31:30.48	2.90	44.43	-53.0	-55.1	14.7	0.00e+00	0	23	0	580911104	72	4500
2026-01-10 01:31:31.48	2.61	44.68	-53.1	-55.2	14.6	0.00e+00	0	23	0	583008256	72	4579
2026-01-10 01:31:32.48	2.31	44.92	-53.1	-55.2	14.6	0.00e+00	0	23	0	585105408	72	4588
2026-01-10 01:31:33.47	2.01	45.17	-53.2	-55.3	14.6	0.00e+00	0	23	0	587202560	72	4608
2026-01-10 01:31:34.48	1.69	45.42	-53.1	-55.2	14.7	0.00e+00	0	23	0	589299712	72	4565
2026-01-10 01:31:35.47	1.38	45.67	-53.0	-55.1	14.7	0.00e+00	0	23	0	590348288	72	4504
2026-01-10 01:31:36.46	1.07	45.91	-53.1	-55.2	14.6	0.00e+00	0	23	0	592445440	72	4594
2026-01-10 01:31:37.45	0.75	46.16	-53.4	-55.6	14.4	0.00e+00	0	23	0	594542592	72	4804
2026-01-10 01:31:38.45	0.42	46.41	-53.5	-55.8	14.3	0.00e+00	0	23	0	596639744	72	4900
2026-01-10 01:31:39.45	0.08	46.66	-53.5	-55.7	14.3	0.00e+00	0	23	0	597688320	72	4863
2026-01-10 01:31:40.45	359.74	46.91	-53.5	-55.7	14.4	0.00e+00	0	23	0	599785472	72	4822
2026-01-10 01:31:41.45	359.39	47.16	-53.4	-55.6	14.5	0.00e+00	0	23	0	601882624	72	4767
2026-01-10 01:31:42.46	359.04	47.42	-53.4	-55.5	14.5	0.00e+00	0	23	0	603979776	72	4746
2026-01-10 01:31:43.46	358.68	47.67	-53.3	-55.5	14.5	0.00e+00	0	23	0	606076928	72	4743
2026-01-10 01:31:44.46	358.32	47.92	-53.3	-55.5	14.5	0.00e+00	0	23	0	607125504	72	4718
2026-01-10 01:31:45.45	357.95	48.17	-53.2	-55.3	14.6	0.00e+00	0	23	0	609222656	72	4626
2026-01-10 01:31:46.45	357.58	48.43	-53.1	-55.2	14.7	0.00e+00	0	23	0	611319808	72	4558
2026-01-10 01:31:47.44	357.20	48.68	-52.8	-54.7	14.9	0.00e+00	0	23	0	613416960	72	4321
2026-01-10 01:31:48.44	356.81	48.93	-52.5	-54.4	15.0	0.00e+00	0	23	0	614465536	71	4431
2026-01-10 01:31:49.45	356.41	49.19	-52.4	-54.2	15.1	0.00e+00	0	23	0	616562688	71	4319
2026-01-10 01:31:50.45	356.01	49.44	-52.5	-54.3	15.0	0.00e+00	0	23	0	618659840	71	4390
2026-01-10 01:31:51.45	355.60	49.69	-52.6	-54.5	14.9	0.00e+00	0	23	0	620756992	71	4484
2026-01-10 01:31:52.46	355.18	49.95	-52.5	-54.3	15.0	0.00e+00	0	23	0	622854144	71	4380
2026-01-10 01:31:53.45	354.76	50.20	-52.3	-54.1	15.2	0.00e+00	0	23	0	623902720	71	4266
2026-01-10 01:31:54.45	354.33	50.45	-52.3	-54.1	15.2	0.00e+00	0	23	0	625999872	71	4268
2026-01-10 01:31:55.45	353.90	50.70	-52.5	-54.4	15.0	0.00e+00	0	23	0	628097024	71	4427
2026-01-10 01:31:56.44	353.46	50.95	-52.5	-54.4	15.0	0.00e+00	0	23	0	630194176	71	4413
2026-01-10 01:31:57.44	353.01	51.20	-52.4	-54.3	15.0	0.00e+00	0	23	0	632291328	71	4368
2026-01-10 01:31:58.43	352.55	51.45	-52.2	-54.0	15.2	0.00e+00	0	23	0	633339904	71	4231
2026-01-10 01:31:59.44	352.08	51.70	-52.1	-53.8	15.1	0.00e+00	0	23	0	635437056	70	4378
2026-01-10 01:32:00.43	351.61	51.95	-51.7	-53.3	15.4	0.00e+00	0	23	0	637534208	70	4136
2026-01-10 01:32:01.43	351.13	52.19	-51.2	-52.8	15.5	0.00e+00	0	23	0	639631360	69	4131
2026-01-10 01:32:02.43	350.64	52.44	-51.1	-52.6	15.4	0.00e+00	0	23	0	641728512	68	4270
2026-01-10 01:32:03.43	350.14	52.69	-50.9	-52.4	15.5	0.00e+00	0	23	0	642777088	68	4179
2026-01-10 01:32:04.43	349.63	52.93	-51.0	-52.6	15.4	0.00e+00	0	23	0	644874240	68	4249
2026-01-10 01:32:05.44	349.11	53.18	-51.0	-52.6	15.4	0.00e+00	0	23	0	646971392	68	4274
2026-01-10 01:32:06.43	348.59	53.42	-51.1	-52.6	15.4	0.00e+00	0	23	0	649068544	68	4285
2026-01-10 01:32:07.43	348.05	53.66	-51.0	-52.6	15.4	0.00e+00	0	23	0	650117120	68	4268
2026-01-10 01:32:08.42	347.51	53.90	-51.1	-52.6	15.4	0.00e+00	0	23	0	652214272	68	4280
2026-01-10 01:32:09.43	346.96	54.14	-50.9	-52.5	15.5	0.00e+00	0	23	0	654311424	68	4201
2026-01-10 01:32:10.42	346.40	54.37	-51.0	-52.5	15.4	0.00e+00	0	23	0	656408576	68	4219
2026-01-10 01:32:11.43	345.82	54.61	-51.0	-52.6	15.4	0.00e+00	0	23	0	658505728	68	4254
2026-01-10 01:32:12.42	345.25	54.84	-50.9	-52.4	15.5	0.00e+00	0	23	0	659554304	68	4156
2026-01-10 01:32:13.42	344.66	55.07	-50.8	-52.3	15.5	0.00e+00	0	23	0	661651456	68	4127
2026-01-10 01:32:14.42	344.06	55.30	-51.2	-52.8	15.3	0.00e+00	0	23	0	663748608	68	4351
2026-01-10 01:32:15.41	343.46	55.53	-51.6	-53.3	15.0	0.00e+00	0	23	0	665845760	68	4643
2026-01-10 01:32:16.42	342.83	55.75	-52.1	-53.9	14.9	0.00e+00	0	23	0	667942912	69	4681
2026-01-10 01:32:17.41	342.21	55.97	-52.5	-54.4	14.8	0.00e+00	0	23	0	668991488	70	4680
2026-01-10 01:32:18.41	341.57	56.19	-53.0	-55.1	14.6	0.00e+00	0	23	0	671088640	71	4782
2026-01-10 01:32:19.41	340.92	56.41	-53.2	-55.3	14.5	0.00e+00	0	23	0	673185792	71	4884
2026-01-10 01:32:20.41	340.26	56.62	-53.2	-55.3	14.5	0.00e+00	0	23	0	675282944	71	4914
2026-01-10 01:32:21.40	339.59	56.83	-53.1	-55.2	14.5	0.00e+00	0	23	0	676331520	71	4825
2026-01-10 01:32:22.41	338.91	57.04	-53.2	-55.2	14.5	0.00e+00	0	23	0	678428672	71	4865
2026-01-10 01:32:23.41	338.22	57.25	-53.4	-55.6	14.3	0.00e+00	0	23	0	680525824	71	5085
2026-01-10 01:32:24.41	337.51	57.45	-53.4	-55.5	14.5	0.00e+00	0	23	0	682622976	72	4753
2026-01-10 01:32:25.40	336.81	57.65	-53.2	-55.2	14.6	0.00e+00	0	23	0	684720128	72	4590
2026-01-10 01:32:26.41	336.08	57.84	-53.2	-55.2	14.7	0.00e+00	0	23	0	685768704	72	4594
2026-01-10 01:32:27.41	335.35	58.03	-53.3	-55.4	14.6	0.00e+00	0	23	0	687865856	72	4683
2026-01-10 01:32:28.41	334.60	58.22	-53.6	-55.8	14.4	0.00e+00	0	23	0	689963008	72	4884
2026-01-10 01:32:29.41	333.85	58.40	-53.6	-55.8	14.4	0.00e+00	0	23	0	692060160	72	4902
2026-01-10 01:32:30.40	333.09	58.58	-53.5	-55.7	14.4	0.00e+00	0	23	0	693108736	72	4830
2026-01-10 01:32:31.39	332.33	58.75	-53.2	-55.3	14.6	0.00e+00	0	23	0	695205888	72	4633
2026-01-10 01:32:32.39	331.54	58.92	-53.1	-55.1	14.7	0.00e+00	0	23	0	697303040	72	4518
2026-01-10 01:32:33.38	330.76	59.09	-52.7	-54.6	15.1	0.00e+00	0	23	0	699400192	72	4259
2026-01-10 01:32:34.39	329.94	59.25	-52.9	-54.9	14.9	0.00e+00	0	23	0	701497344	72	4411
2026-01-10 01:32:35.39	329.13	59.41	-53.0	-55.0	14.8	0.00e+00	0	23	0	702545920	72	4445
2026-01-10 01:32:36.39	328.30	59.56	-52.9	-54.9	14.9	0.00e+00	0	23	0	704643072	72	4395
2026-01-10 01:32:37.39	327.47	59.70	-52.4	-54.2	15.1	0.00e+00	0	23	0	706740224	71	4320
2026-01-10 01:32:38.39	326.63	59.84	-51.6	-53.7	15.2	0.00e+00	0	23	0	708837376	70	4309
2026-01-10 01:32:39.39	325.78	59.98	-51.9	-53.6	15.2	0.00e+00	0	23	0	710934528	70	4281
2026-01-10 01:32:40.39	324.92	60.11	-51.3	-52.9	15.4	0.00e+00	0	23	0	711983104	69	4189
2026-01-10 01:32:41.38	324.05	60.23	-51.3	-52.9	15.5	0.00e+00	0	23	0	714080256	69	4146
2026-01-10 01:32:42.38	323.18	60.35	-51.3	-52.9	15.5	0.00e+00	0	23	0	716177408	69	4177
2026-01-10 01:32:43.37	322.30	60.46	-51.5	-53.1	15.3	0.00e+00	0	23	0	718274560	69	4276
2026-01-10 01:32:44.38	321.40	60.57	-51.3	-52.9	15.5	0.00e+00	0	23	0	720371712	69	4176
2026-01-10 01:32:45.37	320.51	60.67	-51.4	-53.0	15.4	0.00e+00	0	23	0	721420288	69	4223
2026-01-10 01:32:46.37	319.60	60.76	-51.3	-52.9	15.4	0.00e+00	0	23	0	723517440	69	4179
2026-01-10 01:32:47.37	318.68	60.85	-50.9	-52.4	15.5	0.00e+00	0	23	0	725614592	68	4185
2026-01-10 01:32:48.37	317.76	60.93	-50.9	-52.4	15.5	0.00e+00	0	23	0	727711744	68	4153
2026-01-10 01:32:49.37	316.84	61.01	-50.5	-51.9	15.5	0.00e+00	0	23	0	728760320	67	4183
2026-01-10 01:32:50.36	315.91	61.08	-50.5	-51.9	15.5	0.00e+00	0	23	0	730857472	67	4183
2026-01-10 01:32:51.35	314.99	61.14	-50.0	-51.4	15.6	0.00e+00	0	23	0	732954624	66	4186
2026-01-10 01:32:52.35	314.05	61.20	-50.1	-51.5	15.5	0.00e+00	0	23	0	735051776	66	4208
2026-01-10 01:32:53.35	313.10	61.24	-50.1	-51.5	15.5	0.00e+00	0	23	0	737148928	66	4200
2026-01-10 01:32:54.35	312.15	61.29	-49.8	-51.2	15.7	0.00e+00	0	23	0	738197504	66	4075
2026-01-10 01:32:55.35	311.20	61.32	-49.5	-50.9	15.6	0.00e+00	0	23	0	740294656	65	4164
2026-01-10 01:32:56.35	310.25	61.35	-49.5	-50.8	15.7	0.00e+00	0	23	0	742391808	65	4122
2026-01-10 01:32:57.35	309.29	61.37	-49.3	-50.6	15.8	0.00e+00	0	23	0	744488960	65	4039
2026-01-10 01:32:58.35	308.33	61.38	-49.3	-50.6	15.8	0.00e+00	0	23	0	745537536	65	4014
2026-01-10 01:32:59.35	307.38	61.39	-49.1	-50.4	15.6	0.00e+00	0	23	0	747634688	64	4192
2026-01-10 01:33:00.34	306.43	61.39	-48.6	-49.8	15.7	0.00e+00	0	23	0	749731840	63	4145
2026-01-10 01:33:01.34	305.47	61.39	-48.7	-50.0	15.7	0.00e+00	0	23	0	751828992	63	4207
2026-01-10 01:33:02.34	304.51	61.37	-49.0	-50.3	15.5	0.00e+00	0	23	0	753926144	63	4370
2026-01-10 01:33:03.34	303.56	61.35	-49.0	-50.3	15.5	0.00e+00	0	23	0	754974720	63	4378
2026-01-10 01:33:04.34	302.60	61.32	-48.9	-50.2	15.5	0.00e+00	0	23	0	757071872	63	4322
2026-01-10 01:33:05.35	301.64	61.29	-48.8	-50.1	15.6	0.00e+00	0	23	0	759169024	63	4264
2026-01-10 01:33:06.35	300.69	61.25	-48.8	-50.1	15.6	0.00e+00	0	23	0	761266176	63	4274
2026-01-10 01:33:07.34	299.75	61.20	-48.9	-50.1	15.6	0.00e+00	0	23	0	763363328	63	4282
2026-01-10 01:33:08.34	298.81	61.14	-49.1	-50.4	15.5	0.00e+00	0	23	0	764411904	63	4435
2026-01-10 01:33:09.33	297.89	61.08	-49.2	-50.5	15.5	0.00e+00	0	23	0	766509056	63	4474
2026-01-10 01:33:10.33	296.95	61.01	-49.3	-50.6	15.4	0.00e+00	0	23	0	768606208	63	4544
2026-01-10 01:33:11.32	296.03	60.94	-49.7	-51.1	15.4	0.00e+00	0	23	0	770703360	64	4504
2026-01-10 01:33:12.32	295.11	60.86	-49.7	-51.1	15.4	0.00e+00	0	23	0	772800512	64	4521
2026-01-10 01:33:13.32	294.20	60.77	-49.6	-50.9	15.5	0.00e+00	0	23	0	773849088	64	4430
2026-01-10 01:33:14.32	293.29	60.68	-49.7	-51.1	15.4	0.00e+00	0	23	0	775946240	64	4521
2026-01-10 01:33:15.32	292.39	60.58	-49.8	-51.2	15.4	0.00e+00	0	23	0	778043392	64	4583
2026-01-10 01:33:16.32	291.49	60.47	-50.2	-51.7	15.3	0.00e+00	0	23	0	780140544	65	4566
2026-01-10 01:33:17.32	290.61	60.36	-50.4	-51.9	15.2	0.00e+00	0	23	0	781189120	65	4694
2026-01-10 01:33:18.31	289.74	60.24	-50.7	-52.2	15.2	0.00e+00	0	23	0	783286272	66	4581
2026-01-10 01:33:19.31	288.87	60.12	-50.8	-52.3	15.2	0.00e+00	0	23	0	785383424	66	4640
2026-01-10 01:33:20.31	288.00	59.99	-51.0	-52.6	15.2	0.00e+00	0	23	0	787480576	67	4499
2026-01-10 01:33:21.32	287.14	59.85	-51.1	-52.7	15.1	0.00e+00	0	24	0	789577728	67	4581
2026-01-10 01:33:22.32	286.30	59.71	-51.1	-52.7	15.2	0.00e+00	0	23	0	790626304	67	4571
2026-01-10 01:33:23.31	285.47	59.57	-51.2	-52.8	15.1	0.00e+00	0	23	0	792723456	67	4645
2026-01-10 01:33:24.32	284.64	59.41	-50.9	-52.4	15.3	0.00e+00	0	23	0	794820608	67	4417
2026-01-10 01:33:25.31	283.83	59.26	-51.1	-52.6	15.2	0.00e+00	0	23	0	796917760	67	4541
2026-01-10 01:33:26.31	283.02	59.10	-52.1	-53.8	15.0	0.00e+00	0	23	0	797966336	69	4650
2026-01-10 01:33:27.30	282.24	58.94	-52.8	-54.8	14.6	0.00e+00	0	23	0	800063488	70	4889
2026-01-10 01:33:28.31	281.44	58.76	-52.8	-54.7	14.8	0.00e+00	0	24	0	802160640	71	4576
2026-01-10 01:33:29.30	280.68	58.59	-52.6	-54.4	15.0	0.00e+00	0	23	0	804257792	71	4434
2026-01-10 01:33:30.30	279.91	58.41	-52.4	-54.2	15.1	0.00e+00	0	23	0	806354944	71	4332
2026-01-10 01:33:31.30	279.15	58.23	-52.4	-54.2	15.1	0.00e+00	0	23	0	807403520	71	4292
2026-01-10 01:33:32.29	278.42	58.04	-52.6	-54.5	14.9	0.00e+00	0	23	0	809500672	71	4465
2026-01-10 01:33:33.29	277.68	57.85	-53.1	-55.1	14.6	0.00e+00	0	24	0	811597824	71	4786
2026-01-10 01:33:34.29	276.96	57.66	-53.4	-55.5	14.6	0.00e+00	0	24	0	813694976	72	4723
2026-01-10 01:33:35.28	276.25	57.46	-53.4	-55.5	14.5	0.00e+00	0	24	0	815792128	72	4713
2026-01-10 01:33:36.28	275.55	57.26	-52.8	-54.7	15.0	0.00e+00	0	23	0	816840704	72	4340
2026-01-10 01:33:37.28	274.86	57.06	-52.4	-54.3	15.0	0.00e+00	0	23	0	818937856	71	4349
2026-01-10 01:33:38.27	274.18	56.85	-52.0	-53.7	15.2	0.00e+00	0	23	0	821035008	70	4311
2026-01-10 01:33:39.27	273.51	56.64	-51.9	-53.6	15.2	0.00e+00	0	24	0	823132160	70	4275
2026-01-10 01:33:40.27	272.85	56.42	-51.9	-53.6	15.2	0.00e+00	0	23	0	824180736	70	4266
2026-01-10 01:33:41.28	272.19	56.20	-51.8	-53.5	15.3	0.00e+00	0	23	0	826277888	70	4222
2026-01-10 01:33:42.27	271.56	55.99	-52.0	-53.7	15.2	0.00e+00	0	23	0	828375040	70	4301
2026-01-10 01:33:43.27	270.93	55.76	-51.9	-53.6	15.2	0.00e+00	0	23	0	830472192	70	4279
2026-01-10 01:33:44.26	270.31	55.54	-51.6	-53.2	15.3	0.00e+00	0	23	0	832569344	69	4316
2026-01-10 01:33:45.26	269.70	55.32	-51.4	-53.1	15.4	0.00e+00	0	23	0	833617920	69	4249
2026-01-10 01:33:46.26	269.10	55.09	-51.3	-52.9	15.4	0.00e+00	0	23	0	835715072	69	4176
2026-01-10 01:33:47.26	268.51	54.85	-51.4	-53.0	15.4	0.00e+00	0	23	0	837812224	69	4213
2026-01-10 01:33:48.27	267.92	54.62	-51.4	-53.0	15.3	0.00e+00	0	24	0	839909376	69	4239
2026-01-10 01:33:49.26	267.35	54.39	-51.6	-53.3	15.2	0.00e+00	0	23	0	840957952	69	4344
2026-01-10 01:33:50.26	266.79	54.15	-51.9	-53.6	15.0	0.00e+00	0	23	0	843055104	69	4514
2026-01-10 01:33:51.26	266.24	53.91	-52.2	-54.0	14.8	0.00e+00	0	23	0	845152256	69	4752
2026-01-10 01:33:52.25	265.70	53.67	-52.1	-53.9	14.9	0.00e+00	0	23	0	847249408	69	4705
2026-01-10 01:33:53.26	265.16	53.43	-51.9	-53.6	15.1	0.00e+00	0	23	0	849346560	69	4512
2026-01-10 01:33:54.26	264.63	53.19	-51.6	-53.2	15.3	0.00e+00	0	23	0	851443712	69	4324
2026-01-10 01:33:55.27	264.11	52.94	-51.3	-52.9	15.4	0.00e+00	0	23	0	852492288	69	4175
2026-01-10 01:33:56.27	263.60	52.69	-51.5	-53.1	15.3	0.00e+00	0	23	0	854589440	69	4260
2026-01-10 01:33:57.27	263.10	52.45	-51.9	-53.7	15.0	0.00e+00	0	23	0	856686592	69	4548
2026-01-10 01:33:58.27	262.60	52.20	-52.5	-54.3	14.8	0.00e+00	0	23	0	858783744	70	4647
2026-01-10 01:33:59.27	262.12	51.95	-52.7	-54.7	14.6	0.00e+00	0	23	0	859832320	70	4831
2026-01-10 01:34:00.28	261.64	51.70	-52.8	-54.7	14.6	0.00e+00	0	23	0	861929472	70	4857
2026-01-10 01:34:01.28	261.17	51.45	-52.5	-54.3	14.8	0.00e+00	0	23	0	864026624	70	4648
2026-01-10 01:34:02.27	260.72	51.20	-52.2	-54.0	15.0	0.00e+00	0	23	0	866123776	70	4473
2026-01-10 01:34:03.26	260.27	50.95	-52.6	-54.4	14.8	0.00e+00	0	23	0	868220928	70	4697
2026-01-10 01:34:04.26	259.82	50.70	-53.1	-55.2	14.5	0.00e+00	0	23	0	869269504	71	4846
2026-01-10 01:34:05.26	259.39	50.45	-53.8	-56.1	14.2	0.00e+00	0	24	0	871366656	72	5062
2026-01-10 01:34:06.26	258.96	50.19	-54.1	-56.5	14.1	0.00e+00	0	23	0	873463808	73	5032
2026-01-10 01:34:07.25	258.54	49.94	-54.1	-56.5	14.0	0.00e+00	0	23	0	875560960	73	5021
2026-01-10 01:34:08.26	258.12	49.69	-54.1	-56.6	14.0	0.00e+00	0	23	0	876609536	73	5058
2026-01-10 01:34:09.26	257.71	49.43	-53.9	-56.2	14.2	0.00e+00	0	23	0	878706688	73	4870
2026-01-10 01:34:10.27	257.30	49.18	-54.0	-56.3	14.1	0.00e+00	0	24	0	880803840	73	4913
2026-01-10 01:34:11.27	256.90	48.93	-54.3	-56.8	13.9	0.00e+00	0	23	0	882900992	73	5199
2026-01-10 01:34:12.26	256.52	48.67	-54.6	-57.3	13.7	0.00e+00	0	23	0	884998144	74	5167
2026-01-10 01:34:13.26	256.14	48.42	-54.7	-57.5	13.5	0.00e+00	0	24	0	886046720	74	5282
2026-01-10 01:34:14.26	255.76	48.17	-55.0	-57.8	13.4	0.00e+00	0	23	0	888143872	75	5210
2026-01-10 01:34:15.25	255.39	47.92	-55.0	-57.9	13.4	0.00e+00	0	23	0	890241024	75	5266
2026-01-10 01:34:16.25	255.03	47.66	-54.7	-57.5	13.7	0.00e+00	0	23	0	892338176	75	5006
2026-01-10 01:34:17.25	254.67	47.41	-54.3	-56.8	14.2	0.00e+00	0	23	0	894435328	75	4638
2026-01-10 01:34:18.25	254.32	47.16	-53.9	-56.2	14.4	0.00e+00	0	23	0	895483904	74	4593
2026-01-10 01:34:19.25	253.97	46.91	-54.0	-56.4	14.3	0.00e+00	0	24	0	897581056	74	4656
2026-01-10 01:34:20.24	253.63	46.66	-54.0	-56.3	14.3	0.00e+00	0	23	0	899678208	74	4629
2026-01-10 01:34:21.25	253.29	46.40	-53.7	-55.9	14.6	0.00e+00	0	23	0	901775360	74	4440
2026-01-10 01:34:22.24	252.97	46.15	-53.7	-55.9	14.4	0.00e+00	0	24	0	902823936	73	4675
2026-01-10 01:34:23.24	252.64	45.90	-53.7	-55.9	14.4	0.00e+00	0	23	0	904921088	73	4690
2026-01-10 01:34:24.24	252.32	45.65	-53.5	-55.6	14.5	0.00e+00	0	23	0	907018240	73	4537
2026-01-10 01:34:25.25	252.00	45.40	-53.4	-55.6	14.6	0.00e+00	0	23	0	909115392	73	4516
2026-01-10 01:34:26.25	251.69	45.15	-53.2	-55.3	14.7	0.00e+00	0	23	0	911212544	73	4375
2026-01-10 01:34:27.25	251.39	44.90	-53.3	-55.4	14.5	0.00e+00	0	23	0	912261120	72	4664
2026-01-10 01:34:28.25	251.09	44.66	-53.3	-55.5	14.5	0.00e+00	0	23	0	914358272	72	4715
2026-01-10 01:34:29.25	250.79	44.41	-53.2	-55.2	14.6	0.00e+00	0	23	0	916455424	72	4589
2026-01-10 01:34:30.25	250.50	44.16	-52.8	-54.7	14.9	0.00e+00	0	23	0	918552576	72	4332
2026-01-10 01:34:31.24	250.22	43.92	-52.8	-54.7	14.9	0.00e+00	0	23	0	920649728	72	4340
2026-01-10 01:34:32.24	249.93	43.68	-53.0	-55.0	14.7	0.00e+00	0	23	0	921698304	72	4481
2026-01-10 01:34:33.24	249.65	43.43	-53.3	-55.4	14.6	0.00e+00	0	23	0	923795456	72	4668
2026-01-10 01:34:34.25	249.38	43.19	-53.4	-55.5	14.5	0.00e+00	0	23	0	925892608	72	4731
2026-01-10 01:34:35.25	249.11	42.94	-53.4	-55.5	14.4	0.00e+00	0	23	0	927989760	72	4752
2026-01-10 01:34:36.25	248.84	42.70	-53.7	-56.0	14.1	0.00e+00	0	23	0	930086912	72	5012
2026-01-10 01:34:37.25	248.58	42.46	-53.7	-56.0	14.2	0.00e+00	0	23	0	931135488	72	5014
2026-01-10 01:34:38.25	248.32	42.22	-53.6	-55.8	14.3	0.00e+00	0	23	0	933232640	72	4917
2026-01-10 01:34:39.24	248.07	41.99	-53.7	-56.0	14.2	0.00e+00	0	23	0	935329792	72	5041
2026-01-10 01:34:40.24	247.82	41.75	-54.1	-56.6	13.9	0.00e+00	0	23	0	937426944	73	5093
2026-01-10 01:34:41.24	247.58	41.51	-54.5	-57.1	13.8	0.00e+00	0	23	0	938475520	74	5056
2026-01-10 01:34:42.23	247.34	41.28	-54.5	-57.1	13.8	0.00e+00	0	24	0	940572672	74	5071
2026-01-10 01:34:43.23	247.10	41.04	-54.3	-56.8	13.9	0.00e+00	0	23	0	942669824	74	4918
2026-01-10 01:34:44.23	246.86	40.81	-54.6	-57.3	13.6	0.00e+00	0	24	0	944766976	74	5185
2026-01-10 01:34:45.24	246.63	40.57	-54.8	-57.7	13.4	0.00e+00	0	23	0	946864128	74	5436
2026-01-10 01:34:46.24	246.40	40.34	-54.8	-57.7	13.5	0.00e+00	0	23	0	947912704	75	5130
2026-01-10 01:34:47.23	246.17	40.11	-54.9	-57.8	13.4	0.00e+00	0	23	0	950009856	75	5207
2026-01-10 01:34:48.24	245.95	39.88	-54.8	-57.6	13.5	0.00e+00	0	23	0	952107008	75	5094
2026-01-10 01:34:49.22	245.73	39.65	-54.7	-57.5	13.7	0.00e+00	0	23	0	954204160	75	4992
2026-01-10 01:34:50.22	245.52	39.42	-54.5	-57.1	13.9	0.00e+00	0	23	0	956301312	75	4813
2026-01-10 01:34:51.22	245.31	39.20	-54.7	-57.5	13.7	0.00e+00	0	23	0	957349888	75	4984
2026-01-10 01:34:52.23	245.09	38.97	-54.8	-57.7	13.5	0.00e+00	0	23	0	959447040	75	5125
2026-01-10 01:34:53.22	244.89	38.75	-54.8	-57.6	13.6	0.00e+00	0	23	0	961544192	75	5075
2026-01-10 01:34:54.23	244.68	38.52	-54.6	-57.3	13.7	0.00e+00	0	23	0	963641344	75	4926
2026-01-10 01:34:55.22	244.48	38.30	-54.8	-57.6	13.6	0.00e+00	0	24	0	964689920	75	5073
2026-01-10 01:34:56.23	244.28	38.07	-54.8	-57.7	13.5	0.00e+00	0	23	0	966787072	75	5109
2026-01-10 01:34:57.23	244.09	37.85	-55.1	-58.1	13.2	0.00e+00	0	23	0	968884224	75	5382
2026-01-10 01:34:58.23	243.89	37.63	-55.3	-58.5	13.0	0.00e+00	0	23	0	970981376	75	5605
2026-01-10 01:34:59.24	243.70	37.41	-55.6	-59.0	12.7	0.00e+00	0	23	0	973078528	76	5619
2026-01-10 01:35:00.24	243.51	37.19	-55.5	-58.8	12.9	0.00e+00	0	23	0	974127104	76	5497
2026-01-10 01:35:01.24	243.33	36.98	-55.3	-58.5	13.1	7.00e-07	0	23	0	976224256	76	5300
2026-01-10 01:35:02.24	243.14	36.76	-55.0	-57.9	13.5	0.00e+00	0	23	0	978321408	76	4971
2026-01-10 01:35:03.24	242.96	36.55	-54.5	-57.2	13.8	0.00e+00	0	24	0	980418560	75	4857
2026-01-10 01:35:04.24	242.78	36.33	-54.5	-57.1	13.9	0.00e+00	0	23	0	982515712	75	4786
2026-01-10 01:35:05.24	242.61	36.12	-54.5	-57.1	13.9	0.00e+00	0	23	0	983564288	75	4809
2026-01-10 01:35:06.23	242.44	35.91	-54.4	-57.0	14.0	0.00e+00	0	23	0	985661440	75	4730
2026-01-10 01:35:07.23	242.26	35.70	-54.4	-57.1	13.9	0.00e+00	0	23	0	987758592	75	4775
2026-01-10 01:35:08.23	242.10	35.49	-54.1	-56.5	14.1	0.00e+00	0	23	0	989855744	74	4754
2026-01-10 01:35:09.23	241.93	35.28	-54.0	-56.4	14.2	0.00e+00	0	23	0	991952896	74	4666
2026-01-10 01:35:10.23	241.76	35.08	-54.1	-56.6	14.1	0.00e+00	0	23	0	993001472	74	4772
2026-01-10 01:35:11.23	241.60	34.87	-54.1	-56.5	14.1	0.00e+00	0	23	0	995098624	74	4755
2026-01-10 01:35:12.23	241.44	34.67	-54.1	-56.7	14.1	0.00e+00	0	23	0	997195776	74	4817
2026-01-10 01:35:13.23	241.28	34.46	-54.2	-56.7	14.0	0.00e+00	0	23	0	999292928	74	4859
2026-01-10 01:35:14.24	241.12	34.26	-54.2	-56.7	14.0	0.00e+00	0	23	0	1000341504	74	4826
2026-01-10 01:35:15.23	240.97	34.06	-54.2	-56.8	14.0	0.00e+00	0	23	0	1002438656	74	4895
2026-01-10 01:35:16.24	240.82	33.86	-54.3	-56.9	13.9	0.00e+00	0	23	0	1004535808	74	4979
2026-01-10 01:35:17.23	240.67	33.66	-54.2	-56.8	14.0	0.00e+00	0	23	0	1006632960	74	4887
2026-01-10 01:35:18.22	240.52	33.46	-54.3	-57.0	13.8	0.00e+00	0	23	0	1008730112	74	4987
2026-01-10 01:35:19.22	240.37	33.26	-54.3	-56.8	13.9	0.00e+00	0	23	0	1009778688	74	4911
2026-01-10 01:35:20.22	240.23	33.07	-54.3	-56.9	13.8	0.00e+00	0	23	0	1011875840	74	4972
2026-01-10 01:35:21.22	240.08	32.87	-54.3	-56.9	13.8	0.00e+00	0	23	0	1013972992	74	4970
2026-01-10 01:35:22.22	239.94	32.68	-54.2	-56.8	13.9	0.00e+00	0	23	0	1016070144	74	4889
2026-01-10 01:35:23.22	239.80	32.49	-54.2	-56.8	14.0	0.00e+00	0	23	0	1018167296	74	4900
2026-01-10 01:35:24.23	239.66	32.29	-54.2	-56.7	14.0	0.00e+00	0	23	0	1019215872	74	4847
2026-01-10 01:35:25.22	239.53	32.10	-54.2	-56.7	14.0	0.00e+00	0	23	0	1021313024	74	4846
2026-01-10 01:35:26.22	239.39	31.91	-54.1	-56.7	14.0	0.00e+00	0	23	0	1023410176	74	4820
2026-01-10 01:35:27.22	239.26	31.72	-54.2	-56.8	13.9	0.00e+00	0	23	0	1025507328	74	4900
2026-01-10 01:35:28.21	239.13	31.54	-54.1	-56.6	14.0	0.00e+00	0	23	0	1027604480	74	4790
2026-01-10 01:35:29.21	239.00	31.35	-54.2	-56.8	13.9	0.00e+00	0	23	0	1028653056	74	4875
2026-01-10 01:35:30.21	238.87	31.16	-54.3	-56.9	13.8	0.00e+00	0	23	0	1030750208	74	4953
2026-01-10 01:35:31.21	238.74	30.98	-54.3	-56.9	13.8	0.00e+00	0	23	0	1032847360	74	4968
2026-01-10 01:35:32.21	238.62	30.79	-54.4	-57.1	13.8	0.00e+00	0	23	0	1034944512	74	5067
2026-01-10 01:35:33.21	238.49	30.61	-54.6	-57.4	13.5	0.00e+00	0	24	0	1035993088	74	5229
2026-01-10 01:35:34.20	238.37	30.43	-54.7	-57.7	13.3	0.00e+00	0	23	0	1038090240	74	5425
2026-01-10 01:35:35.20	238.25	30.25	-54.8	-57.9	13.2	0.00e+00	0	24	0	1040187392	74	5545
2026-01-10 01:35:36.20	238.13	30.07	-54.9	-57.9	13.2	0.00e+00	0	23	0	1042284544	74	5574
2026-01-10 01:35:37.20	238.01	29.89	-54.7	-57.6	13.3	0.00e+00	0	23	0	1044381696	74	5383
2026-01-10 01:35:38.18	237.89	29.72	-54.6	-57.5	13.5	0.00e+00	0	23	0	1045430272	74	5307
2026-01-10 01:35:39.18	237.78	29.54	-54.3	-57.0	13.7	0.00e+00	0	23	0	1047527424	74	5030
2026-01-10 01:35:40.18	237.66	29.36	-54.1	-56.6	14.0	0.00e+00	0	23	0	1049624576	74	4805
2026-01-10 01:35:41.18	237.55	29.19	-53.9	-56.4	14.2	0.00e+00	0	24	0	1051721728	74	4669
2026-01-10 01:35:42.18	237.44	29.01	-53.9	-56.3	14.2	0.00e+00	0	23	0	1052770304	74	4634
2026-01-10 01:35:43.19	237.32	28.84	-53.8	-56.2	14.3	0.00e+00	0	23	0	1054867456	74	4570
2026-01-10 01:35:44.19	237.21	28.67	-53.9	-56.3	14.2	0.00e+00	0	23	0	1056964608	74	4620
2026-01-10 01:35:45.19	237.11	28.50	-53.9	-56.4	14.2	0.00e+00	0	23	0	1059061760	74	4679
2026-01-10 01:35:46.20	237.00	28.32	-54.0	-56.5	14.1	0.00e+00	0	23	0	1061158912	74	4737
2026-01-10 01:35:47.20	236.89	28.15	-54.0	-56.6	14.1	0.00e+00	0	24	0	1062207488	74	4770
2026-01-10 01:35:48.21	236.78	27.98	-53.9	-56.3	14.2	0.00e+00	0	23	0	1064304640	74	4635
2026-01-10 01:35:49.22	236.68	27.81	-53.8	-56.2	14.2	0.00e+00	0	23	0	1066401792	74	4586
2026-01-10 01:35:50.22	236.58	27.65	-53.7	-56.1	14.3	0.00e+00	0	23	0	1068498944	74	4524
2026-01-10 01:35:51.22	236.47	27.48	-53.5	-55.9	14.3	0.00e+00	0	23	0	1070596096	73	4658
2026-01-10 01:35:52.22	236.37	27.32	-53.5	-55.8	14.4	0.00e+00	0	23	0	1071644672	73	4607
2026-01-10 01:35:53.21	236.27	27.15	-53.4	-55.6	14.5	0.00e+00	0	24	0	1073741824	73	4516
2026-01-10 01:35:54.22	236.18	26.99	-53.2	-55.4	14.6	0.00e+00	0	23	0	1075838976	73	4416
2026-01-10 01:35:55.21	236.08	26.83	-53.2	-55.4	14.6	0.00e+00	0	23	0	1077936128	73	4392
2026-01-10 01:35:56.21	235.98	26.67	-53.1	-55.3	14.5	0.00e+00	0	24	0	1080033280	72	4599
2026-01-10 01:35:57.21	235.89	26.51	-53.2	-55.4	14.5	0.00e+00	0	23	0	1081081856	72	4674
2026-01-10 01:35:58.21	235.79	26.35	-53.3	-55.5	14.4	0.00e+00	0	23	0	1083179008	72	4740
2026-01-10 01:35:59.21	235.70	26.19	-53.3	-55.5	14.4	0.00e+00	0	23	0	1085276160	72	4715
2026-01-10 01:36:00.20	235.61	26.03	-53.2	-55.4	14.4	0.00e+00	0	23	0	1087373312	72	4670
2026-01-10 01:36:01.20	235.51	25.87	-53.2	-55.4	14.5	0.00e+00	0	23	0	1088421888	72	4655
2026-01-10 01:36:02.21	235.42	25.72	-53.2	-55.5	14.4	0.00e+00	0	23	0	1090519040	72	4715
2026-01-10 01:36:03.21	235.33	25.56	-53.1	-55.3	14.5	0.00e+00	0	23	0	1092616192	72	4617
2026-01-10 01:36:04.21	235.24	25.40	-53.1	-55.3	14.5	0.00e+00	0	23	0	1094713344	72	4628
2026-01-10 01:36:05.21	235.16	25.25	-53.0	-55.2	14.6	0.00e+00	0	23	0	1096810496	72	4570
2026-01-10 01:36:06.22	235.07	25.10	-53.0	-55.2	14.6	0.00e+00	0	24	0	1097859072	72	4560
2026-01-10 01:36:07.22	234.98	24.94	-52.9	-55.0	14.7	0.00e+00	0	24	0	1099956224	72	4480
2026-01-10 01:36:08.22	234.90	24.79	-52.9	-55.0	14.7	0.00e+00	0	23	0	1102053376	72	4473
2026-01-10 01:36:09.22	234.81	24.64	-52.9	-54.9	14.7	0.00e+00	0	23	0	1104150528	72	4427
2026-01-10 01:36:10.22	234.73	24.49	-52.8	-54.8	14.8	0.00e+00	0	23	0	1106247680	72	4386
2026-01-10 01:36:11.23	234.64	24.34	-52.9	-55.0	14.7	0.00e+00	0	23	0	1107296256	72	4458
2026-01-10 01:36:12.23	234.56	24.19	-52.9	-55.0	14.7	0.00e+00	0	23	0	1109393408	72	4443
2026-01-10 01:36:13.23	234.48	24.05	-52.9	-55.0	14.7	0.00e+00	0	23	0	1111490560	72	4467
2026-01-10 01:36:14.22	234.40	23.90	-53.1	-55.3	14.5	0.00e+00	0	23	0	1113587712	72	4603
2026-01-10 01:36:15.22	234.32	23.75	-53.1	-55.3	14.5	0.00e+00	0	23	0	1115684864	72	4642
2026-01-10 01:36:16.22	234.24	23.61	-53.3	-55.5	14.4	0.00e+00	0	23	0	1116733440	72	4740
2026-01-10 01:36:17.23	234.16	23.46	-53.3	-55.6	14.3	0.00e+00	0	23	0	1118830592	72	4765
2026-01-10 01:36:18.23	234.09	23.32	-53.3	-55.5	14.3	0.00e+00	0	23	0	1120927744	72	4758
2026-01-10 01:36:19.23	234.01	23.18	-53.3	-55.6	14.3	0.00e+00	0	23	0	1123024896	72	4761
2026-01-10 01:36:20.23	233.93	23.03	-53.3	-55.6	14.3	0.00e+00	0	23	0	1124073472	72	4761
2026-01-10 01:36:21.22	233.86	22.89	-53.2	-55.4	14.4	0.00e+00	0	23	0	1126170624	72	4681
2026-01-10 01:36:22.22	233.78	22.75	-53.1	-55.3	14.5	0.00e+00	0	23	0	1128267776	72	4621
2026-01-10 01:36:23.22	233.71	22.61	-53.0	-55.1	14.6	0.00e+00	0	23	0	1130364928	72	4522
2026-01-10 01:36:24.21	233.64	22.47	-52.9	-55.0	14.7	0.00e+00	0	23	0	1132462080	72	4443
2026-01-10 01:36:25.21	233.56	22.33	-52.7	-54.8	14.8	0.00e+00	0	23	0	1133510656	72	4352
2026-01-10 01:36:26.21	233.49	22.20	-52.6	-54.6	14.7	0.00e+00	0	23	0	1135607808	71	4502
2026-01-10 01:36:27.21	233.42	22.06	-52.5	-54.5	14.8	0.00e+00	0	23	0	1137704960	71	4475
2026-01-10 01:36:28.21	233.35	21.92	-52.5	-54.5	14.8	0.00e+00	0	23	0	1139802112	71	4492
2026-01-10 01:36:29.21	233.28	21.79	-52.4	-54.4	14.8	0.00e+00	0	23	0	1141899264	71	4422
2026-01-10 01:36:30.21	233.21	21.65	-52.6	-54.6	14.7	0.00e+00	0	23	0	1142947840	71	4513
2026-01-10 01:36:31.21	233.14	21.52	-52.5	-54.5	14.8	0.00e+00	0	23	0	1145044992	71	4484
2026-01-10 01:36:32.20	233.08	21.38	-52.6	-54.7	14.7	0.00e+00	0	23	0	1147142144	71	4553
2026-01-10 01:36:33.19	233.01	21.25	-52.7	-54.8	14.6	0.00e+00	0	23	0	1149239296	71	4609
2026-01-10 01:36:34.19	232.94	21.12	-52.7	-54.8	14.6	0.00e+00	0	23	0	1150287872	71	4640
2026-01-10 01:36:35.19	232.88	20.99	-52.8	-54.9	14.6	0.00e+00	0	23	0	1152385024	71	4665
2026-01-10 01:36:36.19	232.81	20.86	-52.8	-54.9	14.5	0.00e+00	0	23	0	1154482176	71	4697
2026-01-10 01:36:37.19	232.74	20.72	-52.7	-54.7	14.6	0.00e+00	0	23	0	1156579328	71	4587
2026-01-10 01:36:38.19	232.68	20.59	-52.7	-54.8	14.6	0.00e+00	0	23	0	1158676480	71	4606
2026-01-10 01:36:39.18	232.62	20.47	-52.7	-54.8	14.6	0.00e+00	0	23	0	1159725056	71	4616
2026-01-10 01:36:40.17	232.55	20.34	-52.6	-54.7	14.7	0.00e+00	0	23	0	1161822208	71	4562
2026-01-10 01:36:41.17	232.49	20.21	-52.5	-54.5	14.8	0.00e+00	0	23	0	1163919360	71	4460
2026-01-10 01:36:42.16	232.43	20.08	-52.6	-54.6	14.7	0.00e+00	0	23	0	1166016512	71	4540
2026-01-10 01:36:43.16	232.37	19.96	-52.4	-54.4	14.8	0.00e+00	0	23	0	1168113664	71	4426
2026-01-10 01:36:44.17	232.31	19.83	-52.3	-54.3	14.9	0.00e+00	0	23	0	1169162240	71	4372
2026-01-10 01:36:45.16	232.25	19.70	-52.4	-54.4	14.9	0.00e+00	0	23	0	1171259392	71	4398
2026-01-10 01:36:46.16	232.19	19.58	-52.2	-54.1	15.0	0.00e+00	0	23	0	1173356544	71	4261
2026-01-10 01:36:47.15	232.13	19.46	-52.2	-54.2	14.8	0.00e+00	0	23	0	1175453696	70	4563
2026-01-10 01:36:48.15	232.07	19.33	-52.2	-54.2	14.8	0.00e+00	0	23	0	1176502272	70	4580
2026-01-10 01:36:49.15	232.01	19.21	-52.2	-54.1	14.8	0.00e+00	0	23	0	1178599424	70	4528
2026-01-10 01:36:50.14	231.95	19.09	-52.2	-54.2	14.7	0.00e+00	0	23	0	1180696576	70	4566
2026-01-10 01:36:51.14	231.89	18.96	-52.3	-54.3	14.7	0.00e+00	0	23	0	1182793728	70	4621
2026-01-10 01:36:52.14	231.84	18.84	-52.3	-54.3	14.7	0.00e+00	0	23	0	1184890880	70	4621
2026-01-10 01:36:53.15	231.78	18.72	-52.3	-54.4	14.7	0.00e+00	0	23	0	1185939456	70	4654
2026-01-10 01:36:54.14	231.72	18.60	-52.4	-54.4	14.6	0.00e+00	0	23	0	1188036608	70	4684
2026-01-10 01:36:55.14	231.67	18.48	-52.3	-54.4	14.6	0.00e+00	0	23	0	1190133760	70	4654
2026-01-10 01:36:56.14	231.61	18.36	-52.4	-54.4	14.7	0.00e+00	0	23	0	1192230912	70	4672
2026-01-10 01:36:57.14	231.56	18.24	-52.4	-54.4	14.7	0.00e+00	0	23	0	1193279488	70	4669
2026-01-10 01:36:58.14	231.50	18.12	-52.4	-54.4	14.7	0.00e+00	0	23	0	1195376640	70	4654
2026-01-10 01:36:59.14	231.45	18.01	-52.4	-54.5	14.6	0.00e+00	0	23	0	1197473792	70	4708
2026-01-10 01:37:00.14	231.40	17.89	-52.3	-54.3	14.7	0.00e+00	0	23	0	1199570944	70	4617
2026-01-10 01:37:01.13	231.34	17.77	-52.3	-54.3	14.7	0.00e+00	0	23	0	1201668096	70	4634
2026-01-10 01:37:02.13	231.29	17.66	-52.4	-54.4	14.7	0.00e+00	0	23	0	1202716672	70	4664
2026-01-10 01:37:03.12	231.24	17.54	-52.1	-54.0	14.9	0.00e+00	0	23	0	1204813824	70	4453
2026-01-10 01:37:04.12	231.19	17.43	-52.1	-54.0	14.9	0.00e+00	0	23	0	1206910976	70	4459
2026-01-10 01:37:05.13	231.14	17.31	-52.0	-53.9	14.9	0.00e+00	0	23	0	1209008128	70	4413
2026-01-10 01:37:06.13	231.08	17.20	-52.0	-53.9	14.9	0.00e+00	0	23	0	1211105280	70	4438
2026-01-10 01:37:07.13	231.03	17.08	-52.1	-54.0	14.8	0.00e+00	0	23	0	1212153856	70	4486
2026-01-10 01:37:08.13	230.98	16.97	-52.1	-54.0	14.9	0.00e+00	0	23	0	1214251008	70	4491
2026-01-10 01:37:09.13	230.93	16.86	-52.1	-54.0	14.8	0.00e+00	0	23	0	1216348160	70	4479
2026-01-10 01:37:10.13	230.88	16.74	-52.2	-54.2	14.8	0.00e+00	0	23	0	1218445312	70	4569
2026-01-10 01:37:11.12	230.84	16.63	-52.3	-54.3	14.7	0.00e+00	0	23	0	1220542464	70	4602
2026-01-10 01:37:12.12	230.79	16.52	-52.3	-54.3	14.7	0.00e+00	0	23	0	1221591040	70	4621
2026-01-10 01:37:13.11	230.74	16.41	-52.3	-54.3	14.7	0.00e+00	0	23	0	1223688192	70	4646
2026-01-10 01:37:14.11	230.69	16.30	-52.4	-54.5	14.6	0.00e+00	0	23	0	1225785344	70	4708
2026-01-10 01:37:15.11	230.64	16.19	-52.5	-54.6	14.6	0.00e+00	0	23	0	1227882496	70	4775
2026-01-10 01:37:16.11	230.60	16.08	-52.5	-54.6	14.5	0.00e+00	0	23	0	1228931072	70	4782
2026-01-10 01:37:17.11	230.55	15.97	-52.6	-54.8	14.4	0.00e+00	0	23	0	1231028224	70	4883
2026-01-10 01:37:18.10	230.51	15.87	-52.6	-54.8	14.4	0.00e+00	0	23	0	1233125376	70	4900
2026-01-10 01:37:19.10	230.46	15.76	-52.7	-54.9	14.4	0.00e+00	0	23	0	1235222528	70	4929
