passes_logs/2026/01/10/R3.2S_Murmansk/R3.2S_Murmansk__20260110_042455_SUOMI_NPP_rec.log

#Pass ID: 20260110_042455_SUOMI NPP
#Satellite: SUOMI NPP
#Configuration: NPP
#almurnet v.1.7.20251203
#Start time: 2026-01-10 04:24:55

#Version: 2.2.20231116
#Station: R3.2S_Murmansk
#Location: 33.079688 lon 68.888172 lat
#TLE: 1 37849U 11061A   26008.83076692  .00000095  00000+0  66074-4 0  9997
#TLE: 2 37849  98.7806 310.9327 0002533  74.3004 285.8451 14.19523607735834

#Time	Az	El	Level	Level2	SNR	BER	BlckErr	Temp	State	Recorded	gain1	gain2
2026-01-10 04:24:55.52	51.10	1.99	-57.1	-73.1	3.8	1.49e+00	0	21	0	0	80	22523
2026-01-10 04:24:56.51	51.04	2.04	-57.0	-73.0	3.8	1.49e+00	0	21	104	0	79	23834
2026-01-10 04:24:57.51	50.98	2.10	-57.0	-73.0	3.8	1.49e+00	0	21	104	0	79	23794
2026-01-10 04:24:58.51	50.92	2.16	-57.1	-73.0	3.8	1.49e+00	0	21	104	0	79	23845
2026-01-10 04:24:59.51	50.86	2.22	-57.0	-73.0	3.8	1.49e+00	0	21	104	0	79	23826
2026-01-10 04:25:00.51	50.79	2.27	-57.1	-73.0	3.8	1.49e+00	0	21	104	0	79	23777
2026-01-10 04:25:01.52	50.73	2.33	-57.1	-73.0	3.8	1.49e+00	0	21	104	0	79	23755
2026-01-10 04:25:02.52	50.67	2.39	-57.0	-73.0	3.8	1.49e+00	0	21	104	0	79	23724
2026-01-10 04:25:03.53	50.60	2.45	-57.0	-73.0	3.8	1.49e+00	0	21	104	0	79	23675
2026-01-10 04:25:04.52	50.54	2.51	-57.0	-73.0	3.8	1.49e+00	0	21	104	0	79	23730
2026-01-10 04:25:05.51	50.48	2.56	-57.0	-73.0	3.8	1.49e+00	0	21	104	0	79	23698
2026-01-10 04:25:06.51	50.41	2.62	-57.0	-73.0	3.8	1.49e+00	0	21	104	0	79	23679
2026-01-10 04:25:07.52	50.35	2.68	-57.0	-73.0	3.8	1.49e+00	0	21	104	0	79	23730
2026-01-10 04:25:08.52	50.28	2.74	-57.0	-73.0	3.8	1.49e+00	0	22	104	0	79	23800
2026-01-10 04:25:09.52	50.22	2.80	-57.0	-73.0	3.8	1.49e+00	0	21	104	0	79	23705
2026-01-10 04:25:10.52	50.15	2.85	-57.0	-73.0	3.8	1.49e+00	0	21	104	0	79	23743
2026-01-10 04:25:11.52	50.09	2.91	-57.1	-73.0	3.8	1.49e+00	0	22	104	0	79	23823
2026-01-10 04:25:12.52	50.02	2.97	-57.1	-73.0	3.8	1.49e+00	0	21	104	0	79	23755
2026-01-10 04:25:13.52	49.96	3.03	-57.1	-73.1	3.8	1.49e+00	0	21	104	0	79	23883
2026-01-10 04:25:14.52	49.89	3.09	-57.1	-73.1	3.8	1.49e+00	0	22	104	0	79	23902
2026-01-10 04:25:15.52	49.82	3.15	-57.1	-73.0	3.8	1.49e+00	0	22	104	0	79	23818
2026-01-10 04:25:16.52	49.76	3.21	-57.1	-73.0	3.8	1.49e+00	0	22	104	0	79	23783
2026-01-10 04:25:17.52	49.69	3.27	-57.1	-73.0	3.8	1.49e+00	0	22	104	0	79	23756
2026-01-10 04:25:18.52	49.62	3.32	-57.1	-73.0	3.8	1.49e+00	0	22	104	0	79	23668
2026-01-10 04:25:19.52	49.56	3.38	-57.1	-73.0	3.8	1.49e+00	0	22	104	0	79	23751
2026-01-10 04:25:20.51	49.49	3.44	-57.1	-73.0	3.8	1.49e+00	0	22	104	0	79	23733
2026-01-10 04:25:21.51	49.42	3.50	-57.1	-73.0	3.8	1.49e+00	0	22	104	0	79	23785
2026-01-10 04:25:22.51	49.35	3.56	-57.0	-73.0	3.8	1.49e+00	0	22	104	0	79	23819
2026-01-10 04:25:23.51	49.28	3.62	-57.1	-73.0	3.8	1.49e+00	0	22	104	0	79	23847
2026-01-10 04:25:24.51	49.22	3.68	-57.0	-73.0	3.8	1.49e+00	0	22	104	0	79	23818
2026-01-10 04:25:25.51	49.15	3.74	-57.0	-73.0	3.8	1.49e+00	0	22	104	0	79	23709
2026-01-10 04:25:26.51	49.08	3.80	-57.0	-73.0	3.8	1.49e+00	0	22	104	0	79	23762
2026-01-10 04:25:27.51	49.01	3.86	-57.0	-73.0	3.8	1.49e+00	0	22	104	0	79	23629
2026-01-10 04:25:28.52	48.94	3.92	-57.0	-73.0	3.8	1.49e+00	0	22	104	0	79	23708
2026-01-10 04:25:29.51	48.87	3.98	-57.1	-73.0	3.8	1.49e+00	0	22	104	0	79	23807
2026-01-10 04:25:30.51	48.79	4.04	-57.1	-73.1	3.8	1.49e+00	0	22	104	0	79	23917
2026-01-10 04:25:31.51	48.72	4.10	-57.1	-73.0	3.8	1.49e+00	0	22	104	0	79	23695
2026-01-10 04:25:32.51	48.65	4.16	-57.1	-72.8	3.8	1.49e+00	0	22	104	0	79	23142
2026-01-10 04:25:33.51	48.58	4.22	-57.0	-72.5	3.8	1.49e+00	0	22	104	0	79	22455
2026-01-10 04:25:34.52	48.51	4.28	-57.0	-72.0	3.8	1.49e+00	0	22	104	0	79	21252
2026-01-10 04:25:35.52	48.44	4.34	-57.0	-71.4	3.8	1.49e+00	0	22	104	0	79	19816
2026-01-10 04:25:36.52	48.36	4.40	-57.0	-70.8	3.8	1.49e+00	0	22	104	0	79	18467
2026-01-10 04:25:37.52	48.29	4.46	-56.9	-70.1	4.1	1.49e+00	0	22	0	0	79	17021
2026-01-10 04:25:38.53	48.22	4.52	-56.9	-69.5	4.2	1.41e+00	0	22	0	0	79	15797
2026-01-10 04:25:39.53	48.14	4.59	-56.8	-68.6	4.5	1.29e+00	5	22	0	0	79	14245
2026-01-10 04:25:40.52	48.07	4.65	-56.8	-68.0	4.7	9.49e-01	0	22	0	2097152	79	13326
2026-01-10 04:25:41.53	47.99	4.71	-56.7	-67.2	5.1	6.27e-01	0	22	0	4194304	79	12142
2026-01-10 04:25:42.53	47.92	4.77	-56.6	-66.2	5.7	4.32e-01	0	22	0	6291456	79	10811
2026-01-10 04:25:43.53	47.84	4.83	-56.5	-65.6	6.1	2.94e-01	0	22	0	7340032	79	10112
2026-01-10 04:25:44.53	47.77	4.89	-56.4	-65.3	6.3	2.37e-01	0	22	0	9437184	79	9732
2026-01-10 04:25:45.52	47.69	4.95	-56.4	-64.7	6.7	1.75e-01	0	22	0	11534336	79	9150
2026-01-10 04:25:46.53	47.62	5.01	-56.4	-64.9	6.7	1.61e-01	0	22	0	13631488	79	9306
2026-01-10 04:25:47.53	47.54	5.08	-56.3	-64.1	7.4	2.11e-01	0	22	0	14680064	79	8489
2026-01-10 04:25:48.53	47.46	5.14	-56.7	-65.8	6.1	2.05e-01	0	22	0	16777216	79	10393
2026-01-10 04:25:49.53	47.39	5.20	-56.5	-65.0	6.6	2.87e-01	0	22	0	18874368	79	9448
2026-01-10 04:25:50.52	47.31	5.26	-55.1	-61.1	9.3	6.37e-01	0	22	0	20971520	77	6787
2026-01-10 04:25:51.51	47.23	5.32	-56.2	-64.0	7.6	3.12e-05	0	23	0	23068672	77	9464
2026-01-10 04:25:52.50	47.16	5.38	-56.5	-65.2	6.1	1.15e+00	0	22	104	23068672	78	10222
2026-01-10 04:25:53.50	47.08	5.45	-54.5	-58.7	11.9	3.12e-05	0	22	0	24117248	75	5780
2026-01-10 04:25:54.51	47.00	5.51	-54.3	-58.4	12.1	2.28e-05	0	22	0	26214400	75	5552
2026-01-10 04:25:55.50	46.92	5.57	-54.4	-58.6	11.9	1.22e-05	0	23	0	28311552	75	5686
2026-01-10 04:25:56.49	46.84	5.63	-54.0	-57.9	12.4	2.20e-06	0	22	0	30408704	74	5552
2026-01-10 04:25:57.49	46.76	5.70	-53.9	-57.7	12.7	7.00e-07	0	22	0	31457280	74	5403
2026-01-10 04:25:58.48	46.68	5.76	-53.5	-57.1	12.9	0.00e+00	0	23	0	33554432	73	5372
2026-01-10 04:25:59.48	46.60	5.82	-53.4	-56.9	13.1	0.00e+00	0	23	0	35651584	73	5243
2026-01-10 04:26:00.48	46.52	5.88	-53.4	-56.8	13.2	0.00e+00	0	23	0	37748736	73	5177
2026-01-10 04:26:01.48	46.44	5.95	-53.3	-56.6	13.3	0.00e+00	0	23	0	39845888	73	5058
2026-01-10 04:26:02.49	46.36	6.01	-53.3	-56.5	13.4	0.00e+00	0	22	0	40894464	73	5017
2026-01-10 04:26:03.49	46.28	6.07	-53.3	-56.6	13.4	0.00e+00	0	22	0	42991616	73	5051
2026-01-10 04:26:04.49	46.20	6.14	-53.3	-56.5	13.4	0.00e+00	0	23	0	45088768	73	5020
2026-01-10 04:26:05.49	46.11	6.20	-53.3	-56.6	13.3	0.00e+00	0	23	0	47185920	72	5345
2026-01-10 04:26:06.49	46.03	6.26	-53.2	-56.4	13.4	0.00e+00	0	23	0	49283072	72	5221
2026-01-10 04:26:07.48	45.95	6.33	-53.2	-56.4	13.3	0.00e+00	0	23	0	50331648	72	5268
2026-01-10 04:26:08.48	45.86	6.39	-53.3	-56.6	13.2	0.00e+00	0	22	0	52428800	72	5353
2026-01-10 04:26:09.47	45.78	6.45	-53.4	-56.7	13.2	0.00e+00	0	23	0	54525952	72	5421
2026-01-10 04:26:10.47	45.70	6.52	-53.3	-56.5	13.4	0.00e+00	0	23	0	56623104	72	5280
2026-01-10 04:26:11.47	45.61	6.58	-53.2	-56.3	13.5	0.00e+00	0	23	0	57671680	72	5187
2026-01-10 04:26:12.47	45.53	6.65	-53.2	-56.3	13.5	0.00e+00	0	23	0	59768832	72	5170
2026-01-10 04:26:13.47	45.44	6.71	-53.2	-56.4	13.4	0.00e+00	0	23	0	61865984	72	5259
2026-01-10 04:26:14.47	45.35	6.77	-53.2	-56.3	13.5	0.00e+00	0	23	0	63963136	72	5182
2026-01-10 04:26:15.47	45.27	6.84	-53.2	-56.3	13.5	0.00e+00	0	22	0	66060288	72	5209
2026-01-10 04:26:16.47	45.18	6.90	-53.1	-56.2	13.5	0.00e+00	0	23	0	67108864	72	5118
2026-01-10 04:26:17.47	45.09	6.97	-53.1	-56.2	13.6	0.00e+00	0	23	0	69206016	72	5103
2026-01-10 04:26:18.47	45.00	7.03	-53.0	-55.9	13.7	0.00e+00	0	23	0	71303168	72	4952
2026-01-10 04:26:19.47	44.92	7.10	-53.1	-56.1	13.6	0.00e+00	0	23	0	73400320	72	5046
2026-01-10 04:26:20.47	44.83	7.16	-53.0	-56.0	13.7	0.00e+00	0	23	0	75497472	72	4998
2026-01-10 04:26:21.47	44.74	7.23	-53.2	-56.4	13.5	0.00e+00	0	23	0	76546048	72	5229
2026-01-10 04:26:22.47	44.65	7.29	-53.2	-56.3	13.5	0.00e+00	0	23	0	78643200	72	5189
2026-01-10 04:26:23.47	44.56	7.36	-53.3	-56.5	13.3	0.00e+00	0	23	0	80740352	72	5298
2026-01-10 04:26:24.47	44.47	7.42	-53.4	-56.6	13.3	0.00e+00	0	23	0	82837504	72	5359
2026-01-10 04:26:25.47	44.38	7.49	-53.5	-56.8	13.2	0.00e+00	0	23	0	83886080	72	5495
2026-01-10 04:26:26.48	44.29	7.55	-53.5	-56.8	13.1	0.00e+00	0	23	0	85983232	72	5480
2026-01-10 04:26:27.47	44.20	7.62	-53.7	-57.2	12.8	0.00e+00	0	23	0	88080384	72	5765
2026-01-10 04:26:28.48	44.10	7.68	-53.4	-56.7	13.2	0.00e+00	0	23	0	90177536	72	5454
2026-01-10 04:26:29.48	44.01	7.75	-53.5	-56.9	13.1	0.00e+00	0	23	0	92274688	72	5571
2026-01-10 04:26:30.48	43.92	7.82	-53.5	-56.8	13.1	7.00e-07	0	23	0	93323264	72	5505
2026-01-10 04:26:31.48	43.83	7.88	-53.6	-57.0	13.0	0.00e+00	0	23	0	95420416	72	5652
2026-01-10 04:26:32.48	43.73	7.95	-53.6	-57.0	13.0	0.00e+00	0	23	0	97517568	72	5629
2026-01-10 04:26:33.48	43.64	8.01	-53.5	-57.0	13.0	0.00e+00	0	23	0	99614720	72	5623
2026-01-10 04:26:34.48	43.54	8.08	-53.6	-57.0	13.0	0.00e+00	0	23	0	101711872	72	5651
2026-01-10 04:26:35.49	43.45	8.15	-53.7	-57.3	12.8	0.00e+00	0	23	0	102760448	72	5793
2026-01-10 04:26:36.48	43.35	8.21	-53.5	-56.9	13.1	0.00e+00	0	23	0	104857600	72	5558
2026-01-10 04:26:37.48	43.26	8.28	-53.4	-56.7	13.2	0.00e+00	0	23	0	106954752	72	5442
2026-01-10 04:26:38.48	43.16	8.35	-53.3	-56.5	13.4	0.00e+00	0	23	0	109051904	72	5323
2026-01-10 04:26:39.48	43.06	8.41	-53.2	-56.4	13.5	0.00e+00	0	23	0	111149056	72	5253
2026-01-10 04:26:40.48	42.97	8.48	-53.2	-56.4	13.5	0.00e+00	0	23	0	112197632	72	5225
2026-01-10 04:26:41.48	42.87	8.55	-52.9	-56.0	13.7	0.00e+00	0	23	0	114294784	72	5013
2026-01-10 04:26:42.48	42.77	8.61	-53.0	-56.1	13.7	0.00e+00	0	23	0	116391936	72	5048
2026-01-10 04:26:43.48	42.67	8.68	-53.1	-56.2	13.6	0.00e+00	0	23	0	118489088	72	5134
2026-01-10 04:26:44.47	42.57	8.75	-53.0	-56.1	13.7	0.00e+00	0	23	0	119537664	72	5048
2026-01-10 04:26:45.48	42.47	8.82	-53.0	-56.0	13.8	0.00e+00	0	23	0	121634816	72	5031
2026-01-10 04:26:46.48	42.37	8.88	-53.0	-56.0	13.8	0.00e+00	0	23	0	123731968	72	5025
2026-01-10 04:26:47.47	42.27	8.95	-53.0	-56.1	13.7	0.00e+00	0	23	0	125829120	72	5065
2026-01-10 04:26:48.47	42.17	9.02	-52.8	-55.7	14.0	0.00e+00	0	23	0	127926272	72	4820
2026-01-10 04:26:49.46	42.07	9.08	-52.7	-55.6	13.9	0.00e+00	0	23	0	128974848	71	5049
2026-01-10 04:26:50.45	41.97	9.15	-52.7	-55.6	13.8	0.00e+00	0	23	0	131072000	71	5099
2026-01-10 04:26:51.45	41.87	9.22	-52.7	-55.6	13.9	0.00e+00	0	23	0	133169152	71	5056
2026-01-10 04:26:52.45	41.77	9.29	-52.6	-55.4	14.1	0.00e+00	0	23	0	135266304	71	4942
2026-01-10 04:26:53.44	41.66	9.35	-52.6	-55.4	14.1	0.00e+00	0	23	0	136314880	71	4935
2026-01-10 04:26:54.44	41.56	9.42	-52.6	-55.4	14.0	0.00e+00	0	23	0	138412032	71	4982
2026-01-10 04:26:55.44	41.46	9.49	-52.7	-55.5	14.0	0.00e+00	0	23	0	140509184	71	5007
2026-01-10 04:26:56.44	41.35	9.56	-52.7	-55.6	13.9	0.00e+00	0	23	0	142606336	71	5081
2026-01-10 04:26:57.44	41.25	9.63	-52.8	-55.7	13.9	0.00e+00	0	23	0	144703488	71	5117
2026-01-10 04:26:58.44	41.14	9.70	-52.7	-55.6	13.9	0.00e+00	0	23	0	145752064	71	5070
2026-01-10 04:26:59.44	41.03	9.76	-52.8	-55.6	13.9	0.00e+00	0	23	0	147849216	71	5099
2026-01-10 04:27:00.43	40.93	9.83	-52.7	-55.5	13.9	0.00e+00	0	23	0	149946368	71	5039
2026-01-10 04:27:01.43	40.82	9.90	-52.8	-55.6	13.9	0.00e+00	0	23	0	152043520	71	5097
2026-01-10 04:27:02.43	40.71	9.97	-52.6	-55.4	14.1	0.00e+00	0	23	0	154140672	71	4955
2026-01-10 04:27:03.42	40.60	10.04	-52.6	-55.3	14.1	0.00e+00	0	23	0	155189248	71	4920
2026-01-10 04:27:04.42	40.50	10.11	-52.7	-55.5	14.0	0.00e+00	0	23	0	157286400	71	5013
2026-01-10 04:27:05.41	40.39	10.18	-52.6	-55.3	14.1	0.00e+00	0	23	0	159383552	71	4907
2026-01-10 04:27:06.42	40.28	10.25	-52.7	-55.5	14.0	0.00e+00	0	23	0	161480704	71	5032
2026-01-10 04:27:07.41	40.17	10.31	-52.7	-55.5	14.0	0.00e+00	0	23	0	163577856	71	5019
2026-01-10 04:27:08.41	40.06	10.38	-52.8	-55.6	13.9	0.00e+00	0	23	0	164626432	71	5054
2026-01-10 04:27:09.41	39.94	10.45	-52.8	-55.6	13.9	0.00e+00	0	23	0	166723584	71	5087
2026-01-10 04:27:10.40	39.83	10.52	-52.7	-55.4	14.1	0.00e+00	0	23	0	168820736	71	4951
2026-01-10 04:27:11.40	39.72	10.59	-52.7	-55.4	14.1	0.00e+00	0	23	0	170917888	71	4950
2026-01-10 04:27:12.40	39.61	10.66	-52.7	-55.4	14.0	0.00e+00	0	23	0	171966464	71	4970
2026-01-10 04:27:13.40	39.49	10.73	-52.8	-55.5	14.0	0.00e+00	0	23	0	174063616	71	5026
2026-01-10 04:27:14.41	39.38	10.80	-52.9	-55.7	13.9	0.00e+00	0	23	0	176160768	71	5146
2026-01-10 04:27:15.40	39.26	10.87	-52.9	-55.7	13.8	0.00e+00	0	23	0	178257920	71	5159
2026-01-10 04:27:16.41	39.15	10.94	-52.8	-55.6	13.9	0.00e+00	0	23	0	180355072	71	5077
2026-01-10 04:27:17.40	39.03	11.01	-52.8	-55.5	14.0	0.00e+00	0	23	0	181403648	71	5026
2026-01-10 04:27:18.40	38.91	11.08	-52.9	-55.8	13.8	0.00e+00	0	23	0	183500800	71	5166
2026-01-10 04:27:19.40	38.80	11.15	-52.8	-55.6	13.9	0.00e+00	0	23	0	185597952	71	5087
2026-01-10 04:27:20.40	38.68	11.22	-52.9	-55.8	13.8	0.00e+00	0	23	0	187695104	71	5187
2026-01-10 04:27:21.40	38.56	11.29	-52.9	-55.7	13.8	0.00e+00	0	23	0	188743680	71	5142
2026-01-10 04:27:22.41	38.44	11.36	-53.0	-55.8	13.9	0.00e+00	0	23	0	190840832	71	5210
2026-01-10 04:27:23.41	38.32	11.44	-52.8	-55.6	13.9	0.00e+00	0	23	0	192937984	71	5087
2026-01-10 04:27:24.41	38.20	11.51	-52.9	-55.7	13.9	0.00e+00	0	23	0	195035136	71	5136
2026-01-10 04:27:25.42	38.08	11.58	-52.9	-55.8	13.8	0.00e+00	0	23	0	197132288	71	5171
2026-01-10 04:27:26.41	37.96	11.65	-52.9	-55.7	13.8	0.00e+00	0	23	0	198180864	71	5150
2026-01-10 04:27:27.41	37.83	11.72	-52.9	-55.7	13.8	0.00e+00	0	23	0	200278016	71	5151
2026-01-10 04:27:28.42	37.71	11.79	-52.9	-55.7	13.8	0.00e+00	0	23	0	202375168	71	5145
2026-01-10 04:27:29.42	37.59	11.86	-52.8	-55.5	14.0	0.00e+00	0	23	0	204472320	71	5023
2026-01-10 04:27:30.41	37.46	11.93	-52.7	-55.4	14.2	0.00e+00	0	23	0	206569472	71	4931
2026-01-10 04:27:31.41	37.34	12.00	-52.4	-54.9	14.3	0.00e+00	0	23	0	207618048	71	4681
2026-01-10 04:27:32.41	37.21	12.07	-52.4	-54.9	14.3	0.00e+00	0	23	0	209715200	71	4704
2026-01-10 04:27:33.41	37.09	12.15	-52.3	-54.8	14.4	0.00e+00	0	23	0	211812352	71	4637
2026-01-10 04:27:34.41	36.96	12.22	-52.3	-54.7	14.5	0.00e+00	0	23	0	213909504	71	4583
2026-01-10 04:27:35.41	36.84	12.29	-52.2	-54.6	14.6	0.00e+00	0	23	0	214958080	71	4535
2026-01-10 04:27:36.42	36.71	12.36	-52.3	-54.8	14.3	0.00e+00	0	23	0	217055232	70	4905
2026-01-10 04:27:37.41	36.58	12.43	-52.3	-54.8	14.3	0.00e+00	0	23	0	219152384	70	4918
2026-01-10 04:27:38.41	36.45	12.50	-52.3	-54.9	14.3	0.00e+00	0	23	0	221249536	70	4940
2026-01-10 04:27:39.41	36.32	12.58	-52.2	-54.7	14.4	0.00e+00	0	23	0	223346688	70	4817
2026-01-10 04:27:40.41	36.19	12.65	-52.2	-54.7	14.4	0.00e+00	0	23	0	225443840	70	4825
2026-01-10 04:27:41.41	36.06	12.72	-52.0	-54.3	14.6	0.00e+00	0	23	0	226492416	70	4635
2026-01-10 04:27:42.41	35.93	12.79	-51.9	-54.3	14.6	0.00e+00	0	23	0	228589568	70	4614
2026-01-10 04:27:43.40	35.80	12.86	-52.0	-54.3	14.5	0.00e+00	0	23	0	230686720	70	4641
2026-01-10 04:27:44.40	35.66	12.94	-52.1	-54.4	14.5	0.00e+00	0	23	0	232783872	70	4702
2026-01-10 04:27:45.40	35.53	13.01	-52.2	-54.6	14.4	0.00e+00	0	23	0	233832448	70	4778
2026-01-10 04:27:46.40	35.40	13.08	-52.2	-54.6	14.4	0.00e+00	0	23	0	235929600	70	4811
2026-01-10 04:27:47.39	35.26	13.15	-52.4	-54.8	14.2	0.00e+00	0	23	0	238026752	70	4915
2026-01-10 04:27:48.39	35.13	13.22	-52.4	-54.9	14.2	0.00e+00	0	23	0	240123904	70	4964
2026-01-10 04:27:49.38	34.99	13.30	-52.0	-54.3	14.6	0.00e+00	0	23	0	242221056	70	4639
2026-01-10 04:27:50.38	34.86	13.37	-52.0	-54.2	14.6	0.00e+00	0	23	0	243269632	70	4593
2026-01-10 04:27:51.39	34.72	13.44	-52.0	-54.3	14.5	0.00e+00	0	23	0	245366784	70	4644
2026-01-10 04:27:52.38	34.58	13.51	-51.9	-54.2	14.7	0.00e+00	0	23	0	247463936	70	4552
2026-01-10 04:27:53.39	34.44	13.59	-51.9	-54.2	14.7	0.00e+00	0	23	0	249561088	70	4555
2026-01-10 04:27:54.38	34.30	13.66	-52.0	-54.4	14.5	0.00e+00	0	23	0	250609664	70	4658
2026-01-10 04:27:55.37	34.16	13.73	-52.0	-54.3	14.5	0.00e+00	0	23	0	252706816	70	4640
2026-01-10 04:27:56.37	34.02	13.80	-51.9	-54.1	14.7	0.00e+00	0	23	0	254803968	70	4536
2026-01-10 04:27:57.37	33.88	13.88	-51.8	-54.1	14.7	0.00e+00	0	23	0	256901120	70	4499
2026-01-10 04:27:58.36	33.74	13.95	-51.9	-54.2	14.6	0.00e+00	0	23	0	258998272	70	4590
2026-01-10 04:27:59.36	33.59	14.02	-52.0	-54.3	14.6	0.00e+00	0	23	0	260046848	70	4630
2026-01-10 04:28:00.36	33.45	14.09	-51.8	-54.1	14.7	0.00e+00	0	23	0	262144000	70	4517
2026-01-10 04:28:01.36	33.31	14.17	-51.8	-54.1	14.7	0.00e+00	0	23	0	264241152	70	4510
2026-01-10 04:28:02.36	33.16	14.24	-51.6	-53.9	14.8	0.00e+00	0	23	0	266338304	70	4397
2026-01-10 04:28:03.36	33.01	14.31	-51.7	-54.0	14.6	0.00e+00	0	23	0	267386880	69	4722
2026-01-10 04:28:04.36	32.87	14.39	-51.7	-54.0	14.5	0.00e+00	0	23	0	269484032	69	4749
2026-01-10 04:28:05.36	32.72	14.46	-51.7	-54.0	14.5	0.00e+00	0	23	0	271581184	69	4752
2026-01-10 04:28:06.36	32.57	14.53	-51.8	-54.2	14.4	0.00e+00	0	23	0	273678336	69	4843
2026-01-10 04:28:07.36	32.42	14.61	-51.8	-54.2	14.4	0.00e+00	0	23	0	275775488	69	4859
2026-01-10 04:28:08.36	32.27	14.68	-51.8	-54.1	14.5	0.00e+00	0	23	0	276824064	69	4805
2026-01-10 04:28:09.36	32.12	14.75	-51.9	-54.4	14.3	0.00e+00	0	23	0	278921216	69	4954
2026-01-10 04:28:10.36	31.97	14.82	-52.0	-54.4	14.2	0.00e+00	0	23	0	281018368	69	4980
2026-01-10 04:28:11.36	31.82	14.90	-52.2	-54.8	14.1	0.00e+00	0	23	0	283115520	69	5175
2026-01-10 04:28:12.36	31.66	14.97	-52.3	-55.0	14.0	0.00e+00	0	23	0	285212672	69	5286
2026-01-10 04:28:13.36	31.51	15.04	-52.3	-55.1	13.9	0.00e+00	0	23	0	286261248	69	5343
2026-01-10 04:28:14.36	31.36	15.12	-52.3	-55.1	14.0	0.00e+00	0	23	0	288358400	69	5349
2026-01-10 04:28:15.36	31.20	15.19	-52.5	-55.3	14.0	0.00e+00	0	23	0	290455552	70	5164
2026-01-10 04:28:16.36	31.05	15.26	-52.4	-55.1	14.1	0.00e+00	0	23	0	292552704	70	5044
2026-01-10 04:28:17.35	30.89	15.34	-52.4	-55.1	14.1	0.00e+00	0	23	0	293601280	70	5051
2026-01-10 04:28:18.35	30.73	15.41	-52.3	-54.9	14.2	0.00e+00	0	23	0	295698432	70	4933
2026-01-10 04:28:19.35	30.57	15.48	-52.3	-54.9	14.2	0.00e+00	0	23	0	297795584	70	4970
2026-01-10 04:28:20.35	30.42	15.56	-52.4	-55.0	14.2	0.00e+00	0	23	0	299892736	70	4987
2026-01-10 04:28:21.35	30.26	15.63	-52.4	-55.1	14.1	0.00e+00	0	23	0	301989888	70	5076
2026-01-10 04:28:22.35	30.09	15.70	-52.3	-54.9	14.2	0.00e+00	0	23	0	303038464	70	4945
2026-01-10 04:28:23.34	29.93	15.78	-52.4	-55.0	14.2	0.00e+00	0	23	0	305135616	70	5006
2026-01-10 04:28:24.34	29.77	15.85	-52.4	-55.0	14.2	0.00e+00	0	23	0	307232768	70	5018
2026-01-10 04:28:25.34	29.61	15.92	-52.2	-54.7	14.4	0.00e+00	0	23	0	309329920	70	4821
2026-01-10 04:28:26.34	29.44	15.99	-52.3	-54.9	14.2	0.00e+00	0	23	0	311427072	70	4939
2026-01-10 04:28:27.34	29.28	16.07	-52.4	-55.0	14.2	0.00e+00	0	23	0	312475648	70	4999
2026-01-10 04:28:28.34	29.11	16.14	-52.5	-55.1	14.1	0.00e+00	0	23	0	314572800	70	5054
2026-01-10 04:28:29.34	28.95	16.21	-52.5	-55.1	14.1	0.00e+00	0	23	0	316669952	70	5067
2026-01-10 04:28:30.34	28.78	16.29	-52.4	-55.1	14.1	0.00e+00	0	23	0	318767104	70	5070
2026-01-10 04:28:31.34	28.61	16.36	-52.4	-55.1	14.1	0.00e+00	0	23	0	320864256	70	5068
2026-01-10 04:28:32.34	28.44	16.43	-52.5	-55.2	14.0	0.00e+00	0	23	0	321912832	70	5146
2026-01-10 04:28:33.34	28.27	16.51	-52.4	-55.0	14.2	0.00e+00	0	23	0	324009984	70	5021
2026-01-10 04:28:34.35	28.10	16.58	-52.3	-54.8	14.2	0.00e+00	0	23	0	326107136	70	4924
2026-01-10 04:28:35.35	27.93	16.65	-52.1	-54.5	14.4	0.00e+00	0	23	0	328204288	70	4748
2026-01-10 04:28:36.35	27.76	16.73	-52.1	-54.6	14.4	0.00e+00	0	23	0	329252864	70	4769
2026-01-10 04:28:37.35	27.58	16.80	-52.1	-54.6	14.4	0.00e+00	0	23	0	331350016	70	4790
2026-01-10 04:28:38.35	27.41	16.87	-52.2	-54.8	14.3	0.00e+00	0	23	0	333447168	70	4873
2026-01-10 04:28:39.35	27.24	16.94	-52.2	-54.7	14.3	0.00e+00	0	23	0	335544320	70	4830
2026-01-10 04:28:40.35	27.06	17.02	-52.1	-54.5	14.4	0.00e+00	0	23	0	337641472	70	4748
2026-01-10 04:28:41.36	26.88	17.09	-52.2	-54.7	14.3	0.00e+00	0	23	0	338690048	70	4829
2026-01-10 04:28:42.35	26.71	17.16	-52.3	-54.9	14.2	0.00e+00	0	23	0	340787200	70	4946
2026-01-10 04:28:43.35	26.53	17.23	-52.2	-54.8	14.3	0.00e+00	0	23	0	342884352	70	4909
2026-01-10 04:28:44.34	26.35	17.30	-52.4	-55.0	14.2	0.00e+00	0	23	0	344981504	70	5002
2026-01-10 04:28:45.35	26.17	17.38	-52.3	-54.8	14.3	0.00e+00	0	23	0	347078656	70	4916
2026-01-10 04:28:46.34	25.99	17.45	-52.3	-54.9	14.2	0.00e+00	0	23	0	348127232	70	4962
2026-01-10 04:28:47.35	25.81	17.52	-52.3	-54.9	14.2	0.00e+00	0	23	0	350224384	70	4934
2026-01-10 04:28:48.34	25.63	17.59	-52.2	-54.8	14.3	0.00e+00	0	23	0	352321536	70	4894
2026-01-10 04:28:49.34	25.44	17.67	-52.1	-54.6	14.4	0.00e+00	0	23	0	354418688	70	4793
2026-01-10 04:28:50.34	25.26	17.74	-52.2	-54.7	14.4	0.00e+00	0	23	0	356515840	70	4829
2026-01-10 04:28:51.34	25.07	17.81	-52.2	-54.6	14.3	0.00e+00	0	23	0	357564416	70	4814
2026-01-10 04:28:52.33	24.89	17.88	-52.2	-54.7	14.4	0.00e+00	0	23	0	359661568	70	4826
2026-01-10 04:28:53.33	24.70	17.95	-52.4	-55.0	14.2	0.00e+00	0	23	0	361758720	70	5034
2026-01-10 04:28:54.33	24.51	18.02	-52.6	-55.3	14.0	0.00e+00	0	23	0	363855872	70	5188
2026-01-10 04:28:55.33	24.32	18.09	-52.5	-55.2	14.0	0.00e+00	0	23	0	364904448	70	5134
2026-01-10 04:28:56.33	24.13	18.16	-52.3	-54.9	14.2	0.00e+00	0	23	0	367001600	70	4964
2026-01-10 04:28:57.34	23.94	18.24	-52.3	-54.8	14.3	0.00e+00	0	23	0	369098752	70	4893
2026-01-10 04:28:58.32	23.75	18.31	-52.3	-54.9	14.4	0.00e+00	0	23	0	371195904	70	4929
2026-01-10 04:28:59.32	23.56	18.38	-52.4	-55.0	14.2	0.00e+00	0	23	0	373293056	70	5019
2026-01-10 04:29:00.31	23.37	18.45	-52.1	-54.6	14.5	0.00e+00	0	23	0	374341632	70	4765
2026-01-10 04:29:01.30	23.18	18.52	-52.1	-54.6	14.4	0.00e+00	0	23	0	376438784	70	4783
2026-01-10 04:29:02.30	22.98	18.59	-52.0	-54.3	14.6	0.00e+00	0	23	0	378535936	70	4626
2026-01-10 04:29:03.30	22.79	18.66	-51.9	-54.2	14.7	0.00e+00	0	23	0	380633088	70	4572
2026-01-10 04:29:04.31	22.59	18.73	-51.8	-54.0	14.8	0.00e+00	0	23	0	381681664	70	4471
2026-01-10 04:29:05.31	22.39	18.80	-51.9	-54.2	14.7	0.00e+00	0	23	0	383778816	70	4566
2026-01-10 04:29:06.31	22.19	18.87	-51.9	-54.2	14.7	0.00e+00	0	23	0	385875968	70	4556
2026-01-10 04:29:07.30	21.99	18.94	-51.9	-54.3	14.7	0.00e+00	0	23	0	387973120	70	4603
2026-01-10 04:29:08.30	21.79	19.00	-52.1	-54.5	14.5	0.00e+00	0	23	0	390070272	70	4757
2026-01-10 04:29:09.30	21.59	19.07	-51.7	-54.1	14.7	0.00e+00	0	23	0	391118848	70	4536
2026-01-10 04:29:10.30	21.39	19.14	-51.7	-54.0	14.8	0.00e+00	0	23	0	393216000	70	4485
2026-01-10 04:29:11.30	21.18	19.21	-51.5	-53.8	14.7	0.00e+00	0	23	0	395313152	69	4609
2026-01-10 04:29:12.30	20.98	19.28	-51.2	-53.4	14.9	0.00e+00	0	23	0	397410304	69	4432
2026-01-10 04:29:13.31	20.77	19.35	-51.3	-53.5	14.9	0.00e+00	0	23	0	399507456	69	4471
2026-01-10 04:29:14.31	20.56	19.42	-51.3	-53.6	14.9	0.00e+00	0	23	0	400556032	69	4505
2026-01-10 04:29:15.31	20.36	19.49	-51.1	-53.3	14.8	0.00e+00	0	23	0	402653184	68	4630
2026-01-10 04:29:16.31	20.15	19.55	-50.8	-52.9	15.1	0.00e+00	0	23	0	404750336	68	4400
2026-01-10 04:29:17.31	19.94	19.62	-50.3	-52.2	15.2	0.00e+00	0	23	0	406847488	67	4332
2026-01-10 04:29:18.31	19.73	19.69	-50.4	-52.3	15.2	0.00e+00	0	23	0	408944640	67	4356
2026-01-10 04:29:19.32	19.52	19.76	-50.4	-52.3	15.1	0.00e+00	0	23	0	409993216	67	4370
2026-01-10 04:29:20.32	19.30	19.82	-50.6	-52.6	15.0	0.00e+00	0	23	0	412090368	67	4518
2026-01-10 04:29:21.32	19.09	19.89	-50.6	-52.7	15.0	0.00e+00	0	23	0	414187520	67	4559
2026-01-10 04:29:22.33	18.88	19.96	-50.8	-53.0	14.8	0.00e+00	0	23	0	416284672	67	4721
2026-01-10 04:29:23.33	18.66	20.02	-50.7	-52.8	14.9	0.00e+00	0	23	0	418381824	67	4601
2026-01-10 04:29:24.32	18.45	20.09	-50.6	-52.6	15.0	0.00e+00	0	23	0	419430400	67	4500
2026-01-10 04:29:25.32	18.23	20.15	-50.6	-52.6	15.0	0.00e+00	0	23	0	421527552	67	4541
2026-01-10 04:29:26.33	18.01	20.22	-50.6	-52.6	15.0	0.00e+00	0	23	0	423624704	67	4506
2026-01-10 04:29:27.34	17.79	20.29	-50.7	-52.7	14.9	0.00e+00	0	23	0	425721856	67	4574
2026-01-10 04:29:28.34	17.57	20.35	-50.8	-52.9	14.8	0.00e+00	0	23	0	426770432	67	4697
2026-01-10 04:29:29.34	17.35	20.41	-50.8	-52.9	14.9	0.00e+00	0	23	0	428867584	67	4662
2026-01-10 04:29:30.34	17.13	20.48	-50.5	-52.6	15.0	0.00e+00	0	23	0	430964736	67	4498
2026-01-10 04:29:31.35	16.90	20.54	-50.5	-52.6	15.1	0.00e+00	0	23	0	433061888	67	4497
2026-01-10 04:29:32.36	16.68	20.61	-50.7	-52.8	14.9	0.00e+00	0	23	0	435159040	67	4606
2026-01-10 04:29:33.36	16.45	20.67	-50.7	-52.8	14.9	0.00e+00	0	23	0	436207616	67	4647
2026-01-10 04:29:34.36	16.23	20.73	-50.8	-52.9	14.8	0.00e+00	0	23	0	438304768	67	4693
2026-01-10 04:29:35.36	16.00	20.80	-50.7	-52.8	14.9	0.00e+00	0	23	0	440401920	67	4602
2026-01-10 04:29:36.36	15.78	20.86	-50.6	-52.6	15.0	0.00e+00	0	23	0	442499072	67	4535
2026-01-10 04:29:37.36	15.55	20.92	-50.5	-52.6	15.0	0.00e+00	0	23	0	444596224	67	4516
2026-01-10 04:29:38.35	15.32	20.98	-50.4	-52.4	15.1	0.00e+00	0	23	0	445644800	67	4401
2026-01-10 04:29:39.36	15.09	21.05	-50.1	-52.1	15.1	0.00e+00	0	23	0	447741952	66	4494
2026-01-10 04:29:40.36	14.86	21.11	-50.0	-51.9	15.2	0.00e+00	0	23	0	449839104	66	4417
2026-01-10 04:29:41.36	14.63	21.17	-50.1	-52.0	15.2	0.00e+00	0	23	0	451936256	66	4465
2026-01-10 04:29:42.35	14.40	21.23	-50.0	-51.9	15.2	0.00e+00	0	23	0	452984832	66	4395
2026-01-10 04:29:43.36	14.16	21.29	-50.1	-51.9	15.3	0.00e+00	0	23	0	455081984	66	4407
2026-01-10 04:29:44.36	13.93	21.35	-50.0	-51.8	15.2	0.00e+00	0	23	0	457179136	66	4359
2026-01-10 04:29:45.36	13.69	21.41	-49.9	-51.7	15.3	0.00e+00	0	23	0	459276288	66	4293
2026-01-10 04:29:46.36	13.45	21.47	-49.8	-51.5	15.4	0.00e+00	0	23	0	461373440	66	4242
2026-01-10 04:29:47.36	13.22	21.52	-49.9	-51.7	15.3	0.00e+00	0	23	0	463470592	66	4304
2026-01-10 04:29:48.36	12.98	21.58	-50.1	-52.0	15.2	0.00e+00	0	23	0	464519168	66	4443
2026-01-10 04:29:49.36	12.74	21.64	-49.9	-51.6	15.4	0.00e+00	0	23	0	466616320	66	4272
2026-01-10 04:29:50.37	12.50	21.70	-50.2	-52.0	15.2	0.00e+00	0	23	0	468713472	66	4481
2026-01-10 04:29:51.37	12.26	21.75	-50.2	-52.0	15.2	0.00e+00	0	23	0	470810624	66	4460
2026-01-10 04:29:52.37	12.02	21.81	-50.1	-51.9	15.3	0.00e+00	0	23	0	471859200	66	4396
2026-01-10 04:29:53.36	11.78	21.87	-50.1	-51.9	15.2	0.00e+00	0	23	0	473956352	66	4404
2026-01-10 04:29:54.36	11.53	21.92	-50.2	-52.0	15.2	0.00e+00	0	23	0	476053504	66	4442
2026-01-10 04:29:55.37	11.29	21.98	-50.2	-52.0	15.2	0.00e+00	0	23	0	478150656	66	4459
2026-01-10 04:29:56.36	11.04	22.03	-50.3	-52.2	15.1	0.00e+00	0	23	0	480247808	66	4562
2026-01-10 04:29:57.36	10.80	22.09	-50.4	-52.2	15.0	0.00e+00	0	23	0	481296384	66	4586
2026-01-10 04:29:58.36	10.55	22.14	-50.0	-51.7	15.3	0.00e+00	0	23	0	483393536	66	4334
2026-01-10 04:29:59.36	10.30	22.19	-49.8	-51.5	15.4	0.00e+00	0	23	0	485490688	66	4219
2026-01-10 04:30:00.37	10.05	22.25	-49.9	-51.6	15.4	0.00e+00	0	23	0	487587840	66	4259
2026-01-10 04:30:01.36	9.80	22.30	-49.9	-51.6	15.4	0.00e+00	0	23	0	488636416	66	4290
2026-01-10 04:30:02.35	9.56	22.35	-50.1	-51.9	15.2	0.00e+00	0	23	0	490733568	66	4410
2026-01-10 04:30:03.35	9.30	22.40	-50.2	-52.0	15.2	0.00e+00	0	23	0	492830720	66	4469
2026-01-10 04:30:04.35	9.05	22.45	-50.3	-52.1	15.1	0.00e+00	0	23	0	494927872	66	4515
2026-01-10 04:30:05.35	8.80	22.50	-50.1	-51.9	15.2	0.00e+00	0	23	0	497025024	66	4393
2026-01-10 04:30:06.35	8.55	22.55	-50.0	-51.7	15.3	0.00e+00	0	23	0	498073600	66	4312
2026-01-10 04:30:07.36	8.29	22.60	-50.0	-51.7	15.3	0.00e+00	0	23	0	500170752	66	4294
2026-01-10 04:30:08.36	8.03	22.65	-50.1	-51.8	15.3	0.00e+00	0	23	0	502267904	66	4370
2026-01-10 04:30:09.36	7.78	22.70	-50.2	-51.9	15.2	0.00e+00	0	23	0	504365056	66	4428
2026-01-10 04:30:10.36	7.52	22.75	-50.4	-52.2	15.1	0.00e+00	0	23	0	506462208	66	4553
2026-01-10 04:30:11.36	7.26	22.80	-50.1	-51.8	15.3	0.00e+00	0	23	0	507510784	66	4362
2026-01-10 04:30:12.36	7.00	22.84	-50.1	-51.9	15.3	0.00e+00	0	23	0	509607936	66	4409
2026-01-10 04:30:13.37	6.74	22.89	-50.1	-51.9	15.2	0.00e+00	0	23	0	511705088	66	4395
2026-01-10 04:30:14.36	6.49	22.94	-50.1	-51.9	15.2	0.00e+00	0	23	0	513802240	66	4408
2026-01-10 04:30:15.36	6.22	22.98	-50.3	-52.1	15.1	0.00e+00	0	23	0	514850816	66	4501
2026-01-10 04:30:16.36	5.96	23.03	-50.3	-52.2	15.1	0.00e+00	0	23	0	516947968	66	4555
2026-01-10 04:30:17.37	5.70	23.07	-50.3	-52.1	15.2	0.00e+00	0	23	0	519045120	66	4515
2026-01-10 04:30:18.37	5.44	23.11	-50.0	-51.8	15.3	0.00e+00	0	23	0	521142272	66	4345
2026-01-10 04:30:19.37	5.17	23.16	-50.0	-51.7	15.3	0.00e+00	0	23	0	523239424	66	4303
2026-01-10 04:30:20.38	4.90	23.20	-50.0	-51.7	15.3	0.00e+00	0	23	0	525336576	66	4313
2026-01-10 04:30:21.37	4.64	23.24	-50.1	-51.8	15.3	0.00e+00	0	23	0	526385152	66	4361
2026-01-10 04:30:22.37	4.38	23.28	-50.1	-51.7	15.3	0.00e+00	0	23	0	528482304	66	4330
2026-01-10 04:30:23.36	4.11	23.32	-49.9	-51.6	15.4	0.00e+00	0	23	0	530579456	66	4245
2026-01-10 04:30:24.37	3.84	23.36	-49.7	-51.4	15.5	0.00e+00	0	23	0	532676608	66	4151
2026-01-10 04:30:25.37	3.57	23.40	-49.8	-51.4	15.5	0.00e+00	0	23	0	533725184	66	4169
2026-01-10 04:30:26.37	3.30	23.44	-49.8	-51.4	15.5	0.00e+00	0	23	0	535822336	66	4189
2026-01-10 04:30:27.37	3.04	23.48	-49.9	-51.5	15.4	0.00e+00	0	23	0	537919488	66	4240
2026-01-10 04:30:28.36	2.77	23.51	-50.2	-51.9	15.2	0.00e+00	0	23	0	540016640	66	4413
2026-01-10 04:30:29.37	2.49	23.55	-50.5	-52.3	15.1	0.00e+00	0	23	0	542113792	66	4612
2026-01-10 04:30:30.37	2.22	23.59	-50.7	-52.5	14.9	0.00e+00	0	23	0	543162368	66	4757
2026-01-10 04:30:31.38	1.95	23.62	-50.7	-52.6	14.9	0.00e+00	0	23	0	545259520	66	4791
2026-01-10 04:30:32.38	1.68	23.66	-51.0	-52.9	14.9	0.00e+00	0	23	0	547356672	67	4698
2026-01-10 04:30:33.38	1.40	23.69	-51.4	-53.5	14.6	0.00e+00	0	23	0	549453824	67	5034
2026-01-10 04:30:34.39	1.13	23.73	-52.0	-54.2	14.5	0.00e+00	0	23	0	551550976	69	4870
2026-01-10 04:30:35.38	0.85	23.76	-52.4	-54.8	14.2	0.00e+00	0	23	0	552599552	69	5197
2026-01-10 04:30:36.38	0.58	23.79	-52.3	-54.8	14.3	0.00e+00	0	23	0	554696704	69	5168
2026-01-10 04:30:37.38	0.30	23.82	-52.2	-54.5	14.4	0.00e+00	0	23	0	556793856	69	5020
2026-01-10 04:30:38.38	0.03	23.85	-51.8	-54.0	14.7	0.00e+00	0	23	0	558891008	69	4716
2026-01-10 04:30:39.38	359.75	23.88	-51.4	-53.5	14.9	0.00e+00	0	23	0	560988160	69	4477
2026-01-10 04:30:40.37	359.48	23.91	-51.4	-53.4	15.0	0.00e+00	0	23	0	562036736	69	4422
2026-01-10 04:30:41.37	359.20	23.94	-51.5	-53.7	14.9	0.00e+00	0	23	0	564133888	69	4546
2026-01-10 04:30:42.37	358.92	23.97	-51.7	-53.9	14.7	0.00e+00	0	23	0	566231040	69	4694
2026-01-10 04:30:43.37	358.64	24.00	-51.6	-53.8	14.8	0.00e+00	0	23	0	568328192	69	4625
2026-01-10 04:30:44.37	358.36	24.02	-51.5	-53.7	14.9	0.00e+00	0	23	0	569376768	69	4550
2026-01-10 04:30:45.37	358.08	24.05	-51.5	-53.7	14.9	0.00e+00	0	23	0	571473920	69	4556
2026-01-10 04:30:46.37	357.80	24.08	-51.3	-53.4	15.0	0.00e+00	0	23	0	573571072	69	4395
2026-01-10 04:30:47.37	357.52	24.10	-51.1	-53.1	15.0	0.00e+00	0	23	0	575668224	68	4499
2026-01-10 04:30:48.36	357.24	24.12	-51.2	-53.2	14.9	0.00e+00	0	23	0	577765376	68	4573
2026-01-10 04:30:49.20	357.01	24.14	-51.3	-53.4	14.8	0.00e+00	0	23	0	578813952	68	4678
2026-01-10 04:30:50.34	356.69	24.17	-51.5	-53.7	14.6	0.00e+00	0	23	0	580911104	68	4834
2026-01-10 04:30:51.20	356.44	24.19	-51.7	-54.1	14.4	0.00e+00	0	23	0	583008256	68	5051
2026-01-10 04:30:52.34	356.12	24.21	-51.8	-54.1	14.5	0.00e+00	0	23	0	585105408	68	5051
2026-01-10 04:30:53.20	355.88	24.23	-51.6	-53.7	14.6	0.00e+00	0	23	0	586153984	68	4867
2026-01-10 04:30:54.33	355.56	24.25	-51.7	-53.9	14.6	0.00e+00	0	23	0	589299712	68	4945
2026-01-10 04:30:55.19	355.32	24.27	-51.7	-53.9	14.6	0.00e+00	0	23	0	590348288	68	4973
2026-01-10 04:30:56.33	354.99	24.29	-52.0	-54.4	14.4	0.00e+00	0	23	0	592445440	69	4929
2026-01-10 04:30:57.18	354.75	24.30	-52.2	-54.7	14.3	0.00e+00	0	23	0	594542592	69	5120
2026-01-10 04:30:58.32	354.43	24.32	-52.5	-55.1	14.2	0.00e+00	0	23	0	596639744	70	5091
2026-01-10 04:30:59.18	354.18	24.33	-52.3	-54.9	14.3	0.00e+00	0	23	0	597688320	70	4928
2026-01-10 04:31:00.33	353.85	24.35	-52.1	-54.6	14.5	0.00e+00	0	23	0	599785472	70	4788
2026-01-10 04:31:01.18	353.61	24.36	-51.9	-54.3	14.7	0.00e+00	0	23	0	601882624	70	4628
2026-01-10 04:31:02.33	353.28	24.38	-51.7	-53.9	14.9	0.00e+00	0	23	0	603979776	70	4437
2026-01-10 04:31:03.19	353.04	24.39	-51.8	-54.0	14.9	0.00e+00	0	23	0	605028352	70	4459
2026-01-10 04:31:04.33	352.71	24.40	-52.3	-54.8	14.4	0.00e+00	0	23	0	607125504	70	4918
2026-01-10 04:31:05.18	352.47	24.41	-52.6	-55.2	14.1	0.00e+00	0	23	0	609222656	70	5156
2026-01-10 04:31:06.33	352.14	24.42	-52.7	-55.3	14.0	0.00e+00	0	23	0	611319808	70	5216
2026-01-10 04:31:07.18	351.89	24.43	-52.7	-55.4	13.9	0.00e+00	0	23	0	612368384	70	5271
2026-01-10 04:31:08.33	351.56	24.44	-52.5	-55.1	14.2	0.00e+00	0	23	0	615514112	70	5077
2026-01-10 04:31:09.19	351.32	24.45	-52.1	-54.6	14.5	0.00e+00	0	23	0	616562688	70	4766
2026-01-10 04:31:10.33	350.99	24.46	-52.2	-54.6	14.5	0.00e+00	0	23	0	618659840	70	4782
2026-01-10 04:31:11.19	350.74	24.46	-52.2	-54.6	14.5	0.00e+00	0	23	0	620756992	70	4780
2026-01-10 04:31:12.33	350.41	24.47	-52.1	-54.4	14.6	0.00e+00	0	23	0	622854144	70	4681
2026-01-10 04:31:13.18	350.17	24.47	-52.0	-54.4	14.6	0.00e+00	0	23	0	623902720	70	4656
2026-01-10 04:31:14.33	349.84	24.48	-51.8	-54.1	14.7	0.00e+00	0	23	0	625999872	70	4532
2026-01-10 04:31:15.18	349.59	24.48	-51.3	-53.4	15.0	0.00e+00	0	23	0	628097024	69	4417
2026-01-10 04:31:16.33	349.26	24.48	-50.9	-52.9	15.0	0.00e+00	0	23	0	630194176	68	4437
2026-01-10 04:31:17.19	349.02	24.48	-50.9	-52.9	15.1	0.00e+00	0	23	0	631242752	68	4407
2026-01-10 04:31:18.34	348.68	24.48	-51.1	-53.3	14.9	0.00e+00	0	23	0	633339904	68	4610
2026-01-10 04:31:19.19	348.44	24.48	-51.3	-53.5	14.8	0.00e+00	0	23	0	635437056	68	4731
2026-01-10 04:31:20.33	348.11	24.48	-51.7	-54.1	14.5	0.00e+00	0	23	0	637534208	68	5054
2026-01-10 04:31:21.18	347.87	24.48	-51.8	-54.3	14.3	0.00e+00	0	23	0	639631360	68	5177
2026-01-10 04:31:22.33	347.54	24.48	-52.0	-54.5	14.4	0.00e+00	0	23	0	641728512	69	5015
2026-01-10 04:31:23.19	347.29	24.48	-51.9	-54.4	14.4	0.00e+00	0	23	0	642777088	69	4962
2026-01-10 04:31:24.32	346.96	24.47	-51.8	-54.2	14.5	0.00e+00	0	23	0	644874240	69	4823
2026-01-10 04:31:25.18	346.72	24.47	-51.6	-53.9	14.7	0.00e+00	0	23	0	646971392	69	4672
2026-01-10 04:31:26.33	346.39	24.46	-51.5	-53.7	14.8	0.00e+00	0	23	0	649068544	69	4554
2026-01-10 04:31:27.18	346.14	24.46	-51.3	-53.4	15.0	0.00e+00	0	23	0	650117120	69	4397
2026-01-10 04:31:28.32	345.81	24.45	-51.2	-53.2	14.9	0.00e+00	0	23	0	652214272	68	4579
2026-01-10 04:31:29.18	345.57	24.44	-51.0	-53.1	15.0	0.00e+00	0	23	0	654311424	68	4496
2026-01-10 04:31:30.33	345.24	24.43	-50.9	-52.9	15.1	0.00e+00	0	23	0	656408576	68	4409
2026-01-10 04:31:31.18	344.99	24.42	-50.9	-53.0	15.1	0.00e+00	0	23	0	657457152	68	4447
2026-01-10 04:31:32.33	344.66	24.41	-51.1	-53.1	15.0	0.00e+00	0	23	0	659554304	68	4537
2026-01-10 04:31:33.19	344.42	24.40	-51.1	-53.2	14.9	0.00e+00	0	23	0	661651456	68	4584
2026-01-10 04:31:34.33	344.09	24.39	-51.0	-53.0	15.1	0.00e+00	0	23	0	663748608	68	4461
2026-01-10 04:31:35.19	343.85	24.38	-50.7	-52.5	15.3	0.00e+00	0	23	0	665845760	68	4240
2026-01-10 04:31:36.34	343.52	24.36	-50.3	-52.1	15.3	0.00e+00	0	23	0	667942912	67	4278
2026-01-10 04:31:37.20	343.27	24.35	-50.6	-52.5	15.1	0.00e+00	0	23	0	668991488	67	4459
2026-01-10 04:31:38.34	342.95	24.34	-50.6	-52.5	15.1	0.00e+00	0	23	0	671088640	67	4467
2026-01-10 04:31:39.19	342.70	24.32	-50.8	-52.8	15.0	0.00e+00	0	23	0	673185792	67	4619
2026-01-10 04:31:40.34	342.38	24.30	-50.7	-52.7	15.0	0.00e+00	0	23	0	675282944	67	4551
2026-01-10 04:31:41.20	342.13	24.29	-50.6	-52.4	15.1	0.00e+00	0	23	0	676331520	67	4430
2026-01-10 04:31:42.35	341.81	24.27	-50.4	-52.2	15.3	0.00e+00	0	23	0	678428672	67	4315
2026-01-10 04:31:43.20	341.56	24.25	-50.4	-52.1	15.3	0.00e+00	0	23	0	680525824	67	4287
2026-01-10 04:31:44.35	341.24	24.23	-50.3	-52.1	15.3	0.00e+00	0	23	0	682622976	67	4268
2026-01-10 04:31:45.21	341.00	24.21	-50.3	-52.1	15.3	0.00e+00	0	23	0	684720128	67	4263
2026-01-10 04:31:46.35	340.67	24.19	-50.1	-51.8	15.3	0.00e+00	0	23	0	685768704	66	4355
2026-01-10 04:31:47.21	340.43	24.17	-49.6	-51.2	15.4	0.00e+00	0	23	0	687865856	65	4303
2026-01-10 04:31:48.35	340.11	24.15	-49.5	-51.1	15.5	0.00e+00	0	23	0	689963008	65	4251
2026-01-10 04:31:49.21	339.87	24.13	-49.4	-50.9	15.5	0.00e+00	0	23	0	692060160	65	4193
2026-01-10 04:31:50.36	339.54	24.10	-49.6	-51.2	15.4	0.00e+00	0	23	0	694157312	65	4306
2026-01-10 04:31:51.22	339.30	24.08	-49.7	-51.3	15.3	0.00e+00	0	23	0	695205888	65	4370
2026-01-10 04:31:52.36	338.98	24.05	-49.8	-51.4	15.3	0.00e+00	0	23	0	697303040	65	4407
2026-01-10 04:31:53.22	338.74	24.03	-49.9	-51.5	15.2	0.00e+00	0	23	0	699400192	65	4475
2026-01-10 04:31:54.35	338.43	24.00	-50.0	-51.6	15.2	0.00e+00	0	23	0	701497344	65	4516
2026-01-10 04:31:55.20	338.19	23.97	-49.9	-51.5	15.2	0.00e+00	0	23	0	702545920	65	4491
2026-01-10 04:31:56.35	337.87	23.94	-50.0	-51.7	15.2	0.00e+00	0	23	0	704643072	65	4573
2026-01-10 04:31:57.19	337.64	23.92	-50.0	-51.7	15.2	0.00e+00	0	23	0	706740224	65	4555
2026-01-10 04:31:58.32	337.32	23.88	-50.2	-51.9	15.1	0.00e+00	0	23	0	708837376	65	4661
2026-01-10 04:31:59.18	337.09	23.86	-50.1	-51.8	15.1	0.00e+00	0	23	0	709885952	65	4638
2026-01-10 04:32:00.32	336.77	23.82	-49.9	-51.6	15.2	0.00e+00	0	23	0	713031680	65	4505
2026-01-10 04:32:01.17	336.54	23.80	-50.3	-52.1	15.0	0.00e+00	0	23	0	714080256	65	4768
2026-01-10 04:32:02.32	336.22	23.76	-50.2	-51.9	15.1	0.00e+00	0	23	0	716177408	65	4678
2026-01-10 04:32:03.17	335.99	23.73	-50.2	-51.9	15.1	0.00e+00	0	23	0	718274560	65	4671
2026-01-10 04:32:04.31	335.67	23.69	-50.2	-51.8	15.1	0.00e+00	0	23	0	720371712	65	4641
2026-01-10 04:32:05.16	335.44	23.66	-50.2	-51.9	15.1	0.00e+00	0	23	0	721420288	65	4680
2026-01-10 04:32:06.30	335.13	23.62	-50.6	-52.4	15.0	0.00e+00	0	23	0	723517440	66	4667
2026-01-10 04:32:07.15	334.90	23.59	-50.8	-52.7	14.9	0.00e+00	0	23	0	725614592	66	4829
2026-01-10 04:32:08.30	334.59	23.55	-51.0	-52.8	14.9	0.00e+00	0	23	0	727711744	67	4645
2026-01-10 04:32:09.16	334.35	23.52	-50.9	-52.7	15.0	0.00e+00	0	23	0	728760320	67	4564
2026-01-10 04:32:10.30	334.05	23.48	-50.4	-52.1	15.3	0.00e+00	0	23	0	730857472	67	4271
2026-01-10 04:32:11.16	333.82	23.45	-50.3	-52.0	15.4	0.00e+00	0	23	0	732954624	67	4197
2026-01-10 04:32:12.31	333.51	23.40	-50.2	-51.9	15.4	0.00e+00	0	23	0	735051776	67	4173
2026-01-10 04:32:13.17	333.28	23.37	-50.1	-51.8	15.3	0.00e+00	0	23	0	736100352	66	4358
2026-01-10 04:32:14.31	332.97	23.32	-50.4	-52.2	15.1	0.00e+00	0	23	0	739246080	66	4565
2026-01-10 04:32:15.16	332.74	23.29	-50.6	-52.4	15.0	0.00e+00	0	23	0	740294656	66	4676
2026-01-10 04:32:16.31	332.44	23.24	-50.8	-52.7	14.9	0.00e+00	0	23	0	742391808	66	4840
2026-01-10 04:32:17.17	332.21	23.20	-50.8	-52.7	14.8	0.00e+00	0	23	0	744488960	66	4854
2026-01-10 04:32:18.30	331.91	23.16	-51.2	-53.2	14.8	0.00e+00	0	23	0	746586112	67	4827
2026-01-10 04:32:19.16	331.68	23.12	-51.2	-53.2	14.8	0.00e+00	0	23	0	747634688	67	4829
2026-01-10 04:32:20.31	331.38	23.07	-51.2	-53.1	14.8	0.00e+00	0	23	0	749731840	67	4814
2026-01-10 04:32:21.17	331.15	23.03	-51.1	-53.1	14.8	0.00e+00	0	23	0	751828992	67	4803
2026-01-10 04:32:22.32	330.85	22.98	-51.6	-53.7	14.7	0.00e+00	0	23	0	753926144	68	4820
2026-01-10 04:32:23.17	330.63	22.94	-51.7	-53.9	14.6	0.00e+00	0	23	0	754974720	68	4951
2026-01-10 04:32:24.32	330.33	22.89	-51.9	-54.2	14.6	0.00e+00	0	23	0	757071872	69	4825
2026-01-10 04:32:25.17	330.11	22.85	-51.9	-54.2	14.6	0.00e+00	0	23	0	759169024	69	4817
2026-01-10 04:32:26.32	329.81	22.80	-51.8	-54.0	14.6	0.00e+00	0	23	0	761266176	69	4729
2026-01-10 04:32:27.17	329.60	22.76	-51.6	-53.7	14.8	0.00e+00	0	23	0	763363328	69	4589
2026-01-10 04:32:28.32	329.30	22.70	-51.5	-53.6	14.9	0.00e+00	0	23	0	765460480	69	4543
2026-01-10 04:32:29.17	329.08	22.66	-51.4	-53.5	15.0	0.00e+00	0	23	0	766509056	69	4464
2026-01-10 04:32:30.31	328.79	22.60	-51.4	-53.5	15.0	0.00e+00	0	23	0	768606208	69	4456
2026-01-10 04:32:31.17	328.57	22.56	-51.5	-53.7	14.9	0.00e+00	0	23	0	770703360	69	4562
2026-01-10 04:32:32.31	328.28	22.50	-51.7	-54.0	14.7	0.00e+00	0	23	0	772800512	69	4710
2026-01-10 04:32:33.17	328.06	22.46	-52.0	-54.4	14.5	0.00e+00	0	23	0	773849088	69	4929
2026-01-10 04:32:34.32	327.77	22.40	-52.1	-54.5	14.4	0.00e+00	0	23	0	775946240	69	4988
2026-01-10 04:32:35.17	327.56	22.36	-52.0	-54.4	14.4	0.00e+00	0	23	0	778043392	69	4949
2026-01-10 04:32:36.32	327.27	22.30	-51.9	-54.3	14.5	0.00e+00	0	23	0	780140544	69	4893
2026-01-10 04:32:37.18	327.06	22.25	-51.8	-54.1	14.6	0.00e+00	0	23	0	781189120	69	4766
2026-01-10 04:32:38.32	326.77	22.19	-51.6	-53.9	14.8	0.00e+00	0	23	0	783286272	69	4653
2026-01-10 04:32:39.18	326.56	22.15	-51.6	-53.8	14.8	0.00e+00	0	23	0	785383424	69	4632
2026-01-10 04:32:40.32	326.28	22.09	-51.7	-54.0	14.7	0.00e+00	0	23	0	787480576	69	4746
2026-01-10 04:32:41.18	326.07	22.04	-51.6	-53.7	14.9	0.00e+00	0	23	0	789577728	69	4593
2026-01-10 04:32:42.33	325.79	21.98	-51.7	-53.9	14.7	0.00e+00	0	23	0	791674880	69	4685
2026-01-10 04:32:43.18	325.58	21.93	-51.3	-53.4	15.0	0.00e+00	0	23	0	792723456	69	4424
2026-01-10 04:32:44.33	325.30	21.87	-51.4	-53.6	14.9	0.00e+00	0	23	0	794820608	69	4510
2026-01-10 04:32:45.19	325.09	21.82	-51.7	-53.9	14.8	0.00e+00	0	23	0	796917760	69	4674
2026-01-10 04:32:46.33	324.81	21.75	-51.9	-54.3	14.5	0.00e+00	0	23	0	799014912	69	4894
2026-01-10 04:32:47.18	324.61	21.70	-52.0	-54.4	14.4	0.00e+00	0	23	0	800063488	69	4928
2026-01-10 04:32:48.32	324.34	21.64	-52.0	-54.4	14.5	0.00e+00	0	23	0	802160640	69	4942
2026-01-10 04:32:49.18	324.13	21.59	-51.8	-54.1	14.6	0.00e+00	0	23	0	804257792	69	4814
2026-01-10 04:32:50.32	323.86	21.52	-51.8	-54.1	14.6	0.00e+00	0	23	0	806354944	69	4771
2026-01-10 04:32:51.18	323.65	21.47	-51.7	-53.9	14.7	0.00e+00	0	23	0	807403520	69	4689
2026-01-10 04:32:52.33	323.38	21.41	-51.7	-53.9	14.7	0.00e+00	0	23	0	809500672	69	4688
2026-01-10 04:32:53.19	323.18	21.35	-51.9	-54.2	14.5	0.00e+00	0	23	0	811597824	69	4865
2026-01-10 04:32:54.34	322.91	21.29	-52.0	-54.5	14.4	0.00e+00	0	23	0	813694976	69	5018
2026-01-10 04:32:55.20	322.71	21.23	-52.3	-55.0	14.1	0.00e+00	0	23	0	815792128	69	5287
2026-01-10 04:32:56.34	322.44	21.17	-52.9	-55.8	13.7	0.00e+00	0	23	0	817889280	70	5518
2026-01-10 04:32:57.20	322.24	21.11	-53.1	-56.3	13.6	0.00e+00	0	23	0	818937856	71	5498
2026-01-10 04:32:58.34	321.98	21.04	-53.0	-56.1	13.7	0.00e+00	0	23	0	821035008	71	5381
2026-01-10 04:32:59.19	321.79	20.99	-53.2	-56.4	13.5	0.00e+00	0	23	0	823132160	71	5589
2026-01-10 04:33:00.34	321.52	20.92	-53.0	-56.1	13.7	0.00e+00	0	23	0	825229312	71	5341
2026-01-10 04:33:01.19	321.33	20.87	-52.6	-55.4	14.2	0.00e+00	0	23	0	826277888	71	4945
2026-01-10 04:33:02.34	321.07	20.80	-52.0	-54.5	14.6	0.00e+00	0	23	0	828375040	70	4714
2026-01-10 04:33:03.20	320.87	20.74	-51.9	-54.2	14.8	0.00e+00	0	23	0	830472192	70	4557
2026-01-10 04:33:04.35	320.61	20.67	-51.8	-54.0	14.8	0.00e+00	0	23	0	832569344	70	4493
2026-01-10 04:33:05.21	320.42	20.61	-51.6	-53.8	14.8	0.00e+00	0	23	0	834666496	69	4636
2026-01-10 04:33:06.35	320.17	20.54	-51.5	-53.7	14.8	0.00e+00	0	23	0	836763648	69	4583
2026-01-10 04:33:07.21	319.97	20.49	-51.5	-53.7	14.9	0.00e+00	0	23	0	837812224	69	4560
2026-01-10 04:33:08.36	319.72	20.41	-51.3	-53.5	14.9	0.00e+00	0	23	0	839909376	69	4481
2026-01-10 04:33:09.21	319.53	20.36	-51.0	-53.1	14.9	0.00e+00	0	23	0	842006528	68	4522
2026-01-10 04:33:10.36	319.28	20.28	-51.1	-53.2	14.9	0.00e+00	0	23	0	844103680	68	4546
2026-01-10 04:33:11.21	319.09	20.23	-50.9	-53.0	15.1	0.00e+00	0	23	0	845152256	68	4452
2026-01-10 04:33:12.36	318.84	20.15	-50.9	-52.9	15.1	0.00e+00	0	23	0	847249408	68	4432
2026-01-10 04:33:13.21	318.66	20.10	-50.8	-52.7	15.2	0.00e+00	0	23	0	849346560	68	4316
2026-01-10 04:33:14.36	318.41	20.02	-50.4	-52.2	15.2	0.00e+00	0	23	0	851443712	67	4323
2026-01-10 04:33:15.22	318.22	19.96	-50.1	-51.8	15.2	0.00e+00	0	23	0	852492288	66	4391
2026-01-10 04:33:16.36	317.98	19.89	-49.7	-51.4	15.5	0.00e+00	0	23	0	855638016	66	4160
2026-01-10 04:33:17.22	317.80	19.83	-49.6	-51.3	15.3	0.00e+00	0	23	0	856686592	65	4370
2026-01-10 04:33:18.37	317.55	19.75	-49.6	-51.4	15.3	0.00e+00	0	23	0	858783744	65	4394
2026-01-10 04:33:19.23	317.37	19.70	-49.7	-51.5	15.2	0.00e+00	0	23	0	860880896	65	4460
2026-01-10 04:33:20.38	317.13	19.62	-50.0	-51.8	15.1	0.00e+00	0	23	0	862978048	65	4640
2026-01-10 04:33:21.24	316.95	19.56	-50.4	-52.3	14.8	0.00e+00	0	23	0	864026624	65	4915
2026-01-10 04:33:22.39	316.71	19.48	-50.8	-52.8	14.7	0.00e+00	0	23	0	866123776	66	4919
2026-01-10 04:33:23.25	316.53	19.43	-51.0	-53.2	14.7	0.00e+00	0	23	0	868220928	67	4831
2026-01-10 04:33:24.39	316.30	19.35	-51.3	-53.6	14.5	0.00e+00	0	23	0	870318080	67	5058
2026-01-10 04:33:25.24	316.12	19.29	-51.7	-54.1	14.4	0.00e+00	0	23	0	871366656	68	5054
2026-01-10 04:33:26.39	315.89	19.21	-51.6	-54.0	14.5	0.00e+00	0	23	0	873463808	68	5016
2026-01-10 04:33:27.24	315.71	19.15	-51.7	-54.2	14.4	0.00e+00	0	23	0	875560960	68	5130
2026-01-10 04:33:28.39	315.48	19.07	-51.8	-54.3	14.3	0.00e+00	0	23	0	877658112	68	5194
2026-01-10 04:33:29.25	315.31	19.01	-51.7	-54.2	14.5	0.00e+00	0	23	0	878706688	69	4829
2026-01-10 04:33:30.40	315.07	18.93	-51.6	-54.0	14.7	0.00e+00	0	23	0	881852416	69	4715
2026-01-10 04:33:31.26	314.90	18.87	-51.5	-53.7	14.8	0.00e+00	0	23	0	882900992	69	4593
2026-01-10 04:33:32.40	314.68	18.79	-51.4	-53.7	14.8	0.00e+00	0	23	0	884998144	69	4561
2026-01-10 04:33:33.25	314.51	18.73	-51.3	-53.6	14.9	0.00e+00	0	23	0	887095296	69	4497
2026-01-10 04:33:34.40	314.28	18.65	-51.3	-53.5	14.9	0.00e+00	0	23	0	889192448	69	4486
2026-01-10 04:33:35.26	314.11	18.59	-51.3	-53.5	14.9	0.00e+00	0	23	0	890241024	69	4469
2026-01-10 04:33:36.41	313.89	18.51	-51.1	-53.2	14.9	0.00e+00	0	23	0	892338176	68	4567
2026-01-10 04:33:37.27	313.72	18.45	-51.0	-53.1	15.0	0.00e+00	0	23	0	894435328	68	4514
2026-01-10 04:33:38.42	313.50	18.37	-50.7	-52.7	15.2	0.00e+00	0	23	0	896532480	68	4337
2026-01-10 04:33:39.28	313.33	18.31	-50.9	-52.9	15.1	0.00e+00	0	23	0	897581056	68	4421
2026-01-10 04:33:40.42	313.11	18.23	-51.0	-53.0	15.0	0.00e+00	0	23	0	900726784	68	4488
2026-01-10 04:33:41.27	312.95	18.17	-51.2	-53.4	14.8	0.00e+00	0	23	0	901775360	68	4663
2026-01-10 04:33:42.42	312.73	18.09	-51.5	-53.8	14.6	0.00e+00	0	23	0	903872512	68	4909
2026-01-10 04:33:43.28	312.57	18.03	-51.6	-54.0	14.5	0.00e+00	0	23	0	905969664	68	5004
2026-01-10 04:33:44.42	312.35	17.94	-51.7	-54.0	14.4	0.00e+00	0	23	0	908066816	68	5030
2026-01-10 04:33:45.28	312.19	17.88	-51.4	-53.6	14.7	0.00e+00	0	23	0	909115392	68	4779
2026-01-10 04:33:46.42	311.98	17.80	-51.2	-53.3	14.8	0.00e+00	0	23	0	911212544	68	4646
2026-01-10 04:33:47.28	311.82	17.74	-51.3	-53.4	14.8	0.00e+00	0	23	0	913309696	68	4686
2026-01-10 04:33:48.41	311.61	17.66	-51.4	-53.6	14.7	0.00e+00	0	23	0	915406848	68	4763
2026-01-10 04:33:49.27	311.46	17.60	-51.5	-53.7	14.6	0.00e+00	0	23	0	916455424	68	4841
2026-01-10 04:33:50.41	311.25	17.51	-51.6	-53.9	14.5	0.00e+00	0	23	0	918552576	68	4935
2026-01-10 04:33:51.27	311.09	17.45	-51.7	-54.0	14.5	0.00e+00	0	23	0	920649728	68	4997
2026-01-10 04:33:52.41	310.88	17.37	-51.7	-54.0	14.5	0.00e+00	0	23	0	922746880	68	4992
2026-01-10 04:33:53.28	310.73	17.31	-51.7	-54.0	14.5	0.00e+00	0	23	0	923795456	68	4991
2026-01-10 04:33:54.42	310.52	17.23	-51.6	-53.8	14.6	0.00e+00	0	24	0	926941184	68	4896
2026-01-10 04:33:55.28	310.37	17.16	-51.2	-53.3	14.9	0.00e+00	0	23	0	927989760	68	4627
2026-01-10 04:33:56.42	310.17	17.08	-51.0	-53.1	15.0	0.00e+00	0	23	0	930086912	68	4508
2026-01-10 04:33:57.28	310.01	17.02	-51.0	-53.0	15.0	0.00e+00	0	23	0	932184064	68	4443
2026-01-10 04:33:58.42	309.81	16.94	-50.8	-52.8	15.1	0.00e+00	0	23	0	934281216	68	4358
2026-01-10 04:33:59.27	309.67	16.87	-50.8	-52.8	15.1	0.00e+00	0	23	0	935329792	68	4350
2026-01-10 04:34:00.41	309.47	16.79	-50.4	-52.3	15.2	0.00e+00	0	23	0	937426944	67	4361
2026-01-10 04:34:01.27	309.32	16.73	-50.4	-52.3	15.2	0.00e+00	0	23	0	939524096	67	4348
2026-01-10 04:34:02.42	309.12	16.64	-50.4	-52.2	15.2	0.00e+00	0	23	0	941621248	67	4327
2026-01-10 04:34:03.28	308.97	16.58	-50.5	-52.4	15.1	0.00e+00	0	23	0	942669824	67	4430
2026-01-10 04:34:04.42	308.78	16.50	-50.8	-52.7	15.0	0.00e+00	0	23	0	944766976	67	4580
2026-01-10 04:34:05.27	308.63	16.44	-50.8	-52.7	15.0	0.00e+00	0	23	0	946864128	67	4582
2026-01-10 04:34:06.41	308.44	16.35	-50.7	-52.6	15.0	0.00e+00	0	23	0	948961280	67	4541
2026-01-10 04:34:07.27	308.30	16.29	-50.7	-52.6	15.0	0.00e+00	0	23	0	951058432	67	4504
2026-01-10 04:34:08.41	308.10	16.21	-50.4	-52.2	15.2	0.00e+00	0	23	0	953155584	67	4325
2026-01-10 04:34:09.26	307.96	16.14	-50.1	-51.8	15.2	0.00e+00	0	23	0	954204160	66	4383
2026-01-10 04:34:10.40	307.77	16.06	-50.0	-51.7	15.3	0.00e+00	0	23	0	956301312	66	4300
2026-01-10 04:34:11.26	307.63	16.00	-49.8	-51.4	15.4	0.00e+00	0	23	0	958398464	66	4192
2026-01-10 04:34:12.40	307.45	15.92	-49.8	-51.4	15.5	0.00e+00	0	23	0	960495616	66	4161
2026-01-10 04:34:13.26	307.30	15.85	-49.9	-51.5	15.4	0.00e+00	0	23	0	961544192	66	4232
2026-01-10 04:34:14.40	307.12	15.77	-50.0	-51.7	15.3	0.00e+00	0	23	0	963641344	66	4314
2026-01-10 04:34:15.26	306.98	15.71	-50.0	-51.6	15.3	0.00e+00	0	23	0	965738496	66	4284
2026-01-10 04:34:16.41	306.80	15.62	-50.0	-51.7	15.3	0.00e+00	0	23	0	967835648	66	4320
2026-01-10 04:34:17.27	306.66	15.56	-50.1	-51.9	15.2	0.00e+00	0	23	0	968884224	66	4394
2026-01-10 04:34:18.43	306.47	15.47	-50.2	-52.0	15.2	0.00e+00	0	23	0	970981376	66	4444
2026-01-10 04:34:19.29	306.34	15.41	-50.4	-52.2	15.1	0.00e+00	0	23	0	973078528	66	4556
2026-01-10 04:34:20.43	306.16	15.33	-50.5	-52.3	14.9	0.00e+00	0	23	0	975175680	66	4646
2026-01-10 04:34:21.29	306.02	15.26	-50.5	-52.3	15.0	0.00e+00	0	23	0	977272832	66	4648
2026-01-10 04:34:22.44	305.84	15.18	-50.5	-52.3	15.0	0.00e+00	0	23	0	979369984	66	4620
2026-01-10 04:34:23.29	305.71	15.12	-50.4	-52.2	15.1	0.00e+00	0	23	0	980418560	66	4547
2026-01-10 04:34:24.44	305.53	15.03	-50.3	-52.0	15.1	0.00e+00	0	23	0	982515712	66	4474
2026-01-10 04:34:25.30	305.40	14.97	-50.2	-51.9	15.2	0.00e+00	0	23	0	984612864	66	4408
2026-01-10 04:34:26.44	305.23	14.89	-50.2	-51.9	15.2	0.00e+00	0	23	0	986710016	66	4423
2026-01-10 04:34:27.29	305.10	14.82	-50.0	-51.6	15.3	0.00e+00	0	23	0	987758592	66	4286
2026-01-10 04:34:28.44	304.92	14.74	-49.9	-51.6	15.3	0.00e+00	0	23	0	989855744	66	4257
2026-01-10 04:34:29.29	304.79	14.68	-50.1	-51.7	15.2	0.00e+00	0	23	0	991952896	66	4340
2026-01-10 04:34:30.43	304.62	14.59	-50.4	-52.1	15.1	0.00e+00	0	23	0	994050048	66	4540
2026-01-10 04:34:31.29	304.49	14.53	-50.6	-52.5	14.9	0.00e+00	0	23	0	995098624	66	4729
2026-01-10 04:34:32.43	304.33	14.45	-50.8	-52.8	14.8	0.00e+00	0	23	0	997195776	66	4883
2026-01-10 04:34:33.29	304.20	14.39	-51.1	-53.1	14.7	0.00e+00	0	23	0	999292928	67	4811
2026-01-10 04:34:34.42	304.03	14.30	-51.1	-53.1	14.7	0.00e+00	0	23	0	1001390080	67	4786
2026-01-10 04:34:35.27	303.91	14.24	-51.2	-53.3	14.6	0.00e+00	0	23	0	1003487232	67	4889
2026-01-10 04:34:36.42	303.74	14.16	-51.3	-53.3	14.6	0.00e+00	0	23	0	1005584384	67	4901
2026-01-10 04:34:37.27	303.62	14.09	-51.2	-53.2	14.7	0.00e+00	0	23	0	1006632960	67	4846
2026-01-10 04:34:38.42	303.45	14.01	-51.0	-53.0	14.8	0.00e+00	0	24	0	1008730112	67	4709
2026-01-10 04:34:39.28	303.33	13.95	-50.9	-52.8	14.9	0.00e+00	0	23	0	1010827264	67	4649
2026-01-10 04:34:40.42	303.17	13.87	-51.0	-53.0	14.8	0.00e+00	0	23	0	1012924416	67	4713
2026-01-10 04:34:41.28	303.04	13.80	-50.8	-52.7	14.9	0.00e+00	0	23	0	1013972992	67	4567
2026-01-10 04:34:42.43	302.88	13.72	-50.8	-52.7	14.9	0.00e+00	0	23	0	1016070144	67	4589
2026-01-10 04:34:43.28	302.76	13.66	-50.8	-52.7	14.9	0.00e+00	0	23	0	1018167296	67	4554
2026-01-10 04:34:44.43	302.60	13.57	-50.7	-52.5	15.0	0.00e+00	0	23	0	1020264448	67	4471
2026-01-10 04:34:45.29	302.48	13.51	-50.5	-52.3	15.1	0.00e+00	0	23	0	1021313024	67	4380
2026-01-10 04:34:46.44	302.32	13.43	-50.4	-52.1	15.2	0.00e+00	0	24	0	1024458752	67	4283
2026-01-10 04:34:47.30	302.20	13.37	-50.5	-52.2	15.1	0.00e+00	0	23	0	1025507328	67	4340
2026-01-10 04:34:48.45	302.05	13.28	-50.3	-52.1	15.2	0.00e+00	0	23	0	1027604480	67	4248
2026-01-10 04:34:49.31	301.93	13.22	-50.6	-52.4	15.1	0.00e+00	0	23	0	1029701632	67	4436
2026-01-10 04:34:50.44	301.78	13.14	-50.6	-52.4	15.1	0.00e+00	0	23	0	1031798784	67	4416
2026-01-10 04:34:51.30	301.66	13.08	-51.1	-53.0	14.7	0.00e+00	0	23	0	1032847360	67	4739
2026-01-10 04:34:52.45	301.50	12.99	-51.4	-53.4	14.5	0.00e+00	0	23	0	1034944512	67	4980
2026-01-10 04:34:53.30	301.39	12.93	-51.7	-53.9	14.5	0.00e+00	0	23	0	1037041664	68	4934
2026-01-10 04:34:54.44	301.24	12.85	-51.9	-54.1	14.4	0.00e+00	0	23	0	1039138816	68	5054
2026-01-10 04:34:55.29	301.13	12.79	-51.9	-54.1	14.6	0.00e+00	0	23	0	1040187392	69	4793
2026-01-10 04:34:56.43	300.98	12.71	-51.9	-54.1	14.5	0.00e+00	0	23	0	1042284544	69	4796
2026-01-10 04:34:57.28	300.87	12.64	-51.8	-53.9	14.6	0.00e+00	0	23	0	1044381696	69	4686
2026-01-10 04:34:58.42	300.72	12.56	-51.7	-53.8	14.7	0.00e+00	0	24	0	1046478848	69	4651
2026-01-10 04:34:59.27	300.61	12.50	-51.4	-53.4	14.9	0.00e+00	0	23	0	1047527424	69	4396
2026-01-10 04:35:00.41	300.46	12.42	-51.2	-53.1	15.1	0.00e+00	0	23	0	1050673152	69	4286
2026-01-10 04:35:01.26	300.35	12.36	-50.9	-52.8	15.1	0.00e+00	0	23	0	1051721728	68	4356
2026-01-10 04:35:02.40	300.20	12.28	-51.0	-52.9	15.0	0.00e+00	0	23	0	1053818880	68	4402
2026-01-10 04:35:03.27	300.09	12.21	-51.1	-52.9	15.0	0.00e+00	0	23	0	1055916032	68	4441
2026-01-10 04:35:04.41	299.95	12.13	-51.0	-52.9	15.0	0.00e+00	0	23	0	1058013184	68	4424
2026-01-10 04:35:05.26	299.84	12.07	-51.3	-53.2	14.8	0.00e+00	0	24	0	1059061760	68	4577
2026-01-10 04:35:06.40	299.70	11.99	-50.9	-52.8	15.1	0.00e+00	0	23	0	1061158912	68	4361
2026-01-10 04:35:07.25	299.59	11.93	-51.2	-53.1	14.9	0.00e+00	0	23	0	1063256064	68	4509
2026-01-10 04:35:08.40	299.45	11.85	-51.2	-53.2	14.9	0.00e+00	0	23	0	1065353216	68	4550
2026-01-10 04:35:09.25	299.35	11.79	-51.1	-53.0	14.9	0.00e+00	0	23	0	1066401792	68	4478
2026-01-10 04:35:10.39	299.21	11.71	-51.1	-53.0	15.0	0.00e+00	0	23	0	1068498944	68	4449
2026-01-10 04:35:11.25	299.10	11.65	-51.1	-53.0	14.9	0.00e+00	0	24	0	1070596096	68	4487
2026-01-10 04:35:12.39	298.96	11.56	-51.3	-53.3	14.8	0.00e+00	0	24	0	1072693248	68	4613
2026-01-10 04:35:13.25	298.86	11.50	-51.3	-53.2	14.8	0.00e+00	0	23	0	1073741824	68	4589
2026-01-10 04:35:14.39	298.72	11.42	-51.5	-53.6	14.6	0.00e+00	0	23	0	1075838976	68	4780
2026-01-10 04:35:15.24	298.62	11.36	-51.6	-53.7	14.6	0.00e+00	0	23	0	1077936128	68	4824
2026-01-10 04:35:16.39	298.48	11.28	-51.6	-53.7	14.6	0.00e+00	0	23	0	1080033280	68	4857
2026-01-10 04:35:17.24	298.38	11.22	-51.9	-54.1	14.4	0.00e+00	0	23	0	1082130432	68	5064
2026-01-10 04:35:18.38	298.25	11.14	-52.0	-54.2	14.4	0.00e+00	0	23	0	1084227584	69	4867
2026-01-10 04:35:19.24	298.15	11.08	-52.0	-54.3	14.4	0.00e+00	0	23	0	1085276160	69	4915
2026-01-10 04:35:20.38	298.01	11.00	-52.0	-54.3	14.4	0.00e+00	0	23	0	1087373312	69	4923
2026-01-10 04:35:21.24	297.91	10.94	-52.1	-54.4	14.3	0.00e+00	0	24	0	1089470464	69	4958
2026-01-10 04:35:22.38	297.78	10.86	-52.0	-54.3	14.4	0.00e+00	0	24	0	1091567616	69	4913
2026-01-10 04:35:23.23	297.68	10.80	-52.0	-54.3	14.4	0.00e+00	0	24	0	1092616192	69	4915
2026-01-10 04:35:24.38	297.55	10.72	-52.1	-54.4	14.3	0.00e+00	0	24	0	1094713344	69	4969
2026-01-10 04:35:25.23	297.45	10.66	-52.0	-54.3	14.3	0.00e+00	0	23	0	1096810496	69	4921
2026-01-10 04:35:26.37	297.32	10.58	-52.3	-54.7	14.2	0.00e+00	0	24	0	1098907648	69	5109
2026-01-10 04:35:27.23	297.23	10.52	-52.4	-54.8	14.1	0.00e+00	0	23	0	1099956224	69	5217
2026-01-10 04:35:28.37	297.10	10.44	-52.5	-55.1	14.1	0.00e+00	0	24	0	1103101952	70	5054
2026-01-10 04:35:29.22	297.00	10.38	-52.6	-55.1	14.1	0.00e+00	0	23	0	1104150528	70	5074
2026-01-10 04:35:30.37	296.88	10.30	-52.8	-55.5	13.8	0.00e+00	0	23	0	1106247680	70	5325
2026-01-10 04:35:31.22	296.78	10.24	-52.8	-55.5	14.0	0.00e+00	0	24	0	1108344832	71	4993
2026-01-10 04:35:32.37	296.65	10.16	-52.8	-55.5	14.0	0.00e+00	0	23	0	1110441984	71	4996
2026-01-10 04:35:33.23	296.56	10.10	-52.9	-55.7	13.9	0.00e+00	0	24	0	1111490560	71	5102
2026-01-10 04:35:34.37	296.44	10.03	-52.8	-55.4	14.0	0.00e+00	0	24	0	1113587712	71	4946
2026-01-10 04:35:35.22	296.34	9.97	-52.6	-55.1	14.2	0.00e+00	0	24	0	1115684864	71	4812
2026-01-10 04:35:36.36	296.22	9.89	-52.5	-54.9	14.3	0.00e+00	0	24	0	1117782016	71	4674
2026-01-10 04:35:37.21	296.13	9.83	-52.4	-54.8	14.4	0.00e+00	0	24	0	1118830592	71	4615
2026-01-10 04:35:38.36	296.00	9.75	-52.1	-54.4	14.5	0.00e+00	0	24	0	1120927744	70	4662
2026-01-10 04:35:39.22	295.91	9.69	-52.2	-54.5	14.4	0.00e+00	0	24	0	1123024896	70	4714
2026-01-10 04:35:40.37	295.79	9.61	-52.2	-54.4	14.4	0.00e+00	0	23	0	1125122048	70	4698
2026-01-10 04:35:41.22	295.70	9.56	-52.0	-54.2	14.5	0.00e+00	0	23	0	1127219200	70	4570
2026-01-10 04:35:42.37	295.58	9.48	-52.1	-54.4	14.4	0.00e+00	0	24	0	1129316352	70	4669
2026-01-10 04:35:43.22	295.49	9.42	-52.2	-54.5	14.4	0.00e+00	0	24	0	1130364928	70	4718
2026-01-10 04:35:44.37	295.37	9.34	-52.1	-54.4	14.5	0.00e+00	0	24	0	1132462080	70	4653
2026-01-10 04:35:45.22	295.28	9.28	-52.2	-54.4	14.5	0.00e+00	0	24	0	1134559232	70	4676
2026-01-10 04:35:46.37	295.17	9.20	-52.4	-54.8	14.2	0.00e+00	0	23	0	1136656384	70	4896
2026-01-10 04:35:47.22	295.08	9.15	-52.4	-54.8	14.2	0.00e+00	0	23	0	1137704960	70	4912
2026-01-10 04:35:48.37	294.96	9.07	-52.5	-54.8	14.2	0.00e+00	0	23	0	1139802112	70	4913
2026-01-10 04:35:49.23	294.87	9.01	-52.5	-55.0	14.1	0.00e+00	0	24	0	1141899264	70	4990
2026-01-10 04:35:50.37	294.76	8.93	-52.6	-55.0	14.1	0.00e+00	0	24	0	1143996416	70	5004
2026-01-10 04:35:51.23	294.67	8.88	-52.5	-54.9	14.1	0.00e+00	0	23	0	1145044992	70	4970
2026-01-10 04:35:52.38	294.56	8.80	-52.6	-55.1	14.0	0.00e+00	0	24	0	1147142144	70	5043
2026-01-10 04:35:53.24	294.47	8.74	-52.5	-54.9	14.2	0.00e+00	0	24	0	1149239296	70	4943
2026-01-10 04:35:54.39	294.36	8.66	-52.4	-54.7	14.2	0.00e+00	0	23	0	1151336448	70	4869
2026-01-10 04:35:55.24	294.27	8.61	-52.3	-54.6	14.4	0.00e+00	0	23	0	1153433600	70	4774
2026-01-10 04:35:56.39	294.16	8.53	-52.2	-54.5	14.4	0.00e+00	0	23	0	1155530752	70	4749
2026-01-10 04:35:57.24	294.08	8.47	-52.3	-54.6	14.3	0.00e+00	0	24	0	1156579328	70	4799
2026-01-10 04:35:58.38	293.97	8.40	-52.2	-54.5	14.4	0.00e+00	0	23	0	1158676480	70	4714
2026-01-10 04:35:59.24	293.88	8.34	-52.2	-54.4	14.4	0.00e+00	0	24	0	1160773632	70	4689
2026-01-10 04:36:00.38	293.77	8.26	-52.1	-54.4	14.5	0.00e+00	0	23	0	1162870784	70	4653
2026-01-10 04:36:01.23	293.69	8.21	-52.2	-54.5	14.4	0.00e+00	0	24	0	1163919360	70	4733
2026-01-10 04:36:02.38	293.58	8.13	-52.1	-54.4	14.5	0.00e+00	0	23	0	1166016512	70	4655
2026-01-10 04:36:03.23	293.50	8.07	-52.2	-54.5	14.4	0.00e+00	0	23	0	1168113664	70	4737
2026-01-10 04:36:04.37	293.39	8.00	-52.4	-54.8	14.2	0.00e+00	0	23	0	1170210816	70	4903
2026-01-10 04:36:05.23	293.31	7.94	-52.4	-54.8	14.2	0.00e+00	0	24	0	1171259392	70	4882
2026-01-10 04:36:06.37	293.20	7.87	-52.4	-54.9	14.2	0.00e+00	0	23	0	1173356544	70	4932
2026-01-10 04:36:07.23	293.12	7.81	-52.7	-55.2	14.0	0.00e+00	0	23	0	1175453696	70	5120
2026-01-10 04:36:08.38	293.02	7.73	-52.8	-55.4	13.8	0.00e+00	0	23	0	1177550848	70	5235
2026-01-10 04:36:09.22	292.94	7.68	-52.7	-55.3	13.9	0.00e+00	0	23	0	1179648000	70	5213
2026-01-10 04:36:10.37	292.83	7.60	-53.0	-55.7	13.8	0.00e+00	0	23	0	1181745152	71	5149
2026-01-10 04:36:11.23	292.76	7.55	-53.1	-55.9	13.6	0.00e+00	0	24	0	1182793728	71	5223
2026-01-10 04:36:12.36	292.65	7.47	-53.2	-56.0	13.5	0.00e+00	0	24	0	1184890880	71	5319
2026-01-10 04:36:13.23	292.57	7.42	-53.2	-56.1	13.5	0.00e+00	0	24	0	1186988032	71	5365
2026-01-10 04:36:14.36	292.47	7.34	-53.3	-56.3	13.4	0.00e+00	0	23	0	1189085184	71	5474
2026-01-10 04:36:15.22	292.39	7.29	-53.4	-56.4	13.3	0.00e+00	0	24	0	1190133760	71	5551
2026-01-10 04:36:16.37	292.29	7.21	-53.6	-56.7	13.2	0.00e+00	0	24	0	1192230912	72	5429
2026-01-10 04:36:17.21	292.22	7.16	-53.6	-56.7	13.2	0.00e+00	0	24	0	1194328064	72	5416
2026-01-10 04:36:18.37	292.11	7.08	-53.8	-56.9	13.1	0.00e+00	0	24	0	1196425216	72	5573
2026-01-10 04:36:19.22	292.04	7.03	-53.7	-56.8	13.1	0.00e+00	0	23	0	1197473792	72	5528
2026-01-10 04:36:20.37	291.94	6.95	-53.9	-57.2	12.9	0.00e+00	0	24	0	1200619520	73	5442
2026-01-10 04:36:21.22	291.86	6.90	-53.9	-57.2	13.0	0.00e+00	0	24	0	1201668096	73	5442
2026-01-10 04:36:22.36	291.76	6.82	-53.8	-57.1	13.1	0.00e+00	0	23	0	1203765248	73	5371
2026-01-10 04:36:23.22	291.69	6.77	-54.0	-57.3	12.9	0.00e+00	0	24	0	1205862400	73	5488
2026-01-10 04:36:24.36	291.59	6.69	-53.9	-57.2	13.0	0.00e+00	0	23	0	1207959552	73	5421
2026-01-10 04:36:25.22	291.52	6.64	-53.9	-57.3	12.9	0.00e+00	0	24	0	1209008128	73	5476
2026-01-10 04:36:26.36	291.42	6.57	-53.9	-57.2	13.0	7.00e-07	0	24	0	1211105280	73	5450
2026-01-10 04:36:27.22	291.35	6.51	-53.8	-57.1	13.1	0.00e+00	0	24	0	1213202432	73	5380
