passes_logs/2026/01/10/R3.2S_Murmansk/R3.2S_Murmansk__20260110_103307_NOAA_21_JPSS-2_rec.log

#Pass ID: 20260110_103307_NOAA 21 (JPSS-2)
#Satellite: NOAA 21 (JPSS-2)
#Configuration: NOAA-21
#almurnet v.1.7.20251203
#Start time: 2026-01-10 10:33:08

#Version: 2.2.20231116
#Station: R3.2S_Murmansk
#Location: 33.079688 lon 68.888172 lat
#TLE: 1 54234U 22150A   26009.79679979  .00000100  00000+0  68070-4 0  9993
#TLE: 2 54234  98.7494 310.7596 0000833 322.2782  37.8335 14.19533646164071

#Time	Az	El	Level	Level2	SNR	BER	BlckErr	Temp	State	Recorded	gain1	gain2
2026-01-10 10:33:08.34	176.91	2.04	-57.4	-71.0	3.8	1.49e+00	0	21	0	0	81	16779
2026-01-10 10:33:09.35	176.94	2.10	-57.3	-71.0	3.8	1.49e+00	0	21	104	0	79	18799
2026-01-10 10:33:10.35	176.97	2.17	-57.3	-71.0	3.8	1.49e+00	0	21	104	0	79	18831
2026-01-10 10:33:11.36	177.01	2.23	-57.3	-71.0	3.8	1.49e+00	0	21	104	0	79	18898
2026-01-10 10:33:12.37	177.04	2.29	-57.3	-71.1	3.8	1.49e+00	0	21	104	0	79	18987
2026-01-10 10:33:13.37	177.07	2.36	-57.3	-71.0	3.8	1.49e+00	0	21	104	0	79	18867
2026-01-10 10:33:14.38	177.10	2.42	-57.3	-71.0	3.8	1.49e+00	0	21	104	0	79	18763
2026-01-10 10:33:15.39	177.14	2.48	-57.3	-70.8	3.8	1.49e+00	0	21	104	0	79	18444
2026-01-10 10:33:16.40	177.17	2.55	-57.3	-70.9	3.8	1.49e+00	0	21	104	0	79	18527
2026-01-10 10:33:17.41	177.20	2.61	-57.3	-70.7	3.8	1.49e+00	0	21	104	0	79	18279
2026-01-10 10:33:18.41	177.23	2.68	-57.3	-70.7	3.8	1.49e+00	0	21	104	0	79	18290
2026-01-10 10:33:19.42	177.27	2.74	-57.3	-70.8	3.8	1.49e+00	0	21	104	0	79	18375
2026-01-10 10:33:20.43	177.30	2.81	-57.3	-70.8	3.8	1.49e+00	0	21	104	0	79	18511
2026-01-10 10:33:21.44	177.33	2.87	-57.3	-70.9	3.8	1.49e+00	0	21	104	0	79	18599
2026-01-10 10:33:22.45	177.37	2.94	-57.3	-70.9	3.8	1.49e+00	0	21	104	0	79	18716
2026-01-10 10:33:23.46	177.40	3.00	-57.3	-70.9	3.8	1.49e+00	0	21	104	0	79	18710
2026-01-10 10:33:24.46	177.44	3.07	-57.3	-71.0	3.8	1.49e+00	0	21	104	0	79	18806
2026-01-10 10:33:25.47	177.47	3.13	-57.3	-70.8	3.8	1.49e+00	0	21	104	0	79	18504
2026-01-10 10:33:26.48	177.50	3.20	-57.3	-70.8	3.8	1.49e+00	0	21	104	0	79	18451
2026-01-10 10:33:27.48	177.54	3.26	-57.3	-70.8	3.8	1.49e+00	0	22	104	0	79	18324
2026-01-10 10:33:28.49	177.57	3.33	-57.3	-70.8	3.8	1.49e+00	0	22	104	0	79	18458
2026-01-10 10:33:29.50	177.61	3.40	-57.3	-70.9	3.8	1.49e+00	0	21	104	0	79	18524
2026-01-10 10:33:30.51	177.64	3.46	-57.3	-71.0	3.8	1.49e+00	0	22	104	0	79	18782
2026-01-10 10:33:31.52	177.68	3.53	-57.3	-71.1	3.8	1.49e+00	0	22	104	0	79	18955
2026-01-10 10:33:32.52	177.71	3.59	-57.3	-71.1	3.8	1.49e+00	0	22	104	0	79	19033
2026-01-10 10:33:33.53	177.75	3.66	-57.3	-70.9	3.8	1.49e+00	0	22	104	0	79	18565
2026-01-10 10:33:34.54	177.78	3.73	-57.3	-70.3	3.8	1.49e+00	0	22	104	0	79	17290
2026-01-10 10:33:35.55	177.82	3.80	-57.2	-69.5	3.8	1.49e+00	0	22	104	0	79	15907
2026-01-10 10:33:36.56	177.85	3.86	-57.1	-68.0	4.1	1.49e+00	0	22	104	0	79	13308
2026-01-10 10:33:37.57	177.89	3.93	-57.0	-67.0	4.4	1.45e+00	0	22	104	0	79	11853
2026-01-10 10:33:38.58	177.92	4.00	-56.9	-65.9	4.7	1.08e+00	2	22	104	0	79	10530
2026-01-10 10:33:39.59	177.96	4.07	-56.7	-64.8	5.4	5.92e-01	0	22	0	2097152	79	9206
2026-01-10 10:33:40.60	178.00	4.13	-56.7	-64.5	5.6	4.65e-01	0	22	0	5242880	79	8863
2026-01-10 10:33:41.61	178.03	4.20	-56.5	-63.5	6.2	3.04e-01	0	22	0	8388608	79	7950
2026-01-10 10:33:42.61	178.07	4.27	-56.4	-63.1	6.5	2.12e-01	0	22	0	11534336	79	7616
2026-01-10 10:33:43.62	178.11	4.34	-56.4	-63.0	6.6	1.80e-01	0	22	0	14680064	79	7484
2026-01-10 10:33:44.62	178.14	4.40	-56.2	-62.3	7.2	1.11e-01	0	22	0	17825792	79	6932
2026-01-10 10:33:45.63	178.18	4.47	-56.0	-61.6	7.8	7.21e-02	0	22	0	20971520	78	6744
2026-01-10 10:33:46.64	178.22	4.54	-55.7	-60.7	8.6	3.03e-02	0	22	0	24117248	78	6126
2026-01-10 10:33:47.65	178.25	4.61	-55.5	-60.2	9.0	1.50e-02	0	22	0	27262976	77	6084
2026-01-10 10:33:48.66	178.29	4.68	-55.3	-59.6	9.5	6.66e-03	0	22	0	30408704	77	5712
2026-01-10 10:33:49.67	178.33	4.75	-54.8	-58.6	10.4	1.49e-03	0	22	0	33554432	76	5375
2026-01-10 10:33:50.67	178.37	4.82	-54.5	-58.0	10.8	6.10e-04	0	22	0	36700160	75	5337
2026-01-10 10:33:51.68	178.40	4.89	-54.3	-57.7	11.1	2.59e-04	0	22	0	39845888	75	5136
2026-01-10 10:33:52.69	178.44	4.96	-54.0	-57.2	11.4	1.24e-04	0	22	0	42991616	74	5134
2026-01-10 10:33:53.70	178.48	5.03	-53.9	-57.0	11.6	6.94e-05	0	22	0	46137344	74	5022
2026-01-10 10:33:54.70	178.52	5.10	-54.0	-57.1	11.5	1.22e-05	0	22	0	49283072	73	5376
2026-01-10 10:33:55.71	178.56	5.17	-56.8	-65.2	5.3	1.44e-02	0	22	0	52428800	78	10239
2026-01-10 10:33:56.71	178.59	5.24	-51.9	-53.9	13.4	3.33e-01	0	22	104	52428800	70	4425
2026-01-10 10:33:57.71	178.63	5.31	-54.3	-57.6	11.1	2.13e-05	0	22	0	54525952	73	5722
2026-01-10 10:33:58.72	178.67	5.38	-51.0	-52.8	14.1	1.22e-05	0	22	0	57671680	68	4379
2026-01-10 10:33:59.72	178.71	5.45	-51.1	-53.0	13.9	0.00e+00	0	22	0	60817408	68	4448
2026-01-10 10:34:00.73	178.75	5.52	-51.0	-52.9	14.0	0.00e+00	0	22	0	63963136	68	4399
2026-01-10 10:34:01.73	178.79	5.59	-51.0	-52.9	14.0	0.00e+00	0	22	0	67108864	68	4407
2026-01-10 10:34:02.73	178.83	5.66	-51.1	-53.0	13.9	0.00e+00	0	22	0	70254592	68	4464
2026-01-10 10:34:03.72	178.87	5.73	-51.1	-52.9	14.0	0.00e+00	0	22	0	73400320	68	4420
2026-01-10 10:34:04.72	178.91	5.81	-50.9	-52.7	14.1	0.00e+00	0	22	0	76546048	68	4339
2026-01-10 10:34:05.73	178.95	5.88	-50.9	-52.7	14.2	0.00e+00	0	22	0	79691776	68	4307
2026-01-10 10:34:06.74	178.99	5.95	-50.8	-52.6	14.2	0.00e+00	0	22	0	82837504	68	4257
2026-01-10 10:34:07.74	179.03	6.02	-50.8	-52.6	14.3	0.00e+00	0	22	0	85983232	68	4244
2026-01-10 10:34:08.74	179.07	6.09	-50.7	-52.4	14.3	0.00e+00	0	22	0	89128960	68	4177
2026-01-10 10:34:09.75	179.11	6.17	-50.8	-52.6	14.3	0.00e+00	0	22	0	92274688	68	4251
2026-01-10 10:34:10.75	179.15	6.24	-50.8	-52.5	14.3	0.00e+00	0	22	0	95420416	68	4238
2026-01-10 10:34:11.76	179.19	6.31	-50.5	-52.2	14.3	0.00e+00	0	22	0	98566144	67	4326
2026-01-10 10:34:12.75	179.23	6.38	-50.5	-52.1	14.3	0.00e+00	0	22	0	101711872	67	4287
2026-01-10 10:34:13.75	179.28	6.46	-50.6	-52.3	14.2	0.00e+00	0	22	0	104857600	67	4379
2026-01-10 10:34:14.75	179.32	6.53	-50.5	-52.2	14.3	0.00e+00	0	22	0	108003328	67	4311
2026-01-10 10:34:15.75	179.36	6.60	-50.5	-52.2	14.3	0.00e+00	0	22	0	111149056	67	4338
2026-01-10 10:34:16.75	179.40	6.68	-50.5	-52.2	14.4	0.00e+00	0	22	0	114294784	67	4294
2026-01-10 10:34:17.75	179.44	6.75	-50.4	-52.0	14.4	0.00e+00	0	22	0	117440512	67	4230
2026-01-10 10:34:18.74	179.48	6.83	-50.4	-52.1	14.4	0.00e+00	0	22	0	120586240	67	4264
2026-01-10 10:34:19.73	179.53	6.90	-50.4	-52.1	14.4	0.00e+00	0	22	0	123731968	67	4273
2026-01-10 10:34:20.73	179.57	6.97	-50.4	-52.0	14.4	0.00e+00	0	22	0	126877696	67	4236
2026-01-10 10:34:21.72	179.61	7.05	-50.2	-51.8	14.6	0.00e+00	0	22	0	130023424	67	4132
2026-01-10 10:34:22.72	179.66	7.12	-50.3	-51.9	14.5	0.00e+00	0	22	0	133169152	67	4187
2026-01-10 10:34:23.71	179.70	7.20	-50.2	-51.8	14.6	0.00e+00	0	22	0	136314880	67	4127
2026-01-10 10:34:24.70	179.74	7.27	-50.3	-51.9	14.5	0.00e+00	0	22	0	139460608	67	4165
2026-01-10 10:34:25.69	179.78	7.35	-50.4	-52.0	14.5	0.00e+00	0	23	0	142606336	67	4219
2026-01-10 10:34:26.68	179.83	7.42	-50.4	-52.0	14.4	0.00e+00	0	23	0	145752064	67	4227
2026-01-10 10:34:27.67	179.87	7.50	-50.3	-51.9	14.5	0.00e+00	0	22	0	148897792	67	4192
2026-01-10 10:34:28.65	179.92	7.57	-50.1	-51.7	14.5	0.00e+00	0	22	0	152043520	66	4312
2026-01-10 10:34:29.65	179.96	7.65	-50.0	-51.6	14.6	0.00e+00	0	23	0	155189248	66	4248
2026-01-10 10:34:30.65	180.00	7.72	-50.0	-51.6	14.6	0.00e+00	0	22	0	158334976	66	4247
2026-01-10 10:34:31.64	180.05	7.80	-50.0	-51.5	14.6	0.00e+00	0	22	0	160432128	66	4233
2026-01-10 10:34:32.63	180.09	7.88	-49.9	-51.5	14.6	0.00e+00	0	23	0	163577856	66	4200
2026-01-10 10:34:33.62	180.14	7.95	-50.0	-51.6	14.6	0.00e+00	0	23	0	166723584	66	4250
2026-01-10 10:34:34.61	180.18	8.03	-50.0	-51.6	14.6	0.00e+00	0	23	0	169869312	66	4269
2026-01-10 10:34:35.60	180.23	8.11	-49.9	-51.4	14.7	0.00e+00	0	22	0	173015040	66	4181
2026-01-10 10:34:36.59	180.28	8.18	-49.9	-51.5	14.7	0.00e+00	0	23	0	176160768	66	4196
2026-01-10 10:34:37.59	180.32	8.26	-49.9	-51.4	14.7	0.00e+00	0	23	0	179306496	66	4160
2026-01-10 10:34:38.58	180.37	8.34	-49.7	-51.2	14.8	0.00e+00	0	23	0	182452224	66	4085
2026-01-10 10:34:39.56	180.41	8.42	-49.8	-51.3	14.8	0.00e+00	0	23	0	185597952	66	4114
2026-01-10 10:34:40.56	180.46	8.49	-49.8	-51.3	14.8	0.00e+00	0	22	0	188743680	66	4102
2026-01-10 10:34:41.55	180.51	8.57	-49.9	-51.4	14.7	0.00e+00	0	23	0	191889408	66	4154
2026-01-10 10:34:42.54	180.55	8.65	-49.7	-51.2	14.8	0.00e+00	0	23	0	195035136	66	4058
2026-01-10 10:34:43.53	180.60	8.73	-49.7	-51.2	14.9	0.00e+00	0	23	0	198180864	66	4066
2026-01-10 10:34:44.52	180.65	8.81	-49.7	-51.2	14.8	0.00e+00	0	23	0	201326592	66	4074
2026-01-10 10:34:45.50	180.70	8.89	-49.6	-51.0	14.8	0.00e+00	0	23	0	204472320	65	4239
2026-01-10 10:34:46.49	180.74	8.97	-49.6	-51.1	14.7	0.00e+00	0	23	0	207618048	65	4263
2026-01-10 10:34:47.47	180.79	9.05	-49.6	-51.1	14.7	0.00e+00	0	23	0	210763776	65	4249
2026-01-10 10:34:48.46	180.84	9.13	-49.7	-51.1	14.7	0.00e+00	0	23	0	213909504	65	4288
2026-01-10 10:34:49.45	180.89	9.21	-49.5	-51.0	14.8	0.00e+00	0	23	0	217055232	65	4215
2026-01-10 10:34:50.44	180.94	9.29	-49.5	-50.9	14.8	0.00e+00	0	23	0	220200960	65	4168
2026-01-10 10:34:51.43	180.99	9.37	-49.4	-50.8	14.9	0.00e+00	0	23	0	222298112	65	4124
2026-01-10 10:34:52.42	181.04	9.45	-49.4	-50.8	14.9	0.00e+00	0	23	0	225443840	65	4137
2026-01-10 10:34:53.41	181.09	9.53	-49.3	-50.8	14.9	0.00e+00	0	23	0	228589568	65	4106
2026-01-10 10:34:54.40	181.14	9.61	-49.3	-50.7	15.0	0.00e+00	0	23	0	231735296	65	4085
2026-01-10 10:34:55.39	181.19	9.69	-49.3	-50.7	14.9	0.00e+00	0	22	0	234881024	65	4096
2026-01-10 10:34:56.38	181.24	9.77	-49.2	-50.6	15.0	0.00e+00	0	23	0	238026752	65	4034
2026-01-10 10:34:57.37	181.29	9.85	-49.3	-50.7	15.0	0.00e+00	0	22	0	241172480	65	4069
2026-01-10 10:34:58.36	181.34	9.94	-49.3	-50.7	15.0	0.00e+00	0	23	0	244318208	65	4059
2026-01-10 10:34:59.35	181.39	10.02	-49.1	-50.5	14.9	0.00e+00	0	23	0	247463936	64	4231
2026-01-10 10:35:00.34	181.44	10.10	-49.1	-50.5	14.9	0.00e+00	0	23	0	250609664	64	4213
2026-01-10 10:35:01.32	181.49	10.18	-49.1	-50.5	14.9	0.00e+00	0	23	0	253755392	64	4210
2026-01-10 10:35:02.31	181.55	10.27	-49.0	-50.4	14.9	0.00e+00	0	23	0	256901120	64	4165
2026-01-10 10:35:03.30	181.60	10.35	-49.1	-50.5	14.9	0.00e+00	0	23	0	260046848	64	4224
2026-01-10 10:35:04.29	181.65	10.44	-49.2	-50.6	14.9	0.00e+00	0	23	0	263192576	64	4249
2026-01-10 10:35:05.27	181.70	10.52	-49.1	-50.4	15.0	0.00e+00	0	23	0	266338304	64	4188
2026-01-10 10:35:06.27	181.76	10.60	-49.0	-50.4	15.0	0.00e+00	0	23	0	269484032	64	4154
2026-01-10 10:35:07.26	181.81	10.69	-49.0	-50.4	15.0	0.00e+00	0	23	0	272629760	64	4169
2026-01-10 10:35:08.26	181.86	10.77	-48.9	-50.3	15.0	0.00e+00	0	23	0	275775488	64	4123
2026-01-10 10:35:09.25	181.92	10.86	-48.9	-50.3	15.0	0.00e+00	0	23	0	278921216	64	4120
2026-01-10 10:35:10.24	181.97	10.95	-48.8	-50.2	15.1	0.00e+00	0	23	0	282066944	64	4074
2026-01-10 10:35:11.23	182.03	11.03	-49.0	-50.3	15.0	0.00e+00	0	23	0	285212672	64	4135
2026-01-10 10:35:12.23	182.08	11.12	-48.9	-50.3	15.1	0.00e+00	0	23	0	287309824	64	4100
2026-01-10 10:35:13.21	182.14	11.20	-48.8	-50.2	15.1	0.00e+00	0	23	0	290455552	64	4056
2026-01-10 10:35:14.20	182.19	11.29	-48.8	-50.1	15.1	0.00e+00	0	23	0	293601280	64	4051
2026-01-10 10:35:15.19	182.25	11.38	-48.9	-50.2	15.1	0.00e+00	0	23	0	296747008	64	4079
2026-01-10 10:35:16.18	182.31	11.46	-48.9	-50.2	15.0	0.00e+00	0	23	0	299892736	64	4096
2026-01-10 10:35:17.17	182.36	11.55	-48.8	-50.1	15.1	0.00e+00	0	23	0	303038464	64	4021
2026-01-10 10:35:18.15	182.42	11.64	-48.8	-50.1	15.1	0.00e+00	0	23	0	306184192	64	4036
2026-01-10 10:35:19.14	182.48	11.73	-48.8	-50.1	15.1	0.00e+00	0	23	0	309329920	64	4034
2026-01-10 10:35:20.14	182.53	11.82	-48.8	-50.1	15.1	0.00e+00	0	23	0	312475648	64	4050
2026-01-10 10:35:21.14	182.59	11.91	-48.8	-50.1	15.1	0.00e+00	0	23	0	315621376	64	4040
2026-01-10 10:35:22.13	182.65	12.00	-48.7	-50.1	15.2	0.00e+00	0	23	0	318767104	64	4013
2026-01-10 10:35:23.12	182.71	12.08	-48.7	-50.1	15.2	0.00e+00	0	23	0	321912832	64	4011
2026-01-10 10:35:24.10	182.77	12.17	-48.7	-50.1	15.2	0.00e+00	0	23	0	325058560	64	4010
2026-01-10 10:35:25.10	182.83	12.26	-48.8	-50.1	15.2	0.00e+00	0	23	0	328204288	64	4018
2026-01-10 10:35:26.09	182.89	12.35	-48.8	-50.1	15.1	0.00e+00	0	23	0	331350016	64	4049
2026-01-10 10:35:27.09	182.95	12.45	-48.7	-50.1	15.2	0.00e+00	0	23	0	334495744	64	4010
2026-01-10 10:35:28.08	183.01	12.54	-48.8	-50.1	15.1	0.00e+00	0	23	0	337641472	64	4042
2026-01-10 10:35:29.07	183.07	12.63	-48.8	-50.1	15.1	0.00e+00	0	23	0	340787200	64	4041
2026-01-10 10:35:30.06	183.13	12.72	-48.6	-49.9	15.1	0.00e+00	0	23	0	343932928	63	4187
2026-01-10 10:35:31.05	183.19	12.81	-48.7	-50.0	15.1	0.00e+00	0	23	0	347078656	63	4226
2026-01-10 10:35:32.04	183.25	12.90	-48.7	-50.1	15.0	0.00e+00	0	23	0	350224384	63	4249
2026-01-10 10:35:33.03	183.31	13.00	-48.6	-49.9	15.1	0.00e+00	0	23	0	352321536	63	4178
2026-01-10 10:35:34.02	183.37	13.09	-48.6	-49.9	15.1	0.00e+00	0	23	0	355467264	63	4185
2026-01-10 10:35:35.02	183.44	13.18	-48.6	-49.9	15.1	0.00e+00	0	23	0	358612992	63	4170
2026-01-10 10:35:36.01	183.50	13.28	-48.6	-49.9	15.1	0.00e+00	0	23	0	361758720	63	4167
2026-01-10 10:35:37.00	183.56	13.37	-48.6	-49.9	15.1	0.00e+00	0	23	0	364904448	63	4178
2026-01-10 10:35:37.98	183.63	13.46	-48.5	-49.9	15.1	0.00e+00	0	23	0	368050176	63	4148
2026-01-10 10:35:38.97	183.69	13.56	-48.6	-49.9	15.1	0.00e+00	0	23	0	371195904	63	4157
2026-01-10 10:35:39.95	183.75	13.65	-48.6	-49.9	15.1	0.00e+00	0	23	0	374341632	63	4179
2026-01-10 10:35:40.94	183.82	13.75	-48.6	-49.9	15.1	0.00e+00	0	23	0	377487360	63	4174
2026-01-10 10:35:41.93	183.89	13.84	-48.6	-49.9	15.1	0.00e+00	0	23	0	380633088	63	4183
2026-01-10 10:35:42.92	183.95	13.94	-48.6	-49.9	15.1	0.00e+00	0	23	0	383778816	63	4153
2026-01-10 10:35:43.92	184.02	14.03	-48.6	-49.9	15.2	0.00e+00	0	23	0	386924544	63	4149
2026-01-10 10:35:44.91	184.08	14.13	-48.6	-49.9	15.1	0.00e+00	0	23	0	390070272	63	4186
2026-01-10 10:35:45.91	184.15	14.23	-48.7	-50.0	15.1	0.00e+00	0	23	0	393216000	63	4203
2026-01-10 10:35:46.90	184.22	14.33	-48.5	-49.8	15.2	0.00e+00	0	23	0	396361728	63	4132
2026-01-10 10:35:47.89	184.29	14.42	-48.5	-49.8	15.2	0.00e+00	0	23	0	399507456	63	4138
2026-01-10 10:35:48.87	184.35	14.52	-48.6	-49.8	15.1	0.00e+00	0	23	0	402653184	63	4145
2026-01-10 10:35:49.85	184.42	14.62	-48.6	-49.9	15.1	0.00e+00	0	23	0	405798912	63	4170
2026-01-10 10:35:50.84	184.49	14.72	-48.7	-50.0	15.1	0.00e+00	0	23	0	408944640	63	4223
2026-01-10 10:35:51.83	184.56	14.81	-48.6	-49.9	15.1	0.00e+00	0	23	0	412090368	63	4188
2026-01-10 10:35:52.82	184.63	14.91	-48.6	-49.9	15.1	0.00e+00	0	23	0	414187520	63	4159
2026-01-10 10:35:53.81	184.70	15.01	-48.7	-50.0	15.1	0.00e+00	0	23	0	417333248	63	4201
2026-01-10 10:35:54.80	184.77	15.11	-48.6	-49.9	15.1	0.00e+00	0	23	0	420478976	63	4172
2026-01-10 10:35:55.79	184.84	15.21	-48.6	-49.9	15.1	0.00e+00	0	23	0	423624704	63	4172
2026-01-10 10:35:56.79	184.92	15.32	-48.6	-49.9	15.1	0.00e+00	0	23	0	426770432	63	4158
2026-01-10 10:35:57.77	184.99	15.42	-48.6	-49.9	15.1	0.00e+00	0	23	0	429916160	63	4180
2026-01-10 10:35:58.75	185.06	15.52	-48.6	-49.9	15.1	0.00e+00	0	23	0	433061888	63	4151
2026-01-10 10:35:59.74	185.13	15.62	-48.6	-49.9	15.1	0.00e+00	0	23	0	436207616	63	4193
2026-01-10 10:36:00.74	185.21	15.72	-48.7	-50.0	15.1	0.00e+00	0	23	0	439353344	63	4206
2026-01-10 10:36:01.72	185.28	15.82	-48.7	-50.0	15.1	0.00e+00	0	23	0	442499072	63	4241
2026-01-10 10:36:02.73	185.35	15.93	-48.7	-50.0	15.1	0.00e+00	0	23	0	445644800	63	4233
2026-01-10 10:36:03.72	185.43	16.03	-48.6	-49.9	15.1	0.00e+00	0	23	0	448790528	63	4176
2026-01-10 10:36:04.69	185.50	16.13	-48.7	-50.0	15.1	0.00e+00	0	23	0	451936256	63	4219
2026-01-10 10:36:05.69	185.58	16.24	-48.7	-50.0	15.1	0.00e+00	0	23	0	455081984	63	4220
2026-01-10 10:36:06.68	185.66	16.34	-48.7	-50.0	15.1	0.00e+00	0	23	0	458227712	63	4242
2026-01-10 10:36:07.66	185.73	16.45	-48.8	-50.2	15.0	0.00e+00	0	23	0	461373440	63	4294
2026-01-10 10:36:08.65	185.81	16.55	-48.8	-50.1	15.0	0.00e+00	0	23	0	464519168	63	4273
2026-01-10 10:36:09.64	185.89	16.66	-48.7	-50.0	15.1	0.00e+00	0	23	0	467664896	63	4241
2026-01-10 10:36:10.64	185.97	16.77	-48.7	-50.1	15.1	0.00e+00	0	23	0	470810624	63	4244
2026-01-10 10:36:11.63	186.05	16.87	-48.8	-50.1	15.1	0.00e+00	0	23	0	473956352	63	4267
2026-01-10 10:36:12.62	186.13	16.98	-48.8	-50.2	15.0	0.00e+00	0	23	0	476053504	63	4307
2026-01-10 10:36:13.62	186.21	17.09	-48.9	-50.3	15.0	0.00e+00	0	23	0	479199232	63	4341
2026-01-10 10:36:14.61	186.29	17.20	-48.8	-50.1	15.0	0.00e+00	0	23	0	482344960	63	4283
2026-01-10 10:36:15.59	186.37	17.30	-48.8	-50.1	15.0	0.00e+00	0	23	0	485490688	63	4275
2026-01-10 10:36:16.58	186.45	17.41	-48.9	-50.3	15.0	0.00e+00	0	23	0	488636416	63	4345
2026-01-10 10:36:17.57	186.53	17.52	-48.9	-50.2	15.0	0.00e+00	0	23	0	491782144	63	4322
2026-01-10 10:36:18.56	186.62	17.63	-48.8	-50.2	15.0	0.00e+00	0	23	0	494927872	63	4300
2026-01-10 10:36:19.55	186.70	17.74	-48.7	-50.1	15.0	0.00e+00	0	23	0	498073600	63	4246
2026-01-10 10:36:20.54	186.78	17.85	-48.8	-50.1	15.0	0.00e+00	0	23	0	501219328	63	4257
2026-01-10 10:36:21.53	186.87	17.96	-48.8	-50.1	15.0	0.00e+00	0	23	0	504365056	63	4260
2026-01-10 10:36:22.51	186.95	18.08	-48.8	-50.1	15.0	0.00e+00	0	23	0	507510784	63	4278
2026-01-10 10:36:23.51	187.04	18.19	-48.6	-49.9	15.1	0.00e+00	0	23	0	510656512	63	4157
2026-01-10 10:36:24.50	187.13	18.30	-48.7	-50.0	15.1	0.00e+00	0	23	0	513802240	63	4194
2026-01-10 10:36:25.49	187.21	18.41	-48.6	-49.8	15.2	0.00e+00	0	23	0	516947968	63	4136
2026-01-10 10:36:26.48	187.30	18.53	-48.6	-49.9	15.2	0.00e+00	0	23	0	520093696	63	4148
2026-01-10 10:36:27.48	187.39	18.64	-48.6	-49.9	15.1	0.00e+00	0	23	0	523239424	63	4166
2026-01-10 10:36:28.47	187.48	18.76	-48.7	-49.9	15.1	0.00e+00	0	23	0	526385152	63	4192
2026-01-10 10:36:29.46	187.57	18.87	-48.5	-49.8	15.2	0.00e+00	0	23	0	529530880	63	4125
2026-01-10 10:36:30.45	187.66	18.99	-48.6	-49.8	15.2	0.00e+00	0	23	0	532676608	63	4136
2026-01-10 10:36:31.44	187.75	19.10	-48.5	-49.7	15.2	0.00e+00	0	23	0	535822336	63	4091
2026-01-10 10:36:32.43	187.84	19.22	-48.4	-49.7	15.2	0.00e+00	0	23	0	538968064	63	4070
2026-01-10 10:36:33.43	187.93	19.34	-48.5	-49.8	15.2	0.00e+00	0	23	0	541065216	63	4120
2026-01-10 10:36:34.41	188.03	19.45	-48.5	-49.8	15.2	0.00e+00	0	23	0	544210944	63	4102
2026-01-10 10:36:35.41	188.12	19.57	-48.4	-49.7	15.3	0.00e+00	0	23	0	547356672	63	4053
2026-01-10 10:36:36.40	188.21	19.69	-48.4	-49.7	15.3	0.00e+00	0	23	0	550502400	63	4052
2026-01-10 10:36:37.39	188.31	19.81	-48.3	-49.6	15.3	0.00e+00	0	23	0	553648128	63	4012
2026-01-10 10:36:38.38	188.41	19.93	-48.2	-49.4	15.4	0.00e+00	0	23	0	556793856	63	3950
2026-01-10 10:36:39.36	188.50	20.04	-48.2	-49.4	15.4	0.00e+00	0	23	0	559939584	63	3948
2026-01-10 10:36:40.35	188.60	20.16	-48.3	-49.5	15.3	0.00e+00	0	23	0	563085312	63	3971
2026-01-10 10:36:41.34	188.70	20.28	-48.3	-49.5	15.3	0.00e+00	0	23	0	566231040	63	3991
2026-01-10 10:36:42.33	188.79	20.41	-48.3	-49.5	15.3	0.00e+00	0	23	0	569376768	63	3989
2026-01-10 10:36:43.32	188.89	20.53	-48.1	-49.3	15.3	0.00e+00	0	23	0	572522496	62	4128
2026-01-10 10:36:44.31	188.99	20.65	-48.1	-49.3	15.3	0.00e+00	0	23	0	575668224	62	4113
2026-01-10 10:36:45.30	189.09	20.77	-48.1	-49.4	15.2	0.00e+00	0	23	0	578813952	62	4149
2026-01-10 10:36:46.29	189.20	20.89	-48.2	-49.4	15.2	0.00e+00	0	23	0	581959680	62	4181
2026-01-10 10:36:47.27	189.30	21.02	-48.2	-49.4	15.2	0.00e+00	0	23	0	585105408	62	4166
2026-01-10 10:36:48.26	189.40	21.14	-48.1	-49.4	15.3	0.00e+00	0	23	0	588251136	62	4154
2026-01-10 10:36:49.26	189.51	21.27	-48.2	-49.4	15.2	0.00e+00	0	23	0	591396864	62	4176
2026-01-10 10:36:50.25	189.61	21.39	-48.2	-49.4	15.2	0.00e+00	0	23	0	594542592	62	4182
2026-01-10 10:36:51.24	189.72	21.52	-48.1	-49.3	15.3	0.00e+00	0	23	0	597688320	62	4113
2026-01-10 10:36:52.23	189.82	21.64	-48.1	-49.3	15.3	0.00e+00	0	23	0	600834048	62	4118
2026-01-10 10:36:53.22	189.93	21.77	-48.1	-49.3	15.3	0.00e+00	0	23	0	602931200	62	4139
2026-01-10 10:36:54.20	190.04	21.90	-48.1	-49.3	15.3	0.00e+00	0	23	0	606076928	62	4111
2026-01-10 10:36:55.19	190.15	22.03	-48.2	-49.4	15.2	0.00e+00	0	23	0	609222656	62	4182
2026-01-10 10:36:56.18	190.26	22.15	-48.1	-49.3	15.3	0.00e+00	0	23	0	612368384	62	4124
2026-01-10 10:36:57.16	190.36	22.28	-48.1	-49.3	15.3	0.00e+00	0	23	0	615514112	62	4119
2026-01-10 10:36:58.15	190.48	22.41	-48.0	-49.2	15.3	0.00e+00	0	23	0	618659840	62	4082
2026-01-10 10:36:59.14	190.59	22.54	-47.8	-49.0	15.4	0.00e+00	0	23	0	621805568	62	3960
2026-01-10 10:37:00.12	190.70	22.67	-47.7	-48.9	15.5	0.00e+00	0	23	0	624951296	62	3947
2026-01-10 10:37:01.12	190.82	22.80	-47.7	-48.9	15.5	0.00e+00	0	23	0	628097024	62	3945
2026-01-10 10:37:02.11	190.93	22.93	-47.6	-48.7	15.4	0.00e+00	0	23	0	631242752	61	4095
2026-01-10 10:37:03.10	191.05	23.07	-47.5	-48.7	15.4	0.00e+00	0	23	0	634388480	61	4080
2026-01-10 10:37:04.09	191.17	23.20	-47.5	-48.6	15.4	0.00e+00	0	23	0	637534208	61	4042
2026-01-10 10:37:05.08	191.28	23.33	-47.4	-48.6	15.5	0.00e+00	0	23	0	640679936	61	4039
2026-01-10 10:37:06.08	191.40	23.47	-47.5	-48.6	15.5	0.00e+00	0	23	0	643825664	61	4039
2026-01-10 10:37:07.07	191.52	23.60	-47.5	-48.7	15.4	0.00e+00	0	23	0	646971392	61	4053
2026-01-10 10:37:08.06	191.64	23.74	-47.3	-48.4	15.5	0.00e+00	0	23	0	650117120	61	3957
2026-01-10 10:37:09.05	191.77	23.87	-47.3	-48.5	15.5	0.00e+00	0	23	0	653262848	61	3988
2026-01-10 10:37:10.04	191.89	24.01	-47.4	-48.6	15.5	0.00e+00	0	23	0	656408576	61	4029
2026-01-10 10:37:11.03	192.01	24.15	-47.3	-48.5	15.5	0.00e+00	0	23	0	659554304	61	3978
2026-01-10 10:37:12.01	192.14	24.28	-47.4	-48.5	15.5	0.00e+00	0	23	0	662700032	61	4004
2026-01-10 10:37:13.01	192.27	24.42	-47.5	-48.6	15.4	0.00e+00	0	23	0	665845760	61	4043
2026-01-10 10:37:14.00	192.39	24.56	-47.4	-48.6	15.4	0.00e+00	0	23	0	667942912	61	4014
2026-01-10 10:37:14.98	192.52	24.70	-47.5	-48.6	15.4	0.00e+00	0	23	0	671088640	61	4046
2026-01-10 10:37:15.97	192.65	24.84	-47.4	-48.5	15.5	0.00e+00	0	23	0	674234368	61	3990
2026-01-10 10:37:16.95	192.78	24.98	-47.4	-48.5	15.5	0.00e+00	0	23	0	677380096	61	4001
2026-01-10 10:37:17.93	192.91	25.12	-47.4	-48.5	15.5	0.00e+00	0	23	0	680525824	61	3995
2026-01-10 10:37:18.92	193.04	25.26	-47.5	-48.6	15.4	0.00e+00	0	23	0	683671552	61	4043
2026-01-10 10:37:19.90	193.17	25.40	-47.5	-48.6	15.4	0.00e+00	0	23	0	686817280	61	4036
2026-01-10 10:37:20.89	193.31	25.54	-47.4	-48.6	15.4	0.00e+00	0	23	0	689963008	61	4031
2026-01-10 10:37:21.87	193.44	25.68	-47.5	-48.7	15.4	0.00e+00	0	23	0	693108736	61	4071
2026-01-10 10:37:22.87	193.58	25.83	-47.6	-48.8	15.4	0.00e+00	0	23	0	696254464	61	4101
2026-01-10 10:37:23.87	193.72	25.97	-47.6	-48.8	15.4	0.00e+00	0	23	0	699400192	61	4129
2026-01-10 10:37:24.85	193.86	26.12	-47.7	-48.9	15.3	0.00e+00	0	23	0	702545920	61	4147
2026-01-10 10:37:25.85	194.00	26.27	-47.8	-49.0	15.3	0.00e+00	0	23	0	705691648	61	4222
2026-01-10 10:37:26.83	194.15	26.41	-47.8	-48.9	15.3	0.00e+00	0	23	0	708837376	61	4192
2026-01-10 10:37:27.82	194.29	26.56	-47.8	-49.0	15.3	0.00e+00	0	23	0	711983104	61	4196
2026-01-10 10:37:28.81	194.43	26.71	-47.9	-49.1	15.3	0.00e+00	0	23	0	715128832	61	4265
2026-01-10 10:37:29.80	194.58	26.85	-47.9	-49.1	15.3	0.00e+00	0	23	0	718274560	61	4258
2026-01-10 10:37:30.79	194.73	27.00	-48.0	-49.2	15.2	0.00e+00	0	23	0	721420288	61	4317
2026-01-10 10:37:31.79	194.88	27.15	-48.1	-49.3	15.2	0.00e+00	0	23	0	724566016	61	4386
2026-01-10 10:37:32.78	195.03	27.30	-48.2	-49.5	15.1	0.00e+00	0	23	0	726663168	61	4455
2026-01-10 10:37:33.77	195.18	27.45	-48.1	-49.3	15.2	0.00e+00	0	23	0	729808896	61	4384
2026-01-10 10:37:34.75	195.33	27.60	-48.2	-49.4	15.1	0.00e+00	0	23	0	732954624	61	4421
2026-01-10 10:37:35.74	195.49	27.76	-48.2	-49.4	15.1	0.00e+00	0	23	0	736100352	61	4433
2026-01-10 10:37:36.73	195.64	27.91	-48.2	-49.5	15.1	0.00e+00	0	23	0	739246080	61	4456
2026-01-10 10:37:37.73	195.80	28.06	-48.3	-49.6	15.1	0.00e+00	0	23	0	742391808	61	4495
2026-01-10 10:37:38.72	195.96	28.22	-48.5	-49.7	15.1	0.00e+00	0	23	0	745537536	62	4333
2026-01-10 10:37:39.70	196.12	28.37	-48.5	-49.8	15.1	0.00e+00	0	23	0	748683264	62	4359
2026-01-10 10:37:40.68	196.28	28.52	-48.6	-49.9	15.1	0.00e+00	0	23	0	751828992	62	4417
2026-01-10 10:37:41.67	196.44	28.68	-48.7	-50.0	15.0	0.00e+00	0	23	0	754974720	62	4457
2026-01-10 10:37:42.66	196.61	28.84	-48.7	-50.0	15.0	0.00e+00	0	23	0	758120448	62	4480
2026-01-10 10:37:43.65	196.78	28.99	-48.8	-50.1	15.0	0.00e+00	0	23	0	761266176	62	4542
2026-01-10 10:37:44.65	196.95	29.15	-48.9	-50.2	15.0	0.00e+00	0	23	0	764411904	63	4322
2026-01-10 10:37:45.64	197.12	29.31	-48.8	-50.1	15.1	0.00e+00	0	23	0	767557632	63	4255
2026-01-10 10:37:46.64	197.29	29.47	-48.9	-50.2	15.0	0.00e+00	0	23	0	770703360	63	4316
2026-01-10 10:37:47.62	197.46	29.63	-49.0	-50.3	15.0	0.00e+00	0	23	0	773849088	63	4374
2026-01-10 10:37:48.62	197.64	29.79	-49.0	-50.3	15.0	0.00e+00	0	23	0	776994816	63	4367
2026-01-10 10:37:49.60	197.81	29.95	-49.1	-50.4	15.0	0.00e+00	0	23	0	780140544	63	4416
2026-01-10 10:37:50.59	197.99	30.11	-49.1	-50.4	14.9	0.00e+00	0	23	0	783286272	63	4437
2026-01-10 10:37:51.58	198.17	30.27	-49.0	-50.3	15.0	0.00e+00	0	23	0	785383424	63	4366
2026-01-10 10:37:52.58	198.35	30.44	-49.0	-50.4	15.0	0.00e+00	0	23	0	788529152	63	4397
2026-01-10 10:37:53.58	198.54	30.60	-48.9	-50.3	15.0	0.00e+00	0	23	0	791674880	63	4342
2026-01-10 10:37:54.56	198.72	30.76	-48.9	-50.2	15.0	0.00e+00	0	23	0	794820608	63	4327
2026-01-10 10:37:55.55	198.91	30.93	-48.8	-50.1	15.1	0.00e+00	0	23	0	797966336	63	4256
2026-01-10 10:37:56.53	199.10	31.09	-48.7	-50.0	15.2	0.00e+00	0	23	0	801112064	63	4195
2026-01-10 10:37:57.52	199.29	31.26	-48.6	-49.9	15.2	0.00e+00	0	23	0	804257792	63	4155
2026-01-10 10:37:58.50	199.48	31.42	-48.7	-50.0	15.2	0.00e+00	0	23	0	807403520	63	4199
2026-01-10 10:37:59.49	199.67	31.59	-48.4	-49.7	15.3	0.00e+00	0	23	0	810549248	63	4071
2026-01-10 10:38:00.48	199.87	31.76	-48.4	-49.7	15.3	0.00e+00	0	23	0	813694976	63	4053
2026-01-10 10:38:01.47	200.07	31.92	-48.3	-49.5	15.4	0.00e+00	0	23	0	816840704	63	3993
2026-01-10 10:38:02.45	200.27	32.09	-48.3	-49.5	15.4	0.00e+00	0	23	0	819986432	63	3977
2026-01-10 10:38:03.44	200.47	32.26	-48.3	-49.5	15.4	0.00e+00	0	23	0	823132160	63	3979
2026-01-10 10:38:04.43	200.67	32.43	-48.3	-49.5	15.4	0.00e+00	0	23	0	826277888	63	3972
2026-01-10 10:38:05.42	200.88	32.60	-48.4	-49.6	15.3	0.00e+00	0	23	0	829423616	63	4022
2026-01-10 10:38:06.40	201.09	32.77	-48.5	-49.7	15.3	0.00e+00	0	23	0	832569344	63	4096
2026-01-10 10:38:07.39	201.30	32.94	-48.6	-49.8	15.2	0.00e+00	0	23	0	835715072	63	4138
2026-01-10 10:38:08.39	201.52	33.11	-48.6	-49.8	15.2	0.00e+00	0	23	0	838860800	63	4136
2026-01-10 10:38:09.38	201.73	33.29	-48.7	-49.9	15.2	0.00e+00	0	23	0	840957952	63	4190
2026-01-10 10:38:10.37	201.95	33.46	-48.8	-50.1	15.1	0.00e+00	0	23	0	844103680	63	4255
2026-01-10 10:38:11.35	202.17	33.63	-48.9	-50.2	15.1	0.00e+00	0	23	0	847249408	63	4328
2026-01-10 10:38:12.34	202.39	33.81	-48.9	-50.2	15.1	0.00e+00	0	23	0	850395136	63	4315
2026-01-10 10:38:13.33	202.61	33.98	-49.0	-50.3	15.0	0.00e+00	0	23	0	853540864	63	4382
2026-01-10 10:38:14.31	202.84	34.15	-49.2	-50.5	14.9	0.00e+00	0	23	0	856686592	63	4478
2026-01-10 10:38:15.31	203.07	34.33	-49.2	-50.6	14.9	0.00e+00	0	23	0	859832320	63	4508
2026-01-10 10:38:16.30	203.30	34.51	-49.4	-50.8	14.9	0.00e+00	0	23	0	862978048	64	4348
2026-01-10 10:38:17.29	203.54	34.68	-49.5	-50.9	14.9	0.00e+00	0	23	0	866123776	64	4414
2026-01-10 10:38:18.28	203.77	34.86	-49.7	-51.0	14.8	0.00e+00	0	23	0	869269504	64	4490
2026-01-10 10:38:19.26	204.01	35.04	-49.8	-51.2	14.7	0.00e+00	0	23	0	872415232	64	4556
2026-01-10 10:38:20.25	204.25	35.21	-49.9	-51.3	14.7	0.00e+00	0	23	0	875560960	64	4650
2026-01-10 10:38:21.25	204.50	35.39	-49.9	-51.3	14.8	0.00e+00	0	23	0	878706688	65	4359
2026-01-10 10:38:22.22	204.74	35.57	-49.8	-51.2	14.8	0.00e+00	0	23	0	881852416	65	4324
2026-01-10 10:38:23.22	205.00	35.75	-49.8	-51.2	14.8	0.00e+00	0	23	0	884998144	65	4334
2026-01-10 10:38:24.21	205.25	35.93	-49.9	-51.4	14.8	0.00e+00	0	23	0	888143872	65	4392
2026-01-10 10:38:25.20	205.50	36.11	-50.0	-51.4	14.8	0.00e+00	0	23	0	891289600	65	4423
2026-01-10 10:38:26.19	205.76	36.29	-50.0	-51.5	14.7	0.00e+00	0	23	0	894435328	65	4459
2026-01-10 10:38:27.18	206.02	36.47	-49.9	-51.3	14.8	0.00e+00	0	23	0	896532480	65	4391
2026-01-10 10:38:28.18	206.29	36.65	-50.0	-51.4	14.7	0.00e+00	0	23	0	899678208	65	4435
2026-01-10 10:38:29.17	206.56	36.84	-49.8	-51.2	14.9	0.00e+00	0	23	0	902823936	65	4303
2026-01-10 10:38:30.16	206.83	37.02	-49.7	-51.1	14.9	0.00e+00	0	23	0	905969664	65	4272
2026-01-10 10:38:31.15	207.10	37.20	-49.6	-51.0	15.0	0.00e+00	0	23	0	909115392	65	4203
2026-01-10 10:38:32.14	207.37	37.38	-49.8	-51.1	14.9	0.00e+00	0	23	0	912261120	65	4277
2026-01-10 10:38:33.13	207.65	37.56	-49.7	-51.1	14.9	0.00e+00	0	23	0	915406848	65	4256
2026-01-10 10:38:34.13	207.94	37.75	-49.7	-51.0	14.9	0.00e+00	0	23	0	918552576	65	4241
2026-01-10 10:38:35.12	208.22	37.93	-49.7	-51.1	14.9	0.00e+00	0	23	0	921698304	65	4271
2026-01-10 10:38:36.11	208.51	38.12	-49.6	-51.0	15.0	0.00e+00	0	23	0	924844032	65	4199
2026-01-10 10:38:37.11	208.80	38.30	-49.7	-51.1	15.0	0.00e+00	0	23	0	927989760	65	4258
2026-01-10 10:38:38.10	209.10	38.48	-49.8	-51.2	14.9	0.00e+00	0	23	0	931135488	65	4324
2026-01-10 10:38:39.09	209.40	38.67	-49.9	-51.3	14.8	0.00e+00	0	23	0	934281216	65	4357
2026-01-10 10:38:40.08	209.70	38.85	-50.0	-51.4	14.8	0.00e+00	0	23	0	937426944	65	4416
2026-01-10 10:38:41.07	210.00	39.04	-49.9	-51.3	14.8	0.00e+00	0	23	0	940572672	65	4359
2026-01-10 10:38:42.06	210.31	39.22	-49.9	-51.3	14.8	0.00e+00	0	23	0	943718400	65	4350
2026-01-10 10:38:43.05	210.62	39.40	-49.9	-51.3	14.8	0.00e+00	0	23	0	946864128	65	4366
2026-01-10 10:38:44.04	210.94	39.59	-50.0	-51.4	14.8	0.00e+00	0	23	0	950009856	65	4417
2026-01-10 10:38:45.03	211.26	39.77	-50.2	-51.7	14.6	0.00e+00	0	23	0	953155584	65	4570
2026-01-10 10:38:46.02	211.58	39.96	-50.3	-51.8	14.5	0.00e+00	0	23	0	956301312	65	4624
2026-01-10 10:38:47.02	211.91	40.14	-50.4	-51.9	14.5	0.00e+00	0	23	0	959447040	65	4663
2026-01-10 10:38:48.01	212.24	40.33	-50.4	-51.9	14.6	0.00e+00	0	23	0	962592768	66	4432
2026-01-10 10:38:49.00	212.57	40.51	-50.4	-51.9	14.6	0.00e+00	0	23	0	965738496	66	4420
2026-01-10 10:38:49.99	212.91	40.70	-50.4	-51.9	14.7	0.00e+00	0	23	0	968884224	66	4417
2026-01-10 10:38:50.98	213.25	40.88	-50.5	-51.9	14.6	0.00e+00	0	23	0	970981376	66	4434
2026-01-10 10:38:51.97	213.59	41.06	-50.6	-52.1	14.5	0.00e+00	0	23	0	974127104	66	4505
2026-01-10 10:38:52.97	213.94	41.25	-50.6	-52.1	14.6	0.00e+00	0	23	0	977272832	66	4495
2026-01-10 10:38:53.96	214.29	41.43	-50.6	-52.1	14.5	0.00e+00	0	23	0	980418560	66	4534
2026-01-10 10:38:54.95	214.65	41.61	-50.8	-52.4	14.4	0.00e+00	0	23	0	983564288	66	4669
2026-01-10 10:38:55.94	215.01	41.80	-51.2	-52.8	14.3	0.00e+00	0	23	0	986710016	67	4616
2026-01-10 10:38:56.93	215.37	41.98	-51.6	-53.3	14.2	0.00e+00	0	23	0	989855744	68	4617
2026-01-10 10:38:57.92	215.74	42.16	-51.9	-53.7	14.1	0.00e+00	0	23	0	993001472	69	4559
2026-01-10 10:38:58.91	216.12	42.34	-52.0	-53.7	14.1	0.00e+00	0	23	0	996147200	69	4578
2026-01-10 10:38:59.90	216.49	42.52	-51.9	-53.6	14.1	0.00e+00	0	23	0	999292928	69	4519
2026-01-10 10:39:00.89	216.87	42.70	-51.9	-53.6	14.1	0.00e+00	0	23	0	1002438656	69	4534
2026-01-10 10:39:01.88	217.26	42.88	-52.0	-53.7	14.1	0.00e+00	0	23	0	1005584384	69	4570
2026-01-10 10:39:02.87	217.65	43.06	-52.0	-53.8	14.0	0.00e+00	0	23	0	1008730112	69	4625
2026-01-10 10:39:03.86	218.04	43.24	-52.1	-53.8	14.0	0.00e+00	0	23	0	1011875840	69	4640
2026-01-10 10:39:04.86	218.44	43.42	-51.9	-53.7	14.1	0.00e+00	0	23	0	1015021568	69	4560
2026-01-10 10:39:05.85	218.84	43.60	-51.9	-53.7	14.1	0.00e+00	0	23	0	1018167296	69	4552
2026-01-10 10:39:06.84	219.25	43.78	-51.8	-53.5	14.3	0.00e+00	0	23	0	1021313024	69	4455
2026-01-10 10:39:07.82	219.66	43.95	-51.7	-53.4	14.3	0.00e+00	0	23	0	1024458752	69	4432
2026-01-10 10:39:08.81	220.07	44.13	-51.5	-53.2	14.4	0.00e+00	0	23	0	1027604480	69	4302
2026-01-10 10:39:09.79	220.49	44.30	-51.4	-53.0	14.5	0.00e+00	0	23	0	1030750208	69	4207
2026-01-10 10:39:10.78	220.91	44.47	-51.4	-53.0	14.5	0.00e+00	0	23	0	1032847360	69	4204
2026-01-10 10:39:11.77	221.34	44.64	-51.4	-53.0	14.6	0.00e+00	0	23	0	1035993088	69	4213
2026-01-10 10:39:12.76	221.78	44.82	-51.3	-52.9	14.6	0.00e+00	0	23	0	1039138816	69	4174
2026-01-10 10:39:13.75	222.21	44.99	-51.5	-53.0	14.5	0.00e+00	0	23	0	1042284544	69	4240
2026-01-10 10:39:14.74	222.66	45.16	-51.5	-53.2	14.4	0.00e+00	0	23	0	1045430272	69	4301
2026-01-10 10:39:15.73	223.10	45.32	-51.6	-53.3	14.4	0.00e+00	0	23	0	1048576000	69	4361
2026-01-10 10:39:16.72	223.56	45.49	-51.7	-53.3	14.4	0.00e+00	0	23	0	1051721728	69	4383
2026-01-10 10:39:17.71	224.01	45.66	-51.6	-53.2	14.4	0.00e+00	0	23	0	1054867456	69	4309
2026-01-10 10:39:18.71	224.48	45.82	-51.4	-52.9	14.5	0.00e+00	0	23	0	1058013184	69	4190
2026-01-10 10:39:19.70	224.95	45.98	-51.1	-52.7	14.5	0.00e+00	0	23	0	1061158912	68	4300
2026-01-10 10:39:20.69	225.42	46.15	-51.1	-52.6	14.6	0.00e+00	0	23	0	1064304640	68	4284
2026-01-10 10:39:21.69	225.90	46.31	-51.1	-52.7	14.6	0.00e+00	0	23	0	1067450368	68	4312
2026-01-10 10:39:22.68	226.38	46.47	-51.1	-52.6	14.6	0.00e+00	0	23	0	1070596096	68	4286
2026-01-10 10:39:23.67	226.87	46.62	-51.0	-52.5	14.7	0.00e+00	0	23	0	1073741824	68	4242
2026-01-10 10:39:24.66	227.36	46.78	-51.0	-52.6	14.6	0.00e+00	0	23	0	1076887552	68	4243
2026-01-10 10:39:25.66	227.86	46.93	-50.9	-52.4	14.7	0.00e+00	0	23	0	1080033280	68	4174
2026-01-10 10:39:26.65	228.36	47.08	-50.9	-52.4	14.7	0.00e+00	0	23	0	1083179008	68	4152
2026-01-10 10:39:27.64	228.86	47.23	-50.9	-52.4	14.7	0.00e+00	0	23	0	1086324736	68	4173
2026-01-10 10:39:28.63	229.37	47.38	-50.9	-52.4	14.7	0.00e+00	0	23	0	1089470464	68	4152
2026-01-10 10:39:29.62	229.89	47.53	-50.8	-52.3	14.8	0.00e+00	0	23	0	1092616192	68	4119
2026-01-10 10:39:30.60	230.40	47.67	-50.8	-52.3	14.8	0.00e+00	0	23	0	1095761920	68	4127
2026-01-10 10:39:31.59	230.92	47.81	-51.0	-52.5	14.6	0.00e+00	0	23	0	1098907648	68	4235
2026-01-10 10:39:32.58	231.45	47.95	-51.1	-52.6	14.6	0.00e+00	0	23	0	1101004800	68	4290
2026-01-10 10:39:33.57	231.99	48.09	-51.2	-52.8	14.5	0.00e+00	0	23	0	1104150528	68	4362
2026-01-10 10:39:34.55	232.52	48.23	-51.0	-52.5	14.6	0.00e+00	0	23	0	1107296256	68	4225
2026-01-10 10:39:35.54	233.06	48.36	-50.5	-51.9	14.8	0.00e+00	0	23	0	1110441984	67	4160
2026-01-10 10:39:36.53	233.61	48.49	-50.4	-51.8	14.9	0.00e+00	0	23	0	1113587712	67	4140
2026-01-10 10:39:37.52	234.16	48.62	-50.4	-51.8	14.8	0.00e+00	0	24	0	1116733440	67	4127
2026-01-10 10:39:38.51	234.72	48.75	-50.4	-51.8	14.8	0.00e+00	0	23	0	1119879168	67	4145
2026-01-10 10:39:39.50	235.28	48.87	-50.5	-51.9	14.8	0.00e+00	0	23	0	1123024896	67	4173
2026-01-10 10:39:40.49	235.84	48.99	-50.6	-52.0	14.8	0.00e+00	0	23	0	1126170624	67	4232
2026-01-10 10:39:41.49	236.42	49.11	-50.4	-51.8	14.9	0.00e+00	0	23	0	1129316352	67	4118
2026-01-10 10:39:42.48	236.99	49.23	-50.1	-51.4	14.9	0.00e+00	0	23	0	1132462080	66	4188
2026-01-10 10:39:43.46	237.57	49.34	-50.1	-51.4	14.9	0.00e+00	0	23	0	1135607808	66	4189
2026-01-10 10:39:44.46	238.15	49.45	-50.2	-51.6	14.8	0.00e+00	0	23	0	1138753536	66	4276
2026-01-10 10:39:45.44	238.74	49.56	-50.1	-51.5	14.9	0.00e+00	0	23	0	1141899264	66	4207
2026-01-10 10:39:46.43	239.33	49.66	-50.1	-51.5	14.9	0.00e+00	0	23	0	1145044992	66	4201
2026-01-10 10:39:47.43	239.93	49.76	-49.9	-51.3	15.0	0.00e+00	0	23	0	1148190720	66	4111
2026-01-10 10:39:48.41	240.52	49.86	-49.8	-51.1	15.1	0.00e+00	0	23	0	1151336448	66	4035
2026-01-10 10:39:49.40	241.12	49.96	-50.1	-51.5	14.9	0.00e+00	0	23	0	1154482176	66	4204
2026-01-10 10:39:50.39	241.73	50.05	-50.2	-51.6	14.8	0.00e+00	0	23	0	1157627904	66	4290
2026-01-10 10:39:51.37	242.33	50.14	-50.1	-51.5	14.8	0.00e+00	0	23	0	1159725056	66	4234
2026-01-10 10:39:52.37	242.95	50.22	-50.0	-51.4	15.0	0.00e+00	0	23	0	1162870784	66	4164
2026-01-10 10:39:53.36	243.57	50.31	-50.1	-51.5	14.8	0.00e+00	0	23	0	1166016512	66	4208
2026-01-10 10:39:54.34	244.18	50.38	-50.5	-52.0	14.6	0.00e+00	0	23	0	1169162240	66	4456
2026-01-10 10:39:55.33	244.80	50.46	-50.4	-51.9	14.6	0.00e+00	0	23	0	1172307968	66	4410
2026-01-10 10:39:56.32	245.43	50.53	-50.2	-51.6	14.8	0.00e+00	0	23	0	1175453696	66	4264
2026-01-10 10:39:57.31	246.06	50.60	-50.1	-51.5	14.9	0.00e+00	0	23	0	1178599424	66	4222
2026-01-10 10:39:58.29	246.68	50.67	-50.3	-51.7	14.8	0.00e+00	0	23	0	1181745152	66	4338
2026-01-10 10:39:59.28	247.32	50.73	-50.3	-51.8	14.7	0.00e+00	0	23	0	1184890880	66	4366
2026-01-10 10:40:00.26	247.95	50.79	-50.4	-51.8	14.7	0.00e+00	0	23	0	1188036608	66	4371
2026-01-10 10:40:01.25	248.58	50.84	-50.2	-51.7	14.8	0.00e+00	0	23	0	1191182336	66	4306
2026-01-10 10:40:02.23	249.22	50.89	-50.3	-51.7	14.8	0.00e+00	0	23	0	1194328064	66	4303
2026-01-10 10:40:03.22	249.86	50.94	-50.2	-51.7	14.8	0.00e+00	0	23	0	1197473792	66	4295
2026-01-10 10:40:04.22	250.51	50.99	-50.3	-51.7	14.8	0.00e+00	0	23	0	1200619520	66	4322
2026-01-10 10:40:05.21	251.16	51.03	-50.2	-51.7	14.8	0.00e+00	0	23	0	1203765248	66	4300
2026-01-10 10:40:06.20	251.81	51.06	-50.1	-51.5	14.8	0.00e+00	0	23	0	1206910976	66	4241
2026-01-10 10:40:07.19	252.46	51.10	-50.2	-51.7	14.8	0.00e+00	0	23	0	1210056704	66	4295
2026-01-10 10:40:08.19	253.12	51.13	-50.2	-51.6	14.8	0.00e+00	0	23	0	1212153856	66	4282
2026-01-10 10:40:09.18	253.77	51.15	-50.0	-51.4	14.9	0.00e+00	0	23	0	1215299584	66	4178
2026-01-10 10:40:10.17	254.42	51.17	-49.8	-51.1	15.1	0.00e+00	0	23	0	1218445312	66	4027
2026-01-10 10:40:11.16	255.08	51.19	-49.8	-51.1	15.1	0.00e+00	0	23	0	1221591040	66	4009
2026-01-10 10:40:12.15	255.73	51.20	-49.7	-51.0	15.0	0.00e+00	0	23	0	1224736768	65	4209
2026-01-10 10:40:13.14	256.39	51.21	-50.1	-51.5	14.7	0.00e+00	0	23	0	1227882496	65	4469
2026-01-10 10:40:14.13	257.05	51.22	-50.3	-51.7	14.8	0.00e+00	0	23	0	1231028224	66	4308
2026-01-10 10:40:15.12	257.70	51.22	-50.3	-51.7	14.8	0.00e+00	0	23	0	1234173952	66	4325
2026-01-10 10:40:16.11	258.36	51.22	-49.6	-51.0	15.0	0.00e+00	0	23	0	1237319680	65	4200
2026-01-10 10:40:17.11	259.02	51.22	-49.2	-50.5	15.2	0.00e+00	0	23	0	1240465408	65	3979
2026-01-10 10:40:18.10	259.68	51.21	-49.2	-50.5	15.1	0.00e+00	0	23	0	1243611136	64	4236
2026-01-10 10:40:19.10	260.34	51.19	-49.5	-50.8	15.0	0.00e+00	0	23	0	1246756864	64	4355
2026-01-10 10:40:20.09	260.99	51.18	-50.0	-51.3	14.7	0.00e+00	0	23	0	1249902592	65	4380
2026-01-10 10:40:21.08	261.65	51.15	-50.3	-51.7	14.6	0.00e+00	0	23	0	1253048320	65	4591
2026-01-10 10:40:22.07	262.30	51.13	-50.2	-51.6	14.6	0.00e+00	0	23	0	1256194048	65	4545
2026-01-10 10:40:23.06	262.95	51.10	-50.1	-51.5	14.7	0.00e+00	0	23	0	1259339776	65	4455
2026-01-10 10:40:24.04	263.59	51.07	-50.0	-51.4	14.8	0.00e+00	0	23	0	1262485504	65	4414
2026-01-10 10:40:25.03	264.24	51.03	-49.9	-51.2	14.9	0.00e+00	0	23	0	1265631232	65	4338
2026-01-10 10:40:26.02	264.89	50.99	-49.9	-51.3	14.8	0.00e+00	0	23	0	1268776960	65	4358
2026-01-10 10:40:27.00	265.53	50.95	-50.3	-51.7	14.7	0.00e+00	0	23	0	1271922688	65	4576
2026-01-10 10:40:27.99	266.17	50.90	-50.3	-51.8	14.8	0.00e+00	0	23	0	1275068416	66	4348
2026-01-10 10:40:28.97	266.80	50.85	-50.3	-51.7	14.8	0.00e+00	0	23	0	1277165568	66	4317
2026-01-10 10:40:29.97	267.45	50.80	-50.4	-51.8	14.8	0.00e+00	0	23	0	1280311296	66	4358
2026-01-10 10:40:30.96	268.09	50.74	-50.3	-51.8	14.8	0.00e+00	0	23	0	1283457024	66	4347
2026-01-10 10:40:31.95	268.72	50.68	-50.1	-51.5	14.9	0.00e+00	0	23	0	1286602752	66	4212
2026-01-10 10:40:32.95	269.36	50.61	-50.0	-51.4	15.0	0.00e+00	0	23	0	1289748480	66	4158
2026-01-10 10:40:33.94	269.99	50.54	-50.0	-51.4	14.9	0.00e+00	0	23	0	1292894208	66	4179
2026-01-10 10:40:34.93	270.61	50.47	-50.1	-51.6	14.9	0.00e+00	0	23	0	1296039936	66	4244
2026-01-10 10:40:35.92	271.24	50.40	-50.3	-51.8	14.7	0.00e+00	0	23	0	1299185664	66	4365
2026-01-10 10:40:36.92	271.86	50.32	-50.1	-51.4	14.9	0.00e+00	0	23	0	1302331392	66	4192
2026-01-10 10:40:37.91	272.48	50.24	-49.8	-51.2	15.0	0.00e+00	0	23	0	1305477120	66	4073
2026-01-10 10:40:38.89	273.08	50.15	-49.5	-50.8	15.1	0.00e+00	0	23	0	1308622848	65	4135
2026-01-10 10:40:39.88	273.69	50.06	-49.9	-51.4	14.8	0.00e+00	0	23	0	1311768576	65	4392
2026-01-10 10:40:40.87	274.30	49.97	-50.5	-52.0	14.6	0.00e+00	0	23	0	1314914304	66	4481
2026-01-10 10:40:41.87	274.91	49.87	-50.4	-51.9	14.6	0.00e+00	0	23	0	1318060032	66	4400
2026-01-10 10:40:42.86	275.51	49.78	-50.6	-52.1	14.5	0.00e+00	0	23	0	1321205760	66	4504
2026-01-10 10:40:43.84	276.09	49.68	-50.7	-52.2	14.4	0.00e+00	0	23	0	1324351488	66	4595
2026-01-10 10:40:44.83	276.68	49.57	-50.8	-52.3	14.4	0.00e+00	0	23	0	1327497216	66	4619
2026-01-10 10:40:45.82	277.27	49.47	-50.8	-52.3	14.5	0.00e+00	0	23	0	1330642944	66	4633
2026-01-10 10:40:46.81	277.85	49.36	-50.5	-52.0	14.6	0.00e+00	0	23	0	1333788672	66	4447
2026-01-10 10:40:47.80	278.43	49.24	-50.3	-51.8	14.7	0.00e+00	0	23	0	1336934400	66	4341
2026-01-10 10:40:48.78	279.00	49.13	-50.7	-52.2	14.5	0.00e+00	0	23	0	1339031552	66	4588
2026-01-10 10:40:49.77	279.57	49.01	-51.0	-52.5	14.5	0.00e+00	0	23	0	1342177280	67	4492
2026-01-10 10:40:50.75	280.13	48.89	-50.9	-52.4	14.5	0.00e+00	0	23	0	1345323008	67	4441
2026-01-10 10:40:51.75	280.69	48.77	-50.6	-52.1	14.7	0.00e+00	0	23	0	1348468736	67	4260
2026-01-10 10:40:52.73	281.24	48.64	-50.5	-52.0	14.8	0.00e+00	0	23	0	1351614464	67	4207
2026-01-10 10:40:53.72	281.80	48.52	-50.3	-51.7	14.9	0.00e+00	0	23	0	1354760192	67	4079
2026-01-10 10:40:54.71	282.34	48.39	-50.7	-52.2	14.7	0.00e+00	0	23	0	1357905920	67	4313
2026-01-10 10:40:55.70	282.89	48.25	-51.1	-52.7	14.4	0.00e+00	0	23	0	1361051648	67	4582
2026-01-10 10:40:56.70	283.43	48.12	-51.3	-53.0	14.3	0.00e+00	0	23	0	1364197376	67	4710
2026-01-10 10:40:57.69	283.96	47.98	-51.6	-53.2	14.2	0.00e+00	0	23	0	1367343104	68	4596
2026-01-10 10:40:58.68	284.49	47.84	-51.8	-53.5	14.1	0.00e+00	0	23	0	1370488832	68	4712
2026-01-10 10:40:59.66	285.01	47.70	-51.6	-53.3	14.2	0.00e+00	0	23	0	1373634560	68	4620
2026-01-10 10:41:00.65	285.53	47.56	-51.3	-52.9	14.5	0.00e+00	0	23	0	1376780288	68	4420
2026-01-10 10:41:01.63	286.04	47.41	-51.7	-53.3	14.2	0.00e+00	0	23	0	1379926016	68	4641
2026-01-10 10:41:02.61	286.54	47.27	-52.0	-53.7	14.2	0.00e+00	0	23	0	1383071744	69	4571
2026-01-10 10:41:03.61	287.05	47.12	-52.1	-53.8	14.0	0.00e+00	0	23	0	1386217472	69	4644
2026-01-10 10:41:04.59	287.55	46.97	-52.0	-53.8	14.1	0.00e+00	0	23	0	1389363200	69	4622
2026-01-10 10:41:05.58	288.04	46.81	-52.1	-53.8	14.1	0.00e+00	0	23	0	1392508928	69	4626
2026-01-10 10:41:06.57	288.53	46.66	-51.9	-53.6	14.1	0.00e+00	0	23	0	1395654656	69	4515
2026-01-10 10:41:07.56	289.02	46.50	-52.0	-53.7	14.1	0.00e+00	0	23	0	1398800384	69	4597
2026-01-10 10:41:08.56	289.50	46.34	-51.8	-53.5	14.3	0.00e+00	0	23	0	1400897536	69	4457
2026-01-10 10:41:09.55	289.98	46.19	-51.6	-53.2	14.4	0.00e+00	0	23	0	1404043264	69	4340
2026-01-10 10:41:10.54	290.45	46.02	-51.4	-53.0	14.5	0.00e+00	0	23	0	1407188992	69	4236
2026-01-10 10:41:11.52	290.91	45.86	-51.0	-52.5	14.6	0.00e+00	0	23	0	1410334720	68	4217
2026-01-10 10:41:12.51	291.38	45.70	-51.0	-52.6	14.7	0.00e+00	0	23	0	1413480448	68	4243
2026-01-10 10:41:13.50	291.83	45.54	-51.5	-53.1	14.3	0.00e+00	0	23	0	1416626176	68	4536
2026-01-10 10:41:14.50	292.29	45.37	-51.7	-53.4	14.2	0.00e+00	0	23	0	1419771904	68	4702
2026-01-10 10:41:15.50	292.74	45.20	-51.6	-53.2	14.3	0.00e+00	0	23	0	1422917632	68	4590
2026-01-10 10:41:16.49	293.19	45.03	-51.4	-53.0	14.4	0.00e+00	0	23	0	1426063360	68	4455
2026-01-10 10:41:17.48	293.62	44.86	-51.3	-52.8	14.5	0.00e+00	0	23	0	1429209088	68	4373
2026-01-10 10:41:18.47	294.06	44.69	-51.2	-52.8	14.5	0.00e+00	0	23	0	1432354816	68	4358
2026-01-10 10:41:19.47	294.49	44.52	-51.5	-53.2	14.3	0.00e+00	0	23	0	1435500544	68	4549
2026-01-10 10:41:20.45	294.91	44.35	-51.7	-53.4	14.2	0.00e+00	0	23	0	1438646272	68	4676
2026-01-10 10:41:21.43	295.33	44.17	-51.8	-53.5	14.1	0.00e+00	0	23	0	1441792000	68	4727
2026-01-10 10:41:22.42	295.74	44.00	-52.1	-53.9	13.9	0.00e+00	0	23	0	1444937728	69	4691
2026-01-10 10:41:23.41	296.15	43.83	-52.4	-54.3	13.7	0.00e+00	0	24	0	1448083456	69	4906
2026-01-10 10:41:24.40	296.56	43.65	-52.1	-53.9	14.1	0.00e+00	0	23	0	1451229184	70	4401
2026-01-10 10:41:25.40	296.97	43.47	-51.8	-53.4	14.4	0.00e+00	0	23	0	1454374912	70	4188
2026-01-10 10:41:26.39	297.36	43.29	-51.7	-53.3	14.5	0.00e+00	0	23	0	1457520640	70	4141
2026-01-10 10:41:27.38	297.76	43.12	-51.7	-53.3	14.4	0.00e+00	0	23	0	1460666368	69	4382
2026-01-10 10:41:28.37	298.15	42.94	-51.8	-53.5	14.2	0.00e+00	0	23	0	1463812096	69	4478
2026-01-10 10:41:29.36	298.53	42.76	-51.6	-53.2	14.4	0.00e+00	0	23	0	1465909248	69	4310
2026-01-10 10:41:30.36	298.92	42.58	-51.6	-53.2	14.4	0.00e+00	0	23	0	1469054976	69	4327
2026-01-10 10:41:31.35	299.29	42.40	-51.5	-53.2	14.5	0.00e+00	0	23	0	1472200704	69	4295
2026-01-10 10:41:32.34	299.66	42.22	-51.5	-53.1	14.5	0.00e+00	0	23	0	1475346432	69	4260
2026-01-10 10:41:33.33	300.03	42.03	-51.3	-52.8	14.7	0.00e+00	0	23	0	1478492160	69	4121
2026-01-10 10:41:34.32	300.40	41.85	-50.9	-52.3	14.7	0.00e+00	0	23	0	1481637888	68	4145
2026-01-10 10:41:35.31	300.76	41.67	-50.3	-51.7	14.9	0.00e+00	0	23	0	1484783616	67	4069
2026-01-10 10:41:36.30	301.11	41.49	-50.5	-51.9	14.8	0.00e+00	0	23	0	1487929344	67	4167
2026-01-10 10:41:37.29	301.46	41.31	-50.7	-52.1	14.6	0.00e+00	0	23	0	1491075072	67	4285
2026-01-10 10:41:38.27	301.81	41.13	-51.1	-52.7	14.4	0.00e+00	0	23	0	1494220800	67	4550
2026-01-10 10:41:39.26	302.15	40.94	-51.2	-52.9	14.3	0.00e+00	0	23	0	1497366528	67	4655
2026-01-10 10:41:40.25	302.49	40.76	-51.1	-52.7	14.4	0.00e+00	0	23	0	1500512256	67	4561
2026-01-10 10:41:41.24	302.83	40.58	-51.0	-52.5	14.5	0.00e+00	0	24	0	1503657984	67	4464
2026-01-10 10:41:42.23	303.16	40.39	-50.8	-52.3	14.6	0.00e+00	0	23	0	1506803712	67	4359
2026-01-10 10:41:43.22	303.49	40.21	-50.7	-52.2	14.7	0.00e+00	0	23	0	1509949440	67	4326
2026-01-10 10:41:44.21	303.82	40.03	-50.7	-52.2	14.7	0.00e+00	0	23	0	1513095168	67	4305
2026-01-10 10:41:45.20	304.14	39.84	-50.9	-52.4	14.5	0.00e+00	0	23	0	1516240896	67	4439
2026-01-10 10:41:46.19	304.46	39.66	-50.9	-52.4	14.5	0.00e+00	0	23	0	1519386624	67	4441
2026-01-10 10:41:47.18	304.77	39.48	-51.1	-52.7	14.4	0.00e+00	0	23	0	1522532352	67	4573
2026-01-10 10:41:48.17	305.09	39.29	-51.3	-52.9	14.3	0.00e+00	0	23	0	1525678080	67	4678
2026-01-10 10:41:49.15	305.39	39.11	-51.4	-53.0	14.2	0.00e+00	0	23	0	1527775232	67	4731
2026-01-10 10:41:50.14	305.70	38.93	-51.3	-52.9	14.3	0.00e+00	0	23	0	1530920960	67	4664
2026-01-10 10:41:51.13	306.00	38.75	-50.7	-52.2	14.6	0.00e+00	0	23	0	1534066688	67	4325
2026-01-10 10:41:52.12	306.30	38.56	-50.3	-51.7	14.9	0.00e+00	0	23	0	1537212416	67	4057
2026-01-10 10:41:53.12	306.59	38.38	-50.1	-51.5	14.9	0.00e+00	0	23	0	1540358144	66	4206
2026-01-10 10:41:54.11	306.88	38.19	-50.2	-51.6	14.8	0.00e+00	0	23	0	1543503872	66	4283
2026-01-10 10:41:55.10	307.17	38.01	-50.1	-51.5	14.8	0.00e+00	0	23	0	1546649600	66	4225
2026-01-10 10:41:56.09	307.46	37.83	-50.0	-51.4	14.9	0.00e+00	0	23	0	1549795328	66	4157
2026-01-10 10:41:57.08	307.74	37.65	-49.9	-51.2	15.0	0.00e+00	0	23	0	1552941056	66	4091
2026-01-10 10:41:58.08	308.02	37.46	-49.8	-51.1	15.1	0.00e+00	0	23	0	1556086784	66	4013
2026-01-10 10:41:59.06	308.29	37.28	-49.8	-51.1	15.1	0.00e+00	0	23	0	1559232512	66	4020
2026-01-10 10:42:00.05	308.57	37.10	-49.9	-51.3	15.0	0.00e+00	0	23	0	1562378240	66	4099
2026-01-10 10:42:01.04	308.84	36.92	-50.1	-51.5	14.9	0.00e+00	0	23	0	1565523968	66	4198
2026-01-10 10:42:02.03	309.10	36.74	-50.2	-51.6	14.8	0.00e+00	0	23	0	1568669696	66	4276
2026-01-10 10:42:03.01	309.37	36.56	-50.2	-51.6	14.8	0.00e+00	0	23	0	1571815424	66	4288
2026-01-10 10:42:04.01	309.63	36.38	-50.1	-51.5	14.9	0.00e+00	0	23	0	1574961152	66	4217
2026-01-10 10:42:05.00	309.89	36.20	-50.0	-51.4	14.9	0.00e+00	0	23	0	1578106880	66	4165
2026-01-10 10:42:06.00	310.15	36.02	-50.0	-51.3	14.9	0.00e+00	0	23	0	1581252608	66	4135
2026-01-10 10:42:06.99	310.40	35.84	-49.7	-51.0	15.1	0.00e+00	0	23	0	1584398336	66	3986
2026-01-10 10:42:07.97	310.65	35.66	-49.6	-50.9	15.0	0.00e+00	0	23	0	1587544064	65	4156
2026-01-10 10:42:08.96	310.89	35.49	-49.6	-51.0	15.0	0.00e+00	0	23	0	1589641216	65	4194
2026-01-10 10:42:09.95	311.14	35.31	-49.8	-51.2	14.9	0.00e+00	0	23	0	1592786944	65	4294
2026-01-10 10:42:10.94	311.38	35.13	-49.9	-51.3	14.8	0.00e+00	0	23	0	1595932672	65	4375
2026-01-10 10:42:11.93	311.62	34.96	-50.0	-51.4	14.8	0.00e+00	0	23	0	1599078400	65	4395
2026-01-10 10:42:12.92	311.86	34.78	-49.7	-51.1	14.9	0.00e+00	0	23	0	1602224128	65	4254
2026-01-10 10:42:13.91	312.09	34.60	-49.8	-51.1	14.9	0.00e+00	0	23	0	1605369856	65	4277
2026-01-10 10:42:14.90	312.33	34.43	-49.8	-51.1	14.9	0.00e+00	0	23	0	1608515584	65	4285
2026-01-10 10:42:15.90	312.56	34.25	-49.7	-51.0	14.9	0.00e+00	0	23	0	1611661312	65	4228
2026-01-10 10:42:16.88	312.78	34.08	-49.7	-51.1	14.9	0.00e+00	0	23	0	1614807040	65	4269
2026-01-10 10:42:17.88	313.01	33.90	-49.7	-51.0	15.0	0.00e+00	0	23	0	1617952768	65	4220
2026-01-10 10:42:18.87	313.23	33.73	-49.8	-51.2	14.9	0.00e+00	0	23	0	1621098496	65	4299
2026-01-10 10:42:19.85	313.45	33.56	-49.8	-51.2	14.9	0.00e+00	0	23	0	1624244224	65	4320
2026-01-10 10:42:20.84	313.67	33.39	-49.9	-51.3	14.8	0.00e+00	0	23	0	1627389952	65	4359
2026-01-10 10:42:21.82	313.88	33.22	-49.8	-51.2	14.9	0.00e+00	0	23	0	1630535680	65	4319
2026-01-10 10:42:22.81	314.10	33.04	-49.6	-51.0	15.0	0.00e+00	0	23	0	1633681408	65	4218
2026-01-10 10:42:23.80	314.31	32.87	-49.5	-50.8	15.1	0.00e+00	0	23	0	1636827136	65	4121
2026-01-10 10:42:24.80	314.52	32.70	-49.3	-50.6	15.2	0.00e+00	0	23	0	1639972864	65	4007
2026-01-10 10:42:25.79	314.73	32.53	-49.1	-50.3	15.1	0.00e+00	0	23	0	1643118592	64	4144
2026-01-10 10:42:26.78	314.93	32.36	-49.0	-50.3	15.2	0.00e+00	0	23	0	1646264320	64	4103
2026-01-10 10:42:27.77	315.13	32.20	-49.0	-50.3	15.1	0.00e+00	0	23	0	1649410048	64	4104
2026-01-10 10:42:28.75	315.33	32.03	-48.9	-50.2	15.2	0.00e+00	0	23	0	1652555776	64	4078
2026-01-10 10:42:29.74	315.53	31.86	-48.8	-50.1	15.2	0.00e+00	0	23	0	1654652928	64	4026
2026-01-10 10:42:30.72	315.73	31.70	-48.8	-50.1	15.3	0.00e+00	0	23	0	1657798656	64	4015
2026-01-10 10:42:31.71	315.92	31.53	-48.7	-50.0	15.3	0.00e+00	0	23	0	1660944384	64	3969
2026-01-10 10:42:32.70	316.12	31.37	-48.7	-49.9	15.2	0.00e+00	0	23	0	1664090112	63	4162
2026-01-10 10:42:33.68	316.30	31.20	-48.4	-49.6	15.3	0.00e+00	0	24	0	1667235840	63	4044
2026-01-10 10:42:34.67	316.49	31.04	-48.1	-49.3	15.3	0.00e+00	0	24	0	1670381568	62	4117
2026-01-10 10:42:35.65	316.68	30.88	-48.0	-49.2	15.3	0.00e+00	0	23	0	1673527296	62	4084
2026-01-10 10:42:36.65	316.87	30.71	-48.1	-49.3	15.3	0.00e+00	0	24	0	1676673024	62	4113
2026-01-10 10:42:37.63	317.05	30.55	-48.1	-49.3	15.3	0.00e+00	0	23	0	1679818752	62	4143
2026-01-10 10:42:38.63	317.23	30.39	-48.3	-49.5	15.2	0.00e+00	0	23	0	1682964480	62	4208
2026-01-10 10:42:39.62	317.41	30.22	-48.3	-49.5	15.2	0.00e+00	0	23	0	1686110208	62	4232
2026-01-10 10:42:40.60	317.59	30.07	-48.2	-49.4	15.2	0.00e+00	0	24	0	1689255936	62	4192
2026-01-10 10:42:41.59	317.77	29.91	-48.2	-49.4	15.2	0.00e+00	0	23	0	1692401664	62	4185
2026-01-10 10:42:42.58	317.94	29.75	-48.3	-49.5	15.2	0.00e+00	0	23	0	1695547392	62	4209
2026-01-10 10:42:43.57	318.12	29.59	-48.3	-49.6	15.2	0.00e+00	0	23	0	1698693120	62	4258
2026-01-10 10:42:44.56	318.29	29.43	-48.2	-49.4	15.3	0.00e+00	0	23	0	1701838848	62	4191
2026-01-10 10:42:45.55	318.46	29.27	-48.3	-49.5	15.2	0.00e+00	0	23	0	1704984576	62	4224
2026-01-10 10:42:46.54	318.63	29.11	-48.2	-49.5	15.2	0.00e+00	0	23	0	1708130304	62	4196
2026-01-10 10:42:47.53	318.79	28.96	-48.1	-49.3	15.3	0.00e+00	0	23	0	1710227456	62	4129
2026-01-10 10:42:48.52	318.96	28.80	-48.1	-49.3	15.3	0.00e+00	0	23	0	1713373184	62	4120
2026-01-10 10:42:49.50	319.12	28.65	-48.3	-49.5	15.2	0.00e+00	0	23	0	1716518912	62	4197
2026-01-10 10:42:50.50	319.28	28.49	-48.2	-49.4	15.2	0.00e+00	0	24	0	1719664640	62	4174
2026-01-10 10:42:51.49	319.44	28.34	-48.3	-49.6	15.2	0.00e+00	0	23	0	1722810368	62	4251
2026-01-10 10:42:52.47	319.60	28.19	-48.4	-49.7	15.1	0.00e+00	0	23	0	1725956096	62	4303
2026-01-10 10:42:53.47	319.76	28.03	-48.5	-49.7	15.1	0.00e+00	0	23	0	1729101824	62	4332
2026-01-10 10:42:54.45	319.92	27.88	-48.4	-49.6	15.2	0.00e+00	0	23	0	1732247552	62	4291
2026-01-10 10:42:55.46	320.07	27.73	-48.3	-49.6	15.2	0.00e+00	0	23	0	1735393280	62	4265
2026-01-10 10:42:56.45	320.23	27.58	-48.3	-49.5	15.2	0.00e+00	0	23	0	1738539008	62	4201
2026-01-10 10:42:57.45	320.38	27.42	-48.1	-49.4	15.3	0.00e+00	0	23	0	1741684736	62	4151
2026-01-10 10:42:58.44	320.53	27.27	-48.0	-49.2	15.3	0.00e+00	0	23	0	1744830464	62	4079
2026-01-10 10:42:59.43	320.68	27.13	-47.9	-49.0	15.4	0.00e+00	0	23	0	1747976192	62	3988
2026-01-10 10:43:00.41	320.83	26.98	-47.8	-48.9	15.5	0.00e+00	0	23	0	1751121920	62	3952
2026-01-10 10:43:01.40	320.98	26.83	-47.7	-48.9	15.5	0.00e+00	0	23	0	1754267648	62	3932
2026-01-10 10:43:02.39	321.12	26.68	-47.8	-49.0	15.4	0.00e+00	0	23	0	1757413376	62	3966
2026-01-10 10:43:03.38	321.26	26.54	-47.8	-48.9	15.5	0.00e+00	0	23	0	1760559104	62	3954
2026-01-10 10:43:04.37	321.41	26.39	-47.7	-48.9	15.5	0.00e+00	0	24	0	1763704832	62	3939
2026-01-10 10:43:05.35	321.55	26.25	-47.8	-49.0	15.4	0.00e+00	0	23	0	1766850560	62	3963
2026-01-10 10:43:06.34	321.69	26.10	-47.7	-48.9	15.5	0.00e+00	0	23	0	1769996288	62	3925
2026-01-10 10:43:07.34	321.83	25.96	-47.8	-48.9	15.5	0.00e+00	0	24	0	1773142016	62	3941
2026-01-10 10:43:08.33	321.97	25.81	-47.8	-48.9	15.5	0.00e+00	0	23	0	1775239168	62	3944
2026-01-10 10:43:09.31	322.10	25.67	-47.7	-48.9	15.5	0.00e+00	0	23	0	1778384896	62	3932
2026-01-10 10:43:10.30	322.24	25.53	-47.6	-48.8	15.4	0.00e+00	0	23	0	1781530624	61	4106
2026-01-10 10:43:11.28	322.37	25.39	-47.6	-48.8	15.4	0.00e+00	0	23	0	1784676352	61	4109
2026-01-10 10:43:12.28	322.51	25.25	-47.6	-48.7	15.4	0.00e+00	0	23	0	1787822080	61	4095
2026-01-10 10:43:13.27	322.64	25.11	-47.6	-48.7	15.4	0.00e+00	0	23	0	1790967808	61	4098
2026-01-10 10:43:14.27	322.77	24.97	-47.5	-48.7	15.4	0.00e+00	0	23	0	1794113536	61	4055
2026-01-10 10:43:15.26	322.90	24.83	-47.6	-48.7	15.4	0.00e+00	0	23	0	1797259264	61	4097
2026-01-10 10:43:16.24	323.03	24.69	-47.6	-48.7	15.4	0.00e+00	0	23	0	1800404992	61	4086
2026-01-10 10:43:17.24	323.16	24.55	-47.6	-48.8	15.3	0.00e+00	0	23	0	1803550720	61	4124
2026-01-10 10:43:18.22	323.28	24.41	-47.7	-48.9	15.3	0.00e+00	0	24	0	1806696448	61	4184
2026-01-10 10:43:19.21	323.41	24.28	-47.8	-49.0	15.3	0.00e+00	0	23	0	1809842176	61	4238
2026-01-10 10:43:20.21	323.53	24.14	-47.9	-49.1	15.2	0.00e+00	0	23	0	1812987904	61	4280
2026-01-10 10:43:21.20	323.66	24.00	-47.9	-49.1	15.2	0.00e+00	0	23	0	1816133632	61	4271
2026-01-10 10:43:22.19	323.78	23.87	-48.0	-49.2	15.2	0.00e+00	0	24	0	1819279360	61	4301
2026-01-10 10:43:23.19	323.90	23.73	-48.1	-49.3	15.2	0.00e+00	0	23	0	1822425088	61	4356
2026-01-10 10:43:24.18	324.02	23.60	-48.1	-49.3	15.2	0.00e+00	0	23	0	1825570816	61	4366
2026-01-10 10:43:25.17	324.14	23.46	-48.1	-49.4	15.1	0.00e+00	0	23	0	1828716544	61	4396
2026-01-10 10:43:26.16	324.26	23.33	-48.1	-49.3	15.2	0.00e+00	0	23	0	1831862272	61	4382
2026-01-10 10:43:27.15	324.38	23.20	-48.2	-49.4	15.1	0.00e+00	0	23	0	1835008000	61	4441
2026-01-10 10:43:28.14	324.49	23.07	-48.2	-49.5	15.1	0.00e+00	0	23	0	1838153728	61	4455
2026-01-10 10:43:29.12	324.61	22.94	-48.4	-49.6	15.0	0.00e+00	0	23	0	1840250880	61	4534
2026-01-10 10:43:30.11	324.72	22.81	-48.5	-49.7	15.1	0.00e+00	0	24	0	1843396608	62	4335
2026-01-10 10:43:31.10	324.84	22.68	-48.5	-49.8	15.1	0.00e+00	0	23	0	1846542336	62	4353
2026-01-10 10:43:32.08	324.95	22.55	-48.5	-49.7	15.1	0.00e+00	0	24	0	1849688064	62	4321
2026-01-10 10:43:33.08	325.06	22.42	-48.5	-49.8	15.0	0.00e+00	0	23	0	1852833792	62	4372
2026-01-10 10:43:34.07	325.17	22.29	-48.6	-49.9	15.0	0.00e+00	0	24	0	1855979520	62	4404
2026-01-10 10:43:35.06	325.28	22.16	-48.6	-49.9	15.0	0.00e+00	0	23	0	1859125248	62	4421
2026-01-10 10:43:36.06	325.39	22.03	-48.7	-50.0	14.9	0.00e+00	0	23	0	1862270976	62	4466
2026-01-10 10:43:37.05	325.50	21.91	-48.5	-49.7	15.1	0.00e+00	0	23	0	1865416704	62	4324
2026-01-10 10:43:38.04	325.61	21.78	-48.4	-49.7	15.1	0.00e+00	0	23	0	1868562432	62	4312
2026-01-10 10:43:39.03	325.71	21.65	-48.4	-49.7	15.1	0.00e+00	0	23	0	1871708160	62	4314
2026-01-10 10:43:40.03	325.82	21.53	-48.4	-49.6	15.1	0.00e+00	0	23	0	1874853888	62	4287
2026-01-10 10:43:41.02	325.93	21.40	-48.4	-49.6	15.1	0.00e+00	0	23	0	1877999616	62	4265
2026-01-10 10:43:42.01	326.03	21.28	-48.3	-49.5	15.1	0.00e+00	0	23	0	1881145344	62	4235
2026-01-10 10:43:42.99	326.13	21.16	-48.3	-49.5	15.2	0.00e+00	0	23	0	1884291072	62	4229
2026-01-10 10:43:43.98	326.24	21.03	-48.1	-49.3	15.2	0.00e+00	0	24	0	1887436800	62	4138
2026-01-10 10:43:44.97	326.34	20.91	-48.1	-49.4	15.2	0.00e+00	0	23	0	1890582528	62	4146
2026-01-10 10:43:45.96	326.44	20.79	-48.1	-49.3	15.2	0.00e+00	0	23	0	1893728256	62	4110
2026-01-10 10:43:46.96	326.54	20.67	-48.0	-49.2	15.3	0.00e+00	0	23	0	1896873984	62	4079
2026-01-10 10:43:47.95	326.64	20.54	-48.0	-49.2	15.3	0.00e+00	0	23	0	1900019712	62	4091
2026-01-10 10:43:48.94	326.74	20.42	-48.1	-49.3	15.2	0.00e+00	0	24	0	1903165440	62	4123
2026-01-10 10:43:49.93	326.84	20.30	-48.1	-49.3	15.2	0.00e+00	0	23	0	1905262592	62	4145
2026-01-10 10:43:50.92	326.94	20.18	-48.1	-49.3	15.3	0.00e+00	0	23	0	1908408320	62	4126
2026-01-10 10:43:51.91	327.03	20.07	-48.0	-49.2	15.3	0.00e+00	0	24	0	1911554048	62	4094
2026-01-10 10:43:52.90	327.13	19.95	-48.0	-49.2	15.3	0.00e+00	0	23	0	1914699776	62	4095
2026-01-10 10:43:53.89	327.22	19.83	-48.0	-49.2	15.3	0.00e+00	0	23	0	1917845504	62	4090
2026-01-10 10:43:54.88	327.32	19.71	-48.0	-49.2	15.3	0.00e+00	0	23	0	1920991232	62	4098
2026-01-10 10:43:55.86	327.41	19.59	-48.0	-49.2	15.3	0.00e+00	0	23	0	1924136960	62	4084
2026-01-10 10:43:56.85	327.50	19.48	-48.1	-49.4	15.2	0.00e+00	0	24	0	1927282688	62	4157
2026-01-10 10:43:57.83	327.60	19.36	-48.1	-49.4	15.2	0.00e+00	0	23	0	1930428416	62	4160
2026-01-10 10:43:58.82	327.69	19.25	-48.2	-49.5	15.2	0.00e+00	0	24	0	1933574144	62	4201
2026-01-10 10:43:59.81	327.78	19.13	-48.4	-49.6	15.1	0.00e+00	0	23	0	1936719872	62	4275
2026-01-10 10:44:00.79	327.87	19.02	-48.4	-49.7	15.1	0.00e+00	0	23	0	1939865600	62	4301
2026-01-10 10:44:01.78	327.96	18.90	-48.5	-49.7	15.1	0.00e+00	0	23	0	1943011328	62	4340
2026-01-10 10:44:02.78	328.05	18.79	-48.5	-49.8	15.0	0.00e+00	0	23	0	1946157056	62	4370
2026-01-10 10:44:03.77	328.14	18.68	-48.6	-49.9	15.0	0.00e+00	0	23	0	1949302784	62	4400
2026-01-10 10:44:04.76	328.23	18.56	-48.6	-49.9	15.0	0.00e+00	0	23	0	1952448512	62	4403
2026-01-10 10:44:05.76	328.31	18.45	-48.6	-49.9	15.0	0.00e+00	0	23	0	1955594240	62	4441
2026-01-10 10:44:06.75	328.40	18.34	-48.6	-49.9	15.0	0.00e+00	0	23	0	1958739968	62	4412
2026-01-10 10:44:07.74	328.49	18.23	-48.5	-49.8	15.0	0.00e+00	0	23	0	1960837120	62	4368
2026-01-10 10:44:08.73	328.57	18.11	-48.5	-49.8	15.0	0.00e+00	0	23	0	1963982848	62	4358
2026-01-10 10:44:09.72	328.66	18.00	-48.4	-49.7	15.1	0.00e+00	0	23	0	1967128576	62	4321
2026-01-10 10:44:10.72	328.74	17.89	-48.4	-49.7	15.0	0.00e+00	0	23	0	1970274304	62	4333
2026-01-10 10:44:11.71	328.83	17.78	-48.4	-49.7	15.1	0.00e+00	0	23	0	1973420032	62	4323
2026-01-10 10:44:12.71	328.91	17.67	-48.5	-49.7	15.0	0.00e+00	0	23	0	1976565760	62	4340
2026-01-10 10:44:13.71	329.00	17.56	-48.3	-49.6	15.1	0.00e+00	0	23	0	1979711488	62	4256
2026-01-10 10:44:14.70	329.08	17.45	-48.4	-49.7	15.1	0.00e+00	0	23	0	1982857216	62	4305
2026-01-10 10:44:15.69	329.16	17.34	-48.3	-49.6	15.1	0.00e+00	0	23	0	1986002944	62	4255
2026-01-10 10:44:16.68	329.24	17.24	-48.2	-49.5	15.2	0.00e+00	0	23	0	1989148672	62	4208
2026-01-10 10:44:17.67	329.32	17.13	-48.2	-49.4	15.2	0.00e+00	0	23	0	1992294400	62	4175
2026-01-10 10:44:18.66	329.40	17.02	-48.1	-49.4	15.2	0.00e+00	0	23	0	1995440128	62	4162
2026-01-10 10:44:19.66	329.48	16.92	-48.1	-49.4	15.2	0.00e+00	0	23	0	1998585856	62	4150
2026-01-10 10:44:20.65	329.56	16.81	-48.1	-49.4	15.2	0.00e+00	0	23	0	2001731584	62	4163
2026-01-10 10:44:21.64	329.64	16.70	-48.2	-49.4	15.2	0.00e+00	0	23	0	2004877312	62	4179
2026-01-10 10:44:22.63	329.72	16.60	-48.2	-49.5	15.2	0.00e+00	0	23	0	2008023040	62	4204
2026-01-10 10:44:23.63	329.80	16.49	-48.2	-49.4	15.2	0.00e+00	0	23	0	2011168768	62	4191
2026-01-10 10:44:24.63	329.87	16.39	-48.2	-49.4	15.2	0.00e+00	0	23	0	2014314496	62	4179
2026-01-10 10:44:25.62	329.95	16.28	-48.3	-49.6	15.1	0.00e+00	0	23	0	2017460224	62	4269
