passes_logs/2026/01/10/R3.2S_Murmansk/R3.2S_Murmansk__20260110_003528_NOAA_21_JPSS-2_rec.log

#Pass ID: 20260110_003528_NOAA 21 (JPSS-2)
#Satellite: NOAA 21 (JPSS-2)
#Configuration: NOAA-21
#almurnet v.1.7.20251203
#Start time: 2026-01-10 00:35:29

#Version: 2.2.20231116
#Station: R3.2S_Murmansk
#Location: 33.079688 lon 68.888172 lat
#TLE: 1 54234U 22150A   26009.23291724  .00000115  00000+0  75298-4 0  9996
#TLE: 2 54234  98.7494 310.2026 0000856 324.9272  35.1848 14.19533567163994

#Time	Az	El	Level	Level2	SNR	BER	BlckErr	Temp	State	Recorded	gain1	gain2
2026-01-10 00:35:29.48	24.14	2.08	-57.1	-70.9	3.8	1.49e+00	0	21	0	0	79	18545
2026-01-10 00:35:30.48	24.14	2.15	-57.1	-70.9	3.8	1.49e+00	0	21	104	0	79	18590
2026-01-10 00:35:31.48	24.15	2.21	-57.1	-70.8	3.8	1.49e+00	0	21	104	0	79	18495
2026-01-10 00:35:32.48	24.16	2.28	-57.1	-70.8	3.8	1.49e+00	0	21	104	0	79	18434
2026-01-10 00:35:33.49	24.16	2.34	-57.1	-70.8	3.8	1.49e+00	0	21	104	0	79	18327
2026-01-10 00:35:34.50	24.17	2.41	-57.1	-70.7	3.8	1.49e+00	0	22	104	0	79	18135
2026-01-10 00:35:35.49	24.18	2.47	-57.1	-70.7	3.8	1.49e+00	0	21	104	0	79	18145
2026-01-10 00:35:36.50	24.18	2.54	-57.1	-70.6	3.8	1.49e+00	0	22	104	0	79	17920
2026-01-10 00:35:37.50	24.19	2.60	-57.1	-70.5	3.8	1.49e+00	0	21	104	0	79	17834
2026-01-10 00:35:38.50	24.19	2.67	-57.1	-70.4	3.8	1.49e+00	0	21	104	0	79	17638
2026-01-10 00:35:39.50	24.20	2.73	-57.1	-70.3	3.8	1.49e+00	0	22	104	0	79	17464
2026-01-10 00:35:40.50	24.21	2.80	-57.1	-70.3	3.8	1.49e+00	0	21	104	0	79	17368
2026-01-10 00:35:41.50	24.21	2.86	-57.1	-70.2	3.8	1.49e+00	0	22	104	0	79	17188
2026-01-10 00:35:42.50	24.22	2.93	-57.1	-70.1	3.8	1.49e+00	0	22	104	0	79	17019
2026-01-10 00:35:43.50	24.22	3.00	-57.0	-70.0	3.8	1.49e+00	0	21	104	0	79	16725
2026-01-10 00:35:44.50	24.23	3.06	-57.0	-69.8	3.8	1.49e+00	0	22	104	0	79	16363
2026-01-10 00:35:45.50	24.24	3.13	-57.0	-69.8	3.8	1.49e+00	0	22	104	0	79	16412
2026-01-10 00:35:46.50	24.24	3.19	-57.0	-69.7	3.8	1.49e+00	0	22	104	0	79	16266
2026-01-10 00:35:47.50	24.25	3.26	-57.0	-69.5	3.8	1.49e+00	0	22	104	0	79	15782
2026-01-10 00:35:48.50	24.26	3.33	-57.0	-68.2	4.0	1.48e+00	0	22	104	0	79	13679
2026-01-10 00:35:49.51	24.26	3.39	-56.8	-67.1	4.0	1.46e+00	0	22	104	0	79	12090
2026-01-10 00:35:50.52	24.27	3.46	-56.7	-65.9	4.7	1.21e+00	0	22	104	0	79	10434
2026-01-10 00:35:51.52	24.28	3.53	-56.5	-64.1	5.7	4.81e-01	0	22	0	1048576	79	8556
2026-01-10 00:35:52.52	24.28	3.60	-56.1	-62.5	6.8	2.44e-01	0	22	0	4194304	78	7488
2026-01-10 00:35:53.53	24.29	3.67	-55.9	-61.7	7.5	1.23e-01	0	22	0	7340032	78	6851
2026-01-10 00:35:54.54	24.29	3.73	-55.7	-61.1	8.1	5.34e-02	0	22	0	10485760	78	6358
2026-01-10 00:35:55.54	24.30	3.80	-55.2	-59.7	9.3	1.38e-02	0	22	0	13631488	77	5788
2026-01-10 00:35:56.53	24.31	3.87	-54.9	-59.1	9.8	3.60e-03	0	22	0	16777216	76	5689
2026-01-10 00:35:57.53	24.31	3.94	-54.5	-58.3	10.4	1.51e-03	0	22	0	19922944	75	5491
2026-01-10 00:35:58.54	24.32	4.01	-54.1	-57.5	11.0	3.81e-04	0	22	0	23068672	74	5330
2026-01-10 00:35:59.54	24.33	4.07	-54.0	-57.3	11.2	1.29e-04	0	22	0	26214400	74	5184
2026-01-10 00:36:00.54	24.33	4.14	-53.7	-56.9	11.6	9.23e-05	0	22	0	29360128	74	4956
2026-01-10 00:36:01.54	24.34	4.21	-53.5	-56.5	11.8	2.67e-05	0	22	0	32505856	73	5014
2026-01-10 00:36:02.55	24.35	4.28	-53.5	-56.5	11.8	5.64e-05	0	22	0	35651584	73	5009
2026-01-10 00:36:03.55	24.35	4.35	-53.5	-56.4	11.8	1.44e-05	0	22	0	38797312	73	4979
2026-01-10 00:36:04.55	24.36	4.42	-53.6	-56.6	11.7	3.35e-05	0	22	0	41943040	73	5092
2026-01-10 00:36:05.55	24.36	4.49	-53.6	-56.8	11.6	3.96e-05	0	22	0	45088768	73	5177
2026-01-10 00:36:06.55	24.37	4.56	-53.9	-57.2	11.2	1.37e-04	0	22	0	48234496	73	5453
2026-01-10 00:36:07.55	24.38	4.63	-54.0	-57.5	10.9	2.06e-04	0	22	0	51380224	73	5614
2026-01-10 00:36:08.54	24.38	4.70	-54.2	-57.9	10.6	3.71e-04	0	22	0	54525952	73	5888
2026-01-10 00:36:09.54	24.39	4.77	-54.7	-58.8	9.8	2.27e-03	0	22	0	57671680	74	6193
2026-01-10 00:36:10.54	24.40	4.84	-54.9	-59.4	9.3	5.38e-03	0	22	0	60817408	74	6587
2026-01-10 00:36:11.54	24.40	4.91	-55.1	-59.8	9.0	1.31e-02	0	22	0	63963136	75	6560
2026-01-10 00:36:12.54	24.41	4.98	-55.4	-60.6	8.4	2.59e-02	0	22	0	67108864	75	7122
2026-01-10 00:36:13.54	24.42	5.05	-53.4	-56.2	12.0	4.61e-02	0	22	0	70254592	73	4863
2026-01-10 00:36:14.53	24.42	5.12	-52.4	-54.8	13.0	0.00e+00	0	22	0	73400320	70	4883
2026-01-10 00:36:15.54	24.43	5.20	-55.7	-61.1	8.2	2.03e-04	0	22	0	76546048	76	7165
2026-01-10 00:36:16.54	24.44	5.27	-55.3	-59.8	9.1	4.79e-01	0	22	0	77594624	77	5813
2026-01-10 00:36:17.54	24.44	5.34	-53.9	-57.0	11.6	7.00e-07	0	22	0	80740352	72	5648
2026-01-10 00:36:18.54	24.45	5.41	-53.3	-55.9	12.2	1.75e-01	0	22	0	83886080	73	4698
2026-01-10 00:36:19.55	24.46	5.48	-51.8	-53.8	13.6	0.00e+00	0	22	0	87031808	70	4386
2026-01-10 00:36:20.55	24.46	5.56	-51.8	-53.9	13.6	0.00e+00	0	22	0	90177536	70	4419
2026-01-10 00:36:21.55	24.47	5.63	-52.0	-54.1	13.4	0.00e+00	0	22	0	93323264	70	4519
2026-01-10 00:36:22.55	24.48	5.70	-52.0	-54.1	13.5	0.00e+00	0	22	0	96468992	70	4498
2026-01-10 00:36:23.56	24.48	5.78	-51.6	-53.6	13.7	0.00e+00	0	22	0	99614720	69	4501
2026-01-10 00:36:24.56	24.49	5.85	-51.6	-53.5	13.7	0.00e+00	0	22	0	102760448	69	4489
2026-01-10 00:36:25.56	24.50	5.92	-51.1	-53.0	14.0	0.00e+00	0	22	0	105906176	68	4449
2026-01-10 00:36:26.56	24.50	6.00	-51.0	-52.8	14.1	0.00e+00	0	22	0	109051904	68	4348
2026-01-10 00:36:27.56	24.51	6.07	-51.1	-52.9	14.0	0.00e+00	0	22	0	112197632	68	4426
2026-01-10 00:36:28.56	24.52	6.14	-51.1	-52.9	14.0	0.00e+00	0	23	0	115343360	68	4424
2026-01-10 00:36:29.56	24.52	6.22	-50.9	-52.6	14.2	0.00e+00	0	22	0	118489088	68	4264
2026-01-10 00:36:30.56	24.53	6.29	-50.8	-52.6	14.3	0.00e+00	0	22	0	120586240	68	4259
2026-01-10 00:36:31.56	24.54	6.37	-50.7	-52.4	14.3	0.00e+00	0	23	0	123731968	68	4191
2026-01-10 00:36:32.56	24.54	6.44	-50.8	-52.6	14.3	0.00e+00	0	22	0	126877696	68	4257
2026-01-10 00:36:33.56	24.55	6.52	-50.9	-52.6	14.2	0.00e+00	0	22	0	130023424	68	4286
2026-01-10 00:36:34.56	24.56	6.59	-51.0	-52.8	14.1	0.00e+00	0	22	0	133169152	68	4352
2026-01-10 00:36:35.56	24.56	6.67	-50.9	-52.6	14.2	0.00e+00	0	22	0	136314880	68	4283
2026-01-10 00:36:36.56	24.57	6.75	-50.9	-52.6	14.3	0.00e+00	0	23	0	139460608	68	4272
2026-01-10 00:36:37.55	24.58	6.82	-50.8	-52.5	14.3	0.00e+00	0	23	0	142606336	68	4215
2026-01-10 00:36:38.56	24.58	6.90	-50.7	-52.4	14.4	0.00e+00	0	23	0	145752064	68	4186
2026-01-10 00:36:39.55	24.59	6.97	-50.5	-52.2	14.3	0.00e+00	0	23	0	148897792	67	4296
2026-01-10 00:36:40.55	24.60	7.05	-50.5	-52.1	14.4	0.00e+00	0	23	0	152043520	67	4284
2026-01-10 00:36:41.55	24.60	7.13	-50.5	-52.2	14.3	0.00e+00	0	22	0	155189248	67	4331
2026-01-10 00:36:42.54	24.61	7.20	-50.3	-51.9	14.5	0.00e+00	0	23	0	158334976	67	4186
2026-01-10 00:36:43.54	24.62	7.28	-50.5	-52.1	14.4	0.00e+00	0	22	0	161480704	67	4270
2026-01-10 00:36:44.54	24.62	7.36	-50.3	-51.9	14.5	0.00e+00	0	23	0	164626432	67	4193
2026-01-10 00:36:45.55	24.63	7.44	-50.3	-52.0	14.5	0.00e+00	0	23	0	167772160	67	4202
2026-01-10 00:36:46.55	24.64	7.52	-50.3	-52.0	14.5	0.00e+00	0	23	0	170917888	67	4194
2026-01-10 00:36:47.55	24.64	7.59	-50.4	-52.1	14.4	0.00e+00	0	22	0	174063616	67	4246
2026-01-10 00:36:48.56	24.65	7.67	-50.3	-51.9	14.5	0.00e+00	0	23	0	177209344	67	4160
2026-01-10 00:36:49.55	24.66	7.75	-50.1	-51.7	14.5	0.00e+00	0	23	0	180355072	66	4298
2026-01-10 00:36:50.55	24.66	7.83	-50.2	-51.8	14.4	0.00e+00	0	22	0	183500800	66	4370
2026-01-10 00:36:51.56	24.67	7.91	-50.2	-51.7	14.5	0.00e+00	0	23	0	186646528	66	4336
2026-01-10 00:36:52.56	24.68	7.99	-50.1	-51.7	14.5	0.00e+00	0	23	0	189792256	66	4323
2026-01-10 00:36:53.57	24.69	8.07	-50.1	-51.7	14.5	0.00e+00	0	23	0	192937984	66	4302
2026-01-10 00:36:54.57	24.69	8.15	-50.1	-51.7	14.5	0.00e+00	0	23	0	196083712	66	4316
2026-01-10 00:36:55.57	24.70	8.23	-50.0	-51.5	14.6	0.00e+00	0	23	0	199229440	66	4236
2026-01-10 00:36:56.57	24.71	8.31	-49.9	-51.5	14.7	0.00e+00	0	23	0	202375168	66	4196
2026-01-10 00:36:57.58	24.71	8.39	-50.0	-51.5	14.6	0.00e+00	0	23	0	205520896	66	4227
2026-01-10 00:36:58.59	24.72	8.48	-50.0	-51.6	14.6	0.00e+00	0	23	0	208666624	66	4262
2026-01-10 00:36:59.59	24.73	8.56	-49.9	-51.5	14.6	0.00e+00	0	23	0	211812352	66	4201
2026-01-10 00:37:00.59	24.73	8.64	-49.9	-51.4	14.7	0.00e+00	0	23	0	214958080	66	4172
2026-01-10 00:37:01.59	24.74	8.72	-49.9	-51.4	14.7	0.00e+00	0	23	0	218103808	66	4153
2026-01-10 00:37:02.59	24.75	8.80	-50.0	-51.5	14.6	0.00e+00	0	23	0	221249536	66	4215
2026-01-10 00:37:03.59	24.76	8.89	-49.9	-51.5	14.6	0.00e+00	0	23	0	224395264	66	4199
2026-01-10 00:37:04.60	24.76	8.97	-49.8	-51.3	14.8	0.00e+00	0	23	0	227540992	66	4108
2026-01-10 00:37:05.60	24.77	9.05	-49.8	-51.3	14.7	0.00e+00	0	23	0	230686720	66	4145
2026-01-10 00:37:06.60	24.78	9.14	-49.9	-51.4	14.7	0.00e+00	0	23	0	233832448	66	4184
2026-01-10 00:37:07.60	24.78	9.22	-49.8	-51.2	14.8	0.00e+00	0	23	0	236978176	66	4095
2026-01-10 00:37:08.60	24.79	9.30	-49.7	-51.2	14.8	0.00e+00	0	23	0	240123904	66	4066
2026-01-10 00:37:09.59	24.80	9.39	-49.8	-51.3	14.8	0.00e+00	0	23	0	243269632	66	4108
2026-01-10 00:37:10.59	24.81	9.47	-49.7	-51.2	14.8	0.00e+00	0	23	0	246415360	66	4075
2026-01-10 00:37:11.59	24.81	9.56	-49.5	-51.0	14.8	0.00e+00	0	23	0	249561088	65	4199
2026-01-10 00:37:12.58	24.82	9.64	-49.4	-50.9	14.9	0.00e+00	0	23	0	252706816	65	4149
2026-01-10 00:37:13.59	24.83	9.73	-49.5	-51.0	14.8	0.00e+00	0	23	0	255852544	65	4217
2026-01-10 00:37:14.59	24.84	9.81	-49.5	-51.0	14.8	0.00e+00	0	23	0	258998272	65	4209
2026-01-10 00:37:15.59	24.84	9.90	-49.5	-51.0	14.8	0.00e+00	0	23	0	262144000	65	4206
2026-01-10 00:37:16.59	24.85	9.98	-49.5	-50.9	14.8	0.00e+00	0	23	0	265289728	65	4175
2026-01-10 00:37:17.58	24.86	10.07	-49.4	-50.8	14.9	0.00e+00	0	23	0	268435456	65	4130
2026-01-10 00:37:18.58	24.86	10.16	-49.5	-50.9	14.8	0.00e+00	0	23	0	271581184	65	4167
2026-01-10 00:37:19.57	24.87	10.24	-49.5	-50.9	14.8	0.00e+00	0	23	0	274726912	65	4169
2026-01-10 00:37:20.58	24.88	10.33	-49.3	-50.7	14.9	0.00e+00	0	23	0	277872640	65	4097
2026-01-10 00:37:21.57	24.89	10.42	-49.3	-50.8	14.9	0.00e+00	0	23	0	281018368	65	4100
2026-01-10 00:37:22.58	24.89	10.51	-49.4	-50.8	14.9	0.00e+00	0	23	0	284164096	65	4110
2026-01-10 00:37:23.57	24.90	10.59	-49.4	-50.8	14.9	0.00e+00	0	23	0	287309824	65	4129
2026-01-10 00:37:24.57	24.91	10.68	-49.3	-50.7	15.0	0.00e+00	0	23	0	290455552	65	4070
2026-01-10 00:37:25.57	24.92	10.77	-49.1	-50.5	14.9	0.00e+00	0	23	0	293601280	64	4206
2026-01-10 00:37:26.57	24.92	10.86	-49.1	-50.4	14.9	0.00e+00	0	23	0	296747008	64	4188
2026-01-10 00:37:27.57	24.93	10.95	-49.1	-50.5	14.9	0.00e+00	0	23	0	299892736	64	4218
2026-01-10 00:37:28.58	24.94	11.04	-49.2	-50.6	14.9	0.00e+00	0	23	0	301989888	64	4246
2026-01-10 00:37:29.58	24.95	11.13	-49.1	-50.5	14.9	0.00e+00	0	23	0	305135616	64	4216
2026-01-10 00:37:30.59	24.95	11.22	-49.0	-50.4	14.9	0.00e+00	0	23	0	308281344	64	4156
2026-01-10 00:37:31.59	24.96	11.31	-49.0	-50.3	15.0	0.00e+00	0	23	0	311427072	64	4135
2026-01-10 00:37:32.58	24.97	11.40	-49.0	-50.4	15.0	0.00e+00	0	23	0	314572800	64	4149
2026-01-10 00:37:33.58	24.98	11.50	-48.9	-50.3	15.0	0.00e+00	0	23	0	317718528	64	4113
2026-01-10 00:37:34.59	24.98	11.59	-48.8	-50.2	15.1	0.00e+00	0	23	0	320864256	64	4067
2026-01-10 00:37:35.58	24.99	11.68	-48.9	-50.2	15.0	0.00e+00	0	23	0	324009984	64	4081
2026-01-10 00:37:36.58	25.00	11.77	-48.9	-50.3	15.0	0.00e+00	0	23	0	327155712	64	4100
2026-01-10 00:37:37.58	25.01	11.87	-48.9	-50.3	15.0	0.00e+00	0	23	0	330301440	64	4113
2026-01-10 00:37:38.57	25.02	11.96	-48.9	-50.3	15.0	0.00e+00	0	23	0	333447168	64	4116
2026-01-10 00:37:39.57	25.02	12.05	-48.7	-50.1	15.1	0.00e+00	0	23	0	336592896	64	4005
2026-01-10 00:37:40.57	25.03	12.15	-48.8	-50.1	15.1	0.00e+00	0	23	0	339738624	64	4029
2026-01-10 00:37:41.57	25.04	12.24	-48.8	-50.1	15.1	0.00e+00	0	23	0	342884352	64	4048
2026-01-10 00:37:42.58	25.05	12.34	-48.7	-50.1	15.1	0.00e+00	0	23	0	346030080	64	4008
2026-01-10 00:37:43.57	25.05	12.43	-48.7	-50.0	15.2	0.00e+00	0	23	0	349175808	64	3994
2026-01-10 00:37:44.58	25.06	12.53	-48.7	-50.0	15.2	0.00e+00	0	23	0	352321536	64	4000
2026-01-10 00:37:45.58	25.07	12.62	-48.8	-50.1	15.1	0.00e+00	0	23	0	355467264	64	4035
2026-01-10 00:37:46.59	25.08	12.72	-48.8	-50.1	15.1	0.00e+00	0	23	0	358612992	64	4009
2026-01-10 00:37:47.58	25.09	12.82	-48.7	-50.0	15.2	0.00e+00	0	23	0	361758720	64	3982
2026-01-10 00:37:48.58	25.09	12.91	-48.8	-50.1	15.1	0.00e+00	0	23	0	364904448	64	4026
2026-01-10 00:37:49.57	25.10	13.01	-48.8	-50.1	15.1	0.00e+00	0	23	0	368050176	64	4010
2026-01-10 00:37:50.57	25.11	13.11	-48.7	-50.0	15.2	0.00e+00	0	23	0	371195904	64	3977
2026-01-10 00:37:51.57	25.12	13.21	-48.6	-49.9	15.0	0.00e+00	0	23	0	374341632	63	4185
2026-01-10 00:37:52.57	25.13	13.31	-48.6	-49.9	15.1	0.00e+00	0	23	0	377487360	63	4168
2026-01-10 00:37:53.57	25.13	13.41	-48.7	-50.0	15.0	0.00e+00	0	23	0	380633088	63	4226
2026-01-10 00:37:54.57	25.14	13.50	-48.7	-50.0	15.0	0.00e+00	0	23	0	383778816	63	4215
2026-01-10 00:37:55.57	25.15	13.60	-48.7	-50.0	15.0	0.00e+00	0	23	0	386924544	63	4200
2026-01-10 00:37:56.57	25.16	13.70	-48.6	-49.9	15.1	0.00e+00	0	23	0	390070272	63	4176
2026-01-10 00:37:57.57	25.17	13.81	-48.6	-50.0	15.0	0.00e+00	0	23	0	393216000	63	4196
2026-01-10 00:37:58.58	25.18	13.91	-48.6	-49.9	15.1	0.00e+00	0	23	0	396361728	63	4150
2026-01-10 00:37:59.58	25.18	14.01	-48.5	-49.8	15.1	0.00e+00	0	23	0	399507456	63	4136
2026-01-10 00:38:00.57	25.19	14.11	-48.5	-49.8	15.1	0.00e+00	0	23	0	402653184	63	4142
2026-01-10 00:38:01.58	25.20	14.21	-48.6	-49.9	15.1	0.00e+00	0	23	0	405798912	63	4174
2026-01-10 00:38:02.57	25.21	14.32	-48.6	-49.9	15.1	0.00e+00	0	23	0	408944640	63	4185
2026-01-10 00:38:03.57	25.22	14.42	-48.5	-49.8	15.2	0.00e+00	0	23	0	412090368	63	4104
2026-01-10 00:38:04.57	25.23	14.52	-48.6	-49.9	15.1	0.00e+00	0	23	0	415236096	63	4147
2026-01-10 00:38:05.57	25.23	14.63	-48.7	-50.0	15.0	0.00e+00	0	23	0	418381824	63	4216
2026-01-10 00:38:06.57	25.24	14.73	-48.5	-49.8	15.1	0.00e+00	0	23	0	421527552	63	4138
2026-01-10 00:38:07.56	25.25	14.84	-48.6	-49.9	15.1	0.00e+00	0	23	0	424673280	63	4156
2026-01-10 00:38:08.56	25.26	14.94	-48.6	-49.8	15.1	0.00e+00	0	23	0	427819008	63	4142
2026-01-10 00:38:09.55	25.27	15.05	-48.6	-49.9	15.1	0.00e+00	0	23	0	430964736	63	4151
2026-01-10 00:38:10.54	25.28	15.15	-48.6	-49.9	15.1	0.00e+00	0	23	0	434110464	63	4161
2026-01-10 00:38:11.54	25.28	15.26	-48.6	-49.9	15.1	0.00e+00	0	23	0	437256192	63	4178
2026-01-10 00:38:12.52	25.29	15.36	-48.6	-49.9	15.1	0.00e+00	0	23	0	439353344	63	4193
2026-01-10 00:38:13.51	25.30	15.47	-48.6	-49.8	15.1	0.00e+00	0	23	0	442499072	63	4141
2026-01-10 00:38:14.50	25.31	15.58	-48.5	-49.8	15.1	0.00e+00	0	23	0	445644800	63	4127
2026-01-10 00:38:15.50	25.32	15.69	-48.6	-49.9	15.1	0.00e+00	0	23	0	448790528	63	4158
2026-01-10 00:38:16.51	25.33	15.80	-48.7	-50.0	15.1	0.00e+00	0	23	0	451936256	63	4203
2026-01-10 00:38:17.51	25.34	15.91	-48.7	-50.0	15.0	0.00e+00	0	23	0	455081984	63	4214
2026-01-10 00:38:18.50	25.35	16.02	-48.7	-50.0	15.0	0.00e+00	0	23	0	458227712	63	4242
2026-01-10 00:38:19.50	25.35	16.13	-48.6	-49.9	15.1	0.00e+00	0	23	0	461373440	63	4185
2026-01-10 00:38:20.50	25.36	16.24	-48.8	-50.1	15.0	0.00e+00	0	23	0	464519168	63	4258
2026-01-10 00:38:21.50	25.37	16.35	-48.8	-50.1	15.0	0.00e+00	0	23	0	467664896	63	4273
2026-01-10 00:38:22.50	25.38	16.46	-48.8	-50.1	15.0	0.00e+00	0	23	0	470810624	63	4259
2026-01-10 00:38:23.49	25.39	16.57	-48.7	-50.1	15.0	0.00e+00	0	23	0	473956352	63	4246
2026-01-10 00:38:24.48	25.40	16.69	-48.8	-50.2	15.0	0.00e+00	0	23	0	477102080	63	4298
2026-01-10 00:38:25.48	25.41	16.80	-48.8	-50.2	15.0	0.00e+00	0	23	0	480247808	63	4303
2026-01-10 00:38:26.48	25.42	16.92	-48.9	-50.2	15.0	0.00e+00	0	23	0	483393536	63	4309
2026-01-10 00:38:27.49	25.43	17.03	-48.8	-50.2	15.0	0.00e+00	0	23	0	486539264	63	4303
2026-01-10 00:38:28.48	25.44	17.15	-48.9	-50.2	14.9	0.00e+00	0	23	0	489684992	63	4333
2026-01-10 00:38:29.48	25.44	17.26	-48.8	-50.1	15.0	0.00e+00	0	23	0	492830720	63	4258
2026-01-10 00:38:30.48	25.45	17.38	-48.8	-50.1	15.0	0.00e+00	0	23	0	495976448	63	4277
2026-01-10 00:38:31.47	25.46	17.49	-48.8	-50.1	15.0	0.00e+00	0	23	0	499122176	63	4247
2026-01-10 00:38:32.47	25.47	17.61	-48.8	-50.2	15.0	0.00e+00	0	23	0	502267904	63	4301
2026-01-10 00:38:33.48	25.48	17.73	-48.8	-50.1	15.0	0.00e+00	0	23	0	505413632	63	4279
2026-01-10 00:38:34.48	25.49	17.85	-48.7	-50.0	15.1	0.00e+00	0	23	0	508559360	63	4217
2026-01-10 00:38:35.48	25.50	17.97	-48.6	-49.9	15.1	0.00e+00	0	23	0	511705088	63	4167
2026-01-10 00:38:36.49	25.51	18.09	-48.7	-49.9	15.1	0.00e+00	0	23	0	514850816	63	4193
2026-01-10 00:38:37.49	25.52	18.21	-48.6	-49.9	15.1	0.00e+00	0	23	0	517996544	63	4169
2026-01-10 00:38:38.49	25.53	18.33	-48.6	-49.9	15.1	0.00e+00	0	23	0	521142272	63	4182
2026-01-10 00:38:39.48	25.54	18.45	-48.7	-50.0	15.1	0.00e+00	0	23	0	524288000	63	4204
2026-01-10 00:38:40.48	25.55	18.58	-48.6	-49.9	15.1	0.00e+00	0	23	0	527433728	63	4162
2026-01-10 00:38:41.48	25.56	18.70	-48.7	-50.0	15.1	0.00e+00	0	23	0	530579456	63	4201
2026-01-10 00:38:42.48	25.57	18.82	-48.5	-49.8	15.1	0.00e+00	0	23	0	533725184	63	4130
2026-01-10 00:38:43.48	25.58	18.95	-48.6	-49.8	15.1	0.00e+00	0	23	0	536870912	63	4142
2026-01-10 00:38:44.48	25.59	19.07	-48.5	-49.8	15.2	0.00e+00	0	23	0	540016640	63	4113
2026-01-10 00:38:45.48	25.60	19.20	-48.6	-49.8	15.1	0.00e+00	0	23	0	543162368	63	4133
2026-01-10 00:38:46.49	25.61	19.33	-48.5	-49.8	15.2	0.00e+00	0	23	0	546308096	63	4099
2026-01-10 00:38:47.49	25.62	19.45	-48.5	-49.7	15.2	0.00e+00	0	23	0	549453824	63	4083
2026-01-10 00:38:48.49	25.63	19.58	-48.4	-49.7	15.2	0.00e+00	0	23	0	552599552	63	4074
2026-01-10 00:38:49.49	25.64	19.71	-48.5	-49.7	15.2	0.00e+00	0	23	0	555745280	63	4095
2026-01-10 00:38:50.49	25.65	19.84	-48.3	-49.6	15.3	0.00e+00	0	23	0	558891008	63	4027
2026-01-10 00:38:51.49	25.66	19.97	-48.3	-49.6	15.3	0.00e+00	0	23	0	562036736	63	4017
2026-01-10 00:38:52.49	25.67	20.10	-48.3	-49.5	15.3	0.00e+00	0	23	0	565182464	63	3992
2026-01-10 00:38:53.49	25.68	20.23	-48.2	-49.4	15.3	0.00e+00	0	23	0	568328192	63	3952
2026-01-10 00:38:54.49	25.69	20.36	-48.1	-49.3	15.2	0.00e+00	0	23	0	571473920	62	4125
2026-01-10 00:38:55.49	25.70	20.49	-48.0	-49.3	15.2	0.00e+00	0	23	0	573571072	62	4099
2026-01-10 00:38:56.49	25.71	20.62	-48.0	-49.2	15.3	0.00e+00	0	23	0	576716800	62	4070
2026-01-10 00:38:57.49	25.72	20.76	-48.0	-49.2	15.3	0.00e+00	0	23	0	579862528	62	4087
2026-01-10 00:38:58.48	25.73	20.89	-47.8	-49.0	15.4	0.00e+00	0	23	0	583008256	62	3979
2026-01-10 00:38:59.47	25.74	21.02	-47.8	-49.0	15.4	0.00e+00	0	23	0	586153984	62	3989
2026-01-10 00:39:00.47	25.75	21.16	-47.8	-49.0	15.4	0.00e+00	0	23	0	589299712	62	3994
2026-01-10 00:39:01.47	25.76	21.30	-47.7	-48.9	15.4	0.00e+00	0	23	0	592445440	62	3938
2026-01-10 00:39:02.48	25.77	21.44	-47.7	-48.8	15.5	0.00e+00	0	23	0	595591168	62	3907
2026-01-10 00:39:03.48	25.78	21.57	-47.6	-48.8	15.3	0.00e+00	0	23	0	598736896	61	4100
2026-01-10 00:39:04.48	25.79	21.71	-47.6	-48.8	15.3	0.00e+00	0	23	0	601882624	61	4123
2026-01-10 00:39:05.48	25.81	21.85	-47.6	-48.8	15.3	0.00e+00	0	23	0	605028352	61	4114
2026-01-10 00:39:06.49	25.82	21.99	-47.5	-48.7	15.3	0.00e+00	0	23	0	608174080	61	4079
2026-01-10 00:39:07.48	25.83	22.13	-47.5	-48.7	15.4	0.00e+00	0	23	0	611319808	61	4057
2026-01-10 00:39:08.48	25.84	22.28	-47.5	-48.6	15.4	0.00e+00	0	23	0	614465536	61	4044
2026-01-10 00:39:09.48	25.85	22.42	-47.4	-48.6	15.4	0.00e+00	0	23	0	617611264	61	4023
2026-01-10 00:39:10.48	25.86	22.56	-47.3	-48.5	15.4	0.00e+00	0	23	0	620756992	61	3973
2026-01-10 00:39:11.47	25.87	22.71	-47.4	-48.6	15.4	0.00e+00	0	23	0	623902720	61	4031
2026-01-10 00:39:12.48	25.88	22.85	-47.3	-48.4	15.5	0.00e+00	0	23	0	627048448	61	3932
2026-01-10 00:39:13.47	25.89	23.00	-47.3	-48.4	15.5	0.00e+00	0	23	0	630194176	61	3951
2026-01-10 00:39:14.48	25.91	23.14	-47.2	-48.4	15.5	0.00e+00	0	23	0	633339904	61	3915
2026-01-10 00:39:15.48	25.92	23.29	-47.1	-48.3	15.4	0.00e+00	0	23	0	636485632	60	4110
2026-01-10 00:39:16.48	25.93	23.44	-47.2	-48.4	15.3	0.00e+00	0	23	0	639631360	60	4146
2026-01-10 00:39:17.47	25.94	23.59	-47.2	-48.3	15.3	0.00e+00	0	23	0	642777088	60	4141
2026-01-10 00:39:18.47	25.95	23.74	-47.1	-48.3	15.4	0.00e+00	0	23	0	645922816	60	4113
2026-01-10 00:39:19.47	25.96	23.89	-47.2	-48.4	15.4	0.00e+00	0	23	0	649068544	60	4148
2026-01-10 00:39:20.47	25.98	24.04	-47.2	-48.3	15.4	0.00e+00	0	23	0	652214272	60	4131
2026-01-10 00:39:21.46	25.99	24.19	-47.3	-48.4	15.3	0.00e+00	0	23	0	655360000	60	4189
2026-01-10 00:39:22.46	26.00	24.35	-47.2	-48.4	15.4	0.00e+00	0	23	0	658505728	60	4166
2026-01-10 00:39:23.46	26.01	24.50	-47.3	-48.5	15.3	0.00e+00	0	23	0	661651456	60	4197
2026-01-10 00:39:24.46	26.03	24.66	-47.4	-48.6	15.3	0.00e+00	0	23	0	664797184	60	4246
2026-01-10 00:39:25.46	26.04	24.81	-47.5	-48.7	15.3	0.00e+00	0	23	0	667942912	60	4300
2026-01-10 00:39:26.45	26.05	24.97	-47.6	-48.8	15.2	0.00e+00	0	23	0	671088640	60	4342
2026-01-10 00:39:27.45	26.06	25.13	-47.6	-48.7	15.2	0.00e+00	0	23	0	674234368	60	4326
2026-01-10 00:39:28.44	26.07	25.29	-47.7	-48.9	15.2	0.00e+00	0	23	0	677380096	60	4411
2026-01-10 00:39:29.44	26.09	25.45	-47.8	-49.0	15.2	0.00e+00	0	23	0	680525824	60	4452
2026-01-10 00:39:30.43	26.10	25.61	-47.8	-49.0	15.1	0.00e+00	0	23	0	683671552	60	4481
2026-01-10 00:39:31.44	26.11	25.77	-48.0	-49.2	15.2	0.00e+00	0	23	0	686817280	61	4300
2026-01-10 00:39:32.44	26.13	25.93	-48.0	-49.2	15.2	0.00e+00	0	23	0	689963008	61	4335
2026-01-10 00:39:33.44	26.14	26.10	-48.1	-49.4	15.1	0.00e+00	0	23	0	693108736	61	4405
2026-01-10 00:39:34.45	26.15	26.26	-48.3	-49.5	15.1	0.00e+00	0	23	0	696254464	61	4461
2026-01-10 00:39:35.45	26.17	26.43	-48.3	-49.6	15.0	0.00e+00	0	23	0	699400192	61	4522
2026-01-10 00:39:36.45	26.18	26.60	-48.5	-49.8	15.0	0.00e+00	0	23	0	702545920	62	4375
2026-01-10 00:39:37.44	26.19	26.76	-48.7	-50.0	15.0	0.00e+00	0	23	0	705691648	62	4462
2026-01-10 00:39:38.44	26.21	26.93	-48.8	-50.1	14.9	0.00e+00	0	23	0	707788800	62	4530
2026-01-10 00:39:39.44	26.22	27.10	-49.0	-50.4	14.9	0.00e+00	0	23	0	710934528	63	4406
2026-01-10 00:39:40.44	26.23	27.28	-49.1	-50.4	14.9	0.00e+00	0	23	0	714080256	63	4429
2026-01-10 00:39:41.44	26.25	27.45	-49.1	-50.4	14.9	0.00e+00	0	23	0	717225984	63	4428
2026-01-10 00:39:42.44	26.26	27.62	-49.1	-50.4	14.9	0.00e+00	0	23	0	720371712	63	4432
2026-01-10 00:39:43.44	26.27	27.80	-49.2	-50.5	14.9	0.00e+00	0	23	0	723517440	63	4475
2026-01-10 00:39:44.44	26.29	27.97	-49.2	-50.5	14.9	0.00e+00	0	23	0	726663168	63	4475
2026-01-10 00:39:45.44	26.30	28.15	-49.2	-50.5	14.9	0.00e+00	0	23	0	729808896	63	4473
2026-01-10 00:39:46.43	26.32	28.33	-49.0	-50.3	15.0	0.00e+00	0	23	0	732954624	63	4364
2026-01-10 00:39:47.43	26.33	28.51	-49.0	-50.3	15.0	0.00e+00	0	23	0	736100352	63	4356
2026-01-10 00:39:48.42	26.35	28.68	-48.8	-50.1	15.1	0.00e+00	0	23	0	739246080	63	4243
2026-01-10 00:39:49.42	26.36	28.87	-48.7	-50.0	15.1	0.00e+00	0	23	0	742391808	63	4208
2026-01-10 00:39:50.42	26.38	29.05	-48.6	-49.9	15.1	0.00e+00	0	23	0	745537536	63	4146
2026-01-10 00:39:51.41	26.39	29.23	-48.6	-49.9	15.1	0.00e+00	0	23	0	748683264	63	4153
2026-01-10 00:39:52.41	26.40	29.42	-48.5	-49.8	15.2	0.00e+00	0	23	0	751828992	63	4110
2026-01-10 00:39:53.41	26.42	29.60	-48.5	-49.8	15.2	0.00e+00	0	23	0	754974720	63	4106
2026-01-10 00:39:54.40	26.44	29.79	-48.4	-49.6	15.3	0.00e+00	0	23	0	758120448	63	4024
2026-01-10 00:39:55.40	26.45	29.98	-48.5	-49.7	15.2	0.00e+00	0	23	0	761266176	63	4074
2026-01-10 00:39:56.40	26.47	30.17	-48.5	-49.8	15.2	0.00e+00	0	23	0	764411904	63	4104
2026-01-10 00:39:57.40	26.48	30.36	-48.4	-49.7	15.2	0.00e+00	0	23	0	767557632	63	4058
2026-01-10 00:39:58.40	26.50	30.55	-48.5	-49.8	15.2	0.00e+00	0	23	0	770703360	63	4099
2026-01-10 00:39:59.39	26.51	30.74	-48.5	-49.7	15.2	0.00e+00	0	23	0	773849088	63	4070
2026-01-10 00:40:00.39	26.53	30.94	-48.5	-49.8	15.2	0.00e+00	0	23	0	776994816	63	4114
2026-01-10 00:40:01.40	26.55	31.14	-48.6	-49.8	15.2	0.00e+00	0	23	0	780140544	63	4128
2026-01-10 00:40:02.41	26.56	31.34	-48.5	-49.7	15.2	0.00e+00	0	23	0	783286272	63	4069
2026-01-10 00:40:03.41	26.58	31.54	-48.5	-49.7	15.2	0.00e+00	0	23	0	786432000	63	4089
2026-01-10 00:40:04.40	26.60	31.74	-48.3	-49.5	15.3	0.00e+00	0	23	0	789577728	63	3998
2026-01-10 00:40:05.40	26.61	31.94	-48.3	-49.4	15.3	0.00e+00	0	23	0	792723456	63	3957
2026-01-10 00:40:06.40	26.63	32.14	-48.2	-49.4	15.4	0.00e+00	0	23	0	795869184	63	3932
2026-01-10 00:40:07.40	26.65	32.35	-48.3	-49.5	15.3	0.00e+00	0	23	0	799014912	63	3983
2026-01-10 00:40:08.40	26.66	32.55	-48.3	-49.5	15.3	0.00e+00	0	23	0	802160640	63	3985
2026-01-10 00:40:09.40	26.68	32.76	-48.4	-49.6	15.3	0.00e+00	0	23	0	805306368	63	4010
2026-01-10 00:40:10.40	26.70	32.97	-48.4	-49.6	15.3	0.00e+00	0	23	0	808452096	63	4038
2026-01-10 00:40:11.39	26.72	33.18	-48.6	-49.9	15.1	0.00e+00	0	23	0	811597824	63	4156
2026-01-10 00:40:12.39	26.74	33.39	-48.7	-49.9	15.1	0.00e+00	0	23	0	814743552	63	4192
2026-01-10 00:40:13.39	26.75	33.61	-48.8	-50.1	15.1	0.00e+00	0	23	0	817889280	63	4254
2026-01-10 00:40:14.38	26.77	33.82	-49.0	-50.2	15.0	0.00e+00	0	23	0	821035008	63	4339
2026-01-10 00:40:15.38	26.79	34.04	-49.1	-50.4	14.9	0.00e+00	0	23	0	824180736	63	4432
2026-01-10 00:40:16.38	26.81	34.25	-49.3	-50.6	14.8	0.00e+00	0	23	0	827326464	63	4540
2026-01-10 00:40:17.39	26.83	34.48	-49.3	-50.6	14.8	0.00e+00	0	23	0	830472192	63	4544
2026-01-10 00:40:18.40	26.85	34.70	-49.3	-50.6	14.9	0.00e+00	0	23	0	833617920	63	4511
2026-01-10 00:40:19.39	26.87	34.92	-49.3	-50.6	14.8	0.00e+00	0	23	0	836763648	63	4529
2026-01-10 00:40:20.38	26.89	35.14	-49.3	-50.6	14.8	0.00e+00	0	23	0	839909376	63	4533
2026-01-10 00:40:21.37	26.91	35.37	-49.2	-50.5	14.9	0.00e+00	0	23	0	842006528	63	4493
2026-01-10 00:40:22.37	26.93	35.59	-49.3	-50.6	14.9	0.00e+00	0	23	0	845152256	63	4530
2026-01-10 00:40:23.37	26.95	35.82	-49.4	-50.7	14.9	0.00e+00	0	23	0	848297984	64	4330
2026-01-10 00:40:24.37	26.97	36.05	-49.4	-50.8	14.9	0.00e+00	0	23	0	851443712	64	4350
2026-01-10 00:40:25.37	26.99	36.29	-49.5	-50.8	14.8	0.00e+00	0	23	0	854589440	64	4384
2026-01-10 00:40:26.37	27.01	36.52	-49.7	-51.1	14.7	0.00e+00	0	23	0	857735168	64	4500
2026-01-10 00:40:27.37	27.03	36.76	-49.9	-51.3	14.6	0.00e+00	0	23	0	860880896	64	4624
2026-01-10 00:40:28.37	27.05	36.99	-50.1	-51.5	14.7	0.00e+00	0	23	0	864026624	65	4456
2026-01-10 00:40:29.37	27.07	37.23	-50.3	-51.8	14.5	0.00e+00	0	23	0	867172352	65	4613
2026-01-10 00:40:30.37	27.09	37.47	-50.4	-51.9	14.6	0.00e+00	0	23	0	870318080	66	4421
2026-01-10 00:40:31.37	27.12	37.72	-50.5	-52.0	14.5	0.00e+00	0	23	0	873463808	66	4481
2026-01-10 00:40:32.37	27.14	37.96	-50.5	-52.0	14.6	0.00e+00	0	23	0	876609536	66	4455
2026-01-10 00:40:33.37	27.16	38.21	-50.3	-51.8	14.7	0.00e+00	0	23	0	879755264	66	4350
2026-01-10 00:40:34.37	27.19	38.46	-50.0	-51.4	14.8	0.00e+00	0	23	0	882900992	66	4188
2026-01-10 00:40:35.38	27.21	38.71	-50.0	-51.3	14.9	0.00e+00	0	23	0	886046720	66	4139
2026-01-10 00:40:36.37	27.23	38.96	-49.9	-51.3	14.9	0.00e+00	0	23	0	889192448	66	4106
2026-01-10 00:40:37.38	27.26	39.22	-49.8	-51.2	15.0	0.00e+00	0	23	0	892338176	66	4071
2026-01-10 00:40:38.39	27.28	39.47	-49.8	-51.1	15.0	0.00e+00	0	23	0	895483904	66	4046
2026-01-10 00:40:39.39	27.31	39.73	-49.9	-51.2	14.9	0.00e+00	0	23	0	898629632	66	4087
2026-01-10 00:40:40.38	27.33	39.99	-50.0	-51.4	14.8	0.00e+00	0	23	0	901775360	66	4167
2026-01-10 00:40:41.38	27.36	40.25	-49.9	-51.3	14.9	0.00e+00	0	23	0	904921088	66	4131
2026-01-10 00:40:42.38	27.38	40.51	-50.0	-51.4	14.8	0.00e+00	0	23	0	908066816	66	4186
2026-01-10 00:40:43.38	27.41	40.78	-50.0	-51.4	14.8	0.00e+00	0	23	0	911212544	66	4180
2026-01-10 00:40:44.37	27.43	41.04	-50.0	-51.4	14.8	0.00e+00	0	23	0	914358272	66	4159
2026-01-10 00:40:45.38	27.46	41.32	-50.0	-51.4	14.8	0.00e+00	0	23	0	917504000	66	4167
2026-01-10 00:40:46.38	27.49	41.59	-50.1	-51.5	14.8	0.00e+00	0	23	0	920649728	66	4202
2026-01-10 00:40:47.38	27.52	41.86	-50.1	-51.5	14.8	0.00e+00	0	23	0	923795456	66	4222
2026-01-10 00:40:48.38	27.54	42.14	-50.4	-51.9	14.6	0.00e+00	0	23	0	926941184	66	4403
2026-01-10 00:40:49.37	27.57	42.41	-50.5	-52.0	14.6	0.00e+00	0	23	0	930086912	66	4448
2026-01-10 00:40:50.38	27.60	42.69	-50.8	-52.3	14.4	0.00e+00	0	23	0	933232640	66	4632
2026-01-10 00:40:51.38	27.63	42.98	-50.9	-52.5	14.5	0.00e+00	0	23	0	936378368	67	4448
2026-01-10 00:40:52.38	27.66	43.26	-51.1	-52.7	14.3	0.00e+00	0	23	0	939524096	67	4575
2026-01-10 00:40:53.38	27.69	43.55	-51.1	-52.7	14.3	0.00e+00	0	23	0	942669824	67	4564
2026-01-10 00:40:54.38	27.72	43.83	-51.2	-52.8	14.3	0.00e+00	0	23	0	945815552	67	4640
2026-01-10 00:40:55.38	27.75	44.12	-51.1	-52.7	14.3	0.00e+00	0	23	0	948961280	67	4571
2026-01-10 00:40:56.38	27.78	44.42	-51.1	-52.7	14.3	0.00e+00	0	23	0	952107008	67	4550
2026-01-10 00:40:57.39	27.81	44.71	-51.0	-52.6	14.4	0.00e+00	0	23	0	955252736	67	4507
2026-01-10 00:40:58.39	27.85	45.01	-50.9	-52.5	14.4	0.00e+00	0	23	0	958398464	67	4459
2026-01-10 00:40:59.38	27.88	45.31	-51.0	-52.6	14.3	0.00e+00	0	23	0	961544192	67	4530
2026-01-10 00:41:00.37	27.91	45.61	-51.1	-52.7	14.3	0.00e+00	0	23	0	964689920	67	4586
2026-01-10 00:41:01.37	27.95	45.91	-51.2	-52.9	14.2	0.00e+00	0	23	0	967835648	67	4663
2026-01-10 00:41:02.37	27.98	46.22	-51.4	-53.1	14.1	0.00e+00	0	23	0	970981376	67	4792
2026-01-10 00:41:03.37	28.02	46.52	-51.3	-53.0	14.2	0.00e+00	0	23	0	974127104	67	4717
2026-01-10 00:41:04.37	28.05	46.83	-51.4	-53.1	14.1	0.00e+00	0	23	0	977272832	67	4762
2026-01-10 00:41:05.38	28.09	47.15	-51.3	-52.9	14.2	0.00e+00	0	23	0	980418560	67	4695
2026-01-10 00:41:06.38	28.13	47.47	-51.1	-52.7	14.3	0.00e+00	0	23	0	983564288	67	4586
2026-01-10 00:41:07.38	28.17	47.78	-50.9	-52.4	14.5	0.00e+00	0	23	0	986710016	67	4426
2026-01-10 00:41:08.38	28.21	48.10	-50.6	-52.1	14.6	0.00e+00	0	23	0	989855744	67	4286
2026-01-10 00:41:09.38	28.24	48.43	-50.4	-51.9	14.7	0.00e+00	0	23	0	993001472	67	4159
2026-01-10 00:41:10.37	28.28	48.75	-50.4	-51.8	14.8	0.00e+00	0	23	0	996147200	67	4129
2026-01-10 00:41:11.37	28.33	49.07	-50.3	-51.8	14.8	0.00e+00	0	23	0	999292928	67	4100
2026-01-10 00:41:12.37	28.37	49.40	-50.2	-51.6	14.9	0.00e+00	0	23	0	1001390080	67	4042
2026-01-10 00:41:13.37	28.41	49.74	-50.1	-51.5	14.8	0.00e+00	0	23	0	1004535808	66	4194
2026-01-10 00:41:14.36	28.45	50.07	-50.0	-51.4	14.9	0.00e+00	0	23	0	1007681536	66	4153
2026-01-10 00:41:15.36	28.50	50.40	-49.9	-51.2	14.9	0.00e+00	0	23	0	1010827264	66	4085
2026-01-10 00:41:16.35	28.54	50.74	-49.8	-51.1	15.0	0.00e+00	0	23	0	1013972992	66	4045
2026-01-10 00:41:17.35	28.59	51.08	-49.8	-51.2	15.0	0.00e+00	0	23	0	1017118720	66	4083
2026-01-10 00:41:18.35	28.64	51.43	-49.9	-51.3	14.9	0.00e+00	0	23	0	1020264448	66	4124
2026-01-10 00:41:19.34	28.68	51.77	-50.0	-51.5	14.8	0.00e+00	0	23	0	1023410176	66	4194
2026-01-10 00:41:20.33	28.73	52.11	-49.9	-51.3	15.0	0.00e+00	0	23	0	1026555904	66	4100
2026-01-10 00:41:21.33	28.78	52.47	-49.8	-51.2	15.0	0.00e+00	0	23	0	1029701632	66	4053
2026-01-10 00:41:22.32	28.83	52.82	-49.6	-50.9	15.0	0.00e+00	0	23	0	1032847360	65	4163
2026-01-10 00:41:23.31	28.88	53.17	-49.3	-50.6	15.1	0.00e+00	0	23	0	1035993088	65	4030
2026-01-10 00:41:24.32	28.94	53.53	-49.3	-50.6	15.2	0.00e+00	0	23	0	1039138816	65	4023
2026-01-10 00:41:25.31	28.99	53.89	-49.4	-50.7	15.1	0.00e+00	0	23	0	1042284544	65	4091
2026-01-10 00:41:26.30	29.05	54.25	-49.2	-50.5	15.2	0.00e+00	0	23	0	1045430272	65	4000
2026-01-10 00:41:27.31	29.11	54.62	-48.9	-50.1	15.2	0.00e+00	0	23	0	1048576000	64	4030
2026-01-10 00:41:28.30	29.17	54.99	-48.6	-49.8	15.2	0.00e+00	0	23	0	1051721728	63	4113
2026-01-10 00:41:29.30	29.23	55.36	-48.5	-49.7	15.2	0.00e+00	0	23	0	1054867456	63	4098
2026-01-10 00:41:30.29	29.29	55.73	-48.5	-49.7	15.3	0.00e+00	0	23	0	1058013184	63	4059
2026-01-10 00:41:31.28	29.35	56.10	-48.6	-49.9	15.2	0.00e+00	0	23	0	1061158912	63	4157
2026-01-10 00:41:32.29	29.42	56.49	-48.6	-49.9	15.1	0.00e+00	0	23	0	1064304640	63	4161
2026-01-10 00:41:33.28	29.48	56.87	-48.7	-49.9	15.2	0.00e+00	0	23	0	1067450368	63	4186
2026-01-10 00:41:34.29	29.55	57.26	-48.7	-49.9	15.1	0.00e+00	0	23	0	1070596096	63	4193
2026-01-10 00:41:35.28	29.62	57.64	-48.5	-49.7	15.3	0.00e+00	0	23	0	1073741824	63	4070
2026-01-10 00:41:36.28	29.69	58.03	-48.4	-49.6	15.3	0.00e+00	0	23	0	1076887552	63	4037
2026-01-10 00:41:37.29	29.77	58.43	-48.3	-49.5	15.3	0.00e+00	0	23	0	1080033280	63	3992
2026-01-10 00:41:38.28	29.85	58.82	-48.4	-49.6	15.3	0.00e+00	0	23	0	1083179008	63	4032
2026-01-10 00:41:39.28	29.92	59.22	-48.3	-49.5	15.4	0.00e+00	0	23	0	1086324736	63	3999
2026-01-10 00:41:40.27	30.00	59.61	-48.3	-49.5	15.2	0.00e+00	0	23	0	1089470464	62	4217
2026-01-10 00:41:41.27	30.09	60.02	-48.2	-49.4	15.3	0.00e+00	0	23	0	1091567616	62	4168
2026-01-10 00:41:42.27	30.17	60.42	-48.1	-49.2	15.3	0.00e+00	0	23	0	1094713344	62	4098
2026-01-10 00:41:43.27	30.26	60.83	-47.7	-48.8	15.5	0.00e+00	0	23	0	1098907648	62	3892
2026-01-10 00:41:44.27	30.35	61.24	-47.4	-48.5	15.5	0.00e+00	0	23	0	1102053376	61	3995
2026-01-10 00:41:45.27	30.45	61.65	-47.4	-48.5	15.5	0.00e+00	0	23	0	1105199104	61	3969
2026-01-10 00:41:46.27	30.55	62.07	-47.3	-48.5	15.5	0.00e+00	0	23	0	1107296256	61	3965
2026-01-10 00:41:47.27	30.65	62.49	-47.6	-48.7	15.4	0.00e+00	0	23	0	1110441984	61	4085
2026-01-10 00:41:48.26	30.75	62.90	-47.5	-48.7	15.4	0.00e+00	0	23	0	1113587712	61	4058
2026-01-10 00:41:49.25	30.86	63.32	-47.3	-48.4	15.5	0.00e+00	0	23	0	1116733440	61	3958
2026-01-10 00:41:50.25	30.97	63.75	-47.3	-48.4	15.4	0.00e+00	0	23	0	1119879168	60	4176
2026-01-10 00:41:51.25	31.08	64.18	-47.4	-48.5	15.4	0.00e+00	0	23	0	1123024896	60	4230
2026-01-10 00:41:52.25	31.20	64.61	-47.3	-48.4	15.4	0.00e+00	0	23	0	1126170624	60	4167
2026-01-10 00:41:53.25	31.33	65.04	-47.0	-48.2	15.5	0.00e+00	0	23	0	1129316352	60	4053
2026-01-10 00:41:54.25	31.46	65.47	-47.0	-48.1	15.5	0.00e+00	0	23	0	1132462080	60	4035
2026-01-10 00:41:55.24	31.59	65.91	-46.9	-47.9	15.5	0.00e+00	0	23	0	1135607808	60	3958
2026-01-10 00:41:56.25	31.73	66.35	-47.1	-48.2	15.4	0.00e+00	0	23	0	1138753536	60	4086
2026-01-10 00:41:57.25	31.88	66.79	-47.3	-48.4	15.4	0.00e+00	0	23	0	1141899264	60	4173
2026-01-10 00:41:58.24	32.02	67.23	-47.2	-48.3	15.4	0.00e+00	0	23	0	1145044992	60	4121
2026-01-10 00:41:59.25	32.18	67.68	-47.1	-48.2	15.5	0.00e+00	0	23	0	1148190720	60	4063
2026-01-10 00:42:00.25	32.35	68.13	-47.2	-48.3	15.4	0.00e+00	0	23	0	1151336448	60	4111
2026-01-10 00:42:01.25	32.52	68.58	-47.3	-48.5	15.4	0.00e+00	0	23	0	1154482176	60	4204
2026-01-10 00:42:02.25	32.70	69.04	-47.6	-48.7	15.3	0.00e+00	0	23	0	1157627904	60	4328
2026-01-10 00:42:03.25	32.89	69.49	-47.4	-48.5	15.3	0.00e+00	0	23	0	1160773632	60	4228
2026-01-10 00:42:04.24	33.08	69.95	-47.2	-48.3	15.4	0.00e+00	0	23	0	1163919360	60	4115
2026-01-10 00:42:05.24	33.29	70.40	-47.1	-48.2	15.4	0.00e+00	0	23	0	1167065088	60	4069
2026-01-10 00:42:06.25	33.51	70.87	-46.8	-47.9	15.5	0.00e+00	0	23	0	1170210816	60	3929
2026-01-10 00:42:07.25	33.74	71.33	-46.9	-48.0	15.5	0.00e+00	0	23	0	1173356544	59	4218
2026-01-10 00:42:08.24	33.97	71.79	-46.7	-47.8	15.5	0.00e+00	0	23	0	1176502272	59	4132
2026-01-10 00:42:09.25	34.23	72.26	-46.7	-47.8	15.5	0.00e+00	0	23	0	1179648000	59	4125
2026-01-10 00:42:10.25	34.50	72.73	-47.2	-48.3	15.4	0.00e+00	0	23	0	1182793728	59	4379
2026-01-10 00:42:11.25	34.78	73.20	-47.0	-48.1	15.5	0.00e+00	0	23	0	1185939456	60	4040
2026-01-10 00:42:12.24	35.08	73.67	-46.9	-48.0	15.6	0.00e+00	0	23	0	1189085184	60	3991
2026-01-10 00:42:13.24	35.40	74.14	-46.9	-47.9	15.6	0.00e+00	0	23	0	1192230912	60	3958
2026-01-10 00:42:14.24	35.73	74.61	-46.8	-47.8	15.6	0.00e+00	0	23	0	1195376640	60	3896
2026-01-10 00:42:15.24	36.09	75.09	-46.8	-47.8	15.6	0.00e+00	0	23	0	1198522368	60	3894
2026-01-10 00:42:16.23	36.48	75.56	-47.0	-48.1	15.4	0.00e+00	0	23	0	1201668096	59	4275
2026-01-10 00:42:17.23	36.89	76.04	-47.1	-48.2	15.4	0.00e+00	0	23	0	1204813824	59	4337
2026-01-10 00:42:18.22	37.33	76.51	-47.1	-48.3	15.4	0.00e+00	0	23	0	1207959552	59	4348
2026-01-10 00:42:19.22	37.80	76.99	-47.0	-48.1	15.5	0.00e+00	0	23	0	1211105280	59	4260
2026-01-10 00:42:20.22	38.31	77.47	-47.2	-48.3	15.4	0.00e+00	0	23	0	1214251008	59	4355
2026-01-10 00:42:21.22	38.87	77.95	-47.3	-48.4	15.4	0.00e+00	0	23	0	1217396736	60	4158
2026-01-10 00:42:22.21	39.46	78.43	-47.6	-48.8	15.3	0.00e+00	0	23	0	1220542464	60	4355
2026-01-10 00:42:23.20	40.11	78.90	-47.7	-48.8	15.3	0.00e+00	0	23	0	1222639616	60	4375
2026-01-10 00:42:24.20	40.82	79.38	-47.8	-48.9	15.2	0.00e+00	0	23	0	1225785344	60	4433
2026-01-10 00:42:25.20	41.60	79.86	-47.9	-49.1	15.2	0.00e+00	0	23	0	1228931072	61	4270
2026-01-10 00:42:26.19	42.45	80.34	-48.0	-49.2	15.1	0.00e+00	0	23	0	1232076800	61	4336
2026-01-10 00:42:27.20	43.41	80.82	-48.0	-49.2	15.2	0.00e+00	0	23	0	1235222528	61	4327
2026-01-10 00:42:28.20	44.46	81.29	-48.2	-49.4	15.2	0.00e+00	0	23	0	1238368256	61	4437
2026-01-10 00:42:29.20	45.64	81.77	-48.3	-49.5	15.1	0.00e+00	0	23	0	1241513984	61	4475
2026-01-10 00:42:30.20	46.96	82.24	-48.0	-49.2	15.2	0.00e+00	0	23	0	1244659712	61	4339
2026-01-10 00:42:31.20	48.46	82.71	-47.9	-49.1	15.2	0.00e+00	0	23	0	1247805440	61	4271
2026-01-10 00:42:32.20	50.16	83.17	-47.8	-49.0	15.3	0.00e+00	0	23	0	1250951168	61	4202
2026-01-10 00:42:33.20	52.10	83.62	-47.9	-49.1	15.3	0.00e+00	0	23	0	1254096896	61	4261
2026-01-10 00:42:34.20	54.34	84.07	-48.0	-49.1	15.2	0.00e+00	0	23	0	1257242624	61	4281
2026-01-10 00:42:35.20	56.95	84.51	-47.7	-48.9	15.4	0.00e+00	0	23	0	1260388352	61	4150
2026-01-10 00:42:36.20	60.01	84.94	-47.6	-48.8	15.4	0.00e+00	0	23	0	1263534080	61	4107
2026-01-10 00:42:37.20	63.62	85.35	-48.0	-49.3	15.2	0.00e+00	0	23	0	1266679808	61	4341
2026-01-10 00:42:38.20	67.90	85.74	-48.2	-49.4	15.2	0.00e+00	0	23	0	1269825536	61	4429
2026-01-10 00:42:39.20	73.02	86.10	-48.0	-49.2	15.2	0.00e+00	0	23	0	1272971264	61	4317
2026-01-10 00:42:40.21	79.17	86.42	-48.0	-49.2	15.3	0.00e+00	0	23	0	1276116992	61	4301
2026-01-10 00:42:41.21	86.39	86.70	-48.1	-49.3	15.2	0.00e+00	0	23	0	1279262720	61	4380
2026-01-10 00:42:42.20	94.67	86.91	-48.3	-49.5	15.1	0.00e+00	0	23	0	1282408448	61	4475
2026-01-10 00:42:43.20	104.04	87.05	-47.9	-49.0	15.3	0.00e+00	0	23	0	1285554176	61	4224
2026-01-10 00:42:44.20	114.05	87.10	-47.8	-49.0	15.3	0.00e+00	0	23	0	1288699904	61	4199
2026-01-10 00:42:45.20	124.13	87.07	-47.8	-49.0	15.3	0.00e+00	0	23	0	1291845632	61	4208
2026-01-10 00:42:46.20	133.69	86.95	-47.7	-48.9	15.3	0.00e+00	0	23	0	1294991360	61	4172
2026-01-10 00:42:47.20	142.31	86.75	-47.6	-48.8	15.4	0.00e+00	0	23	0	1298137088	61	4112
2026-01-10 00:42:48.19	149.71	86.49	-47.8	-48.9	15.4	0.00e+00	0	23	0	1301282816	61	4188
2026-01-10 00:42:49.20	156.12	86.17	-47.6	-48.8	15.4	0.00e+00	0	23	0	1304428544	61	4105
2026-01-10 00:42:50.19	161.39	85.83	-47.6	-48.8	15.4	0.00e+00	0	23	0	1307574272	61	4116
2026-01-10 00:42:51.20	165.91	85.44	-47.7	-48.9	15.4	0.00e+00	0	23	0	1310720000	61	4162
2026-01-10 00:42:52.20	169.66	85.03	-47.5	-48.7	15.5	0.00e+00	0	23	0	1313865728	61	4053
2026-01-10 00:42:53.19	172.81	84.62	-47.3	-48.4	15.4	0.00e+00	0	23	0	1317011456	61	3950
2026-01-10 00:42:54.19	175.51	84.18	-47.3	-48.4	15.4	0.00e+00	0	23	0	1320157184	61	3936
2026-01-10 00:42:55.19	177.84	83.73	-47.4	-48.5	15.4	0.00e+00	0	23	0	1323302912	61	3997
2026-01-10 00:42:56.18	179.83	83.28	-47.5	-48.7	15.4	0.00e+00	0	23	0	1326448640	61	4062
2026-01-10 00:42:57.18	181.59	82.82	-47.9	-49.1	15.3	0.00e+00	0	23	0	1329594368	61	4244
2026-01-10 00:42:58.18	183.13	82.35	-47.8	-48.9	15.3	0.00e+00	0	23	0	1332740096	61	4170
2026-01-10 00:42:59.17	184.48	81.89	-47.3	-48.4	15.5	0.00e+00	0	23	0	1335885824	61	3933
2026-01-10 00:43:00.17	185.69	81.42	-47.0	-48.1	15.5	0.00e+00	0	23	0	1339031552	60	4027
2026-01-10 00:43:01.16	186.77	80.94	-47.1	-48.2	15.5	0.00e+00	0	23	0	1342177280	60	4059
2026-01-10 00:43:02.16	187.75	80.47	-47.2	-48.3	15.4	0.00e+00	0	23	0	1345323008	60	4135
2026-01-10 00:43:03.17	188.64	79.98	-47.4	-48.5	15.4	0.00e+00	0	23	0	1348468736	60	4231
2026-01-10 00:43:04.17	189.44	79.50	-47.7	-48.8	15.3	0.00e+00	0	23	0	1351614464	60	4390
2026-01-10 00:43:05.17	190.17	79.02	-47.5	-48.6	15.3	0.00e+00	0	23	0	1354760192	60	4270
2026-01-10 00:43:06.17	190.83	78.54	-47.1	-48.2	15.5	0.00e+00	0	23	0	1357905920	60	4056
2026-01-10 00:43:07.18	191.45	78.06	-47.3	-48.4	15.4	0.00e+00	0	23	0	1361051648	60	4192
2026-01-10 00:43:08.17	192.01	77.58	-47.3	-48.4	15.4	0.00e+00	0	23	0	1364197376	60	4179
2026-01-10 00:43:09.17	192.53	77.10	-47.3	-48.4	15.4	0.00e+00	0	23	0	1367343104	60	4184
2026-01-10 00:43:10.17	193.02	76.62	-47.2	-48.3	15.4	0.00e+00	0	23	0	1370488832	60	4143
2026-01-10 00:43:11.16	193.46	76.15	-47.3	-48.4	15.4	0.00e+00	0	23	0	1372585984	60	4172
2026-01-10 00:43:12.16	193.88	75.67	-47.1	-48.2	15.5	0.00e+00	0	23	0	1375731712	60	4083
2026-01-10 00:43:13.15	194.27	75.20	-47.1	-48.2	15.5	0.00e+00	0	23	0	1378877440	60	4052
2026-01-10 00:43:14.16	194.64	74.71	-47.4	-48.5	15.4	0.00e+00	0	23	0	1382023168	60	4236
2026-01-10 00:43:15.16	194.98	74.24	-47.6	-48.8	15.3	0.00e+00	0	23	0	1385168896	60	4347
2026-01-10 00:43:16.16	195.30	73.77	-48.0	-49.1	15.3	0.00e+00	0	23	0	1388314624	61	4284
2026-01-10 00:43:17.16	195.61	73.29	-47.6	-48.8	15.4	0.00e+00	0	23	0	1391460352	61	4121
2026-01-10 00:43:18.16	195.89	72.82	-47.5	-48.6	15.4	0.00e+00	0	23	0	1394606080	61	4040
2026-01-10 00:43:19.14	196.16	72.36	-47.1	-48.2	15.5	0.00e+00	0	23	0	1397751808	60	4091
2026-01-10 00:43:20.14	196.42	71.90	-47.0	-48.2	15.4	0.00e+00	0	23	0	1400897536	59	4293
2026-01-10 00:43:21.15	196.66	71.43	-47.1	-48.2	15.4	0.00e+00	0	23	0	1404043264	59	4322
2026-01-10 00:43:22.14	196.89	70.97	-47.3	-48.4	15.4	0.00e+00	0	23	0	1407188992	60	4176
2026-01-10 00:43:23.15	197.11	70.50	-47.9	-49.1	15.2	0.00e+00	0	23	0	1410334720	60	4529
2026-01-10 00:43:24.15	197.32	70.04	-47.9	-49.1	15.3	0.00e+00	0	23	0	1413480448	61	4285
2026-01-10 00:43:25.15	197.52	69.58	-47.9	-49.1	15.3	0.00e+00	0	23	0	1416626176	61	4251
2026-01-10 00:43:26.14	197.71	69.13	-47.7	-48.9	15.4	0.00e+00	0	23	0	1419771904	61	4151
2026-01-10 00:43:27.13	197.89	68.68	-47.4	-48.5	15.5	0.00e+00	0	23	0	1422917632	61	3971
2026-01-10 00:43:28.13	198.06	68.23	-47.3	-48.4	15.5	0.00e+00	0	23	0	1426063360	61	3943
2026-01-10 00:43:29.12	198.23	67.78	-47.3	-48.5	15.5	0.00e+00	0	23	0	1429209088	61	3966
2026-01-10 00:43:30.12	198.38	67.33	-47.6	-48.8	15.4	0.00e+00	0	23	0	1432354816	61	4122
2026-01-10 00:43:31.12	198.54	66.89	-47.9	-49.1	15.3	0.00e+00	0	23	0	1435500544	61	4248
2026-01-10 00:43:32.11	198.68	66.45	-47.5	-48.6	15.4	0.00e+00	0	23	0	1438646272	61	4047
2026-01-10 00:43:33.11	198.82	66.01	-47.3	-48.4	15.5	0.00e+00	0	23	0	1441792000	61	3920
2026-01-10 00:43:34.11	198.96	65.57	-47.1	-48.2	15.5	0.00e+00	0	23	0	1444937728	60	4087
2026-01-10 00:43:35.11	199.09	65.13	-46.8	-47.9	15.5	0.00e+00	0	23	0	1448083456	59	4163
2026-01-10 00:43:36.11	199.21	64.70	-47.0	-48.1	15.5	0.00e+00	0	23	0	1451229184	59	4251
2026-01-10 00:43:37.12	199.34	64.26	-47.0	-48.2	15.5	0.00e+00	0	23	0	1454374912	60	4053
2026-01-10 00:43:38.12	199.45	63.83	-47.7	-48.8	15.3	0.00e+00	0	23	0	1457520640	60	4389
2026-01-10 00:43:39.12	199.56	63.41	-48.2	-49.4	15.2	0.00e+00	0	23	0	1460666368	61	4419
2026-01-10 00:43:40.11	199.67	62.99	-48.5	-49.7	15.1	0.00e+00	0	23	0	1463812096	62	4331
2026-01-10 00:43:41.11	199.78	62.56	-48.6	-49.9	14.9	0.00e+00	0	23	0	1466957824	62	4426
2026-01-10 00:43:42.11	199.88	62.14	-48.4	-49.7	15.1	0.00e+00	0	23	0	1470103552	62	4302
2026-01-10 00:43:43.11	199.98	61.73	-48.1	-49.3	15.3	0.00e+00	0	23	0	1473249280	62	4117
2026-01-10 00:43:44.12	200.07	61.31	-48.2	-49.5	15.2	0.00e+00	0	23	0	1476395008	62	4197
2026-01-10 00:43:45.13	200.17	60.89	-48.2	-49.3	15.2	0.00e+00	0	23	0	1479540736	62	4145
2026-01-10 00:43:46.12	200.25	60.49	-48.4	-49.6	15.2	0.00e+00	0	23	0	1482686464	62	4250
2026-01-10 00:43:47.12	200.34	60.08	-48.4	-49.6	15.2	0.00e+00	0	23	0	1485832192	62	4270
2026-01-10 00:43:48.12	200.42	59.67	-48.4	-49.7	15.2	0.00e+00	0	23	0	1488977920	62	4296
2026-01-10 00:43:49.13	200.51	59.27	-48.7	-49.9	15.0	0.00e+00	0	23	0	1492123648	62	4439
2026-01-10 00:43:50.13	200.59	58.87	-48.4	-49.7	15.1	0.00e+00	0	23	0	1495269376	62	4299
2026-01-10 00:43:51.14	200.66	58.47	-47.7	-48.8	15.3	0.00e+00	0	23	0	1498415104	61	4120
2026-01-10 00:43:52.14	200.74	58.07	-47.5	-48.6	15.4	0.00e+00	0	23	0	1501560832	61	4020
2026-01-10 00:43:53.14	200.81	57.68	-47.4	-48.5	15.4	0.00e+00	0	23	0	1504706560	61	4004
2026-01-10 00:43:54.14	200.88	57.29	-47.7	-48.8	15.3	0.00e+00	0	23	0	1507852288	61	4130
2026-01-10 00:43:55.14	200.95	56.91	-48.6	-49.8	15.1	0.00e+00	0	23	0	1510998016	62	4361
2026-01-10 00:43:56.15	201.02	56.52	-49.4	-50.7	15.0	0.00e+00	0	23	0	1513095168	64	4340
2026-01-10 00:43:57.15	201.08	56.14	-50.2	-51.6	14.7	0.00e+00	0	23	0	1516240896	65	4511
2026-01-10 00:43:58.15	201.15	55.76	-50.2	-51.6	14.7	0.00e+00	0	23	0	1519386624	65	4508
2026-01-10 00:43:59.15	201.21	55.38	-49.9	-51.2	14.8	0.00e+00	0	23	0	1522532352	65	4337
2026-01-10 00:44:00.15	201.27	55.01	-49.5	-50.9	15.0	0.00e+00	0	23	0	1525678080	65	4149
2026-01-10 00:44:01.14	201.33	54.64	-49.3	-50.6	15.1	0.00e+00	0	23	0	1528823808	65	4039
2026-01-10 00:44:02.14	201.39	54.28	-49.0	-50.3	15.1	0.00e+00	0	23	0	1531969536	64	4116
2026-01-10 00:44:03.14	201.44	53.91	-48.8	-50.1	15.2	0.00e+00	0	23	0	1535115264	64	4017
2026-01-10 00:44:04.13	201.50	53.55	-48.7	-49.9	15.3	0.00e+00	0	23	0	1538260992	64	3953
2026-01-10 00:44:05.13	201.55	53.19	-48.8	-50.0	15.3	0.00e+00	0	23	0	1541406720	64	3969
2026-01-10 00:44:06.13	201.60	52.83	-49.2	-50.5	15.0	0.00e+00	0	23	0	1544552448	64	4198
2026-01-10 00:44:07.13	201.66	52.48	-50.1	-51.5	14.7	0.00e+00	0	23	0	1547698176	65	4488
2026-01-10 00:44:08.12	201.71	52.13	-50.8	-52.3	14.4	0.00e+00	0	23	0	1550843904	66	4630
2026-01-10 00:44:09.12	201.76	51.78	-50.8	-52.3	14.4	0.00e+00	0	23	0	1553989632	66	4644
2026-01-10 00:44:10.13	201.80	51.42	-50.6	-52.1	14.4	0.00e+00	0	23	0	1557135360	66	4532
2026-01-10 00:44:11.12	201.85	51.08	-50.6	-52.0	14.6	0.00e+00	0	23	0	1560281088	66	4471
2026-01-10 00:44:12.12	201.90	50.74	-50.4	-51.8	14.6	0.00e+00	0	23	0	1563426816	66	4371
2026-01-10 00:44:13.13	201.94	50.40	-50.9	-52.4	14.4	0.00e+00	0	23	0	1566572544	66	4688
2026-01-10 00:44:14.12	201.99	50.06	-51.2	-52.8	14.3	0.00e+00	0	23	0	1569718272	67	4624
2026-01-10 00:44:15.12	202.03	49.73	-51.1	-52.7	14.3	0.00e+00	0	23	0	1572864000	67	4596
2026-01-10 00:44:16.12	202.07	49.39	-51.0	-52.5	14.5	0.00e+00	0	23	0	1576009728	67	4487
2026-01-10 00:44:17.13	202.11	49.06	-50.8	-52.2	14.6	0.00e+00	0	23	0	1579155456	67	4331
2026-01-10 00:44:18.13	202.16	48.73	-50.6	-52.1	14.7	0.00e+00	0	23	0	1582301184	67	4248
2026-01-10 00:44:19.13	202.20	48.40	-50.6	-52.0	14.7	0.00e+00	0	24	0	1585446912	67	4222
2026-01-10 00:44:20.13	202.23	48.08	-51.1	-52.7	14.4	0.00e+00	0	23	0	1588592640	67	4574
2026-01-10 00:44:21.13	202.27	47.76	-51.4	-53.0	14.2	0.00e+00	0	23	0	1591738368	67	4755
2026-01-10 00:44:22.12	202.31	47.44	-51.8	-53.5	14.1	0.00e+00	0	23	0	1594884096	68	4730
2026-01-10 00:44:23.12	202.35	47.13	-51.7	-53.4	14.1	0.00e+00	0	23	0	1598029824	68	4685
2026-01-10 00:44:24.12	202.38	46.81	-51.4	-52.9	14.4	0.00e+00	0	23	0	1601175552	68	4439
2026-01-10 00:44:25.11	202.42	46.51	-51.2	-52.7	14.6	0.00e+00	0	23	0	1604321280	68	4325
2026-01-10 00:44:26.11	202.46	46.20	-51.1	-52.5	14.6	0.00e+00	0	24	0	1607467008	68	4241
2026-01-10 00:44:27.10	202.49	45.89	-51.0	-52.5	14.7	0.00e+00	0	24	0	1610612736	68	4195
2026-01-10 00:44:28.11	202.52	45.58	-51.1	-52.6	14.6	0.00e+00	0	23	0	1613758464	68	4286
2026-01-10 00:44:29.12	202.56	45.28	-51.4	-53.0	14.4	0.00e+00	0	23	0	1616904192	68	4475
2026-01-10 00:44:30.12	202.59	44.98	-52.1	-53.8	14.0	0.00e+00	0	24	0	1620049920	69	4637
2026-01-10 00:44:31.12	202.62	44.68	-52.6	-54.6	13.7	0.00e+00	0	23	0	1623195648	70	4761
2026-01-10 00:44:32.12	202.66	44.39	-52.4	-54.3	13.9	0.00e+00	0	23	0	1626341376	70	4618
2026-01-10 00:44:33.11	202.69	44.09	-52.0	-53.7	14.2	0.00e+00	0	23	0	1629487104	70	4300
2026-01-10 00:44:34.12	202.72	43.80	-51.3	-52.9	14.6	0.00e+00	0	23	0	1632632832	69	4161
2026-01-10 00:44:35.12	202.75	43.51	-51.0	-52.5	14.6	0.00e+00	0	23	0	1635778560	68	4211
2026-01-10 00:44:36.12	202.78	43.22	-50.8	-52.3	14.8	0.00e+00	0	23	0	1638924288	68	4105
2026-01-10 00:44:37.12	202.81	42.94	-50.8	-52.2	14.8	0.00e+00	0	23	0	1642070016	68	4096
2026-01-10 00:44:38.13	202.84	42.65	-50.5	-51.9	14.8	0.00e+00	0	23	0	1645215744	67	4171
2026-01-10 00:44:39.13	202.87	42.37	-50.7	-52.2	14.6	0.00e+00	0	23	0	1648361472	67	4318
2026-01-10 00:44:40.13	202.89	42.09	-51.1	-52.7	14.3	0.00e+00	0	23	0	1651507200	67	4585
2026-01-10 00:44:41.13	202.92	41.82	-51.7	-53.4	14.1	0.00e+00	0	24	0	1654652928	68	4678
2026-01-10 00:44:42.13	202.95	41.54	-51.8	-53.6	14.0	0.00e+00	0	23	0	1657798656	68	4785
2026-01-10 00:44:43.13	202.98	41.27	-51.9	-53.6	14.0	0.00e+00	0	23	0	1660944384	68	4802
2026-01-10 00:44:44.12	203.00	41.00	-51.7	-53.4	14.1	0.00e+00	0	24	0	1664090112	68	4668
2026-01-10 00:44:45.13	203.03	40.73	-51.5	-53.2	14.3	0.00e+00	0	24	0	1667235840	68	4550
2026-01-10 00:44:46.12	203.05	40.47	-51.1	-52.6	14.6	0.00e+00	0	23	0	1670381568	68	4271
2026-01-10 00:44:47.12	203.08	40.20	-51.0	-52.5	14.7	0.00e+00	0	23	0	1672478720	68	4194
2026-01-10 00:44:48.13	203.11	39.94	-50.7	-52.2	14.8	0.00e+00	0	23	0	1675624448	68	4070
2026-01-10 00:44:49.13	203.13	39.68	-50.5	-52.0	14.7	0.00e+00	0	23	0	1678770176	67	4207
2026-01-10 00:44:50.13	203.15	39.42	-50.5	-52.0	14.7	0.00e+00	0	23	0	1681915904	67	4202
2026-01-10 00:44:51.13	203.18	39.16	-50.6	-52.0	14.7	0.00e+00	0	23	0	1685061632	67	4226
2026-01-10 00:44:52.13	203.20	38.91	-50.7	-52.2	14.6	0.00e+00	0	23	0	1688207360	67	4329
2026-01-10 00:44:53.12	203.23	38.66	-50.7	-52.3	14.6	0.00e+00	0	23	0	1691353088	67	4341
2026-01-10 00:44:54.12	203.25	38.41	-50.7	-52.2	14.6	0.00e+00	0	23	0	1694498816	67	4331
2026-01-10 00:44:55.12	203.27	38.16	-50.6	-52.0	14.7	0.00e+00	0	23	0	1697644544	67	4223
2026-01-10 00:44:56.12	203.29	37.91	-50.1	-51.5	14.8	0.00e+00	0	23	0	1700790272	66	4209
2026-01-10 00:44:57.13	203.32	37.66	-49.8	-51.1	15.0	0.00e+00	0	23	0	1703936000	66	4035
2026-01-10 00:44:58.12	203.34	37.42	-49.5	-50.8	15.0	0.00e+00	0	23	0	1707081728	65	4111
2026-01-10 00:44:59.12	203.36	37.18	-49.6	-51.0	14.9	0.00e+00	0	24	0	1710227456	65	4205
2026-01-10 00:45:00.12	203.38	36.94	-49.7	-51.1	14.9	0.00e+00	0	23	0	1713373184	65	4274
2026-01-10 00:45:01.13	203.40	36.70	-49.9	-51.3	14.8	0.00e+00	0	23	0	1716518912	65	4355
2026-01-10 00:45:02.12	203.42	36.46	-50.1	-51.5	14.7	0.00e+00	0	23	0	1719664640	65	4471
2026-01-10 00:45:03.11	203.44	36.23	-50.2	-51.7	14.6	0.00e+00	0	23	0	1722810368	65	4560
2026-01-10 00:45:04.11	203.47	36.00	-50.3	-51.7	14.5	0.00e+00	0	23	0	1725956096	65	4596
2026-01-10 00:45:05.12	203.49	35.76	-50.3	-51.8	14.5	0.00e+00	0	23	0	1729101824	65	4636
2026-01-10 00:45:06.12	203.51	35.53	-50.6	-52.1	14.4	0.00e+00	0	23	0	1732247552	66	4502
2026-01-10 00:45:07.12	203.53	35.31	-50.6	-52.1	14.4	0.00e+00	0	23	0	1735393280	66	4513
2026-01-10 00:45:08.12	203.54	35.08	-50.5	-52.0	14.5	0.00e+00	0	23	0	1738539008	66	4469
2026-01-10 00:45:09.12	203.56	34.85	-50.5	-52.0	14.5	0.00e+00	0	23	0	1741684736	66	4481
2026-01-10 00:45:10.11	203.58	34.63	-50.5	-52.0	14.5	0.00e+00	0	23	0	1744830464	66	4461
2026-01-10 00:45:11.11	203.60	34.41	-50.4	-51.9	14.6	0.00e+00	0	23	0	1747976192	66	4397
2026-01-10 00:45:12.12	203.62	34.19	-50.2	-51.7	14.7	0.00e+00	0	23	0	1751121920	66	4295
2026-01-10 00:45:13.12	203.64	33.97	-50.0	-51.5	14.8	0.00e+00	0	23	0	1754267648	66	4201
2026-01-10 00:45:14.12	203.66	33.75	-50.0	-51.4	14.8	0.00e+00	0	23	0	1757413376	66	4186
2026-01-10 00:45:15.13	203.68	33.53	-49.5	-50.8	15.0	0.00e+00	0	23	0	1760559104	65	4144
2026-01-10 00:45:16.13	203.69	33.32	-49.3	-50.6	15.1	0.00e+00	0	23	0	1763704832	65	4035
2026-01-10 00:45:17.13	203.71	33.11	-49.3	-50.6	15.1	0.00e+00	0	23	0	1766850560	65	4045
2026-01-10 00:45:18.13	203.73	32.89	-49.2	-50.5	15.2	0.00e+00	0	23	0	1769996288	65	3983
2026-01-10 00:45:19.12	203.75	32.69	-49.2	-50.5	15.2	0.00e+00	0	24	0	1773142016	65	3969
2026-01-10 00:45:20.12	203.76	32.48	-49.1	-50.4	15.0	0.00e+00	0	23	0	1776287744	64	4164
2026-01-10 00:45:21.11	203.78	32.27	-49.0	-50.3	15.1	0.00e+00	0	23	0	1779433472	64	4124
2026-01-10 00:45:22.12	203.80	32.07	-48.8	-50.1	15.2	0.00e+00	0	23	0	1782579200	64	4021
2026-01-10 00:45:23.12	203.81	31.86	-48.7	-49.9	15.1	0.00e+00	0	23	0	1785724928	63	4163
2026-01-10 00:45:24.12	203.83	31.66	-48.7	-49.9	15.1	0.00e+00	0	23	0	1788870656	63	4189
2026-01-10 00:45:25.12	203.85	31.46	-48.8	-50.1	15.1	0.00e+00	0	23	0	1792016384	63	4259
2026-01-10 00:45:26.11	203.86	31.26	-49.0	-50.3	15.0	0.00e+00	0	23	0	1795162112	63	4342
2026-01-10 00:45:27.11	203.88	31.06	-49.1	-50.4	14.9	0.00e+00	0	24	0	1798307840	63	4399
2026-01-10 00:45:28.11	203.90	30.86	-49.2	-50.6	14.9	0.00e+00	0	23	0	1801453568	63	4504
2026-01-10 00:45:29.11	203.91	30.67	-49.3	-50.7	14.8	0.00e+00	0	23	0	1804599296	63	4567
2026-01-10 00:45:30.11	203.93	30.47	-49.4	-50.7	14.9	0.00e+00	0	23	0	1806696448	64	4332
2026-01-10 00:45:31.11	203.94	30.28	-49.4	-50.8	14.9	0.00e+00	0	23	0	1809842176	64	4348
2026-01-10 00:45:32.11	203.96	30.09	-49.4	-50.7	14.9	0.00e+00	0	23	0	1812987904	64	4322
2026-01-10 00:45:33.12	203.97	29.89	-49.3	-50.6	15.0	0.00e+00	0	23	0	1817182208	64	4269
2026-01-10 00:45:34.12	203.99	29.70	-49.3	-50.6	14.9	0.00e+00	0	23	0	1820327936	64	4281
2026-01-10 00:45:35.13	204.00	29.51	-49.2	-50.5	15.0	0.00e+00	0	23	0	1823473664	64	4224
2026-01-10 00:45:36.13	204.02	29.33	-49.2	-50.5	15.0	0.00e+00	0	23	0	1826619392	64	4232
2026-01-10 00:45:37.13	204.03	29.14	-49.1	-50.5	15.0	0.00e+00	0	23	0	1828716544	64	4204
2026-01-10 00:45:38.12	204.05	28.96	-49.2	-50.6	15.0	0.00e+00	0	23	0	1831862272	64	4248
2026-01-10 00:45:39.11	204.06	28.78	-49.1	-50.4	15.0	0.00e+00	0	23	0	1835008000	64	4174
2026-01-10 00:45:40.11	204.08	28.60	-49.0	-50.3	15.1	0.00e+00	0	23	0	1838153728	64	4111
2026-01-10 00:45:41.11	204.09	28.41	-48.8	-50.0	15.2	0.00e+00	0	23	0	1841299456	64	3998
2026-01-10 00:45:42.12	204.11	28.23	-48.7	-50.0	15.2	0.00e+00	0	23	0	1844445184	64	3985
2026-01-10 00:45:43.12	204.12	28.05	-48.7	-50.0	15.1	0.00e+00	0	23	0	1847590912	63	4207
2026-01-10 00:45:44.13	204.13	27.87	-48.6	-49.8	15.1	0.00e+00	0	23	0	1850736640	63	4124
2026-01-10 00:45:45.13	204.15	27.70	-48.6	-49.8	15.1	0.00e+00	0	23	0	1853882368	63	4125
2026-01-10 00:45:46.12	204.16	27.52	-48.5	-49.7	15.2	0.00e+00	0	23	0	1857028096	63	4067
2026-01-10 00:45:47.12	204.17	27.35	-48.5	-49.7	15.2	0.00e+00	0	24	0	1860173824	63	4088
2026-01-10 00:45:48.12	204.19	27.18	-48.4	-49.6	15.3	0.00e+00	0	24	0	1863319552	63	4022
2026-01-10 00:45:49.12	204.20	27.01	-48.2	-49.4	15.4	0.00e+00	0	23	0	1866465280	63	3939
2026-01-10 00:45:50.11	204.21	26.84	-48.1	-49.3	15.2	0.00e+00	0	24	0	1869611008	62	4120
2026-01-10 00:45:51.11	204.23	26.67	-48.0	-49.2	15.3	0.00e+00	0	23	0	1872756736	62	4079
2026-01-10 00:45:52.11	204.24	26.50	-48.0	-49.2	15.3	0.00e+00	0	23	0	1875902464	62	4066
2026-01-10 00:45:53.11	204.25	26.33	-47.9	-49.1	15.3	0.00e+00	0	23	0	1879048192	62	4025
2026-01-10 00:45:54.11	204.27	26.16	-47.8	-48.9	15.4	0.00e+00	0	24	0	1882193920	62	3944
2026-01-10 00:45:55.11	204.28	26.00	-47.7	-48.8	15.4	0.00e+00	0	24	0	1885339648	62	3913
2026-01-10 00:45:56.10	204.29	25.83	-47.7	-48.8	15.3	0.00e+00	0	23	0	1888485376	61	4132
2026-01-10 00:45:57.10	204.30	25.67	-47.6	-48.8	15.3	0.00e+00	0	23	0	1891631104	61	4117
2026-01-10 00:45:58.10	204.32	25.51	-47.7	-48.8	15.3	0.00e+00	0	23	0	1894776832	61	4136
2026-01-10 00:45:59.09	204.33	25.35	-47.6	-48.8	15.3	0.00e+00	0	23	0	1897922560	61	4131
2026-01-10 00:46:00.09	204.34	25.19	-47.7	-48.8	15.3	0.00e+00	0	24	0	1901068288	61	4139
2026-01-10 00:46:01.08	204.35	25.03	-47.7	-48.8	15.3	0.00e+00	0	23	0	1904214016	61	4144
2026-01-10 00:46:02.08	204.37	24.87	-47.6	-48.7	15.3	0.00e+00	0	24	0	1907359744	61	4085
2026-01-10 00:46:03.08	204.38	24.71	-47.6	-48.7	15.3	0.00e+00	0	23	0	1910505472	61	4082
2026-01-10 00:46:04.09	204.39	24.55	-47.6	-48.7	15.4	0.00e+00	0	24	0	1913651200	61	4086
2026-01-10 00:46:05.09	204.40	24.40	-47.5	-48.7	15.4	0.00e+00	0	23	0	1916796928	61	4069
2026-01-10 00:46:06.08	204.41	24.24	-47.6	-48.7	15.3	0.00e+00	0	23	0	1919942656	61	4098
2026-01-10 00:46:07.09	204.42	24.09	-47.7	-48.8	15.3	0.00e+00	0	23	0	1923088384	61	4129
2026-01-10 00:46:08.09	204.44	23.93	-47.8	-49.0	15.2	0.00e+00	0	23	0	1926234112	61	4209
2026-01-10 00:46:09.10	204.45	23.78	-47.9	-49.1	15.2	0.00e+00	0	23	0	1929379840	61	4268
2026-01-10 00:46:10.10	204.46	23.63	-47.9	-49.1	15.2	0.00e+00	0	23	0	1932525568	61	4289
2026-01-10 00:46:11.10	204.47	23.48	-48.0	-49.2	15.1	0.00e+00	0	23	0	1935671296	61	4340
2026-01-10 00:46:12.09	204.48	23.33	-48.1	-49.3	15.1	0.00e+00	0	23	0	1938817024	61	4355
2026-01-10 00:46:13.10	204.49	23.18	-48.1	-49.3	15.1	0.00e+00	0	23	0	1941962752	61	4380
2026-01-10 00:46:14.09	204.50	23.03	-48.1	-49.4	15.1	0.00e+00	0	23	0	1945108480	61	4395
2026-01-10 00:46:15.10	204.52	22.89	-48.2	-49.4	15.1	0.00e+00	0	23	0	1948254208	61	4429
2026-01-10 00:46:16.09	204.53	22.74	-48.3	-49.5	15.0	0.00e+00	0	23	0	1951399936	61	4479
2026-01-10 00:46:17.09	204.54	22.60	-48.3	-49.5	15.0	0.00e+00	0	23	0	1954545664	61	4486
2026-01-10 00:46:18.09	204.55	22.45	-48.2	-49.5	15.0	0.00e+00	0	23	0	1957691392	61	4463
2026-01-10 00:46:19.08	204.56	22.31	-48.3	-49.5	15.0	0.00e+00	0	23	0	1960837120	61	4473
2026-01-10 00:46:20.09	204.57	22.16	-48.2	-49.5	15.1	0.00e+00	0	23	0	1962934272	61	4461
2026-01-10 00:46:21.09	204.58	22.02	-48.3	-49.5	15.0	0.00e+00	0	23	0	1966080000	61	4488
2026-01-10 00:46:22.08	204.59	21.88	-48.2	-49.4	15.1	0.00e+00	0	23	0	1969225728	61	4419
2026-01-10 00:46:23.08	204.60	21.74	-48.2	-49.5	15.1	0.00e+00	0	23	0	1972371456	61	4442
2026-01-10 00:46:24.08	204.61	21.60	-48.1	-49.3	15.1	0.00e+00	0	23	0	1975517184	61	4367
2026-01-10 00:46:25.08	204.62	21.46	-48.1	-49.4	15.1	0.00e+00	0	23	0	1978662912	61	4397
2026-01-10 00:46:26.08	204.63	21.32	-48.0	-49.3	15.1	0.00e+00	0	23	0	1981808640	61	4344
2026-01-10 00:46:27.08	204.64	21.19	-48.1	-49.3	15.1	0.00e+00	0	23	0	1984954368	61	4389
2026-01-10 00:46:28.08	204.65	21.05	-48.1	-49.4	15.1	0.00e+00	0	23	0	1988100096	61	4409
2026-01-10 00:46:29.08	204.66	20.91	-48.1	-49.4	15.1	0.00e+00	0	23	0	1991245824	61	4394
2026-01-10 00:46:30.08	204.67	20.78	-48.2	-49.4	15.1	0.00e+00	0	23	0	1994391552	61	4425
2026-01-10 00:46:31.08	204.68	20.64	-48.1	-49.4	15.1	0.00e+00	0	24	0	1997537280	61	4402
2026-01-10 00:46:32.08	204.69	20.51	-48.1	-49.3	15.1	0.00e+00	0	23	0	2000683008	61	4389
2026-01-10 00:46:33.08	204.70	20.37	-48.2	-49.5	15.0	0.00e+00	0	23	0	2003828736	61	4452
2026-01-10 00:46:34.07	204.71	20.24	-48.2	-49.4	15.1	0.00e+00	0	23	0	2006974464	61	4432
2026-01-10 00:46:35.06	204.72	20.11	-48.1	-49.3	15.1	0.00e+00	0	23	0	2010120192	61	4387
2026-01-10 00:46:36.06	204.73	19.98	-48.2	-49.4	15.0	0.00e+00	0	23	0	2013265920	61	4431
2026-01-10 00:46:37.06	204.74	19.85	-48.2	-49.5	15.0	0.00e+00	0	23	0	2016411648	61	4443
2026-01-10 00:46:38.06	204.75	19.72	-48.3	-49.5	15.0	0.00e+00	0	24	0	2019557376	61	4492
2026-01-10 00:46:39.06	204.76	19.59	-48.3	-49.5	15.0	0.00e+00	0	23	0	2022703104	61	4477
2026-01-10 00:46:40.06	204.77	19.46	-48.4	-49.6	15.0	0.00e+00	0	23	0	2025848832	61	4530
2026-01-10 00:46:41.06	204.78	19.34	-48.4	-49.7	14.9	0.00e+00	0	23	0	2028994560	61	4558
2026-01-10 00:46:42.06	204.79	19.21	-48.3	-49.6	15.0	0.00e+00	0	23	0	2032140288	61	4502
2026-01-10 00:46:43.06	204.80	19.08	-48.5	-49.7	15.0	0.00e+00	0	23	0	2035286016	62	4337
2026-01-10 00:46:44.06	204.81	18.96	-48.4	-49.7	15.0	0.00e+00	0	23	0	2038431744	62	4320
2026-01-10 00:46:45.06	204.82	18.83	-48.5	-49.7	15.0	0.00e+00	0	23	0	2041577472	62	4332
2026-01-10 00:46:46.06	204.83	18.71	-48.5	-49.7	15.0	0.00e+00	0	23	0	2044723200	62	4328
2026-01-10 00:46:47.05	204.84	18.58	-48.5	-49.7	15.0	0.00e+00	0	23	0	2047868928	62	4332
2026-01-10 00:46:48.06	204.85	18.46	-48.5	-49.8	15.0	0.00e+00	0	23	0	2051014656	62	4357
2026-01-10 00:46:49.06	204.86	18.34	-48.5	-49.8	15.0	0.00e+00	0	23	0	2054160384	62	4361
2026-01-10 00:46:50.06	204.87	18.21	-48.5	-49.8	15.0	0.00e+00	0	23	0	2057306112	62	4375
2026-01-10 00:46:51.05	204.88	18.09	-48.7	-50.0	14.9	0.00e+00	0	23	0	2060451840	62	4446
2026-01-10 00:46:52.05	204.88	17.97	-48.7	-50.0	14.9	0.00e+00	0	23	0	2063597568	62	4478
2026-01-10 00:46:53.05	204.89	17.85	-48.7	-50.0	14.9	0.00e+00	0	23	0	2066743296	62	4481
2026-01-10 00:46:54.04	204.90	17.73	-48.7	-50.0	14.9	0.00e+00	0	23	0	2069889024	62	4492
2026-01-10 00:46:55.05	204.91	17.61	-48.8	-50.1	14.9	0.00e+00	0	23	0	2073034752	62	4524
2026-01-10 00:46:56.04	204.92	17.50	-48.8	-50.1	14.9	0.00e+00	0	23	0	2076180480	62	4541
