passes_logs/2026/01/10/R3.2S_Murmansk/R3.2S_Murmansk__20260110_040216_AQUA_rec.log

#Pass ID: 20260110_040216_AQUA
#Satellite: AQUA
#Configuration: AQUA
#almurnet v.1.7.20251203
#Start time: 2026-01-10 04:02:18

#Version: 2.2.20231116
#Station: R3.2S_Murmansk
#Location: 33.079688 lon 68.888172 lat
#TLE: 1 27424U 02022A   26009.00333547  .00001046  00000+0  21942-3 0  9998
#TLE: 2 27424  98.4075 335.3304 0002025  85.7625 349.1392 14.61808998260011

#Time	Az	El	Level	Level2	SNR	BER	BlckErr	Temp	State	Recorded	gain1	gain2
2026-01-10 04:02:18.69	30.36	2.11	-56.6	-75.9	3.8	7.46e-01	0	22	0	0	82	32288
2026-01-10 04:02:19.70	30.31	2.18	-56.5	-75.8	3.8	7.46e-01	0	22	104	0	80	35852
2026-01-10 04:02:20.69	30.26	2.24	-56.5	-75.8	3.8	7.49e-01	0	22	104	0	80	35820
2026-01-10 04:02:21.69	30.22	2.30	-56.4	-75.8	3.8	7.44e-01	0	22	104	0	80	35857
2026-01-10 04:02:22.69	30.17	2.37	-56.4	-75.8	3.8	7.46e-01	0	22	104	0	80	35749
2026-01-10 04:02:23.69	30.12	2.43	-56.4	-75.8	3.8	7.45e-01	0	22	104	0	80	35798
2026-01-10 04:02:24.70	30.08	2.50	-56.4	-75.8	3.8	7.47e-01	0	22	104	0	80	35736
2026-01-10 04:02:25.69	30.03	2.56	-56.4	-75.8	3.8	7.45e-01	0	22	104	0	80	35797
2026-01-10 04:02:26.69	29.98	2.62	-56.4	-75.8	3.8	7.48e-01	0	22	104	0	80	35816
2026-01-10 04:02:27.69	29.93	2.69	-56.4	-75.8	3.8	7.50e-01	0	22	104	0	80	35833
2026-01-10 04:02:28.69	29.88	2.75	-56.4	-75.8	3.8	7.45e-01	0	22	104	0	80	35819
2026-01-10 04:02:29.70	29.84	2.82	-56.5	-75.8	3.8	7.48e-01	0	22	104	0	80	35860
2026-01-10 04:02:30.70	29.79	2.88	-56.5	-75.8	3.8	7.43e-01	0	22	104	0	80	35746
2026-01-10 04:02:31.70	29.74	2.95	-56.5	-75.8	3.8	7.46e-01	0	22	104	0	80	35821
2026-01-10 04:02:32.71	29.69	3.01	-56.5	-75.8	3.8	7.46e-01	0	22	104	0	80	35895
2026-01-10 04:02:33.70	29.64	3.08	-56.5	-75.8	3.8	7.48e-01	0	22	104	0	80	35861
2026-01-10 04:02:34.71	29.59	3.15	-56.5	-75.8	3.8	7.49e-01	0	22	104	0	80	35793
2026-01-10 04:02:35.71	29.54	3.21	-56.4	-75.8	3.8	7.49e-01	0	22	104	0	80	35851
2026-01-10 04:02:36.71	29.49	3.28	-56.5	-75.8	3.8	7.44e-01	0	22	104	0	80	35926
2026-01-10 04:02:37.71	29.44	3.34	-56.5	-75.8	3.8	7.45e-01	0	22	104	0	80	35820
2026-01-10 04:02:38.71	29.39	3.41	-56.5	-75.8	3.8	7.40e-01	0	22	104	0	80	35767
2026-01-10 04:02:39.71	29.33	3.48	-56.5	-75.8	3.8	7.47e-01	0	22	104	0	80	35894
2026-01-10 04:02:40.71	29.28	3.54	-56.5	-75.8	3.8	7.46e-01	0	22	104	0	80	36018
2026-01-10 04:02:41.72	29.23	3.61	-56.5	-75.8	3.8	7.43e-01	0	22	104	0	80	36014
2026-01-10 04:02:42.72	29.18	3.68	-56.5	-75.8	3.8	7.46e-01	0	22	104	0	80	35861
2026-01-10 04:02:43.72	29.13	3.74	-56.5	-75.8	3.8	7.46e-01	0	22	104	0	80	35720
2026-01-10 04:02:44.72	29.07	3.81	-56.4	-75.7	3.8	7.45e-01	0	22	104	0	80	35493
2026-01-10 04:02:45.73	29.02	3.88	-56.4	-75.6	3.8	7.41e-01	0	22	104	0	80	35270
2026-01-10 04:02:46.73	28.97	3.95	-56.4	-75.6	3.8	7.47e-01	0	22	104	0	80	34999
2026-01-10 04:02:47.72	28.91	4.01	-56.4	-75.4	3.8	7.46e-01	0	22	104	0	80	34179
2026-01-10 04:02:48.72	28.86	4.08	-56.4	-75.1	3.8	7.48e-01	0	23	104	0	80	33278
2026-01-10 04:02:49.72	28.81	4.15	-56.4	-75.0	3.8	7.48e-01	0	22	104	0	80	32666
2026-01-10 04:02:50.72	28.75	4.22	-56.3	-74.7	3.8	7.46e-01	0	22	104	0	80	31578
2026-01-10 04:02:51.73	28.70	4.29	-56.3	-74.3	3.8	7.48e-01	0	22	104	0	80	30184
2026-01-10 04:02:52.72	28.64	4.35	-56.2	-73.9	3.8	7.48e-01	0	23	104	0	80	28687
2026-01-10 04:02:53.72	28.59	4.42	-56.1	-73.2	3.8	7.46e-01	0	23	104	0	80	26703
2026-01-10 04:02:54.72	28.53	4.49	-55.9	-72.7	3.8	7.46e-01	0	22	104	0	80	25114
2026-01-10 04:02:55.72	28.48	4.56	-55.8	-72.0	3.8	7.49e-01	0	23	104	0	80	23189
2026-01-10 04:02:56.72	28.42	4.63	-55.5	-71.1	3.8	7.43e-01	0	22	104	0	80	20788
2026-01-10 04:02:57.72	28.36	4.70	-55.3	-70.5	3.8	7.46e-01	0	23	104	0	79	20743
2026-01-10 04:02:58.72	28.31	4.77	-55.2	-70.0	3.8	7.50e-01	0	23	104	0	79	19583
2026-01-10 04:02:59.72	28.25	4.84	-55.0	-69.6	3.8	7.46e-01	0	23	104	0	79	18575
2026-01-10 04:03:00.72	28.19	4.91	-54.9	-69.4	3.8	7.46e-01	0	23	104	0	79	18113
2026-01-10 04:03:01.72	28.13	4.98	-54.9	-69.3	3.8	7.45e-01	0	23	104	0	79	18085
2026-01-10 04:03:02.72	28.07	5.05	-55.0	-69.5	3.8	7.46e-01	0	23	104	0	79	18512
2026-01-10 04:03:03.72	28.02	5.12	-55.5	-70.7	3.8	7.48e-01	0	23	104	0	79	21021
2026-01-10 04:03:04.72	27.96	5.19	-55.6	-70.9	3.8	7.47e-01	0	23	104	0	79	21713
2026-01-10 04:03:05.72	27.90	5.26	-55.5	-70.9	3.8	7.45e-01	0	23	104	0	79	21548
2026-01-10 04:03:06.72	27.84	5.33	-52.8	-65.0	3.8	7.43e-01	0	23	104	0	74	14646
2026-01-10 04:03:07.72	27.78	5.40	-55.8	-72.1	3.8	7.48e-01	0	23	104	0	79	24828
2026-01-10 04:03:08.72	27.72	5.47	-53.6	-66.6	3.8	7.47e-01	0	23	104	0	76	15716
2026-01-10 04:03:09.72	27.66	5.54	-51.5	-63.5	3.8	7.46e-01	0	23	104	0	72	13828
2026-01-10 04:03:10.72	27.60	5.62	-51.3	-63.2	3.8	7.47e-01	0	23	104	0	71	14094
2026-01-10 04:03:11.72	27.54	5.69	-54.9	-69.1	3.8	7.45e-01	0	23	104	0	77	19742
2026-01-10 04:03:12.71	27.48	5.76	-52.8	-65.4	3.9	7.46e-01	0	23	104	0	75	14395
2026-01-10 04:03:13.71	27.41	5.83	-56.0	-72.2	3.8	7.47e-01	0	23	104	0	79	25211
2026-01-10 04:03:14.71	27.35	5.90	-54.6	-68.2	3.8	7.45e-01	0	23	104	0	78	16851
2026-01-10 04:03:15.71	27.29	5.98	-53.4	-66.1	3.8	7.48e-01	0	23	104	0	74	16694
2026-01-10 04:03:16.71	27.23	6.05	-52.1	-64.3	3.8	7.45e-01	0	23	104	0	73	14360
2026-01-10 04:03:17.71	27.16	6.12	-52.0	-64.1	3.8	7.47e-01	0	23	104	0	73	13970
2026-01-10 04:03:18.72	27.10	6.20	-52.2	-64.4	3.8	7.48e-01	0	23	104	0	73	14385
2026-01-10 04:03:19.71	27.04	6.27	-52.8	-65.3	3.8	7.46e-01	0	23	104	0	73	16081
2026-01-10 04:03:20.72	26.97	6.34	-51.8	-63.8	3.8	7.47e-01	0	23	104	0	72	14282
2026-01-10 04:03:21.72	26.91	6.42	-56.0	-72.0	3.8	7.50e-01	0	23	104	0	79	24455
2026-01-10 04:03:22.72	26.84	6.49	-54.6	-68.1	3.9	7.44e-01	0	23	104	0	78	16613
2026-01-10 04:03:23.72	26.77	6.57	-52.9	-65.3	3.8	7.42e-01	0	23	104	0	73	16124
2026-01-10 04:03:24.72	26.71	6.64	-51.9	-64.0	3.9	7.47e-01	0	23	104	0	73	13797
2026-01-10 04:03:25.72	26.64	6.71	-51.7	-63.7	3.8	7.44e-01	0	23	104	0	72	14173
2026-01-10 04:03:26.72	26.58	6.79	-51.2	-63.1	3.8	7.42e-01	0	23	104	0	71	13945
2026-01-10 04:03:27.72	26.51	6.86	-53.6	-66.4	3.8	7.46e-01	0	23	104	0	74	17256
2026-01-10 04:03:28.72	26.44	6.94	-51.5	-63.4	3.8	7.46e-01	0	23	104	0	72	13686
2026-01-10 04:03:29.72	26.37	7.02	-56.1	-71.9	3.8	7.49e-01	0	23	104	0	79	24335
2026-01-10 04:03:30.72	26.30	7.09	-54.5	-67.7	3.8	7.42e-01	0	23	104	0	78	15903
2026-01-10 04:03:31.72	26.24	7.17	-52.8	-65.2	3.8	7.50e-01	0	23	104	0	73	15924
2026-01-10 04:03:32.72	26.17	7.24	-52.2	-64.4	3.9	7.46e-01	0	23	104	0	73	14452
2026-01-10 04:03:33.73	26.10	7.32	-51.9	-63.9	3.8	7.45e-01	0	23	104	0	73	13619
2026-01-10 04:03:34.73	26.03	7.40	-52.0	-64.1	3.8	7.44e-01	0	23	104	0	73	13940
2026-01-10 04:03:35.72	25.96	7.47	-51.2	-63.0	3.8	7.43e-01	0	23	104	0	71	13848
2026-01-10 04:03:36.73	25.89	7.55	-51.2	-63.0	3.8	7.43e-01	0	23	104	0	71	13860
2026-01-10 04:03:37.73	25.81	7.63	-56.1	-71.7	3.8	7.47e-01	0	23	104	0	79	23776
2026-01-10 04:03:38.73	25.74	7.70	-54.6	-68.0	3.8	7.45e-01	0	23	104	0	78	16387
2026-01-10 04:03:39.73	25.67	7.78	-52.6	-64.9	3.8	7.48e-01	0	23	104	0	72	16203
2026-01-10 04:03:40.72	25.60	7.86	-51.6	-63.5	3.8	7.46e-01	0	23	104	0	72	13814
2026-01-10 04:03:41.73	25.52	7.94	-51.6	-63.5	3.8	7.43e-01	0	23	104	0	72	13789
2026-01-10 04:03:42.74	25.45	8.02	-51.0	-62.7	3.8	7.44e-01	0	23	104	0	71	13354
2026-01-10 04:03:43.75	25.38	8.10	-53.8	-66.8	3.8	7.43e-01	0	23	104	0	75	16928
2026-01-10 04:03:44.74	25.30	8.17	-51.2	-63.0	3.8	7.48e-01	0	23	104	0	71	13814
2026-01-10 04:03:45.75	25.23	8.25	-56.4	-72.5	3.8	7.47e-01	0	23	104	0	80	24508
2026-01-10 04:03:46.75	25.15	8.33	-54.6	-67.8	3.8	7.43e-01	0	23	104	0	78	16001
2026-01-10 04:03:47.75	25.08	8.41	-53.2	-65.3	3.8	7.46e-01	0	23	104	0	73	16111
2026-01-10 04:03:48.76	25.00	8.49	-51.6	-63.5	3.8	7.47e-01	0	23	104	0	72	13877
2026-01-10 04:03:49.76	24.92	8.57	-51.3	-63.2	3.8	7.43e-01	0	23	104	0	71	14063
2026-01-10 04:03:50.76	24.84	8.65	-50.7	-62.3	3.8	7.45e-01	0	23	104	0	70	13499
2026-01-10 04:03:51.76	24.77	8.73	-50.6	-62.3	3.8	7.43e-01	0	23	104	0	69	14299
2026-01-10 04:03:52.76	24.69	8.81	-50.7	-62.4	3.9	7.46e-01	0	23	104	0	69	14405
2026-01-10 04:03:53.76	24.61	8.90	-56.4	-72.3	3.7	7.51e-01	0	23	104	0	80	23873
2026-01-10 04:03:54.76	24.53	8.98	-54.5	-67.6	3.8	7.43e-01	0	23	104	0	78	15680
2026-01-10 04:03:55.75	24.45	9.06	-52.4	-64.6	3.8	7.45e-01	0	23	104	0	72	15599
2026-01-10 04:03:56.76	24.37	9.14	-51.5	-63.3	3.8	7.43e-01	0	23	104	0	72	13493
2026-01-10 04:03:57.77	24.29	9.22	-51.1	-62.8	3.8	7.49e-01	0	23	104	0	71	13521
2026-01-10 04:03:58.77	24.21	9.30	-50.7	-62.4	3.8	7.42e-01	0	23	104	0	70	13617
2026-01-10 04:03:59.77	24.13	9.39	-52.1	-64.1	3.8	7.46e-01	0	23	104	0	71	15582
2026-01-10 04:04:00.78	24.04	9.47	-51.0	-62.8	3.8	7.46e-01	0	23	104	0	71	13421
2026-01-10 04:04:01.78	23.96	9.55	-56.3	-72.0	3.7	7.47e-01	0	23	104	0	80	23232
2026-01-10 04:04:02.79	23.88	9.64	-54.7	-67.8	3.8	7.44e-01	0	23	104	0	78	16113
2026-01-10 04:04:03.79	23.79	9.72	-52.2	-64.6	3.8	7.45e-01	0	23	104	0	72	15648
2026-01-10 04:04:04.78	23.71	9.80	-51.2	-62.9	3.8	7.43e-01	0	23	104	0	71	13659
2026-01-10 04:04:05.78	23.62	9.89	-50.9	-62.5	3.8	7.47e-01	0	23	104	0	71	13098
2026-01-10 04:04:06.78	23.54	9.97	-50.4	-61.9	3.8	7.43e-01	0	23	104	0	70	12942
2026-01-10 04:04:07.78	23.45	10.05	-51.1	-62.9	3.8	7.42e-01	0	23	104	0	69	15246
2026-01-10 04:04:08.79	23.36	10.14	-50.6	-62.1	3.8	7.47e-01	0	23	104	0	70	13245
2026-01-10 04:04:09.77	23.28	10.22	-56.4	-72.0	3.7	7.48e-01	0	23	104	0	80	23092
2026-01-10 04:04:10.77	23.19	10.31	-54.7	-67.8	3.8	7.45e-01	0	23	104	0	78	15949
2026-01-10 04:04:11.77	23.10	10.39	-52.0	-63.9	3.8	7.44e-01	0	23	104	0	71	15268
2026-01-10 04:04:12.77	23.01	10.48	-51.0	-62.7	3.9	7.45e-01	0	23	104	0	71	13298
2026-01-10 04:04:13.78	22.92	10.57	-50.9	-62.6	3.8	7.46e-01	0	23	104	0	70	13982
2026-01-10 04:04:14.78	22.83	10.65	-50.5	-62.1	3.8	7.46e-01	0	23	104	0	70	13200
2026-01-10 04:04:15.78	22.74	10.74	-50.5	-62.1	3.9	7.45e-01	0	23	104	0	69	14010
2026-01-10 04:04:16.77	22.65	10.82	-50.4	-62.0	3.9	7.45e-01	0	23	104	0	69	13729
2026-01-10 04:04:17.76	22.56	10.91	-56.3	-71.7	3.7	7.43e-01	0	23	104	0	80	22504
2026-01-10 04:04:18.76	22.47	11.00	-54.4	-67.4	3.8	7.45e-01	0	23	104	0	77	16131
2026-01-10 04:04:19.76	22.38	11.09	-51.8	-63.8	3.8	7.50e-01	0	23	104	0	71	15052
2026-01-10 04:04:20.76	22.28	11.17	-50.8	-62.4	3.9	7.45e-01	0	23	104	0	70	13717
2026-01-10 04:04:21.76	22.19	11.26	-50.6	-62.1	3.9	7.46e-01	0	23	104	0	70	13237
2026-01-10 04:04:22.77	22.09	11.35	-50.4	-62.0	3.9	7.44e-01	0	23	104	0	69	13754
2026-01-10 04:04:23.76	22.00	11.44	-52.2	-64.4	3.8	7.49e-01	0	23	104	0	72	15258
2026-01-10 04:04:24.76	21.90	11.53	-50.6	-62.2	3.9	7.45e-01	0	23	104	0	70	13365
2026-01-10 04:04:25.76	21.80	11.62	-56.3	-71.7	3.7	7.47e-01	0	23	104	0	80	22338
2026-01-10 04:04:26.77	21.70	11.71	-54.4	-67.3	3.8	7.49e-01	0	23	104	0	77	15994
2026-01-10 04:04:27.76	21.61	11.80	-51.6	-63.4	3.8	7.49e-01	0	23	104	0	70	15227
2026-01-10 04:04:28.76	21.51	11.89	-50.6	-62.2	3.9	7.44e-01	0	23	104	0	70	13304
2026-01-10 04:04:29.75	21.41	11.98	-50.2	-61.8	3.9	7.44e-01	0	23	104	0	69	13444
2026-01-10 04:04:30.76	21.31	12.07	-49.7	-61.1	3.9	7.47e-01	0	23	104	0	68	13251
2026-01-10 04:04:31.76	21.21	12.16	-50.7	-62.4	3.8	7.40e-01	0	23	104	0	69	14503
2026-01-10 04:04:32.76	21.10	12.25	-50.1	-61.6	3.9	7.41e-01	0	23	104	0	69	13255
2026-01-10 04:04:33.76	21.00	12.34	-56.3	-71.5	3.8	7.48e-01	0	23	104	0	80	21908
2026-01-10 04:04:34.76	20.90	12.43	-54.4	-67.3	3.8	7.47e-01	0	23	104	0	77	15959
2026-01-10 04:04:35.76	20.80	12.52	-51.4	-63.1	3.8	7.47e-01	0	23	104	0	70	14763
2026-01-10 04:04:36.76	20.69	12.62	-50.4	-62.0	3.9	7.43e-01	0	23	104	0	70	12990
2026-01-10 04:04:37.76	20.59	12.71	-50.2	-61.7	3.8	7.44e-01	0	23	104	0	69	13266
2026-01-10 04:04:38.76	20.48	12.80	-49.9	-61.3	3.9	7.42e-01	0	23	104	0	69	12781
2026-01-10 04:04:39.76	20.37	12.90	-50.3	-61.9	3.8	7.45e-01	0	23	104	0	68	14473
2026-01-10 04:04:40.76	20.26	12.99	-49.9	-61.5	3.8	7.46e-01	0	23	104	0	68	13738
2026-01-10 04:04:41.76	20.16	13.08	-56.3	-71.4	3.8	7.44e-01	0	23	104	0	80	21755
2026-01-10 04:04:42.76	20.05	13.18	-54.4	-67.3	3.8	7.46e-01	0	23	104	0	77	16100
2026-01-10 04:04:43.76	19.94	13.27	-51.1	-62.7	3.8	7.47e-01	0	23	104	0	69	15025
2026-01-10 04:04:44.76	19.83	13.37	-50.1	-61.6	3.9	7.45e-01	0	23	104	0	69	13121
2026-01-10 04:04:45.76	19.72	13.46	-50.1	-61.6	3.8	7.43e-01	0	23	104	0	68	13944
2026-01-10 04:04:46.76	19.60	13.56	-50.0	-61.4	3.8	7.49e-01	0	23	104	0	68	13666
2026-01-10 04:04:47.76	19.49	13.65	-50.5	-62.0	3.8	7.51e-01	0	23	104	0	68	14669
2026-01-10 04:04:48.77	19.37	13.75	-49.9	-61.4	3.8	7.45e-01	0	23	104	0	69	12862
2026-01-10 04:04:49.77	19.26	13.85	-56.3	-71.3	3.8	7.45e-01	0	23	104	0	80	21469
2026-01-10 04:04:50.78	19.14	13.94	-54.4	-67.3	3.8	7.46e-01	0	23	104	0	77	16035
2026-01-10 04:04:51.78	19.03	14.04	-50.9	-62.4	3.8	7.49e-01	0	23	104	0	69	14478
2026-01-10 04:04:52.78	18.91	14.14	-49.9	-61.4	3.9	7.45e-01	0	23	104	0	69	12859
2026-01-10 04:04:53.78	18.79	14.24	-49.7	-61.1	3.9	7.47e-01	0	23	104	0	68	13207
2026-01-10 04:04:54.78	18.67	14.33	-49.6	-61.1	3.9	7.42e-01	0	23	104	0	68	13120
2026-01-10 04:04:55.78	18.55	14.43	-50.1	-61.6	3.8	7.46e-01	0	23	104	0	67	14717
2026-01-10 04:04:56.79	18.43	14.53	-49.7	-61.2	3.8	7.44e-01	0	23	104	0	68	13308
2026-01-10 04:04:57.78	18.31	14.63	-56.3	-71.3	3.8	7.46e-01	0	23	104	0	80	21356
2026-01-10 04:04:58.78	18.19	14.73	-54.5	-67.4	3.8	7.47e-01	0	23	104	0	77	16192
2026-01-10 04:04:59.78	18.06	14.83	-50.8	-62.3	3.8	7.45e-01	0	23	104	0	69	14339
2026-01-10 04:05:00.78	17.94	14.93	-49.9	-61.3	3.9	7.42e-01	0	23	104	0	69	12735
2026-01-10 04:05:01.78	17.82	15.03	-49.7	-61.1	3.8	7.44e-01	0	23	104	0	68	13151
2026-01-10 04:05:02.79	17.69	15.13	-49.1	-60.4	3.8	7.48e-01	0	23	104	0	67	12928
2026-01-10 04:05:03.80	17.56	15.23	-51.0	-62.7	3.9	7.45e-01	0	23	104	0	69	14963
2026-01-10 04:05:04.79	17.43	15.33	-49.7	-61.1	3.9	7.43e-01	0	23	104	0	68	13251
2026-01-10 04:05:05.79	17.30	15.43	-56.5	-71.8	3.8	7.48e-01	0	23	104	0	80	22683
2026-01-10 04:05:06.79	17.17	15.53	-54.5	-67.3	3.8	7.45e-01	0	23	104	0	77	16047
2026-01-10 04:05:07.79	17.04	15.64	-50.8	-62.4	3.8	7.46e-01	0	23	104	0	69	14470
2026-01-10 04:05:08.79	16.91	15.74	-49.6	-61.0	3.8	7.47e-01	0	23	104	0	68	12970
2026-01-10 04:05:09.79	16.78	15.84	-49.5	-60.9	3.9	7.47e-01	0	23	104	0	68	12932
2026-01-10 04:05:10.79	16.64	15.94	-49.0	-60.4	3.8	7.43e-01	0	23	104	0	67	12870
2026-01-10 04:05:11.79	16.51	16.05	-50.0	-61.4	3.9	7.47e-01	0	23	104	0	67	14453
2026-01-10 04:05:12.77	16.38	16.15	-49.6	-61.1	3.8	7.46e-01	0	23	104	0	68	13132
2026-01-10 04:05:13.78	16.24	16.26	-56.3	-71.1	3.8	7.47e-01	0	23	104	0	80	20876
2026-01-10 04:05:14.78	16.10	16.36	-54.5	-67.4	3.8	7.47e-01	0	23	104	0	77	16199
2026-01-10 04:05:15.78	15.96	16.46	-50.5	-62.0	3.8	7.45e-01	0	23	104	0	68	14695
2026-01-10 04:05:16.78	15.82	16.57	-49.7	-61.1	3.9	7.49e-01	0	23	104	0	68	13116
2026-01-10 04:05:17.77	15.68	16.67	-49.6	-61.0	3.9	7.44e-01	0	23	104	0	68	12976
2026-01-10 04:05:18.77	15.54	16.78	-49.7	-61.1	3.8	7.44e-01	0	23	104	0	68	13188
2026-01-10 04:05:19.77	15.40	16.89	-52.2	-64.3	3.8	7.46e-01	0	23	104	0	72	15176
2026-01-10 04:05:20.77	15.25	16.99	-50.1	-61.5	3.9	7.42e-01	0	23	104	0	69	12999
2026-01-10 04:05:21.77	15.11	17.10	-56.3	-71.0	3.8	7.47e-01	0	23	104	0	80	20768
2026-01-10 04:05:22.76	14.96	17.20	-54.7	-67.7	3.8	7.47e-01	0	23	104	0	77	16861
2026-01-10 04:05:23.76	14.81	17.31	-50.4	-61.8	3.8	7.45e-01	0	23	104	0	68	14308
2026-01-10 04:05:24.76	14.66	17.42	-49.6	-60.9	3.9	7.41e-01	0	23	104	0	68	12949
2026-01-10 04:05:25.76	14.51	17.53	-49.5	-60.8	3.9	7.43e-01	0	23	104	0	68	12703
2026-01-10 04:05:26.76	14.36	17.64	-49.4	-60.8	3.8	7.49e-01	0	23	104	0	67	13433
2026-01-10 04:05:27.76	14.21	17.74	-50.5	-62.0	3.9	7.46e-01	0	23	104	0	68	14662
2026-01-10 04:05:28.76	14.06	17.85	-49.8	-61.2	3.9	7.47e-01	0	23	104	0	68	13335
2026-01-10 04:05:29.76	13.90	17.96	-56.3	-71.1	3.8	7.48e-01	0	23	104	0	80	20914
2026-01-10 04:05:30.76	13.75	18.07	-55.1	-68.4	3.8	7.51e-01	0	23	104	0	78	17118
2026-01-10 04:05:31.76	13.59	18.18	-50.5	-62.0	3.8	7.46e-01	0	23	104	0	68	14580
2026-01-10 04:05:32.76	13.43	18.29	-49.8	-61.2	3.8	7.46e-01	0	23	104	0	68	13323
2026-01-10 04:05:33.77	13.27	18.40	-49.6	-61.0	3.9	7.48e-01	0	23	104	0	68	13008
2026-01-10 04:05:34.77	13.11	18.51	-49.2	-60.5	3.8	7.45e-01	0	23	104	0	67	13091
2026-01-10 04:05:35.77	12.95	18.63	-51.3	-63.1	3.8	7.48e-01	0	23	104	0	70	14733
2026-01-10 04:05:36.77	12.78	18.74	-49.9	-61.4	3.8	7.44e-01	0	23	104	0	69	12836
2026-01-10 04:05:37.77	12.62	18.85	-56.3	-71.0	3.8	7.45e-01	0	23	104	0	80	20679
2026-01-10 04:05:38.77	12.45	18.96	-55.0	-68.1	3.8	7.49e-01	0	23	104	0	78	16545
2026-01-10 04:05:39.76	12.28	19.07	-50.3	-61.8	3.8	7.46e-01	0	23	104	0	68	14220
2026-01-10 04:05:40.77	12.11	19.19	-49.9	-61.3	3.8	7.48e-01	0	23	104	0	69	12720
2026-01-10 04:05:41.76	11.95	19.30	-49.6	-60.9	3.8	7.46e-01	0	23	104	0	68	12954
2026-01-10 04:05:42.77	11.77	19.41	-49.1	-60.5	3.8	7.45e-01	0	23	104	0	67	12987
2026-01-10 04:05:43.76	11.60	19.53	-49.8	-61.3	3.8	7.44e-01	0	23	104	0	67	14242
2026-01-10 04:05:44.77	11.42	19.64	-49.7	-61.1	3.8	7.46e-01	0	23	104	0	68	13129
2026-01-10 04:05:45.77	11.25	19.76	-56.2	-70.4	3.8	7.48e-01	0	23	104	0	79	20508
2026-01-10 04:05:46.77	11.07	19.87	-55.0	-68.1	3.8	7.47e-01	0	23	104	0	77	17588
2026-01-10 04:05:47.76	10.90	19.98	-50.2	-61.7	3.8	7.44e-01	0	23	104	0	68	14096
2026-01-10 04:05:48.76	10.72	20.10	-49.5	-60.9	3.8	7.46e-01	0	23	104	0	68	12811
2026-01-10 04:05:49.75	10.54	20.21	-49.2	-60.6	3.8	7.47e-01	0	23	104	0	67	13174
2026-01-10 04:05:50.75	10.35	20.33	-49.0	-60.3	3.8	7.44e-01	0	23	104	0	67	12758
2026-01-10 04:05:51.75	10.17	20.45	-51.5	-63.2	3.8	7.47e-01	0	23	104	0	70	14940
2026-01-10 04:05:52.76	9.98	20.56	-49.9	-61.4	3.8	7.44e-01	0	23	104	0	69	12873
2026-01-10 04:05:53.76	9.79	20.68	-56.4	-71.1	3.8	7.48e-01	0	23	104	0	80	20792
2026-01-10 04:05:54.75	9.61	20.80	-55.3	-68.6	3.8	7.49e-01	0	23	104	0	78	17565
2026-01-10 04:05:55.75	9.42	20.91	-50.4	-61.9	3.8	7.47e-01	0	23	104	0	68	14508
2026-01-10 04:05:56.74	9.22	21.03	-49.7	-61.1	3.9	7.43e-01	0	23	104	0	68	13151
2026-01-10 04:05:57.74	9.03	21.15	-49.6	-61.0	3.9	7.44e-01	0	23	104	0	68	13039
2026-01-10 04:05:58.74	8.84	21.26	-49.3	-60.6	3.8	7.45e-01	0	23	104	0	67	13199
2026-01-10 04:05:59.74	8.64	21.38	-50.6	-62.2	3.8	7.48e-01	0	23	104	0	68	14918
2026-01-10 04:06:00.74	8.44	21.50	-50.1	-61.6	3.9	7.46e-01	0	23	104	0	69	13140
2026-01-10 04:06:01.74	8.24	21.62	-56.3	-70.8	3.8	7.47e-01	0	23	104	0	80	20270
2026-01-10 04:06:02.74	8.04	21.74	-55.1	-68.2	3.8	7.46e-01	0	23	104	0	78	16773
2026-01-10 04:06:03.73	7.84	21.86	-50.1	-61.5	3.8	7.46e-01	0	23	104	0	68	13785
2026-01-10 04:06:04.73	7.63	21.98	-49.7	-61.1	3.8	7.46e-01	0	23	104	0	68	13170
2026-01-10 04:06:05.73	7.43	22.10	-49.7	-61.1	3.8	7.45e-01	0	23	104	0	68	13241
2026-01-10 04:06:06.73	7.22	22.22	-49.4	-60.7	3.8	7.47e-01	0	23	104	0	68	12664
2026-01-10 04:06:07.74	7.01	22.34	-50.7	-62.6	3.9	7.46e-01	0	23	104	0	69	14722
2026-01-10 04:06:08.73	6.80	22.46	-50.0	-61.4	3.8	7.47e-01	0	23	104	0	69	12949
2026-01-10 04:06:09.72	6.58	22.58	-56.0	-70.1	3.8	7.48e-01	0	23	104	0	79	19638
2026-01-10 04:06:10.72	6.37	22.70	-55.2	-68.3	3.8	7.44e-01	0	23	104	0	78	16935
2026-01-10 04:06:11.72	6.15	22.82	-50.0	-61.4	3.9	7.45e-01	0	23	104	0	68	13609
2026-01-10 04:06:12.72	5.93	22.94	-49.9	-61.3	3.9	7.44e-01	0	23	104	0	69	12766
2026-01-10 04:06:13.72	5.71	23.06	-49.7	-61.1	3.8	7.44e-01	0	23	104	0	68	13231
2026-01-10 04:06:14.72	5.49	23.18	-49.5	-60.9	3.9	7.47e-01	0	23	104	0	68	12862
2026-01-10 04:06:15.72	5.26	23.30	-50.4	-61.9	3.8	7.45e-01	0	23	104	0	68	14521
2026-01-10 04:06:16.72	5.04	23.43	-50.3	-61.8	3.8	7.46e-01	0	23	104	0	69	13438
2026-01-10 04:06:17.72	4.81	23.55	-56.1	-70.2	3.8	7.47e-01	0	23	104	0	79	20032
2026-01-10 04:06:18.71	4.58	23.67	-55.5	-68.9	3.8	7.49e-01	0	23	104	0	79	17121
2026-01-10 04:06:19.70	4.35	23.79	-50.4	-61.8	3.8	7.46e-01	0	23	104	0	69	13544
2026-01-10 04:06:20.70	4.12	23.91	-50.4	-61.9	3.9	7.45e-01	0	23	104	0	70	12849
2026-01-10 04:06:21.70	3.88	24.03	-50.1	-61.5	3.9	7.47e-01	0	23	104	0	69	13048
2026-01-10 04:06:22.69	3.65	24.16	-50.0	-61.4	3.9	7.46e-01	0	23	104	0	69	12816
2026-01-10 04:06:23.70	3.40	24.28	-52.1	-63.9	3.9	7.49e-01	0	23	104	0	71	15355
2026-01-10 04:06:24.69	3.17	24.40	-50.6	-62.1	3.8	7.49e-01	0	23	104	0	70	13211
2026-01-10 04:06:25.69	2.92	24.52	-55.9	-69.8	3.8	7.48e-01	0	23	104	0	79	18989
2026-01-10 04:06:26.69	2.68	24.65	-55.4	-68.6	3.8	7.48e-01	0	23	104	0	79	16530
2026-01-10 04:06:27.69	2.43	24.77	-50.4	-61.8	3.8	7.41e-01	0	23	104	0	69	13474
2026-01-10 04:06:28.68	2.18	24.89	-50.5	-62.0	3.8	7.46e-01	0	23	104	0	70	13007
2026-01-10 04:06:29.68	1.93	25.02	-50.2	-61.7	3.8	7.45e-01	0	23	104	0	69	13263
2026-01-10 04:06:30.68	1.67	25.14	-50.0	-61.4	3.8	7.47e-01	0	23	104	0	69	12892
2026-01-10 04:06:31.68	1.42	25.26	-51.9	-63.6	3.8	7.43e-01	0	23	104	0	71	14763
2026-01-10 04:06:32.67	1.16	25.38	-50.6	-62.2	3.8	7.43e-01	0	23	104	0	70	13325
2026-01-10 04:06:33.67	0.90	25.51	-55.6	-69.0	3.8	7.50e-01	0	23	104	0	78	18389
2026-01-10 04:06:34.68	0.64	25.63	-55.2	-68.3	3.8	7.45e-01	0	23	104	0	78	16943
2026-01-10 04:06:35.68	0.37	25.75	-49.5	-60.8	3.9	7.44e-01	0	23	104	0	68	12780
2026-01-10 04:06:36.68	0.11	25.88	-49.7	-61.1	3.8	7.46e-01	0	23	104	0	68	13159
2026-01-10 04:06:37.68	359.84	26.00	-49.4	-60.7	3.9	7.43e-01	0	23	104	0	68	12604
2026-01-10 04:06:38.68	359.57	26.12	-49.1	-60.4	3.8	7.48e-01	0	23	104	0	67	12833
2026-01-10 04:06:39.67	359.30	26.24	-49.7	-61.1	3.8	7.43e-01	0	23	104	0	67	13992
2026-01-10 04:06:40.67	359.02	26.37	-49.9	-61.3	3.9	7.48e-01	0	23	104	0	68	13470
2026-01-10 04:06:41.66	358.74	26.49	-55.6	-69.0	3.8	7.45e-01	0	23	104	0	78	18479
2026-01-10 04:06:42.66	358.46	26.61	-55.3	-68.4	3.8	7.47e-01	0	23	104	0	78	17243
2026-01-10 04:06:43.66	358.18	26.73	-49.5	-60.8	3.8	7.48e-01	0	23	104	0	68	12688
2026-01-10 04:06:44.66	357.90	26.86	-49.6	-60.9	3.8	7.48e-01	0	23	104	0	68	12957
2026-01-10 04:06:45.67	357.61	26.98	-49.5	-60.8	3.8	7.48e-01	0	23	104	0	68	12697
2026-01-10 04:06:46.67	357.32	27.10	-49.4	-60.8	3.8	7.43e-01	0	23	104	0	68	12692
2026-01-10 04:06:47.67	357.03	27.22	-49.2	-60.5	3.8	7.48e-01	0	23	104	0	67	13059
2026-01-10 04:06:48.68	356.73	27.35	-49.6	-60.9	3.8	7.43e-01	0	23	104	0	67	13697
2026-01-10 04:06:49.67	356.44	27.47	-55.4	-68.6	3.8	7.44e-01	0	23	104	0	78	17676
2026-01-10 04:06:50.67	356.14	27.59	-55.2	-68.2	3.8	7.46e-01	0	23	104	0	78	16865
2026-01-10 04:06:51.66	355.84	27.71	-49.1	-60.2	3.9	7.43e-01	0	23	104	0	67	12658
2026-01-10 04:06:52.67	355.53	27.83	-49.2	-60.5	3.9	7.50e-01	0	23	104	0	67	13081
2026-01-10 04:06:53.67	355.23	27.95	-49.1	-60.4	3.8	7.49e-01	0	23	104	0	67	12836
2026-01-10 04:06:54.67	354.92	28.07	-49.0	-60.2	3.9	7.46e-01	0	23	104	0	67	12624
2026-01-10 04:06:55.67	354.61	28.19	-50.5	-61.9	3.8	7.47e-01	0	23	104	0	68	14491
2026-01-10 04:06:56.67	354.30	28.31	-50.1	-61.5	3.8	7.47e-01	0	23	104	0	69	12995
2026-01-10 04:06:57.67	353.98	28.42	-55.4	-68.6	3.8	7.47e-01	0	23	104	0	78	17538
2026-01-10 04:06:58.67	353.66	28.54	-55.5	-68.6	3.8	7.47e-01	0	23	104	0	78	17553
2026-01-10 04:06:59.67	353.34	28.66	-49.2	-60.4	3.8	7.44e-01	0	23	104	0	67	12837
2026-01-10 04:07:00.67	353.02	28.78	-49.1	-60.4	3.8	7.48e-01	0	23	104	0	67	12874
2026-01-10 04:07:01.67	352.69	28.89	-49.2	-60.4	3.8	7.49e-01	0	23	104	0	67	12914
2026-01-10 04:07:02.68	352.36	29.01	-48.9	-60.1	3.8	7.43e-01	0	23	104	0	67	12517
2026-01-10 04:07:03.67	352.03	29.13	-51.8	-63.5	3.8	7.43e-01	0	23	104	0	71	14661
2026-01-10 04:07:04.68	351.70	29.24	-50.1	-61.5	3.8	7.47e-01	0	23	104	0	69	13045
2026-01-10 04:07:05.68	351.36	29.36	-55.4	-68.5	3.8	7.43e-01	0	23	104	0	78	17480
2026-01-10 04:07:06.68	351.03	29.47	-55.5	-68.6	3.8	7.48e-01	0	23	104	0	78	17509
2026-01-10 04:07:07.68	350.68	29.59	-49.1	-60.4	3.9	7.46e-01	0	23	104	0	67	12885
2026-01-10 04:07:08.68	350.34	29.70	-49.2	-60.5	3.8	7.46e-01	0	23	104	0	67	12996
2026-01-10 04:07:09.68	350.00	29.81	-49.0	-60.2	3.8	7.49e-01	0	23	104	0	67	12636
2026-01-10 04:07:10.68	349.65	29.92	-48.6	-59.9	3.8	7.47e-01	0	23	104	0	66	12824
2026-01-10 04:07:11.66	349.31	30.03	-49.7	-61.1	3.8	7.47e-01	0	23	104	0	67	14046
2026-01-10 04:07:12.66	348.95	30.14	-49.6	-61.0	3.8	7.44e-01	0	23	104	0	68	13023
2026-01-10 04:07:13.66	348.60	30.25	-55.4	-68.5	3.8	7.49e-01	0	23	104	0	78	17285
2026-01-10 04:07:14.67	348.24	30.36	-55.5	-68.6	3.8	7.51e-01	0	23	104	0	78	17554
2026-01-10 04:07:15.67	347.88	30.47	-49.1	-60.3	3.9	7.45e-01	0	23	104	0	67	12770
2026-01-10 04:07:16.67	347.51	30.58	-49.2	-60.4	3.8	7.49e-01	0	23	104	0	67	12914
2026-01-10 04:07:17.67	347.15	30.68	-49.0	-60.2	3.8	7.44e-01	0	23	104	0	67	12566
2026-01-10 04:07:18.67	346.78	30.79	-48.7	-60.0	3.9	7.45e-01	0	23	104	0	66	13003
2026-01-10 04:07:19.68	346.41	30.89	-50.0	-61.3	3.8	7.46e-01	0	23	104	0	67	14336
2026-01-10 04:07:20.67	346.04	30.99	-49.6	-60.9	3.9	7.44e-01	0	23	104	0	68	12903
2026-01-10 04:07:21.66	345.66	31.10	-55.4	-68.5	3.8	7.46e-01	0	23	104	0	78	17306
2026-01-10 04:07:22.66	345.29	31.20	-55.7	-69.0	3.8	7.45e-01	0	23	104	0	79	17476
2026-01-10 04:07:23.66	344.91	31.30	-49.0	-60.2	3.9	7.43e-01	0	23	104	0	67	12532
2026-01-10 04:07:24.66	344.52	31.40	-49.1	-60.4	3.8	7.48e-01	0	23	104	0	67	12840
2026-01-10 04:07:25.67	344.13	31.50	-48.9	-60.2	3.9	7.45e-01	0	23	104	0	67	12571
2026-01-10 04:07:26.66	343.75	31.59	-48.6	-59.8	3.9	7.47e-01	0	23	104	0	66	12776
2026-01-10 04:07:27.67	343.36	31.69	-49.3	-60.5	3.8	7.42e-01	0	23	104	0	66	13789
2026-01-10 04:07:28.67	342.96	31.79	-49.4	-60.7	3.8	7.50e-01	0	23	104	0	67	13369
2026-01-10 04:07:29.66	342.57	31.88	-55.5	-68.6	3.8	7.45e-01	0	23	104	0	78	17578
2026-01-10 04:07:30.67	342.17	31.97	-55.8	-69.2	3.8	7.44e-01	0	23	104	0	79	17818
2026-01-10 04:07:31.65	341.78	32.06	-49.1	-60.3	3.9	7.45e-01	0	23	104	0	67	12707
2026-01-10 04:07:32.66	341.38	32.15	-49.2	-60.4	3.8	7.48e-01	0	23	104	0	67	12914
2026-01-10 04:07:33.67	340.97	32.24	-48.9	-60.1	3.8	7.45e-01	0	23	104	0	67	12511
2026-01-10 04:07:34.66	340.56	32.33	-48.9	-60.1	3.8	7.43e-01	0	23	104	0	67	12509
2026-01-10 04:07:35.66	340.16	32.42	-50.5	-61.9	3.8	7.44e-01	0	23	104	0	68	14511
2026-01-10 04:07:36.65	339.75	32.50	-49.9	-61.2	3.8	7.45e-01	0	23	104	0	69	12575
2026-01-10 04:07:37.66	339.33	32.59	-55.5	-68.7	3.8	7.48e-01	0	23	104	0	78	17692
2026-01-10 04:07:38.65	338.92	32.67	-56.0	-69.4	3.8	7.49e-01	0	23	104	0	79	18263
2026-01-10 04:07:39.65	338.50	32.75	-49.1	-60.3	3.9	7.44e-01	0	23	104	0	67	12740
2026-01-10 04:07:40.65	338.08	32.83	-49.1	-60.3	3.8	7.46e-01	0	23	104	0	67	12723
2026-01-10 04:07:41.65	337.66	32.90	-49.0	-60.3	3.8	7.49e-01	0	23	104	0	67	12693
2026-01-10 04:07:42.65	337.24	32.98	-49.1	-60.3	3.8	7.45e-01	0	23	104	0	67	12788
2026-01-10 04:07:43.65	336.81	33.06	-50.4	-61.9	3.8	7.45e-01	0	23	104	0	68	14385
2026-01-10 04:07:44.66	336.38	33.13	-49.9	-61.2	3.8	7.45e-01	0	23	104	0	69	12632
2026-01-10 04:07:45.66	335.95	33.20	-55.6	-68.7	3.8	7.49e-01	0	23	104	0	78	17816
2026-01-10 04:07:46.67	335.51	33.27	-56.1	-69.6	3.8	7.50e-01	0	23	104	0	79	18670
2026-01-10 04:07:47.67	335.08	33.34	-49.3	-60.6	3.8	7.47e-01	0	23	104	0	67	13117
2026-01-10 04:07:48.67	334.64	33.41	-49.4	-60.7	3.9	7.43e-01	0	23	104	0	68	12659
2026-01-10 04:07:49.67	334.21	33.47	-49.1	-60.4	3.8	7.47e-01	0	23	104	0	67	12820
2026-01-10 04:07:50.67	333.77	33.54	-48.9	-60.1	3.9	7.47e-01	0	23	104	0	67	12439
2026-01-10 04:07:51.66	333.33	33.60	-50.1	-61.5	3.8	7.45e-01	0	23	104	0	67	14668
2026-01-10 04:07:52.67	332.88	33.66	-49.9	-61.2	3.8	7.43e-01	0	23	104	0	69	12631
2026-01-10 04:07:53.67	332.44	33.71	-55.6	-68.7	3.8	7.45e-01	0	23	104	0	78	17704
2026-01-10 04:07:54.67	331.99	33.77	-56.2	-69.9	3.8	7.46e-01	0	23	104	0	80	18196
2026-01-10 04:07:55.67	331.55	33.82	-49.4	-60.6	3.8	7.44e-01	0	23	104	0	67	13215
2026-01-10 04:07:56.66	331.10	33.88	-49.5	-60.8	3.9	7.43e-01	0	23	104	0	68	12776
2026-01-10 04:07:57.66	330.65	33.93	-49.5	-60.7	3.8	7.43e-01	0	23	104	0	68	12612
2026-01-10 04:07:58.66	330.20	33.98	-49.3	-60.6	3.8	7.43e-01	0	23	104	0	67	13122
2026-01-10 04:07:59.66	329.75	34.02	-50.9	-62.5	3.8	7.40e-01	0	23	104	0	69	14576
2026-01-10 04:08:00.66	329.29	34.07	-50.2	-61.6	3.8	7.42e-01	0	23	104	0	69	13141
2026-01-10 04:08:01.67	328.83	34.11	-55.8	-69.2	3.8	7.43e-01	0	23	104	0	79	17696
2026-01-10 04:08:02.66	328.38	34.15	-56.1	-69.6	3.8	7.50e-01	0	23	104	0	80	17669
2026-01-10 04:08:03.66	327.92	34.19	-49.3	-60.5	3.8	7.51e-01	0	23	104	0	67	12985
2026-01-10 04:08:04.66	327.46	34.23	-49.1	-60.4	3.8	7.48e-01	0	23	104	0	67	12855
2026-01-10 04:08:05.67	327.00	34.26	-49.3	-60.4	3.8	7.43e-01	0	23	104	0	67	12919
2026-01-10 04:08:06.67	326.53	34.30	-49.2	-60.5	3.8	7.46e-01	0	23	104	0	67	13025
2026-01-10 04:08:07.68	326.07	34.33	-51.2	-62.9	3.8	7.48e-01	0	23	104	0	70	14531
2026-01-10 04:08:08.68	325.60	34.36	-50.2	-61.7	3.8	7.46e-01	0	23	104	0	69	13304
2026-01-10 04:08:09.68	325.14	34.38	-55.8	-69.2	3.8	7.45e-01	0	23	104	0	79	17714
2026-01-10 04:08:10.67	324.68	34.41	-56.3	-70.1	3.8	7.47e-01	0	23	104	0	80	18713
2026-01-10 04:08:11.67	324.21	34.43	-49.7	-60.9	3.8	7.43e-01	0	23	104	0	68	12875
2026-01-10 04:08:12.66	323.75	34.45	-49.9	-61.3	3.8	7.45e-01	0	23	104	0	69	12714
2026-01-10 04:08:13.66	323.28	34.47	-49.7	-61.1	3.8	7.48e-01	0	23	104	0	68	13118
2026-01-10 04:08:14.66	322.82	34.48	-49.7	-60.9	3.8	7.44e-01	0	23	104	0	68	12903
2026-01-10 04:08:15.66	322.35	34.50	-50.6	-62.0	3.9	7.47e-01	0	23	104	0	68	14707
2026-01-10 04:08:16.66	321.88	34.51	-50.2	-61.6	3.8	7.45e-01	0	23	104	0	69	13192
2026-01-10 04:08:17.67	321.41	34.52	-56.0	-69.4	3.8	7.45e-01	0	23	104	0	79	18171
2026-01-10 04:08:18.67	320.94	34.53	-56.0	-69.5	3.8	7.45e-01	0	23	104	0	80	17432
2026-01-10 04:08:19.67	320.47	34.53	-49.6	-60.8	3.9	7.45e-01	0	23	104	0	68	12778
2026-01-10 04:08:20.67	320.00	34.54	-49.8	-61.1	3.9	7.43e-01	0	23	104	0	68	13213
2026-01-10 04:08:21.67	319.53	34.54	-49.6	-60.9	3.8	7.47e-01	0	23	104	0	68	12958
2026-01-10 04:08:22.68	319.06	34.54	-49.7	-61.1	3.8	7.46e-01	0	23	104	0	68	13156
2026-01-10 04:08:23.68	318.59	34.54	-51.1	-62.5	3.8	7.47e-01	0	23	104	0	69	14577
2026-01-10 04:08:24.68	318.12	34.53	-50.1	-61.4	3.8	7.46e-01	0	23	104	0	69	12931
2026-01-10 04:08:25.67	317.66	34.52	-56.0	-69.3	3.8	7.48e-01	0	23	104	0	79	18057
2026-01-10 04:08:26.66	317.19	34.51	-55.8	-69.2	3.8	7.47e-01	0	23	104	0	80	16810
2026-01-10 04:08:27.67	316.72	34.50	-49.8	-61.1	3.8	7.46e-01	0	23	104	0	68	13175
2026-01-10 04:08:28.67	316.25	34.49	-49.5	-60.8	3.8	7.47e-01	0	23	104	0	68	12772
2026-01-10 04:08:29.67	315.78	34.47	-49.5	-61.0	3.8	7.48e-01	0	23	104	0	68	12986
2026-01-10 04:08:30.67	315.31	34.46	-49.6	-60.9	3.9	7.46e-01	0	23	104	0	68	12879
2026-01-10 04:08:31.67	314.85	34.44	-51.8	-63.5	3.8	7.49e-01	0	23	104	0	71	14576
2026-01-10 04:08:32.67	314.38	34.41	-50.2	-61.5	3.8	7.49e-01	0	23	104	0	69	13105
2026-01-10 04:08:33.67	313.92	34.39	-56.0	-69.3	3.8	7.48e-01	0	23	104	0	79	18071
2026-01-10 04:08:34.66	313.46	34.36	-55.6	-59.6	14.3	6.03e-01	0	23	0	0	80	5546
2026-01-10 04:08:35.67	312.99	34.34	-49.5	-51.1	16.0	6.03e-01	0	23	0	1572864	67	4423
2026-01-10 04:08:36.67	312.53	34.31	-49.4	-51.0	16.1	6.03e-01	0	23	0	3670016	68	4113
2026-01-10 04:08:37.67	312.06	34.27	-49.4	-51.1	16.0	6.03e-01	0	23	0	5767168	67	4413
2026-01-10 04:08:38.67	311.60	34.24	-49.6	-51.4	15.9	6.03e-01	0	23	0	7340032	67	4548
2026-01-10 04:08:39.67	311.14	34.20	-49.6	-51.4	15.9	6.03e-01	0	23	0	9437184	67	4552
2026-01-10 04:08:40.66	310.69	34.17	-49.7	-51.4	15.9	6.02e-01	0	23	0	11010048	67	4578
2026-01-10 04:08:41.67	310.23	34.12	-49.7	-51.4	15.9	6.03e-01	0	23	0	13107200	67	4597
2026-01-10 04:08:42.67	309.77	34.08	-49.4	-51.0	16.0	6.03e-01	0	23	0	14680064	67	4385
2026-01-10 04:08:43.68	309.31	34.04	-49.0	-50.6	16.1	6.03e-01	0	23	0	16777216	66	4399
2026-01-10 04:08:44.67	308.86	33.99	-48.8	-50.4	16.1	6.04e-01	0	23	0	18874368	66	4293
2026-01-10 04:08:45.68	308.40	33.94	-48.8	-50.3	16.1	6.04e-01	0	23	0	20447232	66	4273
2026-01-10 04:08:46.68	307.95	33.89	-48.7	-50.2	16.1	6.01e-01	0	23	0	22544384	66	4231
2026-01-10 04:08:47.68	307.50	33.84	-48.9	-50.5	16.0	6.02e-01	0	23	0	24117248	66	4371
2026-01-10 04:08:48.68	307.05	33.79	-49.1	-50.7	16.1	6.05e-01	0	23	0	26214400	67	4237
2026-01-10 04:08:49.68	306.61	33.73	-49.2	-50.9	16.1	6.02e-01	0	23	0	27787264	67	4306
2026-01-10 04:08:50.68	306.16	33.67	-49.3	-51.0	16.0	6.01e-01	0	23	0	29884416	67	4351
2026-01-10 04:08:51.68	305.72	33.62	-49.3	-50.9	16.1	6.02e-01	0	23	0	31981568	67	4329
2026-01-10 04:08:52.68	305.27	33.55	-49.0	-50.6	16.2	6.05e-01	0	23	0	33554432	67	4182
2026-01-10 04:08:53.68	304.83	33.49	-48.8	-50.3	16.1	6.02e-01	0	23	0	35651584	66	4276
2026-01-10 04:08:54.68	304.40	33.43	-48.9	-50.5	16.2	6.05e-01	0	23	0	37224448	67	4105
2026-01-10 04:08:55.68	303.96	33.36	-49.0	-50.5	16.2	6.02e-01	0	23	0	39321600	67	4127
2026-01-10 04:08:56.68	303.52	33.29	-49.2	-50.9	16.0	6.04e-01	0	23	0	41418752	67	4298
2026-01-10 04:08:57.68	303.09	33.22	-49.2	-50.8	16.0	6.03e-01	0	23	0	42991616	67	4257
2026-01-10 04:08:58.68	302.66	33.15	-49.0	-50.6	16.1	6.02e-01	0	23	0	45088768	67	4167
2026-01-10 04:08:59.68	302.23	33.08	-49.4	-51.1	15.9	6.04e-01	0	23	0	46661632	67	4430
2026-01-10 04:09:00.68	301.80	33.01	-50.0	-51.8	15.8	6.04e-01	0	23	0	48758784	68	4510
2026-01-10 04:09:01.68	301.38	32.93	-50.1	-51.9	15.7	6.04e-01	0	23	0	50331648	67	4829
2026-01-10 04:09:02.68	300.96	32.85	-50.1	-51.9	15.8	6.03e-01	0	23	0	52428800	68	4584
2026-01-10 04:09:03.68	300.54	32.77	-50.3	-52.2	15.7	6.02e-01	0	23	0	54525952	68	4731
2026-01-10 04:09:04.68	300.12	32.69	-49.6	-51.4	15.8	6.02e-01	0	23	0	56098816	66	4829
2026-01-10 04:09:05.68	299.70	32.61	-48.9	-50.4	16.0	6.04e-01	0	23	0	58195968	66	4336
2026-01-10 04:09:06.68	299.29	32.53	-48.7	-50.3	16.1	6.04e-01	0	23	0	59768832	66	4245
2026-01-10 04:09:07.69	298.87	32.44	-49.0	-50.5	16.1	6.02e-01	0	23	0	61865984	67	4134
2026-01-10 04:09:08.69	298.46	32.36	-49.0	-50.6	16.0	6.03e-01	0	23	0	63438848	66	4411
2026-01-10 04:09:09.70	298.05	32.27	-48.9	-50.5	16.1	6.03e-01	0	23	0	65536000	67	4114
2026-01-10 04:09:10.70	297.64	32.18	-49.5	-51.2	15.9	6.03e-01	0	23	0	67633152	67	4479
2026-01-10 04:09:11.70	297.24	32.09	-49.7	-51.5	15.7	6.02e-01	0	23	0	69206016	67	4610
2026-01-10 04:09:12.70	296.84	32.00	-49.2	-50.9	16.1	6.03e-01	0	23	0	71303168	67	4294
2026-01-10 04:09:13.69	296.44	31.91	-49.1	-50.6	16.1	6.04e-01	0	23	0	72876032	67	4186
2026-01-10 04:09:14.69	296.05	31.81	-48.9	-50.5	16.2	6.05e-01	0	23	0	74973184	67	4115
2026-01-10 04:09:15.69	295.65	31.72	-49.1	-50.8	16.1	6.04e-01	0	23	0	77070336	67	4244
2026-01-10 04:09:16.70	295.26	31.62	-49.7	-51.4	15.9	6.04e-01	0	23	0	78643200	67	4573
2026-01-10 04:09:17.70	294.87	31.52	-49.4	-51.1	16.0	6.01e-01	0	23	0	80740352	67	4399
2026-01-10 04:09:18.69	294.49	31.43	-49.1	-50.7	16.1	6.02e-01	0	23	0	82313216	67	4199
2026-01-10 04:09:19.68	294.11	31.33	-49.2	-50.9	16.1	6.03e-01	0	23	0	84410368	67	4295
2026-01-10 04:09:20.68	293.72	31.23	-49.1	-50.7	16.1	6.03e-01	0	23	0	85983232	67	4229
2026-01-10 04:09:21.68	293.34	31.13	-49.5	-51.2	15.9	6.05e-01	0	23	0	88080384	67	4478
2026-01-10 04:09:22.67	292.97	31.02	-49.4	-51.1	16.0	6.04e-01	0	23	0	89653248	67	4392
2026-01-10 04:09:23.67	292.60	30.92	-48.8	-50.3	16.2	6.02e-01	0	23	0	91750400	66	4289
2026-01-10 04:09:24.67	292.23	30.82	-49.4	-51.1	16.0	6.04e-01	0	23	0	93847552	67	4411
2026-01-10 04:09:25.68	291.85	30.71	-49.0	-50.7	16.0	6.01e-01	0	23	0	95420416	66	4444
2026-01-10 04:09:26.68	291.49	30.60	-49.1	-50.7	16.1	6.04e-01	0	23	0	97517568	67	4201
2026-01-10 04:09:27.68	291.12	30.50	-50.1	-51.9	15.7	6.05e-01	0	23	0	99090432	67	4840
2026-01-10 04:09:28.68	290.76	30.39	-49.5	-51.2	15.9	6.05e-01	0	23	0	101187584	67	4465
2026-01-10 04:09:29.68	290.40	30.28	-49.8	-51.6	15.8	6.03e-01	0	23	0	103284736	67	4669
2026-01-10 04:09:30.68	290.04	30.17	-49.6	-51.3	15.9	6.03e-01	0	23	0	104857600	67	4531
2026-01-10 04:09:31.69	289.69	30.06	-49.8	-51.5	16.0	6.03e-01	0	23	0	106954752	68	4375
2026-01-10 04:09:32.68	289.34	29.95	-49.8	-51.6	16.0	6.06e-01	0	23	0	108527616	68	4399
2026-01-10 04:09:33.68	288.99	29.84	-49.6	-51.3	16.1	6.04e-01	0	23	0	110624768	68	4272
2026-01-10 04:09:34.68	288.64	29.73	-49.7	-51.4	16.0	6.01e-01	0	23	0	112197632	68	4323
2026-01-10 04:09:35.68	288.30	29.61	-50.0	-51.7	15.9	6.02e-01	0	23	0	114294784	68	4490
2026-01-10 04:09:36.68	287.95	29.50	-49.0	-50.6	16.2	6.03e-01	0	23	0	116391936	67	4160
2026-01-10 04:09:37.68	287.62	29.38	-49.7	-51.5	15.9	6.03e-01	0	23	0	117964800	67	4619
2026-01-10 04:09:38.68	287.28	29.27	-49.0	-50.6	16.2	6.03e-01	0	23	0	120061952	67	4179
2026-01-10 04:09:39.68	286.94	29.15	-50.3	-52.2	15.8	6.04e-01	0	23	0	121634816	68	4707
2026-01-10 04:09:40.68	286.61	29.04	-49.5	-51.1	16.1	6.02e-01	0	23	0	123731968	68	4192
2026-01-10 04:09:41.69	286.28	28.92	-50.4	-52.3	15.7	6.03e-01	0	23	0	125829120	68	4773
2026-01-10 04:09:42.69	285.95	28.80	-49.3	-50.9	16.0	6.05e-01	0	23	0	127401984	67	4306
2026-01-10 04:09:43.69	285.63	28.69	-49.8	-51.6	15.8	6.05e-01	0	23	0	129499136	67	4679
2026-01-10 04:09:44.70	285.30	28.57	-49.4	-51.0	16.0	6.05e-01	0	23	0	131072000	67	4371
2026-01-10 04:09:45.69	284.99	28.45	-50.2	-52.1	15.8	6.03e-01	0	23	0	133169152	68	4686
2026-01-10 04:09:46.70	284.67	28.33	-49.7	-51.3	16.0	6.02e-01	0	23	0	134742016	68	4280
2026-01-10 04:09:47.70	284.35	28.21	-50.8	-52.8	15.6	6.04e-01	0	23	0	136839168	69	4809
2026-01-10 04:09:48.70	284.04	28.09	-49.4	-51.0	16.2	6.02e-01	0	23	0	138936320	68	4130
2026-01-10 04:09:49.70	283.73	27.97	-50.8	-52.8	15.7	6.01e-01	0	23	0	140509184	69	4808
2026-01-10 04:09:50.70	283.42	27.85	-48.9	-50.4	16.2	6.04e-01	0	23	0	142606336	67	4089
2026-01-10 04:09:51.69	283.12	27.73	-49.9	-51.8	15.8	6.02e-01	0	23	0	144179200	67	4764
2026-01-10 04:09:52.69	282.82	27.61	-49.1	-50.7	16.0	6.02e-01	0	23	0	146276352	67	4237
2026-01-10 04:09:53.69	282.52	27.49	-49.9	-51.7	15.7	6.04e-01	0	23	0	147849216	67	4729
2026-01-10 04:09:54.68	282.22	27.37	-49.7	-51.4	15.9	6.05e-01	0	23	0	149946368	68	4335
2026-01-10 04:09:55.68	281.93	27.25	-49.3	-51.0	16.0	6.04e-01	0	23	0	152043520	67	4352
2026-01-10 04:09:56.69	281.63	27.12	-50.1	-52.0	15.7	6.04e-01	0	23	0	153616384	68	4634
2026-01-10 04:09:57.69	281.34	27.00	-48.8	-50.3	16.1	6.03e-01	0	23	0	155713536	66	4274
2026-01-10 04:09:58.69	281.05	26.88	-50.0	-51.9	15.7	6.03e-01	0	23	0	157286400	67	4827
2026-01-10 04:09:59.69	280.77	26.76	-49.5	-51.1	16.1	6.03e-01	0	23	0	159383552	68	4174
2026-01-10 04:10:00.69	280.48	26.64	-49.5	-51.2	15.9	6.03e-01	0	23	0	160956416	67	4468
2026-01-10 04:10:01.69	280.20	26.51	-50.4	-52.4	15.7	6.03e-01	0	23	0	163053568	69	4565
2026-01-10 04:10:02.69	279.92	26.39	-49.0	-50.5	16.1	6.04e-01	0	23	0	165150720	67	4145
2026-01-10 04:10:03.69	279.65	26.27	-50.0	-51.8	15.7	6.03e-01	0	23	0	166723584	67	4798
2026-01-10 04:10:04.68	279.37	26.14	-49.8	-51.6	15.9	6.03e-01	0	23	0	168820736	68	4407
2026-01-10 04:10:05.69	279.10	26.02	-49.2	-50.8	16.0	6.02e-01	0	23	0	170393600	67	4263
2026-01-10 04:10:06.69	278.83	25.90	-50.6	-52.5	15.6	6.02e-01	0	23	0	172490752	68	4915
2026-01-10 04:10:07.68	278.56	25.77	-50.1	-51.9	15.9	6.03e-01	0	23	0	174063616	69	4322
2026-01-10 04:10:08.69	278.29	25.65	-49.3	-50.9	16.0	6.05e-01	0	23	0	176160768	67	4304
2026-01-10 04:10:09.69	278.03	25.53	-50.2	-52.0	15.6	6.04e-01	0	23	0	178257920	68	4650
2026-01-10 04:10:10.69	277.77	25.40	-50.0	-51.8	15.8	6.04e-01	0	23	0	179830784	68	4508
2026-01-10 04:10:11.68	277.51	25.28	-49.4	-51.1	16.1	6.03e-01	0	23	0	181927936	68	4159
2026-01-10 04:10:12.68	277.25	25.16	-50.1	-51.9	15.8	6.05e-01	0	23	0	183500800	68	4557
2026-01-10 04:10:13.68	277.00	25.03	-50.2	-52.1	15.7	6.06e-01	0	23	0	185597952	68	4674
2026-01-10 04:10:14.69	276.74	24.91	-49.3	-50.9	16.0	6.05e-01	0	23	0	187170816	67	4321
2026-01-10 04:10:15.68	276.50	24.79	-49.4	-51.1	16.0	6.07e-01	0	23	0	189267968	67	4420
2026-01-10 04:10:16.69	276.24	24.66	-49.9	-51.7	15.8	6.03e-01	0	23	0	191365120	67	4742
2026-01-10 04:10:17.69	276.00	24.54	-49.8	-51.5	15.8	6.05e-01	0	23	0	192937984	67	4639
2026-01-10 04:10:18.69	275.75	24.42	-49.5	-51.2	15.9	6.06e-01	0	23	0	195035136	67	4443
2026-01-10 04:10:19.69	275.51	24.29	-49.7	-51.4	15.8	6.03e-01	0	23	0	197132288	67	4584
2026-01-10 04:10:20.68	275.27	24.17	-50.0	-51.8	15.7	6.04e-01	0	23	0	198705152	67	4793
2026-01-10 04:10:21.69	275.03	24.05	-49.6	-51.3	15.9	6.04e-01	0	23	0	200278016	67	4513
2026-01-10 04:10:22.69	274.79	23.92	-49.5	-51.2	15.9	6.03e-01	0	23	0	202375168	67	4477
2026-01-10 04:10:23.69	274.56	23.80	-49.9	-51.7	15.8	6.01e-01	0	23	0	204472320	67	4717
2026-01-10 04:10:24.69	274.32	23.68	-50.0	-51.9	15.7	6.04e-01	0	23	0	206045184	67	4833
2026-01-10 04:10:25.69	274.09	23.56	-50.1	-51.9	15.8	6.02e-01	0	23	0	208142336	68	4586
2026-01-10 04:10:26.69	273.86	23.43	-49.9	-51.7	15.9	6.04e-01	0	23	0	209715200	68	4456
2026-01-10 04:10:27.68	273.64	23.31	-49.8	-51.6	15.9	6.04e-01	0	23	0	211812352	68	4415
2026-01-10 04:10:28.68	273.41	23.19	-49.9	-51.7	15.9	6.03e-01	0	23	0	213909504	68	4471
2026-01-10 04:10:29.68	273.19	23.07	-49.8	-51.6	15.9	6.01e-01	0	23	0	215482368	68	4422
2026-01-10 04:10:30.68	272.97	22.95	-49.7	-51.4	16.0	6.02e-01	0	23	0	217579520	68	4293
2026-01-10 04:10:31.69	272.74	22.82	-49.5	-51.2	16.1	6.05e-01	0	23	0	219152384	68	4203
2026-01-10 04:10:32.68	272.53	22.70	-49.8	-51.5	16.0	6.01e-01	0	23	0	221249536	68	4376
2026-01-10 04:10:33.68	272.31	22.58	-49.9	-51.7	15.9	6.03e-01	0	23	0	222822400	68	4462
2026-01-10 04:10:34.69	272.10	22.46	-49.8	-51.6	15.9	6.03e-01	0	23	0	224919552	68	4428
2026-01-10 04:10:35.69	271.88	22.34	-49.8	-51.5	15.9	6.03e-01	0	23	0	227016704	68	4375
2026-01-10 04:10:36.69	271.67	22.22	-49.7	-51.4	16.0	6.03e-01	0	23	0	228589568	68	4323
2026-01-10 04:10:37.70	271.46	22.10	-49.7	-51.4	16.0	6.03e-01	0	23	0	230686720	68	4329
2026-01-10 04:10:38.70	271.25	21.98	-49.7	-51.4	16.0	6.04e-01	0	23	0	232259584	68	4339
2026-01-10 04:10:39.71	271.04	21.86	-49.6	-51.3	16.1	6.04e-01	0	23	0	234356736	68	4253
2026-01-10 04:10:40.71	270.84	21.74	-49.6	-51.3	16.1	6.03e-01	0	23	0	236453888	68	4286
2026-01-10 04:10:41.71	270.64	21.62	-49.6	-51.3	16.1	6.02e-01	0	23	0	238026752	68	4271
2026-01-10 04:10:42.70	270.44	21.50	-49.6	-51.3	16.1	6.03e-01	0	23	0	240123904	68	4285
2026-01-10 04:10:43.70	270.24	21.38	-49.7	-51.4	16.0	6.03e-01	0	23	0	241696768	68	4336
2026-01-10 04:10:44.70	270.04	21.26	-49.7	-51.4	16.0	6.03e-01	0	23	0	243793920	68	4336
2026-01-10 04:10:45.70	269.84	21.14	-49.6	-51.4	16.1	6.05e-01	0	23	0	245366784	68	4292
2026-01-10 04:10:46.70	269.65	21.03	-49.8	-51.5	16.0	6.02e-01	0	23	0	247463936	68	4367
2026-01-10 04:10:47.70	269.46	20.91	-49.7	-51.4	16.0	6.05e-01	0	23	0	249561088	68	4332
2026-01-10 04:10:48.69	269.27	20.79	-49.5	-51.2	16.1	6.03e-01	0	23	0	251133952	68	4242
2026-01-10 04:10:49.69	269.08	20.67	-49.5	-51.2	16.1	6.03e-01	0	23	0	253231104	68	4204
2026-01-10 04:10:50.69	268.89	20.56	-49.5	-51.2	16.1	6.04e-01	0	23	0	254803968	68	4221
2026-01-10 04:10:51.68	268.70	20.44	-49.6	-51.3	16.0	6.03e-01	0	23	0	256901120	68	4280
2026-01-10 04:10:52.68	268.52	20.32	-49.6	-51.3	16.0	6.03e-01	0	23	0	258473984	68	4284
2026-01-10 04:10:53.68	268.33	20.21	-49.7	-51.4	16.0	6.03e-01	0	23	0	260571136	68	4313
2026-01-10 04:10:54.69	268.15	20.09	-49.7	-51.4	16.0	6.03e-01	0	23	0	262144000	68	4340
2026-01-10 04:10:55.69	267.97	19.98	-49.6	-51.3	16.1	6.04e-01	0	23	0	264241152	68	4273
2026-01-10 04:10:56.69	267.79	19.86	-49.6	-51.3	16.1	6.04e-01	0	23	0	266338304	68	4277
2026-01-10 04:10:57.70	267.61	19.74	-49.6	-51.3	16.1	6.04e-01	0	23	0	267911168	68	4277
2026-01-10 04:10:58.70	267.43	19.63	-49.5	-51.2	16.1	6.03e-01	0	23	0	270008320	68	4203
2026-01-10 04:10:59.70	267.26	19.52	-49.5	-51.2	16.1	6.02e-01	0	23	0	272105472	68	4237
2026-01-10 04:11:00.71	267.08	19.40	-49.7	-51.4	16.0	6.03e-01	0	23	0	273678336	68	4306
2026-01-10 04:11:01.71	266.91	19.29	-49.6	-51.4	16.0	6.03e-01	0	23	0	275775488	68	4297
2026-01-10 04:11:02.72	266.74	19.17	-49.7	-51.4	16.0	6.04e-01	0	23	0	277348352	68	4325
2026-01-10 04:11:03.72	266.57	19.06	-49.7	-51.4	16.0	6.04e-01	0	23	0	279445504	68	4331
2026-01-10 04:11:04.71	266.40	18.95	-49.5	-51.2	16.1	6.04e-01	0	23	0	281018368	68	4208
2026-01-10 04:11:05.71	266.23	18.83	-49.5	-51.2	16.1	6.03e-01	0	23	0	283115520	68	4237
2026-01-10 04:11:06.72	266.07	18.72	-49.5	-51.2	16.1	6.03e-01	0	23	0	285212672	68	4229
2026-01-10 04:11:07.72	265.90	18.61	-49.5	-51.2	16.1	6.03e-01	0	23	0	286785536	68	4224
2026-01-10 04:11:08.71	265.74	18.50	-49.5	-51.3	16.1	6.04e-01	0	23	0	288882688	68	4246
2026-01-10 04:11:09.70	265.58	18.39	-49.5	-51.1	16.1	6.03e-01	0	23	0	290455552	68	4192
2026-01-10 04:11:10.70	265.42	18.28	-49.4	-51.1	16.1	6.02e-01	0	23	0	292552704	68	4182
2026-01-10 04:11:11.71	265.26	18.17	-49.3	-51.0	16.0	6.03e-01	0	23	0	294125568	67	4354
2026-01-10 04:11:12.71	265.10	18.06	-49.4	-51.1	15.9	6.04e-01	0	23	0	296222720	67	4417
2026-01-10 04:11:13.71	264.95	17.95	-49.5	-51.2	15.9	6.01e-01	0	23	0	298319872	67	4459
2026-01-10 04:11:14.71	264.79	17.84	-49.5	-51.2	15.9	6.02e-01	0	23	0	299892736	67	4475
2026-01-10 04:11:15.71	264.64	17.73	-49.4	-51.1	15.9	6.03e-01	0	23	0	301989888	67	4438
2026-01-10 04:11:16.72	264.48	17.62	-49.5	-51.2	15.9	6.03e-01	0	23	0	303562752	67	4464
2026-01-10 04:11:17.72	264.33	17.51	-49.3	-51.0	16.0	6.05e-01	0	23	0	305659904	67	4351
2026-01-10 04:11:18.73	264.18	17.40	-49.2	-50.9	16.1	6.01e-01	0	23	0	307757056	67	4296
2026-01-10 04:11:19.73	264.03	17.29	-49.2	-50.9	16.0	6.04e-01	0	23	0	309329920	67	4306
2026-01-10 04:11:20.73	263.88	17.18	-49.3	-51.0	16.0	6.02e-01	0	23	0	311427072	67	4377
2026-01-10 04:11:21.73	263.73	17.08	-49.4	-51.1	16.0	6.02e-01	0	23	0	312999936	67	4403
2026-01-10 04:11:22.73	263.58	16.97	-49.4	-51.2	15.9	6.04e-01	0	23	0	315097088	67	4458
2026-01-10 04:11:23.73	263.44	16.86	-49.5	-51.2	15.9	6.03e-01	0	23	0	316669952	67	4463
2026-01-10 04:11:24.73	263.30	16.76	-49.3	-51.1	16.0	6.04e-01	0	23	0	318767104	67	4396
2026-01-10 04:11:25.73	263.15	16.65	-49.4	-51.1	15.9	6.01e-01	0	23	0	320864256	67	4419
2026-01-10 04:11:26.74	263.01	16.54	-49.4	-51.1	15.9	6.03e-01	0	23	0	322437120	67	4420
2026-01-10 04:11:27.73	262.87	16.44	-49.4	-51.1	15.9	6.02e-01	0	23	0	324534272	67	4428
2026-01-10 04:11:28.73	262.73	16.33	-49.5	-51.2	15.9	6.04e-01	0	23	0	326107136	67	4466
2026-01-10 04:11:29.74	262.59	16.23	-49.4	-51.2	15.9	6.04e-01	0	23	0	328204288	67	4457
2026-01-10 04:11:30.74	262.45	16.12	-49.5	-51.2	15.9	6.01e-01	0	23	0	329777152	67	4474
2026-01-10 04:11:31.74	262.32	16.02	-49.5	-51.3	15.9	6.02e-01	0	23	0	331874304	67	4496
2026-01-10 04:11:32.74	262.18	15.92	-49.3	-51.1	16.0	6.02e-01	0	23	0	333971456	67	4396
2026-01-10 04:11:33.73	262.05	15.81	-49.2	-50.9	16.0	6.03e-01	0	23	0	335544320	67	4328
2026-01-10 04:11:34.72	261.91	15.71	-49.3	-51.0	16.0	5.99e-01	0	23	0	337641472	67	4352
2026-01-10 04:11:35.72	261.78	15.61	-49.2	-50.9	16.0	6.02e-01	0	23	0	339214336	67	4338
2026-01-10 04:11:36.71	261.65	15.51	-49.3	-51.0	16.0	6.02e-01	0	23	0	341311488	67	4358
2026-01-10 04:11:37.71	261.52	15.40	-49.3	-51.0	16.0	6.03e-01	0	23	0	342884352	67	4350
2026-01-10 04:11:38.71	261.39	15.30	-49.4	-51.2	15.9	6.01e-01	0	23	0	344981504	67	4448
2026-01-10 04:11:39.71	261.26	15.20	-49.5	-51.3	15.9	6.02e-01	0	23	0	347078656	67	4512
2026-01-10 04:11:40.71	261.14	15.10	-49.5	-51.3	15.9	6.01e-01	0	23	0	348651520	67	4527
2026-01-10 04:11:41.71	261.01	15.00	-49.6	-51.4	15.8	6.04e-01	0	23	0	350748672	67	4587
2026-01-10 04:11:42.71	260.88	14.90	-49.6	-51.4	15.8	6.02e-01	0	23	0	352321536	67	4565
2026-01-10 04:11:43.71	260.76	14.80	-49.7	-51.5	15.8	6.03e-01	0	23	0	354418688	67	4604
2026-01-10 04:11:44.71	260.63	14.70	-49.6	-51.4	15.8	6.02e-01	0	23	0	355991552	67	4575
2026-01-10 04:11:45.70	260.51	14.60	-49.5	-51.3	15.9	6.03e-01	0	23	0	358088704	67	4500
2026-01-10 04:11:46.70	260.39	14.50	-49.4	-51.2	15.9	6.04e-01	0	23	0	360185856	67	4442
2026-01-10 04:11:47.71	260.27	14.40	-49.3	-51.1	16.0	6.05e-01	0	23	0	361758720	67	4396
2026-01-10 04:11:48.70	260.15	14.30	-49.4	-51.1	15.9	6.01e-01	0	23	0	363855872	67	4417
2026-01-10 04:11:49.71	260.03	14.21	-49.4	-51.1	15.9	6.02e-01	0	23	0	365428736	67	4430
2026-01-10 04:11:50.70	259.91	14.11	-49.5	-51.2	15.9	6.00e-01	0	23	0	367525888	67	4469
2026-01-10 04:11:51.71	259.79	14.01	-49.4	-51.2	15.9	6.05e-01	0	23	0	369623040	67	4449
2026-01-10 04:11:52.71	259.67	13.91	-49.4	-51.2	15.9	6.03e-01	0	23	0	371195904	67	4461
2026-01-10 04:11:53.70	259.56	13.82	-49.6	-51.4	15.8	6.04e-01	0	23	0	373293056	67	4560
2026-01-10 04:11:54.71	259.44	13.72	-49.6	-51.4	15.8	6.03e-01	0	23	0	374865920	67	4564
2026-01-10 04:11:55.71	259.33	13.62	-49.7	-51.5	15.8	6.03e-01	0	23	0	376963072	67	4607
2026-01-10 04:11:56.72	259.21	13.53	-49.8	-51.6	15.7	6.04e-01	0	23	0	378535936	67	4689
2026-01-10 04:11:57.72	259.10	13.43	-49.6	-51.4	15.8	6.04e-01	0	23	0	380633088	67	4562
2026-01-10 04:11:58.71	258.99	13.34	-49.6	-51.3	15.8	6.02e-01	0	23	0	382730240	67	4539
2026-01-10 04:11:59.71	258.88	13.24	-49.6	-51.4	15.8	6.04e-01	0	23	0	384303104	67	4551
2026-01-10 04:12:00.70	258.77	13.15	-49.5	-51.2	15.9	6.03e-01	0	23	0	386400256	67	4489
2026-01-10 04:12:01.70	258.66	13.05	-49.4	-51.1	16.0	6.02e-01	0	23	0	387973120	67	4425
2026-01-10 04:12:02.70	258.55	12.96	-49.5	-51.2	15.9	6.02e-01	0	23	0	390070272	67	4482
2026-01-10 04:12:03.70	258.44	12.86	-49.5	-51.3	15.9	6.03e-01	0	23	0	391643136	67	4498
2026-01-10 04:12:04.70	258.33	12.77	-49.5	-51.3	15.9	6.04e-01	0	23	0	393740288	67	4506
2026-01-10 04:12:05.70	258.23	12.68	-49.6	-51.4	15.8	6.03e-01	0	23	0	395837440	67	4569
2026-01-10 04:12:06.69	258.12	12.59	-49.6	-51.4	15.8	6.01e-01	0	23	0	397410304	67	4582
2026-01-10 04:12:07.70	258.02	12.49	-49.6	-51.4	15.9	6.05e-01	0	23	0	399507456	67	4575
2026-01-10 04:12:08.70	257.91	12.40	-49.6	-51.4	15.8	6.04e-01	0	23	0	401080320	67	4578
2026-01-10 04:12:09.70	257.81	12.31	-49.6	-51.4	15.9	6.03e-01	0	23	0	403177472	67	4548
2026-01-10 04:12:10.70	257.70	12.22	-49.7	-51.5	15.8	6.05e-01	0	23	0	404750336	67	4605
2026-01-10 04:12:11.70	257.60	12.12	-49.6	-51.4	15.9	6.03e-01	0	23	0	406847488	67	4551
2026-01-10 04:12:12.70	257.50	12.03	-49.6	-51.4	15.9	6.03e-01	0	23	0	408944640	67	4561
2026-01-10 04:12:13.71	257.40	11.94	-49.7	-51.5	15.8	6.05e-01	0	23	0	410517504	67	4636
2026-01-10 04:12:14.70	257.30	11.85	-49.7	-51.6	15.8	6.03e-01	0	23	0	412614656	67	4653
2026-01-10 04:12:15.71	257.20	11.76	-49.8	-51.6	15.8	6.03e-01	0	23	0	414187520	67	4679
2026-01-10 04:12:16.71	257.10	11.67	-49.8	-51.6	15.7	6.02e-01	0	23	0	416284672	67	4695
2026-01-10 04:12:17.70	257.00	11.58	-49.8	-51.7	15.7	6.02e-01	0	23	0	417857536	67	4730
2026-01-10 04:12:18.70	256.90	11.49	-49.8	-51.7	15.7	6.05e-01	0	23	0	419954688	67	4717
2026-01-10 04:12:19.70	256.81	11.40	-49.9	-51.7	15.7	6.00e-01	0	23	0	422051840	67	4747
2026-01-10 04:12:20.69	256.71	11.31	-49.8	-51.6	15.7	6.04e-01	0	23	0	423624704	67	4682
2026-01-10 04:12:21.69	256.62	11.23	-49.7	-51.5	15.8	6.03e-01	0	23	0	425721856	67	4638
2026-01-10 04:12:22.70	256.52	11.14	-49.8	-51.7	15.7	6.02e-01	0	23	0	427294720	67	4708
2026-01-10 04:12:23.70	256.43	11.05	-49.8	-51.6	15.7	6.04e-01	0	23	0	429391872	67	4698
2026-01-10 04:12:24.69	256.33	10.96	-49.7	-51.5	15.8	6.01e-01	0	23	0	431489024	67	4642
2026-01-10 04:12:25.68	256.24	10.88	-49.8	-51.6	15.7	6.01e-01	0	23	0	433061888	67	4679
2026-01-10 04:12:26.68	256.15	10.79	-49.8	-51.7	15.7	6.04e-01	0	23	0	435159040	67	4742
2026-01-10 04:12:27.69	256.06	10.70	-49.9	-51.8	15.7	6.03e-01	0	23	0	436731904	67	4779
2026-01-10 04:12:28.68	255.96	10.61	-49.9	-51.8	15.7	6.02e-01	0	23	0	438829056	67	4769
2026-01-10 04:12:29.68	255.87	10.53	-49.8	-51.7	15.7	6.05e-01	0	23	0	440401920	67	4723
2026-01-10 04:12:30.68	255.78	10.44	-49.9	-51.8	15.7	6.03e-01	0	23	0	442499072	67	4765
2026-01-10 04:12:31.68	255.69	10.36	-49.8	-51.7	15.7	6.06e-01	0	23	0	444071936	67	4718
2026-01-10 04:12:32.68	255.61	10.27	-49.9	-51.8	15.7	6.03e-01	0	23	0	446169088	67	4774
2026-01-10 04:12:33.68	255.52	10.19	-50.0	-51.9	15.6	6.02e-01	0	23	0	448266240	67	4855
2026-01-10 04:12:34.68	255.43	10.10	-49.9	-51.8	15.7	6.03e-01	0	24	0	449839104	67	4795
2026-01-10 04:12:35.68	255.34	10.02	-49.9	-51.8	15.7	6.02e-01	0	23	0	451936256	67	4777
2026-01-10 04:12:36.68	255.25	9.93	-49.9	-51.8	15.7	6.01e-01	0	23	0	453509120	67	4777
2026-01-10 04:12:37.69	255.17	9.85	-50.0	-51.9	15.7	6.02e-01	0	23	0	455606272	67	4849
2026-01-10 04:12:38.69	255.08	9.76	-50.0	-51.9	15.6	6.03e-01	0	23	0	457179136	67	4862
2026-01-10 04:12:39.68	255.00	9.68	-50.0	-51.9	15.7	6.03e-01	0	23	0	459276288	67	4822
2026-01-10 04:12:40.68	254.91	9.59	-50.0	-51.9	15.6	6.04e-01	0	23	0	461373440	67	4854
2026-01-10 04:12:41.68	254.83	9.51	-50.1	-52.0	15.6	6.05e-01	0	23	0	462946304	67	4925
2026-01-10 04:12:42.67	254.75	9.43	-50.1	-52.0	15.6	6.05e-01	0	23	0	465043456	67	4923
2026-01-10 04:12:43.67	254.66	9.35	-50.2	-52.1	15.7	6.03e-01	0	23	0	466616320	68	4705
2026-01-10 04:12:44.66	254.58	9.26	-50.1	-52.1	15.7	6.02e-01	0	23	0	468713472	68	4673
2026-01-10 04:12:45.66	254.50	9.18	-50.2	-52.1	15.7	6.04e-01	0	23	0	470286336	68	4687
2026-01-10 04:12:46.67	254.42	9.10	-50.1	-52.0	15.7	6.02e-01	0	23	0	472383488	68	4640
2026-01-10 04:12:47.67	254.34	9.02	-50.1	-52.0	15.8	6.04e-01	0	23	0	474480640	68	4643
2026-01-10 04:12:48.67	254.26	8.94	-50.1	-52.0	15.8	6.02e-01	0	23	0	476053504	68	4621
2026-01-10 04:12:49.67	254.18	8.86	-50.2	-52.1	15.7	6.03e-01	0	23	0	478150656	68	4677
2026-01-10 04:12:50.67	254.10	8.77	-50.1	-52.0	15.8	6.02e-01	0	23	0	479723520	68	4642
2026-01-10 04:12:51.68	254.02	8.69	-50.2	-52.2	15.7	6.03e-01	0	23	0	481820672	68	4717
2026-01-10 04:12:52.67	253.94	8.61	-50.2	-52.1	15.7	6.03e-01	0	23	0	483393536	68	4684
2026-01-10 04:12:53.66	253.86	8.53	-50.3	-52.2	15.7	6.02e-01	0	23	0	485490688	68	4749
2026-01-10 04:12:54.66	253.79	8.45	-50.3	-52.3	15.7	6.02e-01	0	23	0	487587840	68	4806
2026-01-10 04:12:55.66	253.71	8.37	-50.3	-52.3	15.7	6.02e-01	0	23	0	489160704	68	4786
2026-01-10 04:12:56.66	253.63	8.29	-50.3	-52.3	15.7	6.03e-01	0	23	0	491257856	68	4797
2026-01-10 04:12:57.65	253.56	8.22	-50.2	-52.2	15.7	6.03e-01	0	23	0	492830720	68	4735
2026-01-10 04:12:58.66	253.48	8.14	-50.3	-52.3	15.6	6.05e-01	0	23	0	494927872	68	4810
2026-01-10 04:12:59.65	253.41	8.06	-50.3	-52.3	15.7	6.02e-01	0	23	0	497025024	68	4779
2026-01-10 04:13:00.65	253.33	7.98	-50.3	-52.3	15.6	6.04e-01	0	23	0	498597888	68	4802
2026-01-10 04:13:01.65	253.26	7.90	-50.4	-52.4	15.6	6.04e-01	0	23	0	500695040	68	4828
2026-01-10 04:13:02.65	253.19	7.82	-50.2	-52.2	15.7	6.03e-01	0	23	0	502267904	68	4741
2026-01-10 04:13:03.64	253.11	7.74	-50.3	-52.3	15.6	6.02e-01	0	23	0	504365056	68	4793
2026-01-10 04:13:04.64	253.04	7.67	-50.3	-52.3	15.6	6.03e-01	0	23	0	505937920	68	4791
2026-01-10 04:13:05.64	252.97	7.59	-50.4	-52.4	15.6	6.03e-01	0	23	0	508035072	68	4833
2026-01-10 04:13:06.63	252.90	7.51	-50.4	-52.4	15.6	6.04e-01	0	23	0	509607936	68	4870
2026-01-10 04:13:07.63	252.83	7.44	-50.4	-52.4	15.6	6.03e-01	0	23	0	511705088	68	4870
2026-01-10 04:13:08.63	252.75	7.36	-50.4	-52.4	15.6	6.02e-01	0	23	0	513802240	68	4848
2026-01-10 04:13:09.63	252.68	7.28	-50.4	-52.4	15.6	6.03e-01	0	23	0	515375104	68	4850
2026-01-10 04:13:10.63	252.61	7.20	-50.5	-52.5	15.6	6.02e-01	0	23	0	517472256	68	4901
2026-01-10 04:13:11.63	252.54	7.13	-50.6	-52.7	15.5	6.04e-01	0	23	0	519045120	68	4993
2026-01-10 04:13:12.62	252.47	7.05	-50.5	-52.6	15.5	6.04e-01	0	23	0	521142272	68	4935
2026-01-10 04:13:13.62	252.41	6.98	-50.5	-52.6	15.5	6.02e-01	0	23	0	522715136	68	4954
2026-01-10 04:13:14.63	252.34	6.90	-50.6	-52.7	15.7	6.04e-01	0	23	0	524812288	69	4715
2026-01-10 04:13:15.62	252.27	6.83	-50.6	-52.8	15.6	6.05e-01	0	23	0	526909440	69	4770
2026-01-10 04:13:16.62	252.20	6.75	-50.6	-52.7	15.7	6.05e-01	0	23	0	528482304	69	4712
2026-01-10 04:13:17.62	252.13	6.68	-50.6	-52.7	15.7	6.03e-01	0	23	0	530579456	69	4715
2026-01-10 04:13:18.62	252.07	6.60	-50.6	-52.7	15.6	6.03e-01	0	23	0	532152320	69	4747
2026-01-10 04:13:19.62	252.00	6.53	-50.6	-52.8	15.6	6.04e-01	0	23	0	534249472	69	4772
2026-01-10 04:13:20.62	251.93	6.45	-50.5	-52.7	15.7	6.04e-01	0	23	0	535822336	69	4709
2026-01-10 04:13:21.62	251.87	6.38	-50.7	-52.8	15.6	6.02e-01	0	23	0	537919488	69	4805
2026-01-10 04:13:22.62	251.80	6.30	-50.7	-52.9	15.6	6.01e-01	0	23	0	540016640	69	4825
2026-01-10 04:13:23.61	251.74	6.23	-50.7	-52.8	15.6	6.03e-01	0	23	0	541589504	69	4794
2026-01-10 04:13:24.60	251.67	6.16	-50.5	-52.5	15.7	6.05e-01	0	23	0	543686656	69	4648
2026-01-10 04:13:25.60	251.61	6.08	-50.6	-52.7	15.6	6.04e-01	0	23	0	545259520	69	4744
2026-01-10 04:13:26.61	251.55	6.01	-50.7	-52.8	15.5	6.03e-01	0	23	0	547356672	69	4806
2026-01-10 04:13:27.61	251.48	5.94	-50.6	-52.7	15.6	6.03e-01	0	23	0	548929536	69	4755
2026-01-10 04:13:28.60	251.42	5.87	-50.7	-52.8	15.5	6.03e-01	0	23	0	551026688	69	4811
2026-01-10 04:13:29.59	251.36	5.79	-50.5	-52.6	15.6	6.03e-01	0	23	0	553123840	69	4690
2026-01-10 04:13:30.60	251.29	5.72	-50.6	-52.7	15.6	6.03e-01	0	23	0	554696704	69	4755
2026-01-10 04:13:31.60	251.23	5.65	-50.6	-52.7	15.6	6.03e-01	0	23	0	556793856	69	4754
2026-01-10 04:13:32.60	251.17	5.58	-50.5	-52.6	15.7	6.03e-01	0	23	0	558366720	69	4678
2026-01-10 04:13:33.60	251.11	5.50	-50.7	-52.9	15.5	6.03e-01	0	23	0	560463872	69	4828
2026-01-10 04:13:34.58	251.05	5.43	-50.7	-52.9	15.5	6.05e-01	0	23	0	562036736	69	4849
2026-01-10 04:13:35.58	250.99	5.36	-50.6	-52.8	15.6	6.03e-01	0	23	0	564133888	69	4762
2026-01-10 04:13:36.57	250.93	5.29	-50.7	-52.9	15.6	6.04e-01	0	23	0	565706752	69	4832
2026-01-10 04:13:37.57	250.87	5.22	-50.6	-52.8	15.6	6.04e-01	0	23	0	567803904	69	4778
2026-01-10 04:13:38.56	250.81	5.15	-50.6	-52.7	15.6	6.03e-01	0	23	0	569901056	69	4738
2026-01-10 04:13:39.56	250.75	5.08	-50.7	-52.9	15.5	6.04e-01	0	23	0	571473920	69	4833
2026-01-10 04:13:40.55	250.69	5.01	-54.8	-59.6	14.0	6.03e-01	0	23	0	573571072	77	6578
2026-01-10 04:13:41.55	250.63	4.94	-57.6	-76.8	3.8	7.46e-01	0	23	104	573571072	82	35714
2026-01-10 04:13:42.55	250.57	4.87	-57.9	-77.2	3.8	7.46e-01	0	23	104	573571072	83	35380
2026-01-10 04:13:43.55	250.52	4.80	-58.0	-77.4	3.8	7.46e-01	0	23	104	573571072	83	36280
2026-01-10 04:13:44.55	250.46	4.73	-58.4	-77.7	3.8	7.46e-01	0	24	104	573571072	84	35578
2026-01-10 04:13:45.55	250.40	4.66	-58.5	-77.8	3.8	7.46e-01	0	23	104	573571072	84	35945
2026-01-10 04:13:46.55	250.34	4.59	-58.6	-77.9	3.8	7.46e-01	0	23	104	573571072	84	36420
2026-01-10 04:13:47.55	250.29	4.52	-58.7	-78.0	3.8	7.47e-01	0	23	104	573571072	85	34848
2026-01-10 04:13:48.56	250.23	4.45	-58.8	-78.1	3.8	7.46e-01	0	23	104	573571072	85	35207
2026-01-10 04:13:49.56	250.17	4.38	-58.8	-78.2	3.8	7.50e-01	0	23	104	573571072	85	35396
2026-01-10 04:13:50.56	250.12	4.31	-58.9	-78.2	3.8	7.47e-01	0	23	104	573571072	85	35608
2026-01-10 04:13:51.56	250.06	4.24	-58.9	-78.3	3.8	7.47e-01	0	24	104	573571072	85	35746
2026-01-10 04:13:52.56	250.01	4.18	-58.9	-78.3	3.8	7.46e-01	0	23	104	573571072	85	35920
2026-01-10 04:13:53.56	249.95	4.11	-59.0	-78.3	3.8	7.48e-01	0	23	104	573571072	85	36030
2026-01-10 04:13:54.56	249.90	4.04	-59.0	-78.4	3.8	7.42e-01	0	23	104	573571072	85	36109
2026-01-10 04:13:55.56	249.84	3.97	-59.0	-78.4	3.8	7.47e-01	0	23	104	573571072	85	36162
2026-01-10 04:13:56.56	249.79	3.90	-59.0	-78.4	3.8	7.47e-01	0	23	104	573571072	85	36118
2026-01-10 04:13:57.56	249.73	3.84	-59.0	-78.4	3.8	7.45e-01	0	24	104	573571072	85	36216
2026-01-10 04:13:58.56	249.68	3.77	-59.0	-78.4	3.8	7.48e-01	0	23	104	573571072	85	36157
2026-01-10 04:13:59.56	249.63	3.70	-59.0	-78.4	3.8	7.49e-01	0	23	104	573571072	85	36296
2026-01-10 04:14:00.56	249.57	3.63	-59.0	-78.4	3.8	7.48e-01	0	23	104	573571072	85	36368
2026-01-10 04:14:01.56	249.52	3.57	-59.1	-78.4	3.8	7.46e-01	0	23	104	573571072	85	36421
2026-01-10 04:14:02.56	249.47	3.50	-59.1	-78.5	3.8	7.45e-01	0	23	104	573571072	86	34669
2026-01-10 04:14:03.56	249.42	3.43	-59.1	-78.4	3.8	7.42e-01	0	23	104	573571072	86	34472
2026-01-10 04:14:04.56	249.36	3.37	-59.1	-78.4	3.8	7.48e-01	0	23	104	573571072	86	34342
2026-01-10 04:14:05.55	249.31	3.30	-59.0	-78.4	3.8	7.44e-01	0	23	104	573571072	86	34305
2026-01-10 04:14:06.56	249.26	3.23	-59.0	-78.4	3.8	7.48e-01	0	23	104	573571072	86	34149
2026-01-10 04:14:07.55	249.21	3.17	-59.0	-78.4	3.8	7.47e-01	0	23	104	573571072	86	34190
2026-01-10 04:14:08.56	249.16	3.10	-59.0	-78.4	3.8	7.45e-01	0	23	104	573571072	86	34255
2026-01-10 04:14:09.55	249.11	3.04	-59.0	-78.4	3.8	7.46e-01	0	23	104	573571072	86	34169
2026-01-10 04:14:10.55	249.06	2.97	-59.0	-78.4	3.8	7.46e-01	0	24	104	573571072	86	34160
2026-01-10 04:14:11.55	249.01	2.91	-59.0	-78.3	3.8	7.44e-01	0	23	104	573571072	86	34038
2026-01-10 04:14:12.55	248.96	2.84	-59.0	-78.3	3.8	7.42e-01	0	23	104	573571072	86	34077
2026-01-10 04:14:13.55	248.91	2.78	-59.0	-78.3	3.8	7.50e-01	0	23	104	573571072	86	34024
