passes_logs/2026/01/10/R3.2S_Murmansk/R3.2S_Murmansk__20260110_134405_FENGYUN_3D_rec.log

#Pass ID: 20260110_134405_FENGYUN 3D
#Satellite: FENGYUN 3D
#Configuration: FENGYUN 3D
#almurnet v.1.7.20251203
#Start time: 2026-01-10 13:44:05

#Version: 2.2.20231116
#Station: R3.2S_Murmansk
#Location: 33.079688 lon 68.888172 lat
#TLE: 1 43010U 17072A   26009.92921666 -.00000228  00000+0 -86059-4 0  9998
#TLE: 2 43010  98.9936 341.6668 0002176 116.7510 243.3888 14.19693142422537

#Time	Az	El	Level	Level2	SNR	BER	BlckErr	Temp	State	Recorded	gain1	gain2
2026-01-10 13:44:05.41	206.42	2.02	-57.4	-70.4	3.8	8.46e-01	0	21	0	0	81	15592
2026-01-10 13:44:06.40	206.49	2.07	-57.3	-70.2	3.8	8.46e-01	0	21	104	0	79	17138
2026-01-10 13:44:07.40	206.55	2.13	-57.3	-70.2	3.8	8.46e-01	0	21	104	0	79	17098
2026-01-10 13:44:08.40	206.62	2.19	-57.3	-70.2	3.8	8.46e-01	0	21	104	0	79	17168
2026-01-10 13:44:09.40	206.69	2.24	-57.3	-70.2	3.8	8.45e-01	0	21	104	0	79	17207
2026-01-10 13:44:10.39	206.75	2.30	-57.3	-70.2	3.8	8.46e-01	0	21	104	0	79	17267
2026-01-10 13:44:11.40	206.82	2.36	-57.3	-70.2	3.8	8.45e-01	0	21	104	0	79	17278
2026-01-10 13:44:12.40	206.88	2.41	-57.3	-70.3	3.8	8.45e-01	0	21	104	0	79	17400
2026-01-10 13:44:13.41	206.95	2.47	-57.3	-70.3	3.8	8.46e-01	0	21	104	0	79	17341
2026-01-10 13:44:14.41	207.02	2.53	-57.3	-70.3	3.8	8.45e-01	0	21	104	0	79	17314
2026-01-10 13:44:15.41	207.09	2.59	-57.3	-70.2	3.8	8.46e-01	0	21	104	0	79	17268
2026-01-10 13:44:16.41	207.15	2.64	-57.4	-70.3	3.8	8.46e-01	0	21	104	0	79	17314
2026-01-10 13:44:17.41	207.22	2.70	-57.3	-70.2	3.8	8.45e-01	0	21	104	0	79	17272
2026-01-10 13:44:18.41	207.29	2.76	-57.3	-70.2	3.8	8.46e-01	0	21	104	0	79	17199
2026-01-10 13:44:19.40	207.36	2.82	-57.3	-70.3	3.8	8.45e-01	0	21	104	0	79	17371
2026-01-10 13:44:20.40	207.43	2.87	-57.3	-70.3	3.8	8.46e-01	0	22	104	0	79	17360
2026-01-10 13:44:21.40	207.50	2.93	-57.3	-70.3	3.8	8.46e-01	0	22	104	0	79	17412
2026-01-10 13:44:22.39	207.56	2.99	-57.3	-70.3	3.8	8.45e-01	0	22	104	0	79	17428
2026-01-10 13:44:23.39	207.63	3.05	-57.3	-70.3	3.8	8.45e-01	0	22	104	0	79	17319
2026-01-10 13:44:24.40	207.70	3.11	-57.3	-70.3	3.8	8.44e-01	0	22	104	0	79	17366
2026-01-10 13:44:25.39	207.77	3.17	-57.3	-70.2	3.8	8.46e-01	0	21	104	0	79	17270
2026-01-10 13:44:26.39	207.84	3.22	-57.3	-70.2	3.8	8.46e-01	0	22	104	0	79	17168
2026-01-10 13:44:27.39	207.91	3.28	-57.3	-70.2	3.8	8.46e-01	0	22	104	0	79	17109
2026-01-10 13:44:28.39	207.98	3.34	-57.3	-70.1	3.8	8.45e-01	0	22	104	0	79	17042
2026-01-10 13:44:29.39	208.06	3.40	-57.3	-70.1	3.8	8.45e-01	0	22	104	0	79	16895
2026-01-10 13:44:30.40	208.13	3.46	-57.3	-69.9	3.8	8.46e-01	0	22	104	0	79	16543
2026-01-10 13:44:31.39	208.20	3.52	-57.3	-69.9	3.8	8.46e-01	0	22	104	0	79	16533
2026-01-10 13:44:32.39	208.27	3.58	-57.3	-69.9	3.8	8.45e-01	0	22	104	0	79	16613
2026-01-10 13:44:33.39	208.34	3.63	-57.3	-69.8	3.8	8.45e-01	0	22	104	0	79	16369
2026-01-10 13:44:34.39	208.42	3.69	-57.3	-69.7	3.8	8.45e-01	0	22	104	0	79	16177
2026-01-10 13:44:35.38	208.49	3.75	-57.3	-69.6	3.8	8.46e-01	0	22	104	0	79	16061
2026-01-10 13:44:36.38	208.56	3.81	-57.3	-69.3	3.8	8.46e-01	0	22	104	0	79	15580
2026-01-10 13:44:37.38	208.63	3.87	-57.3	-69.4	3.8	8.45e-01	0	22	104	0	79	15717
2026-01-10 13:44:38.37	208.71	3.93	-57.2	-69.2	3.8	8.45e-01	0	22	104	0	79	15367
2026-01-10 13:44:39.37	208.78	3.99	-57.3	-69.4	3.8	8.45e-01	0	22	104	0	79	15651
2026-01-10 13:44:40.37	208.85	4.05	-57.3	-69.9	3.8	8.46e-01	0	22	104	0	79	16607
2026-01-10 13:44:41.36	208.93	4.11	-57.3	-70.2	3.8	8.45e-01	0	22	104	0	79	17205
2026-01-10 13:44:42.36	209.00	4.17	-57.3	-70.2	3.8	8.47e-01	0	22	104	0	79	17281
2026-01-10 13:44:43.36	209.08	4.23	-57.3	-69.9	3.8	8.45e-01	0	22	104	0	79	16585
2026-01-10 13:44:44.36	209.15	4.29	-57.2	-68.8	3.8	8.45e-01	0	22	104	0	79	14556
2026-01-10 13:44:45.36	209.23	4.35	-57.1	-67.4	4.1	8.41e-01	0	22	0	0	79	12422
2026-01-10 13:44:46.35	209.30	4.41	-57.0	-66.2	4.3	8.34e-01	0	22	0	0	79	10898
2026-01-10 13:44:47.36	209.38	4.47	-56.9	-65.4	4.6	8.17e-01	0	22	0	0	79	9916
2026-01-10 13:44:48.35	209.46	4.53	-56.8	-64.7	5.0	7.70e-01	0	22	0	0	79	9174
2026-01-10 13:44:49.36	209.53	4.59	-56.8	-65.0	4.9	7.82e-01	0	22	0	0	79	9423
2026-01-10 13:44:50.36	209.61	4.65	-56.7	-64.2	5.3	7.30e-01	0	22	0	0	79	8595
2026-01-10 13:44:51.36	209.69	4.71	-56.7	-64.5	5.1	7.30e-01	0	22	0	0	79	8889
2026-01-10 13:44:52.36	209.76	4.77	-56.6	-63.8	5.6	6.34e-01	0	22	0	0	79	8204
2026-01-10 13:44:53.37	209.84	4.83	-56.3	-62.5	6.4	2.93e-01	0	22	0	5242880	79	7102
2026-01-10 13:44:54.37	209.92	4.89	-55.5	-60.3	8.3	7.77e-02	0	22	0	11534336	77	6157
2026-01-10 13:44:55.37	210.00	4.96	-54.8	-58.6	9.8	7.93e-03	0	22	0	16777216	76	5367
2026-01-10 13:44:56.37	210.08	5.02	-54.4	-57.9	10.3	2.60e-03	0	22	0	22020096	75	5266
2026-01-10 13:44:57.37	210.16	5.08	-54.0	-57.2	10.9	6.13e-04	0	22	0	28311552	74	5135
2026-01-10 13:44:58.37	210.24	5.14	-55.8	-61.1	7.7	4.97e-03	0	22	0	33554432	76	7200
2026-01-10 13:44:59.36	210.32	5.20	-56.6	-63.9	4.6	8.45e-01	0	22	104	34603008	79	8321
2026-01-10 13:45:00.36	210.40	5.26	-50.8	-52.6	13.6	0.00e+00	0	22	0	37748736	66	4810
2026-01-10 13:45:01.35	210.48	5.32	-51.9	-53.9	13.2	2.78e-04	0	22	0	44040192	70	4434
2026-01-10 13:45:02.35	210.56	5.39	-49.2	-50.7	14.5	0.00e+00	0	22	0	49283072	64	4335
2026-01-10 13:45:03.35	210.64	5.45	-49.2	-50.7	14.6	0.00e+00	0	22	0	55574528	64	4309
2026-01-10 13:45:04.36	210.72	5.51	-49.1	-50.6	14.6	0.00e+00	0	22	0	60817408	64	4266
2026-01-10 13:45:05.35	210.80	5.57	-48.8	-50.3	14.8	0.00e+00	0	22	0	66060288	64	4129
2026-01-10 13:45:06.35	210.88	5.63	-48.9	-50.4	14.8	0.00e+00	0	22	0	71303168	64	4169
2026-01-10 13:45:07.35	210.97	5.70	-48.7	-50.1	15.0	0.00e+00	0	22	0	77594624	64	4027
2026-01-10 13:45:08.35	211.05	5.76	-48.7	-50.2	14.7	0.00e+00	0	22	0	82837504	63	4313
2026-01-10 13:45:09.35	211.13	5.82	-48.7	-50.2	14.7	0.00e+00	0	22	0	88080384	63	4305
2026-01-10 13:45:10.34	211.21	5.88	-48.5	-49.9	14.9	0.00e+00	0	22	0	94371840	63	4158
2026-01-10 13:45:11.35	211.30	5.95	-48.2	-49.6	15.1	0.00e+00	0	23	0	99614720	63	4020
2026-01-10 13:45:12.35	211.38	6.01	-48.3	-49.7	15.1	0.00e+00	0	22	0	105906176	63	4052
2026-01-10 13:45:13.35	211.47	6.07	-48.1	-49.5	15.0	0.00e+00	0	22	0	111149056	62	4201
2026-01-10 13:45:14.34	211.55	6.13	-48.2	-49.5	15.0	0.00e+00	0	22	0	116391936	62	4217
2026-01-10 13:45:15.33	211.64	6.20	-48.5	-49.8	14.8	0.00e+00	0	22	0	122683392	62	4391
2026-01-10 13:45:16.34	211.72	6.26	-48.1	-49.4	15.0	0.00e+00	0	23	0	127926272	62	4192
2026-01-10 13:45:17.33	211.81	6.32	-48.2	-49.5	15.0	0.00e+00	0	23	0	133169152	62	4228
2026-01-10 13:45:18.34	211.89	6.39	-48.3	-49.6	14.9	0.00e+00	0	22	0	139460608	62	4286
2026-01-10 13:45:19.33	211.98	6.45	-48.2	-49.5	15.0	0.00e+00	0	22	0	144703488	62	4232
2026-01-10 13:45:20.33	212.07	6.51	-47.9	-49.2	15.2	0.00e+00	0	22	0	150994944	62	4073
2026-01-10 13:45:21.33	212.15	6.58	-48.2	-49.6	15.0	0.00e+00	0	22	0	156237824	62	4245
2026-01-10 13:45:22.33	212.24	6.64	-48.2	-49.6	15.0	0.00e+00	0	23	0	161480704	62	4244
2026-01-10 13:45:23.33	212.33	6.71	-48.0	-49.3	15.2	0.00e+00	0	22	0	167772160	62	4112
2026-01-10 13:45:24.33	212.42	6.77	-48.1	-49.5	15.0	0.00e+00	0	23	0	173015040	62	4204
2026-01-10 13:45:25.33	212.51	6.83	-48.1	-49.5	15.0	0.00e+00	0	23	0	178257920	62	4209
2026-01-10 13:45:26.33	212.60	6.90	-48.2	-49.6	15.0	0.00e+00	0	22	0	184549376	62	4257
2026-01-10 13:45:27.33	212.68	6.96	-48.3	-49.6	14.9	0.00e+00	0	23	0	189792256	62	4286
2026-01-10 13:45:28.33	212.77	7.03	-48.1	-49.4	15.1	0.00e+00	0	23	0	195035136	62	4182
2026-01-10 13:45:29.33	212.86	7.09	-48.3	-49.7	14.9	0.00e+00	0	22	0	201326592	62	4302
2026-01-10 13:45:30.32	212.95	7.16	-48.4	-49.7	14.9	0.00e+00	0	23	0	206569472	62	4328
2026-01-10 13:45:31.32	213.05	7.22	-48.3	-49.7	14.9	0.00e+00	0	22	0	212860928	62	4317
2026-01-10 13:45:32.32	213.14	7.29	-48.4	-49.7	14.9	0.00e+00	0	23	0	218103808	62	4335
2026-01-10 13:45:33.31	213.23	7.35	-48.2	-49.5	15.0	0.00e+00	0	23	0	223346688	62	4242
2026-01-10 13:45:34.31	213.32	7.41	-48.3	-49.7	14.9	0.00e+00	0	23	0	229638144	62	4304
2026-01-10 13:45:35.31	213.41	7.48	-48.4	-49.8	14.9	0.00e+00	0	23	0	234881024	62	4368
2026-01-10 13:45:36.31	213.51	7.55	-48.3	-49.6	15.0	0.00e+00	0	23	0	240123904	62	4275
2026-01-10 13:45:37.30	213.60	7.61	-48.3	-49.7	15.0	0.00e+00	0	23	0	245366784	62	4292
2026-01-10 13:45:38.30	213.69	7.68	-48.1	-49.4	15.1	0.00e+00	0	23	0	251658240	62	4193
2026-01-10 13:45:39.29	213.79	7.74	-48.2	-49.5	15.0	0.00e+00	0	23	0	256901120	62	4221
2026-01-10 13:45:40.29	213.88	7.81	-48.2	-49.6	15.0	0.00e+00	0	22	0	263192576	62	4256
2026-01-10 13:45:41.28	213.97	7.87	-48.2	-49.6	15.0	0.00e+00	0	23	0	268435456	62	4255
2026-01-10 13:45:42.27	214.07	7.94	-47.9	-49.2	15.2	0.00e+00	0	23	0	273678336	62	4097
2026-01-10 13:45:43.27	214.16	8.00	-48.1	-49.4	15.1	0.00e+00	0	23	0	279969792	62	4164
2026-01-10 13:45:44.27	214.26	8.07	-48.0	-49.3	15.2	0.00e+00	0	23	0	285212672	62	4123
2026-01-10 13:45:45.26	214.36	8.13	-48.0	-49.3	15.2	0.00e+00	0	23	0	290455552	62	4122
2026-01-10 13:45:46.26	214.45	8.20	-47.9	-49.2	15.2	0.00e+00	0	23	0	296747008	62	4076
2026-01-10 13:45:47.26	214.55	8.27	-47.9	-49.2	15.2	0.00e+00	0	23	0	301989888	62	4083
2026-01-10 13:45:48.26	214.65	8.33	-48.0	-49.3	15.2	0.00e+00	0	23	0	307232768	62	4104
2026-01-10 13:45:49.26	214.75	8.40	-47.9	-49.2	15.2	0.00e+00	0	23	0	313524224	62	4061
2026-01-10 13:45:50.26	214.85	8.47	-48.0	-49.3	15.2	0.00e+00	0	23	0	318767104	62	4104
2026-01-10 13:45:51.27	214.95	8.53	-48.0	-49.3	15.2	0.00e+00	0	23	0	325058560	62	4105
2026-01-10 13:45:52.27	215.05	8.60	-47.9	-49.2	15.2	0.00e+00	0	23	0	330301440	62	4070
2026-01-10 13:45:53.27	215.15	8.67	-47.9	-49.2	15.2	0.00e+00	0	23	0	335544320	62	4085
2026-01-10 13:45:54.27	215.25	8.74	-47.8	-49.1	15.3	0.00e+00	0	23	0	341835776	62	4025
2026-01-10 13:45:55.27	215.35	8.80	-47.9	-49.1	15.3	0.00e+00	0	23	0	347078656	62	4044
2026-01-10 13:45:56.27	215.45	8.87	-47.9	-49.2	15.2	0.00e+00	0	23	0	352321536	62	4073
2026-01-10 13:45:57.27	215.55	8.94	-47.9	-49.1	15.3	0.00e+00	0	23	0	358612992	62	4046
2026-01-10 13:45:58.27	215.65	9.01	-47.8	-49.1	15.3	0.00e+00	0	23	0	363855872	62	4007
2026-01-10 13:45:59.28	215.76	9.07	-47.8	-49.0	15.3	0.00e+00	0	23	0	369098752	62	3999
2026-01-10 13:46:00.28	215.86	9.14	-47.7	-49.0	15.4	0.00e+00	0	23	0	375390208	62	3975
2026-01-10 13:46:01.27	215.96	9.21	-47.5	-48.8	15.3	0.00e+00	0	23	0	380633088	61	4101
2026-01-10 13:46:02.27	216.07	9.28	-47.5	-48.7	15.3	0.00e+00	0	23	0	386924544	61	4096
2026-01-10 13:46:03.28	216.17	9.35	-47.5	-48.7	15.3	0.00e+00	0	23	0	392167424	61	4097
2026-01-10 13:46:04.28	216.28	9.41	-47.4	-48.6	15.4	0.00e+00	0	23	0	397410304	61	4038
2026-01-10 13:46:05.27	216.38	9.48	-47.5	-48.8	15.3	0.00e+00	0	23	0	403701760	61	4101
2026-01-10 13:46:06.27	216.49	9.55	-47.5	-48.8	15.3	0.00e+00	0	23	0	408944640	61	4104
2026-01-10 13:46:07.27	216.59	9.62	-47.4	-48.6	15.4	0.00e+00	0	23	0	414187520	61	4034
2026-01-10 13:46:08.27	216.70	9.69	-47.4	-48.6	15.4	0.00e+00	0	23	0	420478976	61	4051
2026-01-10 13:46:09.27	216.81	9.76	-47.4	-48.6	15.4	0.00e+00	0	23	0	425721856	61	4036
2026-01-10 13:46:10.27	216.92	9.83	-47.4	-48.6	15.4	0.00e+00	0	23	0	430964736	61	4032
2026-01-10 13:46:11.28	217.03	9.90	-47.4	-48.6	15.4	0.00e+00	0	23	0	437256192	61	4036
2026-01-10 13:46:12.27	217.13	9.96	-47.5	-48.7	15.3	0.00e+00	0	23	0	442499072	61	4087
2026-01-10 13:46:13.27	217.24	10.03	-47.4	-48.7	15.4	0.00e+00	0	23	0	448790528	61	4063
2026-01-10 13:46:14.28	217.35	10.10	-47.5	-48.7	15.3	0.00e+00	0	23	0	454033408	61	4077
2026-01-10 13:46:15.28	217.46	10.17	-47.4	-48.6	15.4	0.00e+00	0	23	0	459276288	61	4027
2026-01-10 13:46:16.28	217.58	10.24	-47.3	-48.5	15.5	0.00e+00	0	23	0	465567744	61	3977
2026-01-10 13:46:17.27	217.69	10.31	-47.3	-48.6	15.4	0.00e+00	0	23	0	470810624	61	4012
2026-01-10 13:46:18.26	217.80	10.38	-47.2	-48.5	15.5	0.00e+00	0	23	0	476053504	61	3962
2026-01-10 13:46:19.26	217.91	10.45	-47.3	-48.6	15.4	0.00e+00	0	23	0	482344960	61	4022
2026-01-10 13:46:20.27	218.02	10.52	-47.4	-48.7	15.4	0.00e+00	0	23	0	487587840	61	4059
2026-01-10 13:46:21.27	218.14	10.59	-47.4	-48.7	15.4	0.00e+00	0	23	0	492830720	61	4052
2026-01-10 13:46:22.27	218.25	10.66	-47.4	-48.6	15.4	0.00e+00	0	23	0	499122176	61	4051
2026-01-10 13:46:23.27	218.37	10.73	-47.4	-48.7	15.4	0.00e+00	0	23	0	504365056	61	4066
2026-01-10 13:46:24.28	218.48	10.80	-47.4	-48.7	15.4	0.00e+00	0	23	0	510656512	61	4059
2026-01-10 13:46:25.28	218.60	10.87	-47.4	-48.7	15.4	0.00e+00	0	23	0	515899392	61	4062
2026-01-10 13:46:26.28	218.71	10.94	-47.3	-48.6	15.4	0.00e+00	0	23	0	521142272	61	4023
2026-01-10 13:46:27.28	218.83	11.01	-47.3	-48.5	15.5	0.00e+00	0	23	0	527433728	61	3988
2026-01-10 13:46:28.28	218.95	11.08	-47.1	-48.3	15.4	0.00e+00	0	23	0	532676608	60	4118
2026-01-10 13:46:29.28	219.06	11.16	-47.1	-48.3	15.4	0.00e+00	0	23	0	537919488	60	4119
2026-01-10 13:46:30.28	219.18	11.23	-47.2	-48.4	15.4	0.00e+00	0	23	0	544210944	60	4159
2026-01-10 13:46:31.28	219.30	11.30	-47.1	-48.3	15.4	0.00e+00	0	23	0	549453824	60	4135
2026-01-10 13:46:32.28	219.42	11.37	-47.1	-48.3	15.4	0.00e+00	0	23	0	554696704	60	4120
2026-01-10 13:46:33.28	219.54	11.44	-47.1	-48.4	15.4	0.00e+00	0	23	0	560988160	60	4147
2026-01-10 13:46:34.27	219.66	11.51	-47.2	-48.4	15.4	0.00e+00	0	23	0	566231040	60	4160
2026-01-10 13:46:35.27	219.78	11.58	-47.2	-48.4	15.3	0.00e+00	0	23	0	572522496	60	4176
2026-01-10 13:46:36.27	219.90	11.65	-47.1	-48.4	15.4	0.00e+00	0	23	0	577765376	60	4148
2026-01-10 13:46:37.26	220.02	11.72	-47.1	-48.3	15.4	0.00e+00	0	23	0	583008256	60	4145
2026-01-10 13:46:38.26	220.15	11.80	-47.1	-48.3	15.4	0.00e+00	0	23	0	589299712	60	4135
2026-01-10 13:46:39.25	220.27	11.87	-47.1	-48.3	15.4	0.00e+00	0	23	0	594542592	60	4118
2026-01-10 13:46:40.25	220.39	11.94	-47.1	-48.4	15.4	0.00e+00	0	23	0	599785472	60	4146
2026-01-10 13:46:41.24	220.52	12.01	-47.0	-48.2	15.4	0.00e+00	0	23	0	605028352	60	4096
2026-01-10 13:46:42.24	220.64	12.08	-47.1	-48.3	15.4	0.00e+00	0	23	0	611319808	60	4106
2026-01-10 13:46:43.24	220.77	12.15	-46.8	-47.9	15.6	0.00e+00	0	23	0	616562688	60	3951
2026-01-10 13:46:44.23	220.89	12.23	-46.7	-47.8	15.6	0.00e+00	0	23	0	622854144	60	3908
2026-01-10 13:46:45.24	221.02	12.30	-47.1	-48.3	15.3	0.00e+00	0	23	0	628097024	59	4359
2026-01-10 13:46:46.23	221.15	12.37	-47.2	-48.4	15.3	0.00e+00	0	23	0	633339904	59	4427
2026-01-10 13:46:47.24	221.28	12.44	-47.1	-48.4	15.3	0.00e+00	0	23	0	639631360	59	4394
2026-01-10 13:46:48.24	221.41	12.52	-47.2	-48.5	15.3	0.00e+00	0	23	0	644874240	59	4457
2026-01-10 13:46:49.24	221.53	12.59	-47.2	-48.4	15.3	0.00e+00	0	23	0	650117120	59	4431
2026-01-10 13:46:50.23	221.66	12.66	-47.2	-48.4	15.3	0.00e+00	0	23	0	656408576	59	4428
2026-01-10 13:46:51.23	221.79	12.73	-47.2	-48.4	15.3	0.00e+00	0	23	0	661651456	59	4438
2026-01-10 13:46:52.24	221.93	12.81	-47.2	-48.4	15.3	0.00e+00	0	23	0	666894336	59	4426
2026-01-10 13:46:53.24	222.06	12.88	-47.2	-48.4	15.3	0.00e+00	0	23	0	673185792	59	4437
2026-01-10 13:46:54.24	222.19	12.95	-47.3	-48.5	15.2	0.00e+00	0	23	0	678428672	59	4480
2026-01-10 13:46:55.24	222.32	13.03	-47.2	-48.4	15.3	0.00e+00	0	23	0	684720128	59	4416
2026-01-10 13:46:56.24	222.46	13.10	-47.2	-48.4	15.3	0.00e+00	0	23	0	689963008	59	4437
2026-01-10 13:46:57.24	222.59	13.17	-47.2	-48.4	15.3	0.00e+00	0	23	0	695205888	59	4417
2026-01-10 13:46:58.24	222.73	13.25	-47.1	-48.3	15.3	0.00e+00	0	23	0	701497344	59	4388
2026-01-10 13:46:59.24	222.86	13.32	-47.1	-48.3	15.3	0.00e+00	0	23	0	706740224	59	4377
2026-01-10 13:47:00.24	223.00	13.40	-47.1	-48.4	15.3	0.00e+00	0	23	0	711983104	59	4395
2026-01-10 13:47:01.24	223.14	13.47	-47.2	-48.4	15.3	0.00e+00	0	23	0	718274560	59	4435
2026-01-10 13:47:02.23	223.27	13.54	-47.2	-48.4	15.3	0.00e+00	0	23	0	723517440	59	4416
2026-01-10 13:47:03.23	223.41	13.62	-47.1	-48.4	15.3	0.00e+00	0	23	0	729808896	59	4411
2026-01-10 13:47:04.23	223.55	13.69	-47.2	-48.5	15.2	0.00e+00	0	23	0	735051776	59	4452
2026-01-10 13:47:05.24	223.69	13.76	-47.2	-48.4	15.3	0.00e+00	0	23	0	740294656	59	4408
2026-01-10 13:47:06.24	223.83	13.84	-46.9	-48.1	15.4	0.00e+00	0	23	0	746586112	59	4288
2026-01-10 13:47:07.23	223.97	13.91	-46.8	-48.0	15.4	0.00e+00	0	23	0	751828992	59	4214
2026-01-10 13:47:08.23	224.11	13.99	-46.8	-48.0	15.4	0.00e+00	0	23	0	757071872	59	4232
2026-01-10 13:47:09.23	224.25	14.06	-46.8	-48.0	15.4	0.00e+00	0	23	0	763363328	59	4233
2026-01-10 13:47:10.23	224.40	14.13	-46.8	-48.0	15.4	0.00e+00	0	23	0	768606208	59	4238
2026-01-10 13:47:11.23	224.54	14.21	-46.7	-47.9	15.5	0.00e+00	0	23	0	773849088	59	4157
2026-01-10 13:47:12.22	224.68	14.28	-46.8	-48.0	15.5	0.00e+00	0	23	0	780140544	59	4198
2026-01-10 13:47:13.22	224.83	14.36	-46.7	-47.9	15.5	0.00e+00	0	23	0	785383424	59	4153
2026-01-10 13:47:14.23	224.98	14.43	-46.7	-47.9	15.5	0.00e+00	0	23	0	791674880	59	4147
2026-01-10 13:47:15.22	225.12	14.51	-46.7	-47.9	15.5	0.00e+00	0	23	0	796917760	59	4154
2026-01-10 13:47:16.21	225.27	14.58	-46.8	-48.0	15.4	0.00e+00	0	23	0	802160640	59	4200
2026-01-10 13:47:17.21	225.42	14.66	-46.6	-47.8	15.5	0.00e+00	0	23	0	808452096	59	4125
2026-01-10 13:47:18.21	225.56	14.73	-46.5	-47.6	15.6	0.00e+00	0	23	0	813694976	59	4043
2026-01-10 13:47:19.21	225.71	14.80	-46.5	-47.6	15.6	0.00e+00	0	23	0	818937856	59	4048
2026-01-10 13:47:20.21	225.86	14.88	-46.5	-47.7	15.6	0.00e+00	0	23	0	825229312	59	4054
2026-01-10 13:47:21.21	226.02	14.95	-46.5	-47.6	15.6	0.00e+00	0	23	0	830472192	59	4051
2026-01-10 13:47:22.21	226.17	15.03	-46.6	-47.8	15.6	0.00e+00	0	23	0	835715072	59	4114
2026-01-10 13:47:23.21	226.32	15.10	-46.6	-47.7	15.6	0.00e+00	0	23	0	842006528	59	4098
2026-01-10 13:47:24.20	226.47	15.18	-46.5	-47.6	15.6	0.00e+00	0	23	0	847249408	59	4045
2026-01-10 13:47:25.20	226.62	15.25	-46.4	-47.5	15.7	0.00e+00	0	23	0	852492288	59	4004
2026-01-10 13:47:26.20	226.78	15.33	-46.5	-47.7	15.6	0.00e+00	0	23	0	858783744	59	4073
2026-01-10 13:47:27.20	226.93	15.40	-46.5	-47.7	15.6	0.00e+00	0	23	0	864026624	59	4068
2026-01-10 13:47:28.19	227.09	15.48	-46.5	-47.7	15.6	0.00e+00	0	23	0	869269504	59	4052
2026-01-10 13:47:29.19	227.25	15.55	-46.4	-47.6	15.7	0.00e+00	0	23	0	875560960	59	4014
2026-01-10 13:47:30.18	227.40	15.63	-46.4	-47.5	15.7	0.00e+00	0	23	0	880803840	59	3986
2026-01-10 13:47:31.18	227.56	15.70	-46.3	-47.4	15.7	0.00e+00	0	23	0	886046720	59	3953
2026-01-10 13:47:32.18	227.72	15.78	-46.3	-47.4	15.7	0.00e+00	0	23	0	892338176	59	3940
2026-01-10 13:47:33.18	227.88	15.86	-46.3	-47.5	15.7	0.00e+00	0	23	0	897581056	59	3963
2026-01-10 13:47:34.18	228.04	15.93	-46.4	-47.5	15.7	0.00e+00	0	23	0	903872512	59	3996
2026-01-10 13:47:35.16	228.20	16.00	-46.4	-47.6	15.6	0.00e+00	0	23	0	909115392	59	4016
2026-01-10 13:47:36.16	228.36	16.08	-46.4	-47.5	15.7	0.00e+00	0	23	0	914358272	59	3995
2026-01-10 13:47:37.16	228.52	16.16	-46.3	-47.5	15.7	0.00e+00	0	23	0	920649728	59	3985
2026-01-10 13:47:38.16	228.69	16.23	-46.3	-47.5	15.7	0.00e+00	0	23	0	925892608	59	3984
2026-01-10 13:47:39.16	228.85	16.31	-46.3	-47.5	15.7	0.00e+00	0	23	0	931135488	59	3981
2026-01-10 13:47:40.15	229.02	16.38	-46.3	-47.5	15.7	0.00e+00	0	23	0	937426944	59	3960
2026-01-10 13:47:41.15	229.18	16.46	-46.1	-47.3	15.6	0.00e+00	0	23	0	942669824	58	4109
2026-01-10 13:47:42.16	229.35	16.53	-46.1	-47.2	15.6	0.00e+00	0	23	0	947912704	58	4094
2026-01-10 13:47:43.15	229.52	16.61	-46.2	-47.3	15.6	0.00e+00	0	23	0	954204160	58	4132
2026-01-10 13:47:44.15	229.69	16.68	-46.2	-47.4	15.6	0.00e+00	0	23	0	959447040	58	4166
2026-01-10 13:47:45.15	229.86	16.76	-46.2	-47.4	15.6	0.00e+00	0	23	0	965738496	58	4151
2026-01-10 13:47:46.15	230.03	16.84	-46.2	-47.3	15.6	0.00e+00	0	23	0	970981376	58	4144
2026-01-10 13:47:47.15	230.20	16.91	-46.1	-47.3	15.6	0.00e+00	0	23	0	976224256	58	4100
2026-01-10 13:47:48.14	230.37	16.99	-46.0	-47.2	15.6	0.00e+00	0	23	0	981467136	58	4067
2026-01-10 13:47:49.14	230.54	17.06	-46.1	-47.2	15.6	0.00e+00	0	23	0	987758592	58	4092
2026-01-10 13:47:50.14	230.71	17.14	-46.0	-47.1	15.7	0.00e+00	0	23	0	993001472	58	4046
2026-01-10 13:47:51.14	230.89	17.21	-46.0	-47.1	15.7	0.00e+00	0	23	0	998244352	58	4014
2026-01-10 13:47:52.13	231.06	17.29	-46.0	-47.1	15.7	0.00e+00	0	23	0	1004535808	58	4022
2026-01-10 13:47:53.13	231.24	17.36	-45.8	-46.9	15.7	0.00e+00	0	23	0	1009778688	58	3958
2026-01-10 13:47:54.13	231.42	17.44	-45.9	-47.0	15.7	0.00e+00	0	23	0	1016070144	58	3986
2026-01-10 13:47:55.13	231.59	17.51	-45.9	-47.0	15.7	0.00e+00	0	23	0	1021313024	58	3982
2026-01-10 13:47:56.13	231.77	17.59	-45.9	-47.0	15.7	0.00e+00	0	23	0	1026555904	58	3999
2026-01-10 13:47:57.13	231.95	17.66	-45.9	-47.0	15.7	0.00e+00	0	23	0	1032847360	58	3996
2026-01-10 13:47:58.12	232.13	17.74	-46.0	-47.2	15.7	0.00e+00	0	23	0	1038090240	58	4061
2026-01-10 13:47:59.12	232.31	17.81	-46.0	-47.1	15.7	0.00e+00	0	23	0	1043333120	58	4041
2026-01-10 13:48:00.12	232.49	17.89	-46.1	-47.2	15.6	0.00e+00	0	23	0	1049624576	58	4088
2026-01-10 13:48:01.11	232.68	17.96	-46.0	-47.2	15.7	0.00e+00	0	23	0	1054867456	58	4053
2026-01-10 13:48:02.11	232.86	18.04	-45.9	-47.0	15.7	0.00e+00	0	23	0	1060110336	58	3990
2026-01-10 13:48:03.10	233.04	18.11	-45.9	-47.0	15.8	0.00e+00	0	23	0	1066401792	58	3979
2026-01-10 13:48:04.10	233.23	18.19	-45.9	-47.0	15.8	0.00e+00	0	23	0	1071644672	58	3985
2026-01-10 13:48:05.11	233.42	18.26	-45.8	-47.0	15.7	0.00e+00	0	23	0	1077936128	58	3966
2026-01-10 13:48:06.10	233.60	18.34	-45.8	-46.9	15.8	0.00e+00	0	23	0	1083179008	58	3949
2026-01-10 13:48:07.11	233.79	18.41	-45.7	-46.8	15.8	0.00e+00	0	23	0	1088421888	58	3906
2026-01-10 13:48:08.11	233.98	18.49	-45.7	-46.8	15.8	0.00e+00	0	23	0	1094713344	58	3887
2026-01-10 13:48:09.11	234.17	18.56	-45.6	-46.7	15.7	0.00e+00	0	23	0	1099956224	57	4093
2026-01-10 13:48:10.11	234.36	18.64	-45.6	-46.7	15.7	0.00e+00	0	23	0	1105199104	57	4075
2026-01-10 13:48:11.11	234.56	18.71	-45.6	-46.8	15.7	0.00e+00	0	23	0	1111490560	57	4106
2026-01-10 13:48:12.11	234.75	18.79	-45.7	-46.8	15.6	0.00e+00	0	23	0	1116733440	57	4133
2026-01-10 13:48:13.11	234.94	18.86	-45.8	-46.9	15.6	0.00e+00	0	23	0	1121976320	57	4181
2026-01-10 13:48:14.12	235.14	18.94	-45.8	-46.9	15.6	0.00e+00	0	23	0	1128267776	57	4189
2026-01-10 13:48:15.11	235.33	19.01	-45.7	-46.9	15.6	0.00e+00	0	23	0	1133510656	57	4157
2026-01-10 13:48:16.11	235.53	19.08	-45.7	-46.8	15.7	0.00e+00	0	23	0	1139802112	57	4136
2026-01-10 13:48:17.11	235.73	19.16	-45.7	-46.8	15.7	0.00e+00	0	23	0	1145044992	57	4145
2026-01-10 13:48:18.11	235.93	19.23	-45.6	-46.7	15.7	0.00e+00	0	23	0	1150287872	57	4091
2026-01-10 13:48:19.10	236.13	19.30	-45.6	-46.7	15.7	0.00e+00	0	23	0	1156579328	57	4083
2026-01-10 13:48:20.11	236.33	19.38	-45.5	-46.6	15.7	0.00e+00	0	23	0	1161822208	57	4049
2026-01-10 13:48:21.11	236.53	19.45	-45.4	-46.6	15.8	0.00e+00	0	23	0	1167065088	57	4008
2026-01-10 13:48:22.11	236.73	19.52	-45.5	-46.5	15.8	0.00e+00	0	23	0	1173356544	57	4002
2026-01-10 13:48:23.11	236.94	19.60	-45.4	-46.5	15.8	0.00e+00	0	23	0	1178599424	57	3991
2026-01-10 13:48:24.12	237.14	19.67	-45.5	-46.6	15.8	0.00e+00	0	23	0	1183842304	57	4009
2026-01-10 13:48:25.11	237.34	19.74	-45.5	-46.6	15.7	0.00e+00	0	23	0	1190133760	57	4040
2026-01-10 13:48:26.11	237.55	19.82	-45.5	-46.7	15.7	0.00e+00	0	23	0	1195376640	57	4055
2026-01-10 13:48:27.11	237.76	19.89	-45.5	-46.6	15.7	0.00e+00	0	23	0	1201668096	57	4044
2026-01-10 13:48:28.11	237.97	19.96	-45.6	-46.7	15.7	0.00e+00	0	23	0	1206910976	57	4085
2026-01-10 13:48:29.11	238.18	20.03	-45.8	-46.9	15.7	0.00e+00	0	23	0	1212153856	57	4162
2026-01-10 13:48:30.11	238.39	20.11	-45.7	-46.8	15.7	0.00e+00	0	23	0	1218445312	57	4105
2026-01-10 13:48:31.10	238.59	20.18	-45.4	-46.5	15.8	0.00e+00	0	23	0	1223688192	57	3975
2026-01-10 13:48:32.11	238.81	20.25	-45.3	-46.4	15.8	0.00e+00	0	23	0	1228931072	57	3934
2026-01-10 13:48:33.11	239.02	20.32	-45.3	-46.4	15.8	0.00e+00	0	23	0	1235222528	57	3924
2026-01-10 13:48:34.11	239.23	20.39	-45.3	-46.4	15.8	0.00e+00	0	23	0	1240465408	57	3936
2026-01-10 13:48:35.11	239.45	20.46	-45.2	-46.3	15.9	0.00e+00	0	23	0	1245708288	57	3881
2026-01-10 13:48:36.10	239.66	20.53	-45.2	-46.3	15.9	0.00e+00	0	23	0	1251999744	57	3880
2026-01-10 13:48:37.10	239.88	20.60	-45.3	-46.4	15.8	0.00e+00	0	23	0	1257242624	57	3943
2026-01-10 13:48:38.09	240.10	20.67	-45.3	-46.4	15.8	0.00e+00	0	23	0	1262485504	57	3949
2026-01-10 13:48:39.08	240.31	20.74	-45.3	-46.4	15.9	0.00e+00	0	23	0	1268776960	57	3918
2026-01-10 13:48:40.08	240.53	20.81	-45.2	-46.3	15.9	0.00e+00	0	23	0	1274019840	57	3881
2026-01-10 13:48:41.07	240.75	20.88	-45.3	-46.3	15.9	0.00e+00	0	23	0	1279262720	57	3911
2026-01-10 13:48:42.06	240.97	20.95	-45.2	-46.3	15.9	0.00e+00	0	23	0	1285554176	57	3891
2026-01-10 13:48:43.05	241.19	21.02	-45.3	-46.3	15.9	0.00e+00	0	23	0	1290797056	57	3908
2026-01-10 13:48:44.05	241.41	21.09	-45.3	-46.4	15.8	0.00e+00	0	23	0	1296039936	57	3921
2026-01-10 13:48:45.05	241.64	21.16	-45.4	-46.5	15.8	0.00e+00	0	23	0	1302331392	57	3964
2026-01-10 13:48:46.04	241.86	21.23	-45.3	-46.4	15.8	0.00e+00	0	23	0	1307574272	57	3935
2026-01-10 13:48:47.04	242.09	21.30	-45.4	-46.5	15.8	0.00e+00	0	23	0	1312817152	57	3963
2026-01-10 13:48:48.04	242.31	21.36	-45.4	-46.5	15.8	0.00e+00	0	23	0	1319108608	57	3977
2026-01-10 13:48:49.04	242.54	21.43	-45.5	-46.6	15.8	0.00e+00	0	23	0	1324351488	57	4014
2026-01-10 13:48:50.05	242.77	21.50	-45.4	-46.5	15.8	0.00e+00	0	23	0	1329594368	57	3988
2026-01-10 13:48:51.05	243.00	21.57	-45.4	-46.5	15.8	0.00e+00	0	23	0	1335885824	57	3990
2026-01-10 13:48:52.04	243.23	21.63	-45.4	-46.5	15.8	0.00e+00	0	23	0	1341128704	57	3971
2026-01-10 13:48:53.04	243.47	21.70	-45.2	-46.3	15.9	0.00e+00	0	23	0	1347420160	57	3892
2026-01-10 13:48:54.04	243.70	21.77	-45.1	-46.2	15.7	0.00e+00	0	23	0	1352663040	56	4081
2026-01-10 13:48:55.04	243.93	21.83	-45.0	-46.1	15.8	0.00e+00	0	23	0	1357905920	56	4028
2026-01-10 13:48:56.04	244.17	21.90	-45.0	-46.1	15.8	0.00e+00	0	23	0	1364197376	56	4039
2026-01-10 13:48:57.04	244.40	21.96	-45.1	-46.2	15.7	0.00e+00	0	23	0	1369440256	56	4088
2026-01-10 13:48:58.03	244.64	22.03	-45.3	-46.4	15.7	0.00e+00	0	23	0	1374683136	56	4151
2026-01-10 13:48:59.03	244.88	22.09	-45.3	-46.4	15.7	0.00e+00	0	23	0	1380974592	56	4185
2026-01-10 13:49:00.04	245.12	22.16	-45.2	-46.3	15.7	0.00e+00	0	23	0	1386217472	56	4118
2026-01-10 13:49:01.03	245.36	22.22	-45.2	-46.3	15.7	0.00e+00	0	23	0	1391460352	56	4116
2026-01-10 13:49:02.04	245.60	22.29	-45.2	-46.3	15.7	0.00e+00	0	23	0	1397751808	56	4111
2026-01-10 13:49:03.04	245.84	22.35	-44.8	-45.9	15.9	0.00e+00	0	23	0	1402994688	56	3921
2026-01-10 13:49:04.04	246.09	22.41	-44.5	-45.5	15.8	0.00e+00	0	23	0	1409286144	55	3993
2026-01-10 13:49:05.03	246.33	22.48	-44.6	-45.7	15.8	0.00e+00	0	23	0	1414529024	55	4075
2026-01-10 13:49:06.03	246.57	22.54	-44.6	-45.7	15.8	0.00e+00	0	23	0	1419771904	55	4076
2026-01-10 13:49:07.02	246.81	22.60	-44.8	-45.8	15.7	0.00e+00	0	23	0	1426063360	55	4141
2026-01-10 13:49:08.03	247.06	22.66	-44.9	-46.0	15.7	0.00e+00	0	23	0	1431306240	55	4240
2026-01-10 13:49:09.02	247.31	22.72	-44.9	-46.0	15.7	0.00e+00	0	23	0	1436549120	55	4233
2026-01-10 13:49:10.02	247.56	22.78	-44.8	-45.9	15.7	0.00e+00	0	23	0	1442840576	55	4150
2026-01-10 13:49:11.02	247.81	22.84	-44.7	-45.8	15.8	0.00e+00	0	23	0	1448083456	55	4111
2026-01-10 13:49:12.02	248.06	22.90	-44.7	-45.8	15.8	0.00e+00	0	23	0	1453326336	55	4107
2026-01-10 13:49:13.01	248.31	22.96	-44.7	-45.8	15.7	0.00e+00	0	23	0	1459617792	55	4133
2026-01-10 13:49:14.01	248.56	23.02	-44.6	-45.7	15.8	0.00e+00	0	23	0	1464860672	55	4073
2026-01-10 13:49:15.01	248.81	23.08	-44.8	-45.9	15.8	0.00e+00	0	23	0	1471152128	55	4150
2026-01-10 13:49:16.01	249.07	23.14	-44.8	-45.9	15.8	0.00e+00	0	23	0	1476395008	55	4149
2026-01-10 13:49:17.01	249.32	23.20	-44.6	-45.7	15.8	0.00e+00	0	23	0	1481637888	55	4072
2026-01-10 13:49:18.01	249.58	23.26	-44.6	-45.7	15.8	0.00e+00	0	23	0	1487929344	55	4075
2026-01-10 13:49:19.02	249.84	23.31	-44.7	-45.8	15.8	0.00e+00	0	23	0	1493172224	55	4100
2026-01-10 13:49:20.02	250.10	23.37	-44.6	-45.6	15.8	0.00e+00	0	23	0	1498415104	55	4048
2026-01-10 13:49:21.01	250.35	23.43	-44.7	-45.7	15.8	0.00e+00	0	23	0	1504706560	55	4095
2026-01-10 13:49:22.01	250.61	23.48	-44.5	-45.6	15.8	0.00e+00	0	23	0	1509949440	55	4027
2026-01-10 13:49:23.01	250.87	23.54	-44.4	-45.5	15.9	0.00e+00	0	23	0	1515192320	55	3976
2026-01-10 13:49:24.00	251.13	23.59	-44.4	-45.5	15.9	0.00e+00	0	23	0	1521483776	55	3965
2026-01-10 13:49:25.01	251.40	23.64	-44.5	-45.6	15.8	0.00e+00	0	23	0	1526726656	55	4008
2026-01-10 13:49:26.00	251.66	23.70	-44.4	-45.5	15.9	0.00e+00	0	23	0	1533018112	55	3963
2026-01-10 13:49:27.00	251.92	23.75	-44.5	-45.6	15.8	0.00e+00	0	23	0	1538260992	55	4034
2026-01-10 13:49:28.01	252.19	23.80	-44.7	-45.8	15.8	0.00e+00	0	23	0	1543503872	55	4104
2026-01-10 13:49:29.00	252.45	23.86	-44.6	-45.7	15.8	0.00e+00	0	23	0	1548746752	55	4062
2026-01-10 13:49:30.00	252.72	23.91	-44.6	-45.6	15.8	0.00e+00	0	23	0	1555038208	55	4051
2026-01-10 13:49:31.00	252.99	23.96	-44.5	-45.6	15.8	0.00e+00	0	23	0	1560281088	55	4033
2026-01-10 13:49:32.00	253.25	24.01	-44.5	-45.6	15.8	0.00e+00	0	23	0	1566572544	55	4021
2026-01-10 13:49:33.00	253.52	24.06	-44.5	-45.6	15.8	0.00e+00	0	23	0	1571815424	55	4036
2026-01-10 13:49:33.99	253.79	24.11	-44.5	-45.6	15.8	0.00e+00	0	23	0	1577058304	55	4017
2026-01-10 13:49:34.99	254.06	24.16	-44.6	-45.6	15.8	0.00e+00	0	23	0	1583349760	55	4044
2026-01-10 13:49:35.99	254.33	24.20	-44.4	-45.5	15.9	0.00e+00	0	23	0	1588592640	55	3979
2026-01-10 13:49:36.99	254.61	24.25	-44.3	-45.3	15.9	0.00e+00	0	23	0	1593835520	55	3891
2026-01-10 13:49:37.99	254.88	24.30	-44.3	-45.4	15.9	0.00e+00	0	23	0	1600126976	55	3918
2026-01-10 13:49:38.98	255.15	24.35	-44.3	-45.4	15.9	0.00e+00	0	23	0	1605369856	55	3935
2026-01-10 13:49:39.97	255.42	24.39	-44.4	-45.4	15.9	0.00e+00	0	23	0	1610612736	55	3954
2026-01-10 13:49:40.97	255.70	24.44	-44.3	-45.4	15.9	0.00e+00	0	23	0	1616904192	55	3914
2026-01-10 13:49:41.97	255.98	24.48	-44.3	-45.3	15.9	0.00e+00	0	23	0	1622147072	55	3908
2026-01-10 13:49:42.97	256.25	24.53	-44.2	-45.2	16.0	0.00e+00	0	23	0	1627389952	55	3861
2026-01-10 13:49:43.97	256.53	24.57	-44.2	-45.3	16.0	0.00e+00	0	23	0	1633681408	55	3872
2026-01-10 13:49:44.95	256.80	24.61	-44.2	-45.2	15.9	0.00e+00	0	23	0	1638924288	55	3866
2026-01-10 13:49:45.95	257.08	24.65	-44.3	-45.4	15.9	0.00e+00	0	23	0	1645215744	55	3934
2026-01-10 13:49:46.96	257.37	24.69	-44.4	-45.5	15.9	0.00e+00	0	23	0	1650458624	55	3959
2026-01-10 13:49:47.96	257.65	24.74	-44.3	-45.4	15.9	0.00e+00	0	23	0	1655701504	55	3942
2026-01-10 13:49:48.96	257.93	24.78	-44.3	-45.4	15.9	0.00e+00	0	23	0	1661992960	55	3936
2026-01-10 13:49:49.96	258.21	24.82	-44.3	-45.4	15.9	0.00e+00	0	23	0	1667235840	55	3930
2026-01-10 13:49:50.96	258.49	24.85	-44.3	-45.4	15.9	0.00e+00	0	23	0	1672478720	55	3935
2026-01-10 13:49:51.95	258.78	24.89	-44.3	-45.3	15.9	0.00e+00	0	23	0	1678770176	55	3906
2026-01-10 13:49:52.95	259.06	24.93	-44.2	-45.2	16.0	0.00e+00	0	23	0	1684013056	55	3858
2026-01-10 13:49:53.95	259.34	24.97	-44.2	-45.3	16.0	0.00e+00	0	23	0	1689255936	55	3875
2026-01-10 13:49:54.95	259.63	25.00	-44.1	-45.2	15.8	0.00e+00	0	23	0	1695547392	54	4068
2026-01-10 13:49:55.94	259.91	25.04	-44.2	-45.3	15.8	0.00e+00	0	23	0	1700790272	54	4111
2026-01-10 13:49:56.95	260.20	25.07	-44.2	-45.3	15.8	0.00e+00	0	23	0	1706033152	54	4117
2026-01-10 13:49:57.95	260.49	25.11	-44.1	-45.2	15.8	0.00e+00	0	23	0	1712324608	54	4064
2026-01-10 13:49:58.95	260.78	25.14	-44.2	-45.3	15.8	0.00e+00	0	23	0	1717567488	54	4102
2026-01-10 13:49:59.96	261.07	25.17	-44.4	-45.4	15.8	0.00e+00	0	23	0	1723858944	54	4179
2026-01-10 13:50:00.96	261.36	25.21	-44.4	-45.5	15.8	0.00e+00	0	23	0	1729101824	54	4194
2026-01-10 13:50:01.96	261.65	25.24	-44.5	-45.5	15.8	0.00e+00	0	23	0	1734344704	54	4242
2026-01-10 13:50:02.96	261.94	25.27	-44.3	-45.4	15.8	0.00e+00	0	23	0	1740636160	54	4167
2026-01-10 13:50:03.95	262.23	25.30	-44.4	-45.5	15.8	0.00e+00	0	23	0	1745879040	54	4194
2026-01-10 13:50:04.94	262.52	25.33	-44.4	-45.4	15.8	0.00e+00	0	23	0	1751121920	54	4171
2026-01-10 13:50:05.94	262.81	25.36	-44.3	-45.4	15.8	0.00e+00	0	23	0	1757413376	54	4148
2026-01-10 13:50:06.93	263.10	25.38	-44.4	-45.5	15.8	0.00e+00	0	23	0	1762656256	54	4203
2026-01-10 13:50:07.93	263.39	25.41	-44.3	-45.3	15.8	0.00e+00	0	23	0	1767899136	54	4142
2026-01-10 13:50:08.94	263.69	25.44	-44.1	-45.2	15.8	0.00e+00	0	23	0	1774190592	54	4080
2026-01-10 13:50:09.94	263.98	25.46	-44.2	-45.3	15.8	0.00e+00	0	23	0	1779433472	54	4108
2026-01-10 13:50:10.94	264.28	25.49	-44.1	-45.2	15.8	0.00e+00	0	23	0	1784676352	54	4067
2026-01-10 13:50:11.94	264.57	25.51	-44.1	-45.2	15.9	0.00e+00	0	23	0	1790967808	54	4058
2026-01-10 13:50:12.94	264.87	25.53	-44.2	-45.2	15.8	0.00e+00	0	23	0	1796210688	54	4094
2026-01-10 13:50:13.93	265.16	25.56	-44.2	-45.2	15.8	0.00e+00	0	23	0	1802502144	54	4078
2026-01-10 13:50:14.93	265.45	25.58	-44.2	-45.2	15.8	0.00e+00	0	23	0	1807745024	54	4074
2026-01-10 13:50:15.94	265.75	25.60	-44.1	-45.2	15.8	0.00e+00	0	23	0	1812987904	54	4055
2026-01-10 13:50:16.93	266.05	25.62	-44.2	-45.2	15.8	0.00e+00	0	23	0	1819279360	54	4093
2026-01-10 13:50:17.93	266.34	25.64	-44.3	-45.3	15.8	0.00e+00	0	23	0	1824522240	54	4139
2026-01-10 13:50:18.92	266.64	25.66	-44.2	-45.2	15.8	0.00e+00	0	23	0	1829765120	54	4085
2026-01-10 13:50:19.93	266.94	25.67	-44.2	-45.3	15.8	0.00e+00	0	23	0	1836056576	54	4113
2026-01-10 13:50:20.93	267.24	25.69	-44.4	-45.4	15.8	0.00e+00	0	23	0	1841299456	54	4192
2026-01-10 13:50:21.93	267.54	25.71	-44.3	-45.3	15.8	0.00e+00	0	23	0	1846542336	54	4144
2026-01-10 13:50:22.92	267.83	25.72	-44.2	-45.3	15.8	0.00e+00	0	23	0	1852833792	54	4112
2026-01-10 13:50:23.92	268.13	25.74	-44.3	-45.3	15.8	0.00e+00	0	23	0	1858076672	54	4144
2026-01-10 13:50:24.92	268.43	25.75	-44.2	-45.2	15.8	0.00e+00	0	23	0	1864368128	54	4079
2026-01-10 13:50:25.92	268.73	25.76	-44.2	-45.2	15.8	0.00e+00	0	23	0	1869611008	54	4097
2026-01-10 13:50:26.92	269.03	25.78	-44.3	-45.3	15.8	0.00e+00	0	23	0	1874853888	54	4133
2026-01-10 13:50:27.92	269.33	25.79	-44.5	-45.5	15.7	0.00e+00	0	23	0	1881145344	54	4233
2026-01-10 13:50:28.92	269.63	25.80	-44.5	-45.5	15.7	0.00e+00	0	23	0	1886388224	54	4240
2026-01-10 13:50:29.92	269.93	25.81	-44.5	-45.5	15.7	0.00e+00	0	23	0	1891631104	54	4241
2026-01-10 13:50:30.91	270.23	25.82	-44.4	-45.5	15.8	0.00e+00	0	23	0	1897922560	54	4221
2026-01-10 13:50:31.90	270.52	25.82	-44.5	-45.5	15.8	0.00e+00	0	23	0	1903165440	54	4233
2026-01-10 13:50:32.90	270.82	25.83	-44.4	-45.5	15.8	0.00e+00	0	23	0	1908408320	54	4222
2026-01-10 13:50:33.90	271.13	25.84	-44.5	-45.6	15.8	0.00e+00	0	23	0	1914699776	54	4248
2026-01-10 13:50:34.90	271.43	25.84	-44.4	-45.4	15.8	0.00e+00	0	23	0	1919942656	54	4178
2026-01-10 13:50:35.90	271.73	25.85	-44.3	-45.3	15.8	0.00e+00	0	23	0	1925185536	54	4137
2026-01-10 13:50:36.89	272.03	25.85	-44.3	-45.4	15.8	0.00e+00	0	23	0	1931476992	54	4163
2026-01-10 13:50:37.90	272.33	25.85	-44.4	-45.5	15.8	0.00e+00	0	23	0	1936719872	54	4225
2026-01-10 13:50:38.89	272.63	25.86	-44.4	-45.5	15.8	0.00e+00	0	23	0	1941962752	54	4207
2026-01-10 13:50:39.89	272.93	25.86	-44.5	-45.6	15.8	0.00e+00	0	23	0	1948254208	54	4254
2026-01-10 13:50:40.89	273.23	25.86	-44.2	-45.3	15.8	0.00e+00	0	23	0	1953497088	54	4105
2026-01-10 13:50:41.89	273.53	25.86	-44.1	-45.1	15.9	0.00e+00	0	23	0	1958739968	54	4044
2026-01-10 13:50:42.89	273.83	25.86	-44.2	-45.2	15.8	0.00e+00	0	23	0	1965031424	54	4075
2026-01-10 13:50:43.89	274.13	25.86	-44.2	-45.3	15.8	0.00e+00	0	23	0	1970274304	54	4108
2026-01-10 13:50:44.89	274.43	25.85	-44.3	-45.4	15.8	0.00e+00	0	23	0	1976565760	54	4158
2026-01-10 13:50:45.88	274.73	25.85	-44.3	-45.4	15.8	0.00e+00	0	23	0	1981808640	54	4164
2026-01-10 13:50:46.88	275.03	25.84	-44.4	-45.5	15.8	0.00e+00	0	23	0	1987051520	54	4213
2026-01-10 13:50:47.88	275.33	25.84	-44.3	-45.4	15.8	0.00e+00	0	23	0	1993342976	54	4155
2026-01-10 13:50:48.88	275.64	25.83	-44.3	-45.4	15.8	0.00e+00	0	23	0	1998585856	54	4164
2026-01-10 13:50:49.88	275.94	25.83	-44.4	-45.5	15.7	0.00e+00	0	23	0	2003828736	54	4195
2026-01-10 13:50:50.88	276.24	25.82	-44.4	-45.4	15.8	0.00e+00	0	23	0	2010120192	54	4176
2026-01-10 13:50:51.87	276.53	25.81	-44.4	-45.4	15.8	0.00e+00	0	23	0	2015363072	54	4177
2026-01-10 13:50:52.87	276.83	25.80	-44.4	-45.4	15.8	0.00e+00	0	23	0	2020605952	54	4190
2026-01-10 13:50:53.87	277.13	25.79	-44.3	-45.4	15.8	0.00e+00	0	23	0	2026897408	54	4146
2026-01-10 13:50:54.87	277.43	25.78	-44.2	-45.3	15.8	0.00e+00	0	23	0	2032140288	54	4128
2026-01-10 13:50:55.87	277.73	25.77	-44.3	-45.4	15.8	0.00e+00	0	23	0	2038431744	54	4146
2026-01-10 13:50:56.87	278.03	25.76	-44.3	-45.4	15.8	0.00e+00	0	23	0	2043674624	54	4149
2026-01-10 13:50:57.87	278.33	25.74	-44.2	-45.2	15.8	0.00e+00	0	23	0	2048917504	54	4096
2026-01-10 13:50:58.88	278.63	25.73	-44.3	-45.3	15.8	0.00e+00	0	23	0	2055208960	54	4119
2026-01-10 13:50:59.87	278.93	25.71	-44.3	-45.3	15.8	0.00e+00	0	23	0	2060451840	54	4136
2026-01-10 13:51:00.87	279.23	25.70	-44.3	-45.3	15.8	0.00e+00	0	23	0	2065694720	54	4125
2026-01-10 13:51:01.88	279.53	25.68	-44.3	-45.4	15.8	0.00e+00	0	23	0	2071986176	54	4150
2026-01-10 13:51:02.88	279.83	25.66	-44.4	-45.5	15.8	0.00e+00	0	23	0	2077229056	54	4194
2026-01-10 13:51:03.87	280.12	25.65	-44.4	-45.5	15.8	0.00e+00	0	23	0	2082471936	54	4200
2026-01-10 13:51:04.88	280.42	25.63	-44.5	-45.5	15.7	0.00e+00	0	23	0	2088763392	54	4227
2026-01-10 13:51:05.87	280.71	25.61	-44.4	-45.4	15.8	0.00e+00	0	23	0	2094006272	54	4179
2026-01-10 13:51:06.86	281.01	25.59	-44.4	-45.4	15.8	0.00e+00	0	23	0	2100297728	54	4190
2026-01-10 13:51:07.87	281.31	25.57	-44.4	-45.5	15.8	0.00e+00	0	23	0	2105540608	54	4196
2026-01-10 13:51:08.86	281.60	25.54	-44.5	-45.6	15.7	0.00e+00	0	23	0	2110783488	54	4256
2026-01-10 13:51:09.87	281.90	25.52	-44.6	-45.6	15.7	0.00e+00	0	23	0	2117074944	54	4279
2026-01-10 13:51:10.86	282.19	25.50	-44.5	-45.6	15.8	0.00e+00	0	23	0	2122317824	54	4256
2026-01-10 13:51:11.87	282.49	25.47	-44.5	-45.5	15.8	0.00e+00	0	23	0	2127560704	54	4232
2026-01-10 13:51:12.87	282.78	25.45	-44.5	-45.5	15.8	0.00e+00	0	23	0	2133852160	54	4229
2026-01-10 13:51:13.86	283.07	25.42	-44.4	-45.5	15.8	0.00e+00	0	23	0	2139095040	54	4199
2026-01-10 13:51:14.86	283.36	25.40	-44.4	-45.4	15.8	0.00e+00	0	23	0	2144337920	54	4185
2026-01-10 13:51:15.85	283.65	25.37	-44.3	-45.4	15.8	0.00e+00	0	23	0	2150629376	54	4173
2026-01-10 13:51:16.85	283.94	25.34	-44.4	-45.4	15.8	0.00e+00	0	23	0	2155872256	54	4193
2026-01-10 13:51:17.86	284.24	25.31	-44.3	-45.4	15.8	0.00e+00	0	23	0	2162163712	54	4160
2026-01-10 13:51:18.86	284.53	25.28	-44.4	-45.4	15.8	0.00e+00	0	23	0	2167406592	54	4172
2026-01-10 13:51:19.85	284.82	25.25	-44.4	-45.4	15.8	0.00e+00	0	23	0	2172649472	54	4173
2026-01-10 13:51:20.85	285.11	25.22	-44.4	-45.4	15.8	0.00e+00	0	23	0	2178940928	54	4186
2026-01-10 13:51:21.84	285.39	25.19	-44.3	-45.4	15.8	0.00e+00	0	23	0	2184183808	54	4161
2026-01-10 13:51:22.84	285.68	25.16	-44.5	-45.5	15.7	0.00e+00	0	23	0	2189426688	54	4235
2026-01-10 13:51:23.84	285.97	25.13	-44.6	-45.6	15.7	0.00e+00	0	23	0	2194669568	54	4289
2026-01-10 13:51:24.83	286.25	25.09	-44.5	-45.6	15.7	0.00e+00	0	23	0	2200961024	54	4277
2026-01-10 13:51:25.84	286.54	25.06	-44.6	-45.7	15.7	0.00e+00	0	23	0	2206203904	54	4320
2026-01-10 13:51:26.84	286.83	25.02	-44.8	-45.9	15.7	0.00e+00	0	23	0	2212495360	54	4406
2026-01-10 13:51:27.83	287.11	24.99	-44.9	-46.0	15.6	0.00e+00	0	23	0	2217738240	54	4458
2026-01-10 13:51:28.82	287.39	24.95	-44.9	-46.0	15.7	0.00e+00	0	23	0	2222981120	55	4234
2026-01-10 13:51:29.82	287.68	24.91	-44.8	-45.9	15.8	0.00e+00	0	23	0	2229272576	55	4180
2026-01-10 13:51:30.82	287.96	24.88	-44.8	-45.9	15.7	0.00e+00	0	23	0	2234515456	55	4176
2026-01-10 13:51:31.81	288.24	24.84	-44.7	-45.8	15.7	0.00e+00	0	23	0	2239758336	55	4120
2026-01-10 13:51:32.81	288.52	24.80	-44.7	-45.8	15.7	0.00e+00	0	23	0	2246049792	55	4118
2026-01-10 13:51:33.81	288.81	24.76	-44.6	-45.7	15.8	0.00e+00	0	23	0	2251292672	55	4059
2026-01-10 13:51:34.80	289.08	24.72	-44.6	-45.7	15.8	0.00e+00	0	23	0	2256535552	55	4081
2026-01-10 13:51:35.80	289.36	24.68	-44.7	-45.8	15.8	0.00e+00	0	23	0	2262827008	55	4103
2026-01-10 13:51:36.80	289.64	24.64	-44.7	-45.8	15.7	0.00e+00	0	23	0	2268069888	55	4128
2026-01-10 13:51:37.80	289.92	24.59	-44.7	-45.8	15.7	0.00e+00	0	23	0	2274361344	55	4120
2026-01-10 13:51:38.80	290.20	24.55	-44.8	-45.9	15.7	0.00e+00	0	23	0	2279604224	55	4156
2026-01-10 13:51:39.79	290.47	24.51	-44.6	-45.7	15.8	0.00e+00	0	23	0	2284847104	55	4072
2026-01-10 13:51:40.79	290.75	24.46	-44.7	-45.7	15.8	0.00e+00	0	23	0	2290089984	55	4091
2026-01-10 13:51:41.78	291.02	24.42	-44.7	-45.8	15.8	0.00e+00	0	23	0	2296381440	55	4115
2026-01-10 13:51:42.78	291.30	24.37	-44.7	-45.8	15.8	0.00e+00	0	23	0	2301624320	55	4126
2026-01-10 13:51:43.78	291.57	24.33	-44.8	-45.9	15.7	0.00e+00	0	23	0	2306867200	55	4176
2026-01-10 13:51:44.78	291.84	24.28	-44.9	-46.0	15.7	0.00e+00	0	23	0	2313158656	55	4206
2026-01-10 13:51:45.78	292.12	24.23	-44.7	-45.7	15.8	0.00e+00	0	23	0	2318401536	55	4098
2026-01-10 13:51:46.78	292.39	24.18	-44.6	-45.7	15.8	0.00e+00	0	23	0	2324692992	55	4079
2026-01-10 13:51:47.78	292.66	24.14	-44.6	-45.7	15.8	0.00e+00	0	23	0	2329935872	55	4052
2026-01-10 13:51:48.77	292.93	24.09	-44.6	-45.7	15.8	0.00e+00	0	23	0	2335178752	55	4060
2026-01-10 13:51:49.77	293.20	24.04	-44.8	-45.8	15.7	0.00e+00	0	23	0	2341470208	55	4125
2026-01-10 13:51:50.76	293.46	23.99	-44.7	-45.8	15.7	0.00e+00	0	23	0	2346713088	55	4108
2026-01-10 13:51:51.75	293.73	23.94	-44.8	-45.9	15.7	0.00e+00	0	23	0	2351955968	55	4163
2026-01-10 13:51:52.75	293.99	23.89	-44.8	-45.9	15.7	0.00e+00	0	23	0	2358247424	55	4180
2026-01-10 13:51:53.75	294.26	23.84	-45.0	-46.0	15.7	0.00e+00	0	23	0	2363490304	55	4237
2026-01-10 13:51:54.75	294.52	23.78	-45.0	-46.1	15.7	0.00e+00	0	23	0	2369781760	55	4270
2026-01-10 13:51:55.75	294.79	23.73	-45.1	-46.1	15.6	0.00e+00	0	23	0	2375024640	55	4288
2026-01-10 13:51:56.75	295.05	23.68	-45.0	-46.1	15.7	0.00e+00	0	23	0	2380267520	55	4254
2026-01-10 13:51:57.75	295.31	23.62	-45.0	-46.0	15.7	0.00e+00	0	23	0	2386558976	55	4230
2026-01-10 13:51:58.75	295.57	23.57	-45.0	-46.0	15.7	0.00e+00	0	23	0	2391801856	55	4238
2026-01-10 13:51:59.75	295.83	23.52	-45.0	-46.1	15.7	0.00e+00	0	23	0	2397044736	55	4280
2026-01-10 13:52:00.76	296.10	23.46	-45.2	-46.3	15.6	0.00e+00	0	23	0	2403336192	55	4374
2026-01-10 13:52:01.75	296.35	23.41	-45.3	-46.4	15.6	0.00e+00	0	23	0	2408579072	55	4396
2026-01-10 13:52:02.75	296.61	23.35	-45.1	-46.2	15.6	0.00e+00	0	24	0	2413821952	55	4312
2026-01-10 13:52:03.75	296.87	23.29	-45.1	-46.2	15.6	0.00e+00	0	23	0	2420113408	55	4293
2026-01-10 13:52:04.75	297.12	23.24	-45.1	-46.2	15.6	0.00e+00	0	23	0	2425356288	55	4324
2026-01-10 13:52:05.75	297.38	23.18	-45.0	-46.2	15.7	0.00e+00	0	23	0	2431647744	55	4292
2026-01-10 13:52:06.75	297.63	23.12	-45.0	-46.1	15.7	0.00e+00	0	23	0	2436890624	55	4273
2026-01-10 13:52:07.75	297.89	23.06	-44.9	-46.0	15.7	0.00e+00	0	23	0	2442133504	55	4213
2026-01-10 13:52:08.76	298.14	23.00	-45.1	-46.2	15.6	0.00e+00	0	23	0	2448424960	55	4299
2026-01-10 13:52:09.76	298.39	22.94	-45.1	-46.2	15.6	0.00e+00	0	23	0	2453667840	55	4299
2026-01-10 13:52:10.77	298.64	22.88	-45.1	-46.2	15.6	0.00e+00	0	23	0	2458910720	55	4338
2026-01-10 13:52:11.76	298.89	22.82	-45.1	-46.2	15.6	0.00e+00	0	24	0	2465202176	55	4322
2026-01-10 13:52:12.76	299.14	22.76	-45.1	-46.1	15.6	0.00e+00	0	23	0	2470445056	55	4291
2026-01-10 13:52:13.77	299.39	22.70	-45.1	-46.1	15.6	0.00e+00	0	23	0	2475687936	55	4285
2026-01-10 13:52:14.76	299.63	22.64	-45.1	-46.1	15.6	0.00e+00	0	23	0	2481979392	55	4287
2026-01-10 13:52:15.76	299.88	22.58	-45.1	-46.2	15.6	0.00e+00	0	23	0	2487222272	55	4330
2026-01-10 13:52:16.76	300.12	22.52	-45.2	-46.3	15.6	0.00e+00	0	23	0	2493513728	55	4361
2026-01-10 13:52:17.76	300.37	22.46	-45.3	-46.4	15.6	0.00e+00	0	23	0	2498756608	55	4400
2026-01-10 13:52:18.75	300.61	22.39	-45.4	-46.5	15.6	0.00e+00	0	23	0	2503999488	55	4462
2026-01-10 13:52:19.75	300.85	22.33	-45.3	-46.5	15.6	0.00e+00	0	23	0	2510290944	55	4447
2026-01-10 13:52:20.76	301.09	22.27	-45.3	-46.4	15.6	0.00e+00	0	23	0	2515533824	55	4430
2026-01-10 13:52:21.75	301.33	22.20	-45.3	-46.4	15.6	0.00e+00	0	23	0	2520776704	55	4414
2026-01-10 13:52:22.75	301.57	22.14	-45.3	-46.4	15.6	0.00e+00	0	23	0	2527068160	55	4402
2026-01-10 13:52:23.76	301.81	22.07	-45.3	-46.3	15.6	0.00e+00	0	23	0	2532311040	55	4391
2026-01-10 13:52:24.76	302.05	22.01	-45.0	-46.1	15.6	0.00e+00	0	23	0	2537553920	55	4265
2026-01-10 13:52:25.76	302.28	21.94	-45.0	-46.1	15.6	0.00e+00	0	23	0	2543845376	55	4264
2026-01-10 13:52:26.76	302.52	21.88	-45.0	-46.1	15.6	0.00e+00	0	23	0	2549088256	55	4250
2026-01-10 13:52:27.75	302.75	21.81	-45.0	-46.1	15.6	0.00e+00	0	23	0	2555379712	55	4283
2026-01-10 13:52:28.75	302.98	21.75	-45.2	-46.3	15.6	0.00e+00	0	23	0	2560622592	55	4381
2026-01-10 13:52:29.74	303.21	21.68	-45.4	-46.5	15.6	0.00e+00	0	23	0	2565865472	55	4484
2026-01-10 13:52:30.74	303.44	21.62	-45.7	-46.8	15.6	0.00e+00	0	23	0	2571108352	56	4367
2026-01-10 13:52:31.74	303.67	21.55	-45.8	-46.9	15.6	0.00e+00	0	23	0	2577399808	56	4417
2026-01-10 13:52:32.75	303.91	21.48	-45.8	-46.9	15.5	0.00e+00	0	23	0	2582642688	56	4415
2026-01-10 13:52:33.75	304.13	21.41	-45.8	-46.9	15.5	0.00e+00	0	23	0	2587885568	56	4433
2026-01-10 13:52:34.74	304.36	21.35	-45.7	-46.8	15.6	0.00e+00	0	23	0	2594177024	56	4382
2026-01-10 13:52:35.73	304.58	21.28	-45.6	-46.8	15.6	0.00e+00	0	23	0	2599419904	56	4342
2026-01-10 13:52:36.73	304.81	21.21	-45.5	-46.6	15.6	0.00e+00	0	23	0	2605711360	56	4279
2026-01-10 13:52:37.72	305.03	21.14	-45.5	-46.6	15.6	0.00e+00	0	23	0	2610954240	56	4290
2026-01-10 13:52:38.72	305.25	21.07	-45.6	-46.7	15.6	0.00e+00	0	23	0	2616197120	56	4297
2026-01-10 13:52:39.71	305.47	21.01	-45.5	-46.6	15.6	0.00e+00	0	23	0	2622488576	56	4278
2026-01-10 13:52:40.71	305.70	20.94	-45.6	-46.7	15.6	0.00e+00	0	23	0	2627731456	56	4306
2026-01-10 13:52:41.71	305.92	20.87	-45.7	-46.8	15.6	0.00e+00	0	23	0	2632974336	56	4363
2026-01-10 13:52:42.70	306.13	20.80	-45.7	-46.9	15.5	0.00e+00	0	23	0	2639265792	56	4399
2026-01-10 13:52:43.70	306.35	20.73	-45.7	-46.8	15.6	0.00e+00	0	23	0	2644508672	56	4363
2026-01-10 13:52:44.70	306.57	20.66	-45.7	-46.9	15.6	0.00e+00	0	23	0	2649751552	56	4394
2026-01-10 13:52:45.69	306.78	20.59	-45.8	-46.9	15.5	0.00e+00	0	23	0	2656043008	56	4425
2026-01-10 13:52:46.70	307.00	20.52	-45.9	-47.1	15.5	0.00e+00	0	23	0	2661285888	56	4497
2026-01-10 13:52:47.69	307.21	20.45	-45.8	-46.9	15.6	0.00e+00	0	23	0	2666528768	57	4179
2026-01-10 13:52:48.68	307.43	20.38	-45.8	-46.9	15.6	0.00e+00	0	23	0	2672820224	57	4179
2026-01-10 13:52:49.68	307.64	20.31	-45.7	-46.8	15.7	0.00e+00	0	23	0	2678063104	57	4111
2026-01-10 13:52:50.68	307.85	20.24	-45.6	-46.7	15.7	0.00e+00	0	23	0	2683305984	57	4070
2026-01-10 13:52:51.68	308.06	20.16	-45.6	-46.7	15.7	0.00e+00	0	23	0	2689597440	57	4070
2026-01-10 13:52:52.67	308.27	20.09	-45.7	-46.8	15.7	0.00e+00	0	23	0	2694840320	57	4119
2026-01-10 13:52:53.67	308.48	20.02	-45.8	-46.9	15.6	0.00e+00	0	23	0	2700083200	57	4192
2026-01-10 13:52:54.67	308.69	19.95	-45.9	-47.1	15.6	0.00e+00	0	23	0	2706374656	57	4243
2026-01-10 13:52:55.67	308.89	19.88	-45.9	-47.0	15.6	0.00e+00	0	23	0	2711617536	57	4240
2026-01-10 13:52:56.67	309.10	19.80	-46.0	-47.1	15.6	0.00e+00	0	23	0	2717908992	57	4275
2026-01-10 13:52:57.67	309.30	19.73	-45.9	-47.1	15.6	0.00e+00	0	23	0	2723151872	57	4243
2026-01-10 13:52:58.67	309.51	19.66	-46.0	-47.1	15.6	0.00e+00	0	23	0	2728394752	57	4262
2026-01-10 13:52:59.66	309.71	19.59	-46.0	-47.1	15.5	0.00e+00	0	23	0	2734686208	57	4272
2026-01-10 13:53:00.65	309.91	19.52	-46.1	-47.2	15.5	0.00e+00	0	23	0	2739929088	57	4332
2026-01-10 13:53:01.65	310.11	19.44	-46.1	-47.3	15.5	0.00e+00	0	23	0	2745171968	57	4360
2026-01-10 13:53:02.64	310.31	19.37	-46.3	-47.4	15.5	0.00e+00	0	23	0	2750414848	57	4427
2026-01-10 13:53:03.64	310.51	19.30	-46.4	-47.6	15.4	0.00e+00	0	23	0	2756706304	57	4495
2026-01-10 13:53:04.63	310.71	19.23	-46.3	-47.5	15.4	0.00e+00	0	23	0	2761949184	57	4466
2026-01-10 13:53:05.62	310.90	19.15	-46.3	-47.5	15.4	0.00e+00	0	23	0	2768240640	57	4484
2026-01-10 13:53:06.62	311.10	19.08	-46.3	-47.4	15.5	0.00e+00	0	23	0	2773483520	57	4428
2026-01-10 13:53:07.61	311.29	19.01	-46.3	-47.5	15.4	0.00e+00	0	23	0	2778726400	57	4473
2026-01-10 13:53:08.61	311.49	18.93	-46.3	-47.4	15.5	0.00e+00	0	23	0	2785017856	57	4437
2026-01-10 13:53:09.62	311.68	18.86	-46.2	-47.4	15.5	0.00e+00	0	23	0	2790260736	57	4419
2026-01-10 13:53:10.61	311.87	18.78	-46.3	-47.4	15.5	0.00e+00	0	23	0	2795503616	57	4441
2026-01-10 13:53:11.61	312.07	18.71	-46.2	-47.4	15.5	0.00e+00	0	23	0	2801795072	57	4427
2026-01-10 13:53:12.60	312.26	18.64	-46.2	-47.4	15.5	0.00e+00	0	23	0	2807037952	57	4418
2026-01-10 13:53:13.60	312.45	18.56	-46.2	-47.4	15.5	0.00e+00	0	23	0	2812280832	57	4415
2026-01-10 13:53:14.60	312.64	18.49	-46.3	-47.4	15.5	0.00e+00	0	23	0	2818572288	57	4427
2026-01-10 13:53:15.60	312.82	18.41	-46.2	-47.3	15.5	0.00e+00	0	23	0	2823815168	57	4390
2026-01-10 13:53:16.60	313.01	18.34	-46.1	-47.2	15.5	0.00e+00	0	23	0	2830106624	57	4319
2026-01-10 13:53:17.60	313.20	18.27	-46.1	-47.3	15.5	0.00e+00	0	23	0	2835349504	57	4345
2026-01-10 13:53:18.60	313.38	18.19	-46.1	-47.2	15.5	0.00e+00	0	23	0	2840592384	57	4328
2026-01-10 13:53:19.60	313.57	18.12	-46.1	-47.2	15.5	0.00e+00	0	23	0	2845835264	57	4337
2026-01-10 13:53:20.60	313.75	18.04	-46.2	-47.3	15.5	0.00e+00	0	23	0	2852126720	57	4389
2026-01-10 13:53:21.60	313.94	17.97	-46.3	-47.5	15.4	0.00e+00	0	23	0	2857369600	57	4463
2026-01-10 13:53:22.59	314.12	17.89	-46.5	-47.7	15.5	0.00e+00	0	23	0	2862612480	58	4303
2026-01-10 13:53:23.59	314.30	17.82	-46.6	-47.8	15.4	0.00e+00	0	23	0	2868903936	58	4350
2026-01-10 13:53:24.59	314.48	17.74	-46.7	-48.0	15.4	0.00e+00	0	23	0	2874146816	58	4445
2026-01-10 13:53:25.58	314.66	17.67	-46.8	-48.0	15.3	0.00e+00	0	23	0	2880438272	58	4482
2026-01-10 13:53:26.59	314.84	17.59	-46.7	-47.9	15.4	0.00e+00	0	23	0	2885681152	58	4427
2026-01-10 13:53:27.59	315.02	17.52	-46.7	-47.9	15.4	0.00e+00	0	23	0	2890924032	58	4429
2026-01-10 13:53:28.59	315.19	17.44	-46.6	-47.7	15.4	0.00e+00	0	23	0	2897215488	58	4332
2026-01-10 13:53:29.60	315.37	17.37	-46.6	-47.7	15.4	0.00e+00	0	24	0	2902458368	58	4332
2026-01-10 13:53:30.59	315.55	17.29	-46.5	-47.6	15.4	0.00e+00	0	23	0	2907701248	58	4268
2026-01-10 13:53:31.60	315.72	17.22	-46.5	-47.7	15.4	0.00e+00	0	23	0	2913992704	58	4299
2026-01-10 13:53:32.60	315.90	17.14	-46.5	-47.7	15.4	0.00e+00	0	23	0	2919235584	58	4310
2026-01-10 13:53:33.59	316.07	17.07	-46.6	-47.8	15.4	0.00e+00	0	23	0	2924478464	58	4350
2026-01-10 13:53:34.58	316.24	16.99	-46.7	-47.9	15.4	0.00e+00	0	23	0	2930769920	58	4429
2026-01-10 13:53:35.57	316.41	16.92	-46.7	-47.9	15.4	0.00e+00	0	23	0	2936012800	58	4432
2026-01-10 13:53:36.57	316.58	16.85	-46.7	-47.9	15.3	0.00e+00	0	23	0	2942304256	58	4435
2026-01-10 13:53:37.57	316.75	16.77	-46.8	-48.0	15.3	0.00e+00	0	23	0	2947547136	58	4461
2026-01-10 13:53:38.57	316.92	16.70	-46.8	-48.0	15.4	0.00e+00	0	23	0	2952790016	58	4457
2026-01-10 13:53:39.57	317.08	16.62	-46.8	-48.0	15.3	0.00e+00	0	23	0	2959081472	58	4482
2026-01-10 13:53:40.56	317.25	16.55	-46.7	-47.9	15.4	0.00e+00	0	23	0	2964324352	58	4433
2026-01-10 13:53:41.56	317.42	16.47	-46.8	-48.0	15.4	0.00e+00	0	23	0	2969567232	58	4443
2026-01-10 13:53:42.57	317.58	16.39	-46.8	-48.0	15.3	0.00e+00	0	23	0	2975858688	58	4460
2026-01-10 13:53:43.56	317.75	16.32	-46.8	-48.1	15.3	0.00e+00	0	23	0	2981101568	58	4503
2026-01-10 13:53:44.55	317.91	16.25	-46.8	-48.0	15.3	0.00e+00	0	23	0	2987393024	58	4451
2026-01-10 13:53:45.55	318.07	16.17	-46.8	-48.0	15.3	0.00e+00	0	23	0	2992635904	58	4475
2026-01-10 13:53:46.54	318.23	16.10	-46.7	-47.9	15.4	0.00e+00	0	23	0	2997878784	58	4423
2026-01-10 13:53:47.54	318.39	16.02	-46.7	-47.9	15.4	0.00e+00	0	23	0	3003121664	58	4412
2026-01-10 13:53:48.53	318.55	15.95	-46.6	-47.8	15.4	0.00e+00	0	24	0	3009413120	58	4354
2026-01-10 13:53:49.53	318.71	15.87	-46.7	-47.9	15.4	0.00e+00	0	23	0	3014656000	58	4416
2026-01-10 13:53:50.53	318.87	15.80	-46.7	-47.9	15.4	0.00e+00	0	23	0	3019898880	58	4420
2026-01-10 13:53:51.52	319.03	15.72	-46.8	-48.0	15.3	0.00e+00	0	23	0	3026190336	58	4445
2026-01-10 13:53:52.53	319.19	15.65	-46.8	-48.0	15.3	0.00e+00	0	23	0	3031433216	58	4471
2026-01-10 13:53:53.52	319.34	15.57	-46.9	-48.1	15.4	0.00e+00	0	23	0	3037724672	59	4267
2026-01-10 13:53:54.51	319.50	15.50	-46.8	-48.0	15.4	0.00e+00	0	23	0	3042967552	59	4236
2026-01-10 13:53:55.51	319.65	15.43	-46.7	-47.9	15.5	0.00e+00	0	23	0	3048210432	59	4170
2026-01-10 13:53:56.51	319.81	15.35	-46.7	-47.9	15.5	0.00e+00	0	23	0	3054501888	59	4147
2026-01-10 13:53:57.51	319.96	15.28	-46.6	-47.7	15.5	0.00e+00	0	24	0	3059744768	59	4098
2026-01-10 13:53:58.50	320.12	15.20	-46.6	-47.8	15.5	0.00e+00	0	23	0	3064987648	59	4118
2026-01-10 13:53:59.49	320.27	15.13	-46.6	-47.7	15.5	0.00e+00	0	23	0	3070230528	59	4091
2026-01-10 13:54:00.50	320.42	15.05	-46.7	-47.9	15.5	0.00e+00	0	23	0	3076521984	59	4160
2026-01-10 13:54:01.50	320.57	14.98	-46.7	-47.9	15.5	0.00e+00	0	23	0	3081764864	59	4148
2026-01-10 13:54:02.49	320.72	14.90	-46.8	-48.0	15.4	0.00e+00	0	23	0	3088056320	59	4212
2026-01-10 13:54:03.48	320.87	14.83	-46.9	-48.1	15.4	0.00e+00	0	23	0	3093299200	59	4265
2026-01-10 13:54:04.49	321.02	14.76	-46.9	-48.1	15.4	0.00e+00	0	23	0	3098542080	59	4263
2026-01-10 13:54:05.48	321.16	14.68	-47.0	-48.3	15.3	0.00e+00	0	23	0	3104833536	59	4359
2026-01-10 13:54:06.48	321.31	14.61	-47.0	-48.3	15.3	0.00e+00	0	23	0	3110076416	59	4352
2026-01-10 13:54:07.48	321.46	14.53	-47.1	-48.4	15.3	0.00e+00	0	23	0	3115319296	59	4407
2026-01-10 13:54:08.48	321.61	14.46	-47.2	-48.4	15.3	0.00e+00	0	23	0	3121610752	59	4429
2026-01-10 13:54:09.48	321.75	14.39	-47.1	-48.4	15.3	0.00e+00	0	23	0	3126853632	59	4404
2026-01-10 13:54:10.49	321.90	14.31	-47.0	-48.3	15.3	0.00e+00	0	23	0	3132096512	59	4350
2026-01-10 13:54:11.49	322.04	14.24	-47.0	-48.3	15.3	0.00e+00	0	23	0	3138387968	59	4342
2026-01-10 13:54:12.49	322.18	14.16	-47.0	-48.2	15.3	0.00e+00	0	23	0	3143630848	59	4333
2026-01-10 13:54:13.48	322.33	14.09	-47.0	-48.2	15.3	0.00e+00	0	23	0	3149922304	59	4332
2026-01-10 13:54:14.49	322.47	14.02	-47.1	-48.3	15.3	0.00e+00	0	23	0	3155165184	59	4373
2026-01-10 13:54:15.48	322.61	13.94	-47.1	-48.4	15.3	0.00e+00	0	23	0	3160408064	59	4398
2026-01-10 13:54:16.48	322.75	13.87	-47.1	-48.4	15.3	0.00e+00	0	23	0	3166699520	59	4406
2026-01-10 13:54:17.48	322.89	13.79	-47.2	-48.5	15.2	0.00e+00	0	23	0	3171942400	59	4448
2026-01-10 13:54:18.48	323.03	13.72	-47.1	-48.4	15.3	0.00e+00	0	23	0	3177185280	59	4396
2026-01-10 13:54:19.48	323.17	13.65	-47.2	-48.4	15.3	0.00e+00	0	23	0	3183476736	59	4432
2026-01-10 13:54:20.48	323.30	13.57	-47.2	-48.4	15.3	0.00e+00	0	23	0	3188719616	59	4427
2026-01-10 13:54:21.48	323.44	13.50	-47.2	-48.4	15.2	0.00e+00	0	23	0	3193962496	59	4420
2026-01-10 13:54:22.47	323.58	13.43	-47.3	-48.5	15.2	0.00e+00	0	23	0	3200253952	59	4470
2026-01-10 13:54:23.46	323.71	13.36	-47.3	-48.5	15.2	0.00e+00	0	23	0	3205496832	59	4487
2026-01-10 13:54:24.46	323.85	13.28	-47.3	-48.5	15.2	0.00e+00	0	23	0	3211788288	59	4479
2026-01-10 13:54:25.45	323.98	13.21	-47.3	-48.6	15.2	0.00e+00	0	23	0	3217031168	59	4527
2026-01-10 13:54:26.45	324.11	13.14	-47.1	-48.3	15.4	0.00e+00	0	23	0	3222274048	60	4133
2026-01-10 13:54:27.45	324.25	13.07	-47.0	-48.3	15.4	0.00e+00	0	23	0	3228565504	60	4099
2026-01-10 13:54:28.45	324.38	12.99	-47.0	-48.2	15.4	0.00e+00	0	23	0	3233808384	60	4066
2026-01-10 13:54:29.45	324.51	12.92	-47.0	-48.3	15.4	0.00e+00	0	23	0	3239051264	60	4103
2026-01-10 13:54:30.45	324.64	12.85	-47.0	-48.2	15.4	0.00e+00	0	23	0	3244294144	60	4093
2026-01-10 13:54:31.45	324.77	12.77	-46.9	-48.1	15.4	0.00e+00	0	23	0	3250585600	60	4047
2026-01-10 13:54:32.45	324.91	12.70	-47.0	-48.2	15.4	0.00e+00	0	23	0	3255828480	60	4064
2026-01-10 13:54:33.45	325.03	12.63	-46.9	-48.1	15.5	0.00e+00	0	23	0	3262119936	60	4036
2026-01-10 13:54:34.45	325.16	12.56	-47.1	-48.3	15.4	0.00e+00	0	23	0	3267362816	60	4101
2026-01-10 13:54:35.44	325.29	12.49	-47.0	-48.2	15.4	0.00e+00	0	23	0	3272605696	60	4090
2026-01-10 13:54:36.43	325.42	12.42	-47.0	-48.2	15.4	0.00e+00	0	23	0	3278897152	60	4093
2026-01-10 13:54:37.43	325.54	12.34	-47.1	-48.3	15.4	0.00e+00	0	23	0	3284140032	60	4105
2026-01-10 13:54:38.42	325.67	12.27	-47.0	-48.2	15.4	0.00e+00	0	23	0	3289382912	60	4098
2026-01-10 13:54:39.42	325.80	12.20	-47.1	-48.3	15.4	0.00e+00	0	23	0	3295674368	60	4119
2026-01-10 13:54:40.43	325.92	12.13	-47.1	-48.3	15.3	0.00e+00	0	23	0	3300917248	60	4144
2026-01-10 13:54:41.42	326.05	12.06	-47.2	-48.4	15.3	0.00e+00	0	23	0	3306160128	60	4154
2026-01-10 13:54:42.42	326.17	11.99	-47.3	-48.5	15.3	0.00e+00	0	23	0	3312451584	60	4213
2026-01-10 13:54:43.42	326.29	11.91	-47.2	-48.5	15.3	0.00e+00	0	23	0	3317694464	60	4206
2026-01-10 13:54:44.43	326.42	11.84	-47.2	-48.5	15.3	0.00e+00	0	23	0	3323985920	60	4210
2026-01-10 13:54:45.42	326.54	11.77	-47.3	-48.6	15.2	0.00e+00	0	23	0	3329228800	60	4259
2026-01-10 13:54:46.42	326.66	11.70	-47.3	-48.5	15.3	0.00e+00	0	23	0	3334471680	60	4218
2026-01-10 13:54:47.42	326.78	11.63	-47.3	-48.5	15.3	0.00e+00	0	23	0	3340763136	60	4215
2026-01-10 13:54:48.41	326.90	11.56	-47.3	-48.5	15.3	0.00e+00	0	23	0	3346006016	60	4213
2026-01-10 13:54:49.41	327.02	11.49	-47.1	-48.4	15.3	0.00e+00	0	23	0	3351248896	60	4157
2026-01-10 13:54:50.41	327.14	11.42	-47.2	-48.5	15.3	0.00e+00	0	23	0	3357540352	60	4208
2026-01-10 13:54:51.41	327.26	11.35	-47.2	-48.4	15.3	0.00e+00	0	23	0	3362783232	60	4185
2026-01-10 13:54:52.40	327.38	11.28	-47.2	-48.4	15.3	0.00e+00	0	23	0	3368026112	60	4168
2026-01-10 13:54:53.40	327.50	11.21	-47.1	-48.3	15.4	0.00e+00	0	23	0	3374317568	60	4102
2026-01-10 13:54:54.40	327.62	11.14	-47.1	-48.3	15.3	0.00e+00	0	23	0	3379560448	60	4139
2026-01-10 13:54:55.40	327.73	11.07	-47.0	-48.2	15.4	0.00e+00	0	23	0	3385851904	60	4091
2026-01-10 13:54:56.41	327.85	11.00	-47.1	-48.3	15.3	0.00e+00	0	23	0	3391094784	60	4131
2026-01-10 13:54:57.41	327.97	10.93	-47.0	-48.2	15.4	0.00e+00	0	23	0	3396337664	60	4077
2026-01-10 13:54:58.40	328.08	10.86	-47.2	-48.4	15.3	0.00e+00	0	23	0	3401580544	60	4184
2026-01-10 13:54:59.40	328.20	10.79	-47.2	-48.4	15.3	0.00e+00	0	23	0	3407872000	60	4177
2026-01-10 13:55:00.41	328.31	10.72	-47.1	-48.3	15.3	0.00e+00	0	23	0	3413114880	60	4120
2026-01-10 13:55:01.41	328.43	10.65	-47.2	-48.4	15.3	0.00e+00	0	23	0	3419406336	60	4181
2026-01-10 13:55:02.42	328.54	10.58	-47.3	-48.5	15.2	0.00e+00	0	23	0	3424649216	60	4224
2026-01-10 13:55:03.42	328.65	10.51	-47.4	-48.7	15.2	0.00e+00	0	23	0	3429892096	60	4296
2026-01-10 13:55:04.43	328.77	10.44	-47.3	-48.6	15.2	0.00e+00	0	23	0	3436183552	60	4246
2026-01-10 13:55:05.43	328.88	10.37	-47.4	-48.7	15.1	0.00e+00	0	23	0	3441426432	60	4317
2026-01-10 13:55:06.43	328.99	10.30	-47.5	-48.8	15.1	0.00e+00	0	23	0	3447717888	60	4363
2026-01-10 13:55:07.43	329.10	10.23	-47.6	-48.9	15.0	0.00e+00	0	23	0	3452960768	60	4402
2026-01-10 13:55:08.43	329.21	10.16	-47.5	-48.8	15.1	0.00e+00	0	23	0	3458203648	60	4360
2026-01-10 13:55:09.43	329.32	10.09	-47.7	-49.0	15.0	0.00e+00	0	23	0	3464495104	60	4462
2026-01-10 13:55:10.42	329.43	10.02	-47.7	-49.0	15.0	0.00e+00	0	23	0	3469737984	60	4470
2026-01-10 13:55:11.43	329.54	9.95	-47.8	-49.1	15.0	0.00e+00	0	23	0	3474980864	60	4523
2026-01-10 13:55:12.43	329.65	9.88	-47.7	-49.1	15.0	0.00e+00	0	24	0	3481272320	60	4506
2026-01-10 13:55:13.43	329.76	9.82	-47.8	-49.1	14.9	0.00e+00	0	23	0	3486515200	60	4545
2026-01-10 13:55:14.43	329.86	9.75	-47.8	-49.2	15.1	0.00e+00	0	23	0	3491758080	61	4303
2026-01-10 13:55:15.43	329.97	9.68	-47.9	-49.3	15.0	0.00e+00	0	23	0	3498049536	61	4345
2026-01-10 13:55:16.43	330.08	9.61	-47.9	-49.2	15.0	0.00e+00	0	23	0	3503292416	61	4322
2026-01-10 13:55:17.43	330.18	9.54	-47.9	-49.2	15.0	0.00e+00	0	23	0	3509583872	61	4318
2026-01-10 13:55:18.43	330.29	9.48	-47.9	-49.2	15.0	0.00e+00	0	23	0	3514826752	61	4318
2026-01-10 13:55:19.43	330.39	9.41	-47.9	-49.2	15.0	0.00e+00	0	23	0	3520069632	61	4321
2026-01-10 13:55:20.43	330.50	9.34	-47.7	-49.0	15.1	0.00e+00	0	23	0	3526361088	61	4229
2026-01-10 13:55:21.43	330.60	9.27	-47.8	-49.1	15.1	0.00e+00	0	23	0	3531603968	61	4270
2026-01-10 13:55:22.43	330.71	9.21	-47.8	-49.1	15.1	0.00e+00	0	24	0	3536846848	61	4267
2026-01-10 13:55:23.43	330.81	9.14	-47.8	-49.1	15.1	0.00e+00	0	23	0	3543138304	61	4274
2026-01-10 13:55:24.43	330.91	9.07	-47.9	-49.2	15.0	0.00e+00	0	23	0	3548381184	61	4320
2026-01-10 13:55:25.43	331.01	9.00	-47.9	-49.2	15.0	0.00e+00	0	23	0	3553624064	61	4322
2026-01-10 13:55:26.43	331.12	8.94	-47.9	-49.2	15.0	0.00e+00	0	23	0	3559915520	61	4317
2026-01-10 13:55:27.43	331.22	8.87	-48.0	-49.3	15.0	0.00e+00	0	23	0	3565158400	61	4387
