passes_logs/2026/01/10/R3.2S_Murmansk/R3.2S_Murmansk__20260110_030554_NOAA_20_JPSS-1_rec.log

#Pass ID: 20260110_030554_NOAA 20 (JPSS-1)
#Satellite: NOAA 20 (JPSS-1)
#Configuration: NOAA 20
#almurnet v.1.7.20251203
#Start time: 2026-01-10 03:05:54

#Version: 2.2.20231116
#Station: R3.2S_Murmansk
#Location: 33.079688 lon 68.888172 lat
#TLE: 1 43013U 17073A   26009.26828276  .00000112  00000+0  74203-4 0  9990
#TLE: 2 43013  98.7631 310.2683 0001700  47.4387 312.6933 14.19534764421920

#Time	Az	El	Level	Level2	SNR	BER	BlckErr	Temp	State	Recorded	gain1	gain2
2026-01-10 03:05:54.51	38.46	1.99	-57.1	-73.0	3.8	1.49e+00	0	21	0	0	80	22410
2026-01-10 03:05:55.51	38.42	2.05	-57.0	-73.0	3.8	1.49e+00	0	21	104	0	79	23740
2026-01-10 03:05:56.51	38.37	2.11	-57.0	-73.0	3.8	1.49e+00	0	21	104	0	79	23705
2026-01-10 03:05:57.52	38.32	2.17	-57.0	-73.0	3.8	1.49e+00	0	21	104	0	79	23680
2026-01-10 03:05:58.51	38.27	2.23	-57.0	-73.0	3.8	1.49e+00	0	21	104	0	79	23697
2026-01-10 03:05:59.51	38.22	2.29	-57.0	-73.0	3.8	1.49e+00	0	21	104	0	79	23753
2026-01-10 03:06:00.51	38.17	2.35	-57.0	-73.0	3.8	1.49e+00	0	22	104	0	79	23730
2026-01-10 03:06:01.50	38.12	2.41	-57.0	-73.0	3.8	1.49e+00	0	21	104	0	79	23746
2026-01-10 03:06:02.51	38.07	2.47	-57.0	-73.0	3.8	1.49e+00	0	21	104	0	79	23730
2026-01-10 03:06:03.52	38.02	2.53	-57.0	-73.0	3.8	1.49e+00	0	22	104	0	79	23754
2026-01-10 03:06:04.51	37.97	2.59	-57.0	-73.0	3.8	1.49e+00	0	22	104	0	79	23818
2026-01-10 03:06:05.52	37.92	2.66	-57.0	-73.0	3.8	1.49e+00	0	22	104	0	79	23805
2026-01-10 03:06:06.52	37.87	2.72	-57.0	-73.0	3.8	1.49e+00	0	21	104	0	79	23700
2026-01-10 03:06:07.52	37.82	2.78	-57.0	-73.0	3.8	1.49e+00	0	22	104	0	79	23586
2026-01-10 03:06:08.52	37.77	2.84	-57.0	-73.0	3.8	1.49e+00	0	22	104	0	79	23657
2026-01-10 03:06:09.52	37.72	2.90	-57.0	-72.9	3.8	1.49e+00	0	22	104	0	79	23463
2026-01-10 03:06:10.53	37.67	2.96	-57.0	-72.9	3.8	1.49e+00	0	22	104	0	79	23579
2026-01-10 03:06:11.53	37.61	3.02	-57.0	-72.9	3.8	1.49e+00	0	22	104	0	79	23548
2026-01-10 03:06:12.53	37.56	3.09	-57.0	-72.9	3.8	1.49e+00	0	22	104	0	79	23571
2026-01-10 03:06:13.53	37.51	3.15	-57.0	-73.0	3.8	1.49e+00	0	22	104	0	79	23626
2026-01-10 03:06:14.54	37.46	3.21	-57.0	-73.0	3.8	1.49e+00	0	22	104	0	79	23721
2026-01-10 03:06:15.54	37.41	3.27	-57.0	-73.0	3.8	1.49e+00	0	22	104	0	79	23725
2026-01-10 03:06:16.54	37.35	3.33	-57.0	-73.0	3.8	1.49e+00	0	22	104	0	79	23702
2026-01-10 03:06:17.55	37.30	3.40	-57.0	-73.0	3.8	1.49e+00	0	22	104	0	79	23662
2026-01-10 03:06:18.55	37.25	3.46	-57.0	-73.0	3.8	1.49e+00	0	22	104	0	79	23646
2026-01-10 03:06:19.55	37.19	3.52	-57.0	-73.0	3.8	1.49e+00	0	22	104	0	79	23780
2026-01-10 03:06:20.56	37.14	3.59	-57.0	-73.0	3.8	1.49e+00	0	22	104	0	79	23712
2026-01-10 03:06:21.56	37.08	3.65	-57.0	-73.0	3.8	1.49e+00	0	22	104	0	79	23730
2026-01-10 03:06:22.56	37.03	3.71	-57.0	-73.0	3.8	1.49e+00	0	22	104	0	79	23711
2026-01-10 03:06:23.56	36.97	3.77	-57.0	-72.9	3.8	1.49e+00	0	22	104	0	79	23535
2026-01-10 03:06:24.56	36.92	3.84	-57.0	-72.8	3.8	1.49e+00	0	22	104	0	79	23275
2026-01-10 03:06:25.57	36.86	3.90	-57.0	-72.6	3.8	1.49e+00	0	22	104	0	79	22664
2026-01-10 03:06:26.57	36.81	3.96	-57.0	-72.4	3.8	1.49e+00	0	22	104	0	79	22240
2026-01-10 03:06:27.57	36.75	4.03	-57.0	-72.1	3.8	1.49e+00	0	22	104	0	79	21481
2026-01-10 03:06:28.58	36.70	4.09	-57.0	-71.7	3.8	1.49e+00	0	22	104	0	79	20444
2026-01-10 03:06:29.57	36.64	4.15	-57.0	-71.4	3.8	1.49e+00	0	22	104	0	79	19647
2026-01-10 03:06:30.58	36.58	4.22	-57.0	-71.0	3.8	1.49e+00	0	22	104	0	79	18920
2026-01-10 03:06:31.58	36.53	4.28	-56.9	-70.6	3.8	1.49e+00	0	22	104	0	79	17907
2026-01-10 03:06:32.58	36.47	4.35	-56.9	-70.0	4.1	1.47e+00	0	22	0	0	79	16715
2026-01-10 03:06:33.59	36.41	4.41	-56.9	-69.3	4.2	1.38e+00	0	22	0	0	79	15439
2026-01-10 03:06:34.59	36.35	4.48	-56.8	-68.3	4.6	1.09e+00	0	22	0	1048576	79	13751
2026-01-10 03:06:35.59	36.30	4.54	-56.8	-67.5	5.0	8.06e-01	0	22	0	3145728	79	12537
2026-01-10 03:06:36.60	36.24	4.61	-56.7	-66.6	5.5	5.73e-01	0	22	0	5242880	79	11300
2026-01-10 03:06:37.60	36.18	4.67	-56.6	-65.6	6.1	3.52e-01	0	22	0	6291456	79	10105
2026-01-10 03:06:38.61	36.12	4.74	-56.5	-65.1	6.4	2.33e-01	0	22	0	8388608	79	9587
2026-01-10 03:06:39.61	36.06	4.80	-56.4	-64.7	6.8	1.99e-01	0	22	0	10485760	79	9091
2026-01-10 03:06:40.62	36.00	4.87	-56.3	-64.2	7.2	1.18e-01	0	22	0	12582912	79	8604
2026-01-10 03:06:41.62	35.94	4.93	-56.4	-64.4	7.0	1.14e-01	0	22	0	14680064	79	8833
2026-01-10 03:06:42.62	35.88	5.00	-56.4	-64.6	6.8	1.22e-01	0	22	0	15728640	79	9039
2026-01-10 03:06:43.63	35.82	5.06	-56.5	-64.4	7.2	1.14e-01	0	22	0	17825792	79	8801
2026-01-10 03:06:44.63	35.76	5.13	-55.3	-60.1	10.8	7.96e-02	0	22	0	19922944	77	6043
2026-01-10 03:06:45.62	35.70	5.19	-56.6	-66.4	5.7	1.79e-04	0	22	0	22020096	78	11706
2026-01-10 03:06:46.62	35.64	5.26	-56.4	-63.5	7.8	1.44e+00	0	23	0	22020096	78	8455
2026-01-10 03:06:47.62	35.58	5.33	-55.0	-59.2	11.7	3.18e-03	0	23	0	23068672	76	5779
2026-01-10 03:06:48.62	35.52	5.39	-54.7	-58.7	12.0	1.22e-02	0	22	0	25165824	76	5440
2026-01-10 03:06:49.62	35.46	5.46	-54.5	-58.3	12.3	3.00e-06	0	22	0	27262976	75	5509
2026-01-10 03:06:50.62	35.39	5.52	-54.2	-57.7	12.8	1.50e-06	0	22	0	29360128	75	5129
2026-01-10 03:06:51.63	35.33	5.59	-53.8	-57.0	13.2	0.00e+00	0	22	0	31457280	74	5011
2026-01-10 03:06:52.62	35.27	5.66	-53.8	-56.9	13.4	0.00e+00	0	22	0	32505856	74	4927
2026-01-10 03:06:53.62	35.21	5.72	-53.7	-56.8	13.4	0.00e+00	0	22	0	34603008	74	4877
2026-01-10 03:06:54.62	35.14	5.79	-53.7	-56.8	13.2	0.00e+00	0	22	0	36700160	73	5184
2026-01-10 03:06:55.62	35.08	5.86	-53.7	-56.8	13.2	0.00e+00	0	23	0	38797312	73	5196
2026-01-10 03:06:56.62	35.02	5.92	-53.7	-56.7	13.3	0.00e+00	0	23	0	39845888	73	5148
2026-01-10 03:06:57.62	34.95	5.99	-53.6	-56.6	13.3	0.00e+00	0	22	0	41943040	73	5079
2026-01-10 03:06:58.62	34.89	6.06	-53.5	-56.4	13.6	0.00e+00	0	23	0	44040192	73	4929
2026-01-10 03:06:59.62	34.82	6.13	-53.5	-56.4	13.6	0.00e+00	0	22	0	46137344	73	4932
2026-01-10 03:07:00.61	34.76	6.19	-53.4	-56.2	13.7	0.00e+00	0	23	0	48234496	73	4869
2026-01-10 03:07:01.61	34.69	6.26	-53.4	-56.2	13.7	0.00e+00	0	23	0	49283072	73	4859
2026-01-10 03:07:02.60	34.63	6.33	-53.5	-56.4	13.6	0.00e+00	0	22	0	51380224	73	4960
2026-01-10 03:07:03.60	34.56	6.40	-53.4	-56.2	13.7	0.00e+00	0	23	0	53477376	73	4868
2026-01-10 03:07:04.60	34.50	6.47	-53.5	-56.3	13.7	0.00e+00	0	23	0	55574528	73	4916
2026-01-10 03:07:05.60	34.43	6.53	-53.4	-56.2	13.7	0.00e+00	0	23	0	57671680	73	4865
2026-01-10 03:07:06.61	34.36	6.60	-53.5	-56.3	13.7	0.00e+00	0	23	0	58720256	73	4899
2026-01-10 03:07:07.61	34.29	6.67	-53.4	-56.2	13.7	0.00e+00	0	23	0	60817408	73	4835
2026-01-10 03:07:08.62	34.22	6.74	-53.5	-56.3	13.7	0.00e+00	0	23	0	62914560	73	4888
2026-01-10 03:07:09.61	34.16	6.81	-53.5	-56.4	13.6	0.00e+00	0	23	0	65011712	73	4946
2026-01-10 03:07:10.61	34.09	6.88	-53.4	-56.2	13.7	0.00e+00	0	23	0	66060288	73	4835
2026-01-10 03:07:11.61	34.02	6.95	-53.5	-56.3	13.7	0.00e+00	0	23	0	68157440	73	4912
2026-01-10 03:07:12.61	33.95	7.02	-53.5	-56.3	13.7	0.00e+00	0	23	0	70254592	73	4922
2026-01-10 03:07:13.61	33.88	7.09	-53.5	-56.4	13.6	0.00e+00	0	23	0	72351744	73	4931
2026-01-10 03:07:14.61	33.81	7.16	-53.5	-56.3	13.7	0.00e+00	0	23	0	74448896	73	4879
2026-01-10 03:07:15.62	33.74	7.23	-53.4	-56.2	13.8	0.00e+00	0	23	0	75497472	73	4827
2026-01-10 03:07:16.62	33.67	7.30	-53.5	-56.3	13.7	0.00e+00	0	23	0	77594624	73	4886
2026-01-10 03:07:17.62	33.60	7.37	-53.5	-56.3	13.7	0.00e+00	0	22	0	79691776	73	4874
2026-01-10 03:07:18.63	33.53	7.44	-53.5	-56.2	13.8	0.00e+00	0	23	0	81788928	73	4845
2026-01-10 03:07:19.62	33.46	7.51	-53.5	-56.3	13.7	0.00e+00	0	23	0	83886080	73	4895
2026-01-10 03:07:20.63	33.38	7.58	-53.5	-56.2	13.8	0.00e+00	0	23	0	84934656	73	4839
2026-01-10 03:07:21.62	33.31	7.65	-53.5	-56.3	13.8	0.00e+00	0	23	0	87031808	73	4883
2026-01-10 03:07:22.62	33.24	7.72	-53.5	-56.3	13.7	0.00e+00	0	23	0	89128960	73	4914
2026-01-10 03:07:23.62	33.17	7.79	-53.5	-56.3	13.7	0.00e+00	0	23	0	91226112	73	4884
2026-01-10 03:07:24.62	33.09	7.86	-53.5	-56.2	13.8	0.00e+00	0	23	0	93323264	73	4841
2026-01-10 03:07:25.62	33.02	7.93	-53.5	-56.2	13.8	0.00e+00	0	23	0	94371840	73	4851
2026-01-10 03:07:26.62	32.94	8.01	-53.4	-56.1	13.8	0.00e+00	0	23	0	96468992	73	4812
2026-01-10 03:07:27.62	32.87	8.08	-53.4	-56.1	13.9	0.00e+00	0	23	0	98566144	73	4795
2026-01-10 03:07:28.62	32.79	8.15	-53.5	-56.2	13.8	0.00e+00	0	23	0	100663296	73	4827
2026-01-10 03:07:29.61	32.72	8.22	-53.5	-56.2	13.8	0.00e+00	0	23	0	101711872	73	4852
2026-01-10 03:07:30.62	32.64	8.29	-53.4	-56.1	13.9	0.00e+00	0	23	0	103809024	73	4781
2026-01-10 03:07:31.62	32.57	8.37	-53.4	-56.1	13.8	0.00e+00	0	23	0	105906176	73	4801
2026-01-10 03:07:32.62	32.49	8.44	-53.5	-56.2	13.8	0.00e+00	0	23	0	108003328	73	4861
2026-01-10 03:07:33.63	32.41	8.51	-53.4	-56.1	13.9	0.00e+00	0	23	0	110100480	73	4803
2026-01-10 03:07:34.63	32.34	8.59	-53.3	-55.9	14.0	0.00e+00	0	23	0	111149056	73	4697
2026-01-10 03:07:35.64	32.26	8.66	-53.4	-56.0	14.0	0.00e+00	0	23	0	113246208	73	4720
2026-01-10 03:07:36.64	32.18	8.73	-53.3	-55.9	14.1	0.00e+00	0	23	0	115343360	73	4655
2026-01-10 03:07:37.64	32.10	8.81	-53.3	-55.9	14.1	0.00e+00	0	23	0	117440512	73	4653
2026-01-10 03:07:38.64	32.02	8.88	-53.3	-55.8	14.1	0.00e+00	0	23	0	119537664	73	4631
2026-01-10 03:07:39.64	31.94	8.95	-53.2	-55.8	14.1	0.00e+00	0	23	0	120586240	73	4602
2026-01-10 03:07:40.64	31.86	9.03	-53.2	-55.8	14.1	0.00e+00	0	23	0	122683392	73	4602
2026-01-10 03:07:41.64	31.78	9.10	-53.2	-55.7	14.0	0.00e+00	0	23	0	124780544	72	4833
2026-01-10 03:07:42.64	31.70	9.17	-53.1	-55.6	14.1	0.00e+00	0	23	0	126877696	72	4796
2026-01-10 03:07:43.64	31.62	9.25	-53.1	-55.5	14.2	0.00e+00	0	23	0	128974848	72	4745
2026-01-10 03:07:44.64	31.54	9.32	-53.0	-55.4	14.2	0.00e+00	0	23	0	130023424	72	4703
2026-01-10 03:07:45.64	31.46	9.40	-53.1	-55.5	14.2	0.00e+00	0	23	0	132120576	72	4758
2026-01-10 03:07:46.65	31.37	9.47	-53.0	-55.4	14.2	0.00e+00	0	23	0	134217728	72	4698
2026-01-10 03:07:47.65	31.29	9.55	-53.0	-55.5	14.2	0.00e+00	0	23	0	136314880	72	4713
2026-01-10 03:07:48.65	31.21	9.62	-53.1	-55.6	14.1	0.00e+00	0	23	0	137363456	72	4779
2026-01-10 03:07:49.65	31.12	9.70	-52.9	-55.3	14.3	0.00e+00	0	23	0	139460608	72	4645
2026-01-10 03:07:50.65	31.04	9.77	-52.9	-55.3	14.3	0.00e+00	0	23	0	141557760	72	4603
2026-01-10 03:07:51.65	30.95	9.85	-52.9	-55.2	14.4	0.00e+00	0	23	0	143654912	72	4592
2026-01-10 03:07:52.65	30.87	9.92	-52.9	-55.2	14.3	0.00e+00	0	23	0	145752064	72	4577
2026-01-10 03:07:53.65	30.78	10.00	-52.9	-55.2	14.4	0.00e+00	0	23	0	146800640	72	4581
2026-01-10 03:07:54.65	30.70	10.08	-52.9	-55.2	14.4	0.00e+00	0	23	0	148897792	72	4576
2026-01-10 03:07:55.65	30.61	10.15	-52.7	-55.0	14.5	0.00e+00	0	23	0	150994944	72	4452
2026-01-10 03:07:56.64	30.52	10.23	-52.8	-55.1	14.5	0.00e+00	0	23	0	153092096	72	4522
2026-01-10 03:07:57.64	30.44	10.30	-52.9	-55.2	14.4	0.00e+00	0	23	0	155189248	72	4566
2026-01-10 03:07:58.64	30.35	10.38	-52.8	-55.1	14.5	0.00e+00	0	23	0	156237824	72	4519
2026-01-10 03:07:59.64	30.26	10.46	-52.7	-54.9	14.6	0.00e+00	0	23	0	158334976	72	4438
2026-01-10 03:08:00.64	30.17	10.54	-52.8	-55.0	14.5	0.00e+00	0	23	0	160432128	72	4479
2026-01-10 03:08:01.63	30.08	10.61	-52.8	-55.1	14.5	0.00e+00	0	23	0	162529280	72	4508
2026-01-10 03:08:02.64	29.99	10.69	-52.8	-55.0	14.5	0.00e+00	0	23	0	163577856	72	4484
2026-01-10 03:08:03.65	29.90	10.77	-52.7	-55.0	14.5	0.00e+00	0	23	0	165675008	72	4454
2026-01-10 03:08:04.65	29.81	10.85	-52.8	-55.0	14.5	0.00e+00	0	23	0	167772160	72	4481
2026-01-10 03:08:05.64	29.72	10.92	-52.8	-55.1	14.5	0.00e+00	0	23	0	169869312	72	4499
2026-01-10 03:08:06.64	29.63	11.00	-52.8	-55.0	14.5	0.00e+00	0	23	0	171966464	72	4486
2026-01-10 03:08:07.64	29.53	11.08	-52.8	-55.1	14.5	0.00e+00	0	23	0	173015040	72	4501
2026-01-10 03:08:08.64	29.44	11.16	-52.7	-55.0	14.5	0.00e+00	0	23	0	175112192	72	4456
2026-01-10 03:08:09.64	29.35	11.24	-52.8	-55.1	14.5	0.00e+00	0	23	0	177209344	72	4507
2026-01-10 03:08:10.65	29.25	11.32	-52.8	-55.0	14.5	0.00e+00	0	23	0	179306496	72	4492
2026-01-10 03:08:11.65	29.16	11.40	-52.6	-54.8	14.5	0.00e+00	0	23	0	181403648	71	4634
2026-01-10 03:08:12.65	29.06	11.47	-52.7	-55.0	14.4	0.00e+00	0	23	0	182452224	71	4708
2026-01-10 03:08:13.64	28.97	11.55	-52.8	-55.1	14.3	0.00e+00	0	23	0	184549376	71	4760
2026-01-10 03:08:14.65	28.87	11.63	-52.7	-54.9	14.4	0.00e+00	0	23	0	186646528	71	4676
2026-01-10 03:08:15.65	28.78	11.71	-52.6	-54.9	14.5	0.00e+00	0	23	0	188743680	71	4668
2026-01-10 03:08:16.65	28.68	11.79	-52.6	-54.8	14.5	0.00e+00	0	23	0	190840832	71	4604
2026-01-10 03:08:17.65	28.58	11.87	-52.7	-54.9	14.5	0.00e+00	0	23	0	191889408	71	4678
2026-01-10 03:08:18.65	28.48	11.95	-52.7	-54.9	14.4	0.00e+00	0	23	0	193986560	71	4686
2026-01-10 03:08:19.65	28.38	12.03	-52.6	-54.7	14.5	0.00e+00	0	23	0	196083712	71	4596
2026-01-10 03:08:20.66	28.28	12.12	-52.6	-54.8	14.6	0.00e+00	0	23	0	198180864	71	4607
2026-01-10 03:08:21.66	28.18	12.20	-52.6	-54.7	14.6	0.00e+00	0	23	0	200278016	71	4595
2026-01-10 03:08:22.66	28.08	12.28	-52.5	-54.6	14.6	0.00e+00	0	23	0	201326592	71	4536
2026-01-10 03:08:23.66	27.98	12.36	-52.5	-54.6	14.6	0.00e+00	0	23	0	203423744	71	4529
2026-01-10 03:08:24.66	27.88	12.44	-52.4	-54.6	14.7	0.00e+00	0	23	0	205520896	71	4496
2026-01-10 03:08:25.67	27.78	12.52	-52.4	-54.6	14.7	0.00e+00	0	23	0	207618048	71	4494
2026-01-10 03:08:26.67	27.67	12.60	-52.5	-54.6	14.7	0.00e+00	0	23	0	208666624	71	4515
2026-01-10 03:08:27.67	27.57	12.69	-52.5	-54.7	14.6	0.00e+00	0	23	0	210763776	71	4579
2026-01-10 03:08:28.68	27.46	12.77	-52.6	-54.8	14.5	0.00e+00	0	23	0	212860928	71	4619
2026-01-10 03:08:29.67	27.36	12.85	-52.5	-54.7	14.6	0.00e+00	0	23	0	214958080	71	4566
2026-01-10 03:08:30.67	27.25	12.93	-52.6	-54.7	14.6	0.00e+00	0	23	0	217055232	71	4597
2026-01-10 03:08:31.68	27.15	13.02	-52.5	-54.6	14.6	0.00e+00	0	23	0	218103808	71	4527
2026-01-10 03:08:32.67	27.04	13.10	-52.4	-54.5	14.7	0.00e+00	0	23	0	220200960	71	4472
2026-01-10 03:08:33.68	26.93	13.18	-52.5	-54.6	14.6	0.00e+00	0	23	0	222298112	71	4534
2026-01-10 03:08:34.69	26.83	13.26	-52.5	-54.7	14.6	0.00e+00	0	23	0	224395264	71	4565
2026-01-10 03:08:35.68	26.72	13.35	-52.5	-54.6	14.6	0.00e+00	0	23	0	226492416	71	4519
2026-01-10 03:08:36.69	26.61	13.43	-52.4	-54.6	14.7	0.00e+00	0	23	0	227540992	71	4506
2026-01-10 03:08:37.69	26.50	13.52	-52.5	-54.6	14.6	0.00e+00	0	23	0	229638144	71	4538
2026-01-10 03:08:38.69	26.39	13.60	-52.5	-54.7	14.6	0.00e+00	0	23	0	231735296	71	4558
2026-01-10 03:08:39.70	26.28	13.68	-52.5	-54.7	14.6	0.00e+00	0	23	0	233832448	71	4559
2026-01-10 03:08:40.71	26.16	13.77	-52.5	-54.6	14.6	0.00e+00	0	23	0	235929600	71	4536
2026-01-10 03:08:41.71	26.05	13.85	-52.6	-54.8	14.6	0.00e+00	0	23	0	236978176	71	4605
2026-01-10 03:08:42.71	25.94	13.94	-52.5	-54.7	14.6	0.00e+00	0	23	0	239075328	71	4570
2026-01-10 03:08:43.72	25.82	14.02	-52.6	-54.7	14.6	0.00e+00	0	23	0	241172480	71	4581
2026-01-10 03:08:44.71	25.71	14.11	-52.6	-54.8	14.5	0.00e+00	0	23	0	243269632	71	4616
2026-01-10 03:08:45.72	25.59	14.19	-52.6	-54.7	14.6	0.00e+00	0	23	0	245366784	71	4578
2026-01-10 03:08:46.73	25.48	14.28	-52.6	-54.8	14.6	0.00e+00	0	23	0	246415360	71	4599
2026-01-10 03:08:47.73	25.36	14.36	-52.7	-54.9	14.5	0.00e+00	0	23	0	248512512	71	4675
2026-01-10 03:08:48.74	25.24	14.45	-52.7	-54.9	14.5	0.00e+00	0	23	0	250609664	71	4673
2026-01-10 03:08:49.73	25.13	14.54	-52.7	-54.9	14.5	0.00e+00	0	23	0	252706816	71	4672
2026-01-10 03:08:50.73	25.01	14.62	-52.7	-54.9	14.4	0.00e+00	0	23	0	253755392	71	4705
2026-01-10 03:08:51.73	24.89	14.71	-52.7	-54.9	14.4	0.00e+00	0	23	0	255852544	71	4696
2026-01-10 03:08:52.72	24.77	14.79	-52.7	-54.9	14.5	0.00e+00	0	23	0	257949696	71	4686
2026-01-10 03:08:53.73	24.65	14.88	-52.6	-54.8	14.5	0.00e+00	0	23	0	260046848	71	4630
2026-01-10 03:08:54.72	24.53	14.97	-52.7	-54.9	14.5	0.00e+00	0	23	0	262144000	71	4685
2026-01-10 03:08:55.72	24.41	15.05	-52.7	-54.9	14.5	0.00e+00	0	23	0	263192576	71	4686
2026-01-10 03:08:56.72	24.28	15.14	-52.7	-54.9	14.5	0.00e+00	0	23	0	265289728	71	4677
2026-01-10 03:08:57.72	24.16	15.23	-52.7	-54.9	14.5	0.00e+00	0	23	0	267386880	71	4673
2026-01-10 03:08:58.72	24.03	15.32	-52.7	-54.9	14.5	0.00e+00	0	23	0	269484032	71	4677
2026-01-10 03:08:59.71	23.91	15.40	-52.7	-55.0	14.5	0.00e+00	0	23	0	271581184	71	4712
2026-01-10 03:09:00.72	23.78	15.49	-52.6	-54.8	14.5	0.00e+00	0	23	0	272629760	71	4636
2026-01-10 03:09:01.71	23.66	15.58	-52.7	-54.9	14.5	0.00e+00	0	23	0	274726912	71	4664
2026-01-10 03:09:02.72	23.53	15.67	-52.7	-54.9	14.5	0.00e+00	0	23	0	276824064	71	4668
2026-01-10 03:09:03.72	23.40	15.76	-52.6	-54.8	14.5	0.00e+00	0	23	0	278921216	71	4639
2026-01-10 03:09:04.71	23.27	15.84	-52.6	-54.8	14.6	0.00e+00	0	23	0	281018368	71	4609
2026-01-10 03:09:05.72	23.14	15.93	-52.6	-54.8	14.6	0.00e+00	0	23	0	282066944	71	4607
2026-01-10 03:09:06.72	23.01	16.02	-52.7	-54.9	14.5	0.00e+00	0	23	0	284164096	71	4676
2026-01-10 03:09:07.72	22.88	16.11	-52.7	-54.9	14.5	0.00e+00	0	23	0	286261248	71	4673
2026-01-10 03:09:08.72	22.75	16.20	-52.7	-54.9	14.5	0.00e+00	0	23	0	288358400	71	4659
2026-01-10 03:09:09.72	22.62	16.29	-52.6	-54.8	14.6	0.00e+00	0	23	0	289406976	71	4623
2026-01-10 03:09:10.72	22.48	16.38	-52.7	-54.8	14.6	0.00e+00	0	23	0	291504128	71	4633
2026-01-10 03:09:11.71	22.35	16.47	-52.7	-54.8	14.6	0.00e+00	0	23	0	293601280	71	4639
2026-01-10 03:09:12.71	22.22	16.56	-52.7	-54.9	14.5	0.00e+00	0	23	0	295698432	71	4657
2026-01-10 03:09:13.72	22.08	16.65	-52.6	-54.7	14.6	0.00e+00	0	23	0	297795584	71	4596
2026-01-10 03:09:14.72	21.94	16.74	-52.7	-54.9	14.5	0.00e+00	0	23	0	298844160	71	4668
2026-01-10 03:09:15.72	21.80	16.83	-52.6	-54.7	14.6	0.00e+00	0	23	0	300941312	71	4582
2026-01-10 03:09:16.72	21.66	16.92	-52.5	-54.6	14.7	0.00e+00	0	23	0	303038464	71	4532
2026-01-10 03:09:17.72	21.53	17.01	-52.5	-54.6	14.7	0.00e+00	0	23	0	305135616	71	4525
2026-01-10 03:09:18.72	21.39	17.10	-52.5	-54.5	14.7	0.00e+00	0	23	0	307232768	71	4493
2026-01-10 03:09:19.73	21.24	17.19	-52.5	-54.5	14.8	0.00e+00	0	23	0	308281344	71	4464
2026-01-10 03:09:20.73	21.10	17.28	-52.5	-54.6	14.7	0.00e+00	0	23	0	310378496	71	4539
2026-01-10 03:09:21.73	20.96	17.37	-52.4	-54.5	14.8	0.00e+00	0	23	0	312475648	71	4455
2026-01-10 03:09:22.73	20.81	17.46	-52.5	-54.5	14.7	0.00e+00	0	23	0	314572800	71	4484
2026-01-10 03:09:23.73	20.67	17.56	-52.4	-54.4	14.8	0.00e+00	0	23	0	315621376	71	4406
2026-01-10 03:09:24.73	20.52	17.65	-52.3	-54.3	14.8	0.00e+00	0	23	0	317718528	71	4387
2026-01-10 03:09:25.72	20.38	17.74	-52.5	-54.5	14.7	0.00e+00	0	23	0	319815680	71	4474
2026-01-10 03:09:26.72	20.23	17.83	-52.3	-54.4	14.8	0.00e+00	0	23	0	321912832	71	4400
2026-01-10 03:09:27.72	20.08	17.92	-52.3	-54.3	14.9	0.00e+00	0	23	0	324009984	71	4382
2026-01-10 03:09:28.72	19.93	18.01	-52.4	-54.4	14.8	0.00e+00	0	23	0	325058560	71	4440
2026-01-10 03:09:29.71	19.78	18.11	-52.3	-54.3	14.9	0.00e+00	0	23	0	327155712	71	4370
2026-01-10 03:09:30.72	19.63	18.20	-52.2	-54.2	14.9	0.00e+00	0	23	0	329252864	71	4312
2026-01-10 03:09:31.72	19.48	18.29	-52.2	-54.2	15.0	0.00e+00	0	23	0	331350016	71	4308
2026-01-10 03:09:32.72	19.33	18.38	-52.3	-54.3	14.9	0.00e+00	0	23	0	333447168	71	4356
2026-01-10 03:09:33.72	19.17	18.48	-52.1	-54.1	14.9	0.00e+00	0	23	0	334495744	70	4504
2026-01-10 03:09:34.72	19.02	18.57	-52.2	-54.2	14.8	0.00e+00	0	23	0	336592896	70	4550
2026-01-10 03:09:35.73	18.86	18.66	-52.2	-54.2	14.8	0.00e+00	0	23	0	338690048	70	4563
2026-01-10 03:09:36.72	18.70	18.76	-52.2	-54.1	14.8	0.00e+00	0	23	0	340787200	70	4544
2026-01-10 03:09:37.73	18.55	18.85	-52.2	-54.1	14.8	0.00e+00	0	23	0	342884352	70	4529
2026-01-10 03:09:38.73	18.39	18.95	-52.2	-54.1	14.8	0.00e+00	0	23	0	343932928	70	4531
2026-01-10 03:09:39.73	18.23	19.04	-52.1	-54.1	14.8	0.00e+00	0	23	0	346030080	70	4514
2026-01-10 03:09:40.74	18.06	19.13	-52.2	-54.1	14.8	0.00e+00	0	23	0	348127232	70	4529
2026-01-10 03:09:41.74	17.90	19.23	-52.1	-54.1	14.8	0.00e+00	0	23	0	350224384	70	4498
2026-01-10 03:09:42.74	17.74	19.32	-52.1	-54.1	14.9	0.00e+00	0	23	0	351272960	70	4503
2026-01-10 03:09:43.74	17.58	19.42	-52.1	-54.1	14.8	0.00e+00	0	23	0	353370112	70	4513
2026-01-10 03:09:44.74	17.41	19.51	-52.1	-54.0	14.9	0.00e+00	0	23	0	355467264	70	4475
2026-01-10 03:09:45.75	17.24	19.60	-52.0	-54.0	14.9	0.00e+00	0	23	0	357564416	70	4445
2026-01-10 03:09:46.75	17.08	19.70	-52.2	-54.1	14.9	0.00e+00	0	23	0	359661568	70	4530
2026-01-10 03:09:47.75	16.91	19.79	-51.9	-53.8	15.0	0.00e+00	0	23	0	361758720	70	4370
2026-01-10 03:09:48.75	16.74	19.89	-52.0	-53.9	15.0	0.00e+00	0	23	0	362807296	70	4393
2026-01-10 03:09:49.75	16.57	19.98	-52.0	-53.9	15.0	0.00e+00	0	23	0	364904448	70	4409
2026-01-10 03:09:50.75	16.40	20.08	-52.0	-53.9	15.0	0.00e+00	0	23	0	367001600	70	4402
2026-01-10 03:09:51.74	16.23	20.17	-51.9	-53.8	15.0	0.00e+00	0	23	0	369098752	70	4355
2026-01-10 03:09:52.74	16.05	20.27	-52.0	-53.8	15.0	0.00e+00	0	23	0	370147328	70	4390
2026-01-10 03:09:53.74	15.88	20.36	-52.0	-53.9	15.0	0.00e+00	0	23	0	372244480	70	4404
2026-01-10 03:09:54.73	15.70	20.46	-52.1	-54.0	14.9	0.00e+00	0	23	0	374341632	70	4462
2026-01-10 03:09:55.74	15.53	20.55	-52.1	-54.0	14.9	0.00e+00	0	23	0	376438784	70	4448
2026-01-10 03:09:56.74	15.35	20.65	-52.1	-54.0	14.9	0.00e+00	0	23	0	378535936	70	4475
2026-01-10 03:09:57.73	15.17	20.74	-52.1	-54.0	14.9	0.00e+00	0	23	0	379584512	70	4477
2026-01-10 03:09:58.73	14.99	20.84	-52.2	-54.2	14.8	0.00e+00	0	23	0	381681664	70	4548
2026-01-10 03:09:59.73	14.81	20.93	-52.3	-54.2	14.8	0.00e+00	0	23	0	383778816	70	4598
2026-01-10 03:10:00.73	14.63	21.03	-52.4	-54.4	14.6	0.00e+00	0	23	0	385875968	70	4688
2026-01-10 03:10:01.72	14.44	21.12	-52.4	-54.5	14.7	0.00e+00	0	23	0	386924544	70	4707
2026-01-10 03:10:02.72	14.26	21.22	-52.4	-54.4	14.7	0.00e+00	0	23	0	389021696	70	4658
2026-01-10 03:10:03.72	14.07	21.31	-52.4	-54.5	14.6	0.00e+00	0	23	0	391118848	70	4715
2026-01-10 03:10:04.73	13.88	21.41	-52.4	-54.5	14.6	0.00e+00	0	23	0	393216000	70	4719
2026-01-10 03:10:05.73	13.70	21.51	-52.5	-54.5	14.6	0.00e+00	0	23	0	395313152	70	4758
2026-01-10 03:10:06.72	13.51	21.60	-52.4	-54.5	14.6	0.00e+00	0	23	0	396361728	70	4717
2026-01-10 03:10:07.72	13.32	21.70	-52.5	-54.5	14.6	0.00e+00	0	23	0	398458880	70	4757
2026-01-10 03:10:08.72	13.13	21.79	-52.6	-54.6	14.5	0.00e+00	0	23	0	400556032	70	4811
2026-01-10 03:10:09.72	12.93	21.89	-52.6	-54.7	14.5	0.00e+00	0	23	0	402653184	70	4851
2026-01-10 03:10:10.72	12.74	21.98	-52.7	-54.8	14.5	0.00e+00	0	23	0	404750336	70	4883
2026-01-10 03:10:11.73	12.54	22.08	-52.7	-54.9	14.4	0.00e+00	0	23	0	405798912	70	4943
2026-01-10 03:10:12.73	12.34	22.18	-52.7	-54.8	14.4	0.00e+00	0	23	0	407896064	70	4900
2026-01-10 03:10:13.73	12.15	22.27	-52.7	-54.8	14.5	0.00e+00	0	23	0	409993216	70	4872
2026-01-10 03:10:14.72	11.95	22.37	-52.5	-54.5	14.6	0.00e+00	0	23	0	412090368	70	4743
2026-01-10 03:10:15.73	11.75	22.46	-52.5	-54.6	14.6	0.00e+00	0	23	0	413138944	70	4763
2026-01-10 03:10:16.73	11.54	22.56	-52.4	-54.4	14.6	0.00e+00	0	23	0	415236096	70	4698
2026-01-10 03:10:17.72	11.34	22.65	-52.4	-54.4	14.7	0.00e+00	0	23	0	417333248	70	4658
2026-01-10 03:10:18.72	11.14	22.75	-52.4	-54.4	14.7	0.00e+00	0	23	0	419430400	70	4666
2026-01-10 03:10:19.72	10.93	22.85	-52.3	-54.3	14.7	0.00e+00	0	23	0	421527552	70	4632
2026-01-10 03:10:20.72	10.73	22.94	-52.3	-54.2	14.8	0.00e+00	0	23	0	422576128	70	4590
2026-01-10 03:10:21.73	10.52	23.04	-52.3	-54.3	14.7	0.00e+00	0	23	0	424673280	70	4626
2026-01-10 03:10:22.72	10.31	23.13	-52.1	-54.1	14.9	0.00e+00	0	23	0	426770432	70	4494
2026-01-10 03:10:23.72	10.10	23.23	-52.1	-54.0	14.9	0.00e+00	0	23	0	428867584	70	4453
2026-01-10 03:10:24.71	9.89	23.32	-52.0	-53.9	15.0	0.00e+00	0	23	0	430964736	70	4410
2026-01-10 03:10:25.71	9.68	23.42	-52.0	-53.8	15.0	0.00e+00	0	23	0	432013312	70	4361
2026-01-10 03:10:26.70	9.46	23.51	-51.9	-53.8	15.0	0.00e+00	0	23	0	434110464	70	4356
2026-01-10 03:10:27.70	9.25	23.61	-51.8	-53.6	15.1	0.00e+00	0	23	0	436207616	70	4260
2026-01-10 03:10:28.70	9.03	23.70	-51.8	-53.5	15.2	0.00e+00	0	23	0	438304768	70	4233
2026-01-10 03:10:29.70	8.81	23.80	-51.8	-53.6	15.1	0.00e+00	0	23	0	439353344	70	4284
2026-01-10 03:10:30.71	8.59	23.89	-51.8	-53.6	15.2	0.00e+00	0	23	0	441450496	70	4249
2026-01-10 03:10:31.71	8.37	23.99	-51.8	-53.5	15.2	0.00e+00	0	23	0	443547648	70	4236
2026-01-10 03:10:32.71	8.15	24.08	-51.6	-53.3	15.1	0.00e+00	0	23	0	445644800	69	4368
2026-01-10 03:10:33.70	7.92	24.17	-51.5	-53.2	15.2	0.00e+00	0	23	0	447741952	69	4311
2026-01-10 03:10:34.71	7.70	24.27	-51.5	-53.2	15.2	0.00e+00	0	23	0	448790528	69	4338
2026-01-10 03:10:35.70	7.47	24.36	-51.3	-53.0	15.3	0.00e+00	0	23	0	450887680	69	4236
2026-01-10 03:10:36.70	7.24	24.46	-51.3	-53.0	15.3	0.00e+00	0	23	0	452984832	69	4224
2026-01-10 03:10:37.70	7.01	24.55	-51.4	-53.1	15.3	0.00e+00	0	23	0	455081984	69	4244
2026-01-10 03:10:38.70	6.78	24.64	-51.5	-53.2	15.2	0.00e+00	0	23	0	457179136	69	4306
2026-01-10 03:10:39.70	6.55	24.74	-51.4	-53.2	15.2	0.00e+00	0	23	0	458227712	69	4301
2026-01-10 03:10:40.70	6.32	24.83	-51.5	-53.3	15.2	0.00e+00	0	24	0	460324864	69	4344
2026-01-10 03:10:41.70	6.08	24.92	-51.6	-53.3	15.1	0.00e+00	0	23	0	462422016	69	4382
2026-01-10 03:10:42.70	5.85	25.02	-51.5	-53.2	15.2	0.00e+00	0	23	0	464519168	69	4330
2026-01-10 03:10:43.69	5.61	25.11	-51.6	-53.3	15.1	0.00e+00	0	23	0	465567744	69	4362
2026-01-10 03:10:44.69	5.37	25.20	-51.5	-53.2	15.2	0.00e+00	0	23	0	467664896	69	4325
2026-01-10 03:10:45.68	5.13	25.29	-51.4	-53.1	15.2	0.00e+00	0	23	0	469762048	69	4276
2026-01-10 03:10:46.69	4.89	25.38	-51.3	-53.0	15.3	0.00e+00	0	23	0	471859200	69	4235
2026-01-10 03:10:47.69	4.64	25.48	-51.4	-53.1	15.3	0.00e+00	0	23	0	473956352	69	4260
2026-01-10 03:10:48.68	4.40	25.57	-51.5	-53.2	15.2	0.00e+00	0	23	0	475004928	69	4304
2026-01-10 03:10:49.68	4.16	25.66	-51.5	-53.2	15.2	0.00e+00	0	23	0	477102080	69	4306
2026-01-10 03:10:50.69	3.91	25.75	-51.4	-53.1	15.2	0.00e+00	0	23	0	479199232	69	4275
2026-01-10 03:10:51.69	3.66	25.84	-51.5	-53.2	15.2	0.00e+00	0	23	0	481296384	69	4309
2026-01-10 03:10:52.69	3.41	25.93	-51.4	-53.1	15.2	0.00e+00	0	23	0	483393536	69	4250
2026-01-10 03:10:53.69	3.15	26.02	-51.3	-52.9	15.4	0.00e+00	0	23	0	484442112	69	4168
2026-01-10 03:10:54.68	2.90	26.11	-51.3	-53.0	15.3	0.00e+00	0	23	0	486539264	69	4219
2026-01-10 03:10:55.68	2.65	26.20	-51.4	-53.2	15.2	0.00e+00	0	23	0	488636416	69	4295
2026-01-10 03:10:56.68	2.39	26.29	-51.6	-53.3	15.1	0.00e+00	0	23	0	490733568	69	4364
2026-01-10 03:10:57.68	2.13	26.38	-51.7	-53.5	15.0	0.00e+00	0	23	0	491782144	69	4468
2026-01-10 03:10:58.68	1.87	26.46	-51.9	-53.8	14.8	0.00e+00	0	23	0	493879296	69	4620
2026-01-10 03:10:59.68	1.61	26.55	-52.1	-54.0	14.7	0.00e+00	0	23	0	495976448	69	4735
2026-01-10 03:11:00.69	1.35	26.64	-52.2	-54.1	14.7	0.00e+00	0	23	0	498073600	69	4774
2026-01-10 03:11:01.69	1.08	26.73	-52.2	-54.1	14.7	0.00e+00	0	23	0	500170752	69	4786
2026-01-10 03:11:02.69	0.82	26.81	-52.2	-54.1	14.7	0.00e+00	0	23	0	501219328	69	4770
2026-01-10 03:11:03.68	0.55	26.90	-52.2	-54.1	14.7	0.00e+00	0	23	0	503316480	69	4774
2026-01-10 03:11:04.68	0.29	26.99	-52.2	-54.1	14.7	0.00e+00	0	23	0	505413632	69	4767
2026-01-10 03:11:05.68	0.02	27.07	-52.2	-54.1	14.7	0.00e+00	0	23	0	507510784	69	4788
2026-01-10 03:11:06.68	359.74	27.16	-52.2	-54.2	14.7	0.00e+00	0	23	0	509607936	69	4818
2026-01-10 03:11:07.68	359.47	27.24	-52.4	-54.4	14.6	0.00e+00	0	23	0	510656512	69	4931
2026-01-10 03:11:08.69	359.20	27.33	-52.5	-54.5	14.6	0.00e+00	0	23	0	512753664	70	4744
2026-01-10 03:11:09.68	358.92	27.41	-52.6	-54.7	14.6	0.00e+00	0	23	0	514850816	70	4818
2026-01-10 03:11:10.68	358.65	27.49	-52.7	-54.8	14.5	0.00e+00	0	23	0	516947968	70	4879
2026-01-10 03:11:11.69	358.36	27.57	-52.9	-55.0	14.4	0.00e+00	0	23	0	519045120	70	5004
2026-01-10 03:11:12.69	358.08	27.66	-52.8	-55.0	14.4	0.00e+00	0	23	0	520093696	70	4984
2026-01-10 03:11:13.68	357.81	27.74	-53.0	-55.1	14.3	0.00e+00	0	23	0	522190848	71	4801
2026-01-10 03:11:14.68	357.52	27.82	-53.0	-55.2	14.4	0.00e+00	0	23	0	524288000	71	4834
2026-01-10 03:11:15.68	357.24	27.90	-53.0	-55.2	14.4	0.00e+00	0	23	0	526385152	71	4847
2026-01-10 03:11:16.67	356.96	27.98	-53.2	-55.4	14.3	0.00e+00	0	23	0	527433728	71	4945
2026-01-10 03:11:17.68	356.67	28.06	-53.2	-55.4	14.3	0.00e+00	0	23	0	529530880	71	4939
2026-01-10 03:11:18.68	356.38	28.14	-53.2	-55.4	14.3	0.00e+00	0	23	0	531628032	71	4962
2026-01-10 03:11:19.68	356.09	28.22	-53.2	-55.5	14.3	0.00e+00	0	23	0	533725184	71	5002
2026-01-10 03:11:20.68	355.80	28.29	-53.3	-55.6	14.2	0.00e+00	0	23	0	535822336	71	5051
2026-01-10 03:11:21.68	355.50	28.37	-53.3	-55.6	14.2	0.00e+00	0	23	0	536870912	71	5094
2026-01-10 03:11:22.67	355.21	28.45	-53.4	-55.7	14.3	0.00e+00	0	23	0	538968064	72	4852
2026-01-10 03:11:23.67	354.92	28.52	-53.4	-55.7	14.2	0.00e+00	0	23	0	541065216	72	4869
2026-01-10 03:11:24.67	354.62	28.60	-53.4	-55.6	14.3	0.00e+00	0	23	0	543162368	72	4810
2026-01-10 03:11:25.67	354.32	28.67	-53.4	-55.6	14.3	0.00e+00	0	23	0	545259520	72	4795
2026-01-10 03:11:26.67	354.02	28.75	-53.3	-55.6	14.4	0.00e+00	0	23	0	546308096	72	4765
2026-01-10 03:11:27.67	353.72	28.82	-53.2	-55.4	14.5	0.00e+00	0	23	0	548405248	72	4659
2026-01-10 03:11:28.67	353.42	28.89	-53.2	-55.4	14.5	0.00e+00	0	23	0	550502400	72	4658
2026-01-10 03:11:29.66	353.12	28.96	-53.2	-55.4	14.5	0.00e+00	0	23	0	552599552	72	4682
2026-01-10 03:11:30.65	352.81	29.03	-53.2	-55.4	14.5	0.00e+00	0	23	0	553648128	72	4679
2026-01-10 03:11:31.65	352.51	29.10	-53.2	-55.4	14.5	0.00e+00	0	23	0	555745280	72	4668
2026-01-10 03:11:32.65	352.20	29.17	-53.1	-55.3	14.6	0.00e+00	0	23	0	557842432	72	4608
2026-01-10 03:11:33.65	351.89	29.24	-53.1	-55.3	14.6	0.00e+00	0	23	0	559939584	72	4616
2026-01-10 03:11:34.65	351.58	29.31	-53.0	-55.1	14.6	0.00e+00	0	23	0	562036736	72	4513
2026-01-10 03:11:35.66	351.26	29.38	-53.0	-55.2	14.6	0.00e+00	0	23	0	563085312	72	4548
2026-01-10 03:11:36.66	350.95	29.44	-53.0	-55.2	14.6	0.00e+00	0	23	0	565182464	72	4549
2026-01-10 03:11:37.66	350.64	29.51	-53.1	-55.3	14.5	0.00e+00	0	23	0	567279616	72	4616
2026-01-10 03:11:38.66	350.32	29.57	-53.1	-55.3	14.5	0.00e+00	0	23	0	569376768	72	4613
2026-01-10 03:11:39.67	350.00	29.64	-53.2	-55.4	14.5	0.00e+00	0	23	0	571473920	72	4652
2026-01-10 03:11:40.67	349.68	29.70	-53.1	-55.3	14.5	0.00e+00	0	23	0	572522496	72	4613
2026-01-10 03:11:41.66	349.37	29.76	-52.9	-55.0	14.7	0.00e+00	0	23	0	574619648	72	4461
2026-01-10 03:11:42.66	349.04	29.82	-53.0	-55.1	14.7	0.00e+00	0	23	0	576716800	72	4498
2026-01-10 03:11:43.66	348.72	29.88	-53.1	-55.3	14.6	0.00e+00	0	23	0	578813952	72	4603
2026-01-10 03:11:44.66	348.40	29.94	-53.2	-55.4	14.5	0.00e+00	0	23	0	580911104	72	4701
2026-01-10 03:11:45.66	348.07	30.00	-53.1	-55.3	14.6	0.00e+00	0	23	0	581959680	72	4601
2026-01-10 03:11:46.66	347.75	30.06	-53.1	-55.3	14.6	0.00e+00	0	23	0	584056832	72	4631
2026-01-10 03:11:47.66	347.42	30.12	-53.0	-55.1	14.6	0.00e+00	0	23	0	586153984	72	4538
2026-01-10 03:11:48.65	347.10	30.17	-53.1	-55.3	14.6	0.00e+00	0	23	0	588251136	72	4607
2026-01-10 03:11:49.65	346.77	30.23	-53.1	-55.2	14.6	0.00e+00	0	23	0	589299712	72	4578
2026-01-10 03:11:50.65	346.44	30.28	-53.3	-55.5	14.5	0.00e+00	0	23	0	591396864	72	4723
2026-01-10 03:11:51.65	346.11	30.33	-53.4	-55.6	14.4	0.00e+00	0	23	0	593494016	72	4783
2026-01-10 03:11:52.65	345.77	30.38	-53.3	-55.5	14.4	0.00e+00	0	24	0	595591168	72	4723
2026-01-10 03:11:53.65	345.44	30.43	-53.3	-55.5	14.4	0.00e+00	0	24	0	597688320	72	4727
2026-01-10 03:11:54.64	345.11	30.48	-53.4	-55.6	14.4	0.00e+00	0	23	0	598736896	72	4780
2026-01-10 03:11:55.64	344.77	30.53	-53.4	-55.6	14.4	0.00e+00	0	23	0	600834048	72	4796
2026-01-10 03:11:56.64	344.44	30.58	-53.5	-55.8	14.2	0.00e+00	0	23	0	602931200	72	4909
2026-01-10 03:11:57.64	344.10	30.63	-53.5	-55.8	14.2	0.00e+00	0	23	0	605028352	72	4924
2026-01-10 03:11:58.64	343.76	30.67	-53.5	-55.8	14.2	0.00e+00	0	23	0	606076928	72	4894
2026-01-10 03:11:59.64	343.42	30.72	-53.3	-55.5	14.5	0.00e+00	0	23	0	608174080	72	4707
2026-01-10 03:12:00.64	343.08	30.76	-53.2	-55.3	14.5	0.00e+00	0	23	0	610271232	72	4641
2026-01-10 03:12:01.63	342.74	30.80	-53.2	-55.4	14.5	0.00e+00	0	23	0	612368384	72	4679
2026-01-10 03:12:02.63	342.40	30.85	-53.4	-55.6	14.3	0.00e+00	0	24	0	614465536	72	4795
2026-01-10 03:12:03.63	342.06	30.89	-53.5	-55.8	14.2	0.00e+00	0	23	0	615514112	72	4909
2026-01-10 03:12:04.63	341.71	30.92	-53.4	-55.7	14.3	0.00e+00	0	23	0	617611264	72	4821
2026-01-10 03:12:05.63	341.37	30.96	-53.3	-55.5	14.4	0.00e+00	0	24	0	619708416	72	4711
2026-01-10 03:12:06.62	341.02	31.00	-53.2	-55.3	14.6	0.00e+00	0	23	0	621805568	72	4637
2026-01-10 03:12:07.62	340.68	31.04	-53.0	-55.1	14.7	0.00e+00	0	23	0	623902720	72	4519
2026-01-10 03:12:08.62	340.33	31.07	-53.0	-55.1	14.7	0.00e+00	0	23	0	624951296	72	4539
2026-01-10 03:12:09.61	339.99	31.10	-53.1	-55.1	14.6	0.00e+00	0	23	0	627048448	72	4543
2026-01-10 03:12:10.62	339.63	31.14	-53.1	-55.2	14.6	0.00e+00	0	23	0	629145600	72	4564
2026-01-10 03:12:11.61	339.29	31.17	-53.2	-55.3	14.6	0.00e+00	0	23	0	631242752	72	4620
2026-01-10 03:12:12.62	338.93	31.20	-53.0	-55.1	14.7	0.00e+00	0	23	0	633339904	72	4532
2026-01-10 03:12:13.62	338.58	31.23	-53.1	-55.2	14.6	0.00e+00	0	23	0	634388480	72	4556
2026-01-10 03:12:14.61	338.24	31.25	-53.1	-55.1	14.6	0.00e+00	0	23	0	636485632	72	4543
2026-01-10 03:12:15.61	337.88	31.28	-53.3	-55.5	14.4	0.00e+00	0	23	0	638582784	72	4730
2026-01-10 03:12:16.61	337.53	31.31	-53.4	-55.6	14.4	0.00e+00	0	23	0	640679936	72	4802
2026-01-10 03:12:17.61	337.18	31.33	-53.5	-55.7	14.3	0.00e+00	0	23	0	641728512	72	4847
2026-01-10 03:12:18.61	336.83	31.35	-53.5	-55.7	14.3	0.00e+00	0	23	0	643825664	72	4866
2026-01-10 03:12:19.62	336.47	31.37	-53.4	-55.6	14.4	0.00e+00	0	23	0	645922816	72	4774
2026-01-10 03:12:20.63	336.11	31.40	-53.4	-55.6	14.4	0.00e+00	0	23	0	648019968	72	4766
2026-01-10 03:12:21.63	335.75	31.41	-53.3	-55.5	14.4	0.00e+00	0	23	0	650117120	72	4707
2026-01-10 03:12:22.64	335.40	31.43	-53.3	-55.5	14.4	0.00e+00	0	23	0	651165696	72	4719
2026-01-10 03:12:23.64	335.04	31.45	-53.5	-55.7	14.3	0.00e+00	0	23	0	653262848	72	4855
2026-01-10 03:12:24.63	334.69	31.46	-53.6	-56.0	14.2	0.00e+00	0	23	0	655360000	72	4985
2026-01-10 03:12:25.63	334.33	31.48	-53.9	-56.3	14.0	0.00e+00	0	23	0	657457152	72	5215
2026-01-10 03:12:26.64	333.97	31.49	-54.1	-56.6	13.9	0.00e+00	0	23	0	659554304	73	5066
2026-01-10 03:12:27.64	333.61	31.50	-54.0	-56.4	14.0	0.00e+00	0	23	0	660602880	73	4971
2026-01-10 03:12:28.64	333.26	31.51	-53.9	-56.4	14.0	0.00e+00	0	23	0	662700032	73	4942
2026-01-10 03:12:29.63	332.90	31.52	-53.9	-56.4	14.1	0.00e+00	0	24	0	664797184	73	4945
2026-01-10 03:12:30.64	332.54	31.53	-54.0	-56.4	14.0	0.00e+00	0	23	0	666894336	73	4963
2026-01-10 03:12:31.63	332.19	31.54	-54.1	-56.6	13.9	0.00e+00	0	23	0	667942912	73	5058
2026-01-10 03:12:32.63	331.83	31.54	-54.1	-56.6	13.9	0.00e+00	0	23	0	670040064	73	5064
2026-01-10 03:12:33.62	331.47	31.55	-54.0	-56.4	14.0	0.00e+00	0	23	0	672137216	73	4961
2026-01-10 03:12:34.62	331.12	31.55	-53.9	-56.3	14.1	0.00e+00	0	23	0	674234368	73	4899
2026-01-10 03:12:35.62	330.76	31.55	-53.9	-56.3	14.1	0.00e+00	0	23	0	676331520	73	4916
2026-01-10 03:12:36.62	330.40	31.55	-53.9	-56.3	14.1	0.00e+00	0	23	0	677380096	73	4893
2026-01-10 03:12:37.62	330.04	31.55	-54.0	-56.4	14.0	0.00e+00	0	23	0	679477248	73	4970
2026-01-10 03:12:38.62	329.68	31.55	-53.9	-56.4	14.1	0.00e+00	0	23	0	681574400	73	4927
2026-01-10 03:12:39.62	329.32	31.55	-53.9	-56.3	14.1	0.00e+00	0	23	0	683671552	73	4908
2026-01-10 03:12:40.62	328.97	31.54	-53.9	-56.3	14.1	0.00e+00	0	23	0	685768704	73	4889
2026-01-10 03:12:41.63	328.60	31.54	-53.9	-56.3	14.1	0.00e+00	0	23	0	686817280	73	4890
2026-01-10 03:12:42.63	328.25	31.53	-53.8	-56.1	14.2	0.00e+00	0	23	0	688914432	73	4814
2026-01-10 03:12:43.63	327.89	31.52	-53.5	-55.8	14.4	0.00e+00	0	23	0	691011584	73	4623
2026-01-10 03:12:44.63	327.53	31.51	-53.5	-55.7	14.5	0.00e+00	0	23	0	693108736	73	4598
2026-01-10 03:12:45.63	327.17	31.50	-53.4	-55.6	14.5	0.00e+00	0	23	0	695205888	73	4515
2026-01-10 03:12:46.64	326.81	31.49	-53.3	-55.5	14.6	0.00e+00	0	23	0	696254464	73	4442
2026-01-10 03:12:47.64	326.46	31.47	-53.3	-55.4	14.7	0.00e+00	0	23	0	698351616	73	4433
2026-01-10 03:12:48.64	326.10	31.46	-53.4	-55.7	14.5	0.00e+00	0	23	0	700448768	73	4550
2026-01-10 03:12:49.64	325.74	31.44	-53.6	-55.9	14.4	0.00e+00	0	23	0	702545920	73	4675
2026-01-10 03:12:50.64	325.39	31.43	-53.8	-56.2	14.2	0.00e+00	0	23	0	703594496	73	4819
2026-01-10 03:12:51.64	325.03	31.41	-53.8	-56.1	14.2	0.00e+00	0	23	0	705691648	73	4803
2026-01-10 03:12:52.64	324.68	31.39	-53.6	-55.8	14.5	0.00e+00	0	23	0	707788800	73	4637
2026-01-10 03:12:53.65	324.32	31.37	-53.5	-55.7	14.5	0.00e+00	0	23	0	709885952	73	4556
2026-01-10 03:12:54.65	323.97	31.34	-53.4	-55.6	14.6	0.00e+00	0	23	0	711983104	73	4511
2026-01-10 03:12:55.64	323.62	31.32	-53.5	-55.7	14.5	0.00e+00	0	23	0	713031680	73	4554
2026-01-10 03:12:56.63	323.27	31.30	-53.5	-55.8	14.5	0.00e+00	0	23	0	715128832	73	4604
2026-01-10 03:12:57.64	322.91	31.27	-53.5	-55.8	14.4	0.00e+00	0	23	0	717225984	73	4615
2026-01-10 03:12:58.64	322.56	31.24	-53.6	-55.8	14.4	0.00e+00	0	23	0	719323136	73	4641
2026-01-10 03:12:59.65	322.20	31.22	-53.6	-55.8	14.4	0.00e+00	0	23	0	721420288	73	4647
2026-01-10 03:13:00.64	321.86	31.19	-53.7	-56.0	14.3	0.00e+00	0	23	0	722468864	73	4715
2026-01-10 03:13:01.65	321.50	31.16	-53.6	-56.0	14.3	0.00e+00	0	23	0	724566016	73	4709
2026-01-10 03:13:02.65	321.15	31.12	-53.6	-55.9	14.4	0.00e+00	0	23	0	726663168	73	4665
2026-01-10 03:13:03.65	320.81	31.09	-53.6	-55.8	14.4	0.00e+00	0	23	0	728760320	73	4632
2026-01-10 03:13:04.64	320.46	31.06	-53.5	-55.8	14.4	0.00e+00	0	23	0	730857472	73	4600
2026-01-10 03:13:05.65	320.11	31.02	-53.5	-55.7	14.5	0.00e+00	0	23	0	731906048	73	4574
2026-01-10 03:13:06.64	319.77	30.99	-53.5	-55.7	14.5	0.00e+00	0	23	0	734003200	73	4554
2026-01-10 03:13:07.64	319.42	30.95	-53.4	-55.7	14.5	0.00e+00	0	23	0	736100352	73	4552
2026-01-10 03:13:08.65	319.07	30.91	-53.5	-55.6	14.5	0.00e+00	0	23	0	738197504	73	4537
2026-01-10 03:13:09.65	318.73	30.87	-53.5	-55.7	14.5	0.00e+00	0	24	0	740294656	73	4569
2026-01-10 03:13:10.66	318.38	30.83	-53.4	-55.6	14.5	0.00e+00	0	23	0	741343232	73	4531
2026-01-10 03:13:11.66	318.04	30.79	-53.5	-55.7	14.5	0.00e+00	0	23	0	743440384	73	4583
2026-01-10 03:13:12.67	317.70	30.74	-53.5	-55.7	14.5	0.00e+00	0	23	0	745537536	73	4574
2026-01-10 03:13:13.67	317.36	30.70	-53.4	-55.6	14.5	0.00e+00	0	23	0	747634688	73	4534
2026-01-10 03:13:14.66	317.02	30.65	-53.4	-55.6	14.5	0.00e+00	0	23	0	748683264	73	4535
2026-01-10 03:13:15.66	316.68	30.61	-53.3	-55.5	14.6	0.00e+00	0	23	0	750780416	73	4470
2026-01-10 03:13:16.66	316.34	30.56	-53.4	-55.5	14.6	0.00e+00	0	23	0	752877568	73	4491
2026-01-10 03:13:17.67	316.00	30.51	-53.5	-55.7	14.5	0.00e+00	0	23	0	754974720	73	4587
2026-01-10 03:13:18.67	315.67	30.46	-53.6	-55.9	14.4	0.00e+00	0	23	0	757071872	73	4654
2026-01-10 03:13:19.67	315.33	30.41	-53.8	-56.1	14.2	0.00e+00	0	23	0	758120448	73	4804
2026-01-10 03:13:20.67	315.00	30.36	-53.7	-56.1	14.2	0.00e+00	0	23	0	760217600	73	4780
2026-01-10 03:13:21.67	314.67	30.31	-53.8	-56.2	14.2	0.00e+00	0	23	0	762314752	73	4836
2026-01-10 03:13:22.67	314.34	30.25	-53.7	-56.1	14.2	0.00e+00	0	23	0	764411904	73	4771
2026-01-10 03:13:23.67	314.01	30.20	-53.8	-56.2	14.2	0.00e+00	0	23	0	766509056	73	4856
2026-01-10 03:13:24.67	313.68	30.14	-53.7	-56.0	14.3	0.00e+00	0	23	0	767557632	73	4757
2026-01-10 03:13:25.67	313.35	30.09	-53.6	-55.9	14.4	0.00e+00	0	23	0	769654784	73	4660
2026-01-10 03:13:26.67	313.02	30.03	-53.5	-55.8	14.4	0.00e+00	0	23	0	771751936	73	4600
2026-01-10 03:13:27.67	312.70	29.97	-53.7	-56.0	14.3	0.00e+00	0	23	0	773849088	73	4716
2026-01-10 03:13:28.68	312.37	29.91	-53.8	-56.2	14.2	0.00e+00	0	23	0	775946240	73	4827
2026-01-10 03:13:29.67	312.05	29.85	-53.9	-56.3	14.1	0.00e+00	0	23	0	776994816	73	4904
2026-01-10 03:13:30.68	311.73	29.79	-54.0	-56.4	14.0	0.00e+00	0	23	0	779091968	73	4956
2026-01-10 03:13:31.67	311.41	29.73	-54.1	-56.6	13.9	0.00e+00	0	23	0	781189120	73	5066
2026-01-10 03:13:32.67	311.09	29.67	-54.1	-56.6	13.9	0.00e+00	0	23	0	783286272	73	5043
2026-01-10 03:13:33.66	310.77	29.61	-54.0	-56.4	14.0	0.00e+00	0	23	0	784334848	73	4962
2026-01-10 03:13:34.67	310.45	29.54	-53.8	-56.2	14.2	0.00e+00	0	23	0	786432000	73	4827
2026-01-10 03:13:35.66	310.14	29.48	-53.9	-56.3	14.1	0.00e+00	0	23	0	788529152	73	4887
2026-01-10 03:13:36.66	309.83	29.41	-53.9	-56.4	14.0	0.00e+00	0	23	0	790626304	73	4946
2026-01-10 03:13:37.66	309.51	29.34	-54.0	-56.5	14.0	0.00e+00	0	23	0	792723456	73	5019
2026-01-10 03:13:38.66	309.20	29.28	-54.2	-56.8	13.8	0.00e+00	0	23	0	793772032	73	5169
2026-01-10 03:13:39.66	308.89	29.21	-54.3	-56.9	13.7	0.00e+00	0	23	0	795869184	73	5268
2026-01-10 03:13:40.66	308.58	29.14	-54.3	-56.9	13.7	0.00e+00	0	23	0	797966336	73	5224
2026-01-10 03:13:41.66	308.28	29.07	-54.1	-56.5	13.9	0.00e+00	0	23	0	800063488	73	5040
2026-01-10 03:13:42.67	307.97	29.00	-53.9	-56.4	14.0	0.00e+00	0	23	0	802160640	73	4947
2026-01-10 03:13:43.67	307.66	28.93	-54.0	-56.5	14.0	0.00e+00	0	23	0	803209216	73	4998
2026-01-10 03:13:44.66	307.36	28.86	-54.0	-56.4	14.1	0.00e+00	0	23	0	805306368	73	4938
2026-01-10 03:13:45.67	307.06	28.78	-53.7	-56.0	14.3	0.00e+00	0	23	0	807403520	73	4756
2026-01-10 03:13:46.67	306.75	28.71	-53.7	-56.0	14.3	0.00e+00	0	23	0	809500672	73	4759
2026-01-10 03:13:47.67	306.45	28.63	-53.7	-56.0	14.3	0.00e+00	0	23	0	810549248	73	4729
2026-01-10 03:13:48.67	306.16	28.56	-53.5	-55.7	14.4	0.00e+00	0	23	0	812646400	73	4597
2026-01-10 03:13:49.67	305.86	28.48	-53.4	-55.6	14.5	0.00e+00	0	23	0	814743552	73	4526
2026-01-10 03:13:50.67	305.56	28.41	-53.3	-55.5	14.6	0.00e+00	0	23	0	816840704	73	4455
2026-01-10 03:13:51.67	305.27	28.33	-53.5	-55.7	14.5	0.00e+00	0	23	0	818937856	73	4556
2026-01-10 03:13:52.68	304.98	28.25	-53.6	-55.8	14.4	0.00e+00	0	23	0	819986432	73	4641
2026-01-10 03:13:53.68	304.68	28.17	-53.6	-55.9	14.4	0.00e+00	0	23	0	822083584	73	4672
2026-01-10 03:13:54.68	304.39	28.10	-53.5	-55.7	14.5	0.00e+00	0	23	0	824180736	73	4551
2026-01-10 03:13:55.68	304.11	28.02	-53.4	-55.7	14.5	0.00e+00	0	23	0	826277888	73	4546
2026-01-10 03:13:56.68	303.82	27.94	-53.2	-55.3	14.7	0.00e+00	0	23	0	828375040	73	4376
2026-01-10 03:13:57.68	303.53	27.86	-53.0	-55.0	14.7	0.00e+00	0	23	0	829423616	72	4470
2026-01-10 03:13:58.68	303.25	27.78	-52.9	-54.9	14.8	0.00e+00	0	23	0	831520768	72	4436
2026-01-10 03:13:59.67	302.97	27.70	-53.0	-55.0	14.7	0.00e+00	0	23	0	833617920	72	4479
2026-01-10 03:14:00.67	302.69	27.61	-53.1	-55.2	14.6	0.00e+00	0	23	0	835715072	72	4564
2026-01-10 03:14:01.67	302.41	27.53	-53.1	-55.1	14.6	0.00e+00	0	23	0	837812224	72	4543
2026-01-10 03:14:02.66	302.14	27.45	-53.1	-55.2	14.6	0.00e+00	0	23	0	838860800	72	4554
2026-01-10 03:14:03.66	301.86	27.37	-53.2	-55.3	14.6	0.00e+00	0	23	0	840957952	72	4631
2026-01-10 03:14:04.66	301.58	27.28	-53.2	-55.3	14.6	0.00e+00	0	23	0	843055104	72	4635
2026-01-10 03:14:05.65	301.31	27.20	-53.1	-55.2	14.6	0.00e+00	0	23	0	845152256	72	4582
2026-01-10 03:14:06.65	301.04	27.11	-53.0	-55.1	14.7	0.00e+00	0	23	0	846200832	72	4504
2026-01-10 03:14:07.65	300.77	27.03	-53.0	-55.1	14.7	0.00e+00	0	23	0	848297984	72	4495
2026-01-10 03:14:08.64	300.50	26.94	-53.0	-55.1	14.7	0.00e+00	0	23	0	850395136	72	4498
2026-01-10 03:14:09.64	300.23	26.86	-52.8	-54.8	14.8	0.00e+00	0	23	0	852492288	72	4369
2026-01-10 03:14:10.64	299.97	26.77	-52.8	-54.8	14.9	0.00e+00	0	23	0	854589440	72	4352
2026-01-10 03:14:11.64	299.70	26.68	-52.7	-54.7	14.9	0.00e+00	0	24	0	855638016	72	4306
2026-01-10 03:14:12.64	299.44	26.60	-52.5	-54.4	15.0	0.00e+00	0	23	0	857735168	71	4396
2026-01-10 03:14:13.64	299.18	26.51	-52.5	-54.4	14.9	0.00e+00	0	23	0	859832320	71	4423
2026-01-10 03:14:14.63	298.92	26.42	-52.7	-54.6	14.8	0.00e+00	0	23	0	861929472	71	4531
2026-01-10 03:14:15.62	298.66	26.33	-52.7	-54.6	14.8	0.00e+00	0	23	0	862978048	71	4528
2026-01-10 03:14:16.62	298.41	26.24	-52.6	-54.6	14.8	0.00e+00	0	23	0	865075200	71	4503
2026-01-10 03:14:17.63	298.15	26.15	-52.5	-54.4	14.9	0.00e+00	0	23	0	867172352	71	4429
2026-01-10 03:14:18.63	297.89	26.06	-52.5	-54.4	14.9	0.00e+00	0	23	0	869269504	71	4436
2026-01-10 03:14:19.64	297.64	25.97	-52.3	-54.2	15.0	0.00e+00	0	23	0	871366656	71	4327
2026-01-10 03:14:20.64	297.38	25.88	-52.3	-54.2	15.0	0.00e+00	0	23	0	872415232	71	4316
2026-01-10 03:14:21.64	297.13	25.79	-52.4	-54.2	15.0	0.00e+00	0	23	0	874512384	71	4315
2026-01-10 03:14:22.64	296.88	25.70	-52.3	-54.2	15.1	0.00e+00	0	23	0	876609536	71	4301
2026-01-10 03:14:23.64	296.64	25.61	-52.1	-53.9	15.0	0.00e+00	0	23	0	878706688	70	4422
2026-01-10 03:14:24.64	296.39	25.52	-52.1	-53.9	15.1	0.00e+00	0	23	0	880803840	70	4400
2026-01-10 03:14:25.64	296.15	25.43	-52.0	-53.7	15.1	0.00e+00	0	23	0	881852416	70	4329
2026-01-10 03:14:26.64	295.90	25.34	-52.0	-53.8	15.1	0.00e+00	0	23	0	883949568	70	4345
2026-01-10 03:14:27.63	295.66	25.24	-52.0	-53.7	15.1	0.00e+00	0	24	0	886046720	70	4334
2026-01-10 03:14:28.63	295.42	25.15	-51.9	-53.6	15.2	0.00e+00	0	23	0	888143872	70	4284
2026-01-10 03:14:29.63	295.18	25.06	-51.8	-53.5	15.3	0.00e+00	0	23	0	889192448	70	4203
2026-01-10 03:14:30.63	294.95	24.97	-51.5	-53.2	15.2	0.00e+00	0	23	0	891289600	69	4331
2026-01-10 03:14:31.63	294.71	24.87	-51.6	-53.3	15.2	0.00e+00	0	23	0	893386752	69	4367
2026-01-10 03:14:32.63	294.47	24.78	-51.6	-53.3	15.2	0.00e+00	0	23	0	895483904	69	4357
2026-01-10 03:14:33.63	294.24	24.69	-51.3	-52.9	15.4	0.00e+00	0	23	0	897581056	69	4168
2026-01-10 03:14:34.64	294.01	24.59	-51.0	-52.6	15.4	0.00e+00	0	23	0	898629632	68	4258
2026-01-10 03:14:35.64	293.78	24.50	-51.0	-52.5	15.4	0.00e+00	0	23	0	900726784	68	4231
2026-01-10 03:14:36.64	293.55	24.40	-50.8	-52.4	15.5	0.00e+00	0	23	0	902823936	68	4174
2026-01-10 03:14:37.64	293.32	24.31	-51.0	-52.5	15.4	0.00e+00	0	23	0	904921088	68	4228
2026-01-10 03:14:38.64	293.09	24.22	-50.9	-52.5	15.4	0.00e+00	0	23	0	907018240	68	4207
2026-01-10 03:14:39.64	292.87	24.12	-50.9	-52.4	15.4	0.00e+00	0	23	0	908066816	68	4181
2026-01-10 03:14:40.65	292.64	24.03	-50.9	-52.5	15.4	0.00e+00	0	24	0	910163968	68	4221
2026-01-10 03:14:41.63	292.42	23.93	-50.9	-52.5	15.4	0.00e+00	0	23	0	912261120	68	4228
2026-01-10 03:14:42.64	292.20	23.84	-50.9	-52.5	15.4	0.00e+00	0	23	0	914358272	68	4201
2026-01-10 03:14:43.64	291.98	23.74	-50.9	-52.4	15.4	0.00e+00	0	23	0	916455424	68	4189
2026-01-10 03:14:44.64	291.76	23.65	-50.7	-52.2	15.6	0.00e+00	0	23	0	917504000	68	4083
2026-01-10 03:14:45.64	291.55	23.55	-50.3	-51.8	15.5	0.00e+00	0	23	0	919601152	67	4140
2026-01-10 03:14:46.65	291.33	23.46	-50.1	-51.5	15.5	0.00e+00	0	23	0	921698304	66	4231
2026-01-10 03:14:47.64	291.12	23.36	-50.1	-51.6	15.5	0.00e+00	0	23	0	923795456	66	4261
2026-01-10 03:14:48.64	290.90	23.27	-50.0	-51.4	15.5	0.00e+00	0	23	0	924844032	66	4189
2026-01-10 03:14:49.64	290.69	23.17	-50.0	-51.4	15.5	0.00e+00	0	23	0	926941184	66	4187
2026-01-10 03:14:50.64	290.48	23.08	-50.1	-51.5	15.5	0.00e+00	0	23	0	929038336	66	4236
2026-01-10 03:14:51.64	290.27	22.98	-50.1	-51.6	15.5	0.00e+00	0	23	0	931135488	66	4269
2026-01-10 03:14:52.63	290.07	22.88	-50.1	-51.6	15.5	0.00e+00	0	23	0	933232640	66	4273
2026-01-10 03:14:53.63	289.86	22.79	-50.1	-51.6	15.5	0.00e+00	0	23	0	934281216	66	4251
2026-01-10 03:14:54.63	289.65	22.69	-50.0	-51.5	15.5	0.00e+00	0	23	0	936378368	66	4201
2026-01-10 03:14:55.63	289.45	22.60	-49.9	-51.4	15.6	0.00e+00	0	23	0	938475520	66	4156
2026-01-10 03:14:56.62	289.25	22.50	-49.8	-51.2	15.6	0.00e+00	0	23	0	940572672	66	4093
2026-01-10 03:14:57.63	289.05	22.41	-49.7	-51.1	15.7	0.00e+00	0	23	0	942669824	66	4042
2026-01-10 03:14:58.63	288.84	22.31	-49.6	-51.1	15.5	0.00e+00	0	23	0	943718400	65	4252
2026-01-10 03:14:59.63	288.65	22.21	-49.8	-51.2	15.5	0.00e+00	0	23	0	945815552	65	4317
2026-01-10 03:15:00.62	288.45	22.12	-49.9	-51.3	15.4	0.00e+00	0	23	0	947912704	65	4387
2026-01-10 03:15:01.61	288.26	22.02	-49.9	-51.4	15.4	0.00e+00	0	23	0	950009856	65	4425
2026-01-10 03:15:02.60	288.06	21.93	-50.0	-51.6	15.3	0.00e+00	0	23	0	951058432	65	4494
2026-01-10 03:15:03.59	287.87	21.83	-50.1	-51.7	15.3	0.00e+00	0	23	0	953155584	65	4549
2026-01-10 03:15:04.59	287.68	21.74	-50.1	-51.6	15.3	0.00e+00	0	23	0	955252736	65	4524
2026-01-10 03:15:05.59	287.49	21.64	-50.1	-51.7	15.3	0.00e+00	0	23	0	957349888	65	4553
2026-01-10 03:15:06.59	287.29	21.55	-50.2	-51.7	15.2	0.00e+00	0	23	0	959447040	65	4590
2026-01-10 03:15:07.58	287.11	21.45	-50.2	-51.8	15.2	0.00e+00	0	23	0	960495616	65	4599
2026-01-10 03:15:08.58	286.92	21.36	-50.1	-51.6	15.3	0.00e+00	0	23	0	962592768	65	4537
2026-01-10 03:15:09.58	286.73	21.26	-50.2	-51.8	15.2	0.00e+00	0	23	0	964689920	65	4619
2026-01-10 03:15:10.58	286.55	21.16	-50.3	-51.8	15.2	0.00e+00	0	23	0	966787072	65	4650
2026-01-10 03:15:11.58	286.36	21.07	-50.4	-51.9	15.1	0.00e+00	0	23	0	968884224	65	4686
2026-01-10 03:15:12.58	286.18	20.97	-50.4	-51.9	15.1	0.00e+00	0	23	0	969932800	65	4685
2026-01-10 03:15:13.57	286.00	20.88	-50.5	-52.1	15.2	0.00e+00	0	23	0	972029952	66	4502
2026-01-10 03:15:14.58	285.81	20.78	-50.5	-52.1	15.2	0.00e+00	0	23	0	974127104	66	4521
2026-01-10 03:15:15.58	285.63	20.69	-50.6	-52.2	15.2	0.00e+00	0	23	0	976224256	66	4567
2026-01-10 03:15:16.58	285.46	20.59	-50.7	-52.3	15.1	0.00e+00	0	23	0	977272832	66	4635
2026-01-10 03:15:17.58	285.28	20.50	-50.5	-52.0	15.2	0.00e+00	0	23	0	979369984	66	4486
2026-01-10 03:15:18.57	285.10	20.40	-50.4	-52.0	15.3	0.00e+00	0	23	0	981467136	66	4443
2026-01-10 03:15:19.57	284.93	20.31	-50.5	-52.1	15.2	0.00e+00	0	23	0	983564288	66	4503
2026-01-10 03:15:20.57	284.75	20.21	-50.7	-52.3	15.1	0.00e+00	0	23	0	985661440	66	4639
2026-01-10 03:15:21.58	284.58	20.11	-50.8	-52.5	15.0	0.00e+00	0	23	0	986710016	66	4731
2026-01-10 03:15:22.58	284.41	20.02	-50.8	-52.5	15.0	0.00e+00	0	23	0	988807168	66	4724
2026-01-10 03:15:23.58	284.23	19.92	-50.9	-52.6	15.1	0.00e+00	0	23	0	990904320	67	4525
2026-01-10 03:15:24.58	284.06	19.83	-51.0	-52.7	15.1	0.00e+00	0	23	0	993001472	67	4549
2026-01-10 03:15:25.58	283.89	19.73	-51.0	-52.7	15.1	0.00e+00	0	23	0	995098624	67	4562
2026-01-10 03:15:26.59	283.73	19.64	-51.1	-52.8	15.0	0.00e+00	0	23	0	996147200	67	4608
2026-01-10 03:15:27.59	283.56	19.54	-50.9	-52.6	15.2	0.00e+00	0	23	0	998244352	67	4498
2026-01-10 03:15:28.58	283.39	19.45	-50.9	-52.6	15.1	0.00e+00	0	23	0	1000341504	67	4504
2026-01-10 03:15:29.58	283.23	19.36	-51.0	-52.6	15.1	0.00e+00	0	23	0	1002438656	67	4545
2026-01-10 03:15:30.58	283.06	19.26	-51.1	-52.8	15.0	0.00e+00	0	23	0	1003487232	67	4631
2026-01-10 03:15:31.57	282.90	19.17	-51.1	-52.8	15.0	0.00e+00	0	23	0	1005584384	67	4635
2026-01-10 03:15:32.57	282.74	19.08	-51.2	-52.9	15.0	0.00e+00	0	23	0	1007681536	67	4700
2026-01-10 03:15:33.58	282.58	18.98	-51.3	-53.0	14.9	0.00e+00	0	23	0	1009778688	67	4750
2026-01-10 03:15:34.58	282.42	18.89	-51.3	-53.0	14.9	0.00e+00	0	23	0	1011875840	67	4728
2026-01-10 03:15:35.58	282.26	18.79	-51.3	-53.1	14.9	0.00e+00	0	23	0	1012924416	67	4787
2026-01-10 03:15:36.58	282.10	18.70	-51.6	-53.4	14.9	0.00e+00	0	23	0	1015021568	68	4694
2026-01-10 03:15:37.58	281.95	18.61	-51.6	-53.4	15.0	0.00e+00	0	23	0	1017118720	68	4659
2026-01-10 03:15:38.57	281.79	18.51	-51.5	-53.3	15.0	0.00e+00	0	23	0	1019215872	68	4599
2026-01-10 03:15:39.57	281.64	18.42	-51.6	-53.4	14.9	0.00e+00	0	23	0	1021313024	68	4658
2026-01-10 03:15:40.57	281.48	18.33	-51.6	-53.4	14.9	0.00e+00	0	23	0	1022361600	68	4703
2026-01-10 03:15:41.57	281.33	18.24	-51.7	-53.5	14.9	0.00e+00	0	23	0	1024458752	68	4711
2026-01-10 03:15:42.58	281.18	18.14	-51.7	-53.5	14.8	0.00e+00	0	23	0	1026555904	68	4757
2026-01-10 03:15:43.57	281.03	18.05	-51.8	-53.6	14.8	0.00e+00	0	23	0	1028653056	68	4808
2026-01-10 03:15:44.57	280.88	17.96	-51.8	-53.6	14.8	0.00e+00	0	23	0	1030750208	68	4782
2026-01-10 03:15:45.58	280.73	17.86	-51.8	-53.6	14.8	0.00e+00	0	23	0	1031798784	68	4792
2026-01-10 03:15:46.57	280.58	17.77	-51.9	-53.7	14.8	0.00e+00	0	23	0	1033895936	68	4855
2026-01-10 03:15:47.57	280.43	17.68	-51.7	-53.6	14.8	0.00e+00	0	23	0	1035993088	68	4778
2026-01-10 03:15:48.57	280.28	17.59	-51.7	-53.6	14.8	0.00e+00	0	23	0	1038090240	68	4766
2026-01-10 03:15:49.57	280.14	17.50	-51.7	-53.5	14.9	0.00e+00	0	23	0	1039138816	68	4729
2026-01-10 03:15:50.57	279.99	17.41	-51.7	-53.5	14.8	0.00e+00	0	23	0	1041235968	68	4753
2026-01-10 03:15:51.57	279.85	17.31	-51.7	-53.5	14.9	0.00e+00	0	23	0	1043333120	68	4742
2026-01-10 03:15:52.57	279.71	17.22	-51.7	-53.5	14.9	0.00e+00	0	23	0	1045430272	68	4729
2026-01-10 03:15:53.57	279.57	17.13	-51.8	-53.7	14.8	0.00e+00	0	23	0	1047527424	68	4833
2026-01-10 03:15:54.57	279.42	17.04	-52.0	-53.9	14.8	0.00e+00	0	23	0	1048576000	69	4659
2026-01-10 03:15:55.57	279.28	16.95	-52.1	-54.0	14.7	0.00e+00	0	23	0	1050673152	69	4728
2026-01-10 03:15:56.57	279.14	16.86	-52.1	-54.1	14.7	0.00e+00	0	23	0	1052770304	69	4763
2026-01-10 03:15:57.57	279.01	16.77	-52.2	-54.1	14.7	0.00e+00	0	23	0	1054867456	69	4806
2026-01-10 03:15:58.56	278.87	16.68	-52.2	-54.2	14.7	0.00e+00	0	23	0	1056964608	69	4832
2026-01-10 03:15:59.56	278.73	16.59	-52.3	-54.2	14.6	0.00e+00	0	23	0	1058013184	69	4861
2026-01-10 03:16:00.55	278.60	16.50	-52.2	-54.2	14.7	0.00e+00	0	23	0	1060110336	69	4827
2026-01-10 03:16:01.55	278.46	16.41	-52.2	-54.1	14.6	0.00e+00	0	23	0	1062207488	69	4797
2026-01-10 03:16:02.55	278.33	16.32	-52.2	-54.1	14.7	0.00e+00	0	23	0	1064304640	69	4797
2026-01-10 03:16:03.55	278.19	16.23	-52.1	-54.1	14.7	0.00e+00	0	23	0	1065353216	69	4771
2026-01-10 03:16:04.56	278.06	16.14	-52.1	-54.0	14.7	0.00e+00	0	23	0	1067450368	69	4759
2026-01-10 03:16:05.56	277.93	16.05	-52.2	-54.2	14.6	0.00e+00	0	23	0	1069547520	69	4847
2026-01-10 03:16:06.56	277.80	15.96	-52.3	-54.3	14.6	0.00e+00	0	23	0	1071644672	69	4895
2026-01-10 03:16:07.56	277.67	15.87	-52.5	-54.5	14.6	0.00e+00	0	23	0	1073741824	70	4733
2026-01-10 03:16:08.56	277.54	15.79	-52.6	-54.7	14.5	0.00e+00	0	23	0	1074790400	70	4844
2026-01-10 03:16:09.56	277.41	15.70	-52.7	-54.8	14.4	0.00e+00	0	23	0	1076887552	70	4881
2026-01-10 03:16:10.56	277.28	15.61	-52.7	-54.8	14.5	0.00e+00	0	23	0	1078984704	70	4885
2026-01-10 03:16:11.56	277.15	15.52	-52.7	-54.8	14.5	0.00e+00	0	23	0	1081081856	70	4911
2026-01-10 03:16:12.54	277.03	15.43	-52.7	-54.8	14.5	0.00e+00	0	23	0	1082130432	70	4902
2026-01-10 03:16:13.54	276.90	15.35	-52.6	-54.7	14.5	0.00e+00	0	23	0	1084227584	70	4816
2026-01-10 03:16:14.54	276.78	15.26	-52.5	-54.6	14.6	0.00e+00	0	23	0	1086324736	70	4795
2026-01-10 03:16:15.54	276.65	15.17	-52.6	-54.7	14.5	0.00e+00	0	23	0	1088421888	70	4848
2026-01-10 03:16:16.54	276.53	15.08	-52.5	-54.5	14.6	0.00e+00	0	23	0	1090519040	70	4757
2026-01-10 03:16:17.55	276.41	15.00	-52.6	-54.6	14.5	0.00e+00	0	23	0	1091567616	70	4810
2026-01-10 03:16:18.54	276.29	14.91	-52.6	-54.7	14.5	0.00e+00	0	23	0	1093664768	70	4829
2026-01-10 03:16:19.55	276.16	14.82	-52.7	-54.8	14.4	0.00e+00	0	23	0	1095761920	70	4891
2026-01-10 03:16:20.55	276.04	14.74	-52.7	-54.8	14.4	0.00e+00	0	23	0	1097859072	70	4906
2026-01-10 03:16:21.56	275.92	14.65	-52.8	-54.9	14.4	0.00e+00	0	23	0	1099956224	70	4955
2026-01-10 03:16:22.56	275.80	14.56	-52.8	-54.9	14.4	0.00e+00	0	23	0	1101004800	70	4968
2026-01-10 03:16:23.56	275.68	14.48	-52.9	-55.1	14.3	0.00e+00	0	23	0	1103101952	70	5056
2026-01-10 03:16:24.57	275.56	14.39	-53.0	-55.2	14.3	0.00e+00	0	23	0	1105199104	71	4856
2026-01-10 03:16:25.57	275.45	14.30	-52.9	-55.1	14.4	0.00e+00	0	23	0	1107296256	71	4814
2026-01-10 03:16:26.57	275.33	14.22	-52.8	-55.0	14.5	0.00e+00	0	23	0	1109393408	71	4722
2026-01-10 03:16:27.57	275.21	14.13	-52.8	-55.0	14.5	0.00e+00	0	23	0	1110441984	71	4711
2026-01-10 03:16:28.57	275.10	14.05	-52.8	-55.0	14.5	0.00e+00	0	23	0	1112539136	71	4708
2026-01-10 03:16:29.57	274.99	13.96	-52.6	-54.6	14.7	0.00e+00	0	23	0	1114636288	71	4540
2026-01-10 03:16:30.58	274.87	13.88	-52.5	-54.6	14.7	0.00e+00	0	23	0	1116733440	71	4511
2026-01-10 03:16:31.57	274.76	13.79	-52.6	-54.7	14.7	0.00e+00	0	23	0	1118830592	71	4560
2026-01-10 03:16:32.56	274.65	13.71	-52.6	-54.6	14.7	0.00e+00	0	23	0	1119879168	71	4538
2026-01-10 03:16:33.56	274.54	13.63	-52.5	-54.6	14.7	0.00e+00	0	23	0	1121976320	71	4500
2026-01-10 03:16:34.55	274.43	13.54	-52.7	-54.8	14.6	0.00e+00	0	23	0	1124073472	71	4626
2026-01-10 03:16:35.55	274.31	13.46	-52.7	-54.8	14.6	0.00e+00	0	23	0	1126170624	71	4632
2026-01-10 03:16:36.55	274.21	13.38	-52.7	-54.9	14.6	0.00e+00	0	24	0	1127219200	71	4656
2026-01-10 03:16:37.55	274.10	13.29	-52.8	-54.9	14.5	0.00e+00	0	23	0	1129316352	71	4686
2026-01-10 03:16:38.55	273.99	13.21	-52.8	-54.9	14.5	0.00e+00	0	23	0	1131413504	71	4694
2026-01-10 03:16:39.55	273.88	13.13	-52.9	-55.0	14.4	0.00e+00	0	23	0	1133510656	71	4755
2026-01-10 03:16:40.55	273.77	13.04	-52.8	-55.0	14.5	0.00e+00	0	23	0	1135607808	71	4706
2026-01-10 03:16:41.55	273.67	12.96	-52.8	-55.0	14.4	0.00e+00	0	23	0	1136656384	71	4731
2026-01-10 03:16:42.55	273.56	12.88	-52.9	-55.1	14.4	0.00e+00	0	23	0	1138753536	71	4795
2026-01-10 03:16:43.55	273.45	12.79	-52.9	-55.1	14.4	0.00e+00	0	23	0	1140850688	71	4765
2026-01-10 03:16:44.55	273.35	12.71	-52.8	-55.0	14.4	0.00e+00	0	23	0	1142947840	71	4742
2026-01-10 03:16:45.56	273.24	12.63	-52.9	-55.1	14.4	0.00e+00	0	23	0	1145044992	71	4778
2026-01-10 03:16:46.55	273.14	12.55	-53.0	-55.2	14.3	0.00e+00	0	23	0	1146093568	71	4856
2026-01-10 03:16:47.56	273.04	12.47	-52.9	-55.1	14.3	0.00e+00	0	23	0	1148190720	71	4812
2026-01-10 03:16:48.56	272.93	12.38	-53.0	-55.3	14.3	0.00e+00	0	23	0	1150287872	71	4892
2026-01-10 03:16:49.56	272.83	12.30	-53.0	-55.3	14.3	0.00e+00	0	23	0	1152385024	71	4880
2026-01-10 03:16:50.56	272.73	12.22	-53.0	-55.4	14.2	0.00e+00	0	23	0	1154482176	71	4935
2026-01-10 03:16:51.57	272.63	12.14	-53.1	-55.4	14.2	0.00e+00	0	23	0	1155530752	71	4938
2026-01-10 03:16:52.57	272.53	12.06	-53.1	-55.4	14.2	0.00e+00	0	23	0	1157627904	71	4971
2026-01-10 03:16:53.56	272.43	11.98	-53.1	-55.5	14.1	0.00e+00	0	23	0	1159725056	71	4996
2026-01-10 03:16:54.55	272.33	11.90	-53.1	-55.4	14.1	0.00e+00	0	23	0	1161822208	71	4979
2026-01-10 03:16:55.55	272.23	11.82	-53.2	-55.5	14.0	0.00e+00	0	23	0	1162870784	71	5031
2026-01-10 03:16:56.55	272.14	11.74	-53.2	-55.5	14.0	0.00e+00	0	23	0	1164967936	71	5041
2026-01-10 03:16:57.56	272.04	11.66	-53.1	-55.5	14.1	0.00e+00	0	23	0	1167065088	71	4990
2026-01-10 03:16:58.57	271.94	11.58	-53.2	-55.6	14.0	0.00e+00	0	23	0	1169162240	71	5076
2026-01-10 03:16:59.57	271.84	11.50	-53.1	-55.4	14.2	0.00e+00	0	23	0	1171259392	71	4952
2026-01-10 03:17:00.57	271.75	11.42	-53.1	-55.5	14.1	0.00e+00	0	23	0	1172307968	71	4997
2026-01-10 03:17:01.56	271.65	11.34	-53.2	-55.6	14.1	0.00e+00	0	23	0	1174405120	71	5054
2026-01-10 03:17:02.56	271.56	11.26	-53.3	-55.7	14.0	0.00e+00	0	23	0	1176502272	71	5123
2026-01-10 03:17:03.56	271.46	11.18	-53.3	-55.8	14.0	0.00e+00	0	23	0	1178599424	71	5163
2026-01-10 03:17:04.56	271.37	11.10	-53.3	-55.8	13.9	0.00e+00	0	23	0	1180696576	71	5200
2026-01-10 03:17:05.56	271.28	11.03	-53.4	-55.9	13.8	0.00e+00	0	23	0	1181745152	71	5277
2026-01-10 03:17:06.56	271.18	10.95	-53.4	-56.0	13.9	0.00e+00	0	23	0	1183842304	72	4991
2026-01-10 03:17:07.56	271.09	10.87	-53.4	-55.9	14.0	0.00e+00	0	23	0	1185939456	72	4956
2026-01-10 03:17:08.56	271.00	10.79	-53.3	-55.8	14.1	0.00e+00	0	23	0	1188036608	72	4875
2026-01-10 03:17:09.56	270.91	10.71	-53.3	-55.8	14.0	0.00e+00	0	23	0	1190133760	72	4884
2026-01-10 03:17:10.56	270.82	10.64	-53.3	-55.7	14.1	0.00e+00	0	23	0	1191182336	72	4866
2026-01-10 03:17:11.57	270.73	10.56	-53.3	-55.8	14.0	0.00e+00	0	23	0	1193279488	72	4905
2026-01-10 03:17:12.57	270.64	10.48	-53.4	-56.0	13.9	0.00e+00	0	23	0	1195376640	72	4992
2026-01-10 03:17:13.56	270.55	10.40	-53.5	-56.2	13.7	0.00e+00	0	23	0	1197473792	72	5102
2026-01-10 03:17:14.56	270.46	10.33	-53.6	-56.3	13.6	0.00e+00	0	23	0	1198522368	72	5183
2026-01-10 03:17:15.57	270.37	10.25	-53.7	-56.6	13.4	0.00e+00	0	23	0	1200619520	72	5373
2026-01-10 03:17:16.56	270.29	10.17	-53.8	-56.8	13.2	0.00e+00	0	24	0	1202716672	72	5495
2026-01-10 03:17:17.57	270.20	10.10	-54.0	-57.1	13.2	0.00e+00	0	23	0	1204813824	73	5342
2026-01-10 03:17:18.56	270.11	10.02	-54.0	-57.1	13.1	0.00e+00	0	23	0	1206910976	73	5344
2026-01-10 03:17:19.57	270.02	9.94	-54.0	-57.2	13.1	0.00e+00	0	24	0	1207959552	73	5411
2026-01-10 03:17:20.57	269.94	9.87	-54.1	-57.3	12.9	0.00e+00	0	23	0	1210056704	73	5514
2026-01-10 03:17:21.56	269.85	9.79	-54.2	-57.6	12.7	0.00e+00	0	23	0	1212153856	73	5671
2026-01-10 03:17:22.56	269.77	9.72	-54.3	-57.8	12.5	0.00e+00	0	23	0	1214251008	73	5811
2026-01-10 03:17:23.56	269.68	9.64	-54.3	-57.9	12.3	0.00e+00	0	23	0	1216348160	73	5898
2026-01-10 03:17:24.55	269.60	9.57	-54.5	-58.5	12.0	4.50e-06	0	24	0	1217396736	74	5928
2026-01-10 03:17:25.56	269.52	9.49	-54.8	-59.1	11.4	3.50e-05	0	23	0	1219493888	74	6372
