passes_logs/2026/01/10/R3.2S_Murmansk/R3.2S_Murmansk__20260110_052518_FENGYUN_3D_rec.log

#Pass ID: 20260110_052518_FENGYUN 3D
#Satellite: FENGYUN 3D
#Configuration: FENGYUN 3D
#almurnet v.1.7.20251203
#Start time: 2026-01-10 05:25:19

#Version: 2.2.20231116
#Station: R3.2S_Murmansk
#Location: 33.079688 lon 68.888172 lat
#TLE: 1 43010U 17072A   26009.29492227  .00000158  00000+0  96483-4 0  9996
#TLE: 2 43010  98.9936 341.0229 0002153 117.3665 242.7729 14.19694440422446

#Time	Az	El	Level	Level2	SNR	BER	BlckErr	Temp	State	Recorded	gain1	gain2
2026-01-10 05:25:19.01	41.35	2.03	-57.1	-70.0	3.8	8.47e-01	0	21	0	0	80	15856
2026-01-10 05:25:20.01	41.30	2.09	-57.0	-70.0	3.8	8.45e-01	0	21	104	0	79	16781
2026-01-10 05:25:21.00	41.25	2.15	-57.0	-70.0	3.8	8.46e-01	0	21	104	0	79	16784
2026-01-10 05:25:22.01	41.19	2.21	-57.0	-70.0	3.8	8.45e-01	0	21	104	0	79	16759
2026-01-10 05:25:23.01	41.14	2.27	-57.0	-70.0	3.8	8.46e-01	0	21	104	0	79	16806
2026-01-10 05:25:24.02	41.09	2.33	-57.0	-70.0	3.8	8.46e-01	0	21	104	0	79	16798
2026-01-10 05:25:25.02	41.04	2.39	-57.0	-70.0	3.8	8.45e-01	0	21	104	0	79	16762
2026-01-10 05:25:26.01	40.99	2.45	-57.0	-70.0	3.8	8.46e-01	0	22	104	0	79	16817
2026-01-10 05:25:27.01	40.93	2.51	-57.0	-70.0	3.8	8.46e-01	0	21	104	0	79	16812
2026-01-10 05:25:28.01	40.88	2.57	-57.0	-70.0	3.8	8.45e-01	0	22	104	0	79	16771
2026-01-10 05:25:29.02	40.83	2.63	-57.0	-70.0	3.8	8.46e-01	0	21	104	0	79	16773
2026-01-10 05:25:30.03	40.77	2.69	-57.0	-70.0	3.8	8.44e-01	0	21	104	0	79	16772
2026-01-10 05:25:31.02	40.72	2.75	-57.0	-69.9	3.8	8.45e-01	0	22	104	0	79	16667
2026-01-10 05:25:32.02	40.67	2.81	-57.0	-69.9	3.8	8.45e-01	0	21	104	0	79	16577
2026-01-10 05:25:33.02	40.61	2.87	-57.0	-69.8	3.8	8.45e-01	0	22	104	0	79	16438
2026-01-10 05:25:34.03	40.56	2.93	-57.0	-69.7	3.8	8.44e-01	0	21	104	0	79	16302
2026-01-10 05:25:35.03	40.50	2.99	-57.0	-69.8	3.8	8.45e-01	0	22	104	0	79	16459
2026-01-10 05:25:36.03	40.45	3.05	-57.0	-69.8	3.8	8.45e-01	0	22	104	0	79	16485
2026-01-10 05:25:37.03	40.39	3.12	-57.0	-69.9	3.8	8.46e-01	0	22	104	0	79	16610
2026-01-10 05:25:38.03	40.34	3.18	-57.0	-69.9	3.8	8.46e-01	0	22	104	0	79	16666
2026-01-10 05:25:39.03	40.28	3.24	-57.0	-70.0	3.8	8.46e-01	0	22	104	0	79	16710
2026-01-10 05:25:40.04	40.23	3.30	-57.0	-70.0	3.8	8.47e-01	0	22	104	0	79	16767
2026-01-10 05:25:41.03	40.17	3.36	-57.0	-70.0	3.8	8.46e-01	0	22	104	0	79	16838
2026-01-10 05:25:42.03	40.12	3.42	-57.0	-70.0	3.8	8.46e-01	0	22	104	0	79	16795
2026-01-10 05:25:43.03	40.06	3.49	-57.0	-70.0	3.8	8.45e-01	0	22	104	0	79	16745
2026-01-10 05:25:44.04	40.00	3.55	-57.0	-70.0	3.8	8.46e-01	0	22	104	0	79	16742
2026-01-10 05:25:45.04	39.95	3.61	-57.0	-70.0	3.8	8.46e-01	0	22	104	0	79	16726
2026-01-10 05:25:46.04	39.89	3.67	-57.0	-70.0	3.8	8.45e-01	0	22	104	0	79	16781
2026-01-10 05:25:47.05	39.83	3.74	-57.0	-70.0	3.8	8.46e-01	0	22	104	0	79	16793
2026-01-10 05:25:48.05	39.77	3.80	-57.0	-69.9	3.8	8.46e-01	0	22	104	0	79	16691
2026-01-10 05:25:49.05	39.71	3.86	-57.0	-69.8	3.8	8.45e-01	0	22	104	0	79	16471
2026-01-10 05:25:50.05	39.66	3.92	-57.0	-69.6	3.8	8.47e-01	0	22	104	0	79	16067
2026-01-10 05:25:51.05	39.60	3.99	-57.0	-69.2	3.8	8.45e-01	0	22	104	0	79	15230
2026-01-10 05:25:52.05	39.54	4.05	-56.9	-68.6	3.8	8.45e-01	0	22	104	0	79	14364
2026-01-10 05:25:53.05	39.48	4.11	-56.9	-68.0	3.8	8.45e-01	0	22	104	0	79	13384
2026-01-10 05:25:54.05	39.42	4.17	-56.8	-67.5	3.8	8.43e-01	0	22	104	0	79	12605
2026-01-10 05:25:55.06	39.36	4.24	-56.7	-66.6	4.2	8.39e-01	0	22	0	0	79	11301
2026-01-10 05:25:56.06	39.30	4.30	-56.7	-65.8	4.4	8.30e-01	0	22	0	0	79	10337
2026-01-10 05:25:57.06	39.24	4.37	-56.5	-64.8	4.8	8.01e-01	0	22	0	0	79	9228
2026-01-10 05:25:58.07	39.18	4.43	-56.3	-63.7	5.4	7.46e-01	0	22	0	0	79	8118
2026-01-10 05:25:59.07	39.12	4.49	-56.1	-62.7	6.0	3.67e-01	0	22	0	4194304	78	7680
2026-01-10 05:26:00.07	39.06	4.56	-55.7	-61.4	7.0	2.03e-01	0	22	0	9437184	78	6614
2026-01-10 05:26:01.08	39.00	4.62	-55.5	-60.6	7.7	8.38e-02	0	22	0	15728640	77	6403
2026-01-10 05:26:02.08	38.93	4.69	-55.1	-59.7	8.5	3.63e-02	0	22	0	20971520	76	6118
2026-01-10 05:26:03.08	38.87	4.75	-54.8	-59.0	9.1	1.58e-02	0	22	0	27262976	76	5634
2026-01-10 05:26:04.08	38.81	4.81	-54.4	-58.3	9.7	8.56e-03	0	22	0	32505856	75	5473
2026-01-10 05:26:05.09	38.75	4.88	-54.3	-58.1	9.9	5.04e-03	0	22	0	37748736	75	5390
2026-01-10 05:26:06.08	38.69	4.94	-54.2	-57.9	10.1	3.39e-03	0	22	0	44040192	75	5246
2026-01-10 05:26:07.08	38.62	5.01	-54.4	-58.3	9.7	4.03e-03	0	23	0	49283072	75	5488
2026-01-10 05:26:08.08	38.56	5.07	-54.7	-58.7	9.4	9.24e-03	0	22	0	54525952	75	5774
2026-01-10 05:26:09.08	38.50	5.14	-55.1	-59.6	8.6	2.04e-02	0	22	0	60817408	75	6386
2026-01-10 05:26:10.08	38.43	5.20	-55.8	-61.7	6.7	1.24e-01	0	22	0	66060288	76	7678
2026-01-10 05:26:11.08	38.37	5.27	-50.4	-52.1	14.0	0.00e+00	0	22	0	71303168	67	4282
2026-01-10 05:26:12.08	38.30	5.33	-56.6	-65.6	4.4	7.76e-01	0	23	0	75497472	78	10759
2026-01-10 05:26:13.07	38.24	5.40	-50.8	-52.6	13.9	0.00e+00	0	23	0	80740352	68	4267
2026-01-10 05:26:14.08	38.17	5.46	-49.9	-51.5	14.3	0.00e+00	0	23	0	85983232	66	4220
2026-01-10 05:26:15.08	38.11	5.53	-49.3	-50.8	14.6	0.00e+00	0	22	0	92274688	65	4129
2026-01-10 05:26:16.08	38.04	5.60	-49.2	-50.8	14.6	0.00e+00	0	22	0	97517568	65	4121
2026-01-10 05:26:17.08	37.98	5.66	-49.5	-51.0	14.5	0.00e+00	0	22	0	102760448	65	4230
2026-01-10 05:26:18.08	37.91	5.73	-49.0	-50.5	14.6	0.00e+00	0	22	0	109051904	64	4239
2026-01-10 05:26:19.08	37.84	5.79	-49.0	-50.6	14.6	0.00e+00	0	22	0	114294784	64	4245
2026-01-10 05:26:20.07	37.78	5.86	-49.0	-50.6	14.6	0.00e+00	0	22	0	119537664	64	4245
2026-01-10 05:26:21.07	37.71	5.93	-48.9	-50.4	14.7	0.00e+00	0	23	0	125829120	64	4165
2026-01-10 05:26:22.07	37.64	5.99	-49.0	-50.5	14.6	0.00e+00	0	23	0	131072000	64	4220
2026-01-10 05:26:23.07	37.57	6.06	-48.9	-50.4	14.7	0.00e+00	0	23	0	136314880	64	4167
2026-01-10 05:26:24.07	37.50	6.13	-48.9	-50.3	14.8	0.00e+00	0	23	0	142606336	64	4139
2026-01-10 05:26:25.06	37.44	6.19	-48.8	-50.2	14.7	0.00e+00	0	22	0	147849216	63	4336
2026-01-10 05:26:26.06	37.37	6.26	-48.6	-50.0	14.8	0.00e+00	0	22	0	154140672	63	4215
2026-01-10 05:26:27.06	37.30	6.33	-48.6	-50.0	14.8	0.00e+00	0	23	0	159383552	63	4233
2026-01-10 05:26:28.05	37.23	6.39	-48.7	-50.1	14.7	0.00e+00	0	23	0	164626432	63	4271
2026-01-10 05:26:29.06	37.16	6.46	-48.7	-50.1	14.8	0.00e+00	0	23	0	169869312	63	4256
2026-01-10 05:26:30.06	37.09	6.53	-48.7	-50.2	14.7	0.00e+00	0	22	0	176160768	63	4295
2026-01-10 05:26:31.06	37.02	6.60	-48.5	-50.0	14.8	0.00e+00	0	22	0	181403648	63	4197
2026-01-10 05:26:32.06	36.95	6.66	-48.6	-50.0	14.8	0.00e+00	0	23	0	187695104	63	4220
2026-01-10 05:26:33.06	36.88	6.73	-48.5	-49.9	14.9	0.00e+00	0	23	0	192937984	63	4170
2026-01-10 05:26:34.06	36.80	6.80	-48.5	-49.9	14.9	0.00e+00	0	23	0	198180864	63	4187
2026-01-10 05:26:35.06	36.73	6.87	-48.5	-49.9	14.9	0.00e+00	0	23	0	204472320	63	4155
2026-01-10 05:26:36.06	36.66	6.94	-48.5	-49.9	14.9	0.00e+00	0	23	0	209715200	63	4176
2026-01-10 05:26:37.06	36.59	7.01	-48.3	-49.6	15.1	0.00e+00	0	23	0	214958080	63	4049
2026-01-10 05:26:38.06	36.51	7.07	-48.3	-49.7	15.0	0.00e+00	0	23	0	221249536	63	4069
2026-01-10 05:26:39.05	36.44	7.14	-48.3	-49.7	15.1	0.00e+00	0	23	0	226492416	63	4064
2026-01-10 05:26:40.05	36.37	7.21	-48.5	-49.9	14.9	0.00e+00	0	23	0	231735296	63	4190
2026-01-10 05:26:41.06	36.29	7.28	-48.5	-49.8	14.9	0.00e+00	0	23	0	238026752	63	4145
2026-01-10 05:26:42.06	36.22	7.35	-48.4	-49.8	15.0	0.00e+00	0	23	0	243269632	63	4107
2026-01-10 05:26:43.06	36.14	7.42	-48.5	-49.8	14.9	0.00e+00	0	23	0	248512512	63	4145
2026-01-10 05:26:44.05	36.07	7.49	-48.4	-49.7	15.0	0.00e+00	0	23	0	254803968	63	4080
2026-01-10 05:26:45.05	35.99	7.56	-48.3	-49.7	15.0	0.00e+00	0	23	0	260046848	63	4075
2026-01-10 05:26:46.06	35.91	7.63	-48.3	-49.7	15.0	0.00e+00	0	23	0	266338304	63	4054
2026-01-10 05:26:47.06	35.84	7.70	-48.3	-49.6	15.1	0.00e+00	0	23	0	271581184	63	4047
2026-01-10 05:26:48.06	35.76	7.77	-48.2	-49.6	15.1	0.00e+00	0	23	0	277872640	63	4020
2026-01-10 05:26:49.07	35.68	7.84	-48.2	-49.6	15.1	0.00e+00	0	23	0	283115520	63	4015
2026-01-10 05:26:50.06	35.61	7.91	-48.3	-49.6	15.1	0.00e+00	0	23	0	288358400	63	4036
2026-01-10 05:26:51.07	35.53	7.98	-48.4	-49.7	15.0	0.00e+00	0	23	0	294649856	63	4083
2026-01-10 05:26:52.07	35.45	8.05	-48.4	-49.7	15.0	0.00e+00	0	23	0	299892736	63	4085
2026-01-10 05:26:53.07	35.37	8.12	-48.4	-49.8	15.0	0.00e+00	0	23	0	305135616	63	4113
2026-01-10 05:26:54.07	35.29	8.19	-48.3	-49.6	15.1	0.00e+00	0	23	0	311427072	63	4036
2026-01-10 05:26:55.07	35.21	8.26	-48.2	-49.5	15.1	0.00e+00	0	23	0	316669952	63	4003
2026-01-10 05:26:56.08	35.13	8.34	-48.2	-49.5	15.0	0.00e+00	0	23	0	321912832	62	4242
2026-01-10 05:26:57.07	35.05	8.41	-48.2	-49.5	15.0	0.00e+00	0	23	0	328204288	62	4237
2026-01-10 05:26:58.07	34.97	8.48	-48.1	-49.5	15.0	0.00e+00	0	23	0	333447168	62	4199
2026-01-10 05:26:59.07	34.89	8.55	-48.1	-49.4	15.1	0.00e+00	0	23	0	339738624	62	4164
2026-01-10 05:27:00.07	34.81	8.62	-48.2	-49.5	15.0	0.00e+00	0	23	0	344981504	62	4225
2026-01-10 05:27:01.07	34.72	8.69	-48.2	-49.6	15.0	0.00e+00	0	23	0	350224384	62	4257
2026-01-10 05:27:02.07	34.64	8.77	-48.2	-49.6	15.0	0.00e+00	0	23	0	356515840	62	4246
2026-01-10 05:27:03.07	34.56	8.84	-48.1	-49.4	15.1	0.00e+00	0	23	0	361758720	62	4159
2026-01-10 05:27:04.06	34.47	8.91	-48.1	-49.5	15.0	0.00e+00	0	23	0	367001600	62	4199
2026-01-10 05:27:05.07	34.39	8.98	-48.0	-49.3	15.1	0.00e+00	0	23	0	373293056	62	4135
2026-01-10 05:27:06.07	34.31	9.06	-48.0	-49.3	15.1	0.00e+00	0	23	0	378535936	62	4129
2026-01-10 05:27:07.06	34.22	9.13	-48.0	-49.4	15.1	0.00e+00	0	23	0	383778816	62	4147
2026-01-10 05:27:08.07	34.14	9.20	-48.0	-49.3	15.1	0.00e+00	0	23	0	390070272	62	4140
2026-01-10 05:27:09.07	34.05	9.28	-48.0	-49.4	15.1	0.00e+00	0	23	0	395313152	62	4148
2026-01-10 05:27:10.06	33.96	9.35	-48.0	-49.3	15.1	0.00e+00	0	23	0	401604608	62	4134
2026-01-10 05:27:11.06	33.88	9.42	-48.0	-49.4	15.1	0.00e+00	0	23	0	406847488	62	4158
2026-01-10 05:27:12.05	33.79	9.50	-48.0	-49.3	15.1	0.00e+00	0	23	0	412090368	62	4136
2026-01-10 05:27:13.05	33.70	9.57	-48.1	-49.4	15.1	0.00e+00	0	23	0	417333248	62	4159
2026-01-10 05:27:14.05	33.62	9.64	-48.0	-49.3	15.1	0.00e+00	0	23	0	423624704	62	4143
2026-01-10 05:27:15.05	33.53	9.72	-48.0	-49.3	15.1	0.00e+00	0	23	0	428867584	62	4122
2026-01-10 05:27:16.04	33.44	9.79	-48.0	-49.4	15.1	0.00e+00	0	23	0	434110464	62	4147
2026-01-10 05:27:17.04	33.35	9.87	-48.0	-49.4	15.1	0.00e+00	0	23	0	440401920	62	4154
2026-01-10 05:27:18.04	33.26	9.94	-48.0	-49.3	15.2	0.00e+00	0	23	0	445644800	62	4107
2026-01-10 05:27:19.03	33.17	10.01	-48.0	-49.3	15.1	0.00e+00	0	23	0	451936256	62	4123
2026-01-10 05:27:20.03	33.08	10.09	-48.0	-49.3	15.1	0.00e+00	0	23	0	457179136	62	4133
2026-01-10 05:27:21.02	32.99	10.16	-48.0	-49.3	15.1	0.00e+00	0	23	0	462422016	62	4111
2026-01-10 05:27:22.02	32.90	10.24	-47.9	-49.2	15.2	0.00e+00	0	23	0	468713472	62	4059
2026-01-10 05:27:23.03	32.80	10.31	-47.9	-49.2	15.2	0.00e+00	0	23	0	473956352	62	4074
2026-01-10 05:27:24.03	32.71	10.39	-47.9	-49.2	15.2	0.00e+00	0	23	0	479199232	62	4075
2026-01-10 05:27:25.03	32.62	10.47	-47.7	-49.0	15.3	0.00e+00	0	23	0	485490688	62	3961
2026-01-10 05:27:26.03	32.52	10.54	-47.5	-48.8	15.2	0.00e+00	0	23	0	490733568	61	4127
2026-01-10 05:27:27.03	32.43	10.62	-47.5	-48.8	15.2	0.00e+00	0	23	0	497025024	61	4125
2026-01-10 05:27:28.03	32.34	10.69	-47.5	-48.8	15.2	0.00e+00	0	23	0	502267904	61	4122
2026-01-10 05:27:29.04	32.24	10.77	-47.6	-48.8	15.2	0.00e+00	0	23	0	507510784	61	4125
2026-01-10 05:27:30.04	32.14	10.85	-47.6	-48.8	15.2	0.00e+00	0	23	0	513802240	61	4125
2026-01-10 05:27:31.03	32.05	10.92	-47.6	-48.9	15.2	0.00e+00	0	23	0	519045120	61	4149
2026-01-10 05:27:32.04	31.95	11.00	-47.5	-48.8	15.3	0.00e+00	0	23	0	524288000	61	4101
2026-01-10 05:27:33.04	31.85	11.08	-47.5	-48.7	15.3	0.00e+00	0	23	0	530579456	61	4094
2026-01-10 05:27:34.04	31.76	11.15	-47.5	-48.7	15.3	0.00e+00	0	23	0	535822336	61	4078
2026-01-10 05:27:35.05	31.66	11.23	-47.4	-48.7	15.3	0.00e+00	0	23	0	541065216	61	4075
2026-01-10 05:27:36.06	31.56	11.31	-47.4	-48.7	15.3	0.00e+00	0	23	0	547356672	61	4076
2026-01-10 05:27:37.06	31.46	11.39	-47.6	-48.9	15.2	0.00e+00	0	23	0	552599552	61	4146
2026-01-10 05:27:38.05	31.36	11.46	-47.5	-48.7	15.3	0.00e+00	0	23	0	558891008	61	4094
2026-01-10 05:27:39.06	31.26	11.54	-47.4	-48.7	15.3	0.00e+00	0	23	0	564133888	61	4066
2026-01-10 05:27:40.05	31.16	11.62	-47.3	-48.6	15.4	0.00e+00	0	23	0	569376768	61	4015
2026-01-10 05:27:41.05	31.05	11.70	-47.4	-48.6	15.4	0.00e+00	0	23	0	575668224	61	4039
2026-01-10 05:27:42.05	30.95	11.78	-47.4	-48.7	15.4	0.00e+00	0	23	0	580911104	61	4065
2026-01-10 05:27:43.05	30.85	11.86	-47.3	-48.6	15.4	0.00e+00	0	23	0	586153984	61	4023
2026-01-10 05:27:44.05	30.74	11.93	-47.4	-48.6	15.4	0.00e+00	0	23	0	592445440	61	4037
2026-01-10 05:27:45.05	30.64	12.01	-47.5	-48.7	15.3	0.00e+00	0	23	0	597688320	61	4076
2026-01-10 05:27:46.05	30.54	12.09	-47.5	-48.8	15.3	0.00e+00	0	23	0	602931200	61	4108
2026-01-10 05:27:47.05	30.43	12.17	-47.2	-48.4	15.5	0.00e+00	0	23	0	609222656	61	3941
2026-01-10 05:27:48.05	30.33	12.25	-47.1	-48.3	15.3	0.00e+00	0	23	0	614465536	60	4131
2026-01-10 05:27:49.05	30.22	12.33	-47.1	-48.3	15.4	0.00e+00	0	23	0	620756992	60	4124
2026-01-10 05:27:50.04	30.11	12.41	-47.1	-48.3	15.3	0.00e+00	0	23	0	625999872	60	4138
2026-01-10 05:27:51.05	30.00	12.49	-47.1	-48.3	15.4	0.00e+00	0	23	0	631242752	60	4106
2026-01-10 05:27:52.05	29.90	12.57	-47.2	-48.4	15.3	0.00e+00	0	23	0	637534208	60	4160
2026-01-10 05:27:53.05	29.79	12.65	-47.2	-48.4	15.3	0.00e+00	0	23	0	642777088	60	4161
2026-01-10 05:27:54.05	29.68	12.73	-47.1	-48.3	15.4	0.00e+00	0	23	0	648019968	60	4128
2026-01-10 05:27:55.05	29.57	12.81	-47.1	-48.4	15.3	0.00e+00	0	23	0	654311424	60	4148
2026-01-10 05:27:56.05	29.46	12.89	-47.0	-48.2	15.4	0.00e+00	0	23	0	659554304	60	4091
2026-01-10 05:27:57.04	29.35	12.97	-47.0	-48.2	15.4	0.00e+00	0	23	0	664797184	60	4085
2026-01-10 05:27:58.04	29.24	13.05	-47.0	-48.3	15.4	0.00e+00	0	23	0	671088640	60	4104
2026-01-10 05:27:59.04	29.12	13.13	-46.9	-48.1	15.4	0.00e+00	0	23	0	676331520	60	4029
2026-01-10 05:28:00.04	29.01	13.21	-46.9	-48.1	15.5	0.00e+00	0	23	0	682622976	60	4008
2026-01-10 05:28:01.04	28.90	13.29	-46.9	-48.1	15.5	0.00e+00	0	23	0	687865856	60	4031
2026-01-10 05:28:02.04	28.78	13.38	-46.9	-48.1	15.5	0.00e+00	0	23	0	693108736	60	4039
2026-01-10 05:28:03.04	28.67	13.46	-46.8	-48.0	15.5	0.00e+00	0	23	0	699400192	60	4000
2026-01-10 05:28:04.05	28.55	13.54	-46.9	-48.1	15.4	0.00e+00	0	23	0	704643072	60	4037
2026-01-10 05:28:05.05	28.43	13.62	-46.9	-48.1	15.5	0.00e+00	0	23	0	709885952	60	4028
2026-01-10 05:28:06.05	28.32	13.70	-46.8	-48.0	15.5	0.00e+00	0	23	0	716177408	60	4002
2026-01-10 05:28:07.05	28.20	13.79	-46.9	-48.1	15.5	0.00e+00	0	23	0	721420288	60	4020
2026-01-10 05:28:08.04	28.08	13.87	-47.0	-48.2	15.4	0.00e+00	0	23	0	726663168	60	4074
2026-01-10 05:28:09.03	27.96	13.95	-46.9	-48.1	15.5	0.00e+00	0	23	0	732954624	60	4012
2026-01-10 05:28:10.03	27.84	14.03	-47.0	-48.2	15.4	0.00e+00	0	23	0	738197504	60	4076
2026-01-10 05:28:11.02	27.72	14.12	-47.0	-48.2	15.4	0.00e+00	0	23	0	744488960	60	4063
2026-01-10 05:28:12.02	27.60	14.20	-46.8	-48.0	15.5	0.00e+00	0	23	0	749731840	60	3963
2026-01-10 05:28:13.02	27.48	14.28	-46.8	-48.0	15.5	0.00e+00	0	23	0	754974720	60	3967
2026-01-10 05:28:14.02	27.36	14.36	-46.7	-47.9	15.6	0.00e+00	0	23	0	761266176	60	3921
2026-01-10 05:28:15.02	27.24	14.45	-46.8	-47.9	15.5	0.00e+00	0	23	0	766509056	60	3950
2026-01-10 05:28:16.02	27.11	14.53	-47.0	-48.2	15.3	0.00e+00	0	23	0	771751936	59	4323
2026-01-10 05:28:17.02	26.99	14.62	-47.0	-48.2	15.3	0.00e+00	0	23	0	778043392	59	4301
2026-01-10 05:28:18.01	26.86	14.70	-47.0	-48.3	15.3	0.00e+00	0	23	0	783286272	59	4357
2026-01-10 05:28:19.01	26.74	14.78	-46.9	-48.2	15.3	0.00e+00	0	23	0	788529152	59	4301
2026-01-10 05:28:20.00	26.61	14.87	-46.8	-48.0	15.4	0.00e+00	0	23	0	794820608	59	4200
2026-01-10 05:28:21.01	26.48	14.95	-46.9	-48.1	15.4	0.00e+00	0	23	0	800063488	59	4266
2026-01-10 05:28:22.00	26.35	15.04	-46.8	-48.0	15.4	0.00e+00	0	23	0	805306368	59	4241
2026-01-10 05:28:23.01	26.22	15.12	-46.7	-47.9	15.5	0.00e+00	0	23	0	811597824	59	4181
2026-01-10 05:28:24.00	26.10	15.20	-46.8	-48.0	15.4	0.00e+00	0	23	0	816840704	59	4198
2026-01-10 05:28:25.00	25.96	15.29	-46.7	-47.9	15.4	0.00e+00	0	23	0	822083584	59	4179
2026-01-10 05:28:26.00	25.83	15.38	-46.7	-47.9	15.4	0.00e+00	0	23	0	828375040	59	4171
2026-01-10 05:28:27.01	25.70	15.46	-46.7	-47.9	15.4	0.00e+00	0	23	0	833617920	59	4192
2026-01-10 05:28:28.00	25.57	15.55	-46.8	-48.0	15.4	0.00e+00	0	23	0	838860800	59	4206
2026-01-10 05:28:29.00	25.43	15.63	-46.8	-48.0	15.4	0.00e+00	0	23	0	845152256	59	4221
2026-01-10 05:28:29.99	25.30	15.72	-46.7	-47.9	15.4	0.00e+00	0	23	0	850395136	59	4163
2026-01-10 05:28:30.99	25.17	15.80	-46.7	-47.9	15.5	0.00e+00	0	23	0	856686592	59	4167
2026-01-10 05:28:32.00	25.03	15.89	-46.7	-48.0	15.4	0.00e+00	0	23	0	861929472	59	4195
2026-01-10 05:28:32.99	24.89	15.97	-46.7	-47.8	15.5	0.00e+00	0	23	0	867172352	59	4143
2026-01-10 05:28:33.99	24.76	16.06	-46.6	-47.9	15.5	0.00e+00	0	23	0	873463808	59	4148
2026-01-10 05:28:34.99	24.62	16.15	-46.7	-47.9	15.5	0.00e+00	0	23	0	878706688	59	4166
2026-01-10 05:28:36.00	24.48	16.23	-46.6	-47.8	15.5	0.00e+00	0	23	0	883949568	59	4135
2026-01-10 05:28:36.99	24.34	16.32	-46.5	-47.7	15.5	0.00e+00	0	23	0	890241024	59	4089
2026-01-10 05:28:37.98	24.20	16.41	-46.5	-47.6	15.6	0.00e+00	0	23	0	895483904	59	4032
2026-01-10 05:28:38.99	24.05	16.49	-46.5	-47.6	15.6	0.00e+00	0	23	0	900726784	59	4040
2026-01-10 05:28:39.99	23.91	16.58	-46.4	-47.5	15.6	0.00e+00	0	23	0	907018240	59	3991
2026-01-10 05:28:40.99	23.77	16.67	-46.4	-47.5	15.6	0.00e+00	0	23	0	912261120	59	3991
2026-01-10 05:28:41.99	23.62	16.75	-46.4	-47.5	15.6	0.00e+00	0	23	0	918552576	59	4003
2026-01-10 05:28:42.99	23.48	16.84	-46.2	-47.4	15.7	0.00e+00	0	23	0	923795456	59	3935
2026-01-10 05:28:43.99	23.33	16.93	-46.3	-47.4	15.7	0.00e+00	0	23	0	929038336	59	3945
2026-01-10 05:28:44.99	23.19	17.02	-46.3	-47.4	15.7	0.00e+00	0	23	0	935329792	59	3938
2026-01-10 05:28:45.99	23.04	17.11	-46.2	-47.4	15.7	0.00e+00	0	23	0	940572672	59	3923
2026-01-10 05:28:46.99	22.89	17.19	-46.1	-47.2	15.6	0.00e+00	0	23	0	945815552	58	4095
2026-01-10 05:28:47.99	22.74	17.28	-46.1	-47.3	15.6	0.00e+00	0	23	0	952107008	58	4119
2026-01-10 05:28:48.99	22.59	17.37	-46.3	-47.4	15.5	0.00e+00	0	23	0	957349888	58	4190
2026-01-10 05:28:49.99	22.44	17.46	-46.2	-47.3	15.6	0.00e+00	0	23	0	962592768	58	4136
2026-01-10 05:28:50.99	22.29	17.55	-46.1	-47.3	15.6	0.00e+00	0	23	0	968884224	58	4116
2026-01-10 05:28:51.99	22.13	17.63	-46.2	-47.3	15.6	0.00e+00	0	23	0	974127104	58	4140
2026-01-10 05:28:52.99	21.98	17.72	-46.2	-47.3	15.6	0.00e+00	0	23	0	980418560	58	4122
2026-01-10 05:28:53.99	21.82	17.81	-46.2	-47.3	15.6	0.00e+00	0	23	0	985661440	58	4133
2026-01-10 05:28:54.99	21.67	17.90	-46.1	-47.2	15.6	0.00e+00	0	23	0	990904320	58	4085
2026-01-10 05:28:55.99	21.51	17.99	-46.1	-47.2	15.6	0.00e+00	0	23	0	997195776	58	4085
2026-01-10 05:28:56.99	21.35	18.08	-46.0	-47.1	15.6	0.00e+00	0	23	0	1002438656	58	4041
2026-01-10 05:28:57.98	21.19	18.17	-46.0	-47.1	15.6	0.00e+00	0	23	0	1007681536	58	4051
2026-01-10 05:28:58.98	21.03	18.25	-46.0	-47.1	15.6	0.00e+00	0	23	0	1013972992	58	4049
2026-01-10 05:28:59.97	20.88	18.34	-45.9	-47.0	15.7	0.00e+00	0	23	0	1019215872	58	3973
2026-01-10 05:29:00.97	20.71	18.43	-45.9	-47.1	15.7	0.00e+00	0	23	0	1024458752	58	4006
2026-01-10 05:29:01.97	20.55	18.52	-45.9	-47.0	15.7	0.00e+00	0	23	0	1030750208	58	3995
2026-01-10 05:29:02.97	20.39	18.61	-45.9	-47.0	15.7	0.00e+00	0	23	0	1035993088	58	3973
2026-01-10 05:29:03.97	20.22	18.70	-45.9	-47.0	15.7	0.00e+00	0	23	0	1042284544	58	3975
2026-01-10 05:29:04.98	20.06	18.79	-45.9	-47.1	15.7	0.00e+00	0	23	0	1047527424	58	4014
2026-01-10 05:29:05.98	19.89	18.88	-45.9	-47.0	15.7	0.00e+00	0	23	0	1052770304	58	3979
2026-01-10 05:29:06.98	19.72	18.97	-45.8	-47.0	15.7	0.00e+00	0	23	0	1059061760	58	3967
2026-01-10 05:29:07.98	19.55	19.06	-45.8	-46.9	15.7	0.00e+00	0	23	0	1064304640	58	3944
2026-01-10 05:29:08.97	19.38	19.15	-45.8	-46.9	15.8	0.00e+00	0	23	0	1069547520	58	3934
2026-01-10 05:29:09.98	19.21	19.24	-45.8	-46.9	15.7	0.00e+00	0	23	0	1075838976	58	3958
2026-01-10 05:29:10.97	19.04	19.33	-45.6	-46.7	15.7	0.00e+00	0	23	0	1081081856	57	4056
2026-01-10 05:29:11.97	18.87	19.42	-45.6	-46.8	15.6	0.00e+00	0	23	0	1087373312	57	4099
2026-01-10 05:29:12.96	18.70	19.51	-45.6	-46.7	15.6	0.00e+00	0	23	0	1092616192	57	4087
2026-01-10 05:29:13.96	18.52	19.60	-45.6	-46.8	15.6	0.00e+00	0	23	0	1097859072	57	4103
2026-01-10 05:29:14.96	18.35	19.69	-45.7	-46.8	15.6	0.00e+00	0	23	0	1104150528	57	4136
2026-01-10 05:29:15.96	18.17	19.78	-45.8	-47.0	15.6	0.00e+00	0	23	0	1109393408	57	4195
2026-01-10 05:29:16.96	17.99	19.87	-45.9	-47.0	15.5	0.00e+00	0	23	0	1114636288	57	4223
2026-01-10 05:29:17.95	17.81	19.96	-46.0	-47.1	15.5	0.00e+00	0	23	0	1119879168	57	4288
2026-01-10 05:29:18.96	17.63	20.05	-46.1	-47.3	15.5	0.00e+00	0	23	0	1126170624	57	4353
2026-01-10 05:29:19.95	17.45	20.14	-46.1	-47.2	15.5	0.00e+00	0	23	0	1131413504	57	4316
2026-01-10 05:29:20.94	17.27	20.23	-46.1	-47.3	15.5	0.00e+00	0	23	0	1137704960	57	4371
2026-01-10 05:29:21.94	17.09	20.32	-45.9	-47.1	15.5	0.00e+00	0	23	0	1142947840	57	4261
2026-01-10 05:29:22.93	16.91	20.41	-45.7	-46.8	15.6	0.00e+00	0	23	0	1148190720	57	4125
2026-01-10 05:29:23.92	16.72	20.50	-45.6	-46.7	15.6	0.00e+00	0	23	0	1154482176	57	4096
2026-01-10 05:29:24.92	16.54	20.59	-45.6	-46.7	15.7	0.00e+00	0	23	0	1159725056	57	4079
2026-01-10 05:29:25.93	16.35	20.68	-45.6	-46.8	15.7	0.00e+00	0	23	0	1164967936	57	4100
2026-01-10 05:29:26.92	16.16	20.77	-45.6	-46.7	15.7	0.00e+00	0	23	0	1171259392	57	4067
2026-01-10 05:29:27.92	15.97	20.86	-45.7	-46.8	15.6	0.00e+00	0	23	0	1176502272	57	4124
2026-01-10 05:29:28.92	15.78	20.95	-45.7	-46.8	15.7	0.00e+00	0	23	0	1181745152	57	4108
2026-01-10 05:29:29.92	15.59	21.04	-45.7	-46.8	15.6	0.00e+00	0	23	0	1188036608	57	4127
2026-01-10 05:29:30.92	15.39	21.13	-45.6	-46.8	15.7	0.00e+00	0	23	0	1193279488	57	4107
2026-01-10 05:29:31.92	15.20	21.22	-45.7	-46.8	15.6	0.00e+00	0	23	0	1199570944	57	4121
2026-01-10 05:29:32.92	15.00	21.31	-45.5	-46.6	15.7	0.00e+00	0	23	0	1204813824	57	4019
2026-01-10 05:29:33.92	14.81	21.40	-45.5	-46.6	15.7	0.00e+00	0	23	0	1210056704	57	4028
2026-01-10 05:29:34.92	14.61	21.49	-45.5	-46.6	15.7	0.00e+00	0	23	0	1216348160	57	4042
2026-01-10 05:29:35.92	14.41	21.58	-45.4	-46.5	15.8	0.00e+00	0	23	0	1221591040	57	3996
2026-01-10 05:29:36.92	14.21	21.67	-45.4	-46.5	15.8	0.00e+00	0	23	0	1226833920	57	3994
2026-01-10 05:29:37.92	14.01	21.76	-45.5	-46.6	15.7	0.00e+00	0	23	0	1233125376	57	4045
2026-01-10 05:29:38.93	13.80	21.85	-45.5	-46.6	15.7	0.00e+00	0	23	0	1238368256	57	4012
2026-01-10 05:29:39.92	13.60	21.94	-45.4	-46.5	15.8	0.00e+00	0	23	0	1243611136	57	3980
2026-01-10 05:29:40.92	13.39	22.03	-45.4	-46.5	15.7	0.00e+00	0	23	0	1249902592	57	3989
2026-01-10 05:29:41.92	13.19	22.12	-45.3	-46.4	15.8	0.00e+00	0	23	0	1255145472	57	3939
2026-01-10 05:29:42.92	12.98	22.21	-45.3	-46.4	15.8	0.00e+00	0	23	0	1261436928	57	3929
2026-01-10 05:29:43.92	12.77	22.30	-45.3	-46.4	15.8	0.00e+00	0	23	0	1266679808	57	3948
2026-01-10 05:29:44.92	12.56	22.39	-45.2	-46.3	15.9	0.00e+00	0	23	0	1271922688	57	3880
2026-01-10 05:29:45.92	12.35	22.48	-45.0	-46.1	15.8	0.00e+00	0	23	0	1278214144	56	4029
2026-01-10 05:29:46.92	12.14	22.57	-45.1	-46.2	15.7	0.00e+00	0	23	0	1283457024	56	4056
2026-01-10 05:29:47.92	11.92	22.66	-45.1	-46.2	15.7	0.00e+00	0	23	0	1288699904	56	4064
2026-01-10 05:29:48.92	11.71	22.74	-45.2	-46.2	15.7	0.00e+00	0	23	0	1294991360	56	4092
2026-01-10 05:29:49.92	11.49	22.83	-45.1	-46.2	15.7	0.00e+00	0	23	0	1300234240	56	4063
2026-01-10 05:29:50.92	11.27	22.92	-45.2	-46.3	15.7	0.00e+00	0	23	0	1305477120	56	4116
2026-01-10 05:29:51.93	11.05	23.01	-45.2	-46.3	15.7	0.00e+00	0	23	0	1311768576	56	4116
2026-01-10 05:29:52.92	10.84	23.10	-45.0	-46.1	15.8	0.00e+00	0	23	0	1317011456	56	4045
2026-01-10 05:29:53.92	10.61	23.19	-45.1	-46.1	15.7	0.00e+00	0	23	0	1323302912	56	4047
2026-01-10 05:29:54.92	10.39	23.28	-45.0	-46.1	15.8	0.00e+00	0	23	0	1328545792	56	4024
2026-01-10 05:29:55.92	10.17	23.36	-45.0	-46.1	15.8	0.00e+00	0	23	0	1333788672	56	4030
2026-01-10 05:29:56.92	9.94	23.45	-45.0	-46.1	15.8	0.00e+00	0	23	0	1340080128	56	4011
2026-01-10 05:29:57.93	9.71	23.54	-45.0	-46.1	15.7	0.00e+00	0	23	0	1345323008	56	4043
2026-01-10 05:29:58.92	9.49	23.63	-44.7	-45.8	15.9	0.00e+00	0	23	0	1350565888	56	3892
2026-01-10 05:29:59.92	9.26	23.71	-44.8	-45.8	15.8	0.00e+00	0	23	0	1356857344	56	3913
2026-01-10 05:30:00.92	9.03	23.80	-44.9	-45.9	15.8	0.00e+00	0	23	0	1362100224	56	3943
2026-01-10 05:30:01.92	8.80	23.89	-44.8	-45.9	15.9	0.00e+00	0	23	0	1367343104	56	3923
2026-01-10 05:30:02.92	8.57	23.97	-44.9	-45.9	15.8	0.00e+00	0	23	0	1373634560	56	3947
2026-01-10 05:30:03.92	8.33	24.06	-44.8	-45.9	15.9	0.00e+00	0	23	0	1378877440	56	3931
2026-01-10 05:30:04.92	8.10	24.14	-44.7	-45.7	15.9	0.00e+00	0	23	0	1385168896	56	3863
2026-01-10 05:30:05.92	7.86	24.23	-44.5	-45.6	15.8	0.00e+00	0	23	0	1390411776	55	4014
2026-01-10 05:30:06.92	7.62	24.32	-44.4	-45.4	15.8	0.00e+00	0	23	0	1395654656	55	3953
2026-01-10 05:30:07.92	7.38	24.40	-44.3	-45.4	15.9	0.00e+00	0	23	0	1401946112	55	3930
2026-01-10 05:30:08.92	7.14	24.49	-44.3	-45.4	15.9	0.00e+00	0	23	0	1407188992	55	3925
2026-01-10 05:30:09.92	6.90	24.57	-44.4	-45.5	15.8	0.00e+00	0	24	0	1412431872	55	3974
2026-01-10 05:30:10.92	6.66	24.66	-44.5	-45.5	15.8	0.00e+00	0	23	0	1418723328	55	3995
2026-01-10 05:30:11.92	6.41	24.74	-44.6	-45.7	15.8	0.00e+00	0	23	0	1423966208	55	4066
2026-01-10 05:30:12.92	6.16	24.82	-44.6	-45.7	15.8	0.00e+00	0	23	0	1429209088	55	4080
2026-01-10 05:30:13.92	5.92	24.91	-44.8	-45.9	15.7	0.00e+00	0	23	0	1435500544	55	4152
2026-01-10 05:30:14.91	5.67	24.99	-44.8	-45.9	15.7	0.00e+00	0	23	0	1440743424	55	4174
2026-01-10 05:30:15.92	5.42	25.07	-44.9	-46.0	15.7	0.00e+00	0	23	0	1447034880	55	4223
2026-01-10 05:30:16.91	5.17	25.15	-44.8	-45.9	15.7	0.00e+00	0	23	0	1452277760	55	4180
2026-01-10 05:30:17.92	4.91	25.24	-44.7	-45.8	15.7	0.00e+00	0	23	0	1457520640	55	4127
2026-01-10 05:30:18.91	4.66	25.32	-44.7	-45.8	15.7	0.00e+00	0	23	0	1463812096	55	4116
2026-01-10 05:30:19.91	4.41	25.40	-44.6	-45.7	15.8	0.00e+00	0	23	0	1469054976	55	4074
2026-01-10 05:30:20.91	4.15	25.48	-44.5	-45.6	15.8	0.00e+00	0	23	0	1474297856	55	4013
2026-01-10 05:30:21.91	3.89	25.56	-44.6	-45.7	15.8	0.00e+00	0	23	0	1480589312	55	4061
2026-01-10 05:30:22.91	3.63	25.64	-44.5	-45.6	15.8	0.00e+00	0	23	0	1485832192	55	4009
2026-01-10 05:30:23.91	3.37	25.72	-44.6	-45.7	15.8	0.00e+00	0	23	0	1491075072	55	4056
2026-01-10 05:30:24.91	3.11	25.80	-44.7	-45.8	15.7	0.00e+00	0	23	0	1497366528	55	4132
2026-01-10 05:30:25.90	2.85	25.88	-44.6	-45.7	15.8	0.00e+00	0	23	0	1502609408	55	4067
2026-01-10 05:30:26.89	2.59	25.96	-44.5	-45.6	15.8	0.00e+00	0	23	0	1507852288	55	4035
2026-01-10 05:30:27.89	2.32	26.03	-44.6	-45.6	15.8	0.00e+00	0	23	0	1514143744	55	4040
2026-01-10 05:30:28.88	2.06	26.11	-44.6	-45.6	15.8	0.00e+00	0	23	0	1519386624	55	4047
2026-01-10 05:30:29.88	1.79	26.19	-44.6	-45.6	15.8	0.00e+00	0	23	0	1524629504	55	4034
2026-01-10 05:30:30.88	1.52	26.27	-44.4	-45.5	15.8	0.00e+00	0	23	0	1530920960	55	3969
2026-01-10 05:30:31.89	1.25	26.34	-44.4	-45.4	15.9	0.00e+00	0	23	0	1536163840	55	3947
2026-01-10 05:30:32.88	0.98	26.42	-44.3	-45.3	15.9	0.00e+00	0	23	0	1541406720	55	3906
2026-01-10 05:30:33.89	0.70	26.49	-44.2	-45.2	15.8	0.00e+00	0	23	0	1547698176	54	4088
2026-01-10 05:30:34.88	0.43	26.57	-44.2	-45.2	15.8	0.00e+00	0	23	0	1552941056	54	4081
2026-01-10 05:30:35.88	0.15	26.64	-44.2	-45.2	15.8	0.00e+00	0	23	0	1559232512	54	4077
2026-01-10 05:30:36.88	359.87	26.71	-44.2	-45.3	15.8	0.00e+00	0	23	0	1564475392	54	4122
2026-01-10 05:30:37.88	359.59	26.79	-44.3	-45.4	15.7	0.00e+00	0	23	0	1569718272	54	4148
2026-01-10 05:30:38.88	359.31	26.86	-44.3	-45.3	15.8	0.00e+00	0	23	0	1576009728	54	4144
2026-01-10 05:30:39.88	359.03	26.93	-44.4	-45.5	15.7	0.00e+00	0	23	0	1581252608	54	4209
2026-01-10 05:30:40.89	358.75	27.00	-44.5	-45.5	15.7	0.00e+00	0	23	0	1586495488	54	4232
2026-01-10 05:30:41.89	358.46	27.07	-44.5	-45.5	15.7	0.00e+00	0	23	0	1592786944	54	4225
2026-01-10 05:30:42.89	358.18	27.14	-44.5	-45.5	15.7	0.00e+00	0	23	0	1598029824	54	4229
2026-01-10 05:30:43.89	357.89	27.21	-44.4	-45.5	15.7	0.00e+00	0	23	0	1603272704	54	4203
2026-01-10 05:30:44.88	357.61	27.28	-44.2	-45.3	15.8	0.00e+00	0	23	0	1609564160	54	4114
2026-01-10 05:30:45.88	357.32	27.35	-44.2	-45.3	15.8	0.00e+00	0	23	0	1614807040	54	4121
2026-01-10 05:30:46.89	357.02	27.42	-44.4	-45.5	15.7	0.00e+00	0	23	0	1621098496	54	4210
2026-01-10 05:30:47.90	356.73	27.49	-44.5	-45.6	15.7	0.00e+00	0	23	0	1626341376	54	4243
2026-01-10 05:30:48.89	356.44	27.55	-44.4	-45.5	15.7	0.00e+00	0	23	0	1631584256	54	4219
2026-01-10 05:30:49.89	356.14	27.62	-44.5	-45.5	15.7	0.00e+00	0	23	0	1637875712	54	4229
2026-01-10 05:30:50.88	355.85	27.68	-44.3	-45.4	15.7	0.00e+00	0	23	0	1643118592	54	4161
2026-01-10 05:30:51.88	355.56	27.75	-44.4	-45.5	15.7	0.00e+00	0	23	0	1648361472	54	4196
2026-01-10 05:30:52.88	355.26	27.81	-44.3	-45.4	15.7	0.00e+00	0	23	0	1654652928	54	4148
2026-01-10 05:30:53.88	354.96	27.87	-44.3	-45.4	15.8	0.00e+00	0	23	0	1659895808	54	4151
2026-01-10 05:30:54.88	354.66	27.93	-44.3	-45.4	15.7	0.00e+00	0	23	0	1666187264	54	4160
2026-01-10 05:30:55.88	354.36	28.00	-44.3	-45.4	15.7	0.00e+00	0	23	0	1671430144	54	4176
2026-01-10 05:30:56.87	354.06	28.06	-44.2	-45.3	15.8	0.00e+00	0	23	0	1676673024	54	4122
2026-01-10 05:30:57.87	353.75	28.12	-44.2	-45.2	15.8	0.00e+00	0	23	0	1682964480	54	4081
2026-01-10 05:30:58.87	353.45	28.17	-44.0	-45.1	15.8	0.00e+00	0	23	0	1688207360	54	4006
2026-01-10 05:30:59.86	353.15	28.23	-44.0	-45.1	15.8	0.00e+00	0	23	0	1693450240	54	4012
2026-01-10 05:31:00.86	352.84	28.29	-44.1	-45.1	15.8	0.00e+00	0	23	0	1698693120	54	4038
2026-01-10 05:31:01.86	352.53	28.35	-44.1	-45.2	15.8	0.00e+00	0	23	0	1704984576	54	4054
2026-01-10 05:31:02.85	352.23	28.40	-44.1	-45.2	15.8	0.00e+00	0	23	0	1710227456	54	4070
2026-01-10 05:31:03.85	351.92	28.46	-44.2	-45.2	15.8	0.00e+00	0	23	0	1716518912	54	4098
2026-01-10 05:31:04.85	351.60	28.51	-44.1	-45.2	15.8	0.00e+00	0	23	0	1721761792	54	4071
2026-01-10 05:31:05.83	351.30	28.56	-44.2	-45.3	15.8	0.00e+00	0	23	0	1727004672	54	4112
2026-01-10 05:31:06.84	350.98	28.62	-44.2	-45.2	15.8	0.00e+00	0	23	0	1733296128	54	4093
2026-01-10 05:31:07.84	350.67	28.67	-44.0	-45.1	15.8	0.00e+00	0	23	0	1738539008	54	4018
2026-01-10 05:31:08.85	350.35	28.72	-44.1	-45.1	15.8	0.00e+00	0	23	0	1744830464	54	4049
2026-01-10 05:31:09.84	350.04	28.77	-44.0	-45.1	15.8	0.00e+00	0	23	0	1750073344	54	4016
2026-01-10 05:31:10.85	349.71	28.82	-44.1	-45.1	15.8	0.00e+00	0	23	0	1755316224	54	4041
2026-01-10 05:31:11.85	349.40	28.87	-44.1	-45.1	15.8	0.00e+00	0	23	0	1761607680	54	4024
2026-01-10 05:31:12.84	349.08	28.91	-44.1	-45.2	15.8	0.00e+00	0	23	0	1766850560	54	4058
2026-01-10 05:31:13.84	348.76	28.96	-44.2	-45.2	15.8	0.00e+00	0	23	0	1772093440	54	4083
2026-01-10 05:31:14.83	348.44	29.00	-44.1	-45.1	15.8	0.00e+00	0	23	0	1778384896	54	4044
2026-01-10 05:31:15.83	348.12	29.05	-44.1	-45.1	15.8	0.00e+00	0	23	0	1783627776	54	4031
2026-01-10 05:31:16.83	347.80	29.09	-44.0	-45.0	15.8	0.00e+00	0	23	0	1788870656	54	4003
2026-01-10 05:31:17.83	347.47	29.13	-43.9	-44.9	15.9	0.00e+00	0	23	0	1795162112	54	3949
2026-01-10 05:31:18.82	347.15	29.18	-44.0	-45.1	15.8	0.00e+00	0	23	0	1800404992	54	4021
2026-01-10 05:31:19.82	346.83	29.22	-44.0	-45.1	15.8	0.00e+00	0	23	0	1805647872	54	4022
2026-01-10 05:31:20.82	346.50	29.26	-44.1	-45.1	15.8	0.00e+00	0	23	0	1811939328	54	4029
2026-01-10 05:31:21.82	346.17	29.29	-43.9	-44.9	15.9	0.00e+00	0	23	0	1817182208	54	3932
2026-01-10 05:31:22.82	345.84	29.33	-43.6	-44.6	15.8	0.00e+00	0	23	0	1822425088	53	4039
2026-01-10 05:31:23.81	345.52	29.37	-43.6	-44.7	15.8	0.00e+00	0	23	0	1828716544	53	4058
2026-01-10 05:31:24.82	345.19	29.40	-43.8	-44.8	15.8	0.00e+00	0	23	0	1833959424	53	4143
2026-01-10 05:31:25.82	344.86	29.44	-43.9	-44.9	15.8	0.00e+00	0	23	0	1840250880	53	4185
2026-01-10 05:31:26.81	344.53	29.47	-43.8	-44.9	15.8	0.00e+00	0	23	0	1845493760	53	4151
2026-01-10 05:31:27.81	344.20	29.50	-43.7	-44.7	15.8	0.00e+00	0	23	0	1850736640	53	4065
2026-01-10 05:31:28.81	343.86	29.54	-43.6	-44.6	15.8	0.00e+00	0	23	0	1857028096	53	4037
2026-01-10 05:31:29.81	343.53	29.57	-43.8	-44.8	15.8	0.00e+00	0	23	0	1862270976	53	4141
2026-01-10 05:31:30.81	343.20	29.60	-44.0	-45.1	15.8	0.00e+00	0	23	0	1867513856	53	4258
2026-01-10 05:31:31.81	342.86	29.62	-44.1	-45.1	15.7	0.00e+00	0	23	0	1873805312	53	4284
2026-01-10 05:31:32.81	342.53	29.65	-44.1	-45.1	15.7	0.00e+00	0	23	0	1879048192	53	4275
2026-01-10 05:31:33.81	342.19	29.68	-43.9	-44.9	15.8	0.00e+00	0	23	0	1884291072	53	4190
2026-01-10 05:31:34.81	341.86	29.70	-43.7	-44.7	15.8	0.00e+00	0	23	0	1890582528	53	4094
2026-01-10 05:31:35.81	341.52	29.73	-43.7	-44.7	15.8	0.00e+00	0	23	0	1895825408	53	4090
2026-01-10 05:31:36.81	341.18	29.75	-43.7	-44.7	15.8	0.00e+00	0	23	0	1902116864	53	4090
2026-01-10 05:31:37.81	340.85	29.77	-43.9	-44.9	15.8	0.00e+00	0	23	0	1907359744	53	4182
2026-01-10 05:31:38.81	340.51	29.79	-44.0	-45.0	15.8	0.00e+00	0	23	0	1912602624	53	4222
2026-01-10 05:31:39.80	340.17	29.81	-43.9	-45.0	15.8	0.00e+00	0	23	0	1918894080	53	4207
2026-01-10 05:31:40.80	339.84	29.83	-43.9	-45.0	15.8	0.00e+00	0	23	0	1924136960	53	4211
2026-01-10 05:31:41.80	339.50	29.85	-43.9	-44.9	15.8	0.00e+00	0	23	0	1929379840	53	4166
2026-01-10 05:31:42.80	339.16	29.86	-43.8	-44.8	15.8	0.00e+00	0	23	0	1935671296	53	4115
2026-01-10 05:31:43.80	338.82	29.88	-43.6	-44.7	15.8	0.00e+00	0	23	0	1940914176	53	4053
2026-01-10 05:31:44.80	338.48	29.89	-43.6	-44.7	15.8	0.00e+00	0	23	0	1946157056	53	4057
2026-01-10 05:31:45.80	338.14	29.91	-43.7	-44.7	15.8	0.00e+00	0	23	0	1952448512	53	4069
2026-01-10 05:31:46.80	337.80	29.92	-43.8	-44.9	15.8	0.00e+00	0	23	0	1957691392	53	4159
2026-01-10 05:31:47.81	337.45	29.93	-43.9	-44.9	15.8	0.00e+00	0	23	0	1963982848	53	4181
2026-01-10 05:31:48.81	337.11	29.94	-43.8	-44.9	15.8	0.00e+00	0	23	0	1969225728	53	4167
2026-01-10 05:31:49.81	336.77	29.95	-43.9	-44.9	15.8	0.00e+00	0	23	0	1974468608	53	4189
2026-01-10 05:31:50.81	336.43	29.95	-43.8	-44.8	15.8	0.00e+00	0	23	0	1980760064	53	4134
2026-01-10 05:31:51.81	336.09	29.96	-43.7	-44.7	15.8	0.00e+00	0	23	0	1986002944	53	4076
2026-01-10 05:31:52.81	335.75	29.96	-43.8	-44.8	15.8	0.00e+00	0	23	0	1991245824	53	4131
2026-01-10 05:31:53.80	335.41	29.97	-44.0	-45.0	15.8	0.00e+00	0	23	0	1997537280	53	4228
2026-01-10 05:31:54.80	335.07	29.97	-44.0	-45.0	15.7	0.00e+00	0	23	0	2002780160	53	4223
2026-01-10 05:31:55.80	334.72	29.97	-43.9	-45.0	15.8	0.00e+00	0	23	0	2008023040	53	4195
2026-01-10 05:31:56.80	334.38	29.97	-43.7	-44.7	15.8	0.00e+00	0	23	0	2014314496	53	4079
2026-01-10 05:31:57.80	334.04	29.97	-43.7	-44.7	15.8	0.00e+00	0	23	0	2019557376	53	4085
2026-01-10 05:31:58.80	333.70	29.97	-43.7	-44.7	15.8	0.00e+00	0	23	0	2025848832	53	4088
2026-01-10 05:31:59.79	333.36	29.97	-43.7	-44.7	15.8	0.00e+00	0	23	0	2031091712	53	4072
2026-01-10 05:32:00.79	333.02	29.96	-43.7	-44.7	15.8	0.00e+00	0	23	0	2036334592	53	4079
2026-01-10 05:32:01.79	332.68	29.96	-43.7	-44.8	15.8	0.00e+00	0	23	0	2042626048	53	4110
2026-01-10 05:32:02.79	332.34	29.95	-43.8	-44.9	15.8	0.00e+00	0	23	0	2047868928	53	4149
2026-01-10 05:32:03.79	331.99	29.94	-43.9	-44.9	15.8	0.00e+00	0	23	0	2053111808	53	4190
2026-01-10 05:32:04.79	331.65	29.93	-43.8	-44.9	15.8	0.00e+00	0	23	0	2059403264	53	4147
2026-01-10 05:32:05.80	331.31	29.92	-43.8	-44.8	15.8	0.00e+00	0	23	0	2064646144	53	4117
2026-01-10 05:32:06.80	330.97	29.91	-43.7	-44.7	15.8	0.00e+00	0	23	0	2069889024	53	4084
2026-01-10 05:32:07.80	330.63	29.90	-43.7	-44.8	15.8	0.00e+00	0	23	0	2076180480	53	4101
2026-01-10 05:32:08.80	330.29	29.89	-43.7	-44.7	15.8	0.00e+00	0	23	0	2081423360	53	4080
2026-01-10 05:32:09.80	329.95	29.87	-43.8	-44.8	15.8	0.00e+00	0	23	0	2087714816	53	4110
2026-01-10 05:32:10.81	329.60	29.86	-43.9	-45.0	15.8	0.00e+00	0	23	0	2092957696	53	4214
2026-01-10 05:32:11.82	329.26	29.84	-43.9	-44.9	15.8	0.00e+00	0	23	0	2098200576	53	4188
2026-01-10 05:32:12.82	328.92	29.82	-43.8	-44.9	15.8	0.00e+00	0	23	0	2104492032	53	4151
2026-01-10 05:32:13.81	328.59	29.80	-43.8	-44.8	15.8	0.00e+00	0	23	0	2109734912	53	4145
2026-01-10 05:32:14.81	328.25	29.78	-43.7	-44.7	15.8	0.00e+00	0	23	0	2114977792	53	4090
2026-01-10 05:32:15.81	327.91	29.76	-43.7	-44.7	15.8	0.00e+00	0	23	0	2121269248	53	4091
2026-01-10 05:32:16.82	327.57	29.74	-43.8	-44.8	15.8	0.00e+00	0	23	0	2126512128	53	4122
2026-01-10 05:32:17.82	327.23	29.72	-43.8	-44.9	15.8	0.00e+00	0	23	0	2131755008	53	4161
2026-01-10 05:32:18.82	326.90	29.69	-43.9	-44.9	15.8	0.00e+00	0	23	0	2138046464	53	4184
2026-01-10 05:32:19.81	326.56	29.67	-43.8	-44.8	15.8	0.00e+00	0	23	0	2143289344	53	4141
2026-01-10 05:32:20.80	326.23	29.64	-43.7	-44.7	15.8	0.00e+00	0	23	0	2149580800	53	4070
2026-01-10 05:32:21.80	325.90	29.61	-43.7	-44.7	15.8	0.00e+00	0	23	0	2154823680	53	4096
2026-01-10 05:32:22.80	325.56	29.58	-43.7	-44.7	15.8	0.00e+00	0	23	0	2160066560	53	4070
2026-01-10 05:32:23.80	325.23	29.55	-43.6	-44.6	15.8	0.00e+00	0	23	0	2166358016	53	4023
2026-01-10 05:32:24.80	324.90	29.52	-43.6	-44.6	15.8	0.00e+00	0	23	0	2171600896	53	4016
2026-01-10 05:32:25.80	324.57	29.49	-43.6	-44.6	15.8	0.00e+00	0	23	0	2176843776	53	4046
2026-01-10 05:32:26.80	324.23	29.46	-43.7	-44.8	15.8	0.00e+00	0	23	0	2183135232	53	4112
2026-01-10 05:32:27.79	323.91	29.42	-43.7	-44.8	15.8	0.00e+00	0	23	0	2188378112	53	4109
2026-01-10 05:32:28.79	323.58	29.39	-43.8	-44.9	15.8	0.00e+00	0	23	0	2193620992	53	4146
2026-01-10 05:32:29.78	323.25	29.35	-43.8	-44.8	15.8	0.00e+00	0	23	0	2199912448	53	4139
2026-01-10 05:32:30.78	322.92	29.32	-43.9	-44.9	15.7	0.00e+00	0	23	0	2205155328	53	4174
2026-01-10 05:32:31.78	322.59	29.28	-44.0	-45.1	15.7	0.00e+00	0	23	0	2210398208	53	4251
2026-01-10 05:32:32.78	322.27	29.24	-43.9	-45.0	15.7	0.00e+00	0	23	0	2216689664	53	4204
2026-01-10 05:32:33.77	321.94	29.20	-43.8	-44.9	15.8	0.00e+00	0	24	0	2221932544	53	4151
2026-01-10 05:32:34.77	321.62	29.16	-43.8	-44.8	15.8	0.00e+00	0	23	0	2227175424	53	4126
2026-01-10 05:32:35.77	321.29	29.12	-43.9	-44.9	15.7	0.00e+00	0	23	0	2233466880	53	4191
2026-01-10 05:32:36.77	320.97	29.07	-44.0	-45.0	15.7	0.00e+00	0	23	0	2238709760	53	4228
2026-01-10 05:32:37.78	320.64	29.03	-44.1	-45.2	15.7	0.00e+00	0	23	0	2245001216	53	4302
2026-01-10 05:32:38.78	320.32	28.98	-44.2	-45.2	15.7	0.00e+00	0	23	0	2250244096	53	4315
2026-01-10 05:32:39.79	320.00	28.94	-44.1	-45.1	15.7	0.00e+00	0	23	0	2256535552	53	4263
2026-01-10 05:32:40.79	319.68	28.89	-44.1	-45.2	15.7	0.00e+00	0	23	0	2261778432	53	4296
2026-01-10 05:32:41.78	319.36	28.84	-44.0	-45.0	15.7	0.00e+00	0	24	0	2267021312	53	4228
2026-01-10 05:32:42.79	319.04	28.80	-44.1	-45.2	15.7	0.00e+00	0	23	0	2273312768	53	4300
2026-01-10 05:32:43.78	318.73	28.75	-44.2	-45.2	15.7	0.00e+00	0	24	0	2278555648	53	4337
2026-01-10 05:32:44.78	318.41	28.70	-44.3	-45.3	15.7	0.00e+00	0	23	0	2283798528	53	4376
2026-01-10 05:32:45.78	318.09	28.64	-44.4	-45.4	15.7	0.00e+00	0	24	0	2289041408	53	4432
2026-01-10 05:32:46.79	317.78	28.59	-44.3	-45.4	15.7	0.00e+00	0	23	0	2295332864	53	4402
2026-01-10 05:32:47.79	317.46	28.54	-44.2	-45.3	15.7	0.00e+00	0	23	0	2300575744	53	4367
2026-01-10 05:32:48.80	317.15	28.48	-44.3	-45.4	15.7	0.00e+00	0	23	0	2306867200	53	4393
2026-01-10 05:32:49.80	316.84	28.43	-44.2	-45.3	15.7	0.00e+00	0	23	0	2312110080	53	4346
2026-01-10 05:32:50.81	316.52	28.37	-44.0	-45.1	15.7	0.00e+00	0	23	0	2318401536	53	4253
2026-01-10 05:32:51.80	316.22	28.32	-44.1	-45.2	15.7	0.00e+00	0	23	0	2323644416	53	4293
2026-01-10 05:32:52.80	315.91	28.26	-44.0	-45.1	15.7	0.00e+00	0	24	0	2328887296	53	4249
2026-01-10 05:32:53.79	315.61	28.20	-43.9	-44.9	15.7	0.00e+00	0	23	0	2335178752	53	4193
2026-01-10 05:32:54.80	315.30	28.14	-44.0	-45.0	15.7	0.00e+00	0	24	0	2340421632	53	4221
2026-01-10 05:32:55.80	314.99	28.09	-44.1	-45.2	15.7	0.00e+00	0	23	0	2345664512	53	4307
2026-01-10 05:32:56.80	314.69	28.02	-44.2	-45.3	15.7	0.00e+00	0	23	0	2351955968	53	4349
2026-01-10 05:32:57.80	314.39	27.96	-44.2	-45.3	15.7	0.00e+00	0	24	0	2357198848	53	4356
2026-01-10 05:32:58.80	314.09	27.90	-44.3	-45.4	15.6	0.00e+00	0	23	0	2362441728	53	4395
2026-01-10 05:32:59.80	313.79	27.84	-44.1	-45.1	15.7	0.00e+00	0	23	0	2368733184	53	4291
2026-01-10 05:33:00.80	313.49	27.78	-44.1	-45.1	15.7	0.00e+00	0	23	0	2373976064	53	4287
2026-01-10 05:33:01.80	313.19	27.71	-44.1	-45.2	15.7	0.00e+00	0	23	0	2380267520	53	4299
2026-01-10 05:33:02.80	312.89	27.65	-44.2	-45.2	15.7	0.00e+00	0	24	0	2385510400	53	4340
2026-01-10 05:33:03.80	312.60	27.58	-44.2	-45.3	15.7	0.00e+00	0	23	0	2390753280	53	4353
2026-01-10 05:33:04.80	312.30	27.52	-44.3	-45.3	15.7	0.00e+00	0	24	0	2397044736	53	4379
2026-01-10 05:33:05.80	312.01	27.45	-44.2	-45.2	15.7	0.00e+00	0	23	0	2402287616	53	4334
2026-01-10 05:33:06.80	311.72	27.38	-44.0	-45.0	15.7	0.00e+00	0	23	0	2407530496	53	4233
2026-01-10 05:33:07.80	311.43	27.31	-44.0	-45.1	15.7	0.00e+00	0	23	0	2413821952	53	4245
2026-01-10 05:33:08.80	311.14	27.25	-44.0	-45.0	15.7	0.00e+00	0	23	0	2419064832	53	4219
2026-01-10 05:33:09.80	310.85	27.18	-44.0	-45.1	15.7	0.00e+00	0	23	0	2424307712	53	4247
2026-01-10 05:33:10.80	310.57	27.11	-44.1	-45.2	15.7	0.00e+00	0	23	0	2430599168	53	4316
2026-01-10 05:33:11.80	310.28	27.04	-44.3	-45.3	15.7	0.00e+00	0	23	0	2435842048	53	4371
2026-01-10 05:33:12.80	310.00	26.96	-44.3	-45.4	15.7	0.00e+00	0	23	0	2442133504	53	4404
2026-01-10 05:33:13.80	309.72	26.89	-44.3	-45.4	15.7	0.00e+00	0	23	0	2447376384	53	4398
2026-01-10 05:33:14.80	309.43	26.82	-44.3	-45.3	15.7	0.00e+00	0	23	0	2452619264	53	4387
2026-01-10 05:33:15.79	309.16	26.75	-44.2	-45.3	15.7	0.00e+00	0	23	0	2458910720	53	4368
2026-01-10 05:33:16.80	308.88	26.67	-44.3	-45.3	15.7	0.00e+00	0	23	0	2464153600	53	4370
2026-01-10 05:33:17.80	308.60	26.60	-44.3	-45.4	15.7	0.00e+00	0	24	0	2469396480	53	4405
2026-01-10 05:33:18.80	308.32	26.53	-44.2	-45.2	15.7	0.00e+00	0	23	0	2475687936	53	4340
2026-01-10 05:33:19.80	308.05	26.45	-44.3	-45.3	15.7	0.00e+00	0	24	0	2480930816	53	4372
2026-01-10 05:33:20.80	307.77	26.38	-44.4	-45.5	15.7	0.00e+00	0	23	0	2486173696	53	4451
2026-01-10 05:33:21.79	307.50	26.30	-44.5	-45.6	15.7	0.00e+00	0	24	0	2492465152	54	4254
2026-01-10 05:33:22.79	307.23	26.22	-44.6	-45.7	15.7	0.00e+00	0	23	0	2497708032	54	4297
2026-01-10 05:33:23.79	306.96	26.15	-44.7	-45.7	15.6	0.00e+00	0	23	0	2503999488	54	4339
2026-01-10 05:33:24.78	306.70	26.07	-44.6	-45.7	15.6	0.00e+00	0	23	0	2509242368	54	4304
2026-01-10 05:33:25.78	306.43	25.99	-44.7	-45.8	15.6	0.00e+00	0	23	0	2514485248	54	4346
2026-01-10 05:33:26.77	306.17	25.91	-44.7	-45.8	15.6	0.00e+00	0	23	0	2519728128	54	4352
2026-01-10 05:33:27.77	305.90	25.84	-44.8	-45.9	15.6	0.00e+00	0	23	0	2526019584	54	4400
2026-01-10 05:33:28.77	305.64	25.76	-44.9	-46.0	15.6	0.00e+00	0	24	0	2531262464	54	4450
2026-01-10 05:33:29.77	305.38	25.68	-45.0	-46.0	15.6	0.00e+00	0	23	0	2536505344	55	4241
2026-01-10 05:33:30.77	305.12	25.60	-44.8	-45.9	15.7	0.00e+00	0	23	0	2542796800	55	4162
2026-01-10 05:33:31.77	304.86	25.52	-44.7	-45.8	15.7	0.00e+00	0	23	0	2548039680	55	4112
2026-01-10 05:33:32.76	304.60	25.44	-44.6	-45.7	15.7	0.00e+00	0	24	0	2554331136	55	4076
2026-01-10 05:33:33.77	304.35	25.35	-44.6	-45.7	15.7	0.00e+00	0	24	0	2559574016	55	4069
2026-01-10 05:33:34.77	304.09	25.27	-44.5	-45.5	15.8	0.00e+00	0	23	0	2564816896	55	3996
2026-01-10 05:33:35.77	303.84	25.19	-44.5	-45.5	15.8	0.00e+00	0	23	0	2571108352	55	3980
2026-01-10 05:33:36.77	303.58	25.11	-44.4	-45.4	15.8	0.00e+00	0	24	0	2576351232	55	3951
2026-01-10 05:33:37.77	303.33	25.02	-44.5	-45.6	15.8	0.00e+00	0	23	0	2581594112	55	4010
2026-01-10 05:33:38.78	303.08	24.94	-44.7	-45.8	15.7	0.00e+00	0	23	0	2587885568	55	4113
2026-01-10 05:33:39.77	302.84	24.86	-44.7	-45.8	15.7	0.00e+00	0	23	0	2593128448	55	4140
2026-01-10 05:33:40.78	302.59	24.77	-44.7	-45.8	15.7	0.00e+00	0	24	0	2598371328	55	4108
2026-01-10 05:33:41.78	302.34	24.69	-44.7	-45.8	15.7	0.00e+00	0	23	0	2604662784	55	4117
2026-01-10 05:33:42.78	302.10	24.60	-44.7	-45.7	15.7	0.00e+00	0	24	0	2609905664	55	4098
2026-01-10 05:33:43.78	301.85	24.52	-44.6	-45.7	15.7	0.00e+00	0	23	0	2616197120	55	4070
2026-01-10 05:33:44.78	301.61	24.43	-44.5	-45.6	15.7	0.00e+00	0	23	0	2621440000	55	4022
2026-01-10 05:33:45.78	301.37	24.35	-44.5	-45.6	15.7	0.00e+00	0	23	0	2627731456	55	4016
2026-01-10 05:33:46.78	301.13	24.26	-44.5	-45.6	15.8	0.00e+00	0	24	0	2632974336	55	4009
2026-01-10 05:33:47.78	300.89	24.18	-44.6	-45.7	15.7	0.00e+00	0	24	0	2638217216	55	4069
2026-01-10 05:33:48.79	300.65	24.09	-44.7	-45.8	15.7	0.00e+00	0	24	0	2644508672	55	4113
2026-01-10 05:33:49.79	300.42	24.01	-44.7	-45.8	15.7	0.00e+00	0	24	0	2649751552	55	4125
2026-01-10 05:33:50.79	300.18	23.92	-44.8	-45.9	15.7	0.00e+00	0	24	0	2654994432	55	4156
2026-01-10 05:33:51.78	299.95	23.83	-44.7	-45.8	15.7	0.00e+00	0	24	0	2660237312	55	4122
2026-01-10 05:33:52.78	299.72	23.75	-44.8	-45.8	15.7	0.00e+00	0	23	0	2666528768	55	4141
2026-01-10 05:33:53.79	299.49	23.66	-44.7	-45.8	15.7	0.00e+00	0	23	0	2671771648	55	4108
2026-01-10 05:33:54.79	299.26	23.57	-44.8	-45.9	15.7	0.00e+00	0	24	0	2678063104	55	4152
2026-01-10 05:33:55.79	299.03	23.48	-44.9	-45.9	15.7	0.00e+00	0	24	0	2683305984	55	4185
2026-01-10 05:33:56.79	298.81	23.39	-45.1	-46.2	15.6	0.00e+00	0	23	0	2689597440	55	4304
2026-01-10 05:33:57.79	298.58	23.31	-45.0	-46.1	15.6	0.00e+00	0	23	0	2694840320	55	4247
2026-01-10 05:33:58.79	298.36	23.22	-45.1	-46.2	15.6	0.00e+00	0	23	0	2700083200	55	4307
2026-01-10 05:33:59.79	298.14	23.13	-45.2	-46.3	15.6	0.00e+00	0	23	0	2706374656	55	4375
2026-01-10 05:34:00.79	297.92	23.04	-45.2	-46.2	15.6	0.00e+00	0	24	0	2711617536	55	4334
2026-01-10 05:34:01.79	297.70	22.95	-45.3	-46.4	15.6	0.00e+00	0	24	0	2716860416	55	4413
2026-01-10 05:34:02.79	297.48	22.86	-45.3	-46.4	15.6	0.00e+00	0	24	0	2723151872	55	4408
2026-01-10 05:34:03.79	297.26	22.78	-45.2	-46.3	15.6	0.00e+00	0	24	0	2728394752	55	4369
2026-01-10 05:34:04.79	297.04	22.69	-45.3	-46.4	15.6	0.00e+00	0	23	0	2733637632	55	4394
2026-01-10 05:34:05.79	296.83	22.60	-45.2	-46.3	15.6	0.00e+00	0	23	0	2739929088	55	4354
2026-01-10 05:34:06.79	296.62	22.51	-45.2	-46.2	15.6	0.00e+00	0	23	0	2745171968	55	4336
2026-01-10 05:34:07.79	296.40	22.42	-45.3	-46.4	15.6	0.00e+00	0	23	0	2751463424	55	4401
2026-01-10 05:34:08.80	296.19	22.33	-45.3	-46.4	15.5	0.00e+00	0	23	0	2756706304	55	4427
2026-01-10 05:34:09.80	295.98	22.24	-45.3	-46.4	15.5	0.00e+00	0	23	0	2761949184	55	4437
2026-01-10 05:34:10.81	295.77	22.15	-45.6	-46.7	15.6	0.00e+00	0	23	0	2768240640	56	4312
2026-01-10 05:34:11.80	295.56	22.06	-45.4	-46.5	15.6	0.00e+00	0	23	0	2773483520	56	4232
2026-01-10 05:34:12.80	295.36	21.97	-45.4	-46.5	15.6	0.00e+00	0	24	0	2778726400	56	4194
2026-01-10 05:34:13.81	295.15	21.88	-45.4	-46.4	15.6	0.00e+00	0	24	0	2785017856	56	4182
2026-01-10 05:34:14.81	294.95	21.79	-45.5	-46.6	15.6	0.00e+00	0	23	0	2790260736	56	4253
2026-01-10 05:34:15.81	294.75	21.70	-45.6	-46.7	15.6	0.00e+00	0	24	0	2795503616	56	4308
2026-01-10 05:34:16.82	294.54	21.61	-45.6	-46.7	15.6	0.00e+00	0	23	0	2801795072	56	4294
2026-01-10 05:34:17.82	294.34	21.52	-45.5	-46.6	15.6	0.00e+00	0	23	0	2807037952	56	4281
2026-01-10 05:34:18.82	294.14	21.43	-45.6	-46.7	15.6	0.00e+00	0	24	0	2813329408	56	4292
2026-01-10 05:34:19.82	293.94	21.34	-45.6	-46.7	15.5	0.00e+00	0	24	0	2818572288	56	4334
2026-01-10 05:34:20.82	293.75	21.25	-45.6	-46.7	15.5	0.00e+00	0	24	0	2823815168	56	4321
2026-01-10 05:34:21.82	293.55	21.16	-45.7	-46.8	15.5	0.00e+00	0	23	0	2830106624	56	4373
2026-01-10 05:34:22.82	293.36	21.06	-45.8	-46.9	15.5	0.00e+00	0	24	0	2835349504	56	4414
2026-01-10 05:34:23.81	293.17	20.98	-45.8	-47.0	15.5	0.00e+00	0	23	0	2840592384	56	4445
2026-01-10 05:34:24.81	292.97	20.88	-45.7	-46.8	15.5	0.00e+00	0	23	0	2846883840	56	4367
2026-01-10 05:34:25.81	292.78	20.79	-45.7	-46.8	15.5	0.00e+00	0	24	0	2852126720	56	4361
2026-01-10 05:34:26.81	292.59	20.70	-45.6	-46.6	15.5	0.00e+00	0	23	0	2857369600	56	4288
2026-01-10 05:34:27.81	292.41	20.61	-45.4	-46.5	15.6	0.00e+00	0	23	0	2863661056	56	4222
2026-01-10 05:34:28.81	292.22	20.52	-45.4	-46.5	15.6	0.00e+00	0	23	0	2868903936	56	4232
2026-01-10 05:34:29.81	292.03	20.43	-45.6	-46.7	15.5	0.00e+00	0	23	0	2875195392	56	4310
2026-01-10 05:34:30.81	291.85	20.34	-45.5	-46.6	15.6	0.00e+00	0	24	0	2880438272	56	4249
2026-01-10 05:34:31.81	291.66	20.25	-45.4	-46.5	15.6	0.00e+00	0	24	0	2885681152	56	4235
2026-01-10 05:34:32.80	291.48	20.16	-45.5	-46.6	15.6	0.00e+00	0	23	0	2891972608	56	4283
2026-01-10 05:34:33.80	291.30	20.07	-45.5	-46.6	15.6	0.00e+00	0	23	0	2897215488	56	4272
2026-01-10 05:34:34.80	291.12	19.98	-45.6	-46.7	15.6	0.00e+00	0	23	0	2902458368	56	4296
2026-01-10 05:34:35.81	290.94	19.89	-45.6	-46.7	15.6	0.00e+00	0	24	0	2908749824	56	4292
2026-01-10 05:34:36.81	290.76	19.80	-45.7	-46.8	15.5	0.00e+00	0	24	0	2913992704	56	4352
2026-01-10 05:34:37.81	290.58	19.71	-45.7	-46.8	15.5	0.00e+00	0	23	0	2919235584	56	4348
2026-01-10 05:34:38.81	290.40	19.62	-45.7	-46.8	15.5	0.00e+00	0	23	0	2925527040	56	4360
2026-01-10 05:34:39.80	290.23	19.53	-45.9	-47.0	15.5	0.00e+00	0	24	0	2930769920	56	4455
2026-01-10 05:34:40.80	290.05	19.44	-45.7	-46.8	15.5	0.00e+00	0	24	0	2937061376	56	4379
2026-01-10 05:34:41.80	289.88	19.35	-45.8	-46.9	15.5	0.00e+00	0	23	0	2942304256	56	4397
2026-01-10 05:34:42.81	289.71	19.26	-45.8	-46.9	15.5	0.00e+00	0	24	0	2947547136	56	4429
2026-01-10 05:34:43.81	289.53	19.17	-45.9	-47.0	15.5	0.00e+00	0	23	0	2953838592	56	4448
2026-01-10 05:34:44.81	289.36	19.08	-45.9	-47.1	15.5	0.00e+00	0	24	0	2959081472	57	4246
2026-01-10 05:34:45.81	289.19	18.99	-45.9	-47.1	15.5	0.00e+00	0	24	0	2964324352	57	4252
2026-01-10 05:34:46.80	289.03	18.90	-46.0	-47.1	15.5	0.00e+00	0	23	0	2970615808	57	4269
2026-01-10 05:34:47.81	288.86	18.81	-46.0	-47.2	15.5	0.00e+00	0	24	0	2975858688	57	4299
2026-01-10 05:34:48.82	288.69	18.72	-46.0	-47.1	15.5	0.00e+00	0	23	0	2982150144	57	4271
2026-01-10 05:34:49.82	288.52	18.63	-45.9	-47.1	15.5	0.00e+00	0	23	0	2987393024	57	4254
2026-01-10 05:34:50.83	288.36	18.54	-45.9	-47.0	15.5	0.00e+00	0	24	0	2992635904	57	4203
2026-01-10 05:34:51.82	288.20	18.45	-45.8	-46.9	15.6	0.00e+00	0	23	0	2998927360	57	4173
2026-01-10 05:34:52.82	288.03	18.36	-45.9	-47.0	15.5	0.00e+00	0	23	0	3004170240	57	4230
2026-01-10 05:34:53.81	287.87	18.27	-46.0	-47.1	15.5	0.00e+00	0	23	0	3009413120	57	4276
2026-01-10 05:34:54.81	287.71	18.18	-46.0	-47.1	15.5	0.00e+00	0	23	0	3015704576	57	4285
2026-01-10 05:34:55.82	287.55	18.09	-46.0	-47.2	15.5	0.00e+00	0	24	0	3020947456	57	4301
2026-01-10 05:34:56.82	287.39	18.00	-46.1	-47.2	15.5	0.00e+00	0	23	0	3026190336	57	4328
2026-01-10 05:34:57.81	287.24	17.91	-46.1	-47.3	15.5	0.00e+00	0	23	0	3032481792	57	4354
2026-01-10 05:34:58.82	287.08	17.82	-46.2	-47.4	15.4	0.00e+00	0	23	0	3037724672	57	4401
2026-01-10 05:34:59.82	286.92	17.73	-46.3	-47.4	15.4	0.00e+00	0	24	0	3044016128	57	4441
2026-01-10 05:35:00.83	286.77	17.64	-46.3	-47.5	15.4	0.00e+00	0	23	0	3049259008	57	4448
2026-01-10 05:35:01.83	286.61	17.56	-46.3	-47.5	15.4	0.00e+00	0	24	0	3054501888	57	4446
2026-01-10 05:35:02.83	286.46	17.47	-46.4	-47.5	15.4	0.00e+00	0	23	0	3060793344	57	4491
2026-01-10 05:35:03.84	286.31	17.38	-46.3	-47.5	15.4	0.00e+00	0	24	0	3066036224	57	4466
2026-01-10 05:35:04.83	286.16	17.29	-46.5	-47.6	15.4	0.00e+00	0	24	0	3072327680	58	4280
2026-01-10 05:35:05.83	286.01	17.20	-46.4	-47.6	15.4	0.00e+00	0	23	0	3077570560	58	4267
2026-01-10 05:35:06.84	285.86	17.11	-46.5	-47.7	15.4	0.00e+00	0	23	0	3082813440	58	4297
2026-01-10 05:35:07.84	285.71	17.03	-46.6	-47.7	15.4	0.00e+00	0	24	0	3089104896	58	4328
2026-01-10 05:35:08.84	285.56	16.94	-46.5	-47.7	15.4	0.00e+00	0	24	0	3094347776	58	4315
2026-01-10 05:35:09.84	285.41	16.85	-46.5	-47.7	15.4	0.00e+00	0	23	0	3099590656	58	4308
2026-01-10 05:35:10.84	285.27	16.76	-46.6	-47.8	15.4	0.00e+00	0	23	0	3105882112	58	4351
2026-01-10 05:35:11.84	285.12	16.67	-46.5	-47.6	15.4	0.00e+00	0	23	0	3111124992	58	4284
2026-01-10 05:35:12.83	284.98	16.59	-46.4	-47.6	15.4	0.00e+00	0	23	0	3116367872	58	4265
2026-01-10 05:35:13.84	284.83	16.50	-46.5	-47.6	15.4	0.00e+00	0	24	0	3122659328	58	4287
2026-01-10 05:35:14.84	284.69	16.41	-46.5	-47.7	15.4	0.00e+00	0	24	0	3127902208	58	4325
2026-01-10 05:35:15.84	284.55	16.33	-46.6	-47.8	15.4	0.00e+00	0	23	0	3134193664	58	4348
2026-01-10 05:35:16.84	284.41	16.24	-46.8	-48.0	15.3	0.00e+00	0	23	0	3139436544	58	4443
2026-01-10 05:35:17.85	284.27	16.15	-46.7	-47.9	15.3	0.00e+00	0	23	0	3144679424	58	4431
2026-01-10 05:35:18.84	284.13	16.07	-46.8	-48.0	15.3	0.00e+00	0	23	0	3150970880	58	4485
2026-01-10 05:35:19.85	283.99	15.98	-46.8	-48.0	15.3	0.00e+00	0	23	0	3156213760	58	4490
2026-01-10 05:35:20.85	283.85	15.89	-46.8	-48.0	15.3	0.00e+00	0	23	0	3161456640	58	4482
2026-01-10 05:35:21.85	283.72	15.81	-46.9	-48.1	15.3	0.00e+00	0	23	0	3167748096	58	4494
2026-01-10 05:35:22.86	283.58	15.72	-46.8	-48.0	15.3	0.00e+00	0	24	0	3172990976	58	4481
2026-01-10 05:35:23.86	283.44	15.63	-46.8	-48.0	15.3	0.00e+00	0	24	0	3179282432	58	4482
2026-01-10 05:35:24.86	283.31	15.55	-46.8	-48.0	15.3	0.00e+00	0	24	0	3184525312	58	4464
2026-01-10 05:35:25.85	283.18	15.46	-46.9	-48.1	15.3	0.00e+00	0	24	0	3189768192	58	4503
2026-01-10 05:35:26.84	283.04	15.38	-46.8	-48.0	15.3	0.00e+00	0	24	0	3196059648	58	4462
2026-01-10 05:35:27.85	282.91	15.29	-46.8	-48.0	15.3	0.00e+00	0	23	0	3201302528	58	4461
2026-01-10 05:35:28.85	282.78	15.21	-46.9	-48.0	15.3	0.00e+00	0	23	0	3206545408	58	4488
2026-01-10 05:35:29.85	282.65	15.12	-46.8	-48.0	15.3	0.00e+00	0	23	0	3212836864	58	4483
2026-01-10 05:35:30.85	282.52	15.04	-46.9	-48.0	15.3	0.00e+00	0	23	0	3218079744	58	4487
2026-01-10 05:35:31.85	282.39	14.95	-46.9	-48.2	15.4	0.00e+00	0	23	0	3223322624	59	4299
2026-01-10 05:35:32.84	282.26	14.87	-46.9	-48.1	15.4	0.00e+00	0	24	0	3229614080	59	4277
2026-01-10 05:35:33.85	282.14	14.78	-47.1	-48.3	15.3	0.00e+00	0	23	0	3234856960	59	4356
2026-01-10 05:35:34.85	282.01	14.70	-46.9	-48.0	15.4	0.00e+00	0	23	0	3241148416	59	4242
2026-01-10 05:35:35.85	281.88	14.61	-46.8	-48.0	15.4	0.00e+00	0	23	0	3246391296	59	4213
2026-01-10 05:35:36.85	281.76	14.53	-46.9	-48.1	15.3	0.00e+00	0	23	0	3251634176	59	4255
2026-01-10 05:35:37.85	281.63	14.45	-46.9	-48.1	15.4	0.00e+00	0	24	0	3257925632	59	4245
2026-01-10 05:35:38.86	281.51	14.36	-47.0	-48.2	15.3	0.00e+00	0	23	0	3263168512	59	4306
2026-01-10 05:35:39.86	281.38	14.28	-47.1	-48.3	15.3	0.00e+00	0	23	0	3268411392	59	4349
2026-01-10 05:35:40.86	281.26	14.20	-47.2	-48.4	15.2	0.00e+00	0	23	0	3274702848	59	4402
2026-01-10 05:35:41.86	281.14	14.11	-47.2	-48.4	15.2	0.00e+00	0	24	0	3279945728	59	4416
2026-01-10 05:35:42.86	281.02	14.03	-47.3	-48.5	15.2	0.00e+00	0	23	0	3285188608	59	4457
2026-01-10 05:35:43.87	280.90	13.94	-47.2	-48.5	15.2	0.00e+00	0	23	0	3291480064	59	4445
2026-01-10 05:35:44.87	280.78	13.86	-47.3	-48.6	15.2	0.00e+00	0	23	0	3296722944	59	4511
2026-01-10 05:35:45.87	280.66	13.78	-47.3	-48.5	15.2	0.00e+00	0	23	0	3303014400	59	4486
2026-01-10 05:35:46.86	280.54	13.70	-47.3	-48.5	15.2	0.00e+00	0	24	0	3308257280	59	4472
2026-01-10 05:35:47.86	280.42	13.62	-47.3	-48.6	15.2	0.00e+00	0	23	0	3313500160	59	4506
2026-01-10 05:35:48.86	280.31	13.53	-47.2	-48.4	15.2	0.00e+00	0	24	0	3319791616	59	4440
2026-01-10 05:35:49.86	280.19	13.45	-47.3	-48.5	15.2	0.00e+00	0	24	0	3325034496	59	4467
2026-01-10 05:35:50.86	280.07	13.37	-47.3	-48.5	15.2	0.00e+00	0	24	0	3330277376	59	4489
2026-01-10 05:35:51.85	279.96	13.29	-47.4	-48.6	15.2	0.00e+00	0	23	0	3336568832	59	4533
2026-01-10 05:35:52.85	279.85	13.21	-47.1	-48.3	15.4	0.00e+00	0	24	0	3341811712	60	4131
2026-01-10 05:35:53.85	279.73	13.13	-47.1	-48.2	15.4	0.00e+00	0	23	0	3347054592	60	4096
2026-01-10 05:35:54.85	279.62	13.04	-47.1	-48.3	15.3	0.00e+00	0	23	0	3353346048	60	4131
2026-01-10 05:35:55.85	279.51	12.96	-47.2	-48.4	15.3	0.00e+00	0	24	0	3358588928	60	4182
2026-01-10 05:35:56.85	279.40	12.88	-47.0	-48.2	15.4	0.00e+00	0	24	0	3364880384	60	4087
2026-01-10 05:35:57.85	279.28	12.80	-47.1	-48.3	15.4	0.00e+00	0	23	0	3370123264	60	4113
2026-01-10 05:35:58.85	279.17	12.72	-47.0	-48.2	15.4	0.00e+00	0	24	0	3375366144	60	4066
2026-01-10 05:35:59.84	279.06	12.64	-47.0	-48.2	15.4	0.00e+00	0	24	0	3381657600	60	4084
2026-01-10 05:36:00.84	278.96	12.56	-47.0	-48.2	15.4	0.00e+00	0	24	0	3386900480	60	4057
2026-01-10 05:36:01.84	278.85	12.48	-47.0	-48.2	15.4	0.00e+00	0	23	0	3392143360	60	4055
2026-01-10 05:36:02.84	278.74	12.40	-47.0	-48.2	15.4	0.00e+00	0	23	0	3398434816	60	4067
2026-01-10 05:36:03.85	278.63	12.32	-47.0	-48.2	15.4	0.00e+00	0	24	0	3403677696	60	4084
2026-01-10 05:36:04.84	278.52	12.24	-47.1	-48.3	15.4	0.00e+00	0	24	0	3408920576	60	4102
2026-01-10 05:36:05.85	278.42	12.16	-47.2	-48.4	15.3	0.00e+00	0	24	0	3415212032	60	4155
2026-01-10 05:36:06.85	278.31	12.08	-47.2	-48.4	15.3	0.00e+00	0	23	0	3420454912	60	4172
2026-01-10 05:36:07.85	278.21	12.00	-47.2	-48.4	15.3	0.00e+00	0	23	0	3426746368	60	4190
2026-01-10 05:36:08.85	278.10	11.92	-47.3	-48.5	15.2	0.00e+00	0	23	0	3431989248	60	4236
2026-01-10 05:36:09.86	278.00	11.84	-47.4	-48.6	15.2	0.00e+00	0	23	0	3437232128	60	4274
2026-01-10 05:36:10.85	277.89	11.77	-47.4	-48.6	15.2	0.00e+00	0	23	0	3443523584	60	4288
2026-01-10 05:36:11.85	277.79	11.69	-47.4	-48.6	15.2	0.00e+00	0	23	0	3448766464	60	4274
2026-01-10 05:36:12.85	277.69	11.61	-47.4	-48.6	15.2	0.00e+00	0	23	0	3454009344	60	4273
2026-01-10 05:36:13.86	277.59	11.53	-47.4	-48.7	15.2	0.00e+00	0	24	0	3460300800	60	4301
2026-01-10 05:36:14.85	277.49	11.45	-47.4	-48.6	15.2	0.00e+00	0	23	0	3465543680	60	4274
2026-01-10 05:36:15.86	277.38	11.37	-47.4	-48.6	15.2	0.00e+00	0	23	0	3470786560	60	4274
2026-01-10 05:36:16.85	277.29	11.30	-47.4	-48.6	15.2	0.00e+00	0	23	0	3477078016	60	4267
2026-01-10 05:36:17.85	277.19	11.22	-47.4	-48.7	15.2	0.00e+00	0	24	0	3482320896	60	4301
2026-01-10 05:36:18.85	277.09	11.14	-47.5	-48.7	15.1	0.00e+00	0	23	0	3488612352	60	4315
2026-01-10 05:36:19.85	276.99	11.07	-47.6	-48.8	15.1	0.00e+00	0	24	0	3493855232	60	4364
2026-01-10 05:36:20.85	276.89	10.99	-47.5	-48.8	15.1	0.00e+00	0	24	0	3499098112	60	4357
2026-01-10 05:36:21.85	276.79	10.91	-47.6	-48.9	15.1	0.00e+00	0	24	0	3505389568	60	4395
2026-01-10 05:36:22.84	276.70	10.84	-47.6	-48.9	15.1	0.00e+00	0	24	0	3510632448	60	4404
2026-01-10 05:36:23.84	276.60	10.76	-47.7	-49.0	15.0	0.00e+00	0	23	0	3515875328	60	4448
2026-01-10 05:36:24.84	276.50	10.68	-47.6	-48.8	15.1	0.00e+00	0	23	0	3522166784	60	4386
2026-01-10 05:36:25.84	276.41	10.61	-47.7	-48.9	15.0	0.00e+00	0	23	0	3527409664	60	4434
2026-01-10 05:36:26.83	276.32	10.53	-47.7	-49.0	15.0	0.00e+00	0	23	0	3532652544	60	4472
2026-01-10 05:36:27.82	276.22	10.46	-47.8	-49.1	15.0	0.00e+00	0	24	0	3538944000	60	4540
2026-01-10 05:36:28.82	276.13	10.38	-47.7	-49.0	15.0	0.00e+00	0	23	0	3544186880	60	4442
2026-01-10 05:36:29.81	276.04	10.30	-47.7	-49.0	15.0	0.00e+00	0	23	0	3549429760	60	4456
2026-01-10 05:36:30.82	275.94	10.23	-47.6	-48.9	15.0	0.00e+00	0	24	0	3555721216	60	4421
2026-01-10 05:36:31.82	275.85	10.15	-47.7	-49.0	15.0	0.00e+00	0	23	0	3560964096	60	4450
2026-01-10 05:36:32.81	275.76	10.08	-47.6	-48.8	15.1	0.00e+00	0	24	0	3566206976	60	4387
2026-01-10 05:36:33.80	275.67	10.00	-47.7	-49.0	15.0	0.00e+00	0	23	0	3572498432	60	4442
2026-01-10 05:36:34.80	275.58	9.93	-47.6	-48.9	15.0	0.00e+00	0	24	0	3577741312	60	4417
2026-01-10 05:36:35.80	275.49	9.85	-47.7	-49.0	15.0	0.00e+00	0	24	0	3582984192	60	4443
2026-01-10 05:36:36.80	275.40	9.78	-47.7	-49.0	15.0	0.00e+00	0	24	0	3589275648	60	4461
2026-01-10 05:36:37.80	275.31	9.71	-47.8	-49.0	15.0	0.00e+00	0	24	0	3594518528	60	4485
2026-01-10 05:36:38.80	275.22	9.63	-47.7	-49.0	15.0	0.00e+00	0	23	0	3600809984	60	4447
2026-01-10 05:36:39.79	275.13	9.56	-47.8	-49.1	14.9	0.00e+00	0	23	0	3606052864	60	4524
2026-01-10 05:36:40.79	275.04	9.48	-47.8	-49.1	14.9	0.00e+00	0	24	0	3611295744	60	4528
2026-01-10 05:36:41.79	274.96	9.41	-47.8	-49.2	15.1	0.00e+00	0	24	0	3617587200	61	4293
2026-01-10 05:36:42.79	274.87	9.34	-47.7	-49.0	15.1	0.00e+00	0	23	0	3622830080	61	4226
2026-01-10 05:36:43.79	274.78	9.26	-47.9	-49.2	15.1	0.00e+00	0	23	0	3628072960	61	4307
2026-01-10 05:36:44.79	274.70	9.19	-47.9	-49.2	15.0	0.00e+00	0	24	0	3634364416	61	4308
