passes_logs/2026/01/10/R3.2S_Murmansk/R3.2S_Murmansk__20260110_085653_TY-42_rec.log

#Pass ID: 20260110_085653_TY-42
#Satellite: TY-42
#Configuration: TY-42_900M
#almurnet v.1.7.20251203
#Start time: 2026-01-10 08:56:54

#Version: 2.2.20231116
#Station: R3.2S_Murmansk
#Location: 33.079688 lon 68.888172 lat
#TLE: 1 64048U 25103A   26010.18631944  .00008007  00000-0  38191-3 0 09998
#TLE: 2 64048 097.4116 085.6940 0001701 092.7018 058.3398 15.19155981 36088

#Time	Az	El	Level	Level2	SNR	BER	BlckErr	Temp	State	Recorded	gain1	gain2
2026-01-10 08:56:54.84	20.88	2.12	-56.7	-59.9	6.1	0.00e+00	0	28	0	0	80	20497
2026-01-10 08:56:55.85	20.91	2.19	-56.7	-59.9	6.2	0.00e+00	0	28	104	0	80	20551
2026-01-10 08:56:56.86	20.94	2.26	-56.7	-59.9	6.2	0.00e+00	0	28	104	0	80	20593
2026-01-10 08:56:57.86	20.96	2.33	-56.7	-59.9	6.2	0.00e+00	0	28	104	0	80	20630
2026-01-10 08:56:58.87	20.99	2.40	-56.7	-60.0	6.2	0.00e+00	0	28	104	0	80	20644
2026-01-10 08:56:59.87	21.02	2.47	-56.7	-59.9	6.2	0.00e+00	0	28	104	0	80	20597
2026-01-10 08:57:00.88	21.04	2.55	-56.7	-59.9	6.2	0.00e+00	0	28	104	0	80	20609
2026-01-10 08:57:01.89	21.07	2.62	-56.7	-59.9	6.2	0.00e+00	0	29	104	0	80	20563
2026-01-10 08:57:02.90	21.10	2.69	-56.7	-59.9	6.2	0.00e+00	0	29	104	0	80	20555
2026-01-10 08:57:03.91	21.13	2.76	-56.7	-59.9	6.2	0.00e+00	0	29	104	0	80	20587
2026-01-10 08:57:04.92	21.15	2.83	-56.7	-59.9	6.2	0.00e+00	0	29	104	0	80	20621
2026-01-10 08:57:05.93	21.18	2.90	-56.7	-60.0	6.2	0.00e+00	0	29	104	0	80	20657
2026-01-10 08:57:06.94	21.21	2.98	-56.7	-60.0	6.2	0.00e+00	0	29	104	0	80	20660
2026-01-10 08:57:07.94	21.24	3.05	-56.7	-60.0	6.2	0.00e+00	0	29	104	0	80	20647
2026-01-10 08:57:08.95	21.26	3.12	-56.7	-59.9	6.2	0.00e+00	0	29	104	0	80	20590
2026-01-10 08:57:09.96	21.29	3.20	-56.7	-59.9	6.2	0.00e+00	0	29	104	0	80	20620
2026-01-10 08:57:10.97	21.32	3.27	-56.8	-60.0	6.2	0.00e+00	0	29	104	0	80	20672
2026-01-10 08:57:11.97	21.35	3.34	-56.8	-60.0	6.2	0.00e+00	0	29	104	0	80	20720
2026-01-10 08:57:12.98	21.38	3.42	-56.8	-59.9	6.2	0.00e+00	0	29	104	0	80	20621
2026-01-10 08:57:13.99	21.41	3.49	-56.8	-60.0	6.2	0.00e+00	0	29	104	0	80	20755
2026-01-10 08:57:15.00	21.44	3.56	-56.8	-59.9	6.2	0.00e+00	0	29	104	0	80	20616
2026-01-10 08:57:16.00	21.46	3.64	-56.8	-60.0	6.2	0.00e+00	0	29	104	0	80	20674
2026-01-10 08:57:17.01	21.49	3.71	-56.8	-60.0	6.2	0.00e+00	0	29	104	0	80	20753
2026-01-10 08:57:18.02	21.52	3.79	-56.8	-60.0	6.2	0.00e+00	0	29	104	0	80	20716
2026-01-10 08:57:19.02	21.55	3.86	-56.8	-60.0	6.2	0.00e+00	0	29	104	0	80	20730
2026-01-10 08:57:20.03	21.58	3.94	-56.8	-60.0	6.2	0.00e+00	0	29	104	0	80	20711
2026-01-10 08:57:21.04	21.61	4.02	-56.8	-60.0	6.2	0.00e+00	0	29	104	0	80	20739
2026-01-10 08:57:22.05	21.64	4.09	-56.8	-60.0	6.2	0.00e+00	0	29	104	0	80	20801
2026-01-10 08:57:23.05	21.67	4.17	-56.8	-60.0	6.2	0.00e+00	0	30	104	0	80	20709
2026-01-10 08:57:24.06	21.70	4.25	-56.8	-60.0	6.2	0.00e+00	0	29	104	0	80	20771
2026-01-10 08:57:25.07	21.73	4.32	-56.8	-60.0	6.2	0.00e+00	0	29	104	0	80	20737
2026-01-10 08:57:26.08	21.76	4.40	-56.8	-60.0	6.2	0.00e+00	0	30	104	0	80	20712
2026-01-10 08:57:27.09	21.80	4.48	-56.8	-60.0	6.2	0.00e+00	0	30	104	0	80	20765
2026-01-10 08:57:28.09	21.83	4.55	-56.8	-60.0	6.2	0.00e+00	0	30	104	0	80	20719
2026-01-10 08:57:29.10	21.86	4.63	-56.8	-60.0	6.2	0.00e+00	0	30	104	0	80	20805
2026-01-10 08:57:30.11	21.89	4.71	-56.8	-60.0	6.2	0.00e+00	0	30	104	0	80	20773
2026-01-10 08:57:31.11	21.92	4.79	-56.8	-60.0	6.2	0.00e+00	0	30	104	0	80	20788
2026-01-10 08:57:32.12	21.95	4.87	-56.8	-60.0	6.2	0.00e+00	0	30	104	0	80	20783
2026-01-10 08:57:33.13	21.98	4.95	-50.8	-51.7	8.2	0.00e+00	0	30	104	0	67	16822
2026-01-10 08:57:34.13	22.02	5.03	-51.1	-52.0	8.0	0.00e+00	0	30	104	0	67	17519
2026-01-10 08:57:35.14	22.05	5.11	-46.2	-46.7	10.5	0.00e+00	3006	31	0	25165824	59	15059
2026-01-10 08:57:36.14	22.08	5.19	-47.0	-47.6	10.0	0.00e+00	5365	32	0	134217728	59	16663
2026-01-10 08:57:37.13	22.11	5.27	-56.3	-59.2	6.2	0.00e+00	0	31	104	176160768	78	21133
2026-01-10 08:57:38.14	22.15	5.35	-46.9	-47.4	9.8	0.00e+00	5513	31	104	176160768	61	14484
2026-01-10 08:57:39.14	22.18	5.43	-53.1	-54.3	7.3	8.81e-02	0	31	104	218103808	72	17160
2026-01-10 08:57:40.14	22.21	5.51	-46.1	-46.6	10.1	0.00e+00	5411	31	104	218103808	59	14846
2026-01-10 08:57:41.15	22.25	5.59	-45.8	-46.3	10.7	0.00e+00	258	32	0	327155712	58	15125
2026-01-10 08:57:42.15	22.28	5.67	-44.9	-45.3	11.1	0.00e+00	0	31	0	436207616	57	14276
2026-01-10 08:57:43.16	22.31	5.76	-44.0	-44.3	11.4	1.63e-01	0	31	0	553648128	55	14420
2026-01-10 08:57:44.17	22.35	5.84	-43.2	-43.6	11.5	1.63e-01	0	32	0	662700032	53	14836
2026-01-10 08:57:45.17	22.38	5.92	-43.3	-43.7	11.5	5.64e-02	0	32	0	771751936	53	14974
2026-01-10 08:57:46.17	22.42	6.01	-43.0	-43.4	11.6	5.64e-02	0	32	0	889192448	53	14518
2026-01-10 08:57:47.18	22.45	6.09	-43.0	-43.3	11.7	5.64e-02	0	32	0	998244352	53	14358
2026-01-10 08:57:48.19	22.49	6.18	-42.7	-43.0	11.7	4.57e-02	0	32	0	1115684864	52	14766
2026-01-10 08:57:49.19	22.52	6.26	-42.7	-43.1	11.7	4.57e-02	0	32	0	1233125376	52	14820
2026-01-10 08:57:50.19	22.56	6.34	-42.8	-43.1	11.6	3.98e-02	0	32	0	1342177280	52	14932
2026-01-10 08:57:51.20	22.59	6.43	-42.5	-42.9	11.8	3.98e-02	0	32	0	1459617792	52	14463
2026-01-10 08:57:52.20	22.63	6.51	-42.4	-42.8	11.8	3.98e-02	0	32	0	1568669696	51	15154
2026-01-10 08:57:53.20	22.66	6.60	-42.4	-42.7	11.8	3.98e-02	0	32	0	1677721600	51	15027
2026-01-10 08:57:54.20	22.70	6.69	-42.2	-42.5	11.9	3.22e-02	0	32	0	1795162112	51	14740
2026-01-10 08:57:55.21	22.74	6.77	-42.2	-42.6	11.9	3.22e-02	0	32	0	1904214016	51	14837
2026-01-10 08:57:56.21	22.77	6.86	-42.3	-42.6	11.9	3.22e-02	0	32	0	2021654528	51	14854
2026-01-10 08:57:57.21	22.81	6.95	-42.1	-42.5	12.0	3.22e-02	0	32	0	2130706432	51	14611
2026-01-10 08:57:58.21	22.85	7.03	-42.2	-42.5	11.9	2.44e-02	0	32	0	2239758336	51	14740
2026-01-10 08:57:59.22	22.89	7.12	-42.0	-42.4	12.0	2.44e-02	0	33	0	2357198848	51	14481
2026-01-10 08:58:00.22	22.92	7.21	-42.1	-42.4	12.0	2.41e-02	0	32	0	2466250752	51	14598
2026-01-10 08:58:01.23	22.96	7.30	-42.0	-42.3	12.1	2.41e-02	0	32	0	2583691264	51	14393
2026-01-10 08:58:02.22	23.00	7.39	-42.1	-42.4	12.0	2.41e-02	0	32	0	2692743168	51	14576
2026-01-10 08:58:03.23	23.04	7.48	-41.8	-42.2	12.0	2.41e-02	0	33	0	2810183680	50	14950
2026-01-10 08:58:04.23	23.08	7.57	-41.9	-42.2	12.0	2.19e-02	0	33	0	2919235584	50	14984
2026-01-10 08:58:05.24	23.12	7.66	-42.0	-42.3	12.0	2.19e-02	0	33	0	3036676096	50	15222
2026-01-10 08:58:06.24	23.16	7.75	-41.9	-42.3	12.0	2.19e-02	0	33	0	3145728000	50	15147
2026-01-10 08:58:07.25	23.20	7.84	-41.9	-42.2	12.0	2.18e-02	0	33	0	3263168512	50	15018
2026-01-10 08:58:08.25	23.23	7.94	-42.0	-42.3	12.0	2.18e-02	0	33	0	3372220416	50	15178
2026-01-10 08:58:09.25	23.27	8.03	-42.0	-42.4	12.0	2.18e-02	0	33	0	3489660928	50	15311
2026-01-10 08:58:10.25	23.32	8.12	-42.0	-42.3	12.0	2.01e-02	0	33	0	3598712832	50	15209
2026-01-10 08:58:11.26	23.36	8.21	-41.6	-41.9	12.2	2.01e-02	0	33	0	3707764736	50	14478
2026-01-10 08:58:12.27	23.40	8.31	-41.8	-42.1	12.1	1.76e-02	0	33	0	3825205248	50	14812
2026-01-10 08:58:13.27	23.44	8.40	-41.6	-41.9	12.2	1.76e-02	0	33	0	3934257152	50	14518
2026-01-10 08:58:14.27	23.48	8.50	-41.5	-41.8	12.2	1.76e-02	0	33	0	4051697664	50	14408
2026-01-10 08:58:15.27	23.52	8.59	-41.6	-41.9	12.2	1.53e-02	0	33	0	4160749568	50	14591
2026-01-10 08:58:16.27	23.56	8.69	-41.6	-41.9	12.2	1.53e-02	0	33	0	4278190080	50	14560
2026-01-10 08:58:17.27	23.61	8.78	-41.5	-41.8	12.2	1.53e-02	0	33	0	4387241984	50	14325
2026-01-10 08:58:18.28	23.65	8.88	-41.5	-41.8	12.2	1.46e-02	0	33	0	4496293888	50	14423
2026-01-10 08:58:19.28	23.69	8.97	-41.3	-41.6	12.2	1.46e-02	0	33	0	4613734400	49	14945
2026-01-10 08:58:20.28	23.74	9.07	-41.2	-41.6	12.2	1.35e-02	0	33	0	4722786304	49	14787
2026-01-10 08:58:21.28	23.78	9.17	-41.3	-41.6	12.2	1.35e-02	0	33	0	4840226816	49	14894
2026-01-10 08:58:22.29	23.82	9.27	-41.3	-41.6	12.2	1.35e-02	0	33	0	4957667328	49	14843
2026-01-10 08:58:23.29	23.87	9.37	-41.3	-41.6	12.2	1.22e-02	0	33	0	5066719232	49	14810
2026-01-10 08:58:24.30	23.91	9.47	-41.1	-41.4	12.3	1.22e-02	0	33	0	5175771136	49	14555
2026-01-10 08:58:25.31	23.96	9.57	-41.1	-41.4	12.3	1.16e-02	0	33	0	5293211648	49	14534
2026-01-10 08:58:26.31	24.00	9.67	-41.1	-41.4	12.3	1.16e-02	0	33	0	5402263552	49	14507
2026-01-10 08:58:27.31	24.05	9.77	-41.1	-41.4	12.3	1.16e-02	0	33	0	5519704064	49	14498
2026-01-10 08:58:28.32	24.10	9.87	-41.0	-41.3	12.3	9.66e-03	0	33	0	5628755968	49	14335
2026-01-10 08:58:29.32	24.14	9.97	-41.0	-41.3	12.3	9.66e-03	0	33	0	5746196480	49	14277
2026-01-10 08:58:30.32	24.19	10.08	-40.9	-41.2	12.4	8.94e-03	0	34	0	5855248384	49	14197
2026-01-10 08:58:31.31	24.23	10.18	-40.8	-41.1	12.3	8.94e-03	0	34	0	5964300288	48	14878
2026-01-10 08:58:32.32	24.28	10.28	-40.6	-40.9	12.4	8.94e-03	0	34	0	6081740800	48	14606
2026-01-10 08:58:33.32	24.33	10.39	-40.7	-41.0	12.4	7.85e-03	0	34	0	6190792704	48	14759
2026-01-10 08:58:34.33	24.38	10.49	-40.6	-40.9	12.4	7.85e-03	0	34	0	6308233216	48	14512
2026-01-10 08:58:35.34	24.43	10.60	-40.5	-40.8	12.4	7.85e-03	0	34	0	6425673728	48	14402
2026-01-10 08:58:36.34	24.48	10.70	-40.5	-40.8	12.5	7.06e-03	0	34	0	6534725632	48	14279
2026-01-10 08:58:37.34	24.53	10.81	-40.6	-40.9	12.4	7.06e-03	0	34	0	6643777536	48	14483
2026-01-10 08:58:38.34	24.58	10.92	-40.4	-40.7	12.5	6.19e-03	0	34	0	6761218048	48	14206
2026-01-10 08:58:39.35	24.63	11.02	-40.4	-40.7	12.5	6.19e-03	0	34	0	6870269952	48	14218
2026-01-10 08:58:40.35	24.68	11.13	-39.6	-39.9	12.3	6.19e-03	0	34	0	6987710464	46	14545
2026-01-10 08:58:41.36	24.73	11.24	-39.7	-40.0	12.3	6.19e-03	0	34	0	7096762368	46	14635
2026-01-10 08:58:42.36	24.78	11.35	-39.7	-40.1	12.3	7.77e-03	0	34	0	7214202880	46	14782
2026-01-10 08:58:43.36	24.83	11.46	-39.6	-39.9	12.3	7.77e-03	0	34	0	7323254784	46	14520
2026-01-10 08:58:44.37	24.88	11.57	-39.6	-39.9	12.4	7.77e-03	0	34	0	7432306688	46	14516
2026-01-10 08:58:45.37	24.94	11.68	-39.4	-39.7	12.4	8.53e-03	0	34	0	7549747200	46	14257
2026-01-10 08:58:46.37	24.99	11.80	-39.4	-39.7	12.4	8.53e-03	0	34	0	7658799104	46	14251
2026-01-10 08:58:47.38	25.04	11.91	-39.4	-39.7	12.4	8.53e-03	0	34	0	7776239616	46	14225
2026-01-10 08:58:48.39	25.10	12.02	-39.3	-39.6	12.4	7.53e-03	0	34	0	7893680128	45	14898
2026-01-10 08:58:49.39	25.15	12.14	-39.3	-39.6	12.4	7.53e-03	0	34	0	8002732032	45	14942
2026-01-10 08:58:50.39	25.21	12.25	-39.3	-39.6	12.4	7.53e-03	0	34	0	8120172544	45	14856
2026-01-10 08:58:51.39	25.26	12.37	-39.2	-39.5	12.4	6.89e-03	0	34	0	8229224448	45	14738
2026-01-10 08:58:52.40	25.32	12.49	-39.2	-39.5	12.4	6.89e-03	0	34	0	8338276352	45	14697
2026-01-10 08:58:53.40	25.38	12.60	-39.2	-39.5	12.4	6.89e-03	0	34	0	8455716864	45	14619
2026-01-10 08:58:54.41	25.43	12.72	-39.0	-39.3	12.5	6.51e-03	0	34	0	8564768768	45	14307
2026-01-10 08:58:55.41	25.49	12.84	-39.1	-39.4	12.5	6.51e-03	0	34	0	8682209280	45	14457
2026-01-10 08:58:56.41	25.55	12.96	-39.0	-39.3	12.5	5.28e-03	0	34	0	8791261184	45	14341
2026-01-10 08:58:57.41	25.61	13.08	-38.9	-39.2	12.5	5.28e-03	0	34	0	8900313088	45	14235
2026-01-10 08:58:58.42	25.67	13.20	-38.8	-39.1	12.5	5.28e-03	0	34	0	9017753600	44	14930
2026-01-10 08:58:59.42	25.73	13.32	-38.8	-39.1	12.5	4.09e-03	0	34	0	9126805504	44	14810
2026-01-10 08:59:00.42	25.79	13.44	-38.8	-39.0	12.5	4.09e-03	0	34	0	9244246016	44	14765
2026-01-10 08:59:01.42	25.85	13.57	-38.7	-39.0	12.5	4.09e-03	0	34	0	9353297920	44	14620
2026-01-10 08:59:02.43	25.91	13.69	-38.7	-39.0	12.5	4.20e-03	0	34	0	9462349824	44	14716
2026-01-10 08:59:03.43	25.97	13.81	-38.8	-39.1	12.5	4.20e-03	0	34	0	9579790336	44	14826
2026-01-10 08:59:04.43	26.03	13.94	-38.8	-39.1	12.5	4.07e-03	0	34	0	9688842240	44	14881
2026-01-10 08:59:05.44	26.10	14.07	-38.7	-39.0	12.6	4.07e-03	0	34	0	9806282752	44	14659
2026-01-10 08:59:06.44	26.16	14.19	-38.7	-39.0	12.5	4.07e-03	0	34	0	9923723264	44	14642
2026-01-10 08:59:07.45	26.23	14.32	-38.7	-39.0	12.5	4.07e-03	0	35	0	10032775168	44	14674
2026-01-10 08:59:08.45	26.29	14.45	-38.5	-38.8	12.6	3.46e-03	0	34	0	10150215680	44	14388
2026-01-10 08:59:09.45	26.36	14.58	-38.3	-38.6	12.6	3.46e-03	0	34	0	10259267584	43	14914
2026-01-10 08:59:10.46	26.42	14.71	-38.3	-38.6	12.6	3.46e-03	0	34	0	10368319488	43	14857
2026-01-10 08:59:11.46	26.49	14.84	-38.2	-38.5	12.6	2.88e-03	0	34	0	10485760000	43	14713
2026-01-10 08:59:12.46	26.56	14.97	-38.2	-38.5	12.6	2.88e-03	0	35	0	10594811904	43	14615
2026-01-10 08:59:13.47	26.63	15.11	-38.1	-38.4	12.7	2.45e-03	0	34	0	10712252416	43	14460
2026-01-10 08:59:14.47	26.69	15.24	-38.1	-38.4	12.7	2.45e-03	0	34	0	10821304320	43	14480
2026-01-10 08:59:15.48	26.76	15.38	-38.0	-38.3	12.7	2.45e-03	0	34	0	10930356224	43	14297
2026-01-10 08:59:16.48	26.83	15.51	-37.8	-38.1	12.7	2.45e-03	0	35	0	11047796736	42	14931
2026-01-10 08:59:17.48	26.91	15.65	-37.8	-38.1	12.7	2.06e-03	0	35	0	11165237248	42	14837
2026-01-10 08:59:18.49	26.98	15.79	-37.8	-38.0	12.7	2.06e-03	0	35	0	11274289152	42	14738
2026-01-10 08:59:19.49	27.05	15.93	-37.8	-38.1	12.7	1.83e-03	0	35	0	11391729664	42	14799
2026-01-10 08:59:20.50	27.12	16.07	-37.9	-38.2	12.7	1.83e-03	0	35	0	11500781568	42	15071
2026-01-10 08:59:21.50	27.20	16.21	-37.8	-38.1	12.7	1.64e-03	0	35	0	11618222080	42	14925
2026-01-10 08:59:22.50	27.27	16.35	-37.7	-37.9	12.7	1.64e-03	0	35	0	11727273984	42	14594
2026-01-10 08:59:23.50	27.35	16.49	-37.5	-37.8	12.8	1.64e-03	0	35	0	11836325888	42	14376
2026-01-10 08:59:24.50	27.42	16.64	-37.5	-37.8	12.8	1.36e-03	0	35	0	11953766400	42	14311
2026-01-10 08:59:25.50	27.50	16.78	-37.5	-37.8	12.8	1.36e-03	0	35	0	12062818304	42	14316
2026-01-10 08:59:26.51	27.58	16.93	-37.6	-37.9	12.7	1.36e-03	0	35	0	12180258816	42	14490
2026-01-10 08:59:27.51	27.66	17.08	-37.5	-37.8	12.8	1.28e-03	0	35	0	12289310720	42	14282
2026-01-10 08:59:28.51	27.74	17.22	-37.3	-37.6	12.8	1.28e-03	0	35	0	12398362624	41	14804
2026-01-10 08:59:29.51	27.82	17.37	-37.2	-37.5	12.8	1.28e-03	0	35	0	12515803136	41	14644
2026-01-10 08:59:30.52	27.90	17.53	-37.1	-37.3	12.8	1.17e-03	0	35	0	12624855040	41	14432
2026-01-10 08:59:31.52	27.98	17.68	-37.0	-37.3	12.9	1.17e-03	0	35	0	12742295552	41	14287
2026-01-10 08:59:32.53	28.06	17.83	-36.9	-37.2	12.9	7.01e-04	0	35	0	12851347456	41	14177
2026-01-10 08:59:33.53	28.15	17.98	-37.0	-37.2	12.9	7.01e-04	0	35	0	12968787968	41	14248
2026-01-10 08:59:34.53	28.23	18.14	-36.8	-37.1	12.8	7.01e-04	0	35	0	13077839872	40	14859
2026-01-10 08:59:35.53	28.32	18.30	-36.7	-37.0	12.8	7.15e-04	0	35	0	13186891776	40	14725
2026-01-10 08:59:36.53	28.41	18.45	-36.9	-37.2	12.8	7.15e-04	0	35	0	13304332288	40	14973
2026-01-10 08:59:37.53	28.49	18.61	-36.8	-37.1	12.8	7.25e-04	0	35	0	13413384192	40	14892
2026-01-10 08:59:38.54	28.58	18.77	-36.7	-37.0	12.8	7.25e-04	0	35	0	13530824704	40	14665
2026-01-10 08:59:39.55	28.67	18.93	-36.7	-37.0	12.8	7.25e-04	0	35	0	13648265216	40	14649
2026-01-10 08:59:40.55	28.76	19.10	-36.7	-36.9	12.8	5.67e-04	0	35	0	13757317120	40	14581
2026-01-10 08:59:41.55	28.86	19.26	-36.6	-36.9	12.9	5.67e-04	0	35	0	13866369024	40	14471
2026-01-10 08:59:42.56	28.95	19.43	-36.5	-36.8	12.9	5.67e-04	0	35	0	13983809536	40	14338
2026-01-10 08:59:43.56	29.04	19.59	-36.5	-36.8	12.9	4.82e-04	0	35	0	14092861440	40	14334
2026-01-10 08:59:44.56	29.14	19.76	-36.4	-36.7	13.0	4.82e-04	0	35	0	14210301952	40	14151
2026-01-10 08:59:45.56	29.24	19.93	-36.4	-36.7	12.9	4.82e-04	0	35	0	14319353856	39	15046
2026-01-10 08:59:46.57	29.33	20.10	-36.5	-36.7	12.9	3.48e-04	0	35	0	14436794368	39	15096
2026-01-10 08:59:47.57	29.43	20.27	-36.4	-36.7	12.9	3.48e-04	0	35	0	14545846272	39	15046
2026-01-10 08:59:48.58	29.53	20.45	-36.4	-36.6	12.9	4.15e-04	0	35	0	14654898176	39	14918
2026-01-10 08:59:49.58	29.64	20.62	-36.3	-36.6	12.9	4.15e-04	0	35	0	14772338688	39	14898
2026-01-10 08:59:50.59	29.74	20.80	-36.2	-36.5	12.9	3.43e-04	0	35	0	14889779200	39	14648
2026-01-10 08:59:51.59	29.84	20.98	-36.2	-36.4	12.9	3.43e-04	0	35	0	14998831104	39	14565
2026-01-10 08:59:52.59	29.95	21.16	-36.0	-36.3	13.0	3.43e-04	0	35	0	15116271616	39	14392
2026-01-10 08:59:53.59	30.05	21.34	-35.8	-36.1	13.0	1.95e-04	0	35	0	15225323520	38	14903
2026-01-10 08:59:54.60	30.16	21.52	-35.8	-36.1	13.0	1.95e-04	0	35	0	15342764032	38	14820
2026-01-10 08:59:55.61	30.27	21.71	-35.7	-36.0	13.0	1.95e-04	0	35	0	15451815936	38	14622
2026-01-10 08:59:56.61	30.38	21.89	-35.7	-36.0	13.0	1.62e-04	0	35	0	15560867840	38	14623
2026-01-10 08:59:57.61	30.50	22.08	-35.5	-35.8	13.0	1.62e-04	0	35	0	15678308352	38	14355
2026-01-10 08:59:58.62	30.61	22.27	-35.6	-35.8	13.0	1.52e-04	0	35	0	15787360256	38	14424
2026-01-10 08:59:59.63	30.73	22.46	-35.6	-35.8	13.0	1.52e-04	0	35	0	15904800768	38	14427
2026-01-10 09:00:00.64	30.84	22.65	-35.4	-35.7	13.1	1.52e-04	0	35	0	16022241280	38	14159
2026-01-10 09:00:01.64	30.96	22.85	-35.3	-35.6	13.0	1.10e-04	0	35	0	16131293184	37	14792
2026-01-10 09:00:02.65	31.08	23.04	-35.2	-35.5	13.0	1.10e-04	0	35	0	16240345088	37	14643
2026-01-10 09:00:03.65	31.20	23.24	-35.2	-35.5	13.0	8.10e-05	0	35	0	16357785600	37	14608
2026-01-10 09:00:04.65	31.33	23.44	-35.1	-35.4	13.1	8.10e-05	0	35	0	16466837504	37	14451
2026-01-10 09:00:05.65	31.45	23.64	-35.1	-35.3	13.1	8.10e-05	0	35	0	16584278016	37	14439
2026-01-10 09:00:06.65	31.58	23.84	-35.0	-35.3	13.1	6.67e-05	0	35	0	16693329920	37	14308
2026-01-10 09:00:07.66	31.71	24.05	-35.0	-35.3	13.1	6.67e-05	0	35	0	16810770432	37	14284
2026-01-10 09:00:08.66	31.84	24.25	-34.7	-35.0	13.1	6.67e-05	0	35	0	16919822336	36	14630
2026-01-10 09:00:09.67	31.97	24.46	-34.8	-35.1	13.1	7.62e-05	0	35	0	17028874240	36	14858
2026-01-10 09:00:10.68	32.11	24.68	-34.5	-34.8	13.1	7.62e-05	0	35	0	17146314752	36	14315
2026-01-10 09:00:11.67	32.24	24.88	-31.8	-32.0	13.0	7.62e-05	0	35	0	17255366656	30	14752
2026-01-10 09:00:12.68	32.38	25.10	-31.7	-32.0	13.0	9.05e-05	0	35	0	17372807168	30	14684
2026-01-10 09:00:13.69	32.52	25.32	-31.8	-32.0	13.0	9.05e-05	0	35	0	17490247680	30	14770
2026-01-10 09:00:14.70	32.66	25.54	-31.7	-32.0	13.0	9.05e-05	0	35	0	17599299584	30	14692
2026-01-10 09:00:15.70	32.81	25.76	-31.6	-31.9	13.0	8.10e-05	0	35	0	17708351488	30	14546
2026-01-10 09:00:16.70	32.96	25.98	-31.5	-31.8	13.1	8.10e-05	0	35	0	17825792000	30	14292
2026-01-10 09:00:17.71	33.10	26.20	-31.3	-31.6	13.1	8.10e-05	0	35	0	17934843904	29	14787
2026-01-10 09:00:18.72	33.26	26.43	-31.3	-31.6	13.0	5.72e-05	0	35	0	18052284416	29	14850
2026-01-10 09:00:19.72	33.41	26.66	-31.2	-31.4	13.1	5.72e-05	0	35	0	18161336320	29	14600
2026-01-10 09:00:20.73	33.57	26.89	-31.0	-31.3	13.1	5.72e-05	0	35	0	18278776832	29	14357
2026-01-10 09:00:21.73	33.72	27.12	-31.1	-31.3	13.1	5.24e-05	0	35	0	18396217344	29	14438
2026-01-10 09:00:22.74	33.89	27.36	-31.1	-31.3	13.1	5.24e-05	0	35	0	18505269248	29	14398
2026-01-10 09:00:23.75	34.05	27.60	-31.0	-31.2	13.1	5.24e-05	0	35	0	18614321152	29	14271
2026-01-10 09:00:24.75	34.22	27.84	-30.9	-31.1	13.1	3.81e-05	0	35	0	18731761664	28	14910
2026-01-10 09:00:25.76	34.39	28.08	-30.9	-31.1	13.1	3.81e-05	0	35	0	18840813568	28	14915
2026-01-10 09:00:26.77	34.56	28.33	-30.8	-31.0	13.1	3.81e-05	0	35	0	18958254080	28	14741
2026-01-10 09:00:27.77	34.73	28.57	-30.6	-30.9	13.1	6.67e-05	0	36	0	19067305984	28	14541
2026-01-10 09:00:28.77	34.91	28.82	-30.6	-30.9	13.1	6.67e-05	0	35	0	19176357888	28	14456
2026-01-10 09:00:29.78	35.09	29.07	-30.5	-30.7	13.2	6.67e-05	0	35	0	19293798400	28	14209
2026-01-10 09:00:30.78	35.27	29.33	-30.5	-30.7	13.2	2.38e-05	0	36	0	19402850304	28	14259
2026-01-10 09:00:31.79	35.46	29.59	-30.4	-30.7	13.2	2.38e-05	0	35	0	19520290816	28	14184
2026-01-10 09:00:32.80	35.65	29.85	-30.3	-30.6	13.1	3.33e-05	0	35	0	19637731328	27	14877
2026-01-10 09:00:33.80	35.84	30.11	-30.4	-30.6	13.1	3.33e-05	0	35	0	19746783232	27	14904
2026-01-10 09:00:34.81	36.04	30.37	-30.3	-30.5	13.2	3.33e-05	0	36	0	19864223744	27	14752
2026-01-10 09:00:35.81	36.24	30.64	-30.0	-30.3	13.2	2.86e-05	0	35	0	19973275648	27	14363
2026-01-10 09:00:36.81	36.44	30.90	-30.1	-30.3	13.2	2.86e-05	0	35	0	20082327552	27	14419
2026-01-10 09:00:37.81	36.65	31.18	-30.0	-30.2	13.2	2.38e-05	0	35	0	20199768064	27	14225
2026-01-10 09:00:38.82	36.86	31.45	-29.9	-30.2	13.2	2.38e-05	0	35	0	20308819968	27	14168
2026-01-10 09:00:39.82	37.07	31.73	-29.9	-30.2	13.2	2.38e-05	0	35	0	20426260480	27	14173
2026-01-10 09:00:40.83	37.29	32.01	-29.7	-30.0	13.2	1.43e-05	0	35	0	20535312384	26	14719
2026-01-10 09:00:41.84	37.52	32.29	-29.6	-29.8	13.2	1.43e-05	0	35	0	20652752896	26	14375
2026-01-10 09:00:42.84	37.74	32.58	-29.5	-29.8	13.2	0.00e+00	0	35	0	20770193408	26	14294
2026-01-10 09:00:43.85	37.97	32.86	-29.6	-29.9	13.2	0.00e+00	0	35	0	20879245312	26	14443
2026-01-10 09:00:44.85	38.21	33.15	-29.4	-29.7	13.3	0.00e+00	0	35	0	20988297216	26	14159
2026-01-10 09:00:45.86	38.45	33.45	-29.4	-29.7	13.2	2.86e-05	0	35	0	21105737728	26	14182
2026-01-10 09:00:46.86	38.69	33.74	-29.2	-29.5	13.2	2.86e-05	0	35	0	21214789632	25	14693
2026-01-10 09:00:47.86	38.94	34.04	-29.3	-29.6	13.2	4.70e-06	0	35	0	21332230144	25	14848
2026-01-10 09:00:48.86	39.19	34.34	-29.1	-29.3	13.2	4.70e-06	0	35	0	21441282048	25	14423
2026-01-10 09:00:49.85	39.45	34.64	-28.8	-29.1	13.2	1.43e-05	0	35	0	21550333952	24	14852
2026-01-10 09:00:50.86	39.71	34.95	-28.6	-28.9	13.2	1.43e-05	0	35	0	21667774464	24	14538
2026-01-10 09:00:51.86	39.98	35.26	-28.7	-29.0	13.3	1.43e-05	0	35	0	21776826368	24	14625
2026-01-10 09:00:52.85	40.25	35.57	-28.5	-28.8	13.3	0.00e+00	0	35	0	21894266880	24	14301
2026-01-10 09:00:53.85	40.53	35.88	-28.4	-28.7	13.3	0.00e+00	0	35	0	22003318784	24	14134
2026-01-10 09:00:54.86	40.82	36.20	-28.5	-28.7	13.3	0.00e+00	0	35	0	22120759296	24	14222
2026-01-10 09:00:55.87	41.11	36.53	-28.5	-28.7	13.3	0.00e+00	0	35	0	22229811200	24	14228
2026-01-10 09:00:56.87	41.40	36.85	-28.3	-28.5	13.3	0.00e+00	0	35	0	22338863104	23	14716
2026-01-10 09:00:57.88	41.71	37.18	-28.3	-28.6	13.3	0.00e+00	0	35	0	22456303616	23	14795
2026-01-10 09:00:58.88	42.02	37.51	-27.9	-28.2	13.3	0.00e+00	0	35	0	22565355520	23	14207
2026-01-10 09:00:59.89	42.34	37.84	-27.7	-28.0	13.3	0.00e+00	0	35	0	22682796032	22	14694
2026-01-10 09:01:00.90	42.66	38.18	-27.8	-28.0	13.3	0.00e+00	0	35	0	22800236544	22	14744
2026-01-10 09:01:01.90	42.99	38.52	-27.6	-27.9	13.3	4.70e-06	0	35	0	22909288448	22	14488
2026-01-10 09:01:02.90	43.33	38.86	-27.5	-27.8	13.3	4.70e-06	0	35	0	23018340352	22	14311
2026-01-10 09:01:03.91	43.68	39.21	-27.5	-27.7	13.3	0.00e+00	0	35	0	23135780864	22	14210
2026-01-10 09:01:04.91	44.03	39.55	-27.3	-27.6	13.3	0.00e+00	0	35	0	23244832768	21	14787
2026-01-10 09:01:05.92	44.39	39.91	-27.2	-27.4	13.3	0.00e+00	0	36	0	23362273280	21	14561
2026-01-10 09:01:06.92	44.76	40.26	-27.2	-27.4	13.3	0.00e+00	0	35	0	23471325184	21	14555
2026-01-10 09:01:07.93	45.14	40.62	-27.0	-27.3	13.3	0.00e+00	0	35	0	23588765696	21	14299
2026-01-10 09:01:08.93	45.52	40.98	-26.8	-27.1	13.3	0.00e+00	0	35	0	23697817600	20	14862
2026-01-10 09:01:09.93	45.92	41.34	-26.8	-27.0	13.3	0.00e+00	0	35	0	23806869504	20	14755
2026-01-10 09:01:10.94	46.32	41.70	-26.7	-27.0	13.3	0.00e+00	0	35	0	23924310016	20	14674
2026-01-10 09:01:11.94	46.74	42.07	-26.7	-27.0	13.3	0.00e+00	0	36	0	24041750528	20	14676
2026-01-10 09:01:12.94	47.16	42.43	-26.6	-26.9	13.4	0.00e+00	0	36	0	24150802432	20	14447
2026-01-10 09:01:13.95	47.60	42.81	-26.5	-26.7	13.4	0.00e+00	0	35	0	24268242944	20	14231
2026-01-10 09:01:14.96	48.04	43.18	-26.4	-26.7	13.4	0.00e+00	0	35	0	24377294848	20	14155
2026-01-10 09:01:15.96	48.50	43.56	-26.4	-26.7	13.4	0.00e+00	0	35	0	24494735360	19	14973
2026-01-10 09:01:16.96	48.96	43.94	-26.3	-26.6	13.4	0.00e+00	0	35	0	24603787264	19	14849
2026-01-10 09:01:17.97	49.44	44.32	-26.3	-26.5	13.4	4.70e-06	0	35	0	24712839168	19	14750
2026-01-10 09:01:18.97	49.93	44.70	-26.2	-26.4	13.4	4.70e-06	0	35	0	24830279680	19	14574
2026-01-10 09:01:19.97	50.43	45.08	-26.0	-26.3	13.4	4.70e-06	0	36	0	24939331584	19	14329
2026-01-10 09:01:20.97	50.94	45.47	-25.9	-26.2	13.4	4.70e-06	0	35	0	25056772096	19	14148
2026-01-10 09:01:21.98	51.48	45.86	-26.0	-26.3	13.4	4.70e-06	0	35	0	25165824000	19	14276
2026-01-10 09:01:22.98	52.02	46.25	-25.7	-26.0	13.4	4.70e-06	0	35	0	25274875904	18	14653
2026-01-10 09:01:24.00	52.58	46.65	-25.6	-25.8	13.4	4.70e-06	0	35	0	25392316416	18	14400
2026-01-10 09:01:25.00	53.15	47.04	-25.5	-25.7	13.4	0.00e+00	0	35	0	25509756928	18	14273
2026-01-10 09:01:26.01	53.74	47.43	-25.4	-25.7	13.5	0.00e+00	0	36	0	25618808832	18	14140
2026-01-10 09:01:27.01	54.33	47.83	-25.3	-25.5	13.4	0.00e+00	0	36	0	25736249344	17	14775
2026-01-10 09:01:28.02	54.95	48.22	-25.2	-25.5	13.4	0.00e+00	0	35	0	25845301248	17	14626
2026-01-10 09:01:29.03	55.59	48.62	-25.0	-25.3	13.5	0.00e+00	0	35	0	25962741760	17	14374
2026-01-10 09:01:30.04	56.24	49.02	-25.1	-25.3	13.5	0.00e+00	0	35	0	26071793664	17	14386
2026-01-10 09:01:31.05	56.92	49.42	-24.9	-25.2	13.5	0.00e+00	0	35	0	26180845568	17	14166
2026-01-10 09:01:32.05	57.60	49.81	-24.8	-25.1	13.5	0.00e+00	0	35	0	26298286080	16	14823
2026-01-10 09:01:33.06	58.31	50.21	-24.8	-25.1	13.5	0.00e+00	0	35	0	26415726592	16	14789
2026-01-10 09:01:34.06	59.02	50.60	-24.7	-24.9	13.5	0.00e+00	0	35	0	26524778496	16	14599
2026-01-10 09:01:35.07	59.77	51.00	-24.7	-25.0	13.5	0.00e+00	0	36	0	26642219008	16	14634
2026-01-10 09:01:36.07	60.53	51.39	-24.5	-24.8	13.5	0.00e+00	0	35	0	26751270912	16	14358
2026-01-10 09:01:37.08	61.32	51.78	-24.6	-24.8	13.5	0.00e+00	0	35	0	26860322816	16	14405
2026-01-10 09:01:38.08	62.12	52.17	-24.5	-24.7	13.5	0.00e+00	0	36	0	26977763328	16	14213
2026-01-10 09:01:39.09	62.95	52.56	-24.4	-24.7	13.5	0.00e+00	0	35	0	27086815232	16	14135
2026-01-10 09:01:40.09	63.79	52.94	-24.5	-24.7	13.5	0.00e+00	0	36	0	27204255744	16	14230
2026-01-10 09:01:41.10	64.67	53.32	-24.0	-24.2	13.5	0.00e+00	0	35	0	27313307648	15	14258
2026-01-10 09:01:42.09	65.55	53.69	-23.9	-24.2	13.6	0.00e+00	0	35	0	27430748160	15	14159
2026-01-10 09:01:43.09	66.46	54.06	-23.9	-24.2	13.6	0.00e+00	0	36	0	27539800064	15	14115
2026-01-10 09:01:44.10	67.41	54.43	-23.7	-24.0	13.5	0.00e+00	0	35	0	27648851968	14	14611
2026-01-10 09:01:45.10	68.37	54.80	-23.7	-23.9	13.5	0.00e+00	0	35	0	27766292480	14	14548
2026-01-10 09:01:46.10	69.36	55.15	-23.6	-23.9	13.5	0.00e+00	0	35	0	27875344384	14	14488
2026-01-10 09:01:47.11	70.38	55.51	-23.7	-23.9	13.5	0.00e+00	0	35	0	27992784896	14	14540
2026-01-10 09:01:48.11	71.42	55.85	-23.5	-23.8	13.6	0.00e+00	0	36	0	28110225408	14	14289
2026-01-10 09:01:49.11	72.48	56.19	-23.7	-23.9	13.5	0.00e+00	0	35	0	28219277312	14	14565
2026-01-10 09:01:50.11	73.58	56.52	-23.5	-23.7	13.6	0.00e+00	0	35	0	28328329216	14	14266
2026-01-10 09:01:51.12	74.70	56.85	-23.3	-23.5	13.5	0.00e+00	0	36	0	28445769728	13	14769
2026-01-10 09:01:52.12	75.85	57.16	-23.3	-23.6	13.5	0.00e+00	0	35	0	28554821632	13	14850
2026-01-10 09:01:53.12	77.02	57.46	-23.2	-23.5	13.5	0.00e+00	0	36	0	28672262144	13	14681
2026-01-10 09:01:54.13	78.23	57.76	-23.2	-23.5	13.5	0.00e+00	0	36	0	28781314048	13	14681
2026-01-10 09:01:55.13	79.45	58.05	-23.3	-23.5	13.5	0.00e+00	0	35	0	28898754560	13	14739
2026-01-10 09:01:56.14	80.71	58.33	-23.1	-23.3	13.5	0.00e+00	0	35	0	29007806464	13	14425
2026-01-10 09:01:57.14	81.99	58.59	-23.2	-23.4	13.5	0.00e+00	0	35	0	29116858368	13	14576
2026-01-10 09:01:58.14	83.29	58.84	-23.1	-23.3	13.5	0.00e+00	0	35	0	29234298880	13	14399
2026-01-10 09:01:59.15	84.63	59.08	-23.1	-23.4	13.5	0.00e+00	0	36	0	29343350784	13	14480
2026-01-10 09:02:00.14	85.97	59.30	-23.1	-23.4	13.5	0.00e+00	0	35	0	29460791296	13	14441
2026-01-10 09:02:01.15	87.35	59.52	-23.2	-23.4	13.5	0.00e+00	0	35	0	29569843200	13	14565
2026-01-10 09:02:02.15	88.75	59.71	-23.1	-23.4	13.5	0.00e+00	0	35	0	29678895104	13	14526
2026-01-10 09:02:03.15	90.16	59.90	-23.2	-23.4	13.5	0.00e+00	0	35	0	29804724224	13	14597
2026-01-10 09:02:04.16	91.61	60.07	-23.1	-23.4	13.5	0.00e+00	0	36	0	29913776128	13	14470
2026-01-10 09:02:05.16	93.07	60.22	-23.2	-23.5	13.5	0.00e+00	0	35	0	30022828032	13	14678
2026-01-10 09:02:06.17	94.55	60.35	-23.2	-23.5	13.5	0.00e+00	0	35	0	30140268544	13	14659
2026-01-10 09:02:07.17	96.04	60.47	-23.3	-23.6	13.5	0.00e+00	0	35	0	30249320448	13	14779
2026-01-10 09:02:08.17	97.54	60.58	-23.1	-23.4	13.5	0.00e+00	0	35	0	30366760960	13	14467
2026-01-10 09:02:09.18	99.06	60.66	-23.0	-23.3	13.5	0.00e+00	0	35	0	30475812864	13	14377
2026-01-10 09:02:10.18	100.58	60.73	-23.1	-23.4	13.5	0.00e+00	0	35	0	30584864768	13	14505
2026-01-10 09:02:11.18	102.11	60.78	-23.0	-23.3	13.5	0.00e+00	0	35	0	30702305280	13	14316
2026-01-10 09:02:12.19	103.66	60.81	-23.1	-23.3	13.5	0.00e+00	0	35	0	30811357184	13	14423
2026-01-10 09:02:13.19	105.19	60.83	-23.1	-23.3	13.5	0.00e+00	0	35	0	30928797696	13	14393
2026-01-10 09:02:14.19	106.73	60.83	-23.1	-23.3	13.5	0.00e+00	0	36	0	31037849600	13	14373
2026-01-10 09:02:15.20	108.28	60.81	-23.0	-23.2	13.5	0.00e+00	0	35	0	31146901504	13	14260
2026-01-10 09:02:16.20	109.81	60.77	-23.0	-23.3	13.5	0.00e+00	0	35	0	31264342016	13	14306
2026-01-10 09:02:17.20	111.33	60.71	-23.0	-23.3	13.5	0.00e+00	0	36	0	31373393920	13	14286
2026-01-10 09:02:18.21	112.86	60.64	-23.0	-23.3	13.5	0.00e+00	0	35	0	31490834432	13	14319
2026-01-10 09:02:19.21	114.37	60.55	-23.1	-23.3	13.5	0.00e+00	0	35	0	31608274944	13	14433
2026-01-10 09:02:20.22	115.88	60.44	-23.0	-23.3	13.5	0.00e+00	0	35	0	31717326848	13	14314
2026-01-10 09:02:21.23	117.38	60.31	-23.1	-23.4	13.5	0.00e+00	0	35	0	31834767360	13	14491
2026-01-10 09:02:22.23	118.84	60.17	-23.0	-23.3	13.5	0.00e+00	0	36	0	31943819264	13	14329
2026-01-10 09:02:23.24	120.31	60.01	-23.1	-23.4	13.4	0.00e+00	0	36	0	32052871168	13	14505
2026-01-10 09:02:24.24	121.74	59.84	-23.1	-23.4	13.4	4.70e-06	0	35	0	32170311680	13	14501
2026-01-10 09:02:25.24	123.15	59.65	-23.2	-23.4	13.4	4.70e-06	0	35	0	32279363584	13	14576
2026-01-10 09:02:26.25	124.55	59.45	-23.2	-23.4	13.4	0.00e+00	0	35	0	32396804096	13	14517
2026-01-10 09:02:27.26	125.93	59.23	-23.2	-23.5	13.4	0.00e+00	0	36	0	32514244608	13	14635
2026-01-10 09:02:28.27	127.29	59.00	-23.2	-23.5	13.4	0.00e+00	0	35	0	32623296512	13	14639
2026-01-10 09:02:29.27	128.61	58.75	-23.3	-23.6	13.4	0.00e+00	0	35	0	32740737024	13	14849
2026-01-10 09:02:30.27	129.90	58.50	-23.3	-23.5	13.4	0.00e+00	0	36	0	32849788928	13	14733
2026-01-10 09:02:31.28	131.18	58.23	-23.2	-23.5	13.4	0.00e+00	0	35	0	32958840832	13	14690
2026-01-10 09:02:32.29	132.44	57.95	-23.3	-23.6	13.4	0.00e+00	0	35	0	33076281344	13	14780
2026-01-10 09:02:33.29	133.65	57.66	-23.5	-23.7	13.4	0.00e+00	0	35	0	33185333248	13	15107
2026-01-10 09:02:34.30	134.85	57.35	-23.4	-23.7	13.4	0.00e+00	0	35	0	33302773760	13	15031
2026-01-10 09:02:35.30	136.02	57.05	-23.4	-23.7	13.3	0.00e+00	0	35	0	33411825664	13	14994
2026-01-10 09:02:36.31	137.16	56.72	-23.5	-23.8	13.3	0.00e+00	0	35	0	33529266176	13	15128
2026-01-10 09:02:37.31	138.27	56.40	-23.5	-23.8	13.3	0.00e+00	0	36	0	33638318080	13	15206
2026-01-10 09:02:38.31	139.36	56.07	-23.7	-23.9	13.3	0.00e+00	0	35	0	33755758592	13	15430
2026-01-10 09:02:39.31	140.41	55.72	-23.6	-23.8	13.3	0.00e+00	0	36	0	33864810496	13	15284
2026-01-10 09:02:40.32	141.45	55.37	-23.6	-23.8	13.3	0.00e+00	0	35	0	33982251008	13	15293
2026-01-10 09:02:41.32	142.46	55.02	-23.6	-23.9	13.3	0.00e+00	0	35	0	34091302912	13	15380
2026-01-10 09:02:42.33	143.45	54.66	-23.6	-23.9	13.4	0.00e+00	0	35	0	34208743424	13	15347
2026-01-10 09:02:43.32	144.39	54.29	-23.7	-24.0	13.4	0.00e+00	0	35	0	34317795328	13	15548
2026-01-10 09:02:44.33	145.33	53.92	-23.8	-24.1	13.4	0.00e+00	0	35	0	34426847232	13	15662
2026-01-10 09:02:45.33	146.24	53.55	-23.9	-24.2	13.4	0.00e+00	0	36	0	34544287744	13	15861
2026-01-10 09:02:46.34	147.13	53.17	-23.8	-24.1	13.4	1.43e-05	0	35	0	34653339648	13	15703
2026-01-10 09:02:47.33	147.98	52.79	-23.8	-24.1	13.4	1.43e-05	0	36	0	34770780160	13	15749
2026-01-10 09:02:48.34	148.83	52.40	-23.9	-24.2	13.4	1.43e-05	0	35	0	34879832064	13	15856
2026-01-10 09:02:49.34	149.64	52.01	-24.0	-24.3	13.4	0.00e+00	0	35	0	34988883968	13	16085
2026-01-10 09:02:50.34	150.44	51.63	-24.2	-24.4	13.4	0.00e+00	0	36	0	35106324480	14	15437
2026-01-10 09:02:51.35	151.22	51.23	-24.2	-24.5	13.4	0.00e+00	0	35	0	35215376384	14	15524
2026-01-10 09:02:52.36	151.98	50.84	-24.2	-24.5	13.4	0.00e+00	0	35	0	35332816896	14	15475
2026-01-10 09:02:53.37	152.72	50.44	-24.3	-24.5	13.4	0.00e+00	0	35	0	35450257408	14	15624
2026-01-10 09:02:54.37	153.43	50.04	-24.3	-24.6	13.4	0.00e+00	0	36	0	35559309312	14	15693
2026-01-10 09:02:55.37	154.13	49.65	-24.4	-24.6	13.4	0.00e+00	0	35	0	35676749824	14	15809
2026-01-10 09:02:56.37	154.81	49.25	-24.4	-24.7	13.4	0.00e+00	0	35	0	35785801728	14	15930
2026-01-10 09:02:57.38	155.47	48.85	-24.5	-24.8	13.4	0.00e+00	0	35	0	35894853632	14	16017
2026-01-10 09:02:58.38	156.11	48.46	-24.6	-24.9	13.4	0.00e+00	0	35	0	36012294144	15	15383
2026-01-10 09:02:59.38	156.74	48.06	-24.6	-24.8	13.4	0.00e+00	0	35	0	36121346048	15	15230
2026-01-10 09:03:00.39	157.35	47.66	-24.6	-24.9	13.4	0.00e+00	0	35	0	36238786560	15	15395
2026-01-10 09:03:01.39	157.95	47.27	-24.8	-25.1	13.4	0.00e+00	0	36	0	36347838464	15	15733
2026-01-10 09:03:02.39	158.53	46.88	-24.8	-25.0	13.4	0.00e+00	0	35	0	36456890368	15	15629
2026-01-10 09:03:03.40	159.10	46.48	-24.9	-25.2	13.4	0.00e+00	0	35	0	36574330880	15	15918
2026-01-10 09:03:04.40	159.65	46.09	-24.9	-25.2	13.4	4.70e-06	0	35	0	36683382784	15	15914
2026-01-10 09:03:05.41	160.19	45.70	-25.1	-25.3	13.4	4.70e-06	0	35	0	36800823296	15	16199
2026-01-10 09:03:06.41	160.71	45.31	-25.4	-25.7	13.4	0.00e+00	0	36	0	36918263808	16	15951
2026-01-10 09:03:07.42	161.22	44.92	-25.4	-25.7	13.4	0.00e+00	0	35	0	37027315712	16	15966
2026-01-10 09:03:08.42	161.72	44.54	-25.6	-25.9	13.4	0.00e+00	0	36	0	37144756224	16	16244
2026-01-10 09:03:09.43	162.21	44.15	-25.6	-25.9	13.4	0.00e+00	0	36	0	37253808128	17	15303
2026-01-10 09:03:10.42	162.68	43.77	-25.8	-26.1	13.4	0.00e+00	0	35	0	37362860032	17	15664
2026-01-10 09:03:11.42	163.14	43.40	-25.8	-26.0	13.4	0.00e+00	0	36	0	37480300544	17	15596
2026-01-10 09:03:12.43	163.60	43.02	-25.9	-26.2	13.4	9.50e-06	0	35	0	37589352448	17	15872
2026-01-10 09:03:13.44	164.04	42.64	-26.0	-26.3	13.4	9.50e-06	0	35	0	37706792960	17	16025
2026-01-10 09:03:14.45	164.47	42.27	-26.2	-26.4	13.4	9.50e-06	0	35	0	37815844864	18	15416
2026-01-10 09:03:15.46	164.90	41.89	-26.2	-26.5	13.4	9.50e-06	0	35	0	37933285376	18	15579
2026-01-10 09:03:16.46	165.31	41.53	-26.3	-26.6	13.4	9.50e-06	0	36	0	38050725888	18	15813
2026-01-10 09:03:17.47	165.71	41.16	-26.5	-26.8	13.3	9.50e-06	0	35	0	38159777792	18	16071
2026-01-10 09:03:18.47	166.10	40.80	-26.5	-26.8	13.3	0.00e+00	0	35	0	38268829696	18	16058
2026-01-10 09:03:19.48	166.49	40.44	-26.6	-26.9	13.3	0.00e+00	0	36	0	38386270208	19	15451
2026-01-10 09:03:20.48	166.86	40.08	-26.7	-27.0	13.3	0.00e+00	0	36	0	38495322112	19	15521
2026-01-10 09:03:21.49	167.23	39.73	-26.7	-27.0	13.3	0.00e+00	0	35	0	38612762624	19	15526
2026-01-10 09:03:22.49	167.59	39.38	-26.9	-27.1	13.3	0.00e+00	0	35	0	38721814528	19	15793
2026-01-10 09:03:23.50	167.94	39.03	-26.9	-27.2	13.3	4.70e-06	0	35	0	38830866432	19	15905
2026-01-10 09:03:24.50	168.28	38.69	-27.0	-27.3	13.3	4.70e-06	0	35	0	38948306944	20	15189
2026-01-10 09:03:25.50	168.62	38.34	-27.1	-27.4	13.3	4.70e-06	0	35	0	39065747456	20	15405
2026-01-10 09:03:26.51	168.95	38.00	-27.3	-27.5	13.3	0.00e+00	0	35	0	39174799360	20	15638
2026-01-10 09:03:27.52	169.27	37.66	-27.3	-27.6	13.3	0.00e+00	0	36	0	39292239872	20	15743
2026-01-10 09:03:28.52	169.59	37.33	-27.4	-27.7	13.3	0.00e+00	0	35	0	39401291776	20	15846
2026-01-10 09:03:29.52	169.89	37.00	-27.5	-27.8	13.3	9.50e-06	0	35	0	39518732288	20	16131
2026-01-10 09:03:30.53	170.20	36.67	-27.6	-27.9	13.3	9.50e-06	0	36	0	39627784192	21	15393
2026-01-10 09:03:31.53	170.49	36.35	-27.8	-28.1	13.3	9.50e-06	0	35	0	39736836096	21	15700
2026-01-10 09:03:32.53	170.78	36.03	-27.9	-28.2	13.3	1.90e-05	0	35	0	39854276608	21	15950
2026-01-10 09:03:33.53	171.06	35.71	-27.9	-28.2	13.3	1.90e-05	0	35	0	39963328512	21	15892
2026-01-10 09:03:34.53	171.34	35.40	-28.0	-28.3	13.2	2.86e-05	0	36	0	40080769024	21	16186
2026-01-10 09:03:35.54	171.61	35.08	-28.2	-28.5	13.2	2.86e-05	0	36	0	40189820928	22	15563
2026-01-10 09:03:36.54	171.88	34.77	-28.2	-28.4	13.2	2.86e-05	0	36	0	40298872832	22	15466
2026-01-10 09:03:37.55	172.14	34.46	-28.3	-28.6	13.2	1.43e-05	0	35	0	40416313344	22	15751
2026-01-10 09:03:38.56	172.40	34.16	-28.5	-28.8	13.2	1.43e-05	0	35	0	40533753856	22	16063
2026-01-10 09:03:39.57	172.65	33.85	-28.5	-28.8	13.2	1.43e-05	0	35	0	40642805760	22	16071
2026-01-10 09:03:40.57	172.90	33.56	-28.7	-28.9	13.2	1.43e-05	0	35	0	40760246272	23	15471
2026-01-10 09:03:41.58	173.14	33.26	-28.7	-29.0	13.2	3.33e-05	0	35	0	40869298176	23	15536
2026-01-10 09:03:42.58	173.38	32.97	-28.9	-29.2	13.2	3.33e-05	0	35	0	40986738688	23	15882
2026-01-10 09:03:43.58	173.61	32.68	-28.9	-29.2	13.2	1.90e-05	0	35	0	41095790592	23	15973
2026-01-10 09:03:44.58	173.84	32.39	-29.2	-29.5	13.2	1.90e-05	0	35	0	41204842496	24	15502
2026-01-10 09:03:45.58	174.06	32.11	-29.4	-29.6	13.2	1.90e-05	0	35	0	41322283008	24	15817
2026-01-10 09:03:46.58	174.28	31.83	-29.3	-29.5	13.2	3.33e-05	0	36	0	41431334912	24	15638
2026-01-10 09:03:47.59	174.50	31.54	-29.3	-29.6	13.2	3.33e-05	0	36	0	41548775424	24	15743
2026-01-10 09:03:48.60	174.72	31.27	-29.5	-29.8	13.1	3.33e-05	0	35	0	41657827328	24	16069
2026-01-10 09:03:49.60	174.93	30.99	-29.5	-29.8	13.1	3.81e-05	0	36	0	41766879232	24	16145
2026-01-10 09:03:50.61	175.13	30.72	-29.7	-30.0	13.2	3.81e-05	0	35	0	41884319744	25	15514
2026-01-10 09:03:51.61	175.33	30.45	-29.8	-30.0	13.1	4.29e-05	0	35	0	42001760256	25	15638
2026-01-10 09:03:52.62	175.53	30.18	-29.9	-30.2	13.2	4.29e-05	0	35	0	42110812160	25	15850
2026-01-10 09:03:53.63	175.73	29.92	-29.9	-30.2	13.1	4.29e-05	0	35	0	42228252672	25	15984
2026-01-10 09:03:54.63	175.92	29.66	-30.0	-30.3	13.1	4.29e-05	0	35	0	42337304576	25	16124
2026-01-10 09:03:55.63	176.11	29.40	-30.1	-30.4	13.1	1.43e-05	0	35	0	42454745088	26	15374
2026-01-10 09:03:56.63	176.29	29.15	-30.2	-30.5	13.1	1.43e-05	0	35	0	42563796992	26	15566
2026-01-10 09:03:57.63	176.47	28.89	-30.4	-30.7	13.1	1.43e-05	0	35	0	42672848896	26	15852
2026-01-10 09:03:58.63	176.65	28.64	-30.4	-30.7	13.1	2.86e-05	0	35	0	42790289408	26	15924
2026-01-10 09:03:59.64	176.83	28.39	-30.6	-30.9	13.1	2.86e-05	0	36	0	42899341312	26	16304
2026-01-10 09:04:00.65	177.00	28.14	-30.7	-30.9	13.0	2.86e-05	0	35	0	43016781824	27	15451
2026-01-10 09:04:01.65	177.17	27.90	-30.7	-31.0	13.0	3.81e-05	0	35	0	43134222336	27	15612
2026-01-10 09:04:02.66	177.34	27.66	-30.8	-31.1	13.0	3.81e-05	0	36	0	43243274240	27	15742
2026-01-10 09:04:03.66	177.51	27.42	-30.9	-31.2	13.0	7.62e-05	0	35	0	43352326144	27	15866
2026-01-10 09:04:04.67	177.67	27.18	-30.9	-31.2	13.1	7.62e-05	0	36	0	43469766656	27	15984
2026-01-10 09:04:05.68	177.83	26.94	-31.0	-31.3	13.1	7.62e-05	0	35	0	43578818560	27	16125
2026-01-10 09:04:06.68	177.99	26.71	-31.0	-31.3	13.1	9.05e-05	0	36	0	43696259072	28	15271
2026-01-10 09:04:07.69	178.14	26.48	-31.0	-31.3	13.1	9.05e-05	0	35	0	43805310976	28	15224
2026-01-10 09:04:08.69	178.30	26.25	-31.1	-31.4	13.0	9.05e-05	0	36	0	43922751488	28	15354
2026-01-10 09:04:09.69	178.45	26.02	-31.2	-31.5	13.0	4.29e-05	0	35	0	44031803392	28	15581
2026-01-10 09:04:10.69	178.59	25.80	-31.2	-31.6	13.0	4.29e-05	0	35	0	44140855296	28	15670
2026-01-10 09:04:11.69	178.74	25.58	-31.4	-31.7	12.9	4.29e-05	0	35	0	44258295808	28	16007
2026-01-10 09:04:12.70	178.88	25.36	-31.6	-31.9	12.9	1.05e-04	0	36	0	44367347712	28	16214
2026-01-10 09:04:13.71	179.03	25.14	-31.7	-32.0	13.0	1.05e-04	0	36	0	44484788224	29	15505
2026-01-10 09:04:14.71	179.16	24.92	-31.7	-32.0	13.0	1.05e-04	0	36	0	44602228736	29	15580
2026-01-10 09:04:15.72	179.30	24.71	-31.8	-32.1	13.0	1.24e-04	0	36	0	44711280640	29	15663
2026-01-10 09:04:16.72	179.44	24.50	-31.7	-32.0	13.0	1.24e-04	0	36	0	44820332544	29	15605
2026-01-10 09:04:17.73	179.57	24.28	-31.7	-32.0	13.0	1.24e-04	0	36	0	44937773056	29	15585
2026-01-10 09:04:18.74	179.71	24.07	-31.8	-32.1	13.0	9.05e-05	0	36	0	45046824960	29	15790
2026-01-10 09:04:19.74	179.83	23.87	-32.0	-32.3	13.0	9.05e-05	0	35	0	45164265472	29	16049
2026-01-10 09:04:20.74	179.96	23.67	-32.0	-32.3	13.0	9.05e-05	0	36	0	45273317376	29	16066
2026-01-10 09:04:21.74	180.09	23.46	-32.0	-32.3	13.0	1.67e-04	0	36	0	45390757888	29	16117
2026-01-10 09:04:22.75	180.21	23.26	-32.0	-32.3	13.0	1.67e-04	0	36	0	45499809792	29	16173
2026-01-10 09:04:23.76	180.34	23.06	-32.2	-32.5	13.0	1.67e-04	0	36	0	45617250304	30	15510
2026-01-10 09:04:24.76	180.46	22.86	-32.1	-32.4	13.0	1.48e-04	0	36	0	45726302208	30	15448
2026-01-10 09:04:25.76	180.58	22.67	-32.2	-32.5	12.9	1.48e-04	0	36	0	45843742720	30	15526
2026-01-10 09:04:26.76	180.69	22.47	-32.2	-32.5	12.9	1.67e-04	0	36	0	45952794624	30	15603
2026-01-10 09:04:27.76	180.81	22.28	-32.3	-32.6	12.9	1.67e-04	0	36	0	46070235136	30	15737
2026-01-10 09:04:28.77	180.92	22.09	-32.4	-32.7	12.9	1.67e-04	0	36	0	46179287040	30	15868
2026-01-10 09:04:29.77	181.04	21.90	-32.4	-32.8	12.9	2.14e-04	0	36	0	46296727552	30	16038
2026-01-10 09:04:30.77	181.15	21.72	-32.6	-32.9	12.9	2.14e-04	0	36	0	46405779456	31	15427
2026-01-10 09:04:31.78	181.26	21.53	-32.6	-32.9	12.9	2.14e-04	0	36	0	46514831360	31	15421
2026-01-10 09:04:32.77	181.37	21.35	-32.7	-33.0	12.9	3.05e-04	0	36	0	46632271872	31	15489
2026-01-10 09:04:33.77	181.47	21.17	-32.8	-33.1	12.9	3.05e-04	0	36	0	46741323776	31	15753
2026-01-10 09:04:34.78	181.58	20.98	-32.9	-33.2	12.9	3.05e-04	0	35	0	46858764288	31	15872
2026-01-10 09:04:35.79	181.69	20.80	-33.0	-33.3	12.9	3.29e-04	0	36	0	46967816192	31	16078
2026-01-10 09:04:36.79	181.79	20.62	-32.9	-33.2	12.9	3.29e-04	0	36	0	47076868096	31	15985
2026-01-10 09:04:37.80	181.89	20.45	-32.8	-33.1	12.9	3.29e-04	0	36	0	47194308608	31	15789
2026-01-10 09:04:38.80	181.99	20.27	-32.9	-33.2	12.9	3.15e-04	0	36	0	47303360512	31	16012
2026-01-10 09:04:39.81	182.09	20.10	-32.9	-33.2	12.9	3.15e-04	0	36	0	47420801024	31	15977
2026-01-10 09:04:40.81	182.19	19.93	-33.0	-33.3	12.8	3.15e-04	0	36	0	47538241536	31	16074
2026-01-10 09:04:41.82	182.29	19.75	-33.1	-33.4	12.8	3.15e-04	0	36	0	47647293440	31	16258
2026-01-10 09:04:42.83	182.39	19.58	-33.1	-33.4	12.9	3.62e-04	0	36	0	47764733952	32	15365
2026-01-10 09:04:43.84	182.48	19.41	-33.2	-33.5	12.8	3.62e-04	0	36	0	47873785856	32	15527
2026-01-10 09:04:44.85	182.58	19.25	-33.1	-33.5	12.8	3.62e-04	0	36	0	47982837760	32	15480
2026-01-10 09:04:45.85	182.67	19.08	-33.3	-33.6	12.8	3.81e-04	0	36	0	48100278272	32	15819
2026-01-10 09:04:46.86	182.76	18.92	-33.3	-33.6	12.8	3.81e-04	0	36	0	48217718784	32	15791
2026-01-10 09:04:47.86	182.85	18.75	-33.4	-33.7	12.8	3.81e-04	0	36	0	48326770688	32	15846
2026-01-10 09:04:48.87	182.94	18.59	-33.5	-33.8	12.8	5.72e-04	0	35	0	48444211200	32	16156
2026-01-10 09:04:49.86	183.03	18.43	-33.6	-33.9	12.8	5.72e-04	0	36	0	48553263104	32	16224
2026-01-10 09:04:50.86	183.12	18.28	-33.6	-33.9	12.8	6.20e-04	0	36	0	48662315008	32	16237
2026-01-10 09:04:51.87	183.20	18.12	-33.7	-34.0	12.8	6.20e-04	0	36	0	48779755520	33	15520
2026-01-10 09:04:52.87	183.29	17.96	-33.6	-33.9	12.8	6.20e-04	0	36	0	48888807424	33	15362
2026-01-10 09:04:53.88	183.37	17.80	-33.6	-33.9	12.8	5.34e-04	0	36	0	49006247936	33	15389
2026-01-10 09:04:54.88	183.46	17.65	-33.6	-33.9	12.8	5.34e-04	0	36	0	49115299840	33	15443
2026-01-10 09:04:55.87	183.54	17.50	-33.7	-34.0	12.8	6.87e-04	0	36	0	49232740352	33	15591
2026-01-10 09:04:56.88	183.62	17.35	-33.7	-34.0	12.8	6.87e-04	0	36	0	49341792256	33	15636
2026-01-10 09:04:57.88	183.70	17.20	-33.8	-34.1	12.8	6.87e-04	0	36	0	49450844160	33	15790
2026-01-10 09:04:58.89	183.78	17.05	-33.8	-34.1	12.8	6.68e-04	0	36	0	49568284672	33	15745
2026-01-10 09:04:59.89	183.86	16.90	-34.0	-34.3	12.7	6.68e-04	0	36	0	49677336576	33	16113
2026-01-10 09:05:00.88	183.94	16.75	-34.0	-34.3	12.7	7.34e-04	0	36	0	49794777088	33	16111
2026-01-10 09:05:01.88	184.01	16.61	-34.0	-34.4	12.7	7.34e-04	0	36	0	49903828992	33	16234
2026-01-10 09:05:02.88	184.09	16.46	-34.2	-34.5	12.7	7.34e-04	0	36	0	50012880896	34	15604
2026-01-10 09:05:03.89	184.17	16.32	-34.2	-34.5	12.7	7.34e-04	0	36	0	50130321408	34	15644
2026-01-10 09:05:04.90	184.24	16.17	-34.3	-34.6	12.7	8.53e-04	0	36	0	50239373312	34	15661
2026-01-10 09:05:05.90	184.32	16.03	-34.5	-34.8	12.7	8.53e-04	0	36	0	50356813824	34	16047
2026-01-10 09:05:06.91	184.39	15.89	-34.4	-34.7	12.7	8.53e-04	0	36	0	50474254336	34	15963
2026-01-10 09:05:07.91	184.46	15.75	-34.5	-34.8	12.7	1.07e-03	0	36	0	50583306240	34	16061
2026-01-10 09:05:08.92	184.53	15.61	-34.5	-34.8	12.7	1.07e-03	0	36	0	50700746752	34	16155
2026-01-10 09:05:09.92	184.60	15.47	-34.6	-34.9	12.6	1.13e-03	0	36	0	50809798656	34	16320
2026-01-10 09:05:10.93	184.68	15.33	-34.7	-35.1	12.6	1.13e-03	0	36	0	50918850560	35	15656
2026-01-10 09:05:11.94	184.75	15.20	-34.7	-35.0	12.7	1.13e-03	0	36	0	51036291072	35	15524
2026-01-10 09:05:12.94	184.81	15.06	-34.7	-35.0	12.7	1.28e-03	0	36	0	51145342976	35	15570
2026-01-10 09:05:13.94	184.88	14.93	-34.7	-35.0	12.7	1.28e-03	0	36	0	51262783488	35	15587
2026-01-10 09:05:14.95	184.95	14.79	-34.7	-35.0	12.6	1.28e-03	0	36	0	51371835392	35	15640
2026-01-10 09:05:15.96	185.02	14.66	-34.7	-35.0	12.6	1.29e-03	0	36	0	51489275904	35	15635
2026-01-10 09:05:16.96	185.08	14.53	-34.7	-35.0	12.6	1.29e-03	0	36	0	51598327808	35	15639
2026-01-10 09:05:17.96	185.15	14.40	-34.8	-35.2	12.6	1.29e-03	0	36	0	51715768320	35	15857
2026-01-10 09:05:18.96	185.21	14.27	-34.8	-35.1	12.6	1.23e-03	0	36	0	51824820224	35	15795
2026-01-10 09:05:19.97	185.28	14.14	-34.9	-35.2	12.6	1.23e-03	0	36	0	51942260736	35	16013
2026-01-10 09:05:20.97	185.34	14.01	-34.9	-35.2	12.6	1.74e-03	0	36	0	52051312640	35	16002
2026-01-10 09:05:21.98	185.41	13.89	-35.0	-35.4	12.6	1.74e-03	0	36	0	52168753152	35	16224
2026-01-10 09:05:22.98	185.47	13.76	-37.7	-38.0	12.7	1.74e-03	0	36	0	52277805056	41	15517
2026-01-10 09:05:23.99	185.53	13.63	-37.6	-38.0	12.7	1.54e-03	0	36	0	52386856960	41	15487
2026-01-10 09:05:25.00	185.59	13.51	-37.6	-37.9	12.7	1.54e-03	0	36	0	52504297472	41	15464
2026-01-10 09:05:26.00	185.65	13.38	-37.8	-38.1	12.7	1.54e-03	0	36	0	52613349376	41	15726
2026-01-10 09:05:27.00	185.71	13.26	-37.8	-38.1	12.7	9.06e-04	0	36	0	52730789888	41	15816
2026-01-10 09:05:28.01	185.77	13.14	-37.9	-38.2	12.7	9.06e-04	0	36	0	52848230400	41	15990
2026-01-10 09:05:29.01	185.83	13.02	-38.1	-38.4	12.6	9.06e-04	0	36	0	52957282304	41	16278
2026-01-10 09:05:30.01	185.89	12.90	-38.1	-38.4	12.6	1.25e-03	0	36	0	53074722816	41	16332
2026-01-10 09:05:31.02	185.95	12.78	-38.2	-38.5	12.6	1.25e-03	0	36	0	53183774720	42	15555
2026-01-10 09:05:32.03	186.01	12.66	-38.2	-38.6	12.6	1.25e-03	0	36	0	53292826624	42	15685
2026-01-10 09:05:33.03	186.06	12.54	-38.2	-38.5	12.6	1.34e-03	0	36	0	53410267136	42	15610
2026-01-10 09:05:34.03	186.12	12.42	-38.3	-38.6	12.6	1.34e-03	0	36	0	53519319040	42	15833
2026-01-10 09:05:35.03	186.18	12.30	-38.4	-38.7	12.6	1.51e-03	0	36	0	53636759552	42	15857
2026-01-10 09:05:36.03	186.23	12.19	-38.5	-38.8	12.6	1.51e-03	0	36	0	53745811456	42	16056
2026-01-10 09:05:37.03	186.29	12.07	-38.5	-38.8	12.6	1.51e-03	0	36	0	53854863360	42	16193
2026-01-10 09:05:38.03	186.34	11.96	-38.6	-38.9	12.5	1.82e-03	0	36	0	53972303872	42	16256
2026-01-10 09:05:39.04	186.40	11.84	-38.6	-38.9	12.5	1.82e-03	0	36	0	54081355776	42	16319
2026-01-10 09:05:40.03	186.45	11.73	-38.6	-38.9	12.5	1.82e-03	0	36	0	54198796288	43	15447
2026-01-10 09:05:41.03	186.50	11.62	-38.6	-39.0	12.6	1.97e-03	0	36	0	54307848192	43	15494
2026-01-10 09:05:42.04	186.55	11.50	-38.7	-39.0	12.5	1.97e-03	0	36	0	54416900096	43	15497
2026-01-10 09:05:43.04	186.61	11.39	-38.7	-39.1	12.5	1.95e-03	0	36	0	54534340608	43	15654
2026-01-10 09:05:44.04	186.66	11.28	-38.8	-39.1	12.5	1.95e-03	0	36	0	54643392512	43	15732
2026-01-10 09:05:45.05	186.71	11.17	-38.8	-39.1	12.5	1.95e-03	0	36	0	54760833024	43	15758
2026-01-10 09:05:46.05	186.76	11.06	-38.9	-39.2	12.5	2.24e-03	0	36	0	54869884928	43	15893
2026-01-10 09:05:47.06	186.81	10.95	-39.0	-39.3	12.5	2.24e-03	0	36	0	54987325440	43	16158
2026-01-10 09:05:48.06	186.86	10.84	-39.0	-39.3	12.5	2.24e-03	0	36	0	55104765952	43	16071
2026-01-10 09:05:49.07	186.91	10.74	-39.1	-39.4	12.5	2.67e-03	0	36	0	55213817856	44	15452
2026-01-10 09:05:50.08	186.96	10.63	-39.1	-39.4	12.5	2.67e-03	0	36	0	55322869760	44	15380
2026-01-10 09:05:51.08	187.01	10.52	-39.2	-39.5	12.5	2.67e-03	0	36	0	55440310272	44	15527
2026-01-10 09:05:52.08	187.06	10.42	-39.2	-39.5	12.5	3.15e-03	0	36	0	55549362176	44	15577
2026-01-10 09:05:53.09	187.11	10.31	-39.3	-39.6	12.4	3.15e-03	0	36	0	55666802688	44	15679
2026-01-10 09:05:54.10	187.16	10.20	-39.4	-39.7	12.4	3.15e-03	0	36	0	55775854592	44	15913
2026-01-10 09:05:55.10	187.20	10.10	-39.4	-39.7	12.4	3.40e-03	0	36	0	55893295104	44	16008
2026-01-10 09:05:56.11	187.25	10.00	-39.3	-39.6	12.4	3.40e-03	0	36	0	56010735616	44	15828
2026-01-10 09:05:57.11	187.30	9.89	-39.4	-39.7	12.4	4.10e-03	0	36	0	56119787520	44	15928
2026-01-10 09:05:58.12	187.34	9.79	-39.6	-39.9	12.3	4.10e-03	0	36	0	56228839424	44	16348
2026-01-10 09:05:59.12	187.39	9.69	-39.5	-39.9	12.3	4.10e-03	0	36	0	56346279936	44	16242
2026-01-10 09:06:00.12	187.43	9.59	-39.5	-39.9	12.3	4.87e-03	0	36	0	56455331840	44	16235
2026-01-10 09:06:01.13	187.48	9.48	-39.6	-39.9	12.4	4.87e-03	0	36	0	56572772352	45	15430
2026-01-10 09:06:02.14	187.52	9.38	-39.7	-40.0	12.3	4.87e-03	0	36	0	56681824256	45	15596
2026-01-10 09:06:03.14	187.57	9.28	-39.8	-40.1	12.3	5.05e-03	0	36	0	56790876160	45	15804
2026-01-10 09:06:04.14	187.61	9.18	-39.8	-40.2	12.3	5.05e-03	0	36	0	56908316672	45	15864
2026-01-10 09:06:05.14	187.66	9.09	-39.8	-40.1	12.3	5.05e-03	0	36	0	57017368576	45	15826
2026-01-10 09:06:06.15	187.70	8.99	-40.0	-40.3	12.3	6.03e-03	0	36	0	57134809088	45	16107
2026-01-10 09:06:07.16	187.74	8.89	-40.0	-40.3	12.2	6.03e-03	0	36	0	57252249600	45	16198
2026-01-10 09:06:08.17	187.79	8.79	-40.1	-40.4	12.3	6.99e-03	0	36	0	57361301504	46	15469
2026-01-10 09:06:09.17	187.83	8.69	-40.2	-40.5	12.2	6.99e-03	0	36	0	57478742016	46	15547
2026-01-10 09:06:10.18	187.87	8.60	-40.1	-40.4	12.3	7.75e-03	0	36	0	57587793920	46	15392
2026-01-10 09:06:11.19	187.91	8.50	-40.2	-40.6	12.2	7.75e-03	0	36	0	57696845824	46	15683
2026-01-10 09:06:12.19	187.96	8.40	-40.3	-40.7	12.2	7.75e-03	0	36	0	57814286336	46	15862
2026-01-10 09:06:13.19	188.00	8.31	-40.4	-40.7	12.2	8.08e-03	0	36	0	57923338240	46	15890
2026-01-10 09:06:14.20	188.04	8.21	-40.6	-40.9	12.1	8.08e-03	0	36	0	58040778752	46	16304
2026-01-10 09:06:15.20	188.08	8.12	-40.6	-40.9	12.1	8.08e-03	0	36	0	58149830656	46	16273
2026-01-10 09:06:16.20	188.12	8.03	-40.5	-40.8	12.1	9.15e-03	0	36	0	58258882560	46	16181
2026-01-10 09:06:17.20	188.16	7.93	-40.5	-40.9	12.1	9.15e-03	0	36	0	58376323072	46	16277
2026-01-10 09:06:18.20	188.20	7.84	-40.7	-41.0	12.1	9.15e-03	0	36	0	58485374976	47	15579
2026-01-10 09:06:19.21	188.24	7.75	-40.7	-41.0	12.1	8.81e-03	0	36	0	58602815488	47	15549
2026-01-10 09:06:20.22	188.28	7.66	-40.7	-41.0	12.1	8.81e-03	0	36	0	58720256000	47	15639
2026-01-10 09:06:21.22	188.32	7.57	-40.7	-41.1	12.1	8.81e-03	0	36	0	58829307904	47	15691
2026-01-10 09:06:22.22	188.35	7.47	-40.8	-41.2	12.0	9.91e-03	0	36	0	58946748416	47	15864
2026-01-10 09:06:23.22	188.39	7.38	-40.9	-41.3	12.0	9.91e-03	0	36	0	59055800320	47	16063
2026-01-10 09:06:24.22	188.43	7.29	-40.8	-41.1	12.0	9.91e-03	0	36	0	59164852224	47	15789
2026-01-10 09:06:25.22	188.47	7.21	-40.8	-41.1	12.0	1.09e-02	0	36	0	59282292736	47	15812
2026-01-10 09:06:26.23	188.51	7.12	-57.7	-60.9	6.1	1.09e-02	0	35	104	59282292736	81	21774
2026-01-10 09:06:27.23	188.54	7.03	-57.7	-60.9	6.2	1.09e-02	0	35	104	59282292736	81	21751
2026-01-10 09:06:28.23	188.58	6.94	-57.6	-60.9	6.1	1.09e-02	0	35	104	59282292736	81	21665
2026-01-10 09:06:29.24	188.62	6.85	-57.6	-60.8	6.2	1.09e-02	0	35	104	59282292736	81	21603
2026-01-10 09:06:30.24	188.65	6.76	-57.6	-60.9	6.2	1.09e-02	0	35	104	59282292736	81	21620
2026-01-10 09:06:31.24	188.69	6.67	-57.6	-60.8	6.2	1.09e-02	0	35	104	59282292736	81	21518
2026-01-10 09:06:32.25	188.73	6.59	-57.6	-60.9	6.2	1.09e-02	0	35	104	59282292736	81	21611
2026-01-10 09:06:33.25	188.76	6.50	-57.5	-60.8	6.2	1.09e-02	0	35	104	59282292736	81	21386
2026-01-10 09:06:34.26	188.80	6.41	-57.5	-60.8	6.2	2.69e-03	0	35	104	59282292736	81	21412
2026-01-10 09:06:35.27	188.83	6.33	-57.5	-60.7	6.2	2.69e-03	0	35	104	59282292736	81	21284
2026-01-10 09:06:36.27	188.87	6.24	-57.6	-60.8	6.1	2.69e-03	0	35	104	59282292736	81	21378
2026-01-10 09:06:37.28	188.90	6.16	-57.5	-60.7	6.2	2.69e-03	0	35	104	59282292736	81	21216
2026-01-10 09:06:38.29	188.94	6.07	-57.5	-60.7	6.2	2.69e-03	0	35	104	59282292736	81	21245
2026-01-10 09:06:39.29	188.97	5.99	-57.4	-60.6	6.2	2.69e-03	0	35	104	59282292736	81	21109
2026-01-10 09:06:40.29	189.01	5.90	-57.5	-60.7	6.2	2.69e-03	0	35	104	59282292736	81	21272
2026-01-10 09:06:41.30	189.04	5.82	-57.4	-60.6	6.2	2.69e-03	0	35	104	59282292736	81	21053
2026-01-10 09:06:42.30	189.08	5.74	-57.4	-60.6	6.1	2.69e-03	0	35	104	59282292736	81	21098
2026-01-10 09:06:43.30	189.11	5.65	-57.4	-60.6	6.2	2.69e-03	0	35	104	59282292736	81	20970
2026-01-10 09:06:44.31	189.14	5.57	-57.4	-60.6	6.2	0.00e+00	0	35	104	59282292736	81	21057
2026-01-10 09:06:45.31	189.18	5.49	-57.3	-60.5	6.2	0.00e+00	0	35	104	59282292736	81	20858
2026-01-10 09:06:46.32	189.21	5.41	-57.4	-60.6	6.2	0.00e+00	0	35	104	59282292736	81	20939
2026-01-10 09:06:47.32	189.24	5.32	-57.3	-60.6	6.2	0.00e+00	0	35	104	59282292736	81	20894
2026-01-10 09:06:48.33	189.27	5.24	-57.4	-60.6	6.2	0.00e+00	0	35	104	59282292736	81	20937
2026-01-10 09:06:49.33	189.31	5.16	-57.3	-60.5	6.2	0.00e+00	0	34	104	59282292736	81	20754
2026-01-10 09:06:50.33	189.34	5.08	-57.3	-60.5	6.2	0.00e+00	0	35	104	59282292736	81	20740
2026-01-10 09:06:51.34	189.37	5.00	-57.2	-60.4	6.2	0.00e+00	0	34	104	59282292736	81	20579
2026-01-10 09:06:52.34	189.40	4.92	-57.7	-60.9	6.2	0.00e+00	0	34	104	59282292736	81	21768
2026-01-10 09:06:53.35	189.43	4.84	-58.1	-61.3	6.1	0.00e+00	0	34	104	59282292736	81	22738
2026-01-10 09:06:54.34	189.47	4.76	-58.4	-61.6	6.2	0.00e+00	0	34	104	59282292736	82	22225
2026-01-10 09:06:55.34	189.50	4.68	-58.5	-61.7	6.2	0.00e+00	0	34	104	59282292736	82	22584
2026-01-10 09:06:56.34	189.53	4.60	-58.7	-61.9	6.1	0.00e+00	0	34	104	59282292736	83	21806
2026-01-10 09:06:57.34	189.56	4.53	-58.8	-62.0	6.1	0.00e+00	0	34	104	59282292736	83	22079
2026-01-10 09:06:58.34	189.59	4.45	-58.9	-62.1	6.2	0.00e+00	0	34	104	59282292736	83	22239
2026-01-10 09:06:59.35	189.62	4.37	-59.0	-62.2	6.1	0.00e+00	0	34	104	59282292736	83	22519
2026-01-10 09:07:00.35	189.65	4.29	-59.0	-62.2	6.2	0.00e+00	0	34	104	59282292736	83	22584
2026-01-10 09:07:01.36	189.68	4.21	-59.1	-62.3	6.2	0.00e+00	0	34	104	59282292736	83	22758
2026-01-10 09:07:02.35	189.71	4.14	-59.1	-62.3	6.2	0.00e+00	0	34	104	59282292736	83	22840
2026-01-10 09:07:03.36	189.74	4.06	-59.3	-62.5	6.2	0.00e+00	0	34	104	59282292736	84	22090
2026-01-10 09:07:04.37	189.77	3.98	-59.4	-62.6	6.1	0.00e+00	0	34	104	59282292736	84	22234
2026-01-10 09:07:05.37	189.80	3.91	-59.4	-62.6	6.1	0.00e+00	0	34	104	59282292736	84	22244
2026-01-10 09:07:06.38	189.83	3.83	-59.4	-62.6	6.1	0.00e+00	0	34	104	59282292736	84	22350
2026-01-10 09:07:07.39	189.86	3.76	-59.4	-62.6	6.2	0.00e+00	0	34	104	59282292736	84	22326
2026-01-10 09:07:08.40	189.89	3.68	-59.5	-62.7	6.2	0.00e+00	0	34	104	59282292736	84	22474
2026-01-10 09:07:09.41	189.92	3.60	-59.5	-62.7	6.2	0.00e+00	0	34	104	59282292736	84	22538
2026-01-10 09:07:10.41	189.94	3.53	-59.5	-62.7	6.2	0.00e+00	0	34	104	59282292736	84	22464
2026-01-10 09:07:11.41	189.97	3.46	-59.5	-62.7	6.2	0.00e+00	0	34	104	59282292736	84	22458
2026-01-10 09:07:12.42	190.00	3.38	-59.5	-62.7	6.2	0.00e+00	0	34	104	59282292736	84	22473
2026-01-10 09:07:13.43	190.03	3.31	-59.5	-62.8	6.1	0.00e+00	0	34	104	59282292736	84	22628
2026-01-10 09:07:14.43	190.06	3.23	-59.5	-62.7	6.1	0.00e+00	0	34	104	59282292736	84	22595
2026-01-10 09:07:15.43	190.08	3.16	-59.5	-62.7	6.1	0.00e+00	0	34	104	59282292736	84	22479
2026-01-10 09:07:16.44	190.11	3.09	-59.5	-62.7	6.1	0.00e+00	0	34	104	59282292736	84	22493
2026-01-10 09:07:17.45	190.14	3.01	-59.4	-62.7	6.1	0.00e+00	0	34	104	59282292736	84	22425
2026-01-10 09:07:18.45	190.17	2.94	-59.4	-62.7	6.1	0.00e+00	0	34	104	59282292736	84	22391
2026-01-10 09:07:19.47	190.19	2.87	-59.4	-62.6	6.1	0.00e+00	0	34	104	59282292736	84	22275
2026-01-10 09:07:20.47	190.22	2.79	-59.4	-62.6	6.2	0.00e+00	0	34	104	59282292736	84	22273
2026-01-10 09:07:21.48	190.25	2.72	-59.4	-62.6	6.1	0.00e+00	0	34	104	59282292736	84	22230
2026-01-10 09:07:22.49	190.28	2.65	-59.4	-62.6	6.2	0.00e+00	0	34	104	59282292736	84	22274
2026-01-10 09:07:23.50	190.30	2.58	-59.4	-62.6	6.2	0.00e+00	0	34	104	59282292736	84	22249
2026-01-10 09:07:24.50	190.33	2.51	-59.4	-62.6	6.2	0.00e+00	0	34	104	59282292736	84	22200
2026-01-10 09:07:25.51	190.36	2.43	-59.4	-62.6	6.1	0.00e+00	0	34	104	59282292736	84	22196
2026-01-10 09:07:26.51	190.38	2.36	-59.3	-62.6	6.2	0.00e+00	0	34	104	59282292736	84	22172
2026-01-10 09:07:27.51	190.41	2.29	-59.3	-62.6	6.2	0.00e+00	0	34	104	59282292736	84	22143
2026-01-10 09:07:28.52	190.43	2.22	-59.3	-62.6	6.2	0.00e+00	0	34	104	59282292736	84	22175
2026-01-10 09:07:29.53	190.46	2.15	-59.3	-62.5	6.2	0.00e+00	0	34	104	59282292736	84	22090
2026-01-10 09:07:30.53	190.49	2.08	-59.3	-62.5	6.2	0.00e+00	0	34	104	59282292736	84	22096
2026-01-10 09:07:31.54	190.51	2.01	-59.3	-62.6	6.2	0.00e+00	0	34	104	59282292736	84	22128
2026-01-10 09:07:32.55	190.54	1.94	-59.3	-62.6	6.2	0.00e+00	0	34	104	59282292736	84	22182

#Closed at: 2026-01-10 09:07:33
#Recorded file [59282 MB]: D:/lorett/data/31004_260110_115654.dat